passes_logs/2025/01/06/XPeterburg/XPeterburg__20250106_142629_FENGYUN_3E_rec.log

#Pass ID: 20250106_142629_FENGYUN 3E
#Satellite: FENGYUN 3E
#Configuration: FENGYUN 3E
#Start time: 2025-01-06 14:26:24

#Version: 1.5.20200625
#Station: XPeterburg
#Location: 30.318091 lon 59.932769 lat
#TLE: 1 49008U 21062A   24362.16046100  .00000127  00000+0  80596-4 0  9998
#TLE: 2 49008  98.7386   0.9208 0001625 158.3591 201.7655 14.19826678180376

#Time	Az	El	Level	Level2	SNR	BER	Gain	Gain2
2025-01-06 14:26:24.61	132.52	68.19	-37.7	-39.0	3.3	8394332	93	5733
2025-01-06 14:26:24.81	132.40	68.28	-35.8	-58.2	3.3	7037498	47	64649
2025-01-06 14:26:25.01	132.29	68.36	-36.0	-45.3	4.3	8354782	73	14324
2025-01-06 14:26:25.22	132.17	68.45	-36.1	-36.7	4.4	8128463	89	5283
2025-01-06 14:26:25.42	132.05	68.53	-35.7	-35.6	4.7	8128463	89	4855
2025-01-06 14:26:25.62	131.93	68.61	-35.4	-34.9	5.0	7886009	89	4633
2025-01-06 14:26:25.82	131.82	68.69	-35.0	-34.4	5.4	7457611	88	4613
2025-01-06 14:26:26.02	131.70	68.77	-34.7	-34.4	5.8	6674377	87	4726
2025-01-06 14:26:26.22	131.58	68.86	-34.3	-33.4	6.3	3900844	87	4450
2025-01-06 14:26:26.42	131.46	68.94	-33.6	-33.1	6.9	2373332	85	4630
2025-01-06 14:26:26.62	131.33	69.02	-33.6	-33.1	6.9	1630233	85	4625
2025-01-06 14:26:26.82	131.21	69.10	-33.1	-32.4	7.5	1416744	84	4562
2025-01-06 14:26:27.02	131.09	69.19	-32.5	-31.7	8.2	1416744	83	4516
2025-01-06 14:26:27.23	130.96	69.27	-32.8	-32.4	7.9	659992	83	4714
2025-01-06 14:26:27.43	130.83	69.36	-32.0	-31.2	9.1	647186	82	4487
2025-01-06 14:26:27.63	130.70	69.44	-32.1	-31.4	8.9	309574	82	4557
2025-01-06 14:26:27.83	130.57	69.52	-31.8	-30.8	9.3	326213	82	4386
2025-01-06 14:26:28.03	130.44	69.60	-31.4	-30.4	9.8	197673	81	4434
2025-01-06 14:26:28.23	130.31	69.68	-31.3	-30.8	9.9	93738	80	4659
2025-01-06 14:26:28.43	130.18	69.77	-31.2	-30.7	10.0	93360	80	4647
2025-01-06 14:26:28.63	130.05	69.85	-31.1	-30.4	10.2	74111	80	4559
2025-01-06 14:26:28.83	129.91	69.93	-31.1	-30.4	10.2	74111	80	4554
2025-01-06 14:26:29.04	129.77	70.02	-30.6	-29.9	10.5	57838	79	4557
2025-01-06 14:26:29.24	129.63	70.10	-30.5	-29.7	10.7	39676	79	4482
2025-01-06 14:26:29.44	129.49	70.18	-30.7	-30.1	10.5	36323	79	4603
2025-01-06 14:26:29.64	129.36	70.26	-30.6	-29.9	10.6	41782	79	4548
2025-01-06 14:26:29.84	129.21	70.34	-30.7	-30.1	10.5	41645	79	4610
2025-01-06 14:26:30.04	129.07	70.43	-30.9	-30.6	10.2	47389	79	4759
2025-01-06 14:26:30.24	128.93	70.51	-31.1	-30.9	10.0	68298	79	4842
2025-01-06 14:26:30.44	128.79	70.59	-31.1	-30.9	10.0	68298	79	4812
2025-01-06 14:26:30.65	128.63	70.67	-31.5	-31.8	9.5	87615	79	5085
2025-01-06 14:26:30.85	128.49	70.76	-32.5	-32.3	9.1	130439	81	4783
2025-01-06 14:26:31.05	128.34	70.84	-32.3	-32.5	8.6	231674	81	5011
2025-01-06 14:26:31.25	128.19	70.92	-32.8	-33.0	8.0	375286	82	5042
2025-01-06 14:26:31.45	128.04	71.00	-33.2	-33.4	7.4	704841	83	5009
2025-01-06 14:26:31.65	127.88	71.08	-33.8	-34.0	6.6	1310382	84	5078
2025-01-06 14:26:31.85	127.73	71.16	-34.3	-34.7	6.0	2303833	85	5134
2025-01-06 14:26:32.05	127.57	71.24	-35.6	-36.1	4.8	2303833	88	5204
2025-01-06 14:26:32.25	127.42	71.33	-35.9	-36.8	4.4	7829761	88	5413
2025-01-06 14:26:32.46	127.25	71.41	-36.9	-38.4	3.7	7829761	90	5874
2025-01-06 14:26:32.66	127.09	71.49	-37.6	-40.6	3.6	8195148	92	6985
2025-01-06 14:26:32.86	126.93	71.57	-37.8	-40.7	3.5	8432945	92	6825
2025-01-06 14:26:33.06	126.77	71.65	-38.1	-40.4	3.3	8413593	93	6440
2025-01-06 14:26:33.26	126.60	71.73	-38.1	-40.6	3.3	8384639	93	6540
2025-01-06 14:26:33.46	126.44	71.82	-37.8	-40.9	3.6	8398075	93	7021
2025-01-06 14:26:33.66	126.27	71.90	-37.6	-39.8	3.5	8378093	93	6288
2025-01-06 14:26:33.86	126.10	71.98	-37.5	-38.5	3.4	8408100	93	5546
2025-01-06 14:26:34.06	125.93	72.06	-36.9	-37.2	3.5	8384994	92	5075
2025-01-06 14:26:34.27	125.75	72.14	-36.7	-38.6	3.8	8384994	91	6128
2025-01-06 14:26:34.47	125.58	72.22	-36.4	-37.7	4.2	8322338	91	5665
2025-01-06 14:26:34.67	125.40	72.30	-36.0	-36.4	4.3	8336013	90	5114
2025-01-06 14:26:34.87	125.22	72.38	-36.1	-36.1	4.3	8123851	90	4954
2025-01-06 14:26:35.07	125.04	72.46	-36.1	-36.2	4.2	8113105	90	4979
2025-01-06 14:26:35.27	124.86	72.54	-36.2	-36.5	4.1	8145080	90	5099
2025-01-06 14:26:35.47	124.68	72.62	-36.3	-36.8	4.0	8211547	90	5196
2025-01-06 14:26:35.67	124.50	72.70	-36.6	-37.5	3.8	8271812	90	5498
2025-01-06 14:26:35.87	124.31	72.78	-36.7	-39.4	3.7	8271812	90	6674
2025-01-06 14:26:36.08	124.11	72.86	-36.9	-39.8	3.7	8342376	90	6867
2025-01-06 14:26:36.28	123.92	72.94	-37.3	-39.3	3.6	8414955	91	6204
2025-01-06 14:26:36.48	123.73	73.02	-37.4	-39.1	3.5	8401313	91	6008
2025-01-06 14:26:36.68	123.54	73.10	-37.5	-39.0	3.5	8374328	92	5863
2025-01-06 14:26:36.88	123.34	73.18	-37.6	-40.6	3.6	8411464	92	7016
2025-01-06 14:26:37.08	123.14	73.26	-37.6	-39.8	3.5	8439182	92	6372
2025-01-06 14:26:37.28	122.94	73.34	-37.6	-39.4	3.4	8388645	92	6038
2025-01-06 14:26:37.48	122.74	73.41	-37.6	-39.3	3.4	8388645	92	6020
2025-01-06 14:26:37.68	122.54	73.49	-37.6	-40.7	3.6	8378620	92	7061
2025-01-06 14:26:37.89	122.32	73.58	-37.6	-40.2	3.6	8425540	92	6598
2025-01-06 14:26:38.09	122.12	73.65	-37.6	-39.5	3.4	8429271	92	6087
2025-01-06 14:26:38.29	121.91	73.73	-37.6	-39.5	3.4	8379581	92	6067
2025-01-06 14:26:38.49	121.70	73.81	-37.7	-41.2	3.6	8385601	92	7346
2025-01-06 14:26:38.69	121.48	73.89	-37.8	-41.1	3.6	8434741	92	7248
2025-01-06 14:26:38.89	121.26	73.96	-37.9	-40.4	3.4	8421249	92	6599
2025-01-06 14:26:39.09	121.05	74.04	-38.0	-40.6	3.3	8400123	92	6639
2025-01-06 14:26:39.29	120.83	74.12	-38.1	-41.8	3.6	8400123	93	7524
2025-01-06 14:26:39.50	120.59	74.20	-38.1	-42.0	3.6	8397010	93	7687
2025-01-06 14:26:39.70	120.37	74.27	-38.2	-41.1	3.4	8442455	93	6904
2025-01-06 14:26:39.90	120.14	74.35	-38.2	-40.9	3.3	8410778	93	6712
2025-01-06 14:26:40.10	119.91	74.43	-38.3	-41.0	3.3	8402652	93	6760
2025-01-06 14:26:40.30	119.68	74.50	-38.3	-42.6	3.6	8398979	93	8065
2025-01-06 14:26:40.50	119.44	74.58	-38.4	-42.0	3.4	8432956	93	7463
2025-01-06 14:26:40.70	119.21	74.65	-38.4	-41.5	3.3	8403224	93	7003
2025-01-06 14:26:40.90	118.97	74.73	-38.4	-41.5	3.3	8403224	93	7010
2025-01-06 14:26:41.10	118.72	74.81	-38.5	-43.0	3.6	8391883	93	8326
2025-01-06 14:26:41.31	118.47	74.88	-38.5	-42.2	3.4	8429615	93	7576
2025-01-06 14:26:41.51	118.22	74.96	-38.5	-41.6	3.3	8447067	93	7056
2025-01-06 14:26:41.71	117.97	75.03	-38.5	-41.6	3.3	8401817	93	7094
2025-01-06 14:26:41.91	117.72	75.11	-38.4	-43.0	3.6	8397960	93	8309
2025-01-06 14:26:42.11	117.46	75.18	-38.4	-42.5	3.5	8449584	93	7878
2025-01-06 14:26:42.31	117.21	75.25	-38.4	-41.6	3.3	8427921	93	7113
2025-01-06 14:26:42.51	116.95	75.33	-38.4	-41.5	3.3	8396999	93	7044
2025-01-06 14:26:42.71	116.68	75.40	-38.4	-42.9	3.6	8395568	93	8298
2025-01-06 14:26:42.91	116.42	75.47	-38.3	-42.6	3.6	8445419	93	7993
2025-01-06 14:26:43.11	116.15	75.55	-38.4	-41.6	3.3	8445419	93	7119
2025-01-06 14:26:43.32	115.87	75.62	-38.3	-41.4	3.3	8421226	93	6971
2025-01-06 14:26:43.52	115.59	75.70	-38.4	-42.8	3.6	8388507	93	8231
2025-01-06 14:26:43.72	115.31	75.77	-38.4	-42.8	3.6	8418949	93	8248
2025-01-06 14:26:43.92	115.03	75.84	-38.3	-41.2	3.4	8385761	94	6907
2025-01-06 14:26:44.12	114.75	75.91	-38.3	-40.7	3.3	8403579	94	6517
2025-01-06 14:26:44.32	114.47	75.98	-38.3	-40.8	3.3	8404243	94	6556
2025-01-06 14:26:44.52	114.18	76.05	-38.3	-42.3	3.6	8374145	94	7818
2025-01-06 14:26:44.72	113.88	76.12	-38.3	-41.4	3.4	8374145	94	7050
2025-01-06 14:26:44.92	113.59	76.19	-38.3	-40.7	3.3	8445877	94	6523
2025-01-06 14:26:45.13	113.28	76.27	-38.2	-40.5	3.3	8395465	94	6417
2025-01-06 14:26:45.33	112.97	76.33	-38.2	-42.0	3.6	8393737	94	7599
2025-01-06 14:26:45.53	112.67	76.40	-38.2	-41.3	3.5	8453727	94	7036
2025-01-06 14:26:45.73	112.36	76.47	-38.2	-40.4	3.3	8428356	94	6393
2025-01-06 14:26:45.93	112.05	76.54	-38.1	-40.3	3.3	8391448	94	6310
2025-01-06 14:26:46.13	111.74	76.61	-38.2	-41.8	3.6	8400627	94	7450
2025-01-06 14:26:46.33	111.42	76.68	-38.2	-41.6	3.6	8400627	94	7302
2025-01-06 14:26:46.53	111.10	76.74	-38.2	-40.7	3.4	8436996	94	6577
2025-01-06 14:26:46.74	110.76	76.81	-38.2	-40.5	3.3	8414211	94	6418
2025-01-06 14:26:46.94	110.43	76.88	-38.2	-41.8	3.6	8387191	94	7493
2025-01-06 14:26:47.14	110.10	76.95	-38.2	-42.0	3.6	8422576	94	7598
2025-01-06 14:26:47.34	109.76	77.01	-38.2	-40.9	3.4	8445499	94	6731
2025-01-06 14:26:47.54	109.43	77.08	-38.2	-40.5	3.3	8415996	94	6428
2025-01-06 14:26:47.74	109.08	77.14	-38.2	-40.5	3.3	8391952	94	6403
2025-01-06 14:26:47.94	108.74	77.21	-38.2	-41.9	3.6	8426914	94	7560
2025-01-06 14:26:48.14	108.39	77.27	-38.2	-41.0	3.4	8426914	94	6826
2025-01-06 14:26:48.34	108.04	77.33	-38.2	-40.4	3.3	8425312	94	6381
2025-01-06 14:26:48.54	107.68	77.40	-38.2	-40.5	3.3	8391803	94	6420
2025-01-06 14:26:48.74	107.32	77.46	-38.2	-41.9	3.6	8390819	94	7571
2025-01-06 14:26:48.95	106.94	77.52	-38.2	-41.4	3.5	8443393	94	7119
2025-01-06 14:26:49.15	106.57	77.59	-38.2	-40.5	3.3	8425975	94	6458
2025-01-06 14:26:49.35	106.20	77.65	-38.2	-40.5	3.3	8393955	94	6430
2025-01-06 14:26:49.55	105.83	77.71	-38.2	-42.0	3.6	8401325	94	7649
2025-01-06 14:26:49.75	105.45	77.77	-38.5	-42.1	3.6	8401325	95	7413
2025-01-06 14:26:49.95	105.06	77.83	-38.5	-41.0	3.4	8397285	95	6545
2025-01-06 14:26:50.15	104.68	77.89	-38.5	-40.7	3.3	8429317	95	6334
2025-01-06 14:26:50.35	104.29	77.95	-38.5	-42.1	3.6	8396255	95	7491
2025-01-06 14:26:50.55	103.89	78.00	-38.5	-42.0	3.6	8361213	95	7386
2025-01-06 14:26:50.76	103.47	78.06	-38.5	-40.9	3.4	8442272	95	6530
2025-01-06 14:26:50.96	103.07	78.12	-38.5	-40.7	3.3	8410926	95	6343
2025-01-06 14:26:51.16	102.67	78.18	-38.4	-42.1	3.6	8399036	95	7501
2025-01-06 14:26:51.36	102.26	78.23	-38.5	-42.2	3.6	8442478	95	7510
2025-01-06 14:26:51.56	101.84	78.29	-38.5	-41.1	3.4	8427314	95	6698
2025-01-06 14:26:51.76	101.42	78.34	-38.5	-40.7	3.3	8427314	95	6349
2025-01-06 14:26:51.96	101.00	78.40	-38.5	-40.7	3.3	8402046	95	6364
2025-01-06 14:26:52.16	100.57	78.45	-38.5	-42.2	3.6	8390144	95	7535
2025-01-06 14:26:52.37	100.12	78.51	-38.5	-41.4	3.4	8449333	95	6846
2025-01-06 14:26:52.57	99.69	78.56	-38.5	-40.7	3.3	8413501	95	6325
2025-01-06 14:26:52.77	99.25	78.61	-38.5	-40.6	3.3	8385887	95	6310
2025-01-06 14:26:52.97	98.81	78.66	-38.5	-42.1	3.6	8402698	95	7475
2025-01-06 14:26:53.17	98.36	78.71	-38.5	-41.8	3.5	8391345	95	7144
2025-01-06 14:26:53.37	97.91	78.76	-38.5	-40.7	3.3	8416751	95	6367
2025-01-06 14:26:53.57	97.45	78.81	-38.5	-40.6	3.3	8416751	95	6299
2025-01-06 14:26:53.77	96.99	78.86	-38.2	-42.0	3.6	8392936	94	7654
2025-01-06 14:26:53.97	96.53	78.91	-38.7	-42.5	1.6	8376113	95	7670
2025-01-06 14:26:54.17	96.06	78.95	-38.5	-40.9	3.4	8378768	95	6505
2025-01-06 14:26:54.38	95.57	79.00	-38.5	-40.5	3.3	8419200	95	6249
2025-01-06 14:26:54.58	95.09	79.05	-38.5	-40.6	3.3	8384525	95	6260
2025-01-06 14:26:54.78	94.61	79.09	-38.2	-41.9	3.6	8372886	94	7554
2025-01-06 14:26:54.98	94.13	79.14	-38.2	-41.2	3.5	8429626	94	6954
2025-01-06 14:26:55.18	93.64	79.18	-38.2	-40.6	3.3	8429626	94	6487
2025-01-06 14:26:55.38	93.15	79.22	-38.2	-40.6	3.3	8407230	94	6480
2025-01-06 14:26:55.58	92.66	79.26	-38.2	-42.0	3.6	8384891	94	7597
2025-01-06 14:26:55.78	92.16	79.30	-38.2	-41.4	3.5	8443256	94	7114
2025-01-06 14:26:55.98	91.66	79.34	-38.2	-40.5	3.3	8441917	94	6445
2025-01-06 14:26:56.19	91.12	79.39	-38.2	-40.5	3.3	8401805	94	6413
2025-01-06 14:26:56.39	90.61	79.42	-38.2	-41.9	3.6	8397296	94	7582
2025-01-06 14:26:56.59	90.10	79.46	-38.2	-41.7	3.6	8445098	94	7382
2025-01-06 14:26:56.79	89.58	79.50	-38.2	-40.7	3.4	8425586	94	6573
2025-01-06 14:26:56.99	89.06	79.53	-38.2	-40.5	3.3	8425586	94	6404
2025-01-06 14:26:57.19	88.53	79.57	-38.2	-42.0	3.6	8392501	94	7631
2025-01-06 14:26:57.39	88.00	79.60	-38.2	-42.1	3.6	8410114	94	7664
2025-01-06 14:26:57.59	87.47	79.64	-38.3	-41.1	3.4	8447113	94	6806
2025-01-06 14:26:57.79	86.93	79.67	-38.3	-40.7	3.3	8395385	94	6520
2025-01-06 14:26:57.99	86.40	79.70	-38.3	-40.8	3.3	8384880	94	6566
2025-01-06 14:26:58.19	85.85	79.73	-38.3	-42.2	3.6	8418640	94	7696
2025-01-06 14:26:58.40	85.28	79.76	-38.3	-41.5	3.4	8446048	94	7085
2025-01-06 14:26:58.60	84.73	79.79	-38.3	-40.8	3.3	8446048	94	6586
2025-01-06 14:26:58.80	84.18	79.82	-38.3	-40.9	3.3	8416007	94	6606
2025-01-06 14:26:59.00	83.62	79.84	-38.3	-42.2	3.6	8391517	94	7672
2025-01-06 14:26:59.20	83.06	79.87	-38.3	-41.7	3.5	8452972	94	7240
2025-01-06 14:26:59.40	82.50	79.90	-38.3	-40.8	3.3	8439193	94	6570
2025-01-06 14:26:59.60	81.94	79.92	-38.3	-40.7	3.3	8394859	94	6519
2025-01-06 14:26:59.80	81.37	79.94	-38.3	-42.2	3.6	8395111	94	7726
2025-01-06 14:27:00.01	80.77	79.97	-38.5	-41.7	3.5	8388622	95	7109
2025-01-06 14:27:00.21	80.20	79.99	-38.5	-40.8	3.3	8420803	95	6410
2025-01-06 14:27:00.41	79.63	80.01	-38.5	-40.6	3.3	8389068	95	6297
2025-01-06 14:27:00.61	79.05	80.03	-38.3	-42.2	3.6	8389068	94	7769
2025-01-06 14:27:00.81	78.47	80.04	-38.3	-42.2	3.6	8352893	94	7687
2025-01-06 14:27:01.01	77.89	80.06	-38.3	-41.1	3.4	8448280	94	6795
2025-01-06 14:27:01.21	77.31	80.08	-38.3	-40.8	3.3	8416625	94	6574
2025-01-06 14:27:01.41	76.72	80.09	-38.3	-40.8	3.3	8390739	94	6565
2025-01-06 14:27:01.62	76.11	80.11	-38.3	-42.2	3.6	8416843	94	7751
2025-01-06 14:27:01.82	75.52	80.12	-38.6	-41.6	3.4	8393131	95	6985
2025-01-06 14:27:02.02	74.93	80.13	-38.6	-40.9	3.3	8408935	95	6414
2025-01-06 14:27:02.22	74.34	80.14	-38.6	-40.8	3.3	8398269	95	6397
2025-01-06 14:27:02.42	73.75	80.15	-38.5	-42.1	3.6	8398269	95	7474
2025-01-06 14:27:02.62	73.15	80.16	-38.5	-41.8	3.5	8371238	95	7215
2025-01-06 14:27:02.82	72.56	80.17	-38.5	-40.8	3.4	8382453	95	6441
2025-01-06 14:27:03.02	71.96	80.18	-38.5	-40.6	3.3	8414073	95	6266
2025-01-06 14:27:03.22	71.37	80.18	-38.5	-42.1	3.6	8393817	95	7494
2025-01-06 14:27:03.43	70.74	80.19	-38.5	-42.0	3.6	8388725	95	7434
2025-01-06 14:27:03.63	70.14	80.19	-38.5	-41.3	3.4	8436332	95	6775
2025-01-06 14:27:03.83	69.55	80.19	-38.5	-40.7	3.3	8394779	95	6333
2025-01-06 14:27:04.03	68.95	80.19	-38.5	-40.7	3.3	8394779	95	6337
2025-01-06 14:27:04.23	68.35	80.19	-38.5	-42.1	3.6	8392524	95	7496
2025-01-06 14:27:04.43	67.75	80.19	-38.5	-41.4	3.4	8438301	95	6855
2025-01-06 14:27:04.63	67.15	80.19	-38.5	-40.7	3.3	8428871	95	6337
2025-01-06 14:27:04.83	66.56	80.19	-38.5	-40.7	3.3	8406177	95	6360
2025-01-06 14:27:05.03	65.96	80.19	-38.5	-42.1	3.6	8400203	95	7479
2025-01-06 14:27:05.23	65.36	80.18	-38.5	-41.5	3.5	8451622	95	7005
2025-01-06 14:27:05.44	64.74	80.17	-38.5	-40.7	3.3	8413249	95	6378
2025-01-06 14:27:05.64	64.14	80.17	-38.4	-40.6	3.3	8393028	95	6300
2025-01-06 14:27:05.84	63.55	80.16	-38.5	-42.0	3.6	8393028	95	7419
2025-01-06 14:27:06.04	62.95	80.15	-38.4	-41.8	3.6	8421512	95	7274
2025-01-06 14:27:06.24	62.36	80.14	-38.4	-40.8	3.4	8433689	95	6446
2025-01-06 14:27:06.44	61.77	80.13	-38.4	-40.6	3.3	8401485	95	6293
2025-01-06 14:27:06.64	61.18	80.12	-38.4	-41.9	3.6	8388542	95	7379
2025-01-06 14:27:06.84	60.59	80.10	-38.4	-41.9	3.6	8421478	95	7365
2025-01-06 14:27:07.04	60.01	80.09	-38.4	-40.9	3.4	8430953	95	6536
2025-01-06 14:27:07.24	59.42	80.07	-38.4	-40.5	3.3	8396278	95	6271
2025-01-06 14:27:07.45	58.81	80.06	-38.4	-40.5	3.3	8396278	95	6250
2025-01-06 14:27:07.65	58.23	80.04	-38.4	-42.0	3.6	8393589	95	7400
2025-01-06 14:27:07.85	57.65	80.02	-38.4	-41.1	3.4	8439285	95	6706
2025-01-06 14:27:08.05	57.08	80.00	-38.4	-40.6	3.3	8416145	95	6272
2025-01-06 14:27:08.25	56.51	79.98	-38.5	-40.6	3.3	8405548	95	6289
2025-01-06 14:27:08.45	55.93	79.96	-38.5	-42.1	3.6	8410526	95	7436
2025-01-06 14:27:08.65	55.37	79.94	-38.5	-41.8	3.5	8381183	95	7160
2025-01-06 14:27:08.85	54.80	79.91	-38.5	-40.9	3.4	8411705	95	6446
2025-01-06 14:27:09.05	54.24	79.89	-38.5	-40.7	3.3	8411705	95	6366
2025-01-06 14:27:09.26	53.65	79.86	-38.4	-42.1	3.6	8371444	95	7464
2025-01-06 14:27:09.46	53.09	79.84	-38.5	-41.7	3.5	8371444	95	7167
2025-01-06 14:27:09.66	52.54	79.81	-38.5	-40.8	3.3	8432796	95	6457
2025-01-06 14:27:09.86	51.98	79.78	-38.5	-40.6	3.3	8414806	95	6307
2025-01-06 14:27:10.06	51.44	79.75	-38.5	-42.1	3.6	8396438	95	7462
2025-01-06 14:27:10.26	50.89	79.72	-38.5	-42.0	3.6	8421810	95	7360
2025-01-06 14:27:10.46	50.35	79.69	-38.5	-40.9	3.4	8388473	95	6533
2025-01-06 14:27:10.66	49.81	79.66	-38.5	-40.6	3.3	8405204	95	6319
2025-01-06 14:27:10.86	49.28	79.63	-38.3	-42.2	3.6	8367221	94	7721
2025-01-06 14:27:11.07	48.72	79.59	-38.3	-42.2	3.6	8399036	94	7708
2025-01-06 14:27:11.27	48.19	79.56	-38.5	-41.2	3.4	8399036	95	6720
2025-01-06 14:27:11.47	47.67	79.52	-38.5	-40.7	3.3	8375507	95	6333
2025-01-06 14:27:11.67	47.14	79.49	-38.5	-40.7	3.3	8403385	95	6332
2025-01-06 14:27:11.87	46.63	79.45	-38.3	-42.1	3.6	8335601	94	7676
2025-01-06 14:27:12.07	46.11	79.41	-38.3	-41.8	3.5	8455421	94	7369
2025-01-06 14:27:12.27	45.61	79.37	-38.3	-40.8	3.4	8435279	94	6620
2025-01-06 14:27:12.47	45.10	79.34	-38.3	-40.7	3.3	8400672	94	6562
2025-01-06 14:27:12.67	44.60	79.30	-38.2	-42.2	3.6	8411842	94	7750
2025-01-06 14:27:12.88	44.07	79.25	-38.5	-41.9	3.6	8411842	95	7337
2025-01-06 14:27:13.08	43.58	79.21	-38.5	-40.9	3.4	8403923	95	6479
2025-01-06 14:27:13.28	43.09	79.17	-38.6	-40.8	3.3	8417049	95	6362
2025-01-06 14:27:13.48	42.60	79.12	-38.6	-42.3	3.6	8393955	95	7534
2025-01-06 14:27:13.68	42.12	79.08	-38.6	-42.3	3.6	8376754	95	7559
2025-01-06 14:27:13.88	41.64	79.04	-38.5	-41.3	3.4	8447479	95	6765
2025-01-06 14:27:14.08	41.17	78.99	-38.5	-40.8	3.3	8407871	95	6373
2025-01-06 14:27:14.28	40.70	78.94	-38.5	-40.8	3.3	8399711	95	6414
2025-01-06 14:27:14.49	40.21	78.89	-38.5	-42.3	3.6	8399711	95	7556
2025-01-06 14:27:14.69	39.75	78.85	-38.5	-41.5	3.4	8427337	95	6901
2025-01-06 14:27:14.89	39.29	78.80	-38.5	-40.8	3.3	8441825	95	6421
2025-01-06 14:27:15.09	38.84	78.75	-38.5	-40.9	3.3	8382247	95	6455
2025-01-06 14:27:15.29	38.39	78.70	-38.5	-42.3	3.6	8395774	95	7563
2025-01-06 14:27:15.49	37.94	78.65	-38.5	-41.7	3.5	8441173	95	7058
2025-01-06 14:27:15.69	37.50	78.60	-38.5	-40.8	3.3	8426616	95	6424
2025-01-06 14:27:15.89	37.06	78.55	-38.5	-40.8	3.3	8393371	95	6398
2025-01-06 14:27:16.09	36.63	78.49	-38.5	-42.2	3.6	8418216	95	7545
2025-01-06 14:27:16.30	36.18	78.44	-38.5	-42.0	3.6	8418216	95	7305
2025-01-06 14:27:16.50	35.76	78.38	-38.5	-41.0	3.3	8446197	95	6546
2025-01-06 14:27:16.70	35.33	78.33	-38.5	-40.7	3.3	8414039	95	6340
2025-01-06 14:27:16.90	34.92	78.28	-38.5	-42.3	3.6	8397045	95	7582
2025-01-06 14:27:17.10	34.50	78.22	-38.5	-42.2	3.6	8432579	95	7552
2025-01-06 14:27:17.30	34.10	78.16	-38.5	-41.2	3.4	8441631	95	6713
2025-01-06 14:27:17.50	33.69	78.11	-38.5	-40.8	3.3	8406520	95	6409
2025-01-06 14:27:17.70	33.29	78.05	-38.5	-40.8	3.3	8389022	95	6412
2025-01-06 14:27:17.90	32.89	77.99	-38.5	-42.2	3.6	8389022	95	7526
2025-01-06 14:27:18.10	32.50	77.93	-38.5	-41.3	3.4	8439537	95	6814
2025-01-06 14:27:18.30	32.11	77.88	-38.5	-40.8	3.3	8439754	95	6419
2025-01-06 14:27:18.51	31.70	77.81	-38.5	-40.7	3.3	8401840	95	6351
2025-01-06 14:27:18.71	31.32	77.75	-38.5	-42.2	3.6	8396999	95	7518
2025-01-06 14:27:18.91	30.95	77.69	-38.5	-41.4	3.4	8436504	95	6842
2025-01-06 14:27:19.11	30.57	77.63	-38.5	-40.7	3.3	8422679	95	6358
2025-01-06 14:27:19.31	30.20	77.57	-38.5	-40.7	3.3	8396152	95	6329
2025-01-06 14:27:19.51	29.84	77.51	-38.5	-42.2	3.6	8400066	95	7559
2025-01-06 14:27:19.71	29.47	77.45	-38.5	-41.7	3.5	8446678	95	7095
2025-01-06 14:27:19.91	29.11	77.38	-38.5	-40.9	3.3	8406589	95	6476
2025-01-06 14:27:20.11	28.76	77.32	-38.5	-40.8	3.3	8406589	95	6436
2025-01-06 14:27:20.31	28.41	77.26	-38.5	-42.3	3.6	8401645	95	7564
2025-01-06 14:27:20.51	28.06	77.19	-38.5	-42.0	3.6	8415641	95	7335
2025-01-06 14:27:20.72	27.70	77.13	-38.5	-41.0	3.4	8429100	95	6555
2025-01-06 14:27:20.92	27.36	77.06	-38.5	-40.8	3.3	8402927	95	6395
2025-01-06 14:27:21.12	27.02	77.00	-38.5	-42.3	3.6	8399562	95	7598
2025-01-06 14:27:21.32	26.69	76.93	-38.5	-42.2	3.6	8436161	95	7552
2025-01-06 14:27:21.52	26.36	76.86	-38.5	-41.2	3.4	8435554	95	6675
2025-01-06 14:27:21.72	26.03	76.80	-38.5	-40.8	3.3	8435554	95	6429
2025-01-06 14:27:21.92	25.71	76.73	-38.5	-40.7	3.3	8398029	95	6351
2025-01-06 14:27:22.12	25.39	76.66	-38.5	-42.2	3.6	8407035	95	7525
2025-01-06 14:27:22.32	25.07	76.60	-38.5	-41.4	3.4	8446952	95	6843
2025-01-06 14:27:22.53	24.74	76.52	-38.5	-40.7	3.3	8417518	95	6374
2025-01-06 14:27:22.73	24.43	76.46	-38.5	-40.7	3.3	8390396	95	6350
2025-01-06 14:27:22.93	24.12	76.39	-38.5	-42.2	3.6	8411853	95	7507
2025-01-06 14:27:23.13	23.82	76.32	-38.6	-41.9	3.5	8390956	95	7208
2025-01-06 14:27:23.33	23.52	76.25	-38.6	-41.1	3.3	8390956	95	6533
2025-01-06 14:27:23.53	23.22	76.18	-38.6	-40.9	3.3	8398292	95	6437
2025-01-06 14:27:23.73	22.93	76.11	-38.5	-42.1	3.6	8385360	95	7452
2025-01-06 14:27:23.93	22.64	76.04	-38.7	-42.7	1.8	8369647	95	7741
2025-01-06 14:27:24.13	22.35	75.97	-38.5	-41.0	3.4	8381263	95	6577
2025-01-06 14:27:24.34	22.05	75.89	-38.5	-40.7	3.3	8403911	95	6327
2025-01-06 14:27:24.54	21.77	75.82	-38.5	-40.7	3.3	8383609	95	6340
2025-01-06 14:27:24.74	21.49	75.75	-38.4	-42.0	3.6	8371215	95	7457
2025-01-06 14:27:24.94	21.21	75.68	-38.4	-41.3	3.5	8435771	95	6864
2025-01-06 14:27:25.14	20.94	75.61	-38.4	-40.6	3.3	8435771	95	6296
2025-01-06 14:27:25.34	20.67	75.54	-38.4	-40.6	3.3	8408603	95	6319
2025-01-06 14:27:25.54	20.40	75.46	-38.4	-42.0	3.6	8395809	95	7440
2025-01-06 14:27:25.74	20.14	75.39	-38.5	-41.7	3.5	8445453	95	7134
2025-01-06 14:27:25.94	19.87	75.32	-38.5	-40.9	3.3	8364566	95	6456
2025-01-06 14:27:26.14	19.62	75.24	-38.5	-40.8	3.3	8386287	95	6384
2025-01-06 14:27:26.34	19.36	75.17	-38.5	-42.1	3.6	8342937	95	7478
2025-01-06 14:27:26.55	19.09	75.09	-38.5	-42.1	3.6	8448383	95	7444
2025-01-06 14:27:26.75	18.84	75.02	-38.5	-40.9	3.4	8448383	95	6545
2025-01-06 14:27:26.95	18.59	74.94	-38.5	-40.6	3.3	8423927	95	6306
2025-01-06 14:27:27.15	18.35	74.87	-38.5	-42.2	3.6	8390110	95	7525
2025-01-06 14:27:27.35	18.10	74.79	-38.5	-42.1	3.6	8424602	95	7451
2025-01-06 14:27:27.55	17.86	74.72	-38.5	-41.1	3.4	8380828	95	6671
2025-01-06 14:27:27.75	17.62	74.64	-38.5	-40.7	3.3	8405914	95	6324
2025-01-06 14:27:27.95	17.39	74.57	-38.4	-40.6	3.3	8393909	95	6329
2025-01-06 14:27:28.15	17.15	74.49	-38.2	-42.1	3.6	8367279	94	7674
2025-01-06 14:27:28.35	16.92	74.42	-38.2	-41.3	3.4	8445190	94	7036
2025-01-06 14:27:28.56	16.68	74.34	-38.2	-40.6	3.3	8400226	94	6460
2025-01-06 14:27:28.76	16.45	74.26	-38.2	-40.6	3.3	8400226	94	6477
2025-01-06 14:27:28.96	16.23	74.18	-38.2	-42.1	3.6	8386196	94	7722
2025-01-06 14:27:29.16	16.01	74.11	-38.2	-41.2	3.4	8440097	94	6970
2025-01-06 14:27:29.36	15.79	74.03	-38.2	-40.7	3.3	8432487	94	6544
2025-01-06 14:27:29.56	15.57	73.95	-38.2	-40.7	3.3	8390933	94	6519
2025-01-06 14:27:29.76	15.35	73.88	-38.2	-42.1	3.6	8407253	94	7715
2025-01-06 14:27:29.96	15.14	73.80	-38.2	-41.6	3.5	8443073	94	7228
2025-01-06 14:27:30.16	14.93	73.72	-38.3	-40.7	3.3	8428127	94	6547
2025-01-06 14:27:30.36	14.72	73.64	-38.2	-40.7	3.3	8396369	94	6519
2025-01-06 14:27:30.57	14.50	73.56	-38.3	-42.1	3.6	8396369	94	7670
2025-01-06 14:27:30.77	14.30	73.48	-38.3	-41.9	3.6	8416145	94	7491
2025-01-06 14:27:30.97	14.10	73.40	-38.2	-40.9	3.4	8447307	94	6696
2025-01-06 14:27:31.17	13.89	73.33	-38.2	-40.7	3.3	8410789	94	6543
2025-01-06 14:27:31.37	13.70	73.25	-38.2	-42.2	3.6	8398853	94	7738
2025-01-06 14:27:31.57	13.50	73.17	-38.2	-42.2	3.6	8431285	94	7772
2025-01-06 14:27:31.77	13.30	73.09	-38.2	-41.1	3.4	8441619	94	6803
2025-01-06 14:27:31.97	13.11	73.01	-38.3	-40.7	3.3	8407608	94	6535
2025-01-06 14:27:32.17	12.92	72.93	-38.3	-40.7	3.3	8407608	94	6536
2025-01-06 14:27:32.37	12.73	72.85	-38.2	-42.2	3.6	8390785	94	7763
2025-01-06 14:27:32.58	12.53	72.77	-38.5	-41.4	3.5	8443210	95	6894
2025-01-06 14:27:32.78	12.35	72.69	-38.5	-40.7	3.3	8361190	95	6364
2025-01-06 14:27:32.98	12.16	72.61	-38.5	-40.7	3.3	8401805	95	6368
2025-01-06 14:27:33.18	11.98	72.53	-38.2	-42.1	3.6	8338989	94	7676
2025-01-06 14:27:33.38	11.80	72.45	-38.2	-41.7	3.5	8437099	94	7326
2025-01-06 14:27:33.58	11.62	72.37	-38.2	-40.8	3.3	8423057	94	6651
2025-01-06 14:27:33.78	11.45	72.29	-38.2	-40.6	3.3	8401966	94	6499
2025-01-06 14:27:33.98	11.27	72.21	-38.2	-42.1	3.6	8401966	94	7677
2025-01-06 14:27:34.18	11.10	72.13	-38.2	-41.9	3.6	8405181	94	7508
2025-01-06 14:27:34.38	10.93	72.05	-38.2	-40.9	3.4	8430908	94	6718
2025-01-06 14:27:34.59	10.75	71.97	-38.2	-40.6	3.3	8396701	94	6491
2025-01-06 14:27:34.79	10.58	71.89	-38.2	-42.2	3.6	8405055	94	7742
2025-01-06 14:27:34.99	10.41	71.81	-38.2	-42.2	3.6	8436607	94	7786
2025-01-06 14:27:35.19	10.25	71.73	-38.2	-41.2	3.4	8437362	94	6889
2025-01-06 14:27:35.39	10.08	71.65	-38.2	-40.7	3.3	8388038	94	6522
2025-01-06 14:27:35.59	9.92	71.56	-38.2	-40.7	3.3	8388038	94	6521
2025-01-06 14:27:35.79	9.76	71.48	-38.2	-42.2	3.6	8399002	94	7772
2025-01-06 14:27:35.99	9.60	71.40	-38.2	-41.3	3.4	8441024	94	7022
2025-01-06 14:27:36.19	9.44	71.32	-38.2	-40.7	3.3	8419086	94	6552
2025-01-06 14:27:36.39	9.28	71.24	-38.2	-40.7	3.3	8399951	94	6571
2025-01-06 14:27:36.59	9.13	71.16	-38.2	-42.1	3.6	8407379	94	7694
2025-01-06 14:27:36.79	8.98	71.08	-38.3	-41.6	3.5	8435840	94	7236
2025-01-06 14:27:37.00	8.82	70.99	-38.3	-40.8	3.3	8412860	94	6569
2025-01-06 14:27:37.20	8.67	70.91	-38.4	-40.9	3.3	8412860	94	6557
2025-01-06 14:27:37.40	8.52	70.83	-38.4	-42.4	3.6	8391540	94	7831
2025-01-06 14:27:37.60	8.37	70.75	-38.4	-42.2	3.6	8422485	94	7634
2025-01-06 14:27:37.80	8.22	70.67	-38.4	-41.1	3.4	8438278	94	6745
2025-01-06 14:27:38.00	8.08	70.59	-38.4	-40.9	3.3	8406749	94	6561
2025-01-06 14:27:38.20	7.93	70.50	-38.3	-42.3	3.6	8396793	94	7751
2025-01-06 14:27:38.40	7.79	70.42	-38.3	-42.3	3.6	8440097	94	7790
2025-01-06 14:27:38.60	7.65	70.34	-38.3	-41.3	3.4	8430484	94	6893

#Closed at: 2025-01-06 14:27:38