passes_logs/2025/01/06/XPeterburg/XPeterburg__20250106_043350_FENGYUN_3E_rec.log

#Pass ID: 20250106_043350_FENGYUN 3E
#Satellite: FENGYUN 3E
#Configuration: FENGYUN 3E
#Start time: 2025-01-06 04:33:43

#Version: 1.5.20200625
#Station: XPeterburg
#Location: 30.318091 lon 59.932769 lat
#TLE: 1 49008U 21062A   24362.16046100  .00000127  00000+0  80596-4 0  9998
#TLE: 2 49008  98.7386   0.9208 0001625 158.3591 201.7655 14.19826678180376

#Time	Az	El	Level	Level2	SNR	BER	Gain	Gain2
2025-01-06 04:33:43.64	30.26	67.36	-38.6	-41.4	3.3	8383655	94	6734
2025-01-06 04:33:43.85	30.32	67.45	-38.0	-60.5	2.5	6341114	46	65535
2025-01-06 04:33:44.05	30.37	67.54	-38.2	-52.5	3.5	8259773	72	25658
2025-01-06 04:33:44.25	30.42	67.63	-38.5	-41.3	3.3	8407951	94	6781
2025-01-06 04:33:44.45	30.48	67.71	-38.5	-41.3	3.3	8407951	94	6729
2025-01-06 04:33:44.65	30.53	67.80	-38.8	-42.7	3.6	8378780	95	7728
2025-01-06 04:33:44.85	30.59	67.89	-38.8	-42.7	3.6	8364784	95	7654
2025-01-06 04:33:45.05	30.64	67.98	-38.8	-41.5	3.4	8429946	95	6730
2025-01-06 04:33:45.25	30.70	68.07	-38.8	-41.3	3.3	8412368	95	6514
2025-01-06 04:33:45.45	30.75	68.16	-38.8	-42.8	3.6	8398807	95	7767
2025-01-06 04:33:45.65	30.81	68.25	-38.8	-42.7	3.6	8436023	95	7705
2025-01-06 04:33:45.86	30.87	68.34	-38.8	-41.7	3.4	8429592	95	6817
2025-01-06 04:33:46.06	30.93	68.43	-38.8	-41.3	3.3	8429592	95	6532
2025-01-06 04:33:46.26	30.99	68.52	-38.8	-41.3	3.3	8400478	95	6534
2025-01-06 04:33:46.46	31.05	68.61	-38.8	-42.7	3.6	8391506	95	7707
2025-01-06 04:33:46.66	31.11	68.70	-38.8	-41.9	3.4	8446266	95	7010
2025-01-06 04:33:46.86	31.17	68.79	-38.8	-41.3	3.3	8431560	95	6532
2025-01-06 04:33:47.06	31.23	68.88	-38.8	-41.2	3.3	8397880	95	6485
2025-01-06 04:33:47.26	31.29	68.97	-38.8	-42.7	3.6	8414760	95	7681
2025-01-06 04:33:47.47	31.35	69.06	-38.8	-42.2	3.5	8439708	95	7255
2025-01-06 04:33:47.67	31.42	69.15	-38.8	-41.3	3.3	8439708	95	6591
2025-01-06 04:33:47.87	31.48	69.24	-38.8	-41.2	3.3	8410377	95	6484
2025-01-06 04:33:48.07	31.54	69.33	-38.8	-42.7	3.6	8395271	95	7676
2025-01-06 04:33:48.27	31.61	69.42	-38.8	-42.5	3.6	8436927	95	7486
2025-01-06 04:33:48.47	31.67	69.51	-38.8	-41.5	3.4	8441093	95	6695
2025-01-06 04:33:48.67	31.74	69.60	-38.8	-41.3	3.3	8404026	95	6521
2025-01-06 04:33:48.87	31.80	69.69	-38.8	-42.7	3.6	8388931	95	7722
2025-01-06 04:33:49.07	31.87	69.78	-38.8	-42.7	3.6	8438049	95	7719
2025-01-06 04:33:49.27	31.94	69.87	-38.8	-41.7	3.4	8428092	95	6823
2025-01-06 04:33:49.48	32.01	69.97	-38.8	-41.3	3.3	8428092	95	6552
2025-01-06 04:33:49.68	32.07	70.06	-38.8	-41.2	3.3	8394630	95	6496
2025-01-06 04:33:49.88	32.14	70.15	-38.8	-42.7	3.6	8394859	95	7728
2025-01-06 04:33:50.08	32.21	70.24	-38.8	-41.8	3.4	8442832	95	6952
2025-01-06 04:33:50.28	32.28	70.33	-38.8	-41.1	3.3	8423183	95	6431
2025-01-06 04:33:50.48	32.36	70.42	-38.8	-41.2	3.3	8387397	95	6488
2025-01-06 04:33:50.68	32.43	70.51	-38.8	-42.7	3.6	8415046	95	7678
2025-01-06 04:33:50.88	32.50	70.60	-38.8	-42.1	3.5	8451896	95	7186
2025-01-06 04:33:51.08	32.57	70.69	-38.8	-41.3	3.3	8451896	95	6572
2025-01-06 04:33:51.29	32.65	70.79	-38.8	-41.2	3.3	8405593	95	6506
2025-01-06 04:33:51.49	32.73	70.88	-38.8	-42.8	3.6	8381881	95	7737
2025-01-06 04:33:51.69	32.80	70.97	-38.8	-42.5	3.6	8420322	95	7512
2025-01-06 04:33:51.89	32.88	71.06	-38.8	-41.5	3.4	8441505	95	6716
2025-01-06 04:33:52.09	32.95	71.15	-38.8	-41.4	3.3	8398853	95	6580
2025-01-06 04:33:52.29	33.03	71.24	-38.8	-42.8	3.6	8393749	95	7728
2025-01-06 04:33:52.49	33.11	71.33	-38.8	-42.8	3.6	8440235	95	7739
2025-01-06 04:33:52.69	33.19	71.42	-38.9	-41.8	3.4	8366958	95	6915
2025-01-06 04:33:52.89	33.27	71.52	-38.9	-41.3	3.3	8366958	95	6536
2025-01-06 04:33:53.09	33.35	71.61	-38.8	-42.7	3.6	8391689	95	7697
2025-01-06 04:33:53.30	33.44	71.70	-38.8	-42.6	3.6	8341873	95	7604
2025-01-06 04:33:53.50	33.52	71.79	-38.8	-41.7	3.4	8442981	95	6874
2025-01-06 04:33:53.70	33.61	71.89	-38.8	-41.1	3.3	8365814	95	6402
2025-01-06 04:33:53.90	33.69	71.98	-38.8	-41.1	3.3	8390361	95	6427
2025-01-06 04:33:54.10	33.78	72.07	-38.8	-42.6	3.6	8356384	95	7656
2025-01-06 04:33:54.30	33.86	72.16	-38.8	-42.1	3.5	8440120	95	7238
2025-01-06 04:33:54.50	33.95	72.25	-38.8	-41.2	3.3	8422416	95	6531
2025-01-06 04:33:54.70	34.04	72.34	-38.8	-41.1	3.3	8389812	95	6442
2025-01-06 04:33:54.90	34.13	72.44	-38.8	-42.6	3.6	8389812	95	7647
2025-01-06 04:33:55.10	34.22	72.53	-38.8	-42.1	3.6	8428092	96	7166
2025-01-06 04:33:55.31	34.31	72.62	-38.8	-41.0	3.4	8382419	96	6322
2025-01-06 04:33:55.51	34.41	72.72	-38.8	-40.8	3.3	8395957	96	6135
2025-01-06 04:33:55.71	34.50	72.81	-38.8	-42.8	3.6	8394824	95	7739
2025-01-06 04:33:55.91	34.59	72.90	-38.8	-42.8	3.6	8365997	95	7805
2025-01-06 04:33:56.11	34.69	72.99	-38.8	-41.8	3.4	8441230	95	6890
2025-01-06 04:33:56.31	34.79	73.08	-38.8	-41.3	3.3	8405902	95	6544
2025-01-06 04:33:56.51	34.88	73.17	-38.8	-41.3	3.3	8405902	95	6562
2025-01-06 04:33:56.71	34.98	73.27	-38.8	-42.8	3.6	8394287	95	7762
2025-01-06 04:33:56.91	35.08	73.36	-38.9	-41.6	3.5	8441219	96	6715
2025-01-06 04:33:57.11	35.18	73.45	-38.9	-40.8	3.3	8372920	96	6146
2025-01-06 04:33:57.31	35.29	73.54	-38.8	-40.7	3.3	8386676	96	6116
2025-01-06 04:33:57.51	35.39	73.63	-38.8	-42.6	3.6	8345329	95	7661
2025-01-06 04:33:57.72	35.50	73.73	-38.8	-42.2	3.5	8450077	95	7262
2025-01-06 04:33:57.92	35.61	73.82	-38.8	-41.3	3.3	8430747	95	6583
2025-01-06 04:33:58.12	35.71	73.92	-38.8	-41.2	3.3	8401943	95	6487
2025-01-06 04:33:58.32	35.82	74.01	-38.8	-42.6	3.6	8401943	95	7660
2025-01-06 04:33:58.52	35.93	74.10	-38.8	-42.5	3.6	8415424	95	7519
2025-01-06 04:33:58.72	36.04	74.19	-38.8	-41.5	3.4	8435451	95	6685
2025-01-06 04:33:58.92	36.15	74.28	-38.8	-41.2	3.3	8399265	95	6520
2025-01-06 04:33:59.12	36.27	74.38	-38.8	-42.7	3.6	8394378	95	7724
2025-01-06 04:33:59.32	36.38	74.47	-38.8	-42.8	3.6	8426834	95	7798
2025-01-06 04:33:59.52	36.50	74.56	-38.8	-41.7	3.4	8438014	95	6816
2025-01-06 04:33:59.73	36.63	74.66	-38.8	-41.3	3.3	8400341	95	6519
2025-01-06 04:33:59.93	36.74	74.75	-38.8	-41.3	3.3	8400341	95	6526
2025-01-06 04:34:00.13	36.87	74.84	-38.8	-42.7	3.6	8386974	95	7699
2025-01-06 04:34:00.33	36.99	74.93	-38.8	-41.3	3.5	8436710	96	6612
2025-01-06 04:34:00.53	37.11	75.03	-38.8	-40.6	3.3	8378505	96	6097
2025-01-06 04:34:00.73	37.24	75.12	-38.8	-40.6	3.3	8393314	96	6063
2025-01-06 04:34:00.93	37.37	75.21	-38.8	-42.1	3.6	8347778	96	7219
2025-01-06 04:34:01.13	37.50	75.30	-38.8	-41.7	3.5	8445774	96	6897
2025-01-06 04:34:01.33	37.63	75.40	-38.8	-40.9	3.3	8420917	96	6256
2025-01-06 04:34:01.53	37.76	75.49	-38.8	-40.6	3.3	8420917	96	6091
2025-01-06 04:34:01.74	37.90	75.59	-38.8	-42.2	3.6	8395202	96	7259
2025-01-06 04:34:01.94	38.04	75.68	-38.8	-42.5	3.6	8423526	95	7545
2025-01-06 04:34:02.14	38.18	75.77	-38.8	-41.4	3.4	8379032	95	6668
2025-01-06 04:34:02.34	38.32	75.86	-38.8	-41.1	3.3	8399150	95	6456
2025-01-06 04:34:02.54	38.46	75.95	-38.8	-42.7	3.6	8392993	95	7734
2025-01-06 04:34:02.74	38.60	76.05	-38.8	-42.7	3.6	8375759	95	7662
2025-01-06 04:34:02.94	38.75	76.14	-38.8	-41.8	3.4	8436309	95	6921
2025-01-06 04:34:03.14	38.89	76.23	-38.8	-41.2	3.3	8405181	95	6492
2025-01-06 04:34:03.34	39.04	76.32	-38.8	-41.2	3.3	8405181	95	6465
2025-01-06 04:34:03.55	39.20	76.42	-38.8	-42.7	3.6	8436962	95	7707
2025-01-06 04:34:03.75	39.36	76.51	-38.8	-41.6	3.4	8436962	95	6766
2025-01-06 04:34:03.95	39.51	76.60	-38.8	-41.3	3.3	8432579	95	6507
2025-01-06 04:34:04.15	39.67	76.69	-38.8	-41.2	3.3	8386550	95	6497
2025-01-06 04:34:04.35	39.83	76.79	-38.8	-42.7	3.6	8408855	95	7689
2025-01-06 04:34:04.55	40.00	76.88	-38.8	-41.9	3.4	8451347	95	7009
2025-01-06 04:34:04.75	40.16	76.97	-38.8	-41.3	3.3	8413467	95	6550
2025-01-06 04:34:04.95	40.33	77.06	-38.8	-41.2	3.3	8384662	95	6504
2025-01-06 04:34:05.15	40.50	77.15	-38.8	-42.6	3.6	8424350	95	7640
2025-01-06 04:34:05.35	40.67	77.24	-38.8	-42.1	3.5	8424350	95	7202
2025-01-06 04:34:05.55	40.85	77.34	-38.8	-41.3	3.3	8444126	95	6570
2025-01-06 04:34:05.76	41.04	77.43	-38.8	-41.1	3.3	8410926	95	6446
2025-01-06 04:34:05.96	41.22	77.52	-38.8	-42.6	3.6	8391174	95	7628
2025-01-06 04:34:06.16	41.40	77.62	-38.8	-42.4	3.6	8435932	95	7464
2025-01-06 04:34:06.36	41.59	77.71	-38.8	-41.3	3.4	8434638	95	6582
2025-01-06 04:34:06.56	41.77	77.80	-38.8	-41.2	3.3	8392856	95	6461
2025-01-06 04:34:06.76	41.97	77.89	-38.8	-42.6	3.6	8398681	95	7653
2025-01-06 04:34:06.96	42.16	77.98	-38.8	-42.6	3.6	8439491	95	7623
2025-01-06 04:34:07.16	42.36	78.07	-38.8	-41.6	3.4	8439491	95	6782
2025-01-06 04:34:07.36	42.56	78.16	-38.8	-41.0	3.3	8380668	95	6357
2025-01-06 04:34:07.56	42.77	78.25	-38.8	-41.0	3.3	8400283	95	6381
2025-01-06 04:34:07.77	42.98	78.35	-38.8	-42.6	3.6	8341941	95	7614
2025-01-06 04:34:07.97	43.19	78.44	-38.8	-41.8	3.4	8446094	95	6959
2025-01-06 04:34:08.17	43.41	78.53	-38.8	-41.1	3.3	8419338	95	6428
2025-01-06 04:34:08.37	43.63	78.62	-38.8	-41.0	3.3	8396953	95	6407
2025-01-06 04:34:08.57	43.85	78.71	-38.8	-42.5	3.6	8421020	95	7575
2025-01-06 04:34:08.77	44.07	78.80	-38.8	-42.0	3.5	8421020	95	7100
2025-01-06 04:34:08.97	44.30	78.89	-38.8	-41.2	3.3	8433746	95	6488
2025-01-06 04:34:09.17	44.53	78.98	-38.8	-41.1	3.3	8401096	95	6454
2025-01-06 04:34:09.37	44.77	79.07	-38.8	-42.6	3.6	8397514	95	7611
2025-01-06 04:34:09.57	45.01	79.16	-38.8	-42.5	3.6	8436447	95	7512
2025-01-06 04:34:09.77	45.26	79.25	-38.8	-41.4	3.4	8375713	95	6627
2025-01-06 04:34:09.98	45.52	79.34	-38.8	-41.1	3.3	8405090	95	6392
2025-01-06 04:34:10.18	45.77	79.43	-38.8	-42.5	3.6	8349964	95	7570
2025-01-06 04:34:10.38	46.03	79.52	-38.8	-42.4	3.6	8349964	95	7526
2025-01-06 04:34:10.58	46.29	79.61	-38.7	-41.5	3.4	8440464	95	6771
2025-01-06 04:34:10.78	46.56	79.70	-38.7	-40.9	3.3	8423263	95	6342
2025-01-06 04:34:10.98	46.83	79.79	-38.7	-40.9	3.3	8407997	95	6347
2025-01-06 04:34:11.18	47.10	79.87	-38.7	-42.3	3.6	8407150	95	7446
2025-01-06 04:34:11.38	47.39	79.96	-38.8	-41.7	3.4	8378494	95	6905
2025-01-06 04:34:11.58	47.67	80.05	-38.8	-41.0	3.3	8415733	95	6366
2025-01-06 04:34:11.79	47.98	80.14	-38.8	-41.1	3.3	8391586	95	6385
2025-01-06 04:34:11.99	48.28	80.23	-38.8	-42.5	3.6	8377086	95	7553
2025-01-06 04:34:12.19	48.58	80.32	-38.8	-42.2	3.5	8377086	95	7252
2025-01-06 04:34:12.39	48.89	80.40	-38.8	-41.4	3.3	8430370	95	6598
2025-01-06 04:34:12.59	49.20	80.49	-38.8	-41.3	3.3	8414005	95	6533
2025-01-06 04:34:12.79	49.52	80.58	-38.8	-42.8	3.6	8390716	95	7747
2025-01-06 04:34:12.99	49.84	80.66	-38.8	-42.5	3.6	8434535	95	7479
2025-01-06 04:34:13.19	50.18	80.75	-38.8	-41.4	3.4	8428882	95	6624
2025-01-06 04:34:13.39	50.51	80.84	-38.8	-41.1	3.3	8394035	95	6416
2025-01-06 04:34:13.59	50.86	80.92	-38.7	-42.4	3.6	8388278	95	7502
2025-01-06 04:34:13.80	51.23	81.01	-38.6	-42.1	3.6	8436298	95	7314
2025-01-06 04:34:14.00	51.58	81.09	-38.6	-40.9	3.4	8363777	95	6441
2025-01-06 04:34:14.20	51.95	81.18	-38.6	-40.6	3.3	8363777	95	6188
2025-01-06 04:34:14.40	52.32	81.26	-38.6	-42.0	3.6	8407413	95	7281
2025-01-06 04:34:14.60	52.70	81.35	-38.7	-42.1	3.6	8347286	95	7346
2025-01-06 04:34:14.80	53.09	81.43	-38.7	-41.3	3.4	8444400	95	6667
2025-01-06 04:34:15.00	53.48	81.51	-38.7	-40.9	3.3	8413135	95	6341
2025-01-06 04:34:15.20	53.88	81.60	-38.7	-41.0	3.3	8400180	95	6371
2025-01-06 04:34:15.40	54.30	81.68	-38.7	-42.5	3.6	8422096	95	7589
2025-01-06 04:34:15.60	54.71	81.76	-38.8	-41.4	3.5	8381916	96	6629
2025-01-06 04:34:15.81	55.16	81.85	-38.8	-40.7	3.3	8381916	96	6101
2025-01-06 04:34:16.01	55.60	81.93	-38.8	-40.8	3.3	8415664	96	6153
2025-01-06 04:34:16.21	56.04	82.01	-38.8	-42.6	3.6	8381252	95	7656
2025-01-06 04:34:16.41	56.50	82.09	-38.8	-42.1	3.5	8376022	95	7239
2025-01-06 04:34:16.61	56.96	82.17	-38.8	-41.2	3.4	8429454	95	6502
2025-01-06 04:34:16.81	57.44	82.25	-38.7	-41.0	3.3	8397056	95	6370
2025-01-06 04:34:17.01	57.92	82.33	-38.7	-42.3	3.6	8391643	95	7460
2025-01-06 04:34:17.21	58.41	82.40	-38.7	-42.1	3.6	8452583	95	7241
2025-01-06 04:34:17.41	58.92	82.48	-38.6	-40.9	3.4	8421443	95	6372
2025-01-06 04:34:17.62	59.46	82.56	-38.6	-40.5	3.3	8421443	95	6136
2025-01-06 04:34:17.82	59.98	82.64	-38.6	-41.9	3.6	8385074	95	7188
2025-01-06 04:34:18.02	60.52	82.72	-38.6	-41.8	3.6	8412643	95	7147
2025-01-06 04:34:18.22	61.07	82.79	-38.6	-40.8	3.4	8446266	95	6382
2025-01-06 04:34:18.42	61.63	82.86	-38.6	-40.3	3.3	8410686	95	6033
2025-01-06 04:34:18.62	62.20	82.94	-38.6	-40.3	3.3	8397296	95	6013
2025-01-06 04:34:18.82	62.78	83.01	-38.5	-41.7	3.6	8435245	95	7105
2025-01-06 04:34:19.02	63.38	83.08	-38.6	-41.1	3.5	8384227	95	6556
2025-01-06 04:34:19.23	64.02	83.16	-38.6	-40.3	3.3	8384227	95	6016
2025-01-06 04:34:19.43	64.64	83.23	-38.6	-40.3	3.3	8413959	95	5993
2025-01-06 04:34:19.63	65.27	83.30	-38.5	-41.7	3.6	8389629	95	7114
2025-01-06 04:34:19.83	65.92	83.37	-38.4	-41.1	3.5	8396163	95	6708
2025-01-06 04:34:20.03	66.59	83.44	-38.4	-40.2	3.4	8386322	95	6019
2025-01-06 04:34:20.23	67.26	83.51	-38.4	-39.9	3.3	8400569	95	5810
2025-01-06 04:34:20.43	67.95	83.57	-38.4	-41.4	3.6	8390190	95	6918
2025-01-06 04:34:20.63	68.66	83.64	-38.4	-41.3	3.6	8374374	95	6883
2025-01-06 04:34:20.83	69.38	83.70	-38.4	-40.2	3.4	8432682	95	6050
2025-01-06 04:34:21.03	70.11	83.77	-38.4	-39.7	3.3	8432682	95	5739
2025-01-06 04:34:21.24	70.90	83.83	-38.3	-39.6	3.3	8396656	95	5689
2025-01-06 04:34:21.44	71.67	83.90	-38.3	-40.9	3.6	8394538	95	6658
2025-01-06 04:34:21.64	72.45	83.96	-38.0	-40.1	3.4	8447914	94	6207
2025-01-06 04:34:21.84	73.25	84.02	-38.0	-39.4	3.3	8424133	94	5753
2025-01-06 04:34:22.04	74.06	84.07	-38.0	-39.4	3.3	8394458	94	5747
2025-01-06 04:34:22.24	74.89	84.13	-38.0	-40.7	3.6	8409873	94	6691
2025-01-06 04:34:22.44	75.74	84.19	-38.0	-40.0	3.5	8446918	94	6225
2025-01-06 04:34:22.64	76.60	84.24	-37.9	-39.2	3.3	8446918	94	5683
2025-01-06 04:34:22.84	77.48	84.30	-37.9	-39.1	3.3	8407608	94	5636
2025-01-06 04:34:23.04	78.38	84.35	-38.0	-40.6	3.6	8400341	94	6683
2025-01-06 04:34:23.25	79.33	84.40	-38.0	-40.0	3.5	8432876	94	6237
2025-01-06 04:34:23.45	80.26	84.45	-38.0	-39.4	3.3	8441402	94	5765
2025-01-06 04:34:23.65	81.21	84.50	-38.0	-39.3	3.3	8391815	94	5691
2025-01-06 04:34:23.85	82.17	84.54	-38.1	-41.0	3.6	8389698	94	6866
2025-01-06 04:34:24.05	83.15	84.59	-38.1	-40.9	3.6	8443244	94	6773
2025-01-06 04:34:24.25	84.14	84.63	-38.2	-40.1	3.4	8438129	94	6155
2025-01-06 04:34:24.45	85.15	84.67	-38.2	-40.1	3.3	8394653	94	6101
2025-01-06 04:34:24.65	86.18	84.71	-38.3	-41.6	3.6	8394653	94	7256
2025-01-06 04:34:24.85	87.22	84.75	-38.3	-41.7	3.6	8395431	94	7297
2025-01-06 04:34:25.05	88.27	84.79	-38.4	-40.9	3.4	8427246	94	6589
2025-01-06 04:34:25.26	89.40	84.82	-38.4	-40.5	3.3	8415058	94	6303
2025-01-06 04:34:25.46	90.48	84.86	-38.4	-40.6	3.3	8392490	94	6348
2025-01-06 04:34:25.66	91.58	84.89	-38.4	-42.0	3.6	8414005	94	7454
2025-01-06 04:34:25.86	92.69	84.91	-38.4	-41.2	3.4	8439388	94	6802
2025-01-06 04:34:26.06	93.82	84.94	-38.4	-40.5	3.3	8409782	94	6284
2025-01-06 04:34:26.26	94.95	84.97	-38.4	-40.5	3.3	8387809	94	6276
2025-01-06 04:34:26.46	96.10	84.99	-38.3	-41.7	3.6	8387809	94	7289
2025-01-06 04:34:26.66	97.25	85.01	-38.4	-41.4	3.5	8424339	94	7005
2025-01-06 04:34:26.86	98.42	85.03	-38.4	-40.5	3.4	8381046	94	6268
2025-01-06 04:34:27.06	99.59	85.05	-38.3	-40.3	3.3	8394424	94	6170
2025-01-06 04:34:27.27	100.83	85.06	-38.5	-41.6	3.6	8381664	95	7035
2025-01-06 04:34:27.47	102.02	85.07	-38.4	-41.3	3.6	8392250	95	6873
2025-01-06 04:34:27.67	103.22	85.09	-38.4	-40.1	3.4	8434524	95	6003
2025-01-06 04:34:27.87	104.42	85.09	-38.4	-39.8	3.3	8399379	95	5790
2025-01-06 04:34:28.07	105.62	85.10	-38.4	-41.1	3.6	8399379	95	6760
2025-01-06 04:34:28.27	106.82	85.10	-38.3	-40.9	3.6	8394618	95	6637
2025-01-06 04:34:28.47	108.03	85.11	-38.0	-39.7	3.4	8430084	94	5953
2025-01-06 04:34:28.67	109.24	85.11	-37.9	-39.0	3.3	8418239	94	5594
2025-01-06 04:34:28.87	110.44	85.10	-37.9	-38.9	3.3	8391208	94	5526
2025-01-06 04:34:29.08	111.71	85.10	-37.9	-40.2	3.6	8409255	94	6462
2025-01-06 04:34:29.28	112.91	85.09	-37.8	-39.1	3.5	8448337	94	5765
2025-01-06 04:34:29.48	114.11	85.08	-37.8	-39.1	3.4	8402744	93	5733
2025-01-06 04:34:29.68	115.30	85.07	-37.8	-38.9	3.5	8402744	93	5622
2025-01-06 04:34:29.88	116.49	85.06	-37.7	-40.2	3.6	8375885	93	6587
2025-01-06 04:34:30.08	117.67	85.04	-37.7	-39.6	3.6	8428836	93	6097
2025-01-06 04:34:30.28	118.84	85.03	-37.7	-38.7	3.5	8431892	93	5542
2025-01-06 04:34:30.48	120.00	85.01	-37.6	-38.5	3.5	8385349	93	5428
2025-01-06 04:34:30.68	121.15	84.98	-37.5	-39.7	3.6	8374534	93	6278
2025-01-06 04:34:30.88	122.30	84.96	-37.6	-39.5	3.7	8435222	93	6137
2025-01-06 04:34:31.09	123.49	84.93	-37.6	-38.6	3.6	8403854	93	5531
2025-01-06 04:34:31.29	124.61	84.91	-37.6	-38.4	3.5	8377372	93	5410
2025-01-06 04:34:31.49	125.71	84.88	-37.6	-39.9	3.6	8377372	93	6427
2025-01-06 04:34:31.69	126.81	84.85	-37.7	-40.2	3.6	8387409	93	6552
2025-01-06 04:34:31.89	127.89	84.81	-37.8	-39.3	3.5	8434043	93	5886
2025-01-06 04:34:32.09	128.96	84.78	-37.8	-39.0	3.4	8401096	93	5667
2025-01-06 04:34:32.29	130.01	84.74	-37.9	-39.4	3.4	8389789	93	5871
2025-01-06 04:34:32.49	131.05	84.70	-38.0	-41.0	3.6	8409393	93	6954
2025-01-06 04:34:32.69	132.07	84.66	-38.1	-40.5	3.4	8431480	93	6540
2025-01-06 04:34:32.89	133.07	84.62	-38.1	-40.0	3.3	8416042	93	6153
2025-01-06 04:34:33.09	134.06	84.58	-38.2	-40.2	3.3	8416042	93	6254
2025-01-06 04:34:33.30	135.09	84.53	-38.3	-42.0	3.6	8449939	93	7608
2025-01-06 04:34:33.50	136.04	84.48	-38.4	-41.1	3.4	8449939	94	6742
2025-01-06 04:34:33.70	136.98	84.43	-38.5	-40.7	3.3	8373573	94	6373
2025-01-06 04:34:33.90	137.91	84.39	-38.5	-40.9	3.3	8402206	94	6434
2025-01-06 04:34:34.10	138.82	84.33	-38.7	-42.3	3.6	8391952	95	7432
2025-01-06 04:34:34.30	139.71	84.28	-38.7	-42.1	3.5	8384113	95	7225
2025-01-06 04:34:34.50	140.58	84.23	-38.8	-41.4	3.3	8428802	95	6617
2025-01-06 04:34:34.70	141.44	84.17	-38.8	-41.2	3.3	8401691	95	6506
2025-01-06 04:34:34.90	142.28	84.12	-38.8	-42.6	3.6	8394001	95	7583
2025-01-06 04:34:35.11	143.15	84.06	-38.8	-42.3	3.6	8444137	95	7417
2025-01-06 04:34:35.31	143.96	84.00	-38.7	-41.2	3.4	8444137	95	6552
2025-01-06 04:34:35.51	144.75	83.94	-38.7	-40.8	3.3	8423778	95	6302
2025-01-06 04:34:35.71	145.53	83.88	-38.6	-42.1	3.6	8401382	95	7342
2025-01-06 04:34:35.91	146.29	83.81	-38.6	-41.8	3.6	8414772	95	7168
2025-01-06 04:34:36.11	147.04	83.75	-38.5	-40.7	3.4	8434867	95	6298
2025-01-06 04:34:36.31	147.77	83.69	-38.4	-40.0	3.3	8409564	95	5880
2025-01-06 04:34:36.51	148.49	83.62	-38.4	-39.9	3.3	8394264	95	5835
2025-01-06 04:34:36.71	149.19	83.56	-38.3	-41.1	3.6	8435817	95	6750
2025-01-06 04:34:36.91	149.88	83.49	-38.4	-40.4	3.5	8435817	95	6209
2025-01-06 04:34:37.11	150.55	83.42	-38.4	-39.5	3.3	8375461	95	5631
2025-01-06 04:34:37.32	151.24	83.35	-38.4	-39.7	3.3	8396507	95	5738
2025-01-06 04:34:37.52	151.89	83.28	-38.4	-41.2	3.6	8393417	95	6819
2025-01-06 04:34:37.72	152.52	83.21	-38.4	-40.9	3.5	8384754	95	6533
2025-01-06 04:34:37.92	153.14	83.14	-38.5	-40.1	3.3	8434558	95	5949
2025-01-06 04:34:38.12	153.74	83.07	-38.5	-40.3	3.3	8391403	95	6017
2025-01-06 04:34:38.32	154.33	82.99	-38.6	-42.0	3.6	8401245	95	7230
2025-01-06 04:34:38.52	154.91	82.92	-38.8	-42.4	3.6	8401245	95	7399
2025-01-06 04:34:38.72	155.48	82.84	-38.8	-41.4	3.4	8383655	95	6596
2025-01-06 04:34:38.93	156.07	82.77	-38.9	-41.3	3.3	8428264	95	6487
2025-01-06 04:34:39.13	156.61	82.69	-38.8	-42.5	3.6	8394412	95	7588
2025-01-06 04:34:39.33	157.14	82.61	-38.8	-42.6	3.6	8383975	95	7660
2025-01-06 04:34:39.53	157.67	82.54	-38.8	-41.6	3.4	8433952	95	6807
2025-01-06 04:34:39.73	158.18	82.46	-38.8	-41.1	3.3	8416522	95	6430
2025-01-06 04:34:39.93	158.68	82.38	-38.8	-41.1	3.3	8397010	95	6456
2025-01-06 04:34:40.13	159.17	82.30	-38.8	-42.5	3.6	8441402	95	7556
2025-01-06 04:34:40.33	159.65	82.23	-38.8	-41.7	3.4	8441402	95	6891
2025-01-06 04:34:40.53	160.12	82.15	-38.7	-41.0	3.3	8429752	95	6363
2025-01-06 04:34:40.73	160.58	82.07	-38.7	-40.9	3.3	8397022	95	6329
2025-01-06 04:34:40.94	161.06	81.98	-38.7	-42.4	3.6	8396427	95	7498
2025-01-06 04:34:41.14	161.50	81.90	-38.7	-41.8	3.5	8436447	95	7016
2025-01-06 04:34:41.34	161.94	81.82	-38.8	-41.0	3.3	8420619	95	6389
2025-01-06 04:34:41.54	162.36	81.74	-38.7	-41.0	3.3	8396095	95	6370
2025-01-06 04:34:41.74	162.78	81.66	-38.7	-42.4	3.6	8408935	95	7511
2025-01-06 04:34:41.94	163.19	81.57	-38.7	-42.3	3.6	8408935	95	7390
2025-01-06 04:34:42.14	163.59	81.49	-38.8	-41.3	3.3	8445064	95	6573
2025-01-06 04:34:42.34	163.98	81.41	-38.8	-41.1	3.3	8421134	95	6416
2025-01-06 04:34:42.54	164.36	81.32	-38.8	-42.5	3.6	8393005	95	7538
2025-01-06 04:34:42.74	164.74	81.24	-38.7	-42.5	3.6	8430107	95	7588
2025-01-06 04:34:42.95	165.13	81.15	-38.8	-41.3	3.4	8443851	95	6575
2025-01-06 04:34:43.15	165.49	81.07	-38.7	-41.0	3.3	8412712	95	6383
2025-01-06 04:34:43.35	165.85	80.98	-38.7	-42.4	3.6	8399894	95	7538
2025-01-06 04:34:43.55	166.20	80.90	-38.7	-42.4	3.6	8429328	95	7499
2025-01-06 04:34:43.75	166.54	80.81	-38.7	-41.4	3.4	8433780	95	6670
2025-01-06 04:34:43.95	166.88	80.72	-38.7	-40.8	3.3	8433780	95	6293
2025-01-06 04:34:44.15	167.21	80.64	-38.7	-40.8	3.3	8389789	95	6286
2025-01-06 04:34:44.35	167.53	80.55	-38.7	-42.3	3.6	8405570	95	7425
2025-01-06 04:34:44.56	167.86	80.46	-38.8	-41.7	3.4	8439205	95	6888
2025-01-06 04:34:44.76	168.18	80.37	-38.8	-41.1	3.3	8371284	95	6399
2025-01-06 04:34:44.96	168.48	80.29	-38.8	-41.1	3.3	8406303	95	6408
2025-01-06 04:34:45.16	168.78	80.20	-38.8	-42.5	3.6	8357894	95	7577
2025-01-06 04:34:45.36	169.08	80.11	-38.8	-41.8	3.6	8393440	96	6953
2025-01-06 04:34:45.56	169.37	80.02	-38.8	-40.8	3.4	8421352	96	6210
2025-01-06 04:34:45.76	169.65	79.94	-38.8	-40.7	3.3	8421352	96	6121
2025-01-06 04:34:45.96	169.93	79.85	-38.8	-42.7	3.6	8396427	95	7690
2025-01-06 04:34:46.17	170.22	79.75	-38.8	-42.7	3.6	8352184	95	7712
2025-01-06 04:34:46.37	170.49	79.67	-38.8	-41.7	3.4	8441780	95	6881
2025-01-06 04:34:46.57	170.76	79.58	-38.8	-41.3	3.3	8414817	95	6513
2025-01-06 04:34:46.77	171.02	79.49	-38.8	-41.3	3.3	8398933	95	6517
2025-01-06 04:34:46.97	171.27	79.40	-38.8	-42.7	3.6	8418640	95	7713
2025-01-06 04:34:47.17	171.53	79.31	-38.8	-41.8	3.4	8432750	95	6964
2025-01-06 04:34:47.37	171.77	79.22	-38.8	-41.2	3.3	8432750	95	6497
2025-01-06 04:34:47.57	172.02	79.13	-38.8	-41.2	3.3	8404552	95	6471
2025-01-06 04:34:47.77	172.26	79.04	-38.8	-42.6	3.6	8396598	95	7653
2025-01-06 04:34:47.97	172.49	78.95	-38.8	-42.1	3.5	8439994	95	7209
2025-01-06 04:34:48.18	172.74	78.86	-38.8	-41.3	3.3	8373676	95	6540
2025-01-06 04:34:48.38	172.96	78.77	-38.8	-41.1	3.3	8402286	95	6404
2025-01-06 04:34:48.58	173.19	78.68	-38.8	-42.5	3.6	8334503	95	7538
2025-01-06 04:34:48.78	173.41	78.59	-38.8	-42.5	3.6	8446117	95	7555
2025-01-06 04:34:48.98	173.63	78.50	-38.7	-41.3	3.4	8421249	95	6613
2025-01-06 04:34:49.18	173.84	78.40	-38.8	-41.0	3.3	8421249	95	6390
2025-01-06 04:34:49.38	174.05	78.31	-38.8	-42.5	3.6	8382717	95	7535
2025-01-06 04:34:49.58	174.26	78.22	-38.7	-42.4	3.6	8409187	95	7474
2025-01-06 04:34:49.78	174.46	78.13	-38.8	-41.4	3.4	8429866	95	6655
2025-01-06 04:34:49.99	174.67	78.04	-38.8	-41.1	3.3	8405227	95	6411
2025-01-06 04:34:50.19	174.87	77.95	-38.8	-41.1	3.3	8387798	95	6428
2025-01-06 04:34:50.39	175.06	77.85	-38.8	-42.6	3.6	8423389	95	7649
2025-01-06 04:34:50.59	175.25	77.76	-38.8	-41.8	3.4	8438541	95	6942
2025-01-06 04:34:50.79	175.44	77.67	-38.8	-41.3	3.3	8438541	95	6535
2025-01-06 04:34:50.99	175.63	77.58	-38.8	-41.3	3.3	8394252	95	6557
2025-01-06 04:34:51.19	175.81	77.49	-38.8	-42.7	3.6	8401142	95	7696
2025-01-06 04:34:51.39	175.99	77.40	-38.9	-42.0	3.5	8437351	96	7023
2025-01-06 04:34:51.59	176.17	77.31	-38.9	-41.1	3.3	8389114	96	6320
2025-01-06 04:34:51.79	176.34	77.21	-38.9	-41.0	3.3	8401084	96	6228
2025-01-06 04:34:52.00	176.52	77.12	-38.9	-42.7	3.6	8337192	95	7706
2025-01-06 04:34:52.20	176.69	77.03	-38.8	-42.3	3.5	8431812	95	7366
2025-01-06 04:34:52.40	176.86	76.93	-38.8	-41.4	3.3	8430931	95	6616
2025-01-06 04:34:52.60	177.02	76.84	-38.8	-41.3	3.3	8393749	95	6535
2025-01-06 04:34:52.80	177.18	76.75	-38.8	-42.8	3.6	8393749	95	7724
2025-01-06 04:34:53.00	177.34	76.66	-38.8	-42.5	3.6	8418983	95	7532
2025-01-06 04:34:53.20	177.50	76.57	-38.8	-41.5	3.4	8443004	95	6692
2025-01-06 04:34:53.40	177.66	76.47	-38.8	-41.3	3.3	8410606	95	6537
2025-01-06 04:34:53.60	177.81	76.38	-38.8	-42.8	3.6	8396038	95	7730
2025-01-06 04:34:53.80	177.96	76.29	-38.8	-42.8	3.6	8418766	95	7724
2025-01-06 04:34:54.01	178.12	76.19	-38.8	-41.7	3.4	8434513	95	6835
2025-01-06 04:34:54.21	178.27	76.10	-38.8	-41.3	3.3	8400558	95	6546
2025-01-06 04:34:54.41	178.41	76.01	-38.8	-41.3	3.3	8389514	95	6541
2025-01-06 04:34:54.61	178.56	75.92	-38.8	-42.8	3.6	8389514	95	7734
2025-01-06 04:34:54.81	178.70	75.82	-38.8	-41.9	3.4	8448715	95	7016
2025-01-06 04:34:55.01	178.84	75.73	-38.8	-41.3	3.3	8430885	95	6531
2025-01-06 04:34:55.21	178.97	75.64	-38.8	-41.3	3.3	8411853	95	6552
2025-01-06 04:34:55.41	179.11	75.55	-38.8	-42.8	3.6	8397937	95	7746
2025-01-06 04:34:55.61	179.24	75.45	-38.8	-41.7	3.5	8390670	96	6868
2025-01-06 04:34:55.82	179.38	75.36	-38.8	-40.8	3.3	8427371	96	6215
2025-01-06 04:34:56.02	179.51	75.26	-38.8	-40.6	3.3	8404289	96	6089
2025-01-06 04:34:56.22	179.64	75.17	-38.8	-42.8	3.6	8404289	95	7766
2025-01-06 04:34:56.42	179.77	75.08	-38.9	-42.8	3.6	8348018	95	7721
2025-01-06 04:34:56.62	179.89	74.99	-38.8	-41.6	3.4	8443462	95	6774
2025-01-06 04:34:56.82	180.02	74.90	-38.8	-41.3	3.3	8418594	95	6538
2025-01-06 04:34:57.02	180.14	74.80	-38.8	-42.7	3.6	8395271	95	7704
2025-01-06 04:34:57.22	180.26	74.71	-38.8	-42.7	3.6	8420677	95	7657
2025-01-06 04:34:57.42	180.38	74.62	-38.8	-41.7	3.4	8441574	95	6848
2025-01-06 04:34:57.63	180.50	74.52	-38.8	-41.2	3.3	8402091	95	6505
2025-01-06 04:34:57.83	180.62	74.43	-38.8	-41.3	3.3	8386013	95	6552
2025-01-06 04:34:58.03	180.73	74.34	-38.8	-42.7	3.6	8386013	95	7715
2025-01-06 04:34:58.23	180.85	74.24	-38.8	-41.9	3.4	8438026	95	7002
2025-01-06 04:34:58.43	180.96	74.15	-38.8	-41.2	3.3	8440818	95	6517
2025-01-06 04:34:58.63	181.07	74.06	-38.8	-41.2	3.3	8403591	95	6482
2025-01-06 04:34:58.83	181.18	73.97	-38.8	-42.7	3.6	8403911	95	7660
2025-01-06 04:34:59.03	181.29	73.87	-38.7	-42.2	3.5	8382808	95	7295
2025-01-06 04:34:59.23	181.40	73.78	-38.7	-41.2	3.3	8425300	95	6539
2025-01-06 04:34:59.44	181.51	73.69	-38.7	-41.2	3.3	8389995	95	6509
2025-01-06 04:34:59.64	181.61	73.59	-38.8	-42.1	3.6	8389995	96	7241
2025-01-06 04:34:59.84	181.71	73.50	-38.8	-42.1	3.6	8370162	96	7233
2025-01-06 04:35:00.04	181.82	73.41	-38.8	-41.0	3.4	8444046	96	6364
2025-01-06 04:35:00.24	181.92	73.32	-38.8	-40.7	3.3	8410011	96	6107
2025-01-06 04:35:00.44	182.02	73.22	-38.8	-42.2	3.6	8405879	96	7268
2025-01-06 04:35:00.64	182.12	73.13	-38.8	-42.1	3.6	8435565	96	7214
2025-01-06 04:35:00.84	182.21	73.04	-38.8	-41.1	3.4	8429855	96	6411
2025-01-06 04:35:01.05	182.31	72.94	-38.8	-41.3	3.3	8398521	95	6529
2025-01-06 04:35:01.25	182.41	72.85	-38.8	-42.7	3.6	8392307	95	7723
2025-01-06 04:35:01.45	182.50	72.76	-38.8	-42.7	3.6	8438930	95	7726
2025-01-06 04:35:01.65	182.60	72.67	-38.8	-41.7	3.4	8438930	95	6849
2025-01-06 04:35:01.85	182.69	72.58	-38.8	-41.3	3.3	8423812	95	6553
2025-01-06 04:35:02.05	182.78	72.48	-38.9	-41.3	3.3	8389343	95	6540
2025-01-06 04:35:02.25	182.87	72.39	-38.8	-42.7	3.6	8403327	95	7717
2025-01-06 04:35:02.45	182.96	72.30	-38.8	-42.0	3.4	8428379	95	7039
2025-01-06 04:35:02.65	183.05	72.21	-38.8	-41.3	3.3	8424774	95	6541
2025-01-06 04:35:02.85	183.13	72.12	-38.9	-41.3	3.3	8393714	95	6532
2025-01-06 04:35:03.05	183.22	72.02	-38.8	-42.7	3.6	8421077	95	7693
2025-01-06 04:35:03.26	183.31	71.93	-38.8	-42.2	3.5	8440200	95	7221
2025-01-06 04:35:03.46	183.39	71.84	-38.8	-41.4	3.3	8440200	95	6609
2025-01-06 04:35:03.66	183.48	71.74	-38.8	-41.3	3.3	8412895	95	6530
2025-01-06 04:35:03.86	183.56	71.65	-38.8	-42.7	3.6	8395053	95	7689
2025-01-06 04:35:04.06	183.64	71.56	-38.8	-42.5	3.6	8428596	95	7502
2025-01-06 04:35:04.26	183.72	71.47	-38.9	-41.5	3.4	8436996	95	6678
2025-01-06 04:35:04.46	183.80	71.38	-38.8	-41.3	3.3	8406131	95	6510
2025-01-06 04:35:04.66	183.88	71.29	-38.8	-42.7	3.6	8394607	95	7688
2025-01-06 04:35:04.86	183.96	71.20	-38.8	-42.7	3.6	8443862	95	7723
2025-01-06 04:35:05.06	184.04	71.10	-38.8	-41.7	3.4	8443862	95	6865
2025-01-06 04:35:05.26	184.11	71.01	-38.8	-41.2	3.3	8436435	95	6488
2025-01-06 04:35:05.47	184.19	70.92	-38.8	-41.3	3.3	8396541	95	6550
2025-01-06 04:35:05.67	184.27	70.83	-38.8	-42.7	3.6	8396324	95	7675
2025-01-06 04:35:05.87	184.34	70.74	-38.8	-41.7	3.4	8459632	95	6904
2025-01-06 04:35:06.07	184.42	70.64	-38.8	-41.3	3.3	8414417	95	6511
2025-01-06 04:35:06.27	184.49	70.55	-38.8	-41.2	3.3	8388656	95	6484
2025-01-06 04:35:06.47	184.56	70.46	-38.8	-42.7	3.6	8416912	95	7702
2025-01-06 04:35:06.67	184.63	70.37	-38.8	-42.1	3.5	8416912	95	7160
2025-01-06 04:35:06.87	184.71	70.28	-38.8	-41.3	3.3	8443382	95	6546
2025-01-06 04:35:07.07	184.78	70.19	-38.8	-41.2	3.3	8419292	95	6454
2025-01-06 04:35:07.28	184.85	70.09	-38.8	-42.7	3.6	8393840	95	7725

#Closed at: 2025-01-06 04:35:07