passes_logs/2026/01/27/R3.2S_Murmansk_2ch/R3.2S_Murmansk_2ch__20260127_215551_JL1KF02B04_rec.log

#Pass ID: 20260127_215551_JL1KF02B04
#Satellite: JL1KF02B04
#Configuration: 01B_900M
#almurnet v.1.7.20251203
#Start time: 2026-01-27 21:55:53

#Version: 2.2.20231116
#Station: R3.2S_Murmansk_2ch
#Location: 33.079688 lon 68.888172 lat
#TLE: 1 61189U 24169A   26027.44052764  .00007828  00000+0  49016-3 0  9993
#TLE: 2 61189  97.5621 119.0017 0007750 128.8311 231.3611 15.09629304 74590

#Time	Az	El	Level	Level2	SNR	BER	BlckErr	Temp	State	Recorded	gain1	gain2
2026-01-27 21:55:53.01	215.61	2.08	-48.0	-50.5	6.2	0.00e+00	0	45	0	0	66	20525
2026-01-27 21:55:54.02	215.71	2.14	-48.0	-50.5	6.2	0.00e+00	0	45	104	0	67	19475
2026-01-27 21:55:55.03	215.81	2.20	-48.0	-50.5	6.2	0.00e+00	0	45	104	0	67	19417
2026-01-27 21:55:56.04	215.91	2.26	-48.0	-50.5	6.2	0.00e+00	0	45	104	0	67	19382
2026-01-27 21:55:57.05	216.01	2.31	-48.0	-50.5	6.2	0.00e+00	0	45	104	0	67	19383
2026-01-27 21:55:58.06	216.11	2.37	-48.0	-50.5	6.2	0.00e+00	0	45	104	0	67	19318
2026-01-27 21:55:59.08	216.21	2.43	-48.2	-50.8	6.2	0.00e+00	0	45	104	0	67	19938
2026-01-27 21:56:00.09	216.32	2.49	-48.3	-50.8	6.2	0.00e+00	0	45	104	0	67	20046
2026-01-27 21:56:01.10	216.42	2.55	-48.3	-50.9	6.2	0.00e+00	0	45	104	0	67	20202
2026-01-27 21:56:02.11	216.52	2.61	-48.3	-50.9	6.2	0.00e+00	0	45	104	0	67	20243
2026-01-27 21:56:03.12	216.62	2.67	-48.3	-50.8	6.2	0.00e+00	0	45	104	0	67	20157
2026-01-27 21:56:04.13	216.73	2.73	-48.3	-50.9	6.2	0.00e+00	0	45	104	0	67	20184
2026-01-27 21:56:05.14	216.83	2.79	-48.3	-50.8	6.2	0.00e+00	0	45	104	0	67	20083
2026-01-27 21:56:06.15	216.94	2.85	-48.2	-50.8	6.2	0.00e+00	0	45	104	0	67	19934
2026-01-27 21:56:07.16	217.04	2.91	-48.2	-50.7	6.2	0.00e+00	0	46	104	0	67	19830
2026-01-27 21:56:08.17	217.15	2.97	-48.1	-50.7	6.2	0.00e+00	0	45	104	0	67	19761
2026-01-27 21:56:09.18	217.25	3.03	-48.1	-50.7	6.2	0.00e+00	0	45	104	0	67	19728
2026-01-27 21:56:10.19	217.36	3.09	-48.1	-50.6	6.2	0.00e+00	0	46	104	0	67	19700
2026-01-27 21:56:11.20	217.47	3.15	-48.0	-50.6	6.2	0.00e+00	0	46	104	0	67	19542
2026-01-27 21:56:12.21	217.58	3.21	-48.0	-50.5	6.2	0.00e+00	0	45	104	0	67	19389
2026-01-27 21:56:13.22	217.69	3.27	-47.9	-50.4	6.2	0.00e+00	0	45	104	0	67	19239
2026-01-27 21:56:14.23	217.79	3.33	-47.8	-50.4	6.2	0.00e+00	0	46	104	0	67	19061
2026-01-27 21:56:15.24	217.90	3.40	-47.8	-50.3	6.2	0.00e+00	0	46	104	0	67	18859
2026-01-27 21:56:16.25	218.01	3.46	-47.6	-50.2	6.2	0.00e+00	0	46	104	0	67	18701
2026-01-27 21:56:17.26	218.12	3.52	-47.6	-50.1	6.2	0.00e+00	0	46	104	0	67	18539
2026-01-27 21:56:18.27	218.23	3.58	-47.4	-49.9	6.2	0.00e+00	0	46	104	0	66	19224
2026-01-27 21:56:19.28	218.35	3.64	-47.2	-49.7	6.2	0.00e+00	0	46	104	0	66	18734
2026-01-27 21:56:20.29	218.46	3.70	-46.9	-49.4	6.2	0.00e+00	0	46	104	0	65	19210
2026-01-27 21:56:21.30	218.57	3.76	-46.6	-49.1	6.2	0.00e+00	0	46	104	0	65	18601
2026-01-27 21:56:22.31	218.68	3.82	-46.6	-49.1	6.2	0.00e+00	0	46	104	0	65	18491
2026-01-27 21:56:23.32	218.80	3.89	-46.6	-49.1	6.2	0.00e+00	0	46	104	0	65	18566
2026-01-27 21:56:24.33	218.91	3.95	-46.6	-49.1	6.2	0.00e+00	0	46	104	0	65	18480
2026-01-27 21:56:25.34	219.03	4.01	-46.5	-49.1	6.2	0.00e+00	0	46	104	0	65	18460
2026-01-27 21:56:26.35	219.14	4.07	-46.5	-49.1	6.2	0.00e+00	0	46	104	0	65	18442
2026-01-27 21:56:27.36	219.26	4.13	-46.5	-49.1	6.2	0.00e+00	0	46	104	0	65	18472
2026-01-27 21:56:28.37	219.38	4.20	-46.5	-49.1	6.2	0.00e+00	0	46	104	0	65	18452
2026-01-27 21:56:29.38	219.49	4.26	-46.5	-49.1	6.2	0.00e+00	0	46	104	0	65	18434
2026-01-27 21:56:30.39	219.61	4.32	-46.5	-49.1	6.2	0.00e+00	0	46	104	0	65	18453
2026-01-27 21:56:31.41	219.73	4.38	-46.5	-49.1	6.2	0.00e+00	0	46	104	0	65	18456
2026-01-27 21:56:32.41	219.85	4.45	-46.5	-49.0	6.2	0.00e+00	0	46	104	0	65	18384
2026-01-27 21:56:33.42	219.97	4.51	-46.5	-49.1	6.2	0.00e+00	0	46	104	0	65	18442
2026-01-27 21:56:34.43	220.09	4.57	-46.5	-49.1	6.2	0.00e+00	0	46	104	0	65	18430
2026-01-27 21:56:35.44	220.21	4.63	-46.5	-49.0	6.2	0.00e+00	0	46	104	0	65	18376
2026-01-27 21:56:36.45	220.33	4.70	-46.5	-49.0	6.2	0.00e+00	0	46	104	0	65	18348
2026-01-27 21:56:37.46	220.45	4.76	-46.5	-49.0	6.2	0.00e+00	0	46	104	0	65	18388
2026-01-27 21:56:38.47	220.58	4.82	-46.5	-49.1	6.2	0.00e+00	0	46	104	0	65	18407
2026-01-27 21:56:39.48	220.70	4.89	-46.5	-49.0	6.2	0.00e+00	0	46	104	0	65	18358
2026-01-27 21:56:40.49	220.82	4.95	-46.5	-49.1	6.2	0.00e+00	0	46	104	0	65	18428
2026-01-27 21:56:41.50	220.95	5.01	-46.5	-49.0	6.2	0.00e+00	0	46	104	0	65	18381
2026-01-27 21:56:42.51	221.07	5.08	-46.5	-49.1	6.2	0.00e+00	0	46	104	0	65	18531
2026-01-27 21:56:43.52	221.20	5.14	-46.4	-49.0	6.2	0.00e+00	0	46	104	0	64	19349
2026-01-27 21:56:44.53	221.33	5.20	-46.6	-49.1	6.2	0.00e+00	0	46	104	0	64	19685
2026-01-27 21:56:45.54	221.45	5.27	-46.5	-49.1	6.2	0.00e+00	0	46	104	0	64	19541
2026-01-27 21:56:46.55	221.58	5.33	-46.4	-49.0	6.2	0.00e+00	0	47	104	0	64	19373
2026-01-27 21:56:47.57	221.71	5.40	-46.4	-49.0	6.2	0.00e+00	0	46	104	0	64	19280
2026-01-27 21:56:48.57	221.84	5.46	-46.6	-49.1	6.2	0.00e+00	0	47	104	0	64	19672
2026-01-27 21:56:49.59	221.97	5.53	-46.5	-49.0	6.2	0.00e+00	0	46	104	0	64	19476
2026-01-27 21:56:50.60	222.10	5.59	-46.4	-49.0	6.2	0.00e+00	0	47	104	0	64	19368
2026-01-27 21:56:51.61	222.23	5.65	-46.4	-48.9	6.2	0.00e+00	0	47	104	0	64	19236
2026-01-27 21:56:52.62	222.37	5.72	-46.6	-49.1	6.2	0.00e+00	0	47	104	0	64	19631
2026-01-27 21:56:53.63	222.50	5.78	-46.5	-49.1	6.2	0.00e+00	0	47	104	0	64	19522
2026-01-27 21:56:54.64	222.63	5.85	-46.4	-49.0	6.2	0.00e+00	0	46	104	0	64	19295
2026-01-27 21:56:55.65	222.77	5.91	-46.4	-48.9	6.2	0.00e+00	0	46	104	0	64	19199
2026-01-27 21:56:56.66	222.90	5.98	-46.6	-49.1	6.2	0.00e+00	0	47	104	0	64	19642
2026-01-27 21:56:57.67	223.04	6.04	-46.5	-49.1	6.2	0.00e+00	0	47	104	0	64	19531
2026-01-27 21:56:58.68	223.17	6.11	-46.4	-49.0	6.2	0.00e+00	0	47	104	0	64	19354
2026-01-27 21:56:59.69	223.31	6.17	-46.4	-48.9	6.2	0.00e+00	0	47	104	0	64	19238
2026-01-27 21:57:00.70	223.45	6.24	-46.6	-49.1	6.2	0.00e+00	0	47	104	0	64	19693
2026-01-27 21:57:01.71	223.59	6.30	-46.5	-49.1	6.2	0.00e+00	0	47	104	0	64	19518
2026-01-27 21:57:02.73	223.73	6.37	-46.4	-49.0	6.2	0.00e+00	0	47	104	0	64	19377
2026-01-27 21:57:03.74	223.87	6.44	-46.4	-49.0	6.2	0.00e+00	0	47	104	0	64	19331
2026-01-27 21:57:04.75	224.01	6.50	-46.6	-49.2	6.2	0.00e+00	0	47	104	0	64	19721
2026-01-27 21:57:05.76	224.15	6.57	-46.5	-49.1	6.2	0.00e+00	0	47	104	0	64	19508
2026-01-27 21:57:06.77	224.29	6.63	-46.4	-49.0	6.2	0.00e+00	0	47	104	0	64	19388
2026-01-27 21:57:07.78	224.43	6.70	-46.4	-49.0	6.2	0.00e+00	0	47	104	0	64	19377
2026-01-27 21:57:08.79	224.58	6.76	-46.6	-49.1	6.2	0.00e+00	0	47	104	0	64	19694
2026-01-27 21:57:09.80	224.72	6.83	-46.6	-49.1	6.2	0.00e+00	0	47	104	0	64	19588
2026-01-27 21:57:10.81	224.87	6.90	-46.5	-49.0	6.2	0.00e+00	0	47	104	0	64	19454
2026-01-27 21:57:11.82	225.01	6.96	-46.5	-49.0	6.2	0.00e+00	0	47	104	0	64	19397
2026-01-27 21:57:12.83	225.16	7.03	-46.6	-49.1	6.2	0.00e+00	0	47	104	0	64	19683
2026-01-27 21:57:13.84	225.31	7.10	-46.6	-49.1	6.2	0.00e+00	0	47	104	0	64	19639
2026-01-27 21:57:14.85	225.46	7.16	-46.5	-49.1	6.2	0.00e+00	0	47	104	0	64	19490
2026-01-27 21:57:15.86	225.61	7.23	-46.5	-49.0	6.2	0.00e+00	0	47	104	0	64	19425
2026-01-27 21:57:16.87	225.76	7.30	-46.6	-49.2	6.2	0.00e+00	0	47	104	0	64	19749
2026-01-27 21:57:17.88	225.91	7.36	-46.6	-49.1	6.2	0.00e+00	0	47	104	0	64	19660
2026-01-27 21:57:18.89	226.06	7.43	-46.5	-49.1	6.2	0.00e+00	0	47	104	0	64	19530
2026-01-27 21:57:19.90	226.21	7.50	-46.5	-49.1	6.2	0.00e+00	0	47	104	0	64	19536
2026-01-27 21:57:20.91	226.36	7.56	-46.6	-49.2	6.2	0.00e+00	0	47	104	0	64	19833
2026-01-27 21:57:21.92	226.52	7.63	-46.6	-49.1	6.2	0.00e+00	0	47	104	0	64	19625
2026-01-27 21:57:22.93	226.67	7.70	-46.5	-49.1	6.2	0.00e+00	0	47	104	0	64	19534
2026-01-27 21:57:23.94	226.83	7.76	-46.5	-49.1	6.2	0.00e+00	0	47	104	0	64	19526
2026-01-27 21:57:24.95	226.99	7.83	-46.6	-49.2	6.2	0.00e+00	0	47	104	0	64	19835
2026-01-27 21:57:25.96	227.14	7.90	-46.6	-49.2	6.2	0.00e+00	0	47	104	0	64	19736
2026-01-27 21:57:26.97	227.30	7.97	-46.5	-49.1	6.2	0.00e+00	0	47	104	0	64	19605
2026-01-27 21:57:27.98	227.46	8.03	-46.6	-49.1	6.2	0.00e+00	0	47	104	0	64	19619
2026-01-27 21:57:28.99	227.62	8.10	-46.7	-49.2	6.2	0.00e+00	0	47	104	0	64	19813
2026-01-27 21:57:30.01	227.78	8.17	-46.6	-49.2	6.2	0.00e+00	0	47	104	0	64	19761
2026-01-27 21:57:31.02	227.95	8.24	-46.5	-49.1	6.2	0.00e+00	0	47	104	0	64	19635
2026-01-27 21:57:32.03	228.11	8.31	-46.6	-49.1	6.2	0.00e+00	0	47	104	0	64	19609
2026-01-27 21:57:33.04	228.27	8.37	-46.7	-49.2	6.2	0.00e+00	0	47	104	0	64	19808
2026-01-27 21:57:34.05	228.44	8.44	-46.6	-49.2	6.2	0.00e+00	0	47	104	0	64	19756
2026-01-27 21:57:35.06	228.60	8.51	-46.5	-49.1	6.2	0.00e+00	0	47	104	0	64	19666
2026-01-27 21:57:36.07	228.77	8.58	-46.6	-49.1	6.2	0.00e+00	0	47	104	0	64	19695
2026-01-27 21:57:37.08	228.94	8.65	-46.7	-49.2	6.2	0.00e+00	0	47	104	0	64	19861
2026-01-27 21:57:38.09	229.10	8.71	-46.6	-49.2	6.2	0.00e+00	0	47	104	0	64	19830
2026-01-27 21:57:39.10	229.27	8.78	-46.4	-48.8	6.2	0.00e+00	0	47	104	0	64	19006
2026-01-27 21:57:40.11	229.44	8.85	-45.3	-47.2	6.3	0.00e+00	0	47	104	0	62	17578
2026-01-27 21:57:41.12	229.61	8.92	-45.4	-47.3	6.3	0.00e+00	0	47	104	0	62	17884
2026-01-27 21:57:42.13	229.79	8.99	-45.5	-47.5	6.2	0.00e+00	0	47	104	0	62	18243
2026-01-27 21:57:43.14	229.96	9.05	-45.6	-47.7	6.2	0.00e+00	0	47	104	0	62	18624
2026-01-27 21:57:44.15	230.13	9.12	-45.9	-48.0	6.2	0.00e+00	0	47	104	0	62	19462
2026-01-27 21:57:45.16	230.31	9.19	-46.4	-48.9	6.2	0.00e+00	0	47	104	0	64	19074
2026-01-27 21:57:46.17	230.48	9.26	-46.0	-48.2	6.2	0.00e+00	0	47	104	0	63	18756
2026-01-27 21:57:47.18	230.66	9.33	-46.4	-48.7	6.2	0.00e+00	0	47	104	0	63	19873
2026-01-27 21:57:48.19	230.84	9.40	-46.1	-48.4	6.2	0.00e+00	0	47	104	0	63	19195
2026-01-27 21:57:49.21	231.02	9.47	-46.2	-48.5	6.2	0.00e+00	0	47	104	0	63	19338
2026-01-27 21:57:50.21	231.20	9.53	-46.1	-48.4	6.2	0.00e+00	0	47	104	0	63	19141
2026-01-27 21:57:51.22	231.38	9.60	-46.0	-48.1	6.2	0.00e+00	0	47	104	0	63	18539
2026-01-27 21:57:52.23	231.56	9.67	-46.2	-48.5	6.2	0.00e+00	0	47	104	0	63	19352
2026-01-27 21:57:53.24	231.74	9.74	-46.4	-48.7	6.2	0.00e+00	0	47	104	0	64	18785
2026-01-27 21:57:54.25	231.92	9.81	-45.4	-47.3	6.3	0.00e+00	0	47	104	0	62	17890
2026-01-27 21:57:55.26	232.11	9.88	-24.2	-24.3	11.8	7.58e-03	0	47	104	0	26	10002
2026-01-27 21:57:56.27	232.29	9.95	-22.6	-22.7	18.6	0.00e+00	0	47	0	50331648	17	13980
2026-01-27 21:57:57.28	232.48	10.01	-22.3	-22.4	18.7	0.00e+00	0	47	0	159383552	16	14302
2026-01-27 21:57:58.29	232.67	10.08	-22.3	-22.4	18.7	0.00e+00	0	47	0	276824064	16	14350
2026-01-27 21:57:59.31	232.86	10.15	-22.1	-22.1	18.7	0.00e+00	0	47	0	385875968	16	13933
2026-01-27 21:58:00.32	233.05	10.22	-21.9	-22.0	18.7	0.00e+00	0	47	0	503316480	15	14489
2026-01-27 21:58:01.33	233.24	10.29	-21.7	-21.8	18.7	0.00e+00	0	47	0	620756992	15	14187
2026-01-27 21:58:02.34	233.43	10.36	-21.7	-21.8	18.8	0.00e+00	0	48	0	729808896	15	14120
2026-01-27 21:58:03.35	233.62	10.43	-21.7	-21.7	18.7	0.00e+00	0	48	0	847249408	15	14071
2026-01-27 21:58:04.36	233.82	10.50	-21.5	-21.6	18.8	0.00e+00	0	47	0	964689920	15	13876
2026-01-27 21:58:05.37	234.01	10.56	-21.5	-21.6	18.7	0.00e+00	0	47	0	1073741824	15	13833
2026-01-27 21:58:06.38	234.21	10.63	-21.4	-21.5	18.8	0.00e+00	0	47	0	1191182336	14	14541
2026-01-27 21:58:07.39	234.41	10.70	-21.6	-21.6	18.7	0.00e+00	0	47	0	1300234240	14	14772
2026-01-27 21:58:08.40	234.60	10.77	-21.4	-21.5	18.8	0.00e+00	0	48	0	1409286144	14	14478
2026-01-27 21:58:09.41	234.80	10.84	-21.4	-21.4	18.7	0.00e+00	0	48	0	1526726656	14	14415
2026-01-27 21:58:10.43	235.01	10.91	-21.3	-21.3	18.7	0.00e+00	0	48	0	1644167168	14	14269
2026-01-27 21:58:11.44	235.21	10.98	-21.2	-21.3	18.8	0.00e+00	0	48	0	1753219072	14	14154
2026-01-27 21:58:12.45	235.41	11.05	-21.3	-21.4	18.8	0.00e+00	0	48	0	1870659584	14	14291
2026-01-27 21:58:13.46	235.61	11.11	-21.2	-21.3	18.8	0.00e+00	0	48	0	1979711488	14	14212
2026-01-27 21:58:14.47	235.82	11.18	-21.1	-21.2	18.9	0.00e+00	0	48	0	2097152000	14	13987
2026-01-27 21:58:15.48	236.02	11.25	-21.1	-21.2	18.8	0.00e+00	0	48	0	2206203904	14	14035
2026-01-27 21:58:16.49	236.23	11.32	-21.1	-21.2	18.8	0.00e+00	0	48	0	2323644416	14	13998
2026-01-27 21:58:17.50	236.44	11.39	-21.1	-21.1	18.9	0.00e+00	0	48	0	2432696320	14	13938
2026-01-27 21:58:18.51	236.65	11.46	-21.0	-21.1	18.9	0.00e+00	0	48	0	2550136832	14	13851
2026-01-27 21:58:19.52	236.86	11.52	-21.1	-21.2	18.8	0.00e+00	0	48	0	2667577344	14	14060
2026-01-27 21:58:20.53	237.07	11.59	-21.1	-21.2	18.7	0.00e+00	0	48	0	2776629248	14	14072
2026-01-27 21:58:21.54	237.28	11.66	-21.1	-21.1	18.7	0.00e+00	0	48	0	2894069760	14	13937
2026-01-27 21:58:22.55	237.50	11.73	-20.9	-21.0	18.8	0.00e+00	0	48	0	3003121664	13	14573
2026-01-27 21:58:23.57	237.71	11.80	-20.9	-21.0	18.7	0.00e+00	0	48	0	3120562176	13	14450
2026-01-27 21:58:24.58	237.93	11.86	-20.9	-21.0	18.7	0.00e+00	0	48	0	3238002688	13	14458
2026-01-27 21:58:25.59	238.15	11.93	-21.0	-21.0	18.7	0.00e+00	0	48	0	3347054592	13	14580
2026-01-27 21:58:26.60	238.36	12.00	-20.8	-20.9	18.6	0.00e+00	0	48	0	3456106496	13	14357
2026-01-27 21:58:27.61	238.58	12.07	-20.9	-21.0	18.6	0.00e+00	0	48	0	3581935616	13	14559
2026-01-27 21:58:28.62	238.80	12.14	-20.8	-20.9	18.6	0.00e+00	0	48	0	3690987520	13	14335
2026-01-27 21:58:29.63	239.03	12.20	-20.9	-20.9	18.6	0.00e+00	0	48	0	3800039424	13	14428
2026-01-27 21:58:30.64	239.25	12.27	-20.8	-20.9	18.6	0.00e+00	0	48	0	3917479936	13	14411
2026-01-27 21:58:31.65	239.47	12.34	-20.7	-20.8	18.6	0.00e+00	0	48	0	4026531840	13	14200
2026-01-27 21:58:32.66	239.70	12.40	-20.7	-20.8	18.6	0.00e+00	0	48	0	4143972352	13	14171
2026-01-27 21:58:33.67	239.93	12.47	-20.8	-20.9	18.6	0.00e+00	0	48	0	4261412864	13	14312
2026-01-27 21:58:34.68	240.15	12.54	-20.8	-20.8	18.6	0.00e+00	0	48	0	4370464768	13	14273
2026-01-27 21:58:35.69	240.38	12.60	-20.7	-20.7	18.7	0.00e+00	0	48	0	4479516672	13	14072
2026-01-27 21:58:36.70	240.61	12.67	-20.7	-20.8	18.5	0.00e+00	0	48	0	4596957184	13	14217
2026-01-27 21:58:37.72	240.85	12.74	-20.7	-20.8	18.5	0.00e+00	0	48	0	4714397696	13	14161
2026-01-27 21:58:38.73	241.08	12.80	-20.7	-20.8	18.6	0.00e+00	0	48	0	4823449600	13	14162
2026-01-27 21:58:39.74	241.31	12.87	-20.8	-20.8	18.6	0.00e+00	0	48	0	4940890112	13	14251
2026-01-27 21:58:40.75	241.55	12.94	-20.6	-20.7	18.7	0.00e+00	0	48	0	5049942016	13	14027
2026-01-27 21:58:41.76	241.78	13.00	-20.6	-20.7	18.5	0.00e+00	0	48	0	5167382528	13	13995
2026-01-27 21:58:42.77	242.02	13.07	-20.7	-20.7	18.6	0.00e+00	0	48	0	5284823040	13	14093
2026-01-27 21:58:43.78	242.26	13.13	-20.7	-20.7	18.6	0.00e+00	0	48	0	5393874944	13	14073
2026-01-27 21:58:44.79	242.50	13.20	-20.6	-20.7	18.6	0.00e+00	0	48	0	5511315456	13	13967
2026-01-27 21:58:45.80	242.74	13.26	-20.6	-20.7	18.6	0.00e+00	0	48	0	5620367360	13	14032
2026-01-27 21:58:46.81	242.98	13.33	-20.5	-20.6	18.5	0.00e+00	0	48	0	5737807872	13	13850
2026-01-27 21:58:47.82	243.22	13.39	-20.6	-20.7	18.4	0.00e+00	0	48	0	5846859776	13	13976
2026-01-27 21:58:48.83	243.47	13.46	-20.5	-20.6	18.5	0.00e+00	0	48	0	5964300288	13	13838
2026-01-27 21:58:49.84	243.71	13.52	-20.5	-20.5	18.5	0.00e+00	0	48	0	6073352192	12	14591
2026-01-27 21:58:50.85	243.96	13.58	-20.5	-20.5	18.5	0.00e+00	0	48	0	6190792704	12	14580
2026-01-27 21:58:51.86	244.21	13.65	-20.3	-20.4	18.4	0.00e+00	0	48	0	6308233216	12	14322
2026-01-27 21:58:52.88	244.46	13.71	-20.4	-20.5	18.4	0.00e+00	0	48	0	6417285120	12	14474
2026-01-27 21:58:53.89	244.71	13.78	-20.3	-20.4	18.4	0.00e+00	0	48	0	6534725632	12	14377
2026-01-27 21:58:54.90	244.96	13.84	-20.3	-20.4	18.4	0.00e+00	0	48	0	6643777536	12	14298
2026-01-27 21:58:55.91	245.22	13.90	-20.3	-20.4	18.3	0.00e+00	0	48	0	6752829440	12	14304
2026-01-27 21:58:56.92	245.47	13.96	-20.4	-20.5	18.4	0.00e+00	0	48	0	6870269952	12	14497
2026-01-27 21:58:57.93	245.73	14.03	-20.3	-20.4	18.3	0.00e+00	0	48	0	6987710464	12	14277
2026-01-27 21:58:58.94	245.98	14.09	-20.3	-20.3	18.4	0.00e+00	0	48	0	7096762368	12	14242
2026-01-27 21:58:59.95	246.24	14.15	-20.3	-20.3	18.4	0.00e+00	0	48	0	7214202880	12	14237
2026-01-27 21:59:00.96	246.50	14.21	-20.4	-20.4	18.2	0.00e+00	0	48	0	7331643392	12	14401
2026-01-27 21:59:01.97	246.76	14.27	-20.2	-20.3	18.1	0.00e+00	0	48	0	7440695296	12	14180
2026-01-27 21:59:02.98	247.02	14.33	-20.3	-20.4	18.0	0.00e+00	0	48	0	7558135808	12	14367
2026-01-27 21:59:03.99	247.29	14.39	-20.2	-20.3	18.1	0.00e+00	0	48	0	7667187712	12	14194
2026-01-27 21:59:05.00	247.55	14.45	-20.1	-20.2	18.1	0.00e+00	0	48	0	7776239616	12	13996
2026-01-27 21:59:06.01	247.82	14.51	-20.2	-20.2	17.9	0.00e+00	0	48	0	7902068736	12	14066
2026-01-27 21:59:07.02	248.08	14.57	-20.1	-20.2	18.0	0.00e+00	0	48	0	8011120640	12	14017
2026-01-27 21:59:08.03	248.35	14.63	-20.1	-20.2	18.0	0.00e+00	0	48	0	8120172544	12	13963
2026-01-27 21:59:09.05	248.62	14.69	-20.0	-20.1	18.0	0.00e+00	0	48	0	8237613056	12	13838
2026-01-27 21:59:10.06	248.89	14.75	-20.0	-20.1	17.9	0.00e+00	0	48	0	8346664960	12	13855
2026-01-27 21:59:11.07	249.16	14.81	-20.2	-20.2	17.8	0.00e+00	0	48	0	8464105472	12	14063
2026-01-27 21:59:12.08	249.43	14.87	-20.0	-20.1	17.8	0.00e+00	0	48	0	8581545984	12	13850
2026-01-27 21:59:13.09	249.71	14.92	-20.2	-20.3	17.7	0.00e+00	0	48	0	8690597888	11	14990
2026-01-27 21:59:14.10	249.98	14.98	-20.2	-20.3	17.5	0.00e+00	0	48	0	8799649792	11	14949
2026-01-27 21:59:15.11	250.26	15.04	-20.2	-20.2	17.7	0.00e+00	0	48	0	8925478912	11	14905
2026-01-27 21:59:16.12	250.54	15.09	-20.1	-20.2	17.5	0.00e+00	0	48	0	9034530816	11	14823
2026-01-27 21:59:17.13	250.82	15.15	-20.1	-20.2	17.3	0.00e+00	0	48	0	9143582720	11	14812
2026-01-27 21:59:18.14	251.09	15.20	-20.0	-20.1	17.4	0.00e+00	0	48	0	9261023232	11	14704
2026-01-27 21:59:19.15	251.38	15.26	-20.1	-20.1	17.4	0.00e+00	0	48	0	9370075136	11	14771
2026-01-27 21:59:20.16	251.66	15.31	-20.0	-20.1	17.3	0.00e+00	0	48	0	9487515648	11	14619
2026-01-27 21:59:21.17	251.94	15.37	-20.1	-20.1	17.1	0.00e+00	0	48	0	9604956160	11	14730
2026-01-27 21:59:22.18	252.23	15.42	-20.1	-20.2	17.1	0.00e+00	0	48	0	9714008064	11	14836
2026-01-27 21:59:23.19	252.51	15.48	-20.2	-20.2	17.2	0.00e+00	0	48	0	9831448576	11	14894
2026-01-27 21:59:24.20	252.80	15.53	-20.0	-20.1	17.3	0.00e+00	0	48	0	9940500480	11	14711
2026-01-27 21:59:25.21	253.09	15.58	-20.0	-20.0	17.2	0.00e+00	0	48	0	10057940992	11	14594
2026-01-27 21:59:26.22	253.37	15.63	-20.0	-20.1	16.9	0.00e+00	0	48	0	10166992896	11	14738
2026-01-27 21:59:27.23	253.66	15.68	-20.0	-20.1	16.9	0.00e+00	0	48	0	10284433408	11	14714
2026-01-27 21:59:28.24	253.96	15.73	-20.0	-20.1	16.9	0.00e+00	0	48	0	10393485312	11	14633
2026-01-27 21:59:29.25	254.25	15.78	-20.0	-20.1	16.9	0.00e+00	0	48	0	10510925824	11	14644
2026-01-27 21:59:30.26	254.54	15.83	-19.9	-19.9	17.0	0.00e+00	0	48	0	10628366336	11	14378
2026-01-27 21:59:31.27	254.84	15.88	-19.8	-19.9	16.9	0.00e+00	0	48	0	10737418240	11	14383
2026-01-27 21:59:32.29	255.13	15.93	-19.9	-19.9	16.9	0.00e+00	0	48	0	10854858752	11	14405
2026-01-27 21:59:33.29	255.43	15.98	-19.8	-19.9	16.9	0.00e+00	0	48	0	10963910656	11	14279
2026-01-27 21:59:34.30	255.73	16.03	-19.8	-19.9	16.8	0.00e+00	0	48	0	11072962560	11	14286
2026-01-27 21:59:35.32	256.03	16.08	-19.7	-19.8	16.7	0.00e+00	0	48	0	11190403072	11	14229
2026-01-27 21:59:36.33	256.33	16.12	-19.8	-19.9	16.7	0.00e+00	0	48	0	11307843584	11	14327
2026-01-27 21:59:37.34	256.63	16.17	-19.7	-19.8	16.8	0.00e+00	0	48	0	11416895488	11	14196
2026-01-27 21:59:38.35	256.93	16.21	-19.7	-19.8	16.9	0.00e+00	0	49	0	11534336000	11	14168
2026-01-27 21:59:39.36	257.23	16.26	-19.8	-19.9	16.8	0.00e+00	0	48	0	11651776512	11	14323
2026-01-27 21:59:40.37	257.54	16.30	-19.7	-19.8	16.8	0.00e+00	0	48	0	11760828416	11	14172
2026-01-27 21:59:41.38	257.84	16.35	-19.6	-19.7	16.8	0.00e+00	0	48	0	11878268928	11	14011
2026-01-27 21:59:42.39	258.15	16.39	-19.6	-19.7	16.9	0.00e+00	0	48	0	11987320832	11	14029
2026-01-27 21:59:43.40	258.45	16.43	-19.6	-19.7	16.8	0.00e+00	0	48	0	12096372736	11	13991
2026-01-27 21:59:44.41	258.76	16.48	-19.7	-19.7	16.8	0.00e+00	0	49	0	12213813248	11	14111
2026-01-27 21:59:45.42	259.07	16.52	-19.6	-19.6	16.8	0.00e+00	0	48	0	12331253760	11	13934
2026-01-27 21:59:46.43	259.38	16.56	-19.7	-19.7	17.0	0.00e+00	0	48	0	12440305664	11	14088
2026-01-27 21:59:47.44	259.69	16.60	-19.6	-19.7	16.9	0.00e+00	0	48	0	12557746176	11	14034
2026-01-27 21:59:48.45	260.00	16.64	-19.7	-19.8	16.9	0.00e+00	0	48	0	12666798080	11	14173
2026-01-27 21:59:49.46	260.32	16.68	-19.6	-19.6	16.8	0.00e+00	0	48	0	12784238592	11	13915
2026-01-27 21:59:50.47	260.63	16.71	-19.6	-19.6	16.9	0.00e+00	0	48	0	12901679104	11	13913
2026-01-27 21:59:51.48	260.94	16.75	-19.6	-19.6	16.8	0.00e+00	0	48	0	13010731008	11	13943
2026-01-27 21:59:52.49	261.26	16.79	-19.6	-19.6	16.9	0.00e+00	0	48	0	13119782912	11	13948
2026-01-27 21:59:53.50	261.57	16.82	-19.6	-19.7	16.9	0.00e+00	0	48	0	13237223424	11	14040
2026-01-27 21:59:54.51	261.89	16.86	-19.6	-19.7	16.9	0.00e+00	0	48	0	13354663936	11	14031
2026-01-27 21:59:55.52	262.21	16.89	-19.7	-19.7	16.9	0.00e+00	0	48	0	13463715840	11	14051
2026-01-27 21:59:56.53	262.53	16.93	-19.8	-19.9	16.8	0.00e+00	0	49	0	13581156352	11	14350
2026-01-27 21:59:57.54	262.85	16.96	-19.7	-19.8	17.0	0.00e+00	0	48	0	13690208256	11	14124
2026-01-27 21:59:58.55	263.17	16.99	-19.6	-19.7	17.0	0.00e+00	0	48	0	13807648768	11	13982
2026-01-27 21:59:59.56	263.49	17.02	-19.6	-19.7	16.9	0.00e+00	0	49	0	13916700672	11	14041
2026-01-27 22:00:00.57	263.81	17.06	-19.7	-19.7	17.2	0.00e+00	0	48	0	14034141184	11	14079
2026-01-27 22:00:01.58	264.13	17.09	-19.5	-19.6	17.1	0.00e+00	0	48	0	14143193088	11	13882
2026-01-27 22:00:02.59	264.46	17.12	-19.6	-19.7	16.9	0.00e+00	0	48	0	14260633600	11	14044
2026-01-27 22:00:03.60	264.78	17.14	-19.6	-19.7	16.9	0.00e+00	0	48	0	14369685504	11	14023
2026-01-27 22:00:04.61	265.10	17.17	-19.6	-19.7	17.2	0.00e+00	0	48	0	14487126016	11	14023
2026-01-27 22:00:05.62	265.43	17.20	-19.6	-19.7	17.1	0.00e+00	0	48	0	14604566528	11	14066
2026-01-27 22:00:06.63	265.75	17.23	-19.7	-19.7	17.0	1.90e-06	0	48	0	14713618432	11	14081
2026-01-27 22:00:07.64	266.08	17.25	-19.6	-19.7	17.2	0.00e+00	0	48	0	14831058944	11	13996
2026-01-27 22:00:08.65	266.41	17.28	-19.6	-19.7	17.2	0.00e+00	0	48	0	14940110848	11	14017
2026-01-27 22:00:09.66	266.74	17.30	-19.8	-19.8	17.3	0.00e+00	0	48	0	15057551360	11	14220
2026-01-27 22:00:10.67	267.06	17.32	-19.6	-19.7	17.3	0.00e+00	0	48	0	15174991872	11	14037
2026-01-27 22:00:11.69	267.40	17.35	-19.7	-19.7	17.3	0.00e+00	0	48	0	15284043776	11	14069
2026-01-27 22:00:12.70	267.72	17.37	-19.6	-19.7	17.5	0.00e+00	0	49	0	15393095680	11	13981
2026-01-27 22:00:13.70	268.05	17.39	-19.6	-19.6	17.4	0.00e+00	0	48	0	15510536192	11	13939
2026-01-27 22:00:14.72	268.39	17.41	-19.6	-19.6	17.5	0.00e+00	0	48	0	15627976704	11	13910
2026-01-27 22:00:15.72	268.71	17.43	-19.6	-19.6	17.6	0.00e+00	0	48	0	15737028608	11	13907
2026-01-27 22:00:16.74	269.05	17.45	-19.6	-19.7	17.5	0.00e+00	0	48	0	15854469120	11	14017
2026-01-27 22:00:17.75	269.38	17.47	-19.7	-19.8	17.5	0.00e+00	0	48	0	15963521024	11	14154
2026-01-27 22:00:18.76	269.71	17.48	-19.6	-19.7	17.7	0.00e+00	0	49	0	16072572928	11	13980
2026-01-27 22:00:19.77	270.04	17.50	-19.7	-19.7	17.8	0.00e+00	0	48	0	16198402048	11	14066
2026-01-27 22:00:20.78	270.38	17.51	-19.6	-19.7	17.8	0.00e+00	0	48	0	16307453952	11	14059
2026-01-27 22:00:21.79	270.71	17.53	-19.7	-19.7	17.9	0.00e+00	0	48	0	16416505856	11	14082
2026-01-27 22:00:22.80	271.04	17.54	-19.7	-19.7	18.0	0.00e+00	0	48	0	16533946368	11	14111
2026-01-27 22:00:23.81	271.38	17.56	-19.7	-19.8	18.2	0.00e+00	0	48	0	16651386880	11	14158
2026-01-27 22:00:24.82	271.71	17.57	-19.8	-19.8	18.2	0.00e+00	0	48	0	16760438784	11	14264
2026-01-27 22:00:25.83	272.05	17.58	-19.7	-19.7	18.4	0.00e+00	0	48	0	16877879296	11	14093
2026-01-27 22:00:26.84	272.38	17.59	-19.7	-19.8	18.5	0.00e+00	0	48	0	16986931200	11	14159
2026-01-27 22:00:27.85	272.72	17.60	-19.8	-19.9	18.5	0.00e+00	0	48	0	17104371712	11	14298
2026-01-27 22:00:28.86	273.05	17.61	-19.7	-19.8	18.5	0.00e+00	0	48	0	17221812224	11	14179
2026-01-27 22:00:29.87	273.39	17.61	-19.8	-19.8	18.7	0.00e+00	0	49	0	17330864128	11	14235
2026-01-27 22:00:30.88	273.72	17.62	-19.7	-19.8	18.7	0.00e+00	0	49	0	17439916032	11	14176
2026-01-27 22:00:31.89	274.06	17.63	-19.8	-19.8	18.7	0.00e+00	0	48	0	17557356544	11	14265
2026-01-27 22:00:32.90	274.39	17.63	-19.8	-19.8	18.9	0.00e+00	0	48	0	17666408448	11	14249
2026-01-27 22:00:33.91	274.73	17.64	-19.8	-19.8	18.9	0.00e+00	0	49	0	17783848960	11	14245
2026-01-27 22:00:34.92	275.07	17.64	-19.9	-20.0	19.0	0.00e+00	0	49	0	17901289472	11	14502
2026-01-27 22:00:35.93	275.40	17.64	-19.8	-19.9	19.0	0.00e+00	0	48	0	18010341376	11	14354
2026-01-27 22:00:36.94	275.74	17.64	-19.9	-19.9	19.1	0.00e+00	0	48	0	18127781888	11	14421
2026-01-27 22:00:37.95	276.07	17.64	-19.9	-19.9	19.2	0.00e+00	0	49	0	18236833792	11	14415
2026-01-27 22:00:38.96	276.41	17.64	-19.9	-20.0	19.2	0.00e+00	0	49	0	18354274304	11	14472
2026-01-27 22:00:39.97	276.75	17.64	-19.8	-19.8	19.4	0.00e+00	0	49	0	18463326208	11	14221
2026-01-27 22:00:40.98	277.08	17.64	-19.8	-19.8	19.5	0.00e+00	0	48	0	18580766720	11	14249
2026-01-27 22:00:41.99	277.42	17.64	-19.9	-19.9	19.4	0.00e+00	0	48	0	18689818624	11	14392
2026-01-27 22:00:43.00	277.75	17.64	-19.9	-20.0	19.5	0.00e+00	0	48	0	18807259136	11	14495
2026-01-27 22:00:44.01	278.09	17.63	-19.9	-20.0	19.7	0.00e+00	0	49	0	18924699648	11	14551
2026-01-27 22:00:45.03	278.43	17.63	-19.9	-20.0	19.7	0.00e+00	0	49	0	19033751552	11	14449
2026-01-27 22:00:46.04	278.76	17.62	-19.9	-20.0	19.7	0.00e+00	0	49	0	19151192064	11	14475
2026-01-27 22:00:47.05	279.10	17.61	-20.0	-20.1	19.8	0.00e+00	0	48	0	19260243968	11	14610
2026-01-27 22:00:48.06	279.44	17.60	-20.0	-20.1	19.8	0.00e+00	0	49	0	19369295872	11	14632
2026-01-27 22:00:49.07	279.77	17.60	-20.0	-20.0	19.8	0.00e+00	0	49	0	19495124992	11	14598
2026-01-27 22:00:50.08	280.11	17.59	-20.0	-20.1	19.8	0.00e+00	0	48	0	19604176896	11	14630
2026-01-27 22:00:51.09	280.44	17.58	-19.9	-20.0	19.9	0.00e+00	0	48	0	19713228800	11	14533
2026-01-27 22:00:52.10	280.77	17.56	-20.0	-20.0	19.9	0.00e+00	0	49	0	19830669312	11	14575
2026-01-27 22:00:53.11	281.11	17.55	-20.0	-20.1	19.9	0.00e+00	0	48	0	19948109824	11	14708
2026-01-27 22:00:54.12	281.44	17.54	-20.1	-20.2	20.0	0.00e+00	0	48	0	20057161728	11	14793
2026-01-27 22:00:55.13	281.78	17.53	-20.1	-20.2	19.9	0.00e+00	0	48	0	20174602240	11	14830
2026-01-27 22:00:56.14	282.11	17.51	-20.1	-20.2	19.9	0.00e+00	0	48	0	20283654144	11	14885
2026-01-27 22:00:57.15	282.44	17.50	-20.2	-20.2	19.9	0.00e+00	0	49	0	20392706048	11	14904
2026-01-27 22:00:58.16	282.77	17.48	-20.1	-20.1	19.8	0.00e+00	0	49	0	20518535168	11	14761
2026-01-27 22:00:59.17	283.10	17.46	-20.2	-20.2	19.8	0.00e+00	0	49	0	20627587072	11	14885
2026-01-27 22:01:00.18	283.44	17.44	-20.2	-20.3	19.8	0.00e+00	0	48	0	20736638976	11	15009
2026-01-27 22:01:01.19	283.77	17.43	-20.2	-20.3	19.8	0.00e+00	0	48	0	20854079488	11	14969
2026-01-27 22:01:02.20	284.10	17.41	-20.3	-20.3	19.7	0.00e+00	0	49	0	20963131392	11	15050
2026-01-27 22:01:03.21	284.43	17.39	-20.2	-20.3	19.8	0.00e+00	0	49	0	21080571904	11	14961
2026-01-27 22:01:04.22	284.76	17.36	-20.2	-20.3	19.7	0.00e+00	0	49	0	21198012416	11	15033
2026-01-27 22:01:05.24	285.09	17.34	-20.4	-20.5	19.6	0.00e+00	0	49	0	21307064320	11	15299
2026-01-27 22:01:06.25	285.42	17.32	-20.3	-20.4	19.6	0.00e+00	0	49	0	21424504832	11	15126
2026-01-27 22:01:07.26	285.74	17.30	-20.4	-20.5	19.6	0.00e+00	0	49	0	21533556736	11	15297
2026-01-27 22:01:08.27	286.07	17.27	-20.3	-20.3	19.7	0.00e+00	0	49	0	21650997248	11	15091
2026-01-27 22:01:09.28	286.40	17.25	-20.4	-20.4	19.7	0.00e+00	0	49	0	21760049152	11	15253
2026-01-27 22:01:10.29	286.72	17.22	-20.4	-20.4	19.6	0.00e+00	0	49	0	21877489664	11	15236
2026-01-27 22:01:11.30	287.05	17.19	-20.5	-20.5	19.6	0.00e+00	0	49	0	21986541568	11	15433
2026-01-27 22:01:12.31	287.37	17.17	-20.4	-20.5	19.6	0.00e+00	0	49	0	22103982080	11	15357
2026-01-27 22:01:13.32	287.70	17.14	-20.4	-20.5	19.5	0.00e+00	0	48	0	22221422592	11	15317
2026-01-27 22:01:14.33	288.02	17.11	-20.4	-20.5	19.5	0.00e+00	0	49	0	22330474496	11	15322
2026-01-27 22:01:15.34	288.34	17.08	-20.4	-20.5	19.6	0.00e+00	0	49	0	22447915008	11	15363
2026-01-27 22:01:16.35	288.67	17.05	-20.5	-20.6	19.6	0.00e+00	0	49	0	22556966912	11	15501
2026-01-27 22:01:17.36	288.99	17.02	-20.5	-20.6	19.6	0.00e+00	0	49	0	22674407424	11	15602
2026-01-27 22:01:18.37	289.31	16.99	-20.6	-20.6	19.6	0.00e+00	0	49	0	22783459328	11	15644
2026-01-27 22:01:19.38	289.63	16.95	-20.7	-20.8	19.4	0.00e+00	0	49	0	22900899840	11	15843
2026-01-27 22:01:20.39	289.95	16.92	-20.3	-20.4	19.4	0.00e+00	0	49	0	23009951744	12	14368
2026-01-27 22:01:21.40	290.26	16.89	-20.4	-20.5	19.2	0.00e+00	0	49	0	23127392256	12	14447
2026-01-27 22:01:22.42	290.58	16.85	-20.5	-20.6	19.1	0.00e+00	0	49	0	23244832768	12	14656
2026-01-27 22:01:23.43	290.90	16.82	-20.4	-20.4	19.1	0.00e+00	0	49	0	23353884672	12	14421
2026-01-27 22:01:24.44	291.22	16.78	-20.4	-20.5	18.9	0.00e+00	0	48	0	23471325184	12	14516
2026-01-27 22:01:25.45	291.53	16.74	-20.5	-20.6	19.0	0.00e+00	0	49	0	23580377088	12	14619
2026-01-27 22:01:26.46	291.84	16.71	-20.6	-20.6	18.8	0.00e+00	0	49	0	23689428992	12	14724
2026-01-27 22:01:27.47	292.16	16.67	-20.6	-20.6	18.8	0.00e+00	0	49	0	23806869504	12	14738
2026-01-27 22:01:28.48	292.47	16.63	-20.5	-20.5	18.8	0.00e+00	0	49	0	23924310016	12	14606
2026-01-27 22:01:29.49	292.78	16.59	-20.5	-20.6	18.7	0.00e+00	0	49	0	24033361920	12	14651
2026-01-27 22:01:30.50	293.09	16.55	-20.6	-20.7	18.8	0.00e+00	0	49	0	24150802432	12	14788
2026-01-27 22:01:31.51	293.40	16.51	-20.6	-20.7	18.8	0.00e+00	0	49	0	24268242944	12	14850
2026-01-27 22:01:32.52	293.71	16.47	-20.6	-20.6	18.7	0.00e+00	0	49	0	24377294848	12	14770
2026-01-27 22:01:33.53	294.01	16.42	-20.7	-20.8	18.9	0.00e+00	0	49	0	24494735360	12	14948
2026-01-27 22:01:34.54	294.32	16.38	-20.6	-20.7	18.7	0.00e+00	0	49	0	24603787264	12	14789
2026-01-27 22:01:35.55	294.63	16.34	-20.7	-20.7	18.8	0.00e+00	0	48	0	24712839168	12	14925
2026-01-27 22:01:36.56	294.93	16.30	-20.7	-20.7	18.7	0.00e+00	0	49	0	24838668288	12	14929
2026-01-27 22:01:37.57	295.23	16.25	-20.6	-20.7	18.7	0.00e+00	0	49	0	24947720192	12	14839
2026-01-27 22:01:38.58	295.53	16.21	-20.7	-20.8	18.7	0.00e+00	0	49	0	25056772096	12	15013
2026-01-27 22:01:39.60	295.84	16.16	-20.7	-20.8	18.8	0.00e+00	0	49	0	25174212608	12	14985
2026-01-27 22:01:40.61	296.14	16.11	-20.9	-20.9	18.8	0.00e+00	0	49	0	25283264512	12	15265
2026-01-27 22:01:41.62	296.44	16.07	-20.7	-20.8	18.7	0.00e+00	0	49	0	25400705024	12	14991
2026-01-27 22:01:42.63	296.74	16.02	-20.8	-20.9	18.7	0.00e+00	0	48	0	25518145536	12	15172
2026-01-27 22:01:43.64	297.03	15.97	-20.7	-20.8	18.6	0.00e+00	0	49	0	25627197440	12	15028
2026-01-27 22:01:44.65	297.33	15.92	-20.7	-20.7	18.7	0.00e+00	0	49	0	25736249344	12	14923
2026-01-27 22:01:45.66	297.62	15.88	-20.8	-20.8	18.6	0.00e+00	0	49	0	25862078464	12	15112
2026-01-27 22:01:46.67	297.92	15.83	-20.6	-20.7	18.6	0.00e+00	0	48	0	25971130368	12	14840
2026-01-27 22:01:47.69	298.21	15.78	-20.7	-20.8	18.6	0.00e+00	0	49	0	26080182272	12	14993
2026-01-27 22:01:48.70	298.50	15.73	-20.7	-20.8	18.7	0.00e+00	0	49	0	26197622784	12	14986
2026-01-27 22:01:49.71	298.79	15.67	-20.6	-20.7	18.7	0.00e+00	0	49	0	26315063296	12	14863
2026-01-27 22:01:50.72	299.08	15.62	-20.7	-20.7	18.7	0.00e+00	0	49	0	26424115200	12	14915
2026-01-27 22:01:51.73	299.37	15.57	-20.7	-20.8	18.8	0.00e+00	0	49	0	26541555712	12	14981
2026-01-27 22:01:52.74	299.66	15.52	-20.7	-20.8	18.8	0.00e+00	0	49	0	26650607616	12	14967
2026-01-27 22:01:53.75	299.94	15.47	-20.7	-20.8	18.9	0.00e+00	0	49	0	26768048128	12	14974
2026-01-27 22:01:54.76	300.23	15.41	-20.8	-20.8	19.1	0.00e+00	0	49	0	26885488640	12	15060
2026-01-27 22:01:55.77	300.51	15.36	-20.9	-20.9	19.1	0.00e+00	0	49	0	26994540544	12	15265
2026-01-27 22:01:56.78	300.79	15.31	-20.7	-20.8	19.0	0.00e+00	0	49	0	27103592448	12	14949
2026-01-27 22:01:57.79	301.08	15.25	-20.8	-20.9	19.1	0.00e+00	0	49	0	27221032960	12	15206
2026-01-27 22:01:58.80	301.36	15.20	-20.9	-20.9	19.0	0.00e+00	0	49	0	27330084864	12	15289
2026-01-27 22:01:59.81	301.63	15.14	-21.1	-21.2	18.9	0.00e+00	0	48	0	27447525376	12	15680
2026-01-27 22:02:00.82	301.91	15.09	-20.8	-20.9	18.9	0.00e+00	0	49	0	27564965888	12	15195
2026-01-27 22:02:01.83	302.19	15.03	-20.9	-20.9	19.0	0.00e+00	0	49	0	27674017792	12	15252
2026-01-27 22:02:02.84	302.46	14.97	-20.8	-20.9	19.0	0.00e+00	0	49	0	27791458304	12	15130
2026-01-27 22:02:03.85	302.74	14.92	-20.7	-20.8	19.0	0.00e+00	0	49	0	27900510208	12	15032
2026-01-27 22:02:04.86	303.01	14.86	-20.7	-20.8	19.0	0.00e+00	0	49	0	28017950720	12	15001
2026-01-27 22:02:05.87	303.28	14.80	-20.8	-20.9	19.1	0.00e+00	0	49	0	28127002624	12	15163
2026-01-27 22:02:06.88	303.55	14.74	-20.8	-20.8	19.1	0.00e+00	0	48	0	28244443136	12	15061
2026-01-27 22:02:07.89	303.82	14.68	-20.8	-20.8	19.1	0.00e+00	0	49	0	28353495040	12	15104
2026-01-27 22:02:08.91	304.09	14.62	-20.9	-21.0	19.1	0.00e+00	0	49	0	28470935552	12	15400
2026-01-27 22:02:09.92	304.36	14.57	-20.9	-20.9	19.1	0.00e+00	0	49	0	28588376064	12	15256
2026-01-27 22:02:10.93	304.62	14.51	-20.8	-20.9	19.0	0.00e+00	0	49	0	28697427968	12	15131
2026-01-27 22:02:11.94	304.89	14.45	-20.8	-20.9	19.0	0.00e+00	0	49	0	28814868480	12	15146
2026-01-27 22:02:12.95	305.15	14.39	-20.9	-20.9	18.9	0.00e+00	0	48	0	28923920384	12	15282
2026-01-27 22:02:13.96	305.41	14.33	-20.8	-20.9	19.0	0.00e+00	0	49	0	29041360896	12	15204
2026-01-27 22:02:14.97	305.68	14.27	-20.9	-20.9	18.9	0.00e+00	0	49	0	29150412800	12	15292
2026-01-27 22:02:15.98	305.93	14.20	-20.8	-20.8	18.9	0.00e+00	0	49	0	29267853312	12	15115
2026-01-27 22:02:16.99	306.19	14.14	-20.9	-21.0	19.0	0.00e+00	0	49	0	29376905216	12	15301
2026-01-27 22:02:18.00	306.45	14.08	-20.9	-21.0	18.9	0.00e+00	0	49	0	29494345728	12	15363
2026-01-27 22:02:19.01	306.71	14.02	-20.9	-21.0	18.9	0.00e+00	0	49	0	29611786240	12	15297
2026-01-27 22:02:20.02	306.96	13.96	-21.0	-21.0	18.8	0.00e+00	0	49	0	29720838144	12	15454
2026-01-27 22:02:21.03	307.21	13.90	-20.9	-21.0	18.9	0.00e+00	0	49	0	29838278656	12	15327
2026-01-27 22:02:22.04	307.47	13.83	-20.9	-20.9	18.9	0.00e+00	0	49	0	29947330560	12	15263
2026-01-27 22:02:23.05	307.72	13.77	-21.0	-21.1	18.8	0.00e+00	0	49	0	30056382464	12	15521
2026-01-27 22:02:24.06	307.97	13.71	-21.0	-21.0	18.8	0.00e+00	0	49	0	30182211584	12	15435
2026-01-27 22:02:25.07	308.22	13.64	-21.0	-21.1	18.8	0.00e+00	0	49	0	30291263488	12	15493
2026-01-27 22:02:26.08	308.46	13.58	-21.0	-21.1	18.8	0.00e+00	0	49	0	30400315392	12	15500
2026-01-27 22:02:27.09	308.71	13.52	-21.1	-21.2	18.8	0.00e+00	0	49	0	30517755904	12	15658
2026-01-27 22:02:28.10	308.95	13.45	-21.1	-21.1	18.9	0.00e+00	0	49	0	30626807808	12	15630
2026-01-27 22:02:29.11	309.20	13.39	-21.1	-21.2	18.8	0.00e+00	0	49	0	30744248320	12	15765
2026-01-27 22:02:30.13	309.44	13.32	-21.2	-21.3	18.8	0.00e+00	0	49	0	30861688832	13	14971
2026-01-27 22:02:31.14	309.68	13.26	-21.2	-21.3	18.9	0.00e+00	0	49	0	30970740736	13	14997
2026-01-27 22:02:32.15	309.92	13.19	-21.1	-21.2	18.9	0.00e+00	0	49	0	31079792640	13	14848
2026-01-27 22:02:33.16	310.16	13.13	-21.2	-21.3	19.0	0.00e+00	0	49	0	31205621760	13	14982
2026-01-27 22:02:34.17	310.40	13.06	-21.3	-21.4	19.0	0.00e+00	0	49	0	31314673664	13	15133
2026-01-27 22:02:35.18	310.64	13.00	-21.3	-21.4	19.0	0.00e+00	0	49	0	31423725568	13	15206
2026-01-27 22:02:36.19	310.87	12.93	-21.3	-21.4	19.0	0.00e+00	0	49	0	31541166080	13	15217
2026-01-27 22:02:37.20	311.11	12.87	-21.5	-21.6	19.0	0.00e+00	0	48	0	31650217984	13	15522
2026-01-27 22:02:38.21	311.34	12.80	-21.5	-21.6	19.1	0.00e+00	0	49	0	31767658496	13	15558
2026-01-27 22:02:39.22	311.57	12.74	-21.7	-21.7	19.0	0.00e+00	0	49	0	31885099008	13	15811
2026-01-27 22:02:40.24	311.80	12.67	-21.5	-21.5	19.0	0.00e+00	0	49	0	31994150912	13	15455
2026-01-27 22:02:41.25	312.03	12.60	-21.5	-21.5	18.9	0.00e+00	0	49	0	32111591424	13	15415
2026-01-27 22:02:42.26	312.26	12.54	-21.6	-21.6	18.9	0.00e+00	0	49	0	32229031936	13	15630
2026-01-27 22:02:43.27	312.49	12.47	-21.6	-21.7	18.9	0.00e+00	0	49	0	32338083840	13	15751
2026-01-27 22:02:44.28	312.71	12.40	-21.7	-21.7	19.0	0.00e+00	0	49	0	32447135744	14	14910
2026-01-27 22:02:45.29	312.94	12.34	-21.7	-21.7	18.9	0.00e+00	0	48	0	32564576256	14	14913
2026-01-27 22:02:46.30	313.16	12.27	-21.6	-21.6	18.9	0.00e+00	0	49	0	32673628160	14	14756
2026-01-27 22:02:47.31	313.38	12.20	-21.7	-21.8	18.9	0.00e+00	0	49	0	32791068672	14	14994
2026-01-27 22:02:48.32	313.60	12.14	-21.8	-21.9	18.9	0.00e+00	0	49	0	32908509184	14	15196
2026-01-27 22:02:49.33	313.82	12.07	-21.8	-21.9	18.9	0.00e+00	0	49	0	33017561088	14	15140
2026-01-27 22:02:50.34	314.04	12.00	-21.8	-21.9	18.9	0.00e+00	0	49	0	33135001600	14	15204
2026-01-27 22:02:51.35	314.26	11.93	-21.7	-21.8	18.9	0.00e+00	0	49	0	33244053504	14	14997
2026-01-27 22:02:52.36	314.48	11.87	-21.7	-21.8	18.8	0.00e+00	0	49	0	33361494016	14	15033
2026-01-27 22:02:53.37	314.69	11.80	-21.9	-21.9	18.8	0.00e+00	0	49	0	33470545920	14	15262
2026-01-27 22:02:54.38	314.91	11.73	-22.0	-22.0	18.8	0.00e+00	0	49	0	33587986432	14	15465
2026-01-27 22:02:55.40	315.12	11.66	-22.0	-22.0	18.9	0.00e+00	0	49	0	33697038336	14	15446
2026-01-27 22:02:56.41	315.33	11.60	-22.0	-22.0	18.9	0.00e+00	0	49	0	33814478848	14	15470
2026-01-27 22:02:57.41	315.54	11.53	-21.9	-21.9	19.0	0.00e+00	0	49	0	33931919360	14	15270
2026-01-27 22:02:58.42	315.75	11.46	-21.9	-21.9	18.8	0.00e+00	0	49	0	34040971264	14	15250
2026-01-27 22:02:59.44	315.96	11.39	-21.9	-22.0	18.9	0.00e+00	0	49	0	34158411776	14	15344
2026-01-27 22:03:00.45	316.17	11.32	-22.0	-22.1	18.8	0.00e+00	0	49	0	34267463680	14	15527
2026-01-27 22:03:01.46	316.38	11.26	-22.1	-22.1	18.9	0.00e+00	0	49	0	34384904192	14	15631
2026-01-27 22:03:02.47	316.58	11.19	-22.1	-22.2	18.8	0.00e+00	0	49	0	34502344704	14	15695
2026-01-27 22:03:03.48	316.78	11.12	-22.0	-22.1	18.9	0.00e+00	0	49	0	34611396608	14	15591
2026-01-27 22:03:04.49	316.99	11.05	-22.1	-22.2	18.9	0.00e+00	0	49	0	34720448512	14	15767
2026-01-27 22:03:05.50	317.19	10.98	-22.2	-22.3	18.9	0.00e+00	0	49	0	34837889024	15	15019
2026-01-27 22:03:06.51	317.39	10.92	-22.2	-22.2	18.9	0.00e+00	0	49	0	34955329536	15	14945
2026-01-27 22:03:07.52	317.59	10.85	-22.2	-22.3	18.8	0.00e+00	0	49	0	35064381440	15	15012
2026-01-27 22:03:08.53	317.79	10.78	-22.3	-22.4	18.8	0.00e+00	0	49	0	35181821952	15	15124
2026-01-27 22:03:09.54	317.99	10.71	-22.3	-22.4	18.7	0.00e+00	0	49	0	35290873856	15	15175
2026-01-27 22:03:10.55	318.18	10.64	-22.3	-22.4	19.9	0.00e+00	0	49	0	35399925760	15	15218
2026-01-27 22:03:11.57	318.38	10.57	-45.8	-45.6	6.0	0.00e+00	0	49	104	35508977664	36	65535
2026-01-27 22:03:12.58	318.57	10.50	-46.8	-49.4	6.2	0.00e+00	0	48	104	35508977664	64	20231
2026-01-27 22:03:13.58	318.77	10.44	-46.8	-49.3	6.2	0.00e+00	0	49	104	35508977664	64	20129
2026-01-27 22:03:14.60	318.96	10.37	-46.8	-49.3	6.2	0.00e+00	0	49	104	35508977664	64	20136
2026-01-27 22:03:15.61	319.15	10.30	-46.8	-49.4	6.2	0.00e+00	0	49	104	35508977664	64	20221
2026-01-27 22:03:16.62	319.34	10.23	-46.9	-49.4	6.2	0.00e+00	0	49	104	35508977664	64	20305
2026-01-27 22:03:17.63	319.53	10.16	-46.8	-49.3	6.2	0.00e+00	0	49	104	35508977664	64	20133
2026-01-27 22:03:18.64	319.72	10.09	-46.9	-49.4	6.2	0.00e+00	0	49	104	35508977664	64	20348
2026-01-27 22:03:19.65	319.91	10.03	-46.8	-49.4	6.2	0.00e+00	0	49	104	35508977664	64	20167
2026-01-27 22:03:20.66	320.09	9.96	-46.8	-49.4	6.2	0.00e+00	0	49	104	35508977664	64	20170
2026-01-27 22:03:21.67	320.28	9.89	-46.8	-49.3	6.2	0.00e+00	0	49	104	35508977664	64	20052
2026-01-27 22:03:22.68	320.46	9.82	-46.8	-49.4	6.2	0.00e+00	0	48	104	35508977664	64	20272
2026-01-27 22:03:23.69	320.64	9.75	-46.8	-49.3	6.2	0.00e+00	0	48	104	35508977664	64	20099
2026-01-27 22:03:24.70	320.83	9.68	-46.8	-49.3	6.2	0.00e+00	0	48	104	35508977664	64	20062
2026-01-27 22:03:25.71	321.01	9.62	-46.7	-49.3	6.2	0.00e+00	0	48	104	35508977664	64	19946
2026-01-27 22:03:26.72	321.19	9.55	-46.8	-49.3	6.2	0.00e+00	0	48	104	35508977664	64	20152
2026-01-27 22:03:27.73	321.37	9.48	-46.7	-49.2	6.2	0.00e+00	0	49	104	35508977664	64	19874
2026-01-27 22:03:28.74	321.54	9.41	-46.7	-49.2	6.2	0.00e+00	0	49	104	35508977664	64	19895
2026-01-27 22:03:29.75	321.72	9.34	-46.7	-49.2	6.2	0.00e+00	0	48	104	35508977664	64	19815
2026-01-27 22:03:30.77	321.90	9.27	-46.7	-49.3	6.2	0.00e+00	0	49	104	35508977664	64	20051
2026-01-27 22:03:31.78	322.07	9.21	-46.7	-49.2	6.2	0.00e+00	0	48	104	35508977664	64	19818
2026-01-27 22:03:32.79	322.25	9.14	-46.7	-49.2	6.2	0.00e+00	0	49	104	35508977664	64	19866
2026-01-27 22:03:33.80	322.42	9.07	-46.6	-49.1	6.2	0.00e+00	0	48	104	35508977664	64	19598
2026-01-27 22:03:34.81	322.59	9.00	-46.7	-49.2	6.2	0.00e+00	0	48	104	35508977664	64	19904
2026-01-27 22:03:35.82	322.77	8.93	-46.6	-49.2	6.2	0.00e+00	0	48	104	35508977664	64	19709
2026-01-27 22:03:36.83	322.94	8.87	-46.6	-49.2	6.2	0.00e+00	0	48	104	35508977664	64	19715
2026-01-27 22:03:37.84	323.11	8.80	-46.6	-49.1	6.2	0.00e+00	0	49	104	35508977664	64	19658
2026-01-27 22:03:38.85	323.27	8.73	-46.6	-49.2	6.2	0.00e+00	0	48	104	35508977664	64	19742
2026-01-27 22:03:39.86	323.44	8.66	-46.6	-49.1	6.2	0.00e+00	0	48	104	35508977664	64	19599
2026-01-27 22:03:40.87	323.61	8.59	-46.6	-49.1	6.2	0.00e+00	0	48	104	35508977664	64	19549
2026-01-27 22:03:41.88	323.78	8.53	-46.5	-49.1	6.2	0.00e+00	0	48	104	35508977664	64	19571
2026-01-27 22:03:42.90	323.94	8.46	-46.5	-49.1	6.2	0.00e+00	0	48	104	35508977664	64	19646
2026-01-27 22:03:43.91	324.11	8.39	-46.6	-49.1	6.2	0.00e+00	0	48	104	35508977664	64	19634
2026-01-27 22:03:44.91	324.27	8.32	-46.5	-49.1	6.2	0.00e+00	0	48	104	35508977664	64	19548
2026-01-27 22:03:45.93	324.43	8.26	-46.5	-49.1	6.2	0.00e+00	0	48	104	35508977664	64	19508
2026-01-27 22:03:46.94	324.59	8.19	-46.5	-49.1	6.2	0.00e+00	0	48	104	35508977664	64	19622
2026-01-27 22:03:47.95	324.75	8.12	-46.5	-49.1	6.2	0.00e+00	0	49	104	35508977664	64	19560
2026-01-27 22:03:48.96	324.91	8.05	-46.5	-49.0	6.2	0.00e+00	0	48	104	35508977664	64	19444
2026-01-27 22:03:49.97	325.07	7.99	-46.5	-49.0	6.2	0.00e+00	0	48	104	35508977664	64	19432
2026-01-27 22:03:50.98	325.23	7.92	-46.5	-49.1	6.2	0.00e+00	0	48	104	35508977664	64	19485
2026-01-27 22:03:51.99	325.39	7.85	-46.5	-49.0	6.2	0.00e+00	0	48	104	35508977664	64	19428
2026-01-27 22:03:53.00	325.54	7.79	-46.5	-49.0	6.2	0.00e+00	0	48	104	35508977664	64	19342
2026-01-27 22:03:54.01	325.70	7.72	-46.4	-49.0	6.2	0.00e+00	0	48	104	35508977664	64	19398
2026-01-27 22:03:55.02	325.85	7.65	-46.5	-49.0	6.2	0.00e+00	0	48	104	35508977664	64	19376
2026-01-27 22:03:56.03	326.01	7.59	-46.5	-49.0	6.2	0.00e+00	0	48	104	35508977664	64	19371
2026-01-27 22:03:57.04	326.16	7.52	-46.4	-49.0	6.2	0.00e+00	0	48	104	35508977664	64	19294
2026-01-27 22:03:58.04	326.31	7.45	-46.4	-49.0	6.2	0.00e+00	0	48	104	35508977664	64	19286
2026-01-27 22:03:59.05	326.46	7.39	-46.4	-49.0	6.2	0.00e+00	0	48	104	35508977664	64	19339
2026-01-27 22:04:00.06	326.61	7.32	-46.4	-49.0	6.2	0.00e+00	0	48	104	35508977664	64	19284
2026-01-27 22:04:01.07	326.76	7.25	-46.4	-48.9	6.2	0.00e+00	0	48	104	35508977664	64	19203
2026-01-27 22:04:02.08	326.91	7.19	-46.4	-49.0	6.2	0.00e+00	0	48	104	35508977664	64	19304
2026-01-27 22:04:03.09	327.06	7.12	-46.4	-48.9	6.2	0.00e+00	0	48	104	35508977664	64	19256
2026-01-27 22:04:04.10	327.21	7.06	-46.4	-48.9	6.2	0.00e+00	0	48	104	35508977664	64	19224
2026-01-27 22:04:05.11	327.36	6.99	-46.4	-48.9	6.2	0.00e+00	0	48	104	35508977664	64	19127
2026-01-27 22:04:06.12	327.50	6.92	-46.4	-48.9	6.2	0.00e+00	0	48	104	35508977664	64	19155
2026-01-27 22:04:07.13	327.65	6.86	-46.3	-48.9	6.2	0.00e+00	0	48	104	35508977664	64	19185
2026-01-27 22:04:08.14	327.79	6.79	-46.3	-48.9	6.2	0.00e+00	0	48	104	35508977664	64	19123
2026-01-27 22:04:09.15	327.93	6.73	-46.3	-48.9	6.2	0.00e+00	0	48	104	35508977664	64	19110
2026-01-27 22:04:10.16	328.08	6.66	-46.3	-48.9	6.2	0.00e+00	0	48	104	35508977664	64	19167
2026-01-27 22:04:11.17	328.22	6.60	-46.3	-48.9	6.2	0.00e+00	0	48	104	35508977664	64	19121
2026-01-27 22:04:12.19	328.36	6.53	-46.3	-48.8	6.2	0.00e+00	0	48	104	35508977664	64	19035
2026-01-27 22:04:13.20	328.50	6.46	-46.3	-48.8	6.2	0.00e+00	0	48	104	35508977664	64	18913
2026-01-27 22:04:14.21	328.64	6.40	-46.3	-48.8	6.2	0.00e+00	0	48	104	35508977664	64	19023
2026-01-27 22:04:15.22	328.78	6.33	-46.3	-48.8	6.2	0.00e+00	0	48	104	35508977664	64	18925
2026-01-27 22:04:16.23	328.92	6.27	-46.3	-48.8	6.2	0.00e+00	0	48	104	35508977664	64	18929
2026-01-27 22:04:17.24	329.06	6.20	-46.2	-48.7	6.2	0.00e+00	0	48	104	35508977664	64	18815
2026-01-27 22:04:18.25	329.19	6.14	-46.3	-48.8	6.2	0.00e+00	0	48	104	35508977664	64	18894
2026-01-27 22:04:19.26	329.33	6.07	-46.2	-48.8	6.2	0.00e+00	0	48	104	35508977664	64	18865
2026-01-27 22:04:20.27	329.47	6.01	-46.2	-48.7	6.2	0.00e+00	0	48	104	35508977664	64	18754
2026-01-27 22:04:21.28	329.60	5.94	-46.2	-48.7	6.2	0.00e+00	0	48	104	35508977664	64	18711
2026-01-27 22:04:22.29	329.73	5.88	-46.2	-48.7	6.2	0.00e+00	0	48	104	35508977664	64	18813
2026-01-27 22:04:23.30	329.87	5.82	-46.2	-48.7	6.2	0.00e+00	0	48	104	35508977664	64	18754
2026-01-27 22:04:24.31	330.00	5.75	-46.2	-48.7	6.2	0.00e+00	0	48	104	35508977664	64	18750
2026-01-27 22:04:25.32	330.13	5.69	-46.1	-48.6	6.2	0.00e+00	0	48	104	35508977664	64	18587
2026-01-27 22:04:26.34	330.26	5.62	-46.2	-48.7	6.2	0.00e+00	0	48	104	35508977664	64	18798
2026-01-27 22:04:27.34	330.39	5.56	-46.1	-48.7	6.2	0.00e+00	0	48	104	35508977664	64	18682
2026-01-27 22:04:28.35	330.52	5.50	-46.1	-48.7	6.2	0.00e+00	0	48	104	35508977664	64	18649
2026-01-27 22:04:29.36	330.65	5.43	-46.0	-48.6	6.2	0.00e+00	0	48	104	35508977664	64	18467
2026-01-27 22:04:30.37	330.78	5.37	-46.1	-48.7	6.2	0.00e+00	0	48	104	35508977664	64	18626
2026-01-27 22:04:31.38	330.91	5.30	-46.1	-48.6	6.2	0.00e+00	0	48	104	35508977664	64	18519
2026-01-27 22:04:32.40	331.04	5.24	-46.1	-48.6	6.2	0.00e+00	0	48	104	35508977664	64	18509
2026-01-27 22:04:33.41	331.16	5.18	-46.0	-48.5	6.2	0.00e+00	0	48	104	35508977664	64	18324
2026-01-27 22:04:34.41	331.29	5.11	-46.2	-48.7	6.2	0.00e+00	0	48	104	35508977664	63	19827
2026-01-27 22:04:35.42	331.42	5.05	-46.1	-48.6	6.2	0.00e+00	0	48	104	35508977664	63	19645
2026-01-27 22:04:36.44	331.54	4.99	-46.1	-48.7	6.2	0.00e+00	0	48	104	35508977664	63	19727
2026-01-27 22:04:37.44	331.66	4.92	-46.6	-49.1	6.2	0.00e+00	0	48	104	35508977664	63	20829
2026-01-27 22:04:38.45	331.79	4.86	-46.8	-49.4	6.2	0.00e+00	0	48	104	35508977664	64	20173
2026-01-27 22:04:39.46	331.91	4.80	-47.0	-49.5	6.2	0.00e+00	0	48	104	35508977664	64	20547
2026-01-27 22:04:40.47	332.03	4.74	-47.1	-49.7	6.2	0.00e+00	0	48	104	35508977664	64	20934
2026-01-27 22:04:41.49	332.16	4.67	-47.2	-49.8	6.2	0.00e+00	0	48	104	35508977664	64	21140
2026-01-27 22:04:42.50	332.28	4.61	-47.4	-49.9	6.2	0.00e+00	0	48	104	35508977664	65	20225
2026-01-27 22:04:43.50	332.40	4.55	-47.4	-49.9	6.2	0.00e+00	0	48	104	35508977664	65	20334
2026-01-27 22:04:44.52	332.52	4.48	-47.4	-49.9	6.2	0.00e+00	0	48	104	35508977664	65	20298
2026-01-27 22:04:45.53	332.64	4.42	-47.3	-49.8	6.2	0.00e+00	0	48	104	35508977664	65	20129
2026-01-27 22:04:46.54	332.75	4.36	-47.3	-49.8	6.2	0.00e+00	0	48	104	35508977664	65	20039
2026-01-27 22:04:47.55	332.87	4.30	-47.1	-49.6	6.2	0.00e+00	0	48	104	35508977664	65	19672
2026-01-27 22:04:48.56	332.99	4.24	-47.1	-49.7	6.2	0.00e+00	0	48	104	35508977664	65	19773
2026-01-27 22:04:49.57	333.11	4.17	-47.2	-49.7	6.2	0.00e+00	0	48	104	35508977664	65	19919
2026-01-27 22:04:50.57	333.22	4.11	-47.2	-49.8	6.2	0.00e+00	0	48	104	35508977664	65	19968
2026-01-27 22:04:51.58	333.34	4.05	-47.3	-49.9	6.2	0.00e+00	0	48	104	35508977664	65	20166
2026-01-27 22:04:52.59	333.45	3.99	-47.3	-49.8	6.2	0.00e+00	0	48	104	35508977664	65	20101
2026-01-27 22:04:53.61	333.57	3.93	-47.4	-49.9	6.2	0.00e+00	0	48	104	35508977664	65	20298
2026-01-27 22:04:54.62	333.68	3.87	-47.4	-49.9	6.2	0.00e+00	0	48	104	35508977664	65	20345
2026-01-27 22:04:55.63	333.79	3.81	-47.4	-50.0	6.2	0.00e+00	0	48	104	35508977664	65	20405
2026-01-27 22:04:56.64	333.91	3.74	-47.4	-50.0	6.2	0.00e+00	0	48	104	35508977664	65	20408
2026-01-27 22:04:57.65	334.02	3.68	-47.4	-50.0	6.2	0.00e+00	0	48	104	35508977664	65	20532
2026-01-27 22:04:58.66	334.13	3.62	-47.4	-49.9	6.2	0.00e+00	0	48	104	35508977664	65	20299
2026-01-27 22:04:59.67	334.24	3.56	-47.4	-49.9	6.2	0.00e+00	0	48	104	35508977664	65	20280
2026-01-27 22:05:00.68	334.35	3.50	-47.3	-49.9	6.2	0.00e+00	0	48	104	35508977664	65	20182
2026-01-27 22:05:01.69	334.46	3.44	-47.3	-49.9	6.2	0.00e+00	0	48	104	35508977664	65	20203
2026-01-27 22:05:02.70	334.57	3.38	-47.3	-49.9	6.2	0.00e+00	0	48	104	35508977664	65	20200
2026-01-27 22:05:03.71	334.68	3.32	-47.3	-49.9	6.2	0.00e+00	0	48	104	35508977664	65	20189
2026-01-27 22:05:04.72	334.79	3.26	-47.3	-49.8	6.2	0.00e+00	0	48	104	35508977664	65	20153
2026-01-27 22:05:05.73	334.90	3.20	-47.3	-49.8	6.2	0.00e+00	0	48	104	35508977664	65	20112
2026-01-27 22:05:06.74	335.01	3.14	-47.3	-49.8	6.2	0.00e+00	0	48	104	35508977664	65	20109
2026-01-27 22:05:07.75	335.11	3.08	-47.3	-49.8	6.2	0.00e+00	0	48	104	35508977664	65	20130
2026-01-27 22:05:08.76	335.22	3.02	-47.3	-49.8	6.2	0.00e+00	0	48	104	35508977664	65	20076
2026-01-27 22:05:09.77	335.33	2.96	-47.3	-49.8	6.2	0.00e+00	0	48	104	35508977664	65	20130
2026-01-27 22:05:10.78	335.43	2.90	-47.3	-49.8	6.2	0.00e+00	0	48	104	35508977664	65	20076
2026-01-27 22:05:11.79	335.54	2.84	-47.3	-49.8	6.2	0.00e+00	0	48	104	35508977664	65	20152
2026-01-27 22:05:12.80	335.64	2.78	-47.3	-49.8	6.2	0.00e+00	0	48	104	35508977664	65	20046
2026-01-27 22:05:13.81	335.74	2.72	-47.3	-49.8	6.2	0.00e+00	0	48	104	35508977664	65	20066
2026-01-27 22:05:14.83	335.85	2.66	-47.3	-49.8	6.2	0.00e+00	0	48	104	35508977664	65	20037
2026-01-27 22:05:15.84	335.95	2.60	-47.3	-49.8	6.2	0.00e+00	0	48	104	35508977664	65	20072
2026-01-27 22:05:16.85	336.05	2.54	-47.3	-49.8	6.2	0.00e+00	0	48	104	35508977664	65	20003
2026-01-27 22:05:17.85	336.15	2.48	-47.2	-49.8	6.2	0.00e+00	0	48	104	35508977664	65	19965
2026-01-27 22:05:18.86	336.26	2.42	-47.2	-49.8	6.2	0.00e+00	0	48	104	35508977664	65	20028
2026-01-27 22:05:19.87	336.36	2.36	-47.2	-49.8	6.2	0.00e+00	0	48	104	35508977664	65	19961
2026-01-27 22:05:20.89	336.46	2.31	-47.2	-49.8	6.2	0.00e+00	0	48	104	35508977664	65	20022
2026-01-27 22:05:21.90	336.56	2.25	-47.2	-49.8	6.2	0.00e+00	0	48	104	35508977664	65	20013
2026-01-27 22:05:22.91	336.66	2.19	-47.3	-49.7	6.2	0.00e+00	0	48	104	35508977664	65	19915
2026-01-27 22:05:23.92	336.76	2.13	-47.2	-49.8	6.2	0.00e+00	0	48	104	35508977664	65	19977
2026-01-27 22:05:24.93	336.86	2.07	-47.2	-49.8	6.2	0.00e+00	0	48	104	35508977664	65	19997
2026-01-27 22:05:25.94	336.95	2.01	-47.2	-49.8	6.2	0.00e+00	0	48	104	35508977664	65	19938
2026-01-27 22:05:26.95	337.05	1.95	-47.2	-49.8	6.2	0.00e+00	0	48	104	35508977664	65	19965

#Closed at: 2026-01-27 22:05:27
#Recorded file [35508 MB]: D:/lorett/data/31045_260128_005552.dat