passes_logs/2026/01/27/R3.2S_Murmansk_2ch/R3.2S_Murmansk_2ch__20260127_205218_JL1KF02B07_rec.log

#Pass ID: 20260127_205218_JL1KF02B07
#Satellite: JL1KF02B07
#Configuration: 01B_900M
#almurnet v.1.7.20251203
#Start time: 2026-01-27 20:52:20

#Version: 2.2.20231116
#Station: R3.2S_Murmansk_2ch
#Location: 33.079688 lon 68.888172 lat
#TLE: 1 65939U 25226B   26027.52903943  .00007360  00000+0  46461-3 0  9990
#TLE: 2 65939  97.6523 106.5104 0017825 255.4078 104.5174 15.09253118 16359

#Time	Az	El	Level	Level2	SNR	BER	BlckErr	Temp	State	Recorded	gain1	gain2
2026-01-27 20:52:20.88	208.81	2.14	-48.0	-50.5	6.2	0.00e+00	0	44	0	0	67	19350
2026-01-27 20:52:21.86	208.90	2.20	-47.9	-50.5	6.2	0.00e+00	0	44	104	0	67	19324
2026-01-27 20:52:22.83	208.98	2.26	-47.9	-50.5	6.2	0.00e+00	0	44	104	0	67	19314
2026-01-27 20:52:23.80	209.07	2.32	-47.9	-50.5	6.2	0.00e+00	0	44	104	0	67	19322
2026-01-27 20:52:24.76	209.15	2.38	-47.9	-50.5	6.2	0.00e+00	0	44	104	0	67	19340
2026-01-27 20:52:25.73	209.24	2.44	-48.0	-50.5	6.2	0.00e+00	0	44	104	0	67	19330
2026-01-27 20:52:26.70	209.32	2.49	-48.2	-50.7	6.2	0.00e+00	0	44	104	0	67	19810
2026-01-27 20:52:27.67	209.41	2.55	-48.2	-50.8	6.2	0.00e+00	0	44	104	0	67	20025
2026-01-27 20:52:28.64	209.50	2.61	-48.3	-50.8	6.2	0.00e+00	0	44	104	0	67	20142
2026-01-27 20:52:29.60	209.58	2.67	-48.3	-50.9	6.2	0.00e+00	0	44	104	0	67	20224
2026-01-27 20:52:30.57	209.67	2.73	-48.3	-50.8	6.2	0.00e+00	0	44	104	0	67	20098
2026-01-27 20:52:31.54	209.76	2.79	-48.3	-50.8	6.2	0.00e+00	0	45	104	0	67	20132
2026-01-27 20:52:32.51	209.85	2.85	-48.2	-50.8	6.2	0.00e+00	0	44	104	0	67	20003
2026-01-27 20:52:33.48	209.94	2.91	-48.2	-50.8	6.2	0.00e+00	0	45	104	0	67	19934
2026-01-27 20:52:34.45	210.03	2.97	-48.2	-50.7	6.2	0.00e+00	0	45	104	0	67	19895
2026-01-27 20:52:35.42	210.12	3.03	-48.1	-50.7	6.2	0.00e+00	0	45	104	0	67	19748
2026-01-27 20:52:36.39	210.21	3.09	-48.1	-50.6	6.2	0.00e+00	0	45	104	0	67	19666
2026-01-27 20:52:37.35	210.30	3.15	-48.1	-50.6	6.2	0.00e+00	0	45	104	0	67	19627
2026-01-27 20:52:38.32	210.39	3.22	-48.0	-50.5	6.2	0.00e+00	0	45	104	0	67	19414
2026-01-27 20:52:39.29	210.48	3.28	-47.9	-50.5	6.2	0.00e+00	0	45	104	0	67	19362
2026-01-27 20:52:40.27	210.57	3.34	-47.9	-50.5	6.2	0.00e+00	0	45	104	0	67	19258
2026-01-27 20:52:41.23	210.66	3.40	-47.8	-50.4	6.2	0.00e+00	0	45	104	0	67	19046
2026-01-27 20:52:42.20	210.76	3.46	-47.8	-50.3	6.2	0.00e+00	0	45	104	0	67	18901
2026-01-27 20:52:43.17	210.85	3.52	-47.7	-50.2	6.2	0.00e+00	0	45	104	0	67	18807
2026-01-27 20:52:44.14	210.95	3.58	-47.6	-50.1	6.2	0.00e+00	0	45	104	0	67	18561
2026-01-27 20:52:45.11	211.04	3.64	-47.5	-50.0	6.2	0.00e+00	0	45	104	0	67	18320
2026-01-27 20:52:46.08	211.13	3.71	-47.3	-49.9	6.2	0.00e+00	0	45	104	0	66	19099
2026-01-27 20:52:47.06	211.23	3.77	-47.1	-49.7	6.2	0.00e+00	0	45	104	0	66	18641
2026-01-27 20:52:48.03	211.33	3.83	-46.8	-49.3	6.2	0.00e+00	0	45	104	0	65	18942
2026-01-27 20:52:49.00	211.42	3.89	-46.4	-49.0	6.2	0.00e+00	0	45	104	0	64	19344
2026-01-27 20:52:49.97	211.52	3.96	-46.4	-49.0	6.2	0.00e+00	0	45	104	0	64	19297
2026-01-27 20:52:50.94	211.62	4.02	-46.4	-48.9	6.2	0.00e+00	0	45	104	0	64	19250
2026-01-27 20:52:51.90	211.71	4.08	-46.4	-48.9	6.2	0.00e+00	0	45	104	0	64	19251
2026-01-27 20:52:52.87	211.81	4.14	-46.4	-48.9	6.2	0.00e+00	0	45	104	0	64	19210
2026-01-27 20:52:53.84	211.91	4.20	-46.4	-48.9	6.2	0.00e+00	0	45	104	0	64	19203
2026-01-27 20:52:54.81	212.01	4.27	-46.4	-48.9	6.2	0.00e+00	0	46	104	0	64	19198
2026-01-27 20:52:55.78	212.11	4.33	-46.4	-48.9	6.2	0.00e+00	0	45	104	0	64	19212
2026-01-27 20:52:56.76	212.21	4.39	-46.4	-48.9	6.2	0.00e+00	0	45	104	0	64	19189
2026-01-27 20:52:57.72	212.31	4.46	-46.4	-48.9	6.2	0.00e+00	0	45	104	0	64	19237
2026-01-27 20:52:58.69	212.41	4.52	-46.4	-48.9	6.2	0.00e+00	0	45	104	0	64	19187
2026-01-27 20:52:59.66	212.51	4.58	-46.4	-48.9	6.2	0.00e+00	0	45	104	0	64	19201
2026-01-27 20:53:00.63	212.62	4.65	-46.4	-48.9	6.2	0.00e+00	0	45	104	0	64	19200
2026-01-27 20:53:01.59	212.72	4.71	-46.4	-48.9	6.2	0.00e+00	0	45	104	0	64	19197
2026-01-27 20:53:02.56	212.82	4.77	-46.4	-48.9	6.2	0.00e+00	0	45	104	0	64	19152
2026-01-27 20:53:03.53	212.93	4.84	-46.4	-48.9	6.2	0.00e+00	0	45	104	0	64	19190
2026-01-27 20:53:04.50	213.03	4.90	-46.3	-48.9	6.2	0.00e+00	0	45	104	0	64	19154
2026-01-27 20:53:05.47	213.14	4.97	-46.3	-48.9	6.2	0.00e+00	0	45	104	0	64	19131
2026-01-27 20:53:06.44	213.24	5.03	-46.3	-48.9	6.2	0.00e+00	0	45	104	0	64	19125
2026-01-27 20:53:07.41	213.35	5.10	-46.5	-49.0	6.2	0.00e+00	0	46	104	0	64	19476
2026-01-27 20:53:08.38	213.45	5.16	-46.3	-48.9	6.2	0.00e+00	0	46	104	0	64	19039
2026-01-27 20:53:09.35	213.56	5.22	-46.4	-49.0	6.2	0.00e+00	0	46	104	0	64	19370
2026-01-27 20:53:10.32	213.67	5.29	-46.4	-48.9	6.2	0.00e+00	0	46	104	0	64	19183
2026-01-27 20:53:11.29	213.78	5.35	-46.3	-48.8	6.2	0.00e+00	0	46	104	0	64	19019
2026-01-27 20:53:12.26	213.88	5.42	-46.3	-48.8	6.2	0.00e+00	0	46	104	0	64	19007
2026-01-27 20:53:13.23	213.99	5.49	-46.4	-49.0	6.2	0.00e+00	0	46	104	0	64	19359
2026-01-27 20:53:14.20	214.10	5.55	-46.4	-49.0	6.2	0.00e+00	0	46	104	0	64	19276
2026-01-27 20:53:15.17	214.21	5.62	-46.3	-48.9	6.2	0.00e+00	0	46	104	0	64	19038
2026-01-27 20:53:16.14	214.33	5.68	-46.3	-48.8	6.2	0.00e+00	0	46	104	0	64	18992
2026-01-27 20:53:17.11	214.44	5.75	-46.4	-48.9	6.2	0.00e+00	0	46	104	0	64	19173
2026-01-27 20:53:18.08	214.55	5.81	-46.4	-49.0	6.2	0.00e+00	0	46	104	0	64	19319
2026-01-27 20:53:19.05	214.66	5.88	-46.3	-48.9	6.2	0.00e+00	0	46	104	0	64	19103
2026-01-27 20:53:20.02	214.78	5.95	-46.3	-48.9	6.2	0.00e+00	0	46	104	0	64	19060
2026-01-27 20:53:20.99	214.89	6.01	-46.3	-48.9	6.2	0.00e+00	0	46	104	0	64	19203
2026-01-27 20:53:21.96	215.00	6.08	-46.4	-49.0	6.2	0.00e+00	0	46	104	0	64	19385
2026-01-27 20:53:22.93	215.12	6.15	-46.3	-48.9	6.2	0.00e+00	0	46	104	0	64	19108
2026-01-27 20:53:23.90	215.24	6.21	-46.3	-48.8	6.2	0.00e+00	0	46	104	0	64	19022
2026-01-27 20:53:24.87	215.35	6.28	-46.3	-48.9	6.2	0.00e+00	0	46	104	0	64	19217
2026-01-27 20:53:25.84	215.47	6.35	-46.4	-49.0	6.2	0.00e+00	0	46	104	0	64	19375
2026-01-27 20:53:26.80	215.59	6.41	-46.4	-48.9	6.2	0.00e+00	0	46	104	0	64	19186
2026-01-27 20:53:27.77	215.70	6.48	-46.3	-48.9	6.2	0.00e+00	0	46	104	0	64	19134
2026-01-27 20:53:28.74	215.82	6.55	-46.3	-48.9	6.2	0.00e+00	0	46	104	0	64	19148
2026-01-27 20:53:29.71	215.94	6.61	-46.5	-49.0	6.2	0.00e+00	0	46	104	0	64	19461
2026-01-27 20:53:30.68	216.06	6.68	-46.4	-49.0	6.2	0.00e+00	0	46	104	0	64	19317
2026-01-27 20:53:31.65	216.18	6.75	-46.4	-48.9	6.2	0.00e+00	0	46	104	0	64	19216
2026-01-27 20:53:32.62	216.31	6.82	-46.4	-48.9	6.2	0.00e+00	0	46	104	0	64	19227
2026-01-27 20:53:33.59	216.43	6.89	-46.5	-49.1	6.2	0.00e+00	0	46	104	0	64	19516
2026-01-27 20:53:34.56	216.55	6.95	-46.5	-49.0	6.2	0.00e+00	0	46	104	0	64	19434
2026-01-27 20:53:35.53	216.67	7.02	-46.4	-49.0	6.2	0.00e+00	0	46	104	0	64	19325
2026-01-27 20:53:36.50	216.80	7.09	-46.4	-49.0	6.2	0.00e+00	0	46	104	0	64	19293
2026-01-27 20:53:37.47	216.92	7.16	-46.5	-49.1	6.2	0.00e+00	0	46	104	0	64	19508
2026-01-27 20:53:38.44	217.05	7.23	-46.5	-49.0	6.2	0.00e+00	0	46	104	0	64	19462
2026-01-27 20:53:39.40	217.17	7.30	-46.4	-49.0	6.2	0.00e+00	0	46	104	0	64	19352
2026-01-27 20:53:40.37	217.30	7.36	-46.4	-49.0	6.2	0.00e+00	0	46	104	0	64	19259
2026-01-27 20:53:41.34	217.43	7.43	-46.5	-49.1	6.2	0.00e+00	0	46	104	0	64	19556
2026-01-27 20:53:42.31	217.56	7.50	-46.5	-49.0	6.2	0.00e+00	0	46	104	0	64	19472
2026-01-27 20:53:43.27	217.68	7.57	-46.4	-49.0	6.2	0.00e+00	0	46	104	0	64	19355
2026-01-27 20:53:44.24	217.81	7.64	-46.4	-49.0	6.2	0.00e+00	0	46	104	0	64	19335
2026-01-27 20:53:45.21	217.94	7.71	-46.5	-49.1	6.2	0.00e+00	0	46	104	0	64	19504
2026-01-27 20:53:46.18	218.08	7.78	-46.5	-49.1	6.2	0.00e+00	0	46	104	0	64	19521
2026-01-27 20:53:47.15	218.21	7.85	-46.4	-49.0	6.2	0.00e+00	0	46	104	0	64	19368
2026-01-27 20:53:48.12	218.34	7.92	-46.4	-49.0	6.2	0.00e+00	0	46	104	0	64	19391
2026-01-27 20:53:49.09	218.47	7.99	-46.5	-49.1	6.2	0.00e+00	0	46	104	0	64	19502
2026-01-27 20:53:50.05	218.61	8.06	-46.5	-49.1	6.2	0.00e+00	0	46	104	0	64	19480
2026-01-27 20:53:51.03	218.74	8.13	-46.4	-49.1	6.2	0.00e+00	0	46	104	0	64	19491
2026-01-27 20:53:52.00	218.88	8.20	-46.5	-49.0	6.2	0.00e+00	0	46	104	0	64	19389
2026-01-27 20:53:52.98	219.02	8.27	-46.5	-49.1	6.2	0.00e+00	0	46	104	0	64	19499
2026-01-27 20:53:53.94	219.15	8.34	-46.6	-49.1	6.2	0.00e+00	0	46	104	0	64	19601
2026-01-27 20:53:54.92	219.29	8.41	-46.5	-49.0	6.2	0.00e+00	0	46	104	0	64	19474
2026-01-27 20:53:55.89	219.43	8.49	-46.5	-49.0	6.2	0.00e+00	0	46	104	0	64	19461
2026-01-27 20:53:56.87	219.57	8.56	-46.5	-49.1	6.2	0.00e+00	0	46	104	0	64	19500
2026-01-27 20:53:57.84	219.71	8.63	-46.5	-49.0	6.2	0.00e+00	0	46	104	0	64	19292
2026-01-27 20:53:58.81	219.85	8.70	-45.9	-48.0	6.2	0.00e+00	0	46	104	0	63	18318
2026-01-27 20:53:59.78	219.99	8.77	-44.0	-45.4	6.4	0.00e+00	0	46	104	0	59	17017
2026-01-27 20:54:00.75	220.14	8.84	-44.1	-45.5	6.4	0.00e+00	0	46	104	0	59	17214
2026-01-27 20:54:01.71	220.28	8.91	-44.2	-45.6	6.4	0.00e+00	0	46	104	0	59	17434
2026-01-27 20:54:02.68	220.42	8.99	-43.9	-45.3	6.4	0.00e+00	0	46	104	0	59	16854
2026-01-27 20:54:03.65	220.57	9.06	-43.3	-44.4	6.5	0.00e+00	0	46	104	0	58	16165
2026-01-27 20:54:04.62	220.71	9.13	-43.4	-44.6	6.5	0.00e+00	0	46	104	0	58	16418
2026-01-27 20:54:05.59	220.86	9.20	-46.0	-48.2	6.2	0.00e+00	0	46	104	0	63	18768
2026-01-27 20:54:06.56	221.01	9.28	-45.7	-47.8	6.2	0.00e+00	0	46	104	0	62	18861
2026-01-27 20:54:07.53	221.16	9.35	-44.9	-46.6	6.3	0.00e+00	0	46	104	0	60	18415
2026-01-27 20:54:08.51	221.31	9.42	-43.5	-44.7	6.5	0.00e+00	0	46	104	0	59	15775
2026-01-27 20:54:09.48	221.46	9.49	-43.4	-44.7	6.5	0.00e+00	0	46	104	0	58	16599
2026-01-27 20:54:10.45	221.61	9.57	-43.2	-44.4	6.8	0.00e+00	0	46	104	0	58	16037
2026-01-27 20:54:11.41	221.76	9.64	-43.6	-44.8	6.7	0.00e+00	0	46	104	0	58	16836
2026-01-27 20:54:12.38	221.91	9.71	-43.8	-45.1	6.6	0.00e+00	0	47	104	0	58	17562
2026-01-27 20:54:13.35	222.06	9.79	-46.4	-48.8	6.2	0.00e+00	0	46	104	0	63	20064
2026-01-27 20:54:14.32	222.22	9.86	-34.1	-34.3	10.5	3.08e-03	0	46	104	0	38	15964
2026-01-27 20:54:15.29	222.37	9.93	-28.1	-28.3	15.2	7.24e-05	0	47	0	58720256	26	15878
2026-01-27 20:54:16.26	222.53	10.01	-24.7	-24.8	17.5	1.90e-06	0	47	0	167772160	21	14183
2026-01-27 20:54:17.23	222.69	10.08	-24.5	-24.6	17.7	0.00e+00	0	47	0	285212672	21	13825
2026-01-27 20:54:18.20	222.85	10.15	-24.2	-24.3	17.8	0.00e+00	0	47	0	385875968	20	14175
2026-01-27 20:54:19.17	223.00	10.23	-24.3	-24.4	17.9	0.00e+00	0	47	0	494927872	19	15157
2026-01-27 20:54:20.14	223.16	10.30	-24.2	-24.3	17.9	0.00e+00	0	47	0	603979776	19	15077
2026-01-27 20:54:21.11	223.33	10.38	-24.2	-24.3	17.9	0.00e+00	0	47	0	713031680	19	14950
2026-01-27 20:54:22.08	223.49	10.45	-24.2	-24.3	17.8	0.00e+00	0	47	0	830472192	19	15078
2026-01-27 20:54:23.05	223.65	10.52	-24.2	-24.3	17.8	0.00e+00	0	47	0	931135488	19	14968
2026-01-27 20:54:24.02	223.81	10.60	-24.0	-24.1	17.9	0.00e+00	0	47	0	1040187392	19	14730
2026-01-27 20:54:24.99	223.98	10.67	-23.9	-24.0	17.9	1.90e-06	0	47	0	1157627904	19	14592
2026-01-27 20:54:25.95	224.14	10.75	-24.0	-24.1	17.8	0.00e+00	0	47	0	1258291200	19	14703
2026-01-27 20:54:26.92	224.31	10.82	-23.9	-24.0	17.9	0.00e+00	0	47	0	1367343104	19	14479
2026-01-27 20:54:27.89	224.48	10.90	-23.9	-24.0	17.9	0.00e+00	0	47	0	1476395008	19	14461
2026-01-27 20:54:28.86	224.64	10.97	-23.9	-24.0	17.9	1.90e-06	0	47	0	1585446912	19	14509
2026-01-27 20:54:29.83	224.81	11.05	-23.7	-23.8	18.2	0.00e+00	0	47	0	1702887424	19	14239
2026-01-27 20:54:30.80	224.98	11.12	-23.8	-23.9	18.1	0.00e+00	0	47	0	1803550720	19	14282
2026-01-27 20:54:31.76	225.15	11.20	-23.7	-23.8	18.0	0.00e+00	0	47	0	1912602624	19	14236
2026-01-27 20:54:32.73	225.33	11.27	-23.8	-23.9	18.1	0.00e+00	0	47	0	2021654528	19	14335
2026-01-27 20:54:33.70	225.50	11.35	-23.8	-23.9	18.2	0.00e+00	0	47	0	2130706432	19	14401
2026-01-27 20:54:34.66	225.67	11.42	-23.7	-23.8	18.2	0.00e+00	0	47	0	2239758336	19	14122
2026-01-27 20:54:35.63	225.85	11.50	-23.7	-23.7	18.1	0.00e+00	0	47	0	2348810240	19	14098
2026-01-27 20:54:36.60	226.02	11.57	-23.7	-23.8	18.2	0.00e+00	0	47	0	2457862144	19	14164
2026-01-27 20:54:37.57	226.20	11.65	-23.6	-23.7	18.3	0.00e+00	0	47	0	2566914048	19	13959
2026-01-27 20:54:38.54	226.38	11.72	-23.4	-23.5	18.2	0.00e+00	0	47	0	2675965952	18	14571
2026-01-27 20:54:39.51	226.56	11.80	-23.5	-23.6	18.3	0.00e+00	0	47	0	2785017856	18	14706
2026-01-27 20:54:40.48	226.74	11.87	-23.5	-23.6	18.2	0.00e+00	0	47	0	2894069760	18	14717
2026-01-27 20:54:41.45	226.92	11.95	-23.5	-23.6	18.2	0.00e+00	0	47	0	3003121664	18	14669
2026-01-27 20:54:42.42	227.11	12.03	-23.5	-23.6	18.3	0.00e+00	0	47	0	3112173568	18	14631
2026-01-27 20:54:43.39	227.29	12.10	-23.4	-23.5	18.3	0.00e+00	0	47	0	3221225472	18	14448
2026-01-27 20:54:44.36	227.47	12.18	-23.4	-23.5	18.4	0.00e+00	0	47	0	3330277376	18	14467
2026-01-27 20:54:45.33	227.66	12.25	-23.3	-23.4	18.2	0.00e+00	0	47	0	3439329280	18	14358
2026-01-27 20:54:46.30	227.85	12.33	-23.2	-23.3	18.2	0.00e+00	0	47	0	3548381184	18	14200
2026-01-27 20:54:47.27	228.04	12.41	-23.2	-23.3	18.2	0.00e+00	0	47	0	3657433088	18	14148
2026-01-27 20:54:48.24	228.22	12.48	-23.2	-23.3	18.2	0.00e+00	0	47	0	3766484992	18	14157
2026-01-27 20:54:49.21	228.42	12.56	-23.2	-23.3	18.1	0.00e+00	0	47	0	3875536896	18	14180
2026-01-27 20:54:50.18	228.61	12.64	-23.2	-23.3	18.1	0.00e+00	0	47	0	3984588800	18	14154
2026-01-27 20:54:51.15	228.80	12.71	-23.0	-23.1	18.1	0.00e+00	0	47	0	4093640704	18	13845
2026-01-27 20:54:52.12	228.99	12.79	-23.0	-23.1	18.2	0.00e+00	0	47	0	4202692608	18	13858
2026-01-27 20:54:53.09	229.19	12.86	-22.9	-23.0	18.1	0.00e+00	0	47	0	4311744512	17	14473
2026-01-27 20:54:54.06	229.38	12.94	-23.0	-23.1	18.1	0.00e+00	0	47	0	4420796416	17	14614
2026-01-27 20:54:55.03	229.58	13.02	-22.9	-23.0	18.1	0.00e+00	0	47	0	4538236928	17	14548
2026-01-27 20:54:56.00	229.78	13.09	-22.9	-23.0	18.1	0.00e+00	0	47	0	4638900224	17	14487
2026-01-27 20:54:56.97	229.98	13.17	-22.9	-23.0	18.2	0.00e+00	0	47	0	4747952128	17	14455
2026-01-27 20:54:57.93	230.18	13.25	-22.8	-22.9	18.0	0.00e+00	0	47	0	4857004032	17	14417
2026-01-27 20:54:58.90	230.38	13.32	-22.8	-22.9	18.1	0.00e+00	0	47	0	4966055936	17	14365
2026-01-27 20:54:59.87	230.58	13.40	-22.8	-22.9	18.2	0.00e+00	0	47	0	5075107840	17	14303
2026-01-27 20:55:00.84	230.79	13.48	-22.9	-23.0	18.1	0.00e+00	0	47	0	5184159744	17	14475
2026-01-27 20:55:01.81	230.99	13.55	-22.8	-22.9	18.3	0.00e+00	0	47	0	5293211648	17	14279
2026-01-27 20:55:02.78	231.20	13.63	-22.9	-23.0	18.2	0.00e+00	0	47	0	5402263552	17	14474
2026-01-27 20:55:03.75	231.41	13.71	-22.7	-22.8	18.3	0.00e+00	0	47	0	5511315456	17	14202
2026-01-27 20:55:04.72	231.62	13.78	-22.8	-22.9	18.2	0.00e+00	0	47	0	5620367360	17	14370
2026-01-27 20:55:05.69	231.83	13.86	-22.8	-22.9	18.1	0.00e+00	0	47	0	5729419264	17	14284
2026-01-27 20:55:06.66	232.04	13.94	-22.8	-22.8	18.2	0.00e+00	0	47	0	5838471168	17	14267
2026-01-27 20:55:07.63	232.25	14.01	-22.7	-22.8	18.3	0.00e+00	0	47	0	5947523072	17	14141
2026-01-27 20:55:08.61	232.47	14.09	-22.7	-22.8	18.4	0.00e+00	0	47	0	6056574976	17	14217
2026-01-27 20:55:09.57	232.68	14.17	-22.7	-22.8	18.3	0.00e+00	0	47	0	6165626880	17	14131
2026-01-27 20:55:10.54	232.90	14.24	-22.7	-22.8	18.4	0.00e+00	0	47	0	6274678784	17	14142
2026-01-27 20:55:11.51	233.11	14.32	-22.6	-22.6	18.3	0.00e+00	0	47	0	6383730688	17	13921
2026-01-27 20:55:12.48	233.33	14.39	-22.6	-22.7	18.5	0.00e+00	0	47	0	6501171200	17	14003
2026-01-27 20:55:13.45	233.55	14.47	-22.7	-22.8	18.3	0.00e+00	0	47	0	6601834496	17	14148
2026-01-27 20:55:14.42	233.78	14.55	-22.8	-22.9	18.2	0.00e+00	0	47	0	6710886400	17	14294
2026-01-27 20:55:15.39	234.00	14.62	-22.6	-22.7	18.4	0.00e+00	0	47	0	6819938304	17	14081
2026-01-27 20:55:16.36	234.22	14.70	-22.6	-22.6	18.3	0.00e+00	0	47	0	6928990208	17	13948
2026-01-27 20:55:17.33	234.45	14.78	-22.4	-22.5	18.5	0.00e+00	0	47	0	7046430720	16	14500
2026-01-27 20:55:18.30	234.67	14.85	-22.5	-22.6	18.5	0.00e+00	0	47	0	7147094016	16	14746
2026-01-27 20:55:19.27	234.90	14.93	-22.5	-22.6	18.3	0.00e+00	0	47	0	7256145920	16	14689
2026-01-27 20:55:20.24	235.13	15.00	-22.3	-22.4	18.6	0.00e+00	0	47	0	7365197824	16	14356
2026-01-27 20:55:21.21	235.36	15.08	-22.3	-22.4	18.6	0.00e+00	0	47	0	7474249728	16	14344
2026-01-27 20:55:22.20	235.60	15.16	-22.4	-22.4	18.3	0.00e+00	0	47	0	7591690240	16	14437
2026-01-27 20:55:23.18	235.83	15.23	-22.3	-22.4	18.6	0.00e+00	0	47	0	7700742144	16	14309
2026-01-27 20:55:24.17	236.07	15.31	-22.3	-22.4	18.4	0.00e+00	0	47	0	7809794048	16	14388
2026-01-27 20:55:25.15	236.31	15.38	-22.2	-22.3	18.5	0.00e+00	0	47	0	7918845952	16	14123
2026-01-27 20:55:26.14	236.55	15.46	-22.3	-22.4	18.5	0.00e+00	0	47	0	8036286464	16	14277
2026-01-27 20:55:27.12	236.80	15.54	-22.2	-22.3	18.5	0.00e+00	0	47	0	8136949760	16	14121
2026-01-27 20:55:28.10	237.04	15.61	-22.0	-22.1	18.3	0.00e+00	0	47	0	8254390272	16	13923
2026-01-27 20:55:29.08	237.28	15.69	-22.1	-22.2	18.3	0.00e+00	0	47	0	8363442176	16	14061
2026-01-27 20:55:30.08	237.53	15.76	-22.2	-22.2	18.3	0.00e+00	0	47	0	8472494080	16	14083
2026-01-27 20:55:31.06	237.78	15.84	-22.1	-22.2	18.2	0.00e+00	0	47	0	8581545984	16	14015
2026-01-27 20:55:32.05	238.03	15.91	-21.9	-22.0	18.3	0.00e+00	0	47	0	8698986496	15	14501
2026-01-27 20:55:33.03	238.28	15.99	-22.0	-22.0	18.3	0.00e+00	0	47	0	8808038400	15	14583
2026-01-27 20:55:34.01	238.53	16.06	-21.9	-22.0	18.2	0.00e+00	0	47	0	8917090304	15	14505
2026-01-27 20:55:34.99	238.78	16.14	-21.7	-21.8	18.4	0.00e+00	0	47	0	9026142208	15	14229
2026-01-27 20:55:35.98	239.04	16.21	-21.8	-21.9	18.4	0.00e+00	0	47	0	9143582720	15	14352
2026-01-27 20:55:36.96	239.29	16.29	-21.9	-21.9	18.4	0.00e+00	0	47	0	9244246016	15	14437
2026-01-27 20:55:37.94	239.55	16.36	-22.0	-22.0	17.9	0.00e+00	0	47	0	9361686528	15	14591
2026-01-27 20:55:38.93	239.81	16.43	-21.8	-21.8	18.1	0.00e+00	0	47	0	9470738432	15	14242
2026-01-27 20:55:39.91	240.07	16.51	-21.8	-21.8	18.4	0.00e+00	0	47	0	9579790336	15	14273
2026-01-27 20:55:40.89	240.33	16.58	-21.7	-21.8	18.4	0.00e+00	0	47	0	9688842240	15	14236
2026-01-27 20:55:41.87	240.59	16.65	-21.7	-21.8	18.0	0.00e+00	0	47	0	9797894144	15	14169
2026-01-27 20:55:42.86	240.86	16.73	-21.9	-21.9	17.8	0.00e+00	0	47	0	9915334656	15	14432
2026-01-27 20:55:43.85	241.12	16.80	-21.7	-21.8	18.0	0.00e+00	0	47	0	10024386560	15	14136
2026-01-27 20:55:44.83	241.39	16.87	-21.8	-21.9	18.2	0.00e+00	0	47	0	10133438464	15	14308
2026-01-27 20:55:45.81	241.66	16.94	-21.8	-21.9	17.7	0.00e+00	0	47	0	10242490368	15	14325
2026-01-27 20:55:46.79	241.93	17.01	-21.7	-21.8	18.1	0.00e+00	0	47	0	10359930880	15	14189
2026-01-27 20:55:47.78	242.20	17.09	-21.8	-21.8	18.1	0.00e+00	0	48	0	10460594176	15	14246
2026-01-27 20:55:48.76	242.47	17.16	-21.7	-21.8	17.9	0.00e+00	0	47	0	10578034688	15	14170
2026-01-27 20:55:49.75	242.75	17.23	-21.6	-21.7	17.5	0.00e+00	0	47	0	10687086592	15	14019
2026-01-27 20:55:50.73	243.02	17.30	-21.7	-21.8	17.6	0.00e+00	0	47	0	10804527104	15	14115
2026-01-27 20:55:51.72	243.30	17.37	-21.6	-21.7	17.6	0.00e+00	0	48	0	10905190400	15	14068
2026-01-27 20:55:52.71	243.58	17.44	-21.7	-21.8	17.6	0.00e+00	0	47	0	11022630912	15	14121
2026-01-27 20:55:53.69	243.86	17.51	-21.6	-21.7	17.7	0.00e+00	0	47	0	11131682816	15	14027
2026-01-27 20:55:54.67	244.14	17.58	-21.4	-21.5	17.4	0.00e+00	0	47	0	11240734720	14	14460
2026-01-27 20:55:55.65	244.42	17.64	-21.4	-21.5	17.7	0.00e+00	0	48	0	11349786624	14	14544
2026-01-27 20:55:56.64	244.71	17.71	-21.5	-21.5	17.3	0.00e+00	0	47	0	11467227136	14	14589
2026-01-27 20:55:57.62	244.99	17.78	-21.4	-21.4	17.4	0.00e+00	0	47	0	11567890432	14	14420
2026-01-27 20:55:58.61	245.28	17.85	-21.4	-21.5	17.6	0.00e+00	0	47	0	11685330944	14	14485
2026-01-27 20:55:59.59	245.57	17.92	-21.3	-21.4	17.5	0.00e+00	0	48	0	11794382848	14	14293
2026-01-27 20:56:00.58	245.86	17.98	-21.2	-21.3	17.7	0.00e+00	0	47	0	11903434752	14	14221
2026-01-27 20:56:01.56	246.15	18.05	-21.3	-21.4	17.5	0.00e+00	0	47	0	12012486656	14	14285
2026-01-27 20:56:02.55	246.45	18.11	-21.2	-21.3	17.6	0.00e+00	0	47	0	12129927168	14	14233
2026-01-27 20:56:03.53	246.74	18.18	-21.2	-21.3	17.4	0.00e+00	0	48	0	12238979072	14	14146
2026-01-27 20:56:04.51	247.03	18.24	-21.2	-21.3	17.0	0.00e+00	0	48	0	12348030976	14	14152
2026-01-27 20:56:05.50	247.33	18.31	-21.2	-21.3	17.3	0.00e+00	0	48	0	12457082880	14	14156
2026-01-27 20:56:06.48	247.63	18.37	-21.2	-21.2	16.7	0.00e+00	0	48	0	12574523392	14	14102
2026-01-27 20:56:07.47	247.93	18.44	-21.1	-21.2	16.9	0.00e+00	0	48	0	12675186688	14	14035
2026-01-27 20:56:08.45	248.23	18.50	-21.2	-21.2	17.2	0.00e+00	0	48	0	12792627200	14	14091
2026-01-27 20:56:09.43	248.53	18.56	-21.1	-21.1	16.6	0.00e+00	0	48	0	12901679104	14	13946
2026-01-27 20:56:10.42	248.84	18.62	-21.1	-21.2	16.6	0.00e+00	0	48	0	13010731008	14	13975
2026-01-27 20:56:11.41	249.14	18.68	-21.0	-21.1	16.7	0.00e+00	0	48	0	13119782912	14	13854
2026-01-27 20:56:12.39	249.45	18.74	-21.1	-21.2	16.6	0.00e+00	0	47	0	13237223424	13	14787
2026-01-27 20:56:13.37	249.75	18.80	-21.0	-21.1	16.7	0.00e+00	0	47	0	13346275328	13	14722
2026-01-27 20:56:14.36	250.07	18.86	-20.9	-21.0	17.0	0.00e+00	0	48	0	13455327232	13	14546
2026-01-27 20:56:15.35	250.38	18.92	-20.9	-21.0	16.8	0.00e+00	0	47	0	13564379136	13	14523
2026-01-27 20:56:16.34	250.69	18.98	-20.9	-20.9	16.5	0.00e+00	0	48	0	13681819648	13	14382
2026-01-27 20:56:17.33	251.01	19.04	-20.9	-21.0	16.8	0.00e+00	0	48	0	13790871552	13	14466
2026-01-27 20:56:18.31	251.32	19.10	-20.9	-20.9	16.3	0.00e+00	0	48	0	13899923456	13	14407
2026-01-27 20:56:19.30	251.64	19.15	-20.9	-20.9	16.5	0.00e+00	0	48	0	14008975360	13	14424
2026-01-27 20:56:20.28	251.95	19.21	-20.7	-20.8	16.5	0.00e+00	0	48	0	14126415872	13	14215
2026-01-27 20:56:21.27	252.27	19.27	-20.8	-20.9	16.4	0.00e+00	0	48	0	14235467776	13	14347
2026-01-27 20:56:22.25	252.59	19.32	-20.7	-20.8	16.3	0.00e+00	0	48	0	14344519680	13	14201
2026-01-27 20:56:23.23	252.91	19.37	-20.8	-20.8	16.3	0.00e+00	0	48	0	14453571584	13	14274
2026-01-27 20:56:24.21	253.23	19.43	-20.8	-20.9	16.2	0.00e+00	0	47	0	14562623488	13	14380
2026-01-27 20:56:25.20	253.56	19.48	-20.7	-20.8	16.5	1.90e-06	0	48	0	14680064000	13	14193
2026-01-27 20:56:26.18	253.88	19.53	-20.7	-20.8	16.6	0.00e+00	0	48	0	14789115904	13	14132
2026-01-27 20:56:27.17	254.21	19.58	-20.7	-20.8	16.5	0.00e+00	0	48	0	14898167808	13	14114
2026-01-27 20:56:28.15	254.53	19.63	-20.9	-21.0	16.1	0.00e+00	0	48	0	15007219712	13	14513
2026-01-27 20:56:29.14	254.86	19.68	-20.7	-20.8	16.7	0.00e+00	0	48	0	15116271616	13	14187
2026-01-27 20:56:30.12	255.19	19.73	-20.8	-20.9	16.1	0.00e+00	0	48	0	15225323520	13	14362
2026-01-27 20:56:31.10	255.52	19.78	-20.7	-20.8	16.8	0.00e+00	0	47	0	15342764032	13	14150
2026-01-27 20:56:32.09	255.85	19.83	-20.8	-20.8	16.3	0.00e+00	0	48	0	15451815936	13	14233
2026-01-27 20:56:33.08	256.19	19.87	-20.6	-20.7	16.4	0.00e+00	0	48	0	15560867840	13	13993
2026-01-27 20:56:34.06	256.52	19.92	-20.6	-20.7	16.5	0.00e+00	0	48	0	15669919744	13	14066
2026-01-27 20:56:35.05	256.85	19.97	-20.7	-20.8	16.7	0.00e+00	0	48	0	15787360256	13	14190
2026-01-27 20:56:36.03	257.19	20.01	-20.8	-20.9	16.8	0.00e+00	0	48	0	15896412160	13	14277
2026-01-27 20:56:37.02	257.53	20.05	-20.6	-20.7	16.8	0.00e+00	0	48	0	16005464064	13	13975
2026-01-27 20:56:38.00	257.86	20.10	-20.6	-20.7	16.6	0.00e+00	0	48	0	16114515968	13	14000
2026-01-27 20:56:38.98	258.20	20.14	-20.7	-20.8	16.4	0.00e+00	0	48	0	16231956480	13	14168
2026-01-27 20:56:39.96	258.54	20.18	-20.7	-20.8	16.9	0.00e+00	0	48	0	16332619776	13	14123
2026-01-27 20:56:40.95	258.88	20.22	-20.8	-20.8	17.1	0.00e+00	0	48	0	16450060288	13	14241
2026-01-27 20:56:41.94	259.22	20.26	-20.7	-20.7	16.7	0.00e+00	0	48	0	16559112192	13	14074
2026-01-27 20:56:42.92	259.57	20.30	-20.7	-20.7	17.1	0.00e+00	0	48	0	16668164096	13	14094
2026-01-27 20:56:43.91	259.91	20.33	-20.8	-20.8	16.6	0.00e+00	0	48	0	16777216000	13	14258
2026-01-27 20:56:44.89	260.25	20.37	-20.6	-20.7	16.7	0.00e+00	0	48	0	16894656512	13	14029
2026-01-27 20:56:45.87	260.60	20.41	-20.5	-20.6	17.2	0.00e+00	0	47	0	16995319808	13	13915
2026-01-27 20:56:46.86	260.95	20.44	-20.6	-20.7	17.3	0.00e+00	0	48	0	17112760320	13	13994
2026-01-27 20:56:47.85	261.30	20.48	-20.7	-20.8	17.1	0.00e+00	0	48	0	17221812224	13	14119
2026-01-27 20:56:48.83	261.64	20.51	-20.5	-20.6	17.2	0.00e+00	0	48	0	17330864128	13	13882
2026-01-27 20:56:49.81	261.99	20.54	-20.6	-20.7	17.3	0.00e+00	0	48	0	17439916032	13	13957
2026-01-27 20:56:50.80	262.34	20.57	-20.7	-20.7	17.4	0.00e+00	0	48	0	17557356544	13	14084
2026-01-27 20:56:51.78	262.69	20.60	-20.6	-20.7	17.2	0.00e+00	0	48	0	17666408448	13	14061
2026-01-27 20:56:52.77	263.04	20.63	-20.6	-20.6	17.0	0.00e+00	0	48	0	17775460352	13	13928
2026-01-27 20:56:53.76	263.40	20.66	-20.6	-20.7	17.4	0.00e+00	0	48	0	17884512256	13	13978
2026-01-27 20:56:54.74	263.75	20.69	-20.6	-20.7	17.3	0.00e+00	0	48	0	18001952768	13	13981
2026-01-27 20:56:55.73	264.10	20.72	-20.6	-20.7	17.5	0.00e+00	0	48	0	18111004672	13	14001
2026-01-27 20:56:56.71	264.45	20.74	-20.7	-20.7	17.1	0.00e+00	0	48	0	18220056576	13	14107
2026-01-27 20:56:57.69	264.81	20.77	-20.6	-20.7	17.8	0.00e+00	0	48	0	18329108480	13	14013
2026-01-27 20:56:58.68	265.16	20.79	-20.8	-20.9	18.1	0.00e+00	0	48	0	18446548992	13	14363
2026-01-27 20:56:59.66	265.52	20.81	-20.7	-20.8	17.7	0.00e+00	0	48	0	18555600896	13	14139
2026-01-27 20:57:00.64	265.87	20.83	-20.8	-20.8	17.6	0.00e+00	0	48	0	18664652800	13	14248
2026-01-27 20:57:01.63	266.23	20.85	-20.8	-20.9	17.6	0.00e+00	0	48	0	18773704704	13	14289
2026-01-27 20:57:02.61	266.59	20.87	-20.8	-20.9	17.8	0.00e+00	0	48	0	18882756608	13	14295
2026-01-27 20:57:03.59	266.94	20.89	-20.7	-20.8	17.9	0.00e+00	0	48	0	19000197120	13	14240
2026-01-27 20:57:04.58	267.30	20.91	-20.8	-20.8	18.2	0.00e+00	0	48	0	19109249024	13	14266
2026-01-27 20:57:05.57	267.66	20.93	-20.7	-20.8	18.5	0.00e+00	0	48	0	19218300928	13	14217
2026-01-27 20:57:06.55	268.02	20.94	-20.8	-20.9	18.3	0.00e+00	0	48	0	19327352832	13	14320
2026-01-27 20:57:07.53	268.38	20.96	-20.9	-20.9	18.2	0.00e+00	0	48	0	19436404736	13	14387
2026-01-27 20:57:08.51	268.73	20.97	-20.8	-20.9	18.6	0.00e+00	0	48	0	19545456640	13	14312
2026-01-27 20:57:09.50	269.10	20.98	-20.8	-20.8	18.5	0.00e+00	0	48	0	19662897152	13	14249
2026-01-27 20:57:10.48	269.45	20.99	-20.8	-20.8	18.6	0.00e+00	0	48	0	19771949056	13	14239
2026-01-27 20:57:11.47	269.82	21.00	-20.7	-20.8	19.0	0.00e+00	0	48	0	19881000960	13	14201
2026-01-27 20:57:12.44	270.17	21.01	-20.8	-20.9	18.8	0.00e+00	0	48	0	19990052864	13	14292
2026-01-27 20:57:13.42	270.53	21.02	-20.9	-21.0	18.7	0.00e+00	0	48	0	20099104768	13	14442
2026-01-27 20:57:14.41	270.89	21.03	-20.8	-20.9	18.7	0.00e+00	0	48	0	20208156672	13	14356
2026-01-27 20:57:15.39	271.25	21.03	-20.9	-21.0	19.0	0.00e+00	0	48	0	20325597184	13	14473
2026-01-27 20:57:16.38	271.62	21.04	-20.9	-21.0	18.9	0.00e+00	0	48	0	20426260480	13	14474
2026-01-27 20:57:17.36	271.98	21.04	-20.8	-20.8	18.8	0.00e+00	0	48	0	20543700992	13	14266
2026-01-27 20:57:18.35	272.34	21.05	-20.8	-20.9	18.7	0.00e+00	0	48	0	20652752896	13	14359
2026-01-27 20:57:19.33	272.70	21.05	-20.8	-20.9	19.0	0.00e+00	0	47	0	20770193408	13	14362
2026-01-27 20:57:20.31	273.06	21.05	-20.9	-20.9	19.2	0.00e+00	0	48	0	20870856704	13	14393
2026-01-27 20:57:21.29	273.42	21.05	-20.9	-20.9	19.1	0.00e+00	0	48	0	20988297216	13	14400
2026-01-27 20:57:22.27	273.78	21.05	-21.0	-21.1	19.4	0.00e+00	0	48	0	21097349120	13	14705
2026-01-27 20:57:23.26	274.14	21.05	-21.0	-21.1	19.2	0.00e+00	0	48	0	21206401024	13	14693
2026-01-27 20:57:24.24	274.50	21.04	-20.8	-20.9	19.5	0.00e+00	0	48	0	21315452928	13	14328
2026-01-27 20:57:25.23	274.87	21.04	-20.8	-20.9	19.3	0.00e+00	0	48	0	21424504832	13	14326
2026-01-27 20:57:26.21	275.23	21.03	-20.9	-21.0	19.3	0.00e+00	0	48	0	21541945344	13	14524
2026-01-27 20:57:27.20	275.59	21.03	-21.0	-21.0	19.4	0.00e+00	0	48	0	21650997248	13	14595
2026-01-27 20:57:28.19	275.95	21.02	-20.9	-21.0	19.4	0.00e+00	0	48	0	21760049152	13	14522
2026-01-27 20:57:29.18	276.31	21.01	-20.9	-21.0	19.4	0.00e+00	0	48	0	21869101056	13	14486
2026-01-27 20:57:30.15	276.67	21.00	-21.1	-21.2	19.2	0.00e+00	0	48	0	21986541568	13	14820
2026-01-27 20:57:31.14	277.03	20.99	-20.9	-20.9	19.5	0.00e+00	0	48	0	22095593472	13	14399
2026-01-27 20:57:32.12	277.39	20.98	-21.1	-21.1	19.5	0.00e+00	0	48	0	22204645376	13	14759
2026-01-27 20:57:33.10	277.75	20.97	-21.2	-21.2	19.4	0.00e+00	0	48	0	22313697280	13	14912
2026-01-27 20:57:34.09	278.11	20.95	-21.0	-21.0	19.2	0.00e+00	0	48	0	22431137792	13	14575
2026-01-27 20:57:35.07	278.47	20.94	-21.1	-21.2	19.3	0.00e+00	0	48	0	22531801088	13	14826
2026-01-27 20:57:36.06	278.83	20.92	-21.2	-21.2	19.5	0.00e+00	0	48	0	22649241600	13	14907
2026-01-27 20:57:37.05	279.19	20.90	-21.1	-21.2	19.1	0.00e+00	0	48	0	22758293504	13	14786
2026-01-27 20:57:38.03	279.54	20.89	-21.1	-21.2	19.4	0.00e+00	0	48	0	22875734016	13	14898
2026-01-27 20:57:39.02	279.90	20.87	-21.3	-21.4	19.1	0.00e+00	0	48	0	22976397312	13	15167
2026-01-27 20:57:40.00	280.25	20.85	-21.4	-21.4	19.0	0.00e+00	0	48	0	23093837824	13	15292
2026-01-27 20:57:40.99	280.61	20.83	-21.4	-21.4	19.1	0.00e+00	0	48	0	23202889728	13	15260
2026-01-27 20:57:41.97	280.97	20.80	-21.3	-21.4	19.3	0.00e+00	0	48	0	23311941632	13	15121
2026-01-27 20:57:42.96	281.32	20.78	-21.3	-21.4	19.2	0.00e+00	0	48	0	23420993536	13	15152
2026-01-27 20:57:43.95	281.68	20.76	-21.2	-21.3	19.0	0.00e+00	0	48	0	23538434048	13	15016
2026-01-27 20:57:44.94	282.03	20.73	-21.2	-21.3	19.1	0.00e+00	0	48	0	23647485952	13	14953
2026-01-27 20:57:45.92	282.39	20.71	-21.3	-21.4	19.1	0.00e+00	0	48	0	23756537856	13	15219
2026-01-27 20:57:46.90	282.74	20.68	-21.3	-21.4	19.2	0.00e+00	0	48	0	23865589760	13	15131
2026-01-27 20:57:47.89	283.09	20.65	-21.4	-21.5	18.8	0.00e+00	0	48	0	23983030272	13	15406
2026-01-27 20:57:48.87	283.44	20.62	-21.3	-21.4	18.8	0.00e+00	0	48	0	24083693568	13	15188
2026-01-27 20:57:49.85	283.79	20.59	-21.4	-21.5	19.2	0.00e+00	0	48	0	24201134080	13	15342
2026-01-27 20:57:50.84	284.14	20.56	-21.4	-21.5	18.7	0.00e+00	0	48	0	24310185984	13	15359
2026-01-27 20:57:51.83	284.49	20.53	-21.4	-21.5	19.1	0.00e+00	0	48	0	24419237888	13	15296
2026-01-27 20:57:52.81	284.84	20.50	-21.4	-21.5	18.6	0.00e+00	0	48	0	24528289792	13	15368
2026-01-27 20:57:53.79	285.18	20.47	-21.5	-21.5	18.9	0.00e+00	0	48	0	24645730304	13	15455
2026-01-27 20:57:54.78	285.53	20.43	-21.3	-21.4	19.1	0.00e+00	0	48	0	24754782208	13	15186
2026-01-27 20:57:55.77	285.88	20.40	-21.5	-21.5	18.6	0.00e+00	0	48	0	24863834112	13	15462
2026-01-27 20:57:56.75	286.22	20.36	-21.4	-21.5	18.6	0.00e+00	0	48	0	24972886016	13	15330
2026-01-27 20:57:57.73	286.56	20.32	-21.4	-21.5	18.7	0.00e+00	0	48	0	25090326528	13	15382
2026-01-27 20:57:58.72	286.90	20.29	-21.5	-21.5	18.7	0.00e+00	0	48	0	25190989824	13	15445
2026-01-27 20:57:59.70	287.24	20.25	-21.4	-21.5	18.6	0.00e+00	0	48	0	25308430336	13	15407
2026-01-27 20:58:00.69	287.59	20.21	-21.5	-21.5	18.7	0.00e+00	0	48	0	25417482240	13	15436
2026-01-27 20:58:01.67	287.92	20.17	-21.5	-21.6	18.6	0.00e+00	0	48	0	25526534144	13	15484
2026-01-27 20:58:02.64	288.26	20.13	-21.5	-21.6	18.8	0.00e+00	0	48	0	25635586048	13	15561
2026-01-27 20:58:03.63	288.60	20.08	-21.5	-21.5	18.6	0.00e+00	0	48	0	25753026560	13	15465
2026-01-27 20:58:04.61	288.93	20.04	-21.5	-21.6	18.5	0.00e+00	0	48	0	25862078464	13	15490
2026-01-27 20:58:05.59	289.27	20.00	-21.5	-21.6	19.1	0.00e+00	0	48	0	25971130368	13	15571
2026-01-27 20:58:06.57	289.60	19.95	-21.5	-21.6	18.6	0.00e+00	0	48	0	26080182272	13	15538
2026-01-27 20:58:07.56	289.93	19.91	-21.6	-21.7	19.0	0.00e+00	0	48	0	26189234176	13	15773
2026-01-27 20:58:08.55	290.27	19.86	-21.6	-21.7	18.9	0.00e+00	0	48	0	26306674688	13	15686
2026-01-27 20:58:09.53	290.60	19.82	-21.6	-21.7	18.5	0.00e+00	0	48	0	26415726592	13	15740
2026-01-27 20:58:10.51	290.93	19.77	-21.8	-21.8	18.9	0.00e+00	0	48	0	26524778496	14	15119
2026-01-27 20:58:11.50	291.26	19.72	-21.7	-21.8	19.0	0.00e+00	0	48	0	26633830400	14	15021
2026-01-27 20:58:12.48	291.58	19.67	-21.6	-21.7	19.1	0.00e+00	0	48	0	26751270912	14	14881
2026-01-27 20:58:13.47	291.91	19.62	-21.6	-21.7	19.0	0.00e+00	0	48	0	26851934208	14	14795
2026-01-27 20:58:14.45	292.24	19.57	-21.7	-21.8	19.0	0.00e+00	0	48	0	26969374720	14	14986
2026-01-27 20:58:15.44	292.56	19.52	-21.7	-21.8	19.0	0.00e+00	0	48	0	27078426624	14	15025
2026-01-27 20:58:16.42	292.88	19.47	-21.7	-21.8	18.8	0.00e+00	0	48	0	27187478528	14	15075
2026-01-27 20:58:17.41	293.21	19.41	-21.8	-21.9	18.7	0.00e+00	0	48	0	27296530432	14	15161
2026-01-27 20:58:18.40	293.53	19.36	-21.8	-21.9	19.3	0.00e+00	0	48	0	27413970944	14	15174
2026-01-27 20:58:19.37	293.84	19.31	-21.8	-21.9	19.3	0.00e+00	0	48	0	27514634240	14	15135
2026-01-27 20:58:20.36	294.16	19.25	-21.7	-21.8	19.3	0.00e+00	0	48	0	27632074752	14	15009
2026-01-27 20:58:21.34	294.48	19.20	-21.8	-21.9	19.0	0.00e+00	0	48	0	27741126656	14	15248
2026-01-27 20:58:22.33	294.80	19.14	-21.7	-21.8	19.4	0.00e+00	0	48	0	27850178560	14	14994
2026-01-27 20:58:23.31	295.11	19.09	-21.7	-21.8	19.2	0.00e+00	0	48	0	27959230464	14	15046
2026-01-27 20:58:24.29	295.42	19.03	-21.7	-21.8	19.2	0.00e+00	0	48	0	28076670976	14	15010
2026-01-27 20:58:25.28	295.73	18.97	-21.7	-21.8	19.3	0.00e+00	0	48	0	28185722880	14	15005
2026-01-27 20:58:26.26	296.04	18.91	-21.8	-21.8	19.5	0.00e+00	0	48	0	28294774784	14	15101
2026-01-27 20:58:27.25	296.35	18.85	-21.9	-21.9	19.7	0.00e+00	0	48	0	28403826688	14	15256
2026-01-27 20:58:28.23	296.66	18.79	-21.9	-22.0	19.6	0.00e+00	0	48	0	28521267200	14	15321
2026-01-27 20:58:29.21	296.96	18.74	-21.8	-21.8	19.7	0.00e+00	0	48	0	28621930496	14	15064
2026-01-27 20:58:30.20	297.27	18.67	-21.8	-21.9	19.6	0.00e+00	0	48	0	28739371008	14	15204
2026-01-27 20:58:31.17	297.57	18.61	-21.9	-21.9	19.6	0.00e+00	0	48	0	28848422912	14	15288
2026-01-27 20:58:32.16	297.87	18.55	-21.8	-21.9	19.5	0.00e+00	0	48	0	28957474816	14	15173
2026-01-27 20:58:33.14	298.17	18.49	-21.9	-22.0	19.8	0.00e+00	0	48	0	29066526720	14	15341
2026-01-27 20:58:34.12	298.47	18.43	-21.9	-22.0	19.6	0.00e+00	0	48	0	29175578624	14	15307
2026-01-27 20:58:35.11	298.77	18.36	-21.9	-22.0	19.5	0.00e+00	0	48	0	29293019136	14	15340
2026-01-27 20:58:36.09	299.07	18.30	-21.9	-22.0	19.3	0.00e+00	0	48	0	29402071040	14	15325
2026-01-27 20:58:37.08	299.36	18.24	-21.9	-21.9	19.5	0.00e+00	0	48	0	29511122944	14	15278
2026-01-27 20:58:38.06	299.66	18.17	-21.9	-22.0	19.2	0.00e+00	0	48	0	29620174848	14	15311
2026-01-27 20:58:39.04	299.95	18.11	-21.9	-22.0	19.2	0.00e+00	0	48	0	29737615360	14	15364
2026-01-27 20:58:40.03	300.24	18.04	-22.0	-22.1	19.2	0.00e+00	0	48	0	29846667264	14	15549
2026-01-27 20:58:41.01	300.53	17.98	-22.0	-22.0	19.4	0.00e+00	0	48	0	29955719168	14	15438
2026-01-27 20:58:41.99	300.81	17.91	-21.9	-22.0	19.4	0.00e+00	0	48	0	30064771072	14	15371
2026-01-27 20:58:42.98	301.10	17.84	-22.1	-22.2	19.3	0.00e+00	0	48	0	30182211584	14	15691
2026-01-27 20:58:43.97	301.39	17.78	-22.2	-22.3	19.3	0.00e+00	0	48	0	30282874880	15	14965
2026-01-27 20:58:44.95	301.67	17.71	-22.1	-22.1	19.2	0.00e+00	0	48	0	30400315392	15	14744
2026-01-27 20:58:45.94	301.96	17.64	-22.2	-22.2	19.2	0.00e+00	0	48	0	30509367296	15	14898
2026-01-27 20:58:46.92	302.24	17.57	-22.2	-22.2	19.2	0.00e+00	0	48	0	30618419200	15	14906
2026-01-27 20:58:47.91	302.52	17.50	-22.3	-22.4	19.2	0.00e+00	0	48	0	30727471104	15	15167
2026-01-27 20:58:48.90	302.80	17.43	-22.2	-22.2	18.8	0.00e+00	0	48	0	30844911616	15	14944
2026-01-27 20:58:49.88	303.07	17.37	-22.1	-22.1	18.4	0.00e+00	0	48	0	30953963520	15	14751
2026-01-27 20:58:50.86	303.35	17.30	-22.2	-22.3	18.4	0.00e+00	0	48	0	31063015424	15	14950
2026-01-27 20:58:51.84	303.62	17.23	-22.3	-22.4	18.1	0.00e+00	0	48	0	31172067328	15	15229
2026-01-27 20:58:52.83	303.90	17.16	-22.3	-22.4	17.5	0.00e+00	0	48	0	31289507840	15	15160
2026-01-27 20:58:53.81	304.17	17.09	-22.5	-22.5	17.3	0.00e+00	0	48	0	31390171136	15	15431
2026-01-27 20:58:54.79	304.44	17.02	-22.2	-22.3	15.6	1.33e-05	0	48	0	31507611648	15	15039
2026-01-27 20:58:55.78	304.71	16.94	-22.3	-22.4	14.6	1.11e-04	0	48	0	31616663552	15	15170
2026-01-27 20:58:56.76	304.97	16.87	-22.1	-22.2	12.8	9.50e-04	0	48	0	31725715456	15	14848
2026-01-27 20:58:57.75	305.24	16.80	-22.2	-22.3	12.7	1.11e-03	0	48	0	31834767360	15	14999
2026-01-27 20:58:58.73	305.50	16.73	-22.1	-22.2	11.8	3.00e-03	0	48	0	31952207872	15	14864
2026-01-27 20:58:59.71	305.76	16.66	-22.0	-22.1	10.8	6.94e-03	0	48	0	32061259776	15	14734
2026-01-27 20:59:00.70	306.03	16.58	-22.1	-22.2	11.0	5.85e-03	0	48	0	32170311680	15	14839
2026-01-27 20:59:01.68	306.28	16.51	-22.1	-22.2	11.0	6.39e-03	0	48	0	32279363584	15	14900
2026-01-27 20:59:02.67	306.54	16.44	-22.1	-22.2	10.7	7.84e-03	0	48	0	32388415488	15	14915
2026-01-27 20:59:03.65	306.80	16.36	-22.1	-22.3	10.0	1.22e-02	0	48	0	32497467392	15	15016
2026-01-27 20:59:04.63	307.06	16.29	-22.1	-22.3	10.5	8.83e-03	0	48	0	32598130688	15	14977
2026-01-27 20:59:05.62	307.31	16.22	-22.2	-22.4	10.7	7.89e-03	0	48	0	32707182592	15	15124
2026-01-27 20:59:06.61	307.57	16.14	-22.3	-22.5	11.1	5.73e-03	0	48	0	32816234496	15	15300
2026-01-27 20:59:07.60	307.82	16.07	-22.4	-22.5	10.9	7.18e-03	0	48	0	32925286400	15	15336
2026-01-27 20:59:08.58	308.07	15.99	-22.5	-22.6	11.5	4.10e-03	0	48	0	33042726912	15	15484
2026-01-27 20:59:09.56	308.32	15.92	-22.6	-22.7	12.4	2.02e-03	0	48	0	33151778816	15	15753
2026-01-27 20:59:10.54	308.56	15.85	-22.9	-23.0	12.4	2.07e-03	0	48	0	33260830720	16	15332
2026-01-27 20:59:11.52	308.81	15.77	-23.0	-23.1	13.0	1.04e-03	0	48	0	33369882624	16	15505
2026-01-27 20:59:12.51	309.05	15.70	-22.7	-22.8	13.5	6.10e-04	0	48	0	33478934528	16	15079
2026-01-27 20:59:13.50	309.30	15.62	-22.9	-22.9	14.0	3.09e-04	0	48	0	33596375040	16	15285
2026-01-27 20:59:14.48	309.54	15.55	-22.9	-23.0	14.0	2.35e-04	0	48	0	33705426944	16	15329
2026-01-27 20:59:15.47	309.78	15.47	-23.1	-23.2	14.6	1.52e-04	0	48	0	33814478848	16	15681
2026-01-27 20:59:16.45	310.02	15.39	-22.9	-23.0	14.7	9.91e-05	0	48	0	33923530752	16	15444
2026-01-27 20:59:17.43	310.26	15.32	-23.1	-23.1	14.7	1.01e-04	0	48	0	34032582656	16	15643
2026-01-27 20:59:18.41	310.49	15.24	-23.1	-23.1	15.0	5.34e-05	0	48	0	34141634560	16	15638
2026-01-27 20:59:19.39	310.72	15.17	-23.1	-23.2	15.7	2.47e-05	0	48	0	34259075072	16	15728
2026-01-27 20:59:20.38	310.96	15.09	-23.1	-23.2	15.6	2.47e-05	0	48	0	34359738368	16	15752
2026-01-27 20:59:21.36	311.19	15.02	-23.2	-23.3	16.1	7.60e-06	0	48	0	34477178880	16	15887
2026-01-27 20:59:22.34	311.42	14.94	-23.1	-23.2	16.6	5.70e-06	0	48	0	34586230784	16	15692
2026-01-27 20:59:23.33	311.65	14.86	-23.2	-23.3	16.3	3.80e-06	0	48	0	34695282688	16	15858
2026-01-27 20:59:24.31	311.88	14.79	-23.2	-23.2	16.7	7.60e-06	0	48	0	34804334592	16	15818
2026-01-27 20:59:25.29	312.11	14.71	-23.3	-23.4	16.9	3.80e-06	0	48	0	34921775104	17	15212
2026-01-27 20:59:26.28	312.33	14.63	-23.5	-23.6	17.2	0.00e+00	0	48	0	35030827008	17	15575
2026-01-27 20:59:27.27	312.56	14.56	-23.4	-23.5	17.1	0.00e+00	0	48	0	35139878912	17	15381
2026-01-27 20:59:28.25	312.78	14.48	-23.5	-23.6	17.4	0.00e+00	0	48	0	35248930816	17	15521
2026-01-27 20:59:29.23	313.00	14.40	-23.5	-23.5	17.5	1.90e-06	0	48	0	35366371328	17	15467
2026-01-27 20:59:30.21	313.22	14.33	-23.4	-23.4	17.6	0.00e+00	0	48	0	35467034624	17	15272
2026-01-27 20:59:31.20	313.44	14.25	-23.4	-23.5	17.5	0.00e+00	0	48	0	35584475136	17	15342
2026-01-27 20:59:32.18	313.66	14.17	-23.5	-23.6	17.7	0.00e+00	0	48	0	35693527040	17	15551
2026-01-27 20:59:33.16	313.88	14.10	-23.5	-23.6	17.8	0.00e+00	0	48	0	35802578944	17	15503
2026-01-27 20:59:34.15	314.09	14.02	-23.6	-23.7	17.9	0.00e+00	0	48	0	35911630848	17	15653
2026-01-27 20:59:35.13	314.31	13.94	-23.5	-23.6	17.7	0.00e+00	0	48	0	36029071360	17	15617
2026-01-27 20:59:36.13	314.52	13.86	-23.6	-23.7	17.8	0.00e+00	0	48	0	36138123264	17	15672
2026-01-27 20:59:37.11	314.73	13.79	-23.6	-23.7	17.7	0.00e+00	0	48	0	36247175168	17	15714
2026-01-27 20:59:38.09	314.94	13.71	-23.8	-23.9	17.6	0.00e+00	0	48	0	36356227072	18	15121
2026-01-27 20:59:39.07	315.15	13.63	-23.7	-23.8	17.8	0.00e+00	0	48	0	36465278976	18	14991
2026-01-27 20:59:40.05	315.36	13.56	-23.8	-23.9	17.6	1.90e-06	0	48	0	36582719488	18	15233
2026-01-27 20:59:41.03	315.56	13.48	-23.8	-23.9	17.4	0.00e+00	0	48	0	36691771392	18	15191
2026-01-27 20:59:42.02	315.77	13.40	-23.7	-23.8	17.6	0.00e+00	0	48	0	36800823296	18	14993
2026-01-27 20:59:43.00	315.97	13.33	-23.9	-24.0	17.2	1.90e-06	0	48	0	36909875200	18	15351
2026-01-27 20:59:43.98	316.18	13.25	-23.9	-23.9	17.2	0.00e+00	0	48	0	37027315712	18	15273
2026-01-27 20:59:44.96	316.38	13.17	-24.1	-24.2	19.2	0.00e+00	0	48	0	37127979008	18	15654
2026-01-27 20:59:45.95	316.58	13.10	-46.4	-48.8	6.2	0.00e+00	0	48	104	37153144832	63	20125
2026-01-27 20:59:46.94	316.78	13.02	-46.5	-48.9	6.2	0.00e+00	0	48	104	37153144832	63	20203
2026-01-27 20:59:47.92	316.98	12.94	-46.7	-49.1	6.2	0.00e+00	0	48	104	37153144832	63	20722
2026-01-27 20:59:48.91	317.18	12.86	-46.9	-49.4	6.2	0.00e+00	0	48	104	37153144832	64	20331
2026-01-27 20:59:49.89	317.37	12.79	-46.6	-49.0	6.2	0.00e+00	0	48	104	37153144832	64	19323
2026-01-27 20:59:50.87	317.57	12.71	-46.6	-49.0	6.2	0.00e+00	0	48	104	37153144832	64	19279
2026-01-27 20:59:51.85	317.76	12.63	-46.8	-49.2	6.2	0.00e+00	0	48	104	37153144832	64	19793
2026-01-27 20:59:52.84	317.95	12.56	-46.8	-49.3	6.2	0.00e+00	0	48	104	37153144832	64	20092
2026-01-27 20:59:53.82	318.14	12.48	-46.8	-49.3	6.2	0.00e+00	0	48	104	37153144832	64	20035
2026-01-27 20:59:54.81	318.33	12.40	-46.6	-49.0	6.2	0.00e+00	0	48	104	37153144832	64	19273
2026-01-27 20:59:55.79	318.52	12.33	-46.8	-49.3	6.2	0.00e+00	0	48	104	37153144832	64	20123
2026-01-27 20:59:56.77	318.71	12.25	-46.7	-49.2	6.2	0.00e+00	0	48	104	37153144832	64	19851
2026-01-27 20:59:57.77	318.90	12.17	-46.8	-49.3	6.2	0.00e+00	0	48	104	37153144832	64	19975
2026-01-27 20:59:58.75	319.09	12.10	-46.6	-49.0	6.2	0.00e+00	0	48	104	37153144832	64	19356
2026-01-27 20:59:59.73	319.27	12.02	-46.8	-49.3	6.2	0.00e+00	0	48	104	37153144832	64	20110
2026-01-27 21:00:00.71	319.45	11.94	-46.7	-49.3	6.2	0.00e+00	0	48	104	37153144832	64	20044
2026-01-27 21:00:01.71	319.64	11.87	-46.6	-49.1	6.2	0.00e+00	0	48	104	37153144832	64	19561
2026-01-27 21:00:02.70	319.82	11.79	-46.6	-49.0	6.2	0.00e+00	0	48	104	37153144832	64	19455
2026-01-27 21:00:03.68	320.00	11.71	-46.7	-49.2	6.2	0.00e+00	0	48	104	37153144832	64	19871
2026-01-27 21:00:04.66	320.18	11.64	-46.6	-49.2	6.2	0.00e+00	0	48	104	37153144832	64	19919
2026-01-27 21:00:05.65	320.36	11.56	-46.5	-48.9	6.2	0.00e+00	0	48	104	37153144832	64	19210
2026-01-27 21:00:06.64	320.54	11.49	-46.6	-49.1	6.2	0.00e+00	0	48	104	37153144832	64	19612
2026-01-27 21:00:07.62	320.71	11.41	-46.7	-49.2	6.2	0.00e+00	0	48	104	37153144832	64	19762
2026-01-27 21:00:08.61	320.89	11.33	-46.7	-49.2	6.2	0.00e+00	0	48	104	37153144832	64	19923
2026-01-27 21:00:09.59	321.06	11.26	-46.5	-48.9	6.2	0.00e+00	0	48	104	37153144832	64	19099
2026-01-27 21:00:10.58	321.24	11.18	-46.7	-49.2	6.2	0.00e+00	0	47	104	37153144832	64	19755
2026-01-27 21:00:11.56	321.41	11.11	-46.7	-49.2	6.2	0.00e+00	0	47	104	37153144832	64	19714
2026-01-27 21:00:12.54	321.58	11.03	-46.6	-49.2	6.2	0.00e+00	0	48	104	37153144832	64	19830
2026-01-27 21:00:13.53	321.75	10.96	-46.5	-48.9	6.2	0.00e+00	0	47	104	37153144832	64	19129
2026-01-27 21:00:14.51	321.92	10.88	-46.7	-49.2	6.2	0.00e+00	0	48	104	37153144832	64	19824
2026-01-27 21:00:15.50	322.09	10.81	-46.6	-49.1	6.2	0.00e+00	0	48	104	37153144832	64	19653
2026-01-27 21:00:16.48	322.25	10.73	-46.6	-49.2	6.2	0.00e+00	0	48	104	37153144832	64	19779
2026-01-27 21:00:17.47	322.42	10.66	-46.5	-48.9	6.2	0.00e+00	0	48	104	37153144832	64	19189
2026-01-27 21:00:18.46	322.59	10.58	-46.7	-49.2	6.2	0.00e+00	0	48	104	37153144832	64	19778
2026-01-27 21:00:19.45	322.75	10.51	-46.6	-49.1	6.2	0.00e+00	0	48	104	37153144832	64	19603
2026-01-27 21:00:20.43	322.91	10.43	-46.6	-49.1	6.2	0.00e+00	0	47	104	37153144832	64	19646
2026-01-27 21:00:21.42	323.08	10.36	-46.5	-48.9	6.2	0.00e+00	0	48	104	37153144832	64	19052
2026-01-27 21:00:22.41	323.24	10.28	-46.6	-49.1	6.2	0.00e+00	0	48	104	37153144832	64	19696
2026-01-27 21:00:23.39	323.40	10.21	-46.6	-49.1	6.2	0.00e+00	0	48	104	37153144832	64	19488
2026-01-27 21:00:24.37	323.56	10.13	-46.5	-49.1	6.2	0.00e+00	0	48	104	37153144832	64	19488
2026-01-27 21:00:25.35	323.72	10.06	-46.4	-48.9	6.2	0.00e+00	0	47	104	37153144832	64	19128
2026-01-27 21:00:26.33	323.87	9.99	-46.6	-49.1	6.2	0.00e+00	0	48	104	37153144832	64	19536
2026-01-27 21:00:27.31	324.03	9.91	-46.5	-49.0	6.2	0.00e+00	0	48	104	37153144832	64	19328
2026-01-27 21:00:28.29	324.18	9.84	-46.4	-48.9	6.2	0.00e+00	0	48	104	37153144832	64	19227
2026-01-27 21:00:29.27	324.34	9.77	-46.4	-48.9	6.2	0.00e+00	0	48	104	37153144832	64	19053
2026-01-27 21:00:30.26	324.49	9.69	-46.5	-49.0	6.2	0.00e+00	0	47	104	37153144832	64	19285
2026-01-27 21:00:31.23	324.65	9.62	-46.5	-48.9	6.2	0.00e+00	0	48	104	37153144832	64	19184
2026-01-27 21:00:32.22	324.80	9.55	-46.4	-48.9	6.2	0.00e+00	0	47	104	37153144832	64	19092
2026-01-27 21:00:33.20	324.95	9.47	-46.4	-48.8	6.2	0.00e+00	0	48	104	37153144832	64	19009
2026-01-27 21:00:34.18	325.10	9.40	-46.4	-48.9	6.2	0.00e+00	0	48	104	37153144832	64	19120
2026-01-27 21:00:35.17	325.25	9.33	-46.4	-48.9	6.2	0.00e+00	0	48	104	37153144832	64	19112
2026-01-27 21:00:36.15	325.40	9.25	-46.4	-48.8	6.2	0.00e+00	0	47	104	37153144832	64	18896
2026-01-27 21:00:37.14	325.55	9.18	-46.4	-48.8	6.2	0.00e+00	0	48	104	37153144832	64	18904
2026-01-27 21:00:38.12	325.69	9.11	-46.4	-48.8	6.2	0.00e+00	0	47	104	37153144832	64	18908
2026-01-27 21:00:39.11	325.84	9.04	-46.4	-48.9	6.2	0.00e+00	0	47	104	37153144832	64	19072
2026-01-27 21:00:40.09	325.99	8.96	-46.3	-48.7	6.2	0.00e+00	0	47	104	37153144832	64	18812
2026-01-27 21:00:41.07	326.13	8.89	-46.3	-48.8	6.2	0.00e+00	0	48	104	37153144832	64	18819
2026-01-27 21:00:42.04	326.27	8.82	-46.3	-48.7	6.2	0.00e+00	0	48	104	37153144832	64	18788
2026-01-27 21:00:43.03	326.42	8.75	-46.4	-48.8	6.2	0.00e+00	0	47	104	37153144832	64	18953
2026-01-27 21:00:44.01	326.56	8.68	-46.3	-48.7	6.2	0.00e+00	0	48	104	37153144832	64	18750
2026-01-27 21:00:44.99	326.70	8.61	-46.3	-48.7	6.2	0.00e+00	0	47	104	37153144832	64	18777
2026-01-27 21:00:45.98	326.84	8.53	-46.3	-48.7	6.2	0.00e+00	0	47	104	37153144832	64	18773
2026-01-27 21:00:46.97	326.98	8.46	-46.3	-48.8	6.2	0.00e+00	0	47	104	37153144832	64	18891
2026-01-27 21:00:47.95	327.12	8.39	-46.2	-48.7	6.2	0.00e+00	0	47	104	37153144832	64	18635
2026-01-27 21:00:48.94	327.26	8.32	-46.3	-48.7	6.2	0.00e+00	0	47	104	37153144832	64	18713
2026-01-27 21:00:49.92	327.39	8.25	-46.3	-48.7	6.2	0.00e+00	0	47	104	37153144832	64	18686
2026-01-27 21:00:50.90	327.53	8.18	-46.3	-48.8	6.2	0.00e+00	0	48	104	37153144832	64	18883
2026-01-27 21:00:51.88	327.67	8.11	-46.2	-48.7	6.2	0.00e+00	0	48	104	37153144832	64	18636
2026-01-27 21:00:52.86	327.80	8.04	-46.2	-48.6	6.2	0.00e+00	0	47	104	37153144832	64	18600
2026-01-27 21:00:53.85	327.94	7.97	-46.2	-48.6	6.2	0.00e+00	0	48	104	37153144832	64	18583
2026-01-27 21:00:54.83	328.07	7.90	-46.3	-48.7	6.2	0.00e+00	0	47	104	37153144832	64	18747
2026-01-27 21:00:55.82	328.20	7.83	-46.2	-48.6	6.2	0.00e+00	0	47	104	37153144832	64	18598
2026-01-27 21:00:56.80	328.33	7.76	-46.2	-48.6	6.2	0.00e+00	0	47	104	37153144832	64	18560
2026-01-27 21:00:57.78	328.47	7.69	-46.2	-48.6	6.2	0.00e+00	0	47	104	37153144832	64	18543
2026-01-27 21:00:58.77	328.60	7.62	-46.2	-48.7	6.2	0.00e+00	0	48	104	37153144832	64	18783
2026-01-27 21:00:59.75	328.73	7.55	-46.2	-48.7	6.2	0.00e+00	0	47	104	37153144832	64	18630
2026-01-27 21:01:00.73	328.86	7.48	-46.2	-48.6	6.2	0.00e+00	0	47	104	37153144832	64	18593
2026-01-27 21:01:01.71	328.98	7.41	-46.2	-48.6	6.2	0.00e+00	0	47	104	37153144832	64	18505
2026-01-27 21:01:02.70	329.11	7.34	-46.2	-48.7	6.2	0.00e+00	0	47	104	37153144832	64	18722
2026-01-27 21:01:03.69	329.24	7.27	-46.2	-48.6	6.2	0.00e+00	0	47	104	37153144832	64	18591
2026-01-27 21:01:04.67	329.37	7.20	-46.2	-48.6	6.2	0.00e+00	0	48	104	37153144832	64	18591
2026-01-27 21:01:05.66	329.49	7.13	-46.2	-48.7	6.2	0.00e+00	0	48	104	37153144832	64	18619
2026-01-27 21:01:06.64	329.62	7.06	-46.2	-48.7	6.2	0.00e+00	0	47	104	37153144832	64	18656
2026-01-27 21:01:07.61	329.74	6.99	-46.2	-48.6	6.2	0.00e+00	0	47	104	37153144832	64	18549
2026-01-27 21:01:08.60	329.87	6.92	-46.1	-48.6	6.2	0.00e+00	0	47	104	37153144832	64	18416
2026-01-27 21:01:09.58	329.99	6.86	-46.1	-48.6	6.2	0.00e+00	0	47	104	37153144832	64	18555
2026-01-27 21:01:10.57	330.11	6.79	-46.2	-48.7	6.2	0.00e+00	0	48	104	37153144832	64	18693
2026-01-27 21:01:11.55	330.23	6.72	-46.1	-48.6	6.2	0.00e+00	0	47	104	37153144832	64	18527
2026-01-27 21:01:12.53	330.35	6.65	-46.0	-48.5	6.2	0.00e+00	0	47	104	37153144832	64	18312
2026-01-27 21:01:13.52	330.47	6.58	-46.1	-48.6	6.2	0.00e+00	0	47	104	37153144832	64	18552
2026-01-27 21:01:14.50	330.59	6.52	-46.1	-48.6	6.2	0.00e+00	0	47	104	37153144832	64	18560
2026-01-27 21:01:15.48	330.71	6.45	-46.1	-48.6	6.2	0.00e+00	0	47	104	37153144832	64	18432
2026-01-27 21:01:16.47	330.83	6.38	-46.0	-48.5	6.2	0.00e+00	0	47	104	37153144832	64	18286
2026-01-27 21:01:17.46	330.95	6.31	-46.1	-48.6	6.2	0.00e+00	0	48	104	37153144832	64	18507
2026-01-27 21:01:18.44	331.07	6.25	-46.1	-48.6	6.2	0.00e+00	0	48	104	37153144832	64	18485
2026-01-27 21:01:19.43	331.18	6.18	-46.0	-48.5	6.2	0.00e+00	0	47	104	37153144832	64	18387
2026-01-27 21:01:20.40	331.30	6.11	-46.0	-48.5	6.2	0.00e+00	0	47	104	37153144832	64	18214
2026-01-27 21:01:21.39	331.42	6.05	-46.0	-48.6	6.2	0.00e+00	0	47	104	37153144832	64	18438
2026-01-27 21:01:22.37	331.53	5.98	-46.1	-48.7	6.2	0.00e+00	0	47	104	37153144832	63	19749
2026-01-27 21:01:23.35	331.64	5.91	-46.0	-48.5	6.2	0.00e+00	0	48	104	37153144832	63	19468
2026-01-27 21:01:24.34	331.76	5.85	-46.0	-48.5	6.2	0.00e+00	0	47	104	37153144832	63	19367
2026-01-27 21:01:25.33	331.87	5.78	-46.1	-48.6	6.2	0.00e+00	0	47	104	37153144832	63	19666
2026-01-27 21:01:26.31	331.98	5.71	-46.1	-48.6	6.2	0.00e+00	0	47	104	37153144832	63	19524
2026-01-27 21:01:27.29	332.10	5.65	-46.0	-48.5	6.2	0.00e+00	0	47	104	37153144832	63	19352
2026-01-27 21:01:28.27	332.21	5.58	-46.0	-48.5	6.2	0.00e+00	0	47	104	37153144832	63	19357
2026-01-27 21:01:29.26	332.32	5.52	-46.0	-48.6	6.2	0.00e+00	0	47	104	37153144832	63	19523
2026-01-27 21:01:30.25	332.43	5.45	-46.0	-48.5	6.2	0.00e+00	0	48	104	37153144832	63	19422
2026-01-27 21:01:31.23	332.54	5.39	-45.9	-48.5	6.2	0.00e+00	0	47	104	37153144832	63	19273
2026-01-27 21:01:32.22	332.65	5.32	-45.9	-48.4	6.2	0.00e+00	0	47	104	37153144832	63	19158
2026-01-27 21:01:33.20	332.76	5.26	-46.0	-48.5	6.2	0.00e+00	0	48	104	37153144832	63	19419
2026-01-27 21:01:34.18	332.86	5.19	-46.0	-48.5	6.2	0.00e+00	0	47	104	37153144832	63	19347
2026-01-27 21:01:35.17	332.97	5.13	-45.9	-48.4	6.2	0.00e+00	0	47	104	37153144832	63	19107
2026-01-27 21:01:36.15	333.08	5.06	-45.9	-48.3	6.2	0.00e+00	0	47	104	37153144832	63	18984
2026-01-27 21:01:37.14	333.18	5.00	-46.2	-48.7	6.2	0.00e+00	0	47	104	37153144832	63	19789
2026-01-27 21:01:38.13	333.29	4.93	-46.7	-49.2	6.2	0.00e+00	0	47	104	37153144832	63	20970
2026-01-27 21:01:39.11	333.39	4.87	-46.9	-49.5	6.2	0.00e+00	0	47	104	37153144832	64	20467
2026-01-27 21:01:40.09	333.50	4.80	-47.2	-49.7	6.2	0.00e+00	0	47	104	37153144832	64	21040
2026-01-27 21:01:41.07	333.60	4.74	-47.4	-49.9	6.2	0.00e+00	0	47	104	37153144832	65	20246
2026-01-27 21:01:42.06	333.71	4.67	-47.5	-50.1	6.2	0.00e+00	0	47	104	37153144832	65	20660
2026-01-27 21:01:43.04	333.81	4.61	-47.6	-50.2	6.2	0.00e+00	0	47	104	37153144832	65	20882
2026-01-27 21:01:44.03	333.91	4.55	-47.7	-50.3	6.2	0.00e+00	0	48	104	37153144832	65	21115
2026-01-27 21:01:45.02	334.02	4.48	-47.9	-50.4	6.2	0.00e+00	0	47	104	37153144832	66	20259
2026-01-27 21:01:45.99	334.12	4.42	-47.9	-50.4	6.2	0.00e+00	0	47	104	37153144832	66	20354
2026-01-27 21:01:46.98	334.22	4.36	-48.0	-50.5	6.2	0.00e+00	0	47	104	37153144832	66	20523
2026-01-27 21:01:47.97	334.32	4.29	-48.0	-50.5	6.2	0.00e+00	0	47	104	37153144832	66	20621
2026-01-27 21:01:48.95	334.42	4.23	-48.0	-50.6	6.2	0.00e+00	0	47	104	37153144832	66	20734
2026-01-27 21:01:49.93	334.52	4.17	-48.1	-50.7	6.2	0.00e+00	0	47	104	37153144832	66	20875
2026-01-27 21:01:50.93	334.62	4.10	-48.2	-50.7	6.2	0.00e+00	0	47	104	37153144832	66	21032
2026-01-27 21:01:51.91	334.72	4.04	-48.2	-50.7	6.2	0.00e+00	0	47	104	37153144832	66	21094
2026-01-27 21:01:52.89	334.81	3.98	-48.2	-50.8	6.2	0.00e+00	0	47	104	37153144832	67	20000
2026-01-27 21:01:53.87	334.91	3.92	-48.3	-50.8	6.2	0.00e+00	0	47	104	37153144832	67	20091
2026-01-27 21:01:54.86	335.01	3.85	-48.3	-50.8	6.2	0.00e+00	0	47	104	37153144832	67	20116
2026-01-27 21:01:55.84	335.10	3.79	-48.3	-50.9	6.2	0.00e+00	0	47	104	37153144832	67	20187
2026-01-27 21:01:56.83	335.20	3.73	-48.3	-50.9	6.2	0.00e+00	0	47	104	37153144832	67	20235
2026-01-27 21:01:57.81	335.30	3.67	-48.3	-50.9	6.2	0.00e+00	0	47	104	37153144832	67	20336
2026-01-27 21:01:58.80	335.39	3.60	-48.3	-50.9	6.2	0.00e+00	0	47	104	37153144832	67	20255
2026-01-27 21:01:59.78	335.49	3.54	-48.3	-50.8	6.2	0.00e+00	0	47	104	37153144832	67	20089
2026-01-27 21:02:00.76	335.58	3.48	-48.3	-50.8	6.2	0.00e+00	0	47	104	37153144832	67	20107
2026-01-27 21:02:01.75	335.67	3.42	-48.3	-50.8	6.2	0.00e+00	0	48	104	37153144832	67	20092
2026-01-27 21:02:02.73	335.77	3.36	-48.3	-50.8	6.2	0.00e+00	0	47	104	37153144832	67	20010
2026-01-27 21:02:03.71	335.86	3.30	-48.2	-50.8	6.2	0.00e+00	0	48	104	37153144832	67	20072
2026-01-27 21:02:04.69	335.95	3.24	-48.2	-50.8	6.2	0.00e+00	0	47	104	37153144832	67	19956
2026-01-27 21:02:05.68	336.04	3.18	-48.2	-50.8	6.2	0.00e+00	0	47	104	37153144832	67	19998
2026-01-27 21:02:06.66	336.14	3.11	-48.2	-50.8	6.2	0.00e+00	0	47	104	37153144832	67	19971
2026-01-27 21:02:07.64	336.23	3.05	-48.2	-50.8	6.2	0.00e+00	0	47	104	37153144832	67	19979
2026-01-27 21:02:08.62	336.32	2.99	-48.2	-50.8	6.2	0.00e+00	0	47	104	37153144832	67	19953
2026-01-27 21:02:09.60	336.41	2.93	-48.2	-50.8	6.2	0.00e+00	0	47	104	37153144832	67	19979
2026-01-27 21:02:10.59	336.50	2.87	-48.2	-50.7	6.2	0.00e+00	0	47	104	37153144832	67	19932
2026-01-27 21:02:11.58	336.59	2.81	-48.2	-50.8	6.2	0.00e+00	0	47	104	37153144832	67	19934
2026-01-27 21:02:12.56	336.68	2.75	-48.2	-50.7	6.2	0.00e+00	0	48	104	37153144832	67	19873
2026-01-27 21:02:13.54	336.76	2.69	-48.2	-50.7	6.2	0.00e+00	0	47	104	37153144832	67	19849
2026-01-27 21:02:14.53	336.85	2.63	-48.2	-50.7	6.2	0.00e+00	0	48	104	37153144832	67	19828
2026-01-27 21:02:15.51	336.94	2.57	-48.2	-50.7	6.2	0.00e+00	0	48	104	37153144832	67	19882
2026-01-27 21:02:16.50	337.03	2.51	-48.2	-50.7	6.2	0.00e+00	0	47	104	37153144832	67	19798
2026-01-27 21:02:17.48	337.11	2.45	-48.2	-50.7	6.2	0.00e+00	0	48	104	37153144832	67	19828
2026-01-27 21:02:18.46	337.20	2.39	-48.2	-50.7	6.2	0.00e+00	0	47	104	37153144832	67	19814
2026-01-27 21:02:19.45	337.29	2.33	-48.2	-50.7	6.2	0.00e+00	0	48	104	37153144832	67	19852
2026-01-27 21:02:20.43	337.37	2.27	-48.2	-50.7	6.2	0.00e+00	0	47	104	37153144832	67	19863
2026-01-27 21:02:21.41	337.46	2.22	-48.2	-50.7	6.2	0.00e+00	0	47	104	37153144832	67	19849
2026-01-27 21:02:22.39	337.54	2.16	-48.2	-50.7	6.2	0.00e+00	0	47	104	37153144832	67	19816
2026-01-27 21:02:23.38	337.63	2.10	-48.2	-50.7	6.2	0.00e+00	0	47	104	37153144832	67	19809
2026-01-27 21:02:24.36	337.71	2.04	-48.2	-50.7	6.2	0.00e+00	0	48	104	37153144832	67	19871
2026-01-27 21:02:25.34	337.79	1.98	-48.2	-50.7	6.2	0.00e+00	0	47	104	37153144832	67	19768

#Closed at: 2026-01-27 21:02:25
#Recorded file [37153 MB]: D:/lorett/data/31045_260127_235220.dat