passes_logs/2026/01/27/R3.2S_Murmansk_2ch/R3.2S_Murmansk_2ch__20260127_200549_JL1KF02B01_rec.log

#Pass ID: 20260127_200549_JL1KF02B01
#Satellite: JL1KF02B01
#Configuration: 01B_900M
#almurnet v.1.7.20251203
#Start time: 2026-01-27 20:05:50

#Version: 2.2.20231116
#Station: R3.2S_Murmansk_2ch
#Location: 33.079688 lon 68.888172 lat
#TLE: 1 61191U 24169C   26027.49698189  .00007214  00000+0  45035-3 0  9994
#TLE: 2 61191  97.5610 118.8922 0014755  84.4927 275.7985 15.09703311 74605

#Time	Az	El	Level	Level2	SNR	BER	BlckErr	Temp	State	Recorded	gain1	gain2
2026-01-27 20:05:50.16	163.09	2.08	-47.5	-50.0	6.2	0.00e+00	0	44	0	0	67	18337
2026-01-27 20:05:51.16	163.10	2.15	-46.8	-49.4	6.2	0.00e+00	0	44	104	0	65	19125
2026-01-27 20:05:52.17	163.12	2.22	-46.5	-49.0	6.2	0.00e+00	0	44	104	0	65	18344
2026-01-27 20:05:53.18	163.13	2.29	-46.3	-48.8	6.2	0.00e+00	0	44	104	0	64	19033
2026-01-27 20:05:54.19	163.15	2.36	-46.3	-48.8	6.2	0.00e+00	0	44	104	0	64	19021
2026-01-27 20:05:55.20	163.16	2.43	-46.3	-48.9	6.2	0.00e+00	0	44	104	0	64	19047
2026-01-27 20:05:56.21	163.18	2.50	-46.3	-48.8	6.2	0.00e+00	0	44	104	0	64	19008
2026-01-27 20:05:57.22	163.19	2.57	-46.3	-48.8	6.2	0.00e+00	0	44	104	0	64	18998
2026-01-27 20:05:58.24	163.21	2.65	-46.3	-48.8	6.2	0.00e+00	0	44	104	0	64	18971
2026-01-27 20:05:59.25	163.22	2.72	-46.3	-48.8	6.2	0.00e+00	0	44	104	0	64	19024
2026-01-27 20:06:00.25	163.24	2.79	-46.3	-48.8	6.2	0.00e+00	0	44	104	0	64	18935
2026-01-27 20:06:01.26	163.26	2.86	-46.3	-48.8	6.2	0.00e+00	0	44	104	0	64	18962
2026-01-27 20:06:02.27	163.27	2.93	-46.3	-48.8	6.2	0.00e+00	0	44	104	0	64	18957
2026-01-27 20:06:03.28	163.29	3.01	-46.3	-48.8	6.2	0.00e+00	0	44	104	0	64	18999
2026-01-27 20:06:04.29	163.30	3.08	-46.3	-48.8	6.2	0.00e+00	0	44	104	0	64	18952
2026-01-27 20:06:05.30	163.32	3.15	-46.3	-48.8	6.2	0.00e+00	0	44	104	0	64	18979
2026-01-27 20:06:06.32	163.34	3.23	-46.3	-48.8	6.2	0.00e+00	0	44	104	0	64	19010
2026-01-27 20:06:07.33	163.35	3.30	-46.3	-48.8	6.2	0.00e+00	0	44	104	0	64	18904
2026-01-27 20:06:08.34	163.37	3.38	-46.3	-48.8	6.2	0.00e+00	0	44	104	0	64	18981
2026-01-27 20:06:09.35	163.39	3.45	-46.3	-48.8	6.2	0.00e+00	0	45	104	0	64	18952
2026-01-27 20:06:10.36	163.40	3.53	-46.3	-48.8	6.2	0.00e+00	0	44	104	0	64	18930
2026-01-27 20:06:11.37	163.42	3.60	-46.3	-48.8	6.2	0.00e+00	0	44	104	0	64	18965
2026-01-27 20:06:12.38	163.44	3.68	-46.3	-48.8	6.2	0.00e+00	0	45	104	0	64	18889
2026-01-27 20:06:13.39	163.45	3.75	-46.2	-48.8	6.2	0.00e+00	0	45	104	0	64	18894
2026-01-27 20:06:14.40	163.47	3.83	-46.2	-48.8	6.2	0.00e+00	0	45	104	0	64	18912
2026-01-27 20:06:15.41	163.49	3.91	-46.2	-48.8	6.2	0.00e+00	0	45	104	0	64	18825
2026-01-27 20:06:16.42	163.50	3.98	-46.2	-48.8	6.2	0.00e+00	0	45	104	0	64	18831
2026-01-27 20:06:17.43	163.52	4.06	-46.2	-48.8	6.2	0.00e+00	0	45	104	0	64	18927
2026-01-27 20:06:18.44	163.54	4.14	-46.2	-48.8	6.2	0.00e+00	0	45	104	0	64	18877
2026-01-27 20:06:19.45	163.55	4.21	-46.2	-48.8	6.2	0.00e+00	0	45	104	0	64	18882
2026-01-27 20:06:20.46	163.57	4.29	-46.2	-48.8	6.2	0.00e+00	0	45	104	0	64	18923
2026-01-27 20:06:21.47	163.59	4.37	-46.2	-48.8	6.2	0.00e+00	0	45	104	0	64	18834
2026-01-27 20:06:22.48	163.61	4.45	-46.2	-48.8	6.2	0.00e+00	0	45	104	0	64	18941
2026-01-27 20:06:23.50	163.62	4.53	-46.2	-48.8	6.2	0.00e+00	0	45	104	0	64	18856
2026-01-27 20:06:24.51	163.64	4.61	-46.2	-48.8	6.2	0.00e+00	0	45	104	0	64	18866
2026-01-27 20:06:25.52	163.66	4.68	-46.2	-48.7	6.2	0.00e+00	0	45	104	0	64	18791
2026-01-27 20:06:26.53	163.68	4.76	-46.2	-48.8	6.2	0.00e+00	0	45	104	0	64	18876
2026-01-27 20:06:27.54	163.70	4.84	-46.2	-48.8	6.2	0.00e+00	0	45	104	0	64	18838
2026-01-27 20:06:28.55	163.71	4.92	-46.2	-48.7	6.2	0.00e+00	0	45	104	0	64	18749
2026-01-27 20:06:29.56	163.73	5.00	-46.2	-48.7	6.2	0.00e+00	0	45	104	0	64	18807
2026-01-27 20:06:30.57	163.75	5.09	-46.2	-48.8	6.2	0.00e+00	0	45	104	0	64	18894
2026-01-27 20:06:31.58	163.77	5.17	-46.4	-48.9	6.2	0.00e+00	0	45	104	0	64	19151
2026-01-27 20:06:32.59	163.79	5.25	-46.2	-48.7	6.2	0.00e+00	0	45	104	0	64	18781
2026-01-27 20:06:33.60	163.81	5.33	-46.2	-48.8	6.2	0.00e+00	0	45	104	0	64	18875
2026-01-27 20:06:34.61	163.83	5.41	-46.3	-48.8	6.2	0.00e+00	0	45	104	0	64	19009
2026-01-27 20:06:35.62	163.84	5.49	-46.4	-48.9	6.2	0.00e+00	0	45	104	0	64	19191
2026-01-27 20:06:36.63	163.86	5.58	-46.2	-48.7	6.2	0.00e+00	0	45	104	0	64	18804
2026-01-27 20:06:37.64	163.88	5.66	-46.2	-48.8	6.2	0.00e+00	0	45	104	0	64	18875
2026-01-27 20:06:38.65	163.90	5.74	-46.3	-48.9	6.2	0.00e+00	0	45	104	0	64	19038
2026-01-27 20:06:39.66	163.92	5.83	-46.4	-48.9	6.2	0.00e+00	0	45	104	0	64	19250
2026-01-27 20:06:40.67	163.94	5.91	-46.2	-48.7	6.2	0.00e+00	0	46	104	0	64	18779
2026-01-27 20:06:41.68	163.96	5.99	-46.3	-48.8	6.2	0.00e+00	0	45	104	0	64	18975
2026-01-27 20:06:42.69	163.98	6.08	-46.3	-48.8	6.2	0.00e+00	0	45	104	0	64	18990
2026-01-27 20:06:43.70	164.00	6.16	-46.4	-48.9	6.2	0.00e+00	0	45	104	0	64	19188
2026-01-27 20:06:44.72	164.02	6.25	-46.2	-48.8	6.2	0.00e+00	0	45	104	0	64	18852
2026-01-27 20:06:45.73	164.04	6.34	-46.3	-48.8	6.2	0.00e+00	0	45	104	0	64	18957
2026-01-27 20:06:46.73	164.06	6.42	-46.3	-48.9	6.2	0.00e+00	0	46	104	0	64	19065
2026-01-27 20:06:47.74	164.08	6.51	-46.4	-49.0	6.2	0.00e+00	0	45	104	0	64	19299
2026-01-27 20:06:48.75	164.10	6.60	-46.3	-48.8	6.2	0.00e+00	0	45	104	0	64	18986
2026-01-27 20:06:49.76	164.12	6.68	-46.3	-48.8	6.2	0.00e+00	0	45	104	0	64	19016
2026-01-27 20:06:50.77	164.14	6.77	-46.3	-48.9	6.2	0.00e+00	0	46	104	0	64	19117
2026-01-27 20:06:51.78	164.16	6.86	-46.4	-48.9	6.2	0.00e+00	0	46	104	0	64	19226
2026-01-27 20:06:52.79	164.18	6.95	-46.3	-48.8	6.2	0.00e+00	0	46	104	0	64	18987
2026-01-27 20:06:53.80	164.20	7.04	-46.3	-48.9	6.2	0.00e+00	0	46	104	0	64	19043
2026-01-27 20:06:54.81	164.22	7.12	-46.3	-48.9	6.2	0.00e+00	0	46	104	0	64	19157
2026-01-27 20:06:55.82	164.25	7.21	-46.4	-49.0	6.2	0.00e+00	0	46	104	0	64	19331
2026-01-27 20:06:56.83	164.27	7.30	-46.3	-48.9	6.2	0.00e+00	0	46	104	0	64	19042
2026-01-27 20:06:57.84	164.29	7.39	-46.3	-48.9	6.2	0.00e+00	0	45	104	0	64	19105
2026-01-27 20:06:58.85	164.31	7.49	-46.4	-49.0	6.2	0.00e+00	0	46	104	0	64	19290
2026-01-27 20:06:59.86	164.33	7.58	-46.4	-49.0	6.2	0.00e+00	0	46	104	0	64	19403
2026-01-27 20:07:00.87	164.35	7.67	-46.4	-48.9	6.2	0.00e+00	0	45	104	0	64	19164
2026-01-27 20:07:01.88	164.38	7.76	-46.4	-48.9	6.2	0.00e+00	0	46	104	0	64	19248
2026-01-27 20:07:02.89	164.40	7.85	-46.4	-49.0	6.2	0.00e+00	0	46	104	0	64	19346
2026-01-27 20:07:03.90	164.42	7.95	-46.4	-49.0	6.2	0.00e+00	0	46	104	0	64	19397
2026-01-27 20:07:04.91	164.44	8.04	-46.4	-48.9	6.2	0.00e+00	0	46	104	0	64	19161
2026-01-27 20:07:05.92	164.47	8.13	-46.4	-48.9	6.2	0.00e+00	0	46	104	0	64	19246
2026-01-27 20:07:06.93	164.49	8.23	-40.2	-40.9	7.5	0.00e+00	0	46	104	0	52	15158
2026-01-27 20:07:07.94	164.51	8.32	-39.7	-40.3	7.0	0.00e+00	0	46	104	0	51	15091
2026-01-27 20:07:08.95	164.53	8.42	-39.7	-40.4	7.0	0.00e+00	0	46	104	0	51	15192
2026-01-27 20:07:09.96	164.56	8.51	-39.5	-40.2	7.0	0.00e+00	0	46	104	0	51	14881
2026-01-27 20:07:10.97	164.58	8.61	-39.3	-40.0	7.0	0.00e+00	0	46	104	0	50	15413
2026-01-27 20:07:11.98	164.60	8.71	-39.4	-40.1	7.1	0.00e+00	0	46	104	0	50	15637
2026-01-27 20:07:12.99	164.63	8.80	-42.1	-43.1	6.7	0.00e+00	0	46	104	0	56	15549
2026-01-27 20:07:13.98	164.65	8.90	-39.3	-40.0	7.0	0.00e+00	0	46	104	0	50	15384
2026-01-27 20:07:14.99	164.68	9.00	-40.6	-41.3	6.9	0.00e+00	0	46	104	0	53	15112
2026-01-27 20:07:16.00	164.70	9.10	-39.2	-39.9	7.0	0.00e+00	0	46	104	0	50	15137
2026-01-27 20:07:17.01	164.72	9.20	-38.9	-39.5	7.0	0.00e+00	0	46	104	0	49	15397
2026-01-27 20:07:18.02	164.75	9.30	-38.9	-39.5	7.1	0.00e+00	0	46	104	0	49	15449
2026-01-27 20:07:19.03	164.77	9.40	-38.6	-39.2	7.6	0.00e+00	0	46	104	0	49	14897
2026-01-27 20:07:20.04	164.80	9.50	-39.7	-40.4	7.3	0.00e+00	0	46	104	0	49	17059
2026-01-27 20:07:21.05	164.82	9.60	-41.9	-42.8	7.0	0.00e+00	0	46	104	0	55	15999
2026-01-27 20:07:22.07	164.85	9.70	-38.4	-38.9	7.5	0.00e+00	0	46	104	0	48	15213
2026-01-27 20:07:23.07	164.87	9.80	-29.3	-29.4	13.1	1.06e-03	0	46	0	16777216	30	14381
2026-01-27 20:07:24.08	164.90	9.91	-28.6	-28.7	13.6	6.37e-04	0	46	0	134217728	29	14027
2026-01-27 20:07:25.10	164.93	10.01	-28.7	-28.8	13.5	8.01e-04	0	46	0	251658240	28	15097
2026-01-27 20:07:26.11	164.95	10.11	-29.0	-29.1	13.3	8.14e-04	0	46	0	360710144	28	15625
2026-01-27 20:07:27.12	164.98	10.22	-29.2	-29.3	13.1	1.39e-03	0	46	0	469762048	29	15013
2026-01-27 20:07:28.13	165.01	10.32	-28.9	-29.0	13.1	8.62e-04	0	46	0	587202560	28	15383
2026-01-27 20:07:29.14	165.03	10.43	-28.5	-28.6	13.4	6.79e-04	0	46	0	704643072	27	15559
2026-01-27 20:07:30.15	165.06	10.54	-27.2	-27.3	14.4	2.63e-04	0	46	0	813694976	26	14137
2026-01-27 20:07:31.16	165.09	10.64	-28.0	-28.1	13.8	4.67e-04	0	46	0	931135488	26	15519
2026-01-27 20:07:32.17	165.11	10.75	-27.6	-27.7	13.9	4.35e-04	0	46	0	1040187392	26	14799
2026-01-27 20:07:33.18	165.14	10.86	-27.3	-27.4	14.3	2.76e-04	0	46	0	1157627904	26	14316
2026-01-27 20:07:34.20	165.17	10.97	-27.3	-27.4	14.2	2.55e-04	0	46	0	1275068416	26	14380
2026-01-27 20:07:35.21	165.20	11.08	-27.4	-27.5	14.0	2.55e-04	0	46	0	1384120320	25	15413
2026-01-27 20:07:36.22	165.22	11.19	-26.0	-26.0	14.8	4.38e-05	0	46	0	1493172224	23	14579
2026-01-27 20:07:37.23	165.25	11.30	-25.7	-25.8	15.3	4.19e-05	0	46	0	1610612736	22	14983
2026-01-27 20:07:38.24	165.28	11.41	-25.4	-25.5	15.3	3.62e-05	0	46	0	1728053248	22	14516
2026-01-27 20:07:39.25	165.31	11.52	-26.0	-26.1	15.1	3.05e-05	0	46	0	1837105152	22	15479
2026-01-27 20:07:40.26	165.34	11.63	-24.7	-24.8	15.9	2.09e-05	0	46	0	1954545664	21	14194
2026-01-27 20:07:41.27	165.37	11.75	-23.8	-23.9	16.2	5.70e-06	0	46	0	2063597568	19	14357
2026-01-27 20:07:42.28	165.40	11.86	-23.3	-23.4	16.5	1.90e-06	0	46	0	2181038080	18	14396
2026-01-27 20:07:43.29	165.43	11.98	-23.0	-23.1	16.8	0.00e+00	0	46	0	2298478592	18	13867
2026-01-27 20:07:44.30	165.46	12.09	-23.1	-23.1	16.8	0.00e+00	0	46	0	2407530496	18	13924
2026-01-27 20:07:45.31	165.49	12.21	-22.8	-22.9	16.9	3.80e-06	0	46	0	2516582400	17	14370
2026-01-27 20:07:46.32	165.52	12.32	-22.7	-22.8	17.1	0.00e+00	0	46	0	2634022912	17	14181
2026-01-27 20:07:47.34	165.55	12.44	-22.7	-22.8	16.7	1.90e-06	0	46	0	2751463424	17	14176
2026-01-27 20:07:48.34	165.58	12.56	-22.7	-22.8	17.0	1.90e-06	0	47	0	2860515328	17	14191
2026-01-27 20:07:49.36	165.61	12.68	-22.7	-22.7	16.8	0.00e+00	0	46	0	2977955840	17	14067
2026-01-27 20:07:50.37	165.64	12.80	-22.7	-22.7	16.8	0.00e+00	0	47	0	3087007744	17	14069
2026-01-27 20:07:51.38	165.67	12.92	-22.6	-22.7	16.5	0.00e+00	0	47	0	3204448256	17	13970
2026-01-27 20:07:52.39	165.71	13.04	-22.5	-22.5	16.4	0.00e+00	0	46	0	3321888768	17	13777
2026-01-27 20:07:53.40	165.74	13.16	-22.5	-22.6	16.4	1.90e-06	0	46	0	3430940672	16	14646
2026-01-27 20:07:54.41	165.77	13.29	-22.4	-22.5	16.4	1.90e-06	0	46	0	3539992576	16	14464
2026-01-27 20:07:55.42	165.80	13.41	-22.3	-22.4	16.4	3.80e-06	0	47	0	3657433088	16	14275
2026-01-27 20:07:56.43	165.84	13.53	-22.2	-22.3	16.4	0.00e+00	0	47	0	3766484992	16	14175
2026-01-27 20:07:57.44	165.87	13.66	-22.3	-22.3	16.3	0.00e+00	0	46	0	3883925504	16	14261
2026-01-27 20:07:58.45	165.90	13.79	-22.1	-22.2	16.5	0.00e+00	0	47	0	4001366016	16	14060
2026-01-27 20:07:59.46	165.94	13.91	-22.2	-22.3	16.5	0.00e+00	0	47	0	4110417920	16	14152
2026-01-27 20:08:00.47	165.97	14.04	-22.1	-22.2	16.4	0.00e+00	0	46	0	4227858432	16	14003
2026-01-27 20:08:01.48	166.01	14.17	-22.1	-22.2	16.8	0.00e+00	0	47	0	4336910336	16	14000
2026-01-27 20:08:02.49	166.04	14.30	-22.0	-22.0	16.7	0.00e+00	0	47	0	4454350848	16	13759
2026-01-27 20:08:03.50	166.08	14.43	-21.8	-21.9	16.9	0.00e+00	0	47	0	4563402752	15	14368
2026-01-27 20:08:04.51	166.11	14.56	-21.8	-21.8	16.9	0.00e+00	0	47	0	4680843264	15	14274
2026-01-27 20:08:05.53	166.15	14.69	-21.7	-21.8	16.8	0.00e+00	0	47	0	4789895168	15	14208
2026-01-27 20:08:06.54	166.18	14.82	-21.8	-21.9	16.8	0.00e+00	0	47	0	4907335680	15	14337
2026-01-27 20:08:07.55	166.22	14.96	-21.7	-21.7	16.8	0.00e+00	0	47	0	5024776192	15	14109
2026-01-27 20:08:08.56	166.26	15.09	-21.6	-21.7	16.9	0.00e+00	0	47	0	5133828096	15	13956
2026-01-27 20:08:09.57	166.30	15.23	-21.6	-21.7	16.8	0.00e+00	0	47	0	5251268608	15	13956
2026-01-27 20:08:10.58	166.33	15.37	-21.6	-21.6	16.7	1.90e-06	0	47	0	5360320512	15	13941
2026-01-27 20:08:11.59	166.37	15.50	-21.5	-21.6	16.6	5.70e-06	0	47	0	5477761024	15	13870
2026-01-27 20:08:12.60	166.41	15.64	-21.3	-21.4	16.7	3.80e-06	0	47	0	5595201536	14	14284
2026-01-27 20:08:13.61	166.45	15.78	-21.3	-21.4	16.7	0.00e+00	0	47	0	5704253440	14	14374
2026-01-27 20:08:14.62	166.49	15.92	-21.4	-21.5	16.7	0.00e+00	0	47	0	5813305344	14	14466
2026-01-27 20:08:15.63	166.53	16.06	-21.3	-21.4	16.8	1.90e-06	0	47	0	5930745856	14	14307
2026-01-27 20:08:16.64	166.57	16.21	-21.2	-21.2	17.2	0.00e+00	0	47	0	6048186368	14	14109
2026-01-27 20:08:17.66	166.61	16.35	-21.0	-21.1	17.1	0.00e+00	0	47	0	6157238272	14	13828
2026-01-27 20:08:18.67	166.65	16.50	-21.0	-21.1	17.1	0.00e+00	0	47	0	6274678784	14	13873
2026-01-27 20:08:19.68	166.69	16.64	-21.1	-21.1	17.4	0.00e+00	0	47	0	6383730688	14	13907
2026-01-27 20:08:20.69	166.73	16.79	-21.0	-21.0	17.4	0.00e+00	0	47	0	6501171200	13	14577
2026-01-27 20:08:21.70	166.77	16.94	-21.0	-21.1	17.2	0.00e+00	0	47	0	6618611712	13	14678
2026-01-27 20:08:22.71	166.82	17.09	-20.7	-20.8	17.4	0.00e+00	0	47	0	6727663616	13	14207
2026-01-27 20:08:23.72	166.86	17.24	-20.7	-20.7	17.5	0.00e+00	0	47	0	6836715520	13	14071
2026-01-27 20:08:24.73	166.90	17.39	-20.7	-20.8	17.4	0.00e+00	0	46	0	6954156032	13	14145
2026-01-27 20:08:25.74	166.95	17.54	-20.7	-20.8	17.5	0.00e+00	0	47	0	7071596544	13	14150
2026-01-27 20:08:26.75	166.99	17.69	-20.7	-20.7	17.3	0.00e+00	0	47	0	7180648448	13	14097
2026-01-27 20:08:27.76	167.03	17.85	-20.4	-20.5	17.3	0.00e+00	0	47	0	7298088960	12	14475
2026-01-27 20:08:28.77	167.08	18.01	-20.5	-20.6	17.4	0.00e+00	0	47	0	7407140864	12	14652
2026-01-27 20:08:29.78	167.12	18.16	-20.4	-20.5	17.6	0.00e+00	0	47	0	7524581376	12	14475
2026-01-27 20:08:30.79	167.17	18.32	-20.4	-20.5	17.6	0.00e+00	0	47	0	7642021888	12	14519
2026-01-27 20:08:31.80	167.22	18.48	-20.3	-20.4	17.6	0.00e+00	0	47	0	7751073792	12	14373
2026-01-27 20:08:32.81	167.26	18.64	-20.2	-20.3	17.9	0.00e+00	0	47	0	7860125696	12	14159
2026-01-27 20:08:33.82	167.31	18.81	-20.4	-20.5	17.9	0.00e+00	0	47	0	7977566208	12	14453
2026-01-27 20:08:34.83	167.36	18.97	-20.1	-20.1	17.9	0.00e+00	0	47	0	8086618112	12	13925
2026-01-27 20:08:35.84	167.41	19.14	-20.0	-20.1	18.1	0.00e+00	0	47	0	8204058624	12	13826
2026-01-27 20:08:36.85	167.46	19.30	-20.0	-20.1	18.0	0.00e+00	0	47	0	8321499136	12	13877
2026-01-27 20:08:37.86	167.51	19.47	-20.1	-20.1	17.8	0.00e+00	0	47	0	8430551040	11	14764
2026-01-27 20:08:38.87	167.56	19.64	-20.0	-20.1	18.0	0.00e+00	0	47	0	8547991552	11	14709
2026-01-27 20:08:39.88	167.61	19.81	-20.0	-20.1	18.0	0.00e+00	0	47	0	8665432064	11	14634
2026-01-27 20:08:40.89	167.66	19.98	-20.1	-20.2	17.8	0.00e+00	0	47	0	8774483968	11	14849
2026-01-27 20:08:41.91	167.72	20.16	-20.0	-20.0	17.9	0.00e+00	0	47	0	8891924480	11	14582
2026-01-27 20:08:42.92	167.77	20.33	-20.0	-20.0	17.8	0.00e+00	0	47	0	9000976384	11	14605
2026-01-27 20:08:43.93	167.82	20.51	-20.0	-20.0	18.0	0.00e+00	0	47	0	9110028288	11	14547
2026-01-27 20:08:44.94	167.88	20.69	-19.7	-19.8	18.2	0.00e+00	0	47	0	9227468800	11	14190
2026-01-27 20:08:45.95	167.93	20.87	-19.6	-19.7	17.9	0.00e+00	0	47	0	9344909312	11	13956
2026-01-27 20:08:46.96	167.99	21.05	-19.6	-19.7	18.0	0.00e+00	0	47	0	9453961216	11	14053
2026-01-27 20:08:47.97	168.04	21.23	-19.6	-19.7	18.2	0.00e+00	0	47	0	9571401728	11	14006
2026-01-27 20:08:48.98	168.10	21.42	-19.5	-19.6	18.2	0.00e+00	0	47	0	9680453632	11	13822
2026-01-27 20:08:49.99	168.16	21.60	-19.6	-19.7	17.9	0.00e+00	0	47	0	9797894144	11	14043
2026-01-27 20:08:51.00	168.22	21.79	-19.6	-19.7	18.0	0.00e+00	0	47	0	9915334656	11	13979
2026-01-27 20:08:52.01	168.27	21.98	-19.2	-19.3	18.0	0.00e+00	0	47	0	10024386560	10	14204
2026-01-27 20:08:53.02	168.33	22.17	-19.1	-19.2	18.1	0.00e+00	0	47	0	10133438464	10	14027
2026-01-27 20:08:54.03	168.40	22.36	-19.2	-19.3	18.1	0.00e+00	0	47	0	10250878976	10	14175
2026-01-27 20:08:55.04	168.46	22.56	-19.0	-19.1	18.0	0.00e+00	0	47	0	10368319488	10	13862
2026-01-27 20:08:56.05	168.52	22.75	-18.9	-19.0	18.1	0.00e+00	0	47	0	10477371392	9	14501
2026-01-27 20:08:57.06	168.58	22.95	-18.8	-18.8	18.2	0.00e+00	0	47	0	10594811904	9	14269
2026-01-27 20:08:58.07	168.65	23.15	-18.8	-18.9	18.0	0.00e+00	0	47	0	10703863808	9	14344
2026-01-27 20:08:59.09	168.71	23.36	-18.8	-18.9	18.1	0.00e+00	0	47	0	10821304320	9	14317
2026-01-27 20:09:00.10	168.78	23.56	-18.8	-18.9	17.8	0.00e+00	0	47	0	10938744832	9	14299
2026-01-27 20:09:01.11	168.84	23.77	-18.7	-18.8	17.8	0.00e+00	0	47	0	11047796736	9	14167
2026-01-27 20:09:02.12	168.91	23.97	-18.7	-18.7	18.2	0.00e+00	0	47	0	11156848640	9	14100
2026-01-27 20:09:03.13	168.98	24.18	-18.5	-18.6	18.0	0.00e+00	0	47	0	11274289152	9	13878
2026-01-27 20:09:04.14	169.05	24.40	-18.3	-18.4	17.9	0.00e+00	0	47	0	11391729664	8	14385
2026-01-27 20:09:05.15	169.12	24.61	-18.3	-18.4	18.1	0.00e+00	0	47	0	11500781568	8	14333
2026-01-27 20:09:06.16	169.19	24.83	-18.4	-18.5	17.9	0.00e+00	0	47	0	11618222080	8	14444
2026-01-27 20:09:07.17	169.26	25.04	-18.2	-18.2	18.4	0.00e+00	0	47	0	11727273984	8	14100
2026-01-27 20:09:08.18	169.34	25.26	-18.1	-18.2	18.0	0.00e+00	0	47	0	11844714496	8	13961
2026-01-27 20:09:09.19	169.41	25.49	-18.1	-18.2	18.2	0.00e+00	0	47	0	11962155008	8	14019
2026-01-27 20:09:10.21	169.49	25.71	-18.0	-18.0	17.9	0.00e+00	0	47	0	12071206912	8	13777
2026-01-27 20:09:11.21	169.56	25.94	-18.0	-18.1	18.0	0.00e+00	0	47	0	12180258816	7	14619
2026-01-27 20:09:12.22	169.64	26.17	-17.9	-18.0	18.4	0.00e+00	0	47	0	12297699328	7	14473
2026-01-27 20:09:13.23	169.72	26.40	-17.9	-17.9	18.0	0.00e+00	0	47	0	12415139840	7	14415
2026-01-27 20:09:14.25	169.80	26.63	-17.9	-17.9	18.0	0.00e+00	0	47	0	12524191744	7	14427
2026-01-27 20:09:15.26	169.88	26.87	-17.7	-17.8	18.1	0.00e+00	0	47	0	12641632256	7	14145
2026-01-27 20:09:16.27	169.97	27.11	-17.7	-17.7	18.0	0.00e+00	0	47	0	12750684160	7	14104
2026-01-27 20:09:17.28	170.05	27.35	-17.7	-17.7	18.1	0.00e+00	0	47	0	12868124672	7	14108
2026-01-27 20:09:18.29	170.14	27.59	-17.4	-17.4	18.4	0.00e+00	0	47	0	12985565184	6	14422
2026-01-27 20:09:19.30	170.22	27.84	-17.4	-17.4	18.4	0.00e+00	0	47	0	13094617088	6	14410
2026-01-27 20:09:20.31	170.31	28.09	-17.4	-17.4	18.2	0.00e+00	0	47	0	13212057600	6	14429
2026-01-27 20:09:21.32	170.40	28.34	-17.3	-17.4	18.1	0.00e+00	0	47	0	13321109504	6	14333
2026-01-27 20:09:22.33	170.49	28.59	-17.4	-17.4	18.1	0.00e+00	0	47	0	13430161408	6	14412
2026-01-27 20:09:23.34	170.59	28.85	-17.1	-17.2	18.2	0.00e+00	0	47	0	13547601920	6	14043
2026-01-27 20:09:24.35	170.68	29.11	-17.1	-17.1	18.3	0.00e+00	0	47	0	13665042432	6	13946
2026-01-27 20:09:25.36	170.78	29.37	-16.9	-17.0	18.6	0.00e+00	0	47	0	13774094336	5	14516
2026-01-27 20:09:26.37	170.87	29.63	-16.9	-17.0	18.2	0.00e+00	0	47	0	13891534848	5	14524
2026-01-27 20:09:27.38	170.97	29.90	-16.8	-16.9	18.4	0.00e+00	0	47	0	14000586752	5	14323
2026-01-27 20:09:28.39	171.07	30.17	-17.0	-17.1	18.4	0.00e+00	0	47	0	14118027264	5	14636
2026-01-27 20:09:29.40	171.17	30.44	-16.9	-17.0	18.4	0.00e+00	0	47	0	14235467776	5	14508
2026-01-27 20:09:30.41	171.28	30.72	-16.7	-16.8	18.4	0.00e+00	0	47	0	14344519680	5	14139
2026-01-27 20:09:31.42	171.39	31.00	-16.7	-16.7	18.3	0.00e+00	0	47	0	14453571584	5	14072
2026-01-27 20:09:32.43	171.49	31.28	-16.4	-16.5	18.2	0.00e+00	0	47	0	14571012096	4	14449
2026-01-27 20:09:33.44	171.60	31.57	-16.4	-16.4	18.5	0.00e+00	0	47	0	14688452608	4	14434
2026-01-27 20:09:34.45	171.72	31.85	-16.3	-16.4	18.5	0.00e+00	0	47	0	14797504512	4	14362
2026-01-27 20:09:35.47	171.83	32.15	-16.1	-16.2	18.5	0.00e+00	0	47	0	14914945024	4	13970
2026-01-27 20:09:36.48	171.95	32.44	-16.1	-16.1	18.9	0.00e+00	0	47	0	15023996928	4	13920
2026-01-27 20:09:37.49	172.07	32.74	-16.0	-16.1	18.6	0.00e+00	0	47	0	15141437440	4	13858
2026-01-27 20:09:38.50	172.19	33.04	-16.1	-16.2	18.7	0.00e+00	0	47	0	15258877952	3	14778
2026-01-27 20:09:39.51	172.31	33.35	-16.0	-16.1	18.9	0.00e+00	0	47	0	15367929856	3	14694
2026-01-27 20:09:40.52	172.44	33.66	-15.9	-16.0	19.0	0.00e+00	0	47	0	15476981760	3	14510
2026-01-27 20:09:41.53	172.56	33.97	-15.9	-16.0	19.0	0.00e+00	0	47	0	15594422272	3	14464
2026-01-27 20:09:42.54	172.69	34.28	-16.0	-16.1	19.0	0.00e+00	0	47	0	15711862784	3	14681
2026-01-27 20:09:43.55	172.83	34.60	-15.7	-15.8	19.0	0.00e+00	0	47	0	15820914688	3	14147
2026-01-27 20:09:44.56	172.96	34.92	-15.8	-15.8	19.1	0.00e+00	0	47	0	15938355200	3	14240
2026-01-27 20:09:45.57	173.10	35.25	-15.7	-15.8	19.1	0.00e+00	0	47	0	16047407104	3	14145
2026-01-27 20:09:46.59	173.25	35.58	-15.5	-15.6	19.4	0.00e+00	0	47	0	16164847616	3	13861
2026-01-27 20:09:47.60	173.39	35.92	-15.6	-15.6	19.5	0.00e+00	0	47	0	16282288128	3	13943
2026-01-27 20:09:48.60	173.54	36.25	-15.4	-15.5	19.5	0.00e+00	0	47	0	16391340032	2	14465
2026-01-27 20:09:49.62	173.69	36.60	-15.4	-15.4	19.2	0.00e+00	0	47	0	16500391936	2	14432
2026-01-27 20:09:50.62	173.84	36.94	-15.2	-15.3	19.0	0.00e+00	0	47	0	16617832448	2	14180
2026-01-27 20:09:51.63	174.00	37.29	-15.1	-15.2	18.9	0.00e+00	0	47	0	16735272960	2	13986
2026-01-27 20:09:52.65	174.16	37.64	-15.1	-15.1	19.0	0.00e+00	0	47	0	16844324864	2	13912
2026-01-27 20:09:53.66	174.33	38.00	-15.1	-15.1	19.3	0.00e+00	0	47	0	16961765376	2	13899
2026-01-27 20:09:54.67	174.50	38.36	-15.0	-15.1	19.4	0.00e+00	0	47	0	17070817280	1	14613
2026-01-27 20:09:55.68	174.67	38.73	-14.9	-15.0	19.2	0.00e+00	0	47	0	17188257792	1	14458
2026-01-27 20:09:56.69	174.84	39.09	-14.9	-14.9	19.2	0.00e+00	0	47	0	17305698304	1	14437
2026-01-27 20:09:57.70	175.02	39.47	-14.7	-14.8	19.5	0.00e+00	0	47	0	17414750208	1	14163
2026-01-27 20:09:58.71	175.21	39.85	-14.7	-14.7	19.4	0.00e+00	0	47	0	17532190720	1	14061
2026-01-27 20:09:59.72	175.40	40.23	-14.7	-14.7	19.8	0.00e+00	0	47	0	17641242624	1	14102
2026-01-27 20:10:00.73	175.59	40.62	-14.6	-14.7	19.6	0.00e+00	0	47	0	17750294528	1	13972
2026-01-27 20:10:01.74	175.79	41.01	-14.6	-14.6	19.4	0.00e+00	0	47	0	17867735040	1	13913
2026-01-27 20:10:02.75	176.00	41.40	-14.3	-14.3	19.8	0.00e+00	0	47	0	17985175552	0	14254
2026-01-27 20:10:03.76	176.20	41.80	-14.2	-14.3	19.5	0.00e+00	0	47	0	18094227456	0	14127
2026-01-27 20:10:04.77	176.42	42.21	-14.1	-14.2	19.9	0.00e+00	0	47	0	18211667968	0	13972
2026-01-27 20:10:05.78	176.64	42.61	-14.2	-14.3	19.8	0.00e+00	0	47	0	18320719872	0	14127
2026-01-27 20:10:06.79	176.86	43.03	-14.0	-14.1	20.0	0.00e+00	0	47	0	18438160384	0	13817
2026-01-27 20:10:07.80	177.10	43.45	-13.9	-14.0	20.1	0.00e+00	0	47	0	18555600896	0	13678
2026-01-27 20:10:08.81	177.33	43.87	-13.7	-13.8	20.0	0.00e+00	0	47	0	18664652800	0	13403
2026-01-27 20:10:09.82	177.58	44.30	-13.8	-13.8	20.1	0.00e+00	0	47	0	18773704704	0	13474
2026-01-27 20:10:10.83	177.83	44.73	-13.8	-13.8	20.1	0.00e+00	0	47	0	18891145216	0	13451
2026-01-27 20:10:11.84	178.09	45.17	-13.6	-13.7	20.1	0.00e+00	0	47	0	19008585728	0	13234
2026-01-27 20:10:12.86	178.36	45.61	-13.5	-13.6	20.2	0.00e+00	0	47	0	19117637632	0	13053
2026-01-27 20:10:13.87	178.63	46.06	-13.4	-13.4	20.1	0.00e+00	0	47	0	19235078144	0	12818
2026-01-27 20:10:14.88	178.91	46.51	-13.4	-13.5	20.2	0.00e+00	0	47	0	19344130048	0	12924
2026-01-27 20:10:15.89	179.20	46.97	-13.3	-13.4	20.2	0.00e+00	0	47	0	19461570560	0	12751
2026-01-27 20:10:16.90	179.50	47.43	-13.2	-13.3	20.1	0.00e+00	0	47	0	19579011072	0	12651
2026-01-27 20:10:17.91	179.81	47.89	-13.2	-13.2	20.1	0.00e+00	0	47	0	19688062976	0	12561
2026-01-27 20:10:18.92	180.12	48.36	-13.2	-13.3	20.1	0.00e+00	0	47	0	19797114880	0	12607
2026-01-27 20:10:19.93	180.45	48.84	-13.1	-13.1	20.1	0.00e+00	0	47	0	19914555392	0	12392
2026-01-27 20:10:20.94	180.79	49.32	-13.0	-13.0	20.0	0.00e+00	0	47	0	20031995904	0	12257
2026-01-27 20:10:21.95	181.14	49.80	-12.9	-12.9	20.0	0.00e+00	0	47	0	20141047808	0	12148
2026-01-27 20:10:22.96	181.50	50.29	-13.0	-13.1	20.1	0.00e+00	0	47	0	20258488320	0	12301
2026-01-27 20:10:23.97	181.87	50.78	-13.0	-13.0	20.2	0.00e+00	0	47	0	20367540224	0	12254
2026-01-27 20:10:24.98	182.25	51.28	-12.8	-12.9	20.2	0.00e+00	0	47	0	20484980736	0	12078
2026-01-27 20:10:25.99	182.65	51.78	-12.8	-12.8	20.2	0.00e+00	0	47	0	20602421248	0	11987
2026-01-27 20:10:27.00	183.06	52.29	-12.8	-12.9	20.1	0.00e+00	0	47	0	20711473152	0	12027
2026-01-27 20:10:28.01	183.49	52.80	-12.7	-12.7	20.0	0.00e+00	0	47	0	20820525056	0	11833
2026-01-27 20:10:29.02	183.93	53.32	-12.6	-12.7	20.0	0.00e+00	0	47	0	20937965568	0	11803
2026-01-27 20:10:30.03	184.39	53.84	-12.7	-12.7	19.9	0.00e+00	0	47	0	21047017472	0	11821
2026-01-27 20:10:31.04	184.86	54.36	-12.8	-12.9	19.8	0.00e+00	0	47	0	21164457984	0	12062
2026-01-27 20:10:32.05	185.35	54.89	-12.6	-12.6	19.7	0.00e+00	0	47	0	21281898496	0	11673
2026-01-27 20:10:33.06	185.86	55.42	-12.5	-12.6	19.5	0.00e+00	0	47	0	21390950400	0	11639
2026-01-27 20:10:34.07	186.39	55.95	-12.4	-12.5	19.5	0.00e+00	0	47	0	21508390912	0	11497
2026-01-27 20:10:35.08	186.95	56.49	-12.4	-12.5	19.3	0.00e+00	0	47	0	21617442816	0	11502
2026-01-27 20:10:36.09	187.52	57.03	-12.2	-12.2	19.1	0.00e+00	0	47	0	21734883328	0	11204
2026-01-27 20:10:37.10	188.12	57.57	-12.2	-12.2	19.0	0.00e+00	0	47	0	21843935232	0	11204
2026-01-27 20:10:38.11	188.74	58.12	-12.0	-12.1	18.9	0.00e+00	0	47	0	21961375744	0	11018
2026-01-27 20:10:39.13	189.39	58.67	-12.0	-12.1	18.9	0.00e+00	0	47	0	22070427648	0	10995
2026-01-27 20:10:40.14	190.07	59.22	-12.1	-12.1	18.6	0.00e+00	0	47	0	22187868160	0	11042
2026-01-27 20:10:41.15	190.77	59.78	-11.9	-12.0	18.4	0.00e+00	0	47	0	22305308672	0	10877
2026-01-27 20:10:42.15	191.50	60.32	-11.9	-12.0	18.4	0.00e+00	0	47	0	22414360576	0	10831
2026-01-27 20:10:43.16	192.27	60.88	-11.8	-11.9	18.1	0.00e+00	0	47	0	22531801088	0	10778
2026-01-27 20:10:44.17	193.07	61.43	-11.8	-11.8	17.9	0.00e+00	0	47	0	22640852992	0	10700
2026-01-27 20:10:45.19	193.92	61.99	-11.6	-11.7	18.3	0.00e+00	0	47	0	22758293504	0	10509
2026-01-27 20:10:46.20	194.80	62.55	-11.7	-11.7	17.9	0.00e+00	0	47	0	22875734016	0	10560
2026-01-27 20:10:47.21	195.72	63.10	-11.6	-11.7	17.7	0.00e+00	0	47	0	22984785920	0	10514
2026-01-27 20:10:48.22	196.69	63.65	-11.7	-11.7	17.8	0.00e+00	0	47	0	23093837824	0	10560
2026-01-27 20:10:49.23	197.70	64.20	-11.5	-11.6	17.5	0.00e+00	0	47	0	23211278336	0	10389
2026-01-27 20:10:50.24	198.76	64.75	-11.5	-11.6	17.7	0.00e+00	0	47	0	23328718848	0	10374
2026-01-27 20:10:51.25	199.87	65.29	-11.4	-11.5	17.7	0.00e+00	0	47	0	23437770752	0	10281
2026-01-27 20:10:52.26	201.04	65.83	-11.4	-11.5	17.7	0.00e+00	0	47	0	23555211264	0	10241
2026-01-27 20:10:53.27	202.27	66.36	-11.3	-11.4	17.9	0.00e+00	0	47	0	23664263168	0	10152
2026-01-27 20:10:54.28	203.56	66.88	-11.4	-11.5	17.7	0.00e+00	0	47	0	23773315072	0	10245
2026-01-27 20:10:55.29	204.92	67.40	-11.5	-11.6	17.6	0.00e+00	0	47	0	23899144192	0	10369
2026-01-27 20:10:56.30	206.34	67.91	-11.5	-11.5	17.7	0.00e+00	0	47	0	24008196096	0	10282
2026-01-27 20:10:57.31	207.84	68.41	-11.5	-11.5	17.9	0.00e+00	0	47	0	24117248000	0	10314
2026-01-27 20:10:58.32	209.41	68.90	-11.3	-11.4	17.9	0.00e+00	0	47	0	24234688512	0	10141
2026-01-27 20:10:59.33	211.06	69.37	-11.4	-11.4	17.8	0.00e+00	0	47	0	24343740416	0	10208
2026-01-27 20:11:00.34	212.80	69.84	-11.3	-11.3	17.9	0.00e+00	0	47	0	24461180928	0	10080
2026-01-27 20:11:01.35	214.62	70.28	-11.3	-11.4	17.7	0.00e+00	0	47	0	24578621440	0	10132
2026-01-27 20:11:02.36	216.53	70.71	-11.4	-11.4	18.1	0.00e+00	0	47	0	24687673344	0	10200
2026-01-27 20:11:03.37	218.53	71.12	-11.3	-11.4	18.1	0.00e+00	0	47	0	24805113856	0	10159
2026-01-27 20:11:04.38	220.62	71.51	-11.4	-11.5	17.8	0.00e+00	0	47	0	24922554368	0	10225
2026-01-27 20:11:05.39	222.81	71.87	-11.4	-11.4	17.9	0.00e+00	0	47	0	25031606272	0	10162
2026-01-27 20:11:06.41	225.11	72.22	-11.4	-11.4	18.3	0.00e+00	0	47	0	25140658176	0	10170
2026-01-27 20:11:07.42	227.48	72.53	-11.2	-11.3	18.0	0.00e+00	0	47	0	25258098688	0	10030
2026-01-27 20:11:08.43	229.93	72.82	-11.2	-11.3	18.3	0.00e+00	0	47	0	25367150592	0	10052
2026-01-27 20:11:09.44	232.47	73.07	-11.3	-11.3	18.0	0.00e+00	0	47	0	25484591104	0	10074
2026-01-27 20:11:10.45	235.09	73.30	-11.2	-11.3	18.4	0.00e+00	0	47	0	25602031616	0	10013
2026-01-27 20:11:11.46	237.77	73.49	-11.2	-11.3	18.0	0.00e+00	0	48	0	25711083520	0	10028
2026-01-27 20:11:12.47	240.52	73.64	-11.2	-11.3	18.3	0.00e+00	0	48	0	25828524032	0	10036
2026-01-27 20:11:13.48	243.31	73.76	-11.2	-11.2	18.2	0.00e+00	0	47	0	25937575936	0	9988
2026-01-27 20:11:14.49	246.14	73.85	-11.1	-11.2	18.2	0.00e+00	0	47	0	26055016448	0	9924
2026-01-27 20:11:15.50	248.99	73.89	-11.2	-11.2	18.5	0.00e+00	0	47	0	26164068352	0	9948
2026-01-27 20:11:16.51	251.85	73.90	-11.2	-11.2	18.3	0.00e+00	0	47	0	26281508864	0	9987
2026-01-27 20:11:17.52	254.71	73.87	-11.3	-11.4	18.3	0.00e+00	0	47	0	26390560768	0	10142
2026-01-27 20:11:18.53	257.55	73.80	-11.1	-11.2	18.6	0.00e+00	0	47	0	26508001280	0	9932
2026-01-27 20:11:19.54	260.36	73.69	-11.3	-11.3	18.7	0.00e+00	0	48	0	26625441792	0	10074
2026-01-27 20:11:20.55	263.12	73.55	-11.3	-11.4	18.6	0.00e+00	0	47	0	26734493696	0	10111
2026-01-27 20:11:21.57	265.85	73.37	-11.3	-11.3	18.5	0.00e+00	0	47	0	26851934208	0	10079
2026-01-27 20:11:22.58	268.49	73.15	-11.3	-11.3	18.5	0.00e+00	0	47	0	26960986112	0	10061
2026-01-27 20:11:23.59	271.05	72.91	-11.3	-11.4	18.6	0.00e+00	0	47	0	27078426624	0	10133
2026-01-27 20:11:24.60	273.54	72.63	-11.3	-11.3	18.7	0.00e+00	0	47	0	27195867136	0	10105
2026-01-27 20:11:25.61	275.94	72.33	-11.4	-11.4	18.8	0.00e+00	0	47	0	27304919040	0	10193
2026-01-27 20:11:26.62	278.24	71.99	-11.3	-11.4	18.8	0.00e+00	0	47	0	27413970944	0	10133
2026-01-27 20:11:27.63	280.46	71.64	-11.4	-11.5	18.9	0.00e+00	0	47	0	27531411456	0	10281
2026-01-27 20:11:28.64	282.58	71.26	-11.5	-11.6	19.0	0.00e+00	0	48	0	27648851968	0	10381
2026-01-27 20:11:29.65	284.61	70.85	-11.5	-11.6	18.9	0.00e+00	0	47	0	27757903872	0	10368
2026-01-27 20:11:30.66	286.55	70.43	-11.6	-11.7	19.0	0.00e+00	0	47	0	27875344384	0	10519
2026-01-27 20:11:31.68	288.42	69.99	-11.6	-11.7	19.1	0.00e+00	0	48	0	27984396288	0	10484
2026-01-27 20:11:32.69	290.18	69.53	-11.8	-11.8	19.3	0.00e+00	0	47	0	28101836800	0	10678
2026-01-27 20:11:33.70	291.86	69.06	-11.8	-11.8	19.3	0.00e+00	0	48	0	28219277312	0	10650
2026-01-27 20:11:34.70	293.45	68.58	-11.7	-11.8	19.1	0.00e+00	0	47	0	28328329216	0	10592
2026-01-27 20:11:35.72	294.98	68.08	-11.9	-11.9	19.2	0.00e+00	0	47	0	28437381120	0	10799
2026-01-27 20:11:36.73	296.43	67.58	-11.8	-11.8	19.5	0.00e+00	0	47	0	28554821632	0	10666
2026-01-27 20:11:37.74	297.81	67.06	-11.8	-11.8	19.5	0.00e+00	0	47	0	28672262144	0	10703
2026-01-27 20:11:38.75	299.12	66.54	-11.8	-11.9	19.3	0.00e+00	0	47	0	28781314048	0	10746
2026-01-27 20:11:39.76	300.37	66.01	-11.9	-11.9	19.6	0.00e+00	0	47	0	28898754560	0	10811
2026-01-27 20:11:40.77	301.55	65.48	-12.0	-12.0	19.4	0.00e+00	0	47	0	29007806464	0	10918
2026-01-27 20:11:41.78	302.68	64.94	-12.0	-12.1	19.8	0.00e+00	0	48	0	29125246976	0	10982
2026-01-27 20:11:42.79	303.76	64.39	-12.0	-12.1	19.6	0.00e+00	0	47	0	29242687488	0	11004
2026-01-27 20:11:43.80	304.79	63.85	-12.2	-12.3	19.9	0.00e+00	0	47	0	29351739392	0	11278
2026-01-27 20:11:44.81	305.77	63.30	-12.1	-12.2	19.9	0.00e+00	0	47	0	29460791296	0	11111
2026-01-27 20:11:45.83	306.71	62.74	-12.2	-12.3	20.2	0.00e+00	0	47	0	29578231808	0	11239
2026-01-27 20:11:46.84	307.61	62.19	-12.3	-12.3	20.1	0.00e+00	0	47	0	29695672320	0	11330
2026-01-27 20:11:47.85	308.46	61.63	-12.3	-12.3	20.1	0.00e+00	0	47	0	29804724224	0	11313
2026-01-27 20:11:48.86	309.27	61.08	-12.2	-12.3	20.3	0.00e+00	0	47	0	29922164736	0	11275
2026-01-27 20:11:49.87	310.05	60.53	-12.2	-12.3	20.2	0.00e+00	0	47	0	30031216640	0	11278
2026-01-27 20:11:50.88	310.80	59.97	-12.4	-12.4	20.1	0.00e+00	0	47	0	30148657152	0	11413
2026-01-27 20:11:51.89	311.51	59.42	-12.4	-12.5	20.3	0.00e+00	0	47	0	30266097664	0	11493
2026-01-27 20:11:52.90	312.20	58.87	-12.5	-12.6	20.6	0.00e+00	0	47	0	30375149568	0	11618
2026-01-27 20:11:53.91	312.85	58.32	-12.5	-12.5	20.4	0.00e+00	0	47	0	30484201472	0	11600
2026-01-27 20:11:54.92	313.49	57.78	-12.5	-12.6	20.3	0.00e+00	0	47	0	30601641984	0	11622
2026-01-27 20:11:55.93	314.09	57.23	-12.6	-12.7	20.2	0.00e+00	0	47	0	30710693888	0	11803
2026-01-27 20:11:56.94	314.67	56.69	-12.7	-12.7	20.2	0.00e+00	0	47	0	30828134400	0	11865
2026-01-27 20:11:57.95	315.23	56.16	-12.6	-12.7	20.2	0.00e+00	0	47	0	30945574912	0	11766
2026-01-27 20:11:58.96	315.77	55.62	-12.7	-12.8	20.1	0.00e+00	0	47	0	31054626816	0	11911
2026-01-27 20:11:59.97	316.29	55.09	-12.7	-12.7	20.0	0.00e+00	0	47	0	31172067328	0	11855
2026-01-27 20:12:00.98	316.78	54.56	-12.8	-12.9	19.9	0.00e+00	0	47	0	31289507840	0	12020
2026-01-27 20:12:01.99	317.26	54.04	-12.8	-12.9	20.0	0.00e+00	0	47	0	31398559744	0	12063
2026-01-27 20:12:03.00	317.73	53.52	-12.9	-13.0	20.0	0.00e+00	0	48	0	31507611648	0	12188
2026-01-27 20:12:04.02	318.18	53.00	-13.0	-13.1	20.2	0.00e+00	0	48	0	31625052160	0	12292
2026-01-27 20:12:05.03	318.61	52.49	-13.1	-13.2	20.1	0.00e+00	0	47	0	31734104064	0	12467
2026-01-27 20:12:06.04	319.02	51.98	-13.2	-13.2	20.0	0.00e+00	0	48	0	31851544576	0	12534
2026-01-27 20:12:07.05	319.43	51.48	-13.2	-13.3	19.8	0.00e+00	0	47	0	31968985088	0	12588
2026-01-27 20:12:08.06	319.81	50.98	-13.2	-13.3	20.0	0.00e+00	0	48	0	32078036992	0	12656
2026-01-27 20:12:09.07	320.19	50.49	-13.3	-13.4	20.0	0.00e+00	0	47	0	32195477504	0	12789
2026-01-27 20:12:10.08	320.55	50.00	-13.4	-13.4	19.8	0.00e+00	0	47	0	32304529408	0	12811
2026-01-27 20:12:11.09	320.91	49.51	-13.4	-13.5	20.1	0.00e+00	0	47	0	32421969920	0	12894
2026-01-27 20:12:12.10	321.25	49.03	-13.5	-13.6	20.3	0.00e+00	0	47	0	32539410432	0	13071
2026-01-27 20:12:13.11	321.58	48.56	-13.5	-13.5	19.8	0.00e+00	0	47	0	32648462336	0	12992
2026-01-27 20:12:14.12	321.90	48.09	-13.5	-13.6	20.1	0.00e+00	0	47	0	32757514240	0	13092
2026-01-27 20:12:15.13	322.21	47.62	-13.6	-13.7	19.6	0.00e+00	0	47	0	32874954752	0	13238
2026-01-27 20:12:16.14	322.51	47.16	-13.8	-13.9	19.9	0.00e+00	0	48	0	32992395264	0	13515
2026-01-27 20:12:17.15	322.80	46.70	-13.9	-13.9	19.4	0.00e+00	0	47	0	33101447168	0	13576
2026-01-27 20:12:18.16	323.09	46.25	-14.0	-14.1	19.4	0.00e+00	0	47	0	33218887680	0	13880
2026-01-27 20:12:19.17	323.36	45.80	-14.0	-14.0	19.5	0.00e+00	0	47	0	33327939584	0	13779
2026-01-27 20:12:20.19	323.63	45.36	-14.1	-14.1	19.2	0.00e+00	0	47	0	33445380096	0	13933
2026-01-27 20:12:21.20	323.89	44.92	-14.2	-14.3	19.4	0.00e+00	0	48	0	33562820608	0	14120
2026-01-27 20:12:22.21	324.15	44.49	-14.2	-14.3	19.4	0.00e+00	0	48	0	33671872512	0	14195
2026-01-27 20:12:23.22	324.39	44.06	-14.4	-14.4	19.1	0.00e+00	0	47	0	33780924416	0	14438
2026-01-27 20:12:24.23	324.63	43.64	-14.3	-14.4	19.1	0.00e+00	0	47	0	33898364928	0	14298
2026-01-27 20:12:25.24	324.87	43.22	-14.4	-14.5	19.3	0.00e+00	0	47	0	34015805440	0	14492
2026-01-27 20:12:26.25	325.10	42.80	-14.5	-14.5	19.2	0.00e+00	0	47	0	34124857344	0	14547
2026-01-27 20:12:27.26	325.32	42.39	-14.5	-14.6	19.1	0.00e+00	0	47	0	34242297856	0	14684
2026-01-27 20:12:28.27	325.53	41.99	-14.6	-14.6	19.0	0.00e+00	0	48	0	34351349760	0	14749
2026-01-27 20:12:29.28	325.74	41.59	-14.7	-14.7	18.9	0.00e+00	0	47	0	34468790272	0	14900
2026-01-27 20:12:30.29	325.95	41.19	-14.7	-14.8	18.9	0.00e+00	0	48	0	34586230784	0	14998
2026-01-27 20:12:31.30	326.15	40.80	-14.8	-14.8	18.6	0.00e+00	0	47	0	34695282688	0	15058
2026-01-27 20:12:32.31	326.35	40.41	-14.9	-14.9	18.6	0.00e+00	0	47	0	34804334592	0	15282
2026-01-27 20:12:33.32	326.54	40.03	-15.0	-15.1	18.5	0.00e+00	0	47	0	34921775104	0	15530
2026-01-27 20:12:34.33	326.72	39.65	-15.0	-15.1	18.6	0.00e+00	0	47	0	35039215616	0	15539
2026-01-27 20:12:35.34	326.90	39.28	-15.0	-15.1	18.6	0.00e+00	0	47	0	35148267520	0	15543
2026-01-27 20:12:36.35	327.08	38.91	-15.2	-15.3	18.6	0.00e+00	0	47	0	35265708032	0	15843
2026-01-27 20:12:37.36	327.26	38.54	-15.4	-15.4	18.5	0.00e+00	0	47	0	35374759936	1	15265
2026-01-27 20:12:38.38	327.43	38.18	-15.4	-15.5	18.2	0.00e+00	0	48	0	35492200448	1	15361
2026-01-27 20:12:39.39	327.59	37.82	-15.6	-15.6	18.0	0.00e+00	0	47	0	35609640960	1	15586
2026-01-27 20:12:40.40	327.76	37.47	-15.6	-15.6	18.1	0.00e+00	0	48	0	35718692864	1	15646
2026-01-27 20:12:41.41	327.91	37.12	-15.7	-15.8	18.1	0.00e+00	0	47	0	35827744768	2	15047
2026-01-27 20:12:42.42	328.07	36.77	-15.8	-15.8	17.8	0.00e+00	0	47	0	35945185280	2	15092
2026-01-27 20:12:43.43	328.22	36.43	-15.8	-15.9	18.1	0.00e+00	0	47	0	36054237184	2	15179
2026-01-27 20:12:44.44	328.37	36.09	-15.8	-15.9	18.1	0.00e+00	0	47	0	36171677696	2	15187
2026-01-27 20:12:45.45	328.52	35.76	-16.0	-16.1	17.9	0.00e+00	0	47	0	36289118208	2	15500
2026-01-27 20:12:46.46	328.66	35.43	-16.1	-16.2	18.2	0.00e+00	0	47	0	36398170112	2	15761
2026-01-27 20:12:47.47	328.80	35.10	-16.3	-16.3	17.8	0.00e+00	0	48	0	36515610624	3	15055
2026-01-27 20:12:48.48	328.94	34.78	-16.4	-16.5	18.2	0.00e+00	0	47	0	36633051136	3	15311
2026-01-27 20:12:49.50	329.07	34.46	-16.4	-16.5	17.8	0.00e+00	0	47	0	36742103040	3	15334
2026-01-27 20:12:50.51	329.20	34.14	-16.4	-16.5	18.2	0.00e+00	0	47	0	36859543552	3	15395
2026-01-27 20:12:51.52	329.33	33.83	-16.6	-16.6	18.0	0.00e+00	0	47	0	36968595456	3	15577
2026-01-27 20:12:52.53	329.46	33.52	-16.6	-16.6	17.8	0.00e+00	0	48	0	37077647360	3	15625
2026-01-27 20:12:53.54	329.58	33.21	-16.7	-16.8	18.1	0.00e+00	0	47	0	37195087872	3	15864
2026-01-27 20:12:54.55	329.71	32.91	-16.6	-16.7	18.0	0.00e+00	0	47	0	37312528384	4	14798
2026-01-27 20:12:55.56	329.83	32.61	-16.7	-16.8	17.8	0.00e+00	0	48	0	37421580288	4	15001
2026-01-27 20:12:56.57	329.94	32.32	-16.7	-16.8	17.9	0.00e+00	0	48	0	37539020800	4	14997
2026-01-27 20:12:57.58	330.06	32.03	-16.8	-16.9	18.0	0.00e+00	0	48	0	37648072704	4	15155
2026-01-27 20:12:58.59	330.17	31.74	-16.8	-16.9	18.1	0.00e+00	0	47	0	37765513216	4	15232
2026-01-27 20:12:59.60	330.28	31.45	-16.9	-16.9	17.9	0.00e+00	0	47	0	37882953728	4	15281
2026-01-27 20:13:00.61	330.39	31.17	-17.0	-17.0	17.8	0.00e+00	0	48	0	37992005632	4	15418
2026-01-27 20:13:01.62	330.50	30.89	-17.1	-17.2	17.7	0.00e+00	0	48	0	38101057536	4	15677
2026-01-27 20:13:02.63	330.60	30.61	-17.1	-17.2	17.8	0.00e+00	0	47	0	38218498048	4	15752
2026-01-27 20:13:03.64	330.71	30.34	-17.3	-17.4	17.9	0.00e+00	0	48	0	38335938560	5	15140
2026-01-27 20:13:04.65	330.81	30.07	-17.4	-17.5	18.0	0.00e+00	0	48	0	38444990464	5	15380
2026-01-27 20:13:05.66	330.91	29.80	-17.6	-17.7	18.0	0.00e+00	0	47	0	38562430976	5	15667
2026-01-27 20:13:06.67	331.01	29.54	-17.6	-17.7	18.3	0.00e+00	0	47	0	38671482880	5	15660
2026-01-27 20:13:07.68	331.10	29.27	-17.8	-17.9	18.4	0.00e+00	0	48	0	38788923392	6	15228
2026-01-27 20:13:08.69	331.20	29.01	-17.9	-18.0	18.7	0.00e+00	0	47	0	38906363904	6	15346
2026-01-27 20:13:09.70	331.29	28.76	-17.9	-18.0	18.7	0.00e+00	0	48	0	39015415808	6	15351
2026-01-27 20:13:10.72	331.38	28.50	-18.1	-18.1	18.6	0.00e+00	0	48	0	39124467712	6	15602
2026-01-27 20:13:11.73	331.47	28.25	-18.1	-18.2	18.5	0.00e+00	0	48	0	39241908224	6	15718
2026-01-27 20:13:12.74	331.56	28.00	-18.3	-18.3	18.9	0.00e+00	0	47	0	39359348736	7	15071
2026-01-27 20:13:13.75	331.65	27.76	-18.3	-18.4	18.7	0.00e+00	0	47	0	39468400640	7	15154
2026-01-27 20:13:14.76	331.74	27.51	-18.3	-18.4	18.4	0.00e+00	0	47	0	39585841152	7	15207
2026-01-27 20:13:15.77	331.82	27.27	-18.4	-18.4	18.6	0.00e+00	0	48	0	39694893056	7	15282
2026-01-27 20:13:16.78	331.90	27.03	-18.5	-18.5	18.5	0.00e+00	0	47	0	39812333568	7	15471
2026-01-27 20:13:17.79	331.99	26.80	-18.5	-18.6	18.3	0.00e+00	0	48	0	39929774080	7	15533
2026-01-27 20:13:18.80	332.07	26.56	-18.6	-18.7	18.6	0.00e+00	0	48	0	40038825984	7	15736
2026-01-27 20:13:19.81	332.15	26.33	-18.7	-18.8	18.2	0.00e+00	0	47	0	40147877888	7	15875
2026-01-27 20:13:20.82	332.23	26.10	-18.7	-18.8	18.4	0.00e+00	0	47	0	40265318400	8	14953
2026-01-27 20:13:21.83	332.30	25.87	-18.8	-18.8	18.2	0.00e+00	0	48	0	40374370304	8	15117
2026-01-27 20:13:22.84	332.38	25.65	-18.9	-19.0	18.2	0.00e+00	0	48	0	40491810816	8	15305
2026-01-27 20:13:23.85	332.46	25.43	-18.9	-18.9	18.3	0.00e+00	0	48	0	40609251328	8	15247
2026-01-27 20:13:24.86	332.53	25.21	-19.0	-19.0	18.1	0.00e+00	0	48	0	40718303232	8	15454
2026-01-27 20:13:25.87	332.60	24.99	-19.0	-19.1	18.3	0.00e+00	0	47	0	40835743744	8	15508
2026-01-27 20:13:26.88	332.67	24.77	-19.1	-19.1	18.5	0.00e+00	0	48	0	40953184256	8	15577
2026-01-27 20:13:27.90	332.75	24.56	-19.2	-19.2	18.3	0.00e+00	0	48	0	41062236160	8	15799
2026-01-27 20:13:28.91	332.82	24.34	-19.3	-19.3	18.2	0.00e+00	0	48	0	41171288064	9	15096
2026-01-27 20:13:29.92	332.88	24.13	-19.5	-19.5	18.3	0.00e+00	0	47	0	41288728576	9	15407
2026-01-27 20:13:30.93	332.95	23.92	-19.4	-19.5	18.5	0.00e+00	0	48	0	41397780480	9	15375
2026-01-27 20:13:31.94	333.02	23.72	-19.5	-19.6	18.6	0.00e+00	0	47	0	41515220992	9	15477
2026-01-27 20:13:32.95	333.09	23.51	-19.6	-19.6	18.6	0.00e+00	0	48	0	41632661504	9	15603
2026-01-27 20:13:33.96	333.15	23.31	-19.7	-19.8	18.6	0.00e+00	0	48	0	41741713408	9	15879
2026-01-27 20:13:34.97	333.22	23.11	-19.8	-19.8	18.6	0.00e+00	0	48	0	41859153920	10	15062
2026-01-27 20:13:35.98	333.28	22.91	-19.8	-19.9	18.5	0.00e+00	0	48	0	41968205824	10	15124
2026-01-27 20:13:36.99	333.34	22.72	-19.9	-20.0	18.4	0.00e+00	0	47	0	42085646336	10	15332
2026-01-27 20:13:38.00	333.40	22.52	-20.0	-20.0	18.2	0.00e+00	0	47	0	42203086848	10	15454
2026-01-27 20:13:39.01	333.47	22.33	-20.0	-20.1	18.0	0.00e+00	0	48	0	42312138752	10	15504
2026-01-27 20:13:40.02	333.53	22.14	-20.1	-20.2	17.9	0.00e+00	0	47	0	42421190656	10	15765
2026-01-27 20:13:41.04	333.59	21.95	-20.3	-20.4	17.8	0.00e+00	0	48	0	42538631168	11	15143
2026-01-27 20:13:42.05	333.65	21.76	-20.3	-20.4	17.8	0.00e+00	0	47	0	42656071680	11	15168
2026-01-27 20:13:43.06	333.70	21.57	-20.4	-20.4	17.7	0.00e+00	0	48	0	42765123584	11	15245
2026-01-27 20:13:44.07	333.76	21.39	-20.4	-20.5	17.4	0.00e+00	0	47	0	42882564096	11	15303
2026-01-27 20:13:45.08	333.82	21.20	-20.4	-20.4	17.2	0.00e+00	0	47	0	42991616000	11	15263
2026-01-27 20:13:46.09	333.87	21.02	-20.5	-20.5	17.5	0.00e+00	0	48	0	43109056512	11	15424
2026-01-27 20:13:47.10	333.93	20.84	-20.5	-20.6	17.2	0.00e+00	0	47	0	43226497024	11	15512
2026-01-27 20:13:48.11	333.98	20.66	-20.6	-20.6	17.1	0.00e+00	0	48	0	43335548928	11	15630
2026-01-27 20:13:49.12	334.04	20.49	-20.7	-20.8	17.2	0.00e+00	0	48	0	43444600832	11	15897
2026-01-27 20:13:50.13	334.09	20.31	-20.5	-20.6	16.9	0.00e+00	0	48	0	43562041344	12	14708
2026-01-27 20:13:51.14	334.14	20.14	-20.5	-20.6	17.1	0.00e+00	0	47	0	43679481856	12	14691
2026-01-27 20:13:52.15	334.20	19.97	-20.7	-20.8	16.8	0.00e+00	0	47	0	43788533760	12	14993
2026-01-27 20:13:53.16	334.25	19.79	-20.7	-20.8	16.9	0.00e+00	0	47	0	43905974272	12	14960
2026-01-27 20:13:54.17	334.30	19.62	-20.7	-20.8	16.8	0.00e+00	0	47	0	44015026176	12	15060
2026-01-27 20:13:55.19	334.35	19.45	-20.8	-20.9	16.7	0.00e+00	0	47	0	44132466688	12	15169
2026-01-27 20:13:56.20	334.40	19.29	-20.8	-20.9	17.1	0.00e+00	0	47	0	44249907200	12	15257
2026-01-27 20:13:57.21	334.45	19.12	-20.9	-21.0	17.0	0.00e+00	0	47	0	44358959104	12	15320
2026-01-27 20:13:58.22	334.50	18.96	-21.0	-21.1	17.1	0.00e+00	0	48	0	44468011008	12	15485
2026-01-27 20:13:59.23	334.55	18.80	-21.0	-21.1	17.3	0.00e+00	0	47	0	44585451520	12	15540
2026-01-27 20:14:00.24	334.59	18.63	-21.1	-21.2	17.2	0.00e+00	0	47	0	44702892032	12	15707
2026-01-27 20:14:01.25	334.64	18.47	-21.1	-21.2	17.1	0.00e+00	0	47	0	44811943936	12	15788
2026-01-27 20:14:02.26	334.69	18.32	-21.3	-21.4	17.0	0.00e+00	0	48	0	44929384448	13	15228
2026-01-27 20:14:03.27	334.73	18.16	-21.3	-21.4	16.9	0.00e+00	0	47	0	45038436352	13	15175
2026-01-27 20:14:04.28	334.78	18.00	-21.4	-21.5	17.0	1.90e-06	0	47	0	45155876864	13	15378
2026-01-27 20:14:05.29	334.83	17.85	-21.5	-21.5	17.2	0.00e+00	0	47	0	45273317376	13	15442
2026-01-27 20:14:06.30	334.87	17.69	-21.7	-21.8	17.3	0.00e+00	0	48	0	45382369280	14	15075
2026-01-27 20:14:07.31	334.91	17.54	-21.6	-21.6	17.6	0.00e+00	0	47	0	45491421184	14	14756
2026-01-27 20:14:08.32	334.96	17.39	-21.6	-21.7	17.8	0.00e+00	0	47	0	45608861696	14	14895
2026-01-27 20:14:09.33	335.00	17.24	-21.7	-21.8	18.0	0.00e+00	0	47	0	45717913600	14	15010
2026-01-27 20:14:10.34	335.04	17.09	-21.8	-21.8	17.9	0.00e+00	0	47	0	45835354112	14	15114
2026-01-27 20:14:11.35	335.09	16.94	-21.9	-21.9	17.7	0.00e+00	0	47	0	45952794624	14	15286
2026-01-27 20:14:12.36	335.13	16.79	-22.0	-22.1	17.5	0.00e+00	0	47	0	46061846528	14	15511
2026-01-27 20:14:13.37	335.17	16.65	-22.0	-22.1	17.5	0.00e+00	0	47	0	46179287040	14	15577
2026-01-27 20:14:14.39	335.21	16.50	-22.2	-22.2	17.7	0.00e+00	0	47	0	46296727552	14	15820
2026-01-27 20:14:15.40	335.25	16.36	-22.2	-22.3	17.5	0.00e+00	0	47	0	46405779456	15	14965
2026-01-27 20:14:16.41	335.29	16.21	-22.3	-22.3	17.4	0.00e+00	0	48	0	46514831360	15	15119
2026-01-27 20:14:17.42	335.33	16.07	-22.4	-22.4	17.5	0.00e+00	0	48	0	46632271872	15	15282
2026-01-27 20:14:18.43	335.37	15.93	-22.4	-22.5	17.8	0.00e+00	0	48	0	46741323776	15	15416
2026-01-27 20:14:19.44	335.41	15.79	-22.4	-22.5	17.6	0.00e+00	0	47	0	46858764288	15	15366
2026-01-27 20:14:20.45	335.45	15.65	-22.5	-22.5	17.9	0.00e+00	0	48	0	46976204800	15	15466
2026-01-27 20:14:21.46	335.49	15.52	-22.5	-22.5	18.1	0.00e+00	0	48	0	47085256704	15	15446
2026-01-27 20:14:22.47	335.53	15.38	-22.5	-22.6	17.8	0.00e+00	0	48	0	47194308608	15	15542
2026-01-27 20:14:23.48	335.57	15.24	-22.6	-22.6	18.2	0.00e+00	0	48	0	47311749120	15	15612
2026-01-27 20:14:24.49	335.60	15.11	-22.6	-22.7	17.8	0.00e+00	0	48	0	47429189632	15	15702
2026-01-27 20:14:25.50	335.64	14.97	-22.8	-22.8	17.8	0.00e+00	0	48	0	47546630144	16	15099
2026-01-27 20:14:26.51	335.68	14.84	-22.8	-22.8	17.8	0.00e+00	0	47	0	47655682048	16	15089
2026-01-27 20:14:27.52	335.71	14.71	-22.9	-22.9	17.3	0.00e+00	0	48	0	47764733952	16	15287
2026-01-27 20:14:28.53	335.75	14.58	-23.0	-23.0	17.6	0.00e+00	0	47	0	47882174464	16	15424
2026-01-27 20:14:29.54	335.79	14.45	-23.0	-23.1	17.5	0.00e+00	0	47	0	47999614976	16	15506
2026-01-27 20:14:30.55	335.82	14.32	-23.0	-23.1	17.1	0.00e+00	0	48	0	48108666880	16	15579
2026-01-27 20:14:31.56	335.86	14.19	-23.1	-23.2	17.1	0.00e+00	0	48	0	48226107392	16	15732
2026-01-27 20:14:32.57	335.89	14.06	-23.1	-23.2	17.4	0.00e+00	0	47	0	48335159296	17	14817
2026-01-27 20:14:33.58	335.93	13.93	-23.1	-23.2	17.5	0.00e+00	0	48	0	48452599808	17	14837
2026-01-27 20:14:34.59	335.96	13.81	-23.3	-23.4	17.3	0.00e+00	0	48	0	48570040320	17	15140
2026-01-27 20:14:35.61	335.99	13.68	-23.2	-23.2	17.2	1.90e-06	0	47	0	48679092224	17	14916
2026-01-27 20:14:36.61	336.03	13.56	-23.2	-23.3	17.3	0.00e+00	0	48	0	48788144128	17	15002
2026-01-27 20:14:37.62	336.06	13.44	-23.3	-23.4	17.4	0.00e+00	0	48	0	48905584640	17	15178
2026-01-27 20:14:38.64	336.09	13.31	-23.3	-23.4	17.3	0.00e+00	0	48	0	49023025152	17	15209
2026-01-27 20:14:39.65	336.13	13.19	-23.4	-23.4	17.2	0.00e+00	0	47	0	49132077056	17	15280
2026-01-27 20:14:40.66	336.16	13.07	-23.4	-23.5	17.2	1.90e-06	0	47	0	49249517568	17	15340
2026-01-27 20:14:41.67	336.19	12.95	-23.4	-23.5	17.1	0.00e+00	0	47	0	49358569472	17	15329
2026-01-27 20:14:42.68	336.22	12.83	-23.5	-23.5	17.1	0.00e+00	0	48	0	49476009984	17	15427
2026-01-27 20:14:43.69	336.25	12.71	-23.5	-23.6	17.2	0.00e+00	0	47	0	49593450496	17	15563
2026-01-27 20:14:44.70	336.29	12.59	-23.5	-23.6	17.3	0.00e+00	0	48	0	49702502400	17	15577
2026-01-27 20:14:45.71	336.32	12.47	-23.6	-23.7	17.4	0.00e+00	0	48	0	49811554304	17	15714
2026-01-27 20:14:46.72	336.35	12.36	-23.6	-23.7	17.3	0.00e+00	0	48	0	49928994816	17	15667
2026-01-27 20:14:47.73	336.38	12.24	-23.8	-23.8	17.0	0.00e+00	0	47	0	50046435328	18	15066
2026-01-27 20:14:48.75	336.41	12.12	-23.8	-23.8	17.2	1.90e-06	0	48	0	50155487232	18	15083
2026-01-27 20:14:49.76	336.44	12.01	-23.8	-23.8	17.3	0.00e+00	0	48	0	50272927744	18	15091
2026-01-27 20:14:50.77	336.47	11.90	-23.8	-23.9	17.1	0.00e+00	0	48	0	50381979648	18	15245
2026-01-27 20:14:51.78	336.50	11.78	-23.8	-23.9	17.1	3.80e-06	0	47	0	50499420160	18	15207
2026-01-27 20:14:52.79	336.53	11.67	-23.9	-24.0	17.2	0.00e+00	0	47	0	50616860672	18	15382
2026-01-27 20:14:53.80	336.56	11.56	-24.1	-24.1	17.1	0.00e+00	0	48	0	50725912576	18	15614
2026-01-27 20:14:54.81	336.59	11.45	-24.0	-24.1	17.3	0.00e+00	0	48	0	50834964480	18	15600
2026-01-27 20:14:55.82	336.62	11.34	-24.2	-24.3	17.0	0.00e+00	0	48	0	50952404992	18	15836
2026-01-27 20:14:56.83	336.64	11.23	-24.3	-24.4	18.8	0.00e+00	0	48	0	51061456896	19	15216
2026-01-27 20:14:57.84	336.67	11.12	-46.7	-49.3	6.2	0.00e+00	0	47	104	51111788544	64	20135
2026-01-27 20:14:58.85	336.70	11.01	-46.7	-49.3	6.2	0.00e+00	0	47	104	51111788544	64	20113
2026-01-27 20:14:59.86	336.73	10.90	-46.8	-49.3	6.2	0.00e+00	0	47	104	51111788544	64	20102
2026-01-27 20:15:00.87	336.76	10.79	-46.8	-49.3	6.2	0.00e+00	0	47	104	51111788544	64	20044
2026-01-27 20:15:01.88	336.78	10.68	-46.8	-49.3	6.2	0.00e+00	0	47	104	51111788544	64	20060
2026-01-27 20:15:02.89	336.81	10.58	-46.8	-49.3	6.2	0.00e+00	0	47	104	51111788544	64	20028
2026-01-27 20:15:03.90	336.84	10.47	-46.7	-49.3	6.2	0.00e+00	0	48	104	51111788544	64	19945
2026-01-27 20:15:04.92	336.87	10.37	-46.7	-49.3	6.2	0.00e+00	0	47	104	51111788544	64	20018
2026-01-27 20:15:05.93	336.89	10.26	-46.7	-49.2	6.2	0.00e+00	0	47	104	51111788544	64	19927
2026-01-27 20:15:06.94	336.92	10.16	-46.7	-49.2	6.2	0.00e+00	0	47	104	51111788544	64	19901
2026-01-27 20:15:07.95	336.95	10.05	-46.7	-49.2	6.2	0.00e+00	0	47	104	51111788544	64	19808
2026-01-27 20:15:08.96	336.97	9.95	-46.7	-49.2	6.2	0.00e+00	0	47	104	51111788544	64	19864
2026-01-27 20:15:09.97	337.00	9.85	-46.7	-49.2	6.2	0.00e+00	0	47	104	51111788544	64	19900
2026-01-27 20:15:10.98	337.02	9.75	-46.7	-49.2	6.2	0.00e+00	0	47	104	51111788544	64	19840
2026-01-27 20:15:11.99	337.05	9.64	-46.6	-49.1	6.2	0.00e+00	0	47	104	51111788544	64	19688
2026-01-27 20:15:13.00	337.08	9.54	-46.6	-49.1	6.2	0.00e+00	0	47	104	51111788544	64	19681
2026-01-27 20:15:14.01	337.10	9.44	-46.6	-49.2	6.2	0.00e+00	0	47	104	51111788544	64	19729
2026-01-27 20:15:15.02	337.13	9.34	-46.6	-49.2	6.2	0.00e+00	0	47	104	51111788544	64	19766
2026-01-27 20:15:16.03	337.15	9.24	-46.6	-49.1	6.2	0.00e+00	0	47	104	51111788544	64	19643
2026-01-27 20:15:17.04	337.18	9.15	-46.6	-49.1	6.2	0.00e+00	0	47	104	51111788544	64	19633
2026-01-27 20:15:18.05	337.20	9.05	-46.6	-49.1	6.2	0.00e+00	0	47	104	51111788544	64	19676
2026-01-27 20:15:19.07	337.23	8.95	-46.6	-49.1	6.2	0.00e+00	0	47	104	51111788544	64	19630
2026-01-27 20:15:20.08	337.25	8.85	-46.5	-49.1	6.2	0.00e+00	0	47	104	51111788544	64	19574
2026-01-27 20:15:21.09	337.27	8.75	-46.5	-49.0	6.2	0.00e+00	0	47	104	51111788544	64	19446
2026-01-27 20:15:22.10	337.30	8.66	-46.6	-49.1	6.2	0.00e+00	0	47	104	51111788544	64	19598
2026-01-27 20:15:23.11	337.32	8.56	-46.5	-49.1	6.2	0.00e+00	0	47	104	51111788544	64	19496
2026-01-27 20:15:24.12	337.34	8.47	-46.5	-49.1	6.2	0.00e+00	0	47	104	51111788544	64	19503
2026-01-27 20:15:25.13	337.37	8.37	-46.5	-49.0	6.2	0.00e+00	0	47	104	51111788544	64	19328
2026-01-27 20:15:26.14	337.39	8.28	-46.5	-49.1	6.2	0.00e+00	0	47	104	51111788544	64	19566
2026-01-27 20:15:27.15	337.42	8.18	-46.5	-49.0	6.2	0.00e+00	0	47	104	51111788544	64	19359
2026-01-27 20:15:28.16	337.44	8.09	-46.5	-49.0	6.2	0.00e+00	0	47	104	51111788544	64	19411
2026-01-27 20:15:29.17	337.46	8.00	-46.4	-48.9	6.2	0.00e+00	0	47	104	51111788544	64	19251
2026-01-27 20:15:30.18	337.48	7.90	-46.5	-49.1	6.2	0.00e+00	0	47	104	51111788544	64	19534
2026-01-27 20:15:31.19	337.51	7.81	-46.4	-49.0	6.2	0.00e+00	0	47	104	51111788544	64	19347
2026-01-27 20:15:32.20	337.53	7.72	-46.4	-49.0	6.2	0.00e+00	0	47	104	51111788544	64	19313
2026-01-27 20:15:33.21	337.55	7.63	-46.4	-48.9	6.2	0.00e+00	0	47	104	51111788544	64	19171
2026-01-27 20:15:34.22	337.57	7.54	-46.5	-49.0	6.2	0.00e+00	0	47	104	51111788544	64	19387
2026-01-27 20:15:35.23	337.60	7.45	-46.4	-48.9	6.2	0.00e+00	0	47	104	51111788544	64	19154
2026-01-27 20:15:36.24	337.62	7.36	-46.4	-48.9	6.2	0.00e+00	0	47	104	51111788544	64	19250
2026-01-27 20:15:37.25	337.64	7.27	-46.3	-48.8	6.2	0.00e+00	0	47	104	51111788544	64	18974
2026-01-27 20:15:38.26	337.66	7.18	-46.4	-49.0	6.2	0.00e+00	0	47	104	51111788544	64	19329
2026-01-27 20:15:39.27	337.68	7.09	-46.3	-48.9	6.2	0.00e+00	0	47	104	51111788544	64	19039
2026-01-27 20:15:40.28	337.70	7.00	-46.3	-48.9	6.2	0.00e+00	0	47	104	51111788544	64	19047
2026-01-27 20:15:41.29	337.73	6.91	-46.2	-48.8	6.2	0.00e+00	0	47	104	51111788544	64	18820
2026-01-27 20:15:42.31	337.75	6.83	-46.4	-48.9	6.2	0.00e+00	0	47	104	51111788544	64	19198
2026-01-27 20:15:43.31	337.77	6.74	-46.2	-48.8	6.2	0.00e+00	0	47	104	51111788544	64	18897
2026-01-27 20:15:44.32	337.79	6.65	-46.3	-48.8	6.2	0.00e+00	0	47	104	51111788544	64	18937
2026-01-27 20:15:45.34	337.81	6.56	-46.1	-48.7	6.2	0.00e+00	0	47	104	51111788544	64	18646
2026-01-27 20:15:46.34	337.83	6.48	-46.3	-48.9	6.2	0.00e+00	0	47	104	51111788544	64	19040
2026-01-27 20:15:47.35	337.85	6.39	-46.2	-48.7	6.2	0.00e+00	0	47	104	51111788544	64	18643
2026-01-27 20:15:48.36	337.87	6.31	-46.2	-48.8	6.2	0.00e+00	0	47	104	51111788544	64	18819
2026-01-27 20:15:49.38	337.89	6.22	-46.0	-48.6	6.2	0.00e+00	0	47	104	51111788544	64	18406
2026-01-27 20:15:50.38	337.91	6.14	-46.2	-48.8	6.2	0.00e+00	0	47	104	51111788544	64	18914
2026-01-27 20:15:51.39	337.93	6.05	-46.1	-48.6	6.2	0.00e+00	0	47	104	51111788544	64	18551
2026-01-27 20:15:52.40	337.95	5.97	-46.1	-48.7	6.2	0.00e+00	0	47	104	51111788544	64	18605
2026-01-27 20:15:53.42	337.97	5.89	-46.0	-48.6	6.2	0.00e+00	0	47	104	51111788544	63	19516
2026-01-27 20:15:54.42	337.99	5.80	-46.3	-48.8	6.2	0.00e+00	0	47	104	51111788544	63	20121
2026-01-27 20:15:55.44	338.01	5.72	-46.1	-48.6	6.2	0.00e+00	0	47	104	51111788544	63	19692
2026-01-27 20:15:56.45	338.03	5.64	-46.1	-48.7	6.2	0.00e+00	0	47	104	51111788544	63	19764
2026-01-27 20:15:57.46	338.05	5.55	-45.9	-48.5	6.2	0.00e+00	0	47	104	51111788544	63	19323
2026-01-27 20:15:58.47	338.07	5.47	-46.2	-48.7	6.2	0.00e+00	0	47	104	51111788544	63	19929
2026-01-27 20:15:59.48	338.09	5.39	-46.0	-48.5	6.2	0.00e+00	0	47	104	51111788544	63	19455
2026-01-27 20:16:00.49	338.11	5.31	-46.0	-48.5	6.2	0.00e+00	0	47	104	51111788544	63	19476
2026-01-27 20:16:01.50	338.13	5.23	-45.9	-48.4	6.2	0.00e+00	0	47	104	51111788544	63	19164
2026-01-27 20:16:02.51	338.15	5.15	-46.1	-48.6	6.2	0.00e+00	0	47	104	51111788544	63	19674
2026-01-27 20:16:03.52	338.17	5.07	-45.9	-48.4	6.2	0.00e+00	0	47	104	51111788544	63	19254
2026-01-27 20:16:04.53	338.18	4.99	-46.2	-48.8	6.2	0.00e+00	0	47	104	51111788544	63	20031
2026-01-27 20:16:05.54	338.20	4.91	-46.7	-49.2	6.2	0.00e+00	0	47	104	51111788544	64	19833
2026-01-27 20:16:06.55	338.22	4.83	-47.0	-49.5	6.2	0.00e+00	0	47	104	51111788544	64	20484
2026-01-27 20:16:07.56	338.24	4.75	-47.1	-49.7	6.2	0.00e+00	0	47	104	51111788544	64	20950
2026-01-27 20:16:08.58	338.26	4.67	-47.3	-49.8	6.2	0.00e+00	0	47	104	51111788544	65	20060
2026-01-27 20:16:09.59	338.28	4.59	-47.4	-49.9	6.2	0.00e+00	0	47	104	51111788544	65	20318
2026-01-27 20:16:10.60	338.30	4.51	-47.4	-50.0	6.2	0.00e+00	0	47	104	51111788544	65	20433
2026-01-27 20:16:11.61	338.31	4.43	-47.5	-50.1	6.2	0.00e+00	0	47	104	51111788544	65	20723
2026-01-27 20:16:12.62	338.33	4.36	-47.5	-50.1	6.2	0.00e+00	0	47	104	51111788544	65	20736
2026-01-27 20:16:13.63	338.35	4.28	-47.5	-50.1	6.2	0.00e+00	0	47	104	51111788544	65	20732
2026-01-27 20:16:14.64	338.37	4.20	-47.5	-50.1	6.2	0.00e+00	0	47	104	51111788544	65	20639
2026-01-27 20:16:15.65	338.39	4.13	-47.5	-50.0	6.2	0.00e+00	0	47	104	51111788544	65	20557
2026-01-27 20:16:16.66	338.40	4.05	-47.4	-50.0	6.2	0.00e+00	0	47	104	51111788544	65	20443
2026-01-27 20:16:17.67	338.42	3.97	-47.2	-49.8	6.2	0.00e+00	0	47	104	51111788544	65	19974
2026-01-27 20:16:18.68	338.44	3.90	-47.2	-49.8	6.2	0.00e+00	0	47	104	51111788544	65	20000
2026-01-27 20:16:19.69	338.46	3.82	-47.3	-49.8	6.2	0.00e+00	0	47	104	51111788544	65	20126
2026-01-27 20:16:20.70	338.47	3.75	-47.3	-49.9	6.2	0.00e+00	0	47	104	51111788544	65	20259
2026-01-27 20:16:21.71	338.49	3.67	-47.3	-49.9	6.2	0.00e+00	0	47	104	51111788544	65	20281
2026-01-27 20:16:22.72	338.51	3.60	-47.4	-49.9	6.2	0.00e+00	0	47	104	51111788544	65	20328
2026-01-27 20:16:23.73	338.52	3.52	-47.4	-49.9	6.2	0.00e+00	0	47	104	51111788544	65	20384
2026-01-27 20:16:24.74	338.54	3.45	-47.4	-49.9	6.2	0.00e+00	0	47	104	51111788544	65	20331
2026-01-27 20:16:25.75	338.56	3.37	-47.4	-49.9	6.2	0.00e+00	0	47	104	51111788544	65	20340
2026-01-27 20:16:26.76	338.58	3.30	-47.3	-49.9	6.2	0.00e+00	0	47	104	51111788544	65	20220
2026-01-27 20:16:27.77	338.59	3.23	-47.3	-49.8	6.2	0.00e+00	0	47	104	51111788544	65	20083
2026-01-27 20:16:28.78	338.61	3.15	-47.3	-49.8	6.2	0.00e+00	0	47	104	51111788544	65	20106
2026-01-27 20:16:29.79	338.63	3.08	-47.3	-49.8	6.2	0.00e+00	0	47	104	51111788544	65	20029
2026-01-27 20:16:30.80	338.64	3.01	-47.3	-49.8	6.2	0.00e+00	0	47	104	51111788544	65	19996
2026-01-27 20:16:31.81	338.66	2.93	-47.3	-49.8	6.2	0.00e+00	0	47	104	51111788544	65	20050
2026-01-27 20:16:32.82	338.68	2.86	-47.2	-49.8	6.2	0.00e+00	0	47	104	51111788544	65	20018
2026-01-27 20:16:33.83	338.69	2.79	-47.2	-49.8	6.2	0.00e+00	0	47	104	51111788544	65	20039
2026-01-27 20:16:34.84	338.71	2.72	-47.2	-49.8	6.2	0.00e+00	0	47	104	51111788544	65	20003
2026-01-27 20:16:35.85	338.72	2.65	-47.2	-49.8	6.2	0.00e+00	0	47	104	51111788544	65	20006
2026-01-27 20:16:36.86	338.74	2.57	-47.2	-49.7	6.2	0.00e+00	0	47	104	51111788544	65	19924
2026-01-27 20:16:37.87	338.76	2.50	-47.2	-49.7	6.2	0.00e+00	0	47	104	51111788544	65	19924
2026-01-27 20:16:38.89	338.77	2.43	-47.2	-49.7	6.2	0.00e+00	0	47	104	51111788544	65	19908
2026-01-27 20:16:39.90	338.79	2.36	-47.2	-49.7	6.2	0.00e+00	0	47	104	51111788544	65	19891
2026-01-27 20:16:40.91	338.80	2.29	-47.2	-49.8	6.2	0.00e+00	0	47	104	51111788544	65	19935
2026-01-27 20:16:41.92	338.82	2.22	-47.2	-49.7	6.2	0.00e+00	0	47	104	51111788544	65	19897
2026-01-27 20:16:42.93	338.84	2.15	-47.2	-49.7	6.2	0.00e+00	0	47	104	51111788544	65	19852
2026-01-27 20:16:43.94	338.85	2.08	-47.2	-49.7	6.2	0.00e+00	0	47	104	51111788544	65	19866
2026-01-27 20:16:44.95	338.87	2.01	-47.2	-49.7	6.2	0.00e+00	0	47	104	51111788544	65	19828

#Closed at: 2026-01-27 20:16:45
#Recorded file [51111 MB]: D:/lorett/data/31045_260127_230549.dat