passes_logs/2026/01/27/R3.2S_Murmansk_2ch/R3.2S_Murmansk_2ch__20260127_164352_JL1KF02B03_rec.log

#Pass ID: 20260127_164352_JL1KF02B03
#Satellite: JL1KF02B03
#Configuration: 01B_900M
#almurnet v.1.7.20251203
#Start time: 2026-01-27 16:43:53

#Version: 2.2.20231116
#Station: R3.2S_Murmansk_2ch
#Location: 33.079688 lon 68.888172 lat
#TLE: 1 61190U 24169B   26026.82354794  .00007267  00000+0  45535-3 0  9993
#TLE: 2 61190  97.5615 117.7873 0015016 142.5189 217.7090 15.09562084 74501

#Time	Az	El	Level	Level2	SNR	BER	BlckErr	Temp	State	Recorded	gain1	gain2
2026-01-27 16:43:53.55	78.87	2.04	-46.6	-49.2	6.2	0.00e+00	0	44	0	0	63	20884
2026-01-27 16:43:54.56	78.76	2.10	-46.5	-49.1	6.2	0.00e+00	0	44	104	0	64	19517
2026-01-27 16:43:55.57	78.66	2.16	-46.5	-49.1	6.2	0.00e+00	0	44	104	0	64	19495
2026-01-27 16:43:56.58	78.56	2.21	-46.5	-49.1	6.2	0.00e+00	0	44	104	0	64	19538
2026-01-27 16:43:57.59	78.46	2.27	-46.5	-49.1	6.2	0.00e+00	0	44	104	0	64	19524
2026-01-27 16:43:58.60	78.36	2.33	-46.5	-49.0	6.2	0.00e+00	0	44	104	0	64	19452
2026-01-27 16:43:59.61	78.25	2.39	-46.5	-49.1	6.2	0.00e+00	0	44	104	0	64	19503
2026-01-27 16:44:00.63	78.15	2.45	-46.5	-49.1	6.2	0.00e+00	0	44	104	0	64	19515
2026-01-27 16:44:01.64	78.05	2.51	-46.5	-49.1	6.2	0.00e+00	0	44	104	0	64	19501
2026-01-27 16:44:02.65	77.94	2.56	-46.5	-49.1	6.2	0.00e+00	0	44	104	0	64	19506
2026-01-27 16:44:03.66	77.84	2.62	-46.5	-49.1	6.2	0.00e+00	0	44	104	0	64	19510
2026-01-27 16:44:04.67	77.73	2.68	-46.5	-49.1	6.2	0.00e+00	0	44	104	0	64	19504
2026-01-27 16:44:05.68	77.62	2.74	-46.5	-49.0	6.2	0.00e+00	0	44	104	0	64	19462
2026-01-27 16:44:06.69	77.52	2.80	-46.5	-49.1	6.2	0.00e+00	0	44	104	0	64	19499
2026-01-27 16:44:07.70	77.41	2.86	-46.5	-49.1	6.2	0.00e+00	0	44	104	0	64	19546
2026-01-27 16:44:08.71	77.30	2.92	-46.5	-49.0	6.2	0.00e+00	0	44	104	0	64	19476
2026-01-27 16:44:09.72	77.19	2.98	-46.5	-49.1	6.2	0.00e+00	0	44	104	0	64	19515
2026-01-27 16:44:10.73	77.09	3.04	-46.5	-49.1	6.2	0.00e+00	0	44	104	0	64	19500
2026-01-27 16:44:11.75	76.97	3.10	-46.5	-49.1	6.2	0.00e+00	0	45	104	0	64	19509
2026-01-27 16:44:12.76	76.86	3.15	-46.5	-49.1	6.2	0.00e+00	0	44	104	0	64	19490
2026-01-27 16:44:13.76	76.75	3.21	-46.5	-49.1	6.2	0.00e+00	0	45	104	0	64	19503
2026-01-27 16:44:14.77	76.64	3.27	-46.5	-49.1	6.2	0.00e+00	0	45	104	0	64	19499
2026-01-27 16:44:15.79	76.53	3.33	-46.5	-49.1	6.2	0.00e+00	0	45	104	0	64	19524
2026-01-27 16:44:16.80	76.42	3.39	-46.5	-49.1	6.2	0.00e+00	0	45	104	0	64	19554
2026-01-27 16:44:17.81	76.31	3.45	-46.5	-49.0	6.2	0.00e+00	0	45	104	0	64	19467
2026-01-27 16:44:18.82	76.19	3.51	-46.5	-49.1	6.2	0.00e+00	0	45	104	0	64	19548
2026-01-27 16:44:19.83	76.08	3.57	-46.5	-49.0	6.2	0.00e+00	0	45	104	0	64	19460
2026-01-27 16:44:20.84	75.96	3.63	-46.5	-49.1	6.2	0.00e+00	0	45	104	0	64	19526
2026-01-27 16:44:21.85	75.85	3.69	-46.5	-49.1	6.2	0.00e+00	0	45	104	0	64	19512
2026-01-27 16:44:22.86	75.73	3.75	-46.5	-49.1	6.2	0.00e+00	0	45	104	0	64	19496
2026-01-27 16:44:23.87	75.61	3.81	-46.5	-49.1	6.2	0.00e+00	0	45	104	0	64	19542
2026-01-27 16:44:24.88	75.50	3.87	-46.5	-49.1	6.2	0.00e+00	0	45	104	0	64	19493
2026-01-27 16:44:25.89	75.38	3.93	-46.5	-49.1	6.2	0.00e+00	0	45	104	0	64	19537
2026-01-27 16:44:26.90	75.26	3.99	-46.5	-49.1	6.2	0.00e+00	0	45	104	0	64	19503
2026-01-27 16:44:27.91	75.14	4.05	-46.5	-49.1	6.2	0.00e+00	0	45	104	0	64	19521
2026-01-27 16:44:28.92	75.02	4.11	-46.5	-49.1	6.2	0.00e+00	0	45	104	0	64	19553
2026-01-27 16:44:29.93	74.90	4.17	-46.5	-49.1	6.2	0.00e+00	0	45	104	0	64	19523
2026-01-27 16:44:30.94	74.78	4.24	-46.5	-49.1	6.2	0.00e+00	0	45	104	0	64	19514
2026-01-27 16:44:31.95	74.66	4.30	-46.5	-49.1	6.2	0.00e+00	0	45	104	0	64	19528
2026-01-27 16:44:32.96	74.54	4.36	-46.5	-49.1	6.2	0.00e+00	0	45	104	0	64	19503
2026-01-27 16:44:33.97	74.41	4.42	-46.5	-49.1	6.2	0.00e+00	0	45	104	0	64	19542
2026-01-27 16:44:34.98	74.29	4.48	-46.5	-49.1	6.2	0.00e+00	0	45	104	0	64	19535
2026-01-27 16:44:35.99	74.17	4.54	-46.5	-49.1	6.2	0.00e+00	0	45	104	0	64	19541
2026-01-27 16:44:37.00	74.04	4.60	-46.5	-49.1	6.2	0.00e+00	0	45	104	0	64	19481
2026-01-27 16:44:38.01	73.92	4.66	-46.5	-49.1	6.2	0.00e+00	0	45	104	0	64	19518
2026-01-27 16:44:39.02	73.79	4.72	-46.5	-49.1	6.2	0.00e+00	0	45	104	0	64	19555
2026-01-27 16:44:40.03	73.66	4.78	-46.5	-49.0	6.2	0.00e+00	0	45	104	0	64	19476
2026-01-27 16:44:41.04	73.54	4.85	-46.5	-49.1	6.2	0.00e+00	0	45	104	0	64	19549
2026-01-27 16:44:42.05	73.41	4.91	-46.5	-49.1	6.2	0.00e+00	0	45	104	0	64	19592
2026-01-27 16:44:43.06	73.28	4.97	-46.5	-49.1	6.2	0.00e+00	0	45	104	0	64	19507
2026-01-27 16:44:44.07	73.15	5.03	-46.5	-49.1	6.2	0.00e+00	0	45	104	0	64	19537
2026-01-27 16:44:45.08	73.02	5.09	-46.5	-49.0	6.2	0.00e+00	0	45	104	0	64	19459
2026-01-27 16:44:46.10	72.89	5.15	-46.5	-49.1	6.2	0.00e+00	0	46	104	0	64	19536
2026-01-27 16:44:47.11	72.76	5.22	-46.5	-49.1	6.2	0.00e+00	0	45	104	0	64	19579
2026-01-27 16:44:48.12	72.62	5.28	-46.5	-49.1	6.2	0.00e+00	0	45	104	0	64	19529
2026-01-27 16:44:49.13	72.49	5.34	-46.5	-49.1	6.2	0.00e+00	0	45	104	0	64	19502
2026-01-27 16:44:50.14	72.36	5.40	-46.5	-49.1	6.2	0.00e+00	0	45	104	0	64	19537
2026-01-27 16:44:51.15	72.22	5.46	-46.5	-49.1	6.2	0.00e+00	0	45	104	0	64	19483
2026-01-27 16:44:52.16	72.09	5.53	-46.5	-49.1	6.2	0.00e+00	0	45	104	0	64	19577
2026-01-27 16:44:53.17	71.95	5.59	-46.5	-49.1	6.2	0.00e+00	0	46	104	0	64	19539
2026-01-27 16:44:54.18	71.81	5.65	-46.5	-49.1	6.2	0.00e+00	0	45	104	0	64	19500
2026-01-27 16:44:55.19	71.68	5.71	-46.5	-49.1	6.2	0.00e+00	0	45	104	0	64	19532
2026-01-27 16:44:56.20	71.54	5.78	-46.5	-49.1	6.2	0.00e+00	0	45	104	0	64	19480
2026-01-27 16:44:57.21	71.40	5.84	-46.5	-49.1	6.2	0.00e+00	0	46	104	0	64	19544
2026-01-27 16:44:58.22	71.26	5.90	-46.5	-49.1	6.2	0.00e+00	0	46	104	0	64	19557
2026-01-27 16:44:59.23	71.12	5.96	-46.5	-49.1	6.2	0.00e+00	0	46	104	0	64	19518
2026-01-27 16:45:00.24	70.98	6.03	-46.5	-49.1	6.2	0.00e+00	0	46	104	0	64	19557
2026-01-27 16:45:01.25	70.84	6.09	-46.5	-49.1	6.2	0.00e+00	0	46	104	0	64	19512
2026-01-27 16:45:02.26	70.69	6.15	-46.5	-49.1	6.2	0.00e+00	0	45	104	0	64	19565
2026-01-27 16:45:03.27	70.55	6.21	-46.5	-49.0	6.2	0.00e+00	0	46	104	0	64	19469
2026-01-27 16:45:04.28	70.41	6.28	-46.5	-49.1	6.2	0.00e+00	0	46	104	0	64	19515
2026-01-27 16:45:05.29	70.26	6.34	-46.5	-49.1	6.2	0.00e+00	0	46	104	0	64	19495
2026-01-27 16:45:06.30	70.11	6.40	-46.5	-49.1	6.2	0.00e+00	0	46	104	0	64	19553
2026-01-27 16:45:07.31	69.97	6.46	-46.5	-49.1	6.2	0.00e+00	0	46	104	0	64	19527
2026-01-27 16:45:08.32	69.82	6.53	-46.5	-49.1	6.2	0.00e+00	0	46	104	0	64	19598
2026-01-27 16:45:09.34	69.67	6.59	-46.5	-49.1	6.2	0.00e+00	0	46	104	0	64	19536
2026-01-27 16:45:10.35	69.52	6.65	-46.5	-49.1	6.2	0.00e+00	0	46	104	0	64	19523
2026-01-27 16:45:11.36	69.37	6.72	-46.5	-49.1	6.2	0.00e+00	0	46	104	0	64	19536
2026-01-27 16:45:12.37	69.22	6.78	-46.5	-49.1	6.2	0.00e+00	0	46	104	0	64	19527
2026-01-27 16:45:13.38	69.07	6.84	-46.5	-49.1	6.2	0.00e+00	0	46	104	0	64	19587
2026-01-27 16:45:14.39	68.92	6.91	-46.5	-49.1	6.2	0.00e+00	0	46	104	0	64	19522
2026-01-27 16:45:15.40	68.77	6.97	-46.5	-49.1	6.2	0.00e+00	0	46	104	0	64	19539
2026-01-27 16:45:16.41	68.61	7.03	-46.5	-49.1	6.2	0.00e+00	0	46	104	0	64	19554
2026-01-27 16:45:17.42	68.46	7.10	-46.5	-49.1	6.2	0.00e+00	0	46	104	0	64	19593
2026-01-27 16:45:18.43	68.30	7.16	-46.5	-49.1	6.2	0.00e+00	0	46	104	0	64	19585
2026-01-27 16:45:19.44	68.14	7.22	-46.5	-49.1	6.2	0.00e+00	0	46	104	0	64	19492
2026-01-27 16:45:20.45	67.99	7.29	-46.5	-49.1	6.2	0.00e+00	0	46	104	0	64	19545
2026-01-27 16:45:21.46	67.83	7.35	-46.5	-49.1	6.2	0.00e+00	0	46	104	0	64	19523
2026-01-27 16:45:22.47	67.67	7.41	-46.5	-49.1	6.2	0.00e+00	0	46	104	0	64	19592
2026-01-27 16:45:23.48	67.51	7.48	-46.5	-49.1	6.2	0.00e+00	0	46	104	0	64	19508
2026-01-27 16:45:24.49	67.35	7.54	-46.5	-49.1	6.2	0.00e+00	0	46	104	0	64	19568
2026-01-27 16:45:25.51	67.19	7.60	-46.5	-49.1	6.2	0.00e+00	0	46	104	0	64	19545
2026-01-27 16:45:26.52	67.02	7.67	-46.5	-49.1	6.2	0.00e+00	0	46	104	0	64	19556
2026-01-27 16:45:27.53	66.86	7.73	-46.5	-49.1	6.2	0.00e+00	0	46	104	0	64	19534
2026-01-27 16:45:28.54	66.70	7.80	-46.5	-49.1	6.2	0.00e+00	0	46	104	0	64	19570
2026-01-27 16:45:29.55	66.53	7.86	-46.5	-49.1	6.2	0.00e+00	0	46	104	0	64	19557
2026-01-27 16:45:30.56	66.37	7.92	-46.5	-49.1	6.2	0.00e+00	0	46	104	0	64	19617
2026-01-27 16:45:31.57	66.20	7.99	-46.5	-49.1	6.2	0.00e+00	0	46	104	0	64	19558
2026-01-27 16:45:32.58	66.03	8.05	-46.5	-49.1	6.2	0.00e+00	0	46	104	0	64	19557
2026-01-27 16:45:33.59	65.86	8.11	-46.5	-49.1	6.2	0.00e+00	0	46	104	0	64	19556
2026-01-27 16:45:34.60	65.69	8.18	-46.5	-49.1	6.2	0.00e+00	0	46	104	0	64	19526
2026-01-27 16:45:35.61	65.52	8.24	-46.5	-49.1	6.2	0.00e+00	0	46	104	0	64	19580
2026-01-27 16:45:36.62	65.35	8.30	-46.5	-49.1	6.2	0.00e+00	0	46	104	0	64	19602
2026-01-27 16:45:37.63	65.18	8.37	-46.5	-49.1	6.2	0.00e+00	0	46	104	0	64	19572
2026-01-27 16:45:38.64	65.00	8.43	-46.5	-49.1	6.2	0.00e+00	0	46	104	0	64	19562
2026-01-27 16:45:39.65	64.83	8.50	-46.5	-49.1	6.2	0.00e+00	0	46	104	0	64	19556
2026-01-27 16:45:40.66	64.66	8.56	-46.5	-49.1	6.2	0.00e+00	0	46	104	0	64	19520
2026-01-27 16:45:41.67	64.48	8.62	-46.5	-49.1	6.2	0.00e+00	0	46	104	0	64	19528
2026-01-27 16:45:42.68	64.30	8.69	-46.5	-49.1	6.2	0.00e+00	0	46	104	0	64	19550
2026-01-27 16:45:43.69	64.12	8.75	-46.5	-49.1	6.2	0.00e+00	0	46	104	0	64	19559
2026-01-27 16:45:44.70	63.95	8.81	-46.5	-49.1	6.2	0.00e+00	0	46	104	0	64	19546
2026-01-27 16:45:45.72	63.76	8.88	-46.5	-49.1	6.2	0.00e+00	0	46	104	0	64	19574
2026-01-27 16:45:46.73	63.58	8.94	-46.5	-49.1	6.2	0.00e+00	0	46	104	0	64	19537
2026-01-27 16:45:47.74	63.40	9.00	-46.5	-49.1	6.2	0.00e+00	0	46	104	0	64	19599
2026-01-27 16:45:48.74	63.22	9.07	-46.5	-49.1	6.2	0.00e+00	0	46	104	0	64	19594
2026-01-27 16:45:49.76	63.03	9.13	-46.5	-49.1	6.2	0.00e+00	0	46	104	0	64	19554
2026-01-27 16:45:50.76	62.85	9.19	-46.5	-49.1	6.2	0.00e+00	0	46	104	0	64	19628
2026-01-27 16:45:51.78	62.66	9.26	-46.5	-49.1	6.2	0.00e+00	0	46	104	0	64	19581
2026-01-27 16:45:52.79	62.48	9.32	-46.5	-49.1	6.2	0.00e+00	0	46	104	0	64	19584
2026-01-27 16:45:53.80	62.29	9.38	-46.5	-49.1	6.2	0.00e+00	0	46	104	0	64	19615
2026-01-27 16:45:54.81	62.10	9.45	-46.5	-49.1	6.2	0.00e+00	0	46	104	0	64	19515
2026-01-27 16:45:55.82	61.91	9.51	-46.5	-49.1	6.2	0.00e+00	0	46	104	0	64	19569
2026-01-27 16:45:56.83	61.72	9.57	-46.5	-49.1	6.2	0.00e+00	0	46	104	0	64	19573
2026-01-27 16:45:57.84	61.53	9.64	-46.5	-49.1	6.2	0.00e+00	0	46	104	0	64	19562
2026-01-27 16:45:58.85	61.34	9.70	-46.5	-49.1	6.2	0.00e+00	0	46	104	0	64	19566
2026-01-27 16:45:59.86	61.14	9.76	-46.5	-49.1	6.2	0.00e+00	0	46	104	0	64	19586
2026-01-27 16:46:00.87	60.95	9.82	-46.5	-49.1	6.2	0.00e+00	0	46	104	0	64	19603
2026-01-27 16:46:01.88	60.75	9.89	-46.5	-49.1	6.2	0.00e+00	0	46	104	0	64	19590
2026-01-27 16:46:02.89	60.55	9.95	-46.5	-49.1	6.2	0.00e+00	0	46	104	0	64	19613
2026-01-27 16:46:03.90	60.36	10.01	-46.5	-49.1	6.2	0.00e+00	0	46	104	0	64	19641
2026-01-27 16:46:04.92	60.15	10.08	-46.5	-49.1	6.2	0.00e+00	0	46	104	0	64	19643
2026-01-27 16:46:05.93	59.95	10.14	-46.5	-49.1	6.2	0.00e+00	0	46	104	0	64	19563
2026-01-27 16:46:06.94	59.75	10.20	-46.5	-49.1	6.2	0.00e+00	0	46	104	0	64	19602
2026-01-27 16:46:07.95	59.55	10.26	-46.5	-49.1	6.2	0.00e+00	0	46	104	0	64	19612
2026-01-27 16:46:08.96	59.35	10.32	-46.5	-49.1	6.2	0.00e+00	0	46	104	0	64	19511
2026-01-27 16:46:09.97	59.14	10.39	-46.5	-49.1	6.2	0.00e+00	0	46	104	0	64	19545
2026-01-27 16:46:10.98	58.94	10.45	-46.5	-49.1	6.2	0.00e+00	0	46	104	0	64	19583
2026-01-27 16:46:11.99	58.73	10.51	-46.5	-49.1	6.2	0.00e+00	0	46	104	0	64	19600
2026-01-27 16:46:13.00	58.53	10.57	-46.5	-49.1	6.2	0.00e+00	0	46	104	0	64	19568
2026-01-27 16:46:14.01	58.32	10.63	-46.5	-49.1	6.2	0.00e+00	0	46	104	0	64	19624
2026-01-27 16:46:15.02	58.11	10.69	-46.5	-49.1	6.2	0.00e+00	0	46	104	0	64	19570
2026-01-27 16:46:16.03	57.90	10.76	-46.5	-49.1	6.2	0.00e+00	0	46	104	0	64	19568
2026-01-27 16:46:17.04	57.69	10.82	-46.5	-49.1	6.2	0.00e+00	0	46	104	0	64	19577
2026-01-27 16:46:18.05	57.47	10.88	-46.5	-49.1	6.2	0.00e+00	0	46	104	0	64	19591
2026-01-27 16:46:19.06	57.26	10.94	-46.5	-49.1	6.2	0.00e+00	0	46	104	0	64	19590
2026-01-27 16:46:20.07	57.04	11.00	-46.5	-49.1	6.2	0.00e+00	0	46	104	0	64	19573
2026-01-27 16:46:21.09	56.83	11.06	-46.5	-49.1	6.2	0.00e+00	0	46	104	0	64	19597
2026-01-27 16:46:22.10	56.61	11.12	-46.5	-49.1	6.2	0.00e+00	0	46	104	0	64	19594
2026-01-27 16:46:23.11	56.39	11.18	-46.5	-49.1	6.2	0.00e+00	0	46	104	0	64	19547
2026-01-27 16:46:24.12	56.17	11.24	-46.5	-49.1	6.2	0.00e+00	0	46	104	0	64	19586
2026-01-27 16:46:25.13	55.95	11.30	-46.5	-49.1	6.2	0.00e+00	0	46	104	0	64	19567
2026-01-27 16:46:26.14	55.73	11.36	-46.5	-49.1	6.2	0.00e+00	0	46	104	0	64	19607
2026-01-27 16:46:27.15	55.51	11.42	-46.5	-49.1	6.2	0.00e+00	0	46	104	0	64	19610
2026-01-27 16:46:28.15	55.29	11.48	-46.5	-49.1	6.2	0.00e+00	0	46	104	0	64	19552
2026-01-27 16:46:29.17	55.06	11.54	-46.5	-49.1	6.2	0.00e+00	0	47	104	0	64	19604
2026-01-27 16:46:30.18	54.83	11.60	-46.5	-49.1	6.2	0.00e+00	0	46	104	0	64	19580
2026-01-27 16:46:31.19	54.61	11.66	-46.5	-49.1	6.2	0.00e+00	0	46	104	0	64	19542
2026-01-27 16:46:32.20	54.38	11.72	-46.5	-49.1	6.2	0.00e+00	0	46	104	0	64	19603
2026-01-27 16:46:33.21	54.15	11.77	-46.5	-49.1	6.2	0.00e+00	0	46	104	0	64	19567
2026-01-27 16:46:34.22	53.92	11.83	-46.5	-49.1	6.2	0.00e+00	0	46	104	0	64	19575
2026-01-27 16:46:35.23	53.69	11.89	-46.5	-49.1	6.2	0.00e+00	0	46	104	0	64	19637
2026-01-27 16:46:36.24	53.46	11.95	-46.5	-49.1	6.2	0.00e+00	0	46	104	0	64	19612
2026-01-27 16:46:37.25	53.22	12.01	-46.5	-49.1	6.2	0.00e+00	0	46	104	0	64	19549
2026-01-27 16:46:38.26	52.99	12.06	-46.5	-49.1	6.2	0.00e+00	0	46	104	0	64	19579
2026-01-27 16:46:39.27	52.75	12.12	-46.5	-49.1	6.2	0.00e+00	0	46	104	0	64	19587
2026-01-27 16:46:40.28	52.52	12.18	-46.5	-49.1	6.2	0.00e+00	0	46	104	0	64	19595
2026-01-27 16:46:41.29	52.28	12.23	-46.5	-49.1	6.2	0.00e+00	0	46	104	0	64	19548
2026-01-27 16:46:42.30	52.04	12.29	-46.5	-49.1	6.2	0.00e+00	0	47	104	0	64	19556
2026-01-27 16:46:43.31	51.80	12.35	-46.5	-49.1	6.2	0.00e+00	0	46	104	0	64	19572
2026-01-27 16:46:44.32	51.56	12.40	-46.5	-49.1	6.2	0.00e+00	0	46	104	0	64	19593
2026-01-27 16:46:45.33	51.32	12.46	-46.5	-49.1	6.2	0.00e+00	0	46	104	0	64	19591
2026-01-27 16:46:46.34	51.08	12.51	-46.5	-49.1	6.2	0.00e+00	0	47	104	0	64	19602
2026-01-27 16:46:47.35	50.83	12.57	-46.5	-49.1	6.2	0.00e+00	0	46	104	0	64	19540
2026-01-27 16:46:48.36	50.59	12.62	-46.5	-49.1	6.2	0.00e+00	0	46	104	0	64	19601
2026-01-27 16:46:49.37	50.34	12.68	-46.5	-49.1	6.2	0.00e+00	0	46	104	0	64	19582
2026-01-27 16:46:50.38	50.09	12.73	-46.5	-49.1	6.2	0.00e+00	0	46	104	0	64	19616
2026-01-27 16:46:51.39	49.84	12.78	-46.5	-49.1	6.2	0.00e+00	0	46	104	0	64	19639
2026-01-27 16:46:52.41	49.59	12.84	-46.5	-49.1	6.2	0.00e+00	0	46	104	0	64	19588
2026-01-27 16:46:53.42	49.34	12.89	-46.5	-49.1	6.2	0.00e+00	0	46	104	0	64	19593
2026-01-27 16:46:54.43	49.09	12.94	-46.5	-49.1	6.2	0.00e+00	0	46	104	0	64	19557
2026-01-27 16:46:55.44	48.84	13.00	-46.5	-49.1	6.2	0.00e+00	0	46	104	0	64	19587
2026-01-27 16:46:56.45	48.58	13.05	-46.5	-49.1	6.2	0.00e+00	0	46	104	0	64	19592
2026-01-27 16:46:57.46	48.33	13.10	-46.5	-49.1	6.2	0.00e+00	0	46	104	0	64	19522
2026-01-27 16:46:58.47	48.07	13.15	-46.5	-49.1	6.2	0.00e+00	0	47	104	0	64	19573
2026-01-27 16:46:59.48	47.81	13.20	-46.5	-49.1	6.2	0.00e+00	0	46	104	0	64	19626
2026-01-27 16:47:00.49	47.56	13.25	-46.5	-49.1	6.2	0.00e+00	0	46	104	0	64	19595
2026-01-27 16:47:01.50	47.30	13.30	-46.5	-49.1	6.2	0.00e+00	0	46	104	0	64	19622
2026-01-27 16:47:02.51	47.04	13.35	-46.5	-49.1	6.2	0.00e+00	0	46	104	0	64	19601
2026-01-27 16:47:03.52	46.77	13.40	-46.5	-49.1	6.2	0.00e+00	0	47	104	0	64	19589
2026-01-27 16:47:04.53	46.51	13.45	-46.5	-49.1	6.2	0.00e+00	0	46	104	0	64	19555
2026-01-27 16:47:05.54	46.25	13.50	-46.5	-49.1	6.2	0.00e+00	0	47	104	0	64	19614
2026-01-27 16:47:06.55	45.98	13.55	-46.5	-49.1	6.2	0.00e+00	0	46	104	0	64	19612
2026-01-27 16:47:07.56	45.72	13.60	-46.5	-49.1	6.2	0.00e+00	0	46	104	0	64	19581
2026-01-27 16:47:08.57	45.45	13.64	-46.5	-49.1	6.2	0.00e+00	0	46	104	0	64	19617
2026-01-27 16:47:09.58	45.18	13.69	-46.5	-49.1	6.2	0.00e+00	0	46	104	0	64	19645
2026-01-27 16:47:10.59	44.92	13.74	-46.5	-49.1	6.2	0.00e+00	0	46	104	0	64	19663
2026-01-27 16:47:11.61	44.64	13.78	-46.5	-49.1	6.2	0.00e+00	0	46	104	0	64	19582
2026-01-27 16:47:12.62	44.37	13.83	-46.5	-49.1	6.2	0.00e+00	0	46	104	0	64	19652
2026-01-27 16:47:13.63	44.10	13.88	-46.5	-49.1	6.2	0.00e+00	0	46	104	0	64	19575
2026-01-27 16:47:14.64	43.83	13.92	-46.5	-49.1	6.2	0.00e+00	0	47	104	0	64	19603
2026-01-27 16:47:15.65	43.56	13.96	-46.5	-49.1	6.2	0.00e+00	0	47	104	0	64	19600
2026-01-27 16:47:16.66	43.28	14.01	-46.5	-49.1	6.2	0.00e+00	0	47	104	0	64	19601
2026-01-27 16:47:17.67	43.01	14.05	-46.5	-49.1	6.2	0.00e+00	0	46	104	0	64	19603
2026-01-27 16:47:18.68	42.73	14.09	-46.5	-49.1	6.2	0.00e+00	0	46	104	0	64	19632
2026-01-27 16:47:19.69	42.45	14.14	-46.5	-49.1	6.2	0.00e+00	0	46	104	0	64	19633
2026-01-27 16:47:20.70	42.17	14.18	-46.5	-49.1	6.2	0.00e+00	0	46	104	0	64	19554
2026-01-27 16:47:21.71	41.90	14.22	-46.5	-49.1	6.2	0.00e+00	0	46	104	0	64	19626
2026-01-27 16:47:22.72	41.62	14.26	-46.5	-49.1	6.2	0.00e+00	0	46	104	0	64	19568
2026-01-27 16:47:23.73	41.33	14.30	-46.5	-49.1	6.2	0.00e+00	0	46	104	0	64	19625
2026-01-27 16:47:24.74	41.05	14.34	-46.5	-49.1	6.2	0.00e+00	0	47	104	0	64	19593
2026-01-27 16:47:25.75	40.77	14.38	-46.5	-49.1	6.2	0.00e+00	0	46	104	0	64	19572
2026-01-27 16:47:26.76	40.49	14.42	-46.5	-49.1	6.2	0.00e+00	0	46	104	0	64	19605
2026-01-27 16:47:27.77	40.20	14.46	-46.5	-49.1	6.2	0.00e+00	0	47	104	0	64	19605
2026-01-27 16:47:28.78	39.92	14.50	-46.5	-49.1	6.2	0.00e+00	0	46	104	0	64	19600
2026-01-27 16:47:29.79	39.63	14.53	-46.5	-49.1	6.2	0.00e+00	0	46	104	0	64	19607
2026-01-27 16:47:30.80	39.34	14.57	-46.5	-49.1	6.2	0.00e+00	0	47	104	0	64	19633
2026-01-27 16:47:31.81	39.06	14.61	-46.5	-49.1	6.2	0.00e+00	0	46	104	0	64	19622
2026-01-27 16:47:32.82	38.77	14.64	-46.5	-49.1	6.2	0.00e+00	0	46	104	0	64	19597
2026-01-27 16:47:33.83	38.48	14.68	-46.5	-49.1	6.2	0.00e+00	0	47	104	0	64	19628
2026-01-27 16:47:34.84	38.19	14.71	-46.5	-49.1	6.2	0.00e+00	0	47	104	0	64	19644
2026-01-27 16:47:35.85	37.90	14.74	-46.5	-49.1	6.2	0.00e+00	0	46	104	0	64	19607
2026-01-27 16:47:36.86	37.60	14.78	-46.5	-49.1	6.2	0.00e+00	0	46	104	0	64	19591
2026-01-27 16:47:37.87	37.31	14.81	-46.5	-49.1	6.2	0.00e+00	0	47	104	0	64	19552
2026-01-27 16:47:38.88	37.02	14.84	-46.5	-49.1	6.2	0.00e+00	0	47	104	0	64	19568
2026-01-27 16:47:39.89	36.72	14.87	-46.5	-49.1	6.2	0.00e+00	0	47	104	0	64	19570
2026-01-27 16:47:40.90	36.43	14.90	-46.5	-49.1	6.2	0.00e+00	0	46	104	0	64	19619
2026-01-27 16:47:41.92	36.13	14.93	-46.5	-49.1	6.2	0.00e+00	0	46	104	0	64	19637
2026-01-27 16:47:42.93	35.84	14.96	-46.5	-49.1	6.2	0.00e+00	0	47	104	0	64	19609
2026-01-27 16:47:43.94	35.54	14.99	-46.5	-49.1	6.2	0.00e+00	0	46	104	0	64	19612
2026-01-27 16:47:44.95	35.24	15.02	-46.5	-49.1	6.2	0.00e+00	0	47	104	0	64	19620
2026-01-27 16:47:45.96	34.94	15.05	-46.5	-49.1	6.2	0.00e+00	0	47	104	0	64	19589
2026-01-27 16:47:46.97	34.64	15.07	-46.5	-49.1	6.2	0.00e+00	0	47	104	0	64	19615
2026-01-27 16:47:47.98	34.34	15.10	-46.5	-49.1	6.2	0.00e+00	0	47	104	0	64	19601
2026-01-27 16:47:48.99	34.04	15.13	-46.5	-49.1	6.2	0.00e+00	0	46	104	0	64	19585
2026-01-27 16:47:50.00	33.74	15.15	-46.5	-49.1	6.2	0.00e+00	0	47	104	0	64	19546
2026-01-27 16:47:51.01	33.44	15.17	-46.5	-49.1	6.2	0.00e+00	0	47	104	0	64	19624
2026-01-27 16:47:52.02	33.14	15.20	-46.5	-49.1	6.2	0.00e+00	0	46	104	0	64	19663
2026-01-27 16:47:53.03	32.84	15.22	-46.5	-49.1	6.2	0.00e+00	0	46	104	0	64	19569
2026-01-27 16:47:54.04	32.54	15.24	-46.5	-49.1	6.2	0.00e+00	0	47	104	0	64	19591
2026-01-27 16:47:55.05	32.23	15.26	-46.5	-49.1	6.2	0.00e+00	0	47	104	0	64	19550
2026-01-27 16:47:56.06	31.93	15.29	-46.5	-49.1	6.2	0.00e+00	0	46	104	0	64	19616
2026-01-27 16:47:57.07	31.62	15.31	-46.5	-49.1	6.2	0.00e+00	0	47	104	0	64	19606
2026-01-27 16:47:58.08	31.32	15.32	-46.5	-49.1	6.2	0.00e+00	0	46	104	0	64	19691
2026-01-27 16:47:59.09	31.01	15.34	-46.5	-49.1	6.2	0.00e+00	0	46	104	0	64	19598
2026-01-27 16:48:00.10	30.71	15.36	-46.5	-49.1	6.2	0.00e+00	0	47	104	0	64	19637
2026-01-27 16:48:01.11	30.40	15.38	-46.5	-49.1	6.2	0.00e+00	0	47	104	0	64	19654
2026-01-27 16:48:02.13	30.09	15.40	-46.5	-49.1	6.2	0.00e+00	0	46	104	0	64	19643
2026-01-27 16:48:03.14	29.78	15.41	-46.5	-49.1	6.2	0.00e+00	0	46	104	0	64	19633
2026-01-27 16:48:04.15	29.48	15.43	-46.5	-49.1	6.2	0.00e+00	0	46	104	0	64	19661
2026-01-27 16:48:05.16	29.17	15.44	-46.5	-49.1	6.2	0.00e+00	0	46	104	0	64	19597
2026-01-27 16:48:06.17	28.86	15.45	-46.5	-49.1	6.2	0.00e+00	0	46	104	0	64	19630
2026-01-27 16:48:07.18	28.55	15.47	-46.5	-49.1	6.2	0.00e+00	0	46	104	0	64	19651
2026-01-27 16:48:08.19	28.24	15.48	-46.5	-49.1	6.2	0.00e+00	0	46	104	0	64	19606
2026-01-27 16:48:09.20	27.94	15.49	-46.5	-49.1	6.2	0.00e+00	0	47	104	0	64	19588
2026-01-27 16:48:10.21	27.63	15.50	-46.5	-49.1	6.2	0.00e+00	0	47	104	0	64	19604
2026-01-27 16:48:11.22	27.32	15.51	-46.5	-49.1	6.2	0.00e+00	0	46	104	0	64	19562
2026-01-27 16:48:12.23	27.01	15.52	-46.5	-49.1	6.2	0.00e+00	0	47	104	0	64	19594
2026-01-27 16:48:13.24	26.70	15.53	-46.5	-49.1	6.2	0.00e+00	0	47	104	0	64	19634
2026-01-27 16:48:14.25	26.39	15.54	-46.5	-49.1	6.2	0.00e+00	0	47	104	0	64	19571
2026-01-27 16:48:15.26	26.08	15.54	-46.5	-49.1	6.2	0.00e+00	0	47	104	0	64	19590
2026-01-27 16:48:16.27	25.77	15.55	-46.5	-49.1	6.2	0.00e+00	0	46	104	0	64	19639
2026-01-27 16:48:17.28	25.45	15.56	-46.5	-49.1	6.2	0.00e+00	0	47	104	0	64	19616
2026-01-27 16:48:18.29	25.14	15.56	-46.5	-49.1	6.2	0.00e+00	0	47	104	0	64	19611
2026-01-27 16:48:19.30	24.83	15.56	-46.5	-49.1	6.2	0.00e+00	0	46	104	0	64	19675
2026-01-27 16:48:20.31	24.52	15.57	-46.5	-49.1	6.2	0.00e+00	0	47	104	0	64	19527
2026-01-27 16:48:21.32	24.21	15.57	-46.5	-49.1	6.2	0.00e+00	0	47	104	0	64	19632
2026-01-27 16:48:22.33	23.90	15.57	-46.5	-49.1	6.2	0.00e+00	0	47	104	0	64	19627
2026-01-27 16:48:23.34	23.59	15.57	-46.5	-49.1	6.2	0.00e+00	0	47	104	0	64	19639
2026-01-27 16:48:24.35	23.28	15.57	-46.5	-49.1	6.2	0.00e+00	0	47	104	0	64	19686
2026-01-27 16:48:25.36	22.97	15.57	-46.5	-49.1	6.2	0.00e+00	0	47	104	0	64	19595
2026-01-27 16:48:26.37	22.65	15.57	-46.5	-49.1	6.2	0.00e+00	0	47	104	0	64	19612
2026-01-27 16:48:27.38	22.34	15.57	-46.5	-49.1	6.2	0.00e+00	0	47	104	0	64	19655
2026-01-27 16:48:28.40	22.03	15.57	-46.5	-49.1	6.2	0.00e+00	0	47	104	0	64	19639
2026-01-27 16:48:29.41	21.72	15.56	-46.5	-49.1	6.2	0.00e+00	0	47	104	0	64	19596
2026-01-27 16:48:30.42	21.41	15.56	-46.5	-49.1	6.2	0.00e+00	0	47	104	0	64	19663
2026-01-27 16:48:31.43	21.10	15.55	-46.5	-49.1	6.2	0.00e+00	0	46	104	0	64	19558
2026-01-27 16:48:32.44	20.79	15.55	-46.5	-49.1	6.2	0.00e+00	0	47	104	0	64	19669
2026-01-27 16:48:33.45	20.47	15.54	-46.5	-49.1	6.2	0.00e+00	0	47	104	0	64	19651
2026-01-27 16:48:34.46	20.16	15.53	-46.5	-49.1	6.2	0.00e+00	0	47	104	0	64	19663
2026-01-27 16:48:35.47	19.85	15.53	-46.5	-49.1	6.2	0.00e+00	0	47	104	0	64	19651
2026-01-27 16:48:36.48	19.54	15.52	-46.5	-49.1	6.2	0.00e+00	0	47	104	0	64	19610
2026-01-27 16:48:37.49	19.23	15.51	-46.5	-49.1	6.2	0.00e+00	0	47	104	0	64	19642
2026-01-27 16:48:38.50	18.92	15.50	-46.5	-49.1	6.2	0.00e+00	0	47	104	0	64	19655
2026-01-27 16:48:39.51	18.62	15.49	-46.5	-49.1	6.2	0.00e+00	0	47	104	0	64	19682
2026-01-27 16:48:40.52	18.31	15.47	-46.5	-49.1	6.2	0.00e+00	0	47	104	0	64	19581
2026-01-27 16:48:41.53	18.00	15.46	-46.5	-49.1	6.2	0.00e+00	0	47	104	0	64	19667
2026-01-27 16:48:42.54	17.69	15.45	-46.5	-49.1	6.2	0.00e+00	0	47	104	0	64	19671
2026-01-27 16:48:43.55	17.38	15.43	-46.5	-49.2	6.2	0.00e+00	0	47	104	0	64	19721
2026-01-27 16:48:44.56	17.07	15.42	-46.5	-49.1	6.2	0.00e+00	0	47	104	0	64	19655
2026-01-27 16:48:45.57	16.77	15.40	-46.5	-49.1	6.2	0.00e+00	0	47	104	0	64	19647
2026-01-27 16:48:46.58	16.46	15.39	-46.5	-49.1	6.2	0.00e+00	0	47	104	0	64	19650
2026-01-27 16:48:47.59	16.15	15.37	-46.5	-49.1	6.2	0.00e+00	0	46	104	0	64	19682
2026-01-27 16:48:48.61	15.84	15.35	-46.5	-49.1	6.2	0.00e+00	0	46	104	0	64	19637
2026-01-27 16:48:49.61	15.54	15.33	-46.5	-49.1	6.2	0.00e+00	0	47	104	0	64	19682
2026-01-27 16:48:50.62	15.23	15.32	-46.5	-49.1	6.2	0.00e+00	0	47	104	0	64	19624
2026-01-27 16:48:51.63	14.93	15.30	-46.5	-49.1	6.2	0.00e+00	0	47	104	0	64	19655
2026-01-27 16:48:52.64	14.63	15.28	-46.5	-49.1	6.2	0.00e+00	0	46	104	0	64	19638
2026-01-27 16:48:53.65	14.32	15.25	-46.5	-49.1	6.2	0.00e+00	0	47	104	0	64	19622
2026-01-27 16:48:54.66	14.02	15.23	-46.5	-49.1	6.2	0.00e+00	0	47	104	0	64	19657
2026-01-27 16:48:55.68	13.71	15.21	-46.5	-49.1	6.2	0.00e+00	0	47	104	0	64	19641
2026-01-27 16:48:56.69	13.41	15.19	-46.5	-49.1	6.2	0.00e+00	0	47	104	0	64	19661
2026-01-27 16:48:57.70	13.11	15.16	-46.5	-49.1	6.2	0.00e+00	0	47	104	0	64	19657
2026-01-27 16:48:58.70	12.81	15.14	-46.5	-49.1	6.2	0.00e+00	0	47	104	0	64	19664
2026-01-27 16:48:59.72	12.51	15.11	-46.5	-49.2	6.2	0.00e+00	0	47	104	0	64	19707
2026-01-27 16:49:00.73	12.21	15.09	-46.5	-49.1	6.2	0.00e+00	0	47	104	0	64	19698
2026-01-27 16:49:01.74	11.91	15.06	-46.5	-49.1	6.2	0.00e+00	0	47	104	0	64	19582
2026-01-27 16:49:02.75	11.61	15.03	-46.5	-49.1	6.2	0.00e+00	0	47	104	0	64	19566
2026-01-27 16:49:03.76	11.31	15.01	-46.5	-49.1	6.2	0.00e+00	0	47	104	0	64	19634
2026-01-27 16:49:04.77	11.01	14.98	-46.5	-49.1	6.2	0.00e+00	0	46	104	0	64	19673
2026-01-27 16:49:05.78	10.71	14.95	-46.5	-49.1	6.2	0.00e+00	0	47	104	0	64	19614
2026-01-27 16:49:06.79	10.42	14.92	-46.5	-49.1	6.2	0.00e+00	0	47	104	0	64	19560
2026-01-27 16:49:07.80	10.12	14.89	-46.5	-49.1	6.2	0.00e+00	0	47	104	0	64	19617
2026-01-27 16:49:08.81	9.83	14.86	-46.5	-49.1	6.2	0.00e+00	0	47	104	0	64	19674
2026-01-27 16:49:09.82	9.53	14.83	-46.5	-49.1	6.2	0.00e+00	0	47	104	0	64	19643
2026-01-27 16:49:10.83	9.24	14.79	-46.5	-49.1	6.2	0.00e+00	0	47	104	0	64	19621
2026-01-27 16:49:11.84	8.95	14.76	-46.5	-49.1	6.2	0.00e+00	0	47	104	0	64	19614
2026-01-27 16:49:12.85	8.66	14.73	-46.5	-49.1	6.2	0.00e+00	0	47	104	0	64	19644
2026-01-27 16:49:13.86	8.36	14.69	-46.5	-49.1	6.2	0.00e+00	0	47	104	0	64	19679
2026-01-27 16:49:14.87	8.07	14.66	-46.5	-49.1	6.2	0.00e+00	0	46	104	0	64	19634
2026-01-27 16:49:15.88	7.78	14.62	-46.5	-49.1	6.2	0.00e+00	0	47	104	0	64	19622
2026-01-27 16:49:16.89	7.50	14.59	-46.5	-49.1	6.2	0.00e+00	0	47	104	0	64	19637
2026-01-27 16:49:17.90	7.21	14.55	-46.5	-49.1	6.2	0.00e+00	0	47	104	0	64	19623
2026-01-27 16:49:18.91	6.92	14.51	-46.6	-49.1	6.2	0.00e+00	0	47	104	0	64	19681
2026-01-27 16:49:19.92	6.63	14.48	-46.5	-49.1	6.2	0.00e+00	0	47	104	0	64	19656
2026-01-27 16:49:20.93	6.35	14.44	-46.5	-49.1	6.2	0.00e+00	0	47	104	0	64	19613
2026-01-27 16:49:21.94	6.06	14.40	-46.5	-49.1	6.2	0.00e+00	0	47	104	0	64	19685
2026-01-27 16:49:22.95	5.78	14.36	-46.5	-49.1	6.2	0.00e+00	0	47	104	0	64	19660
2026-01-27 16:49:23.96	5.50	14.32	-46.5	-49.1	6.2	0.00e+00	0	47	104	0	64	19682
2026-01-27 16:49:24.97	5.22	14.28	-46.5	-49.1	6.2	0.00e+00	0	47	104	0	64	19648
2026-01-27 16:49:25.98	4.94	14.24	-46.5	-49.1	6.2	0.00e+00	0	46	104	0	64	19677
2026-01-27 16:49:26.99	4.66	14.20	-46.5	-49.1	6.2	0.00e+00	0	47	104	0	64	19631
2026-01-27 16:49:28.00	4.38	14.16	-46.5	-49.1	6.2	0.00e+00	0	47	104	0	64	19667
2026-01-27 16:49:29.01	4.10	14.11	-46.5	-49.1	6.2	0.00e+00	0	46	104	0	64	19647
2026-01-27 16:49:30.02	3.82	14.07	-46.5	-49.1	6.2	0.00e+00	0	47	104	0	64	19664
2026-01-27 16:49:31.03	3.54	14.03	-46.5	-49.1	6.2	0.00e+00	0	47	104	0	64	19684
2026-01-27 16:49:32.04	3.27	13.98	-46.5	-49.1	6.2	0.00e+00	0	47	104	0	64	19620
2026-01-27 16:49:33.06	2.99	13.94	-46.5	-49.1	6.2	0.00e+00	0	47	104	0	64	19660
2026-01-27 16:49:34.07	2.72	13.90	-46.5	-49.1	6.2	0.00e+00	0	47	104	0	64	19667
2026-01-27 16:49:35.08	2.45	13.85	-46.5	-49.1	6.2	0.00e+00	0	47	104	0	64	19668
2026-01-27 16:49:36.09	2.17	13.80	-46.5	-49.1	6.2	0.00e+00	0	47	104	0	64	19631
2026-01-27 16:49:37.10	1.90	13.76	-46.5	-49.1	6.2	0.00e+00	0	47	104	0	64	19632
2026-01-27 16:49:38.11	1.63	13.71	-46.5	-49.1	6.2	0.00e+00	0	47	104	0	64	19659
2026-01-27 16:49:39.12	1.37	13.67	-46.5	-49.1	6.2	0.00e+00	0	47	104	0	64	19651
2026-01-27 16:49:40.13	1.10	13.62	-46.5	-49.1	6.2	0.00e+00	0	47	104	0	64	19642
2026-01-27 16:49:41.14	0.83	13.57	-46.5	-49.1	6.2	0.00e+00	0	47	104	0	64	19644
2026-01-27 16:49:42.15	0.57	13.52	-46.5	-49.1	6.2	0.00e+00	0	47	104	0	64	19664
2026-01-27 16:49:43.16	0.30	13.47	-46.5	-49.1	6.2	0.00e+00	0	46	104	0	64	19639
2026-01-27 16:49:44.17	0.04	13.42	-46.5	-49.1	6.2	0.00e+00	0	47	104	0	64	19689
2026-01-27 16:49:45.18	359.78	13.37	-46.5	-49.1	6.2	0.00e+00	0	47	104	0	64	19664
2026-01-27 16:49:46.19	359.51	13.32	-46.5	-49.1	6.2	0.00e+00	0	47	104	0	64	19624
2026-01-27 16:49:47.20	359.25	13.27	-46.5	-49.2	6.2	0.00e+00	0	47	104	0	64	19707
2026-01-27 16:49:48.21	358.99	13.22	-46.5	-49.1	6.2	0.00e+00	0	47	104	0	64	19684
2026-01-27 16:49:49.22	358.74	13.17	-46.5	-49.1	6.2	0.00e+00	0	47	104	0	64	19627
2026-01-27 16:49:50.23	358.48	13.12	-46.6	-49.1	6.2	0.00e+00	0	47	104	0	64	19610
2026-01-27 16:49:51.24	358.22	13.07	-46.5	-49.1	6.2	0.00e+00	0	47	104	0	64	19703
2026-01-27 16:49:52.25	357.97	13.02	-46.5	-49.1	6.2	0.00e+00	0	47	104	0	64	19633
2026-01-27 16:49:53.26	357.71	12.97	-46.5	-49.1	6.2	0.00e+00	0	47	104	0	64	19680
2026-01-27 16:49:54.27	357.46	12.91	-46.5	-49.1	6.2	0.00e+00	0	47	104	0	64	19644
2026-01-27 16:49:55.28	357.21	12.86	-46.5	-49.1	6.2	0.00e+00	0	47	104	0	64	19641
2026-01-27 16:49:56.29	356.96	12.81	-46.5	-49.1	6.2	0.00e+00	0	47	104	0	64	19655
2026-01-27 16:49:57.30	356.71	12.75	-46.5	-49.1	6.2	0.00e+00	0	47	104	0	64	19647
2026-01-27 16:49:58.31	356.46	12.70	-46.5	-49.1	6.2	0.00e+00	0	47	104	0	64	19693
2026-01-27 16:49:59.32	356.21	12.64	-46.5	-49.1	6.2	0.00e+00	0	47	104	0	64	19698
2026-01-27 16:50:00.33	355.97	12.59	-46.5	-49.1	6.2	0.00e+00	0	47	104	0	64	19604
2026-01-27 16:50:01.34	355.72	12.53	-46.5	-49.1	6.2	0.00e+00	0	47	104	0	64	19657
2026-01-27 16:50:02.36	355.47	12.48	-46.5	-49.1	6.2	0.00e+00	0	47	104	0	64	19599
2026-01-27 16:50:03.37	355.23	12.42	-46.5	-49.1	6.2	0.00e+00	0	47	104	0	64	19655
2026-01-27 16:50:04.38	354.99	12.37	-46.5	-49.2	6.2	0.00e+00	0	47	104	0	64	19708
2026-01-27 16:50:05.39	354.75	12.31	-46.6	-49.2	6.2	0.00e+00	0	47	104	0	64	19724
2026-01-27 16:50:06.40	354.51	12.26	-46.5	-49.1	6.2	0.00e+00	0	47	104	0	64	19661
2026-01-27 16:50:07.41	354.27	12.20	-46.5	-49.1	6.2	0.00e+00	0	47	104	0	64	19595
2026-01-27 16:50:08.42	354.03	12.14	-46.6	-49.1	6.2	0.00e+00	0	47	104	0	64	19637
2026-01-27 16:50:09.43	353.79	12.08	-46.5	-49.1	6.2	0.00e+00	0	47	104	0	64	19669
2026-01-27 16:50:10.44	353.56	12.03	-46.5	-49.1	6.2	0.00e+00	0	47	104	0	64	19638
2026-01-27 16:50:11.45	353.32	11.97	-46.5	-49.1	6.2	0.00e+00	0	47	104	0	64	19602
2026-01-27 16:50:12.46	353.09	11.91	-46.5	-49.1	6.2	0.00e+00	0	47	104	0	64	19639
2026-01-27 16:50:13.47	352.86	11.85	-46.5	-49.1	6.2	0.00e+00	0	47	104	0	64	19644
2026-01-27 16:50:14.48	352.63	11.80	-46.5	-49.2	6.2	0.00e+00	0	47	104	0	64	19716
2026-01-27 16:50:15.49	352.40	11.74	-46.5	-49.1	6.2	0.00e+00	0	47	104	0	64	19671
2026-01-27 16:50:16.51	352.17	11.68	-46.5	-49.1	6.2	0.00e+00	0	47	104	0	64	19543
2026-01-27 16:50:17.52	351.94	11.62	-46.5	-49.1	6.2	0.00e+00	0	47	104	0	64	19617
2026-01-27 16:50:18.53	351.71	11.56	-46.5	-49.1	6.2	0.00e+00	0	47	104	0	64	19669
2026-01-27 16:50:19.53	351.49	11.50	-46.5	-49.1	6.2	0.00e+00	0	47	104	0	64	19683
2026-01-27 16:50:20.55	351.26	11.44	-46.5	-49.1	6.2	0.00e+00	0	47	104	0	64	19684
2026-01-27 16:50:21.56	351.04	11.38	-46.5	-49.1	6.2	0.00e+00	0	46	104	0	64	19671
2026-01-27 16:50:22.57	350.81	11.32	-46.5	-49.1	6.2	0.00e+00	0	47	104	0	64	19615
2026-01-27 16:50:23.58	350.59	11.26	-46.5	-49.1	6.2	0.00e+00	0	47	104	0	64	19607
2026-01-27 16:50:24.59	350.37	11.20	-46.5	-49.1	6.2	0.00e+00	0	47	104	0	64	19644
2026-01-27 16:50:25.60	350.15	11.14	-46.5	-49.1	6.2	0.00e+00	0	47	104	0	64	19647
2026-01-27 16:50:26.61	349.94	11.08	-46.5	-49.1	6.2	0.00e+00	0	47	104	0	64	19658
2026-01-27 16:50:27.62	349.72	11.02	-46.5	-49.1	6.2	0.00e+00	0	47	104	0	64	19620
2026-01-27 16:50:28.63	349.50	10.96	-46.5	-49.1	6.2	0.00e+00	0	47	104	0	64	19627
2026-01-27 16:50:29.64	349.29	10.90	-46.5	-49.1	6.2	0.00e+00	0	47	104	0	64	19626
2026-01-27 16:50:30.65	349.07	10.84	-46.5	-49.1	6.2	0.00e+00	0	47	104	0	64	19608
2026-01-27 16:50:31.66	348.86	10.78	-46.5	-49.1	6.2	0.00e+00	0	47	104	0	64	19686
2026-01-27 16:50:32.67	348.65	10.71	-46.5	-49.1	6.2	0.00e+00	0	47	104	0	64	19637
2026-01-27 16:50:33.68	348.44	10.65	-46.5	-49.1	6.2	0.00e+00	0	47	104	0	64	19666
2026-01-27 16:50:34.69	348.23	10.59	-46.5	-49.1	6.2	0.00e+00	0	47	104	0	64	19633
2026-01-27 16:50:35.70	348.02	10.53	-46.5	-49.1	6.2	0.00e+00	0	47	104	0	64	19612
2026-01-27 16:50:36.71	347.81	10.47	-46.5	-49.1	6.2	0.00e+00	0	47	104	0	64	19660
2026-01-27 16:50:37.72	347.61	10.40	-46.5	-49.1	6.2	0.00e+00	0	46	104	0	64	19644
2026-01-27 16:50:38.73	347.40	10.34	-46.5	-49.1	6.2	0.00e+00	0	47	104	0	64	19642
2026-01-27 16:50:39.74	347.20	10.28	-46.5	-49.1	6.2	0.00e+00	0	47	104	0	64	19664
2026-01-27 16:50:40.75	347.00	10.22	-46.5	-49.1	6.2	0.00e+00	0	47	104	0	64	19636
2026-01-27 16:50:41.76	346.79	10.16	-46.5	-49.1	6.2	0.00e+00	0	47	104	0	64	19598
2026-01-27 16:50:42.77	346.59	10.09	-46.5	-49.1	6.2	0.00e+00	0	47	104	0	64	19648
2026-01-27 16:50:43.78	346.39	10.03	-46.5	-49.1	6.2	0.00e+00	0	47	104	0	64	19644
2026-01-27 16:50:44.79	346.19	9.97	-46.5	-49.2	6.2	0.00e+00	0	46	104	0	64	19708
2026-01-27 16:50:45.80	346.00	9.90	-46.5	-49.1	6.2	0.00e+00	0	47	104	0	64	19645
2026-01-27 16:50:46.82	345.80	9.84	-46.5	-49.1	6.2	0.00e+00	0	47	104	0	64	19653
2026-01-27 16:50:47.83	345.60	9.78	-46.5	-49.1	6.2	0.00e+00	0	47	104	0	64	19588
2026-01-27 16:50:48.84	345.41	9.72	-46.5	-49.1	6.2	0.00e+00	0	47	104	0	64	19597
2026-01-27 16:50:49.84	345.21	9.65	-46.5	-49.1	6.2	0.00e+00	0	47	104	0	64	19604
2026-01-27 16:50:50.85	345.02	9.59	-46.5	-49.1	6.2	0.00e+00	0	47	104	0	64	19645
2026-01-27 16:50:51.86	344.83	9.53	-46.5	-49.1	6.2	0.00e+00	0	47	104	0	64	19657
2026-01-27 16:50:52.87	344.64	9.46	-46.5	-49.1	6.2	0.00e+00	0	47	104	0	64	19674
2026-01-27 16:50:53.88	344.45	9.40	-46.5	-49.1	6.2	0.00e+00	0	47	104	0	64	19600
2026-01-27 16:50:54.89	344.26	9.34	-46.5	-49.1	6.2	0.00e+00	0	47	104	0	64	19645
2026-01-27 16:50:55.91	344.07	9.27	-46.5	-49.1	6.2	0.00e+00	0	47	104	0	64	19665
2026-01-27 16:50:56.92	343.88	9.21	-46.5	-49.1	6.2	0.00e+00	0	47	104	0	64	19630
2026-01-27 16:50:57.93	343.70	9.15	-46.5	-49.1	6.2	0.00e+00	0	47	104	0	64	19666
2026-01-27 16:50:58.94	343.51	9.08	-46.5	-49.1	6.2	0.00e+00	0	47	104	0	64	19633
2026-01-27 16:50:59.95	343.33	9.02	-46.5	-49.1	6.2	0.00e+00	0	47	104	0	64	19598
2026-01-27 16:51:00.96	343.15	8.95	-46.5	-49.1	6.2	0.00e+00	0	47	104	0	64	19629
2026-01-27 16:51:01.97	342.96	8.89	-46.5	-49.1	6.2	0.00e+00	0	47	104	0	64	19624
2026-01-27 16:51:02.98	342.78	8.83	-46.5	-49.1	6.2	0.00e+00	0	47	104	0	64	19653
2026-01-27 16:51:03.99	342.60	8.76	-46.5	-49.1	6.2	0.00e+00	0	47	104	0	64	19660
2026-01-27 16:51:05.00	342.42	8.70	-46.5	-49.1	6.2	0.00e+00	0	47	104	0	64	19631
2026-01-27 16:51:06.01	342.25	8.64	-46.5	-49.1	6.2	0.00e+00	0	47	104	0	64	19640
2026-01-27 16:51:07.02	342.07	8.57	-46.5	-49.2	6.2	0.00e+00	0	47	104	0	64	19713
2026-01-27 16:51:08.03	341.89	8.51	-46.5	-49.1	6.2	0.00e+00	0	47	104	0	64	19636
2026-01-27 16:51:09.04	341.72	8.44	-46.5	-49.1	6.2	0.00e+00	0	47	104	0	64	19670
2026-01-27 16:51:10.05	341.54	8.38	-46.5	-49.1	6.2	0.00e+00	0	47	104	0	64	19674
2026-01-27 16:51:11.06	341.37	8.32	-46.5	-49.1	6.2	0.00e+00	0	47	104	0	64	19586
2026-01-27 16:51:12.07	341.20	8.25	-46.5	-49.1	6.2	0.00e+00	0	47	104	0	64	19638
2026-01-27 16:51:13.09	341.03	8.19	-46.5	-49.1	6.2	0.00e+00	0	47	104	0	64	19645
2026-01-27 16:51:14.10	340.85	8.12	-46.5	-49.1	6.2	0.00e+00	0	47	104	0	64	19637
2026-01-27 16:51:15.11	340.69	8.06	-46.5	-49.1	6.2	0.00e+00	0	47	104	0	64	19627
2026-01-27 16:51:16.12	340.52	8.00	-46.5	-49.2	6.2	0.00e+00	0	47	104	0	64	19705
2026-01-27 16:51:17.13	340.35	7.93	-46.5	-49.1	6.2	0.00e+00	0	47	104	0	64	19656
2026-01-27 16:51:18.14	340.18	7.87	-46.5	-49.1	6.2	0.00e+00	0	47	104	0	64	19646
2026-01-27 16:51:19.15	340.02	7.81	-46.5	-49.1	6.2	0.00e+00	0	47	104	0	64	19663
2026-01-27 16:51:20.16	339.85	7.74	-46.5	-49.1	6.2	0.00e+00	0	47	104	0	64	19633
2026-01-27 16:51:21.17	339.69	7.68	-46.5	-49.1	6.2	0.00e+00	0	47	104	0	64	19587
2026-01-27 16:51:22.18	339.52	7.61	-46.5	-49.1	6.2	0.00e+00	0	47	104	0	64	19602
2026-01-27 16:51:23.19	339.36	7.55	-46.5	-49.1	6.2	0.00e+00	0	47	104	0	64	19615
2026-01-27 16:51:24.20	339.20	7.49	-46.5	-49.1	6.2	0.00e+00	0	47	104	0	64	19673
2026-01-27 16:51:25.21	339.04	7.42	-46.5	-49.1	6.2	0.00e+00	0	47	104	0	64	19617
2026-01-27 16:51:26.22	338.88	7.36	-46.5	-49.1	6.2	0.00e+00	0	47	104	0	64	19628
2026-01-27 16:51:27.23	338.72	7.30	-46.5	-49.1	6.2	0.00e+00	0	47	104	0	64	19605
2026-01-27 16:51:28.24	338.56	7.23	-46.5	-49.1	6.2	0.00e+00	0	47	104	0	64	19665
2026-01-27 16:51:29.25	338.41	7.17	-46.5	-49.1	6.2	0.00e+00	0	47	104	0	64	19657
2026-01-27 16:51:30.26	338.25	7.10	-46.5	-49.1	6.2	0.00e+00	0	47	104	0	64	19663
2026-01-27 16:51:31.27	338.09	7.04	-46.5	-49.1	6.2	0.00e+00	0	47	104	0	64	19676
2026-01-27 16:51:32.29	337.94	6.98	-46.5	-49.2	6.2	0.00e+00	0	47	104	0	64	19713
2026-01-27 16:51:33.30	337.78	6.91	-46.5	-49.1	6.2	0.00e+00	0	47	104	0	64	19662
2026-01-27 16:51:34.31	337.63	6.85	-46.5	-49.1	6.2	0.00e+00	0	47	104	0	64	19586
2026-01-27 16:51:35.32	337.48	6.79	-46.5	-49.1	6.2	0.00e+00	0	47	104	0	64	19610
2026-01-27 16:51:36.33	337.33	6.72	-46.5	-49.1	6.2	0.00e+00	0	47	104	0	64	19637
2026-01-27 16:51:37.34	337.18	6.66	-46.5	-49.1	6.2	0.00e+00	0	47	104	0	64	19580
2026-01-27 16:51:38.35	337.03	6.60	-46.5	-49.1	6.2	0.00e+00	0	47	104	0	64	19685
2026-01-27 16:51:39.36	336.88	6.53	-46.5	-49.1	6.2	0.00e+00	0	47	104	0	64	19656
2026-01-27 16:51:40.37	336.73	6.47	-46.5	-49.1	6.2	0.00e+00	0	47	104	0	64	19619
2026-01-27 16:51:41.38	336.58	6.41	-46.5	-49.1	6.2	0.00e+00	0	47	104	0	64	19689
2026-01-27 16:51:42.39	336.44	6.34	-46.5	-49.1	6.2	0.00e+00	0	47	104	0	64	19666
2026-01-27 16:51:43.40	336.29	6.28	-46.5	-49.1	6.2	0.00e+00	0	47	104	0	64	19659
2026-01-27 16:51:44.41	336.14	6.22	-46.5	-49.1	6.2	0.00e+00	0	47	104	0	64	19655
2026-01-27 16:51:45.42	336.00	6.15	-46.5	-49.1	6.2	0.00e+00	0	47	104	0	64	19649
2026-01-27 16:51:46.43	335.86	6.09	-46.5	-49.1	6.2	0.00e+00	0	47	104	0	64	19689
2026-01-27 16:51:47.44	335.71	6.03	-46.5	-49.1	6.2	0.00e+00	0	47	104	0	64	19660
2026-01-27 16:51:48.45	335.57	5.97	-46.5	-49.1	6.2	0.00e+00	0	47	104	0	64	19684
2026-01-27 16:51:49.46	335.43	5.90	-46.5	-49.1	6.2	0.00e+00	0	47	104	0	64	19660
2026-01-27 16:51:50.47	335.29	5.84	-46.5	-49.1	6.2	0.00e+00	0	47	104	0	64	19620
2026-01-27 16:51:51.48	335.15	5.78	-46.6	-49.1	6.2	0.00e+00	0	47	104	0	64	19653
2026-01-27 16:51:52.49	335.01	5.71	-46.5	-49.1	6.2	0.00e+00	0	47	104	0	64	19652
2026-01-27 16:51:53.50	334.87	5.65	-46.5	-49.1	6.2	0.00e+00	0	47	104	0	64	19650
2026-01-27 16:51:54.51	334.74	5.59	-46.5	-49.1	6.2	0.00e+00	0	47	104	0	64	19650
2026-01-27 16:51:55.52	334.60	5.53	-46.5	-49.1	6.2	0.00e+00	0	47	104	0	64	19574
2026-01-27 16:51:56.53	334.47	5.47	-46.5	-49.1	6.2	0.00e+00	0	47	104	0	64	19678
2026-01-27 16:51:57.54	334.33	5.40	-46.5	-49.1	6.2	0.00e+00	0	47	104	0	64	19622
2026-01-27 16:51:58.55	334.20	5.34	-46.5	-49.1	6.2	0.00e+00	0	47	104	0	64	19658
2026-01-27 16:51:59.56	334.06	5.28	-46.5	-49.1	6.2	0.00e+00	0	47	104	0	64	19660
2026-01-27 16:52:00.57	333.93	5.22	-46.5	-49.1	6.2	0.00e+00	0	47	104	0	64	19597
2026-01-27 16:52:01.58	333.80	5.15	-46.5	-49.1	6.2	0.00e+00	0	47	104	0	64	19609
2026-01-27 16:52:02.59	333.67	5.09	-46.5	-49.1	6.2	0.00e+00	0	47	104	0	64	19597
2026-01-27 16:52:03.60	333.53	5.03	-46.5	-49.1	6.2	0.00e+00	0	47	104	0	64	19614
2026-01-27 16:52:04.61	333.40	4.97	-46.5	-49.1	6.2	0.00e+00	0	47	104	0	64	19569
2026-01-27 16:52:05.62	333.27	4.91	-46.5	-49.1	6.2	0.00e+00	0	47	104	0	64	19624
2026-01-27 16:52:06.64	333.14	4.84	-46.5	-49.1	6.2	0.00e+00	0	47	104	0	64	19642
2026-01-27 16:52:07.65	333.02	4.78	-46.5	-49.1	6.2	0.00e+00	0	47	104	0	64	19685
2026-01-27 16:52:08.65	332.89	4.72	-46.5	-49.1	6.2	0.00e+00	0	47	104	0	64	19654
2026-01-27 16:52:09.67	332.76	4.66	-46.5	-49.1	6.2	0.00e+00	0	47	104	0	64	19598
2026-01-27 16:52:10.68	332.64	4.60	-46.5	-49.1	6.2	0.00e+00	0	47	104	0	64	19660
2026-01-27 16:52:11.69	332.51	4.54	-46.5	-49.1	6.2	0.00e+00	0	47	104	0	64	19697
2026-01-27 16:52:12.70	332.39	4.48	-46.5	-49.1	6.2	0.00e+00	0	47	104	0	64	19686
2026-01-27 16:52:13.71	332.26	4.41	-46.5	-49.1	6.2	0.00e+00	0	47	104	0	64	19687
2026-01-27 16:52:14.72	332.14	4.35	-46.5	-49.1	6.2	0.00e+00	0	47	104	0	64	19622
2026-01-27 16:52:15.73	332.02	4.29	-46.5	-49.1	6.2	0.00e+00	0	47	104	0	64	19592
2026-01-27 16:52:16.74	331.89	4.23	-46.5	-49.1	6.2	0.00e+00	0	47	104	0	64	19658
2026-01-27 16:52:17.75	331.77	4.17	-46.5	-49.1	6.2	0.00e+00	0	47	104	0	64	19651
2026-01-27 16:52:18.76	331.65	4.11	-46.5	-49.1	6.2	0.00e+00	0	47	104	0	64	19667
2026-01-27 16:52:19.77	331.53	4.05	-46.5	-49.1	6.2	0.00e+00	0	47	104	0	64	19698
2026-01-27 16:52:20.78	331.41	3.99	-46.5	-49.1	6.2	0.00e+00	0	47	104	0	64	19662
2026-01-27 16:52:21.79	331.29	3.93	-46.5	-49.1	6.2	0.00e+00	0	47	104	0	64	19674
2026-01-27 16:52:22.80	331.17	3.87	-46.5	-49.1	6.2	0.00e+00	0	47	104	0	64	19622
2026-01-27 16:52:23.81	331.06	3.81	-46.5	-49.1	6.2	0.00e+00	0	47	104	0	64	19662
2026-01-27 16:52:24.82	330.94	3.75	-46.5	-49.1	6.2	0.00e+00	0	47	104	0	64	19677
2026-01-27 16:52:25.83	330.82	3.69	-46.5	-49.1	6.2	0.00e+00	0	47	104	0	64	19636
2026-01-27 16:52:26.84	330.71	3.63	-46.5	-49.1	6.2	0.00e+00	0	47	104	0	64	19666
2026-01-27 16:52:27.85	330.59	3.56	-46.5	-49.1	6.2	0.00e+00	0	47	104	0	64	19678
2026-01-27 16:52:28.86	330.48	3.50	-46.5	-49.1	6.2	0.00e+00	0	47	104	0	64	19636
2026-01-27 16:52:29.87	330.36	3.44	-46.5	-49.1	6.2	0.00e+00	0	47	104	0	64	19677
2026-01-27 16:52:30.88	330.25	3.38	-46.5	-49.1	6.2	0.00e+00	0	47	104	0	64	19671
2026-01-27 16:52:31.89	330.14	3.33	-46.5	-49.1	6.2	0.00e+00	0	47	104	0	64	19617
2026-01-27 16:52:32.90	330.02	3.27	-46.5	-49.1	6.2	0.00e+00	0	47	104	0	64	19622
2026-01-27 16:52:33.91	329.91	3.21	-46.5	-49.1	6.2	0.00e+00	0	47	104	0	64	19641
2026-01-27 16:52:34.92	329.80	3.15	-46.5	-49.1	6.2	0.00e+00	0	47	104	0	64	19701
2026-01-27 16:52:35.93	329.69	3.09	-46.5	-49.1	6.2	0.00e+00	0	47	104	0	64	19658
2026-01-27 16:52:36.94	329.58	3.03	-46.5	-49.1	6.2	0.00e+00	0	47	104	0	64	19623
2026-01-27 16:52:37.96	329.47	2.97	-46.5	-49.2	6.2	0.00e+00	0	47	104	0	64	19711
2026-01-27 16:52:38.96	329.36	2.91	-46.5	-49.1	6.2	0.00e+00	0	47	104	0	64	19668
2026-01-27 16:52:39.98	329.25	2.85	-46.5	-49.1	6.2	0.00e+00	0	47	104	0	64	19704
2026-01-27 16:52:40.99	329.15	2.79	-46.5	-49.1	6.2	0.00e+00	0	47	104	0	64	19637
2026-01-27 16:52:42.00	329.04	2.73	-46.5	-49.1	6.2	0.00e+00	0	47	104	0	64	19595
2026-01-27 16:52:43.01	328.93	2.67	-46.5	-49.1	6.2	0.00e+00	0	47	104	0	64	19697
2026-01-27 16:52:44.02	328.83	2.61	-46.5	-49.1	6.2	0.00e+00	0	47	104	0	64	19626
2026-01-27 16:52:45.03	328.72	2.55	-46.6	-49.1	6.2	0.00e+00	0	47	104	0	64	19654
2026-01-27 16:52:46.04	328.62	2.49	-46.5	-49.1	6.2	0.00e+00	0	47	104	0	64	19578
2026-01-27 16:52:47.05	328.51	2.44	-46.5	-49.1	6.2	0.00e+00	0	47	104	0	64	19602
2026-01-27 16:52:48.06	328.41	2.38	-46.5	-49.1	6.2	0.00e+00	0	47	104	0	64	19590
2026-01-27 16:52:49.07	328.30	2.32	-46.5	-49.1	6.2	0.00e+00	0	47	104	0	64	19653
2026-01-27 16:52:50.08	328.20	2.26	-46.5	-49.1	6.2	0.00e+00	0	47	104	0	64	19660
2026-01-27 16:52:51.09	328.10	2.20	-46.6	-49.1	6.2	0.00e+00	0	47	104	0	64	19634
2026-01-27 16:52:52.10	328.00	2.14	-46.6	-49.1	6.2	0.00e+00	0	47	104	0	64	19666
2026-01-27 16:52:53.11	327.90	2.09	-46.5	-49.1	6.2	0.00e+00	0	47	104	0	64	19677
2026-01-27 16:52:54.12	327.79	2.03	-46.5	-49.1	6.2	0.00e+00	0	47	104	0	64	19681

#Closed at: 2026-01-27 16:52:55
#Recorded file [0 MB]: D:/lorett/data/31045_260127_194353.dat