passes_logs/2026/01/27/R3.2S_Murmansk_2ch/R3.2S_Murmansk_2ch__20260127_161751_JL1KF02B05_rec.log

#Pass ID: 20260127_161751_JL1KF02B05
#Satellite: JL1KF02B05
#Configuration: 01B_900M
#almurnet v.1.7.20251203
#Start time: 2026-01-27 16:17:51

#Version: 2.2.20231116
#Station: R3.2S_Murmansk_2ch
#Location: 33.079688 lon 68.888172 lat
#TLE: 1 61194U 24169F   26026.80503862  .00008208  00000+0  50948-3 0  9997
#TLE: 2 61194  97.5598 118.4623 0018068 119.0393 241.2649 15.09820916 74516

#Time	Az	El	Level	Level2	SNR	BER	BlckErr	Temp	State	Recorded	gain1	gain2
2026-01-27 16:17:51.64	68.56	2.01	-46.6	-49.2	6.2	0.00e+00	0	44	0	0	63	20939
2026-01-27 16:17:52.65	68.45	2.07	-46.5	-49.1	6.2	0.00e+00	0	44	104	0	64	19562
2026-01-27 16:17:53.66	68.34	2.12	-46.5	-49.1	6.2	0.00e+00	0	44	104	0	64	19539
2026-01-27 16:17:54.67	68.23	2.18	-46.5	-49.1	6.2	0.00e+00	0	44	104	0	64	19546
2026-01-27 16:17:55.68	68.11	2.24	-46.5	-49.1	6.2	0.00e+00	0	44	104	0	64	19512
2026-01-27 16:17:56.69	68.00	2.29	-46.5	-49.1	6.2	0.00e+00	0	44	104	0	64	19516
2026-01-27 16:17:57.70	67.89	2.35	-46.5	-49.1	6.2	0.00e+00	0	44	104	0	64	19522
2026-01-27 16:17:58.71	67.78	2.40	-46.5	-49.1	6.2	0.00e+00	0	44	104	0	64	19511
2026-01-27 16:17:59.72	67.67	2.46	-46.5	-49.1	6.2	0.00e+00	0	44	104	0	64	19544
2026-01-27 16:18:00.73	67.55	2.52	-46.5	-49.1	6.2	0.00e+00	0	44	104	0	64	19533
2026-01-27 16:18:01.74	67.44	2.57	-46.5	-49.1	6.2	0.00e+00	0	44	104	0	64	19545
2026-01-27 16:18:02.75	67.32	2.63	-46.5	-49.1	6.2	0.00e+00	0	44	104	0	64	19485
2026-01-27 16:18:03.76	67.21	2.68	-46.5	-49.1	6.2	0.00e+00	0	44	104	0	64	19510
2026-01-27 16:18:04.77	67.09	2.74	-46.5	-49.1	6.2	0.00e+00	0	44	104	0	64	19505
2026-01-27 16:18:05.79	66.97	2.80	-46.5	-49.1	6.2	0.00e+00	0	44	104	0	64	19555
2026-01-27 16:18:06.80	66.86	2.85	-46.5	-49.1	6.2	0.00e+00	0	44	104	0	64	19506
2026-01-27 16:18:07.81	66.74	2.91	-46.5	-49.0	6.2	0.00e+00	0	44	104	0	64	19475
2026-01-27 16:18:08.82	66.62	2.97	-46.5	-49.1	6.2	0.00e+00	0	45	104	0	64	19510
2026-01-27 16:18:09.83	66.50	3.02	-46.5	-49.1	6.2	0.00e+00	0	44	104	0	64	19493
2026-01-27 16:18:10.84	66.38	3.08	-46.5	-49.1	6.2	0.00e+00	0	44	104	0	64	19493
2026-01-27 16:18:11.85	66.26	3.14	-46.5	-49.0	6.2	0.00e+00	0	45	104	0	64	19458
2026-01-27 16:18:12.86	66.14	3.19	-46.5	-49.0	6.2	0.00e+00	0	45	104	0	64	19472
2026-01-27 16:18:13.87	66.02	3.25	-46.5	-49.1	6.2	0.00e+00	0	45	104	0	64	19543
2026-01-27 16:18:14.88	65.90	3.31	-46.5	-49.1	6.2	0.00e+00	0	45	104	0	64	19551
2026-01-27 16:18:15.89	65.77	3.36	-46.5	-49.1	6.2	0.00e+00	0	45	104	0	64	19606
2026-01-27 16:18:16.90	65.65	3.42	-46.5	-49.1	6.2	0.00e+00	0	45	104	0	64	19483
2026-01-27 16:18:17.91	65.53	3.48	-46.5	-49.1	6.2	0.00e+00	0	45	104	0	64	19552
2026-01-27 16:18:18.92	65.40	3.53	-46.5	-49.1	6.2	0.00e+00	0	45	104	0	64	19571
2026-01-27 16:18:19.93	65.28	3.59	-46.5	-49.1	6.2	0.00e+00	0	45	104	0	64	19607
2026-01-27 16:18:20.94	65.15	3.65	-46.5	-49.1	6.2	0.00e+00	0	45	104	0	64	19557
2026-01-27 16:18:21.95	65.03	3.70	-46.5	-49.1	6.2	0.00e+00	0	45	104	0	64	19508
2026-01-27 16:18:22.96	64.90	3.76	-46.5	-49.1	6.2	0.00e+00	0	45	104	0	64	19583
2026-01-27 16:18:23.97	64.77	3.82	-46.5	-49.1	6.2	0.00e+00	0	45	104	0	64	19491
2026-01-27 16:18:24.98	64.64	3.88	-46.5	-49.1	6.2	0.00e+00	0	45	104	0	64	19521
2026-01-27 16:18:26.00	64.51	3.93	-46.5	-49.1	6.2	0.00e+00	0	45	104	0	64	19573
2026-01-27 16:18:27.00	64.39	3.99	-46.5	-49.1	6.2	0.00e+00	0	45	104	0	64	19598
2026-01-27 16:18:28.01	64.26	4.05	-46.5	-49.1	6.2	0.00e+00	0	45	104	0	64	19552
2026-01-27 16:18:29.02	64.13	4.10	-46.5	-49.1	6.2	0.00e+00	0	45	104	0	64	19553
2026-01-27 16:18:30.04	63.99	4.16	-46.5	-49.1	6.2	0.00e+00	0	45	104	0	64	19502
2026-01-27 16:18:31.05	63.86	4.22	-46.5	-49.1	6.2	0.00e+00	0	45	104	0	64	19583
2026-01-27 16:18:32.05	63.73	4.28	-46.5	-49.1	6.2	0.00e+00	0	45	104	0	64	19584
2026-01-27 16:18:33.07	63.59	4.34	-46.5	-49.1	6.2	0.00e+00	0	45	104	0	64	19543
2026-01-27 16:18:34.08	63.46	4.39	-46.5	-49.1	6.2	0.00e+00	0	45	104	0	64	19566
2026-01-27 16:18:35.09	63.33	4.45	-46.5	-49.1	6.2	0.00e+00	0	45	104	0	64	19582
2026-01-27 16:18:36.10	63.19	4.51	-46.5	-49.1	6.2	0.00e+00	0	45	104	0	64	19515
2026-01-27 16:18:37.11	63.05	4.57	-46.5	-49.1	6.2	0.00e+00	0	45	104	0	64	19546
2026-01-27 16:18:38.12	62.92	4.62	-46.5	-49.1	6.2	0.00e+00	0	45	104	0	64	19573
2026-01-27 16:18:39.13	62.78	4.68	-46.5	-49.1	6.2	0.00e+00	0	45	104	0	64	19512
2026-01-27 16:18:40.14	62.64	4.74	-46.5	-49.1	6.2	0.00e+00	0	45	104	0	64	19532
2026-01-27 16:18:41.15	62.50	4.80	-46.5	-49.1	6.2	0.00e+00	0	45	104	0	64	19558
2026-01-27 16:18:42.16	62.36	4.85	-46.5	-49.1	6.2	0.00e+00	0	45	104	0	64	19580
2026-01-27 16:18:43.17	62.22	4.91	-46.5	-49.1	6.2	0.00e+00	0	46	104	0	64	19530
2026-01-27 16:18:44.18	62.08	4.97	-46.5	-49.1	6.2	0.00e+00	0	45	104	0	64	19554
2026-01-27 16:18:45.19	61.94	5.03	-46.5	-49.1	6.2	0.00e+00	0	45	104	0	64	19547
2026-01-27 16:18:46.20	61.80	5.09	-46.5	-49.1	6.2	0.00e+00	0	45	104	0	64	19559
2026-01-27 16:18:47.21	61.66	5.14	-46.5	-49.1	6.2	0.00e+00	0	45	104	0	64	19490
2026-01-27 16:18:48.22	61.51	5.20	-46.5	-49.1	6.2	0.00e+00	0	45	104	0	64	19548
2026-01-27 16:18:49.23	61.37	5.26	-46.5	-49.1	6.2	0.00e+00	0	45	104	0	64	19553
2026-01-27 16:18:50.24	61.22	5.32	-46.5	-49.1	6.2	0.00e+00	0	45	104	0	64	19603
2026-01-27 16:18:51.25	61.08	5.38	-46.5	-49.1	6.2	0.00e+00	0	45	104	0	64	19548
2026-01-27 16:18:52.26	60.93	5.43	-46.5	-49.1	6.2	0.00e+00	0	45	104	0	64	19577
2026-01-27 16:18:53.27	60.78	5.49	-46.5	-49.1	6.2	0.00e+00	0	46	104	0	64	19556
2026-01-27 16:18:54.28	60.63	5.55	-46.5	-49.1	6.2	0.00e+00	0	46	104	0	64	19551
2026-01-27 16:18:55.29	60.49	5.61	-46.5	-49.1	6.2	0.00e+00	0	46	104	0	64	19547
2026-01-27 16:18:56.30	60.34	5.67	-46.5	-49.1	6.2	0.00e+00	0	46	104	0	64	19587
2026-01-27 16:18:57.31	60.19	5.72	-46.5	-49.1	6.2	0.00e+00	0	45	104	0	64	19546
2026-01-27 16:18:58.32	60.03	5.78	-46.5	-49.1	6.2	0.00e+00	0	46	104	0	64	19518
2026-01-27 16:18:59.32	59.88	5.84	-46.5	-49.1	6.2	0.00e+00	0	46	104	0	64	19530
2026-01-27 16:19:00.33	59.73	5.90	-46.5	-49.1	6.2	0.00e+00	0	46	104	0	64	19584
2026-01-27 16:19:01.34	59.58	5.96	-46.5	-49.1	6.2	0.00e+00	0	46	104	0	64	19619
2026-01-27 16:19:02.35	59.42	6.01	-46.5	-49.1	6.2	0.00e+00	0	46	104	0	64	19595
2026-01-27 16:19:03.36	59.27	6.07	-46.5	-49.1	6.2	0.00e+00	0	46	104	0	64	19607
2026-01-27 16:19:04.38	59.11	6.13	-46.5	-49.1	6.2	0.00e+00	0	45	104	0	64	19557
2026-01-27 16:19:05.38	58.96	6.19	-46.5	-49.1	6.2	0.00e+00	0	46	104	0	64	19579
2026-01-27 16:19:06.39	58.80	6.25	-46.5	-49.1	6.2	0.00e+00	0	46	104	0	64	19560
2026-01-27 16:19:07.40	58.64	6.30	-46.5	-49.1	6.2	0.00e+00	0	46	104	0	64	19557
2026-01-27 16:19:08.41	58.48	6.36	-46.5	-49.1	6.2	0.00e+00	0	46	104	0	64	19569
2026-01-27 16:19:09.42	58.32	6.42	-46.5	-49.1	6.2	0.00e+00	0	46	104	0	64	19604
2026-01-27 16:19:10.43	58.16	6.48	-46.5	-49.1	6.2	0.00e+00	0	46	104	0	64	19557
2026-01-27 16:19:11.44	58.00	6.54	-46.5	-49.1	6.2	0.00e+00	0	46	104	0	64	19565
2026-01-27 16:19:12.45	57.84	6.59	-46.5	-49.1	6.2	0.00e+00	0	46	104	0	64	19560
2026-01-27 16:19:13.46	57.68	6.65	-46.5	-49.1	6.2	0.00e+00	0	46	104	0	64	19597
2026-01-27 16:19:14.47	57.51	6.71	-46.5	-49.1	6.2	0.00e+00	0	46	104	0	64	19575
2026-01-27 16:19:15.48	57.35	6.77	-46.5	-49.1	6.2	0.00e+00	0	46	104	0	64	19511
2026-01-27 16:19:16.49	57.18	6.83	-46.5	-49.1	6.2	0.00e+00	0	46	104	0	64	19598
2026-01-27 16:19:17.50	57.02	6.88	-46.5	-49.1	6.2	0.00e+00	0	46	104	0	64	19564
2026-01-27 16:19:18.51	56.85	6.94	-46.5	-49.1	6.2	0.00e+00	0	46	104	0	64	19586
2026-01-27 16:19:19.52	56.68	7.00	-46.5	-49.1	6.2	0.00e+00	0	46	104	0	64	19576
2026-01-27 16:19:20.54	56.51	7.06	-46.5	-49.1	6.2	0.00e+00	0	46	104	0	64	19587
2026-01-27 16:19:21.55	56.34	7.12	-46.5	-49.1	6.2	0.00e+00	0	46	104	0	64	19584
2026-01-27 16:19:22.55	56.17	7.17	-46.5	-49.1	6.2	0.00e+00	0	46	104	0	64	19586
2026-01-27 16:19:23.57	56.00	7.23	-46.5	-49.1	6.2	0.00e+00	0	46	104	0	64	19599
2026-01-27 16:19:24.58	55.83	7.29	-46.5	-49.1	6.2	0.00e+00	0	46	104	0	64	19553
2026-01-27 16:19:25.58	55.66	7.35	-46.5	-49.1	6.2	0.00e+00	0	46	104	0	64	19630
2026-01-27 16:19:26.59	55.48	7.40	-46.5	-49.1	6.2	0.00e+00	0	46	104	0	64	19615
2026-01-27 16:19:27.61	55.31	7.46	-46.5	-49.1	6.2	0.00e+00	0	46	104	0	64	19531
2026-01-27 16:19:28.62	55.13	7.52	-46.5	-49.1	6.2	0.00e+00	0	46	104	0	64	19550
2026-01-27 16:19:29.63	54.95	7.58	-46.5	-49.1	6.2	0.00e+00	0	46	104	0	64	19569
2026-01-27 16:19:30.64	54.78	7.63	-46.5	-49.1	6.2	0.00e+00	0	46	104	0	64	19589
2026-01-27 16:19:31.65	54.60	7.69	-46.5	-49.1	6.2	0.00e+00	0	46	104	0	64	19577
2026-01-27 16:19:32.66	54.42	7.75	-46.5	-49.1	6.2	0.00e+00	0	46	104	0	64	19579
2026-01-27 16:19:33.67	54.24	7.81	-46.5	-49.1	6.2	0.00e+00	0	46	104	0	64	19550
2026-01-27 16:19:34.68	54.06	7.86	-46.5	-49.1	6.2	0.00e+00	0	46	104	0	64	19627
2026-01-27 16:19:35.69	53.88	7.92	-46.5	-49.1	6.2	0.00e+00	0	46	104	0	64	19584
2026-01-27 16:19:36.70	53.69	7.98	-46.5	-49.1	6.2	0.00e+00	0	46	104	0	64	19516
2026-01-27 16:19:37.71	53.51	8.04	-46.5	-49.1	6.2	0.00e+00	0	46	104	0	64	19602
2026-01-27 16:19:38.72	53.33	8.09	-46.5	-49.1	6.2	0.00e+00	0	46	104	0	64	19567
2026-01-27 16:19:39.73	53.14	8.15	-46.5	-49.1	6.2	0.00e+00	0	46	104	0	64	19570
2026-01-27 16:19:40.74	52.96	8.21	-46.5	-49.1	6.2	0.00e+00	0	46	104	0	64	19552
2026-01-27 16:19:41.75	52.77	8.26	-46.5	-49.1	6.2	0.00e+00	0	46	104	0	64	19602
2026-01-27 16:19:42.76	52.58	8.32	-46.5	-49.1	6.2	0.00e+00	0	46	104	0	64	19566
2026-01-27 16:19:43.77	52.39	8.38	-46.5	-49.1	6.2	0.00e+00	0	46	104	0	64	19558
2026-01-27 16:19:44.78	52.20	8.43	-46.5	-49.1	6.2	0.00e+00	0	46	104	0	64	19608
2026-01-27 16:19:45.79	52.01	8.49	-46.5	-49.1	6.2	0.00e+00	0	46	104	0	64	19635
2026-01-27 16:19:46.80	51.82	8.54	-46.5	-49.1	6.2	0.00e+00	0	46	104	0	64	19569
2026-01-27 16:19:47.81	51.63	8.60	-46.5	-49.1	6.2	0.00e+00	0	46	104	0	64	19638
2026-01-27 16:19:48.83	51.43	8.66	-46.5	-49.1	6.2	0.00e+00	0	46	104	0	64	19560
2026-01-27 16:19:49.84	51.24	8.71	-46.5	-49.1	6.2	0.00e+00	0	46	104	0	64	19587
2026-01-27 16:19:50.85	51.04	8.77	-46.5	-49.1	6.2	0.00e+00	0	46	104	0	64	19593
2026-01-27 16:19:51.86	50.85	8.83	-46.5	-49.1	6.2	0.00e+00	0	46	104	0	64	19611
2026-01-27 16:19:52.87	50.65	8.88	-46.5	-49.1	6.2	0.00e+00	0	46	104	0	64	19586
2026-01-27 16:19:53.88	50.45	8.94	-46.5	-49.1	6.2	0.00e+00	0	46	104	0	64	19535
2026-01-27 16:19:54.89	50.25	8.99	-46.5	-49.1	6.2	0.00e+00	0	46	104	0	64	19652
2026-01-27 16:19:55.90	50.05	9.05	-46.5	-49.1	6.2	0.00e+00	0	46	104	0	64	19583
2026-01-27 16:19:56.91	49.85	9.10	-46.5	-49.1	6.2	0.00e+00	0	46	104	0	64	19659
2026-01-27 16:19:57.92	49.65	9.16	-46.5	-49.1	6.2	0.00e+00	0	46	104	0	64	19603
2026-01-27 16:19:58.93	49.45	9.21	-46.5	-49.1	6.2	0.00e+00	0	46	104	0	64	19638
2026-01-27 16:19:59.94	49.24	9.27	-46.5	-49.1	6.2	0.00e+00	0	46	104	0	64	19580
2026-01-27 16:20:00.95	49.04	9.32	-46.5	-49.1	6.2	0.00e+00	0	46	104	0	64	19589
2026-01-27 16:20:01.96	48.83	9.38	-46.5	-49.1	6.2	0.00e+00	0	46	104	0	64	19650
2026-01-27 16:20:02.97	48.63	9.43	-46.5	-49.1	6.2	0.00e+00	0	46	104	0	64	19602
2026-01-27 16:20:03.98	48.42	9.48	-46.5	-49.1	6.2	0.00e+00	0	46	104	0	64	19599
2026-01-27 16:20:04.99	48.21	9.54	-46.5	-49.1	6.2	0.00e+00	0	46	104	0	64	19579
2026-01-27 16:20:06.00	48.00	9.59	-46.5	-49.1	6.2	0.00e+00	0	46	104	0	64	19579
2026-01-27 16:20:07.02	47.79	9.65	-46.5	-49.1	6.2	0.00e+00	0	46	104	0	64	19619
2026-01-27 16:20:08.03	47.58	9.70	-46.5	-49.1	6.2	0.00e+00	0	46	104	0	64	19628
2026-01-27 16:20:09.04	47.37	9.75	-46.5	-49.1	6.2	0.00e+00	0	46	104	0	64	19603
2026-01-27 16:20:10.05	47.15	9.81	-46.5	-49.1	6.2	0.00e+00	0	46	104	0	64	19590
2026-01-27 16:20:11.06	46.94	9.86	-46.5	-49.1	6.2	0.00e+00	0	46	104	0	64	19596
2026-01-27 16:20:12.07	46.73	9.91	-46.5	-49.1	6.2	0.00e+00	0	46	104	0	64	19558
2026-01-27 16:20:13.08	46.51	9.96	-46.5	-49.1	6.2	0.00e+00	0	46	104	0	64	19632
2026-01-27 16:20:14.09	46.29	10.02	-46.5	-49.1	6.2	0.00e+00	0	46	104	0	64	19597
2026-01-27 16:20:15.10	46.08	10.07	-46.5	-49.1	6.2	0.00e+00	0	46	104	0	64	19635
2026-01-27 16:20:16.11	45.86	10.12	-46.5	-49.1	6.2	0.00e+00	0	46	104	0	64	19611
2026-01-27 16:20:17.12	45.64	10.17	-46.5	-49.1	6.2	0.00e+00	0	46	104	0	64	19606
2026-01-27 16:20:18.13	45.42	10.22	-46.5	-49.1	6.2	0.00e+00	0	46	104	0	64	19602
2026-01-27 16:20:19.14	45.20	10.27	-46.5	-49.1	6.2	0.00e+00	0	46	104	0	64	19595
2026-01-27 16:20:20.15	44.97	10.33	-46.5	-49.1	6.2	0.00e+00	0	46	104	0	64	19577
2026-01-27 16:20:21.16	44.75	10.38	-46.5	-49.1	6.2	0.00e+00	0	47	104	0	64	19593
2026-01-27 16:20:22.17	44.52	10.43	-46.5	-49.1	6.2	0.00e+00	0	47	104	0	64	19605
2026-01-27 16:20:23.18	44.30	10.48	-46.5	-49.1	6.2	0.00e+00	0	47	104	0	64	19606
2026-01-27 16:20:24.19	44.07	10.53	-46.5	-49.1	6.2	0.00e+00	0	46	104	0	64	19625
2026-01-27 16:20:25.20	43.85	10.58	-46.5	-49.1	6.2	0.00e+00	0	47	104	0	64	19534
2026-01-27 16:20:26.21	43.62	10.63	-46.5	-49.1	6.2	0.00e+00	0	46	104	0	64	19599
2026-01-27 16:20:27.22	43.39	10.68	-46.5	-49.1	6.2	0.00e+00	0	46	104	0	64	19592
2026-01-27 16:20:28.23	43.16	10.73	-46.5	-49.1	6.2	0.00e+00	0	46	104	0	64	19633
2026-01-27 16:20:29.24	42.93	10.78	-46.5	-49.1	6.2	0.00e+00	0	46	104	0	64	19567
2026-01-27 16:20:30.25	42.70	10.82	-46.5	-49.1	6.2	0.00e+00	0	46	104	0	64	19623
2026-01-27 16:20:31.27	42.46	10.87	-46.5	-49.1	6.2	0.00e+00	0	46	104	0	64	19625
2026-01-27 16:20:32.28	42.23	10.92	-46.5	-49.1	6.2	0.00e+00	0	46	104	0	64	19639
2026-01-27 16:20:33.29	41.99	10.97	-46.5	-49.1	6.2	0.00e+00	0	46	104	0	64	19632
2026-01-27 16:20:34.30	41.76	11.02	-46.5	-49.1	6.2	0.00e+00	0	47	104	0	64	19619
2026-01-27 16:20:35.31	41.52	11.06	-46.5	-49.1	6.2	0.00e+00	0	46	104	0	64	19646
2026-01-27 16:20:36.32	41.28	11.11	-46.5	-49.1	6.2	0.00e+00	0	47	104	0	64	19566
2026-01-27 16:20:37.33	41.04	11.16	-46.5	-49.1	6.2	0.00e+00	0	47	104	0	64	19619
2026-01-27 16:20:38.34	40.80	11.20	-46.5	-49.1	6.2	0.00e+00	0	46	104	0	64	19600
2026-01-27 16:20:39.35	40.56	11.25	-46.5	-49.1	6.2	0.00e+00	0	46	104	0	64	19588
2026-01-27 16:20:40.36	40.32	11.30	-46.5	-49.1	6.2	0.00e+00	0	47	104	0	64	19652
2026-01-27 16:20:41.37	40.08	11.34	-46.5	-49.1	6.2	0.00e+00	0	46	104	0	64	19674
2026-01-27 16:20:42.38	39.84	11.39	-46.5	-49.1	6.2	0.00e+00	0	47	104	0	64	19578
2026-01-27 16:20:43.39	39.59	11.43	-46.5	-49.1	6.2	0.00e+00	0	46	104	0	64	19569
2026-01-27 16:20:44.40	39.35	11.47	-46.5	-49.1	6.2	0.00e+00	0	46	104	0	64	19622
2026-01-27 16:20:45.42	39.10	11.52	-46.5	-49.1	6.2	0.00e+00	0	47	104	0	64	19623
2026-01-27 16:20:46.43	38.86	11.56	-46.5	-49.1	6.2	0.00e+00	0	46	104	0	64	19636
2026-01-27 16:20:47.44	38.61	11.61	-46.5	-49.1	6.2	0.00e+00	0	46	104	0	64	19621
2026-01-27 16:20:48.45	38.36	11.65	-46.5	-49.1	6.2	0.00e+00	0	46	104	0	64	19617
2026-01-27 16:20:49.46	38.11	11.69	-46.5	-49.1	6.2	0.00e+00	0	46	104	0	64	19633
2026-01-27 16:20:50.46	37.86	11.73	-46.5	-49.1	6.2	0.00e+00	0	46	104	0	64	19575
2026-01-27 16:20:51.47	37.61	11.78	-46.5	-49.1	6.2	0.00e+00	0	46	104	0	64	19586
2026-01-27 16:20:52.48	37.36	11.82	-46.5	-49.1	6.2	0.00e+00	0	46	104	0	64	19566
2026-01-27 16:20:53.49	37.11	11.86	-46.5	-49.1	6.2	0.00e+00	0	46	104	0	64	19613
2026-01-27 16:20:54.50	36.85	11.90	-46.5	-49.1	6.2	0.00e+00	0	47	104	0	64	19583
2026-01-27 16:20:55.51	36.60	11.94	-46.5	-49.1	6.2	0.00e+00	0	47	104	0	64	19682
2026-01-27 16:20:56.52	36.34	11.98	-46.5	-49.1	6.2	0.00e+00	0	47	104	0	64	19581
2026-01-27 16:20:57.53	36.09	12.02	-46.5	-49.1	6.2	0.00e+00	0	47	104	0	64	19653
2026-01-27 16:20:58.55	35.83	12.06	-46.5	-49.1	6.2	0.00e+00	0	46	104	0	64	19580
2026-01-27 16:20:59.55	35.57	12.10	-46.5	-49.1	6.2	0.00e+00	0	47	104	0	64	19596
2026-01-27 16:21:00.56	35.32	12.14	-46.5	-49.1	6.2	0.00e+00	0	46	104	0	64	19596
2026-01-27 16:21:01.58	35.05	12.17	-46.5	-49.1	6.2	0.00e+00	0	46	104	0	64	19622
2026-01-27 16:21:02.59	34.79	12.21	-46.5	-49.1	6.2	0.00e+00	0	47	104	0	64	19607
2026-01-27 16:21:03.60	34.53	12.25	-46.5	-49.1	6.2	0.00e+00	0	46	104	0	64	19631
2026-01-27 16:21:04.61	34.27	12.29	-46.5	-49.1	6.2	0.00e+00	0	47	104	0	64	19584
2026-01-27 16:21:05.62	34.01	12.32	-46.5	-49.1	6.2	0.00e+00	0	47	104	0	64	19582
2026-01-27 16:21:06.63	33.75	12.36	-46.5	-49.1	6.2	0.00e+00	0	47	104	0	64	19639
2026-01-27 16:21:07.64	33.48	12.39	-46.5	-49.1	6.2	0.00e+00	0	47	104	0	64	19591
2026-01-27 16:21:08.65	33.22	12.43	-46.5	-49.1	6.2	0.00e+00	0	47	104	0	64	19631
2026-01-27 16:21:09.66	32.95	12.46	-46.5	-49.1	6.2	0.00e+00	0	47	104	0	64	19598
2026-01-27 16:21:10.67	32.68	12.50	-46.5	-49.1	6.2	0.00e+00	0	47	104	0	64	19616
2026-01-27 16:21:11.68	32.42	12.53	-46.5	-49.1	6.2	0.00e+00	0	47	104	0	64	19592
2026-01-27 16:21:12.69	32.15	12.56	-46.5	-49.1	6.2	0.00e+00	0	47	104	0	64	19630
2026-01-27 16:21:13.70	31.88	12.59	-46.5	-49.1	6.2	0.00e+00	0	46	104	0	64	19608
2026-01-27 16:21:14.71	31.61	12.63	-46.5	-49.1	6.2	0.00e+00	0	47	104	0	64	19648
2026-01-27 16:21:15.72	31.34	12.66	-46.5	-49.1	6.2	0.00e+00	0	46	104	0	64	19590
2026-01-27 16:21:16.73	31.07	12.69	-46.5	-49.1	6.2	0.00e+00	0	46	104	0	64	19616
2026-01-27 16:21:17.74	30.80	12.72	-46.5	-49.1	6.2	0.00e+00	0	46	104	0	64	19599
2026-01-27 16:21:18.75	30.53	12.75	-46.5	-49.1	6.2	0.00e+00	0	47	104	0	64	19603
2026-01-27 16:21:19.76	30.26	12.78	-46.5	-49.1	6.2	0.00e+00	0	46	104	0	64	19605
2026-01-27 16:21:20.77	29.98	12.81	-46.5	-49.1	6.2	0.00e+00	0	47	104	0	64	19638
2026-01-27 16:21:21.78	29.71	12.84	-46.5	-49.1	6.2	0.00e+00	0	47	104	0	64	19614
2026-01-27 16:21:22.79	29.44	12.86	-46.5	-49.1	6.2	0.00e+00	0	47	104	0	64	19560
2026-01-27 16:21:23.80	29.16	12.89	-46.5	-49.1	6.2	0.00e+00	0	46	104	0	64	19605
2026-01-27 16:21:24.81	28.88	12.92	-46.5	-49.1	6.2	0.00e+00	0	47	104	0	64	19627
2026-01-27 16:21:25.82	28.61	12.95	-46.5	-49.1	6.2	0.00e+00	0	47	104	0	64	19564
2026-01-27 16:21:26.83	28.33	12.97	-46.5	-49.1	6.2	0.00e+00	0	47	104	0	64	19589
2026-01-27 16:21:27.84	28.05	13.00	-46.5	-49.1	6.2	0.00e+00	0	46	104	0	64	19620
2026-01-27 16:21:28.85	27.78	13.02	-46.5	-49.1	6.2	0.00e+00	0	47	104	0	64	19583
2026-01-27 16:21:29.87	27.49	13.05	-46.5	-49.1	6.2	0.00e+00	0	47	104	0	64	19623
2026-01-27 16:21:30.88	27.22	13.07	-46.5	-49.1	6.2	0.00e+00	0	46	104	0	64	19651
2026-01-27 16:21:31.89	26.94	13.09	-46.5	-49.1	6.2	0.00e+00	0	46	104	0	64	19620
2026-01-27 16:21:32.90	26.66	13.12	-46.5	-49.1	6.2	0.00e+00	0	46	104	0	64	19599
2026-01-27 16:21:33.91	26.38	13.14	-46.5	-49.1	6.2	0.00e+00	0	47	104	0	64	19658
2026-01-27 16:21:34.92	26.09	13.16	-46.5	-49.1	6.2	0.00e+00	0	46	104	0	64	19657
2026-01-27 16:21:35.93	25.81	13.18	-46.5	-49.1	6.2	0.00e+00	0	47	104	0	64	19669
2026-01-27 16:21:36.94	25.53	13.20	-46.5	-49.1	6.2	0.00e+00	0	47	104	0	64	19586
2026-01-27 16:21:37.95	25.25	13.22	-46.5	-49.1	6.2	0.00e+00	0	46	104	0	64	19652
2026-01-27 16:21:38.96	24.96	13.24	-46.5	-49.1	6.2	0.00e+00	0	47	104	0	64	19600
2026-01-27 16:21:39.97	24.68	13.26	-46.5	-49.1	6.2	0.00e+00	0	47	104	0	64	19616
2026-01-27 16:21:40.98	24.40	13.28	-46.5	-49.1	6.2	0.00e+00	0	47	104	0	64	19588
2026-01-27 16:21:41.99	24.11	13.29	-46.5	-49.1	6.2	0.00e+00	0	47	104	0	64	19614
2026-01-27 16:21:43.00	23.83	13.31	-46.5	-49.1	6.2	0.00e+00	0	47	104	0	64	19648
2026-01-27 16:21:44.01	23.54	13.33	-46.5	-49.1	6.2	0.00e+00	0	47	104	0	64	19639
2026-01-27 16:21:45.02	23.26	13.34	-46.5	-49.1	6.2	0.00e+00	0	47	104	0	64	19539
2026-01-27 16:21:46.03	22.97	13.36	-46.5	-49.1	6.2	0.00e+00	0	47	104	0	64	19576
2026-01-27 16:21:47.04	22.69	13.37	-46.5	-49.1	6.2	0.00e+00	0	47	104	0	64	19613
2026-01-27 16:21:48.05	22.40	13.38	-46.5	-49.1	6.2	0.00e+00	0	47	104	0	64	19589
2026-01-27 16:21:49.06	22.11	13.40	-46.5	-49.1	6.2	0.00e+00	0	46	104	0	64	19557
2026-01-27 16:21:50.07	21.83	13.41	-46.5	-49.1	6.2	0.00e+00	0	47	104	0	64	19615
2026-01-27 16:21:51.08	21.54	13.42	-46.5	-49.1	6.2	0.00e+00	0	47	104	0	64	19576
2026-01-27 16:21:52.09	21.25	13.43	-46.5	-49.1	6.2	0.00e+00	0	47	104	0	64	19663
2026-01-27 16:21:53.10	20.96	13.44	-46.5	-49.1	6.2	0.00e+00	0	47	104	0	64	19638
2026-01-27 16:21:54.12	20.67	13.45	-46.5	-49.1	6.2	0.00e+00	0	47	104	0	64	19601
2026-01-27 16:21:55.13	20.38	13.46	-46.5	-49.1	6.2	0.00e+00	0	47	104	0	64	19566
2026-01-27 16:21:56.14	20.10	13.47	-46.5	-49.1	6.2	0.00e+00	0	47	104	0	64	19586
2026-01-27 16:21:57.15	19.81	13.48	-46.5	-49.1	6.2	0.00e+00	0	47	104	0	64	19679
2026-01-27 16:21:58.16	19.52	13.49	-46.5	-49.1	6.2	0.00e+00	0	46	104	0	64	19529
2026-01-27 16:21:59.17	19.23	13.49	-46.5	-49.1	6.2	0.00e+00	0	47	104	0	64	19621
2026-01-27 16:22:00.18	18.94	13.50	-46.5	-49.1	6.2	0.00e+00	0	47	104	0	64	19563
2026-01-27 16:22:01.19	18.65	13.51	-46.5	-49.1	6.2	0.00e+00	0	47	104	0	64	19587
2026-01-27 16:22:02.20	18.36	13.51	-46.5	-49.1	6.2	0.00e+00	0	47	104	0	64	19580
2026-01-27 16:22:03.21	18.07	13.52	-46.5	-49.1	6.2	0.00e+00	0	47	104	0	64	19611
2026-01-27 16:22:04.22	17.78	13.52	-46.5	-49.1	6.2	0.00e+00	0	47	104	0	64	19631
2026-01-27 16:22:05.23	17.49	13.52	-46.5	-49.1	6.2	0.00e+00	0	47	104	0	64	19652
2026-01-27 16:22:06.25	17.20	13.53	-46.5	-49.1	6.2	0.00e+00	0	47	104	0	64	19607
2026-01-27 16:22:07.25	16.91	13.53	-46.5	-49.1	6.2	0.00e+00	0	47	104	0	64	19660
2026-01-27 16:22:08.26	16.62	13.53	-46.5	-49.1	6.2	0.00e+00	0	47	104	0	64	19617
2026-01-27 16:22:09.28	16.33	13.53	-46.5	-49.1	6.2	0.00e+00	0	47	104	0	64	19580
2026-01-27 16:22:10.29	16.04	13.53	-46.5	-49.1	6.2	0.00e+00	0	47	104	0	64	19591
2026-01-27 16:22:11.30	15.75	13.53	-46.5	-49.1	6.2	0.00e+00	0	47	104	0	64	19629
2026-01-27 16:22:12.31	15.46	13.53	-46.5	-49.1	6.2	0.00e+00	0	47	104	0	64	19598
2026-01-27 16:22:13.32	15.17	13.53	-46.5	-49.1	6.2	0.00e+00	0	47	104	0	64	19583
2026-01-27 16:22:14.33	14.88	13.52	-46.5	-49.1	6.2	0.00e+00	0	47	104	0	64	19602
2026-01-27 16:22:15.34	14.59	13.52	-46.5	-49.1	6.2	0.00e+00	0	47	104	0	64	19616
2026-01-27 16:22:16.35	14.30	13.52	-46.5	-49.1	6.2	0.00e+00	0	47	104	0	64	19628
2026-01-27 16:22:17.36	14.01	13.51	-46.5	-49.1	6.2	0.00e+00	0	47	104	0	64	19621
2026-01-27 16:22:18.37	13.72	13.51	-46.5	-49.1	6.2	0.00e+00	0	47	104	0	64	19588
2026-01-27 16:22:19.38	13.43	13.50	-46.5	-49.1	6.2	0.00e+00	0	47	104	0	64	19640
2026-01-27 16:22:20.39	13.14	13.49	-46.5	-49.1	6.2	0.00e+00	0	47	104	0	64	19608
2026-01-27 16:22:21.40	12.85	13.49	-46.5	-49.1	6.2	0.00e+00	0	47	104	0	64	19647
2026-01-27 16:22:22.41	12.56	13.48	-46.5	-49.1	6.2	0.00e+00	0	47	104	0	64	19637
2026-01-27 16:22:23.43	12.27	13.47	-46.5	-49.1	6.2	0.00e+00	0	47	104	0	64	19673
2026-01-27 16:22:24.43	11.99	13.46	-46.5	-49.1	6.2	0.00e+00	0	47	104	0	64	19572
2026-01-27 16:22:25.44	11.70	13.45	-46.5	-49.1	6.2	0.00e+00	0	47	104	0	64	19590
2026-01-27 16:22:26.45	11.41	13.44	-46.5	-49.1	6.2	0.00e+00	0	47	104	0	64	19584
2026-01-27 16:22:27.46	11.12	13.43	-46.5	-49.1	6.2	0.00e+00	0	47	104	0	64	19603
2026-01-27 16:22:28.46	10.84	13.42	-46.5	-49.1	6.2	0.00e+00	0	47	104	0	64	19574
2026-01-27 16:22:29.48	10.55	13.41	-46.5	-49.2	6.2	0.00e+00	0	47	104	0	64	19720
2026-01-27 16:22:30.49	10.26	13.40	-46.5	-49.1	6.2	0.00e+00	0	47	104	0	64	19641
2026-01-27 16:22:31.50	9.97	13.38	-46.5	-49.1	6.2	0.00e+00	0	47	104	0	64	19673
2026-01-27 16:22:32.51	9.69	13.37	-46.5	-49.1	6.2	0.00e+00	0	47	104	0	64	19625
2026-01-27 16:22:33.52	9.40	13.35	-46.5	-49.1	6.2	0.00e+00	0	47	104	0	64	19654
2026-01-27 16:22:34.53	9.11	13.34	-46.5	-49.1	6.2	0.00e+00	0	47	104	0	64	19605
2026-01-27 16:22:35.54	8.83	13.32	-46.5	-49.1	6.2	0.00e+00	0	47	104	0	64	19631
2026-01-27 16:22:36.55	8.54	13.31	-46.5	-49.1	6.2	0.00e+00	0	47	104	0	64	19623
2026-01-27 16:22:37.56	8.26	13.29	-46.5	-49.1	6.2	0.00e+00	0	47	104	0	64	19545
2026-01-27 16:22:38.57	7.97	13.27	-46.5	-49.1	6.2	0.00e+00	0	47	104	0	64	19573
2026-01-27 16:22:39.58	7.69	13.26	-46.5	-49.1	6.2	0.00e+00	0	47	104	0	64	19617
2026-01-27 16:22:40.59	7.41	13.24	-46.5	-49.1	6.2	0.00e+00	0	47	104	0	64	19632
2026-01-27 16:22:41.60	7.12	13.22	-46.5	-49.1	6.2	0.00e+00	0	47	104	0	64	19608
2026-01-27 16:22:42.61	6.84	13.20	-46.5	-49.1	6.2	0.00e+00	0	47	104	0	64	19566
2026-01-27 16:22:43.62	6.56	13.18	-46.5	-49.1	6.2	0.00e+00	0	47	104	0	64	19616
2026-01-27 16:22:44.63	6.28	13.16	-46.5	-49.1	6.2	0.00e+00	0	47	104	0	64	19669
2026-01-27 16:22:45.64	6.00	13.14	-46.5	-49.1	6.2	0.00e+00	0	47	104	0	64	19577
2026-01-27 16:22:46.65	5.72	13.11	-46.5	-49.1	6.2	0.00e+00	0	47	104	0	64	19676
2026-01-27 16:22:47.66	5.43	13.09	-46.5	-49.1	6.2	0.00e+00	0	47	104	0	64	19587
2026-01-27 16:22:48.67	5.16	13.07	-46.5	-49.1	6.2	0.00e+00	0	47	104	0	64	19652
2026-01-27 16:22:49.68	4.88	13.04	-46.5	-49.1	6.2	0.00e+00	0	47	104	0	64	19635
2026-01-27 16:22:50.69	4.60	13.02	-46.5	-49.1	6.2	0.00e+00	0	47	104	0	64	19638
2026-01-27 16:22:51.70	4.32	12.99	-46.5	-49.1	6.2	0.00e+00	0	47	104	0	64	19618
2026-01-27 16:22:52.71	4.04	12.97	-46.5	-49.1	6.2	0.00e+00	0	47	104	0	64	19587
2026-01-27 16:22:53.72	3.76	12.94	-46.5	-49.1	6.2	0.00e+00	0	47	104	0	64	19643
2026-01-27 16:22:54.74	3.48	12.92	-46.5	-49.1	6.2	0.00e+00	0	47	104	0	64	19591
2026-01-27 16:22:55.74	3.21	12.89	-46.5	-49.1	6.2	0.00e+00	0	47	104	0	64	19645
2026-01-27 16:22:56.75	2.94	12.86	-46.5	-49.1	6.2	0.00e+00	0	47	104	0	64	19605
2026-01-27 16:22:57.76	2.66	12.83	-46.5	-49.1	6.2	0.00e+00	0	47	104	0	64	19623
2026-01-27 16:22:58.78	2.38	12.81	-46.5	-49.1	6.2	0.00e+00	0	47	104	0	64	19616
2026-01-27 16:22:59.79	2.11	12.78	-46.5	-49.1	6.2	0.00e+00	0	47	104	0	64	19630
2026-01-27 16:23:00.80	1.84	12.75	-46.5	-49.1	6.2	0.00e+00	0	47	104	0	64	19662
2026-01-27 16:23:01.81	1.57	12.72	-46.5	-49.1	6.2	0.00e+00	0	47	104	0	64	19608
2026-01-27 16:23:02.82	1.30	12.69	-46.5	-49.1	6.2	0.00e+00	0	47	104	0	64	19613
2026-01-27 16:23:03.83	1.02	12.65	-46.5	-49.1	6.2	0.00e+00	0	47	104	0	64	19640
2026-01-27 16:23:04.84	0.75	12.62	-46.5	-49.1	6.2	0.00e+00	0	47	104	0	64	19673
2026-01-27 16:23:05.85	0.48	12.59	-46.5	-49.1	6.2	0.00e+00	0	47	104	0	64	19663
2026-01-27 16:23:06.86	0.22	12.56	-46.5	-49.1	6.2	0.00e+00	0	47	104	0	64	19622
2026-01-27 16:23:07.87	359.95	12.52	-46.5	-49.1	6.2	0.00e+00	0	47	104	0	64	19680
2026-01-27 16:23:08.88	359.68	12.49	-46.5	-49.1	6.2	0.00e+00	0	47	104	0	64	19638
2026-01-27 16:23:09.89	359.41	12.46	-46.5	-49.1	6.2	0.00e+00	0	47	104	0	64	19574
2026-01-27 16:23:10.90	359.15	12.42	-46.5	-49.1	6.2	0.00e+00	0	47	104	0	64	19630
2026-01-27 16:23:11.91	358.88	12.39	-46.5	-49.1	6.2	0.00e+00	0	47	104	0	64	19621
2026-01-27 16:23:12.92	358.62	12.35	-46.5	-49.1	6.2	0.00e+00	0	47	104	0	64	19653
2026-01-27 16:23:13.93	358.36	12.32	-46.5	-49.1	6.2	0.00e+00	0	47	104	0	64	19615
2026-01-27 16:23:14.95	358.09	12.28	-46.5	-49.1	6.2	0.00e+00	0	47	104	0	64	19639
2026-01-27 16:23:15.96	357.83	12.24	-46.5	-49.1	6.2	0.00e+00	0	47	104	0	64	19665
2026-01-27 16:23:16.97	357.57	12.21	-46.5	-49.1	6.2	0.00e+00	0	47	104	0	64	19627
2026-01-27 16:23:17.98	357.31	12.17	-46.5	-49.1	6.2	0.00e+00	0	47	104	0	64	19595
2026-01-27 16:23:18.99	357.05	12.13	-46.5	-49.1	6.2	0.00e+00	0	47	104	0	64	19671
2026-01-27 16:23:20.00	356.79	12.09	-46.5	-49.1	6.2	0.00e+00	0	47	104	0	64	19598
2026-01-27 16:23:21.01	356.53	12.05	-46.5	-49.1	6.2	0.00e+00	0	47	104	0	64	19644
2026-01-27 16:23:22.02	356.27	12.01	-46.5	-49.1	6.2	0.00e+00	0	47	104	0	64	19624
2026-01-27 16:23:23.03	356.02	11.97	-46.5	-49.1	6.2	0.00e+00	0	47	104	0	64	19604
2026-01-27 16:23:24.04	355.76	11.93	-46.5	-49.1	6.2	0.00e+00	0	47	104	0	64	19650
2026-01-27 16:23:25.05	355.51	11.89	-46.5	-49.1	6.2	0.00e+00	0	47	104	0	64	19628
2026-01-27 16:23:26.06	355.25	11.85	-46.5	-49.1	6.2	0.00e+00	0	47	104	0	64	19602
2026-01-27 16:23:27.07	355.00	11.81	-46.5	-49.1	6.2	0.00e+00	0	47	104	0	64	19672
2026-01-27 16:23:28.08	354.75	11.77	-46.5	-49.1	6.2	0.00e+00	0	47	104	0	64	19642
2026-01-27 16:23:29.09	354.50	11.73	-46.5	-49.2	6.2	0.00e+00	0	47	104	0	64	19728
2026-01-27 16:23:30.10	354.25	11.69	-46.5	-49.1	6.2	0.00e+00	0	47	104	0	64	19700
2026-01-27 16:23:31.11	354.00	11.64	-46.5	-49.2	6.2	0.00e+00	0	47	104	0	64	19708
2026-01-27 16:23:32.12	353.75	11.60	-46.5	-49.1	6.2	0.00e+00	0	47	104	0	64	19629
2026-01-27 16:23:33.13	353.50	11.56	-46.5	-49.1	6.2	0.00e+00	0	47	104	0	64	19643
2026-01-27 16:23:34.14	353.25	11.51	-46.5	-49.1	6.2	0.00e+00	0	47	104	0	64	19647
2026-01-27 16:23:35.15	353.01	11.47	-46.5	-49.1	6.2	0.00e+00	0	47	104	0	64	19629
2026-01-27 16:23:36.17	352.76	11.42	-46.5	-49.1	6.2	0.00e+00	0	47	104	0	64	19643
2026-01-27 16:23:37.18	352.52	11.38	-46.5	-49.1	6.2	0.00e+00	0	47	104	0	64	19615
2026-01-27 16:23:38.19	352.27	11.33	-46.5	-49.1	6.2	0.00e+00	0	47	104	0	64	19629
2026-01-27 16:23:39.20	352.03	11.29	-46.5	-49.1	6.2	0.00e+00	0	47	104	0	64	19629
2026-01-27 16:23:40.21	351.79	11.24	-46.5	-49.1	6.2	0.00e+00	0	47	104	0	64	19679
2026-01-27 16:23:41.22	351.55	11.19	-46.5	-49.1	6.2	0.00e+00	0	47	104	0	64	19645
2026-01-27 16:23:42.23	351.31	11.15	-46.5	-49.1	6.2	0.00e+00	0	47	104	0	64	19664
2026-01-27 16:23:43.24	351.07	11.10	-46.5	-49.1	6.2	0.00e+00	0	47	104	0	64	19648
2026-01-27 16:23:44.25	350.83	11.05	-46.5	-49.1	6.2	0.00e+00	0	47	104	0	64	19650
2026-01-27 16:23:45.26	350.59	11.01	-46.5	-49.1	6.2	0.00e+00	0	47	104	0	64	19614
2026-01-27 16:23:46.27	350.36	10.96	-46.5	-49.1	6.2	0.00e+00	0	47	104	0	64	19610
2026-01-27 16:23:47.28	350.12	10.91	-46.5	-49.1	6.2	0.00e+00	0	47	104	0	64	19612
2026-01-27 16:23:48.29	349.89	10.86	-46.5	-49.1	6.2	0.00e+00	0	47	104	0	64	19653
2026-01-27 16:23:49.30	349.66	10.81	-46.5	-49.1	6.2	0.00e+00	0	47	104	0	64	19588
2026-01-27 16:23:50.31	349.42	10.77	-46.5	-49.1	6.2	0.00e+00	0	47	104	0	64	19624
2026-01-27 16:23:51.32	349.19	10.72	-46.5	-49.1	6.2	0.00e+00	0	47	104	0	64	19606
2026-01-27 16:23:52.33	348.96	10.67	-46.5	-49.1	6.2	0.00e+00	0	47	104	0	64	19683
2026-01-27 16:23:53.34	348.73	10.62	-46.5	-49.1	6.2	0.00e+00	0	47	104	0	64	19586
2026-01-27 16:23:54.35	348.50	10.57	-46.5	-49.1	6.2	0.00e+00	0	47	104	0	64	19627
2026-01-27 16:23:55.36	348.28	10.52	-46.5	-49.1	6.2	0.00e+00	0	47	104	0	64	19648
2026-01-27 16:23:56.37	348.05	10.47	-46.5	-49.1	6.2	0.00e+00	0	47	104	0	64	19635
2026-01-27 16:23:57.38	347.82	10.42	-46.5	-49.1	6.2	0.00e+00	0	47	104	0	64	19586
2026-01-27 16:23:58.39	347.60	10.37	-46.5	-49.1	6.2	0.00e+00	0	47	104	0	64	19659
2026-01-27 16:23:59.40	347.38	10.32	-46.5	-49.1	6.2	0.00e+00	0	47	104	0	64	19657
2026-01-27 16:24:00.41	347.15	10.26	-46.5	-49.1	6.2	0.00e+00	0	47	104	0	64	19666
2026-01-27 16:24:01.42	346.93	10.21	-46.5	-49.1	6.2	0.00e+00	0	47	104	0	64	19620
2026-01-27 16:24:02.43	346.71	10.16	-46.5	-49.1	6.2	0.00e+00	0	47	104	0	64	19640
2026-01-27 16:24:03.44	346.49	10.11	-46.5	-49.1	6.2	0.00e+00	0	47	104	0	64	19640
2026-01-27 16:24:04.46	346.27	10.06	-46.5	-49.1	6.2	0.00e+00	0	47	104	0	64	19666
2026-01-27 16:24:05.46	346.05	10.00	-46.5	-49.2	6.2	0.00e+00	0	47	104	0	64	19707
2026-01-27 16:24:06.48	345.83	9.95	-46.5	-49.1	6.2	0.00e+00	0	47	104	0	64	19670
2026-01-27 16:24:07.48	345.62	9.90	-46.5	-49.1	6.2	0.00e+00	0	47	104	0	64	19611
2026-01-27 16:24:08.50	345.40	9.85	-46.5	-49.1	6.2	0.00e+00	0	47	104	0	64	19637
2026-01-27 16:24:09.51	345.19	9.79	-46.5	-49.1	6.2	0.00e+00	0	47	104	0	64	19627
2026-01-27 16:24:10.52	344.97	9.74	-46.5	-49.1	6.2	0.00e+00	0	47	104	0	64	19654
2026-01-27 16:24:11.53	344.76	9.69	-46.5	-49.1	6.2	0.00e+00	0	47	104	0	64	19600
2026-01-27 16:24:12.54	344.55	9.63	-46.5	-49.1	6.2	0.00e+00	0	47	104	0	64	19563
2026-01-27 16:24:13.55	344.34	9.58	-46.5	-49.1	6.2	0.00e+00	0	47	104	0	64	19600
2026-01-27 16:24:14.56	344.13	9.53	-46.5	-49.1	6.2	0.00e+00	0	47	104	0	64	19625
2026-01-27 16:24:15.57	343.92	9.47	-46.5	-49.1	6.2	0.00e+00	0	47	104	0	64	19608
2026-01-27 16:24:16.58	343.71	9.42	-46.5	-49.1	6.2	0.00e+00	0	47	104	0	64	19614
2026-01-27 16:24:17.59	343.51	9.36	-46.5	-49.1	6.2	0.00e+00	0	47	104	0	64	19685
2026-01-27 16:24:18.60	343.30	9.31	-46.5	-49.1	6.2	0.00e+00	0	47	104	0	64	19654
2026-01-27 16:24:19.61	343.10	9.25	-46.5	-49.1	6.2	0.00e+00	0	47	104	0	64	19671
2026-01-27 16:24:20.62	342.89	9.20	-46.5	-49.2	6.2	0.00e+00	0	47	104	0	64	19706
2026-01-27 16:24:21.63	342.69	9.14	-46.5	-49.1	6.2	0.00e+00	0	47	104	0	64	19622
2026-01-27 16:24:22.64	342.49	9.09	-46.5	-49.1	6.2	0.00e+00	0	47	104	0	64	19595
2026-01-27 16:24:23.65	342.29	9.03	-46.5	-49.1	6.2	0.00e+00	0	47	104	0	64	19520
2026-01-27 16:24:24.66	342.09	8.98	-46.5	-49.1	6.2	0.00e+00	0	47	104	0	64	19514
2026-01-27 16:24:25.67	341.89	8.92	-46.5	-49.0	6.2	0.00e+00	0	47	104	0	64	19434
2026-01-27 16:24:26.68	341.69	8.87	-46.5	-49.0	6.2	0.00e+00	0	47	104	0	64	19435
2026-01-27 16:24:27.69	341.49	8.81	-46.5	-49.0	6.2	0.00e+00	0	47	104	0	64	19343
2026-01-27 16:24:28.70	341.30	8.75	-46.4	-49.0	6.2	0.00e+00	0	47	104	0	64	19307
2026-01-27 16:24:29.71	341.10	8.70	-46.4	-49.0	6.2	0.00e+00	0	47	104	0	64	19385
2026-01-27 16:24:30.72	340.91	8.64	-46.5	-49.1	6.2	0.00e+00	0	47	104	0	64	19562
2026-01-27 16:24:31.73	340.71	8.59	-46.5	-49.1	6.2	0.00e+00	0	47	104	0	64	19547
2026-01-27 16:24:32.75	340.52	8.53	-46.5	-49.1	6.2	0.00e+00	0	47	104	0	64	19648
2026-01-27 16:24:33.76	340.33	8.47	-46.5	-49.1	6.2	0.00e+00	0	47	104	0	64	19541
2026-01-27 16:24:34.77	340.13	8.42	-46.5	-49.1	6.2	0.00e+00	0	47	104	0	64	19564
2026-01-27 16:24:35.78	339.94	8.36	-46.5	-49.1	6.2	0.00e+00	0	47	104	0	64	19675
2026-01-27 16:24:36.79	339.76	8.30	-46.5	-49.1	6.2	0.00e+00	0	47	104	0	64	19544
2026-01-27 16:24:37.80	339.57	8.25	-46.5	-49.1	6.2	0.00e+00	0	47	104	0	64	19523
2026-01-27 16:24:38.81	339.38	8.19	-46.5	-49.1	6.2	0.00e+00	0	47	104	0	64	19515
2026-01-27 16:24:39.82	339.19	8.13	-46.5	-49.1	6.2	0.00e+00	0	47	104	0	64	19511
2026-01-27 16:24:40.83	339.01	8.07	-46.5	-49.1	6.2	0.00e+00	0	47	104	0	64	19550
2026-01-27 16:24:41.84	338.82	8.02	-46.5	-49.1	6.2	0.00e+00	0	47	104	0	64	19523
2026-01-27 16:24:42.85	338.64	7.96	-46.5	-49.1	6.2	0.00e+00	0	47	104	0	64	19565
2026-01-27 16:24:43.86	338.46	7.90	-46.5	-49.1	6.2	0.00e+00	0	47	104	0	64	19560
2026-01-27 16:24:44.87	338.27	7.85	-46.5	-49.1	6.2	0.00e+00	0	47	104	0	64	19639
2026-01-27 16:24:45.88	338.09	7.79	-46.5	-49.1	6.2	0.00e+00	0	47	104	0	64	19652
2026-01-27 16:24:46.89	337.91	7.73	-46.5	-49.1	6.2	0.00e+00	0	47	104	0	64	19629
2026-01-27 16:24:47.90	337.73	7.67	-46.5	-49.1	6.2	0.00e+00	0	47	104	0	64	19640
2026-01-27 16:24:48.91	337.56	7.62	-46.5	-49.1	6.2	0.00e+00	0	47	104	0	64	19586
2026-01-27 16:24:49.92	337.38	7.56	-46.5	-49.1	6.2	0.00e+00	0	47	104	0	64	19660
2026-01-27 16:24:50.93	337.20	7.50	-46.5	-49.1	6.2	0.00e+00	0	47	104	0	64	19567
2026-01-27 16:24:51.94	337.03	7.44	-46.5	-49.1	6.2	0.00e+00	0	47	104	0	64	19566
2026-01-27 16:24:52.95	336.85	7.39	-46.5	-49.1	6.2	0.00e+00	0	47	104	0	64	19583
2026-01-27 16:24:53.96	336.68	7.33	-46.5	-49.1	6.2	0.00e+00	0	47	104	0	64	19600
2026-01-27 16:24:54.98	336.50	7.27	-46.5	-49.1	6.2	0.00e+00	0	47	104	0	64	19549
2026-01-27 16:24:55.99	336.33	7.21	-46.5	-49.1	6.2	0.00e+00	0	47	104	0	64	19639
2026-01-27 16:24:57.00	336.16	7.15	-46.5	-49.1	6.2	0.00e+00	0	47	104	0	64	19645
2026-01-27 16:24:58.01	335.99	7.10	-46.5	-49.1	6.2	0.00e+00	0	47	104	0	64	19648
2026-01-27 16:24:59.02	335.82	7.04	-46.5	-49.1	6.2	0.00e+00	0	47	104	0	64	19675
2026-01-27 16:25:00.03	335.65	6.98	-46.5	-49.1	6.2	0.00e+00	0	47	104	0	64	19616
2026-01-27 16:25:01.04	335.48	6.92	-46.5	-49.1	6.2	0.00e+00	0	47	104	0	64	19654
2026-01-27 16:25:02.05	335.31	6.86	-46.5	-49.1	6.2	0.00e+00	0	47	104	0	64	19664
2026-01-27 16:25:03.06	335.15	6.80	-46.5	-49.1	6.2	0.00e+00	0	47	104	0	64	19585
2026-01-27 16:25:04.07	334.98	6.75	-46.5	-49.1	6.2	0.00e+00	0	47	104	0	64	19608
2026-01-27 16:25:05.08	334.82	6.69	-46.5	-49.1	6.2	0.00e+00	0	47	104	0	64	19590
2026-01-27 16:25:06.09	334.65	6.63	-46.5	-49.1	6.2	0.00e+00	0	47	104	0	64	19658
2026-01-27 16:25:07.10	334.49	6.57	-46.5	-49.1	6.2	0.00e+00	0	47	104	0	64	19629
2026-01-27 16:25:08.11	334.33	6.51	-46.5	-49.1	6.2	0.00e+00	0	47	104	0	64	19617
2026-01-27 16:25:09.12	334.16	6.46	-46.5	-49.1	6.2	0.00e+00	0	47	104	0	64	19580
2026-01-27 16:25:10.13	334.00	6.40	-46.5	-49.1	6.2	0.00e+00	0	47	104	0	64	19553
2026-01-27 16:25:11.14	333.84	6.34	-46.5	-49.1	6.2	0.00e+00	0	47	104	0	64	19579
2026-01-27 16:25:12.15	333.69	6.28	-46.5	-49.1	6.2	0.00e+00	0	47	104	0	64	19597
2026-01-27 16:25:13.16	333.53	6.22	-46.5	-49.1	6.2	0.00e+00	0	47	104	0	64	19574
2026-01-27 16:25:14.17	333.37	6.16	-46.5	-49.1	6.2	0.00e+00	0	47	104	0	64	19597
2026-01-27 16:25:15.19	333.21	6.11	-46.5	-49.1	6.2	0.00e+00	0	47	104	0	64	19578
2026-01-27 16:25:16.20	333.05	6.05	-46.5	-49.1	6.2	0.00e+00	0	47	104	0	64	19540
2026-01-27 16:25:17.21	332.90	5.99	-46.5	-49.1	6.2	0.00e+00	0	47	104	0	64	19558
2026-01-27 16:25:18.22	332.75	5.93	-46.5	-49.1	6.2	0.00e+00	0	47	104	0	64	19556
2026-01-27 16:25:19.23	332.59	5.87	-46.5	-49.1	6.2	0.00e+00	0	47	104	0	64	19543
2026-01-27 16:25:20.24	332.44	5.81	-46.5	-49.1	6.2	0.00e+00	0	47	104	0	64	19606
2026-01-27 16:25:21.25	332.29	5.76	-46.5	-49.1	6.2	0.00e+00	0	47	104	0	64	19600
2026-01-27 16:25:22.26	332.14	5.70	-46.5	-49.1	6.2	0.00e+00	0	47	104	0	64	19638
2026-01-27 16:25:23.27	331.98	5.64	-46.5	-49.1	6.2	0.00e+00	0	47	104	0	64	19657
2026-01-27 16:25:24.28	331.83	5.58	-46.5	-49.1	6.2	0.00e+00	0	47	104	0	64	19610
2026-01-27 16:25:25.29	331.69	5.52	-46.5	-49.1	6.2	0.00e+00	0	47	104	0	64	19567
2026-01-27 16:25:26.30	331.54	5.46	-46.5	-49.1	6.2	0.00e+00	0	47	104	0	64	19622
2026-01-27 16:25:27.31	331.39	5.41	-46.5	-49.1	6.2	0.00e+00	0	47	104	0	64	19561
2026-01-27 16:25:28.32	331.24	5.35	-46.5	-49.1	6.2	0.00e+00	0	47	104	0	64	19577
2026-01-27 16:25:29.33	331.10	5.29	-46.5	-49.1	6.2	0.00e+00	0	47	104	0	64	19674
2026-01-27 16:25:30.34	330.95	5.23	-46.5	-49.1	6.2	0.00e+00	0	47	104	0	64	19641
2026-01-27 16:25:31.35	330.81	5.17	-46.5	-49.1	6.2	0.00e+00	0	47	104	0	64	19604
2026-01-27 16:25:32.36	330.66	5.12	-46.5	-49.1	6.2	0.00e+00	0	47	104	0	64	19611
2026-01-27 16:25:33.37	330.52	5.06	-46.5	-49.1	6.2	0.00e+00	0	47	104	0	64	19649
2026-01-27 16:25:34.38	330.38	5.00	-46.5	-49.2	6.2	0.00e+00	0	47	104	0	64	19718
2026-01-27 16:25:35.40	330.23	4.94	-46.5	-49.1	6.2	0.00e+00	0	47	104	0	64	19636
2026-01-27 16:25:36.40	330.09	4.88	-46.5	-49.1	6.2	0.00e+00	0	47	104	0	64	19630
2026-01-27 16:25:37.41	329.95	4.83	-46.5	-49.1	6.2	0.00e+00	0	47	104	0	64	19687
2026-01-27 16:25:38.42	329.81	4.77	-46.5	-49.1	6.2	0.00e+00	0	47	104	0	64	19678
2026-01-27 16:25:39.43	329.68	4.71	-46.5	-49.1	6.2	0.00e+00	0	47	104	0	64	19664
2026-01-27 16:25:40.45	329.54	4.65	-46.5	-49.1	6.2	0.00e+00	0	47	104	0	64	19626
2026-01-27 16:25:41.46	329.40	4.59	-46.5	-49.1	6.2	0.00e+00	0	47	104	0	64	19650
2026-01-27 16:25:42.47	329.26	4.54	-46.5	-49.1	6.2	0.00e+00	0	47	104	0	64	19633
2026-01-27 16:25:43.48	329.12	4.48	-46.5	-49.1	6.2	0.00e+00	0	47	104	0	64	19604
2026-01-27 16:25:44.49	328.99	4.42	-46.5	-49.1	6.2	0.00e+00	0	47	104	0	64	19626
2026-01-27 16:25:45.50	328.85	4.36	-46.5	-49.1	6.2	0.00e+00	0	47	104	0	64	19630
2026-01-27 16:25:46.51	328.72	4.30	-46.5	-49.1	6.2	0.00e+00	0	47	104	0	64	19642
2026-01-27 16:25:47.51	328.59	4.25	-46.5	-49.1	6.2	0.00e+00	0	47	104	0	64	19625
2026-01-27 16:25:48.52	328.46	4.19	-46.5	-49.1	6.2	0.00e+00	0	47	104	0	64	19607
2026-01-27 16:25:49.53	328.32	4.13	-46.5	-49.1	6.2	0.00e+00	0	47	104	0	64	19639
2026-01-27 16:25:50.54	328.19	4.08	-46.5	-49.1	6.2	0.00e+00	0	47	104	0	64	19631
2026-01-27 16:25:51.55	328.06	4.02	-46.5	-49.1	6.2	0.00e+00	0	47	104	0	64	19662
2026-01-27 16:25:52.56	327.93	3.96	-46.5	-49.1	6.2	0.00e+00	0	47	104	0	64	19627
2026-01-27 16:25:53.57	327.80	3.90	-46.5	-49.1	6.2	0.00e+00	0	47	104	0	64	19668
2026-01-27 16:25:54.58	327.67	3.85	-46.5	-49.1	6.2	0.00e+00	0	47	104	0	64	19643
2026-01-27 16:25:55.59	327.54	3.79	-46.5	-49.1	6.2	0.00e+00	0	47	104	0	64	19623
2026-01-27 16:25:56.60	327.42	3.73	-46.5	-49.1	6.2	0.00e+00	0	47	104	0	64	19664
2026-01-27 16:25:57.61	327.29	3.67	-46.5	-49.1	6.2	0.00e+00	0	47	104	0	64	19598
2026-01-27 16:25:58.62	327.16	3.62	-46.5	-49.1	6.2	0.00e+00	0	47	104	0	64	19623
2026-01-27 16:25:59.64	327.04	3.56	-46.5	-49.1	6.2	0.00e+00	0	47	104	0	64	19600
2026-01-27 16:26:00.65	326.91	3.50	-46.5	-49.1	6.2	0.00e+00	0	47	104	0	64	19658
2026-01-27 16:26:01.66	326.79	3.44	-46.5	-49.1	6.2	0.00e+00	0	47	104	0	64	19648
2026-01-27 16:26:02.66	326.66	3.39	-46.5	-49.1	6.2	0.00e+00	0	47	104	0	64	19655
2026-01-27 16:26:03.67	326.54	3.33	-46.5	-49.1	6.2	0.00e+00	0	47	104	0	64	19636
2026-01-27 16:26:04.68	326.42	3.27	-46.5	-49.1	6.2	0.00e+00	0	47	104	0	64	19627
2026-01-27 16:26:05.69	326.30	3.22	-46.5	-49.1	6.2	0.00e+00	0	47	104	0	64	19670
2026-01-27 16:26:06.70	326.17	3.16	-46.5	-49.1	6.2	0.00e+00	0	47	104	0	64	19637
2026-01-27 16:26:07.71	326.05	3.10	-46.5	-49.1	6.2	0.00e+00	0	47	104	0	64	19636
2026-01-27 16:26:08.72	325.93	3.05	-46.5	-49.1	6.2	0.00e+00	0	47	104	0	64	19631
2026-01-27 16:26:09.73	325.81	2.99	-46.5	-49.1	6.2	0.00e+00	0	47	104	0	64	19656
2026-01-27 16:26:10.75	325.69	2.93	-46.5	-49.1	6.2	0.00e+00	0	47	104	0	64	19646
2026-01-27 16:26:11.76	325.58	2.88	-46.5	-49.1	6.2	0.00e+00	0	47	104	0	64	19689
2026-01-27 16:26:12.77	325.46	2.82	-46.5	-49.1	6.2	0.00e+00	0	47	104	0	64	19644
2026-01-27 16:26:13.78	325.34	2.76	-46.5	-49.1	6.2	0.00e+00	0	47	104	0	64	19591
2026-01-27 16:26:14.79	325.22	2.71	-46.5	-49.1	6.2	0.00e+00	0	47	104	0	64	19623
2026-01-27 16:26:15.80	325.11	2.65	-46.5	-49.1	6.2	0.00e+00	0	47	104	0	64	19650
2026-01-27 16:26:16.81	324.99	2.59	-46.5	-49.2	6.2	0.00e+00	0	47	104	0	64	19710
2026-01-27 16:26:17.82	324.88	2.54	-46.5	-49.1	6.2	0.00e+00	0	47	104	0	64	19604
2026-01-27 16:26:18.83	324.76	2.48	-46.5	-49.1	6.2	0.00e+00	0	47	104	0	64	19591
2026-01-27 16:26:19.84	324.65	2.43	-46.5	-49.1	6.2	0.00e+00	0	47	104	0	64	19673
2026-01-27 16:26:20.85	324.53	2.37	-46.5	-49.1	6.2	0.00e+00	0	47	104	0	64	19613
2026-01-27 16:26:21.86	324.42	2.31	-46.5	-49.2	6.2	0.00e+00	0	47	104	0	64	19721
2026-01-27 16:26:22.87	324.31	2.26	-46.5	-49.1	6.2	0.00e+00	0	47	104	0	64	19604
2026-01-27 16:26:23.88	324.20	2.20	-46.5	-49.1	6.2	0.00e+00	0	47	104	0	64	19646
2026-01-27 16:26:24.89	324.09	2.15	-46.5	-49.1	6.2	0.00e+00	0	47	104	0	64	19645
2026-01-27 16:26:25.90	323.98	2.09	-46.5	-49.1	6.2	0.00e+00	0	47	104	0	64	19614
2026-01-27 16:26:26.91	323.87	2.03	-46.5	-49.1	6.2	0.00e+00	0	47	104	0	64	19628
2026-01-27 16:26:27.92	323.76	1.98	-46.5	-49.1	6.2	0.00e+00	0	47	104	0	64	19599

#Closed at: 2026-01-27 16:26:28
#Recorded file [0 MB]: D:/lorett/data/31045_260127_191751.dat