passes_logs/2026/01/03/R4.6S_Anadyr_2ch/R4.6S_Anadyr_2ch__20260103_103328_2025-108B_rec.log

#Pass ID: 20260103_103328_2025-108B
#Satellite: 2025-108B
#Configuration: 3PB_600M
#almurnet v.1.7.20251203
#Start time: 2026-01-03 10:33:29

#Version: 2.2.20231116
#Station: R4.6S_Anadyr_2ch
#Location: 177.4865 lon 64.73178 lat
#TLE: 1 64088U 25108B   25351.01672131  .00008460  00000+0  43413-3 0  9994
#TLE: 2 64088  97.4940  63.8579 0011684 285.1423  74.8517 15.16717580 31720

#Time	Az	El	Level	Level2	SNR	BER	BlckErr	Temp	State	Recorded	gain1	gain2
2026-01-03 10:33:29.21	189.10	0.05	-52.8	-54.1	3.3	0.00e+00	0	34	0	0	60	85642
2026-01-03 10:33:30.21	189.15	0.11	-53.9	-56.4	3.6	0.00e+00	0	36	104	0	60	111785
2026-01-03 10:33:31.22	189.20	0.18	-54.1	-56.5	3.6	0.00e+00	0	36	104	0	60	113598
2026-01-03 10:33:32.23	189.26	0.24	-54.2	-56.7	3.5	0.00e+00	0	36	104	0	60	115005
2026-01-03 10:33:33.24	189.31	0.30	-53.8	-56.2	3.6	0.00e+00	0	36	104	0	60	109679
2026-01-03 10:33:34.26	189.36	0.36	-54.2	-56.6	3.6	0.00e+00	0	36	104	0	60	114957
2026-01-03 10:33:35.27	189.42	0.43	-55.0	-57.4	3.6	0.00e+00	0	36	104	0	60	125175
2026-01-03 10:33:36.28	189.47	0.49	-54.8	-57.2	3.6	0.00e+00	0	36	104	0	60	122879
2026-01-03 10:33:37.29	189.52	0.55	-54.5	-57.0	3.5	0.00e+00	0	36	104	0	60	119473
2026-01-03 10:33:38.30	189.58	0.61	-54.3	-56.8	3.6	0.00e+00	0	36	104	0	60	116831
2026-01-03 10:33:39.31	189.63	0.68	-54.4	-56.9	3.6	0.00e+00	0	36	104	0	60	118386
2026-01-03 10:33:40.32	189.69	0.74	-55.0	-57.5	3.6	0.00e+00	0	36	104	0	60	127102
2026-01-03 10:33:41.33	189.74	0.80	-54.8	-57.2	3.6	0.00e+00	0	36	104	0	60	123147
2026-01-03 10:33:42.34	189.80	0.87	-54.5	-57.0	3.6	0.00e+00	0	36	104	0	60	119392
2026-01-03 10:33:43.35	189.85	0.93	-53.6	-56.1	3.6	0.00e+00	0	36	104	0	60	108028
2026-01-03 10:33:44.36	189.91	0.99	-53.8	-56.3	3.6	0.00e+00	0	36	104	0	60	110238
2026-01-03 10:33:45.37	189.97	1.06	-53.6	-56.0	3.6	0.00e+00	0	36	104	0	60	106768
2026-01-03 10:33:46.39	190.02	1.12	-54.0	-56.5	3.6	0.00e+00	0	36	104	0	60	112685
2026-01-03 10:33:47.40	190.08	1.19	-54.2	-56.6	3.6	0.00e+00	0	36	104	0	60	114753
2026-01-03 10:33:48.41	190.14	1.25	-54.1	-56.5	3.6	0.00e+00	0	36	104	0	60	113448
2026-01-03 10:33:49.42	190.20	1.32	-54.5	-56.9	3.6	0.00e+00	0	36	104	0	60	118541
2026-01-03 10:33:50.43	190.25	1.38	-54.0	-56.5	3.6	0.00e+00	0	36	104	0	60	112421
2026-01-03 10:33:51.44	190.31	1.44	-54.3	-56.8	3.6	0.00e+00	0	36	104	0	60	116475
2026-01-03 10:33:52.45	190.37	1.51	-53.7	-56.1	3.6	0.00e+00	0	36	104	0	60	108277
2026-01-03 10:33:53.46	190.43	1.57	-53.9	-56.4	3.6	0.00e+00	0	36	104	0	60	111295
2026-01-03 10:33:54.47	190.49	1.64	-53.6	-56.1	3.6	0.00e+00	0	36	104	0	60	107661
2026-01-03 10:33:55.49	190.55	1.71	-53.6	-56.1	3.6	0.00e+00	0	37	104	0	60	107643
2026-01-03 10:33:56.50	190.61	1.77	-53.3	-55.7	3.6	0.00e+00	0	37	104	0	60	103417
2026-01-03 10:33:57.51	190.67	1.84	-53.7	-56.2	3.6	0.00e+00	0	37	104	0	60	109090
2026-01-03 10:33:58.52	190.73	1.90	-54.1	-56.6	3.6	0.00e+00	0	37	104	0	60	114123
2026-01-03 10:33:59.53	190.79	1.97	-54.2	-56.6	3.6	0.00e+00	0	37	104	0	60	114378
2026-01-03 10:34:00.54	190.85	2.04	-54.2	-56.7	3.5	0.00e+00	0	37	104	0	60	115169
2026-01-03 10:34:01.55	190.91	2.10	-53.6	-56.0	3.6	0.00e+00	0	37	104	0	60	107206
2026-01-03 10:34:02.56	190.97	2.17	-54.1	-56.5	3.6	0.00e+00	0	37	104	0	60	113562
2026-01-03 10:34:03.57	191.03	2.24	-54.1	-56.5	3.6	0.00e+00	0	37	104	0	60	113348
2026-01-03 10:34:04.58	191.10	2.30	-54.1	-56.5	3.6	0.00e+00	0	37	104	0	60	113589
2026-01-03 10:34:05.59	191.16	2.37	-53.7	-56.2	3.6	0.00e+00	0	37	104	0	60	109064
2026-01-03 10:34:06.60	191.22	2.44	-53.3	-55.7	3.6	0.00e+00	0	37	104	0	60	103491
2026-01-03 10:34:07.62	191.29	2.51	-53.5	-56.0	3.6	0.00e+00	0	37	104	0	60	106940
2026-01-03 10:34:08.63	191.35	2.58	-54.3	-56.8	3.6	0.00e+00	0	37	104	0	60	117001
2026-01-03 10:34:09.64	191.41	2.64	-53.9	-56.4	3.6	0.00e+00	0	37	104	0	60	111773
2026-01-03 10:34:10.65	191.48	2.71	-54.6	-57.0	3.6	0.00e+00	0	37	104	0	60	119862
2026-01-03 10:34:11.66	191.54	2.78	-55.2	-57.7	3.6	0.00e+00	0	37	104	0	60	129773
2026-01-03 10:34:12.67	191.61	2.85	-54.9	-57.3	3.6	0.00e+00	0	37	104	0	60	124195
2026-01-03 10:34:13.68	191.67	2.92	-54.2	-56.6	3.6	0.00e+00	0	37	104	0	60	114786
2026-01-03 10:34:14.69	191.74	2.99	-54.3	-56.8	3.6	0.00e+00	0	37	104	0	60	117146
2026-01-03 10:34:15.70	191.80	3.06	-54.1	-56.5	3.6	0.00e+00	0	37	104	0	60	113092
2026-01-03 10:34:16.71	191.87	3.13	-53.9	-56.4	3.6	0.00e+00	0	37	104	0	60	112078
2026-01-03 10:34:17.72	191.94	3.19	-53.9	-56.3	3.6	0.00e+00	0	37	104	0	60	110994
2026-01-03 10:34:18.74	192.01	3.27	-54.3	-56.7	3.6	0.00e+00	0	37	104	0	60	115979
2026-01-03 10:34:19.75	192.07	3.34	-54.2	-56.6	3.6	0.00e+00	0	37	104	0	60	114035
2026-01-03 10:34:20.76	192.14	3.41	-54.5	-56.9	3.6	0.00e+00	0	37	104	0	60	118925
2026-01-03 10:34:21.77	192.21	3.48	-54.9	-57.4	3.6	0.00e+00	0	37	104	0	60	124769
2026-01-03 10:34:22.78	192.28	3.55	-54.2	-56.6	3.6	0.00e+00	0	37	104	0	60	114565
2026-01-03 10:34:23.79	192.35	3.62	-53.7	-56.2	3.6	0.00e+00	0	37	104	0	60	109004
2026-01-03 10:34:24.80	192.42	3.69	-54.3	-56.7	3.6	0.00e+00	0	37	104	0	60	116050
2026-01-03 10:34:25.81	192.49	3.76	-54.3	-56.7	3.6	0.00e+00	0	37	104	0	60	116274
2026-01-03 10:34:26.82	192.56	3.83	-53.9	-56.4	3.6	0.00e+00	0	37	104	0	60	111426
2026-01-03 10:34:27.83	192.63	3.90	-53.9	-56.4	3.6	0.00e+00	0	37	104	0	60	111222
2026-01-03 10:34:28.84	192.70	3.98	-54.4	-56.8	3.6	0.00e+00	0	37	104	0	60	116994
2026-01-03 10:34:29.85	192.77	4.05	-54.2	-56.6	3.6	0.00e+00	0	37	104	0	60	114913
2026-01-03 10:34:30.86	192.84	4.12	-53.8	-56.3	3.6	0.00e+00	0	37	104	0	60	110771
2026-01-03 10:34:31.88	192.92	4.19	-54.6	-57.1	3.6	0.00e+00	0	37	104	0	60	121237
2026-01-03 10:34:32.89	192.99	4.27	-54.2	-56.7	3.6	0.00e+00	0	37	104	0	60	115485
2026-01-03 10:34:33.90	193.06	4.34	-53.9	-56.4	3.6	0.00e+00	0	37	104	0	60	112040
2026-01-03 10:34:34.91	193.14	4.41	-54.5	-57.0	3.6	0.00e+00	0	38	104	0	60	119037
2026-01-03 10:34:35.92	193.21	4.49	-54.2	-56.6	3.6	0.00e+00	0	37	104	0	60	114069
2026-01-03 10:34:36.93	193.29	4.56	-54.3	-56.8	3.6	0.00e+00	0	38	104	0	60	116603
2026-01-03 10:34:37.94	193.36	4.63	-53.6	-56.1	3.6	0.00e+00	0	37	104	0	60	107863
2026-01-03 10:34:38.95	193.44	4.71	-54.5	-57.0	3.6	0.00e+00	0	38	104	0	60	119618
2026-01-03 10:34:39.96	193.51	4.78	-54.2	-56.7	3.6	0.00e+00	0	38	104	0	60	115306
2026-01-03 10:34:40.97	193.59	4.86	-54.4	-56.8	3.6	0.00e+00	0	38	104	0	60	116891
2026-01-03 10:34:41.98	193.66	4.93	-54.4	-56.8	3.6	0.00e+00	0	38	104	0	60	117256
2026-01-03 10:34:43.00	193.74	5.01	-53.9	-56.4	3.6	0.00e+00	0	38	104	0	60	111337
2026-01-03 10:34:44.00	193.82	5.08	-54.0	-56.4	3.6	0.00e+00	0	38	104	0	60	112000
2026-01-03 10:34:45.02	193.90	5.16	-53.9	-56.3	3.6	0.00e+00	0	38	104	0	60	110492
2026-01-03 10:34:46.03	193.98	5.23	-53.6	-56.1	3.6	0.00e+00	0	38	104	0	60	108056
2026-01-03 10:34:47.04	194.06	5.31	-53.5	-55.9	3.6	0.00e+00	0	38	104	0	60	105585
2026-01-03 10:34:48.05	194.14	5.39	-54.2	-56.7	3.6	0.00e+00	0	38	104	0	60	115145
2026-01-03 10:34:49.06	194.22	5.46	-54.1	-56.5	3.6	0.00e+00	0	38	104	0	60	113420
2026-01-03 10:34:50.07	194.30	5.54	-53.6	-56.1	3.6	0.00e+00	0	38	104	0	60	108030
2026-01-03 10:34:51.08	194.38	5.62	-53.9	-56.4	3.6	0.00e+00	0	38	104	0	60	111660
2026-01-03 10:34:52.09	194.46	5.69	-54.1	-56.5	3.6	0.00e+00	0	38	104	0	60	113446
2026-01-03 10:34:53.10	194.54	5.77	-53.8	-56.2	3.6	0.00e+00	0	38	104	0	60	109725
2026-01-03 10:34:54.12	194.63	5.85	-54.7	-57.2	3.6	0.00e+00	0	38	104	0	60	121900
2026-01-03 10:34:55.13	194.71	5.93	-54.1	-56.5	3.6	0.00e+00	0	38	104	0	60	113610
2026-01-03 10:34:56.14	194.79	6.01	-53.9	-56.4	3.6	0.00e+00	0	38	104	0	60	111278
2026-01-03 10:34:57.15	194.88	6.09	-54.1	-56.6	3.6	0.00e+00	0	38	104	0	60	113717
2026-01-03 10:34:58.16	194.96	6.17	-53.8	-56.2	3.6	0.00e+00	0	38	104	0	60	109126
2026-01-03 10:34:59.17	195.05	6.24	-54.0	-56.4	3.6	0.00e+00	0	38	104	0	60	112012
2026-01-03 10:35:00.18	195.14	6.32	-53.8	-56.3	3.6	0.00e+00	0	38	104	0	60	110254
2026-01-03 10:35:01.19	195.22	6.40	-53.6	-56.1	3.6	0.00e+00	0	38	104	0	60	108053
2026-01-03 10:35:02.21	195.31	6.48	-53.8	-56.2	3.6	0.00e+00	0	38	104	0	60	109613
2026-01-03 10:35:03.22	195.40	6.57	-54.5	-56.9	3.6	0.00e+00	0	38	104	0	60	118842
2026-01-03 10:35:04.23	195.49	6.65	-53.8	-56.2	3.6	0.00e+00	0	38	104	0	60	108779
2026-01-03 10:35:05.24	195.57	6.73	-53.4	-55.8	3.6	0.00e+00	0	38	104	0	60	104482
2026-01-03 10:35:06.25	195.66	6.81	-54.0	-56.4	3.6	0.00e+00	0	38	104	0	60	112122
2026-01-03 10:35:07.26	195.75	6.89	-54.2	-56.7	3.6	0.00e+00	0	38	104	0	60	115394
2026-01-03 10:35:08.27	195.85	6.97	-54.1	-56.6	3.6	0.00e+00	0	38	104	0	60	113746
2026-01-03 10:35:09.28	195.94	7.05	-54.2	-56.7	3.6	0.00e+00	0	38	104	0	60	115330
2026-01-03 10:35:10.30	196.03	7.14	-54.1	-56.5	3.6	0.00e+00	0	38	104	0	60	113356
2026-01-03 10:35:11.31	196.12	7.22	-54.5	-57.0	3.6	0.00e+00	0	38	104	0	60	119095
2026-01-03 10:35:12.32	196.21	7.30	-54.3	-56.8	3.6	0.00e+00	0	38	104	0	60	117504
2026-01-03 10:35:13.33	196.31	7.39	-54.1	-56.5	3.6	0.00e+00	0	38	104	0	60	113556
2026-01-03 10:35:14.34	196.40	7.47	-54.3	-56.8	3.6	0.00e+00	0	38	104	0	60	116807
2026-01-03 10:35:15.35	196.50	7.55	-53.4	-55.9	3.6	0.00e+00	0	38	104	0	60	104899
2026-01-03 10:35:16.36	196.59	7.64	-54.0	-56.5	3.6	0.00e+00	0	38	104	0	60	113103
2026-01-03 10:35:17.37	196.69	7.72	-53.9	-56.4	3.6	0.00e+00	0	38	104	0	60	111287
2026-01-03 10:35:18.38	196.79	7.81	-54.4	-56.9	3.6	0.00e+00	0	38	104	0	60	118453
2026-01-03 10:35:19.39	196.88	7.89	-54.1	-56.6	3.6	0.00e+00	0	38	104	0	60	113806
2026-01-03 10:35:20.40	196.98	7.98	-54.1	-56.6	3.6	0.00e+00	0	38	104	0	60	113806
2026-01-03 10:35:21.41	197.08	8.06	-53.8	-56.2	3.6	0.00e+00	0	38	104	0	60	109704
2026-01-03 10:35:22.42	197.18	8.15	-54.8	-57.3	3.6	0.00e+00	0	38	104	0	60	123716
2026-01-03 10:35:23.44	197.28	8.24	-54.5	-57.0	3.6	0.00e+00	0	38	104	0	60	119717
2026-01-03 10:35:24.45	197.38	8.32	-54.1	-56.6	3.6	0.00e+00	0	38	104	0	60	113743
2026-01-03 10:35:25.46	197.49	8.41	-54.0	-56.4	3.6	0.00e+00	0	38	104	0	60	112134
2026-01-03 10:35:26.47	197.59	8.50	-54.2	-56.7	3.6	0.00e+00	0	38	104	0	60	114977
2026-01-03 10:35:27.48	197.69	8.58	-54.0	-56.5	3.6	0.00e+00	0	38	104	0	60	113016
2026-01-03 10:35:28.49	197.79	8.67	-53.7	-56.1	3.6	0.00e+00	0	38	104	0	60	108231
2026-01-03 10:35:29.49	197.90	8.76	-53.9	-56.4	3.6	0.00e+00	0	38	104	0	60	111810
2026-01-03 10:35:30.50	198.00	8.85	-54.3	-56.8	3.6	0.00e+00	0	38	104	0	60	116869
2026-01-03 10:35:31.52	198.11	8.94	-54.4	-56.8	3.6	0.00e+00	0	38	104	0	60	117619
2026-01-03 10:35:32.53	198.22	9.03	-53.9	-56.4	3.6	0.00e+00	0	38	104	0	60	112032
2026-01-03 10:35:33.54	198.33	9.12	-53.4	-55.9	3.6	0.00e+00	0	38	104	0	60	105185
2026-01-03 10:35:34.55	198.43	9.21	-53.9	-56.4	3.6	0.00e+00	0	38	104	0	60	111212
2026-01-03 10:35:35.56	198.54	9.30	-55.3	-57.8	3.6	0.00e+00	0	38	104	0	60	131215
2026-01-03 10:35:36.57	198.65	9.39	-54.0	-56.5	3.6	0.00e+00	0	38	104	0	60	113194
2026-01-03 10:35:37.58	198.76	9.48	-54.0	-56.5	3.6	0.00e+00	0	38	104	0	60	113279
2026-01-03 10:35:38.59	198.88	9.57	-53.7	-56.1	3.6	0.00e+00	0	38	104	0	60	108170
2026-01-03 10:35:39.60	198.99	9.66	-54.7	-57.1	3.6	0.00e+00	0	38	104	0	60	121754
2026-01-03 10:35:40.61	199.10	9.75	-54.3	-56.7	3.6	0.00e+00	0	38	104	0	60	115512
2026-01-03 10:35:41.62	199.22	9.85	-54.8	-57.2	3.6	0.00e+00	0	38	104	0	60	122825
2026-01-03 10:35:42.63	199.33	9.94	-54.2	-56.7	3.6	0.00e+00	0	38	104	0	60	114968
2026-01-03 10:35:43.64	199.45	10.03	-54.7	-57.1	3.6	0.00e+00	0	38	104	0	60	121662
2026-01-03 10:35:44.66	199.56	10.13	-54.5	-57.0	3.6	0.00e+00	0	38	104	0	60	119225
2026-01-03 10:35:45.67	199.68	10.22	-55.1	-57.6	3.6	0.00e+00	0	38	104	0	60	127649
2026-01-03 10:35:46.68	199.80	10.32	-54.6	-57.0	3.6	0.00e+00	0	38	104	0	60	120223
2026-01-03 10:35:47.69	199.92	10.41	-55.0	-57.5	3.6	0.00e+00	0	38	104	0	60	126456
2026-01-03 10:35:48.70	200.04	10.51	-54.1	-56.6	3.6	0.00e+00	0	38	104	0	60	114084
2026-01-03 10:35:49.71	200.16	10.60	-55.2	-57.7	3.6	0.00e+00	0	38	104	0	60	129412
2026-01-03 10:35:50.72	200.28	10.70	-54.3	-56.8	3.6	0.00e+00	0	38	104	0	60	116776
2026-01-03 10:35:51.74	200.41	10.79	-53.8	-56.3	3.6	0.00e+00	0	38	104	0	60	110339
2026-01-03 10:35:52.75	200.53	10.89	-53.4	-55.8	3.6	0.00e+00	0	38	104	0	60	104504
2026-01-03 10:35:53.76	200.66	10.99	-53.4	-55.9	3.5	0.00e+00	0	38	104	0	60	104888
2026-01-03 10:35:54.77	200.78	11.09	-54.0	-56.5	3.6	0.00e+00	0	38	104	0	60	112446
2026-01-03 10:35:55.78	200.91	11.18	-54.4	-56.8	3.6	0.00e+00	0	38	104	0	60	117207
2026-01-03 10:35:56.79	201.04	11.28	-53.1	-55.6	3.6	0.00e+00	0	38	104	0	60	101309
2026-01-03 10:35:57.80	201.17	11.38	-54.7	-57.2	3.6	0.00e+00	0	38	104	0	60	122486
2026-01-03 10:35:58.81	201.30	11.48	-54.8	-57.2	3.6	0.00e+00	0	38	104	0	60	122523
2026-01-03 10:35:59.82	201.43	11.58	-55.0	-57.5	3.6	0.00e+00	0	38	104	0	60	127019
2026-01-03 10:36:00.83	201.56	11.68	-54.1	-56.6	3.6	0.00e+00	0	39	104	0	60	114306
2026-01-03 10:36:01.85	201.69	11.78	-54.1	-56.6	3.6	0.00e+00	0	38	104	0	60	113869
2026-01-03 10:36:02.86	201.83	11.88	-53.8	-56.3	3.6	0.00e+00	0	38	104	0	60	110618
2026-01-03 10:36:03.87	201.96	11.98	-54.0	-56.4	3.6	0.00e+00	0	39	104	0	60	112286
2026-01-03 10:36:04.88	202.10	12.08	-54.1	-56.5	3.6	0.00e+00	0	39	104	0	60	113396
2026-01-03 10:36:05.89	202.24	12.19	-54.7	-57.2	3.6	0.00e+00	0	39	104	0	60	122498
2026-01-03 10:36:06.90	202.37	12.29	-54.1	-56.6	3.6	0.00e+00	0	39	104	0	60	114111
2026-01-03 10:36:07.91	202.51	12.39	-53.8	-56.2	3.6	0.00e+00	0	39	104	0	60	109408
2026-01-03 10:36:08.92	202.65	12.49	-54.0	-56.4	3.6	0.00e+00	0	39	104	0	60	112022
2026-01-03 10:36:09.93	202.80	12.60	-54.1	-56.6	3.6	0.00e+00	0	39	104	0	60	113712
2026-01-03 10:36:10.94	202.94	12.70	-54.1	-56.6	3.6	0.00e+00	0	39	104	0	60	114202
2026-01-03 10:36:11.96	203.08	12.81	-54.1	-56.5	3.6	0.00e+00	0	39	104	0	60	113609
2026-01-03 10:36:12.97	203.23	12.91	-53.9	-56.4	3.6	0.00e+00	0	39	104	0	60	112186
2026-01-03 10:36:13.98	203.38	13.02	-53.9	-56.4	3.6	0.00e+00	0	39	104	0	60	112062
2026-01-03 10:36:14.99	203.52	13.12	-54.1	-56.5	3.6	0.00e+00	0	39	104	0	60	112832
2026-01-03 10:36:16.00	203.67	13.23	-53.9	-56.4	3.6	0.00e+00	0	39	104	0	60	112243
2026-01-03 10:36:17.01	203.82	13.34	-54.5	-57.0	3.6	0.00e+00	0	39	104	0	60	119909
2026-01-03 10:36:18.02	203.97	13.44	-54.3	-56.9	3.6	0.00e+00	0	39	104	0	60	117694
2026-01-03 10:36:19.03	204.13	13.55	-53.8	-56.3	3.6	0.00e+00	0	39	104	0	60	109876
2026-01-03 10:36:20.04	204.28	13.66	-54.1	-56.6	3.6	0.00e+00	0	39	104	0	60	114217
2026-01-03 10:36:21.05	204.44	13.77	-53.9	-56.4	3.6	0.00e+00	0	39	104	0	60	111518
2026-01-03 10:36:22.07	204.59	13.88	-53.9	-56.3	3.6	0.00e+00	0	39	104	0	60	110882
2026-01-03 10:36:23.08	204.75	13.99	-53.7	-56.2	3.6	0.00e+00	0	39	104	0	60	108551
2026-01-03 10:36:24.09	204.91	14.10	-53.9	-56.4	3.6	0.00e+00	0	39	104	0	60	111814
2026-01-03 10:36:25.10	205.07	14.21	-53.8	-56.3	3.6	0.00e+00	0	39	104	0	60	109838
2026-01-03 10:36:26.11	205.23	14.32	-53.9	-56.4	3.6	0.00e+00	0	39	104	0	60	111309
2026-01-03 10:36:27.12	205.40	14.43	-54.5	-57.0	3.6	0.00e+00	0	39	104	0	60	119169
2026-01-03 10:36:28.13	205.56	14.54	-54.0	-56.5	3.6	0.00e+00	0	39	104	0	60	112403
2026-01-03 10:36:29.14	205.73	14.65	-53.9	-56.4	3.6	0.00e+00	0	39	104	0	60	111713
2026-01-03 10:36:30.15	205.90	14.77	-54.3	-56.8	3.6	0.00e+00	0	39	104	0	60	116800
2026-01-03 10:36:31.16	206.06	14.88	-53.9	-56.3	3.5	0.00e+00	0	39	104	0	60	110586
2026-01-03 10:36:32.17	206.23	14.99	-53.7	-56.2	3.6	0.00e+00	0	39	104	0	60	108544
2026-01-03 10:36:33.18	206.41	15.11	-53.5	-55.9	3.6	0.00e+00	0	39	104	0	60	105931
2026-01-03 10:36:34.19	206.58	15.22	-53.8	-56.3	3.6	0.00e+00	0	39	104	0	60	110463
2026-01-03 10:36:35.20	206.76	15.34	-53.7	-56.2	3.6	0.00e+00	0	39	104	0	60	108609
2026-01-03 10:36:36.21	206.93	15.45	-54.0	-56.5	3.5	0.00e+00	0	39	104	0	60	112386
2026-01-03 10:36:37.23	207.11	15.57	-53.5	-55.9	3.6	0.00e+00	0	39	104	0	60	105797
2026-01-03 10:36:38.24	207.29	15.69	-53.6	-56.0	3.6	0.00e+00	0	39	104	0	60	107100
2026-01-03 10:36:39.25	207.47	15.80	-53.6	-56.0	3.6	0.00e+00	0	39	104	0	60	106989
2026-01-03 10:36:40.26	207.66	15.92	-54.0	-56.5	3.6	0.00e+00	0	39	104	0	60	112487
2026-01-03 10:36:41.27	207.84	16.04	-53.7	-56.2	3.6	0.00e+00	0	39	104	0	60	109570
2026-01-03 10:36:42.28	208.03	16.16	-53.9	-56.3	3.5	0.00e+00	0	39	104	0	60	110702
2026-01-03 10:36:43.29	208.21	16.27	-53.9	-56.3	3.6	0.00e+00	0	39	104	0	60	110330
2026-01-03 10:36:44.30	208.40	16.39	-54.1	-56.6	3.6	0.00e+00	0	39	104	0	60	113673
2026-01-03 10:36:45.31	208.59	16.51	-53.7	-56.2	3.6	0.00e+00	0	39	104	0	60	108659
2026-01-03 10:36:46.33	208.79	16.64	-53.5	-56.0	3.6	0.00e+00	0	39	104	0	60	106141
2026-01-03 10:36:47.34	208.98	16.76	-53.9	-56.3	3.6	0.00e+00	0	39	104	0	60	110773
2026-01-03 10:36:48.35	209.18	16.88	-54.2	-56.7	3.6	0.00e+00	0	39	104	0	60	115172
2026-01-03 10:36:49.36	209.38	17.00	-54.0	-56.4	3.6	0.00e+00	0	39	104	0	60	111539
2026-01-03 10:36:50.37	209.58	17.12	-54.1	-56.6	3.6	0.00e+00	0	39	104	0	60	114389
2026-01-03 10:36:51.38	209.78	17.24	-53.9	-56.3	3.6	0.00e+00	0	39	104	0	60	110241
2026-01-03 10:36:52.39	209.98	17.37	-54.0	-56.4	3.6	0.00e+00	0	39	104	0	60	111580
2026-01-03 10:36:53.40	210.19	17.49	-54.3	-56.8	3.6	0.00e+00	0	39	104	0	60	116681
2026-01-03 10:36:54.41	210.40	17.61	-54.2	-56.7	3.6	0.00e+00	0	39	104	0	60	115858
2026-01-03 10:36:55.42	210.61	17.74	-53.7	-56.2	3.6	0.00e+00	0	39	104	0	60	108680
2026-01-03 10:36:56.43	210.82	17.86	-53.7	-56.1	3.6	0.00e+00	0	39	104	0	60	107590
2026-01-03 10:36:57.44	211.03	17.99	-54.0	-56.5	3.6	0.00e+00	0	39	104	0	60	112369
2026-01-03 10:36:58.46	211.25	18.11	-54.0	-56.5	3.6	0.00e+00	0	39	104	0	60	112775
2026-01-03 10:36:59.47	211.47	18.24	-53.7	-56.2	3.6	0.00e+00	0	39	104	0	60	109399
2026-01-03 10:37:00.48	211.69	18.37	-54.1	-56.5	3.6	0.00e+00	0	39	104	0	60	113562
2026-01-03 10:37:01.49	211.91	18.49	-54.1	-56.6	3.6	0.00e+00	0	39	104	0	60	114395
2026-01-03 10:37:02.50	212.13	18.62	-54.5	-57.0	3.6	0.00e+00	0	39	104	0	60	120214
2026-01-03 10:37:03.51	212.36	18.75	-53.9	-56.4	3.6	0.00e+00	0	39	104	0	60	111497
2026-01-03 10:37:04.52	212.58	18.88	-54.0	-56.4	3.6	0.00e+00	0	39	104	0	60	112081
2026-01-03 10:37:05.53	212.81	19.01	-54.4	-56.9	3.6	0.00e+00	0	39	104	0	60	118178
2026-01-03 10:37:06.54	213.05	19.14	-54.2	-56.6	3.6	0.00e+00	0	39	104	0	60	114720
2026-01-03 10:37:07.56	213.28	19.27	-54.5	-57.0	3.6	0.00e+00	0	39	104	0	60	119382
2026-01-03 10:37:08.57	213.52	19.40	-54.3	-56.7	3.6	0.00e+00	0	39	104	0	60	116050
2026-01-03 10:37:09.58	213.76	19.53	-54.5	-56.9	3.6	0.00e+00	0	39	104	0	60	117917
2026-01-03 10:37:10.59	214.00	19.66	-54.3	-56.8	3.6	0.00e+00	0	39	104	0	60	117103
2026-01-03 10:37:11.60	214.24	19.79	-54.6	-57.0	3.6	0.00e+00	0	39	104	0	60	120181
2026-01-03 10:37:12.61	214.49	19.92	-54.2	-56.7	3.6	0.00e+00	0	39	104	0	60	115057
2026-01-03 10:37:13.62	214.74	20.05	-53.9	-56.4	3.6	0.00e+00	0	39	104	0	60	112006
2026-01-03 10:37:14.63	214.99	20.19	-54.1	-56.6	3.6	0.00e+00	0	39	104	0	60	114294
2026-01-03 10:37:15.64	215.24	20.32	-54.1	-56.5	3.6	0.00e+00	0	39	104	0	60	113354
2026-01-03 10:37:16.65	215.49	20.45	-54.2	-56.6	3.6	0.00e+00	0	39	104	0	60	114749
2026-01-03 10:37:17.66	215.75	20.59	-54.2	-56.7	3.6	0.00e+00	0	39	104	0	60	116042
2026-01-03 10:37:18.68	216.01	20.72	-54.1	-56.6	3.6	0.00e+00	0	39	104	0	60	114625
2026-01-03 10:37:19.69	216.28	20.86	-54.8	-57.2	3.6	0.00e+00	0	39	104	0	60	122568
2026-01-03 10:37:20.70	216.54	20.99	-54.0	-56.5	3.6	0.00e+00	0	39	104	0	60	112680
2026-01-03 10:37:21.71	216.81	21.12	-54.2	-56.7	3.6	0.00e+00	0	39	104	0	60	115979
2026-01-03 10:37:22.72	217.08	21.26	-54.5	-57.0	3.6	0.00e+00	0	39	104	0	60	119688
2026-01-03 10:37:23.73	217.35	21.40	-53.8	-56.2	3.6	0.00e+00	0	39	104	0	60	109486
2026-01-03 10:37:24.74	217.63	21.53	-54.2	-56.7	3.6	0.00e+00	0	39	104	0	60	115872
2026-01-03 10:37:25.75	217.91	21.67	-54.0	-56.5	3.6	0.00e+00	0	39	104	0	60	112826
2026-01-03 10:37:26.76	218.19	21.80	-54.0	-56.5	3.6	0.00e+00	0	39	104	0	60	113153
2026-01-03 10:37:27.77	218.47	21.94	-53.9	-56.4	3.6	0.00e+00	0	39	104	0	60	111613
2026-01-03 10:37:28.78	218.76	22.08	-54.1	-56.5	3.6	0.00e+00	0	39	104	0	60	113185
2026-01-03 10:37:29.79	219.05	22.21	-53.7	-56.2	3.6	0.00e+00	0	39	104	0	60	108946
2026-01-03 10:37:30.80	219.34	22.35	-53.8	-56.3	3.6	0.00e+00	0	39	104	0	60	110888
2026-01-03 10:37:31.81	219.63	22.49	-53.8	-56.2	3.6	0.00e+00	0	39	104	0	60	109480
2026-01-03 10:37:32.82	219.93	22.63	-53.8	-56.3	3.6	0.00e+00	0	39	104	0	60	110210
2026-01-03 10:37:33.83	220.23	22.76	-54.0	-56.5	3.6	0.00e+00	0	39	104	0	60	113157
2026-01-03 10:37:34.84	220.54	22.90	-53.4	-55.8	3.6	0.00e+00	0	39	104	0	60	104503
2026-01-03 10:37:35.86	220.85	23.04	-53.8	-56.2	3.6	0.00e+00	0	39	104	0	60	109033
2026-01-03 10:37:36.87	221.16	23.18	-53.7	-56.2	3.6	0.00e+00	0	39	104	0	60	108875
2026-01-03 10:37:37.88	221.47	23.32	-53.5	-56.0	3.6	0.00e+00	0	39	104	0	60	106840
2026-01-03 10:37:38.89	221.78	23.46	-53.9	-56.3	3.6	0.00e+00	0	39	104	0	60	110400
2026-01-03 10:37:39.90	222.10	23.59	-54.1	-56.6	3.6	0.00e+00	0	39	104	0	60	113916
2026-01-03 10:37:40.91	222.42	23.73	-54.0	-56.4	3.6	0.00e+00	0	39	104	0	60	112174
2026-01-03 10:37:41.92	222.75	23.87	-54.2	-56.6	3.6	0.00e+00	0	39	104	0	60	114790
2026-01-03 10:37:42.93	223.08	24.01	-54.2	-56.6	3.6	0.00e+00	0	39	104	0	60	114688
2026-01-03 10:37:43.94	223.41	24.15	-54.3	-56.7	3.6	0.00e+00	0	39	104	0	60	115898
2026-01-03 10:37:44.96	223.75	24.29	-54.0	-56.5	3.6	0.00e+00	0	39	104	0	60	112977
2026-01-03 10:37:45.97	224.08	24.43	-54.1	-56.6	3.6	0.00e+00	0	39	104	0	60	113917
2026-01-03 10:37:46.98	224.43	24.57	-54.1	-56.6	3.6	0.00e+00	0	39	104	0	60	113987
2026-01-03 10:37:47.99	224.77	24.70	-54.3	-56.7	3.6	0.00e+00	0	39	104	0	60	116129
2026-01-03 10:37:49.00	225.12	24.84	-53.8	-56.3	3.6	0.00e+00	0	39	104	0	60	110006
2026-01-03 10:37:50.01	225.47	24.98	-54.2	-56.5	3.6	0.00e+00	0	39	104	0	60	113517
2026-01-03 10:37:51.02	225.82	25.12	-54.4	-56.8	3.6	0.00e+00	0	39	104	0	60	117257
2026-01-03 10:37:52.04	226.18	25.26	-54.5	-56.9	3.6	0.00e+00	0	39	104	0	60	118981
2026-01-03 10:37:53.05	226.54	25.39	-54.3	-56.8	3.6	0.00e+00	0	39	104	0	60	116622
2026-01-03 10:37:54.06	226.91	25.53	-54.5	-57.0	3.6	0.00e+00	0	39	104	0	60	119171
2026-01-03 10:37:55.07	227.27	25.67	-54.1	-56.6	3.6	0.00e+00	0	39	104	0	60	114532
2026-01-03 10:37:56.08	227.65	25.80	-54.3	-56.8	3.6	0.00e+00	0	39	104	0	60	116868
2026-01-03 10:37:57.09	228.02	25.94	-54.1	-56.5	3.6	0.00e+00	0	39	104	0	60	113344
2026-01-03 10:37:58.10	228.40	26.08	-54.0	-56.5	3.6	0.00e+00	0	39	104	0	60	113442
2026-01-03 10:37:59.11	228.78	26.21	-54.0	-56.5	3.6	0.00e+00	0	39	104	0	60	112615
2026-01-03 10:38:00.12	229.16	26.35	-54.4	-56.9	3.6	0.00e+00	0	39	104	0	60	117982
2026-01-03 10:38:01.13	229.55	26.48	-54.1	-56.5	3.6	0.00e+00	0	39	104	0	60	113233
2026-01-03 10:38:02.14	229.95	26.62	-54.3	-56.7	3.5	0.00e+00	0	39	104	0	60	115551
2026-01-03 10:38:03.15	230.34	26.75	-53.8	-56.3	3.6	0.00e+00	0	39	104	0	60	109990
2026-01-03 10:38:04.17	230.74	26.88	-54.3	-56.8	3.6	0.00e+00	0	39	104	0	60	117243
2026-01-03 10:38:05.18	231.15	27.01	-54.5	-57.0	3.6	0.00e+00	0	39	104	0	60	119351
2026-01-03 10:38:06.19	231.55	27.15	-54.3	-56.7	3.6	0.00e+00	0	39	104	0	60	115581
2026-01-03 10:38:07.20	231.96	27.28	-54.1	-56.6	3.6	0.00e+00	0	39	104	0	60	114301
2026-01-03 10:38:08.21	232.38	27.41	-54.2	-56.6	3.6	0.00e+00	0	39	104	0	60	114343
2026-01-03 10:38:09.22	232.79	27.54	-53.6	-56.1	3.6	0.00e+00	0	39	104	0	60	107361
2026-01-03 10:38:10.23	233.22	27.67	-53.9	-56.3	3.6	0.00e+00	0	39	104	0	60	111024
2026-01-03 10:38:11.24	233.64	27.79	-54.0	-56.5	3.6	0.00e+00	0	39	104	0	60	112550
2026-01-03 10:38:12.25	234.07	27.92	-54.4	-56.9	3.6	0.00e+00	0	39	104	0	60	118014
2026-01-03 10:38:13.26	234.50	28.05	-54.4	-56.8	3.6	0.00e+00	0	39	104	0	60	117432
2026-01-03 10:38:14.27	234.93	28.17	-54.2	-56.7	3.6	0.00e+00	0	39	104	0	60	115180
2026-01-03 10:38:15.28	235.37	28.29	-54.3	-56.8	3.6	0.00e+00	0	39	104	0	60	116407
2026-01-03 10:38:16.30	235.82	28.42	-54.6	-57.1	3.6	0.00e+00	0	39	104	0	60	120872
2026-01-03 10:38:17.31	236.27	28.54	-54.5	-56.9	3.6	0.00e+00	0	39	104	0	60	118532
2026-01-03 10:38:18.32	236.72	28.66	-54.2	-56.6	3.5	0.00e+00	0	39	104	0	60	114367
2026-01-03 10:38:19.33	237.17	28.78	-54.3	-56.7	3.6	0.00e+00	0	39	104	0	60	115496
2026-01-03 10:38:20.34	237.63	28.90	-54.5	-57.0	3.6	0.00e+00	0	39	104	0	60	119820
2026-01-03 10:38:21.35	238.09	29.02	-54.1	-56.6	3.6	0.00e+00	0	39	104	0	60	114470
2026-01-03 10:38:22.36	238.55	29.13	-54.3	-56.7	3.6	0.00e+00	0	39	104	0	60	115727
2026-01-03 10:38:23.37	239.02	29.24	-53.8	-56.3	3.6	0.00e+00	0	39	104	0	60	109950
2026-01-03 10:38:24.38	239.49	29.36	-53.7	-56.2	3.6	0.00e+00	0	39	104	0	60	109191
2026-01-03 10:38:25.39	239.97	29.47	-53.8	-56.2	3.5	0.00e+00	0	39	104	0	60	109771
2026-01-03 10:38:26.41	240.45	29.58	-53.8	-56.3	3.6	0.00e+00	0	39	104	0	60	109937
2026-01-03 10:38:27.41	240.93	29.69	-53.9	-56.4	3.6	0.00e+00	0	39	104	0	60	111879
2026-01-03 10:38:28.43	241.42	29.79	-54.4	-56.8	3.6	0.00e+00	0	39	104	0	60	117096
2026-01-03 10:38:29.44	241.90	29.90	-53.7	-56.2	3.6	0.00e+00	0	39	104	0	60	108573
2026-01-03 10:38:30.45	242.40	30.00	-53.8	-56.2	3.6	0.00e+00	0	39	104	0	60	108979
2026-01-03 10:38:31.46	242.89	30.10	-54.0	-56.5	3.6	0.00e+00	0	39	104	0	60	112718
2026-01-03 10:38:32.47	243.39	30.20	-54.5	-57.0	3.6	0.00e+00	0	39	104	0	60	119478
2026-01-03 10:38:33.48	243.89	30.30	-54.1	-56.6	3.6	0.00e+00	0	39	104	0	60	113711
2026-01-03 10:38:34.49	244.40	30.40	-53.7	-56.2	3.6	0.00e+00	0	39	104	0	60	108646
2026-01-03 10:38:35.50	244.91	30.49	-53.5	-55.9	3.6	0.00e+00	0	39	104	0	60	105738
2026-01-03 10:38:36.51	245.42	30.59	-54.6	-57.1	3.6	0.00e+00	0	39	104	0	60	120453
2026-01-03 10:38:37.52	245.93	30.68	-54.1	-56.5	3.6	0.00e+00	0	39	104	0	60	113435
2026-01-03 10:38:38.53	246.45	30.76	-54.6	-57.1	3.6	0.00e+00	0	39	104	0	60	120775
2026-01-03 10:38:39.54	246.97	30.85	-53.8	-56.3	3.6	0.00e+00	0	39	104	0	60	110326
2026-01-03 10:38:40.56	247.50	30.93	-54.0	-56.5	3.6	0.00e+00	0	39	104	0	60	112926
2026-01-03 10:38:41.57	248.02	31.02	-54.4	-56.8	3.6	0.00e+00	0	39	104	0	60	117245
2026-01-03 10:38:42.58	248.55	31.10	-54.2	-56.7	3.6	0.00e+00	0	39	104	0	60	115570
2026-01-03 10:38:43.59	249.08	31.17	-54.4	-56.9	3.6	0.00e+00	0	39	104	0	60	118512
2026-01-03 10:38:44.60	249.62	31.25	-54.6	-57.0	3.6	0.00e+00	0	39	104	0	60	120023
2026-01-03 10:38:45.61	250.15	31.32	-54.0	-56.4	3.6	0.00e+00	0	39	104	0	60	111472
2026-01-03 10:38:46.62	250.69	31.39	-53.8	-56.3	3.6	0.00e+00	0	39	104	0	60	110404
2026-01-03 10:38:47.63	251.23	31.46	-54.6	-57.0	3.6	0.00e+00	0	39	104	0	60	119730
2026-01-03 10:38:48.64	251.78	31.52	-54.1	-56.5	3.6	0.00e+00	0	39	104	0	60	113351
2026-01-03 10:38:49.65	252.32	31.59	-54.1	-56.6	3.6	0.00e+00	0	39	104	0	60	114109
2026-01-03 10:38:50.67	252.88	31.65	-54.4	-56.8	3.6	0.00e+00	0	39	104	0	60	117318
2026-01-03 10:38:51.68	253.43	31.70	-54.5	-56.9	3.6	0.00e+00	0	39	104	0	60	118889
2026-01-03 10:38:52.69	253.98	31.76	-53.8	-56.3	3.6	0.00e+00	0	39	104	0	60	110731
2026-01-03 10:38:53.70	254.54	31.81	-54.6	-57.1	3.6	0.00e+00	0	39	104	0	60	120685
2026-01-03 10:38:54.71	255.09	31.86	-54.1	-56.5	3.6	0.00e+00	0	39	104	0	60	113177
2026-01-03 10:38:55.72	255.65	31.91	-53.4	-55.9	3.6	0.00e+00	0	39	104	0	60	105544
2026-01-03 10:38:56.73	256.21	31.95	-54.4	-56.9	3.6	0.00e+00	0	39	104	0	60	118127
2026-01-03 10:38:57.74	256.77	31.99	-53.9	-56.4	3.6	0.00e+00	0	39	104	0	60	111542
2026-01-03 10:38:58.75	257.33	32.03	-53.9	-56.4	3.6	0.00e+00	0	39	104	0	60	111592
2026-01-03 10:38:59.76	257.90	32.07	-54.3	-56.8	3.6	0.00e+00	0	39	104	0	60	116692
2026-01-03 10:39:00.78	258.47	32.10	-54.4	-56.9	3.6	0.00e+00	0	39	104	0	60	118369
2026-01-03 10:39:01.79	259.03	32.13	-54.4	-56.8	3.6	0.00e+00	0	39	104	0	60	117632
2026-01-03 10:39:02.80	259.60	32.16	-54.0	-56.5	3.6	0.00e+00	0	39	104	0	60	113148
2026-01-03 10:39:03.81	260.17	32.18	-53.7	-56.1	3.6	0.00e+00	0	39	104	0	60	107847
2026-01-03 10:39:04.82	260.74	32.20	-54.3	-56.8	3.6	0.00e+00	0	39	104	0	60	117190
2026-01-03 10:39:05.83	261.31	32.22	-54.5	-56.9	3.6	0.00e+00	0	39	104	0	60	118553
2026-01-03 10:39:06.84	261.88	32.24	-53.7	-56.2	3.6	0.00e+00	0	39	104	0	60	108699
2026-01-03 10:39:07.85	262.45	32.25	-53.7	-56.2	3.6	0.00e+00	0	39	104	0	60	108793
2026-01-03 10:39:08.86	263.02	32.26	-54.2	-56.6	3.6	0.00e+00	0	39	104	0	60	114449
2026-01-03 10:39:09.87	263.59	32.27	-54.5	-57.0	3.6	0.00e+00	0	39	104	0	60	119313
2026-01-03 10:39:10.88	264.17	32.27	-53.9	-56.4	3.6	0.00e+00	0	39	104	0	60	111093
2026-01-03 10:39:11.89	264.74	32.27	-54.7	-57.2	3.6	0.00e+00	0	39	104	0	60	122214
2026-01-03 10:39:12.90	265.31	32.27	-53.5	-56.0	3.6	0.00e+00	0	39	104	0	60	106067
2026-01-03 10:39:13.91	265.88	32.26	-54.0	-56.5	3.6	0.00e+00	0	39	104	0	60	112361
2026-01-03 10:39:14.92	266.45	32.25	-54.3	-56.8	3.6	0.00e+00	0	39	104	0	60	116823
2026-01-03 10:39:15.93	267.02	32.24	-54.1	-56.6	3.6	0.00e+00	0	39	104	0	60	114260
2026-01-03 10:39:16.94	267.59	32.23	-54.7	-57.1	3.6	0.00e+00	0	39	104	0	60	121517
2026-01-03 10:39:17.95	268.16	32.21	-54.4	-56.9	3.6	0.00e+00	0	39	104	0	60	118403
2026-01-03 10:39:18.96	268.73	32.19	-54.5	-56.9	3.6	0.00e+00	0	39	104	0	60	118322
2026-01-03 10:39:19.98	269.31	32.17	-54.2	-56.7	3.6	0.00e+00	0	39	104	0	60	115721
2026-01-03 10:39:20.99	269.88	32.14	-53.7	-56.3	3.6	0.00e+00	0	39	104	0	60	109971
2026-01-03 10:39:21.99	270.44	32.11	-54.5	-56.9	3.6	0.00e+00	0	39	104	0	60	118857
2026-01-03 10:39:23.01	271.01	32.08	-55.3	-57.7	3.6	0.00e+00	0	39	104	0	60	129821
2026-01-03 10:39:24.02	271.57	32.05	-54.3	-56.8	3.6	0.00e+00	0	39	104	0	60	116761
2026-01-03 10:39:25.03	272.13	32.01	-54.3	-56.7	3.6	0.00e+00	0	39	104	0	60	115978
2026-01-03 10:39:26.04	272.70	31.97	-54.2	-56.7	3.6	0.00e+00	0	39	104	0	60	115524
2026-01-03 10:39:27.05	273.26	31.93	-54.1	-56.6	3.6	0.00e+00	0	39	104	0	60	114260
2026-01-03 10:39:28.06	273.81	31.88	-54.9	-57.3	3.6	0.00e+00	0	39	104	0	60	124034
2026-01-03 10:39:29.07	274.37	31.83	-54.7	-57.1	3.6	0.00e+00	0	39	104	0	60	121668
2026-01-03 10:39:30.08	274.93	31.78	-54.6	-57.0	3.6	0.00e+00	0	39	104	0	60	119746
2026-01-03 10:39:31.09	275.48	31.73	-53.8	-56.3	3.6	0.00e+00	0	39	104	0	60	110136
2026-01-03 10:39:32.10	276.03	31.67	-53.4	-55.8	3.6	0.00e+00	0	39	104	0	60	104559
2026-01-03 10:39:33.11	276.58	31.62	-54.3	-56.7	3.6	0.00e+00	0	39	104	0	60	115599
2026-01-03 10:39:34.12	277.12	31.55	-54.7	-57.2	3.6	0.00e+00	0	39	104	0	60	122034
2026-01-03 10:39:35.13	277.67	31.49	-54.6	-57.0	3.6	0.00e+00	0	39	104	0	60	119961
2026-01-03 10:39:36.14	278.21	31.42	-54.4	-56.8	3.6	0.00e+00	0	39	104	0	60	117108
2026-01-03 10:39:37.15	278.75	31.36	-53.5	-56.0	3.6	0.00e+00	0	39	104	0	60	106520
2026-01-03 10:39:38.17	279.29	31.28	-54.6	-57.1	3.6	0.00e+00	0	39	104	0	60	120612
2026-01-03 10:39:39.18	279.83	31.21	-54.1	-56.5	3.6	0.00e+00	0	39	104	0	60	113544
2026-01-03 10:39:40.19	280.36	31.13	-54.5	-56.9	3.6	0.00e+00	0	39	104	0	60	118538
2026-01-03 10:39:41.20	280.89	31.06	-54.8	-57.3	3.6	0.00e+00	0	39	104	0	60	123424
2026-01-03 10:39:42.21	281.41	30.98	-54.3	-56.7	3.6	0.00e+00	0	39	104	0	60	115494
2026-01-03 10:39:43.22	281.94	30.89	-53.8	-56.3	3.6	0.00e+00	0	39	104	0	60	110350
2026-01-03 10:39:44.23	282.46	30.81	-54.1	-56.6	3.6	0.00e+00	0	39	104	0	60	114674
2026-01-03 10:39:45.24	282.98	30.72	-53.7	-56.2	3.6	0.00e+00	0	39	104	0	60	108708
2026-01-03 10:39:46.25	283.49	30.63	-54.6	-57.1	3.6	0.00e+00	0	39	104	0	60	120913
2026-01-03 10:39:47.26	284.00	30.54	-54.0	-56.5	3.6	0.00e+00	0	39	104	0	60	113245
2026-01-03 10:39:48.28	284.52	30.45	-54.1	-56.6	3.6	0.00e+00	0	39	104	0	60	114218
2026-01-03 10:39:49.29	285.02	30.35	-54.2	-56.6	3.6	0.00e+00	0	39	104	0	60	114877
2026-01-03 10:39:50.30	285.52	30.26	-54.1	-56.6	3.6	0.00e+00	0	39	104	0	60	114103
2026-01-03 10:39:51.31	286.02	30.16	-53.7	-56.2	3.6	0.00e+00	0	39	104	0	60	108918
2026-01-03 10:39:52.32	286.52	30.06	-54.5	-56.9	3.5	0.00e+00	0	39	104	0	60	118425
2026-01-03 10:39:53.33	287.01	29.95	-54.5	-56.9	3.6	0.00e+00	0	39	104	0	60	117984
2026-01-03 10:39:54.34	287.50	29.85	-54.2	-56.7	3.6	0.00e+00	0	39	104	0	60	115285
2026-01-03 10:39:55.35	287.99	29.75	-53.7	-56.2	3.6	0.00e+00	0	39	104	0	60	108776
2026-01-03 10:39:56.36	288.47	29.64	-54.3	-56.8	3.6	0.00e+00	0	39	104	0	60	116783
2026-01-03 10:39:57.38	288.95	29.53	-53.8	-56.3	3.6	0.00e+00	0	39	104	0	60	110317
2026-01-03 10:39:58.39	289.43	29.42	-54.3	-56.7	3.6	0.00e+00	0	39	104	0	60	115971
2026-01-03 10:39:59.40	289.90	29.31	-53.6	-56.1	3.6	0.00e+00	0	39	104	0	60	107336
2026-01-03 10:40:00.41	290.37	29.19	-54.2	-56.6	3.6	0.00e+00	0	39	104	0	60	114341
2026-01-03 10:40:01.42	290.83	29.08	-53.9	-56.4	3.6	0.00e+00	0	39	104	0	60	111892
2026-01-03 10:40:02.43	291.29	28.96	-54.2	-56.6	3.6	0.00e+00	0	40	104	0	60	114726
2026-01-03 10:40:03.44	291.75	28.85	-54.2	-56.6	3.6	0.00e+00	0	39	104	0	60	114543
2026-01-03 10:40:04.45	292.20	28.73	-53.7	-56.2	3.5	0.00e+00	0	39	104	0	60	108584
2026-01-03 10:40:05.46	292.66	28.61	-54.5	-57.0	3.6	0.00e+00	0	39	104	0	60	119807
2026-01-03 10:40:06.47	293.10	28.49	-53.9	-56.4	3.6	0.00e+00	0	39	104	0	60	111900
2026-01-03 10:40:07.48	293.55	28.37	-54.5	-57.0	3.6	0.00e+00	0	39	104	0	60	119850
2026-01-03 10:40:08.49	293.98	28.24	-54.4	-56.9	3.6	0.00e+00	0	39	104	0	60	118340
2026-01-03 10:40:09.50	294.42	28.12	-54.1	-56.6	3.6	0.00e+00	0	39	104	0	60	114277
2026-01-03 10:40:10.51	294.85	27.99	-54.3	-56.7	3.6	0.00e+00	0	39	104	0	60	116011
2026-01-03 10:40:11.52	295.28	27.87	-54.2	-56.6	3.6	0.00e+00	0	39	104	0	60	114791
2026-01-03 10:40:12.53	295.71	27.74	-54.6	-57.0	3.6	0.00e+00	0	39	104	0	60	119578
2026-01-03 10:40:13.54	296.13	27.61	-54.4	-56.8	3.6	0.00e+00	0	39	104	0	60	117557
2026-01-03 10:40:14.55	296.55	27.49	-54.3	-56.7	3.6	0.00e+00	0	39	104	0	60	115943
2026-01-03 10:40:15.56	296.96	27.36	-54.3	-56.8	3.6	0.00e+00	0	39	104	0	60	116757
2026-01-03 10:40:16.57	297.37	27.23	-54.2	-56.7	3.6	0.00e+00	0	40	104	0	60	115946
2026-01-03 10:40:17.59	297.78	27.09	-54.5	-56.9	3.6	0.00e+00	0	39	104	0	60	118956
2026-01-03 10:40:18.60	298.19	26.96	-54.6	-57.1	3.6	0.00e+00	0	39	104	0	60	120799
2026-01-03 10:40:19.61	298.59	26.83	-54.5	-57.0	3.6	0.00e+00	0	39	104	0	60	119273
2026-01-03 10:40:20.62	298.98	26.70	-54.4	-56.9	3.6	0.00e+00	0	39	104	0	60	118177
2026-01-03 10:40:21.63	299.37	26.57	-54.1	-56.6	3.6	0.00e+00	0	39	104	0	60	114506
2026-01-03 10:40:22.64	299.76	26.43	-54.4	-56.9	3.6	0.00e+00	0	40	104	0	60	117927
2026-01-03 10:40:23.65	300.15	26.30	-53.5	-55.9	3.6	0.00e+00	0	40	104	0	60	105478
2026-01-03 10:40:24.66	300.53	26.16	-53.8	-56.3	3.6	0.00e+00	0	39	104	0	60	109875
2026-01-03 10:40:25.67	300.91	26.03	-54.0	-56.5	3.6	0.00e+00	0	39	104	0	60	112737
2026-01-03 10:40:26.68	301.29	25.89	-53.8	-56.2	3.6	0.00e+00	0	39	104	0	60	109518
2026-01-03 10:40:27.69	301.66	25.76	-54.1	-56.6	3.6	0.00e+00	0	39	104	0	60	113705
2026-01-03 10:40:28.70	302.02	25.62	-54.1	-56.6	3.6	0.00e+00	0	39	104	0	60	114359
2026-01-03 10:40:29.71	302.39	25.49	-54.4	-56.9	3.6	0.00e+00	0	39	104	0	60	117970
2026-01-03 10:40:30.72	302.75	25.35	-54.1	-56.6	3.6	0.00e+00	0	39	104	0	60	113864
2026-01-03 10:40:31.73	303.11	25.21	-54.0	-56.5	3.6	0.00e+00	0	39	104	0	60	112583
2026-01-03 10:40:32.74	303.46	25.08	-54.3	-56.8	3.5	0.00e+00	0	39	104	0	60	116552
2026-01-03 10:40:33.75	303.82	24.94	-54.6	-57.0	3.6	0.00e+00	0	39	104	0	60	120193
2026-01-03 10:40:34.77	304.17	24.80	-54.6	-57.0	3.6	0.00e+00	0	39	104	0	60	120296
2026-01-03 10:40:35.78	304.51	24.66	-54.6	-57.1	3.6	0.00e+00	0	39	104	0	60	120793
2026-01-03 10:40:36.79	304.85	24.52	-54.4	-56.9	3.6	0.00e+00	0	40	104	0	60	118499
2026-01-03 10:40:37.80	305.19	24.39	-54.3	-56.8	3.6	0.00e+00	0	39	104	0	60	116715
2026-01-03 10:40:38.81	305.53	24.25	-54.1	-56.6	3.6	0.00e+00	0	39	104	0	60	114385
2026-01-03 10:40:39.82	305.86	24.11	-53.7	-56.1	3.6	0.00e+00	0	39	104	0	60	108454
2026-01-03 10:40:40.83	306.19	23.97	-54.5	-56.9	3.6	0.00e+00	0	39	104	0	60	118388
2026-01-03 10:40:41.84	306.51	23.84	-54.8	-57.2	3.6	0.00e+00	0	39	104	0	60	122642
2026-01-03 10:40:42.86	306.84	23.70	-54.5	-56.9	3.6	0.00e+00	0	39	104	0	60	118345
2026-01-03 10:40:43.87	307.16	23.56	-54.7	-57.2	3.6	0.00e+00	0	39	104	0	60	122439
2026-01-03 10:40:44.88	307.47	23.42	-55.1	-57.6	3.6	0.00e+00	0	39	104	0	60	127939
2026-01-03 10:40:45.89	307.79	23.28	-53.9	-56.4	3.6	0.00e+00	0	39	104	0	60	111428
2026-01-03 10:40:46.90	308.10	23.15	-54.5	-57.0	3.6	0.00e+00	0	39	104	0	60	119757
2026-01-03 10:40:47.91	308.40	23.01	-54.0	-56.4	3.6	0.00e+00	0	39	104	0	60	111545
2026-01-03 10:40:48.92	308.71	22.87	-54.3	-56.8	3.6	0.00e+00	0	39	104	0	60	117052
2026-01-03 10:40:49.93	309.01	22.73	-53.7	-56.2	3.6	0.00e+00	0	39	104	0	60	109458
2026-01-03 10:40:50.94	309.31	22.60	-54.3	-56.7	3.6	0.00e+00	0	39	104	0	60	115763
2026-01-03 10:40:51.96	309.61	22.46	-54.1	-56.5	3.6	0.00e+00	0	39	104	0	60	113571
2026-01-03 10:40:52.97	309.90	22.32	-54.0	-56.5	3.6	0.00e+00	0	39	104	0	60	112568
2026-01-03 10:40:53.98	310.19	22.19	-54.2	-56.7	3.6	0.00e+00	0	39	104	0	60	115369
2026-01-03 10:40:54.99	310.48	22.05	-54.2	-56.7	3.5	0.00e+00	0	39	104	0	60	115719
2026-01-03 10:40:56.00	310.76	21.91	-53.9	-56.4	3.6	0.00e+00	0	39	104	0	60	111211
2026-01-03 10:40:57.01	311.04	21.78	-54.1	-56.5	3.6	0.00e+00	0	39	104	0	60	112972
2026-01-03 10:40:58.02	311.32	21.64	-54.8	-57.3	3.6	0.00e+00	0	39	104	0	60	123253
2026-01-03 10:40:59.03	311.60	21.51	-54.2	-56.7	3.6	0.00e+00	0	39	104	0	60	115261
2026-01-03 10:41:00.04	311.87	21.37	-55.0	-57.3	3.6	0.00e+00	0	39	104	0	60	124515
2026-01-03 10:41:01.05	312.14	21.24	-54.7	-57.2	3.6	0.00e+00	0	39	104	0	60	121866
2026-01-03 10:41:02.07	312.41	21.10	-54.4	-57.0	3.6	0.00e+00	0	39	104	0	60	119034
2026-01-03 10:41:03.07	312.68	20.97	-53.8	-56.3	3.6	0.00e+00	0	39	104	0	60	110021
2026-01-03 10:41:04.08	312.94	20.84	-54.1	-56.6	3.6	0.00e+00	0	39	104	0	60	113935
2026-01-03 10:41:05.10	313.20	20.70	-54.8	-57.3	3.6	0.00e+00	0	39	104	0	60	123763
2026-01-03 10:41:06.11	313.46	20.57	-54.4	-56.9	3.6	0.00e+00	0	39	104	0	60	118055
2026-01-03 10:41:07.12	313.72	20.44	-54.0	-56.5	3.6	0.00e+00	0	39	104	0	60	113226
2026-01-03 10:41:08.13	313.97	20.30	-53.9	-56.4	3.6	0.00e+00	0	39	104	0	60	111415
2026-01-03 10:41:09.14	314.22	20.17	-54.0	-56.4	3.6	0.00e+00	0	39	104	0	60	112039
2026-01-03 10:41:10.15	314.47	20.04	-54.1	-56.5	3.6	0.00e+00	0	39	104	0	60	113576
2026-01-03 10:41:11.16	314.72	19.91	-53.9	-56.3	3.5	0.00e+00	0	39	104	0	60	110940
2026-01-03 10:41:12.17	314.96	19.78	-53.3	-55.7	3.6	0.00e+00	0	39	104	0	60	103570
2026-01-03 10:41:13.18	315.20	19.65	-53.7	-56.2	3.6	0.00e+00	0	39	104	0	60	108552
2026-01-03 10:41:14.19	315.44	19.52	-54.3	-56.8	3.6	0.00e+00	0	39	104	0	60	117626
2026-01-03 10:41:15.21	315.68	19.39	-54.4	-56.8	3.5	0.00e+00	0	40	104	0	60	117155
2026-01-03 10:41:16.22	315.92	19.26	-54.2	-56.7	3.6	0.00e+00	0	39	104	0	60	115395
2026-01-03 10:41:17.23	316.15	19.13	-54.5	-57.0	3.6	0.00e+00	0	40	104	0	60	119108
2026-01-03 10:41:18.24	316.38	19.00	-54.3	-56.8	3.6	0.00e+00	0	39	104	0	60	116943
2026-01-03 10:41:19.25	316.61	18.87	-54.2	-56.7	3.6	0.00e+00	0	39	104	0	60	115761
2026-01-03 10:41:20.26	316.83	18.75	-54.4	-56.9	3.6	0.00e+00	0	40	104	0	60	118438
2026-01-03 10:41:21.27	317.06	18.62	-54.4	-56.8	3.6	0.00e+00	0	39	104	0	60	117410
2026-01-03 10:41:22.28	317.28	18.49	-54.5	-57.0	3.6	0.00e+00	0	39	104	0	60	119069
2026-01-03 10:41:23.29	317.50	18.37	-54.2	-56.7	3.6	0.00e+00	0	39	104	0	60	115327
2026-01-03 10:41:24.30	317.72	18.24	-54.5	-57.0	3.6	0.00e+00	0	39	104	0	60	119408
2026-01-03 10:41:25.31	317.93	18.11	-53.9	-56.3	3.6	0.00e+00	0	39	104	0	60	110276
2026-01-03 10:41:26.32	318.15	17.99	-54.6	-57.1	3.6	0.00e+00	0	39	104	0	60	120527
2026-01-03 10:41:27.33	318.36	17.87	-54.2	-56.7	3.6	0.00e+00	0	39	104	0	60	115026
2026-01-03 10:41:28.34	318.57	17.74	-54.6	-57.0	3.6	0.00e+00	0	40	104	0	60	120205
2026-01-03 10:41:29.35	318.78	17.62	-54.4	-56.9	3.6	0.00e+00	0	39	104	0	60	118260
2026-01-03 10:41:30.36	318.98	17.49	-53.9	-56.4	3.6	0.00e+00	0	40	104	0	60	111298
2026-01-03 10:41:31.38	319.19	17.37	-53.9	-56.4	3.6	0.00e+00	0	40	104	0	60	111531
2026-01-03 10:41:32.39	319.39	17.25	-53.7	-56.1	3.6	0.00e+00	0	40	104	0	60	108333
2026-01-03 10:41:33.40	319.59	17.13	-54.0	-56.5	3.6	0.00e+00	0	40	104	0	60	113031
2026-01-03 10:41:34.41	319.79	17.01	-54.4	-56.9	3.6	0.00e+00	0	39	104	0	60	118377
2026-01-03 10:41:35.42	319.99	16.89	-54.8	-57.2	3.6	0.00e+00	0	39	104	0	60	123179
2026-01-03 10:41:36.43	320.18	16.77	-54.7	-57.2	3.6	0.00e+00	0	40	104	0	60	121880
2026-01-03 10:41:37.44	320.38	16.65	-54.4	-56.9	3.6	0.00e+00	0	39	104	0	60	117958
2026-01-03 10:41:38.45	320.57	16.53	-54.2	-56.7	3.6	0.00e+00	0	39	104	0	60	115730
2026-01-03 10:41:39.47	320.76	16.41	-54.6	-57.0	3.6	0.00e+00	0	39	104	0	60	119400
2026-01-03 10:41:40.48	320.95	16.29	-54.3	-56.8	3.6	0.00e+00	0	40	104	0	60	117024
2026-01-03 10:41:41.49	321.14	16.17	-54.1	-56.6	3.6	0.00e+00	0	40	104	0	60	114126
2026-01-03 10:41:42.50	321.32	16.05	-54.1	-56.6	3.6	0.00e+00	0	40	104	0	60	114478
2026-01-03 10:41:43.51	321.51	15.94	-54.2	-56.6	3.6	0.00e+00	0	40	104	0	60	114256
2026-01-03 10:41:44.52	321.69	15.82	-53.9	-56.4	3.6	0.00e+00	0	40	104	0	60	111168
2026-01-03 10:41:45.53	321.87	15.70	-54.0	-56.5	3.6	0.00e+00	0	40	104	0	60	112844
2026-01-03 10:41:46.54	322.05	15.59	-54.6	-57.0	3.6	0.00e+00	0	40	104	0	60	120202
2026-01-03 10:41:47.55	322.22	15.47	-54.9	-57.3	3.6	0.00e+00	0	40	104	0	60	123816
2026-01-03 10:41:48.56	322.40	15.36	-54.8	-57.2	3.6	0.00e+00	0	40	104	0	60	123082
2026-01-03 10:41:49.58	322.57	15.24	-53.8	-56.2	3.6	0.00e+00	0	40	104	0	60	109699
2026-01-03 10:41:50.59	322.75	15.13	-53.4	-55.8	3.6	0.00e+00	0	40	104	0	60	104629
2026-01-03 10:41:51.60	322.92	15.02	-53.8	-56.3	3.6	0.00e+00	0	40	104	0	60	110429
2026-01-03 10:41:52.61	323.09	14.90	-53.9	-56.4	3.6	0.00e+00	0	40	104	0	60	111194
2026-01-03 10:41:53.62	323.26	14.79	-53.7	-56.2	3.6	0.00e+00	0	40	104	0	60	108933
2026-01-03 10:41:54.63	323.42	14.68	-54.2	-56.6	3.6	0.00e+00	0	40	104	0	60	114706
2026-01-03 10:41:55.64	323.59	14.57	-54.2	-56.7	3.6	0.00e+00	0	39	104	0	60	115534
2026-01-03 10:41:56.65	323.75	14.46	-54.0	-56.4	3.6	0.00e+00	0	40	104	0	60	111902
2026-01-03 10:41:57.66	323.91	14.35	-53.8	-56.2	3.6	0.00e+00	0	40	104	0	60	109554
2026-01-03 10:41:58.68	324.08	14.23	-53.8	-56.3	3.5	0.00e+00	0	40	104	0	60	110255
2026-01-03 10:41:59.69	324.24	14.13	-54.5	-57.0	3.6	0.00e+00	0	39	104	0	60	119569
2026-01-03 10:42:00.70	324.40	14.02	-54.4	-56.9	3.6	0.00e+00	0	39	104	0	60	118337
2026-01-03 10:42:01.71	324.55	13.91	-53.9	-56.4	3.6	0.00e+00	0	40	104	0	60	111593
2026-01-03 10:42:02.72	324.71	13.80	-54.3	-56.8	3.6	0.00e+00	0	40	104	0	60	116318
2026-01-03 10:42:03.73	324.86	13.69	-54.4	-56.8	3.6	0.00e+00	0	39	104	0	60	117109
2026-01-03 10:42:04.74	325.02	13.58	-54.0	-56.4	3.6	0.00e+00	0	39	104	0	60	112126
2026-01-03 10:42:05.75	325.17	13.48	-53.9	-56.4	3.6	0.00e+00	0	39	104	0	60	111342
2026-01-03 10:42:06.76	325.32	13.37	-53.8	-56.2	3.6	0.00e+00	0	39	104	0	60	109529
2026-01-03 10:42:07.77	325.47	13.26	-54.5	-56.9	3.6	0.00e+00	0	39	104	0	60	118958
2026-01-03 10:42:08.78	325.62	13.16	-53.8	-56.3	3.6	0.00e+00	0	39	104	0	60	110579
2026-01-03 10:42:09.79	325.76	13.05	-54.5	-57.0	3.6	0.00e+00	0	39	104	0	60	119861
2026-01-03 10:42:10.80	325.91	12.95	-54.1	-56.5	3.6	0.00e+00	0	39	104	0	60	112568
2026-01-03 10:42:11.81	326.05	12.85	-54.1	-56.6	3.6	0.00e+00	0	39	104	0	60	114041
2026-01-03 10:42:12.83	326.20	12.74	-54.3	-56.7	3.6	0.00e+00	0	39	104	0	60	116295
2026-01-03 10:42:13.84	326.34	12.64	-54.0	-56.5	3.6	0.00e+00	0	39	104	0	60	113120
2026-01-03 10:42:14.85	326.48	12.53	-54.1	-56.5	3.6	0.00e+00	0	39	104	0	60	113299
2026-01-03 10:42:15.86	326.62	12.43	-54.2	-56.7	3.6	0.00e+00	0	40	104	0	60	115339
2026-01-03 10:42:16.87	326.76	12.33	-54.3	-56.8	3.6	0.00e+00	0	40	104	0	60	116590
2026-01-03 10:42:17.88	326.90	12.23	-54.1	-56.5	3.6	0.00e+00	0	40	104	0	60	113606
2026-01-03 10:42:18.89	327.04	12.13	-54.4	-56.8	3.6	0.00e+00	0	39	104	0	60	117183
2026-01-03 10:42:19.90	327.17	12.03	-54.0	-56.4	3.6	0.00e+00	0	39	104	0	60	112158
2026-01-03 10:42:20.91	327.31	11.92	-54.1	-56.6	3.6	0.00e+00	0	39	104	0	60	114257
2026-01-03 10:42:21.92	327.44	11.82	-54.3	-56.8	3.6	0.00e+00	0	39	104	0	60	116359
2026-01-03 10:42:22.93	327.57	11.73	-54.0	-56.4	3.6	0.00e+00	0	39	104	0	60	111730
2026-01-03 10:42:23.94	327.71	11.63	-54.5	-56.9	3.6	0.00e+00	0	39	104	0	60	118687
2026-01-03 10:42:24.95	327.84	11.53	-54.3	-56.7	3.6	0.00e+00	0	40	104	0	60	115965
2026-01-03 10:42:25.96	327.97	11.43	-53.7	-56.1	3.6	0.00e+00	0	40	104	0	60	108053
2026-01-03 10:42:26.97	328.09	11.33	-54.4	-56.9	3.6	0.00e+00	0	40	104	0	60	118287
2026-01-03 10:42:27.98	328.22	11.23	-53.7	-56.2	3.6	0.00e+00	0	40	104	0	60	108812
2026-01-03 10:42:29.00	328.35	11.14	-54.4	-56.9	3.6	0.00e+00	0	39	104	0	60	118209
2026-01-03 10:42:30.01	328.47	11.04	-54.5	-56.9	3.6	0.00e+00	0	39	104	0	60	118288
2026-01-03 10:42:31.02	328.60	10.94	-54.6	-57.1	3.6	0.00e+00	0	39	104	0	60	121271
2026-01-03 10:42:32.03	328.72	10.85	-54.6	-57.0	3.6	0.00e+00	0	39	104	0	60	119757
2026-01-03 10:42:33.04	328.85	10.75	-54.0	-56.4	3.6	0.00e+00	0	39	104	0	60	111477
2026-01-03 10:42:34.05	328.97	10.65	-54.3	-56.7	3.6	0.00e+00	0	39	104	0	60	115488
2026-01-03 10:42:35.06	329.09	10.56	-54.2	-56.7	3.6	0.00e+00	0	39	104	0	60	115600
2026-01-03 10:42:36.08	329.21	10.46	-54.6	-57.0	3.6	0.00e+00	0	40	104	0	60	120329
2026-01-03 10:42:37.09	329.33	10.37	-53.3	-55.7	3.6	0.00e+00	0	39	104	0	60	102648
2026-01-03 10:42:38.10	329.45	10.28	-53.9	-56.4	3.6	0.00e+00	0	39	104	0	60	111535
2026-01-03 10:42:39.11	329.56	10.18	-53.8	-56.3	3.6	0.00e+00	0	39	104	0	60	110529
2026-01-03 10:42:40.12	329.68	10.09	-53.9	-56.4	3.6	0.00e+00	0	39	104	0	60	111604
2026-01-03 10:42:41.13	329.80	10.00	-54.2	-56.7	3.6	0.00e+00	0	39	104	0	60	115052
2026-01-03 10:42:42.14	329.91	9.91	-54.3	-56.8	3.6	0.00e+00	0	40	104	0	60	116843
2026-01-03 10:42:43.15	330.03	9.81	-54.1	-56.6	3.6	0.00e+00	0	39	104	0	60	113650
2026-01-03 10:42:44.16	330.14	9.72	-54.3	-56.7	3.6	0.00e+00	0	40	104	0	60	115677
2026-01-03 10:42:45.17	330.25	9.63	-54.3	-56.7	3.6	0.00e+00	0	39	104	0	60	115628
2026-01-03 10:42:46.18	330.36	9.54	-53.7	-56.2	3.6	0.00e+00	0	40	104	0	60	108556
2026-01-03 10:42:47.20	330.47	9.45	-54.3	-56.8	3.5	0.00e+00	0	40	104	0	60	117198
2026-01-03 10:42:48.20	330.58	9.36	-54.0	-56.4	3.6	0.00e+00	0	40	104	0	60	112278
2026-01-03 10:42:49.22	330.69	9.27	-53.8	-56.4	3.6	0.00e+00	0	39	104	0	60	111207
2026-01-03 10:42:50.23	330.80	9.18	-54.4	-56.8	3.6	0.00e+00	0	40	104	0	60	117233
2026-01-03 10:42:51.24	330.91	9.09	-53.6	-56.0	3.6	0.00e+00	0	40	104	0	60	106985
2026-01-03 10:42:52.25	331.02	9.00	-54.5	-56.9	3.6	0.00e+00	0	40	104	0	60	117767
2026-01-03 10:42:53.26	331.12	8.91	-54.5	-57.0	3.6	0.00e+00	0	39	104	0	60	119759
2026-01-03 10:42:54.27	331.23	8.82	-54.2	-56.7	3.6	0.00e+00	0	39	104	0	60	115540
2026-01-03 10:42:55.28	331.33	8.74	-54.5	-56.9	3.6	0.00e+00	0	39	104	0	60	118240
2026-01-03 10:42:56.29	331.44	8.65	-54.4	-56.9	3.6	0.00e+00	0	39	104	0	60	117981
2026-01-03 10:42:57.30	331.54	8.56	-54.0	-56.4	3.6	0.00e+00	0	39	104	0	60	111896
2026-01-03 10:42:58.31	331.64	8.47	-54.6	-57.0	3.6	0.00e+00	0	40	104	0	60	119810
2026-01-03 10:42:59.32	331.74	8.39	-54.3	-56.8	3.6	0.00e+00	0	40	104	0	60	116706
2026-01-03 10:43:00.33	331.84	8.30	-55.0	-57.4	3.6	0.00e+00	0	40	104	0	60	125897
2026-01-03 10:43:01.34	331.95	8.22	-54.9	-57.3	3.6	0.00e+00	0	39	104	0	60	123907
2026-01-03 10:43:02.35	332.04	8.13	-54.6	-57.1	3.6	0.00e+00	0	39	104	0	60	120538
2026-01-03 10:43:03.36	332.14	8.05	-54.6	-57.0	3.6	0.00e+00	0	40	104	0	60	120240
2026-01-03 10:43:04.38	332.24	7.96	-54.2	-56.6	3.6	0.00e+00	0	39	104	0	60	114509
2026-01-03 10:43:05.39	332.34	7.88	-54.4	-56.9	3.6	0.00e+00	0	39	104	0	60	118170
2026-01-03 10:43:06.40	332.44	7.79	-54.4	-56.8	3.6	0.00e+00	0	39	104	0	60	117129
2026-01-03 10:43:07.41	332.53	7.71	-54.0	-56.5	3.6	0.00e+00	0	39	104	0	60	113250
2026-01-03 10:43:08.42	332.63	7.62	-54.0	-56.4	3.6	0.00e+00	0	39	104	0	60	112134
2026-01-03 10:43:09.43	332.72	7.54	-53.8	-56.3	3.6	0.00e+00	0	39	104	0	60	110442
2026-01-03 10:43:10.44	332.82	7.46	-53.8	-56.2	3.6	0.00e+00	0	39	104	0	60	109640
2026-01-03 10:43:11.45	332.91	7.37	-54.0	-56.5	3.6	0.00e+00	0	40	104	0	60	112824
2026-01-03 10:43:12.46	333.01	7.29	-53.7	-56.2	3.6	0.00e+00	0	40	104	0	60	108890
2026-01-03 10:43:13.47	333.10	7.21	-54.4	-56.8	3.6	0.00e+00	0	40	104	0	60	117636
2026-01-03 10:43:14.48	333.19	7.13	-54.2	-56.7	3.6	0.00e+00	0	40	104	0	60	115426
2026-01-03 10:43:15.49	333.28	7.05	-54.5	-56.9	3.6	0.00e+00	0	40	104	0	60	118445
2026-01-03 10:43:16.50	333.37	6.97	-54.6	-57.0	3.6	0.00e+00	0	39	104	0	60	119940
2026-01-03 10:43:17.51	333.46	6.88	-54.0	-56.5	3.6	0.00e+00	0	40	104	0	60	113078
2026-01-03 10:43:18.52	333.55	6.80	-53.9	-56.3	3.6	0.00e+00	0	40	104	0	60	110851
2026-01-03 10:43:19.53	333.64	6.72	-54.0	-56.5	3.6	0.00e+00	0	39	104	0	60	112790
2026-01-03 10:43:20.54	333.73	6.64	-54.5	-57.0	3.6	0.00e+00	0	40	104	0	60	119897
2026-01-03 10:43:21.55	333.82	6.56	-54.1	-56.6	3.6	0.00e+00	0	40	104	0	60	113720
2026-01-03 10:43:22.56	333.91	6.48	-54.0	-56.5	3.6	0.00e+00	0	39	104	0	60	112657
2026-01-03 10:43:23.57	333.99	6.40	-53.8	-56.2	3.6	0.00e+00	0	39	104	0	60	109529
2026-01-03 10:43:24.58	334.08	6.32	-54.6	-57.1	3.6	0.00e+00	0	40	104	0	60	120874
2026-01-03 10:43:25.59	334.16	6.25	-54.7	-57.2	3.6	0.00e+00	0	40	104	0	60	121788
2026-01-03 10:43:26.60	334.25	6.17	-54.5	-56.9	3.6	0.00e+00	0	40	104	0	60	118276
2026-01-03 10:43:27.61	334.33	6.09	-53.9	-56.4	3.6	0.00e+00	0	40	104	0	60	111652
2026-01-03 10:43:28.62	334.42	6.01	-54.0	-56.5	3.6	0.00e+00	0	39	104	0	60	113133
2026-01-03 10:43:29.63	334.50	5.93	-53.9	-56.3	3.6	0.00e+00	0	39	104	0	60	110820
2026-01-03 10:43:30.64	334.59	5.86	-53.8	-56.3	3.5	0.00e+00	0	39	104	0	60	110089
2026-01-03 10:43:31.65	334.67	5.78	-54.3	-56.7	3.6	0.00e+00	0	39	104	0	60	116233
2026-01-03 10:43:32.66	334.75	5.70	-54.0	-56.4	3.6	0.00e+00	0	39	104	0	60	111859
2026-01-03 10:43:33.67	334.83	5.63	-53.8	-56.2	3.6	0.00e+00	0	39	104	0	60	109707
2026-01-03 10:43:34.69	334.91	5.55	-54.6	-57.0	3.6	0.00e+00	0	39	104	0	60	120213
2026-01-03 10:43:35.70	334.99	5.47	-54.3	-56.8	3.6	0.00e+00	0	39	104	0	60	116944
2026-01-03 10:43:36.71	335.07	5.40	-54.3	-56.7	3.6	0.00e+00	0	39	104	0	60	116193
2026-01-03 10:43:37.72	335.15	5.32	-54.2	-56.6	3.6	0.00e+00	0	39	104	0	60	114891
2026-01-03 10:43:38.73	335.23	5.24	-54.8	-57.3	3.6	0.00e+00	0	39	104	0	60	124385
2026-01-03 10:43:39.74	335.31	5.17	-54.0	-56.4	3.6	0.00e+00	0	39	104	0	60	112237
2026-01-03 10:43:40.75	335.39	5.09	-53.9	-56.3	3.6	0.00e+00	0	39	104	0	60	110855
2026-01-03 10:43:41.76	335.47	5.02	-54.1	-56.5	3.6	0.00e+00	0	39	104	0	60	113371
2026-01-03 10:43:42.78	335.54	4.94	-54.3	-56.8	3.6	0.00e+00	0	39	104	0	60	116846
2026-01-03 10:43:43.79	335.62	4.87	-54.0	-56.5	3.6	0.00e+00	0	39	104	0	60	112459
2026-01-03 10:43:44.80	335.70	4.80	-54.2	-56.7	3.6	0.00e+00	0	40	104	0	60	116131
2026-01-03 10:43:45.81	335.77	4.72	-53.6	-56.1	3.6	0.00e+00	0	39	104	0	60	107987
2026-01-03 10:43:46.82	335.85	4.65	-54.3	-56.8	3.6	0.00e+00	0	39	104	0	60	116642
2026-01-03 10:43:47.83	335.92	4.58	-54.3	-56.7	3.6	0.00e+00	0	39	104	0	60	116000
2026-01-03 10:43:48.84	336.00	4.50	-54.1	-56.6	3.6	0.00e+00	0	39	104	0	60	114545
2026-01-03 10:43:49.86	336.07	4.43	-54.1	-56.5	3.6	0.00e+00	0	39	104	0	60	113214
2026-01-03 10:43:50.87	336.15	4.36	-54.5	-56.9	3.6	0.00e+00	0	39	104	0	60	118725
2026-01-03 10:43:51.88	336.22	4.28	-54.6	-57.0	3.6	0.00e+00	0	39	104	0	60	120034
2026-01-03 10:43:52.89	336.29	4.21	-54.2	-56.7	3.6	0.00e+00	0	39	104	0	60	115061
2026-01-03 10:43:53.90	336.37	4.14	-54.1	-56.6	3.6	0.00e+00	0	40	104	0	60	113767
2026-01-03 10:43:54.91	336.44	4.07	-54.1	-56.6	3.6	0.00e+00	0	40	104	0	60	114370
2026-01-03 10:43:55.92	336.51	4.00	-54.7	-57.2	3.6	0.00e+00	0	39	104	0	60	122272
2026-01-03 10:43:56.93	336.58	3.92	-54.4	-56.8	3.6	0.00e+00	0	39	104	0	60	117537
2026-01-03 10:43:57.94	336.65	3.85	-54.2	-56.6	3.6	0.00e+00	0	40	104	0	60	114336
2026-01-03 10:43:58.95	336.72	3.78	-54.1	-56.5	3.6	0.00e+00	0	40	104	0	60	113591
2026-01-03 10:43:59.96	336.79	3.71	-54.2	-56.6	3.6	0.00e+00	0	40	104	0	60	114898
2026-01-03 10:44:00.97	336.86	3.64	-54.1	-56.5	3.6	0.00e+00	0	40	104	0	60	113435
2026-01-03 10:44:01.98	336.93	3.57	-53.6	-56.1	3.6	0.00e+00	0	39	104	0	60	108169
2026-01-03 10:44:02.99	337.00	3.50	-54.0	-56.5	3.6	0.00e+00	0	40	104	0	60	112682
2026-01-03 10:44:04.00	337.07	3.43	-54.0	-56.5	3.6	0.00e+00	0	40	104	0	60	113210
2026-01-03 10:44:05.01	337.14	3.36	-54.3	-56.8	3.6	0.00e+00	0	40	104	0	60	117303
2026-01-03 10:44:06.03	337.20	3.29	-54.2	-56.7	3.6	0.00e+00	0	39	104	0	60	115769
2026-01-03 10:44:07.03	337.27	3.22	-54.5	-57.0	3.6	0.00e+00	0	39	104	0	60	119577
2026-01-03 10:44:08.05	337.34	3.15	-54.5	-56.9	3.6	0.00e+00	0	39	104	0	60	118522
2026-01-03 10:44:09.06	337.41	3.08	-54.3	-56.7	3.6	0.00e+00	0	40	104	0	60	115714
2026-01-03 10:44:10.07	337.47	3.02	-54.5	-56.9	3.6	0.00e+00	0	40	104	0	60	118230
2026-01-03 10:44:11.08	337.54	2.95	-54.1	-56.6	3.5	0.00e+00	0	40	104	0	60	114176
2026-01-03 10:44:12.09	337.60	2.88	-53.8	-56.2	3.6	0.00e+00	0	40	104	0	60	109585
2026-01-03 10:44:13.10	337.67	2.81	-54.3	-56.7	3.6	0.00e+00	0	40	104	0	60	115769
2026-01-03 10:44:14.11	337.73	2.74	-54.2	-56.7	3.5	0.00e+00	0	40	104	0	60	115328
2026-01-03 10:44:15.12	337.80	2.68	-53.8	-56.2	3.6	0.00e+00	0	40	104	0	60	109256
2026-01-03 10:44:16.13	337.86	2.61	-53.5	-55.9	3.6	0.00e+00	0	39	104	0	60	105447
2026-01-03 10:44:17.14	337.93	2.54	-53.8	-56.3	3.6	0.00e+00	0	40	104	0	60	110877
2026-01-03 10:44:18.15	337.99	2.47	-54.4	-56.9	3.6	0.00e+00	0	40	104	0	60	117674
2026-01-03 10:44:19.16	338.05	2.41	-53.9	-56.4	3.6	0.00e+00	0	40	104	0	60	111235
2026-01-03 10:44:20.17	338.11	2.34	-54.2	-56.7	3.6	0.00e+00	0	40	104	0	60	115166
2026-01-03 10:44:21.18	338.18	2.27	-54.2	-56.7	3.6	0.00e+00	0	40	104	0	60	115389
2026-01-03 10:44:22.19	338.24	2.21	-54.8	-57.3	3.6	0.00e+00	0	40	104	0	60	123917
2026-01-03 10:44:23.20	338.30	2.14	-54.4	-56.9	3.6	0.00e+00	0	40	104	0	60	117714
2026-01-03 10:44:24.21	338.36	2.07	-54.7	-57.1	3.6	0.00e+00	0	39	104	0	60	121668
2026-01-03 10:44:25.22	338.42	2.01	-54.2	-56.6	3.6	0.00e+00	0	40	104	0	60	114837
2026-01-03 10:44:26.23	338.48	1.94	-54.3	-56.8	3.6	0.00e+00	0	40	104	0	60	116602
2026-01-03 10:44:27.24	338.55	1.88	-54.7	-57.2	3.6	0.00e+00	0	40	104	0	60	121849
2026-01-03 10:44:28.25	338.61	1.81	-54.3	-56.8	3.6	0.00e+00	0	40	104	0	60	117450
2026-01-03 10:44:29.27	338.67	1.75	-54.5	-57.0	3.6	0.00e+00	0	40	104	0	60	119078
2026-01-03 10:44:30.28	338.73	1.68	-54.2	-56.6	3.5	0.00e+00	0	40	104	0	60	114557
2026-01-03 10:44:31.29	338.78	1.62	-54.0	-56.4	3.6	0.00e+00	0	40	104	0	60	112284
2026-01-03 10:44:32.30	338.84	1.55	-54.1	-56.5	3.6	0.00e+00	0	40	104	0	60	113610
2026-01-03 10:44:33.31	338.90	1.49	-54.2	-56.6	3.6	0.00e+00	0	40	104	0	60	114513
2026-01-03 10:44:34.32	338.96	1.42	-54.0	-56.4	3.6	0.00e+00	0	40	104	0	60	111937
2026-01-03 10:44:35.33	339.02	1.36	-53.8	-56.3	3.6	0.00e+00	0	40	104	0	60	110378
2026-01-03 10:44:36.34	339.08	1.29	-53.9	-56.3	3.6	0.00e+00	0	40	104	0	60	110677
2026-01-03 10:44:37.35	339.13	1.23	-53.7	-56.2	3.6	0.00e+00	0	40	104	0	60	109017
2026-01-03 10:44:38.36	339.19	1.17	-54.0	-56.5	3.6	0.00e+00	0	40	104	0	60	113131
2026-01-03 10:44:39.37	339.25	1.10	-53.8	-56.3	3.6	0.00e+00	0	40	104	0	60	110317
2026-01-03 10:44:40.38	339.31	1.04	-54.0	-56.4	3.6	0.00e+00	0	40	104	0	60	112068
2026-01-03 10:44:41.39	339.36	0.98	-54.2	-56.7	3.6	0.00e+00	0	40	104	0	60	115121
2026-01-03 10:44:42.40	339.42	0.91	-54.6	-57.1	3.6	0.00e+00	0	40	104	0	60	121089
2026-01-03 10:44:43.41	339.47	0.85	-54.0	-56.4	3.6	0.00e+00	0	40	104	0	60	112047
2026-01-03 10:44:44.43	339.53	0.79	-54.1	-56.5	3.6	0.00e+00	0	40	104	0	60	113095
2026-01-03 10:44:45.44	339.59	0.72	-54.2	-56.7	3.6	0.00e+00	0	40	104	0	60	115665
2026-01-03 10:44:46.45	339.64	0.66	-54.8	-57.3	3.6	0.00e+00	0	40	104	0	60	123375
2026-01-03 10:44:47.46	339.70	0.60	-54.3	-56.7	3.6	0.00e+00	0	40	104	0	60	115011
2026-01-03 10:44:48.47	339.75	0.54	-54.3	-56.8	3.6	0.00e+00	0	40	104	0	60	116987
2026-01-03 10:44:49.48	339.80	0.47	-54.3	-56.7	3.6	0.00e+00	0	40	104	0	60	116204
2026-01-03 10:44:50.49	339.86	0.41	-54.0	-56.5	3.6	0.00e+00	0	40	104	0	60	112879
2026-01-03 10:44:51.50	339.91	0.35	-53.9	-56.4	3.6	0.00e+00	0	40	104	0	60	111764
2026-01-03 10:44:52.51	339.97	0.29	-54.5	-57.0	3.6	0.00e+00	0	39	104	0	60	119758
2026-01-03 10:44:53.52	340.02	0.23	-54.4	-56.8	3.6	0.00e+00	0	40	104	0	60	117335
2026-01-03 10:44:54.53	340.07	0.17	-54.0	-56.5	3.5	0.00e+00	0	40	104	0	60	112572
2026-01-03 10:44:55.54	340.12	0.11	-54.2	-56.7	3.6	0.00e+00	0	40	104	0	60	115073
2026-01-03 10:44:56.56	340.18	0.04	-53.9	-56.4	3.6	0.00e+00	0	40	104	0	60	111431

#Closed at: 2026-01-03 10:44:57
#Recorded file [0 MB]: D:/lorett/data/35034_260103_133329.dat