passes_logs/2026/01/03/R4.6S_Anadyr_2ch/R4.6S_Anadyr_2ch__20260103_085905_2025-108B_rec.log

#Pass ID: 20260103_085905_2025-108B
#Satellite: 2025-108B
#Configuration: 3PB_600M
#almurnet v.1.7.20251203
#Start time: 2026-01-03 08:59:07

#Version: 2.2.20231116
#Station: R4.6S_Anadyr_2ch
#Location: 177.4865 lon 64.73178 lat
#TLE: 1 64088U 25108B   25351.01672131  .00008460  00000+0  43413-3 0  9994
#TLE: 2 64088  97.4940  63.8579 0011684 285.1423  74.8517 15.16717580 31720

#Time	Az	El	Level	Level2	SNR	BER	BlckErr	Temp	State	Recorded	gain1	gain2
2026-01-03 08:59:07.68	144.20	0.12	-53.5	-54.9	3.3	0.00e+00	0	34	0	0	60	93492
2026-01-03 08:59:08.69	144.17	0.18	-53.9	-56.4	3.6	0.00e+00	0	35	104	0	60	111248
2026-01-03 08:59:09.70	144.15	0.25	-54.2	-56.7	3.6	0.00e+00	0	36	104	0	60	115693
2026-01-03 08:59:10.71	144.13	0.31	-54.5	-57.0	3.6	0.00e+00	0	36	104	0	60	119448
2026-01-03 08:59:11.72	144.11	0.38	-54.1	-56.5	3.6	0.00e+00	0	36	104	0	60	113230
2026-01-03 08:59:12.73	144.09	0.44	-54.4	-56.8	3.6	0.00e+00	0	36	104	0	60	117583
2026-01-03 08:59:13.74	144.06	0.51	-53.9	-56.3	3.6	0.00e+00	0	36	104	0	60	110919
2026-01-03 08:59:14.76	144.04	0.57	-54.1	-56.5	3.6	0.00e+00	0	36	104	0	60	113480
2026-01-03 08:59:15.76	144.02	0.64	-53.7	-56.1	3.6	0.00e+00	0	36	104	0	60	108265
2026-01-03 08:59:16.78	144.00	0.70	-54.2	-56.6	3.6	0.00e+00	0	36	104	0	60	114720
2026-01-03 08:59:17.79	143.97	0.77	-54.4	-57.0	3.6	0.00e+00	0	36	104	0	60	119099
2026-01-03 08:59:18.80	143.95	0.84	-54.3	-56.8	3.6	0.00e+00	0	36	104	0	60	116542
2026-01-03 08:59:19.81	143.93	0.90	-54.6	-57.0	3.6	0.00e+00	0	36	104	0	60	120284
2026-01-03 08:59:20.82	143.90	0.97	-54.1	-56.5	3.6	0.00e+00	0	36	104	0	60	113448
2026-01-03 08:59:21.83	143.88	1.04	-53.9	-56.3	3.6	0.00e+00	0	36	104	0	60	111053
2026-01-03 08:59:22.84	143.86	1.10	-54.2	-56.6	3.6	0.00e+00	0	36	104	0	60	114811
2026-01-03 08:59:23.85	143.83	1.17	-54.4	-56.8	3.6	0.00e+00	0	36	104	0	60	117537
2026-01-03 08:59:24.86	143.81	1.24	-54.5	-56.9	3.6	0.00e+00	0	36	104	0	60	118709
2026-01-03 08:59:25.87	143.78	1.30	-53.6	-56.1	3.6	0.00e+00	0	36	104	0	60	107475
2026-01-03 08:59:26.88	143.76	1.37	-53.5	-56.0	3.6	0.00e+00	0	36	104	0	60	106670
2026-01-03 08:59:27.89	143.73	1.44	-54.5	-57.0	3.6	0.00e+00	0	36	104	0	60	119054
2026-01-03 08:59:28.91	143.71	1.51	-53.9	-56.4	3.6	0.00e+00	0	36	104	0	60	111271
2026-01-03 08:59:29.91	143.68	1.58	-54.3	-56.7	3.6	0.00e+00	0	36	104	0	60	116096
2026-01-03 08:59:30.92	143.66	1.64	-54.2	-56.5	3.6	0.00e+00	0	36	104	0	60	113422
2026-01-03 08:59:31.94	143.63	1.71	-53.7	-56.1	3.6	0.00e+00	0	37	104	0	60	108092
2026-01-03 08:59:32.94	143.61	1.78	-53.4	-55.8	3.6	0.00e+00	0	36	104	0	60	104791
2026-01-03 08:59:33.96	143.58	1.85	-53.6	-56.1	3.6	0.00e+00	0	36	104	0	60	107680
2026-01-03 08:59:34.97	143.56	1.92	-54.0	-56.5	3.6	0.00e+00	0	36	104	0	60	112518
2026-01-03 08:59:35.98	143.53	1.99	-54.6	-57.0	3.6	0.00e+00	0	36	104	0	60	120100
2026-01-03 08:59:36.99	143.51	2.06	-54.5	-56.9	3.6	0.00e+00	0	37	104	0	60	118720
2026-01-03 08:59:38.00	143.48	2.13	-54.6	-57.1	3.6	0.00e+00	0	37	104	0	60	120889
2026-01-03 08:59:39.01	143.45	2.20	-54.5	-57.0	3.6	0.00e+00	0	37	104	0	60	119415
2026-01-03 08:59:40.02	143.43	2.27	-54.5	-56.9	3.6	0.00e+00	0	37	104	0	60	118374
2026-01-03 08:59:41.03	143.40	2.34	-54.2	-56.7	3.6	0.00e+00	0	37	104	0	60	115042
2026-01-03 08:59:42.04	143.37	2.41	-54.3	-56.8	3.6	0.00e+00	0	37	104	0	60	117270
2026-01-03 08:59:43.05	143.35	2.48	-54.6	-57.0	3.6	0.00e+00	0	37	104	0	60	119907
2026-01-03 08:59:44.06	143.32	2.55	-54.3	-56.7	3.6	0.00e+00	0	37	104	0	60	115885
2026-01-03 08:59:45.07	143.29	2.63	-53.8	-56.2	3.6	0.00e+00	0	37	104	0	60	109597
2026-01-03 08:59:46.09	143.26	2.70	-54.4	-56.9	3.6	0.00e+00	0	37	104	0	60	117914
2026-01-03 08:59:47.10	143.24	2.77	-54.8	-57.2	3.6	0.00e+00	0	37	104	0	60	122774
2026-01-03 08:59:48.11	143.21	2.84	-54.3	-56.7	3.6	0.00e+00	0	37	104	0	60	116147
2026-01-03 08:59:49.12	143.18	2.92	-54.0	-56.5	3.6	0.00e+00	0	37	104	0	60	112906
2026-01-03 08:59:50.13	143.15	2.99	-53.9	-56.3	3.6	0.00e+00	0	37	104	0	60	110495
2026-01-03 08:59:51.14	143.12	3.06	-54.4	-57.0	3.6	0.00e+00	0	37	104	0	60	119050
2026-01-03 08:59:52.15	143.09	3.13	-54.4	-56.9	3.6	0.00e+00	0	37	104	0	60	118186
2026-01-03 08:59:53.16	143.06	3.21	-54.0	-56.4	3.6	0.00e+00	0	37	104	0	60	111615
2026-01-03 08:59:54.17	143.04	3.28	-53.9	-56.4	3.6	0.00e+00	0	37	104	0	60	111316
2026-01-03 08:59:55.19	143.01	3.36	-53.9	-56.3	3.6	0.00e+00	0	37	104	0	60	110893
2026-01-03 08:59:56.20	142.98	3.43	-54.7	-57.1	3.6	0.00e+00	0	37	104	0	60	121267
2026-01-03 08:59:57.21	142.95	3.50	-53.4	-55.9	3.6	0.00e+00	0	37	104	0	60	105520
2026-01-03 08:59:58.22	142.92	3.58	-53.6	-56.1	3.5	0.00e+00	0	37	104	0	60	107725
2026-01-03 08:59:59.23	142.89	3.65	-53.4	-55.9	3.6	0.00e+00	0	37	104	0	60	105200
2026-01-03 09:00:00.24	142.86	3.73	-53.9	-56.4	3.6	0.00e+00	0	37	104	0	60	111865
2026-01-03 09:00:01.25	142.82	3.80	-53.8	-56.3	3.6	0.00e+00	0	37	104	0	60	110303
2026-01-03 09:00:02.26	142.79	3.88	-54.2	-56.7	3.6	0.00e+00	0	37	104	0	60	115833
2026-01-03 09:00:03.27	142.76	3.96	-53.2	-55.7	3.6	0.00e+00	0	37	104	0	60	103116
2026-01-03 09:00:04.28	142.73	4.03	-53.5	-56.0	3.6	0.00e+00	0	37	104	0	60	106490
2026-01-03 09:00:05.29	142.70	4.11	-54.5	-57.0	3.6	0.00e+00	0	37	104	0	60	119776
2026-01-03 09:00:06.30	142.67	4.19	-54.2	-56.6	3.6	0.00e+00	0	37	104	0	60	114628
2026-01-03 09:00:07.31	142.64	4.26	-53.8	-56.2	3.5	0.00e+00	0	37	104	0	60	109276
2026-01-03 09:00:08.32	142.60	4.34	-54.1	-56.6	3.6	0.00e+00	0	37	104	0	60	114135
2026-01-03 09:00:09.33	142.57	4.42	-54.0	-56.5	3.6	0.00e+00	0	37	104	0	60	113400
2026-01-03 09:00:10.34	142.54	4.50	-53.9	-56.4	3.6	0.00e+00	0	37	104	0	60	111166
2026-01-03 09:00:11.35	142.51	4.57	-53.6	-56.0	3.6	0.00e+00	0	37	104	0	60	107192
2026-01-03 09:00:12.37	142.47	4.65	-53.9	-56.3	3.6	0.00e+00	0	37	104	0	60	110330
2026-01-03 09:00:13.38	142.44	4.73	-54.2	-56.6	3.6	0.00e+00	0	37	104	0	60	114783
2026-01-03 09:00:14.38	142.41	4.81	-54.0	-56.5	3.6	0.00e+00	0	37	104	0	60	112905
2026-01-03 09:00:15.40	142.37	4.89	-53.9	-56.4	3.6	0.00e+00	0	37	104	0	60	111201
2026-01-03 09:00:16.41	142.34	4.97	-54.2	-56.7	3.6	0.00e+00	0	37	104	0	60	115248
2026-01-03 09:00:17.42	142.30	5.05	-54.0	-56.5	3.6	0.00e+00	0	37	104	0	60	112742
2026-01-03 09:00:18.43	142.27	5.13	-53.6	-56.0	3.6	0.00e+00	0	37	104	0	60	107147
2026-01-03 09:00:19.44	142.23	5.21	-53.4	-55.9	3.6	0.00e+00	0	37	104	0	60	104901
2026-01-03 09:00:20.45	142.20	5.29	-53.7	-56.2	3.6	0.00e+00	0	37	104	0	60	108665
2026-01-03 09:00:21.46	142.16	5.37	-54.6	-57.0	3.6	0.00e+00	0	37	104	0	60	120205
2026-01-03 09:00:22.47	142.13	5.46	-54.5	-56.9	3.6	0.00e+00	0	37	104	0	60	118037
2026-01-03 09:00:23.48	142.09	5.54	-53.5	-56.0	3.6	0.00e+00	0	37	104	0	60	106383
2026-01-03 09:00:24.49	142.05	5.62	-54.3	-56.8	3.6	0.00e+00	0	37	104	0	60	117405
2026-01-03 09:00:25.50	142.02	5.70	-54.1	-56.5	3.6	0.00e+00	0	37	104	0	60	113644
2026-01-03 09:00:26.51	141.98	5.78	-54.2	-56.6	3.6	0.00e+00	0	37	104	0	60	114667
2026-01-03 09:00:27.52	141.94	5.87	-53.1	-55.6	3.5	0.00e+00	0	37	104	0	60	101548
2026-01-03 09:00:28.53	141.91	5.95	-54.2	-56.7	3.6	0.00e+00	0	37	104	0	60	115586
2026-01-03 09:00:29.54	141.87	6.04	-53.4	-55.9	3.6	0.00e+00	0	37	104	0	60	105336
2026-01-03 09:00:30.55	141.83	6.12	-54.3	-56.8	3.6	0.00e+00	0	37	104	0	60	116919
2026-01-03 09:00:31.56	141.79	6.20	-53.6	-56.0	3.6	0.00e+00	0	37	104	0	60	107129
2026-01-03 09:00:32.57	141.75	6.29	-54.6	-57.1	3.6	0.00e+00	0	37	104	0	60	120582
2026-01-03 09:00:33.58	141.72	6.37	-54.1	-56.5	3.6	0.00e+00	0	37	104	0	60	113411
2026-01-03 09:00:34.59	141.68	6.46	-54.0	-56.4	3.6	0.00e+00	0	38	104	0	60	112330
2026-01-03 09:00:35.60	141.64	6.55	-54.4	-56.9	3.6	0.00e+00	0	38	104	0	60	117922
2026-01-03 09:00:36.61	141.60	6.63	-54.7	-57.2	3.6	0.00e+00	0	38	104	0	60	123018
2026-01-03 09:00:37.62	141.56	6.72	-53.7	-56.2	3.6	0.00e+00	0	37	104	0	60	108611
2026-01-03 09:00:38.64	141.52	6.81	-53.7	-56.2	3.6	0.00e+00	0	37	104	0	60	109100
2026-01-03 09:00:39.64	141.48	6.89	-53.6	-56.1	3.6	0.00e+00	0	37	104	0	60	107990
2026-01-03 09:00:40.66	141.43	6.98	-54.6	-57.1	3.6	0.00e+00	0	38	104	0	60	120423
2026-01-03 09:00:41.67	141.39	7.07	-54.4	-56.9	3.6	0.00e+00	0	38	104	0	60	118395
2026-01-03 09:00:42.68	141.35	7.16	-53.7	-56.2	3.6	0.00e+00	0	38	104	0	60	108942
2026-01-03 09:00:43.69	141.31	7.25	-54.4	-56.9	3.6	0.00e+00	0	37	104	0	60	117804
2026-01-03 09:00:44.70	141.27	7.34	-54.1	-56.6	3.6	0.00e+00	0	38	104	0	60	114434
2026-01-03 09:00:45.71	141.22	7.43	-54.2	-56.6	3.6	0.00e+00	0	38	104	0	60	114865
2026-01-03 09:00:46.72	141.18	7.52	-54.0	-56.5	3.6	0.00e+00	0	38	104	0	60	113277
2026-01-03 09:00:47.73	141.14	7.61	-54.4	-56.9	3.6	0.00e+00	0	38	104	0	60	118120
2026-01-03 09:00:48.75	141.09	7.70	-54.0	-56.5	3.6	0.00e+00	0	38	104	0	60	112464
2026-01-03 09:00:49.76	141.05	7.79	-54.2	-56.6	3.6	0.00e+00	0	38	104	0	60	113854
2026-01-03 09:00:50.77	141.00	7.88	-53.9	-56.4	3.6	0.00e+00	0	38	104	0	60	111379
2026-01-03 09:00:51.78	140.96	7.98	-54.0	-56.4	3.6	0.00e+00	0	38	104	0	60	112111
2026-01-03 09:00:52.79	140.91	8.07	-53.9	-56.4	3.6	0.00e+00	0	38	104	0	60	111839
2026-01-03 09:00:53.80	140.87	8.16	-53.6	-56.0	3.6	0.00e+00	0	38	104	0	60	106700
2026-01-03 09:00:54.81	140.82	8.25	-54.1	-56.6	3.6	0.00e+00	0	38	104	0	60	114220
2026-01-03 09:00:55.82	140.78	8.35	-53.9	-56.4	3.6	0.00e+00	0	38	104	0	60	111441
2026-01-03 09:00:56.83	140.73	8.44	-53.8	-56.2	3.6	0.00e+00	0	38	104	0	60	109646
2026-01-03 09:00:57.84	140.68	8.54	-53.4	-55.9	3.6	0.00e+00	0	38	104	0	60	105399
2026-01-03 09:00:58.86	140.63	8.63	-53.1	-55.5	3.6	0.00e+00	0	38	104	0	60	100967
2026-01-03 09:00:59.87	140.59	8.73	-53.6	-56.1	3.6	0.00e+00	0	38	104	0	60	107683
2026-01-03 09:01:00.88	140.54	8.83	-54.2	-56.7	3.6	0.00e+00	0	38	104	0	60	115725
2026-01-03 09:01:01.89	140.49	8.92	-54.4	-56.9	3.6	0.00e+00	0	38	104	0	60	117941
2026-01-03 09:01:02.90	140.44	9.02	-54.9	-57.3	3.6	0.00e+00	0	38	104	0	60	123751
2026-01-03 09:01:03.91	140.39	9.12	-53.9	-56.3	3.6	0.00e+00	0	38	104	0	60	109845
2026-01-03 09:01:04.92	140.34	9.22	-53.8	-56.3	3.6	0.00e+00	0	38	104	0	60	110114
2026-01-03 09:01:05.93	140.29	9.31	-54.4	-56.8	3.6	0.00e+00	0	38	104	0	60	117642
2026-01-03 09:01:06.94	140.24	9.41	-54.2	-56.7	3.6	0.00e+00	0	38	104	0	60	115889
2026-01-03 09:01:07.95	140.19	9.51	-53.7	-56.1	3.6	0.00e+00	0	38	104	0	60	108036
2026-01-03 09:01:08.96	140.13	9.61	-53.8	-56.3	3.6	0.00e+00	0	38	104	0	60	110770
2026-01-03 09:01:09.98	140.08	9.71	-53.4	-55.9	3.6	0.00e+00	0	38	104	0	60	105897
2026-01-03 09:01:10.99	140.03	9.82	-53.9	-56.4	3.6	0.00e+00	0	38	104	0	60	112129
2026-01-03 09:01:11.99	139.98	9.92	-53.7	-56.2	3.6	0.00e+00	0	38	104	0	60	108825
2026-01-03 09:01:13.00	139.92	10.02	-53.6	-56.0	3.6	0.00e+00	0	38	104	0	60	107260
2026-01-03 09:01:14.01	139.87	10.12	-53.7	-56.2	3.6	0.00e+00	0	38	104	0	60	109041
2026-01-03 09:01:15.02	139.81	10.22	-54.1	-56.6	3.6	0.00e+00	0	38	104	0	60	113696
2026-01-03 09:01:16.03	139.76	10.33	-53.8	-56.3	3.6	0.00e+00	0	38	104	0	60	109946
2026-01-03 09:01:17.04	139.70	10.43	-53.6	-56.0	3.6	0.00e+00	0	38	104	0	60	106341
2026-01-03 09:01:18.05	139.65	10.54	-53.5	-55.9	3.6	0.00e+00	0	38	104	0	60	105974
2026-01-03 09:01:19.06	139.59	10.64	-53.5	-56.0	3.6	0.00e+00	0	38	104	0	60	106349
2026-01-03 09:01:20.08	139.53	10.75	-53.9	-56.3	3.6	0.00e+00	0	38	104	0	60	110856
2026-01-03 09:01:21.09	139.47	10.86	-54.3	-56.7	3.6	0.00e+00	0	38	104	0	60	116158
2026-01-03 09:01:22.10	139.41	10.96	-54.2	-56.6	3.6	0.00e+00	0	38	104	0	60	114736
2026-01-03 09:01:23.11	139.36	11.07	-54.0	-56.4	3.6	0.00e+00	0	38	104	0	60	111850
2026-01-03 09:01:24.12	139.30	11.18	-54.5	-57.0	3.6	0.00e+00	0	38	104	0	60	120207
2026-01-03 09:01:25.13	139.24	11.29	-54.1	-56.6	3.6	0.00e+00	0	38	104	0	60	114162
2026-01-03 09:01:26.14	139.18	11.40	-54.0	-56.4	3.6	0.00e+00	0	38	104	0	60	111304
2026-01-03 09:01:27.15	139.11	11.51	-53.9	-56.3	3.6	0.00e+00	0	38	104	0	60	110640
2026-01-03 09:01:28.16	139.05	11.62	-54.6	-57.0	3.6	0.00e+00	0	38	104	0	60	120255
2026-01-03 09:01:29.17	138.99	11.73	-54.9	-57.3	3.6	0.00e+00	0	38	104	0	60	124440
2026-01-03 09:01:30.18	138.93	11.84	-54.7	-57.1	3.6	0.00e+00	0	38	104	0	60	121506
2026-01-03 09:01:31.19	138.86	11.95	-54.3	-56.8	3.6	0.00e+00	0	38	104	0	60	117470
2026-01-03 09:01:32.20	138.80	12.07	-53.9	-56.3	3.6	0.00e+00	0	38	104	0	60	110847
2026-01-03 09:01:33.21	138.73	12.18	-53.4	-55.8	3.6	0.00e+00	0	38	104	0	60	104302
2026-01-03 09:01:34.22	138.67	12.30	-53.4	-55.9	3.6	0.00e+00	0	38	104	0	60	105348
2026-01-03 09:01:35.23	138.60	12.41	-53.4	-55.9	3.6	0.00e+00	0	38	104	0	60	104870
2026-01-03 09:01:36.25	138.54	12.53	-53.5	-56.0	3.6	0.00e+00	0	38	104	0	60	106474
2026-01-03 09:01:37.26	138.47	12.65	-53.6	-56.1	3.6	0.00e+00	0	38	104	0	60	107830
2026-01-03 09:01:38.27	138.40	12.76	-53.6	-56.1	3.6	0.00e+00	0	38	104	0	60	107624
2026-01-03 09:01:39.28	138.33	12.88	-53.6	-56.1	3.6	0.00e+00	0	38	104	0	60	107744
2026-01-03 09:01:40.29	138.26	13.00	-53.9	-56.4	3.6	0.00e+00	0	38	104	0	60	111697
2026-01-03 09:01:41.30	138.19	13.12	-53.8	-56.3	3.6	0.00e+00	0	38	104	0	60	110274
2026-01-03 09:01:42.31	138.12	13.24	-54.2	-56.7	3.6	0.00e+00	0	38	104	0	60	115434
2026-01-03 09:01:43.32	138.05	13.36	-54.3	-56.7	3.6	0.00e+00	0	38	104	0	60	116236
2026-01-03 09:01:44.33	137.98	13.48	-54.0	-56.4	3.6	0.00e+00	0	38	104	0	60	112192
2026-01-03 09:01:45.34	137.91	13.60	-54.5	-56.9	3.6	0.00e+00	0	38	104	0	60	118485
2026-01-03 09:01:46.36	137.83	13.73	-54.5	-56.9	3.6	0.00e+00	0	38	104	0	60	118633
2026-01-03 09:01:47.37	137.76	13.85	-54.5	-57.0	3.6	0.00e+00	0	38	104	0	60	119507
2026-01-03 09:01:48.38	137.68	13.98	-53.8	-56.3	3.6	0.00e+00	0	38	104	0	60	110300
2026-01-03 09:01:49.39	137.61	14.10	-54.4	-56.8	3.6	0.00e+00	0	38	104	0	60	117525
2026-01-03 09:01:50.40	137.53	14.23	-54.0	-56.4	3.6	0.00e+00	0	38	104	0	60	111883
2026-01-03 09:01:51.41	137.45	14.35	-53.9	-56.4	3.6	0.00e+00	0	38	104	0	60	111875
2026-01-03 09:01:52.42	137.37	14.48	-54.2	-56.7	3.6	0.00e+00	0	38	104	0	60	115788
2026-01-03 09:01:53.43	137.29	14.61	-53.4	-55.8	3.6	0.00e+00	0	38	104	0	60	104435
2026-01-03 09:01:54.44	137.21	14.74	-53.7	-56.2	3.6	0.00e+00	0	38	104	0	60	109106
2026-01-03 09:01:55.46	137.13	14.87	-54.2	-56.6	3.6	0.00e+00	0	38	104	0	60	114537
2026-01-03 09:01:56.46	137.05	15.00	-53.3	-55.8	3.6	0.00e+00	0	38	104	0	60	104074
2026-01-03 09:01:57.47	136.97	15.13	-53.0	-55.5	3.6	0.00e+00	0	38	104	0	60	100143
2026-01-03 09:01:58.48	136.88	15.26	-53.6	-56.0	3.6	0.00e+00	0	38	104	0	60	106495
2026-01-03 09:01:59.49	136.80	15.40	-53.7	-56.1	3.6	0.00e+00	0	38	104	0	60	108520
2026-01-03 09:02:00.50	136.71	15.53	-53.8	-56.3	3.6	0.00e+00	0	38	104	0	60	110428
2026-01-03 09:02:01.51	136.63	15.67	-53.2	-55.7	3.6	0.00e+00	0	38	104	0	60	103139
2026-01-03 09:02:02.52	136.54	15.80	-53.0	-55.5	3.6	0.00e+00	0	38	104	0	60	100263
2026-01-03 09:02:03.53	136.45	15.94	-54.0	-56.4	3.6	0.00e+00	0	38	104	0	60	112061
2026-01-03 09:02:04.54	136.36	16.08	-53.7	-56.2	3.6	0.00e+00	0	38	104	0	60	109788
2026-01-03 09:02:05.55	136.27	16.22	-53.1	-55.5	3.6	0.00e+00	0	38	104	0	60	101073
2026-01-03 09:02:06.56	136.18	16.36	-54.0	-56.5	3.6	0.00e+00	0	38	104	0	60	113351
2026-01-03 09:02:07.58	136.09	16.50	-53.8	-56.2	3.6	0.00e+00	0	38	104	0	60	109738
2026-01-03 09:02:08.59	136.00	16.64	-52.9	-55.3	3.6	0.00e+00	0	38	104	0	60	98981
2026-01-03 09:02:09.60	135.90	16.79	-52.9	-55.3	3.6	0.00e+00	0	38	104	0	60	98605
2026-01-03 09:02:10.61	135.81	16.93	-53.7	-56.2	3.6	0.00e+00	0	38	104	0	60	108635
2026-01-03 09:02:11.62	135.71	17.07	-53.8	-56.2	3.6	0.00e+00	0	38	104	0	60	109094
2026-01-03 09:02:12.63	135.61	17.22	-54.2	-56.7	3.6	0.00e+00	0	38	104	0	60	115062
2026-01-03 09:02:13.64	135.51	17.37	-54.1	-56.6	3.6	0.00e+00	0	38	104	0	60	114303
2026-01-03 09:02:14.65	135.41	17.51	-54.3	-56.7	3.6	0.00e+00	0	38	104	0	60	115517
2026-01-03 09:02:15.66	135.31	17.66	-54.4	-56.9	3.6	0.00e+00	0	38	104	0	60	118307
2026-01-03 09:02:16.67	135.21	17.81	-54.6	-57.0	3.6	0.00e+00	0	38	104	0	60	119971
2026-01-03 09:02:17.68	135.11	17.96	-54.0	-56.5	3.6	0.00e+00	0	38	104	0	60	113053
2026-01-03 09:02:18.69	135.00	18.12	-54.0	-56.4	3.6	0.00e+00	0	38	104	0	60	111524
2026-01-03 09:02:19.70	134.90	18.27	-53.4	-55.8	3.6	0.00e+00	0	38	104	0	60	104232
2026-01-03 09:02:20.71	134.79	18.42	-54.0	-56.4	3.6	0.00e+00	0	38	104	0	60	111635
2026-01-03 09:02:21.72	134.68	18.58	-54.2	-56.6	3.6	0.00e+00	0	38	104	0	60	113724
2026-01-03 09:02:22.73	134.57	18.74	-53.8	-56.3	3.6	0.00e+00	0	38	104	0	60	109929
2026-01-03 09:02:23.74	134.46	18.89	-54.0	-56.5	3.6	0.00e+00	0	38	104	0	60	112713
2026-01-03 09:02:24.75	134.35	19.05	-53.7	-56.1	3.6	0.00e+00	0	38	104	0	60	108345
2026-01-03 09:02:25.76	134.23	19.21	-54.0	-56.5	3.6	0.00e+00	0	38	104	0	60	112518
2026-01-03 09:02:26.77	134.12	19.37	-53.9	-56.3	3.6	0.00e+00	0	38	104	0	60	111050
2026-01-03 09:02:27.78	134.00	19.54	-54.1	-56.6	3.6	0.00e+00	0	38	104	0	60	113753
2026-01-03 09:02:28.79	133.88	19.70	-54.1	-56.5	3.6	0.00e+00	0	38	104	0	60	113194
2026-01-03 09:02:29.80	133.76	19.86	-54.5	-56.9	3.6	0.00e+00	0	38	104	0	60	118414
2026-01-03 09:02:30.81	133.64	20.03	-54.7	-57.2	3.6	0.00e+00	0	38	104	0	60	121907
2026-01-03 09:02:31.83	133.52	20.20	-54.4	-56.7	3.6	0.00e+00	0	38	104	0	60	116161
2026-01-03 09:02:32.83	133.40	20.37	-54.3	-56.7	3.6	0.00e+00	0	38	104	0	60	115838
2026-01-03 09:02:33.84	133.27	20.54	-54.5	-56.9	3.6	0.00e+00	0	38	104	0	60	118829
2026-01-03 09:02:34.86	133.14	20.71	-54.2	-56.7	3.6	0.00e+00	0	39	104	0	60	115866
2026-01-03 09:02:35.87	133.01	20.88	-54.4	-56.8	3.6	0.00e+00	0	38	104	0	60	117344
2026-01-03 09:02:36.88	132.88	21.05	-54.4	-56.8	3.6	0.00e+00	0	38	104	0	60	117165
2026-01-03 09:02:37.89	132.75	21.23	-54.0	-56.5	3.6	0.00e+00	0	38	104	0	60	112745
2026-01-03 09:02:38.90	132.62	21.41	-53.8	-56.3	3.6	0.00e+00	0	39	104	0	60	110335
2026-01-03 09:02:39.91	132.48	21.58	-53.7	-56.2	3.6	0.00e+00	0	38	104	0	60	108556
2026-01-03 09:02:40.92	132.34	21.76	-53.7	-56.2	3.6	0.00e+00	0	38	104	0	60	109232
2026-01-03 09:02:41.93	132.20	21.94	-54.3	-56.8	3.6	0.00e+00	0	38	104	0	60	116929
2026-01-03 09:02:42.95	132.06	22.13	-54.5	-57.0	3.6	0.00e+00	0	38	104	0	60	119158
2026-01-03 09:02:43.96	131.92	22.31	-53.8	-56.3	3.6	0.00e+00	0	38	104	0	60	110324
2026-01-03 09:02:44.97	131.77	22.50	-54.5	-57.0	3.6	0.00e+00	0	39	104	0	60	119069
2026-01-03 09:02:45.98	131.62	22.68	-53.6	-56.1	3.6	0.00e+00	0	39	104	0	60	107896
2026-01-03 09:02:46.99	131.47	22.87	-54.4	-56.9	3.6	0.00e+00	0	39	104	0	60	118227
2026-01-03 09:02:48.00	131.32	23.06	-53.6	-56.1	3.6	0.00e+00	0	38	104	0	60	107684
2026-01-03 09:02:49.01	131.17	23.25	-53.9	-56.4	3.6	0.00e+00	0	38	104	0	60	111676
2026-01-03 09:02:50.02	131.01	23.44	-54.5	-57.0	3.6	0.00e+00	0	38	104	0	60	119017
2026-01-03 09:02:51.03	130.86	23.63	-53.5	-55.9	3.6	0.00e+00	0	38	104	0	60	105930
2026-01-03 09:02:52.04	130.70	23.83	-53.1	-55.6	3.5	0.00e+00	0	38	104	0	60	101770
2026-01-03 09:02:53.05	130.53	24.03	-55.0	-57.5	3.6	0.00e+00	0	39	104	0	60	126368
2026-01-03 09:02:54.06	130.37	24.23	-55.1	-57.6	3.6	0.00e+00	0	39	104	0	60	128625
2026-01-03 09:02:55.07	130.20	24.43	-54.5	-57.0	3.6	0.00e+00	0	39	104	0	60	119006
2026-01-03 09:02:56.08	130.03	24.63	-54.5	-57.0	3.6	0.00e+00	0	39	104	0	60	119112
2026-01-03 09:02:57.10	129.86	24.83	-54.0	-56.4	3.6	0.00e+00	0	39	104	0	60	111876
2026-01-03 09:02:58.11	129.69	25.04	-54.0	-56.4	3.6	0.00e+00	0	39	104	0	60	112256
2026-01-03 09:02:59.12	129.51	25.24	-54.7	-57.2	3.6	0.00e+00	0	39	104	0	60	121990
2026-01-03 09:03:00.13	129.33	25.45	-53.4	-55.8	3.6	0.00e+00	0	38	104	0	60	104710
2026-01-03 09:03:01.14	129.15	25.66	-54.5	-57.0	3.6	0.00e+00	0	38	104	0	60	119721
2026-01-03 09:03:02.15	128.96	25.87	-54.5	-56.9	3.6	0.00e+00	0	38	104	0	60	118404
2026-01-03 09:03:03.16	128.77	26.09	-54.4	-56.9	3.6	0.00e+00	0	38	104	0	60	118742
2026-01-03 09:03:04.17	128.58	26.30	-54.6	-57.0	3.6	0.00e+00	0	39	104	0	60	119401
2026-01-03 09:03:05.18	128.39	26.52	-54.0	-56.5	3.6	0.00e+00	0	38	104	0	60	112728
2026-01-03 09:03:06.19	128.19	26.74	-54.6	-57.1	3.6	0.00e+00	0	39	104	0	60	120416
2026-01-03 09:03:07.21	127.99	26.96	-54.7	-57.2	3.6	0.00e+00	0	38	104	0	60	121786
2026-01-03 09:03:08.22	127.79	27.18	-54.2	-56.6	3.6	0.00e+00	0	38	104	0	60	114485
2026-01-03 09:03:09.22	127.59	27.40	-54.4	-56.8	3.6	0.00e+00	0	39	104	0	60	117247
2026-01-03 09:03:10.23	127.38	27.63	-54.0	-56.4	3.6	0.00e+00	0	39	104	0	60	112274
2026-01-03 09:03:11.25	127.16	27.86	-54.6	-57.1	3.6	0.00e+00	0	39	104	0	60	121213
2026-01-03 09:03:12.26	126.95	28.09	-54.2	-56.6	3.6	0.00e+00	0	38	104	0	60	114371
2026-01-03 09:03:13.27	126.73	28.32	-54.4	-56.9	3.6	0.00e+00	0	39	104	0	60	117897
2026-01-03 09:03:14.28	126.51	28.55	-55.0	-57.5	3.6	0.00e+00	0	39	104	0	60	126245
2026-01-03 09:03:15.29	126.28	28.79	-54.6	-57.1	3.6	0.00e+00	0	39	104	0	60	120820
2026-01-03 09:03:16.30	126.05	29.02	-54.4	-56.9	3.6	0.00e+00	0	39	104	0	60	117959
2026-01-03 09:03:17.31	125.82	29.26	-54.5	-56.9	3.6	0.00e+00	0	39	104	0	60	118983
2026-01-03 09:03:18.32	125.58	29.50	-53.9	-56.3	3.6	0.00e+00	0	39	104	0	60	110990
2026-01-03 09:03:19.33	125.34	29.74	-53.6	-56.1	3.6	0.00e+00	0	39	104	0	60	107507
2026-01-03 09:03:20.34	125.09	29.99	-53.5	-55.9	3.6	0.00e+00	0	39	104	0	60	105493
2026-01-03 09:03:21.35	124.84	30.23	-54.0	-56.4	3.6	0.00e+00	0	39	104	0	60	112050
2026-01-03 09:03:22.36	124.59	30.48	-53.9	-56.4	3.6	0.00e+00	0	39	104	0	60	111632
2026-01-03 09:03:23.37	124.33	30.73	-54.6	-57.0	3.6	0.00e+00	0	39	104	0	60	120328
2026-01-03 09:03:24.38	124.07	30.98	-53.8	-56.3	3.6	0.00e+00	0	39	104	0	60	110208
2026-01-03 09:03:25.39	123.80	31.23	-54.3	-56.7	3.6	0.00e+00	0	39	104	0	60	116236
2026-01-03 09:03:26.40	123.53	31.49	-53.2	-55.6	3.6	0.00e+00	0	39	104	0	60	102085
2026-01-03 09:03:27.41	123.26	31.75	-54.1	-56.6	3.6	0.00e+00	0	39	104	0	60	113923
2026-01-03 09:03:28.42	122.98	32.01	-54.0	-56.5	3.6	0.00e+00	0	39	104	0	60	112462
2026-01-03 09:03:29.43	122.69	32.27	-53.9	-56.4	3.6	0.00e+00	0	39	104	0	60	111166
2026-01-03 09:03:30.44	122.40	32.53	-53.6	-56.1	3.6	0.00e+00	0	39	104	0	60	108172
2026-01-03 09:03:31.46	122.10	32.80	-53.0	-55.5	3.6	0.00e+00	0	39	104	0	60	100495
2026-01-03 09:03:32.47	121.80	33.06	-53.3	-55.7	3.6	0.00e+00	0	39	104	0	60	103411
2026-01-03 09:03:33.48	121.50	33.33	-53.7	-56.2	3.6	0.00e+00	0	39	104	0	60	108729
2026-01-03 09:03:34.49	121.18	33.60	-54.2	-56.6	3.6	0.00e+00	0	39	104	0	60	113811
2026-01-03 09:03:35.50	120.87	33.88	-54.4	-56.9	3.6	0.00e+00	0	39	104	0	60	118106
2026-01-03 09:03:36.51	120.54	34.15	-54.7	-57.1	3.6	0.00e+00	0	39	104	0	60	121471
2026-01-03 09:03:37.52	120.22	34.43	-54.3	-56.8	3.6	0.00e+00	0	39	104	0	60	116933
2026-01-03 09:03:38.54	119.88	34.71	-53.7	-56.1	3.6	0.00e+00	0	39	104	0	60	108367
2026-01-03 09:03:39.55	119.54	34.99	-53.3	-55.8	3.6	0.00e+00	0	39	104	0	60	104566
2026-01-03 09:03:40.56	119.19	35.27	-53.7	-56.2	3.6	0.00e+00	0	39	104	0	60	108783
2026-01-03 09:03:41.57	118.83	35.55	-53.5	-55.9	3.6	0.00e+00	0	39	104	0	60	105746
2026-01-03 09:03:42.58	118.47	35.83	-54.5	-56.9	3.6	0.00e+00	0	39	104	0	60	118083
2026-01-03 09:03:43.59	118.11	36.12	-54.5	-57.0	3.6	0.00e+00	0	39	104	0	60	119443
2026-01-03 09:03:44.60	117.73	36.41	-54.3	-56.8	3.6	0.00e+00	0	39	104	0	60	116456
2026-01-03 09:03:45.61	117.35	36.70	-54.5	-57.0	3.6	0.00e+00	0	39	104	0	60	119439
2026-01-03 09:03:46.62	116.96	36.99	-53.5	-56.0	3.6	0.00e+00	0	39	104	0	60	106169
2026-01-03 09:03:47.63	116.57	37.28	-53.4	-55.9	3.6	0.00e+00	0	39	104	0	60	105166
2026-01-03 09:03:48.64	116.16	37.57	-53.7	-56.2	3.6	0.00e+00	0	39	104	0	60	108657
2026-01-03 09:03:49.66	115.75	37.87	-53.3	-55.8	3.6	0.00e+00	0	39	104	0	60	104462
2026-01-03 09:03:50.67	115.33	38.17	-53.3	-55.7	3.5	0.00e+00	0	39	104	0	60	103605
2026-01-03 09:03:51.68	114.90	38.47	-53.0	-55.5	3.6	0.00e+00	0	39	104	0	60	100496
2026-01-03 09:03:52.69	114.47	38.76	-52.9	-55.3	3.6	0.00e+00	0	39	104	0	60	98835
2026-01-03 09:03:53.70	114.02	39.06	-53.8	-56.3	3.6	0.00e+00	0	39	104	0	60	110690
2026-01-03 09:03:54.71	113.57	39.37	-54.4	-56.8	3.6	0.00e+00	0	39	104	0	60	117432
2026-01-03 09:03:55.72	113.11	39.67	-54.0	-56.4	3.6	0.00e+00	0	39	104	0	60	111590
2026-01-03 09:03:56.73	112.64	39.97	-53.9	-56.4	3.6	0.00e+00	0	39	104	0	60	111332
2026-01-03 09:03:57.74	112.16	40.27	-53.4	-55.8	3.6	0.00e+00	0	39	104	0	60	104288
2026-01-03 09:03:58.75	111.67	40.58	-53.8	-56.2	3.6	0.00e+00	0	39	104	0	60	109084
2026-01-03 09:03:59.76	111.17	40.88	-53.8	-56.3	3.6	0.00e+00	0	39	104	0	60	110289
2026-01-03 09:04:00.77	110.66	41.19	-54.1	-56.6	3.6	0.00e+00	0	39	104	0	60	114632
2026-01-03 09:04:01.79	110.13	41.50	-53.7	-56.1	3.6	0.00e+00	0	39	104	0	60	107590
2026-01-03 09:04:02.80	109.60	41.80	-53.2	-55.7	3.6	0.00e+00	0	39	104	0	60	103012
2026-01-03 09:04:03.81	109.06	42.11	-54.0	-56.5	3.6	0.00e+00	0	39	104	0	60	112954
2026-01-03 09:04:04.82	108.51	42.41	-53.2	-55.7	3.6	0.00e+00	0	39	104	0	60	103127
2026-01-03 09:04:05.83	107.95	42.72	-53.2	-55.7	3.6	0.00e+00	0	39	104	0	60	102942
2026-01-03 09:04:06.84	107.37	43.03	-53.9	-56.4	3.6	0.00e+00	0	39	104	0	60	111086
2026-01-03 09:04:07.85	106.79	43.33	-53.7	-56.1	3.6	0.00e+00	0	39	104	0	60	108427
2026-01-03 09:04:08.86	106.19	43.64	-53.7	-56.1	3.6	0.00e+00	0	39	104	0	60	108073
2026-01-03 09:04:09.87	105.58	43.94	-54.0	-56.4	3.6	0.00e+00	0	39	104	0	60	112049
2026-01-03 09:04:10.88	104.96	44.24	-53.9	-56.4	3.6	0.00e+00	0	39	104	0	60	112228
2026-01-03 09:04:11.89	104.33	44.54	-53.7	-56.2	3.6	0.00e+00	0	39	104	0	60	108890
2026-01-03 09:04:12.90	103.68	44.84	-54.4	-56.9	3.6	0.00e+00	0	39	104	0	60	117832
2026-01-03 09:04:13.92	103.02	45.15	-54.3	-56.8	3.6	0.00e+00	0	39	104	0	60	117061
2026-01-03 09:04:14.93	102.34	45.44	-53.9	-56.3	3.6	0.00e+00	0	39	104	0	60	110728
2026-01-03 09:04:15.94	101.66	45.74	-54.4	-56.8	3.6	0.00e+00	0	39	104	0	60	117316
2026-01-03 09:04:16.95	100.96	46.03	-53.6	-56.1	3.6	0.00e+00	0	39	104	0	60	108171
2026-01-03 09:04:17.96	100.25	46.32	-53.8	-56.3	3.6	0.00e+00	0	39	104	0	60	110028
2026-01-03 09:04:18.97	99.53	46.61	-54.7	-57.1	3.6	0.00e+00	0	39	104	0	60	120971
2026-01-03 09:04:19.98	98.79	46.90	-54.2	-56.7	3.6	0.00e+00	0	39	104	0	60	115243
2026-01-03 09:04:20.99	98.03	47.18	-54.9	-57.4	3.6	0.00e+00	0	39	104	0	60	124956
2026-01-03 09:04:22.00	97.27	47.46	-54.2	-56.7	3.6	0.00e+00	0	39	104	0	60	115027
2026-01-03 09:04:23.02	96.48	47.73	-54.9	-57.4	3.6	0.00e+00	0	39	104	0	60	125157
2026-01-03 09:04:24.03	95.68	48.01	-54.6	-57.1	3.6	0.00e+00	0	39	104	0	60	121629
2026-01-03 09:04:25.04	94.87	48.27	-54.7	-57.2	3.5	0.00e+00	0	39	104	0	60	122878
2026-01-03 09:04:26.05	94.05	48.54	-54.5	-57.0	3.6	0.00e+00	0	39	104	0	60	119011
2026-01-03 09:04:27.06	93.21	48.79	-54.7	-57.2	3.6	0.00e+00	0	39	104	0	60	122219
2026-01-03 09:04:28.07	92.35	49.05	-54.2	-56.6	3.6	0.00e+00	0	39	104	0	60	114131
2026-01-03 09:04:29.08	91.49	49.30	-54.1	-56.5	3.6	0.00e+00	0	39	104	0	60	113300
2026-01-03 09:04:30.09	90.60	49.54	-54.8	-57.3	3.6	0.00e+00	0	39	104	0	60	123606
2026-01-03 09:04:31.10	89.71	49.78	-54.7	-57.2	3.6	0.00e+00	0	39	104	0	60	122414
2026-01-03 09:04:32.11	88.80	50.01	-54.0	-56.4	3.6	0.00e+00	0	39	104	0	60	112048
2026-01-03 09:04:33.12	87.87	50.23	-54.0	-56.5	3.6	0.00e+00	0	39	104	0	60	113422
2026-01-03 09:04:34.13	86.93	50.45	-54.8	-57.2	3.5	0.00e+00	0	39	104	0	60	122476
2026-01-03 09:04:35.14	85.98	50.66	-54.7	-57.1	3.6	0.00e+00	0	39	104	0	60	121627
2026-01-03 09:04:36.15	85.02	50.86	-54.6	-57.0	3.6	0.00e+00	0	39	104	0	60	119985
2026-01-03 09:04:37.16	84.04	51.06	-54.7	-57.2	3.6	0.00e+00	0	39	104	0	60	122110
2026-01-03 09:04:38.17	83.04	51.24	-54.4	-56.9	3.6	0.00e+00	0	39	104	0	60	118858
2026-01-03 09:04:39.19	82.03	51.43	-54.3	-56.7	3.6	0.00e+00	0	39	104	0	60	115332
2026-01-03 09:04:40.20	81.01	51.60	-54.0	-56.5	3.6	0.00e+00	0	39	104	0	60	112896
2026-01-03 09:04:41.21	79.99	51.76	-54.1	-56.6	3.6	0.00e+00	0	39	104	0	60	113670
2026-01-03 09:04:42.22	78.95	51.91	-54.7	-57.2	3.6	0.00e+00	0	39	104	0	60	122063
2026-01-03 09:04:43.23	77.90	52.06	-54.0	-56.5	3.6	0.00e+00	0	39	104	0	60	112362
2026-01-03 09:04:44.24	76.83	52.19	-53.2	-55.6	3.6	0.00e+00	0	39	104	0	60	102035
2026-01-03 09:04:45.25	75.76	52.32	-54.6	-57.0	3.6	0.00e+00	0	39	104	0	60	119080
2026-01-03 09:04:46.26	74.69	52.43	-54.5	-57.0	3.6	0.00e+00	0	39	104	0	60	119459
2026-01-03 09:04:47.27	73.60	52.54	-54.7	-57.2	3.6	0.00e+00	0	39	104	0	60	122742
2026-01-03 09:04:48.28	72.50	52.63	-54.5	-57.0	3.6	0.00e+00	0	39	104	0	60	119853
2026-01-03 09:04:49.29	71.40	52.72	-54.4	-56.9	3.6	0.00e+00	0	39	104	0	60	118402
2026-01-03 09:04:50.30	70.30	52.79	-54.9	-57.4	3.6	0.00e+00	0	39	104	0	60	125357
2026-01-03 09:04:51.31	69.18	52.85	-54.9	-57.3	3.6	0.00e+00	0	39	104	0	60	124498
2026-01-03 09:04:52.32	68.07	52.90	-53.9	-56.4	3.6	0.00e+00	0	39	104	0	60	111103
2026-01-03 09:04:53.34	66.93	52.95	-54.1	-56.5	3.6	0.00e+00	0	39	104	0	60	113524
2026-01-03 09:04:54.35	65.81	52.98	-55.0	-57.4	3.6	0.00e+00	0	39	104	0	60	125171
2026-01-03 09:04:55.36	64.68	52.99	-54.0	-56.4	3.5	0.00e+00	0	39	104	0	60	112023
2026-01-03 09:04:56.37	63.56	53.00	-54.2	-56.6	3.6	0.00e+00	0	39	104	0	60	114840
2026-01-03 09:04:57.38	62.43	53.00	-54.4	-56.9	3.6	0.00e+00	0	39	104	0	60	118141
2026-01-03 09:04:58.39	61.31	52.98	-54.7	-57.2	3.6	0.00e+00	0	39	104	0	60	122643
2026-01-03 09:04:59.40	60.18	52.96	-54.0	-56.4	3.6	0.00e+00	0	39	104	0	60	111879
2026-01-03 09:05:00.41	59.06	52.92	-54.1	-56.5	3.6	0.00e+00	0	39	104	0	60	113545
2026-01-03 09:05:01.42	57.94	52.87	-55.0	-57.4	3.6	0.00e+00	0	39	104	0	60	125587
2026-01-03 09:05:02.43	56.83	52.82	-54.6	-57.0	3.6	0.00e+00	0	39	104	0	60	119295
2026-01-03 09:05:03.45	55.71	52.74	-53.9	-56.4	3.6	0.00e+00	0	39	104	0	60	111274
2026-01-03 09:05:04.46	54.60	52.66	-54.5	-56.9	3.6	0.00e+00	0	39	104	0	60	118873
2026-01-03 09:05:05.47	53.51	52.57	-54.5	-56.9	3.6	0.00e+00	0	39	104	0	60	118577
2026-01-03 09:05:06.48	52.42	52.47	-53.8	-56.3	3.6	0.00e+00	0	39	104	0	60	110152
2026-01-03 09:05:07.49	51.34	52.36	-53.1	-55.6	3.6	0.00e+00	0	39	104	0	60	102313
2026-01-03 09:05:08.50	50.26	52.24	-52.9	-55.3	3.6	0.00e+00	0	39	104	0	60	98790
2026-01-03 09:05:09.51	49.20	52.11	-54.1	-56.5	3.6	0.00e+00	0	39	104	0	60	113375
2026-01-03 09:05:10.52	48.15	51.97	-54.0	-56.5	3.6	0.00e+00	0	39	104	0	60	112652
2026-01-03 09:05:11.53	47.10	51.82	-53.8	-56.3	3.6	0.00e+00	0	39	104	0	60	110504
2026-01-03 09:05:12.54	46.07	51.66	-54.1	-56.5	3.6	0.00e+00	0	39	104	0	60	112981
2026-01-03 09:05:13.55	45.05	51.49	-53.8	-56.3	3.6	0.00e+00	0	39	104	0	60	110386
2026-01-03 09:05:14.56	44.04	51.32	-54.0	-56.5	3.6	0.00e+00	0	39	104	0	60	113079
2026-01-03 09:05:15.57	43.05	51.13	-54.2	-56.6	3.6	0.00e+00	0	39	104	0	60	114354
2026-01-03 09:05:16.59	42.05	50.94	-53.9	-56.4	3.6	0.00e+00	0	39	104	0	60	111788
2026-01-03 09:05:17.60	41.08	50.74	-54.5	-57.0	3.6	0.00e+00	0	39	104	0	60	119581
2026-01-03 09:05:18.61	40.13	50.53	-54.2	-56.6	3.6	0.00e+00	0	39	104	0	60	114711
2026-01-03 09:05:19.62	39.18	50.32	-54.1	-56.5	3.6	0.00e+00	0	39	104	0	60	112876
2026-01-03 09:05:20.63	38.26	50.09	-54.1	-56.6	3.6	0.00e+00	0	39	104	0	60	114296
2026-01-03 09:05:21.64	37.34	49.87	-53.5	-56.0	3.6	0.00e+00	0	39	104	0	60	106091
2026-01-03 09:05:22.65	36.44	49.63	-54.3	-56.8	3.6	0.00e+00	0	39	104	0	60	116391
2026-01-03 09:05:23.66	35.55	49.39	-55.1	-57.6	3.6	0.00e+00	0	39	104	0	60	128725
2026-01-03 09:05:24.67	34.68	49.15	-54.5	-57.0	3.6	0.00e+00	0	39	104	0	60	119221
2026-01-03 09:05:25.68	33.82	48.90	-54.1	-56.6	3.6	0.00e+00	0	39	104	0	60	114588
2026-01-03 09:05:26.69	32.98	48.64	-53.5	-56.0	3.6	0.00e+00	0	39	104	0	60	106600
2026-01-03 09:05:27.70	32.15	48.38	-53.5	-55.9	3.6	0.00e+00	0	39	104	0	60	105683
2026-01-03 09:05:28.71	31.34	48.11	-54.5	-56.9	3.6	0.00e+00	0	39	104	0	60	118635
2026-01-03 09:05:29.72	30.54	47.84	-54.0	-56.4	3.6	0.00e+00	0	39	104	0	60	112182
2026-01-03 09:05:30.73	29.75	47.57	-54.0	-56.5	3.6	0.00e+00	0	39	104	0	60	112946
2026-01-03 09:05:31.74	28.98	47.29	-54.1	-56.6	3.6	0.00e+00	0	39	104	0	60	114316
2026-01-03 09:05:32.75	28.22	47.01	-54.3	-56.8	3.6	0.00e+00	0	39	104	0	60	116405
2026-01-03 09:05:33.76	27.48	46.73	-53.9	-56.3	3.6	0.00e+00	0	39	104	0	60	110978
2026-01-03 09:05:34.77	26.75	46.44	-54.1	-56.6	3.6	0.00e+00	0	39	104	0	60	114508
2026-01-03 09:05:35.78	26.03	46.16	-53.7	-56.2	3.6	0.00e+00	0	39	104	0	60	108702
2026-01-03 09:05:36.79	25.33	45.86	-54.4	-56.9	3.6	0.00e+00	0	39	104	0	60	117888
2026-01-03 09:05:37.81	24.64	45.57	-54.4	-56.9	3.6	0.00e+00	0	39	104	0	60	117646
2026-01-03 09:05:38.82	23.96	45.27	-53.9	-56.4	3.6	0.00e+00	0	39	104	0	60	111321
2026-01-03 09:05:39.83	23.30	44.97	-54.4	-56.9	3.6	0.00e+00	0	39	104	0	60	118081
2026-01-03 09:05:40.84	22.65	44.67	-54.4	-56.9	3.6	0.00e+00	0	39	104	0	60	117713
2026-01-03 09:05:41.85	22.01	44.37	-54.1	-56.6	3.6	0.00e+00	0	39	104	0	60	113822
2026-01-03 09:05:42.86	21.39	44.07	-54.6	-57.0	3.6	0.00e+00	0	39	104	0	60	120047
2026-01-03 09:05:43.87	20.77	43.77	-54.0	-56.5	3.6	0.00e+00	0	39	104	0	60	112512
2026-01-03 09:05:44.89	20.17	43.46	-54.5	-57.0	3.6	0.00e+00	0	39	104	0	60	119332
2026-01-03 09:05:45.90	19.58	43.16	-54.7	-57.1	3.6	0.00e+00	0	39	104	0	60	121332
2026-01-03 09:05:46.91	19.00	42.86	-54.4	-56.9	3.6	0.00e+00	0	39	104	0	60	118615
2026-01-03 09:05:47.92	18.44	42.55	-54.5	-56.9	3.6	0.00e+00	0	39	104	0	60	118606
2026-01-03 09:05:48.93	17.88	42.25	-54.4	-56.9	3.6	0.00e+00	0	39	104	0	60	118394
2026-01-03 09:05:49.94	17.34	41.94	-54.2	-56.6	3.6	0.00e+00	0	39	104	0	60	114342
2026-01-03 09:05:50.95	16.80	41.63	-53.5	-55.9	3.6	0.00e+00	0	39	104	0	60	105762
2026-01-03 09:05:51.96	16.28	41.33	-54.6	-57.1	3.6	0.00e+00	0	39	104	0	60	121020
2026-01-03 09:05:52.97	15.77	41.03	-54.3	-56.8	3.6	0.00e+00	0	39	104	0	60	116688
2026-01-03 09:05:53.98	15.27	40.72	-53.9	-56.4	3.6	0.00e+00	0	39	104	0	60	112301
2026-01-03 09:05:54.99	14.77	40.42	-54.3	-56.8	3.6	0.00e+00	0	39	104	0	60	117472
2026-01-03 09:05:56.00	14.29	40.11	-54.1	-56.6	3.6	0.00e+00	0	39	104	0	60	113774
2026-01-03 09:05:57.02	13.81	39.81	-53.8	-56.3	3.6	0.00e+00	0	39	104	0	60	110084
2026-01-03 09:05:58.03	13.35	39.51	-53.2	-55.7	3.6	0.00e+00	0	39	104	0	60	102767
2026-01-03 09:05:59.04	12.89	39.21	-53.8	-56.3	3.6	0.00e+00	0	39	104	0	60	110580
2026-01-03 09:06:00.05	12.44	38.91	-54.5	-56.9	3.5	0.00e+00	0	39	104	0	60	118228
2026-01-03 09:06:01.05	12.01	38.61	-54.0	-56.5	3.6	0.00e+00	0	39	104	0	60	113116
2026-01-03 09:06:02.06	11.58	38.32	-54.1	-56.5	3.6	0.00e+00	0	39	104	0	60	113054
2026-01-03 09:06:03.07	11.16	38.02	-53.9	-56.4	3.6	0.00e+00	0	39	104	0	60	111145
2026-01-03 09:06:04.08	10.75	37.72	-53.9	-56.4	3.6	0.00e+00	0	39	104	0	60	111206
2026-01-03 09:06:05.09	10.34	37.43	-54.0	-56.5	3.6	0.00e+00	0	39	104	0	60	112399
2026-01-03 09:06:06.10	9.94	37.14	-54.3	-56.8	3.5	0.00e+00	0	39	104	0	60	116506
2026-01-03 09:06:07.11	9.55	36.85	-54.2	-56.6	3.6	0.00e+00	0	39	104	0	60	114947
2026-01-03 09:06:08.12	9.17	36.56	-54.0	-56.4	3.6	0.00e+00	0	39	104	0	60	111757
2026-01-03 09:06:09.13	8.79	36.27	-53.9	-56.3	3.6	0.00e+00	0	39	104	0	60	110444
2026-01-03 09:06:10.14	8.42	35.99	-54.2	-56.7	3.6	0.00e+00	0	39	104	0	60	115047
2026-01-03 09:06:11.13	8.07	35.71	-53.7	-56.2	3.6	0.00e+00	0	39	104	0	60	108761
2026-01-03 09:06:12.14	7.71	35.42	-53.8	-56.3	3.6	0.00e+00	0	39	104	0	60	110332
2026-01-03 09:06:13.16	7.36	35.14	-53.6	-56.1	3.6	0.00e+00	0	39	104	0	60	108319
2026-01-03 09:06:14.17	7.01	34.86	-53.7	-56.1	3.6	0.00e+00	0	39	104	0	60	108281
2026-01-03 09:06:15.18	6.68	34.58	-54.1	-56.5	3.6	0.00e+00	0	39	104	0	60	113640
2026-01-03 09:06:16.19	6.35	34.31	-53.5	-56.0	3.6	0.00e+00	0	39	104	0	60	106116
2026-01-03 09:06:17.20	6.02	34.03	-53.8	-56.3	3.6	0.00e+00	0	39	104	0	60	109977
2026-01-03 09:06:18.21	5.70	33.76	-54.5	-56.9	3.6	0.00e+00	0	39	104	0	60	118558
2026-01-03 09:06:19.22	5.39	33.49	-54.2	-56.7	3.6	0.00e+00	0	39	104	0	60	115589
2026-01-03 09:06:20.23	5.08	33.22	-54.1	-56.5	3.6	0.00e+00	0	39	104	0	60	113122
2026-01-03 09:06:21.24	4.78	32.96	-53.7	-56.1	3.6	0.00e+00	0	39	104	0	60	108481
2026-01-03 09:06:22.25	4.48	32.69	-54.2	-56.6	3.6	0.00e+00	0	39	104	0	60	114263
2026-01-03 09:06:23.26	4.19	32.43	-54.0	-56.5	3.6	0.00e+00	0	39	104	0	60	112929
2026-01-03 09:06:24.27	3.90	32.17	-54.0	-56.5	3.6	0.00e+00	0	39	104	0	60	112563
2026-01-03 09:06:25.28	3.62	31.91	-54.2	-56.7	3.6	0.00e+00	0	39	104	0	60	115139
2026-01-03 09:06:26.29	3.34	31.65	-54.4	-56.8	3.6	0.00e+00	0	39	104	0	60	117547
2026-01-03 09:06:27.31	3.07	31.39	-53.5	-55.9	3.6	0.00e+00	0	39	104	0	60	105566
2026-01-03 09:06:28.32	2.80	31.14	-54.8	-57.3	3.6	0.00e+00	0	39	104	0	60	123691
2026-01-03 09:06:29.33	2.54	30.89	-54.7	-57.2	3.6	0.00e+00	0	39	104	0	60	122127
2026-01-03 09:06:30.34	2.28	30.64	-54.7	-57.2	3.6	0.00e+00	0	39	104	0	60	121887
2026-01-03 09:06:31.35	2.02	30.39	-54.5	-57.1	3.6	0.00e+00	0	39	104	0	60	120405
2026-01-03 09:06:32.36	1.77	30.14	-54.7	-57.2	3.6	0.00e+00	0	39	104	0	60	121858
2026-01-03 09:06:33.37	1.53	29.90	-54.0	-56.5	3.6	0.00e+00	0	39	104	0	60	113010
2026-01-03 09:06:34.38	1.28	29.66	-53.9	-56.4	3.6	0.00e+00	0	39	104	0	60	111191
2026-01-03 09:06:35.39	1.05	29.42	-53.8	-56.2	3.6	0.00e+00	0	39	104	0	60	109535
2026-01-03 09:06:36.41	0.81	29.18	-54.6	-57.1	3.6	0.00e+00	0	39	104	0	60	120742
2026-01-03 09:06:37.42	0.58	28.94	-54.0	-56.4	3.6	0.00e+00	0	39	104	0	60	111257
2026-01-03 09:06:38.43	0.35	28.70	-54.1	-56.5	3.6	0.00e+00	0	39	104	0	60	112856
2026-01-03 09:06:39.44	0.13	28.47	-54.4	-56.9	3.6	0.00e+00	0	39	104	0	60	118900
2026-01-03 09:06:40.45	359.91	28.24	-54.7	-57.2	3.6	0.00e+00	0	39	104	0	60	122043
2026-01-03 09:06:41.46	359.69	28.01	-54.6	-57.1	3.6	0.00e+00	0	39	104	0	60	120590
2026-01-03 09:06:42.47	359.48	27.78	-54.3	-56.7	3.6	0.00e+00	0	39	104	0	60	115510
2026-01-03 09:06:43.48	359.27	27.56	-54.7	-57.1	3.6	0.00e+00	0	39	104	0	60	121295
2026-01-03 09:06:44.49	359.06	27.33	-53.8	-56.2	3.6	0.00e+00	0	39	104	0	60	109669
2026-01-03 09:06:45.50	358.86	27.11	-54.0	-56.4	3.6	0.00e+00	0	39	104	0	60	112179
2026-01-03 09:06:46.51	358.66	26.89	-54.7	-57.2	3.6	0.00e+00	0	39	104	0	60	121862
2026-01-03 09:06:47.52	358.46	26.67	-54.1	-56.5	3.6	0.00e+00	0	39	104	0	60	112741
2026-01-03 09:06:48.53	358.27	26.46	-53.5	-56.0	3.6	0.00e+00	0	39	104	0	60	106168
2026-01-03 09:06:49.54	358.08	26.24	-54.5	-57.0	3.6	0.00e+00	0	39	104	0	60	119150
2026-01-03 09:06:50.55	357.89	26.03	-53.8	-56.3	3.6	0.00e+00	0	39	104	0	60	110741
2026-01-03 09:06:51.56	357.70	25.82	-54.2	-56.7	3.6	0.00e+00	0	39	104	0	60	115375
2026-01-03 09:06:52.57	357.52	25.61	-53.7	-56.1	3.6	0.00e+00	0	39	104	0	60	108443
2026-01-03 09:06:53.58	357.34	25.40	-53.7	-56.1	3.6	0.00e+00	0	39	104	0	60	107858
2026-01-03 09:06:54.59	357.16	25.19	-54.0	-56.4	3.6	0.00e+00	0	39	104	0	60	111382
2026-01-03 09:06:55.60	356.99	24.99	-53.7	-56.1	3.6	0.00e+00	0	39	104	0	60	108353
2026-01-03 09:06:56.61	356.81	24.78	-54.1	-56.6	3.6	0.00e+00	0	39	104	0	60	114439
2026-01-03 09:06:57.62	356.64	24.58	-53.2	-55.6	3.6	0.00e+00	0	39	104	0	60	102032
2026-01-03 09:06:58.63	356.48	24.38	-53.7	-56.2	3.6	0.00e+00	0	39	104	0	60	109390
2026-01-03 09:06:59.64	356.31	24.18	-54.5	-56.9	3.6	0.00e+00	0	39	104	0	60	118730
2026-01-03 09:07:00.65	356.15	23.98	-53.9	-56.3	3.6	0.00e+00	0	39	104	0	60	111059
2026-01-03 09:07:01.66	355.99	23.79	-54.4	-56.8	3.6	0.00e+00	0	39	104	0	60	117192
2026-01-03 09:07:02.67	355.83	23.59	-54.4	-56.8	3.6	0.00e+00	0	39	104	0	60	117263
2026-01-03 09:07:03.68	355.67	23.40	-54.0	-56.5	3.6	0.00e+00	0	39	104	0	60	112904
2026-01-03 09:07:04.69	355.52	23.21	-54.2	-56.7	3.6	0.00e+00	0	39	104	0	60	115474
2026-01-03 09:07:05.70	355.37	23.02	-54.4	-56.9	3.6	0.00e+00	0	39	104	0	60	117674
2026-01-03 09:07:06.71	355.22	22.83	-54.5	-57.0	3.6	0.00e+00	0	39	104	0	60	119557
2026-01-03 09:07:07.72	355.07	22.65	-53.8	-56.3	3.6	0.00e+00	0	39	104	0	60	110443
2026-01-03 09:07:08.73	354.93	22.46	-53.3	-55.7	3.6	0.00e+00	0	39	104	0	60	103316
2026-01-03 09:07:09.74	354.78	22.28	-52.9	-55.3	3.6	0.00e+00	0	39	104	0	60	98649
2026-01-03 09:07:10.75	354.64	22.10	-53.8	-56.2	3.6	0.00e+00	0	39	104	0	60	109509
2026-01-03 09:07:11.76	354.50	21.92	-54.0	-56.5	3.6	0.00e+00	0	39	104	0	60	112761
2026-01-03 09:07:12.77	354.36	21.74	-54.1	-56.5	3.6	0.00e+00	0	39	104	0	60	113359
2026-01-03 09:07:13.78	354.23	21.56	-54.7	-57.1	3.6	0.00e+00	0	39	104	0	60	121738
2026-01-03 09:07:14.79	354.09	21.38	-54.0	-56.5	3.6	0.00e+00	0	39	104	0	60	112635
2026-01-03 09:07:15.80	353.96	21.21	-54.6	-57.1	3.6	0.00e+00	0	39	104	0	60	120912
2026-01-03 09:07:16.81	353.83	21.03	-54.4	-56.9	3.6	0.00e+00	0	39	104	0	60	118540
2026-01-03 09:07:17.82	353.70	20.86	-54.3	-56.8	3.6	0.00e+00	0	39	104	0	60	117021
2026-01-03 09:07:18.83	353.57	20.69	-54.3	-56.8	3.6	0.00e+00	0	39	104	0	60	116327
2026-01-03 09:07:19.84	353.44	20.52	-54.0	-56.5	3.6	0.00e+00	0	39	104	0	60	113013
2026-01-03 09:07:20.85	353.32	20.35	-54.4	-56.8	3.6	0.00e+00	0	39	104	0	60	116434
2026-01-03 09:07:21.86	353.20	20.18	-53.8	-56.2	3.6	0.00e+00	0	39	104	0	60	109521
2026-01-03 09:07:22.87	353.08	20.02	-54.5	-57.0	3.6	0.00e+00	0	39	104	0	60	119453
2026-01-03 09:07:23.89	352.95	19.85	-54.5	-56.9	3.6	0.00e+00	0	39	104	0	60	118702
2026-01-03 09:07:24.90	352.84	19.69	-54.6	-57.1	3.5	0.00e+00	0	39	104	0	60	121015
2026-01-03 09:07:25.91	352.72	19.52	-54.1	-56.5	3.6	0.00e+00	0	39	104	0	60	113036
2026-01-03 09:07:26.92	352.60	19.36	-54.5	-57.0	3.6	0.00e+00	0	39	104	0	60	119992
2026-01-03 09:07:27.93	352.49	19.20	-54.3	-56.8	3.6	0.00e+00	0	39	104	0	60	116671
2026-01-03 09:07:28.94	352.38	19.04	-54.9	-57.4	3.6	0.00e+00	0	39	104	0	60	125322
2026-01-03 09:07:29.95	352.27	18.89	-54.4	-56.9	3.6	0.00e+00	0	39	104	0	60	117693
2026-01-03 09:07:30.96	352.16	18.73	-54.3	-56.8	3.6	0.00e+00	0	39	104	0	60	116362
2026-01-03 09:07:31.97	352.05	18.57	-54.6	-57.1	3.6	0.00e+00	0	39	104	0	60	121399
2026-01-03 09:07:32.98	351.94	18.42	-54.2	-56.7	3.6	0.00e+00	0	39	104	0	60	115278
2026-01-03 09:07:33.99	351.84	18.27	-54.6	-57.0	3.6	0.00e+00	0	39	104	0	60	119948
2026-01-03 09:07:35.00	351.73	18.11	-54.3	-56.7	3.6	0.00e+00	0	39	104	0	60	116082
2026-01-03 09:07:36.01	351.63	17.96	-54.6	-57.1	3.6	0.00e+00	0	39	104	0	60	121201
2026-01-03 09:07:37.02	351.52	17.81	-54.7	-57.2	3.6	0.00e+00	0	39	104	0	60	121979
2026-01-03 09:07:38.03	351.42	17.66	-54.3	-56.8	3.6	0.00e+00	0	39	104	0	60	116347
2026-01-03 09:07:39.04	351.32	17.52	-54.3	-56.7	3.6	0.00e+00	0	39	104	0	60	116294
2026-01-03 09:07:40.05	351.23	17.37	-54.3	-56.8	3.6	0.00e+00	0	39	104	0	60	116459
2026-01-03 09:07:41.06	351.13	17.22	-54.5	-57.0	3.6	0.00e+00	0	39	104	0	60	119587
2026-01-03 09:07:42.07	351.03	17.08	-53.5	-56.0	3.6	0.00e+00	0	39	104	0	60	106401
2026-01-03 09:07:43.08	350.94	16.93	-54.2	-56.6	3.6	0.00e+00	0	39	104	0	60	114838
2026-01-03 09:07:44.09	350.84	16.79	-53.9	-56.4	3.6	0.00e+00	0	39	104	0	60	111070
2026-01-03 09:07:45.11	350.75	16.65	-53.9	-56.3	3.6	0.00e+00	0	39	104	0	60	110907
2026-01-03 09:07:46.12	350.65	16.51	-54.0	-56.5	3.6	0.00e+00	0	39	104	0	60	112356
2026-01-03 09:07:47.13	350.56	16.37	-53.8	-56.2	3.6	0.00e+00	0	39	104	0	60	108846
2026-01-03 09:07:48.14	350.47	16.23	-54.3	-56.7	3.6	0.00e+00	0	39	104	0	60	115307
2026-01-03 09:07:49.15	350.38	16.09	-54.3	-56.7	3.6	0.00e+00	0	39	104	0	60	116001
2026-01-03 09:07:50.16	350.30	15.95	-54.0	-56.5	3.6	0.00e+00	0	39	104	0	60	113153
2026-01-03 09:07:51.17	350.21	15.82	-54.6	-57.0	3.6	0.00e+00	0	39	104	0	60	119440
2026-01-03 09:07:52.18	350.12	15.68	-54.8	-57.3	3.6	0.00e+00	0	39	104	0	60	123865
2026-01-03 09:07:53.19	350.04	15.55	-54.6	-57.1	3.6	0.00e+00	0	39	104	0	60	120874
2026-01-03 09:07:54.20	349.95	15.41	-54.2	-56.7	3.6	0.00e+00	0	39	104	0	60	114969
2026-01-03 09:07:55.21	349.87	15.28	-54.3	-56.8	3.6	0.00e+00	0	39	104	0	60	116627
2026-01-03 09:07:56.22	349.79	15.15	-53.9	-56.3	3.6	0.00e+00	0	39	104	0	60	110738
2026-01-03 09:07:57.23	349.71	15.02	-54.3	-56.8	3.6	0.00e+00	0	39	104	0	60	116661
2026-01-03 09:07:58.25	349.62	14.88	-54.4	-56.8	3.6	0.00e+00	0	39	104	0	60	117263
2026-01-03 09:07:59.26	349.54	14.75	-54.5	-56.9	3.6	0.00e+00	0	39	104	0	60	118738
2026-01-03 09:08:00.27	349.47	14.63	-53.7	-56.2	3.6	0.00e+00	0	39	104	0	60	108933
2026-01-03 09:08:01.28	349.39	14.50	-53.9	-56.4	3.6	0.00e+00	0	39	104	0	60	111339
2026-01-03 09:08:02.29	349.31	14.37	-53.7	-56.1	3.6	0.00e+00	0	39	104	0	60	108253
2026-01-03 09:08:03.30	349.23	14.25	-53.6	-56.1	3.6	0.00e+00	0	39	104	0	60	107462
2026-01-03 09:08:04.31	349.16	14.12	-53.6	-56.0	3.6	0.00e+00	0	39	104	0	60	106454
2026-01-03 09:08:05.32	349.08	14.00	-54.5	-56.9	3.6	0.00e+00	0	39	104	0	60	118721
2026-01-03 09:08:06.33	349.01	13.87	-54.4	-56.8	3.6	0.00e+00	0	39	104	0	60	116695
2026-01-03 09:08:07.34	348.93	13.75	-54.9	-57.3	3.6	0.00e+00	0	39	104	0	60	124607
2026-01-03 09:08:08.35	348.86	13.63	-53.8	-56.2	3.6	0.00e+00	0	39	104	0	60	109376
2026-01-03 09:08:09.36	348.79	13.50	-53.7	-56.2	3.6	0.00e+00	0	39	104	0	60	109680
2026-01-03 09:08:10.37	348.72	13.38	-54.3	-56.8	3.6	0.00e+00	0	39	104	0	60	117518
2026-01-03 09:08:11.38	348.65	13.26	-53.8	-56.3	3.6	0.00e+00	0	39	104	0	60	110524
2026-01-03 09:08:12.39	348.58	13.14	-53.6	-56.1	3.6	0.00e+00	0	39	104	0	60	107486
2026-01-03 09:08:13.40	348.51	13.03	-54.8	-57.3	3.6	0.00e+00	0	39	104	0	60	123766
2026-01-03 09:08:14.41	348.44	12.91	-53.9	-56.3	3.5	0.00e+00	0	39	104	0	60	110749
2026-01-03 09:08:15.42	348.37	12.79	-54.3	-56.8	3.6	0.00e+00	0	39	104	0	60	116312
2026-01-03 09:08:16.43	348.31	12.67	-54.5	-56.9	3.6	0.00e+00	0	39	104	0	60	118283
2026-01-03 09:08:17.44	348.24	12.56	-54.1	-56.5	3.6	0.00e+00	0	39	104	0	60	113447
2026-01-03 09:08:18.45	348.17	12.44	-53.8	-56.2	3.6	0.00e+00	0	39	104	0	60	108863
2026-01-03 09:08:19.46	348.11	12.33	-54.0	-56.4	3.6	0.00e+00	0	39	104	0	60	111863
2026-01-03 09:08:20.47	348.04	12.21	-54.2	-56.7	3.6	0.00e+00	0	39	104	0	60	115021
2026-01-03 09:08:21.48	347.98	12.10	-54.3	-56.7	3.6	0.00e+00	0	39	104	0	60	115940
2026-01-03 09:08:22.49	347.92	11.99	-54.1	-56.6	3.6	0.00e+00	0	39	104	0	60	113652
2026-01-03 09:08:23.50	347.85	11.88	-54.1	-56.6	3.6	0.00e+00	0	39	104	0	60	114239
2026-01-03 09:08:24.51	347.79	11.76	-54.0	-56.5	3.6	0.00e+00	0	39	104	0	60	113059
2026-01-03 09:08:25.52	347.73	11.65	-54.0	-56.5	3.6	0.00e+00	0	39	104	0	60	113102
2026-01-03 09:08:26.53	347.67	11.54	-53.8	-56.2	3.6	0.00e+00	0	39	104	0	60	109315
2026-01-03 09:08:27.54	347.61	11.43	-53.0	-55.4	3.6	0.00e+00	0	39	104	0	60	99965
2026-01-03 09:08:28.55	347.55	11.32	-52.9	-55.4	3.6	0.00e+00	0	39	104	0	60	99036
2026-01-03 09:08:29.56	347.49	11.22	-54.0	-56.4	3.6	0.00e+00	0	39	104	0	60	111105
2026-01-03 09:08:30.57	347.43	11.11	-53.6	-56.0	3.6	0.00e+00	0	39	104	0	60	107116
2026-01-03 09:08:31.58	347.37	11.00	-53.3	-55.8	3.6	0.00e+00	0	39	104	0	60	103791
2026-01-03 09:08:32.59	347.32	10.89	-53.7	-56.1	3.6	0.00e+00	0	39	104	0	60	108105
2026-01-03 09:08:33.60	347.26	10.79	-53.6	-56.0	3.6	0.00e+00	0	39	104	0	60	106790
2026-01-03 09:08:34.61	347.20	10.68	-53.5	-55.9	3.5	0.00e+00	0	39	104	0	60	105833
2026-01-03 09:08:35.62	347.15	10.58	-53.5	-55.9	3.6	0.00e+00	0	39	104	0	60	105967
2026-01-03 09:08:36.63	347.09	10.47	-53.2	-55.7	3.6	0.00e+00	0	39	104	0	60	102661
2026-01-03 09:08:37.64	347.04	10.37	-53.0	-55.5	3.6	0.00e+00	0	39	104	0	60	100739
2026-01-03 09:08:38.65	346.98	10.27	-54.5	-57.0	3.6	0.00e+00	0	39	104	0	60	119308
2026-01-03 09:08:39.66	346.93	10.16	-53.7	-56.2	3.6	0.00e+00	0	39	104	0	60	109118
2026-01-03 09:08:40.67	346.87	10.06	-53.4	-55.8	3.6	0.00e+00	0	39	104	0	60	104069
2026-01-03 09:08:41.68	346.82	9.96	-53.5	-56.0	3.6	0.00e+00	0	39	104	0	60	106352
2026-01-03 09:08:42.69	346.77	9.86	-53.9	-56.4	3.6	0.00e+00	0	39	104	0	60	111287
2026-01-03 09:08:43.70	346.72	9.76	-54.3	-56.7	3.6	0.00e+00	0	39	104	0	60	115792
2026-01-03 09:08:44.71	346.67	9.66	-54.3	-56.8	3.5	0.00e+00	0	39	104	0	60	116948
2026-01-03 09:08:45.72	346.61	9.56	-54.6	-57.1	3.6	0.00e+00	0	39	104	0	60	120731
2026-01-03 09:08:46.73	346.56	9.46	-53.7	-56.2	3.6	0.00e+00	0	39	104	0	60	109080
2026-01-03 09:08:47.74	346.51	9.36	-54.2	-56.6	3.6	0.00e+00	0	39	104	0	60	114259
2026-01-03 09:08:48.75	346.46	9.26	-53.7	-56.1	3.6	0.00e+00	0	39	104	0	60	108040
2026-01-03 09:08:49.77	346.41	9.16	-53.1	-55.6	3.6	0.00e+00	0	39	104	0	60	101577
2026-01-03 09:08:50.78	346.36	9.07	-53.7	-56.2	3.6	0.00e+00	0	39	104	0	60	108643
2026-01-03 09:08:51.79	346.32	8.97	-54.6	-57.0	3.6	0.00e+00	0	39	104	0	60	120198
2026-01-03 09:08:52.80	346.27	8.87	-54.5	-57.0	3.6	0.00e+00	0	39	104	0	60	119722
2026-01-03 09:08:53.81	346.22	8.78	-54.9	-57.3	3.6	0.00e+00	0	39	104	0	60	123704
2026-01-03 09:08:54.82	346.17	8.68	-54.7	-57.2	3.6	0.00e+00	0	39	104	0	60	122046
2026-01-03 09:08:55.83	346.13	8.59	-54.7	-57.2	3.6	0.00e+00	0	39	104	0	60	122811
2026-01-03 09:08:56.84	346.08	8.49	-54.4	-56.9	3.6	0.00e+00	0	39	104	0	60	118780
2026-01-03 09:08:57.85	346.03	8.40	-54.1	-56.6	3.6	0.00e+00	0	39	104	0	60	114314
2026-01-03 09:08:58.86	345.99	8.30	-54.5	-57.0	3.6	0.00e+00	0	39	104	0	60	120359
2026-01-03 09:08:59.87	345.94	8.21	-54.2	-56.6	3.6	0.00e+00	0	39	104	0	60	114500
2026-01-03 09:09:00.88	345.90	8.12	-54.6	-57.1	3.6	0.00e+00	0	39	104	0	60	121248
2026-01-03 09:09:01.89	345.85	8.03	-54.6	-57.0	3.6	0.00e+00	0	39	104	0	60	120160
2026-01-03 09:09:02.90	345.81	7.93	-53.2	-55.7	3.6	0.00e+00	0	39	104	0	60	103131
2026-01-03 09:09:03.91	345.77	7.84	-53.2	-55.7	3.6	0.00e+00	0	39	104	0	60	102665
2026-01-03 09:09:04.92	345.72	7.75	-53.6	-56.1	3.6	0.00e+00	0	39	104	0	60	108094
2026-01-03 09:09:05.93	345.68	7.66	-53.9	-56.4	3.6	0.00e+00	0	39	104	0	60	111893
2026-01-03 09:09:06.94	345.64	7.57	-54.6	-57.1	3.6	0.00e+00	0	39	104	0	60	120467
2026-01-03 09:09:07.95	345.59	7.48	-54.5	-57.0	3.6	0.00e+00	0	39	104	0	60	119233
2026-01-03 09:09:08.96	345.55	7.39	-54.9	-57.3	3.6	0.00e+00	0	39	104	0	60	124390
2026-01-03 09:09:09.97	345.51	7.30	-53.9	-56.3	3.6	0.00e+00	0	39	104	0	60	110499
2026-01-03 09:09:10.98	345.47	7.21	-53.3	-55.8	3.6	0.00e+00	0	39	104	0	60	104549
2026-01-03 09:09:12.00	345.43	7.12	-53.4	-55.8	3.6	0.00e+00	0	39	104	0	60	104470
2026-01-03 09:09:13.00	345.39	7.04	-54.4	-56.8	3.6	0.00e+00	0	39	104	0	60	117330
2026-01-03 09:09:14.02	345.35	6.95	-54.3	-56.7	3.6	0.00e+00	0	39	104	0	60	115442
2026-01-03 09:09:15.03	345.31	6.86	-54.2	-56.7	3.6	0.00e+00	0	39	104	0	60	116042
2026-01-03 09:09:16.04	345.27	6.78	-54.2	-56.6	3.5	0.00e+00	0	39	104	0	60	114937
2026-01-03 09:09:17.05	345.23	6.69	-54.4	-56.8	3.6	0.00e+00	0	39	104	0	60	117386
2026-01-03 09:09:18.06	345.19	6.60	-54.5	-57.0	3.6	0.00e+00	0	39	104	0	60	119523
2026-01-03 09:09:19.07	345.15	6.52	-54.6	-57.1	3.6	0.00e+00	0	39	104	0	60	120862
2026-01-03 09:09:20.08	345.11	6.43	-54.0	-56.4	3.6	0.00e+00	0	39	104	0	60	111833
2026-01-03 09:09:21.09	345.07	6.35	-54.8	-57.3	3.6	0.00e+00	0	39	104	0	60	123190
2026-01-03 09:09:22.10	345.04	6.26	-54.6	-57.0	3.6	0.00e+00	0	39	104	0	60	120205
2026-01-03 09:09:23.11	345.00	6.18	-54.5	-56.9	3.6	0.00e+00	0	39	104	0	60	118890
2026-01-03 09:09:24.12	344.96	6.09	-55.2	-57.6	3.6	0.00e+00	0	39	104	0	60	128759
2026-01-03 09:09:25.13	344.93	6.01	-54.5	-56.9	3.5	0.00e+00	0	39	104	0	60	118856
2026-01-03 09:09:26.14	344.89	5.93	-53.6	-56.1	3.6	0.00e+00	0	39	104	0	60	107766
2026-01-03 09:09:27.15	344.85	5.84	-54.5	-57.1	3.6	0.00e+00	0	39	104	0	60	120489
2026-01-03 09:09:28.16	344.82	5.76	-54.8	-57.3	3.6	0.00e+00	0	39	104	0	60	124110
2026-01-03 09:09:29.17	344.78	5.68	-54.6	-57.0	3.6	0.00e+00	0	39	104	0	60	119126
2026-01-03 09:09:30.19	344.75	5.60	-53.8	-56.3	3.6	0.00e+00	0	39	104	0	60	109828
2026-01-03 09:09:31.20	344.71	5.51	-54.6	-57.1	3.6	0.00e+00	0	39	104	0	60	121498
2026-01-03 09:09:32.21	344.68	5.43	-54.6	-57.0	3.6	0.00e+00	0	39	104	0	60	120196
2026-01-03 09:09:33.22	344.64	5.35	-54.5	-57.0	3.6	0.00e+00	0	39	104	0	60	119487
2026-01-03 09:09:34.23	344.61	5.27	-54.2	-56.6	3.6	0.00e+00	0	39	104	0	60	114287
2026-01-03 09:09:35.24	344.57	5.19	-53.9	-56.3	3.6	0.00e+00	0	39	104	0	60	109849
2026-01-03 09:09:36.25	344.54	5.11	-53.6	-56.1	3.6	0.00e+00	0	39	104	0	60	107702
2026-01-03 09:09:37.26	344.50	5.03	-54.2	-56.7	3.5	0.00e+00	0	39	104	0	60	115098
2026-01-03 09:09:38.27	344.47	4.95	-54.3	-56.8	3.6	0.00e+00	0	39	104	0	60	116517
2026-01-03 09:09:39.28	344.44	4.87	-53.9	-56.3	3.6	0.00e+00	0	39	104	0	60	111029
2026-01-03 09:09:40.29	344.41	4.79	-54.8	-57.3	3.6	0.00e+00	0	39	104	0	60	123379
2026-01-03 09:09:41.30	344.37	4.72	-54.3	-56.7	3.6	0.00e+00	0	39	104	0	60	116169
2026-01-03 09:09:42.31	344.34	4.64	-54.3	-56.8	3.6	0.00e+00	0	39	104	0	60	116339
2026-01-03 09:09:43.32	344.31	4.56	-53.8	-56.3	3.6	0.00e+00	0	39	104	0	60	110010
2026-01-03 09:09:44.33	344.28	4.48	-54.3	-56.9	3.6	0.00e+00	0	39	104	0	60	117962
2026-01-03 09:09:45.34	344.24	4.40	-54.0	-56.5	3.6	0.00e+00	0	39	104	0	60	112724
2026-01-03 09:09:46.35	344.21	4.33	-53.9	-56.3	3.6	0.00e+00	0	39	104	0	60	110903
2026-01-03 09:09:47.36	344.18	4.25	-54.4	-56.9	3.6	0.00e+00	0	39	104	0	60	118207
2026-01-03 09:09:48.37	344.15	4.17	-54.1	-56.6	3.5	0.00e+00	0	39	104	0	60	113744
2026-01-03 09:09:49.38	344.12	4.10	-54.6	-57.1	3.6	0.00e+00	0	39	104	0	60	121567
2026-01-03 09:09:50.39	344.09	4.02	-54.8	-57.2	3.6	0.00e+00	0	39	104	0	60	123020
2026-01-03 09:09:51.40	344.06	3.95	-54.4	-56.9	3.6	0.00e+00	0	39	104	0	60	118805
2026-01-03 09:09:52.41	344.03	3.87	-54.4	-56.9	3.6	0.00e+00	0	39	104	0	60	117839
2026-01-03 09:09:53.42	344.00	3.80	-54.2	-56.6	3.6	0.00e+00	0	39	104	0	60	114100
2026-01-03 09:09:54.43	343.97	3.72	-53.6	-56.0	3.6	0.00e+00	0	39	104	0	60	106590
2026-01-03 09:09:55.44	343.94	3.65	-54.1	-56.5	3.6	0.00e+00	0	39	104	0	60	113024
2026-01-03 09:09:56.45	343.91	3.57	-53.8	-56.2	3.6	0.00e+00	0	39	104	0	60	109201
2026-01-03 09:09:57.46	343.88	3.50	-54.3	-56.8	3.6	0.00e+00	0	39	104	0	60	117420
2026-01-03 09:09:58.47	343.85	3.42	-53.9	-56.4	3.6	0.00e+00	0	39	104	0	60	111456
2026-01-03 09:09:59.48	343.83	3.35	-54.1	-56.5	3.6	0.00e+00	0	39	104	0	60	113552
2026-01-03 09:10:00.50	343.80	3.28	-54.3	-56.7	3.6	0.00e+00	0	40	104	0	60	115141
2026-01-03 09:10:01.51	343.77	3.20	-54.2	-56.7	3.6	0.00e+00	0	39	104	0	60	115760
2026-01-03 09:10:02.52	343.74	3.13	-53.8	-56.2	3.6	0.00e+00	0	39	104	0	60	109579
2026-01-03 09:10:03.53	343.71	3.06	-53.6	-56.0	3.6	0.00e+00	0	39	104	0	60	107070
2026-01-03 09:10:04.54	343.69	2.98	-53.9	-56.3	3.6	0.00e+00	0	39	104	0	60	110095
2026-01-03 09:10:05.55	343.66	2.91	-54.1	-56.6	3.6	0.00e+00	0	39	104	0	60	113732
2026-01-03 09:10:06.56	343.63	2.84	-53.8	-56.2	3.6	0.00e+00	0	39	104	0	60	109591
2026-01-03 09:10:07.57	343.60	2.77	-53.3	-55.7	3.6	0.00e+00	0	39	104	0	60	103621
2026-01-03 09:10:08.58	343.58	2.70	-53.1	-55.6	3.6	0.00e+00	0	39	104	0	60	101651
2026-01-03 09:10:09.59	343.55	2.62	-53.1	-55.5	3.6	0.00e+00	0	39	104	0	60	101177
2026-01-03 09:10:10.60	343.52	2.55	-53.9	-56.3	3.6	0.00e+00	0	39	104	0	60	110857
2026-01-03 09:10:11.61	343.50	2.48	-54.0	-56.4	3.6	0.00e+00	0	39	104	0	60	111581
2026-01-03 09:10:12.62	343.47	2.41	-54.2	-56.7	3.6	0.00e+00	0	39	104	0	60	115497
2026-01-03 09:10:13.63	343.45	2.34	-53.8	-56.2	3.6	0.00e+00	0	39	104	0	60	109295
2026-01-03 09:10:14.64	343.42	2.27	-53.6	-56.1	3.6	0.00e+00	0	39	104	0	60	107512
2026-01-03 09:10:15.65	343.40	2.20	-53.5	-56.0	3.6	0.00e+00	0	39	104	0	60	106820
2026-01-03 09:10:16.66	343.37	2.13	-54.4	-56.8	3.6	0.00e+00	0	39	104	0	60	116716
2026-01-03 09:10:17.67	343.34	2.06	-54.2	-56.7	3.6	0.00e+00	0	39	104	0	60	116070
2026-01-03 09:10:18.68	343.32	1.99	-53.9	-56.4	3.6	0.00e+00	0	39	104	0	60	111237
2026-01-03 09:10:19.69	343.29	1.92	-54.1	-56.5	3.6	0.00e+00	0	39	104	0	60	113225
2026-01-03 09:10:20.70	343.27	1.85	-54.7	-57.1	3.6	0.00e+00	0	39	104	0	60	120546
2026-01-03 09:10:21.71	343.25	1.79	-54.1	-56.6	3.6	0.00e+00	0	39	104	0	60	113928
2026-01-03 09:10:22.72	343.22	1.72	-53.7	-56.1	3.6	0.00e+00	0	39	104	0	60	108352
2026-01-03 09:10:23.73	343.20	1.65	-54.5	-56.9	3.5	0.00e+00	0	39	104	0	60	118450
2026-01-03 09:10:24.74	343.17	1.58	-54.2	-56.7	3.6	0.00e+00	0	39	104	0	60	115259
2026-01-03 09:10:25.75	343.15	1.51	-53.5	-55.9	3.6	0.00e+00	0	39	104	0	60	105370
2026-01-03 09:10:26.76	343.13	1.45	-54.2	-56.7	3.6	0.00e+00	0	39	104	0	60	116211
2026-01-03 09:10:27.77	343.10	1.38	-54.2	-56.7	3.6	0.00e+00	0	39	104	0	60	115433
2026-01-03 09:10:28.78	343.08	1.31	-54.1	-56.6	3.6	0.00e+00	0	39	104	0	60	113787
2026-01-03 09:10:29.79	343.06	1.24	-54.7	-57.2	3.6	0.00e+00	0	39	104	0	60	122054
2026-01-03 09:10:30.81	343.03	1.18	-55.1	-57.5	3.6	0.00e+00	0	39	104	0	60	127208
2026-01-03 09:10:31.82	343.01	1.11	-55.2	-57.6	3.6	0.00e+00	0	39	104	0	60	128233
2026-01-03 09:10:32.83	342.99	1.04	-54.6	-57.0	3.6	0.00e+00	0	39	104	0	60	119675
2026-01-03 09:10:33.84	342.96	0.98	-54.6	-57.0	3.6	0.00e+00	0	39	104	0	60	120268
2026-01-03 09:10:34.85	342.94	0.91	-53.9	-56.4	3.6	0.00e+00	0	39	104	0	60	111957
2026-01-03 09:10:35.86	342.92	0.84	-54.3	-56.8	3.6	0.00e+00	0	39	104	0	60	116831
2026-01-03 09:10:36.87	342.90	0.78	-54.5	-56.9	3.6	0.00e+00	0	39	104	0	60	118366
2026-01-03 09:10:37.88	342.88	0.71	-55.1	-57.5	3.6	0.00e+00	0	39	104	0	60	126385
2026-01-03 09:10:38.90	342.85	0.65	-53.6	-56.1	3.6	0.00e+00	0	39	104	0	60	107833
2026-01-03 09:10:39.91	342.83	0.58	-53.5	-56.0	3.6	0.00e+00	0	39	104	0	60	107234
2026-01-03 09:10:40.92	342.81	0.52	-53.8	-56.2	3.6	0.00e+00	0	39	104	0	60	109229
2026-01-03 09:10:41.93	342.79	0.45	-54.2	-56.7	3.6	0.00e+00	0	39	104	0	60	116223
2026-01-03 09:10:42.94	342.77	0.39	-53.7	-56.1	3.6	0.00e+00	0	39	104	0	60	108475
2026-01-03 09:10:43.95	342.75	0.32	-53.9	-56.4	3.6	0.00e+00	0	39	104	0	60	111296
2026-01-03 09:10:44.96	342.73	0.26	-53.9	-56.3	3.6	0.00e+00	0	39	104	0	60	110334
2026-01-03 09:10:45.97	342.71	0.19	-53.6	-56.1	3.6	0.00e+00	0	39	104	0	60	107549
2026-01-03 09:10:46.99	342.68	0.13	-53.3	-55.7	3.6	0.00e+00	0	39	104	0	60	103097
2026-01-03 09:10:48.00	342.66	0.06	-54.1	-56.4	3.6	0.00e+00	0	39	104	0	60	112152
2026-01-03 09:10:49.01	342.64	0.00	-53.4	-55.8	3.6	0.00e+00	0	39	104	0	60	104094
2026-01-03 09:10:50.02	342.62	-0.06	-53.3	-55.7	3.6	0.00e+00	0	39	104	0	60	102695
2026-01-03 09:10:51.03	342.60	-0.13	-52.8	-55.2	3.6	0.00e+00	0	39	104	0	60	97713

#Closed at: 2026-01-03 09:10:51
#Recorded file [0 MB]: D:/lorett/data/35034_260103_115907.dat