passes_logs/2026/01/03/R4.6S_Anadyr_2ch/R4.6S_Anadyr_2ch__20260103_011543_2025-108B_rec.log

#Pass ID: 20260103_011543_2025-108B
#Satellite: 2025-108B
#Configuration: 3PB_600M
#almurnet v.1.7.20251203
#Start time: 2026-01-03 01:15:47

#Version: 2.2.20231116
#Station: R4.6S_Anadyr_2ch
#Location: 177.4865 lon 64.73178 lat
#TLE: 1 64088U 25108B   25351.01672131  .00008460  00000+0  43413-3 0  9994
#TLE: 2 64088  97.4940  63.8579 0011684 285.1423  74.8517 15.16717580 31720

#Time	Az	El	Level	Level2	SNR	BER	BlckErr	Temp	State	Recorded	gain1	gain2
2026-01-03 01:15:47.03	17.37	0.21	-52.8	-53.8	3.3	0.00e+00	0	36	0	0	60	82394
2026-01-03 01:15:48.04	17.31	0.27	-52.8	-55.3	3.6	0.00e+00	0	36	104	0	60	98142
2026-01-03 01:15:49.05	17.25	0.33	-52.8	-55.2	3.6	0.00e+00	0	36	104	0	60	97808
2026-01-03 01:15:50.06	17.18	0.39	-52.8	-55.2	3.6	0.00e+00	0	36	104	0	60	97604
2026-01-03 01:15:51.07	17.12	0.45	-52.8	-55.3	3.6	0.00e+00	0	36	104	0	60	98131
2026-01-03 01:15:52.08	17.05	0.51	-52.8	-55.3	3.6	0.00e+00	0	36	104	0	60	97911
2026-01-03 01:15:53.09	16.98	0.57	-52.9	-55.3	3.6	0.00e+00	0	36	104	0	60	98789
2026-01-03 01:15:54.10	16.92	0.63	-52.8	-55.3	3.6	0.00e+00	0	36	104	0	60	97893
2026-01-03 01:15:55.11	16.85	0.69	-52.8	-55.2	3.6	0.00e+00	0	36	104	0	60	97734
2026-01-03 01:15:56.12	16.79	0.75	-52.7	-55.2	3.6	0.00e+00	0	36	104	0	60	97059
2026-01-03 01:15:57.13	16.72	0.81	-52.7	-55.1	3.6	0.00e+00	0	36	104	0	60	96572
2026-01-03 01:15:58.14	16.65	0.87	-52.8	-55.2	3.6	0.00e+00	0	36	104	0	60	97133
2026-01-03 01:15:59.15	16.58	0.93	-52.7	-55.2	3.6	0.00e+00	0	36	104	0	60	96875
2026-01-03 01:16:00.16	16.51	0.99	-52.8	-55.2	3.6	0.00e+00	0	36	104	0	60	96904
2026-01-03 01:16:01.17	16.45	1.05	-52.7	-55.2	3.6	0.00e+00	0	36	104	0	60	97385
2026-01-03 01:16:02.18	16.38	1.11	-52.8	-55.2	3.6	0.00e+00	0	36	104	0	60	97282
2026-01-03 01:16:03.19	16.31	1.18	-52.8	-55.3	3.6	0.00e+00	0	36	104	0	60	98027
2026-01-03 01:16:04.20	16.24	1.24	-52.8	-55.2	3.6	0.00e+00	0	37	104	0	60	97040
2026-01-03 01:16:05.21	16.17	1.30	-52.8	-55.2	3.6	0.00e+00	0	37	104	0	60	97503
2026-01-03 01:16:06.22	16.10	1.36	-52.8	-55.2	3.6	0.00e+00	0	37	104	0	60	97320
2026-01-03 01:16:07.24	16.03	1.42	-52.7	-55.2	3.6	0.00e+00	0	37	104	0	60	97075
2026-01-03 01:16:08.25	15.95	1.49	-52.8	-55.2	3.6	0.00e+00	0	37	104	0	60	97387
2026-01-03 01:16:09.26	15.88	1.55	-52.8	-55.2	3.6	0.00e+00	0	37	104	0	60	96891
2026-01-03 01:16:10.27	15.81	1.61	-52.7	-55.2	3.6	0.00e+00	0	37	104	0	60	96888
2026-01-03 01:16:11.28	15.74	1.67	-52.7	-55.2	3.6	0.00e+00	0	37	104	0	60	96999
2026-01-03 01:16:12.29	15.66	1.74	-52.7	-55.2	3.6	0.00e+00	0	37	104	0	60	97333
2026-01-03 01:16:13.30	15.59	1.80	-52.8	-55.3	3.6	0.00e+00	0	37	104	0	60	97901
2026-01-03 01:16:14.31	15.52	1.86	-52.7	-55.2	3.6	0.00e+00	0	37	104	0	60	97088
2026-01-03 01:16:15.32	15.44	1.93	-52.8	-55.3	3.6	0.00e+00	0	37	104	0	60	97980
2026-01-03 01:16:16.33	15.37	1.99	-52.8	-55.2	3.6	0.00e+00	0	37	104	0	60	97373
2026-01-03 01:16:17.34	15.29	2.05	-52.8	-55.2	3.6	0.00e+00	0	37	104	0	60	97196
2026-01-03 01:16:18.36	15.22	2.12	-52.8	-55.3	3.6	0.00e+00	0	37	104	0	60	97990
2026-01-03 01:16:19.37	15.14	2.18	-52.8	-55.3	3.6	0.00e+00	0	37	104	0	60	98644
2026-01-03 01:16:20.38	15.06	2.24	-52.7	-55.2	3.6	0.00e+00	0	37	104	0	60	96990
2026-01-03 01:16:21.39	14.99	2.31	-52.8	-55.2	3.6	0.00e+00	0	37	104	0	60	97720
2026-01-03 01:16:22.40	14.91	2.37	-52.8	-55.3	3.6	0.00e+00	0	37	104	0	60	97899
2026-01-03 01:16:23.41	14.83	2.44	-52.8	-55.3	3.6	0.00e+00	0	37	104	0	60	98490
2026-01-03 01:16:24.42	14.75	2.50	-52.8	-55.3	3.6	0.00e+00	0	37	104	0	60	97971
2026-01-03 01:16:25.43	14.68	2.57	-52.8	-55.2	3.6	0.00e+00	0	37	104	0	60	97644
2026-01-03 01:16:26.44	14.60	2.63	-52.9	-55.3	3.6	0.00e+00	0	37	104	0	60	98789
2026-01-03 01:16:27.46	14.52	2.70	-52.9	-55.3	3.6	0.00e+00	0	37	104	0	60	98156
2026-01-03 01:16:28.46	14.44	2.76	-52.9	-55.3	3.6	0.00e+00	0	37	104	0	60	98850
2026-01-03 01:16:29.48	14.36	2.83	-52.8	-55.3	3.6	0.00e+00	0	37	104	0	60	97913
2026-01-03 01:16:30.49	14.27	2.89	-52.8	-55.3	3.6	0.00e+00	0	37	104	0	60	97886
2026-01-03 01:16:31.50	14.19	2.96	-52.8	-55.2	3.4	0.00e+00	0	37	104	0	60	97636
2026-01-03 01:16:32.51	14.11	3.02	-52.8	-55.3	3.6	0.00e+00	0	37	104	0	60	98242
2026-01-03 01:16:33.52	14.03	3.09	-52.8	-55.3	3.6	0.00e+00	0	37	104	0	60	98352
2026-01-03 01:16:34.53	13.95	3.16	-52.8	-55.3	3.6	0.00e+00	0	37	104	0	60	98628
2026-01-03 01:16:35.54	13.86	3.22	-52.8	-55.3	3.6	0.00e+00	0	37	104	0	60	98080
2026-01-03 01:16:36.55	13.78	3.29	-52.8	-55.2	3.6	0.00e+00	0	37	104	0	60	97647
2026-01-03 01:16:37.56	13.69	3.35	-52.8	-55.3	3.6	0.00e+00	0	37	104	0	60	98161
2026-01-03 01:16:38.57	13.61	3.42	-52.8	-55.2	3.6	0.00e+00	0	37	104	0	60	97724
2026-01-03 01:16:39.58	13.52	3.49	-52.8	-55.3	3.5	0.00e+00	0	37	104	0	60	98267
2026-01-03 01:16:40.59	13.44	3.55	-52.9	-55.4	3.6	0.00e+00	0	37	104	0	60	99178
2026-01-03 01:16:41.60	13.35	3.62	-52.8	-55.3	3.6	0.00e+00	0	37	104	0	60	98462
2026-01-03 01:16:42.61	13.26	3.69	-52.9	-55.3	3.6	0.00e+00	0	37	104	0	60	98609
2026-01-03 01:16:43.62	13.18	3.76	-52.9	-55.3	3.6	0.00e+00	0	37	104	0	60	98584
2026-01-03 01:16:44.62	13.09	3.82	-52.8	-55.2	3.6	0.00e+00	0	37	104	0	60	97503
2026-01-03 01:16:45.64	13.00	3.89	-52.8	-55.2	3.6	0.00e+00	0	37	104	0	60	97600
2026-01-03 01:16:46.64	12.91	3.96	-52.8	-55.2	3.6	0.00e+00	0	37	104	0	60	97634
2026-01-03 01:16:47.66	12.82	4.03	-52.8	-55.2	3.6	0.00e+00	0	38	104	0	60	97205
2026-01-03 01:16:48.66	12.73	4.09	-52.8	-55.2	3.6	0.00e+00	0	37	104	0	60	97562
2026-01-03 01:16:49.68	12.64	4.16	-52.8	-55.3	3.6	0.00e+00	0	38	104	0	60	98160
2026-01-03 01:16:50.69	12.55	4.23	-52.8	-55.3	3.6	0.00e+00	0	38	104	0	60	98050
2026-01-03 01:16:51.70	12.46	4.30	-52.7	-55.2	3.6	0.00e+00	0	38	104	0	60	97436
2026-01-03 01:16:52.71	12.37	4.37	-52.8	-55.2	3.6	0.00e+00	0	38	104	0	60	97833
2026-01-03 01:16:53.72	12.27	4.44	-52.8	-55.3	3.6	0.00e+00	0	38	104	0	60	98052
2026-01-03 01:16:54.73	12.18	4.51	-52.9	-55.4	3.6	0.00e+00	0	38	104	0	60	99539
2026-01-03 01:16:55.74	12.09	4.58	-52.8	-55.3	3.6	0.00e+00	0	38	104	0	60	98538
2026-01-03 01:16:56.75	11.99	4.65	-52.8	-55.2	3.6	0.00e+00	0	38	104	0	60	97424
2026-01-03 01:16:57.76	11.90	4.72	-52.8	-55.3	3.6	0.00e+00	0	38	104	0	60	98680
2026-01-03 01:16:58.77	11.80	4.79	-52.8	-55.3	3.6	0.00e+00	0	38	104	0	60	97999
2026-01-03 01:16:59.78	11.70	4.86	-52.8	-55.3	3.6	0.00e+00	0	38	104	0	60	98024
2026-01-03 01:17:00.79	11.61	4.93	-52.8	-55.2	3.6	0.00e+00	0	38	104	0	60	96942
2026-01-03 01:17:01.80	11.51	5.00	-52.8	-55.3	3.6	0.00e+00	0	38	104	0	60	97978
2026-01-03 01:17:02.81	11.41	5.07	-52.8	-55.3	3.6	0.00e+00	0	38	104	0	60	98513
2026-01-03 01:17:03.82	11.31	5.14	-52.9	-55.3	3.6	0.00e+00	0	38	104	0	60	98517
2026-01-03 01:17:04.83	11.21	5.21	-52.8	-55.2	3.6	0.00e+00	0	38	104	0	60	97683
2026-01-03 01:17:05.84	11.11	5.28	-52.8	-55.3	3.6	0.00e+00	0	38	104	0	60	98033
2026-01-03 01:17:06.85	11.01	5.35	-52.8	-55.3	3.6	0.00e+00	0	38	104	0	60	98703
2026-01-03 01:17:07.86	10.91	5.42	-52.8	-55.3	3.6	0.00e+00	0	38	104	0	60	98338
2026-01-03 01:17:08.87	10.81	5.50	-52.8	-55.3	3.6	0.00e+00	0	38	104	0	60	98613
2026-01-03 01:17:09.88	10.70	5.57	-52.9	-55.3	3.6	0.00e+00	0	38	104	0	60	98378
2026-01-03 01:17:10.89	10.60	5.64	-52.8	-55.3	3.6	0.00e+00	0	38	104	0	60	98399
2026-01-03 01:17:11.90	10.50	5.71	-52.9	-55.3	3.6	0.00e+00	0	38	104	0	60	98303
2026-01-03 01:17:12.91	10.39	5.78	-52.8	-55.3	3.6	0.00e+00	0	38	104	0	60	97875
2026-01-03 01:17:13.92	10.29	5.86	-52.9	-55.3	3.6	0.00e+00	0	38	104	0	60	98622
2026-01-03 01:17:14.93	10.18	5.93	-52.9	-55.3	3.6	0.00e+00	0	38	104	0	60	98272
2026-01-03 01:17:15.94	10.07	6.00	-52.7	-55.2	3.6	0.00e+00	0	38	104	0	60	97226
2026-01-03 01:17:16.96	9.97	6.08	-52.9	-55.3	3.6	0.00e+00	0	38	104	0	60	98631
2026-01-03 01:17:17.97	9.86	6.15	-52.8	-55.3	3.6	0.00e+00	0	38	104	0	60	98063
2026-01-03 01:17:18.98	9.75	6.22	-52.8	-55.3	3.5	0.00e+00	0	38	104	0	60	97967
2026-01-03 01:17:19.99	9.64	6.30	-52.8	-55.3	3.6	0.00e+00	0	38	104	0	60	98519
2026-01-03 01:17:21.00	9.53	6.37	-52.8	-55.3	3.6	0.00e+00	0	38	104	0	60	98081
2026-01-03 01:17:22.01	9.42	6.45	-52.8	-55.3	3.6	0.00e+00	0	38	104	0	60	97877
2026-01-03 01:17:23.02	9.31	6.52	-52.8	-55.3	3.6	0.00e+00	0	38	104	0	60	98202
2026-01-03 01:17:24.03	9.19	6.59	-52.8	-55.3	3.6	0.00e+00	0	38	104	0	60	97976
2026-01-03 01:17:25.04	9.08	6.67	-52.9	-55.3	3.6	0.00e+00	0	38	104	0	60	98933
2026-01-03 01:17:26.05	8.97	6.74	-52.8	-55.3	3.6	0.00e+00	0	38	104	0	60	98268
2026-01-03 01:17:27.06	8.85	6.82	-52.8	-55.3	3.6	0.00e+00	0	38	104	0	60	98059
2026-01-03 01:17:28.08	8.74	6.89	-52.8	-55.3	3.6	0.00e+00	0	38	104	0	60	98143
2026-01-03 01:17:29.09	8.62	6.97	-52.9	-55.3	3.6	0.00e+00	0	38	104	0	60	98567
2026-01-03 01:17:30.09	8.50	7.05	-52.8	-55.3	3.6	0.00e+00	0	38	104	0	60	98359
2026-01-03 01:17:31.11	8.38	7.12	-52.9	-55.3	3.6	0.00e+00	0	38	104	0	60	98871
2026-01-03 01:17:32.12	8.27	7.20	-52.9	-55.3	3.6	0.00e+00	0	38	104	0	60	98582
2026-01-03 01:17:33.13	8.15	7.27	-52.9	-55.3	3.6	0.00e+00	0	38	104	0	60	98612
2026-01-03 01:17:34.14	8.03	7.35	-52.8	-55.3	3.6	0.00e+00	0	38	104	0	60	97855
2026-01-03 01:17:35.15	7.91	7.43	-52.9	-55.4	3.6	0.00e+00	0	38	104	0	60	99264
2026-01-03 01:17:36.16	7.78	7.50	-52.9	-55.3	3.6	0.00e+00	0	38	104	0	60	98429
2026-01-03 01:17:37.17	7.66	7.58	-52.9	-55.3	3.6	0.00e+00	0	38	104	0	60	98505
2026-01-03 01:17:38.18	7.54	7.66	-52.8	-55.3	3.6	0.00e+00	0	38	104	0	60	97888
2026-01-03 01:17:39.19	7.41	7.74	-52.8	-55.2	3.6	0.00e+00	0	38	104	0	60	97468
2026-01-03 01:17:40.20	7.29	7.81	-52.8	-55.2	3.6	0.00e+00	0	38	104	0	60	97772
2026-01-03 01:17:41.21	7.16	7.89	-52.8	-55.2	3.6	0.00e+00	0	38	104	0	60	97458
2026-01-03 01:17:42.22	7.04	7.97	-52.8	-55.3	3.6	0.00e+00	0	38	104	0	60	98152
2026-01-03 01:17:43.23	6.91	8.05	-52.8	-55.2	3.6	0.00e+00	0	38	104	0	60	97587
2026-01-03 01:17:44.24	6.78	8.13	-52.8	-55.2	3.6	0.00e+00	0	38	104	0	60	97543
2026-01-03 01:17:45.25	6.65	8.20	-52.8	-55.2	3.6	0.00e+00	0	38	104	0	60	97387
2026-01-03 01:17:46.26	6.52	8.28	-52.8	-55.2	3.6	0.00e+00	0	38	104	0	60	96836
2026-01-03 01:17:47.27	6.39	8.36	-52.8	-55.3	3.6	0.00e+00	0	38	104	0	60	97920
2026-01-03 01:17:48.28	6.26	8.44	-52.8	-55.2	3.6	0.00e+00	0	38	104	0	60	97653
2026-01-03 01:17:49.29	6.12	8.52	-52.7	-55.1	3.6	0.00e+00	0	38	104	0	60	96682
2026-01-03 01:17:50.30	5.99	8.60	-52.7	-55.2	3.6	0.00e+00	0	38	104	0	60	97435
2026-01-03 01:17:51.31	5.85	8.68	-52.8	-55.2	3.6	0.00e+00	0	38	104	0	60	97406
2026-01-03 01:17:52.32	5.72	8.76	-52.8	-55.3	3.6	0.00e+00	0	38	104	0	60	97886
2026-01-03 01:17:53.33	5.58	8.84	-52.8	-55.2	3.6	0.00e+00	0	38	104	0	60	97721
2026-01-03 01:17:54.34	5.44	8.92	-52.8	-55.2	3.6	0.00e+00	0	38	104	0	60	97658
2026-01-03 01:17:55.35	5.31	9.00	-52.8	-55.2	3.6	0.00e+00	0	38	104	0	60	97719
2026-01-03 01:17:56.36	5.17	9.08	-52.8	-55.2	3.6	0.00e+00	0	38	104	0	60	97166
2026-01-03 01:17:57.37	5.03	9.16	-52.8	-55.2	3.6	0.00e+00	0	38	104	0	60	97242
2026-01-03 01:17:58.38	4.88	9.24	-52.8	-55.3	3.6	0.00e+00	0	39	104	0	60	98129
2026-01-03 01:17:59.39	4.74	9.33	-52.8	-55.2	3.6	0.00e+00	0	38	104	0	60	97115
2026-01-03 01:18:00.41	4.60	9.41	-52.8	-55.2	3.6	0.00e+00	0	39	104	0	60	96952
2026-01-03 01:18:01.42	4.45	9.49	-52.8	-55.3	3.6	0.00e+00	0	38	104	0	60	97914
2026-01-03 01:18:02.43	4.31	9.57	-52.8	-55.2	3.6	0.00e+00	0	38	104	0	60	97569
2026-01-03 01:18:03.44	4.16	9.65	-52.8	-55.2	3.6	0.00e+00	0	39	104	0	60	97399
2026-01-03 01:18:04.45	4.01	9.74	-52.8	-55.2	3.6	0.00e+00	0	39	104	0	60	97080
2026-01-03 01:18:05.46	3.86	9.82	-52.8	-55.2	3.6	0.00e+00	0	38	104	0	60	97107
2026-01-03 01:18:06.47	3.71	9.90	-52.8	-55.2	3.6	0.00e+00	0	39	104	0	60	97424
2026-01-03 01:18:07.48	3.56	9.99	-52.8	-55.2	3.6	0.00e+00	0	39	104	0	60	97319
2026-01-03 01:18:08.49	3.41	10.07	-52.8	-55.2	3.6	0.00e+00	0	39	104	0	60	97765
2026-01-03 01:18:09.51	3.26	10.15	-52.8	-55.3	3.6	0.00e+00	0	39	104	0	60	98169
2026-01-03 01:18:10.52	3.10	10.24	-52.8	-55.3	3.6	0.00e+00	0	39	104	0	60	98276
2026-01-03 01:18:11.53	2.95	10.32	-52.8	-55.3	3.6	0.00e+00	0	39	104	0	60	97904
2026-01-03 01:18:12.54	2.79	10.40	-52.8	-55.3	3.6	0.00e+00	0	39	104	0	60	98477
2026-01-03 01:18:13.55	2.64	10.49	-52.9	-55.3	3.6	0.00e+00	0	39	104	0	60	98136
2026-01-03 01:18:14.56	2.48	10.57	-52.8	-55.2	3.6	0.00e+00	0	39	104	0	60	97638
2026-01-03 01:18:15.57	2.32	10.66	-52.8	-55.3	3.6	0.00e+00	0	39	104	0	60	98168
2026-01-03 01:18:16.58	2.16	10.74	-52.9	-55.3	3.6	0.00e+00	0	39	104	0	60	98098
2026-01-03 01:18:17.59	2.00	10.83	-52.8	-55.3	3.6	0.00e+00	0	39	104	0	60	97916
2026-01-03 01:18:18.60	1.83	10.91	-52.8	-55.2	3.6	0.00e+00	0	39	104	0	60	97656
2026-01-03 01:18:19.62	1.67	11.00	-52.8	-55.2	3.6	0.00e+00	0	39	104	0	60	97510
2026-01-03 01:18:20.63	1.50	11.08	-52.8	-55.3	3.6	0.00e+00	0	39	104	0	60	98184
2026-01-03 01:18:21.64	1.33	11.17	-52.8	-55.3	3.6	0.00e+00	0	39	104	0	60	98192
2026-01-03 01:18:22.65	1.17	11.26	-52.8	-55.2	3.5	0.00e+00	0	39	104	0	60	97483
2026-01-03 01:18:23.66	1.00	11.34	-52.8	-55.2	3.6	0.00e+00	0	39	104	0	60	97418
2026-01-03 01:18:24.67	0.83	11.43	-52.8	-55.2	3.6	0.00e+00	0	39	104	0	60	97456
2026-01-03 01:18:25.68	0.66	11.51	-52.8	-55.3	3.6	0.00e+00	0	39	104	0	60	98089
2026-01-03 01:18:26.69	0.48	11.60	-52.8	-55.3	3.6	0.00e+00	0	39	104	0	60	98241
2026-01-03 01:18:27.70	0.31	11.69	-52.9	-55.3	3.6	0.00e+00	0	39	104	0	60	98695
2026-01-03 01:18:28.71	0.13	11.77	-52.8	-55.3	3.6	0.00e+00	0	39	104	0	60	97990
2026-01-03 01:18:29.72	359.96	11.86	-52.8	-55.3	3.6	0.00e+00	0	39	104	0	60	98493
2026-01-03 01:18:30.74	359.78	11.95	-52.8	-55.3	3.6	0.00e+00	0	39	104	0	60	97985
2026-01-03 01:18:31.75	359.60	12.04	-52.8	-55.2	3.5	0.00e+00	0	39	104	0	60	97693
2026-01-03 01:18:32.76	359.42	12.12	-52.9	-55.3	3.6	0.00e+00	0	39	104	0	60	98751
2026-01-03 01:18:33.77	359.24	12.21	-52.9	-55.3	3.6	0.00e+00	0	39	104	0	60	98229
2026-01-03 01:18:34.78	359.05	12.30	-52.9	-55.3	3.6	0.00e+00	0	39	104	0	60	97991
2026-01-03 01:18:35.79	358.87	12.39	-52.8	-55.2	3.6	0.00e+00	0	39	104	0	60	97339
2026-01-03 01:18:36.80	358.68	12.48	-52.8	-55.2	3.6	0.00e+00	0	39	104	0	60	97298
2026-01-03 01:18:37.81	358.50	12.56	-52.8	-55.2	3.5	0.00e+00	0	39	104	0	60	97304
2026-01-03 01:18:38.82	358.31	12.65	-52.8	-55.3	3.6	0.00e+00	0	39	104	0	60	97886
2026-01-03 01:18:39.83	358.12	12.74	-52.8	-55.3	3.6	0.00e+00	0	39	104	0	60	97881
2026-01-03 01:18:40.84	357.93	12.83	-52.8	-55.3	3.6	0.00e+00	0	39	104	0	60	98658
2026-01-03 01:18:41.85	357.73	12.92	-52.8	-55.2	3.6	0.00e+00	0	39	104	0	60	97660
2026-01-03 01:18:42.87	357.54	13.01	-52.8	-55.2	3.6	0.00e+00	0	39	104	0	60	97734
2026-01-03 01:18:43.88	357.34	13.10	-52.8	-55.2	3.6	0.00e+00	0	39	104	0	60	97201
2026-01-03 01:18:44.89	357.15	13.19	-52.8	-55.2	3.6	0.00e+00	0	39	104	0	60	96928
2026-01-03 01:18:45.90	356.95	13.28	-52.8	-55.2	3.6	0.00e+00	0	39	104	0	60	97366
2026-01-03 01:18:46.91	356.75	13.37	-52.8	-55.2	3.6	0.00e+00	0	39	104	0	60	97135
2026-01-03 01:18:47.92	356.55	13.46	-52.8	-55.2	3.6	0.00e+00	0	39	104	0	60	97659
2026-01-03 01:18:48.93	356.34	13.55	-52.9	-55.3	3.5	0.00e+00	0	39	104	0	60	98448
2026-01-03 01:18:49.94	356.14	13.64	-52.9	-55.3	3.6	0.00e+00	0	39	104	0	60	98774
2026-01-03 01:18:50.95	355.93	13.73	-52.9	-55.3	3.6	0.00e+00	0	39	104	0	60	98120
2026-01-03 01:18:51.96	355.73	13.82	-52.8	-55.2	3.6	0.00e+00	0	39	104	0	60	97241
2026-01-03 01:18:52.97	355.52	13.91	-52.8	-55.3	3.6	0.00e+00	0	39	104	0	60	97856
2026-01-03 01:18:53.98	355.31	14.00	-52.8	-55.2	3.6	0.00e+00	0	39	104	0	60	97565
2026-01-03 01:18:54.99	355.10	14.09	-52.8	-55.2	3.6	0.00e+00	0	39	104	0	60	97699
2026-01-03 01:18:56.00	354.88	14.18	-52.8	-55.3	3.6	0.00e+00	0	39	104	0	60	98005
2026-01-03 01:18:57.01	354.67	14.27	-52.8	-55.2	3.6	0.00e+00	0	39	104	0	60	97245
2026-01-03 01:18:58.03	354.45	14.36	-52.8	-55.2	3.5	0.00e+00	0	39	104	0	60	97601
2026-01-03 01:18:59.03	354.23	14.45	-52.8	-55.3	3.6	0.00e+00	0	39	104	0	60	98268
2026-01-03 01:19:00.04	354.01	14.54	-52.9	-55.3	3.6	0.00e+00	0	39	104	0	60	98410
2026-01-03 01:19:01.06	353.79	14.63	-52.9	-55.3	3.6	0.00e+00	0	39	104	0	60	98489
2026-01-03 01:19:02.07	353.57	14.73	-52.8	-55.3	3.6	0.00e+00	0	39	104	0	60	97991
2026-01-03 01:19:03.08	353.34	14.82	-52.8	-55.3	3.6	0.00e+00	0	39	104	0	60	97964
2026-01-03 01:19:04.09	353.12	14.91	-52.9	-55.3	3.6	0.00e+00	0	39	104	0	60	98361
2026-01-03 01:19:05.10	352.89	15.00	-52.8	-55.2	3.6	0.00e+00	0	39	104	0	60	97790
2026-01-03 01:19:06.11	352.66	15.09	-52.8	-55.3	3.6	0.00e+00	0	39	104	0	60	98128
2026-01-03 01:19:07.12	352.43	15.18	-52.8	-55.3	3.6	0.00e+00	0	39	104	0	60	97932
2026-01-03 01:19:08.13	352.19	15.27	-52.8	-55.3	3.6	0.00e+00	0	39	104	0	60	98206
2026-01-03 01:19:09.14	351.96	15.36	-52.8	-55.3	3.6	0.00e+00	0	39	104	0	60	98239
2026-01-03 01:19:10.15	351.72	15.46	-52.8	-55.3	3.6	0.00e+00	0	39	104	0	60	98456
2026-01-03 01:19:11.16	351.48	15.55	-52.8	-55.2	3.5	0.00e+00	0	39	104	0	60	97836
2026-01-03 01:19:12.17	351.24	15.64	-52.8	-55.3	3.6	0.00e+00	0	39	104	0	60	98054
2026-01-03 01:19:13.18	351.00	15.73	-52.8	-55.2	3.6	0.00e+00	0	39	104	0	60	97095
2026-01-03 01:19:14.19	350.76	15.82	-52.7	-55.1	3.6	0.00e+00	0	39	104	0	60	96525
2026-01-03 01:19:15.21	350.51	15.91	-52.8	-55.2	3.6	0.00e+00	0	39	104	0	60	97026
2026-01-03 01:19:16.22	350.27	16.00	-52.8	-55.2	3.6	0.00e+00	0	39	104	0	60	97254
2026-01-03 01:19:17.23	350.02	16.09	-52.8	-55.2	3.6	0.00e+00	0	39	104	0	60	97203
2026-01-03 01:19:18.24	349.77	16.19	-52.7	-55.2	3.6	0.00e+00	0	39	104	0	60	97330
2026-01-03 01:19:19.25	349.51	16.28	-52.8	-55.2	3.5	0.00e+00	0	39	104	0	60	97600
2026-01-03 01:19:20.26	349.26	16.37	-52.8	-55.2	3.6	0.00e+00	0	39	104	0	60	97290
2026-01-03 01:19:21.27	349.00	16.46	-52.9	-55.3	3.6	0.00e+00	0	39	104	0	60	98834
2026-01-03 01:19:22.28	348.75	16.55	-52.8	-55.3	3.6	0.00e+00	0	39	104	0	60	98114
2026-01-03 01:19:23.29	348.49	16.64	-52.8	-55.2	3.6	0.00e+00	0	39	104	0	60	97739
2026-01-03 01:19:24.30	348.23	16.73	-52.8	-55.2	3.6	0.00e+00	0	39	104	0	60	97658
2026-01-03 01:19:25.31	347.96	16.82	-52.8	-55.2	3.6	0.00e+00	0	39	104	0	60	97439
2026-01-03 01:19:26.32	347.70	16.91	-52.8	-55.3	3.6	0.00e+00	0	39	104	0	60	98058
2026-01-03 01:19:27.34	347.43	17.00	-52.9	-55.3	3.6	0.00e+00	0	39	104	0	60	98493
2026-01-03 01:19:28.35	347.16	17.09	-52.9	-55.3	3.6	0.00e+00	0	39	104	0	60	98367
2026-01-03 01:19:29.36	346.89	17.18	-52.9	-55.4	3.6	0.00e+00	0	39	104	0	60	99011
2026-01-03 01:19:30.37	346.61	17.27	-52.9	-55.3	3.6	0.00e+00	0	39	104	0	60	98387
2026-01-03 01:19:31.38	346.34	17.36	-52.8	-55.3	3.6	0.00e+00	0	39	104	0	60	98454
2026-01-03 01:19:32.39	346.06	17.45	-52.8	-55.3	3.6	0.00e+00	0	39	104	0	60	97915
2026-01-03 01:19:33.40	345.79	17.54	-52.8	-55.3	3.6	0.00e+00	0	39	104	0	60	98227
2026-01-03 01:19:34.41	345.50	17.63	-52.8	-55.2	3.6	0.00e+00	0	39	104	0	60	97332
2026-01-03 01:19:35.42	345.22	17.72	-52.8	-55.2	3.6	0.00e+00	0	39	104	0	60	97742
2026-01-03 01:19:36.43	344.94	17.80	-52.8	-55.2	3.6	0.00e+00	0	39	104	0	60	97200
2026-01-03 01:19:37.45	344.65	17.89	-52.7	-55.2	3.6	0.00e+00	0	39	104	0	60	96966
2026-01-03 01:19:38.45	344.36	17.98	-52.8	-55.3	3.6	0.00e+00	0	39	104	0	60	98212
2026-01-03 01:19:39.47	344.07	18.07	-52.9	-55.3	3.6	0.00e+00	0	39	104	0	60	98456
2026-01-03 01:19:40.47	343.78	18.16	-52.9	-55.3	3.6	0.00e+00	0	39	104	0	60	98403
2026-01-03 01:19:41.49	343.48	18.24	-52.8	-55.2	3.6	0.00e+00	0	39	104	0	60	97465
2026-01-03 01:19:42.49	343.19	18.33	-52.8	-55.2	3.6	0.00e+00	0	39	104	0	60	97753
2026-01-03 01:19:43.50	342.89	18.42	-52.9	-55.3	3.6	0.00e+00	0	39	104	0	60	98977
2026-01-03 01:19:44.52	342.59	18.50	-52.9	-55.3	3.6	0.00e+00	0	39	104	0	60	97998
2026-01-03 01:19:45.53	342.29	18.59	-52.8	-55.3	3.6	0.00e+00	0	39	104	0	60	97937
2026-01-03 01:19:46.54	341.99	18.67	-52.8	-55.3	3.6	0.00e+00	0	39	104	0	60	98042
2026-01-03 01:19:47.55	341.68	18.76	-52.8	-55.2	3.6	0.00e+00	0	39	104	0	60	97773
2026-01-03 01:19:48.56	341.37	18.84	-52.8	-55.3	3.6	0.00e+00	0	39	104	0	60	98169
2026-01-03 01:19:49.57	341.06	18.93	-52.8	-55.2	3.6	0.00e+00	0	39	104	0	60	97540
2026-01-03 01:19:50.58	340.75	19.01	-52.9	-55.3	3.6	0.00e+00	0	39	104	0	60	98272
2026-01-03 01:19:51.59	340.44	19.09	-52.8	-55.3	3.6	0.00e+00	0	39	104	0	60	98380
2026-01-03 01:19:52.60	340.12	19.18	-52.9	-55.3	3.6	0.00e+00	0	39	104	0	60	98603
2026-01-03 01:19:53.61	339.80	19.26	-52.8	-55.3	3.6	0.00e+00	0	39	104	0	60	97980
2026-01-03 01:19:54.62	339.48	19.34	-52.9	-55.3	3.6	0.00e+00	0	39	104	0	60	98717
2026-01-03 01:19:55.63	339.16	19.42	-52.8	-55.2	3.6	0.00e+00	0	39	104	0	60	97639
2026-01-03 01:19:56.64	338.84	19.50	-52.8	-55.2	3.6	0.00e+00	0	39	104	0	60	97446
2026-01-03 01:19:57.66	338.51	19.58	-52.9	-55.3	3.6	0.00e+00	0	39	104	0	60	98632
2026-01-03 01:19:58.67	338.18	19.66	-52.9	-55.3	3.6	0.00e+00	0	39	104	0	60	98377
2026-01-03 01:19:59.68	337.85	19.74	-52.9	-55.3	3.6	0.00e+00	0	39	104	0	60	98539
2026-01-03 01:20:00.69	337.52	19.82	-52.8	-55.2	3.6	0.00e+00	0	39	104	0	60	97656
2026-01-03 01:20:01.70	337.19	19.90	-52.9	-55.3	3.6	0.00e+00	0	39	104	0	60	98772
2026-01-03 01:20:02.71	336.85	19.98	-52.8	-55.3	3.6	0.00e+00	0	39	104	0	60	98337
2026-01-03 01:20:03.72	336.51	20.05	-52.9	-55.4	3.6	0.00e+00	0	39	104	0	60	99345
2026-01-03 01:20:04.73	336.17	20.13	-52.9	-55.4	3.6	0.00e+00	0	39	104	0	60	99077
2026-01-03 01:20:05.74	335.83	20.20	-52.9	-55.4	3.6	0.00e+00	0	39	104	0	60	99119
2026-01-03 01:20:06.75	335.49	20.28	-52.9	-55.3	3.6	0.00e+00	0	39	104	0	60	98528
2026-01-03 01:20:07.76	335.14	20.35	-52.9	-55.3	3.6	0.00e+00	0	39	104	0	60	98760
2026-01-03 01:20:08.78	334.79	20.43	-52.8	-55.3	3.6	0.00e+00	0	39	104	0	60	98000
2026-01-03 01:20:09.79	334.44	20.50	-52.9	-55.3	3.6	0.00e+00	0	39	104	0	60	98932
2026-01-03 01:20:10.80	334.09	20.57	-52.9	-55.4	3.6	0.00e+00	0	39	104	0	60	99211
2026-01-03 01:20:11.81	333.74	20.64	-52.9	-55.4	3.6	0.00e+00	0	39	104	0	60	99146
2026-01-03 01:20:12.82	333.39	20.71	-52.8	-55.3	3.6	0.00e+00	0	39	104	0	60	97943
2026-01-03 01:20:13.83	333.03	20.78	-52.8	-55.2	3.6	0.00e+00	0	39	104	0	60	97849
2026-01-03 01:20:14.84	332.67	20.85	-52.7	-55.2	3.6	0.00e+00	0	39	104	0	60	97341
2026-01-03 01:20:15.85	332.31	20.92	-52.8	-55.3	3.6	0.00e+00	0	39	104	0	60	98182
2026-01-03 01:20:16.87	331.95	20.99	-52.8	-55.2	3.6	0.00e+00	0	39	104	0	60	97457
2026-01-03 01:20:17.88	331.58	21.05	-52.8	-55.3	3.6	0.00e+00	0	39	104	0	60	98055
2026-01-03 01:20:18.89	331.22	21.12	-52.8	-55.3	3.6	0.00e+00	0	39	104	0	60	98412
2026-01-03 01:20:19.90	330.85	21.18	-52.8	-55.3	3.6	0.00e+00	0	39	104	0	60	98062
2026-01-03 01:20:20.91	330.48	21.24	-52.9	-55.4	3.6	0.00e+00	0	39	104	0	60	99106
2026-01-03 01:20:21.92	330.11	21.31	-53.0	-55.5	3.6	0.00e+00	0	39	104	0	60	100166
2026-01-03 01:20:22.93	329.74	21.37	-53.0	-55.5	3.6	0.00e+00	0	39	104	0	60	100560
2026-01-03 01:20:23.95	329.36	21.43	-52.9	-55.3	3.6	0.00e+00	0	39	104	0	60	98482
2026-01-03 01:20:24.96	328.98	21.49	-52.7	-55.1	3.6	0.00e+00	0	39	104	0	60	96641
2026-01-03 01:20:25.97	328.61	21.55	-52.8	-55.3	3.6	0.00e+00	0	39	104	0	60	98047
2026-01-03 01:20:26.98	328.23	21.60	-52.8	-55.2	3.6	0.00e+00	0	39	104	0	60	97725
2026-01-03 01:20:27.99	327.85	21.66	-52.8	-55.3	3.6	0.00e+00	0	39	104	0	60	98238
2026-01-03 01:20:29.00	327.46	21.71	-52.8	-55.2	3.6	0.00e+00	0	39	104	0	60	97780
2026-01-03 01:20:30.01	327.08	21.77	-52.9	-55.3	3.6	0.00e+00	0	39	104	0	60	98034
2026-01-03 01:20:31.02	326.70	21.82	-52.8	-55.2	3.6	0.00e+00	0	39	104	0	60	97469
2026-01-03 01:20:32.03	326.31	21.87	-52.9	-55.3	3.6	0.00e+00	0	39	104	0	60	98506
2026-01-03 01:20:33.04	325.92	21.92	-52.9	-55.3	3.6	0.00e+00	0	39	104	0	60	98630
2026-01-03 01:20:34.05	325.53	21.97	-52.8	-55.3	3.6	0.00e+00	0	39	104	0	60	98261
2026-01-03 01:20:35.07	325.14	22.02	-52.9	-55.3	3.6	0.00e+00	0	39	104	0	60	98484
2026-01-03 01:20:36.08	324.74	22.07	-52.8	-55.3	3.6	0.00e+00	0	39	104	0	60	98437
2026-01-03 01:20:37.09	324.35	22.12	-52.8	-55.2	3.6	0.00e+00	0	39	104	0	60	97479
2026-01-03 01:20:38.10	323.95	22.16	-52.9	-55.4	3.6	0.00e+00	0	39	104	0	60	99986
2026-01-03 01:20:39.11	323.56	22.20	-52.9	-55.3	3.6	0.00e+00	0	39	104	0	60	98884
2026-01-03 01:20:40.12	323.16	22.25	-53.0	-55.4	3.6	0.00e+00	0	39	104	0	60	99361
2026-01-03 01:20:41.13	322.76	22.29	-52.8	-55.3	3.6	0.00e+00	0	39	104	0	60	97879
2026-01-03 01:20:42.14	322.36	22.33	-52.8	-55.3	3.6	0.00e+00	0	39	104	0	60	98030
2026-01-03 01:20:43.15	321.96	22.36	-53.0	-55.4	3.6	0.00e+00	0	39	104	0	60	99753
2026-01-03 01:20:44.16	321.56	22.40	-52.9	-55.3	3.6	0.00e+00	0	39	104	0	60	98834
2026-01-03 01:20:45.17	321.15	22.44	-52.8	-55.2	3.6	0.00e+00	0	39	104	0	60	97347
2026-01-03 01:20:46.18	320.75	22.47	-52.9	-55.3	3.6	0.00e+00	0	39	104	0	60	98257
2026-01-03 01:20:47.19	320.34	22.51	-52.9	-55.3	3.6	0.00e+00	0	39	104	0	60	98610
2026-01-03 01:20:48.21	319.93	22.54	-53.0	-55.4	3.6	0.00e+00	0	39	104	0	60	99952
2026-01-03 01:20:49.22	319.53	22.57	-53.1	-55.5	3.6	0.00e+00	0	39	104	0	60	100450
2026-01-03 01:20:50.23	319.12	22.60	-52.9	-55.3	3.6	0.00e+00	0	39	104	0	60	98654
2026-01-03 01:20:51.24	318.71	22.62	-52.8	-55.3	3.6	0.00e+00	0	39	104	0	60	98062
2026-01-03 01:20:52.25	318.30	22.65	-52.9	-55.4	3.6	0.00e+00	0	39	104	0	60	99059
2026-01-03 01:20:53.26	317.89	22.68	-52.9	-55.4	3.6	0.00e+00	0	39	104	0	60	99525
2026-01-03 01:20:54.27	317.48	22.70	-52.9	-55.4	3.6	0.00e+00	0	39	104	0	60	99041
2026-01-03 01:20:55.28	317.07	22.72	-52.8	-55.3	3.6	0.00e+00	0	39	104	0	60	98100
2026-01-03 01:20:56.29	316.65	22.74	-52.9	-55.3	3.5	0.00e+00	0	39	104	0	60	98817
2026-01-03 01:20:57.30	316.24	22.76	-53.0	-55.4	3.6	0.00e+00	0	39	104	0	60	99961
2026-01-03 01:20:58.31	315.82	22.78	-53.0	-55.5	3.5	0.00e+00	0	39	104	0	60	100699
2026-01-03 01:20:59.32	315.41	22.80	-52.8	-55.3	3.6	0.00e+00	0	39	104	0	60	98106
2026-01-03 01:21:00.34	314.99	22.81	-52.9	-55.3	3.6	0.00e+00	0	39	104	0	60	98806
2026-01-03 01:21:01.35	314.58	22.82	-53.1	-55.5	3.6	0.00e+00	0	39	104	0	60	101263
2026-01-03 01:21:02.36	314.16	22.84	-53.0	-55.4	3.6	0.00e+00	0	39	104	0	60	99601
2026-01-03 01:21:03.37	313.74	22.85	-52.9	-55.3	3.6	0.00e+00	0	39	104	0	60	98636
2026-01-03 01:21:04.38	313.33	22.86	-53.0	-55.5	3.6	0.00e+00	0	39	104	0	60	100239
2026-01-03 01:21:05.39	312.91	22.86	-52.9	-55.4	3.6	0.00e+00	0	39	104	0	60	99083
2026-01-03 01:21:06.40	312.49	22.87	-52.9	-55.3	3.6	0.00e+00	0	39	104	0	60	98736
2026-01-03 01:21:07.42	312.07	22.87	-52.9	-55.3	3.6	0.00e+00	0	39	104	0	60	98948
2026-01-03 01:21:08.42	311.66	22.88	-52.9	-55.3	3.6	0.00e+00	0	39	104	0	60	98514
2026-01-03 01:21:09.43	311.24	22.88	-53.1	-55.5	3.6	0.00e+00	0	39	104	0	60	100383
2026-01-03 01:21:10.45	310.82	22.88	-52.9	-55.4	3.6	0.00e+00	0	39	104	0	60	99220
2026-01-03 01:21:11.46	310.40	22.88	-52.9	-55.4	3.6	0.00e+00	0	39	104	0	60	99181
2026-01-03 01:21:12.47	309.98	22.87	-52.9	-55.3	3.6	0.00e+00	0	39	104	0	60	98459
2026-01-03 01:21:13.48	309.57	22.87	-53.0	-55.5	3.6	0.00e+00	0	39	104	0	60	100183
2026-01-03 01:21:14.49	309.15	22.86	-52.9	-55.3	3.6	0.00e+00	0	39	104	0	60	98915
2026-01-03 01:21:15.50	308.73	22.86	-52.9	-55.4	3.6	0.00e+00	0	39	104	0	60	99118
2026-01-03 01:21:16.51	308.31	22.85	-52.9	-55.4	3.6	0.00e+00	0	39	104	0	60	99022
2026-01-03 01:21:17.52	307.90	22.84	-53.0	-55.4	3.6	0.00e+00	0	39	104	0	60	100113
2026-01-03 01:21:18.53	307.48	22.83	-53.0	-55.4	3.6	0.00e+00	0	39	104	0	60	99770
2026-01-03 01:21:19.54	307.07	22.81	-52.9	-55.4	3.6	0.00e+00	0	39	104	0	60	99581
2026-01-03 01:21:20.56	306.65	22.80	-52.9	-55.3	3.6	0.00e+00	0	39	104	0	60	98681
2026-01-03 01:21:21.57	306.23	22.78	-52.9	-55.4	3.6	0.00e+00	0	39	104	0	60	99355
2026-01-03 01:21:22.58	305.82	22.76	-52.9	-55.3	3.6	0.00e+00	0	39	104	0	60	98529
2026-01-03 01:21:23.59	305.40	22.75	-52.9	-55.3	3.6	0.00e+00	0	39	104	0	60	98187
2026-01-03 01:21:24.60	304.99	22.73	-52.9	-55.3	3.6	0.00e+00	0	39	104	0	60	98557
2026-01-03 01:21:25.61	304.57	22.70	-52.9	-55.3	3.6	0.00e+00	0	39	104	0	60	98470
2026-01-03 01:21:26.62	304.16	22.68	-52.9	-55.4	3.6	0.00e+00	0	39	104	0	60	99100
2026-01-03 01:21:27.63	303.75	22.66	-52.9	-55.4	3.6	0.00e+00	0	39	104	0	60	99048
2026-01-03 01:21:28.64	303.34	22.63	-53.0	-55.4	3.6	0.00e+00	0	39	104	0	60	99576
2026-01-03 01:21:29.65	302.93	22.60	-52.8	-55.3	3.6	0.00e+00	0	39	104	0	60	98576
2026-01-03 01:21:30.66	302.52	22.57	-53.0	-55.5	3.6	0.00e+00	0	39	104	0	60	100285
2026-01-03 01:21:31.68	302.11	22.54	-53.0	-55.4	3.6	0.00e+00	0	39	104	0	60	99944
2026-01-03 01:21:32.69	301.70	22.51	-53.0	-55.5	3.6	0.00e+00	0	39	104	0	60	100533
2026-01-03 01:21:33.70	301.29	22.48	-53.0	-55.4	3.6	0.00e+00	0	39	104	0	60	99878
2026-01-03 01:21:34.71	300.89	22.44	-52.9	-55.3	3.6	0.00e+00	0	39	104	0	60	98272
2026-01-03 01:21:35.72	300.48	22.41	-52.8	-55.3	3.6	0.00e+00	0	39	104	0	60	98171
2026-01-03 01:21:36.73	300.08	22.37	-52.9	-55.3	3.6	0.00e+00	0	39	104	0	60	98617
2026-01-03 01:21:37.74	299.68	22.33	-52.9	-55.3	3.6	0.00e+00	0	39	104	0	60	98172
2026-01-03 01:21:38.75	299.27	22.29	-52.9	-55.3	3.6	0.00e+00	0	39	104	0	60	98954
2026-01-03 01:21:39.76	298.87	22.25	-52.9	-55.4	3.6	0.00e+00	0	39	104	0	60	99093
2026-01-03 01:21:40.77	298.48	22.21	-52.9	-55.4	3.6	0.00e+00	0	39	104	0	60	99833
2026-01-03 01:21:41.78	298.08	22.17	-52.9	-55.3	3.6	0.00e+00	0	39	104	0	60	98475
2026-01-03 01:21:42.80	297.68	22.12	-52.8	-55.3	3.6	0.00e+00	0	39	104	0	60	98127
2026-01-03 01:21:43.80	297.29	22.08	-53.0	-55.4	3.6	0.00e+00	0	39	104	0	60	99416
2026-01-03 01:21:44.82	296.89	22.03	-53.0	-55.4	3.6	0.00e+00	0	39	104	0	60	99657
2026-01-03 01:21:45.83	296.49	21.98	-52.8	-55.3	3.6	0.00e+00	0	39	104	0	60	98283
2026-01-03 01:21:46.84	296.10	21.93	-53.0	-55.5	3.6	0.00e+00	0	39	104	0	60	100714
2026-01-03 01:21:47.85	295.71	21.88	-53.0	-55.4	3.6	0.00e+00	0	39	104	0	60	99322
2026-01-03 01:21:48.86	295.32	21.83	-53.0	-55.4	3.6	0.00e+00	0	39	104	0	60	99991
2026-01-03 01:21:49.87	294.94	21.77	-52.9	-55.3	3.6	0.00e+00	0	39	104	0	60	98843
2026-01-03 01:21:50.88	294.55	21.72	-52.9	-55.3	3.6	0.00e+00	0	39	104	0	60	98793
2026-01-03 01:21:51.89	294.17	21.66	-53.0	-55.5	3.6	0.00e+00	0	39	104	0	60	100391
2026-01-03 01:21:52.90	293.78	21.61	-52.9	-55.3	3.6	0.00e+00	0	39	104	0	60	98776
2026-01-03 01:21:53.91	293.40	21.55	-52.9	-55.4	3.6	0.00e+00	0	39	104	0	60	99376
2026-01-03 01:21:54.92	293.02	21.49	-53.0	-55.4	3.6	0.00e+00	0	39	104	0	60	99950
2026-01-03 01:21:55.93	292.65	21.43	-52.9	-55.4	3.6	0.00e+00	0	39	104	0	60	99080
2026-01-03 01:21:56.95	292.27	21.37	-52.9	-55.3	3.6	0.00e+00	0	39	104	0	60	98957
2026-01-03 01:21:57.96	291.89	21.31	-52.9	-55.4	3.6	0.00e+00	0	39	104	0	60	99181
2026-01-03 01:21:58.97	291.52	21.25	-52.9	-55.3	3.6	0.00e+00	0	39	104	0	60	98580
2026-01-03 01:21:59.98	291.15	21.18	-52.9	-55.3	3.6	0.00e+00	0	39	104	0	60	98330
2026-01-03 01:22:00.99	290.78	21.12	-53.0	-55.4	3.6	0.00e+00	0	39	104	0	60	100014
2026-01-03 01:22:02.00	290.41	21.06	-52.9	-55.3	3.6	0.00e+00	0	39	104	0	60	98205
2026-01-03 01:22:03.01	290.04	20.99	-52.9	-55.3	3.6	0.00e+00	0	39	104	0	60	98341
2026-01-03 01:22:04.02	289.68	20.92	-52.9	-55.4	3.6	0.00e+00	0	39	104	0	60	98999
2026-01-03 01:22:05.03	289.32	20.85	-53.0	-55.4	3.6	0.00e+00	0	39	104	0	60	99703
2026-01-03 01:22:06.05	288.95	20.78	-52.9	-55.4	3.6	0.00e+00	0	39	104	0	60	99233
2026-01-03 01:22:07.06	288.60	20.71	-52.9	-55.4	3.6	0.00e+00	0	39	104	0	60	99000
2026-01-03 01:22:08.07	288.24	20.64	-52.9	-55.4	3.6	0.00e+00	0	39	104	0	60	99164
2026-01-03 01:22:09.08	287.88	20.57	-52.9	-55.4	3.6	0.00e+00	0	39	104	0	60	99343
2026-01-03 01:22:10.09	287.53	20.50	-52.8	-55.2	3.6	0.00e+00	0	39	104	0	60	97679
2026-01-03 01:22:11.10	287.18	20.43	-52.9	-55.4	3.6	0.00e+00	0	39	104	0	60	99014
2026-01-03 01:22:12.11	286.83	20.35	-52.9	-55.4	3.6	0.00e+00	0	39	104	0	60	99494
2026-01-03 01:22:13.12	286.48	20.28	-53.0	-55.4	3.6	0.00e+00	0	39	104	0	60	99791
2026-01-03 01:22:14.13	286.14	20.20	-52.9	-55.3	3.6	0.00e+00	0	39	104	0	60	98557
2026-01-03 01:22:15.14	285.79	20.13	-53.1	-55.6	3.6	0.00e+00	0	39	104	0	60	101647
2026-01-03 01:22:16.15	285.45	20.05	-53.1	-55.5	3.5	0.00e+00	0	39	104	0	60	100865
2026-01-03 01:22:17.16	285.11	19.98	-53.0	-55.5	3.6	0.00e+00	0	39	104	0	60	100442
2026-01-03 01:22:18.17	284.77	19.90	-53.1	-55.5	3.6	0.00e+00	0	39	104	0	60	100878
2026-01-03 01:22:19.18	284.44	19.82	-53.0	-55.4	3.6	0.00e+00	0	39	104	0	60	99580
2026-01-03 01:22:20.20	284.10	19.74	-53.0	-55.4	3.6	0.00e+00	0	39	104	0	60	99620
2026-01-03 01:22:21.21	283.77	19.66	-53.0	-55.5	3.6	0.00e+00	0	39	104	0	60	100542
2026-01-03 01:22:22.22	283.44	19.58	-53.1	-55.6	3.5	0.00e+00	0	39	104	0	60	101465
2026-01-03 01:22:23.23	283.11	19.50	-53.0	-55.5	3.6	0.00e+00	0	39	104	0	60	100650
2026-01-03 01:22:24.24	282.78	19.42	-53.0	-55.5	3.6	0.00e+00	0	39	104	0	60	100407
2026-01-03 01:22:25.25	282.46	19.34	-53.0	-55.4	3.6	0.00e+00	0	39	104	0	60	99282
2026-01-03 01:22:26.26	282.14	19.25	-52.9	-55.3	3.6	0.00e+00	0	39	104	0	60	98641
2026-01-03 01:22:27.27	281.81	19.17	-52.8	-55.3	3.6	0.00e+00	0	39	104	0	60	98629
2026-01-03 01:22:28.28	281.50	19.09	-53.0	-55.4	3.6	0.00e+00	0	39	104	0	60	99732
2026-01-03 01:22:29.29	281.18	19.00	-53.0	-55.4	3.6	0.00e+00	0	39	104	0	60	99640
2026-01-03 01:22:30.30	280.87	18.92	-53.0	-55.4	3.6	0.00e+00	0	39	104	0	60	99948
2026-01-03 01:22:31.31	280.55	18.83	-52.9	-55.3	3.6	0.00e+00	0	39	104	0	60	98876
2026-01-03 01:22:32.32	280.24	18.75	-53.1	-55.5	3.5	0.00e+00	0	39	104	0	60	100439
2026-01-03 01:22:33.33	279.93	18.66	-53.0	-55.4	3.6	0.00e+00	0	39	104	0	60	99933
2026-01-03 01:22:34.34	279.63	18.58	-53.0	-55.4	3.6	0.00e+00	0	39	104	0	60	99885
2026-01-03 01:22:35.35	279.32	18.49	-52.9	-55.3	3.6	0.00e+00	0	39	104	0	60	98883
2026-01-03 01:22:36.37	279.02	18.40	-53.1	-55.5	3.6	0.00e+00	0	39	104	0	60	101133
2026-01-03 01:22:37.38	278.72	18.32	-53.1	-55.5	3.6	0.00e+00	0	39	104	0	60	100717
2026-01-03 01:22:38.39	278.42	18.23	-53.0	-55.4	3.6	0.00e+00	0	39	104	0	60	99745
2026-01-03 01:22:39.40	278.12	18.14	-53.0	-55.5	3.6	0.00e+00	0	39	104	0	60	100189
2026-01-03 01:22:40.41	277.83	18.05	-53.1	-55.6	3.6	0.00e+00	0	39	104	0	60	101338
2026-01-03 01:22:41.42	277.54	17.96	-53.0	-55.4	3.6	0.00e+00	0	39	104	0	60	100108
2026-01-03 01:22:42.43	277.24	17.88	-52.9	-55.3	3.6	0.00e+00	0	39	104	0	60	98633
2026-01-03 01:22:43.44	276.96	17.79	-52.8	-55.2	3.6	0.00e+00	0	39	104	0	60	97304
2026-01-03 01:22:44.45	276.67	17.70	-52.8	-55.3	3.6	0.00e+00	0	39	104	0	60	98120
2026-01-03 01:22:45.46	276.38	17.61	-52.9	-55.4	3.6	0.00e+00	0	39	104	0	60	99256
2026-01-03 01:22:46.47	276.10	17.52	-53.0	-55.5	3.6	0.00e+00	0	39	104	0	60	100223
2026-01-03 01:22:47.48	275.82	17.43	-53.0	-55.4	3.6	0.00e+00	0	39	104	0	60	99721
2026-01-03 01:22:48.50	275.54	17.34	-52.9	-55.4	3.6	0.00e+00	0	39	104	0	60	99310
2026-01-03 01:22:49.51	275.26	17.25	-53.0	-55.4	3.6	0.00e+00	0	39	104	0	60	99665
2026-01-03 01:22:50.52	274.99	17.16	-52.9	-55.3	3.6	0.00e+00	0	39	104	0	60	98784
2026-01-03 01:22:51.53	274.71	17.07	-53.0	-55.4	3.6	0.00e+00	0	39	104	0	60	99509
2026-01-03 01:22:52.54	274.44	16.98	-53.0	-55.5	3.6	0.00e+00	0	39	104	0	60	100360
2026-01-03 01:22:53.55	274.17	16.89	-53.0	-55.4	3.6	0.00e+00	0	39	104	0	60	100086
2026-01-03 01:22:54.56	273.90	16.79	-53.0	-55.5	3.6	0.00e+00	0	39	104	0	60	100286
2026-01-03 01:22:55.57	273.64	16.70	-52.9	-55.3	3.6	0.00e+00	0	39	104	0	60	98533
2026-01-03 01:22:56.58	273.37	16.61	-52.9	-55.3	3.6	0.00e+00	0	39	104	0	60	98692
2026-01-03 01:22:57.59	273.11	16.52	-52.9	-55.3	3.6	0.00e+00	0	39	104	0	60	98905
2026-01-03 01:22:58.60	272.85	16.43	-53.0	-55.5	3.6	0.00e+00	0	39	104	0	60	100167
2026-01-03 01:22:59.62	272.59	16.34	-53.0	-55.5	3.6	0.00e+00	0	39	104	0	60	100561
2026-01-03 01:23:00.63	272.33	16.24	-53.0	-55.5	3.6	0.00e+00	0	39	104	0	60	100631
2026-01-03 01:23:01.64	272.08	16.15	-52.9	-55.4	3.6	0.00e+00	0	39	104	0	60	99595
2026-01-03 01:23:02.65	271.83	16.06	-53.0	-55.4	3.6	0.00e+00	0	39	104	0	60	99913
2026-01-03 01:23:03.66	271.58	15.97	-53.0	-55.4	3.6	0.00e+00	0	39	104	0	60	99742
2026-01-03 01:23:04.67	271.33	15.88	-53.0	-55.4	3.6	0.00e+00	0	39	104	0	60	100081
2026-01-03 01:23:05.68	271.08	15.78	-53.0	-55.5	3.6	0.00e+00	0	39	104	0	60	100373
2026-01-03 01:23:06.69	270.83	15.69	-53.0	-55.4	3.6	0.00e+00	0	39	104	0	60	100100
2026-01-03 01:23:07.70	270.59	15.60	-52.9	-55.3	3.6	0.00e+00	0	39	104	0	60	98778
2026-01-03 01:23:08.71	270.35	15.51	-52.9	-55.3	3.6	0.00e+00	0	39	104	0	60	98931
2026-01-03 01:23:09.72	270.11	15.42	-52.9	-55.3	3.6	0.00e+00	0	39	104	0	60	98822
2026-01-03 01:23:10.74	269.87	15.32	-52.9	-55.3	3.6	0.00e+00	0	39	104	0	60	98629
2026-01-03 01:23:11.75	269.63	15.23	-53.0	-55.4	3.6	0.00e+00	0	39	104	0	60	99905
2026-01-03 01:23:12.76	269.39	15.14	-52.9	-55.3	3.6	0.00e+00	0	39	104	0	60	98779
2026-01-03 01:23:13.77	269.16	15.05	-52.9	-55.3	3.6	0.00e+00	0	39	104	0	60	98699
2026-01-03 01:23:14.78	268.93	14.95	-52.9	-55.3	3.6	0.00e+00	0	39	104	0	60	98608
2026-01-03 01:23:15.79	268.70	14.86	-52.8	-55.3	3.6	0.00e+00	0	39	104	0	60	97996
2026-01-03 01:23:16.80	268.47	14.77	-52.8	-55.2	3.6	0.00e+00	0	39	104	0	60	97263
2026-01-03 01:23:17.81	268.24	14.68	-52.9	-55.3	3.6	0.00e+00	0	39	104	0	60	98167
2026-01-03 01:23:18.82	268.02	14.59	-52.8	-55.2	3.6	0.00e+00	0	39	104	0	60	97292
2026-01-03 01:23:19.83	267.79	14.49	-52.8	-55.2	3.6	0.00e+00	0	39	104	0	60	97461
2026-01-03 01:23:20.84	267.57	14.40	-52.9	-55.3	3.6	0.00e+00	0	39	104	0	60	98975
2026-01-03 01:23:21.85	267.35	14.31	-52.9	-55.4	3.6	0.00e+00	0	39	104	0	60	99223
2026-01-03 01:23:22.86	267.13	14.22	-52.9	-55.4	3.6	0.00e+00	0	39	104	0	60	99079
2026-01-03 01:23:23.87	266.91	14.13	-52.8	-55.2	3.6	0.00e+00	0	39	104	0	60	97491
2026-01-03 01:23:24.88	266.70	14.04	-53.0	-55.4	3.6	0.00e+00	0	39	104	0	60	99580
2026-01-03 01:23:25.89	266.49	13.95	-53.0	-55.5	3.6	0.00e+00	0	39	104	0	60	100212
2026-01-03 01:23:26.91	266.27	13.85	-52.9	-55.3	3.6	0.00e+00	0	39	104	0	60	98625
2026-01-03 01:23:27.92	266.06	13.76	-52.8	-55.2	3.6	0.00e+00	0	39	104	0	60	97177
2026-01-03 01:23:28.92	265.85	13.67	-52.9	-55.3	3.6	0.00e+00	0	39	104	0	60	98269
2026-01-03 01:23:29.93	265.64	13.58	-52.9	-55.3	3.6	0.00e+00	0	39	104	0	60	98334
2026-01-03 01:23:30.94	265.44	13.49	-52.8	-55.2	3.6	0.00e+00	0	39	104	0	60	97830
2026-01-03 01:23:31.95	265.23	13.40	-52.9	-55.4	3.6	0.00e+00	0	39	104	0	60	99005
2026-01-03 01:23:32.96	265.03	13.31	-52.8	-55.3	3.6	0.00e+00	0	39	104	0	60	98271
2026-01-03 01:23:33.97	264.83	13.22	-53.0	-55.4	3.6	0.00e+00	0	39	104	0	60	99925
2026-01-03 01:23:34.98	264.63	13.13	-53.0	-55.5	3.6	0.00e+00	0	39	104	0	60	100300
2026-01-03 01:23:35.99	264.43	13.04	-53.0	-55.4	3.6	0.00e+00	0	39	104	0	60	99819
2026-01-03 01:23:37.00	264.23	12.95	-53.1	-55.5	3.6	0.00e+00	0	39	104	0	60	101076
2026-01-03 01:23:38.01	264.04	12.86	-52.9	-55.3	3.6	0.00e+00	0	39	104	0	60	98742
2026-01-03 01:23:39.03	263.84	12.77	-52.8	-55.2	3.6	0.00e+00	0	39	104	0	60	97769
2026-01-03 01:23:40.03	263.65	12.68	-52.9	-55.3	3.6	0.00e+00	0	39	104	0	60	98655
2026-01-03 01:23:41.05	263.45	12.59	-52.8	-55.3	3.6	0.00e+00	0	39	104	0	60	98094
2026-01-03 01:23:41.77	263.32	12.52	-52.9	-55.4	3.6	0.00e+00	0	39	104	0	60	99008
2026-01-03 01:23:43.07	263.07	12.41	-52.9	-55.3	3.6	0.00e+00	0	39	104	0	60	98929
2026-01-03 01:23:43.79	262.94	12.34	-53.0	-55.4	3.6	0.00e+00	0	39	104	0	60	99687
2026-01-03 01:23:45.09	262.70	12.23	-52.7	-55.1	3.6	0.00e+00	0	39	104	0	60	96508
2026-01-03 01:23:45.81	262.57	12.17	-52.9	-55.4	3.6	0.00e+00	0	39	104	0	60	99552
2026-01-03 01:23:47.11	262.33	12.05	-53.0	-55.5	3.6	0.00e+00	0	39	104	0	60	100566
2026-01-03 01:23:47.83	262.20	11.99	-52.9	-55.4	3.6	0.00e+00	0	39	104	0	60	99481
2026-01-03 01:23:49.13	261.97	11.88	-52.9	-55.3	3.6	0.00e+00	0	39	104	0	60	98572
2026-01-03 01:23:49.85	261.84	11.81	-52.9	-55.4	3.6	0.00e+00	0	39	104	0	60	99197
2026-01-03 01:23:51.15	261.61	11.70	-52.8	-55.3	3.6	0.00e+00	0	39	104	0	60	98769
2026-01-03 01:23:51.87	261.48	11.64	-52.9	-55.3	3.6	0.00e+00	0	39	104	0	60	98521
2026-01-03 01:23:53.17	261.26	11.52	-52.6	-55.2	3.6	0.00e+00	0	39	104	0	60	97522
2026-01-03 01:23:53.89	261.13	11.46	-52.7	-55.2	3.6	0.00e+00	0	39	104	0	60	97779
2026-01-03 01:23:55.19	260.91	11.35	-52.7	-55.2	3.6	0.00e+00	0	39	104	0	60	97203
2026-01-03 01:23:55.91	260.79	11.29	-52.7	-55.2	3.6	0.00e+00	0	39	104	0	60	96731
2026-01-03 01:23:57.21	260.57	11.18	-52.6	-55.2	3.6	0.00e+00	0	39	104	0	60	96869
2026-01-03 01:23:57.93	260.45	11.11	-52.6	-55.1	3.6	0.00e+00	0	39	104	0	60	96413
2026-01-03 01:23:59.23	260.23	11.00	-52.7	-55.1	3.6	0.00e+00	0	39	104	0	60	96274
2026-01-03 01:23:59.95	260.11	10.94	-52.7	-55.2	3.6	0.00e+00	0	39	104	0	60	97177
2026-01-03 01:24:01.25	259.90	10.83	-52.7	-55.1	3.6	0.00e+00	0	39	104	0	60	96477
2026-01-03 01:24:01.97	259.78	10.77	-52.7	-55.1	3.6	0.00e+00	0	39	104	0	60	95941
2026-01-03 01:24:03.27	259.57	10.66	-52.6	-55.0	3.6	0.00e+00	0	39	104	0	60	95520
2026-01-03 01:24:04.00	259.45	10.60	-52.4	-54.9	3.6	0.00e+00	0	39	104	0	60	94441
2026-01-03 01:24:05.30	259.24	10.49	-52.3	-54.7	3.6	0.00e+00	0	39	104	0	60	92137
2026-01-03 01:24:06.02	259.13	10.43	-51.9	-54.4	3.6	0.00e+00	0	39	104	0	60	88869
2026-01-03 01:24:07.32	258.92	10.32	-51.5	-54.0	3.6	0.00e+00	0	39	104	0	60	84934
2026-01-03 01:24:08.04	258.81	10.26	-51.4	-53.9	3.6	0.00e+00	0	39	104	0	60	83674
2026-01-03 01:24:09.34	258.61	10.15	-51.4	-53.8	3.6	0.00e+00	0	39	104	0	60	82966
2026-01-03 01:24:10.06	258.50	10.09	-51.4	-53.8	3.6	0.00e+00	0	39	104	0	60	83263
2026-01-03 01:24:11.36	258.30	9.98	-51.4	-53.8	3.6	0.00e+00	0	39	104	0	60	82742
2026-01-03 01:24:12.08	258.19	9.92	-51.4	-53.8	3.6	0.00e+00	0	39	104	0	60	83158
2026-01-03 01:24:13.38	257.99	9.81	-51.4	-53.8	3.6	0.00e+00	0	39	104	0	60	82933
2026-01-03 01:24:14.11	257.88	9.75	-51.3	-53.8	3.6	0.00e+00	0	39	104	0	60	82429
2026-01-03 01:24:15.41	257.69	9.64	-51.3	-53.8	3.6	0.00e+00	0	39	104	0	60	83228
2026-01-03 01:24:16.13	257.58	9.58	-51.4	-53.8	3.6	0.00e+00	0	39	104	0	60	83127
2026-01-03 01:24:17.43	257.39	9.48	-51.3	-53.8	3.6	0.00e+00	0	39	104	0	60	82761
2026-01-03 01:24:18.15	257.29	9.42	-51.4	-53.8	3.6	0.00e+00	0	39	104	0	60	82895
2026-01-03 01:24:19.45	257.10	9.31	-51.4	-53.8	3.6	0.00e+00	0	39	104	0	60	83069
2026-01-03 01:24:20.17	256.99	9.25	-51.4	-53.9	3.6	0.00e+00	0	39	104	0	60	83532
2026-01-03 01:24:21.47	256.81	9.15	-51.3	-53.8	3.6	0.00e+00	0	39	104	0	60	83015
2026-01-03 01:24:22.19	256.71	9.09	-51.4	-53.8	3.6	0.00e+00	0	39	104	0	60	83036
2026-01-03 01:24:23.49	256.52	8.98	-51.3	-53.8	3.6	0.00e+00	0	39	104	0	60	82591
2026-01-03 01:24:24.21	256.42	8.93	-51.3	-53.9	3.6	0.00e+00	0	39	104	0	60	83531
2026-01-03 01:24:25.51	256.24	8.82	-51.3	-53.8	3.6	0.00e+00	0	39	104	0	60	82727
2026-01-03 01:24:26.23	256.14	8.76	-51.3	-53.8	3.6	0.00e+00	0	39	104	0	60	82913
2026-01-03 01:24:27.53	255.96	8.66	-51.3	-53.8	3.6	0.00e+00	0	39	104	0	60	83060
2026-01-03 01:24:28.26	255.87	8.60	-51.3	-53.8	3.6	0.00e+00	0	39	104	0	60	82402
2026-01-03 01:24:29.56	255.69	8.50	-51.3	-53.8	3.6	0.00e+00	0	39	104	0	60	82579
2026-01-03 01:24:30.28	255.59	8.44	-51.3	-53.8	3.6	0.00e+00	0	39	104	0	60	83122
2026-01-03 01:24:31.58	255.42	8.34	-51.3	-53.8	3.5	0.00e+00	0	39	104	0	60	82621
2026-01-03 01:24:32.30	255.32	8.28	-51.3	-53.8	3.6	0.00e+00	0	39	104	0	60	82935
2026-01-03 01:24:33.60	255.15	8.18	-51.3	-53.8	3.6	0.00e+00	0	39	104	0	60	82600
2026-01-03 01:24:34.32	255.06	8.12	-51.3	-53.8	3.6	0.00e+00	0	39	104	0	60	82984
2026-01-03 01:24:35.62	254.89	8.02	-51.3	-53.8	3.5	0.00e+00	0	39	104	0	60	82763
2026-01-03 01:24:36.34	254.80	7.96	-51.3	-53.7	3.6	0.00e+00	0	39	104	0	60	81985
2026-01-03 01:24:37.64	254.63	7.86	-51.3	-53.8	3.5	0.00e+00	0	39	104	0	60	82636
2026-01-03 01:24:38.36	254.54	7.80	-51.3	-53.8	3.6	0.00e+00	0	39	104	0	60	82618
2026-01-03 01:24:39.66	254.38	7.70	-51.3	-53.8	3.5	0.00e+00	0	39	104	0	60	82788
2026-01-03 01:24:40.38	254.29	7.65	-51.3	-53.8	3.6	0.00e+00	0	39	104	0	60	82840
2026-01-03 01:24:41.68	254.12	7.55	-51.3	-53.8	3.6	0.00e+00	0	39	104	0	60	82786
2026-01-03 01:24:42.40	254.03	7.49	-51.3	-53.7	3.6	0.00e+00	0	39	104	0	60	82217
2026-01-03 01:24:43.70	253.87	7.39	-51.3	-53.7	3.6	0.00e+00	0	39	104	0	60	82021
2026-01-03 01:24:44.42	253.79	7.34	-51.3	-53.7	3.6	0.00e+00	0	39	104	0	60	81986
2026-01-03 01:24:45.72	253.63	7.24	-51.3	-53.7	3.6	0.00e+00	0	39	104	0	60	82177
2026-01-03 01:24:46.44	253.54	7.18	-51.3	-53.7	3.6	0.00e+00	0	39	104	0	60	82224
2026-01-03 01:24:47.74	253.39	7.08	-51.3	-53.7	3.6	0.00e+00	0	39	104	0	60	82281
2026-01-03 01:24:48.47	253.30	7.03	-51.3	-53.7	3.6	0.00e+00	0	39	104	0	60	81997
2026-01-03 01:24:49.77	253.15	6.93	-51.3	-53.7	3.6	0.00e+00	0	39	104	0	60	82049
2026-01-03 01:24:50.49	253.06	6.87	-51.2	-53.8	3.5	0.00e+00	0	39	104	0	60	82464
2026-01-03 01:24:51.79	252.91	6.78	-51.3	-53.8	3.6	0.00e+00	0	39	104	0	60	83248
2026-01-03 01:24:52.51	252.83	6.72	-51.3	-53.8	3.6	0.00e+00	0	39	104	0	60	82599
2026-01-03 01:24:53.81	252.68	6.62	-50.9	-53.5	3.6	0.00e+00	0	39	104	0	60	80368
2026-01-03 01:24:54.53	252.60	6.57	-51.2	-53.8	3.6	0.00e+00	0	39	104	0	60	83016
2026-01-03 01:24:55.83	252.45	6.47	-51.3	-53.9	3.6	0.00e+00	0	39	104	0	60	83810
2026-01-03 01:24:56.56	252.37	6.42	-51.3	-53.9	3.6	0.00e+00	0	39	104	0	60	83734
2026-01-03 01:24:57.85	252.22	6.32	-51.3	-53.8	3.6	0.00e+00	0	39	104	0	60	83180
2026-01-03 01:24:58.58	252.14	6.27	-51.2	-53.8	3.6	0.00e+00	0	39	104	0	60	83038
2026-01-03 01:24:59.88	252.00	6.17	-51.3	-53.9	3.6	0.00e+00	0	39	104	0	60	83544
2026-01-03 01:25:00.60	251.92	6.12	-51.4	-54.0	3.6	0.00e+00	0	39	104	0	60	84309
2026-01-03 01:25:01.90	251.77	6.03	-51.4	-53.9	3.6	0.00e+00	0	39	104	0	60	83877
2026-01-03 01:25:02.62	251.70	5.97	-51.4	-53.9	3.6	0.00e+00	0	39	104	0	60	83884
2026-01-03 01:25:03.92	251.56	5.88	-51.4	-53.9	3.6	0.00e+00	0	39	104	0	60	84034
2026-01-03 01:25:04.64	251.48	5.83	-51.3	-53.9	3.6	0.00e+00	0	39	104	0	60	83604
2026-01-03 01:25:05.94	251.34	5.73	-51.3	-53.9	3.6	0.00e+00	0	39	104	0	60	83894
2026-01-03 01:25:06.66	251.26	5.68	-51.3	-53.9	3.6	0.00e+00	0	39	104	0	60	83700
2026-01-03 01:25:07.96	251.13	5.58	-51.3	-53.9	3.6	0.00e+00	0	39	104	0	60	83865
2026-01-03 01:25:08.68	251.05	5.53	-51.3	-53.9	3.6	0.00e+00	0	39	104	0	60	83801
2026-01-03 01:25:09.98	250.92	5.44	-51.3	-53.9	3.6	0.00e+00	0	39	104	0	60	83892
2026-01-03 01:25:10.70	250.84	5.39	-51.2	-53.9	3.6	0.00e+00	0	39	104	0	60	83726
2026-01-03 01:25:12.00	250.71	5.29	-51.2	-53.9	3.6	0.00e+00	0	39	104	0	60	83311
2026-01-03 01:25:12.73	250.64	5.24	-51.2	-53.9	3.6	0.00e+00	0	39	104	0	60	83474
2026-01-03 01:25:14.03	250.50	5.15	-51.2	-53.9	3.6	0.00e+00	0	39	104	0	60	83788
2026-01-03 01:25:14.75	250.43	5.10	-51.2	-53.9	3.6	0.00e+00	0	39	104	0	60	83726
2026-01-03 01:25:16.05	250.30	5.01	-51.2	-53.9	3.6	0.00e+00	0	39	104	0	60	83682
2026-01-03 01:25:16.77	250.23	4.96	-51.1	-53.8	3.6	0.00e+00	0	39	104	0	60	83193
2026-01-03 01:25:18.07	250.10	4.86	-51.1	-53.9	3.6	0.00e+00	0	39	104	0	60	83579
2026-01-03 01:25:18.79	250.03	4.81	-51.3	-53.9	3.6	0.00e+00	0	39	104	0	60	83961
2026-01-03 01:25:20.09	249.91	4.72	-51.2	-53.9	3.6	0.00e+00	0	39	104	0	60	83560
2026-01-03 01:25:20.81	249.84	4.67	-51.2	-53.9	3.6	0.00e+00	0	39	104	0	60	83288
2026-01-03 01:25:22.11	249.71	4.58	-51.2	-53.9	3.6	0.00e+00	0	39	104	0	60	84022
2026-01-03 01:25:22.83	249.64	4.53	-51.2	-53.9	3.6	0.00e+00	0	39	104	0	60	83596
2026-01-03 01:25:24.13	249.52	4.44	-51.2	-54.0	3.6	0.00e+00	0	39	104	0	60	84272
2026-01-03 01:25:24.85	249.45	4.39	-51.2	-53.9	3.6	0.00e+00	0	39	104	0	60	84108
2026-01-03 01:25:26.15	249.33	4.30	-51.3	-54.0	3.6	0.00e+00	0	39	104	0	60	84883
2026-01-03 01:25:26.88	249.26	4.25	-51.3	-54.0	3.6	0.00e+00	0	39	104	0	60	84817
2026-01-03 01:25:28.17	249.14	4.16	-51.4	-54.0	3.6	0.00e+00	0	39	104	0	60	84893
2026-01-03 01:25:28.89	249.07	4.11	-51.3	-54.1	3.6	0.00e+00	0	39	104	0	60	85726
2026-01-03 01:25:30.19	248.95	4.02	-51.3	-54.0	3.6	0.00e+00	0	39	104	0	60	84792
2026-01-03 01:25:30.91	248.89	3.98	-51.3	-54.0	3.6	0.00e+00	0	39	104	0	60	84807
2026-01-03 01:25:32.22	248.77	3.89	-51.4	-54.1	3.6	0.00e+00	0	39	104	0	60	85968
2026-01-03 01:25:32.94	248.71	3.84	-51.4	-54.1	3.6	0.00e+00	0	39	104	0	60	85910
2026-01-03 01:25:34.24	248.59	3.75	-51.3	-54.1	3.6	0.00e+00	0	39	104	0	60	85260
2026-01-03 01:25:34.96	248.53	3.70	-51.4	-54.1	3.6	0.00e+00	0	39	104	0	60	85741
2026-01-03 01:25:36.26	248.41	3.61	-51.4	-54.0	3.5	0.00e+00	0	39	104	0	60	85198
2026-01-03 01:25:36.98	248.35	3.56	-51.4	-54.0	3.6	0.00e+00	0	39	104	0	60	85135
2026-01-03 01:25:38.28	248.23	3.48	-51.4	-54.0	3.6	0.00e+00	0	39	104	0	60	84796
2026-01-03 01:25:39.00	248.17	3.43	-51.5	-54.1	3.6	0.00e+00	0	39	104	0	60	85966
2026-01-03 01:25:40.30	248.06	3.34	-51.5	-54.1	3.6	0.00e+00	0	39	104	0	60	85642
2026-01-03 01:25:41.02	248.00	3.29	-51.4	-54.1	3.6	0.00e+00	0	39	104	0	60	85654
2026-01-03 01:25:42.32	247.89	3.21	-51.4	-54.1	3.6	0.00e+00	0	39	104	0	60	85505
2026-01-03 01:25:43.04	247.83	3.16	-51.4	-54.1	3.5	0.00e+00	0	39	104	0	60	85824
2026-01-03 01:25:44.34	247.72	3.07	-51.4	-54.1	3.6	0.00e+00	0	39	104	0	60	85681
2026-01-03 01:25:45.06	247.66	3.03	-51.4	-54.1	3.6	0.00e+00	0	39	104	0	60	85868
2026-01-03 01:25:46.36	247.55	2.94	-51.3	-54.1	3.6	0.00e+00	0	39	104	0	60	85946
2026-01-03 01:25:47.08	247.49	2.89	-51.4	-54.1	3.6	0.00e+00	0	39	104	0	60	85837
2026-01-03 01:25:48.38	247.38	2.81	-51.4	-54.1	3.6	0.00e+00	0	39	104	0	60	85617
2026-01-03 01:25:49.11	247.32	2.76	-51.4	-54.1	3.6	0.00e+00	0	39	104	0	60	85713
2026-01-03 01:25:50.41	247.22	2.68	-51.7	-54.2	3.6	0.00e+00	0	39	104	0	60	86945
2026-01-03 01:25:51.13	247.16	2.63	-51.7	-54.3	3.6	0.00e+00	0	39	104	0	60	87489
2026-01-03 01:25:52.43	247.05	2.55	-51.7	-54.3	3.6	0.00e+00	0	39	104	0	60	87648
2026-01-03 01:25:53.15	247.00	2.50	-51.8	-54.3	3.6	0.00e+00	0	39	104	0	60	87874
2026-01-03 01:25:54.45	246.89	2.42	-51.8	-54.3	3.6	0.00e+00	0	39	104	0	60	87655
2026-01-03 01:25:55.17	246.83	2.37	-51.7	-54.3	3.6	0.00e+00	0	39	104	0	60	87383
2026-01-03 01:25:56.47	246.73	2.29	-51.7	-54.3	3.6	0.00e+00	0	39	104	0	60	87543
2026-01-03 01:25:57.19	246.68	2.24	-51.6	-54.3	3.6	0.00e+00	0	39	104	0	60	87538
2026-01-03 01:25:58.49	246.58	2.16	-51.7	-54.2	3.6	0.00e+00	0	39	104	0	60	87067
2026-01-03 01:25:59.22	246.52	2.11	-51.7	-54.3	3.6	0.00e+00	0	39	104	0	60	87730
2026-01-03 01:26:00.51	246.42	2.03	-51.8	-54.3	3.6	0.00e+00	0	39	104	0	60	88034
2026-01-03 01:26:01.24	246.36	1.98	-51.8	-54.4	3.6	0.00e+00	0	39	104	0	60	88310
2026-01-03 01:26:02.54	246.27	1.90	-51.8	-54.4	3.6	0.00e+00	0	39	104	0	60	88248
2026-01-03 01:26:03.26	246.21	1.85	-51.9	-54.4	3.6	0.00e+00	0	39	104	0	60	89060
2026-01-03 01:26:04.56	246.11	1.77	-51.9	-54.4	3.6	0.00e+00	0	39	104	0	60	88684
2026-01-03 01:26:05.28	246.06	1.73	-51.9	-54.4	3.6	0.00e+00	0	39	104	0	60	88788
2026-01-03 01:26:06.58	245.96	1.64	-51.9	-54.4	3.6	0.00e+00	0	39	104	0	60	88899
2026-01-03 01:26:07.30	245.91	1.60	-51.9	-54.5	3.6	0.00e+00	0	39	104	0	60	89281
2026-01-03 01:26:08.60	245.81	1.52	-52.0	-54.5	3.6	0.00e+00	0	39	104	0	60	89930
2026-01-03 01:26:09.33	245.76	1.47	-52.0	-54.5	3.6	0.00e+00	0	39	104	0	60	89925
2026-01-03 01:26:10.62	245.67	1.39	-52.1	-54.5	3.6	0.00e+00	0	39	104	0	60	90099
2026-01-03 01:26:11.35	245.61	1.35	-52.1	-54.5	3.6	0.00e+00	0	39	104	0	60	89917
2026-01-03 01:26:12.65	245.52	1.27	-52.1	-54.5	3.6	0.00e+00	0	39	104	0	60	90179
2026-01-03 01:26:13.37	245.47	1.22	-52.1	-54.5	3.6	0.00e+00	0	39	104	0	60	89444
2026-01-03 01:26:14.67	245.38	1.14	-52.1	-54.5	3.6	0.00e+00	0	39	104	0	60	90127
2026-01-03 01:26:15.39	245.33	1.10	-52.1	-54.5	3.6	0.00e+00	0	39	104	0	60	90024
2026-01-03 01:26:16.69	245.24	1.02	-52.1	-54.5	3.6	0.00e+00	0	39	104	0	60	90046
2026-01-03 01:26:17.41	245.19	0.97	-52.1	-54.6	3.6	0.00e+00	0	39	104	0	60	90315
2026-01-03 01:26:18.71	245.09	0.89	-52.1	-54.5	3.6	0.00e+00	0	39	104	0	60	90102
2026-01-03 01:26:19.43	245.05	0.85	-52.1	-54.5	3.6	0.00e+00	0	39	104	0	60	89674
2026-01-03 01:26:20.73	244.96	0.77	-52.1	-54.5	3.6	0.00e+00	0	39	104	0	60	89866
2026-01-03 01:26:21.46	244.91	0.73	-52.0	-54.5	3.6	0.00e+00	0	39	104	0	60	90141
2026-01-03 01:26:22.76	244.82	0.65	-52.0	-54.5	3.6	0.00e+00	0	39	104	0	60	89779
2026-01-03 01:26:23.48	244.77	0.60	-52.0	-54.5	3.5	0.00e+00	0	39	104	0	60	89937
2026-01-03 01:26:24.78	244.68	0.52	-52.0	-54.5	3.6	0.00e+00	0	39	104	0	60	89800
2026-01-03 01:26:25.50	244.63	0.48	-52.0	-54.5	3.6	0.00e+00	0	39	104	0	60	90234
2026-01-03 01:26:26.80	244.55	0.40	-52.0	-54.5	3.6	0.00e+00	0	39	104	0	60	90263
2026-01-03 01:26:27.52	244.50	0.36	-52.1	-54.5	3.6	0.00e+00	0	39	104	0	60	89994
2026-01-03 01:26:28.82	244.41	0.28	-52.1	-54.6	3.6	0.00e+00	0	39	104	0	60	90418
2026-01-03 01:26:29.54	244.37	0.24	-52.1	-54.6	3.6	0.00e+00	0	39	104	0	60	90331
2026-01-03 01:26:30.85	244.28	0.16	-52.1	-54.5	3.6	0.00e+00	0	39	104	0	60	90192
2026-01-03 01:26:31.57	244.23	0.12	-52.1	-54.5	3.6	0.00e+00	0	39	104	0	60	89975
2026-01-03 01:26:32.87	244.15	0.04	-52.1	-54.6	3.6	0.00e+00	0	39	104	0	60	90307
2026-01-03 01:26:33.59	244.10	-0.00	-52.1	-54.6	3.6	0.00e+00	0	39	104	0	60	90557
2026-01-03 01:26:34.89	244.02	-0.08	-52.1	-54.6	3.6	0.00e+00	0	39	104	0	60	90978
2026-01-03 01:26:35.61	243.98	-0.12	-52.1	-54.6	3.6	0.00e+00	0	39	104	0	60	90516

#Closed at: 2026-01-03 01:26:36
#Recorded file [0 MB]: D:/lorett/data/35034_260103_041547.dat