passes_logs/2026/01/03/R4.6S_Anadyr_2ch/R4.6S_Anadyr_2ch__20260103_215226_2025-108B_rec.log

#Pass ID: 20260103_215226_2025-108B
#Satellite: 2025-108B
#Configuration: 3PB_600M
#almurnet v.1.7.20251203
#Start time: 2026-01-03 21:52:27

#Version: 2.2.20231116
#Station: R4.6S_Anadyr_2ch
#Location: 177.4865 lon 64.73178 lat
#TLE: 1 64088U 25108B   25351.01672131  .00008460  00000+0  43413-3 0  9994
#TLE: 2 64088  97.4940  63.8579 0011684 285.1423  74.8517 15.16717580 31720

#Time	Az	El	Level	Level2	SNR	BER	BlckErr	Temp	State	Recorded	gain1	gain2
2026-01-03 21:52:27.60	22.76	0.05	-54.1	-55.4	3.4	0.00e+00	0	34	0	0	60	99122
2026-01-03 21:52:28.61	22.85	0.10	-53.1	-55.5	3.6	0.00e+00	0	36	104	0	60	101155
2026-01-03 21:52:29.62	22.94	0.16	-52.7	-55.3	3.6	0.00e+00	0	36	104	0	60	98251
2026-01-03 21:52:30.63	23.03	0.21	-52.2	-55.1	3.6	0.00e+00	0	36	104	0	60	96049
2026-01-03 21:52:31.64	23.12	0.27	-53.1	-55.8	3.6	0.00e+00	0	36	104	0	60	103744
2026-01-03 21:52:32.65	23.21	0.32	-52.7	-55.6	3.6	0.00e+00	0	36	104	0	60	101424
2026-01-03 21:52:33.66	23.31	0.38	-53.1	-55.6	3.6	0.00e+00	0	36	104	0	60	101614
2026-01-03 21:52:34.67	23.40	0.43	-53.5	-56.0	3.6	0.00e+00	0	36	104	0	60	106999
2026-01-03 21:52:35.68	23.49	0.48	-53.1	-55.6	3.6	0.00e+00	0	36	104	0	60	101952
2026-01-03 21:52:36.69	23.58	0.54	-53.3	-55.8	3.6	0.00e+00	0	36	104	0	60	104732
2026-01-03 21:52:37.70	23.68	0.59	-53.2	-55.6	3.6	0.00e+00	0	36	104	0	60	101515
2026-01-03 21:52:38.71	23.77	0.65	-53.1	-55.6	3.6	0.00e+00	0	36	104	0	60	101561
2026-01-03 21:52:39.72	23.86	0.70	-52.9	-55.4	3.6	0.00e+00	0	36	104	0	60	99091
2026-01-03 21:52:40.73	23.96	0.76	-53.5	-55.9	3.6	0.00e+00	0	37	104	0	60	105686
2026-01-03 21:52:41.74	24.05	0.81	-53.4	-55.9	3.6	0.00e+00	0	36	104	0	60	104910
2026-01-03 21:52:42.75	24.15	0.87	-53.7	-56.2	3.6	0.00e+00	0	36	104	0	60	108769
2026-01-03 21:52:43.76	24.25	0.92	-53.9	-56.3	3.6	0.00e+00	0	36	104	0	60	111050
2026-01-03 21:52:44.77	24.34	0.98	-53.9	-56.4	3.6	0.00e+00	0	37	104	0	60	111333
2026-01-03 21:52:45.78	24.44	1.03	-53.7	-56.3	3.6	0.00e+00	0	37	104	0	60	109846
2026-01-03 21:52:46.79	24.54	1.09	-53.9	-56.5	3.6	0.00e+00	0	37	104	0	60	112652
2026-01-03 21:52:47.80	24.63	1.14	-44.8	-45.1	5.5	0.00e+00	0	37	104	0	60	30478
2026-01-03 21:52:48.81	24.73	1.20	-43.4	-43.7	5.4	0.00e+00	0	37	104	0	60	25913
2026-01-03 21:52:49.82	24.83	1.26	-47.1	-47.5	5.1	0.00e+00	0	37	104	0	60	40311
2026-01-03 21:52:50.83	24.93	1.31	-43.4	-43.7	5.6	0.00e+00	0	37	104	0	60	25794
2026-01-03 21:52:51.84	25.03	1.37	-44.9	-45.3	5.3	0.00e+00	0	37	104	0	60	31085
2026-01-03 21:52:52.85	25.13	1.42	-42.7	-42.9	5.6	0.00e+00	0	37	104	0	60	23583
2026-01-03 21:52:53.86	25.23	1.48	-43.5	-43.9	5.5	0.00e+00	0	37	104	0	60	26361
2026-01-03 21:52:54.87	25.33	1.54	-43.1	-43.3	5.5	0.00e+00	0	37	104	0	60	24834
2026-01-03 21:52:55.88	25.43	1.59	-44.2	-44.5	5.5	0.00e+00	0	37	104	0	60	28348
2026-01-03 21:52:56.89	25.53	1.65	-46.5	-46.9	5.1	0.00e+00	0	37	104	0	60	37395
2026-01-03 21:52:57.90	25.63	1.70	-46.1	-46.5	3.9	0.00e+00	0	37	104	0	60	35757
2026-01-03 21:52:58.91	25.74	1.76	-48.9	-49.6	4.2	0.00e+00	0	37	104	0	60	51222
2026-01-03 21:52:59.92	25.84	1.82	-48.1	-48.8	4.5	0.00e+00	0	37	104	0	60	46362
2026-01-03 21:53:00.93	25.94	1.87	-45.7	-46.2	4.6	0.00e+00	0	37	104	0	60	34482
2026-01-03 21:53:01.94	26.05	1.93	-46.2	-46.7	4.9	0.00e+00	0	37	104	0	60	36406
2026-01-03 21:53:02.95	26.15	1.99	-47.0	-47.4	5.1	0.00e+00	0	37	104	0	60	39828
2026-01-03 21:53:03.96	26.26	2.04	-44.2	-44.5	5.5	0.00e+00	0	37	104	0	60	28293
2026-01-03 21:53:04.97	26.36	2.10	-44.7	-44.9	5.3	0.00e+00	0	37	104	0	60	29875
2026-01-03 21:53:05.98	26.47	2.16	-44.7	-45.1	5.1	0.00e+00	0	37	104	0	60	30377
2026-01-03 21:53:06.99	26.58	2.21	-46.8	-47.4	4.6	0.00e+00	0	37	104	0	60	39502
2026-01-03 21:53:08.00	26.68	2.27	-45.5	-46.0	5.1	0.00e+00	0	37	104	0	60	33548
2026-01-03 21:53:09.01	26.79	2.33	-49.1	-49.9	4.9	0.00e+00	0	37	104	0	60	52772
2026-01-03 21:53:10.02	26.90	2.39	-47.6	-48.1	4.8	0.00e+00	0	37	104	0	60	42968
2026-01-03 21:53:11.03	27.01	2.44	-47.3	-47.8	4.8	0.00e+00	0	37	104	0	60	41608
2026-01-03 21:53:12.04	27.12	2.50	-46.7	-47.2	5.0	0.00e+00	0	37	104	0	60	38747
2026-01-03 21:53:13.05	27.23	2.56	-46.5	-47.0	4.7	0.00e+00	0	37	104	0	60	37984
2026-01-03 21:53:14.06	27.34	2.62	-50.3	-51.4	3.8	0.00e+00	0	37	104	0	60	62622
2026-01-03 21:53:15.07	27.45	2.67	-46.9	-47.3	4.7	0.00e+00	0	37	104	0	60	39291
2026-01-03 21:53:16.08	27.56	2.73	-46.4	-46.8	4.8	0.00e+00	0	37	104	0	60	36911
2026-01-03 21:53:17.09	27.67	2.79	-47.2	-47.6	4.7	0.00e+00	0	37	104	0	60	40759
2026-01-03 21:53:18.10	27.78	2.85	-46.7	-47.1	4.8	0.00e+00	0	37	104	0	60	38258
2026-01-03 21:53:19.11	27.89	2.90	-50.4	-51.5	4.3	0.00e+00	0	37	104	0	60	63735
2026-01-03 21:53:20.12	28.01	2.96	-48.0	-48.6	4.5	0.00e+00	0	38	104	0	60	45601
2026-01-03 21:53:21.13	28.12	3.02	-48.3	-48.9	4.6	0.00e+00	0	37	104	0	60	47268
2026-01-03 21:53:22.14	28.23	3.08	-47.9	-48.6	4.5	0.00e+00	0	38	104	0	60	45369
2026-01-03 21:53:23.15	28.35	3.14	-47.2	-47.8	4.4	0.00e+00	0	37	104	0	60	41593
2026-01-03 21:53:24.16	28.46	3.20	-47.6	-48.2	4.8	0.00e+00	0	38	104	0	60	43705
2026-01-03 21:53:25.17	28.58	3.25	-46.3	-46.9	4.8	0.00e+00	0	38	104	0	60	37484
2026-01-03 21:53:26.18	28.70	3.31	-45.8	-46.4	4.9	0.00e+00	0	38	104	0	60	35219
2026-01-03 21:53:27.18	28.81	3.37	-46.1	-46.7	4.8	0.00e+00	0	38	104	0	60	36386
2026-01-03 21:53:28.19	28.93	3.43	-45.2	-45.8	5.0	0.00e+00	0	38	104	0	60	32955
2026-01-03 21:53:29.20	29.05	3.49	-47.4	-48.1	4.4	0.00e+00	0	38	104	0	60	42792
2026-01-03 21:53:30.21	29.17	3.55	-46.1	-46.6	5.0	0.00e+00	0	38	104	0	60	36200
2026-01-03 21:53:31.22	29.29	3.61	-45.5	-46.0	5.0	0.00e+00	0	38	104	0	60	33817
2026-01-03 21:53:32.23	29.41	3.66	-45.0	-45.4	5.1	0.00e+00	0	38	104	0	60	31583
2026-01-03 21:53:33.24	29.53	3.72	-45.6	-46.0	5.0	0.00e+00	0	38	104	0	60	33575
2026-01-03 21:53:34.25	29.65	3.78	-45.4	-45.8	5.1	0.00e+00	0	38	104	0	60	33119
2026-01-03 21:53:35.26	29.77	3.84	-45.9	-46.3	5.1	0.00e+00	0	38	104	0	60	34995
2026-01-03 21:53:36.27	29.89	3.90	-45.7	-46.1	5.1	0.00e+00	0	38	104	0	60	34096
2026-01-03 21:53:37.28	30.02	3.96	-46.9	-47.4	5.2	0.00e+00	0	38	104	0	60	39800
2026-01-03 21:53:38.29	30.14	4.02	-45.4	-45.9	5.2	0.00e+00	0	38	104	0	60	33273
2026-01-03 21:53:39.30	30.26	4.08	-49.7	-50.8	4.2	0.00e+00	0	38	104	0	60	58378
2026-01-03 21:53:40.31	30.39	4.14	-46.8	-47.3	5.2	0.00e+00	0	38	104	0	60	39401
2026-01-03 21:53:41.32	30.51	4.20	-48.1	-48.7	4.6	0.00e+00	0	38	104	0	60	46054
2026-01-03 21:53:42.33	30.64	4.26	-47.8	-48.5	4.5	0.00e+00	0	38	104	0	60	45006
2026-01-03 21:53:43.34	30.77	4.32	-45.2	-45.6	5.2	0.00e+00	0	38	104	0	60	32234
2026-01-03 21:53:44.35	30.89	4.38	-47.0	-47.5	4.9	0.00e+00	0	38	104	0	60	40207
2026-01-03 21:53:45.36	31.02	4.44	-45.4	-45.9	5.2	0.00e+00	0	38	104	0	60	33534
2026-01-03 21:53:46.37	31.15	4.50	-45.7	-46.2	5.1	0.00e+00	0	38	104	0	60	34328
2026-01-03 21:53:47.38	31.28	4.56	-48.1	-48.9	4.8	0.00e+00	0	38	104	0	60	46995
2026-01-03 21:53:48.39	31.41	4.62	-46.0	-46.5	5.0	0.00e+00	0	38	104	0	60	35546
2026-01-03 21:53:49.18	31.51	4.67	-46.3	-46.9	4.9	0.00e+00	0	38	104	0	60	37605
2026-01-03 21:53:50.33	31.66	4.74	-46.3	-46.7	4.9	0.00e+00	0	38	104	0	60	36565
2026-01-03 21:53:51.20	31.77	4.79	-46.6	-47.3	4.8	0.00e+00	0	38	104	0	60	38996
2026-01-03 21:53:52.35	31.92	4.86	-47.8	-48.5	4.6	0.00e+00	0	38	104	0	60	44760
2026-01-03 21:53:53.22	32.04	4.91	-45.4	-45.8	5.2	0.00e+00	0	38	104	0	60	32825
2026-01-03 21:53:54.37	32.19	4.98	-44.7	-45.0	5.3	0.00e+00	0	38	104	0	60	30000
2026-01-03 21:53:55.23	32.30	5.03	-45.8	-46.2	5.0	0.00e+00	0	38	104	0	60	34709
2026-01-03 21:53:56.39	32.46	5.10	-43.8	-44.3	5.3	0.00e+00	0	38	104	0	60	27675
2026-01-03 21:53:57.25	32.57	5.15	-44.8	-45.1	5.1	0.00e+00	0	38	104	0	60	30546
2026-01-03 21:53:58.41	32.73	5.22	-43.6	-44.0	5.3	0.00e+00	0	38	104	0	60	26949
2026-01-03 21:53:59.27	32.85	5.27	-43.7	-44.1	5.4	0.00e+00	0	38	104	0	60	27004
2026-01-03 21:54:00.43	33.01	5.34	-42.8	-43.1	5.4	0.00e+00	0	38	104	0	60	24243
2026-01-03 21:54:01.29	33.12	5.40	-43.8	-44.2	5.1	0.00e+00	0	38	104	0	60	27288
2026-01-03 21:54:02.45	33.28	5.47	-44.0	-44.3	5.2	0.00e+00	0	38	104	0	60	27714
2026-01-03 21:54:03.31	33.40	5.52	-44.2	-44.7	5.2	0.00e+00	0	38	104	0	60	28889
2026-01-03 21:54:04.47	33.56	5.59	-46.0	-46.5	4.8	0.00e+00	0	38	104	0	60	35876
2026-01-03 21:54:05.33	33.68	5.64	-45.7	-46.1	4.8	0.00e+00	0	38	104	0	60	33967
2026-01-03 21:54:06.49	33.85	5.71	-44.7	-45.1	5.1	0.00e+00	0	38	104	0	60	30354
2026-01-03 21:54:07.35	33.97	5.76	-45.2	-45.6	5.0	0.00e+00	0	38	104	0	60	32279
2026-01-03 21:54:08.51	34.13	5.84	-44.9	-45.4	4.9	0.00e+00	0	38	104	0	60	31451
2026-01-03 21:54:09.37	34.26	5.89	-43.4	-43.8	5.3	0.00e+00	0	38	104	0	60	26105
2026-01-03 21:54:10.53	34.42	5.96	-43.8	-44.0	5.4	0.00e+00	0	38	104	0	60	26873
2026-01-03 21:54:11.39	34.55	6.01	-43.0	-43.4	5.5	0.00e+00	0	38	104	0	60	24903
2026-01-03 21:54:12.55	34.71	6.08	-43.5	-43.8	5.5	0.00e+00	0	38	104	0	60	26063
2026-01-03 21:54:13.41	34.84	6.14	-43.6	-44.0	5.4	0.00e+00	0	38	104	0	60	26733
2026-01-03 21:54:14.57	35.01	6.21	-43.5	-43.9	5.4	0.00e+00	0	38	104	0	60	26371
2026-01-03 21:54:15.43	35.14	6.26	-43.5	-43.8	5.3	0.00e+00	0	38	104	0	60	26147
2026-01-03 21:54:16.59	35.31	6.33	-44.0	-44.3	5.4	0.00e+00	0	38	104	0	60	27827
2026-01-03 21:54:17.45	35.44	6.38	-43.4	-43.7	5.4	0.00e+00	0	38	104	0	60	25833
2026-01-03 21:54:18.61	35.61	6.46	-43.7	-44.0	5.4	0.00e+00	0	38	104	0	60	26923
2026-01-03 21:54:19.47	35.74	6.51	-42.2	-42.4	5.5	0.00e+00	0	38	104	0	60	22220
2026-01-03 21:54:20.63	35.91	6.58	-42.5	-42.8	5.6	0.00e+00	0	38	104	0	60	23392
2026-01-03 21:54:21.49	36.04	6.63	-42.1	-42.3	5.6	0.00e+00	0	38	104	0	60	22029
2026-01-03 21:54:22.65	36.22	6.71	-42.3	-42.6	5.6	0.00e+00	0	38	104	0	60	22780
2026-01-03 21:54:23.52	36.35	6.76	-42.1	-42.4	5.6	0.00e+00	0	38	104	0	60	22231
2026-01-03 21:54:24.67	36.53	6.83	-42.7	-43.1	5.5	0.00e+00	0	38	104	0	60	24122
2026-01-03 21:54:25.54	36.67	6.88	-42.7	-43.0	5.5	0.00e+00	0	38	104	0	60	23819
2026-01-03 21:54:26.69	36.85	6.96	-43.2	-43.6	5.5	0.00e+00	0	38	104	0	60	25468
2026-01-03 21:54:27.56	36.98	7.01	-43.0	-43.3	5.6	0.00e+00	0	38	104	0	60	24585
2026-01-03 21:54:28.71	37.16	7.08	-42.6	-43.0	5.6	0.00e+00	0	38	104	0	60	23815
2026-01-03 21:54:29.58	37.30	7.14	-42.6	-42.9	5.6	0.00e+00	0	38	104	0	60	23487
2026-01-03 21:54:30.73	37.48	7.21	-43.1	-43.4	5.4	0.00e+00	0	38	104	0	60	25075
2026-01-03 21:54:31.60	37.62	7.26	-43.3	-43.6	5.5	0.00e+00	0	38	104	0	60	25519
2026-01-03 21:54:32.75	37.81	7.33	-42.0	-42.2	5.5	0.00e+00	0	38	104	0	60	21754
2026-01-03 21:54:33.62	37.95	7.39	-43.8	-44.1	5.5	0.00e+00	0	38	104	0	60	27184
2026-01-03 21:54:34.77	38.13	7.46	-42.9	-43.3	5.7	0.00e+00	0	38	104	0	60	24631
2026-01-03 21:54:35.64	38.28	7.51	-42.4	-42.6	5.6	0.00e+00	0	38	104	0	60	22889
2026-01-03 21:54:36.79	38.46	7.59	-42.3	-42.6	5.7	0.00e+00	0	38	104	0	60	22811
2026-01-03 21:54:37.66	38.61	7.64	-41.9	-42.3	5.7	0.00e+00	0	38	104	0	60	21955
2026-01-03 21:54:38.82	38.80	7.71	-42.4	-42.8	5.6	0.00e+00	0	38	104	0	60	23263
2026-01-03 21:54:39.68	38.94	7.77	-42.1	-42.4	5.7	0.00e+00	0	38	104	0	60	22397
2026-01-03 21:54:40.84	39.14	7.84	-41.6	-41.9	5.7	0.00e+00	0	38	104	0	60	21019
2026-01-03 21:54:41.70	39.28	7.89	-41.6	-41.8	5.7	0.00e+00	0	38	104	0	60	20885
2026-01-03 21:54:42.86	39.48	7.96	-41.8	-42.1	5.7	0.00e+00	0	38	104	0	60	21604
2026-01-03 21:54:43.73	39.63	8.02	-41.7	-42.0	5.7	0.00e+00	0	38	104	0	60	21244
2026-01-03 21:54:44.88	39.82	8.09	-42.4	-42.8	5.6	0.00e+00	0	38	104	0	60	23282
2026-01-03 21:54:45.75	39.97	8.15	-41.6	-41.9	5.7	0.00e+00	0	38	104	0	60	21054
2026-01-03 21:54:46.90	40.17	8.22	-41.3	-41.7	5.6	0.00e+00	0	38	104	0	60	20529
2026-01-03 21:54:47.77	40.32	8.27	-41.3	-41.6	5.6	0.00e+00	0	38	104	0	60	20389
2026-01-03 21:54:48.92	40.52	8.34	-41.2	-41.5	5.7	0.00e+00	0	38	104	0	60	20045
2026-01-03 21:54:49.79	40.68	8.40	-42.0	-42.2	5.6	0.00e+00	0	38	104	0	60	21763
2026-01-03 21:54:50.95	40.88	8.47	-41.1	-41.5	5.7	0.00e+00	0	38	104	0	60	19995
2026-01-03 21:54:51.81	41.03	8.53	-41.2	-41.4	5.7	0.00e+00	0	38	104	0	60	19818
2026-01-03 21:54:52.97	41.24	8.60	-41.0	-41.3	5.7	0.00e+00	0	38	104	0	60	19540
2026-01-03 21:54:53.84	41.40	8.65	-41.5	-41.7	5.6	0.00e+00	0	38	104	0	60	20587
2026-01-03 21:54:54.99	41.60	8.72	-43.8	-44.1	5.6	0.00e+00	0	38	104	0	60	26959
2026-01-03 21:54:55.86	41.76	8.78	-42.9	-43.3	5.6	0.00e+00	0	38	104	0	60	24708
2026-01-03 21:54:57.02	41.97	8.85	-42.1	-42.3	5.6	0.00e+00	0	38	104	0	60	21963
2026-01-03 21:54:57.88	42.13	8.91	-43.0	-43.3	5.6	0.00e+00	0	38	104	0	60	24704
2026-01-03 21:54:59.04	42.34	8.98	-43.3	-43.5	5.7	0.00e+00	0	38	104	0	60	25370
2026-01-03 21:54:59.90	42.50	9.03	-42.6	-42.9	5.6	0.00e+00	0	38	104	0	60	23566
2026-01-03 21:55:01.06	42.72	9.11	-42.3	-42.5	5.6	0.00e+00	0	38	104	0	60	22657
2026-01-03 21:55:01.92	42.88	9.16	-41.9	-42.1	5.6	0.00e+00	0	38	104	0	60	21645
2026-01-03 21:55:03.08	43.10	9.23	-43.1	-43.4	5.5	0.00e+00	0	38	104	0	60	25051
2026-01-03 21:55:03.95	43.26	9.29	-41.9	-42.2	5.6	0.00e+00	0	38	104	0	60	21872
2026-01-03 21:55:05.10	43.48	9.36	-42.3	-42.6	5.5	0.00e+00	0	38	104	0	60	22797
2026-01-03 21:55:05.97	43.64	9.41	-42.6	-42.9	5.5	0.00e+00	0	38	104	0	60	23567
2026-01-03 21:55:07.12	43.86	9.48	-42.1	-42.4	5.5	0.00e+00	0	38	104	0	60	22177
2026-01-03 21:55:07.99	44.03	9.54	-42.1	-42.4	5.5	0.00e+00	0	38	104	0	60	22226
2026-01-03 21:55:09.15	44.26	9.61	-43.2	-43.5	5.5	0.00e+00	0	38	104	0	60	25306
2026-01-03 21:55:10.01	44.42	9.66	-43.3	-43.7	5.4	0.00e+00	0	38	104	0	60	25900
2026-01-03 21:55:11.17	44.65	9.74	-42.6	-42.9	5.5	0.00e+00	0	38	104	0	60	23563
2026-01-03 21:55:12.03	44.82	9.79	-42.8	-43.2	5.4	0.00e+00	0	38	104	0	60	24551
2026-01-03 21:55:13.19	45.05	9.86	-43.1	-43.5	5.3	0.00e+00	0	38	104	0	60	25350
2026-01-03 21:55:14.05	45.22	9.92	-43.6	-44.0	5.4	0.00e+00	0	38	104	0	60	26820
2026-01-03 21:55:15.21	45.45	9.99	-43.4	-43.7	5.4	0.00e+00	0	38	104	0	60	25846
2026-01-03 21:55:16.08	45.63	10.04	-43.0	-43.3	5.4	0.00e+00	0	38	104	0	60	24716
2026-01-03 21:55:17.23	45.86	10.11	-42.9	-43.3	5.3	0.00e+00	0	38	104	0	60	24587
2026-01-03 21:55:18.10	46.04	10.17	-44.0	-44.3	5.3	0.00e+00	0	38	104	0	60	27891
2026-01-03 21:55:19.25	46.27	10.24	-44.4	-44.9	5.4	0.00e+00	0	39	104	0	60	29596
2026-01-03 21:55:20.12	46.45	10.29	-43.5	-43.8	5.3	0.00e+00	0	38	104	0	60	26256
2026-01-03 21:55:21.27	46.69	10.36	-43.4	-43.7	5.4	0.00e+00	0	39	104	0	60	25915
2026-01-03 21:55:22.14	46.87	10.42	-43.4	-43.7	5.4	0.00e+00	0	38	104	0	60	26028
2026-01-03 21:55:23.29	47.10	10.49	-43.5	-43.8	5.4	0.00e+00	0	39	104	0	60	26201
2026-01-03 21:55:24.16	47.29	10.54	-43.9	-44.2	5.4	0.00e+00	0	39	104	0	60	27455
2026-01-03 21:55:25.32	47.53	10.61	-43.7	-44.0	5.4	0.00e+00	0	39	104	0	60	26889
2026-01-03 21:55:26.18	47.71	10.66	-44.2	-44.5	5.3	0.00e+00	0	38	104	0	60	28471
2026-01-03 21:55:27.34	47.96	10.73	-43.7	-44.1	5.3	0.00e+00	0	38	104	0	60	27205
2026-01-03 21:55:28.20	48.14	10.79	-44.6	-45.0	5.3	0.00e+00	0	38	104	0	60	30000
2026-01-03 21:55:29.36	48.39	10.86	-43.7	-44.1	5.3	0.00e+00	0	38	104	0	60	26983
2026-01-03 21:55:30.23	48.58	10.91	-43.7	-44.0	5.2	0.00e+00	0	38	104	0	60	26943
2026-01-03 21:55:31.38	48.83	10.98	-43.8	-44.2	5.2	0.00e+00	0	38	104	0	60	27449
2026-01-03 21:55:32.25	49.02	11.03	-44.2	-44.5	5.1	0.00e+00	0	38	104	0	60	28421
2026-01-03 21:55:33.40	49.27	11.10	-45.1	-45.5	5.1	0.00e+00	0	38	104	0	60	31902
2026-01-03 21:55:34.27	49.46	11.15	-44.8	-45.1	5.2	0.00e+00	0	38	104	0	60	30377
2026-01-03 21:55:35.43	49.71	11.22	-44.9	-45.3	5.2	0.00e+00	0	38	104	0	60	31278
2026-01-03 21:55:36.29	49.91	11.28	-44.5	-44.9	5.2	0.00e+00	0	38	104	0	60	29835
2026-01-03 21:55:37.45	50.16	11.34	-46.6	-47.0	4.9	0.00e+00	0	38	104	0	60	37981
2026-01-03 21:55:38.32	50.36	11.40	-46.3	-46.8	5.1	0.00e+00	0	38	104	0	60	36954
2026-01-03 21:55:39.47	50.62	11.47	-45.6	-46.0	5.2	0.00e+00	0	38	104	0	60	33656
2026-01-03 21:55:40.34	50.81	11.52	-46.2	-46.8	4.9	0.00e+00	0	38	104	0	60	36879
2026-01-03 21:55:41.49	51.08	11.58	-46.9	-47.2	5.1	0.00e+00	0	38	104	0	60	38789
2026-01-03 21:55:42.36	51.27	11.64	-45.9	-46.4	5.1	0.00e+00	0	39	104	0	60	35290
2026-01-03 21:55:43.51	51.54	11.70	-47.9	-48.4	4.8	0.00e+00	0	38	104	0	60	44704
2026-01-03 21:55:44.38	51.74	11.75	-46.4	-46.9	5.0	0.00e+00	0	38	104	0	60	37359
2026-01-03 21:55:45.54	52.01	11.82	-46.0	-46.5	5.0	0.00e+00	0	38	104	0	60	35692
2026-01-03 21:55:46.40	52.21	11.87	-46.2	-46.7	4.9	0.00e+00	0	38	104	0	60	36447
2026-01-03 21:55:47.56	52.48	11.94	-45.9	-46.4	4.9	0.00e+00	0	38	104	0	60	35215
2026-01-03 21:55:48.43	52.68	11.99	-46.7	-47.3	4.9	0.00e+00	0	39	104	0	60	39317
2026-01-03 21:55:49.58	52.96	12.06	-46.2	-46.6	4.9	0.00e+00	0	38	104	0	60	36317
2026-01-03 21:55:50.45	53.16	12.11	-47.2	-47.8	4.7	0.00e+00	0	38	104	0	60	41545
2026-01-03 21:55:51.60	53.44	12.17	-47.4	-48.0	4.6	0.00e+00	0	38	104	0	60	42390
2026-01-03 21:55:52.47	53.65	12.22	-47.8	-48.5	4.5	0.00e+00	0	38	104	0	60	45144
2026-01-03 21:55:53.63	53.92	12.29	-47.4	-48.0	4.8	0.00e+00	0	38	104	0	60	42511
2026-01-03 21:55:54.49	54.13	12.34	-47.0	-47.4	4.8	0.00e+00	0	39	104	0	60	39480
2026-01-03 21:55:55.65	54.41	12.40	-46.5	-47.1	4.9	0.00e+00	0	39	104	0	60	38440
2026-01-03 21:55:56.51	54.62	12.45	-46.8	-47.4	4.6	0.00e+00	0	38	104	0	60	39530
2026-01-03 21:55:57.67	54.91	12.51	-47.3	-48.0	4.9	0.00e+00	0	39	104	0	60	42351
2026-01-03 21:55:58.54	55.12	12.56	-47.2	-47.8	4.9	0.00e+00	0	39	104	0	60	41734
2026-01-03 21:55:59.69	55.41	12.63	-47.7	-48.3	4.5	0.00e+00	0	39	104	0	60	44019
2026-01-03 21:56:00.56	55.62	12.67	-47.1	-47.5	4.9	0.00e+00	0	38	104	0	60	40158
2026-01-03 21:56:01.71	55.91	12.74	-45.9	-46.4	5.1	0.00e+00	0	38	104	0	60	35359
2026-01-03 21:56:02.58	56.13	12.78	-45.7	-46.2	5.0	0.00e+00	0	38	104	0	60	34525
2026-01-03 21:56:03.73	56.42	12.85	-45.6	-46.0	5.1	0.00e+00	0	38	104	0	60	33865
2026-01-03 21:56:04.60	56.64	12.89	-45.6	-46.1	5.0	0.00e+00	0	39	104	0	60	34225
2026-01-03 21:56:05.75	56.93	12.96	-44.7	-45.3	5.1	0.00e+00	0	38	104	0	60	31012
2026-01-03 21:56:06.62	57.15	13.00	-45.2	-45.7	5.0	0.00e+00	0	38	104	0	60	32486
2026-01-03 21:56:07.77	57.45	13.06	-45.8	-46.2	5.1	0.00e+00	0	39	104	0	60	34579
2026-01-03 21:56:08.64	57.67	13.11	-46.4	-46.8	4.9	0.00e+00	0	38	104	0	60	37054
2026-01-03 21:56:09.80	57.97	13.17	-45.8	-46.2	4.4	0.00e+00	0	39	104	0	60	34633
2026-01-03 21:56:10.66	58.19	13.21	-46.4	-46.9	5.0	0.00e+00	0	39	104	0	60	37471
2026-01-03 21:56:11.82	58.49	13.27	-46.3	-46.7	5.0	0.00e+00	0	39	104	0	60	36752
2026-01-03 21:56:12.68	58.72	13.32	-45.6	-46.1	5.0	0.00e+00	0	39	104	0	60	34038
2026-01-03 21:56:13.84	59.02	13.38	-45.3	-45.8	5.0	0.00e+00	0	38	104	0	60	32875
2026-01-03 21:56:14.71	59.25	13.42	-45.8	-46.3	4.8	0.00e+00	0	39	104	0	60	35033
2026-01-03 21:56:15.86	59.56	13.48	-45.7	-46.2	4.9	0.00e+00	0	39	104	0	60	34418
2026-01-03 21:56:16.73	59.79	13.52	-45.9	-46.4	4.9	0.00e+00	0	39	104	0	60	35190
2026-01-03 21:56:17.88	60.09	13.58	-46.2	-46.8	5.0	0.00e+00	0	38	104	0	60	36915
2026-01-03 21:56:18.75	60.33	13.62	-45.9	-46.4	4.9	0.00e+00	0	39	104	0	60	35366
2026-01-03 21:56:19.90	60.64	13.68	-46.1	-46.6	4.9	0.00e+00	0	39	104	0	60	36012
2026-01-03 21:56:20.77	60.87	13.72	-45.4	-45.9	4.9	0.00e+00	0	39	104	0	60	33379
2026-01-03 21:56:21.93	61.19	13.78	-45.7	-46.2	4.9	0.00e+00	0	39	104	0	60	34503
2026-01-03 21:56:22.79	61.42	13.82	-45.4	-45.9	4.9	0.00e+00	0	39	104	0	60	33322
2026-01-03 21:56:23.95	61.74	13.87	-45.4	-45.9	4.9	0.00e+00	0	39	104	0	60	33521
2026-01-03 21:56:24.82	61.98	13.91	-46.8	-47.4	4.7	0.00e+00	0	39	104	0	60	39426
2026-01-03 21:56:25.97	62.29	13.97	-46.8	-47.4	4.7	0.00e+00	0	39	104	0	60	39501
2026-01-03 21:56:26.83	62.53	14.00	-46.7	-47.2	4.8	0.00e+00	0	38	104	0	60	38865
2026-01-03 21:56:27.99	62.85	14.06	-46.8	-47.4	4.8	0.00e+00	0	39	104	0	60	39671
2026-01-03 21:56:28.85	63.09	14.10	-46.7	-47.2	4.9	0.00e+00	0	38	104	0	60	38622
2026-01-03 21:56:30.01	63.41	14.15	-47.4	-48.0	4.8	0.00e+00	0	39	104	0	60	42546
2026-01-03 21:56:30.87	63.66	14.19	-47.2	-47.8	4.7	0.00e+00	0	39	104	0	60	41651
2026-01-03 21:56:32.03	63.98	14.24	-47.1	-47.7	4.8	0.00e+00	0	39	104	0	60	41036
2026-01-03 21:56:32.90	64.23	14.27	-46.9	-47.5	4.8	0.00e+00	0	39	104	0	60	40183
2026-01-03 21:56:34.05	64.55	14.32	-47.4	-48.0	4.7	0.00e+00	0	39	104	0	60	42571
2026-01-03 21:56:34.91	64.80	14.36	-47.2	-47.7	4.8	0.00e+00	0	39	104	0	60	41140
2026-01-03 21:56:36.07	65.13	14.41	-47.1	-47.8	4.7	0.00e+00	0	39	104	0	60	41322
2026-01-03 21:56:36.94	65.38	14.44	-47.7	-48.4	4.4	0.00e+00	0	39	104	0	60	44576
2026-01-03 21:56:38.09	65.71	14.49	-47.1	-47.7	4.7	0.00e+00	0	39	104	0	60	41143
2026-01-03 21:56:38.96	65.96	14.52	-47.2	-47.8	4.6	0.00e+00	0	39	104	0	60	41656
2026-01-03 21:56:40.11	66.29	14.57	-47.7	-48.2	4.2	0.00e+00	0	39	104	0	60	43682
2026-01-03 21:56:40.98	66.54	14.60	-47.7	-48.4	4.4	0.00e+00	0	39	104	0	60	44288
2026-01-03 21:56:42.13	66.87	14.65	-47.0	-47.6	4.5	0.00e+00	0	39	104	0	60	40692
2026-01-03 21:56:43.00	67.13	14.68	-47.3	-48.1	4.7	0.00e+00	0	39	104	0	60	42884
2026-01-03 21:56:44.15	67.46	14.73	-47.3	-48.0	4.6	0.00e+00	0	39	104	0	60	42235
2026-01-03 21:56:45.02	67.72	14.76	-47.1	-47.9	4.5	0.00e+00	0	39	104	0	60	41985
2026-01-03 21:56:46.17	68.06	14.80	-47.1	-47.6	4.8	0.00e+00	0	39	104	0	60	40667
2026-01-03 21:56:47.04	68.31	14.83	-46.1	-46.6	4.8	0.00e+00	0	39	104	0	60	36299
2026-01-03 21:56:48.20	68.66	14.87	-45.6	-46.1	4.8	0.00e+00	0	39	104	0	60	34214
2026-01-03 21:56:49.06	68.91	14.90	-45.9	-46.4	4.8	0.00e+00	0	39	104	0	60	35235
2026-01-03 21:56:50.22	69.26	14.94	-45.2	-45.8	4.8	0.00e+00	0	39	104	0	60	32848
2026-01-03 21:56:51.09	69.52	14.97	-45.6	-46.1	4.8	0.00e+00	0	39	104	0	60	34161
2026-01-03 21:56:52.24	69.86	15.01	-46.9	-47.4	4.9	0.00e+00	0	39	104	0	60	39859
2026-01-03 21:56:53.11	70.12	15.04	-46.0	-46.5	4.9	0.00e+00	0	39	104	0	60	35569
2026-01-03 21:56:54.26	70.47	15.07	-46.8	-47.3	4.7	0.00e+00	0	39	104	0	60	39030
2026-01-03 21:56:55.13	70.73	15.10	-46.5	-46.9	4.9	0.00e+00	0	39	104	0	60	37591
2026-01-03 21:56:56.29	71.08	15.13	-45.7	-46.2	4.9	0.00e+00	0	39	104	0	60	34415
2026-01-03 21:56:57.15	71.34	15.16	-45.7	-46.2	4.8	0.00e+00	0	39	104	0	60	34693
2026-01-03 21:56:58.31	71.69	15.19	-45.6	-46.0	4.9	0.00e+00	0	39	104	0	60	33901
2026-01-03 21:56:59.17	71.95	15.22	-46.5	-47.0	4.8	0.00e+00	0	39	104	0	60	38020
2026-01-03 21:57:00.33	72.31	15.25	-45.7	-46.2	4.9	0.00e+00	0	39	104	0	60	34578
2026-01-03 21:57:01.20	72.57	15.27	-47.2	-47.6	4.8	0.00e+00	0	39	104	0	60	40663
2026-01-03 21:57:02.35	72.93	15.31	-46.6	-47.1	4.9	0.00e+00	0	39	104	0	60	38087
2026-01-03 21:57:03.22	73.19	15.33	-46.8	-47.3	4.8	0.00e+00	0	39	104	0	60	39026
2026-01-03 21:57:04.37	73.55	15.36	-46.8	-47.4	4.7	0.00e+00	0	39	104	0	60	39713
2026-01-03 21:57:05.24	73.81	15.38	-46.7	-47.3	4.8	0.00e+00	0	39	104	0	60	39188
2026-01-03 21:57:06.39	74.17	15.41	-46.6	-47.1	4.8	0.00e+00	0	39	104	0	60	38275
2026-01-03 21:57:07.26	74.44	15.43	-47.2	-47.7	4.8	0.00e+00	0	39	104	0	60	41065
2026-01-03 21:57:08.41	74.79	15.45	-47.4	-47.8	4.8	0.00e+00	0	39	104	0	60	41728
2026-01-03 21:57:09.28	75.06	15.47	-47.9	-48.5	4.7	0.00e+00	0	39	104	0	60	45093
2026-01-03 21:57:10.43	75.42	15.50	-47.4	-47.9	4.7	0.00e+00	0	39	104	0	60	42039
2026-01-03 21:57:11.30	75.69	15.51	-47.3	-47.9	4.6	0.00e+00	0	39	104	0	60	42054
2026-01-03 21:57:12.46	76.05	15.54	-49.0	-49.8	4.2	0.00e+00	0	39	104	0	60	52385
2026-01-03 21:57:13.32	76.32	15.55	-48.2	-48.8	4.7	0.00e+00	0	39	104	0	60	46546
2026-01-03 21:57:14.48	76.69	15.57	-47.2	-47.9	4.6	0.00e+00	0	39	104	0	60	41802
2026-01-03 21:57:15.35	76.96	15.59	-48.7	-49.4	4.4	0.00e+00	0	39	104	0	60	49958
2026-01-03 21:57:16.50	77.32	15.61	-47.9	-48.4	4.7	0.00e+00	0	38	104	0	60	44693
2026-01-03 21:57:17.37	77.59	15.62	-47.5	-48.1	4.6	0.00e+00	0	39	104	0	60	43182
2026-01-03 21:57:18.52	77.96	15.64	-48.6	-49.3	4.5	0.00e+00	0	39	104	0	60	49311
2026-01-03 21:57:19.39	78.23	15.65	-47.2	-47.8	4.7	0.00e+00	0	39	104	0	60	41367
2026-01-03 21:57:20.54	78.59	15.67	-48.1	-48.7	4.4	0.00e+00	0	39	104	0	60	46131
2026-01-03 21:57:21.41	78.87	15.68	-49.5	-50.5	4.3	0.00e+00	0	39	104	0	60	56426
2026-01-03 21:57:22.56	79.23	15.70	-49.6	-50.5	4.5	0.00e+00	0	39	104	0	60	56858
2026-01-03 21:57:23.43	79.51	15.71	-49.8	-50.9	4.3	0.00e+00	0	39	104	0	60	59136
2026-01-03 21:57:24.59	79.87	15.72	-49.6	-50.3	4.2	0.00e+00	0	39	104	0	60	55534
2026-01-03 21:57:25.45	80.15	15.73	-49.3	-50.2	4.5	0.00e+00	0	39	104	0	60	54401
2026-01-03 21:57:26.61	80.51	15.74	-49.5	-50.5	4.1	0.00e+00	0	39	104	0	60	56374
2026-01-03 21:57:27.47	80.79	15.75	-49.1	-49.8	4.2	0.00e+00	0	39	104	0	60	52303
2026-01-03 21:57:28.63	81.16	15.76	-48.7	-49.4	4.4	0.00e+00	0	39	104	0	60	49851
2026-01-03 21:57:29.50	81.43	15.76	-48.8	-49.7	4.3	0.00e+00	0	39	104	0	60	51502
2026-01-03 21:57:30.65	81.80	15.77	-50.1	-50.9	4.5	0.00e+00	0	39	104	0	60	59522
2026-01-03 21:57:31.52	82.08	15.78	-49.6	-50.5	4.2	0.00e+00	0	39	104	0	60	56591
2026-01-03 21:57:32.67	82.44	15.78	-48.4	-49.1	4.6	0.00e+00	0	39	104	0	60	48123
2026-01-03 21:57:33.54	82.72	15.79	-48.5	-49.2	4.3	0.00e+00	0	39	104	0	60	48651
2026-01-03 21:57:34.69	83.09	15.79	-49.0	-49.7	4.5	0.00e+00	0	39	104	0	60	51758
2026-01-03 21:57:35.56	83.36	15.79	-49.7	-50.7	4.0	0.00e+00	0	39	104	0	60	57947
2026-01-03 21:57:36.71	83.73	15.80	-48.2	-48.9	4.4	0.00e+00	0	39	104	0	60	47116
2026-01-03 21:57:37.58	84.01	15.80	-48.0	-48.6	4.4	0.00e+00	0	39	104	0	60	45476
2026-01-03 21:57:38.73	84.37	15.80	-48.9	-49.7	4.2	0.00e+00	0	39	104	0	60	51363
2026-01-03 21:57:39.60	84.65	15.80	-48.0	-48.7	4.4	0.00e+00	0	39	104	0	60	46077
2026-01-03 21:57:40.75	85.02	15.80	-48.1	-48.9	4.3	0.00e+00	0	39	104	0	60	46910
2026-01-03 21:57:41.62	85.30	15.80	-48.6	-49.5	4.3	0.00e+00	0	39	104	0	60	50238
2026-01-03 21:57:42.78	85.67	15.79	-48.1	-48.9	4.3	0.00e+00	0	39	104	0	60	47267
2026-01-03 21:57:43.64	85.94	15.79	-48.1	-48.9	4.3	0.00e+00	0	39	104	0	60	47225
2026-01-03 21:57:44.80	86.31	15.79	-49.7	-50.6	4.2	0.00e+00	0	39	104	0	60	57008
2026-01-03 21:57:45.66	86.59	15.78	-47.3	-47.9	4.5	0.00e+00	0	39	104	0	60	42210
2026-01-03 21:57:46.82	86.95	15.78	-48.6	-49.3	4.4	0.00e+00	0	39	104	0	60	49422
2026-01-03 21:57:47.69	87.23	15.77	-49.3	-50.2	4.3	0.00e+00	0	39	104	0	60	54425
2026-01-03 21:57:48.84	87.60	15.76	-48.3	-49.0	4.4	0.00e+00	0	39	104	0	60	47756
2026-01-03 21:57:49.71	87.88	15.76	-47.8	-48.5	4.5	0.00e+00	0	39	104	0	60	44761
2026-01-03 21:57:50.86	88.24	15.75	-49.7	-50.6	4.1	0.00e+00	0	39	104	0	60	57089
2026-01-03 21:57:51.73	88.52	15.74	-49.5	-50.4	4.4	0.00e+00	0	39	104	0	60	56054
2026-01-03 21:57:52.89	88.89	15.73	-48.1	-48.9	4.2	0.00e+00	0	39	104	0	60	46857
2026-01-03 21:57:53.75	89.16	15.72	-47.9	-48.6	4.3	0.00e+00	0	39	104	0	60	45425
2026-01-03 21:57:54.91	89.53	15.70	-47.2	-47.8	4.6	0.00e+00	0	39	104	0	60	41632
2026-01-03 21:57:55.77	89.80	15.69	-47.3	-48.0	4.5	0.00e+00	0	39	104	0	60	42586
2026-01-03 21:57:56.93	90.17	15.68	-47.5	-48.2	4.4	0.00e+00	0	39	104	0	60	43305
2026-01-03 21:57:57.80	90.44	15.67	-48.0	-49.0	4.3	0.00e+00	0	39	104	0	60	47439
2026-01-03 21:57:58.95	90.81	15.65	-48.6	-49.6	4.2	0.00e+00	0	39	104	0	60	51067
2026-01-03 21:57:59.82	91.08	15.64	-47.9	-48.7	4.2	0.00e+00	0	39	104	0	60	46015
2026-01-03 21:58:00.97	91.44	15.62	-49.6	-51.0	3.8	0.00e+00	0	39	104	0	60	59875
2026-01-03 21:58:01.84	91.72	15.60	-48.4	-49.5	3.9	0.00e+00	0	39	104	0	60	50370
2026-01-03 21:58:02.99	92.08	15.58	-48.2	-49.2	4.0	0.00e+00	0	39	104	0	60	48880
2026-01-03 21:58:03.86	92.35	15.57	-48.3	-49.3	4.0	0.00e+00	0	39	104	0	60	49305
2026-01-03 21:58:05.01	92.71	15.55	-49.4	-50.7	3.9	0.00e+00	0	39	104	0	60	57689
2026-01-03 21:58:05.88	92.99	15.53	-49.8	-51.3	3.7	0.00e+00	0	39	104	0	60	61977
2026-01-03 21:58:07.03	93.35	15.51	-49.8	-51.4	3.7	0.00e+00	0	39	104	0	60	62920
2026-01-03 21:58:07.89	93.62	15.49	-49.3	-50.9	3.6	0.00e+00	0	39	104	0	60	59024
2026-01-03 21:58:09.05	93.98	15.46	-48.1	-49.7	3.7	0.00e+00	0	39	104	0	60	51757
2026-01-03 21:58:09.91	94.24	15.45	-48.3	-49.9	3.6	0.00e+00	0	39	104	0	60	53132
2026-01-03 21:58:11.07	94.61	15.42	-49.4	-51.2	3.6	0.00e+00	0	39	104	0	60	61571
2026-01-03 21:58:11.94	94.88	15.40	-49.3	-51.2	3.6	0.00e+00	0	39	104	0	60	61555
2026-01-03 21:58:13.09	95.23	15.37	-49.8	-52.1	3.6	0.00e+00	0	39	104	0	60	68388
2026-01-03 21:58:13.96	95.50	15.35	-50.1	-52.4	3.6	0.00e+00	0	39	104	0	60	70337
2026-01-03 21:58:15.11	95.86	15.32	-49.1	-51.4	3.6	0.00e+00	0	39	104	0	60	62913
2026-01-03 21:58:15.97	96.12	15.30	-50.7	-53.1	3.6	0.00e+00	0	39	104	0	60	76245
2026-01-03 21:58:17.13	96.48	15.27	-48.8	-51.1	3.6	0.00e+00	0	39	104	0	60	60788
2026-01-03 21:58:17.99	96.74	15.24	-49.6	-52.1	3.6	0.00e+00	0	39	104	0	60	68202
2026-01-03 21:58:19.15	97.10	15.21	-49.9	-52.4	3.5	0.00e+00	0	39	104	0	60	70453
2026-01-03 21:58:20.01	97.36	15.18	-49.9	-52.3	3.6	0.00e+00	0	39	104	0	60	69938
2026-01-03 21:58:21.16	97.71	15.15	-49.2	-51.6	3.6	0.00e+00	0	39	104	0	60	64330
2026-01-03 21:58:22.03	97.97	15.12	-49.3	-51.8	3.6	0.00e+00	0	39	104	0	60	65506
2026-01-03 21:58:23.19	98.33	15.09	-49.5	-52.1	3.6	0.00e+00	0	39	104	0	60	67918
2026-01-03 21:58:24.05	98.59	15.06	-49.2	-51.6	3.6	0.00e+00	0	39	104	0	60	64329
2026-01-03 21:58:25.21	98.94	15.02	-49.5	-52.0	3.6	0.00e+00	0	39	104	0	60	67449
2026-01-03 21:58:26.07	99.20	15.00	-49.6	-52.0	3.6	0.00e+00	0	39	104	0	60	67068
2026-01-03 21:58:27.22	99.54	14.96	-49.4	-51.8	3.6	0.00e+00	0	39	104	0	60	66005
2026-01-03 21:58:28.09	99.80	14.93	-49.6	-52.1	3.6	0.00e+00	0	39	104	0	60	67930
2026-01-03 21:58:29.24	100.15	14.89	-50.4	-52.9	3.6	0.00e+00	0	39	104	0	60	74882
2026-01-03 21:58:30.11	100.40	14.86	-51.0	-53.3	3.6	0.00e+00	0	39	104	0	60	78348
2026-01-03 21:58:31.26	100.75	14.82	-49.6	-52.1	3.6	0.00e+00	0	39	104	0	60	68363
2026-01-03 21:58:32.13	101.00	14.79	-49.3	-51.7	3.6	0.00e+00	0	39	104	0	60	65332
2026-01-03 21:58:33.28	101.34	14.74	-49.4	-51.9	3.6	0.00e+00	0	39	104	0	60	66176
2026-01-03 21:58:34.15	101.60	14.71	-49.1	-51.6	3.6	0.00e+00	0	39	104	0	60	64340
2026-01-03 21:58:35.30	101.94	14.67	-49.1	-51.6	3.6	0.00e+00	0	39	104	0	60	64270
2026-01-03 21:58:36.16	102.19	14.63	-48.7	-51.2	3.6	0.00e+00	0	39	104	0	60	61393
2026-01-03 21:58:37.32	102.53	14.59	-48.9	-51.4	3.5	0.00e+00	0	39	104	0	60	63129
2026-01-03 21:58:38.18	102.78	14.55	-49.7	-52.1	3.6	0.00e+00	0	39	104	0	60	67875
2026-01-03 21:58:39.34	103.12	14.51	-49.4	-51.9	3.6	0.00e+00	0	39	104	0	60	66604
2026-01-03 21:58:40.20	103.37	14.47	-49.8	-52.2	3.6	0.00e+00	0	39	104	0	60	68981
2026-01-03 21:58:41.36	103.70	14.43	-50.3	-52.6	3.6	0.00e+00	0	39	104	0	60	72472
2026-01-03 21:58:42.22	103.95	14.39	-50.8	-53.2	3.6	0.00e+00	0	39	104	0	60	77690
2026-01-03 21:58:43.38	104.28	14.34	-49.4	-51.9	3.6	0.00e+00	0	39	104	0	60	66457
2026-01-03 21:58:44.24	104.53	14.30	-50.9	-53.3	3.6	0.00e+00	0	39	104	0	60	78319
2026-01-03 21:58:45.40	104.86	14.25	-49.9	-52.2	3.6	0.00e+00	0	39	104	0	60	69193
2026-01-03 21:58:46.26	105.10	14.22	-49.1	-51.5	3.6	0.00e+00	0	39	104	0	60	63604
2026-01-03 21:58:47.42	105.43	14.17	-49.1	-51.5	3.6	0.00e+00	0	39	104	0	60	63706
2026-01-03 21:58:48.28	105.67	14.13	-49.1	-51.6	3.6	0.00e+00	0	39	104	0	60	63973
2026-01-03 21:58:49.44	106.00	14.07	-49.7	-52.1	3.6	0.00e+00	0	39	104	0	60	68313
2026-01-03 21:58:50.30	106.24	14.04	-49.8	-52.2	3.6	0.00e+00	0	39	104	0	60	68778
2026-01-03 21:58:51.46	106.56	13.98	-53.5	-55.9	3.6	0.00e+00	0	39	104	0	60	105934
2026-01-03 21:58:52.32	106.80	13.94	-52.7	-55.2	3.6	0.00e+00	0	39	104	0	60	97194
2026-01-03 21:58:53.48	107.12	13.89	-52.9	-55.4	3.6	0.00e+00	0	39	104	0	60	99869
2026-01-03 21:58:54.34	107.36	13.85	-53.0	-55.5	3.6	0.00e+00	0	39	104	0	60	100536
2026-01-03 21:58:55.49	107.68	13.79	-53.0	-55.5	3.6	0.00e+00	0	39	104	0	60	100200
2026-01-03 21:58:56.36	107.92	13.75	-53.1	-55.7	3.6	0.00e+00	0	39	104	0	60	102951
2026-01-03 21:58:57.51	108.23	13.69	-53.7	-56.3	3.6	0.00e+00	0	39	104	0	60	109805
2026-01-03 21:58:58.38	108.47	13.65	-53.5	-56.1	3.6	0.00e+00	0	39	104	0	60	107497
2026-01-03 21:58:59.53	108.78	13.59	-53.2	-55.7	3.6	0.00e+00	0	39	104	0	60	103062
2026-01-03 21:59:00.40	109.01	13.55	-53.6	-56.1	3.6	0.00e+00	0	39	104	0	60	108141
2026-01-03 21:59:01.55	109.32	13.49	-53.7	-56.2	3.6	0.00e+00	0	39	104	0	60	109611
2026-01-03 21:59:02.42	109.56	13.45	-53.3	-55.7	3.6	0.00e+00	0	39	104	0	60	103247
2026-01-03 21:59:03.57	109.86	13.39	-53.3	-55.9	3.6	0.00e+00	0	39	104	0	60	104900
2026-01-03 21:59:04.44	110.09	13.35	-53.8	-56.2	3.6	0.00e+00	0	39	104	0	60	109186
2026-01-03 21:59:05.59	110.40	13.29	-53.6	-56.2	3.6	0.00e+00	0	39	104	0	60	108849
2026-01-03 21:59:06.46	110.63	13.24	-54.1	-56.5	3.6	0.00e+00	0	39	104	0	60	113213
2026-01-03 21:59:07.61	110.93	13.18	-54.2	-56.6	3.6	0.00e+00	0	39	104	0	60	114227
2026-01-03 21:59:08.48	111.16	13.14	-54.0	-56.4	3.6	0.00e+00	0	39	104	0	60	112244
2026-01-03 21:59:09.63	111.46	13.07	-53.4	-55.8	3.6	0.00e+00	0	39	104	0	60	104475
2026-01-03 21:59:10.50	111.68	13.03	-53.9	-56.4	3.6	0.00e+00	0	39	104	0	60	111897
2026-01-03 21:59:11.65	111.98	12.97	-53.8	-56.2	3.6	0.00e+00	0	39	104	0	60	109633
2026-01-03 21:59:12.52	112.20	12.92	-54.1	-56.6	3.6	0.00e+00	0	39	104	0	60	114062
2026-01-03 21:59:13.67	112.50	12.86	-54.4	-56.9	3.6	0.00e+00	0	39	104	0	60	118268
2026-01-03 21:59:14.54	112.72	12.81	-54.4	-56.8	3.5	0.00e+00	0	39	104	0	60	117068
2026-01-03 21:59:15.69	113.01	12.75	-54.9	-57.4	3.6	0.00e+00	0	39	104	0	60	124637
2026-01-03 21:59:16.56	113.23	12.70	-54.7	-57.3	3.6	0.00e+00	0	39	104	0	60	123977
2026-01-03 21:59:17.71	113.52	12.63	-54.1	-56.6	3.6	0.00e+00	0	39	104	0	60	113923
2026-01-03 21:59:18.58	113.74	12.59	-54.2	-56.8	3.6	0.00e+00	0	39	104	0	60	116331
2026-01-03 21:59:19.73	114.02	12.52	-53.9	-56.4	3.6	0.00e+00	0	39	104	0	60	111461
2026-01-03 21:59:20.60	114.24	12.47	-54.5	-56.9	3.6	0.00e+00	0	39	104	0	60	118801
2026-01-03 21:59:21.75	114.52	12.41	-54.4	-56.8	3.6	0.00e+00	0	39	104	0	60	117010
2026-01-03 21:59:22.62	114.74	12.36	-54.2	-56.8	3.6	0.00e+00	0	39	104	0	60	116394
2026-01-03 21:59:23.77	115.02	12.29	-54.4	-56.9	3.6	0.00e+00	0	39	104	0	60	118556
2026-01-03 21:59:24.64	115.23	12.24	-54.2	-56.7	3.6	0.00e+00	0	39	104	0	60	116255
2026-01-03 21:59:25.79	115.51	12.18	-53.7	-56.2	3.5	0.00e+00	0	39	104	0	60	109218
2026-01-03 21:59:26.66	115.72	12.13	-54.1	-56.5	3.6	0.00e+00	0	39	104	0	60	113366
2026-01-03 21:59:27.81	116.00	12.06	-54.5	-57.0	3.6	0.00e+00	0	39	104	0	60	119764
2026-01-03 21:59:28.68	116.20	12.01	-54.8	-57.3	3.6	0.00e+00	0	39	104	0	60	123728
2026-01-03 21:59:29.83	116.48	11.94	-54.3	-56.8	3.6	0.00e+00	0	39	104	0	60	116389
2026-01-03 21:59:30.69	116.68	11.89	-54.6	-57.1	3.6	0.00e+00	0	39	104	0	60	120790
2026-01-03 21:59:31.85	116.96	11.82	-54.1	-56.6	3.6	0.00e+00	0	39	104	0	60	114443
2026-01-03 21:59:32.71	117.16	11.77	-54.1	-56.6	3.6	0.00e+00	0	39	104	0	60	114737
2026-01-03 21:59:33.87	117.43	11.70	-54.5	-56.9	3.6	0.00e+00	0	39	104	0	60	118716
2026-01-03 21:59:34.73	117.63	11.65	-54.2	-56.7	3.6	0.00e+00	0	39	104	0	60	115515
2026-01-03 21:59:35.89	117.90	11.58	-55.2	-57.6	3.6	0.00e+00	0	39	104	0	60	128070
2026-01-03 21:59:36.76	118.10	11.53	-54.1	-56.6	3.6	0.00e+00	0	39	104	0	60	113943
2026-01-03 21:59:37.91	118.36	11.46	-53.8	-56.3	3.6	0.00e+00	0	39	104	0	60	110271
2026-01-03 21:59:38.77	118.56	11.41	-54.3	-56.7	3.6	0.00e+00	0	39	104	0	60	116187
2026-01-03 21:59:39.93	118.82	11.34	-54.0	-56.5	3.6	0.00e+00	0	39	104	0	60	113004
2026-01-03 21:59:40.80	119.02	11.29	-54.9	-57.4	3.6	0.00e+00	0	39	104	0	60	125455
2026-01-03 21:59:41.95	119.28	11.22	-54.0	-56.5	3.6	0.00e+00	0	39	104	0	60	112366
2026-01-03 21:59:42.81	119.47	11.17	-53.6	-56.0	3.6	0.00e+00	0	39	104	0	60	106868
2026-01-03 21:59:43.97	119.73	11.09	-53.8	-56.3	3.6	0.00e+00	0	39	104	0	60	110087
2026-01-03 21:59:44.83	119.92	11.04	-53.5	-56.0	3.6	0.00e+00	0	39	104	0	60	106372
2026-01-03 21:59:45.99	120.18	10.97	-53.3	-55.8	3.5	0.00e+00	0	39	104	0	60	103775
2026-01-03 21:59:46.85	120.36	10.92	-54.4	-56.9	3.6	0.00e+00	0	39	104	0	60	118000
2026-01-03 21:59:48.01	120.62	10.85	-53.8	-56.3	3.6	0.00e+00	0	39	104	0	60	110727
2026-01-03 21:59:48.87	120.80	10.79	-53.9	-56.4	3.6	0.00e+00	0	39	104	0	60	111666
2026-01-03 21:59:50.03	121.06	10.72	-54.2	-56.7	3.6	0.00e+00	0	39	104	0	60	115187
2026-01-03 21:59:50.89	121.24	10.67	-54.0	-56.5	3.6	0.00e+00	0	39	104	0	60	113623
2026-01-03 21:59:52.05	121.49	10.60	-53.3	-55.7	3.6	0.00e+00	0	39	104	0	60	103497
2026-01-03 21:59:52.92	121.67	10.54	-53.7	-56.2	3.6	0.00e+00	0	39	104	0	60	109598
2026-01-03 21:59:54.07	121.92	10.47	-54.0	-56.5	3.6	0.00e+00	0	39	104	0	60	113202
2026-01-03 21:59:54.94	122.10	10.42	-54.3	-56.7	3.6	0.00e+00	0	39	104	0	60	115939
2026-01-03 21:59:56.10	122.35	10.35	-54.1	-56.6	3.6	0.00e+00	0	39	104	0	60	114161
2026-01-03 21:59:56.96	122.52	10.29	-53.3	-55.8	3.6	0.00e+00	0	39	104	0	60	103783
2026-01-03 21:59:58.11	122.76	10.22	-53.1	-55.6	3.6	0.00e+00	0	39	104	0	60	101635
2026-01-03 21:59:58.98	122.94	10.17	-53.2	-55.7	3.6	0.00e+00	0	39	104	0	60	102765
2026-01-03 22:00:00.14	123.18	10.09	-53.3	-55.8	3.6	0.00e+00	0	39	104	0	60	104409
2026-01-03 22:00:01.00	123.36	10.04	-53.0	-55.5	3.6	0.00e+00	0	39	104	0	60	100729
2026-01-03 22:00:02.16	123.59	9.97	-54.5	-57.0	3.6	0.00e+00	0	39	104	0	60	120006
2026-01-03 22:00:03.02	123.77	9.91	-54.7	-57.1	3.6	0.00e+00	0	39	104	0	60	121685
2026-01-03 22:00:04.18	124.00	9.84	-54.3	-56.7	3.6	0.00e+00	0	39	104	0	60	115607
2026-01-03 22:00:05.04	124.17	9.78	-54.4	-56.9	3.6	0.00e+00	0	39	104	0	60	118477
2026-01-03 22:00:06.20	124.41	9.71	-54.2	-56.8	3.6	0.00e+00	0	39	104	0	60	116398
2026-01-03 22:00:07.06	124.58	9.66	-54.9	-57.3	3.6	0.00e+00	0	39	104	0	60	124265
2026-01-03 22:00:08.22	124.81	9.58	-54.1	-56.5	3.6	0.00e+00	0	39	104	0	60	113421
2026-01-03 22:00:09.08	124.97	9.53	-54.7	-57.1	3.6	0.00e+00	0	39	104	0	60	121678
2026-01-03 22:00:10.24	125.20	9.46	-54.4	-56.9	3.6	0.00e+00	0	39	104	0	60	117926
2026-01-03 22:00:11.10	125.37	9.40	-54.4	-56.9	3.6	0.00e+00	0	39	104	0	60	117859
2026-01-03 22:00:12.26	125.59	9.33	-53.9	-56.4	3.6	0.00e+00	0	39	104	0	60	112052
2026-01-03 22:00:13.12	125.76	9.27	-54.5	-56.9	3.6	0.00e+00	0	39	104	0	60	118394
2026-01-03 22:00:14.28	125.98	9.20	-54.8	-57.2	3.6	0.00e+00	0	39	104	0	60	122678
2026-01-03 22:00:15.14	126.14	9.15	-54.5	-56.9	3.6	0.00e+00	0	39	104	0	60	118408
2026-01-03 22:00:16.29	126.36	9.07	-55.0	-57.5	3.6	0.00e+00	0	39	104	0	60	127238
2026-01-03 22:00:17.16	126.53	9.02	-54.2	-56.6	3.6	0.00e+00	0	39	104	0	60	114637
2026-01-03 22:00:18.31	126.74	8.94	-53.5	-56.0	3.6	0.00e+00	0	39	104	0	60	106513
2026-01-03 22:00:19.18	126.90	8.89	-53.1	-55.5	3.6	0.00e+00	0	39	104	0	60	101145
2026-01-03 22:00:20.33	127.12	8.82	-53.7	-56.2	3.6	0.00e+00	0	39	104	0	60	109530
2026-01-03 22:00:21.20	127.28	8.76	-53.6	-56.1	3.6	0.00e+00	0	39	104	0	60	107423
2026-01-03 22:00:22.35	127.49	8.69	-53.0	-55.5	3.6	0.00e+00	0	39	104	0	60	101099
2026-01-03 22:00:23.22	127.65	8.63	-53.4	-55.9	3.6	0.00e+00	0	39	104	0	60	105281
2026-01-03 22:00:24.37	127.86	8.56	-53.2	-55.7	3.6	0.00e+00	0	39	104	0	60	102814
2026-01-03 22:00:25.24	128.01	8.50	-53.6	-56.1	3.6	0.00e+00	0	39	104	0	60	108161
2026-01-03 22:00:26.39	128.22	8.43	-53.4	-56.0	3.6	0.00e+00	0	39	104	0	60	106161
2026-01-03 22:00:27.25	128.38	8.38	-54.1	-56.6	3.6	0.00e+00	0	39	104	0	60	113784
2026-01-03 22:00:28.41	128.58	8.30	-53.5	-56.0	3.6	0.00e+00	0	39	104	0	60	107050
2026-01-03 22:00:29.27	128.73	8.25	-53.6	-56.1	3.6	0.00e+00	0	39	104	0	60	107869
2026-01-03 22:00:30.43	128.94	8.17	-53.6	-56.0	3.6	0.00e+00	0	39	104	0	60	107129
2026-01-03 22:00:31.29	129.09	8.12	-53.8	-56.2	3.6	0.00e+00	0	39	104	0	60	109691
2026-01-03 22:00:32.45	129.29	8.04	-53.6	-56.0	3.6	0.00e+00	0	39	104	0	60	107036
2026-01-03 22:00:33.31	129.44	7.99	-53.6	-56.1	3.6	0.00e+00	0	39	104	0	60	107890
2026-01-03 22:00:34.47	129.64	7.92	-53.9	-56.3	3.6	0.00e+00	0	39	104	0	60	110995
2026-01-03 22:00:35.33	129.79	7.86	-54.0	-56.5	3.6	0.00e+00	0	39	104	0	60	112533
2026-01-03 22:00:36.48	129.98	7.79	-54.3	-56.8	3.6	0.00e+00	0	39	104	0	60	116389
2026-01-03 22:00:37.35	130.13	7.73	-53.8	-56.3	3.6	0.00e+00	0	39	104	0	60	110300
2026-01-03 22:00:38.50	130.33	7.66	-53.3	-55.8	3.6	0.00e+00	0	39	104	0	60	103938
2026-01-03 22:00:39.37	130.47	7.61	-54.3	-56.8	3.6	0.00e+00	0	39	104	0	60	116710
2026-01-03 22:00:40.52	130.66	7.53	-53.7	-56.2	3.6	0.00e+00	0	39	104	0	60	108592
2026-01-03 22:00:41.39	130.81	7.48	-54.3	-56.7	3.6	0.00e+00	0	39	104	0	60	115900
2026-01-03 22:00:42.54	131.00	7.40	-54.5	-56.9	3.6	0.00e+00	0	39	104	0	60	118292
2026-01-03 22:00:43.41	131.14	7.35	-54.4	-56.8	3.6	0.00e+00	0	39	104	0	60	117240
2026-01-03 22:00:44.56	131.33	7.28	-54.2	-56.7	3.6	0.00e+00	0	39	104	0	60	115468
2026-01-03 22:00:45.43	131.47	7.22	-54.6	-57.0	3.6	0.00e+00	0	39	104	0	60	119783
2026-01-03 22:00:46.58	131.66	7.15	-54.5	-57.0	3.6	0.00e+00	0	39	104	0	60	119371
2026-01-03 22:00:47.45	131.80	7.09	-54.2	-56.7	3.6	0.00e+00	0	39	104	0	60	115184
2026-01-03 22:00:48.60	131.98	7.02	-54.2	-56.7	3.5	0.00e+00	0	39	104	0	60	115578
2026-01-03 22:00:49.47	132.12	6.97	-54.3	-56.8	3.6	0.00e+00	0	39	104	0	60	117032
2026-01-03 22:00:50.63	132.31	6.89	-54.0	-56.4	3.6	0.00e+00	0	39	104	0	60	112330
2026-01-03 22:00:51.49	132.44	6.84	-54.5	-57.0	3.6	0.00e+00	0	39	104	0	60	120351
2026-01-03 22:00:52.64	132.62	6.77	-54.8	-57.3	3.6	0.00e+00	0	39	104	0	60	123278
2026-01-03 22:00:53.51	132.76	6.71	-53.7	-56.2	3.6	0.00e+00	0	39	104	0	60	108694
2026-01-03 22:00:54.67	132.94	6.64	-53.9	-56.5	3.6	0.00e+00	0	39	104	0	60	112469
2026-01-03 22:00:55.53	133.07	6.59	-54.1	-56.6	3.6	0.00e+00	0	39	104	0	60	114313
2026-01-03 22:00:56.69	133.25	6.51	-54.2	-56.7	3.6	0.00e+00	0	39	104	0	60	115044
2026-01-03 22:00:57.55	133.38	6.46	-54.2	-56.7	3.6	0.00e+00	0	39	104	0	60	115479
2026-01-03 22:00:58.71	133.56	6.39	-54.4	-56.8	3.6	0.00e+00	0	39	104	0	60	117581
2026-01-03 22:00:59.57	133.69	6.33	-55.1	-57.6	3.6	0.00e+00	0	39	104	0	60	128813
2026-01-03 22:01:00.73	133.86	6.26	-54.0	-56.4	3.6	0.00e+00	0	39	104	0	60	112248
2026-01-03 22:01:01.59	133.99	6.21	-53.8	-56.2	3.6	0.00e+00	0	39	104	0	60	109483
2026-01-03 22:01:02.75	134.16	6.13	-53.6	-56.1	3.6	0.00e+00	0	39	104	0	60	107579
2026-01-03 22:01:03.61	134.29	6.08	-53.6	-56.1	3.6	0.00e+00	0	39	104	0	60	107750
2026-01-03 22:01:04.77	134.46	6.01	-54.2	-56.7	3.6	0.00e+00	0	39	104	0	60	115152
2026-01-03 22:01:05.63	134.59	5.95	-54.3	-56.8	3.6	0.00e+00	0	39	104	0	60	116393
2026-01-03 22:01:06.79	134.76	5.88	-54.3	-56.8	3.6	0.00e+00	0	39	104	0	60	116320
2026-01-03 22:01:07.65	134.88	5.83	-54.6	-57.2	3.6	0.00e+00	0	39	104	0	60	122084
2026-01-03 22:01:08.80	135.05	5.76	-53.8	-56.3	3.6	0.00e+00	0	39	104	0	60	110517
2026-01-03 22:01:09.67	135.18	5.70	-53.3	-55.8	3.6	0.00e+00	0	39	104	0	60	104518
2026-01-03 22:01:10.82	135.34	5.63	-53.6	-56.1	3.6	0.00e+00	0	39	104	0	60	108045
2026-01-03 22:01:11.69	135.46	5.58	-53.3	-55.7	3.6	0.00e+00	0	39	104	0	60	103541
2026-01-03 22:01:12.85	135.63	5.51	-53.7	-56.2	3.6	0.00e+00	0	39	104	0	60	109467
2026-01-03 22:01:13.71	135.75	5.45	-54.6	-57.1	3.6	0.00e+00	0	39	104	0	60	120715
2026-01-03 22:01:14.87	135.91	5.38	-54.4	-56.9	3.6	0.00e+00	0	39	104	0	60	118940
2026-01-03 22:01:15.73	136.03	5.33	-53.2	-55.6	3.5	0.00e+00	0	39	104	0	60	102154
2026-01-03 22:01:16.89	136.19	5.26	-53.3	-55.7	3.6	0.00e+00	0	39	104	0	60	103641
2026-01-03 22:01:17.75	136.31	5.20	-53.8	-56.3	3.6	0.00e+00	0	39	104	0	60	109809
2026-01-03 22:01:18.91	136.47	5.13	-53.6	-56.1	3.6	0.00e+00	0	39	104	0	60	107550
2026-01-03 22:01:19.77	136.59	5.08	-54.2	-56.7	3.6	0.00e+00	0	39	104	0	60	115891
2026-01-03 22:01:20.93	136.74	5.01	-54.3	-56.7	3.6	0.00e+00	0	39	104	0	60	115890
2026-01-03 22:01:21.80	136.86	4.96	-54.6	-57.1	3.6	0.00e+00	0	39	104	0	60	120868
2026-01-03 22:01:22.95	137.02	4.89	-54.0	-56.5	3.6	0.00e+00	0	39	104	0	60	113169
2026-01-03 22:01:23.82	137.13	4.83	-54.8	-57.4	3.6	0.00e+00	0	39	104	0	60	125837
2026-01-03 22:01:24.97	137.29	4.76	-54.3	-56.8	3.6	0.00e+00	0	39	104	0	60	117070
2026-01-03 22:01:25.84	137.40	4.71	-54.0	-56.4	3.6	0.00e+00	0	39	104	0	60	111484
2026-01-03 22:01:26.99	137.55	4.64	-54.5	-56.9	3.6	0.00e+00	0	39	104	0	60	118272
2026-01-03 22:01:27.86	137.67	4.59	-54.6	-57.1	3.6	0.00e+00	0	39	104	0	60	120604
2026-01-03 22:01:29.01	137.82	4.52	-54.8	-57.2	3.6	0.00e+00	0	39	104	0	60	123091
2026-01-03 22:01:29.88	137.93	4.46	-54.4	-56.9	3.6	0.00e+00	0	39	104	0	60	118354
2026-01-03 22:01:31.03	138.08	4.40	-54.1	-56.6	3.6	0.00e+00	0	39	104	0	60	114733
2026-01-03 22:01:31.90	138.19	4.34	-53.5	-56.0	3.6	0.00e+00	0	39	104	0	60	106479
2026-01-03 22:01:33.06	138.34	4.27	-53.4	-55.9	3.6	0.00e+00	0	39	104	0	60	104946
2026-01-03 22:01:33.92	138.45	4.22	-53.4	-55.8	3.6	0.00e+00	0	39	104	0	60	104781
2026-01-03 22:01:35.08	138.60	4.15	-54.2	-56.7	3.6	0.00e+00	0	39	104	0	60	116076
2026-01-03 22:01:35.94	138.70	4.10	-53.1	-55.6	3.6	0.00e+00	0	39	104	0	60	101986
2026-01-03 22:01:37.10	138.85	4.03	-53.0	-55.5	3.6	0.00e+00	0	39	104	0	60	100532
2026-01-03 22:01:37.96	138.96	3.98	-53.3	-55.8	3.6	0.00e+00	0	39	104	0	60	103855
2026-01-03 22:01:39.12	139.10	3.91	-53.4	-55.8	3.5	0.00e+00	0	39	104	0	60	104434
2026-01-03 22:01:39.99	139.21	3.86	-53.1	-55.6	3.6	0.00e+00	0	39	104	0	60	101968
2026-01-03 22:01:41.14	139.35	3.79	-53.7	-56.2	3.6	0.00e+00	0	39	104	0	60	108974
2026-01-03 22:01:42.01	139.46	3.74	-54.6	-57.0	3.6	0.00e+00	0	39	104	0	60	120246
2026-01-03 22:01:43.16	139.60	3.67	-54.4	-56.9	3.6	0.00e+00	0	39	104	0	60	117663
2026-01-03 22:01:44.03	139.70	3.62	-54.5	-56.9	3.6	0.00e+00	0	39	104	0	60	118975
2026-01-03 22:01:45.19	139.84	3.55	-54.8	-57.2	3.6	0.00e+00	0	39	104	0	60	121782
2026-01-03 22:01:46.05	139.94	3.50	-54.1	-56.6	3.6	0.00e+00	0	39	104	0	60	114676
2026-01-03 22:01:47.21	140.08	3.43	-55.1	-57.4	3.6	0.00e+00	0	39	104	0	60	125837
2026-01-03 22:01:48.08	140.19	3.38	-54.5	-56.9	3.6	0.00e+00	0	39	104	0	60	118747
2026-01-03 22:01:49.23	140.32	3.31	-54.6	-57.0	3.5	0.00e+00	0	39	104	0	60	120167
2026-01-03 22:01:50.10	140.42	3.26	-54.9	-57.4	3.6	0.00e+00	0	39	104	0	60	125708
2026-01-03 22:01:51.25	140.56	3.19	-55.0	-57.6	3.6	0.00e+00	0	39	104	0	60	127748
2026-01-03 22:01:52.12	140.66	3.14	-53.4	-55.8	3.6	0.00e+00	0	39	104	0	60	104715
2026-01-03 22:01:53.28	140.79	3.07	-53.6	-56.0	3.6	0.00e+00	0	39	104	0	60	107140
2026-01-03 22:01:54.14	140.89	3.02	-53.8	-56.3	3.6	0.00e+00	0	39	104	0	60	109934
2026-01-03 22:01:55.30	141.03	2.95	-54.3	-56.8	3.6	0.00e+00	0	39	104	0	60	117010
2026-01-03 22:01:56.16	141.12	2.90	-53.3	-55.8	3.6	0.00e+00	0	39	104	0	60	104200
2026-01-03 22:01:57.32	141.26	2.83	-53.3	-55.8	3.6	0.00e+00	0	39	104	0	60	103833
2026-01-03 22:01:58.18	141.35	2.78	-53.1	-55.6	3.6	0.00e+00	0	39	104	0	60	101688
2026-01-03 22:01:59.34	141.48	2.72	-52.8	-55.3	3.6	0.00e+00	0	39	104	0	60	98971
2026-01-03 22:02:00.20	141.58	2.67	-54.5	-57.0	3.6	0.00e+00	0	39	104	0	60	119374
2026-01-03 22:02:01.36	141.71	2.60	-54.5	-57.1	3.6	0.00e+00	0	39	104	0	60	120557
2026-01-03 22:02:02.23	141.80	2.55	-54.0	-56.5	3.6	0.00e+00	0	39	104	0	60	112768
2026-01-03 22:02:03.38	141.93	2.48	-53.6	-56.1	3.6	0.00e+00	0	39	104	0	60	108188
2026-01-03 22:02:04.25	142.03	2.43	-53.8	-56.4	3.6	0.00e+00	0	39	104	0	60	111186
2026-01-03 22:02:05.41	142.15	2.36	-53.7	-56.2	3.6	0.00e+00	0	39	104	0	60	108758
2026-01-03 22:02:06.27	142.25	2.31	-53.5	-56.1	3.6	0.00e+00	0	39	104	0	60	107573
2026-01-03 22:02:07.43	142.37	2.25	-53.2	-55.7	3.6	0.00e+00	0	39	104	0	60	102500
2026-01-03 22:02:08.29	142.47	2.20	-54.2	-56.7	3.6	0.00e+00	0	39	104	0	60	116118
2026-01-03 22:02:09.45	142.59	2.13	-53.5	-55.9	3.6	0.00e+00	0	39	104	0	60	105945
2026-01-03 22:02:10.31	142.68	2.08	-53.1	-55.6	3.6	0.00e+00	0	39	104	0	60	102297
2026-01-03 22:02:11.47	142.80	2.02	-54.1	-56.5	3.6	0.00e+00	0	39	104	0	60	113527
2026-01-03 22:02:12.33	142.90	1.97	-53.4	-55.9	3.6	0.00e+00	0	39	104	0	60	104894
2026-01-03 22:02:13.49	143.02	1.90	-54.2	-56.7	3.6	0.00e+00	0	39	104	0	60	116127
2026-01-03 22:02:14.35	143.11	1.85	-54.6	-57.0	3.6	0.00e+00	0	39	104	0	60	120270
2026-01-03 22:02:15.51	143.23	1.79	-54.7	-57.1	3.6	0.00e+00	0	39	104	0	60	121231
2026-01-03 22:02:16.38	143.32	1.74	-55.3	-57.6	3.6	0.00e+00	0	39	104	0	60	128371
2026-01-03 22:02:17.53	143.44	1.67	-55.3	-57.8	3.6	0.00e+00	0	39	104	0	60	130536
2026-01-03 22:02:18.40	143.53	1.62	-55.0	-57.5	3.6	0.00e+00	0	39	104	0	60	126369
2026-01-03 22:02:19.55	143.64	1.56	-54.5	-57.0	3.6	0.00e+00	0	39	104	0	60	119370
2026-01-03 22:02:20.42	143.73	1.51	-55.2	-57.7	3.6	0.00e+00	0	39	104	0	60	129664
2026-01-03 22:02:21.57	143.85	1.44	-54.9	-57.5	3.6	0.00e+00	0	39	104	0	60	126262
2026-01-03 22:02:22.44	143.94	1.39	-55.5	-58.0	3.6	0.00e+00	0	39	104	0	60	133752
2026-01-03 22:02:23.60	144.05	1.33	-54.8	-57.4	3.6	0.00e+00	0	39	104	0	60	124929
2026-01-03 22:02:24.46	144.14	1.28	-54.8	-57.2	3.6	0.00e+00	0	39	104	0	60	122726
2026-01-03 22:02:25.62	144.26	1.22	-54.3	-56.8	3.6	0.00e+00	0	39	104	0	60	116714
2026-01-03 22:02:26.48	144.34	1.17	-54.8	-57.2	3.6	0.00e+00	0	39	104	0	60	122434
2026-01-03 22:02:27.64	144.45	1.10	-54.4	-56.9	3.6	0.00e+00	0	39	104	0	60	117963
2026-01-03 22:02:28.50	144.54	1.05	-55.0	-57.5	3.6	0.00e+00	0	39	104	0	60	126631
2026-01-03 22:02:29.66	144.65	0.99	-55.2	-57.7	3.6	0.00e+00	0	39	104	0	60	129527
2026-01-03 22:02:30.52	144.74	0.94	-54.4	-56.9	3.6	0.00e+00	0	39	104	0	60	118530
2026-01-03 22:02:31.68	144.85	0.88	-53.7	-56.2	3.6	0.00e+00	0	39	104	0	60	109451
2026-01-03 22:02:32.54	144.93	0.83	-54.3	-56.8	3.6	0.00e+00	0	39	104	0	60	117001
2026-01-03 22:02:33.70	145.04	0.77	-54.8	-57.2	3.6	0.00e+00	0	39	104	0	60	123170
2026-01-03 22:02:34.57	145.13	0.72	-54.3	-56.8	3.6	0.00e+00	0	39	104	0	60	116765
2026-01-03 22:02:35.72	145.23	0.65	-55.0	-57.5	3.6	0.00e+00	0	39	104	0	60	126260
2026-01-03 22:02:36.59	145.32	0.61	-54.9	-57.5	3.6	0.00e+00	0	39	104	0	60	126144
2026-01-03 22:02:37.74	145.43	0.54	-54.0	-56.5	3.5	0.00e+00	0	39	104	0	60	112604
2026-01-03 22:02:38.61	145.51	0.49	-54.2	-56.6	3.6	0.00e+00	0	39	104	0	60	114171
2026-01-03 22:02:39.76	145.61	0.43	-53.7	-56.1	3.6	0.00e+00	0	39	104	0	60	108466
2026-01-03 22:02:40.63	145.69	0.38	-53.9	-56.4	3.6	0.00e+00	0	39	104	0	60	111639
2026-01-03 22:02:41.78	145.80	0.32	-53.5	-56.0	3.6	0.00e+00	0	39	104	0	60	107048
2026-01-03 22:02:42.65	145.88	0.27	-53.2	-55.8	3.6	0.00e+00	0	39	104	0	60	103816
2026-01-03 22:02:43.80	145.99	0.21	-53.3	-55.8	3.6	0.00e+00	0	39	104	0	60	103779
2026-01-03 22:02:44.67	146.07	0.16	-53.7	-56.2	3.6	0.00e+00	0	39	104	0	60	108608
2026-01-03 22:02:45.83	146.17	0.10	-53.4	-55.8	3.6	0.00e+00	0	39	104	0	60	104592
2026-01-03 22:02:46.69	146.25	0.05	-53.0	-55.5	3.6	0.00e+00	0	39	104	0	60	100734
2026-01-03 22:02:47.85	146.35	-0.01	-53.2	-55.8	3.6	0.00e+00	0	39	104	0	60	103864

#Closed at: 2026-01-03 22:02:48
#Recorded file [0 MB]: D:/lorett/data/35034_260104_005227.dat