passes_logs/2026/01/03/R4.6S_Anadyr_2ch/R4.6S_Anadyr_2ch__20260103_072626_2025-108B_rec.log

#Pass ID: 20260103_072626_2025-108B
#Satellite: 2025-108B
#Configuration: 3PB_600M
#almurnet v.1.7.20251203
#Start time: 2026-01-03 07:26:29

#Version: 2.2.20231116
#Station: R4.6S_Anadyr_2ch
#Location: 177.4865 lon 64.73178 lat
#TLE: 1 64088U 25108B   25351.01672131  .00008460  00000+0  43413-3 0  9994
#TLE: 2 64088  97.4940  63.8579 0011684 285.1423  74.8517 15.16717580 31720

#Time	Az	El	Level	Level2	SNR	BER	BlckErr	Temp	State	Recorded	gain1	gain2
2026-01-03 07:26:29.53	101.73	0.19	-53.6	-54.6	3.3	0.00e+00	0	36	0	0	60	91104
2026-01-03 07:26:30.54	101.65	0.25	-53.6	-56.1	3.6	0.00e+00	0	36	104	0	60	107927
2026-01-03 07:26:31.55	101.56	0.30	-53.7	-56.1	3.5	0.00e+00	0	36	104	0	60	108394
2026-01-03 07:26:32.56	101.48	0.36	-53.5	-55.9	3.6	0.00e+00	0	36	104	0	60	105615
2026-01-03 07:26:33.57	101.40	0.42	-53.5	-55.9	3.6	0.00e+00	0	36	104	0	60	105999
2026-01-03 07:26:34.58	101.31	0.47	-53.6	-56.0	3.6	0.00e+00	0	36	104	0	60	107058
2026-01-03 07:26:35.59	101.22	0.53	-53.8	-56.2	3.6	0.00e+00	0	36	104	0	60	109678
2026-01-03 07:26:36.60	101.14	0.59	-53.6	-56.0	3.6	0.00e+00	0	36	104	0	60	106868
2026-01-03 07:26:37.61	101.05	0.64	-53.5	-56.0	3.6	0.00e+00	0	36	104	0	60	106419
2026-01-03 07:26:38.62	100.96	0.70	-53.7	-56.1	3.6	0.00e+00	0	36	104	0	60	107622
2026-01-03 07:26:39.63	100.88	0.76	-53.4	-55.8	3.6	0.00e+00	0	36	104	0	60	104812
2026-01-03 07:26:40.64	100.79	0.82	-53.2	-55.7	3.6	0.00e+00	0	36	104	0	60	102953
2026-01-03 07:26:41.65	100.70	0.87	-53.2	-55.7	3.6	0.00e+00	0	36	104	0	60	103026
2026-01-03 07:26:42.66	100.61	0.93	-53.0	-55.5	3.6	0.00e+00	0	36	104	0	60	100409
2026-01-03 07:26:43.67	100.52	0.99	-53.0	-55.5	3.6	0.00e+00	0	36	104	0	60	100254
2026-01-03 07:26:44.68	100.43	1.05	-53.2	-55.6	3.6	0.00e+00	0	36	104	0	60	102201
2026-01-03 07:26:45.68	100.34	1.10	-52.9	-55.4	3.6	0.00e+00	0	36	104	0	60	99071
2026-01-03 07:26:46.69	100.25	1.16	-53.2	-55.7	3.6	0.00e+00	0	37	104	0	60	102989
2026-01-03 07:26:47.70	100.16	1.22	-53.2	-55.7	3.6	0.00e+00	0	36	104	0	60	102519
2026-01-03 07:26:48.71	100.07	1.28	-53.1	-55.6	3.6	0.00e+00	0	36	104	0	60	102001
2026-01-03 07:26:49.72	99.98	1.33	-53.4	-55.8	3.6	0.00e+00	0	37	104	0	60	104472
2026-01-03 07:26:50.73	99.89	1.39	-53.1	-55.5	3.6	0.00e+00	0	37	104	0	60	100543
2026-01-03 07:26:51.74	99.79	1.45	-53.1	-55.5	3.6	0.00e+00	0	37	104	0	60	100635
2026-01-03 07:26:52.75	99.70	1.51	-53.1	-55.6	3.6	0.00e+00	0	37	104	0	60	101311
2026-01-03 07:26:53.76	99.61	1.57	-53.3	-55.8	3.6	0.00e+00	0	37	104	0	60	103969
2026-01-03 07:26:54.77	99.51	1.63	-53.2	-55.7	3.6	0.00e+00	0	37	104	0	60	103220
2026-01-03 07:26:55.78	99.42	1.69	-53.5	-56.0	3.5	0.00e+00	0	37	104	0	60	106423
2026-01-03 07:26:56.79	99.32	1.74	-53.5	-55.9	3.6	0.00e+00	0	37	104	0	60	105929
2026-01-03 07:26:57.80	99.23	1.80	-53.4	-55.9	3.6	0.00e+00	0	37	104	0	60	105657
2026-01-03 07:26:58.81	99.13	1.86	-53.5	-55.9	3.6	0.00e+00	0	37	104	0	60	106034
2026-01-03 07:26:59.82	99.03	1.92	-53.6	-56.0	3.6	0.00e+00	0	37	104	0	60	106894
2026-01-03 07:27:00.83	98.94	1.98	-53.3	-55.7	3.6	0.00e+00	0	37	104	0	60	103527
2026-01-03 07:27:01.84	98.84	2.04	-53.4	-55.8	3.6	0.00e+00	0	37	104	0	60	104270
2026-01-03 07:27:02.85	98.74	2.10	-53.2	-55.7	3.6	0.00e+00	0	37	104	0	60	102518
2026-01-03 07:27:03.87	98.64	2.16	-52.9	-55.4	3.6	0.00e+00	0	37	104	0	60	99163
2026-01-03 07:27:04.88	98.54	2.22	-52.8	-55.2	3.6	0.00e+00	0	37	104	0	60	97338
2026-01-03 07:27:05.89	98.44	2.28	-52.7	-55.2	3.6	0.00e+00	0	37	104	0	60	96879
2026-01-03 07:27:06.90	98.34	2.34	-53.0	-55.5	3.6	0.00e+00	0	37	104	0	60	101009
2026-01-03 07:27:07.91	98.24	2.40	-53.1	-55.5	3.6	0.00e+00	0	37	104	0	60	101204
2026-01-03 07:27:08.92	98.14	2.46	-53.0	-55.4	3.6	0.00e+00	0	37	104	0	60	100123
2026-01-03 07:27:09.93	98.04	2.52	-53.0	-55.5	3.6	0.00e+00	0	37	104	0	60	100278
2026-01-03 07:27:10.94	97.93	2.58	-52.8	-55.3	3.6	0.00e+00	0	37	104	0	60	98423
2026-01-03 07:27:11.95	97.83	2.64	-52.8	-55.3	3.6	0.00e+00	0	37	104	0	60	98457
2026-01-03 07:27:12.96	97.73	2.70	-52.9	-55.4	3.6	0.00e+00	0	37	104	0	60	99249
2026-01-03 07:27:13.97	97.62	2.76	-52.9	-55.3	3.6	0.00e+00	0	37	104	0	60	98737
2026-01-03 07:27:14.98	97.52	2.82	-53.0	-55.4	3.6	0.00e+00	0	37	104	0	60	99778
2026-01-03 07:27:15.99	97.41	2.88	-52.9	-55.4	3.6	0.00e+00	0	37	104	0	60	99812
2026-01-03 07:27:17.00	97.31	2.94	-53.1	-55.5	3.6	0.00e+00	0	37	104	0	60	101051
2026-01-03 07:27:18.01	97.20	3.00	-53.0	-55.5	3.6	0.00e+00	0	37	104	0	60	100632
2026-01-03 07:27:19.02	97.09	3.06	-53.0	-55.5	3.6	0.00e+00	0	37	104	0	60	100535
2026-01-03 07:27:20.03	96.99	3.12	-52.9	-55.3	3.6	0.00e+00	0	37	104	0	60	98979
2026-01-03 07:27:21.04	96.88	3.18	-52.8	-55.2	3.6	0.00e+00	0	37	104	0	60	97745
2026-01-03 07:27:22.05	96.77	3.24	-52.9	-55.3	3.6	0.00e+00	0	37	104	0	60	98383
2026-01-03 07:27:23.06	96.66	3.30	-52.8	-55.3	3.6	0.00e+00	0	37	104	0	60	98216
2026-01-03 07:27:24.07	96.55	3.37	-52.8	-55.3	3.5	0.00e+00	0	37	104	0	60	98167
2026-01-03 07:27:25.08	96.44	3.43	-53.0	-55.4	3.6	0.00e+00	0	37	104	0	60	100048
2026-01-03 07:27:26.09	96.33	3.49	-53.0	-55.4	3.6	0.00e+00	0	37	104	0	60	99887
2026-01-03 07:27:27.10	96.22	3.55	-53.0	-55.5	3.6	0.00e+00	0	37	104	0	60	100174
2026-01-03 07:27:28.11	96.11	3.61	-53.4	-55.8	3.6	0.00e+00	0	37	104	0	60	104502
2026-01-03 07:27:29.12	95.99	3.67	-53.2	-55.6	3.6	0.00e+00	0	37	104	0	60	101893
2026-01-03 07:27:30.13	95.88	3.74	-53.1	-55.6	3.6	0.00e+00	0	37	104	0	60	101461
2026-01-03 07:27:31.14	95.77	3.80	-53.4	-55.8	3.6	0.00e+00	0	37	104	0	60	103993
2026-01-03 07:27:32.15	95.65	3.86	-53.4	-55.9	3.6	0.00e+00	0	37	104	0	60	105218
2026-01-03 07:27:33.16	95.54	3.92	-53.1	-55.6	3.6	0.00e+00	0	37	104	0	60	101545
2026-01-03 07:27:34.17	95.42	3.98	-53.1	-55.5	3.6	0.00e+00	0	38	104	0	60	100841
2026-01-03 07:27:35.18	95.30	4.05	-53.1	-55.6	3.6	0.00e+00	0	37	104	0	60	101666
2026-01-03 07:27:36.19	95.19	4.11	-53.1	-55.5	3.6	0.00e+00	0	38	104	0	60	100290
2026-01-03 07:27:37.20	95.07	4.17	-52.9	-55.3	3.6	0.00e+00	0	38	104	0	60	98544
2026-01-03 07:27:38.21	94.95	4.23	-53.2	-55.7	3.6	0.00e+00	0	38	104	0	60	102691
2026-01-03 07:27:39.22	94.83	4.30	-53.3	-55.7	3.6	0.00e+00	0	38	104	0	60	103496
2026-01-03 07:27:40.23	94.71	4.36	-53.2	-55.7	3.6	0.00e+00	0	38	104	0	60	102840
2026-01-03 07:27:41.25	94.59	4.42	-53.0	-55.5	3.6	0.00e+00	0	38	104	0	60	100209
2026-01-03 07:27:42.26	94.47	4.49	-53.0	-55.5	3.6	0.00e+00	0	38	104	0	60	100432
2026-01-03 07:27:43.27	94.35	4.55	-52.9	-55.4	3.5	0.00e+00	0	38	104	0	60	99381
2026-01-03 07:27:44.28	94.22	4.61	-52.9	-55.4	3.6	0.00e+00	0	38	104	0	60	99665
2026-01-03 07:27:45.29	94.10	4.67	-53.3	-55.8	3.6	0.00e+00	0	38	104	0	60	103972
2026-01-03 07:27:46.29	93.98	4.74	-52.9	-55.4	3.6	0.00e+00	0	38	104	0	60	99171
2026-01-03 07:27:47.30	93.85	4.80	-53.1	-55.6	3.6	0.00e+00	0	38	104	0	60	101707
2026-01-03 07:27:48.31	93.73	4.86	-53.1	-55.6	3.6	0.00e+00	0	38	104	0	60	101583
2026-01-03 07:27:49.32	93.60	4.93	-52.9	-55.4	3.6	0.00e+00	0	38	104	0	60	99027
2026-01-03 07:27:50.33	93.48	4.99	-53.0	-55.5	3.6	0.00e+00	0	38	104	0	60	100165
2026-01-03 07:27:51.34	93.35	5.06	-53.0	-55.4	3.6	0.00e+00	0	38	104	0	60	100082
2026-01-03 07:27:52.35	93.22	5.12	-53.0	-55.5	3.6	0.00e+00	0	38	104	0	60	100749
2026-01-03 07:27:53.36	93.09	5.18	-53.0	-55.5	3.6	0.00e+00	0	38	104	0	60	100257
2026-01-03 07:27:54.37	92.96	5.25	-53.0	-55.4	3.6	0.00e+00	0	38	104	0	60	100093
2026-01-03 07:27:55.38	92.83	5.31	-53.1	-55.5	3.6	0.00e+00	0	38	104	0	60	101054
2026-01-03 07:27:56.39	92.70	5.38	-53.2	-55.6	3.6	0.00e+00	0	38	104	0	60	102163
2026-01-03 07:27:57.40	92.57	5.44	-53.1	-55.5	3.6	0.00e+00	0	38	104	0	60	100994
2026-01-03 07:27:58.41	92.44	5.50	-53.1	-55.5	3.6	0.00e+00	0	38	104	0	60	101153
2026-01-03 07:27:59.42	92.31	5.57	-53.1	-55.6	3.6	0.00e+00	0	38	104	0	60	101643
2026-01-03 07:28:00.43	92.17	5.63	-53.2	-55.6	3.6	0.00e+00	0	38	104	0	60	102205
2026-01-03 07:28:01.44	92.04	5.70	-53.1	-55.5	3.6	0.00e+00	0	38	104	0	60	101018
2026-01-03 07:28:02.45	91.90	5.76	-53.1	-55.6	3.6	0.00e+00	0	38	104	0	60	101697
2026-01-03 07:28:03.46	91.77	5.83	-52.9	-55.4	3.6	0.00e+00	0	38	104	0	60	99484
2026-01-03 07:28:04.47	91.63	5.89	-53.2	-55.6	3.6	0.00e+00	0	38	104	0	60	101710
2026-01-03 07:28:05.48	91.49	5.96	-52.9	-55.3	3.6	0.00e+00	0	38	104	0	60	98492
2026-01-03 07:28:06.49	91.35	6.02	-53.1	-55.6	3.6	0.00e+00	0	38	104	0	60	101491
2026-01-03 07:28:07.50	91.22	6.09	-53.0	-55.4	3.6	0.00e+00	0	38	104	0	60	99987
2026-01-03 07:28:08.51	91.08	6.15	-53.0	-55.5	3.6	0.00e+00	0	38	104	0	60	100130
2026-01-03 07:28:09.52	90.93	6.22	-53.1	-55.5	3.6	0.00e+00	0	38	104	0	60	100885
2026-01-03 07:28:10.53	90.79	6.28	-53.2	-55.6	3.6	0.00e+00	0	38	104	0	60	102007
2026-01-03 07:28:11.54	90.65	6.35	-53.0	-55.4	3.6	0.00e+00	0	38	104	0	60	99957
2026-01-03 07:28:12.55	90.51	6.41	-52.8	-55.3	3.6	0.00e+00	0	38	104	0	60	98600
2026-01-03 07:28:13.56	90.36	6.48	-52.8	-55.2	3.6	0.00e+00	0	38	104	0	60	97391
2026-01-03 07:28:14.57	90.22	6.54	-52.8	-55.2	3.6	0.00e+00	0	38	104	0	60	97397
2026-01-03 07:28:15.58	90.07	6.61	-52.7	-55.2	3.6	0.00e+00	0	38	104	0	60	97414
2026-01-03 07:28:16.59	89.93	6.68	-52.8	-55.2	3.6	0.00e+00	0	38	104	0	60	97064
2026-01-03 07:28:17.60	89.78	6.74	-52.7	-55.2	3.6	0.00e+00	0	38	104	0	60	96807
2026-01-03 07:28:18.61	89.63	6.81	-52.8	-55.3	3.6	0.00e+00	0	38	104	0	60	98162
2026-01-03 07:28:19.62	89.48	6.87	-52.7	-55.2	3.6	0.00e+00	0	38	104	0	60	97353
2026-01-03 07:28:20.63	89.33	6.94	-52.7	-55.1	3.6	0.00e+00	0	38	104	0	60	96465
2026-01-03 07:28:21.64	89.18	7.01	-52.7	-55.2	3.5	0.00e+00	0	38	104	0	60	96922
2026-01-03 07:28:22.66	89.03	7.07	-52.8	-55.2	3.6	0.00e+00	0	38	104	0	60	97455
2026-01-03 07:28:23.67	88.88	7.14	-52.9	-55.4	3.6	0.00e+00	0	38	104	0	60	99633
2026-01-03 07:28:24.68	88.73	7.20	-52.9	-55.4	3.6	0.00e+00	0	38	104	0	60	99626
2026-01-03 07:28:25.69	88.57	7.27	-52.9	-55.3	3.6	0.00e+00	0	38	104	0	60	98385
2026-01-03 07:28:26.70	88.42	7.34	-52.8	-55.2	3.6	0.00e+00	0	38	104	0	60	97587
2026-01-03 07:28:27.71	88.26	7.40	-52.9	-55.4	3.6	0.00e+00	0	38	104	0	60	99384
2026-01-03 07:28:28.72	88.10	7.47	-52.8	-55.2	3.6	0.00e+00	0	38	104	0	60	97849
2026-01-03 07:28:29.73	87.95	7.54	-52.8	-55.3	3.6	0.00e+00	0	38	104	0	60	98315
2026-01-03 07:28:30.74	87.79	7.60	-52.9	-55.3	3.6	0.00e+00	0	38	104	0	60	98396
2026-01-03 07:28:31.75	87.63	7.67	-52.8	-55.2	3.6	0.00e+00	0	38	104	0	60	97243
2026-01-03 07:28:32.76	87.47	7.74	-52.9	-55.4	3.6	0.00e+00	0	38	104	0	60	99063
2026-01-03 07:28:33.77	87.31	7.80	-53.0	-55.5	3.6	0.00e+00	0	38	104	0	60	100197
2026-01-03 07:28:34.78	87.15	7.87	-52.8	-55.3	3.6	0.00e+00	0	38	104	0	60	98541
2026-01-03 07:28:35.79	86.98	7.94	-52.9	-55.3	3.6	0.00e+00	0	38	104	0	60	98471
2026-01-03 07:28:36.80	86.82	8.00	-52.8	-55.2	3.6	0.00e+00	0	38	104	0	60	97405
2026-01-03 07:28:37.81	86.65	8.07	-52.8	-55.2	3.6	0.00e+00	0	38	104	0	60	97639
2026-01-03 07:28:38.83	86.49	8.14	-52.8	-55.2	3.5	0.00e+00	0	39	104	0	60	97298
2026-01-03 07:28:39.83	86.32	8.20	-52.7	-55.1	3.6	0.00e+00	0	38	104	0	60	95925
2026-01-03 07:28:40.85	86.15	8.27	-52.7	-55.2	3.6	0.00e+00	0	38	104	0	60	97547
2026-01-03 07:28:41.86	85.98	8.34	-52.7	-55.2	3.6	0.00e+00	0	38	104	0	60	97440
2026-01-03 07:28:42.87	85.81	8.41	-52.7	-55.1	3.6	0.00e+00	0	38	104	0	60	96308
2026-01-03 07:28:43.87	85.65	8.47	-52.6	-55.1	3.6	0.00e+00	0	38	104	0	60	95703
2026-01-03 07:28:44.89	85.47	8.54	-52.6	-55.1	3.6	0.00e+00	0	38	104	0	60	95826
2026-01-03 07:28:45.89	85.30	8.61	-52.6	-55.1	3.6	0.00e+00	0	39	104	0	60	95984
2026-01-03 07:28:46.91	85.13	8.67	-52.6	-55.1	3.6	0.00e+00	0	38	104	0	60	95875
2026-01-03 07:28:47.92	84.95	8.74	-52.6	-55.1	3.6	0.00e+00	0	38	104	0	60	95962
2026-01-03 07:28:48.92	84.78	8.81	-52.7	-55.1	3.6	0.00e+00	0	38	104	0	60	96277
2026-01-03 07:28:49.94	84.60	8.88	-52.6	-55.1	3.6	0.00e+00	0	38	104	0	60	95850
2026-01-03 07:28:50.95	84.42	8.94	-52.6	-55.1	3.6	0.00e+00	0	38	104	0	60	95925
2026-01-03 07:28:51.96	84.24	9.01	-52.6	-55.1	3.5	0.00e+00	0	38	104	0	60	95640
2026-01-03 07:28:52.97	84.06	9.08	-52.6	-55.0	3.6	0.00e+00	0	38	104	0	60	95305
2026-01-03 07:28:53.98	83.88	9.14	-52.6	-55.0	3.6	0.00e+00	0	38	104	0	60	95381
2026-01-03 07:28:54.99	83.70	9.21	-52.6	-55.1	3.6	0.00e+00	0	38	104	0	60	96059
2026-01-03 07:28:56.00	83.52	9.28	-52.8	-55.3	3.6	0.00e+00	0	39	104	0	60	98532
2026-01-03 07:28:57.01	83.34	9.35	-53.0	-55.5	3.6	0.00e+00	0	39	104	0	60	100640
2026-01-03 07:28:58.02	83.15	9.41	-52.9	-55.4	3.6	0.00e+00	0	39	104	0	60	99343
2026-01-03 07:28:59.03	82.97	9.48	-53.1	-55.6	3.6	0.00e+00	0	38	104	0	60	101992
2026-01-03 07:29:00.04	82.78	9.55	-52.9	-55.4	3.6	0.00e+00	0	39	104	0	60	99223
2026-01-03 07:29:01.05	82.59	9.61	-53.1	-55.5	3.6	0.00e+00	0	39	104	0	60	100719
2026-01-03 07:29:02.06	82.40	9.68	-53.0	-55.4	3.6	0.00e+00	0	38	104	0	60	100123
2026-01-03 07:29:03.07	82.21	9.75	-52.9	-55.4	3.6	0.00e+00	0	39	104	0	60	99208
2026-01-03 07:29:04.09	82.02	9.82	-53.0	-55.5	3.6	0.00e+00	0	39	104	0	60	100525
2026-01-03 07:29:05.10	81.83	9.88	-53.0	-55.4	3.5	0.00e+00	0	39	104	0	60	99736
2026-01-03 07:29:06.11	81.63	9.95	-52.8	-55.3	3.6	0.00e+00	0	39	104	0	60	98613
2026-01-03 07:29:07.12	81.44	10.02	-53.1	-55.6	3.6	0.00e+00	0	39	104	0	60	101298
2026-01-03 07:29:08.13	81.24	10.08	-52.9	-55.3	3.6	0.00e+00	0	39	104	0	60	98910
2026-01-03 07:29:09.14	81.05	10.15	-53.1	-55.5	3.6	0.00e+00	0	39	104	0	60	101084
2026-01-03 07:29:10.15	80.85	10.22	-53.1	-55.6	3.6	0.00e+00	0	39	104	0	60	101384
2026-01-03 07:29:11.16	80.65	10.29	-53.6	-56.1	3.6	0.00e+00	0	39	104	0	60	107574
2026-01-03 07:29:12.17	80.45	10.35	-53.3	-55.8	3.6	0.00e+00	0	39	104	0	60	103918
2026-01-03 07:29:13.18	80.25	10.42	-53.5	-56.0	3.6	0.00e+00	0	39	104	0	60	106120
2026-01-03 07:29:14.19	80.05	10.49	-53.7	-56.1	3.6	0.00e+00	0	39	104	0	60	108237
2026-01-03 07:29:15.20	79.85	10.55	-53.2	-55.6	3.6	0.00e+00	0	39	104	0	60	101849
2026-01-03 07:29:16.21	79.64	10.62	-53.1	-55.6	3.6	0.00e+00	0	39	104	0	60	101687
2026-01-03 07:29:17.22	79.44	10.68	-53.0	-55.4	3.5	0.00e+00	0	39	104	0	60	99712
2026-01-03 07:29:18.23	79.23	10.75	-53.2	-55.7	3.6	0.00e+00	0	39	104	0	60	102844
2026-01-03 07:29:19.24	79.02	10.82	-53.2	-55.7	3.6	0.00e+00	0	39	104	0	60	102669
2026-01-03 07:29:20.26	78.81	10.88	-52.9	-55.4	3.6	0.00e+00	0	39	104	0	60	99469
2026-01-03 07:29:21.26	78.60	10.95	-52.8	-55.3	3.6	0.00e+00	0	39	104	0	60	98169
2026-01-03 07:29:22.27	78.39	11.02	-52.7	-55.2	3.6	0.00e+00	0	39	104	0	60	97006
2026-01-03 07:29:23.29	78.18	11.08	-52.8	-55.3	3.6	0.00e+00	0	39	104	0	60	97877
2026-01-03 07:29:24.29	77.97	11.15	-53.0	-55.4	3.6	0.00e+00	0	39	104	0	60	99337
2026-01-03 07:29:25.30	77.75	11.21	-52.8	-55.3	3.6	0.00e+00	0	39	104	0	60	98007
2026-01-03 07:29:26.32	77.53	11.28	-53.0	-55.4	3.6	0.00e+00	0	39	104	0	60	99881
2026-01-03 07:29:27.33	77.32	11.34	-53.1	-55.5	3.6	0.00e+00	0	39	104	0	60	101192
2026-01-03 07:29:28.34	77.10	11.41	-52.8	-55.2	3.6	0.00e+00	0	39	104	0	60	97618
2026-01-03 07:29:29.35	76.88	11.48	-52.9	-55.3	3.6	0.00e+00	0	39	104	0	60	98946
2026-01-03 07:29:30.36	76.66	11.54	-52.8	-55.2	3.6	0.00e+00	0	39	104	0	60	97596
2026-01-03 07:29:31.37	76.44	11.61	-52.9	-55.4	3.6	0.00e+00	0	39	104	0	60	99051
2026-01-03 07:29:32.38	76.22	11.67	-53.1	-55.6	3.6	0.00e+00	0	39	104	0	60	101375
2026-01-03 07:29:33.39	75.99	11.73	-53.0	-55.5	3.6	0.00e+00	0	39	104	0	60	100442
2026-01-03 07:29:34.40	75.77	11.80	-52.9	-55.4	3.6	0.00e+00	0	39	104	0	60	99352
2026-01-03 07:29:35.41	75.54	11.86	-52.9	-55.4	3.6	0.00e+00	0	39	104	0	60	99427
2026-01-03 07:29:36.42	75.31	11.93	-52.9	-55.4	3.5	0.00e+00	0	39	104	0	60	99112
2026-01-03 07:29:37.43	75.08	11.99	-52.9	-55.4	3.6	0.00e+00	0	39	104	0	60	99232
2026-01-03 07:29:38.44	74.85	12.06	-52.8	-55.3	3.6	0.00e+00	0	39	104	0	60	98087
2026-01-03 07:29:39.45	74.62	12.12	-52.8	-55.2	3.6	0.00e+00	0	39	104	0	60	97844
2026-01-03 07:29:40.46	74.39	12.18	-52.7	-55.2	3.6	0.00e+00	0	39	104	0	60	97359
2026-01-03 07:29:41.48	74.15	12.25	-52.7	-55.2	3.6	0.00e+00	0	39	104	0	60	96842
2026-01-03 07:29:42.49	73.92	12.31	-52.8	-55.2	3.6	0.00e+00	0	39	104	0	60	97605
2026-01-03 07:29:43.50	73.68	12.37	-52.8	-55.3	3.6	0.00e+00	0	39	104	0	60	98076
2026-01-03 07:29:44.51	73.45	12.44	-52.8	-55.2	3.6	0.00e+00	0	39	104	0	60	97307
2026-01-03 07:29:45.52	73.21	12.50	-52.7	-55.1	3.6	0.00e+00	0	39	104	0	60	96568
2026-01-03 07:29:46.53	72.97	12.56	-52.9	-55.3	3.6	0.00e+00	0	39	104	0	60	98298
2026-01-03 07:29:47.54	72.73	12.62	-52.9	-55.4	3.6	0.00e+00	0	39	104	0	60	99637
2026-01-03 07:29:48.55	72.49	12.68	-52.9	-55.4	3.6	0.00e+00	0	39	104	0	60	99437
2026-01-03 07:29:49.56	72.24	12.75	-52.8	-55.2	3.6	0.00e+00	0	39	104	0	60	97481
2026-01-03 07:29:50.57	72.00	12.81	-52.8	-55.3	3.6	0.00e+00	0	39	104	0	60	98306
2026-01-03 07:29:51.58	71.75	12.87	-52.8	-55.2	3.6	0.00e+00	0	39	104	0	60	97253
2026-01-03 07:29:52.59	71.51	12.93	-52.7	-55.2	3.6	0.00e+00	0	39	104	0	60	96759
2026-01-03 07:29:53.60	71.26	12.99	-52.7	-55.2	3.6	0.00e+00	0	39	104	0	60	97377
2026-01-03 07:29:54.61	71.01	13.05	-52.6	-55.1	3.6	0.00e+00	0	39	104	0	60	96060
2026-01-03 07:29:55.62	70.76	13.11	-52.7	-55.2	3.6	0.00e+00	0	39	104	0	60	97054
2026-01-03 07:29:56.64	70.50	13.17	-52.7	-55.2	3.6	0.00e+00	0	39	104	0	60	97031
2026-01-03 07:29:57.64	70.25	13.23	-52.7	-55.1	3.6	0.00e+00	0	39	104	0	60	96326
2026-01-03 07:29:58.65	70.00	13.29	-52.6	-55.1	3.6	0.00e+00	0	39	104	0	60	95991
2026-01-03 07:29:59.66	69.74	13.35	-52.6	-55.1	3.6	0.00e+00	0	39	104	0	60	96150
2026-01-03 07:30:00.67	69.49	13.40	-52.6	-55.1	3.6	0.00e+00	0	39	104	0	60	95681
2026-01-03 07:30:01.68	69.23	13.46	-52.6	-55.1	3.6	0.00e+00	0	39	104	0	60	95978
2026-01-03 07:30:02.69	68.97	13.52	-52.6	-55.1	3.6	0.00e+00	0	39	104	0	60	96402
2026-01-03 07:30:03.70	68.71	13.58	-52.6	-55.0	3.6	0.00e+00	0	39	104	0	60	95149
2026-01-03 07:30:04.71	68.45	13.64	-52.6	-55.1	3.6	0.00e+00	0	39	104	0	60	96192
2026-01-03 07:30:05.72	68.19	13.69	-52.6	-55.0	3.6	0.00e+00	0	39	104	0	60	95060
2026-01-03 07:30:06.73	67.92	13.75	-52.6	-55.0	3.6	0.00e+00	0	39	104	0	60	95612
2026-01-03 07:30:07.75	67.65	13.81	-52.6	-55.1	3.6	0.00e+00	0	39	104	0	60	95690
2026-01-03 07:30:08.75	67.39	13.86	-52.6	-55.1	3.6	0.00e+00	0	39	104	0	60	95688
2026-01-03 07:30:09.77	67.12	13.92	-52.6	-55.1	3.6	0.00e+00	0	39	104	0	60	95773
2026-01-03 07:30:10.78	66.85	13.97	-52.5	-55.0	3.6	0.00e+00	0	39	104	0	60	95217
2026-01-03 07:30:11.79	66.58	14.03	-52.5	-55.0	3.6	0.00e+00	0	39	104	0	60	95088
2026-01-03 07:30:12.80	66.31	14.08	-52.5	-55.0	3.6	0.00e+00	0	39	104	0	60	95013
2026-01-03 07:30:13.81	66.04	14.13	-52.6	-55.0	3.6	0.00e+00	0	39	104	0	60	95207
2026-01-03 07:30:14.82	65.77	14.19	-52.6	-55.0	3.6	0.00e+00	0	39	104	0	60	95260
2026-01-03 07:30:15.83	65.49	14.24	-52.5	-55.0	3.6	0.00e+00	0	39	104	0	60	94904
2026-01-03 07:30:16.84	65.22	14.29	-52.6	-55.1	3.6	0.00e+00	0	39	104	0	60	95841
2026-01-03 07:30:17.85	64.94	14.35	-52.6	-55.1	3.6	0.00e+00	0	39	104	0	60	96285
2026-01-03 07:30:18.86	64.66	14.40	-52.6	-55.0	3.6	0.00e+00	0	39	104	0	60	95148
2026-01-03 07:30:19.87	64.38	14.45	-52.6	-55.0	3.6	0.00e+00	0	39	104	0	60	95449
2026-01-03 07:30:20.88	64.10	14.50	-52.6	-55.0	3.6	0.00e+00	0	39	104	0	60	95581
2026-01-03 07:30:21.89	63.82	14.55	-52.6	-55.1	3.6	0.00e+00	0	39	104	0	60	95873
2026-01-03 07:30:22.90	63.54	14.60	-52.6	-55.1	3.6	0.00e+00	0	39	104	0	60	96276
2026-01-03 07:30:23.91	63.26	14.65	-52.6	-55.0	3.6	0.00e+00	0	39	104	0	60	95466
2026-01-03 07:30:24.92	62.97	14.70	-52.6	-55.1	3.6	0.00e+00	0	39	104	0	60	95818
2026-01-03 07:30:25.93	62.69	14.74	-52.6	-55.0	3.6	0.00e+00	0	39	104	0	60	95482
2026-01-03 07:30:26.94	62.40	14.79	-52.6	-55.1	3.6	0.00e+00	0	39	104	0	60	95645
2026-01-03 07:30:27.95	62.11	14.84	-52.6	-55.1	3.6	0.00e+00	0	39	104	0	60	95956
2026-01-03 07:30:28.96	61.82	14.89	-52.5	-55.0	3.6	0.00e+00	0	39	104	0	60	94804
2026-01-03 07:30:29.97	61.53	14.93	-52.5	-55.0	3.6	0.00e+00	0	39	104	0	60	95064
2026-01-03 07:30:30.98	61.24	14.98	-52.6	-55.0	3.6	0.00e+00	0	39	104	0	60	94922
2026-01-03 07:30:31.99	60.95	15.02	-52.5	-55.0	3.6	0.00e+00	0	39	104	0	60	94706
2026-01-03 07:30:33.01	60.66	15.07	-52.7	-55.2	3.6	0.00e+00	0	39	104	0	60	96786
2026-01-03 07:30:34.01	60.36	15.11	-52.7	-55.2	3.6	0.00e+00	0	39	104	0	60	97041
2026-01-03 07:30:35.02	60.07	15.16	-52.8	-55.3	3.5	0.00e+00	0	39	104	0	60	98033
2026-01-03 07:30:36.03	59.77	15.20	-52.8	-55.3	3.6	0.00e+00	0	39	104	0	60	98275
2026-01-03 07:30:37.04	59.48	15.24	-52.8	-55.2	3.6	0.00e+00	0	39	104	0	60	97791
2026-01-03 07:30:38.05	59.18	15.28	-52.9	-55.4	3.6	0.00e+00	0	39	104	0	60	99506
2026-01-03 07:30:39.07	58.88	15.32	-53.1	-55.5	3.6	0.00e+00	0	39	104	0	60	101157
2026-01-03 07:30:40.07	58.58	15.36	-52.9	-55.3	3.5	0.00e+00	0	39	104	0	60	98729
2026-01-03 07:30:41.09	58.28	15.40	-52.8	-55.2	3.6	0.00e+00	0	39	104	0	60	97599
2026-01-03 07:30:42.10	57.97	15.44	-52.7	-55.1	3.6	0.00e+00	0	39	104	0	60	96581
2026-01-03 07:30:43.11	57.67	15.48	-52.7	-55.2	3.6	0.00e+00	0	39	104	0	60	96929
2026-01-03 07:30:44.12	57.37	15.52	-52.7	-55.1	3.6	0.00e+00	0	39	104	0	60	96433
2026-01-03 07:30:45.13	57.06	15.56	-52.7	-55.2	3.6	0.00e+00	0	39	104	0	60	96827
2026-01-03 07:30:46.14	56.76	15.59	-52.8	-55.3	3.6	0.00e+00	0	39	104	0	60	98493
2026-01-03 07:30:47.15	56.45	15.63	-53.0	-55.5	3.6	0.00e+00	0	39	104	0	60	100148
2026-01-03 07:30:48.16	56.14	15.67	-53.2	-55.7	3.6	0.00e+00	0	39	104	0	60	103486
2026-01-03 07:30:49.17	55.84	15.70	-53.1	-55.6	3.6	0.00e+00	0	39	104	0	60	101763
2026-01-03 07:30:50.18	55.53	15.73	-53.1	-55.5	3.6	0.00e+00	0	39	104	0	60	100467
2026-01-03 07:30:51.20	55.21	15.77	-53.0	-55.5	3.6	0.00e+00	0	39	104	0	60	100536
2026-01-03 07:30:52.21	54.90	15.80	-53.1	-55.6	3.6	0.00e+00	0	39	104	0	60	101306
2026-01-03 07:30:53.22	54.59	15.83	-53.0	-55.5	3.6	0.00e+00	0	39	104	0	60	100133
2026-01-03 07:30:54.23	54.28	15.86	-53.1	-55.6	3.6	0.00e+00	0	39	104	0	60	101373
2026-01-03 07:30:55.24	53.97	15.89	-53.1	-55.5	3.6	0.00e+00	0	39	104	0	60	100509
2026-01-03 07:30:56.25	53.66	15.92	-53.1	-55.5	3.6	0.00e+00	0	39	104	0	60	100531
2026-01-03 07:30:57.26	53.34	15.95	-53.3	-55.7	3.6	0.00e+00	0	39	104	0	60	103245
2026-01-03 07:30:58.27	53.03	15.98	-53.5	-56.0	3.6	0.00e+00	0	39	104	0	60	106378
2026-01-03 07:30:59.28	52.71	16.01	-53.2	-55.7	3.6	0.00e+00	0	39	104	0	60	102550
2026-01-03 07:31:00.29	52.39	16.04	-53.0	-55.4	3.6	0.00e+00	0	39	104	0	60	99998
2026-01-03 07:31:01.30	52.08	16.06	-53.0	-55.4	3.6	0.00e+00	0	39	104	0	60	100062
2026-01-03 07:31:02.31	51.76	16.09	-53.2	-55.6	3.5	0.00e+00	0	39	104	0	60	102160
2026-01-03 07:31:03.32	51.44	16.11	-53.2	-55.6	3.6	0.00e+00	0	39	104	0	60	102236
2026-01-03 07:31:04.34	51.12	16.14	-53.0	-55.4	3.6	0.00e+00	0	39	104	0	60	100117
2026-01-03 07:31:05.35	50.80	16.16	-52.9	-55.4	3.6	0.00e+00	0	39	104	0	60	99427
2026-01-03 07:31:06.36	50.48	16.18	-52.8	-55.3	3.6	0.00e+00	0	39	104	0	60	98438
2026-01-03 07:31:07.37	50.16	16.20	-53.1	-55.5	3.6	0.00e+00	0	39	104	0	60	101110
2026-01-03 07:31:08.38	49.84	16.22	-53.1	-55.5	3.6	0.00e+00	0	39	104	0	60	101260
2026-01-03 07:31:09.39	49.52	16.24	-53.1	-55.6	3.6	0.00e+00	0	39	104	0	60	101584
2026-01-03 07:31:10.40	49.20	16.26	-53.0	-55.4	3.6	0.00e+00	0	39	104	0	60	99580
2026-01-03 07:31:11.42	48.87	16.28	-53.1	-55.5	3.6	0.00e+00	0	39	104	0	60	100323
2026-01-03 07:31:12.43	48.55	16.30	-53.0	-55.4	3.6	0.00e+00	0	39	104	0	60	99694
2026-01-03 07:31:13.44	48.22	16.32	-53.2	-55.7	3.6	0.00e+00	0	39	104	0	60	102508
2026-01-03 07:31:14.45	47.90	16.33	-53.0	-55.4	3.6	0.00e+00	0	39	104	0	60	99466
2026-01-03 07:31:15.46	47.58	16.35	-52.9	-55.4	3.6	0.00e+00	0	39	104	0	60	99389
2026-01-03 07:31:16.47	47.25	16.36	-53.2	-55.7	3.6	0.00e+00	0	39	104	0	60	102733
2026-01-03 07:31:17.48	46.93	16.38	-53.3	-55.7	3.6	0.00e+00	0	39	104	0	60	103596
2026-01-03 07:31:18.50	46.60	16.39	-53.2	-55.6	3.6	0.00e+00	0	39	104	0	60	101706
2026-01-03 07:31:19.51	46.27	16.40	-53.4	-55.9	3.6	0.00e+00	0	39	104	0	60	104919
2026-01-03 07:31:20.52	45.95	16.41	-53.5	-55.9	3.6	0.00e+00	0	39	104	0	60	105697
2026-01-03 07:31:21.53	45.62	16.42	-53.2	-55.7	3.6	0.00e+00	0	39	104	0	60	102722
2026-01-03 07:31:22.54	45.30	16.43	-53.2	-55.6	3.6	0.00e+00	0	39	104	0	60	102031
2026-01-03 07:31:23.55	44.97	16.44	-53.4	-55.8	3.6	0.00e+00	0	39	104	0	60	104210
2026-01-03 07:31:24.56	44.64	16.45	-53.2	-55.6	3.6	0.00e+00	0	39	104	0	60	101955
2026-01-03 07:31:25.57	44.32	16.45	-53.1	-55.5	3.6	0.00e+00	0	39	104	0	60	101148
2026-01-03 07:31:26.58	43.99	16.46	-53.3	-55.8	3.6	0.00e+00	0	39	104	0	60	104586
2026-01-03 07:31:27.59	43.66	16.47	-53.3	-55.8	3.6	0.00e+00	0	39	104	0	60	103829
2026-01-03 07:31:28.60	43.34	16.47	-53.6	-56.1	3.6	0.00e+00	0	39	104	0	60	107327
2026-01-03 07:31:29.62	43.00	16.47	-53.2	-55.7	3.6	0.00e+00	0	39	104	0	60	102803
2026-01-03 07:31:30.63	42.68	16.48	-53.4	-55.9	3.6	0.00e+00	0	39	104	0	60	105439
2026-01-03 07:31:31.63	42.35	16.48	-53.2	-55.6	3.6	0.00e+00	0	39	104	0	60	102362
2026-01-03 07:31:32.65	42.02	16.48	-53.1	-55.6	3.6	0.00e+00	0	39	104	0	60	101835
2026-01-03 07:31:33.65	41.70	16.48	-53.4	-55.8	3.6	0.00e+00	0	39	104	0	60	104323
2026-01-03 07:31:34.67	41.37	16.48	-53.4	-55.9	3.6	0.00e+00	0	39	104	0	60	105481
2026-01-03 07:31:35.68	41.04	16.48	-53.5	-55.9	3.6	0.00e+00	0	39	104	0	60	105543
2026-01-03 07:31:36.69	40.71	16.48	-53.4	-55.9	3.6	0.00e+00	0	39	104	0	60	104931
2026-01-03 07:31:37.70	40.39	16.47	-53.2	-55.7	3.6	0.00e+00	0	39	104	0	60	102675
2026-01-03 07:31:38.71	40.06	16.47	-53.3	-55.8	3.6	0.00e+00	0	39	104	0	60	104572
2026-01-03 07:31:39.72	39.73	16.46	-53.1	-55.6	3.6	0.00e+00	0	39	104	0	60	101334
2026-01-03 07:31:40.73	39.40	16.46	-53.2	-55.6	3.6	0.00e+00	0	39	104	0	60	102342
2026-01-03 07:31:41.74	39.08	16.45	-53.4	-55.9	3.6	0.00e+00	0	39	104	0	60	105198
2026-01-03 07:31:42.75	38.75	16.44	-53.3	-55.8	3.6	0.00e+00	0	39	104	0	60	103876
2026-01-03 07:31:43.76	38.42	16.44	-53.0	-55.4	3.6	0.00e+00	0	39	104	0	60	99674
2026-01-03 07:31:44.77	38.10	16.43	-53.3	-55.8	3.6	0.00e+00	0	39	104	0	60	104135
2026-01-03 07:31:45.78	37.77	16.42	-53.0	-55.5	3.5	0.00e+00	0	39	104	0	60	100344
2026-01-03 07:31:46.79	37.45	16.41	-53.1	-55.6	3.6	0.00e+00	0	39	104	0	60	101692
2026-01-03 07:31:47.80	37.12	16.40	-53.4	-55.9	3.6	0.00e+00	0	39	104	0	60	105058
2026-01-03 07:31:48.82	36.79	16.38	-53.5	-55.9	3.6	0.00e+00	0	39	104	0	60	105623
2026-01-03 07:31:49.83	36.47	16.37	-53.5	-55.9	3.6	0.00e+00	0	39	104	0	60	105819
2026-01-03 07:31:50.84	36.14	16.36	-53.3	-55.6	3.5	0.00e+00	0	39	104	0	60	102461
2026-01-03 07:31:51.85	35.82	16.34	-53.3	-55.7	3.6	0.00e+00	0	39	104	0	60	102854
2026-01-03 07:31:52.86	35.49	16.33	-53.3	-55.8	3.6	0.00e+00	0	39	104	0	60	104204
2026-01-03 07:31:53.87	35.17	16.31	-53.4	-55.9	3.6	0.00e+00	0	39	104	0	60	105490
2026-01-03 07:31:54.88	34.85	16.29	-53.4	-55.9	3.6	0.00e+00	0	39	104	0	60	105010
2026-01-03 07:31:55.89	34.53	16.27	-53.5	-56.0	3.6	0.00e+00	0	39	104	0	60	106166
2026-01-03 07:31:56.90	34.20	16.26	-53.2	-55.6	3.6	0.00e+00	0	39	104	0	60	102214
2026-01-03 07:31:57.91	33.88	16.24	-53.1	-55.6	3.6	0.00e+00	0	39	104	0	60	101652
2026-01-03 07:31:58.93	33.56	16.22	-53.6	-56.0	3.6	0.00e+00	0	39	104	0	60	106607
2026-01-03 07:31:59.94	33.24	16.19	-53.6	-56.1	3.6	0.00e+00	0	39	104	0	60	107551
2026-01-03 07:32:00.95	32.92	16.17	-53.4	-55.8	3.6	0.00e+00	0	39	104	0	60	104443
2026-01-03 07:32:01.96	32.60	16.15	-53.3	-55.8	3.5	0.00e+00	0	39	104	0	60	103673
2026-01-03 07:32:02.97	32.28	16.13	-53.7	-56.2	3.6	0.00e+00	0	39	104	0	60	109323
2026-01-03 07:32:03.98	31.96	16.10	-53.6	-56.1	3.6	0.00e+00	0	39	104	0	60	107849
2026-01-03 07:32:04.99	31.64	16.08	-53.5	-56.0	3.6	0.00e+00	0	39	104	0	60	106256
2026-01-03 07:32:06.00	31.33	16.05	-53.5	-55.9	3.6	0.00e+00	0	39	104	0	60	105739
2026-01-03 07:32:07.01	31.01	16.02	-53.5	-55.9	3.6	0.00e+00	0	39	104	0	60	105522
2026-01-03 07:32:08.02	30.70	16.00	-53.6	-56.0	3.6	0.00e+00	0	39	104	0	60	107016
2026-01-03 07:32:09.03	30.38	15.97	-53.6	-56.0	3.6	0.00e+00	0	39	104	0	60	106374
2026-01-03 07:32:10.05	30.06	15.94	-53.6	-56.0	3.6	0.00e+00	0	39	104	0	60	106714
2026-01-03 07:32:11.06	29.75	15.91	-53.9	-56.3	3.6	0.00e+00	0	39	104	0	60	110872
2026-01-03 07:32:12.07	29.44	15.88	-53.4	-55.9	3.6	0.00e+00	0	39	104	0	60	105129
2026-01-03 07:32:13.08	29.12	15.85	-53.6	-56.1	3.6	0.00e+00	0	39	104	0	60	107300
2026-01-03 07:32:14.09	28.81	15.82	-53.4	-55.9	3.6	0.00e+00	0	39	104	0	60	105062
2026-01-03 07:32:15.10	28.50	15.79	-53.7	-56.2	3.6	0.00e+00	0	39	104	0	60	108580
2026-01-03 07:32:16.11	28.19	15.75	-53.7	-56.1	3.6	0.00e+00	0	39	104	0	60	108487
2026-01-03 07:32:17.12	27.88	15.72	-53.8	-56.2	3.6	0.00e+00	0	39	104	0	60	109693
2026-01-03 07:32:18.13	27.58	15.69	-53.4	-55.9	3.6	0.00e+00	0	39	104	0	60	105010
2026-01-03 07:32:19.15	27.27	15.65	-53.3	-55.8	3.6	0.00e+00	0	39	104	0	60	103962
2026-01-03 07:32:20.16	26.96	15.61	-53.6	-56.1	3.6	0.00e+00	0	39	104	0	60	107378
2026-01-03 07:32:21.17	26.65	15.58	-53.8	-56.2	3.6	0.00e+00	0	39	104	0	60	109354
2026-01-03 07:32:22.18	26.35	15.54	-53.8	-56.2	3.6	0.00e+00	0	39	104	0	60	109576
2026-01-03 07:32:23.19	26.04	15.50	-53.4	-55.8	3.6	0.00e+00	0	39	104	0	60	104689
2026-01-03 07:32:24.20	25.74	15.47	-53.4	-55.9	3.6	0.00e+00	0	39	104	0	60	104991
2026-01-03 07:32:25.21	25.44	15.43	-53.4	-55.8	3.6	0.00e+00	0	39	104	0	60	104223
2026-01-03 07:32:26.22	25.14	15.39	-53.4	-55.9	3.6	0.00e+00	0	39	104	0	60	105100
2026-01-03 07:32:27.23	24.84	15.35	-53.5	-56.0	3.6	0.00e+00	0	39	104	0	60	106623
2026-01-03 07:32:28.24	24.54	15.31	-53.3	-55.7	3.6	0.00e+00	0	39	104	0	60	102701
2026-01-03 07:32:29.26	24.24	15.26	-53.4	-55.9	3.6	0.00e+00	0	39	104	0	60	105126
2026-01-03 07:32:30.27	23.94	15.22	-53.2	-55.6	3.6	0.00e+00	0	39	104	0	60	101996
2026-01-03 07:32:31.28	23.65	15.18	-53.5	-55.9	3.6	0.00e+00	0	39	104	0	60	105808
2026-01-03 07:32:32.29	23.35	15.14	-53.3	-55.7	3.6	0.00e+00	0	39	104	0	60	103532
2026-01-03 07:32:33.30	23.06	15.09	-53.4	-55.9	3.6	0.00e+00	0	39	104	0	60	104898
2026-01-03 07:32:34.31	22.76	15.05	-53.5	-56.0	3.5	0.00e+00	0	39	104	0	60	106477
2026-01-03 07:32:35.32	22.47	15.00	-53.5	-56.0	3.6	0.00e+00	0	39	104	0	60	106956
2026-01-03 07:32:36.33	22.18	14.96	-53.6	-56.1	3.6	0.00e+00	0	39	104	0	60	108034
2026-01-03 07:32:37.34	21.89	14.91	-53.6	-56.0	3.6	0.00e+00	0	39	104	0	60	106963
2026-01-03 07:32:38.35	21.60	14.87	-53.6	-56.0	3.6	0.00e+00	0	39	104	0	60	107029
2026-01-03 07:32:39.37	21.31	14.82	-53.5	-56.0	3.6	0.00e+00	0	39	104	0	60	107162
2026-01-03 07:32:40.38	21.02	14.77	-53.4	-55.8	3.5	0.00e+00	0	39	104	0	60	104800
2026-01-03 07:32:41.39	20.74	14.72	-53.5	-55.9	3.6	0.00e+00	0	39	104	0	60	105598
2026-01-03 07:32:42.40	20.45	14.68	-53.4	-55.8	3.6	0.00e+00	0	39	104	0	60	104521
2026-01-03 07:32:43.41	20.17	14.63	-53.3	-55.8	3.6	0.00e+00	0	39	104	0	60	104015
2026-01-03 07:32:44.42	19.89	14.58	-53.5	-55.9	3.5	0.00e+00	0	39	104	0	60	105294
2026-01-03 07:32:45.43	19.61	14.53	-53.6	-56.0	3.6	0.00e+00	0	39	104	0	60	106349
2026-01-03 07:32:46.44	19.33	14.48	-53.5	-55.9	3.6	0.00e+00	0	39	104	0	60	104908
2026-01-03 07:32:47.45	19.05	14.43	-53.3	-55.7	3.6	0.00e+00	0	39	104	0	60	103642
2026-01-03 07:32:48.46	18.77	14.37	-53.3	-55.8	3.6	0.00e+00	0	39	104	0	60	103651
2026-01-03 07:32:49.47	18.49	14.32	-53.2	-55.6	3.6	0.00e+00	0	39	104	0	60	101831
2026-01-03 07:32:50.48	18.22	14.27	-53.4	-55.9	3.6	0.00e+00	0	39	104	0	60	105124
2026-01-03 07:32:51.50	17.94	14.22	-53.1	-55.6	3.6	0.00e+00	0	39	104	0	60	101491
2026-01-03 07:32:52.51	17.67	14.16	-53.4	-55.8	3.6	0.00e+00	0	39	104	0	60	104108
2026-01-03 07:32:53.52	17.39	14.11	-53.6	-56.0	3.6	0.00e+00	0	39	104	0	60	106903
2026-01-03 07:32:54.53	17.12	14.06	-53.5	-55.9	3.6	0.00e+00	0	39	104	0	60	106055
2026-01-03 07:32:55.54	16.85	14.00	-53.5	-55.9	3.6	0.00e+00	0	39	104	0	60	105437
2026-01-03 07:32:56.55	16.58	13.95	-53.3	-55.8	3.6	0.00e+00	0	39	104	0	60	104576
2026-01-03 07:32:57.56	16.32	13.89	-53.3	-55.7	3.6	0.00e+00	0	39	104	0	60	102715
2026-01-03 07:32:58.57	16.05	13.84	-53.4	-55.8	3.6	0.00e+00	0	39	104	0	60	104111
2026-01-03 07:32:59.58	15.79	13.78	-53.3	-55.7	3.6	0.00e+00	0	39	104	0	60	103348
2026-01-03 07:33:00.59	15.52	13.73	-53.2	-55.6	3.6	0.00e+00	0	39	104	0	60	101769
2026-01-03 07:33:01.61	15.26	13.67	-53.0	-55.4	3.6	0.00e+00	0	39	104	0	60	99707
2026-01-03 07:33:02.62	14.99	13.61	-53.2	-55.6	3.6	0.00e+00	0	39	104	0	60	102342
2026-01-03 07:33:03.63	14.73	13.55	-53.2	-55.7	3.6	0.00e+00	0	39	104	0	60	102683
2026-01-03 07:33:04.64	14.48	13.50	-53.3	-55.7	3.6	0.00e+00	0	39	104	0	60	102914
2026-01-03 07:33:05.65	14.22	13.44	-53.5	-55.9	3.6	0.00e+00	0	39	104	0	60	105511
2026-01-03 07:33:06.66	13.96	13.38	-53.5	-55.9	3.6	0.00e+00	0	39	104	0	60	105527
2026-01-03 07:33:07.67	13.71	13.32	-53.3	-55.7	3.6	0.00e+00	0	39	104	0	60	103638
2026-01-03 07:33:08.68	13.45	13.26	-53.4	-55.9	3.6	0.00e+00	0	39	104	0	60	105336
2026-01-03 07:33:09.69	13.20	13.20	-53.4	-55.9	3.6	0.00e+00	0	39	104	0	60	105047
2026-01-03 07:33:10.70	12.95	13.14	-53.2	-55.7	3.6	0.00e+00	0	39	104	0	60	102742
2026-01-03 07:33:11.72	12.69	13.08	-53.4	-55.9	3.6	0.00e+00	0	39	104	0	60	105365
2026-01-03 07:33:12.73	12.44	13.02	-53.4	-55.9	3.6	0.00e+00	0	39	104	0	60	105202
2026-01-03 07:33:13.74	12.20	12.96	-53.4	-55.9	3.6	0.00e+00	0	39	104	0	60	104920
2026-01-03 07:33:14.75	11.95	12.90	-53.2	-55.7	3.6	0.00e+00	0	39	104	0	60	102647
2026-01-03 07:33:15.76	11.70	12.84	-53.0	-55.4	3.6	0.00e+00	0	39	104	0	60	99919
2026-01-03 07:33:16.77	11.46	12.78	-53.2	-55.7	3.6	0.00e+00	0	39	104	0	60	102682
2026-01-03 07:33:17.78	11.22	12.72	-53.6	-56.0	3.6	0.00e+00	0	39	104	0	60	106931
2026-01-03 07:33:18.79	10.97	12.66	-53.4	-55.9	3.6	0.00e+00	0	39	104	0	60	105417
2026-01-03 07:33:19.81	10.73	12.60	-53.2	-55.7	3.6	0.00e+00	0	39	104	0	60	102470
2026-01-03 07:33:20.82	10.49	12.53	-53.2	-55.6	3.6	0.00e+00	0	39	104	0	60	101663
2026-01-03 07:33:21.83	10.25	12.47	-53.2	-55.6	3.6	0.00e+00	0	39	104	0	60	102206
2026-01-03 07:33:22.84	10.01	12.41	-53.6	-56.0	3.6	0.00e+00	0	39	104	0	60	107152
2026-01-03 07:33:23.85	9.78	12.35	-53.7	-56.2	3.6	0.00e+00	0	39	104	0	60	109132
2026-01-03 07:33:24.86	9.54	12.28	-53.5	-56.0	3.6	0.00e+00	0	39	104	0	60	106332
2026-01-03 07:33:25.87	9.31	12.22	-53.3	-55.8	3.6	0.00e+00	0	39	104	0	60	104788
2026-01-03 07:33:26.88	9.08	12.16	-53.7	-56.1	3.6	0.00e+00	0	39	104	0	60	108499
2026-01-03 07:33:27.89	8.85	12.09	-53.8	-56.2	3.6	0.00e+00	0	39	104	0	60	109404
2026-01-03 07:33:28.90	8.62	12.03	-53.6	-56.0	3.6	0.00e+00	0	39	104	0	60	106698
2026-01-03 07:33:29.91	8.39	11.97	-53.9	-56.3	3.6	0.00e+00	0	39	104	0	60	110586
2026-01-03 07:33:30.92	8.16	11.90	-53.9	-56.3	3.6	0.00e+00	0	39	104	0	60	110806
2026-01-03 07:33:31.94	7.93	11.84	-53.7	-56.2	3.6	0.00e+00	0	39	104	0	60	109041
2026-01-03 07:33:32.95	7.71	11.77	-53.5	-55.9	3.6	0.00e+00	0	39	104	0	60	105523
2026-01-03 07:33:33.96	7.48	11.71	-53.9	-56.3	3.6	0.00e+00	0	39	104	0	60	110500
2026-01-03 07:33:34.97	7.26	11.64	-53.8	-56.3	3.6	0.00e+00	0	39	104	0	60	109985
2026-01-03 07:33:35.98	7.04	11.58	-53.9	-56.4	3.6	0.00e+00	0	39	104	0	60	111161
2026-01-03 07:33:36.99	6.82	11.51	-53.7	-56.2	3.5	0.00e+00	0	39	104	0	60	108958
2026-01-03 07:33:38.00	6.60	11.45	-53.5	-56.0	3.6	0.00e+00	0	39	104	0	60	106076
2026-01-03 07:33:39.01	6.38	11.38	-53.5	-56.0	3.6	0.00e+00	0	39	104	0	60	106150
2026-01-03 07:33:40.02	6.16	11.32	-53.3	-55.7	3.6	0.00e+00	0	39	104	0	60	102816
2026-01-03 07:33:41.03	5.95	11.25	-53.1	-55.5	3.6	0.00e+00	0	39	104	0	60	100858
2026-01-03 07:33:42.04	5.73	11.19	-53.7	-56.1	3.6	0.00e+00	0	39	104	0	60	108185
2026-01-03 07:33:43.06	5.52	11.12	-53.6	-56.1	3.6	0.00e+00	0	39	104	0	60	108423
2026-01-03 07:33:44.07	5.31	11.06	-53.5	-56.0	3.6	0.00e+00	0	39	104	0	60	106634
2026-01-03 07:33:45.08	5.09	10.99	-53.4	-55.9	3.6	0.00e+00	0	39	104	0	60	105148
2026-01-03 07:33:46.09	4.88	10.92	-53.4	-55.9	3.6	0.00e+00	0	39	104	0	60	105475
2026-01-03 07:33:47.10	4.68	10.86	-53.4	-55.8	3.6	0.00e+00	0	39	104	0	60	104792
2026-01-03 07:33:48.11	4.47	10.79	-53.7	-56.1	3.6	0.00e+00	0	39	104	0	60	107925
2026-01-03 07:33:49.12	4.26	10.73	-53.5	-55.9	3.6	0.00e+00	0	39	104	0	60	105422
2026-01-03 07:33:50.13	4.06	10.66	-53.5	-55.9	3.6	0.00e+00	0	39	104	0	60	106047
2026-01-03 07:33:51.14	3.85	10.59	-53.8	-56.2	3.6	0.00e+00	0	39	104	0	60	109541
2026-01-03 07:33:52.15	3.65	10.53	-53.9	-56.4	3.6	0.00e+00	0	39	104	0	60	111750
2026-01-03 07:33:53.16	3.45	10.46	-53.5	-55.9	3.6	0.00e+00	0	39	104	0	60	105639
2026-01-03 07:33:54.17	3.25	10.39	-53.8	-56.2	3.6	0.00e+00	0	39	104	0	60	109144
2026-01-03 07:33:55.19	3.04	10.33	-53.7	-56.1	3.6	0.00e+00	0	39	104	0	60	108518
2026-01-03 07:33:56.20	2.85	10.26	-53.6	-56.0	3.6	0.00e+00	0	39	104	0	60	107281
2026-01-03 07:33:57.21	2.65	10.19	-54.0	-56.4	3.6	0.00e+00	0	39	104	0	60	111991
2026-01-03 07:33:58.22	2.45	10.13	-53.5	-56.0	3.6	0.00e+00	0	39	104	0	60	106445
2026-01-03 07:33:59.23	2.26	10.06	-53.8	-56.3	3.6	0.00e+00	0	39	104	0	60	110163
2026-01-03 07:34:00.24	2.06	9.99	-53.6	-56.0	3.6	0.00e+00	0	39	104	0	60	106883
2026-01-03 07:34:01.25	1.87	9.93	-53.1	-55.6	3.6	0.00e+00	0	39	104	0	60	101485
2026-01-03 07:34:02.26	1.68	9.86	-53.7	-56.2	3.6	0.00e+00	0	39	104	0	60	108727
2026-01-03 07:34:03.27	1.49	9.79	-53.8	-56.3	3.6	0.00e+00	0	39	104	0	60	110344
2026-01-03 07:34:04.29	1.29	9.72	-53.8	-56.2	3.6	0.00e+00	0	39	104	0	60	108874
2026-01-03 07:34:05.30	1.11	9.66	-53.7	-56.1	3.6	0.00e+00	0	39	104	0	60	107360
2026-01-03 07:34:06.31	0.92	9.59	-53.3	-55.7	3.6	0.00e+00	0	39	104	0	60	103045
2026-01-03 07:34:07.32	0.73	9.52	-54.1	-56.5	3.6	0.00e+00	0	39	104	0	60	113283
2026-01-03 07:34:08.33	0.55	9.46	-53.9	-56.3	3.6	0.00e+00	0	39	104	0	60	110087
2026-01-03 07:34:09.34	0.36	9.39	-53.6	-56.0	3.6	0.00e+00	0	39	104	0	60	107274
2026-01-03 07:34:10.35	0.18	9.32	-53.9	-56.3	3.6	0.00e+00	0	39	104	0	60	110173
2026-01-03 07:34:11.36	359.99	9.25	-53.6	-56.0	3.6	0.00e+00	0	39	104	0	60	106628
2026-01-03 07:34:12.37	359.81	9.19	-53.5	-56.0	3.6	0.00e+00	0	39	104	0	60	106175
2026-01-03 07:34:13.38	359.63	9.12	-53.5	-55.9	3.6	0.00e+00	0	39	104	0	60	106020
2026-01-03 07:34:14.39	359.45	9.05	-53.5	-55.9	3.6	0.00e+00	0	39	104	0	60	105878
2026-01-03 07:34:15.40	359.27	8.99	-53.6	-56.0	3.6	0.00e+00	0	39	104	0	60	106581
2026-01-03 07:34:16.42	359.10	8.92	-53.4	-55.9	3.6	0.00e+00	0	39	104	0	60	105124
2026-01-03 07:34:17.43	358.92	8.85	-53.4	-55.8	3.6	0.00e+00	0	39	104	0	60	104652
2026-01-03 07:34:18.44	358.74	8.78	-53.5	-56.0	3.6	0.00e+00	0	39	104	0	60	106355
2026-01-03 07:34:19.45	358.57	8.72	-53.4	-55.9	3.6	0.00e+00	0	39	104	0	60	105259
2026-01-03 07:34:20.46	358.40	8.65	-53.9	-56.3	3.6	0.00e+00	0	39	104	0	60	110517
2026-01-03 07:34:21.47	358.22	8.58	-53.4	-55.9	3.6	0.00e+00	0	39	104	0	60	104902
2026-01-03 07:34:22.48	358.05	8.52	-53.7	-56.1	3.6	0.00e+00	0	39	104	0	60	108150
2026-01-03 07:34:23.49	357.88	8.45	-53.8	-56.3	3.6	0.00e+00	0	39	104	0	60	110302
2026-01-03 07:34:24.50	357.71	8.38	-54.0	-56.4	3.6	0.00e+00	0	39	104	0	60	111886
2026-01-03 07:34:25.51	357.54	8.32	-53.9	-56.4	3.6	0.00e+00	0	39	104	0	60	111662
2026-01-03 07:34:26.52	357.38	8.25	-53.6	-56.1	3.6	0.00e+00	0	39	104	0	60	108087
2026-01-03 07:34:27.54	357.21	8.18	-53.7	-56.2	3.6	0.00e+00	0	39	104	0	60	108590
2026-01-03 07:34:28.55	357.04	8.11	-53.5	-56.0	3.5	0.00e+00	0	39	104	0	60	106634
2026-01-03 07:34:29.56	356.88	8.05	-53.4	-55.8	3.6	0.00e+00	0	39	104	0	60	104512
2026-01-03 07:34:30.57	356.71	7.98	-53.6	-56.0	3.6	0.00e+00	0	39	104	0	60	107027
2026-01-03 07:34:31.58	356.55	7.91	-53.7	-56.1	3.6	0.00e+00	0	39	104	0	60	108475
2026-01-03 07:34:32.59	356.39	7.85	-53.4	-55.9	3.6	0.00e+00	0	39	104	0	60	105092
2026-01-03 07:34:33.60	356.23	7.78	-53.6	-56.0	3.6	0.00e+00	0	39	104	0	60	106977
2026-01-03 07:34:34.61	356.07	7.71	-53.5	-56.0	3.5	0.00e+00	0	39	104	0	60	106272
2026-01-03 07:34:35.62	355.91	7.65	-53.3	-55.7	3.6	0.00e+00	0	39	104	0	60	103532
2026-01-03 07:34:36.63	355.75	7.58	-53.4	-55.8	3.6	0.00e+00	0	39	104	0	60	104351
2026-01-03 07:34:37.65	355.59	7.51	-53.3	-55.8	3.6	0.00e+00	0	39	104	0	60	104459
2026-01-03 07:34:38.66	355.44	7.45	-53.5	-55.9	3.6	0.00e+00	0	39	104	0	60	105649
2026-01-03 07:34:39.67	355.28	7.38	-53.5	-56.0	3.6	0.00e+00	0	39	104	0	60	106352
2026-01-03 07:34:40.68	355.12	7.32	-53.3	-55.7	3.6	0.00e+00	0	39	104	0	60	103487
2026-01-03 07:34:41.69	354.97	7.25	-53.3	-55.7	3.6	0.00e+00	0	39	104	0	60	103124
2026-01-03 07:34:42.70	354.82	7.18	-53.1	-55.5	3.6	0.00e+00	0	39	104	0	60	100775
2026-01-03 07:34:43.71	354.67	7.12	-53.2	-55.6	3.6	0.00e+00	0	39	104	0	60	102439
2026-01-03 07:34:44.72	354.51	7.05	-53.5	-56.0	3.6	0.00e+00	0	39	104	0	60	106145
2026-01-03 07:34:45.73	354.36	6.98	-53.4	-55.8	3.6	0.00e+00	0	39	104	0	60	104656
2026-01-03 07:34:46.74	354.22	6.92	-53.2	-55.6	3.5	0.00e+00	0	39	104	0	60	101984
2026-01-03 07:34:47.76	354.06	6.85	-53.2	-55.6	3.6	0.00e+00	0	39	104	0	60	102292
2026-01-03 07:34:48.77	353.92	6.79	-53.0	-55.4	3.6	0.00e+00	0	39	104	0	60	99857
2026-01-03 07:34:49.78	353.77	6.72	-53.1	-55.6	3.6	0.00e+00	0	39	104	0	60	102013
2026-01-03 07:34:50.79	353.62	6.66	-53.4	-55.8	3.6	0.00e+00	0	39	104	0	60	104788
2026-01-03 07:34:51.80	353.48	6.59	-53.3	-55.7	3.6	0.00e+00	0	39	104	0	60	103550
2026-01-03 07:34:52.81	353.33	6.52	-53.0	-55.5	3.6	0.00e+00	0	39	104	0	60	100922
2026-01-03 07:34:53.82	353.19	6.46	-53.1	-55.6	3.6	0.00e+00	0	39	104	0	60	101315
2026-01-03 07:34:54.83	353.05	6.39	-53.1	-55.5	3.6	0.00e+00	0	39	104	0	60	101238
2026-01-03 07:34:55.84	352.91	6.33	-53.3	-55.8	3.6	0.00e+00	0	39	104	0	60	104070
2026-01-03 07:34:56.85	352.76	6.26	-53.1	-55.5	3.6	0.00e+00	0	39	104	0	60	100926
2026-01-03 07:34:57.87	352.62	6.20	-53.1	-55.6	3.6	0.00e+00	0	39	104	0	60	101945
2026-01-03 07:34:58.88	352.48	6.13	-53.1	-55.6	3.6	0.00e+00	0	39	104	0	60	101746
2026-01-03 07:34:59.89	352.34	6.07	-53.4	-55.9	3.5	0.00e+00	0	39	104	0	60	105067
2026-01-03 07:35:00.90	352.21	6.00	-53.2	-55.7	3.6	0.00e+00	0	39	104	0	60	102691
2026-01-03 07:35:01.91	352.07	5.94	-53.3	-55.8	3.6	0.00e+00	0	39	104	0	60	103851
2026-01-03 07:35:02.92	351.93	5.87	-53.4	-55.9	3.6	0.00e+00	0	39	104	0	60	105342
2026-01-03 07:35:03.93	351.80	5.81	-53.0	-55.5	3.6	0.00e+00	0	39	104	0	60	100558
2026-01-03 07:35:04.94	351.66	5.74	-53.2	-55.7	3.6	0.00e+00	0	39	104	0	60	102722
2026-01-03 07:35:05.95	351.53	5.68	-53.3	-55.7	3.6	0.00e+00	0	39	104	0	60	102966
2026-01-03 07:35:06.96	351.39	5.61	-53.5	-56.0	3.6	0.00e+00	0	39	104	0	60	106571
2026-01-03 07:35:07.97	351.26	5.55	-53.3	-55.8	3.6	0.00e+00	0	39	104	0	60	103759
2026-01-03 07:35:08.98	351.13	5.49	-53.5	-55.9	3.6	0.00e+00	0	39	104	0	60	105890
2026-01-03 07:35:09.99	351.00	5.42	-53.4	-55.8	3.6	0.00e+00	0	39	104	0	60	104098
2026-01-03 07:35:11.01	350.87	5.36	-53.5	-55.9	3.6	0.00e+00	0	39	104	0	60	105486
2026-01-03 07:35:12.02	350.74	5.29	-53.1	-55.5	3.6	0.00e+00	0	39	104	0	60	101203
2026-01-03 07:35:13.03	350.61	5.23	-53.6	-56.1	3.6	0.00e+00	0	39	104	0	60	107430
2026-01-03 07:35:14.04	350.48	5.16	-53.1	-55.5	3.6	0.00e+00	0	39	104	0	60	100696
2026-01-03 07:35:15.05	350.35	5.10	-53.6	-56.1	3.6	0.00e+00	0	39	104	0	60	107912
2026-01-03 07:35:16.06	350.22	5.04	-53.3	-55.8	3.6	0.00e+00	0	39	104	0	60	103876
2026-01-03 07:35:17.07	350.10	4.97	-53.5	-55.9	3.6	0.00e+00	0	39	104	0	60	106061
2026-01-03 07:35:18.08	349.97	4.91	-53.7	-56.1	3.6	0.00e+00	0	39	104	0	60	107966
2026-01-03 07:35:19.09	349.85	4.85	-53.7	-56.1	3.6	0.00e+00	0	39	104	0	60	108465
2026-01-03 07:35:20.10	349.72	4.78	-53.5	-56.0	3.6	0.00e+00	0	39	104	0	60	106327
2026-01-03 07:35:21.11	349.60	4.72	-53.6	-56.0	3.6	0.00e+00	0	39	104	0	60	106704
2026-01-03 07:35:22.12	349.48	4.66	-53.7	-56.2	3.6	0.00e+00	0	39	104	0	60	109024
2026-01-03 07:35:23.13	349.36	4.59	-53.8	-56.3	3.6	0.00e+00	0	39	104	0	60	110499
2026-01-03 07:35:24.14	349.23	4.53	-53.9	-56.3	3.6	0.00e+00	0	39	104	0	60	111040
2026-01-03 07:35:25.15	349.11	4.47	-53.7	-56.1	3.6	0.00e+00	0	39	104	0	60	107468
2026-01-03 07:35:26.16	348.99	4.40	-54.0	-56.4	3.6	0.00e+00	0	39	104	0	60	112079
2026-01-03 07:35:27.18	348.87	4.34	-53.4	-55.9	3.6	0.00e+00	0	39	104	0	60	105245
2026-01-03 07:35:28.18	348.76	4.28	-53.5	-55.9	3.6	0.00e+00	0	39	104	0	60	105635
2026-01-03 07:35:29.20	348.64	4.22	-53.2	-55.7	3.6	0.00e+00	0	39	104	0	60	102815
2026-01-03 07:35:30.21	348.52	4.15	-53.5	-55.9	3.6	0.00e+00	0	39	104	0	60	105653
2026-01-03 07:35:31.22	348.40	4.09	-53.4	-55.9	3.6	0.00e+00	0	39	104	0	60	105275
2026-01-03 07:35:32.23	348.29	4.03	-53.8	-56.2	3.6	0.00e+00	0	39	104	0	60	108823
2026-01-03 07:35:33.24	348.17	3.97	-53.7	-56.2	3.6	0.00e+00	0	39	104	0	60	108698
2026-01-03 07:35:34.25	348.06	3.90	-53.3	-55.7	3.6	0.00e+00	0	39	104	0	60	103245
2026-01-03 07:35:35.26	347.94	3.84	-53.7	-56.1	3.6	0.00e+00	0	39	104	0	60	108117
2026-01-03 07:35:36.27	347.83	3.78	-53.3	-55.7	3.6	0.00e+00	0	39	104	0	60	103208
2026-01-03 07:35:37.28	347.71	3.72	-53.4	-55.8	3.6	0.00e+00	0	39	104	0	60	104481
2026-01-03 07:35:38.29	347.60	3.66	-53.7	-56.1	3.6	0.00e+00	0	39	104	0	60	108514
2026-01-03 07:35:39.30	347.49	3.60	-53.7	-56.2	3.6	0.00e+00	0	39	104	0	60	108563
2026-01-03 07:35:40.31	347.38	3.53	-53.5	-56.0	3.6	0.00e+00	0	39	104	0	60	106201
2026-01-03 07:35:41.33	347.27	3.47	-53.8	-56.2	3.6	0.00e+00	0	39	104	0	60	109744
2026-01-03 07:35:42.33	347.16	3.41	-53.7	-56.1	3.6	0.00e+00	0	39	104	0	60	108289
2026-01-03 07:35:43.34	347.05	3.35	-53.9	-56.3	3.6	0.00e+00	0	39	104	0	60	110846
2026-01-03 07:35:44.35	346.94	3.29	-53.9	-56.3	3.6	0.00e+00	0	39	104	0	60	110765
2026-01-03 07:35:45.37	346.83	3.23	-53.7	-56.1	3.6	0.00e+00	0	39	104	0	60	107980
2026-01-03 07:35:46.37	346.72	3.17	-53.7	-56.1	3.6	0.00e+00	0	39	104	0	60	107934
2026-01-03 07:35:47.39	346.62	3.11	-54.0	-56.5	3.6	0.00e+00	0	39	104	0	60	112355
2026-01-03 07:35:48.39	346.51	3.05	-53.8	-56.3	3.6	0.00e+00	0	39	104	0	60	110440
2026-01-03 07:35:49.40	346.40	2.98	-53.4	-55.8	3.6	0.00e+00	0	39	104	0	60	104631
2026-01-03 07:35:50.42	346.30	2.92	-53.3	-55.8	3.6	0.00e+00	0	39	104	0	60	103794
2026-01-03 07:35:51.43	346.19	2.86	-53.3	-55.8	3.6	0.00e+00	0	39	104	0	60	103920
2026-01-03 07:35:52.44	346.09	2.80	-53.4	-55.9	3.6	0.00e+00	0	39	104	0	60	105489
2026-01-03 07:35:53.45	345.98	2.74	-53.3	-55.7	3.6	0.00e+00	0	39	104	0	60	103391
2026-01-03 07:35:54.46	345.88	2.68	-53.7	-56.1	3.6	0.00e+00	0	39	104	0	60	108454
2026-01-03 07:35:55.47	345.78	2.62	-53.7	-56.2	3.6	0.00e+00	0	39	104	0	60	109370
2026-01-03 07:35:56.48	345.68	2.56	-53.6	-56.0	3.6	0.00e+00	0	39	104	0	60	107076
2026-01-03 07:35:57.49	345.58	2.50	-53.5	-56.0	3.6	0.00e+00	0	39	104	0	60	106088
2026-01-03 07:35:58.50	345.47	2.44	-53.6	-55.9	3.6	0.00e+00	0	39	104	0	60	105929
2026-01-03 07:35:59.51	345.37	2.38	-53.8	-56.2	3.6	0.00e+00	0	39	104	0	60	109434
2026-01-03 07:36:00.52	345.27	2.32	-53.9	-56.4	3.6	0.00e+00	0	39	104	0	60	111703
2026-01-03 07:36:01.53	345.17	2.26	-53.6	-56.1	3.6	0.00e+00	0	39	104	0	60	107356
2026-01-03 07:36:02.54	345.08	2.20	-53.4	-55.9	3.6	0.00e+00	0	39	104	0	60	105584
2026-01-03 07:36:03.55	344.98	2.14	-53.4	-55.9	3.6	0.00e+00	0	39	104	0	60	105082
2026-01-03 07:36:04.56	344.88	2.09	-53.5	-55.9	3.6	0.00e+00	0	39	104	0	60	105373
2026-01-03 07:36:05.57	344.78	2.03	-53.3	-55.7	3.6	0.00e+00	0	39	104	0	60	103599
2026-01-03 07:36:06.59	344.68	1.97	-53.5	-56.0	3.6	0.00e+00	0	39	104	0	60	106078
2026-01-03 07:36:07.59	344.59	1.91	-53.5	-55.9	3.6	0.00e+00	0	39	104	0	60	105119
2026-01-03 07:36:08.61	344.49	1.85	-53.8	-56.2	3.6	0.00e+00	0	39	104	0	60	109493
2026-01-03 07:36:09.62	344.40	1.79	-53.9	-56.4	3.6	0.00e+00	0	39	104	0	60	111478
2026-01-03 07:36:10.63	344.30	1.73	-54.0	-56.5	3.6	0.00e+00	0	39	104	0	60	112382
2026-01-03 07:36:11.64	344.21	1.67	-53.7	-56.2	3.6	0.00e+00	0	39	104	0	60	109038
2026-01-03 07:36:12.65	344.11	1.61	-53.6	-56.0	3.6	0.00e+00	0	39	104	0	60	106741
2026-01-03 07:36:13.66	344.02	1.56	-53.8	-56.3	3.6	0.00e+00	0	39	104	0	60	110140
2026-01-03 07:36:14.67	343.93	1.50	-53.5	-56.0	3.6	0.00e+00	0	39	104	0	60	106322
2026-01-03 07:36:15.68	343.83	1.44	-53.7	-56.1	3.6	0.00e+00	0	39	104	0	60	108469
2026-01-03 07:36:16.69	343.74	1.38	-53.8	-56.3	3.6	0.00e+00	0	39	104	0	60	110033
2026-01-03 07:36:17.70	343.65	1.32	-53.6	-56.0	3.5	0.00e+00	0	39	104	0	60	107100
2026-01-03 07:36:18.72	343.56	1.26	-53.8	-56.2	3.6	0.00e+00	0	39	104	0	60	109640
2026-01-03 07:36:19.72	343.47	1.21	-53.7	-56.2	3.6	0.00e+00	0	39	104	0	60	108595
2026-01-03 07:36:20.74	343.38	1.15	-54.0	-56.4	3.6	0.00e+00	0	39	104	0	60	112058
2026-01-03 07:36:21.75	343.29	1.09	-53.9	-56.4	3.6	0.00e+00	0	39	104	0	60	111114
2026-01-03 07:36:22.76	343.20	1.03	-53.4	-55.9	3.6	0.00e+00	0	39	104	0	60	105499
2026-01-03 07:36:23.77	343.11	0.98	-53.6	-56.1	3.6	0.00e+00	0	39	104	0	60	107306
2026-01-03 07:36:24.78	343.02	0.92	-54.0	-56.4	3.6	0.00e+00	0	39	104	0	60	112056
2026-01-03 07:36:25.79	342.93	0.86	-53.7	-56.2	3.6	0.00e+00	0	39	104	0	60	109281
2026-01-03 07:36:26.80	342.85	0.80	-53.8	-56.2	3.6	0.00e+00	0	39	104	0	60	109471
2026-01-03 07:36:27.81	342.76	0.75	-53.2	-55.7	3.6	0.00e+00	0	39	104	0	60	102735
2026-01-03 07:36:28.82	342.67	0.69	-54.1	-56.6	3.6	0.00e+00	0	39	104	0	60	114394
2026-01-03 07:36:29.83	342.59	0.63	-53.6	-56.0	3.5	0.00e+00	0	39	104	0	60	106550
2026-01-03 07:36:30.84	342.50	0.57	-53.7	-56.2	3.6	0.00e+00	0	39	104	0	60	109127
2026-01-03 07:36:31.85	342.42	0.52	-53.7	-56.2	3.6	0.00e+00	0	39	104	0	60	109102
2026-01-03 07:36:32.86	342.33	0.46	-53.6	-56.1	3.6	0.00e+00	0	39	104	0	60	107689
2026-01-03 07:36:33.87	342.25	0.40	-54.1	-56.5	3.6	0.00e+00	0	39	104	0	60	113249
2026-01-03 07:36:34.88	342.16	0.35	-53.7	-56.1	3.6	0.00e+00	0	39	104	0	60	108529
2026-01-03 07:36:35.89	342.08	0.29	-53.5	-55.9	3.6	0.00e+00	0	39	104	0	60	105467
2026-01-03 07:36:36.90	342.00	0.23	-53.8	-56.2	3.5	0.00e+00	0	39	104	0	60	109786
2026-01-03 07:36:37.91	341.91	0.18	-53.6	-56.1	3.6	0.00e+00	0	39	104	0	60	108170
2026-01-03 07:36:38.92	341.83	0.12	-53.8	-56.2	3.6	0.00e+00	0	39	104	0	60	108817
2026-01-03 07:36:39.93	341.75	0.07	-53.6	-56.0	3.6	0.00e+00	0	39	104	0	60	107113
2026-01-03 07:36:40.94	341.67	0.01	-53.8	-56.2	3.6	0.00e+00	0	39	104	0	60	109095
2026-01-03 07:36:41.95	341.59	-0.05	-54.0	-56.5	3.6	0.00e+00	0	39	104	0	60	112615
2026-01-03 07:36:42.96	341.51	-0.10	-53.8	-56.2	3.6	0.00e+00	0	39	104	0	60	109147

#Closed at: 2026-01-03 07:36:43
#Recorded file [0 MB]: D:/lorett/data/35034_260103_102629.dat