passes_logs/2026/01/03/R4.6S_Anadyr_2ch/R4.6S_Anadyr_2ch__20260103_024939_2025-108B_rec.log

#Pass ID: 20260103_024939_2025-108B
#Satellite: 2025-108B
#Configuration: 3PB_600M
#almurnet v.1.7.20251203
#Start time: 2026-01-03 02:49:42

#Version: 2.2.20231116
#Station: R4.6S_Anadyr_2ch
#Location: 177.4865 lon 64.73178 lat
#TLE: 1 64088U 25108B   25351.01672131  .00008460  00000+0  43413-3 0  9994
#TLE: 2 64088  97.4940  63.8579 0011684 285.1423  74.8517 15.16717580 31720

#Time	Az	El	Level	Level2	SNR	BER	BlckErr	Temp	State	Recorded	gain1	gain2
2026-01-03 02:49:42.11	21.45	0.12	-52.1	-53.4	3.4	0.00e+00	0	34	0	0	60	79055
2026-01-03 02:49:43.12	21.34	0.16	-52.4	-54.8	3.6	0.00e+00	0	35	104	0	60	93004
2026-01-03 02:49:44.13	21.22	0.21	-52.5	-54.9	3.6	0.00e+00	0	35	104	0	60	93964
2026-01-03 02:49:45.14	21.11	0.26	-52.4	-54.9	3.6	0.00e+00	0	35	104	0	60	93810
2026-01-03 02:49:46.15	21.00	0.31	-52.6	-55.1	3.6	0.00e+00	0	36	104	0	60	95661
2026-01-03 02:49:47.16	20.89	0.36	-52.7	-55.1	3.6	0.00e+00	0	36	104	0	60	96184
2026-01-03 02:49:48.17	20.77	0.40	-52.5	-55.0	3.6	0.00e+00	0	36	104	0	60	94548
2026-01-03 02:49:49.18	20.66	0.45	-52.6	-55.1	3.5	0.00e+00	0	36	104	0	60	95828
2026-01-03 02:49:50.19	20.54	0.50	-52.6	-55.1	3.6	0.00e+00	0	36	104	0	60	95795
2026-01-03 02:49:51.20	20.43	0.55	-52.6	-55.1	3.6	0.00e+00	0	36	104	0	60	96220
2026-01-03 02:49:52.21	20.31	0.60	-52.5	-55.0	3.6	0.00e+00	0	36	104	0	60	94652
2026-01-03 02:49:53.23	20.20	0.65	-52.5	-55.0	3.6	0.00e+00	0	36	104	0	60	94734
2026-01-03 02:49:54.24	20.08	0.69	-52.4	-54.8	3.5	0.00e+00	0	36	104	0	60	92748
2026-01-03 02:49:55.25	19.96	0.74	-52.4	-54.9	3.6	0.00e+00	0	36	104	0	60	93928
2026-01-03 02:49:56.26	19.85	0.79	-52.4	-54.8	3.6	0.00e+00	0	36	104	0	60	93028
2026-01-03 02:49:57.27	19.73	0.84	-52.4	-54.8	3.6	0.00e+00	0	36	104	0	60	92646
2026-01-03 02:49:58.28	19.61	0.89	-52.5	-54.9	3.6	0.00e+00	0	36	104	0	60	94314
2026-01-03 02:49:59.29	19.49	0.93	-52.5	-54.9	3.6	0.00e+00	0	36	104	0	60	93968
2026-01-03 02:50:00.30	19.37	0.98	-52.6	-55.0	3.6	0.00e+00	0	36	104	0	60	94568
2026-01-03 02:50:01.32	19.25	1.03	-52.6	-55.1	3.6	0.00e+00	0	36	104	0	60	95787
2026-01-03 02:50:02.33	19.13	1.08	-52.6	-55.1	3.6	0.00e+00	0	36	104	0	60	96126
2026-01-03 02:50:03.34	19.01	1.13	-52.6	-55.0	3.6	0.00e+00	0	36	104	0	60	94954
2026-01-03 02:50:04.35	18.89	1.18	-52.6	-55.0	3.6	0.00e+00	0	36	104	0	60	95242
2026-01-03 02:50:05.36	18.77	1.22	-52.4	-54.9	3.6	0.00e+00	0	36	104	0	60	93511
2026-01-03 02:50:06.37	18.65	1.27	-52.6	-55.0	3.6	0.00e+00	0	36	104	0	60	95562
2026-01-03 02:50:07.38	18.52	1.32	-52.5	-55.0	3.6	0.00e+00	0	36	104	0	60	94601
2026-01-03 02:50:08.39	18.40	1.37	-52.6	-55.0	3.6	0.00e+00	0	36	104	0	60	95460
2026-01-03 02:50:09.40	18.28	1.42	-52.6	-55.0	3.6	0.00e+00	0	36	104	0	60	95293
2026-01-03 02:50:10.41	18.15	1.47	-52.6	-55.0	3.6	0.00e+00	0	36	104	0	60	95519
2026-01-03 02:50:11.43	18.02	1.51	-52.6	-55.0	3.6	0.00e+00	0	36	104	0	60	95345
2026-01-03 02:50:12.44	17.90	1.56	-52.6	-55.0	3.6	0.00e+00	0	37	104	0	60	95538
2026-01-03 02:50:13.45	17.77	1.61	-52.4	-54.9	3.6	0.00e+00	0	36	104	0	60	93953
2026-01-03 02:50:14.46	17.65	1.66	-52.6	-55.0	3.6	0.00e+00	0	37	104	0	60	95347
2026-01-03 02:50:15.47	17.52	1.71	-52.6	-55.0	3.6	0.00e+00	0	37	104	0	60	94764
2026-01-03 02:50:16.48	17.39	1.76	-52.6	-55.1	3.6	0.00e+00	0	37	104	0	60	95728
2026-01-03 02:50:17.49	17.26	1.80	-52.5	-54.9	3.6	0.00e+00	0	37	104	0	60	94307
2026-01-03 02:50:18.50	17.13	1.85	-52.6	-55.0	3.6	0.00e+00	0	37	104	0	60	95349
2026-01-03 02:50:19.51	17.01	1.90	-52.6	-55.0	3.6	0.00e+00	0	37	104	0	60	95382
2026-01-03 02:50:20.52	16.88	1.95	-52.6	-55.0	3.6	0.00e+00	0	37	104	0	60	95229
2026-01-03 02:50:21.53	16.75	2.00	-52.5	-55.0	3.5	0.00e+00	0	37	104	0	60	94785
2026-01-03 02:50:22.54	16.61	2.04	-52.6	-55.0	3.6	0.00e+00	0	37	104	0	60	95235
2026-01-03 02:50:23.55	16.48	2.09	-52.6	-55.1	3.6	0.00e+00	0	37	104	0	60	95682
2026-01-03 02:50:24.57	16.35	2.14	-52.5	-54.9	3.6	0.00e+00	0	37	104	0	60	94384
2026-01-03 02:50:25.58	16.22	2.19	-52.5	-55.0	3.6	0.00e+00	0	37	104	0	60	94699
2026-01-03 02:50:26.59	16.08	2.24	-52.6	-55.1	3.6	0.00e+00	0	37	104	0	60	95656
2026-01-03 02:50:27.60	15.95	2.29	-52.7	-55.1	3.6	0.00e+00	0	37	104	0	60	96720
2026-01-03 02:50:28.61	15.82	2.33	-52.5	-55.0	3.6	0.00e+00	0	37	104	0	60	94682
2026-01-03 02:50:29.62	15.68	2.38	-52.6	-55.0	3.6	0.00e+00	0	37	104	0	60	95241
2026-01-03 02:50:30.63	15.55	2.43	-52.5	-54.9	3.6	0.00e+00	0	37	104	0	60	94118
2026-01-03 02:50:31.64	15.41	2.48	-52.6	-55.0	3.6	0.00e+00	0	37	104	0	60	95589
2026-01-03 02:50:32.65	15.27	2.53	-52.7	-55.1	3.6	0.00e+00	0	37	104	0	60	96551
2026-01-03 02:50:33.66	15.14	2.57	-52.6	-55.1	3.6	0.00e+00	0	37	104	0	60	95954
2026-01-03 02:50:34.67	15.00	2.62	-52.6	-55.1	3.5	0.00e+00	0	37	104	0	60	96222
2026-01-03 02:50:35.68	14.86	2.67	-52.5	-54.9	3.6	0.00e+00	0	37	104	0	60	94198
2026-01-03 02:50:36.69	14.72	2.72	-52.4	-54.9	3.6	0.00e+00	0	37	104	0	60	93486
2026-01-03 02:50:37.70	14.58	2.77	-52.6	-55.0	3.6	0.00e+00	0	37	104	0	60	95364
2026-01-03 02:50:38.72	14.44	2.81	-52.7	-55.2	3.6	0.00e+00	0	37	104	0	60	96972
2026-01-03 02:50:39.73	14.30	2.86	-52.7	-55.2	3.6	0.00e+00	0	37	104	0	60	97546
2026-01-03 02:50:40.74	14.16	2.91	-52.6	-55.0	3.6	0.00e+00	0	37	104	0	60	95517
2026-01-03 02:50:41.75	14.02	2.96	-52.5	-54.9	3.6	0.00e+00	0	37	104	0	60	94225
2026-01-03 02:50:42.76	13.87	3.01	-52.6	-55.0	3.6	0.00e+00	0	37	104	0	60	95239
2026-01-03 02:50:43.77	13.73	3.05	-52.6	-55.0	3.6	0.00e+00	0	37	104	0	60	95252
2026-01-03 02:50:44.78	13.59	3.10	-52.5	-55.0	3.6	0.00e+00	0	37	104	0	60	94909
2026-01-03 02:50:45.79	13.44	3.15	-52.4	-54.9	3.6	0.00e+00	0	37	104	0	60	93486
2026-01-03 02:50:46.80	13.30	3.20	-52.4	-54.8	3.6	0.00e+00	0	37	104	0	60	93428
2026-01-03 02:50:47.81	13.15	3.24	-52.4	-54.9	3.6	0.00e+00	0	37	104	0	60	93570
2026-01-03 02:50:48.82	13.01	3.29	-52.5	-54.9	3.6	0.00e+00	0	37	104	0	60	94211
2026-01-03 02:50:49.83	12.86	3.34	-52.5	-55.0	3.6	0.00e+00	0	37	104	0	60	94580
2026-01-03 02:50:50.84	12.71	3.39	-52.8	-55.2	3.6	0.00e+00	0	37	104	0	60	97429
2026-01-03 02:50:51.85	12.56	3.43	-52.6	-55.1	3.6	0.00e+00	0	37	104	0	60	95806
2026-01-03 02:50:52.86	12.42	3.48	-52.6	-55.0	3.6	0.00e+00	0	37	104	0	60	94715
2026-01-03 02:50:53.87	12.27	3.53	-52.6	-55.1	3.5	0.00e+00	0	37	104	0	60	95878
2026-01-03 02:50:54.88	12.12	3.58	-52.5	-55.0	3.6	0.00e+00	0	37	104	0	60	95523
2026-01-03 02:50:55.90	11.97	3.62	-52.6	-55.1	3.6	0.00e+00	0	37	104	0	60	96291
2026-01-03 02:50:56.91	11.81	3.67	-52.6	-55.0	3.6	0.00e+00	0	37	104	0	60	95333
2026-01-03 02:50:57.92	11.66	3.72	-52.5	-54.9	3.6	0.00e+00	0	37	104	0	60	94405
2026-01-03 02:50:58.93	11.51	3.76	-52.6	-55.0	3.6	0.00e+00	0	37	104	0	60	95105
2026-01-03 02:50:59.94	11.36	3.81	-52.6	-55.1	3.6	0.00e+00	0	37	104	0	60	95630
2026-01-03 02:51:00.95	11.20	3.86	-52.5	-54.9	3.6	0.00e+00	0	38	104	0	60	94327
2026-01-03 02:51:01.96	11.05	3.91	-52.5	-54.9	3.6	0.00e+00	0	38	104	0	60	94349
2026-01-03 02:51:02.97	10.90	3.95	-52.6	-55.0	3.6	0.00e+00	0	38	104	0	60	95280
2026-01-03 02:51:03.98	10.74	4.00	-52.5	-55.0	3.6	0.00e+00	0	37	104	0	60	94632
2026-01-03 02:51:04.99	10.58	4.05	-52.5	-54.9	3.6	0.00e+00	0	38	104	0	60	94049
2026-01-03 02:51:06.00	10.43	4.09	-52.5	-54.9	3.6	0.00e+00	0	37	104	0	60	94283
2026-01-03 02:51:07.01	10.27	4.14	-52.5	-54.9	3.6	0.00e+00	0	38	104	0	60	93785
2026-01-03 02:51:08.02	10.11	4.19	-52.6	-55.0	3.6	0.00e+00	0	38	104	0	60	95440
2026-01-03 02:51:09.04	9.95	4.23	-52.6	-55.0	3.6	0.00e+00	0	38	104	0	60	95328
2026-01-03 02:51:10.05	9.79	4.28	-52.7	-55.1	3.6	0.00e+00	0	38	104	0	60	96417
2026-01-03 02:51:11.06	9.63	4.32	-52.4	-54.9	3.6	0.00e+00	0	38	104	0	60	93595
2026-01-03 02:51:12.07	9.47	4.37	-52.5	-54.9	3.6	0.00e+00	0	38	104	0	60	93850
2026-01-03 02:51:13.08	9.31	4.42	-52.6	-55.0	3.6	0.00e+00	0	38	104	0	60	95380
2026-01-03 02:51:14.09	9.15	4.46	-52.5	-55.0	3.6	0.00e+00	0	38	104	0	60	94940
2026-01-03 02:51:15.10	8.99	4.51	-52.7	-55.1	3.6	0.00e+00	0	38	104	0	60	96443
2026-01-03 02:51:16.11	8.82	4.56	-52.7	-55.1	3.6	0.00e+00	0	38	104	0	60	95705
2026-01-03 02:51:17.12	8.66	4.60	-52.5	-55.0	3.6	0.00e+00	0	38	104	0	60	94879
2026-01-03 02:51:18.13	8.50	4.65	-52.5	-54.9	3.6	0.00e+00	0	38	104	0	60	94431
2026-01-03 02:51:19.14	8.33	4.69	-52.5	-54.9	3.6	0.00e+00	0	38	104	0	60	94117
2026-01-03 02:51:20.15	8.17	4.74	-52.5	-54.9	3.5	0.00e+00	0	38	104	0	60	94279
2026-01-03 02:51:21.16	8.00	4.78	-52.4	-54.8	3.6	0.00e+00	0	38	104	0	60	93342
2026-01-03 02:51:22.18	7.83	4.83	-52.4	-54.8	3.6	0.00e+00	0	38	104	0	60	93185
2026-01-03 02:51:23.19	7.66	4.88	-52.4	-54.9	3.6	0.00e+00	0	38	104	0	60	93714
2026-01-03 02:51:24.20	7.49	4.92	-52.4	-54.8	3.6	0.00e+00	0	38	104	0	60	93415
2026-01-03 02:51:25.21	7.32	4.97	-52.4	-54.8	3.6	0.00e+00	0	38	104	0	60	93140
2026-01-03 02:51:26.21	7.16	5.01	-52.4	-54.8	3.6	0.00e+00	0	38	104	0	60	93056
2026-01-03 02:51:27.23	6.98	5.06	-52.4	-54.9	3.6	0.00e+00	0	38	104	0	60	93540
2026-01-03 02:51:28.24	6.81	5.10	-52.5	-54.9	3.6	0.00e+00	0	38	104	0	60	93813
2026-01-03 02:51:29.24	6.64	5.14	-52.5	-54.9	3.6	0.00e+00	0	38	104	0	60	94284
2026-01-03 02:51:30.25	6.47	5.19	-52.6	-55.0	3.6	0.00e+00	0	38	104	0	60	95231
2026-01-03 02:51:31.27	6.30	5.23	-52.7	-55.2	3.6	0.00e+00	0	38	104	0	60	96878
2026-01-03 02:51:32.28	6.12	5.28	-52.6	-55.0	3.6	0.00e+00	0	38	104	0	60	95128
2026-01-03 02:51:33.29	5.95	5.32	-52.5	-55.0	3.6	0.00e+00	0	38	104	0	60	94717
2026-01-03 02:51:34.30	5.77	5.37	-52.6	-55.1	3.6	0.00e+00	0	38	104	0	60	95895
2026-01-03 02:51:35.31	5.60	5.41	-52.6	-55.0	3.6	0.00e+00	0	38	104	0	60	95377
2026-01-03 02:51:36.32	5.42	5.46	-52.6	-55.1	3.6	0.00e+00	0	38	104	0	60	95987
2026-01-03 02:51:37.33	5.24	5.50	-52.6	-55.0	3.5	0.00e+00	0	38	104	0	60	95444
2026-01-03 02:51:38.34	5.07	5.54	-52.6	-55.1	3.6	0.00e+00	0	38	104	0	60	96184
2026-01-03 02:51:39.35	4.89	5.59	-52.6	-55.1	3.6	0.00e+00	0	38	104	0	60	95643
2026-01-03 02:51:40.36	4.71	5.63	-52.5	-55.0	3.6	0.00e+00	0	38	104	0	60	94536
2026-01-03 02:51:41.37	4.53	5.67	-52.6	-55.0	3.6	0.00e+00	0	38	104	0	60	95135
2026-01-03 02:51:42.38	4.35	5.72	-52.7	-55.1	3.6	0.00e+00	0	38	104	0	60	96212
2026-01-03 02:51:43.39	4.17	5.76	-52.6	-55.1	3.6	0.00e+00	0	38	104	0	60	95769
2026-01-03 02:51:44.40	3.98	5.80	-52.5	-54.9	3.6	0.00e+00	0	38	104	0	60	94494
2026-01-03 02:51:45.41	3.80	5.85	-52.6	-55.1	3.6	0.00e+00	0	38	104	0	60	95788
2026-01-03 02:51:46.42	3.62	5.89	-52.6	-55.0	3.6	0.00e+00	0	38	104	0	60	95585
2026-01-03 02:51:47.43	3.43	5.93	-52.6	-55.1	3.6	0.00e+00	0	38	104	0	60	95837
2026-01-03 02:51:48.44	3.25	5.97	-52.7	-55.1	3.6	0.00e+00	0	38	104	0	60	96663
2026-01-03 02:51:49.45	3.06	6.02	-52.5	-54.9	3.6	0.00e+00	0	38	104	0	60	94016
2026-01-03 02:51:50.46	2.88	6.06	-52.8	-55.2	3.6	0.00e+00	0	38	104	0	60	97810
2026-01-03 02:51:51.47	2.69	6.10	-52.7	-55.1	3.6	0.00e+00	0	38	104	0	60	96500
2026-01-03 02:51:52.48	2.50	6.14	-52.8	-55.3	3.6	0.00e+00	0	38	104	0	60	97956
2026-01-03 02:51:53.49	2.32	6.18	-52.7	-55.1	3.6	0.00e+00	0	38	104	0	60	96101
2026-01-03 02:51:54.50	2.13	6.23	-52.6	-55.0	3.6	0.00e+00	0	38	104	0	60	95129
2026-01-03 02:51:55.51	1.94	6.27	-52.9	-55.3	3.6	0.00e+00	0	38	104	0	60	98265
2026-01-03 02:51:56.53	1.75	6.31	-52.6	-55.0	3.6	0.00e+00	0	38	104	0	60	95522
2026-01-03 02:51:57.54	1.56	6.35	-52.5	-54.9	3.6	0.00e+00	0	38	104	0	60	94420
2026-01-03 02:51:58.55	1.36	6.39	-52.5	-54.9	3.6	0.00e+00	0	38	104	0	60	94193
2026-01-03 02:51:59.56	1.17	6.43	-52.4	-54.8	3.6	0.00e+00	0	38	104	0	60	93442
2026-01-03 02:52:00.57	0.98	6.47	-52.4	-54.8	3.6	0.00e+00	0	38	104	0	60	93373
2026-01-03 02:52:01.58	0.79	6.51	-52.5	-55.0	3.6	0.00e+00	0	38	104	0	60	95038
2026-01-03 02:52:02.59	0.59	6.55	-52.5	-55.0	3.6	0.00e+00	0	38	104	0	60	94991
2026-01-03 02:52:03.60	0.40	6.59	-52.5	-54.9	3.6	0.00e+00	0	38	104	0	60	94388
2026-01-03 02:52:04.61	0.20	6.63	-52.6	-55.0	3.6	0.00e+00	0	38	104	0	60	94991
2026-01-03 02:52:05.62	0.01	6.67	-52.6	-55.0	3.6	0.00e+00	0	38	104	0	60	95308
2026-01-03 02:52:06.63	359.81	6.71	-52.6	-54.9	3.6	0.00e+00	0	38	104	0	60	94423
2026-01-03 02:52:07.64	359.61	6.75	-52.5	-54.9	3.6	0.00e+00	0	38	104	0	60	94408
2026-01-03 02:52:08.65	359.41	6.79	-52.7	-55.1	3.6	0.00e+00	0	38	104	0	60	96400
2026-01-03 02:52:09.66	359.21	6.83	-52.5	-55.0	3.6	0.00e+00	0	38	104	0	60	95374
2026-01-03 02:52:10.66	359.02	6.87	-52.5	-54.9	3.6	0.00e+00	0	38	104	0	60	94348
2026-01-03 02:52:11.68	358.81	6.90	-52.6	-55.1	3.6	0.00e+00	0	38	104	0	60	95679
2026-01-03 02:52:12.69	358.61	6.94	-52.6	-55.1	3.6	0.00e+00	0	38	104	0	60	96053
2026-01-03 02:52:13.70	358.41	6.98	-52.6	-55.0	3.5	0.00e+00	0	38	104	0	60	95161
2026-01-03 02:52:14.71	358.21	7.02	-52.6	-55.1	3.6	0.00e+00	0	38	104	0	60	95740
2026-01-03 02:52:15.71	358.01	7.06	-52.8	-55.3	3.6	0.00e+00	0	38	104	0	60	98116
2026-01-03 02:52:16.72	357.81	7.09	-52.7	-55.1	3.6	0.00e+00	0	38	104	0	60	96681
2026-01-03 02:52:17.73	357.60	7.13	-52.7	-55.1	3.6	0.00e+00	0	38	104	0	60	96325
2026-01-03 02:52:18.74	357.40	7.17	-52.6	-55.1	3.6	0.00e+00	0	38	104	0	60	95998
2026-01-03 02:52:19.75	357.19	7.20	-52.8	-55.3	3.6	0.00e+00	0	38	104	0	60	98145
2026-01-03 02:52:20.76	356.98	7.24	-52.6	-55.0	3.6	0.00e+00	0	38	104	0	60	95197
2026-01-03 02:52:21.77	356.78	7.28	-52.7	-55.1	3.6	0.00e+00	0	38	104	0	60	96311
2026-01-03 02:52:22.78	356.57	7.31	-52.5	-54.9	3.6	0.00e+00	0	39	104	0	60	94519
2026-01-03 02:52:23.79	356.36	7.35	-52.6	-55.0	3.6	0.00e+00	0	38	104	0	60	95616
2026-01-03 02:52:24.80	356.15	7.38	-52.5	-55.0	3.6	0.00e+00	0	38	104	0	60	94697
2026-01-03 02:52:25.81	355.94	7.42	-52.7	-55.1	3.6	0.00e+00	0	38	104	0	60	96596
2026-01-03 02:52:26.82	355.73	7.45	-52.7	-55.1	3.6	0.00e+00	0	38	104	0	60	96572
2026-01-03 02:52:27.83	355.52	7.49	-52.7	-55.1	3.6	0.00e+00	0	38	104	0	60	96013
2026-01-03 02:52:28.84	355.31	7.52	-52.7	-55.1	3.6	0.00e+00	0	38	104	0	60	96248
2026-01-03 02:52:29.85	355.10	7.56	-52.6	-55.0	3.6	0.00e+00	0	39	104	0	60	95146
2026-01-03 02:52:30.86	354.89	7.59	-52.6	-55.1	3.6	0.00e+00	0	38	104	0	60	95777
2026-01-03 02:52:31.87	354.68	7.63	-52.6	-55.1	3.6	0.00e+00	0	38	104	0	60	96194
2026-01-03 02:52:32.88	354.46	7.66	-52.6	-55.0	3.6	0.00e+00	0	38	104	0	60	95029
2026-01-03 02:52:33.89	354.25	7.69	-52.6	-55.1	3.6	0.00e+00	0	39	104	0	60	95747
2026-01-03 02:52:34.90	354.03	7.73	-52.5	-55.0	3.6	0.00e+00	0	39	104	0	60	95192
2026-01-03 02:52:35.91	353.82	7.76	-52.7	-55.2	3.6	0.00e+00	0	39	104	0	60	96745
2026-01-03 02:52:36.92	353.60	7.79	-52.7	-55.1	3.6	0.00e+00	0	39	104	0	60	96070
2026-01-03 02:52:37.93	353.38	7.82	-52.6	-55.1	3.6	0.00e+00	0	39	104	0	60	96218
2026-01-03 02:52:38.94	353.17	7.86	-52.6	-55.1	3.6	0.00e+00	0	39	104	0	60	96181
2026-01-03 02:52:39.95	352.95	7.89	-52.8	-55.3	3.6	0.00e+00	0	39	104	0	60	98082
2026-01-03 02:52:40.96	352.73	7.92	-52.8	-55.2	3.6	0.00e+00	0	39	104	0	60	96996
2026-01-03 02:52:41.97	352.51	7.95	-52.8	-55.2	3.6	0.00e+00	0	39	104	0	60	97576
2026-01-03 02:52:42.98	352.29	7.98	-52.7	-55.1	3.6	0.00e+00	0	39	104	0	60	96499
2026-01-03 02:52:43.99	352.07	8.01	-52.6	-55.1	3.6	0.00e+00	0	38	104	0	60	95718
2026-01-03 02:52:45.00	351.85	8.04	-52.7	-55.1	3.6	0.00e+00	0	38	104	0	60	96693
2026-01-03 02:52:46.01	351.63	8.07	-52.6	-55.1	3.6	0.00e+00	0	39	104	0	60	96326
2026-01-03 02:52:47.02	351.41	8.10	-52.6	-55.1	3.6	0.00e+00	0	39	104	0	60	95862
2026-01-03 02:52:48.03	351.18	8.13	-52.8	-55.2	3.6	0.00e+00	0	39	104	0	60	97604
2026-01-03 02:52:49.03	350.96	8.16	-52.7	-55.2	3.6	0.00e+00	0	39	104	0	60	97141
2026-01-03 02:52:50.04	350.74	8.19	-52.7	-55.1	3.6	0.00e+00	0	39	104	0	60	96499
2026-01-03 02:52:51.05	350.51	8.22	-52.7	-55.1	3.6	0.00e+00	0	39	104	0	60	95916
2026-01-03 02:52:52.07	350.29	8.24	-52.7	-55.1	3.6	0.00e+00	0	39	104	0	60	96367
2026-01-03 02:52:53.07	350.06	8.27	-52.5	-55.0	3.6	0.00e+00	0	39	104	0	60	95348
2026-01-03 02:52:54.08	349.84	8.30	-52.5	-54.9	3.6	0.00e+00	0	39	104	0	60	93837
2026-01-03 02:52:55.09	349.61	8.33	-52.7	-55.1	3.6	0.00e+00	0	39	104	0	60	96302
2026-01-03 02:52:56.10	349.39	8.35	-52.6	-55.0	3.6	0.00e+00	0	39	104	0	60	95241
2026-01-03 02:52:57.12	349.16	8.38	-52.7	-55.1	3.6	0.00e+00	0	39	104	0	60	96566
2026-01-03 02:52:58.13	348.93	8.41	-52.8	-55.2	3.6	0.00e+00	0	39	104	0	60	97651
2026-01-03 02:52:59.14	348.70	8.43	-52.7	-55.1	3.6	0.00e+00	0	39	104	0	60	96172
2026-01-03 02:53:00.15	348.47	8.46	-52.8	-55.2	3.6	0.00e+00	0	39	104	0	60	96733
2026-01-03 02:53:01.16	348.24	8.48	-52.7	-55.1	3.6	0.00e+00	0	39	104	0	60	96463
2026-01-03 02:53:02.17	348.01	8.51	-52.6	-55.0	3.6	0.00e+00	0	39	104	0	60	95086
2026-01-03 02:53:03.18	347.78	8.53	-52.8	-55.3	3.6	0.00e+00	0	39	104	0	60	98427
2026-01-03 02:53:04.19	347.55	8.56	-52.9	-55.3	3.6	0.00e+00	0	39	104	0	60	98753
2026-01-03 02:53:05.20	347.32	8.58	-52.6	-55.0	3.6	0.00e+00	0	39	104	0	60	95426
2026-01-03 02:53:06.21	347.09	8.60	-52.6	-55.0	3.6	0.00e+00	0	39	104	0	60	95474
2026-01-03 02:53:07.22	346.85	8.63	-52.6	-55.1	3.6	0.00e+00	0	39	104	0	60	95855
2026-01-03 02:53:08.23	346.62	8.65	-52.6	-55.1	3.6	0.00e+00	0	39	104	0	60	95827
2026-01-03 02:53:09.24	346.39	8.67	-52.7	-55.1	3.6	0.00e+00	0	39	104	0	60	96487
2026-01-03 02:53:10.25	346.15	8.69	-52.6	-55.0	3.6	0.00e+00	0	39	104	0	60	95519
2026-01-03 02:53:11.26	345.92	8.71	-52.8	-55.2	3.6	0.00e+00	0	39	104	0	60	97071
2026-01-03 02:53:12.27	345.69	8.74	-52.7	-55.1	3.6	0.00e+00	0	39	104	0	60	96480
2026-01-03 02:53:13.28	345.45	8.76	-52.7	-55.2	3.6	0.00e+00	0	39	104	0	60	96978
2026-01-03 02:53:14.29	345.22	8.78	-52.7	-55.1	3.6	0.00e+00	0	39	104	0	60	96486
2026-01-03 02:53:15.30	344.98	8.80	-52.8	-55.2	3.6	0.00e+00	0	39	104	0	60	97381
2026-01-03 02:53:16.31	344.74	8.82	-52.8	-55.2	3.5	0.00e+00	0	39	104	0	60	97509
2026-01-03 02:53:17.32	344.51	8.84	-52.7	-55.1	3.6	0.00e+00	0	39	104	0	60	96359
2026-01-03 02:53:18.33	344.27	8.86	-52.7	-55.2	3.6	0.00e+00	0	39	104	0	60	97170
2026-01-03 02:53:19.34	344.03	8.87	-52.5	-55.0	3.6	0.00e+00	0	39	104	0	60	94837
2026-01-03 02:53:20.35	343.79	8.89	-52.7	-55.2	3.6	0.00e+00	0	39	104	0	60	97037
2026-01-03 02:53:21.36	343.56	8.91	-52.5	-55.0	3.6	0.00e+00	0	39	104	0	60	94792
2026-01-03 02:53:22.37	343.32	8.93	-52.6	-55.1	3.6	0.00e+00	0	39	104	0	60	95792
2026-01-03 02:53:23.38	343.08	8.95	-52.7	-55.1	3.5	0.00e+00	0	39	104	0	60	95918
2026-01-03 02:53:24.38	342.84	8.96	-52.8	-55.2	3.5	0.00e+00	0	39	104	0	60	97451
2026-01-03 02:53:25.39	342.60	8.98	-52.7	-55.1	3.6	0.00e+00	0	39	104	0	60	96253
2026-01-03 02:53:26.41	342.36	8.99	-52.8	-55.2	3.6	0.00e+00	0	39	104	0	60	97538
2026-01-03 02:53:27.42	342.12	9.01	-52.7	-55.1	3.6	0.00e+00	0	39	104	0	60	96611
2026-01-03 02:53:28.43	341.88	9.02	-52.6	-55.1	3.6	0.00e+00	0	39	104	0	60	95646
2026-01-03 02:53:29.44	341.64	9.04	-52.8	-55.2	3.6	0.00e+00	0	39	104	0	60	97631
2026-01-03 02:53:30.45	341.40	9.05	-52.8	-55.3	3.6	0.00e+00	0	39	104	0	60	97856
2026-01-03 02:53:31.46	341.16	9.07	-52.6	-55.0	3.5	0.00e+00	0	39	104	0	60	95460
2026-01-03 02:53:32.47	340.91	9.08	-52.8	-55.2	3.6	0.00e+00	0	39	104	0	60	97578
2026-01-03 02:53:33.48	340.67	9.09	-52.7	-55.2	3.6	0.00e+00	0	39	104	0	60	97676
2026-01-03 02:53:34.49	340.43	9.11	-52.7	-55.1	3.6	0.00e+00	0	39	104	0	60	96615
2026-01-03 02:53:35.50	340.19	9.12	-52.8	-55.2	3.6	0.00e+00	0	39	104	0	60	96732
2026-01-03 02:53:36.51	339.94	9.13	-52.9	-55.3	3.6	0.00e+00	0	39	104	0	60	98667
2026-01-03 02:53:37.52	339.70	9.14	-52.6	-55.0	3.6	0.00e+00	0	39	104	0	60	95311
2026-01-03 02:53:38.53	339.46	9.15	-52.7	-55.1	3.6	0.00e+00	0	39	104	0	60	96320
2026-01-03 02:53:39.54	339.21	9.16	-52.6	-55.0	3.6	0.00e+00	0	39	104	0	60	95539
2026-01-03 02:53:40.55	338.97	9.18	-52.7	-55.2	3.6	0.00e+00	0	39	104	0	60	96844
2026-01-03 02:53:41.56	338.73	9.18	-52.7	-55.2	3.6	0.00e+00	0	39	104	0	60	97051
2026-01-03 02:53:42.58	338.48	9.19	-52.8	-55.2	3.6	0.00e+00	0	39	104	0	60	97531
2026-01-03 02:53:43.59	338.24	9.20	-52.7	-55.1	3.6	0.00e+00	0	39	104	0	60	96337
2026-01-03 02:53:44.60	337.99	9.21	-52.7	-55.2	3.6	0.00e+00	0	39	104	0	60	96831
2026-01-03 02:53:45.61	337.75	9.22	-52.6	-55.1	3.6	0.00e+00	0	39	104	0	60	95915
2026-01-03 02:53:46.62	337.50	9.23	-52.6	-55.1	3.6	0.00e+00	0	39	104	0	60	96128
2026-01-03 02:53:47.63	337.26	9.24	-52.6	-55.0	3.6	0.00e+00	0	39	104	0	60	95589
2026-01-03 02:53:48.65	337.01	9.24	-52.6	-55.1	3.6	0.00e+00	0	39	104	0	60	96233
2026-01-03 02:53:49.66	336.76	9.25	-52.5	-55.0	3.6	0.00e+00	0	39	104	0	60	94677
2026-01-03 02:53:50.67	336.52	9.25	-52.6	-55.1	3.6	0.00e+00	0	39	104	0	60	95975
2026-01-03 02:53:51.68	336.27	9.26	-52.6	-55.0	3.6	0.00e+00	0	39	104	0	60	95570
2026-01-03 02:53:52.69	336.03	9.27	-52.6	-55.0	3.6	0.00e+00	0	39	104	0	60	95311
2026-01-03 02:53:53.70	335.78	9.27	-52.6	-55.1	3.6	0.00e+00	0	39	104	0	60	95640
2026-01-03 02:53:54.71	335.53	9.27	-52.6	-55.1	3.6	0.00e+00	0	39	104	0	60	95672
2026-01-03 02:53:55.72	335.29	9.28	-52.7	-55.1	3.6	0.00e+00	0	39	104	0	60	96637
2026-01-03 02:53:56.74	335.04	9.28	-52.8	-55.3	3.6	0.00e+00	0	39	104	0	60	98308
2026-01-03 02:53:57.75	334.79	9.28	-52.8	-55.2	3.6	0.00e+00	0	39	104	0	60	97482
2026-01-03 02:53:58.76	334.55	9.29	-52.6	-55.0	3.6	0.00e+00	0	39	104	0	60	95019
2026-01-03 02:53:59.77	334.30	9.29	-52.6	-55.0	3.6	0.00e+00	0	39	104	0	60	95387
2026-01-03 02:54:00.78	334.05	9.29	-52.7	-55.1	3.6	0.00e+00	0	39	104	0	60	96581
2026-01-03 02:54:01.79	333.81	9.29	-52.6	-55.0	3.6	0.00e+00	0	39	104	0	60	95246
2026-01-03 02:54:02.80	333.56	9.29	-52.7	-55.1	3.6	0.00e+00	0	39	104	0	60	96459
2026-01-03 02:54:03.81	333.31	9.29	-52.8	-55.2	3.6	0.00e+00	0	39	104	0	60	97095
2026-01-03 02:54:04.82	333.07	9.29	-52.6	-55.0	3.6	0.00e+00	0	39	104	0	60	95578
2026-01-03 02:54:05.83	332.82	9.29	-52.7	-55.1	3.6	0.00e+00	0	39	104	0	60	95759
2026-01-03 02:54:06.84	332.57	9.29	-52.6	-55.1	3.6	0.00e+00	0	39	104	0	60	96190
2026-01-03 02:54:07.86	332.33	9.29	-52.7	-55.1	3.6	0.00e+00	0	39	104	0	60	96508
2026-01-03 02:54:08.87	332.08	9.29	-52.6	-55.0	3.6	0.00e+00	0	39	104	0	60	95356
2026-01-03 02:54:09.88	331.83	9.29	-52.6	-55.0	3.6	0.00e+00	0	39	104	0	60	95126
2026-01-03 02:54:10.89	331.59	9.28	-52.8	-55.2	3.6	0.00e+00	0	39	104	0	60	97690
2026-01-03 02:54:11.90	331.34	9.28	-52.8	-55.2	3.6	0.00e+00	0	39	104	0	60	97368
2026-01-03 02:54:12.91	331.09	9.28	-52.6	-55.0	3.6	0.00e+00	0	39	104	0	60	95445
2026-01-03 02:54:13.92	330.85	9.27	-52.5	-55.0	3.6	0.00e+00	0	39	104	0	60	95373
2026-01-03 02:54:14.93	330.60	9.27	-52.6	-55.1	3.6	0.00e+00	0	39	104	0	60	95810
2026-01-03 02:54:15.94	330.36	9.27	-52.7	-55.1	3.6	0.00e+00	0	39	104	0	60	96651
2026-01-03 02:54:16.95	330.11	9.26	-52.8	-55.2	3.6	0.00e+00	0	39	104	0	60	97661
2026-01-03 02:54:17.96	329.86	9.25	-52.6	-55.1	3.6	0.00e+00	0	39	104	0	60	95706
2026-01-03 02:54:18.97	329.62	9.25	-52.8	-55.3	3.6	0.00e+00	0	39	104	0	60	97878
2026-01-03 02:54:19.98	329.37	9.24	-52.7	-55.1	3.6	0.00e+00	0	39	104	0	60	96680
2026-01-03 02:54:21.00	329.12	9.24	-52.6	-55.1	3.6	0.00e+00	0	39	104	0	60	95922
2026-01-03 02:54:22.01	328.88	9.23	-52.9	-55.3	3.6	0.00e+00	0	39	104	0	60	97932
2026-01-03 02:54:23.02	328.63	9.22	-52.9	-55.3	3.6	0.00e+00	0	39	104	0	60	98613
2026-01-03 02:54:24.03	328.39	9.21	-52.8	-55.2	3.6	0.00e+00	0	39	104	0	60	97744
2026-01-03 02:54:25.04	328.14	9.20	-52.7	-55.1	3.6	0.00e+00	0	39	104	0	60	96126
2026-01-03 02:54:26.05	327.90	9.19	-52.8	-55.2	3.6	0.00e+00	0	39	104	0	60	97723
2026-01-03 02:54:27.06	327.65	9.18	-52.9	-55.4	3.6	0.00e+00	0	39	104	0	60	99530
2026-01-03 02:54:28.07	327.41	9.18	-52.8	-55.2	3.5	0.00e+00	0	39	104	0	60	97593
2026-01-03 02:54:29.08	327.17	9.16	-52.7	-55.2	3.6	0.00e+00	0	39	104	0	60	96811
2026-01-03 02:54:30.09	326.92	9.15	-52.7	-55.2	3.6	0.00e+00	0	39	104	0	60	96774
2026-01-03 02:54:31.10	326.68	9.14	-52.8	-55.2	3.6	0.00e+00	0	39	104	0	60	97609
2026-01-03 02:54:32.11	326.43	9.13	-52.7	-55.2	3.6	0.00e+00	0	39	104	0	60	96986
2026-01-03 02:54:33.12	326.19	9.12	-53.0	-55.4	3.6	0.00e+00	0	39	104	0	60	99361
2026-01-03 02:54:34.14	325.95	9.11	-52.7	-55.2	3.6	0.00e+00	0	39	104	0	60	97097
2026-01-03 02:54:35.15	325.70	9.09	-52.6	-55.1	3.6	0.00e+00	0	39	104	0	60	95646
2026-01-03 02:54:36.16	325.46	9.08	-52.7	-55.1	3.6	0.00e+00	0	39	104	0	60	96111
2026-01-03 02:54:37.17	325.22	9.07	-52.7	-55.2	3.6	0.00e+00	0	39	104	0	60	97137
2026-01-03 02:54:38.18	324.98	9.05	-52.8	-55.3	3.6	0.00e+00	0	39	104	0	60	98443
2026-01-03 02:54:39.19	324.73	9.04	-52.8	-55.2	3.6	0.00e+00	0	39	104	0	60	97234
2026-01-03 02:54:40.20	324.49	9.02	-52.8	-55.3	3.6	0.00e+00	0	39	104	0	60	98003
2026-01-03 02:54:41.21	324.25	9.01	-52.7	-55.1	3.6	0.00e+00	0	39	104	0	60	96304
2026-01-03 02:54:42.22	324.01	8.99	-52.5	-55.0	3.6	0.00e+00	0	39	104	0	60	94799
2026-01-03 02:54:43.23	323.77	8.98	-52.7	-55.2	3.6	0.00e+00	0	39	104	0	60	96928
2026-01-03 02:54:44.24	323.53	8.96	-52.9	-55.3	3.6	0.00e+00	0	39	104	0	60	98709
2026-01-03 02:54:45.26	323.29	8.94	-52.6	-55.1	3.6	0.00e+00	0	39	104	0	60	95994
2026-01-03 02:54:46.26	323.05	8.93	-52.5	-54.9	3.6	0.00e+00	0	39	104	0	60	94255
2026-01-03 02:54:47.28	322.81	8.91	-52.7	-55.1	3.6	0.00e+00	0	39	104	0	60	96620
2026-01-03 02:54:48.29	322.57	8.89	-52.5	-55.0	3.6	0.00e+00	0	39	104	0	60	94980
2026-01-03 02:54:49.30	322.33	8.87	-52.8	-55.3	3.6	0.00e+00	0	39	104	0	60	98243
2026-01-03 02:54:50.31	322.09	8.85	-52.6	-55.0	3.6	0.00e+00	0	39	104	0	60	95517
2026-01-03 02:54:51.32	321.86	8.84	-52.9	-55.3	3.6	0.00e+00	0	39	104	0	60	98841
2026-01-03 02:54:52.33	321.62	8.82	-52.7	-55.1	3.6	0.00e+00	0	39	104	0	60	96245
2026-01-03 02:54:53.34	321.38	8.80	-52.8	-55.2	3.6	0.00e+00	0	39	104	0	60	97645
2026-01-03 02:54:54.35	321.14	8.78	-52.8	-55.2	3.6	0.00e+00	0	39	104	0	60	97665
2026-01-03 02:54:55.36	320.91	8.76	-52.9	-55.3	3.6	0.00e+00	0	39	104	0	60	98582
2026-01-03 02:54:56.38	320.67	8.73	-52.6	-55.0	3.6	0.00e+00	0	39	104	0	60	95350
2026-01-03 02:54:57.39	320.43	8.71	-52.7	-55.2	3.6	0.00e+00	0	39	104	0	60	96812
2026-01-03 02:54:58.40	320.20	8.69	-52.7	-55.1	3.6	0.00e+00	0	39	104	0	60	96707
2026-01-03 02:54:59.41	319.97	8.67	-52.7	-55.1	3.6	0.00e+00	0	39	104	0	60	96545
2026-01-03 02:55:00.42	319.73	8.65	-52.7	-55.1	3.6	0.00e+00	0	39	104	0	60	96680
2026-01-03 02:55:01.43	319.50	8.62	-52.7	-55.1	3.6	0.00e+00	0	39	104	0	60	96010
2026-01-03 02:55:02.44	319.26	8.60	-52.7	-55.1	3.6	0.00e+00	0	39	104	0	60	96691
2026-01-03 02:55:03.45	319.03	8.58	-52.8	-55.2	3.6	0.00e+00	0	39	104	0	60	97119
2026-01-03 02:55:04.46	318.80	8.55	-52.8	-55.3	3.6	0.00e+00	0	39	104	0	60	97940
2026-01-03 02:55:05.47	318.57	8.53	-52.6	-55.0	3.6	0.00e+00	0	39	104	0	60	94985
2026-01-03 02:55:06.49	318.33	8.50	-52.7	-55.1	3.6	0.00e+00	0	39	104	0	60	96674
2026-01-03 02:55:07.50	318.10	8.48	-52.6	-55.0	3.6	0.00e+00	0	39	104	0	60	94904
2026-01-03 02:55:08.51	317.87	8.45	-52.6	-55.0	3.6	0.00e+00	0	39	104	0	60	95029
2026-01-03 02:55:09.52	317.64	8.43	-52.5	-55.0	3.6	0.00e+00	0	39	104	0	60	94920
2026-01-03 02:55:10.53	317.41	8.40	-52.8	-54.8	3.4	0.00e+00	0	39	104	0	60	92730
2026-01-03 02:55:11.54	317.18	8.38	-52.6	-55.0	3.6	0.00e+00	0	39	104	0	60	94943
2026-01-03 02:55:12.55	316.96	8.35	-52.8	-55.2	3.6	0.00e+00	0	39	104	0	60	97508
2026-01-03 02:55:13.56	316.73	8.32	-52.8	-55.2	3.6	0.00e+00	0	39	104	0	60	97296
2026-01-03 02:55:14.57	316.50	8.30	-52.7	-55.1	3.6	0.00e+00	0	39	104	0	60	96225
2026-01-03 02:55:15.58	316.27	8.27	-52.8	-55.2	3.6	0.00e+00	0	39	104	0	60	97154
2026-01-03 02:55:16.59	316.05	8.24	-52.7	-55.1	3.5	0.00e+00	0	39	104	0	60	96098
2026-01-03 02:55:17.61	315.82	8.21	-52.7	-55.1	3.6	0.00e+00	0	39	104	0	60	96404
2026-01-03 02:55:18.61	315.60	8.18	-52.9	-55.4	3.6	0.00e+00	0	39	104	0	60	99317
2026-01-03 02:55:19.63	315.37	8.15	-52.8	-55.2	3.6	0.00e+00	0	39	104	0	60	97201
2026-01-03 02:55:20.64	315.14	8.12	-52.7	-55.1	3.6	0.00e+00	0	39	104	0	60	96706
2026-01-03 02:55:21.65	314.92	8.10	-52.6	-55.0	3.6	0.00e+00	0	39	104	0	60	95495
2026-01-03 02:55:22.66	314.70	8.07	-52.7	-55.2	3.6	0.00e+00	0	39	104	0	60	96960
2026-01-03 02:55:23.67	314.48	8.04	-52.8	-55.3	3.6	0.00e+00	0	39	104	0	60	98305
2026-01-03 02:55:24.68	314.25	8.01	-52.6	-55.0	3.6	0.00e+00	0	39	104	0	60	95396
2026-01-03 02:55:25.69	314.03	7.97	-52.6	-55.0	3.6	0.00e+00	0	39	104	0	60	95329
2026-01-03 02:55:26.70	313.81	7.94	-52.6	-55.0	3.6	0.00e+00	0	39	104	0	60	95464
2026-01-03 02:55:27.71	313.59	7.91	-52.7	-55.1	3.6	0.00e+00	0	39	104	0	60	96638
2026-01-03 02:55:28.73	313.37	7.88	-52.6	-55.1	3.6	0.00e+00	0	39	104	0	60	95805
2026-01-03 02:55:29.74	313.15	7.85	-52.5	-55.0	3.6	0.00e+00	0	39	104	0	60	95057
2026-01-03 02:55:30.75	312.93	7.82	-52.7	-55.1	3.6	0.00e+00	0	39	104	0	60	96202
2026-01-03 02:55:31.76	312.71	7.78	-52.7	-55.1	3.6	0.00e+00	0	39	104	0	60	96138
2026-01-03 02:55:32.77	312.50	7.75	-52.8	-55.2	3.6	0.00e+00	0	39	104	0	60	97257
2026-01-03 02:55:33.78	312.28	7.72	-52.7	-55.1	3.6	0.00e+00	0	39	104	0	60	96406
2026-01-03 02:55:34.79	312.06	7.69	-52.9	-55.3	3.6	0.00e+00	0	39	104	0	60	98961
2026-01-03 02:55:35.80	311.85	7.65	-52.9	-55.3	3.6	0.00e+00	0	39	104	0	60	98727
2026-01-03 02:55:36.81	311.63	7.62	-52.8	-55.3	3.6	0.00e+00	0	39	104	0	60	98010
2026-01-03 02:55:37.82	311.42	7.58	-52.9	-55.4	3.6	0.00e+00	0	39	104	0	60	99142
2026-01-03 02:55:38.83	311.20	7.55	-52.6	-55.0	3.6	0.00e+00	0	39	104	0	60	95164
2026-01-03 02:55:39.84	310.99	7.52	-52.6	-55.1	3.6	0.00e+00	0	39	104	0	60	95940
2026-01-03 02:55:40.85	310.78	7.48	-52.8	-55.2	3.6	0.00e+00	0	39	104	0	60	97059
2026-01-03 02:55:41.87	310.57	7.45	-52.6	-55.1	3.6	0.00e+00	0	39	104	0	60	95643
2026-01-03 02:55:42.88	310.35	7.41	-52.6	-55.1	3.6	0.00e+00	0	39	104	0	60	96134
2026-01-03 02:55:43.89	310.14	7.37	-52.7	-55.1	3.6	0.00e+00	0	39	104	0	60	96080
2026-01-03 02:55:44.90	309.93	7.34	-52.7	-55.1	3.6	0.00e+00	0	39	104	0	60	95839
2026-01-03 02:55:45.91	309.72	7.30	-52.6	-55.0	3.6	0.00e+00	0	39	104	0	60	95289
2026-01-03 02:55:46.92	309.52	7.27	-52.6	-55.1	3.6	0.00e+00	0	39	104	0	60	95751
2026-01-03 02:55:47.93	309.31	7.23	-52.6	-55.0	3.6	0.00e+00	0	39	104	0	60	95608
2026-01-03 02:55:48.94	309.10	7.19	-52.5	-55.0	3.6	0.00e+00	0	39	104	0	60	94595
2026-01-03 02:55:49.95	308.89	7.16	-52.8	-55.2	3.6	0.00e+00	0	39	104	0	60	97563
2026-01-03 02:55:50.97	308.69	7.12	-52.7	-55.1	3.6	0.00e+00	0	39	104	0	60	96125
2026-01-03 02:55:51.98	308.48	7.08	-52.5	-54.9	3.6	0.00e+00	0	39	104	0	60	94510
2026-01-03 02:55:52.99	308.28	7.04	-52.7	-55.2	3.6	0.00e+00	0	39	104	0	60	96959
2026-01-03 02:55:54.00	308.07	7.01	-53.0	-55.5	3.6	0.00e+00	0	39	104	0	60	100279
2026-01-03 02:55:55.00	307.87	6.97	-53.0	-55.5	3.6	0.00e+00	0	39	104	0	60	100361
2026-01-03 02:55:56.02	307.67	6.93	-52.9	-55.4	3.6	0.00e+00	0	39	104	0	60	99307
2026-01-03 02:55:57.03	307.46	6.89	-52.8	-55.2	3.6	0.00e+00	0	39	104	0	60	97469
2026-01-03 02:55:58.04	307.26	6.85	-52.7	-55.1	3.6	0.00e+00	0	39	104	0	60	96611
2026-01-03 02:55:59.05	307.06	6.81	-52.6	-55.0	3.5	0.00e+00	0	39	104	0	60	95105
2026-01-03 02:56:00.06	306.86	6.77	-52.9	-55.4	3.6	0.00e+00	0	39	104	0	60	99529
2026-01-03 02:56:01.07	306.66	6.73	-52.8	-55.2	3.6	0.00e+00	0	39	104	0	60	96782
2026-01-03 02:56:02.09	306.46	6.70	-52.9	-55.4	3.6	0.00e+00	0	39	104	0	60	99391
2026-01-03 02:56:03.10	306.26	6.66	-52.7	-55.1	3.6	0.00e+00	0	39	104	0	60	96464
2026-01-03 02:56:04.11	306.07	6.62	-53.0	-55.5	3.6	0.00e+00	0	39	104	0	60	100637
2026-01-03 02:56:05.12	305.87	6.58	-52.6	-55.0	3.6	0.00e+00	0	39	104	0	60	95404
2026-01-03 02:56:06.13	305.67	6.54	-52.8	-55.3	3.6	0.00e+00	0	39	104	0	60	98229
2026-01-03 02:56:07.14	305.48	6.49	-52.7	-55.1	3.6	0.00e+00	0	39	104	0	60	96398
2026-01-03 02:56:08.15	305.28	6.45	-52.7	-55.2	3.6	0.00e+00	0	39	104	0	60	96810
2026-01-03 02:56:09.16	305.09	6.41	-52.8	-55.2	3.6	0.00e+00	0	39	104	0	60	97511
2026-01-03 02:56:10.17	304.89	6.37	-52.7	-55.1	3.6	0.00e+00	0	39	104	0	60	96389
2026-01-03 02:56:11.18	304.70	6.33	-52.9	-55.3	3.6	0.00e+00	0	39	104	0	60	98578
2026-01-03 02:56:12.19	304.51	6.29	-52.7	-55.2	3.6	0.00e+00	0	39	104	0	60	97048
2026-01-03 02:56:13.20	304.32	6.25	-52.8	-55.3	3.6	0.00e+00	0	39	104	0	60	97965
2026-01-03 02:56:14.22	304.13	6.21	-52.6	-55.1	3.6	0.00e+00	0	39	104	0	60	96190
2026-01-03 02:56:15.23	303.94	6.16	-52.7	-55.1	3.6	0.00e+00	0	39	104	0	60	95962
2026-01-03 02:56:16.24	303.75	6.12	-52.9	-55.3	3.6	0.00e+00	0	39	104	0	60	98777
2026-01-03 02:56:17.25	303.56	6.08	-52.7	-55.2	3.6	0.00e+00	0	39	104	0	60	96925
2026-01-03 02:56:18.26	303.37	6.04	-52.7	-55.2	3.6	0.00e+00	0	39	104	0	60	97680
2026-01-03 02:56:19.27	303.18	6.00	-52.8	-55.2	3.6	0.00e+00	0	39	104	0	60	97649
2026-01-03 02:56:20.28	303.00	5.95	-52.9	-55.3	3.6	0.00e+00	0	39	104	0	60	98272
2026-01-03 02:56:21.29	302.81	5.91	-52.7	-55.2	3.6	0.00e+00	0	39	104	0	60	97446
2026-01-03 02:56:22.30	302.62	5.87	-52.8	-55.3	3.6	0.00e+00	0	39	104	0	60	98502
2026-01-03 02:56:23.31	302.44	5.83	-52.8	-55.2	3.6	0.00e+00	0	39	104	0	60	96734
2026-01-03 02:56:24.32	302.26	5.78	-52.6	-55.0	3.6	0.00e+00	0	39	104	0	60	94922
2026-01-03 02:56:25.33	302.07	5.74	-52.5	-55.0	3.6	0.00e+00	0	39	104	0	60	94870
2026-01-03 02:56:26.34	301.89	5.70	-52.8	-55.2	3.6	0.00e+00	0	39	104	0	60	97525
2026-01-03 02:56:27.35	301.71	5.65	-52.9	-55.3	3.6	0.00e+00	0	39	104	0	60	98341
2026-01-03 02:56:28.36	301.53	5.61	-52.7	-55.2	3.6	0.00e+00	0	39	104	0	60	97135
2026-01-03 02:56:29.37	301.35	5.56	-52.8	-55.3	3.6	0.00e+00	0	39	104	0	60	98001
2026-01-03 02:56:30.38	301.17	5.52	-52.7	-55.1	3.6	0.00e+00	0	39	104	0	60	96449
2026-01-03 02:56:31.39	300.99	5.48	-52.7	-55.1	3.6	0.00e+00	0	39	104	0	60	96510
2026-01-03 02:56:32.40	300.81	5.43	-52.6	-55.0	3.6	0.00e+00	0	39	104	0	60	95233
2026-01-03 02:56:33.41	300.63	5.39	-52.8	-55.2	3.6	0.00e+00	0	39	104	0	60	97025
2026-01-03 02:56:34.42	300.45	5.34	-52.8	-55.2	3.6	0.00e+00	0	39	104	0	60	97259
2026-01-03 02:56:35.43	300.28	5.30	-52.8	-55.3	3.5	0.00e+00	0	39	104	0	60	98134
2026-01-03 02:56:36.44	300.10	5.25	-52.7	-55.1	3.6	0.00e+00	0	39	104	0	60	96235
2026-01-03 02:56:37.45	299.93	5.21	-52.8	-55.3	3.6	0.00e+00	0	39	104	0	60	98191
2026-01-03 02:56:38.47	299.75	5.16	-52.9	-55.3	3.6	0.00e+00	0	39	104	0	60	98130
2026-01-03 02:56:39.48	299.58	5.12	-52.8	-55.3	3.6	0.00e+00	0	39	104	0	60	98262
2026-01-03 02:56:40.49	299.40	5.07	-52.7	-55.2	3.6	0.00e+00	0	39	104	0	60	97019
2026-01-03 02:56:41.50	299.23	5.03	-52.8	-55.2	3.6	0.00e+00	0	39	104	0	60	97630
2026-01-03 02:56:42.51	299.06	4.98	-53.0	-55.5	3.6	0.00e+00	0	39	104	0	60	100153
2026-01-03 02:56:43.52	298.89	4.94	-52.9	-55.4	3.6	0.00e+00	0	39	104	0	60	99136
2026-01-03 02:56:44.53	298.72	4.89	-52.9	-55.4	3.5	0.00e+00	0	39	104	0	60	99257
2026-01-03 02:56:45.54	298.55	4.85	-52.8	-55.3	3.6	0.00e+00	0	39	104	0	60	98094
2026-01-03 02:56:46.55	298.38	4.80	-52.9	-55.4	3.6	0.00e+00	0	39	104	0	60	99450
2026-01-03 02:56:47.56	298.21	4.76	-52.7	-55.1	3.6	0.00e+00	0	39	104	0	60	95761
2026-01-03 02:56:48.57	298.04	4.71	-52.6	-55.0	3.6	0.00e+00	0	39	104	0	60	95048
2026-01-03 02:56:49.58	297.88	4.66	-52.8	-55.2	3.6	0.00e+00	0	39	104	0	60	97642
2026-01-03 02:56:50.59	297.71	4.62	-52.7	-55.2	3.6	0.00e+00	0	39	104	0	60	96855
2026-01-03 02:56:51.60	297.54	4.57	-52.7	-55.2	3.6	0.00e+00	0	39	104	0	60	97277
2026-01-03 02:56:52.61	297.38	4.53	-52.7	-55.2	3.6	0.00e+00	0	39	104	0	60	97439
2026-01-03 02:56:53.62	297.21	4.48	-52.8	-55.3	3.6	0.00e+00	0	39	104	0	60	98323
2026-01-03 02:56:54.63	297.05	4.43	-52.8	-55.3	3.6	0.00e+00	0	39	104	0	60	98096
2026-01-03 02:56:55.64	296.89	4.39	-52.8	-55.3	3.6	0.00e+00	0	39	104	0	60	98175
2026-01-03 02:56:56.65	296.73	4.34	-52.7	-55.1	3.6	0.00e+00	0	39	104	0	60	95888
2026-01-03 02:56:57.66	296.56	4.29	-52.6	-55.1	3.6	0.00e+00	0	39	104	0	60	96073
2026-01-03 02:56:58.67	296.40	4.25	-52.9	-55.4	3.6	0.00e+00	0	39	104	0	60	99006
2026-01-03 02:56:59.69	296.24	4.20	-53.1	-55.6	3.6	0.00e+00	0	39	104	0	60	101329
2026-01-03 02:57:00.70	296.08	4.15	-52.9	-55.3	3.5	0.00e+00	0	39	104	0	60	98434
2026-01-03 02:57:01.71	295.92	4.11	-52.7	-55.1	3.6	0.00e+00	0	39	104	0	60	96495
2026-01-03 02:57:02.72	295.76	4.06	-52.9	-55.4	3.6	0.00e+00	0	39	104	0	60	99241
2026-01-03 02:57:03.73	295.60	4.01	-52.9	-55.4	3.6	0.00e+00	0	39	104	0	60	99268
2026-01-03 02:57:04.74	295.45	3.97	-52.7	-55.1	3.6	0.00e+00	0	39	104	0	60	95842
2026-01-03 02:57:05.75	295.29	3.92	-52.6	-55.1	3.6	0.00e+00	0	39	104	0	60	95884
2026-01-03 02:57:06.76	295.13	3.87	-52.6	-55.0	3.6	0.00e+00	0	39	104	0	60	95050
2026-01-03 02:57:07.77	294.98	3.82	-52.8	-55.2	3.6	0.00e+00	0	39	104	0	60	97712
2026-01-03 02:57:08.78	294.82	3.78	-52.7	-55.1	3.6	0.00e+00	0	39	104	0	60	96723
2026-01-03 02:57:09.79	294.67	3.73	-52.7	-55.2	3.6	0.00e+00	0	39	104	0	60	96979
2026-01-03 02:57:10.80	294.52	3.68	-52.9	-55.3	3.6	0.00e+00	0	39	104	0	60	98569
2026-01-03 02:57:11.81	294.36	3.63	-52.7	-55.2	3.6	0.00e+00	0	39	104	0	60	97041
2026-01-03 02:57:12.82	294.21	3.59	-52.7	-55.1	3.6	0.00e+00	0	39	104	0	60	96601
2026-01-03 02:57:13.84	294.06	3.54	-52.7	-55.1	3.6	0.00e+00	0	39	104	0	60	95895
2026-01-03 02:57:14.85	293.91	3.49	-52.8	-55.2	3.6	0.00e+00	0	39	104	0	60	97435
2026-01-03 02:57:15.86	293.76	3.44	-52.7	-55.1	3.6	0.00e+00	0	39	104	0	60	96630
2026-01-03 02:57:16.87	293.61	3.40	-52.8	-55.3	3.6	0.00e+00	0	39	104	0	60	97854
2026-01-03 02:57:17.88	293.46	3.35	-52.7	-55.1	3.6	0.00e+00	0	39	104	0	60	96016
2026-01-03 02:57:18.89	293.31	3.30	-52.7	-55.1	3.6	0.00e+00	0	39	104	0	60	96280
2026-01-03 02:57:19.90	293.16	3.25	-52.7	-55.1	3.6	0.00e+00	0	39	104	0	60	96192
2026-01-03 02:57:20.91	293.01	3.20	-52.8	-55.2	3.6	0.00e+00	0	39	104	0	60	96984
2026-01-03 02:57:21.92	292.87	3.16	-52.6	-55.0	3.6	0.00e+00	0	39	104	0	60	95209
2026-01-03 02:57:22.93	292.72	3.11	-52.5	-54.9	3.6	0.00e+00	0	39	104	0	60	94138
2026-01-03 02:57:23.94	292.58	3.06	-52.9	-55.3	3.6	0.00e+00	0	39	104	0	60	98935
2026-01-03 02:57:24.95	292.43	3.01	-52.7	-55.2	3.6	0.00e+00	0	39	104	0	60	96972
2026-01-03 02:57:25.96	292.29	2.96	-52.9	-55.4	3.6	0.00e+00	0	39	104	0	60	99036
2026-01-03 02:57:26.97	292.14	2.92	-52.9	-55.3	3.6	0.00e+00	0	39	104	0	60	98889
2026-01-03 02:57:27.99	292.00	2.87	-52.8	-55.2	3.6	0.00e+00	0	39	104	0	60	97561
2026-01-03 02:57:29.00	291.86	2.82	-52.9	-55.3	3.6	0.00e+00	0	39	104	0	60	98715
2026-01-03 02:57:30.01	291.71	2.77	-52.9	-55.3	3.6	0.00e+00	0	39	104	0	60	98449
2026-01-03 02:57:31.02	291.57	2.72	-52.7	-55.1	3.6	0.00e+00	0	39	104	0	60	96447
2026-01-03 02:57:32.03	291.43	2.68	-52.7	-55.2	3.6	0.00e+00	0	39	104	0	60	96947
2026-01-03 02:57:33.04	291.29	2.63	-52.7	-55.1	3.6	0.00e+00	0	39	104	0	60	96028
2026-01-03 02:57:34.05	291.15	2.58	-52.7	-55.2	3.6	0.00e+00	0	39	104	0	60	96862
2026-01-03 02:57:35.06	291.01	2.53	-52.7	-55.2	3.6	0.00e+00	0	39	104	0	60	97291
2026-01-03 02:57:36.07	290.88	2.48	-52.9	-55.3	3.6	0.00e+00	0	39	104	0	60	97929
2026-01-03 02:57:37.08	290.74	2.43	-53.0	-55.4	3.6	0.00e+00	0	39	104	0	60	99991
2026-01-03 02:57:38.09	290.60	2.39	-52.8	-55.2	3.6	0.00e+00	0	39	104	0	60	97763
2026-01-03 02:57:39.10	290.46	2.34	-52.7	-55.2	3.6	0.00e+00	0	39	104	0	60	97174
2026-01-03 02:57:40.12	290.33	2.29	-52.8	-55.3	3.6	0.00e+00	0	39	104	0	60	98081
2026-01-03 02:57:41.13	290.19	2.24	-52.8	-55.2	3.6	0.00e+00	0	39	104	0	60	97426
2026-01-03 02:57:42.14	290.06	2.19	-52.8	-55.2	3.6	0.00e+00	0	39	104	0	60	97165
2026-01-03 02:57:43.15	289.92	2.14	-52.7	-55.2	3.6	0.00e+00	0	39	104	0	60	97602
2026-01-03 02:57:44.16	289.79	2.09	-52.8	-55.3	3.6	0.00e+00	0	39	104	0	60	97900
2026-01-03 02:57:45.17	289.65	2.05	-52.7	-55.2	3.6	0.00e+00	0	39	104	0	60	97036
2026-01-03 02:57:46.18	289.52	2.00	-52.8	-55.2	3.6	0.00e+00	0	39	104	0	60	96900
2026-01-03 02:57:47.19	289.39	1.95	-52.8	-55.2	3.5	0.00e+00	0	39	104	0	60	96759
2026-01-03 02:57:48.20	289.26	1.90	-52.8	-55.2	3.6	0.00e+00	0	39	104	0	60	96964
2026-01-03 02:57:49.21	289.13	1.85	-52.7	-55.2	3.6	0.00e+00	0	39	104	0	60	97309
2026-01-03 02:57:50.22	289.00	1.80	-52.7	-55.2	3.6	0.00e+00	0	39	104	0	60	97264
2026-01-03 02:57:51.24	288.87	1.76	-52.8	-55.3	3.6	0.00e+00	0	40	104	0	60	97861
2026-01-03 02:57:52.25	288.74	1.71	-52.8	-55.2	3.6	0.00e+00	0	39	104	0	60	96942
2026-01-03 02:57:53.26	288.61	1.66	-52.8	-55.3	3.6	0.00e+00	0	39	104	0	60	98066
2026-01-03 02:57:54.27	288.48	1.61	-52.9	-55.4	3.6	0.00e+00	0	39	104	0	60	99268
2026-01-03 02:57:55.28	288.35	1.56	-52.8	-55.3	3.6	0.00e+00	0	39	104	0	60	98184
2026-01-03 02:57:56.29	288.22	1.51	-52.8	-55.3	3.6	0.00e+00	0	39	104	0	60	97942
2026-01-03 02:57:57.30	288.10	1.46	-52.9	-55.4	3.6	0.00e+00	0	39	104	0	60	99144
2026-01-03 02:57:58.31	287.97	1.42	-52.9	-55.4	3.6	0.00e+00	0	39	104	0	60	99008
2026-01-03 02:57:59.33	287.84	1.37	-52.9	-55.4	3.6	0.00e+00	0	39	104	0	60	98999
2026-01-03 02:58:00.34	287.72	1.32	-52.7	-55.2	3.6	0.00e+00	0	39	104	0	60	97218
2026-01-03 02:58:01.35	287.59	1.27	-52.8	-55.2	3.6	0.00e+00	0	39	104	0	60	97092
2026-01-03 02:58:02.36	287.47	1.22	-52.8	-55.3	3.6	0.00e+00	0	39	104	0	60	97905
2026-01-03 02:58:03.37	287.35	1.17	-53.0	-55.4	3.6	0.00e+00	0	39	104	0	60	99868
2026-01-03 02:58:04.38	287.22	1.12	-52.8	-55.3	3.6	0.00e+00	0	39	104	0	60	97903
2026-01-03 02:58:05.39	287.10	1.08	-53.0	-55.4	3.6	0.00e+00	0	39	104	0	60	99619
2026-01-03 02:58:06.40	286.98	1.03	-53.0	-55.5	3.6	0.00e+00	0	39	104	0	60	100450
2026-01-03 02:58:07.41	286.86	0.98	-53.3	-55.7	3.6	0.00e+00	0	39	104	0	60	102647
2026-01-03 02:58:08.42	286.74	0.93	-53.0	-55.4	3.6	0.00e+00	0	39	104	0	60	99505
2026-01-03 02:58:09.43	286.62	0.88	-52.9	-55.4	3.6	0.00e+00	0	39	104	0	60	99021
2026-01-03 02:58:10.44	286.50	0.83	-53.0	-55.4	3.6	0.00e+00	0	39	104	0	60	99952
2026-01-03 02:58:11.46	286.38	0.78	-52.9	-55.4	3.6	0.00e+00	0	39	104	0	60	99266
2026-01-03 02:58:12.47	286.26	0.74	-52.8	-55.3	3.6	0.00e+00	0	39	104	0	60	97956
2026-01-03 02:58:13.48	286.14	0.69	-52.8	-55.2	3.6	0.00e+00	0	39	104	0	60	97302
2026-01-03 02:58:14.49	286.02	0.64	-52.7	-55.1	3.6	0.00e+00	0	39	104	0	60	96390
2026-01-03 02:58:15.50	285.90	0.59	-53.0	-55.4	3.6	0.00e+00	0	39	104	0	60	99804
2026-01-03 02:58:16.51	285.79	0.54	-52.9	-55.4	3.6	0.00e+00	0	39	104	0	60	99010
2026-01-03 02:58:17.52	285.67	0.49	-52.6	-55.0	3.6	0.00e+00	0	39	104	0	60	95248
2026-01-03 02:58:18.53	285.55	0.44	-52.8	-55.2	3.6	0.00e+00	0	39	104	0	60	97535
2026-01-03 02:58:19.54	285.44	0.40	-52.9	-55.4	3.6	0.00e+00	0	39	104	0	60	99185
2026-01-03 02:58:20.55	285.32	0.35	-53.0	-55.4	3.6	0.00e+00	0	39	104	0	60	99904
2026-01-03 02:58:21.56	285.21	0.30	-52.8	-55.3	3.6	0.00e+00	0	39	104	0	60	98073
2026-01-03 02:58:22.58	285.09	0.25	-52.7	-55.1	3.6	0.00e+00	0	39	104	0	60	95725
2026-01-03 02:58:23.59	284.98	0.20	-52.7	-55.1	3.6	0.00e+00	0	39	104	0	60	96195
2026-01-03 02:58:24.60	284.87	0.15	-52.7	-55.1	3.6	0.00e+00	0	39	104	0	60	96669
2026-01-03 02:58:25.61	284.75	0.10	-52.6	-55.0	3.6	0.00e+00	0	39	104	0	60	95445
2026-01-03 02:58:26.62	284.64	0.06	-52.6	-55.1	3.6	0.00e+00	0	39	104	0	60	95672
2026-01-03 02:58:27.63	284.53	0.01	-52.7	-55.1	3.6	0.00e+00	0	39	104	0	60	96519

#Closed at: 2026-01-03 02:58:28
#Recorded file [0 MB]: D:/lorett/data/35034_260103_054942.dat