passes_logs/2026/01/29/R2M6_AANII_01/R2M6_AANII_01__20260129_114651_SUOMI_NPP_rec.log

#Pass ID: 20260129_114651_SUOMI NPP
#Satellite: SUOMI NPP
#Configuration: NPP
#almurnet v.1.7.20240730
#Start time: 2026-01-29 11:46:52

#Version: 2.2.20231116
#Station: R2M6_AANII_01
#Location: 30.233357 lon 59.946436 lat
#TLE: 1 37849U 11061A   26027.93236865  .00000148  00000+0  91411-4 0  9991
#TLE: 2 37849  98.7823 329.8704 0002085  41.3231 318.8102 14.19530777738546

#Time	Az	El	Level	Level2	SNR	BER	BlckErr	Temp	State	Recorded	gain1	gain2
2026-01-29 11:46:52.05	204.96	7.05	-30.9	-34.0	5.4	1.19e+00	0	39	0	0	22	5160
2026-01-29 11:46:53.04	205.04	7.12	-31.6	-36.3	4.9	1.27e+00	0	39	104	0	23	6182
2026-01-29 11:46:54.05	205.13	7.19	-31.3	-35.1	8.7	6.09e-02	0	39	0	0	23	5534
2026-01-29 11:46:55.05	205.21	7.26	-31.5	-35.8	8.1	5.01e-02	0	39	0	1048576	23	5887
2026-01-29 11:46:56.06	205.30	7.32	-31.2	-34.6	9.0	3.13e-02	0	40	0	3145728	23	5308
2026-01-29 11:46:57.06	205.38	7.39	-30.9	-33.8	9.5	1.53e-02	0	39	0	5242880	23	4983
2026-01-29 11:46:58.07	205.46	7.46	-30.7	-33.6	9.9	1.22e-02	0	39	0	7340032	22	5018
2026-01-29 11:46:59.07	205.55	7.53	-30.4	-32.7	10.5	4.44e-03	0	39	0	9437184	22	4650
2026-01-29 11:47:00.07	205.64	7.60	-30.2	-32.4	11.0	2.84e-03	0	39	0	10485760	21	4655
2026-01-29 11:47:01.08	205.72	7.67	-30.1	-32.1	11.3	1.92e-03	0	39	0	12582912	21	4527
2026-01-29 11:47:02.08	205.81	7.73	-30.0	-31.6	11.7	8.88e-04	0	40	0	14680064	21	4357
2026-01-29 11:47:03.09	205.89	7.80	-30.1	-31.7	11.9	4.87e-04	0	40	0	16777216	21	4356
2026-01-29 11:47:04.09	205.98	7.87	-30.3	-32.2	11.7	4.99e-04	0	40	0	17825792	21	4502
2026-01-29 11:47:05.10	206.07	7.94	-30.1	-31.7	12.0	4.37e-04	0	40	0	19922944	21	4345
2026-01-29 11:47:06.10	206.16	8.01	-30.1	-31.7	12.1	3.03e-04	0	40	0	22020096	21	4316
2026-01-29 11:47:07.10	206.25	8.08	-30.2	-32.1	11.9	2.24e-04	0	40	0	24117248	21	4436
2026-01-29 11:47:08.09	206.33	8.15	-30.1	-31.7	12.2	2.03e-04	0	40	0	26214400	21	4297
2026-01-29 11:47:09.10	206.42	8.22	-30.1	-31.6	12.3	1.59e-04	0	40	0	27262976	21	4262
2026-01-29 11:47:10.10	206.51	8.29	-30.2	-31.8	12.1	2.72e-04	0	40	0	29360128	21	4337
2026-01-29 11:47:11.11	206.60	8.36	-30.0	-31.4	12.4	2.18e-04	0	40	0	31457280	21	4202
2026-01-29 11:47:12.11	206.69	8.43	-30.1	-31.6	12.2	1.70e-04	0	40	0	33554432	21	4287
2026-01-29 11:47:13.11	206.78	8.50	-30.1	-31.6	12.2	2.06e-04	0	40	0	35651584	21	4268
2026-01-29 11:47:14.12	206.87	8.57	-30.1	-31.5	12.3	1.79e-04	0	40	0	36700160	21	4247
2026-01-29 11:47:15.12	206.97	8.64	-30.1	-31.5	12.4	1.22e-04	0	40	0	38797312	21	4237
2026-01-29 11:47:16.12	207.06	8.71	-30.1	-31.6	12.3	1.15e-04	0	40	0	40894464	21	4260
2026-01-29 11:47:17.13	207.15	8.78	-30.0	-31.3	12.5	1.38e-04	0	40	0	42991616	21	4174
2026-01-29 11:47:18.13	207.24	8.85	-29.9	-31.1	12.6	9.99e-05	0	40	0	45088768	21	4123
2026-01-29 11:47:19.13	207.34	8.92	-29.9	-31.0	12.7	7.55e-05	0	40	0	46137344	21	4091
2026-01-29 11:47:20.14	207.43	8.99	-29.9	-31.0	12.7	7.93e-05	0	40	0	48234496	21	4095
2026-01-29 11:47:21.14	207.52	9.06	-29.9	-30.9	12.7	7.17e-05	0	40	0	50331648	21	4068
2026-01-29 11:47:22.15	207.62	9.13	-30.0	-31.2	12.5	1.36e-04	0	40	0	52428800	21	4140
2026-01-29 11:47:23.15	207.71	9.20	-29.9	-31.0	12.6	1.15e-04	0	40	0	54525952	21	4084
2026-01-29 11:47:24.15	207.81	9.28	-29.9	-31.2	12.6	9.23e-05	0	40	0	55574528	21	4144
2026-01-29 11:47:25.16	207.91	9.35	-30.0	-31.4	12.4	1.50e-04	0	40	0	57671680	21	4212
2026-01-29 11:47:26.16	208.00	9.42	-30.0	-31.3	12.5	9.76e-05	0	40	0	59768832	21	4176
2026-01-29 11:47:27.16	208.10	9.49	-30.1	-31.6	12.2	1.22e-04	0	40	0	61865984	21	4273
2026-01-29 11:47:28.17	208.20	9.56	-30.2	-31.8	12.1	2.26e-04	0	40	0	63963136	21	4370
2026-01-29 11:47:29.18	208.30	9.64	-30.1	-31.6	12.2	2.51e-04	0	40	0	65011712	21	4289
2026-01-29 11:47:30.17	208.39	9.71	-30.1	-31.6	12.3	2.09e-04	0	40	0	67108864	21	4288
2026-01-29 11:47:31.17	208.49	9.78	-30.1	-31.7	12.3	1.86e-04	0	40	0	69206016	21	4302
2026-01-29 11:47:32.17	208.59	9.85	-30.2	-31.8	12.2	2.04e-04	0	40	0	71303168	21	4335
2026-01-29 11:47:33.18	208.69	9.93	-30.1	-31.6	12.3	1.69e-04	0	40	0	73400320	21	4276
2026-01-29 11:47:34.18	208.79	10.00	-30.1	-31.5	12.5	1.54e-04	0	41	0	74448896	21	4229
2026-01-29 11:47:35.19	208.89	10.07	-30.1	-31.4	12.6	8.85e-05	0	40	0	76546048	21	4205
2026-01-29 11:47:36.19	208.99	10.14	-30.1	-31.4	12.6	1.07e-04	0	40	0	78643200	21	4211
2026-01-29 11:47:37.20	209.09	10.22	-29.9	-30.8	13.0	8.01e-05	0	40	0	80740352	21	4030
2026-01-29 11:47:38.21	209.20	10.29	-29.9	-31.1	12.8	5.87e-05	0	40	0	82837504	21	4099
2026-01-29 11:47:39.21	209.30	10.37	-29.9	-31.1	12.8	6.17e-05	0	41	0	83886080	21	4095
2026-01-29 11:47:40.22	209.40	10.44	-29.9	-30.8	13.0	4.34e-05	0	40	0	85983232	21	4028
2026-01-29 11:47:41.22	209.51	10.51	-29.9	-31.5	12.9	3.28e-05	0	40	0	88080384	20	4309
2026-01-29 11:47:42.22	209.61	10.59	-29.9	-31.4	12.9	3.12e-05	0	41	0	90177536	20	4287
2026-01-29 11:47:43.22	209.71	10.66	-29.8	-31.1	13.1	3.05e-05	0	41	0	91226112	20	4199
2026-01-29 11:47:44.23	209.82	10.74	-29.7	-30.9	13.2	2.44e-05	0	41	0	93323264	20	4134
2026-01-29 11:47:45.23	209.93	10.81	-29.8	-31.0	13.1	3.05e-05	0	41	0	95420416	20	4176
2026-01-29 11:47:46.23	210.03	10.88	-29.7	-30.8	13.2	2.74e-05	0	41	0	97517568	20	4113
2026-01-29 11:47:47.23	210.14	10.96	-29.7	-30.9	13.3	1.90e-05	0	41	0	99614720	20	4140
2026-01-29 11:47:48.24	210.25	11.03	-29.7	-30.9	13.3	1.98e-05	0	41	0	100663296	20	4130
2026-01-29 11:47:49.24	210.35	11.11	-29.7	-30.8	13.4	2.74e-05	0	41	0	102760448	20	4088
2026-01-29 11:47:50.25	210.46	11.19	-29.9	-31.3	13.1	1.44e-05	0	41	0	104857600	20	4250
2026-01-29 11:47:51.25	210.57	11.26	-30.0	-31.6	12.9	3.43e-05	0	41	0	106954752	20	4339
2026-01-29 11:47:52.25	210.68	11.34	-29.8	-31.3	13.1	2.82e-05	0	41	0	109051904	20	4235
2026-01-29 11:47:53.25	210.79	11.41	-29.9	-31.5	13.0	2.67e-05	0	41	0	110100480	20	4325
2026-01-29 11:47:54.26	210.90	11.49	-29.9	-31.4	13.0	3.28e-05	0	41	0	112197632	20	4278
2026-01-29 11:47:55.26	211.01	11.56	-29.9	-31.5	12.9	4.34e-05	0	41	0	114294784	20	4325
2026-01-29 11:47:56.26	211.12	11.64	-30.0	-31.6	12.9	2.82e-05	0	41	0	116391936	20	4359
2026-01-29 11:47:57.26	211.23	11.71	-29.9	-31.5	13.0	4.88e-05	0	41	0	118489088	20	4308
2026-01-29 11:47:58.27	211.35	11.79	-30.0	-31.7	12.8	7.01e-05	0	40	0	119537664	20	4369
2026-01-29 11:47:59.27	211.46	11.87	-30.0	-31.7	12.9	4.95e-05	0	41	0	121634816	20	4358
2026-01-29 11:48:00.27	211.57	11.94	-30.1	-32.0	12.6	6.56e-05	0	41	0	123731968	20	4475
2026-01-29 11:48:01.28	211.69	12.02	-30.1	-31.9	12.8	5.64e-05	0	41	0	125829120	20	4426
2026-01-29 11:48:02.28	211.80	12.10	-30.0	-31.7	12.9	5.41e-05	0	41	0	127926272	20	4371
2026-01-29 11:48:03.28	211.92	12.17	-30.0	-31.6	13.0	3.20e-05	0	41	0	128974848	20	4327
2026-01-29 11:48:04.29	212.04	12.25	-29.9	-31.3	13.1	2.89e-05	0	41	0	131072000	20	4246
2026-01-29 11:48:05.29	212.15	12.33	-29.9	-31.5	13.1	3.58e-05	0	41	0	133169152	20	4301
2026-01-29 11:48:06.30	212.27	12.41	-30.0	-31.6	13.0	3.58e-05	0	41	0	135266304	20	4321
2026-01-29 11:48:07.30	212.39	12.48	-29.8	-31.2	13.3	2.67e-05	0	41	0	137363456	20	4205
2026-01-29 11:48:08.31	212.51	12.56	-29.7	-30.8	13.5	1.60e-05	0	41	0	138412032	20	4069
2026-01-29 11:48:09.32	212.63	12.64	-29.8	-31.1	13.3	2.13e-05	0	41	0	140509184	20	4185
2026-01-29 11:48:10.32	212.75	12.72	-29.9	-31.3	13.2	2.13e-05	0	41	0	142606336	20	4230
2026-01-29 11:48:11.32	212.87	12.80	-29.7	-30.8	13.5	9.10e-06	0	41	0	144703488	20	4071
2026-01-29 11:48:12.33	212.99	12.87	-29.8	-31.0	13.4	1.83e-05	0	41	0	146800640	20	4131
2026-01-29 11:48:13.33	213.11	12.95	-29.9	-31.2	13.3	1.22e-05	0	41	0	147849216	20	4213
2026-01-29 11:48:14.33	213.23	13.03	-29.9	-31.2	13.3	1.60e-05	0	41	0	149946368	20	4211
2026-01-29 11:48:15.34	213.35	13.11	-30.0	-31.6	13.0	3.58e-05	0	41	0	152043520	20	4321
2026-01-29 11:48:16.34	213.48	13.19	-30.1	-31.8	12.9	4.73e-05	0	41	0	154140672	20	4385
2026-01-29 11:48:17.35	213.60	13.27	-29.9	-31.2	13.3	2.97e-05	0	41	0	155189248	20	4202
2026-01-29 11:48:18.35	213.73	13.35	-30.0	-31.6	13.0	3.81e-05	0	41	0	157286400	20	4336
2026-01-29 11:48:19.36	213.85	13.43	-30.1	-32.0	12.8	6.33e-05	0	41	0	159383552	20	4468
2026-01-29 11:48:20.37	213.98	13.51	-30.1	-31.8	12.9	4.73e-05	0	41	0	161480704	20	4385
2026-01-29 11:48:21.37	214.11	13.59	-30.1	-32.0	12.8	5.56e-05	0	41	0	163577856	20	4440
2026-01-29 11:48:22.37	214.23	13.67	-30.1	-31.9	12.9	6.56e-05	0	41	0	164626432	20	4419
2026-01-29 11:48:23.36	214.36	13.74	-30.1	-31.9	12.9	6.40e-05	0	41	0	166723584	20	4427
2026-01-29 11:48:24.37	214.49	13.82	-30.2	-32.1	12.7	6.71e-05	0	41	0	168820736	20	4484
2026-01-29 11:48:25.37	214.62	13.90	-30.2	-32.3	12.6	8.16e-05	0	41	0	170917888	20	4537
2026-01-29 11:48:26.37	214.75	13.98	-30.2	-32.1	12.8	6.48e-05	0	41	0	173015040	20	4477
2026-01-29 11:48:27.38	214.88	14.06	-30.2	-32.2	12.7	3.81e-05	0	41	0	174063616	20	4503
2026-01-29 11:48:28.38	215.01	14.15	-30.3	-32.4	12.6	9.38e-05	0	41	0	176160768	20	4582
2026-01-29 11:48:29.39	215.14	14.23	-30.3	-32.3	12.6	7.93e-05	0	41	0	178257920	20	4563
2026-01-29 11:48:30.39	215.27	14.31	-30.3	-32.5	12.5	9.68e-05	0	41	0	180355072	20	4613
2026-01-29 11:48:31.39	215.41	14.39	-30.2	-32.1	12.8	5.41e-05	0	41	0	182452224	20	4477
2026-01-29 11:48:32.39	215.54	14.47	-30.2	-32.2	12.7	5.72e-05	0	41	0	183500800	20	4516
2026-01-29 11:48:33.39	215.68	14.55	-30.4	-32.6	12.5	9.84e-05	0	41	0	185597952	20	4641
2026-01-29 11:48:34.40	215.81	14.63	-30.5	-32.5	12.2	1.50e-04	0	41	0	187695104	21	4526
2026-01-29 11:48:35.40	215.95	14.71	-30.6	-32.7	12.0	3.19e-04	0	41	0	189792256	21	4605
2026-01-29 11:48:36.40	216.09	14.79	-30.4	-32.2	12.4	1.52e-04	0	41	0	191889408	21	4422
2026-01-29 11:48:37.40	216.22	14.87	-30.3	-32.0	12.6	1.14e-04	0	41	0	192937984	21	4336
2026-01-29 11:48:38.40	216.36	14.95	-30.3	-31.9	12.6	9.76e-05	0	41	0	195035136	21	4329
2026-01-29 11:48:39.40	216.50	15.04	-30.4	-32.3	12.4	9.61e-05	0	41	0	197132288	21	4434
2026-01-29 11:48:40.40	216.64	15.12	-30.5	-32.3	12.3	1.58e-04	0	41	0	199229440	21	4451
2026-01-29 11:48:41.41	216.78	15.20	-30.5	-32.4	12.2	2.11e-04	0	41	0	201326592	21	4477
2026-01-29 11:48:42.42	216.92	15.28	-30.4	-32.1	12.5	1.75e-04	0	41	0	202375168	21	4394
2026-01-29 11:48:43.43	217.07	15.37	-30.4	-32.1	12.5	7.70e-05	0	41	0	204472320	21	4377
2026-01-29 11:48:44.43	217.21	15.45	-30.4	-32.1	12.6	1.08e-04	0	41	0	206569472	21	4365
2026-01-29 11:48:45.44	217.35	15.53	-30.1	-31.3	13.0	5.72e-05	0	41	0	208666624	21	4135
2026-01-29 11:48:46.44	217.50	15.61	-30.1	-31.2	13.2	2.13e-05	0	41	0	209715200	21	4093
2026-01-29 11:48:47.45	217.64	15.70	-30.0	-31.1	13.3	2.51e-05	0	41	0	211812352	21	4064
2026-01-29 11:48:48.45	217.79	15.78	-30.1	-31.2	13.2	1.67e-05	0	41	0	213909504	21	4095
2026-01-29 11:48:49.45	217.94	15.86	-30.1	-31.2	13.1	3.81e-05	0	41	0	216006656	21	4092
2026-01-29 11:48:50.46	218.08	15.95	-29.9	-30.6	13.6	1.06e-05	0	41	0	218103808	21	3923
2026-01-29 11:48:51.46	218.23	16.03	-29.8	-30.4	13.6	8.30e-06	0	41	0	220200960	21	3873
2026-01-29 11:48:52.46	218.38	16.11	-29.7	-30.7	13.8	3.80e-06	0	41	0	221249536	20	4042
2026-01-29 11:48:53.46	218.53	16.19	-29.8	-30.9	13.7	9.90e-06	0	41	0	223346688	20	4088
2026-01-29 11:48:54.46	218.68	16.28	-29.7	-30.7	13.9	1.50e-06	0	41	0	225443840	20	4023
2026-01-29 11:48:55.47	218.83	16.36	-29.8	-31.0	13.7	4.50e-06	0	41	0	227540992	20	4103
2026-01-29 11:48:56.46	218.98	16.44	-29.9	-31.1	13.6	1.37e-05	0	41	0	228589568	20	4164
2026-01-29 11:48:57.47	219.14	16.53	-29.8	-31.0	13.6	4.50e-06	0	41	0	230686720	20	4121
2026-01-29 11:48:58.47	219.29	16.61	-29.8	-30.9	13.7	4.50e-06	0	41	0	232783872	20	4080
2026-01-29 11:48:59.48	219.45	16.70	-29.8	-31.0	13.6	7.60e-06	0	41	0	234881024	20	4139
2026-01-29 11:49:00.49	219.61	16.78	-29.9	-31.3	13.5	9.10e-06	0	41	0	236978176	20	4203
2026-01-29 11:49:01.49	219.76	16.86	-30.0	-31.3	13.5	7.60e-06	0	41	0	238026752	20	4221
2026-01-29 11:49:02.49	219.92	16.95	-30.0	-31.6	13.3	1.06e-05	0	41	0	240123904	20	4303
2026-01-29 11:49:03.50	220.08	17.03	-30.0	-31.4	13.4	9.10e-06	0	41	0	242221056	20	4243
2026-01-29 11:49:04.50	220.24	17.12	-29.9	-31.1	13.7	1.14e-05	0	41	0	244318208	20	4133
2026-01-29 11:49:05.50	220.40	17.20	-29.7	-30.7	13.9	6.80e-06	0	41	0	246415360	20	4036
2026-01-29 11:49:06.50	220.56	17.28	-29.8	-30.9	13.8	9.90e-06	0	41	0	247463936	20	4081
2026-01-29 11:49:07.50	220.72	17.37	-29.7	-30.7	13.9	2.20e-06	0	41	0	249561088	20	4022
2026-01-29 11:49:08.50	220.88	17.45	-29.8	-30.9	13.8	5.30e-06	0	41	0	251658240	20	4094
2026-01-29 11:49:09.51	221.05	17.54	-29.9	-31.1	13.7	8.30e-06	0	41	0	253755392	20	4134
2026-01-29 11:49:10.52	221.21	17.62	-29.8	-30.8	13.8	5.30e-06	0	41	0	255852544	20	4051
2026-01-29 11:49:11.51	221.37	17.71	-29.8	-31.0	13.8	5.30e-06	0	41	0	256901120	20	4101
2026-01-29 11:49:12.51	221.54	17.79	-29.8	-30.8	13.8	4.50e-06	0	41	0	258998272	20	4062
2026-01-29 11:49:13.51	221.71	17.88	-29.7	-30.5	14.0	3.80e-06	0	41	0	261095424	20	3967
2026-01-29 11:49:14.52	221.88	17.96	-29.9	-31.1	13.7	3.80e-06	0	41	0	263192576	20	4128
2026-01-29 11:49:15.52	222.04	18.05	-29.8	-30.8	13.8	3.00e-06	0	41	0	265289728	20	4038
2026-01-29 11:49:16.53	222.22	18.13	-29.6	-30.2	14.2	1.50e-06	0	41	0	266338304	20	3896
2026-01-29 11:49:17.53	222.39	18.22	-29.4	-29.8	14.5	0.00e+00	0	41	0	268435456	20	3785
2026-01-29 11:49:18.53	222.56	18.30	-29.3	-29.5	14.6	0.00e+00	0	41	0	270532608	20	3708
2026-01-29 11:49:19.54	222.73	18.39	-29.2	-29.9	14.8	0.00e+00	0	41	0	272629760	19	3868
2026-01-29 11:49:20.54	222.90	18.47	-29.2	-29.9	14.9	0.00e+00	0	41	0	273678336	19	3871
2026-01-29 11:49:21.55	223.08	18.56	-29.3	-30.0	14.8	0.00e+00	0	41	0	275775488	19	3901
2026-01-29 11:49:22.56	223.26	18.65	-29.0	-29.4	15.1	0.00e+00	0	41	0	277872640	19	3747
2026-01-29 11:49:23.57	223.43	18.73	-29.0	-29.4	15.2	0.00e+00	0	41	0	279969792	19	3746
2026-01-29 11:49:24.57	223.61	18.82	-29.0	-29.2	15.3	0.00e+00	0	41	0	282066944	19	3702
2026-01-29 11:49:25.57	223.79	18.90	-29.0	-29.2	15.2	0.00e+00	0	41	0	283115520	19	3699
2026-01-29 11:49:26.58	223.97	18.99	-29.0	-29.2	15.3	3.00e-06	0	41	0	285212672	19	3695
2026-01-29 11:49:27.57	224.15	19.07	-28.9	-29.1	15.3	0.00e+00	0	41	0	287309824	19	3662
2026-01-29 11:49:28.58	224.33	19.16	-29.2	-29.7	15.0	0.00e+00	0	41	0	289406976	19	3841
2026-01-29 11:49:29.58	224.51	19.24	-29.2	-29.8	14.9	3.00e-06	0	41	0	291504128	19	3845
2026-01-29 11:49:30.59	224.70	19.33	-29.1	-29.5	15.1	0.00e+00	0	41	0	292552704	19	3780
2026-01-29 11:49:31.60	224.88	19.42	-29.1	-29.4	15.2	0.00e+00	0	41	0	294649856	19	3758
2026-01-29 11:49:32.60	225.07	19.50	-29.2	-29.7	15.0	7.00e-07	0	41	0	296747008	19	3831
2026-01-29 11:49:33.61	225.26	19.59	-29.1	-29.5	15.1	0.00e+00	0	41	0	298844160	19	3784
2026-01-29 11:49:34.61	225.44	19.67	-29.2	-29.7	15.1	0.00e+00	0	41	0	300941312	19	3831
2026-01-29 11:49:35.62	225.63	19.76	-29.1	-29.6	15.1	0.00e+00	0	41	0	301989888	19	3805
2026-01-29 11:49:36.62	225.82	19.84	-29.3	-29.9	14.8	0.00e+00	0	41	0	304087040	19	3890
2026-01-29 11:49:37.63	226.01	19.93	-29.3	-29.9	14.9	0.00e+00	0	41	0	306184192	19	3879
2026-01-29 11:49:38.63	226.20	20.02	-29.3	-29.9	14.9	0.00e+00	0	41	0	308281344	19	3879
2026-01-29 11:49:39.62	226.40	20.10	-29.4	-30.3	14.7	7.00e-07	0	41	0	310378496	19	3995
2026-01-29 11:49:40.63	226.59	20.19	-29.4	-30.2	14.7	0.00e+00	0	41	0	311427072	19	3967
2026-01-29 11:49:41.63	226.78	20.27	-29.4	-30.4	14.6	0.00e+00	0	41	0	313524224	19	4017
2026-01-29 11:49:42.63	226.98	20.36	-29.3	-30.1	14.8	7.00e-07	0	41	0	315621376	19	3941
2026-01-29 11:49:43.63	227.18	20.44	-29.4	-30.4	14.7	0.00e+00	0	41	0	317718528	19	4002
2026-01-29 11:49:44.63	227.37	20.53	-29.2	-29.8	14.9	7.00e-07	0	41	0	319815680	19	3862
2026-01-29 11:49:45.64	227.57	20.61	-29.4	-30.2	14.8	7.00e-07	0	41	0	320864256	19	3951
2026-01-29 11:49:46.65	227.78	20.70	-29.5	-30.5	14.5	7.00e-07	0	41	0	322961408	19	4039
2026-01-29 11:49:47.65	227.98	20.78	-29.4	-30.2	14.7	7.00e-07	0	41	0	325058560	19	3968
2026-01-29 11:49:48.66	228.18	20.87	-29.3	-30.0	14.8	0.00e+00	0	41	0	327155712	19	3918
2026-01-29 11:49:49.67	228.38	20.95	-29.2	-29.7	15.1	0.00e+00	0	41	0	329252864	19	3816
2026-01-29 11:49:50.67	228.59	21.04	-29.0	-29.2	15.4	0.00e+00	0	41	0	330301440	19	3692
2026-01-29 11:49:51.67	228.79	21.12	-28.9	-28.9	15.5	0.00e+00	0	41	0	332398592	19	3624
2026-01-29 11:49:52.67	229.00	21.21	-29.0	-29.1	15.4	0.00e+00	0	41	0	334495744	19	3679
2026-01-29 11:49:53.68	229.21	21.29	-28.9	-29.0	15.4	0.00e+00	0	41	0	336592896	19	3652
2026-01-29 11:49:54.68	229.42	21.38	-29.0	-29.1	15.3	0.00e+00	0	41	0	338690048	19	3680
2026-01-29 11:49:55.69	229.63	21.46	-29.1	-29.5	15.2	7.00e-07	0	41	0	339738624	19	3776
2026-01-29 11:49:56.68	229.84	21.55	-29.0	-29.2	15.3	0.00e+00	0	41	0	341835776	19	3705
2026-01-29 11:49:57.68	230.05	21.63	-28.7	-29.2	15.7	0.00e+00	0	41	0	343932928	18	3774
2026-01-29 11:49:58.69	230.26	21.71	-28.7	-29.1	15.7	1.50e-06	0	41	0	346030080	18	3766
2026-01-29 11:49:59.69	230.48	21.80	-28.6	-28.7	15.9	0.00e+00	0	41	0	347078656	18	3656
2026-01-29 11:50:00.69	230.69	21.88	-28.9	-29.4	15.5	0.00e+00	0	41	0	349175808	18	3843
2026-01-29 11:50:01.69	230.91	21.97	-28.8	-29.3	15.5	7.00e-07	0	41	0	351272960	18	3816
2026-01-29 11:50:02.69	231.12	22.05	-28.8	-29.1	15.7	0.00e+00	0	41	0	353370112	18	3768
2026-01-29 11:50:03.69	231.34	22.13	-28.8	-29.3	15.7	0.00e+00	0	41	0	355467264	18	3793
2026-01-29 11:50:04.69	231.56	22.22	-29.0	-29.7	15.4	0.00e+00	0	41	0	356515840	18	3907
2026-01-29 11:50:05.70	231.79	22.30	-29.0	-29.8	15.3	0.00e+00	0	41	0	358612992	18	3948
2026-01-29 11:50:06.71	232.01	22.38	-29.2	-30.1	15.2	0.00e+00	0	41	0	360710144	18	4022
2026-01-29 11:50:07.71	232.23	22.46	-29.1	-30.0	15.2	7.00e-07	0	41	0	362807296	18	3999
2026-01-29 11:50:08.71	232.46	22.55	-29.1	-30.0	15.3	0.00e+00	0	41	0	364904448	18	3981
2026-01-29 11:50:09.72	232.68	22.63	-29.1	-29.9	15.3	7.00e-07	0	41	0	365953024	18	3968
2026-01-29 11:50:10.72	232.91	22.71	-29.2	-30.2	15.1	0.00e+00	0	41	0	368050176	18	4039
2026-01-29 11:50:11.72	233.14	22.79	-29.2	-30.3	15.1	0.00e+00	0	41	0	370147328	18	4058
2026-01-29 11:50:12.73	233.37	22.88	-29.3	-30.5	14.9	7.00e-07	0	41	0	372244480	18	4119
2026-01-29 11:50:13.72	233.60	22.96	-29.3	-30.5	15.0	7.00e-07	0	41	0	374341632	18	4128
2026-01-29 11:50:14.72	233.83	23.04	-29.4	-30.7	14.9	0.00e+00	0	41	0	375390208	18	4183
2026-01-29 11:50:15.72	234.06	23.12	-29.5	-30.4	14.8	0.00e+00	0	41	0	377487360	19	3996
2026-01-29 11:50:16.72	234.29	23.20	-29.4	-30.3	14.9	0.00e+00	0	41	0	379584512	19	3953
2026-01-29 11:50:17.72	234.53	23.28	-29.4	-30.2	14.8	7.00e-07	0	41	0	381681664	19	3935
2026-01-29 11:50:18.72	234.76	23.36	-29.4	-30.3	14.8	0.00e+00	0	41	0	383778816	19	3962
2026-01-29 11:50:19.72	235.00	23.44	-29.4	-30.2	14.9	1.50e-06	0	41	0	384827392	19	3946
2026-01-29 11:50:20.72	235.24	23.52	-29.6	-30.7	14.6	7.00e-07	0	41	0	386924544	19	4082
2026-01-29 11:50:21.73	235.48	23.60	-29.5	-30.5	14.7	0.00e+00	0	41	0	389021696	19	4018
2026-01-29 11:50:22.73	235.72	23.68	-29.6	-30.6	14.6	0.00e+00	0	41	0	391118848	19	4050
2026-01-29 11:50:23.74	235.97	23.76	-29.6	-30.8	14.5	0.00e+00	0	41	0	392167424	19	4096
2026-01-29 11:50:24.74	236.21	23.84	-29.6	-30.6	14.6	0.00e+00	0	41	0	394264576	19	4047
2026-01-29 11:50:25.75	236.46	23.92	-29.7	-31.0	14.4	0.00e+00	0	41	0	396361728	19	4153
2026-01-29 11:50:26.76	236.70	24.00	-29.8	-31.2	14.3	1.50e-06	0	41	0	398458880	19	4226
2026-01-29 11:50:27.76	236.95	24.08	-29.9	-31.5	14.1	7.00e-07	0	42	0	400556032	19	4315
2026-01-29 11:50:28.77	237.20	24.15	-29.7	-31.0	14.3	0.00e+00	0	41	0	402653184	19	4171
2026-01-29 11:50:29.77	237.45	24.23	-29.6	-30.7	14.6	2.20e-06	0	41	0	403701760	19	4065
2026-01-29 11:50:30.77	237.70	24.31	-29.6	-30.7	14.6	0.00e+00	0	41	0	405798912	19	4064
2026-01-29 11:50:31.78	237.95	24.38	-29.6	-30.8	14.6	0.00e+00	0	41	0	407896064	19	4093
2026-01-29 11:50:32.78	238.21	24.46	-29.5	-30.4	14.8	0.00e+00	0	41	0	409993216	19	3994
2026-01-29 11:50:33.78	238.46	24.54	-29.6	-30.6	14.7	7.00e-07	0	41	0	411041792	19	4061
2026-01-29 11:50:34.79	238.72	24.61	-29.6	-30.5	14.7	0.00e+00	0	41	0	413138944	19	4027
2026-01-29 11:50:35.79	238.97	24.69	-29.7	-30.8	14.5	0.00e+00	0	41	0	415236096	19	4109
2026-01-29 11:50:36.80	239.23	24.76	-29.7	-31.0	14.4	2.20e-06	0	41	0	417333248	19	4163
2026-01-29 11:50:37.80	239.49	24.84	-29.8	-31.1	14.3	0.00e+00	0	41	0	419430400	19	4200
2026-01-29 11:50:38.81	239.75	24.91	-29.7	-30.8	14.6	1.50e-06	0	41	0	420478976	19	4105
2026-01-29 11:50:39.82	240.02	24.99	-29.7	-30.9	14.4	0.00e+00	0	41	0	422576128	19	4145
2026-01-29 11:50:40.82	240.28	25.06	-29.6	-30.7	14.6	0.00e+00	0	41	0	424673280	19	4071
2026-01-29 11:50:41.82	240.54	25.13	-29.4	-30.1	15.0	0.00e+00	0	41	0	426770432	19	3919
2026-01-29 11:50:42.82	240.81	25.20	-29.5	-30.3	14.8	0.00e+00	0	41	0	428867584	19	3974
2026-01-29 11:50:43.82	241.07	25.28	-29.5	-30.3	14.9	7.00e-07	0	41	0	429916160	19	3971
2026-01-29 11:50:44.82	241.34	25.35	-29.6	-30.8	14.5	0.00e+00	0	41	0	432013312	19	4089
2026-01-29 11:50:45.83	241.61	25.42	-29.5	-30.5	14.8	0.00e+00	0	41	0	434110464	19	4009
2026-01-29 11:50:46.83	241.88	25.49	-29.4	-30.1	15.0	7.00e-07	0	41	0	436207616	19	3902
2026-01-29 11:50:47.83	242.15	25.56	-29.5	-30.5	14.8	0.00e+00	0	41	0	438304768	19	3999
2026-01-29 11:50:48.84	242.42	25.63	-29.6	-30.7	14.7	3.80e-06	0	41	0	439353344	19	4063
2026-01-29 11:50:49.84	242.70	25.70	-29.7	-30.9	14.5	2.20e-06	0	41	0	441450496	19	4129
2026-01-29 11:50:50.84	242.97	25.77	-29.9	-31.4	14.2	0.00e+00	0	41	0	443547648	19	4270
2026-01-29 11:50:51.84	243.25	25.83	-29.9	-30.8	14.2	3.00e-06	0	41	0	445644800	20	4030
2026-01-29 11:50:52.85	243.53	25.90	-29.9	-31.0	14.1	0.00e+00	0	41	0	447741952	20	4062
2026-01-29 11:50:53.85	243.80	25.97	-29.6	-30.2	14.6	1.50e-06	0	41	0	448790528	20	3855
2026-01-29 11:50:54.85	244.08	26.04	-29.4	-29.7	14.9	7.00e-07	0	41	0	450887680	20	3726
2026-01-29 11:50:55.86	244.36	26.10	-29.5	-29.9	14.8	0.00e+00	0	41	0	452984832	20	3765
2026-01-29 11:50:56.86	244.64	26.17	-29.9	-30.8	14.3	0.00e+00	0	41	0	455081984	20	4012
2026-01-29 11:50:57.86	244.93	26.23	-30.3	-31.9	13.5	3.00e-06	0	41	0	457179136	20	4338
2026-01-29 11:50:58.86	245.21	26.30	-30.5	-32.4	13.2	1.67e-05	0	41	0	458227712	20	4520
2026-01-29 11:50:59.87	245.50	26.36	-30.4	-31.6	13.4	1.83e-05	0	41	0	460324864	21	4173
2026-01-29 11:51:00.88	245.78	26.42	-30.2	-31.3	13.7	1.44e-05	0	41	0	462422016	21	4069
2026-01-29 11:51:01.88	246.07	26.49	-30.3	-31.4	13.6	1.14e-05	0	41	0	464519168	21	4080
2026-01-29 11:51:02.89	246.36	26.55	-29.7	-30.4	14.5	1.50e-06	0	41	0	465567744	20	3902
2026-01-29 11:51:03.89	246.65	26.61	-29.8	-30.7	14.3	6.10e-06	0	41	0	467664896	20	3985
2026-01-29 11:51:04.89	246.94	26.67	-29.9	-30.9	14.1	2.20e-06	0	41	0	469762048	20	4056
2026-01-29 11:51:05.89	247.23	26.73	-30.3	-31.9	13.6	9.90e-06	0	41	0	471859200	20	4333
2026-01-29 11:51:06.89	247.52	26.79	-30.4	-32.1	13.4	1.44e-05	0	41	0	473956352	20	4418
2026-01-29 11:51:07.90	247.82	26.85	-30.5	-32.0	13.1	1.83e-05	0	41	0	476053504	21	4291
2026-01-29 11:51:08.90	248.11	26.90	-30.7	-32.5	12.8	4.95e-05	0	41	0	477102080	21	4455
2026-01-29 11:51:09.91	248.41	26.96	-30.6	-32.4	12.9	7.70e-05	0	41	0	479199232	21	4407
2026-01-29 11:51:10.90	248.70	27.02	-30.6	-32.2	13.0	5.41e-05	0	41	0	481296384	21	4355
2026-01-29 11:51:11.91	249.00	27.07	-30.8	-32.8	12.6	8.39e-05	0	41	0	483393536	21	4536
2026-01-29 11:51:12.91	249.30	27.13	-30.6	-32.2	13.0	1.52e-05	0	41	0	484442112	21	4350
2026-01-29 11:51:13.91	249.60	27.18	-30.1	-31.0	13.8	1.14e-05	0	41	0	486539264	21	3994
2026-01-29 11:51:14.91	249.90	27.24	-29.9	-30.4	14.2	3.00e-06	0	41	0	488636416	21	3809
2026-01-29 11:51:15.91	250.20	27.29	-29.8	-30.2	14.4	7.00e-07	0	41	0	490733568	21	3756
2026-01-29 11:51:16.91	250.50	27.34	-29.8	-30.7	14.3	7.00e-07	0	41	0	492830720	20	3986
2026-01-29 11:51:17.92	250.81	27.39	-29.9	-31.0	14.2	7.00e-07	0	41	0	493879296	20	4057
2026-01-29 11:51:18.91	251.11	27.44	-30.3	-32.0	13.5	5.30e-06	0	41	0	495976448	20	4364
2026-01-29 11:51:19.92	251.41	27.49	-30.3	-32.0	13.4	2.21e-05	0	41	0	498073600	20	4385
2026-01-29 11:51:20.92	251.72	27.54	-30.7	-32.5	12.8	3.12e-05	0	41	0	500170752	21	4428
2026-01-29 11:51:21.92	252.03	27.59	-30.4	-31.8	13.3	4.04e-05	0	41	0	502267904	21	4236
2026-01-29 11:51:22.92	252.33	27.64	-30.3	-31.4	13.5	1.37e-05	0	41	0	503316480	21	4107
2026-01-29 11:51:23.92	252.64	27.69	-30.1	-30.9	14.0	3.80e-06	0	41	0	505413632	21	3960
2026-01-29 11:51:24.92	252.95	27.73	-29.8	-30.1	14.4	6.10e-06	0	41	0	507510784	21	3732
2026-01-29 11:51:25.93	253.26	27.78	-30.0	-31.2	14.0	7.00e-07	0	41	0	509607936	20	4133
2026-01-29 11:51:26.92	253.57	27.82	-30.3	-31.8	13.6	7.60e-06	0	41	0	510656512	20	4306
2026-01-29 11:51:27.93	253.89	27.87	-30.7	-32.6	12.8	1.67e-05	0	41	0	512753664	21	4474
2026-01-29 11:51:28.94	254.20	27.91	-31.2	-33.4	12.0	1.86e-04	0	41	0	514850816	22	4654
2026-01-29 11:51:29.94	254.52	27.95	-31.2	-33.5	11.9	4.24e-04	0	41	0	516947968	22	4671
2026-01-29 11:51:30.94	254.83	27.99	-31.2	-33.4	11.9	5.46e-04	0	41	0	519045120	22	4643
2026-01-29 11:51:31.95	255.15	28.03	-31.1	-33.2	12.1	3.11e-04	0	41	0	521142272	22	4582
2026-01-29 11:51:32.95	255.46	28.07	-31.3	-33.8	11.8	3.67e-04	0	41	0	522190848	22	4785
2026-01-29 11:51:33.96	255.78	28.11	-31.3	-33.8	11.6	6.03e-04	0	41	0	524288000	22	4811
2026-01-29 11:51:34.96	256.10	28.15	-31.7	-34.4	10.9	1.18e-03	0	41	0	526385152	23	4927
2026-01-29 11:51:35.96	256.42	28.18	-31.9	-35.1	10.4	3.75e-03	0	41	0	528482304	23	5202
2026-01-29 11:51:36.96	256.74	28.22	-31.9	-35.1	10.4	5.13e-03	0	41	0	529530880	23	5230
2026-01-29 11:51:37.96	257.06	28.25	-31.5	-33.9	11.3	2.43e-03	0	41	0	531628032	23	4758
2026-01-29 11:51:38.97	257.38	28.29	-31.5	-33.9	11.2	1.32e-03	0	41	0	533725184	23	4735
2026-01-29 11:51:39.96	257.70	28.32	-31.7	-34.5	10.8	1.88e-03	0	41	0	535822336	23	4962
2026-01-29 11:51:40.97	258.02	28.35	-31.8	-35.0	10.5	2.91e-03	0	41	0	537919488	23	5172
2026-01-29 11:51:41.98	258.35	28.38	-31.7	-34.1	10.6	6.38e-03	0	41	0	538968064	24	4752
2026-01-29 11:51:42.98	258.67	28.41	-31.7	-34.1	10.8	2.95e-03	0	41	0	541065216	24	4720
2026-01-29 11:51:43.98	258.99	28.44	-31.6	-33.7	11.0	1.59e-03	0	41	0	543162368	24	4581
2026-01-29 11:51:44.99	259.32	28.47	-31.5	-33.3	11.4	1.03e-03	0	41	0	545259520	24	4447
2026-01-29 11:51:46.00	259.64	28.50	-31.8	-34.5	10.5	2.86e-03	0	41	0	547356672	24	4886
2026-01-29 11:51:47.00	259.97	28.53	-31.7	-34.2	10.7	2.56e-03	0	41	0	548405248	24	4771
2026-01-29 11:51:48.00	260.29	28.55	-31.8	-34.2	10.6	3.79e-03	0	41	0	550502400	24	4783
2026-01-29 11:51:49.00	260.62	28.58	-32.1	-35.3	9.9	4.51e-03	0	41	0	552599552	24	5234
2026-01-29 11:51:50.01	260.95	28.60	-32.0	-35.1	9.9	9.22e-03	0	41	0	554696704	24	5129
2026-01-29 11:51:51.01	261.28	28.62	-31.7	-34.1	10.6	4.79e-03	0	41	0	556793856	24	4754
2026-01-29 11:51:52.01	261.60	28.64	-31.7	-34.0	10.8	2.33e-03	0	41	0	557842432	24	4688
2026-01-29 11:51:53.01	261.93	28.66	-31.7	-34.2	10.6	2.39e-03	0	41	0	559939584	24	4765
2026-01-29 11:51:54.02	262.26	28.68	-31.8	-34.2	10.6	3.09e-03	0	41	0	562036736	24	4776
2026-01-29 11:51:55.02	262.59	28.70	-31.8	-34.5	10.5	3.03e-03	0	41	0	564133888	24	4870
2026-01-29 11:51:56.02	262.92	28.72	-31.4	-33.0	11.5	2.19e-03	0	41	0	566231040	24	4332
2026-01-29 11:51:57.01	263.24	28.74	-30.9	-32.2	12.5	2.06e-04	0	41	0	567279616	23	4149
2026-01-29 11:51:58.01	263.57	28.75	-30.6	-31.6	13.2	2.82e-05	0	41	0	569376768	22	4057
2026-01-29 11:51:59.01	263.90	28.77	-30.5	-31.4	13.3	2.59e-05	0	41	0	571473920	22	3987
2026-01-29 11:52:00.02	264.23	28.78	-30.7	-32.0	12.9	4.04e-05	0	41	0	573571072	22	4178
2026-01-29 11:52:01.02	264.56	28.79	-30.8	-32.1	12.8	3.89e-05	0	41	0	574619648	22	4224
2026-01-29 11:52:02.02	264.89	28.80	-30.6	-31.8	13.0	4.04e-05	0	41	0	576716800	22	4131
2026-01-29 11:52:03.03	265.23	28.81	-30.6	-31.8	13.0	2.74e-05	0	41	0	578813952	22	4138
2026-01-29 11:52:04.04	265.56	28.82	-30.8	-32.3	12.8	3.81e-05	0	41	0	580911104	22	4271
2026-01-29 11:52:05.04	265.89	28.83	-30.9	-32.5	12.6	7.32e-05	0	41	0	583008256	22	4329
2026-01-29 11:52:06.04	266.22	28.84	-30.9	-32.5	12.6	9.46e-05	0	41	0	584056832	22	4354
2026-01-29 11:52:07.04	266.56	28.85	-31.1	-33.1	12.2	1.49e-04	0	41	0	586153984	22	4558
2026-01-29 11:52:08.05	266.89	28.85	-31.0	-32.8	12.4	1.76e-04	0	41	0	588251136	22	4427
2026-01-29 11:52:09.05	267.22	28.86	-30.9	-32.6	12.5	1.17e-04	0	41	0	590348288	22	4377
2026-01-29 11:52:10.06	267.56	28.86	-30.9	-32.4	12.7	7.17e-05	0	41	0	592445440	22	4318
2026-01-29 11:52:11.07	267.89	28.86	-30.9	-32.6	12.5	9.46e-05	0	41	0	593494016	22	4369
2026-01-29 11:52:12.08	268.23	28.86	-31.0	-32.8	12.3	1.46e-04	0	41	0	595591168	22	4423
2026-01-29 11:52:13.07	268.55	28.86	-30.8	-32.2	12.8	1.35e-04	0	41	0	597688320	22	4256
2026-01-29 11:52:14.07	268.88	28.86	-30.8	-32.4	12.6	7.17e-05	0	41	0	599785472	22	4310
2026-01-29 11:52:15.07	269.22	28.86	-31.1	-33.1	12.1	1.31e-04	0	41	0	601882624	22	4548
2026-01-29 11:52:16.07	269.55	28.86	-30.9	-32.6	12.5	1.47e-04	0	41	0	602931200	22	4372
2026-01-29 11:52:17.07	269.88	28.86	-30.6	-31.8	13.1	7.01e-05	0	41	0	605028352	22	4126
2026-01-29 11:52:18.08	270.21	28.85	-30.5	-31.4	13.3	1.98e-05	0	41	0	607125504	22	3991
2026-01-29 11:52:19.08	270.54	28.84	-30.7	-31.9	13.0	2.67e-05	0	41	0	609222656	22	4153
2026-01-29 11:52:20.09	270.88	28.84	-31.0	-32.9	12.3	4.57e-05	0	41	0	611319808	22	4483
2026-01-29 11:52:21.09	271.21	28.83	-31.2	-33.5	11.9	3.23e-04	0	41	0	612368384	22	4689
2026-01-29 11:52:22.10	271.54	28.82	-31.3	-33.8	11.7	5.20e-04	0	41	0	614465536	22	4782
2026-01-29 11:52:23.10	271.87	28.81	-31.3	-33.7	11.7	6.80e-04	0	41	0	616562688	22	4765
2026-01-29 11:52:24.11	272.21	28.80	-31.2	-33.6	11.9	3.17e-04	0	41	0	618659840	22	4714
2026-01-29 11:52:25.11	272.54	28.79	-31.2	-33.6	11.8	4.44e-04	0	41	0	620756992	22	4726
2026-01-29 11:52:26.11	272.87	28.77	-31.4	-34.0	11.6	4.33e-04	0	41	0	621805568	22	4891
2026-01-29 11:52:27.12	273.20	28.76	-31.4	-34.1	11.5	6.81e-04	0	41	0	623902720	22	4906
2026-01-29 11:52:28.12	273.53	28.75	-31.2	-33.4	12.0	4.07e-04	0	41	0	625999872	22	4627
2026-01-29 11:52:29.13	273.86	28.73	-30.8	-32.4	12.7	1.12e-04	0	41	0	628097024	22	4289
2026-01-29 11:52:30.13	274.19	28.71	-30.6	-31.8	13.1	4.88e-05	0	41	0	629145600	22	4104
2026-01-29 11:52:31.13	274.52	28.69	-30.7	-32.1	12.8	3.58e-05	0	41	0	631242752	22	4214
2026-01-29 11:52:32.14	274.85	28.68	-30.6	-31.7	13.1	2.36e-05	0	41	0	633339904	22	4086
2026-01-29 11:52:33.14	275.17	28.66	-30.8	-32.2	12.8	2.44e-05	0	41	0	635437056	22	4239
2026-01-29 11:52:34.14	275.50	28.63	-31.3	-33.8	11.6	3.37e-04	0	41	0	637534208	22	4795
2026-01-29 11:52:35.15	275.83	28.61	-31.4	-34.0	11.5	6.98e-04	0	41	0	639631360	22	4883
2026-01-29 11:52:36.16	276.16	28.59	-31.5	-33.9	11.2	1.00e-03	0	41	0	640679936	23	4744
2026-01-29 11:52:37.17	276.49	28.57	-31.8	-34.9	10.7	3.01e-03	0	41	0	642777088	23	5108
2026-01-29 11:52:38.16	276.81	28.54	-32.0	-35.1	10.0	5.30e-03	0	41	0	644874240	24	5138
2026-01-29 11:52:39.17	277.14	28.51	-32.3	-36.0	9.4	1.31e-02	0	41	0	646971392	24	5530
2026-01-29 11:52:40.16	277.46	28.49	-32.3	-35.9	9.4	1.65e-02	0	41	0	648019968	24	5476
2026-01-29 11:52:41.16	277.78	28.46	-32.1	-35.4	9.7	1.20e-02	0	41	0	650117120	24	5275
2026-01-29 11:52:42.17	278.11	28.43	-32.1	-35.4	9.6	1.14e-02	0	41	0	652214272	24	5269
2026-01-29 11:52:43.17	278.43	28.40	-31.9	-34.7	10.3	7.23e-03	0	41	0	654311424	24	4967
2026-01-29 11:52:44.18	278.75	28.37	-31.9	-34.8	10.3	4.34e-03	0	41	0	656408576	24	5011
2026-01-29 11:52:45.19	279.08	28.34	-32.1	-35.4	9.8	6.32e-03	0	41	0	657457152	24	5271
2026-01-29 11:52:46.19	279.40	28.31	-32.5	-36.8	8.7	1.85e-02	0	41	0	659554304	24	5914
2026-01-29 11:52:47.19	279.72	28.27	-32.7	-37.1	8.1	5.30e-02	0	41	0	661651456	25	5979
2026-01-29 11:52:48.20	280.04	28.24	-32.8	-37.7	7.6	6.30e-02	0	41	0	663748608	25	6350
2026-01-29 11:52:49.20	280.36	28.20	-32.7	-37.2	7.9	6.64e-02	0	41	0	665845760	25	6061
2026-01-29 11:52:50.20	280.68	28.17	-32.5	-36.3	8.6	5.75e-02	0	41	0	666894336	25	5612
2026-01-29 11:52:51.20	280.99	28.13	-32.5	-36.3	8.7	2.93e-02	0	41	0	668991488	25	5568
2026-01-29 11:52:52.21	281.31	28.09	-32.3	-35.6	9.3	2.25e-02	0	41	0	671088640	25	5290
2026-01-29 11:52:53.22	281.63	28.06	-32.4	-35.9	9.0	2.42e-02	0	41	0	673185792	25	5385
2026-01-29 11:52:54.22	281.95	28.02	-32.0	-34.3	10.2	8.29e-03	0	41	0	675282944	25	4743
2026-01-29 11:52:55.22	282.26	27.98	-31.7	-33.9	10.9	2.88e-03	0	41	0	676331520	24	4656
2026-01-29 11:52:56.23	282.58	27.93	-31.5	-33.3	11.3	1.66e-03	0	41	0	678428672	24	4432
2026-01-29 11:52:57.24	282.89	27.89	-31.6	-33.5	11.2	1.55e-03	0	41	0	680525824	24	4519
2026-01-29 11:52:58.23	283.20	27.85	-31.8	-34.2	10.7	2.07e-03	0	41	0	682622976	24	4783
2026-01-29 11:52:59.24	283.51	27.81	-31.9	-34.8	10.2	5.98e-03	0	41	0	684720128	24	5026
2026-01-29 11:53:00.24	283.82	27.76	-32.0	-35.1	10.0	7.31e-03	0	41	0	685768704	24	5124
2026-01-29 11:53:01.24	284.13	27.72	-31.5	-33.3	11.3	1.93e-03	0	41	0	687865856	24	4429
2026-01-29 11:53:02.24	284.44	27.67	-30.8	-31.8	12.6	2.32e-04	0	41	0	689963008	23	4041
2026-01-29 11:53:03.25	284.75	27.62	-30.5	-31.4	13.3	3.89e-05	0	41	0	692060160	22	4014
2026-01-29 11:53:04.25	285.06	27.57	-30.5	-31.4	13.3	2.21e-05	0	41	0	694157312	22	3997
2026-01-29 11:53:05.24	285.36	27.53	-30.8	-32.3	12.7	6.63e-05	0	41	0	695205888	22	4275
2026-01-29 11:53:06.25	285.67	27.48	-30.9	-32.5	12.6	1.06e-04	0	41	0	697303040	22	4324
2026-01-29 11:53:07.25	285.97	27.43	-30.7	-31.9	12.9	4.88e-05	0	41	0	699400192	22	4157
2026-01-29 11:53:08.25	286.27	27.38	-30.3	-30.9	13.6	1.29e-05	0	41	0	701497344	22	3858
2026-01-29 11:53:09.25	286.57	27.32	-30.2	-31.3	13.7	8.30e-06	0	41	0	703594496	21	4053
2026-01-29 11:53:10.25	286.87	27.27	-30.3	-31.5	13.5	5.30e-06	0	41	0	704643072	21	4134
2026-01-29 11:53:11.26	287.18	27.22	-30.5	-32.1	13.1	2.28e-05	0	41	0	706740224	21	4304
2026-01-29 11:53:12.26	287.47	27.17	-30.9	-33.1	12.4	9.38e-05	0	41	0	708837376	21	4637
2026-01-29 11:53:13.27	287.78	27.11	-31.1	-33.2	12.1	2.23e-04	0	41	0	710934528	22	4564
2026-01-29 11:53:14.27	288.07	27.06	-31.2	-33.6	11.8	5.21e-04	0	41	0	711983104	22	4721
2026-01-29 11:53:15.27	288.37	27.00	-30.9	-32.6	12.5	2.55e-04	0	41	0	714080256	22	4366
2026-01-29 11:53:16.28	288.66	26.94	-30.6	-31.8	13.0	5.64e-05	0	41	0	716177408	22	4118
2026-01-29 11:53:17.27	288.96	26.89	-30.1	-30.9	13.9	1.22e-05	0	41	0	718274560	21	3946
2026-01-29 11:53:18.27	289.25	26.83	-29.9	-30.5	14.2	2.20e-06	0	41	0	720371712	21	3835
2026-01-29 11:53:19.28	289.54	26.77	-30.0	-30.6	14.1	0.00e+00	0	41	0	721420288	21	3854
2026-01-29 11:53:20.28	289.83	26.71	-29.9	-30.3	14.3	3.00e-06	0	41	0	723517440	21	3793
2026-01-29 11:53:21.28	290.12	26.65	-30.1	-30.8	13.9	7.00e-07	0	41	0	725614592	21	3934
2026-01-29 11:53:22.28	290.41	26.59	-29.7	-30.4	14.5	0.00e+00	0	41	0	727711744	20	3884
2026-01-29 11:53:23.29	290.70	26.53	-29.8	-30.6	14.3	7.00e-07	0	41	0	729808896	20	3962
2026-01-29 11:53:24.29	290.99	26.47	-29.6	-30.0	14.7	1.50e-06	0	41	0	730857472	20	3799
2026-01-29 11:53:25.29	291.27	26.41	-29.8	-30.5	14.5	0.00e+00	0	41	0	732954624	20	3924
2026-01-29 11:53:26.29	291.55	26.34	-29.8	-30.7	14.3	7.00e-07	0	41	0	735051776	20	3976
2026-01-29 11:53:27.30	291.84	26.28	-29.8	-30.7	14.3	1.50e-06	0	41	0	737148928	20	3985
2026-01-29 11:53:28.30	292.12	26.21	-29.9	-30.8	14.3	3.80e-06	0	41	0	739246080	20	4002
2026-01-29 11:53:29.30	292.40	26.15	-29.8	-30.7	14.3	3.00e-06	0	41	0	740294656	20	3982
2026-01-29 11:53:30.30	292.68	26.08	-29.5	-29.9	14.8	7.00e-07	0	41	0	742391808	20	3767
2026-01-29 11:53:31.31	292.96	26.02	-29.3	-29.9	15.2	0.00e+00	0	41	0	744488960	19	3854
2026-01-29 11:53:32.31	293.24	25.95	-29.3	-29.8	15.2	0.00e+00	0	41	0	746586112	19	3822
2026-01-29 11:53:33.32	293.52	25.89	-29.2	-29.7	15.3	0.00e+00	0	41	0	748683264	19	3786
2026-01-29 11:53:34.33	293.79	25.82	-29.2	-29.6	15.4	0.00e+00	0	41	0	749731840	19	3767
2026-01-29 11:53:35.33	294.07	25.75	-29.5	-30.3	14.9	0.00e+00	0	41	0	751828992	19	3939
2026-01-29 11:53:36.34	294.34	25.68	-29.5	-30.4	14.9	0.00e+00	0	41	0	753926144	19	3978
2026-01-29 11:53:37.35	294.62	25.61	-29.7	-30.8	14.6	7.00e-07	0	41	0	756023296	19	4106
2026-01-29 11:53:38.35	294.89	25.54	-29.7	-30.9	14.5	7.00e-07	0	41	0	757071872	19	4133
2026-01-29 11:53:39.35	295.16	25.47	-29.8	-31.1	14.4	0.00e+00	0	41	0	759169024	19	4184
2026-01-29 11:53:40.35	295.42	25.40	-30.0	-31.1	14.0	2.20e-06	0	41	0	761266176	20	4093
2026-01-29 11:53:41.36	295.69	25.33	-30.1	-31.4	13.8	1.50e-06	0	41	0	763363328	20	4191
2026-01-29 11:53:42.36	295.96	25.26	-30.0	-31.2	13.9	3.00e-06	0	41	0	765460480	20	4140
2026-01-29 11:53:43.37	296.23	25.19	-29.6	-30.2	14.6	7.00e-07	0	41	0	766509056	20	3855
2026-01-29 11:53:44.37	296.49	25.12	-29.6	-30.1	14.6	7.00e-07	0	41	0	768606208	20	3815
2026-01-29 11:53:45.37	296.75	25.04	-29.5	-29.9	14.7	1.50e-06	0	41	0	770703360	20	3775
2026-01-29 11:53:46.38	297.01	24.97	-29.6	-30.0	14.7	0.00e+00	0	41	0	772800512	20	3796
2026-01-29 11:53:47.38	297.27	24.90	-29.5	-29.9	14.8	7.00e-07	0	41	0	774897664	20	3772
2026-01-29 11:53:48.38	297.53	24.82	-30.0	-31.1	14.0	2.20e-06	0	41	0	775946240	20	4099
2026-01-29 11:53:49.39	297.79	24.75	-30.2	-31.6	13.7	4.50e-06	0	41	0	778043392	20	4234
2026-01-29 11:53:50.40	298.05	24.67	-30.4	-31.7	13.3	1.52e-05	0	41	0	780140544	21	4181
2026-01-29 11:53:51.40	298.30	24.60	-30.3	-31.3	13.6	9.90e-06	0	41	0	782237696	21	4078
2026-01-29 11:53:52.41	298.56	24.52	-30.1	-31.0	13.8	9.10e-06	0	41	0	784334848	21	3994
2026-01-29 11:53:53.41	298.81	24.45	-30.0	-30.8	13.9	3.00e-06	0	41	0	785383424	21	3918
2026-01-29 11:53:54.42	299.07	24.37	-30.0	-30.6	14.0	3.80e-06	0	41	0	787480576	21	3875
2026-01-29 11:53:55.42	299.32	24.30	-30.2	-31.1	13.7	5.30e-06	0	41	0	789577728	21	4021
2026-01-29 11:53:56.43	299.57	24.22	-30.3	-31.5	13.5	7.60e-06	0	41	0	791674880	21	4133
2026-01-29 11:53:57.44	299.82	24.14	-29.9	-30.4	14.2	3.80e-06	0	41	0	793772032	21	3812
2026-01-29 11:53:58.44	300.06	24.06	-29.8	-30.2	14.4	0.00e+00	0	41	0	794820608	21	3748
2026-01-29 11:53:59.44	300.31	23.99	-29.4	-29.7	14.9	7.00e-07	0	41	0	796917760	20	3718
2026-01-29 11:54:00.44	300.55	23.91	-29.3	-29.4	15.1	0.00e+00	0	41	0	799014912	20	3627
2026-01-29 11:54:01.45	300.80	23.83	-29.3	-29.8	15.1	0.00e+00	0	41	0	801112064	19	3830
2026-01-29 11:54:02.45	301.04	23.75	-29.3	-29.9	15.2	0.00e+00	0	41	0	803209216	19	3849
2026-01-29 11:54:03.46	301.28	23.67	-29.3	-29.8	15.2	0.00e+00	0	41	0	804257792	19	3824
2026-01-29 11:54:04.46	301.52	23.59	-29.3	-29.7	15.2	7.00e-07	0	41	0	806354944	19	3804
2026-01-29 11:54:05.45	301.76	23.52	-29.3	-29.9	15.1	0.00e+00	0	41	0	808452096	19	3858
2026-01-29 11:54:06.45	301.99	23.44	-29.4	-30.1	15.0	0.00e+00	0	41	0	810549248	19	3901
2026-01-29 11:54:07.46	302.23	23.36	-29.6	-30.6	14.7	0.00e+00	0	41	0	812646400	19	4030
2026-01-29 11:54:08.46	302.46	23.28	-29.7	-30.8	14.6	0.00e+00	0	41	0	813694976	19	4086
2026-01-29 11:54:09.47	302.70	23.20	-29.9	-31.3	14.3	0.00e+00	0	41	0	815792128	19	4259
2026-01-29 11:54:10.47	302.93	23.12	-29.7	-30.5	14.4	1.50e-06	0	41	0	817889280	20	3929
2026-01-29 11:54:11.47	303.16	23.03	-29.6	-30.0	14.7	1.50e-06	0	41	0	819986432	20	3808
2026-01-29 11:54:12.48	303.39	22.95	-29.3	-29.4	15.0	0.00e+00	0	41	0	822083584	20	3646
2026-01-29 11:54:13.48	303.62	22.87	-29.4	-30.0	15.1	1.50e-06	0	41	0	823132160	19	3877
2026-01-29 11:54:14.48	303.85	22.79	-29.3	-29.8	15.2	0.00e+00	0	41	0	825229312	19	3823
2026-01-29 11:54:15.49	304.08	22.71	-29.4	-30.2	14.9	0.00e+00	0	41	0	827326464	19	3931
2026-01-29 11:54:16.50	304.31	22.63	-29.6	-30.7	14.7	0.00e+00	0	41	0	829423616	19	4061
2026-01-29 11:54:17.50	304.53	22.55	-29.8	-31.1	14.4	3.80e-06	0	41	0	831520768	19	4200
2026-01-29 11:54:18.50	304.75	22.46	-29.9	-31.3	14.2	0.00e+00	0	41	0	832569344	19	4248
2026-01-29 11:54:19.50	304.97	22.38	-29.9	-31.5	14.2	7.00e-07	0	41	0	834666496	19	4303
2026-01-29 11:54:20.50	305.20	22.30	-29.7	-30.8	14.5	7.00e-07	0	41	0	836763648	19	4108
2026-01-29 11:54:21.50	305.41	22.22	-29.8	-31.2	14.4	0.00e+00	0	41	0	838860800	19	4222
2026-01-29 11:54:22.51	305.63	22.13	-29.8	-30.6	14.3	3.80e-06	0	41	0	839909376	20	3949
2026-01-29 11:54:23.50	305.85	22.05	-29.7	-30.5	14.4	7.00e-07	0	41	0	842006528	20	3936
2026-01-29 11:54:24.51	306.07	21.97	-30.2	-31.8	13.6	3.00e-06	0	41	0	844103680	20	4310
2026-01-29 11:54:25.51	306.28	21.89	-30.5	-32.4	13.2	1.67e-05	0	41	0	846200832	20	4519
2026-01-29 11:54:26.51	306.50	21.80	-30.6	-32.4	12.8	3.96e-05	0	41	0	848297984	21	4411
2026-01-29 11:54:27.52	306.71	21.72	-30.4	-31.7	13.3	3.28e-05	0	41	0	849346560	21	4197
2026-01-29 11:54:28.52	306.92	21.64	-30.2	-31.3	13.6	1.44e-05	0	41	0	851443712	21	4060
2026-01-29 11:54:29.52	307.13	21.55	-30.1	-31.0	13.7	9.10e-06	0	41	0	853540864	21	3994
2026-01-29 11:54:30.53	307.34	21.47	-30.1	-30.9	13.8	2.20e-06	0	41	0	855638016	21	3942
2026-01-29 11:54:31.52	307.55	21.38	-29.9	-30.5	14.0	4.50e-06	0	41	0	857735168	21	3839
2026-01-29 11:54:32.53	307.76	21.30	-29.7	-30.3	14.5	0.00e+00	0	41	0	858783744	20	3885
2026-01-29 11:54:33.53	307.96	21.22	-29.8	-30.6	14.3	7.00e-07	0	41	0	860880896	20	3952
2026-01-29 11:54:34.54	308.17	21.13	-29.9	-30.9	14.1	7.00e-07	0	41	0	862978048	20	4052
2026-01-29 11:54:35.55	308.38	21.05	-29.9	-31.0	14.1	3.00e-06	0	41	0	865075200	20	4063
2026-01-29 11:54:36.55	308.58	20.96	-30.2	-31.7	13.7	8.30e-06	0	41	0	867172352	20	4269
2026-01-29 11:54:37.55	308.78	20.88	-30.0	-31.3	13.8	7.60e-06	0	41	0	868220928	20	4155
2026-01-29 11:54:38.56	308.98	20.79	-30.0	-31.2	13.9	5.30e-06	0	41	0	870318080	20	4140
2026-01-29 11:54:39.56	309.18	20.71	-29.9	-31.0	13.9	3.00e-06	0	41	0	872415232	20	4077
2026-01-29 11:54:40.56	309.38	20.63	-29.9	-31.0	14.0	2.20e-06	0	41	0	874512384	20	4075
2026-01-29 11:54:41.57	309.58	20.54	-30.3	-32.0	13.4	4.50e-06	0	41	0	876609536	20	4375
2026-01-29 11:54:42.57	309.78	20.46	-30.3	-32.2	13.2	1.90e-05	0	41	0	877658112	20	4434
2026-01-29 11:54:43.57	309.97	20.37	-30.4	-32.2	13.2	1.37e-05	0	41	0	879755264	20	4436
2026-01-29 11:54:44.56	310.16	20.29	-30.2	-31.9	13.4	1.90e-05	0	41	0	881852416	20	4343
2026-01-29 11:54:45.57	310.36	20.20	-30.1	-31.5	13.7	6.80e-06	0	41	0	883949568	20	4225
2026-01-29 11:54:46.57	310.55	20.12	-29.8	-30.7	14.2	6.10e-06	0	41	0	884998144	20	3995
2026-01-29 11:54:47.58	310.74	20.03	-29.7	-30.4	14.5	7.00e-07	0	41	0	887095296	20	3892
2026-01-29 11:54:48.59	310.94	19.95	-29.9	-30.8	14.1	0.00e+00	0	41	0	889192448	20	4029
2026-01-29 11:54:49.59	311.12	19.86	-29.7	-30.4	14.3	3.00e-06	0	41	0	891289600	20	3915
2026-01-29 11:54:50.60	311.31	19.78	-29.8	-30.7	14.2	7.00e-07	0	41	0	893386752	20	3995
2026-01-29 11:54:51.60	311.50	19.69	-30.1	-31.4	13.8	1.50e-06	0	41	0	895483904	20	4188
2026-01-29 11:54:52.61	311.69	19.61	-30.3	-32.1	13.3	6.80e-06	0	41	0	896532480	20	4430
2026-01-29 11:54:53.61	311.87	19.52	-30.7	-32.5	12.7	5.03e-05	0	41	0	898629632	21	4456
2026-01-29 11:54:54.61	312.06	19.44	-30.8	-33.1	12.3	1.17e-04	0	41	0	900726784	21	4642
2026-01-29 11:54:55.62	312.24	19.35	-30.8	-32.9	12.4	1.40e-04	0	41	0	902823936	21	4576
2026-01-29 11:54:56.62	312.42	19.27	-30.8	-33.1	12.4	1.52e-04	0	41	0	903872512	21	4647
2026-01-29 11:54:57.63	312.61	19.18	-30.4	-31.9	13.1	7.78e-05	0	41	0	905969664	21	4257
2026-01-29 11:54:58.62	312.78	19.10	-30.1	-30.9	13.7	1.29e-05	0	41	0	908066816	21	3954
2026-01-29 11:54:59.62	312.96	19.02	-29.9	-30.5	14.0	1.50e-06	0	41	0	910163968	21	3850
2026-01-29 11:55:00.61	313.14	18.93	-29.8	-30.6	14.2	7.00e-07	0	41	0	912261120	20	3974
2026-01-29 11:55:01.62	313.32	18.85	-29.9	-30.9	14.1	7.00e-07	0	41	0	913309696	20	4038
2026-01-29 11:55:02.62	313.49	18.76	-29.8	-30.8	14.1	1.50e-06	0	41	0	915406848	20	4029
2026-01-29 11:55:03.62	313.67	18.68	-29.8	-30.7	14.2	1.50e-06	0	41	0	917504000	20	3995
2026-01-29 11:55:04.63	313.85	18.59	-29.9	-31.0	14.0	2.20e-06	0	41	0	919601152	20	4069
2026-01-29 11:55:05.63	314.02	18.51	-29.8	-30.6	14.3	7.00e-07	0	41	0	921698304	20	3964
2026-01-29 11:55:06.63	314.19	18.42	-29.6	-30.2	14.5	0.00e+00	0	41	0	922746880	20	3853
2026-01-29 11:55:07.64	314.36	18.34	-29.5	-30.1	14.6	0.00e+00	0	41	0	924844032	20	3818
2026-01-29 11:55:08.64	314.53	18.25	-29.5	-30.0	14.5	0.00e+00	0	41	0	926941184	20	3804
2026-01-29 11:55:09.65	314.71	18.17	-29.6	-30.1	14.5	0.00e+00	0	41	0	929038336	20	3829
2026-01-29 11:55:10.65	314.87	18.09	-29.5	-30.0	14.6	0.00e+00	0	41	0	931135488	20	3810
2026-01-29 11:55:11.66	315.04	18.00	-29.5	-29.9	14.6	0.00e+00	0	41	0	932184064	20	3791
2026-01-29 11:55:12.65	315.21	17.92	-29.6	-30.3	14.4	0.00e+00	0	41	0	934281216	20	3885
2026-01-29 11:55:13.65	315.37	17.83	-29.8	-30.7	14.1	7.00e-07	0	41	0	936378368	20	4003
2026-01-29 11:55:14.65	315.54	17.75	-29.8	-30.6	14.2	1.50e-06	0	41	0	938475520	20	3968
2026-01-29 11:55:15.65	315.70	17.67	-29.8	-30.8	14.1	3.00e-06	0	41	0	940572672	20	4020
2026-01-29 11:55:16.66	315.87	17.58	-30.2	-31.7	13.5	6.10e-06	0	41	0	941621248	20	4290
2026-01-29 11:55:17.67	316.03	17.50	-30.0	-31.2	13.8	7.60e-06	0	41	0	943718400	20	4141
2026-01-29 11:55:18.67	316.19	17.41	-29.8	-30.9	14.0	6.10e-06	0	41	0	945815552	20	4047
2026-01-29 11:55:19.66	316.35	17.33	-29.8	-30.7	14.1	4.50e-06	0	41	0	947912704	20	4003
2026-01-29 11:55:20.67	316.51	17.25	-29.9	-31.1	13.8	3.80e-06	0	41	0	948961280	20	4123
2026-01-29 11:55:21.67	316.67	17.16	-30.2	-31.7	13.4	6.80e-06	0	41	0	951058432	20	4302
2026-01-29 11:55:22.67	316.83	17.08	-30.3	-32.2	13.1	1.06e-05	0	41	0	953155584	20	4461
2026-01-29 11:55:23.67	316.99	17.00	-30.5	-32.1	12.9	5.18e-05	0	41	0	955252736	21	4342
2026-01-29 11:55:24.67	317.14	16.91	-30.6	-32.4	12.7	7.85e-05	0	41	0	957349888	21	4428
2026-01-29 11:55:25.68	317.30	16.83	-30.5	-32.3	12.7	7.40e-05	0	41	0	958398464	21	4395
2026-01-29 11:55:26.68	317.46	16.75	-30.5	-32.2	12.7	9.99e-05	0	41	0	960495616	21	4381
2026-01-29 11:55:27.68	317.61	16.66	-30.4	-31.9	12.9	5.49e-05	0	41	0	962592768	21	4266
2026-01-29 11:55:28.69	317.76	16.58	-30.3	-31.5	13.2	3.12e-05	0	41	0	964689920	21	4169
2026-01-29 11:55:29.69	317.92	16.50	-30.3	-31.5	13.2	1.52e-05	0	41	0	966787072	21	4169
2026-01-29 11:55:30.70	318.07	16.41	-30.4	-31.9	13.0	2.44e-05	0	41	0	967835648	21	4266
2026-01-29 11:55:31.70	318.22	16.33	-30.1	-31.1	13.4	2.28e-05	0	41	0	969932800	21	4031
2026-01-29 11:55:32.70	318.37	16.25	-30.2	-31.4	13.3	1.14e-05	0	41	0	972029952	21	4112
2026-01-29 11:55:33.70	318.52	16.17	-30.1	-31.0	13.5	1.22e-05	0	41	0	974127104	21	3999
2026-01-29 11:55:34.71	318.67	16.08	-29.9	-30.4	13.8	1.14e-05	0	41	0	976224256	21	3847
2026-01-29 11:55:35.71	318.82	16.00	-29.7	-30.5	14.1	2.20e-06	0	41	0	977272832	20	3957
2026-01-29 11:55:36.71	318.96	15.92	-29.6	-30.3	14.2	1.50e-06	0	41	0	979369984	20	3906
2026-01-29 11:55:37.71	319.11	15.84	-29.6	-30.3	14.2	7.00e-07	0	41	0	981467136	20	3896
2026-01-29 11:55:38.72	319.25	15.76	-29.7	-30.5	14.1	2.20e-06	0	41	0	983564288	20	3948
2026-01-29 11:55:39.73	319.40	15.67	-29.8	-30.8	14.0	1.50e-06	0	41	0	985661440	20	4029
2026-01-29 11:55:40.73	319.54	15.59	-29.6	-30.3	14.2	2.20e-06	0	41	0	986710016	20	3905
2026-01-29 11:55:41.74	319.69	15.51	-29.5	-30.0	14.4	7.00e-07	0	41	0	988807168	20	3818
2026-01-29 11:55:42.74	319.83	15.43	-29.4	-29.8	14.5	2.20e-06	0	41	0	990904320	20	3758
2026-01-29 11:55:43.74	319.97	15.35	-29.4	-29.8	14.5	7.00e-07	0	41	0	993001472	20	3776
2026-01-29 11:55:44.75	320.11	15.27	-29.6	-30.3	14.2	7.00e-07	0	41	0	995098624	20	3907
2026-01-29 11:55:45.75	320.25	15.18	-29.6	-30.4	14.1	7.00e-07	0	41	0	996147200	20	3927
2026-01-29 11:55:46.75	320.39	15.10	-29.8	-30.9	13.8	3.00e-06	0	41	0	998244352	20	4073
2026-01-29 11:55:47.76	320.53	15.02	-30.0	-31.3	13.5	1.06e-05	0	41	0	1000341504	20	4208
2026-01-29 11:55:48.76	320.67	14.94	-30.2	-31.9	13.2	1.75e-05	0	41	0	1002438656	20	4393
2026-01-29 11:55:49.77	320.81	14.86	-30.3	-32.2	12.9	3.20e-05	0	41	0	1003487232	20	4478
2026-01-29 11:55:50.77	320.94	14.78	-30.5	-32.7	12.7	5.64e-05	0	41	0	1005584384	20	4646
2026-01-29 11:55:51.77	321.08	14.70	-30.4	-31.9	12.7	1.13e-04	0	41	0	1007681536	21	4307
2026-01-29 11:55:52.77	321.21	14.62	-30.5	-32.2	12.5	9.23e-05	0	41	0	1009778688	21	4404
2026-01-29 11:55:53.77	321.35	14.54	-30.4	-32.1	12.6	9.38e-05	0	41	0	1011875840	21	4376
2026-01-29 11:55:54.77	321.48	14.46	-30.4	-32.1	12.6	8.62e-05	0	41	0	1012924416	21	4359
2026-01-29 11:55:55.78	321.62	14.38	-30.6	-32.5	12.3	1.08e-04	0	41	0	1015021568	21	4499
2026-01-29 11:55:56.78	321.75	14.30	-30.4	-32.1	12.6	1.44e-04	0	41	0	1017118720	21	4357
2026-01-29 11:55:57.79	321.88	14.22	-30.3	-31.6	12.9	5.26e-05	0	41	0	1019215872	21	4211
2026-01-29 11:55:58.79	322.01	14.14	-30.2	-31.4	13.1	2.28e-05	0	41	0	1021313024	21	4138
2026-01-29 11:55:59.80	322.14	14.06	-30.2	-31.6	13.0	4.42e-05	0	41	0	1022361600	21	4204
2026-01-29 11:56:00.80	322.27	13.98	-30.1	-31.2	13.1	2.82e-05	0	41	0	1024458752	21	4097
2026-01-29 11:56:01.80	322.40	13.90	-30.0	-30.9	13.4	1.44e-05	0	41	0	1026555904	21	3997
2026-01-29 11:56:02.81	322.53	13.82	-29.9	-30.6	13.5	1.06e-05	0	41	0	1028653056	21	3920
2026-01-29 11:56:03.81	322.66	13.74	-29.9	-30.8	13.4	1.06e-05	0	41	0	1030750208	21	3957
2026-01-29 11:56:04.82	322.78	13.66	-29.9	-30.7	13.5	1.22e-05	0	41	0	1031798784	21	3945
2026-01-29 11:56:05.82	322.91	13.59	-29.8	-30.9	13.7	1.22e-05	0	41	0	1033895936	20	4075
2026-01-29 11:56:06.82	323.04	13.51	-29.9	-31.1	13.6	6.10e-06	0	41	0	1035993088	20	4136
2026-01-29 11:56:07.83	323.16	13.43	-29.7	-30.7	13.7	3.00e-06	0	41	0	1038090240	20	4018
2026-01-29 11:56:08.83	323.29	13.35	-29.7	-30.6	13.8	8.30e-06	0	41	0	1040187392	20	4003
2026-01-29 11:56:09.84	323.41	13.27	-29.8	-30.8	13.7	5.30e-06	0	41	0	1041235968	20	4069
2026-01-29 11:56:10.84	323.53	13.19	-29.6	-30.4	13.9	4.50e-06	0	41	0	1043333120	20	3948
2026-01-29 11:56:11.85	323.66	13.12	-29.5	-30.1	14.1	7.00e-07	0	41	0	1045430272	20	3865
2026-01-29 11:56:12.86	323.78	13.04	-29.5	-30.2	14.1	1.50e-06	0	41	0	1047527424	20	3885
2026-01-29 11:56:13.86	323.90	12.96	-29.5	-30.0	14.2	0.00e+00	0	41	0	1049624576	20	3824
2026-01-29 11:56:14.86	324.02	12.88	-29.6	-30.3	14.0	7.00e-07	0	41	0	1050673152	20	3915
2026-01-29 11:56:15.87	324.14	12.80	-29.5	-30.2	14.0	3.80e-06	0	41	0	1052770304	20	3903
2026-01-29 11:56:16.87	324.26	12.73	-29.6	-30.4	13.9	2.20e-06	0	41	0	1054867456	20	3950
2026-01-29 11:56:17.88	324.38	12.65	-29.8	-30.9	13.6	3.00e-06	0	41	0	1056964608	20	4081
2026-01-29 11:56:18.88	324.50	12.57	-29.8	-31.0	13.5	5.30e-06	0	41	0	1059061760	20	4137
2026-01-29 11:56:19.88	324.62	12.50	-30.0	-31.5	13.2	1.60e-05	0	41	0	1060110336	20	4288
2026-01-29 11:56:20.88	324.73	12.42	-30.2	-32.1	12.8	4.80e-05	0	41	0	1062207488	20	4462
2026-01-29 11:56:21.88	324.85	12.34	-30.2	-32.2	12.8	7.09e-05	0	41	0	1064304640	20	4486
2026-01-29 11:56:22.89	324.97	12.27	-30.4	-32.7	12.4	7.85e-05	0	41	0	1066401792	20	4685
2026-01-29 11:56:23.89	325.08	12.19	-30.4	-32.2	12.4	1.59e-04	0	41	0	1067450368	21	4424
2026-01-29 11:56:24.89	325.19	12.12	-30.5	-32.4	12.3	1.98e-04	0	41	0	1069547520	21	4488
2026-01-29 11:56:25.89	325.31	12.04	-30.6	-32.8	12.0	3.14e-04	0	41	0	1071644672	21	4612
2026-01-29 11:56:26.89	325.42	11.96	-30.5	-32.5	12.2	3.07e-04	0	41	0	1073741824	21	4507
2026-01-29 11:56:27.89	325.53	11.89	-30.7	-32.9	11.9	2.72e-04	0	41	0	1075838976	21	4647
2026-01-29 11:56:28.89	325.65	11.81	-30.6	-32.8	11.9	3.48e-04	0	41	0	1076887552	21	4633
2026-01-29 11:56:29.90	325.76	11.74	-30.4	-32.1	12.4	1.82e-04	0	41	0	1078984704	21	4394
2026-01-29 11:56:30.90	325.87	11.66	-30.5	-32.5	12.2	2.01e-04	0	41	0	1081081856	21	4505
2026-01-29 11:56:31.91	325.98	11.59	-30.4	-32.1	12.4	1.85e-04	0	41	0	1083179008	21	4371
2026-01-29 11:56:32.92	326.09	11.51	-30.3	-31.9	12.5	1.14e-04	0	41	0	1085276160	21	4320
2026-01-29 11:56:33.92	326.20	11.44	-30.5	-32.4	12.2	1.72e-04	0	41	0	1086324736	21	4468
2026-01-29 11:56:34.92	326.31	11.36	-30.4	-32.0	12.5	1.52e-04	0	41	0	1088421888	21	4341
2026-01-29 11:56:35.92	326.42	11.29	-30.6	-32.7	12.0	1.72e-04	0	41	0	1090519040	21	4592
2026-01-29 11:56:36.92	326.53	11.21	-30.4	-32.1	12.4	3.81e-04	0	41	0	1092616192	21	4371
2026-01-29 11:56:37.93	326.64	11.14	-30.2	-31.7	12.6	9.30e-05	0	41	0	1094713344	21	4267
2026-01-29 11:56:38.93	326.74	11.06	-30.4	-32.1	12.4	1.54e-04	0	41	0	1095761920	21	4381
2026-01-29 11:56:39.94	326.85	10.99	-30.2	-31.7	12.6	1.53e-04	0	41	0	1097859072	21	4244
2026-01-29 11:56:40.94	326.96	10.92	-30.3	-31.8	12.5	9.07e-05	0	41	0	1099956224	21	4293
2026-01-29 11:56:41.94	327.06	10.84	-30.3	-31.8	12.5	1.07e-04	0	41	0	1102053376	21	4308
2026-01-29 11:56:42.95	327.17	10.77	-30.1	-31.4	12.8	7.09e-05	0	41	0	1104150528	21	4164
2026-01-29 11:56:43.95	327.27	10.70	-30.2	-31.5	12.7	4.50e-05	0	41	0	1105199104	21	4212
2026-01-29 11:56:44.96	327.38	10.62	-30.0	-31.0	13.0	4.80e-05	0	41	0	1107296256	21	4054
2026-01-29 11:56:45.97	327.48	10.55	-29.9	-30.8	13.2	2.36e-05	0	41	0	1109393408	21	3986
2026-01-29 11:56:46.98	327.59	10.47	-30.0	-31.1	13.0	2.59e-05	0	41	0	1111490560	21	4063
2026-01-29 11:56:47.99	327.69	10.40	-29.8	-30.6	13.3	2.59e-05	0	41	0	1113587712	21	3928
2026-01-29 11:56:48.99	327.79	10.33	-29.9	-30.7	13.2	1.67e-05	0	41	0	1114636288	21	3973
2026-01-29 11:56:49.99	327.89	10.26	-30.1	-31.3	12.9	4.73e-05	0	41	0	1116733440	21	4128
2026-01-29 11:56:50.99	327.99	10.18	-29.9	-30.8	13.2	3.58e-05	0	41	0	1118830592	21	3998
2026-01-29 11:56:51.99	328.09	10.11	-30.2	-31.6	12.6	5.72e-05	0	41	0	1120927744	21	4231
2026-01-29 11:56:52.99	328.19	10.04	-30.2	-31.8	12.5	1.27e-04	0	41	0	1123024896	21	4290
2026-01-29 11:56:53.99	328.29	9.97	-30.3	-32.0	12.4	1.04e-04	0	41	0	1124073472	21	4359
2026-01-29 11:56:55.00	328.39	9.89	-30.6	-32.9	11.7	4.38e-04	0	41	0	1126170624	21	4685
2026-01-29 11:56:56.00	328.49	9.82	-30.5	-32.7	11.8	6.97e-04	0	41	0	1128267776	21	4605
2026-01-29 11:56:57.00	328.59	9.75	-30.7	-33.1	11.5	4.78e-04	0	41	0	1130364928	21	4753
2026-01-29 11:56:58.01	328.69	9.68	-30.8	-33.5	11.2	1.21e-03	0	41	0	1132462080	21	4916
2026-01-29 11:56:59.02	328.79	9.61	-30.7	-33.3	11.4	1.01e-03	0	41	0	1133510656	21	4835
2026-01-29 11:57:00.02	328.88	9.54	-31.0	-34.0	10.8	1.33e-03	0	41	0	1135607808	21	5117
2026-01-29 11:57:01.03	328.98	9.47	-30.8	-33.5	11.2	1.62e-03	0	41	0	1137704960	21	4913
2026-01-29 11:57:02.03	329.08	9.39	-30.6	-32.9	11.6	6.90e-04	0	41	0	1139802112	21	4693
2026-01-29 11:57:03.04	329.17	9.32	-30.7	-33.1	11.4	8.44e-04	0	41	0	1140850688	21	4768
2026-01-29 11:57:04.05	329.27	9.25	-30.5	-32.5	11.9	8.35e-04	0	41	0	1142947840	21	4530
2026-01-29 11:57:05.05	329.36	9.18	-30.6	-32.9	11.6	4.16e-04	0	41	0	1145044992	21	4672
2026-01-29 11:57:06.05	329.46	9.11	-30.7	-33.2	11.4	8.33e-04	0	41	0	1147142144	21	4800
2026-01-29 11:57:07.05	329.55	9.04	-30.3	-32.1	12.1	5.22e-04	0	41	0	1149239296	21	4425
2026-01-29 11:57:08.05	329.64	8.97	-30.3	-32.1	12.1	2.39e-04	0	41	0	1151336448	21	4401
2026-01-29 11:57:09.05	329.74	8.90	-30.2	-31.7	12.5	2.10e-04	0	41	0	1152385024	21	4262
2026-01-29 11:57:10.06	329.83	8.83	-30.2	-31.7	12.4	1.18e-04	0	41	0	1154482176	21	4283
2026-01-29 11:57:11.06	329.92	8.76	-30.4	-32.2	12.0	3.71e-04	0	41	0	1156579328	21	4459
2026-01-29 11:57:12.06	330.01	8.69	-30.4	-32.2	12.1	3.07e-04	0	41	0	1158676480	21	4447
2026-01-29 11:57:13.06	330.10	8.62	-30.5	-32.6	11.8	2.59e-04	0	41	0	1159725056	21	4573
2026-01-29 11:57:14.06	330.19	8.55	-30.6	-33.0	11.5	6.96e-04	0	41	0	1161822208	21	4729
2026-01-29 11:57:15.07	330.29	8.48	-30.5	-32.7	11.7	5.84e-04	0	41	0	1163919360	21	4620
2026-01-29 11:57:16.07	330.38	8.41	-30.8	-33.4	11.2	9.23e-04	0	41	0	1166016512	21	4890
2026-01-29 11:57:17.07	330.47	8.35	-30.7	-33.4	11.1	1.66e-03	0	41	0	1168113664	21	4890
2026-01-29 11:57:18.07	330.55	8.28	-30.7	-33.3	11.2	1.38e-03	0	41	0	1169162240	21	4860
2026-01-29 11:57:19.07	330.64	8.21	-31.0	-33.8	10.5	3.23e-03	0	41	0	1171259392	22	4959
2026-01-29 11:57:20.07	330.73	8.14	-31.0	-33.7	10.6	3.79e-03	0	41	0	1173356544	22	4910
2026-01-29 11:57:21.08	330.82	8.07	-31.1	-34.2	10.2	3.33e-03	0	41	0	1175453696	22	5138
2026-01-29 11:57:22.08	330.91	8.00	-31.2	-34.4	10.0	6.75e-03	0	41	0	1177550848	22	5207
2026-01-29 11:57:23.09	331.00	7.94	-31.1	-33.9	10.4	5.17e-03	0	41	0	1178599424	22	5023
2026-01-29 11:57:24.09	331.08	7.87	-31.2	-34.3	10.0	5.60e-03	0	41	0	1180696576	22	5175
2026-01-29 11:57:25.10	331.17	7.80	-31.2	-34.3	10.1	6.97e-03	0	41	0	1182793728	22	5160
2026-01-29 11:57:26.10	331.26	7.73	-31.0	-33.8	10.5	4.07e-03	0	41	0	1184890880	22	4970
2026-01-29 11:57:27.09	331.34	7.66	-31.1	-34.1	10.2	5.79e-03	0	41	0	1185939456	22	5107
2026-01-29 11:57:28.10	331.43	7.60	-30.9	-33.5	10.7	3.28e-03	0	41	0	1188036608	22	4832
2026-01-29 11:57:29.10	331.51	7.53	-30.9	-33.4	10.8	2.50e-03	0	41	0	1190133760	22	4800
2026-01-29 11:57:30.10	331.60	7.46	-31.0	-33.6	10.4	3.33e-03	0	41	0	1192230912	22	4906
2026-01-29 11:57:31.09	331.68	7.40	-30.8	-33.1	11.0	2.50e-03	0	41	0	1194328064	22	4691
2026-01-29 11:57:32.10	331.76	7.33	-30.9	-33.6	10.5	3.68e-03	0	41	0	1195376640	22	4899
2026-01-29 11:57:33.10	331.85	7.26	-30.7	-33.0	11.0	2.72e-03	0	41	0	1197473792	22	4653
2026-01-29 11:57:34.10	331.93	7.20	-30.6	-32.6	11.3	1.31e-03	0	41	0	1199570944	22	4527
2026-01-29 11:57:35.10	332.01	7.13	-30.5	-32.4	11.4	1.08e-03	0	41	0	1201668096	22	4437
2026-01-29 11:57:36.10	332.10	7.06	-30.5	-32.4	11.4	1.16e-03	0	41	0	1203765248	22	4448
2026-01-29 11:57:37.11	332.18	7.00	-33.4	-45.9	3.8	1.47e+00	0	41	104	1203765248	26	15252
2026-01-29 11:57:38.11	332.26	6.93	-33.8	-46.3	3.8	1.49e+00	0	41	104	1203765248	27	15178

#Closed at: 2026-01-29 11:57:38
#Recorded file [1203 MB]: D:/data/31010_260129_144653.dat