passes_logs/2026/01/29/R2M6_AANII_01/R2M6_AANII_01__20260129_075805_NOAA_21_JPSS-2_rec.log

#Pass ID: 20260129_075805_NOAA 21 (JPSS-2)
#Satellite: NOAA 21 (JPSS-2)
#Configuration: NOAA 21
#almurnet v.1.7.20240730
#Start time: 2026-01-29 07:58:05

#Version: 2.2.20231116
#Station: R2M6_AANII_01
#Location: 30.233357 lon 59.946436 lat
#TLE: 1 54234U 22150A   26027.91149249  .00000141  00000+0  87546-4 0  9993
#TLE: 2 54234  98.7510 328.6558 0000880 202.8718 157.2419 14.19540177166642

#Time	Az	El	Level	Level2	SNR	BER	BlckErr	Temp	State	Recorded	gain1	gain2
2026-01-29 07:58:05.93	87.00	7.04	-32.1	-39.6	4.0	1.47e+00	0	40	0	0	25	8513
2026-01-29 07:58:06.93	86.89	7.10	-31.5	-37.2	4.4	1.43e+00	0	40	104	0	24	6916
2026-01-29 07:58:07.93	86.78	7.15	-31.5	-36.1	6.9	1.97e-01	0	40	0	0	24	6151
2026-01-29 07:58:08.94	86.67	7.21	-31.5	-36.2	6.9	1.73e-01	0	40	0	3145728	24	6168
2026-01-29 07:58:09.94	86.56	7.27	-31.4	-36.0	6.9	1.67e-01	0	41	0	6291456	24	6119
2026-01-29 07:58:10.94	86.45	7.33	-31.5	-36.2	6.9	1.73e-01	0	40	0	9437184	24	6182
2026-01-29 07:58:11.95	86.34	7.39	-31.5	-36.2	6.8	1.81e-01	0	41	0	12582912	24	6198
2026-01-29 07:58:12.95	86.23	7.44	-31.7	-37.2	6.2	2.34e-01	0	41	0	15728640	24	6749
2026-01-29 07:58:13.96	86.11	7.50	-31.6	-36.4	6.8	2.21e-01	0	41	0	18874368	24	6267
2026-01-29 07:58:14.96	86.00	7.56	-31.2	-35.7	7.6	1.09e-01	0	41	0	22020096	23	5995
2026-01-29 07:58:15.96	85.89	7.62	-30.9	-34.4	8.5	4.82e-02	0	41	0	24117248	23	5394
2026-01-29 07:58:16.96	85.77	7.67	-30.5	-33.6	9.4	1.74e-02	0	41	0	27262976	22	5182
2026-01-29 07:58:17.96	85.66	7.73	-30.0	-32.8	10.3	7.55e-03	0	41	0	30408704	21	4964
2026-01-29 07:58:18.97	85.54	7.79	-29.7	-32.3	11.0	2.47e-03	0	41	0	33554432	20	4883
2026-01-29 07:58:19.97	85.43	7.85	-29.3	-31.7	11.9	5.65e-04	0	41	0	36700160	19	4746
2026-01-29 07:58:20.97	85.31	7.91	-28.9	-30.7	12.5	1.18e-04	0	41	0	39845888	19	4443
2026-01-29 07:58:21.98	85.20	7.96	-28.7	-30.6	12.9	5.49e-05	0	41	0	42991616	18	4514
2026-01-29 07:58:22.98	85.08	8.02	-28.7	-30.8	12.8	5.64e-05	0	41	0	46137344	18	4551
2026-01-29 07:58:23.98	84.96	8.08	-28.7	-30.7	12.8	5.03e-05	0	41	0	49283072	18	4523
2026-01-29 07:58:24.98	84.85	8.14	-28.8	-30.9	12.7	7.24e-05	0	41	0	52428800	18	4582
2026-01-29 07:58:25.99	84.73	8.20	-28.8	-31.1	12.6	7.70e-05	0	41	0	55574528	18	4645
2026-01-29 07:58:26.99	84.61	8.25	-28.8	-30.9	12.8	8.54e-05	0	41	0	58720256	18	4594
2026-01-29 07:58:27.99	84.49	8.31	-28.7	-30.8	12.8	6.25e-05	0	41	0	61865984	18	4556
2026-01-29 07:58:28.99	84.37	8.37	-28.8	-30.8	12.8	5.72e-05	0	41	0	65011712	18	4560
2026-01-29 07:58:30.00	84.25	8.43	-29.0	-31.3	12.5	8.62e-05	0	41	0	68157440	18	4715
2026-01-29 07:58:31.00	84.13	8.49	-28.8	-30.8	12.9	7.24e-05	0	41	0	71303168	18	4547
2026-01-29 07:58:32.01	84.01	8.54	-28.6	-30.3	13.2	2.89e-05	0	41	0	74448896	18	4406
2026-01-29 07:58:33.02	83.89	8.60	-28.5	-30.2	13.3	2.28e-05	0	41	0	77594624	18	4361
2026-01-29 07:58:34.02	83.77	8.66	-28.6	-30.4	13.1	3.20e-05	0	41	0	80740352	18	4435
2026-01-29 07:58:35.02	83.64	8.72	-28.4	-29.9	13.4	2.13e-05	0	42	0	83886080	18	4288
2026-01-29 07:58:36.03	83.52	8.78	-28.5	-30.1	13.3	1.75e-05	0	41	0	87031808	18	4344
2026-01-29 07:58:37.03	83.40	8.84	-28.5	-30.1	13.4	1.67e-05	0	41	0	90177536	18	4330
2026-01-29 07:58:38.03	83.27	8.89	-28.5	-30.2	13.3	1.98e-05	0	41	0	93323264	18	4371
2026-01-29 07:58:39.04	83.15	8.95	-28.4	-30.0	13.5	1.67e-05	0	41	0	96468992	18	4293
2026-01-29 07:58:40.05	83.02	9.01	-28.4	-29.8	13.5	1.06e-05	0	41	0	99614720	18	4258
2026-01-29 07:58:41.06	82.90	9.07	-28.4	-29.8	13.5	7.60e-06	0	41	0	102760448	18	4251
2026-01-29 07:58:42.07	82.77	9.13	-28.4	-29.8	13.5	1.37e-05	0	41	0	105906176	18	4261
2026-01-29 07:58:43.07	82.64	9.19	-28.3	-29.7	13.6	9.90e-06	0	41	0	109051904	18	4220
2026-01-29 07:58:44.07	82.52	9.24	-28.4	-29.9	13.5	8.30e-06	0	42	0	112197632	18	4270
2026-01-29 07:58:45.07	82.39	9.30	-28.3	-29.7	13.6	9.90e-06	0	41	0	115343360	18	4222
2026-01-29 07:58:46.08	82.26	9.36	-28.3	-29.7	13.6	8.30e-06	0	42	0	118489088	18	4220
2026-01-29 07:58:47.08	82.13	9.42	-28.5	-30.1	13.4	1.98e-05	0	42	0	121634816	18	4341
2026-01-29 07:58:48.08	82.00	9.48	-28.3	-29.7	13.6	1.14e-05	0	42	0	124780544	18	4221
2026-01-29 07:58:49.08	81.88	9.53	-28.3	-30.1	13.7	5.30e-06	0	42	0	127926272	17	4441
2026-01-29 07:58:50.09	81.74	9.59	-28.3	-30.1	13.7	9.10e-06	0	42	0	131072000	17	4425
2026-01-29 07:58:51.09	81.61	9.65	-28.2	-29.9	13.8	6.80e-06	0	42	0	134217728	17	4366
2026-01-29 07:58:52.08	81.48	9.71	-28.3	-30.2	13.7	5.30e-06	0	41	0	137363456	17	4454
2026-01-29 07:58:53.09	81.35	9.77	-28.1	-29.7	14.0	3.80e-06	0	42	0	140509184	17	4311
2026-01-29 07:58:54.10	81.22	9.83	-28.0	-29.4	14.1	4.50e-06	0	42	0	143654912	17	4241
2026-01-29 07:58:55.10	81.09	9.88	-28.0	-29.4	14.2	2.20e-06	0	42	0	146800640	17	4217
2026-01-29 07:58:56.10	80.95	9.94	-28.0	-29.3	14.2	7.00e-07	0	42	0	149946368	17	4208
2026-01-29 07:58:57.10	80.82	10.00	-28.0	-29.5	14.1	1.50e-06	0	42	0	153092096	17	4254
2026-01-29 07:58:58.11	80.69	10.06	-28.0	-29.3	14.2	7.00e-07	0	42	0	156237824	17	4209
2026-01-29 07:58:59.11	80.55	10.12	-28.1	-29.6	14.1	7.00e-07	0	42	0	159383552	17	4272
2026-01-29 07:59:00.11	80.42	10.17	-28.1	-29.5	14.1	3.00e-06	0	42	0	162529280	17	4261
2026-01-29 07:59:01.11	80.28	10.23	-28.1	-29.6	14.0	2.20e-06	0	42	0	165675008	17	4279
2026-01-29 07:59:02.12	80.14	10.29	-28.0	-29.3	14.2	7.00e-07	0	42	0	168820736	17	4202
2026-01-29 07:59:03.11	80.01	10.35	-28.0	-29.3	14.2	1.50e-06	0	42	0	171966464	17	4204
2026-01-29 07:59:04.11	79.87	10.41	-27.9	-29.2	14.3	0.00e+00	0	42	0	175112192	17	4160
2026-01-29 07:59:05.12	79.73	10.46	-28.0	-29.4	14.2	3.00e-06	0	42	0	178257920	17	4215
2026-01-29 07:59:06.13	79.59	10.52	-28.1	-29.7	14.0	2.20e-06	0	42	0	181403648	17	4302
2026-01-29 07:59:07.13	79.45	10.58	-28.2	-29.9	13.9	6.10e-06	0	42	0	184549376	17	4353
2026-01-29 07:59:08.14	79.31	10.64	-28.3	-30.0	13.8	1.50e-06	0	42	0	187695104	17	4401
2026-01-29 07:59:09.15	79.17	10.70	-28.3	-30.2	13.8	3.00e-06	0	42	0	190840832	17	4450
2026-01-29 07:59:10.15	79.03	10.75	-28.4	-30.3	13.7	3.00e-06	0	42	0	193986560	17	4475
2026-01-29 07:59:11.16	78.89	10.81	-28.4	-30.4	13.6	4.50e-06	0	42	0	197132288	17	4518
2026-01-29 07:59:12.16	78.75	10.87	-28.4	-30.3	13.7	4.50e-06	0	42	0	200278016	17	4491
2026-01-29 07:59:13.16	78.60	10.93	-28.5	-30.6	13.6	9.90e-06	0	42	0	203423744	17	4566
2026-01-29 07:59:14.16	78.46	10.99	-28.3	-30.0	13.9	3.80e-06	0	42	0	206569472	17	4378
2026-01-29 07:59:15.17	78.32	11.04	-28.1	-29.6	14.1	7.00e-07	0	42	0	209715200	17	4275
2026-01-29 07:59:16.17	78.17	11.10	-28.0	-29.4	14.3	1.50e-06	0	42	0	212860928	17	4218
2026-01-29 07:59:17.17	78.03	11.16	-28.1	-29.5	14.2	7.00e-07	0	42	0	216006656	17	4240
2026-01-29 07:59:18.17	77.88	11.22	-28.0	-29.4	14.3	1.50e-06	0	42	0	219152384	17	4229
2026-01-29 07:59:19.17	77.74	11.27	-28.0	-29.4	14.3	3.00e-06	0	42	0	222298112	17	4223
2026-01-29 07:59:20.17	77.59	11.33	-28.1	-29.5	14.2	1.50e-06	0	42	0	225443840	17	4259
2026-01-29 07:59:21.17	77.44	11.39	-28.1	-29.7	14.1	7.00e-07	0	42	0	228589568	17	4294
2026-01-29 07:59:22.17	77.30	11.44	-28.1	-29.6	14.2	7.00e-07	0	42	0	231735296	17	4270
2026-01-29 07:59:23.18	77.15	11.50	-28.0	-29.4	14.3	7.00e-07	0	42	0	234881024	17	4230
2026-01-29 07:59:24.18	77.00	11.56	-28.1	-29.5	14.2	7.00e-07	0	42	0	238026752	17	4253
2026-01-29 07:59:25.19	76.85	11.62	-28.0	-29.4	14.3	2.20e-06	0	42	0	241172480	17	4207
2026-01-29 07:59:26.19	76.70	11.67	-28.0	-29.5	14.3	0.00e+00	0	42	0	244318208	17	4234
2026-01-29 07:59:27.19	76.55	11.73	-28.1	-29.6	14.2	3.00e-06	0	42	0	247463936	17	4275
2026-01-29 07:59:28.19	76.40	11.79	-28.0	-29.3	14.4	1.50e-06	0	42	0	250609664	17	4196
2026-01-29 07:59:29.20	76.24	11.84	-28.1	-29.6	14.2	7.00e-07	0	42	0	253755392	17	4266
2026-01-29 07:59:30.21	76.09	11.90	-28.1	-29.7	14.2	1.50e-06	0	42	0	256901120	17	4297
2026-01-29 07:59:31.21	75.94	11.96	-28.1	-29.6	14.2	7.00e-07	0	42	0	260046848	17	4281
2026-01-29 07:59:32.22	75.78	12.02	-28.2	-29.8	14.1	3.80e-06	0	42	0	263192576	17	4341
2026-01-29 07:59:33.22	75.63	12.07	-28.3	-30.0	14.0	7.00e-07	0	42	0	266338304	17	4378
2026-01-29 07:59:34.22	75.47	12.13	-28.3	-30.0	14.0	3.00e-06	0	42	0	269484032	17	4380
2026-01-29 07:59:35.23	75.32	12.19	-28.3	-29.9	14.1	1.50e-06	0	42	0	272629760	17	4364
2026-01-29 07:59:36.24	75.16	12.24	-28.3	-30.0	14.0	3.00e-06	0	42	0	275775488	17	4386
2026-01-29 07:59:37.24	75.00	12.30	-28.2	-29.8	14.1	1.50e-06	0	42	0	278921216	17	4323
2026-01-29 07:59:38.24	74.84	12.35	-28.2	-29.8	14.2	8.30e-06	0	42	0	282066944	17	4317
2026-01-29 07:59:39.24	74.69	12.41	-28.2	-29.8	14.1	2.20e-06	0	42	0	285212672	17	4327
2026-01-29 07:59:40.25	74.53	12.47	-28.2	-29.9	14.1	3.00e-06	0	42	0	288358400	17	4349
2026-01-29 07:59:41.26	74.37	12.52	-28.3	-30.0	14.0	1.50e-06	0	42	0	291504128	17	4396
2026-01-29 07:59:42.27	74.21	12.58	-28.2	-29.8	14.2	1.50e-06	0	42	0	294649856	17	4326
2026-01-29 07:59:43.27	74.05	12.63	-28.2	-29.8	14.2	0.00e+00	0	42	0	297795584	17	4323
2026-01-29 07:59:44.27	73.89	12.69	-28.3	-30.0	14.0	1.29e-05	0	42	0	300941312	17	4396
2026-01-29 07:59:45.27	73.72	12.75	-28.2	-29.8	14.1	2.20e-06	0	42	0	304087040	17	4338
2026-01-29 07:59:46.28	73.56	12.80	-28.3	-30.0	14.0	3.00e-06	0	42	0	307232768	17	4392
2026-01-29 07:59:47.28	73.40	12.86	-28.3	-30.0	14.0	9.10e-06	0	42	0	310378496	17	4402
2026-01-29 07:59:48.28	73.23	12.91	-28.3	-30.0	14.1	1.50e-06	0	42	0	313524224	17	4383
2026-01-29 07:59:49.29	73.07	12.97	-28.3	-30.0	14.0	0.00e+00	0	42	0	316669952	17	4400
2026-01-29 07:59:50.30	72.90	13.02	-28.3	-30.0	14.1	9.10e-06	0	42	0	319815680	17	4382
2026-01-29 07:59:51.30	72.74	13.08	-28.1	-29.6	14.3	7.00e-07	0	42	0	322961408	17	4284
2026-01-29 07:59:52.30	72.57	13.13	-28.1	-29.6	14.4	7.00e-07	0	42	0	326107136	17	4259
2026-01-29 07:59:53.31	72.40	13.19	-28.0	-29.4	14.4	3.80e-06	0	42	0	329252864	17	4208
2026-01-29 07:59:54.32	72.24	13.24	-28.1	-29.6	14.3	7.00e-07	0	42	0	332398592	17	4257
2026-01-29 07:59:55.32	72.07	13.30	-28.0	-29.4	14.5	7.00e-07	0	43	0	335544320	17	4196
2026-01-29 07:59:56.32	71.90	13.35	-28.2	-29.6	14.3	1.50e-06	0	42	0	338690048	17	4273
2026-01-29 07:59:57.32	71.73	13.41	-28.1	-29.4	14.4	0.00e+00	0	42	0	341835776	17	4211
2026-01-29 07:59:58.32	71.56	13.46	-28.0	-29.3	14.5	7.00e-07	0	42	0	344981504	17	4180
2026-01-29 07:59:59.33	71.39	13.51	-28.0	-29.3	14.5	6.80e-06	0	43	0	348127232	17	4187
2026-01-29 08:00:00.33	71.22	13.57	-27.9	-29.1	14.6	0.00e+00	0	42	0	350224384	17	4139
2026-01-29 08:00:01.33	71.05	13.62	-28.0	-29.4	14.5	7.00e-07	0	42	0	354418688	17	4206
2026-01-29 08:00:02.34	70.88	13.67	-28.1	-29.6	14.3	7.00e-07	0	42	0	357564416	17	4270
2026-01-29 08:00:03.34	70.70	13.73	-28.2	-29.8	14.2	0.00e+00	0	42	0	360710144	17	4311
2026-01-29 08:00:04.35	70.53	13.78	-28.2	-29.7	14.3	7.00e-07	0	43	0	363855872	17	4305
2026-01-29 08:00:05.35	70.35	13.83	-28.2	-29.7	14.3	0.00e+00	0	42	0	367001600	17	4297
2026-01-29 08:00:06.35	70.18	13.89	-28.3	-30.0	14.2	7.00e-07	0	42	0	370147328	17	4370
2026-01-29 08:00:07.36	70.00	13.94	-28.3	-30.0	14.2	7.00e-07	0	42	0	372244480	17	4384
2026-01-29 08:00:08.35	69.83	13.99	-28.3	-30.0	14.2	3.00e-06	0	42	0	375390208	17	4380
2026-01-29 08:00:09.35	69.65	14.05	-28.4	-30.3	14.0	7.60e-06	0	42	0	378535936	17	4470
2026-01-29 08:00:10.36	69.47	14.10	-28.2	-29.8	14.3	2.20e-06	0	42	0	381681664	17	4306
2026-01-29 08:00:11.36	69.30	14.15	-28.2	-29.7	14.3	0.00e+00	0	42	0	384827392	17	4283
2026-01-29 08:00:12.37	69.12	14.20	-28.2	-29.6	14.4	7.00e-07	0	43	0	387973120	17	4265
2026-01-29 08:00:13.37	68.94	14.25	-28.2	-29.6	14.4	7.00e-07	0	43	0	391118848	17	4262
2026-01-29 08:00:14.38	68.76	14.31	-28.1	-29.5	14.5	0.00e+00	0	42	0	394264576	17	4232
2026-01-29 08:00:15.38	68.58	14.36	-28.1	-29.5	14.5	0.00e+00	0	42	0	397410304	17	4227
2026-01-29 08:00:16.39	68.39	14.41	-28.1	-29.5	14.5	7.00e-07	0	42	0	400556032	17	4232
2026-01-29 08:00:17.39	68.21	14.46	-28.1	-29.5	14.5	0.00e+00	0	43	0	403701760	17	4231
2026-01-29 08:00:18.39	68.03	14.51	-28.1	-29.5	14.5	7.00e-07	0	43	0	406847488	17	4241
2026-01-29 08:00:19.40	67.85	14.56	-28.1	-29.4	14.6	0.00e+00	0	42	0	409993216	17	4203
2026-01-29 08:00:20.40	67.66	14.61	-28.0	-29.3	14.6	0.00e+00	0	43	0	413138944	17	4181
2026-01-29 08:00:21.40	67.48	14.66	-28.0	-29.4	14.6	0.00e+00	0	42	0	416284672	17	4192
2026-01-29 08:00:22.41	67.29	14.71	-28.1	-29.4	14.5	7.00e-07	0	43	0	419430400	17	4207
2026-01-29 08:00:23.41	67.11	14.76	-28.2	-29.6	14.4	1.50e-06	0	43	0	422576128	17	4266
2026-01-29 08:00:24.42	66.92	14.81	-28.1	-29.5	14.5	7.00e-07	0	42	0	425721856	17	4222
2026-01-29 08:00:25.42	66.73	14.86	-28.0	-29.4	14.6	0.00e+00	0	43	0	428867584	17	4192
2026-01-29 08:00:26.42	66.55	14.91	-28.1	-29.5	14.5	0.00e+00	0	43	0	432013312	17	4239
2026-01-29 08:00:27.43	66.36	14.96	-28.1	-29.4	14.6	0.00e+00	0	43	0	435159040	17	4200
2026-01-29 08:00:28.42	66.17	15.01	-28.0	-29.3	14.7	7.00e-07	0	42	0	438304768	17	4167
2026-01-29 08:00:29.42	65.98	15.06	-28.1	-29.4	14.6	0.00e+00	0	43	0	441450496	17	4199
2026-01-29 08:00:30.42	65.79	15.11	-28.1	-29.4	14.6	0.00e+00	0	43	0	444596224	17	4193
2026-01-29 08:00:31.43	65.60	15.16	-28.0	-29.2	14.7	0.00e+00	0	43	0	447741952	17	4146
2026-01-29 08:00:32.43	65.41	15.20	-28.1	-29.4	14.6	0.00e+00	0	43	0	450887680	17	4201
2026-01-29 08:00:33.44	65.22	15.25	-28.1	-29.5	14.6	0.00e+00	0	43	0	454033408	17	4225
2026-01-29 08:00:34.44	65.03	15.30	-28.2	-29.6	14.5	0.00e+00	0	43	0	457179136	17	4268
2026-01-29 08:00:35.44	64.83	15.35	-28.2	-29.6	14.5	0.00e+00	0	43	0	460324864	17	4262
2026-01-29 08:00:36.44	64.64	15.39	-28.1	-29.5	14.6	7.00e-07	0	43	0	463470592	17	4237
2026-01-29 08:00:37.45	64.44	15.44	-28.1	-29.5	14.5	0.00e+00	0	43	0	466616320	17	4237
2026-01-29 08:00:38.45	64.25	15.49	-28.1	-29.5	14.6	1.50e-06	0	43	0	469762048	17	4217
2026-01-29 08:00:39.46	64.05	15.53	-28.0	-29.2	14.7	0.00e+00	0	43	0	472907776	17	4149
2026-01-29 08:00:40.47	63.86	15.58	-28.0	-29.3	14.7	0.00e+00	0	43	0	476053504	17	4162
2026-01-29 08:00:41.47	63.66	15.63	-28.2	-29.6	14.5	0.00e+00	0	43	0	479199232	17	4267
2026-01-29 08:00:42.47	63.46	15.67	-28.2	-29.8	14.4	2.20e-06	0	43	0	482344960	17	4308
2026-01-29 08:00:43.48	63.26	15.72	-28.3	-29.9	14.4	7.00e-07	0	43	0	485490688	17	4337
2026-01-29 08:00:44.49	63.06	15.76	-28.3	-30.0	14.3	0.00e+00	0	43	0	488636416	17	4378
2026-01-29 08:00:45.49	62.86	15.81	-28.3	-29.9	14.4	1.50e-06	0	43	0	491782144	17	4328
2026-01-29 08:00:46.49	62.67	15.85	-28.0	-29.3	14.7	0.00e+00	0	43	0	494927872	17	4155
2026-01-29 08:00:47.50	62.46	15.90	-27.9	-29.0	14.9	0.00e+00	0	43	0	498073600	17	4079
2026-01-29 08:00:48.49	62.26	15.94	-27.9	-29.0	14.9	0.00e+00	0	43	0	501219328	17	4084
2026-01-29 08:00:49.50	62.06	15.98	-27.9	-29.1	14.8	0.00e+00	0	43	0	504365056	17	4111
2026-01-29 08:00:50.50	61.86	16.03	-28.1	-29.4	14.6	0.00e+00	0	43	0	507510784	17	4193
2026-01-29 08:00:51.51	61.66	16.07	-28.2	-29.6	14.6	0.00e+00	0	43	0	510656512	17	4245
2026-01-29 08:00:52.51	61.45	16.11	-27.8	-28.9	15.0	1.50e-06	0	43	0	513802240	17	4047
2026-01-29 08:00:53.52	61.25	16.16	-27.6	-28.9	15.3	0.00e+00	0	43	0	516947968	16	4151
2026-01-29 08:00:54.52	61.04	16.20	-27.6	-28.9	15.3	0.00e+00	0	43	0	520093696	16	4149
2026-01-29 08:00:55.53	60.84	16.24	-27.6	-28.8	15.3	0.00e+00	0	43	0	523239424	16	4141
2026-01-29 08:00:56.54	60.63	16.28	-27.5	-28.6	15.5	0.00e+00	0	43	0	526385152	16	4072
2026-01-29 08:00:57.55	60.42	16.33	-27.5	-28.5	15.5	0.00e+00	0	43	0	529530880	16	4061
2026-01-29 08:00:58.54	60.22	16.37	-27.5	-28.5	15.5	0.00e+00	0	43	0	532676608	16	4063
2026-01-29 08:00:59.55	60.01	16.41	-27.5	-28.6	15.4	0.00e+00	0	43	0	535822336	16	4084
2026-01-29 08:01:00.56	59.80	16.45	-27.6	-28.8	15.3	0.00e+00	0	43	0	538968064	16	4137
2026-01-29 08:01:01.56	59.59	16.49	-27.7	-29.0	15.2	0.00e+00	0	43	0	542113792	16	4204
2026-01-29 08:01:02.57	59.38	16.53	-27.8	-29.2	15.2	7.00e-07	0	43	0	545259520	16	4232
2026-01-29 08:01:03.57	59.17	16.57	-27.7	-29.1	15.2	7.00e-07	0	43	0	548405248	16	4216
2026-01-29 08:01:04.58	58.96	16.61	-27.9	-29.4	15.0	3.00e-06	0	43	0	551550976	16	4298
2026-01-29 08:01:05.58	58.75	16.65	-28.0	-29.6	14.9	0.00e+00	0	43	0	554696704	16	4360
2026-01-29 08:01:06.58	58.54	16.68	-28.0	-29.7	14.8	0.00e+00	0	43	0	557842432	16	4397
2026-01-29 08:01:07.59	58.33	16.72	-27.9	-29.6	14.9	0.00e+00	0	43	0	560988160	16	4341
2026-01-29 08:01:08.59	58.11	16.76	-28.0	-29.6	14.9	0.00e+00	0	43	0	564133888	16	4366
2026-01-29 08:01:09.59	57.90	16.80	-27.9	-29.6	14.9	0.00e+00	0	43	0	567279616	16	4345
2026-01-29 08:01:10.60	57.69	16.84	-27.9	-29.4	15.0	7.00e-07	0	43	0	570425344	16	4309
2026-01-29 08:01:11.60	57.47	16.87	-27.9	-29.5	15.0	7.00e-07	0	43	0	573571072	16	4326
2026-01-29 08:01:12.60	57.26	16.91	-27.8	-29.4	15.0	0.00e+00	0	43	0	576716800	16	4287
2026-01-29 08:01:13.61	57.04	16.94	-27.9	-29.5	15.0	0.00e+00	0	43	0	579862528	16	4323
2026-01-29 08:01:14.61	56.83	16.98	-27.8	-29.2	15.1	0.00e+00	0	43	0	583008256	16	4234
2026-01-29 08:01:15.62	56.61	17.02	-27.5	-28.6	15.4	0.00e+00	0	43	0	586153984	16	4084
2026-01-29 08:01:16.62	56.40	17.05	-27.4	-28.3	15.6	0.00e+00	0	42	0	589299712	16	4006
2026-01-29 08:01:17.62	56.18	17.09	-27.3	-28.2	15.7	0.00e+00	0	43	0	592445440	16	3976
2026-01-29 08:01:18.62	55.96	17.12	-27.4	-28.3	15.6	0.00e+00	0	43	0	595591168	16	3997
2026-01-29 08:01:19.63	55.74	17.15	-27.4	-28.3	15.7	0.00e+00	0	43	0	598736896	16	3994
2026-01-29 08:01:20.62	55.53	17.19	-27.4	-28.3	15.6	0.00e+00	0	43	0	601882624	16	4007
2026-01-29 08:01:21.63	55.31	17.22	-27.4	-28.4	15.6	0.00e+00	0	43	0	605028352	16	4026
2026-01-29 08:01:22.63	55.09	17.25	-27.3	-28.2	15.7	0.00e+00	0	43	0	608174080	16	3980
2026-01-29 08:01:23.63	54.87	17.28	-27.5	-28.6	15.5	0.00e+00	0	43	0	611319808	16	4070
2026-01-29 08:01:24.63	54.65	17.32	-27.5	-28.6	15.5	0.00e+00	0	43	0	614465536	16	4078
2026-01-29 08:01:25.64	54.43	17.35	-27.6	-28.7	15.4	0.00e+00	0	43	0	617611264	16	4117
2026-01-29 08:01:26.64	54.20	17.38	-27.6	-28.8	15.4	0.00e+00	0	43	0	620756992	16	4138
2026-01-29 08:01:27.65	53.98	17.41	-27.6	-28.9	15.3	0.00e+00	0	43	0	623902720	16	4149
2026-01-29 08:01:28.65	53.76	17.44	-27.6	-28.8	15.4	0.00e+00	0	43	0	627048448	16	4141
2026-01-29 08:01:29.66	53.54	17.47	-27.6	-28.9	15.4	0.00e+00	0	43	0	630194176	16	4149
2026-01-29 08:01:30.65	53.31	17.50	-27.6	-28.7	15.4	0.00e+00	0	43	0	633339904	16	4111
2026-01-29 08:01:31.66	53.09	17.53	-27.6	-28.7	15.4	0.00e+00	0	43	0	636485632	16	4117
2026-01-29 08:01:32.67	52.86	17.56	-27.7	-29.0	15.3	0.00e+00	0	43	0	639631360	16	4192
2026-01-29 08:01:33.67	52.64	17.59	-27.7	-29.1	15.2	0.00e+00	0	43	0	642777088	16	4217
2026-01-29 08:01:34.67	52.42	17.61	-27.8	-29.2	15.1	0.00e+00	0	43	0	645922816	16	4254
2026-01-29 08:01:35.68	52.19	17.64	-27.8	-29.1	15.2	0.00e+00	0	43	0	649068544	16	4225
2026-01-29 08:01:36.69	51.96	17.67	-27.7	-29.0	15.3	0.00e+00	0	43	0	652214272	16	4189
2026-01-29 08:01:37.70	51.73	17.70	-27.7	-29.1	15.2	0.00e+00	0	43	0	655360000	16	4221
2026-01-29 08:01:38.71	51.51	17.72	-27.7	-29.0	15.3	7.00e-07	0	43	0	658505728	16	4184
2026-01-29 08:01:39.71	51.28	17.75	-27.7	-28.9	15.3	0.00e+00	0	43	0	661651456	16	4170
2026-01-29 08:01:40.71	51.05	17.77	-27.8	-29.3	15.1	0.00e+00	0	43	0	664797184	16	4259
2026-01-29 08:01:41.71	50.83	17.80	-27.7	-29.0	15.3	0.00e+00	0	43	0	667942912	16	4191
2026-01-29 08:01:42.72	50.60	17.82	-27.6	-28.8	15.4	0.00e+00	0	43	0	671088640	16	4136
2026-01-29 08:01:43.72	50.37	17.85	-27.6	-28.7	15.4	0.00e+00	0	43	0	674234368	16	4112
2026-01-29 08:01:44.72	50.14	17.87	-27.6	-28.9	15.4	0.00e+00	0	43	0	677380096	16	4153
2026-01-29 08:01:45.73	49.91	17.89	-27.7	-29.0	15.3	0.00e+00	0	43	0	680525824	16	4183
2026-01-29 08:01:46.74	49.68	17.92	-27.6	-28.8	15.4	0.00e+00	0	43	0	683671552	16	4129
2026-01-29 08:01:47.74	49.45	17.94	-27.6	-28.8	15.4	0.00e+00	0	43	0	686817280	16	4120
2026-01-29 08:01:48.74	49.22	17.96	-27.6	-28.9	15.4	0.00e+00	0	43	0	689963008	16	4145
2026-01-29 08:01:49.74	48.99	17.98	-27.6	-28.8	15.4	0.00e+00	0	43	0	693108736	16	4143
2026-01-29 08:01:50.73	48.76	18.00	-27.7	-29.0	15.3	0.00e+00	0	43	0	696254464	16	4182
2026-01-29 08:01:51.73	48.53	18.02	-27.7	-29.1	15.2	0.00e+00	0	43	0	699400192	16	4202
2026-01-29 08:01:52.74	48.30	18.04	-27.8	-29.2	15.1	7.00e-07	0	43	0	702545920	16	4248
2026-01-29 08:01:53.74	48.07	18.06	-27.8	-29.3	15.1	0.00e+00	0	43	0	705691648	16	4281
2026-01-29 08:01:54.74	47.84	18.08	-27.8	-29.3	15.1	0.00e+00	0	43	0	708837376	16	4266
2026-01-29 08:01:55.75	47.60	18.10	-27.8	-29.1	15.2	0.00e+00	0	43	0	711983104	16	4224
2026-01-29 08:01:56.75	47.37	18.12	-27.7	-29.1	15.2	0.00e+00	0	43	0	715128832	16	4199
2026-01-29 08:01:57.75	47.14	18.13	-27.6	-28.8	15.4	0.00e+00	0	43	0	718274560	16	4124
2026-01-29 08:01:58.75	46.91	18.15	-27.6	-28.8	15.4	0.00e+00	0	43	0	720371712	16	4134
2026-01-29 08:01:59.76	46.67	18.17	-27.8	-29.2	15.2	0.00e+00	0	43	0	723517440	16	4225
2026-01-29 08:02:00.75	46.44	18.18	-27.7	-28.9	15.3	0.00e+00	0	43	0	726663168	16	4165
2026-01-29 08:02:01.76	46.21	18.20	-27.6	-28.8	15.4	0.00e+00	0	43	0	729808896	16	4125
2026-01-29 08:02:02.76	45.97	18.21	-27.6	-28.7	15.4	0.00e+00	0	43	0	732954624	16	4106
2026-01-29 08:02:03.77	45.74	18.23	-27.6	-28.8	15.4	0.00e+00	0	43	0	736100352	16	4117
2026-01-29 08:02:04.76	45.51	18.24	-27.6	-28.8	15.4	0.00e+00	0	43	0	739246080	16	4128
2026-01-29 08:02:05.77	45.27	18.26	-27.6	-28.8	15.4	0.00e+00	0	43	0	742391808	16	4131
2026-01-29 08:02:06.77	45.03	18.27	-27.7	-28.9	15.3	0.00e+00	0	43	0	745537536	16	4164
2026-01-29 08:02:07.77	44.80	18.28	-27.6	-28.8	15.4	0.00e+00	0	43	0	748683264	16	4126
2026-01-29 08:02:08.78	44.56	18.29	-27.6	-28.7	15.4	0.00e+00	0	43	0	751828992	16	4105
2026-01-29 08:02:09.78	44.33	18.30	-27.6	-28.9	15.4	7.00e-07	0	43	0	754974720	16	4154
2026-01-29 08:02:10.79	44.09	18.32	-27.6	-28.8	15.4	0.00e+00	0	43	0	758120448	16	4131
2026-01-29 08:02:11.79	43.86	18.33	-27.7	-29.0	15.3	0.00e+00	0	43	0	761266176	16	4173
2026-01-29 08:02:12.80	43.62	18.34	-27.7	-28.9	15.3	0.00e+00	0	43	0	764411904	16	4161
2026-01-29 08:02:13.80	43.38	18.35	-27.6	-28.9	15.3	0.00e+00	0	43	0	767557632	16	4160
2026-01-29 08:02:14.80	43.15	18.36	-27.7	-29.0	15.3	0.00e+00	0	43	0	770703360	16	4175
2026-01-29 08:02:15.80	42.91	18.36	-27.7	-29.0	15.3	7.00e-07	0	43	0	773849088	16	4181
2026-01-29 08:02:16.80	42.68	18.37	-27.7	-29.1	15.2	0.00e+00	0	43	0	776994816	16	4201
2026-01-29 08:02:17.80	42.44	18.38	-27.8	-29.2	15.1	0.00e+00	0	43	0	780140544	16	4243
2026-01-29 08:02:18.81	42.20	18.39	-27.9	-29.5	15.0	0.00e+00	0	43	0	783286272	16	4314
2026-01-29 08:02:19.82	41.96	18.39	-27.8	-29.3	15.1	0.00e+00	0	43	0	786432000	16	4278
2026-01-29 08:02:20.81	41.73	18.40	-27.8	-29.2	15.1	0.00e+00	0	43	0	789577728	16	4252
2026-01-29 08:02:21.82	41.49	18.41	-27.8	-29.3	15.1	0.00e+00	0	43	0	792723456	16	4272
2026-01-29 08:02:22.82	41.25	18.41	-28.0	-29.7	14.9	0.00e+00	0	43	0	795869184	16	4383
2026-01-29 08:02:23.83	41.02	18.42	-27.8	-29.3	15.1	0.00e+00	0	43	0	799014912	16	4262
2026-01-29 08:02:24.83	40.78	18.42	-27.8	-29.3	15.1	0.00e+00	0	43	0	802160640	16	4258
2026-01-29 08:02:25.83	40.54	18.42	-28.0	-29.8	14.8	0.00e+00	0	43	0	805306368	16	4408
2026-01-29 08:02:26.83	40.31	18.43	-27.8	-29.2	15.2	0.00e+00	0	43	0	808452096	16	4232
2026-01-29 08:02:27.83	40.07	18.43	-27.6	-28.8	15.4	0.00e+00	0	43	0	811597824	16	4117
2026-01-29 08:02:28.84	39.83	18.43	-27.6	-28.7	15.4	0.00e+00	0	43	0	814743552	16	4105
2026-01-29 08:02:29.85	39.59	18.43	-27.6	-28.9	15.3	0.00e+00	0	43	0	817889280	16	4150
2026-01-29 08:02:30.85	39.35	18.43	-27.9	-29.4	15.0	0.00e+00	0	43	0	821035008	16	4288
2026-01-29 08:02:31.85	39.12	18.43	-27.7	-29.1	15.2	7.00e-07	0	43	0	824180736	16	4204
2026-01-29 08:02:32.85	38.88	18.43	-27.5	-28.7	15.4	0.00e+00	0	43	0	827326464	16	4102
2026-01-29 08:02:33.86	38.64	18.43	-27.5	-28.6	15.4	0.00e+00	0	43	0	830472192	16	4077
2026-01-29 08:02:34.86	38.40	18.43	-27.5	-28.6	15.5	0.00e+00	0	43	0	833617920	16	4074
2026-01-29 08:02:35.87	38.16	18.43	-27.5	-28.5	15.5	0.00e+00	0	43	0	836763648	16	4057
2026-01-29 08:02:36.87	37.93	18.43	-27.6	-28.9	15.3	0.00e+00	0	43	0	839909376	16	4157
2026-01-29 08:02:37.87	37.69	18.43	-27.6	-28.8	15.4	0.00e+00	0	43	0	843055104	16	4123
2026-01-29 08:02:38.87	37.45	18.42	-27.7	-29.0	15.2	0.00e+00	0	43	0	846200832	16	4203
2026-01-29 08:02:39.87	37.22	18.42	-27.6	-28.9	15.3	0.00e+00	0	43	0	849346560	16	4153
2026-01-29 08:02:40.87	36.98	18.42	-27.5	-28.5	15.5	0.00e+00	0	43	0	852492288	16	4064
2026-01-29 08:02:41.87	36.74	18.41	-27.5	-28.5	15.5	0.00e+00	0	43	0	855638016	16	4063
2026-01-29 08:02:42.87	36.51	18.41	-27.5	-28.5	15.5	0.00e+00	0	43	0	858783744	16	4062
2026-01-29 08:02:43.88	36.27	18.40	-27.5	-28.5	15.5	0.00e+00	0	43	0	861929472	16	4049
2026-01-29 08:02:44.89	36.03	18.39	-27.5	-28.6	15.4	0.00e+00	0	43	0	865075200	16	4090
2026-01-29 08:02:45.90	35.79	18.39	-27.5	-28.5	15.5	0.00e+00	0	43	0	868220928	16	4066
2026-01-29 08:02:46.90	35.56	18.38	-27.5	-28.5	15.5	0.00e+00	0	43	0	871366656	16	4047
2026-01-29 08:02:47.90	35.32	18.37	-27.6	-28.8	15.3	0.00e+00	0	43	0	874512384	16	4125
2026-01-29 08:02:48.90	35.09	18.37	-27.5	-28.6	15.4	0.00e+00	0	43	0	877658112	16	4085
2026-01-29 08:02:49.90	34.85	18.36	-27.6	-28.8	15.3	0.00e+00	0	43	0	880803840	16	4123
2026-01-29 08:02:50.90	34.61	18.35	-27.7	-29.0	15.2	0.00e+00	0	43	0	883949568	16	4188
2026-01-29 08:02:51.90	34.38	18.34	-27.5	-28.6	15.4	0.00e+00	0	43	0	887095296	16	4093
2026-01-29 08:02:52.91	34.14	18.33	-27.4	-28.3	15.6	0.00e+00	0	43	0	890241024	16	4013
2026-01-29 08:02:53.91	33.91	18.32	-27.4	-28.3	15.6	0.00e+00	0	43	0	893386752	16	4012
2026-01-29 08:02:54.91	33.67	18.31	-27.6	-28.8	15.4	0.00e+00	0	43	0	896532480	16	4122
2026-01-29 08:02:55.91	33.44	18.30	-27.4	-28.4	15.6	0.00e+00	0	43	0	899678208	16	4038
2026-01-29 08:02:56.92	33.20	18.28	-27.4	-28.4	15.6	0.00e+00	0	43	0	902823936	16	4020
2026-01-29 08:02:57.91	32.97	18.27	-27.6	-28.8	15.4	0.00e+00	0	43	0	905969664	16	4123
2026-01-29 08:02:58.92	32.73	18.26	-27.6	-28.8	15.3	0.00e+00	0	43	0	909115392	16	4139
2026-01-29 08:02:59.92	32.50	18.24	-27.6	-28.9	15.3	0.00e+00	0	43	0	912261120	16	4165
2026-01-29 08:03:00.93	32.26	18.23	-27.6	-28.9	15.3	0.00e+00	0	43	0	915406848	16	4151
2026-01-29 08:03:01.94	32.03	18.22	-27.7	-29.0	15.2	0.00e+00	0	43	0	918552576	16	4177
2026-01-29 08:03:02.94	31.79	18.20	-27.7	-28.9	15.2	7.00e-07	0	43	0	921698304	16	4173
2026-01-29 08:03:03.95	31.56	18.18	-27.6	-28.8	15.3	0.00e+00	0	43	0	924844032	16	4143
2026-01-29 08:03:04.94	31.33	18.17	-27.6	-28.9	15.3	0.00e+00	0	43	0	927989760	16	4154
2026-01-29 08:03:05.95	31.09	18.15	-27.7	-29.1	15.2	1.50e-06	0	43	0	931135488	16	4205
2026-01-29 08:03:06.95	30.86	18.14	-27.5	-28.6	15.4	0.00e+00	0	43	0	934281216	16	4081
2026-01-29 08:03:07.96	30.63	18.12	-27.4	-28.3	15.6	0.00e+00	0	43	0	937426944	16	4015
2026-01-29 08:03:08.96	30.39	18.10	-27.5	-28.5	15.5	0.00e+00	0	43	0	940572672	16	4052
2026-01-29 08:03:09.96	30.16	18.08	-27.4	-28.4	15.5	0.00e+00	0	43	0	943718400	16	4030
2026-01-29 08:03:10.97	29.93	18.06	-27.4	-28.5	15.5	0.00e+00	0	43	0	946864128	16	4046
2026-01-29 08:03:11.97	29.70	18.04	-27.5	-28.6	15.4	1.50e-06	0	43	0	950009856	16	4088
2026-01-29 08:03:12.97	29.47	18.02	-27.3	-28.2	15.6	0.00e+00	0	43	0	953155584	16	3967
2026-01-29 08:03:13.97	29.24	18.00	-27.1	-28.1	15.8	0.00e+00	0	43	0	956301312	15	4068
2026-01-29 08:03:14.97	29.01	17.98	-27.0	-28.0	15.9	0.00e+00	0	43	0	959447040	15	4037
2026-01-29 08:03:15.97	28.78	17.96	-27.1	-28.2	15.7	0.00e+00	0	43	0	962592768	15	4082
2026-01-29 08:03:16.98	28.55	17.94	-27.0	-28.0	15.8	0.00e+00	0	43	0	965738496	15	4047
2026-01-29 08:03:17.98	28.32	17.92	-27.1	-28.3	15.7	0.00e+00	0	43	0	968884224	15	4104
2026-01-29 08:03:18.99	28.09	17.90	-27.1	-28.2	15.7	0.00e+00	0	43	0	972029952	15	4096
2026-01-29 08:03:19.99	27.86	17.87	-27.2	-28.4	15.7	0.00e+00	0	43	0	975175680	15	4131
2026-01-29 08:03:21.00	27.63	17.85	-27.3	-28.7	15.4	0.00e+00	0	43	0	978321408	15	4234
2026-01-29 08:03:22.00	27.40	17.83	-27.2	-28.4	15.6	0.00e+00	0	43	0	981467136	15	4145
2026-01-29 08:03:23.01	27.17	17.80	-27.2	-28.4	15.6	0.00e+00	0	43	0	984612864	15	4146
2026-01-29 08:03:24.02	26.94	17.78	-27.3	-28.7	15.5	0.00e+00	0	43	0	987758592	15	4206
2026-01-29 08:03:25.02	26.72	17.75	-27.3	-28.6	15.5	0.00e+00	0	43	0	990904320	15	4194
2026-01-29 08:03:26.02	26.49	17.73	-27.2	-28.5	15.6	0.00e+00	0	43	0	994050048	15	4169
2026-01-29 08:03:27.02	26.27	17.70	-27.3	-28.6	15.5	0.00e+00	0	43	0	996147200	15	4205
2026-01-29 08:03:28.03	26.04	17.67	-27.2	-28.5	15.5	0.00e+00	0	43	0	999292928	15	4175
2026-01-29 08:03:29.03	25.81	17.65	-27.3	-28.7	15.5	0.00e+00	0	43	0	1003487232	15	4215
2026-01-29 08:03:30.03	25.59	17.62	-27.5	-29.2	15.2	0.00e+00	0	43	0	1006632960	15	4359
2026-01-29 08:03:31.04	25.36	17.59	-27.4	-28.9	15.4	0.00e+00	0	43	0	1009778688	15	4264
2026-01-29 08:03:32.04	25.14	17.56	-27.4	-28.9	15.3	0.00e+00	0	43	0	1012924416	15	4280
2026-01-29 08:03:33.05	24.91	17.53	-27.6	-29.3	15.1	0.00e+00	0	43	0	1016070144	15	4395
2026-01-29 08:03:34.06	24.69	17.50	-27.4	-28.9	15.3	0.00e+00	0	43	0	1019215872	15	4270
2026-01-29 08:03:35.06	24.47	17.48	-27.3	-28.6	15.5	0.00e+00	0	43	0	1021313024	15	4185
2026-01-29 08:03:36.07	24.24	17.45	-27.3	-28.6	15.5	0.00e+00	0	43	0	1024458752	15	4185
2026-01-29 08:03:37.07	24.02	17.42	-27.4	-28.9	15.3	0.00e+00	0	43	0	1027604480	15	4266
2026-01-29 08:03:38.08	23.80	17.38	-27.2	-28.5	15.6	0.00e+00	0	43	0	1030750208	15	4167
2026-01-29 08:03:39.08	23.58	17.35	-27.2	-28.4	15.6	0.00e+00	0	43	0	1033895936	15	4144
2026-01-29 08:03:40.08	23.36	17.32	-27.3	-28.6	15.5	0.00e+00	0	43	0	1038090240	15	4190
2026-01-29 08:03:41.09	23.14	17.29	-27.3	-28.6	15.5	0.00e+00	0	43	0	1041235968	15	4185
2026-01-29 08:03:42.09	22.92	17.26	-27.2	-28.5	15.5	0.00e+00	0	43	0	1044381696	15	4173
2026-01-29 08:03:43.10	22.70	17.23	-27.3	-28.7	15.4	0.00e+00	0	43	0	1046478848	15	4216
2026-01-29 08:03:44.10	22.48	17.19	-27.2	-28.5	15.5	0.00e+00	0	43	0	1049624576	15	4159
2026-01-29 08:03:45.10	22.26	17.16	-27.2	-28.5	15.5	0.00e+00	0	43	0	1052770304	15	4156
2026-01-29 08:03:46.10	22.05	17.13	-27.2	-28.5	15.5	0.00e+00	0	43	0	1055916032	15	4173
2026-01-29 08:03:47.11	21.83	17.09	-27.3	-28.8	15.4	0.00e+00	0	43	0	1059061760	15	4244
2026-01-29 08:03:48.11	21.61	17.06	-27.2	-28.5	15.5	0.00e+00	0	43	0	1062207488	15	4166
2026-01-29 08:03:49.11	21.40	17.02	-27.2	-28.4	15.5	0.00e+00	0	43	0	1065353216	15	4151
2026-01-29 08:03:50.11	21.18	16.99	-27.3	-28.7	15.4	0.00e+00	0	43	0	1068498944	15	4224
2026-01-29 08:03:51.12	20.96	16.95	-27.3	-28.7	15.4	0.00e+00	0	43	0	1071644672	15	4209
2026-01-29 08:03:52.13	20.75	16.91	-27.3	-28.7	15.4	0.00e+00	0	43	0	1074790400	15	4232
2026-01-29 08:03:53.13	20.53	16.88	-27.3	-28.7	15.4	0.00e+00	0	43	0	1077936128	15	4235
2026-01-29 08:03:54.14	20.32	16.84	-27.4	-28.8	15.3	0.00e+00	0	43	0	1081081856	15	4260
2026-01-29 08:03:55.13	20.11	16.80	-27.3	-28.7	15.3	0.00e+00	0	43	0	1084227584	15	4235
2026-01-29 08:03:56.13	19.90	16.77	-27.3	-28.7	15.4	0.00e+00	0	43	0	1087373312	15	4231
2026-01-29 08:03:57.13	19.69	16.73	-27.3	-28.7	15.4	0.00e+00	0	43	0	1090519040	15	4215
2026-01-29 08:03:58.14	19.47	16.69	-27.3	-28.6	15.4	0.00e+00	0	43	0	1093664768	15	4205
2026-01-29 08:03:59.14	19.26	16.65	-27.3	-28.7	15.3	0.00e+00	0	43	0	1096810496	15	4235
2026-01-29 08:04:00.14	19.05	16.61	-27.5	-29.1	15.2	0.00e+00	0	43	0	1099956224	15	4322
2026-01-29 08:04:01.15	18.84	16.58	-27.2	-28.5	15.5	0.00e+00	0	43	0	1103101952	15	4159
2026-01-29 08:04:02.15	18.63	16.54	-27.1	-28.2	15.6	0.00e+00	0	43	0	1106247680	15	4090
2026-01-29 08:04:03.15	18.42	16.50	-27.1	-28.2	15.6	0.00e+00	0	43	0	1109393408	15	4101
2026-01-29 08:04:04.16	18.21	16.46	-27.2	-28.5	15.5	0.00e+00	0	43	0	1112539136	15	4172
2026-01-29 08:04:05.17	18.01	16.42	-27.2	-28.4	15.5	0.00e+00	0	43	0	1115684864	15	4144
2026-01-29 08:04:06.17	17.80	16.37	-27.3	-28.7	15.3	0.00e+00	0	43	0	1118830592	15	4232
2026-01-29 08:04:07.18	17.59	16.33	-27.2	-28.6	15.4	7.00e-07	0	43	0	1121976320	15	4187
2026-01-29 08:04:08.18	17.39	16.29	-27.2	-28.5	15.4	7.00e-07	0	43	0	1125122048	15	4177
2026-01-29 08:04:09.19	17.18	16.25	-27.3	-28.6	15.4	0.00e+00	0	43	0	1128267776	15	4208
2026-01-29 08:04:10.19	16.98	16.21	-27.2	-28.5	15.4	0.00e+00	0	43	0	1131413504	15	4178
2026-01-29 08:04:11.19	16.77	16.17	-27.3	-28.6	15.4	0.00e+00	0	43	0	1134559232	15	4208
2026-01-29 08:04:12.19	16.57	16.12	-27.1	-28.2	15.6	0.00e+00	0	43	0	1137704960	15	4101
2026-01-29 08:04:13.20	16.37	16.08	-27.1	-28.2	15.6	0.00e+00	0	43	0	1140850688	15	4084
2026-01-29 08:04:14.20	16.16	16.04	-27.1	-28.2	15.6	0.00e+00	0	43	0	1143996416	15	4097
2026-01-29 08:04:15.20	15.96	15.99	-27.2	-28.5	15.4	0.00e+00	0	43	0	1147142144	15	4175
2026-01-29 08:04:16.20	15.76	15.95	-27.2	-28.5	15.4	0.00e+00	0	43	0	1150287872	15	4179
2026-01-29 08:04:17.21	15.56	15.91	-27.4	-28.8	15.2	7.00e-07	0	43	0	1153433600	15	4265
2026-01-29 08:04:18.21	15.36	15.86	-27.4	-29.0	15.1	0.00e+00	0	43	0	1156579328	15	4309
2026-01-29 08:04:19.21	15.16	15.82	-27.5	-29.2	15.0	0.00e+00	0	43	0	1159725056	15	4377
2026-01-29 08:04:20.22	14.96	15.77	-27.6	-29.3	15.0	0.00e+00	0	43	0	1162870784	15	4397
2026-01-29 08:04:21.22	14.76	15.73	-27.6	-29.5	14.8	0.00e+00	0	43	0	1166016512	15	4447
2026-01-29 08:04:22.22	14.57	15.68	-27.6	-29.4	14.9	7.00e-07	0	43	0	1169162240	15	4415
2026-01-29 08:04:23.23	14.37	15.64	-27.7	-29.5	14.8	7.00e-07	0	43	0	1172307968	15	4465
2026-01-29 08:04:24.23	14.17	15.59	-27.6	-29.4	14.9	0.00e+00	0	43	0	1175453696	15	4415
2026-01-29 08:04:25.24	13.98	15.55	-27.6	-29.4	14.9	0.00e+00	0	43	0	1178599424	15	4416
2026-01-29 08:04:26.24	13.78	15.50	-27.7	-29.6	14.8	0.00e+00	0	43	0	1181745152	15	4479
2026-01-29 08:04:27.25	13.59	15.45	-27.8	-30.0	14.6	1.50e-06	0	43	0	1184890880	15	4597
2026-01-29 08:04:28.25	13.39	15.41	-27.7	-29.7	14.7	0.00e+00	0	43	0	1188036608	15	4502
2026-01-29 08:04:29.26	13.20	15.36	-27.7	-29.7	14.7	0.00e+00	0	43	0	1191182336	15	4508
2026-01-29 08:04:30.26	13.01	15.31	-27.7	-29.7	14.7	7.00e-07	0	43	0	1194328064	15	4508
2026-01-29 08:04:31.27	12.81	15.26	-27.6	-29.5	14.8	0.00e+00	0	43	0	1197473792	15	4451
2026-01-29 08:04:32.27	12.62	15.22	-27.6	-29.5	14.8	0.00e+00	0	43	0	1200619520	15	4444
2026-01-29 08:04:33.28	12.43	15.17	-27.6	-29.4	14.8	0.00e+00	0	43	0	1203765248	15	4432
2026-01-29 08:04:34.29	12.24	15.12	-27.5	-29.1	15.0	0.00e+00	0	43	0	1206910976	15	4354
2026-01-29 08:04:35.29	12.05	15.07	-27.5	-29.1	15.0	0.00e+00	0	43	0	1210056704	15	4348
2026-01-29 08:04:36.30	11.86	15.02	-27.5	-29.2	15.0	0.00e+00	0	43	0	1213202432	15	4363
2026-01-29 08:04:37.31	11.67	14.97	-27.6	-29.4	14.9	0.00e+00	0	43	0	1216348160	15	4421
2026-01-29 08:04:38.31	11.48	14.92	-27.6	-29.4	14.9	7.00e-07	0	43	0	1219493888	15	4424
2026-01-29 08:04:39.31	11.30	14.87	-27.6	-29.4	14.8	7.00e-07	0	43	0	1222639616	15	4440
2026-01-29 08:04:40.31	11.11	14.83	-27.6	-29.5	14.8	7.00e-07	0	43	0	1225785344	15	4442
2026-01-29 08:04:41.32	10.92	14.78	-27.7	-29.5	14.8	0.00e+00	0	43	0	1228931072	15	4453
2026-01-29 08:04:42.33	10.74	14.73	-27.7	-29.6	14.8	7.00e-07	0	43	0	1232076800	15	4482
2026-01-29 08:04:43.34	10.55	14.67	-27.9	-30.1	14.4	7.00e-07	0	43	0	1235222528	15	4630
2026-01-29 08:04:44.34	10.37	14.62	-27.8	-29.8	14.6	7.00e-07	0	43	0	1238368256	15	4551
2026-01-29 08:04:45.34	10.19	14.57	-27.8	-29.8	14.6	0.00e+00	0	43	0	1241513984	15	4546
2026-01-29 08:04:46.35	10.00	14.52	-27.8	-29.8	14.6	0.00e+00	0	43	0	1244659712	15	4537
2026-01-29 08:04:47.35	9.82	14.47	-27.8	-29.8	14.6	0.00e+00	0	43	0	1247805440	15	4559
2026-01-29 08:04:48.35	9.64	14.42	-27.8	-29.9	14.5	7.00e-07	0	43	0	1250951168	15	4593
2026-01-29 08:04:49.36	9.46	14.37	-27.9	-30.1	14.5	0.00e+00	0	43	0	1254096896	15	4627
2026-01-29 08:04:50.35	9.28	14.32	-28.1	-30.0	14.4	0.00e+00	0	43	0	1257242624	16	4489
2026-01-29 08:04:51.35	9.10	14.27	-27.9	-29.6	14.6	0.00e+00	0	43	0	1260388352	16	4368
2026-01-29 08:04:52.36	8.92	14.22	-27.9	-29.5	14.7	0.00e+00	0	43	0	1263534080	16	4329
2026-01-29 08:04:53.37	8.74	14.16	-27.9	-29.5	14.7	0.00e+00	0	43	0	1266679808	16	4332
2026-01-29 08:04:54.37	8.57	14.11	-27.9	-29.6	14.6	3.00e-06	0	43	0	1269825536	16	4365
2026-01-29 08:04:55.38	8.39	14.06	-28.0	-29.7	14.5	0.00e+00	0	43	0	1272971264	16	4412
2026-01-29 08:04:56.38	8.21	14.01	-27.9	-29.7	14.5	0.00e+00	0	43	0	1276116992	16	4389
2026-01-29 08:04:57.39	8.03	13.95	-28.1	-30.0	14.3	7.00e-07	0	43	0	1279262720	16	4491
2026-01-29 08:04:58.39	7.86	13.90	-28.1	-30.1	14.3	3.00e-06	0	43	0	1282408448	16	4512
2026-01-29 08:04:59.40	7.68	13.85	-28.0	-29.8	14.4	0.00e+00	0	43	0	1285554176	16	4435
2026-01-29 08:05:00.41	7.51	13.80	-27.9	-29.5	14.6	0.00e+00	0	43	0	1288699904	16	4345
2026-01-29 08:05:01.41	7.34	13.74	-27.8	-29.5	14.6	7.00e-07	0	43	0	1291845632	16	4335
2026-01-29 08:05:02.41	7.17	13.69	-27.8	-29.5	14.6	0.00e+00	0	43	0	1294991360	16	4330
2026-01-29 08:05:03.41	6.99	13.64	-27.8	-29.3	14.7	0.00e+00	0	43	0	1298137088	16	4283
2026-01-29 08:05:04.42	6.82	13.58	-27.8	-29.3	14.7	1.50e-06	0	43	0	1301282816	16	4278
2026-01-29 08:05:05.42	6.65	13.53	-27.8	-29.3	14.7	0.00e+00	0	43	0	1304428544	16	4291
2026-01-29 08:05:06.42	6.48	13.47	-27.7	-29.2	14.8	0.00e+00	0	43	0	1307574272	16	4246
2026-01-29 08:05:07.42	6.31	13.42	-27.7	-29.2	14.7	0.00e+00	0	43	0	1310720000	16	4271
2026-01-29 08:05:08.43	6.14	13.37	-27.9	-29.5	14.6	1.50e-06	0	43	0	1313865728	16	4334
2026-01-29 08:05:09.43	5.98	13.31	-28.0	-29.9	14.3	1.50e-06	0	43	0	1317011456	16	4462
2026-01-29 08:05:10.43	5.81	13.26	-28.0	-29.9	14.3	7.00e-07	0	43	0	1320157184	16	4473
2026-01-29 08:05:11.43	5.64	13.20	-28.1	-29.9	14.3	0.00e+00	0	43	0	1323302912	16	4473
2026-01-29 08:05:12.43	5.48	13.15	-28.0	-29.9	14.3	7.00e-07	0	43	0	1326448640	16	4477
2026-01-29 08:05:13.43	5.31	13.10	-28.1	-30.0	14.3	1.50e-06	0	43	0	1329594368	16	4495
2026-01-29 08:05:14.44	5.15	13.04	-28.1	-30.1	14.2	7.00e-07	0	43	0	1332740096	16	4530
2026-01-29 08:05:15.45	4.98	12.98	-28.1	-30.1	14.2	3.00e-06	0	43	0	1335885824	16	4518
2026-01-29 08:05:16.46	4.82	12.93	-28.0	-29.8	14.4	1.50e-06	0	43	0	1339031552	16	4433
2026-01-29 08:05:17.47	4.65	12.87	-28.0	-29.8	14.4	0.00e+00	0	43	0	1342177280	16	4426
2026-01-29 08:05:18.48	4.49	12.82	-28.0	-29.8	14.4	2.20e-06	0	43	0	1345323008	16	4435
2026-01-29 08:05:19.48	4.33	12.76	-28.0	-29.9	14.3	7.00e-07	0	43	0	1348468736	16	4478
2026-01-29 08:05:20.48	4.17	12.71	-28.0	-29.9	14.3	2.20e-06	0	43	0	1351614464	16	4472
2026-01-29 08:05:21.48	4.01	12.65	-28.0	-29.8	14.4	0.00e+00	0	43	0	1354760192	16	4419
2026-01-29 08:05:22.49	3.85	12.60	-28.0	-29.8	14.3	1.50e-06	0	43	0	1357905920	16	4450
2026-01-29 08:05:23.49	3.69	12.54	-28.0	-29.9	14.3	7.00e-07	0	43	0	1361051648	16	4459
2026-01-29 08:05:24.49	3.53	12.49	-28.0	-29.9	14.3	1.50e-06	0	43	0	1364197376	16	4457
2026-01-29 08:05:25.49	3.37	12.43	-28.1	-30.0	14.2	0.00e+00	0	43	0	1367343104	16	4501
2026-01-29 08:05:26.49	3.21	12.37	-28.1	-30.1	14.2	0.00e+00	0	43	0	1370488832	16	4516
2026-01-29 08:05:27.50	3.06	12.32	-28.2	-30.2	14.1	2.20e-06	0	43	0	1373634560	16	4555
2026-01-29 08:05:28.51	2.90	12.26	-28.2	-30.3	14.0	1.50e-06	0	43	0	1376780288	16	4583
2026-01-29 08:05:29.51	2.74	12.20	-28.2	-30.3	14.0	0.00e+00	0	43	0	1379926016	16	4605
2026-01-29 08:05:30.51	2.59	12.15	-28.2	-30.3	14.0	7.00e-07	0	43	0	1383071744	16	4603
2026-01-29 08:05:31.52	2.43	12.09	-28.2	-30.3	14.0	7.00e-07	0	43	0	1386217472	16	4600
2026-01-29 08:05:32.53	2.28	12.03	-28.1	-30.2	14.1	3.80e-06	0	43	0	1389363200	16	4557
2026-01-29 08:05:33.53	2.13	11.98	-28.1	-30.0	14.2	7.00e-07	0	43	0	1391460352	16	4492
2026-01-29 08:05:34.54	1.97	11.92	-28.1	-30.0	14.2	1.50e-06	0	43	0	1395654656	16	4502
2026-01-29 08:05:35.54	1.82	11.86	-28.0	-30.0	14.2	2.20e-06	0	43	0	1398800384	16	4485
2026-01-29 08:05:36.55	1.67	11.81	-28.0	-29.9	14.3	2.20e-06	0	43	0	1401946112	16	4455
2026-01-29 08:05:37.54	1.52	11.75	-28.1	-30.0	14.2	2.20e-06	0	43	0	1405091840	16	4490
2026-01-29 08:05:38.55	1.37	11.69	-28.1	-30.1	14.1	3.00e-06	0	43	0	1408237568	16	4519
2026-01-29 08:05:39.55	1.22	11.64	-28.1	-30.1	14.1	1.50e-06	0	43	0	1411383296	16	4526
2026-01-29 08:05:40.55	1.07	11.58	-28.1	-30.2	14.1	7.00e-07	0	43	0	1414529024	16	4554
2026-01-29 08:05:41.55	0.92	11.52	-28.1	-30.2	14.0	2.20e-06	0	43	0	1416626176	16	4555
2026-01-29 08:05:42.56	0.77	11.47	-28.1	-30.2	14.1	2.20e-06	0	43	0	1419771904	16	4547
2026-01-29 08:05:43.57	0.63	11.41	-28.1	-30.2	14.0	3.00e-06	0	43	0	1422917632	16	4561
2026-01-29 08:05:44.57	0.48	11.35	-28.2	-30.3	14.0	1.50e-06	0	43	0	1426063360	16	4581
2026-01-29 08:05:45.57	0.33	11.29	-28.2	-30.4	13.9	1.50e-06	0	43	0	1429209088	16	4612
2026-01-29 08:05:46.56	0.19	11.24	-28.2	-30.4	13.9	2.20e-06	0	43	0	1432354816	16	4616
2026-01-29 08:05:47.56	0.05	11.18	-28.2	-30.5	13.8	6.80e-06	0	43	0	1435500544	16	4640
2026-01-29 08:05:48.57	359.90	11.12	-28.2	-30.3	13.9	2.20e-06	0	43	0	1438646272	16	4610
2026-01-29 08:05:49.57	359.76	11.07	-28.2	-30.4	13.9	6.10e-06	0	43	0	1441792000	16	4624
2026-01-29 08:05:50.57	359.62	11.01	-28.2	-30.5	13.8	3.00e-06	0	43	0	1444937728	16	4646
2026-01-29 08:05:51.58	359.47	10.95	-28.2	-30.5	13.8	6.10e-06	0	43	0	1448083456	16	4644
2026-01-29 08:05:52.58	359.33	10.89	-28.2	-30.5	13.9	3.80e-06	0	43	0	1451229184	16	4643
2026-01-29 08:05:53.58	359.19	10.84	-28.2	-30.4	13.9	3.80e-06	0	43	0	1454374912	16	4623
2026-01-29 08:05:54.58	359.05	10.78	-28.2	-30.4	13.9	6.10e-06	0	43	0	1457520640	16	4622
2026-01-29 08:05:55.58	358.91	10.72	-28.3	-30.5	13.8	6.10e-06	0	43	0	1460666368	16	4668
2026-01-29 08:05:56.58	358.77	10.66	-28.3	-30.5	13.8	4.50e-06	0	43	0	1463812096	16	4646
2026-01-29 08:05:57.58	358.63	10.61	-28.2	-30.3	13.9	1.50e-06	0	43	0	1466957824	16	4593
2026-01-29 08:05:58.59	358.49	10.55	-28.3	-30.5	13.8	2.20e-06	0	43	0	1470103552	16	4647
2026-01-29 08:05:59.59	358.35	10.49	-28.2	-30.4	13.8	1.06e-05	0	43	0	1473249280	16	4632
2026-01-29 08:06:00.60	358.21	10.43	-28.2	-30.4	13.8	5.30e-06	0	43	0	1476395008	16	4620
2026-01-29 08:06:01.60	358.08	10.37	-28.2	-30.5	13.8	3.80e-06	0	43	0	1479540736	16	4656
2026-01-29 08:06:02.60	357.94	10.32	-28.3	-30.6	13.7	8.30e-06	0	43	0	1482686464	16	4697
2026-01-29 08:06:03.61	357.81	10.26	-28.4	-30.9	13.5	9.10e-06	0	43	0	1485832192	16	4776
2026-01-29 08:06:04.61	357.67	10.20	-28.4	-30.9	13.5	9.90e-06	0	43	0	1488977920	16	4778
2026-01-29 08:06:05.62	357.53	10.14	-28.4	-31.0	13.5	1.14e-05	0	43	0	1492123648	16	4809
2026-01-29 08:06:06.62	357.40	10.08	-28.5	-31.0	13.4	1.14e-05	0	43	0	1495269376	16	4831
2026-01-29 08:06:07.62	357.27	10.03	-28.5	-30.6	13.4	1.14e-05	0	43	0	1498415104	17	4580
2026-01-29 08:06:08.63	357.13	9.97	-28.5	-30.6	13.3	1.60e-05	0	43	0	1501560832	17	4584
2026-01-29 08:06:09.63	357.00	9.91	-28.5	-30.7	13.3	1.75e-05	0	43	0	1504706560	17	4615
2026-01-29 08:06:10.63	356.87	9.85	-28.5	-30.6	13.3	1.75e-05	0	43	0	1507852288	17	4596
2026-01-29 08:06:11.63	356.74	9.79	-28.4	-30.4	13.5	1.06e-05	0	43	0	1510998016	17	4518
2026-01-29 08:06:12.63	356.61	9.74	-28.4	-30.5	13.4	5.30e-06	0	43	0	1514143744	17	4540
2026-01-29 08:06:13.63	356.48	9.68	-28.4	-30.4	13.4	1.37e-05	0	43	0	1517289472	17	4528
2026-01-29 08:06:14.64	356.35	9.62	-28.5	-30.5	13.4	1.14e-05	0	43	0	1520435200	17	4553
2026-01-29 08:06:15.64	356.22	9.56	-28.4	-30.4	13.4	1.67e-05	0	43	0	1523580928	17	4537
2026-01-29 08:06:16.64	356.09	9.50	-28.4	-30.4	13.4	9.90e-06	0	43	0	1526726656	17	4528
2026-01-29 08:06:17.64	355.96	9.45	-28.5	-30.7	13.3	1.90e-05	0	43	0	1529872384	17	4619
2026-01-29 08:06:18.64	355.83	9.39	-28.5	-30.7	13.3	1.52e-05	0	43	0	1533018112	17	4612
2026-01-29 08:06:19.64	355.71	9.33	-28.5	-30.7	13.3	2.67e-05	0	43	0	1536163840	17	4604
2026-01-29 08:06:20.64	355.58	9.27	-28.7	-31.1	13.0	2.82e-05	0	43	0	1539309568	17	4740
2026-01-29 08:06:21.65	355.45	9.21	-28.7	-31.2	12.9	4.19e-05	0	43	0	1542455296	17	4775
2026-01-29 08:06:22.65	355.33	9.16	-28.8	-31.3	12.9	4.73e-05	0	43	0	1545601024	17	4805
2026-01-29 08:06:23.66	355.20	9.10	-28.8	-31.3	12.9	4.95e-05	0	43	0	1548746752	17	4824
2026-01-29 08:06:24.66	355.08	9.04	-28.9	-31.5	12.7	7.17e-05	0	43	0	1551892480	17	4896
2026-01-29 08:06:25.66	354.95	8.98	-28.9	-31.7	12.6	7.62e-05	0	43	0	1555038208	17	4953
2026-01-29 08:06:26.65	354.83	8.93	-29.0	-31.8	12.5	1.01e-04	0	43	0	1558183936	17	4989
2026-01-29 08:06:27.66	354.71	8.87	-28.9	-31.1	12.7	1.20e-04	0	43	0	1561329664	18	4645
2026-01-29 08:06:28.66	354.59	8.81	-28.8	-30.9	12.8	6.48e-05	0	43	0	1564475392	18	4566
2026-01-29 08:06:29.67	354.46	8.75	-28.8	-30.8	12.9	6.02e-05	0	43	0	1567621120	18	4544
2026-01-29 08:06:30.67	354.34	8.69	-28.8	-30.8	12.9	4.80e-05	0	43	0	1570766848	18	4541
2026-01-29 08:06:31.67	354.22	8.63	-28.7	-30.7	13.0	4.34e-05	0	43	0	1573912576	18	4498
2026-01-29 08:06:32.68	354.10	8.58	-28.7	-30.5	13.0	4.19e-05	0	43	0	1577058304	18	4460
2026-01-29 08:06:33.68	353.98	8.52	-28.8	-30.8	12.9	3.73e-05	0	43	0	1580204032	18	4542
2026-01-29 08:06:34.69	353.86	8.46	-28.7	-30.7	12.9	5.79e-05	0	43	0	1583349760	18	4512
2026-01-29 08:06:35.69	353.74	8.40	-28.7	-30.6	13.0	4.57e-05	0	43	0	1586495488	18	4482
2026-01-29 08:06:36.69	353.62	8.34	-28.7	-30.5	13.0	4.50e-05	0	43	0	1589641216	18	4464
2026-01-29 08:06:37.70	353.50	8.29	-28.7	-30.6	12.9	4.19e-05	0	43	0	1592786944	18	4492
2026-01-29 08:06:38.70	353.38	8.23	-28.7	-30.7	12.9	5.11e-05	0	43	0	1595932672	18	4523
2026-01-29 08:06:39.71	353.27	8.17	-28.8	-30.8	12.8	6.56e-05	0	43	0	1599078400	18	4554
2026-01-29 08:06:40.72	353.15	8.11	-28.8	-30.9	12.8	7.01e-05	0	43	0	1602224128	18	4573
2026-01-29 08:06:41.72	353.03	8.05	-28.8	-31.0	12.6	7.85e-05	0	43	0	1605369856	18	4622
2026-01-29 08:06:42.73	352.92	8.00	-29.0	-31.4	12.4	1.27e-04	0	43	0	1608515584	18	4748
2026-01-29 08:06:43.74	352.80	7.94	-29.0	-31.3	12.5	1.33e-04	0	43	0	1611661312	18	4707
2026-01-29 08:06:44.74	352.69	7.88	-28.9	-31.2	12.5	1.07e-04	0	43	0	1614807040	18	4679
2026-01-29 08:06:45.75	352.57	7.82	-28.9	-31.2	12.5	1.06e-04	0	43	0	1617952768	18	4688
2026-01-29 08:06:46.75	352.46	7.76	-28.9	-31.1	12.6	1.21e-04	0	43	0	1621098496	18	4650
2026-01-29 08:06:47.76	352.34	7.71	-28.8	-31.0	12.6	9.38e-05	0	43	0	1624244224	18	4623
2026-01-29 08:06:48.76	352.23	7.65	-28.9	-31.1	12.6	9.61e-05	0	43	0	1627389952	18	4648
2026-01-29 08:06:49.76	352.12	7.59	-28.9	-31.1	12.5	1.17e-04	0	43	0	1630535680	18	4665
2026-01-29 08:06:50.76	352.01	7.53	-28.9	-31.2	12.5	1.18e-04	0	43	0	1633681408	18	4672
2026-01-29 08:06:51.77	351.89	7.48	-28.8	-30.9	12.6	1.01e-04	0	43	0	1636827136	18	4603
2026-01-29 08:06:52.77	351.78	7.42	-28.7	-30.6	12.9	5.03e-05	0	43	0	1639972864	18	4481
2026-01-29 08:06:53.78	351.67	7.36	-28.6	-30.5	12.9	4.88e-05	0	43	0	1643118592	18	4460
2026-01-29 08:06:54.79	351.56	7.30	-28.7	-30.6	12.8	4.57e-05	0	43	0	1646264320	18	4504
2026-01-29 08:06:55.79	351.45	7.24	-28.8	-30.8	12.7	6.40e-05	0	43	0	1649410048	18	4549
2026-01-29 08:06:56.80	351.34	7.19	-28.8	-31.0	12.6	9.68e-05	0	43	0	1652555776	18	4627
2026-01-29 08:06:57.80	351.23	7.13	-28.8	-31.0	12.6	1.05e-04	0	43	0	1655701504	18	4630
2026-01-29 08:06:58.81	351.12	7.07	-28.8	-31.0	12.5	1.14e-04	0	43	0	1658847232	18	4639
2026-01-29 08:06:59.81	351.01	7.01	-32.7	-41.8	3.9	1.10e+00	0	43	104	1660944384	26	10321
2026-01-29 08:07:00.81	350.91	6.96	-33.4	-45.3	3.8	1.49e+00	0	43	104	1660944384	26	14115

#Closed at: 2026-01-29 08:07:01
#Recorded file [1660 MB]: D:/data/31010_260129_105807.dat