passes_logs/2026/01/29/R2M6_AANII_01/R2M6_AANII_01__20260129_100529_SUOMI_NPP_rec.log

#Pass ID: 20260129_100529_SUOMI NPP
#Satellite: SUOMI NPP
#Configuration: NPP
#almurnet v.1.7.20240730
#Start time: 2026-01-29 10:05:30

#Version: 2.2.20231116
#Station: R2M6_AANII_01
#Location: 30.233357 lon 59.946436 lat
#TLE: 1 37849U 11061A   26027.93236865  .00000148  00000+0  91411-4 0  9991
#TLE: 2 37849  98.7823 329.8704 0002085  41.3231 318.8102 14.19530777738546

#Time	Az	El	Level	Level2	SNR	BER	BlckErr	Temp	State	Recorded	gain1	gain2
2026-01-29 10:05:30.02	150.62	7.02	-31.2	-35.7	5.0	1.30e+00	0	40	0	0	23	6058
2026-01-29 10:05:31.01	150.61	7.10	-31.5	-36.8	4.8	1.33e+00	0	40	104	0	23	6623
2026-01-29 10:05:32.02	150.59	7.18	-31.5	-36.0	8.0	1.00e-01	0	40	0	0	23	6016
2026-01-29 10:05:33.02	150.58	7.26	-31.6	-36.3	7.7	8.10e-02	0	40	0	1048576	23	6223
2026-01-29 10:05:34.02	150.57	7.33	-31.5	-35.6	8.3	5.82e-02	0	40	0	3145728	23	5814
2026-01-29 10:05:35.03	150.56	7.41	-31.4	-35.0	8.8	3.43e-02	0	40	0	5242880	23	5509
2026-01-29 10:05:36.03	150.54	7.49	-31.2	-34.4	9.3	2.61e-02	0	40	0	7340032	23	5232
2026-01-29 10:05:37.04	150.53	7.57	-31.1	-34.3	9.4	1.65e-02	0	40	0	9437184	23	5193
2026-01-29 10:05:38.03	150.52	7.65	-31.1	-34.4	9.3	1.62e-02	0	40	0	10485760	23	5246
2026-01-29 10:05:39.04	150.51	7.73	-31.1	-34.2	9.5	1.49e-02	0	40	0	12582912	23	5148
2026-01-29 10:05:40.04	150.49	7.81	-30.9	-33.7	9.8	1.10e-02	0	40	0	14680064	23	4946
2026-01-29 10:05:41.05	150.48	7.89	-31.0	-34.0	9.6	9.55e-03	0	40	0	16777216	23	5075
2026-01-29 10:05:42.05	150.47	7.97	-31.2	-34.6	9.1	1.68e-02	0	40	0	17825792	23	5361
2026-01-29 10:05:43.05	150.45	8.05	-31.1	-34.2	9.5	1.81e-02	0	40	0	19922944	23	5144
2026-01-29 10:05:44.05	150.44	8.13	-30.9	-33.4	10.1	9.87e-03	0	40	0	22020096	23	4825
2026-01-29 10:05:45.06	150.43	8.21	-30.7	-33.4	10.5	5.58e-03	0	41	0	24117248	22	4913
2026-01-29 10:05:46.07	150.41	8.30	-30.8	-33.7	10.3	4.51e-03	0	41	0	26214400	22	5013
2026-01-29 10:05:47.07	150.40	8.38	-30.8	-33.6	10.4	3.71e-03	0	40	0	27262976	22	4959
2026-01-29 10:05:48.07	150.39	8.46	-31.0	-34.0	10.1	5.29e-03	0	40	0	29360128	22	5130
2026-01-29 10:05:49.07	150.37	8.54	-30.8	-33.5	10.5	5.09e-03	0	41	0	31457280	22	4903
2026-01-29 10:05:50.08	150.36	8.62	-30.8	-33.6	10.4	3.65e-03	0	41	0	33554432	22	4966
2026-01-29 10:05:51.08	150.35	8.71	-30.8	-33.6	10.5	3.74e-03	0	41	0	35651584	22	4960
2026-01-29 10:05:52.08	150.33	8.79	-30.8	-33.6	10.5	4.72e-03	0	41	0	36700160	22	4953
2026-01-29 10:05:53.08	150.32	8.87	-30.8	-33.4	10.6	4.30e-03	0	41	0	38797312	22	4886
2026-01-29 10:05:54.08	150.30	8.96	-30.6	-32.8	11.1	1.95e-03	0	41	0	40894464	22	4642
2026-01-29 10:05:55.08	150.29	9.04	-30.5	-32.4	11.3	1.01e-03	0	41	0	42991616	22	4510
2026-01-29 10:05:56.08	150.27	9.12	-30.4	-32.3	11.5	1.03e-03	0	41	0	45088768	22	4467
2026-01-29 10:05:57.08	150.26	9.21	-30.3	-31.8	11.8	6.60e-04	0	41	0	46137344	22	4292
2026-01-29 10:05:58.08	150.25	9.29	-30.2	-32.2	11.9	4.66e-04	0	41	0	48234496	21	4517
2026-01-29 10:05:59.08	150.23	9.38	-30.3	-32.3	11.8	4.64e-04	0	41	0	50331648	21	4529
2026-01-29 10:06:00.09	150.22	9.46	-30.1	-31.8	12.2	3.78e-04	0	41	0	52428800	21	4387
2026-01-29 10:06:01.09	150.20	9.55	-30.1	-31.9	12.1	2.77e-04	0	41	0	54525952	21	4422
2026-01-29 10:06:02.09	150.19	9.63	-30.2	-32.2	11.9	2.79e-04	0	41	0	55574528	21	4510
2026-01-29 10:06:03.10	150.17	9.72	-30.1	-31.8	12.1	2.32e-04	0	41	0	57671680	21	4414
2026-01-29 10:06:04.10	150.16	9.81	-30.1	-32.1	11.9	3.52e-04	0	41	0	59768832	21	4528
2026-01-29 10:06:05.10	150.14	9.89	-30.0	-31.9	12.1	3.02e-04	0	41	0	61865984	21	4432
2026-01-29 10:06:06.11	150.12	9.98	-30.0	-31.9	12.1	2.61e-04	0	41	0	62914560	21	4436
2026-01-29 10:06:07.11	150.11	10.07	-30.1	-32.0	12.0	2.93e-04	0	41	0	65011712	21	4484
2026-01-29 10:06:08.12	150.09	10.16	-30.0	-31.8	12.1	2.53e-04	0	41	0	67108864	21	4426
2026-01-29 10:06:09.12	150.08	10.24	-30.1	-32.1	12.0	2.91e-04	0	41	0	69206016	21	4507
2026-01-29 10:06:10.13	150.06	10.33	-30.1	-32.0	12.0	2.79e-04	0	41	0	71303168	21	4502
2026-01-29 10:06:11.13	150.05	10.42	-30.1	-31.9	12.1	2.26e-04	0	41	0	73400320	21	4450
2026-01-29 10:06:12.14	150.03	10.51	-30.2	-32.1	12.1	2.80e-04	0	41	0	74448896	21	4485
2026-01-29 10:06:13.13	150.01	10.60	-30.2	-32.1	12.1	2.75e-04	0	41	0	76546048	21	4462
2026-01-29 10:06:14.13	150.00	10.69	-30.1	-31.7	12.3	2.00e-04	0	41	0	78643200	21	4359
2026-01-29 10:06:15.14	149.98	10.78	-30.1	-31.7	12.4	1.43e-04	0	41	0	80740352	21	4325
2026-01-29 10:06:16.14	149.96	10.87	-30.1	-31.7	12.5	1.88e-04	0	41	0	81788928	21	4312
2026-01-29 10:06:17.14	149.95	10.96	-30.0	-31.4	12.7	9.15e-05	0	41	0	83886080	21	4207
2026-01-29 10:06:18.14	149.93	11.05	-30.0	-31.3	12.8	5.64e-05	0	41	0	85983232	21	4176
2026-01-29 10:06:19.15	149.91	11.14	-29.9	-31.0	12.9	4.04e-05	0	41	0	88080384	21	4090
2026-01-29 10:06:20.15	149.90	11.23	-30.0	-31.3	12.7	5.18e-05	0	41	0	90177536	21	4174
2026-01-29 10:06:21.15	149.88	11.33	-29.8	-30.7	13.2	3.73e-05	0	41	0	91226112	21	3980
2026-01-29 10:06:22.15	149.86	11.42	-29.8	-31.1	13.2	2.44e-05	0	41	0	93323264	20	4194
2026-01-29 10:06:23.16	149.84	11.51	-29.9	-31.4	13.1	1.98e-05	0	41	0	95420416	20	4271
2026-01-29 10:06:24.15	149.83	11.60	-29.8	-31.1	13.3	1.90e-05	0	41	0	97517568	20	4185
2026-01-29 10:06:25.16	149.81	11.70	-29.8	-31.2	13.2	2.51e-05	0	41	0	99614720	20	4221
2026-01-29 10:06:26.16	149.79	11.79	-29.9	-31.5	13.1	2.82e-05	0	41	0	100663296	20	4304
2026-01-29 10:06:27.16	149.77	11.88	-29.9	-31.4	13.1	2.28e-05	0	41	0	102760448	20	4286
2026-01-29 10:06:28.16	149.75	11.98	-29.9	-31.5	13.0	3.58e-05	0	41	0	104857600	20	4316
2026-01-29 10:06:29.17	149.74	12.07	-29.9	-31.6	12.9	5.41e-05	0	41	0	106954752	20	4341
2026-01-29 10:06:30.17	149.72	12.17	-30.0	-31.7	12.9	4.19e-05	0	41	0	109051904	20	4404
2026-01-29 10:06:31.18	149.70	12.26	-30.0	-31.7	12.9	6.71e-05	0	41	0	110100480	20	4399
2026-01-29 10:06:32.18	149.68	12.36	-29.9	-31.5	13.0	4.27e-05	0	41	0	112197632	20	4333
2026-01-29 10:06:33.18	149.66	12.46	-30.0	-31.7	12.9	4.42e-05	0	42	0	114294784	20	4380
2026-01-29 10:06:34.19	149.64	12.55	-30.0	-31.7	13.0	2.89e-05	0	42	0	116391936	20	4364
2026-01-29 10:06:35.19	149.62	12.65	-30.0	-31.8	12.9	3.73e-05	0	42	0	118489088	20	4424
2026-01-29 10:06:36.19	149.60	12.75	-30.1	-32.0	12.8	4.88e-05	0	41	0	119537664	20	4466
2026-01-29 10:06:37.19	149.58	12.84	-29.9	-31.2	13.3	4.19e-05	0	42	0	121634816	20	4221
2026-01-29 10:06:38.19	149.57	12.94	-29.7	-30.9	13.5	9.90e-06	0	42	0	123731968	20	4102
2026-01-29 10:06:39.19	149.55	13.04	-29.5	-30.3	13.9	1.37e-05	0	41	0	125829120	20	3927
2026-01-29 10:06:40.19	149.53	13.14	-29.4	-30.0	14.1	3.00e-06	0	42	0	126877696	20	3842
2026-01-29 10:06:41.20	149.51	13.24	-29.3	-29.8	14.2	3.00e-06	0	42	0	128974848	20	3796
2026-01-29 10:06:42.20	149.49	13.34	-29.4	-30.0	14.1	6.80e-06	0	42	0	131072000	20	3866
2026-01-29 10:06:43.20	149.47	13.44	-29.5	-30.6	14.1	3.00e-06	0	41	0	133169152	19	4123
2026-01-29 10:06:44.21	149.44	13.54	-29.5	-30.7	14.1	3.00e-06	0	42	0	135266304	19	4140
2026-01-29 10:06:45.21	149.42	13.64	-29.5	-30.8	14.0	9.10e-06	0	42	0	136314880	19	4173
2026-01-29 10:06:46.22	149.40	13.74	-29.6	-31.1	13.8	5.30e-06	0	42	0	138412032	19	4263
2026-01-29 10:06:47.21	149.38	13.84	-29.7	-31.3	13.6	6.80e-06	0	42	0	140509184	19	4349
2026-01-29 10:06:48.22	149.36	13.95	-29.7	-31.4	13.6	3.00e-06	0	42	0	142606336	19	4389
2026-01-29 10:06:49.22	149.34	14.05	-29.8	-31.7	13.4	1.06e-05	0	42	0	144703488	19	4462
2026-01-29 10:06:50.23	149.32	14.15	-30.0	-32.0	13.2	1.98e-05	0	42	0	145752064	19	4576
2026-01-29 10:06:51.23	149.30	14.26	-29.9	-31.9	13.3	9.10e-06	0	41	0	147849216	19	4528
2026-01-29 10:06:52.23	149.28	14.36	-29.9	-31.8	13.4	1.60e-05	0	42	0	149946368	19	4472
2026-01-29 10:06:53.23	149.25	14.46	-29.8	-31.0	13.6	1.44e-05	0	41	0	152043520	20	4119
2026-01-29 10:06:54.24	149.23	14.57	-29.7	-30.7	13.8	1.06e-05	0	42	0	154140672	20	4036
2026-01-29 10:06:55.23	149.21	14.67	-29.7	-30.6	13.9	3.80e-06	0	42	0	155189248	20	3996
2026-01-29 10:06:56.23	149.19	14.78	-29.7	-30.6	13.9	7.00e-07	0	42	0	157286400	20	4008
2026-01-29 10:06:57.23	149.16	14.89	-29.7	-30.7	13.8	1.06e-05	0	42	0	159383552	20	4021
2026-01-29 10:06:58.24	149.14	14.99	-29.5	-30.1	14.2	3.80e-06	0	42	0	161480704	20	3849
2026-01-29 10:06:59.24	149.12	15.10	-29.3	-30.1	14.6	0.00e+00	0	42	0	163577856	19	3933
2026-01-29 10:07:00.24	149.09	15.21	-29.3	-30.1	14.6	4.50e-06	0	42	0	164626432	19	3937
2026-01-29 10:07:01.24	149.07	15.31	-29.2	-29.9	14.7	0.00e+00	0	42	0	166723584	19	3894
2026-01-29 10:07:02.25	149.05	15.42	-29.3	-30.2	14.5	7.00e-07	0	42	0	168820736	19	3987
2026-01-29 10:07:03.25	149.02	15.53	-29.4	-30.4	14.4	1.50e-06	0	42	0	170917888	19	4041
2026-01-29 10:07:04.25	149.00	15.64	-29.5	-30.7	14.2	7.00e-07	0	42	0	171966464	19	4121
2026-01-29 10:07:05.25	148.98	15.75	-29.5	-30.8	14.2	1.50e-06	0	42	0	174063616	19	4152
2026-01-29 10:07:06.26	148.95	15.86	-29.8	-31.5	13.7	3.00e-06	0	42	0	176160768	19	4378
2026-01-29 10:07:07.26	148.93	15.97	-29.6	-31.0	14.0	2.20e-06	0	42	0	178257920	19	4241
2026-01-29 10:07:08.26	148.90	16.09	-29.6	-31.1	14.0	1.50e-06	0	42	0	180355072	19	4241
2026-01-29 10:07:09.27	148.88	16.20	-29.7	-31.1	14.0	3.00e-06	0	42	0	181403648	19	4248
2026-01-29 10:07:10.27	148.85	16.31	-29.5	-30.8	14.2	2.20e-06	0	42	0	183500800	19	4148
2026-01-29 10:07:11.28	148.83	16.42	-29.5	-30.7	14.2	1.50e-06	0	42	0	185597952	19	4135
2026-01-29 10:07:12.28	148.80	16.54	-29.5	-30.7	14.2	7.00e-07	0	42	0	187695104	19	4132
2026-01-29 10:07:13.29	148.77	16.65	-29.6	-31.0	14.1	3.00e-06	0	42	0	189792256	19	4212
2026-01-29 10:07:14.29	148.75	16.77	-29.6	-30.9	14.1	3.00e-06	0	42	0	190840832	19	4190
2026-01-29 10:07:15.29	148.72	16.88	-29.5	-30.6	14.4	7.00e-07	0	42	0	192937984	19	4094
2026-01-29 10:07:16.30	148.70	17.00	-29.8	-31.2	14.0	3.80e-06	0	42	0	195035136	19	4256
2026-01-29 10:07:17.30	148.67	17.11	-29.7	-31.1	14.1	2.20e-06	0	42	0	197132288	19	4230
2026-01-29 10:07:18.31	148.64	17.23	-29.9	-31.5	13.9	2.20e-06	0	42	0	199229440	19	4346
2026-01-29 10:07:19.31	148.61	17.35	-29.9	-31.6	13.8	3.80e-06	0	42	0	200278016	19	4362
2026-01-29 10:07:20.31	148.59	17.47	-29.9	-31.5	13.9	2.20e-06	0	42	0	202375168	19	4346
2026-01-29 10:07:21.31	148.56	17.58	-29.8	-31.3	14.0	3.80e-06	0	42	0	204472320	19	4273
2026-01-29 10:07:22.32	148.53	17.70	-29.9	-31.2	13.7	6.80e-06	0	42	0	206569472	20	4160
2026-01-29 10:07:23.33	148.50	17.83	-29.9	-31.0	13.9	6.10e-06	0	42	0	208666624	20	4100
2026-01-29 10:07:24.33	148.47	17.94	-29.9	-31.1	13.8	5.30e-06	0	42	0	209715200	20	4147
2026-01-29 10:07:25.34	148.45	18.07	-29.8	-30.9	14.0	2.20e-06	0	42	0	211812352	20	4055
2026-01-29 10:07:26.34	148.42	18.19	-29.8	-30.7	14.1	2.20e-06	0	42	0	213909504	20	4002
2026-01-29 10:07:27.34	148.39	18.31	-29.6	-30.2	14.4	7.00e-07	0	42	0	216006656	20	3863
2026-01-29 10:07:28.35	148.36	18.43	-29.5	-29.9	14.6	0.00e+00	0	42	0	218103808	20	3786
2026-01-29 10:07:29.35	148.33	18.56	-29.3	-29.5	14.8	5.30e-06	0	42	0	219152384	20	3688
2026-01-29 10:07:30.35	148.30	18.68	-29.4	-29.8	14.7	0.00e+00	0	42	0	221249536	20	3755
2026-01-29 10:07:31.35	148.27	18.80	-29.4	-29.8	14.7	0.00e+00	0	42	0	223346688	20	3763
2026-01-29 10:07:32.36	148.24	18.93	-29.5	-30.1	14.5	3.80e-06	0	42	0	225443840	20	3835
2026-01-29 10:07:33.36	148.21	19.05	-29.5	-30.0	14.5	0.00e+00	0	42	0	226492416	20	3824
2026-01-29 10:07:34.36	148.18	19.18	-29.8	-30.8	14.0	7.00e-07	0	42	0	228589568	20	4053
2026-01-29 10:07:35.37	148.14	19.31	-29.9	-31.2	13.8	1.37e-05	0	42	0	230686720	20	4158
2026-01-29 10:07:36.37	148.11	19.44	-29.8	-30.9	14.0	3.80e-06	0	42	0	232783872	20	4064
2026-01-29 10:07:37.38	148.08	19.56	-29.7	-30.7	14.2	2.20e-06	0	42	0	234881024	20	3999
2026-01-29 10:07:38.38	148.05	19.69	-29.8	-30.9	14.0	7.00e-07	0	42	0	236978176	20	4072
2026-01-29 10:07:39.38	148.02	19.82	-29.9	-31.0	14.0	5.30e-06	0	42	0	238026752	20	4098
2026-01-29 10:07:40.39	147.98	19.95	-29.7	-30.5	14.3	2.20e-06	0	42	0	240123904	20	3947
2026-01-29 10:07:41.40	147.95	20.09	-29.6	-30.2	14.5	3.80e-06	0	42	0	242221056	20	3848
2026-01-29 10:07:42.40	147.92	20.22	-29.5	-29.8	14.8	7.00e-07	0	42	0	244318208	20	3758
2026-01-29 10:07:43.41	147.88	20.35	-29.5	-29.9	14.8	0.00e+00	0	42	0	245366784	20	3768
2026-01-29 10:07:44.41	147.85	20.48	-29.6	-30.1	14.6	1.50e-06	0	42	0	247463936	20	3826
2026-01-29 10:07:45.41	147.81	20.62	-29.5	-29.9	14.8	0.00e+00	0	42	0	249561088	20	3764
2026-01-29 10:07:46.41	147.78	20.75	-29.5	-29.9	14.7	0.00e+00	0	42	0	251658240	20	3782
2026-01-29 10:07:47.41	147.74	20.88	-29.7	-30.3	14.5	1.50e-06	0	42	0	253755392	20	3885
2026-01-29 10:07:48.42	147.71	21.02	-29.5	-29.9	14.8	0.00e+00	0	42	0	254803968	20	3781
2026-01-29 10:07:49.42	147.67	21.16	-29.4	-29.5	15.0	0.00e+00	0	42	0	256901120	20	3677
2026-01-29 10:07:50.42	147.64	21.29	-29.4	-29.8	14.9	0.00e+00	0	42	0	258998272	20	3739
2026-01-29 10:07:51.42	147.60	21.43	-29.4	-29.7	14.9	0.00e+00	0	42	0	261095424	20	3719
2026-01-29 10:07:52.42	147.56	21.57	-29.3	-30.0	15.1	0.00e+00	0	42	0	263192576	19	3880
2026-01-29 10:07:53.42	147.53	21.71	-29.3	-30.0	15.1	0.00e+00	0	42	0	264241152	19	3880
2026-01-29 10:07:54.43	147.49	21.85	-29.3	-29.9	15.2	0.00e+00	0	42	0	266338304	19	3850
2026-01-29 10:07:55.43	147.45	21.99	-29.2	-29.8	15.3	0.00e+00	0	42	0	268435456	19	3821
2026-01-29 10:07:56.43	147.41	22.13	-29.3	-30.0	15.2	0.00e+00	0	42	0	270532608	19	3883
2026-01-29 10:07:57.44	147.37	22.28	-29.3	-29.9	15.3	0.00e+00	0	42	0	272629760	19	3845
2026-01-29 10:07:58.44	147.33	22.42	-29.4	-30.2	15.0	7.00e-07	0	42	0	273678336	19	3943
2026-01-29 10:07:59.45	147.29	22.56	-29.5	-30.3	15.0	7.00e-07	0	42	0	275775488	19	3957
2026-01-29 10:08:00.45	147.26	22.71	-29.5	-30.4	14.9	0.00e+00	0	42	0	277872640	19	3999
2026-01-29 10:08:01.46	147.21	22.85	-29.6	-30.6	14.8	0.00e+00	0	42	0	279969792	19	4060
2026-01-29 10:08:02.46	147.17	23.00	-29.5	-30.4	14.9	7.00e-07	0	42	0	282066944	19	3984
2026-01-29 10:08:03.46	147.13	23.15	-29.5	-30.5	14.8	0.00e+00	0	42	0	283115520	19	4017
2026-01-29 10:08:04.46	147.09	23.30	-29.6	-30.6	14.8	7.00e-07	0	42	0	285212672	19	4065
2026-01-29 10:08:05.46	147.05	23.44	-29.5	-30.5	14.9	7.00e-07	0	42	0	287309824	19	4017
2026-01-29 10:08:06.46	147.01	23.59	-29.7	-30.9	14.7	0.00e+00	0	42	0	289406976	19	4131
2026-01-29 10:08:07.46	146.97	23.74	-29.7	-31.0	14.6	0.00e+00	0	42	0	290455552	19	4180
2026-01-29 10:08:08.47	146.92	23.90	-29.3	-30.0	15.2	0.00e+00	0	42	0	292552704	19	3885
2026-01-29 10:08:09.47	146.88	24.05	-29.3	-29.8	15.4	0.00e+00	0	42	0	294649856	19	3825
2026-01-29 10:08:10.48	146.83	24.20	-29.1	-29.3	15.6	0.00e+00	0	42	0	296747008	19	3692
2026-01-29 10:08:11.48	146.79	24.36	-29.3	-29.8	15.4	0.00e+00	0	42	0	298844160	19	3819
2026-01-29 10:08:12.49	146.74	24.51	-29.4	-30.1	15.2	0.00e+00	0	42	0	300941312	19	3899
2026-01-29 10:08:13.49	146.70	24.67	-29.5	-30.5	15.0	0.00e+00	0	42	0	301989888	19	4000
2026-01-29 10:08:14.50	146.65	24.83	-29.8	-31.0	14.7	7.00e-07	0	42	0	304087040	19	4153
2026-01-29 10:08:15.50	146.61	24.98	-29.9	-30.8	14.3	7.00e-07	0	42	0	306184192	20	4015
2026-01-29 10:08:16.50	146.56	25.14	-30.1	-31.4	14.0	7.00e-07	0	42	0	308281344	20	4173
2026-01-29 10:08:17.50	146.51	25.30	-30.3	-31.8	13.8	3.80e-06	0	42	0	309329920	20	4303
2026-01-29 10:08:18.50	146.46	25.46	-30.1	-31.2	14.1	1.50e-06	0	42	0	311427072	20	4113
2026-01-29 10:08:19.51	146.42	25.62	-30.3	-31.8	13.8	2.20e-06	0	42	0	313524224	20	4279
2026-01-29 10:08:20.51	146.37	25.79	-30.2	-31.6	13.9	1.50e-06	0	42	0	315621376	20	4232
2026-01-29 10:08:21.52	146.32	25.95	-30.0	-31.2	14.3	0.00e+00	0	42	0	317718528	20	4097
2026-01-29 10:08:22.53	146.27	26.12	-30.2	-31.6	14.0	6.80e-06	0	42	0	318767104	20	4208
2026-01-29 10:08:23.52	146.22	26.28	-30.2	-31.4	14.0	6.10e-06	0	42	0	320864256	20	4171
2026-01-29 10:08:24.52	146.17	26.45	-30.2	-31.7	14.0	1.50e-06	0	42	0	322961408	20	4244
2026-01-29 10:08:25.53	146.11	26.61	-30.4	-32.2	13.6	3.80e-06	0	42	0	325058560	20	4421
2026-01-29 10:08:26.53	146.06	26.78	-30.2	-31.0	14.1	6.10e-06	0	42	0	327155712	21	3957
2026-01-29 10:08:27.53	146.01	26.95	-30.6	-32.1	13.4	1.14e-05	0	42	0	328204288	21	4289
2026-01-29 10:08:28.53	145.95	27.12	-30.8	-32.7	13.0	1.83e-05	0	42	0	330301440	21	4484
2026-01-29 10:08:29.54	145.90	27.29	-30.8	-32.8	13.0	2.44e-05	0	42	0	332398592	21	4507
2026-01-29 10:08:30.54	145.85	27.47	-30.9	-32.9	12.8	5.26e-05	0	42	0	334495744	21	4553
2026-01-29 10:08:31.54	145.79	27.64	-30.8	-32.3	12.9	8.23e-05	0	42	0	336592896	22	4264
2026-01-29 10:08:32.54	145.73	27.81	-31.1	-32.9	12.6	3.96e-05	0	42	0	337641472	22	4464
2026-01-29 10:08:33.54	145.68	27.99	-31.1	-33.0	12.5	8.85e-05	0	42	0	339738624	22	4496
2026-01-29 10:08:34.55	145.62	28.17	-30.7	-31.9	13.2	7.24e-05	0	42	0	341835776	22	4129
2026-01-29 10:08:35.56	145.56	28.35	-31.0	-32.7	12.7	9.07e-05	0	42	0	343932928	22	4372
2026-01-29 10:08:36.56	145.50	28.53	-31.1	-33.1	12.4	1.01e-04	0	42	0	346030080	22	4502
2026-01-29 10:08:37.56	145.44	28.71	-31.1	-33.0	12.6	5.49e-05	0	42	0	347078656	22	4473
2026-01-29 10:08:38.56	145.38	28.89	-31.1	-33.2	12.4	1.42e-04	0	42	0	349175808	22	4554
2026-01-29 10:08:39.56	145.32	29.07	-31.0	-32.9	12.5	1.70e-04	0	42	0	351272960	22	4466
2026-01-29 10:08:40.57	145.26	29.25	-31.1	-32.9	12.5	1.49e-04	0	42	0	353370112	22	4468
2026-01-29 10:08:41.57	145.20	29.44	-31.2	-33.3	12.3	2.10e-04	0	42	0	355467264	22	4574
2026-01-29 10:08:42.57	145.14	29.62	-30.9	-32.5	12.8	1.52e-04	0	42	0	356515840	22	4328
2026-01-29 10:08:43.58	145.07	29.81	-31.3	-33.5	12.2	2.77e-04	0	42	0	358612992	22	4672
2026-01-29 10:08:44.58	145.01	30.00	-31.3	-33.6	12.1	2.88e-04	0	43	0	360710144	22	4704
2026-01-29 10:08:45.58	144.94	30.19	-31.3	-33.7	12.1	2.13e-04	0	43	0	362807296	22	4731
2026-01-29 10:08:46.58	144.88	30.38	-31.4	-33.8	12.1	2.49e-04	0	42	0	363855872	22	4753
2026-01-29 10:08:47.59	144.81	30.57	-31.4	-34.0	11.9	3.23e-04	0	42	0	365953024	22	4816
2026-01-29 10:08:48.60	144.74	30.77	-31.3	-33.6	12.2	2.01e-04	0	42	0	368050176	22	4691
2026-01-29 10:08:49.60	144.67	30.96	-31.3	-33.2	12.2	3.49e-04	0	42	0	370147328	23	4447
2026-01-29 10:08:50.61	144.60	31.16	-31.2	-32.7	12.4	4.22e-04	0	42	0	372244480	23	4297
2026-01-29 10:08:51.61	144.53	31.36	-31.3	-33.0	12.2	2.93e-04	0	42	0	373293056	23	4394
2026-01-29 10:08:52.62	144.46	31.56	-31.4	-33.4	11.9	2.12e-04	0	43	0	375390208	23	4530
2026-01-29 10:08:53.62	144.39	31.75	-31.7	-34.2	11.4	5.78e-04	0	42	0	377487360	23	4824
2026-01-29 10:08:54.62	144.31	31.96	-31.9	-34.8	11.0	1.88e-03	0	42	0	379584512	23	5031
2026-01-29 10:08:55.62	144.24	32.16	-32.2	-35.3	10.3	3.27e-03	0	43	0	381681664	24	5137
2026-01-29 10:08:56.63	144.16	32.36	-32.3	-35.7	10.0	6.13e-03	0	42	0	382730240	24	5331
2026-01-29 10:08:57.63	144.09	32.57	-32.1	-35.0	10.5	5.13e-03	0	42	0	384827392	24	5024
2026-01-29 10:08:58.63	144.01	32.77	-31.9	-34.3	11.1	5.40e-03	0	43	0	386924544	24	4730
2026-01-29 10:08:59.64	143.93	32.98	-32.0	-34.5	10.9	2.29e-03	0	43	0	389021696	24	4837
2026-01-29 10:09:00.64	143.85	33.19	-31.9	-34.2	11.1	2.20e-03	0	42	0	391118848	24	4699
2026-01-29 10:09:01.64	143.77	33.40	-31.9	-34.3	11.1	1.05e-03	0	43	0	392167424	24	4753
2026-01-29 10:09:02.64	143.69	33.61	-31.9	-34.3	11.0	1.45e-03	0	42	0	394264576	24	4761
2026-01-29 10:09:03.65	143.61	33.83	-32.2	-35.3	10.4	2.35e-03	0	42	0	396361728	24	5145
2026-01-29 10:09:04.66	143.53	34.04	-32.4	-35.9	9.9	3.38e-03	0	42	0	398458880	24	5396
2026-01-29 10:09:05.66	143.44	34.26	-32.4	-35.9	9.9	6.65e-03	0	42	0	400556032	24	5403
2026-01-29 10:09:06.66	143.35	34.47	-32.1	-34.6	10.4	1.19e-02	0	42	0	401604608	25	4800
2026-01-29 10:09:07.66	143.27	34.69	-32.3	-35.3	9.9	1.23e-02	0	42	0	403701760	25	5076
2026-01-29 10:09:08.67	143.18	34.91	-32.2	-34.9	10.3	1.10e-02	0	42	0	405798912	25	4882
2026-01-29 10:09:09.67	143.09	35.14	-32.2	-34.7	10.4	6.00e-03	0	42	0	407896064	25	4824
2026-01-29 10:09:10.68	143.00	35.36	-32.0	-34.1	10.9	4.73e-03	0	42	0	409993216	25	4591
2026-01-29 10:09:11.67	142.91	35.58	-31.8	-33.5	11.3	1.81e-03	0	42	0	411041792	25	4380
2026-01-29 10:09:12.68	142.81	35.81	-31.8	-34.0	11.3	9.93e-04	0	42	0	413138944	24	4614
2026-01-29 10:09:13.68	142.72	36.04	-31.9	-34.3	11.0	2.22e-03	0	42	0	415236096	24	4752
2026-01-29 10:09:14.69	142.62	36.27	-32.2	-35.4	10.2	2.75e-03	0	42	0	417333248	24	5183
2026-01-29 10:09:15.69	142.52	36.50	-32.4	-36.0	9.8	7.33e-03	0	42	0	419430400	24	5459
2026-01-29 10:09:16.70	142.42	36.73	-32.3	-35.5	10.2	9.02e-03	0	42	0	420478976	24	5232
2026-01-29 10:09:17.70	142.32	36.97	-32.4	-35.8	10.0	9.14e-03	0	42	0	422576128	24	5361
2026-01-29 10:09:18.71	142.22	37.20	-32.1	-35.0	10.7	6.19e-03	0	42	0	424673280	24	4983
2026-01-29 10:09:19.71	142.12	37.44	-31.8	-33.9	11.4	1.59e-03	0	42	0	426770432	24	4584
2026-01-29 10:09:20.72	142.01	37.68	-31.5	-33.0	12.0	5.03e-04	0	42	0	427819008	24	4263
2026-01-29 10:09:21.72	141.91	37.92	-31.5	-32.8	12.1	2.17e-04	0	42	0	429916160	24	4221
2026-01-29 10:09:22.72	141.80	38.16	-31.8	-34.3	11.4	1.73e-04	0	42	0	432013312	23	4834
2026-01-29 10:09:23.73	141.69	38.41	-31.4	-33.2	12.3	1.55e-04	0	42	0	434110464	23	4435
2026-01-29 10:09:24.73	141.57	38.65	-31.4	-33.2	12.3	1.20e-04	0	43	0	436207616	23	4425
2026-01-29 10:09:25.73	141.46	38.90	-31.3	-32.9	12.5	5.51e-04	0	42	0	437256192	23	4320
2026-01-29 10:09:26.74	141.35	39.15	-31.6	-33.7	12.0	2.50e-04	0	42	0	439353344	23	4608
2026-01-29 10:09:27.73	141.23	39.40	-31.8	-34.3	11.5	1.02e-03	0	42	0	441450496	23	4835
2026-01-29 10:09:28.74	141.11	39.65	-31.8	-34.5	11.4	7.33e-04	0	43	0	443547648	23	4893
2026-01-29 10:09:29.74	140.99	39.90	-31.8	-34.4	11.4	1.33e-03	0	42	0	445644800	23	4847
2026-01-29 10:09:30.74	140.87	40.16	-31.8	-34.1	11.3	1.58e-03	0	43	0	446693376	24	4655
2026-01-29 10:09:31.75	140.74	40.42	-32.1	-34.9	10.7	1.75e-03	0	42	0	448790528	24	4952
2026-01-29 10:09:32.75	140.61	40.67	-31.8	-33.9	11.5	2.17e-03	0	42	0	450887680	24	4585
2026-01-29 10:09:33.75	140.49	40.93	-31.5	-33.0	12.0	3.42e-04	0	42	0	452984832	24	4277
2026-01-29 10:09:34.75	140.35	41.20	-31.3	-32.4	12.5	1.85e-04	0	42	0	455081984	24	4076
2026-01-29 10:09:35.75	140.22	41.46	-31.5	-33.4	12.1	1.11e-04	0	42	0	456130560	23	4496
2026-01-29 10:09:36.76	140.09	41.73	-31.4	-33.3	12.3	1.01e-04	0	43	0	458227712	23	4448
2026-01-29 10:09:37.77	139.95	41.99	-31.5	-33.5	12.1	2.01e-04	0	42	0	460324864	23	4516
2026-01-29 10:09:38.77	139.81	42.26	-31.6	-33.6	12.1	3.08e-04	0	43	0	462422016	23	4568
2026-01-29 10:09:39.77	139.66	42.53	-31.8	-34.3	11.5	8.79e-04	0	42	0	464519168	23	4828
2026-01-29 10:09:40.77	139.52	42.81	-31.9	-34.7	11.2	1.35e-03	0	42	0	465567744	23	4977
2026-01-29 10:09:41.77	139.37	43.08	-32.3	-35.6	10.2	2.11e-03	0	42	0	467664896	24	5261
2026-01-29 10:09:42.78	139.22	43.36	-32.2	-35.2	10.5	3.30e-03	0	42	0	469762048	24	5096
2026-01-29 10:09:43.78	139.07	43.63	-32.1	-34.8	10.9	2.71e-03	0	42	0	471859200	24	4919
2026-01-29 10:09:44.79	138.91	43.92	-32.3	-35.6	10.3	4.63e-03	0	42	0	473956352	24	5230
2026-01-29 10:09:45.79	138.75	44.20	-32.3	-35.6	10.3	5.23e-03	0	43	0	475004928	24	5248
2026-01-29 10:09:46.79	138.59	44.48	-32.0	-34.4	11.1	2.36e-03	0	43	0	477102080	24	4750
2026-01-29 10:09:47.80	138.43	44.77	-31.7	-33.5	11.8	6.22e-04	0	42	0	479199232	24	4452
2026-01-29 10:09:48.80	138.26	45.05	-31.2	-32.6	12.8	2.07e-04	0	42	0	481296384	23	4222
2026-01-29 10:09:49.80	138.09	45.34	-31.1	-32.3	13.0	4.73e-05	0	42	0	482344960	23	4139
2026-01-29 10:09:50.80	137.92	45.63	-30.8	-31.9	13.6	6.10e-06	0	43	0	484442112	22	4102
2026-01-29 10:09:51.80	137.74	45.92	-30.6	-31.4	13.9	3.80e-06	0	43	0	486539264	22	3960
2026-01-29 10:09:52.81	137.56	46.22	-30.6	-31.5	13.9	3.00e-06	0	42	0	488636416	22	3973
2026-01-29 10:09:53.82	137.37	46.51	-31.0	-32.5	13.2	6.80e-06	0	43	0	490733568	22	4278
2026-01-29 10:09:54.82	137.19	46.81	-31.0	-32.6	13.1	6.79e-05	0	43	0	491782144	22	4307
2026-01-29 10:09:55.82	137.00	47.11	-30.6	-31.4	13.9	1.52e-05	0	42	0	493879296	22	3961
2026-01-29 10:09:56.82	136.80	47.41	-30.7	-31.6	14.0	3.80e-06	0	42	0	495976448	22	4002
2026-01-29 10:09:57.82	136.60	47.71	-30.2	-30.8	14.6	7.00e-07	0	42	0	498073600	21	3883
2026-01-29 10:09:58.82	136.40	48.02	-30.2	-30.9	14.5	0.00e+00	0	43	0	500170752	21	3891
2026-01-29 10:09:59.82	136.19	48.32	-30.2	-30.9	14.5	7.00e-07	0	43	0	501219328	21	3900
2026-01-29 10:10:00.82	135.98	48.63	-30.6	-32.0	13.8	2.20e-06	0	42	0	503316480	21	4224
2026-01-29 10:10:01.83	135.77	48.94	-30.8	-32.4	13.6	1.22e-05	0	43	0	505413632	21	4363
2026-01-29 10:10:02.83	135.55	49.25	-30.4	-31.4	14.3	1.14e-05	0	42	0	507510784	21	4039
2026-01-29 10:10:03.84	135.32	49.57	-30.4	-31.4	14.2	7.00e-07	0	42	0	509607936	21	4058
2026-01-29 10:10:04.83	135.10	49.88	-30.3	-31.1	14.5	7.00e-07	0	42	0	510656512	21	3972
2026-01-29 10:10:05.83	134.86	50.19	-30.8	-32.5	13.5	6.80e-06	0	42	0	512753664	21	4403
2026-01-29 10:10:06.84	134.62	50.51	-30.8	-32.7	13.4	1.14e-05	0	43	0	514850816	21	4466
2026-01-29 10:10:07.84	134.38	50.83	-30.9	-32.8	13.3	4.50e-06	0	42	0	516947968	21	4500
2026-01-29 10:10:08.84	134.13	51.15	-30.5	-31.7	14.0	1.06e-05	0	43	0	519045120	21	4158
2026-01-29 10:10:09.85	133.87	51.48	-30.2	-30.9	14.5	7.00e-07	0	43	0	520093696	21	3934
2026-01-29 10:10:10.86	133.61	51.81	-30.4	-31.5	14.1	7.00e-07	0	42	0	522190848	21	4095
2026-01-29 10:10:11.87	133.34	52.14	-30.5	-31.8	14.0	7.00e-07	0	43	0	524288000	21	4185
2026-01-29 10:10:12.87	133.07	52.46	-30.9	-32.8	13.3	6.10e-06	0	42	0	526385152	21	4492
2026-01-29 10:10:13.87	132.79	52.79	-30.3	-31.2	14.4	3.00e-06	0	42	0	528482304	21	4012
2026-01-29 10:10:14.86	132.51	53.12	-29.6	-30.0	15.2	0.00e+00	0	42	0	529530880	20	3768
2026-01-29 10:10:15.87	132.22	53.45	-29.3	-29.1	15.9	0.00e+00	0	42	0	531628032	20	3522
2026-01-29 10:10:16.87	131.92	53.79	-29.2	-29.4	16.2	0.00e+00	0	43	0	533725184	19	3671
2026-01-29 10:10:17.87	131.62	54.12	-29.6	-30.3	15.6	0.00e+00	0	42	0	535822336	19	3918
2026-01-29 10:10:18.87	131.30	54.46	-30.1	-31.2	14.7	7.00e-07	0	42	0	537919488	20	4066
2026-01-29 10:10:19.87	130.99	54.79	-30.4	-31.8	14.4	0.00e+00	0	42	0	538968064	20	4243
2026-01-29 10:10:20.86	130.66	55.13	-29.8	-30.2	15.3	0.00e+00	0	42	0	541065216	20	3806
2026-01-29 10:10:21.87	130.32	55.47	-29.8	-30.2	15.3	0.00e+00	0	43	0	543162368	20	3805
2026-01-29 10:10:22.87	129.98	55.81	-29.9	-30.5	15.2	0.00e+00	0	42	0	545259520	20	3880
2026-01-29 10:10:23.86	129.63	56.15	-30.4	-32.0	14.3	0.00e+00	0	43	0	546308096	20	4292
2026-01-29 10:10:24.87	129.27	56.49	-31.1	-32.7	13.2	1.22e-05	0	43	0	548405248	22	4342
2026-01-29 10:10:25.87	128.90	56.84	-30.9	-32.3	13.5	2.28e-05	0	43	0	550502400	22	4192
2026-01-29 10:10:26.88	128.51	57.19	-30.7	-31.6	14.0	9.90e-06	0	43	0	552599552	22	3995
2026-01-29 10:10:27.89	128.12	57.53	-31.2	-32.9	13.1	5.30e-06	0	43	0	554696704	22	4371
2026-01-29 10:10:28.90	127.72	57.88	-31.3	-32.6	12.7	5.11e-05	0	43	0	555745280	23	4217
2026-01-29 10:10:29.90	127.31	58.23	-31.2	-32.4	13.1	2.67e-05	0	43	0	557842432	23	4132
2026-01-29 10:10:30.91	126.88	58.58	-31.2	-32.4	13.1	3.43e-05	0	43	0	559939584	23	4137
2026-01-29 10:10:31.91	126.45	58.93	-31.0	-31.9	13.4	2.74e-05	0	43	0	562036736	23	3994
2026-01-29 10:10:32.92	126.00	59.28	-31.0	-32.0	13.4	1.83e-05	0	42	0	564133888	23	4026
2026-01-29 10:10:33.92	125.55	59.63	-31.1	-32.1	13.3	2.28e-05	0	43	0	565182464	23	4046
2026-01-29 10:10:34.91	125.08	59.97	-30.6	-31.4	14.1	6.80e-06	0	43	0	567279616	22	3927
2026-01-29 10:10:35.91	124.60	60.32	-30.5	-31.0	14.3	3.00e-06	0	42	0	569376768	22	3825
2026-01-29 10:10:36.91	124.11	60.67	-30.8	-31.9	14.0	2.20e-06	0	43	0	571473920	22	4079
2026-01-29 10:10:37.92	123.59	61.02	-31.1	-32.6	13.3	5.30e-06	0	43	0	572522496	22	4287
2026-01-29 10:10:38.92	123.07	61.37	-31.2	-32.8	13.1	1.29e-05	0	43	0	574619648	22	4357
2026-01-29 10:10:39.93	122.53	61.73	-31.3	-33.3	12.9	3.20e-05	0	43	0	576716800	22	4512
2026-01-29 10:10:40.93	121.97	62.07	-30.8	-32.0	13.7	1.75e-05	0	43	0	578813952	22	4096
2026-01-29 10:10:41.93	121.41	62.42	-30.6	-31.4	14.1	4.50e-06	0	43	0	580911104	22	3935
2026-01-29 10:10:42.94	120.81	62.77	-30.5	-31.0	14.4	4.50e-06	0	43	0	583008256	22	3827
2026-01-29 10:10:43.94	120.21	63.12	-30.2	-30.8	14.7	0.00e+00	0	42	0	584056832	21	3867
2026-01-29 10:10:44.95	119.58	63.46	-29.5	-29.7	15.7	0.00e+00	0	43	0	586153984	20	3648
2026-01-29 10:10:45.95	118.94	63.81	-29.0	-28.8	16.6	0.00e+00	0	43	0	588251136	19	3521
2026-01-29 10:10:46.96	118.28	64.15	-28.8	-28.9	16.8	0.00e+00	0	42	0	590348288	18	3630
2026-01-29 10:10:47.96	117.60	64.49	-29.3	-30.0	16.3	0.00e+00	0	42	0	591396864	18	3918
2026-01-29 10:10:48.96	116.90	64.83	-29.4	-30.2	16.1	0.00e+00	0	42	0	593494016	18	3984
2026-01-29 10:10:49.96	116.17	65.17	-29.6	-30.4	15.6	0.00e+00	0	43	0	595591168	19	3931
2026-01-29 10:10:50.97	115.42	65.51	-29.5	-29.9	16.0	0.00e+00	0	42	0	597688320	19	3797
2026-01-29 10:10:51.97	114.66	65.84	-29.4	-29.8	16.0	0.00e+00	0	43	0	599785472	19	3767
2026-01-29 10:10:52.98	113.86	66.17	-30.1	-31.0	15.1	0.00e+00	0	43	0	600834048	20	3992
2026-01-29 10:10:53.98	113.04	66.50	-31.2	-33.0	13.2	2.20e-06	0	43	0	602931200	22	4419
2026-01-29 10:10:54.98	112.21	66.82	-31.6	-33.5	12.6	3.96e-05	0	43	0	605028352	23	4478
2026-01-29 10:10:55.99	111.33	67.14	-31.9	-34.4	11.8	2.04e-04	0	43	0	607125504	23	4798
2026-01-29 10:10:56.99	110.44	67.46	-31.9	-33.8	12.1	4.08e-04	0	43	0	609222656	24	4494
2026-01-29 10:10:57.99	109.52	67.77	-32.4	-35.6	10.7	1.23e-03	0	43	0	610271232	24	5177
2026-01-29 10:10:58.99	108.57	68.08	-32.6	-35.5	10.2	6.87e-03	0	43	0	612368384	25	5067
2026-01-29 10:10:59.99	107.59	68.38	-32.2	-34.3	11.2	4.74e-03	0	43	0	614465536	25	4577
2026-01-29 10:11:01.00	106.57	68.68	-32.3	-34.6	11.1	1.19e-03	0	43	0	616562688	25	4704
2026-01-29 10:11:02.00	105.53	68.97	-32.3	-34.7	11.2	1.20e-03	0	43	0	618659840	25	4720
2026-01-29 10:11:03.01	104.45	69.26	-32.8	-36.2	9.8	6.54e-03	0	42	0	619708416	25	5356
2026-01-29 10:11:04.01	103.35	69.54	-33.0	-36.8	9.3	1.02e-02	0	43	0	621805568	25	5607
2026-01-29 10:11:05.02	102.21	69.82	-32.3	-34.6	11.0	6.99e-03	0	42	0	623902720	25	4690
2026-01-29 10:11:06.02	101.04	70.09	-31.8	-33.4	12.3	3.35e-04	0	43	0	625999872	24	4338
2026-01-29 10:11:07.02	99.84	70.34	-31.9	-33.9	12.0	1.52e-04	0	42	0	628097024	24	4509
2026-01-29 10:11:08.03	98.59	70.60	-32.2	-34.8	11.4	6.40e-04	0	43	0	629145600	24	4864
2026-01-29 10:11:09.03	97.32	70.84	-32.1	-33.9	11.5	1.44e-03	0	43	0	631242752	25	4446
2026-01-29 10:11:10.04	96.00	71.08	-32.0	-33.5	11.9	6.17e-04	0	43	0	633339904	25	4291
2026-01-29 10:11:11.03	94.67	71.30	-32.8	-36.4	9.8	2.87e-03	0	43	0	635437056	25	5404
2026-01-29 10:11:12.04	93.29	71.52	-32.3	-34.4	11.3	3.57e-03	0	42	0	637534208	25	4611
2026-01-29 10:11:13.04	91.88	71.73	-31.7	-33.2	12.3	4.50e-04	0	43	0	638582784	24	4289
2026-01-29 10:11:14.03	90.45	71.92	-31.3	-32.5	13.2	2.74e-05	0	42	0	640679936	23	4155
2026-01-29 10:11:15.04	88.97	72.11	-31.1	-32.2	13.5	8.30e-06	0	43	0	642777088	23	4061
2026-01-29 10:11:16.04	87.46	72.28	-31.7	-33.7	12.5	2.51e-05	0	43	0	644874240	23	4548
2026-01-29 10:11:17.05	85.91	72.45	-32.5	-35.2	10.6	1.08e-03	0	43	0	646971392	25	4929
2026-01-29 10:11:18.05	84.35	72.60	-32.6	-35.7	10.4	5.60e-03	0	43	0	648019968	25	5118
2026-01-29 10:11:19.05	82.76	72.74	-32.8	-36.3	9.9	4.44e-03	0	43	0	650117120	25	5381
2026-01-29 10:11:20.06	81.12	72.86	-33.2	-37.3	8.6	2.55e-02	0	42	0	652214272	26	5727
2026-01-29 10:11:21.06	79.48	72.98	-32.6	-35.0	10.5	2.31e-02	0	42	0	654311424	26	4743
2026-01-29 10:11:22.06	77.82	73.07	-32.3	-34.4	11.3	1.66e-03	0	43	0	655360000	25	4602
2026-01-29 10:11:23.06	76.14	73.16	-32.9	-36.6	9.8	6.48e-03	0	43	0	657457152	25	5477
2026-01-29 10:11:24.07	74.42	73.23	-33.2	-37.0	8.9	3.69e-02	0	43	0	659554304	26	5611
2026-01-29 10:11:25.07	72.71	73.29	-32.5	-35.3	10.6	1.02e-02	0	43	0	661651456	25	4959
2026-01-29 10:11:26.06	71.00	73.33	-32.3	-34.5	11.1	1.84e-03	0	43	0	663748608	25	4677
2026-01-29 10:11:27.06	69.27	73.36	-32.6	-35.6	10.4	6.29e-03	0	42	0	664797184	25	5072
2026-01-29 10:11:28.06	67.54	73.37	-32.5	-35.1	10.7	1.72e-03	0	42	0	666894336	25	4867
2026-01-29 10:11:29.07	65.78	73.37	-32.0	-34.0	12.0	7.94e-04	0	43	0	668991488	24	4563
2026-01-29 10:11:30.07	64.05	73.35	-31.6	-33.0	12.6	1.79e-04	0	43	0	671088640	24	4216
2026-01-29 10:11:31.08	62.30	73.32	-31.3	-32.5	13.2	1.75e-05	0	43	0	673185792	23	4162
2026-01-29 10:11:32.08	60.58	73.28	-31.5	-33.0	12.9	3.81e-05	0	43	0	674234368	23	4321
2026-01-29 10:11:33.09	58.86	73.22	-30.8	-31.8	14.0	5.30e-06	0	43	0	676331520	22	4047
2026-01-29 10:11:34.09	57.16	73.14	-30.3	-30.9	14.8	1.50e-06	0	42	0	678428672	21	3881
2026-01-29 10:11:35.10	55.47	73.06	-31.1	-32.5	13.6	4.50e-06	0	43	0	680525824	22	4240
2026-01-29 10:11:36.10	53.81	72.95	-30.8	-31.7	14.2	3.00e-06	0	43	0	682622976	22	4006
2026-01-29 10:11:37.10	52.17	72.84	-31.0	-32.4	13.6	7.60e-06	0	43	0	683671552	22	4230
2026-01-29 10:11:38.11	50.54	72.71	-30.4	-30.8	14.5	6.10e-06	0	43	0	685768704	22	3755
2026-01-29 10:11:39.11	48.96	72.57	-29.9	-30.1	15.3	7.00e-07	0	43	0	687865856	21	3683
2026-01-29 10:11:40.11	47.40	72.42	-30.7	-32.2	14.0	7.00e-07	0	43	0	689963008	21	4238
2026-01-29 10:11:41.11	45.87	72.25	-30.9	-31.9	13.9	9.10e-06	0	43	0	692060160	22	4071
2026-01-29 10:11:42.11	44.38	72.08	-31.1	-32.6	13.4	5.30e-06	0	42	0	693108736	22	4287
2026-01-29 10:11:43.12	42.90	71.89	-31.7	-33.9	12.3	9.99e-05	0	42	0	695205888	23	4618
2026-01-29 10:11:44.12	41.46	71.69	-32.1	-34.5	11.5	8.71e-04	0	43	0	697303040	24	4750
2026-01-29 10:11:45.13	40.05	71.48	-32.7	-35.7	10.2	2.61e-03	0	43	0	699400192	25	5139
2026-01-29 10:11:46.13	38.69	71.26	-33.2	-37.2	8.9	2.60e-02	0	42	0	701497344	26	5691
2026-01-29 10:11:47.13	37.36	71.03	-33.0	-36.6	9.3	1.84e-02	0	43	0	702545920	26	5412
2026-01-29 10:11:48.14	36.05	70.79	-33.2	-37.2	8.7	2.46e-02	0	43	0	704643072	26	5731
2026-01-29 10:11:49.14	34.79	70.55	-33.4	-37.8	7.7	4.79e-02	0	43	0	706740224	27	5962
2026-01-29 10:11:50.14	33.56	70.30	-33.3	-37.2	8.3	4.15e-02	0	43	0	708837376	27	5651
2026-01-29 10:11:51.14	32.36	70.04	-33.4	-37.6	8.0	5.37e-02	0	43	0	709885952	27	5857
2026-01-29 10:11:52.14	31.20	69.77	-33.0	-36.2	9.0	5.28e-02	0	42	0	711983104	27	5164
2026-01-29 10:11:53.15	30.06	69.49	-32.2	-34.3	11.3	2.63e-03	0	43	0	714080256	25	4584
2026-01-29 10:11:54.15	28.97	69.21	-31.9	-33.9	12.1	2.84e-04	0	42	0	716177408	24	4548
2026-01-29 10:11:55.15	27.91	68.92	-31.7	-33.4	12.1	8.75e-04	0	43	0	718274560	24	4376
2026-01-29 10:11:56.15	26.88	68.63	-31.3	-32.7	13.0	1.94e-04	0	43	0	719323136	23	4220
2026-01-29 10:11:57.15	25.87	68.33	-31.2	-32.5	13.2	1.67e-05	0	43	0	721420288	23	4143
2026-01-29 10:11:58.16	24.89	68.03	-31.9	-34.0	11.9	3.23e-04	0	43	0	723517440	24	4566
2026-01-29 10:11:59.16	23.95	67.72	-31.4	-32.3	12.9	2.23e-04	0	42	0	725614592	24	4017
2026-01-29 10:12:00.15	23.05	67.41	-31.2	-32.4	13.2	2.74e-05	0	43	0	727711744	23	4115
2026-01-29 10:12:01.16	22.15	67.09	-31.6	-33.6	12.4	4.27e-05	0	43	0	728760320	23	4512
2026-01-29 10:12:02.16	21.29	66.77	-31.4	-32.9	12.8	1.68e-04	0	42	0	730857472	23	4280
2026-01-29 10:12:03.16	20.46	66.45	-30.8	-31.7	14.0	8.30e-06	0	42	0	732954624	22	4030
2026-01-29 10:12:04.16	19.65	66.12	-30.8	-31.8	13.9	3.80e-06	0	42	0	735051776	22	4053
2026-01-29 10:12:05.17	18.85	65.79	-29.9	-30.1	15.2	7.00e-07	0	42	0	737148928	21	3671
2026-01-29 10:12:06.18	18.09	65.46	-29.3	-29.7	16.2	0.00e+00	0	42	0	738197504	19	3739
2026-01-29 10:12:07.18	17.35	65.12	-29.8	-30.7	15.5	0.00e+00	0	42	0	740294656	19	4011
2026-01-29 10:12:08.19	16.62	64.78	-30.0	-30.9	15.0	0.00e+00	0	43	0	742391808	20	3983
2026-01-29 10:12:09.19	15.93	64.44	-29.2	-29.4	16.3	0.00e+00	0	43	0	744488960	19	3661
2026-01-29 10:12:10.20	15.25	64.10	-29.4	-29.7	16.1	0.00e+00	0	43	0	746586112	19	3739
2026-01-29 10:12:11.20	14.59	63.76	-30.0	-31.2	15.2	0.00e+00	0	43	0	747634688	19	4140
2026-01-29 10:12:12.20	13.96	63.42	-30.5	-31.6	14.2	1.50e-06	0	43	0	749731840	21	4097
2026-01-29 10:12:13.20	13.34	63.07	-30.7	-32.1	14.0	3.00e-06	0	43	0	751828992	21	4235
2026-01-29 10:12:14.20	12.74	62.73	-30.2	-30.8	14.7	0.00e+00	0	43	0	753926144	21	3857
2026-01-29 10:12:15.20	12.16	62.38	-30.1	-30.5	14.9	7.00e-07	0	42	0	754974720	21	3777
2026-01-29 10:12:16.20	11.59	62.04	-29.9	-30.1	15.2	0.00e+00	0	42	0	757071872	21	3671
2026-01-29 10:12:17.20	11.04	61.69	-31.0	-32.6	13.4	3.80e-06	0	42	0	759169024	22	4283
2026-01-29 10:12:18.21	10.50	61.34	-31.0	-32.4	13.3	3.12e-05	0	43	0	761266176	22	4229
2026-01-29 10:12:19.21	9.98	60.99	-29.9	-30.0	15.2	3.00e-06	0	42	0	763363328	21	3654
2026-01-29 10:12:20.22	9.47	60.64	-29.8	-30.3	15.3	0.00e+00	0	43	0	764411904	20	3811
2026-01-29 10:12:21.22	8.98	60.29	-29.9	-30.5	15.2	0.00e+00	0	43	0	766509056	20	3869
2026-01-29 10:12:22.22	8.50	59.94	-29.8	-30.3	15.3	0.00e+00	0	42	0	768606208	20	3819
2026-01-29 10:12:23.23	8.03	59.59	-30.2	-31.4	14.7	0.00e+00	0	43	0	770703360	20	4103
2026-01-29 10:12:24.23	7.58	59.24	-30.4	-31.3	14.4	0.00e+00	0	43	0	772800512	21	4010
2026-01-29 10:12:25.23	7.14	58.90	-30.8	-32.5	13.7	3.00e-06	0	43	0	773849088	21	4358
2026-01-29 10:12:26.24	6.70	58.55	-31.4	-33.6	12.6	1.06e-05	0	43	0	775946240	22	4615
2026-01-29 10:12:27.23	6.29	58.20	-31.1	-32.6	13.3	2.82e-05	0	42	0	778043392	22	4297
2026-01-29 10:12:28.24	5.88	57.86	-30.5	-31.0	14.3	2.20e-06	0	43	0	780140544	22	3827
2026-01-29 10:12:29.24	5.48	57.51	-30.2	-30.9	14.6	0.00e+00	0	43	0	782237696	21	3877
2026-01-29 10:12:30.25	5.09	57.16	-30.1	-30.6	14.8	0.00e+00	0	42	0	783286272	21	3820
2026-01-29 10:12:31.25	4.71	56.82	-30.3	-31.1	14.4	0.00e+00	0	43	0	785383424	21	3950
2026-01-29 10:12:32.25	4.34	56.48	-30.8	-32.3	13.8	0.00e+00	0	43	0	787480576	21	4294
2026-01-29 10:12:33.25	3.99	56.14	-30.7	-32.1	13.9	3.80e-06	0	42	0	789577728	21	4238
2026-01-29 10:12:34.26	3.63	55.79	-30.7	-32.2	13.8	3.80e-06	0	43	0	791674880	21	4264
2026-01-29 10:12:35.26	3.29	55.45	-30.7	-31.5	13.8	9.10e-06	0	43	0	792723456	22	3978
2026-01-29 10:12:36.26	2.96	55.12	-31.3	-33.3	12.8	2.36e-05	0	43	0	794820608	22	4504
2026-01-29 10:12:37.26	2.63	54.78	-31.3	-33.1	13.0	4.50e-05	0	43	0	796917760	22	4461
2026-01-29 10:12:38.26	2.31	54.44	-30.9	-32.1	13.5	2.89e-05	0	43	0	799014912	22	4147
2026-01-29 10:12:39.26	2.00	54.11	-30.4	-30.9	14.3	3.80e-06	0	43	0	800063488	22	3790
2026-01-29 10:12:40.26	1.70	53.78	-30.1	-30.5	14.9	7.00e-07	0	43	0	802160640	21	3781
2026-01-29 10:12:41.27	1.40	53.44	-29.8	-30.4	15.2	7.00e-07	0	43	0	804257792	20	3840
2026-01-29 10:12:42.28	1.11	53.11	-29.7	-30.0	15.5	0.00e+00	0	42	0	806354944	20	3733
2026-01-29 10:12:43.28	0.83	52.78	-29.3	-29.6	16.0	0.00e+00	0	43	0	808452096	19	3736
2026-01-29 10:12:44.28	0.55	52.45	-28.7	-28.7	16.8	0.00e+00	0	42	0	810549248	18	3594
2026-01-29 10:12:45.28	0.28	52.13	-29.3	-30.1	16.0	0.00e+00	0	42	0	811597824	18	3931
2026-01-29 10:12:46.28	0.02	51.80	-29.8	-30.4	15.0	0.00e+00	0	43	0	813694976	20	3851
2026-01-29 10:12:47.28	359.76	51.48	-29.9	-30.6	15.0	0.00e+00	0	42	0	815792128	20	3894
2026-01-29 10:12:48.28	359.51	51.16	-29.7	-30.2	15.3	0.00e+00	0	42	0	817889280	20	3790
2026-01-29 10:12:49.29	359.26	50.84	-30.8	-32.3	13.7	5.30e-06	0	43	0	818937856	21	4290
2026-01-29 10:12:50.30	359.01	50.52	-31.6	-33.7	12.1	1.75e-05	0	43	0	821035008	23	4568
2026-01-29 10:12:51.30	358.77	50.20	-31.8	-33.7	11.7	9.96e-04	0	43	0	823132160	24	4498
2026-01-29 10:12:52.30	358.54	49.89	-31.4	-32.6	12.4	3.68e-04	0	42	0	825229312	24	4130
2026-01-29 10:12:53.30	358.32	49.57	-31.4	-33.0	12.5	9.91e-05	0	43	0	827326464	23	4347
2026-01-29 10:12:54.30	358.09	49.26	-31.8	-34.2	11.6	3.55e-04	0	43	0	828375040	23	4750
2026-01-29 10:12:55.31	357.87	48.95	-31.7	-34.0	11.8	5.31e-04	0	43	0	830472192	23	4696
2026-01-29 10:12:56.32	357.66	48.64	-31.6	-33.7	12.0	2.86e-04	0	43	0	832569344	23	4570
2026-01-29 10:12:57.32	357.45	48.33	-31.9	-34.6	11.4	7.23e-04	0	43	0	834666496	23	4924
2026-01-29 10:12:58.32	357.24	48.03	-32.2	-35.1	10.7	9.89e-04	0	42	0	836763648	24	4999
2026-01-29 10:12:59.32	357.04	47.73	-32.1	-34.6	11.0	2.75e-03	0	43	0	837812224	24	4836
2026-01-29 10:13:00.32	356.84	47.43	-31.7	-33.4	11.8	1.72e-03	0	42	0	839909376	24	4408
2026-01-29 10:13:01.33	356.65	47.12	-31.8	-33.6	11.8	7.61e-04	0	43	0	842006528	24	4464
2026-01-29 10:13:02.34	356.46	46.82	-31.4	-32.7	12.4	1.68e-04	0	43	0	844103680	24	4155
2026-01-29 10:13:03.34	356.27	46.53	-31.4	-32.5	12.6	7.93e-05	0	43	0	846200832	24	4105
2026-01-29 10:13:04.34	356.09	46.24	-31.3	-32.9	12.7	6.86e-05	0	43	0	847249408	23	4314
2026-01-29 10:13:05.34	355.91	45.94	-31.4	-33.0	12.5	8.62e-05	0	42	0	849346560	23	4332
2026-01-29 10:13:06.34	355.74	45.65	-31.2	-32.6	12.8	5.95e-05	0	43	0	851443712	23	4220
2026-01-29 10:13:07.33	355.56	45.37	-31.7	-33.6	11.8	4.61e-04	0	43	0	853540864	24	4446
2026-01-29 10:13:08.34	355.39	45.08	-31.4	-32.5	12.5	2.19e-04	0	42	0	855638016	24	4090
2026-01-29 10:13:09.34	355.23	44.79	-31.4	-32.5	12.5	1.54e-04	0	43	0	856686592	24	4089
2026-01-29 10:13:10.34	355.06	44.51	-30.7	-31.7	13.8	1.67e-05	0	43	0	858783744	22	4021
2026-01-29 10:13:11.34	354.90	44.23	-30.9	-32.3	13.4	6.10e-06	0	43	0	860880896	22	4199
2026-01-29 10:13:12.35	354.75	43.95	-31.5	-33.5	12.2	1.14e-04	0	43	0	862978048	23	4516
2026-01-29 10:13:13.34	354.59	43.67	-32.4	-35.7	10.2	1.78e-03	0	42	0	864026624	24	5276
2026-01-29 10:13:14.35	354.44	43.40	-32.2	-35.2	10.6	6.58e-03	0	43	0	866123776	24	5051
2026-01-29 10:13:15.36	354.29	43.12	-32.2	-35.1	10.7	3.92e-03	0	42	0	868220928	24	5021
2026-01-29 10:13:16.37	354.14	42.84	-32.4	-35.6	10.4	3.14e-03	0	42	0	870318080	24	5202
2026-01-29 10:13:17.36	354.00	42.58	-32.9	-37.1	8.9	1.25e-02	0	43	0	872415232	25	5835
2026-01-29 10:13:18.37	353.86	42.30	-32.4	-35.3	10.2	7.25e-03	0	42	0	873463808	25	5012
2026-01-29 10:13:19.37	353.72	42.04	-32.1	-34.3	10.9	2.19e-03	0	43	0	875560960	25	4622
2026-01-29 10:13:20.37	353.58	41.77	-32.3	-34.8	10.5	2.62e-03	0	42	0	877658112	25	4824
2026-01-29 10:13:21.37	353.45	41.51	-32.6	-36.0	9.5	1.39e-02	0	43	0	879755264	25	5332
2026-01-29 10:13:22.37	353.31	41.25	-33.0	-37.0	8.4	3.86e-02	0	43	0	881852416	26	5728
2026-01-29 10:13:23.37	353.18	40.99	-33.6	-39.6	6.1	1.39e-01	0	43	0	882900992	27	7179
2026-01-29 10:13:24.37	353.06	40.73	-33.8	-40.8	5.3	3.90e-01	0	43	0	884998144	27	8080
2026-01-29 10:13:25.38	352.93	40.47	-33.6	-39.5	6.2	3.01e-01	0	43	0	887095296	27	7098
2026-01-29 10:13:26.38	352.80	40.21	-33.3	-38.0	7.3	2.06e-01	0	43	0	889192448	27	6172
2026-01-29 10:13:27.39	352.68	39.96	-33.1	-36.9	8.2	8.08e-02	0	43	0	891289600	27	5579
2026-01-29 10:13:28.38	352.56	39.71	-33.1	-36.8	8.2	7.99e-02	0	43	0	892338176	27	5513
2026-01-29 10:13:29.39	352.44	39.46	-32.7	-36.0	9.2	1.89e-02	0	43	0	894435328	26	5234
2026-01-29 10:13:30.39	352.33	39.21	-33.0	-36.9	8.5	3.28e-02	0	42	0	896532480	26	5641
2026-01-29 10:13:31.38	352.21	38.96	-32.9	-36.6	8.8	3.49e-02	0	43	0	898629632	26	5519
2026-01-29 10:13:32.39	352.10	38.72	-33.0	-37.2	8.3	5.72e-02	0	43	0	900726784	26	5792
2026-01-29 10:13:33.39	351.99	38.47	-32.7	-35.8	9.4	3.02e-02	0	43	0	901775360	26	5154
2026-01-29 10:13:34.40	351.88	38.23	-32.6	-35.5	9.6	1.76e-02	0	43	0	903872512	26	5032
2026-01-29 10:13:35.40	351.77	37.99	-32.5	-35.1	9.8	1.04e-02	0	43	0	905969664	26	4870
2026-01-29 10:13:36.40	351.67	37.75	-32.4	-35.2	10.2	4.52e-03	0	43	0	908066816	25	5005
2026-01-29 10:13:37.41	351.56	37.51	-32.4	-35.2	10.1	5.75e-03	0	43	0	909115392	25	5014
2026-01-29 10:13:38.41	351.46	37.27	-32.8	-36.7	9.0	1.14e-02	0	43	0	911212544	25	5661
2026-01-29 10:13:39.41	351.36	37.04	-32.6	-36.2	9.3	2.90e-02	0	43	0	913309696	25	5427
2026-01-29 10:13:40.42	351.26	36.81	-32.0	-34.1	10.9	7.22e-03	0	43	0	915406848	25	4577
2026-01-29 10:13:41.42	351.16	36.57	-31.9	-34.1	11.2	1.66e-03	0	42	0	917504000	24	4672
2026-01-29 10:13:42.43	351.06	36.34	-31.6	-33.3	11.9	4.13e-04	0	43	0	918552576	24	4361
2026-01-29 10:13:43.43	350.96	36.12	-31.6	-33.3	11.9	4.13e-04	0	43	0	920649728	24	4379
2026-01-29 10:13:44.43	350.87	35.89	-31.8	-33.8	11.5	5.17e-04	0	43	0	922746880	24	4551
2026-01-29 10:13:45.43	350.78	35.66	-32.2	-35.2	10.4	2.58e-03	0	43	0	924844032	24	5099
2026-01-29 10:13:46.44	350.69	35.44	-32.3	-35.0	10.2	9.07e-03	0	43	0	926941184	25	4906
2026-01-29 10:13:47.45	350.60	35.22	-32.2	-34.8	10.4	4.34e-03	0	43	0	927989760	25	4865
2026-01-29 10:13:48.45	350.51	34.99	-32.1	-34.6	10.6	5.02e-03	0	43	0	930086912	25	4752
2026-01-29 10:13:49.45	350.42	34.78	-32.2	-34.6	10.5	5.21e-03	0	43	0	932184064	25	4771
2026-01-29 10:13:50.46	350.33	34.56	-32.2	-34.8	10.3	7.37e-03	0	43	0	934281216	25	4850
2026-01-29 10:13:51.47	350.25	34.34	-31.9	-33.7	11.3	2.14e-03	0	43	0	936378368	25	4428
2026-01-29 10:13:52.47	350.16	34.12	-31.8	-33.8	11.4	7.62e-04	0	43	0	937426944	24	4555
2026-01-29 10:13:53.47	350.08	33.91	-31.7	-33.5	11.7	4.32e-04	0	43	0	939524096	24	4430
2026-01-29 10:13:54.48	350.00	33.70	-31.5	-33.4	12.1	5.47e-04	0	43	0	941621248	23	4477
2026-01-29 10:13:55.49	349.92	33.48	-31.4	-33.2	12.2	1.40e-04	0	43	0	943718400	23	4426
2026-01-29 10:13:56.48	349.84	33.28	-31.4	-33.3	12.2	3.34e-04	0	43	0	945815552	23	4456
2026-01-29 10:13:57.49	349.76	33.07	-31.2	-32.6	12.6	9.46e-05	0	43	0	946864128	23	4223
2026-01-29 10:13:58.49	349.68	32.86	-31.1	-32.4	12.8	5.26e-05	0	43	0	948961280	23	4162
2026-01-29 10:13:59.49	349.60	32.66	-31.5	-33.4	12.3	9.91e-05	0	43	0	951058432	23	4517
2026-01-29 10:14:00.49	349.53	32.45	-31.5	-33.4	12.1	1.62e-04	0	43	0	953155584	23	4507
2026-01-29 10:14:01.50	349.45	32.25	-31.6	-33.7	11.9	2.23e-04	0	43	0	955252736	23	4599
2026-01-29 10:14:02.50	349.38	32.05	-31.9	-34.3	11.1	1.42e-03	0	43	0	956301312	24	4738
2026-01-29 10:14:03.50	349.31	31.85	-31.8	-34.0	11.3	1.50e-03	0	43	0	958398464	24	4645
2026-01-29 10:14:04.51	349.23	31.65	-31.8	-34.0	11.3	1.39e-03	0	43	0	960495616	24	4635
2026-01-29 10:14:05.50	349.17	31.45	-31.7	-33.6	11.6	1.42e-03	0	43	0	962592768	24	4491
2026-01-29 10:14:06.50	349.10	31.26	-31.7	-33.7	11.5	1.05e-03	0	42	0	963641344	24	4536
2026-01-29 10:14:07.50	349.03	31.06	-31.5	-32.9	11.8	5.04e-04	0	42	0	965738496	24	4256
2026-01-29 10:14:08.51	348.96	30.87	-31.3	-32.6	12.3	3.99e-04	0	43	0	967835648	24	4142
2026-01-29 10:14:09.51	348.89	30.68	-31.4	-32.7	12.2	1.97e-04	0	43	0	969932800	24	4200
2026-01-29 10:14:10.51	348.82	30.49	-31.4	-32.7	12.1	4.23e-04	0	42	0	972029952	24	4196
2026-01-29 10:14:11.52	348.76	30.29	-31.2	-32.7	12.5	1.93e-04	0	43	0	973078528	23	4281
2026-01-29 10:14:12.52	348.69	30.11	-31.1	-32.5	12.7	8.62e-05	0	43	0	975175680	23	4189
2026-01-29 10:14:13.52	348.63	29.92	-31.3	-33.0	12.2	1.11e-04	0	43	0	977272832	23	4354
2026-01-29 10:14:14.52	348.57	29.73	-31.3	-32.9	12.3	2.65e-04	0	43	0	979369984	23	4352
2026-01-29 10:14:15.53	348.50	29.55	-31.4	-33.1	12.0	1.64e-04	0	42	0	981467136	23	4402
2026-01-29 10:14:16.53	348.44	29.36	-31.5	-33.6	11.9	2.87e-04	0	43	0	982515712	23	4579
2026-01-29 10:14:17.53	348.38	29.18	-31.5	-33.6	11.9	4.58e-04	0	43	0	984612864	23	4575
2026-01-29 10:14:18.54	348.32	29.00	-31.2	-32.8	12.4	3.60e-04	0	43	0	986710016	23	4300
2026-01-29 10:14:19.55	348.26	28.82	-31.1	-32.5	12.6	9.46e-05	0	43	0	988807168	23	4213
2026-01-29 10:14:20.55	348.20	28.64	-30.9	-31.9	13.1	6.02e-05	0	43	0	990904320	23	4025
2026-01-29 10:14:21.56	348.14	28.46	-30.8	-32.0	13.4	2.05e-05	0	43	0	991952896	22	4128
2026-01-29 10:14:22.56	348.09	28.28	-30.7	-31.7	13.5	3.43e-05	0	43	0	994050048	22	4061
2026-01-29 10:14:23.57	348.03	28.10	-30.5	-31.2	14.1	6.10e-06	0	43	0	996147200	22	3920
2026-01-29 10:14:24.57	347.97	27.93	-30.5	-31.3	13.7	1.14e-05	0	43	0	998244352	22	3946
2026-01-29 10:14:25.57	347.92	27.75	-30.8	-32.2	13.2	1.52e-05	0	43	0	1000341504	22	4195
2026-01-29 10:14:26.58	347.86	27.58	-30.9	-32.4	13.0	2.82e-05	0	43	0	1001390080	22	4257
2026-01-29 10:14:27.58	347.81	27.41	-30.9	-32.4	12.9	1.01e-04	0	43	0	1003487232	22	4275
2026-01-29 10:14:28.58	347.76	27.24	-31.1	-32.9	12.7	5.49e-05	0	43	0	1005584384	22	4425
2026-01-29 10:14:29.59	347.70	27.07	-31.0	-32.7	12.7	1.21e-04	0	43	0	1007681536	22	4377
2026-01-29 10:14:30.58	347.65	26.90	-31.0	-32.7	12.8	5.72e-05	0	43	0	1009778688	22	4364
2026-01-29 10:14:31.58	347.60	26.73	-31.2	-33.3	12.4	6.63e-05	0	43	0	1010827264	22	4562
2026-01-29 10:14:32.59	347.55	26.57	-31.3	-33.5	12.3	5.24e-04	0	43	0	1012924416	22	4648
2026-01-29 10:14:33.59	347.50	26.40	-31.2	-33.3	12.4	1.01e-04	0	43	0	1015021568	22	4552
2026-01-29 10:14:34.59	347.45	26.24	-31.1	-32.9	12.7	1.51e-04	0	43	0	1017118720	22	4433
2026-01-29 10:14:35.59	347.40	26.07	-30.8	-32.1	13.2	4.95e-05	0	43	0	1019215872	22	4165
2026-01-29 10:14:36.60	347.35	25.91	-30.7	-31.8	13.4	1.37e-05	0	43	0	1020264448	22	4084
2026-01-29 10:14:37.60	347.30	25.75	-30.8	-32.2	13.2	6.79e-05	0	43	0	1022361600	22	4212
2026-01-29 10:14:38.61	347.25	25.58	-30.8	-32.0	13.2	3.58e-05	0	43	0	1024458752	22	4161
2026-01-29 10:14:39.61	347.20	25.43	-31.2	-33.1	12.5	6.63e-05	0	43	0	1026555904	22	4510
2026-01-29 10:14:40.61	347.16	25.27	-31.1	-33.0	12.6	1.29e-04	0	43	0	1027604480	22	4465
2026-01-29 10:14:41.61	347.11	25.11	-30.9	-32.4	12.9	7.32e-05	0	43	0	1029701632	22	4271
2026-01-29 10:14:42.62	347.07	24.95	-30.7	-32.0	13.2	2.97e-05	0	43	0	1031798784	22	4147
2026-01-29 10:14:43.62	347.02	24.79	-30.8	-32.1	13.2	2.36e-05	0	43	0	1033895936	22	4184
2026-01-29 10:14:44.62	346.98	24.64	-30.7	-31.9	13.3	1.83e-05	0	43	0	1035993088	22	4110
2026-01-29 10:14:45.62	346.93	24.49	-30.7	-31.8	13.3	2.13e-05	0	43	0	1038090240	22	4103
2026-01-29 10:14:46.63	346.89	24.33	-30.8	-32.2	13.1	2.74e-05	0	43	0	1039138816	22	4203
2026-01-29 10:14:47.63	346.84	24.18	-30.9	-32.4	13.0	2.82e-05	0	43	0	1041235968	22	4268
2026-01-29 10:14:48.64	346.80	24.03	-30.9	-32.3	13.0	2.44e-05	0	43	0	1043333120	22	4259
2026-01-29 10:14:49.63	346.76	23.88	-30.9	-32.5	12.8	4.57e-05	0	43	0	1045430272	22	4320
2026-01-29 10:14:50.64	346.72	23.73	-30.9	-32.3	13.0	4.57e-05	0	43	0	1046478848	22	4251
2026-01-29 10:14:51.65	346.67	23.58	-31.0	-32.8	12.7	3.96e-05	0	43	0	1048576000	22	4400
2026-01-29 10:14:52.65	346.63	23.43	-31.0	-32.7	12.7	8.39e-05	0	43	0	1050673152	22	4378
2026-01-29 10:14:53.66	346.59	23.28	-31.3	-33.6	12.0	2.15e-04	0	43	0	1052770304	22	4694
2026-01-29 10:14:54.66	346.55	23.13	-31.4	-33.9	11.8	4.94e-04	0	43	0	1054867456	22	4805
2026-01-29 10:14:55.66	346.51	22.99	-31.6	-33.9	11.5	5.29e-04	0	43	0	1055916032	23	4724
2026-01-29 10:14:56.67	346.47	22.84	-31.7	-34.4	11.1	1.80e-03	0	42	0	1058013184	23	4893
2026-01-29 10:14:57.66	346.43	22.70	-31.6	-34.0	11.4	1.52e-03	0	43	0	1060110336	23	4744
2026-01-29 10:14:58.67	346.39	22.55	-31.4	-33.4	11.8	7.92e-04	0	43	0	1062207488	23	4527
2026-01-29 10:14:59.67	346.36	22.41	-31.2	-32.8	12.2	2.47e-04	0	43	0	1064304640	23	4333
2026-01-29 10:15:00.67	346.32	22.27	-31.0	-32.3	12.6	1.26e-04	0	43	0	1065353216	23	4166
2026-01-29 10:15:01.67	346.28	22.13	-31.0	-32.2	12.6	9.46e-05	0	43	0	1067450368	23	4126
2026-01-29 10:15:02.67	346.24	21.99	-30.7	-32.0	13.1	5.56e-05	0	43	0	1069547520	22	4167
2026-01-29 10:15:03.68	346.21	21.85	-30.6	-31.7	13.2	2.13e-05	0	43	0	1071644672	22	4074
2026-01-29 10:15:04.68	346.17	21.71	-30.6	-31.7	13.3	1.52e-05	0	43	0	1073741824	22	4078
2026-01-29 10:15:05.69	346.13	21.57	-30.8	-32.1	13.0	1.75e-05	0	43	0	1074790400	22	4189
2026-01-29 10:15:06.70	346.10	21.43	-30.5	-31.5	13.4	3.35e-05	0	43	0	1076887552	22	4016
2026-01-29 10:15:07.70	346.06	21.30	-30.4	-31.2	13.6	4.50e-06	0	43	0	1078984704	22	3937
2026-01-29 10:15:08.69	346.03	21.16	-30.4	-31.1	13.6	8.30e-06	0	43	0	1081081856	22	3905
2026-01-29 10:15:09.70	345.99	21.02	-30.3	-31.2	13.8	6.80e-06	0	43	0	1083179008	21	4037
2026-01-29 10:15:10.70	345.96	20.89	-30.4	-31.7	13.5	9.10e-06	0	43	0	1084227584	21	4173
2026-01-29 10:15:11.71	345.92	20.76	-30.5	-31.9	13.4	1.29e-05	0	43	0	1086324736	21	4224
2026-01-29 10:15:12.72	345.89	20.62	-30.7	-32.3	13.1	1.90e-05	0	43	0	1088421888	21	4363
2026-01-29 10:15:13.72	345.86	20.49	-30.5	-32.0	13.3	2.51e-05	0	43	0	1090519040	21	4259
2026-01-29 10:15:14.72	345.82	20.36	-30.4	-31.6	13.6	9.90e-06	0	43	0	1091567616	21	4133
2026-01-29 10:15:15.72	345.79	20.23	-30.3	-31.3	13.7	3.80e-06	0	43	0	1093664768	21	4070
2026-01-29 10:15:16.72	345.76	20.10	-30.3	-31.3	13.7	9.10e-06	0	43	0	1095761920	21	4049
2026-01-29 10:15:17.73	345.73	19.97	-30.4	-31.7	13.5	5.30e-06	0	42	0	1097859072	21	4180
2026-01-29 10:15:18.73	345.69	19.84	-30.3	-31.3	13.8	3.00e-06	0	43	0	1099956224	21	4039
2026-01-29 10:15:19.73	345.66	19.71	-30.1	-30.8	14.0	0.00e+00	0	43	0	1101004800	21	3925
2026-01-29 10:15:20.73	345.63	19.58	-30.0	-30.7	14.1	2.20e-06	0	42	0	1103101952	21	3888
2026-01-29 10:15:21.73	345.60	19.46	-30.0	-30.5	14.2	7.00e-07	0	43	0	1105199104	21	3843
2026-01-29 10:15:22.73	345.57	19.33	-30.1	-30.8	14.0	0.00e+00	0	43	0	1107296256	21	3917
2026-01-29 10:15:23.73	345.54	19.20	-30.0	-30.6	14.1	4.50e-06	0	43	0	1109393408	21	3861
2026-01-29 10:15:24.73	345.51	19.08	-29.9	-30.5	14.2	1.50e-06	0	43	0	1110441984	21	3828
2026-01-29 10:15:25.73	345.48	18.95	-30.1	-30.9	13.9	3.80e-06	0	43	0	1112539136	21	3939
2026-01-29 10:15:26.74	345.45	18.83	-30.0	-30.6	14.1	7.00e-07	0	43	0	1114636288	21	3874
2026-01-29 10:15:27.75	345.42	18.71	-30.0	-30.6	14.1	2.20e-06	0	43	0	1116733440	21	3856
2026-01-29 10:15:28.76	345.39	18.58	-30.2	-31.1	13.8	4.50e-06	0	43	0	1118830592	21	4010
2026-01-29 10:15:29.76	345.36	18.46	-30.5	-31.9	13.3	8.30e-06	0	43	0	1119879168	21	4238
2026-01-29 10:15:30.76	345.33	18.34	-30.6	-32.4	12.9	4.11e-05	0	43	0	1121976320	21	4403
2026-01-29 10:15:31.76	345.31	18.22	-30.9	-33.2	12.4	7.93e-05	0	42	0	1124073472	21	4679
2026-01-29 10:15:32.76	345.28	18.10	-31.2	-33.4	11.9	2.92e-04	0	43	0	1126170624	22	4661
2026-01-29 10:15:33.76	345.25	17.98	-31.3	-33.9	11.5	3.65e-04	0	43	0	1128267776	22	4829
2026-01-29 10:15:34.76	345.22	17.86	-31.4	-34.2	11.3	1.08e-03	0	43	0	1129316352	22	4946
2026-01-29 10:15:35.77	345.19	17.74	-31.6	-34.4	10.8	1.65e-03	0	43	0	1131413504	23	4939
2026-01-29 10:15:36.77	345.17	17.62	-31.8	-35.1	10.3	4.77e-03	0	42	0	1133510656	23	5221
2026-01-29 10:15:37.77	345.14	17.51	-31.8	-35.1	10.2	5.08e-03	0	43	0	1135607808	23	5257
2026-01-29 10:15:38.77	345.11	17.39	-31.9	-35.3	10.1	5.57e-03	0	42	0	1137704960	23	5340
2026-01-29 10:15:39.78	345.09	17.27	-32.1	-35.6	9.5	8.34e-03	0	43	0	1138753536	24	5397
2026-01-29 10:15:40.78	345.06	17.16	-32.1	-35.4	9.6	1.36e-02	0	43	0	1140850688	24	5298
2026-01-29 10:15:41.79	345.04	17.04	-31.9	-35.0	9.9	9.65e-03	0	43	0	1142947840	24	5113
2026-01-29 10:15:42.80	345.01	16.92	-32.1	-35.5	9.5	1.33e-02	0	43	0	1145044992	24	5339
2026-01-29 10:15:43.80	344.98	16.81	-31.9	-35.0	9.9	1.38e-02	0	43	0	1146093568	24	5119
2026-01-29 10:15:44.81	344.96	16.70	-31.9	-35.0	10.0	7.05e-03	0	43	0	1148190720	24	5114
2026-01-29 10:15:45.81	344.93	16.58	-31.9	-34.9	9.9	7.16e-03	0	43	0	1150287872	24	5092
2026-01-29 10:15:46.82	344.91	16.47	-31.9	-34.7	10.1	8.24e-03	0	43	0	1152385024	24	5017
2026-01-29 10:15:47.82	344.89	16.36	-32.0	-35.4	9.5	1.14e-02	0	43	0	1154482176	24	5305
2026-01-29 10:15:48.82	344.86	16.25	-32.0	-35.2	9.6	1.42e-02	0	43	0	1156579328	24	5214
2026-01-29 10:15:49.83	344.84	16.13	-31.8	-34.6	10.1	8.75e-03	0	43	0	1157627904	24	4963
2026-01-29 10:15:50.83	344.81	16.02	-31.6	-34.0	10.6	4.37e-03	0	43	0	1159725056	24	4737
2026-01-29 10:15:51.83	344.79	15.91	-31.6	-34.0	10.6	4.32e-03	0	43	0	1161822208	24	4735
2026-01-29 10:15:52.83	344.77	15.80	-31.7	-34.1	10.5	3.26e-03	0	43	0	1163919360	24	4764
2026-01-29 10:15:53.83	344.74	15.69	-31.8	-34.5	10.2	4.88e-03	0	43	0	1164967936	24	4939
2026-01-29 10:15:54.84	344.72	15.59	-31.7	-34.4	10.2	7.07e-03	0	43	0	1167065088	24	4906
2026-01-29 10:15:55.85	344.70	15.48	-31.7	-34.3	10.3	5.86e-03	0	43	0	1169162240	24	4869
2026-01-29 10:15:56.85	344.67	15.37	-31.7	-34.3	10.3	5.53e-03	0	43	0	1171259392	24	4867
2026-01-29 10:15:57.85	344.65	15.26	-32.0	-35.3	9.5	8.45e-03	0	43	0	1173356544	24	5259
2026-01-29 10:15:58.85	344.63	15.16	-31.8	-34.6	10.1	7.65e-03	0	43	0	1174405120	24	4979
2026-01-29 10:15:59.86	344.61	15.05	-31.8	-34.7	10.0	7.90e-03	0	43	0	1176502272	24	5028
2026-01-29 10:16:00.87	344.59	14.94	-31.9	-34.9	9.8	1.01e-02	0	43	0	1178599424	24	5087
2026-01-29 10:16:01.87	344.56	14.84	-31.8	-34.7	10.0	1.04e-02	0	43	0	1180696576	24	5004
2026-01-29 10:16:02.87	344.54	14.73	-31.9	-35.0	9.8	8.53e-03	0	43	0	1182793728	24	5148
2026-01-29 10:16:03.88	344.52	14.63	-31.8	-34.6	10.0	9.80e-03	0	43	0	1183842304	24	4962
2026-01-29 10:16:04.87	344.50	14.52	-31.8	-34.6	10.0	8.56e-03	0	43	0	1185939456	24	4996
2026-01-29 10:16:05.88	344.48	14.42	-31.6	-33.9	10.6	4.98e-03	0	43	0	1188036608	24	4721
2026-01-29 10:16:06.89	344.46	14.32	-31.5	-33.7	10.6	3.56e-03	0	43	0	1190133760	24	4652
2026-01-29 10:16:07.89	344.44	14.21	-31.7	-34.2	10.3	5.17e-03	0	43	0	1192230912	24	4809
2026-01-29 10:16:08.90	344.42	14.11	-31.4	-33.4	10.9	2.99e-03	0	43	0	1193279488	24	4530
2026-01-29 10:16:09.90	344.40	14.01	-31.4	-33.5	10.8	2.13e-03	0	43	0	1195376640	24	4578
2026-01-29 10:16:10.90	344.38	13.91	-31.5	-33.6	10.8	2.80e-03	0	43	0	1197473792	24	4587
2026-01-29 10:16:11.90	344.36	13.81	-31.4	-33.5	10.8	2.81e-03	0	43	0	1199570944	24	4553
2026-01-29 10:16:12.90	344.34	13.71	-31.3	-33.2	11.0	2.38e-03	0	43	0	1201668096	24	4466
2026-01-29 10:16:13.90	344.32	13.61	-31.3	-33.6	11.1	1.72e-03	0	43	0	1202716672	23	4673
2026-01-29 10:16:14.90	344.30	13.51	-31.2	-33.4	11.1	1.55e-03	0	43	0	1204813824	23	4621
2026-01-29 10:16:15.91	344.28	13.41	-31.2	-33.3	11.3	1.31e-03	0	43	0	1206910976	23	4566
2026-01-29 10:16:16.91	344.26	13.31	-31.2	-33.4	11.2	1.29e-03	0	43	0	1209008128	23	4622
2026-01-29 10:16:17.91	344.24	13.21	-31.1	-33.1	11.4	1.44e-03	0	43	0	1210056704	23	4516
2026-01-29 10:16:18.92	344.22	13.11	-31.1	-33.0	11.4	1.01e-03	0	43	0	1212153856	23	4481
2026-01-29 10:16:19.92	344.20	13.01	-31.0	-32.8	11.5	8.54e-04	0	43	0	1214251008	23	4423
2026-01-29 10:16:20.92	344.18	12.91	-31.1	-32.9	11.5	7.70e-04	0	43	0	1216348160	23	4445
2026-01-29 10:16:21.92	344.16	12.82	-31.0	-32.6	11.7	7.06e-04	0	43	0	1218445312	23	4342
2026-01-29 10:16:22.93	344.15	12.72	-30.9	-32.4	11.9	5.45e-04	0	43	0	1219493888	23	4276
2026-01-29 10:16:23.93	344.13	12.62	-30.9	-32.3	11.9	4.21e-04	0	43	0	1221591040	23	4242
2026-01-29 10:16:24.94	344.11	12.53	-30.9	-33.0	11.8	4.37e-04	0	43	0	1223688192	22	4556
2026-01-29 10:16:25.94	344.09	12.43	-30.9	-32.8	11.9	3.93e-04	0	43	0	1225785344	22	4508
2026-01-29 10:16:26.94	344.07	12.34	-30.9	-32.9	11.8	3.20e-04	0	43	0	1227882496	22	4549
2026-01-29 10:16:27.94	344.06	12.24	-30.9	-33.0	11.7	5.29e-04	0	43	0	1228931072	22	4574
2026-01-29 10:16:28.94	344.04	12.15	-30.8	-32.7	11.9	5.07e-04	0	43	0	1231028224	22	4463
2026-01-29 10:16:29.95	344.02	12.05	-30.9	-32.9	11.7	4.33e-04	0	43	0	1233125376	22	4545
2026-01-29 10:16:30.95	344.00	11.96	-31.0	-33.3	11.5	8.32e-04	0	43	0	1235222528	22	4670
2026-01-29 10:16:31.95	343.99	11.87	-30.9	-33.1	11.6	6.51e-04	0	43	0	1237319680	22	4597
2026-01-29 10:16:32.96	343.97	11.77	-31.0	-33.2	11.6	5.62e-04	0	43	0	1238368256	22	4646
2026-01-29 10:16:33.96	343.95	11.68	-31.0	-33.4	11.4	8.12e-04	0	43	0	1240465408	22	4708
2026-01-29 10:16:34.97	343.94	11.59	-30.9	-33.1	11.6	6.28e-04	0	43	0	1242562560	22	4612
2026-01-29 10:16:35.97	343.92	11.50	-31.1	-33.6	11.3	1.03e-03	0	43	0	1244659712	22	4777
2026-01-29 10:16:36.98	343.90	11.40	-31.1	-33.4	11.3	1.40e-03	0	42	0	1246756864	22	4735
2026-01-29 10:16:37.98	343.89	11.31	-31.1	-33.5	11.3	9.40e-04	0	43	0	1247805440	22	4756
2026-01-29 10:16:38.98	343.87	11.22	-31.1	-33.5	11.3	1.16e-03	0	43	0	1249902592	22	4778
2026-01-29 10:16:39.99	343.86	11.13	-31.1	-33.7	11.1	1.23e-03	0	43	0	1251999744	22	4826
2026-01-29 10:16:40.99	343.84	11.04	-31.1	-33.6	11.2	1.17e-03	0	43	0	1254096896	22	4787
2026-01-29 10:16:42.00	343.82	10.95	-31.1	-33.6	11.2	1.36e-03	0	43	0	1256194048	22	4794
2026-01-29 10:16:42.99	343.81	10.86	-31.1	-33.6	11.2	1.22e-03	0	43	0	1257242624	22	4799
2026-01-29 10:16:43.99	343.79	10.77	-31.2	-34.0	10.9	2.22e-03	0	43	0	1259339776	22	4944
2026-01-29 10:16:45.00	343.78	10.68	-31.2	-34.0	10.8	2.66e-03	0	43	0	1261436928	22	4970
2026-01-29 10:16:45.99	343.76	10.59	-31.2	-33.9	10.9	1.59e-03	0	43	0	1263534080	22	4917
2026-01-29 10:16:47.00	343.75	10.51	-31.4	-34.5	10.5	3.11e-03	0	43	0	1264582656	22	5145
2026-01-29 10:16:48.00	343.73	10.42	-31.3	-34.2	10.7	3.63e-03	0	43	0	1266679808	22	5033
2026-01-29 10:16:49.01	343.72	10.33	-31.3	-34.3	10.6	2.96e-03	0	43	0	1268776960	22	5103
2026-01-29 10:16:50.01	343.70	10.24	-31.5	-34.8	10.2	4.79e-03	0	43	0	1270874112	22	5309
2026-01-29 10:16:51.01	343.69	10.16	-31.3	-34.3	10.6	4.68e-03	0	43	0	1272971264	22	5095
2026-01-29 10:16:52.02	343.67	10.07	-31.2	-34.1	10.7	2.98e-03	0	43	0	1274019840	22	5020
2026-01-29 10:16:53.02	343.66	9.98	-31.3	-34.3	10.6	2.93e-03	0	43	0	1276116992	22	5090
2026-01-29 10:16:54.02	343.64	9.90	-31.4	-34.6	10.3	3.38e-03	0	43	0	1278214144	22	5225
2026-01-29 10:16:55.02	343.63	9.81	-31.5	-35.0	10.0	6.54e-03	0	43	0	1280311296	22	5408
2026-01-29 10:16:56.02	343.62	9.72	-31.4	-34.4	10.1	7.16e-03	0	43	0	1282408448	23	5038
2026-01-29 10:16:57.03	343.60	9.64	-31.4	-34.0	10.3	7.41e-03	0	43	0	1283457024	23	4904
