passes_logs/2026/01/29/R2M6_AANII_01/R2M6_AANII_01__20260129_084652_NOAA_20_JPSS-1_rec.log

#Pass ID: 20260129_084652_NOAA 20 (JPSS-1)
#Satellite: NOAA 20 (JPSS-1)
#Configuration: NOAA 20
#almurnet v.1.7.20240730
#Start time: 2026-01-29 08:46:53

#Version: 2.2.20231116
#Station: R2M6_AANII_01
#Location: 30.233357 lon 59.946436 lat
#TLE: 1 43013U 17073A   26027.94683596  .00000137  00000+0  85741-4 0  9995
#TLE: 2 43013  98.7648 328.7503 0000940  21.3928 338.7287 14.19541154424576

#Time	Az	El	Level	Level2	SNR	BER	BlckErr	Temp	State	Recorded	gain1	gain2
2026-01-29 08:46:53.60	112.39	7.11	-32.6	-39.8	4.6	1.36e+00	0	40	0	0	26	8255
2026-01-29 08:46:54.60	112.31	7.18	-32.3	-38.1	4.9	1.28e+00	0	40	104	0	26	7012
2026-01-29 08:46:55.61	112.24	7.25	-32.3	-37.9	7.5	1.09e-01	0	40	0	0	26	6888
2026-01-29 08:46:56.61	112.16	7.32	-32.3	-38.0	7.5	1.09e-01	0	40	0	1048576	26	6924
2026-01-29 08:46:57.62	112.08	7.39	-32.3	-38.8	7.3	1.08e-01	0	40	0	3145728	25	7546
2026-01-29 08:46:58.62	112.00	7.46	-32.3	-38.4	7.5	1.31e-01	0	40	0	5242880	25	7322
2026-01-29 08:46:59.62	111.93	7.53	-32.2	-38.0	7.9	1.05e-01	0	40	0	7340032	25	7024
2026-01-29 08:47:00.62	111.85	7.60	-32.0	-37.0	8.7	4.37e-02	0	40	0	9437184	25	6394
2026-01-29 08:47:01.63	111.77	7.67	-31.8	-36.1	9.4	2.22e-02	0	40	0	10485760	25	5935
2026-01-29 08:47:02.63	111.69	7.74	-31.5	-35.7	10.2	1.07e-02	0	40	0	12582912	24	5795
2026-01-29 08:47:03.63	111.61	7.81	-31.4	-35.2	10.6	4.31e-03	0	40	0	14680064	24	5571
2026-01-29 08:47:04.63	111.53	7.88	-31.4	-35.2	10.6	3.65e-03	0	40	0	16777216	24	5555
2026-01-29 08:47:05.63	111.45	7.95	-31.4	-35.1	10.7	2.71e-03	0	40	0	17825792	24	5516
2026-01-29 08:47:06.62	111.38	8.02	-31.4	-35.2	10.7	3.18e-03	0	41	0	19922944	24	5553
2026-01-29 08:47:07.62	111.30	8.09	-31.4	-35.2	10.6	3.15e-03	0	40	0	22020096	24	5581
2026-01-29 08:47:08.62	111.21	8.16	-31.4	-35.2	10.6	3.37e-03	0	41	0	24117248	24	5562
2026-01-29 08:47:09.63	111.13	8.23	-31.5	-35.3	10.6	3.35e-03	0	41	0	26214400	24	5619
2026-01-29 08:47:10.64	111.05	8.31	-31.4	-35.3	10.6	3.27e-03	0	41	0	27262976	24	5594
2026-01-29 08:47:11.65	110.97	8.38	-31.5	-35.5	10.5	3.78e-03	0	41	0	29360128	24	5674
2026-01-29 08:47:12.65	110.88	8.45	-31.4	-35.2	10.7	4.07e-03	0	41	0	31457280	24	5557
2026-01-29 08:47:13.65	110.80	8.52	-31.3	-34.8	11.0	1.89e-03	0	41	0	33554432	24	5351
2026-01-29 08:47:14.66	110.72	8.59	-31.3	-35.2	11.1	1.60e-03	0	41	0	35651584	23	5638
2026-01-29 08:47:15.66	110.63	8.67	-31.3	-35.3	11.0	1.58e-03	0	41	0	36700160	23	5701
2026-01-29 08:47:16.66	110.55	8.74	-31.4	-35.7	10.8	1.93e-03	0	41	0	38797312	23	5855
2026-01-29 08:47:17.65	110.47	8.81	-31.4	-35.6	10.8	2.68e-03	0	41	0	40894464	23	5844
2026-01-29 08:47:18.66	110.38	8.88	-31.4	-35.6	10.8	2.59e-03	0	41	0	42991616	23	5831
2026-01-29 08:47:19.66	110.29	8.96	-31.5	-35.8	10.7	2.89e-03	0	41	0	45088768	23	5935
2026-01-29 08:47:20.66	110.21	9.03	-31.3	-35.3	11.0	2.09e-03	0	41	0	46137344	23	5697
2026-01-29 08:47:21.66	110.12	9.10	-31.2	-34.8	11.5	1.05e-03	0	41	0	48234496	23	5453
2026-01-29 08:47:22.66	110.03	9.17	-31.1	-34.7	11.5	7.34e-04	0	41	0	50331648	23	5405
2026-01-29 08:47:23.65	109.95	9.25	-31.2	-35.0	11.3	1.08e-03	0	41	0	52428800	23	5541
2026-01-29 08:47:24.65	109.86	9.32	-31.3	-35.1	11.2	1.16e-03	0	41	0	54525952	23	5597
2026-01-29 08:47:25.66	109.77	9.39	-31.3	-35.3	11.1	1.30e-03	0	41	0	55574528	23	5685
2026-01-29 08:47:26.67	109.68	9.47	-31.4	-35.4	11.0	1.90e-03	0	41	0	57671680	23	5736
2026-01-29 08:47:27.67	109.59	9.54	-31.4	-35.5	11.0	2.03e-03	0	41	0	59768832	23	5770
2026-01-29 08:47:28.67	109.50	9.62	-31.5	-35.7	10.9	2.11e-03	0	41	0	61865984	23	5847
2026-01-29 08:47:29.67	109.41	9.69	-31.4	-35.4	11.1	2.26e-03	0	41	0	62914560	23	5725
2026-01-29 08:47:30.68	109.32	9.77	-31.4	-35.3	11.1	1.59e-03	0	41	0	65011712	23	5689
2026-01-29 08:47:31.68	109.23	9.84	-31.4	-35.6	10.9	1.94e-03	0	41	0	67108864	23	5825
2026-01-29 08:47:32.68	109.14	9.91	-31.5	-35.7	10.9	2.50e-03	0	41	0	69206016	23	5833
2026-01-29 08:47:33.69	109.05	9.99	-31.4	-35.5	11.0	1.96e-03	0	41	0	71303168	23	5752
2026-01-29 08:47:34.70	108.95	10.07	-31.5	-35.7	10.9	2.10e-03	0	41	0	72351744	23	5827
2026-01-29 08:47:35.70	108.86	10.14	-31.4	-35.5	11.0	2.17e-03	0	41	0	74448896	23	5778
2026-01-29 08:47:36.70	108.77	10.22	-31.4	-35.4	11.1	1.76e-03	0	41	0	76546048	23	5699
2026-01-29 08:47:37.70	108.67	10.29	-31.3	-35.2	11.2	1.21e-03	0	41	0	78643200	23	5629
2026-01-29 08:47:38.71	108.58	10.37	-31.4	-35.5	11.1	1.45e-03	0	41	0	80740352	23	5762
2026-01-29 08:47:39.71	108.48	10.44	-31.3	-35.2	11.3	1.67e-03	0	41	0	81788928	23	5613
2026-01-29 08:47:40.72	108.39	10.52	-31.3	-35.1	11.3	1.13e-03	0	42	0	83886080	23	5592
2026-01-29 08:47:41.72	108.29	10.60	-31.3	-35.0	11.4	1.02e-03	0	41	0	85983232	23	5537
2026-01-29 08:47:42.72	108.19	10.67	-31.3	-35.2	11.3	1.05e-03	0	41	0	88080384	23	5595
2026-01-29 08:47:43.72	108.10	10.75	-31.4	-35.3	11.2	1.29e-03	0	41	0	90177536	23	5674
2026-01-29 08:47:44.73	108.00	10.83	-31.4	-35.3	11.3	1.24e-03	0	41	0	91226112	23	5655
2026-01-29 08:47:45.73	107.90	10.90	-31.3	-35.2	11.4	1.04e-03	0	41	0	93323264	23	5587
2026-01-29 08:47:46.73	107.80	10.98	-31.3	-35.1	11.4	1.01e-03	0	41	0	95420416	23	5578
2026-01-29 08:47:47.73	107.70	11.06	-31.3	-35.1	11.5	8.71e-04	0	41	0	97517568	23	5543
2026-01-29 08:47:48.73	107.60	11.13	-31.4	-35.3	11.3	1.03e-03	0	41	0	99614720	23	5645
2026-01-29 08:47:49.73	107.50	11.21	-31.4	-35.2	11.3	1.25e-03	0	42	0	100663296	23	5625
2026-01-29 08:47:50.73	107.40	11.29	-31.4	-35.5	11.2	1.26e-03	0	41	0	102760448	23	5732
2026-01-29 08:47:51.73	107.30	11.37	-31.5	-35.6	11.1	1.74e-03	0	41	0	104857600	23	5794
2026-01-29 08:47:52.74	107.20	11.44	-31.6	-35.9	10.9	1.89e-03	0	41	0	106954752	23	5907
2026-01-29 08:47:53.74	107.10	11.52	-31.5	-35.6	11.0	2.08e-03	0	42	0	108003328	23	5817
2026-01-29 08:47:54.75	106.99	11.60	-31.5	-35.7	11.0	1.79e-03	0	42	0	110100480	23	5822
2026-01-29 08:47:55.75	106.89	11.68	-31.6	-35.9	10.9	1.99e-03	0	42	0	112197632	23	5952
2026-01-29 08:47:56.75	106.78	11.76	-31.4	-35.5	11.1	2.52e-03	0	42	0	114294784	23	5753
2026-01-29 08:47:57.75	106.68	11.84	-31.3	-35.0	11.5	9.97e-04	0	42	0	116391936	23	5508
2026-01-29 08:47:58.75	106.57	11.91	-31.3	-35.0	11.6	7.22e-04	0	42	0	118489088	23	5525
2026-01-29 08:47:59.76	106.47	11.99	-31.3	-35.2	11.4	8.13e-04	0	42	0	119537664	23	5598
2026-01-29 08:48:00.76	106.36	12.07	-31.3	-35.1	11.5	9.83e-04	0	42	0	121634816	23	5578
2026-01-29 08:48:01.76	106.25	12.15	-31.4	-35.3	11.4	8.96e-04	0	42	0	123731968	23	5626
2026-01-29 08:48:02.76	106.15	12.23	-31.4	-35.2	11.5	9.43e-04	0	42	0	125829120	23	5579
2026-01-29 08:48:03.76	106.04	12.31	-31.4	-35.2	11.5	8.19e-04	0	42	0	126877696	23	5595
2026-01-29 08:48:04.76	105.93	12.39	-31.5	-35.7	11.2	1.32e-03	0	42	0	128974848	23	5798
2026-01-29 08:48:05.77	105.82	12.47	-31.4	-35.4	11.3	1.49e-03	0	42	0	131072000	23	5690
2026-01-29 08:48:06.77	105.71	12.55	-31.4	-35.2	11.5	1.07e-03	0	42	0	133169152	23	5581
2026-01-29 08:48:07.77	105.60	12.63	-31.3	-34.9	11.7	7.19e-04	0	42	0	135266304	23	5467
2026-01-29 08:48:08.78	105.49	12.71	-31.2	-34.7	11.8	4.29e-04	0	42	0	136314880	23	5384
2026-01-29 08:48:09.77	105.38	12.79	-31.3	-34.8	11.7	4.66e-04	0	42	0	138412032	23	5427
2026-01-29 08:48:10.78	105.26	12.87	-31.2	-34.7	11.9	5.24e-04	0	42	0	140509184	23	5381
2026-01-29 08:48:11.78	105.15	12.95	-31.2	-34.6	11.9	4.38e-04	0	42	0	142606336	23	5343
2026-01-29 08:48:12.78	105.04	13.03	-31.3	-34.9	11.7	4.69e-04	0	42	0	144703488	23	5477
2026-01-29 08:48:13.78	104.92	13.12	-31.1	-34.5	12.0	5.77e-04	0	42	0	145752064	23	5284
2026-01-29 08:48:14.79	104.81	13.20	-31.1	-34.4	12.0	3.60e-04	0	42	0	147849216	23	5267
2026-01-29 08:48:15.79	104.69	13.28	-31.2	-34.7	11.9	3.58e-04	0	42	0	149946368	23	5365
2026-01-29 08:48:16.80	104.57	13.36	-31.2	-34.7	11.9	4.23e-04	0	42	0	152043520	23	5368
2026-01-29 08:48:17.81	104.46	13.44	-31.2	-34.5	12.0	3.64e-04	0	42	0	154140672	23	5305
2026-01-29 08:48:18.81	104.34	13.53	-31.1	-34.3	12.1	3.14e-04	0	42	0	155189248	23	5218
2026-01-29 08:48:19.81	104.22	13.61	-31.1	-34.3	12.2	2.01e-04	0	42	0	157286400	23	5191
2026-01-29 08:48:20.81	104.10	13.69	-31.0	-34.1	12.3	2.06e-04	0	42	0	159383552	23	5109
2026-01-29 08:48:21.82	103.98	13.77	-31.0	-33.9	12.4	1.33e-04	0	42	0	161480704	23	5067
2026-01-29 08:48:22.82	103.86	13.85	-31.1	-34.3	12.2	1.87e-04	0	42	0	163577856	23	5221
2026-01-29 08:48:23.81	103.74	13.94	-31.1	-34.4	12.1	2.49e-04	0	42	0	164626432	23	5251
2026-01-29 08:48:24.81	103.62	14.02	-31.2	-34.5	12.0	2.22e-04	0	42	0	166723584	23	5281
2026-01-29 08:48:25.81	103.50	14.10	-31.2	-34.7	11.9	3.36e-04	0	42	0	168820736	23	5362
2026-01-29 08:48:26.81	103.37	14.19	-31.1	-34.3	12.2	3.45e-04	0	42	0	170917888	23	5205
2026-01-29 08:48:27.81	103.25	14.27	-31.0	-34.1	12.4	1.70e-04	0	42	0	171966464	23	5122
2026-01-29 08:48:28.81	103.12	14.35	-31.1	-34.2	12.3	1.79e-04	0	42	0	174063616	23	5158
2026-01-29 08:48:29.82	103.00	14.44	-31.1	-34.3	12.2	2.13e-04	0	42	0	176160768	23	5194
2026-01-29 08:48:30.82	102.87	14.52	-31.2	-34.6	12.0	2.80e-04	0	42	0	178257920	23	5339
2026-01-29 08:48:31.83	102.74	14.60	-31.2	-34.5	12.1	3.60e-04	0	42	0	180355072	23	5288
2026-01-29 08:48:32.83	102.62	14.69	-31.2	-34.5	12.1	2.43e-04	0	42	0	181403648	23	5266
2026-01-29 08:48:33.83	102.49	14.77	-31.2	-34.6	12.1	2.72e-04	0	42	0	183500800	23	5298
2026-01-29 08:48:34.83	102.36	14.86	-31.3	-34.8	12.0	2.94e-04	0	42	0	185597952	23	5413
2026-01-29 08:48:35.84	102.23	14.94	-31.2	-34.5	12.1	3.03e-04	0	42	0	187695104	23	5280
2026-01-29 08:48:36.84	102.10	15.03	-31.0	-34.1	12.4	1.65e-04	0	42	0	189792256	23	5114
2026-01-29 08:48:37.85	101.97	15.11	-31.0	-33.9	12.6	1.23e-04	0	42	0	190840832	23	5028
2026-01-29 08:48:38.85	101.83	15.20	-31.0	-33.8	12.6	9.76e-05	0	42	0	192937984	23	5009
2026-01-29 08:48:39.85	101.70	15.28	-31.0	-33.8	12.6	8.46e-05	0	42	0	195035136	23	5005
2026-01-29 08:48:40.85	101.57	15.37	-30.9	-33.6	12.8	7.01e-05	0	42	0	197132288	23	4920
2026-01-29 08:48:41.85	101.43	15.45	-30.9	-33.5	12.8	5.72e-05	0	42	0	198180864	23	4893
2026-01-29 08:48:42.85	101.30	15.54	-30.9	-33.7	12.7	5.64e-05	0	42	0	200278016	23	4946
2026-01-29 08:48:43.85	101.16	15.62	-30.9	-33.6	12.8	6.33e-05	0	42	0	202375168	23	4930
2026-01-29 08:48:44.85	101.03	15.71	-30.9	-33.6	12.8	5.11e-05	0	42	0	204472320	23	4927
2026-01-29 08:48:45.85	100.89	15.79	-31.0	-33.8	12.7	8.39e-05	0	42	0	206569472	23	4981
2026-01-29 08:48:46.86	100.75	15.88	-30.9	-33.5	12.9	6.63e-05	0	42	0	208666624	23	4876
2026-01-29 08:48:47.86	100.61	15.97	-30.9	-33.7	12.8	5.56e-05	0	42	0	209715200	23	4935
2026-01-29 08:48:48.86	100.47	16.05	-30.9	-33.4	13.0	3.89e-05	0	42	0	211812352	23	4845
2026-01-29 08:48:49.86	100.33	16.14	-30.8	-33.4	13.0	3.43e-05	0	42	0	213909504	23	4817
2026-01-29 08:48:50.87	100.19	16.23	-30.8	-33.2	13.1	3.28e-05	0	42	0	216006656	23	4773
2026-01-29 08:48:51.87	100.05	16.31	-30.8	-33.8	13.1	2.82e-05	0	42	0	217055232	22	5086
2026-01-29 08:48:52.87	99.90	16.40	-30.8	-33.7	13.2	2.13e-05	0	42	0	219152384	22	5039
2026-01-29 08:48:53.88	99.76	16.49	-30.8	-33.7	13.2	3.05e-05	0	42	0	221249536	22	5035
2026-01-29 08:48:54.88	99.61	16.57	-30.8	-33.8	13.1	3.12e-05	0	42	0	223346688	22	5084
2026-01-29 08:48:55.87	99.47	16.66	-31.0	-34.4	12.7	5.95e-05	0	42	0	225443840	22	5287
2026-01-29 08:48:56.87	99.32	16.75	-30.9	-34.1	12.9	5.41e-05	0	42	0	226492416	22	5182
2026-01-29 08:48:57.87	99.18	16.83	-30.9	-33.9	13.1	4.42e-05	0	42	0	228589568	22	5119
2026-01-29 08:48:58.87	99.03	16.92	-30.8	-33.6	13.2	3.28e-05	0	42	0	230686720	22	5007
2026-01-29 08:48:59.87	98.88	17.01	-30.8	-33.8	13.2	1.98e-05	0	42	0	232783872	22	5051
2026-01-29 08:49:00.87	98.73	17.10	-30.8	-33.7	13.2	2.82e-05	0	42	0	234881024	22	5031
2026-01-29 08:49:01.88	98.58	17.19	-30.8	-33.7	13.3	2.28e-05	0	42	0	235929600	22	5017
2026-01-29 08:49:02.88	98.43	17.27	-30.8	-33.8	13.1	2.36e-05	0	42	0	238026752	22	5082
2026-01-29 08:49:03.88	98.27	17.36	-30.8	-33.7	13.3	2.67e-05	0	42	0	240123904	22	5019
2026-01-29 08:49:04.88	98.12	17.45	-30.8	-33.6	13.3	1.75e-05	0	42	0	242221056	22	5001
2026-01-29 08:49:05.89	97.96	17.54	-30.8	-33.6	13.3	1.52e-05	0	42	0	244318208	22	4989
2026-01-29 08:49:06.89	97.81	17.63	-30.8	-33.7	13.3	1.29e-05	0	42	0	245366784	22	5030
2026-01-29 08:49:07.90	97.65	17.72	-30.8	-33.7	13.3	2.05e-05	0	42	0	247463936	22	5008
2026-01-29 08:49:08.91	97.49	17.80	-30.8	-33.7	13.2	1.37e-05	0	42	0	249561088	22	5042
2026-01-29 08:49:09.91	97.33	17.89	-31.0	-34.2	12.9	2.74e-05	0	42	0	251658240	22	5226
2026-01-29 08:49:10.91	97.17	17.98	-30.9	-33.9	13.1	2.82e-05	0	42	0	253755392	22	5091
2026-01-29 08:49:11.92	97.01	18.07	-30.8	-33.7	13.3	2.67e-05	0	42	0	254803968	22	5014
2026-01-29 08:49:12.92	96.85	18.16	-30.8	-33.8	13.3	1.90e-05	0	42	0	256901120	22	5050
2026-01-29 08:49:13.92	96.69	18.25	-30.8	-33.8	13.2	2.05e-05	0	42	0	258998272	22	5063
2026-01-29 08:49:14.93	96.53	18.34	-30.8	-33.7	13.2	1.22e-05	0	42	0	261095424	22	5043
2026-01-29 08:49:15.93	96.36	18.43	-30.8	-33.7	13.3	1.90e-05	0	42	0	262144000	22	5022
2026-01-29 08:49:16.94	96.20	18.52	-30.9	-33.9	13.2	2.36e-05	0	43	0	264241152	22	5077
2026-01-29 08:49:17.95	96.03	18.61	-31.0	-34.2	13.0	2.51e-05	0	42	0	266338304	22	5203
2026-01-29 08:49:18.95	95.86	18.70	-30.9	-33.9	13.1	3.20e-05	0	42	0	268435456	22	5101
2026-01-29 08:49:19.96	95.69	18.79	-30.8	-33.8	13.3	1.83e-05	0	42	0	270532608	22	5047
2026-01-29 08:49:20.97	95.52	18.88	-30.9	-34.1	13.1	1.75e-05	0	42	0	272629760	22	5154
2026-01-29 08:49:21.98	95.35	18.97	-31.0	-34.2	13.0	3.12e-05	0	42	0	273678336	22	5213
2026-01-29 08:49:22.99	95.18	19.06	-31.1	-34.6	12.7	5.26e-05	0	42	0	275775488	22	5367
2026-01-29 08:49:23.99	95.01	19.15	-31.0	-34.3	13.0	4.80e-05	0	42	0	277872640	22	5246
2026-01-29 08:49:24.99	94.83	19.24	-31.1	-34.4	12.9	3.66e-05	0	42	0	279969792	22	5295
2026-01-29 08:49:25.99	94.66	19.33	-31.1	-34.5	12.9	3.50e-05	0	42	0	281018368	22	5311
2026-01-29 08:49:26.99	94.48	19.42	-31.1	-34.5	12.9	4.50e-05	0	42	0	283115520	22	5306
2026-01-29 08:49:27.99	94.31	19.51	-31.1	-34.5	12.8	5.64e-05	0	42	0	285212672	22	5337
2026-01-29 08:49:29.00	94.13	19.60	-31.1	-34.5	12.8	4.19e-05	0	42	0	287309824	22	5325
2026-01-29 08:49:29.99	93.95	19.69	-31.1	-34.5	12.8	4.95e-05	0	42	0	289406976	22	5335
2026-01-29 08:49:31.00	93.77	19.78	-31.2	-34.8	12.7	7.32e-05	0	42	0	290455552	22	5427
2026-01-29 08:49:32.00	93.59	19.87	-31.1	-34.4	12.9	5.79e-05	0	42	0	292552704	22	5286
2026-01-29 08:49:33.00	93.41	19.96	-31.0	-34.3	13.0	3.81e-05	0	42	0	294649856	22	5220
2026-01-29 08:49:34.01	93.23	20.05	-31.0	-34.3	13.0	2.89e-05	0	42	0	296747008	22	5239
2026-01-29 08:49:35.01	93.04	20.14	-31.0	-34.2	13.1	1.60e-05	0	42	0	298844160	22	5203
2026-01-29 08:49:36.01	92.86	20.23	-31.1	-34.4	13.0	3.43e-05	0	42	0	299892736	22	5259
2026-01-29 08:49:37.01	92.67	20.32	-31.1	-34.6	12.8	4.27e-05	0	42	0	301989888	22	5358
2026-01-29 08:49:38.01	92.49	20.41	-31.0	-34.1	13.1	3.96e-05	0	42	0	304087040	22	5183
2026-01-29 08:49:39.02	92.30	20.50	-30.8	-33.7	13.4	2.74e-05	0	42	0	306184192	22	5027
2026-01-29 08:49:40.01	92.11	20.59	-30.8	-33.8	13.4	1.44e-05	0	43	0	308281344	22	5033
2026-01-29 08:49:41.02	91.92	20.68	-30.8	-33.5	13.5	9.10e-06	0	42	0	309329920	22	4944
2026-01-29 08:49:42.02	91.73	20.77	-30.9	-34.0	13.3	1.06e-05	0	42	0	311427072	22	5106
2026-01-29 08:49:43.03	91.53	20.86	-30.8	-33.6	13.5	1.60e-05	0	42	0	313524224	22	4987
2026-01-29 08:49:44.03	91.34	20.95	-30.9	-33.8	13.4	1.98e-05	0	42	0	315621376	22	5062
2026-01-29 08:49:45.04	91.14	21.04	-31.1	-34.3	13.0	2.44e-05	0	42	0	317718528	22	5252
2026-01-29 08:49:46.04	90.95	21.13	-31.0	-34.0	13.2	1.75e-05	0	42	0	318767104	22	5131
2026-01-29 08:49:47.04	90.75	21.22	-30.9	-34.0	13.3	9.90e-06	0	42	0	320864256	22	5106
2026-01-29 08:49:48.05	90.55	21.31	-30.8	-33.7	13.5	1.22e-05	0	42	0	322961408	22	4996
2026-01-29 08:49:49.05	90.35	21.40	-30.8	-33.7	13.5	8.30e-06	0	42	0	325058560	22	4997
2026-01-29 08:49:50.05	90.15	21.49	-30.9	-33.8	13.4	1.44e-05	0	42	0	327155712	22	5037
2026-01-29 08:49:51.06	89.95	21.58	-30.7	-33.4	13.7	9.10e-06	0	42	0	328204288	22	4909
2026-01-29 08:49:52.06	89.74	21.67	-30.7	-33.2	13.8	3.80e-06	0	42	0	330301440	22	4838
2026-01-29 08:49:53.07	89.54	21.76	-30.8	-33.5	13.6	5.30e-06	0	42	0	332398592	22	4915
2026-01-29 08:49:54.07	89.33	21.85	-30.6	-33.1	13.9	3.00e-06	0	42	0	334495744	22	4773
2026-01-29 08:49:55.08	89.12	21.94	-30.6	-33.0	13.9	3.00e-06	0	42	0	335544320	22	4748
2026-01-29 08:49:56.08	88.92	22.03	-30.6	-33.1	13.9	3.80e-06	0	42	0	337641472	22	4772
2026-01-29 08:49:57.09	88.70	22.12	-30.7	-33.3	13.8	4.50e-06	0	42	0	339738624	22	4846
2026-01-29 08:49:58.09	88.49	22.21	-30.5	-32.9	14.0	2.20e-06	0	42	0	341835776	22	4706
2026-01-29 08:49:59.10	88.28	22.30	-30.6	-32.9	14.0	4.50e-06	0	42	0	343932928	22	4723
2026-01-29 08:50:00.10	88.07	22.38	-30.5	-32.8	14.1	4.50e-06	0	42	0	344981504	22	4680
2026-01-29 08:50:01.10	87.86	22.47	-30.5	-32.7	14.2	7.00e-07	0	42	0	347078656	22	4634
2026-01-29 08:50:02.10	87.64	22.56	-30.5	-32.7	14.2	1.50e-06	0	42	0	349175808	22	4642
2026-01-29 08:50:03.11	87.42	22.65	-30.3	-32.2	14.5	0.00e+00	0	42	0	351272960	22	4483
2026-01-29 08:50:04.11	87.21	22.74	-30.4	-32.5	14.3	7.00e-07	0	43	0	353370112	22	4566
2026-01-29 08:50:05.11	86.99	22.83	-30.2	-32.6	14.6	0.00e+00	0	42	0	354418688	21	4700
2026-01-29 08:50:06.11	86.77	22.91	-30.2	-32.5	14.6	0.00e+00	0	42	0	356515840	21	4669
2026-01-29 08:50:07.11	86.55	23.00	-30.2	-32.5	14.6	7.00e-07	0	42	0	358612992	21	4668
2026-01-29 08:50:08.11	86.32	23.09	-30.4	-33.0	14.3	7.00e-07	0	42	0	360710144	21	4847
2026-01-29 08:50:09.12	86.10	23.18	-30.4	-32.9	14.4	7.00e-07	0	42	0	362807296	21	4823
2026-01-29 08:50:10.12	85.87	23.27	-30.5	-33.3	14.1	1.50e-06	0	42	0	363855872	21	4959
2026-01-29 08:50:11.12	85.65	23.35	-30.7	-33.8	13.8	2.20e-06	0	42	0	365953024	21	5125
2026-01-29 08:50:12.13	85.42	23.44	-30.3	-32.8	14.4	1.50e-06	0	43	0	368050176	21	4787
2026-01-29 08:50:13.13	85.19	23.53	-30.1	-32.2	14.8	0.00e+00	0	42	0	370147328	21	4587
2026-01-29 08:50:14.14	84.96	23.61	-30.1	-32.1	14.9	0.00e+00	0	43	0	372244480	21	4551
2026-01-29 08:50:15.14	84.72	23.70	-30.1	-32.1	14.8	0.00e+00	0	43	0	373293056	21	4556
2026-01-29 08:50:16.14	84.49	23.79	-30.0	-32.0	14.9	0.00e+00	0	42	0	375390208	21	4522
2026-01-29 08:50:17.15	84.26	23.87	-30.0	-32.0	14.9	0.00e+00	0	42	0	377487360	21	4512
2026-01-29 08:50:18.15	84.02	23.96	-30.1	-32.2	14.8	0.00e+00	0	42	0	379584512	21	4578
2026-01-29 08:50:19.15	83.78	24.04	-30.1	-32.1	14.9	0.00e+00	0	42	0	381681664	21	4538
2026-01-29 08:50:20.16	83.54	24.13	-30.1	-32.2	14.8	0.00e+00	0	42	0	382730240	21	4594
2026-01-29 08:50:21.16	83.31	24.21	-30.1	-32.1	14.9	0.00e+00	0	43	0	384827392	21	4562
2026-01-29 08:50:22.16	83.06	24.30	-30.1	-32.2	14.8	0.00e+00	0	42	0	386924544	21	4589
2026-01-29 08:50:23.17	82.82	24.38	-30.2	-32.4	14.7	0.00e+00	0	42	0	389021696	21	4642
2026-01-29 08:50:24.17	82.58	24.47	-30.3	-32.8	14.5	0.00e+00	0	42	0	391118848	21	4765
2026-01-29 08:50:25.18	82.33	24.55	-30.3	-32.6	14.6	0.00e+00	0	42	0	392167424	21	4714
2026-01-29 08:50:26.18	82.09	24.64	-30.3	-32.6	14.6	0.00e+00	0	42	0	394264576	21	4716
2026-01-29 08:50:27.18	81.84	24.72	-30.3	-32.7	14.5	0.00e+00	0	43	0	396361728	21	4755
2026-01-29 08:50:28.18	81.59	24.80	-30.3	-32.7	14.5	0.00e+00	0	42	0	398458880	21	4759
2026-01-29 08:50:29.19	81.34	24.88	-30.4	-32.8	14.5	7.00e-07	0	43	0	399507456	21	4784
2026-01-29 08:50:30.20	81.09	24.97	-30.4	-33.0	14.3	0.00e+00	0	42	0	401604608	21	4857
2026-01-29 08:50:31.20	80.83	25.05	-30.4	-33.0	14.3	7.00e-07	0	42	0	403701760	21	4836
2026-01-29 08:50:32.21	80.58	25.13	-30.5	-33.2	14.2	0.00e+00	0	42	0	405798912	21	4897
2026-01-29 08:50:33.21	80.32	25.21	-30.6	-33.4	14.1	1.50e-06	0	43	0	407896064	21	4962
2026-01-29 08:50:34.21	80.07	25.29	-30.6	-33.5	14.1	3.00e-06	0	43	0	408944640	21	5005
2026-01-29 08:50:35.21	79.81	25.37	-30.6	-33.6	14.0	1.50e-06	0	42	0	411041792	21	5044
2026-01-29 08:50:36.21	79.55	25.45	-30.6	-33.5	14.1	1.50e-06	0	43	0	413138944	21	5016
2026-01-29 08:50:37.22	79.29	25.53	-30.7	-33.8	13.8	5.30e-06	0	42	0	415236096	21	5139
2026-01-29 08:50:38.22	79.03	25.61	-30.5	-33.1	14.3	7.00e-07	0	43	0	417333248	21	4883
2026-01-29 08:50:39.23	78.76	25.69	-30.4	-33.0	14.3	7.00e-07	0	42	0	418381824	21	4855
2026-01-29 08:50:40.23	78.50	25.77	-30.5	-33.2	14.3	1.50e-06	0	42	0	420478976	21	4910
2026-01-29 08:50:41.23	78.23	25.85	-30.7	-33.6	14.0	1.50e-06	0	42	0	422576128	21	5062
2026-01-29 08:50:42.24	77.96	25.92	-30.7	-33.7	13.9	2.20e-06	0	42	0	424673280	21	5100
2026-01-29 08:50:43.24	77.69	26.00	-30.8	-33.9	13.8	3.80e-06	0	43	0	426770432	21	5156
2026-01-29 08:50:44.24	77.43	26.08	-30.6	-33.6	14.0	3.80e-06	0	42	0	427819008	21	5038
2026-01-29 08:50:45.25	77.15	26.15	-30.7	-33.6	14.0	3.80e-06	0	42	0	429916160	21	5060
2026-01-29 08:50:46.24	76.88	26.23	-30.8	-34.0	13.8	4.50e-06	0	42	0	432013312	21	5189
2026-01-29 08:50:47.25	76.61	26.30	-30.6	-33.4	14.1	1.50e-06	0	43	0	434110464	21	4989
2026-01-29 08:50:48.25	76.33	26.38	-30.5	-33.1	14.3	7.00e-07	0	43	0	436207616	21	4884
2026-01-29 08:50:49.26	76.05	26.45	-30.5	-33.1	14.3	3.80e-06	0	42	0	437256192	21	4854
2026-01-29 08:50:50.26	75.78	26.53	-30.4	-32.9	14.5	1.50e-06	0	42	0	439353344	21	4802
2026-01-29 08:50:51.26	75.50	26.60	-30.4	-32.9	14.5	0.00e+00	0	43	0	441450496	21	4784
2026-01-29 08:50:52.26	75.22	26.67	-30.4	-33.0	14.4	2.20e-06	0	43	0	443547648	21	4835
2026-01-29 08:50:53.26	74.94	26.74	-30.3	-32.7	14.6	0.00e+00	0	43	0	445644800	21	4717
2026-01-29 08:50:54.27	74.65	26.81	-30.3	-32.6	14.7	0.00e+00	0	42	0	446693376	21	4688
2026-01-29 08:50:55.27	74.37	26.88	-30.4	-32.9	14.5	0.00e+00	0	42	0	448790528	21	4785
2026-01-29 08:50:56.28	74.08	26.95	-30.4	-32.9	14.5	1.50e-06	0	43	0	450887680	21	4796
2026-01-29 08:50:57.28	73.80	27.02	-30.5	-33.1	14.3	1.50e-06	0	42	0	452984832	21	4869
2026-01-29 08:50:58.28	73.51	27.09	-30.5	-33.3	14.3	7.00e-07	0	42	0	454033408	21	4925
2026-01-29 08:50:59.29	73.22	27.16	-30.6	-33.4	14.2	3.00e-06	0	43	0	456130560	21	4956
2026-01-29 08:51:00.29	72.93	27.23	-30.6	-33.4	14.2	1.50e-06	0	43	0	458227712	21	4976
2026-01-29 08:51:01.29	72.64	27.29	-30.6	-33.4	14.2	1.50e-06	0	42	0	460324864	21	4970
2026-01-29 08:51:02.30	72.35	27.36	-30.6	-33.4	14.2	0.00e+00	0	43	0	462422016	21	4966
2026-01-29 08:51:03.31	72.05	27.43	-30.7	-33.6	14.0	3.00e-06	0	43	0	464519168	21	5030
2026-01-29 08:51:04.32	71.75	27.49	-30.7	-33.7	14.0	5.30e-06	0	42	0	465567744	21	5094
2026-01-29 08:51:05.32	71.46	27.56	-30.6	-33.5	14.1	1.50e-06	0	43	0	467664896	21	5013
2026-01-29 08:51:06.32	71.16	27.62	-30.7	-33.7	14.0	3.00e-06	0	43	0	469762048	21	5081
2026-01-29 08:51:07.33	70.86	27.68	-30.9	-34.2	13.7	8.30e-06	0	42	0	471859200	21	5256
2026-01-29 08:51:08.33	70.56	27.74	-30.9	-34.2	13.6	1.22e-05	0	42	0	472907776	21	5289
2026-01-29 08:51:09.33	70.26	27.80	-30.9	-34.1	13.6	1.37e-05	0	42	0	475004928	21	5240
2026-01-29 08:51:10.33	69.96	27.86	-30.7	-33.8	13.9	2.20e-06	0	43	0	477102080	21	5100
2026-01-29 08:51:11.33	69.66	27.92	-30.7	-33.7	13.9	1.50e-06	0	42	0	479199232	21	5094
2026-01-29 08:51:12.33	69.35	27.98	-30.8	-34.0	13.8	5.30e-06	0	43	0	481296384	21	5189
2026-01-29 08:51:13.34	69.04	28.04	-30.8	-34.1	13.7	6.10e-06	0	43	0	482344960	21	5215
2026-01-29 08:51:14.33	68.74	28.10	-30.9	-34.1	13.7	5.30e-06	0	42	0	484442112	21	5240
2026-01-29 08:51:15.34	68.43	28.15	-30.9	-34.3	13.6	6.80e-06	0	43	0	486539264	21	5295
2026-01-29 08:51:16.35	68.12	28.21	-31.1	-34.3	13.3	9.10e-06	0	42	0	488636416	22	5191
2026-01-29 08:51:17.35	67.81	28.27	-31.3	-34.9	12.9	2.21e-05	0	42	0	490733568	22	5438
2026-01-29 08:51:18.35	67.50	28.32	-31.4	-35.2	12.7	6.79e-05	0	43	0	491782144	22	5548
2026-01-29 08:51:19.36	67.19	28.37	-31.4	-35.2	12.7	5.64e-05	0	43	0	493879296	22	5565
2026-01-29 08:51:20.37	66.87	28.43	-31.6	-35.2	12.4	1.25e-04	0	43	0	495976448	23	5459
2026-01-29 08:51:21.38	66.56	28.48	-31.6	-35.2	12.3	2.34e-04	0	43	0	498073600	23	5465
2026-01-29 08:51:22.38	66.24	28.53	-31.5	-34.9	12.5	9.53e-05	0	43	0	500170752	23	5346
2026-01-29 08:51:23.38	65.93	28.58	-31.7	-35.4	12.2	1.11e-04	0	42	0	501219328	23	5526
2026-01-29 08:51:24.38	65.61	28.63	-31.8	-35.9	11.9	3.94e-04	0	43	0	503316480	23	5741
2026-01-29 08:51:25.39	65.29	28.67	-31.7	-35.4	12.2	3.13e-04	0	43	0	505413632	23	5544
2026-01-29 08:51:26.39	64.97	28.72	-31.5	-35.1	12.4	1.67e-04	0	42	0	507510784	23	5412
2026-01-29 08:51:27.39	64.65	28.77	-31.4	-34.6	12.7	1.01e-04	0	42	0	509607936	23	5223
2026-01-29 08:51:28.40	64.33	28.81	-31.4	-34.6	12.7	5.95e-05	0	43	0	510656512	23	5223
2026-01-29 08:51:29.40	64.01	28.86	-31.5	-34.8	12.6	9.84e-05	0	43	0	512753664	23	5283
2026-01-29 08:51:30.40	63.69	28.90	-31.6	-35.1	12.4	9.30e-05	0	42	0	514850816	23	5406
2026-01-29 08:51:31.41	63.36	28.94	-31.7	-35.6	12.1	3.32e-04	0	43	0	516947968	23	5614
2026-01-29 08:51:32.41	63.04	28.98	-31.5	-34.9	12.5	1.44e-04	0	43	0	519045120	23	5331
2026-01-29 08:51:33.41	62.71	29.02	-31.4	-34.6	12.7	8.54e-05	0	43	0	520093696	23	5221
2026-01-29 08:51:34.42	62.39	29.06	-31.3	-34.3	13.0	7.55e-05	0	43	0	522190848	23	5070
2026-01-29 08:51:35.42	62.06	29.10	-31.2	-34.0	13.2	1.90e-05	0	43	0	524288000	23	4958
2026-01-29 08:51:36.42	61.73	29.14	-31.2	-34.0	13.2	2.82e-05	0	43	0	526385152	23	4963
2026-01-29 08:51:37.42	61.41	29.18	-31.3	-34.4	12.9	3.28e-05	0	42	0	527433728	23	5117
2026-01-29 08:51:38.43	61.08	29.21	-31.4	-34.5	12.8	4.57e-05	0	43	0	529530880	23	5154
2026-01-29 08:51:39.43	60.75	29.25	-31.4	-34.6	12.7	7.24e-05	0	43	0	531628032	23	5196
2026-01-29 08:51:40.43	60.42	29.28	-31.5	-35.0	12.6	7.24e-05	0	43	0	533725184	23	5342
2026-01-29 08:51:41.44	60.08	29.31	-31.5	-35.0	12.5	1.02e-04	0	43	0	535822336	23	5345
2026-01-29 08:51:42.45	59.75	29.34	-31.5	-34.9	12.6	1.08e-04	0	42	0	536870912	23	5308
2026-01-29 08:51:43.45	59.42	29.37	-31.6	-35.1	12.4	1.14e-04	0	42	0	538968064	23	5404
2026-01-29 08:51:44.46	59.08	29.40	-31.6	-35.2	12.3	1.73e-04	0	43	0	541065216	23	5443
2026-01-29 08:51:45.46	58.75	29.43	-31.7	-35.4	12.2	1.80e-04	0	43	0	543162368	23	5529
2026-01-29 08:51:46.46	58.42	29.46	-31.8	-35.9	11.9	3.33e-04	0	42	0	545259520	23	5728
2026-01-29 08:51:47.47	58.08	29.48	-31.8	-35.7	12.0	3.51e-04	0	43	0	546308096	23	5668
2026-01-29 08:51:48.47	57.75	29.51	-31.8	-35.7	12.1	3.46e-04	0	43	0	548405248	23	5634
2026-01-29 08:51:49.47	57.41	29.53	-31.7	-35.6	12.1	2.49e-04	0	43	0	550502400	23	5625
2026-01-29 08:51:50.48	57.07	29.56	-31.8	-35.9	11.8	3.33e-04	0	43	0	552599552	23	5745
2026-01-29 08:51:51.48	56.74	29.58	-31.9	-36.1	11.7	5.16e-04	0	43	0	554696704	23	5830
2026-01-29 08:51:52.48	56.40	29.60	-31.8	-35.9	11.8	4.11e-04	0	42	0	555745280	23	5731
2026-01-29 08:51:53.49	56.06	29.62	-31.8	-35.7	12.0	3.52e-04	0	43	0	557842432	23	5668
2026-01-29 08:51:54.50	55.72	29.64	-31.9	-36.1	11.7	3.84e-04	0	43	0	559939584	23	5838
2026-01-29 08:51:55.51	55.38	29.65	-32.1	-36.1	11.3	9.60e-04	0	43	0	562036736	24	5757
2026-01-29 08:51:56.51	55.04	29.67	-32.0	-35.8	11.5	8.41e-04	0	43	0	564133888	24	5608
2026-01-29 08:51:57.52	54.70	29.69	-32.1	-36.2	11.3	8.14e-04	0	43	0	565182464	24	5762
2026-01-29 08:51:58.51	54.37	29.70	-32.2	-36.4	11.1	1.47e-03	0	43	0	567279616	24	5887
2026-01-29 08:51:59.52	54.03	29.71	-32.1	-36.3	11.2	1.44e-03	0	43	0	569376768	24	5844
2026-01-29 08:52:00.52	53.69	29.72	-32.2	-36.6	11.0	1.53e-03	0	42	0	571473920	24	5947
2026-01-29 08:52:01.52	53.35	29.73	-32.2	-36.7	10.9	2.35e-03	0	43	0	573571072	24	6007
2026-01-29 08:52:02.53	53.01	29.74	-32.1	-36.3	11.2	1.57e-03	0	43	0	574619648	24	5829
2026-01-29 08:52:03.53	52.67	29.75	-32.1	-36.2	11.3	1.14e-03	0	42	0	576716800	24	5761
2026-01-29 08:52:04.53	52.33	29.76	-32.0	-35.8	11.6	8.17e-04	0	43	0	578813952	24	5598
2026-01-29 08:52:05.53	51.99	29.77	-32.0	-36.0	11.4	7.92e-04	0	43	0	580911104	24	5697
2026-01-29 08:52:06.53	51.65	29.77	-32.0	-36.0	11.4	9.02e-04	0	43	0	583008256	24	5674
2026-01-29 08:52:07.54	51.30	29.77	-32.1	-36.1	11.4	8.29e-04	0	43	0	584056832	24	5715
2026-01-29 08:52:08.54	50.96	29.78	-32.0	-35.9	11.5	1.28e-03	0	43	0	586153984	24	5625
2026-01-29 08:52:09.55	50.62	29.78	-31.8	-35.2	12.0	4.65e-04	0	42	0	588251136	24	5338
2026-01-29 08:52:10.56	50.28	29.78	-31.6	-34.6	12.4	1.68e-04	0	42	0	590348288	24	5099
2026-01-29 08:52:11.55	49.94	29.78	-31.5	-34.5	12.5	1.27e-04	0	42	0	592445440	24	5052
2026-01-29 08:52:12.55	49.60	29.78	-31.5	-34.5	12.5	1.33e-04	0	42	0	593494016	24	5054
2026-01-29 08:52:13.55	49.26	29.77	-31.5	-34.4	12.5	8.16e-05	0	42	0	595591168	24	5037
2026-01-29 08:52:14.56	48.92	29.77	-31.4	-34.2	12.7	8.92e-05	0	43	0	597688320	24	4958
2026-01-29 08:52:15.56	48.58	29.76	-31.5	-34.3	12.6	8.46e-05	0	43	0	599785472	24	4982
2026-01-29 08:52:16.56	48.24	29.76	-31.5	-34.3	12.6	1.21e-04	0	43	0	601882624	24	4994
2026-01-29 08:52:17.57	47.90	29.75	-31.4	-34.2	12.7	6.10e-05	0	43	0	602931200	24	4943
2026-01-29 08:52:18.56	47.56	29.74	-31.5	-34.3	12.6	8.16e-05	0	42	0	605028352	24	4999
2026-01-29 08:52:19.57	47.22	29.73	-31.4	-34.0	12.7	8.08e-05	0	42	0	607125504	24	4884
2026-01-29 08:52:20.56	46.88	29.72	-31.2	-34.2	13.0	4.73e-05	0	43	0	609222656	23	5033
2026-01-29 08:52:21.57	46.54	29.71	-31.1	-33.9	13.2	3.66e-05	0	43	0	610271232	23	4924
2026-01-29 08:52:22.57	46.20	29.70	-31.1	-33.8	13.3	1.98e-05	0	43	0	612368384	23	4899
2026-01-29 08:52:23.57	45.87	29.68	-31.1	-33.8	13.2	1.52e-05	0	43	0	614465536	23	4903
2026-01-29 08:52:24.57	45.53	29.67	-31.2	-34.1	13.0	3.28e-05	0	43	0	616562688	23	5013
2026-01-29 08:52:25.58	45.19	29.65	-31.2	-34.1	13.0	2.89e-05	0	43	0	618659840	23	5010
2026-01-29 08:52:26.59	44.85	29.63	-31.3	-34.5	12.8	6.25e-05	0	43	0	619708416	23	5153
2026-01-29 08:52:27.59	44.51	29.61	-31.4	-34.6	12.7	7.47e-05	0	43	0	621805568	23	5217
2026-01-29 08:52:28.59	44.17	29.59	-31.4	-34.6	12.8	5.49e-05	0	43	0	623902720	23	5190
2026-01-29 08:52:29.60	43.84	29.57	-31.3	-34.4	12.9	5.26e-05	0	43	0	625999872	23	5137
2026-01-29 08:52:30.60	43.50	29.55	-31.2	-34.1	13.1	6.94e-05	0	43	0	628097024	23	5022
2026-01-29 08:52:31.61	43.16	29.53	-31.1	-33.7	13.3	2.13e-05	0	43	0	629145600	23	4868
2026-01-29 08:52:32.61	42.83	29.50	-31.0	-33.5	13.4	1.37e-05	0	43	0	631242752	23	4792
2026-01-29 08:52:33.62	42.49	29.48	-31.0	-33.5	13.4	1.29e-05	0	43	0	633339904	23	4805
2026-01-29 08:52:34.62	42.16	29.45	-31.0	-33.6	13.4	1.67e-05	0	43	0	635437056	23	4840
2026-01-29 08:52:35.62	41.83	29.42	-31.0	-33.6	13.4	2.13e-05	0	43	0	637534208	23	4855
2026-01-29 08:52:36.63	41.49	29.40	-31.1	-33.8	13.3	1.52e-05	0	43	0	638582784	23	4905
2026-01-29 08:52:37.62	41.16	29.37	-31.1	-33.8	13.2	2.74e-05	0	43	0	640679936	23	4900
2026-01-29 08:52:38.63	40.83	29.34	-31.0	-33.6	13.3	2.44e-05	0	43	0	642777088	23	4848
2026-01-29 08:52:39.64	40.49	29.30	-31.2	-34.0	13.1	3.05e-05	0	43	0	644874240	23	4979
2026-01-29 08:52:40.64	40.17	29.27	-31.1	-33.8	13.2	2.51e-05	0	43	0	646971392	23	4896
2026-01-29 08:52:41.63	39.84	29.24	-30.9	-33.3	13.5	1.75e-05	0	42	0	648019968	23	4733
2026-01-29 08:52:42.64	39.51	29.20	-30.8	-33.0	13.8	6.10e-06	0	43	0	650117120	23	4640
2026-01-29 08:52:43.65	39.18	29.17	-31.0	-33.4	13.5	1.14e-05	0	43	0	652214272	23	4772
2026-01-29 08:52:44.65	38.85	29.13	-31.0	-33.4	13.5	1.60e-05	0	43	0	654311424	23	4782
2026-01-29 08:52:45.65	38.53	29.09	-31.1	-33.9	13.2	1.90e-05	0	43	0	656408576	23	4935
2026-01-29 08:52:46.65	38.20	29.05	-31.1	-33.9	13.1	3.05e-05	0	42	0	657457152	23	4942
2026-01-29 08:52:47.65	37.88	29.01	-31.2	-34.2	12.9	2.89e-05	0	43	0	659554304	23	5074
2026-01-29 08:52:48.66	37.55	28.97	-31.3	-34.5	12.7	5.95e-05	0	43	0	661651456	23	5170
2026-01-29 08:52:49.66	37.23	28.93	-31.3	-34.5	12.7	6.48e-05	0	43	0	663748608	23	5192
2026-01-29 08:52:50.67	36.90	28.89	-31.4	-34.7	12.5	9.61e-05	0	43	0	664797184	23	5272
2026-01-29 08:52:51.67	36.58	28.85	-31.6	-35.2	12.3	1.72e-04	0	43	0	666894336	23	5467
2026-01-29 08:52:52.68	36.26	28.80	-31.7	-35.6	12.0	2.83e-04	0	43	0	668991488	23	5623
2026-01-29 08:52:53.68	35.94	28.76	-31.8	-35.8	11.8	4.78e-04	0	42	0	671088640	23	5710
2026-01-29 08:52:54.69	35.62	28.71	-31.9	-36.2	11.5	4.94e-04	0	43	0	673185792	23	5886
2026-01-29 08:52:55.69	35.30	28.66	-31.9	-35.7	11.5	1.24e-03	0	43	0	674234368	24	5567
2026-01-29 08:52:56.69	34.98	28.62	-31.7	-35.1	11.9	4.32e-04	0	43	0	676331520	24	5324
2026-01-29 08:52:57.70	34.67	28.57	-31.5	-34.5	12.3	2.10e-04	0	43	0	678428672	24	5093
2026-01-29 08:52:58.70	34.35	28.52	-31.4	-34.3	12.4	1.29e-04	0	43	0	680525824	24	5008
2026-01-29 08:52:59.70	34.04	28.47	-31.4	-34.3	12.5	1.07e-04	0	42	0	682622976	24	5007
2026-01-29 08:53:00.71	33.72	28.41	-31.4	-34.3	12.5	1.15e-04	0	43	0	683671552	24	5001
2026-01-29 08:53:01.71	33.41	28.36	-31.6	-34.7	12.2	1.52e-04	0	43	0	685768704	24	5154
2026-01-29 08:53:02.71	33.10	28.31	-31.5	-34.6	12.3	1.85e-04	0	43	0	687865856	24	5135
2026-01-29 08:53:03.71	32.79	28.25	-31.5	-34.6	12.3	2.16e-04	0	42	0	689963008	24	5118
2026-01-29 08:53:04.72	32.48	28.20	-31.5	-34.5	12.3	1.94e-04	0	43	0	692060160	24	5092
2026-01-29 08:53:05.72	32.17	28.14	-31.5	-34.6	12.2	1.66e-04	0	43	0	693108736	24	5133
2026-01-29 08:53:06.73	31.87	28.09	-31.6	-34.8	12.1	2.61e-04	0	42	0	695205888	24	5204
2026-01-29 08:53:07.73	31.56	28.03	-31.7	-35.1	11.9	2.93e-04	0	43	0	697303040	24	5319
2026-01-29 08:53:08.74	31.25	27.97	-31.7	-35.2	11.8	4.49e-04	0	43	0	699400192	24	5366
2026-01-29 08:53:09.74	30.95	27.91	-31.7	-35.1	11.9	4.58e-04	0	42	0	701497344	24	5323
2026-01-29 08:53:10.75	30.65	27.85	-31.8	-35.2	11.8	4.68e-04	0	43	0	702545920	24	5382
2026-01-29 08:53:11.75	30.35	27.79	-31.9	-35.8	11.4	6.52e-04	0	43	0	704643072	24	5612
2026-01-29 08:53:12.76	30.04	27.73	-31.8	-35.6	11.5	8.98e-04	0	43	0	706740224	24	5518
2026-01-29 08:53:13.77	29.74	27.67	-31.7	-35.1	11.9	5.13e-04	0	43	0	708837376	24	5318
2026-01-29 08:53:14.77	29.45	27.61	-31.6	-34.8	12.1	3.06e-04	0	43	0	710934528	24	5207
2026-01-29 08:53:15.77	29.15	27.54	-31.5	-34.5	12.3	2.06e-04	0	43	0	711983104	24	5087
2026-01-29 08:53:16.77	28.86	27.48	-31.5	-34.5	12.3	1.81e-04	0	43	0	714080256	24	5070
2026-01-29 08:53:17.78	28.56	27.41	-31.3	-33.9	12.7	1.30e-04	0	43	0	716177408	24	4876
2026-01-29 08:53:18.78	28.27	27.35	-31.3	-34.1	12.6	9.38e-05	0	43	0	718274560	24	4916
2026-01-29 08:53:19.78	27.98	27.28	-31.3	-34.0	12.6	7.85e-05	0	43	0	720371712	24	4884
2026-01-29 08:53:20.78	27.69	27.22	-31.4	-34.1	12.6	1.04e-04	0	43	0	721420288	24	4947
2026-01-29 08:53:21.78	27.40	27.15	-31.4	-34.4	12.4	1.12e-04	0	43	0	723517440	24	5033
2026-01-29 08:53:22.79	27.11	27.08	-31.4	-34.2	12.5	1.94e-04	0	43	0	725614592	24	4977
2026-01-29 08:53:23.79	26.82	27.01	-31.4	-34.3	12.4	1.37e-04	0	43	0	727711744	24	4997
2026-01-29 08:53:24.79	26.54	26.94	-31.4	-34.3	12.4	1.44e-04	0	42	0	728760320	24	5028
2026-01-29 08:53:25.79	26.26	26.87	-31.4	-34.1	12.5	1.61e-04	0	43	0	730857472	24	4952
2026-01-29 08:53:26.79	25.97	26.80	-31.4	-34.1	12.5	1.22e-04	0	43	0	732954624	24	4944
2026-01-29 08:53:27.78	25.70	26.73	-31.4	-34.2	12.5	1.36e-04	0	43	0	735051776	24	4970
2026-01-29 08:53:28.79	25.41	26.66	-31.5	-34.5	12.2	1.52e-04	0	43	0	737148928	24	5083
2026-01-29 08:53:29.79	25.14	26.59	-31.4	-34.1	12.5	2.15e-04	0	43	0	738197504	24	4934
2026-01-29 08:53:30.79	24.86	26.52	-31.2	-34.1	12.9	6.02e-05	0	43	0	740294656	23	5032
2026-01-29 08:53:31.80	24.58	26.44	-31.4	-34.6	12.5	5.87e-05	0	43	0	742391808	23	5221
2026-01-29 08:53:32.80	24.31	26.37	-31.4	-34.6	12.5	1.27e-04	0	43	0	744488960	23	5238
2026-01-29 08:53:33.80	24.03	26.29	-31.5	-34.9	12.3	1.70e-04	0	43	0	746586112	23	5360
2026-01-29 08:53:34.79	23.76	26.22	-31.4	-34.9	12.3	1.87e-04	0	43	0	747634688	23	5344
2026-01-29 08:53:35.79	23.49	26.15	-31.4	-34.7	12.5	1.50e-04	0	43	0	749731840	23	5264
2026-01-29 08:53:36.80	23.22	26.07	-31.4	-34.6	12.5	1.23e-04	0	43	0	751828992	23	5249
2026-01-29 08:53:37.80	22.95	25.99	-31.5	-35.1	12.2	1.71e-04	0	43	0	753926144	23	5420
2026-01-29 08:53:38.81	22.68	25.92	-31.4	-34.7	12.4	1.82e-04	0	43	0	756023296	23	5287
2026-01-29 08:53:39.81	22.42	25.84	-31.5	-35.0	12.2	1.37e-04	0	43	0	757071872	23	5420
2026-01-29 08:53:40.81	22.15	25.76	-31.3	-34.6	12.5	1.41e-04	0	42	0	759169024	23	5230
2026-01-29 08:53:41.81	21.89	25.68	-31.1	-34.0	12.9	6.56e-05	0	43	0	761266176	23	4998
2026-01-29 08:53:42.82	21.63	25.60	-30.9	-33.4	13.2	3.66e-05	0	43	0	763363328	23	4791
2026-01-29 08:53:43.81	21.37	25.53	-30.9	-33.3	13.3	1.83e-05	0	43	0	765460480	23	4764
2026-01-29 08:53:44.82	21.11	25.45	-30.9	-33.3	13.3	1.14e-05	0	43	0	766509056	23	4745
2026-01-29 08:53:45.82	20.85	25.37	-30.9	-33.3	13.3	1.83e-05	0	43	0	768606208	23	4741
2026-01-29 08:53:46.83	20.59	25.29	-30.7	-33.2	13.6	1.14e-05	0	43	0	770703360	22	4827
2026-01-29 08:53:47.83	20.34	25.21	-30.5	-32.8	13.9	4.50e-06	0	43	0	772800512	22	4696
2026-01-29 08:53:48.83	20.08	25.13	-30.5	-32.7	14.0	3.00e-06	0	43	0	773849088	22	4642
2026-01-29 08:53:49.84	19.83	25.04	-30.5	-32.7	14.1	2.20e-06	0	43	0	775946240	22	4654
2026-01-29 08:53:50.84	19.58	24.96	-30.5	-32.8	14.0	2.20e-06	0	43	0	778043392	22	4679
2026-01-29 08:53:51.84	19.33	24.88	-30.6	-33.0	13.8	4.50e-06	0	43	0	780140544	22	4761
2026-01-29 08:53:52.85	19.08	24.80	-30.6	-32.9	13.8	3.00e-06	0	43	0	782237696	22	4738
2026-01-29 08:53:53.86	18.83	24.71	-30.5	-32.7	14.0	6.10e-06	0	43	0	783286272	22	4660
2026-01-29 08:53:54.86	18.58	24.63	-30.4	-32.6	14.0	3.80e-06	0	42	0	785383424	22	4622
2026-01-29 08:53:55.86	18.34	24.55	-30.5	-32.8	14.0	1.50e-06	0	43	0	787480576	22	4672
2026-01-29 08:53:56.86	18.10	24.47	-30.4	-32.4	14.2	3.00e-06	0	43	0	789577728	22	4551
2026-01-29 08:53:57.87	17.85	24.38	-30.2	-32.6	14.3	1.50e-06	0	43	0	791674880	21	4725
2026-01-29 08:53:58.87	17.61	24.30	-30.1	-32.3	14.5	0.00e+00	0	43	0	792723456	21	4637
2026-01-29 08:53:59.87	17.37	24.21	-30.3	-32.7	14.3	7.00e-07	0	43	0	794820608	21	4753
2026-01-29 08:54:00.87	17.13	24.13	-30.1	-32.2	14.6	0.00e+00	0	43	0	796917760	21	4587
2026-01-29 08:54:01.87	16.90	24.04	-29.9	-31.8	14.9	0.00e+00	0	43	0	799014912	21	4455
2026-01-29 08:54:02.87	16.66	23.96	-29.7	-31.8	15.1	7.00e-07	0	43	0	801112064	20	4585
2026-01-29 08:54:03.87	16.43	23.87	-29.7	-31.8	15.1	0.00e+00	0	43	0	802160640	20	4578
2026-01-29 08:54:04.88	16.19	23.79	-29.8	-31.9	15.0	0.00e+00	0	43	0	804257792	20	4596
2026-01-29 08:54:05.88	15.96	23.70	-29.6	-31.5	15.3	0.00e+00	0	43	0	806354944	20	4464
2026-01-29 08:54:06.88	15.73	23.62	-29.6	-31.6	15.3	0.00e+00	0	42	0	808452096	20	4500
2026-01-29 08:54:07.89	15.50	23.53	-29.5	-31.3	15.4	0.00e+00	0	43	0	810549248	20	4436
2026-01-29 08:54:08.89	15.27	23.44	-29.5	-31.3	15.4	0.00e+00	0	43	0	811597824	20	4418
2026-01-29 08:54:09.90	15.05	23.35	-29.6	-31.4	15.4	0.00e+00	0	43	0	813694976	20	4453
2026-01-29 08:54:10.91	14.82	23.27	-29.4	-31.1	15.5	0.00e+00	0	43	0	815792128	20	4367
2026-01-29 08:54:11.91	14.60	23.18	-29.4	-31.1	15.5	0.00e+00	0	43	0	817889280	20	4349
2026-01-29 08:54:12.91	14.37	23.09	-29.4	-31.1	15.5	0.00e+00	0	43	0	819986432	20	4358
2026-01-29 08:54:13.91	14.15	23.01	-29.4	-31.1	15.5	0.00e+00	0	43	0	821035008	20	4372
2026-01-29 08:54:14.92	13.93	22.92	-29.5	-31.3	15.4	0.00e+00	0	42	0	823132160	20	4430
2026-01-29 08:54:15.92	13.71	22.83	-29.7	-31.7	15.2	0.00e+00	0	43	0	825229312	20	4532
2026-01-29 08:54:16.93	13.49	22.74	-29.4	-31.1	15.5	0.00e+00	0	43	0	827326464	20	4369
2026-01-29 08:54:17.93	13.28	22.65	-29.3	-31.2	15.8	0.00e+00	0	43	0	828375040	19	4492
2026-01-29 08:54:18.94	13.06	22.56	-29.4	-31.6	15.6	0.00e+00	0	43	0	830472192	19	4601
2026-01-29 08:54:19.94	12.84	22.48	-29.3	-31.2	15.8	0.00e+00	0	43	0	832569344	19	4481
2026-01-29 08:54:20.94	12.63	22.39	-29.6	-31.9	15.4	0.00e+00	0	43	0	834666496	19	4711
2026-01-29 08:54:21.94	12.42	22.30	-29.3	-31.3	15.7	0.00e+00	0	43	0	836763648	19	4525
2026-01-29 08:54:22.94	12.21	22.21	-29.1	-30.9	16.0	0.00e+00	0	43	0	837812224	19	4386
2026-01-29 08:54:23.95	12.00	22.12	-28.9	-30.4	16.2	0.00e+00	0	42	0	839909376	19	4259
2026-01-29 08:54:24.95	11.79	22.03	-28.8	-30.1	16.4	0.00e+00	0	43	0	842006528	19	4169
2026-01-29 08:54:25.95	11.59	21.94	-28.8	-30.4	16.5	7.00e-07	0	42	0	844103680	18	4372
2026-01-29 08:54:26.95	11.38	21.86	-28.8	-30.5	16.5	0.00e+00	0	43	0	846200832	18	4393
2026-01-29 08:54:27.95	11.18	21.77	-28.9	-30.7	16.4	0.00e+00	0	43	0	847249408	18	4443
2026-01-29 08:54:28.96	10.97	21.68	-28.8	-30.6	16.4	0.00e+00	0	43	0	849346560	18	4417
2026-01-29 08:54:29.96	10.77	21.59	-29.0	-30.9	16.2	0.00e+00	0	43	0	851443712	18	4523
2026-01-29 08:54:30.97	10.57	21.50	-28.9	-30.8	16.3	0.00e+00	0	43	0	853540864	18	4493
2026-01-29 08:54:31.97	10.37	21.41	-29.0	-30.9	16.3	0.00e+00	0	43	0	855638016	18	4515
2026-01-29 08:54:32.98	10.17	21.32	-29.0	-31.0	16.1	0.00e+00	0	43	0	856686592	18	4554
2026-01-29 08:54:33.98	9.97	21.23	-29.1	-31.4	15.9	0.00e+00	0	43	0	858783744	18	4659
2026-01-29 08:54:34.98	9.78	21.14	-29.1	-31.3	16.0	0.00e+00	0	43	0	860880896	18	4632
2026-01-29 08:54:35.98	9.58	21.05	-29.2	-31.4	15.9	0.00e+00	0	43	0	862978048	18	4672
2026-01-29 08:54:36.99	9.39	20.96	-29.1	-31.3	16.0	0.00e+00	0	43	0	865075200	18	4636
2026-01-29 08:54:37.99	9.19	20.87	-29.2	-31.5	15.9	0.00e+00	0	43	0	866123776	18	4693
2026-01-29 08:54:39.00	9.00	20.78	-29.1	-31.4	15.9	0.00e+00	0	43	0	868220928	18	4664
2026-01-29 08:54:40.01	8.81	20.69	-29.3	-31.7	15.7	0.00e+00	0	43	0	870318080	18	4768
2026-01-29 08:54:41.01	8.62	20.60	-29.3	-31.8	15.7	0.00e+00	0	43	0	872415232	18	4789
2026-01-29 08:54:42.01	8.43	20.51	-29.4	-32.1	15.5	0.00e+00	0	43	0	874512384	18	4885
2026-01-29 08:54:43.02	8.24	20.42	-29.4	-32.1	15.5	0.00e+00	0	43	0	875560960	18	4896
2026-01-29 08:54:44.02	8.06	20.33	-29.5	-31.8	15.4	0.00e+00	0	43	0	877658112	19	4694
2026-01-29 08:54:45.02	7.87	20.24	-29.5	-31.7	15.4	0.00e+00	0	43	0	879755264	19	4657
2026-01-29 08:54:46.02	7.69	20.15	-29.5	-31.9	15.3	0.00e+00	0	43	0	881852416	19	4707
2026-01-29 08:54:47.03	7.51	20.06	-29.5	-31.8	15.4	0.00e+00	0	43	0	883949568	19	4673
2026-01-29 08:54:48.03	7.33	19.97	-29.6	-32.2	15.1	0.00e+00	0	43	0	884998144	19	4803
2026-01-29 08:54:49.03	7.15	19.88	-29.5	-31.9	15.3	0.00e+00	0	43	0	887095296	19	4718
2026-01-29 08:54:50.03	6.97	19.79	-29.5	-31.9	15.3	0.00e+00	0	43	0	889192448	19	4710
2026-01-29 08:54:51.03	6.79	19.70	-29.6	-32.1	15.2	0.00e+00	0	43	0	891289600	19	4797
2026-01-29 08:54:52.03	6.61	19.61	-29.7	-32.3	15.0	0.00e+00	0	43	0	892338176	19	4869
2026-01-29 08:54:53.04	6.43	19.52	-29.8	-32.5	14.9	0.00e+00	0	43	0	894435328	19	4914
2026-01-29 08:54:54.04	6.26	19.43	-29.9	-32.8	14.7	0.00e+00	0	43	0	896532480	19	5043
2026-01-29 08:54:55.05	6.08	19.34	-29.9	-32.7	14.7	0.00e+00	0	43	0	898629632	19	5008
2026-01-29 08:54:56.05	5.91	19.25	-29.9	-32.8	14.7	0.00e+00	0	43	0	900726784	19	5025
2026-01-29 08:54:57.05	5.74	19.17	-30.0	-33.0	14.6	7.00e-07	0	43	0	902823936	19	5106
2026-01-29 08:54:58.06	5.57	19.08	-29.9	-32.4	14.6	0.00e+00	0	43	0	903872512	20	4795
2026-01-29 08:54:59.07	5.40	18.99	-29.9	-32.5	14.5	0.00e+00	0	43	0	905969664	20	4814
2026-01-29 08:55:00.07	5.23	18.90	-30.0	-32.5	14.5	0.00e+00	0	42	0	908066816	20	4830
2026-01-29 08:55:01.07	5.06	18.81	-30.0	-32.6	14.4	0.00e+00	0	43	0	910163968	20	4875
2026-01-29 08:55:02.07	4.89	18.72	-30.1	-32.9	14.2	1.50e-06	0	43	0	911212544	20	4961
2026-01-29 08:55:03.08	4.73	18.63	-30.0	-32.7	14.3	7.00e-07	0	43	0	913309696	20	4905
2026-01-29 08:55:04.08	4.56	18.54	-30.1	-32.9	14.2	1.50e-06	0	43	0	915406848	20	4983
2026-01-29 08:55:05.08	4.40	18.45	-30.0	-32.7	14.3	0.00e+00	0	43	0	917504000	20	4885
2026-01-29 08:55:06.09	4.23	18.36	-30.0	-32.7	14.3	0.00e+00	0	43	0	919601152	20	4910
2026-01-29 08:55:07.10	4.07	18.27	-30.1	-32.8	14.3	1.50e-06	0	43	0	920649728	20	4930
2026-01-29 08:55:08.10	3.91	18.18	-30.1	-32.9	14.2	1.50e-06	0	43	0	922746880	20	4982
2026-01-29 08:55:09.10	3.75	18.10	-30.0	-32.8	14.3	7.00e-07	0	43	0	924844032	20	4932
2026-01-29 08:55:10.10	3.59	18.01	-30.0	-32.6	14.4	0.00e+00	0	43	0	926941184	20	4871
2026-01-29 08:55:11.10	3.43	17.92	-30.1	-32.9	14.1	2.20e-06	0	42	0	929038336	20	4981
2026-01-29 08:55:12.10	3.28	17.83	-30.1	-32.9	14.2	2.20e-06	0	43	0	930086912	20	4976
2026-01-29 08:55:13.11	3.12	17.74	-30.1	-33.0	14.1	2.20e-06	0	43	0	932184064	20	5012
2026-01-29 08:55:14.12	2.96	17.65	-30.3	-33.3	13.9	4.50e-06	0	43	0	934281216	20	5108
2026-01-29 08:55:15.12	2.81	17.57	-30.2	-33.2	14.0	2.20e-06	0	43	0	936378368	20	5067
2026-01-29 08:55:16.12	2.65	17.48	-30.3	-33.4	13.9	2.20e-06	0	42	0	938475520	20	5145
2026-01-29 08:55:17.12	2.50	17.39	-30.3	-33.3	13.9	4.50e-06	0	42	0	939524096	20	5131
2026-01-29 08:55:18.13	2.35	17.30	-30.4	-33.6	13.7	4.50e-06	0	43	0	941621248	20	5242
2026-01-29 08:55:19.13	2.20	17.21	-30.3	-33.4	13.8	7.00e-07	0	43	0	943718400	20	5138
2026-01-29 08:55:20.13	2.05	17.13	-30.3	-33.5	13.7	4.50e-06	0	43	0	945815552	20	5199
2026-01-29 08:55:21.13	1.90	17.04	-30.4	-33.8	13.5	3.80e-06	0	43	0	947912704	20	5316
2026-01-29 08:55:22.14	1.75	16.95	-30.3	-33.5	13.7	2.20e-06	0	43	0	948961280	20	5199
2026-01-29 08:55:23.14	1.60	16.87	-30.2	-33.3	13.9	1.50e-06	0	43	0	951058432	20	5112
2026-01-29 08:55:24.13	1.46	16.78	-30.3	-33.5	13.8	4.50e-06	0	43	0	953155584	20	5186
2026-01-29 08:55:25.13	1.31	16.69	-30.4	-33.7	13.6	6.80e-06	0	42	0	955252736	20	5274
2026-01-29 08:55:26.13	1.17	16.61	-30.5	-33.5	13.4	1.52e-05	0	43	0	956301312	21	5094
2026-01-29 08:55:27.14	1.02	16.52	-30.5	-33.5	13.4	1.67e-05	0	43	0	958398464	21	5088
2026-01-29 08:55:28.14	0.88	16.43	-30.5	-33.6	13.3	1.60e-05	0	43	0	960495616	21	5143
2026-01-29 08:55:29.14	0.74	16.35	-30.6	-33.7	13.2	2.13e-05	0	43	0	962592768	21	5173
2026-01-29 08:55:30.15	0.60	16.26	-30.6	-33.7	13.2	1.98e-05	0	43	0	964689920	21	5171
2026-01-29 08:55:31.16	0.45	16.17	-30.6	-33.9	13.2	1.83e-05	0	43	0	965738496	21	5235
2026-01-29 08:55:32.16	0.32	16.09	-30.7	-33.9	13.1	2.74e-05	0	43	0	967835648	21	5260
2026-01-29 08:55:33.16	0.18	16.00	-30.6	-33.9	13.1	3.05e-05	0	43	0	969932800	21	5244
2026-01-29 08:55:34.17	0.04	15.91	-30.7	-34.0	13.0	3.35e-05	0	43	0	972029952	21	5297
2026-01-29 08:55:35.17	359.90	15.83	-30.8	-34.2	12.9	4.11e-05	0	43	0	974127104	21	5375
2026-01-29 08:55:36.17	359.76	15.74	-30.7	-34.0	13.0	4.04e-05	0	43	0	975175680	21	5303
2026-01-29 08:55:37.17	359.63	15.66	-30.8	-34.2	12.9	4.57e-05	0	43	0	977272832	21	5377
2026-01-29 08:55:38.18	359.49	15.57	-30.8	-34.3	12.8	4.50e-05	0	43	0	979369984	21	5403
2026-01-29 08:55:39.17	359.36	15.49	-30.7	-34.2	12.9	4.50e-05	0	43	0	981467136	21	5374
2026-01-29 08:55:40.17	359.23	15.40	-30.9	-34.6	12.6	7.78e-05	0	43	0	983564288	21	5511
2026-01-29 08:55:41.18	359.09	15.32	-30.8	-34.5	12.7	8.85e-05	0	43	0	984612864	21	5473
2026-01-29 08:55:42.18	358.96	15.23	-30.9	-34.8	12.5	9.46e-05	0	43	0	986710016	21	5624
2026-01-29 08:55:43.18	358.83	15.15	-31.1	-34.8	12.2	1.86e-04	0	43	0	988807168	22	5489
2026-01-29 08:55:44.19	358.70	15.06	-31.3	-35.2	11.9	3.29e-04	0	43	0	990904320	22	5691
2026-01-29 08:55:45.19	358.57	14.98	-31.2	-35.1	11.9	4.09e-04	0	43	0	993001472	22	5644
2026-01-29 08:55:46.20	358.44	14.89	-31.2	-35.2	11.8	4.23e-04	0	43	0	994050048	22	5691
2026-01-29 08:55:47.20	358.31	14.81	-31.3	-35.5	11.6	5.25e-04	0	43	0	996147200	22	5814
2026-01-29 08:55:48.21	358.19	14.73	-31.4	-35.6	11.5	7.04e-04	0	43	0	998244352	22	5882
2026-01-29 08:55:49.22	358.06	14.64	-31.2	-35.1	11.9	5.10e-04	0	43	0	1000341504	22	5656
2026-01-29 08:55:50.22	357.93	14.56	-31.2	-35.0	12.0	3.93e-04	0	43	0	1002438656	22	5571
2026-01-29 08:55:51.22	357.81	14.48	-31.2	-35.0	12.0	3.82e-04	0	43	0	1003487232	22	5603
2026-01-29 08:55:52.22	357.68	14.39	-31.2	-35.2	11.8	4.36e-04	0	43	0	1005584384	22	5683
2026-01-29 08:55:53.23	357.56	14.31	-31.4	-35.7	11.4	8.75e-04	0	43	0	1007681536	22	5920
2026-01-29 08:55:54.23	357.44	14.23	-31.2	-35.2	11.8	6.87e-04	0	43	0	1009778688	22	5694
2026-01-29 08:55:55.23	357.31	14.14	-31.1	-34.8	12.1	3.84e-04	0	43	0	1010827264	22	5496
2026-01-29 08:55:56.24	357.19	14.06	-31.0	-34.5	12.2	2.20e-04	0	43	0	1012924416	22	5410
2026-01-29 08:55:57.25	357.07	13.98	-30.9	-34.3	12.4	1.94e-04	0	43	0	1015021568	22	5304
2026-01-29 08:55:58.25	356.95	13.89	-30.9	-34.2	12.4	1.18e-04	0	43	0	1017118720	22	5283
2026-01-29 08:55:59.25	356.83	13.81	-30.9	-34.1	12.5	1.16e-04	0	43	0	1019215872	22	5236
2026-01-29 08:56:00.25	356.71	13.73	-30.8	-34.0	12.6	1.03e-04	0	43	0	1021313024	22	5176
2026-01-29 08:56:01.26	356.59	13.65	-30.8	-34.1	12.5	8.92e-05	0	43	0	1022361600	22	5226
2026-01-29 08:56:02.26	356.48	13.57	-30.9	-34.1	12.5	1.37e-04	0	43	0	1024458752	22	5243
2026-01-29 08:56:03.27	356.36	13.48	-30.8	-33.9	12.6	9.76e-05	0	43	0	1026555904	22	5146
2026-01-29 08:56:04.27	356.24	13.40	-30.8	-33.9	12.6	6.86e-05	0	43	0	1028653056	22	5146
2026-01-29 08:56:05.27	356.13	13.32	-30.8	-33.9	12.6	8.92e-05	0	43	0	1029701632	22	5172
2026-01-29 08:56:06.27	356.01	13.24	-30.8	-34.0	12.6	9.38e-05	0	43	0	1031798784	22	5193
2026-01-29 08:56:07.28	355.90	13.16	-30.9	-34.3	12.4	1.56e-04	0	43	0	1033895936	22	5302
2026-01-29 08:56:08.28	355.78	13.08	-31.0	-34.6	12.2	2.18e-04	0	43	0	1035993088	22	5430
2026-01-29 08:56:09.28	355.67	13.00	-31.0	-34.5	12.2	2.22e-04	0	43	0	1038090240	22	5419
2026-01-29 08:56:10.29	355.56	12.92	-31.1	-34.8	12.0	3.49e-04	0	43	0	1039138816	22	5533
2026-01-29 08:56:11.29	355.45	12.84	-31.0	-34.7	12.0	2.99e-04	0	43	0	1041235968	22	5477
2026-01-29 08:56:12.29	355.34	12.76	-31.1	-34.9	11.9	3.71e-04	0	43	0	1043333120	22	5580
2026-01-29 08:56:13.28	355.23	12.68	-31.1	-35.0	11.8	4.93e-04	0	43	0	1045430272	22	5625
2026-01-29 08:56:14.28	355.12	12.60	-31.1	-35.0	11.8	4.62e-04	0	43	0	1047527424	22	5608
2026-01-29 08:56:15.29	355.01	12.52	-31.2	-35.2	11.7	5.22e-04	0	43	0	1048576000	22	5706
2026-01-29 08:56:16.29	354.90	12.44	-31.1	-35.0	11.8	4.87e-04	0	43	0	1050673152	22	5601
2026-01-29 08:56:17.29	354.79	12.36	-31.2	-35.1	11.7	4.97e-04	0	43	0	1052770304	22	5660
2026-01-29 08:56:18.29	354.69	12.28	-31.2	-35.3	11.6	6.79e-04	0	43	0	1054867456	22	5736
2026-01-29 08:56:19.29	354.58	12.20	-31.2	-35.2	11.6	6.45e-04	0	43	0	1055916032	22	5731
2026-01-29 08:56:20.30	354.47	12.12	-31.3	-35.5	11.4	8.70e-04	0	43	0	1058013184	22	5837
2026-01-29 08:56:21.30	354.37	12.04	-31.3	-35.7	11.2	1.31e-03	0	43	0	1060110336	22	5946
2026-01-29 08:56:22.31	354.26	11.96	-31.3	-35.4	11.4	1.17e-03	0	43	0	1062207488	22	5830
2026-01-29 08:56:23.32	354.16	11.88	-31.2	-35.2	11.6	8.46e-04	0	43	0	1064304640	22	5724
2026-01-29 08:56:24.32	354.05	11.81	-31.2	-35.2	11.6	7.27e-04	0	43	0	1066401792	22	5703
2026-01-29 08:56:25.32	353.95	11.73	-31.2	-35.2	11.6	6.87e-04	0	43	0	1067450368	22	5739
2026-01-29 08:56:26.33	353.85	11.65	-31.2	-35.3	11.5	9.18e-04	0	43	0	1069547520	22	5770
2026-01-29 08:56:27.33	353.74	11.57	-31.2	-35.3	11.5	8.33e-04	0	43	0	1071644672	22	5758
2026-01-29 08:56:28.33	353.64	11.49	-31.2	-35.3	11.5	8.15e-04	0	43	0	1073741824	22	5786
2026-01-29 08:56:29.33	353.54	11.42	-31.2	-35.4	11.4	9.67e-04	0	43	0	1074790400	22	5833
2026-01-29 08:56:30.34	353.44	11.34	-31.2	-35.3	11.5	9.43e-04	0	43	0	1076887552	22	5764
2026-01-29 08:56:31.34	353.34	11.26	-31.2	-35.3	11.4	9.07e-04	0	43	0	1078984704	22	5775
2026-01-29 08:56:32.34	353.24	11.18	-31.2	-35.2	11.5	8.63e-04	0	43	0	1081081856	22	5745
2026-01-29 08:56:33.35	353.14	11.11	-31.2	-35.3	11.5	8.83e-04	0	43	0	1083179008	22	5754
2026-01-29 08:56:34.35	353.04	11.03	-31.2	-35.4	11.4	9.30e-04	0	43	0	1084227584	22	5822
2026-01-29 08:56:35.36	352.95	10.95	-31.3	-35.6	11.2	1.27e-03	0	43	0	1086324736	22	5928
2026-01-29 08:56:36.37	352.85	10.88	-31.1	-35.0	11.7	7.00e-04	0	43	0	1088421888	22	5636
2026-01-29 08:56:37.37	352.75	10.80	-31.0	-34.7	11.8	5.17e-04	0	43	0	1090519040	22	5509
2026-01-29 08:56:38.37	352.65	10.72	-31.0	-34.7	11.9	4.33e-04	0	43	0	1092616192	22	5496
2026-01-29 08:56:39.38	352.56	10.65	-30.9	-34.6	11.9	4.20e-04	0	43	0	1093664768	22	5461
2026-01-29 08:56:40.37	352.46	10.57	-31.0	-34.6	11.9	3.94e-04	0	43	0	1095761920	22	5475
2026-01-29 08:56:41.38	352.37	10.50	-31.0	-34.6	11.8	4.01e-04	0	43	0	1097859072	22	5484
2026-01-29 08:56:42.39	352.27	10.42	-31.0	-34.7	11.8	4.04e-04	0	43	0	1099956224	22	5528
2026-01-29 08:56:43.40	352.18	10.34	-31.0	-34.9	11.6	6.82e-04	0	43	0	1102053376	22	5615
2026-01-29 08:56:44.40	352.09	10.27	-31.1	-35.0	11.6	6.23e-04	0	43	0	1103101952	22	5647
2026-01-29 08:56:45.40	351.99	10.19	-31.1	-35.1	11.5	8.32e-04	0	43	0	1105199104	22	5686
2026-01-29 08:56:46.41	351.90	10.12	-31.1	-35.0	11.5	7.16e-04	0	43	0	1107296256	22	5673
2026-01-29 08:56:47.41	351.81	10.04	-31.2	-35.5	11.2	1.34e-03	0	43	0	1109393408	22	5888
2026-01-29 08:56:48.41	351.72	9.97	-31.2	-35.3	11.3	1.38e-03	0	43	0	1111490560	22	5791
2026-01-29 08:56:49.42	351.63	9.89	-31.1	-35.2	11.4	9.50e-04	0	43	0	1112539136	22	5744
2026-01-29 08:56:50.42	351.54	9.82	-31.2	-35.5	11.1	1.27e-03	0	43	0	1114636288	22	5897
2026-01-29 08:56:51.42	351.45	9.75	-31.2	-35.6	11.0	1.94e-03	0	43	0	1116733440	22	5946
2026-01-29 08:56:52.42	351.36	9.67	-31.2	-35.4	11.2	1.52e-03	0	43	0	1118830592	22	5851
2026-01-29 08:56:53.43	351.27	9.60	-31.2	-35.4	11.2	1.45e-03	0	43	0	1120927744	22	5867
2026-01-29 08:56:54.43	351.18	9.52	-31.2	-35.5	11.1	1.70e-03	0	43	0	1121976320	22	5901
2026-01-29 08:56:55.43	351.09	9.45	-31.3	-35.7	10.9	1.58e-03	0	43	0	1124073472	22	6003
2026-01-29 08:56:56.44	351.01	9.38	-31.4	-36.0	10.8	2.54e-03	0	42	0	1126170624	22	6125
2026-01-29 08:56:57.44	350.92	9.30	-31.3	-35.8	10.8	2.36e-03	0	43	0	1128267776	22	6066
2026-01-29 08:56:58.45	350.83	9.23	-31.5	-36.4	10.4	3.20e-03	0	43	0	1129316352	22	6336
2026-01-29 08:56:59.45	350.75	9.16	-31.5	-36.1	10.2	6.26e-03	0	43	0	1131413504	23	6119
2026-01-29 08:57:00.45	350.66	9.08	-31.4	-35.8	10.5	4.27e-03	0	43	0	1133510656	23	5938
2026-01-29 08:57:01.45	350.58	9.01	-31.4	-35.7	10.6	3.67e-03	0	43	0	1135607808	23	5881
2026-01-29 08:57:02.45	350.49	8.94	-31.3	-35.5	10.7	3.13e-03	0	42	0	1137704960	23	5796
2026-01-29 08:57:03.46	350.41	8.87	-31.4	-35.6	10.6	3.18e-03	0	43	0	1139802112	23	5847
2026-01-29 08:57:04.46	350.32	8.79	-31.4	-35.6	10.6	3.49e-03	0	43	0	1140850688	23	5832
2026-01-29 08:57:05.47	350.24	8.72	-31.4	-35.8	10.4	3.63e-03	0	43	0	1142947840	23	5959
2026-01-29 08:57:06.46	350.16	8.65	-31.4	-35.8	10.4	4.56e-03	0	42	0	1145044992	23	5944
2026-01-29 08:57:07.47	350.07	8.58	-31.4	-35.8	10.4	4.13e-03	0	43	0	1147142144	23	5945
2026-01-29 08:57:08.47	349.99	8.51	-31.4	-35.8	10.4	5.43e-03	0	43	0	1148190720	23	5983
2026-01-29 08:57:09.48	349.91	8.44	-31.4	-35.8	10.4	4.70e-03	0	43	0	1150287872	23	5974
2026-01-29 08:57:10.49	349.83	8.36	-31.4	-35.7	10.5	4.14e-03	0	43	0	1152385024	23	5892
2026-01-29 08:57:11.49	349.75	8.29	-31.4	-35.9	10.3	4.26e-03	0	43	0	1154482176	23	6003
2026-01-29 08:57:12.50	349.67	8.22	-31.4	-35.7	10.5	5.37e-03	0	43	0	1156579328	23	5901
2026-01-29 08:57:13.50	349.59	8.15	-31.3	-35.5	10.5	3.84e-03	0	43	0	1157627904	23	5845
2026-01-29 08:57:14.51	349.51	8.08	-31.3	-35.5	10.5	3.48e-03	0	43	0	1159725056	23	5820
2026-01-29 08:57:15.51	349.43	8.01	-31.3	-35.5	10.6	3.46e-03	0	43	0	1161822208	23	5836
2026-01-29 08:57:16.51	349.35	7.94	-31.3	-35.5	10.5	3.75e-03	0	43	0	1163919360	23	5828
2026-01-29 08:57:17.52	349.27	7.87	-31.3	-35.7	10.4	4.29e-03	0	43	0	1166016512	23	5914
2026-01-29 08:57:18.52	349.19	7.80	-31.4	-35.8	10.3	5.35e-03	0	43	0	1167065088	23	5961
2026-01-29 08:57:19.52	349.12	7.73	-31.3	-35.6	10.4	4.55e-03	0	43	0	1169162240	23	5913
2026-01-29 08:57:20.53	349.04	7.66	-31.4	-35.7	10.3	4.83e-03	0	43	0	1171259392	23	5961
2026-01-29 08:57:21.52	348.96	7.59	-31.4	-35.8	10.3	5.80e-03	0	43	0	1173356544	23	5971
2026-01-29 08:57:22.53	348.88	7.52	-31.4	-35.8	10.3	5.25e-03	0	43	0	1175453696	23	5984
2026-01-29 08:57:23.53	348.81	7.45	-31.4	-35.9	10.1	6.32e-03	0	43	0	1176502272	23	6056
2026-01-29 08:57:24.53	348.73	7.38	-31.4	-35.9	10.1	6.22e-03	0	42	0	1178599424	23	6065
2026-01-29 08:57:25.54	348.66	7.31	-31.5	-36.4	9.8	8.12e-03	0	43	0	1180696576	23	6304
2026-01-29 08:57:26.54	348.58	7.24	-31.5	-36.4	9.7	1.22e-02	0	43	0	1182793728	23	6297
2026-01-29 08:57:27.55	348.51	7.17	-31.4	-36.1	9.9	9.13e-03	0	43	0	1184890880	23	6181
2026-01-29 08:57:28.55	348.43	7.10	-31.5	-36.3	9.9	8.78e-03	0	43	0	1185939456	23	6236
2026-01-29 08:57:29.55	348.36	7.03	-33.3	-46.3	3.9	1.04e-02	0	43	0	1188036608	26	15997
2026-01-29 08:57:30.56	348.29	6.96	-33.6	-47.7	3.8	1.49e+00	0	43	104	1188036608	27	18181

#Closed at: 2026-01-29 08:57:31
#Recorded file [1188 MB]: D:/data/31010_260129_114655.dat