passes_logs/2026/01/29/R2M6_AANII_01/R2M6_AANII_01__20260129_093556_NOAA_21_JPSS-2_rec.log

#Pass ID: 20260129_093556_NOAA 21 (JPSS-2)
#Satellite: NOAA 21 (JPSS-2)
#Configuration: NOAA 21
#almurnet v.1.7.20240730
#Start time: 2026-01-29 09:35:58

#Version: 2.2.20231116
#Station: R2M6_AANII_01
#Location: 30.233357 lon 59.946436 lat
#TLE: 1 54234U 22150A   26027.91149249  .00000141  00000+0  87546-4 0  9993
#TLE: 2 54234  98.7510 328.6558 0000880 202.8718 157.2419 14.19540177166642

#Time	Az	El	Level	Level2	SNR	BER	BlckErr	Temp	State	Recorded	gain1	gain2
2026-01-29 09:35:58.13	137.82	7.13	-29.8	-33.6	4.9	1.36e+00	0	40	0	0	20	5547
2026-01-29 09:35:59.13	137.79	7.21	-29.8	-33.2	4.8	1.38e+00	0	40	104	0	21	5320
2026-01-29 09:36:00.13	137.75	7.29	-30.1	-33.1	10.0	6.59e-03	0	40	0	0	21	5123
2026-01-29 09:36:01.13	137.72	7.36	-30.3	-33.7	9.5	1.32e-02	0	40	0	2097152	21	5370
2026-01-29 09:36:02.14	137.68	7.44	-29.9	-32.8	10.2	6.88e-03	0	40	0	6291456	21	4996
2026-01-29 09:36:03.15	137.64	7.52	-29.6	-32.6	10.6	3.78e-03	0	40	0	9437184	20	5071
2026-01-29 09:36:04.15	137.61	7.60	-29.4	-31.8	11.1	1.91e-03	0	40	0	12582912	20	4794
2026-01-29 09:36:05.15	137.57	7.67	-29.3	-32.2	11.3	1.10e-03	0	40	0	15728640	19	5042
2026-01-29 09:36:06.15	137.54	7.75	-29.4	-32.4	11.1	1.35e-03	0	40	0	18874368	19	5106
2026-01-29 09:36:07.16	137.50	7.83	-29.5	-32.8	10.9	2.16e-03	0	40	0	22020096	19	5277
2026-01-29 09:36:08.16	137.46	7.91	-29.3	-32.2	11.3	1.20e-03	0	40	0	24117248	19	5040
2026-01-29 09:36:09.16	137.43	7.99	-29.1	-31.7	11.7	7.76e-04	0	40	0	27262976	19	4842
2026-01-29 09:36:10.17	137.39	8.07	-29.0	-31.2	12.0	3.71e-04	0	40	0	30408704	19	4670
2026-01-29 09:36:11.17	137.35	8.15	-28.8	-30.9	12.3	1.90e-04	0	40	0	33554432	19	4534
2026-01-29 09:36:12.17	137.32	8.22	-28.9	-30.8	12.3	1.72e-04	0	40	0	36700160	19	4516
2026-01-29 09:36:13.17	137.28	8.30	-28.9	-30.9	12.3	1.65e-04	0	40	0	39845888	19	4530
2026-01-29 09:36:14.16	137.24	8.38	-28.9	-31.0	12.2	2.33e-04	0	40	0	42991616	19	4587
2026-01-29 09:36:15.16	137.20	8.46	-28.8	-30.7	12.4	1.27e-04	0	41	0	46137344	19	4474
2026-01-29 09:36:16.17	137.16	8.54	-28.7	-30.8	12.7	8.46e-05	0	40	0	49283072	18	4613
2026-01-29 09:36:17.18	137.13	8.62	-28.7	-31.0	12.6	9.76e-05	0	41	0	52428800	18	4662
2026-01-29 09:36:18.18	137.09	8.71	-28.7	-30.7	12.8	6.17e-05	0	41	0	55574528	18	4575
2026-01-29 09:36:19.19	137.05	8.79	-28.7	-30.7	12.8	6.02e-05	0	41	0	58720256	18	4574
2026-01-29 09:36:20.20	137.01	8.87	-28.7	-30.8	12.8	5.95e-05	0	40	0	61865984	18	4601
2026-01-29 09:36:21.20	136.97	8.95	-28.7	-30.8	12.7	6.63e-05	0	41	0	65011712	18	4610
2026-01-29 09:36:22.20	136.93	9.03	-28.8	-31.1	12.6	9.61e-05	0	41	0	68157440	18	4680
2026-01-29 09:36:23.21	136.89	9.11	-28.6	-30.7	12.9	5.87e-05	0	41	0	71303168	18	4551
2026-01-29 09:36:24.21	136.85	9.20	-28.5	-30.3	13.1	3.81e-05	0	41	0	74448896	18	4448
2026-01-29 09:36:25.21	136.81	9.28	-28.5	-30.2	13.2	2.51e-05	0	41	0	77594624	18	4411
2026-01-29 09:36:26.21	136.77	9.36	-28.5	-30.3	13.1	3.05e-05	0	41	0	80740352	18	4447
2026-01-29 09:36:27.22	136.73	9.45	-28.4	-30.2	13.2	2.21e-05	0	41	0	83886080	18	4390
2026-01-29 09:36:28.22	136.69	9.53	-28.5	-30.4	13.1	1.83e-05	0	41	0	87031808	18	4446
2026-01-29 09:36:29.22	136.64	9.61	-28.6	-30.5	13.1	4.50e-05	0	41	0	90177536	18	4488
2026-01-29 09:36:30.22	136.60	9.70	-28.4	-30.2	13.3	1.90e-05	0	41	0	93323264	18	4391
2026-01-29 09:36:31.22	136.56	9.78	-28.4	-30.0	13.4	2.13e-05	0	41	0	96468992	18	4326
2026-01-29 09:36:32.23	136.52	9.86	-28.4	-30.0	13.4	1.22e-05	0	41	0	99614720	18	4316
2026-01-29 09:36:33.23	136.48	9.95	-28.4	-29.9	13.5	9.10e-06	0	41	0	102760448	18	4299
2026-01-29 09:36:34.24	136.43	10.03	-28.4	-29.9	13.5	9.90e-06	0	41	0	105906176	18	4297
2026-01-29 09:36:35.24	136.39	10.12	-28.5	-30.1	13.4	1.22e-05	0	41	0	109051904	18	4352
2026-01-29 09:36:36.24	136.35	10.20	-28.3	-29.8	13.6	1.29e-05	0	41	0	112197632	18	4240
2026-01-29 09:36:37.25	136.30	10.29	-28.2	-30.0	13.7	6.10e-06	0	41	0	115343360	17	4431
2026-01-29 09:36:38.25	136.26	10.38	-28.2	-30.1	13.7	6.10e-06	0	41	0	118489088	17	4438
2026-01-29 09:36:39.26	136.22	10.46	-28.2	-29.9	13.8	3.80e-06	0	41	0	121634816	17	4393
2026-01-29 09:36:40.27	136.17	10.55	-28.2	-30.0	13.8	2.20e-06	0	41	0	124780544	17	4418
2026-01-29 09:36:41.27	136.13	10.64	-28.3	-30.2	13.7	1.06e-05	0	41	0	127926272	17	4466
2026-01-29 09:36:42.27	136.08	10.73	-28.1	-29.8	13.9	4.50e-06	0	41	0	131072000	17	4345
2026-01-29 09:36:43.27	136.04	10.81	-28.0	-29.6	14.0	2.20e-06	0	41	0	134217728	17	4300
2026-01-29 09:36:44.28	135.99	10.90	-28.1	-29.7	14.0	1.50e-06	0	41	0	137363456	17	4339
2026-01-29 09:36:45.29	135.94	10.99	-28.1	-29.8	13.9	3.00e-06	0	41	0	140509184	17	4363
2026-01-29 09:36:46.29	135.90	11.08	-28.0	-29.4	14.2	2.20e-06	0	41	0	143654912	17	4246
2026-01-29 09:36:47.30	135.85	11.17	-27.9	-29.3	14.2	0.00e+00	0	41	0	146800640	17	4210
2026-01-29 09:36:48.30	135.81	11.26	-28.0	-29.4	14.1	7.00e-07	0	41	0	149946368	17	4259
2026-01-29 09:36:49.30	135.76	11.34	-28.1	-29.7	14.0	1.50e-06	0	41	0	153092096	17	4324
2026-01-29 09:36:50.30	135.71	11.43	-27.9	-29.3	14.2	1.50e-06	0	41	0	156237824	17	4218
2026-01-29 09:36:51.31	135.66	11.52	-27.8	-29.0	14.4	7.00e-07	0	41	0	159383552	17	4152
2026-01-29 09:36:52.31	135.62	11.61	-27.8	-29.0	14.4	7.00e-07	0	41	0	162529280	17	4152
2026-01-29 09:36:53.31	135.57	11.71	-27.8	-29.0	14.4	7.00e-07	0	41	0	165675008	17	4148
2026-01-29 09:36:54.32	135.52	11.80	-27.7	-29.4	14.5	0.00e+00	0	41	0	168820736	16	4345
2026-01-29 09:36:55.32	135.47	11.89	-27.7	-29.3	14.5	1.50e-06	0	41	0	171966464	16	4337
2026-01-29 09:36:56.32	135.42	11.98	-27.6	-29.0	14.7	1.50e-06	0	41	0	175112192	16	4255
2026-01-29 09:36:57.33	135.37	12.07	-27.6	-29.0	14.7	0.00e+00	0	41	0	178257920	16	4252
2026-01-29 09:36:58.34	135.32	12.16	-27.7	-29.2	14.6	7.00e-07	0	41	0	181403648	16	4296
2026-01-29 09:36:59.33	135.27	12.26	-27.7	-29.3	14.6	7.00e-07	0	41	0	184549376	16	4313
2026-01-29 09:37:00.33	135.22	12.35	-27.6	-29.1	14.7	0.00e+00	0	41	0	187695104	16	4256
2026-01-29 09:37:01.34	135.17	12.44	-27.6	-29.1	14.7	7.00e-07	0	41	0	190840832	16	4266
2026-01-29 09:37:02.34	135.12	12.54	-27.7	-29.3	14.6	7.00e-07	0	41	0	193986560	16	4307
2026-01-29 09:37:03.35	135.07	12.63	-27.6	-29.0	14.8	0.00e+00	0	41	0	197132288	16	4237
2026-01-29 09:37:04.35	135.02	12.72	-27.6	-29.0	14.8	0.00e+00	0	42	0	200278016	16	4240
2026-01-29 09:37:05.36	134.96	12.82	-27.6	-29.1	14.7	1.50e-06	0	41	0	203423744	16	4247
2026-01-29 09:37:06.35	134.91	12.91	-27.6	-29.1	14.7	7.00e-07	0	42	0	206569472	16	4256
2026-01-29 09:37:07.36	134.86	13.01	-27.7	-29.1	14.7	0.00e+00	0	42	0	209715200	16	4264
2026-01-29 09:37:08.36	134.81	13.10	-27.6	-29.0	14.8	0.00e+00	0	42	0	212860928	16	4235
2026-01-29 09:37:09.37	134.75	13.20	-27.7	-29.3	14.6	1.50e-06	0	41	0	216006656	16	4303
2026-01-29 09:37:10.37	134.70	13.30	-27.6	-29.0	14.8	0.00e+00	0	41	0	219152384	16	4237
2026-01-29 09:37:11.37	134.64	13.39	-27.6	-28.9	14.9	0.00e+00	0	41	0	222298112	16	4196
2026-01-29 09:37:12.37	134.59	13.49	-27.6	-28.9	14.9	0.00e+00	0	42	0	225443840	16	4190
2026-01-29 09:37:13.37	134.53	13.59	-27.6	-29.1	14.8	0.00e+00	0	42	0	228589568	16	4246
2026-01-29 09:37:14.37	134.48	13.68	-27.7	-29.3	14.6	0.00e+00	0	42	0	231735296	16	4309
2026-01-29 09:37:15.38	134.42	13.78	-27.7	-29.1	14.7	0.00e+00	0	42	0	234881024	16	4272
2026-01-29 09:37:16.38	134.37	13.88	-27.7	-29.2	14.7	0.00e+00	0	42	0	238026752	16	4279
2026-01-29 09:37:17.38	134.31	13.98	-27.6	-29.1	14.8	0.00e+00	0	42	0	241172480	16	4265
2026-01-29 09:37:18.39	134.25	14.08	-27.6	-29.2	14.7	0.00e+00	0	41	0	244318208	16	4293
2026-01-29 09:37:19.39	134.20	14.18	-27.7	-29.3	14.6	0.00e+00	0	41	0	247463936	16	4333
2026-01-29 09:37:20.39	134.14	14.28	-27.6	-29.2	14.7	0.00e+00	0	42	0	250609664	16	4292
2026-01-29 09:37:21.39	134.08	14.38	-27.7	-29.4	14.6	0.00e+00	0	42	0	253755392	16	4365
2026-01-29 09:37:22.39	134.02	14.48	-27.8	-29.5	14.5	0.00e+00	0	42	0	256901120	16	4411
2026-01-29 09:37:23.39	133.96	14.58	-27.7	-29.2	14.7	0.00e+00	0	42	0	260046848	16	4324
2026-01-29 09:37:24.40	133.90	14.68	-27.6	-29.2	14.8	3.00e-06	0	42	0	263192576	16	4302
2026-01-29 09:37:25.41	133.84	14.78	-27.7	-29.3	14.7	7.00e-07	0	42	0	266338304	16	4320
2026-01-29 09:37:26.41	133.78	14.89	-27.7	-29.2	14.8	0.00e+00	0	42	0	269484032	16	4284
2026-01-29 09:37:27.42	133.72	14.99	-27.7	-29.3	14.8	0.00e+00	0	42	0	272629760	16	4305
2026-01-29 09:37:28.43	133.66	15.09	-27.8	-29.3	14.8	1.50e-06	0	42	0	275775488	16	4308
2026-01-29 09:37:29.43	133.60	15.20	-27.7	-29.2	14.8	0.00e+00	0	42	0	278921216	16	4275
2026-01-29 09:37:30.43	133.54	15.30	-27.8	-29.4	14.7	0.00e+00	0	42	0	282066944	16	4324
2026-01-29 09:37:31.44	133.47	15.40	-27.8	-29.3	14.9	0.00e+00	0	42	0	285212672	16	4286
2026-01-29 09:37:32.44	133.41	15.51	-27.7	-29.2	14.9	7.00e-07	0	42	0	288358400	16	4242
2026-01-29 09:37:33.45	133.35	15.62	-27.8	-29.3	14.8	0.00e+00	0	42	0	291504128	16	4289
2026-01-29 09:37:34.45	133.28	15.72	-27.8	-29.3	14.8	0.00e+00	0	42	0	294649856	16	4287
2026-01-29 09:37:35.46	133.22	15.83	-27.7	-29.1	15.0	0.00e+00	0	42	0	297795584	16	4224
2026-01-29 09:37:36.46	133.15	15.93	-27.7	-29.1	15.0	0.00e+00	0	42	0	300941312	16	4234
2026-01-29 09:37:37.46	133.09	16.04	-27.7	-29.1	15.0	7.00e-07	0	42	0	304087040	16	4229
2026-01-29 09:37:38.47	133.02	16.15	-27.8	-29.4	14.8	0.00e+00	0	42	0	307232768	16	4319
2026-01-29 09:37:39.47	132.96	16.25	-27.7	-29.2	14.9	2.20e-06	0	42	0	310378496	16	4269
2026-01-29 09:37:40.47	132.89	16.36	-27.7	-29.1	15.0	0.00e+00	0	42	0	313524224	16	4243
2026-01-29 09:37:41.48	132.82	16.47	-27.7	-29.1	15.0	0.00e+00	0	42	0	316669952	16	4248
2026-01-29 09:37:42.48	132.75	16.58	-27.7	-29.2	15.0	0.00e+00	0	42	0	319815680	16	4256
2026-01-29 09:37:43.48	132.68	16.69	-27.9	-29.5	14.8	0.00e+00	0	42	0	322961408	16	4344
2026-01-29 09:37:44.49	132.62	16.80	-27.9	-29.5	14.8	0.00e+00	0	42	0	326107136	16	4335
2026-01-29 09:37:45.50	132.55	16.91	-28.0	-29.7	14.8	7.60e-06	0	42	0	329252864	16	4382
2026-01-29 09:37:46.50	132.48	17.02	-28.1	-30.0	14.6	7.00e-07	0	42	0	332398592	16	4485
2026-01-29 09:37:47.50	132.41	17.13	-28.1	-29.9	14.6	7.00e-07	0	42	0	335544320	16	4460
2026-01-29 09:37:48.50	132.33	17.24	-28.2	-30.3	14.5	4.50e-06	0	42	0	338690048	16	4561
2026-01-29 09:37:49.51	132.26	17.36	-28.3	-30.4	14.4	7.00e-07	0	42	0	341835776	16	4580
2026-01-29 09:37:50.52	132.19	17.47	-28.1	-30.0	14.6	0.00e+00	0	42	0	344981504	16	4480
2026-01-29 09:37:51.52	132.12	17.58	-28.2	-30.2	14.5	1.50e-06	0	42	0	348127232	16	4535
2026-01-29 09:37:52.52	132.04	17.70	-28.2	-30.1	14.5	7.00e-07	0	42	0	350224384	16	4516
2026-01-29 09:37:53.53	131.97	17.81	-28.2	-30.3	14.4	0.00e+00	0	42	0	353370112	16	4566
2026-01-29 09:37:54.54	131.90	17.93	-28.3	-30.5	14.4	1.50e-06	0	42	0	357564416	16	4612
2026-01-29 09:37:55.54	131.82	18.04	-28.2	-30.1	14.6	7.00e-07	0	42	0	360710144	16	4514
2026-01-29 09:37:56.55	131.74	18.16	-28.1	-29.9	14.7	0.00e+00	0	42	0	363855872	16	4457
2026-01-29 09:37:57.55	131.67	18.27	-28.1	-30.1	14.6	0.00e+00	0	42	0	367001600	16	4509
2026-01-29 09:37:58.56	131.59	18.39	-28.2	-30.2	14.6	0.00e+00	0	42	0	370147328	16	4520
2026-01-29 09:37:59.57	131.51	18.51	-28.1	-30.1	14.6	0.00e+00	0	42	0	372244480	16	4507
2026-01-29 09:38:00.57	131.44	18.63	-28.1	-30.1	14.7	0.00e+00	0	42	0	375390208	16	4494
2026-01-29 09:38:01.57	131.36	18.74	-28.0	-29.8	14.8	0.00e+00	0	42	0	378535936	16	4426
2026-01-29 09:38:02.58	131.28	18.86	-28.1	-30.0	14.7	0.00e+00	0	42	0	381681664	16	4463
2026-01-29 09:38:03.58	131.20	18.98	-28.0	-29.7	14.9	0.00e+00	0	42	0	384827392	16	4398
2026-01-29 09:38:04.58	131.12	19.10	-27.9	-29.5	15.0	0.00e+00	0	42	0	389021696	16	4341
2026-01-29 09:38:05.59	131.03	19.22	-27.9	-29.5	15.0	0.00e+00	0	42	0	392167424	16	4332
2026-01-29 09:38:06.59	130.95	19.34	-27.8	-29.4	15.1	7.00e-07	0	42	0	395313152	16	4302
2026-01-29 09:38:07.59	130.87	19.46	-27.7	-29.2	15.2	0.00e+00	0	42	0	397410304	16	4243
2026-01-29 09:38:08.59	130.79	19.58	-27.7	-29.2	15.2	0.00e+00	0	42	0	400556032	16	4255
2026-01-29 09:38:09.60	130.70	19.71	-27.7	-29.1	15.2	7.00e-07	0	42	0	403701760	16	4239
2026-01-29 09:38:10.60	130.62	19.83	-27.7	-29.0	15.3	0.00e+00	0	42	0	406847488	16	4197
2026-01-29 09:38:11.60	130.53	19.95	-27.7	-29.0	15.3	0.00e+00	0	42	0	409993216	16	4191
2026-01-29 09:38:12.61	130.45	20.08	-27.7	-29.1	15.3	0.00e+00	0	42	0	413138944	16	4207
2026-01-29 09:38:13.61	130.36	20.20	-27.6	-28.9	15.4	0.00e+00	0	42	0	416284672	16	4151
2026-01-29 09:38:14.61	130.27	20.32	-27.6	-28.7	15.6	0.00e+00	0	42	0	419430400	16	4093
2026-01-29 09:38:15.61	130.19	20.45	-27.6	-28.8	15.5	0.00e+00	0	42	0	422576128	16	4132
2026-01-29 09:38:16.61	130.10	20.58	-27.6	-28.7	15.5	0.00e+00	0	42	0	425721856	16	4114
2026-01-29 09:38:17.62	130.01	20.70	-27.5	-28.5	15.7	0.00e+00	0	42	0	428867584	16	4053
2026-01-29 09:38:18.62	129.92	20.83	-27.5	-28.6	15.6	0.00e+00	0	42	0	432013312	16	4085
2026-01-29 09:38:19.62	129.83	20.96	-27.5	-28.5	15.7	0.00e+00	0	42	0	435159040	16	4057
2026-01-29 09:38:20.62	129.73	21.08	-27.4	-28.3	15.8	0.00e+00	0	42	0	438304768	16	4006
2026-01-29 09:38:21.63	129.64	21.21	-27.4	-28.3	15.9	0.00e+00	0	42	0	441450496	16	3988
2026-01-29 09:38:22.63	129.55	21.34	-27.3	-28.2	15.9	0.00e+00	0	42	0	444596224	16	3962
2026-01-29 09:38:23.64	129.45	21.47	-27.5	-28.5	15.8	0.00e+00	0	42	0	447741952	16	4035
2026-01-29 09:38:24.63	129.36	21.60	-27.3	-28.2	15.9	0.00e+00	0	42	0	450887680	16	3965
2026-01-29 09:38:25.64	129.26	21.74	-26.9	-27.8	16.2	0.00e+00	0	42	0	454033408	15	3968
2026-01-29 09:38:26.64	129.16	21.87	-26.9	-27.6	16.3	0.00e+00	0	42	0	457179136	15	3936
2026-01-29 09:38:27.64	129.07	22.00	-26.8	-27.5	16.4	0.00e+00	0	42	0	460324864	15	3907
2026-01-29 09:38:28.64	128.97	22.13	-26.8	-28.0	16.4	0.00e+00	0	42	0	463470592	14	4118
2026-01-29 09:38:29.64	128.87	22.26	-26.7	-27.8	16.5	0.00e+00	0	42	0	466616320	14	4087
2026-01-29 09:38:30.65	128.77	22.40	-26.7	-27.8	16.5	0.00e+00	0	42	0	469762048	14	4082
2026-01-29 09:38:31.66	128.67	22.53	-26.8	-27.9	16.5	0.00e+00	0	42	0	472907776	14	4119
2026-01-29 09:38:32.67	128.56	22.67	-26.7	-27.8	16.5	0.00e+00	0	42	0	476053504	14	4085
2026-01-29 09:38:33.67	128.46	22.81	-26.7	-27.8	16.6	0.00e+00	0	42	0	479199232	14	4070
2026-01-29 09:38:34.68	128.36	22.94	-26.7	-27.8	16.5	0.00e+00	0	42	0	482344960	14	4073
2026-01-29 09:38:35.69	128.25	23.08	-26.9	-28.2	16.3	5.30e-06	0	42	0	485490688	14	4178
2026-01-29 09:38:36.69	128.14	23.22	-26.9	-28.2	16.3	0.00e+00	0	42	0	488636416	14	4177
2026-01-29 09:38:37.69	128.04	23.36	-27.0	-28.4	16.2	0.00e+00	0	42	0	491782144	14	4248
2026-01-29 09:38:38.69	127.93	23.50	-27.0	-28.4	16.2	3.00e-06	0	42	0	494927872	14	4250
2026-01-29 09:38:39.69	127.82	23.64	-27.0	-28.4	16.2	0.00e+00	0	42	0	498073600	14	4241
2026-01-29 09:38:40.70	127.71	23.78	-27.0	-28.5	16.2	0.00e+00	0	42	0	501219328	14	4257
2026-01-29 09:38:41.70	127.60	23.92	-26.9	-28.3	16.3	0.00e+00	0	42	0	504365056	14	4210
2026-01-29 09:38:42.71	127.49	24.06	-27.0	-28.4	16.3	0.00e+00	0	42	0	507510784	14	4241
2026-01-29 09:38:43.71	127.37	24.20	-26.9	-28.3	16.3	0.00e+00	0	42	0	510656512	14	4199
2026-01-29 09:38:44.72	127.26	24.35	-26.9	-28.2	16.4	7.00e-07	0	42	0	513802240	14	4186
2026-01-29 09:38:45.72	127.15	24.49	-26.9	-28.2	16.4	0.00e+00	0	42	0	516947968	14	4177
2026-01-29 09:38:46.72	127.03	24.63	-26.9	-28.3	16.3	0.00e+00	0	42	0	520093696	14	4197
2026-01-29 09:38:47.72	126.91	24.78	-27.1	-28.7	16.1	2.20e-06	0	42	0	523239424	14	4317
2026-01-29 09:38:48.73	126.79	24.92	-27.2	-28.9	16.0	0.00e+00	0	42	0	526385152	14	4380
2026-01-29 09:38:49.73	126.67	25.07	-27.2	-28.8	16.1	0.00e+00	0	42	0	529530880	14	4355
2026-01-29 09:38:50.73	126.55	25.22	-27.4	-29.3	15.8	7.60e-06	0	42	0	532676608	14	4499
2026-01-29 09:38:51.74	126.43	25.37	-27.4	-29.3	15.8	0.00e+00	0	42	0	535822336	14	4490
2026-01-29 09:38:52.75	126.31	25.51	-27.5	-29.5	15.7	0.00e+00	0	42	0	538968064	14	4534
2026-01-29 09:38:53.74	126.19	25.66	-27.6	-29.3	15.6	3.80e-06	0	42	0	542113792	15	4361
2026-01-29 09:38:54.75	126.06	25.81	-27.8	-29.7	15.4	0.00e+00	0	42	0	545259520	15	4484
2026-01-29 09:38:55.75	125.93	25.96	-27.8	-29.6	15.4	0.00e+00	0	42	0	548405248	15	4452
2026-01-29 09:38:56.75	125.81	26.11	-27.5	-29.1	15.7	0.00e+00	0	42	0	551550976	15	4318
2026-01-29 09:38:57.76	125.68	26.27	-27.5	-29.0	15.7	0.00e+00	0	42	0	554696704	15	4280
2026-01-29 09:38:58.76	125.55	26.42	-27.6	-29.2	15.7	0.00e+00	0	42	0	557842432	15	4325
2026-01-29 09:38:59.77	125.41	26.57	-27.6	-29.2	15.7	4.50e-06	0	42	0	560988160	15	4323
2026-01-29 09:39:00.78	125.28	26.73	-27.6	-29.2	15.6	0.00e+00	0	42	0	564133888	15	4349
2026-01-29 09:39:01.78	125.15	26.88	-27.7	-29.5	15.5	0.00e+00	0	42	0	567279616	15	4406
2026-01-29 09:39:02.79	125.01	27.04	-27.7	-29.4	15.6	0.00e+00	0	42	0	570425344	15	4385
2026-01-29 09:39:03.79	124.87	27.19	-27.6	-29.2	15.7	0.00e+00	0	42	0	573571072	15	4347
2026-01-29 09:39:04.79	124.74	27.35	-27.7	-29.4	15.6	0.00e+00	0	42	0	576716800	15	4381
2026-01-29 09:39:05.80	124.59	27.51	-27.6	-29.2	15.7	0.00e+00	0	42	0	579862528	15	4325
2026-01-29 09:39:06.80	124.45	27.66	-27.7	-29.4	15.6	0.00e+00	0	42	0	583008256	15	4390
2026-01-29 09:39:07.80	124.31	27.82	-27.6	-29.1	15.7	0.00e+00	0	42	0	586153984	15	4305
2026-01-29 09:39:08.80	124.17	27.98	-27.7	-29.4	15.6	0.00e+00	0	42	0	589299712	15	4400
2026-01-29 09:39:09.81	124.02	28.14	-27.7	-29.4	15.5	0.00e+00	0	42	0	592445440	15	4400
2026-01-29 09:39:10.81	123.88	28.30	-27.8	-29.8	15.4	0.00e+00	0	42	0	595591168	15	4498
2026-01-29 09:39:11.81	123.73	28.46	-27.8	-29.7	15.5	0.00e+00	0	42	0	598736896	15	4472
2026-01-29 09:39:12.82	123.58	28.63	-27.9	-29.9	15.3	0.00e+00	0	42	0	601882624	15	4557
2026-01-29 09:39:13.82	123.43	28.79	-27.9	-29.9	15.3	0.00e+00	0	42	0	605028352	15	4547
2026-01-29 09:39:14.82	123.27	28.95	-28.0	-30.1	15.2	0.00e+00	0	42	0	608174080	15	4600
2026-01-29 09:39:15.83	123.12	29.12	-27.8	-29.6	15.5	0.00e+00	0	42	0	611319808	15	4459
2026-01-29 09:39:16.82	122.96	29.28	-27.8	-29.6	15.5	0.00e+00	0	42	0	614465536	15	4441
2026-01-29 09:39:17.83	122.80	29.45	-27.7	-29.6	15.5	0.00e+00	0	42	0	617611264	15	4439
2026-01-29 09:39:18.83	122.65	29.62	-27.8	-29.7	15.5	0.00e+00	0	42	0	620756992	15	4488
2026-01-29 09:39:19.83	122.48	29.78	-27.6	-29.2	15.7	0.00e+00	0	42	0	623902720	15	4342
2026-01-29 09:39:20.84	122.32	29.95	-27.5	-29.0	15.9	0.00e+00	0	42	0	627048448	15	4280
2026-01-29 09:39:21.84	122.16	30.12	-27.6	-29.3	15.7	0.00e+00	0	42	0	630194176	15	4347
2026-01-29 09:39:22.84	121.99	30.29	-27.6	-29.1	15.8	0.00e+00	0	42	0	633339904	15	4307
2026-01-29 09:39:23.84	121.82	30.46	-27.6	-29.1	15.7	0.00e+00	0	42	0	636485632	15	4316
2026-01-29 09:39:24.84	121.65	30.63	-27.8	-29.6	15.5	0.00e+00	0	42	0	639631360	15	4462
2026-01-29 09:39:25.85	121.48	30.80	-27.8	-29.8	15.4	0.00e+00	0	42	0	642777088	15	4508
2026-01-29 09:39:26.85	121.31	30.97	-28.3	-30.2	15.1	0.00e+00	0	42	0	645922816	16	4493
2026-01-29 09:39:27.85	121.13	31.15	-28.2	-30.0	15.2	0.00e+00	0	42	0	649068544	16	4448
2026-01-29 09:39:28.85	120.96	31.32	-28.1	-29.8	15.4	0.00e+00	0	42	0	652214272	16	4374
2026-01-29 09:39:29.85	120.78	31.49	-28.0	-29.6	15.5	0.00e+00	0	42	0	655360000	16	4325
2026-01-29 09:39:30.85	120.60	31.67	-27.9	-29.4	15.6	7.00e-07	0	42	0	658505728	16	4261
2026-01-29 09:39:31.86	120.41	31.85	-28.1	-29.8	15.4	0.00e+00	0	42	0	661651456	16	4376
2026-01-29 09:39:32.86	120.23	32.02	-27.9	-29.3	15.7	0.00e+00	0	42	0	664797184	16	4226
2026-01-29 09:39:33.87	120.04	32.20	-27.8	-29.0	15.8	0.00e+00	0	42	0	667942912	16	4159
2026-01-29 09:39:34.87	119.85	32.38	-27.9	-29.3	15.7	0.00e+00	0	42	0	671088640	16	4227
2026-01-29 09:39:35.88	119.66	32.56	-27.8	-29.0	15.8	0.00e+00	0	42	0	674234368	16	4163
2026-01-29 09:39:36.88	119.46	32.74	-27.7	-28.8	15.9	0.00e+00	0	42	0	677380096	16	4112
2026-01-29 09:39:37.89	119.26	32.92	-27.9	-29.2	15.7	0.00e+00	0	42	0	680525824	16	4217
2026-01-29 09:39:38.89	119.07	33.10	-27.8	-29.0	15.8	0.00e+00	0	42	0	683671552	16	4160
2026-01-29 09:39:39.89	118.87	33.28	-27.9	-29.4	15.6	0.00e+00	0	42	0	686817280	16	4258
2026-01-29 09:39:40.89	118.67	33.46	-28.0	-29.6	15.5	0.00e+00	0	42	0	689963008	16	4324
2026-01-29 09:39:41.89	118.46	33.65	-28.1	-29.7	15.4	0.00e+00	0	42	0	693108736	16	4355
2026-01-29 09:39:42.89	118.25	33.83	-28.2	-30.1	15.2	0.00e+00	0	42	0	696254464	16	4470
2026-01-29 09:39:43.90	118.04	34.01	-28.2	-30.0	15.3	3.80e-06	0	42	0	698351616	16	4433
2026-01-29 09:39:44.90	117.83	34.20	-28.3	-30.3	15.1	0.00e+00	0	42	0	701497344	16	4516
2026-01-29 09:39:45.90	117.62	34.38	-28.5	-30.3	14.9	0.00e+00	0	42	0	704643072	17	4399
2026-01-29 09:39:46.91	117.40	34.57	-28.7	-30.7	14.6	0.00e+00	0	42	0	707788800	17	4512
2026-01-29 09:39:47.91	117.18	34.76	-28.8	-30.9	14.5	0.00e+00	0	42	0	710934528	17	4575
2026-01-29 09:39:48.91	116.96	34.94	-29.0	-31.3	14.4	1.50e-06	0	42	0	714080256	17	4693
2026-01-29 09:39:49.92	116.73	35.13	-28.9	-31.1	14.4	3.80e-06	0	42	0	717225984	17	4651
2026-01-29 09:39:50.92	116.50	35.32	-29.1	-31.1	14.1	2.20e-06	0	42	0	720371712	18	4522
2026-01-29 09:39:51.93	116.27	35.51	-29.4	-31.8	13.8	3.80e-06	0	42	0	723517440	18	4731
2026-01-29 09:39:52.94	116.04	35.70	-29.3	-31.7	13.8	6.10e-06	0	42	0	726663168	18	4713
2026-01-29 09:39:53.94	115.80	35.89	-29.3	-31.5	13.9	2.20e-06	0	42	0	729808896	18	4664
2026-01-29 09:39:54.95	115.56	36.09	-29.3	-31.7	13.8	5.30e-06	0	42	0	732954624	18	4707
2026-01-29 09:39:55.95	115.32	36.28	-29.3	-31.6	13.9	4.50e-06	0	42	0	736100352	18	4687
2026-01-29 09:39:56.96	115.08	36.47	-29.4	-31.8	13.7	5.30e-06	0	42	0	739246080	18	4750
2026-01-29 09:39:57.96	114.83	36.66	-29.3	-31.6	13.8	3.80e-06	0	42	0	742391808	18	4684
2026-01-29 09:39:58.97	114.58	36.86	-29.7	-31.9	13.4	1.22e-05	0	42	0	745537536	19	4656
2026-01-29 09:39:59.97	114.33	37.05	-29.6	-31.9	13.4	1.37e-05	0	42	0	748683264	19	4652
2026-01-29 09:40:00.95	114.08	37.24	-29.7	-32.1	13.3	9.10e-06	0	42	0	751828992	19	4720
2026-01-29 09:40:01.94	113.82	37.43	-29.7	-32.0	13.4	1.67e-05	0	42	0	754974720	19	4681
2026-01-29 09:40:02.95	113.56	37.63	-29.9	-32.5	13.1	3.73e-05	0	42	0	758120448	19	4850
2026-01-29 09:40:03.95	113.29	37.82	-29.7	-31.9	13.4	1.75e-05	0	42	0	761266176	19	4669
2026-01-29 09:40:04.95	113.02	38.02	-29.6	-31.7	13.5	9.10e-06	0	42	0	764411904	19	4596
2026-01-29 09:40:05.95	112.75	38.22	-29.6	-31.7	13.5	7.60e-06	0	42	0	767557632	19	4603
2026-01-29 09:40:06.95	112.48	38.41	-29.5	-31.4	13.7	7.60e-06	0	42	0	770703360	19	4517
2026-01-29 09:40:07.95	112.20	38.61	-29.5	-31.5	13.7	5.30e-06	0	42	0	773849088	19	4529
2026-01-29 09:40:08.96	111.92	38.81	-29.5	-31.5	13.6	8.30e-06	0	42	0	776994816	19	4542
2026-01-29 09:40:09.97	111.63	39.01	-29.5	-31.5	13.7	7.60e-06	0	42	0	780140544	19	4529
2026-01-29 09:40:10.97	111.34	39.20	-29.4	-31.2	13.8	2.20e-06	0	42	0	783286272	19	4459
2026-01-29 09:40:11.97	111.05	39.40	-29.2	-30.7	14.2	7.00e-07	0	42	0	786432000	19	4299
2026-01-29 09:40:12.98	110.75	39.60	-29.1	-30.6	14.2	7.00e-07	0	42	0	789577728	19	4257
2026-01-29 09:40:13.99	110.45	39.80	-29.3	-31.0	13.9	0.00e+00	0	42	0	792723456	19	4363
2026-01-29 09:40:14.99	110.15	40.00	-29.1	-30.6	14.1	1.50e-06	0	42	0	795869184	19	4272
2026-01-29 09:40:15.99	109.84	40.20	-29.2	-30.8	14.1	1.50e-06	0	42	0	799014912	19	4315
2026-01-29 09:40:16.99	109.53	40.40	-29.2	-30.9	14.1	6.10e-06	0	42	0	802160640	19	4342
2026-01-29 09:40:17.99	109.21	40.60	-29.3	-31.1	13.9	3.00e-06	0	42	0	805306368	19	4426
2026-01-29 09:40:18.99	108.90	40.80	-29.4	-31.2	13.9	3.80e-06	0	42	0	808452096	19	4439
2026-01-29 09:40:20.00	108.57	41.00	-29.3	-30.9	14.0	4.50e-06	0	42	0	811597824	19	4360
2026-01-29 09:40:21.00	108.24	41.20	-29.6	-31.7	13.6	5.30e-06	0	42	0	814743552	19	4600
2026-01-29 09:40:22.01	107.91	41.40	-29.7	-31.9	13.5	8.30e-06	0	42	0	817889280	19	4640
2026-01-29 09:40:23.01	107.58	41.60	-29.9	-32.6	13.1	2.51e-05	0	42	0	821035008	19	4872
2026-01-29 09:40:24.00	107.24	41.80	-30.0	-32.3	12.8	5.11e-05	0	42	0	824180736	20	4680
2026-01-29 09:40:25.01	106.90	42.00	-30.3	-33.0	12.3	9.15e-05	0	42	0	827326464	20	4924
2026-01-29 09:40:26.01	106.55	42.20	-30.4	-33.2	12.2	1.81e-04	0	42	0	830472192	20	5001
2026-01-29 09:40:27.01	106.20	42.40	-30.1	-32.5	12.7	1.09e-04	0	42	0	833617920	20	4759
2026-01-29 09:40:28.01	105.84	42.59	-29.9	-32.1	13.0	4.65e-05	0	42	0	836763648	20	4608
2026-01-29 09:40:29.02	105.48	42.79	-30.0	-32.2	12.9	3.58e-05	0	42	0	839909376	20	4660
2026-01-29 09:40:30.02	105.11	42.99	-30.1	-32.6	12.7	7.93e-05	0	42	0	843055104	20	4773
2026-01-29 09:40:31.02	104.74	43.19	-30.2	-32.8	12.5	9.99e-05	0	42	0	846200832	20	4859
2026-01-29 09:40:32.03	104.37	43.39	-30.2	-32.7	12.7	7.32e-05	0	42	0	849346560	20	4795
2026-01-29 09:40:33.03	103.99	43.59	-30.3	-33.1	12.4	9.84e-05	0	42	0	852492288	20	4955
2026-01-29 09:40:34.04	103.60	43.79	-30.3	-33.0	12.5	1.30e-04	0	42	0	855638016	20	4920
2026-01-29 09:40:35.05	103.21	43.99	-30.2	-32.7	12.6	1.04e-04	0	42	0	858783744	20	4828
2026-01-29 09:40:36.05	102.81	44.18	-30.2	-32.7	12.7	8.46e-05	0	42	0	861929472	20	4812
2026-01-29 09:40:37.06	102.41	44.38	-30.4	-33.1	12.4	1.15e-04	0	42	0	865075200	20	4951
2026-01-29 09:40:38.06	102.01	44.57	-30.1	-32.5	12.8	8.46e-05	0	42	0	868220928	20	4748
2026-01-29 09:40:39.07	101.60	44.77	-30.1	-32.5	12.8	5.11e-05	0	42	0	871366656	20	4752
2026-01-29 09:40:40.07	101.18	44.96	-30.3	-33.0	12.6	8.39e-05	0	42	0	874512384	20	4899
2026-01-29 09:40:41.08	100.76	45.16	-30.0	-32.3	13.0	5.26e-05	0	42	0	877658112	20	4663
2026-01-29 09:40:42.08	100.34	45.35	-29.8	-31.8	13.3	1.98e-05	0	42	0	880803840	20	4507
2026-01-29 09:40:43.09	99.91	45.54	-29.7	-31.4	13.5	9.10e-06	0	42	0	883949568	20	4398
2026-01-29 09:40:44.09	99.47	45.73	-29.8	-31.8	13.3	1.37e-05	0	42	0	887095296	20	4515
2026-01-29 09:40:45.10	99.03	45.92	-29.8	-31.7	13.3	1.75e-05	0	42	0	890241024	20	4487
2026-01-29 09:40:46.10	98.58	46.11	-29.8	-31.8	13.3	1.83e-05	0	42	0	893386752	20	4528
2026-01-29 09:40:47.11	98.13	46.30	-29.8	-31.8	13.3	1.90e-05	0	42	0	896532480	20	4525
2026-01-29 09:40:48.11	97.68	46.49	-30.0	-32.1	13.1	3.20e-05	0	42	0	899678208	20	4621
2026-01-29 09:40:49.12	97.21	46.67	-29.8	-31.6	13.4	1.75e-05	0	42	0	902823936	20	4450
2026-01-29 09:40:50.12	96.74	46.86	-29.7	-31.6	13.4	9.10e-06	0	42	0	905969664	20	4443
2026-01-29 09:40:51.13	96.27	47.04	-29.8	-31.7	13.4	8.30e-06	0	42	0	909115392	20	4500
2026-01-29 09:40:52.12	95.80	47.22	-29.5	-31.0	13.8	7.60e-06	0	42	0	912261120	20	4276
2026-01-29 09:40:53.13	95.31	47.40	-29.3	-30.6	14.0	5.30e-06	0	42	0	915406848	20	4149
2026-01-29 09:40:54.12	94.83	47.58	-29.5	-30.9	13.8	1.50e-06	0	42	0	918552576	20	4250
2026-01-29 09:40:55.12	94.33	47.75	-29.8	-31.6	13.4	4.50e-06	0	42	0	921698304	20	4460
2026-01-29 09:40:56.12	93.83	47.93	-29.7	-31.5	13.5	1.06e-05	0	42	0	924844032	20	4434
2026-01-29 09:40:57.12	93.33	48.10	-29.9	-32.1	13.2	2.05e-05	0	42	0	927989760	20	4592
2026-01-29 09:40:58.12	92.82	48.27	-29.7	-31.4	13.6	8.30e-06	0	43	0	931135488	20	4399
2026-01-29 09:40:59.13	92.30	48.44	-29.6	-31.3	13.7	9.90e-06	0	42	0	934281216	20	4351
2026-01-29 09:41:00.14	91.77	48.61	-29.7	-31.3	13.6	1.14e-05	0	43	0	937426944	20	4362
2026-01-29 09:41:01.15	91.23	48.78	-29.6	-31.1	13.7	6.10e-06	0	42	0	940572672	20	4318
2026-01-29 09:41:02.14	90.71	48.94	-29.6	-31.2	13.7	5.30e-06	0	42	0	943718400	20	4332
2026-01-29 09:41:03.14	90.17	49.10	-29.5	-31.0	13.8	6.80e-06	0	42	0	946864128	20	4289
2026-01-29 09:41:04.15	89.62	49.26	-29.6	-31.1	13.7	8.30e-06	0	42	0	950009856	20	4314
2026-01-29 09:41:05.15	89.07	49.42	-29.5	-30.9	13.9	6.10e-06	0	42	0	953155584	20	4238
2026-01-29 09:41:06.16	88.51	49.58	-29.7	-31.5	13.5	1.52e-05	0	42	0	956301312	20	4410
2026-01-29 09:41:07.16	87.94	49.73	-29.7	-31.6	13.5	1.06e-05	0	42	0	959447040	20	4449
2026-01-29 09:41:08.16	87.38	49.88	-29.9	-31.9	13.3	9.90e-06	0	42	0	962592768	20	4541
2026-01-29 09:41:09.17	86.80	50.03	-29.6	-31.2	13.7	1.44e-05	0	42	0	965738496	20	4329
2026-01-29 09:41:10.16	86.22	50.17	-29.3	-31.0	14.2	2.20e-06	0	42	0	968884224	19	4381
2026-01-29 09:41:11.17	85.63	50.31	-29.1	-30.5	14.5	7.00e-07	0	42	0	972029952	19	4223
2026-01-29 09:41:12.17	85.04	50.45	-29.1	-30.6	14.3	1.50e-06	0	42	0	974127104	19	4249
2026-01-29 09:41:13.17	84.45	50.59	-29.3	-30.9	14.2	7.00e-07	0	42	0	977272832	19	4336
2026-01-29 09:41:14.18	83.84	50.72	-29.7	-32.0	13.5	9.10e-06	0	42	0	980418560	19	4695
2026-01-29 09:41:15.18	83.24	50.85	-29.7	-32.0	13.5	6.80e-06	0	42	0	984612864	19	4691
2026-01-29 09:41:16.19	82.62	50.98	-29.8	-32.3	13.3	2.51e-05	0	42	0	987758592	19	4771
2026-01-29 09:41:17.19	82.01	51.10	-29.5	-31.5	13.9	3.80e-06	0	42	0	990904320	19	4535
2026-01-29 09:41:18.19	81.38	51.22	-29.3	-31.1	14.1	2.20e-06	0	42	0	994050048	19	4391
2026-01-29 09:41:19.20	80.75	51.34	-29.5	-31.5	13.8	1.50e-06	0	42	0	997195776	19	4523
2026-01-29 09:41:20.20	80.12	51.46	-29.8	-32.1	13.4	8.30e-06	0	42	0	999292928	19	4712
2026-01-29 09:41:21.20	79.49	51.57	-29.9	-32.4	13.4	2.05e-05	0	43	0	1002438656	19	4794
2026-01-29 09:41:22.20	78.85	51.67	-29.9	-32.3	13.4	1.67e-05	0	42	0	1005584384	19	4797
2026-01-29 09:41:23.21	78.19	51.78	-29.9	-32.5	13.2	1.29e-05	0	42	0	1008730112	19	4856
2026-01-29 09:41:24.21	77.54	51.88	-29.9	-32.5	13.2	2.21e-05	0	42	0	1011875840	19	4847
2026-01-29 09:41:25.21	76.89	51.98	-29.8	-32.3	13.4	2.21e-05	0	42	0	1015021568	19	4766
2026-01-29 09:41:26.22	76.23	52.07	-29.7	-31.9	13.6	1.83e-05	0	42	0	1018167296	19	4653
2026-01-29 09:41:27.23	75.56	52.16	-29.5	-31.5	13.9	2.20e-06	0	42	0	1021313024	19	4517
2026-01-29 09:41:28.22	74.90	52.24	-29.6	-31.6	13.8	3.00e-06	0	42	0	1024458752	19	4548
2026-01-29 09:41:29.22	74.23	52.32	-29.7	-32.0	13.5	1.14e-05	0	43	0	1027604480	19	4670
2026-01-29 09:41:30.23	73.55	52.40	-29.8	-32.1	13.5	5.30e-06	0	42	0	1030750208	19	4693
2026-01-29 09:41:31.23	72.87	52.47	-29.8	-32.3	13.4	1.60e-05	0	42	0	1033895936	19	4765
2026-01-29 09:41:32.23	72.19	52.54	-29.6	-31.6	13.8	6.10e-06	0	42	0	1037041664	19	4547
2026-01-29 09:41:33.22	71.52	52.61	-29.3	-31.0	14.1	0.00e+00	0	42	0	1040187392	19	4368
2026-01-29 09:41:34.23	70.82	52.67	-29.0	-30.3	14.4	1.50e-06	0	42	0	1043333120	19	4178
2026-01-29 09:41:35.24	70.13	52.73	-29.0	-30.3	14.4	2.20e-06	0	42	0	1046478848	19	4183
2026-01-29 09:41:36.24	69.44	52.78	-29.3	-31.0	14.1	1.50e-06	0	42	0	1049624576	19	4390
2026-01-29 09:41:37.25	68.74	52.83	-29.6	-31.6	13.7	1.50e-06	0	42	0	1052770304	19	4561
2026-01-29 09:41:38.26	68.03	52.87	-29.9	-32.4	13.3	1.98e-05	0	42	0	1055916032	19	4808
2026-01-29 09:41:39.26	67.34	52.91	-29.6	-31.7	13.7	6.80e-06	0	43	0	1059061760	19	4593
2026-01-29 09:41:40.26	66.64	52.95	-29.2	-30.7	14.3	3.00e-06	0	42	0	1062207488	19	4303
2026-01-29 09:41:41.26	65.94	52.98	-28.7	-30.2	14.9	0.00e+00	0	42	0	1065353216	18	4262
2026-01-29 09:41:42.27	65.23	53.00	-28.8	-30.3	14.8	7.00e-07	0	42	0	1068498944	18	4289
2026-01-29 09:41:43.27	64.52	53.03	-29.2	-31.4	14.2	1.50e-06	0	42	0	1071644672	18	4600
2026-01-29 09:41:44.27	63.82	53.04	-29.2	-31.4	14.2	7.00e-07	0	42	0	1074790400	18	4606
2026-01-29 09:41:45.27	63.11	53.06	-29.2	-31.2	14.3	1.50e-06	0	42	0	1077936128	18	4544
2026-01-29 09:41:46.26	62.41	53.06	-28.9	-30.6	14.6	7.00e-07	0	42	0	1081081856	18	4351
2026-01-29 09:41:47.27	61.70	53.07	-29.0	-30.8	14.6	7.00e-07	0	42	0	1084227584	18	4425
2026-01-29 09:41:48.28	60.99	53.07	-29.1	-31.0	14.4	7.00e-07	0	43	0	1087373312	18	4481
2026-01-29 09:41:49.27	60.29	53.06	-28.8	-30.4	14.8	0.00e+00	0	42	0	1090519040	18	4311
2026-01-29 09:41:50.28	59.58	53.05	-29.1	-31.0	14.5	7.00e-07	0	42	0	1093664768	18	4481
2026-01-29 09:41:51.29	58.86	53.04	-29.0	-30.7	14.6	0.00e+00	0	42	0	1096810496	18	4395
2026-01-29 09:41:52.30	58.15	53.02	-28.8	-30.4	14.8	0.00e+00	0	42	0	1099956224	18	4298
2026-01-29 09:41:53.30	57.45	53.00	-28.8	-30.3	14.8	0.00e+00	0	43	0	1103101952	18	4290
2026-01-29 09:41:54.30	56.75	52.97	-28.5	-29.7	15.2	0.00e+00	0	43	0	1106247680	18	4102
2026-01-29 09:41:55.31	56.04	52.94	-28.5	-29.6	15.2	0.00e+00	0	42	0	1109393408	18	4094
2026-01-29 09:41:56.31	55.34	52.90	-28.6	-29.7	15.0	0.00e+00	0	42	0	1112539136	18	4124
2026-01-29 09:41:57.32	54.64	52.86	-28.6	-29.9	15.0	0.00e+00	0	42	0	1115684864	18	4161
2026-01-29 09:41:58.32	53.94	52.82	-28.7	-30.0	15.0	0.00e+00	0	43	0	1118830592	18	4205
2026-01-29 09:41:59.31	53.26	52.77	-28.3	-29.1	15.4	0.00e+00	0	42	0	1121976320	18	3972
2026-01-29 09:42:00.31	52.57	52.72	-28.3	-29.6	15.4	0.00e+00	0	42	0	1125122048	17	4200
2026-01-29 09:42:01.32	51.87	52.66	-28.4	-30.0	15.3	0.00e+00	0	43	0	1128267776	17	4308
2026-01-29 09:42:02.32	51.19	52.60	-29.1	-30.9	14.5	0.00e+00	0	42	0	1131413504	18	4463
2026-01-29 09:42:03.32	50.51	52.53	-29.6	-31.7	13.7	3.80e-06	0	43	0	1134559232	19	4604
2026-01-29 09:42:04.33	49.82	52.46	-29.5	-31.6	13.8	6.80e-06	0	43	0	1137704960	19	4553
2026-01-29 09:42:05.33	49.14	52.39	-29.2	-30.8	14.2	1.50e-06	0	43	0	1140850688	19	4312
2026-01-29 09:42:06.34	48.47	52.31	-28.9	-30.0	14.7	7.00e-07	0	42	0	1143996416	19	4095
2026-01-29 09:42:07.35	47.79	52.22	-28.5	-29.6	15.1	0.00e+00	0	43	0	1147142144	18	4102
2026-01-29 09:42:08.35	47.13	52.14	-28.7	-30.2	14.9	0.00e+00	0	42	0	1150287872	18	4242
2026-01-29 09:42:09.35	46.47	52.05	-29.2	-31.2	14.3	2.20e-06	0	42	0	1153433600	18	4533
2026-01-29 09:42:10.35	45.81	51.96	-29.4	-31.8	13.9	2.20e-06	0	42	0	1156579328	18	4730
2026-01-29 09:42:11.36	45.15	51.86	-29.4	-31.3	13.9	4.50e-06	0	42	0	1159725056	19	4467
2026-01-29 09:42:12.36	44.50	51.76	-28.9	-30.0	14.6	2.20e-06	0	43	0	1162870784	19	4088
2026-01-29 09:42:13.37	43.85	51.65	-28.6	-29.9	14.9	0.00e+00	0	42	0	1166016512	18	4184
2026-01-29 09:42:14.37	43.22	51.54	-28.8	-30.4	14.7	0.00e+00	0	42	0	1169162240	18	4311
2026-01-29 09:42:15.37	42.58	51.43	-29.3	-31.4	14.2	0.00e+00	0	42	0	1172307968	18	4603
2026-01-29 09:42:16.38	41.95	51.32	-29.6	-31.7	13.7	3.00e-06	0	43	0	1175453696	19	4586
2026-01-29 09:42:17.38	41.32	51.20	-29.8	-32.1	13.4	1.37e-05	0	43	0	1178599424	19	4717
2026-01-29 09:42:18.38	40.70	51.08	-29.5	-31.4	13.8	6.80e-06	0	42	0	1181745152	19	4487
2026-01-29 09:42:19.39	40.08	50.95	-29.4	-31.2	13.9	7.00e-07	0	43	0	1184890880	19	4441
2026-01-29 09:42:20.39	39.48	50.83	-29.5	-31.5	13.7	4.50e-06	0	42	0	1188036608	19	4512
2026-01-29 09:42:21.40	38.87	50.69	-29.8	-32.2	13.4	6.10e-06	0	42	0	1191182336	19	4735
2026-01-29 09:42:22.40	38.27	50.56	-30.2	-32.8	12.6	3.81e-05	0	42	0	1194328064	20	4859
2026-01-29 09:42:23.41	37.67	50.42	-30.4	-32.7	12.3	2.29e-04	0	42	0	1197473792	21	4699
2026-01-29 09:42:24.41	37.08	50.28	-29.9	-31.4	13.0	4.95e-05	0	43	0	1200619520	21	4302
2026-01-29 09:42:25.42	36.49	50.14	-29.4	-30.6	13.8	5.30e-06	0	43	0	1203765248	20	4172
2026-01-29 09:42:26.43	35.91	49.99	-29.3	-31.0	14.0	7.00e-07	0	42	0	1206910976	19	4372
2026-01-29 09:42:27.43	35.34	49.85	-29.8	-32.2	13.3	1.29e-05	0	42	0	1210056704	19	4750
2026-01-29 09:42:28.44	34.77	49.70	-30.4	-33.2	12.3	7.47e-05	0	42	0	1213202432	20	4998
2026-01-29 09:42:29.43	34.22	49.54	-30.8	-33.8	11.5	9.25e-04	0	42	0	1216348160	21	5095
2026-01-29 09:42:30.44	33.66	49.39	-31.0	-33.9	11.3	1.02e-03	0	42	0	1219493888	22	5005
2026-01-29 09:42:31.45	33.10	49.23	-30.7	-32.9	11.9	8.39e-04	0	42	0	1222639616	22	4675
2026-01-29 09:42:32.45	32.56	49.07	-29.6	-31.3	13.4	2.74e-05	0	42	0	1225785344	20	4358
2026-01-29 09:42:33.45	32.02	48.91	-28.3	-29.5	14.8	7.00e-07	0	42	0	1228931072	18	4168
2026-01-29 09:42:34.45	31.49	48.75	-28.7	-30.1	14.8	0.00e+00	0	43	0	1232076800	18	4232
2026-01-29 09:42:35.45	30.97	48.58	-29.5	-31.9	13.8	2.20e-06	0	43	0	1235222528	18	4772
2026-01-29 09:42:36.46	30.44	48.41	-30.1	-32.6	12.8	4.88e-05	0	42	0	1238368256	20	4768
2026-01-29 09:42:37.46	29.93	48.24	-30.6	-33.3	11.9	2.39e-04	0	42	0	1241513984	21	4909
2026-01-29 09:42:38.46	29.42	48.07	-30.5	-33.1	12.0	3.96e-04	0	42	0	1244659712	21	4845
2026-01-29 09:42:39.46	28.92	47.90	-30.0	-31.7	12.9	9.84e-05	0	42	0	1247805440	21	4381
2026-01-29 09:42:40.47	28.42	47.72	-29.3	-30.6	13.9	3.80e-06	0	42	0	1250951168	20	4168
2026-01-29 09:42:41.47	27.92	47.55	-29.2	-30.7	14.2	0.00e+00	0	42	0	1254096896	19	4283
2026-01-29 09:42:42.48	27.43	47.37	-29.4	-31.1	13.9	2.20e-06	0	42	0	1257242624	19	4424
2026-01-29 09:42:43.48	26.95	47.19	-30.2	-32.7	12.6	5.26e-05	0	43	0	1260388352	20	4819
2026-01-29 09:42:44.48	26.48	47.01	-30.9	-34.1	11.4	8.98e-04	0	43	0	1263534080	21	5219
2026-01-29 09:42:45.49	26.01	46.82	-31.0	-34.0	11.2	1.66e-03	0	42	0	1266679808	22	5044
2026-01-29 09:42:46.49	25.54	46.64	-30.5	-32.5	12.0	6.29e-04	0	42	0	1269825536	22	4551
2026-01-29 09:42:47.49	25.08	46.46	-29.9	-31.6	12.9	6.94e-05	0	43	0	1272971264	21	4349
2026-01-29 09:42:48.50	24.63	46.27	-30.0	-31.8	12.8	3.96e-05	0	42	0	1276116992	21	4421
2026-01-29 09:42:49.50	24.18	46.08	-30.3	-32.6	12.3	1.53e-04	0	42	0	1279262720	21	4658
2026-01-29 09:42:50.50	23.74	45.89	-30.6	-33.2	11.9	2.41e-04	0	42	0	1282408448	21	4895
2026-01-29 09:42:51.50	23.30	45.70	-31.2	-34.5	10.8	1.14e-03	0	43	0	1285554176	22	5251
2026-01-29 09:42:52.50	22.87	45.51	-31.6	-35.0	10.0	5.98e-03	0	42	0	1288699904	23	5366
2026-01-29 09:42:53.51	22.44	45.32	-31.7	-35.4	9.7	1.07e-02	0	43	0	1291845632	23	5518
2026-01-29 09:42:54.51	22.02	45.13	-31.3	-34.1	10.5	5.86e-03	0	42	0	1294991360	23	4992
2026-01-29 09:42:55.51	21.60	44.94	-30.4	-32.4	12.0	4.49e-04	0	42	0	1298137088	22	4484
2026-01-29 09:42:56.52	21.19	44.74	-29.7	-31.4	13.3	5.56e-05	0	42	0	1300234240	20	4387
2026-01-29 09:42:57.53	20.78	44.55	-29.5	-30.9	13.6	9.90e-06	0	42	0	1303379968	20	4245
2026-01-29 09:42:58.53	20.38	44.35	-29.9	-31.9	12.9	2.28e-05	0	42	0	1307574272	20	4559
2026-01-29 09:42:59.54	19.98	44.16	-30.7	-33.7	11.5	3.69e-04	0	42	0	1310720000	21	5061
2026-01-29 09:43:00.54	19.59	43.96	-31.3	-34.7	10.5	4.17e-03	0	43	0	1313865728	22	5335
2026-01-29 09:43:01.54	19.20	43.77	-31.5	-35.2	10.2	5.37e-03	0	43	0	1317011456	22	5538
2026-01-29 09:43:02.54	18.82	43.57	-31.2	-34.0	10.6	5.88e-03	0	43	0	1320157184	23	4976
2026-01-29 09:43:03.54	18.44	43.37	-30.4	-32.4	12.0	7.26e-04	0	42	0	1322254336	22	4517
2026-01-29 09:43:04.54	18.07	43.18	-29.5	-31.1	13.3	4.57e-05	0	43	0	1325400064	20	4326
2026-01-29 09:43:05.54	17.70	42.98	-28.8	-30.2	14.6	3.80e-06	0	42	0	1328545792	18	4269
2026-01-29 09:43:06.54	17.34	42.78	-28.4	-29.4	15.1	0.00e+00	0	42	0	1331691520	18	4043
2026-01-29 09:43:07.54	16.98	42.58	-28.5	-29.7	15.0	7.00e-07	0	42	0	1334837248	18	4113
2026-01-29 09:43:08.54	16.63	42.38	-28.9	-30.6	14.4	0.00e+00	0	42	0	1337982976	18	4378
2026-01-29 09:43:09.54	16.28	42.19	-29.7	-32.0	13.3	1.22e-05	0	42	0	1341128704	19	4690
2026-01-29 09:43:10.55	15.93	41.99	-30.0	-32.4	12.7	8.46e-05	0	42	0	1344274432	20	4728
2026-01-29 09:43:11.55	15.59	41.79	-29.8	-31.8	12.9	6.86e-05	0	42	0	1347420160	20	4548
2026-01-29 09:43:12.56	15.25	41.59	-29.3	-30.6	13.6	1.37e-05	0	43	0	1350565888	20	4191
2026-01-29 09:43:13.57	14.91	41.39	-29.3	-31.0	13.8	3.80e-06	0	42	0	1353711616	19	4394
2026-01-29 09:43:14.58	14.58	41.19	-29.5	-31.5	13.5	4.50e-06	0	42	0	1356857344	19	4533
2026-01-29 09:43:15.58	14.25	40.99	-29.5	-31.6	13.4	9.90e-06	0	43	0	1360003072	19	4586
2026-01-29 09:43:16.58	13.93	40.79	-29.6	-31.9	13.3	1.52e-05	0	43	0	1363148800	19	4667
2026-01-29 09:43:17.59	13.61	40.59	-29.7	-32.1	13.2	2.59e-05	0	42	0	1366294528	19	4747
2026-01-29 09:43:18.60	13.30	40.39	-29.8	-32.2	13.1	2.21e-05	0	42	0	1369440256	19	4759
2026-01-29 09:43:19.60	12.99	40.19	-29.6	-31.8	13.3	2.28e-05	0	42	0	1372585984	19	4648
2026-01-29 09:43:20.61	12.68	39.99	-29.5	-31.5	13.5	1.29e-05	0	42	0	1375731712	19	4557
2026-01-29 09:43:21.61	12.38	39.79	-29.4	-31.3	13.6	6.10e-06	0	42	0	1378877440	19	4486
2026-01-29 09:43:22.61	12.08	39.59	-29.3	-31.2	13.6	1.06e-05	0	43	0	1382023168	19	4445
2026-01-29 09:43:23.60	11.79	39.40	-29.3	-31.1	13.6	7.60e-06	0	42	0	1385168896	19	4413
2026-01-29 09:43:24.61	11.50	39.20	-29.2	-30.9	13.8	3.80e-06	0	43	0	1388314624	19	4355
2026-01-29 09:43:25.61	11.21	39.00	-29.0	-30.3	14.2	3.80e-06	0	42	0	1391460352	19	4196
2026-01-29 09:43:26.61	10.93	38.81	-28.7	-30.2	14.6	0.00e+00	0	42	0	1394606080	18	4254
2026-01-29 09:43:27.62	10.65	38.61	-29.2	-31.3	13.9	7.00e-07	0	42	0	1397751808	18	4593
2026-01-29 09:43:28.63	10.37	38.41	-29.9	-32.5	12.9	3.43e-05	0	42	0	1400897536	19	4870
2026-01-29 09:43:29.63	10.10	38.22	-30.4	-33.4	11.9	2.59e-04	0	42	0	1404043264	20	5091
2026-01-29 09:43:30.64	9.82	38.02	-30.4	-33.0	11.9	4.61e-04	0	42	0	1407188992	21	4820
2026-01-29 09:43:31.64	9.56	37.82	-29.9	-31.6	12.7	1.57e-04	0	42	0	1410334720	21	4373
2026-01-29 09:43:32.65	9.29	37.63	-29.7	-31.5	13.1	4.19e-05	0	42	0	1413480448	20	4446
2026-01-29 09:43:33.64	9.03	37.44	-29.6	-31.3	13.2	1.52e-05	0	42	0	1416626176	20	4382
2026-01-29 09:43:34.65	8.77	37.24	-29.7	-31.5	13.1	2.05e-05	0	42	0	1419771904	20	4456
2026-01-29 09:43:35.65	8.52	37.05	-30.0	-32.3	12.6	7.47e-05	0	43	0	1422917632	20	4709
2026-01-29 09:43:36.66	8.27	36.85	-29.9	-32.2	12.7	9.30e-05	0	43	0	1426063360	20	4664
2026-01-29 09:43:37.66	8.02	36.66	-29.4	-30.8	13.5	2.13e-05	0	43	0	1429209088	20	4255
2026-01-29 09:43:38.66	7.77	36.47	-28.9	-30.1	14.3	4.50e-06	0	43	0	1432354816	19	4139
2026-01-29 09:43:39.66	7.53	36.28	-28.6	-30.0	14.7	0.00e+00	0	43	0	1435500544	18	4207
2026-01-29 09:43:40.67	7.29	36.09	-28.5	-29.8	14.8	0.00e+00	0	43	0	1438646272	18	4152
2026-01-29 09:43:41.67	7.06	35.90	-28.8	-30.3	14.4	0.00e+00	0	43	0	1441792000	18	4313
2026-01-29 09:43:42.67	6.82	35.71	-29.1	-31.0	14.0	1.50e-06	0	43	0	1444937728	18	4517
2026-01-29 09:43:43.67	6.59	35.52	-29.2	-31.3	13.8	5.30e-06	0	42	0	1448083456	18	4609
2026-01-29 09:43:44.67	6.36	35.33	-29.0	-31.0	14.0	2.20e-06	0	42	0	1451229184	18	4499
2026-01-29 09:43:45.67	6.14	35.15	-28.9	-30.6	14.2	7.00e-07	0	43	0	1454374912	18	4396
2026-01-29 09:43:46.67	5.91	34.96	-28.8	-30.3	14.4	1.50e-06	0	43	0	1457520640	18	4315
2026-01-29 09:43:47.68	5.69	34.77	-28.8	-30.4	14.4	1.50e-06	0	43	0	1460666368	18	4334
2026-01-29 09:43:48.68	5.47	34.59	-28.9	-30.7	14.1	2.20e-06	0	43	0	1463812096	18	4425
2026-01-29 09:43:49.69	5.26	34.40	-29.1	-31.2	13.9	3.00e-06	0	43	0	1466957824	18	4553
2026-01-29 09:43:50.70	5.04	34.21	-29.2	-31.4	13.7	3.80e-06	0	42	0	1470103552	18	4631
2026-01-29 09:43:51.70	4.83	34.03	-29.4	-31.8	13.5	9.10e-06	0	43	0	1473249280	18	4767
2026-01-29 09:43:52.71	4.62	33.84	-29.5	-32.0	13.4	1.83e-05	0	43	0	1476395008	18	4827
2026-01-29 09:43:53.71	4.42	33.66	-29.4	-31.8	13.5	8.30e-06	0	42	0	1479540736	18	4776
2026-01-29 09:43:54.71	4.21	33.48	-29.4	-31.8	13.5	1.06e-05	0	42	0	1482686464	18	4746
2026-01-29 09:43:55.71	4.01	33.30	-29.3	-31.7	13.6	1.14e-05	0	42	0	1485832192	18	4742
2026-01-29 09:43:56.71	3.81	33.12	-29.6	-31.9	13.2	1.44e-05	0	43	0	1488977920	19	4670
2026-01-29 09:43:57.71	3.62	32.94	-29.4	-31.3	13.5	9.10e-06	0	43	0	1492123648	19	4489
2026-01-29 09:43:58.72	3.42	32.76	-29.0	-30.3	14.1	1.50e-06	0	42	0	1495269376	19	4206
2026-01-29 09:43:59.72	3.23	32.58	-28.6	-30.0	14.6	1.50e-06	0	43	0	1498415104	18	4224
2026-01-29 09:44:00.72	3.04	32.40	-28.3	-29.3	14.9	0.00e+00	0	43	0	1501560832	18	4040
2026-01-29 09:44:01.72	2.85	32.23	-28.0	-29.2	15.3	0.00e+00	0	43	0	1504706560	17	4099
2026-01-29 09:44:02.73	2.66	32.05	-28.0	-29.1	15.3	0.00e+00	0	43	0	1507852288	17	4087
2026-01-29 09:44:03.73	2.48	31.87	-28.4	-29.9	14.9	0.00e+00	0	42	0	1510998016	17	4298
2026-01-29 09:44:04.73	2.30	31.70	-28.2	-29.6	15.1	0.00e+00	0	43	0	1514143744	17	4204
2026-01-29 09:44:05.74	2.12	31.52	-28.1	-29.2	15.3	0.00e+00	0	42	0	1517289472	17	4117
2026-01-29 09:44:06.74	1.94	31.35	-28.0	-29.2	15.3	0.00e+00	0	42	0	1520435200	17	4102
2026-01-29 09:44:07.74	1.76	31.18	-28.1	-29.3	15.2	0.00e+00	0	42	0	1523580928	17	4135
2026-01-29 09:44:08.74	1.59	31.01	-28.2	-29.6	15.0	0.00e+00	0	42	0	1526726656	17	4222
2026-01-29 09:44:09.75	1.42	30.83	-28.2	-29.7	15.0	0.00e+00	0	42	0	1529872384	17	4236
2026-01-29 09:44:10.75	1.25	30.66	-28.2	-29.6	15.0	0.00e+00	0	43	0	1533018112	17	4222
2026-01-29 09:44:11.76	1.08	30.49	-28.1	-29.4	15.1	0.00e+00	0	43	0	1536163840	17	4161
2026-01-29 09:44:12.76	0.91	30.32	-28.0	-29.1	15.3	0.00e+00	0	43	0	1539309568	17	4078
2026-01-29 09:44:13.77	0.74	30.15	-28.0	-29.1	15.3	0.00e+00	0	42	0	1542455296	17	4075
2026-01-29 09:44:14.78	0.58	29.98	-28.2	-29.4	15.1	0.00e+00	0	43	0	1545601024	17	4174
2026-01-29 09:44:15.78	0.42	29.82	-27.9	-28.9	15.4	0.00e+00	0	42	0	1548746752	17	4044
2026-01-29 09:44:16.78	0.26	29.65	-28.0	-29.2	15.3	7.00e-07	0	42	0	1551892480	17	4112
2026-01-29 09:44:17.79	0.10	29.48	-27.9	-28.8	15.5	0.00e+00	0	43	0	1555038208	17	4008
2026-01-29 09:44:18.79	359.94	29.32	-27.8	-28.7	15.6	0.00e+00	0	42	0	1558183936	17	3975
2026-01-29 09:44:19.80	359.78	29.15	-27.8	-28.7	15.5	0.00e+00	0	42	0	1561329664	17	3978
2026-01-29 09:44:20.81	359.63	28.99	-28.0	-29.2	15.3	0.00e+00	0	42	0	1564475392	17	4105
2026-01-29 09:44:21.81	359.48	28.83	-27.9	-29.0	15.4	0.00e+00	0	42	0	1567621120	17	4059
2026-01-29 09:44:22.82	359.33	28.66	-27.8	-28.7	15.5	0.00e+00	0	42	0	1570766848	17	3991
2026-01-29 09:44:23.82	359.18	28.50	-27.8	-28.7	15.5	0.00e+00	0	42	0	1573912576	17	3992
2026-01-29 09:44:24.82	359.03	28.34	-27.9	-28.8	15.5	0.00e+00	0	42	0	1577058304	17	4008
2026-01-29 09:44:25.83	358.88	28.18	-28.0	-29.2	15.2	1.50e-06	0	42	0	1580204032	17	4104
2026-01-29 09:44:26.84	358.74	28.02	-27.9	-28.9	15.4	0.00e+00	0	42	0	1583349760	17	4029
2026-01-29 09:44:27.84	358.60	27.86	-27.8	-28.6	15.5	0.00e+00	0	42	0	1586495488	17	3973
2026-01-29 09:44:28.85	358.45	27.70	-27.7	-28.9	15.7	0.00e+00	0	42	0	1589641216	16	4135
2026-01-29 09:44:29.84	358.32	27.55	-27.5	-28.5	15.8	0.00e+00	0	43	0	1592786944	16	4047
2026-01-29 09:44:30.85	358.18	27.39	-27.3	-28.1	16.0	0.00e+00	0	42	0	1595932672	16	3935
2026-01-29 09:44:31.85	358.04	27.23	-27.1	-28.1	16.2	1.50e-06	0	42	0	1599078400	15	4037
2026-01-29 09:44:32.85	357.90	27.08	-26.9	-27.7	16.4	0.00e+00	0	42	0	1602224128	15	3943
2026-01-29 09:44:33.85	357.77	26.93	-27.0	-27.8	16.3	0.00e+00	0	42	0	1605369856	15	3969
2026-01-29 09:44:34.86	357.64	26.77	-27.0	-27.9	16.3	0.00e+00	0	42	0	1608515584	15	3993
2026-01-29 09:44:35.86	357.51	26.62	-26.8	-27.5	16.5	0.00e+00	0	42	0	1611661312	15	3901
2026-01-29 09:44:36.86	357.38	26.47	-26.8	-27.9	16.5	0.00e+00	0	42	0	1614807040	14	4099
2026-01-29 09:44:37.87	357.24	26.31	-26.7	-27.8	16.6	0.00e+00	0	42	0	1617952768	14	4068
2026-01-29 09:44:38.87	357.12	26.16	-26.7	-27.8	16.6	0.00e+00	0	43	0	1621098496	14	4069
2026-01-29 09:44:39.87	356.99	26.01	-26.8	-27.8	16.6	0.00e+00	0	42	0	1623195648	14	4075
2026-01-29 09:44:40.87	356.87	25.86	-26.9	-28.1	16.4	0.00e+00	0	43	0	1627389952	14	4158
2026-01-29 09:44:41.88	356.74	25.71	-26.9	-28.2	16.4	0.00e+00	0	42	0	1630535680	14	4175
2026-01-29 09:44:42.88	356.62	25.57	-27.0	-28.5	16.2	0.00e+00	0	43	0	1633681408	14	4254
2026-01-29 09:44:43.89	356.49	25.42	-27.3	-29.0	16.0	0.00e+00	0	42	0	1636827136	14	4382
2026-01-29 09:44:44.89	356.37	25.27	-27.2	-28.9	16.0	0.00e+00	0	42	0	1639972864	14	4354
2026-01-29 09:44:45.89	356.26	25.12	-27.1	-28.7	16.1	0.00e+00	0	42	0	1643118592	14	4304
2026-01-29 09:44:46.89	356.14	24.98	-27.2	-28.8	16.0	0.00e+00	0	42	0	1645215744	14	4336
2026-01-29 09:44:47.90	356.02	24.83	-27.3	-29.0	15.9	7.00e-07	0	42	0	1648361472	14	4397
2026-01-29 09:44:48.90	355.90	24.69	-27.3	-29.1	15.9	0.00e+00	0	42	0	1651507200	14	4418
2026-01-29 09:44:49.90	355.79	24.55	-27.3	-29.1	15.8	0.00e+00	0	43	0	1654652928	14	4439
2026-01-29 09:44:50.91	355.67	24.40	-27.5	-29.0	15.6	0.00e+00	0	42	0	1657798656	15	4291
2026-01-29 09:44:51.91	355.56	24.26	-27.6	-29.2	15.5	0.00e+00	0	43	0	1660944384	15	4344
2026-01-29 09:44:52.91	355.45	24.12	-27.7	-29.5	15.4	0.00e+00	0	42	0	1664090112	15	4416
2026-01-29 09:44:53.92	355.34	23.98	-27.7	-29.4	15.4	0.00e+00	0	42	0	1667235840	15	4412
2026-01-29 09:44:54.93	355.23	23.84	-27.8	-29.7	15.3	0.00e+00	0	42	0	1670381568	15	4479
2026-01-29 09:44:55.94	355.12	23.70	-27.8	-29.7	15.3	0.00e+00	0	43	0	1673527296	15	4485
2026-01-29 09:44:56.94	355.01	23.56	-27.7	-29.5	15.3	0.00e+00	0	42	0	1676673024	15	4447
2026-01-29 09:44:57.94	354.90	23.42	-27.8	-29.6	15.3	0.00e+00	0	43	0	1679818752	15	4466
2026-01-29 09:44:58.94	354.80	23.28	-27.7	-29.5	15.4	0.00e+00	0	43	0	1682964480	15	4428
2026-01-29 09:44:59.95	354.69	23.14	-27.6	-29.3	15.5	7.00e-07	0	43	0	1686110208	15	4365
2026-01-29 09:45:00.95	354.59	23.01	-27.7	-29.4	15.4	0.00e+00	0	43	0	1689255936	15	4397
2026-01-29 09:45:01.95	354.48	22.87	-27.4	-28.9	15.7	0.00e+00	0	42	0	1692401664	15	4250
2026-01-29 09:45:02.96	354.38	22.74	-27.5	-28.9	15.6	0.00e+00	0	43	0	1695547392	15	4270
2026-01-29 09:45:03.96	354.28	22.60	-27.6	-29.3	15.4	7.00e-07	0	43	0	1698693120	15	4373
2026-01-29 09:45:04.97	354.18	22.47	-27.4	-28.8	15.7	0.00e+00	0	43	0	1701838848	15	4225
2026-01-29 09:45:05.97	354.08	22.33	-27.2	-28.2	16.0	0.00e+00	0	43	0	1704984576	15	4082
2026-01-29 09:45:06.97	353.98	22.20	-27.1	-28.1	16.1	0.00e+00	0	43	0	1708130304	15	4057
2026-01-29 09:45:07.98	353.88	22.07	-27.2	-28.3	16.0	0.00e+00	0	42	0	1711276032	15	4100
2026-01-29 09:45:08.98	353.79	21.94	-27.2	-28.3	16.0	0.00e+00	0	42	0	1714421760	15	4089
2026-01-29 09:45:09.98	353.69	21.81	-27.1	-28.0	16.1	0.00e+00	0	43	0	1717567488	15	4028
2026-01-29 09:45:10.98	353.60	21.68	-27.1	-28.1	16.1	1.50e-06	0	42	0	1720713216	15	4050
2026-01-29 09:45:11.98	353.50	21.55	-27.2	-28.4	15.9	0.00e+00	0	43	0	1723858944	15	4116
2026-01-29 09:45:12.99	353.41	21.42	-27.0	-27.9	16.2	7.00e-07	0	42	0	1727004672	15	3990
2026-01-29 09:45:13.99	353.31	21.29	-26.9	-27.7	16.3	0.00e+00	0	42	0	1730150400	15	3949
2026-01-29 09:45:14.99	353.22	21.16	-26.9	-27.6	16.3	0.00e+00	0	42	0	1733296128	15	3926
2026-01-29 09:45:16.00	353.13	21.03	-27.0	-28.0	16.1	0.00e+00	0	43	0	1736441856	15	4011
2026-01-29 09:45:17.00	353.04	20.90	-26.8	-27.5	16.3	0.00e+00	0	43	0	1739587584	15	3899
2026-01-29 09:45:18.01	352.95	20.78	-27.0	-28.0	16.1	0.00e+00	0	43	0	1742733312	15	4014
2026-01-29 09:45:19.00	352.86	20.65	-26.8	-27.5	16.4	0.00e+00	0	43	0	1745879040	15	3897
2026-01-29 09:45:20.00	352.78	20.53	-26.6	-27.6	16.6	0.00e+00	0	43	0	1749024768	14	4025
2026-01-29 09:45:21.00	352.69	20.40	-26.8	-27.9	16.4	0.00e+00	0	43	0	1752170496	14	4099
2026-01-29 09:45:22.01	352.60	20.28	-26.7	-27.7	16.5	0.00e+00	0	42	0	1755316224	14	4064
2026-01-29 09:45:23.00	352.52	20.16	-26.9	-28.1	16.3	0.00e+00	0	43	0	1758461952	14	4167
2026-01-29 09:45:24.00	352.43	20.03	-27.1	-28.6	16.0	0.00e+00	0	43	0	1761607680	14	4296
2026-01-29 09:45:25.01	352.35	19.91	-27.0	-28.3	16.2	0.00e+00	0	43	0	1764753408	14	4215
2026-01-29 09:45:26.01	352.26	19.79	-27.0	-28.3	16.2	0.00e+00	0	43	0	1767899136	14	4218
2026-01-29 09:45:27.02	352.18	19.66	-27.1	-28.6	16.0	7.00e-07	0	42	0	1771044864	14	4288
2026-01-29 09:45:28.03	352.10	19.54	-27.1	-28.7	16.0	0.00e+00	0	43	0	1774190592	14	4308
2026-01-29 09:45:29.03	352.01	19.42	-27.2	-28.9	15.9	0.00e+00	0	42	0	1777336320	14	4364
2026-01-29 09:45:30.04	351.93	19.30	-27.1	-28.6	16.0	0.00e+00	0	42	0	1780482048	14	4302
2026-01-29 09:45:31.04	351.85	19.18	-27.3	-29.0	15.7	0.00e+00	0	43	0	1783627776	14	4415
2026-01-29 09:45:32.03	351.77	19.06	-27.2	-28.8	15.8	0.00e+00	0	43	0	1786773504	14	4360
2026-01-29 09:45:33.04	351.69	18.95	-27.2	-29.0	15.8	0.00e+00	0	43	0	1789919232	14	4398
2026-01-29 09:45:34.04	351.62	18.83	-27.3	-29.0	15.7	0.00e+00	0	43	0	1793064960	14	4418
2026-01-29 09:45:35.04	351.54	18.71	-27.4	-29.4	15.5	0.00e+00	0	43	0	1796210688	14	4527
2026-01-29 09:45:36.04	351.46	18.59	-27.3	-29.2	15.6	0.00e+00	0	42	0	1799356416	14	4475
2026-01-29 09:45:37.04	351.39	18.48	-27.5	-29.5	15.4	0.00e+00	0	43	0	1802502144	14	4561
2026-01-29 09:45:38.05	351.31	18.36	-27.3	-29.2	15.6	0.00e+00	0	42	0	1805647872	14	4463
2026-01-29 09:45:39.04	351.23	18.25	-27.3	-29.2	15.6	0.00e+00	0	43	0	1808793600	14	4468
2026-01-29 09:45:40.05	351.16	18.13	-27.3	-29.2	15.6	1.50e-06	0	43	0	1811939328	14	4461
2026-01-29 09:45:41.05	351.08	18.02	-27.5	-29.5	15.4	0.00e+00	0	43	0	1815085056	14	4564
2026-01-29 09:45:42.05	351.01	17.90	-27.3	-29.2	15.6	0.00e+00	0	43	0	1818230784	14	4470
2026-01-29 09:45:43.06	350.94	17.79	-27.3	-29.2	15.6	0.00e+00	0	43	0	1821376512	14	4462
2026-01-29 09:45:44.07	350.87	17.67	-27.3	-29.2	15.6	0.00e+00	0	43	0	1824522240	14	4473
2026-01-29 09:45:45.07	350.79	17.56	-27.5	-29.5	15.4	0.00e+00	0	43	0	1827667968	14	4551
2026-01-29 09:45:46.07	350.72	17.45	-27.3	-29.1	15.6	0.00e+00	0	42	0	1830813696	14	4443
2026-01-29 09:45:47.07	350.65	17.34	-27.3	-29.1	15.6	0.00e+00	0	43	0	1833959424	14	4445
2026-01-29 09:45:48.07	350.58	17.23	-27.4	-29.4	15.4	0.00e+00	0	43	0	1837105152	14	4512
2026-01-29 09:45:49.08	350.51	17.12	-27.4	-29.3	15.5	0.00e+00	0	43	0	1840250880	14	4497
2026-01-29 09:45:50.08	350.44	17.01	-27.5	-29.2	15.3	0.00e+00	0	43	0	1843396608	15	4340
2026-01-29 09:45:51.09	350.37	16.90	-27.5	-29.0	15.4	0.00e+00	0	43	0	1846542336	15	4294
2026-01-29 09:45:52.10	350.30	16.79	-27.4	-28.9	15.4	0.00e+00	0	43	0	1849688064	15	4276
2026-01-29 09:45:53.10	350.24	16.68	-27.5	-29.0	15.3	0.00e+00	0	43	0	1852833792	15	4309
2026-01-29 09:45:54.10	350.17	16.57	-27.5	-29.1	15.3	0.00e+00	0	43	0	1855979520	15	4318
2026-01-29 09:45:55.11	350.10	16.46	-27.6	-29.2	15.2	0.00e+00	0	43	0	1859125248	15	4363
2026-01-29 09:45:56.12	350.04	16.35	-27.7	-29.5	15.1	0.00e+00	0	43	0	1862270976	15	4445
2026-01-29 09:45:57.12	349.97	16.24	-27.7	-29.5	15.1	0.00e+00	0	43	0	1865416704	15	4444
2026-01-29 09:45:58.12	349.91	16.14	-27.7	-29.6	15.0	0.00e+00	0	43	0	1868562432	15	4471
2026-01-29 09:45:59.13	349.84	16.03	-27.7	-29.6	15.0	0.00e+00	0	43	0	1871708160	15	4459
2026-01-29 09:46:00.13	349.78	15.93	-27.7	-29.7	14.9	0.00e+00	0	43	0	1874853888	15	4491
2026-01-29 09:46:01.13	349.71	15.82	-27.8	-29.7	14.9	0.00e+00	0	43	0	1877999616	15	4498
2026-01-29 09:46:02.13	349.65	15.72	-27.8	-29.9	14.8	0.00e+00	0	43	0	1881145344	15	4549
2026-01-29 09:46:03.14	349.59	15.61	-28.0	-30.2	14.6	0.00e+00	0	43	0	1884291072	15	4650
2026-01-29 09:46:04.14	349.53	15.51	-27.8	-29.9	14.8	0.00e+00	0	43	0	1887436800	15	4546
2026-01-29 09:46:05.15	349.46	15.40	-27.8	-29.8	14.9	0.00e+00	0	42	0	1890582528	15	4536
2026-01-29 09:46:06.15	349.40	15.30	-27.8	-29.9	14.8	0.00e+00	0	43	0	1893728256	15	4550
2026-01-29 09:46:07.16	349.34	15.19	-27.8	-29.7	14.9	0.00e+00	0	43	0	1896873984	15	4508
2026-01-29 09:46:08.16	349.28	15.09	-27.9	-30.0	14.8	0.00e+00	0	43	0	1900019712	15	4580
2026-01-29 09:46:09.17	349.22	14.99	-27.9	-30.1	14.7	7.00e-07	0	43	0	1903165440	15	4629
2026-01-29 09:46:10.17	349.16	14.89	-27.9	-30.1	14.6	0.00e+00	0	43	0	1906311168	15	4639
2026-01-29 09:46:11.17	349.10	14.79	-27.9	-30.1	14.6	0.00e+00	0	42	0	1909456896	15	4631
2026-01-29 09:46:12.18	349.04	14.68	-28.0	-30.2	14.6	1.50e-06	0	42	0	1912602624	15	4641
2026-01-29 09:46:13.18	348.99	14.58	-27.9	-30.1	14.6	0.00e+00	0	42	0	1915748352	15	4628
2026-01-29 09:46:14.17	348.93	14.48	-27.9	-30.1	14.6	0.00e+00	0	43	0	1918894080	15	4620
2026-01-29 09:46:15.17	348.87	14.38	-28.2	-30.1	14.5	7.00e-07	0	43	0	1922039808	16	4506
2026-01-29 09:46:16.18	348.81	14.28	-28.0	-29.7	14.7	7.00e-07	0	42	0	1925185536	16	4389
2026-01-29 09:46:17.19	348.76	14.18	-28.0	-29.6	14.8	0.00e+00	0	43	0	1928331264	16	4364
2026-01-29 09:46:18.20	348.70	14.09	-27.9	-29.6	14.8	0.00e+00	0	43	0	1931476992	16	4361
2026-01-29 09:46:19.20	348.65	13.99	-27.9	-29.6	14.8	0.00e+00	0	43	0	1934622720	16	4355
2026-01-29 09:46:20.20	348.59	13.89	-28.0	-29.7	14.7	0.00e+00	0	43	0	1937768448	16	4400
2026-01-29 09:46:21.20	348.54	13.79	-28.0	-29.8	14.6	0.00e+00	0	43	0	1940914176	16	4405
2026-01-29 09:46:22.21	348.48	13.69	-28.0	-29.8	14.6	0.00e+00	0	43	0	1944059904	16	4411
2026-01-29 09:46:23.21	348.43	13.60	-28.1	-29.9	14.5	1.50e-06	0	43	0	1946157056	16	4456
2026-01-29 09:46:24.21	348.37	13.50	-28.0	-29.8	14.6	0.00e+00	0	42	0	1949302784	16	4418
2026-01-29 09:46:25.22	348.32	13.40	-28.0	-29.7	14.7	1.50e-06	0	42	0	1952448512	16	4385
2026-01-29 09:46:26.22	348.27	13.31	-28.0	-29.7	14.6	0.00e+00	0	43	0	1956642816	16	4406
2026-01-29 09:46:27.23	348.21	13.21	-28.0	-29.8	14.6	0.00e+00	0	43	0	1959788544	16	4420
2026-01-29 09:46:28.23	348.16	13.12	-27.9	-29.6	14.7	7.00e-07	0	43	0	1962934272	16	4363
2026-01-29 09:46:29.23	348.11	13.02	-28.0	-29.6	14.7	0.00e+00	0	43	0	1966080000	16	4373
2026-01-29 09:46:30.24	348.06	12.93	-28.0	-29.7	14.6	0.00e+00	0	43	0	1968177152	16	4380
2026-01-29 09:46:31.24	348.01	12.83	-28.0	-29.6	14.6	0.00e+00	0	43	0	1971322880	16	4376
2026-01-29 09:46:32.24	347.95	12.74	-28.1	-29.9	14.5	7.00e-07	0	43	0	1974468608	16	4460
2026-01-29 09:46:33.25	347.90	12.65	-28.0	-29.7	14.6	0.00e+00	0	43	0	1977614336	16	4393
2026-01-29 09:46:34.26	347.85	12.55	-28.1	-30.0	14.4	7.00e-07	0	43	0	1980760064	16	4477
2026-01-29 09:46:35.27	347.80	12.46	-28.0	-29.7	14.6	0.00e+00	0	42	0	1983905792	16	4401
2026-01-29 09:46:36.27	347.75	12.37	-27.9	-29.6	14.7	1.50e-06	0	43	0	1988100096	16	4368
2026-01-29 09:46:37.28	347.70	12.27	-28.0	-29.7	14.6	0.00e+00	0	43	0	1991245824	16	4391
2026-01-29 09:46:38.27	347.66	12.18	-28.0	-29.7	14.6	0.00e+00	0	43	0	1993342976	16	4394
2026-01-29 09:46:39.28	347.61	12.09	-28.0	-29.8	14.5	0.00e+00	0	42	0	1996488704	16	4427
2026-01-29 09:46:40.28	347.56	12.00	-28.0	-29.8	14.5	7.00e-07	0	42	0	1999634432	16	4412
2026-01-29 09:46:41.28	347.51	11.91	-28.1	-30.0	14.4	7.00e-07	0	43	0	2002780160	16	4478
2026-01-29 09:46:42.28	347.46	11.82	-28.0	-29.8	14.5	1.50e-06	0	43	0	2005925888	16	4435
2026-01-29 09:46:43.28	347.42	11.73	-28.1	-29.9	14.4	7.00e-07	0	43	0	2009071616	16	4459
2026-01-29 09:46:44.29	347.37	11.64	-28.1	-30.0	14.4	0.00e+00	0	43	0	2012217344	16	4477
2026-01-29 09:46:45.29	347.32	11.55	-28.2	-30.2	14.2	2.20e-06	0	43	0	2015363072	16	4536
2026-01-29 09:46:46.29	347.28	11.46	-28.3	-30.6	14.0	7.00e-07	0	43	0	2018508800	16	4663
2026-01-29 09:46:47.29	347.23	11.37	-28.2	-30.3	14.2	1.50e-06	0	43	0	2021654528	16	4562
2026-01-29 09:46:48.29	347.18	11.28	-28.2	-30.2	14.2	0.00e+00	0	43	0	2024800256	16	4544
2026-01-29 09:46:49.30	347.14	11.19	-28.2	-30.2	14.2	7.00e-07	0	43	0	2027945984	16	4532
2026-01-29 09:46:50.30	347.09	11.10	-28.2	-30.3	14.2	2.20e-06	0	42	0	2031091712	16	4570
2026-01-29 09:46:51.31	347.05	11.02	-28.2	-30.4	14.1	4.50e-06	0	43	0	2034237440	16	4593
2026-01-29 09:46:52.31	347.00	10.93	-28.2	-30.4	14.1	1.50e-06	0	43	0	2037383168	16	4599
2026-01-29 09:46:53.31	346.96	10.84	-28.3	-30.5	14.0	3.00e-06	0	43	0	2040528896	16	4636
2026-01-29 09:46:54.31	346.92	10.75	-28.2	-30.3	14.1	1.50e-06	0	43	0	2043674624	16	4589
2026-01-29 09:46:55.32	346.87	10.67	-28.2	-30.2	14.2	0.00e+00	0	43	0	2046820352	16	4553
2026-01-29 09:46:56.32	346.83	10.58	-28.2	-30.2	14.2	1.50e-06	0	43	0	2049966080	16	4553
2026-01-29 09:46:57.32	346.79	10.50	-28.2	-30.3	14.1	7.00e-07	0	43	0	2053111808	16	4571
2026-01-29 09:46:58.32	346.74	10.41	-28.1	-30.1	14.2	3.00e-06	0	43	0	2056257536	16	4516
2026-01-29 09:46:59.32	346.70	10.32	-28.2	-30.3	14.1	1.50e-06	0	43	0	2059403264	16	4585
2026-01-29 09:47:00.33	346.66	10.24	-28.3	-30.4	14.0	3.00e-06	0	43	0	2062548992	16	4623
2026-01-29 09:47:01.33	346.62	10.15	-28.2	-30.4	14.0	7.00e-07	0	43	0	2065694720	16	4617
2026-01-29 09:47:02.33	346.57	10.07	-28.3	-30.6	13.9	3.80e-06	0	43	0	2068840448	16	4671
2026-01-29 09:47:03.34	346.53	9.98	-28.5	-31.0	13.7	2.20e-06	0	43	0	2071986176	16	4810
2026-01-29 09:47:04.34	346.49	9.90	-28.4	-30.8	13.8	3.80e-06	0	43	0	2075131904	16	4726
2026-01-29 09:47:05.34	346.45	9.82	-28.3	-30.6	13.9	4.50e-06	0	43	0	2078277632	16	4691
2026-01-29 09:47:06.35	346.41	9.73	-28.5	-30.9	13.7	8.30e-06	0	43	0	2081423360	16	4788
2026-01-29 09:47:07.35	346.37	9.65	-28.4	-30.3	13.7	5.30e-06	0	43	0	2084569088	17	4491
2026-01-29 09:47:08.36	346.33	9.57	-28.4	-30.4	13.7	3.80e-06	0	43	0	2087714816	17	4498
2026-01-29 09:47:09.37	346.29	9.48	-28.5	-30.5	13.6	6.10e-06	0	43	0	2090860544	17	4532
2026-01-29 09:47:10.37	346.25	9.40	-28.5	-30.5	13.6	5.30e-06	0	43	0	2094006272	17	4536
2026-01-29 09:47:11.37	346.21	9.32	-28.5	-30.5	13.6	6.80e-06	0	42	0	2097152000	17	4553
2026-01-29 09:47:12.38	346.17	9.24	-28.6	-30.7	13.4	1.98e-05	0	43	0	2100297728	17	4597
2026-01-29 09:47:13.38	346.13	9.15	-28.6	-30.8	13.4	1.90e-05	0	42	0	2103443456	17	4619
2026-01-29 09:47:14.38	346.09	9.07	-28.4	-30.4	13.6	7.60e-06	0	43	0	2106589184	17	4508
2026-01-29 09:47:15.39	346.05	8.99	-28.4	-30.4	13.6	1.06e-05	0	43	0	2109734912	17	4517
2026-01-29 09:47:16.39	346.02	8.91	-28.5	-30.5	13.5	9.10e-06	0	43	0	2112880640	17	4544
2026-01-29 09:47:17.40	345.98	8.83	-28.6	-30.8	13.3	1.44e-05	0	42	0	2116026368	17	4645
2026-01-29 09:47:18.40	345.94	8.75	-28.7	-31.0	13.2	2.74e-05	0	42	0	2119172096	17	4704
2026-01-29 09:47:19.40	345.90	8.67	-28.6	-30.8	13.3	1.75e-05	0	42	0	2122317824	17	4633
2026-01-29 09:47:20.41	345.86	8.59	-28.6	-30.9	13.3	1.67e-05	0	43	0	2125463552	17	4678
2026-01-29 09:47:21.40	345.83	8.51	-28.7	-30.9	13.2	1.83e-05	0	42	0	2128609280	17	4682
2026-01-29 09:47:22.41	345.79	8.43	-28.8	-31.2	13.0	3.12e-05	0	43	0	2131755008	17	4779
2026-01-29 09:47:23.41	345.75	8.35	-28.7	-31.1	13.1	4.11e-05	0	42	0	2134900736	17	4734
