passes_logs/2026/01/29/R2M6_AANII_01/R2M6_AANII_01__20260129_003313_NOAA_20_JPSS-1_rec.log

#Pass ID: 20260129_003313_NOAA 20 (JPSS-1)
#Satellite: NOAA 20 (JPSS-1)
#Configuration: NOAA 20
#almurnet v.1.7.20240730
#Start time: 2026-01-29 00:33:13

#Version: 2.2.20231116
#Station: R2M6_AANII_01
#Location: 30.233357 lon 59.946436 lat
#TLE: 1 43013U 17073A   26027.80586608  .00000156  00000+0  94940-4 0  9998
#TLE: 2 43013  98.7647 328.6108 0000947  21.3465 338.7750 14.19541216424550

#Time	Az	El	Level	Level2	SNR	BER	BlckErr	Temp	State	Recorded	gain1	gain2
2026-01-29 00:33:13.71	17.09	7.03	-31.8	-40.0	4.5	1.38e+00	0	41	0	0	23	9216
2026-01-29 00:33:14.71	17.09	7.11	-32.1	-41.3	4.2	1.44e+00	0	41	104	0	24	10449
2026-01-29 00:33:15.71	17.08	7.19	-32.0	-40.6	5.3	6.81e-01	0	41	0	0	24	9706
2026-01-29 00:33:16.71	17.07	7.26	-32.1	-40.9	5.2	5.30e-01	0	41	0	1048576	24	9991
2026-01-29 00:33:17.71	17.06	7.34	-32.0	-40.7	5.3	6.38e-01	0	41	0	3145728	24	9708
2026-01-29 00:33:18.72	17.06	7.42	-32.0	-39.9	5.7	4.90e-01	0	41	0	5242880	24	9002
2026-01-29 00:33:19.72	17.05	7.50	-31.9	-39.6	6.2	3.54e-01	0	41	0	7340032	23	8824
2026-01-29 00:33:20.72	17.04	7.57	-31.8	-38.9	6.8	2.11e-01	0	41	0	9437184	23	8234
2026-01-29 00:33:21.72	17.03	7.65	-31.6	-38.2	7.4	1.33e-01	0	41	0	10485760	23	7646
2026-01-29 00:33:22.72	17.03	7.73	-31.5	-37.6	7.8	9.69e-02	0	41	0	12582912	23	7266
2026-01-29 00:33:23.73	17.02	7.81	-31.4	-37.6	8.2	5.79e-02	0	41	0	14680064	22	7361
2026-01-29 00:33:24.74	17.01	7.89	-31.4	-37.7	8.2	5.46e-02	0	42	0	16777216	22	7405
2026-01-29 00:33:25.74	17.00	7.97	-31.7	-38.3	7.4	6.80e-02	0	42	0	17825792	23	7722
2026-01-29 00:33:26.74	16.99	8.05	-31.6	-38.0	7.5	1.18e-01	0	41	0	19922944	23	7533
2026-01-29 00:33:27.75	16.99	8.13	-31.5	-37.6	7.9	8.26e-02	0	42	0	22020096	23	7236
2026-01-29 00:33:28.75	16.98	8.21	-31.3	-37.2	8.6	5.40e-02	0	41	0	24117248	22	7119
2026-01-29 00:33:29.75	16.97	8.29	-31.1	-36.5	9.1	3.44e-02	0	41	0	26214400	22	6650
2026-01-29 00:33:30.75	16.96	8.37	-31.0	-36.0	9.5	1.52e-02	0	42	0	27262976	22	6383
2026-01-29 00:33:31.75	16.95	8.45	-30.9	-35.6	9.8	1.06e-02	0	41	0	29360128	22	6201
2026-01-29 00:33:32.75	16.94	8.54	-30.9	-35.5	10.0	9.68e-03	0	42	0	31457280	22	6103
2026-01-29 00:33:33.75	16.94	8.62	-30.8	-35.7	10.1	6.82e-03	0	42	0	33554432	21	6344
2026-01-29 00:33:34.75	16.93	8.70	-30.8	-35.8	10.1	6.52e-03	0	42	0	35651584	21	6376
2026-01-29 00:33:35.75	16.92	8.78	-30.9	-36.0	10.0	7.65e-03	0	42	0	36700160	21	6474
2026-01-29 00:33:36.75	16.91	8.86	-30.9	-35.9	10.1	9.33e-03	0	42	0	38797312	21	6427
2026-01-29 00:33:37.75	16.90	8.95	-30.9	-36.0	10.0	7.33e-03	0	42	0	40894464	21	6496
2026-01-29 00:33:38.76	16.89	9.03	-30.8	-35.7	10.2	7.74e-03	0	42	0	42991616	21	6305
2026-01-29 00:33:39.76	16.88	9.11	-30.8	-35.5	10.3	6.30e-03	0	42	0	45088768	21	6236
2026-01-29 00:33:40.77	16.87	9.20	-30.8	-35.5	10.4	4.52e-03	0	42	0	46137344	21	6192
2026-01-29 00:33:41.77	16.86	9.28	-30.8	-35.5	10.4	4.31e-03	0	42	0	48234496	21	6209
2026-01-29 00:33:42.77	16.85	9.37	-30.8	-35.5	10.4	5.13e-03	0	42	0	50331648	21	6184
2026-01-29 00:33:43.77	16.85	9.45	-30.8	-35.6	10.4	4.68e-03	0	42	0	52428800	21	6239
2026-01-29 00:33:44.78	16.84	9.54	-30.9	-35.9	10.1	5.69e-03	0	42	0	54525952	21	6415
2026-01-29 00:33:45.78	16.83	9.62	-30.8	-35.7	10.3	5.86e-03	0	42	0	55574528	21	6286
2026-01-29 00:33:46.79	16.82	9.71	-30.8	-35.5	10.5	4.81e-03	0	42	0	57671680	21	6196
2026-01-29 00:33:47.79	16.81	9.79	-30.7	-35.3	10.6	3.98e-03	0	42	0	59768832	21	6114
2026-01-29 00:33:48.80	16.80	9.88	-29.8	-34.4	10.7	3.17e-03	0	42	0	61865984	21	6105
2026-01-29 00:33:49.80	16.79	9.97	-30.7	-35.2	10.7	2.98e-03	0	42	0	62914560	21	6043
2026-01-29 00:33:50.81	16.78	10.05	-30.7	-35.2	10.7	2.76e-03	0	42	0	65011712	21	6047
2026-01-29 00:33:51.81	16.77	10.14	-30.8	-35.5	10.0	3.87e-03	0	42	0	67108864	21	6208
2026-01-29 00:33:52.81	16.76	10.23	-30.7	-35.3	10.6	3.96e-03	0	42	0	69206016	21	6103
2026-01-29 00:33:53.82	16.75	10.31	-30.7	-35.1	10.8	4.79e-03	0	42	0	71303168	21	5986
2026-01-29 00:33:54.83	16.74	10.40	-30.7	-35.0	10.9	2.22e-03	0	42	0	73400320	21	5955
2026-01-29 00:33:55.82	16.73	10.49	-30.7	-35.0	10.9	2.49e-03	0	42	0	74448896	21	5949
2026-01-29 00:33:56.83	16.72	10.58	-30.7	-35.1	10.8	2.34e-03	0	42	0	76546048	21	6000
2026-01-29 00:33:57.83	16.71	10.67	-30.7	-35.3	10.7	5.11e-03	0	42	0	78643200	21	6066
2026-01-29 00:33:58.84	16.69	10.76	-30.7	-35.1	10.9	2.74e-03	0	42	0	80740352	21	5979
2026-01-29 00:33:59.84	16.68	10.85	-30.7	-35.0	10.9	2.32e-03	0	42	0	81788928	21	5921
2026-01-29 00:34:00.85	16.67	10.94	-30.7	-35.0	11.0	4.23e-03	0	42	0	83886080	21	5934
2026-01-29 00:34:01.85	16.66	11.03	-30.7	-35.0	10.9	1.83e-03	0	42	0	85983232	21	5939
2026-01-29 00:34:02.85	16.65	11.12	-30.8	-35.3	10.8	2.44e-03	0	42	0	88080384	21	6064
2026-01-29 00:34:03.85	16.64	11.21	-30.8	-35.3	10.7	3.14e-03	0	42	0	90177536	21	6085
2026-01-29 00:34:04.86	16.63	11.30	-30.8	-35.3	10.8	2.90e-03	0	42	0	91226112	21	6074
2026-01-29 00:34:05.86	16.62	11.39	-30.8	-35.5	10.6	2.70e-03	0	42	0	93323264	21	6191
2026-01-29 00:34:06.87	16.61	11.48	-30.8	-35.4	10.7	3.40e-03	0	42	0	95420416	21	6105
2026-01-29 00:34:07.88	16.60	11.58	-30.7	-35.2	10.8	2.61e-03	0	42	0	97517568	21	6017
2026-01-29 00:34:08.89	16.58	11.67	-30.8	-35.4	10.8	4.95e-03	0	43	0	99614720	21	6094
2026-01-29 00:34:09.89	16.57	11.76	-30.7	-35.2	10.9	2.42e-03	0	42	0	100663296	21	5990
2026-01-29 00:34:10.89	16.56	11.85	-30.8	-35.4	10.7	3.05e-03	0	42	0	102760448	21	6127
2026-01-29 00:34:11.90	16.55	11.95	-30.8	-35.3	10.8	5.35e-03	0	43	0	104857600	21	6049
2026-01-29 00:34:12.90	16.54	12.04	-30.7	-35.2	10.9	2.62e-03	0	42	0	106954752	21	6010
2026-01-29 00:34:13.90	16.52	12.14	-30.8	-35.4	10.8	2.24e-03	0	42	0	109051904	21	6092
2026-01-29 00:34:14.90	16.51	12.23	-30.7	-35.1	10.9	5.36e-03	0	42	0	110100480	21	5979
2026-01-29 00:34:15.91	16.50	12.33	-30.6	-34.6	11.3	4.00e-03	0	43	0	112197632	21	5738
2026-01-29 00:34:16.91	16.49	12.42	-30.5	-34.5	11.4	9.80e-04	0	43	0	114294784	21	5661
2026-01-29 00:34:17.91	16.47	12.52	-30.5	-34.4	11.5	3.66e-03	0	43	0	116391936	21	5645
2026-01-29 00:34:18.91	16.46	12.61	-30.5	-34.3	11.6	2.91e-03	0	43	0	118489088	21	5584
2026-01-29 00:34:19.91	16.45	12.71	-30.5	-34.3	11.6	8.04e-04	0	43	0	119537664	21	5585
2026-01-29 00:34:20.90	16.44	12.80	-30.5	-34.4	11.5	7.64e-04	0	43	0	121634816	21	5663
2026-01-29 00:34:21.90	16.42	12.90	-30.5	-34.3	11.5	3.26e-03	0	43	0	123731968	21	5598
2026-01-29 00:34:22.91	16.41	13.00	-30.5	-34.5	11.4	7.90e-04	0	43	0	125829120	21	5682
2026-01-29 00:34:23.91	16.40	13.10	-30.6	-34.8	11.2	1.14e-03	0	43	0	126877696	21	5820
2026-01-29 00:34:24.91	16.38	13.20	-30.6	-34.8	11.2	3.79e-03	0	43	0	128974848	21	5822
2026-01-29 00:34:25.91	16.37	13.29	-30.6	-34.7	11.3	1.76e-03	0	43	0	131072000	21	5787
2026-01-29 00:34:26.92	16.36	13.39	-30.7	-34.9	11.1	3.75e-03	0	42	0	133169152	21	5878
2026-01-29 00:34:27.92	16.34	13.49	-30.6	-34.8	11.2	3.61e-03	0	43	0	135266304	21	5816
2026-01-29 00:34:28.92	16.33	13.59	-30.6	-34.5	11.5	1.56e-03	0	43	0	136314880	21	5677
2026-01-29 00:34:29.93	16.32	13.69	-30.5	-34.5	11.5	2.90e-03	0	43	0	138412032	21	5647
2026-01-29 00:34:30.93	16.30	13.80	-30.5	-34.4	11.6	3.30e-03	0	43	0	140509184	21	5638
2026-01-29 00:34:31.93	16.29	13.90	-30.7	-35.0	11.2	1.75e-03	0	43	0	142606336	21	5882
2026-01-29 00:34:32.93	16.27	14.00	-30.6	-34.6	11.5	4.29e-03	0	43	0	144703488	21	5710
2026-01-29 00:34:33.93	16.26	14.10	-30.3	-34.2	12.1	2.82e-03	0	43	0	145752064	20	5641
2026-01-29 00:34:34.92	16.25	14.20	-30.2	-33.9	12.3	8.15e-04	0	43	0	147849216	20	5498
2026-01-29 00:34:35.92	16.23	14.30	-30.1	-33.6	12.5	2.99e-03	0	43	0	149946368	20	5397
2026-01-29 00:34:36.92	16.22	14.41	-30.1	-33.7	12.5	2.22e-03	0	43	0	152043520	20	5422
2026-01-29 00:34:37.92	16.20	14.51	-30.1	-33.7	12.5	1.21e-04	0	43	0	154140672	20	5416
2026-01-29 00:34:38.93	16.19	14.62	-30.1	-33.7	12.5	2.71e-03	0	43	0	155189248	20	5410
2026-01-29 00:34:39.93	16.17	14.72	-30.1	-33.7	12.5	2.45e-03	0	43	0	157286400	20	5417
2026-01-29 00:34:40.94	16.16	14.83	-30.1	-33.6	12.6	1.04e-04	0	43	0	159383552	20	5383
2026-01-29 00:34:41.94	16.14	14.93	-30.1	-33.6	12.6	8.47e-04	0	43	0	161480704	20	5395
2026-01-29 00:34:42.94	16.12	15.04	-30.0	-33.4	12.8	2.36e-03	0	43	0	163577856	20	5288
2026-01-29 00:34:43.95	16.11	15.14	-30.1	-33.6	12.6	6.02e-04	0	43	0	164626432	20	5377
2026-01-29 00:34:44.95	16.09	15.25	-30.3	-34.1	12.3	2.34e-03	0	43	0	166723584	20	5579
2026-01-29 00:34:45.94	16.08	15.36	-30.4	-34.4	12.1	2.34e-03	0	43	0	168820736	20	5718
2026-01-29 00:34:46.95	16.06	15.47	-30.3	-34.2	12.2	9.46e-04	0	43	0	170917888	20	5614
2026-01-29 00:34:47.95	16.05	15.57	-30.3	-34.1	12.3	2.90e-03	0	43	0	171966464	20	5570
2026-01-29 00:34:48.96	16.03	15.68	-30.4	-34.4	12.1	2.77e-04	0	43	0	174063616	20	5700
2026-01-29 00:34:49.96	16.01	15.79	-30.2	-33.9	12.4	8.92e-04	0	43	0	176160768	20	5511
2026-01-29 00:34:50.96	16.00	15.90	-30.1	-33.5	12.7	3.25e-03	0	43	0	178257920	20	5347
2026-01-29 00:34:51.96	15.98	16.01	-30.1	-33.5	12.7	7.55e-05	0	43	0	180355072	20	5343
2026-01-29 00:34:52.96	15.96	16.12	-30.2	-33.7	12.6	8.25e-04	0	43	0	181403648	20	5408
2026-01-29 00:34:53.96	15.94	16.23	-30.1	-33.6	12.7	3.11e-03	0	43	0	183500800	20	5354
2026-01-29 00:34:54.97	15.93	16.35	-30.2	-33.9	12.5	2.10e-03	0	43	0	185597952	20	5497
2026-01-29 00:34:55.97	15.91	16.46	-30.1	-33.6	12.7	9.12e-04	0	43	0	187695104	20	5337
2026-01-29 00:34:56.97	15.89	16.57	-30.0	-33.1	13.0	2.92e-03	0	43	0	189792256	20	5175
2026-01-29 00:34:57.98	15.87	16.69	-29.9	-32.9	13.1	2.42e-03	0	43	0	190840832	20	5108
2026-01-29 00:34:58.99	15.86	16.80	-29.9	-33.3	13.3	3.28e-05	0	43	0	192937984	19	5355
2026-01-29 00:34:59.99	15.84	16.92	-29.9	-33.4	13.3	6.65e-04	0	43	0	195035136	19	5370
2026-01-29 00:35:00.99	15.82	17.03	-29.9	-33.3	13.3	2.26e-03	0	43	0	197132288	19	5349
2026-01-29 00:35:01.99	15.80	17.15	-29.9	-33.3	13.3	1.06e-05	0	43	0	199229440	19	5339
2026-01-29 00:35:03.00	15.78	17.26	-29.8	-33.0	13.5	7.31e-04	0	43	0	200278016	19	5218
2026-01-29 00:35:04.00	15.76	17.38	-29.7	-32.9	13.5	2.06e-03	0	43	0	202375168	19	5184
2026-01-29 00:35:05.01	15.74	17.50	-29.8	-33.1	13.4	7.63e-04	0	43	0	204472320	19	5270
2026-01-29 00:35:06.01	15.72	17.61	-29.7	-32.9	13.6	1.06e-05	0	43	0	206569472	19	5165
2026-01-29 00:35:07.01	15.71	17.73	-29.6	-32.6	13.8	5.30e-06	0	43	0	208666624	19	5073
2026-01-29 00:35:08.01	15.69	17.85	-29.7	-32.7	13.7	8.06e-04	0	43	0	209715200	19	5096
2026-01-29 00:35:09.01	15.67	17.97	-29.6	-32.5	13.9	1.50e-06	0	43	0	211812352	19	5011
2026-01-29 00:35:10.02	15.65	18.09	-29.6	-32.6	13.8	5.30e-06	0	43	0	213909504	19	5053
2026-01-29 00:35:11.02	15.63	18.21	-29.7	-32.7	13.8	7.10e-04	0	43	0	216006656	19	5085
2026-01-29 00:35:12.02	15.61	18.33	-29.8	-33.0	13.6	5.30e-06	0	43	0	218103808	19	5223
2026-01-29 00:35:13.03	15.59	18.46	-29.7	-32.7	13.7	4.50e-06	0	43	0	219152384	19	5101
2026-01-29 00:35:14.03	15.56	18.58	-29.8	-32.9	13.6	2.13e-05	0	43	0	221249536	19	5180
2026-01-29 00:35:15.03	15.54	18.70	-29.9	-33.3	13.4	2.53e-03	0	43	0	223346688	19	5325
2026-01-29 00:35:16.04	15.52	18.82	-29.7	-32.9	13.7	9.90e-06	0	43	0	225443840	19	5173
2026-01-29 00:35:17.04	15.50	18.95	-29.7	-32.8	13.7	1.14e-05	0	43	0	226492416	19	5120
2026-01-29 00:35:18.04	15.48	19.07	-29.8	-33.1	13.6	4.29e-04	0	43	0	228589568	19	5230
2026-01-29 00:35:19.05	15.46	19.20	-29.7	-32.9	13.7	4.50e-06	0	43	0	230686720	19	5156
2026-01-29 00:35:20.05	15.44	19.33	-29.7	-32.8	13.7	9.10e-06	0	43	0	232783872	19	5147
2026-01-29 00:35:21.05	15.41	19.45	-29.7	-32.8	13.7	5.30e-06	0	43	0	234881024	19	5134
2026-01-29 00:35:22.05	15.39	19.58	-29.9	-33.3	13.4	6.80e-06	0	43	0	235929600	19	5326
2026-01-29 00:35:23.06	15.37	19.71	-29.8	-33.1	13.5	9.90e-06	0	43	0	238026752	19	5236
2026-01-29 00:35:24.06	15.35	19.84	-30.0	-33.0	13.2	1.37e-05	0	43	0	240123904	20	5105
2026-01-29 00:35:25.06	15.32	19.97	-29.8	-32.5	13.5	2.05e-05	0	43	0	242221056	20	4924
2026-01-29 00:35:26.06	15.30	20.10	-29.7	-32.6	13.9	6.80e-06	0	43	0	244318208	19	5075
2026-01-29 00:35:27.07	15.28	20.23	-29.6	-32.5	13.9	3.80e-06	0	43	0	245366784	19	5011
2026-01-29 00:35:28.07	15.25	20.36	-29.8	-33.0	13.6	1.50e-06	0	43	0	247463936	19	5200
2026-01-29 00:35:29.07	15.23	20.49	-29.7	-32.7	13.9	3.80e-06	0	43	0	249561088	19	5077
2026-01-29 00:35:30.08	15.20	20.62	-29.7	-32.6	13.9	3.00e-06	0	43	0	251658240	19	5076
2026-01-29 00:35:31.08	15.18	20.76	-29.7	-32.8	13.8	3.00e-06	0	43	0	253755392	19	5129
2026-01-29 00:35:32.08	15.15	20.89	-29.9	-33.4	13.4	6.10e-06	0	43	0	254803968	19	5351
2026-01-29 00:35:33.08	15.13	21.03	-29.7	-32.7	13.9	4.50e-06	0	43	0	256901120	19	5096
2026-01-29 00:35:34.09	15.10	21.16	-29.6	-32.6	13.9	3.00e-06	0	43	0	258998272	19	5043
2026-01-29 00:35:35.09	15.08	21.30	-29.5	-32.3	14.1	7.00e-07	0	43	0	261095424	19	4930
2026-01-29 00:35:36.10	15.05	21.44	-29.6	-32.4	14.1	2.20e-06	0	43	0	263192576	19	4972
2026-01-29 00:35:37.10	15.03	21.58	-29.5	-32.3	14.1	0.00e+00	0	43	0	264241152	19	4937
2026-01-29 00:35:38.10	15.00	21.71	-28.8	-31.8	13.9	7.00e-07	0	43	0	266338304	19	5068
2026-01-29 00:35:39.11	14.97	21.85	-29.6	-32.4	13.7	3.00e-06	0	43	0	268435456	19	4993
2026-01-29 00:35:40.11	14.95	21.99	-29.4	-32.0	14.3	2.20e-06	0	43	0	270532608	19	4828
2026-01-29 00:35:41.11	14.92	22.14	-29.3	-32.3	14.4	0.00e+00	0	43	0	272629760	18	5040
2026-01-29 00:35:42.12	14.89	22.28	-29.4	-32.5	14.3	7.00e-07	0	43	0	273678336	18	5123
2026-01-29 00:35:43.12	14.86	22.42	-29.4	-32.4	13.8	0.00e+00	0	43	0	275775488	18	5100
2026-01-29 00:35:44.13	14.84	22.56	-29.4	-32.5	14.2	2.20e-06	0	43	0	277872640	18	5107
2026-01-29 00:35:45.13	14.81	22.71	-29.5	-32.3	14.2	2.20e-06	0	43	0	279969792	19	4940
2026-01-29 00:35:46.14	14.78	22.85	-29.6	-32.4	14.1	4.73e-04	0	43	0	282066944	19	4967
2026-01-29 00:35:47.14	14.75	23.00	-29.4	-32.5	14.4	7.00e-07	0	43	0	283115520	18	5121
2026-01-29 00:35:48.15	14.72	23.15	-29.4	-32.3	14.5	0.00e+00	0	43	0	285212672	18	5052
2026-01-29 00:35:49.15	14.69	23.29	-29.4	-32.5	14.3	7.00e-07	0	43	0	287309824	18	5134
2026-01-29 00:35:50.16	14.66	23.44	-29.4	-32.5	14.4	1.67e-03	0	43	0	289406976	18	5124
2026-01-29 00:35:51.16	14.63	23.59	-29.4	-32.5	14.3	1.50e-06	0	43	0	290455552	18	5122
2026-01-29 00:35:52.16	14.60	23.74	-29.7	-32.6	14.0	1.50e-06	0	43	0	292552704	19	5036
2026-01-29 00:35:53.17	14.57	23.89	-29.9	-33.3	13.6	2.01e-03	0	43	0	294649856	19	5307
2026-01-29 00:35:54.17	14.54	24.05	-29.7	-32.8	13.9	3.00e-06	0	43	0	296747008	19	5100
2026-01-29 00:35:55.18	14.51	24.20	-29.6	-32.5	14.1	6.10e-06	0	43	0	298844160	19	4997
2026-01-29 00:35:56.18	14.47	24.35	-29.4	-32.4	14.5	1.95e-03	0	43	0	300941312	18	5071
2026-01-29 00:35:57.18	14.44	24.51	-29.4	-32.3	14.5	1.53e-03	0	43	0	301989888	18	5057
2026-01-29 00:35:58.18	14.41	24.66	-29.6	-32.3	14.2	7.00e-07	0	43	0	304087040	19	4936
2026-01-29 00:35:59.18	14.38	24.82	-29.5	-32.5	14.4	0.00e+00	0	43	0	306184192	18	5123
2026-01-29 00:36:00.18	14.34	24.97	-29.4	-32.5	14.5	1.51e-03	0	43	0	308281344	18	5106
2026-01-29 00:36:01.18	14.31	25.13	-29.5	-32.2	14.3	0.00e+00	0	43	0	309329920	19	4899
2026-01-29 00:36:02.17	14.28	25.29	-29.6	-32.4	14.1	1.50e-06	0	43	0	311427072	19	4984
2026-01-29 00:36:03.18	14.24	25.45	-29.6	-32.4	14.2	1.46e-03	0	43	0	313524224	19	4973
2026-01-29 00:36:04.18	14.21	25.61	-29.6	-32.4	14.2	4.45e-04	0	44	0	315621376	19	4957
2026-01-29 00:36:05.19	14.17	25.77	-29.6	-32.5	14.1	0.00e+00	0	43	0	317718528	19	4994
2026-01-29 00:36:06.19	14.14	25.94	-29.8	-32.9	13.9	2.20e-06	0	43	0	318767104	19	5152
2026-01-29 00:36:07.19	14.10	26.10	-29.8	-32.8	13.9	5.54e-04	0	43	0	320864256	19	5114
2026-01-29 00:36:08.19	14.06	26.26	-29.9	-33.1	13.8	1.97e-03	0	43	0	322961408	19	5206
2026-01-29 00:36:09.20	14.03	26.43	-29.9	-33.1	13.8	6.10e-06	0	43	0	325058560	19	5209
2026-01-29 00:36:10.19	13.99	26.60	-29.9	-32.8	13.6	6.00e-04	0	43	0	327155712	20	5014
2026-01-29 00:36:11.19	13.95	26.76	-30.0	-33.4	13.6	1.88e-03	0	43	0	328204288	19	5316
2026-01-29 00:36:12.19	13.91	26.93	-30.0	-33.0	13.4	1.33e-03	0	43	0	330301440	20	5083
2026-01-29 00:36:13.19	13.88	27.10	-29.9	-33.2	13.7	1.22e-05	0	43	0	332398592	19	5267
2026-01-29 00:36:14.20	13.84	27.27	-30.0	-33.0	13.5	1.81e-03	0	43	0	334495744	20	5076
2026-01-29 00:36:15.20	13.80	27.45	-30.0	-32.9	13.5	1.13e-03	0	43	0	335544320	20	5057
2026-01-29 00:36:16.20	13.76	27.62	-30.0	-33.1	13.4	1.06e-05	0	43	0	337641472	20	5108
2026-01-29 00:36:17.21	13.72	27.79	-30.1	-33.2	13.3	1.68e-03	0	43	0	339738624	20	5167
2026-01-29 00:36:18.21	13.67	27.97	-30.3	-33.7	13.0	8.32e-04	0	43	0	341835776	20	5347
2026-01-29 00:36:19.22	13.63	28.15	-30.5	-34.0	12.4	5.23e-04	0	43	0	343932928	21	5358
2026-01-29 00:36:20.23	13.59	28.32	-30.6	-34.0	12.4	1.15e-03	0	43	0	346030080	21	5368
2026-01-29 00:36:21.23	13.55	28.50	-30.7	-34.4	12.2	7.51e-04	0	43	0	347078656	21	5524
2026-01-29 00:36:22.24	13.50	28.68	-30.7	-34.4	12.2	6.42e-04	0	43	0	349175808	21	5508
2026-01-29 00:36:23.25	13.46	28.87	-30.8	-34.9	11.9	3.54e-04	0	43	0	351272960	21	5720
2026-01-29 00:36:24.25	13.42	29.05	-31.0	-34.9	11.5	1.50e-03	0	43	0	353370112	22	5630
2026-01-29 00:36:25.25	13.37	29.23	-31.0	-35.2	11.6	1.26e-03	0	43	0	354418688	21	5891
2026-01-29 00:36:26.26	13.33	29.42	-31.0	-35.0	11.4	1.82e-03	0	43	0	356515840	22	5679
2026-01-29 00:36:27.26	13.28	29.60	-31.2	-35.5	11.1	1.97e-03	0	43	0	358612992	22	5920
2026-01-29 00:36:28.26	13.23	29.79	-31.2	-35.6	11.0	2.79e-03	0	43	0	360710144	22	5966
2026-01-29 00:36:29.26	13.19	29.98	-31.2	-35.3	11.2	2.89e-03	0	43	0	362807296	22	5819
2026-01-29 00:36:30.27	13.14	30.17	-31.1	-35.1	11.4	1.11e-03	0	43	0	363855872	22	5716
2026-01-29 00:36:31.27	13.09	30.36	-31.1	-35.2	11.3	1.47e-03	0	43	0	365953024	22	5764
2026-01-29 00:36:32.27	13.04	30.55	-31.2	-35.4	11.2	2.16e-03	0	43	0	368050176	22	5846
2026-01-29 00:36:33.28	12.99	30.74	-31.2	-35.6	11.1	1.86e-03	0	43	0	370147328	22	5939
2026-01-29 00:36:34.28	12.94	30.94	-31.4	-36.2	10.7	3.78e-03	0	43	0	372244480	22	6225
2026-01-29 00:36:35.29	12.89	31.13	-31.4	-35.9	10.8	3.11e-03	0	43	0	373293056	22	6102
2026-01-29 00:36:36.29	12.84	31.33	-31.2	-35.6	11.1	2.01e-03	0	43	0	375390208	22	5927
2026-01-29 00:36:37.30	12.79	31.53	-31.2	-35.5	11.1	1.46e-03	0	43	0	377487360	22	5902
2026-01-29 00:36:38.30	12.74	31.73	-31.2	-35.4	11.2	1.77e-03	0	43	0	379584512	22	5837
2026-01-29 00:36:39.30	12.68	31.93	-31.3	-35.8	11.0	1.64e-03	0	43	0	381681664	22	6034
2026-01-29 00:36:40.31	12.63	32.13	-31.4	-35.9	10.8	2.19e-03	0	44	0	382730240	22	6106
2026-01-29 00:36:41.31	12.57	32.34	-31.4	-36.1	10.8	2.49e-03	0	43	0	384827392	22	6165
2026-01-29 00:36:42.32	12.52	32.54	-31.4	-36.0	10.8	2.66e-03	0	43	0	386924544	22	6122
2026-01-29 00:36:43.33	12.46	32.75	-31.4	-35.9	10.9	3.16e-03	0	43	0	389021696	22	6089
2026-01-29 00:36:44.33	12.40	32.96	-31.4	-36.1	10.7	2.96e-03	0	43	0	391118848	22	6193
2026-01-29 00:36:45.33	12.35	33.17	-31.5	-36.0	10.4	4.32e-03	0	43	0	392167424	23	6043
2026-01-29 00:36:46.34	12.29	33.38	-31.7	-36.4	10.1	5.94e-03	0	43	0	394264576	23	6236
2026-01-29 00:36:47.34	12.23	33.59	-31.6	-36.1	10.4	4.53e-03	0	43	0	396361728	23	6062
2026-01-29 00:36:48.34	12.17	33.80	-31.5	-36.0	10.5	4.01e-03	0	43	0	398458880	23	6001
2026-01-29 00:36:49.35	12.11	34.02	-31.5	-36.0	10.4	4.80e-03	0	43	0	400556032	23	6022
2026-01-29 00:36:50.35	12.04	34.23	-31.5	-36.2	10.7	3.10e-03	0	43	0	401604608	22	6236
2026-01-29 00:36:51.35	11.98	34.45	-31.5	-35.8	10.5	3.14e-03	0	43	0	403701760	23	5947
2026-01-29 00:36:52.36	11.92	34.67	-31.2	-35.0	11.2	2.32e-03	0	43	0	405798912	23	5565
2026-01-29 00:36:53.36	11.85	34.89	-31.0	-34.9	11.7	1.49e-03	0	43	0	407896064	22	5596
2026-01-29 00:36:54.37	11.79	35.12	-31.1	-35.0	11.6	6.83e-04	0	43	0	409993216	22	5642
2026-01-29 00:36:55.37	11.72	35.34	-31.2	-35.4	11.3	8.17e-04	0	43	0	411041792	22	5830
2026-01-29 00:36:56.38	11.65	35.57	-31.1	-35.1	11.4	1.56e-03	0	43	0	413138944	22	5715
2026-01-29 00:36:57.38	11.58	35.79	-30.6	-33.7	12.4	2.16e-04	0	43	0	415236096	22	5108
2026-01-29 00:36:58.39	11.51	36.02	-30.2	-32.9	13.3	3.12e-05	0	44	0	417333248	21	4912
2026-01-29 00:36:59.39	11.44	36.25	-29.9	-32.5	13.9	6.80e-06	0	43	0	419430400	20	4895
2026-01-29 00:37:00.39	11.37	36.49	-29.5	-31.7	14.4	2.20e-06	0	43	0	420478976	20	4604
2026-01-29 00:37:01.39	11.30	36.72	-29.3	-31.1	14.8	0.00e+00	0	43	0	422576128	20	4405
2026-01-29 00:37:02.39	11.22	36.95	-29.3	-31.6	14.9	0.00e+00	0	43	0	424673280	19	4662
2026-01-29 00:37:03.39	11.15	37.19	-29.3	-31.5	14.9	0.00e+00	0	43	0	426770432	19	4658
2026-01-29 00:37:04.40	11.07	37.43	-29.4	-31.7	14.9	0.00e+00	0	43	0	427819008	19	4691
2026-01-29 00:37:05.40	10.99	37.67	-29.4	-32.3	14.8	7.00e-07	0	43	0	429916160	18	5006
2026-01-29 00:37:06.41	10.91	37.91	-29.4	-32.2	14.8	0.00e+00	0	44	0	432013312	18	4991
2026-01-29 00:37:07.41	10.83	38.15	-29.4	-31.9	14.7	0.00e+00	0	43	0	434110464	19	4765
2026-01-29 00:37:08.41	10.75	38.40	-29.8	-32.7	14.2	0.00e+00	0	43	0	436207616	19	5051
2026-01-29 00:37:09.41	10.67	38.65	-29.9	-33.1	13.9	5.30e-06	0	44	0	437256192	19	5212
2026-01-29 00:37:10.41	10.59	38.89	-29.9	-33.2	13.9	2.20e-06	0	43	0	439353344	19	5225
2026-01-29 00:37:11.41	10.50	39.14	-30.0	-32.8	13.8	2.20e-06	0	43	0	441450496	20	4990
2026-01-29 00:37:12.42	10.42	39.40	-29.4	-32.4	13.5	1.14e-05	0	43	0	443547648	20	5082
2026-01-29 00:37:13.42	10.33	39.65	-30.1	-33.2	13.3	8.30e-06	0	43	0	445644800	20	5135
2026-01-29 00:37:14.42	10.24	39.91	-30.2	-33.4	13.4	1.44e-05	0	43	0	446693376	20	5215
2026-01-29 00:37:15.43	10.15	40.16	-30.2	-33.5	13.2	2.82e-05	0	43	0	448790528	20	5255
2026-01-29 00:37:16.43	10.05	40.42	-30.1	-33.3	13.4	1.44e-05	0	44	0	450887680	20	5166
2026-01-29 00:37:17.43	9.96	40.68	-30.2	-33.3	13.4	1.44e-05	0	44	0	452984832	20	5183
2026-01-29 00:37:18.43	9.87	40.95	-30.2	-33.4	13.4	1.22e-05	0	43	0	455081984	20	5221
2026-01-29 00:37:19.44	9.77	41.21	-30.3	-33.9	13.1	2.67e-05	0	43	0	456130560	20	5393
2026-01-29 00:37:20.44	9.67	41.48	-30.4	-33.6	12.9	4.34e-05	0	43	0	458227712	21	5187
2026-01-29 00:37:21.44	9.57	41.75	-30.4	-33.4	13.0	3.35e-05	0	43	0	460324864	21	5106
2026-01-29 00:37:22.44	9.47	42.02	-30.4	-34.0	13.0	3.81e-05	0	43	0	462422016	20	5439
2026-01-29 00:37:23.45	9.36	42.29	-30.5	-33.7	12.8	5.56e-05	0	43	0	464519168	21	5232
2026-01-29 00:37:24.45	9.26	42.56	-30.5	-33.8	12.8	4.07e-04	0	43	0	465567744	21	5249
2026-01-29 00:37:25.46	9.15	42.84	-30.6	-34.1	12.6	7.62e-05	0	43	0	467664896	21	5357
2026-01-29 00:37:26.46	9.04	43.12	-30.7	-34.3	12.5	1.59e-04	0	43	0	469762048	21	5450
2026-01-29 00:37:27.46	8.93	43.40	-30.8	-34.6	12.3	5.29e-04	0	43	0	471859200	21	5571
2026-01-29 00:37:28.47	8.81	43.68	-30.9	-34.9	12.0	5.96e-04	0	43	0	473956352	21	5697
2026-01-29 00:37:29.47	8.70	43.96	-30.9	-34.9	12.0	2.27e-04	0	44	0	475004928	21	5713
2026-01-29 00:37:30.47	8.58	44.25	-31.2	-35.2	11.6	4.50e-04	0	43	0	477102080	22	5725
2026-01-29 00:37:31.47	8.46	44.54	-31.1	-35.0	11.6	1.00e-03	0	43	0	479199232	22	5652
2026-01-29 00:37:32.47	8.34	44.83	-30.7	-33.9	12.5	2.78e-04	0	43	0	481296384	22	5163
2026-01-29 00:37:33.48	8.21	45.12	-30.6	-34.1	12.7	1.01e-04	0	43	0	482344960	21	5347
2026-01-29 00:37:34.47	8.08	45.41	-30.7	-34.2	12.5	3.29e-04	0	43	0	484442112	21	5405
2026-01-29 00:37:35.48	7.95	45.71	-30.8	-34.7	12.3	1.23e-04	0	44	0	486539264	21	5598
2026-01-29 00:37:36.49	7.82	46.01	-30.8	-34.5	12.3	2.23e-04	0	43	0	488636416	21	5540
2026-01-29 00:37:37.49	7.69	46.31	-30.8	-34.6	12.3	1.72e-04	0	43	0	490733568	21	5577
2026-01-29 00:37:38.49	7.55	46.61	-30.8	-34.6	12.2	1.72e-04	0	43	0	491782144	21	5573
2026-01-29 00:37:39.49	7.41	46.91	-30.8	-34.7	12.2	5.39e-04	0	44	0	493879296	21	5606
2026-01-29 00:37:40.50	7.26	47.22	-31.2	-35.2	11.5	3.56e-04	0	43	0	495976448	22	5746
2026-01-29 00:37:41.49	7.12	47.52	-31.3	-35.6	11.3	1.42e-03	0	44	0	498073600	22	5899
2026-01-29 00:37:42.49	6.97	47.83	-31.4	-36.0	11.0	1.69e-03	0	44	0	500170752	22	6080
2026-01-29 00:37:43.50	6.82	48.14	-31.6	-36.1	10.5	3.62e-03	0	43	0	501219328	23	6049
2026-01-29 00:37:44.50	6.66	48.46	-31.6	-36.0	10.6	4.61e-03	0	44	0	503316480	23	6007
2026-01-29 00:37:45.51	6.50	48.78	-31.5	-35.9	10.7	3.80e-03	0	43	0	505413632	23	5945
2026-01-29 00:37:46.52	6.34	49.10	-31.3	-35.0	11.3	2.14e-03	0	44	0	507510784	23	5533
2026-01-29 00:37:47.52	6.17	49.41	-31.1	-34.5	11.7	8.83e-04	0	44	0	509607936	23	5309
2026-01-29 00:37:48.53	6.00	49.74	-31.1	-35.1	11.7	8.71e-04	0	44	0	510656512	22	5675
2026-01-29 00:37:49.53	5.83	50.06	-31.0	-34.6	12.0	8.82e-04	0	44	0	512753664	22	5457
2026-01-29 00:37:50.53	5.66	50.39	-30.5	-33.3	12.8	1.23e-04	0	43	0	514850816	22	4944
2026-01-29 00:37:51.53	5.48	50.72	-30.3	-33.1	13.3	3.06e-04	0	44	0	516947968	21	4978
2026-01-29 00:37:52.53	5.29	51.04	-30.2	-32.9	13.5	3.13e-04	0	44	0	519045120	21	4924
2026-01-29 00:37:53.53	5.10	51.38	-30.2	-33.3	13.6	8.92e-05	0	43	0	520093696	20	5159
2026-01-29 00:37:54.54	4.91	51.71	-30.0	-32.8	13.9	2.32e-04	0	44	0	522190848	20	4970
2026-01-29 00:37:55.54	4.71	52.05	-29.8	-32.7	14.3	5.13e-04	0	44	0	524288000	19	5033
2026-01-29 00:37:56.54	4.51	52.38	-29.7	-32.6	14.3	1.81e-04	0	43	0	526385152	19	5022
2026-01-29 00:37:57.55	4.30	52.73	-30.1	-33.1	13.6	2.59e-04	0	43	0	528482304	20	5098
2026-01-29 00:37:58.55	4.09	53.07	-30.1	-33.0	13.7	5.22e-04	0	44	0	529530880	20	5035
2026-01-29 00:37:59.56	3.87	53.42	-29.7	-32.1	14.3	3.15e-04	0	44	0	531628032	20	4745
2026-01-29 00:38:00.56	3.65	53.76	-29.5	-31.9	14.8	1.06e-04	0	44	0	533725184	19	4762
2026-01-29 00:38:01.57	3.42	54.11	-29.3	-31.4	15.1	4.84e-04	0	44	0	535822336	19	4615
2026-01-29 00:38:02.58	3.18	54.46	-28.9	-30.9	15.7	7.65e-04	0	44	0	537919488	18	4545
2026-01-29 00:38:03.58	2.94	54.81	-28.8	-30.7	15.8	0.00e+00	0	43	0	538968064	18	4492
2026-01-29 00:38:04.59	2.70	55.17	-29.0	-31.3	15.5	9.77e-04	0	44	0	541065216	18	4673
2026-01-29 00:38:05.59	2.45	55.52	-29.4	-32.1	15.0	9.39e-04	0	43	0	543162368	18	4951
2026-01-29 00:38:06.60	2.18	55.88	-29.4	-32.2	14.9	0.00e+00	0	43	0	545259520	18	4986
2026-01-29 00:38:07.61	1.92	56.25	-29.3	-32.0	15.0	1.04e-03	0	43	0	546308096	18	4920
2026-01-29 00:38:08.61	1.65	56.61	-29.9	-32.9	14.2	1.21e-03	0	44	0	548405248	19	5116
2026-01-29 00:38:09.62	1.36	56.97	-30.2	-33.4	13.4	1.06e-05	0	43	0	550502400	20	5194
2026-01-29 00:38:10.63	1.07	57.34	-30.5	-33.7	12.9	1.45e-03	0	43	0	552599552	21	5219
2026-01-29 00:38:11.63	0.78	57.70	-30.7	-34.2	12.5	1.20e-04	0	44	0	554696704	21	5421
2026-01-29 00:38:12.64	0.47	58.07	-31.0	-34.7	11.9	2.59e-04	0	43	0	556793856	22	5515
2026-01-29 00:38:13.64	0.16	58.44	-31.3	-35.5	11.3	2.18e-03	0	44	0	557842432	22	5867
2026-01-29 00:38:14.64	359.84	58.81	-31.1	-34.8	11.8	2.08e-03	0	43	0	559939584	22	5561
2026-01-29 00:38:15.65	359.51	59.18	-31.0	-34.8	11.8	4.52e-04	0	43	0	562036736	22	5523
2026-01-29 00:38:16.65	359.17	59.56	-31.0	-34.8	11.9	1.17e-03	0	44	0	564133888	22	5556
2026-01-29 00:38:17.66	358.82	59.93	-30.6	-33.6	12.8	1.22e-03	0	44	0	565182464	22	5045
2026-01-29 00:38:18.66	358.46	60.31	-29.7	-32.1	14.3	2.20e-06	0	44	0	567279616	20	4718
2026-01-29 00:38:19.66	358.08	60.68	-29.0	-30.8	15.5	7.00e-04	0	44	0	569376768	19	4412
2026-01-29 00:38:20.67	357.70	61.06	-28.8	-30.7	15.8	6.50e-04	0	44	0	571473920	18	4497
2026-01-29 00:38:21.67	357.30	61.44	-28.4	-29.8	16.3	0.00e+00	0	44	0	573571072	18	4228
2026-01-29 00:38:22.68	356.89	61.82	-28.1	-29.6	16.8	0.00e+00	0	43	0	574619648	17	4283
2026-01-29 00:38:23.68	356.48	62.20	-28.1	-30.1	16.7	2.37e-04	0	43	0	576716800	16	4523
2026-01-29 00:38:24.68	356.04	62.58	-28.3	-30.6	16.4	0.00e+00	0	43	0	578813952	16	4685
2026-01-29 00:38:25.68	355.60	62.97	-28.6	-30.8	16.0	0.00e+00	0	44	0	580911104	17	4639
2026-01-29 00:38:26.69	355.13	63.35	-28.7	-31.0	15.9	0.00e+00	0	44	0	583008256	17	4685
2026-01-29 00:38:27.68	354.66	63.73	-28.7	-31.1	15.9	0.00e+00	0	44	0	584056832	17	4725
2026-01-29 00:38:28.68	354.17	64.11	-28.7	-31.0	15.9	7.00e-07	0	43	0	586153984	17	4712
2026-01-29 00:38:29.68	353.66	64.49	-28.8	-31.4	15.7	0.00e+00	0	44	0	588251136	17	4814
2026-01-29 00:38:30.68	353.13	64.88	-28.9	-31.6	15.5	0.00e+00	0	44	0	590348288	17	4877
2026-01-29 00:38:31.67	352.59	65.26	-29.0	-31.3	15.5	3.90e-04	0	44	0	592445440	18	4669
2026-01-29 00:38:32.68	352.02	65.64	-29.1	-31.4	15.4	0.00e+00	0	44	0	593494016	18	4726
2026-01-29 00:38:33.68	351.44	66.03	-29.4	-32.1	15.0	0.00e+00	0	44	0	595591168	18	4943
2026-01-29 00:38:34.69	350.83	66.41	-29.7	-32.6	14.4	5.19e-04	0	44	0	597688320	19	5009
2026-01-29 00:38:35.69	350.20	66.79	-30.2	-33.3	13.6	7.60e-06	0	44	0	599785472	20	5147
2026-01-29 00:38:36.69	349.55	67.17	-30.4	-34.0	13.1	1.83e-05	0	44	0	601882624	20	5441
2026-01-29 00:38:37.70	348.87	67.55	-30.4	-33.6	13.0	8.79e-04	0	44	0	602931200	21	5156
2026-01-29 00:38:38.69	348.17	67.93	-30.4	-33.3	13.2	3.43e-05	0	43	0	605028352	21	5077
2026-01-29 00:38:39.70	347.44	68.31	-30.1	-32.6	13.6	1.52e-05	0	43	0	607125504	21	4812
2026-01-29 00:38:40.70	346.68	68.68	-30.0	-32.5	13.7	6.10e-06	0	44	0	609222656	21	4755
2026-01-29 00:38:41.70	345.90	69.05	-29.8	-32.4	14.1	2.47e-04	0	44	0	610271232	20	4850
2026-01-29 00:38:42.71	345.08	69.43	-29.7	-32.0	14.4	7.00e-07	0	43	0	612368384	20	4689
2026-01-29 00:38:43.71	344.23	69.80	-29.6	-31.7	14.6	7.00e-07	0	43	0	614465536	20	4595
2026-01-29 00:38:44.71	343.35	70.16	-29.4	-31.6	15.1	0.00e+00	0	43	0	616562688	19	4671
2026-01-29 00:38:45.71	342.43	70.52	-29.0	-30.7	15.5	0.00e+00	0	44	0	618659840	19	4384
2026-01-29 00:38:46.72	341.47	70.88	-28.6	-30.3	16.1	0.00e+00	0	43	0	619708416	18	4359
2026-01-29 00:38:47.73	340.46	71.24	-28.6	-30.2	16.1	0.00e+00	0	43	0	621805568	18	4331
2026-01-29 00:38:48.73	339.43	71.59	-29.0	-31.2	15.6	0.00e+00	0	44	0	623902720	18	4639
2026-01-29 00:38:49.74	338.35	71.94	-29.5	-32.1	14.8	0.00e+00	0	44	0	625999872	19	4845
2026-01-29 00:38:50.74	337.23	72.28	-29.3	-31.4	15.1	0.00e+00	0	44	0	628097024	19	4619
2026-01-29 00:38:51.74	336.06	72.61	-29.8	-32.7	14.4	0.00e+00	0	43	0	629145600	19	5048
2026-01-29 00:38:52.75	334.83	72.94	-30.5	-34.3	12.9	1.98e-05	0	43	0	631242752	20	5554
2026-01-29 00:38:53.75	333.57	73.26	-30.4	-33.4	13.2	8.08e-05	0	44	0	633339904	21	5093
2026-01-29 00:38:54.75	332.25	73.57	-29.8	-31.9	14.1	1.52e-05	0	44	0	635437056	21	4556
2026-01-29 00:38:55.74	330.90	73.88	-30.0	-32.8	13.9	2.20e-06	0	43	0	637534208	20	4960
2026-01-29 00:38:56.75	329.46	74.18	-30.4	-33.9	13.2	4.50e-06	0	43	0	638582784	20	5370
2026-01-29 00:38:57.75	327.98	74.46	-30.5	-33.7	13.1	1.37e-05	0	43	0	640679936	21	5175
2026-01-29 00:38:58.75	326.45	74.74	-30.8	-34.6	12.5	4.50e-05	0	43	0	642777088	21	5564
2026-01-29 00:38:59.75	324.85	75.01	-30.7	-34.2	12.7	8.69e-05	0	44	0	644874240	21	5379
2026-01-29 00:39:00.71	323.27	75.26	-30.9	-34.6	12.4	1.03e-04	0	43	0	645922816	21	5560
2026-01-29 00:39:01.70	321.57	75.50	-31.1	-34.8	12.0	1.72e-04	0	44	0	648019968	22	5535
2026-01-29 00:39:02.70	319.80	75.73	-31.1	-34.9	12.0	2.43e-04	0	44	0	650117120	22	5576
2026-01-29 00:39:03.71	317.95	75.96	-31.0	-34.6	12.1	1.84e-04	0	44	0	652214272	22	5415
2026-01-29 00:39:04.71	316.07	76.16	-31.4	-35.8	11.3	4.18e-04	0	44	0	654311424	22	5962
2026-01-29 00:39:05.72	314.10	76.35	-31.6	-36.0	10.8	1.89e-03	0	44	0	655360000	23	5983
2026-01-29 00:39:06.73	312.08	76.53	-31.8	-36.5	10.3	4.26e-03	0	43	0	657457152	23	6197
2026-01-29 00:39:07.73	310.03	76.69	-32.0	-36.9	9.8	1.09e-02	0	43	0	659554304	24	6337
2026-01-29 00:39:08.74	307.90	76.83	-31.5	-35.1	11.1	5.34e-03	0	44	0	661651456	24	5438
2026-01-29 00:39:09.75	305.73	76.96	-31.1	-34.4	12.0	5.75e-04	0	44	0	663748608	23	5253
2026-01-29 00:39:10.75	303.55	77.06	-31.7	-36.3	10.7	1.28e-03	0	44	0	664797184	23	6106
2026-01-29 00:39:11.74	301.35	77.15	-32.3	-38.0	9.1	1.12e-02	0	44	0	666894336	24	6913
2026-01-29 00:39:12.75	299.08	77.22	-32.0	-36.8	9.9	2.32e-02	0	44	0	668991488	24	6228
2026-01-29 00:39:13.76	296.79	77.27	-31.7	-36.2	10.8	2.99e-03	0	44	0	671088640	23	6019
2026-01-29 00:39:14.76	294.50	77.30	-31.4	-35.2	11.3	1.42e-03	0	44	0	673185792	23	5598
2026-01-29 00:39:15.76	292.21	77.31	-31.3	-35.1	11.6	9.18e-04	0	44	0	674234368	23	5533
2026-01-29 00:39:16.77	289.90	77.30	-31.7	-36.3	10.6	2.36e-03	0	43	0	676331520	23	6115
2026-01-29 00:39:17.77	287.61	77.27	-31.5	-35.7	11.1	2.61e-03	0	44	0	678428672	23	5804
2026-01-29 00:39:18.78	285.32	77.22	-31.5	-35.6	11.1	9.17e-04	0	43	0	680525824	23	5768
2026-01-29 00:39:19.78	283.07	77.15	-31.6	-35.7	10.9	2.88e-03	0	44	0	682622976	23	5826
2026-01-29 00:39:20.79	280.83	77.06	-31.3	-35.3	11.7	1.03e-03	0	44	0	683671552	22	5734
2026-01-29 00:39:21.79	278.65	76.95	-30.7	-33.7	12.8	2.68e-04	0	44	0	685768704	22	5079
2026-01-29 00:39:22.80	276.48	76.82	-30.5	-33.1	13.2	3.50e-05	0	44	0	687865856	22	4858
2026-01-29 00:39:23.80	274.38	76.68	-30.9	-34.7	12.6	4.99e-04	0	44	0	689963008	21	5559
2026-01-29 00:39:24.80	272.33	76.52	-31.2	-35.0	12.0	7.12e-04	0	44	0	692060160	22	5588
2026-01-29 00:39:25.80	270.33	76.34	-31.5	-36.0	11.3	4.49e-04	0	43	0	693108736	22	6049
2026-01-29 00:39:26.80	268.39	76.15	-31.6	-35.9	11.1	2.07e-03	0	44	0	695205888	23	5880
2026-01-29 00:39:27.81	266.48	75.94	-31.8	-36.6	10.5	4.08e-03	0	44	0	697303040	23	6260
2026-01-29 00:39:28.81	264.65	75.72	-31.8	-36.5	10.5	4.81e-03	0	44	0	699400192	23	6184
2026-01-29 00:39:29.81	262.88	75.49	-31.8	-36.5	10.5	4.29e-03	0	44	0	700448768	23	6186
2026-01-29 00:39:30.81	261.17	75.24	-31.6	-36.0	10.7	4.21e-03	0	44	0	702545920	23	5961
2026-01-29 00:39:31.82	259.51	74.98	-31.5	-35.7	11.1	1.87e-03	0	44	0	704643072	23	5798
2026-01-29 00:39:32.82	257.92	74.71	-31.8	-36.5	10.5	2.27e-03	0	44	0	706740224	23	6175
2026-01-29 00:39:33.82	256.39	74.43	-31.8	-36.5	10.5	8.94e-03	0	43	0	708837376	23	6204
2026-01-29 00:39:34.83	254.90	74.14	-31.4	-35.6	11.5	3.91e-03	0	44	0	709885952	22	5883
2026-01-29 00:39:35.83	253.48	73.84	-31.1	-34.7	12.2	6.77e-04	0	43	0	711983104	22	5460
2026-01-29 00:39:36.83	252.12	73.54	-30.8	-33.9	12.7	2.60e-04	0	43	0	714080256	22	5164
2026-01-29 00:39:37.84	250.79	73.22	-30.5	-33.5	13.3	5.23e-04	0	43	0	716177408	21	5112
2026-01-29 00:39:38.84	249.54	72.90	-30.5	-33.6	13.2	1.81e-04	0	44	0	718274560	21	5160
2026-01-29 00:39:39.84	248.33	72.57	-30.0	-32.6	14.1	1.46e-04	0	44	0	719323136	20	4897
2026-01-29 00:39:40.84	247.16	72.23	-29.7	-32.5	14.5	1.00e-03	0	44	0	721420288	19	4950
2026-01-29 00:39:41.85	246.04	71.89	-29.8	-32.8	14.4	1.83e-05	0	43	0	723517440	19	5066
2026-01-29 00:39:42.85	244.97	71.54	-30.0	-32.8	14.1	6.86e-05	0	44	0	725614592	20	4947
2026-01-29 00:39:43.86	243.93	71.19	-30.0	-32.7	14.0	1.50e-03	0	44	0	727711744	20	4932
2026-01-29 00:39:44.86	242.94	70.84	-30.0	-32.8	14.0	1.50e-04	0	44	0	728760320	20	4953
2026-01-29 00:39:45.86	241.99	70.48	-30.2	-33.2	13.8	1.75e-03	0	44	0	730857472	20	5116
2026-01-29 00:39:46.86	241.07	70.11	-30.2	-33.3	13.6	1.60e-03	0	44	0	732954624	20	5132
2026-01-29 00:39:47.87	240.19	69.75	-30.5	-33.7	13.1	2.19e-04	0	44	0	735051776	21	5203
2026-01-29 00:39:48.87	239.34	69.38	-30.7	-34.2	12.8	1.31e-03	0	43	0	737148928	21	5373
2026-01-29 00:39:49.88	238.52	69.00	-30.7	-34.2	12.7	1.11e-03	0	44	0	738197504	21	5405
2026-01-29 00:39:50.88	237.74	68.63	-31.0	-34.7	12.1	1.79e-04	0	43	0	740294656	22	5504
2026-01-29 00:39:51.89	236.98	68.25	-31.1	-34.9	11.9	1.18e-03	0	44	0	742391808	22	5576
2026-01-29 00:39:52.89	236.26	67.87	-31.0	-34.7	12.0	9.60e-04	0	44	0	744488960	22	5477
2026-01-29 00:39:53.89	235.56	67.49	-30.6	-34.0	12.9	7.78e-05	0	44	0	746586112	21	5329
2026-01-29 00:39:54.90	234.88	67.11	-30.6	-34.0	12.9	5.55e-04	0	44	0	747634688	21	5294
2026-01-29 00:39:55.90	234.23	66.73	-30.6	-34.0	12.8	5.83e-04	0	44	0	749731840	21	5324
2026-01-29 00:39:56.91	233.60	66.34	-30.1	-32.5	13.8	8.30e-06	0	44	0	751828992	21	4742
2026-01-29 00:39:57.91	233.00	65.96	-29.8	-32.2	14.3	3.92e-04	0	44	0	753926144	20	4773
2026-01-29 00:39:58.92	232.41	65.57	-29.9	-33.1	14.2	6.71e-04	0	44	0	756023296	19	5168
2026-01-29 00:39:59.92	231.85	65.19	-29.7	-32.5	14.5	1.26e-04	0	44	0	757071872	19	4991
2026-01-29 00:40:00.92	231.30	64.81	-29.6	-32.2	14.6	0.00e+00	0	44	0	759169024	19	4883
2026-01-29 00:40:01.92	230.78	64.42	-29.4	-31.7	15.0	6.98e-04	0	44	0	761266176	19	4711
2026-01-29 00:40:02.93	230.27	64.04	-28.7	-30.5	16.0	8.01e-05	0	44	0	763363328	18	4422
2026-01-29 00:40:03.94	229.77	63.65	-28.3	-30.1	16.5	0.00e+00	0	44	0	765460480	17	4416
2026-01-29 00:40:04.94	229.30	63.27	-28.4	-30.3	16.4	6.93e-04	0	44	0	766509056	17	4471
2026-01-29 00:40:05.94	228.84	62.88	-28.0	-29.4	16.9	0.00e+00	0	44	0	768606208	17	4225
2026-01-29 00:40:06.94	228.39	62.50	-28.0	-29.8	17.0	0.00e+00	0	43	0	770703360	16	4444
2026-01-29 00:40:07.95	227.96	62.12	-28.7	-31.1	15.9	0.00e+00	0	44	0	772800512	17	4726
2026-01-29 00:40:08.95	227.54	61.74	-28.9	-31.5	15.7	0.00e+00	0	44	0	773849088	17	4843
2026-01-29 00:40:09.95	227.14	61.36	-29.5	-31.9	14.8	2.85e-04	0	43	0	775946240	19	4783
2026-01-29 00:40:10.95	226.74	60.98	-29.8	-32.9	14.3	7.00e-07	0	44	0	778043392	19	5100
2026-01-29 00:40:11.96	226.36	60.60	-30.3	-33.7	13.3	8.30e-06	0	44	0	780140544	20	5312
2026-01-29 00:40:12.95	225.99	60.22	-30.8	-34.5	12.4	3.47e-04	0	44	0	782237696	21	5514
2026-01-29 00:40:13.96	225.63	59.84	-31.3	-35.5	11.3	5.99e-04	0	44	0	783286272	22	5878
2026-01-29 00:40:14.96	225.28	59.47	-31.9	-37.3	9.7	4.72e-03	0	44	0	785383424	23	6689
2026-01-29 00:40:15.97	224.94	59.09	-31.9	-36.8	9.7	1.36e-02	0	43	0	787480576	24	6295
2026-01-29 00:40:16.97	224.61	58.72	-31.7	-36.1	10.2	6.95e-03	0	43	0	789577728	24	5932
2026-01-29 00:40:17.97	224.29	58.35	-31.6	-36.0	10.7	3.79e-03	0	44	0	791674880	23	5976
2026-01-29 00:40:18.98	223.98	57.98	-31.6	-36.0	10.8	1.95e-03	0	44	0	792723456	23	5975
2026-01-29 00:40:19.98	223.68	57.61	-31.7	-36.5	10.4	3.55e-03	0	44	0	794820608	23	6214
2026-01-29 00:40:20.98	223.38	57.25	-31.7	-36.5	10.2	5.50e-03	0	44	0	796917760	23	6244
2026-01-29 00:40:21.99	223.09	56.88	-31.6	-36.1	10.5	5.18e-03	0	44	0	799014912	23	6066
2026-01-29 00:40:22.99	222.81	56.52	-31.5	-35.6	10.9	3.77e-03	0	44	0	801112064	23	5823
2026-01-29 00:40:23.99	222.54	56.16	-31.1	-34.4	11.8	6.96e-04	0	44	0	802160640	23	5287
2026-01-29 00:40:24.99	222.28	55.80	-31.0	-34.6	11.9	3.36e-04	0	44	0	804257792	22	5490
2026-01-29 00:40:25.99	222.02	55.44	-30.3	-32.7	13.3	8.39e-05	0	44	0	806354944	22	4747
2026-01-29 00:40:27.00	221.77	55.08	-29.9	-32.0	14.0	9.90e-06	0	44	0	808452096	21	4593
2026-01-29 00:40:28.00	221.52	54.73	-29.7	-32.2	14.2	2.20e-06	0	44	0	810549248	20	4765
2026-01-29 00:40:29.00	221.28	54.38	-29.7	-32.9	14.1	7.00e-07	0	44	0	811597824	19	5179
2026-01-29 00:40:30.00	221.05	54.03	-29.9	-33.0	14.1	2.20e-06	0	44	0	813694976	19	5170
2026-01-29 00:40:31.00	220.82	53.68	-30.0	-32.9	13.7	6.10e-06	0	44	0	815792128	20	5041
2026-01-29 00:40:32.00	220.60	53.33	-30.2	-33.4	13.4	6.80e-06	0	44	0	817889280	20	5195
2026-01-29 00:40:33.01	220.38	52.99	-30.5	-34.2	12.9	2.21e-05	0	44	0	818937856	20	5535
2026-01-29 00:40:34.01	220.17	52.64	-30.1	-32.6	13.6	2.51e-05	0	43	0	821035008	21	4792
2026-01-29 00:40:35.01	219.97	52.30	-29.7	-31.9	14.3	1.50e-06	0	43	0	823132160	20	4685
2026-01-29 00:40:36.01	219.76	51.97	-29.5	-32.0	14.7	1.50e-06	0	44	0	825229312	19	4807
2026-01-29 00:40:37.02	219.57	51.63	-29.4	-31.7	14.9	7.00e-07	0	44	0	827326464	19	4696
2026-01-29 00:40:38.02	219.37	51.29	-29.9	-33.0	14.1	1.90e-04	0	44	0	829423616	19	5169
2026-01-29 00:40:39.02	219.18	50.96	-30.0	-33.3	13.9	7.00e-07	0	43	0	830472192	19	5256
2026-01-29 00:40:40.02	219.00	50.63	-30.4	-33.9	13.1	9.90e-06	0	44	0	832569344	20	5389
2026-01-29 00:40:41.03	218.82	50.30	-30.5	-34.2	12.9	2.08e-04	0	44	0	834666496	20	5535
2026-01-29 00:40:42.03	218.64	49.97	-31.0	-35.1	11.9	1.79e-04	0	43	0	836763648	21	5821
2026-01-29 00:40:43.03	218.47	49.65	-31.0	-34.9	11.8	5.13e-04	0	44	0	837812224	22	5595
2026-01-29 00:40:44.03	218.30	49.33	-31.2	-35.4	11.4	7.38e-04	0	44	0	839909376	22	5808
2026-01-29 00:40:45.04	218.13	49.00	-30.8	-34.2	12.2	5.80e-04	0	44	0	842006528	22	5315
2026-01-29 00:40:46.05	217.97	48.68	-30.9	-35.0	12.0	3.14e-04	0	44	0	844103680	21	5762
2026-01-29 00:40:47.05	217.81	48.37	-30.7	-34.2	12.5	2.46e-04	0	44	0	846200832	21	5438
2026-01-29 00:40:48.05	217.66	48.05	-30.5	-33.9	12.7	3.93e-04	0	44	0	847249408	21	5280
2026-01-29 00:40:49.05	217.51	47.74	-29.6	-33.4	12.6	7.47e-05	0	44	0	849346560	20	5583
2026-01-29 00:40:50.05	217.36	47.43	-30.6	-34.2	12.4	9.61e-05	0	44	0	851443712	21	5445
2026-01-29 00:40:51.05	217.21	47.12	-30.7	-34.4	12.0	1.45e-04	0	43	0	853540864	21	5505
2026-01-29 00:40:52.06	217.07	46.81	-30.9	-34.9	11.8	2.49e-04	0	44	0	855638016	21	5734
2026-01-29 00:40:53.06	216.93	46.51	-30.8	-34.6	12.2	2.31e-04	0	44	0	856686592	21	5589
2026-01-29 00:40:54.07	216.79	46.20	-30.7	-34.5	12.3	2.31e-04	0	44	0	858783744	21	5554
2026-01-29 00:40:55.07	216.65	45.91	-30.8	-34.6	12.2	3.06e-04	0	44	0	860880896	21	5593
2026-01-29 00:40:56.07	216.52	45.61	-30.9	-34.9	11.9	8.75e-04	0	44	0	862978048	21	5743
2026-01-29 00:40:57.07	216.39	45.31	-30.9	-34.6	11.8	5.13e-04	0	44	0	865075200	22	5479
2026-01-29 00:40:58.08	216.26	45.02	-30.8	-34.3	12.1	3.42e-04	0	43	0	866123776	22	5353
2026-01-29 00:40:59.08	216.14	44.72	-30.8	-34.7	12.0	8.81e-04	0	43	0	868220928	21	5648
2026-01-29 00:41:00.08	216.02	44.43	-30.7	-34.4	12.4	5.69e-04	0	43	0	870318080	21	5517
2026-01-29 00:41:01.08	215.90	44.15	-30.8	-34.7	12.1	2.04e-04	0	44	0	872415232	21	5643
2026-01-29 00:41:02.09	215.78	43.86	-31.1	-35.1	11.6	9.18e-04	0	44	0	874512384	22	5698
2026-01-29 00:41:03.09	215.66	43.57	-31.2	-35.4	11.3	1.65e-03	0	44	0	875560960	22	5857
2026-01-29 00:41:04.09	215.55	43.29	-31.4	-36.1	10.7	1.76e-03	0	44	0	877658112	22	6207
2026-01-29 00:41:05.10	215.44	43.01	-31.5	-36.0	10.5	4.16e-03	0	44	0	879755264	23	6015
2026-01-29 00:41:06.10	215.33	42.73	-31.6	-36.2	10.3	4.34e-03	0	44	0	881852416	23	6145
2026-01-29 00:41:07.10	215.22	42.46	-31.7	-36.5	10.0	6.62e-03	0	44	0	882900992	23	6291
2026-01-29 00:41:08.10	215.11	42.18	-31.5	-35.9	10.4	6.35e-03	0	43	0	884998144	23	6007
2026-01-29 00:41:09.11	215.01	41.91	-31.4	-36.2	10.7	4.45e-03	0	44	0	887095296	22	6231
2026-01-29 00:41:10.11	214.90	41.64	-31.2	-35.4	11.3	2.03e-03	0	44	0	889192448	22	5869
2026-01-29 00:41:11.11	214.80	41.37	-31.2	-35.5	11.2	1.32e-03	0	44	0	891289600	22	5897
2026-01-29 00:41:12.11	214.70	41.10	-31.0	-34.9	11.6	2.38e-03	0	44	0	892338176	22	5618
2026-01-29 00:41:13.11	214.61	40.84	-30.9	-35.2	11.7	2.17e-03	0	44	0	894435328	21	5869
2026-01-29 00:41:14.11	214.51	40.57	-30.9	-35.0	11.8	4.29e-04	0	44	0	896532480	21	5788
2026-01-29 00:41:15.12	214.42	40.31	-31.0	-34.8	11.7	2.11e-03	0	44	0	898629632	22	5566
2026-01-29 00:41:16.12	214.32	40.05	-31.0	-34.8	11.7	2.09e-03	0	44	0	900726784	22	5573
2026-01-29 00:41:17.12	214.23	39.79	-31.1	-35.1	11.5	7.08e-04	0	44	0	901775360	22	5715
2026-01-29 00:41:18.13	214.14	39.54	-31.2	-35.5	11.2	1.01e-03	0	44	0	903872512	22	5872
2026-01-29 00:41:19.13	214.06	39.28	-31.3	-35.7	11.1	3.06e-03	0	44	0	905969664	22	5985
2026-01-29 00:41:20.13	213.97	39.03	-31.4	-36.1	10.7	2.20e-03	0	44	0	908066816	22	6180
2026-01-29 00:41:21.13	213.88	38.78	-31.2	-35.3	11.3	1.72e-03	0	44	0	910163968	22	5827
2026-01-29 00:41:22.14	213.80	38.53	-31.1	-35.2	11.3	2.93e-03	0	44	0	911212544	22	5751
2026-01-29 00:41:23.14	213.72	38.28	-31.0	-34.9	11.6	9.38e-04	0	44	0	913309696	22	5625
2026-01-29 00:41:24.15	213.63	38.03	-30.9	-35.0	11.8	2.48e-03	0	44	0	915406848	21	5808
2026-01-29 00:41:25.15	213.55	37.79	-30.7	-34.4	12.3	3.13e-04	0	44	0	917504000	21	5504
2026-01-29 00:41:26.15	213.48	37.55	-30.5	-33.9	12.6	1.22e-04	0	44	0	919601152	21	5316
2026-01-29 00:41:27.16	213.40	37.31	-30.5	-33.9	12.6	1.40e-03	0	44	0	920649728	21	5313
2026-01-29 00:41:28.16	213.32	37.07	-30.7	-34.4	12.3	1.36e-04	0	44	0	922746880	21	5533
2026-01-29 00:41:29.16	213.25	36.83	-30.6	-34.2	12.4	1.72e-04	0	44	0	924844032	21	5421
2026-01-29 00:41:30.17	213.17	36.59	-30.8	-34.8	12.0	1.10e-03	0	43	0	926941184	21	5687
2026-01-29 00:41:31.17	213.10	36.36	-30.7	-34.5	12.2	7.57e-04	0	44	0	929038336	21	5556
2026-01-29 00:41:32.17	213.03	36.13	-30.7	-34.6	12.2	2.27e-04	0	44	0	930086912	21	5586
2026-01-29 00:41:33.18	212.95	35.90	-30.7	-34.4	12.3	3.26e-04	0	44	0	932184064	21	5512
2026-01-29 00:41:34.18	212.88	35.67	-30.6	-34.3	12.3	3.81e-04	0	44	0	934281216	21	5497
2026-01-29 00:41:35.18	212.82	35.44	-30.8	-34.7	12.1	2.51e-04	0	43	0	936378368	21	5652
2026-01-29 00:41:36.18	212.75	35.21	-30.8	-34.9	11.9	5.39e-04	0	44	0	937426944	21	5731
2026-01-29 00:41:37.19	212.68	34.99	-30.9	-35.2	11.7	6.58e-04	0	44	0	939524096	21	5872
2026-01-29 00:41:38.20	212.61	34.76	-31.0	-35.4	11.5	6.91e-04	0	43	0	941621248	21	5970
2026-01-29 00:41:39.19	212.55	34.55	-31.3	-35.8	10.9	2.08e-03	0	44	0	943718400	22	6065
2026-01-29 00:41:40.20	212.48	34.32	-31.4	-36.1	10.6	3.99e-03	0	44	0	945815552	22	6235
2026-01-29 00:41:41.20	212.42	34.11	-31.1	-35.3	11.2	2.39e-03	0	44	0	946864128	22	5820
2026-01-29 00:41:42.21	212.36	33.89	-30.9	-34.7	11.7	8.07e-04	0	44	0	948961280	22	5553
2026-01-29 00:41:43.21	212.30	33.67	-30.8	-34.4	11.9	9.65e-04	0	44	0	951058432	22	5427
2026-01-29 00:41:44.21	212.24	33.46	-30.7	-34.2	11.9	3.42e-04	0	44	0	953155584	22	5342
2026-01-29 00:41:45.21	212.18	33.25	-30.8	-34.8	11.9	8.29e-04	0	44	0	955252736	21	5734
2026-01-29 00:41:46.21	212.12	33.04	-30.9	-35.1	11.7	5.39e-04	0	44	0	956301312	21	5857
2026-01-29 00:41:47.21	212.06	32.83	-30.9	-35.0	11.7	4.98e-04	0	44	0	958398464	21	5828
2026-01-29 00:41:48.22	212.00	32.62	-30.9	-35.1	11.7	7.88e-04	0	44	0	960495616	21	5844
2026-01-29 00:41:49.22	211.94	32.41	-30.9	-35.1	11.6	6.23e-04	0	43	0	962592768	21	5857
2026-01-29 00:41:50.23	211.89	32.20	-30.9	-35.2	11.6	6.54e-04	0	44	0	964689920	21	5884
2026-01-29 00:41:51.23	211.83	32.00	-30.9	-35.3	11.5	1.09e-03	0	44	0	965738496	21	5960
2026-01-29 00:41:52.23	211.78	31.80	-31.1	-35.2	11.2	1.03e-03	0	44	0	967835648	22	5786
2026-01-29 00:41:53.24	211.72	31.60	-31.2	-35.8	10.8	2.14e-03	0	44	0	969932800	22	6071
2026-01-29 00:41:54.23	211.67	31.40	-31.3	-35.9	10.8	3.37e-03	0	44	0	972029952	22	6104
2026-01-29 00:41:55.24	211.62	31.20	-31.4	-36.3	10.5	4.72e-03	0	44	0	974127104	22	6304
2026-01-29 00:41:56.24	211.57	31.00	-31.4	-36.4	10.4	3.58e-03	0	44	0	975175680	22	6371
2026-01-29 00:41:57.24	211.52	30.81	-31.5	-36.5	10.3	5.15e-03	0	44	0	977272832	22	6457
2026-01-29 00:41:58.24	211.47	30.61	-31.5	-36.6	10.2	7.73e-03	0	44	0	979369984	22	6494
2026-01-29 00:41:59.24	211.42	30.42	-31.6	-36.4	9.9	7.92e-03	0	44	0	981467136	23	6308
2026-01-29 00:42:00.24	211.37	30.23	-31.6	-36.7	9.7	1.11e-02	0	44	0	982515712	23	6437
2026-01-29 00:42:01.25	211.32	30.03	-31.5	-36.4	10.0	1.09e-02	0	44	0	984612864	23	6294
2026-01-29 00:42:02.25	211.27	29.84	-31.5	-36.1	10.2	6.69e-03	0	44	0	986710016	23	6133
2026-01-29 00:42:03.25	211.22	29.66	-31.3	-36.1	10.5	4.63e-03	0	44	0	988807168	22	6254
2026-01-29 00:42:04.26	211.18	29.47	-31.3	-35.9	10.7	2.86e-03	0	44	0	990904320	22	6124
2026-01-29 00:42:05.26	211.13	29.28	-31.2	-35.7	10.8	2.52e-03	0	44	0	993001472	22	6041
2026-01-29 00:42:06.26	211.08	29.10	-31.2	-35.7	10.9	2.81e-03	0	44	0	994050048	22	6040
2026-01-29 00:42:07.27	211.04	28.91	-31.1	-35.4	11.1	1.75e-03	0	44	0	996147200	22	5899
2026-01-29 00:42:08.27	210.99	28.73	-31.2	-35.9	10.7	1.92e-03	0	44	0	998244352	22	6130
2026-01-29 00:42:09.28	210.95	28.55	-31.3	-36.1	10.6	4.09e-03	0	44	0	1000341504	22	6222
2026-01-29 00:42:10.28	210.91	28.37	-31.0	-35.7	10.8	2.20e-03	0	44	0	1001390080	21	6199
2026-01-29 00:42:11.28	210.86	28.19	-31.0	-35.5	11.1	1.33e-03	0	44	0	1003487232	21	6044
2026-01-29 00:42:12.28	210.82	28.01	-30.9	-35.2	11.5	3.37e-03	0	44	0	1005584384	21	5917
2026-01-29 00:42:13.28	210.78	27.83	-30.8	-34.9	11.4	6.56e-04	0	44	0	1007681536	21	5783
2026-01-29 00:42:14.28	210.74	27.66	-30.7	-34.6	11.8	4.54e-04	0	44	0	1009778688	21	5653
2026-01-29 00:42:15.28	210.70	27.49	-30.7	-34.6	11.9	3.64e-04	0	44	0	1010827264	21	5657
2026-01-29 00:42:16.28	210.66	27.31	-30.6	-34.4	12.0	2.01e-03	0	44	0	1012924416	21	5569
2026-01-29 00:42:17.29	210.62	27.14	-30.6	-34.2	12.2	2.39e-04	0	44	0	1015021568	21	5483
2026-01-29 00:42:18.29	210.58	26.97	-30.6	-34.2	12.2	2.55e-04	0	44	0	1017118720	21	5496
2026-01-29 00:42:19.29	210.54	26.80	-30.5	-34.2	12.2	2.06e-03	0	44	0	1019215872	21	5464
2026-01-29 00:42:20.29	210.50	26.63	-30.6	-34.5	12.0	3.25e-04	0	44	0	1020264448	21	5588
2026-01-29 00:42:21.30	210.46	26.46	-30.8	-34.9	11.7	5.42e-04	0	44	0	1022361600	21	5806
2026-01-29 00:42:22.30	210.42	26.29	-30.7	-34.6	11.9	4.89e-04	0	44	0	1024458752	21	5646
2026-01-29 00:42:23.30	210.39	26.13	-30.6	-34.5	12.0	1.79e-03	0	44	0	1026555904	21	5600
2026-01-29 00:42:24.30	210.35	25.96	-30.7	-34.5	11.9	3.49e-04	0	44	0	1027604480	21	5627
2026-01-29 00:42:25.30	210.31	25.80	-30.7	-34.6	11.9	4.01e-04	0	44	0	1029701632	21	5657
2026-01-29 00:42:26.31	210.28	25.63	-30.7	-34.6	11.9	3.68e-04	0	44	0	1031798784	21	5639
2026-01-29 00:42:27.32	210.24	25.47	-30.8	-34.9	11.7	5.65e-04	0	44	0	1033895936	21	5778
2026-01-29 00:42:28.32	210.21	25.31	-30.6	-34.3	12.1	4.03e-04	0	44	0	1035993088	21	5517
2026-01-29 00:42:29.32	210.17	25.15	-30.4	-34.2	12.4	1.88e-04	0	44	0	1038090240	20	5604
2026-01-29 00:42:30.32	210.14	24.99	-30.3	-34.1	12.6	1.20e-04	0	44	0	1039138816	20	5546
2026-01-29 00:42:31.32	210.10	24.83	-30.2	-33.8	12.8	7.17e-05	0	44	0	1041235968	20	5423
2026-01-29 00:42:32.32	210.07	24.67	-30.3	-33.9	12.7	8.85e-05	0	44	0	1043333120	20	5445
2026-01-29 00:42:33.32	210.03	24.52	-30.1	-33.4	13.0	4.50e-05	0	44	0	1045430272	20	5272
2026-01-29 00:42:34.33	210.00	24.36	-30.1	-33.4	13.0	7.17e-04	0	44	0	1046478848	20	5281
2026-01-29 00:42:35.33	209.97	24.21	-30.0	-33.2	13.1	4.19e-05	0	44	0	1048576000	20	5198
2026-01-29 00:42:36.34	209.94	24.05	-29.8	-32.7	13.5	2.13e-05	0	44	0	1050673152	20	4983
2026-01-29 00:42:37.35	209.90	23.90	-29.8	-32.9	13.7	5.73e-04	0	44	0	1052770304	19	5172
2026-01-29 00:42:38.35	209.87	23.75	-29.7	-32.8	13.8	5.35e-04	0	44	0	1054867456	19	5133
2026-01-29 00:42:39.35	209.84	23.60	-29.7	-32.8	13.7	3.80e-06	0	44	0	1055916032	19	5146
2026-01-29 00:42:40.36	209.81	23.44	-29.6	-32.5	14.0	4.81e-04	0	44	0	1058013184	19	5011
2026-01-29 00:42:41.36	209.78	23.29	-29.6	-32.5	13.8	4.98e-04	0	44	0	1060110336	19	5031
2026-01-29 00:42:42.36	209.75	23.15	-29.7	-32.7	13.8	1.50e-06	0	44	0	1062207488	19	5092
2026-01-29 00:42:43.37	209.72	23.00	-29.6	-32.5	14.0	4.22e-04	0	44	0	1064304640	19	5019
2026-01-29 00:42:44.37	209.69	22.85	-29.7	-32.7	13.8	4.39e-04	0	44	0	1065353216	19	5103
2026-01-29 00:42:45.38	209.66	22.70	-29.7	-32.9	13.7	3.00e-06	0	44	0	1067450368	19	5179
2026-01-29 00:42:46.39	209.63	22.56	-29.8	-33.0	13.6	3.00e-06	0	44	0	1069547520	19	5224
2026-01-29 00:42:47.39	209.60	22.41	-29.9	-33.2	13.5	7.29e-04	0	44	0	1071644672	19	5305
2026-01-29 00:42:48.40	209.57	22.27	-29.9	-33.4	13.4	1.14e-05	0	44	0	1073741824	19	5369
2026-01-29 00:42:49.40	209.54	22.13	-29.9	-33.4	13.3	4.28e-04	0	44	0	1074790400	19	5390
2026-01-29 00:42:50.40	209.52	21.98	-30.0	-33.5	13.3	7.78e-04	0	44	0	1076887552	19	5420
2026-01-29 00:42:51.41	209.49	21.84	-30.0	-33.1	13.1	2.28e-05	0	44	0	1078984704	20	5176
2026-01-29 00:42:52.41	209.46	21.70	-30.1	-33.4	12.9	4.52e-04	0	44	0	1081081856	20	5298
2026-01-29 00:42:53.41	209.43	21.56	-30.2	-33.8	12.6	6.46e-04	0	44	0	1083179008	20	5426
2026-01-29 00:42:54.41	209.41	21.42	-30.2	-33.9	12.6	6.68e-04	0	44	0	1084227584	20	5474
2026-01-29 00:42:55.41	209.38	21.29	-30.3	-34.2	12.4	4.68e-04	0	44	0	1086324736	20	5601
2026-01-29 00:42:56.41	209.35	21.15	-30.2	-33.9	12.6	4.29e-04	0	44	0	1088421888	20	5480
2026-01-29 00:42:57.42	209.33	21.01	-30.1	-33.6	12.8	6.56e-04	0	44	0	1090519040	20	5344
2026-01-29 00:42:58.42	209.30	20.87	-30.1	-33.4	12.9	3.63e-04	0	44	0	1092616192	20	5283
2026-01-29 00:42:59.42	209.28	20.74	-30.1	-33.5	12.8	3.55e-04	0	44	0	1093664768	20	5320
2026-01-29 00:43:00.42	209.25	20.61	-30.1	-33.5	12.8	5.77e-04	0	44	0	1095761920	20	5341
2026-01-29 00:43:01.43	209.22	20.47	-30.2	-33.7	12.7	3.36e-04	0	44	0	1097859072	20	5389
2026-01-29 00:43:02.43	209.20	20.34	-30.2	-33.7	12.6	3.46e-04	0	44	0	1099956224	20	5416
2026-01-29 00:43:03.43	209.18	20.21	-30.2	-33.9	12.5	1.01e-04	0	44	0	1101004800	20	5486
2026-01-29 00:43:04.44	209.15	20.07	-30.2	-33.8	12.6	1.11e-04	0	44	0	1103101952	20	5447
2026-01-29 00:43:05.44	209.13	19.94	-30.2	-33.9	12.5	8.12e-04	0	44	0	1105199104	20	5480
2026-01-29 00:43:06.44	209.10	19.81	-30.3	-33.9	12.5	1.30e-04	0	44	0	1107296256	20	5499
2026-01-29 00:43:07.45	209.08	19.68	-30.2	-33.8	12.6	8.85e-05	0	44	0	1109393408	20	5455
2026-01-29 00:43:08.45	209.06	19.55	-30.3	-34.1	12.4	1.08e-03	0	44	0	1110441984	20	5564
2026-01-29 00:43:09.46	209.03	19.42	-30.4	-34.3	12.2	2.50e-04	0	44	0	1112539136	20	5671
2026-01-29 00:43:10.47	209.01	19.29	-30.2	-33.8	12.6	1.16e-04	0	44	0	1114636288	20	5430
2026-01-29 00:43:11.47	208.99	19.17	-30.2	-33.9	12.5	7.52e-04	0	44	0	1116733440	20	5490
2026-01-29 00:43:12.46	208.96	19.04	-30.2	-33.8	12.6	8.25e-04	0	44	0	1118830592	20	5441
2026-01-29 00:43:13.46	208.94	18.92	-30.2	-33.8	12.6	1.78e-04	0	44	0	1119879168	20	5431
2026-01-29 00:43:14.46	208.92	18.79	-30.2	-33.9	12.4	9.22e-04	0	44	0	1121976320	20	5498
2026-01-29 00:43:15.46	208.90	18.67	-30.2	-33.9	12.4	1.14e-03	0	44	0	1124073472	20	5509
2026-01-29 00:43:16.46	208.88	18.54	-30.2	-33.9	12.5	1.49e-04	0	44	0	1126170624	20	5490
2026-01-29 00:43:17.47	208.85	18.42	-30.4	-34.4	12.1	1.26e-03	0	44	0	1128267776	20	5731
2026-01-29 00:43:18.47	208.83	18.30	-30.4	-34.0	12.0	1.32e-03	0	44	0	1129316352	21	5432
2026-01-29 00:43:19.48	208.81	18.17	-30.4	-34.0	12.0	3.39e-04	0	44	0	1131413504	21	5438
2026-01-29 00:43:20.49	208.79	18.05	-30.4	-34.0	12.0	3.04e-04	0	44	0	1133510656	21	5436
2026-01-29 00:43:21.49	208.77	17.93	-30.5	-34.7	11.9	1.17e-03	0	44	0	1135607808	20	5837
2026-01-29 00:43:22.49	208.75	17.81	-30.4	-34.6	11.9	4.40e-04	0	44	0	1137704960	20	5832
2026-01-29 00:43:23.49	208.73	17.69	-30.4	-34.6	11.9	1.14e-03	0	44	0	1138753536	20	5815
2026-01-29 00:43:24.48	208.71	17.57	-30.4	-34.4	12.0	1.34e-03	0	44	0	1140850688	20	5745
2026-01-29 00:43:25.48	208.69	17.46	-30.5	-34.7	11.8	3.93e-04	0	44	0	1142947840	20	5865
2026-01-29 00:43:26.49	208.67	17.34	-30.5	-34.3	11.7	1.27e-03	0	44	0	1145044992	21	5594
2026-01-29 00:43:27.49	208.65	17.22	-30.4	-34.7	11.8	4.57e-04	0	44	0	1146093568	20	5846
2026-01-29 00:43:28.49	208.63	17.10	-30.4	-34.6	11.8	4.41e-04	0	44	0	1148190720	20	5834
2026-01-29 00:43:29.50	208.61	16.99	-30.4	-34.6	11.8	9.97e-04	0	44	0	1150287872	20	5844
2026-01-29 00:43:30.50	208.59	16.87	-30.5	-34.3	11.7	5.32e-04	0	44	0	1152385024	21	5601
2026-01-29 00:43:31.50	208.57	16.75	-30.7	-35.1	11.1	1.21e-03	0	44	0	1154482176	21	5960
2026-01-29 00:43:32.50	208.55	16.64	-30.8	-35.2	11.0	2.69e-03	0	44	0	1156579328	21	6010
2026-01-29 00:43:33.50	208.53	16.53	-30.8	-35.4	10.9	2.54e-03	0	44	0	1157627904	21	6095
2026-01-29 00:43:34.51	208.52	16.41	-30.8	-35.5	10.8	2.44e-03	0	44	0	1159725056	21	6131
2026-01-29 00:43:35.51	208.50	16.30	-30.8	-35.3	10.9	2.62e-03	0	44	0	1161822208	21	6036
2026-01-29 00:43:36.52	208.48	16.19	-30.8	-35.4	10.8	2.56e-03	0	44	0	1163919360	21	6118
2026-01-29 00:43:37.52	208.46	16.07	-30.8	-35.3	10.9	2.29e-03	0	44	0	1164967936	21	6051
2026-01-29 00:43:38.53	208.44	15.96	-30.9	-35.6	10.7	2.21e-03	0	44	0	1167065088	21	6199
2026-01-29 00:43:39.53	208.43	15.85	-31.0	-35.3	10.5	5.32e-03	0	44	0	1169162240	22	5958
2026-01-29 00:43:40.54	208.41	15.74	-30.7	-34.4	11.2	2.63e-03	0	44	0	1171259392	22	5522
2026-01-29 00:43:41.54	208.39	15.63	-30.5	-34.4	11.6	8.76e-04	0	44	0	1173356544	21	5632
2026-01-29 00:43:42.54	208.37	15.52	-30.5	-34.4	11.5	1.05e-03	0	44	0	1174405120	21	5651
2026-01-29 00:43:43.54	208.36	15.41	-30.5	-34.5	11.5	1.17e-03	0	44	0	1176502272	21	5688
2026-01-29 00:43:44.55	208.34	15.30	-30.5	-34.4	11.6	7.33e-04	0	44	0	1178599424	21	5629
2026-01-29 00:43:45.55	208.32	15.19	-30.6	-34.6	11.4	8.67e-04	0	44	0	1180696576	21	5740
2026-01-29 00:43:46.55	208.30	15.09	-30.6	-34.8	11.3	1.25e-03	0	44	0	1182793728	21	5796
2026-01-29 00:43:47.55	208.29	14.98	-30.6	-34.9	11.2	1.14e-03	0	44	0	1183842304	21	5843
2026-01-29 00:43:48.55	208.27	14.87	-30.6	-34.8	11.2	1.41e-03	0	44	0	1185939456	21	5796
2026-01-29 00:43:49.55	208.26	14.77	-30.6	-34.7	11.3	1.28e-03	0	44	0	1188036608	21	5790
2026-01-29 00:43:50.56	208.24	14.66	-30.6	-34.8	11.3	1.98e-03	0	43	0	1190133760	21	5806
2026-01-29 00:43:51.56	208.22	14.55	-30.8	-35.2	10.9	1.92e-03	0	44	0	1192230912	21	6022
2026-01-29 00:43:52.57	208.21	14.45	-30.7	-35.2	10.9	2.74e-03	0	43	0	1193279488	21	6002
2026-01-29 00:43:53.57	208.19	14.34	-30.7	-34.9	11.1	2.66e-03	0	43	0	1195376640	21	5890
2026-01-29 00:43:54.57	208.18	14.24	-30.6	-34.8	11.2	1.42e-03	0	44	0	1197473792	21	5809
2026-01-29 00:43:55.58	208.16	14.14	-30.6	-34.7	11.2	1.14e-03	0	44	0	1199570944	21	5794
2026-01-29 00:43:56.58	208.15	14.03	-30.7	-34.9	11.1	1.43e-03	0	44	0	1201668096	21	5898
2026-01-29 00:43:57.59	208.13	13.93	-30.7	-35.0	11.0	2.50e-03	0	44	0	1202716672	21	5931
2026-01-29 00:43:58.59	208.11	13.83	-30.6	-34.9	11.1	1.71e-03	0	44	0	1204813824	21	5889
2026-01-29 00:43:59.59	208.10	13.73	-30.7	-35.1	11.0	1.98e-03	0	44	0	1206910976	21	5968
2026-01-29 00:44:00.59	208.09	13.63	-30.7	-35.0	11.0	2.05e-03	0	44	0	1209008128	21	5936
2026-01-29 00:44:01.60	208.07	13.52	-30.7	-35.2	10.8	2.52e-03	0	44	0	1210056704	21	6056
2026-01-29 00:44:02.60	208.06	13.42	-30.7	-35.2	10.8	2.95e-03	0	44	0	1212153856	21	6040
2026-01-29 00:44:03.60	208.04	13.32	-30.7	-35.3	10.7	2.18e-03	0	44	0	1214251008	21	6088
2026-01-29 00:44:04.61	208.03	13.22	-30.7	-35.2	10.8	3.13e-03	0	44	0	1216348160	21	6041
2026-01-29 00:44:05.61	208.01	13.12	-30.6	-34.7	11.1	2.01e-03	0	44	0	1218445312	21	5812
2026-01-29 00:44:06.61	208.00	13.02	-30.5	-34.5	11.3	1.24e-03	0	44	0	1220542464	21	5720
2026-01-29 00:44:07.62	207.98	12.93	-30.5	-34.7	11.2	1.25e-03	0	44	0	1221591040	21	5784
2026-01-29 00:44:08.62	207.97	12.83	-30.5	-34.5	11.3	1.28e-03	0	44	0	1223688192	21	5712
2026-01-29 00:44:09.62	207.96	12.73	-30.5	-34.9	11.3	1.13e-03	0	44	0	1225785344	20	6019
2026-01-29 00:44:10.63	207.94	12.63	-30.6	-34.9	11.0	1.36e-03	0	44	0	1227882496	21	5879
2026-01-29 00:44:11.63	207.93	12.54	-30.6	-34.8	11.1	1.87e-03	0	44	0	1228931072	21	5839
2026-01-29 00:44:12.63	207.92	12.44	-30.5	-34.5	11.3	1.48e-03	0	44	0	1231028224	21	5695
2026-01-29 00:44:13.63	207.90	12.34	-30.4	-34.3	11.5	1.01e-03	0	44	0	1233125376	21	5608
2026-01-29 00:44:14.63	207.89	12.25	-30.4	-34.8	11.5	9.08e-04	0	44	0	1235222528	20	5940
2026-01-29 00:44:15.63	207.88	12.15	-30.5	-35.0	11.3	1.24e-03	0	44	0	1237319680	20	6034
2026-01-29 00:44:16.64	207.86	12.06	-30.5	-34.7	11.1	1.63e-03	0	44	0	1238368256	21	5795
2026-01-29 00:44:17.64	207.85	11.96	-30.5	-34.5	11.2	1.63e-03	0	44	0	1240465408	21	5734
2026-01-29 00:44:18.63	207.84	11.87	-30.5	-34.5	11.3	1.32e-03	0	44	0	1242562560	21	5696
2026-01-29 00:44:19.63	207.82	11.77	-30.5	-34.5	11.2	1.59e-03	0	44	0	1244659712	21	5719
2026-01-29 00:44:20.64	207.81	11.68	-30.5	-34.4	11.2	1.27e-03	0	44	0	1246756864	21	5703
2026-01-29 00:44:21.64	207.80	11.59	-30.5	-34.5	11.2	1.49e-03	0	44	0	1247805440	21	5720
2026-01-29 00:44:22.64	207.79	11.49	-30.5	-34.6	11.1	1.29e-03	0	44	0	1249902592	21	5762
2026-01-29 00:44:23.64	207.77	11.40	-30.5	-34.6	11.1	1.83e-03	0	44	0	1251999744	21	5751
2026-01-29 00:44:24.65	207.76	11.31	-30.5	-34.7	11.0	1.23e-03	0	44	0	1254096896	21	5808
2026-01-29 00:44:25.66	207.75	11.22	-30.7	-35.1	10.7	2.39e-03	0	44	0	1256194048	21	6019
2026-01-29 00:44:26.66	207.74	11.12	-30.6	-35.1	10.7	3.39e-03	0	44	0	1257242624	21	6014
2026-01-29 00:44:27.67	207.73	11.03	-30.5	-34.7	11.0	2.55e-03	0	44	0	1259339776	21	5837
2026-01-29 00:44:28.67	207.71	10.94	-30.4	-34.9	11.2	2.14e-03	0	44	0	1261436928	20	6021
2026-01-29 00:44:29.67	207.70	10.85	-30.5	-35.1	11.1	1.28e-03	0	44	0	1263534080	20	6103
2026-01-29 00:44:30.67	207.69	10.76	-30.4	-34.9	11.2	1.53e-03	0	44	0	1265631232	20	6036
2026-01-29 00:44:31.67	207.68	10.67	-30.5	-34.8	10.9	1.62e-03	0	44	0	1266679808	21	5850
2026-01-29 00:44:32.67	207.67	10.58	-30.7	-35.3	10.5	3.41e-03	0	44	0	1268776960	21	6114
2026-01-29 00:44:33.68	207.66	10.49	-30.6	-35.0	10.7	4.29e-03	0	44	0	1270874112	21	5998
2026-01-29 00:44:34.69	207.64	10.40	-30.5	-34.8	10.9	2.38e-03	0	44	0	1272971264	21	5859
2026-01-29 00:44:35.69	207.63	10.31	-30.5	-35.0	11.1	2.98e-03	0	44	0	1274019840	20	6091
2026-01-29 00:44:36.69	207.62	10.23	-30.5	-35.0	11.1	1.49e-03	0	44	0	1276116992	20	6093
2026-01-29 00:44:37.69	207.61	10.14	-30.5	-34.7	10.9	1.98e-03	0	44	0	1278214144	21	5823
2026-01-29 00:44:38.70	207.60	10.05	-30.4	-34.9	11.2	2.61e-03	0	44	0	1280311296	20	6015
2026-01-29 00:44:39.70	207.59	9.96	-30.5	-35.1	11.0	1.54e-03	0	44	0	1282408448	20	6115
2026-01-29 00:44:40.71	207.58	9.88	-30.4	-35.0	11.1	1.83e-03	0	44	0	1283457024	20	6084
2026-01-29 00:44:41.71	207.57	9.79	-30.5	-35.1	11.0	1.82e-03	0	44	0	1285554176	20	6133
2026-01-29 00:44:42.72	207.56	9.70	-30.6	-35.0	10.7	2.59e-03	0	44	0	1287651328	21	5988
