passes_logs/2026/01/29/R2M6_AANII_01/R2M6_AANII_01__20260129_030858_AQUA_rec.log

#Pass ID: 20260129_030858_AQUA
#Satellite: AQUA
#Configuration: AQUA
#almurnet v.1.7.20240730
#Start time: 2026-01-29 03:12:14

#Version: 2.2.20231116
#Station: R2M6_AANII_01
#Location: 30.233357 lon 59.946436 lat
#TLE: 1 27424U 02022A   26027.88561574  .00001798  00000+0  36942-3 0  9997
#TLE: 2 27424  98.4102 354.5311 0001840  63.5604 322.5877 14.61868111262779

#Time	Az	El	Level	Level2	SNR	BER	BlckErr	Temp	State	Recorded	gain1	gain2
2026-01-29 03:12:14.22	341.31	26.80	-33.9	-46.1	3.8	1.49e+00	0	44	0	0	27	14702
2026-01-29 03:12:15.21	341.03	26.92	-34.6	-54.2	3.8	7.45e-01	0	44	104	0	29	34336
2026-01-29 03:12:16.22	340.73	27.04	-34.6	-54.2	3.8	7.44e-01	0	44	104	0	29	34504
2026-01-29 03:12:17.22	340.44	27.16	-34.6	-53.8	3.8	7.44e-01	0	44	104	0	30	32719
2026-01-29 03:12:18.23	340.14	27.28	-34.6	-53.8	3.8	7.46e-01	0	44	104	0	30	32697
2026-01-29 03:12:19.24	339.84	27.40	-34.6	-54.2	3.7	7.45e-01	0	44	104	0	29	34573
2026-01-29 03:12:20.24	339.54	27.52	-34.6	-53.8	3.8	7.47e-01	0	44	104	0	30	32709
2026-01-29 03:12:21.25	339.24	27.64	-34.6	-53.8	3.8	7.43e-01	0	44	104	0	30	32775
2026-01-29 03:12:22.25	338.93	27.76	-34.5	-54.1	3.8	7.43e-01	0	44	104	0	29	34476
2026-01-29 03:12:23.26	338.62	27.88	-34.5	-54.1	3.8	7.44e-01	0	44	104	0	29	34482
2026-01-29 03:12:24.26	338.31	28.00	-34.5	-54.1	3.8	7.43e-01	0	44	104	0	29	34366
2026-01-29 03:12:25.27	338.00	28.12	-34.5	-54.1	3.8	7.47e-01	0	44	104	0	29	34361
2026-01-29 03:12:26.26	337.69	28.23	-34.5	-54.1	3.8	7.44e-01	0	44	104	0	29	34316
2026-01-29 03:12:27.27	337.36	28.35	-34.5	-54.0	3.8	7.47e-01	0	44	104	0	29	34240
2026-01-29 03:12:28.27	337.05	28.47	-34.5	-54.0	3.8	7.43e-01	0	44	104	0	29	34237
2026-01-29 03:12:29.27	336.72	28.59	-34.5	-54.1	3.8	7.48e-01	0	44	104	0	29	34465
2026-01-29 03:12:30.28	336.40	28.70	-34.6	-54.2	3.8	7.47e-01	0	44	104	0	29	34438
2026-01-29 03:12:31.28	336.07	28.82	-34.5	-54.1	3.8	7.43e-01	0	44	104	0	29	34380
2026-01-29 03:12:32.28	335.74	28.93	-34.5	-54.1	3.8	7.48e-01	0	44	104	0	29	34348
2026-01-29 03:12:33.28	335.41	29.05	-34.5	-54.1	3.8	7.43e-01	0	44	104	0	29	34355
2026-01-29 03:12:34.29	335.07	29.16	-34.5	-54.1	3.8	7.44e-01	0	44	104	0	29	34278
2026-01-29 03:12:35.29	334.73	29.27	-34.5	-54.1	3.8	7.45e-01	0	44	104	0	29	34212
2026-01-29 03:12:36.30	334.39	29.39	-34.5	-54.0	3.8	7.47e-01	0	44	104	0	29	34003
2026-01-29 03:12:37.30	334.05	29.50	-34.5	-53.9	3.8	7.45e-01	0	44	104	0	29	33696
2026-01-29 03:12:38.31	333.70	29.61	-34.5	-53.8	3.8	7.43e-01	0	44	104	0	29	33445
2026-01-29 03:12:39.32	333.35	29.72	-34.4	-53.8	3.8	7.46e-01	0	44	104	0	29	33558
2026-01-29 03:12:40.32	333.00	29.83	-34.4	-53.5	3.8	7.44e-01	0	44	104	0	29	32422
2026-01-29 03:12:41.32	332.65	29.94	-34.4	-53.5	3.8	7.44e-01	0	44	104	0	29	32497
2026-01-29 03:12:42.32	332.30	30.05	-34.3	-53.4	3.8	7.47e-01	0	44	104	0	29	32511
2026-01-29 03:12:43.33	331.94	30.16	-34.3	-53.4	3.8	7.46e-01	0	44	104	0	29	32595
2026-01-29 03:12:44.33	331.58	30.27	-34.3	-53.4	3.8	7.44e-01	0	44	104	0	29	32514
2026-01-29 03:12:45.33	331.22	30.37	-34.3	-53.2	3.8	7.44e-01	0	44	104	0	29	31844
2026-01-29 03:12:46.33	330.85	30.48	-34.3	-52.9	3.8	7.42e-01	0	44	104	0	29	30673
2026-01-29 03:12:47.33	330.49	30.58	-34.3	-52.5	3.8	7.43e-01	0	44	104	0	29	29295
2026-01-29 03:12:48.34	330.11	30.69	-34.3	-52.0	3.8	7.44e-01	0	44	104	0	29	27788
2026-01-29 03:12:49.34	329.74	30.79	-34.3	-51.9	3.8	7.45e-01	0	44	104	0	29	27417
2026-01-29 03:12:50.35	329.37	30.89	-34.2	-52.1	3.8	7.42e-01	0	44	104	0	29	27995
2026-01-29 03:12:51.35	328.99	30.99	-34.3	-52.5	3.8	7.45e-01	0	44	104	0	29	29372
2026-01-29 03:12:52.36	328.61	31.09	-34.3	-52.8	3.8	7.41e-01	0	44	104	0	29	30546
2026-01-29 03:12:53.36	328.23	31.19	-34.2	-52.4	3.8	7.43e-01	0	44	104	0	29	29015
2026-01-29 03:12:54.37	327.84	31.29	-34.2	-51.1	3.8	7.43e-01	0	44	104	0	29	25299
2026-01-29 03:12:55.37	327.45	31.39	-34.2	-49.9	3.9	7.44e-01	0	44	104	0	29	22123
2026-01-29 03:12:56.38	327.06	31.48	-34.1	-49.5	4.0	7.40e-01	0	44	104	0	29	21028
2026-01-29 03:12:57.39	326.67	31.58	-34.2	-49.8	3.9	7.42e-01	0	44	104	0	29	21681
2026-01-29 03:12:58.39	326.27	31.67	-34.2	-51.0	3.9	7.45e-01	0	44	104	0	29	24793
2026-01-29 03:12:59.39	325.88	31.76	-34.2	-51.8	3.8	7.44e-01	0	44	104	0	29	27374
2026-01-29 03:13:00.40	325.48	31.85	-34.2	-52.9	3.8	7.43e-01	0	44	104	0	29	30989
2026-01-29 03:13:01.40	325.07	31.94	-34.3	-53.5	3.8	7.47e-01	0	44	104	0	29	33032
2026-01-29 03:13:02.40	324.67	32.03	-34.2	-53.5	3.8	7.44e-01	0	44	104	0	29	32947
2026-01-29 03:13:03.41	324.26	32.12	-34.2	-52.9	3.8	7.45e-01	0	44	104	0	29	30730
2026-01-29 03:13:04.41	323.86	32.20	-34.2	-50.9	3.9	7.42e-01	0	44	104	0	29	24619
2026-01-29 03:13:05.42	323.44	32.29	-34.2	-51.1	3.8	7.43e-01	0	44	104	0	29	25355
2026-01-29 03:13:06.42	323.03	32.37	-34.0	-46.6	5.5	6.92e-01	0	44	104	0	29	15297
2026-01-29 03:13:07.42	322.62	32.45	-33.1	-39.6	12.0	6.12e-01	0	44	0	524288	28	7609
2026-01-29 03:13:08.42	322.20	32.53	-32.2	-36.5	15.4	6.06e-01	0	44	0	2621440	26	5923
2026-01-29 03:13:09.42	321.79	32.61	-31.8	-35.9	16.2	6.03e-01	0	44	0	4194304	25	5769
2026-01-29 03:13:10.43	321.36	32.69	-31.9	-36.5	16.2	6.04e-01	0	44	0	6291456	24	6118
2026-01-29 03:13:11.43	320.94	32.76	-31.8	-36.3	16.4	6.04e-01	0	44	0	8388608	24	6017
2026-01-29 03:13:12.43	320.52	32.84	-31.8	-36.3	16.4	6.04e-01	0	44	0	9961472	24	6013
2026-01-29 03:13:13.43	320.09	32.91	-31.9	-36.6	16.1	6.02e-01	0	44	0	12058624	24	6162
2026-01-29 03:13:14.44	319.66	32.98	-32.0	-36.7	16.1	6.05e-01	0	44	0	13631488	24	6252
2026-01-29 03:13:15.45	319.22	33.05	-31.6	-35.7	16.7	6.02e-01	0	44	0	15728640	24	5735
2026-01-29 03:13:16.45	318.79	33.12	-31.1	-34.5	17.9	6.04e-01	0	44	0	17301504	23	5358
2026-01-29 03:13:17.46	318.35	33.19	-30.6	-33.8	18.6	6.01e-01	0	44	0	19398656	22	5203
2026-01-29 03:13:18.47	317.91	33.25	-30.3	-32.8	19.3	6.03e-01	0	44	0	21495808	22	4823
2026-01-29 03:13:19.46	317.48	33.31	-29.8	-32.1	19.9	6.02e-01	0	44	0	23068672	21	4689
2026-01-29 03:13:20.46	317.04	33.37	-29.4	-31.7	20.5	6.01e-01	0	44	0	25165824	20	4684
2026-01-29 03:13:21.46	316.60	33.43	-29.3	-31.4	20.7	6.03e-01	0	44	0	26738688	20	4575
2026-01-29 03:13:22.46	316.16	33.49	-29.3	-31.9	20.7	6.02e-01	0	44	0	28835840	19	4861
2026-01-29 03:13:23.46	315.72	33.54	-29.4	-32.1	20.7	6.04e-01	0	44	0	30932992	19	4906
2026-01-29 03:13:24.47	315.27	33.60	-29.4	-32.1	20.7	6.06e-01	0	44	0	32505856	19	4906
2026-01-29 03:13:25.47	314.82	33.65	-29.5	-32.5	20.4	6.03e-01	0	44	0	34603008	19	5036
2026-01-29 03:13:26.47	314.37	33.70	-29.6	-32.5	20.4	6.04e-01	0	44	0	36175872	19	5054
2026-01-29 03:13:27.48	313.92	33.75	-29.4	-32.2	20.6	6.02e-01	0	44	0	38273024	19	4949
2026-01-29 03:13:28.49	313.46	33.80	-29.5	-32.3	20.5	6.03e-01	0	44	0	40370176	19	4997
2026-01-29 03:13:29.49	313.01	33.84	-29.6	-32.2	20.3	6.03e-01	0	44	0	41943040	20	4843
2026-01-29 03:13:30.49	312.55	33.88	-29.6	-32.1	20.3	6.03e-01	0	44	0	44040192	20	4795
2026-01-29 03:13:31.49	312.10	33.92	-29.9	-32.8	19.8	6.02e-01	0	44	0	45613056	20	5063
2026-01-29 03:13:32.49	311.64	33.96	-30.0	-32.6	19.6	6.05e-01	0	44	0	47710208	21	4859
2026-01-29 03:13:33.49	311.19	34.00	-29.7	-32.4	20.1	6.04e-01	0	44	0	49283072	20	4900
2026-01-29 03:13:34.50	310.72	34.03	-29.4	-31.5	20.7	6.01e-01	0	44	0	51380224	20	4619
2026-01-29 03:13:35.50	310.27	34.06	-29.4	-32.2	20.6	6.05e-01	0	44	0	53477376	19	4934
2026-01-29 03:13:36.50	309.80	34.10	-29.6	-32.3	20.2	6.07e-01	0	44	0	55050240	20	4859
2026-01-29 03:13:37.50	309.34	34.12	-29.6	-32.1	20.2	6.01e-01	0	44	0	57147392	20	4817
2026-01-29 03:13:38.51	308.88	34.15	-29.5	-32.3	20.5	6.04e-01	0	44	0	58720256	19	4974
2026-01-29 03:13:39.51	308.42	34.17	-29.6	-32.2	20.3	6.05e-01	0	44	0	60817408	20	4844
2026-01-29 03:13:40.52	307.95	34.20	-29.6	-32.1	20.3	6.04e-01	0	44	0	62914560	20	4801
2026-01-29 03:13:41.52	307.48	34.22	-29.5	-31.8	20.5	6.04e-01	0	44	0	64487424	20	4719
2026-01-29 03:13:42.52	307.02	34.24	-29.3	-31.4	20.7	6.02e-01	0	44	0	66584576	20	4594
2026-01-29 03:13:43.53	306.55	34.25	-29.6	-32.2	20.1	6.03e-01	0	44	0	68157440	20	4842
2026-01-29 03:13:44.54	306.08	34.27	-29.8	-32.7	19.9	6.02e-01	0	44	0	70254592	20	5002
2026-01-29 03:13:45.55	305.61	34.28	-29.8	-32.6	20.0	6.03e-01	0	44	0	72351744	20	4962
2026-01-29 03:13:46.55	305.14	34.29	-29.7	-32.5	20.2	6.05e-01	0	44	0	73924608	20	4936
2026-01-29 03:13:47.55	304.68	34.29	-29.5	-31.9	20.5	6.03e-01	0	44	0	76021760	20	4742
2026-01-29 03:13:48.56	304.21	34.30	-29.2	-31.2	20.8	6.04e-01	0	44	0	77594624	20	4519
2026-01-29 03:13:49.55	303.74	34.30	-28.0	-30.6	20.4	6.06e-01	0	44	0	79691776	19	4850
2026-01-29 03:13:50.56	303.27	34.30	-29.5	-32.4	19.9	6.04e-01	0	44	0	81264640	19	5006
2026-01-29 03:13:51.56	302.81	34.30	-29.9	-33.0	18.8	6.04e-01	0	44	0	83361792	20	5150
2026-01-29 03:13:52.56	302.34	34.30	-30.1	-33.0	18.6	6.08e-01	0	44	0	85458944	21	5033
2026-01-29 03:13:53.56	301.87	34.30	-29.9	-33.0	19.8	6.03e-01	0	44	0	87031808	20	5118
2026-01-29 03:13:54.57	301.40	34.29	-29.6	-32.1	18.9	6.08e-01	0	44	0	89128960	20	4807
2026-01-29 03:13:55.56	300.94	34.28	-29.4	-32.1	19.1	6.03e-01	0	44	0	90701824	19	4893
2026-01-29 03:13:56.57	300.47	34.27	-29.2	-31.6	21.0	6.03e-01	0	44	0	92798976	19	4743
2026-01-29 03:13:57.57	300.00	34.25	-29.1	-31.0	20.9	6.03e-01	0	44	0	94896128	20	4435
2026-01-29 03:13:58.58	299.53	34.24	-29.7	-32.4	20.0	6.04e-01	0	44	0	96468992	20	4891
2026-01-29 03:13:59.58	299.07	34.22	-30.1	-32.4	19.3	6.04e-01	0	44	0	98566144	22	4678
2026-01-29 03:14:00.59	298.60	34.20	-30.1	-33.0	19.3	6.06e-01	0	44	0	100139008	21	5013
2026-01-29 03:14:01.59	298.14	34.18	-30.1	-33.3	19.5	6.06e-01	0	44	0	102236160	20	5238
2026-01-29 03:14:02.60	297.67	34.15	-29.9	-33.0	19.8	6.05e-01	0	44	0	104333312	20	5126
2026-01-29 03:14:03.61	297.20	34.13	-30.0	-33.2	19.6	6.01e-01	0	44	0	105906176	20	5209
2026-01-29 03:14:04.61	296.74	34.10	-29.9	-32.8	19.8	6.04e-01	0	44	0	108003328	20	5056
2026-01-29 03:14:05.61	296.28	34.07	-29.9	-32.8	19.8	6.05e-01	0	44	0	109576192	20	5066
2026-01-29 03:14:06.61	295.82	34.04	-30.0	-33.2	19.6	6.01e-01	0	44	0	111673344	20	5217
2026-01-29 03:14:07.61	295.36	34.00	-30.3	-33.4	19.2	6.05e-01	0	44	0	113246208	21	5151
2026-01-29 03:14:08.61	294.90	33.97	-29.9	-32.3	19.9	6.01e-01	0	44	0	115343360	21	4771
2026-01-29 03:14:09.62	294.44	33.93	-29.4	-32.0	20.7	6.06e-01	0	44	0	117440512	19	4895
2026-01-29 03:14:10.61	293.99	33.89	-29.3	-31.8	20.8	6.05e-01	0	44	0	119013376	19	4808
2026-01-29 03:14:11.62	293.53	33.85	-29.5	-32.3	20.5	6.03e-01	0	44	0	121110528	19	4991
2026-01-29 03:14:12.62	293.08	33.80	-29.6	-32.1	20.2	6.02e-01	0	44	0	122683392	20	4832
2026-01-29 03:14:13.62	292.63	33.76	-29.3	-32.0	20.7	6.04e-01	0	44	0	124780544	19	4872
2026-01-29 03:14:14.63	292.17	33.71	-29.0	-31.0	21.3	6.05e-01	0	44	0	126877696	19	4551
2026-01-29 03:14:15.63	291.72	33.66	-29.2	-31.2	20.7	6.02e-01	0	44	0	128450560	20	4531
2026-01-29 03:14:16.63	291.28	33.61	-29.7	-32.4	19.9	6.03e-01	0	44	0	130547712	20	4903
2026-01-29 03:14:17.63	290.83	33.55	-29.8	-32.6	19.8	6.06e-01	0	44	0	132120576	20	4986
2026-01-29 03:14:18.64	290.38	33.50	-29.8	-32.8	19.7	6.02e-01	0	44	0	134217728	20	5078
2026-01-29 03:14:19.64	289.94	33.44	-29.8	-32.8	19.7	6.05e-01	0	44	0	135790592	20	5078
2026-01-29 03:14:20.65	289.49	33.38	-29.8	-32.6	20.0	6.02e-01	0	44	0	137887744	20	4978
2026-01-29 03:14:21.64	289.06	33.32	-29.3	-31.9	20.8	6.03e-01	0	44	0	139984896	19	4852
2026-01-29 03:14:22.65	288.61	33.26	-28.9	-30.9	21.2	6.05e-01	0	44	0	141557760	19	4520
2026-01-29 03:14:23.65	288.18	33.19	-29.0	-30.6	20.9	6.04e-01	0	44	0	143654912	20	4357
2026-01-29 03:14:24.66	287.74	33.13	-29.5	-32.0	20.1	6.05e-01	0	44	0	145227776	20	4789
2026-01-29 03:14:25.66	287.31	33.06	-29.8	-32.9	19.7	6.02e-01	0	44	0	147324928	20	5112
2026-01-29 03:14:26.67	286.87	32.99	-29.3	-31.8	20.7	6.03e-01	0	44	0	149422080	19	4836
2026-01-29 03:14:27.66	286.45	32.92	-29.0	-31.0	21.2	6.04e-01	0	44	0	150994944	19	4565
2026-01-29 03:14:28.66	286.02	32.85	-29.3	-31.4	20.5	6.03e-01	0	44	0	153092096	20	4580
2026-01-29 03:14:29.66	285.59	32.77	-29.6	-32.2	20.1	6.03e-01	0	44	0	154664960	20	4868
2026-01-29 03:14:30.66	285.17	32.70	-29.7	-32.6	19.9	6.02e-01	0	44	0	156762112	20	4991
2026-01-29 03:14:31.67	284.75	32.62	-29.7	-32.4	20.0	6.06e-01	0	44	0	158334976	20	4926
2026-01-29 03:14:32.67	284.33	32.54	-29.0	-30.7	20.9	6.05e-01	0	44	0	160432128	20	4368
2026-01-29 03:14:33.68	283.91	32.46	-29.5	-31.8	20.1	6.04e-01	0	44	0	162529280	20	4739
2026-01-29 03:14:34.68	283.49	32.38	-29.8	-32.8	19.8	6.02e-01	0	44	0	164102144	20	5062
2026-01-29 03:14:35.69	283.07	32.30	-29.1	-30.8	21.0	6.04e-01	0	44	0	166199296	20	4408
2026-01-29 03:14:36.69	282.66	32.21	-29.4	-31.7	20.3	6.03e-01	0	44	0	167772160	20	4684
2026-01-29 03:14:37.69	282.26	32.13	-29.8	-32.7	19.8	6.03e-01	0	44	0	169869312	20	5032
2026-01-29 03:14:38.70	281.85	32.04	-29.6	-32.1	20.1	6.05e-01	0	44	0	171966464	20	4818
2026-01-29 03:14:39.71	281.44	31.95	-29.6	-32.1	20.1	6.05e-01	0	44	0	173539328	20	4833
2026-01-29 03:14:40.71	281.04	31.86	-29.8	-32.6	19.8	6.03e-01	0	44	0	175636480	20	4989
2026-01-29 03:14:41.71	280.64	31.77	-29.6	-32.3	20.0	6.04e-01	0	44	0	177209344	20	4905
2026-01-29 03:14:42.72	280.24	31.68	-29.5	-32.4	20.3	6.03e-01	0	44	0	179306496	19	5034
2026-01-29 03:14:43.71	279.85	31.59	-29.6	-32.1	20.1	6.04e-01	0	44	0	181403648	20	4830
2026-01-29 03:14:44.71	279.45	31.49	-30.1	-33.1	19.2	6.03e-01	0	44	0	182976512	21	5052
2026-01-29 03:14:45.71	279.06	31.40	-29.7	-32.3	20.0	6.02e-01	0	44	0	185073664	20	4903
2026-01-29 03:14:46.72	278.67	31.30	-29.5	-31.9	20.2	6.04e-01	0	44	0	186646528	20	4743
2026-01-29 03:14:47.72	278.29	31.20	-29.8	-32.9	19.7	6.06e-01	0	44	0	188743680	20	5097
2026-01-29 03:14:48.73	277.90	31.10	-29.2	-31.3	20.5	6.04e-01	0	44	0	190840832	20	4549
2026-01-29 03:14:49.73	277.52	31.00	-29.6	-32.3	20.0	6.01e-01	0	44	0	192413696	20	4909
2026-01-29 03:14:50.73	277.14	30.90	-29.2	-31.3	20.6	6.05e-01	0	44	0	194510848	20	4550
2026-01-29 03:14:51.74	276.76	30.80	-29.7	-32.4	19.9	6.04e-01	0	44	0	196083712	20	4918
2026-01-29 03:14:52.75	276.39	30.70	-29.6	-32.3	19.9	6.06e-01	0	44	0	198180864	20	4892
2026-01-29 03:14:53.75	276.02	30.59	-29.5	-31.9	20.2	6.03e-01	0	44	0	199753728	20	4767
2026-01-29 03:14:54.76	275.65	30.49	-29.4	-32.2	20.4	6.03e-01	0	44	0	201850880	19	4964
2026-01-29 03:14:55.75	275.28	30.38	-29.3	-31.4	20.4	6.05e-01	0	44	0	203948032	20	4604
2026-01-29 03:14:56.76	274.92	30.28	-29.4	-32.3	20.4	6.03e-01	0	44	0	205520896	19	4983
2026-01-29 03:14:57.76	274.56	30.17	-29.4	-31.8	20.2	6.07e-01	0	44	0	207618048	20	4726
2026-01-29 03:14:58.76	274.20	30.06	-29.3	-31.8	20.6	6.03e-01	0	44	0	209190912	19	4840
2026-01-29 03:14:59.76	273.84	29.95	-29.8	-32.7	19.5	6.02e-01	0	44	0	211288064	20	5042
2026-01-29 03:15:00.76	273.49	29.84	-29.1	-31.4	20.8	6.02e-01	0	44	0	212860928	19	4708
2026-01-29 03:15:01.77	273.14	29.73	-29.8	-32.9	19.6	6.04e-01	0	44	0	214958080	20	5110
2026-01-29 03:15:02.76	272.79	29.62	-29.1	-31.0	20.7	6.02e-01	0	44	0	217055232	20	4458
2026-01-29 03:15:03.76	272.45	29.51	-30.0	-33.2	19.3	6.06e-01	0	44	0	218628096	20	5250
2026-01-29 03:15:04.77	272.10	29.40	-29.1	-31.0	20.7	6.03e-01	0	44	0	220725248	20	4467
2026-01-29 03:15:05.77	271.76	29.28	-29.8	-32.8	19.6	6.04e-01	0	44	0	222822400	20	5097
2026-01-29 03:15:06.78	271.42	29.17	-29.2	-31.3	20.4	6.04e-01	0	44	0	224395264	20	4560
2026-01-29 03:15:07.78	271.08	29.06	-29.6	-32.2	20.0	6.04e-01	0	44	0	226492416	20	4878
2026-01-29 03:15:08.79	270.74	28.94	-29.4	-31.8	20.1	6.05e-01	0	44	0	228065280	20	4749
2026-01-29 03:15:09.79	270.41	28.83	-29.2	-31.8	20.6	6.05e-01	0	44	0	230162432	19	4816
2026-01-29 03:15:10.79	270.09	28.71	-29.7	-32.6	19.8	6.02e-01	0	44	0	231735296	20	5022
2026-01-29 03:15:11.79	269.76	28.59	-29.5	-31.9	20.1	6.04e-01	0	44	0	233832448	20	4755
2026-01-29 03:15:12.79	269.44	28.48	-30.0	-33.4	19.3	6.01e-01	0	44	0	235929600	20	5298
2026-01-29 03:15:13.79	269.12	28.36	-30.0	-32.7	19.2	6.05e-01	0	44	0	237502464	21	4931
2026-01-29 03:15:14.80	268.79	28.24	-29.4	-31.2	20.3	6.01e-01	0	44	0	239599616	21	4420
2026-01-29 03:15:15.79	268.48	28.12	-29.7	-32.6	19.7	6.03e-01	0	44	0	241172480	20	5030
2026-01-29 03:15:16.80	268.16	28.01	-29.5	-32.0	19.8	6.03e-01	0	44	0	243269632	20	4813
2026-01-29 03:15:17.80	267.85	27.89	-29.6	-32.6	20.1	6.03e-01	0	44	0	244842496	19	5113
2026-01-29 03:15:18.81	267.54	27.77	-29.9	-33.0	19.4	6.03e-01	0	44	0	246939648	20	5173
2026-01-29 03:15:19.81	267.23	27.65	-29.6	-32.3	19.8	6.03e-01	0	44	0	249036800	20	4898
2026-01-29 03:15:20.81	266.93	27.53	-29.7	-32.4	19.8	6.04e-01	0	43	0	250609664	20	4928
2026-01-29 03:15:21.82	266.63	27.41	-30.3	-33.8	18.7	6.06e-01	0	44	0	252706816	21	5344
2026-01-29 03:15:22.82	266.33	27.29	-30.0	-32.9	19.0	6.04e-01	0	44	0	254279680	21	5012
2026-01-29 03:15:23.82	266.03	27.17	-29.8	-32.8	19.6	6.02e-01	0	44	0	256376832	20	5057
2026-01-29 03:15:24.82	265.73	27.04	-30.8	-34.4	17.9	6.04e-01	0	44	0	258473984	22	5498
2026-01-29 03:15:25.83	265.44	26.92	-29.8	-33.2	17.9	6.02e-01	0	44	0	260046848	22	5332
2026-01-29 03:15:26.83	265.15	26.80	-29.9	-32.5	19.4	6.05e-01	0	44	0	262144000	21	4845
2026-01-29 03:15:27.84	264.86	26.68	-30.1	-33.5	18.5	6.03e-01	0	44	0	263716864	20	5345
2026-01-29 03:15:28.84	264.57	26.56	-30.5	-34.3	17.0	6.06e-01	0	44	0	265814016	21	5564
2026-01-29 03:15:29.85	264.29	26.43	-29.7	-32.0	19.5	6.04e-01	0	44	0	267911168	21	4711
2026-01-29 03:15:30.86	264.00	26.31	-29.1	-31.5	18.1	6.03e-01	0	44	0	269484032	19	4733
2026-01-29 03:15:31.86	263.73	26.19	-29.6	-32.7	18.1	6.09e-01	0	44	0	271581184	19	5173
2026-01-29 03:15:32.86	263.45	26.07	-30.2	-33.5	18.8	6.04e-01	0	44	0	273154048	21	5247
2026-01-29 03:15:33.86	263.17	25.94	-29.7	-32.6	18.7	6.04e-01	0	44	0	275251200	20	5013
2026-01-29 03:15:34.86	262.90	25.82	-29.3	-32.1	19.8	6.03e-01	0	44	0	276824064	19	4935
2026-01-29 03:15:35.87	262.63	25.70	-29.4	-32.4	20.1	6.05e-01	0	44	0	278921216	19	5039
2026-01-29 03:15:36.87	262.36	25.58	-29.7	-32.6	19.5	6.02e-01	0	44	0	281018368	20	5025
2026-01-29 03:15:37.88	262.09	25.45	-29.6	-32.7	19.8	6.01e-01	0	44	0	282591232	19	5165
2026-01-29 03:15:38.88	261.83	25.33	-29.4	-32.3	20.0	6.03e-01	0	44	0	284688384	19	5001
2026-01-29 03:15:39.89	261.57	25.21	-29.5	-32.2	19.8	6.01e-01	0	44	0	286261248	20	4865
2026-01-29 03:15:40.90	261.31	25.08	-29.6	-32.4	19.7	6.01e-01	0	44	0	288358400	20	4939
2026-01-29 03:15:41.90	261.05	24.96	-29.7	-32.7	19.5	6.04e-01	0	44	0	290455552	20	5071
2026-01-29 03:15:42.90	260.79	24.84	-29.6	-32.4	19.6	6.03e-01	0	44	0	292028416	20	4966
2026-01-29 03:15:43.91	260.54	24.71	-29.4	-31.7	20.1	6.04e-01	0	44	0	294125568	20	4723
2026-01-29 03:15:44.91	260.29	24.59	-29.5	-32.5	19.9	6.02e-01	0	44	0	295698432	19	5104
2026-01-29 03:15:45.92	260.04	24.47	-29.5	-32.2	19.7	6.05e-01	0	44	0	297795584	20	4892
2026-01-29 03:15:46.92	259.79	24.34	-29.8	-32.9	19.4	6.04e-01	0	44	0	299892736	20	5133
2026-01-29 03:15:47.93	259.54	24.22	-29.7	-32.6	19.5	6.03e-01	0	44	0	301465600	20	5043
2026-01-29 03:15:48.93	259.30	24.10	-29.7	-32.6	19.5	6.04e-01	0	44	0	303562752	20	5041
2026-01-29 03:15:49.93	259.06	23.98	-29.8	-32.9	19.3	6.02e-01	0	44	0	305135616	20	5144
2026-01-29 03:15:50.93	258.82	23.85	-29.5	-32.1	19.8	6.05e-01	0	44	0	307232768	20	4843
2026-01-29 03:15:51.93	258.59	23.73	-29.6	-32.7	19.8	6.01e-01	0	44	0	309329920	19	5165
2026-01-29 03:15:52.93	258.35	23.61	-29.8	-32.9	19.4	6.04e-01	0	44	0	310902784	20	5136
2026-01-29 03:15:53.93	258.12	23.49	-29.8	-32.9	19.3	6.04e-01	0	44	0	312999936	20	5159
2026-01-29 03:15:54.93	257.89	23.37	-29.8	-32.9	19.3	6.03e-01	0	44	0	314572800	20	5133
2026-01-29 03:15:55.93	257.66	23.25	-29.9	-33.1	19.2	6.03e-01	0	44	0	316669952	20	5223
2026-01-29 03:15:56.93	257.43	23.12	-29.7	-32.7	19.4	6.04e-01	0	44	0	318242816	20	5071
2026-01-29 03:15:57.93	257.21	23.00	-29.6	-32.4	19.6	6.04e-01	0	44	0	320339968	20	4964
2026-01-29 03:15:58.94	256.98	22.88	-29.6	-32.3	19.7	6.03e-01	0	44	0	322437120	20	4935
2026-01-29 03:15:59.95	256.76	22.76	-29.6	-32.3	19.7	6.02e-01	0	44	0	324009984	20	4922
2026-01-29 03:16:00.95	256.54	22.64	-29.5	-32.6	19.9	6.05e-01	0	44	0	326107136	19	5133
2026-01-29 03:16:01.95	256.32	22.52	-29.5	-32.5	19.9	6.03e-01	0	44	0	327680000	19	5100
2026-01-29 03:16:02.96	256.10	22.40	-29.6	-32.8	19.7	6.03e-01	0	44	0	329777152	19	5213
2026-01-29 03:16:03.95	255.89	22.28	-29.5	-32.6	19.8	6.01e-01	0	44	0	331350016	19	5130
2026-01-29 03:16:04.95	255.68	22.16	-29.5	-32.5	19.9	6.06e-01	0	44	0	333447168	19	5098
2026-01-29 03:16:05.96	255.46	22.04	-29.5	-32.7	19.8	6.04e-01	0	44	0	335544320	19	5168
2026-01-29 03:16:06.97	255.25	21.92	-29.6	-32.4	19.6	6.05e-01	0	44	0	337117184	20	4961
2026-01-29 03:16:07.97	255.04	21.80	-29.8	-33.0	19.2	6.04e-01	0	44	0	339214336	20	5168
2026-01-29 03:16:08.97	254.84	21.68	-29.7	-32.6	19.4	6.00e-01	0	44	0	341311488	20	5044
2026-01-29 03:16:09.98	254.63	21.56	-29.7	-32.6	19.4	6.03e-01	0	44	0	342884352	20	5035
2026-01-29 03:16:10.98	254.43	21.44	-29.7	-32.7	19.3	6.02e-01	0	44	0	344981504	20	5068
2026-01-29 03:16:11.98	254.23	21.32	-29.5	-32.3	19.6	6.04e-01	0	44	0	346554368	20	4928
2026-01-29 03:16:12.99	254.03	21.20	-29.5	-32.7	19.7	6.02e-01	0	44	0	348651520	19	5186
2026-01-29 03:16:13.99	253.83	21.08	-29.6	-32.8	19.7	6.02e-01	0	44	0	350224384	19	5215
2026-01-29 03:16:15.00	253.63	20.96	-29.5	-32.8	19.7	6.03e-01	0	44	0	352321536	19	5211
2026-01-29 03:16:16.00	253.44	20.85	-29.5	-32.5	19.8	6.06e-01	0	44	0	354418688	19	5116
2026-01-29 03:16:17.01	253.24	20.73	-29.5	-32.6	19.8	6.02e-01	0	44	0	355991552	19	5162
2026-01-29 03:16:18.01	253.05	20.61	-29.5	-32.7	19.7	6.04e-01	0	44	0	358088704	19	5186
2026-01-29 03:16:19.01	252.86	20.50	-29.4	-32.4	19.9	6.02e-01	0	44	0	359661568	19	5075
2026-01-29 03:16:20.02	252.67	20.38	-29.4	-32.4	19.9	6.04e-01	0	44	0	361758720	19	5081
2026-01-29 03:16:21.02	252.48	20.26	-29.3	-32.2	20.0	6.04e-01	0	44	0	363855872	19	5011
2026-01-29 03:16:22.03	252.30	20.14	-29.3	-32.2	20.0	6.02e-01	0	44	0	365428736	19	5014
2026-01-29 03:16:23.04	252.11	20.03	-29.5	-32.6	19.8	6.04e-01	0	44	0	367525888	19	5151
2026-01-29 03:16:24.04	251.93	19.91	-29.4	-32.4	19.8	6.03e-01	0	44	0	369098752	19	5074
2026-01-29 03:16:25.04	251.75	19.80	-29.6	-32.9	19.6	6.05e-01	0	44	0	371195904	19	5249
2026-01-29 03:16:26.04	251.57	19.68	-29.4	-32.5	19.8	6.04e-01	0	44	0	373293056	19	5115
2026-01-29 03:16:27.05	251.39	19.57	-29.4	-32.4	19.8	6.03e-01	0	44	0	374865920	19	5075
2026-01-29 03:16:28.05	251.21	19.45	-29.5	-32.6	19.7	6.06e-01	0	44	0	376963072	19	5166
2026-01-29 03:16:29.05	251.04	19.34	-29.4	-32.4	19.8	6.03e-01	0	44	0	378535936	19	5099
2026-01-29 03:16:30.05	250.86	19.23	-29.4	-32.4	19.8	6.02e-01	0	44	0	380633088	19	5068
2026-01-29 03:16:31.06	250.69	19.11	-29.4	-32.4	19.8	6.04e-01	0	44	0	382205952	19	5074
2026-01-29 03:16:32.06	250.52	19.00	-29.6	-32.8	19.6	6.06e-01	0	44	0	384303104	19	5241
2026-01-29 03:16:33.07	250.35	18.89	-29.4	-32.3	19.9	6.02e-01	0	44	0	386400256	19	5046
2026-01-29 03:16:34.06	250.18	18.78	-29.3	-32.3	19.9	6.04e-01	0	44	0	387973120	19	5044
2026-01-29 03:16:35.06	250.01	18.66	-29.4	-32.5	19.8	6.06e-01	0	44	0	390070272	19	5120
2026-01-29 03:16:36.06	249.85	18.55	-29.5	-32.6	19.7	6.02e-01	0	44	0	391643136	19	5163
2026-01-29 03:16:37.06	249.68	18.44	-29.5	-32.7	19.6	6.03e-01	0	44	0	393740288	19	5218
2026-01-29 03:16:38.06	249.52	18.33	-29.4	-32.4	19.8	6.02e-01	0	44	0	395313152	19	5079
2026-01-29 03:16:39.07	249.36	18.22	-29.3	-32.1	19.9	6.03e-01	0	44	0	397410304	19	4997
2026-01-29 03:16:40.08	249.20	18.11	-29.4	-32.4	19.8	6.04e-01	0	44	0	399507456	19	5084
2026-01-29 03:16:41.07	249.04	18.00	-29.3	-32.1	19.9	6.01e-01	0	44	0	401080320	19	4995
2026-01-29 03:16:42.08	248.88	17.89	-29.3	-32.3	19.8	6.03e-01	0	44	0	403177472	19	5059
2026-01-29 03:16:43.08	248.72	17.78	-29.4	-32.4	19.7	6.04e-01	0	44	0	405274624	19	5079
2026-01-29 03:16:44.08	248.57	17.67	-29.2	-32.0	19.9	6.03e-01	0	44	0	406847488	19	4944
2026-01-29 03:16:45.08	248.41	17.56	-29.1	-31.8	20.0	6.04e-01	0	44	0	408944640	19	4864
2026-01-29 03:16:46.08	248.26	17.45	-29.2	-32.0	19.9	6.03e-01	0	44	0	410517504	19	4953
2026-01-29 03:16:47.08	248.11	17.35	-29.2	-32.0	19.9	6.05e-01	0	44	0	412614656	19	4963
2026-01-29 03:16:48.08	247.95	17.24	-29.4	-32.5	19.7	6.03e-01	0	44	0	414187520	19	5138
2026-01-29 03:16:49.08	247.80	17.13	-29.5	-32.7	19.6	6.03e-01	0	44	0	416284672	19	5204
2026-01-29 03:16:50.09	247.65	17.02	-29.5	-32.7	19.5	6.03e-01	0	44	0	418381824	19	5199
2026-01-29 03:16:51.09	247.51	16.92	-29.5	-32.7	19.5	6.03e-01	0	44	0	419954688	19	5186
2026-01-29 03:16:52.10	247.36	16.81	-29.5	-32.8	19.5	6.02e-01	0	44	0	422051840	19	5232
2026-01-29 03:16:53.10	247.21	16.70	-29.6	-32.6	19.2	6.05e-01	0	43	0	423624704	20	5048
2026-01-29 03:16:54.11	247.07	16.60	-29.8	-33.2	18.8	6.05e-01	0	44	0	425721856	20	5288
2026-01-29 03:16:55.11	246.93	16.49	-29.6	-32.6	19.2	6.03e-01	0	44	0	427294720	20	5072
2026-01-29 03:16:56.11	246.78	16.38	-29.8	-33.1	18.8	6.04e-01	0	44	0	429391872	20	5273
2026-01-29 03:16:57.12	246.64	16.28	-29.7	-32.8	19.0	6.04e-01	0	44	0	431489024	20	5157
2026-01-29 03:16:58.12	246.50	16.17	-29.7	-32.8	19.0	6.02e-01	0	44	0	433061888	20	5138
2026-01-29 03:16:59.12	246.36	16.07	-29.7	-32.7	19.1	6.05e-01	0	44	0	435159040	20	5113
2026-01-29 03:17:00.13	246.22	15.97	-29.7	-32.9	18.9	6.03e-01	0	44	0	436731904	20	5189
2026-01-29 03:17:01.13	246.09	15.86	-29.9	-33.5	18.6	6.05e-01	0	44	0	438829056	20	5408
2026-01-29 03:17:02.13	245.95	15.76	-30.2	-33.6	18.1	6.03e-01	0	44	0	440926208	21	5363
2026-01-29 03:17:03.14	245.81	15.66	-29.9	-32.9	18.6	6.05e-01	0	44	0	442499072	21	5083
2026-01-29 03:17:04.14	245.68	15.55	-29.8	-33.1	18.8	6.05e-01	0	44	0	444596224	20	5263
2026-01-29 03:17:05.15	245.55	15.45	-30.0	-33.6	18.4	6.03e-01	0	44	0	446169088	20	5461
2026-01-29 03:17:06.16	245.41	15.35	-29.8	-33.0	18.8	6.02e-01	0	44	0	448266240	20	5232
2026-01-29 03:17:07.15	245.28	15.25	-29.6	-32.5	19.0	6.02e-01	0	44	0	450363392	20	5050
2026-01-29 03:17:08.16	245.15	15.14	-29.4	-32.1	19.3	6.02e-01	0	44	0	451936256	20	4913
2026-01-29 03:17:09.16	245.02	15.04	-29.4	-33.1	19.4	6.03e-01	0	44	0	454033408	18	5472
2026-01-29 03:17:10.16	244.90	14.94	-29.5	-32.7	19.0	6.02e-01	0	44	0	455606272	19	5204
2026-01-29 03:17:11.16	244.77	14.84	-29.7	-32.8	18.9	6.04e-01	0	44	0	457703424	20	5165
2026-01-29 03:17:12.17	244.64	14.74	-29.9	-33.5	18.1	6.05e-01	0	44	0	459276288	20	5447
2026-01-29 03:17:13.17	244.52	14.64	-29.7	-32.8	18.9	6.04e-01	0	44	0	461373440	20	5147
2026-01-29 03:17:14.18	244.39	14.54	-29.5	-32.2	19.2	6.02e-01	0	44	0	463470592	20	4955
2026-01-29 03:17:15.18	244.27	14.44	-29.4	-32.7	19.4	6.04e-01	0	44	0	465043456	19	5213
2026-01-29 03:17:16.18	244.15	14.34	-29.0	-32.0	19.1	6.03e-01	0	44	0	467140608	20	5059
2026-01-29 03:17:17.19	244.02	14.25	-28.3	-31.7	17.8	6.04e-01	0	44	0	468713472	19	5283
2026-01-29 03:17:18.20	243.90	14.15	-30.1	-33.6	19.0	6.10e-01	0	44	0	470810624	20	5333
2026-01-29 03:17:19.20	243.78	14.05	-29.6	-32.5	18.8	6.05e-01	0	44	0	472907776	20	5065
2026-01-29 03:17:20.20	243.66	13.95	-29.6	-32.7	18.2	6.09e-01	0	44	0	474480640	20	5113
2026-01-29 03:17:21.20	243.54	13.85	-29.7	-32.9	16.8	6.09e-01	0	44	0	476577792	20	5202
2026-01-29 03:17:22.21	243.43	13.76	-29.5	-32.5	18.9	6.04e-01	0	44	0	478150656	20	5059
2026-01-29 03:17:23.21	243.31	13.66	-29.5	-32.9	16.9	6.02e-01	0	44	0	480247808	19	5298
2026-01-29 03:17:24.22	243.19	13.56	-29.5	-32.8	17.5	6.04e-01	0	43	0	481820672	19	5264
2026-01-29 03:17:25.22	243.08	13.47	-29.4	-32.7	19.3	6.03e-01	0	44	0	483917824	19	5234
2026-01-29 03:17:26.22	242.96	13.37	-29.6	-33.0	19.1	6.03e-01	0	44	0	486014976	19	5349
2026-01-29 03:17:27.22	242.85	13.28	-29.4	-32.6	19.3	6.03e-01	0	44	0	487587840	19	5190
2026-01-29 03:17:28.22	242.74	13.18	-29.3	-32.4	19.4	6.05e-01	0	44	0	489684992	19	5136
2026-01-29 03:17:29.23	242.63	13.09	-29.4	-32.6	19.3	6.02e-01	0	44	0	491782144	19	5211
2026-01-29 03:17:30.23	242.51	12.99	-29.5	-32.9	19.1	6.03e-01	0	44	0	493355008	19	5317
2026-01-29 03:17:31.23	242.40	12.90	-29.6	-33.0	19.0	6.01e-01	0	44	0	495452160	19	5367
2026-01-29 03:17:32.23	242.30	12.81	-29.6	-33.1	19.0	6.03e-01	0	44	0	497025024	19	5397
2026-01-29 03:17:33.24	242.19	12.71	-29.6	-33.0	19.0	6.04e-01	0	44	0	499122176	19	5362
2026-01-29 03:17:34.24	242.08	12.62	-29.6	-33.1	18.9	6.02e-01	0	44	0	500695040	19	5391
2026-01-29 03:17:35.25	241.97	12.52	-29.6	-32.7	18.8	6.03e-01	0	44	0	502792192	20	5139
2026-01-29 03:17:36.25	241.86	12.43	-29.7	-32.9	18.7	6.04e-01	0	44	0	504889344	20	5201
2026-01-29 03:17:37.25	241.76	12.34	-29.6	-33.0	18.9	6.06e-01	0	44	0	506462208	19	5358
2026-01-29 03:17:38.26	241.65	12.25	-29.6	-33.1	18.9	6.05e-01	0	44	0	508559360	19	5385
2026-01-29 03:17:39.26	241.55	12.16	-29.6	-33.1	18.9	6.05e-01	0	44	0	510132224	19	5385
2026-01-29 03:17:40.26	241.44	12.06	-29.6	-32.7	18.7	6.01e-01	0	44	0	512229376	20	5150
2026-01-29 03:17:41.27	241.34	11.97	-29.7	-33.0	18.5	6.01e-01	0	44	0	514326528	20	5273
2026-01-29 03:17:42.28	241.24	11.88	-29.6	-32.7	18.7	6.04e-01	0	44	0	515899392	20	5146
2026-01-29 03:17:43.28	241.14	11.79	-29.6	-32.7	18.8	6.04e-01	0	44	0	517996544	20	5135
2026-01-29 03:17:44.28	241.04	11.70	-29.6	-32.7	18.8	6.02e-01	0	44	0	519569408	20	5145
2026-01-29 03:17:45.29	240.94	11.61	-29.5	-32.5	18.9	6.04e-01	0	44	0	521666560	20	5089
2026-01-29 03:17:46.29	240.84	11.52	-29.4	-32.3	19.0	6.02e-01	0	44	0	523763712	20	4993
2026-01-29 03:17:47.29	240.74	11.43	-29.5	-32.9	19.0	6.04e-01	0	43	0	525336576	19	5315
2026-01-29 03:17:48.30	240.64	11.34	-29.5	-32.9	19.0	6.03e-01	0	43	0	527433728	19	5334
2026-01-29 03:17:49.30	240.54	11.25	-29.5	-33.0	18.9	6.06e-01	0	44	0	529006592	19	5382
2026-01-29 03:17:50.30	240.44	11.16	-29.6	-32.7	18.7	6.00e-01	0	44	0	531103744	20	5158
2026-01-29 03:17:51.30	240.35	11.08	-29.7	-33.1	18.5	6.06e-01	0	44	0	532676608	20	5306
2026-01-29 03:17:52.31	240.25	10.99	-29.8	-33.4	18.3	6.04e-01	0	44	0	534773760	20	5431
2026-01-29 03:17:53.32	240.16	10.90	-29.7	-33.1	18.4	6.02e-01	0	44	0	536870912	20	5322
2026-01-29 03:17:54.32	240.06	10.81	-29.8	-33.2	18.3	6.04e-01	0	44	0	538443776	20	5373
2026-01-29 03:17:55.33	239.97	10.72	-29.8	-33.2	18.4	6.03e-01	0	44	0	540540928	20	5365
2026-01-29 03:17:56.33	239.88	10.64	-29.8	-33.4	18.2	6.05e-01	0	44	0	542113792	20	5429
2026-01-29 03:17:57.33	239.78	10.55	-29.8	-33.5	18.1	6.05e-01	0	43	0	544210944	20	5478
2026-01-29 03:17:58.34	239.69	10.46	-29.8	-33.2	18.3	6.03e-01	0	44	0	546308096	20	5376
2026-01-29 03:17:59.34	239.60	10.38	-29.7	-33.1	18.4	6.03e-01	0	44	0	547880960	20	5339
2026-01-29 03:18:00.34	239.51	10.29	-29.8	-33.3	18.3	6.01e-01	0	44	0	549978112	20	5397
2026-01-29 03:18:01.34	239.42	10.21	-29.8	-33.4	18.2	6.02e-01	0	43	0	551550976	20	5420
2026-01-29 03:18:02.35	239.33	10.12	-29.9	-33.6	18.0	6.02e-01	0	44	0	553648128	20	5528
2026-01-29 03:18:03.35	239.24	10.04	-29.8	-33.3	18.3	6.06e-01	0	44	0	555220992	20	5393
2026-01-29 03:18:04.35	239.15	9.95	-29.7	-33.1	18.4	6.04e-01	0	44	0	557318144	20	5316
2026-01-29 03:18:05.35	239.06	9.87	-29.7	-33.0	18.4	6.02e-01	0	44	0	559415296	20	5291
2026-01-29 03:18:06.35	238.98	9.78	-29.8	-33.3	18.2	6.06e-01	0	44	0	560988160	20	5411
2026-01-29 03:18:07.35	238.89	9.70	-29.9	-33.6	18.0	6.03e-01	0	44	0	563085312	20	5512
2026-01-29 03:18:08.36	238.80	9.61	-29.9	-33.7	18.0	6.05e-01	0	44	0	564658176	20	5560
2026-01-29 03:18:09.36	238.72	9.53	-29.9	-33.6	18.0	6.05e-01	0	44	0	566755328	20	5525
2026-01-29 03:18:10.36	238.63	9.45	-29.9	-33.8	17.8	6.02e-01	0	44	0	568852480	20	5611
2026-01-29 03:18:11.36	238.55	9.37	-30.1	-34.2	17.6	6.03e-01	0	44	0	570425344	20	5777
2026-01-29 03:18:12.36	238.47	9.28	-30.1	-33.9	17.4	6.03e-01	0	43	0	572522496	21	5547
2026-01-29 03:18:13.37	238.38	9.20	-30.1	-34.3	17.5	6.05e-01	0	43	0	574095360	20	5834
2026-01-29 03:18:14.36	238.30	9.12	-30.3	-34.4	17.1	6.03e-01	0	44	0	576192512	21	5765
2026-01-29 03:18:15.37	238.22	9.04	-30.4	-34.7	16.8	6.03e-01	0	44	0	578289664	21	5905
2026-01-29 03:18:16.38	238.14	8.95	-30.2	-34.0	17.3	6.04e-01	0	44	0	579862528	21	5587
2026-01-29 03:18:17.38	238.05	8.87	-30.1	-33.9	17.4	6.02e-01	0	44	0	581959680	21	5535
2026-01-29 03:18:18.38	237.97	8.79	-30.3	-34.6	16.9	6.02e-01	0	44	0	583532544	21	5859
2026-01-29 03:18:19.39	237.89	8.71	-30.4	-34.8	16.7	6.03e-01	0	43	0	585629696	21	5960
2026-01-29 03:18:20.39	237.81	8.63	-30.2	-34.2	17.1	6.04e-01	0	44	0	587202560	21	5696
2026-01-29 03:18:21.39	237.73	8.55	-30.2	-34.1	17.2	6.01e-01	0	44	0	589299712	21	5629
2026-01-29 03:18:22.40	237.65	8.47	-30.2	-34.1	17.2	6.04e-01	0	44	0	591396864	21	5651
2026-01-29 03:18:23.40	237.58	8.39	-30.1	-34.1	17.2	6.04e-01	0	44	0	592969728	21	5643
2026-01-29 03:18:24.40	237.50	8.31	-30.1	-34.0	17.2	6.05e-01	0	44	0	595066880	21	5620
2026-01-29 03:18:25.40	237.42	8.23	-30.1	-34.0	17.2	6.04e-01	0	44	0	596639744	21	5635
2026-01-29 03:18:26.41	237.34	8.15	-30.1	-33.9	17.3	6.05e-01	0	44	0	598736896	21	5577
2026-01-29 03:18:27.41	237.27	8.07	-29.9	-33.9	17.6	6.06e-01	0	44	0	600834048	20	5690
2026-01-29 03:18:28.41	237.19	7.99	-29.8	-33.6	17.8	6.05e-01	0	44	0	602406912	20	5574
2026-01-29 03:18:29.42	237.12	7.91	-29.8	-33.5	17.9	6.05e-01	0	43	0	604504064	20	5508
2026-01-29 03:18:30.42	237.04	7.83	-29.8	-33.5	17.9	6.04e-01	0	43	0	606076928	20	5513
2026-01-29 03:18:31.42	236.97	7.75	-29.8	-33.6	17.8	6.04e-01	0	43	0	608174080	20	5580
2026-01-29 03:18:32.43	236.89	7.68	-29.9	-33.8	17.6	6.05e-01	0	43	0	610271232	20	5677
2026-01-29 03:18:33.43	236.82	7.60	-29.9	-33.9	17.6	6.06e-01	0	44	0	611844096	20	5693
2026-01-29 03:18:34.44	236.74	7.52	-29.9	-33.9	17.6	6.05e-01	0	44	0	613941248	20	5692
2026-01-29 03:18:35.44	236.67	7.44	-29.9	-34.0	17.5	6.05e-01	0	44	0	615514112	20	5732
2026-01-29 03:18:36.44	236.60	7.37	-29.9	-33.9	17.5	6.04e-01	0	44	0	617611264	20	5725
2026-01-29 03:18:37.45	236.53	7.29	-30.0	-34.2	17.3	6.02e-01	0	44	0	619184128	20	5840
2026-01-29 03:18:38.45	236.45	7.21	-30.0	-34.2	17.2	6.02e-01	0	44	0	621281280	20	5872
2026-01-29 03:18:39.46	236.38	7.14	-29.9	-34.0	17.4	6.02e-01	0	44	0	623378432	20	5772
2026-01-29 03:18:40.46	236.31	7.06	-32.9	-47.7	6.7	7.17e-01	0	44	0	624951296	26	19779
2026-01-29 03:18:41.47	236.24	6.98	-32.6	-52.1	3.8	7.45e-01	0	44	104	624951296	27	33773

#Closed at: 2026-01-29 03:18:42
#Recorded file [624 MB]: D:/data/31010_260129_061306.dat