passes_logs/2026/01/29/R2M6_AANII_01/R2M6_AANII_01__20260129_102558_NOAA_20_JPSS-1_rec.log

#Pass ID: 20260129_102558_NOAA 20 (JPSS-1)
#Satellite: NOAA 20 (JPSS-1)
#Configuration: NOAA 20
#almurnet v.1.7.20240730
#Start time: 2026-01-29 10:25:57

#Version: 2.2.20231116
#Station: R2M6_AANII_01
#Location: 30.233357 lon 59.946436 lat
#TLE: 1 43013U 17073A   26027.94683596  .00000137  00000+0  85741-4 0  9995
#TLE: 2 43013  98.7648 328.7503 0000940  21.3928 338.7287 14.19541154424576

#Time	Az	El	Level	Level2	SNR	BER	BlckErr	Temp	State	Recorded	gain1	gain2
2026-01-29 10:25:57.97	163.51	6.99	-32.1	-39.7	4.5	1.39e+00	0	40	0	0	25	8626
2026-01-29 10:25:58.97	163.52	7.06	-31.9	-38.6	4.7	1.35e+00	0	40	104	0	25	7736
2026-01-29 10:25:59.97	163.53	7.14	-31.9	-38.5	6.6	2.04e-01	0	40	0	0	25	7636
2026-01-29 10:26:00.98	163.54	7.22	-32.0	-38.7	6.5	2.27e-01	0	40	0	1048576	25	7806
2026-01-29 10:26:01.98	163.55	7.30	-32.0	-38.5	6.7	1.99e-01	0	40	0	3145728	25	7657
2026-01-29 10:26:02.99	163.56	7.38	-31.9	-38.4	6.7	2.04e-01	0	40	0	5242880	25	7584
2026-01-29 10:26:03.99	163.58	7.46	-31.9	-38.4	6.8	1.90e-01	0	40	0	7340032	25	7568
2026-01-29 10:26:04.99	163.59	7.53	-32.0	-38.7	6.6	2.05e-01	0	40	0	9437184	25	7771
2026-01-29 10:26:05.99	163.60	7.61	-32.0	-38.4	6.8	1.98e-01	0	40	0	10485760	25	7571
2026-01-29 10:26:06.99	163.61	7.69	-31.9	-38.1	7.1	1.82e-01	0	40	0	12582912	25	7316
2026-01-29 10:26:08.00	163.62	7.77	-31.7	-37.7	7.7	1.03e-01	0	40	0	14680064	24	7181
2026-01-29 10:26:09.00	163.63	7.85	-31.6	-37.1	8.2	7.06e-02	0	40	0	16777216	24	6796
2026-01-29 10:26:10.01	163.64	7.93	-31.4	-36.3	8.8	4.06e-02	0	40	0	17825792	24	6343
2026-01-29 10:26:11.00	163.65	8.01	-31.3	-36.2	9.2	2.09e-02	0	40	0	19922944	23	6384
2026-01-29 10:26:12.01	163.67	8.10	-31.1	-35.6	9.7	1.35e-02	0	40	0	22020096	23	6086
2026-01-29 10:26:13.01	163.68	8.18	-31.0	-35.3	10.0	9.89e-03	0	40	0	24117248	23	5915
2026-01-29 10:26:14.02	163.69	8.26	-30.9	-35.1	10.1	7.28e-03	0	40	0	26214400	23	5803
2026-01-29 10:26:15.02	163.70	8.34	-30.8	-34.7	10.4	4.93e-03	0	40	0	27262976	23	5640
2026-01-29 10:26:16.03	163.71	8.42	-30.8	-34.7	10.4	4.52e-03	0	40	0	29360128	23	5664
2026-01-29 10:26:17.04	163.72	8.50	-30.8	-35.1	10.5	4.58e-03	0	40	0	31457280	22	5947
2026-01-29 10:26:18.04	163.73	8.59	-30.8	-35.2	10.4	4.18e-03	0	41	0	33554432	22	5972
2026-01-29 10:26:19.04	163.75	8.67	-30.8	-35.0	10.6	3.73e-03	0	40	0	35651584	22	5891
2026-01-29 10:26:20.04	163.76	8.75	-30.8	-35.1	10.5	3.80e-03	0	40	0	36700160	22	5930
2026-01-29 10:26:21.04	163.77	8.84	-30.8	-35.2	10.4	4.22e-03	0	41	0	38797312	22	5989
2026-01-29 10:26:22.04	163.78	8.92	-30.8	-35.1	10.6	3.52e-03	0	41	0	40894464	22	5911
2026-01-29 10:26:23.04	163.79	9.00	-30.8	-35.0	10.7	3.36e-03	0	41	0	42991616	22	5860
2026-01-29 10:26:24.04	163.81	9.09	-30.8	-35.0	10.6	2.98e-03	0	41	0	45088768	22	5863
2026-01-29 10:26:25.04	163.82	9.17	-30.8	-35.0	10.6	3.32e-03	0	41	0	46137344	22	5874
2026-01-29 10:26:26.05	163.83	9.26	-30.8	-35.2	10.6	3.50e-03	0	41	0	48234496	22	5933
2026-01-29 10:26:27.04	163.84	9.34	-30.9	-35.4	10.4	3.73e-03	0	41	0	50331648	22	6055
2026-01-29 10:26:28.05	163.85	9.43	-30.8	-35.2	10.5	3.81e-03	0	41	0	52428800	22	5962
2026-01-29 10:26:29.05	163.87	9.51	-30.8	-35.2	10.6	3.52e-03	0	41	0	54525952	22	5946
2026-01-29 10:26:30.06	163.88	9.60	-31.0	-35.6	10.3	4.40e-03	0	41	0	55574528	22	6147
2026-01-29 10:26:31.06	163.89	9.68	-31.0	-35.6	10.3	5.36e-03	0	41	0	57671680	22	6132
2026-01-29 10:26:32.07	163.90	9.77	-30.9	-35.4	10.5	4.44e-03	0	41	0	59768832	22	6026
2026-01-29 10:26:33.08	163.92	9.86	-30.9	-35.5	10.4	4.20e-03	0	41	0	61865984	22	6092
2026-01-29 10:26:34.08	163.93	9.94	-30.9	-35.4	10.5	4.50e-03	0	41	0	63963136	22	6026
2026-01-29 10:26:35.09	163.94	10.03	-30.9	-35.4	10.5	3.85e-03	0	41	0	65011712	22	6036
2026-01-29 10:26:36.09	163.95	10.12	-31.0	-35.6	10.3	4.78e-03	0	41	0	67108864	22	6157
2026-01-29 10:26:37.09	163.97	10.21	-30.9	-35.4	10.5	4.46e-03	0	41	0	69206016	22	6050
2026-01-29 10:26:38.09	163.98	10.30	-31.0	-35.8	10.2	5.32e-03	0	41	0	71303168	22	6246
2026-01-29 10:26:39.10	163.99	10.38	-30.9	-35.5	10.4	5.18e-03	0	41	0	73400320	22	6091
2026-01-29 10:26:40.10	164.00	10.47	-30.8	-35.0	10.7	3.28e-03	0	41	0	74448896	22	5873
2026-01-29 10:26:41.09	164.02	10.56	-30.6	-34.5	11.1	2.29e-03	0	41	0	76546048	22	5667
2026-01-29 10:26:42.10	164.03	10.65	-30.5	-34.3	11.3	1.37e-03	0	41	0	78643200	22	5566
2026-01-29 10:26:43.10	164.04	10.74	-30.4	-34.0	11.5	9.67e-04	0	41	0	80740352	22	5447
2026-01-29 10:26:44.10	164.06	10.83	-30.4	-33.9	11.6	8.49e-04	0	41	0	81788928	22	5397
2026-01-29 10:26:45.10	164.07	10.92	-30.4	-34.0	11.5	8.56e-04	0	41	0	83886080	22	5455
2026-01-29 10:26:46.10	164.08	11.01	-30.4	-33.9	11.6	7.27e-04	0	41	0	85983232	22	5383
2026-01-29 10:26:47.10	164.10	11.10	-30.4	-33.9	11.5	7.29e-04	0	41	0	88080384	22	5415
2026-01-29 10:26:48.10	164.11	11.19	-30.4	-34.1	11.4	8.52e-04	0	41	0	90177536	22	5486
2026-01-29 10:26:49.10	164.12	11.29	-30.4	-33.9	11.6	7.60e-04	0	41	0	91226112	22	5379
2026-01-29 10:26:50.11	164.14	11.38	-30.4	-33.9	11.7	6.31e-04	0	41	0	93323264	22	5341
2026-01-29 10:26:51.11	164.15	11.47	-30.5	-33.9	11.6	5.47e-04	0	41	0	95420416	22	5367
2026-01-29 10:26:52.12	164.16	11.57	-30.5	-33.9	11.7	5.87e-04	0	41	0	97517568	22	5347
2026-01-29 10:26:53.11	164.18	11.66	-30.4	-33.8	11.8	5.61e-04	0	41	0	99614720	22	5304
2026-01-29 10:26:54.11	164.19	11.75	-30.4	-33.7	11.9	5.27e-04	0	41	0	100663296	22	5259
2026-01-29 10:26:55.11	164.20	11.84	-30.5	-33.9	11.7	4.87e-04	0	41	0	102760448	22	5334
2026-01-29 10:26:56.12	164.22	11.94	-30.6	-34.3	11.4	8.15e-04	0	41	0	104857600	22	5512
2026-01-29 10:26:57.12	164.23	12.03	-30.5	-34.0	11.6	7.40e-04	0	41	0	106954752	22	5402
2026-01-29 10:26:58.12	164.25	12.13	-30.4	-33.8	11.8	6.00e-04	0	41	0	109051904	22	5295
2026-01-29 10:26:59.12	164.26	12.22	-30.4	-33.6	11.9	4.32e-04	0	41	0	110100480	22	5219
2026-01-29 10:27:00.13	164.27	12.32	-30.4	-33.7	11.9	3.96e-04	0	41	0	112197632	22	5241
2026-01-29 10:27:01.13	164.29	12.42	-30.4	-33.6	11.9	3.79e-04	0	41	0	114294784	22	5224
2026-01-29 10:27:02.13	164.30	12.51	-30.4	-33.6	11.9	3.65e-04	0	41	0	116391936	22	5234
2026-01-29 10:27:03.14	164.32	12.61	-30.4	-33.6	12.0	3.66e-04	0	41	0	118489088	22	5224
2026-01-29 10:27:04.14	164.33	12.71	-30.4	-33.5	12.0	3.08e-04	0	41	0	119537664	22	5186
2026-01-29 10:27:05.15	164.35	12.81	-30.4	-33.7	12.0	3.23e-04	0	41	0	121634816	22	5225
2026-01-29 10:27:06.15	164.36	12.90	-30.3	-33.4	12.2	2.70e-04	0	41	0	123731968	22	5105
2026-01-29 10:27:07.16	164.38	13.00	-30.3	-33.3	12.3	1.88e-04	0	41	0	125829120	22	5054
2026-01-29 10:27:08.17	164.39	13.10	-30.3	-33.8	12.2	1.86e-04	0	41	0	126877696	21	5363
2026-01-29 10:27:09.17	164.41	13.20	-30.3	-33.6	12.4	1.53e-04	0	41	0	128974848	21	5274
2026-01-29 10:27:10.17	164.42	13.30	-30.3	-33.6	12.4	1.33e-04	0	41	0	131072000	21	5264
2026-01-29 10:27:11.18	164.44	13.40	-30.4	-33.8	12.3	1.59e-04	0	42	0	133169152	21	5331
2026-01-29 10:27:12.18	164.45	13.50	-30.3	-33.6	12.4	1.38e-04	0	41	0	135266304	21	5287
2026-01-29 10:27:13.18	164.47	13.60	-30.4	-33.9	12.3	1.46e-04	0	41	0	136314880	21	5361
2026-01-29 10:27:14.19	164.48	13.71	-30.5	-34.1	12.1	2.40e-04	0	42	0	138412032	21	5460
2026-01-29 10:27:15.19	164.50	13.81	-30.4	-33.9	12.2	2.43e-04	0	41	0	140509184	21	5392
2026-01-29 10:27:16.19	164.51	13.91	-30.4	-33.9	12.2	2.28e-04	0	42	0	142606336	21	5396
2026-01-29 10:27:17.19	164.53	14.01	-30.4	-33.8	12.3	1.89e-04	0	42	0	144703488	21	5336
2026-01-29 10:27:18.20	164.54	14.12	-30.4	-33.8	12.4	1.75e-04	0	42	0	145752064	21	5327
2026-01-29 10:27:19.20	164.56	14.22	-30.5	-34.1	12.1	2.93e-04	0	42	0	147849216	21	5469
2026-01-29 10:27:20.20	164.57	14.32	-30.4	-33.8	12.3	1.88e-04	0	42	0	149946368	21	5341
2026-01-29 10:27:21.21	164.59	14.43	-30.3	-33.6	12.5	1.17e-04	0	42	0	152043520	21	5279
2026-01-29 10:27:22.21	164.61	14.53	-30.1	-32.9	12.9	8.62e-05	0	41	0	154140672	21	5005
2026-01-29 10:27:23.22	164.62	14.64	-30.0	-32.7	13.1	3.81e-05	0	41	0	155189248	21	4915
2026-01-29 10:27:24.21	164.64	14.74	-30.0	-32.7	13.1	2.28e-05	0	42	0	157286400	21	4918
2026-01-29 10:27:25.22	164.65	14.85	-30.0	-32.7	13.1	2.82e-05	0	42	0	159383552	21	4911
2026-01-29 10:27:26.22	164.67	14.96	-30.1	-32.9	13.1	3.73e-05	0	41	0	161480704	21	4962
2026-01-29 10:27:27.22	164.69	15.07	-30.1	-33.0	12.9	3.20e-05	0	41	0	163577856	21	5015
2026-01-29 10:27:28.23	164.70	15.17	-30.2	-33.1	12.9	5.64e-05	0	42	0	164626432	21	5043
2026-01-29 10:27:29.23	164.72	15.28	-30.2	-33.2	12.9	5.11e-05	0	42	0	166723584	21	5071
2026-01-29 10:27:30.23	164.74	15.39	-30.2	-33.2	12.8	6.17e-05	0	42	0	168820736	21	5081
2026-01-29 10:27:31.22	164.75	15.50	-30.1	-33.0	12.9	4.42e-05	0	42	0	170917888	21	5020
2026-01-29 10:27:32.23	164.77	15.61	-30.2	-33.2	12.8	3.81e-05	0	42	0	173015040	21	5092
2026-01-29 10:27:33.23	164.79	15.72	-30.2	-33.2	12.8	4.88e-05	0	42	0	174063616	21	5088
2026-01-29 10:27:34.23	164.80	15.83	-30.2	-33.1	12.9	4.88e-05	0	42	0	176160768	21	5061
2026-01-29 10:27:35.23	164.82	15.94	-30.2	-33.4	12.7	6.25e-05	0	42	0	178257920	21	5168
2026-01-29 10:27:36.23	164.84	16.05	-30.2	-33.2	12.8	7.70e-05	0	42	0	180355072	21	5097
2026-01-29 10:27:37.23	164.86	16.16	-30.3	-33.5	12.7	7.24e-05	0	42	0	181403648	21	5194
2026-01-29 10:27:38.24	164.87	16.28	-30.4	-33.8	12.5	1.02e-04	0	42	0	183500800	21	5324
2026-01-29 10:27:39.25	164.89	16.39	-30.2	-33.3	12.8	7.17e-05	0	42	0	185597952	21	5140
2026-01-29 10:27:40.26	164.91	16.51	-30.1	-33.1	12.9	5.87e-05	0	42	0	187695104	21	5051
2026-01-29 10:27:41.26	164.93	16.62	-30.0	-32.7	13.2	3.81e-05	0	42	0	189792256	21	4922
2026-01-29 10:27:42.26	164.95	16.73	-30.0	-32.7	13.2	1.67e-05	0	41	0	190840832	21	4906
2026-01-29 10:27:43.26	164.96	16.85	-30.0	-32.6	13.3	2.44e-05	0	42	0	192937984	21	4861
2026-01-29 10:27:44.26	164.98	16.96	-30.1	-32.7	13.3	1.98e-05	0	42	0	195035136	21	4905
2026-01-29 10:27:45.27	165.00	17.08	-30.0	-32.7	13.3	1.60e-05	0	42	0	197132288	21	4872
2026-01-29 10:27:46.27	165.02	17.20	-30.0	-32.5	13.5	1.83e-05	0	42	0	199229440	21	4803
2026-01-29 10:27:47.27	165.04	17.32	-30.0	-32.5	13.4	8.30e-06	0	42	0	200278016	21	4820
2026-01-29 10:27:48.28	165.06	17.44	-30.1	-32.8	13.3	1.29e-05	0	42	0	202375168	21	4896
2026-01-29 10:27:49.28	165.07	17.55	-29.9	-32.4	13.5	1.22e-05	0	42	0	204472320	21	4762
2026-01-29 10:27:50.28	165.09	17.67	-29.9	-32.3	13.6	8.30e-06	0	42	0	206569472	21	4740
2026-01-29 10:27:51.28	165.11	17.79	-30.0	-32.4	13.6	1.22e-05	0	42	0	208666624	21	4769
2026-01-29 10:27:52.29	165.13	17.91	-29.9	-32.2	13.7	7.60e-06	0	42	0	209715200	21	4689
2026-01-29 10:27:53.28	165.15	18.03	-29.9	-32.2	13.7	4.50e-06	0	42	0	211812352	21	4700
2026-01-29 10:27:54.28	165.17	18.15	-29.9	-32.3	13.7	6.10e-06	0	42	0	213909504	21	4717
2026-01-29 10:27:55.28	165.19	18.28	-30.0	-32.5	13.5	6.80e-06	0	42	0	216006656	21	4808
2026-01-29 10:27:56.29	165.21	18.40	-30.1	-32.8	13.3	2.82e-05	0	42	0	218103808	21	4896
2026-01-29 10:27:57.30	165.23	18.52	-30.0	-32.6	13.4	1.60e-05	0	42	0	219152384	21	4841
2026-01-29 10:27:58.30	165.25	18.65	-30.2	-33.0	13.2	1.29e-05	0	42	0	221249536	21	4968
2026-01-29 10:27:59.30	165.27	18.77	-30.2	-33.0	13.1	3.28e-05	0	42	0	223346688	21	4991
2026-01-29 10:28:00.30	165.29	18.90	-30.1	-32.8	13.3	1.75e-05	0	42	0	225443840	21	4915
2026-01-29 10:28:01.30	165.31	19.02	-30.1	-32.9	13.3	1.90e-05	0	42	0	226492416	21	4932
2026-01-29 10:28:02.30	165.33	19.15	-30.2	-32.9	13.2	2.74e-05	0	42	0	228589568	21	4945
2026-01-29 10:28:03.30	165.35	19.28	-30.1	-32.7	13.5	9.10e-06	0	42	0	230686720	21	4850
2026-01-29 10:28:04.31	165.37	19.41	-30.1	-32.7	13.5	1.14e-05	0	42	0	232783872	21	4855
2026-01-29 10:28:05.31	165.39	19.53	-30.0	-32.6	13.5	1.22e-05	0	42	0	234881024	21	4840
2026-01-29 10:28:06.31	165.41	19.66	-30.0	-32.4	13.6	2.89e-05	0	42	0	235929600	21	4783
2026-01-29 10:28:07.31	165.43	19.79	-30.1	-32.8	13.4	1.60e-05	0	42	0	238026752	21	4902
2026-01-29 10:28:08.31	165.46	19.92	-29.9	-32.3	13.7	1.22e-05	0	42	0	240123904	21	4725
2026-01-29 10:28:09.32	165.48	20.06	-29.8	-31.9	13.9	4.50e-06	0	42	0	242221056	21	4612
2026-01-29 10:28:10.32	165.50	20.19	-29.7	-32.2	14.1	1.50e-06	0	42	0	244318208	20	4791
2026-01-29 10:28:11.33	165.52	20.32	-29.7	-32.3	14.0	4.50e-06	0	42	0	245366784	20	4845
2026-01-29 10:28:12.33	165.54	20.45	-29.9	-32.8	13.7	5.30e-06	0	42	0	247463936	20	5030
2026-01-29 10:28:13.33	165.57	20.59	-29.9	-32.8	13.7	6.10e-06	0	42	0	249561088	20	5024
2026-01-29 10:28:14.34	165.59	20.72	-29.8	-32.6	13.8	6.80e-06	0	42	0	251658240	20	4944
2026-01-29 10:28:15.34	165.61	20.86	-29.9	-32.7	13.8	4.50e-06	0	42	0	253755392	20	4983
2026-01-29 10:28:16.35	165.63	21.00	-30.0	-33.1	13.4	1.22e-05	0	42	0	254803968	20	5139
2026-01-29 10:28:17.35	165.66	21.13	-30.0	-33.1	13.5	1.14e-05	0	42	0	256901120	20	5125
2026-01-29 10:28:18.35	165.68	21.27	-30.0	-33.1	13.5	1.83e-05	0	42	0	258998272	20	5129
2026-01-29 10:28:19.36	165.70	21.41	-29.9	-32.7	13.7	5.30e-06	0	42	0	261095424	20	5011
2026-01-29 10:28:20.35	165.73	21.55	-29.7	-32.3	13.9	3.80e-06	0	42	0	263192576	20	4869
2026-01-29 10:28:21.36	165.75	21.69	-29.6	-32.0	14.2	0.00e+00	0	42	0	264241152	20	4772
2026-01-29 10:28:22.36	165.77	21.83	-29.6	-32.0	14.2	4.50e-06	0	42	0	266338304	20	4769
2026-01-29 10:28:23.36	165.80	21.97	-29.6	-32.0	14.2	0.00e+00	0	42	0	268435456	20	4759
2026-01-29 10:28:24.36	165.82	22.11	-29.7	-32.3	14.0	2.20e-06	0	42	0	270532608	20	4868
2026-01-29 10:28:25.36	165.85	22.26	-29.7	-32.4	14.0	2.20e-06	0	42	0	272629760	20	4896
2026-01-29 10:28:26.37	165.87	22.40	-29.7	-32.2	14.1	3.80e-06	0	42	0	273678336	20	4806
2026-01-29 10:28:27.37	165.89	22.54	-29.7	-32.2	14.1	1.50e-06	0	42	0	275775488	20	4814
2026-01-29 10:28:28.38	165.92	22.69	-29.7	-32.3	14.1	2.20e-06	0	42	0	277872640	20	4828
2026-01-29 10:28:29.38	165.95	22.84	-29.7	-32.2	14.1	7.00e-07	0	42	0	279969792	20	4805
2026-01-29 10:28:30.39	165.97	22.99	-29.7	-32.2	14.2	7.00e-07	0	42	0	282066944	20	4800
2026-01-29 10:28:31.40	166.00	23.14	-29.7	-32.3	14.1	2.20e-06	0	42	0	283115520	20	4842
2026-01-29 10:28:32.40	166.02	23.28	-29.8	-32.5	14.0	2.20e-06	0	42	0	285212672	20	4918
2026-01-29 10:28:33.40	166.05	23.43	-29.8	-32.5	14.0	3.00e-06	0	42	0	287309824	20	4879
2026-01-29 10:28:34.41	166.07	23.59	-29.9	-32.7	13.9	3.00e-06	0	42	0	289406976	20	4964
2026-01-29 10:28:35.42	166.10	23.74	-30.0	-33.1	13.6	4.50e-06	0	42	0	290455552	20	5102
2026-01-29 10:28:36.42	166.13	23.89	-30.0	-33.1	13.6	5.30e-06	0	42	0	292552704	20	5092
2026-01-29 10:28:37.42	166.15	24.04	-30.1	-33.2	13.5	5.30e-06	0	42	0	294649856	20	5151
2026-01-29 10:28:38.42	166.18	24.20	-30.2	-33.5	13.4	9.10e-06	0	42	0	296747008	20	5254
2026-01-29 10:28:39.42	166.21	24.35	-30.2	-33.6	13.4	1.75e-05	0	42	0	298844160	20	5284
2026-01-29 10:28:40.42	166.24	24.51	-30.2	-33.5	13.4	1.90e-05	0	42	0	300941312	20	5269
2026-01-29 10:28:41.43	166.26	24.67	-30.3	-33.8	13.2	1.67e-05	0	42	0	301989888	20	5378
2026-01-29 10:28:42.43	166.29	24.82	-30.3	-33.8	13.1	2.74e-05	0	42	0	304087040	20	5385
2026-01-29 10:28:43.43	166.32	24.98	-30.4	-34.0	13.1	3.05e-05	0	42	0	306184192	20	5445
2026-01-29 10:28:44.43	166.35	25.14	-30.6	-34.2	12.6	7.17e-05	0	42	0	308281344	21	5417
2026-01-29 10:28:45.44	166.38	25.30	-30.7	-34.3	12.4	1.23e-04	0	42	0	309329920	21	5491
2026-01-29 10:28:46.44	166.41	25.47	-30.5	-33.9	12.8	8.01e-05	0	42	0	311427072	21	5326
2026-01-29 10:28:47.45	166.44	25.63	-30.3	-33.3	13.2	2.67e-05	0	42	0	313524224	21	5072
2026-01-29 10:28:48.45	166.47	25.79	-30.1	-32.8	13.5	9.90e-06	0	42	0	315621376	21	4872
2026-01-29 10:28:49.45	166.50	25.96	-30.1	-32.7	13.6	7.60e-06	0	42	0	317718528	21	4846
2026-01-29 10:28:50.45	166.53	26.12	-30.1	-32.8	13.6	9.90e-06	0	42	0	318767104	21	4870
2026-01-29 10:28:51.46	166.56	26.29	-30.2	-32.8	13.5	3.80e-06	0	42	0	320864256	21	4895
2026-01-29 10:28:52.47	166.59	26.46	-30.3	-33.4	13.2	1.83e-05	0	42	0	322961408	21	5099
2026-01-29 10:28:53.46	166.62	26.63	-30.4	-33.5	13.1	2.67e-05	0	42	0	325058560	21	5152
2026-01-29 10:28:54.46	166.65	26.80	-30.4	-33.6	13.1	2.89e-05	0	42	0	327155712	21	5194
2026-01-29 10:28:55.46	166.68	26.97	-30.5	-33.8	12.9	4.27e-05	0	42	0	328204288	21	5267
2026-01-29 10:28:56.46	166.71	27.14	-30.6	-34.0	12.8	6.63e-05	0	42	0	330301440	21	5356
2026-01-29 10:28:57.46	166.75	27.31	-30.7	-34.2	12.6	6.02e-05	0	42	0	332398592	21	5425
2026-01-29 10:28:58.46	166.78	27.49	-30.7	-34.4	12.6	9.23e-05	0	42	0	334495744	21	5484
2026-01-29 10:28:59.47	166.81	27.66	-30.7	-34.4	12.6	9.76e-05	0	42	0	335544320	21	5485
2026-01-29 10:29:00.48	166.84	27.84	-30.8	-34.7	12.4	1.62e-04	0	42	0	337641472	21	5617
2026-01-29 10:29:01.48	166.88	28.02	-30.9	-34.9	12.2	1.39e-04	0	42	0	339738624	21	5710
2026-01-29 10:29:02.49	166.91	28.20	-30.8	-34.7	12.4	1.78e-04	0	42	0	341835776	21	5631
2026-01-29 10:29:03.49	166.95	28.38	-30.9	-34.9	12.3	1.70e-04	0	42	0	343932928	21	5683
2026-01-29 10:29:04.50	166.98	28.56	-30.9	-35.0	12.2	2.20e-04	0	42	0	346030080	21	5746
2026-01-29 10:29:05.50	167.02	28.74	-30.9	-35.0	12.2	2.17e-04	0	42	0	347078656	21	5717
2026-01-29 10:29:06.51	167.05	28.93	-31.1	-34.9	11.9	2.68e-04	0	42	0	349175808	22	5583
2026-01-29 10:29:07.51	167.09	29.11	-31.2	-35.4	11.6	5.81e-04	0	42	0	351272960	22	5780
2026-01-29 10:29:08.51	167.12	29.30	-31.3	-35.5	11.5	6.29e-04	0	42	0	353370112	22	5859
2026-01-29 10:29:09.51	167.16	29.48	-31.5	-36.0	11.2	1.07e-03	0	42	0	354418688	22	6091
2026-01-29 10:29:10.51	167.20	29.67	-31.4	-35.7	11.4	1.19e-03	0	42	0	356515840	22	5937
2026-01-29 10:29:11.50	167.23	29.86	-31.4	-36.0	11.2	1.33e-03	0	42	0	358612992	22	6076
2026-01-29 10:29:12.51	167.27	30.05	-31.5	-36.1	11.1	1.50e-03	0	42	0	360710144	22	6158
2026-01-29 10:29:13.51	167.31	30.24	-31.5	-35.6	11.1	1.56e-03	0	42	0	362807296	23	5812
2026-01-29 10:29:14.50	167.35	30.43	-31.5	-35.7	11.1	1.75e-03	0	42	0	363855872	23	5820
2026-01-29 10:29:15.51	167.39	30.63	-31.5	-35.7	11.1	1.78e-03	0	42	0	365953024	23	5841
2026-01-29 10:29:16.51	167.42	30.82	-31.5	-35.5	11.1	1.64e-03	0	42	0	368050176	23	5760
2026-01-29 10:29:17.52	167.46	31.02	-31.4	-35.5	11.2	1.32e-03	0	42	0	370147328	23	5722
2026-01-29 10:29:18.53	167.51	31.22	-31.5	-35.5	11.2	1.28e-03	0	42	0	372244480	23	5745
2026-01-29 10:29:19.54	167.55	31.43	-31.4	-35.4	11.3	1.52e-03	0	42	0	373293056	23	5679
2026-01-29 10:29:20.54	167.59	31.63	-31.3	-35.1	11.5	1.06e-03	0	42	0	375390208	23	5568
2026-01-29 10:29:21.54	167.63	31.83	-31.4	-35.3	11.4	1.00e-03	0	42	0	377487360	23	5647
2026-01-29 10:29:22.55	167.67	32.03	-31.4	-35.4	11.3	1.24e-03	0	42	0	379584512	23	5692
2026-01-29 10:29:23.55	167.71	32.24	-31.4	-35.4	11.3	9.27e-04	0	42	0	381681664	23	5697
2026-01-29 10:29:24.55	167.76	32.45	-31.4	-35.3	11.3	1.15e-03	0	42	0	382730240	23	5662
2026-01-29 10:29:25.56	167.80	32.66	-31.4	-35.2	11.5	9.25e-04	0	42	0	384827392	23	5605
2026-01-29 10:29:26.55	167.84	32.86	-31.4	-35.4	11.3	9.19e-04	0	42	0	386924544	23	5708
2026-01-29 10:29:27.56	167.89	33.08	-31.4	-35.3	11.4	1.26e-03	0	42	0	389021696	23	5658
2026-01-29 10:29:28.56	167.93	33.29	-31.2	-34.8	11.8	6.93e-04	0	42	0	391118848	23	5421
2026-01-29 10:29:29.56	167.98	33.50	-31.2	-34.6	11.9	4.42e-04	0	42	0	392167424	23	5357
2026-01-29 10:29:30.57	168.03	33.72	-31.1	-34.3	12.1	3.20e-04	0	42	0	394264576	23	5222
2026-01-29 10:29:31.57	168.07	33.94	-30.9	-33.9	12.4	1.76e-04	0	42	0	396361728	23	5067
2026-01-29 10:29:32.57	168.12	34.15	-30.9	-33.8	12.4	1.47e-04	0	42	0	398458880	23	5035
2026-01-29 10:29:33.57	168.17	34.37	-31.0	-33.9	12.4	1.27e-04	0	42	0	399507456	23	5073
2026-01-29 10:29:34.57	168.22	34.59	-30.9	-33.9	12.4	2.15e-04	0	42	0	401604608	23	5062
2026-01-29 10:29:35.57	168.26	34.82	-30.6	-33.4	13.1	3.96e-05	0	42	0	403701760	22	4974
2026-01-29 10:29:36.57	168.31	35.04	-30.5	-33.2	13.2	3.58e-05	0	42	0	405798912	22	4891
2026-01-29 10:29:37.58	168.37	35.27	-30.5	-33.1	13.3	1.44e-05	0	42	0	407896064	22	4845
2026-01-29 10:29:38.58	168.42	35.50	-30.4	-32.8	13.5	9.90e-06	0	42	0	408944640	22	4753
2026-01-29 10:29:39.58	168.47	35.73	-30.2	-32.9	13.7	7.60e-06	0	42	0	411041792	21	4896
2026-01-29 10:29:40.58	168.52	35.96	-30.2	-32.7	13.9	5.30e-06	0	42	0	413138944	21	4825
2026-01-29 10:29:41.58	168.57	36.19	-30.0	-32.3	14.1	7.60e-06	0	42	0	415236096	21	4676
2026-01-29 10:29:42.59	168.63	36.43	-30.0	-32.2	14.2	2.20e-06	0	42	0	417333248	21	4637
2026-01-29 10:29:43.59	168.68	36.66	-29.9	-31.8	14.4	7.00e-07	0	42	0	418381824	21	4523
2026-01-29 10:29:44.60	168.74	36.90	-29.8	-31.7	14.5	0.00e+00	0	42	0	420478976	21	4463
2026-01-29 10:29:45.60	168.79	37.14	-29.8	-32.3	14.5	0.00e+00	0	42	0	422576128	20	4776
2026-01-29 10:29:46.61	168.85	37.39	-29.8	-32.2	14.6	7.00e-07	0	42	0	424673280	20	4751
2026-01-29 10:29:47.62	168.91	37.63	-29.8	-32.3	14.5	7.00e-07	0	42	0	426770432	20	4764
2026-01-29 10:29:48.62	168.97	37.88	-29.7	-32.0	14.7	2.20e-06	0	42	0	427819008	20	4663
2026-01-29 10:29:49.62	169.03	38.12	-29.6	-31.6	14.9	7.00e-07	0	42	0	429916160	20	4559
2026-01-29 10:29:50.63	169.09	38.37	-29.6	-31.8	14.8	0.00e+00	0	42	0	432013312	20	4609
2026-01-29 10:29:51.63	169.15	38.62	-29.6	-31.7	14.9	4.50e-06	0	42	0	434110464	20	4568
2026-01-29 10:29:52.64	169.21	38.88	-29.6	-31.6	14.9	0.00e+00	0	42	0	436207616	20	4542
2026-01-29 10:29:53.65	169.27	39.13	-29.7	-31.9	14.7	0.00e+00	0	42	0	437256192	20	4647
2026-01-29 10:29:54.65	169.34	39.39	-29.8	-32.2	14.6	0.00e+00	0	42	0	439353344	20	4724
2026-01-29 10:29:55.66	169.40	39.65	-29.8	-32.2	14.6	1.50e-06	0	42	0	441450496	20	4735
2026-01-29 10:29:56.66	169.47	39.91	-29.9	-32.4	14.4	7.00e-07	0	42	0	443547648	20	4812
2026-01-29 10:29:57.67	169.54	40.17	-30.0	-32.7	14.3	1.50e-06	0	42	0	445644800	20	4891
2026-01-29 10:29:58.67	169.60	40.43	-30.1	-33.0	14.1	1.50e-06	0	42	0	446693376	20	5017
2026-01-29 10:29:59.67	169.67	40.70	-30.2	-33.2	13.9	3.00e-06	0	42	0	448790528	20	5101
2026-01-29 10:30:00.68	169.74	40.97	-30.3	-33.5	13.8	1.37e-05	0	42	0	450887680	20	5188
2026-01-29 10:30:01.68	169.81	41.24	-30.6	-33.7	13.4	1.37e-05	0	42	0	452984832	21	5165
2026-01-29 10:30:02.69	169.89	41.51	-30.6	-33.8	13.2	2.13e-05	0	42	0	455081984	21	5196
2026-01-29 10:30:03.69	169.96	41.78	-30.8	-34.4	12.8	4.11e-05	0	42	0	456130560	21	5459
2026-01-29 10:30:04.70	170.04	42.06	-30.8	-34.4	12.9	6.02e-05	0	42	0	458227712	21	5438
2026-01-29 10:30:05.69	170.11	42.33	-30.6	-33.8	13.2	2.36e-05	0	42	0	460324864	21	5200
2026-01-29 10:30:06.69	170.19	42.61	-30.6	-33.8	13.2	2.13e-05	0	42	0	462422016	21	5205
2026-01-29 10:30:07.70	170.27	42.90	-30.8	-34.3	13.0	2.13e-05	0	42	0	464519168	21	5376
2026-01-29 10:30:08.70	170.35	43.18	-30.8	-34.3	13.0	2.97e-05	0	42	0	465567744	21	5386
2026-01-29 10:30:09.71	170.43	43.47	-30.7	-34.1	13.1	3.20e-05	0	42	0	467664896	21	5298
2026-01-29 10:30:10.71	170.51	43.75	-30.7	-34.1	13.1	3.81e-05	0	42	0	469762048	21	5300
2026-01-29 10:30:11.72	170.59	44.04	-30.8	-34.3	13.0	2.89e-05	0	42	0	471859200	21	5392
2026-01-29 10:30:12.72	170.68	44.34	-30.6	-33.8	13.3	2.28e-05	0	42	0	473956352	21	5193
2026-01-29 10:30:13.73	170.77	44.63	-30.7	-34.2	13.1	2.13e-05	0	42	0	475004928	21	5335
2026-01-29 10:30:14.73	170.85	44.93	-30.7	-34.0	13.2	2.28e-05	0	42	0	477102080	21	5251
2026-01-29 10:30:15.72	170.94	45.22	-30.6	-33.9	13.3	2.05e-05	0	42	0	479199232	21	5233
2026-01-29 10:30:16.73	171.04	45.52	-30.8	-34.4	13.0	5.03e-05	0	42	0	481296384	21	5417
2026-01-29 10:30:17.73	171.13	45.83	-31.1	-34.5	12.6	8.85e-05	0	42	0	482344960	22	5362
2026-01-29 10:30:18.74	171.22	46.13	-31.4	-35.4	12.0	2.67e-04	0	42	0	484442112	22	5759
2026-01-29 10:30:19.73	171.32	46.44	-31.5	-35.4	11.7	6.37e-04	0	42	0	486539264	23	5617
2026-01-29 10:30:20.74	171.42	46.75	-31.7	-35.9	11.2	9.41e-04	0	42	0	488636416	23	5833
2026-01-29 10:30:21.74	171.52	47.06	-31.6	-35.6	11.4	1.34e-03	0	42	0	490733568	23	5726
2026-01-29 10:30:22.74	171.62	47.37	-31.4	-35.1	11.8	5.24e-04	0	42	0	491782144	23	5512
2026-01-29 10:30:23.75	171.73	47.69	-31.5	-35.2	11.8	5.44e-04	0	42	0	493879296	23	5528
2026-01-29 10:30:24.75	171.83	48.01	-31.6	-35.7	11.3	5.20e-04	0	42	0	495976448	23	5786
2026-01-29 10:30:25.75	171.94	48.33	-31.6	-35.6	11.5	9.76e-04	0	42	0	498073600	23	5724
2026-01-29 10:30:26.75	172.05	48.65	-31.7	-35.8	11.3	9.71e-04	0	42	0	500170752	23	5805
2026-01-29 10:30:27.76	172.17	48.98	-31.7	-35.9	11.3	1.66e-03	0	42	0	501219328	23	5836
2026-01-29 10:30:28.76	172.28	49.30	-31.7	-35.8	11.4	9.40e-04	0	42	0	503316480	23	5790
2026-01-29 10:30:29.75	172.40	49.63	-31.7	-35.9	11.3	1.22e-03	0	42	0	505413632	23	5833
2026-01-29 10:30:30.76	172.52	49.96	-31.3	-34.8	12.0	4.41e-04	0	42	0	507510784	23	5366
2026-01-29 10:30:31.76	172.64	50.30	-31.1	-34.2	12.4	1.83e-04	0	42	0	509607936	23	5131
2026-01-29 10:30:32.76	172.77	50.63	-30.9	-33.7	12.8	9.84e-05	0	42	0	510656512	23	4925
2026-01-29 10:30:33.76	172.90	50.97	-31.1	-34.2	12.5	1.01e-04	0	42	0	512753664	23	5111
2026-01-29 10:30:34.77	173.03	51.31	-30.7	-33.5	13.2	9.00e-05	0	42	0	514850816	22	4970
2026-01-29 10:30:35.77	173.17	51.65	-30.3	-32.4	14.0	2.20e-06	0	42	0	516947968	22	4569
2026-01-29 10:30:36.78	173.30	52.00	-30.1	-32.4	14.3	0.00e+00	0	42	0	519045120	21	4677
2026-01-29 10:30:37.78	173.44	52.35	-30.2	-32.7	14.1	7.00e-07	0	42	0	520093696	21	4780
2026-01-29 10:30:38.78	173.59	52.70	-30.1	-32.3	14.4	2.20e-06	0	42	0	522190848	21	4644
2026-01-29 10:30:39.79	173.74	53.05	-29.8	-32.0	14.9	0.00e+00	0	42	0	524288000	20	4648
2026-01-29 10:30:40.78	173.89	53.41	-29.4	-31.0	15.5	0.00e+00	0	42	0	526385152	20	4347
2026-01-29 10:30:41.79	174.04	53.76	-29.2	-31.1	15.8	0.00e+00	0	42	0	528482304	19	4462
2026-01-29 10:30:42.79	174.20	54.12	-29.0	-30.5	16.1	0.00e+00	0	42	0	529530880	19	4296
2026-01-29 10:30:43.80	174.36	54.49	-28.6	-30.2	16.6	0.00e+00	0	42	0	531628032	18	4294
2026-01-29 10:30:44.80	174.53	54.85	-28.4	-29.7	16.9	0.00e+00	0	42	0	533725184	18	4159
2026-01-29 10:30:45.80	174.70	55.22	-28.2	-29.7	17.1	0.00e+00	0	42	0	535822336	17	4270
2026-01-29 10:30:46.80	174.87	55.58	-28.3	-30.0	17.0	0.00e+00	0	42	0	536870912	17	4362
2026-01-29 10:30:47.80	175.05	55.95	-28.2	-29.7	17.1	0.00e+00	0	42	0	538968064	17	4273
2026-01-29 10:30:48.80	175.24	56.33	-28.2	-29.7	17.2	0.00e+00	0	42	0	541065216	17	4273
2026-01-29 10:30:49.80	175.42	56.70	-28.5	-30.3	16.9	0.00e+00	0	42	0	543162368	17	4437
2026-01-29 10:30:50.80	175.62	57.08	-29.1	-31.3	16.0	0.00e+00	0	42	0	545259520	18	4625
2026-01-29 10:30:51.80	175.82	57.46	-29.7	-32.2	15.2	0.00e+00	0	42	0	546308096	19	4799
2026-01-29 10:30:52.80	176.02	57.84	-30.0	-32.6	14.6	0.00e+00	0	42	0	548405248	20	4845
2026-01-29 10:30:53.80	176.23	58.22	-29.8	-32.1	14.9	7.00e-07	0	42	0	550502400	20	4688
2026-01-29 10:30:54.81	176.45	58.61	-29.6	-31.5	15.3	0.00e+00	0	42	0	552599552	20	4475
2026-01-29 10:30:55.81	176.67	59.00	-29.4	-30.9	15.6	0.00e+00	0	42	0	554696704	20	4311
2026-01-29 10:30:56.82	176.90	59.39	-29.3	-31.3	15.7	0.00e+00	0	42	0	555745280	19	4523
2026-01-29 10:30:57.82	177.14	59.78	-29.1	-30.6	16.2	0.00e+00	0	42	0	557842432	19	4324
2026-01-29 10:30:58.82	177.38	60.18	-29.0	-30.6	16.2	0.00e+00	0	42	0	559939584	19	4302
2026-01-29 10:30:59.83	177.64	60.58	-29.4	-31.4	15.8	0.00e+00	0	42	0	562036736	19	4562
2026-01-29 10:31:00.83	177.90	60.97	-29.2	-31.1	16.0	0.00e+00	0	42	0	564133888	19	4450
2026-01-29 10:31:01.84	178.17	61.38	-28.8	-30.1	16.5	0.00e+00	0	42	0	565182464	19	4168
2026-01-29 10:31:02.85	178.44	61.78	-28.6	-30.0	16.9	0.00e+00	0	42	0	567279616	18	4243
2026-01-29 10:31:03.85	178.73	62.19	-28.3	-29.4	17.2	0.00e+00	0	42	0	569376768	18	4079
2026-01-29 10:31:04.85	179.02	62.59	-28.3	-29.8	17.3	0.00e+00	0	42	0	571473920	17	4286
2026-01-29 10:31:05.85	179.33	63.00	-28.3	-29.9	17.2	0.00e+00	0	42	0	573571072	17	4326
2026-01-29 10:31:06.85	179.64	63.41	-28.8	-31.0	16.6	0.00e+00	0	42	0	574619648	17	4650
2026-01-29 10:31:07.86	179.97	63.82	-29.0	-31.0	16.3	0.00e+00	0	42	0	576716800	18	4526
2026-01-29 10:31:08.86	180.31	64.23	-29.4	-32.0	15.7	0.00e+00	0	42	0	578813952	18	4861
2026-01-29 10:31:09.86	180.66	64.65	-30.0	-32.5	14.8	0.00e+00	0	42	0	580911104	20	4781
2026-01-29 10:31:10.87	181.02	65.07	-30.6	-33.7	13.8	7.00e-07	0	42	0	581959680	21	5102
2026-01-29 10:31:11.87	181.40	65.48	-30.7	-33.9	13.6	9.10e-06	0	42	0	584056832	21	5194
2026-01-29 10:31:12.87	181.79	65.90	-30.8	-34.0	13.5	1.29e-05	0	42	0	586153984	21	5233
2026-01-29 10:31:13.87	182.20	66.32	-30.6	-33.6	13.9	3.80e-06	0	42	0	588251136	21	5065
2026-01-29 10:31:14.87	182.62	66.74	-30.5	-33.2	14.0	1.50e-06	0	42	0	590348288	21	4910
2026-01-29 10:31:15.88	183.06	67.16	-30.4	-33.1	14.1	3.80e-06	0	42	0	591396864	21	4893
2026-01-29 10:31:16.88	183.52	67.58	-30.6	-33.5	13.9	3.80e-06	0	42	0	593494016	21	5041
2026-01-29 10:31:17.88	183.99	68.01	-30.7	-33.7	13.8	3.80e-06	0	42	0	595591168	21	5096
2026-01-29 10:31:18.88	184.49	68.43	-30.9	-34.2	13.5	4.50e-06	0	42	0	597688320	21	5292
2026-01-29 10:31:19.88	185.00	68.85	-30.8	-34.0	13.5	1.60e-05	0	42	0	599785472	21	5236
2026-01-29 10:31:20.89	185.55	69.28	-30.6	-33.6	13.9	4.50e-06	0	42	0	600834048	21	5084
2026-01-29 10:31:21.90	186.12	69.71	-30.8	-34.0	13.6	1.50e-06	0	42	0	602931200	21	5209
2026-01-29 10:31:22.90	186.71	70.13	-30.3	-32.8	14.4	3.80e-06	0	42	0	605028352	21	4779
2026-01-29 10:31:23.90	187.32	70.55	-30.0	-32.0	14.9	0.00e+00	0	42	0	607125504	21	4527
2026-01-29 10:31:24.90	187.97	70.98	-30.6	-33.6	14.0	0.00e+00	0	42	0	609222656	21	5047
2026-01-29 10:31:25.90	188.64	71.40	-31.2	-34.7	12.9	1.75e-05	0	42	0	610271232	22	5370
2026-01-29 10:31:26.90	189.35	71.82	-31.2	-34.7	12.9	5.11e-05	0	42	0	612368384	22	5368
2026-01-29 10:31:27.90	190.10	72.24	-31.0	-34.2	13.2	1.98e-05	0	42	0	614465536	22	5158
2026-01-29 10:31:28.91	190.89	72.66	-30.9	-33.8	13.5	1.37e-05	0	42	0	616562688	22	5039
2026-01-29 10:31:29.91	191.71	73.08	-30.9	-33.8	13.6	2.05e-05	0	42	0	618659840	22	5018
2026-01-29 10:31:30.92	192.59	73.50	-30.9	-33.7	13.6	9.90e-06	0	42	0	619708416	22	4985
2026-01-29 10:31:31.92	193.50	73.91	-31.6	-35.4	12.2	5.64e-05	0	42	0	621805568	23	5527
2026-01-29 10:31:32.92	194.47	74.32	-31.8	-35.9	11.7	4.84e-04	0	42	0	623902720	23	5782
2026-01-29 10:31:33.92	195.49	74.73	-31.5	-35.1	12.4	2.14e-04	0	42	0	625999872	23	5398
2026-01-29 10:31:34.92	196.56	75.13	-31.2	-34.0	13.1	4.95e-05	0	42	0	628097024	23	4981
2026-01-29 10:31:35.92	197.70	75.53	-31.4	-34.5	12.7	3.05e-05	0	42	0	629145600	23	5169
2026-01-29 10:31:36.92	198.90	75.93	-31.6	-35.2	12.4	7.85e-05	0	42	0	631242752	23	5440
2026-01-29 10:31:37.93	200.19	76.32	-32.1	-36.1	11.3	4.94e-04	0	42	0	633339904	24	5734
2026-01-29 10:31:38.93	201.54	76.71	-32.5	-37.4	10.3	1.57e-03	0	42	0	635437056	24	6388
2026-01-29 10:31:39.94	202.99	77.09	-32.8	-38.2	9.4	1.21e-02	0	42	0	636485632	25	6709
2026-01-29 10:31:40.94	204.51	77.46	-32.6	-37.3	10.1	7.50e-03	0	42	0	638582784	25	6186
2026-01-29 10:31:41.94	206.13	77.82	-32.4	-36.5	10.7	3.29e-03	0	42	0	640679936	25	5819
2026-01-29 10:31:42.94	207.85	78.17	-32.5	-37.2	10.3	4.26e-03	0	42	0	642777088	25	6115
2026-01-29 10:31:43.93	209.65	78.51	-32.2	-36.1	11.0	2.82e-03	0	42	0	644874240	25	5626
2026-01-29 10:31:44.93	211.58	78.84	-32.0	-35.3	11.7	1.17e-03	0	42	0	645922816	25	5267
2026-01-29 10:31:45.94	213.65	79.16	-31.8	-35.0	12.2	5.12e-04	0	42	0	648019968	24	5245
2026-01-29 10:31:46.94	215.83	79.46	-31.1	-33.7	13.5	7.40e-05	0	42	0	650117120	23	4858
2026-01-29 10:31:47.95	218.16	79.76	-30.9	-33.2	13.8	6.10e-06	0	42	0	652214272	23	4680
2026-01-29 10:31:48.95	220.59	80.03	-31.6	-35.0	12.7	2.51e-05	0	42	0	654311424	23	5325
2026-01-29 10:31:49.95	223.16	80.28	-31.3	-34.2	13.1	8.77e-05	0	42	0	655360000	23	5018
2026-01-29 10:31:50.96	225.90	80.52	-31.1	-33.8	13.4	2.36e-05	0	42	0	657457152	23	4883
2026-01-29 10:31:51.96	228.73	80.73	-31.2	-34.1	13.2	1.52e-05	0	42	0	659554304	23	5000
2026-01-29 10:31:52.97	231.73	80.92	-31.1	-33.6	13.5	2.13e-05	0	42	0	661651456	23	4812
2026-01-29 10:31:53.97	234.81	81.08	-30.9	-33.1	13.8	4.50e-06	0	42	0	663748608	23	4641
2026-01-29 10:31:54.98	238.04	81.22	-31.3	-34.1	13.2	1.14e-05	0	42	0	664797184	23	4984
2026-01-29 10:31:55.98	241.32	81.33	-31.2	-33.9	13.4	1.83e-05	0	42	0	666894336	23	4929
2026-01-29 10:31:56.97	244.65	81.41	-31.0	-33.4	13.7	1.14e-05	0	42	0	668991488	23	4741
2026-01-29 10:31:57.97	248.06	81.46	-31.0	-33.5	13.6	4.50e-06	0	42	0	671088640	23	4789
2026-01-29 10:31:58.98	251.53	81.49	-30.7	-33.1	14.2	5.30e-06	0	42	0	673185792	22	4750
2026-01-29 10:31:59.98	254.98	81.48	-30.6	-32.8	14.5	7.00e-07	0	42	0	674234368	22	4635
2026-01-29 10:32:00.98	258.40	81.44	-31.1	-34.1	13.6	7.60e-06	0	42	0	676331520	22	5087
2026-01-29 10:32:01.98	261.79	81.37	-31.6	-35.1	12.6	7.47e-05	0	42	0	678428672	23	5366
2026-01-29 10:32:02.99	265.13	81.27	-31.9	-35.5	12.1	1.92e-04	0	42	0	680525824	24	5404
2026-01-29 10:32:04.00	268.40	81.14	-31.9	-35.3	12.1	2.84e-04	0	42	0	681574400	24	5333
2026-01-29 10:32:05.00	271.52	80.99	-31.5	-34.2	12.8	1.08e-04	0	42	0	683671552	24	4939
2026-01-29 10:32:06.00	274.54	80.81	-31.0	-33.3	13.8	1.37e-05	0	42	0	685768704	23	4682
2026-01-29 10:32:07.00	277.42	80.61	-31.1	-33.6	13.6	2.20e-06	0	42	0	687865856	23	4807
2026-01-29 10:32:08.00	280.18	80.38	-31.1	-33.6	13.6	1.06e-05	0	42	0	689963008	23	4797
2026-01-29 10:32:09.01	282.83	80.13	-30.4	-32.2	14.9	7.00e-07	0	42	0	691011584	22	4439
2026-01-29 10:32:10.01	285.32	79.87	-30.3	-32.4	15.0	0.00e+00	0	42	0	693108736	21	4631
2026-01-29 10:32:11.01	287.68	79.59	-30.8	-34.0	14.0	4.50e-06	0	42	0	695205888	21	5170
2026-01-29 10:32:12.01	289.90	79.29	-30.7	-33.5	14.2	3.00e-06	0	42	0	697303040	21	4987
2026-01-29 10:32:13.00	291.98	78.98	-30.5	-33.2	14.4	1.50e-06	0	42	0	699400192	21	4877
2026-01-29 10:32:14.01	293.98	78.65	-30.6	-33.4	14.3	0.00e+00	0	42	0	700448768	21	4966
2026-01-29 10:32:15.01	295.85	78.31	-31.0	-34.0	13.6	3.80e-06	0	42	0	702545920	22	5055
2026-01-29 10:32:16.01	297.61	77.97	-31.9	-36.1	11.8	7.17e-05	0	42	0	704643072	23	5840
2026-01-29 10:32:17.01	299.26	77.61	-32.7	-37.7	9.8	4.32e-03	0	42	0	706740224	25	6425
2026-01-29 10:32:18.02	300.84	77.24	-32.1	-35.7	11.4	2.05e-03	0	42	0	708837376	25	5435
2026-01-29 10:32:19.02	302.31	76.87	-31.6	-34.5	12.5	2.23e-04	0	42	0	709885952	24	5057
2026-01-29 10:32:20.02	303.69	76.49	-31.6	-34.7	12.5	9.46e-05	0	42	0	711983104	24	5123
2026-01-29 10:32:21.03	305.01	76.09	-31.5	-34.2	12.7	8.46e-05	0	42	0	714080256	24	4955
2026-01-29 10:32:22.03	306.24	75.70	-31.4	-34.2	12.7	6.63e-05	0	42	0	716177408	24	4949
2026-01-29 10:32:23.03	307.41	75.31	-31.5	-34.4	12.5	7.93e-05	0	42	0	718274560	24	5036
2026-01-29 10:32:24.04	308.52	74.90	-31.8	-35.2	12.0	1.52e-04	0	42	0	719323136	24	5339
2026-01-29 10:32:25.05	309.57	74.49	-32.1	-36.1	11.2	7.61e-04	0	42	0	721420288	24	5742
2026-01-29 10:32:26.05	310.55	74.08	-32.2	-36.5	11.0	2.11e-03	0	42	0	723517440	24	5930
2026-01-29 10:32:27.05	311.48	73.67	-31.8	-35.3	11.9	8.72e-04	0	42	0	725614592	24	5370
2026-01-29 10:32:28.06	312.38	73.25	-31.6	-34.7	12.3	1.42e-04	0	42	0	726663168	24	5141
2026-01-29 10:32:29.06	313.22	72.84	-31.7	-35.0	12.1	2.64e-04	0	42	0	728760320	24	5282
2026-01-29 10:32:30.06	314.02	72.42	-31.4	-34.1	12.6	1.78e-04	0	42	0	730857472	24	4928
2026-01-29 10:32:31.07	314.78	72.00	-31.4	-34.2	12.6	6.63e-05	0	42	0	732954624	24	4970
2026-01-29 10:32:32.08	315.51	71.57	-31.0	-33.4	13.5	2.28e-05	0	42	0	735051776	23	4755
2026-01-29 10:32:33.07	316.19	71.16	-30.6	-33.0	14.0	1.50e-06	0	42	0	737148928	22	4729
2026-01-29 10:32:34.07	316.85	70.73	-31.0	-34.1	13.2	3.00e-06	0	42	0	738197504	22	5134
2026-01-29 10:32:35.07	317.48	70.31	-31.6	-35.2	12.2	1.43e-04	0	42	0	740294656	23	5477
2026-01-29 10:32:36.07	318.08	69.89	-31.4	-34.6	12.6	1.52e-04	0	42	0	742391808	23	5237
2026-01-29 10:32:37.07	318.65	69.47	-31.1	-33.8	13.1	7.24e-05	0	42	0	744488960	23	4927
2026-01-29 10:32:38.08	319.21	69.04	-31.2	-34.0	13.0	1.83e-05	0	42	0	745537536	23	5001
2026-01-29 10:32:39.09	319.74	68.61	-31.8	-36.0	11.7	2.68e-04	0	42	0	747634688	23	5824
2026-01-29 10:32:40.09	320.24	68.19	-32.2	-36.7	10.7	1.33e-03	0	42	0	749731840	24	6073
2026-01-29 10:32:41.10	320.73	67.77	-32.5	-37.5	9.8	7.18e-03	0	42	0	751828992	25	6344
2026-01-29 10:32:42.10	321.19	67.35	-32.0	-35.5	11.2	3.22e-03	0	42	0	753926144	25	5408
2026-01-29 10:32:43.10	321.63	66.93	-31.8	-34.9	11.6	8.20e-04	0	42	0	754974720	25	5173
2026-01-29 10:32:44.11	322.07	66.50	-31.9	-35.4	11.3	9.42e-04	0	42	0	757071872	25	5342
2026-01-29 10:32:45.11	322.48	66.09	-31.8	-35.1	11.6	7.56e-04	0	42	0	759169024	25	5225
2026-01-29 10:32:46.11	322.87	65.67	-31.5	-34.7	12.2	5.12e-04	0	42	0	761266176	24	5165
2026-01-29 10:32:47.10	323.25	65.26	-31.1	-33.8	13.1	9.68e-05	0	42	0	763363328	23	4941
2026-01-29 10:32:48.11	323.62	64.84	-30.7	-33.2	13.8	1.60e-05	0	42	0	764411904	22	4826
2026-01-29 10:32:49.11	323.98	64.43	-30.9	-33.7	13.4	4.50e-06	0	42	0	766509056	22	4989
2026-01-29 10:32:50.12	324.32	64.01	-30.4	-32.6	14.2	5.30e-06	0	42	0	768606208	22	4605
2026-01-29 10:32:51.12	324.65	63.60	-30.3	-32.7	14.4	1.50e-06	0	42	0	770703360	21	4748
2026-01-29 10:32:52.12	324.97	63.19	-29.9	-31.8	14.9	7.00e-07	0	42	0	771751936	21	4458
2026-01-29 10:32:53.12	325.28	62.79	-29.6	-31.4	15.4	0.00e+00	0	42	0	773849088	20	4452
2026-01-29 10:32:54.13	325.58	62.38	-29.4	-31.0	15.7	0.00e+00	0	42	0	775946240	20	4325
2026-01-29 10:32:55.13	325.87	61.98	-29.7	-31.7	15.3	0.00e+00	0	42	0	778043392	20	4531
2026-01-29 10:32:56.14	326.15	61.57	-30.0	-32.4	14.9	0.00e+00	0	42	0	780140544	20	4764
2026-01-29 10:32:57.14	326.42	61.17	-30.6	-33.5	13.8	2.20e-06	0	42	0	782237696	21	5043
2026-01-29 10:32:58.15	326.69	60.77	-30.6	-33.5	13.9	3.00e-06	0	42	0	783286272	21	5032
2026-01-29 10:32:59.15	326.94	60.37	-30.8	-34.0	13.5	5.30e-06	0	42	0	785383424	21	5235
2026-01-29 10:33:00.15	327.19	59.98	-31.0	-34.0	13.2	3.43e-05	0	42	0	787480576	22	5100
2026-01-29 10:33:01.16	327.43	59.59	-30.5	-32.8	14.0	8.30e-06	0	42	0	789577728	22	4684
2026-01-29 10:33:02.16	327.66	59.20	-30.5	-32.8	14.1	0.00e+00	0	42	0	790626304	22	4664
2026-01-29 10:33:03.16	327.89	58.81	-31.1	-34.5	12.9	2.13e-05	0	42	0	792723456	22	5296
2026-01-29 10:33:04.17	328.11	58.42	-31.7	-35.8	11.5	2.95e-04	0	42	0	794820608	23	5768
2026-01-29 10:33:05.17	328.32	58.04	-31.8	-36.1	11.4	1.23e-03	0	42	0	796917760	23	5901
2026-01-29 10:33:06.18	328.53	57.65	-31.4	-34.8	12.3	3.77e-04	0	42	0	799014912	23	5304
2026-01-29 10:33:07.18	328.73	57.28	-31.1	-34.0	12.9	1.45e-04	0	42	0	800063488	23	4998
2026-01-29 10:33:08.19	328.93	56.89	-30.7	-33.2	13.6	3.20e-05	0	42	0	802160640	22	4842
2026-01-29 10:33:09.20	329.12	56.52	-30.6	-33.0	13.8	4.50e-06	0	42	0	804257792	22	4765
2026-01-29 10:33:10.20	329.31	56.15	-30.9	-33.8	13.3	9.10e-06	0	42	0	806354944	22	5051
2026-01-29 10:33:11.21	329.49	55.77	-30.9	-33.9	13.1	2.67e-05	0	42	0	808452096	22	5092
2026-01-29 10:33:12.21	329.66	55.40	-30.3	-32.2	14.2	3.00e-06	0	42	0	809500672	22	4512
2026-01-29 10:33:13.22	329.84	55.04	-29.3	-30.9	15.7	7.00e-07	0	42	0	811597824	20	4290
2026-01-29 10:33:14.21	330.00	54.68	-28.7	-30.3	16.6	0.00e+00	0	42	0	813694976	18	4336
2026-01-29 10:33:15.22	330.17	54.31	-28.6	-30.1	16.7	0.00e+00	0	42	0	815792128	18	4279
2026-01-29 10:33:16.22	330.33	53.95	-29.2	-31.4	16.1	0.00e+00	0	42	0	817889280	18	4654
2026-01-29 10:33:17.23	330.49	53.59	-29.4	-31.9	15.7	0.00e+00	0	42	0	818937856	18	4829
2026-01-29 10:33:18.24	330.64	53.24	-29.7	-32.1	15.3	0.00e+00	0	42	0	821035008	19	4779
2026-01-29 10:33:19.24	330.79	52.89	-29.7	-32.3	15.2	0.00e+00	0	42	0	823132160	19	4827
2026-01-29 10:33:20.24	330.93	52.54	-30.2	-33.1	14.3	0.00e+00	0	42	0	825229312	20	5018
2026-01-29 10:33:21.25	331.08	52.19	-30.6	-33.5	13.7	7.00e-07	0	42	0	827326464	21	5059
2026-01-29 10:33:22.26	331.21	51.84	-30.8	-34.1	13.3	1.90e-05	0	42	0	828375040	21	5291
2026-01-29 10:33:23.26	331.35	51.50	-30.7	-34.0	13.4	7.60e-06	0	42	0	830472192	21	5221
2026-01-29 10:33:24.26	331.48	51.16	-31.3	-35.1	12.3	3.73e-05	0	42	0	832569344	22	5571
2026-01-29 10:33:25.26	331.61	50.82	-32.2	-37.0	10.3	7.21e-04	0	42	0	834666496	24	6238
2026-01-29 10:33:26.26	331.74	50.49	-32.9	-39.5	8.0	4.19e-02	0	42	0	836763648	25	7635
2026-01-29 10:33:27.26	331.86	50.15	-33.0	-39.4	7.5	1.15e-01	0	42	0	837812224	26	7493
2026-01-29 10:33:28.26	331.98	49.82	-32.8	-38.2	8.5	6.36e-02	0	42	0	839909376	26	6709
2026-01-29 10:33:29.26	332.10	49.49	-32.7	-37.7	8.9	3.21e-02	0	42	0	842006528	26	6424
2026-01-29 10:33:30.27	332.22	49.16	-32.7	-37.9	8.8	2.77e-02	0	42	0	844103680	26	6521
2026-01-29 10:33:31.28	332.34	48.84	-32.8	-38.0	8.6	3.86e-02	0	42	0	846200832	26	6613
2026-01-29 10:33:32.28	332.45	48.52	-32.4	-36.8	9.6	1.94e-02	0	42	0	847249408	26	5942
2026-01-29 10:33:33.29	332.56	48.19	-32.2	-36.6	10.1	9.10e-03	0	42	0	849346560	25	5950
2026-01-29 10:33:34.29	332.67	47.88	-32.0	-35.9	10.6	4.48e-03	0	42	0	851443712	25	5612
2026-01-29 10:33:35.29	332.77	47.56	-32.3	-36.7	10.0	5.16e-03	0	42	0	853540864	25	6029
2026-01-29 10:33:36.29	332.87	47.25	-32.4	-37.2	9.6	1.09e-02	0	42	0	855638016	25	6270
2026-01-29 10:33:37.28	332.97	46.94	-32.3	-37.0	9.8	1.40e-02	0	42	0	856686592	25	6151
2026-01-29 10:33:38.28	333.07	46.63	-31.9	-35.4	10.9	5.87e-03	0	42	0	858783744	25	5399
2026-01-29 10:33:39.29	333.17	46.33	-31.3	-34.3	12.1	4.89e-04	0	42	0	860880896	24	5039
2026-01-29 10:33:40.29	333.27	46.02	-30.9	-33.4	13.1	9.61e-05	0	42	0	862978048	23	4803
2026-01-29 10:33:41.29	333.36	45.72	-30.7	-33.3	13.5	1.29e-05	0	42	0	864026624	22	4880
2026-01-29 10:33:42.30	333.46	45.42	-30.7	-33.4	13.5	1.06e-05	0	42	0	866123776	22	4900
2026-01-29 10:33:43.30	333.55	45.12	-30.7	-33.3	13.4	9.90e-06	0	42	0	868220928	22	4890
2026-01-29 10:33:44.30	333.64	44.83	-30.2	-32.6	14.2	3.80e-06	0	42	0	870318080	21	4738
2026-01-29 10:33:45.31	333.72	44.53	-30.1	-32.2	14.4	1.50e-06	0	42	0	872415232	21	4620
2026-01-29 10:33:46.31	333.81	44.24	-30.2	-32.7	14.1	3.00e-06	0	42	0	873463808	21	4783
2026-01-29 10:33:47.31	333.89	43.95	-30.6	-33.6	13.5	6.80e-06	0	42	0	875560960	21	5109
2026-01-29 10:33:48.31	333.98	43.66	-30.8	-34.1	13.2	1.14e-05	0	42	0	877658112	21	5295
2026-01-29 10:33:49.31	334.06	43.38	-31.1	-34.6	12.6	3.73e-05	0	42	0	879755264	22	5368
2026-01-29 10:33:50.32	334.14	43.09	-31.1	-34.7	12.4	1.40e-04	0	42	0	881852416	22	5444
2026-01-29 10:33:51.32	334.22	42.81	-30.7	-33.6	13.2	6.25e-05	0	42	0	882900992	22	5012
2026-01-29 10:33:52.32	334.30	42.54	-30.3	-32.3	14.0	7.60e-06	0	42	0	884998144	22	4550
2026-01-29 10:33:53.32	334.37	42.26	-29.8	-31.6	14.8	0.00e+00	0	42	0	887095296	21	4437
2026-01-29 10:33:54.32	334.45	41.98	-29.5	-31.4	15.2	0.00e+00	0	42	0	889192448	20	4452
2026-01-29 10:33:55.33	334.52	41.71	-29.5	-31.2	15.3	0.00e+00	0	42	0	891289600	20	4400
2026-01-29 10:33:56.33	334.59	41.44	-29.6	-31.6	15.1	7.00e-07	0	42	0	892338176	20	4516
2026-01-29 10:33:57.34	334.67	41.17	-29.8	-32.0	14.8	0.00e+00	0	42	0	894435328	20	4662
2026-01-29 10:33:58.34	334.74	40.90	-30.2	-33.0	14.2	0.00e+00	0	42	0	896532480	20	4993
2026-01-29 10:33:59.34	334.81	40.64	-30.5	-33.5	13.6	3.00e-06	0	42	0	898629632	21	5069
2026-01-29 10:34:00.35	334.88	40.37	-31.0	-34.7	12.8	2.44e-05	0	42	0	900726784	21	5546
2026-01-29 10:34:01.35	334.94	40.11	-31.0	-34.7	12.7	5.56e-05	0	42	0	901775360	21	5561
2026-01-29 10:34:02.36	335.01	39.85	-31.0	-34.7	12.8	5.11e-05	0	42	0	903872512	21	5542
2026-01-29 10:34:03.36	335.08	39.59	-31.1	-34.6	12.5	1.07e-04	0	42	0	905969664	22	5403
2026-01-29 10:34:04.37	335.14	39.34	-31.1	-34.4	12.7	1.01e-04	0	42	0	908066816	22	5309
2026-01-29 10:34:05.37	335.20	39.08	-31.1	-34.6	12.5	8.54e-05	0	42	0	909115392	22	5367
2026-01-29 10:34:06.37	335.27	38.83	-31.0	-34.3	12.7	8.01e-05	0	42	0	911212544	22	5263
2026-01-29 10:34:07.37	335.33	38.58	-30.9	-34.0	12.9	5.03e-05	0	42	0	913309696	22	5144
2026-01-29 10:34:08.36	335.39	38.34	-30.8	-33.8	13.0	5.18e-05	0	42	0	915406848	22	5050
2026-01-29 10:34:09.37	335.45	38.09	-30.9	-34.0	12.9	4.80e-05	0	42	0	917504000	22	5142
2026-01-29 10:34:10.36	335.51	37.85	-31.0	-34.3	12.6	9.23e-05	0	42	0	918552576	22	5269
2026-01-29 10:34:11.37	335.57	37.60	-30.9	-33.9	12.9	5.64e-05	0	42	0	920649728	22	5122
2026-01-29 10:34:12.37	335.62	37.36	-31.1	-34.6	12.4	6.71e-05	0	42	0	922746880	22	5402
2026-01-29 10:34:13.37	335.68	37.12	-31.5	-35.7	11.7	5.29e-04	0	42	0	924844032	22	5872
2026-01-29 10:34:14.38	335.74	36.88	-31.6	-35.6	11.4	6.35e-04	0	42	0	926941184	23	5737
2026-01-29 10:34:15.38	335.79	36.65	-31.7	-36.0	11.1	1.62e-03	0	42	0	927989760	23	5909
2026-01-29 10:34:16.38	335.85	36.41	-31.5	-35.5	11.5	9.06e-04	0	42	0	930086912	23	5685
2026-01-29 10:34:17.39	335.90	36.18	-31.4	-35.1	11.8	4.66e-04	0	42	0	932184064	23	5478
2026-01-29 10:34:18.39	335.95	35.95	-31.3	-34.6	12.1	2.95e-04	0	42	0	934281216	23	5278
2026-01-29 10:34:19.40	336.01	35.71	-31.3	-34.9	11.9	2.68e-04	0	42	0	936378368	23	5395
2026-01-29 10:34:20.40	336.06	35.49	-31.3	-34.7	12.0	4.55e-04	0	42	0	937426944	23	5318
2026-01-29 10:34:21.40	336.11	35.26	-31.0	-33.8	12.6	1.25e-04	0	42	0	939524096	23	4981
2026-01-29 10:34:22.41	336.16	35.04	-30.9	-33.6	12.7	8.46e-05	0	42	0	941621248	23	4894
2026-01-29 10:34:23.41	336.21	34.81	-30.8	-33.7	13.1	4.04e-05	0	42	0	943718400	22	5021
2026-01-29 10:34:24.41	336.26	34.59	-30.7	-33.6	13.0	3.05e-05	0	42	0	945815552	22	5016
2026-01-29 10:34:25.42	336.31	34.37	-30.9	-34.0	12.7	5.03e-05	0	42	0	946864128	22	5165
2026-01-29 10:34:26.42	336.36	34.15	-31.1	-34.7	12.2	1.36e-04	0	42	0	948961280	22	5430
2026-01-29 10:34:27.42	336.40	33.94	-31.2	-35.1	11.9	2.22e-04	0	42	0	951058432	22	5625
2026-01-29 10:34:28.42	336.45	33.72	-31.6	-35.7	11.2	8.37e-04	0	42	0	953155584	23	5778
2026-01-29 10:34:29.42	336.50	33.51	-31.8	-36.4	10.7	1.78e-03	0	42	0	954204160	23	6133
2026-01-29 10:34:30.43	336.54	33.29	-32.1	-37.0	10.0	8.04e-03	0	42	0	956301312	24	6300
2026-01-29 10:34:31.43	336.59	33.08	-32.2	-37.2	9.7	9.85e-03	0	42	0	958398464	24	6440
2026-01-29 10:34:32.44	336.63	32.87	-32.2	-37.4	9.5	1.17e-02	0	42	0	960495616	24	6542
2026-01-29 10:34:33.44	336.68	32.66	-32.2	-37.4	9.4	1.71e-02	0	42	0	962592768	24	6581
2026-01-29 10:34:34.44	336.72	32.46	-32.1	-37.0	9.8	1.15e-02	0	42	0	964689920	24	6333
2026-01-29 10:34:35.45	336.76	32.25	-32.0	-36.7	9.9	9.73e-03	0	42	0	965738496	24	6196
2026-01-29 10:34:36.45	336.80	32.05	-31.9	-36.4	10.1	7.65e-03	0	42	0	967835648	24	6010
2026-01-29 10:34:37.45	336.85	31.84	-31.9	-36.4	10.1	6.42e-03	0	42	0	969932800	24	6048
2026-01-29 10:34:38.46	336.89	31.64	-32.0	-36.5	10.2	8.52e-03	0	42	0	972029952	24	6082
2026-01-29 10:34:39.47	336.93	31.44	-31.8	-35.9	10.7	4.20e-03	0	42	0	973078528	24	5775
2026-01-29 10:34:40.47	336.97	31.24	-31.7	-35.7	10.9	2.01e-03	0	42	0	975175680	24	5667
2026-01-29 10:34:41.48	337.01	31.04	-31.6	-35.1	11.2	1.69e-03	0	42	0	977272832	24	5426
2026-01-29 10:34:42.47	337.05	30.85	-31.5	-35.1	11.2	1.40e-03	0	42	0	979369984	24	5416
2026-01-29 10:34:43.47	337.09	30.66	-31.4	-34.7	11.5	9.11e-04	0	42	0	981467136	24	5271
2026-01-29 10:34:44.47	337.13	30.46	-31.4	-34.7	11.5	7.64e-04	0	42	0	982515712	24	5259
2026-01-29 10:34:45.48	337.17	30.27	-31.3	-34.5	11.6	7.86e-04	0	42	0	984612864	24	5178
2026-01-29 10:34:46.48	337.21	30.08	-31.2	-34.7	11.8	6.81e-04	0	42	0	986710016	23	5337
2026-01-29 10:34:47.48	337.24	29.89	-31.1	-34.2	12.1	2.66e-04	0	42	0	988807168	23	5163
2026-01-29 10:34:48.49	337.28	29.70	-31.0	-33.9	12.4	1.85e-04	0	42	0	990904320	23	5052
2026-01-29 10:34:49.49	337.32	29.51	-31.0	-34.1	12.2	1.53e-04	0	42	0	991952896	23	5107
2026-01-29 10:34:50.50	337.36	29.33	-31.1	-34.2	12.2	1.98e-04	0	42	0	994050048	23	5143
2026-01-29 10:34:51.49	337.39	29.15	-31.1	-34.2	12.2	2.41e-04	0	42	0	996147200	23	5155
2026-01-29 10:34:52.49	337.43	28.96	-31.1	-34.2	12.2	2.14e-04	0	42	0	998244352	23	5170
2026-01-29 10:34:53.50	337.46	28.78	-31.1	-34.4	12.1	3.36e-04	0	42	0	1000341504	23	5217
2026-01-29 10:34:54.50	337.50	28.60	-30.9	-33.8	12.4	2.26e-04	0	42	0	1001390080	23	4999
2026-01-29 10:34:55.50	337.53	28.42	-30.7	-33.7	12.8	7.70e-05	0	42	0	1003487232	22	5084
2026-01-29 10:34:56.50	337.57	28.24	-30.7	-33.5	13.0	4.73e-05	0	42	0	1005584384	22	4996
2026-01-29 10:34:57.50	337.60	28.06	-30.8	-33.9	12.7	5.87e-05	0	42	0	1007681536	22	5124
2026-01-29 10:34:58.51	337.64	27.89	-30.9	-34.2	12.5	1.11e-04	0	42	0	1009778688	22	5264
2026-01-29 10:34:59.51	337.67	27.71	-30.9	-34.1	12.6	1.30e-04	0	42	0	1010827264	22	5220
2026-01-29 10:35:00.52	337.70	27.54	-30.8	-34.0	12.7	8.85e-05	0	42	0	1012924416	22	5168
2026-01-29 10:35:01.52	337.74	27.36	-30.7	-33.6	12.9	7.40e-05	0	42	0	1015021568	22	5041
2026-01-29 10:35:02.53	337.77	27.19	-30.6	-33.5	13.0	6.33e-05	0	42	0	1017118720	22	5001
2026-01-29 10:35:03.53	337.80	27.02	-30.7	-33.6	12.9	3.12e-05	0	42	0	1019215872	22	5037
2026-01-29 10:35:04.53	337.83	26.85	-30.6	-33.4	13.1	4.19e-05	0	42	0	1020264448	22	4944
2026-01-29 10:35:05.53	337.86	26.68	-30.5	-33.2	13.2	1.67e-05	0	42	0	1022361600	22	4878
2026-01-29 10:35:06.53	337.89	26.51	-30.6	-33.3	13.0	5.03e-05	0	42	0	1024458752	22	4923
2026-01-29 10:35:07.54	337.93	26.35	-30.3	-32.6	13.5	2.74e-05	0	42	0	1026555904	22	4664
2026-01-29 10:35:08.54	337.96	26.18	-30.1	-32.4	13.9	4.50e-06	0	42	0	1027604480	21	4711
2026-01-29 10:35:09.55	337.99	26.01	-29.9	-31.9	14.2	2.20e-06	0	42	0	1029701632	21	4557
2026-01-29 10:35:10.55	338.02	25.85	-29.8	-31.8	14.3	2.20e-06	0	42	0	1031798784	21	4510
2026-01-29 10:35:11.55	338.05	25.69	-29.9	-31.9	14.3	2.20e-06	0	42	0	1033895936	21	4559
2026-01-29 10:35:12.55	338.08	25.53	-29.9	-32.0	14.2	7.00e-07	0	42	0	1035993088	21	4584
2026-01-29 10:35:13.55	338.11	25.37	-29.8	-31.8	14.3	1.50e-06	0	42	0	1037041664	21	4530
2026-01-29 10:35:14.55	338.14	25.21	-29.9	-31.9	14.3	1.50e-06	0	42	0	1039138816	21	4552
2026-01-29 10:35:15.56	338.17	25.05	-29.8	-31.8	14.3	1.50e-06	0	42	0	1041235968	21	4528
2026-01-29 10:35:16.56	338.19	24.89	-29.8	-32.1	14.4	1.50e-06	0	42	0	1043333120	20	4735
2026-01-29 10:35:17.56	338.22	24.73	-29.8	-32.2	14.4	1.50e-06	0	42	0	1045430272	20	4766
2026-01-29 10:35:18.56	338.25	24.58	-29.7	-31.9	14.6	0.00e+00	0	42	0	1046478848	20	4672
2026-01-29 10:35:19.57	338.28	24.42	-29.6	-31.8	14.7	0.00e+00	0	42	0	1048576000	20	4615
2026-01-29 10:35:20.58	338.31	24.27	-29.6	-31.6	14.7	0.00e+00	0	42	0	1050673152	20	4569
2026-01-29 10:35:21.58	338.33	24.11	-29.6	-31.6	14.7	7.00e-07	0	42	0	1052770304	20	4563
2026-01-29 10:35:22.59	338.36	23.96	-29.6	-31.8	14.6	7.00e-07	0	42	0	1054867456	20	4622
2026-01-29 10:35:23.58	338.39	23.81	-29.6	-31.7	14.7	0.00e+00	0	42	0	1055916032	20	4591
2026-01-29 10:35:24.59	338.42	23.66	-29.3	-31.0	15.1	0.00e+00	0	42	0	1058013184	20	4375
2026-01-29 10:35:25.59	338.44	23.51	-29.3	-31.4	15.2	0.00e+00	0	42	0	1060110336	19	4595
2026-01-29 10:35:26.59	338.47	23.36	-29.2	-31.1	15.4	0.00e+00	0	42	0	1062207488	19	4498
2026-01-29 10:35:27.60	338.49	23.21	-29.1	-31.0	15.4	0.00e+00	0	42	0	1064304640	19	4472
2026-01-29 10:35:28.60	338.52	23.07	-29.2	-31.2	15.3	0.00e+00	0	42	0	1065353216	19	4539
2026-01-29 10:35:29.60	338.55	22.92	-29.2	-31.1	15.4	0.00e+00	0	42	0	1067450368	19	4506
2026-01-29 10:35:30.61	338.57	22.77	-29.1	-30.8	15.6	0.00e+00	0	42	0	1069547520	19	4418
2026-01-29 10:35:31.60	338.60	22.63	-29.1	-30.9	15.5	0.00e+00	0	42	0	1071644672	19	4431
2026-01-29 10:35:32.60	338.62	22.49	-29.1	-30.9	15.5	1.22e-05	0	42	0	1072693248	19	4423
2026-01-29 10:35:33.60	338.65	22.34	-29.1	-30.9	15.6	0.00e+00	0	42	0	1074790400	19	4421
2026-01-29 10:35:34.59	338.67	22.20	-29.0	-30.8	15.6	0.00e+00	0	42	0	1076887552	19	4406
2026-01-29 10:35:35.60	338.70	22.06	-29.1	-31.0	15.4	0.00e+00	0	42	0	1078984704	19	4459
2026-01-29 10:35:36.61	338.72	21.92	-29.2	-31.1	15.4	0.00e+00	0	42	0	1081081856	19	4508
2026-01-29 10:35:37.61	338.75	21.78	-29.2	-31.1	15.4	0.00e+00	0	42	0	1082130432	19	4493
2026-01-29 10:35:38.61	338.77	21.64	-29.2	-31.2	15.3	0.00e+00	0	42	0	1084227584	19	4532
2026-01-29 10:35:39.61	338.79	21.50	-29.3	-31.4	15.2	0.00e+00	0	42	0	1086324736	19	4583
2026-01-29 10:35:40.61	338.82	21.36	-29.3	-31.5	15.1	0.00e+00	0	42	0	1088421888	19	4621
2026-01-29 10:35:41.61	338.84	21.23	-29.4	-31.7	15.0	0.00e+00	0	42	0	1090519040	19	4691
2026-01-29 10:35:42.62	338.86	21.09	-29.4	-31.8	14.9	2.20e-06	0	42	0	1091567616	19	4731
2026-01-29 10:35:43.62	338.89	20.96	-29.5	-32.1	14.7	7.00e-07	0	42	0	1093664768	19	4824
2026-01-29 10:35:44.63	338.91	20.82	-29.6	-32.1	14.7	7.00e-07	0	42	0	1095761920	19	4843
2026-01-29 10:35:45.63	338.93	20.69	-29.6	-32.3	14.6	0.00e+00	0	42	0	1097859072	19	4901
2026-01-29 10:35:46.64	338.96	20.55	-29.7	-32.5	14.5	7.00e-07	0	42	0	1099956224	19	4975
2026-01-29 10:35:47.64	338.98	20.42	-29.7	-32.6	14.4	0.00e+00	0	42	0	1101004800	19	5002
2026-01-29 10:35:48.65	339.00	20.29	-29.9	-33.0	14.2	1.50e-06	0	42	0	1103101952	19	5146
2026-01-29 10:35:49.65	339.02	20.16	-29.9	-33.0	14.1	2.20e-06	0	42	0	1105199104	19	5140
2026-01-29 10:35:50.65	339.05	20.03	-29.8	-32.7	14.3	0.00e+00	0	42	0	1107296256	19	5040
2026-01-29 10:35:51.66	339.07	19.89	-29.7	-32.5	14.4	0.00e+00	0	42	0	1109393408	19	4970
2026-01-29 10:35:52.66	339.09	19.77	-29.7	-32.4	14.5	0.00e+00	0	42	0	1110441984	19	4957
2026-01-29 10:35:53.66	339.11	19.64	-29.7	-32.5	14.4	0.00e+00	0	42	0	1112539136	19	4972
2026-01-29 10:35:54.66	339.13	19.51	-29.7	-32.6	14.4	7.00e-07	0	42	0	1114636288	19	5006
2026-01-29 10:35:55.66	339.15	19.38	-29.8	-32.8	14.2	0.00e+00	0	42	0	1116733440	19	5086
2026-01-29 10:35:56.67	339.17	19.26	-29.8	-32.9	14.2	2.20e-06	0	42	0	1117782016	19	5117
2026-01-29 10:35:57.67	339.20	19.13	-29.8	-32.7	14.3	1.50e-06	0	42	0	1119879168	19	5043
2026-01-29 10:35:58.68	339.22	19.00	-29.8	-32.8	14.2	7.00e-07	0	42	0	1121976320	19	5081
2026-01-29 10:35:59.68	339.24	18.88	-29.8	-32.7	14.2	1.50e-06	0	42	0	1124073472	19	5066
2026-01-29 10:36:00.68	339.26	18.76	-29.8	-32.9	14.2	2.20e-06	0	42	0	1126170624	19	5112
2026-01-29 10:36:01.68	339.28	18.63	-29.8	-32.8	14.2	7.00e-07	0	42	0	1128267776	19	5076
2026-01-29 10:36:02.68	339.30	18.51	-29.8	-32.8	14.2	1.50e-06	0	42	0	1129316352	19	5079
2026-01-29 10:36:03.69	339.32	18.39	-29.9	-33.1	14.0	2.20e-06	0	42	0	1131413504	19	5205
2026-01-29 10:36:04.69	339.34	18.27	-29.9	-32.7	13.9	1.50e-06	0	42	0	1133510656	20	4946
2026-01-29 10:36:05.70	339.36	18.14	-29.8	-32.4	14.0	3.00e-06	0	42	0	1135607808	20	4859
2026-01-29 10:36:06.70	339.38	18.02	-29.9	-32.5	14.0	2.20e-06	0	42	0	1136656384	20	4889
2026-01-29 10:36:07.70	339.40	17.90	-29.8	-32.4	14.1	0.00e+00	0	42	0	1138753536	20	4855
2026-01-29 10:36:08.71	339.42	17.78	-29.9	-32.6	13.9	1.50e-06	0	42	0	1140850688	20	4911
2026-01-29 10:36:09.71	339.44	17.67	-29.9	-32.5	14.0	2.20e-06	0	42	0	1142947840	20	4893
2026-01-29 10:36:10.71	339.46	17.55	-29.9	-32.6	13.9	2.20e-06	0	42	0	1145044992	20	4918
2026-01-29 10:36:11.72	339.48	17.43	-30.1	-33.1	13.6	6.80e-06	0	42	0	1146093568	20	5085
2026-01-29 10:36:12.72	339.50	17.31	-30.0	-33.0	13.7	8.30e-06	0	42	0	1148190720	20	5039
2026-01-29 10:36:13.73	339.52	17.20	-30.0	-32.7	13.8	4.50e-06	0	42	0	1150287872	20	4966
2026-01-29 10:36:14.73	339.53	17.08	-30.0	-32.9	13.7	4.50e-06	0	42	0	1152385024	20	5025
2026-01-29 10:36:15.74	339.55	16.96	-30.0	-32.8	13.8	4.50e-06	0	42	0	1154482176	20	4995
2026-01-29 10:36:16.74	339.57	16.85	-30.1	-33.1	13.6	1.14e-05	0	42	0	1155530752	20	5085
2026-01-29 10:36:17.74	339.59	16.74	-30.1	-33.1	13.6	1.06e-05	0	42	0	1157627904	20	5093
2026-01-29 10:36:18.74	339.61	16.62	-30.1	-33.2	13.5	6.80e-06	0	42	0	1159725056	20	5119
2026-01-29 10:36:19.74	339.63	16.51	-30.1	-33.2	13.5	1.60e-05	0	42	0	1161822208	20	5139
2026-01-29 10:36:20.75	339.65	16.40	-30.1	-33.1	13.6	6.10e-06	0	42	0	1163919360	20	5095
2026-01-29 10:36:21.75	339.66	16.28	-30.2	-33.5	13.3	6.80e-06	0	42	0	1164967936	20	5232
2026-01-29 10:36:22.75	339.68	16.17	-30.3	-33.6	13.2	2.05e-05	0	42	0	1167065088	20	5301
2026-01-29 10:36:23.75	339.70	16.06	-30.2	-33.5	13.3	1.98e-05	0	42	0	1169162240	20	5246
2026-01-29 10:36:24.76	339.72	15.95	-30.2	-33.5	13.2	1.83e-05	0	42	0	1171259392	20	5265
2026-01-29 10:36:25.76	339.74	15.84	-30.2	-33.6	13.2	2.21e-05	0	42	0	1173356544	20	5299
2026-01-29 10:36:26.76	339.75	15.73	-30.3	-33.8	13.1	2.36e-05	0	42	0	1174405120	20	5371
2026-01-29 10:36:27.77	339.77	15.62	-30.3	-33.7	13.1	3.89e-05	0	42	0	1176502272	20	5332
2026-01-29 10:36:28.78	339.79	15.51	-30.2	-33.5	13.3	2.05e-05	0	42	0	1178599424	20	5266
2026-01-29 10:36:29.78	339.81	15.41	-30.2	-33.6	13.2	2.89e-05	0	42	0	1180696576	20	5280
2026-01-29 10:36:30.79	339.82	15.30	-30.2	-33.5	13.3	2.97e-05	0	42	0	1182793728	20	5259
2026-01-29 10:36:31.79	339.84	15.19	-30.3	-33.7	13.1	2.44e-05	0	42	0	1183842304	20	5345
2026-01-29 10:36:32.79	339.86	15.08	-30.3	-33.8	13.1	4.19e-05	0	42	0	1185939456	20	5366
2026-01-29 10:36:33.80	339.88	14.98	-30.3	-33.8	13.1	2.28e-05	0	42	0	1188036608	20	5360
2026-01-29 10:36:34.80	339.89	14.87	-30.5	-34.2	12.7	3.66e-05	0	42	0	1190133760	20	5544
2026-01-29 10:36:35.80	339.91	14.77	-30.4	-34.1	12.8	5.49e-05	0	42	0	1192230912	20	5521
2026-01-29 10:36:36.80	339.93	14.66	-30.3	-33.7	13.1	3.35e-05	0	42	0	1193279488	20	5326
2026-01-29 10:36:37.82	339.94	14.56	-30.2	-33.5	13.2	2.28e-05	0	42	0	1195376640	20	5247
2026-01-29 10:36:38.82	339.96	14.45	-30.1	-33.2	13.4	1.37e-05	0	42	0	1197473792	20	5133
2026-01-29 10:36:39.82	339.98	14.35	-30.1	-33.1	13.4	1.75e-05	0	42	0	1199570944	20	5122
2026-01-29 10:36:40.82	339.99	14.25	-30.1	-33.2	13.4	9.10e-06	0	42	0	1201668096	20	5158
2026-01-29 10:36:41.83	340.01	14.14	-30.1	-33.2	13.4	2.28e-05	0	42	0	1202716672	20	5173
2026-01-29 10:36:42.83	340.02	14.04	-30.1	-33.3	13.3	1.22e-05	0	42	0	1204813824	20	5196
2026-01-29 10:36:43.84	340.04	13.94	-30.2	-33.6	13.1	1.98e-05	0	42	0	1206910976	20	5291
2026-01-29 10:36:44.84	340.06	13.84	-30.1	-33.3	13.3	3.05e-05	0	42	0	1209008128	20	5208
2026-01-29 10:36:45.84	340.07	13.74	-30.0	-33.0	13.5	1.29e-05	0	42	0	1210056704	20	5087
2026-01-29 10:36:46.85	340.09	13.63	-30.0	-33.0	13.5	7.60e-06	0	42	0	1212153856	20	5073
2026-01-29 10:36:47.85	340.10	13.53	-30.0	-33.0	13.5	6.80e-06	0	42	0	1214251008	20	5085
2026-01-29 10:36:48.85	340.12	13.44	-30.0	-33.1	13.4	1.29e-05	0	42	0	1216348160	20	5105
2026-01-29 10:36:49.86	340.14	13.34	-30.1	-33.1	13.4	1.67e-05	0	42	0	1218445312	20	5132
2026-01-29 10:36:50.85	340.15	13.24	-30.1	-33.2	13.3	7.60e-06	0	42	0	1219493888	20	5167
2026-01-29 10:36:51.85	340.17	13.14	-30.0	-33.1	13.4	1.37e-05	0	42	0	1221591040	20	5134
2026-01-29 10:36:52.86	340.18	13.04	-30.1	-33.2	13.3	1.22e-05	0	42	0	1223688192	20	5147
2026-01-29 10:36:53.86	340.20	12.94	-30.0	-33.1	13.4	1.75e-05	0	42	0	1225785344	20	5116
2026-01-29 10:36:54.86	340.21	12.85	-30.1	-33.2	13.3	1.75e-05	0	42	0	1227882496	20	5162
2026-01-29 10:36:55.86	340.23	12.75	-30.1	-33.2	13.3	2.44e-05	0	42	0	1228931072	20	5172
2026-01-29 10:36:56.86	340.24	12.65	-30.1	-33.3	13.3	1.52e-05	0	42	0	1231028224	20	5187
2026-01-29 10:36:57.87	340.26	12.56	-30.2	-33.6	13.0	3.12e-05	0	42	0	1233125376	20	5326
2026-01-29 10:36:58.87	340.27	12.46	-30.2	-33.4	13.1	3.89e-05	0	42	0	1235222528	20	5254
2026-01-29 10:36:59.87	340.29	12.37	-30.1	-33.1	13.4	2.13e-05	0	42	0	1237319680	20	5135
2026-01-29 10:37:00.86	340.30	12.27	-30.1	-33.4	13.2	2.28e-05	0	42	0	1238368256	20	5227
2026-01-29 10:37:01.87	340.32	12.18	-30.0	-33.2	13.3	2.97e-05	0	42	0	1240465408	20	5145
2026-01-29 10:37:02.87	340.33	12.08	-30.1	-33.3	13.2	1.29e-05	0	42	0	1242562560	20	5210
2026-01-29 10:37:03.87	340.35	11.99	-30.3	-33.7	12.9	3.58e-05	0	42	0	1244659712	20	5374
2026-01-29 10:37:04.88	340.36	11.89	-30.2	-33.7	12.9	4.50e-05	0	42	0	1246756864	20	5373
2026-01-29 10:37:05.88	340.38	11.80	-30.3	-33.9	12.8	5.79e-05	0	42	0	1247805440	20	5439
2026-01-29 10:37:06.88	340.39	11.71	-30.3	-33.8	12.8	7.09e-05	0	42	0	1249902592	20	5410
2026-01-29 10:37:07.89	340.41	11.62	-30.3	-33.9	12.8	5.49e-05	0	42	0	1251999744	20	5446
2026-01-29 10:37:08.89	340.42	11.52	-30.4	-34.0	12.7	8.08e-05	0	42	0	1254096896	20	5504
2026-01-29 10:37:09.90	340.43	11.43	-30.4	-34.1	12.6	7.93e-05	0	42	0	1255145472	20	5515
2026-01-29 10:37:10.89	340.45	11.34	-30.4	-34.2	12.6	8.85e-05	0	42	0	1257242624	20	5560
2026-01-29 10:37:11.90	340.46	11.25	-30.6	-34.2	12.2	1.67e-04	0	42	0	1259339776	21	5454
2026-01-29 10:37:12.90	340.48	11.16	-30.7	-34.7	11.9	2.33e-04	0	42	0	1261436928	21	5667
2026-01-29 10:37:13.91	340.49	11.07	-30.6	-34.4	12.0	3.77e-04	0	42	0	1263534080	21	5560
2026-01-29 10:37:14.91	340.50	10.98	-30.7	-34.7	11.8	3.76e-04	0	42	0	1264582656	21	5671
2026-01-29 10:37:15.91	340.52	10.89	-30.6	-34.4	12.0	4.65e-04	0	42	0	1266679808	21	5570
2026-01-29 10:37:16.92	340.53	10.80	-30.7	-34.6	11.9	3.80e-04	0	42	0	1268776960	21	5654
2026-01-29 10:37:17.92	340.55	10.71	-30.9	-35.1	11.5	6.58e-04	0	42	0	1270874112	21	5882
2026-01-29 10:37:18.92	340.56	10.62	-30.9	-35.1	11.5	8.51e-04	0	42	0	1272971264	21	5858
2026-01-29 10:37:19.92	340.57	10.53	-30.9	-35.4	11.3	1.07e-03	0	42	0	1274019840	21	5996
2026-01-29 10:37:20.93	340.59	10.44	-31.1	-35.4	11.0	1.46e-03	0	42	0	1276116992	22	5899
2026-01-29 10:37:21.93	340.60	10.36	-31.1	-35.3	11.0	2.21e-03	0	42	0	1278214144	22	5859
2026-01-29 10:37:22.93	340.61	10.27	-31.0	-35.0	11.2	1.74e-03	0	42	0	1280311296	22	5735
