passes_logs/2026/01/29/R2M6_AANII_01/R2M6_AANII_01__20260129_120815_NOAA_20_JPSS-1_rec.log

#Pass ID: 20260129_120815_NOAA 20 (JPSS-1)
#Satellite: NOAA 20 (JPSS-1)
#Configuration: NOAA 20
#almurnet v.1.7.20240730
#Start time: 2026-01-29 12:08:16

#Version: 2.2.20231116
#Station: R2M6_AANII_01
#Location: 30.233357 lon 59.946436 lat
#TLE: 1 43013U 17073A   26027.94683596  .00000137  00000+0  85741-4 0  9995
#TLE: 2 43013  98.7648 328.7503 0000940  21.3928 338.7287 14.19541154424576

#Time	Az	El	Level	Level2	SNR	BER	BlckErr	Temp	State	Recorded	gain1	gain2
2026-01-29 12:08:16.88	220.60	7.11	-31.5	-36.6	5.1	1.18e+00	0	38	0	0	24	6502
2026-01-29 12:08:17.88	220.71	7.17	-31.7	-37.7	5.0	1.23e+00	0	38	104	0	24	7141
2026-01-29 12:08:18.88	220.81	7.23	-31.8	-37.9	7.6	7.90e-02	0	38	0	0	24	7266
2026-01-29 12:08:19.89	220.92	7.29	-31.7	-37.5	7.9	8.58e-02	0	38	0	1048576	24	7017
2026-01-29 12:08:20.89	221.03	7.35	-31.6	-37.1	8.3	6.24e-02	0	38	0	3145728	24	6743
2026-01-29 12:08:21.89	221.14	7.41	-31.6	-36.7	8.6	4.44e-02	0	38	0	5242880	24	6518
2026-01-29 12:08:22.89	221.25	7.47	-31.5	-36.4	8.9	3.49e-02	0	39	0	7340032	24	6313
2026-01-29 12:08:23.89	221.35	7.53	-31.5	-36.2	9.0	2.59e-02	0	39	0	9437184	24	6222
2026-01-29 12:08:24.88	221.46	7.59	-31.4	-36.2	9.1	2.49e-02	0	39	0	10485760	24	6193
2026-01-29 12:08:25.89	221.57	7.65	-31.4	-35.9	9.4	1.88e-02	0	39	0	12582912	24	6041
2026-01-29 12:08:26.90	221.68	7.71	-31.4	-36.1	9.2	1.87e-02	0	38	0	14680064	24	6133
2026-01-29 12:08:27.91	221.80	7.77	-31.4	-36.0	9.3	1.94e-02	0	39	0	16777216	24	6091
2026-01-29 12:08:28.90	221.91	7.83	-31.2	-35.7	9.9	1.29e-02	0	39	0	17825792	23	6044
2026-01-29 12:08:29.91	222.02	7.89	-31.0	-35.1	10.4	5.14e-03	0	38	0	19922944	23	5727
2026-01-29 12:08:30.91	222.13	7.95	-30.9	-34.6	10.8	3.62e-03	0	39	0	22020096	23	5510
2026-01-29 12:08:31.91	222.24	8.01	-30.8	-34.3	11.0	2.20e-03	0	39	0	24117248	23	5354
2026-01-29 12:08:32.91	222.36	8.07	-30.8	-34.3	11.0	1.60e-03	0	39	0	26214400	23	5372
2026-01-29 12:08:33.91	222.47	8.13	-30.8	-34.1	11.1	1.51e-03	0	39	0	27262976	23	5308
2026-01-29 12:08:34.92	222.58	8.19	-30.8	-34.8	11.0	1.62e-03	0	39	0	29360128	22	5670
2026-01-29 12:08:35.93	222.70	8.25	-30.9	-34.9	10.9	1.81e-03	0	39	0	31457280	22	5740
2026-01-29 12:08:36.92	222.81	8.31	-30.8	-34.8	11.0	1.78e-03	0	39	0	33554432	22	5677
2026-01-29 12:08:37.92	222.93	8.37	-30.8	-34.6	11.2	1.37e-03	0	39	0	35651584	22	5579
2026-01-29 12:08:38.92	223.04	8.43	-30.8	-34.6	11.2	1.34e-03	0	39	0	36700160	22	5615
2026-01-29 12:08:39.93	223.16	8.49	-30.8	-34.6	11.2	1.33e-03	0	39	0	38797312	22	5597
2026-01-29 12:08:40.94	223.28	8.55	-30.8	-34.8	11.1	1.48e-03	0	39	0	40894464	22	5663
2026-01-29 12:08:41.93	223.39	8.61	-30.7	-34.5	11.3	1.43e-03	0	39	0	42991616	22	5542
2026-01-29 12:08:42.93	223.51	8.67	-30.7	-34.2	11.5	9.66e-04	0	39	0	45088768	22	5445
2026-01-29 12:08:43.93	223.63	8.73	-30.6	-34.1	11.5	6.61e-04	0	39	0	46137344	22	5392
2026-01-29 12:08:44.94	223.75	8.79	-30.7	-34.3	11.5	8.22e-04	0	39	0	48234496	22	5456
2026-01-29 12:08:45.93	223.87	8.85	-30.6	-34.0	11.6	7.51e-04	0	39	0	50331648	22	5336
2026-01-29 12:08:46.93	223.99	8.91	-30.5	-33.8	11.8	5.34e-04	0	39	0	52428800	22	5241
2026-01-29 12:08:47.93	224.11	8.97	-30.5	-33.9	11.7	4.55e-04	0	39	0	53477376	22	5278
2026-01-29 12:08:48.94	224.23	9.03	-30.6	-34.2	11.5	5.86e-04	0	39	0	55574528	22	5405
2026-01-29 12:08:49.94	224.35	9.09	-30.6	-34.0	11.7	7.23e-04	0	39	0	57671680	22	5320
2026-01-29 12:08:50.95	224.47	9.16	-30.5	-33.8	11.8	4.55e-04	0	39	0	59768832	22	5236
2026-01-29 12:08:51.95	224.59	9.22	-30.5	-33.8	11.9	3.70e-04	0	39	0	61865984	22	5233
2026-01-29 12:08:52.95	224.71	9.28	-30.5	-33.7	11.9	4.03e-04	0	39	0	62914560	22	5226
2026-01-29 12:08:53.95	224.84	9.34	-30.6	-33.9	11.8	4.91e-04	0	39	0	65011712	22	5293
2026-01-29 12:08:54.96	224.96	9.40	-30.6	-33.8	11.8	4.75e-04	0	39	0	67108864	22	5257
2026-01-29 12:08:55.96	225.09	9.46	-30.7	-34.4	11.5	5.49e-04	0	39	0	69206016	22	5489
2026-01-29 12:08:56.96	225.21	9.52	-30.6	-33.9	11.8	7.28e-04	0	39	0	71303168	22	5277
2026-01-29 12:08:57.96	225.33	9.58	-30.5	-33.6	12.0	3.20e-04	0	39	0	72351744	22	5148
2026-01-29 12:08:58.97	225.46	9.64	-30.4	-33.5	12.1	2.94e-04	0	40	0	74448896	22	5118
2026-01-29 12:08:59.97	225.59	9.71	-30.5	-33.6	12.1	2.47e-04	0	39	0	76546048	22	5148
2026-01-29 12:09:00.97	225.71	9.77	-30.6	-34.0	11.8	4.34e-04	0	40	0	78643200	22	5311
2026-01-29 12:09:01.97	225.84	9.83	-30.5	-33.7	12.0	3.78e-04	0	40	0	80740352	22	5187
2026-01-29 12:09:02.98	225.97	9.89	-30.5	-33.6	12.0	3.19e-04	0	40	0	81788928	22	5153
2026-01-29 12:09:03.98	226.10	9.95	-30.5	-33.7	12.0	3.20e-04	0	39	0	83886080	22	5180
2026-01-29 12:09:04.99	226.23	10.01	-30.5	-33.5	12.1	2.55e-04	0	39	0	85983232	22	5120
2026-01-29 12:09:05.99	226.35	10.07	-30.5	-33.6	12.1	2.64e-04	0	40	0	88080384	22	5157
2026-01-29 12:09:06.99	226.48	10.14	-30.5	-33.7	12.0	2.99e-04	0	39	0	90177536	22	5205
2026-01-29 12:09:07.99	226.61	10.20	-30.5	-33.7	12.1	2.90e-04	0	39	0	91226112	22	5169
2026-01-29 12:09:08.99	226.74	10.26	-30.5	-33.6	12.1	2.80e-04	0	40	0	93323264	22	5131
2026-01-29 12:09:09.99	226.88	10.32	-30.5	-33.7	12.0	2.52e-04	0	40	0	95420416	22	5178
2026-01-29 12:09:10.99	227.01	10.38	-30.6	-34.0	11.9	3.71e-04	0	40	0	97517568	22	5290
2026-01-29 12:09:12.00	227.14	10.44	-30.5	-33.5	12.1	3.29e-04	0	40	0	99614720	22	5119
2026-01-29 12:09:13.00	227.27	10.50	-30.4	-33.3	12.3	2.45e-04	0	40	0	100663296	22	5018
2026-01-29 12:09:14.00	227.41	10.57	-30.4	-33.3	12.3	1.51e-04	0	40	0	102760448	22	5018
2026-01-29 12:09:15.00	227.54	10.63	-30.4	-33.4	12.3	1.82e-04	0	40	0	104857600	22	5059
2026-01-29 12:09:16.01	227.67	10.69	-30.3	-33.0	12.5	1.13e-04	0	40	0	106954752	22	4925
2026-01-29 12:09:17.02	227.81	10.75	-30.3	-33.1	12.4	1.07e-04	0	40	0	108003328	22	4966
2026-01-29 12:09:18.02	227.95	10.81	-30.2	-33.4	12.6	9.68e-05	0	40	0	110100480	21	5163
2026-01-29 12:09:19.02	228.08	10.87	-30.3	-33.6	12.4	9.76e-05	0	40	0	112197632	21	5262
2026-01-29 12:09:20.03	228.22	10.94	-30.2	-33.3	12.6	8.62e-05	0	40	0	114294784	21	5142
2026-01-29 12:09:21.03	228.36	11.00	-30.2	-33.3	12.7	7.47e-05	0	40	0	116391936	21	5128
2026-01-29 12:09:22.03	228.49	11.06	-30.2	-33.2	12.7	7.40e-05	0	40	0	117440512	21	5088
2026-01-29 12:09:23.03	228.63	11.12	-30.2	-33.3	12.7	8.01e-05	0	40	0	119537664	21	5137
2026-01-29 12:09:24.04	228.77	11.18	-30.2	-33.4	12.7	8.85e-05	0	40	0	121634816	21	5147
2026-01-29 12:09:25.04	228.91	11.24	-30.3	-33.5	12.6	9.91e-05	0	40	0	123731968	21	5197
2026-01-29 12:09:26.04	229.05	11.31	-30.2	-33.3	12.7	9.53e-05	0	40	0	125829120	21	5132
2026-01-29 12:09:27.04	229.19	11.37	-30.3	-33.5	12.5	8.08e-05	0	40	0	126877696	21	5225
2026-01-29 12:09:28.05	229.33	11.43	-30.5	-34.0	12.2	1.98e-04	0	40	0	128974848	21	5390
2026-01-29 12:09:29.05	229.47	11.49	-30.3	-33.4	12.6	1.23e-04	0	40	0	131072000	21	5170
2026-01-29 12:09:30.05	229.62	11.55	-30.2	-33.2	12.8	7.32e-05	0	40	0	133169152	21	5091
2026-01-29 12:09:31.06	229.76	11.61	-30.2	-33.1	12.8	6.79e-05	0	40	0	135266304	21	5056
2026-01-29 12:09:32.06	229.90	11.68	-30.2	-33.2	12.8	6.63e-05	0	40	0	136314880	21	5087
2026-01-29 12:09:33.07	230.05	11.74	-30.3	-33.5	12.6	7.70e-05	0	40	0	138412032	21	5201
2026-01-29 12:09:34.08	230.20	11.80	-30.3	-33.3	12.7	8.39e-05	0	40	0	140509184	21	5134
2026-01-29 12:09:35.08	230.34	11.86	-30.2	-33.1	12.9	6.02e-05	0	40	0	142606336	21	5055
2026-01-29 12:09:36.08	230.49	11.92	-30.3	-33.4	12.7	6.25e-05	0	40	0	144703488	21	5154
2026-01-29 12:09:37.09	230.63	11.99	-30.4	-33.7	12.5	1.10e-04	0	40	0	145752064	21	5280
2026-01-29 12:09:38.09	230.78	12.05	-30.3	-33.4	12.7	9.38e-05	0	40	0	147849216	21	5171
2026-01-29 12:09:39.09	230.93	12.11	-30.4	-33.8	12.4	1.10e-04	0	40	0	149946368	21	5310
2026-01-29 12:09:40.09	231.08	12.17	-30.3	-33.5	12.6	1.33e-04	0	40	0	152043520	21	5183
2026-01-29 12:09:41.10	231.23	12.23	-30.3	-33.4	12.7	6.56e-05	0	40	0	154140672	21	5145
2026-01-29 12:09:42.10	231.37	12.29	-30.2	-33.2	12.8	8.39e-05	0	40	0	155189248	21	5090
2026-01-29 12:09:43.10	231.52	12.36	-30.3	-33.5	12.6	7.40e-05	0	40	0	157286400	21	5181
2026-01-29 12:09:44.10	231.67	12.42	-30.4	-33.8	12.4	9.46e-05	0	40	0	159383552	21	5297
2026-01-29 12:09:45.10	231.83	12.48	-30.5	-34.0	12.2	1.77e-04	0	40	0	161480704	21	5406
2026-01-29 12:09:46.10	231.98	12.54	-30.5	-33.9	12.4	1.43e-04	0	40	0	163577856	21	5338
2026-01-29 12:09:47.10	232.13	12.60	-30.6	-34.2	12.1	1.76e-04	0	40	0	164626432	21	5470
2026-01-29 12:09:48.10	232.28	12.66	-30.6	-34.2	12.2	2.38e-04	0	40	0	166723584	21	5456
2026-01-29 12:09:49.11	232.44	12.72	-30.7	-34.4	12.0	2.72e-04	0	40	0	168820736	21	5574
2026-01-29 12:09:50.11	232.59	12.78	-30.8	-34.9	11.6	4.87e-04	0	40	0	170917888	21	5786
2026-01-29 12:09:51.11	232.75	12.85	-30.7	-34.6	11.9	5.30e-04	0	40	0	171966464	21	5646
2026-01-29 12:09:52.12	232.90	12.91	-30.8	-35.0	11.7	5.71e-04	0	40	0	174063616	21	5804
2026-01-29 12:09:53.12	233.06	12.97	-30.9	-35.3	11.3	8.87e-04	0	40	0	176160768	21	5962
2026-01-29 12:09:54.12	233.21	13.03	-30.7	-34.5	12.0	6.27e-04	0	40	0	178257920	21	5599
2026-01-29 12:09:55.13	233.37	13.09	-30.5	-33.9	12.4	1.82e-04	0	40	0	180355072	21	5354
2026-01-29 12:09:56.13	233.53	13.15	-30.3	-33.4	12.8	9.23e-05	0	40	0	181403648	21	5140
2026-01-29 12:09:57.14	233.69	13.21	-30.3	-33.4	12.8	7.24e-05	0	40	0	183500800	21	5148
2026-01-29 12:09:58.14	233.85	13.28	-30.3	-33.5	12.7	8.23e-05	0	40	0	185597952	21	5180
2026-01-29 12:09:59.13	234.01	13.34	-30.5	-34.0	12.3	1.48e-04	0	40	0	187695104	21	5374
2026-01-29 12:10:00.14	234.17	13.40	-30.4	-33.6	12.6	1.13e-04	0	40	0	189792256	21	5211
2026-01-29 12:10:01.14	234.33	13.46	-30.3	-33.2	12.9	5.56e-05	0	40	0	190840832	21	5066
2026-01-29 12:10:02.14	234.49	13.52	-30.1	-32.8	13.2	2.82e-05	0	40	0	192937984	21	4926
2026-01-29 12:10:03.14	234.65	13.58	-30.1	-32.7	13.3	2.67e-05	0	40	0	195035136	21	4878
2026-01-29 12:10:04.15	234.82	13.64	-30.1	-32.8	13.2	1.67e-05	0	40	0	197132288	21	4915
2026-01-29 12:10:05.15	234.98	13.70	-30.1	-32.8	13.2	2.21e-05	0	40	0	199229440	21	4920
2026-01-29 12:10:06.15	235.15	13.76	-30.2	-33.2	13.0	2.89e-05	0	40	0	200278016	21	5046
2026-01-29 12:10:07.16	235.31	13.82	-30.1	-32.9	13.2	2.21e-05	0	40	0	202375168	21	4938
2026-01-29 12:10:08.16	235.48	13.88	-30.1	-32.9	13.2	2.13e-05	0	40	0	204472320	21	4953
2026-01-29 12:10:09.17	235.65	13.94	-30.2	-33.1	13.0	2.36e-05	0	40	0	206569472	21	5008
2026-01-29 12:10:10.17	235.81	14.00	-30.2	-33.1	13.1	3.28e-05	0	40	0	208666624	21	5012
2026-01-29 12:10:11.18	235.98	14.06	-30.3	-33.2	13.0	3.35e-05	0	40	0	209715200	21	5048
2026-01-29 12:10:12.18	236.15	14.12	-30.3	-33.3	12.9	5.49e-05	0	40	0	211812352	21	5109
2026-01-29 12:10:13.18	236.32	14.18	-30.3	-33.4	12.8	4.95e-05	0	40	0	213909504	21	5138
2026-01-29 12:10:14.18	236.49	14.24	-30.3	-33.4	12.8	5.87e-05	0	40	0	216006656	21	5148
2026-01-29 12:10:15.18	236.66	14.30	-30.3	-33.4	12.9	5.41e-05	0	40	0	217055232	21	5125
2026-01-29 12:10:16.19	236.83	14.36	-30.3	-33.4	12.8	5.18e-05	0	40	0	219152384	21	5147
2026-01-29 12:10:17.19	237.00	14.42	-30.4	-33.7	12.6	7.40e-05	0	40	0	221249536	21	5241
2026-01-29 12:10:18.19	237.18	14.48	-30.5	-33.8	12.7	8.23e-05	0	40	0	223346688	21	5266
2026-01-29 12:10:19.19	237.35	14.54	-30.5	-33.8	12.6	9.30e-05	0	40	0	225443840	21	5285
2026-01-29 12:10:20.19	237.52	14.60	-30.4	-33.6	12.7	7.32e-05	0	40	0	226492416	21	5212
2026-01-29 12:10:21.19	237.70	14.66	-30.4	-33.5	12.8	8.01e-05	0	40	0	228589568	21	5169
2026-01-29 12:10:22.20	237.87	14.72	-30.5	-33.7	12.7	7.93e-05	0	40	0	230686720	21	5256
2026-01-29 12:10:23.20	238.05	14.78	-30.5	-34.0	12.5	1.45e-04	0	40	0	232783872	21	5359
2026-01-29 12:10:24.20	238.22	14.84	-30.4	-33.6	12.8	8.16e-05	0	40	0	234881024	21	5189
2026-01-29 12:10:25.21	238.40	14.90	-30.4	-33.6	12.7	7.09e-05	0	40	0	235929600	21	5211
2026-01-29 12:10:26.21	238.58	14.96	-30.3	-33.2	13.1	3.96e-05	0	40	0	238026752	21	5028
2026-01-29 12:10:27.22	238.76	15.02	-30.2	-33.0	13.2	3.81e-05	0	41	0	240123904	21	4950
2026-01-29 12:10:28.21	238.94	15.07	-30.1	-32.8	13.3	1.44e-05	0	41	0	242221056	21	4879
2026-01-29 12:10:29.22	239.12	15.13	-30.1	-32.8	13.3	1.44e-05	0	41	0	244318208	21	4879
2026-01-29 12:10:30.22	239.30	15.19	-30.0	-32.4	13.6	8.30e-06	0	40	0	245366784	21	4765
2026-01-29 12:10:31.22	239.48	15.25	-29.9	-32.1	13.8	6.10e-06	0	41	0	247463936	21	4658
2026-01-29 12:10:32.23	239.66	15.31	-29.8	-32.0	13.9	2.20e-06	0	40	0	249561088	21	4605
2026-01-29 12:10:33.23	239.84	15.37	-29.8	-32.4	13.9	0.00e+00	0	40	0	251658240	20	4864
2026-01-29 12:10:34.24	240.03	15.42	-29.8	-32.3	14.0	3.00e-06	0	41	0	253755392	20	4824
2026-01-29 12:10:35.24	240.21	15.48	-29.6	-31.9	14.2	7.00e-07	0	40	0	254803968	20	4694
2026-01-29 12:10:36.24	240.40	15.54	-29.6	-32.0	14.2	7.00e-07	0	40	0	256901120	20	4707
2026-01-29 12:10:37.24	240.58	15.60	-29.6	-31.9	14.2	7.00e-07	0	40	0	258998272	20	4676
2026-01-29 12:10:38.24	240.77	15.65	-29.6	-31.9	14.3	1.50e-06	0	40	0	261095424	20	4669
2026-01-29 12:10:39.25	240.96	15.71	-29.5	-31.7	14.4	0.00e+00	0	40	0	263192576	20	4616
2026-01-29 12:10:40.26	241.15	15.77	-29.5	-31.6	14.4	1.50e-06	0	41	0	264241152	20	4599
2026-01-29 12:10:41.26	241.33	15.82	-29.5	-31.6	14.5	0.00e+00	0	40	0	266338304	20	4570
2026-01-29 12:10:42.26	241.52	15.88	-29.5	-31.6	14.4	0.00e+00	0	41	0	268435456	20	4587
2026-01-29 12:10:43.27	241.71	15.94	-29.6	-31.8	14.4	0.00e+00	0	41	0	270532608	20	4633
2026-01-29 12:10:44.27	241.90	15.99	-29.6	-31.7	14.4	0.00e+00	0	41	0	272629760	20	4626
2026-01-29 12:10:45.27	242.09	16.05	-29.6	-31.9	14.3	7.00e-07	0	40	0	273678336	20	4694
2026-01-29 12:10:46.28	242.29	16.11	-29.8	-32.3	14.0	4.50e-06	0	41	0	275775488	20	4800
2026-01-29 12:10:47.28	242.48	16.16	-29.7	-32.0	14.2	7.00e-07	0	40	0	277872640	20	4712
2026-01-29 12:10:48.28	242.67	16.22	-29.6	-31.8	14.3	7.00e-07	0	41	0	279969792	20	4650
2026-01-29 12:10:49.29	242.87	16.27	-29.7	-32.0	14.2	2.20e-06	0	40	0	282066944	20	4731
2026-01-29 12:10:50.29	243.06	16.33	-29.7	-32.0	14.2	3.00e-06	0	40	0	283115520	20	4715
2026-01-29 12:10:51.29	243.26	16.38	-29.6	-31.9	14.3	2.20e-06	0	40	0	285212672	20	4691
2026-01-29 12:10:52.29	243.45	16.44	-29.5	-31.6	14.5	0.00e+00	0	40	0	287309824	20	4590
2026-01-29 12:10:53.29	243.65	16.49	-29.4	-31.4	14.6	2.20e-06	0	41	0	289406976	20	4509
2026-01-29 12:10:54.30	243.85	16.55	-29.5	-31.5	14.6	0.00e+00	0	41	0	290455552	20	4530
2026-01-29 12:10:55.30	244.04	16.60	-29.5	-31.6	14.5	0.00e+00	0	40	0	292552704	20	4569
2026-01-29 12:10:56.30	244.24	16.65	-29.6	-31.7	14.5	7.00e-07	0	41	0	294649856	20	4617
2026-01-29 12:10:57.30	244.44	16.71	-29.6	-31.8	14.4	0.00e+00	0	40	0	296747008	20	4659
2026-01-29 12:10:58.31	244.64	16.76	-29.7	-32.0	14.3	1.50e-06	0	41	0	298844160	20	4713
2026-01-29 12:10:59.31	244.84	16.82	-29.7	-32.1	14.2	1.50e-06	0	40	0	299892736	20	4756
2026-01-29 12:11:00.31	245.04	16.87	-29.7	-32.2	14.1	1.50e-06	0	41	0	301989888	20	4766
2026-01-29 12:11:01.32	245.25	16.92	-29.8	-32.4	14.0	3.80e-06	0	41	0	304087040	20	4844
2026-01-29 12:11:02.32	245.45	16.97	-29.9	-32.7	13.8	4.50e-06	0	41	0	306184192	20	4966
2026-01-29 12:11:03.32	245.65	17.03	-30.0	-33.0	13.7	7.60e-06	0	40	0	308281344	20	5043
2026-01-29 12:11:04.33	245.86	17.08	-30.0	-32.8	13.8	3.00e-06	0	41	0	309329920	20	4991
2026-01-29 12:11:05.33	246.06	17.13	-30.0	-32.8	13.7	4.50e-06	0	40	0	311427072	20	4988
2026-01-29 12:11:06.33	246.27	17.18	-30.0	-32.9	13.7	4.50e-06	0	41	0	313524224	20	5018
2026-01-29 12:11:07.34	246.47	17.24	-30.0	-33.0	13.7	2.20e-06	0	41	0	315621376	20	5053
2026-01-29 12:11:08.33	246.68	17.29	-30.1	-33.0	13.6	1.22e-05	0	41	0	317718528	20	5071
2026-01-29 12:11:09.34	246.89	17.34	-30.0	-32.9	13.7	6.80e-06	0	41	0	318767104	20	5007
2026-01-29 12:11:10.34	247.10	17.39	-29.9	-32.7	13.8	3.00e-06	0	40	0	320864256	20	4956
2026-01-29 12:11:11.34	247.30	17.44	-30.0	-32.9	13.7	6.10e-06	0	41	0	322961408	20	5035
2026-01-29 12:11:12.35	247.52	17.49	-30.1	-33.2	13.6	6.10e-06	0	41	0	325058560	20	5117
2026-01-29 12:11:13.35	247.73	17.54	-30.2	-33.4	13.4	8.30e-06	0	40	0	327155712	20	5225
2026-01-29 12:11:14.36	247.94	17.59	-30.2	-33.3	13.6	5.30e-06	0	40	0	328204288	20	5155
2026-01-29 12:11:15.36	248.15	17.64	-30.2	-33.5	13.4	1.14e-05	0	41	0	330301440	20	5225
2026-01-29 12:11:16.37	248.36	17.69	-30.1	-33.2	13.6	1.44e-05	0	41	0	332398592	20	5122
2026-01-29 12:11:17.37	248.58	17.74	-30.1	-33.2	13.5	6.80e-06	0	40	0	334495744	20	5144
2026-01-29 12:11:18.38	248.79	17.79	-30.2	-33.3	13.5	1.06e-05	0	41	0	335544320	20	5160
2026-01-29 12:11:19.39	249.01	17.83	-30.2	-33.4	13.4	9.10e-06	0	41	0	337641472	20	5200
2026-01-29 12:11:20.39	249.22	17.88	-30.2	-33.5	13.4	1.44e-05	0	41	0	339738624	20	5248
2026-01-29 12:11:21.39	249.44	17.93	-30.4	-33.8	13.1	2.28e-05	0	41	0	341835776	20	5376
2026-01-29 12:11:22.40	249.65	17.98	-30.5	-34.2	12.9	3.66e-05	0	41	0	343932928	20	5511
2026-01-29 12:11:23.40	249.87	18.02	-30.5	-33.7	12.9	3.12e-05	0	40	0	346030080	21	5216
2026-01-29 12:11:24.40	250.09	18.07	-30.7	-34.2	12.6	8.01e-05	0	41	0	347078656	21	5412
2026-01-29 12:11:25.40	250.31	18.12	-30.8	-34.5	12.4	1.82e-04	0	41	0	349175808	21	5539
2026-01-29 12:11:26.40	250.52	18.16	-30.7	-34.2	12.6	1.28e-04	0	41	0	351272960	21	5414
2026-01-29 12:11:27.40	250.74	18.21	-30.6	-34.0	12.7	7.01e-05	0	41	0	353370112	21	5322
2026-01-29 12:11:28.40	250.96	18.25	-30.6	-34.0	12.7	5.87e-05	0	41	0	354418688	21	5337
2026-01-29 12:11:29.41	251.19	18.30	-30.7	-34.2	12.6	8.69e-05	0	41	0	356515840	21	5409
2026-01-29 12:11:30.41	251.41	18.35	-30.7	-34.4	12.5	1.08e-04	0	41	0	358612992	21	5486
2026-01-29 12:11:31.41	251.63	18.39	-30.8	-34.6	12.3	1.50e-04	0	41	0	360710144	21	5560
2026-01-29 12:11:32.41	251.85	18.43	-30.8	-34.6	12.3	1.75e-04	0	41	0	362807296	21	5561
2026-01-29 12:11:33.42	252.07	18.48	-30.8	-34.6	12.4	1.59e-04	0	41	0	363855872	21	5559
2026-01-29 12:11:34.42	252.30	18.52	-30.8	-34.7	12.3	1.70e-04	0	41	0	365953024	21	5612
2026-01-29 12:11:35.43	252.52	18.56	-30.8	-34.6	12.3	2.30e-04	0	41	0	368050176	21	5578
2026-01-29 12:11:36.43	252.75	18.61	-30.7	-34.4	12.5	1.47e-04	0	41	0	370147328	21	5478
2026-01-29 12:11:37.43	252.97	18.65	-30.8	-34.5	12.4	1.47e-04	0	41	0	372244480	21	5546
2026-01-29 12:11:38.43	253.20	18.69	-30.8	-34.5	12.4	2.04e-04	0	41	0	373293056	21	5537
2026-01-29 12:11:39.44	253.43	18.73	-30.7	-34.2	12.6	1.24e-04	0	41	0	375390208	21	5413
2026-01-29 12:11:40.44	253.66	18.77	-30.6	-33.9	12.8	6.71e-05	0	41	0	377487360	21	5272
2026-01-29 12:11:41.44	253.88	18.82	-30.6	-34.0	12.7	6.17e-05	0	41	0	379584512	21	5320
2026-01-29 12:11:42.45	254.11	18.86	-30.6	-34.1	12.7	7.85e-05	0	41	0	381681664	21	5363
2026-01-29 12:11:43.45	254.34	18.90	-30.7	-34.2	12.6	8.31e-05	0	41	0	382730240	21	5408
2026-01-29 12:11:44.45	254.57	18.94	-30.7	-34.2	12.6	1.07e-04	0	41	0	384827392	21	5410
2026-01-29 12:11:45.46	254.81	18.98	-30.7	-34.2	12.7	6.94e-05	0	41	0	386924544	21	5387
2026-01-29 12:11:46.47	255.04	19.02	-30.8	-34.5	12.4	1.14e-04	0	41	0	389021696	21	5527
2026-01-29 12:11:47.47	255.27	19.05	-30.8	-34.6	12.3	2.11e-04	0	41	0	391118848	21	5559
2026-01-29 12:11:48.47	255.50	19.09	-30.6	-34.1	12.8	1.12e-04	0	41	0	392167424	21	5344
2026-01-29 12:11:49.47	255.73	19.13	-30.5	-33.7	13.0	6.02e-05	0	41	0	394264576	21	5202
2026-01-29 12:11:50.48	255.97	19.17	-30.5	-33.7	12.9	5.18e-05	0	41	0	396361728	21	5219
2026-01-29 12:11:51.49	256.20	19.21	-30.5	-33.7	12.9	3.43e-05	0	41	0	398458880	21	5208
2026-01-29 12:11:52.49	256.44	19.24	-30.5	-33.7	13.0	5.49e-05	0	41	0	400556032	21	5193
2026-01-29 12:11:53.49	256.67	19.28	-30.5	-33.6	13.1	2.89e-05	0	41	0	401604608	21	5167
2026-01-29 12:11:54.49	256.91	19.31	-30.4	-33.5	13.1	2.89e-05	0	41	0	403701760	21	5136
2026-01-29 12:11:55.49	257.14	19.35	-30.5	-33.8	12.9	3.58e-05	0	41	0	405798912	21	5248
2026-01-29 12:11:56.49	257.38	19.38	-30.5	-33.8	12.9	5.34e-05	0	41	0	407896064	21	5232
2026-01-29 12:11:57.50	257.62	19.42	-30.5	-33.7	13.0	3.66e-05	0	41	0	408944640	21	5219
2026-01-29 12:11:58.51	257.86	19.45	-30.5	-33.7	12.9	5.41e-05	0	41	0	411041792	21	5221
2026-01-29 12:11:59.51	258.10	19.49	-30.5	-33.5	13.1	3.12e-05	0	41	0	413138944	21	5142
2026-01-29 12:12:00.50	258.33	19.52	-30.5	-33.7	13.0	3.28e-05	0	41	0	415236096	21	5206
2026-01-29 12:12:01.51	258.57	19.55	-30.5	-33.8	12.9	5.11e-05	0	41	0	417333248	21	5240
2026-01-29 12:12:02.52	258.81	19.58	-30.6	-34.0	12.8	5.64e-05	0	41	0	418381824	21	5305
2026-01-29 12:12:03.52	259.05	19.62	-30.6	-34.1	12.7	6.63e-05	0	41	0	420478976	21	5353
2026-01-29 12:12:04.52	259.29	19.65	-30.7	-34.3	12.6	9.38e-05	0	41	0	422576128	21	5433
2026-01-29 12:12:05.52	259.53	19.68	-30.7	-34.4	12.5	9.30e-05	0	41	0	424673280	21	5491
2026-01-29 12:12:06.52	259.78	19.71	-30.7	-34.2	12.7	1.54e-04	0	41	0	426770432	21	5398
2026-01-29 12:12:07.53	260.02	19.74	-30.4	-33.5	13.1	3.12e-05	0	41	0	427819008	21	5118
2026-01-29 12:12:08.53	260.26	19.77	-30.3	-33.2	13.3	2.51e-05	0	41	0	429916160	21	5004
2026-01-29 12:12:09.53	260.50	19.80	-30.2	-32.8	13.6	1.14e-05	0	41	0	432013312	21	4881
2026-01-29 12:12:10.53	260.75	19.83	-30.3	-33.1	13.4	1.14e-05	0	41	0	434110464	21	4983
2026-01-29 12:12:11.54	260.99	19.85	-30.4	-33.3	13.3	1.37e-05	0	41	0	436207616	21	5032
2026-01-29 12:12:12.53	261.23	19.88	-30.3	-33.1	13.4	1.52e-05	0	41	0	437256192	21	4961
2026-01-29 12:12:13.54	261.48	19.91	-30.3	-33.0	13.5	1.44e-05	0	41	0	439353344	21	4945
2026-01-29 12:12:14.54	261.72	19.94	-30.4	-33.3	13.3	1.44e-05	0	41	0	441450496	21	5036
2026-01-29 12:12:15.55	261.97	19.96	-30.4	-33.3	13.3	1.60e-05	0	41	0	443547648	21	5040
2026-01-29 12:12:16.55	262.22	19.99	-30.4	-33.3	13.3	2.28e-05	0	41	0	445644800	21	5058
2026-01-29 12:12:17.55	262.46	20.01	-30.3	-33.1	13.4	2.21e-05	0	40	0	446693376	21	4986
2026-01-29 12:12:18.56	262.71	20.04	-30.2	-32.8	13.6	8.30e-06	0	41	0	448790528	21	4859
2026-01-29 12:12:19.57	262.96	20.06	-30.1	-32.6	13.7	6.80e-06	0	41	0	450887680	21	4795
2026-01-29 12:12:20.56	263.21	20.08	-30.1	-32.6	13.8	4.50e-06	0	41	0	452984832	21	4804
2026-01-29 12:12:21.57	263.45	20.11	-30.0	-32.4	13.8	6.10e-06	0	41	0	454033408	21	4732
2026-01-29 12:12:22.57	263.70	20.13	-29.9	-32.1	14.1	5.30e-06	0	41	0	456130560	21	4624
2026-01-29 12:12:23.58	263.95	20.15	-29.9	-32.1	14.1	2.20e-06	0	41	0	458227712	21	4604
2026-01-29 12:12:24.58	264.20	20.17	-29.9	-32.0	14.1	1.50e-06	0	41	0	460324864	21	4592
2026-01-29 12:12:25.58	264.45	20.20	-29.9	-32.1	14.0	1.50e-06	0	41	0	462422016	21	4628
2026-01-29 12:12:26.58	264.70	20.22	-30.0	-32.3	14.0	3.80e-06	0	41	0	463470592	21	4678
2026-01-29 12:12:27.58	264.95	20.24	-30.1	-32.5	13.8	2.20e-06	0	41	0	465567744	21	4754
2026-01-29 12:12:28.59	265.20	20.26	-30.1	-32.7	13.7	3.00e-06	0	41	0	467664896	21	4821
2026-01-29 12:12:29.59	265.45	20.27	-30.1	-32.6	13.7	5.30e-06	0	41	0	469762048	21	4798
2026-01-29 12:12:30.59	265.70	20.29	-30.0	-32.1	14.0	3.00e-06	0	41	0	471859200	21	4633
2026-01-29 12:12:31.59	265.95	20.31	-29.9	-32.1	14.1	0.00e+00	0	41	0	472907776	21	4631
2026-01-29 12:12:32.58	266.20	20.33	-29.9	-32.1	14.1	1.50e-06	0	41	0	475004928	21	4619
2026-01-29 12:12:33.59	266.45	20.34	-29.9	-32.0	14.2	0.00e+00	0	41	0	477102080	21	4582
2026-01-29 12:12:34.59	266.70	20.36	-30.0	-32.2	14.0	7.00e-07	0	41	0	479199232	21	4670
2026-01-29 12:12:35.59	266.95	20.38	-30.1	-32.4	13.9	3.00e-06	0	41	0	481296384	21	4732
2026-01-29 12:12:36.60	267.21	20.39	-30.1	-32.6	13.8	3.80e-06	0	40	0	482344960	21	4782
2026-01-29 12:12:37.61	267.46	20.41	-30.3	-32.9	13.6	1.06e-05	0	41	0	484442112	21	4901
2026-01-29 12:12:38.61	267.72	20.42	-30.4	-33.4	13.3	1.06e-05	0	41	0	486539264	21	5075
2026-01-29 12:12:39.61	267.97	20.43	-30.6	-33.8	13.0	2.67e-05	0	41	0	488636416	21	5221
2026-01-29 12:12:40.62	268.22	20.45	-30.7	-34.1	12.8	4.50e-05	0	41	0	490733568	21	5344
2026-01-29 12:12:41.62	268.48	20.46	-30.7	-34.2	12.7	7.62e-05	0	40	0	491782144	21	5390
2026-01-29 12:12:42.62	268.73	20.47	-30.7	-34.2	12.8	6.40e-05	0	41	0	493879296	21	5370
2026-01-29 12:12:43.62	268.98	20.48	-30.7	-34.2	12.8	6.33e-05	0	41	0	495976448	21	5394
2026-01-29 12:12:44.61	269.23	20.49	-30.6	-33.9	12.9	5.41e-05	0	40	0	498073600	21	5247
2026-01-29 12:12:45.62	269.49	20.50	-30.7	-34.1	12.8	6.33e-05	0	41	0	499122176	21	5348
2026-01-29 12:12:46.62	269.74	20.51	-30.4	-33.5	13.2	4.88e-05	0	41	0	501219328	21	5104
2026-01-29 12:12:47.62	270.00	20.52	-30.3	-33.1	13.5	1.06e-05	0	41	0	503316480	21	4953
2026-01-29 12:12:48.61	270.25	20.53	-30.3	-33.2	13.4	9.90e-06	0	41	0	505413632	21	4999
2026-01-29 12:12:49.62	270.50	20.54	-30.4	-33.3	13.3	1.29e-05	0	41	0	507510784	21	5028
2026-01-29 12:12:50.62	270.76	20.55	-30.4	-33.4	13.3	1.67e-05	0	41	0	508559360	21	5090
2026-01-29 12:12:51.62	271.01	20.55	-30.5	-33.6	13.1	2.82e-05	0	40	0	510656512	21	5163
2026-01-29 12:12:52.63	271.27	20.56	-30.6	-33.8	13.0	3.12e-05	0	41	0	512753664	21	5237
2026-01-29 12:12:53.64	271.53	20.57	-30.8	-34.6	12.4	7.40e-05	0	41	0	514850816	21	5572
2026-01-29 12:12:54.64	271.78	20.57	-30.8	-34.5	12.5	1.64e-04	0	41	0	516947968	21	5526
2026-01-29 12:12:55.64	272.04	20.58	-30.7	-34.2	12.7	8.39e-05	0	41	0	517996544	21	5405
2026-01-29 12:12:56.64	272.29	20.58	-30.6	-34.0	12.9	5.34e-05	0	41	0	520093696	21	5297
2026-01-29 12:12:57.65	272.55	20.58	-30.5	-33.8	13.0	3.43e-05	0	41	0	522190848	21	5209
2026-01-29 12:12:58.64	272.80	20.59	-30.5	-33.7	13.0	3.58e-05	0	41	0	524288000	21	5198
2026-01-29 12:12:59.65	273.06	20.59	-30.5	-33.7	13.1	2.74e-05	0	41	0	526385152	21	5185
2026-01-29 12:13:00.65	273.31	20.59	-30.6	-34.0	12.9	3.35e-05	0	41	0	527433728	21	5316
2026-01-29 12:13:01.66	273.57	20.59	-30.7	-34.2	12.7	7.40e-05	0	41	0	529530880	21	5393
2026-01-29 12:13:02.66	273.83	20.59	-30.8	-34.5	12.5	7.78e-05	0	41	0	531628032	21	5516
2026-01-29 12:13:03.66	274.08	20.59	-30.8	-34.6	12.5	1.40e-04	0	40	0	533725184	21	5559
2026-01-29 12:13:04.67	274.34	20.59	-30.9	-34.7	12.4	9.84e-05	0	40	0	535822336	21	5610
2026-01-29 12:13:05.67	274.59	20.59	-30.9	-34.6	12.5	1.32e-04	0	41	0	536870912	21	5563
2026-01-29 12:13:06.67	274.85	20.59	-30.7	-34.3	12.7	9.23e-05	0	41	0	538968064	21	5435
2026-01-29 12:13:07.68	275.10	20.59	-30.7	-34.1	12.8	6.71e-05	0	41	0	541065216	21	5328
2026-01-29 12:13:08.68	275.36	20.59	-30.7	-34.3	12.8	6.33e-05	0	41	0	543162368	21	5404
2026-01-29 12:13:09.69	275.62	20.58	-30.6	-34.0	12.9	7.70e-05	0	40	0	545259520	21	5306
2026-01-29 12:13:10.69	275.87	20.58	-30.6	-33.8	13.0	3.73e-05	0	41	0	546308096	21	5206
2026-01-29 12:13:11.69	276.13	20.58	-30.5	-33.5	13.2	1.14e-05	0	41	0	548405248	21	5120
2026-01-29 12:13:12.69	276.38	20.57	-30.4	-33.4	13.2	1.83e-05	0	41	0	550502400	21	5080
2026-01-29 12:13:13.69	276.64	20.56	-30.3	-33.1	13.4	2.13e-05	0	41	0	552599552	21	4979
2026-01-29 12:13:14.69	276.89	20.56	-30.2	-32.8	13.6	5.30e-06	0	41	0	554696704	21	4857
2026-01-29 12:13:15.68	277.14	20.55	-30.2	-32.7	13.8	3.00e-06	0	41	0	555745280	21	4812
2026-01-29 12:13:16.68	277.40	20.55	-30.1	-32.6	13.8	4.50e-06	0	41	0	557842432	21	4791
2026-01-29 12:13:17.69	277.65	20.54	-30.1	-32.5	13.8	1.50e-06	0	40	0	559939584	21	4766
2026-01-29 12:13:18.69	277.91	20.53	-30.2	-32.7	13.7	3.80e-06	0	41	0	562036736	21	4822
2026-01-29 12:13:19.69	278.16	20.52	-30.2	-32.9	13.6	8.30e-06	0	41	0	563085312	21	4880
2026-01-29 12:13:20.69	278.41	20.51	-30.3	-33.2	13.4	9.90e-06	0	41	0	565182464	21	4999
2026-01-29 12:13:21.70	278.67	20.50	-30.4	-33.3	13.3	1.83e-05	0	41	0	567279616	21	5041
2026-01-29 12:13:22.70	278.92	20.49	-30.5	-33.6	13.1	2.28e-05	0	41	0	569376768	21	5153
2026-01-29 12:13:23.71	279.18	20.48	-30.6	-33.9	12.9	4.27e-05	0	41	0	571473920	21	5247
2026-01-29 12:13:24.71	279.43	20.47	-30.6	-33.8	12.9	3.43e-05	0	41	0	572522496	21	5240
2026-01-29 12:13:25.70	279.68	20.46	-30.5	-33.5	13.2	3.20e-05	0	40	0	574619648	21	5123
2026-01-29 12:13:26.70	279.93	20.44	-30.5	-33.7	13.1	2.67e-05	0	40	0	576716800	21	5200
2026-01-29 12:13:27.70	280.18	20.43	-30.5	-33.6	13.1	2.51e-05	0	41	0	578813952	21	5142
2026-01-29 12:13:28.71	280.44	20.42	-30.5	-33.6	13.2	2.28e-05	0	41	0	580911104	21	5144
2026-01-29 12:13:29.71	280.69	20.40	-30.6	-33.9	13.0	3.12e-05	0	40	0	581959680	21	5247
2026-01-29 12:13:30.70	280.94	20.39	-30.6	-33.9	13.0	3.58e-05	0	41	0	584056832	21	5248
2026-01-29 12:13:31.70	281.19	20.37	-30.7	-34.1	12.9	5.11e-05	0	40	0	586153984	21	5331
2026-01-29 12:13:32.71	281.45	20.36	-30.7	-34.1	12.8	3.96e-05	0	41	0	588251136	21	5339
2026-01-29 12:13:33.70	281.69	20.34	-30.6	-34.0	12.9	3.89e-05	0	41	0	590348288	21	5307
2026-01-29 12:13:34.70	281.94	20.32	-30.8	-34.3	12.7	6.71e-05	0	41	0	591396864	21	5441
2026-01-29 12:13:35.70	282.19	20.31	-30.8	-34.4	12.6	1.07e-04	0	41	0	593494016	21	5455
2026-01-29 12:13:36.70	282.44	20.29	-30.9	-34.7	12.4	8.46e-05	0	41	0	595591168	21	5601
2026-01-29 12:13:37.70	282.69	20.27	-31.0	-35.0	12.2	1.51e-04	0	41	0	597688320	21	5713
2026-01-29 12:13:38.70	282.94	20.25	-30.9	-34.7	12.4	1.98e-04	0	41	0	598736896	21	5601
2026-01-29 12:13:39.71	283.19	20.23	-30.9	-34.7	12.5	1.31e-04	0	40	0	600834048	21	5570
2026-01-29 12:13:40.72	283.45	20.21	-30.8	-34.4	12.6	1.05e-04	0	41	0	602931200	21	5482
2026-01-29 12:13:41.72	283.69	20.19	-30.7	-34.1	12.8	9.07e-05	0	41	0	605028352	21	5337
2026-01-29 12:13:42.73	283.94	20.17	-30.5	-33.7	13.1	4.19e-05	0	41	0	607125504	21	5172
2026-01-29 12:13:43.74	284.19	20.15	-30.5	-33.6	13.2	2.28e-05	0	41	0	608174080	21	5128
2026-01-29 12:13:44.74	284.44	20.12	-30.5	-33.7	13.1	3.28e-05	0	41	0	610271232	21	5199
2026-01-29 12:13:45.74	284.69	20.10	-30.7	-34.1	12.9	3.58e-05	0	41	0	612368384	21	5327
2026-01-29 12:13:46.74	284.94	20.08	-30.6	-34.0	12.9	5.72e-05	0	41	0	614465536	21	5297
2026-01-29 12:13:47.74	285.18	20.05	-30.7	-34.3	12.7	4.88e-05	0	40	0	616562688	21	5406
2026-01-29 12:13:48.75	285.43	20.03	-30.6	-33.9	13.0	8.01e-05	0	41	0	617611264	21	5265
2026-01-29 12:13:49.75	285.68	20.00	-30.5	-33.6	13.2	2.82e-05	0	40	0	619708416	21	5144
2026-01-29 12:13:50.74	285.92	19.98	-30.4	-33.3	13.3	1.75e-05	0	41	0	621805568	21	5047
2026-01-29 12:13:51.74	286.16	19.95	-30.3	-33.2	13.5	1.37e-05	0	41	0	623902720	21	4997
2026-01-29 12:13:52.74	286.41	19.93	-30.2	-32.7	13.7	9.90e-06	0	41	0	625999872	21	4823
2026-01-29 12:13:53.75	286.65	19.90	-30.1	-32.4	14.0	3.00e-06	0	41	0	627048448	21	4705
2026-01-29 12:13:54.75	286.90	19.87	-30.0	-32.3	14.0	3.00e-06	0	41	0	629145600	21	4667
2026-01-29 12:13:55.75	287.14	19.85	-30.0	-32.3	14.0	2.20e-06	0	40	0	631242752	21	4677
2026-01-29 12:13:56.75	287.38	19.82	-30.0	-32.2	14.0	2.20e-06	0	41	0	633339904	21	4653
2026-01-29 12:13:57.76	287.63	19.79	-29.8	-31.7	14.4	0.00e+00	0	41	0	635437056	21	4493
2026-01-29 12:13:58.77	287.87	19.76	-29.7	-31.9	14.6	3.00e-06	0	41	0	636485632	20	4644
2026-01-29 12:13:59.77	288.11	19.73	-29.6	-31.6	14.7	0.00e+00	0	40	0	638582784	20	4562
2026-01-29 12:14:00.76	288.35	19.70	-29.6	-31.6	14.7	0.00e+00	0	41	0	640679936	20	4557
2026-01-29 12:14:01.77	288.59	19.67	-29.7	-32.0	14.5	7.00e-07	0	41	0	642777088	20	4678
2026-01-29 12:14:02.77	288.83	19.64	-29.8	-32.3	14.3	1.50e-06	0	40	0	643825664	20	4774
2026-01-29 12:14:03.78	289.07	19.61	-30.1	-33.0	13.8	3.80e-06	0	40	0	645922816	20	5033
2026-01-29 12:14:04.78	289.31	19.58	-30.1	-33.1	13.8	5.30e-06	0	41	0	648019968	20	5084
2026-01-29 12:14:05.78	289.55	19.54	-30.2	-33.3	13.7	4.50e-06	0	41	0	650117120	20	5128
2026-01-29 12:14:06.78	289.79	19.51	-30.1	-33.0	13.8	3.00e-06	0	40	0	652214272	20	5044
2026-01-29 12:14:07.79	290.03	19.48	-30.1	-32.9	13.9	3.80e-06	0	41	0	653262848	20	5008
2026-01-29 12:14:08.79	290.26	19.44	-30.0	-32.7	14.1	1.50e-06	0	41	0	655360000	20	4919
2026-01-29 12:14:09.80	290.50	19.41	-29.9	-32.6	14.1	2.20e-06	0	41	0	657457152	20	4882
2026-01-29 12:14:10.79	290.74	19.38	-29.9	-32.5	14.2	7.00e-07	0	41	0	659554304	20	4877
2026-01-29 12:14:11.79	290.97	19.34	-29.9	-32.6	14.1	3.00e-06	0	41	0	661651456	20	4894
2026-01-29 12:14:12.79	291.21	19.31	-30.0	-32.8	14.0	0.00e+00	0	41	0	662700032	20	4974
2026-01-29 12:14:13.79	291.44	19.27	-30.1	-32.9	13.9	2.20e-06	0	40	0	664797184	20	5017
2026-01-29 12:14:14.80	291.68	19.23	-29.8	-32.3	14.3	7.00e-07	0	41	0	666894336	20	4780
2026-01-29 12:14:15.80	291.91	19.20	-29.7	-32.0	14.4	1.50e-06	0	41	0	668991488	20	4704
2026-01-29 12:14:16.81	292.14	19.16	-29.6	-31.6	14.7	0.00e+00	0	41	0	671088640	20	4574
2026-01-29 12:14:17.81	292.38	19.12	-29.7	-31.9	14.6	7.00e-07	0	41	0	672137216	20	4652
2026-01-29 12:14:18.82	292.61	19.09	-29.7	-32.0	14.4	1.50e-06	0	41	0	674234368	20	4684
2026-01-29 12:14:19.82	292.84	19.05	-29.5	-31.6	14.7	0.00e+00	0	40	0	676331520	20	4544
2026-01-29 12:14:20.82	293.07	19.01	-29.6	-31.6	14.7	0.00e+00	0	41	0	678428672	20	4562
2026-01-29 12:14:21.83	293.30	18.97	-29.6	-31.7	14.7	0.00e+00	0	41	0	680525824	20	4601
2026-01-29 12:14:22.83	293.53	18.93	-29.7	-32.0	14.5	0.00e+00	0	41	0	681574400	20	4690
2026-01-29 12:14:23.84	293.76	18.89	-29.7	-32.0	14.5	7.00e-07	0	41	0	683671552	20	4686
2026-01-29 12:14:24.83	293.99	18.85	-29.8	-32.1	14.4	0.00e+00	0	41	0	685768704	20	4728
2026-01-29 12:14:25.83	294.22	18.81	-29.7	-32.1	14.4	0.00e+00	0	41	0	687865856	20	4723
2026-01-29 12:14:26.84	294.44	18.77	-29.8	-32.1	14.3	2.20e-06	0	40	0	689963008	20	4741
2026-01-29 12:14:27.84	294.67	18.73	-29.8	-32.3	14.2	2.20e-06	0	41	0	691011584	20	4791
2026-01-29 12:14:28.85	294.90	18.69	-29.7	-32.0	14.4	7.00e-07	0	41	0	693108736	20	4688
2026-01-29 12:14:29.85	295.12	18.64	-29.5	-31.5	14.7	0.00e+00	0	41	0	695205888	20	4535
2026-01-29 12:14:30.85	295.35	18.60	-29.5	-31.4	14.8	0.00e+00	0	41	0	697303040	20	4513
2026-01-29 12:14:31.86	295.57	18.56	-29.5	-31.4	14.7	0.00e+00	0	41	0	698351616	20	4504
2026-01-29 12:14:32.86	295.80	18.52	-29.3	-31.0	15.0	0.00e+00	0	41	0	700448768	20	4388
2026-01-29 12:14:33.87	296.02	18.47	-29.3	-31.5	15.1	0.00e+00	0	41	0	702545920	19	4636
2026-01-29 12:14:34.87	296.24	18.43	-29.2	-31.3	15.2	0.00e+00	0	41	0	704643072	19	4550
2026-01-29 12:14:35.88	296.47	18.39	-29.2	-31.1	15.3	0.00e+00	0	41	0	706740224	19	4522
2026-01-29 12:14:36.88	296.69	18.34	-29.2	-31.3	15.2	0.00e+00	0	41	0	708837376	19	4567
2026-01-29 12:14:37.88	296.91	18.30	-29.2	-31.1	15.3	0.00e+00	0	41	0	709885952	19	4506
2026-01-29 12:14:38.88	297.13	18.25	-29.1	-31.0	15.3	0.00e+00	0	41	0	711983104	19	4486
2026-01-29 12:14:39.89	297.35	18.21	-29.1	-31.1	15.3	0.00e+00	0	40	0	714080256	19	4496
2026-01-29 12:14:40.89	297.56	18.16	-29.2	-31.1	15.3	0.00e+00	0	41	0	716177408	19	4518
2026-01-29 12:14:41.90	297.78	18.11	-29.2	-31.1	15.3	0.00e+00	0	41	0	717225984	19	4513
2026-01-29 12:14:42.90	298.00	18.07	-29.2	-31.3	15.2	0.00e+00	0	40	0	719323136	19	4556
2026-01-29 12:14:43.91	298.22	18.02	-29.3	-31.5	15.1	0.00e+00	0	40	0	721420288	19	4617
2026-01-29 12:14:44.91	298.43	17.97	-29.4	-31.6	15.0	0.00e+00	0	40	0	723517440	19	4676
2026-01-29 12:14:45.91	298.65	17.93	-29.5	-31.9	14.8	0.00e+00	0	41	0	725614592	19	4776
2026-01-29 12:14:46.91	298.86	17.88	-29.6	-32.2	14.6	7.00e-07	0	41	0	726663168	19	4862
2026-01-29 12:14:47.92	299.08	17.83	-29.5	-32.0	14.7	1.50e-06	0	41	0	728760320	19	4791
2026-01-29 12:14:48.92	299.29	17.78	-29.5	-32.0	14.8	0.00e+00	0	41	0	730857472	19	4785
2026-01-29 12:14:49.93	299.51	17.74	-29.5	-32.1	14.7	1.50e-06	0	41	0	732954624	19	4834
2026-01-29 12:14:50.94	299.72	17.69	-29.5	-32.0	14.7	7.00e-07	0	41	0	735051776	19	4797
2026-01-29 12:14:51.94	299.93	17.64	-29.6	-32.2	14.6	0.00e+00	0	41	0	736100352	19	4859
2026-01-29 12:14:52.94	300.14	17.59	-29.8	-32.7	14.3	0.00e+00	0	41	0	738197504	19	5051
2026-01-29 12:14:53.94	300.35	17.54	-29.9	-33.0	14.2	2.20e-06	0	41	0	740294656	19	5135
2026-01-29 12:14:54.94	300.56	17.49	-30.0	-32.7	13.9	1.50e-06	0	41	0	742391808	20	4959
2026-01-29 12:14:55.94	300.77	17.44	-30.2	-33.3	13.5	6.10e-06	0	41	0	744488960	20	5162
2026-01-29 12:14:56.94	300.97	17.39	-30.0	-32.8	13.8	8.30e-06	0	41	0	745537536	20	4992
2026-01-29 12:14:57.94	301.18	17.34	-29.9	-32.6	13.9	0.00e+00	0	41	0	747634688	20	4906
2026-01-29 12:14:58.95	301.39	17.29	-29.9	-32.6	14.0	6.10e-06	0	41	0	749731840	20	4895
2026-01-29 12:14:59.95	301.59	17.24	-29.9	-32.7	13.9	3.00e-06	0	41	0	751828992	20	4932
2026-01-29 12:15:00.95	301.80	17.19	-30.0	-32.8	13.8	3.80e-06	0	41	0	753926144	20	4969
2026-01-29 12:15:01.95	302.00	17.13	-30.0	-32.9	13.7	5.30e-06	0	41	0	754974720	20	5025
2026-01-29 12:15:02.95	302.20	17.08	-30.1	-33.0	13.7	9.10e-06	0	40	0	757071872	20	5068
2026-01-29 12:15:03.96	302.41	17.03	-30.1	-33.2	13.5	6.80e-06	0	40	0	759169024	20	5135
2026-01-29 12:15:04.96	302.61	16.98	-30.2	-33.3	13.4	1.06e-05	0	41	0	761266176	20	5174
2026-01-29 12:15:05.97	302.81	16.93	-30.1	-33.2	13.6	1.14e-05	0	41	0	762314752	20	5116
2026-01-29 12:15:06.97	303.02	16.87	-30.1	-33.2	13.5	9.90e-06	0	41	0	764411904	20	5126
2026-01-29 12:15:07.98	303.22	16.82	-30.3	-33.5	13.3	1.22e-05	0	41	0	766509056	20	5261
2026-01-29 12:15:08.98	303.42	16.77	-30.1	-33.0	13.6	9.90e-06	0	41	0	768606208	20	5075
2026-01-29 12:15:09.99	303.62	16.71	-30.0	-33.0	13.7	6.10e-06	0	41	0	770703360	20	5039
2026-01-29 12:15:10.99	303.81	16.66	-30.1	-33.2	13.6	9.10e-06	0	41	0	771751936	20	5133
2026-01-29 12:15:12.00	304.01	16.61	-30.2	-33.4	13.4	9.10e-06	0	41	0	773849088	20	5208
2026-01-29 12:15:13.00	304.21	16.55	-30.4	-33.8	13.2	1.98e-05	0	41	0	775946240	20	5366
2026-01-29 12:15:14.00	304.41	16.50	-30.5	-33.8	12.8	4.27e-05	0	41	0	778043392	21	5253
2026-01-29 12:15:15.01	304.60	16.44	-30.6	-34.1	12.6	7.17e-05	0	40	0	780140544	21	5380
2026-01-29 12:15:16.01	304.80	16.39	-30.7	-34.3	12.6	7.85e-05	0	41	0	781189120	21	5435
2026-01-29 12:15:17.01	304.99	16.34	-30.6	-34.2	12.6	9.15e-05	0	41	0	783286272	21	5398
2026-01-29 12:15:18.02	305.19	16.28	-30.6	-34.0	12.7	8.01e-05	0	40	0	785383424	21	5326
2026-01-29 12:15:19.02	305.38	16.23	-30.6	-34.0	12.7	8.85e-05	0	41	0	787480576	21	5335
2026-01-29 12:15:20.03	305.57	16.17	-30.7	-34.3	12.5	8.62e-05	0	41	0	789577728	21	5444
2026-01-29 12:15:21.03	305.76	16.11	-30.4	-33.6	12.9	6.25e-05	0	41	0	790626304	21	5187
2026-01-29 12:15:22.04	305.95	16.06	-30.4	-33.4	13.0	5.79e-05	0	41	0	792723456	21	5099
2026-01-29 12:15:23.04	306.14	16.00	-30.4	-33.6	12.9	3.81e-05	0	40	0	794820608	21	5174
2026-01-29 12:15:24.05	306.33	15.95	-30.4	-33.6	12.9	5.79e-05	0	41	0	796917760	21	5180
2026-01-29 12:15:25.05	306.52	15.89	-30.5	-33.9	12.7	4.73e-05	0	41	0	799014912	21	5288
2026-01-29 12:15:26.05	306.71	15.84	-30.5	-33.8	12.8	7.24e-05	0	41	0	800063488	21	5246
2026-01-29 12:15:27.05	306.90	15.78	-30.5	-33.8	12.7	7.93e-05	0	40	0	802160640	21	5280
2026-01-29 12:15:28.06	307.08	15.72	-30.6	-34.2	12.4	1.15e-04	0	41	0	804257792	21	5422
2026-01-29 12:15:29.06	307.27	15.67	-30.6	-34.1	12.5	1.38e-04	0	41	0	806354944	21	5403
2026-01-29 12:15:30.07	307.46	15.61	-30.6	-34.2	12.5	1.26e-04	0	41	0	808452096	21	5432
2026-01-29 12:15:31.07	307.64	15.55	-30.6	-34.2	12.5	1.27e-04	0	41	0	809500672	21	5420
2026-01-29 12:15:32.08	307.83	15.49	-30.7	-34.5	12.2	1.85e-04	0	41	0	811597824	21	5565
2026-01-29 12:15:33.08	308.01	15.44	-30.5	-33.8	12.7	1.15e-04	0	41	0	813694976	21	5263
2026-01-29 12:15:34.09	308.19	15.38	-30.3	-33.2	13.1	5.11e-05	0	41	0	815792128	21	5056
2026-01-29 12:15:35.10	308.37	15.32	-30.2	-32.8	13.4	1.67e-05	0	41	0	817889280	21	4902
2026-01-29 12:15:36.10	308.56	15.26	-30.1	-32.7	13.4	1.67e-05	0	41	0	818937856	21	4856
2026-01-29 12:15:37.11	308.74	15.21	-30.2	-32.9	13.3	1.22e-05	0	41	0	821035008	21	4916
2026-01-29 12:15:38.11	308.92	15.15	-30.1	-32.6	13.5	1.14e-05	0	40	0	823132160	21	4801
2026-01-29 12:15:39.11	309.09	15.09	-30.1	-32.7	13.4	1.06e-05	0	41	0	825229312	21	4853
2026-01-29 12:15:40.12	309.27	15.03	-30.0	-32.5	13.5	1.06e-05	0	41	0	827326464	21	4792
2026-01-29 12:15:41.12	309.45	14.97	-30.0	-32.4	13.6	1.29e-05	0	41	0	828375040	21	4760
2026-01-29 12:15:42.13	309.63	14.92	-30.1	-32.7	13.5	1.52e-05	0	40	0	830472192	21	4836
2026-01-29 12:15:43.13	309.81	14.86	-30.2	-32.9	13.3	1.29e-05	0	41	0	832569344	21	4922
2026-01-29 12:15:44.14	309.98	14.80	-30.1	-32.8	13.4	1.60e-05	0	41	0	834666496	21	4887
2026-01-29 12:15:45.14	310.16	14.74	-30.2	-32.9	13.3	1.52e-05	0	41	0	836763648	21	4908
2026-01-29 12:15:46.15	310.33	14.68	-30.3	-33.3	13.0	2.44e-05	0	41	0	837812224	21	5065
2026-01-29 12:15:47.15	310.51	14.62	-30.5	-33.7	12.8	3.81e-05	0	41	0	839909376	21	5244
2026-01-29 12:15:48.14	310.68	14.56	-30.7	-34.3	12.4	1.16e-04	0	41	0	842006528	21	5458
2026-01-29 12:15:49.14	310.85	14.50	-30.8	-34.7	12.0	2.24e-04	0	41	0	844103680	21	5655
2026-01-29 12:15:50.15	311.02	14.45	-30.9	-35.1	11.8	4.14e-04	0	41	0	845152256	21	5824
2026-01-29 12:15:51.16	311.19	14.39	-30.9	-35.0	11.9	4.03e-04	0	41	0	847249408	21	5768
2026-01-29 12:15:52.16	311.36	14.33	-30.8	-34.6	12.1	3.08e-04	0	41	0	849346560	21	5596
2026-01-29 12:15:53.16	311.53	14.27	-30.5	-33.9	12.6	1.50e-04	0	41	0	851443712	21	5333
2026-01-29 12:15:54.16	311.70	14.21	-30.5	-33.8	12.7	8.62e-05	0	41	0	853540864	21	5260
2026-01-29 12:15:55.15	311.87	14.15	-30.3	-33.4	13.0	5.18e-05	0	41	0	854589440	21	5097
2026-01-29 12:15:56.15	312.03	14.09	-30.3	-33.3	13.0	4.73e-05	0	41	0	856686592	21	5081
2026-01-29 12:15:57.16	312.20	14.03	-30.4	-33.7	12.7	8.08e-05	0	41	0	858783744	21	5226
2026-01-29 12:15:58.16	312.37	13.97	-30.2	-32.9	13.1	4.57e-05	0	41	0	860880896	21	4952
2026-01-29 12:15:59.17	312.54	13.91	-30.2	-33.1	12.9	3.28e-05	0	41	0	862978048	21	5024
2026-01-29 12:16:00.18	312.70	13.85	-30.4	-33.5	12.6	7.78e-05	0	41	0	864026624	21	5174
2026-01-29 12:16:01.18	312.87	13.79	-30.3	-33.4	12.6	7.93e-05	0	41	0	866123776	21	5126
2026-01-29 12:16:02.19	313.03	13.73	-30.4	-33.6	12.6	9.15e-05	0	41	0	868220928	21	5201
2026-01-29 12:16:03.19	313.19	13.67	-30.4	-33.7	12.7	8.92e-05	0	41	0	870318080	21	5222
2026-01-29 12:16:04.19	313.36	13.61	-30.3	-33.3	13.0	6.02e-05	0	41	0	872415232	21	5093
2026-01-29 12:16:05.19	313.52	13.55	-30.1	-32.8	13.3	2.59e-05	0	41	0	873463808	21	4894
2026-01-29 12:16:06.19	313.68	13.49	-30.0	-32.5	13.5	1.60e-05	0	41	0	875560960	21	4785
2026-01-29 12:16:07.20	313.84	13.43	-30.0	-32.3	13.6	9.10e-06	0	41	0	877658112	21	4735
2026-01-29 12:16:08.20	314.00	13.37	-30.0	-32.4	13.5	6.80e-06	0	41	0	879755264	21	4761
2026-01-29 12:16:09.20	314.16	13.31	-30.0	-32.5	13.4	1.22e-05	0	41	0	881852416	21	4804
2026-01-29 12:16:10.20	314.32	13.25	-30.1	-32.6	13.2	2.13e-05	0	41	0	882900992	21	4835
2026-01-29 12:16:11.21	314.47	13.19	-30.2	-33.0	12.9	2.67e-05	0	41	0	884998144	21	4985
2026-01-29 12:16:12.21	314.63	13.13	-30.2	-33.1	13.0	5.26e-05	0	41	0	887095296	21	5017
2026-01-29 12:16:13.22	314.79	13.06	-30.2	-33.1	13.0	3.50e-05	0	41	0	889192448	21	5019
2026-01-29 12:16:14.23	314.95	13.00	-30.2	-33.0	13.2	2.89e-05	0	40	0	891289600	21	4970
2026-01-29 12:16:15.23	315.10	12.94	-30.1	-32.7	13.4	1.60e-05	0	41	0	892338176	21	4865
2026-01-29 12:16:16.24	315.26	12.88	-29.9	-32.3	13.7	7.60e-06	0	41	0	894435328	21	4710
2026-01-29 12:16:17.24	315.41	12.82	-29.9	-32.2	13.6	6.10e-06	0	41	0	896532480	21	4702
2026-01-29 12:16:18.24	315.56	12.76	-29.9	-32.2	13.5	1.22e-05	0	41	0	898629632	21	4704
2026-01-29 12:16:19.24	315.72	12.70	-29.8	-32.1	13.6	1.37e-05	0	41	0	900726784	21	4646
2026-01-29 12:16:20.25	315.87	12.64	-29.9	-32.3	13.3	1.06e-05	0	41	0	901775360	21	4735
2026-01-29 12:16:21.25	316.02	12.58	-29.9	-32.2	13.3	1.90e-05	0	41	0	903872512	21	4705
2026-01-29 12:16:22.25	316.17	12.52	-30.0	-32.5	13.1	2.82e-05	0	41	0	905969664	21	4809
2026-01-29 12:16:23.24	316.32	12.46	-30.1	-32.8	13.0	4.57e-05	0	41	0	908066816	21	4910
2026-01-29 12:16:24.24	316.47	12.40	-30.1	-32.9	13.0	4.11e-05	0	41	0	909115392	21	4957
2026-01-29 12:16:25.25	316.62	12.34	-30.3	-33.3	12.9	5.26e-05	0	40	0	911212544	21	5082
2026-01-29 12:16:26.25	316.77	12.27	-30.3	-33.3	12.8	7.55e-05	0	41	0	913309696	21	5102
2026-01-29 12:16:27.26	316.92	12.21	-30.2	-32.9	13.1	3.89e-05	0	41	0	915406848	21	4959
2026-01-29 12:16:28.27	317.07	12.15	-30.1	-32.6	13.3	3.05e-05	0	41	0	917504000	21	4850
2026-01-29 12:16:29.27	317.22	12.09	-30.0	-32.5	13.4	1.60e-05	0	41	0	918552576	21	4813
2026-01-29 12:16:30.27	317.36	12.03	-30.1	-32.7	13.3	1.60e-05	0	41	0	920649728	21	4852
2026-01-29 12:16:31.28	317.51	11.97	-30.0	-32.4	13.5	1.06e-05	0	40	0	922746880	21	4759
2026-01-29 12:16:32.29	317.65	11.91	-30.1	-32.7	13.3	1.60e-05	0	41	0	924844032	21	4844
2026-01-29 12:16:33.29	317.80	11.85	-30.1	-32.6	13.3	1.75e-05	0	41	0	926941184	21	4846
2026-01-29 12:16:34.29	317.94	11.78	-30.1	-32.9	13.1	2.74e-05	0	41	0	927989760	21	4930
2026-01-29 12:16:35.29	318.09	11.72	-30.3	-33.2	12.8	5.56e-05	0	41	0	930086912	21	5069
2026-01-29 12:16:36.30	318.23	11.66	-30.4	-33.5	12.6	7.78e-05	0	40	0	932184064	21	5182
2026-01-29 12:16:37.30	318.37	11.60	-30.4	-33.7	12.5	9.07e-05	0	41	0	934281216	21	5255
2026-01-29 12:16:38.30	318.51	11.54	-30.5	-34.0	12.4	1.42e-04	0	41	0	936378368	21	5365
2026-01-29 12:16:39.30	318.65	11.48	-30.4	-33.7	12.6	1.19e-04	0	41	0	937426944	21	5234
2026-01-29 12:16:40.31	318.80	11.42	-30.4	-33.6	12.7	7.17e-05	0	41	0	939524096	21	5196
2026-01-29 12:16:41.31	318.93	11.36	-30.4	-33.6	12.6	7.40e-05	0	41	0	941621248	21	5215
2026-01-29 12:16:42.31	319.07	11.30	-30.4	-33.7	12.5	1.16e-04	0	41	0	943718400	21	5257
2026-01-29 12:16:43.31	319.21	11.24	-30.3	-33.2	12.9	6.33e-05	0	40	0	945815552	21	5054
2026-01-29 12:16:44.32	319.35	11.17	-30.2	-33.1	13.0	4.19e-05	0	41	0	946864128	21	5031
2026-01-29 12:16:45.32	319.49	11.11	-30.3	-33.2	12.9	4.73e-05	0	41	0	948961280	21	5071
2026-01-29 12:16:46.33	319.63	11.05	-30.3	-33.3	12.8	4.57e-05	0	41	0	951058432	21	5092
2026-01-29 12:16:47.34	319.77	10.99	-30.4	-33.6	12.6	6.33e-05	0	41	0	953155584	21	5215
2026-01-29 12:16:48.34	319.90	10.93	-30.4	-33.8	12.5	9.53e-05	0	41	0	955252736	21	5286
2026-01-29 12:16:49.35	320.04	10.87	-30.5	-34.0	12.4	1.55e-04	0	41	0	956301312	21	5370
2026-01-29 12:16:50.35	320.17	10.81	-30.5	-33.9	12.4	1.32e-04	0	41	0	958398464	21	5349
2026-01-29 12:16:51.35	320.31	10.75	-30.5	-33.8	12.4	1.50e-04	0	41	0	960495616	21	5315
2026-01-29 12:16:52.35	320.44	10.69	-30.5	-33.8	12.4	1.36e-04	0	41	0	962592768	21	5305
2026-01-29 12:16:53.35	320.57	10.62	-30.5	-34.0	12.3	1.61e-04	0	41	0	964689920	21	5388
2026-01-29 12:16:54.35	320.71	10.56	-30.5	-33.9	12.3	2.08e-04	0	41	0	965738496	21	5342
2026-01-29 12:16:55.35	320.84	10.50	-30.4	-33.6	12.6	1.23e-04	0	41	0	967835648	21	5212
2026-01-29 12:16:56.36	320.97	10.44	-30.3	-33.4	12.7	6.86e-05	0	41	0	969932800	21	5130
2026-01-29 12:16:57.36	321.10	10.38	-30.3	-33.5	12.7	6.48e-05	0	41	0	972029952	21	5163
2026-01-29 12:16:58.37	321.23	10.32	-30.4	-33.6	12.6	1.04e-04	0	41	0	973078528	21	5223
2026-01-29 12:16:59.38	321.37	10.26	-30.4	-33.7	12.5	1.05e-04	0	41	0	975175680	21	5270
2026-01-29 12:17:00.38	321.49	10.20	-30.5	-34.0	12.3	1.68e-04	0	41	0	977272832	21	5368
2026-01-29 12:17:01.38	321.62	10.14	-30.5	-34.1	12.2	1.68e-04	0	41	0	979369984	21	5429
2026-01-29 12:17:02.39	321.75	10.08	-30.6	-34.3	12.1	2.84e-04	0	41	0	981467136	21	5514
2026-01-29 12:17:03.40	321.88	10.01	-30.7	-34.6	11.9	4.03e-04	0	41	0	982515712	21	5643
2026-01-29 12:17:04.40	322.01	9.95	-30.7	-34.6	11.9	4.07e-04	0	40	0	984612864	21	5642
2026-01-29 12:17:05.41	322.14	9.89	-30.8	-34.9	11.7	4.61e-04	0	41	0	986710016	21	5749
2026-01-29 12:17:06.42	322.27	9.83	-30.8	-35.0	11.5	8.48e-04	0	41	0	988807168	21	5841
2026-01-29 12:17:07.42	322.39	9.77	-30.8	-34.9	11.7	6.61e-04	0	41	0	990904320	21	5759
2026-01-29 12:17:08.43	322.52	9.71	-30.7	-34.7	11.8	6.07e-04	0	41	0	993001472	21	5703
2026-01-29 12:17:09.43	322.64	9.65	-30.8	-35.0	11.6	6.68e-04	0	41	0	994050048	21	5823
2026-01-29 12:17:10.44	322.77	9.59	-30.8	-35.0	11.5	9.50e-04	0	41	0	996147200	21	5815
2026-01-29 12:17:11.44	322.89	9.53	-30.7	-34.7	11.8	6.23e-04	0	41	0	998244352	21	5669
2026-01-29 12:17:12.45	323.02	9.47	-30.7	-34.7	11.8	4.28e-04	0	41	0	1000341504	21	5665
2026-01-29 12:17:13.45	323.14	9.41	-30.8	-34.8	11.7	5.83e-04	0	41	0	1001390080	21	5726
2026-01-29 12:17:14.45	323.26	9.35	-30.8	-34.9	11.6	6.38e-04	0	41	0	1003487232	21	5773
2026-01-29 12:17:15.45	323.38	9.29	-30.8	-35.0	11.5	7.21e-04	0	41	0	1005584384	21	5814
2026-01-29 12:17:16.45	323.51	9.23	-30.9	-35.1	11.4	9.69e-04	0	41	0	1007681536	21	5885
2026-01-29 12:17:17.45	323.63	9.17	-30.9	-35.2	11.4	1.00e-03	0	41	0	1009778688	21	5934
2026-01-29 12:17:18.46	323.75	9.11	-30.9	-35.2	11.4	1.10e-03	0	40	0	1010827264	21	5926
2026-01-29 12:17:19.47	323.87	9.05	-30.9	-35.3	11.3	1.11e-03	0	41	0	1012924416	21	5942
2026-01-29 12:17:20.48	323.99	8.98	-30.8	-35.1	11.4	9.59e-04	0	41	0	1015021568	21	5859
2026-01-29 12:17:21.47	324.11	8.93	-30.9	-35.2	11.3	9.06e-04	0	41	0	1017118720	21	5948
2026-01-29 12:17:22.48	324.23	8.86	-30.8	-35.1	11.4	1.02e-03	0	41	0	1019215872	21	5871
2026-01-29 12:17:23.48	324.35	8.80	-30.7	-34.8	11.6	7.19e-04	0	41	0	1020264448	21	5734
2026-01-29 12:17:24.48	324.46	8.75	-30.7	-34.6	11.8	5.55e-04	0	41	0	1022361600	21	5667
2026-01-29 12:17:25.48	324.58	8.69	-30.7	-34.6	11.8	4.65e-04	0	41	0	1024458752	21	5663
2026-01-29 12:17:26.47	324.70	8.63	-30.8	-34.9	11.6	7.56e-04	0	41	0	1026555904	21	5776
2026-01-29 12:17:27.47	324.81	8.57	-30.8	-34.9	11.6	7.31e-04	0	41	0	1027604480	21	5796
2026-01-29 12:17:28.47	324.93	8.51	-30.8	-35.0	11.5	7.14e-04	0	41	0	1029701632	21	5828
2026-01-29 12:17:29.48	325.04	8.45	-30.9	-35.3	11.3	1.31e-03	0	41	0	1031798784	21	5984
2026-01-29 12:17:30.47	325.16	8.39	-31.0	-35.5	11.1	1.36e-03	0	41	0	1033895936	21	6093
2026-01-29 12:17:31.48	325.27	8.33	-31.1	-35.6	10.7	2.08e-03	0	41	0	1035993088	22	6011
2026-01-29 12:17:32.48	325.39	8.27	-31.1	-35.6	10.7	3.16e-03	0	41	0	1038090240	22	6008
2026-01-29 12:17:33.48	325.50	8.21	-31.1	-35.6	10.7	2.84e-03	0	41	0	1039138816	22	6007
2026-01-29 12:17:34.48	325.61	8.15	-31.2	-35.8	10.5	3.45e-03	0	41	0	1041235968	22	6093
2026-01-29 12:17:35.48	325.73	8.09	-31.2	-35.7	10.6	4.37e-03	0	41	0	1043333120	22	6050
2026-01-29 12:17:36.48	325.84	8.03	-31.1	-35.5	10.8	2.55e-03	0	41	0	1045430272	22	5952
2026-01-29 12:17:37.49	325.95	7.97	-31.1	-35.4	10.8	2.62e-03	0	41	0	1046478848	22	5904
2026-01-29 12:17:38.50	326.06	7.91	-31.1	-35.3	10.8	2.22e-03	0	41	0	1048576000	22	5893
2026-01-29 12:17:39.50	326.18	7.85	-31.1	-35.4	10.7	2.34e-03	0	41	0	1050673152	22	5951
2026-01-29 12:17:40.50	326.29	7.79	-31.1	-35.6	10.6	3.35e-03	0	41	0	1052770304	22	6029
2026-01-29 12:17:41.50	326.40	7.73	-31.1	-35.6	10.6	3.65e-03	0	41	0	1054867456	22	6041
2026-01-29 12:17:42.50	326.51	7.67	-31.1	-35.4	10.8	3.19e-03	0	41	0	1055916032	22	5932
2026-01-29 12:17:43.51	326.62	7.62	-31.1	-35.4	10.8	2.58e-03	0	41	0	1058013184	22	5919
2026-01-29 12:17:44.51	326.72	7.56	-31.1	-35.4	10.7	2.88e-03	0	41	0	1060110336	22	5933
2026-01-29 12:17:45.51	326.83	7.50	-31.1	-35.6	10.6	3.24e-03	0	41	0	1062207488	22	6023
2026-01-29 12:17:46.52	326.94	7.44	-31.2	-35.9	10.3	3.75e-03	0	41	0	1064304640	22	6198
2026-01-29 12:17:47.52	327.05	7.38	-31.3	-36.1	10.1	7.52e-03	0	41	0	1065353216	22	6300
2026-01-29 12:17:48.51	327.16	7.32	-31.1	-35.7	10.5	5.20e-03	0	41	0	1067450368	22	6069
2026-01-29 12:17:49.52	327.26	7.26	-31.1	-35.4	10.7	3.41e-03	0	41	0	1069547520	22	5922
2026-01-29 12:17:50.52	327.37	7.20	-31.1	-35.4	10.7	3.03e-03	0	41	0	1071644672	22	5941
2026-01-29 12:17:51.52	327.47	7.14	-31.0	-35.2	10.9	2.53e-03	0	41	0	1073741824	22	5827
2026-01-29 12:17:52.53	327.58	7.09	-33.3	-47.2	3.8	2.12e-03	0	41	104	1074790400	26	17758
2026-01-29 12:17:53.53	327.69	7.03	-33.6	-47.8	3.8	1.49e+00	0	41	104	1074790400	27	18426

#Closed at: 2026-01-29 12:17:54
#Recorded file [1074 MB]: D:/data/31010_260129_150818.dat