passes_logs/2026/01/29/R2M6_AANII_01/R2M6_AANII_01__20260129_024938_FENGYUN_3D_rec.log

#Pass ID: 20260129_024938_FENGYUN 3D
#Satellite: FENGYUN 3D
#Configuration: FENGYUN 3D
#almurnet v.1.7.20240730
#Start time: 2026-01-29 02:49:39

#Version: 2.2.20231116
#Station: R2M6_AANII_01
#Location: 30.233357 lon 59.946436 lat
#TLE: 1 43010U 17072A   26027.90082829  .00000305  00000+0  16579-3 0  9998
#TLE: 2 43010  98.9960 359.9183 0002511  88.1058 272.0405 14.19701796425082

#Time	Az	El	Level	Level2	SNR	BER	BlckErr	Temp	State	Recorded	gain1	gain2
2026-01-29 02:49:39.34	16.80	7.06	-30.4	-34.5	5.1	7.99e-01	0	41	0	0	20	5826
2026-01-29 02:49:40.34	16.78	7.13	-30.8	-35.4	4.9	8.09e-01	0	41	104	0	21	6117
2026-01-29 02:49:41.35	16.77	7.21	-30.7	-34.9	7.8	6.73e-02	0	41	0	0	21	5878
2026-01-29 02:49:42.36	16.75	7.29	-30.8	-35.2	7.6	9.14e-02	0	41	0	5242880	21	5984
2026-01-29 02:49:43.37	16.73	7.37	-30.5	-34.3	8.2	6.17e-02	0	41	0	11534336	21	5598
2026-01-29 02:49:44.37	16.72	7.45	-30.3	-34.0	8.8	2.97e-02	0	41	0	16777216	20	5549
2026-01-29 02:49:45.38	16.70	7.53	-30.1	-33.7	9.1	1.60e-02	0	41	0	22020096	20	5397
2026-01-29 02:49:46.38	16.68	7.60	-30.2	-34.0	8.9	2.29e-02	0	41	0	28311552	20	5552
2026-01-29 02:49:47.38	16.67	7.68	-30.4	-34.1	8.5	4.02e-02	0	41	0	33554432	21	5474
2026-01-29 02:49:48.38	16.65	7.76	-30.2	-33.9	9.0	2.54e-02	0	41	0	38797312	20	5493
2026-01-29 02:49:49.39	16.63	7.84	-29.8	-32.8	9.7	1.16e-02	0	41	0	45088768	20	5058
2026-01-29 02:49:50.39	16.61	7.92	-29.5	-32.3	10.5	6.84e-03	0	41	0	50331648	19	4960
2026-01-29 02:49:51.40	16.60	8.00	-29.4	-32.4	10.8	1.50e-03	0	41	0	56623104	18	5133
2026-01-29 02:49:52.40	16.58	8.08	-29.4	-32.1	10.6	2.93e-03	0	41	0	61865984	19	4887
2026-01-29 02:49:53.41	16.56	8.16	-29.0	-31.4	11.4	9.25e-04	0	42	0	67108864	18	4776
2026-01-29 02:49:54.41	16.54	8.24	-28.6	-30.9	12.0	3.50e-04	0	41	0	73400320	17	4721
2026-01-29 02:49:55.42	16.53	8.32	-28.2	-30.5	12.6	8.58e-05	0	42	0	78643200	16	4688
2026-01-29 02:49:56.42	16.51	8.40	-28.0	-30.0	13.0	4.23e-05	0	42	0	84934656	16	4548
2026-01-29 02:49:57.43	16.49	8.48	-27.9	-29.7	13.1	9.10e-06	0	41	0	90177536	16	4458
2026-01-29 02:49:58.43	16.47	8.56	-27.8	-30.0	13.1	2.05e-05	0	42	0	95420416	15	4659
2026-01-29 02:49:59.43	16.45	8.65	-27.8	-30.2	13.0	2.86e-05	0	42	0	101711872	15	4704
2026-01-29 02:50:00.43	16.44	8.73	-27.8	-30.0	13.1	1.02e-05	0	42	0	106954752	15	4649
2026-01-29 02:50:01.44	16.42	8.81	-28.1	-30.3	12.8	4.34e-05	0	42	0	112197632	16	4612
2026-01-29 02:50:02.44	16.40	8.89	-27.9	-29.7	13.1	1.94e-05	0	42	0	118489088	16	4454
2026-01-29 02:50:03.45	16.38	8.98	-27.4	-29.1	13.6	1.02e-05	0	42	0	123731968	15	4398
2026-01-29 02:50:04.46	16.36	9.06	-27.2	-29.1	14.0	1.10e-06	0	42	0	130023424	14	4484
2026-01-29 02:50:05.46	16.34	9.14	-26.9	-28.4	14.4	0.00e+00	0	42	0	135266304	14	4303
2026-01-29 02:50:06.46	16.32	9.23	-26.7	-28.1	14.6	1.10e-06	0	42	0	140509184	14	4200
2026-01-29 02:50:07.46	16.30	9.31	-26.6	-28.4	14.7	1.10e-06	0	42	0	146800640	13	4397
2026-01-29 02:50:08.47	16.28	9.39	-26.6	-28.4	14.7	0.00e+00	0	42	0	152043520	13	4396
2026-01-29 02:50:09.48	16.26	9.48	-26.5	-28.1	14.8	0.00e+00	0	42	0	158334976	13	4335
2026-01-29 02:50:10.48	16.24	9.56	-26.6	-28.2	14.8	0.00e+00	0	42	0	163577856	13	4358
2026-01-29 02:50:11.49	16.22	9.65	-26.5	-28.2	14.8	0.00e+00	0	42	0	168820736	13	4338
2026-01-29 02:50:12.49	16.20	9.73	-26.4	-27.9	15.0	0.00e+00	0	42	0	175112192	13	4263
2026-01-29 02:50:13.50	16.18	9.82	-26.3	-28.2	15.1	0.00e+00	0	42	0	180355072	12	4447
2026-01-29 02:50:14.51	16.16	9.91	-26.4	-28.3	15.0	0.00e+00	0	42	0	186646528	12	4501
2026-01-29 02:50:15.51	16.14	9.99	-26.4	-27.9	15.0	0.00e+00	0	42	0	191889408	13	4249
2026-01-29 02:50:16.51	16.12	10.08	-26.3	-28.1	15.1	0.00e+00	0	42	0	197132288	12	4435
2026-01-29 02:50:17.51	16.10	10.17	-26.2	-27.8	15.3	0.00e+00	0	42	0	203423744	12	4357
2026-01-29 02:50:18.52	16.08	10.25	-26.1	-27.7	15.4	0.00e+00	0	42	0	208666624	12	4304
2026-01-29 02:50:19.52	16.06	10.34	-26.2	-27.8	15.3	0.00e+00	0	42	0	213909504	12	4347
2026-01-29 02:50:20.53	16.04	10.43	-26.2	-27.9	15.3	0.00e+00	0	42	0	220200960	12	4358
2026-01-29 02:50:21.53	16.02	10.52	-26.2	-27.8	15.3	0.00e+00	0	42	0	225443840	12	4340
2026-01-29 02:50:22.54	15.99	10.60	-26.1	-27.6	15.5	0.00e+00	0	42	0	231735296	12	4287
2026-01-29 02:50:23.54	15.97	10.69	-26.1	-27.6	15.5	0.00e+00	0	42	0	236978176	12	4296
2026-01-29 02:50:24.55	15.95	10.78	-26.1	-27.6	15.5	0.00e+00	0	42	0	243269632	12	4299
2026-01-29 02:50:25.55	15.93	10.87	-26.1	-27.6	15.5	0.00e+00	0	42	0	248512512	12	4299
2026-01-29 02:50:26.55	15.91	10.96	-26.0	-27.5	15.5	0.00e+00	0	42	0	253755392	12	4259
2026-01-29 02:50:27.56	15.88	11.05	-25.3	-26.7	15.4	0.00e+00	0	42	0	260046848	12	4187
2026-01-29 02:50:28.56	15.86	11.14	-26.1	-27.7	12.9	0.00e+00	0	42	0	265289728	12	4309
2026-01-29 02:50:29.56	15.84	11.23	-26.1	-27.7	15.4	0.00e+00	0	42	0	270532608	12	4308
2026-01-29 02:50:30.57	15.82	11.32	-26.2	-27.8	15.1	0.00e+00	0	42	0	276824064	12	4340
2026-01-29 02:50:31.57	15.79	11.41	-26.2	-27.8	15.4	0.00e+00	0	42	0	282066944	12	4331
2026-01-29 02:50:32.57	15.77	11.50	-26.0	-27.5	15.6	0.00e+00	0	42	0	287309824	12	4251
2026-01-29 02:50:33.58	15.75	11.60	-26.0	-27.3	15.7	3.28e-04	0	42	0	293601280	12	4212
2026-01-29 02:50:34.58	15.72	11.69	-26.0	-27.3	15.7	0.00e+00	0	43	0	298844160	12	4210
2026-01-29 02:50:35.59	15.70	11.78	-26.0	-27.4	15.7	3.26e-04	0	42	0	305135616	12	4233
2026-01-29 02:50:36.59	15.68	11.87	-26.0	-27.4	15.7	0.00e+00	0	42	0	310378496	12	4239
2026-01-29 02:50:37.59	15.65	11.97	-26.0	-27.5	15.6	1.25e-03	0	43	0	315621376	12	4264
2026-01-29 02:50:38.59	15.63	12.06	-26.0	-27.4	15.6	3.26e-04	0	43	0	321912832	12	4234
2026-01-29 02:50:39.60	15.60	12.16	-26.2	-27.8	15.4	1.57e-03	0	43	0	327155712	12	4341
2026-01-29 02:50:40.60	15.58	12.25	-26.2	-27.8	15.5	1.06e-04	0	43	0	333447168	12	4339
2026-01-29 02:50:41.60	15.55	12.34	-26.0	-27.4	15.7	0.00e+00	0	43	0	338690048	12	4243
2026-01-29 02:50:42.61	15.53	12.44	-26.0	-27.4	15.7	1.54e-03	0	42	0	343932928	12	4237
2026-01-29 02:50:43.61	15.50	12.53	-26.1	-27.7	15.5	0.00e+00	0	43	0	350224384	12	4324
2026-01-29 02:50:44.62	15.48	12.63	-26.2	-27.7	15.5	3.71e-04	0	43	0	355467264	12	4323
2026-01-29 02:50:45.63	15.45	12.73	-26.1	-27.5	15.6	4.10e-04	0	42	0	360710144	12	4269
2026-01-29 02:50:46.63	15.43	12.82	-26.0	-27.4	15.7	1.30e-03	0	43	0	367001600	12	4245
2026-01-29 02:50:47.63	15.40	12.92	-26.0	-27.5	15.7	4.98e-04	0	43	0	372244480	12	4258
2026-01-29 02:50:48.63	15.38	13.02	-26.0	-27.4	15.8	0.00e+00	0	42	0	378535936	12	4225
2026-01-29 02:50:49.64	15.35	13.12	-26.1	-27.7	15.6	1.20e-03	0	43	0	383778816	12	4326
2026-01-29 02:50:50.64	15.32	13.21	-26.2	-27.8	15.6	4.95e-04	0	43	0	389021696	12	4327
2026-01-29 02:50:51.65	15.30	13.31	-26.1	-27.5	15.7	1.79e-03	0	43	0	395313152	12	4271
2026-01-29 02:50:52.65	15.27	13.41	-26.3	-28.0	15.4	1.36e-03	0	43	0	400556032	12	4391
2026-01-29 02:50:53.65	15.24	13.51	-26.1	-27.7	15.6	5.72e-04	0	43	0	406847488	12	4304
2026-01-29 02:50:54.66	15.21	13.61	-26.1	-27.6	15.7	1.77e-03	0	43	0	412090368	12	4271
2026-01-29 02:50:55.66	15.19	13.71	-26.1	-27.7	15.7	1.31e-03	0	43	0	417333248	12	4300
2026-01-29 02:50:56.67	15.16	13.81	-26.1	-27.6	15.7	4.16e-04	0	43	0	423624704	12	4279
2026-01-29 02:50:57.67	15.13	13.91	-26.0	-27.4	15.8	0.00e+00	0	43	0	428867584	12	4244
2026-01-29 02:50:58.68	15.10	14.01	-26.0	-27.4	15.8	1.22e-03	0	43	0	434110464	12	4219
2026-01-29 02:50:59.68	15.07	14.12	-25.9	-27.2	15.9	4.19e-04	0	43	0	440401920	12	4189
2026-01-29 02:51:00.69	15.05	14.22	-26.0	-27.9	15.9	1.16e-03	0	43	0	445644800	11	4479
2026-01-29 02:51:01.70	15.02	14.32	-26.0	-27.4	15.8	1.32e-03	0	43	0	451936256	12	4217
2026-01-29 02:51:02.70	14.99	14.42	-25.9	-27.2	15.9	8.00e-06	0	43	0	457179136	12	4187
2026-01-29 02:51:03.70	14.96	14.53	-25.9	-27.6	16.1	1.65e-03	0	43	0	463470592	11	4390
2026-01-29 02:51:04.71	14.93	14.63	-25.8	-27.5	16.1	0.00e+00	0	43	0	468713472	11	4362
2026-01-29 02:51:05.71	14.90	14.74	-25.8	-27.4	16.1	2.32e-04	0	43	0	473956352	11	4349
2026-01-29 02:51:06.71	14.87	14.84	-25.8	-27.4	16.2	0.00e+00	0	43	0	480247808	11	4331
2026-01-29 02:51:07.71	14.84	14.94	-25.7	-27.3	16.2	1.16e-03	0	43	0	485490688	11	4321
2026-01-29 02:51:08.71	14.81	15.05	-25.9	-27.7	16.0	3.68e-04	0	43	0	490733568	11	4421
2026-01-29 02:51:09.72	14.78	15.16	-25.8	-27.5	16.2	0.00e+00	0	43	0	497025024	11	4366
2026-01-29 02:51:10.72	14.75	15.26	-25.6	-27.0	16.4	1.20e-03	0	43	0	502267904	11	4222
2026-01-29 02:51:11.72	14.72	15.37	-25.4	-26.6	16.7	0.00e+00	0	43	0	507510784	11	4124
2026-01-29 02:51:12.72	14.68	15.48	-25.5	-26.8	16.5	1.21e-03	0	43	0	513802240	11	4172
2026-01-29 02:51:13.73	14.65	15.59	-25.4	-26.5	16.7	0.00e+00	0	43	0	519045120	11	4103
2026-01-29 02:51:14.73	14.62	15.69	-25.4	-27.0	16.7	0.00e+00	0	43	0	525336576	10	4351
2026-01-29 02:51:15.73	14.59	15.80	-25.3	-26.9	16.8	0.00e+00	0	43	0	530579456	10	4316
2026-01-29 02:51:16.74	14.56	15.91	-25.2	-26.6	16.9	0.00e+00	0	43	0	535822336	10	4232
2026-01-29 02:51:17.74	14.52	16.02	-25.1	-26.4	17.0	0.00e+00	0	43	0	542113792	10	4190
2026-01-29 02:51:18.74	14.49	16.13	-25.1	-26.5	17.0	0.00e+00	0	43	0	547356672	10	4212
2026-01-29 02:51:19.74	14.46	16.24	-25.1	-26.4	17.0	1.21e-03	0	43	0	552599552	10	4195
2026-01-29 02:51:20.74	14.42	16.35	-25.1	-26.3	17.1	0.00e+00	0	43	0	558891008	10	4161
2026-01-29 02:51:21.75	14.39	16.46	-25.2	-26.7	16.9	0.00e+00	0	43	0	564133888	10	4250
2026-01-29 02:51:22.76	14.35	16.58	-25.0	-26.2	17.2	0.00e+00	0	43	0	570425344	10	4117
2026-01-29 02:51:23.76	14.32	16.69	-24.9	-26.0	17.3	0.00e+00	0	43	0	575668224	10	4066
2026-01-29 02:51:24.76	14.28	16.80	-25.0	-26.1	17.2	0.00e+00	0	43	0	580911104	10	4110
2026-01-29 02:51:25.77	14.25	16.92	-24.9	-26.0	17.3	0.00e+00	0	43	0	587202560	10	4089
2026-01-29 02:51:26.77	14.21	17.03	-24.8	-26.2	17.4	0.00e+00	0	43	0	592445440	9	4253
2026-01-29 02:51:27.77	14.18	17.15	-24.8	-26.2	17.4	0.00e+00	0	43	0	598736896	9	4247
2026-01-29 02:51:28.78	14.14	17.26	-24.7	-26.1	17.5	0.00e+00	0	43	0	603979776	9	4213
2026-01-29 02:51:29.78	14.11	17.38	-24.7	-26.1	17.5	0.00e+00	0	43	0	609222656	9	4212
2026-01-29 02:51:30.78	14.07	17.49	-24.8	-26.2	17.4	0.00e+00	0	43	0	615514112	9	4244
2026-01-29 02:51:31.79	14.03	17.61	-24.6	-25.9	17.6	0.00e+00	0	43	0	620756992	9	4167
2026-01-29 02:51:32.79	14.00	17.73	-24.5	-25.7	17.7	0.00e+00	0	43	0	625999872	9	4112
2026-01-29 02:51:33.80	13.96	17.85	-24.5	-25.5	17.8	0.00e+00	0	43	0	632291328	9	4070
2026-01-29 02:51:34.80	13.92	17.97	-24.5	-25.5	17.8	0.00e+00	0	43	0	637534208	9	4076
2026-01-29 02:51:35.80	13.88	18.08	-24.4	-25.4	17.9	0.00e+00	0	43	0	643825664	9	4037
2026-01-29 02:51:36.80	13.84	18.20	-24.3	-25.3	18.0	0.00e+00	0	43	0	649068544	9	4002
2026-01-29 02:51:37.81	13.80	18.33	-24.4	-25.5	17.8	0.00e+00	0	43	0	654311424	9	4060
2026-01-29 02:51:38.81	13.76	18.45	-24.3	-25.7	18.0	0.00e+00	0	43	0	660602880	8	4219
2026-01-29 02:51:39.81	13.73	18.57	-24.3	-25.8	18.0	0.00e+00	0	43	0	665845760	8	4248
2026-01-29 02:51:40.81	13.69	18.69	-24.2	-25.5	18.1	0.00e+00	0	43	0	672137216	8	4170
2026-01-29 02:51:41.81	13.65	18.81	-24.2	-25.4	18.2	0.00e+00	0	43	0	677380096	8	4140
2026-01-29 02:51:42.81	13.61	18.93	-24.2	-25.5	18.1	0.00e+00	0	43	0	682622976	8	4176
2026-01-29 02:51:43.81	13.56	19.06	-24.2	-25.4	18.2	0.00e+00	0	43	0	688914432	8	4150
2026-01-29 02:51:44.81	13.52	19.18	-24.1	-25.2	18.3	0.00e+00	0	43	0	694157312	8	4104
2026-01-29 02:51:45.81	13.48	19.31	-24.1	-25.3	18.2	0.00e+00	0	43	0	699400192	8	4133
2026-01-29 02:51:46.82	13.44	19.43	-24.3	-25.7	18.0	0.00e+00	0	43	0	705691648	8	4218
2026-01-29 02:51:47.82	13.40	19.56	-24.3	-25.6	18.1	0.00e+00	0	43	0	710934528	8	4203
2026-01-29 02:51:48.82	13.35	19.69	-24.2	-25.4	18.2	0.00e+00	0	43	0	716177408	8	4159
2026-01-29 02:51:49.83	13.31	19.81	-24.2	-25.4	18.2	0.00e+00	0	43	0	722468864	8	4160
2026-01-29 02:51:50.83	13.27	19.94	-24.2	-25.5	18.1	0.00e+00	0	43	0	727711744	8	4176
2026-01-29 02:51:51.84	13.22	20.07	-24.3	-25.6	18.1	0.00e+00	0	43	0	734003200	8	4207
2026-01-29 02:51:52.84	13.18	20.20	-24.3	-25.6	18.1	0.00e+00	0	43	0	739246080	8	4192
2026-01-29 02:51:53.84	13.13	20.33	-24.3	-25.7	18.0	0.00e+00	0	43	0	744488960	8	4214
2026-01-29 02:51:54.84	13.09	20.46	-24.3	-25.7	18.1	0.00e+00	0	43	0	750780416	8	4218
2026-01-29 02:51:55.85	13.04	20.59	-24.3	-25.8	17.9	0.00e+00	0	43	0	756023296	8	4246
2026-01-29 02:51:56.85	13.00	20.73	-24.4	-25.8	15.7	0.00e+00	0	43	0	762314752	8	4257
2026-01-29 02:51:57.85	12.95	20.86	-24.4	-25.9	18.0	0.00e+00	0	43	0	767557632	8	4278
2026-01-29 02:51:58.85	12.90	20.99	-24.4	-25.8	18.0	0.00e+00	0	43	0	772800512	8	4262
2026-01-29 02:51:59.85	12.86	21.12	-24.4	-25.9	18.0	0.00e+00	0	43	0	779091968	8	4276
2026-01-29 02:52:00.85	12.81	21.26	-24.4	-25.9	18.0	0.00e+00	0	43	0	784334848	8	4274
2026-01-29 02:52:01.86	12.76	21.40	-24.4	-25.8	18.0	0.00e+00	0	43	0	789577728	8	4253
2026-01-29 02:52:02.86	12.71	21.53	-24.4	-25.9	18.0	0.00e+00	0	43	0	795869184	8	4273
2026-01-29 02:52:03.86	12.66	21.67	-24.3	-25.6	18.1	0.00e+00	0	43	0	801112064	8	4195
2026-01-29 02:52:04.87	12.61	21.81	-24.2	-25.4	18.3	0.00e+00	0	43	0	807403520	8	4138
2026-01-29 02:52:05.86	12.56	21.94	-24.2	-25.5	18.2	3.43e-04	0	43	0	812646400	8	4174
2026-01-29 02:52:06.87	12.51	22.08	-24.0	-25.1	18.4	0.00e+00	0	43	0	817889280	8	4066
2026-01-29 02:52:07.87	12.46	22.22	-23.9	-24.8	18.6	3.20e-04	0	43	0	824180736	8	4006
2026-01-29 02:52:08.88	12.41	22.37	-23.8	-24.7	18.6	0.00e+00	0	43	0	829423616	8	3981
2026-01-29 02:52:09.88	12.36	22.51	-24.0	-25.0	18.5	0.00e+00	0	43	0	834666496	8	4045
2026-01-29 02:52:10.89	12.30	22.65	-23.7	-24.9	18.7	2.72e-04	0	43	0	840957952	7	4143
2026-01-29 02:52:11.90	12.25	22.79	-23.8	-25.1	18.7	0.00e+00	0	43	0	846200832	7	4187
2026-01-29 02:52:12.90	12.19	22.94	-23.7	-24.9	18.8	0.00e+00	0	43	0	852492288	7	4124
2026-01-29 02:52:13.90	12.14	23.08	-23.6	-24.6	18.9	0.00e+00	0	43	0	857735168	7	4073
2026-01-29 02:52:14.90	12.09	23.23	-23.6	-24.7	18.9	2.02e-04	0	43	0	862978048	7	4087
2026-01-29 02:52:15.90	12.03	23.37	-23.7	-24.9	18.8	0.00e+00	0	43	0	869269504	7	4134
2026-01-29 02:52:16.91	11.97	23.52	-23.5	-24.6	18.9	2.06e-04	0	43	0	874512384	7	4059
2026-01-29 02:52:17.91	11.92	23.67	-23.5	-24.4	19.0	2.39e-04	0	43	0	880803840	7	4007
2026-01-29 02:52:18.92	11.86	23.82	-23.5	-24.5	19.0	0.00e+00	0	43	0	886046720	7	4025
2026-01-29 02:52:19.92	11.80	23.97	-23.4	-24.3	19.1	2.63e-04	0	43	0	891289600	7	3977
2026-01-29 02:52:20.92	11.74	24.12	-23.4	-24.3	19.1	0.00e+00	0	43	0	897581056	7	3989
2026-01-29 02:52:21.92	11.69	24.27	-23.6	-24.6	18.9	6.32e-04	0	43	0	902823936	7	4069
2026-01-29 02:52:22.92	11.63	24.42	-23.4	-24.3	19.1	2.93e-04	0	43	0	908066816	7	3979
2026-01-29 02:52:23.92	11.57	24.57	-23.3	-24.6	19.2	8.49e-04	0	43	0	914358272	6	4170
2026-01-29 02:52:24.93	11.51	24.72	-23.4	-24.7	19.1	0.00e+00	0	43	0	919601152	6	4194
2026-01-29 02:52:25.94	11.44	24.88	-23.4	-24.7	19.1	2.91e-04	0	43	0	925892608	6	4200
2026-01-29 02:52:26.94	11.38	25.04	-23.4	-24.8	19.1	3.75e-04	0	43	0	931135488	6	4211
2026-01-29 02:52:27.95	11.32	25.19	-23.5	-25.0	19.0	6.87e-04	0	43	0	937426944	6	4260
2026-01-29 02:52:28.95	11.26	25.35	-23.4	-24.2	19.2	1.89e-04	0	43	0	942669824	7	3954
2026-01-29 02:52:29.95	11.19	25.51	-23.3	-24.0	19.2	1.98e-04	0	43	0	947912704	7	3926
2026-01-29 02:52:30.95	11.13	25.67	-23.3	-24.1	19.2	5.60e-04	0	43	0	954204160	7	3934
2026-01-29 02:52:31.96	11.06	25.83	-23.2	-24.3	19.4	1.75e-04	0	43	0	959447040	6	4097
2026-01-29 02:52:32.96	11.00	25.99	-23.3	-24.5	19.3	5.02e-04	0	43	0	964689920	6	4142
2026-01-29 02:52:33.97	10.93	26.15	-23.5	-24.5	19.0	4.87e-04	0	43	0	970981376	7	4041
2026-01-29 02:52:34.96	10.86	26.31	-23.2	-23.8	19.4	0.00e+00	0	43	0	976224256	7	3874
2026-01-29 02:52:35.97	10.79	26.48	-23.0	-23.9	19.6	5.88e-04	0	43	0	981467136	6	3986
2026-01-29 02:52:36.97	10.72	26.64	-22.9	-23.8	19.6	0.00e+00	0	43	0	987758592	6	3968
2026-01-29 02:52:37.98	10.65	26.81	-23.1	-24.0	19.5	2.56e-04	0	43	0	993001472	6	4034
2026-01-29 02:52:38.99	10.58	26.97	-23.1	-24.1	19.5	9.25e-04	0	43	0	999292928	6	4053
2026-01-29 02:52:40.00	10.51	27.14	-23.3	-24.5	19.3	6.51e-04	0	43	0	1004535808	6	4154
2026-01-29 02:52:41.00	10.44	27.31	-23.2	-24.3	19.4	2.95e-04	0	43	0	1010827264	6	4108
2026-01-29 02:52:42.00	10.37	27.48	-23.4	-24.7	19.2	6.05e-04	0	43	0	1016070144	6	4205
2026-01-29 02:52:43.00	10.29	27.65	-23.3	-24.6	19.2	6.34e-04	0	43	0	1021313024	6	4171
2026-01-29 02:52:44.00	10.22	27.82	-23.3	-24.5	19.3	0.00e+00	0	43	0	1027604480	6	4152
2026-01-29 02:52:45.00	10.14	27.99	-23.4	-24.7	19.2	4.37e-04	0	43	0	1032847360	6	4196
2026-01-29 02:52:46.01	10.07	28.17	-23.4	-24.7	19.2	0.00e+00	0	43	0	1038090240	6	4199
2026-01-29 02:52:47.01	9.99	28.34	-23.3	-24.5	19.3	0.00e+00	0	43	0	1044381696	6	4136
2026-01-29 02:52:48.01	9.91	28.52	-23.3	-24.5	19.3	5.19e-04	0	43	0	1049624576	6	4138
2026-01-29 02:52:49.01	9.83	28.69	-23.3	-24.7	19.2	3.25e-04	0	43	0	1054867456	6	4186
2026-01-29 02:52:50.02	9.75	28.87	-23.2	-24.3	19.4	0.00e+00	0	43	0	1061158912	6	4091
2026-01-29 02:52:51.02	9.67	29.05	-23.2	-24.3	19.4	0.00e+00	0	44	0	1066401792	6	4085
2026-01-29 02:52:52.02	9.59	29.23	-23.3	-24.6	19.3	3.65e-04	0	43	0	1072693248	6	4168
2026-01-29 02:52:53.03	9.51	29.41	-23.2	-24.3	19.4	0.00e+00	0	43	0	1077936128	6	4100
2026-01-29 02:52:54.03	9.42	29.59	-23.3	-24.5	19.3	3.84e-04	0	43	0	1083179008	6	4148
2026-01-29 02:52:55.03	9.34	29.77	-23.3	-24.6	19.2	3.84e-04	0	43	0	1089470464	6	4181
2026-01-29 02:52:56.04	9.25	29.96	-23.3	-24.7	19.2	0.00e+00	0	43	0	1094713344	6	4191
2026-01-29 02:52:57.05	9.17	30.15	-23.4	-24.7	19.2	4.34e-04	0	43	0	1101004800	6	4204
2026-01-29 02:52:58.05	9.08	30.33	-23.5	-24.9	19.1	0.00e+00	0	43	0	1106247680	6	4263
2026-01-29 02:52:59.06	8.99	30.52	-23.3	-24.6	19.3	0.00e+00	0	43	0	1111490560	6	4177
2026-01-29 02:53:00.05	8.90	30.71	-23.4	-24.9	19.1	0.00e+00	0	43	0	1117782016	6	4238
2026-01-29 02:53:01.05	8.81	30.90	-23.7	-24.8	18.9	0.00e+00	0	43	0	1123024896	7	4121
2026-01-29 02:53:02.06	8.72	31.09	-24.1	-25.2	18.5	0.00e+00	0	43	0	1128267776	8	4104
2026-01-29 02:53:03.06	8.62	31.28	-23.6	-24.2	19.0	0.00e+00	0	43	0	1134559232	8	3860
2026-01-29 02:53:04.06	8.53	31.48	-23.2	-24.0	19.3	0.00e+00	0	43	0	1139802112	7	3905
2026-01-29 02:53:05.06	8.43	31.67	-23.1	-23.6	19.5	0.00e+00	0	43	0	1146093568	7	3824
2026-01-29 02:53:06.06	8.34	31.86	-23.0	-23.9	19.6	4.07e-04	0	43	0	1151336448	6	3995
2026-01-29 02:53:07.07	8.24	32.06	-23.0	-23.9	19.6	0.00e+00	0	43	0	1156579328	6	4008
2026-01-29 02:53:08.07	8.14	32.26	-23.0	-23.9	19.6	0.00e+00	0	43	0	1162870784	6	3999
2026-01-29 02:53:09.07	8.04	32.46	-23.1	-24.1	19.5	0.00e+00	0	43	0	1168113664	6	4046
2026-01-29 02:53:10.08	7.94	32.66	-22.8	-23.5	19.8	0.00e+00	0	43	0	1173356544	6	3900
2026-01-29 02:53:11.09	7.83	32.87	-22.6	-23.2	20.0	0.00e+00	0	43	0	1179648000	6	3833
2026-01-29 02:53:12.08	7.73	33.07	-22.7	-23.3	19.9	0.00e+00	0	43	0	1184890880	6	3869
2026-01-29 02:53:13.09	7.62	33.27	-22.7	-23.3	20.0	0.00e+00	0	43	0	1190133760	6	3849
2026-01-29 02:53:14.09	7.52	33.48	-22.9	-23.8	19.7	0.00e+00	0	43	0	1196425216	6	3967
2026-01-29 02:53:15.10	7.41	33.69	-22.8	-23.5	19.8	0.00e+00	0	43	0	1201668096	6	3906
2026-01-29 02:53:16.10	7.30	33.89	-22.8	-23.5	19.8	0.00e+00	0	43	0	1207959552	6	3908
2026-01-29 02:53:17.11	7.18	34.11	-22.8	-23.5	19.8	0.00e+00	0	43	0	1213202432	6	3909
2026-01-29 02:53:18.11	7.07	34.32	-22.8	-23.5	19.8	0.00e+00	0	43	0	1219493888	6	3911
2026-01-29 02:53:19.11	6.96	34.53	-22.9	-23.8	19.7	0.00e+00	0	43	0	1224736768	6	3969
2026-01-29 02:53:20.11	6.84	34.74	-22.8	-23.5	19.8	0.00e+00	0	43	0	1229979648	6	3913
2026-01-29 02:53:21.11	6.72	34.95	-22.8	-24.1	19.8	0.00e+00	0	43	0	1236271104	5	4161
2026-01-29 02:53:22.12	6.60	35.17	-22.6	-23.6	20.0	0.00e+00	0	43	0	1241513984	5	4051
2026-01-29 02:53:23.12	6.48	35.39	-22.5	-23.5	20.1	0.00e+00	0	43	0	1246756864	5	4013
2026-01-29 02:53:24.12	6.36	35.61	-22.5	-23.5	20.1	0.00e+00	0	44	0	1253048320	5	4014
2026-01-29 02:53:25.12	6.24	35.83	-22.3	-23.0	20.4	0.00e+00	0	43	0	1258291200	5	3887
2026-01-29 02:53:26.13	6.11	36.05	-22.2	-22.8	20.5	0.00e+00	0	43	0	1263534080	5	3845
2026-01-29 02:53:27.13	5.98	36.27	-22.3	-23.5	20.4	0.00e+00	0	43	0	1269825536	4	4116
2026-01-29 02:53:28.13	5.85	36.50	-22.2	-23.3	20.4	0.00e+00	0	43	0	1275068416	4	4090
2026-01-29 02:53:29.14	5.72	36.72	-22.4	-23.6	20.3	0.00e+00	0	43	0	1281359872	4	4155
2026-01-29 02:53:30.14	5.59	36.95	-22.4	-23.6	20.3	0.00e+00	0	43	0	1286602752	4	4163
2026-01-29 02:53:31.15	5.45	37.18	-22.5	-23.9	20.2	0.00e+00	0	43	0	1292894208	4	4233
2026-01-29 02:53:32.16	5.31	37.41	-22.6	-23.5	20.1	0.00e+00	0	43	0	1298137088	5	4028
2026-01-29 02:53:33.16	5.17	37.64	-22.6	-23.6	20.0	0.00e+00	0	43	0	1303379968	5	4050
2026-01-29 02:53:34.16	5.03	37.88	-22.5	-23.3	20.2	0.00e+00	0	43	0	1309671424	5	3978
2026-01-29 02:53:35.17	4.89	38.11	-22.4	-23.3	20.2	0.00e+00	0	43	0	1314914304	5	3963
2026-01-29 02:53:36.16	4.74	38.35	-22.5	-23.4	20.2	0.00e+00	0	43	0	1320157184	5	3989
2026-01-29 02:53:37.17	4.59	38.58	-22.3	-22.9	18.7	0.00e+00	0	43	0	1326448640	5	3879
2026-01-29 02:53:38.17	4.44	38.82	-22.2	-22.8	20.4	0.00e+00	0	43	0	1331691520	5	3848
2026-01-29 02:53:39.18	4.29	39.06	-22.4	-23.2	20.3	0.00e+00	0	43	0	1336934400	5	3946
2026-01-29 02:53:40.18	4.13	39.30	-22.6	-23.6	20.1	0.00e+00	0	43	0	1343225856	5	4033
2026-01-29 02:53:41.18	3.98	39.55	-22.8	-24.1	19.8	0.00e+00	0	43	0	1348468736	5	4162
2026-01-29 02:53:42.19	3.82	39.79	-22.9	-24.2	19.8	0.00e+00	0	43	0	1354760192	5	4185
2026-01-29 02:53:43.19	3.66	40.04	-23.0	-24.0	19.7	0.00e+00	0	44	0	1360003072	6	4018
2026-01-29 02:53:44.20	3.49	40.29	-22.9	-23.6	19.8	0.00e+00	0	43	0	1366294528	6	3938
2026-01-29 02:53:45.20	3.32	40.54	-22.9	-23.7	19.8	0.00e+00	0	43	0	1371537408	6	3944
2026-01-29 02:53:46.20	3.15	40.79	-23.1	-24.1	19.6	0.00e+00	0	43	0	1376780288	6	4039
2026-01-29 02:53:47.20	2.98	41.04	-23.3	-24.5	19.4	0.00e+00	0	43	0	1383071744	6	4141
2026-01-29 02:53:48.21	2.80	41.29	-23.3	-24.5	19.4	0.00e+00	0	43	0	1388314624	6	4159
2026-01-29 02:53:49.21	2.63	41.55	-23.2	-24.4	19.5	0.00e+00	0	43	0	1393557504	6	4112
2026-01-29 02:53:50.22	2.44	41.80	-23.3	-24.4	19.5	0.00e+00	0	43	0	1399848960	6	4129
2026-01-29 02:53:51.22	2.26	42.06	-23.4	-24.8	19.3	0.00e+00	0	43	0	1405091840	6	4212
2026-01-29 02:53:52.22	2.07	42.32	-23.3	-24.4	19.5	0.00e+00	0	43	0	1410334720	6	4130
2026-01-29 02:53:53.22	1.88	42.58	-23.2	-24.3	19.5	0.00e+00	0	43	0	1416626176	6	4107
2026-01-29 02:53:54.23	1.69	42.84	-23.2	-24.4	19.4	0.00e+00	0	43	0	1421869056	6	4128
2026-01-29 02:53:55.24	1.49	43.11	-23.2	-24.4	19.5	0.00e+00	0	43	0	1428160512	6	4117
2026-01-29 02:53:56.24	1.29	43.37	-23.2	-24.4	14.8	0.00e+00	0	43	0	1433403392	6	4110
2026-01-29 02:53:57.24	1.09	43.64	-22.9	-23.6	16.6	0.00e+00	0	43	0	1438646272	6	3928
2026-01-29 02:53:58.25	0.88	43.91	-22.7	-23.2	20.1	0.00e+00	0	43	0	1444937728	6	3840
2026-01-29 02:53:59.25	0.67	44.18	-22.7	-23.3	20.0	0.00e+00	0	43	0	1450180608	6	3858
2026-01-29 02:54:00.25	0.46	44.45	-22.8	-23.5	20.0	0.00e+00	0	43	0	1456472064	6	3896
2026-01-29 02:54:01.26	0.24	44.72	-23.1	-24.1	19.7	2.20e-06	0	43	0	1461714944	6	4042
2026-01-29 02:54:02.26	0.02	44.99	-23.2	-24.4	19.5	8.00e-06	0	43	0	1466957824	6	4117
2026-01-29 02:54:03.27	359.79	45.27	-23.3	-24.5	19.5	7.45e-04	0	43	0	1473249280	6	4142
2026-01-29 02:54:04.27	359.56	45.55	-23.3	-24.5	19.4	8.00e-06	0	43	0	1478492160	6	4140
2026-01-29 02:54:05.27	359.33	45.82	-23.3	-24.4	19.5	6.66e-04	0	43	0	1483735040	6	4124
2026-01-29 02:54:06.27	359.09	46.10	-23.3	-24.6	19.4	0.00e+00	0	43	0	1490026496	6	4158
2026-01-29 02:54:07.27	358.85	46.38	-23.3	-24.6	19.4	3.40e-06	0	43	0	1495269376	6	4167
2026-01-29 02:54:08.28	358.60	46.67	-23.2	-24.2	19.6	5.74e-04	0	43	0	1501560832	6	4079
2026-01-29 02:54:09.29	358.35	46.95	-23.3	-24.5	19.5	0.00e+00	0	43	0	1506803712	6	4134
2026-01-29 02:54:10.29	358.09	47.23	-23.0	-23.8	19.8	3.40e-06	0	43	0	1512046592	6	3978
2026-01-29 02:54:11.29	357.83	47.52	-22.8	-23.5	20.0	0.00e+00	0	43	0	1518338048	6	3911
2026-01-29 02:54:12.30	357.56	47.81	-23.1	-24.1	19.7	6.29e-04	0	44	0	1523580928	6	4036
2026-01-29 02:54:13.29	357.30	48.09	-23.4	-24.7	19.4	0.00e+00	0	43	0	1528823808	6	4189
2026-01-29 02:54:14.29	357.02	48.38	-23.5	-24.9	19.3	5.03e-04	0	43	0	1535115264	6	4249
2026-01-29 02:54:15.30	356.74	48.67	-24.0	-25.5	18.8	4.46e-04	0	43	0	1540358144	7	4272
2026-01-29 02:54:16.30	356.45	48.97	-24.3	-25.7	18.4	0.00e+00	0	44	0	1546649600	8	4213
2026-01-29 02:54:17.31	356.16	49.26	-23.9	-24.8	18.9	3.75e-04	0	43	0	1551892480	8	3999
2026-01-29 02:54:18.31	355.86	49.55	-23.8	-24.5	19.0	0.00e+00	0	43	0	1557135360	8	3934
2026-01-29 02:54:19.32	355.55	49.85	-23.8	-24.6	19.0	0.00e+00	0	43	0	1563426816	8	3943
2026-01-29 02:54:20.32	355.25	50.15	-24.0	-24.9	18.8	3.49e-04	0	43	0	1568669696	8	4024
2026-01-29 02:54:21.33	354.93	50.45	-23.9	-24.8	18.9	3.28e-04	0	43	0	1574961152	8	3998
2026-01-29 02:54:22.33	354.61	50.74	-23.9	-24.7	19.0	0.00e+00	0	43	0	1580204032	8	3968
2026-01-29 02:54:23.34	354.27	51.04	-24.2	-25.5	18.5	3.26e-04	0	43	0	1585446912	8	4166
2026-01-29 02:54:24.34	353.94	51.34	-24.4	-26.0	18.3	3.25e-04	0	44	0	1591738368	8	4287
2026-01-29 02:54:25.34	353.60	51.64	-24.6	-25.8	18.1	0.00e+00	0	43	0	1596981248	9	4121
2026-01-29 02:54:26.35	353.25	51.95	-24.1	-24.8	18.7	4.52e-04	0	43	0	1603272704	9	3876
2026-01-29 02:54:27.35	352.89	52.25	-23.9	-24.7	18.9	3.95e-04	0	44	0	1608515584	8	3973
2026-01-29 02:54:28.36	352.52	52.55	-23.6	-24.2	19.2	0.00e+00	0	43	0	1613758464	8	3849
2026-01-29 02:54:29.36	352.15	52.86	-23.6	-24.6	19.2	4.21e-04	0	43	0	1620049920	7	4057
2026-01-29 02:54:30.37	351.77	53.16	-23.8	-25.0	19.0	0.00e+00	0	43	0	1625292800	7	4155
2026-01-29 02:54:31.37	351.38	53.47	-23.6	-24.8	19.2	0.00e+00	0	43	0	1630535680	7	4090
2026-01-29 02:54:32.37	350.99	53.77	-23.5	-24.6	19.2	0.00e+00	0	43	0	1636827136	7	4044
2026-01-29 02:54:33.37	350.58	54.08	-23.5	-24.5	19.3	6.27e-04	0	43	0	1642070016	7	4024
2026-01-29 02:54:34.37	350.17	54.38	-23.5	-24.4	19.3	0.00e+00	0	43	0	1648361472	7	4013
2026-01-29 02:54:35.38	349.74	54.69	-23.6	-24.6	19.2	6.35e-04	0	43	0	1653604352	7	4050
2026-01-29 02:54:36.38	349.31	55.00	-23.7	-24.8	19.1	6.36e-04	0	44	0	1658847232	7	4115
2026-01-29 02:54:37.38	348.87	55.30	-23.8	-25.0	19.0	0.00e+00	0	43	0	1665138688	7	4160
2026-01-29 02:54:38.39	348.42	55.61	-24.0	-25.4	18.8	3.07e-04	0	43	0	1670381568	7	4269
2026-01-29 02:54:39.39	347.96	55.92	-23.6	-24.6	19.2	0.00e+00	0	44	0	1675624448	7	4064
2026-01-29 02:54:40.39	347.49	56.22	-23.5	-24.5	19.3	0.00e+00	0	44	0	1681915904	7	4034
2026-01-29 02:54:41.40	347.00	56.53	-23.6	-24.7	19.2	0.00e+00	0	44	0	1687158784	7	4066
2026-01-29 02:54:42.40	346.51	56.84	-23.8	-25.1	19.0	0.00e+00	0	43	0	1693450240	7	4195
2026-01-29 02:54:43.40	346.01	57.14	-24.0	-25.1	18.7	0.00e+00	0	43	0	1698693120	8	4068
2026-01-29 02:54:44.40	345.49	57.45	-23.7	-24.3	19.2	0.00e+00	0	43	0	1703936000	8	3872
2026-01-29 02:54:45.40	344.96	57.75	-23.2	-23.8	19.6	4.66e-04	0	44	0	1710227456	7	3867
2026-01-29 02:54:46.40	344.43	58.05	-23.3	-24.0	19.5	0.00e+00	0	44	0	1715470336	7	3921
2026-01-29 02:54:47.41	343.87	58.36	-23.4	-24.2	19.4	0.00e+00	0	43	0	1721761792	7	3961
2026-01-29 02:54:48.41	343.31	58.66	-23.5	-24.4	19.3	0.00e+00	0	43	0	1727004672	7	4019
2026-01-29 02:54:49.41	342.73	58.96	-23.5	-24.6	19.3	0.00e+00	0	43	0	1732247552	7	4046
2026-01-29 02:54:50.42	342.13	59.26	-23.4	-24.2	19.4	0.00e+00	0	44	0	1738539008	7	3959
2026-01-29 02:54:51.43	341.52	59.56	-23.2	-23.9	19.6	0.00e+00	0	43	0	1743781888	7	3890
2026-01-29 02:54:52.43	340.91	59.86	-23.6	-24.8	19.2	0.00e+00	0	43	0	1749024768	7	4101
2026-01-29 02:54:53.43	340.27	60.15	-23.6	-24.8	19.1	0.00e+00	0	43	0	1755316224	7	4102
2026-01-29 02:54:54.44	339.62	60.45	-23.2	-23.8	19.7	0.00e+00	0	43	0	1760559104	7	3853
2026-01-29 02:54:55.44	338.96	60.74	-23.2	-23.8	19.6	0.00e+00	0	43	0	1765801984	7	3875
2026-01-29 02:54:56.45	338.27	61.03	-23.4	-24.2	19.5	0.00e+00	0	44	0	1772093440	7	3949
2026-01-29 02:54:57.45	337.58	61.31	-23.4	-24.3	19.4	0.00e+00	0	43	0	1777336320	7	3994
2026-01-29 02:54:58.45	336.87	61.59	-23.5	-24.4	19.4	0.00e+00	0	44	0	1783627776	7	4002
2026-01-29 02:54:59.46	336.14	61.88	-23.5	-24.4	19.4	0.00e+00	0	44	0	1788870656	7	4003
2026-01-29 02:55:00.46	335.40	62.15	-23.2	-23.8	19.6	0.00e+00	0	44	0	1795162112	7	3861
2026-01-29 02:55:01.47	334.63	62.43	-23.0	-23.4	19.9	0.00e+00	0	44	0	1800404992	7	3764
2026-01-29 02:55:02.47	333.85	62.70	-23.0	-24.0	19.8	0.00e+00	0	44	0	1805647872	6	4014
2026-01-29 02:55:03.47	333.06	62.97	-23.2	-24.3	19.7	0.00e+00	0	44	0	1811939328	6	4093
2026-01-29 02:55:04.48	332.23	63.24	-23.0	-24.0	19.8	0.00e+00	0	43	0	1817182208	6	4034
2026-01-29 02:55:05.48	331.40	63.50	-23.0	-24.0	19.8	0.00e+00	0	44	0	1822425088	6	4012
2026-01-29 02:55:06.48	330.55	63.75	-23.0	-24.0	19.8	0.00e+00	0	44	0	1828716544	6	4008
2026-01-29 02:55:07.48	329.68	64.00	-22.6	-23.1	20.2	0.00e+00	0	43	0	1833959424	6	3810
2026-01-29 02:55:08.49	328.79	64.25	-22.2	-22.8	20.6	0.00e+00	0	44	0	1840250880	5	3858
2026-01-29 02:55:09.49	327.88	64.49	-22.2	-22.8	20.6	0.00e+00	0	43	0	1845493760	5	3850
2026-01-29 02:55:10.50	326.95	64.73	-22.0	-22.4	20.8	0.00e+00	0	43	0	1851785216	5	3757
2026-01-29 02:55:11.50	326.00	64.96	-21.9	-22.6	21.0	0.00e+00	0	44	0	1857028096	4	3903
2026-01-29 02:55:12.50	325.03	65.19	-22.0	-22.8	20.9	0.00e+00	0	43	0	1862270976	4	3947
2026-01-29 02:55:13.50	324.05	65.41	-21.9	-22.6	21.0	0.00e+00	0	43	0	1868562432	4	3909
2026-01-29 02:55:14.50	323.05	65.62	-21.9	-22.6	21.0	0.00e+00	0	43	0	1873805312	4	3901
2026-01-29 02:55:15.51	322.01	65.83	-22.1	-23.1	20.8	0.00e+00	0	43	0	1879048192	4	4020
2026-01-29 02:55:16.51	320.97	66.03	-22.1	-23.1	20.7	0.00e+00	0	44	0	1885339648	4	4029
2026-01-29 02:55:17.51	319.91	66.22	-21.7	-22.2	21.2	0.00e+00	0	44	0	1890582528	4	3813
2026-01-29 02:55:18.51	318.82	66.41	-21.6	-22.0	21.3	0.00e+00	0	44	0	1895825408	4	3768
2026-01-29 02:55:19.52	317.71	66.59	-21.7	-22.3	21.1	9.10e-06	0	43	0	1902116864	4	3841
2026-01-29 02:55:20.52	316.59	66.76	-22.1	-23.0	20.8	0.00e+00	0	44	0	1907359744	4	4004
2026-01-29 02:55:21.52	315.46	66.92	-22.0	-22.8	20.8	0.00e+00	0	44	0	1913651200	4	3963
2026-01-29 02:55:22.53	314.29	67.08	-21.8	-22.3	21.1	0.00e+00	0	44	0	1918894080	4	3847
2026-01-29 02:55:23.53	313.12	67.23	-21.8	-22.5	21.1	0.00e+00	0	43	0	1924136960	4	3877
2026-01-29 02:55:24.54	311.92	67.37	-21.8	-22.4	21.1	0.00e+00	0	43	0	1930428416	4	3867
2026-01-29 02:55:25.54	310.72	67.50	-21.6	-22.1	21.3	0.00e+00	0	43	0	1935671296	4	3787
2026-01-29 02:55:26.55	309.49	67.62	-21.6	-22.1	21.3	0.00e+00	0	43	0	1941962752	4	3784
2026-01-29 02:55:27.56	308.25	67.73	-21.7	-22.3	21.1	0.00e+00	0	44	0	1947205632	4	3840
2026-01-29 02:55:28.57	306.99	67.83	-21.8	-22.5	21.0	0.00e+00	0	43	0	1952448512	4	3881
2026-01-29 02:55:29.57	305.74	67.92	-21.7	-22.3	21.1	0.00e+00	0	43	0	1958739968	4	3854
2026-01-29 02:55:30.57	304.47	68.01	-21.7	-22.2	21.2	0.00e+00	0	44	0	1963982848	4	3825
2026-01-29 02:55:31.57	303.19	68.08	-21.7	-22.3	21.1	1.10e-06	0	43	0	1969225728	4	3834
2026-01-29 02:55:32.57	301.91	68.14	-21.5	-21.8	21.4	0.00e+00	0	43	0	1975517184	4	3738
2026-01-29 02:55:33.58	300.60	68.19	-21.5	-21.8	21.4	1.32e-04	0	44	0	1980760064	4	3740
2026-01-29 02:55:34.59	299.29	68.23	-21.7	-22.3	21.0	2.13e-04	0	44	0	1987051520	4	3848
2026-01-29 02:55:35.59	297.99	68.26	-21.8	-22.4	20.6	0.00e+00	0	44	0	1992294400	4	3859
2026-01-29 02:55:36.59	296.68	68.28	-21.7	-22.1	21.2	1.68e-04	0	44	0	1997537280	4	3806
2026-01-29 02:55:37.59	295.37	68.29	-21.5	-21.8	21.4	2.29e-04	0	43	0	2003828736	4	3732
2026-01-29 02:55:38.60	294.05	68.29	-21.9	-22.6	21.0	0.00e+00	0	44	0	2009071616	4	3916
2026-01-29 02:55:39.61	292.73	68.28	-22.0	-22.8	20.9	0.00e+00	0	43	0	2015363072	4	3950
2026-01-29 02:55:40.62	291.41	68.26	-21.7	-22.3	21.2	1.26e-04	0	44	0	2020605952	4	3832
2026-01-29 02:55:41.62	290.11	68.22	-21.9	-22.6	21.0	0.00e+00	0	44	0	2025848832	4	3919
2026-01-29 02:55:42.63	288.80	68.18	-21.8	-22.4	21.1	6.29e-05	0	44	0	2032140288	4	3864
2026-01-29 02:55:43.64	287.49	68.13	-21.7	-22.3	21.2	1.03e-04	0	44	0	2037383168	4	3848
2026-01-29 02:55:44.64	286.21	68.06	-21.7	-22.3	21.2	2.71e-04	0	44	0	2042626048	4	3836
2026-01-29 02:55:45.64	284.94	67.99	-21.5	-21.8	21.4	1.28e-04	0	44	0	2048917504	4	3734
2026-01-29 02:55:46.64	283.67	67.91	-21.5	-22.3	21.4	5.54e-04	0	44	0	2054160384	3	3939
2026-01-29 02:55:47.65	282.40	67.81	-21.7	-22.7	21.2	0.00e+00	0	44	0	2060451840	3	4040
2026-01-29 02:55:48.65	281.16	67.71	-21.8	-22.9	21.0	0.00e+00	0	43	0	2065694720	3	4084
2026-01-29 02:55:49.65	279.93	67.60	-21.5	-22.3	21.4	7.47e-04	0	43	0	2071986176	3	3949
2026-01-29 02:55:50.66	278.71	67.47	-21.4	-22.0	21.6	0.00e+00	0	44	0	2077229056	3	3877
2026-01-29 02:55:51.67	277.49	67.34	-21.7	-22.8	21.2	0.00e+00	0	44	0	2082471936	3	4068
2026-01-29 02:55:52.67	276.31	67.20	-22.0	-23.3	21.0	2.44e-04	0	43	0	2088763392	3	4181
2026-01-29 02:55:53.67	275.14	67.05	-22.0	-22.8	20.9	6.05e-04	0	44	0	2094006272	4	3960
2026-01-29 02:55:54.68	273.98	66.89	-22.3	-23.4	20.6	0.00e+00	0	44	0	2099249152	4	4098
2026-01-29 02:55:55.69	272.83	66.73	-22.2	-23.4	20.6	6.69e-04	0	43	0	2105540608	4	4091
2026-01-29 02:55:56.70	271.71	66.55	-21.9	-22.7	20.9	6.89e-04	0	44	0	2110783488	4	3932
2026-01-29 02:55:57.71	270.60	66.37	-22.2	-23.3	20.7	0.00e+00	0	44	0	2117074944	4	4072
2026-01-29 02:55:58.71	269.52	66.18	-22.3	-23.5	20.6	4.93e-04	0	43	0	2122317824	4	4122
2026-01-29 02:55:59.72	268.45	65.98	-22.2	-23.3	20.6	1.10e-06	0	43	0	2127560704	4	4069
2026-01-29 02:56:00.72	267.41	65.78	-22.6	-23.6	20.3	0.00e+00	0	43	0	2133852160	5	4029
2026-01-29 02:56:01.73	266.38	65.57	-22.7	-23.7	20.2	6.59e-04	0	43	0	2139095040	5	4067
2026-01-29 02:56:02.73	265.38	65.36	-22.2	-22.8	20.6	5.86e-04	0	44	0	2145386496	5	3843
2026-01-29 02:56:03.73	264.40	65.13	-21.9	-22.6	21.0	0.00e+00	0	44	0	2150629376	4	3917
2026-01-29 02:56:04.74	263.43	64.90	-22.3	-23.4	20.5	6.27e-04	0	44	0	2155872256	4	4116
2026-01-29 02:56:05.75	262.48	64.67	-22.1	-23.0	20.8	6.63e-04	0	44	0	2162163712	4	3994
2026-01-29 02:56:06.75	261.55	64.43	-22.1	-23.0	20.8	0.00e+00	0	43	0	2167406592	4	4003
2026-01-29 02:56:07.75	260.65	64.19	-22.2	-23.2	20.7	6.06e-04	0	44	0	2173698048	4	4056
2026-01-29 02:56:08.76	259.76	63.94	-22.2	-23.3	20.6	2.20e-06	0	43	0	2178940928	4	4074
2026-01-29 02:56:09.76	258.89	63.69	-22.4	-23.7	20.4	0.00e+00	0	43	0	2184183808	4	4187
2026-01-29 02:56:10.76	258.04	63.43	-22.4	-23.1	20.5	6.38e-04	0	44	0	2190475264	5	3911
2026-01-29 02:56:11.76	257.22	63.17	-22.4	-23.2	20.4	2.20e-06	0	43	0	2195718144	5	3950
2026-01-29 02:56:12.76	256.41	62.90	-22.5	-23.4	20.3	0.00e+00	0	43	0	2200961024	5	3998
2026-01-29 02:56:13.77	255.61	62.63	-22.9	-24.1	20.0	0.00e+00	0	43	0	2207252480	5	4174
2026-01-29 02:56:14.77	254.83	62.36	-22.9	-24.1	19.9	7.51e-04	0	44	0	2212495360	5	4174
2026-01-29 02:56:15.78	254.07	62.08	-22.6	-23.5	20.2	0.00e+00	0	43	0	2218786816	5	4017
2026-01-29 02:56:16.78	253.33	61.80	-22.5	-23.3	20.4	0.00e+00	0	43	0	2224029696	5	3965
2026-01-29 02:56:17.78	252.61	61.52	-22.6	-23.5	20.2	0.00e+00	0	44	0	2229272576	5	4023
2026-01-29 02:56:18.79	251.89	61.23	-22.5	-23.3	20.3	0.00e+00	0	44	0	2235564032	5	3958
2026-01-29 02:56:19.80	251.19	60.94	-22.5	-23.5	20.3	0.00e+00	0	43	0	2240806912	5	4003
2026-01-29 02:56:20.81	250.51	60.65	-22.3	-23.0	20.5	0.00e+00	0	43	0	2247098368	5	3895
2026-01-29 02:56:21.81	249.85	60.36	-22.4	-23.1	20.4	0.00e+00	0	43	0	2252341248	5	3919
2026-01-29 02:56:22.81	249.21	60.07	-22.9	-24.1	19.9	0.00e+00	0	44	0	2257584128	5	4172
2026-01-29 02:56:23.82	248.57	59.77	-23.2	-24.3	19.6	0.00e+00	0	43	0	2263875584	6	4086
2026-01-29 02:56:24.82	247.96	59.47	-23.1	-24.2	19.6	0.00e+00	0	44	0	2269118464	6	4076
2026-01-29 02:56:25.82	247.36	59.17	-23.0	-23.9	19.8	0.00e+00	0	44	0	2274361344	6	3991
2026-01-29 02:56:26.83	246.76	58.87	-23.1	-24.1	19.7	0.00e+00	0	43	0	2280652800	6	4028
2026-01-29 02:56:27.83	246.19	58.57	-23.3	-24.5	19.5	0.00e+00	0	44	0	2285895680	6	4137
2026-01-29 02:56:28.83	245.63	58.27	-23.7	-25.0	19.0	0.00e+00	0	43	0	2292187136	7	4160
2026-01-29 02:56:29.84	245.07	57.96	-23.4	-24.4	19.3	0.00e+00	0	43	0	2297430016	7	4007
2026-01-29 02:56:30.84	244.54	57.66	-22.8	-23.0	20.0	0.00e+00	0	44	0	2302672896	7	3686
2026-01-29 02:56:31.85	244.01	57.35	-22.7	-23.2	20.1	0.00e+00	0	43	0	2308964352	6	3831
2026-01-29 02:56:32.85	243.50	57.05	-23.0	-24.0	19.7	0.00e+00	0	44	0	2314207232	6	4011
2026-01-29 02:56:33.86	242.99	56.74	-23.2	-24.3	19.6	0.00e+00	0	43	0	2320498688	6	4093
2026-01-29 02:56:34.86	242.50	56.43	-23.2	-24.2	19.6	0.00e+00	0	44	0	2325741568	6	4077
2026-01-29 02:56:35.86	242.02	56.13	-23.0	-24.0	19.7	0.00e+00	0	43	0	2330984448	6	4019
2026-01-29 02:56:36.87	241.55	55.82	-23.3	-24.6	19.4	0.00e+00	0	44	0	2337275904	6	4158
2026-01-29 02:56:37.87	241.09	55.51	-23.5	-24.5	19.2	0.00e+00	0	44	0	2342518784	7	4045
2026-01-29 02:56:38.87	240.64	55.20	-23.4	-24.3	19.3	0.00e+00	0	44	0	2347761664	7	3973
2026-01-29 02:56:39.88	240.20	54.89	-23.3	-24.0	19.4	0.00e+00	0	43	0	2354053120	7	3910
2026-01-29 02:56:40.88	239.77	54.59	-23.2	-23.9	19.5	0.00e+00	0	44	0	2359296000	7	3889
2026-01-29 02:56:41.89	239.35	54.28	-23.3	-24.1	19.4	0.00e+00	0	44	0	2365587456	7	3935
2026-01-29 02:56:42.89	238.93	53.97	-23.3	-24.1	19.4	0.00e+00	0	44	0	2370830336	7	3939
2026-01-29 02:56:43.89	238.53	53.66	-23.7	-24.9	19.0	0.00e+00	0	43	0	2376073216	7	4122
2026-01-29 02:56:44.90	238.13	53.36	-23.7	-24.8	19.0	0.00e+00	0	44	0	2382364672	7	4107
2026-01-29 02:56:45.89	237.75	53.05	-23.8	-25.0	18.9	0.00e+00	0	44	0	2387607552	7	4159
2026-01-29 02:56:46.90	237.37	52.75	-23.7	-24.8	19.0	0.00e+00	0	43	0	2393899008	7	4111
2026-01-29 02:56:47.90	237.00	52.44	-23.6	-24.7	19.0	0.00e+00	0	44	0	2399141888	7	4096
2026-01-29 02:56:48.91	236.64	52.14	-23.5	-24.6	19.1	0.00e+00	0	43	0	2404384768	7	4041
2026-01-29 02:56:49.91	236.28	51.83	-23.4	-24.2	19.3	0.00e+00	0	43	0	2410676224	7	3954
2026-01-29 02:56:50.92	235.93	51.53	-23.3	-24.0	19.4	0.00e+00	0	44	0	2415919104	7	3910
2026-01-29 02:56:51.92	235.59	51.23	-23.7	-24.9	18.9	4.57e-05	0	44	0	2421161984	7	4128
2026-01-29 02:56:52.92	235.26	50.93	-23.6	-24.7	19.0	0.00e+00	0	44	0	2427453440	7	4100
2026-01-29 02:56:53.92	234.93	50.63	-23.5	-24.4	19.2	1.37e-04	0	44	0	2432696320	7	4018
2026-01-29 02:56:54.92	234.61	50.33	-23.3	-24.0	19.4	1.76e-04	0	43	0	2438987776	7	3918
2026-01-29 02:56:55.92	234.29	50.03	-23.3	-24.0	19.4	0.00e+00	0	44	0	2444230656	7	3906
2026-01-29 02:56:56.92	233.99	49.74	-23.6	-24.6	19.1	2.30e-04	0	44	0	2449473536	7	4055
2026-01-29 02:56:57.93	233.68	49.44	-23.2	-24.4	19.4	0.00e+00	0	43	0	2455764992	6	4111
2026-01-29 02:56:58.94	233.38	49.14	-23.6	-24.7	19.0	0.00e+00	0	44	0	2461007872	7	4084
2026-01-29 02:56:59.94	233.09	48.85	-23.4	-24.3	19.2	2.12e-04	0	44	0	2466250752	7	3979
2026-01-29 02:57:00.94	232.81	48.56	-23.3	-24.0	19.4	1.91e-04	0	44	0	2472542208	7	3915
2026-01-29 02:57:01.94	232.53	48.27	-23.2	-23.8	19.5	0.00e+00	0	44	0	2477785088	7	3864
2026-01-29 02:57:02.95	232.25	47.98	-23.0	-24.0	19.6	1.91e-04	0	44	0	2484076544	6	4021
2026-01-29 02:57:03.95	231.98	47.69	-22.8	-23.5	19.9	2.06e-04	0	44	0	2489319424	6	3896
2026-01-29 02:57:04.95	231.72	47.40	-22.5	-22.8	20.2	0.00e+00	0	43	0	2494562304	6	3740
2026-01-29 02:57:05.96	231.45	47.11	-22.4	-23.1	20.2	2.21e-04	0	44	0	2500853760	5	3931
2026-01-29 02:57:06.97	231.20	46.83	-22.5	-23.3	20.2	2.17e-04	0	44	0	2506096640	5	3973
2026-01-29 02:57:07.97	230.95	46.54	-22.3	-23.1	20.3	0.00e+00	0	44	0	2512388096	5	3923
2026-01-29 02:57:08.97	230.70	46.26	-22.3	-23.0	20.3	1.54e-04	0	44	0	2517630976	5	3902
2026-01-29 02:57:09.97	230.46	45.98	-22.4	-23.2	18.9	1.36e-04	0	44	0	2522873856	5	3951
2026-01-29 02:57:10.97	230.22	45.70	-22.2	-22.8	17.8	0.00e+00	0	44	0	2529165312	5	3854
2026-01-29 02:57:11.98	229.99	45.42	-22.5	-23.5	20.1	0.00e+00	0	44	0	2534408192	5	4006
2026-01-29 02:57:12.98	229.76	45.15	-22.6	-23.7	19.9	4.50e-06	0	44	0	2539651072	5	4069
2026-01-29 02:57:13.99	229.53	44.87	-22.9	-24.2	19.7	0.00e+00	0	44	0	2545942528	5	4196
2026-01-29 02:57:14.99	229.31	44.59	-22.7	-23.9	19.9	3.08e-05	0	44	0	2551185408	5	4110
2026-01-29 02:57:15.98	229.10	44.32	-22.6	-23.6	20.0	5.83e-05	0	44	0	2556428288	5	4029
2026-01-29 02:57:16.99	228.88	44.05	-22.7	-23.8	19.9	0.00e+00	0	43	0	2562719744	5	4081
2026-01-29 02:57:17.99	228.67	43.78	-22.6	-23.5	20.0	9.26e-05	0	44	0	2567962624	5	4021
2026-01-29 02:57:18.99	228.47	43.51	-22.5	-23.4	20.1	9.95e-05	0	44	0	2574254080	5	3992
2026-01-29 02:57:19.99	228.26	43.25	-22.4	-23.2	20.2	0.00e+00	0	44	0	2579496960	5	3949
2026-01-29 02:57:20.99	228.07	42.98	-22.5	-23.4	20.1	0.00e+00	0	44	0	2584739840	5	3987
2026-01-29 02:57:21.99	227.87	42.72	-22.6	-23.7	19.9	0.00e+00	0	44	0	2591031296	5	4063
2026-01-29 02:57:23.00	227.68	42.46	-22.5	-23.3	20.1	0.00e+00	0	44	0	2596274176	5	3976
2026-01-29 02:57:24.00	227.49	42.20	-22.3	-23.0	20.3	0.00e+00	0	44	0	2602565632	5	3904
2026-01-29 02:57:25.01	227.30	41.93	-22.3	-23.0	20.3	1.14e-04	0	44	0	2607808512	5	3902
2026-01-29 02:57:26.01	227.11	41.68	-22.4	-23.2	20.2	1.91e-04	0	44	0	2613051392	5	3941
2026-01-29 02:57:27.02	226.93	41.42	-22.2	-22.7	20.4	4.00e-05	0	44	0	2619342848	5	3824
2026-01-29 02:57:28.02	226.75	41.16	-22.1	-22.6	20.5	1.99e-04	0	44	0	2624585728	5	3813
2026-01-29 02:57:29.02	226.58	40.91	-22.3	-22.9	20.3	0.00e+00	0	44	0	2629828608	5	3876
2026-01-29 02:57:30.02	226.41	40.66	-22.1	-22.6	20.5	0.00e+00	0	43	0	2636120064	5	3803
2026-01-29 02:57:31.02	226.24	40.41	-22.1	-22.6	20.5	2.22e-04	0	44	0	2641362944	5	3814
2026-01-29 02:57:32.03	226.07	40.16	-22.3	-23.0	20.3	0.00e+00	0	43	0	2647654400	5	3889
2026-01-29 02:57:33.03	225.91	39.91	-22.3	-23.0	20.3	0.00e+00	0	44	0	2652897280	5	3891
2026-01-29 02:57:34.03	225.74	39.66	-22.5	-23.4	20.1	0.00e+00	0	43	0	2658140160	5	3992
2026-01-29 02:57:35.03	225.59	39.42	-22.3	-23.1	20.2	3.54e-04	0	43	0	2664431616	5	3912
2026-01-29 02:57:36.04	225.43	39.18	-22.3	-22.9	20.3	0.00e+00	0	44	0	2669674496	5	3877
2026-01-29 02:57:37.04	225.27	38.93	-22.4	-23.2	20.2	3.52e-04	0	44	0	2674917376	5	3945
2026-01-29 02:57:38.05	225.12	38.69	-22.5	-23.3	20.1	3.36e-04	0	43	0	2681208832	5	3983
2026-01-29 02:57:39.05	224.97	38.45	-22.5	-23.4	20.1	0.00e+00	0	44	0	2686451712	5	3993
2026-01-29 02:57:40.06	224.82	38.21	-22.5	-23.3	20.1	2.70e-04	0	44	0	2692743168	5	3984
2026-01-29 02:57:41.07	224.67	37.98	-22.4	-23.2	20.1	0.00e+00	0	44	0	2697986048	5	3956
2026-01-29 02:57:42.07	224.53	37.74	-22.3	-22.9	20.3	0.00e+00	0	43	0	2703228928	5	3879
2026-01-29 02:57:43.07	224.39	37.51	-22.2	-22.8	20.3	1.83e-05	0	43	0	2709520384	5	3862
2026-01-29 02:57:44.07	224.25	37.28	-22.4	-23.2	20.1	0.00e+00	0	44	0	2714763264	5	3958
2026-01-29 02:57:45.06	224.12	37.05	-22.3	-22.9	20.3	0.00e+00	0	43	0	2721054720	5	3886
2026-01-29 02:57:46.07	223.98	36.82	-22.2	-22.8	20.3	0.00e+00	0	44	0	2726297600	5	3861
2026-01-29 02:57:47.07	223.85	36.59	-22.3	-22.9	20.3	0.00e+00	0	44	0	2731540480	5	3882
2026-01-29 02:57:48.08	223.71	36.36	-22.2	-22.7	20.4	0.00e+00	0	44	0	2737831936	5	3838
2026-01-29 02:57:49.08	223.58	36.14	-22.3	-22.9	20.2	0.00e+00	0	44	0	2743074816	5	3882
2026-01-29 02:57:50.08	223.46	35.92	-22.1	-22.6	20.4	0.00e+00	0	44	0	2748317696	5	3815
2026-01-29 02:57:51.08	223.33	35.70	-22.1	-23.1	20.4	0.00e+00	0	43	0	2754609152	4	4030
2026-01-29 02:57:52.09	223.20	35.47	-22.2	-23.2	20.3	0.00e+00	0	43	0	2759852032	4	4068
2026-01-29 02:57:53.09	223.08	35.25	-22.2	-23.3	20.3	0.00e+00	0	43	0	2765094912	4	4086
2026-01-29 02:57:54.09	222.96	35.04	-22.3	-23.5	20.2	0.00e+00	0	44	0	2771386368	4	4142
2026-01-29 02:57:55.10	222.84	34.82	-22.4	-23.6	20.1	0.00e+00	0	44	0	2776629248	4	4168
2026-01-29 02:57:56.10	222.72	34.60	-22.3	-23.5	20.2	0.00e+00	0	43	0	2782920704	4	4123
2026-01-29 02:57:57.11	222.61	34.39	-22.3	-23.5	20.2	0.00e+00	0	43	0	2788163584	4	4129
2026-01-29 02:57:58.12	222.49	34.17	-22.4	-23.8	20.1	0.00e+00	0	44	0	2794455040	4	4192
2026-01-29 02:57:59.12	222.38	33.96	-22.1	-23.2	20.3	1.46e-04	0	44	0	2799697920	4	4044
2026-01-29 02:58:00.13	222.26	33.75	-22.1	-23.0	20.4	0.00e+00	0	44	0	2804940800	4	4004
2026-01-29 02:58:01.14	222.15	33.54	-22.2	-23.2	20.3	1.58e-04	0	44	0	2811232256	4	4054
2026-01-29 02:58:02.15	222.04	33.33	-22.2	-23.4	20.3	0.00e+00	0	44	0	2816475136	4	4099
2026-01-29 02:58:03.16	221.94	33.13	-22.3	-23.5	20.2	0.00e+00	0	44	0	2822766592	4	4127
2026-01-29 02:58:04.15	221.83	32.92	-22.4	-23.7	20.1	0.00e+00	0	44	0	2828009472	4	4195
2026-01-29 02:58:05.16	221.73	32.72	-22.4	-23.7	20.0	0.00e+00	0	44	0	2833252352	4	4195
2026-01-29 02:58:06.16	221.62	32.52	-22.5	-23.9	19.9	0.00e+00	0	44	0	2839543808	4	4238
2026-01-29 02:58:07.16	221.52	32.32	-22.7	-23.8	19.8	0.00e+00	0	44	0	2844786688	5	4092
2026-01-29 02:58:08.17	221.42	32.11	-22.9	-24.2	19.6	0.00e+00	0	44	0	2850029568	5	4199
2026-01-29 02:58:09.17	221.32	31.92	-22.6	-23.6	19.9	0.00e+00	0	44	0	2856321024	5	4046
2026-01-29 02:58:10.17	221.22	31.72	-22.7	-23.9	19.7	0.00e+00	0	44	0	2861563904	5	4110
2026-01-29 02:58:11.18	221.12	31.52	-22.0	-22.9	18.5	0.00e+00	0	44	0	2867855360	5	4026
2026-01-29 02:58:12.18	221.03	31.33	-22.6	-23.6	16.0	0.00e+00	0	44	0	2873098240	5	4047
2026-01-29 02:58:13.18	220.93	31.13	-22.7	-23.9	19.7	0.00e+00	0	44	0	2878341120	5	4119
2026-01-29 02:58:14.19	220.84	30.94	-22.6	-23.7	19.7	0.00e+00	0	44	0	2884632576	5	4060
2026-01-29 02:58:15.20	220.75	30.75	-22.7	-23.7	19.8	5.92e-04	0	44	0	2889875456	5	4069
2026-01-29 02:58:16.19	220.66	30.56	-22.8	-24.0	19.7	0.00e+00	0	44	0	2895118336	5	4127
2026-01-29 02:58:17.19	220.57	30.37	-22.6	-23.7	19.8	0.00e+00	0	44	0	2901409792	5	4059
2026-01-29 02:58:18.20	220.48	30.18	-22.5	-23.5	19.9	0.00e+00	0	44	0	2906652672	5	4005
2026-01-29 02:58:19.20	220.39	30.00	-22.5	-23.5	19.9	0.00e+00	0	44	0	2912944128	5	4016
2026-01-29 02:58:20.21	220.30	29.81	-22.6	-23.5	19.9	0.00e+00	0	44	0	2918187008	5	4030
2026-01-29 02:58:21.20	220.22	29.63	-22.6	-23.7	19.8	0.00e+00	0	43	0	2923429888	5	4073
2026-01-29 02:58:22.21	220.13	29.44	-22.6	-23.6	19.9	0.00e+00	0	44	0	2929721344	5	4036
2026-01-29 02:58:23.22	220.05	29.26	-22.6	-23.7	19.8	0.00e+00	0	44	0	2934964224	5	4079
2026-01-29 02:58:24.21	219.97	29.08	-22.7	-23.8	19.7	0.00e+00	0	44	0	2941255680	5	4107
2026-01-29 02:58:25.21	219.88	28.90	-22.8	-24.1	19.6	0.00e+00	0	44	0	2946498560	5	4181
2026-01-29 02:58:26.22	219.80	28.72	-22.8	-24.0	19.6	0.00e+00	0	43	0	2951741440	5	4139
2026-01-29 02:58:27.22	219.72	28.54	-22.8	-24.1	19.6	0.00e+00	0	44	0	2958032896	5	4162
2026-01-29 02:58:28.23	219.64	28.36	-22.8	-24.1	19.5	0.00e+00	0	44	0	2963275776	5	4184
2026-01-29 02:58:29.23	219.56	28.19	-22.9	-24.2	19.5	0.00e+00	0	44	0	2968518656	5	4194
2026-01-29 02:58:30.24	219.49	28.01	-22.9	-24.2	19.5	0.00e+00	0	43	0	2974810112	5	4195
2026-01-29 02:58:31.24	219.41	27.84	-22.9	-24.3	19.5	0.00e+00	0	44	0	2980052992	5	4210
2026-01-29 02:58:32.24	219.33	27.67	-22.9	-24.2	19.4	0.00e+00	0	44	0	2985295872	5	4201
2026-01-29 02:58:33.25	219.26	27.49	-23.0	-24.4	19.4	0.00e+00	0	44	0	2991587328	5	4239
2026-01-29 02:58:34.25	219.19	27.32	-23.2	-24.4	19.2	0.00e+00	0	44	0	2996830208	6	4119
2026-01-29 02:58:35.26	219.11	27.15	-23.4	-24.8	19.0	1.02e-05	0	44	0	3003121664	6	4219
2026-01-29 02:58:36.26	219.04	26.98	-23.0	-24.0	19.3	1.13e-04	0	44	0	3008364544	6	4037
2026-01-29 02:58:37.26	218.97	26.82	-22.9	-23.7	19.5	0.00e+00	0	44	0	3014656000	6	3959
2026-01-29 02:58:38.26	218.90	26.65	-22.9	-23.7	19.5	2.72e-04	0	44	0	3019898880	6	3946
2026-01-29 02:58:39.26	218.83	26.49	-23.0	-23.9	19.4	2.78e-04	0	44	0	3025141760	6	4001
2026-01-29 02:58:40.27	218.76	26.32	-23.0	-24.0	19.3	0.00e+00	0	43	0	3031433216	6	4034
2026-01-29 02:58:41.27	218.69	26.16	-22.9	-23.8	19.4	3.04e-04	0	44	0	3036676096	6	3973
2026-01-29 02:58:42.28	218.62	25.99	-22.8	-24.1	19.5	3.02e-04	0	44	0	3041918976	5	4179
2026-01-29 02:58:43.29	218.55	25.83	-22.9	-24.3	19.4	0.00e+00	0	44	0	3048210432	5	4214
2026-01-29 02:58:44.29	218.49	25.67	-22.9	-24.3	19.4	4.35e-04	0	44	0	3053453312	5	4217
2026-01-29 02:58:45.30	218.42	25.51	-23.0	-24.0	15.0	4.31e-04	0	43	0	3059744768	6	4037
2026-01-29 02:58:46.30	218.36	25.35	-23.2	-24.4	14.6	1.01e-03	0	44	0	3064987648	6	4136
2026-01-29 02:58:47.31	218.29	25.19	-23.4	-24.8	18.9	5.52e-04	0	44	0	3070230528	6	4237
2026-01-29 02:58:48.31	218.23	25.03	-23.2	-24.4	19.1	4.98e-04	0	43	0	3076521984	6	4123
2026-01-29 02:58:49.32	218.16	24.87	-23.1	-24.2	19.2	0.00e+00	0	44	0	3081764864	6	4073
2026-01-29 02:58:50.32	218.10	24.72	-23.1	-24.1	19.2	5.05e-04	0	44	0	3088056320	6	4068
2026-01-29 02:58:51.32	218.04	24.57	-23.2	-24.3	19.1	0.00e+00	0	44	0	3093299200	6	4116
2026-01-29 02:58:52.33	217.98	24.41	-23.1	-24.2	19.2	0.00e+00	0	44	0	3098542080	6	4092
2026-01-29 02:58:53.33	217.92	24.26	-23.2	-24.5	19.0	0.00e+00	0	44	0	3104833536	6	4154
2026-01-29 02:58:54.34	217.86	24.10	-23.1	-24.1	19.2	1.37e-05	0	44	0	3110076416	6	4051
2026-01-29 02:58:55.34	217.80	23.95	-23.0	-24.1	19.2	0.00e+00	0	44	0	3115319296	6	4045
2026-01-29 02:58:56.35	217.74	23.80	-23.1	-24.1	19.2	0.00e+00	0	44	0	3121610752	6	4050
2026-01-29 02:58:57.35	217.68	23.65	-23.0	-24.0	19.2	6.20e-04	0	43	0	3126853632	6	4039
2026-01-29 02:58:58.35	217.62	23.50	-23.1	-24.1	19.2	7.12e-04	0	44	0	3133145088	6	4060
2026-01-29 02:58:59.36	217.57	23.36	-23.2	-24.3	19.1	5.83e-04	0	44	0	3138387968	6	4101
2026-01-29 02:59:00.36	217.51	23.21	-23.2	-24.3	19.1	7.03e-04	0	44	0	3144679424	6	4097
2026-01-29 02:59:01.37	217.45	23.06	-23.2	-24.4	19.1	0.00e+00	0	43	0	3149922304	6	4128
2026-01-29 02:59:02.38	217.40	22.92	-23.2	-24.4	19.0	0.00e+00	0	44	0	3155165184	6	4141
2026-01-29 02:59:03.38	217.34	22.77	-23.3	-24.7	18.9	6.11e-04	0	44	0	3161456640	6	4203
2026-01-29 02:59:04.39	217.29	22.63	-23.4	-24.9	18.8	0.00e+00	0	44	0	3166699520	6	4257
2026-01-29 02:59:05.39	217.24	22.48	-23.4	-24.8	18.9	0.00e+00	0	44	0	3171942400	6	4230
2026-01-29 02:59:06.40	217.18	22.34	-23.4	-24.8	18.8	3.57e-04	0	44	0	3178233856	6	4242
2026-01-29 02:59:07.40	217.13	22.20	-23.5	-25.0	18.7	3.29e-04	0	44	0	3183476736	6	4285
2026-01-29 02:59:08.40	217.08	22.06	-23.5	-25.0	18.8	0.00e+00	0	44	0	3189768192	6	4279
2026-01-29 02:59:09.41	217.03	21.92	-23.6	-24.7	18.6	2.43e-04	0	44	0	3195011072	7	4109
2026-01-29 02:59:10.41	216.98	21.78	-23.7	-24.9	18.5	1.79e-04	0	44	0	3200253952	7	4149
2026-01-29 02:59:11.42	216.92	21.64	-23.6	-24.7	18.6	0.00e+00	0	44	0	3206545408	7	4093
2026-01-29 02:59:12.42	216.87	21.50	-23.6	-24.7	18.7	1.52e-04	0	44	0	3211788288	7	4090
2026-01-29 02:59:13.42	216.82	21.36	-23.6	-24.8	18.6	1.81e-04	0	44	0	3218079744	7	4127
2026-01-29 02:59:14.42	216.78	21.23	-23.5	-24.6	18.6	0.00e+00	0	44	0	3223322624	7	4078
2026-01-29 02:59:15.43	216.73	21.09	-23.6	-24.7	18.6	1.17e-04	0	44	0	3228565504	7	4098
2026-01-29 02:59:16.43	216.68	20.96	-23.5	-24.6	18.6	1.22e-04	0	44	0	3234856960	7	4084
2026-01-29 02:59:17.43	216.63	20.82	-23.4	-24.4	18.8	0.00e+00	0	44	0	3240099840	7	4022
2026-01-29 02:59:18.43	216.58	20.69	-23.4	-24.3	18.8	1.88e-04	0	44	0	3245342720	7	4006
2026-01-29 02:59:19.44	216.54	20.56	-23.4	-24.3	18.8	1.69e-04	0	43	0	3251634176	7	4003
2026-01-29 02:59:20.44	216.49	20.42	-23.4	-24.3	18.8	0.00e+00	0	44	0	3256877056	7	4002
2026-01-29 02:59:21.44	216.44	20.29	-23.4	-24.8	18.8	2.78e-04	0	44	0	3262119936	6	4236
2026-01-29 02:59:22.45	216.40	20.16	-23.4	-24.7	18.8	0.00e+00	0	44	0	3268411392	6	4217
2026-01-29 02:59:23.46	216.35	20.03	-23.4	-24.8	18.8	0.00e+00	0	44	0	3273654272	6	4226
2026-01-29 02:59:24.46	216.31	19.90	-23.4	-24.8	18.8	2.93e-04	0	44	0	3279945728	6	4220
2026-01-29 02:59:25.46	216.26	19.77	-23.5	-24.9	18.7	0.00e+00	0	44	0	3285188608	6	4269
2026-01-29 02:59:26.47	216.22	19.64	-23.7	-24.9	18.4	0.00e+00	0	44	0	3291480064	7	4138
2026-01-29 02:59:27.48	216.17	19.51	-23.8	-25.1	18.3	0.00e+00	0	44	0	3296722944	7	4203
2026-01-29 02:59:28.48	216.13	19.39	-23.6	-24.8	18.5	2.53e-04	0	44	0	3301965824	7	4123
2026-01-29 02:59:29.47	216.09	19.26	-23.6	-24.7	18.5	0.00e+00	0	44	0	3308257280	7	4100
2026-01-29 02:59:30.48	216.04	19.13	-23.6	-24.8	18.4	1.72e-04	0	44	0	3313500160	7	4117
2026-01-29 02:59:31.48	216.00	19.01	-23.7	-25.0	18.4	0.00e+00	0	44	0	3318743040	7	4178
2026-01-29 02:59:32.49	215.96	18.88	-23.8	-25.2	18.3	0.00e+00	0	44	0	3325034496	7	4214
2026-01-29 02:59:33.49	215.92	18.76	-23.9	-25.4	18.2	1.80e-04	0	44	0	3330277376	7	4262
2026-01-29 02:59:34.49	215.88	18.64	-23.9	-25.5	18.1	0.00e+00	0	44	0	3335520256	7	4301
2026-01-29 02:59:35.50	215.84	18.51	-24.1	-25.2	18.0	0.00e+00	0	44	0	3341811712	8	4113
2026-01-29 02:59:36.51	215.80	18.39	-24.2	-25.5	17.8	0.00e+00	0	44	0	3347054592	8	4182
2026-01-29 02:59:37.52	215.76	18.27	-24.3	-25.7	17.8	0.00e+00	0	44	0	3353346048	8	4227
2026-01-29 02:59:38.52	215.72	18.15	-24.3	-25.9	17.7	0.00e+00	0	44	0	3358588928	8	4279
2026-01-29 02:59:39.52	215.68	18.03	-24.4	-25.9	17.6	0.00e+00	0	44	0	3364880384	8	4298
2026-01-29 02:59:40.52	215.64	17.91	-24.3	-25.8	17.7	0.00e+00	0	44	0	3370123264	8	4270
2026-01-29 02:59:41.53	215.60	17.79	-24.3	-25.8	17.7	0.00e+00	0	44	0	3375366144	8	4262
2026-01-29 02:59:42.53	215.56	17.67	-24.4	-25.9	17.6	0.00e+00	0	44	0	3381657600	8	4289
2026-01-29 02:59:43.53	215.52	17.55	-23.9	-25.4	17.6	0.00e+00	0	44	0	3386900480	8	4299
2026-01-29 02:59:44.54	215.48	17.43	-24.5	-26.1	15.9	0.00e+00	0	44	0	3392143360	8	4356
2026-01-29 02:59:45.54	215.45	17.32	-24.7	-26.1	17.2	6.80e-06	0	44	0	3398434816	9	4237
2026-01-29 02:59:46.54	215.41	17.20	-24.8	-26.3	17.1	0.00e+00	0	44	0	3403677696	9	4277
2026-01-29 02:59:47.54	215.37	17.09	-24.6	-25.8	17.4	0.00e+00	0	44	0	3408920576	9	4146
2026-01-29 02:59:48.54	215.34	16.97	-24.5	-25.7	17.5	0.00e+00	0	44	0	3415212032	9	4126
2026-01-29 02:59:49.54	215.30	16.86	-24.6	-25.9	17.3	0.00e+00	0	43	0	3420454912	9	4181
2026-01-29 02:59:50.55	215.26	16.74	-24.7	-26.0	17.3	0.00e+00	0	44	0	3426746368	9	4201
2026-01-29 02:59:51.56	215.23	16.63	-24.7	-26.0	17.3	6.80e-06	0	43	0	3431989248	9	4196
2026-01-29 02:59:52.56	215.19	16.51	-24.8	-26.2	17.2	0.00e+00	0	44	0	3438280704	9	4253
2026-01-29 02:59:53.57	215.16	16.40	-24.8	-26.3	17.1	0.00e+00	0	44	0	3443523584	9	4287
2026-01-29 02:59:54.58	215.12	16.29	-24.7	-26.2	17.1	4.50e-06	0	43	0	3448766464	9	4251
2026-01-29 02:59:55.58	215.09	16.17	-24.8	-26.3	17.1	0.00e+00	0	44	0	3455057920	9	4269
2026-01-29 02:59:56.59	215.05	16.06	-24.8	-26.4	17.0	1.79e-04	0	44	0	3460300800	9	4299
2026-01-29 02:59:57.59	215.02	15.95	-24.8	-26.3	17.1	1.10e-06	0	44	0	3465543680	9	4276
2026-01-29 02:59:58.60	214.99	15.84	-24.7	-26.2	17.1	1.93e-04	0	44	0	3471835136	9	4247
2026-01-29 02:59:59.60	214.95	15.73	-24.8	-26.2	17.1	1.70e-04	0	44	0	3477078016	9	4262
2026-01-29 03:00:00.60	214.92	15.62	-24.8	-26.3	17.1	0.00e+00	0	44	0	3483369472	9	4279
2026-01-29 03:00:01.61	214.89	15.51	-24.8	-26.3	17.0	1.67e-04	0	44	0	3488612352	9	4299
2026-01-29 03:00:02.61	214.85	15.40	-24.9	-26.5	17.0	0.00e+00	0	44	0	3493855232	9	4327
2026-01-29 03:00:03.62	214.82	15.30	-24.9	-26.4	17.0	3.40e-06	0	44	0	3500146688	9	4319
2026-01-29 03:00:04.61	214.79	15.19	-24.8	-26.4	17.0	1.97e-04	0	44	0	3505389568	9	4318
2026-01-29 03:00:05.62	214.76	15.08	-24.9	-26.5	16.9	2.10e-04	0	44	0	3511681024	9	4345
2026-01-29 03:00:06.61	214.73	14.98	-24.9	-26.6	16.9	2.20e-06	0	44	0	3516923904	9	4369
2026-01-29 03:00:07.62	214.69	14.87	-25.0	-26.7	16.8	2.39e-04	0	44	0	3522166784	9	4393
2026-01-29 03:00:08.63	214.66	14.76	-25.0	-26.3	16.8	2.45e-04	0	43	0	3528458240	10	4175
2026-01-29 03:00:09.63	214.63	14.66	-25.0	-26.3	16.8	0.00e+00	0	44	0	3533701120	10	4170
2026-01-29 03:00:10.63	214.60	14.55	-25.1	-26.4	16.7	1.79e-04	0	44	0	3538944000	10	4199
2026-01-29 03:00:11.64	214.57	14.45	-25.1	-26.5	16.7	1.86e-04	0	44	0	3545235456	10	4213
2026-01-29 03:00:12.64	214.54	14.35	-25.1	-26.4	16.7	0.00e+00	0	43	0	3550478336	10	4196
2026-01-29 03:00:13.65	214.51	14.24	-25.1	-26.4	16.7	1.41e-04	0	44	0	3556769792	10	4194
2026-01-29 03:00:14.66	214.48	14.14	-25.2	-26.6	16.6	1.40e-04	0	44	0	3562012672	10	4250
2026-01-29 03:00:15.67	214.45	14.03	-25.3	-26.9	16.4	0.00e+00	0	44	0	3567255552	10	4328
2026-01-29 03:00:16.67	214.42	13.93	-25.3	-27.0	16.4	0.00e+00	0	44	0	3573547008	10	4353
2026-01-29 03:00:17.67	214.39	13.83	-25.4	-27.1	16.3	1.02e-04	0	44	0	3578789888	10	4379
2026-01-29 03:00:18.68	214.36	13.73	-25.4	-27.1	16.2	0.00e+00	0	44	0	3585081344	10	4396
2026-01-29 03:00:19.68	214.33	13.63	-25.4	-27.1	16.3	1.02e-04	0	43	0	3590324224	10	4398
2026-01-29 03:00:20.68	214.31	13.53	-25.5	-27.3	16.2	4.69e-05	0	44	0	3595567104	10	4430
2026-01-29 03:00:21.69	214.28	13.43	-25.4	-27.2	16.2	0.00e+00	0	44	0	3601858560	10	4416
2026-01-29 03:00:22.69	214.25	13.33	-25.6	-27.1	15.9	3.40e-06	0	44	0	3607101440	11	4263
2026-01-29 03:00:23.69	214.22	13.23	-25.5	-27.2	14.6	0.00e+00	0	44	0	3612344320	11	4403
2026-01-29 03:00:24.70	214.19	13.13	-25.8	-27.5	15.8	0.00e+00	0	44	0	3618635776	11	4376
2026-01-29 03:00:25.70	214.17	13.03	-25.6	-27.0	16.0	0.00e+00	0	44	0	3623878656	11	4248
2026-01-29 03:00:26.71	214.14	12.93	-25.4	-26.7	16.2	0.00e+00	0	44	0	3630170112	11	4182
2026-01-29 03:00:27.72	214.11	12.83	-25.4	-26.7	16.2	3.82e-04	0	44	0	3635412992	11	4169
2026-01-29 03:00:28.72	214.09	12.74	-25.4	-26.6	16.2	0.00e+00	0	44	0	3640655872	11	4137
2026-01-29 03:00:29.73	214.06	12.64	-25.5	-27.3	16.1	3.54e-04	0	44	0	3646947328	10	4462
2026-01-29 03:00:30.74	214.03	12.54	-25.5	-26.9	16.1	0.00e+00	0	44	0	3652190208	11	4222
2026-01-29 03:00:31.74	214.01	12.45	-25.4	-26.7	16.1	0.00e+00	0	44	0	3658481664	11	4176
2026-01-29 03:00:32.75	213.98	12.35	-25.4	-26.6	16.2	3.09e-04	0	44	0	3663724544	11	4148
2026-01-29 03:00:33.75	213.95	12.25	-25.4	-26.7	16.2	0.00e+00	0	44	0	3670016000	11	4160
2026-01-29 03:00:34.76	213.93	12.16	-25.4	-26.7	16.1	0.00e+00	0	44	0	3675258880	11	4164
2026-01-29 03:00:35.76	213.90	12.06	-25.5	-26.9	16.0	0.00e+00	0	44	0	3680501760	11	4234
2026-01-29 03:00:36.76	213.88	11.97	-25.5	-26.8	16.1	2.29e-04	0	44	0	3686793216	11	4196
2026-01-29 03:00:37.77	213.85	11.88	-25.4	-26.8	16.1	0.00e+00	0	44	0	3692036096	11	4185
2026-01-29 03:00:38.77	213.83	11.78	-25.5	-26.8	16.1	2.01e-04	0	44	0	3697278976	11	4198
2026-01-29 03:00:39.77	213.80	11.69	-25.6	-27.0	16.0	2.21e-04	0	44	0	3703570432	11	4255
2026-01-29 03:00:40.78	213.78	11.60	-25.5	-27.0	16.0	0.00e+00	0	44	0	3708813312	11	4244
2026-01-29 03:00:41.78	213.75	11.50	-25.5	-27.0	16.0	2.05e-04	0	44	0	3714056192	11	4251
2026-01-29 03:00:42.78	213.73	11.41	-25.5	-27.0	15.9	0.00e+00	0	44	0	3720347648	11	4248
2026-01-29 03:00:43.79	213.71	11.32	-25.6	-27.0	15.9	0.00e+00	0	44	0	3725590528	11	4259
2026-01-29 03:00:44.78	213.68	11.23	-25.6	-27.2	15.8	2.72e-04	0	44	0	3731881984	11	4311
2026-01-29 03:00:45.78	213.66	11.14	-25.7	-27.3	15.7	2.88e-04	0	44	0	3737124864	11	4341
2026-01-29 03:00:46.79	213.63	11.05	-25.7	-27.4	15.7	0.00e+00	0	44	0	3742367744	11	4354
2026-01-29 03:00:47.79	213.61	10.96	-25.7	-27.3	15.7	2.63e-04	0	44	0	3748659200	11	4342
2026-01-29 03:00:48.80	213.59	10.87	-25.7	-27.3	15.7	2.17e-04	0	44	0	3753902080	11	4327
2026-01-29 03:00:49.80	213.56	10.78	-25.7	-27.3	15.7	0.00e+00	0	44	0	3760193536	11	4343
2026-01-29 03:00:50.80	213.54	10.69	-25.8	-27.6	15.5	2.05e-04	0	44	0	3765436416	11	4427
2026-01-29 03:00:51.80	213.52	10.60	-25.8	-27.5	15.6	2.30e-04	0	44	0	3770679296	11	4382
2026-01-29 03:00:52.80	213.50	10.51	-25.8	-27.5	15.6	0.00e+00	0	44	0	3776970752	11	4380
2026-01-29 03:00:53.80	213.47	10.42	-25.7	-27.4	15.6	2.08e-04	0	44	0	3782213632	11	4372
2026-01-29 03:00:54.80	213.45	10.33	-25.8	-27.4	15.6	0.00e+00	0	44	0	3787456512	11	4372
2026-01-29 03:00:55.81	213.43	10.24	-25.8	-27.5	15.5	0.00e+00	0	44	0	3793747968	11	4402
2026-01-29 03:00:56.81	213.41	10.16	-25.8	-27.5	15.5	1.10e-06	0	44	0	3798990848	11	4396
2026-01-29 03:00:57.81	213.39	10.07	-25.8	-27.5	15.6	2.29e-04	0	44	0	3805282304	11	4394
2026-01-29 03:00:58.82	213.36	9.98	-25.9	-27.8	15.4	0.00e+00	0	44	0	3810525184	11	4460
2026-01-29 03:00:59.82	213.34	9.89	-25.9	-27.7	15.4	2.16e-04	0	44	0	3815768064	11	4432
2026-01-29 03:01:00.82	213.32	9.81	-26.0	-27.9	15.3	2.21e-04	0	44	0	3822059520	11	4497
2026-01-29 03:01:01.82	213.30	9.72	-25.8	-27.1	15.4	0.00e+00	0	44	0	3827302400	12	4171
2026-01-29 03:01:02.83	213.28	9.64	-25.8	-27.0	15.5	2.20e-04	0	44	0	3832545280	12	4139
2026-01-29 03:01:03.83	213.26	9.55	-25.8	-27.1	15.4	0.00e+00	0	44	0	3838836736	12	4176
2026-01-29 03:01:04.83	213.24	9.47	-25.8	-27.1	15.4	0.00e+00	0	44	0	3844079616	12	4163
2026-01-29 03:01:05.84	213.22	9.38	-25.8	-27.1	15.4	2.63e-04	0	44	0	3849322496	12	4177
2026-01-29 03:01:06.84	213.20	9.30	-25.9	-27.2	15.3	0.00e+00	0	44	0	3855613952	12	4203
2026-01-29 03:01:07.85	213.17	9.21	-25.9	-27.2	15.3	0.00e+00	0	44	0	3860856832	12	4206
2026-01-29 03:01:08.85	213.15	9.13	-25.9	-27.3	15.2	3.40e-06	0	44	0	3867148288	12	4242
2026-01-29 03:01:09.86	213.13	9.04	-26.1	-27.7	15.0	3.79e-04	0	44	0	3872391168	12	4348
