passes_logs/2026/01/29/R2M6_AANII_01/R2M6_AANII_01__20260129_001240_SUOMI_NPP_rec.log

#Pass ID: 20260129_001240_SUOMI NPP
#Satellite: SUOMI NPP
#Configuration: NPP
#almurnet v.1.7.20240730
#Start time: 2026-01-29 00:12:42

#Version: 2.2.20231116
#Station: R2M6_AANII_01
#Location: 30.233357 lon 59.946436 lat
#TLE: 1 37849U 11061A   26027.86188320  .00000172  00000+0  10275-3 0  9990
#TLE: 2 37849  98.7823 329.8005 0002088  41.4184 318.7150 14.19530883738530

#Time	Az	El	Level	Level2	SNR	BER	BlckErr	Temp	State	Recorded	gain1	gain2
2026-01-29 00:12:42.50	19.35	7.16	-31.4	-37.3	4.7	1.36e+00	0	41	0	0	22	7073
2026-01-29 00:12:43.49	19.37	7.23	-31.4	-37.1	4.7	1.35e+00	0	41	104	0	22	6931
2026-01-29 00:12:44.49	19.39	7.31	-31.4	-36.8	6.9	1.70e-01	0	41	0	0	22	6754
2026-01-29 00:12:45.49	19.40	7.39	-31.5	-36.8	6.6	2.21e-01	0	41	0	1048576	23	6674
2026-01-29 00:12:46.49	19.42	7.47	-31.4	-36.5	6.9	1.85e-01	0	41	0	3145728	23	6464
2026-01-29 00:12:47.49	19.43	7.54	-31.4	-37.0	6.9	1.78e-01	0	41	0	5242880	22	6852
2026-01-29 00:12:48.49	19.45	7.62	-31.5	-37.1	6.9	1.74e-01	0	41	0	7340032	22	6887
2026-01-29 00:12:49.49	19.47	7.70	-31.5	-36.9	6.6	1.78e-01	0	41	0	8388608	23	6713
2026-01-29 00:12:50.49	19.48	7.78	-31.7	-37.8	6.1	2.49e-01	0	41	0	10485760	23	7262
2026-01-29 00:12:51.49	19.50	7.86	-31.8	-38.2	5.8	3.98e-01	0	41	0	12582912	23	7587
2026-01-29 00:12:52.49	19.51	7.94	-31.6	-37.1	6.5	2.48e-01	0	41	0	14680064	23	6835
2026-01-29 00:12:53.50	19.53	8.02	-31.3	-36.5	7.3	1.50e-01	0	41	0	16777216	22	6518
2026-01-29 00:12:54.50	19.55	8.10	-31.1	-35.4	8.2	8.17e-02	0	41	0	17825792	22	5915
2026-01-29 00:12:55.50	19.56	8.18	-30.8	-34.3	9.0	2.89e-02	0	41	0	19922944	22	5371
2026-01-29 00:12:56.50	19.58	8.26	-30.6	-33.8	9.8	1.98e-02	0	41	0	22020096	21	5225
2026-01-29 00:12:57.50	19.60	8.34	-30.3	-33.6	10.4	7.50e-03	0	41	0	24117248	20	5213
2026-01-29 00:12:58.50	19.61	8.42	-30.3	-33.4	10.5	3.81e-03	0	41	0	26214400	20	5118
2026-01-29 00:12:59.51	19.63	8.50	-30.2	-33.5	10.2	8.06e-03	0	41	0	27262976	20	5274
2026-01-29 00:13:00.50	19.65	8.58	-30.4	-33.8	10.1	7.43e-03	0	41	0	29360128	20	5301
2026-01-29 00:13:01.51	19.66	8.66	-30.5	-33.7	9.9	7.21e-03	0	41	0	31457280	21	5187
2026-01-29 00:13:02.52	19.68	8.75	-30.4	-33.8	10.1	5.81e-03	0	41	0	33554432	20	5286
2026-01-29 00:13:03.53	19.70	8.83	-30.4	-33.6	10.3	7.26e-03	0	41	0	35651584	20	5203
2026-01-29 00:13:04.53	19.72	8.91	-30.3	-33.3	10.6	4.37e-03	0	41	0	36700160	20	5099
2026-01-29 00:13:05.53	19.73	8.99	-30.3	-33.4	10.6	5.45e-03	0	41	0	38797312	20	5125
2026-01-29 00:13:06.53	19.75	9.08	-30.4	-33.5	10.4	6.12e-03	0	41	0	40894464	20	5191
2026-01-29 00:13:07.54	19.77	9.16	-30.3	-33.4	10.6	3.03e-03	0	41	0	42991616	20	5125
2026-01-29 00:13:08.54	19.79	9.24	-30.3	-33.4	10.6	8.35e-03	0	42	0	45088768	20	5141
2026-01-29 00:13:09.54	19.80	9.33	-30.3	-33.2	10.7	4.50e-03	0	41	0	46137344	20	5032
2026-01-29 00:13:10.55	19.82	9.41	-30.0	-32.2	11.5	1.48e-03	0	42	0	48234496	20	4645
2026-01-29 00:13:11.55	19.84	9.50	-29.8	-32.1	12.0	2.39e-03	0	42	0	50331648	19	4706
2026-01-29 00:13:12.55	19.86	9.58	-29.8	-32.2	11.9	9.32e-04	0	42	0	52428800	19	4733
2026-01-29 00:13:13.55	19.88	9.67	-29.9	-32.5	11.6	5.62e-04	0	42	0	54525952	19	4857
2026-01-29 00:13:14.56	19.89	9.75	-29.9	-32.6	11.6	2.44e-03	0	42	0	55574528	19	4890
2026-01-29 00:13:15.56	19.91	9.84	-29.8	-32.1	12.0	2.41e-03	0	42	0	57671680	19	4697
2026-01-29 00:13:16.57	19.93	9.92	-29.9	-32.5	11.7	3.68e-04	0	42	0	59768832	19	4825
2026-01-29 00:13:17.57	19.95	10.01	-29.9	-32.1	11.5	2.63e-03	0	42	0	61865984	20	4633
2026-01-29 00:13:18.57	19.97	10.10	-29.8	-32.1	12.0	2.21e-03	0	42	0	62914560	19	4685
2026-01-29 00:13:19.57	19.98	10.18	-29.8	-32.0	12.1	2.23e-04	0	42	0	65011712	19	4647
2026-01-29 00:13:20.58	20.00	10.27	-29.8	-32.2	11.9	8.08e-04	0	42	0	67108864	19	4743
2026-01-29 00:13:21.58	20.02	10.36	-29.8	-32.1	12.0	2.50e-03	0	42	0	69206016	19	4709
2026-01-29 00:13:22.59	20.04	10.45	-29.8	-32.0	12.1	2.50e-04	0	42	0	71303168	19	4674
2026-01-29 00:13:23.59	20.06	10.53	-29.5	-31.1	12.7	5.54e-04	0	42	0	73400320	19	4348
2026-01-29 00:13:24.59	20.08	10.62	-29.4	-31.3	12.9	2.25e-03	0	42	0	74448896	18	4519
2026-01-29 00:13:25.59	20.10	10.71	-29.4	-31.4	12.9	5.26e-05	0	42	0	76546048	18	4532
2026-01-29 00:13:26.60	20.12	10.80	-29.4	-31.5	12.8	4.71e-04	0	42	0	78643200	18	4591
2026-01-29 00:13:27.60	20.13	10.89	-29.4	-31.4	12.9	4.85e-04	0	42	0	80740352	18	4547
2026-01-29 00:13:28.60	20.15	10.98	-29.2	-31.0	13.1	4.27e-05	0	42	0	81788928	18	4409
2026-01-29 00:13:29.60	20.17	11.07	-29.2	-30.8	13.3	4.57e-04	0	42	0	83886080	18	4354
2026-01-29 00:13:30.61	20.19	11.16	-29.2	-31.0	13.2	4.49e-04	0	42	0	85983232	18	4388
2026-01-29 00:13:31.62	20.21	11.25	-29.2	-30.8	13.3	1.98e-05	0	42	0	88080384	18	4340
2026-01-29 00:13:32.62	20.23	11.34	-29.2	-30.7	13.4	1.67e-03	0	42	0	90177536	18	4301
2026-01-29 00:13:33.62	20.25	11.43	-29.2	-30.8	13.3	4.65e-04	0	42	0	91226112	18	4329
2026-01-29 00:13:34.63	20.27	11.52	-29.0	-30.3	13.6	1.37e-05	0	42	0	93323264	18	4187
2026-01-29 00:13:35.63	20.29	11.62	-29.0	-30.2	13.7	1.95e-03	0	42	0	95420416	18	4156
2026-01-29 00:13:36.62	20.31	11.71	-28.9	-30.6	13.7	5.29e-04	0	42	0	97517568	17	4373
2026-01-29 00:13:37.63	20.33	11.80	-28.9	-30.7	13.7	7.60e-06	0	42	0	99614720	17	4391
2026-01-29 00:13:38.63	20.35	11.89	-28.9	-30.5	13.8	5.75e-04	0	42	0	100663296	17	4351
2026-01-29 00:13:39.63	20.37	11.99	-29.0	-30.7	13.7	1.38e-03	0	42	0	102760448	17	4390
2026-01-29 00:13:40.64	20.39	12.08	-28.9	-30.4	13.9	6.10e-06	0	42	0	104857600	17	4311
2026-01-29 00:13:41.64	20.41	12.17	-28.8	-30.2	14.0	5.75e-04	0	42	0	106954752	17	4252
2026-01-29 00:13:42.65	20.43	12.27	-28.9	-30.5	13.9	6.07e-04	0	42	0	109051904	17	4319
2026-01-29 00:13:43.65	20.45	12.36	-28.9	-30.4	13.9	3.80e-06	0	42	0	110100480	17	4312
2026-01-29 00:13:44.65	20.47	12.46	-28.7	-30.1	14.1	7.46e-04	0	42	0	112197632	17	4216
2026-01-29 00:13:45.66	20.50	12.56	-28.8	-30.2	14.0	6.09e-04	0	42	0	114294784	17	4234
2026-01-29 00:13:46.66	20.52	12.65	-28.7	-30.1	14.1	5.30e-06	0	42	0	116391936	17	4208
2026-01-29 00:13:47.67	20.54	12.75	-28.9	-30.5	13.8	6.64e-04	0	42	0	118489088	17	4336
2026-01-29 00:13:48.67	20.56	12.84	-28.8	-30.4	14.0	6.98e-04	0	42	0	119537664	17	4288
2026-01-29 00:13:49.68	20.58	12.94	-28.8	-30.2	14.1	5.30e-06	0	42	0	121634816	17	4252
2026-01-29 00:13:50.68	20.60	13.04	-28.8	-30.2	14.1	6.23e-04	0	42	0	123731968	17	4247
2026-01-29 00:13:51.69	20.62	13.14	-28.8	-30.2	14.1	5.36e-04	0	42	0	125829120	17	4241
2026-01-29 00:13:52.70	20.64	13.24	-28.9	-30.4	14.0	1.50e-06	0	42	0	127926272	17	4305
2026-01-29 00:13:53.69	20.67	13.33	-28.9	-30.6	13.9	3.00e-06	0	42	0	128974848	17	4361
2026-01-29 00:13:54.69	20.69	13.43	-29.0	-30.2	13.8	5.67e-04	0	42	0	131072000	18	4139
2026-01-29 00:13:55.70	20.71	13.53	-28.9	-30.6	13.4	5.30e-06	0	42	0	133169152	17	4343
2026-01-29 00:13:56.69	20.73	13.63	-28.9	-30.6	13.1	6.10e-06	0	42	0	135266304	17	4353
2026-01-29 00:13:57.70	20.75	13.73	-28.8	-30.3	14.1	3.80e-06	0	42	0	136314880	17	4266
2026-01-29 00:13:58.71	20.78	13.83	-29.1	-30.4	13.0	5.30e-06	0	42	0	138412032	18	4192
2026-01-29 00:13:59.71	20.80	13.94	-29.0	-30.7	13.7	6.52e-04	0	42	0	140509184	17	4388
2026-01-29 00:14:00.71	20.82	14.04	-29.1	-30.4	13.8	4.50e-06	0	42	0	142606336	18	4193
2026-01-29 00:14:01.72	20.84	14.14	-29.2	-30.7	13.6	5.30e-06	0	42	0	144703488	18	4290
2026-01-29 00:14:02.72	20.87	14.24	-29.1	-30.6	13.6	8.10e-04	0	42	0	145752064	18	4264
2026-01-29 00:14:03.72	20.89	14.34	-28.9	-30.0	13.9	3.00e-06	0	42	0	147849216	18	4092
2026-01-29 00:14:04.73	20.91	14.45	-28.8	-30.2	14.2	7.00e-07	0	42	0	149946368	17	4236
2026-01-29 00:14:05.73	20.94	14.55	-28.8	-30.3	14.1	8.04e-04	0	42	0	152043520	17	4256
2026-01-29 00:14:06.73	20.96	14.66	-28.8	-30.3	14.1	7.34e-04	0	43	0	154140672	17	4258
2026-01-29 00:14:07.73	20.98	14.76	-28.9	-30.4	14.1	2.20e-06	0	42	0	155189248	17	4295
2026-01-29 00:14:08.74	21.01	14.87	-28.9	-30.4	14.1	2.20e-06	0	42	0	157286400	17	4292
2026-01-29 00:14:09.74	21.03	14.97	-28.9	-30.4	14.0	8.06e-04	0	43	0	159383552	17	4285
2026-01-29 00:14:10.75	21.06	15.08	-28.9	-30.4	14.0	1.35e-03	0	43	0	161480704	17	4303
2026-01-29 00:14:11.75	21.08	15.18	-29.0	-30.7	13.9	1.50e-06	0	42	0	163577856	17	4394
2026-01-29 00:14:12.76	21.10	15.29	-29.2	-30.6	13.6	8.19e-04	0	43	0	164626432	18	4268
2026-01-29 00:14:13.76	21.13	15.40	-29.1	-30.6	13.7	1.35e-03	0	43	0	166723584	18	4249
2026-01-29 00:14:14.76	21.15	15.51	-29.1	-30.5	13.7	1.43e-03	0	43	0	168820736	18	4237
2026-01-29 00:14:15.76	21.18	15.61	-29.2	-30.8	13.6	6.80e-06	0	43	0	170917888	18	4316
2026-01-29 00:14:16.75	21.20	15.72	-29.3	-31.0	13.4	6.80e-06	0	43	0	173015040	18	4366
2026-01-29 00:14:17.76	21.23	15.83	-29.2	-30.8	13.6	1.42e-03	0	43	0	174063616	18	4304
2026-01-29 00:14:18.76	21.25	15.94	-29.1	-30.4	13.8	1.06e-05	0	43	0	176160768	18	4189
2026-01-29 00:14:19.76	21.28	16.05	-29.1	-30.5	13.7	6.10e-06	0	43	0	178257920	18	4221
2026-01-29 00:14:20.76	21.30	16.16	-29.1	-30.5	13.7	1.38e-03	0	43	0	180355072	18	4227
2026-01-29 00:14:21.76	21.33	16.27	-29.3	-31.0	13.4	1.06e-05	0	43	0	181403648	18	4369
2026-01-29 00:14:22.76	21.35	16.38	-29.3	-31.1	13.4	1.60e-05	0	43	0	183500800	18	4400
2026-01-29 00:14:23.77	21.38	16.50	-29.4	-31.2	13.3	1.52e-03	0	43	0	185597952	18	4439
2026-01-29 00:14:24.77	21.41	16.61	-29.4	-30.7	13.3	2.21e-05	0	43	0	187695104	19	4187
2026-01-29 00:14:25.78	21.43	16.72	-29.3	-31.1	13.4	4.45e-04	0	43	0	189792256	18	4397
2026-01-29 00:14:26.79	21.46	16.84	-29.4	-31.2	13.3	1.44e-05	0	43	0	190840832	18	4441
2026-01-29 00:14:27.79	21.48	16.95	-29.4	-30.8	13.3	2.13e-05	0	43	0	192937984	19	4223
2026-01-29 00:14:28.80	21.51	17.07	-29.5	-31.0	13.1	1.11e-03	0	43	0	195035136	19	4299
2026-01-29 00:14:29.80	21.54	17.18	-29.6	-31.2	13.0	3.43e-05	0	43	0	197132288	19	4355
2026-01-29 00:14:30.81	21.57	17.30	-29.5	-31.0	13.1	3.35e-05	0	43	0	199229440	19	4293
2026-01-29 00:14:31.81	21.59	17.42	-29.5	-31.0	13.2	1.04e-03	0	43	0	200278016	19	4267
2026-01-29 00:14:32.81	21.62	17.53	-29.6	-31.2	13.0	9.33e-04	0	43	0	202375168	19	4355
2026-01-29 00:14:33.82	21.65	17.65	-29.4	-30.9	13.3	2.97e-05	0	43	0	204472320	19	4235
2026-01-29 00:14:34.82	21.68	17.77	-29.6	-31.2	12.7	6.44e-04	0	43	0	206569472	19	4355
2026-01-29 00:14:35.82	21.70	17.89	-29.5	-31.0	12.9	6.44e-04	0	43	0	208666624	19	4282
2026-01-29 00:14:36.83	21.73	18.01	-29.5	-31.0	13.2	2.67e-05	0	43	0	209715200	19	4261
2026-01-29 00:14:37.83	21.76	18.13	-29.8	-31.9	12.6	6.42e-04	0	43	0	211812352	19	4555
2026-01-29 00:14:38.83	21.79	18.25	-29.8	-31.7	12.7	7.12e-04	0	43	0	213909504	19	4507
2026-01-29 00:14:39.84	21.82	18.37	-29.7	-31.6	12.8	6.48e-05	0	43	0	216006656	19	4481
2026-01-29 00:14:40.84	21.85	18.49	-29.7	-31.6	12.8	1.00e-03	0	43	0	218103808	19	4472
2026-01-29 00:14:41.84	21.88	18.61	-29.8	-31.8	12.7	6.70e-04	0	43	0	219152384	19	4523
2026-01-29 00:14:42.85	21.91	18.74	-29.9	-32.1	12.4	8.16e-05	0	43	0	221249536	19	4643
2026-01-29 00:14:43.85	21.93	18.86	-30.0	-32.4	12.3	3.03e-04	0	43	0	223346688	19	4725
2026-01-29 00:14:44.85	21.96	18.98	-29.9	-32.1	12.4	1.01e-03	0	43	0	225443840	19	4651
2026-01-29 00:14:45.86	21.99	19.11	-30.1	-32.1	12.1	2.44e-04	0	43	0	227540992	20	4569
2026-01-29 00:14:46.86	22.02	19.23	-30.2	-32.6	11.8	1.23e-03	0	43	0	228589568	20	4732
2026-01-29 00:14:47.87	22.05	19.36	-30.3	-32.8	11.6	1.85e-03	0	43	0	230686720	20	4790
2026-01-29 00:14:48.87	22.09	19.49	-30.1	-32.3	12.0	3.84e-04	0	43	0	232783872	20	4625
2026-01-29 00:14:49.88	22.12	19.62	-30.3	-32.7	11.7	1.11e-03	0	43	0	234881024	20	4762
2026-01-29 00:14:50.88	22.15	19.74	-30.2	-32.4	11.9	6.59e-04	0	43	0	236978176	20	4670
2026-01-29 00:14:51.89	22.18	19.87	-30.2	-32.4	11.8	3.09e-04	0	43	0	238026752	20	4675
2026-01-29 00:14:52.89	22.21	20.00	-30.1	-32.3	12.0	9.59e-04	0	43	0	240123904	20	4610
2026-01-29 00:14:53.89	22.24	20.13	-30.3	-32.7	11.7	5.26e-04	0	43	0	242221056	20	4768
2026-01-29 00:14:54.90	22.27	20.26	-30.1	-32.3	12.0	3.77e-04	0	43	0	244318208	20	4610
2026-01-29 00:14:55.90	22.31	20.39	-29.9	-31.7	12.4	6.85e-04	0	43	0	246415360	20	4413
2026-01-29 00:14:56.90	22.34	20.53	-29.8	-31.4	12.6	5.77e-04	0	43	0	247463936	20	4313
2026-01-29 00:14:57.91	22.37	20.66	-29.7	-31.1	12.8	8.85e-05	0	43	0	249561088	20	4218
2026-01-29 00:14:58.92	22.40	20.79	-29.9	-32.2	12.5	6.66e-04	0	43	0	251658240	19	4646
2026-01-29 00:14:59.92	22.44	20.93	-29.9	-32.0	12.7	4.31e-04	0	43	0	253755392	19	4577
2026-01-29 00:15:00.93	22.47	21.06	-30.0	-31.8	12.4	7.70e-05	0	43	0	254803968	20	4433
2026-01-29 00:15:01.93	22.50	21.20	-29.8	-31.4	12.6	2.52e-04	0	43	0	256901120	20	4308
2026-01-29 00:15:02.93	22.54	21.33	-30.0	-32.0	12.3	8.11e-04	0	43	0	258998272	20	4495
2026-01-29 00:15:03.94	22.57	21.47	-30.0	-32.0	12.2	2.26e-04	0	43	0	261095424	20	4490
2026-01-29 00:15:04.94	22.61	21.61	-30.1	-32.2	12.1	4.04e-04	0	43	0	263192576	20	4583
2026-01-29 00:15:05.95	22.64	21.75	-30.3	-32.7	11.8	6.68e-04	0	43	0	265289728	20	4761
2026-01-29 00:15:06.96	22.68	21.89	-30.2	-32.3	12.1	5.68e-04	0	43	0	266338304	20	4594
2026-01-29 00:15:07.96	22.71	22.03	-29.9	-31.6	12.6	4.65e-04	0	43	0	268435456	20	4383
2026-01-29 00:15:08.97	22.75	22.17	-29.8	-31.8	12.8	4.05e-04	0	43	0	270532608	19	4527
2026-01-29 00:15:09.98	22.78	22.31	-29.8	-31.8	12.8	4.34e-05	0	43	0	272629760	19	4532
2026-01-29 00:15:10.98	22.82	22.45	-29.8	-31.7	12.9	4.42e-04	0	43	0	273678336	19	4491
2026-01-29 00:15:11.98	22.86	22.60	-29.8	-31.7	12.9	5.05e-04	0	43	0	275775488	19	4484
2026-01-29 00:15:12.98	22.89	22.74	-29.7	-31.6	13.0	3.81e-05	0	43	0	277872640	19	4438
2026-01-29 00:15:13.98	22.93	22.89	-29.7	-31.4	13.2	1.49e-03	0	43	0	279969792	19	4378
2026-01-29 00:15:14.99	22.97	23.03	-29.6	-31.3	13.2	4.40e-04	0	43	0	282066944	19	4337
2026-01-29 00:15:15.99	23.01	23.18	-29.6	-31.3	13.2	3.43e-05	0	43	0	283115520	19	4339
2026-01-29 00:15:16.99	23.04	23.32	-29.9	-32.0	12.8	4.14e-04	0	43	0	285212672	19	4578
2026-01-29 00:15:17.99	23.08	23.47	-29.7	-31.5	13.1	3.50e-05	0	43	0	287309824	19	4411
2026-01-29 00:15:19.00	23.12	23.62	-29.6	-31.2	13.3	2.21e-05	0	43	0	289406976	19	4313
2026-01-29 00:15:20.00	23.16	23.77	-29.6	-31.1	13.3	3.46e-04	0	43	0	291504128	19	4280
2026-01-29 00:15:21.00	23.20	23.92	-29.6	-31.2	13.4	1.83e-05	0	43	0	292552704	19	4317
2026-01-29 00:15:22.00	23.24	24.07	-29.8	-31.6	12.9	2.44e-05	0	43	0	294649856	19	4455
2026-01-29 00:15:23.01	23.28	24.23	-29.6	-31.1	13.3	3.46e-04	0	43	0	296747008	19	4280
2026-01-29 00:15:24.01	23.32	24.38	-29.4	-30.6	13.7	3.11e-04	0	43	0	298844160	19	4144
2026-01-29 00:15:25.01	23.36	24.53	-29.4	-30.7	13.6	6.80e-06	0	43	0	300941312	19	4158
2026-01-29 00:15:26.01	23.40	24.69	-29.5	-31.3	13.6	2.91e-04	0	43	0	301989888	18	4445
2026-01-29 00:15:27.00	23.44	24.84	-29.4	-31.0	13.7	1.89e-04	0	43	0	304087040	18	4351
2026-01-29 00:15:28.00	23.48	25.00	-29.3	-30.7	13.9	3.80e-06	0	43	0	306184192	18	4265
2026-01-29 00:15:29.00	23.53	25.16	-29.4	-31.0	13.6	1.37e-05	0	43	0	308281344	18	4349
2026-01-29 00:15:30.01	23.57	25.32	-29.5	-30.8	13.6	1.67e-04	0	43	0	310378496	19	4186
2026-01-29 00:15:31.01	23.61	25.47	-29.6	-31.2	13.3	9.10e-06	0	43	0	311427072	19	4330
2026-01-29 00:15:32.01	23.65	25.63	-29.5	-30.9	13.5	1.06e-05	0	43	0	313524224	19	4208
2026-01-29 00:15:33.02	23.70	25.80	-29.4	-30.5	13.8	1.61e-04	0	43	0	315621376	19	4094
2026-01-29 00:15:34.02	23.74	25.96	-29.4	-30.5	13.8	3.80e-06	0	43	0	317718528	19	4099
2026-01-29 00:15:35.02	23.79	26.12	-29.6	-31.0	13.5	9.90e-06	0	43	0	318767104	19	4252
2026-01-29 00:15:36.03	23.83	26.29	-29.4	-30.7	13.6	6.10e-06	0	43	0	320864256	19	4161
2026-01-29 00:15:37.04	23.88	26.45	-29.6	-31.2	13.4	3.80e-06	0	43	0	322961408	19	4301
2026-01-29 00:15:38.04	23.92	26.62	-29.5	-30.9	13.2	7.60e-06	0	43	0	325058560	19	4230
2026-01-29 00:15:39.04	23.97	26.79	-29.4	-30.6	13.7	6.10e-06	0	43	0	327155712	19	4146
2026-01-29 00:15:40.05	24.02	26.96	-29.5	-31.2	13.6	6.80e-06	0	43	0	329252864	18	4419
2026-01-29 00:15:41.06	24.06	27.13	-29.6	-31.0	13.5	1.29e-05	0	43	0	330301440	19	4238
2026-01-29 00:15:42.06	24.11	27.30	-29.5	-30.9	13.6	1.22e-05	0	43	0	332398592	19	4209
2026-01-29 00:15:43.06	24.16	27.47	-29.5	-30.9	13.6	8.30e-06	0	43	0	334495744	19	4224
2026-01-29 00:15:44.06	24.21	27.64	-29.8	-31.7	13.1	1.83e-05	0	43	0	336592896	19	4459
2026-01-29 00:15:45.06	24.26	27.82	-29.7	-31.2	13.4	1.44e-05	0	43	0	337641472	19	4311
2026-01-29 00:15:46.07	24.31	27.99	-29.5	-30.9	13.6	1.14e-05	0	43	0	339738624	19	4218
2026-01-29 00:15:47.07	24.36	28.17	-29.8	-31.6	13.1	3.12e-05	0	43	0	341835776	19	4448
2026-01-29 00:15:48.07	24.41	28.34	-29.6	-31.2	13.4	1.98e-05	0	43	0	343932928	19	4298
2026-01-29 00:15:49.08	24.46	28.52	-29.6	-31.0	13.5	1.06e-05	0	43	0	346030080	19	4243
2026-01-29 00:15:50.08	24.51	28.70	-29.5	-30.9	13.6	9.90e-06	0	43	0	347078656	19	4208
2026-01-29 00:15:51.08	24.56	28.88	-29.4	-30.5	13.9	6.10e-06	0	43	0	349175808	19	4096
2026-01-29 00:15:52.09	24.62	29.07	-29.4	-30.5	13.8	1.98e-04	0	43	0	351272960	19	4098
2026-01-29 00:15:53.09	24.67	29.25	-29.2	-30.6	14.1	2.20e-06	0	43	0	353370112	18	4222
2026-01-29 00:15:54.09	24.72	29.43	-29.3	-30.8	14.0	3.00e-06	0	43	0	355467264	18	4267
2026-01-29 00:15:55.09	24.78	29.62	-29.3	-30.8	14.0	2.03e-04	0	43	0	356515840	18	4256
2026-01-29 00:15:56.09	24.83	29.80	-29.4	-31.0	13.9	2.57e-04	0	43	0	358612992	18	4347
2026-01-29 00:15:57.10	24.89	29.99	-29.6	-31.2	13.4	5.30e-06	0	43	0	360710144	19	4287
2026-01-29 00:15:58.11	24.94	30.18	-29.5	-30.7	13.7	5.30e-06	0	43	0	362807296	19	4147
2026-01-29 00:15:59.11	25.00	30.37	-29.6	-31.1	13.5	2.49e-04	0	43	0	364904448	19	4266
2026-01-29 00:16:00.11	25.06	30.56	-29.4	-30.6	13.9	1.29e-05	0	43	0	365953024	19	4105
2026-01-29 00:16:01.12	25.12	30.76	-29.6	-31.1	13.6	7.60e-06	0	43	0	368050176	19	4268
2026-01-29 00:16:02.12	25.17	30.95	-29.6	-31.0	13.5	2.05e-04	0	43	0	370147328	19	4236
2026-01-29 00:16:03.13	25.23	31.15	-29.6	-31.1	13.5	9.10e-06	0	43	0	372244480	19	4275
2026-01-29 00:16:04.14	25.29	31.34	-29.7	-31.3	13.4	9.10e-06	0	43	0	374341632	19	4323
2026-01-29 00:16:05.15	25.36	31.54	-29.5	-30.8	13.7	2.71e-04	0	43	0	375390208	19	4181
2026-01-29 00:16:06.15	25.42	31.74	-29.9	-31.7	13.2	1.75e-05	0	43	0	377487360	19	4465
2026-01-29 00:16:07.15	25.48	31.94	-29.8	-31.1	13.2	2.91e-04	0	43	0	379584512	20	4177
2026-01-29 00:16:08.16	25.54	32.14	-29.9	-31.8	13.1	4.73e-05	0	43	0	381681664	19	4503
2026-01-29 00:16:09.17	25.61	32.35	-30.3	-32.4	12.3	7.32e-05	0	43	0	383778816	20	4623
2026-01-29 00:16:10.17	25.67	32.55	-29.9	-31.2	13.0	3.42e-04	0	43	0	384827392	20	4228
2026-01-29 00:16:11.18	25.74	32.76	-30.2	-32.1	12.5	7.85e-05	0	43	0	386924544	20	4516
2026-01-29 00:16:12.18	25.80	32.97	-30.2	-32.4	12.3	1.83e-04	0	43	0	389021696	20	4597
2026-01-29 00:16:13.18	25.87	33.17	-29.9	-31.4	13.0	1.59e-04	0	43	0	391118848	20	4275
2026-01-29 00:16:14.18	25.94	33.38	-30.3	-32.6	12.1	8.62e-05	0	43	0	392167424	20	4696
2026-01-29 00:16:15.19	26.00	33.60	-30.3	-32.1	11.9	2.59e-04	0	43	0	394264576	21	4426
2026-01-29 00:16:16.19	26.07	33.81	-30.4	-32.3	12.0	3.42e-04	0	43	0	396361728	21	4494
2026-01-29 00:16:17.20	26.14	34.02	-30.5	-32.6	11.8	3.14e-04	0	43	0	398458880	21	4586
2026-01-29 00:16:18.19	26.21	34.24	-30.5	-32.7	11.7	3.73e-04	0	43	0	400556032	21	4610
2026-01-29 00:16:19.20	26.29	34.46	-30.4	-32.2	12.1	5.53e-04	0	43	0	402653184	21	4432
2026-01-29 00:16:20.20	26.36	34.67	-30.3	-32.1	12.3	2.59e-04	0	43	0	403701760	21	4411
2026-01-29 00:16:21.20	26.43	34.89	-30.6	-32.8	11.8	2.76e-04	0	43	0	405798912	21	4649
2026-01-29 00:16:22.21	26.51	35.12	-30.6	-32.8	11.8	4.55e-04	0	43	0	407896064	21	4643
2026-01-29 00:16:23.21	26.58	35.34	-30.6	-33.0	11.7	4.29e-04	0	43	0	409993216	21	4741
2026-01-29 00:16:24.21	26.66	35.56	-30.6	-32.8	11.8	4.03e-04	0	43	0	411041792	21	4662
2026-01-29 00:16:25.22	26.74	35.79	-30.5	-32.5	12.0	3.45e-04	0	43	0	413138944	21	4528
2026-01-29 00:16:26.22	26.82	36.02	-30.5	-32.5	11.9	3.30e-04	0	43	0	415236096	21	4553
2026-01-29 00:16:27.22	26.89	36.25	-30.3	-31.9	12.3	5.00e-04	0	43	0	417333248	21	4344
2026-01-29 00:16:28.23	26.98	36.48	-30.4	-32.2	12.2	2.76e-04	0	43	0	419430400	21	4434
2026-01-29 00:16:29.23	27.06	36.71	-30.4	-32.4	12.0	3.87e-04	0	43	0	420478976	21	4502
2026-01-29 00:16:30.23	27.14	36.95	-30.4	-32.2	12.1	4.03e-04	0	43	0	422576128	21	4452
2026-01-29 00:16:31.23	27.22	37.18	-30.7	-33.0	11.6	4.11e-04	0	43	0	424673280	21	4714
2026-01-29 00:16:32.24	27.31	37.42	-30.6	-32.9	11.7	8.45e-04	0	43	0	426770432	21	4687
2026-01-29 00:16:33.24	27.40	37.66	-30.6	-32.8	11.8	5.94e-04	0	43	0	428867584	21	4622
2026-01-29 00:16:34.25	27.48	37.90	-30.3	-31.9	12.4	1.67e-04	0	43	0	429916160	21	4337
2026-01-29 00:16:35.26	27.57	38.15	-30.1	-31.5	12.7	5.34e-05	0	43	0	432013312	21	4204
2026-01-29 00:16:36.26	27.66	38.39	-30.3	-31.8	12.4	6.94e-05	0	44	0	434110464	21	4298
2026-01-29 00:16:37.27	27.76	38.64	-30.4	-32.3	12.1	2.32e-04	0	43	0	436207616	21	4483
2026-01-29 00:16:38.28	27.85	38.89	-30.6	-33.0	11.6	3.94e-04	0	43	0	438304768	21	4710
2026-01-29 00:16:39.28	27.94	39.14	-30.8	-33.3	11.5	8.23e-04	0	43	0	439353344	21	4836
2026-01-29 00:16:40.29	28.04	39.39	-31.1	-33.8	10.7	1.60e-03	0	43	0	441450496	22	4937
2026-01-29 00:16:41.29	28.14	39.64	-31.2	-34.2	10.4	3.18e-03	0	43	0	443547648	22	5107
2026-01-29 00:16:42.29	28.24	39.90	-31.3	-34.7	10.1	5.51e-03	0	43	0	445644800	22	5329
2026-01-29 00:16:43.29	28.33	40.15	-31.3	-34.2	10.1	1.27e-02	0	43	0	447741952	23	4994
2026-01-29 00:16:44.29	28.44	40.41	-31.4	-34.5	9.9	1.14e-02	0	43	0	448790528	23	5109
2026-01-29 00:16:45.30	28.54	40.67	-31.5	-34.9	9.6	7.67e-03	0	43	0	450887680	23	5313
2026-01-29 00:16:46.30	28.64	40.93	-31.4	-34.5	9.9	7.26e-03	0	43	0	452984832	23	5120
2026-01-29 00:16:47.31	28.75	41.20	-31.2	-33.8	10.4	5.61e-03	0	43	0	455081984	23	4852
2026-01-29 00:16:48.31	28.86	41.46	-31.2	-33.7	10.5	3.10e-03	0	43	0	457179136	23	4806
2026-01-29 00:16:49.31	28.97	41.73	-31.2	-33.6	10.5	3.04e-03	0	43	0	458227712	23	4754
2026-01-29 00:16:50.31	29.08	42.00	-30.9	-32.7	11.2	3.64e-03	0	43	0	460324864	23	4436
2026-01-29 00:16:51.31	29.19	42.27	-30.6	-32.2	11.9	5.46e-04	0	43	0	462422016	22	4335
2026-01-29 00:16:52.31	29.31	42.54	-30.5	-32.1	12.0	2.77e-04	0	43	0	464519168	22	4292
2026-01-29 00:16:53.32	29.43	42.82	-30.4	-31.7	12.2	6.78e-04	0	43	0	465567744	22	4185
2026-01-29 00:16:54.32	29.55	43.09	-30.1	-31.2	12.9	7.01e-05	0	43	0	467664896	21	4103
2026-01-29 00:16:55.33	29.67	43.37	-29.9	-30.8	13.3	8.46e-05	0	43	0	469762048	21	3988
2026-01-29 00:16:56.34	29.79	43.66	-30.0	-31.0	13.2	3.35e-05	0	43	0	471859200	21	4043
2026-01-29 00:16:57.34	29.92	43.94	-30.2	-31.7	12.6	6.33e-05	0	43	0	473956352	21	4269
2026-01-29 00:16:58.34	30.04	44.22	-30.5	-32.6	12.1	1.01e-04	0	43	0	475004928	21	4556
2026-01-29 00:16:59.34	30.17	44.51	-30.5	-32.5	12.0	5.84e-04	0	43	0	477102080	21	4514
2026-01-29 00:17:00.34	30.30	44.80	-30.7	-33.1	11.6	3.56e-04	0	43	0	479199232	21	4751
2026-01-29 00:17:01.34	30.44	45.09	-30.8	-33.5	11.4	4.72e-04	0	43	0	481296384	21	4902
2026-01-29 00:17:02.34	30.57	45.38	-30.9	-33.0	11.4	1.08e-03	0	43	0	483393536	22	4633
2026-01-29 00:17:03.34	30.71	45.67	-31.1	-33.7	11.0	6.32e-04	0	43	0	484442112	22	4853
2026-01-29 00:17:04.34	30.86	45.97	-30.9	-33.2	11.3	1.21e-03	0	43	0	486539264	22	4687
2026-01-29 00:17:05.34	31.00	46.26	-30.7	-32.6	11.7	7.42e-04	0	43	0	488636416	22	4467
2026-01-29 00:17:06.35	31.15	46.57	-30.7	-32.7	11.7	7.87e-04	0	43	0	490733568	22	4495
2026-01-29 00:17:07.35	31.30	46.87	-30.7	-32.7	11.7	5.77e-04	0	43	0	492830720	22	4495
2026-01-29 00:17:08.36	31.45	47.17	-30.8	-33.5	11.4	4.80e-04	0	43	0	493879296	21	4880
2026-01-29 00:17:09.36	31.61	47.48	-31.1	-33.9	10.8	4.43e-03	0	43	0	495976448	22	4930
2026-01-29 00:17:10.36	31.76	47.79	-31.4	-34.7	10.3	3.63e-03	0	43	0	498073600	22	5290
2026-01-29 00:17:11.36	31.93	48.10	-31.6	-35.1	9.5	1.23e-02	0	43	0	500170752	23	5356
2026-01-29 00:17:12.37	32.09	48.41	-31.5	-34.8	9.8	1.17e-02	0	43	0	502267904	23	5252
2026-01-29 00:17:13.36	32.26	48.72	-31.1	-33.4	10.8	5.50e-03	0	43	0	503316480	23	4674
2026-01-29 00:17:14.37	32.43	49.04	-30.5	-32.0	12.1	7.09e-04	0	43	0	505413632	22	4258
2026-01-29 00:17:15.37	32.61	49.36	-30.2	-31.6	12.7	1.42e-04	0	43	0	507510784	21	4214
2026-01-29 00:17:16.37	32.78	49.68	-30.1	-31.3	13.0	3.20e-05	0	43	0	509607936	21	4145
2026-01-29 00:17:17.38	32.97	50.00	-30.2	-32.1	12.8	7.01e-05	0	43	0	510656512	20	4484
2026-01-29 00:17:18.38	33.15	50.33	-29.7	-30.7	13.7	1.37e-05	0	43	0	512753664	20	4045
2026-01-29 00:17:19.39	33.35	50.65	-29.8	-31.0	13.4	1.87e-04	0	43	0	514850816	20	4140
2026-01-29 00:17:20.39	33.54	50.98	-29.4	-30.3	14.3	3.00e-06	0	43	0	516947968	19	4013
2026-01-29 00:17:21.40	33.74	51.31	-29.1	-29.6	14.7	7.00e-07	0	43	0	519045120	19	3821
2026-01-29 00:17:22.40	33.94	51.65	-29.0	-29.8	15.0	7.00e-07	0	43	0	521142272	18	3953
2026-01-29 00:17:23.40	34.15	51.98	-29.1	-30.1	14.8	0.00e+00	0	43	0	522190848	18	4034
2026-01-29 00:17:24.41	34.36	52.32	-29.2	-30.3	14.7	0.00e+00	0	43	0	524288000	18	4089
2026-01-29 00:17:25.41	34.58	52.66	-28.7	-29.0	15.4	0.00e+00	0	43	0	526385152	18	3747
2026-01-29 00:17:26.42	34.80	53.00	-28.4	-28.8	15.8	7.00e-07	0	43	0	528482304	17	3785
2026-01-29 00:17:27.42	35.03	53.34	-27.7	-27.8	16.6	0.00e+00	0	43	0	529530880	16	3623
2026-01-29 00:17:28.43	35.26	53.69	-27.6	-28.1	16.7	0.00e+00	0	43	0	531628032	15	3796
2026-01-29 00:17:29.44	35.50	54.03	-27.3	-27.4	17.0	0.00e+00	0	43	0	533725184	15	3637
2026-01-29 00:17:30.45	35.75	54.38	-27.5	-27.8	16.8	2.37e-04	0	43	0	535822336	15	3720
2026-01-29 00:17:31.45	36.00	54.73	-27.1	-27.0	17.2	0.00e+00	0	43	0	537919488	15	3524
2026-01-29 00:17:32.46	36.26	55.09	-26.9	-26.3	17.6	0.00e+00	0	43	0	538968064	15	3388
2026-01-29 00:17:33.46	36.52	55.44	-26.7	-26.4	17.8	2.86e-04	0	43	0	541065216	14	3500
2026-01-29 00:17:34.46	36.79	55.79	-26.9	-27.4	17.6	2.13e-05	0	43	0	543162368	13	3825
2026-01-29 00:17:35.46	37.06	56.15	-26.8	-27.2	17.7	0.00e+00	0	43	0	545259520	13	3761
2026-01-29 00:17:36.46	37.34	56.51	-27.0	-27.5	17.4	2.78e-04	0	43	0	547356672	13	3850
2026-01-29 00:17:37.46	37.63	56.87	-26.9	-26.9	17.6	3.43e-04	0	43	0	548405248	14	3611
2026-01-29 00:17:38.46	37.93	57.23	-26.9	-27.0	17.4	0.00e+00	0	43	0	550502400	14	3632
2026-01-29 00:17:39.47	38.24	57.59	-27.0	-27.1	17.5	0.00e+00	0	43	0	552599552	14	3657
2026-01-29 00:17:40.47	38.55	57.96	-27.0	-27.2	17.5	3.54e-04	0	44	0	554696704	14	3668
2026-01-29 00:17:41.47	38.87	58.32	-27.1	-27.3	17.4	0.00e+00	0	43	0	556793856	14	3702
2026-01-29 00:17:42.48	39.21	58.69	-26.9	-27.3	17.6	0.00e+00	0	43	0	557842432	13	3796
2026-01-29 00:17:43.49	39.55	59.06	-27.7	-28.3	16.7	2.75e-04	0	43	0	559939584	15	3836
2026-01-29 00:17:44.49	39.90	59.43	-28.6	-29.3	15.7	0.00e+00	0	44	0	562036736	17	3910
2026-01-29 00:17:45.50	40.26	59.81	-28.6	-29.4	15.6	0.00e+00	0	43	0	564133888	17	3929
2026-01-29 00:17:46.51	40.64	60.18	-28.0	-28.0	16.4	3.89e-05	0	43	0	566231040	17	3584
2026-01-29 00:17:47.51	41.02	60.56	-27.3	-26.7	17.4	0.00e+00	0	43	0	567279616	16	3370
2026-01-29 00:17:48.51	41.41	60.93	-27.1	-26.8	17.4	8.31e-05	0	43	0	569376768	15	3476
2026-01-29 00:17:49.51	41.81	61.31	-27.3	-27.7	17.2	0.00e+00	0	44	0	571473920	14	3803
2026-01-29 00:17:50.52	42.23	61.69	-27.1	-27.3	17.4	7.00e-07	0	43	0	573571072	14	3704
2026-01-29 00:17:51.52	42.66	62.06	-27.1	-27.4	17.5	5.48e-04	0	43	0	575668224	14	3714
2026-01-29 00:17:52.52	43.10	62.44	-27.2	-27.6	17.3	5.84e-04	0	43	0	576716800	14	3779
2026-01-29 00:17:53.52	43.56	62.82	-26.7	-26.4	17.9	0.00e+00	0	43	0	578813952	14	3492
2026-01-29 00:17:54.53	44.03	63.20	-26.4	-26.3	18.2	5.98e-04	0	43	0	580911104	13	3560
2026-01-29 00:17:55.53	44.52	63.58	-26.4	-26.3	18.3	7.02e-04	0	43	0	583008256	13	3552
2026-01-29 00:17:56.54	45.03	63.96	-26.6	-26.6	18.0	0.00e+00	0	43	0	584056832	13	3625
2026-01-29 00:17:57.54	45.54	64.34	-26.8	-27.1	17.8	9.81e-04	0	43	0	586153984	13	3740
2026-01-29 00:17:58.55	46.09	64.73	-26.5	-26.5	18.2	9.73e-04	0	43	0	588251136	13	3593
2026-01-29 00:17:59.55	46.64	65.11	-26.2	-25.8	18.6	0.00e+00	0	43	0	590348288	13	3433
2026-01-29 00:18:00.55	47.21	65.48	-26.3	-26.5	18.5	1.21e-03	0	43	0	592445440	12	3688
2026-01-29 00:18:01.56	47.81	65.87	-27.0	-27.6	17.6	1.23e-03	0	43	0	594542592	13	3847
2026-01-29 00:18:02.57	48.43	66.25	-27.9	-28.6	16.5	0.00e+00	0	43	0	595591168	15	3920
2026-01-29 00:18:03.57	49.07	66.63	-28.5	-28.9	15.9	1.04e-04	0	43	0	597688320	17	3807
2026-01-29 00:18:04.58	49.73	67.01	-28.6	-29.4	15.7	1.31e-03	0	43	0	599785472	17	3923
2026-01-29 00:18:05.59	50.42	67.39	-29.1	-29.9	15.1	1.50e-06	0	43	0	601882624	18	3976
2026-01-29 00:18:06.59	51.13	67.76	-29.1	-30.0	15.0	1.83e-05	0	43	0	603979776	18	3993
2026-01-29 00:18:07.59	51.86	68.13	-29.3	-30.6	14.7	4.87e-04	0	43	0	605028352	18	4153
2026-01-29 00:18:08.59	52.63	68.50	-29.7	-31.0	14.2	1.50e-06	0	44	0	607125504	19	4171
2026-01-29 00:18:09.60	53.42	68.88	-29.8	-31.2	14.0	4.45e-04	0	43	0	609222656	19	4237
2026-01-29 00:18:10.61	54.25	69.25	-30.1	-31.6	13.4	1.88e-04	0	43	0	611319808	20	4269
2026-01-29 00:18:11.61	55.11	69.61	-30.3	-32.1	13.0	3.73e-05	0	43	0	612368384	20	4460
2026-01-29 00:18:12.61	55.99	69.97	-30.7	-32.9	12.3	2.40e-04	0	43	0	614465536	21	4622
2026-01-29 00:18:13.62	56.92	70.33	-30.6	-32.6	12.5	4.12e-04	0	43	0	616562688	21	4502
2026-01-29 00:18:14.62	57.88	70.69	-31.3	-34.0	11.2	6.38e-04	0	43	0	618659840	22	4937
2026-01-29 00:18:15.62	58.87	71.04	-31.2	-33.7	11.3	2.86e-03	0	43	0	620756992	22	4822
2026-01-29 00:18:16.62	59.91	71.38	-31.6	-34.7	10.2	5.00e-03	0	43	0	621805568	23	5142
2026-01-29 00:18:17.62	60.98	71.72	-31.5	-34.3	10.6	3.06e-03	0	43	0	623902720	23	4971
2026-01-29 00:18:18.63	62.11	72.06	-31.0	-33.1	11.6	2.67e-03	0	43	0	625999872	22	4597
2026-01-29 00:18:19.63	63.27	72.39	-31.0	-33.0	11.8	2.24e-03	0	43	0	628097024	22	4570
2026-01-29 00:18:20.64	64.49	72.72	-30.8	-32.6	12.3	2.04e-04	0	44	0	630194176	22	4418
2026-01-29 00:18:21.64	65.75	73.03	-30.5	-32.2	12.8	1.44e-04	0	43	0	631242752	21	4365
2026-01-29 00:18:22.64	67.06	73.34	-30.4	-32.0	12.9	1.09e-03	0	43	0	633339904	21	4307
2026-01-29 00:18:23.64	68.41	73.65	-30.3	-31.7	13.1	3.66e-05	0	43	0	635437056	21	4205
2026-01-29 00:18:24.65	69.84	73.94	-29.4	-29.7	14.7	0.00e+00	0	43	0	637534208	20	3720
2026-01-29 00:18:25.65	71.30	74.23	-29.5	-30.5	14.5	0.00e+00	0	43	0	639631360	19	4038
2026-01-29 00:18:26.66	72.84	74.51	-30.2	-31.9	13.3	3.80e-06	0	43	0	640679936	20	4363
2026-01-29 00:18:27.65	74.40	74.77	-30.4	-32.0	13.0	4.80e-05	0	43	0	642777088	21	4292
2026-01-29 00:18:28.66	76.05	75.03	-30.3	-31.7	13.1	3.00e-04	0	43	0	644874240	21	4226
2026-01-29 00:18:29.67	77.76	75.27	-30.3	-31.5	13.2	1.75e-05	0	43	0	646971392	21	4165
2026-01-29 00:18:30.67	79.51	75.50	-30.4	-32.0	12.9	4.88e-05	0	43	0	649068544	21	4302
2026-01-29 00:18:31.68	81.33	75.72	-30.6	-32.0	12.6	1.04e-04	0	43	0	650117120	22	4238
2026-01-29 00:18:32.67	83.18	75.92	-31.0	-33.2	11.8	5.41e-04	0	43	0	652214272	22	4630
2026-01-29 00:18:33.67	85.09	76.11	-30.7	-32.3	12.4	4.57e-04	0	43	0	654311424	22	4301
2026-01-29 00:18:34.68	87.08	76.28	-30.8	-32.9	12.4	2.89e-05	0	43	0	656408576	21	4592
2026-01-29 00:18:35.69	89.12	76.44	-30.7	-32.8	12.5	1.76e-04	0	43	0	658505728	21	4555
2026-01-29 00:18:36.70	91.20	76.59	-30.9	-33.2	12.2	1.01e-04	0	43	0	659554304	21	4692
2026-01-29 00:18:37.70	93.31	76.71	-31.0	-33.0	11.9	5.32e-04	0	43	0	661651456	22	4544
2026-01-29 00:18:38.70	95.46	76.82	-30.9	-32.7	12.1	2.94e-04	0	43	0	663748608	22	4436
2026-01-29 00:18:39.71	97.66	76.91	-30.9	-32.7	12.2	2.59e-04	0	43	0	665845760	22	4445
2026-01-29 00:18:40.71	99.86	76.97	-31.8	-35.4	10.0	6.49e-03	0	43	0	667942912	23	5408
2026-01-29 00:18:41.71	102.09	77.03	-31.8	-34.8	9.9	1.13e-02	0	43	0	668991488	24	5079
2026-01-29 00:18:42.72	104.35	77.06	-31.3	-33.2	11.1	3.78e-03	0	43	0	671088640	24	4440
2026-01-29 00:18:43.72	106.60	77.07	-31.1	-32.9	11.7	7.02e-04	0	43	0	673185792	23	4422
2026-01-29 00:18:44.73	108.87	77.06	-31.3	-33.6	11.2	9.51e-04	0	43	0	675282944	23	4687
2026-01-29 00:18:45.73	111.12	77.03	-31.1	-32.7	11.8	5.64e-04	0	43	0	676331520	23	4361
2026-01-29 00:18:46.73	113.35	76.99	-30.7	-32.2	12.5	2.89e-04	0	43	0	678428672	22	4278
2026-01-29 00:18:47.74	115.58	76.92	-31.2	-33.8	11.4	4.33e-04	0	43	0	680525824	22	4840
2026-01-29 00:18:48.75	117.79	76.84	-32.2	-36.1	8.9	9.60e-03	0	43	0	682622976	24	5685
2026-01-29 00:18:49.75	119.95	76.74	-32.3	-36.0	8.5	6.27e-02	0	43	0	684720128	25	5502
2026-01-29 00:18:50.76	122.08	76.62	-31.8	-34.6	10.2	9.09e-03	0	44	0	686817280	24	4969
2026-01-29 00:18:51.76	124.16	76.48	-32.2	-36.0	8.8	1.56e-02	0	43	0	687865856	24	5586
2026-01-29 00:18:52.77	126.21	76.32	-32.2	-36.2	8.9	3.16e-02	0	43	0	689963008	24	5710
2026-01-29 00:18:53.77	128.19	76.15	-32.1	-35.9	9.1	1.51e-02	0	43	0	692060160	24	5554
2026-01-29 00:18:54.77	130.12	75.97	-32.8	-38.3	6.9	7.62e-02	0	43	0	694157312	25	6805
2026-01-29 00:18:55.78	132.02	75.77	-32.5	-37.1	7.7	1.04e-01	0	44	0	695205888	25	6084
2026-01-29 00:18:56.78	133.84	75.55	-31.6	-34.0	10.5	3.51e-02	0	43	0	697303040	24	4761
2026-01-29 00:18:57.79	135.62	75.32	-31.9	-34.9	9.9	4.43e-03	0	43	0	699400192	24	5108
2026-01-29 00:18:58.80	137.34	75.08	-32.6	-37.4	7.5	4.84e-02	0	43	0	701497344	25	6265
2026-01-29 00:18:59.80	138.99	74.83	-32.2	-35.7	8.8	6.05e-02	0	43	0	703594496	25	5414
2026-01-29 00:19:00.81	140.59	74.56	-32.0	-35.3	9.0	2.31e-02	0	43	0	704643072	25	5262
2026-01-29 00:19:01.81	142.13	74.29	-32.2	-36.0	8.5	4.19e-02	0	43	0	706740224	25	5566
2026-01-29 00:19:02.81	143.61	74.01	-31.8	-34.8	9.9	2.81e-02	0	43	0	708837376	24	5093
2026-01-29 00:19:03.82	145.04	73.71	-31.2	-33.2	11.4	3.37e-03	0	43	0	710934528	23	4538
2026-01-29 00:19:04.82	146.41	73.41	-30.8	-32.4	12.3	2.27e-04	0	43	0	713031680	22	4352
2026-01-29 00:19:05.82	147.73	73.10	-30.5	-31.6	12.8	4.27e-05	0	43	0	714080256	22	4092
2026-01-29 00:19:06.83	149.01	72.78	-30.9	-33.0	11.9	6.63e-05	0	43	0	716177408	22	4551
2026-01-29 00:19:07.83	150.23	72.46	-31.6	-34.7	10.3	3.54e-03	0	43	0	718274560	23	5136
2026-01-29 00:19:08.84	151.42	72.13	-30.7	-32.2	12.3	6.08e-04	0	43	0	720371712	22	4274
2026-01-29 00:19:09.84	152.55	71.79	-31.4	-34.4	10.9	3.03e-04	0	43	0	722468864	22	5113
2026-01-29 00:19:10.85	153.64	71.45	-32.3	-37.0	8.1	4.11e-02	0	43	0	723517440	24	6141
2026-01-29 00:19:11.85	154.69	71.10	-31.8	-35.1	10.0	3.81e-02	0	43	0	725614592	23	5302
2026-01-29 00:19:12.85	155.69	70.75	-31.2	-33.6	11.5	3.27e-03	0	43	0	727711744	22	4789
2026-01-29 00:19:13.85	156.65	70.40	-31.0	-33.2	11.7	1.29e-03	0	43	0	729808896	22	4655
2026-01-29 00:19:14.86	157.59	70.04	-30.6	-32.5	12.5	6.18e-04	0	43	0	731906048	21	4498
2026-01-29 00:19:15.86	158.49	69.68	-30.5	-32.7	12.8	1.65e-04	0	43	0	732954624	20	4628
2026-01-29 00:19:16.86	159.35	69.32	-30.5	-32.1	12.8	9.76e-05	0	43	0	735051776	21	4358
2026-01-29 00:19:17.86	160.17	68.95	-30.0	-31.4	13.7	5.26e-04	0	43	0	737148928	20	4217
2026-01-29 00:19:18.87	160.98	68.58	-30.0	-31.3	13.5	2.59e-04	0	43	0	739246080	20	4200
2026-01-29 00:19:19.87	161.75	68.21	-30.0	-31.3	13.7	4.50e-06	0	43	0	741343232	20	4199
2026-01-29 00:19:20.87	162.49	67.83	-30.3	-32.1	13.0	2.76e-04	0	43	0	742391808	20	4444
2026-01-29 00:19:21.87	163.20	67.46	-29.4	-29.6	14.6	1.85e-04	0	43	0	744488960	20	3719
2026-01-29 00:19:22.87	163.89	67.08	-29.0	-29.7	15.4	0.00e+00	0	44	0	746586112	18	3913
2026-01-29 00:19:23.87	164.56	66.70	-29.9	-31.6	13.8	0.00e+00	0	43	0	748683264	19	4358
2026-01-29 00:19:24.88	165.20	66.32	-29.4	-29.7	14.4	3.00e-06	0	44	0	749731840	20	3737
2026-01-29 00:19:25.89	165.83	65.94	-28.0	-27.8	16.6	0.00e+00	0	43	0	751828992	17	3522
2026-01-29 00:19:26.89	166.43	65.56	-27.8	-27.8	16.9	0.00e+00	0	44	0	753926144	16	3613
2026-01-29 00:19:27.90	167.01	65.18	-27.8	-28.0	16.7	0.00e+00	0	43	0	756023296	16	3671
2026-01-29 00:19:28.91	167.58	64.79	-26.7	-26.4	18.0	0.00e+00	0	43	0	758120448	14	3472
2026-01-29 00:19:29.90	168.11	64.42	-26.1	-25.7	18.6	0.00e+00	0	43	0	760217600	13	3414
2026-01-29 00:19:30.91	168.64	64.03	-26.1	-25.7	18.6	0.00e+00	0	43	0	761266176	13	3413
2026-01-29 00:19:31.91	169.14	63.65	-26.5	-26.6	18.2	0.00e+00	0	43	0	763363328	13	3608
2026-01-29 00:19:32.91	169.63	63.27	-26.5	-26.4	18.2	0.00e+00	0	44	0	765460480	13	3560
2026-01-29 00:19:33.91	170.11	62.89	-27.1	-27.4	17.5	0.00e+00	0	44	0	767557632	14	3720
2026-01-29 00:19:34.91	170.57	62.51	-27.7	-28.2	16.8	0.00e+00	0	43	0	768606208	15	3809
2026-01-29 00:19:35.91	171.01	62.13	-28.7	-29.6	15.6	0.00e+00	0	43	0	770703360	17	3974
2026-01-29 00:19:36.91	171.45	61.75	-28.6	-29.3	15.7	0.00e+00	0	44	0	772800512	17	3910
2026-01-29 00:19:37.91	171.87	61.38	-28.5	-29.1	15.9	0.00e+00	0	43	0	774897664	17	3841
2026-01-29 00:19:38.91	172.27	61.00	-29.2	-30.2	15.0	3.80e-06	0	44	0	776994816	18	4051
2026-01-29 00:19:39.91	172.67	60.63	-29.9	-31.6	13.8	7.00e-07	0	43	0	778043392	19	4381
2026-01-29 00:19:40.91	173.05	60.25	-29.9	-31.1	13.9	3.80e-06	0	43	0	780140544	20	4131
2026-01-29 00:19:41.92	173.43	59.87	-30.3	-32.3	12.9	1.06e-05	0	43	0	782237696	20	4516
2026-01-29 00:19:42.92	173.79	59.50	-30.3	-32.1	13.1	2.36e-05	0	43	0	784334848	20	4436
2026-01-29 00:19:43.92	174.14	59.13	-30.1	-31.6	13.3	3.43e-05	0	43	0	786432000	20	4293
2026-01-29 00:19:44.92	174.48	58.76	-28.8	-28.7	15.5	0.00e+00	0	43	0	787480576	19	3559
2026-01-29 00:19:45.93	174.82	58.39	-28.7	-29.0	15.6	0.00e+00	0	43	0	789577728	18	3721
2026-01-29 00:19:46.93	175.14	58.02	-29.4	-30.7	14.6	0.00e+00	0	44	0	791674880	18	4195
2026-01-29 00:19:47.92	175.46	57.66	-29.8	-31.2	13.9	1.50e-06	0	43	0	793772032	19	4260
2026-01-29 00:19:48.93	175.77	57.29	-28.9	-29.0	15.4	0.00e+00	0	43	0	794820608	19	3655
2026-01-29 00:19:49.93	176.07	56.93	-28.1	-28.1	16.4	0.00e+00	0	43	0	796917760	17	3597
2026-01-29 00:19:50.93	176.36	56.57	-27.1	-26.8	17.5	0.00e+00	0	43	0	799014912	15	3494
2026-01-29 00:19:51.94	176.64	56.21	-27.0	-26.6	17.6	0.00e+00	0	43	0	801112064	15	3445
2026-01-29 00:19:52.94	176.92	55.85	-27.1	-26.8	17.4	0.00e+00	0	44	0	803209216	15	3482
2026-01-29 00:19:53.95	177.19	55.49	-28.4	-29.4	15.9	0.00e+00	0	43	0	805306368	16	4035
2026-01-29 00:19:54.95	177.46	55.14	-29.7	-31.0	13.9	0.00e+00	0	43	0	806354944	19	4208
2026-01-29 00:19:55.96	177.72	54.78	-29.3	-30.1	14.6	0.00e+00	0	43	0	808452096	19	3941
2026-01-29 00:19:56.96	177.97	54.43	-28.6	-28.7	15.7	2.37e-04	0	43	0	810549248	18	3671
2026-01-29 00:19:57.97	178.21	54.08	-28.4	-28.8	16.0	2.75e-04	0	43	0	812646400	17	3781
2026-01-29 00:19:58.98	178.46	53.73	-29.2	-30.4	14.7	0.00e+00	0	44	0	813694976	18	4105
2026-01-29 00:19:59.98	178.69	53.39	-29.1	-30.0	14.9	0.00e+00	0	43	0	815792128	18	4012
2026-01-29 00:20:00.99	178.92	53.04	-28.8	-29.3	15.3	1.56e-04	0	43	0	817889280	18	3820
2026-01-29 00:20:01.99	179.14	52.70	-29.2	-30.3	14.7	0.00e+00	0	43	0	819986432	18	4101
2026-01-29 00:20:03.00	179.36	52.36	-30.3	-32.4	12.7	8.30e-06	0	43	0	822083584	20	4579
2026-01-29 00:20:04.00	179.58	52.02	-31.1	-33.7	11.1	4.09e-04	0	43	0	823132160	22	4857
2026-01-29 00:20:05.01	179.79	51.68	-31.5	-35.0	10.2	3.52e-03	0	43	0	825229312	22	5409
2026-01-29 00:20:06.01	179.99	51.35	-31.1	-33.1	11.1	2.96e-03	0	43	0	827326464	23	4550
2026-01-29 00:20:07.01	180.19	51.02	-30.4	-31.6	12.5	6.14e-04	0	43	0	829423616	22	4140
2026-01-29 00:20:08.01	180.38	50.69	-30.3	-31.9	12.7	8.08e-05	0	43	0	831520768	21	4306
2026-01-29 00:20:09.01	180.57	50.36	-30.0	-31.0	13.2	2.59e-05	0	43	0	832569344	21	4038
2026-01-29 00:20:10.02	180.76	50.03	-29.9	-31.3	13.4	1.52e-05	0	43	0	834666496	20	4214
2026-01-29 00:20:11.02	180.95	49.71	-29.7	-30.8	13.7	3.00e-06	0	43	0	836763648	20	4060
2026-01-29 00:20:12.02	181.13	49.39	-30.3	-32.2	12.8	4.65e-05	0	43	0	838860800	20	4494
2026-01-29 00:20:13.03	181.30	49.07	-30.8	-33.1	11.9	1.55e-04	0	43	0	840957952	21	4712
2026-01-29 00:20:14.03	181.47	48.75	-31.4	-34.5	10.6	6.14e-04	0	44	0	842006528	22	5172
2026-01-29 00:20:15.04	181.65	48.43	-31.2	-34.0	10.9	3.52e-03	0	43	0	844103680	22	4977
2026-01-29 00:20:16.05	181.81	48.11	-31.1	-33.7	11.1	1.95e-03	0	43	0	846200832	22	4851
2026-01-29 00:20:17.05	181.97	47.80	-30.5	-31.9	12.3	6.47e-04	0	43	0	848297984	22	4230
2026-01-29 00:20:18.06	182.13	47.49	-30.2	-31.4	13.0	8.54e-05	0	44	0	850395136	21	4143
2026-01-29 00:20:19.06	182.29	47.18	-31.4	-34.5	10.5	1.25e-03	0	43	0	851443712	22	5175
2026-01-29 00:20:20.07	182.45	46.88	-31.9	-35.8	9.1	6.77e-03	0	44	0	853540864	23	5671
2026-01-29 00:20:21.07	182.60	46.57	-32.7	-38.8	6.2	7.55e-02	0	43	0	855638016	25	7219
2026-01-29 00:20:22.07	182.74	46.27	-33.1	-40.7	4.8	6.47e-01	0	43	0	857735168	26	8702
2026-01-29 00:20:23.08	182.89	45.97	-32.9	-39.8	5.1	7.97e-01	0	43	0	859832320	26	7903
2026-01-29 00:20:24.08	183.03	45.67	-32.2	-36.3	7.9	2.85e-01	0	43	0	860880896	25	5761
2026-01-29 00:20:25.09	183.17	45.38	-32.0	-35.9	8.7	3.76e-02	0	43	0	862978048	24	5644
2026-01-29 00:20:26.09	183.31	45.08	-31.7	-34.8	9.4	2.33e-02	0	44	0	865075200	24	5123
2026-01-29 00:20:27.10	183.44	44.79	-31.5	-33.9	10.1	5.69e-03	0	44	0	867172352	24	4768
2026-01-29 00:20:28.10	183.58	44.50	-31.5	-33.8	10.2	5.60e-03	0	43	0	869269504	24	4737
2026-01-29 00:20:29.10	183.71	44.21	-31.2	-33.5	10.8	2.81e-03	0	43	0	870318080	23	4700
2026-01-29 00:20:30.11	183.83	43.92	-31.1	-33.2	11.1	2.51e-03	0	43	0	872415232	23	4563
2026-01-29 00:20:31.11	183.96	43.64	-31.3	-33.8	10.7	2.40e-03	0	44	0	874512384	23	4810
2026-01-29 00:20:32.12	184.08	43.36	-32.3	-37.2	7.6	5.61e-02	0	44	0	876609536	24	6336
2026-01-29 00:20:33.12	184.20	43.08	-32.4	-37.7	7.2	1.04e-01	0	43	0	878706688	24	6625
2026-01-29 00:20:34.13	184.32	42.80	-32.4	-37.7	7.2	9.60e-02	0	44	0	879755264	24	6659
2026-01-29 00:20:35.13	184.44	42.52	-32.2	-36.6	8.1	1.04e-01	0	43	0	881852416	24	5987
2026-01-29 00:20:36.13	184.56	42.25	-31.2	-33.5	10.8	8.92e-03	0	43	0	883949568	23	4687
2026-01-29 00:20:37.14	184.67	41.97	-29.9	-30.8	13.3	2.30e-04	0	44	0	886046720	21	3967
2026-01-29 00:20:38.13	184.78	41.71	-29.3	-30.1	14.5	6.10e-06	0	44	0	887095296	19	3954
2026-01-29 00:20:39.13	184.89	41.44	-29.6	-30.8	14.1	2.53e-04	0	43	0	889192448	19	4148
2026-01-29 00:20:40.14	185.00	41.17	-30.1	-31.7	13.1	3.80e-06	0	43	0	891289600	20	4338
2026-01-29 00:20:41.14	185.11	40.91	-30.5	-32.5	12.2	6.79e-05	0	44	0	893386752	21	4517
2026-01-29 00:20:42.14	185.21	40.64	-30.7	-33.1	11.7	6.50e-04	0	43	0	895483904	21	4742
2026-01-29 00:20:43.15	185.31	40.38	-30.7	-33.0	11.8	3.68e-04	0	43	0	896532480	21	4707
2026-01-29 00:20:44.15	185.42	40.12	-30.2	-31.5	12.8	1.92e-04	0	43	0	898629632	21	4194
2026-01-29 00:20:45.15	185.52	39.86	-29.9	-31.3	13.3	3.12e-05	0	43	0	900726784	20	4225
2026-01-29 00:20:46.15	185.61	39.61	-29.4	-30.0	14.1	2.20e-06	0	43	0	902823936	20	3845
2026-01-29 00:20:47.16	185.71	39.35	-29.3	-30.2	14.4	0.00e+00	0	44	0	904921088	19	3990
2026-01-29 00:20:48.16	185.81	39.10	-29.7	-31.1	13.8	0.00e+00	0	43	0	905969664	19	4246
2026-01-29 00:20:49.17	185.90	38.85	-30.0	-31.9	13.3	9.10e-06	0	44	0	908066816	19	4514
2026-01-29 00:20:50.17	186.00	38.60	-30.6	-32.7	12.1	3.06e-04	0	43	0	910163968	21	4601
2026-01-29 00:20:51.18	186.09	38.35	-30.7	-33.1	11.7	4.67e-04	0	43	0	912261120	21	4725
2026-01-29 00:20:52.18	186.18	38.11	-31.2	-34.0	10.7	1.12e-03	0	43	0	914358272	22	4989
2026-01-29 00:20:53.18	186.27	37.86	-30.6	-32.7	12.0	1.30e-03	0	43	0	915406848	21	4597
2026-01-29 00:20:54.19	186.35	37.62	-30.5	-32.6	12.1	2.27e-04	0	43	0	917504000	21	4564
2026-01-29 00:20:55.19	186.44	37.38	-30.7	-33.2	11.6	5.40e-04	0	43	0	919601152	21	4792
2026-01-29 00:20:56.20	186.53	37.14	-30.6	-32.8	11.9	7.14e-04	0	43	0	921698304	21	4641
2026-01-29 00:20:57.20	186.61	36.90	-30.9	-33.9	11.2	1.37e-03	0	43	0	923795456	21	5041
2026-01-29 00:20:58.20	186.69	36.67	-31.0	-33.5	11.1	2.05e-03	0	44	0	924844032	22	4808
2026-01-29 00:20:59.21	186.77	36.43	-30.9	-33.7	11.3	1.34e-03	0	43	0	926941184	21	4977
2026-01-29 00:21:00.21	186.86	36.20	-31.1	-34.0	10.6	2.39e-03	0	43	0	929038336	22	5029
2026-01-29 00:21:01.21	186.93	35.97	-30.9	-33.4	11.1	1.94e-03	0	43	0	931135488	22	4759
2026-01-29 00:21:02.21	187.01	35.74	-30.8	-33.3	11.5	1.07e-03	0	43	0	933232640	21	4832
2026-01-29 00:21:03.21	187.09	35.52	-30.4	-32.3	12.2	8.22e-04	0	43	0	934281216	21	4455
2026-01-29 00:21:04.21	187.17	35.29	-30.2	-31.7	12.6	3.24e-04	0	43	0	936378368	21	4275
2026-01-29 00:21:05.22	187.24	35.06	-29.9	-31.3	13.2	5.66e-04	0	44	0	938475520	20	4244
2026-01-29 00:21:06.22	187.32	34.84	-30.1	-32.0	12.8	4.65e-04	0	43	0	940572672	20	4475
2026-01-29 00:21:07.22	187.39	34.62	-29.9	-31.4	13.1	2.89e-05	0	44	0	941621248	20	4255
2026-01-29 00:21:08.23	187.46	34.40	-29.7	-31.3	13.6	4.54e-04	0	44	0	943718400	19	4339
2026-01-29 00:21:09.24	187.54	34.18	-30.2	-32.3	12.6	5.14e-04	0	43	0	945815552	20	4569
2026-01-29 00:21:10.24	187.61	33.96	-31.0	-34.1	10.9	8.28e-04	0	43	0	947912704	21	5164
2026-01-29 00:21:11.24	187.68	33.75	-31.5	-35.0	9.6	5.44e-03	0	43	0	950009856	23	5359
2026-01-29 00:21:12.24	187.74	33.54	-31.8	-36.0	8.8	1.70e-02	0	43	0	951058432	23	5838
2026-01-29 00:21:13.24	187.81	33.32	-32.0	-36.7	8.3	3.88e-02	0	43	0	953155584	23	6228
2026-01-29 00:21:14.24	187.88	33.11	-31.9	-35.7	8.6	5.01e-02	0	43	0	955252736	24	5583
2026-01-29 00:21:15.25	187.95	32.90	-31.8	-35.8	8.9	3.63e-02	0	43	0	957349888	23	5716
2026-01-29 00:21:16.25	188.01	32.70	-31.7	-35.4	9.3	2.43e-02	0	43	0	959447040	23	5516
2026-01-29 00:21:17.24	188.08	32.49	-31.4	-34.3	10.1	1.05e-02	0	43	0	960495616	23	5056
2026-01-29 00:21:18.25	188.14	32.28	-31.5	-34.9	9.6	7.54e-03	0	43	0	962592768	23	5290
2026-01-29 00:21:19.25	188.20	32.08	-31.3	-33.9	10.3	8.43e-03	0	43	0	964689920	23	4879
2026-01-29 00:21:20.25	188.27	31.88	-30.9	-33.2	11.2	4.39e-03	0	44	0	966787072	22	4700
2026-01-29 00:21:21.26	188.33	31.68	-30.9	-33.3	11.1	4.28e-03	0	43	0	968884224	22	4753
2026-01-29 00:21:22.27	188.39	31.47	-30.6	-32.2	12.0	7.04e-04	0	44	0	969932800	22	4328
2026-01-29 00:21:23.28	188.45	31.27	-30.2	-32.2	12.6	8.69e-05	0	43	0	972029952	20	4515
2026-01-29 00:21:24.28	188.51	31.08	-29.7	-31.3	13.6	8.83e-04	0	43	0	974127104	19	4321
2026-01-29 00:21:25.28	188.57	30.88	-29.5	-30.7	13.9	3.00e-06	0	43	0	976224256	19	4140
2026-01-29 00:21:26.28	188.63	30.69	-29.3	-30.8	14.2	2.20e-06	0	44	0	978321408	18	4241
2026-01-29 00:21:27.28	188.69	30.49	-29.2	-30.3	14.5	7.00e-07	0	43	0	979369984	18	4118
2026-01-29 00:21:28.28	188.74	30.30	-29.1	-30.3	14.5	0.00e+00	0	43	0	981467136	18	4101
2026-01-29 00:21:29.28	188.80	30.11	-29.1	-30.1	14.7	1.06e-03	0	44	0	983564288	18	4063
2026-01-29 00:21:30.28	188.85	29.92	-29.2	-30.5	14.3	3.00e-06	0	43	0	985661440	18	4151
2026-01-29 00:21:31.29	188.91	29.73	-29.1	-30.2	14.6	0.00e+00	0	43	0	987758592	18	4079
2026-01-29 00:21:32.29	188.96	29.55	-29.4	-31.0	14.1	1.46e-03	0	43	0	988807168	18	4321
2026-01-29 00:21:33.30	189.02	29.36	-29.7	-31.4	13.6	9.10e-06	0	43	0	990904320	19	4339
2026-01-29 00:21:34.30	189.07	29.17	-29.8	-31.6	13.4	8.30e-06	0	44	0	993001472	19	4401
2026-01-29 00:21:35.31	189.13	28.99	-30.1	-32.0	12.7	2.02e-03	0	43	0	995098624	20	4464
2026-01-29 00:21:36.32	189.18	28.81	-30.6	-32.9	11.7	3.97e-04	0	43	0	997195776	21	4693
2026-01-29 00:21:37.32	189.23	28.62	-30.8	-33.6	11.3	7.16e-04	0	43	0	998244352	21	4938
2026-01-29 00:21:38.32	189.28	28.44	-31.1	-34.0	10.6	2.95e-03	0	44	0	1000341504	22	5019
2026-01-29 00:21:39.33	189.33	28.26	-31.3	-34.6	10.2	8.69e-03	0	43	0	1002438656	22	5259
2026-01-29 00:21:40.34	189.38	28.09	-31.3	-34.8	10.0	7.84e-03	0	43	0	1004535808	22	5346
2026-01-29 00:21:41.34	189.43	27.91	-31.4	-34.4	9.9	1.02e-02	0	44	0	1006632960	23	5085
2026-01-29 00:21:42.35	189.48	27.73	-31.1	-34.0	10.6	8.16e-03	0	44	0	1007681536	22	5009
2026-01-29 00:21:43.35	189.53	27.56	-30.5	-32.2	11.9	6.97e-04	0	44	0	1009778688	22	4334
2026-01-29 00:21:44.36	189.58	27.38	-30.5	-32.5	12.0	2.22e-04	0	44	0	1011875840	21	4558
2026-01-29 00:21:45.36	189.63	27.21	-30.3	-32.1	12.2	3.73e-04	0	43	0	1013972992	21	4416
2026-01-29 00:21:46.36	189.67	27.04	-30.0	-31.2	12.8	4.80e-05	0	44	0	1015021568	21	4135
2026-01-29 00:21:47.37	189.72	26.87	-29.8	-31.2	13.2	3.89e-05	0	44	0	1017118720	20	4194
2026-01-29 00:21:48.37	189.77	26.70	-29.5	-30.8	13.8	1.14e-05	0	44	0	1019215872	19	4179
2026-01-29 00:21:49.37	189.81	26.53	-29.3	-30.3	14.1	5.30e-06	0	43	0	1021313024	19	4031
2026-01-29 00:21:50.37	189.86	26.36	-29.3	-30.7	14.2	7.00e-07	0	43	0	1023410176	18	4238
2026-01-29 00:21:51.38	189.90	26.20	-29.4	-30.9	14.1	7.00e-07	0	44	0	1024458752	18	4295
2026-01-29 00:21:52.38	189.95	26.03	-29.2	-30.5	14.3	2.20e-06	0	43	0	1026555904	18	4176
2026-01-29 00:21:53.38	189.99	25.87	-29.1	-30.3	14.4	1.50e-06	0	43	0	1028653056	18	4118
2026-01-29 00:21:54.39	190.04	25.70	-29.2	-30.4	14.4	0.00e+00	0	43	0	1030750208	18	4133
2026-01-29 00:21:55.40	190.08	25.54	-29.1	-30.1	14.5	0.00e+00	0	43	0	1032847360	18	4067
2026-01-29 00:21:56.40	190.12	25.38	-29.1	-30.3	14.4	1.50e-06	0	43	0	1033895936	18	4124
2026-01-29 00:21:57.40	190.16	25.22	-29.0	-30.0	14.6	0.00e+00	0	43	0	1035993088	18	4040
2026-01-29 00:21:58.40	190.21	25.06	-28.9	-29.7	14.7	0.00e+00	0	43	0	1038090240	18	3956
2026-01-29 00:21:59.40	190.25	24.90	-29.0	-29.9	14.6	7.00e-07	0	43	0	1040187392	18	4005
2026-01-29 00:22:00.41	190.29	24.74	-28.8	-29.4	14.9	0.00e+00	0	43	0	1042284544	18	3877
2026-01-29 00:22:01.42	190.33	24.59	-28.6	-28.9	14.8	0.00e+00	0	44	0	1043333120	18	3750
2026-01-29 00:22:02.42	190.37	24.43	-28.5	-29.4	14.9	0.00e+00	0	44	0	1045430272	17	3953
2026-01-29 00:22:03.41	190.41	24.28	-28.2	-28.5	15.8	0.00e+00	0	44	0	1047527424	17	3725
2026-01-29 00:22:04.42	190.45	24.12	-28.1	-28.9	15.8	0.00e+00	0	43	0	1049624576	16	3927
2026-01-29 00:22:05.43	190.49	23.97	-28.1	-28.8	15.6	0.00e+00	0	43	0	1051721728	16	3900
2026-01-29 00:22:06.43	190.53	23.82	-28.0	-28.6	16.0	0.00e+00	0	44	0	1052770304	16	3839
2026-01-29 00:22:07.43	190.57	23.67	-27.7	-28.3	15.1	0.00e+00	0	43	0	1054867456	15	3877
2026-01-29 00:22:08.43	190.61	23.52	-27.6	-28.1	15.4	0.00e+00	0	43	0	1056964608	15	3835
2026-01-29 00:22:09.44	190.65	23.37	-27.7	-28.5	16.1	0.00e+00	0	44	0	1059061760	15	3921
2026-01-29 00:22:10.45	190.68	23.22	-27.8	-28.7	16.0	5.95e-04	0	43	0	1061158912	15	3989
2026-01-29 00:22:11.45	190.72	23.07	-28.0	-29.0	15.8	0.00e+00	0	43	0	1062207488	15	4070
2026-01-29 00:22:12.45	190.76	22.92	-28.2	-29.1	15.7	0.00e+00	0	44	0	1064304640	16	3980
2026-01-29 00:22:13.46	190.80	22.78	-28.4	-29.5	15.4	5.69e-04	0	43	0	1066401792	16	4094
2026-01-29 00:22:14.46	190.83	22.63	-28.6	-29.6	15.0	2.58e-04	0	43	0	1068498944	17	4033
2026-01-29 00:22:15.46	190.87	22.49	-28.8	-30.0	14.7	0.00e+00	0	43	0	1070596096	17	4138
2026-01-29 00:22:16.47	190.90	22.34	-28.8	-30.0	14.8	0.00e+00	0	44	0	1071644672	17	4148
2026-01-29 00:22:17.46	190.94	22.20	-29.1	-30.2	14.4	3.68e-04	0	43	0	1073741824	18	4101
2026-01-29 00:22:18.46	190.98	22.06	-29.1	-30.2	14.4	1.50e-06	0	44	0	1075838976	18	4109
2026-01-29 00:22:19.47	191.01	21.92	-29.0	-30.1	14.4	7.00e-07	0	44	0	1077936128	18	4081
2026-01-29 00:22:20.47	191.05	21.78	-29.1	-30.4	14.4	3.22e-04	0	43	0	1078984704	18	4151
2026-01-29 00:22:21.47	191.08	21.64	-29.1	-30.3	14.3	3.00e-06	0	43	0	1081081856	18	4138
2026-01-29 00:22:22.48	191.11	21.50	-29.0	-29.9	14.5	1.50e-06	0	44	0	1083179008	18	4025
2026-01-29 00:22:23.48	191.15	21.36	-29.0	-30.0	14.5	0.00e+00	0	43	0	1085276160	18	4033
2026-01-29 00:22:24.48	191.18	21.22	-29.1	-30.3	14.3	7.00e-07	0	43	0	1087373312	18	4139
2026-01-29 00:22:25.48	191.21	21.08	-28.9	-29.8	14.6	1.99e-04	0	43	0	1088421888	18	3981
2026-01-29 00:22:26.48	191.25	20.95	-29.0	-30.1	14.4	0.00e+00	0	44	0	1090519040	18	4087
2026-01-29 00:22:27.48	191.28	20.81	-29.3	-30.9	13.9	3.00e-06	0	44	0	1092616192	18	4301
2026-01-29 00:22:28.49	191.31	20.68	-29.2	-30.6	14.1	2.20e-04	0	44	0	1094713344	18	4226
2026-01-29 00:22:29.50	191.35	20.54	-29.2	-30.5	14.2	1.50e-06	0	43	0	1096810496	18	4188
2026-01-29 00:22:30.50	191.38	20.41	-29.2	-30.6	14.1	1.50e-06	0	43	0	1097859072	18	4213
2026-01-29 00:22:31.51	191.41	20.28	-29.4	-30.7	13.7	2.27e-04	0	43	0	1099956224	19	4156
2026-01-29 00:22:32.51	191.44	20.15	-29.9	-32.0	12.8	2.24e-04	0	44	0	1102053376	19	4568
2026-01-29 00:22:33.51	191.47	20.01	-29.7	-31.5	13.1	4.95e-05	0	43	0	1104150528	19	4417
2026-01-29 00:22:34.51	191.50	19.88	-29.5	-30.8	13.6	2.58e-04	0	43	0	1106247680	19	4181
2026-01-29 00:22:35.51	191.53	19.76	-29.5	-30.8	13.6	2.47e-04	0	43	0	1107296256	19	4185
2026-01-29 00:22:36.51	191.57	19.63	-29.3	-30.3	13.9	5.30e-06	0	43	0	1109393408	19	4047
2026-01-29 00:22:37.52	191.60	19.50	-29.3	-30.8	13.9	2.16e-04	0	44	0	1111490560	18	4289
2026-01-29 00:22:38.51	191.63	19.37	-29.2	-30.5	14.1	2.21e-04	0	43	0	1113587712	18	4194
2026-01-29 00:22:39.52	191.66	19.24	-29.0	-30.0	14.4	2.20e-06	0	44	0	1115684864	18	4058
2026-01-29 00:22:40.53	191.69	19.12	-29.0	-30.0	14.4	2.20e-06	0	43	0	1116733440	18	4060
2026-01-29 00:22:41.53	191.72	18.99	-28.9	-29.7	14.6	2.68e-04	0	44	0	1118830592	18	3962
2026-01-29 00:22:42.53	191.74	18.86	-28.9	-29.7	14.6	0.00e+00	0	43	0	1120927744	18	3955
2026-01-29 00:22:43.53	191.77	18.74	-28.8	-29.5	14.7	2.11e-04	0	43	0	1123024896	18	3922
2026-01-29 00:22:44.53	191.80	18.62	-28.7	-29.3	14.9	2.78e-04	0	44	0	1124073472	18	3841
2026-01-29 00:22:45.53	191.83	18.49	-28.8	-29.4	14.7	0.00e+00	0	43	0	1126170624	18	3894
2026-01-29 00:22:46.54	191.86	18.37	-28.7	-29.9	14.8	2.06e-04	0	44	0	1128267776	17	4099
2026-01-29 00:22:47.55	191.89	18.25	-28.6	-29.6	15.0	5.18e-05	0	44	0	1130364928	17	4034
2026-01-29 00:22:48.55	191.92	18.13	-28.8	-30.1	14.6	0.00e+00	0	43	0	1132462080	17	4171
2026-01-29 00:22:49.55	191.94	18.01	-28.8	-30.0	14.7	2.36e-04	0	43	0	1133510656	17	4138
2026-01-29 00:22:50.55	191.97	17.89	-28.6	-29.6	14.9	2.51e-04	0	44	0	1135607808	17	4039
2026-01-29 00:22:51.55	192.00	17.77	-28.7	-29.8	14.8	7.00e-07	0	44	0	1137704960	17	4079
2026-01-29 00:22:52.56	192.03	17.65	-28.8	-30.1	14.6	2.69e-04	0	43	0	1139802112	17	4158
2026-01-29 00:22:53.56	192.05	17.53	-28.8	-30.0	14.6	2.77e-04	0	43	0	1141899264	17	4145
2026-01-29 00:22:54.56	192.08	17.41	-28.8	-30.1	14.6	0.00e+00	0	44	0	1142947840	17	4186
2026-01-29 00:22:55.56	192.11	17.29	-28.9	-30.3	14.5	2.68e-04	0	44	0	1145044992	17	4231
2026-01-29 00:22:56.57	192.13	17.17	-29.0	-30.1	14.3	2.99e-04	0	43	0	1147142144	18	4076
2026-01-29 00:22:57.57	192.16	17.06	-28.9	-29.8	14.5	3.00e-06	0	43	0	1149239296	18	4006
2026-01-29 00:22:58.58	192.19	16.94	-29.0	-30.0	14.3	1.69e-04	0	43	0	1151336448	18	4061
2026-01-29 00:22:59.58	192.21	16.83	-29.1	-30.3	14.2	3.84e-04	0	44	0	1152385024	18	4136
2026-01-29 00:23:00.58	192.24	16.71	-29.1	-30.3	14.1	2.20e-06	0	44	0	1154482176	18	4139
2026-01-29 00:23:01.58	192.26	16.60	-29.0	-30.2	14.2	2.68e-04	0	43	0	1156579328	18	4098
2026-01-29 00:23:02.59	192.29	16.48	-29.1	-30.4	14.0	3.78e-04	0	44	0	1158676480	18	4182
2026-01-29 00:23:03.59	192.32	16.37	-28.9	-29.8	14.4	7.00e-07	0	43	0	1160773632	18	4008
2026-01-29 00:23:04.60	192.34	16.26	-29.1	-30.3	14.1	0.00e+00	0	44	0	1161822208	18	4148
2026-01-29 00:23:05.60	192.37	16.15	-29.1	-30.5	14.0	3.66e-04	0	43	0	1163919360	18	4198
2026-01-29 00:23:06.61	192.39	16.03	-29.2	-30.5	14.0	2.20e-06	0	44	0	1166016512	18	4215
2026-01-29 00:23:07.61	192.42	15.92	-29.2	-30.5	14.0	4.66e-04	0	44	0	1168113664	18	4217
2026-01-29 00:23:08.61	192.44	15.81	-29.2	-30.8	13.8	4.50e-06	0	44	0	1170210816	18	4288
2026-01-29 00:23:09.62	192.46	15.70	-29.2	-30.6	13.9	3.00e-06	0	43	0	1171259392	18	4231
2026-01-29 00:23:10.63	192.49	15.59	-29.3	-30.8	13.8	5.64e-04	0	44	0	1173356544	18	4313
2026-01-29 00:23:11.63	192.51	15.48	-29.2	-30.6	13.9	4.50e-06	0	44	0	1175453696	18	4244
2026-01-29 00:23:12.63	192.54	15.37	-29.3	-30.8	13.8	5.30e-06	0	43	0	1177550848	18	4298
2026-01-29 00:23:13.63	192.56	15.26	-29.4	-31.2	13.5	4.76e-04	0	43	0	1179648000	18	4420
2026-01-29 00:23:14.64	192.58	15.16	-29.4	-31.1	13.5	1.06e-05	0	44	0	1180696576	18	4410
2026-01-29 00:23:15.64	192.61	15.05	-29.6	-31.1	13.2	1.75e-05	0	43	0	1182793728	19	4313
2026-01-29 00:23:16.64	192.63	14.94	-29.6	-31.3	13.1	2.86e-04	0	44	0	1184890880	19	4365
2026-01-29 00:23:17.65	192.65	14.84	-29.4	-30.8	13.4	5.11e-04	0	44	0	1186988032	19	4214
2026-01-29 00:23:18.66	192.68	14.73	-29.6	-31.2	13.2	2.74e-05	0	43	0	1189085184	19	4330
2026-01-29 00:23:19.66	192.70	14.62	-29.5	-31.0	13.3	2.97e-05	0	43	0	1190133760	19	4279
2026-01-29 00:23:20.67	192.72	14.52	-29.6	-31.3	13.1	2.71e-04	0	43	0	1192230912	19	4378
2026-01-29 00:23:21.67	192.75	14.41	-29.6	-31.3	13.1	3.35e-05	0	44	0	1194328064	19	4361
2026-01-29 00:23:22.67	192.77	14.31	-29.6	-31.2	13.1	2.36e-05	0	44	0	1196425216	19	4324
2026-01-29 00:23:23.67	192.79	14.21	-29.6	-31.3	13.0	1.20e-04	0	43	0	1197473792	19	4384
2026-01-29 00:23:24.67	192.81	14.10	-29.7	-31.5	12.9	4.42e-05	0	44	0	1199570944	19	4435
2026-01-29 00:23:25.67	192.84	14.00	-29.7	-31.4	13.0	3.28e-05	0	44	0	1201668096	19	4398
2026-01-29 00:23:26.67	192.86	13.90	-29.9	-32.1	12.5	5.18e-05	0	44	0	1203765248	19	4636
2026-01-29 00:23:27.68	192.88	13.80	-29.7	-31.6	12.8	1.26e-04	0	44	0	1205862400	19	4469
2026-01-29 00:23:28.68	192.90	13.70	-29.5	-31.1	13.1	2.74e-05	0	43	0	1206910976	19	4311
2026-01-29 00:23:29.69	192.92	13.59	-29.6	-31.3	13.1	3.20e-05	0	44	0	1209008128	19	4359
2026-01-29 00:23:30.69	192.94	13.49	-29.5	-31.1	13.1	3.12e-05	0	44	0	1211105280	19	4320
2026-01-29 00:23:31.69	192.97	13.39	-29.6	-31.2	13.1	4.27e-05	0	44	0	1213202432	19	4331
2026-01-29 00:23:32.69	192.99	13.29	-29.5	-31.1	13.1	3.35e-05	0	44	0	1215299584	19	4318
2026-01-29 00:23:33.69	193.01	13.19	-29.5	-31.0	13.2	2.74e-05	0	44	0	1216348160	19	4270
2026-01-29 00:23:34.68	193.03	13.10	-29.6	-31.2	13.1	1.01e-04	0	44	0	1218445312	19	4342
2026-01-29 00:23:35.69	193.05	13.00	-29.5	-31.1	13.1	3.12e-05	0	43	0	1220542464	19	4327
2026-01-29 00:23:36.69	193.07	12.90	-29.6	-31.2	12.8	3.20e-05	0	44	0	1222639616	19	4361
2026-01-29 00:23:37.70	193.09	12.80	-29.7	-31.6	12.6	2.97e-05	0	44	0	1224736768	19	4488
2026-01-29 00:23:38.70	193.11	12.70	-29.6	-31.3	13.0	6.86e-05	0	44	0	1225785344	19	4370
2026-01-29 00:23:39.71	193.13	12.61	-29.6	-31.2	13.0	3.43e-05	0	44	0	1227882496	19	4359
2026-01-29 00:23:40.71	193.15	12.51	-29.6	-31.3	12.9	4.65e-05	0	43	0	1229979648	19	4393
2026-01-29 00:23:41.71	193.17	12.41	-29.6	-31.3	13.0	3.12e-05	0	44	0	1232076800	19	4367
2026-01-29 00:23:42.72	193.19	12.32	-29.6	-31.4	12.9	5.11e-05	0	43	0	1234173952	19	4407
2026-01-29 00:23:43.73	193.21	12.22	-29.7	-31.7	12.7	6.94e-05	0	43	0	1235222528	19	4511
2026-01-29 00:23:44.73	193.23	12.13	-29.6	-31.3	12.9	7.55e-05	0	44	0	1237319680	19	4394
2026-01-29 00:23:45.73	193.25	12.03	-29.5	-31.1	13.0	2.40e-04	0	43	0	1239416832	19	4325
2026-01-29 00:23:46.73	193.27	11.94	-29.4	-30.9	13.1	2.97e-05	0	44	0	1241513984	19	4257
2026-01-29 00:23:47.74	193.29	11.84	-29.4	-31.3	13.2	2.28e-05	0	43	0	1243611136	18	4484
2026-01-29 00:23:48.74	193.31	11.75	-29.3	-31.1	13.3	2.51e-04	0	44	0	1244659712	18	4425
2026-01-29 00:23:49.74	193.33	11.66	-29.4	-31.4	13.1	2.05e-05	0	44	0	1246756864	18	4530
2026-01-29 00:23:50.75	193.35	11.56	-29.5	-31.0	13.0	3.58e-05	0	43	0	1248854016	19	4306
2026-01-29 00:23:51.76	193.37	11.47	-29.5	-31.1	13.0	2.68e-04	0	44	0	1250951168	19	4330
2026-01-29 00:23:52.76	193.39	11.38	-29.4	-31.3	13.2	2.20e-04	0	44	0	1253048320	18	4482
2026-01-29 00:23:53.76	193.41	11.29	-29.5	-31.5	13.0	3.12e-05	0	44	0	1254096896	18	4557
2026-01-29 00:23:54.76	193.42	11.19	-29.4	-31.0	13.1	2.51e-05	0	43	0	1256194048	19	4282
2026-01-29 00:23:55.76	193.44	11.10	-28.6	-30.2	13.0	2.72e-04	0	44	0	1258291200	19	4303
2026-01-29 00:23:56.76	193.46	11.01	-29.6	-31.3	12.8	5.11e-05	0	44	0	1260388352	19	4392
2026-01-29 00:23:57.76	193.48	10.92	-29.6	-31.4	12.3	8.23e-05	0	43	0	1261436928	19	4433
2026-01-29 00:23:58.77	193.50	10.83	-29.7	-31.5	12.3	2.97e-04	0	44	0	1263534080	19	4473
2026-01-29 00:23:59.77	193.52	10.74	-29.7	-31.7	12.5	8.46e-05	0	44	0	1265631232	19	4534
2026-01-29 00:24:00.77	193.54	10.65	-29.7	-31.7	12.3	7.70e-05	0	44	0	1267728384	19	4541
2026-01-29 00:24:01.77	193.55	10.56	-29.8	-31.9	12.3	9.99e-05	0	44	0	1269825536	19	4616
2026-01-29 00:24:02.77	193.57	10.47	-29.8	-31.9	12.4	1.63e-04	0	44	0	1270874112	19	4603
2026-01-29 00:24:03.78	193.59	10.38	-29.8	-32.1	12.3	4.36e-04	0	43	0	1272971264	19	4661
2026-01-29 00:24:04.78	193.61	10.30	-29.9	-32.2	12.2	2.52e-04	0	44	0	1275068416	19	4703
2026-01-29 00:24:05.79	193.63	10.21	-29.9	-31.9	12.0	3.23e-04	0	44	0	1277165568	20	4524
2026-01-29 00:24:06.79	193.64	10.12	-30.1	-32.4	11.6	7.48e-04	0	44	0	1279262720	20	4694
2026-01-29 00:24:07.79	193.66	10.03	-30.1	-32.3	11.6	7.99e-04	0	44	0	1280311296	20	4678
2026-01-29 00:24:08.80	193.68	9.95	-30.0	-32.3	11.6	5.84e-04	0	44	0	1282408448	20	4669
2026-01-29 00:24:09.80	193.70	9.86	-30.1	-32.4	11.6	6.83e-04	0	44	0	1284505600	20	4703
2026-01-29 00:24:10.80	193.71	9.77	-30.0	-32.1	11.8	8.09e-04	0	44	0	1286602752	20	4598
2026-01-29 00:24:11.81	193.73	9.69	-29.8	-31.6	12.1	4.67e-04	0	43	0	1288699904	20	4437
