passes_logs/2026/01/29/R2M6_AANII_01/R2M6_AANII_01__20260129_010930_FENGYUN_3D_rec.log

#Pass ID: 20260129_010930_FENGYUN 3D
#Satellite: FENGYUN 3D
#Configuration: FENGYUN 3D
#almurnet v.1.7.20240730
#Start time: 2026-01-29 01:09:31

#Version: 2.2.20231116
#Station: R2M6_AANII_01
#Location: 30.233357 lon 59.946436 lat
#TLE: 1 43010U 17072A   26027.90082829  .00000305  00000+0  16579-3 0  9998
#TLE: 2 43010  98.9960 359.9183 0002511  88.1058 272.0405 14.19701796425082

#Time	Az	El	Level	Level2	SNR	BER	BlckErr	Temp	State	Recorded	gain1	gain2
2026-01-29 01:09:31.88	27.49	7.09	-29.7	-33.3	5.3	7.84e-01	0	41	0	0	19	5416
2026-01-29 01:09:32.87	27.57	7.15	-30.5	-34.7	5.0	8.03e-01	0	41	104	0	21	5826
2026-01-29 01:09:33.88	27.65	7.22	-30.6	-35.0	7.5	1.14e-01	0	41	0	0	21	5947
2026-01-29 01:09:34.88	27.73	7.29	-30.4	-34.2	8.1	9.46e-02	0	41	0	5242880	21	5569
2026-01-29 01:09:35.89	27.81	7.36	-30.0	-33.5	8.9	5.15e-02	0	41	0	11534336	20	5375
2026-01-29 01:09:36.89	27.88	7.43	-29.7	-32.9	9.3	1.70e-02	0	41	0	16777216	19	5235
2026-01-29 01:09:37.90	27.96	7.50	-29.2	-32.3	10.5	8.01e-03	0	41	0	22020096	18	5098
2026-01-29 01:09:38.90	28.04	7.57	-28.9	-31.3	11.2	1.92e-03	0	41	0	28311552	18	4750
2026-01-29 01:09:39.90	28.12	7.63	-28.4	-30.7	11.9	7.07e-04	0	41	0	33554432	17	4653
2026-01-29 01:09:40.90	28.20	7.70	-27.9	-29.9	12.7	4.28e-04	0	41	0	38797312	16	4531
2026-01-29 01:09:41.91	28.28	7.77	-27.5	-28.9	13.3	3.89e-05	0	41	0	45088768	16	4238
2026-01-29 01:09:42.91	28.36	7.84	-27.1	-28.6	13.6	1.14e-05	0	41	0	50331648	15	4271
2026-01-29 01:09:43.92	28.45	7.91	-27.0	-28.7	13.9	1.25e-05	0	41	0	55574528	14	4405
2026-01-29 01:09:44.92	28.53	7.98	-27.1	-29.0	13.7	1.25e-05	0	41	0	61865984	14	4480
2026-01-29 01:09:45.92	28.61	8.05	-26.8	-28.8	14.1	3.40e-06	0	42	0	67108864	13	4529
2026-01-29 01:09:46.92	28.69	8.12	-26.5	-28.1	14.5	1.10e-06	0	41	0	73400320	13	4344
2026-01-29 01:09:47.92	28.77	8.19	-26.4	-27.9	14.6	0.00e+00	0	41	0	78643200	13	4273
2026-01-29 01:09:48.92	28.86	8.26	-26.3	-28.2	14.8	1.10e-06	0	41	0	83886080	12	4478
2026-01-29 01:09:49.93	28.94	8.33	-26.4	-28.5	14.6	8.06e-04	0	41	0	90177536	12	4554
2026-01-29 01:09:50.93	29.03	8.40	-26.3	-28.2	14.8	0.00e+00	0	42	0	95420416	12	4476
2026-01-29 01:09:51.93	29.11	8.47	-26.4	-28.4	14.7	8.75e-04	0	42	0	101711872	12	4527
2026-01-29 01:09:52.93	29.19	8.55	-26.6	-28.4	14.4	8.47e-04	0	42	0	106954752	13	4425
2026-01-29 01:09:53.94	29.28	8.62	-26.9	-29.1	14.0	2.20e-06	0	42	0	112197632	13	4612
2026-01-29 01:09:54.94	29.36	8.69	-26.8	-28.7	14.2	8.86e-04	0	42	0	118489088	13	4496
2026-01-29 01:09:55.94	29.45	8.76	-26.5	-28.2	14.5	2.20e-06	0	42	0	123731968	13	4354
2026-01-29 01:09:56.95	29.54	8.83	-26.3	-27.7	14.8	1.10e-06	0	42	0	128974848	13	4234
2026-01-29 01:09:57.96	29.62	8.90	-26.2	-28.0	14.9	7.71e-04	0	42	0	135266304	12	4410
2026-01-29 01:09:58.96	29.71	8.98	-26.3	-28.0	15.0	7.85e-04	0	42	0	140509184	12	4417
2026-01-29 01:09:59.96	29.80	9.05	-26.3	-28.3	14.8	2.20e-06	0	42	0	146800640	12	4485
2026-01-29 01:10:00.97	29.89	9.12	-26.3	-28.1	14.9	0.00e+00	0	42	0	152043520	12	4444
2026-01-29 01:10:01.97	29.98	9.19	-26.2	-28.0	15.0	8.35e-04	0	42	0	157286400	12	4419
2026-01-29 01:10:02.97	30.06	9.26	-26.4	-28.4	14.7	0.00e+00	0	42	0	163577856	12	4528
2026-01-29 01:10:03.97	30.15	9.34	-26.3	-28.2	14.8	8.41e-04	0	42	0	168820736	12	4471
2026-01-29 01:10:04.98	30.24	9.41	-26.2	-28.0	15.0	8.16e-04	0	42	0	174063616	12	4414
2026-01-29 01:10:05.98	30.33	9.48	-26.2	-28.0	15.0	0.00e+00	0	42	0	180355072	12	4414
2026-01-29 01:10:06.98	30.42	9.56	-26.2	-27.8	15.1	7.79e-04	0	42	0	185597952	12	4366
2026-01-29 01:10:07.99	30.51	9.63	-26.3	-28.1	14.9	3.31e-05	0	42	0	191889408	12	4435
2026-01-29 01:10:08.99	30.61	9.70	-26.1	-27.6	15.2	0.00e+00	0	42	0	197132288	12	4306
2026-01-29 01:10:10.00	30.70	9.78	-26.0	-27.4	15.4	1.54e-04	0	42	0	202375168	12	4241
2026-01-29 01:10:11.00	30.79	9.85	-26.0	-27.4	15.4	4.51e-04	0	42	0	208666624	12	4255
2026-01-29 01:10:12.00	30.88	9.92	-26.0	-27.5	15.3	0.00e+00	0	42	0	213909504	12	4265
2026-01-29 01:10:13.01	30.98	10.00	-25.9	-27.2	15.5	6.33e-04	0	42	0	220200960	12	4179
2026-01-29 01:10:14.01	31.07	10.07	-25.9	-27.7	15.5	4.83e-04	0	42	0	225443840	11	4453
2026-01-29 01:10:15.01	31.16	10.15	-25.9	-27.8	15.5	0.00e+00	0	42	0	230686720	11	4466
2026-01-29 01:10:16.02	31.26	10.22	-25.9	-27.8	15.5	6.24e-04	0	42	0	236978176	11	4464
2026-01-29 01:10:17.02	31.35	10.30	-25.9	-27.4	15.4	2.04e-04	0	42	0	242221056	12	4234
2026-01-29 01:10:18.02	31.45	10.37	-26.2	-27.8	15.1	0.00e+00	0	42	0	247463936	12	4359
2026-01-29 01:10:19.02	31.54	10.45	-26.0	-27.5	15.3	5.60e-04	0	42	0	253755392	12	4262
2026-01-29 01:10:20.03	31.64	10.52	-26.0	-27.5	15.3	1.84e-04	0	42	0	258998272	12	4290
2026-01-29 01:10:21.03	31.74	10.60	-26.1	-27.7	15.2	1.10e-06	0	42	0	265289728	12	4339
2026-01-29 01:10:22.03	31.83	10.67	-26.0	-27.5	15.3	1.91e-04	0	42	0	270532608	12	4276
2026-01-29 01:10:23.04	31.93	10.75	-26.0	-27.5	15.4	4.78e-04	0	42	0	275775488	12	4269
2026-01-29 01:10:24.05	32.03	10.83	-25.9	-27.4	15.4	0.00e+00	0	42	0	282066944	12	4237
2026-01-29 01:10:25.04	32.13	10.90	-26.0	-27.4	15.4	1.77e-04	0	42	0	287309824	12	4257
2026-01-29 01:10:26.05	32.23	10.98	-26.1	-27.7	15.3	1.67e-04	0	42	0	293601280	12	4322
2026-01-29 01:10:27.05	32.33	11.05	-26.3	-28.1	15.0	0.00e+00	0	42	0	298844160	12	4451
2026-01-29 01:10:28.05	32.43	11.13	-26.0	-27.5	15.3	1.43e-04	0	42	0	304087040	12	4256
2026-01-29 01:10:29.05	32.53	11.21	-25.8	-27.0	15.6	1.41e-04	0	42	0	310378496	12	4141
2026-01-29 01:10:30.06	32.63	11.28	-25.7	-26.9	15.7	0.00e+00	0	42	0	315621376	12	4101
2026-01-29 01:10:31.06	32.73	11.36	-25.8	-27.5	15.7	1.27e-04	0	42	0	320864256	11	4385
2026-01-29 01:10:32.07	32.84	11.44	-25.7	-27.3	15.8	8.35e-05	0	42	0	327155712	11	4327
2026-01-29 01:10:33.07	32.94	11.52	-25.8	-27.4	15.8	0.00e+00	0	43	0	332398592	11	4347
2026-01-29 01:10:34.08	33.04	11.59	-25.9	-27.3	15.5	3.77e-05	0	43	0	338690048	12	4208
2026-01-29 01:10:35.08	33.14	11.67	-25.7	-27.3	15.9	0.00e+00	0	42	0	343932928	11	4334
2026-01-29 01:10:36.09	33.25	11.75	-25.5	-26.9	16.1	0.00e+00	0	43	0	349175808	11	4220
2026-01-29 01:10:37.09	33.35	11.83	-25.5	-26.9	16.1	0.00e+00	0	42	0	355467264	11	4228
2026-01-29 01:10:38.10	33.46	11.91	-25.5	-26.9	16.1	3.40e-06	0	43	0	360710144	11	4221
2026-01-29 01:10:39.10	33.57	11.98	-25.7	-27.3	15.9	0.00e+00	0	43	0	367001600	11	4324
2026-01-29 01:10:40.11	33.67	12.06	-25.5	-26.9	16.1	1.37e-05	0	43	0	372244480	11	4212
2026-01-29 01:10:41.11	33.78	12.14	-25.6	-27.0	16.1	6.86e-05	0	42	0	377487360	11	4242
2026-01-29 01:10:42.11	33.89	12.22	-25.8	-27.5	15.8	0.00e+00	0	42	0	383778816	11	4374
2026-01-29 01:10:43.11	34.00	12.30	-25.5	-26.8	16.2	1.17e-04	0	42	0	389021696	11	4177
2026-01-29 01:10:44.12	34.10	12.38	-25.4	-26.5	16.3	0.00e+00	0	43	0	394264576	11	4116
2026-01-29 01:10:45.12	34.21	12.46	-25.3	-26.4	16.4	0.00e+00	0	43	0	400556032	11	4098
2026-01-29 01:10:46.12	34.32	12.54	-25.4	-26.6	16.3	3.08e-05	0	42	0	405798912	11	4140
2026-01-29 01:10:47.13	34.43	12.62	-25.4	-27.1	16.4	0.00e+00	0	43	0	412090368	10	4376
2026-01-29 01:10:48.13	34.54	12.70	-25.5	-27.3	16.2	0.00e+00	0	43	0	417333248	10	4447
2026-01-29 01:10:49.14	34.66	12.78	-25.4	-26.5	16.3	0.00e+00	0	43	0	422576128	11	4112
2026-01-29 01:10:50.14	34.77	12.86	-25.4	-26.6	16.3	4.50e-06	0	43	0	428867584	11	4126
2026-01-29 01:10:51.15	34.88	12.94	-25.4	-26.7	16.3	0.00e+00	0	43	0	434110464	11	4160
2026-01-29 01:10:52.16	35.00	13.02	-25.4	-27.2	16.3	0.00e+00	0	43	0	440401920	10	4404
2026-01-29 01:10:53.16	35.11	13.10	-25.4	-27.2	16.3	0.00e+00	0	43	0	445644800	10	4422
2026-01-29 01:10:54.16	35.22	13.18	-25.5	-26.7	16.2	0.00e+00	0	43	0	450887680	11	4175
2026-01-29 01:10:55.16	35.34	13.26	-25.6	-27.0	16.2	0.00e+00	0	43	0	457179136	11	4239
2026-01-29 01:10:56.17	35.46	13.34	-25.4	-26.5	16.4	0.00e+00	0	43	0	462422016	11	4123
2026-01-29 01:10:57.17	35.57	13.43	-25.3	-26.3	16.5	0.00e+00	0	43	0	467664896	11	4063
2026-01-29 01:10:58.17	35.69	13.51	-25.3	-26.3	16.5	0.00e+00	0	43	0	473956352	11	4057
2026-01-29 01:10:59.18	35.81	13.59	-25.2	-26.2	16.6	0.00e+00	0	43	0	479199232	11	4023
2026-01-29 01:11:00.18	35.92	13.67	-25.2	-26.2	16.5	0.00e+00	0	43	0	485490688	11	4039
2026-01-29 01:11:01.18	36.04	13.75	-25.2	-26.3	16.5	0.00e+00	0	43	0	490733568	11	4049
2026-01-29 01:11:02.19	36.16	13.84	-25.4	-27.0	16.4	0.00e+00	0	43	0	495976448	10	4364
2026-01-29 01:11:03.19	36.28	13.92	-25.3	-26.8	16.5	0.00e+00	0	43	0	502267904	10	4315
2026-01-29 01:11:04.20	36.40	14.00	-25.2	-26.7	16.5	0.00e+00	0	43	0	507510784	10	4288
2026-01-29 01:11:05.21	36.53	14.08	-25.3	-26.8	16.5	0.00e+00	0	43	0	513802240	10	4298
2026-01-29 01:11:06.22	36.65	14.17	-24.7	-26.2	16.4	0.00e+00	0	43	0	519045120	10	4243
2026-01-29 01:11:07.22	36.77	14.25	-25.2	-26.6	16.0	0.00e+00	0	43	0	524288000	10	4240
2026-01-29 01:11:08.23	36.90	14.33	-25.2	-26.6	16.7	0.00e+00	0	43	0	530579456	10	4249
2026-01-29 01:11:09.23	37.02	14.42	-25.0	-26.2	16.9	0.00e+00	0	43	0	535822336	10	4153
2026-01-29 01:11:10.24	37.15	14.50	-25.0	-26.2	16.9	0.00e+00	0	43	0	542113792	10	4142
2026-01-29 01:11:11.25	37.27	14.59	-25.1	-26.4	16.7	0.00e+00	0	43	0	547356672	10	4200
2026-01-29 01:11:12.25	37.40	14.67	-25.2	-26.7	16.6	0.00e+00	0	43	0	552599552	10	4264
2026-01-29 01:11:13.25	37.52	14.75	-24.9	-25.9	17.0	5.95e-05	0	43	0	558891008	10	4067
2026-01-29 01:11:14.25	37.65	14.84	-24.7	-25.6	17.2	0.00e+00	0	43	0	564133888	10	3994
2026-01-29 01:11:15.25	37.78	14.92	-24.7	-25.6	17.2	1.60e-05	0	43	0	569376768	10	3978
2026-01-29 01:11:16.25	37.91	15.01	-24.8	-25.8	17.1	0.00e+00	0	43	0	575668224	10	4039
2026-01-29 01:11:17.25	38.04	15.09	-24.8	-25.9	17.0	0.00e+00	0	43	0	580911104	10	4051
2026-01-29 01:11:18.26	38.17	15.18	-24.9	-26.1	17.0	0.00e+00	0	43	0	587202560	10	4104
2026-01-29 01:11:19.26	38.30	15.26	-24.9	-26.0	17.0	0.00e+00	0	43	0	592445440	10	4088
2026-01-29 01:11:20.27	38.43	15.35	-24.9	-26.0	17.0	0.00e+00	0	43	0	597688320	10	4077
2026-01-29 01:11:21.28	38.56	15.43	-24.7	-25.6	17.2	0.00e+00	0	43	0	603979776	10	3995
2026-01-29 01:11:22.28	38.70	15.52	-24.7	-25.5	17.3	0.00e+00	0	43	0	609222656	10	3975
2026-01-29 01:11:23.29	38.83	15.61	-24.7	-25.5	17.3	0.00e+00	0	43	0	615514112	10	3965
2026-01-29 01:11:24.29	38.97	15.69	-24.6	-25.3	17.4	0.00e+00	0	43	0	620756992	10	3913
2026-01-29 01:11:25.30	39.10	15.78	-24.6	-25.4	17.3	1.10e-06	0	43	0	625999872	10	3944
2026-01-29 01:11:26.31	39.24	15.86	-24.7	-25.5	17.3	0.00e+00	0	43	0	632291328	10	3966
2026-01-29 01:11:27.31	39.38	15.95	-24.6	-25.3	17.4	2.63e-05	0	43	0	637534208	10	3906
2026-01-29 01:11:28.32	39.52	16.04	-24.5	-25.2	17.5	6.06e-05	0	43	0	642777088	10	3878
2026-01-29 01:11:29.32	39.65	16.12	-24.5	-25.2	17.5	0.00e+00	0	43	0	649068544	10	3887
2026-01-29 01:11:30.32	39.79	16.21	-24.5	-25.0	17.6	6.40e-05	0	43	0	654311424	10	3850
2026-01-29 01:11:31.33	39.93	16.30	-24.5	-25.1	17.6	2.97e-05	0	43	0	660602880	10	3863
2026-01-29 01:11:32.33	40.07	16.39	-24.5	-25.2	17.5	0.00e+00	0	43	0	665845760	10	3893
2026-01-29 01:11:33.34	40.22	16.47	-24.4	-24.9	17.7	0.00e+00	0	43	0	672137216	10	3817
2026-01-29 01:11:34.34	40.36	16.56	-24.4	-24.9	17.7	0.00e+00	0	43	0	677380096	10	3822
2026-01-29 01:11:35.34	40.50	16.65	-24.4	-25.0	17.6	0.00e+00	0	43	0	682622976	10	3836
2026-01-29 01:11:36.34	40.64	16.74	-24.4	-25.0	17.6	0.00e+00	0	43	0	688914432	10	3837
2026-01-29 01:11:37.35	40.79	16.82	-24.5	-25.0	17.6	0.00e+00	0	43	0	694157312	10	3852
2026-01-29 01:11:38.36	40.94	16.91	-24.5	-25.1	17.6	0.00e+00	0	43	0	699400192	10	3871
2026-01-29 01:11:39.37	41.09	17.00	-24.6	-25.3	17.4	0.00e+00	0	43	0	705691648	10	3924
2026-01-29 01:11:40.37	41.23	17.09	-24.7	-25.6	17.3	0.00e+00	0	43	0	710934528	10	3984
2026-01-29 01:11:41.38	41.38	17.18	-24.5	-25.2	17.5	0.00e+00	0	43	0	717225984	10	3887
2026-01-29 01:11:42.38	41.53	17.27	-24.5	-25.0	17.6	2.51e-05	0	43	0	722468864	10	3850
2026-01-29 01:11:43.39	41.68	17.36	-24.4	-25.0	17.6	0.00e+00	0	43	0	727711744	10	3844
2026-01-29 01:11:44.39	41.83	17.45	-24.4	-25.0	17.7	0.00e+00	0	43	0	734003200	10	3833
2026-01-29 01:11:45.39	41.98	17.54	-24.4	-24.9	17.7	0.00e+00	0	43	0	739246080	10	3820
2026-01-29 01:11:46.39	42.13	17.62	-24.3	-24.8	17.7	9.10e-06	0	43	0	745537536	10	3795
2026-01-29 01:11:47.40	42.29	17.71	-24.5	-25.1	17.8	0.00e+00	0	43	0	750780416	10	3870
2026-01-29 01:11:48.39	42.44	17.80	-24.3	-24.7	17.9	1.10e-06	0	43	0	756023296	10	3771
2026-01-29 01:11:49.40	42.60	17.89	-24.2	-25.0	18.0	0.00e+00	0	43	0	762314752	9	3939
2026-01-29 01:11:50.40	42.75	17.98	-24.2	-25.0	18.0	0.00e+00	0	43	0	767557632	9	3952
2026-01-29 01:11:51.40	42.91	18.07	-24.3	-25.1	17.9	0.00e+00	0	43	0	772800512	9	3967
2026-01-29 01:11:52.41	43.07	18.16	-24.1	-24.8	18.1	0.00e+00	0	43	0	779091968	9	3895
2026-01-29 01:11:53.42	43.23	18.25	-24.2	-25.0	18.0	0.00e+00	0	43	0	784334848	9	3942
2026-01-29 01:11:54.43	43.39	18.34	-24.3	-25.1	18.0	0.00e+00	0	43	0	790626304	9	3970
2026-01-29 01:11:55.43	43.55	18.43	-24.2	-24.9	18.1	0.00e+00	0	43	0	795869184	9	3923
2026-01-29 01:11:56.44	43.71	18.53	-24.2	-25.0	18.1	0.00e+00	0	43	0	801112064	9	3935
2026-01-29 01:11:57.45	43.88	18.62	-24.3	-25.2	17.9	0.00e+00	0	43	0	807403520	9	3987
2026-01-29 01:11:58.46	44.04	18.71	-24.3	-25.2	17.9	0.00e+00	0	43	0	812646400	9	3983
2026-01-29 01:11:59.46	44.20	18.80	-24.1	-24.7	18.2	0.00e+00	0	43	0	818937856	9	3869
2026-01-29 01:12:00.45	44.37	18.89	-24.0	-24.6	18.3	0.00e+00	0	43	0	824180736	9	3844
2026-01-29 01:12:01.46	44.54	18.98	-24.0	-24.6	18.3	0.00e+00	0	43	0	829423616	9	3848
2026-01-29 01:12:02.46	44.70	19.07	-24.0	-24.6	18.2	0.00e+00	0	43	0	835715072	9	3849
2026-01-29 01:12:03.46	44.87	19.16	-24.0	-24.6	18.3	2.74e-05	0	43	0	840957952	9	3838
2026-01-29 01:12:04.46	45.04	19.25	-24.0	-24.5	18.3	0.00e+00	0	43	0	846200832	9	3823
2026-01-29 01:12:05.46	45.21	19.34	-23.9	-24.4	18.4	0.00e+00	0	43	0	852492288	9	3803
2026-01-29 01:12:06.47	45.38	19.44	-23.8	-24.6	18.5	1.83e-05	0	43	0	857735168	8	3957
2026-01-29 01:12:07.47	45.55	19.53	-23.7	-24.5	18.5	8.69e-05	0	43	0	862978048	8	3937
2026-01-29 01:12:08.48	45.73	19.62	-23.8	-24.7	18.5	0.00e+00	0	43	0	869269504	8	3978
2026-01-29 01:12:09.49	45.90	19.71	-23.9	-24.8	18.4	2.56e-04	0	43	0	874512384	8	4009
2026-01-29 01:12:10.50	46.08	19.81	-23.9	-24.9	18.4	2.66e-04	0	43	0	880803840	8	4019
2026-01-29 01:12:11.50	46.26	19.90	-23.9	-24.9	18.4	0.00e+00	0	43	0	886046720	8	4019
2026-01-29 01:12:12.50	46.43	19.99	-23.9	-24.8	18.4	2.99e-04	0	43	0	892338176	8	4010
2026-01-29 01:12:13.51	46.61	20.08	-23.9	-24.9	18.4	0.00e+00	0	43	0	897581056	8	4025
2026-01-29 01:12:14.52	46.79	20.17	-23.8	-24.7	18.5	0.00e+00	0	43	0	902823936	8	3977
2026-01-29 01:12:15.52	46.97	20.27	-23.8	-24.6	18.6	2.91e-04	0	43	0	909115392	8	3941
2026-01-29 01:12:16.53	47.16	20.36	-23.8	-24.6	18.5	1.40e-04	0	43	0	914358272	8	3960
2026-01-29 01:12:17.53	47.34	20.45	-23.8	-24.7	18.5	0.00e+00	0	43	0	920649728	8	3968
2026-01-29 01:12:18.53	47.52	20.54	-23.9	-24.8	18.5	0.00e+00	0	43	0	925892608	8	4002
2026-01-29 01:12:19.54	47.71	20.64	-23.9	-24.8	18.4	3.55e-04	0	43	0	931135488	8	4003
2026-01-29 01:12:20.54	47.89	20.73	-23.8	-24.6	18.6	0.00e+00	0	43	0	937426944	8	3947
2026-01-29 01:12:21.55	48.08	20.82	-23.7	-24.5	18.6	4.14e-04	0	43	0	942669824	8	3930
2026-01-29 01:12:22.55	48.27	20.92	-23.6	-24.3	18.7	0.00e+00	0	43	0	947912704	8	3871
2026-01-29 01:12:23.56	48.46	21.01	-23.6	-24.2	18.8	0.00e+00	0	43	0	954204160	8	3851
2026-01-29 01:12:24.56	48.65	21.10	-23.7	-24.4	18.7	4.36e-04	0	43	0	959447040	8	3904
2026-01-29 01:12:25.57	48.84	21.19	-23.9	-24.7	18.5	0.00e+00	0	43	0	965738496	8	3986
2026-01-29 01:12:26.58	49.04	21.29	-23.8	-24.7	18.5	0.00e+00	0	43	0	970981376	8	3971
2026-01-29 01:12:27.58	49.23	21.38	-23.8	-24.7	18.6	0.00e+00	0	43	0	977272832	8	3968
2026-01-29 01:12:28.59	49.43	21.47	-24.0	-25.0	18.4	0.00e+00	0	43	0	982515712	8	4050
2026-01-29 01:12:29.60	49.62	21.57	-23.9	-24.9	18.5	0.00e+00	0	43	0	987758592	8	4011
2026-01-29 01:12:30.60	49.82	21.66	-23.8	-24.5	18.6	0.00e+00	0	43	0	994050048	8	3935
2026-01-29 01:12:31.60	50.02	21.75	-23.7	-24.4	18.7	0.00e+00	0	43	0	999292928	8	3899
2026-01-29 01:12:32.61	50.22	21.85	-23.8	-24.6	18.6	0.00e+00	0	43	0	1004535808	8	3961
2026-01-29 01:12:33.61	50.42	21.94	-23.7	-24.5	18.7	0.00e+00	0	43	0	1010827264	8	3916
2026-01-29 01:12:34.61	50.62	22.03	-23.8	-24.6	18.6	0.00e+00	0	43	0	1016070144	8	3950
2026-01-29 01:12:35.60	50.82	22.12	-23.8	-24.5	18.6	0.00e+00	0	43	0	1022361600	8	3936
2026-01-29 01:12:36.61	51.03	22.22	-23.5	-24.0	18.9	0.00e+00	0	43	0	1027604480	8	3810
2026-01-29 01:12:37.61	51.23	22.31	-23.4	-23.9	19.0	0.00e+00	0	43	0	1032847360	8	3779
2026-01-29 01:12:38.62	51.44	22.40	-23.5	-24.0	18.9	0.00e+00	0	43	0	1039138816	8	3803
2026-01-29 01:12:39.61	51.64	22.49	-23.5	-24.0	18.9	0.00e+00	0	43	0	1044381696	8	3819
2026-01-29 01:12:40.61	51.85	22.59	-23.4	-23.8	19.0	0.00e+00	0	43	0	1049624576	8	3778
2026-01-29 01:12:41.62	52.06	22.68	-23.4	-23.7	19.1	0.00e+00	0	43	0	1055916032	8	3743
2026-01-29 01:12:42.62	52.27	22.77	-23.3	-23.7	19.1	0.00e+00	0	43	0	1061158912	8	3732
2026-01-29 01:12:43.62	52.49	22.86	-23.6	-24.1	18.9	0.00e+00	0	43	0	1066401792	8	3837
2026-01-29 01:12:44.63	52.70	22.96	-23.6	-24.2	18.8	0.00e+00	0	43	0	1072693248	8	3849
2026-01-29 01:12:45.63	52.92	23.05	-23.5	-24.0	19.0	0.00e+00	0	43	0	1077936128	8	3804
2026-01-29 01:12:46.63	53.13	23.14	-23.5	-24.0	18.9	0.00e+00	0	43	0	1084227584	8	3821
2026-01-29 01:12:47.64	53.35	23.23	-23.5	-24.1	18.9	0.00e+00	0	43	0	1089470464	8	3840
2026-01-29 01:12:48.64	53.57	23.33	-23.6	-24.1	18.9	0.00e+00	0	43	0	1095761920	8	3836
2026-01-29 01:12:49.64	53.79	23.42	-23.5	-24.1	18.9	0.00e+00	0	43	0	1101004800	8	3827
2026-01-29 01:12:50.65	54.01	23.51	-23.4	-23.8	19.0	0.00e+00	0	43	0	1106247680	8	3767
2026-01-29 01:12:51.65	54.24	23.60	-23.2	-23.9	19.2	0.00e+00	0	43	0	1112539136	7	3896
2026-01-29 01:12:52.65	54.46	23.69	-23.2	-23.9	19.2	0.00e+00	0	43	0	1117782016	7	3905
2026-01-29 01:12:53.65	54.68	23.79	-23.2	-23.8	19.2	0.00e+00	0	43	0	1123024896	7	3879
2026-01-29 01:12:54.66	54.91	23.88	-23.2	-23.9	19.2	0.00e+00	0	43	0	1129316352	7	3894
2026-01-29 01:12:55.66	55.14	23.97	-23.2	-23.9	19.2	0.00e+00	0	43	0	1134559232	7	3882
2026-01-29 01:12:56.67	55.37	24.06	-23.3	-24.0	19.2	0.00e+00	0	43	0	1139802112	7	3912
2026-01-29 01:12:57.67	55.60	24.15	-23.3	-24.0	19.1	0.00e+00	0	43	0	1146093568	7	3927
2026-01-29 01:12:58.68	55.83	24.24	-23.2	-23.9	19.2	0.00e+00	0	43	0	1151336448	7	3903
2026-01-29 01:12:59.68	56.07	24.33	-23.2	-23.9	19.2	0.00e+00	0	43	0	1157627904	7	3887
2026-01-29 01:13:00.68	56.30	24.42	-23.1	-23.7	19.3	0.00e+00	0	44	0	1162870784	7	3848
2026-01-29 01:13:01.69	56.54	24.51	-23.1	-23.7	19.3	0.00e+00	0	44	0	1169162240	7	3841
2026-01-29 01:13:02.69	56.77	24.60	-23.0	-23.3	19.5	0.00e+00	0	43	0	1174405120	7	3760
2026-01-29 01:13:03.69	57.01	24.69	-22.9	-23.2	19.6	0.00e+00	0	43	0	1179648000	7	3722
2026-01-29 01:13:04.69	57.25	24.78	-23.1	-23.7	19.3	0.00e+00	0	43	0	1185939456	7	3842
2026-01-29 01:13:05.70	57.49	24.87	-23.2	-24.0	19.2	0.00e+00	0	43	0	1191182336	7	3912
2026-01-29 01:13:06.69	57.73	24.96	-23.5	-24.4	19.0	0.00e+00	0	43	0	1196425216	7	4017
2026-01-29 01:13:07.70	57.98	25.05	-23.4	-24.3	19.0	0.00e+00	0	43	0	1202716672	7	3992
2026-01-29 01:13:08.70	58.22	25.14	-23.2	-23.8	19.3	0.00e+00	0	43	0	1207959552	7	3865
2026-01-29 01:13:09.71	58.47	25.23	-23.0	-23.4	19.5	0.00e+00	0	43	0	1213202432	7	3782
2026-01-29 01:13:10.71	58.72	25.32	-23.0	-23.4	19.5	0.00e+00	0	43	0	1219493888	7	3779
2026-01-29 01:13:11.72	58.97	25.41	-22.8	-23.1	19.7	0.00e+00	0	43	0	1224736768	7	3709
2026-01-29 01:13:12.72	59.22	25.49	-22.8	-23.4	19.7	0.00e+00	0	43	0	1231028224	6	3894
2026-01-29 01:13:13.72	59.47	25.58	-22.9	-23.7	19.6	0.00e+00	0	43	0	1236271104	6	3954
2026-01-29 01:13:14.73	59.73	25.67	-22.9	-23.7	19.6	0.00e+00	0	43	0	1242562560	6	3952
2026-01-29 01:13:15.73	59.98	25.76	-23.0	-24.0	19.5	0.00e+00	0	43	0	1247805440	6	4019
2026-01-29 01:13:16.74	60.24	25.84	-23.0	-23.9	19.5	0.00e+00	0	43	0	1253048320	6	3993
2026-01-29 01:13:17.75	60.50	25.93	-22.9	-23.7	19.6	0.00e+00	0	43	0	1259339776	6	3955
2026-01-29 01:13:18.75	60.76	26.02	-22.7	-23.3	19.8	3.03e-04	0	44	0	1264582656	6	3861
2026-01-29 01:13:19.75	61.02	26.10	-22.6	-23.1	19.9	0.00e+00	0	43	0	1269825536	6	3807
2026-01-29 01:13:20.76	61.28	26.19	-22.5	-22.9	20.0	0.00e+00	0	43	0	1276116992	6	3770
2026-01-29 01:13:21.76	61.54	26.27	-22.6	-23.7	19.8	0.00e+00	0	43	0	1281359872	5	4065
2026-01-29 01:13:22.76	61.81	26.36	-22.5	-23.4	20.0	0.00e+00	0	43	0	1286602752	5	3988
2026-01-29 01:13:23.75	62.07	26.44	-22.4	-23.2	20.0	3.39e-04	0	43	0	1292894208	5	3955
2026-01-29 01:13:24.75	62.34	26.52	-22.4	-23.2	20.1	0.00e+00	0	43	0	1298137088	5	3946
2026-01-29 01:13:25.76	62.61	26.61	-22.4	-23.1	20.1	0.00e+00	0	43	0	1304428544	5	3923
2026-01-29 01:13:26.77	62.88	26.69	-22.4	-23.1	20.1	0.00e+00	0	43	0	1309671424	5	3920
2026-01-29 01:13:27.77	63.15	26.77	-22.5	-23.4	19.9	2.02e-04	0	43	0	1315962880	5	3987
2026-01-29 01:13:28.78	63.43	26.86	-22.4	-23.2	20.1	0.00e+00	0	43	0	1321205760	5	3945
2026-01-29 01:13:29.78	63.70	26.94	-22.3	-23.0	20.2	4.57e-05	0	43	0	1326448640	5	3896
2026-01-29 01:13:30.78	63.97	27.02	-22.3	-23.0	20.2	4.11e-05	0	43	0	1332740096	5	3892
2026-01-29 01:13:31.78	64.25	27.10	-22.2	-22.8	20.3	0.00e+00	0	44	0	1337982976	5	3849
2026-01-29 01:13:32.79	64.53	27.18	-22.3	-22.9	20.2	5.49e-05	0	44	0	1343225856	5	3871
2026-01-29 01:13:33.79	64.81	27.26	-22.4	-23.1	20.2	6.06e-05	0	43	0	1349517312	5	3923
2026-01-29 01:13:34.80	65.09	27.34	-22.5	-23.3	20.0	0.00e+00	0	43	0	1354760192	5	3982
2026-01-29 01:13:35.81	65.38	27.42	-22.5	-23.3	20.0	6.06e-05	0	43	0	1360003072	5	3973
2026-01-29 01:13:36.80	65.66	27.50	-22.4	-23.3	20.1	4.57e-05	0	43	0	1366294528	5	3963
2026-01-29 01:13:37.81	65.95	27.58	-22.4	-23.2	20.1	0.00e+00	0	44	0	1371537408	5	3940
2026-01-29 01:13:38.81	66.23	27.65	-22.4	-23.2	20.1	0.00e+00	0	43	0	1377828864	5	3954
2026-01-29 01:13:39.82	66.52	27.73	-22.4	-23.2	20.1	6.80e-06	0	43	0	1383071744	5	3936
2026-01-29 01:13:40.83	66.81	27.81	-22.5	-23.3	20.1	0.00e+00	0	43	0	1389363200	5	3970
2026-01-29 01:13:41.83	67.10	27.88	-22.6	-23.7	19.9	1.48e-05	0	44	0	1394606080	5	4061
2026-01-29 01:13:42.83	67.39	27.96	-22.5	-23.4	20.0	0.00e+00	0	43	0	1399848960	5	3998
2026-01-29 01:13:43.83	67.69	28.03	-22.3	-23.1	20.2	0.00e+00	0	43	0	1406140416	5	3917
2026-01-29 01:13:44.84	67.98	28.11	-22.3	-22.9	20.3	0.00e+00	0	44	0	1411383296	5	3881
2026-01-29 01:13:45.84	68.28	28.18	-22.5	-23.3	20.0	0.00e+00	0	43	0	1416626176	5	3978
2026-01-29 01:13:46.84	68.58	28.25	-22.4	-23.2	20.1	0.00e+00	0	43	0	1422917632	5	3952
2026-01-29 01:13:47.85	68.88	28.33	-22.5	-23.4	20.0	1.37e-05	0	43	0	1428160512	5	3998
2026-01-29 01:13:48.85	69.18	28.40	-22.4	-23.3	20.1	1.60e-05	0	43	0	1433403392	5	3959
2026-01-29 01:13:49.86	69.48	28.47	-22.4	-23.2	20.1	0.00e+00	0	43	0	1439694848	5	3946
2026-01-29 01:13:50.86	69.78	28.54	-22.4	-23.2	20.1	0.00e+00	0	43	0	1444937728	5	3942
2026-01-29 01:13:51.87	70.09	28.61	-22.3	-23.1	20.0	1.60e-05	0	43	0	1451229184	5	3932
2026-01-29 01:13:52.87	70.39	28.68	-22.5	-23.5	19.8	0.00e+00	0	43	0	1456472064	5	4025
2026-01-29 01:13:53.87	70.70	28.75	-22.4	-23.2	20.0	0.00e+00	0	44	0	1462763520	5	3949
2026-01-29 01:13:54.88	71.01	28.81	-22.3	-23.1	19.9	1.10e-06	0	43	0	1468006400	5	3940
2026-01-29 01:13:55.88	71.32	28.88	-22.4	-23.3	19.8	0.00e+00	0	44	0	1473249280	5	3995
2026-01-29 01:13:56.89	71.63	28.95	-22.4	-23.3	19.9	0.00e+00	0	43	0	1479540736	5	3981
2026-01-29 01:13:57.89	71.94	29.01	-22.3	-23.1	19.9	0.00e+00	0	43	0	1484783616	5	3944
2026-01-29 01:13:58.90	72.26	29.08	-22.3	-23.0	20.0	0.00e+00	0	43	0	1490026496	5	3914
2026-01-29 01:13:59.89	72.57	29.14	-22.4	-23.3	19.9	0.00e+00	0	44	0	1496317952	5	3981
2026-01-29 01:14:00.89	72.88	29.20	-22.2	-22.9	20.1	1.10e-06	0	43	0	1501560832	5	3878
2026-01-29 01:14:01.89	73.20	29.26	-22.2	-22.8	20.1	0.00e+00	0	43	0	1506803712	5	3857
2026-01-29 01:14:02.90	73.52	29.33	-22.3	-23.0	20.0	0.00e+00	0	44	0	1513095168	5	3917
2026-01-29 01:14:03.90	73.84	29.39	-22.5	-23.5	19.8	2.20e-06	0	43	0	1518338048	5	4032
2026-01-29 01:14:04.90	74.16	29.45	-22.6	-23.6	19.7	0.00e+00	0	43	0	1524629504	5	4068
2026-01-29 01:14:05.91	74.48	29.51	-22.5	-23.6	19.8	0.00e+00	0	44	0	1529872384	5	4053
2026-01-29 01:14:06.91	74.80	29.56	-22.7	-23.8	19.6	0.00e+00	0	43	0	1535115264	5	4106
2026-01-29 01:14:07.92	75.13	29.62	-22.9	-24.3	19.4	0.00e+00	0	43	0	1541406720	5	4234
2026-01-29 01:14:08.93	75.46	29.68	-22.7	-23.9	19.6	0.00e+00	0	44	0	1546649600	5	4129
2026-01-29 01:14:09.93	75.78	29.73	-22.5	-23.6	19.7	3.40e-06	0	44	0	1552941056	5	4046
2026-01-29 01:14:10.93	76.11	29.79	-22.5	-23.4	19.8	0.00e+00	0	44	0	1558183936	5	4001
2026-01-29 01:14:11.94	76.44	29.84	-22.5	-23.6	19.8	0.00e+00	0	43	0	1563426816	5	4049
2026-01-29 01:14:12.94	76.77	29.89	-22.5	-23.5	19.8	1.10e-06	0	44	0	1569718272	5	4029
2026-01-29 01:14:13.94	77.10	29.95	-22.7	-23.9	19.6	0.00e+00	0	44	0	1574961152	5	4135
2026-01-29 01:14:14.94	77.43	30.00	-22.3	-23.1	20.0	0.00e+00	0	44	0	1580204032	5	3935
2026-01-29 01:14:15.95	77.76	30.05	-22.0	-22.5	20.3	1.10e-06	0	43	0	1586495488	5	3799
2026-01-29 01:14:16.95	78.10	30.09	-22.0	-22.5	20.3	0.00e+00	0	43	0	1591738368	5	3786
2026-01-29 01:14:17.94	78.43	30.14	-22.2	-22.8	20.1	0.00e+00	0	43	0	1598029824	5	3860
2026-01-29 01:14:18.95	78.76	30.19	-22.2	-22.8	20.1	0.00e+00	0	43	0	1603272704	5	3869
2026-01-29 01:14:19.95	79.10	30.24	-22.3	-23.0	20.0	0.00e+00	0	44	0	1608515584	5	3923
2026-01-29 01:14:20.95	79.44	30.28	-22.5	-23.5	19.8	0.00e+00	0	44	0	1614807040	5	4032
2026-01-29 01:14:21.96	79.78	30.32	-22.5	-23.5	19.8	0.00e+00	0	44	0	1620049920	5	4038
2026-01-29 01:14:22.95	80.11	30.37	-22.7	-23.9	19.6	0.00e+00	0	44	0	1625292800	5	4137
2026-01-29 01:14:23.95	80.45	30.41	-22.5	-23.4	19.8	0.00e+00	0	44	0	1631584256	5	4022
2026-01-29 01:14:24.95	80.79	30.45	-22.3	-23.0	20.0	0.00e+00	0	43	0	1636827136	5	3923
2026-01-29 01:14:25.96	81.14	30.49	-22.3	-23.0	20.0	0.00e+00	0	43	0	1642070016	5	3908
2026-01-29 01:14:26.96	81.48	30.53	-22.5	-23.4	19.8	0.00e+00	0	44	0	1648361472	5	4019
2026-01-29 01:14:27.97	81.82	30.57	-22.6	-23.8	19.6	0.00e+00	0	44	0	1653604352	5	4097
2026-01-29 01:14:28.97	82.17	30.60	-22.8	-24.1	19.5	0.00e+00	0	43	0	1659895808	5	4175
2026-01-29 01:14:29.98	82.51	30.64	-22.7	-23.8	19.6	0.00e+00	0	43	0	1665138688	5	4111
2026-01-29 01:14:30.98	82.86	30.67	-22.7	-23.9	19.6	0.00e+00	0	43	0	1671430144	5	4125
2026-01-29 01:14:31.98	83.20	30.71	-22.8	-24.1	19.5	0.00e+00	0	43	0	1676673024	5	4193
2026-01-29 01:14:32.97	83.55	30.74	-22.7	-23.8	19.6	0.00e+00	0	43	0	1681915904	5	4113
2026-01-29 01:14:33.97	83.89	30.77	-22.9	-24.4	19.4	0.00e+00	0	43	0	1688207360	5	4248
2026-01-29 01:14:34.98	84.25	30.80	-22.6	-23.7	19.7	0.00e+00	0	44	0	1693450240	5	4085
2026-01-29 01:14:35.98	84.59	30.83	-22.4	-23.3	19.9	0.00e+00	0	43	0	1698693120	5	3992
2026-01-29 01:14:36.99	84.95	30.86	-22.4	-23.3	19.9	0.00e+00	0	43	0	1704984576	5	3992
2026-01-29 01:14:37.99	85.30	30.89	-22.4	-23.3	19.9	0.00e+00	0	44	0	1710227456	5	3981
2026-01-29 01:14:39.00	85.65	30.91	-22.3	-23.1	20.0	0.00e+00	0	44	0	1715470336	5	3932
2026-01-29 01:14:40.00	86.00	30.94	-22.3	-23.0	20.0	0.00e+00	0	43	0	1721761792	5	3913
2026-01-29 01:14:41.00	86.35	30.96	-22.2	-22.9	20.0	0.00e+00	0	43	0	1727004672	5	3904
2026-01-29 01:14:42.00	86.70	30.98	-22.2	-22.9	20.1	0.00e+00	0	43	0	1733296128	5	3883
2026-01-29 01:14:43.01	87.06	31.00	-22.3	-23.0	20.1	0.00e+00	0	44	0	1738539008	5	3907
2026-01-29 01:14:44.01	87.41	31.02	-22.2	-22.9	20.1	0.00e+00	0	43	0	1743781888	5	3897
2026-01-29 01:14:45.01	87.76	31.04	-22.4	-23.3	19.9	0.00e+00	0	44	0	1750073344	5	3980
2026-01-29 01:14:46.01	88.12	31.06	-22.3	-23.2	19.9	0.00e+00	0	43	0	1755316224	5	3957
2026-01-29 01:14:47.01	88.47	31.08	-22.3	-23.1	20.0	0.00e+00	0	44	0	1760559104	5	3944
2026-01-29 01:14:48.02	88.83	31.09	-22.4	-23.3	19.9	0.00e+00	0	43	0	1766850560	5	3979
2026-01-29 01:14:49.02	89.18	31.11	-22.2	-22.9	20.1	0.00e+00	0	43	0	1772093440	5	3887
2026-01-29 01:14:50.02	89.54	31.12	-22.2	-22.9	20.1	0.00e+00	0	43	0	1778384896	5	3881
2026-01-29 01:14:51.02	89.89	31.13	-22.4	-23.2	19.9	0.00e+00	0	43	0	1783627776	5	3969
2026-01-29 01:14:52.03	90.25	31.14	-22.3	-23.1	20.0	0.00e+00	0	43	0	1788870656	5	3949
2026-01-29 01:14:53.03	90.61	31.15	-22.3	-23.1	20.0	0.00e+00	0	44	0	1795162112	5	3933
2026-01-29 01:14:54.03	90.96	31.16	-22.2	-22.9	20.1	0.00e+00	0	43	0	1800404992	5	3885
2026-01-29 01:14:55.03	91.32	31.17	-22.3	-23.1	20.0	0.00e+00	0	43	0	1806696448	5	3946
2026-01-29 01:14:56.04	91.68	31.17	-22.3	-23.0	20.0	0.00e+00	0	44	0	1811939328	5	3926
2026-01-29 01:14:57.04	92.03	31.18	-22.4	-23.2	19.9	0.00e+00	0	44	0	1817182208	5	3966
2026-01-29 01:14:58.05	92.39	31.18	-22.3	-23.0	20.0	0.00e+00	0	43	0	1823473664	5	3913
2026-01-29 01:14:59.06	92.75	31.18	-22.3	-23.0	19.8	0.00e+00	0	43	0	1828716544	5	3924
2026-01-29 01:15:00.06	93.11	31.18	-22.3	-23.1	19.6	0.00e+00	0	43	0	1833959424	5	3949
2026-01-29 01:15:01.06	93.47	31.18	-22.3	-23.0	20.0	0.00e+00	0	43	0	1840250880	5	3909
2026-01-29 01:15:02.07	93.83	31.18	-22.3	-23.1	20.0	0.00e+00	0	43	0	1845493760	5	3951
2026-01-29 01:15:03.07	94.18	31.18	-22.6	-23.7	19.7	0.00e+00	0	43	0	1851785216	5	4074
2026-01-29 01:15:04.08	94.54	31.17	-22.4	-23.4	19.9	0.00e+00	0	44	0	1857028096	5	4006
2026-01-29 01:15:05.09	94.90	31.17	-22.4	-23.4	19.9	0.00e+00	0	43	0	1862270976	5	4002
2026-01-29 01:15:06.09	95.26	31.16	-22.5	-23.6	19.8	0.00e+00	0	43	0	1868562432	5	4054
2026-01-29 01:15:07.10	95.62	31.16	-22.5	-23.5	19.8	0.00e+00	0	43	0	1873805312	5	4038
2026-01-29 01:15:08.10	95.97	31.15	-22.6	-23.7	19.7	0.00e+00	0	43	0	1880096768	5	4080
2026-01-29 01:15:09.10	96.33	31.14	-22.6	-23.8	19.7	0.00e+00	0	43	0	1885339648	5	4111
2026-01-29 01:15:10.10	96.69	31.13	-22.6	-23.7	19.7	0.00e+00	0	44	0	1890582528	5	4082
2026-01-29 01:15:11.11	97.04	31.11	-22.5	-23.5	19.8	0.00e+00	0	44	0	1896873984	5	4039
2026-01-29 01:15:12.11	97.40	31.10	-22.3	-23.2	20.0	0.00e+00	0	44	0	1902116864	5	3951
2026-01-29 01:15:13.12	97.76	31.09	-22.4	-23.2	19.9	0.00e+00	0	43	0	1908408320	5	3966
2026-01-29 01:15:14.12	98.11	31.07	-22.6	-23.7	19.7	0.00e+00	0	44	0	1913651200	5	4089
2026-01-29 01:15:15.12	98.46	31.05	-22.5	-23.4	19.8	0.00e+00	0	43	0	1918894080	5	4006
2026-01-29 01:15:16.13	98.82	31.03	-22.3	-23.1	20.0	0.00e+00	0	43	0	1925185536	5	3942
2026-01-29 01:15:17.13	99.17	31.01	-22.3	-23.2	19.9	0.00e+00	0	43	0	1930428416	5	3949
2026-01-29 01:15:18.13	99.53	30.99	-22.5	-23.4	19.8	1.10e-06	0	44	0	1935671296	5	4006
2026-01-29 01:15:19.13	99.88	30.97	-22.4	-23.3	19.9	0.00e+00	0	44	0	1941962752	5	3974
2026-01-29 01:15:20.14	100.24	30.95	-22.3	-23.1	20.0	0.00e+00	0	43	0	1947205632	5	3939
2026-01-29 01:15:21.14	100.59	30.93	-22.4	-23.3	19.9	5.70e-06	0	44	0	1953497088	5	3974
2026-01-29 01:15:22.14	100.94	30.90	-22.5	-23.5	19.8	0.00e+00	0	44	0	1958739968	5	4042
2026-01-29 01:15:23.15	101.29	30.87	-22.5	-23.5	19.8	1.10e-06	0	43	0	1963982848	5	4029
2026-01-29 01:15:24.16	101.64	30.85	-22.4	-23.3	19.9	2.20e-06	0	43	0	1970274304	5	3974
2026-01-29 01:15:25.17	102.00	30.82	-22.5	-23.4	19.9	0.00e+00	0	43	0	1975517184	5	4011
2026-01-29 01:15:26.18	102.35	30.79	-22.8	-24.0	19.5	0.00e+00	0	44	0	1981808640	5	4167
2026-01-29 01:15:27.18	102.70	30.76	-22.9	-24.4	19.4	0.00e+00	0	43	0	1987051520	5	4259
2026-01-29 01:15:28.19	103.05	30.73	-22.9	-24.3	19.4	0.00e+00	0	43	0	1992294400	5	4240
2026-01-29 01:15:29.19	103.39	30.69	-23.0	-24.5	19.3	1.60e-05	0	44	0	1998585856	5	4274
2026-01-29 01:15:30.19	103.74	30.66	-22.8	-24.1	19.5	2.28e-05	0	44	0	2003828736	5	4191
2026-01-29 01:15:31.20	104.09	30.62	-22.8	-24.0	19.5	0.00e+00	0	44	0	2010120192	5	4166
2026-01-29 01:15:32.21	104.44	30.59	-22.7	-23.8	19.6	9.49e-05	0	44	0	2015363072	5	4117
2026-01-29 01:15:33.21	104.78	30.55	-22.6	-23.6	19.7	1.10e-04	0	44	0	2020605952	5	4051
2026-01-29 01:15:34.22	105.13	30.51	-22.9	-24.3	19.4	0.00e+00	0	44	0	2026897408	5	4222
2026-01-29 01:15:35.22	105.47	30.47	-22.7	-23.8	19.6	3.54e-05	0	44	0	2032140288	5	4111
2026-01-29 01:15:36.22	105.81	30.43	-22.5	-23.5	19.7	0.00e+00	0	44	0	2038431744	5	4048
2026-01-29 01:15:37.22	106.15	30.39	-22.4	-23.3	19.8	0.00e+00	0	43	0	2043674624	5	3996
2026-01-29 01:15:38.23	106.49	30.35	-22.4	-23.2	19.9	0.00e+00	0	44	0	2048917504	5	3966
2026-01-29 01:15:39.23	106.83	30.30	-22.4	-23.3	19.9	0.00e+00	0	43	0	2055208960	5	3978
2026-01-29 01:15:40.23	107.17	30.26	-22.4	-23.2	19.9	0.00e+00	0	43	0	2060451840	5	3961
2026-01-29 01:15:41.24	107.51	30.21	-22.4	-23.4	19.8	0.00e+00	0	44	0	2065694720	5	3999
2026-01-29 01:15:42.24	107.84	30.17	-22.5	-23.5	19.7	0.00e+00	0	44	0	2071986176	5	4044
2026-01-29 01:15:43.24	108.18	30.12	-22.5	-23.5	19.7	0.00e+00	0	43	0	2077229056	5	4035
2026-01-29 01:15:44.24	108.51	30.07	-22.5	-23.4	19.8	0.00e+00	0	43	0	2083520512	5	4009
2026-01-29 01:15:45.25	108.85	30.02	-22.5	-23.5	19.7	0.00e+00	0	44	0	2088763392	5	4038
2026-01-29 01:15:46.25	109.18	29.97	-22.5	-23.5	19.7	0.00e+00	0	43	0	2094006272	5	4044
2026-01-29 01:15:47.26	109.51	29.92	-22.7	-24.0	19.5	0.00e+00	0	44	0	2100297728	5	4153
2026-01-29 01:15:48.27	109.85	29.86	-22.8	-24.1	19.4	0.00e+00	0	44	0	2105540608	5	4185
2026-01-29 01:15:49.27	110.18	29.81	-22.7	-23.9	19.5	0.00e+00	0	43	0	2111832064	5	4143
2026-01-29 01:15:50.28	110.51	29.76	-22.7	-23.9	19.5	0.00e+00	0	43	0	2117074944	5	4124
2026-01-29 01:15:51.28	110.83	29.70	-22.7	-23.9	19.5	0.00e+00	0	44	0	2122317824	5	4135
2026-01-29 01:15:52.28	111.16	29.65	-22.5	-23.5	19.6	0.00e+00	0	44	0	2128609280	5	4041
2026-01-29 01:15:53.29	111.49	29.59	-22.6	-23.7	19.6	0.00e+00	0	44	0	2133852160	5	4084
2026-01-29 01:15:54.29	111.81	29.53	-22.8	-24.1	19.5	0.00e+00	0	44	0	2139095040	5	4178
2026-01-29 01:15:55.29	112.13	29.47	-22.7	-24.0	19.5	0.00e+00	0	44	0	2145386496	5	4153
2026-01-29 01:15:56.30	112.46	29.41	-22.8	-24.1	19.5	0.00e+00	0	44	0	2150629376	5	4183
2026-01-29 01:15:57.30	112.78	29.35	-22.8	-24.2	19.4	0.00e+00	0	44	0	2156920832	5	4198
2026-01-29 01:15:58.30	113.09	29.29	-22.7	-23.9	19.5	0.00e+00	0	44	0	2162163712	5	4123
2026-01-29 01:15:59.31	113.41	29.23	-22.5	-23.5	19.7	0.00e+00	0	44	0	2167406592	5	4031
2026-01-29 01:16:00.31	113.73	29.17	-22.4	-23.4	19.8	0.00e+00	0	43	0	2173698048	5	3999
2026-01-29 01:16:01.31	114.05	29.10	-22.5	-23.5	19.7	0.00e+00	0	43	0	2178940928	5	4029
2026-01-29 01:16:02.32	114.36	29.04	-22.5	-23.6	19.7	0.00e+00	0	44	0	2185232384	5	4049
2026-01-29 01:16:03.33	114.68	28.97	-22.6	-23.7	19.6	0.00e+00	0	44	0	2190475264	5	4089
2026-01-29 01:16:04.33	114.99	28.91	-22.6	-23.8	19.6	0.00e+00	0	43	0	2195718144	5	4100
2026-01-29 01:16:05.33	115.30	28.84	-22.6	-23.7	19.6	0.00e+00	0	43	0	2202009600	5	4099
2026-01-29 01:16:06.33	115.61	28.77	-22.6	-23.7	19.6	0.00e+00	0	44	0	2207252480	5	4080
2026-01-29 01:16:07.33	115.92	28.70	-22.7	-23.8	19.5	0.00e+00	0	43	0	2212495360	5	4112
2026-01-29 01:16:08.33	116.22	28.64	-22.7	-23.9	19.5	0.00e+00	0	43	0	2218786816	5	4126
2026-01-29 01:16:09.33	116.53	28.57	-22.7	-23.9	19.5	0.00e+00	0	44	0	2224029696	5	4136
2026-01-29 01:16:10.33	116.83	28.50	-22.6	-23.8	19.5	0.00e+00	0	44	0	2230321152	5	4107
2026-01-29 01:16:11.34	117.14	28.43	-22.7	-23.8	19.6	0.00e+00	0	43	0	2235564032	5	4109
2026-01-29 01:16:12.34	117.44	28.35	-22.7	-24.0	19.5	0.00e+00	0	44	0	2240806912	5	4147
2026-01-29 01:16:13.34	117.74	28.28	-22.6	-23.7	19.6	0.00e+00	0	44	0	2247098368	5	4081
2026-01-29 01:16:14.34	118.03	28.21	-22.7	-23.8	19.5	0.00e+00	0	43	0	2252341248	5	4122
2026-01-29 01:16:15.34	118.33	28.14	-22.7	-24.0	19.5	0.00e+00	0	44	0	2257584128	5	4159
2026-01-29 01:16:16.35	118.63	28.06	-22.7	-23.9	19.5	0.00e+00	0	44	0	2263875584	5	4132
2026-01-29 01:16:17.35	118.92	27.99	-22.6	-23.8	19.6	5.70e-06	0	44	0	2269118464	5	4105
2026-01-29 01:16:18.35	119.22	27.91	-22.6	-23.7	19.6	0.00e+00	0	44	0	2274361344	5	4072
2026-01-29 01:16:19.36	119.51	27.84	-22.7	-23.9	19.5	0.00e+00	0	44	0	2280652800	5	4137
2026-01-29 01:16:20.36	119.80	27.76	-22.9	-24.2	19.3	0.00e+00	0	44	0	2285895680	5	4213
2026-01-29 01:16:21.36	120.09	27.68	-22.7	-23.9	19.5	0.00e+00	0	44	0	2292187136	5	4140
2026-01-29 01:16:22.37	120.38	27.60	-22.6	-23.7	19.6	0.00e+00	0	44	0	2297430016	5	4090
2026-01-29 01:16:23.38	120.67	27.53	-22.6	-23.7	19.6	6.80e-06	0	43	0	2303721472	5	4088
2026-01-29 01:16:24.38	120.96	27.45	-22.6	-23.6	19.6	0.00e+00	0	44	0	2308964352	5	4064
2026-01-29 01:16:25.37	121.24	27.37	-22.6	-23.7	19.5	0.00e+00	0	44	0	2314207232	5	4094
2026-01-29 01:16:26.38	121.52	27.29	-22.7	-23.8	19.5	0.00e+00	0	44	0	2320498688	5	4117
2026-01-29 01:16:27.38	121.80	27.21	-22.6	-23.7	19.5	0.00e+00	0	44	0	2325741568	5	4088
2026-01-29 01:16:28.38	122.08	27.13	-22.7	-23.9	19.5	0.00e+00	0	44	0	2330984448	5	4134
2026-01-29 01:16:29.39	122.36	27.05	-22.8	-24.1	19.4	3.40e-06	0	43	0	2337275904	5	4184
2026-01-29 01:16:30.40	122.64	26.96	-22.7	-23.9	19.4	0.00e+00	0	44	0	2342518784	5	4133
2026-01-29 01:16:31.40	122.92	26.88	-22.7	-23.8	19.5	0.00e+00	0	44	0	2347761664	5	4121
2026-01-29 01:16:32.41	123.19	26.80	-22.7	-23.8	19.5	4.50e-06	0	44	0	2354053120	5	4121
2026-01-29 01:16:33.41	123.47	26.72	-22.8	-24.2	19.3	0.00e+00	0	43	0	2359296000	5	4205
2026-01-29 01:16:34.42	123.74	26.63	-22.9	-24.4	19.2	0.00e+00	0	44	0	2365587456	5	4269
2026-01-29 01:16:35.42	124.01	26.55	-23.1	-24.4	19.0	3.40e-06	0	43	0	2370830336	6	4142
2026-01-29 01:16:36.42	124.28	26.46	-23.1	-24.2	19.0	0.00e+00	0	44	0	2377121792	6	4111
2026-01-29 01:16:37.43	124.55	26.38	-22.9	-23.7	19.3	0.00e+00	0	44	0	2382364672	6	3984
2026-01-29 01:16:38.43	124.81	26.29	-22.7	-23.4	19.1	1.10e-06	0	44	0	2387607552	6	3905
2026-01-29 01:16:39.43	125.08	26.21	-22.8	-23.5	19.4	0.00e+00	0	44	0	2393899008	6	3926
2026-01-29 01:16:40.44	125.34	26.12	-22.8	-23.5	19.4	0.00e+00	0	44	0	2399141888	6	3930
2026-01-29 01:16:41.44	125.60	26.04	-22.8	-23.7	19.3	1.10e-06	0	44	0	2404384768	6	3977
2026-01-29 01:16:42.45	125.86	25.95	-22.9	-23.8	19.2	0.00e+00	0	44	0	2410676224	6	4012
2026-01-29 01:16:43.45	126.12	25.86	-22.9	-23.7	19.2	0.00e+00	0	44	0	2415919104	6	3988
2026-01-29 01:16:44.45	126.38	25.78	-22.8	-23.6	19.3	0.00e+00	0	44	0	2421161984	6	3961
2026-01-29 01:16:45.45	126.64	25.69	-22.8	-23.6	19.3	0.00e+00	0	44	0	2427453440	6	3953
2026-01-29 01:16:46.45	126.89	25.60	-22.8	-23.6	19.3	1.86e-04	0	44	0	2432696320	6	3956
2026-01-29 01:16:47.46	127.15	25.51	-22.7	-23.5	19.3	0.00e+00	0	44	0	2438987776	6	3919
2026-01-29 01:16:48.46	127.40	25.43	-22.7	-23.4	19.4	0.00e+00	0	44	0	2444230656	6	3906
2026-01-29 01:16:49.46	127.65	25.34	-22.7	-23.5	19.4	0.00e+00	0	44	0	2449473536	6	3917
2026-01-29 01:16:50.47	127.90	25.25	-22.7	-23.4	19.4	2.02e-04	0	44	0	2455764992	6	3896
2026-01-29 01:16:51.47	128.15	25.16	-22.8	-23.5	19.4	0.00e+00	0	44	0	2461007872	6	3926
2026-01-29 01:16:52.47	128.39	25.07	-22.8	-23.6	19.3	0.00e+00	0	44	0	2467299328	6	3951
2026-01-29 01:16:53.47	128.64	24.98	-22.9	-23.8	19.2	1.61e-04	0	44	0	2472542208	6	4007
2026-01-29 01:16:54.47	128.88	24.89	-22.9	-23.9	19.2	0.00e+00	0	43	0	2477785088	6	4019
2026-01-29 01:16:55.47	129.12	24.80	-23.0	-24.0	19.1	1.54e-04	0	44	0	2484076544	6	4040
2026-01-29 01:16:56.47	129.36	24.71	-23.1	-24.2	19.0	0.00e+00	0	44	0	2489319424	6	4106
2026-01-29 01:16:57.48	129.61	24.62	-23.2	-24.5	18.9	0.00e+00	0	44	0	2494562304	6	4167
2026-01-29 01:16:58.48	129.84	24.53	-23.3	-24.6	18.8	2.02e-04	0	44	0	2500853760	6	4208
2026-01-29 01:16:59.48	130.08	24.44	-23.2	-24.6	18.8	0.00e+00	0	44	0	2506096640	6	4194
2026-01-29 01:17:00.49	130.32	24.35	-23.3	-24.7	18.7	0.00e+00	0	44	0	2512388096	6	4224
2026-01-29 01:17:01.49	130.55	24.26	-23.2	-24.5	18.9	0.00e+00	0	44	0	2517630976	6	4159
2026-01-29 01:17:02.50	130.79	24.16	-23.0	-24.1	19.0	1.35e-04	0	44	0	2522873856	6	4069
2026-01-29 01:17:03.49	131.02	24.07	-23.0	-24.0	19.1	0.00e+00	0	44	0	2529165312	6	4047
2026-01-29 01:17:04.50	131.25	23.98	-23.0	-24.1	19.0	1.45e-04	0	44	0	2534408192	6	4079
2026-01-29 01:17:05.49	131.47	23.89	-23.1	-24.3	18.9	1.44e-04	0	44	0	2539651072	6	4130
2026-01-29 01:17:06.50	131.70	23.80	-23.2	-24.4	18.8	0.00e+00	0	44	0	2545942528	6	4146
2026-01-29 01:17:07.50	131.93	23.71	-23.1	-24.3	18.9	1.36e-04	0	44	0	2551185408	6	4137
2026-01-29 01:17:08.50	132.16	23.61	-23.1	-24.3	18.9	0.00e+00	0	44	0	2556428288	6	4132
2026-01-29 01:17:09.50	132.38	23.52	-23.2	-24.4	18.9	0.00e+00	0	44	0	2562719744	6	4143
2026-01-29 01:17:10.51	132.60	23.43	-23.2	-24.4	18.9	1.29e-04	0	44	0	2567962624	6	4146
2026-01-29 01:17:11.51	132.82	23.34	-23.1	-24.2	18.9	9.84e-05	0	44	0	2574254080	6	4097
2026-01-29 01:17:12.51	133.04	23.24	-23.1	-24.2	18.9	0.00e+00	0	44	0	2579496960	6	4100
2026-01-29 01:17:13.51	133.26	23.15	-23.2	-24.3	18.9	7.20e-05	0	44	0	2584739840	6	4129
2026-01-29 01:17:14.52	133.48	23.06	-23.2	-24.4	18.9	4.34e-05	0	44	0	2591031296	6	4144
2026-01-29 01:17:15.52	133.70	22.96	-23.1	-24.3	18.9	0.00e+00	0	44	0	2596274176	6	4127
2026-01-29 01:17:16.53	133.91	22.87	-23.2	-24.4	18.8	1.60e-05	0	44	0	2602565632	6	4157
2026-01-29 01:17:17.53	134.13	22.78	-23.3	-24.6	18.8	0.00e+00	0	44	0	2607808512	6	4186
2026-01-29 01:17:18.54	134.34	22.68	-23.3	-24.8	18.6	0.00e+00	0	44	0	2613051392	6	4244
2026-01-29 01:17:19.54	134.55	22.59	-23.4	-25.0	18.5	0.00e+00	0	44	0	2619342848	6	4301
2026-01-29 01:17:20.53	134.76	22.50	-23.5	-25.1	18.5	0.00e+00	0	44	0	2624585728	6	4327
2026-01-29 01:17:21.53	134.97	22.41	-23.5	-24.7	18.4	0.00e+00	0	44	0	2629828608	7	4111
2026-01-29 01:17:22.54	135.18	22.31	-23.6	-24.8	18.3	4.50e-06	0	44	0	2636120064	7	4154
2026-01-29 01:17:23.54	135.38	22.22	-23.6	-24.9	18.3	1.04e-04	0	44	0	2641362944	7	4168
2026-01-29 01:17:24.55	135.59	22.12	-23.6	-24.8	18.3	0.00e+00	0	44	0	2647654400	7	4134
2026-01-29 01:17:25.55	135.80	22.03	-23.6	-24.9	18.3	0.00e+00	0	44	0	2652897280	7	4163
2026-01-29 01:17:26.56	136.00	21.94	-23.6	-24.8	18.3	6.17e-05	0	44	0	2658140160	7	4137
2026-01-29 01:17:27.57	136.20	21.84	-23.6	-24.8	18.3	0.00e+00	0	44	0	2664431616	7	4145
2026-01-29 01:17:28.57	136.40	21.75	-23.7	-24.9	18.2	2.51e-05	0	44	0	2669674496	7	4173
2026-01-29 01:17:29.58	136.60	21.65	-23.7	-25.1	18.2	0.00e+00	0	44	0	2675965952	7	4221
2026-01-29 01:17:30.58	136.80	21.56	-23.9	-25.5	18.0	0.00e+00	0	44	0	2681208832	7	4310
2026-01-29 01:17:31.58	137.00	21.47	-24.0	-25.3	17.8	0.00e+00	0	44	0	2686451712	8	4148
2026-01-29 01:17:32.58	137.19	21.38	-24.3	-25.9	17.5	0.00e+00	0	44	0	2692743168	8	4299
2026-01-29 01:17:33.59	137.39	21.28	-24.4	-26.0	17.4	0.00e+00	0	44	0	2697986048	8	4347
2026-01-29 01:17:34.58	137.58	21.19	-24.2	-25.6	17.6	0.00e+00	0	44	0	2703228928	8	4227
2026-01-29 01:17:35.59	137.78	21.09	-24.1	-25.4	17.7	1.62e-04	0	44	0	2709520384	8	4181
2026-01-29 01:17:36.59	137.97	21.00	-24.1	-25.4	17.7	0.00e+00	0	44	0	2714763264	8	4177
2026-01-29 01:17:37.60	138.16	20.91	-24.1	-25.3	17.8	0.00e+00	0	44	0	2721054720	8	4160
2026-01-29 01:17:38.60	138.35	20.81	-24.1	-25.4	17.7	0.00e+00	0	44	0	2726297600	8	4187
2026-01-29 01:17:39.61	138.54	20.72	-24.1	-25.5	17.7	0.00e+00	0	43	0	2731540480	8	4206
2026-01-29 01:17:40.62	138.72	20.63	-24.2	-25.7	17.6	0.00e+00	0	44	0	2737831936	8	4258
2026-01-29 01:17:41.62	138.91	20.53	-24.2	-25.7	17.5	0.00e+00	0	44	0	2743074816	8	4266
2026-01-29 01:17:42.63	139.10	20.44	-24.2	-25.8	17.4	0.00e+00	0	44	0	2749366272	8	4292
2026-01-29 01:17:43.64	139.28	20.35	-24.4	-26.2	17.3	0.00e+00	0	43	0	2754609152	8	4396
2026-01-29 01:17:44.65	139.46	20.25	-24.6	-25.9	17.1	0.00e+00	0	44	0	2759852032	9	4218
2026-01-29 01:17:45.65	139.65	20.16	-24.6	-26.1	17.1	0.00e+00	0	44	0	2766143488	9	4269
2026-01-29 01:17:46.65	139.83	20.07	-24.5	-25.8	17.2	0.00e+00	0	44	0	2771386368	9	4189
2026-01-29 01:17:47.65	140.00	19.97	-24.3	-25.4	17.4	0.00e+00	0	44	0	2776629248	9	4084
2026-01-29 01:17:48.66	140.18	19.88	-24.3	-25.4	17.4	1.37e-05	0	44	0	2782920704	9	4069
2026-01-29 01:17:49.66	140.36	19.79	-24.4	-25.6	17.3	0.00e+00	0	43	0	2788163584	9	4132
2026-01-29 01:17:50.66	140.54	19.70	-24.5	-25.7	17.3	0.00e+00	0	44	0	2794455040	9	4153
2026-01-29 01:17:51.66	140.71	19.60	-24.6	-26.1	17.1	0.00e+00	0	44	0	2799697920	9	4244
2026-01-29 01:17:52.67	140.89	19.51	-24.6	-26.0	17.1	0.00e+00	0	44	0	2805989376	9	4220
2026-01-29 01:17:53.67	141.06	19.42	-24.3	-25.4	17.4	0.00e+00	0	44	0	2811232256	9	4079
2026-01-29 01:17:54.68	141.23	19.32	-24.2	-25.1	17.6	2.20e-06	0	44	0	2816475136	9	3991
2026-01-29 01:17:55.68	141.40	19.23	-24.1	-25.0	17.6	1.10e-06	0	44	0	2822766592	9	3979
2026-01-29 01:17:56.68	141.57	19.14	-24.2	-25.2	17.5	0.00e+00	0	44	0	2828009472	9	4028
2026-01-29 01:17:57.69	141.74	19.05	-24.4	-25.5	17.3	0.00e+00	0	43	0	2833252352	9	4106
2026-01-29 01:17:58.69	141.91	18.96	-24.4	-25.5	17.3	0.00e+00	0	44	0	2839543808	9	4110
2026-01-29 01:17:59.70	142.08	18.86	-24.3	-25.5	17.3	0.00e+00	0	44	0	2844786688	9	4098
2026-01-29 01:18:00.70	142.24	18.77	-24.4	-25.6	17.2	0.00e+00	0	44	0	2850029568	9	4131
2026-01-29 01:18:01.71	142.41	18.68	-24.4	-25.7	17.2	0.00e+00	0	44	0	2856321024	9	4143
2026-01-29 01:18:02.72	142.58	18.59	-24.5	-25.8	17.1	0.00e+00	0	44	0	2861563904	9	4186
2026-01-29 01:18:03.73	142.74	18.50	-24.7	-26.2	16.9	0.00e+00	0	44	0	2867855360	9	4272
2026-01-29 01:18:04.73	142.90	18.41	-24.7	-26.1	16.9	0.00e+00	0	44	0	2873098240	9	4266
2026-01-29 01:18:05.73	143.06	18.31	-24.6	-26.1	16.9	0.00e+00	0	44	0	2879389696	9	4252
2026-01-29 01:18:06.74	143.23	18.22	-24.7	-26.2	16.9	0.00e+00	0	44	0	2884632576	9	4276
2026-01-29 01:18:07.74	143.38	18.13	-24.7	-26.1	16.9	0.00e+00	0	44	0	2889875456	9	4270
2026-01-29 01:18:08.74	143.54	18.04	-24.6	-26.1	16.9	0.00e+00	0	44	0	2896166912	9	4244
2026-01-29 01:18:09.74	143.70	17.95	-24.7	-26.3	16.8	0.00e+00	0	43	0	2901409792	9	4304
2026-01-29 01:18:10.75	143.86	17.86	-24.7	-26.3	16.8	0.00e+00	0	44	0	2906652672	9	4305
2026-01-29 01:18:11.75	144.01	17.77	-24.7	-26.3	16.7	0.00e+00	0	44	0	2912944128	9	4308
2026-01-29 01:18:12.76	144.17	17.68	-24.9	-26.7	16.5	0.00e+00	0	44	0	2918187008	9	4417
2026-01-29 01:18:13.76	144.32	17.59	-24.9	-26.6	16.6	0.00e+00	0	44	0	2923429888	9	4386
2026-01-29 01:18:14.76	144.48	17.50	-24.8	-26.5	16.6	0.00e+00	0	44	0	2929721344	9	4360
2026-01-29 01:18:15.76	144.63	17.41	-24.9	-26.6	16.6	0.00e+00	0	44	0	2934964224	9	4395
2026-01-29 01:18:16.77	144.78	17.32	-24.9	-26.7	14.7	0.00e+00	0	44	0	2941255680	9	4415
2026-01-29 01:18:17.78	144.93	17.23	-24.9	-26.7	16.5	0.00e+00	0	44	0	2946498560	9	4414
2026-01-29 01:18:18.78	145.08	17.14	-25.1	-26.5	16.2	0.00e+00	0	44	0	2952790016	10	4250
2026-01-29 01:18:19.78	145.23	17.05	-25.1	-26.7	16.2	0.00e+00	0	44	0	2958032896	10	4299
2026-01-29 01:18:20.79	145.38	16.96	-25.1	-26.6	16.3	0.00e+00	0	44	0	2963275776	10	4287
2026-01-29 01:18:21.80	145.53	16.87	-25.0	-26.4	16.4	0.00e+00	0	44	0	2969567232	10	4233
2026-01-29 01:18:22.80	145.67	16.78	-24.9	-26.2	16.5	0.00e+00	0	44	0	2974810112	10	4184
2026-01-29 01:18:23.81	145.82	16.69	-25.0	-26.3	16.4	0.00e+00	0	44	0	2980052992	10	4197
2026-01-29 01:18:24.81	145.96	16.61	-24.9	-26.2	16.5	0.00e+00	0	44	0	2986344448	10	4157
2026-01-29 01:18:25.82	146.11	16.52	-24.9	-26.2	16.5	0.00e+00	0	44	0	2991587328	10	4181
2026-01-29 01:18:26.83	146.25	16.43	-25.1	-26.6	16.3	0.00e+00	0	44	0	2997878784	10	4267
2026-01-29 01:18:27.83	146.39	16.34	-25.0	-26.4	16.4	9.09e-04	0	43	0	3003121664	10	4222
2026-01-29 01:18:28.83	146.53	16.25	-24.9	-26.2	16.4	0.00e+00	0	44	0	3008364544	10	4185
2026-01-29 01:18:29.84	146.68	16.16	-24.9	-26.3	16.4	0.00e+00	0	43	0	3014656000	10	4194
2026-01-29 01:18:30.84	146.81	16.08	-25.0	-26.3	16.4	0.00e+00	0	44	0	3019898880	10	4213
2026-01-29 01:18:31.85	146.95	15.99	-25.0	-26.4	16.3	1.03e-03	0	44	0	3026190336	10	4242
2026-01-29 01:18:32.85	147.09	15.90	-25.0	-26.5	16.3	0.00e+00	0	44	0	3031433216	10	4252
2026-01-29 01:18:33.85	147.23	15.81	-25.0	-26.5	16.3	0.00e+00	0	44	0	3036676096	10	4254
2026-01-29 01:18:34.85	147.37	15.73	-25.1	-26.6	16.3	1.09e-03	0	44	0	3042967552	10	4283
2026-01-29 01:18:35.86	147.50	15.64	-25.0	-26.4	16.3	0.00e+00	0	44	0	3048210432	10	4240
2026-01-29 01:18:36.86	147.64	15.55	-24.9	-26.3	16.4	1.11e-03	0	44	0	3053453312	10	4199
2026-01-29 01:18:37.86	147.77	15.47	-25.0	-26.3	16.4	1.25e-03	0	43	0	3059744768	10	4213
2026-01-29 01:18:38.86	147.90	15.38	-24.9	-26.2	16.5	0.00e+00	0	44	0	3064987648	10	4165
2026-01-29 01:18:39.87	148.04	15.29	-24.9	-26.2	16.5	1.27e-03	0	44	0	3071279104	10	4181
2026-01-29 01:18:40.87	148.17	15.21	-25.1	-26.6	16.2	1.29e-03	0	44	0	3076521984	10	4270
2026-01-29 01:18:41.88	148.30	15.12	-24.9	-26.2	16.4	5.26e-05	0	44	0	3081764864	10	4180
2026-01-29 01:18:42.89	148.43	15.04	-24.8	-26.5	16.5	1.28e-03	0	44	0	3088056320	9	4365
2026-01-29 01:18:43.89	148.56	14.95	-24.9	-26.7	16.4	1.27e-03	0	44	0	3093299200	9	4432
2026-01-29 01:18:44.89	148.69	14.87	-24.9	-26.6	16.5	0.00e+00	0	44	0	3099590656	9	4401
2026-01-29 01:18:45.90	148.82	14.78	-25.0	-26.4	16.3	1.13e-03	0	44	0	3104833536	10	4232
2026-01-29 01:18:46.90	148.95	14.69	-25.1	-26.6	16.2	1.27e-03	0	44	0	3110076416	10	4286
2026-01-29 01:18:47.91	149.08	14.61	-25.3	-27.1	15.9	2.05e-05	0	44	0	3116367872	10	4414
2026-01-29 01:18:48.91	149.20	14.52	-25.3	-27.0	16.0	1.13e-03	0	44	0	3121610752	10	4379
2026-01-29 01:18:49.92	149.33	14.44	-25.2	-26.7	16.1	0.00e+00	0	44	0	3127902208	10	4318
2026-01-29 01:18:50.92	149.45	14.36	-25.2	-26.8	16.1	7.78e-05	0	44	0	3133145088	10	4337
2026-01-29 01:18:51.92	149.58	14.27	-25.3	-27.0	16.0	6.52e-05	0	44	0	3138387968	10	4378
2026-01-29 01:18:52.93	149.70	14.19	-25.2	-26.9	16.0	9.49e-04	0	44	0	3144679424	10	4369
2026-01-29 01:18:53.94	149.83	14.10	-25.3	-27.1	15.8	0.00e+00	0	44	0	3149922304	10	4434
2026-01-29 01:18:54.94	149.95	14.02	-25.3	-27.0	15.9	1.25e-05	0	44	0	3155165184	10	4390
2026-01-29 01:18:55.94	150.07	13.94	-25.3	-27.2	15.8	1.02e-03	0	44	0	3161456640	10	4434
2026-01-29 01:18:56.94	150.19	13.85	-25.4	-27.2	15.8	0.00e+00	0	44	0	3166699520	10	4460
2026-01-29 01:18:57.95	150.31	13.77	-25.4	-27.3	15.7	9.78e-04	0	44	0	3172990976	10	4490
2026-01-29 01:18:58.95	150.43	13.69	-25.6	-27.3	15.4	0.00e+00	0	44	0	3178233856	11	4373
2026-01-29 01:18:59.96	150.55	13.60	-26.0	-28.1	15.1	0.00e+00	0	44	0	3183476736	11	4578
2026-01-29 01:19:00.96	150.67	13.52	-25.8	-27.6	15.3	1.20e-03	0	44	0	3189768192	11	4452
2026-01-29 01:19:01.96	150.79	13.44	-25.6	-27.3	15.5	0.00e+00	0	44	0	3195011072	11	4363
2026-01-29 01:19:02.97	150.90	13.36	-25.5	-27.1	15.5	5.37e-05	0	44	0	3201302528	11	4301
2026-01-29 01:19:03.97	151.02	13.27	-25.5	-27.0	15.5	3.89e-05	0	44	0	3206545408	11	4297
2026-01-29 01:19:04.98	151.14	13.19	-25.6	-27.2	15.4	0.00e+00	0	44	0	3211788288	11	4351
2026-01-29 01:19:05.98	151.25	13.11	-25.5	-27.1	15.5	0.00e+00	0	44	0	3218079744	11	4325
2026-01-29 01:19:06.99	151.37	13.03	-25.6	-27.4	15.4	0.00e+00	0	44	0	3223322624	11	4391
2026-01-29 01:19:07.99	151.48	12.95	-25.6	-27.2	15.4	0.00e+00	0	44	0	3228565504	11	4342
2026-01-29 01:19:09.00	151.59	12.86	-25.5	-27.1	15.4	0.00e+00	0	43	0	3234856960	11	4325
2026-01-29 01:19:10.00	151.71	12.78	-25.7	-27.4	15.3	1.23e-03	0	44	0	3240099840	11	4408
2026-01-29 01:19:11.01	151.82	12.70	-25.6	-27.2	15.4	0.00e+00	0	44	0	3246391296	11	4350
2026-01-29 01:19:12.01	151.93	12.62	-25.6	-27.2	15.4	6.80e-06	0	44	0	3251634176	11	4346
2026-01-29 01:19:13.01	152.04	12.54	-25.6	-27.3	15.4	0.00e+00	0	44	0	3256877056	11	4353
2026-01-29 01:19:14.01	152.15	12.46	-25.6	-27.2	15.4	0.00e+00	0	44	0	3263168512	11	4337
2026-01-29 01:19:15.01	152.26	12.38	-25.7	-27.3	15.3	0.00e+00	0	44	0	3268411392	11	4375
2026-01-29 01:19:16.01	152.37	12.30	-25.8	-27.6	15.2	1.32e-04	0	44	0	3273654272	11	4449
2026-01-29 01:19:17.02	152.48	12.22	-25.7	-27.5	15.2	0.00e+00	0	44	0	3279945728	11	4423
2026-01-29 01:19:18.01	152.59	12.14	-25.9	-27.8	15.1	0.00e+00	0	44	0	3285188608	11	4509
2026-01-29 01:19:19.02	152.69	12.06	-25.8	-27.8	15.1	0.00e+00	0	44	0	3291480064	11	4498
2026-01-29 01:19:20.03	152.80	11.98	-25.9	-28.0	14.9	0.00e+00	0	44	0	3296722944	11	4568
2026-01-29 01:19:21.02	152.91	11.90	-25.9	-28.0	14.9	2.63e-05	0	44	0	3301965824	11	4576
2026-01-29 01:19:22.02	153.01	11.82	-26.0	-27.6	14.8	0.00e+00	0	43	0	3308257280	12	4345
2026-01-29 01:19:23.03	153.12	11.75	-25.9	-27.5	14.8	0.00e+00	0	44	0	3313500160	12	4327
2026-01-29 01:19:24.04	153.22	11.67	-25.9	-27.6	14.8	0.00e+00	0	44	0	3319791616	12	4367
2026-01-29 01:19:25.03	153.33	11.59	-26.0	-28.1	14.8	0.00e+00	0	44	0	3325034496	11	4623
2026-01-29 01:19:26.03	153.43	11.51	-26.0	-27.7	14.7	1.10e-06	0	44	0	3330277376	12	4368
2026-01-29 01:19:27.04	153.54	11.43	-26.2	-28.1	14.5	1.10e-06	0	44	0	3336568832	12	4490
2026-01-29 01:19:28.04	153.64	11.35	-26.1	-27.8	14.6	1.10e-06	0	43	0	3341811712	12	4420
2026-01-29 01:19:29.03	153.74	11.28	-26.2	-28.2	14.4	1.10e-06	0	44	0	3347054592	12	4518
2026-01-29 01:19:30.03	153.84	11.20	-26.0	-27.8	14.7	0.00e+00	0	44	0	3353346048	12	4390
2026-01-29 01:19:31.04	153.94	11.12	-26.0	-27.6	14.8	0.00e+00	0	44	0	3358588928	12	4342
2026-01-29 01:19:32.04	154.04	11.04	-26.0	-27.6	14.7	0.00e+00	0	44	0	3364880384	12	4358
2026-01-29 01:19:33.05	154.14	10.97	-26.0	-27.7	14.7	0.00e+00	0	44	0	3370123264	12	4377
2026-01-29 01:19:34.05	154.24	10.89	-26.0	-27.8	14.6	0.00e+00	0	44	0	3375366144	12	4417
2026-01-29 01:19:35.04	154.34	10.81	-26.0	-27.7	14.7	1.10e-06	0	43	0	3381657600	12	4392
2026-01-29 01:19:36.05	154.44	10.74	-26.1	-27.9	14.5	0.00e+00	0	44	0	3386900480	12	4448
2026-01-29 01:19:37.05	154.54	10.66	-26.2	-28.4	14.3	0.00e+00	0	44	0	3392143360	12	4596
2026-01-29 01:19:38.05	154.63	10.58	-26.1	-28.1	14.5	1.10e-06	0	44	0	3398434816	12	4499
2026-01-29 01:19:39.05	154.73	10.51	-26.1	-28.1	14.5	0.00e+00	0	44	0	3403677696	12	4497
2026-01-29 01:19:40.05	154.83	10.43	-26.2	-28.3	14.4	2.20e-06	0	44	0	3408920576	12	4558
2026-01-29 01:19:41.06	154.92	10.36	-26.3	-28.3	14.3	1.10e-06	0	44	0	3415212032	12	4579
2026-01-29 01:19:42.06	155.02	10.28	-26.3	-28.4	14.3	1.10e-06	0	44	0	3420454912	12	4583
2026-01-29 01:19:43.07	155.12	10.20	-26.4	-28.6	14.2	2.20e-06	0	44	0	3426746368	12	4649
2026-01-29 01:19:44.08	155.21	10.13	-26.3	-28.4	14.3	0.00e+00	0	44	0	3431989248	12	4598
2026-01-29 01:19:45.08	155.31	10.05	-26.4	-28.6	14.2	3.40e-06	0	44	0	3438280704	12	4660
2026-01-29 01:19:46.08	155.40	9.98	-26.3	-28.4	14.3	1.10e-06	0	44	0	3443523584	12	4598
2026-01-29 01:19:47.09	155.49	9.90	-26.5	-28.9	14.0	4.50e-06	0	44	0	3448766464	12	4729
2026-01-29 01:19:48.09	155.59	9.83	-26.3	-28.5	14.2	3.40e-06	0	43	0	3455057920	12	4614
2026-01-29 01:19:49.10	155.68	9.75	-26.2	-28.3	14.3	2.20e-06	0	43	0	3460300800	12	4570
2026-01-29 01:19:50.10	155.77	9.68	-26.2	-28.2	14.3	0.00e+00	0	44	0	3465543680	12	4555
2026-01-29 01:19:51.11	155.86	9.60	-26.2	-28.2	14.4	1.10e-06	0	44	0	3471835136	12	4535
2026-01-29 01:19:52.11	155.95	9.53	-26.3	-28.4	14.3	0.00e+00	0	44	0	3477078016	12	4587
2026-01-29 01:19:53.12	156.04	9.46	-26.3	-28.5	14.2	3.40e-06	0	44	0	3483369472	12	4627
2026-01-29 01:19:54.13	156.14	9.38	-26.4	-28.7	14.0	3.40e-06	0	44	0	3488612352	12	4671
2026-01-29 01:19:55.13	156.22	9.31	-26.3	-28.5	14.2	1.10e-06	0	44	0	3493855232	12	4609
2026-01-29 01:19:56.13	156.31	9.24	-26.4	-28.5	14.3	2.20e-06	0	44	0	3500146688	12	4585
2026-01-29 01:19:57.14	156.40	9.16	-26.4	-28.5	14.2	3.40e-06	0	44	0	3505389568	12	4610
2026-01-29 01:19:58.14	156.49	9.09	-26.4	-28.5	14.2	0.00e+00	0	44	0	3511681024	12	4600
2026-01-29 01:19:59.14	156.58	9.02	-26.6	-28.5	13.9	4.50e-06	0	44	0	3516923904	13	4491
2026-01-29 01:20:00.15	156.67	8.94	-26.9	-29.2	13.5	1.09e-03	0	44	0	3522166784	13	4686
2026-01-29 01:20:01.15	156.75	8.87	-26.6	-28.6	13.8	1.37e-05	0	44	0	3528458240	13	4523
2026-01-29 01:20:02.15	156.84	8.80	-26.4	-28.1	14.1	3.40e-06	0	44	0	3533701120	13	4379
2026-01-29 01:20:03.15	156.93	8.73	-26.3	-28.4	14.3	1.10e-06	0	44	0	3538944000	12	4575
2026-01-29 01:20:04.15	157.01	8.65	-26.3	-28.3	14.3	1.10e-06	0	44	0	3545235456	12	4571
2026-01-29 01:20:05.16	157.10	8.58	-26.3	-28.4	14.2	4.50e-06	0	44	0	3550478336	12	4614
2026-01-29 01:20:06.16	157.18	8.51	-26.2	-28.3	14.2	4.50e-06	0	44	0	3555721216	12	4591
2026-01-29 01:20:07.17	157.27	8.44	-26.3	-28.4	14.1	9.57e-04	0	44	0	3562012672	12	4624
2026-01-29 01:20:08.17	157.35	8.37	-26.3	-28.5	14.1	5.70e-06	0	44	0	3567255552	12	4641
2026-01-29 01:20:09.17	157.44	8.30	-26.4	-28.7	14.0	1.00e-03	0	44	0	3573547008	12	4702
2026-01-29 01:20:10.18	157.52	8.22	-26.3	-28.6	14.1	0.00e+00	0	44	0	3578789888	12	4656
2026-01-29 01:20:11.18	157.60	8.15	-26.4	-28.6	14.0	1.13e-04	0	44	0	3585081344	12	4653
2026-01-29 01:20:12.18	157.69	8.08	-26.4	-28.8	13.9	9.74e-04	0	44	0	3590324224	12	4708
2026-01-29 01:20:13.19	157.77	8.01	-26.4	-28.6	14.0	3.40e-06	0	44	0	3595567104	12	4662
2026-01-29 01:20:14.19	157.85	7.94	-26.5	-28.9	13.9	4.50e-06	0	44	0	3601858560	12	4731
2026-01-29 01:20:15.19	157.93	7.87	-26.7	-28.9	13.5	1.60e-05	0	44	0	3607101440	13	4640
2026-01-29 01:20:16.19	158.01	7.80	-26.9	-29.3	13.2	1.12e-03	0	44	0	3612344320	13	4760
2026-01-29 01:20:17.20	158.10	7.73	-26.7	-28.8	13.6	1.71e-05	0	43	0	3618635776	13	4601
2026-01-29 01:20:18.20	158.18	7.66	-26.7	-28.9	13.5	1.16e-03	0	44	0	3623878656	13	4619
2026-01-29 01:20:19.21	158.26	7.59	-26.8	-29.0	13.4	1.03e-03	0	44	0	3629121536	13	4676
2026-01-29 01:20:20.21	158.34	7.52	-26.8	-29.0	13.4	2.17e-05	0	44	0	3635412992	13	4665
2026-01-29 01:20:21.20	158.42	7.45	-26.8	-29.2	13.4	1.12e-03	0	44	0	3640655872	13	4717
2026-01-29 01:20:22.21	158.49	7.38	-26.8	-29.2	13.3	9.58e-04	0	44	0	3646947328	13	4729
2026-01-29 01:20:23.22	158.57	7.31	-27.1	-29.3	12.9	1.06e-04	0	44	0	3652190208	14	4664
2026-01-29 01:20:24.22	158.65	7.24	-27.1	-29.5	12.8	1.09e-03	0	44	0	3658481664	14	4745
2026-01-29 01:20:25.22	158.73	7.17	-27.0	-29.1	13.1	1.10e-03	0	44	0	3663724544	14	4603
2026-01-29 01:20:26.22	158.81	7.10	-29.4	-33.4	9.5	1.59e-04	0	44	0	3668967424	18	5716
2026-01-29 01:20:27.22	158.88	7.04	-32.2	-43.6	3.8	8.46e-01	0	44	104	3670016000	24	13371
2026-01-29 01:20:28.23	158.96	6.97	-33.0	-44.6	3.8	8.46e-01	0	44	104	3670016000	25	13751
2026-01-29 01:20:29.23	159.04	6.90	-33.5	-45.1	3.8	8.46e-01	0	44	104	3670016000	26	13703
2026-01-29 01:20:30.24	159.12	6.83	-33.7	-45.0	3.8	8.46e-01	0	44	104	3670016000	27	13219

#Closed at: 2026-01-29 01:20:30
#Recorded file [3670 MB]: D:/data/31010_260129_040933.dat