passes_logs/2026/01/29/R2M6_AANII_01/R2M6_AANII_01__20260129_235353_SUOMI_NPP_rec.log

#Pass ID: 20260129_235353_SUOMI NPP
#Satellite: SUOMI NPP
#Configuration: NPP
#almurnet v.1.7.20240730
#Start time: 2026-01-29 23:53:53

#Version: 2.2.20231116
#Station: R2M6_AANII_01
#Location: 30.233357 lon 59.946436 lat
#TLE: 1 37849U 11061A   26028.91916408  .00000155  00000+0  94467-4 0  9990
#TLE: 2 37849  98.7824 330.8488 0002045  39.4457 320.6868 14.19531289738686

#Time	Az	El	Level	Level2	SNR	BER	BlckErr	Temp	State	Recorded	gain1	gain2
2026-01-29 23:53:53.79	21.18	7.02	-30.9	-34.8	5.3	1.24e+00	0	41	0	0	21	5619
2026-01-29 23:53:54.78	21.21	7.09	-31.2	-35.6	5.1	1.28e+00	0	41	104	0	22	5977
2026-01-29 23:53:55.79	21.25	7.17	-31.2	-35.4	8.6	5.62e-02	0	41	0	0	22	5810
2026-01-29 23:53:56.79	21.28	7.24	-31.3	-35.6	8.4	4.27e-02	0	41	0	1048576	22	5940
2026-01-29 23:53:57.79	21.32	7.32	-31.2	-35.5	8.5	5.28e-02	0	41	0	3145728	22	5866
2026-01-29 23:53:58.79	21.35	7.40	-31.1	-35.1	8.9	3.23e-02	0	41	0	5242880	22	5645
2026-01-29 23:53:59.80	21.38	7.47	-31.2	-35.0	8.9	2.98e-02	0	41	0	7340032	22	5617
2026-01-29 23:54:00.80	21.42	7.55	-31.1	-34.9	9.0	2.69e-02	0	41	0	9437184	22	5550
2026-01-29 23:54:01.81	21.45	7.63	-31.0	-34.6	9.2	2.53e-02	0	41	0	10485760	22	5429
2026-01-29 23:54:02.81	21.49	7.70	-30.8	-34.4	9.7	1.77e-02	0	41	0	12582912	21	5425
2026-01-29 23:54:03.81	21.52	7.78	-30.7	-33.9	10.1	8.58e-03	0	41	0	14680064	21	5212
2026-01-29 23:54:04.82	21.56	7.86	-30.5	-33.4	10.5	5.72e-03	0	41	0	16777216	21	5004
2026-01-29 23:54:05.82	21.59	7.94	-30.5	-33.2	10.6	5.45e-03	0	41	0	17825792	21	4912
2026-01-29 23:54:06.82	21.63	8.02	-30.4	-33.5	10.8	5.04e-03	0	41	0	19922944	20	5124
2026-01-29 23:54:07.83	21.66	8.09	-30.4	-33.4	10.8	2.56e-03	0	41	0	22020096	20	5097
2026-01-29 23:54:08.83	21.70	8.17	-30.6	-33.5	10.4	5.06e-03	0	41	0	24117248	21	5048
2026-01-29 23:54:09.84	21.73	8.25	-30.8	-34.2	9.9	8.52e-03	0	41	0	26214400	21	5336
2026-01-29 23:54:10.85	21.77	8.33	-30.6	-33.6	10.4	6.81e-03	0	41	0	28311552	21	5058
2026-01-29 23:54:11.85	21.80	8.41	-30.5	-33.1	10.8	3.81e-03	0	41	0	29360128	21	4875
2026-01-29 23:54:12.86	21.84	8.49	-30.4	-33.3	11.0	5.03e-03	0	41	0	31457280	20	5037
2026-01-29 23:54:13.86	21.88	8.57	-30.4	-33.3	11.0	2.34e-03	0	41	0	33554432	20	5029
2026-01-29 23:54:14.87	21.91	8.65	-30.5	-33.6	10.8	2.33e-03	0	41	0	35651584	20	5153
2026-01-29 23:54:15.88	21.95	8.73	-30.5	-33.0	10.9	3.26e-03	0	41	0	36700160	21	4828
2026-01-29 23:54:16.88	21.99	8.81	-30.4	-33.4	10.9	2.73e-03	0	41	0	38797312	20	5087
2026-01-29 23:54:17.88	22.02	8.89	-30.5	-33.5	10.9	2.01e-03	0	41	0	40894464	20	5117
2026-01-29 23:54:18.88	22.06	8.98	-30.5	-33.4	10.9	2.72e-03	0	42	0	42991616	20	5082
2026-01-29 23:54:19.89	22.10	9.06	-30.6	-33.5	10.6	3.32e-03	0	41	0	45088768	21	5012
2026-01-29 23:54:20.89	22.14	9.14	-30.7	-33.7	10.4	4.26e-03	0	42	0	46137344	21	5077
2026-01-29 23:54:21.89	22.17	9.22	-30.6	-33.4	10.6	3.93e-03	0	42	0	48234496	21	4977
2026-01-29 23:54:22.90	22.21	9.30	-30.6	-33.3	10.7	3.53e-03	0	42	0	50331648	21	4929
2026-01-29 23:54:23.91	22.25	9.39	-30.5	-33.2	10.8	2.32e-03	0	42	0	52428800	21	4877
2026-01-29 23:54:24.91	22.29	9.47	-30.7	-33.8	10.4	3.84e-03	0	42	0	54525952	21	5138
2026-01-29 23:54:25.91	22.33	9.55	-30.7	-33.6	10.6	5.08e-03	0	42	0	55574528	21	5048
2026-01-29 23:54:26.92	22.37	9.64	-30.7	-33.7	10.5	3.85e-03	0	42	0	57671680	21	5097
2026-01-29 23:54:27.92	22.41	9.72	-30.6	-33.3	10.8	3.38e-03	0	42	0	59768832	21	4916
2026-01-29 23:54:28.92	22.45	9.80	-30.5	-32.9	11.0	2.17e-03	0	42	0	61865984	21	4766
2026-01-29 23:54:29.93	22.48	9.89	-30.4	-33.2	11.2	1.52e-03	0	42	0	63963136	20	4982
2026-01-29 23:54:30.93	22.52	9.97	-30.4	-33.2	11.3	1.17e-03	0	42	0	65011712	20	4967
2026-01-29 23:54:31.93	22.56	10.06	-30.4	-33.1	11.3	1.63e-03	0	42	0	67108864	20	4916
2026-01-29 23:54:32.94	22.60	10.14	-30.4	-33.0	11.4	8.71e-04	0	42	0	69206016	20	4894
2026-01-29 23:54:33.94	22.64	10.23	-30.2	-32.6	11.7	7.44e-04	0	42	0	71303168	20	4753
2026-01-29 23:54:34.94	22.68	10.31	-29.3	-31.6	11.9	4.61e-04	0	42	0	73400320	20	4663
2026-01-29 23:54:35.94	22.72	10.40	-30.1	-32.4	11.7	4.07e-04	0	42	0	74448896	20	4664
2026-01-29 23:54:36.94	22.77	10.48	-30.1	-32.2	12.0	6.65e-04	0	42	0	76546048	20	4581
2026-01-29 23:54:37.94	22.81	10.57	-30.2	-32.6	11.3	4.45e-04	0	42	0	78643200	20	4734
2026-01-29 23:54:38.94	22.85	10.66	-30.0	-32.1	11.6	4.58e-04	0	42	0	80740352	20	4544
2026-01-29 23:54:39.95	22.89	10.74	-30.3	-32.8	11.6	7.67e-04	0	42	0	82837504	20	4826
2026-01-29 23:54:40.96	22.93	10.83	-30.1	-32.1	12.0	3.71e-04	0	42	0	83886080	20	4557
2026-01-29 23:54:41.96	22.97	10.92	-30.0	-31.8	12.3	1.98e-04	0	42	0	85983232	20	4456
2026-01-29 23:54:42.97	23.02	11.01	-29.9	-31.7	12.4	2.08e-04	0	42	0	88080384	20	4409
2026-01-29 23:54:43.97	23.06	11.10	-29.9	-31.7	12.3	1.48e-03	0	42	0	90177536	20	4433
2026-01-29 23:54:44.97	23.10	11.18	-30.1	-32.2	12.0	2.59e-04	0	42	0	91226112	20	4590
2026-01-29 23:54:45.97	23.14	11.27	-30.0	-32.0	12.2	2.63e-04	0	42	0	93323264	20	4506
2026-01-29 23:54:46.98	23.19	11.36	-29.9	-31.7	12.4	4.04e-04	0	42	0	95420416	20	4415
2026-01-29 23:54:47.98	23.23	11.45	-30.0	-32.3	12.5	7.10e-04	0	42	0	97517568	19	4688
2026-01-29 23:54:48.98	23.27	11.54	-30.0	-31.9	12.3	1.46e-04	0	42	0	99614720	20	4494
2026-01-29 23:54:49.98	23.32	11.63	-29.9	-31.7	12.4	2.14e-04	0	42	0	100663296	20	4426
2026-01-29 23:54:50.98	23.36	11.72	-30.1	-32.1	12.1	7.12e-04	0	42	0	102760448	20	4552
2026-01-29 23:54:51.98	23.40	11.81	-29.9	-31.6	12.5	1.36e-04	0	42	0	104857600	20	4387
2026-01-29 23:54:52.98	23.45	11.90	-29.9	-32.2	12.5	9.68e-05	0	42	0	106954752	19	4647
2026-01-29 23:54:53.98	23.49	11.99	-29.9	-32.0	12.7	7.24e-05	0	42	0	109051904	19	4587
2026-01-29 23:54:54.98	23.54	12.08	-30.0	-32.3	12.5	1.05e-04	0	42	0	110100480	19	4678
2026-01-29 23:54:55.99	23.58	12.18	-30.0	-31.8	12.4	1.18e-04	0	42	0	112197632	20	4430
2026-01-29 23:54:56.99	23.63	12.27	-29.8	-31.7	12.9	9.15e-05	0	42	0	114294784	19	4486
2026-01-29 23:54:57.99	23.67	12.36	-29.8	-31.9	12.8	5.56e-05	0	42	0	116391936	19	4550
2026-01-29 23:54:58.99	23.72	12.45	-29.8	-31.7	12.9	6.06e-04	0	42	0	118489088	19	4480
2026-01-29 23:54:59.99	23.77	12.55	-29.7	-31.4	13.0	3.35e-05	0	42	0	119537664	19	4396
2026-01-29 23:55:00.99	23.81	12.64	-29.7	-31.3	13.1	2.21e-05	0	42	0	121634816	19	4372
2026-01-29 23:55:02.00	23.86	12.73	-29.8	-31.7	12.9	6.34e-04	0	42	0	123731968	19	4475
2026-01-29 23:55:03.00	23.91	12.83	-29.7	-31.3	13.1	3.96e-05	0	42	0	125829120	19	4366
2026-01-29 23:55:04.01	23.95	12.92	-29.6	-31.1	13.3	1.83e-05	0	42	0	127926272	19	4299
2026-01-29 23:55:05.01	24.00	13.02	-29.6	-31.2	13.3	1.09e-03	0	42	0	128974848	19	4313
2026-01-29 23:55:06.00	24.05	13.11	-29.6	-31.1	13.2	1.08e-03	0	42	0	131072000	19	4303
2026-01-29 23:55:07.00	24.10	13.21	-29.6	-31.1	13.0	1.37e-05	0	43	0	133169152	19	4302
2026-01-29 23:55:08.01	24.15	13.31	-29.6	-31.1	13.3	1.14e-03	0	42	0	135266304	19	4289
2026-01-29 23:55:09.01	24.19	13.40	-29.6	-31.1	13.2	1.20e-03	0	43	0	136314880	19	4298
2026-01-29 23:55:10.01	24.24	13.50	-29.7	-31.4	13.1	1.90e-05	0	42	0	138412032	19	4385
2026-01-29 23:55:11.02	24.29	13.60	-29.6	-31.2	13.3	2.44e-05	0	42	0	140509184	19	4326
2026-01-29 23:55:12.02	24.34	13.69	-29.6	-31.3	13.2	1.36e-03	0	43	0	142606336	19	4340
2026-01-29 23:55:13.03	24.39	13.79	-29.9	-32.0	12.8	4.42e-05	0	43	0	144703488	19	4574
2026-01-29 23:55:14.03	24.44	13.89	-29.8	-31.7	13.0	5.56e-05	0	42	0	145752064	19	4465
2026-01-29 23:55:15.03	24.49	13.99	-29.6	-31.1	13.3	1.81e-03	0	42	0	147849216	19	4295
2026-01-29 23:55:16.03	24.54	14.09	-29.5	-30.9	13.5	1.37e-05	0	43	0	149946368	19	4208
2026-01-29 23:55:17.03	24.60	14.19	-29.6	-31.1	13.4	1.50e-03	0	43	0	152043520	19	4273
2026-01-29 23:55:18.04	24.65	14.29	-29.5	-30.9	13.5	1.70e-03	0	43	0	154140672	19	4226
2026-01-29 23:55:19.04	24.70	14.39	-29.5	-30.9	13.5	2.23e-04	0	42	0	155189248	19	4226
2026-01-29 23:55:20.04	24.75	14.49	-29.6	-31.1	13.4	9.22e-04	0	43	0	157286400	19	4293
2026-01-29 23:55:21.04	24.80	14.59	-29.6	-31.1	13.4	9.32e-04	0	43	0	159383552	19	4275
2026-01-29 23:55:22.04	24.86	14.69	-29.6	-31.1	13.4	2.65e-04	0	43	0	161480704	19	4272
2026-01-29 23:55:23.05	24.91	14.79	-29.5	-30.9	13.5	5.29e-04	0	42	0	163577856	19	4218
2026-01-29 23:55:24.05	24.96	14.90	-29.5	-31.3	13.6	3.94e-04	0	42	0	164626432	18	4439
2026-01-29 23:55:25.05	25.02	15.00	-29.5	-30.9	13.6	2.49e-04	0	43	0	166723584	19	4213
2026-01-29 23:55:26.05	25.07	15.10	-29.5	-30.8	13.6	3.23e-04	0	43	0	168820736	19	4196
2026-01-29 23:55:27.06	25.12	15.21	-29.5	-31.3	13.6	2.30e-04	0	43	0	170917888	18	4423
2026-01-29 23:55:28.07	25.18	15.31	-29.4	-31.1	13.8	5.30e-06	0	43	0	173015040	18	4377
2026-01-29 23:55:29.07	25.23	15.42	-29.3	-30.9	13.9	3.28e-05	0	42	0	174063616	18	4306
2026-01-29 23:55:30.08	25.29	15.52	-29.4	-31.0	13.8	3.16e-04	0	43	0	176160768	18	4351
2026-01-29 23:55:31.08	25.35	15.63	-29.3	-30.7	14.0	3.00e-06	0	43	0	178257920	18	4254
2026-01-29 23:55:32.08	25.40	15.73	-29.2	-30.6	14.1	0.00e+00	0	42	0	180355072	18	4219
2026-01-29 23:55:33.08	25.46	15.84	-29.3	-30.8	14.0	3.18e-04	0	43	0	181403648	18	4272
2026-01-29 23:55:34.09	25.52	15.94	-29.4	-31.1	13.8	1.50e-06	0	43	0	183500800	18	4356
2026-01-29 23:55:35.08	25.57	16.05	-29.3	-30.7	14.1	1.52e-05	0	43	0	185597952	18	4243
2026-01-29 23:55:36.09	25.63	16.16	-29.3	-30.7	14.1	4.04e-04	0	43	0	187695104	18	4234
2026-01-29 23:55:37.09	25.69	16.27	-29.3	-30.7	14.1	3.97e-04	0	43	0	189792256	18	4237
2026-01-29 23:55:38.09	25.75	16.37	-29.3	-30.7	14.0	2.75e-04	0	43	0	191889408	18	4255
2026-01-29 23:55:39.09	25.81	16.48	-29.1	-30.4	14.2	4.47e-04	0	43	0	192937984	18	4147
2026-01-29 23:55:40.09	25.87	16.59	-29.3	-30.8	14.0	4.16e-04	0	43	0	195035136	18	4277
2026-01-29 23:55:41.09	25.92	16.70	-29.5	-30.7	13.7	4.02e-04	0	43	0	197132288	19	4162
2026-01-29 23:55:42.10	25.99	16.81	-29.2	-30.6	14.1	4.76e-04	0	43	0	199229440	18	4208
2026-01-29 23:55:43.10	26.05	16.92	-29.4	-30.6	13.9	4.84e-04	0	43	0	200278016	19	4112
2026-01-29 23:55:44.10	26.11	17.03	-29.4	-30.4	13.9	5.28e-04	0	43	0	202375168	19	4075
2026-01-29 23:55:45.11	26.17	17.15	-29.3	-30.8	14.0	8.37e-04	0	43	0	204472320	18	4265
2026-01-29 23:55:46.11	26.23	17.26	-29.3	-30.8	14.0	5.32e-04	0	43	0	206569472	18	4279
2026-01-29 23:55:47.12	26.29	17.37	-29.4	-31.1	13.9	1.13e-03	0	43	0	208666624	18	4354
2026-01-29 23:55:48.12	26.35	17.49	-29.3	-30.7	14.1	1.75e-03	0	43	0	209715200	18	4228
2026-01-29 23:55:49.13	26.42	17.60	-29.4	-31.1	13.9	6.00e-04	0	43	0	211812352	18	4346
2026-01-29 23:55:50.13	26.48	17.71	-29.4	-31.1	13.9	5.30e-06	0	43	0	213909504	18	4348
2026-01-29 23:55:51.14	26.55	17.83	-29.3	-30.7	14.1	1.40e-03	0	43	0	216006656	18	4253
2026-01-29 23:55:52.15	26.61	17.95	-29.2	-30.5	14.3	1.50e-06	0	43	0	218103808	18	4173
2026-01-29 23:55:53.15	26.68	18.06	-29.2	-30.5	14.2	0.00e+00	0	43	0	219152384	18	4182
2026-01-29 23:55:54.15	26.74	18.18	-29.2	-30.5	14.3	4.06e-04	0	43	0	221249536	18	4188
2026-01-29 23:55:55.15	26.81	18.29	-29.2	-30.5	14.3	4.10e-04	0	43	0	223346688	18	4172
2026-01-29 23:55:56.15	26.87	18.41	-29.1	-30.3	14.4	1.50e-06	0	43	0	225443840	18	4104
2026-01-29 23:55:57.16	26.94	18.53	-29.1	-30.2	14.5	3.78e-04	0	43	0	227540992	18	4078
2026-01-29 23:55:58.16	27.01	18.65	-29.0	-30.0	14.6	3.38e-04	0	43	0	228589568	18	4035
2026-01-29 23:55:59.17	27.08	18.77	-29.1	-30.1	14.5	7.00e-07	0	43	0	230686720	18	4068
2026-01-29 23:56:00.17	27.14	18.89	-28.9	-29.8	14.7	3.13e-04	0	43	0	232783872	18	3966
2026-01-29 23:56:01.17	27.21	19.01	-28.8	-29.6	14.9	3.21e-04	0	43	0	234881024	18	3906
2026-01-29 23:56:02.17	27.28	19.13	-28.9	-29.6	14.8	0.00e+00	0	43	0	236978176	18	3922
2026-01-29 23:56:03.18	27.35	19.25	-28.8	-29.5	14.9	0.00e+00	0	43	0	238026752	18	3880
2026-01-29 23:56:04.18	27.42	19.37	-28.9	-30.2	14.8	2.48e-04	0	43	0	240123904	17	4177
2026-01-29 23:56:05.18	27.49	19.49	-28.7	-29.6	15.1	0.00e+00	0	43	0	242221056	17	4020
2026-01-29 23:56:06.19	27.56	19.62	-28.5	-29.1	15.4	0.00e+00	0	43	0	244318208	17	3872
2026-01-29 23:56:07.19	27.64	19.74	-28.4	-28.9	15.5	2.31e-04	0	43	0	246415360	17	3831
2026-01-29 23:56:08.20	27.71	19.86	-28.5	-29.1	15.5	0.00e+00	0	43	0	247463936	17	3878
2026-01-29 23:56:09.20	27.78	19.99	-28.6	-29.4	15.2	0.00e+00	0	43	0	249561088	17	3968
2026-01-29 23:56:10.20	27.85	20.11	-28.7	-29.7	15.1	0.00e+00	0	43	0	251658240	17	4055
2026-01-29 23:56:11.20	27.93	20.24	-28.7	-29.6	15.1	0.00e+00	0	43	0	253755392	17	4025
2026-01-29 23:56:12.20	28.00	20.36	-28.7	-29.6	15.1	0.00e+00	0	43	0	254803968	17	4023
2026-01-29 23:56:13.21	28.08	20.49	-28.7	-29.7	15.1	0.00e+00	0	43	0	256901120	17	4046
2026-01-29 23:56:14.22	28.16	20.62	-28.7	-29.8	15.0	0.00e+00	0	43	0	258998272	17	4057
2026-01-29 23:56:15.23	28.23	20.75	-28.9	-30.1	14.8	2.39e-04	0	43	0	261095424	17	4150
2026-01-29 23:56:16.22	28.31	20.88	-29.0	-30.4	14.7	0.00e+00	0	43	0	263192576	17	4226
2026-01-29 23:56:17.22	28.39	21.01	-29.2	-30.3	14.4	0.00e+00	0	43	0	264241152	18	4115
2026-01-29 23:56:18.22	28.46	21.13	-29.0	-29.9	14.8	0.00e+00	0	43	0	266338304	18	3986
2026-01-29 23:56:19.23	28.54	21.27	-28.8	-29.4	15.0	0.00e+00	0	43	0	268435456	18	3866
2026-01-29 23:56:20.24	28.62	21.40	-28.6	-29.0	15.2	0.00e+00	0	43	0	270532608	18	3762
2026-01-29 23:56:21.24	28.70	21.53	-28.7	-29.6	15.2	0.00e+00	0	43	0	272629760	17	3999
2026-01-29 23:56:22.24	28.78	21.66	-28.6	-29.5	15.2	5.11e-05	0	43	0	273678336	17	3991
2026-01-29 23:56:23.24	28.87	21.80	-28.7	-29.6	15.2	0.00e+00	0	43	0	275775488	17	4008
2026-01-29 23:56:24.25	28.95	21.93	-28.7	-29.6	15.2	0.00e+00	0	43	0	277872640	17	3998
2026-01-29 23:56:25.25	29.03	22.06	-28.6	-29.4	15.3	0.00e+00	0	43	0	279969792	17	3961
2026-01-29 23:56:26.26	29.11	22.20	-28.6	-29.5	15.3	7.00e-07	0	43	0	282066944	17	3985
2026-01-29 23:56:27.25	29.20	22.33	-28.7	-29.6	15.2	0.00e+00	0	43	0	283115520	17	4009
2026-01-29 23:56:28.26	29.28	22.47	-28.5	-29.7	15.5	0.00e+00	0	43	0	285212672	16	4121
2026-01-29 23:56:29.26	29.37	22.61	-28.7	-29.5	15.3	6.25e-04	0	43	0	287309824	17	3989
2026-01-29 23:56:30.27	29.46	22.75	-28.7	-29.6	15.3	0.00e+00	0	43	0	289406976	17	3991
2026-01-29 23:56:31.27	29.54	22.89	-28.7	-29.6	15.2	0.00e+00	0	43	0	291504128	17	4005
2026-01-29 23:56:32.28	29.63	23.03	-28.5	-29.6	15.5	0.00e+00	0	43	0	292552704	16	4114
2026-01-29 23:56:33.27	29.72	23.16	-28.6	-29.4	15.3	0.00e+00	0	43	0	294649856	17	3946
2026-01-29 23:56:34.27	29.81	23.30	-28.5	-29.7	15.5	0.00e+00	0	43	0	296747008	16	4120
2026-01-29 23:56:35.28	29.90	23.45	-28.4	-28.8	15.7	0.00e+00	0	43	0	298844160	17	3792
2026-01-29 23:56:36.29	29.99	23.59	-28.5	-29.1	15.5	0.00e+00	0	43	0	300941312	17	3880
2026-01-29 23:56:37.29	30.08	23.73	-28.2	-28.5	15.9	0.00e+00	0	43	0	301989888	17	3721
2026-01-29 23:56:38.29	30.17	23.87	-28.4	-29.4	15.6	0.00e+00	0	43	0	304087040	16	4029
2026-01-29 23:56:39.29	30.27	24.02	-28.3	-29.3	15.7	1.82e-04	0	43	0	306184192	16	4013
2026-01-29 23:56:40.30	30.36	24.16	-28.4	-29.4	15.7	2.36e-05	0	43	0	308281344	16	4039
2026-01-29 23:56:41.30	30.46	24.31	-28.6	-29.4	15.4	0.00e+00	0	43	0	310378496	17	3959
2026-01-29 23:56:42.30	30.55	24.46	-28.8	-29.8	15.2	0.00e+00	0	43	0	311427072	17	4050
2026-01-29 23:56:43.31	30.65	24.60	-28.4	-28.9	15.7	7.00e-07	0	43	0	313524224	17	3814
2026-01-29 23:56:44.31	30.75	24.75	-28.2	-28.5	15.9	0.00e+00	0	43	0	315621376	17	3715
2026-01-29 23:56:45.31	30.85	24.90	-28.3	-29.1	15.8	0.00e+00	0	43	0	317718528	16	3972
2026-01-29 23:56:46.31	30.94	25.05	-28.0	-28.5	16.2	6.10e-06	0	43	0	318767104	16	3793
2026-01-29 23:56:47.32	31.05	25.20	-27.9	-28.3	16.3	1.67e-05	0	43	0	320864256	16	3748
2026-01-29 23:56:48.32	31.15	25.35	-28.1	-28.7	16.1	0.00e+00	0	43	0	322961408	16	3845
2026-01-29 23:56:49.32	31.25	25.50	-28.0	-28.5	16.1	0.00e+00	0	43	0	325058560	16	3800
2026-01-29 23:56:50.32	31.35	25.65	-28.1	-28.6	16.2	2.02e-04	0	43	0	327155712	16	3832
2026-01-29 23:56:51.33	31.46	25.81	-28.3	-29.1	15.9	0.00e+00	0	43	0	328204288	16	3950
2026-01-29 23:56:52.33	31.56	25.96	-28.2	-28.8	16.1	0.00e+00	0	43	0	330301440	16	3885
2026-01-29 23:56:53.34	31.67	26.12	-28.2	-28.9	16.1	2.13e-04	0	43	0	332398592	16	3896
2026-01-29 23:56:54.35	31.77	26.27	-28.2	-29.0	16.0	3.20e-05	0	43	0	334495744	16	3921
2026-01-29 23:56:55.35	31.88	26.43	-28.1	-28.8	16.1	2.82e-05	0	43	0	336592896	16	3869
2026-01-29 23:56:56.35	31.99	26.59	-28.2	-28.8	16.1	1.43e-04	0	43	0	337641472	16	3891
2026-01-29 23:56:57.35	32.10	26.74	-28.2	-28.8	16.1	1.25e-04	0	43	0	339738624	16	3872
2026-01-29 23:56:58.36	32.21	26.90	-28.3	-29.3	15.8	3.12e-05	0	43	0	341835776	16	3995
2026-01-29 23:56:59.37	32.33	27.07	-28.0	-28.6	16.2	0.00e+00	0	43	0	343932928	16	3816
2026-01-29 23:57:00.37	32.44	27.23	-28.1	-28.7	16.2	1.67e-04	0	43	0	346030080	16	3847
2026-01-29 23:57:01.37	32.55	27.39	-28.2	-28.8	16.1	0.00e+00	0	43	0	347078656	16	3886
2026-01-29 23:57:02.37	32.67	27.55	-28.3	-29.2	15.9	0.00e+00	0	43	0	349175808	16	3980
2026-01-29 23:57:03.38	32.78	27.71	-28.5	-29.0	15.7	1.87e-04	0	43	0	351272960	17	3844
2026-01-29 23:57:04.38	32.90	27.88	-28.5	-29.1	15.6	0.00e+00	0	43	0	353370112	17	3871
2026-01-29 23:57:05.38	33.02	28.04	-28.7	-29.5	15.4	1.54e-04	0	43	0	355467264	17	3978
2026-01-29 23:57:06.38	33.14	28.21	-28.7	-29.6	15.4	0.00e+00	0	43	0	356515840	17	3995
2026-01-29 23:57:07.38	33.26	28.37	-29.0	-29.7	15.1	0.00e+00	0	43	0	358612992	18	3932
2026-01-29 23:57:08.38	33.38	28.54	-28.9	-29.6	15.1	1.86e-04	0	43	0	360710144	18	3890
2026-01-29 23:57:09.38	33.51	28.71	-29.2	-30.3	14.7	0.00e+00	0	43	0	362807296	18	4096
2026-01-29 23:57:10.38	33.63	28.88	-29.2	-30.3	14.7	0.00e+00	0	43	0	363855872	18	4076
2026-01-29 23:57:11.38	33.76	29.05	-29.3	-30.5	14.6	1.76e-04	0	43	0	365953024	18	4154
2026-01-29 23:57:12.39	33.89	29.22	-29.6	-30.9	14.0	1.72e-04	0	43	0	368050176	19	4173
2026-01-29 23:57:13.40	34.02	29.39	-29.7	-31.2	13.8	2.20e-06	0	43	0	370147328	19	4264
2026-01-29 23:57:14.40	34.15	29.56	-29.7	-31.1	13.9	1.76e-04	0	43	0	372244480	19	4223
2026-01-29 23:57:15.40	34.28	29.74	-29.9	-31.2	13.4	1.58e-04	0	43	0	374341632	20	4188
2026-01-29 23:57:16.40	34.41	29.91	-30.2	-31.9	13.1	1.83e-05	0	43	0	375390208	20	4391
2026-01-29 23:57:17.40	34.54	30.09	-30.3	-32.4	12.7	2.17e-04	0	43	0	377487360	20	4552
2026-01-29 23:57:18.41	34.68	30.26	-30.3	-32.4	12.7	1.57e-04	0	43	0	379584512	20	4548
2026-01-29 23:57:19.41	34.82	30.44	-30.4	-32.5	12.6	5.34e-05	0	43	0	381681664	20	4598
2026-01-29 23:57:20.41	34.96	30.62	-30.2	-31.5	12.9	1.81e-04	0	43	0	382730240	21	4195
2026-01-29 23:57:21.41	35.10	30.80	-30.6	-32.6	12.2	3.47e-04	0	43	0	384827392	21	4554
2026-01-29 23:57:22.42	35.24	30.98	-30.7	-32.8	12.1	2.66e-04	0	43	0	386924544	21	4607
2026-01-29 23:57:23.42	35.38	31.16	-30.8	-33.3	11.8	3.92e-04	0	43	0	389021696	21	4786
2026-01-29 23:57:24.42	35.53	31.34	-31.0	-33.2	11.5	1.12e-03	0	43	0	391118848	22	4650
2026-01-29 23:57:25.42	35.67	31.52	-30.8	-32.6	11.9	6.00e-04	0	43	0	392167424	22	4440
2026-01-29 23:57:26.43	35.82	31.71	-30.9	-33.0	11.7	8.09e-04	0	43	0	394264576	22	4572
2026-01-29 23:57:27.43	35.97	31.89	-30.9	-32.9	11.6	5.31e-04	0	43	0	396361728	22	4563
2026-01-29 23:57:28.43	36.12	32.08	-30.8	-32.8	11.8	8.87e-04	0	43	0	398458880	22	4503
2026-01-29 23:57:29.44	36.28	32.27	-30.7	-33.0	12.0	7.71e-04	0	43	0	400556032	21	4663
2026-01-29 23:57:30.43	36.43	32.45	-30.8	-33.1	11.9	7.05e-04	0	43	0	401604608	21	4691
2026-01-29 23:57:31.43	36.59	32.64	-31.0	-33.2	11.5	7.41e-04	0	43	0	403701760	22	4652
2026-01-29 23:57:32.43	36.74	32.83	-31.0	-33.1	11.6	9.63e-04	0	43	0	405798912	22	4617
2026-01-29 23:57:33.44	36.90	33.02	-31.1	-33.6	11.4	1.28e-03	0	43	0	407896064	22	4784
2026-01-29 23:57:34.44	37.07	33.21	-30.8	-32.6	12.0	4.46e-04	0	43	0	409993216	22	4439
2026-01-29 23:57:35.44	37.23	33.41	-30.6	-32.0	12.3	3.58e-04	0	43	0	411041792	22	4231
2026-01-29 23:57:36.43	37.39	33.60	-30.5	-31.8	12.5	2.55e-04	0	43	0	413138944	22	4188
2026-01-29 23:57:37.44	37.56	33.79	-30.5	-32.4	12.4	1.02e-04	0	43	0	415236096	21	4455
2026-01-29 23:57:38.43	37.73	33.99	-30.7	-32.8	12.2	1.22e-04	0	43	0	417333248	21	4585
2026-01-29 23:57:39.44	37.90	34.18	-30.5	-32.3	12.5	1.30e-04	0	43	0	418381824	21	4423
2026-01-29 23:57:40.45	38.08	34.38	-30.7	-32.9	12.0	3.82e-04	0	43	0	420478976	21	4646
2026-01-29 23:57:41.45	38.25	34.58	-30.2	-31.5	13.1	1.05e-04	0	43	0	422576128	21	4160
2026-01-29 23:57:42.46	38.43	34.78	-30.4	-31.9	12.8	1.14e-04	0	43	0	424673280	21	4284
2026-01-29 23:57:43.46	38.61	34.98	-30.3	-31.6	13.1	5.79e-05	0	43	0	426770432	21	4216
2026-01-29 23:57:44.47	38.80	35.18	-30.3	-31.7	13.0	3.20e-05	0	43	0	427819008	21	4232
2026-01-29 23:57:45.47	38.98	35.39	-30.3	-31.8	12.9	6.17e-05	0	43	0	429916160	21	4247
2026-01-29 23:57:46.47	39.17	35.59	-30.2	-31.4	13.1	2.36e-05	0	43	0	432013312	21	4139
2026-01-29 23:57:47.47	39.35	35.79	-30.1	-31.2	13.3	2.28e-05	0	43	0	434110464	21	4066
2026-01-29 23:57:48.48	39.55	36.00	-30.1	-31.2	13.3	1.75e-05	0	43	0	436207616	21	4060
2026-01-29 23:57:49.48	39.74	36.21	-30.2	-31.3	13.2	1.98e-05	0	43	0	437256192	21	4107
2026-01-29 23:57:50.48	39.94	36.41	-29.9	-30.7	13.7	2.44e-05	0	43	0	439353344	21	3918
2026-01-29 23:57:51.48	40.13	36.62	-30.0	-30.8	13.5	4.50e-06	0	43	0	441450496	21	3943
2026-01-29 23:57:52.47	40.33	36.83	-30.0	-30.9	13.6	1.06e-05	0	43	0	443547648	21	3980
2026-01-29 23:57:53.48	40.54	37.04	-30.0	-30.7	13.6	4.50e-06	0	43	0	445644800	21	3933
2026-01-29 23:57:54.48	40.74	37.25	-29.9	-31.1	13.7	3.80e-06	0	43	0	446693376	20	4140
2026-01-29 23:57:55.48	40.95	37.46	-30.1	-31.6	13.5	4.50e-06	0	43	0	448790528	20	4273
2026-01-29 23:57:56.48	41.16	37.67	-30.3	-32.2	13.0	2.89e-05	0	43	0	450887680	20	4471
2026-01-29 23:57:57.48	41.38	37.89	-30.3	-32.2	13.0	3.81e-05	0	43	0	452984832	20	4464
2026-01-29 23:57:58.49	41.60	38.10	-30.8	-33.0	12.2	1.28e-04	0	43	0	454033408	21	4665
2026-01-29 23:57:59.48	41.81	38.32	-31.0	-33.2	11.7	3.02e-04	0	43	0	456130560	22	4655
2026-01-29 23:58:00.48	42.03	38.53	-31.1	-33.5	11.4	1.09e-03	0	43	0	458227712	22	4749
2026-01-29 23:58:01.49	42.26	38.75	-30.9	-32.8	11.9	3.60e-04	0	43	0	460324864	22	4512
2026-01-29 23:58:02.49	42.49	38.97	-30.7	-32.2	12.3	2.44e-04	0	43	0	462422016	22	4297
2026-01-29 23:58:03.49	42.72	39.19	-30.4	-31.5	12.8	1.78e-04	0	43	0	463470592	22	4083
2026-01-29 23:58:04.49	42.96	39.41	-30.0	-30.9	13.6	1.60e-05	0	43	0	465567744	21	3970
2026-01-29 23:58:05.49	43.19	39.63	-29.7	-30.7	14.0	2.20e-06	0	43	0	467664896	20	4000
2026-01-29 23:58:06.49	43.43	39.85	-29.6	-30.3	14.3	0.00e+00	0	43	0	469762048	20	3897
2026-01-29 23:58:07.50	43.68	40.08	-29.9	-31.0	13.9	2.20e-06	0	43	0	471859200	20	4104
2026-01-29 23:58:08.50	43.93	40.30	-29.5	-30.0	14.4	2.20e-06	0	43	0	472907776	20	3811
2026-01-29 23:58:09.51	44.18	40.53	-29.3	-29.8	15.0	7.00e-07	0	43	0	475004928	19	3854
2026-01-29 23:58:10.51	44.43	40.75	-29.3	-30.0	14.9	0.00e+00	0	43	0	477102080	19	3896
2026-01-29 23:58:11.51	44.69	40.98	-29.2	-29.8	15.0	0.00e+00	0	43	0	479199232	19	3841
2026-01-29 23:58:12.51	44.95	41.20	-29.6	-30.7	14.5	0.00e+00	0	43	0	481296384	19	4091
2026-01-29 23:58:13.51	45.22	41.43	-29.9	-31.5	13.9	0.00e+00	0	43	0	482344960	19	4352
2026-01-29 23:58:14.52	45.49	41.66	-30.1	-31.6	13.5	6.10e-06	0	43	0	484442112	20	4284
2026-01-29 23:58:15.52	45.76	41.89	-30.0	-31.3	13.5	6.10e-06	0	43	0	486539264	20	4188
2026-01-29 23:58:16.53	46.04	42.12	-29.9	-31.1	13.7	1.67e-05	0	43	0	488636416	20	4131
2026-01-29 23:58:17.53	46.32	42.35	-29.5	-30.0	14.4	2.20e-06	0	43	0	490733568	20	3814
2026-01-29 23:58:18.53	46.60	42.58	-29.6	-30.8	14.3	7.00e-07	0	43	0	491782144	19	4107
2026-01-29 23:58:19.53	46.89	42.82	-29.5	-30.4	14.6	0.00e+00	0	43	0	493879296	19	4004
2026-01-29 23:58:20.54	47.19	43.05	-29.6	-30.7	14.4	7.00e-07	0	43	0	495976448	19	4077
2026-01-29 23:58:21.54	47.48	43.28	-29.7	-31.0	14.3	7.00e-07	0	43	0	498073600	19	4180
2026-01-29 23:58:22.54	47.78	43.52	-29.9	-31.0	13.9	1.50e-06	0	43	0	500170752	20	4098
2026-01-29 23:58:23.54	48.09	43.75	-30.1	-31.5	13.6	9.90e-06	0	43	0	501219328	20	4234
2026-01-29 23:58:24.55	48.40	43.99	-30.1	-31.7	13.4	3.80e-06	0	43	0	503316480	20	4289
2026-01-29 23:58:25.55	48.72	44.22	-30.1	-31.5	13.5	6.10e-06	0	43	0	505413632	20	4238
2026-01-29 23:58:26.55	49.03	44.46	-30.0	-31.3	13.7	3.00e-06	0	43	0	507510784	20	4170
2026-01-29 23:58:27.56	49.36	44.70	-30.2	-31.8	13.4	7.60e-06	0	43	0	509607936	20	4321
2026-01-29 23:58:28.56	49.69	44.93	-30.3	-32.0	13.3	4.27e-05	0	43	0	510656512	20	4398
2026-01-29 23:58:29.57	50.02	45.17	-30.6	-32.4	12.6	7.85e-05	0	43	0	512753664	21	4450
2026-01-29 23:58:30.57	50.36	45.41	-30.8	-33.1	12.1	1.19e-04	0	43	0	514850816	21	4689
2026-01-29 23:58:31.58	50.71	45.65	-30.9	-32.8	11.8	3.13e-04	0	43	0	516947968	22	4494
2026-01-29 23:58:32.59	51.06	45.89	-30.9	-32.7	12.1	9.76e-05	0	43	0	517996544	22	4439
2026-01-29 23:58:33.59	51.42	46.13	-30.7	-32.3	12.4	1.17e-04	0	43	0	520093696	22	4323
2026-01-29 23:58:34.59	51.77	46.37	-30.9	-32.9	12.0	8.39e-05	0	43	0	522190848	22	4498
2026-01-29 23:58:35.59	52.14	46.61	-31.0	-33.0	12.0	3.62e-04	0	43	0	524288000	22	4561
2026-01-29 23:58:36.60	52.51	46.85	-31.3	-33.9	11.3	7.23e-04	0	43	0	526385152	22	4887
2026-01-29 23:58:37.60	52.89	47.09	-31.8	-35.1	10.1	4.15e-03	0	43	0	527433728	23	5255
2026-01-29 23:58:38.60	53.27	47.32	-31.9	-35.6	9.6	7.58e-03	0	43	0	529530880	23	5520
2026-01-29 23:58:39.61	53.66	47.57	-32.2	-36.1	9.0	1.97e-02	0	43	0	531628032	24	5645
2026-01-29 23:58:40.62	54.06	47.81	-32.4	-37.0	8.4	3.14e-02	0	43	0	533725184	24	6085
2026-01-29 23:58:41.62	54.46	48.05	-32.5	-36.9	7.9	4.80e-02	0	43	0	535822336	25	5961
2026-01-29 23:58:42.62	54.86	48.28	-32.6	-37.2	7.8	7.08e-02	0	43	0	536870912	25	6131
2026-01-29 23:58:43.63	55.28	48.52	-32.4	-36.5	8.3	5.84e-02	0	43	0	538968064	25	5750
2026-01-29 23:58:44.63	55.70	48.76	-32.2	-35.5	9.0	5.58e-02	0	43	0	541065216	25	5283
2026-01-29 23:58:45.64	56.12	49.00	-31.6	-34.1	10.4	6.78e-03	0	43	0	543162368	24	4774
2026-01-29 23:58:46.64	56.55	49.24	-31.3	-33.5	11.3	1.96e-03	0	43	0	545259520	23	4622
2026-01-29 23:58:47.65	57.00	49.48	-31.4	-33.7	11.2	1.24e-03	0	43	0	546308096	23	4699
2026-01-29 23:58:48.65	57.44	49.71	-31.7	-34.8	10.3	3.31e-03	0	43	0	548405248	23	5130
2026-01-29 23:58:49.65	57.89	49.95	-31.5	-34.1	10.8	4.65e-03	0	43	0	550502400	23	4859
2026-01-29 23:58:50.66	58.36	50.19	-31.2	-33.3	11.5	2.21e-03	0	43	0	552599552	23	4568
2026-01-29 23:58:51.66	58.82	50.42	-30.6	-31.8	12.8	2.55e-04	0	43	0	554696704	22	4152
2026-01-29 23:58:52.67	59.30	50.66	-30.5	-31.6	13.0	1.03e-04	0	43	0	555745280	22	4089
2026-01-29 23:58:53.67	59.78	50.89	-30.4	-31.9	13.0	3.43e-05	0	43	0	557842432	21	4278
2026-01-29 23:58:54.68	60.27	51.12	-30.4	-31.8	13.2	6.63e-05	0	43	0	559939584	21	4238
2026-01-29 23:58:55.68	60.77	51.36	-30.7	-32.6	12.6	7.55e-05	0	44	0	562036736	21	4493
2026-01-29 23:58:56.68	61.27	51.59	-30.9	-32.7	12.3	3.00e-04	0	43	0	564133888	22	4421
2026-01-29 23:58:57.68	61.78	51.81	-30.8	-32.5	12.3	2.32e-04	0	43	0	565182464	22	4374
2026-01-29 23:58:58.68	62.30	52.04	-30.8	-32.6	12.4	1.40e-04	0	43	0	567279616	22	4383
2026-01-29 23:58:59.69	62.83	52.27	-30.7	-32.0	12.8	6.02e-05	0	43	0	569376768	22	4210
2026-01-29 23:59:00.69	63.36	52.49	-30.8	-32.4	12.5	1.62e-04	0	43	0	571473920	22	4324
2026-01-29 23:59:01.70	63.91	52.72	-30.8	-32.4	12.4	7.78e-05	0	43	0	573571072	22	4330
2026-01-29 23:59:02.70	64.46	52.94	-30.5	-31.5	13.1	7.24e-05	0	43	0	574619648	22	4056
2026-01-29 23:59:03.70	65.02	53.16	-30.0	-30.9	13.7	5.79e-05	0	43	0	576716800	21	3964
2026-01-29 23:59:04.71	65.60	53.38	-29.5	-30.0	14.6	7.00e-07	0	43	0	578813952	20	3801
2026-01-29 23:59:05.71	66.17	53.59	-29.3	-30.0	15.0	7.00e-07	0	43	0	580911104	19	3887
2026-01-29 23:59:06.72	66.76	53.81	-29.5	-30.4	14.8	0.00e+00	0	43	0	583008256	19	3989
2026-01-29 23:59:07.71	67.35	54.02	-29.6	-30.6	14.7	1.50e-06	0	43	0	584056832	19	4046
2026-01-29 23:59:08.72	67.96	54.23	-29.6	-30.8	14.6	1.50e-06	0	43	0	586153984	19	4089
2026-01-29 23:59:09.72	68.57	54.44	-30.0	-31.2	14.0	1.35e-04	0	43	0	588251136	20	4124
2026-01-29 23:59:10.73	69.19	54.65	-30.2	-31.7	13.6	2.12e-04	0	43	0	590348288	20	4281
2026-01-29 23:59:11.73	69.82	54.85	-30.4	-32.1	13.3	6.80e-06	0	43	0	591396864	20	4425
2026-01-29 23:59:12.73	70.46	55.05	-30.2	-31.3	13.6	1.67e-05	0	43	0	593494016	21	4077
2026-01-29 23:59:13.73	71.10	55.24	-29.8	-30.1	14.2	4.50e-06	0	43	0	595591168	21	3755
2026-01-29 23:59:14.73	71.76	55.44	-29.6	-30.2	14.5	7.00e-07	0	43	0	597688320	20	3843
2026-01-29 23:59:15.73	72.42	55.63	-29.6	-30.2	14.6	7.00e-07	0	43	0	599785472	20	3852
2026-01-29 23:59:16.74	73.10	55.82	-30.1	-31.4	13.9	7.00e-07	0	43	0	600834048	20	4200
2026-01-29 23:59:17.74	73.79	56.00	-29.9	-31.0	14.1	2.20e-06	0	43	0	602931200	20	4069
2026-01-29 23:59:18.74	74.48	56.18	-29.6	-30.3	14.5	7.00e-07	0	43	0	605028352	20	3867
2026-01-29 23:59:19.74	75.18	56.36	-29.3	-29.5	15.0	2.05e-05	0	43	0	607125504	20	3666
2026-01-29 23:59:20.74	75.89	56.54	-30.3	-31.9	13.5	7.00e-07	0	43	0	609222656	20	4358
2026-01-29 23:59:21.74	76.60	56.71	-30.3	-31.4	13.4	3.39e-04	0	43	0	610271232	21	4116
2026-01-29 23:59:22.74	77.33	56.87	-29.9	-30.9	14.1	1.50e-06	0	44	0	612368384	20	4048
2026-01-29 23:59:23.74	78.07	57.04	-29.4	-30.0	15.0	0.00e+00	0	43	0	614465536	19	3880
2026-01-29 23:59:24.74	78.81	57.19	-30.0	-31.2	14.1	3.89e-05	0	43	0	616562688	20	4125
2026-01-29 23:59:25.74	79.56	57.35	-30.7	-32.7	12.7	7.78e-05	0	43	0	618659840	21	4529
2026-01-29 23:59:26.74	80.32	57.50	-31.3	-34.0	11.4	5.25e-04	0	43	0	619708416	22	4879
2026-01-29 23:59:27.74	81.09	57.65	-31.0	-32.8	12.2	4.35e-04	0	43	0	621805568	22	4455
2026-01-29 23:59:28.75	81.88	57.79	-31.0	-32.8	12.2	2.68e-04	0	43	0	623902720	22	4464
2026-01-29 23:59:29.75	82.66	57.93	-30.4	-31.2	13.2	5.11e-05	0	43	0	625999872	22	3969
2026-01-29 23:59:30.76	83.46	58.06	-30.3	-31.0	13.5	5.11e-05	0	43	0	628097024	22	3906
2026-01-29 23:59:31.76	84.27	58.19	-30.6	-31.9	13.0	8.46e-05	0	43	0	629145600	22	4184
2026-01-29 23:59:32.76	85.07	58.31	-30.6	-31.8	12.8	6.33e-05	0	43	0	631242752	22	4144
2026-01-29 23:59:33.76	85.89	58.43	-30.3	-31.5	13.4	2.21e-05	0	43	0	633339904	21	4127
2026-01-29 23:59:34.76	86.71	58.54	-30.8	-32.9	12.5	3.94e-04	0	43	0	635437056	21	4589
2026-01-29 23:59:35.77	87.55	58.65	-31.3	-33.4	11.5	3.86e-04	0	43	0	636485632	23	4589
2026-01-29 23:59:36.77	88.39	58.75	-31.8	-34.8	10.4	4.28e-03	0	43	0	638582784	23	5113
2026-01-29 23:59:37.78	89.24	58.84	-31.1	-32.8	12.0	1.85e-03	0	43	0	640679936	23	4345
2026-01-29 23:59:38.79	90.10	58.93	-31.1	-32.8	11.9	4.57e-04	0	43	0	642777088	23	4360
2026-01-29 23:59:39.79	90.95	59.02	-31.4	-34.1	11.5	7.67e-04	0	43	0	644874240	22	4922
2026-01-29 23:59:40.80	91.82	59.10	-31.4	-33.6	11.3	1.21e-03	0	43	0	646971392	23	4630
2026-01-29 23:59:41.80	92.68	59.17	-31.2	-33.2	11.8	4.74e-04	0	43	0	648019968	23	4487
2026-01-29 23:59:42.81	93.56	59.24	-31.8	-34.8	10.6	1.81e-03	0	43	0	650117120	23	5107
2026-01-29 23:59:43.81	94.44	59.30	-31.8	-35.0	10.5	4.09e-03	0	43	0	652214272	23	5187
2026-01-29 23:59:44.81	95.31	59.36	-31.3	-33.2	11.7	1.05e-03	0	43	0	654311424	23	4485
2026-01-29 23:59:45.82	96.20	59.41	-30.8	-32.4	12.6	4.60e-04	0	43	0	655360000	22	4310
2026-01-29 23:59:46.82	97.09	59.45	-30.4	-31.7	13.4	1.90e-05	0	43	0	657457152	21	4179
2026-01-29 23:59:47.82	97.98	59.49	-30.4	-31.9	13.2	2.97e-05	0	43	0	659554304	21	4241
2026-01-29 23:59:48.82	98.86	59.52	-30.6	-32.4	13.0	2.27e-04	0	43	0	661651456	21	4414
2026-01-29 23:59:49.83	99.76	59.54	-30.7	-32.5	12.8	4.88e-05	0	43	0	663748608	21	4460
2026-01-29 23:59:50.84	100.67	59.56	-31.3	-33.7	11.8	2.35e-04	0	43	0	664797184	22	4783
2026-01-29 23:59:51.84	101.56	59.57	-31.2	-33.6	11.8	8.65e-04	0	43	0	666894336	22	4729
2026-01-29 23:59:52.84	102.45	59.58	-30.9	-32.7	12.5	1.88e-04	0	43	0	668991488	22	4418
2026-01-29 23:59:53.85	103.36	59.58	-30.2	-31.3	13.6	2.28e-05	0	43	0	671088640	21	4067
2026-01-29 23:59:54.85	104.25	59.57	-29.9	-30.8	14.3	2.20e-06	0	43	0	673185792	20	4010
2026-01-29 23:59:55.86	105.16	59.56	-30.0	-31.2	14.1	0.00e+00	0	43	0	674234368	20	4131
2026-01-29 23:59:56.86	106.05	59.54	-30.2	-31.6	13.7	5.30e-06	0	43	0	676331520	20	4246
2026-01-29 23:59:57.87	106.95	59.51	-29.9	-31.0	14.3	9.10e-06	0	43	0	678428672	20	4057
2026-01-29 23:59:58.87	107.84	59.48	-29.8	-31.0	14.6	7.00e-07	0	44	0	680525824	19	4146
2026-01-29 23:59:59.88	108.73	59.44	-30.0	-31.1	14.1	0.00e+00	0	43	0	682622976	20	4091
2026-01-30 00:00:00.88	109.62	59.40	-30.4	-32.3	13.3	5.30e-06	0	43	0	683671552	20	4489
2026-01-30 00:00:01.88	110.50	59.35	-30.5	-32.0	13.2	1.22e-05	0	43	0	685768704	21	4281
2026-01-30 00:00:02.89	111.39	59.29	-30.5	-31.9	13.2	2.36e-05	0	43	0	687865856	21	4254
2026-01-30 00:00:03.89	112.26	59.23	-31.1	-33.2	12.2	9.07e-05	0	43	0	689963008	22	4593
2026-01-30 00:00:04.90	113.14	59.16	-30.9	-32.7	12.4	1.62e-04	0	43	0	692060160	22	4418
2026-01-30 00:00:05.90	114.00	59.09	-30.2	-31.2	13.7	5.95e-05	0	43	0	693108736	21	4035
2026-01-30 00:00:06.90	114.86	59.01	-30.2	-31.2	13.7	3.80e-06	0	43	0	695205888	21	4024
2026-01-30 00:00:07.90	115.71	58.92	-30.7	-32.7	12.7	2.21e-05	0	43	0	697303040	21	4495
2026-01-30 00:00:08.90	116.56	58.83	-31.2	-33.4	12.0	1.75e-04	0	43	0	699400192	22	4669
2026-01-30 00:00:09.90	117.41	58.73	-31.2	-33.5	11.9	3.13e-04	0	43	0	701497344	22	4708
2026-01-30 00:00:10.91	118.25	58.63	-31.4	-34.2	11.3	5.84e-04	0	43	0	702545920	22	4944
2026-01-30 00:00:11.90	119.07	58.52	-31.7	-34.6	10.7	1.07e-03	0	43	0	704643072	23	5028
2026-01-30 00:00:12.92	119.91	58.41	-31.6	-34.1	11.1	1.28e-03	0	43	0	706740224	23	4830
2026-01-30 00:00:13.92	120.73	58.29	-31.4	-33.6	11.4	1.01e-03	0	43	0	708837376	23	4627
2026-01-30 00:00:14.92	121.53	58.17	-30.6	-31.9	13.0	2.47e-04	0	43	0	709885952	22	4151
2026-01-30 00:00:15.92	122.34	58.04	-29.9	-30.3	14.3	6.80e-06	0	43	0	711983104	21	3772
2026-01-30 00:00:16.92	123.13	57.90	-29.8	-30.6	14.5	1.50e-06	0	43	0	714080256	20	3953
2026-01-30 00:00:17.93	123.92	57.77	-30.3	-31.8	13.6	4.50e-06	0	43	0	716177408	20	4306
2026-01-30 00:00:18.93	124.70	57.62	-29.9	-30.9	14.3	3.80e-06	0	43	0	718274560	20	4027
2026-01-30 00:00:19.94	125.48	57.48	-29.0	-29.1	15.7	0.00e+00	0	43	0	719323136	19	3643
2026-01-30 00:00:20.93	126.23	57.33	-28.4	-28.6	16.5	0.00e+00	0	43	0	721420288	17	3690
2026-01-30 00:00:21.94	126.99	57.17	-28.3	-28.6	16.5	0.00e+00	0	44	0	723517440	17	3685
2026-01-30 00:00:22.95	127.74	57.01	-28.6	-29.3	16.2	0.00e+00	0	43	0	725614592	17	3867
2026-01-30 00:00:23.95	128.48	56.84	-28.8	-29.7	15.9	9.09e-04	0	43	0	727711744	17	3997
2026-01-30 00:00:24.96	129.21	56.67	-28.5	-28.9	16.3	0.00e+00	0	43	0	728760320	17	3790
2026-01-30 00:00:25.96	129.93	56.50	-28.1	-27.9	16.8	0.00e+00	0	43	0	730857472	17	3545
2026-01-30 00:00:26.96	130.63	56.33	-28.0	-28.1	17.1	1.57e-03	0	43	0	732954624	16	3682
2026-01-30 00:00:27.96	131.33	56.15	-28.3	-28.9	16.6	0.00e+00	0	43	0	735051776	16	3871
2026-01-30 00:00:28.97	132.03	55.96	-27.8	-27.8	17.2	0.00e+00	0	43	0	737148928	16	3614
2026-01-30 00:00:29.97	132.71	55.78	-27.4	-27.6	17.5	0.00e+00	0	43	0	738197504	15	3651
2026-01-30 00:00:30.97	133.38	55.59	-27.9	-28.5	17.0	1.09e-03	0	43	0	740294656	15	3883
2026-01-30 00:00:31.97	134.05	55.40	-28.6	-29.1	16.2	0.00e+00	0	43	0	742391808	17	3835
2026-01-30 00:00:32.98	134.71	55.20	-29.1	-29.8	15.6	0.00e+00	0	43	0	744488960	18	3913
2026-01-30 00:00:33.99	135.36	55.00	-28.3	-28.5	16.5	1.32e-03	0	43	0	746586112	17	3668
2026-01-30 00:00:34.99	136.00	54.80	-27.8	-27.7	17.3	0.00e+00	0	43	0	747634688	16	3578
2026-01-30 00:00:36.00	136.63	54.60	-28.0	-28.8	16.9	0.00e+00	0	43	0	749731840	15	3944
2026-01-30 00:00:37.00	137.25	54.39	-28.8	-29.7	15.9	1.05e-03	0	43	0	751828992	17	3988
2026-01-30 00:00:38.01	137.87	54.18	-29.3	-30.3	15.2	0.00e+00	0	43	0	753926144	18	4055
2026-01-30 00:00:39.00	138.46	53.97	-29.3	-30.4	15.1	0.00e+00	0	43	0	756023296	18	4082
2026-01-30 00:00:40.01	139.06	53.76	-30.0	-31.1	14.0	7.00e-07	0	43	0	757071872	20	4116
2026-01-30 00:00:41.02	139.65	53.54	-30.3	-32.1	13.4	9.90e-06	0	43	0	759169024	20	4434
2026-01-30 00:00:42.02	140.22	53.32	-30.5	-32.3	12.9	1.42e-03	0	43	0	761266176	21	4380
2026-01-30 00:00:43.02	140.79	53.10	-29.8	-31.1	14.5	6.10e-06	0	43	0	763363328	19	4199
2026-01-30 00:00:44.03	141.35	52.88	-28.9	-28.9	15.7	0.00e+00	0	44	0	765460480	19	3621
2026-01-30 00:00:45.03	141.90	52.66	-28.6	-29.1	16.1	1.78e-03	0	43	0	766509056	17	3839
2026-01-30 00:00:46.02	142.44	52.44	-28.1	-28.6	16.7	1.93e-03	0	43	0	768606208	16	3803
2026-01-30 00:00:47.03	142.98	52.21	-27.9	-28.1	17.1	0.00e+00	0	43	0	770703360	16	3660
2026-01-30 00:00:48.03	143.51	51.98	-28.4	-29.2	16.4	1.57e-03	0	44	0	772800512	16	3963
2026-01-30 00:00:49.04	144.03	51.75	-29.0	-30.1	15.7	1.38e-03	0	43	0	774897664	17	4103
2026-01-30 00:00:50.04	144.54	51.52	-29.2	-30.2	15.2	0.00e+00	0	43	0	775946240	18	4042
2026-01-30 00:00:51.05	145.05	51.29	-29.5	-30.5	14.8	1.21e-03	0	43	0	778043392	19	4009
2026-01-30 00:00:52.05	145.54	51.06	-29.1	-29.9	15.4	1.07e-03	0	43	0	780140544	18	3941
2026-01-30 00:00:53.05	146.03	50.82	-28.8	-29.2	15.9	0.00e+00	0	43	0	782237696	18	3764
2026-01-30 00:00:54.05	146.51	50.59	-29.3	-30.3	15.2	5.03e-04	0	43	0	783286272	18	4064
2026-01-30 00:00:55.05	146.98	50.36	-29.6	-30.7	14.6	3.20e-04	0	43	0	785383424	19	4063
2026-01-30 00:00:56.05	147.44	50.12	-29.9	-31.0	14.1	1.50e-06	0	43	0	787480576	20	4060
2026-01-30 00:00:57.05	147.90	49.89	-29.7	-30.5	14.5	4.11e-05	0	43	0	789577728	20	3919
2026-01-30 00:00:58.05	148.35	49.65	-30.7	-32.5	12.8	1.67e-05	0	43	0	791674880	21	4441
2026-01-30 00:00:59.05	148.80	49.41	-32.1	-35.6	9.5	1.04e-03	0	43	0	792723456	24	5400
2026-01-30 00:01:00.05	149.23	49.17	-33.0	-39.0	6.6	5.71e-02	0	43	0	794820608	25	7216
2026-01-30 00:01:01.06	149.67	48.93	-32.7	-37.2	7.5	1.95e-01	0	43	0	796917760	26	6049
2026-01-30 00:01:02.06	150.09	48.69	-32.3	-36.0	8.7	3.37e-02	0	43	0	799014912	25	5528
2026-01-30 00:01:03.06	150.51	48.46	-31.9	-35.0	9.9	1.22e-02	0	43	0	801112064	24	5108
2026-01-30 00:01:04.06	150.92	48.22	-32.2	-36.0	9.2	1.42e-02	0	43	0	802160640	24	5548
2026-01-30 00:01:05.07	151.33	47.97	-32.1	-35.7	9.5	1.67e-02	0	43	0	804257792	24	5402
2026-01-30 00:01:06.07	151.73	47.73	-31.9	-34.8	10.1	1.16e-02	0	43	0	806354944	24	5023
2026-01-30 00:01:07.07	152.12	47.50	-31.9	-35.1	9.9	8.70e-03	0	43	0	808452096	24	5160
2026-01-30 00:01:08.07	152.51	47.26	-31.8	-34.7	10.2	6.24e-03	0	43	0	810549248	24	4993
2026-01-30 00:01:09.08	152.89	47.01	-31.3	-33.0	11.3	3.68e-03	0	44	0	811597824	24	4379
2026-01-30 00:01:10.08	153.27	46.77	-30.5	-31.5	13.0	4.47e-04	0	43	0	813694976	22	4051
2026-01-30 00:01:11.08	153.64	46.53	-30.3	-31.5	13.4	1.83e-05	0	43	0	815792128	21	4147
2026-01-30 00:01:12.09	154.00	46.29	-30.5	-32.0	13.1	1.51e-04	0	43	0	817889280	21	4292
2026-01-30 00:01:13.09	154.36	46.05	-30.6	-32.3	12.9	6.94e-05	0	43	0	819986432	21	4382
2026-01-30 00:01:14.10	154.72	45.81	-29.9	-30.5	14.0	3.80e-06	0	44	0	821035008	21	3848
2026-01-30 00:01:15.10	155.07	45.57	-29.3	-29.5	14.9	7.00e-07	0	43	0	823132160	20	3672
2026-01-30 00:01:16.10	155.41	45.33	-29.3	-29.8	15.2	0.00e+00	0	43	0	825229312	19	3821
2026-01-30 00:01:17.10	155.75	45.10	-30.2	-31.7	13.7	0.00e+00	0	43	0	827326464	20	4291
2026-01-30 00:01:18.11	156.08	44.86	-31.1	-33.3	11.9	1.60e-04	0	43	0	828375040	22	4655
2026-01-30 00:01:19.12	156.42	44.62	-31.4	-34.2	11.4	1.05e-03	0	44	0	830472192	22	4966
2026-01-30 00:01:20.12	156.74	44.38	-30.8	-32.4	12.5	3.06e-04	0	43	0	832569344	22	4326
2026-01-30 00:01:21.13	157.06	44.14	-30.2	-31.1	13.6	1.83e-05	0	43	0	834666496	21	4031
2026-01-30 00:01:22.14	157.38	43.90	-30.3	-31.4	13.5	8.30e-06	0	43	0	836763648	21	4120
2026-01-30 00:01:23.14	157.69	43.67	-30.5	-32.2	13.0	1.06e-05	0	43	0	838860800	21	4350
2026-01-30 00:01:24.14	157.99	43.43	-30.1	-31.6	13.6	1.06e-05	0	43	0	839909376	20	4254
2026-01-30 00:01:25.14	158.29	43.20	-30.0	-31.3	13.8	5.30e-06	0	43	0	842006528	20	4169
2026-01-30 00:01:26.14	158.59	42.96	-30.4	-32.3	13.2	1.98e-05	0	43	0	844103680	20	4500
2026-01-30 00:01:27.15	158.88	42.73	-30.4	-31.8	13.2	1.75e-04	0	43	0	846200832	21	4247
2026-01-30 00:01:28.15	159.17	42.49	-30.2	-31.2	13.6	1.14e-05	0	44	0	847249408	21	4052
2026-01-30 00:01:29.15	159.45	42.26	-29.7	-30.5	14.3	1.50e-06	0	43	0	849346560	20	3951
2026-01-30 00:01:30.16	159.74	42.03	-29.8	-30.8	14.3	3.00e-04	0	43	0	851443712	20	4027
2026-01-30 00:01:31.16	160.01	41.80	-30.1	-31.7	13.6	1.22e-05	0	43	0	853540864	20	4292
2026-01-30 00:01:32.16	160.28	41.57	-30.6	-32.6	12.7	7.55e-05	0	43	0	855638016	21	4502
2026-01-30 00:01:33.17	160.55	41.34	-30.6	-32.4	12.8	9.38e-05	0	43	0	856686592	21	4448
2026-01-30 00:01:34.17	160.82	41.11	-30.4	-32.4	13.1	6.03e-04	0	43	0	858783744	20	4531
2026-01-30 00:01:35.17	161.08	40.88	-30.4	-32.0	13.0	2.05e-05	0	43	0	860880896	21	4302
2026-01-30 00:01:36.17	161.34	40.65	-30.6	-32.6	12.6	5.49e-05	0	43	0	862978048	21	4499
2026-01-30 00:01:37.17	161.59	40.43	-30.4	-31.8	13.1	4.50e-05	0	43	0	865075200	21	4263
2026-01-30 00:01:38.18	161.84	40.20	-30.7	-32.9	12.3	1.46e-04	0	43	0	866123776	21	4609
2026-01-30 00:01:39.18	162.09	39.98	-31.3	-34.0	11.3	7.84e-04	0	43	0	868220928	22	4912
2026-01-30 00:01:40.19	162.33	39.75	-30.5	-32.1	12.8	1.91e-04	0	43	0	870318080	21	4348
2026-01-30 00:01:41.19	162.57	39.53	-29.9	-30.6	14.0	6.80e-06	0	43	0	872415232	21	3888
2026-01-30 00:01:42.19	162.81	39.31	-29.8	-30.7	14.2	3.00e-06	0	43	0	874512384	20	4005
2026-01-30 00:01:43.20	163.05	39.09	-29.9	-31.1	13.9	7.00e-07	0	43	0	875560960	20	4112
2026-01-30 00:01:44.20	163.28	38.87	-30.2	-31.9	13.5	9.10e-06	0	44	0	877658112	20	4354
2026-01-30 00:01:45.21	163.51	38.64	-30.2	-31.7	13.5	1.29e-05	0	43	0	879755264	20	4312
2026-01-30 00:01:46.21	163.73	38.43	-30.7	-32.9	12.4	6.10e-05	0	43	0	881852416	21	4589
2026-01-30 00:01:47.22	163.96	38.21	-30.6	-32.4	12.8	5.87e-05	0	43	0	883949568	21	4426
2026-01-30 00:01:48.23	164.18	37.99	-30.9	-33.4	12.0	3.30e-04	0	43	0	884998144	21	4797
2026-01-30 00:01:49.23	164.39	37.77	-30.6	-32.6	12.5	1.43e-04	0	43	0	887095296	21	4512
2026-01-30 00:01:50.24	164.61	37.56	-30.3	-31.6	13.2	4.95e-05	0	43	0	889192448	21	4192
2026-01-30 00:01:51.24	164.82	37.34	-30.4	-32.5	13.1	2.89e-05	0	44	0	891289600	20	4548
2026-01-30 00:01:52.24	165.03	37.13	-30.6	-32.3	12.8	1.05e-04	0	44	0	893386752	21	4414
2026-01-30 00:01:53.25	165.23	36.92	-30.6	-32.3	12.8	4.34e-05	0	43	0	894435328	21	4394
2026-01-30 00:01:54.25	165.44	36.71	-30.4	-31.8	13.2	6.33e-05	0	43	0	896532480	21	4237
2026-01-30 00:01:55.26	165.64	36.50	-30.2	-31.8	13.4	1.90e-05	0	43	0	898629632	20	4338
2026-01-30 00:01:56.26	165.84	36.29	-30.7	-32.8	12.4	6.86e-05	0	43	0	900726784	21	4569
2026-01-30 00:01:57.26	166.03	36.08	-31.3	-34.2	11.2	5.71e-04	0	44	0	901775360	22	5007
2026-01-30 00:01:58.27	166.23	35.87	-31.7	-35.0	10.2	4.56e-03	0	44	0	903872512	23	5239
2026-01-30 00:01:59.28	166.42	35.66	-32.0	-35.3	9.5	1.54e-02	0	44	0	905969664	24	5315
2026-01-30 00:02:00.28	166.61	35.46	-31.7	-35.1	10.0	9.56e-03	0	43	0	908066816	23	5283
2026-01-30 00:02:01.28	166.79	35.26	-31.5	-34.3	10.6	7.10e-03	0	43	0	910163968	23	4956
2026-01-30 00:02:02.28	166.98	35.05	-31.4	-33.8	11.0	1.43e-03	0	43	0	911212544	23	4746
2026-01-30 00:02:03.29	167.16	34.85	-31.2	-33.7	11.4	1.17e-03	0	43	0	913309696	22	4832
2026-01-30 00:02:04.29	167.34	34.65	-30.9	-33.0	12.0	6.14e-04	0	43	0	915406848	22	4581
2026-01-30 00:02:05.29	167.51	34.45	-31.2	-33.8	11.4	2.44e-03	0	43	0	917504000	22	4848
2026-01-30 00:02:06.29	167.69	34.25	-30.9	-33.4	11.9	4.98e-04	0	43	0	919601152	21	4820
2026-01-30 00:02:07.29	167.86	34.05	-31.1	-33.4	11.7	4.40e-04	0	43	0	920649728	22	4698
2026-01-30 00:02:08.30	168.03	33.86	-31.3	-34.0	11.2	2.56e-03	0	43	0	922746880	22	4943
2026-01-30 00:02:09.31	168.20	33.66	-31.3	-34.0	11.2	1.41e-03	0	43	0	924844032	22	4947
2026-01-30 00:02:10.31	168.37	33.46	-31.2	-33.9	11.3	7.93e-04	0	44	0	926941184	22	4872
2026-01-30 00:02:11.31	168.54	33.27	-31.3	-33.9	11.3	1.33e-03	0	43	0	929038336	22	4898
2026-01-30 00:02:12.31	168.70	33.08	-31.3	-34.1	11.2	2.67e-03	0	44	0	930086912	22	4945
2026-01-30 00:02:13.31	168.86	32.88	-31.1	-33.3	11.8	7.22e-04	0	44	0	932184064	22	4653
2026-01-30 00:02:14.32	169.02	32.69	-30.8	-33.1	12.3	2.88e-04	0	44	0	934281216	21	4690
2026-01-30 00:02:15.32	169.18	32.50	-30.8	-33.0	12.3	6.98e-04	0	43	0	936378368	21	4640
2026-01-30 00:02:16.32	169.33	32.31	-30.7	-32.9	12.4	2.82e-04	0	43	0	938475520	21	4599
2026-01-30 00:02:17.32	169.49	32.13	-31.0	-33.2	11.9	3.08e-04	0	44	0	939524096	22	4611
2026-01-30 00:02:18.32	169.64	31.94	-30.7	-32.6	12.6	3.17e-04	0	44	0	941621248	21	4510
2026-01-30 00:02:19.32	169.79	31.75	-30.8	-32.9	12.4	9.68e-05	0	43	0	943718400	21	4621
2026-01-30 00:02:20.32	169.94	31.57	-31.1	-33.4	11.7	5.19e-04	0	43	0	945815552	22	4697
2026-01-30 00:02:21.31	170.08	31.39	-30.8	-33.0	12.3	4.07e-04	0	43	0	946864128	21	4639
2026-01-30 00:02:22.32	170.23	31.20	-30.7	-32.7	12.5	1.40e-04	0	43	0	948961280	21	4530
2026-01-30 00:02:23.32	170.38	31.02	-30.9	-33.2	12.1	1.45e-03	0	43	0	951058432	21	4727
2026-01-30 00:02:24.33	170.52	30.84	-30.9	-33.2	12.1	2.62e-04	0	43	0	953155584	21	4727
2026-01-30 00:02:25.32	170.66	30.66	-30.7	-32.6	12.5	2.59e-04	0	43	0	955252736	21	4516
2026-01-30 00:02:26.32	170.80	30.48	-30.8	-33.1	12.2	1.39e-03	0	44	0	956301312	21	4683
2026-01-30 00:02:27.33	170.94	30.30	-30.8	-33.0	12.3	1.30e-04	0	43	0	958398464	21	4661
2026-01-30 00:02:28.33	171.07	30.12	-30.8	-33.0	12.2	1.63e-04	0	44	0	960495616	21	4658
2026-01-30 00:02:29.33	171.21	29.94	-30.9	-32.7	12.0	1.21e-03	0	43	0	962592768	22	4464
2026-01-30 00:02:30.33	171.34	29.77	-30.9	-33.3	12.0	1.28e-03	0	43	0	964689920	21	4745
2026-01-30 00:02:31.34	171.48	29.59	-31.0	-33.2	11.8	4.97e-04	0	43	0	965738496	22	4622
2026-01-30 00:02:32.34	171.61	29.42	-31.1	-33.4	11.6	1.10e-03	0	43	0	967835648	22	4711
2026-01-30 00:02:33.35	171.74	29.24	-30.7	-32.9	12.3	7.18e-04	0	43	0	969932800	21	4607
2026-01-30 00:02:34.34	171.86	29.07	-30.9	-33.3	12.0	2.36e-04	0	43	0	972029952	21	4777
2026-01-30 00:02:35.35	171.99	28.90	-30.9	-32.8	12.0	4.47e-04	0	44	0	974127104	22	4493
2026-01-30 00:02:36.35	172.12	28.73	-30.5	-32.1	12.8	5.85e-04	0	43	0	975175680	21	4352
2026-01-30 00:02:37.35	172.24	28.56	-30.8	-33.1	12.1	2.01e-04	0	43	0	977272832	21	4697
2026-01-30 00:02:38.35	172.36	28.39	-30.7	-32.9	12.3	3.59e-04	0	43	0	979369984	21	4597
2026-01-30 00:02:39.35	172.49	28.22	-30.6	-32.5	12.5	7.99e-04	0	43	0	981467136	21	4489
2026-01-30 00:02:40.35	172.61	28.06	-30.8	-33.2	12.1	2.83e-04	0	43	0	983564288	21	4707
2026-01-30 00:02:41.35	172.73	27.89	-30.8	-33.0	12.2	6.65e-04	0	44	0	984612864	21	4640
2026-01-30 00:02:42.35	172.84	27.73	-30.7	-32.9	12.3	2.62e-04	0	44	0	986710016	21	4603
2026-01-30 00:02:43.35	172.96	27.56	-30.9	-32.8	12.0	6.64e-04	0	44	0	988807168	22	4489
2026-01-30 00:02:44.35	173.08	27.40	-30.8	-32.5	12.2	6.52e-04	0	43	0	990904320	22	4392
2026-01-30 00:02:45.35	173.19	27.24	-30.8	-33.0	12.2	1.64e-04	0	43	0	991952896	21	4646
2026-01-30 00:02:46.36	173.31	27.07	-30.8	-33.2	12.0	4.32e-04	0	43	0	994050048	21	4728
2026-01-30 00:02:47.36	173.42	26.91	-30.5	-32.2	12.6	6.18e-04	0	43	0	996147200	21	4401
2026-01-30 00:02:48.36	173.53	26.75	-30.1	-31.6	13.4	3.87e-04	0	44	0	998244352	20	4279
2026-01-30 00:02:49.37	173.64	26.59	-30.0	-31.4	13.6	1.06e-05	0	43	0	1000341504	20	4213
2026-01-30 00:02:50.36	173.75	26.44	-29.8	-30.7	14.0	2.42e-04	0	43	0	1001390080	20	4009
2026-01-30 00:02:51.37	173.86	26.28	-29.8	-30.8	13.9	1.76e-04	0	44	0	1003487232	20	4048
2026-01-30 00:02:52.37	173.96	26.12	-29.8	-30.9	13.8	5.30e-06	0	43	0	1005584384	20	4065
2026-01-30 00:02:53.38	174.07	25.96	-29.7	-30.4	14.1	8.16e-05	0	44	0	1007681536	20	3937
2026-01-30 00:02:54.38	174.18	25.81	-29.8	-31.2	14.1	7.62e-05	0	44	0	1009778688	19	4230
2026-01-30 00:02:55.37	174.28	25.66	-29.5	-30.4	14.5	3.00e-06	0	43	0	1010827264	19	4021
2026-01-30 00:02:56.38	174.38	25.50	-29.3	-30.0	14.8	9.23e-05	0	43	0	1012924416	19	3889
2026-01-30 00:02:57.38	174.49	25.35	-29.5	-30.5	14.5	1.24e-04	0	44	0	1015021568	19	4036
2026-01-30 00:02:58.39	174.59	25.20	-29.3	-30.1	14.7	1.50e-06	0	44	0	1017118720	19	3935
2026-01-30 00:02:59.39	174.69	25.04	-29.2	-30.3	14.7	0.00e+00	0	43	0	1019215872	18	4082
2026-01-30 00:03:00.40	174.79	24.89	-29.3	-30.6	14.7	3.59e-04	0	44	0	1020264448	18	4162
2026-01-30 00:03:01.40	174.89	24.74	-29.3	-30.6	14.7	0.00e+00	0	43	0	1022361600	18	4156
2026-01-30 00:03:02.40	174.98	24.60	-29.4	-30.8	14.6	3.49e-04	0	43	0	1024458752	18	4216
2026-01-30 00:03:03.40	175.08	24.45	-28.7	-30.1	14.5	2.84e-04	0	43	0	1026555904	18	4234
2026-01-30 00:03:04.40	175.18	24.30	-29.6	-30.7	14.3	0.00e+00	0	44	0	1028653056	19	4104
2026-01-30 00:03:05.41	175.27	24.15	-29.7	-31.1	13.8	1.91e-04	0	43	0	1029701632	19	4223
2026-01-30 00:03:06.41	175.37	24.01	-29.8	-31.3	13.7	2.03e-04	0	44	0	1031798784	19	4292
2026-01-30 00:03:07.41	175.46	23.86	-29.9	-31.5	13.8	3.00e-06	0	43	0	1033895936	19	4339
2026-01-30 00:03:08.42	175.55	23.72	-29.8	-31.4	13.9	2.00e-04	0	43	0	1035993088	19	4307
2026-01-30 00:03:09.42	175.65	23.57	-29.5	-30.4	14.4	1.36e-04	0	43	0	1038090240	19	4027
2026-01-30 00:03:10.42	175.74	23.43	-29.4	-30.4	14.5	7.00e-07	0	44	0	1039138816	19	4010
2026-01-30 00:03:11.42	175.83	23.29	-29.3	-30.1	14.7	9.23e-05	0	44	0	1041235968	19	3923
2026-01-30 00:03:12.42	175.92	23.15	-29.2	-30.2	14.9	8.92e-05	0	44	0	1043333120	18	4064
2026-01-30 00:03:13.42	176.00	23.01	-28.9	-29.5	15.3	0.00e+00	0	43	0	1045430272	18	3875
2026-01-30 00:03:14.43	176.09	22.86	-28.5	-28.6	15.8	7.55e-05	0	43	0	1046478848	18	3641
2026-01-30 00:03:15.43	176.18	22.73	-28.5	-29.1	15.8	7.93e-05	0	44	0	1048576000	17	3836
2026-01-30 00:03:16.42	176.27	22.59	-28.3	-28.7	16.0	0.00e+00	0	43	0	1050673152	17	3733
2026-01-30 00:03:17.43	176.35	22.45	-28.1	-28.1	16.4	1.68e-04	0	43	0	1052770304	17	3603
2026-01-30 00:03:18.43	176.44	22.31	-27.8	-27.9	16.8	5.95e-05	0	43	0	1054867456	16	3647
2026-01-30 00:03:19.44	176.52	22.17	-27.8	-27.9	16.7	0.00e+00	0	44	0	1055916032	16	3653
2026-01-30 00:03:20.44	176.60	22.04	-28.0	-28.4	16.5	2.08e-04	0	44	0	1058013184	16	3775
2026-01-30 00:03:21.44	176.69	21.90	-28.0	-28.4	16.5	0.00e+00	0	44	0	1060110336	16	3755
2026-01-30 00:03:22.45	176.77	21.77	-28.2	-28.8	16.3	0.00e+00	0	44	0	1062207488	16	3856
2026-01-30 00:03:23.45	176.85	21.63	-28.1	-28.6	16.4	2.10e-04	0	43	0	1064304640	16	3813
2026-01-30 00:03:24.45	176.93	21.50	-28.3	-29.1	16.1	1.85e-04	0	43	0	1065353216	16	3956
2026-01-30 00:03:25.45	177.01	21.37	-28.4	-29.3	15.9	0.00e+00	0	43	0	1067450368	16	4006
2026-01-30 00:03:26.45	177.09	21.24	-28.5	-29.0	15.8	4.34e-05	0	43	0	1069547520	17	3833
2026-01-30 00:03:27.45	177.17	21.10	-28.4	-28.8	15.9	1.64e-04	0	43	0	1071644672	17	3783
2026-01-30 00:03:28.44	177.25	20.98	-28.5	-29.0	15.8	0.00e+00	0	43	0	1073741824	17	3841
2026-01-30 00:03:29.44	177.33	20.85	-28.5	-29.1	15.7	2.28e-05	0	43	0	1074790400	17	3851
2026-01-30 00:03:30.45	177.40	20.71	-28.5	-29.1	15.8	1.62e-04	0	43	0	1076887552	17	3856
2026-01-30 00:03:31.45	177.48	20.59	-28.6	-29.3	15.6	0.00e+00	0	43	0	1078984704	17	3903
2026-01-30 00:03:32.45	177.55	20.46	-28.6	-29.3	15.6	3.20e-05	0	43	0	1081081856	17	3909
2026-01-30 00:03:33.46	177.63	20.33	-28.3	-28.6	16.0	3.20e-05	0	43	0	1083179008	17	3745
2026-01-30 00:03:34.46	177.70	20.20	-28.3	-28.5	16.1	0.00e+00	0	43	0	1084227584	17	3713
2026-01-30 00:03:35.47	177.78	20.07	-28.4	-29.0	15.8	1.79e-04	0	43	0	1086324736	17	3823
2026-01-30 00:03:36.47	177.85	19.95	-28.5	-29.0	15.8	3.73e-05	0	44	0	1088421888	17	3832
2026-01-30 00:03:37.47	177.93	19.82	-28.4	-28.8	15.9	1.50e-06	0	44	0	1090519040	17	3783
2026-01-30 00:03:38.48	178.00	19.70	-28.4	-29.0	15.8	1.87e-04	0	43	0	1091567616	17	3823
2026-01-30 00:03:39.47	178.07	19.57	-28.4	-29.4	15.8	2.08e-04	0	43	0	1093664768	16	4049
2026-01-30 00:03:40.48	178.14	19.45	-28.5	-29.5	15.7	0.00e+00	0	44	0	1095761920	16	4077
2026-01-30 00:03:41.48	178.21	19.33	-28.8	-29.8	15.3	2.23e-04	0	43	0	1097859072	17	4050
2026-01-30 00:03:42.48	178.28	19.21	-29.0	-29.8	15.0	2.19e-04	0	43	0	1099956224	18	3966
2026-01-30 00:03:43.48	178.35	19.08	-28.8	-29.4	15.3	0.00e+00	0	43	0	1101004800	18	3841
2026-01-30 00:03:44.48	178.42	18.96	-28.5	-29.1	15.7	2.55e-04	0	43	0	1103101952	17	3879
2026-01-30 00:03:45.49	178.49	18.84	-28.6	-29.3	15.6	2.97e-04	0	44	0	1105199104	17	3922
2026-01-30 00:03:46.49	178.56	18.72	-28.6	-29.3	15.5	0.00e+00	0	44	0	1107296256	17	3937
2026-01-30 00:03:47.48	178.62	18.60	-28.7	-29.6	15.4	9.37e-04	0	44	0	1109393408	17	4010
2026-01-30 00:03:48.48	178.69	18.48	-28.8	-29.9	15.2	3.14e-04	0	43	0	1110441984	17	4086
2026-01-30 00:03:49.49	178.76	18.36	-28.9	-30.1	15.1	4.50e-06	0	44	0	1112539136	17	4142
2026-01-30 00:03:50.49	178.82	18.25	-29.1	-30.2	14.8	3.15e-04	0	43	0	1114636288	18	4065
2026-01-30 00:03:51.49	178.89	18.13	-29.2	-30.4	14.5	3.33e-04	0	43	0	1116733440	18	4124
2026-01-30 00:03:52.49	178.95	18.01	-29.2	-30.3	14.7	6.80e-06	0	43	0	1118830592	18	4110
2026-01-30 00:03:53.50	179.02	17.89	-29.3	-30.6	14.5	3.17e-04	0	43	0	1119879168	18	4184
2026-01-30 00:03:54.50	179.08	17.78	-29.2	-30.4	14.6	2.97e-04	0	44	0	1121976320	18	4144
2026-01-30 00:03:55.50	179.15	17.66	-29.3	-30.7	14.4	9.10e-06	0	44	0	1124073472	18	4237
2026-01-30 00:03:56.50	179.21	17.55	-29.5	-30.8	14.0	3.17e-04	0	43	0	1126170624	19	4163
2026-01-30 00:03:57.50	179.27	17.43	-29.3	-30.2	14.4	2.75e-04	0	44	0	1128267776	19	3999
2026-01-30 00:03:58.51	179.34	17.32	-29.3	-30.3	14.4	8.30e-06	0	43	0	1129316352	19	4008
2026-01-30 00:03:59.51	179.40	17.21	-29.3	-30.6	14.4	1.91e-04	0	43	0	1131413504	18	4197
2026-01-30 00:04:00.51	179.46	17.09	-29.3	-30.6	14.5	2.00e-04	0	44	0	1133510656	18	4191
2026-01-30 00:04:01.52	179.52	16.98	-29.3	-30.6	14.4	4.50e-06	0	43	0	1135607808	18	4197
2026-01-30 00:04:02.51	179.58	16.87	-29.3	-30.7	14.4	1.76e-04	0	44	0	1136656384	18	4233
2026-01-30 00:04:03.52	179.64	16.76	-29.4	-30.9	14.3	1.72e-04	0	43	0	1138753536	18	4290
2026-01-30 00:04:04.52	179.70	16.65	-29.1	-30.3	14.7	0.00e+00	0	44	0	1140850688	18	4095
2026-01-30 00:04:05.52	179.76	16.54	-28.9	-29.6	15.0	1.56e-04	0	43	0	1142947840	18	3908
2026-01-30 00:04:06.52	179.82	16.43	-28.9	-30.1	15.0	1.68e-04	0	44	0	1145044992	17	4136
2026-01-30 00:04:07.53	179.88	16.31	-28.9	-30.1	15.0	3.00e-06	0	43	0	1146093568	17	4144
2026-01-30 00:04:08.53	179.93	16.21	-28.6	-29.5	15.4	0.00e+00	0	43	0	1148190720	17	3978
2026-01-30 00:04:09.54	179.99	16.10	-28.8	-29.9	15.1	1.62e-04	0	43	0	1150287872	17	4105
2026-01-30 00:04:10.54	180.05	15.99	-28.8	-29.9	15.0	1.50e-06	0	43	0	1152385024	17	4101
2026-01-30 00:04:11.55	180.11	15.88	-28.6	-29.4	15.3	0.00e+00	0	43	0	1154482176	17	3946
2026-01-30 00:04:12.56	180.16	15.77	-28.6	-29.4	15.4	0.00e+00	0	44	0	1155530752	17	3967
2026-01-30 00:04:13.56	180.22	15.66	-28.7	-29.6	15.2	7.00e-07	0	43	0	1157627904	17	4023
2026-01-30 00:04:14.56	180.28	15.56	-28.9	-30.2	14.9	5.67e-04	0	43	0	1159725056	17	4168
2026-01-30 00:04:15.56	180.33	15.45	-28.9	-30.2	14.9	0.00e+00	0	43	0	1161822208	17	4193
2026-01-30 00:04:16.56	180.39	15.35	-28.8	-30.1	15.0	0.00e+00	0	43	0	1163919360	17	4140
2026-01-30 00:04:17.56	180.44	15.24	-28.9	-30.2	14.9	2.73e-04	0	43	0	1164967936	17	4176
2026-01-30 00:04:18.57	180.50	15.14	-28.9	-30.3	14.8	0.00e+00	0	43	0	1167065088	17	4196
2026-01-30 00:04:19.56	180.55	15.03	-29.0	-30.0	14.7	0.00e+00	0	43	0	1169162240	18	4037
2026-01-30 00:04:20.57	180.60	14.93	-29.3	-30.7	14.3	2.78e-04	0	43	0	1171259392	18	4230
2026-01-30 00:04:21.58	180.66	14.82	-29.3	-30.8	14.2	0.00e+00	0	43	0	1173356544	18	4248
2026-01-30 00:04:22.58	180.71	14.72	-29.3	-30.7	14.3	1.50e-06	0	43	0	1174405120	18	4221
2026-01-30 00:04:23.58	180.76	14.62	-29.3	-30.8	14.2	2.20e-06	0	43	0	1176502272	18	4258
2026-01-30 00:04:24.59	180.82	14.52	-29.4	-30.9	14.2	2.09e-04	0	44	0	1178599424	18	4282
2026-01-30 00:04:25.59	180.87	14.41	-29.4	-30.9	14.1	5.56e-05	0	43	0	1180696576	18	4305
2026-01-30 00:04:26.59	180.92	14.31	-29.4	-31.0	14.0	1.50e-06	0	44	0	1182793728	18	4336
2026-01-30 00:04:27.59	180.97	14.21	-29.4	-30.9	14.1	2.20e-06	0	43	0	1183842304	18	4299
2026-01-30 00:04:28.60	181.02	14.11	-29.6	-31.1	13.7	4.42e-05	0	43	0	1185939456	19	4247
2026-01-30 00:04:29.60	181.07	14.01	-29.8	-31.5	13.5	4.95e-05	0	43	0	1188036608	19	4374
2026-01-30 00:04:30.60	181.12	13.91	-29.8	-31.6	13.4	1.22e-05	0	43	0	1190133760	19	4405
2026-01-30 00:04:31.60	181.17	13.81	-29.7	-31.2	13.7	3.35e-05	0	43	0	1191182336	19	4275
2026-01-30 00:04:32.61	181.22	13.71	-29.5	-30.7	14.0	4.11e-05	0	43	0	1193279488	19	4122
2026-01-30 00:04:33.61	181.27	13.61	-29.4	-30.4	14.1	3.00e-06	0	43	0	1195376640	19	4031
2026-01-30 00:04:34.62	181.32	13.52	-29.5	-30.7	13.9	7.00e-07	0	44	0	1197473792	19	4126
2026-01-30 00:04:35.63	181.37	13.42	-29.5	-30.6	14.0	7.32e-05	0	43	0	1199570944	19	4108
2026-01-30 00:04:36.62	181.42	13.32	-29.5	-30.7	13.9	7.00e-07	0	44	0	1200619520	19	4121
2026-01-30 00:04:37.62	181.47	13.22	-29.5	-30.8	13.8	6.10e-06	0	43	0	1202716672	19	4160
2026-01-30 00:04:38.63	181.51	13.13	-29.6	-31.1	13.6	5.64e-05	0	44	0	1204813824	19	4255
2026-01-30 00:04:39.63	181.56	13.03	-29.6	-31.1	13.7	4.50e-06	0	44	0	1206910976	19	4247
2026-01-30 00:04:40.64	181.61	12.93	-29.8	-31.6	13.3	1.06e-05	0	43	0	1209008128	19	4407
2026-01-30 00:04:41.64	181.66	12.84	-29.0	-30.8	13.1	3.89e-05	0	43	0	1210056704	19	4430
2026-01-30 00:04:42.64	181.70	12.74	-29.8	-31.5	13.4	2.82e-05	0	43	0	1212153856	19	4380
2026-01-30 00:04:43.64	181.75	12.65	-29.9	-31.8	12.8	4.11e-05	0	44	0	1214251008	19	4497
2026-01-30 00:04:44.65	181.80	12.55	-29.9	-31.9	13.0	2.74e-05	0	43	0	1216348160	19	4535
2026-01-30 00:04:45.66	181.84	12.46	-29.9	-32.0	13.0	4.42e-05	0	44	0	1218445312	19	4544
2026-01-30 00:04:46.66	181.89	12.36	-29.9	-31.5	12.9	8.54e-05	0	43	0	1219493888	20	4313
2026-01-30 00:04:47.65	181.93	12.27	-30.1	-31.9	12.7	1.36e-04	0	43	0	1221591040	20	4446
2026-01-30 00:04:48.66	181.98	12.18	-30.1	-31.9	12.6	1.21e-04	0	43	0	1223688192	20	4454
2026-01-30 00:04:49.66	182.02	12.08	-29.9	-31.4	13.0	1.07e-04	0	43	0	1225785344	20	4289
2026-01-30 00:04:50.67	182.07	11.99	-29.9	-31.8	13.1	1.04e-04	0	43	0	1227882496	19	4482
2026-01-30 00:04:51.68	182.11	11.90	-30.0	-31.5	12.9	3.05e-05	0	43	0	1228931072	20	4319
2026-01-30 00:04:52.69	182.16	11.81	-30.0	-31.6	12.9	1.18e-04	0	43	0	1231028224	20	4343
2026-01-30 00:04:53.69	182.20	11.71	-30.0	-31.6	12.8	1.46e-04	0	43	0	1233125376	20	4352
2026-01-30 00:04:54.70	182.24	11.62	-30.1	-32.1	12.5	8.23e-05	0	43	0	1235222528	20	4492
2026-01-30 00:04:55.70	182.29	11.53	-30.2	-32.4	12.3	4.50e-04	0	43	0	1237319680	20	4607
2026-01-30 00:04:56.71	182.33	11.44	-30.2	-32.1	12.4	2.56e-04	0	43	0	1238368256	20	4522
2026-01-30 00:04:57.72	182.37	11.35	-30.1	-31.9	12.6	1.04e-04	0	43	0	1240465408	20	4439
2026-01-30 00:04:58.72	182.42	11.26	-30.0	-31.7	12.8	3.05e-04	0	43	0	1242562560	20	4360
2026-01-30 00:04:59.72	182.46	11.17	-30.0	-31.6	12.8	3.26e-04	0	43	0	1244659712	20	4344
2026-01-30 00:05:00.72	182.50	11.08	-30.0	-31.7	12.7	7.24e-05	0	44	0	1246756864	20	4385
2026-01-30 00:05:01.72	182.54	10.99	-30.0	-31.8	12.6	1.43e-04	0	43	0	1247805440	20	4408
2026-01-30 00:05:02.73	182.58	10.90	-30.1	-31.9	12.6	3.52e-04	0	44	0	1249902592	20	4449
2026-01-30 00:05:03.73	182.63	10.82	-30.0	-31.7	12.7	1.27e-04	0	43	0	1251999744	20	4378
2026-01-30 00:05:04.73	182.67	10.73	-30.0	-31.6	12.7	1.33e-04	0	43	0	1254096896	20	4359
2026-01-30 00:05:05.73	182.71	10.64	-29.8	-31.1	13.1	2.67e-04	0	43	0	1255145472	20	4204
2026-01-30 00:05:06.74	182.75	10.55	-29.8	-31.1	13.0	3.58e-05	0	43	0	1257242624	20	4203
2026-01-30 00:05:07.74	182.79	10.46	-29.9	-31.8	13.0	1.08e-04	0	43	0	1259339776	19	4485
2026-01-30 00:05:08.74	182.83	10.38	-29.9	-31.8	13.1	2.49e-04	0	44	0	1261436928	19	4479
2026-01-30 00:05:09.74	182.87	10.29	-29.8	-31.5	13.2	2.44e-05	0	43	0	1263534080	19	4411
2026-01-30 00:05:10.75	182.91	10.21	-29.8	-31.5	13.2	3.40e-04	0	44	0	1264582656	19	4404
2026-01-30 00:05:11.75	182.95	10.12	-29.8	-31.5	13.1	1.82e-04	0	44	0	1266679808	19	4408
2026-01-30 00:05:12.75	182.99	10.03	-29.8	-31.5	13.1	1.37e-05	0	44	0	1268776960	19	4411
2026-01-30 00:05:13.76	183.03	9.95	-29.9	-31.9	12.9	4.16e-04	0	44	0	1270874112	19	4526
2026-01-30 00:05:14.76	183.07	9.86	-29.9	-31.9	12.9	4.03e-04	0	43	0	1272971264	19	4525
2026-01-30 00:05:15.76	183.11	9.78	-29.9	-31.9	12.9	5.11e-05	0	43	0	1274019840	19	4539
2026-01-30 00:05:16.75	183.14	9.69	-29.9	-31.8	13.0	2.88e-04	0	43	0	1276116992	19	4496
2026-01-30 00:05:17.76	183.18	9.61	-29.8	-31.7	13.0	4.27e-04	0	44	0	1278214144	19	4479
2026-01-30 00:05:18.76	183.22	9.53	-29.9	-31.9	12.9	6.33e-05	0	43	0	1280311296	19	4546
2026-01-30 00:05:19.77	183.26	9.44	-29.8	-31.8	13.0	3.23e-04	0	43	0	1282408448	19	4499
2026-01-30 00:05:20.77	183.30	9.36	-29.9	-32.0	12.8	6.30e-04	0	44	0	1283457024	19	4556
2026-01-30 00:05:21.78	183.33	9.27	-30.0	-31.8	12.6	6.48e-05	0	44	0	1285554176	20	4419
2026-01-30 00:05:22.78	183.37	9.19	-30.1	-32.0	12.3	4.42e-04	0	43	0	1287651328	20	4510
