passes_logs/2026/01/29/R2M6_AANII_01/R2M6_AANII_01__20260129_043014_FENGYUN_3D_rec.log

#Pass ID: 20260129_043014_FENGYUN 3D
#Satellite: FENGYUN 3D
#Configuration: FENGYUN 3D
#almurnet v.1.7.20240730
#Start time: 2026-01-29 04:30:13

#Version: 2.2.20231116
#Station: R2M6_AANII_01
#Location: 30.233357 lon 59.946436 lat
#TLE: 1 43010U 17072A   26027.90082829  .00000305  00000+0  16579-3 0  9998
#TLE: 2 43010  98.9960 359.9183 0002511  88.1058 272.0405 14.19701796425082

#Time	Az	El	Level	Level2	SNR	BER	BlckErr	Temp	State	Recorded	gain1	gain2
2026-01-29 04:30:13.95	10.65	6.99	-31.1	-35.9	4.8	8.10e-01	0	40	0	0	22	6279
2026-01-29 04:30:14.95	10.55	7.05	-30.7	-35.2	4.9	7.97e-01	0	40	104	0	21	6031
2026-01-29 04:30:15.95	10.46	7.12	-29.4	-33.9	7.5	1.09e-01	0	40	0	0	20	6068
2026-01-29 04:30:16.95	10.36	7.18	-30.6	-34.6	8.0	8.60e-02	0	40	0	5242880	21	5720
2026-01-29 04:30:17.96	10.27	7.24	-30.6	-34.8	7.9	8.58e-02	0	40	0	11534336	21	5822
2026-01-29 04:30:18.96	10.17	7.30	-30.5	-34.4	8.1	7.57e-02	0	40	0	16777216	21	5642
2026-01-29 04:30:19.97	10.07	7.37	-30.4	-34.2	8.3	6.28e-02	0	40	0	22020096	21	5518
2026-01-29 04:30:20.97	9.97	7.43	-30.4	-34.5	8.5	5.43e-02	0	40	0	28311552	20	5783
2026-01-29 04:30:21.97	9.87	7.49	-30.4	-34.5	8.5	5.24e-02	0	40	0	33554432	20	5770
2026-01-29 04:30:22.98	9.78	7.56	-30.7	-35.1	7.7	9.11e-02	0	40	0	38797312	21	5952
2026-01-29 04:30:23.97	9.68	7.62	-30.4	-34.5	8.5	6.45e-02	0	40	0	45088768	20	5770
2026-01-29 04:30:24.98	9.58	7.68	-29.9	-33.0	9.6	2.88e-02	0	40	0	50331648	20	5129
2026-01-29 04:30:25.98	9.48	7.75	-29.4	-32.2	10.6	6.54e-03	0	40	0	55574528	19	4921
2026-01-29 04:30:26.98	9.38	7.81	-28.9	-31.3	11.5	2.05e-03	0	40	0	61865984	18	4729
2026-01-29 04:30:27.98	9.28	7.87	-28.4	-30.6	12.2	1.80e-03	0	40	0	67108864	17	4605
2026-01-29 04:30:28.98	9.18	7.93	-28.0	-30.1	12.9	1.46e-04	0	41	0	73400320	16	4557
2026-01-29 04:30:29.98	9.07	8.00	-27.5	-29.5	13.3	1.42e-03	0	41	0	78643200	15	4509
2026-01-29 04:30:30.98	8.97	8.06	-27.3	-29.4	13.7	1.25e-05	0	41	0	83886080	14	4588
2026-01-29 04:30:31.99	8.87	8.13	-27.5	-29.9	13.4	2.74e-05	0	41	0	90177536	14	4743
2026-01-29 04:30:33.00	8.76	8.19	-27.5	-29.5	13.4	1.24e-03	0	41	0	95420416	15	4498
2026-01-29 04:30:34.00	8.66	8.25	-27.6	-29.6	13.3	3.43e-05	0	40	0	100663296	15	4540
2026-01-29 04:30:35.00	8.56	8.32	-27.5	-29.3	13.5	1.94e-05	0	41	0	106954752	15	4440
2026-01-29 04:30:36.00	8.45	8.38	-27.4	-29.7	13.6	1.48e-05	0	41	0	112197632	14	4691
2026-01-29 04:30:37.01	8.35	8.45	-27.4	-29.7	13.6	1.34e-03	0	41	0	118489088	14	4680
2026-01-29 04:30:38.01	8.24	8.51	-27.4	-29.7	13.6	1.02e-05	0	41	0	123731968	14	4673
2026-01-29 04:30:39.01	8.14	8.57	-27.7	-29.9	13.1	1.55e-03	0	41	0	128974848	15	4626
2026-01-29 04:30:40.02	8.03	8.64	-28.3	-30.8	12.4	1.47e-03	0	41	0	135266304	16	4800
2026-01-29 04:30:41.02	7.92	8.70	-27.9	-29.8	13.1	6.86e-05	0	41	0	140509184	16	4461
2026-01-29 04:30:42.02	7.82	8.77	-27.4	-29.2	13.6	1.25e-03	0	41	0	146800640	15	4423
2026-01-29 04:30:43.02	7.71	8.83	-27.1	-29.0	14.0	1.24e-03	0	41	0	152043520	14	4473
2026-01-29 04:30:44.02	7.60	8.90	-27.0	-28.6	14.3	2.20e-06	0	41	0	157286400	14	4350
2026-01-29 04:30:45.02	7.49	8.96	-26.9	-28.9	14.3	1.14e-03	0	41	0	163577856	13	4555
2026-01-29 04:30:46.02	7.38	9.02	-27.0	-29.1	14.2	1.17e-03	0	41	0	168820736	13	4619
2026-01-29 04:30:47.03	7.27	9.09	-27.0	-28.7	14.2	0.00e+00	0	41	0	174063616	14	4380
2026-01-29 04:30:48.03	7.16	9.15	-26.9	-29.1	14.3	1.19e-03	0	41	0	180355072	13	4599
2026-01-29 04:30:49.04	7.05	9.22	-27.0	-28.7	14.2	1.16e-03	0	41	0	185597952	14	4393
2026-01-29 04:30:50.04	6.94	9.28	-27.1	-29.0	14.1	2.20e-06	0	41	0	190840832	14	4458
2026-01-29 04:30:51.04	6.83	9.35	-27.2	-29.2	13.9	1.21e-03	0	41	0	197132288	14	4527
2026-01-29 04:30:52.06	6.71	9.42	-27.1	-28.9	14.1	1.10e-06	0	41	0	202375168	14	4434
2026-01-29 04:30:53.06	6.60	9.48	-27.0	-28.6	14.3	0.00e+00	0	41	0	208666624	14	4354
2026-01-29 04:30:54.06	6.48	9.55	-26.9	-28.9	14.4	1.12e-03	0	41	0	213909504	13	4545
2026-01-29 04:30:55.07	6.37	9.61	-26.9	-28.9	14.4	0.00e+00	0	41	0	220200960	13	4557
2026-01-29 04:30:56.07	6.26	9.68	-26.9	-29.0	14.3	1.10e-06	0	41	0	225443840	13	4576
2026-01-29 04:30:57.08	6.14	9.74	-26.6	-28.3	14.7	0.00e+00	0	41	0	230686720	13	4384
2026-01-29 04:30:58.08	6.02	9.81	-26.5	-28.1	14.9	1.21e-03	0	41	0	236978176	13	4328
2026-01-29 04:30:59.09	5.91	9.87	-26.5	-28.1	14.9	0.00e+00	0	41	0	242221056	13	4316
2026-01-29 04:31:00.09	5.79	9.94	-26.5	-28.0	14.9	0.00e+00	0	41	0	247463936	13	4281
2026-01-29 04:31:01.10	5.67	10.00	-26.5	-28.2	14.9	1.39e-03	0	41	0	253755392	13	4338
2026-01-29 04:31:02.10	5.55	10.07	-26.5	-28.1	14.9	0.00e+00	0	41	0	258998272	13	4325
2026-01-29 04:31:03.10	5.44	10.14	-26.6	-28.4	14.7	1.31e-03	0	41	0	265289728	13	4399
2026-01-29 04:31:04.11	5.32	10.20	-26.6	-28.3	14.8	0.00e+00	0	41	0	270532608	13	4362
2026-01-29 04:31:05.11	5.20	10.27	-26.6	-28.4	14.7	1.10e-06	0	41	0	275775488	13	4389
2026-01-29 04:31:06.11	5.08	10.33	-26.6	-28.3	14.8	0.00e+00	0	41	0	282066944	13	4373
2026-01-29 04:31:07.12	4.96	10.40	-26.6	-28.4	14.5	0.00e+00	0	41	0	287309824	13	4390
2026-01-29 04:31:08.13	4.83	10.47	-26.6	-28.2	14.6	0.00e+00	0	41	0	293601280	13	4346
2026-01-29 04:31:09.13	4.71	10.53	-26.5	-28.1	14.9	1.10e-06	0	41	0	298844160	13	4316
2026-01-29 04:31:10.14	4.59	10.60	-26.6	-28.3	14.8	1.28e-03	0	41	0	304087040	13	4369
2026-01-29 04:31:11.14	4.47	10.66	-26.4	-27.9	15.1	0.00e+00	0	41	0	310378496	13	4254
2026-01-29 04:31:12.14	4.34	10.73	-26.3	-28.1	15.2	0.00e+00	0	41	0	315621376	12	4433
2026-01-29 04:31:13.15	4.22	10.80	-26.4	-28.3	15.1	0.00e+00	0	42	0	320864256	12	4474
2026-01-29 04:31:14.15	4.09	10.86	-26.3	-28.1	15.2	0.00e+00	0	41	0	327155712	12	4417
2026-01-29 04:31:15.15	3.97	10.93	-26.3	-28.0	15.3	0.00e+00	0	41	0	332398592	12	4408
2026-01-29 04:31:16.16	3.84	11.00	-26.3	-28.1	15.2	0.00e+00	0	41	0	338690048	12	4432
2026-01-29 04:31:17.17	3.71	11.06	-26.2	-27.8	15.4	2.28e-05	0	42	0	343932928	12	4355
2026-01-29 04:31:18.17	3.59	11.13	-26.2	-27.8	15.4	0.00e+00	0	42	0	349175808	12	4333
2026-01-29 04:31:19.17	3.46	11.20	-26.2	-27.9	15.4	1.71e-05	0	42	0	355467264	12	4376
2026-01-29 04:31:20.18	3.33	11.26	-26.3	-28.2	15.2	5.70e-06	0	42	0	360710144	12	4450
2026-01-29 04:31:21.18	3.20	11.33	-26.2	-27.9	15.4	0.00e+00	0	42	0	367001600	12	4367
2026-01-29 04:31:22.19	3.07	11.40	-26.3	-28.1	15.2	2.20e-06	0	41	0	372244480	12	4427
2026-01-29 04:31:23.19	2.94	11.46	-26.3	-28.1	15.2	0.00e+00	0	41	0	377487360	12	4437
2026-01-29 04:31:24.19	2.81	11.53	-26.4	-28.3	15.1	0.00e+00	0	42	0	383778816	12	4486
2026-01-29 04:31:25.19	2.68	11.60	-26.6	-28.3	14.8	0.00e+00	0	41	0	389021696	13	4381
2026-01-29 04:31:26.19	2.55	11.66	-26.8	-28.8	14.5	1.18e-04	0	42	0	394264576	13	4522
2026-01-29 04:31:27.19	2.42	11.73	-26.5	-28.1	15.0	0.00e+00	0	42	0	400556032	13	4320
2026-01-29 04:31:28.19	2.29	11.79	-26.4	-27.9	15.1	0.00e+00	0	41	0	405798912	13	4248
2026-01-29 04:31:29.20	2.15	11.86	-26.4	-27.7	15.2	6.63e-05	0	42	0	412090368	13	4211
2026-01-29 04:31:30.21	2.02	11.93	-26.3	-28.1	15.3	0.00e+00	0	42	0	417333248	12	4439
2026-01-29 04:31:31.21	1.88	12.00	-26.2	-28.0	15.4	1.33e-04	0	42	0	422576128	12	4385
2026-01-29 04:31:32.21	1.75	12.06	-26.2	-27.9	15.4	1.37e-04	0	42	0	428867584	12	4369
2026-01-29 04:31:33.21	1.61	12.13	-26.3	-28.0	15.4	1.10e-06	0	42	0	434110464	12	4385
2026-01-29 04:31:34.21	1.47	12.20	-26.2	-27.8	15.4	1.20e-04	0	42	0	440401920	12	4341
2026-01-29 04:31:35.22	1.34	12.26	-26.0	-27.5	15.7	1.11e-04	0	42	0	445644800	12	4249
2026-01-29 04:31:36.21	1.20	12.33	-25.9	-27.3	15.8	0.00e+00	0	42	0	450887680	12	4202
2026-01-29 04:31:37.22	1.06	12.40	-25.9	-27.2	15.8	0.00e+00	0	42	0	457179136	12	4179
2026-01-29 04:31:38.22	0.92	12.46	-25.8	-27.1	15.9	1.09e-04	0	42	0	462422016	12	4145
2026-01-29 04:31:39.22	0.78	12.53	-25.8	-27.5	16.0	0.00e+00	0	42	0	467664896	11	4376
2026-01-29 04:31:40.23	0.64	12.60	-25.8	-27.3	16.1	1.74e-04	0	42	0	473956352	11	4326
2026-01-29 04:31:41.23	0.50	12.67	-25.7	-27.2	16.2	1.50e-04	0	42	0	479199232	11	4288
2026-01-29 04:31:42.24	0.35	12.73	-25.8	-27.4	16.1	0.00e+00	0	42	0	484442112	11	4344
2026-01-29 04:31:43.24	0.21	12.80	-25.7	-27.1	16.2	1.20e-04	0	42	0	490733568	11	4269
2026-01-29 04:31:44.25	0.07	12.87	-25.7	-27.1	16.3	0.00e+00	0	42	0	495976448	11	4268
2026-01-29 04:31:45.25	359.92	12.93	-25.7	-27.2	16.2	0.00e+00	0	42	0	502267904	11	4296
2026-01-29 04:31:46.26	359.78	13.00	-25.8	-27.4	16.1	0.00e+00	0	42	0	507510784	11	4342
2026-01-29 04:31:47.26	359.63	13.07	-25.9	-27.7	15.9	2.05e-05	0	42	0	513802240	11	4416
2026-01-29 04:31:48.25	359.49	13.13	-25.9	-27.2	15.8	0.00e+00	0	42	0	519045120	12	4192
2026-01-29 04:31:49.26	359.34	13.20	-25.9	-27.2	15.9	1.10e-06	0	42	0	524288000	12	4169
2026-01-29 04:31:50.26	359.19	13.27	-26.0	-27.4	15.7	1.51e-04	0	42	0	530579456	12	4226
2026-01-29 04:31:51.26	359.05	13.34	-26.0	-27.5	15.7	0.00e+00	0	42	0	535822336	12	4258
2026-01-29 04:31:52.27	358.90	13.40	-25.8	-27.0	15.9	1.57e-04	0	42	0	541065216	12	4154
2026-01-29 04:31:53.27	358.75	13.47	-25.9	-27.6	14.0	0.00e+00	0	42	0	547356672	11	4387
2026-01-29 04:31:54.27	358.60	13.54	-25.9	-27.6	13.3	0.00e+00	0	42	0	552599552	11	4405
2026-01-29 04:31:55.28	358.45	13.61	-25.9	-27.7	15.9	0.00e+00	0	42	0	557842432	11	4413
2026-01-29 04:31:56.28	358.29	13.67	-26.0	-27.4	15.7	0.00e+00	0	42	0	564133888	12	4227
2026-01-29 04:31:57.28	358.14	13.74	-26.1	-27.5	15.7	0.00e+00	0	42	0	569376768	12	4267
2026-01-29 04:31:58.29	357.99	13.81	-25.9	-27.1	15.9	0.00e+00	0	42	0	575668224	12	4147
2026-01-29 04:31:59.29	357.83	13.87	-25.8	-27.3	16.2	0.00e+00	0	42	0	580911104	11	4320
2026-01-29 04:32:00.29	357.68	13.94	-25.6	-27.1	16.3	7.55e-04	0	42	0	586153984	11	4246
2026-01-29 04:32:01.30	357.52	14.01	-25.6	-27.0	16.4	0.00e+00	0	42	0	592445440	11	4219
2026-01-29 04:32:02.31	357.37	14.07	-25.6	-27.0	16.3	9.06e-04	0	42	0	597688320	11	4235
2026-01-29 04:32:03.31	357.21	14.14	-25.6	-27.0	16.4	0.00e+00	0	42	0	603979776	11	4219
2026-01-29 04:32:04.32	357.05	14.21	-25.4	-26.6	16.6	0.00e+00	0	42	0	609222656	11	4113
2026-01-29 04:32:05.32	356.90	14.28	-25.4	-27.0	16.6	0.00e+00	0	42	0	614465536	10	4338
2026-01-29 04:32:06.32	356.74	14.34	-25.4	-27.1	16.6	0.00e+00	0	42	0	620756992	10	4364
2026-01-29 04:32:07.32	356.58	14.41	-25.4	-27.0	16.6	0.00e+00	0	42	0	625999872	10	4348
2026-01-29 04:32:08.32	356.42	14.47	-25.5	-26.7	16.5	0.00e+00	0	42	0	631242752	11	4149
2026-01-29 04:32:09.32	356.26	14.54	-25.4	-26.5	16.6	7.98e-04	0	42	0	637534208	11	4108
2026-01-29 04:32:10.32	356.10	14.61	-25.4	-27.1	16.6	0.00e+00	0	42	0	642777088	10	4364
2026-01-29 04:32:11.32	355.93	14.67	-25.5	-27.2	16.5	7.44e-04	0	42	0	649068544	10	4405
2026-01-29 04:32:12.32	355.77	14.74	-25.5	-27.2	16.6	7.82e-04	0	42	0	654311424	10	4401
2026-01-29 04:32:13.33	355.61	14.81	-25.5	-26.8	16.5	0.00e+00	0	42	0	659554304	11	4187
2026-01-29 04:32:14.33	355.44	14.87	-25.6	-27.0	16.4	7.84e-04	0	42	0	665845760	11	4217
2026-01-29 04:32:15.33	355.28	14.94	-25.6	-27.0	16.4	0.00e+00	0	42	0	671088640	11	4216
2026-01-29 04:32:16.33	355.11	15.01	-25.6	-27.0	16.3	0.00e+00	0	42	0	676331520	11	4240
2026-01-29 04:32:17.33	354.94	15.07	-25.4	-27.1	16.6	6.04e-04	0	42	0	682622976	10	4359
2026-01-29 04:32:18.33	354.78	15.14	-25.3	-27.0	16.7	5.95e-04	0	42	0	687865856	10	4329
2026-01-29 04:32:19.34	354.61	15.20	-25.4	-27.1	16.6	0.00e+00	0	42	0	693108736	10	4369
2026-01-29 04:32:20.35	354.44	15.27	-25.6	-27.1	16.4	5.09e-04	0	42	0	699400192	11	4243
2026-01-29 04:32:21.35	354.27	15.34	-25.7	-27.2	16.2	4.31e-04	0	42	0	704643072	11	4296
2026-01-29 04:32:22.35	354.10	15.40	-25.6	-27.0	16.4	0.00e+00	0	42	0	710934528	11	4228
2026-01-29 04:32:23.35	353.93	15.47	-25.6	-27.0	16.4	3.82e-04	0	42	0	716177408	11	4238
2026-01-29 04:32:24.35	353.75	15.53	-25.7	-27.3	16.2	4.24e-04	0	42	0	722468864	11	4302
2026-01-29 04:32:25.36	353.58	15.60	-25.7	-27.2	16.3	0.00e+00	0	42	0	727711744	11	4294
2026-01-29 04:32:26.37	353.41	15.66	-25.7	-27.3	16.2	3.84e-04	0	42	0	732954624	11	4317
2026-01-29 04:32:27.36	353.23	15.73	-25.6	-27.0	16.4	3.40e-04	0	42	0	739246080	11	4234
2026-01-29 04:32:28.37	353.06	15.79	-25.5	-26.9	16.5	0.00e+00	0	42	0	744488960	11	4190
2026-01-29 04:32:29.37	352.88	15.86	-25.5	-26.8	16.5	0.00e+00	0	42	0	749731840	11	4187
2026-01-29 04:32:30.37	352.70	15.92	-25.5	-26.7	16.6	3.82e-04	0	42	0	756023296	11	4153
2026-01-29 04:32:31.38	352.52	15.99	-25.3	-26.2	16.8	0.00e+00	0	43	0	761266176	11	4028
2026-01-29 04:32:32.39	352.34	16.06	-25.1	-26.5	17.0	3.52e-04	0	42	0	766509056	10	4197
2026-01-29 04:32:33.40	352.16	16.12	-25.2	-26.7	16.9	3.67e-04	0	42	0	772800512	10	4251
2026-01-29 04:32:34.40	351.98	16.19	-25.2	-26.7	16.9	0.00e+00	0	42	0	778043392	10	4260
2026-01-29 04:32:35.41	351.80	16.25	-25.1	-26.4	17.0	3.03e-04	0	42	0	784334848	10	4178
2026-01-29 04:32:36.41	351.62	16.31	-25.1	-26.4	17.0	0.00e+00	0	42	0	789577728	10	4186
2026-01-29 04:32:37.42	351.44	16.38	-25.1	-26.5	17.0	0.00e+00	0	42	0	795869184	10	4196
2026-01-29 04:32:38.43	351.25	16.44	-25.2	-26.5	17.0	0.00e+00	0	42	0	801112064	10	4211
2026-01-29 04:32:39.43	351.07	16.51	-25.1	-26.5	17.0	0.00e+00	0	42	0	806354944	10	4197
2026-01-29 04:32:40.43	350.88	16.57	-25.2	-26.5	17.0	0.00e+00	0	42	0	812646400	10	4220
2026-01-29 04:32:41.44	350.70	16.64	-25.1	-26.5	17.0	0.00e+00	0	42	0	817889280	10	4197
2026-01-29 04:32:42.45	350.51	16.70	-24.4	-25.5	17.2	4.60e-04	0	42	0	823132160	10	4104
2026-01-29 04:32:43.45	350.32	16.76	-24.9	-25.9	16.2	0.00e+00	0	42	0	829423616	10	4052
2026-01-29 04:32:44.45	350.14	16.83	-24.9	-26.0	17.3	7.24e-04	0	42	0	834666496	10	4076
2026-01-29 04:32:45.46	349.94	16.89	-25.0	-26.1	17.2	0.00e+00	0	42	0	840957952	10	4109
2026-01-29 04:32:46.46	349.76	16.95	-24.9	-26.1	17.2	0.00e+00	0	42	0	846200832	10	4097
2026-01-29 04:32:47.46	349.57	17.01	-25.0	-26.2	17.2	0.00e+00	0	42	0	851443712	10	4123
2026-01-29 04:32:48.46	349.37	17.08	-24.9	-26.4	17.3	0.00e+00	0	42	0	857735168	9	4311
2026-01-29 04:32:49.47	349.18	17.14	-24.9	-26.5	17.3	2.35e-04	0	42	0	862978048	9	4327
2026-01-29 04:32:50.48	348.99	17.20	-25.0	-26.6	17.2	0.00e+00	0	42	0	869269504	9	4343
2026-01-29 04:32:51.48	348.79	17.26	-25.1	-26.4	17.1	0.00e+00	0	42	0	874512384	10	4195
2026-01-29 04:32:52.49	348.60	17.33	-25.2	-26.5	17.0	2.36e-04	0	42	0	879755264	10	4202
2026-01-29 04:32:53.49	348.40	17.39	-25.0	-26.3	17.2	0.00e+00	0	42	0	886046720	10	4144
2026-01-29 04:32:54.49	348.21	17.45	-25.0	-26.2	17.2	1.41e-04	0	42	0	891289600	10	4131
2026-01-29 04:32:55.50	348.01	17.51	-25.0	-26.2	17.2	0.00e+00	0	42	0	897581056	10	4126
2026-01-29 04:32:56.50	347.81	17.57	-24.9	-26.0	17.3	0.00e+00	0	42	0	902823936	10	4073
2026-01-29 04:32:57.50	347.61	17.63	-25.0	-26.2	17.2	8.23e-05	0	42	0	908066816	10	4114
2026-01-29 04:32:58.50	347.41	17.69	-25.0	-26.2	17.2	8.58e-05	0	42	0	914358272	10	4133
2026-01-29 04:32:59.50	347.21	17.75	-24.9	-26.0	17.3	0.00e+00	0	42	0	919601152	10	4072
2026-01-29 04:33:00.50	347.01	17.81	-24.9	-25.9	17.3	0.00e+00	0	42	0	924844032	10	4059
2026-01-29 04:33:01.51	346.81	17.88	-24.9	-26.0	17.3	6.06e-05	0	42	0	931135488	10	4070
2026-01-29 04:33:02.51	346.61	17.94	-24.9	-26.0	17.3	0.00e+00	0	42	0	936378368	10	4076
2026-01-29 04:33:03.50	346.41	17.99	-24.8	-25.7	17.4	6.63e-05	0	42	0	942669824	10	4018
2026-01-29 04:33:04.50	346.20	18.05	-24.8	-25.7	17.5	3.31e-05	0	42	0	947912704	10	3996
2026-01-29 04:33:05.51	346.00	18.11	-24.6	-25.4	17.6	0.00e+00	0	43	0	953155584	10	3922
2026-01-29 04:33:06.51	345.79	18.17	-24.4	-25.4	17.9	2.20e-06	0	42	0	959447040	9	4026
2026-01-29 04:33:07.51	345.58	18.23	-24.3	-25.2	18.0	0.00e+00	0	42	0	964689920	9	3990
2026-01-29 04:33:08.52	345.38	18.29	-24.3	-25.2	18.0	0.00e+00	0	42	0	969932800	9	3981
2026-01-29 04:33:09.52	345.17	18.35	-24.3	-25.7	17.9	0.00e+00	0	42	0	976224256	8	4233
2026-01-29 04:33:10.53	344.96	18.41	-24.4	-26.0	17.8	1.10e-06	0	42	0	981467136	8	4293
2026-01-29 04:33:11.53	344.75	18.46	-24.5	-25.6	17.8	0.00e+00	0	43	0	987758592	9	4093
2026-01-29 04:33:12.54	344.53	18.52	-24.6	-25.8	17.7	0.00e+00	0	42	0	993001472	9	4138
2026-01-29 04:33:13.54	344.32	18.58	-24.6	-25.9	17.6	0.00e+00	0	42	0	998244352	9	4171
2026-01-29 04:33:14.54	344.11	18.63	-24.6	-25.9	17.6	0.00e+00	0	42	0	1004535808	9	4164
2026-01-29 04:33:15.55	343.90	18.69	-24.6	-25.8	17.6	4.50e-06	0	42	0	1009778688	9	4150
2026-01-29 04:33:16.56	343.68	18.75	-24.6	-25.8	17.6	0.00e+00	0	42	0	1016070144	9	4149
2026-01-29 04:33:17.56	343.47	18.80	-24.6	-25.8	17.7	0.00e+00	0	42	0	1021313024	9	4131
2026-01-29 04:33:18.56	343.25	18.86	-24.6	-25.8	17.7	0.00e+00	0	42	0	1026555904	9	4144
2026-01-29 04:33:19.57	343.03	18.92	-24.5	-25.7	17.7	0.00e+00	0	43	0	1032847360	9	4107
2026-01-29 04:33:20.57	342.82	18.97	-24.5	-25.5	17.8	0.00e+00	0	42	0	1038090240	9	4067
2026-01-29 04:33:21.57	342.60	19.03	-24.4	-25.4	17.9	0.00e+00	0	42	0	1043333120	9	4052
2026-01-29 04:33:22.58	342.38	19.08	-24.3	-25.3	17.9	0.00e+00	0	42	0	1049624576	9	4008
2026-01-29 04:33:23.58	342.16	19.13	-24.2	-24.9	18.1	0.00e+00	0	42	0	1054867456	9	3918
2026-01-29 04:33:24.58	341.94	19.19	-24.1	-25.4	18.2	0.00e+00	0	43	0	1061158912	8	4142
2026-01-29 04:33:25.58	341.72	19.24	-24.1	-25.2	18.2	0.00e+00	0	42	0	1066401792	8	4104
2026-01-29 04:33:26.58	341.50	19.29	-24.1	-25.2	18.2	0.00e+00	0	42	0	1071644672	8	4112
2026-01-29 04:33:27.59	341.27	19.35	-24.2	-25.4	18.1	0.00e+00	0	42	0	1077936128	8	4151
2026-01-29 04:33:28.59	341.05	19.40	-24.2	-25.5	18.1	0.00e+00	0	42	0	1083179008	8	4172
2026-01-29 04:33:29.60	340.82	19.45	-24.2	-25.4	18.2	0.00e+00	0	42	0	1088421888	8	4151
2026-01-29 04:33:30.60	340.60	19.50	-24.1	-25.3	18.2	0.00e+00	0	42	0	1094713344	8	4129
2026-01-29 04:33:31.60	340.37	19.56	-23.7	-24.7	15.2	0.00e+00	0	43	0	1099956224	8	4048
2026-01-29 04:33:32.60	340.15	19.61	-24.0	-25.1	13.5	0.00e+00	0	42	0	1105199104	8	4086
2026-01-29 04:33:33.61	339.92	19.66	-24.0	-25.1	18.3	0.00e+00	0	42	0	1111490560	8	4084
2026-01-29 04:33:34.61	339.69	19.71	-24.0	-25.1	18.4	1.27e-03	0	42	0	1116733440	8	4070
2026-01-29 04:33:35.60	339.46	19.76	-23.9	-24.9	18.5	0.00e+00	0	42	0	1123024896	8	4016
2026-01-29 04:33:36.61	339.23	19.81	-23.9	-24.9	18.4	0.00e+00	0	42	0	1128267776	8	4032
2026-01-29 04:33:37.61	339.00	19.86	-23.8	-24.6	18.6	0.00e+00	0	42	0	1134559232	8	3960
2026-01-29 04:33:38.61	338.77	19.90	-23.6	-24.8	18.7	0.00e+00	0	43	0	1139802112	7	4098
2026-01-29 04:33:39.62	338.54	19.95	-23.6	-24.7	18.8	0.00e+00	0	43	0	1145044992	7	4076
2026-01-29 04:33:40.61	338.31	20.00	-23.6	-24.8	18.7	0.00e+00	0	42	0	1151336448	7	4111
2026-01-29 04:33:41.62	338.07	20.05	-23.7	-24.9	18.6	1.20e-03	0	42	0	1156579328	7	4141
2026-01-29 04:33:42.63	337.84	20.10	-23.8	-25.0	18.6	0.00e+00	0	42	0	1161822208	7	4170
2026-01-29 04:33:43.63	337.60	20.14	-23.7	-24.9	18.6	1.20e-03	0	43	0	1168113664	7	4132
2026-01-29 04:33:44.64	337.37	20.19	-23.6	-24.8	18.7	1.14e-03	0	42	0	1173356544	7	4104
2026-01-29 04:33:45.65	337.13	20.24	-23.7	-24.9	18.7	0.00e+00	0	42	0	1178599424	7	4145
2026-01-29 04:33:46.65	336.89	20.28	-23.7	-24.9	18.6	1.11e-03	0	42	0	1184890880	7	4136
2026-01-29 04:33:47.65	336.65	20.33	-23.8	-25.1	18.6	0.00e+00	0	42	0	1190133760	7	4185
2026-01-29 04:33:48.65	336.42	20.37	-23.8	-25.2	18.5	0.00e+00	0	42	0	1196425216	7	4209
2026-01-29 04:33:49.65	336.18	20.41	-23.9	-25.3	18.5	1.06e-03	0	43	0	1201668096	7	4232
2026-01-29 04:33:50.65	335.94	20.46	-23.9	-25.3	18.5	1.16e-03	0	43	0	1206910976	7	4231
2026-01-29 04:33:51.66	335.70	20.50	-23.9	-25.4	18.4	0.00e+00	0	43	0	1213202432	7	4274
2026-01-29 04:33:52.66	335.45	20.54	-23.8	-25.1	18.6	1.12e-03	0	42	0	1218445312	7	4181
2026-01-29 04:33:53.66	335.21	20.59	-23.6	-24.8	18.7	1.09e-03	0	42	0	1224736768	7	4114
2026-01-29 04:33:54.67	334.97	20.63	-23.6	-24.7	18.8	0.00e+00	0	42	0	1229979648	7	4093
2026-01-29 04:33:55.67	334.73	20.67	-23.7	-24.9	18.7	1.11e-03	0	42	0	1235222528	7	4140
2026-01-29 04:33:56.68	334.48	20.71	-23.8	-25.1	18.6	1.02e-03	0	43	0	1241513984	7	4176
2026-01-29 04:33:57.69	334.23	20.75	-23.8	-25.1	18.6	0.00e+00	0	42	0	1246756864	7	4180
2026-01-29 04:33:58.70	333.99	20.79	-23.7	-25.0	18.6	1.05e-03	0	42	0	1251999744	7	4152
2026-01-29 04:33:59.70	333.74	20.83	-23.8	-25.1	18.6	1.14e-03	0	42	0	1258291200	7	4191
2026-01-29 04:34:00.70	333.50	20.87	-23.9	-25.3	18.4	0.00e+00	0	43	0	1263534080	7	4249
2026-01-29 04:34:01.71	333.25	20.91	-23.9	-25.3	18.5	0.00e+00	0	43	0	1269825536	7	4246
2026-01-29 04:34:02.71	333.00	20.95	-23.8	-25.2	18.5	9.03e-04	0	42	0	1275068416	7	4225
2026-01-29 04:34:03.71	332.75	20.98	-23.8	-25.2	18.5	0.00e+00	0	43	0	1281359872	7	4214
2026-01-29 04:34:04.71	332.50	21.02	-23.8	-25.2	18.5	8.38e-04	0	43	0	1286602752	7	4215
2026-01-29 04:34:05.72	332.25	21.06	-24.1	-25.2	18.3	7.83e-04	0	42	0	1291845632	8	4090
2026-01-29 04:34:06.73	332.00	21.09	-24.2	-25.5	18.2	0.00e+00	0	42	0	1298137088	8	4179
2026-01-29 04:34:07.73	331.75	21.13	-24.0	-25.1	18.3	9.06e-04	0	43	0	1303379968	8	4086
2026-01-29 04:34:08.74	331.50	21.16	-23.8	-24.7	18.6	0.00e+00	0	42	0	1308622848	8	3967
2026-01-29 04:34:09.74	331.24	21.20	-23.7	-24.5	18.7	0.00e+00	0	42	0	1314914304	8	3923
2026-01-29 04:34:10.75	330.99	21.23	-23.7	-25.0	18.7	0.00e+00	0	42	0	1320157184	7	4157
2026-01-29 04:34:11.75	330.74	21.26	-23.7	-24.9	18.7	0.00e+00	0	42	0	1326448640	7	4147
2026-01-29 04:34:12.76	330.48	21.30	-24.0	-25.5	18.4	6.08e-04	0	42	0	1331691520	7	4281
2026-01-29 04:34:13.76	330.23	21.33	-23.8	-24.6	18.6	0.00e+00	0	43	0	1336934400	8	3959
2026-01-29 04:34:14.77	329.97	21.36	-23.5	-24.5	18.9	7.68e-04	0	43	0	1343225856	7	4028
2026-01-29 04:34:15.77	329.72	21.39	-23.3	-24.1	19.1	0.00e+00	0	43	0	1348468736	7	3937
2026-01-29 04:34:16.77	329.46	21.42	-23.3	-24.0	19.2	0.00e+00	0	43	0	1354760192	7	3922
2026-01-29 04:34:17.78	329.20	21.45	-23.3	-24.5	19.2	6.28e-04	0	42	0	1360003072	6	4154
2026-01-29 04:34:18.78	328.95	21.48	-23.3	-24.5	19.2	0.00e+00	0	42	0	1365245952	6	4158
2026-01-29 04:34:19.78	328.69	21.51	-23.3	-24.5	19.2	0.00e+00	0	42	0	1371537408	6	4158
2026-01-29 04:34:20.79	328.43	21.54	-23.4	-24.7	19.1	0.00e+00	0	42	0	1376780288	6	4200
2026-01-29 04:34:21.79	328.17	21.57	-23.3	-24.7	19.1	0.00e+00	0	42	0	1382023168	6	4188
2026-01-29 04:34:22.79	327.92	21.59	-23.4	-24.8	19.0	0.00e+00	0	42	0	1388314624	6	4226
2026-01-29 04:34:23.80	327.65	21.62	-23.4	-24.7	19.1	0.00e+00	0	42	0	1393557504	6	4204
2026-01-29 04:34:24.80	327.40	21.64	-23.4	-24.8	19.0	2.54e-04	0	42	0	1398800384	6	4221
2026-01-29 04:34:25.80	327.14	21.67	-23.5	-24.5	18.9	0.00e+00	0	42	0	1405091840	7	4032
2026-01-29 04:34:26.81	326.87	21.69	-23.7	-25.0	18.7	2.85e-04	0	42	0	1410334720	7	4158
2026-01-29 04:34:27.82	326.61	21.72	-23.6	-24.7	18.8	2.35e-04	0	42	0	1416626176	7	4083
2026-01-29 04:34:28.82	326.35	21.74	-23.5	-24.4	19.0	0.00e+00	0	42	0	1421869056	7	4017
2026-01-29 04:34:29.82	326.09	21.76	-23.5	-24.5	18.9	2.73e-04	0	42	0	1428160512	7	4029
2026-01-29 04:34:30.83	325.82	21.79	-23.6	-24.7	18.8	2.55e-04	0	43	0	1433403392	7	4075
2026-01-29 04:34:31.83	325.56	21.81	-23.6	-24.8	18.8	0.00e+00	0	42	0	1438646272	7	4107
2026-01-29 04:34:32.84	325.30	21.83	-23.7	-24.9	18.7	0.00e+00	0	42	0	1444937728	7	4127
2026-01-29 04:34:33.85	325.03	21.85	-23.5	-24.5	18.9	2.40e-04	0	42	0	1450180608	7	4046
2026-01-29 04:34:34.85	324.77	21.87	-23.5	-24.4	18.9	0.00e+00	0	42	0	1455423488	7	4020
2026-01-29 04:34:35.85	324.51	21.89	-23.5	-24.4	19.0	0.00e+00	0	42	0	1461714944	7	4021
2026-01-29 04:34:36.85	324.24	21.90	-23.3	-24.0	19.2	0.00e+00	0	42	0	1466957824	7	3906
2026-01-29 04:34:37.86	323.98	21.92	-23.3	-24.1	19.1	0.00e+00	0	43	0	1473249280	7	3939
2026-01-29 04:34:38.86	323.71	21.94	-23.6	-24.6	18.8	0.00e+00	0	42	0	1478492160	7	4061
2026-01-29 04:34:39.87	323.45	21.96	-23.5	-24.5	18.9	0.00e+00	0	43	0	1483735040	7	4033
2026-01-29 04:34:40.87	323.18	21.97	-23.4	-24.2	19.0	0.00e+00	0	42	0	1490026496	7	3958
2026-01-29 04:34:41.88	322.91	21.99	-23.4	-24.3	19.0	0.00e+00	0	42	0	1495269376	7	3986
2026-01-29 04:34:42.88	322.65	22.00	-23.4	-24.4	19.0	0.00e+00	0	42	0	1501560832	7	4010
2026-01-29 04:34:43.88	322.38	22.01	-23.6	-24.7	18.8	0.00e+00	0	43	0	1506803712	7	4097
2026-01-29 04:34:44.89	322.11	22.03	-23.4	-24.2	19.0	0.00e+00	0	42	0	1512046592	7	3973
2026-01-29 04:34:45.90	321.85	22.04	-23.3	-24.0	19.2	1.27e-04	0	43	0	1518338048	7	3912
2026-01-29 04:34:46.90	321.58	22.05	-23.2	-23.9	19.2	0.00e+00	0	42	0	1523580928	7	3882
2026-01-29 04:34:47.90	321.31	22.06	-23.2	-24.4	19.2	2.48e-04	0	42	0	1528823808	6	4136
2026-01-29 04:34:48.90	321.05	22.07	-23.1	-24.2	19.3	0.00e+00	0	43	0	1535115264	6	4071
2026-01-29 04:34:49.91	320.78	22.08	-23.1	-24.1	19.4	0.00e+00	0	43	0	1540358144	6	4044
2026-01-29 04:34:50.91	320.51	22.09	-23.2	-24.3	19.3	0.00e+00	0	42	0	1546649600	6	4090
2026-01-29 04:34:51.91	320.24	22.10	-23.1	-24.2	19.3	0.00e+00	0	43	0	1551892480	6	4066
2026-01-29 04:34:52.92	319.97	22.11	-23.3	-24.5	19.2	0.00e+00	0	42	0	1557135360	6	4141
2026-01-29 04:34:53.93	319.70	22.11	-23.2	-24.4	19.2	0.00e+00	0	42	0	1563426816	6	4131
2026-01-29 04:34:54.93	319.44	22.12	-23.4	-24.7	19.1	0.00e+00	0	42	0	1568669696	6	4188
2026-01-29 04:34:55.94	319.17	22.13	-23.3	-24.6	19.1	0.00e+00	0	43	0	1574961152	6	4176
2026-01-29 04:34:56.94	318.90	22.13	-23.4	-24.8	19.0	0.00e+00	0	43	0	1580204032	6	4235
2026-01-29 04:34:57.94	318.63	22.14	-23.4	-24.8	19.0	0.00e+00	0	42	0	1585446912	6	4222
2026-01-29 04:34:58.94	318.36	22.14	-23.4	-24.8	19.0	0.00e+00	0	42	0	1591738368	6	4233
2026-01-29 04:34:59.94	318.10	22.14	-23.4	-24.8	19.0	7.19e-04	0	42	0	1596981248	6	4228
2026-01-29 04:35:00.94	317.83	22.15	-23.5	-24.9	19.0	0.00e+00	0	43	0	1602224128	6	4248
2026-01-29 04:35:01.95	317.56	22.15	-22.9	-23.9	19.2	0.00e+00	0	42	0	1608515584	6	4034
2026-01-29 04:35:02.95	317.29	22.15	-23.0	-24.0	18.9	0.00e+00	0	42	0	1613758464	6	4022
2026-01-29 04:35:03.95	317.02	22.15	-23.1	-24.1	14.9	0.00e+00	0	43	0	1619001344	6	4039
2026-01-29 04:35:04.96	316.75	22.15	-23.0	-23.9	19.5	0.00e+00	0	42	0	1625292800	6	4006
2026-01-29 04:35:05.96	316.48	22.15	-23.0	-24.0	19.4	0.00e+00	0	42	0	1630535680	6	4029
2026-01-29 04:35:06.96	316.22	22.15	-23.1	-24.1	19.4	9.20e-04	0	42	0	1636827136	6	4046
2026-01-29 04:35:07.97	315.94	22.14	-23.2	-24.3	19.3	0.00e+00	0	42	0	1642070016	6	4086
2026-01-29 04:35:08.98	315.67	22.14	-23.1	-24.2	19.3	1.10e-06	0	42	0	1648361472	6	4086
2026-01-29 04:35:09.98	315.41	22.14	-23.2	-24.4	19.2	0.00e+00	0	43	0	1653604352	6	4128
2026-01-29 04:35:10.99	315.14	22.13	-23.2	-24.3	19.3	0.00e+00	0	42	0	1658847232	6	4102
2026-01-29 04:35:11.98	314.87	22.13	-23.2	-24.4	19.2	0.00e+00	0	42	0	1665138688	6	4111
2026-01-29 04:35:12.99	314.60	22.12	-23.3	-24.6	19.1	0.00e+00	0	43	0	1670381568	6	4176
2026-01-29 04:35:14.00	314.33	22.11	-23.3	-24.5	19.1	1.09e-03	0	43	0	1675624448	6	4158
2026-01-29 04:35:15.00	314.06	22.11	-23.5	-24.9	19.0	0.00e+00	0	43	0	1681915904	6	4257
2026-01-29 04:35:16.00	313.80	22.10	-23.4	-24.7	19.0	1.15e-03	0	42	0	1687158784	6	4205
2026-01-29 04:35:17.00	313.53	22.09	-23.4	-24.7	19.1	2.13e-04	0	43	0	1692401664	6	4200
2026-01-29 04:35:18.00	313.26	22.08	-23.4	-24.9	19.0	0.00e+00	0	42	0	1698693120	6	4240
2026-01-29 04:35:19.01	312.99	22.07	-23.5	-24.9	18.9	9.65e-04	0	42	0	1703936000	6	4258
2026-01-29 04:35:20.00	312.73	22.06	-23.7	-24.8	18.7	0.00e+00	0	42	0	1710227456	7	4119
2026-01-29 04:35:21.01	312.46	22.05	-24.0	-25.5	18.4	0.00e+00	0	43	0	1715470336	7	4275
2026-01-29 04:35:22.02	312.19	22.04	-23.7	-24.9	18.7	0.00e+00	0	42	0	1721761792	7	4135
2026-01-29 04:35:23.02	311.92	22.03	-23.4	-24.3	19.0	7.97e-04	0	43	0	1727004672	7	3997
2026-01-29 04:35:24.03	311.66	22.01	-23.2	-24.0	19.2	0.00e+00	0	42	0	1732247552	7	3910
2026-01-29 04:35:25.04	311.39	22.00	-23.2	-24.3	19.3	1.09e-03	0	42	0	1738539008	6	4086
2026-01-29 04:35:26.04	311.12	21.99	-23.1	-24.1	19.4	1.02e-03	0	43	0	1743781888	6	4047
2026-01-29 04:35:27.04	310.86	21.97	-23.3	-24.6	19.1	0.00e+00	0	43	0	1749024768	6	4182
2026-01-29 04:35:28.04	310.59	21.96	-23.3	-24.5	19.2	1.05e-03	0	42	0	1755316224	6	4142
2026-01-29 04:35:29.05	310.32	21.94	-23.2	-24.3	19.3	1.05e-03	0	42	0	1760559104	6	4103
2026-01-29 04:35:30.05	310.06	21.92	-23.1	-24.2	19.3	0.00e+00	0	43	0	1765801984	6	4071
2026-01-29 04:35:31.05	309.80	21.91	-23.2	-24.4	19.2	1.02e-03	0	43	0	1772093440	6	4125
2026-01-29 04:35:32.05	309.53	21.89	-23.1	-24.2	19.3	1.03e-03	0	42	0	1777336320	6	4081
2026-01-29 04:35:33.06	309.27	21.87	-23.2	-24.5	19.2	0.00e+00	0	43	0	1783627776	6	4140
2026-01-29 04:35:34.07	309.00	21.85	-23.3	-24.5	19.1	9.09e-04	0	43	0	1788870656	6	4162
2026-01-29 04:35:35.07	308.74	21.83	-23.3	-24.7	19.1	7.33e-04	0	42	0	1795162112	6	4189
2026-01-29 04:35:36.07	308.48	21.81	-23.3	-24.5	19.2	0.00e+00	0	42	0	1800404992	6	4143
2026-01-29 04:35:37.07	308.21	21.79	-23.2	-24.4	19.2	4.21e-04	0	42	0	1805647872	6	4129
2026-01-29 04:35:38.08	307.95	21.76	-23.2	-24.3	19.3	5.89e-04	0	43	0	1811939328	6	4086
2026-01-29 04:35:39.08	307.69	21.74	-23.1	-24.2	19.3	0.00e+00	0	43	0	1817182208	6	4087
2026-01-29 04:35:40.09	307.42	21.72	-23.2	-24.5	19.2	8.22e-04	0	43	0	1822425088	6	4139
2026-01-29 04:35:41.09	307.16	21.70	-23.1	-24.2	19.3	0.00e+00	0	43	0	1828716544	6	4065
2026-01-29 04:35:42.09	306.90	21.67	-23.1	-24.1	19.4	0.00e+00	0	42	0	1833959424	6	4049
2026-01-29 04:35:43.10	306.64	21.65	-23.2	-24.2	19.3	0.00e+00	0	42	0	1839202304	6	4085
2026-01-29 04:35:44.09	306.38	21.62	-23.0	-24.1	19.3	5.72e-04	0	43	0	1845493760	6	4042
2026-01-29 04:35:45.10	306.12	21.59	-23.1	-24.1	19.4	0.00e+00	0	43	0	1850736640	6	4044
2026-01-29 04:35:46.10	305.86	21.57	-23.2	-24.3	19.2	0.00e+00	0	42	0	1857028096	6	4091
2026-01-29 04:35:47.11	305.60	21.54	-23.1	-24.1	19.3	0.00e+00	0	43	0	1862270976	6	4057
2026-01-29 04:35:48.11	305.35	21.51	-23.2	-24.4	19.2	0.00e+00	0	43	0	1868562432	6	4125
2026-01-29 04:35:49.11	305.09	21.48	-23.4	-24.8	19.0	1.92e-04	0	43	0	1873805312	6	4231
2026-01-29 04:35:50.11	304.83	21.45	-23.3	-24.5	19.1	0.00e+00	0	42	0	1879048192	6	4150
2026-01-29 04:35:51.12	304.57	21.42	-23.2	-24.4	19.2	0.00e+00	0	43	0	1885339648	6	4132
2026-01-29 04:35:52.12	304.32	21.39	-23.2	-24.4	19.2	0.00e+00	0	42	0	1890582528	6	4130
2026-01-29 04:35:53.12	304.06	21.36	-23.2	-24.3	19.3	0.00e+00	0	43	0	1895825408	6	4090
2026-01-29 04:35:54.12	303.81	21.33	-23.2	-24.3	19.2	1.48e-05	0	43	0	1902116864	6	4101
2026-01-29 04:35:55.13	303.55	21.30	-23.2	-24.4	19.2	0.00e+00	0	42	0	1907359744	6	4131
2026-01-29 04:35:56.14	303.30	21.27	-23.2	-24.3	19.2	3.87e-04	0	42	0	1912602624	6	4104
2026-01-29 04:35:57.15	303.04	21.23	-23.2	-24.3	19.2	0.00e+00	0	42	0	1918894080	6	4109
2026-01-29 04:35:58.15	302.79	21.20	-23.2	-24.4	19.2	0.00e+00	0	43	0	1924136960	6	4115
2026-01-29 04:35:59.15	302.54	21.17	-23.0	-24.0	19.4	0.00e+00	0	43	0	1930428416	6	4025
2026-01-29 04:36:00.15	302.29	21.13	-23.1	-24.1	19.3	0.00e+00	0	43	0	1935671296	6	4051
2026-01-29 04:36:01.15	302.03	21.10	-23.3	-24.6	19.1	0.00e+00	0	43	0	1940914176	6	4165
2026-01-29 04:36:02.15	301.78	21.06	-23.3	-24.5	19.1	0.00e+00	0	42	0	1947205632	6	4161
2026-01-29 04:36:03.15	301.53	21.02	-23.5	-24.6	18.8	0.00e+00	0	42	0	1952448512	7	4066
2026-01-29 04:36:04.15	301.29	20.99	-23.5	-24.4	18.9	0.00e+00	0	42	0	1958739968	7	4017
2026-01-29 04:36:05.15	301.04	20.95	-23.4	-24.2	19.0	0.00e+00	0	42	0	1963982848	7	3965
2026-01-29 04:36:06.16	300.79	20.91	-23.4	-24.2	19.0	0.00e+00	0	43	0	1969225728	7	3967
2026-01-29 04:36:07.16	300.54	20.87	-23.3	-24.1	19.1	0.00e+00	0	43	0	1975517184	7	3927
2026-01-29 04:36:08.17	300.29	20.83	-23.3	-24.6	19.0	2.83e-04	0	42	0	1980760064	6	4177
2026-01-29 04:36:09.17	300.05	20.79	-23.5	-24.9	18.9	5.70e-04	0	43	0	1987051520	6	4252
2026-01-29 04:36:10.17	299.80	20.75	-23.6	-24.6	18.8	0.00e+00	0	43	0	1992294400	7	4065
2026-01-29 04:36:11.17	299.56	20.71	-23.6	-24.8	18.7	6.33e-04	0	43	0	1997537280	7	4116
2026-01-29 04:36:12.17	299.31	20.67	-23.7	-25.0	18.6	0.00e+00	0	43	0	2003828736	7	4151
2026-01-29 04:36:13.17	299.07	20.63	-23.6	-24.7	18.7	0.00e+00	0	43	0	2009071616	7	4092
2026-01-29 04:36:14.17	298.83	20.59	-23.5	-24.4	18.9	1.91e-04	0	43	0	2014314496	7	4021
2026-01-29 04:36:15.18	298.58	20.55	-23.5	-24.5	18.9	0.00e+00	0	43	0	2020605952	7	4029
2026-01-29 04:36:16.18	298.34	20.51	-23.6	-24.6	18.8	0.00e+00	0	43	0	2025848832	7	4071
2026-01-29 04:36:17.18	298.10	20.46	-23.4	-24.3	18.9	0.00e+00	0	43	0	2031091712	7	3992
2026-01-29 04:36:18.19	297.86	20.42	-23.4	-24.3	18.9	2.20e-06	0	43	0	2037383168	7	3990
2026-01-29 04:36:19.19	297.62	20.37	-23.5	-24.5	18.8	0.00e+00	0	43	0	2042626048	7	4029
2026-01-29 04:36:20.20	297.38	20.33	-23.4	-24.2	19.0	4.50e-06	0	43	0	2048917504	7	3970
2026-01-29 04:36:21.19	297.14	20.28	-23.4	-24.3	18.9	0.00e+00	0	43	0	2054160384	7	3999
2026-01-29 04:36:22.19	296.90	20.24	-23.4	-24.4	18.9	0.00e+00	0	43	0	2059403264	7	4008
2026-01-29 04:36:23.20	296.66	20.19	-23.4	-24.3	18.9	0.00e+00	0	43	0	2065694720	7	3996
2026-01-29 04:36:24.19	296.43	20.15	-23.4	-24.2	19.0	2.20e-06	0	43	0	2070937600	7	3957
2026-01-29 04:36:25.20	296.19	20.10	-23.5	-24.4	18.8	0.00e+00	0	43	0	2076180480	7	4021
2026-01-29 04:36:26.19	295.96	20.05	-23.7	-24.8	18.6	0.00e+00	0	42	0	2082471936	7	4120
2026-01-29 04:36:27.20	295.73	20.01	-23.6	-24.7	18.7	0.00e+00	0	43	0	2087714816	7	4088
2026-01-29 04:36:28.20	295.49	19.96	-23.7	-25.0	18.6	0.00e+00	0	43	0	2094006272	7	4160
2026-01-29 04:36:29.21	295.26	19.91	-23.6	-24.8	18.6	0.00e+00	0	43	0	2099249152	7	4099
2026-01-29 04:36:30.22	295.02	19.86	-23.7	-25.0	18.5	3.40e-06	0	42	0	2104492032	7	4164
2026-01-29 04:36:31.22	294.79	19.81	-23.7	-24.9	18.6	0.00e+00	0	43	0	2110783488	7	4139
2026-01-29 04:36:32.23	294.56	19.76	-23.8	-25.0	18.5	0.00e+00	0	42	0	2116026368	7	4172
2026-01-29 04:36:33.23	294.33	19.71	-23.8	-25.1	18.5	1.10e-06	0	43	0	2122317824	7	4202
2026-01-29 04:36:34.23	294.10	19.66	-23.8	-25.1	18.5	0.00e+00	0	42	0	2127560704	7	4196
2026-01-29 04:36:35.24	293.87	19.61	-23.7	-25.0	18.6	0.00e+00	0	43	0	2132803584	7	4153
2026-01-29 04:36:36.24	293.65	19.56	-23.6	-24.6	18.7	0.00e+00	0	43	0	2139095040	7	4075
2026-01-29 04:36:37.24	293.42	19.51	-23.6	-24.6	18.7	0.00e+00	0	43	0	2144337920	7	4070
2026-01-29 04:36:38.24	293.20	19.45	-23.6	-24.8	18.6	0.00e+00	0	43	0	2149580800	7	4105
2026-01-29 04:36:39.25	292.97	19.40	-23.6	-24.6	18.7	0.00e+00	0	43	0	2155872256	7	4071
2026-01-29 04:36:40.25	292.75	19.35	-23.6	-24.8	18.6	0.00e+00	0	43	0	2161115136	7	4109
2026-01-29 04:36:41.26	292.52	19.30	-23.7	-25.0	18.5	0.00e+00	0	42	0	2167406592	7	4156
2026-01-29 04:36:42.26	292.30	19.24	-23.3	-24.5	16.2	0.00e+00	0	43	0	2172649472	7	4154
2026-01-29 04:36:43.27	292.07	19.19	-23.7	-24.9	14.4	0.00e+00	0	43	0	2177892352	7	4142
2026-01-29 04:36:44.27	291.85	19.14	-23.8	-25.0	18.5	0.00e+00	0	43	0	2184183808	7	4164
2026-01-29 04:36:45.28	291.63	19.08	-23.9	-25.4	18.2	0.00e+00	0	43	0	2189426688	7	4255
2026-01-29 04:36:46.29	291.41	19.03	-24.0	-25.5	18.3	7.49e-04	0	43	0	2195718144	7	4285
2026-01-29 04:36:47.29	291.19	18.97	-24.2	-25.5	18.0	0.00e+00	0	43	0	2200961024	8	4171
2026-01-29 04:36:48.30	290.97	18.92	-24.4	-25.9	17.8	0.00e+00	0	43	0	2206203904	8	4270
2026-01-29 04:36:49.30	290.76	18.86	-24.2	-25.5	18.0	0.00e+00	0	43	0	2212495360	8	4185
2026-01-29 04:36:50.30	290.54	18.80	-24.3	-25.7	17.9	0.00e+00	0	43	0	2217738240	8	4228
2026-01-29 04:36:51.31	290.32	18.75	-24.3	-25.7	17.9	0.00e+00	0	43	0	2224029696	8	4227
2026-01-29 04:36:52.31	290.11	18.69	-24.4	-25.9	17.8	0.00e+00	0	43	0	2229272576	8	4286
2026-01-29 04:36:53.31	289.89	18.64	-24.4	-25.9	17.8	1.56e-04	0	43	0	2234515456	8	4273
2026-01-29 04:36:54.32	289.68	18.58	-24.5	-26.1	17.7	0.00e+00	0	43	0	2240806912	8	4318
2026-01-29 04:36:55.33	289.47	18.52	-24.5	-25.6	17.7	1.07e-03	0	43	0	2246049792	9	4095
2026-01-29 04:36:56.33	289.25	18.46	-24.3	-25.3	17.9	0.00e+00	0	43	0	2251292672	9	4001
2026-01-29 04:36:57.34	289.04	18.40	-24.4	-25.3	17.8	1.16e-03	0	43	0	2257584128	9	4025
2026-01-29 04:36:58.34	288.83	18.35	-24.5	-25.5	17.7	1.30e-03	0	43	0	2262827008	9	4071
2026-01-29 04:36:59.34	288.62	18.29	-24.5	-25.6	17.6	0.00e+00	0	42	0	2269118464	9	4090
2026-01-29 04:37:00.35	288.41	18.23	-24.6	-25.9	17.5	1.19e-03	0	43	0	2274361344	9	4165
2026-01-29 04:37:01.35	288.21	18.17	-24.6	-25.8	17.5	0.00e+00	0	43	0	2280652800	9	4152
2026-01-29 04:37:02.36	288.00	18.11	-24.3	-25.2	17.9	2.05e-05	0	43	0	2285895680	9	3997
2026-01-29 04:37:03.36	287.79	18.05	-24.0	-25.1	18.2	4.69e-04	0	43	0	2291138560	8	4068
2026-01-29 04:37:04.37	287.59	17.99	-23.9	-24.7	18.3	9.34e-04	0	43	0	2297430016	8	3984
2026-01-29 04:37:05.37	287.38	17.93	-23.9	-24.8	18.3	0.00e+00	0	42	0	2302672896	8	4000
2026-01-29 04:37:06.38	287.18	17.87	-23.9	-24.9	18.3	1.07e-03	0	43	0	2307915776	8	4027
2026-01-29 04:37:07.38	286.98	17.81	-24.1	-25.2	18.1	1.31e-03	0	43	0	2314207232	8	4103
2026-01-29 04:37:08.39	286.77	17.75	-24.1	-25.2	18.1	0.00e+00	0	43	0	2319450112	8	4112
2026-01-29 04:37:09.38	286.57	17.69	-24.1	-25.4	18.0	1.25e-03	0	43	0	2324692992	8	4144
2026-01-29 04:37:10.39	286.37	17.63	-24.1	-25.2	18.0	1.03e-03	0	43	0	2330984448	8	4111
2026-01-29 04:37:11.39	286.17	17.57	-24.1	-25.3	18.0	0.00e+00	0	43	0	2336227328	8	4131
2026-01-29 04:37:12.40	285.97	17.51	-24.1	-25.3	18.0	7.71e-04	0	43	0	2342518784	8	4137
2026-01-29 04:37:13.40	285.77	17.45	-24.1	-25.3	17.8	7.79e-04	0	43	0	2347761664	8	4158
2026-01-29 04:37:14.40	285.58	17.38	-24.1	-25.2	17.4	0.00e+00	0	43	0	2353004544	8	4115
2026-01-29 04:37:15.41	285.38	17.32	-24.1	-25.4	18.0	0.00e+00	0	42	0	2359296000	8	4143
2026-01-29 04:37:16.41	285.19	17.26	-24.2	-25.4	18.0	9.23e-04	0	43	0	2364538880	8	4154
2026-01-29 04:37:17.41	284.99	17.20	-24.2	-25.5	17.9	2.92e-04	0	43	0	2370830336	8	4175
2026-01-29 04:37:18.41	284.80	17.14	-24.2	-25.5	17.9	7.85e-04	0	43	0	2376073216	8	4181
2026-01-29 04:37:19.41	284.61	17.07	-24.3	-25.8	17.8	6.76e-04	0	43	0	2381316096	8	4250
2026-01-29 04:37:20.42	284.41	17.01	-24.4	-26.0	17.7	2.94e-04	0	43	0	2387607552	8	4314
2026-01-29 04:37:21.42	284.22	16.95	-24.6	-25.9	17.4	7.37e-04	0	43	0	2392850432	9	4169
2026-01-29 04:37:22.42	284.03	16.88	-24.6	-25.9	17.4	1.85e-04	0	43	0	2398093312	9	4178
2026-01-29 04:37:23.42	283.84	16.82	-24.4	-25.3	17.7	0.00e+00	0	43	0	2404384768	9	4024
2026-01-29 04:37:24.42	283.65	16.76	-24.2	-25.5	17.9	0.00e+00	0	43	0	2409627648	8	4182
2026-01-29 04:37:25.42	283.47	16.69	-24.3	-25.6	17.8	8.81e-04	0	43	0	2415919104	8	4207
2026-01-29 04:37:26.42	283.28	16.63	-24.3	-25.8	17.7	0.00e+00	0	43	0	2421161984	8	4253
2026-01-29 04:37:27.42	283.09	16.57	-24.4	-26.0	17.7	0.00e+00	0	43	0	2426404864	8	4300
2026-01-29 04:37:28.42	282.91	16.50	-24.5	-26.1	17.6	3.50e-04	0	43	0	2432696320	8	4328
2026-01-29 04:37:29.42	282.72	16.44	-24.5	-26.1	17.6	1.03e-03	0	42	0	2437939200	8	4332
2026-01-29 04:37:30.42	282.54	16.37	-24.4	-25.9	17.7	2.40e-05	0	43	0	2443182080	8	4280
2026-01-29 04:37:31.42	282.36	16.31	-24.3	-25.8	17.7	9.70e-04	0	43	0	2449473536	8	4261
2026-01-29 04:37:32.42	282.17	16.25	-24.4	-26.0	17.6	1.00e-03	0	42	0	2454716416	8	4295
2026-01-29 04:37:33.42	281.99	16.18	-24.5	-25.6	17.6	6.50e-04	0	43	0	2459959296	9	4089
2026-01-29 04:37:34.43	281.81	16.12	-24.4	-26.0	17.6	7.67e-04	0	43	0	2466250752	8	4297
2026-01-29 04:37:35.44	281.63	16.05	-24.6	-25.8	17.5	0.00e+00	0	43	0	2471493632	9	4136
2026-01-29 04:37:36.45	281.45	15.99	-24.6	-25.8	17.5	0.00e+00	0	42	0	2477785088	9	4156
2026-01-29 04:37:37.45	281.27	15.92	-24.6	-25.8	17.5	1.38e-03	0	43	0	2483027968	9	4146
2026-01-29 04:37:38.46	281.09	15.85	-24.5	-25.7	17.5	4.51e-04	0	43	0	2489319424	9	4118
2026-01-29 04:37:39.46	280.92	15.79	-24.6	-25.8	17.4	0.00e+00	0	43	0	2494562304	9	4137
2026-01-29 04:37:40.46	280.74	15.72	-24.7	-26.0	17.3	3.50e-04	0	43	0	2499805184	9	4197
2026-01-29 04:37:41.47	280.56	15.66	-24.7	-26.1	17.3	3.56e-04	0	43	0	2506096640	9	4227
2026-01-29 04:37:42.47	280.39	15.59	-24.6	-25.9	17.4	0.00e+00	0	43	0	2511339520	9	4161
2026-01-29 04:37:43.47	280.21	15.53	-24.7	-26.1	17.3	6.43e-04	0	43	0	2516582400	9	4214
2026-01-29 04:37:44.47	280.04	15.46	-24.8	-26.4	17.1	7.12e-04	0	43	0	2522873856	9	4292
2026-01-29 04:37:45.47	279.87	15.40	-24.9	-26.5	17.1	0.00e+00	0	43	0	2528116736	9	4320
2026-01-29 04:37:46.47	279.70	15.33	-24.8	-26.3	17.1	7.23e-04	0	43	0	2533359616	9	4288
2026-01-29 04:37:47.47	279.53	15.26	-24.6	-25.9	17.4	7.12e-04	0	43	0	2539651072	9	4173
2026-01-29 04:37:48.48	279.36	15.20	-24.6	-25.8	17.4	0.00e+00	0	43	0	2544893952	9	4141
2026-01-29 04:37:49.47	279.19	15.13	-24.6	-25.9	17.4	0.00e+00	0	43	0	2551185408	9	4169
2026-01-29 04:37:50.48	279.02	15.07	-24.7	-26.0	17.3	4.80e-04	0	43	0	2556428288	9	4208
2026-01-29 04:37:51.48	278.85	15.00	-24.7	-26.0	17.3	0.00e+00	0	43	0	2561671168	9	4203
2026-01-29 04:37:52.49	278.68	14.93	-24.7	-26.1	17.3	2.41e-04	0	43	0	2567962624	9	4220
2026-01-29 04:37:53.49	278.52	14.87	-24.7	-26.1	17.2	2.68e-04	0	43	0	2573205504	9	4217
2026-01-29 04:37:54.50	278.35	14.80	-24.7	-26.0	17.3	0.00e+00	0	43	0	2578448384	9	4198
2026-01-29 04:37:55.50	278.19	14.73	-24.6	-25.9	17.3	4.52e-04	0	43	0	2584739840	9	4165
2026-01-29 04:37:56.51	278.02	14.67	-24.6	-25.9	17.3	0.00e+00	0	43	0	2589982720	9	4159
2026-01-29 04:37:57.51	277.86	14.60	-24.6	-25.9	17.3	0.00e+00	0	43	0	2596274176	9	4180
2026-01-29 04:37:58.52	277.70	14.53	-24.7	-26.1	17.2	0.00e+00	0	43	0	2601517056	9	4219
2026-01-29 04:37:59.52	277.53	14.47	-24.9	-26.4	17.0	0.00e+00	0	43	0	2606759936	9	4305
2026-01-29 04:38:00.53	277.37	14.40	-24.9	-26.5	17.0	0.00e+00	0	43	0	2613051392	9	4326
2026-01-29 04:38:01.53	277.21	14.33	-24.9	-26.5	17.0	0.00e+00	0	43	0	2618294272	9	4338
2026-01-29 04:38:02.54	277.05	14.26	-24.9	-26.6	16.9	3.58e-04	0	43	0	2624585728	9	4349
2026-01-29 04:38:03.54	276.89	14.20	-25.0	-26.7	16.9	0.00e+00	0	43	0	2629828608	9	4395
2026-01-29 04:38:04.54	276.73	14.13	-25.2	-26.7	16.6	0.00e+00	0	43	0	2635071488	10	4263
2026-01-29 04:38:05.54	276.58	14.06	-25.2	-26.7	16.6	0.00e+00	0	43	0	2641362944	10	4268
2026-01-29 04:38:06.55	276.42	14.00	-25.2	-26.8	16.6	0.00e+00	0	43	0	2646605824	10	4285
2026-01-29 04:38:07.55	276.26	13.93	-25.4	-27.0	16.5	0.00e+00	0	43	0	2651848704	10	4338
2026-01-29 04:38:08.55	276.11	13.86	-25.3	-26.8	16.6	0.00e+00	0	43	0	2658140160	10	4305
2026-01-29 04:38:09.56	275.95	13.79	-25.3	-26.9	16.5	0.00e+00	0	43	0	2663383040	10	4325
2026-01-29 04:38:10.57	275.80	13.73	-25.3	-27.0	16.5	0.00e+00	0	43	0	2669674496	10	4347
2026-01-29 04:38:11.57	275.65	13.66	-25.3	-26.9	16.5	0.00e+00	0	43	0	2674917376	10	4324
2026-01-29 04:38:12.58	275.49	13.59	-25.2	-26.7	16.6	0.00e+00	0	43	0	2680160256	10	4283
2026-01-29 04:38:13.58	275.34	13.52	-25.1	-26.6	16.6	0.00e+00	0	43	0	2686451712	10	4274
2026-01-29 04:38:14.58	275.19	13.46	-25.1	-26.6	16.6	0.00e+00	0	43	0	2691694592	10	4266
2026-01-29 04:38:15.58	275.04	13.39	-25.1	-26.5	16.7	0.00e+00	0	43	0	2697986048	10	4238
2026-01-29 04:38:16.58	274.89	13.32	-25.2	-26.8	16.5	0.00e+00	0	43	0	2703228928	10	4313
2026-01-29 04:38:17.59	274.74	13.26	-25.3	-26.9	16.4	0.00e+00	0	43	0	2708471808	10	4330
2026-01-29 04:38:18.59	274.59	13.19	-25.2	-26.8	16.5	0.00e+00	0	43	0	2714763264	10	4325
2026-01-29 04:38:19.59	274.45	13.12	-25.2	-26.8	16.4	0.00e+00	0	43	0	2720006144	10	4331
2026-01-29 04:38:20.59	274.30	13.05	-25.2	-26.8	16.5	0.00e+00	0	43	0	2725249024	10	4320
2026-01-29 04:38:21.59	274.15	12.99	-25.3	-26.9	16.4	0.00e+00	0	43	0	2731540480	10	4336
2026-01-29 04:38:22.58	274.01	12.92	-25.3	-26.9	16.5	0.00e+00	0	43	0	2736783360	10	4321
2026-01-29 04:38:23.58	273.86	12.85	-25.2	-26.7	16.6	0.00e+00	0	43	0	2742026240	10	4260
2026-01-29 04:38:24.58	273.72	12.79	-25.2	-26.6	16.6	0.00e+00	0	43	0	2748317696	10	4250
2026-01-29 04:38:25.59	273.58	12.72	-25.2	-26.7	16.5	0.00e+00	0	43	0	2753560576	10	4279
2026-01-29 04:38:26.60	273.43	12.65	-25.4	-27.1	16.3	0.00e+00	0	43	0	2759852032	10	4378
2026-01-29 04:38:27.61	273.29	12.58	-25.4	-27.1	16.3	9.20e-04	0	43	0	2765094912	10	4392
2026-01-29 04:38:28.61	273.15	12.52	-25.5	-27.3	16.2	0.00e+00	0	43	0	2771386368	10	4448
2026-01-29 04:38:29.61	273.01	12.45	-25.8	-27.4	15.9	0.00e+00	0	43	0	2776629248	11	4353
2026-01-29 04:38:30.61	272.87	12.38	-25.7	-27.3	15.9	0.00e+00	0	43	0	2781872128	11	4319
2026-01-29 04:38:31.62	272.73	12.31	-25.5	-26.8	16.2	0.00e+00	0	43	0	2788163584	11	4201
2026-01-29 04:38:32.62	272.59	12.25	-25.4	-26.7	16.2	1.26e-03	0	43	0	2793406464	11	4164
2026-01-29 04:38:33.62	272.45	12.18	-25.5	-26.7	16.2	0.00e+00	0	43	0	2798649344	11	4175
2026-01-29 04:38:34.63	272.31	12.11	-25.5	-26.8	16.2	0.00e+00	0	43	0	2804940800	11	4183
2026-01-29 04:38:35.63	272.17	12.05	-25.5	-26.9	16.1	0.00e+00	0	43	0	2810183680	11	4217
2026-01-29 04:38:36.64	272.04	11.98	-25.6	-27.0	16.1	0.00e+00	0	43	0	2815426560	11	4232
2026-01-29 04:38:37.64	271.90	11.91	-25.6	-27.0	16.1	0.00e+00	0	43	0	2821718016	11	4245
2026-01-29 04:38:38.64	271.77	11.84	-25.6	-27.0	16.1	0.00e+00	0	43	0	2826960896	11	4249
2026-01-29 04:38:39.64	271.63	11.78	-25.5	-26.9	16.1	3.88e-04	0	43	0	2833252352	11	4223
2026-01-29 04:38:40.65	271.50	11.71	-25.7	-27.2	16.0	0.00e+00	0	43	0	2838495232	11	4285
2026-01-29 04:38:41.65	271.36	11.64	-25.6	-27.1	16.0	1.10e-06	0	43	0	2844786688	11	4263
2026-01-29 04:38:42.66	271.23	11.58	-25.6	-27.0	16.1	0.00e+00	0	43	0	2850029568	11	4243
2026-01-29 04:38:43.67	271.10	11.51	-25.7	-27.2	16.0	0.00e+00	0	43	0	2855272448	11	4287
2026-01-29 04:38:44.67	270.97	11.44	-25.7	-27.2	16.0	1.49e-04	0	42	0	2861563904	11	4292
2026-01-29 04:38:45.67	270.84	11.38	-25.6	-27.1	16.0	2.40e-04	0	43	0	2866806784	11	4274
2026-01-29 04:38:46.68	270.70	11.31	-25.7	-27.2	15.9	0.00e+00	0	43	0	2872049664	11	4296
2026-01-29 04:38:47.68	270.58	11.24	-25.7	-27.4	15.8	0.00e+00	0	43	0	2878341120	11	4341
2026-01-29 04:38:48.68	270.45	11.18	-25.7	-27.3	15.8	3.46e-04	0	43	0	2883584000	11	4332
2026-01-29 04:38:49.68	270.32	11.11	-25.7	-27.3	15.8	0.00e+00	0	43	0	2888826880	11	4317
2026-01-29 04:38:50.69	270.19	11.04	-25.7	-27.3	15.9	8.07e-04	0	43	0	2895118336	11	4322
2026-01-29 04:38:51.70	270.06	10.97	-25.7	-27.3	12.7	1.09e-03	0	43	0	2900361216	11	4329
2026-01-29 04:38:52.70	269.94	10.91	-25.8	-27.4	13.5	1.07e-03	0	43	0	2906652672	11	4343
2026-01-29 04:38:53.69	269.81	10.84	-25.8	-27.6	15.7	1.49e-03	0	43	0	2911895552	11	4402
2026-01-29 04:38:54.70	269.68	10.78	-25.9	-27.8	15.5	1.10e-03	0	43	0	2918187008	11	4470
2026-01-29 04:38:55.70	269.56	10.71	-25.9	-27.8	15.5	2.01e-04	0	43	0	2923429888	11	4468
2026-01-29 04:38:56.71	269.43	10.64	-26.0	-27.4	15.4	2.17e-03	0	43	0	2928672768	12	4256
2026-01-29 04:38:57.72	269.31	10.58	-26.1	-27.8	15.2	2.16e-03	0	43	0	2934964224	12	4350
2026-01-29 04:38:58.72	269.19	10.51	-26.1	-27.7	15.3	2.71e-04	0	43	0	2940207104	12	4315
2026-01-29 04:38:59.72	269.06	10.44	-26.0	-27.5	15.3	1.70e-03	0	43	0	2945449984	12	4262
2026-01-29 04:39:00.72	268.94	10.38	-26.0	-27.4	15.4	1.58e-03	0	43	0	2951741440	12	4236
2026-01-29 04:39:01.73	268.82	10.31	-26.1	-27.6	15.2	1.21e-03	0	43	0	2956984320	12	4306
2026-01-29 04:39:02.73	268.70	10.25	-26.0	-27.5	15.3	1.45e-03	0	43	0	2962227200	12	4274
2026-01-29 04:39:03.73	268.58	10.18	-26.1	-27.8	15.1	1.38e-03	0	43	0	2968518656	12	4346
2026-01-29 04:39:04.74	268.46	10.11	-26.0	-27.6	15.3	1.56e-03	0	43	0	2973761536	12	4285
2026-01-29 04:39:05.74	268.34	10.05	-26.0	-27.4	15.3	1.71e-03	0	43	0	2980052992	12	4255
2026-01-29 04:39:06.74	268.22	9.98	-26.0	-27.4	15.3	1.48e-03	0	43	0	2985295872	12	4248
2026-01-29 04:39:07.74	268.10	9.92	-26.1	-27.6	15.2	2.92e-04	0	43	0	2990538752	12	4310
2026-01-29 04:39:08.74	267.99	9.85	-26.1	-27.8	15.1	0.00e+00	0	43	0	2996830208	12	4357
2026-01-29 04:39:09.74	267.87	9.79	-26.2	-28.0	15.0	3.48e-03	0	43	0	3002073088	12	4419
2026-01-29 04:39:10.75	267.75	9.72	-26.2	-27.9	15.0	1.61e-03	0	43	0	3007315968	12	4399
2026-01-29 04:39:11.75	267.64	9.65	-26.2	-27.8	15.1	0.00e+00	0	43	0	3013607424	12	4365
2026-01-29 04:39:12.76	267.52	9.59	-26.3	-28.1	15.0	1.55e-03	0	43	0	3018850304	12	4429
2026-01-29 04:39:13.76	267.40	9.52	-26.2	-27.9	15.0	1.45e-03	0	43	0	3025141760	12	4386
2026-01-29 04:39:14.76	267.29	9.46	-26.2	-27.9	15.0	2.23e-03	0	43	0	3030384640	12	4374
2026-01-29 04:39:15.77	267.18	9.39	-26.3	-28.1	14.9	1.36e-03	0	43	0	3035627520	12	4427
2026-01-29 04:39:16.77	267.06	9.33	-26.4	-28.3	14.8	1.39e-03	0	43	0	3041918976	12	4497
2026-01-29 04:39:17.78	266.95	9.26	-26.4	-28.4	14.7	0.00e+00	0	43	0	3047161856	12	4517
2026-01-29 04:39:18.78	266.84	9.20	-26.4	-28.5	14.6	8.69e-04	0	43	0	3053453312	12	4553
2026-01-29 04:39:19.78	266.72	9.13	-26.5	-28.1	14.6	2.20e-06	0	43	0	3058696192	13	4339
2026-01-29 04:39:20.78	266.61	9.07	-26.5	-28.1	14.6	1.10e-06	0	43	0	3063939072	13	4349
2026-01-29 04:39:21.79	266.50	9.00	-26.5	-28.1	14.6	2.44e-03	0	43	0	3070230528	13	4342
2026-01-29 04:39:22.79	266.39	8.94	-26.5	-28.6	14.6	8.33e-04	0	43	0	3075473408	12	4598
2026-01-29 04:39:23.80	266.28	8.87	-26.4	-28.4	14.7	0.00e+00	0	43	0	3080716288	12	4525
2026-01-29 04:39:24.80	266.17	8.81	-26.3	-28.1	14.8	1.23e-03	0	43	0	3087007744	12	4449
2026-01-29 04:39:25.80	266.06	8.74	-26.3	-28.1	14.8	1.24e-03	0	43	0	3092250624	12	4449
2026-01-29 04:39:26.81	265.95	8.68	-26.2	-28.0	14.9	1.10e-06	0	43	0	3098542080	12	4410
2026-01-29 04:39:27.82	265.85	8.61	-26.2	-28.0	14.9	1.27e-03	0	42	0	3103784960	12	4419
2026-01-29 04:39:28.83	265.74	8.55	-26.3	-28.3	14.7	0.00e+00	0	43	0	3109027840	12	4497
2026-01-29 04:39:29.83	265.63	8.48	-26.3	-28.3	14.7	0.00e+00	0	43	0	3115319296	12	4504
2026-01-29 04:39:30.84	265.52	8.42	-26.5	-28.5	14.5	0.00e+00	0	43	0	3120562176	12	4576
2026-01-29 04:39:31.84	265.42	8.35	-26.5	-28.1	14.5	2.20e-06	0	43	0	3126853632	13	4344
2026-01-29 04:39:32.85	265.31	8.29	-26.6	-28.3	14.4	1.10e-06	0	43	0	3132096512	13	4382
2026-01-29 04:39:33.85	265.21	8.23	-26.6	-28.3	14.4	1.10e-06	0	43	0	3137339392	13	4406
2026-01-29 04:39:34.86	265.10	8.16	-26.7	-28.5	14.2	2.31e-04	0	43	0	3143630848	13	4466
2026-01-29 04:39:35.86	265.00	8.10	-26.6	-28.4	14.3	1.10e-06	0	43	0	3148873728	13	4409
2026-01-29 04:39:36.87	264.89	8.03	-26.5	-28.2	14.4	0.00e+00	0	43	0	3155165184	13	4361
2026-01-29 04:39:37.87	264.79	7.97	-26.6	-28.4	14.3	0.00e+00	0	43	0	3160408064	13	4418
2026-01-29 04:39:38.87	264.69	7.91	-26.6	-28.3	14.3	1.10e-06	0	43	0	3165650944	13	4406
2026-01-29 04:39:39.87	264.59	7.84	-26.6	-28.4	14.3	9.10e-06	0	43	0	3171942400	13	4429
2026-01-29 04:39:40.88	264.48	7.78	-26.7	-28.7	14.1	3.40e-06	0	43	0	3177185280	13	4526
2026-01-29 04:39:41.88	264.38	7.71	-26.7	-28.7	14.1	2.20e-06	0	43	0	3182428160	13	4518
2026-01-29 04:39:42.88	264.28	7.65	-26.8	-28.8	14.0	3.40e-06	0	43	0	3188719616	13	4550
2026-01-29 04:39:43.89	264.18	7.59	-26.9	-29.0	13.9	5.70e-06	0	43	0	3193962496	13	4620
2026-01-29 04:39:44.89	264.08	7.52	-26.8	-29.0	13.9	2.20e-06	0	43	0	3200253952	13	4594
2026-01-29 04:39:45.90	263.98	7.46	-26.8	-28.8	14.0	9.10e-06	0	43	0	3205496832	13	4558
2026-01-29 04:39:46.90	263.88	7.40	-26.9	-29.0	13.8	1.02e-05	0	43	0	3211788288	13	4609
2026-01-29 04:39:47.90	263.78	7.34	-26.8	-28.9	13.9	1.02e-05	0	42	0	3217031168	13	4563
2026-01-29 04:39:48.91	263.68	7.27	-27.0	-29.2	13.7	1.37e-05	0	43	0	3222274048	13	4685
2026-01-29 04:39:49.91	263.59	7.21	-26.8	-28.9	13.9	8.00e-06	0	43	0	3228565504	13	4569
2026-01-29 04:39:50.92	263.49	7.15	-26.7	-28.6	14.1	5.70e-06	0	43	0	3233808384	13	4484
2026-01-29 04:39:51.92	263.39	7.08	-26.7	-28.7	14.0	1.10e-06	0	43	0	3239051264	13	4510
2026-01-29 04:39:52.92	263.30	7.02	-32.8	-43.3	3.8	8.37e-01	0	43	104	3242196992	25	12182
2026-01-29 04:39:53.92	263.20	6.96	-33.3	-44.6	3.8	8.45e-01	0	43	104	3242196992	26	13297

#Closed at: 2026-01-29 04:39:54
#Recorded file [3242 MB]: D:/data/31010_260129_073015.dat