passes_logs/2026/01/29/R2M6_AANII_01/R2M6_AANII_01__20260129_142433_FENGYUN_3E_rec.log

#Pass ID: 20260129_142433_FENGYUN 3E
#Satellite: FENGYUN 3E
#Configuration: FENGYUN 3E
#almurnet v.1.7.20240730
#Start time: 2026-01-29 14:24:32

#Version: 2.2.20231116
#Station: R2M6_AANII_01
#Location: 30.233357 lon 59.946436 lat
#TLE: 1 49008U 21062A   26028.95833242 -.00000015  00000+0  13843-4 0  9995
#TLE: 2 49008  98.7500  33.9242 0002547 112.2873 247.8573 14.19887818236829

#Time	Az	El	Level	Level2	SNR	BER	BlckErr	Temp	State	Recorded	gain1	gain2
2026-01-29 14:24:32.41	154.13	6.92	-27.0	-29.7	5.5	7.70e-01	0	40	0	0	14	4873
2026-01-29 14:24:33.41	154.12	7.00	-28.3	-32.1	5.2	7.83e-01	0	41	104	0	16	5573
2026-01-29 14:24:34.41	154.12	7.08	-28.6	-32.4	8.5	4.73e-02	0	40	0	0	17	5538
2026-01-29 14:24:35.42	154.11	7.16	-28.6	-31.9	8.9	4.05e-02	0	41	0	7340032	17	5286
2026-01-29 14:24:36.43	154.11	7.23	-28.5	-31.6	9.2	1.53e-02	0	41	0	14680064	17	5150
2026-01-29 14:24:37.42	154.10	7.31	-28.6	-31.8	9.1	3.04e-02	0	41	0	22020096	17	5200
2026-01-29 14:24:38.42	154.09	7.39	-28.3	-30.7	9.9	1.19e-02	0	41	0	28311552	17	4738
2026-01-29 14:24:39.42	154.09	7.47	-27.9	-29.7	10.6	4.01e-03	0	41	0	35651584	17	4399
2026-01-29 14:24:40.43	154.08	7.55	-27.5	-29.0	11.3	1.41e-03	0	41	0	42991616	16	4309
2026-01-29 14:24:41.43	154.07	7.63	-27.0	-28.5	11.8	6.55e-04	0	41	0	50331648	15	4276
2026-01-29 14:24:42.44	154.07	7.71	-26.9	-28.1	12.0	4.16e-04	0	41	0	57671680	15	4165
2026-01-29 14:24:43.44	154.06	7.79	-26.9	-28.8	11.9	2.49e-04	0	41	0	65011712	14	4468
2026-01-29 14:24:44.45	154.05	7.87	-27.0	-28.9	11.9	3.70e-04	0	41	0	72351744	14	4498
2026-01-29 14:24:45.46	154.05	7.95	-27.1	-29.1	11.7	6.46e-04	0	41	0	79691776	14	4562
2026-01-29 14:24:46.46	154.04	8.03	-26.8	-28.3	12.3	2.89e-04	0	41	0	85983232	14	4292
2026-01-29 14:24:47.46	154.03	8.11	-26.7	-28.1	12.4	1.83e-04	0	41	0	94371840	14	4237
2026-01-29 14:24:48.47	154.03	8.19	-26.3	-27.7	12.9	4.57e-05	0	41	0	101711872	13	4238
2026-01-29 14:24:49.48	154.02	8.28	-26.3	-27.7	12.9	4.00e-05	0	41	0	108003328	13	4226
2026-01-29 14:24:50.48	154.01	8.36	-26.2	-27.6	13.0	5.03e-05	0	41	0	115343360	13	4192
2026-01-29 14:24:51.49	154.01	8.44	-26.2	-27.5	13.1	3.20e-05	0	41	0	122683392	13	4166
2026-01-29 14:24:52.49	154.00	8.52	-26.4	-28.0	12.8	4.34e-05	0	41	0	130023424	13	4321
2026-01-29 14:24:53.50	153.99	8.60	-26.6	-28.5	12.5	1.37e-04	0	41	0	137363456	13	4458
2026-01-29 14:24:54.49	153.99	8.69	-26.2	-27.5	13.1	4.69e-05	0	41	0	144703488	13	4168
2026-01-29 14:24:55.50	153.98	8.77	-26.0	-27.0	13.3	2.40e-05	0	41	0	152043520	13	4064
2026-01-29 14:24:56.50	153.97	8.85	-25.8	-27.2	13.5	1.14e-05	0	41	0	159383552	12	4224
2026-01-29 14:24:57.51	153.96	8.94	-25.7	-27.0	13.6	8.00e-06	0	41	0	166723584	12	4188
2026-01-29 14:24:58.51	153.96	9.02	-25.7	-27.0	13.6	1.37e-05	0	41	0	173015040	12	4192
2026-01-29 14:24:59.52	153.95	9.11	-25.6	-26.9	13.6	6.80e-06	0	41	0	181403648	12	4170
2026-01-29 14:25:00.52	153.94	9.19	-25.4	-26.4	13.8	4.50e-06	0	41	0	188743680	12	4064
2026-01-29 14:25:01.53	153.93	9.28	-25.4	-27.0	13.9	9.10e-06	0	41	0	195035136	11	4334
2026-01-29 14:25:02.54	153.93	9.36	-25.3	-26.9	14.0	2.20e-06	0	41	0	202375168	11	4302
2026-01-29 14:25:03.54	153.92	9.45	-25.4	-27.0	13.9	6.80e-06	0	41	0	209715200	11	4336
2026-01-29 14:25:04.55	153.91	9.53	-25.4	-27.0	13.9	0.00e+00	0	41	0	217055232	11	4342
2026-01-29 14:25:05.55	153.90	9.62	-25.3	-26.8	14.0	0.00e+00	0	41	0	224395264	11	4286
2026-01-29 14:25:06.56	153.90	9.71	-25.3	-26.8	14.1	4.50e-06	0	41	0	231735296	11	4261
2026-01-29 14:25:07.56	153.89	9.79	-25.5	-27.1	13.9	2.20e-06	0	41	0	239075328	11	4325
2026-01-29 14:25:08.56	153.88	9.88	-25.4	-26.8	14.1	3.40e-06	0	42	0	246415360	11	4253
2026-01-29 14:25:09.56	153.87	9.97	-25.4	-26.8	14.1	0.00e+00	0	42	0	252706816	11	4254
2026-01-29 14:25:10.57	153.86	10.05	-25.4	-27.0	14.0	1.10e-06	0	42	0	261095424	11	4295
2026-01-29 14:25:11.58	153.86	10.14	-25.4	-26.8	14.2	2.20e-06	0	42	0	268435456	11	4223
2026-01-29 14:25:12.57	153.85	10.23	-25.4	-26.8	14.2	1.10e-06	0	42	0	274726912	11	4207
2026-01-29 14:25:13.57	153.84	10.32	-25.3	-26.4	14.4	2.20e-06	0	42	0	282066944	11	4107
2026-01-29 14:25:14.57	153.83	10.41	-25.5	-26.9	14.2	0.00e+00	0	42	0	289406976	11	4220
2026-01-29 14:25:15.58	153.82	10.50	-25.3	-26.5	14.4	0.00e+00	0	42	0	296747008	11	4112
2026-01-29 14:25:16.59	153.81	10.59	-25.5	-26.9	14.2	0.00e+00	0	42	0	304087040	11	4222
2026-01-29 14:25:17.59	153.81	10.68	-25.5	-26.8	14.3	0.00e+00	0	42	0	311427072	11	4178
2026-01-29 14:25:18.59	153.80	10.77	-25.4	-26.6	14.4	0.00e+00	0	42	0	318767104	11	4123
2026-01-29 14:25:19.60	153.79	10.86	-25.5	-26.8	14.3	2.20e-06	0	42	0	326107136	11	4176
2026-01-29 14:25:20.60	153.78	10.95	-25.5	-26.8	14.3	3.40e-06	0	42	0	333447168	11	4167
2026-01-29 14:25:21.60	153.77	11.04	-25.4	-26.6	14.4	1.10e-06	0	42	0	339738624	11	4117
2026-01-29 14:25:22.61	153.76	11.13	-25.6	-27.1	14.2	1.10e-06	0	42	0	347078656	11	4252
2026-01-29 14:25:23.61	153.75	11.22	-25.7	-27.3	14.0	2.20e-06	0	42	0	354418688	11	4328
2026-01-29 14:25:24.61	153.74	11.31	-25.5	-26.7	14.4	5.70e-06	0	42	0	361758720	11	4147
2026-01-29 14:25:25.61	153.73	11.41	-25.5	-26.8	14.3	2.20e-06	0	42	0	369098752	11	4179
2026-01-29 14:25:26.62	153.73	11.50	-25.5	-26.7	14.4	2.20e-06	0	42	0	376438784	11	4152
2026-01-29 14:25:27.62	153.72	11.59	-25.5	-26.8	14.3	0.00e+00	0	42	0	383778816	11	4176
2026-01-29 14:25:28.62	153.71	11.69	-25.4	-26.5	14.5	0.00e+00	0	42	0	391118848	11	4087
2026-01-29 14:25:29.62	153.70	11.78	-25.5	-26.7	14.4	1.10e-06	0	42	0	398458880	11	4141
2026-01-29 14:25:30.63	153.69	11.88	-25.6	-26.9	14.3	6.80e-06	0	42	0	405798912	11	4205
2026-01-29 14:25:31.63	153.68	11.97	-25.8	-27.3	14.1	1.10e-06	0	42	0	413138944	11	4324
2026-01-29 14:25:32.64	153.67	12.07	-25.7	-27.2	14.1	2.20e-06	0	42	0	420478976	11	4292
2026-01-29 14:25:33.63	153.66	12.16	-25.5	-26.8	14.4	3.40e-06	0	42	0	426770432	11	4178
2026-01-29 14:25:34.64	153.65	12.26	-25.4	-26.6	14.5	0.00e+00	0	42	0	434110464	11	4124
2026-01-29 14:25:35.64	153.64	12.35	-25.3	-26.4	14.6	0.00e+00	0	42	0	441450496	11	4066
2026-01-29 14:25:36.65	153.63	12.45	-25.3	-26.4	14.6	1.10e-06	0	42	0	448790528	11	4084
2026-01-29 14:25:37.65	153.62	12.55	-25.3	-26.4	14.6	0.00e+00	0	42	0	456130560	11	4071
2026-01-29 14:25:38.66	153.61	12.64	-25.3	-26.4	14.6	2.20e-06	0	42	0	463470592	11	4085
2026-01-29 14:25:39.66	153.60	12.74	-25.2	-26.1	14.8	0.00e+00	0	42	0	470810624	11	3997
2026-01-29 14:25:40.67	153.59	12.84	-25.1	-25.9	14.9	0.00e+00	0	42	0	478150656	11	3947
2026-01-29 14:25:41.67	153.58	12.94	-25.0	-25.8	15.0	0.00e+00	0	42	0	485490688	11	3912
2026-01-29 14:25:42.67	153.57	13.04	-25.0	-25.8	15.0	0.00e+00	0	42	0	492830720	11	3912
2026-01-29 14:25:43.67	153.56	13.14	-25.0	-25.8	15.0	0.00e+00	0	42	0	500170752	11	3908
2026-01-29 14:25:44.67	153.55	13.23	-25.1	-25.8	14.9	0.00e+00	0	42	0	506462208	11	3918
2026-01-29 14:25:45.67	153.53	13.33	-25.2	-26.0	14.9	1.10e-06	0	42	0	513802240	11	3977
2026-01-29 14:25:46.67	153.52	13.44	-25.0	-25.8	15.0	0.00e+00	0	42	0	521142272	11	3917
2026-01-29 14:25:47.68	153.51	13.54	-25.2	-26.2	14.8	0.00e+00	0	42	0	528482304	11	4015
2026-01-29 14:25:48.68	153.50	13.64	-25.0	-25.7	15.1	0.00e+00	0	42	0	535822336	11	3894
2026-01-29 14:25:49.69	153.49	13.74	-25.1	-26.0	14.9	1.10e-06	0	42	0	543162368	11	3970
2026-01-29 14:25:50.70	153.48	13.84	-25.0	-25.6	15.1	0.00e+00	0	42	0	550502400	11	3867
2026-01-29 14:25:51.70	153.47	13.95	-25.1	-26.0	14.9	0.00e+00	0	42	0	557842432	11	3968
2026-01-29 14:25:52.71	153.46	14.05	-25.0	-25.8	15.0	0.00e+00	0	42	0	565182464	11	3907
2026-01-29 14:25:53.71	153.44	14.15	-24.9	-25.6	15.2	0.00e+00	0	42	0	571473920	11	3861
2026-01-29 14:25:54.72	153.43	14.26	-24.9	-26.0	15.2	0.00e+00	0	42	0	579862528	10	4070
2026-01-29 14:25:55.72	153.42	14.36	-24.8	-25.7	15.3	0.00e+00	0	42	0	587202560	10	4011
2026-01-29 14:25:56.73	153.41	14.47	-24.9	-25.9	15.3	0.00e+00	0	42	0	593494016	10	4048
2026-01-29 14:25:57.73	153.40	14.57	-24.9	-26.1	15.2	0.00e+00	0	42	0	600834048	10	4092
2026-01-29 14:25:58.73	153.38	14.68	-24.9	-25.9	15.2	0.00e+00	0	42	0	608174080	10	4056
2026-01-29 14:25:59.74	153.37	14.78	-24.8	-25.8	15.3	0.00e+00	0	42	0	615514112	10	4021
2026-01-29 14:26:00.74	153.36	14.89	-24.8	-25.8	15.2	0.00e+00	0	42	0	622854144	10	4028
2026-01-29 14:26:01.75	153.35	15.00	-24.8	-25.6	15.4	0.00e+00	0	42	0	630194176	10	3980
2026-01-29 14:26:02.75	153.33	15.11	-24.7	-25.6	15.4	0.00e+00	0	42	0	637534208	10	3977
2026-01-29 14:26:03.76	153.32	15.21	-24.7	-25.5	15.5	0.00e+00	0	42	0	644874240	10	3935
2026-01-29 14:26:04.76	153.31	15.32	-24.7	-25.5	15.4	0.00e+00	0	42	0	652214272	10	3960
2026-01-29 14:26:05.77	153.30	15.43	-24.6	-25.4	15.5	0.00e+00	0	42	0	659554304	10	3919
2026-01-29 14:26:06.77	153.28	15.54	-24.5	-25.0	15.7	0.00e+00	0	42	0	666894336	10	3818
2026-01-29 14:26:07.77	153.27	15.65	-24.5	-25.0	15.7	0.00e+00	0	43	0	674234368	10	3832
2026-01-29 14:26:08.78	153.26	15.76	-24.4	-24.8	15.9	0.00e+00	0	42	0	680525824	10	3780
2026-01-29 14:26:09.79	153.24	15.88	-24.4	-24.8	15.9	0.00e+00	0	42	0	687865856	10	3767
2026-01-29 14:26:10.80	153.23	15.99	-24.5	-25.5	15.8	0.00e+00	0	42	0	695205888	9	4039
2026-01-29 14:26:11.80	153.22	16.10	-24.5	-25.6	15.7	0.00e+00	0	43	0	702545920	9	4057
2026-01-29 14:26:12.80	153.20	16.21	-24.5	-25.4	15.8	0.00e+00	0	42	0	709885952	9	4012
2026-01-29 14:26:13.80	153.19	16.32	-24.5	-25.6	15.8	0.00e+00	0	43	0	717225984	9	4051
2026-01-29 14:26:14.80	153.17	16.44	-24.5	-25.5	15.8	0.00e+00	0	42	0	724566016	9	4030
2026-01-29 14:26:15.81	153.16	16.55	-24.4	-25.3	15.9	0.00e+00	0	42	0	731906048	9	3984
2026-01-29 14:26:16.81	153.15	16.67	-24.6	-25.7	15.7	0.00e+00	0	42	0	738197504	9	4103
2026-01-29 14:26:17.82	153.13	16.78	-24.4	-25.2	16.0	0.00e+00	0	42	0	746586112	9	3971
2026-01-29 14:26:18.82	153.12	16.90	-24.3	-25.1	16.1	0.00e+00	0	42	0	753926144	9	3937
2026-01-29 14:26:19.82	153.10	17.01	-24.3	-25.1	16.1	0.00e+00	0	42	0	760217600	9	3936
2026-01-29 14:26:20.82	153.09	17.13	-24.4	-25.2	16.1	0.00e+00	0	43	0	767557632	9	3959
2026-01-29 14:26:21.82	153.07	17.25	-24.1	-24.6	16.4	0.00e+00	0	42	0	774897664	9	3818
2026-01-29 14:26:22.83	153.06	17.37	-23.9	-24.3	16.6	0.00e+00	0	43	0	782237696	9	3737
2026-01-29 14:26:23.83	153.04	17.49	-24.0	-24.3	16.6	0.00e+00	0	42	0	789577728	9	3747
2026-01-29 14:26:24.84	153.03	17.61	-23.9	-24.3	16.6	0.00e+00	0	43	0	796917760	9	3729
2026-01-29 14:26:25.84	153.01	17.73	-24.0	-24.9	16.5	0.00e+00	0	43	0	804257792	8	3991
2026-01-29 14:26:26.85	153.00	17.85	-24.0	-24.9	16.5	0.00e+00	0	43	0	811597824	8	3989
2026-01-29 14:26:27.85	152.98	17.97	-23.8	-24.4	16.8	0.00e+00	0	43	0	818937856	8	3860
2026-01-29 14:26:28.85	152.96	18.09	-23.9	-24.7	16.7	0.00e+00	0	43	0	825229312	8	3936
2026-01-29 14:26:29.86	152.95	18.21	-23.8	-24.4	16.8	0.00e+00	0	43	0	832569344	8	3869
2026-01-29 14:26:30.86	152.93	18.33	-23.7	-24.3	16.9	0.00e+00	0	43	0	840957952	8	3833
2026-01-29 14:26:31.87	152.91	18.46	-23.8	-24.4	16.9	0.00e+00	0	43	0	847249408	8	3852
2026-01-29 14:26:32.86	152.90	18.58	-23.7	-24.3	16.9	0.00e+00	0	43	0	854589440	8	3836
2026-01-29 14:26:33.87	152.88	18.71	-23.8	-24.4	16.8	0.00e+00	0	42	0	861929472	8	3862
2026-01-29 14:26:34.87	152.86	18.83	-23.7	-24.2	16.9	0.00e+00	0	43	0	869269504	8	3818
2026-01-29 14:26:35.88	152.85	18.96	-23.7	-24.2	16.9	0.00e+00	0	43	0	876609536	8	3820
2026-01-29 14:26:36.89	152.83	19.08	-23.6	-24.1	17.0	0.00e+00	0	43	0	883949568	8	3803
2026-01-29 14:26:37.89	152.81	19.21	-23.7	-24.2	17.0	0.00e+00	0	43	0	891289600	8	3808
2026-01-29 14:26:38.89	152.79	19.34	-23.6	-24.0	17.1	0.00e+00	0	43	0	898629632	8	3779
2026-01-29 14:26:39.90	152.78	19.47	-23.7	-24.2	16.9	0.00e+00	0	43	0	904921088	8	3828
2026-01-29 14:26:40.90	152.76	19.60	-23.6	-24.1	17.1	0.00e+00	0	43	0	912261120	8	3797
2026-01-29 14:26:41.91	152.74	19.73	-23.7	-24.2	16.9	0.00e+00	0	43	0	919601152	8	3826
2026-01-29 14:26:42.91	152.72	19.86	-23.6	-24.1	17.0	0.00e+00	0	43	0	926941184	8	3806
2026-01-29 14:26:43.91	152.70	19.99	-23.7	-24.3	16.9	0.00e+00	0	43	0	934281216	8	3837
2026-01-29 14:26:44.91	152.69	20.12	-23.6	-24.1	17.1	0.00e+00	0	43	0	941621248	8	3790
2026-01-29 14:26:45.92	152.67	20.25	-23.5	-23.8	17.2	0.00e+00	0	43	0	948961280	8	3736
2026-01-29 14:26:46.92	152.65	20.39	-23.7	-24.3	16.9	0.00e+00	0	43	0	956301312	8	3849
2026-01-29 14:26:47.92	152.63	20.52	-23.7	-24.2	17.0	0.00e+00	0	43	0	963641344	8	3836
2026-01-29 14:26:48.92	152.61	20.65	-23.5	-23.9	17.1	0.00e+00	0	43	0	970981376	8	3752
2026-01-29 14:26:49.92	152.59	20.79	-23.7	-24.3	16.9	0.00e+00	0	43	0	978321408	8	3846
2026-01-29 14:26:50.92	152.57	20.93	-23.6	-24.0	17.0	0.00e+00	0	43	0	985661440	8	3788
2026-01-29 14:26:51.92	152.55	21.06	-23.5	-23.9	17.1	0.00e+00	0	43	0	991952896	8	3752
2026-01-29 14:26:52.92	152.53	21.20	-23.6	-24.1	17.0	0.00e+00	0	43	0	999292928	8	3798
2026-01-29 14:26:53.92	152.51	21.34	-23.6	-24.1	17.0	0.00e+00	0	43	0	1006632960	8	3817
2026-01-29 14:26:54.93	152.49	21.48	-23.7	-24.2	16.9	0.00e+00	0	43	0	1013972992	8	3831
2026-01-29 14:26:55.93	152.47	21.62	-23.6	-24.2	17.0	0.00e+00	0	43	0	1021313024	8	3839
2026-01-29 14:26:56.93	152.45	21.76	-23.6	-24.1	17.0	0.00e+00	0	43	0	1028653056	8	3804
2026-01-29 14:26:57.94	152.42	21.90	-23.7	-24.2	16.9	0.00e+00	0	43	0	1035993088	8	3848
2026-01-29 14:26:58.93	152.40	22.04	-23.6	-24.1	17.0	0.00e+00	0	43	0	1043333120	8	3806
2026-01-29 14:26:59.94	152.38	22.18	-23.7	-24.4	16.9	0.00e+00	0	43	0	1050673152	8	3882
2026-01-29 14:27:00.94	152.36	22.33	-23.5	-24.0	17.1	0.00e+00	0	43	0	1056964608	8	3795
2026-01-29 14:27:01.94	152.34	22.47	-23.6	-24.1	17.1	0.00e+00	0	43	0	1064304640	8	3815
2026-01-29 14:27:02.94	152.31	22.62	-23.4	-23.8	17.2	0.00e+00	0	43	0	1071644672	8	3742
2026-01-29 14:27:03.95	152.29	22.76	-23.5	-23.8	17.2	0.00e+00	0	43	0	1078984704	8	3751
2026-01-29 14:27:04.94	152.27	22.91	-23.6	-24.2	17.0	0.00e+00	0	43	0	1086324736	8	3837
2026-01-29 14:27:05.95	152.25	23.06	-23.5	-23.9	17.2	0.00e+00	0	43	0	1093664768	8	3764
2026-01-29 14:27:06.95	152.22	23.21	-23.3	-24.0	17.3	0.00e+00	0	43	0	1101004800	7	3891
2026-01-29 14:27:07.95	152.20	23.36	-23.3	-23.9	17.4	0.00e+00	0	43	0	1108344832	7	3875
2026-01-29 14:27:08.95	152.18	23.51	-23.1	-23.6	17.5	0.00e+00	0	43	0	1114636288	7	3807
2026-01-29 14:27:09.95	152.15	23.66	-23.2	-23.8	17.4	0.00e+00	0	43	0	1121976320	7	3849
2026-01-29 14:27:10.96	152.13	23.81	-23.0	-23.4	17.7	0.00e+00	0	43	0	1130364928	7	3760
2026-01-29 14:27:11.97	152.10	23.96	-23.0	-23.4	17.6	0.00e+00	0	43	0	1136656384	7	3769
2026-01-29 14:27:12.97	152.08	24.12	-23.1	-23.6	17.6	0.00e+00	0	43	0	1143996416	7	3805
2026-01-29 14:27:13.98	152.05	24.27	-22.9	-23.2	17.8	0.00e+00	0	43	0	1151336448	7	3707
2026-01-29 14:27:14.98	152.03	24.43	-23.1	-23.5	17.6	0.00e+00	0	43	0	1158676480	7	3770
2026-01-29 14:27:15.98	152.00	24.59	-23.0	-23.3	17.7	0.00e+00	0	43	0	1166016512	7	3743
2026-01-29 14:27:16.98	151.97	24.74	-22.8	-23.4	17.9	0.00e+00	0	43	0	1173356544	6	3863
2026-01-29 14:27:17.98	151.95	24.90	-22.8	-23.5	17.9	0.00e+00	0	43	0	1180696576	6	3879
2026-01-29 14:27:18.98	151.92	25.06	-22.9	-23.6	17.8	0.00e+00	0	43	0	1188036608	6	3917
2026-01-29 14:27:19.99	151.89	25.22	-22.8	-23.4	17.9	0.00e+00	0	43	0	1195376640	6	3867
2026-01-29 14:27:20.99	151.87	25.38	-23.2	-23.6	18.5	0.00e+00	0	43	0	1201668096	6	3779
2026-01-29 14:27:21.99	151.84	25.55	-23.3	-23.9	18.4	0.00e+00	0	43	0	1209008128	6	3835
2026-01-29 14:27:23.00	151.81	25.71	-23.2	-23.6	18.5	0.00e+00	0	43	0	1216348160	6	3778
2026-01-29 14:27:24.00	151.78	25.88	-23.1	-23.4	18.6	0.00e+00	0	43	0	1223688192	6	3734
2026-01-29 14:27:25.00	151.75	26.04	-23.4	-24.0	18.3	0.00e+00	0	43	0	1231028224	6	3872
2026-01-29 14:27:26.01	151.72	26.21	-23.2	-23.6	18.6	0.00e+00	0	43	0	1238368256	6	3767
2026-01-29 14:27:27.01	151.69	26.38	-23.1	-23.4	18.7	0.00e+00	0	43	0	1245708288	6	3726
2026-01-29 14:27:28.01	151.67	26.54	-23.1	-23.4	18.7	0.00e+00	0	43	0	1253048320	6	3737
2026-01-29 14:27:29.01	151.64	26.71	-23.3	-23.8	18.5	0.00e+00	0	43	0	1260388352	6	3817
2026-01-29 14:27:30.02	151.60	26.89	-23.2	-23.6	18.6	0.00e+00	0	43	0	1267728384	6	3765
2026-01-29 14:27:31.01	151.57	27.05	-23.1	-23.4	18.7	0.00e+00	0	43	0	1275068416	6	3729
2026-01-29 14:27:32.02	151.54	27.23	-23.1	-23.5	18.7	0.00e+00	0	43	0	1282408448	6	3744
2026-01-29 14:27:33.03	151.51	27.40	-23.1	-23.5	18.7	0.00e+00	0	43	0	1288699904	6	3746
2026-01-29 14:27:34.03	151.48	27.58	-23.1	-23.4	18.7	0.00e+00	0	43	0	1296039936	6	3723
2026-01-29 14:27:35.02	151.45	27.75	-23.1	-23.3	18.8	0.00e+00	0	43	0	1303379968	6	3706
2026-01-29 14:27:36.03	151.41	27.93	-23.3	-23.9	18.5	0.00e+00	0	43	0	1310720000	6	3834
2026-01-29 14:27:37.03	151.38	28.11	-23.1	-23.5	18.7	0.00e+00	0	43	0	1318060032	6	3740
2026-01-29 14:27:38.04	151.35	28.29	-23.0	-23.2	18.8	0.00e+00	0	43	0	1325400064	6	3686
2026-01-29 14:27:39.04	151.31	28.47	-23.1	-23.4	18.7	0.00e+00	0	43	0	1332740096	6	3723
2026-01-29 14:27:40.05	151.28	28.65	-23.1	-23.4	18.8	0.00e+00	0	43	0	1340080128	6	3717
2026-01-29 14:27:41.06	151.25	28.84	-23.1	-23.4	18.8	0.00e+00	0	43	0	1346371584	6	3736
2026-01-29 14:27:42.06	151.21	29.02	-23.3	-23.7	18.6	0.00e+00	0	43	0	1353711616	6	3808
2026-01-29 14:27:43.06	151.17	29.21	-23.1	-23.4	18.8	0.00e+00	0	43	0	1362100224	6	3722
2026-01-29 14:27:44.07	151.14	29.40	-23.0	-23.1	18.9	0.00e+00	0	43	0	1368391680	6	3662
2026-01-29 14:27:45.07	151.10	29.58	-23.0	-23.2	18.8	0.00e+00	0	43	0	1375731712	6	3692
2026-01-29 14:27:46.08	151.06	29.77	-23.1	-23.3	18.8	0.00e+00	0	43	0	1383071744	6	3711
2026-01-29 14:27:47.09	151.03	29.97	-23.2	-23.7	18.6	0.00e+00	0	43	0	1390411776	6	3789
2026-01-29 14:27:48.09	150.99	30.16	-23.1	-23.5	18.7	0.00e+00	0	43	0	1397751808	6	3749
2026-01-29 14:27:49.10	150.95	30.35	-23.2	-23.6	18.6	0.00e+00	0	43	0	1405091840	6	3775
2026-01-29 14:27:50.10	150.91	30.55	-23.2	-23.6	18.6	0.00e+00	0	43	0	1412431872	6	3763
2026-01-29 14:27:51.11	150.87	30.74	-23.2	-23.6	18.7	0.00e+00	0	43	0	1419771904	6	3772
2026-01-29 14:27:52.11	150.83	30.94	-23.3	-23.7	18.6	0.00e+00	0	43	0	1427111936	6	3806
2026-01-29 14:27:53.11	150.79	31.14	-23.4	-24.0	18.5	0.00e+00	0	43	0	1433403392	6	3867
2026-01-29 14:27:54.12	150.75	31.34	-23.4	-24.0	18.5	0.00e+00	0	43	0	1441792000	6	3861
2026-01-29 14:27:55.11	150.71	31.54	-23.4	-23.9	18.6	0.00e+00	0	43	0	1449132032	6	3847
2026-01-29 14:27:56.12	150.67	31.74	-23.3	-23.8	18.6	0.00e+00	0	43	0	1455423488	6	3825
2026-01-29 14:27:57.12	150.62	31.94	-23.4	-24.0	18.5	0.00e+00	0	43	0	1462763520	6	3854
2026-01-29 14:27:58.12	150.58	32.15	-23.4	-24.1	18.4	0.00e+00	0	43	0	1470103552	6	3890
2026-01-29 14:27:59.12	150.54	32.35	-23.3	-23.9	18.6	0.00e+00	0	43	0	1477443584	6	3831
2026-01-29 14:28:00.13	150.49	32.56	-23.3	-23.8	18.6	0.00e+00	0	43	0	1484783616	6	3811
2026-01-29 14:28:01.13	150.45	32.77	-23.3	-23.9	18.6	0.00e+00	0	43	0	1492123648	6	3837
2026-01-29 14:28:02.14	150.40	32.98	-23.4	-24.0	18.6	0.00e+00	0	43	0	1499463680	6	3864
2026-01-29 14:28:03.15	150.36	33.20	-23.3	-23.7	18.7	0.00e+00	0	43	0	1506803712	6	3801
2026-01-29 14:28:04.15	150.31	33.41	-23.3	-23.9	18.6	0.00e+00	0	43	0	1514143744	6	3828
2026-01-29 14:28:05.15	150.26	33.63	-23.5	-24.2	18.5	0.00e+00	0	43	0	1520435200	6	3905
2026-01-29 14:28:06.15	150.21	33.84	-23.4	-23.9	18.6	0.00e+00	0	43	0	1527775232	6	3852
2026-01-29 14:28:07.16	150.16	34.06	-23.2	-23.7	18.7	0.00e+00	0	43	0	1535115264	6	3795
2026-01-29 14:28:08.16	150.11	34.28	-23.2	-23.7	18.7	0.00e+00	0	43	0	1542455296	6	3795
2026-01-29 14:28:09.17	150.06	34.50	-23.2	-23.6	18.8	0.00e+00	0	43	0	1549795328	6	3775
2026-01-29 14:28:10.18	150.01	34.73	-23.2	-23.6	18.7	0.00e+00	0	43	0	1557135360	6	3782
2026-01-29 14:28:11.18	149.96	34.95	-23.4	-24.0	18.6	0.00e+00	0	43	0	1564475392	6	3861
2026-01-29 14:28:12.19	149.91	35.18	-23.2	-23.6	18.8	0.00e+00	0	43	0	1571815424	6	3780
2026-01-29 14:28:13.19	149.85	35.41	-23.1	-23.3	18.9	0.00e+00	0	43	0	1579155456	6	3708
2026-01-29 14:28:14.19	149.80	35.64	-23.1	-23.3	18.9	0.00e+00	0	43	0	1586495488	6	3705
2026-01-29 14:28:15.19	149.74	35.87	-23.2	-23.6	18.8	0.00e+00	0	43	0	1593835520	6	3778
2026-01-29 14:28:16.20	149.69	36.10	-23.2	-23.7	18.8	0.00e+00	0	43	0	1600126976	6	3784
2026-01-29 14:28:17.19	149.63	36.33	-23.1	-23.5	18.9	0.00e+00	0	43	0	1607467008	6	3738
2026-01-29 14:28:18.20	149.57	36.57	-23.2	-23.7	18.7	0.00e+00	0	43	0	1614807040	6	3784
2026-01-29 14:28:19.20	149.52	36.81	-23.5	-24.1	18.5	0.00e+00	0	43	0	1622147072	6	3895
2026-01-29 14:28:20.20	149.46	37.04	-23.3	-23.8	18.7	0.00e+00	0	43	0	1629487104	6	3823
2026-01-29 14:28:21.21	149.40	37.29	-23.2	-23.7	18.7	0.00e+00	0	43	0	1636827136	6	3785
2026-01-29 14:28:22.21	149.33	37.53	-23.4	-24.0	18.6	0.00e+00	0	43	0	1644167168	6	3852
2026-01-29 14:28:23.22	149.27	37.78	-23.3	-23.8	18.7	0.00e+00	0	43	0	1651507200	6	3823
2026-01-29 14:28:24.22	149.21	38.02	-23.4	-24.0	18.6	0.00e+00	0	43	0	1658847232	6	3864
2026-01-29 14:28:25.22	149.14	38.27	-23.6	-24.4	18.4	0.00e+00	0	43	0	1666187264	6	3959
2026-01-29 14:28:26.23	149.08	38.52	-23.3	-23.9	18.7	0.00e+00	0	43	0	1673527296	6	3829
2026-01-29 14:28:27.23	149.01	38.77	-23.7	-24.2	18.3	0.00e+00	0	43	0	1680867328	7	3803
2026-01-29 14:28:28.24	148.94	39.03	-23.9	-24.5	18.1	0.00e+00	0	43	0	1687158784	7	3869
2026-01-29 14:28:29.25	148.87	39.28	-23.6	-23.8	18.4	0.00e+00	0	43	0	1694498816	7	3717
2026-01-29 14:28:30.25	148.81	39.54	-23.5	-23.7	18.5	0.00e+00	0	43	0	1701838848	7	3685
2026-01-29 14:28:31.25	148.73	39.80	-23.5	-23.6	18.6	0.00e+00	0	43	0	1709178880	7	3676
2026-01-29 14:28:32.25	148.66	40.06	-23.5	-23.8	18.5	0.00e+00	0	43	0	1716518912	7	3704
2026-01-29 14:28:33.26	148.59	40.32	-23.6	-24.0	18.3	0.00e+00	0	43	0	1723858944	7	3765
2026-01-29 14:28:34.26	148.51	40.59	-23.7	-24.1	18.3	0.00e+00	0	43	0	1731198976	7	3776
2026-01-29 14:28:35.27	148.44	40.85	-23.5	-23.6	18.6	0.00e+00	0	43	0	1738539008	7	3671
2026-01-29 14:28:36.27	148.36	41.12	-23.4	-23.5	18.6	0.00e+00	0	43	0	1745879040	7	3642
2026-01-29 14:28:37.28	148.28	41.39	-23.3	-23.3	18.7	0.00e+00	0	43	0	1753219072	7	3605
2026-01-29 14:28:38.28	148.20	41.67	-23.4	-23.6	18.6	0.00e+00	0	43	0	1760559104	7	3662
2026-01-29 14:28:39.29	148.12	41.94	-23.4	-23.5	18.6	0.00e+00	0	43	0	1766850560	7	3649
2026-01-29 14:28:40.29	148.04	42.22	-23.0	-22.7	19.0	0.00e+00	0	43	0	1774190592	7	3471
2026-01-29 14:28:41.29	147.95	42.50	-23.0	-22.6	19.1	0.00e+00	0	43	0	1781530624	7	3455
2026-01-29 14:28:42.30	147.87	42.78	-23.2	-23.0	18.9	0.00e+00	0	43	0	1788870656	7	3533
2026-01-29 14:28:43.30	147.78	43.06	-23.4	-23.6	18.6	0.00e+00	0	43	0	1796210688	7	3659
2026-01-29 14:28:44.30	147.69	43.34	-23.4	-23.6	18.6	0.00e+00	0	43	0	1803550720	7	3656
2026-01-29 14:28:45.31	147.60	43.63	-23.6	-23.9	18.5	0.00e+00	0	43	0	1810890752	7	3731
2026-01-29 14:28:46.31	147.51	43.92	-23.6	-24.0	18.4	0.00e+00	0	43	0	1818230784	7	3748
2026-01-29 14:28:47.31	147.41	44.21	-23.8	-24.4	18.2	0.00e+00	0	43	0	1825570816	7	3860
2026-01-29 14:28:48.31	147.32	44.50	-23.9	-24.5	18.1	0.00e+00	0	43	0	1831862272	7	3880
2026-01-29 14:28:49.31	147.22	44.79	-24.2	-24.8	17.8	0.00e+00	0	43	0	1839202304	8	3825
2026-01-29 14:28:50.32	147.12	45.09	-24.2	-24.8	17.8	0.00e+00	0	43	0	1847590912	8	3830
2026-01-29 14:28:51.32	147.02	45.39	-24.0	-24.3	18.0	0.00e+00	0	43	0	1853882368	8	3723
2026-01-29 14:28:52.32	146.92	45.69	-23.8	-23.9	18.2	0.00e+00	0	43	0	1861222400	8	3641
2026-01-29 14:28:53.33	146.81	46.00	-23.8	-24.0	17.2	2.84e-03	0	43	0	1868562432	8	3657
2026-01-29 14:28:54.33	146.70	46.30	-24.1	-24.4	17.1	2.27e-03	0	43	0	1875902464	8	3763
2026-01-29 14:28:55.34	146.59	46.61	-23.9	-24.1	17.4	8.49e-04	0	43	0	1883242496	8	3692
2026-01-29 14:28:56.35	146.48	46.92	-24.0	-24.3	17.5	1.14e-04	0	43	0	1890582528	8	3724
2026-01-29 14:28:57.35	146.36	47.23	-24.1	-24.5	17.3	3.44e-04	0	43	0	1897922560	8	3781
2026-01-29 14:28:58.35	146.25	47.55	-24.2	-24.7	17.2	1.08e-03	0	43	0	1905262592	8	3818
2026-01-29 14:28:59.36	146.13	47.87	-24.5	-24.8	16.7	4.98e-03	0	43	0	1912602624	9	3739
2026-01-29 14:29:00.36	146.01	48.18	-24.6	-25.2	16.4	2.06e-03	0	43	0	1919942656	9	3821
2026-01-29 14:29:01.37	145.88	48.51	-24.8	-25.6	16.1	7.00e-03	0	43	0	1927282688	9	3922
2026-01-29 14:29:02.37	145.75	48.83	-24.7	-25.4	16.3	4.95e-03	0	43	0	1934622720	9	3869
2026-01-29 14:29:03.38	145.62	49.16	-24.8	-25.4	17.2	1.31e-03	0	43	0	1940914176	9	3874
2026-01-29 14:29:04.37	145.49	49.48	-24.9	-25.7	17.1	0.00e+00	0	43	0	1948254208	9	3932
2026-01-29 14:29:05.38	145.35	49.81	-24.5	-24.8	17.6	0.00e+00	0	43	0	1955594240	9	3718
2026-01-29 14:29:06.39	145.22	50.15	-24.6	-24.9	17.5	0.00e+00	0	43	0	1962934272	9	3755
2026-01-29 14:29:07.39	145.07	50.48	-24.6	-24.9	17.5	0.00e+00	0	43	0	1970274304	9	3756
2026-01-29 14:29:08.39	144.93	50.81	-24.5	-24.7	17.6	0.00e+00	0	43	0	1977614336	9	3711
2026-01-29 14:29:09.40	144.78	51.16	-24.3	-24.4	17.7	0.00e+00	0	43	0	1984954368	9	3641
2026-01-29 14:29:10.40	144.63	51.50	-24.3	-24.5	17.8	0.00e+00	0	43	0	1992294400	9	3653
2026-01-29 14:29:11.41	144.47	51.84	-24.3	-24.5	17.8	0.00e+00	0	43	0	1998585856	9	3660
2026-01-29 14:29:12.41	144.31	52.19	-24.5	-24.8	17.6	0.00e+00	0	43	0	2005925888	9	3730
2026-01-29 14:29:13.41	144.15	52.53	-24.7	-25.2	17.3	0.00e+00	0	43	0	2013265920	9	3833
2026-01-29 14:29:14.41	143.98	52.88	-24.8	-25.5	17.2	0.00e+00	0	43	0	2020605952	9	3899
2026-01-29 14:29:15.41	143.81	53.23	-25.1	-25.5	17.0	0.00e+00	0	43	0	2027945984	10	3795
2026-01-29 14:29:16.42	143.63	53.59	-25.1	-25.6	17.0	0.00e+00	0	43	0	2035286016	10	3804
2026-01-29 14:29:17.43	143.45	53.95	-25.1	-25.7	16.9	0.00e+00	0	43	0	2042626048	10	3829
2026-01-29 14:29:18.43	143.27	54.30	-25.1	-25.5	17.0	0.00e+00	0	43	0	2049966080	10	3792
2026-01-29 14:29:19.43	143.08	54.66	-25.3	-26.1	16.7	0.00e+00	0	43	0	2057306112	10	3917
2026-01-29 14:29:20.43	142.89	55.03	-25.3	-25.4	16.8	0.00e+00	0	43	0	2064646144	11	3665
2026-01-29 14:29:21.43	142.69	55.39	-24.8	-25.0	17.3	0.00e+00	0	43	0	2071986176	10	3664
2026-01-29 14:29:22.42	142.48	55.75	-24.9	-25.2	17.1	0.00e+00	0	43	0	2079326208	10	3727
2026-01-29 14:29:23.42	142.27	56.12	-25.4	-26.2	16.7	0.00e+00	0	43	0	2085617664	10	3944
2026-01-29 14:29:24.42	142.06	56.49	-25.3	-25.4	16.7	0.00e+00	0	43	0	2092957696	11	3673
2026-01-29 14:29:25.42	141.84	56.86	-25.3	-25.5	16.7	0.00e+00	0	43	0	2100297728	11	3691
2026-01-29 14:29:26.42	141.61	57.24	-25.1	-25.1	16.9	0.00e+00	0	43	0	2107637760	11	3591
2026-01-29 14:29:27.43	141.37	57.62	-24.8	-25.0	17.3	0.00e+00	0	43	0	2114977792	10	3659
2026-01-29 14:29:28.43	141.13	58.00	-24.8	-25.0	17.3	0.00e+00	0	43	0	2122317824	10	3659
2026-01-29 14:29:29.43	140.89	58.38	-24.8	-25.0	17.3	0.00e+00	0	43	0	2129657856	10	3670
2026-01-29 14:29:30.42	140.63	58.75	-25.2	-25.7	16.9	0.00e+00	0	43	0	2136997888	10	3835
2026-01-29 14:29:31.43	140.37	59.14	-25.0	-25.5	17.0	0.00e+00	0	43	0	2144337920	10	3779
2026-01-29 14:29:32.43	140.10	59.53	-24.9	-25.2	17.2	0.00e+00	0	43	0	2150629376	10	3729
2026-01-29 14:29:33.43	139.82	59.92	-24.9	-25.2	17.2	0.00e+00	0	43	0	2157969408	10	3713
2026-01-29 14:29:34.44	139.53	60.31	-25.0	-25.4	17.1	0.00e+00	0	43	0	2165309440	10	3757
2026-01-29 14:29:35.45	139.23	60.70	-24.5	-24.8	17.7	0.00e+00	0	43	0	2172649472	9	3736
2026-01-29 14:29:36.45	138.92	61.10	-24.6	-24.9	17.6	0.00e+00	0	43	0	2179989504	9	3763
2026-01-29 14:29:37.45	138.61	61.49	-24.3	-24.5	17.8	0.00e+00	0	43	0	2187329536	9	3654
2026-01-29 14:29:38.45	138.28	61.89	-24.1	-24.0	18.0	0.00e+00	0	43	0	2194669568	9	3560
2026-01-29 14:29:39.46	137.94	62.29	-24.2	-24.1	18.0	0.00e+00	0	43	0	2202009600	9	3580
2026-01-29 14:29:40.46	137.59	62.69	-24.0	-24.3	18.1	0.00e+00	0	43	0	2208301056	8	3707
2026-01-29 14:29:41.47	137.23	63.09	-23.8	-23.9	18.4	0.00e+00	0	43	0	2216689664	8	3624
2026-01-29 14:29:42.47	136.85	63.49	-23.9	-24.1	18.3	0.00e+00	0	43	0	2224029696	8	3663
2026-01-29 14:29:43.47	136.47	63.90	-24.2	-24.6	18.0	0.00e+00	0	43	0	2230321152	8	3786
2026-01-29 14:29:44.48	136.06	64.31	-23.9	-24.1	18.3	0.00e+00	0	43	0	2237661184	8	3671
2026-01-29 14:29:45.48	135.65	64.71	-23.3	-23.2	18.8	0.00e+00	0	43	0	2245001216	7	3586
2026-01-29 14:29:46.49	135.22	65.12	-22.8	-23.1	19.4	0.00e+00	0	43	0	2252341248	5	3769
2026-01-29 14:29:47.49	134.77	65.53	-22.6	-22.9	19.5	0.00e+00	0	43	0	2259681280	5	3703
2026-01-29 14:29:48.49	134.31	65.93	-22.9	-23.5	19.2	0.00e+00	0	43	0	2267021312	5	3857
2026-01-29 14:29:49.49	133.83	66.34	-23.3	-23.8	18.9	0.00e+00	0	43	0	2274361344	6	3800
2026-01-29 14:29:50.49	133.33	66.75	-23.3	-23.8	18.9	0.00e+00	0	43	0	2281701376	6	3813
2026-01-29 14:29:51.50	132.80	67.16	-23.2	-23.6	19.0	0.00e+00	0	43	0	2289041408	6	3772
2026-01-29 14:29:52.50	132.26	67.57	-23.0	-23.2	19.2	0.00e+00	0	43	0	2295332864	6	3666
2026-01-29 14:29:53.51	131.70	67.99	-23.1	-23.4	19.1	0.00e+00	0	43	0	2302672896	6	3708
2026-01-29 14:29:54.51	131.11	68.40	-23.3	-23.8	18.9	0.00e+00	0	43	0	2310012928	6	3818
2026-01-29 14:29:55.51	130.50	68.80	-23.4	-23.4	18.9	0.00e+00	0	43	0	2317352960	7	3622
2026-01-29 14:29:56.52	129.86	69.22	-24.3	-24.9	17.9	0.00e+00	0	43	0	2324692992	8	3854
2026-01-29 14:29:57.52	129.20	69.62	-24.2	-24.7	18.0	0.00e+00	0	43	0	2332033024	8	3802
2026-01-29 14:29:58.53	128.50	70.03	-24.2	-24.6	18.0	0.00e+00	0	43	0	2339373056	8	3795
2026-01-29 14:29:59.53	127.77	70.44	-24.3	-24.9	17.9	0.00e+00	0	43	0	2346713088	8	3866
2026-01-29 14:30:00.54	127.01	70.85	-24.2	-24.6	18.0	0.00e+00	0	43	0	2354053120	8	3786
2026-01-29 14:30:01.54	126.22	71.25	-24.1	-24.4	18.0	0.00e+00	0	43	0	2361393152	8	3746
2026-01-29 14:30:02.54	125.39	71.65	-23.9	-23.9	18.4	0.00e+00	0	43	0	2368733184	8	3634
2026-01-29 14:30:03.55	124.51	72.05	-23.8	-23.8	18.5	0.00e+00	0	43	0	2375024640	8	3607
2026-01-29 14:30:04.55	123.60	72.45	-24.1	-24.4	18.2	0.00e+00	0	43	0	2382364672	8	3745
2026-01-29 14:30:05.55	122.65	72.84	-24.2	-24.6	18.1	0.00e+00	0	43	0	2389704704	8	3786
2026-01-29 14:30:06.55	121.64	73.23	-23.5	-23.7	18.6	0.00e+00	0	43	0	2397044736	7	3693
2026-01-29 14:30:07.55	120.59	73.61	-23.1	-22.8	19.2	0.00e+00	0	43	0	2404384768	7	3489
2026-01-29 14:30:08.56	119.48	73.99	-23.0	-22.6	19.3	0.00e+00	0	43	0	2411724800	7	3447
2026-01-29 14:30:09.57	118.31	74.37	-23.1	-23.4	19.2	0.00e+00	0	43	0	2419064832	6	3712
2026-01-29 14:30:10.56	117.10	74.74	-23.4	-23.9	18.9	0.00e+00	0	43	0	2426404864	6	3834
2026-01-29 14:30:11.57	115.80	75.11	-23.1	-23.4	19.2	0.00e+00	0	43	0	2433744896	6	3732
2026-01-29 14:30:12.57	114.45	75.46	-22.7	-22.5	19.6	0.00e+00	0	43	0	2441084928	6	3524
2026-01-29 14:30:13.57	113.03	75.81	-22.3	-22.1	20.0	0.00e+00	0	43	0	2448424960	5	3549
2026-01-29 14:30:14.57	111.54	76.16	-22.1	-21.9	20.2	0.00e+00	0	43	0	2455764992	5	3488
2026-01-29 14:30:15.57	109.97	76.49	-22.3	-22.3	20.0	0.00e+00	0	43	0	2462056448	5	3581
2026-01-29 14:30:16.58	108.30	76.82	-22.3	-22.3	20.0	0.00e+00	0	43	0	2469396480	5	3578
2026-01-29 14:30:17.59	106.55	77.13	-22.3	-22.3	20.1	0.00e+00	0	43	0	2476736512	5	3574
2026-01-29 14:30:18.59	104.73	77.43	-22.5	-22.6	19.9	0.00e+00	0	43	0	2484076544	5	3653
2026-01-29 14:30:19.60	102.79	77.73	-22.2	-22.0	20.2	0.00e+00	0	43	0	2491416576	5	3523
2026-01-29 14:30:20.61	100.76	78.00	-21.9	-21.5	20.5	0.00e+00	0	43	0	2498756608	5	3409
2026-01-29 14:30:21.60	98.68	78.26	-21.7	-21.5	20.6	0.00e+00	0	43	0	2506096640	4	3519
2026-01-29 14:30:22.61	96.46	78.51	-22.0	-22.0	20.4	0.00e+00	0	43	0	2513436672	4	3627
2026-01-29 14:30:23.61	94.17	78.74	-22.1	-22.3	20.3	0.00e+00	0	43	0	2520776704	4	3675
2026-01-29 14:30:24.62	91.76	78.95	-22.2	-22.5	20.2	0.00e+00	0	43	0	2528116736	4	3716
2026-01-29 14:30:25.62	89.29	79.14	-21.9	-22.0	20.5	0.00e+00	0	43	0	2535456768	4	3608
2026-01-29 14:30:26.63	86.70	79.31	-21.8	-21.6	20.6	0.00e+00	0	43	0	2542796800	4	3540
2026-01-29 14:30:27.63	84.06	79.46	-21.8	-21.6	20.7	0.00e+00	0	43	0	2549088256	4	3519
2026-01-29 14:30:28.63	81.35	79.58	-22.2	-22.5	20.2	0.00e+00	0	43	0	2556428288	4	3724
2026-01-29 14:30:29.63	78.58	79.68	-22.1	-22.3	20.3	0.00e+00	0	43	0	2563768320	4	3688
2026-01-29 14:30:30.63	75.76	79.76	-21.8	-21.8	20.5	0.00e+00	0	43	0	2571108352	4	3568
2026-01-29 14:30:31.64	72.88	79.81	-21.7	-21.4	20.7	0.00e+00	0	43	0	2578448384	4	3493
2026-01-29 14:30:32.65	69.97	79.84	-21.5	-21.0	20.9	0.00e+00	0	43	0	2585788416	4	3406
2026-01-29 14:30:33.65	67.08	79.84	-21.6	-21.3	20.7	0.00e+00	0	43	0	2593128448	4	3478
2026-01-29 14:30:34.65	64.20	79.82	-21.6	-21.3	20.7	0.00e+00	0	43	0	2600468480	4	3480
2026-01-29 14:30:35.65	61.34	79.77	-21.9	-22.0	20.4	0.00e+00	0	43	0	2606759936	4	3617
2026-01-29 14:30:36.66	58.48	79.69	-22.2	-22.5	20.1	0.00e+00	0	43	0	2614099968	4	3749
2026-01-29 14:30:37.66	55.70	79.60	-22.0	-22.0	20.4	0.00e+00	0	43	0	2621440000	4	3624
2026-01-29 14:30:38.67	52.96	79.47	-21.7	-21.5	20.7	0.00e+00	0	43	0	2628780032	4	3511
2026-01-29 14:30:39.67	50.31	79.33	-22.0	-22.1	20.4	0.00e+00	0	43	0	2636120064	4	3645
2026-01-29 14:30:40.68	47.71	79.16	-22.2	-22.6	20.2	0.00e+00	0	43	0	2643460096	4	3744
2026-01-29 14:30:41.68	45.23	78.97	-22.4	-23.0	20.0	0.00e+00	0	43	0	2650800128	4	3830
2026-01-29 14:30:42.69	42.81	78.77	-22.3	-22.8	20.1	0.00e+00	0	43	0	2658140160	4	3788
2026-01-29 14:30:43.69	40.50	78.54	-23.0	-23.6	19.4	0.00e+00	0	43	0	2665480192	5	3879
2026-01-29 14:30:44.69	38.29	78.30	-22.9	-22.9	19.5	0.00e+00	0	43	0	2672820224	6	3602
2026-01-29 14:30:45.70	36.16	78.04	-22.7	-22.5	19.7	0.00e+00	0	43	0	2680160256	6	3523
2026-01-29 14:30:46.71	34.12	77.76	-22.4	-21.8	20.0	0.00e+00	0	43	0	2687500288	6	3378
2026-01-29 14:30:47.71	32.19	77.48	-22.0	-21.5	20.4	0.00e+00	0	43	0	2694840320	5	3411
2026-01-29 14:30:48.71	30.36	77.18	-21.9	-21.8	20.4	0.00e+00	0	43	0	2701131776	4	3581
2026-01-29 14:30:49.72	28.59	76.86	-21.9	-22.0	20.4	0.00e+00	0	43	0	2709520384	4	3601
2026-01-29 14:30:50.73	26.91	76.54	-22.4	-22.8	20.0	1.10e-06	0	43	0	2715811840	4	3796
2026-01-29 14:30:51.73	25.33	76.21	-22.5	-23.0	19.9	0.00e+00	0	43	0	2723151872	4	3840
2026-01-29 14:30:52.74	23.82	75.86	-22.5	-23.0	19.9	0.00e+00	0	43	0	2730491904	4	3844
2026-01-29 14:30:53.73	22.40	75.52	-22.9	-23.4	19.4	0.00e+00	0	43	0	2737831936	5	3824
2026-01-29 14:30:54.74	21.03	75.16	-23.2	-23.5	19.2	0.00e+00	0	43	0	2745171968	6	3735
2026-01-29 14:30:55.74	19.74	74.79	-23.2	-23.6	19.1	0.00e+00	0	43	0	2752512000	6	3764
2026-01-29 14:30:56.73	18.53	74.43	-23.5	-24.1	18.9	0.00e+00	0	43	0	2759852032	6	3872
2026-01-29 14:30:57.73	17.36	74.05	-23.5	-24.1	18.9	0.00e+00	0	43	0	2767192064	6	3886
2026-01-29 14:30:58.74	16.24	73.67	-23.9	-24.5	18.5	0.00e+00	0	43	0	2774532096	7	3857
2026-01-29 14:30:59.74	15.18	73.29	-23.6	-24.0	18.7	0.00e+00	0	43	0	2780823552	7	3745
2026-01-29 14:31:00.74	14.17	72.90	-23.3	-23.3	19.0	0.00e+00	0	43	0	2788163584	7	3600
2026-01-29 14:31:01.75	13.20	72.51	-23.3	-23.3	19.0	0.00e+00	0	43	0	2795503616	7	3597
2026-01-29 14:31:02.75	12.29	72.11	-23.6	-23.9	18.6	0.00e+00	0	43	0	2802843648	7	3726
2026-01-29 14:31:03.76	11.41	71.71	-23.7	-24.1	18.6	0.00e+00	0	43	0	2810183680	7	3771
2026-01-29 14:31:04.76	10.57	71.31	-23.9	-24.5	18.4	0.00e+00	0	43	0	2817523712	7	3876
2026-01-29 14:31:05.77	9.77	70.91	-23.7	-24.1	18.5	0.00e+00	0	43	0	2824863744	7	3770
2026-01-29 14:31:06.77	9.01	70.50	-23.4	-23.6	18.9	0.00e+00	0	43	0	2832203776	7	3651
2026-01-29 14:31:07.77	8.28	70.10	-23.2	-23.1	19.1	0.00e+00	0	43	0	2839543808	7	3545
2026-01-29 14:31:08.77	7.58	69.70	-23.4	-23.4	18.9	0.00e+00	0	43	0	2846883840	7	3618
2026-01-29 14:31:09.76	6.92	69.29	-23.2	-23.0	19.1	0.00e+00	0	43	0	2853175296	7	3532
2026-01-29 14:31:10.76	6.28	68.89	-23.6	-24.0	18.6	0.00e+00	0	43	0	2860515328	7	3750
2026-01-29 14:31:11.76	5.67	68.48	-23.6	-23.9	18.6	0.00e+00	0	43	0	2867855360	7	3727
2026-01-29 14:31:12.76	5.08	68.07	-23.1	-22.8	19.2	0.00e+00	0	43	0	2875195392	7	3487
2026-01-29 14:31:13.75	4.52	67.67	-22.6	-22.4	19.7	0.00e+00	0	43	0	2882535424	6	3501
2026-01-29 14:31:14.76	3.97	67.25	-22.6	-22.2	19.7	0.00e+00	0	43	0	2889875456	6	3466
2026-01-29 14:31:15.76	3.45	66.85	-22.7	-22.5	19.6	0.00e+00	0	43	0	2897215488	6	3513
2026-01-29 14:31:16.76	2.95	66.44	-23.3	-23.8	18.9	0.00e+00	0	43	0	2904555520	6	3808
2026-01-29 14:31:17.77	2.46	66.03	-23.4	-24.1	18.8	0.00e+00	0	43	0	2911895552	6	3883
2026-01-29 14:31:18.77	1.99	65.62	-23.6	-23.9	18.7	0.00e+00	0	43	0	2919235584	7	3721
2026-01-29 14:31:19.77	1.54	65.21	-23.8	-24.4	18.4	0.00e+00	0	43	0	2925527040	7	3837
2026-01-29 14:31:20.78	1.11	64.80	-23.6	-24.0	18.6	0.00e+00	0	43	0	2932867072	7	3740
2026-01-29 14:31:21.78	0.69	64.40	-23.5	-23.6	18.8	0.00e+00	0	43	0	2940207104	7	3667
2026-01-29 14:31:22.79	0.28	63.99	-23.7	-24.2	18.5	0.00e+00	0	43	0	2947547136	7	3787
2026-01-29 14:31:23.79	359.90	63.59	-24.1	-24.4	18.2	0.00e+00	0	43	0	2954887168	8	3749
2026-01-29 14:31:24.80	359.52	63.19	-24.2	-24.7	18.0	0.00e+00	0	43	0	2962227200	8	3817
2026-01-29 14:31:25.80	359.16	62.79	-24.3	-24.9	17.9	0.00e+00	0	43	0	2969567232	8	3853
2026-01-29 14:31:26.81	358.80	62.38	-24.5	-25.3	17.7	0.00e+00	0	43	0	2976907264	8	3956
2026-01-29 14:31:27.81	358.46	61.99	-24.6	-25.0	17.6	0.00e+00	0	43	0	2983198720	9	3768
2026-01-29 14:31:28.81	358.13	61.59	-24.6	-25.1	17.4	0.00e+00	0	43	0	2990538752	9	3794
2026-01-29 14:31:29.81	357.82	61.20	-24.5	-24.8	17.7	0.00e+00	0	43	0	2997878784	9	3737
2026-01-29 14:31:30.82	357.51	60.80	-24.5	-24.8	17.8	0.00e+00	0	43	0	3005218816	9	3714
2026-01-29 14:31:31.82	357.21	60.41	-24.5	-24.7	17.7	0.00e+00	0	43	0	3012558848	9	3703
2026-01-29 14:31:32.83	356.92	60.02	-25.1	-25.6	17.0	0.00e+00	0	43	0	3019898880	10	3806
2026-01-29 14:31:33.83	356.64	59.63	-25.0	-25.3	17.1	0.00e+00	0	43	0	3027238912	10	3745
2026-01-29 14:31:34.84	356.36	59.24	-25.0	-25.4	17.1	0.00e+00	0	43	0	3034578944	10	3755
2026-01-29 14:31:35.83	356.10	58.86	-25.1	-25.5	17.0	0.00e+00	0	43	0	3041918976	10	3772
2026-01-29 14:31:36.83	355.85	58.48	-24.8	-24.9	17.4	0.00e+00	0	43	0	3049259008	10	3643
2026-01-29 14:31:37.84	355.59	58.10	-24.6	-24.6	17.4	0.00e+00	0	43	0	3056599040	10	3574
2026-01-29 14:31:38.84	355.35	57.72	-25.0	-25.3	17.2	0.00e+00	0	43	0	3063939072	10	3732
2026-01-29 14:31:39.85	355.12	57.34	-24.9	-25.2	17.2	0.00e+00	0	43	0	3070230528	10	3712
2026-01-29 14:31:40.86	354.89	56.96	-25.0	-25.4	17.1	0.00e+00	0	43	0	3077570560	10	3750
2026-01-29 14:31:41.87	354.66	56.59	-24.8	-24.9	17.4	0.00e+00	0	43	0	3085959168	10	3642
2026-01-29 14:31:42.87	354.44	56.22	-24.6	-24.5	17.5	0.00e+00	0	43	0	3092250624	10	3561
2026-01-29 14:31:43.88	354.23	55.85	-24.8	-24.8	17.4	0.00e+00	0	43	0	3099590656	10	3635
2026-01-29 14:31:44.89	354.03	55.48	-24.8	-24.9	17.4	0.00e+00	0	43	0	3106930688	10	3634
2026-01-29 14:31:45.88	353.83	55.12	-24.8	-24.9	17.4	0.00e+00	0	43	0	3114270720	10	3650
2026-01-29 14:31:46.89	353.63	54.75	-24.7	-24.7	17.4	0.00e+00	0	43	0	3121610752	10	3608
2026-01-29 14:31:47.90	353.44	54.39	-24.6	-24.6	17.5	0.00e+00	0	43	0	3128950784	10	3578
2026-01-29 14:31:48.91	353.25	54.03	-24.8	-25.0	17.3	0.00e+00	0	43	0	3136290816	10	3656
2026-01-29 14:31:49.91	353.08	53.68	-24.6	-24.4	17.5	0.00e+00	0	43	0	3143630848	10	3548
2026-01-29 14:31:50.91	352.90	53.32	-24.4	-24.5	17.8	0.00e+00	0	43	0	3150970880	9	3666
2026-01-29 14:31:51.92	352.73	52.97	-24.5	-24.7	17.7	0.00e+00	0	43	0	3158310912	9	3708
2026-01-29 14:31:52.93	352.56	52.62	-24.6	-24.9	17.5	0.00e+00	0	43	0	3165650944	9	3746
2026-01-29 14:31:53.93	352.40	52.27	-24.7	-25.1	17.4	0.00e+00	0	43	0	3172990976	9	3802
2026-01-29 14:31:54.93	352.24	51.93	-24.9	-25.5	17.2	0.00e+00	0	43	0	3179282432	9	3898
2026-01-29 14:31:55.94	352.08	51.58	-24.9	-25.7	17.1	0.00e+00	0	43	0	3186622464	9	3936
2026-01-29 14:31:56.95	351.93	51.24	-24.9	-25.6	17.0	0.00e+00	0	43	0	3193962496	9	3917
2026-01-29 14:31:57.95	351.78	50.91	-24.9	-25.7	17.2	0.00e+00	0	43	0	3201302528	9	3935
2026-01-29 14:31:58.95	351.63	50.57	-24.9	-25.7	17.2	0.00e+00	0	43	0	3208642560	9	3927
2026-01-29 14:31:59.95	351.49	50.24	-24.6	-25.0	17.5	0.00e+00	0	43	0	3215982592	9	3760
2026-01-29 14:32:00.96	351.35	49.90	-24.5	-24.8	17.6	0.00e+00	0	43	0	3223322624	9	3715
2026-01-29 14:32:01.96	351.22	49.58	-24.7	-25.3	17.2	0.00e+00	0	43	0	3230662656	9	3853
2026-01-29 14:32:02.97	351.08	49.25	-24.6	-25.0	17.5	0.00e+00	0	43	0	3238002688	9	3762
2026-01-29 14:32:03.97	350.95	48.92	-25.0	-25.8	17.1	0.00e+00	0	43	0	3245342720	9	3948
2026-01-29 14:32:04.98	350.82	48.60	-24.7	-25.3	17.3	0.00e+00	0	43	0	3252682752	9	3841
2026-01-29 14:32:05.99	350.70	48.28	-24.7	-25.2	17.4	0.00e+00	0	43	0	3258974208	9	3816
2026-01-29 14:32:07.00	350.58	47.96	-24.6	-25.0	17.4	0.00e+00	0	43	0	3266314240	9	3782
2026-01-29 14:32:08.00	350.46	47.64	-24.8	-25.3	17.3	0.00e+00	0	43	0	3273654272	9	3851
2026-01-29 14:32:09.00	350.34	47.33	-24.5	-24.7	17.6	0.00e+00	0	43	0	3280994304	9	3713
2026-01-29 14:32:10.01	350.23	47.02	-24.0	-23.7	18.2	0.00e+00	0	43	0	3288334336	9	3486
2026-01-29 14:32:11.02	350.11	46.71	-23.7	-23.7	18.4	0.00e+00	0	43	0	3295674368	8	3573
2026-01-29 14:32:12.02	350.00	46.40	-23.7	-23.7	17.9	0.00e+00	0	43	0	3303014400	8	3571
2026-01-29 14:32:13.02	349.90	46.10	-23.9	-24.0	18.3	0.00e+00	0	43	0	3310354432	8	3640
2026-01-29 14:32:14.03	349.79	45.79	-23.6	-23.5	18.5	0.00e+00	0	43	0	3317694464	8	3537
2026-01-29 14:32:15.03	349.69	45.49	-23.6	-23.5	18.5	0.00e+00	0	43	0	3325034496	8	3536
2026-01-29 14:32:16.03	349.59	45.19	-23.7	-23.6	18.4	0.00e+00	0	43	0	3332374528	8	3572
2026-01-29 14:32:17.03	349.49	44.90	-23.7	-23.5	18.5	0.00e+00	0	43	0	3339714560	8	3539
2026-01-29 14:32:18.04	349.39	44.60	-24.1	-24.4	18.1	0.00e+00	0	43	0	3346006016	8	3730
2026-01-29 14:32:19.04	349.29	44.31	-23.6	-23.3	18.6	0.00e+00	0	43	0	3353346048	8	3497
2026-01-29 14:32:20.04	349.20	44.02	-23.1	-22.9	19.0	0.00e+00	0	43	0	3360686080	7	3516
2026-01-29 14:32:21.05	349.11	43.73	-22.9	-22.8	19.3	0.00e+00	0	43	0	3368026112	6	3593
2026-01-29 14:32:22.05	349.02	43.45	-22.8	-22.8	19.3	0.00e+00	0	43	0	3375366144	6	3586
2026-01-29 14:32:23.05	348.93	43.16	-22.9	-23.0	18.9	0.00e+00	0	43	0	3382706176	6	3626
2026-01-29 14:32:24.06	348.84	42.88	-22.9	-22.9	19.2	0.00e+00	0	43	0	3390046208	6	3616
2026-01-29 14:32:25.06	348.75	42.60	-23.0	-23.2	19.0	0.00e+00	0	43	0	3397386240	6	3681
2026-01-29 14:32:26.06	348.67	42.33	-23.1	-23.3	19.0	0.00e+00	0	43	0	3403677696	6	3704
2026-01-29 14:32:27.06	348.59	42.05	-23.2	-23.7	18.9	0.00e+00	0	43	0	3411017728	6	3776
2026-01-29 14:32:28.06	348.51	41.78	-23.2	-23.6	18.8	0.00e+00	0	43	0	3418357760	6	3771
2026-01-29 14:32:29.06	348.43	41.51	-23.4	-24.0	18.7	0.00e+00	0	43	0	3425697792	6	3857
2026-01-29 14:32:30.07	348.35	41.23	-23.6	-24.4	18.5	0.00e+00	0	43	0	3433037824	6	3946
2026-01-29 14:32:31.07	348.27	40.97	-23.8	-24.4	18.2	0.00e+00	0	43	0	3440377856	7	3837
2026-01-29 14:32:32.08	348.20	40.70	-23.8	-24.4	18.3	0.00e+00	0	43	0	3447717888	7	3835
2026-01-29 14:32:33.08	348.12	40.44	-23.8	-24.3	18.2	0.00e+00	0	43	0	3455057920	7	3828
2026-01-29 14:32:34.08	348.05	40.18	-24.0	-24.7	18.0	0.00e+00	0	43	0	3462397952	7	3911
2026-01-29 14:32:35.09	347.98	39.91	-23.9	-24.6	18.1	0.00e+00	0	43	0	3469737984	7	3891
2026-01-29 14:32:36.09	347.91	39.66	-23.9	-24.5	18.2	0.00e+00	0	43	0	3477078016	7	3877
2026-01-29 14:32:37.09	347.84	39.40	-23.8	-24.4	18.3	0.00e+00	0	43	0	3484418048	7	3841
2026-01-29 14:32:38.10	347.77	39.14	-23.9	-24.4	18.2	0.00e+00	0	43	0	3490709504	7	3853
2026-01-29 14:32:39.10	347.70	38.89	-24.0	-24.8	18.0	0.00e+00	0	43	0	3498049536	7	3928
2026-01-29 14:32:40.10	347.63	38.64	-23.7	-24.1	18.4	0.00e+00	0	43	0	3505389568	7	3773
2026-01-29 14:32:41.10	347.57	38.39	-23.6	-23.9	18.4	0.00e+00	0	43	0	3512729600	7	3733
2026-01-29 14:32:42.10	347.51	38.15	-23.6	-24.0	18.4	0.00e+00	0	43	0	3520069632	7	3756
2026-01-29 14:32:43.11	347.44	37.90	-23.6	-23.9	18.1	0.00e+00	0	43	0	3527409664	7	3734
2026-01-29 14:32:44.11	347.38	37.65	-23.7	-24.2	18.3	0.00e+00	0	43	0	3534749696	7	3815
2026-01-29 14:32:45.11	347.32	37.41	-23.6	-24.0	18.4	0.00e+00	0	43	0	3542089728	7	3758
2026-01-29 14:32:46.11	347.26	37.17	-23.6	-23.9	18.5	0.00e+00	0	43	0	3549429760	7	3730
2026-01-29 14:32:47.12	347.20	36.93	-23.6	-23.9	18.5	0.00e+00	0	43	0	3556769792	7	3733
2026-01-29 14:32:48.12	347.14	36.70	-23.4	-23.5	18.6	0.00e+00	0	44	0	3564109824	7	3648
2026-01-29 14:32:49.12	347.08	36.46	-23.3	-23.2	18.8	0.00e+00	0	43	0	3571449856	7	3584
2026-01-29 14:32:50.13	347.03	36.23	-23.3	-23.3	18.8	0.00e+00	0	43	0	3577741312	7	3594
2026-01-29 14:32:51.14	346.97	35.99	-23.1	-23.0	18.9	0.00e+00	0	43	0	3585081344	7	3528
2026-01-29 14:32:52.14	346.92	35.76	-23.2	-23.0	18.9	0.00e+00	0	44	0	3592421376	7	3545
2026-01-29 14:32:53.14	346.86	35.53	-23.3	-23.2	18.8	0.00e+00	0	43	0	3599761408	7	3578
2026-01-29 14:32:54.15	346.81	35.31	-23.0	-22.6	19.0	0.00e+00	0	43	0	3607101440	7	3447
2026-01-29 14:32:55.16	346.76	35.08	-22.8	-22.8	19.2	0.00e+00	0	43	0	3614441472	6	3598
2026-01-29 14:32:56.16	346.70	34.86	-22.9	-22.9	19.2	0.00e+00	0	43	0	3621781504	6	3615
2026-01-29 14:32:57.16	346.65	34.63	-22.8	-22.7	19.3	0.00e+00	0	43	0	3629121536	6	3568
2026-01-29 14:32:58.16	346.60	34.41	-22.8	-22.7	19.3	0.00e+00	0	43	0	3635412992	6	3562
2026-01-29 14:32:59.17	346.55	34.19	-22.8	-22.7	19.3	0.00e+00	0	43	0	3643801600	6	3568
2026-01-29 14:33:00.17	346.51	33.98	-22.7	-22.6	19.4	0.00e+00	0	43	0	3651141632	6	3544
2026-01-29 14:33:01.18	346.46	33.76	-22.7	-22.6	19.3	0.00e+00	0	43	0	3657433088	6	3558
2026-01-29 14:33:02.18	346.41	33.54	-22.8	-22.7	19.3	0.00e+00	0	43	0	3664773120	6	3565
2026-01-29 14:33:03.19	346.36	33.33	-22.9	-23.0	19.1	0.00e+00	0	43	0	3672113152	6	3632
2026-01-29 14:33:04.19	346.32	33.12	-22.9	-23.0	19.1	0.00e+00	0	43	0	3679453184	6	3625
2026-01-29 14:33:05.19	346.27	32.91	-23.1	-23.3	19.0	0.00e+00	0	43	0	3686793216	6	3704
2026-01-29 14:33:06.20	346.23	32.70	-23.0	-23.2	19.1	0.00e+00	0	43	0	3694133248	6	3667
2026-01-29 14:33:07.21	346.18	32.49	-23.1	-23.3	19.0	0.00e+00	0	43	0	3701473280	6	3698
2026-01-29 14:33:08.20	346.14	32.28	-23.1	-23.4	18.9	0.00e+00	0	43	0	3708813312	6	3726
2026-01-29 14:33:09.21	346.10	32.08	-23.2	-23.5	18.8	0.00e+00	0	43	0	3716153344	6	3750
2026-01-29 14:33:10.21	346.05	31.88	-23.3	-23.7	18.7	0.00e+00	0	43	0	3722444800	6	3797
2026-01-29 14:33:11.21	346.01	31.67	-23.3	-23.8	18.7	0.00e+00	0	44	0	3729784832	6	3822
2026-01-29 14:33:12.21	345.97	31.47	-23.3	-23.8	18.7	0.00e+00	0	43	0	3737124864	6	3822
2026-01-29 14:33:13.21	345.93	31.28	-23.4	-24.0	18.6	0.00e+00	0	43	0	3744464896	6	3866
2026-01-29 14:33:14.21	345.89	31.08	-23.4	-24.0	18.5	0.00e+00	0	43	0	3751804928	6	3865
2026-01-29 14:33:15.20	345.85	30.88	-23.4	-24.1	18.5	0.00e+00	0	43	0	3759144960	6	3879
2026-01-29 14:33:16.21	345.81	30.69	-23.5	-24.1	18.5	0.00e+00	0	43	0	3766484992	6	3894
2026-01-29 14:33:17.22	345.77	30.49	-23.6	-23.9	18.4	0.00e+00	0	43	0	3773825024	7	3733
2026-01-29 14:33:18.22	345.74	30.30	-23.5	-23.6	18.5	0.00e+00	0	43	0	3781165056	7	3677
2026-01-29 14:33:19.22	345.70	30.11	-23.4	-23.5	18.6	0.00e+00	0	43	0	3788505088	7	3643
2026-01-29 14:33:20.22	345.66	29.92	-23.4	-23.6	18.6	0.00e+00	0	43	0	3795845120	7	3654
2026-01-29 14:33:21.23	345.62	29.73	-23.5	-23.7	18.5	0.00e+00	0	43	0	3802136576	7	3685
2026-01-29 14:33:22.24	345.59	29.54	-23.3	-23.4	18.6	0.00e+00	0	43	0	3809476608	7	3618
2026-01-29 14:33:23.24	345.55	29.35	-23.4	-23.4	18.6	0.00e+00	0	43	0	3816816640	7	3634
2026-01-29 14:33:24.25	345.52	29.17	-23.4	-23.5	18.6	0.00e+00	0	43	0	3824156672	7	3635
2026-01-29 14:33:25.25	345.48	28.98	-23.3	-23.4	18.7	0.00e+00	0	43	0	3831496704	7	3613
2026-01-29 14:33:26.25	345.45	28.80	-23.3	-23.3	18.6	0.00e+00	0	43	0	3838836736	7	3608
2026-01-29 14:33:27.26	345.41	28.62	-23.4	-23.5	18.5	0.00e+00	0	43	0	3846176768	7	3653
2026-01-29 14:33:28.26	345.38	28.44	-23.3	-23.3	18.7	0.00e+00	0	43	0	3853516800	7	3603
2026-01-29 14:33:29.27	345.35	28.26	-23.2	-23.2	18.7	0.00e+00	0	43	0	3860856832	7	3569
2026-01-29 14:33:30.27	345.32	28.08	-23.3	-23.2	18.7	0.00e+00	0	43	0	3868196864	7	3588
2026-01-29 14:33:31.27	345.28	27.90	-23.4	-23.4	18.5	0.00e+00	0	43	0	3875536896	7	3631
2026-01-29 14:33:32.28	345.25	27.73	-23.3	-23.3	18.6	0.00e+00	0	43	0	3882876928	7	3589
2026-01-29 14:33:33.28	345.22	27.55	-23.3	-23.3	18.6	0.00e+00	0	43	0	3889168384	7	3600
2026-01-29 14:33:34.28	345.19	27.38	-23.3	-23.4	18.6	0.00e+00	0	43	0	3896508416	7	3614
2026-01-29 14:33:35.28	345.16	27.21	-23.5	-23.6	18.4	0.00e+00	0	43	0	3903848448	7	3674
2026-01-29 14:33:36.29	345.13	27.03	-23.4	-23.5	18.5	0.00e+00	0	43	0	3911188480	7	3636
2026-01-29 14:33:37.29	345.10	26.86	-23.5	-23.8	18.3	0.00e+00	0	43	0	3918528512	7	3710
2026-01-29 14:33:38.30	345.07	26.69	-23.4	-23.6	18.4	0.00e+00	0	43	0	3925868544	7	3669
2026-01-29 14:33:39.30	345.04	26.52	-23.5	-23.6	18.4	0.00e+00	0	43	0	3933208576	7	3679
2026-01-29 14:33:40.30	345.01	26.36	-23.5	-23.7	18.4	0.00e+00	0	43	0	3940548608	7	3686
2026-01-29 14:33:41.30	344.98	26.19	-23.6	-23.9	18.2	0.00e+00	0	43	0	3947888640	7	3744
2026-01-29 14:33:42.31	344.95	26.03	-23.6	-23.9	18.2	0.00e+00	0	43	0	3954180096	7	3741
2026-01-29 14:33:43.31	344.93	25.86	-23.7	-24.1	18.2	0.00e+00	0	43	0	3961520128	7	3789
2026-01-29 14:33:44.31	344.90	25.70	-23.6	-23.8	18.2	0.00e+00	0	43	0	3969908736	7	3723
2026-01-29 14:33:45.32	344.87	25.53	-23.6	-23.8	18.3	0.00e+00	0	43	0	3976200192	7	3724
2026-01-29 14:33:46.33	344.84	25.37	-23.6	-24.0	18.2	0.00e+00	0	43	0	3983540224	7	3750
2026-01-29 14:33:47.33	344.82	25.21	-23.5	-23.8	18.3	0.00e+00	0	43	0	3990880256	7	3715
2026-01-29 14:33:48.33	344.79	25.05	-23.5	-23.8	18.3	0.00e+00	0	43	0	3998220288	7	3717
2026-01-29 14:33:49.34	344.77	24.89	-23.6	-24.0	18.2	0.00e+00	0	43	0	4005560320	7	3745
2026-01-29 14:33:50.34	344.74	24.74	-23.6	-23.9	18.3	0.00e+00	0	43	0	4012900352	7	3725
2026-01-29 14:33:51.34	344.71	24.58	-23.5	-23.6	18.4	0.00e+00	0	43	0	4020240384	7	3671
2026-01-29 14:33:52.35	344.69	24.42	-23.5	-23.7	18.4	0.00e+00	0	43	0	4027580416	7	3681
2026-01-29 14:33:53.35	344.66	24.27	-23.4	-23.6	18.4	0.00e+00	0	43	0	4033871872	7	3668
2026-01-29 14:33:54.36	344.64	24.11	-23.5	-23.7	18.3	0.00e+00	0	43	0	4041211904	7	3690
2026-01-29 14:33:55.36	344.62	23.96	-23.5	-23.7	18.3	0.00e+00	0	43	0	4048551936	7	3686
2026-01-29 14:33:56.36	344.59	23.81	-23.5	-23.7	18.3	0.00e+00	0	43	0	4055891968	7	3683
2026-01-29 14:33:57.37	344.57	23.66	-23.6	-23.9	18.2	0.00e+00	0	43	0	4063232000	7	3724
2026-01-29 14:33:58.37	344.54	23.51	-23.6	-24.0	18.1	0.00e+00	0	43	0	4070572032	7	3762
2026-01-29 14:33:59.38	344.52	23.36	-23.6	-23.8	18.2	0.00e+00	0	43	0	4077912064	7	3716
2026-01-29 14:34:00.38	344.50	23.21	-23.6	-23.9	18.2	0.00e+00	0	43	0	4085252096	7	3729
2026-01-29 14:34:01.38	344.48	23.06	-23.6	-23.9	18.2	0.00e+00	0	43	0	4092592128	7	3730
2026-01-29 14:34:02.39	344.45	22.91	-23.6	-23.9	18.2	0.00e+00	0	43	0	4099932160	7	3726
2026-01-29 14:34:03.39	344.43	22.77	-23.6	-24.0	18.1	0.00e+00	0	43	0	4107272192	7	3749
2026-01-29 14:34:04.39	344.41	22.62	-23.6	-23.9	18.1	0.00e+00	0	43	0	4114612224	7	3745
2026-01-29 14:34:05.40	344.39	22.48	-23.5	-23.8	18.1	0.00e+00	0	43	0	4120903680	7	3708
2026-01-29 14:34:06.40	344.37	22.34	-23.6	-24.0	18.1	0.00e+00	0	43	0	4128243712	7	3757
2026-01-29 14:34:07.40	344.34	22.19	-23.7	-24.1	18.0	0.00e+00	0	43	0	4135583744	7	3778
2026-01-29 14:34:08.40	344.32	22.05	-23.7	-24.1	18.1	0.00e+00	0	43	0	4142923776	7	3783
2026-01-29 14:34:09.41	344.30	21.91	-23.8	-24.3	18.0	0.00e+00	0	43	0	4150263808	7	3822
2026-01-29 14:34:10.42	344.28	21.77	-23.8	-24.2	17.9	0.00e+00	0	43	0	4157603840	7	3812
2026-01-29 14:34:11.42	344.26	21.63	-23.9	-24.6	17.8	0.00e+00	0	43	0	4164943872	7	3893
2026-01-29 14:34:12.43	344.24	21.49	-24.0	-24.7	17.7	0.00e+00	0	43	0	4172283904	7	3918
2026-01-29 14:34:13.43	344.22	21.35	-23.9	-24.6	17.8	0.00e+00	0	43	0	4179623936	7	3883
2026-01-29 14:34:14.44	344.20	21.21	-24.0	-24.7	17.8	0.00e+00	0	43	0	4186963968	7	3914
2026-01-29 14:34:15.44	344.18	21.08	-24.0	-24.7	17.7	0.00e+00	0	43	0	4194304000	7	3920
2026-01-29 14:34:16.45	344.16	20.94	-23.9	-24.5	17.8	0.00e+00	0	43	0	4200595456	7	3870
2026-01-29 14:34:17.46	344.14	20.80	-23.8	-24.4	17.8	0.00e+00	0	43	0	4207935488	7	3861
2026-01-29 14:34:18.46	344.13	20.67	-23.9	-24.5	17.8	0.00e+00	0	43	0	4215275520	7	3885
2026-01-29 14:34:19.46	344.11	20.54	-23.9	-24.6	17.7	0.00e+00	0	43	0	4222615552	7	3894
2026-01-29 14:34:20.46	344.09	20.40	-23.9	-24.6	17.7	0.00e+00	0	43	0	4229955584	7	3894
2026-01-29 14:34:21.47	344.07	20.27	-24.0	-24.7	17.7	0.00e+00	0	43	0	4237295616	7	3922
2026-01-29 14:34:22.47	344.05	20.14	-24.0	-24.8	17.6	0.00e+00	0	43	0	4244635648	7	3933
2026-01-29 14:34:23.47	344.03	20.01	-24.0	-24.8	17.6	0.00e+00	0	43	0	4251975680	7	3933
2026-01-29 14:34:24.48	344.02	19.88	-24.0	-24.8	17.6	0.00e+00	0	43	0	4259315712	7	3954
2026-01-29 14:34:25.48	344.00	19.75	-24.4	-25.0	17.3	0.00e+00	0	43	0	4266655744	8	3894
2026-01-29 14:34:26.49	343.98	19.62	-24.5	-25.2	17.1	0.00e+00	0	43	0	4273995776	8	3940
2026-01-29 14:34:27.49	343.96	19.49	-24.3	-24.8	17.2	0.00e+00	0	43	0	4281335808	8	3843
2026-01-29 14:34:28.50	343.95	19.36	-24.2	-24.6	17.5	0.00e+00	0	43	0	4287627264	8	3801
2026-01-29 14:34:29.51	343.93	19.23	-24.2	-24.6	17.5	0.00e+00	0	43	0	4294967296	8	3795
2026-01-29 14:34:30.51	343.91	19.11	-24.2	-24.7	17.5	0.00e+00	0	43	0	4302307328	8	3808
2026-01-29 14:34:31.52	343.90	18.98	-24.2	-24.7	17.4	0.00e+00	0	43	0	4309647360	8	3819
2026-01-29 14:34:32.52	343.88	18.86	-24.3	-24.9	17.3	0.00e+00	0	43	0	4316987392	8	3862
2026-01-29 14:34:33.53	343.86	18.73	-24.3	-24.9	17.3	0.00e+00	0	43	0	4324327424	8	3865
2026-01-29 14:34:34.53	343.85	18.61	-24.3	-24.9	17.3	0.00e+00	0	43	0	4331667456	8	3872
2026-01-29 14:34:35.53	343.83	18.49	-24.3	-24.9	17.3	0.00e+00	0	43	0	4339007488	8	3857
2026-01-29 14:34:36.54	343.82	18.36	-24.2	-24.8	17.3	0.00e+00	0	43	0	4346347520	8	3832
2026-01-29 14:34:37.54	343.80	18.24	-24.3	-24.9	17.3	0.00e+00	0	43	0	4353687552	8	3856
2026-01-29 14:34:38.55	343.79	18.12	-24.3	-25.0	17.2	0.00e+00	0	43	0	4361027584	8	3879
2026-01-29 14:34:39.55	343.77	18.00	-24.3	-25.0	17.2	0.00e+00	0	43	0	4368367616	8	3881
2026-01-29 14:34:40.56	343.76	17.88	-24.3	-25.0	17.2	0.00e+00	0	43	0	4374659072	8	3879
2026-01-29 14:34:41.56	343.74	17.76	-24.4	-25.1	17.1	0.00e+00	0	43	0	4381999104	8	3920
2026-01-29 14:34:42.56	343.73	17.64	-24.4	-25.1	17.2	0.00e+00	0	43	0	4390387712	8	3918
2026-01-29 14:34:43.57	343.71	17.52	-24.4	-25.2	17.1	0.00e+00	0	43	0	4396679168	8	3939
2026-01-29 14:34:44.57	343.70	17.40	-24.5	-25.3	17.1	0.00e+00	0	43	0	4404019200	8	3956
2026-01-29 14:34:45.57	343.68	17.29	-24.6	-25.1	16.9	0.00e+00	0	43	0	4411359232	9	3809
2026-01-29 14:34:46.57	343.67	17.17	-24.9	-25.6	16.6	0.00e+00	0	43	0	4418699264	9	3925
2026-01-29 14:34:47.57	343.66	17.05	-24.9	-25.7	16.6	0.00e+00	0	43	0	4426039296	9	3949
2026-01-29 14:34:48.58	343.64	16.94	-24.8	-25.6	16.7	0.00e+00	0	43	0	4433379328	9	3911
2026-01-29 14:34:49.58	343.63	16.82	-24.7	-25.3	16.8	0.00e+00	0	43	0	4440719360	9	3855
2026-01-29 14:34:50.58	343.61	16.71	-24.7	-25.2	16.8	0.00e+00	0	43	0	4448059392	9	3830
2026-01-29 14:34:51.59	343.60	16.59	-24.7	-25.4	16.8	0.00e+00	0	43	0	4454350848	9	3865
2026-01-29 14:34:52.60	343.59	16.48	-24.8	-25.4	16.7	0.00e+00	0	43	0	4461690880	9	3875
2026-01-29 14:34:53.60	343.57	16.37	-24.8	-25.6	16.6	0.00e+00	0	43	0	4469030912	9	3912
2026-01-29 14:34:54.60	343.56	16.25	-24.9	-25.6	16.6	0.00e+00	0	43	0	4476370944	9	3921
2026-01-29 14:34:55.59	343.55	16.14	-24.9	-25.7	16.6	0.00e+00	0	43	0	4483710976	9	3942
2026-01-29 14:34:56.60	343.54	16.03	-24.9	-25.7	16.5	0.00e+00	0	43	0	4491051008	9	3956
2026-01-29 14:34:57.59	343.52	15.92	-25.0	-25.8	16.5	0.00e+00	0	43	0	4498391040	9	3978
2026-01-29 14:34:58.60	343.51	15.81	-25.0	-25.9	16.4	0.00e+00	0	43	0	4505731072	9	4000
2026-01-29 14:34:59.60	343.50	15.70	-25.0	-25.9	16.4	0.00e+00	0	43	0	4513071104	9	4003
2026-01-29 14:35:00.60	343.49	15.59	-25.1	-26.1	16.3	0.00e+00	0	43	0	4519362560	9	4035
2026-01-29 14:35:01.60	343.47	15.48	-25.2	-25.8	16.2	0.00e+00	0	43	0	4526702592	10	3862
2026-01-29 14:35:02.61	343.46	15.38	-25.1	-25.7	16.3	0.00e+00	0	43	0	4534042624	10	3845
2026-01-29 14:35:03.60	343.45	15.27	-25.2	-25.8	16.2	0.00e+00	0	43	0	4541382656	10	3865
2026-01-29 14:35:04.61	343.44	15.16	-25.2	-25.9	16.2	0.00e+00	0	43	0	4548722688	10	3894
2026-01-29 14:35:05.61	343.43	15.05	-25.3	-26.0	16.1	0.00e+00	0	43	0	4556062720	10	3916
2026-01-29 14:35:06.62	343.41	14.95	-25.3	-26.1	16.0	0.00e+00	0	43	0	4563402752	10	3936
2026-01-29 14:35:07.62	343.40	14.84	-25.3	-26.1	16.0	0.00e+00	0	43	0	4570742784	10	3945
2026-01-29 14:35:08.63	343.39	14.73	-25.5	-26.4	15.9	0.00e+00	0	43	0	4578082816	10	4018
2026-01-29 14:35:09.63	343.38	14.63	-25.4	-26.3	15.9	0.00e+00	0	43	0	4585422848	10	4001
2026-01-29 14:35:10.62	343.37	14.53	-25.4	-26.4	15.9	0.00e+00	0	43	0	4592762880	10	4010
2026-01-29 14:35:11.63	343.36	14.42	-25.5	-26.5	15.8	0.00e+00	0	43	0	4600102912	10	4047
2026-01-29 14:35:12.63	343.35	14.32	-25.5	-26.5	15.8	0.00e+00	0	43	0	4606394368	10	4044
2026-01-29 14:35:13.63	343.34	14.21	-25.5	-26.6	15.7	0.00e+00	0	43	0	4613734400	10	4053
2026-01-29 14:35:14.64	343.32	14.11	-25.6	-26.7	15.7	0.00e+00	0	43	0	4621074432	10	4085
2026-01-29 14:35:15.64	343.31	14.01	-25.6	-26.3	15.6	0.00e+00	0	43	0	4628414464	11	3887
2026-01-29 14:35:16.65	343.30	13.91	-25.6	-26.2	15.7	0.00e+00	0	43	0	4635754496	11	3858
2026-01-29 14:35:17.65	343.29	13.80	-25.6	-26.3	15.6	0.00e+00	0	43	0	4643094528	11	3886
2026-01-29 14:35:18.66	343.28	13.70	-25.7	-26.4	15.5	0.00e+00	0	43	0	4650434560	11	3917
2026-01-29 14:35:19.67	343.27	13.60	-25.7	-26.5	15.5	0.00e+00	0	43	0	4657774592	11	3930
2026-01-29 14:35:20.68	343.26	13.50	-25.8	-26.6	15.4	0.00e+00	0	43	0	4665114624	11	3952
2026-01-29 14:35:21.68	343.25	13.40	-25.7	-26.5	15.5	0.00e+00	0	43	0	4672454656	11	3932
2026-01-29 14:35:22.68	343.24	13.30	-25.8	-26.6	15.4	0.00e+00	0	43	0	4679794688	11	3951
2026-01-29 14:35:23.68	343.23	13.20	-25.8	-26.6	15.4	0.00e+00	0	43	0	4686086144	11	3967
2026-01-29 14:35:24.68	343.22	13.10	-25.8	-26.7	15.4	1.10e-06	0	43	0	4693426176	11	3982
2026-01-29 14:35:25.68	343.21	13.01	-25.9	-26.8	15.3	0.00e+00	0	43	0	4700766208	11	4007
2026-01-29 14:35:26.68	343.20	12.91	-25.9	-26.9	15.3	0.00e+00	0	43	0	4708106240	11	4029
2026-01-29 14:35:27.68	343.19	12.81	-26.1	-27.3	15.0	0.00e+00	0	43	0	4715446272	11	4123
2026-01-29 14:35:28.69	343.18	12.71	-26.2	-27.1	14.8	0.00e+00	0	43	0	4722786304	12	3980
2026-01-29 14:35:29.68	343.18	12.62	-26.3	-27.3	14.7	0.00e+00	0	43	0	4730126336	12	4030
2026-01-29 14:35:30.69	343.17	12.52	-26.3	-27.2	14.7	1.10e-06	0	44	0	4737466368	12	4005
2026-01-29 14:35:31.69	343.16	12.43	-26.4	-27.5	14.5	1.10e-06	0	43	0	4744806400	12	4086
2026-01-29 14:35:32.69	343.15	12.33	-26.4	-27.4	14.6	1.10e-06	0	43	0	4751097856	12	4067
2026-01-29 14:35:33.70	343.14	12.23	-26.2	-27.1	14.7	0.00e+00	0	43	0	4758437888	12	3988
2026-01-29 14:35:34.71	343.13	12.14	-26.3	-27.2	14.7	1.10e-06	0	43	0	4765777920	12	4002
2026-01-29 14:35:35.72	343.12	12.04	-26.2	-27.1	14.7	0.00e+00	0	43	0	4773117952	12	3982
2026-01-29 14:35:36.72	343.11	11.95	-26.2	-27.0	14.8	1.10e-06	0	43	0	4780457984	12	3952
2026-01-29 14:35:37.72	343.10	11.86	-26.0	-26.7	15.0	0.00e+00	0	43	0	4787798016	12	3889
2026-01-29 14:35:38.72	343.10	11.76	-25.9	-26.5	15.0	1.10e-06	0	43	0	4795138048	12	3836
2026-01-29 14:35:39.73	343.09	11.67	-25.9	-26.5	15.0	0.00e+00	0	43	0	4802478080	12	3844
2026-01-29 14:35:40.73	343.08	11.58	-26.0	-26.5	15.0	0.00e+00	0	43	0	4809818112	12	3853
2026-01-29 14:35:41.73	343.07	11.48	-26.0	-26.5	15.0	0.00e+00	0	43	0	4817158144	12	3845
2026-01-29 14:35:42.74	343.06	11.39	-26.0	-26.6	15.0	0.00e+00	0	43	0	4824498176	12	3868
2026-01-29 14:35:43.74	343.05	11.30	-26.1	-26.8	14.8	1.10e-06	0	43	0	4830789632	12	3923
2026-01-29 14:35:44.75	343.05	11.21	-26.0	-26.7	14.9	0.00e+00	0	43	0	4838129664	12	3888
2026-01-29 14:35:45.75	343.04	11.12	-26.1	-26.9	14.8	0.00e+00	0	43	0	4845469696	12	3926
2026-01-29 14:35:46.75	343.03	11.03	-26.1	-26.8	14.9	2.20e-06	0	43	0	4852809728	12	3918
2026-01-29 14:35:47.75	343.02	10.94	-26.1	-26.9	14.8	0.00e+00	0	43	0	4860149760	12	3949
2026-01-29 14:35:48.76	343.01	10.85	-26.1	-26.9	14.8	0.00e+00	0	43	0	4867489792	12	3929
2026-01-29 14:35:49.77	343.01	10.76	-26.0	-26.7	14.9	0.00e+00	0	43	0	4874829824	12	3896
2026-01-29 14:35:50.77	343.00	10.67	-26.1	-26.7	14.8	0.00e+00	0	43	0	4882169856	12	3898
2026-01-29 14:35:51.78	342.99	10.58	-26.1	-26.8	14.8	0.00e+00	0	43	0	4889509888	12	3926
2026-01-29 14:35:52.79	342.98	10.49	-26.1	-27.0	14.7	0.00e+00	0	43	0	4896849920	12	3954
2026-01-29 14:35:53.79	342.98	10.40	-26.1	-26.9	14.8	1.10e-06	0	43	0	4904189952	12	3934
2026-01-29 14:35:54.80	342.97	10.31	-26.2	-27.0	14.7	0.00e+00	0	43	0	4911529984	12	3974
2026-01-29 14:35:55.81	342.96	10.22	-26.2	-27.1	14.7	0.00e+00	0	43	0	4917821440	12	3988
2026-01-29 14:35:56.81	342.95	10.14	-26.2	-27.1	14.6	1.10e-06	0	43	0	4925161472	12	4000
2026-01-29 14:35:57.81	342.95	10.05	-26.2	-27.1	14.6	1.10e-06	0	43	0	4932501504	12	3983
2026-01-29 14:35:58.81	342.94	9.96	-26.2	-27.1	14.6	0.00e+00	0	43	0	4939841536	12	3992
