passes_logs/2026/01/29/R2M6_AANII_01/R2M6_AANII_01__20260129_021350_NOAA_20_JPSS-1_rec.log

#Pass ID: 20260129_021350_NOAA 20 (JPSS-1)
#Satellite: NOAA 20 (JPSS-1)
#Configuration: NOAA 20
#almurnet v.1.7.20240730
#Start time: 2026-01-29 02:13:51

#Version: 2.2.20231116
#Station: R2M6_AANII_01
#Location: 30.233357 lon 59.946436 lat
#TLE: 1 43013U 17073A   26027.80586608  .00000156  00000+0  94940-4 0  9998
#TLE: 2 43013  98.7647 328.6108 0000947  21.3465 338.7750 14.19541216424550

#Time	Az	El	Level	Level2	SNR	BER	BlckErr	Temp	State	Recorded	gain1	gain2
2026-01-29 02:13:51.41	10.40	7.08	-32.3	-41.8	4.2	1.42e+00	0	41	0	0	24	10766
2026-01-29 02:13:52.41	10.32	7.15	-32.2	-41.1	4.3	1.40e+00	0	41	104	0	24	10002
2026-01-29 02:13:53.42	10.22	7.21	-32.2	-40.9	5.4	5.41e-01	0	41	0	0	24	9752
2026-01-29 02:13:54.43	10.13	7.28	-32.2	-41.0	5.4	5.37e-01	0	41	0	1048576	24	9838
2026-01-29 02:13:55.43	10.04	7.34	-32.2	-40.9	5.4	5.56e-01	0	41	0	3145728	24	9792
2026-01-29 02:13:56.43	9.95	7.41	-32.2	-40.8	5.5	5.08e-01	0	41	0	5242880	24	9638
2026-01-29 02:13:57.44	9.86	7.47	-32.2	-40.8	5.5	4.90e-01	0	41	0	7340032	24	9616
2026-01-29 02:13:58.44	9.77	7.54	-32.3	-40.7	5.6	4.60e-01	0	41	0	9437184	24	9519
2026-01-29 02:13:59.45	9.68	7.60	-32.2	-40.6	5.6	4.56e-01	0	42	0	10485760	24	9450
2026-01-29 02:14:00.45	9.58	7.67	-32.2	-40.1	5.9	4.31e-01	0	41	0	12582912	24	8998
2026-01-29 02:14:01.45	9.49	7.74	-32.0	-39.1	6.6	2.50e-01	0	41	0	14680064	24	8148
2026-01-29 02:14:02.46	9.40	7.80	-31.8	-38.0	7.5	1.39e-01	0	42	0	16777216	24	7326
2026-01-29 02:14:03.47	9.30	7.87	-31.6	-37.5	8.2	7.79e-02	0	41	0	18874368	23	7118
2026-01-29 02:14:04.47	9.21	7.93	-31.4	-37.1	9.0	3.38e-02	0	42	0	19922944	22	6960
2026-01-29 02:14:05.47	9.11	8.00	-31.2	-36.5	9.5	1.61e-02	0	42	0	22020096	22	6564
2026-01-29 02:14:06.48	9.02	8.06	-31.1	-35.8	10.0	1.34e-02	0	41	0	24117248	22	6220
2026-01-29 02:14:07.48	8.92	8.13	-30.9	-35.9	10.4	8.89e-03	0	41	0	26214400	21	6354
2026-01-29 02:14:08.49	8.82	8.20	-30.9	-35.9	10.4	4.21e-03	0	41	0	28311552	21	6343
2026-01-29 02:14:09.49	8.73	8.26	-31.0	-35.5	10.2	8.80e-03	0	42	0	29360128	22	6069
2026-01-29 02:14:10.50	8.63	8.33	-30.9	-35.9	10.4	7.49e-03	0	42	0	31457280	21	6341
2026-01-29 02:14:11.50	8.53	8.40	-31.0	-35.9	10.3	4.71e-03	0	42	0	33554432	21	6375
2026-01-29 02:14:12.50	8.44	8.46	-30.9	-35.8	10.4	7.34e-03	0	42	0	35651584	21	6334
2026-01-29 02:14:13.50	8.34	8.53	-31.0	-36.0	10.3	7.29e-03	0	42	0	36700160	21	6392
2026-01-29 02:14:14.51	8.24	8.60	-31.0	-35.6	10.3	5.19e-03	0	42	0	38797312	22	6078
2026-01-29 02:14:15.51	8.14	8.66	-31.1	-35.7	10.2	7.78e-03	0	42	0	40894464	22	6170
2026-01-29 02:14:16.51	8.04	8.73	-31.1	-35.8	10.1	1.05e-02	0	42	0	42991616	22	6174
2026-01-29 02:14:17.51	7.94	8.80	-31.0	-35.3	10.5	5.36e-03	0	42	0	45088768	22	5962
2026-01-29 02:14:18.51	7.84	8.86	-30.9	-35.6	10.7	3.52e-03	0	42	0	46137344	21	6203
2026-01-29 02:14:19.51	7.74	8.93	-30.9	-35.7	10.6	5.32e-03	0	42	0	48234496	21	6230
2026-01-29 02:14:20.52	7.63	9.00	-30.9	-35.6	10.6	3.96e-03	0	42	0	50331648	21	6204
2026-01-29 02:14:21.53	7.53	9.07	-30.9	-35.6	10.6	3.35e-03	0	42	0	52428800	21	6200
2026-01-29 02:14:22.53	7.43	9.13	-30.9	-35.7	10.6	6.13e-03	0	42	0	54525952	21	6224
2026-01-29 02:14:23.54	7.32	9.20	-30.9	-35.6	10.6	3.10e-03	0	42	0	55574528	21	6194
2026-01-29 02:14:24.54	7.22	9.27	-30.9	-35.7	10.6	3.25e-03	0	42	0	57671680	21	6215
2026-01-29 02:14:25.55	7.12	9.34	-30.9	-35.6	10.7	3.03e-03	0	42	0	59768832	21	6186
2026-01-29 02:14:26.55	7.01	9.40	-30.9	-35.7	10.6	3.05e-03	0	42	0	61865984	21	6218
2026-01-29 02:14:27.56	6.90	9.47	-31.0	-35.5	10.4	6.24e-03	0	42	0	63963136	22	6025
2026-01-29 02:14:28.56	6.80	9.54	-31.0	-35.5	10.4	4.13e-03	0	42	0	65011712	22	6028
2026-01-29 02:14:29.56	6.69	9.61	-31.0	-35.5	10.4	5.51e-03	0	42	0	67108864	22	6022
2026-01-29 02:14:30.56	6.59	9.68	-31.0	-35.2	10.7	6.22e-03	0	42	0	69206016	22	5880
2026-01-29 02:14:31.57	6.48	9.74	-30.9	-35.6	10.7	2.78e-03	0	42	0	71303168	21	6182
2026-01-29 02:14:32.57	6.37	9.81	-30.9	-35.5	10.8	2.68e-03	0	42	0	73400320	21	6150
2026-01-29 02:14:33.58	6.26	9.88	-30.8	-35.4	10.9	5.16e-03	0	42	0	74448896	21	6058
2026-01-29 02:14:34.58	6.15	9.95	-30.9	-35.5	10.8	2.40e-03	0	42	0	76546048	21	6131
2026-01-29 02:14:35.59	6.04	10.02	-30.9	-35.5	10.8	2.71e-03	0	42	0	78643200	21	6142
2026-01-29 02:14:36.59	5.93	10.09	-30.8	-35.1	11.2	1.80e-03	0	42	0	80740352	21	5912
2026-01-29 02:14:37.59	5.82	10.16	-30.7	-34.9	11.3	3.76e-03	0	42	0	82837504	21	5819
2026-01-29 02:14:38.60	5.71	10.22	-30.7	-34.9	11.3	1.13e-03	0	42	0	83886080	21	5821
2026-01-29 02:14:39.60	5.60	10.29	-30.7	-34.9	11.2	1.28e-03	0	42	0	85983232	21	5856
2026-01-29 02:14:40.60	5.49	10.36	-30.7	-34.9	11.2	1.75e-03	0	42	0	88080384	21	5833
2026-01-29 02:14:41.60	5.37	10.43	-30.7	-34.9	11.3	1.06e-03	0	42	0	90177536	21	5819
2026-01-29 02:14:42.60	5.26	10.50	-30.7	-34.9	11.3	1.13e-03	0	42	0	91226112	21	5852
2026-01-29 02:14:43.61	5.15	10.57	-30.7	-34.9	11.3	1.33e-03	0	43	0	93323264	21	5845
2026-01-29 02:14:44.61	5.03	10.64	-30.7	-34.8	11.4	1.05e-03	0	42	0	95420416	21	5800
2026-01-29 02:14:45.61	4.92	10.71	-30.7	-34.9	11.3	1.01e-03	0	42	0	97517568	21	5807
2026-01-29 02:14:46.61	4.80	10.78	-30.7	-34.9	11.3	1.26e-03	0	43	0	99614720	21	5827
2026-01-29 02:14:47.62	4.69	10.85	-30.7	-34.8	11.4	1.02e-03	0	43	0	101711872	21	5770
2026-01-29 02:14:48.62	4.57	10.92	-30.7	-34.7	11.4	7.89e-04	0	42	0	102760448	21	5755
2026-01-29 02:14:49.62	4.45	10.99	-30.7	-34.7	11.5	8.32e-04	0	43	0	104857600	21	5721
2026-01-29 02:14:50.63	4.33	11.06	-30.7	-34.9	11.3	9.15e-04	0	43	0	106954752	21	5821
2026-01-29 02:14:51.63	4.22	11.13	-30.7	-34.9	11.3	1.14e-03	0	42	0	109051904	21	5842
2026-01-29 02:14:52.63	4.10	11.20	-30.7	-34.8	11.5	9.01e-04	0	43	0	110100480	21	5762
2026-01-29 02:14:53.64	3.98	11.27	-30.7	-34.7	11.5	8.74e-04	0	42	0	112197632	21	5714
2026-01-29 02:14:54.65	3.86	11.34	-30.7	-34.9	11.4	8.96e-04	0	42	0	114294784	21	5808
2026-01-29 02:14:55.65	3.74	11.41	-30.7	-34.8	11.5	9.83e-04	0	43	0	116391936	21	5778
2026-01-29 02:14:56.65	3.61	11.48	-30.7	-34.8	11.5	8.41e-04	0	42	0	118489088	21	5788
2026-01-29 02:14:57.65	3.49	11.55	-30.7	-34.7	11.5	8.44e-04	0	42	0	119537664	21	5748
2026-01-29 02:14:58.65	3.37	11.62	-30.7	-34.7	11.5	7.99e-04	0	43	0	121634816	21	5741
2026-01-29 02:14:59.65	3.25	11.69	-30.7	-35.0	11.4	9.11e-04	0	43	0	123731968	21	5850
2026-01-29 02:15:00.65	3.12	11.76	-30.7	-34.7	11.5	1.09e-03	0	43	0	125829120	21	5727
2026-01-29 02:15:01.66	3.00	11.83	-30.7	-34.7	11.6	7.16e-04	0	43	0	127926272	21	5734
2026-01-29 02:15:02.66	2.87	11.90	-30.6	-34.4	11.7	6.68e-04	0	43	0	128974848	21	5609
2026-01-29 02:15:03.67	2.75	11.97	-30.5	-34.3	11.9	5.09e-04	0	43	0	131072000	21	5534
2026-01-29 02:15:04.67	2.62	12.04	-30.5	-34.3	11.9	4.68e-04	0	43	0	133169152	21	5533
2026-01-29 02:15:05.68	2.49	12.11	-30.6	-34.3	11.8	4.37e-04	0	43	0	135266304	21	5557
2026-01-29 02:15:06.68	2.37	12.18	-30.5	-34.2	11.9	4.12e-04	0	43	0	137363456	21	5510
2026-01-29 02:15:07.69	2.24	12.26	-30.6	-34.4	11.8	3.49e-04	0	43	0	138412032	21	5573
2026-01-29 02:15:08.69	2.11	12.33	-30.6	-34.3	11.9	2.90e-03	0	43	0	140509184	21	5543
2026-01-29 02:15:09.70	1.98	12.40	-30.5	-34.1	12.1	3.26e-04	0	43	0	142606336	21	5468
2026-01-29 02:15:10.70	1.85	12.47	-30.5	-34.0	12.1	2.94e-04	0	43	0	144703488	21	5423
2026-01-29 02:15:11.71	1.72	12.54	-30.4	-34.5	12.1	2.66e-04	0	43	0	146800640	20	5715
2026-01-29 02:15:12.71	1.59	12.61	-30.4	-34.4	12.2	1.75e-03	0	43	0	147849216	20	5696
2026-01-29 02:15:13.72	1.45	12.68	-30.4	-34.4	12.1	2.28e-04	0	43	0	149946368	20	5706
2026-01-29 02:15:14.72	1.32	12.76	-30.5	-34.6	12.1	2.37e-04	0	43	0	152043520	20	5754
2026-01-29 02:15:15.73	1.19	12.83	-30.6	-34.4	11.9	2.94e-03	0	43	0	154140672	21	5575
2026-01-29 02:15:16.73	1.05	12.90	-30.5	-34.3	12.0	4.02e-04	0	43	0	156237824	21	5520
2026-01-29 02:15:17.74	0.92	12.97	-30.4	-34.4	12.2	2.47e-04	0	43	0	157286400	20	5686
2026-01-29 02:15:18.74	0.78	13.04	-30.4	-34.4	12.2	2.73e-03	0	43	0	159383552	20	5704
2026-01-29 02:15:19.75	0.65	13.11	-30.4	-34.4	12.2	2.48e-04	0	43	0	161480704	20	5692
2026-01-29 02:15:20.75	0.51	13.19	-30.4	-34.4	12.2	2.20e-04	0	43	0	163577856	20	5662
2026-01-29 02:15:21.76	0.37	13.26	-30.5	-34.2	12.0	2.39e-04	0	43	0	164626432	21	5480
2026-01-29 02:15:22.76	0.23	13.33	-30.7	-34.6	11.7	4.26e-04	0	43	0	166723584	21	5688
2026-01-29 02:15:23.76	0.10	13.40	-30.6	-34.4	11.8	5.40e-04	0	43	0	168820736	21	5587
2026-01-29 02:15:24.76	359.96	13.47	-30.5	-34.1	12.1	3.10e-04	0	43	0	170917888	21	5464
2026-01-29 02:15:25.76	359.82	13.55	-30.5	-34.0	12.2	2.11e-04	0	43	0	173015040	21	5415
2026-01-29 02:15:26.77	359.67	13.62	-30.5	-34.1	12.1	2.93e-03	0	43	0	175112192	21	5433
2026-01-29 02:15:27.78	359.53	13.69	-30.6	-34.3	11.9	3.23e-04	0	43	0	176160768	21	5536
2026-01-29 02:15:28.78	359.39	13.76	-30.5	-34.2	12.1	3.51e-04	0	43	0	178257920	21	5472
2026-01-29 02:15:29.78	359.25	13.83	-30.5	-34.0	12.2	2.70e-03	0	43	0	180355072	21	5382
2026-01-29 02:15:30.79	359.10	13.91	-30.4	-34.4	12.2	2.41e-03	0	43	0	182452224	20	5665
2026-01-29 02:15:31.78	358.96	13.98	-30.4	-34.4	12.3	1.69e-04	0	43	0	183500800	20	5664
2026-01-29 02:15:32.79	358.81	14.05	-30.4	-34.3	12.4	2.46e-03	0	43	0	185597952	20	5610
2026-01-29 02:15:33.79	358.67	14.12	-30.5	-34.5	12.2	2.82e-03	0	43	0	187695104	20	5706
2026-01-29 02:15:34.79	358.52	14.19	-30.4	-34.3	12.4	1.99e-04	0	43	0	189792256	20	5617
2026-01-29 02:15:35.79	358.38	14.27	-30.3	-34.0	12.6	2.88e-03	0	43	0	191889408	20	5487
2026-01-29 02:15:36.80	358.23	14.34	-30.3	-34.0	12.6	2.75e-03	0	43	0	192937984	20	5491
2026-01-29 02:15:37.80	358.08	14.41	-30.3	-33.9	12.6	1.36e-04	0	43	0	195035136	20	5441
2026-01-29 02:15:38.80	357.93	14.48	-30.3	-33.8	12.7	9.53e-05	0	43	0	197132288	20	5418
2026-01-29 02:15:39.80	357.78	14.56	-30.4	-34.1	12.5	2.39e-03	0	43	0	199229440	20	5529
2026-01-29 02:15:40.81	357.63	14.63	-30.3	-34.0	12.6	1.40e-04	0	43	0	201326592	20	5508
2026-01-29 02:15:41.81	357.48	14.70	-30.3	-33.9	12.7	2.57e-03	0	43	0	202375168	20	5467
2026-01-29 02:15:42.81	357.32	14.77	-30.3	-34.0	12.5	2.76e-03	0	43	0	204472320	20	5494
2026-01-29 02:15:43.82	357.17	14.85	-30.4	-34.2	12.5	1.55e-04	0	43	0	206569472	20	5593
2026-01-29 02:15:44.82	357.02	14.92	-30.3	-33.9	12.6	2.77e-03	0	43	0	208666624	20	5459
2026-01-29 02:15:45.82	356.86	14.99	-30.3	-33.9	12.7	2.57e-03	0	43	0	210763776	20	5444
2026-01-29 02:15:46.83	356.70	15.06	-30.3	-34.0	12.6	1.56e-04	0	43	0	211812352	20	5514
2026-01-29 02:15:47.83	356.55	15.14	-30.5	-34.1	12.2	2.66e-03	0	43	0	213909504	21	5422
2026-01-29 02:15:48.83	356.39	15.21	-30.8	-34.8	11.7	2.72e-03	0	43	0	216006656	21	5735
2026-01-29 02:15:49.83	356.23	15.28	-30.7	-34.6	11.8	4.56e-04	0	43	0	218103808	21	5659
2026-01-29 02:15:50.83	356.08	15.35	-30.5	-34.1	12.2	2.55e-03	0	43	0	220200960	21	5424
2026-01-29 02:15:51.84	355.92	15.43	-30.4	-34.4	12.4	2.43e-03	0	43	0	221249536	20	5648
2026-01-29 02:15:52.84	355.76	15.50	-30.5	-34.0	12.2	1.74e-04	0	43	0	223346688	21	5416
2026-01-29 02:15:53.84	355.59	15.57	-30.6	-34.4	12.0	2.53e-03	0	43	0	225443840	21	5568
2026-01-29 02:15:54.84	355.43	15.64	-30.6	-34.3	12.0	2.55e-03	0	43	0	227540992	21	5512
2026-01-29 02:15:55.84	355.27	15.71	-30.5	-34.2	12.1	2.77e-04	0	43	0	228589568	21	5491
2026-01-29 02:15:56.85	355.11	15.79	-30.5	-34.1	12.2	2.31e-03	0	43	0	230686720	21	5417
2026-01-29 02:15:57.85	354.94	15.86	-30.5	-34.4	12.3	2.17e-03	0	43	0	232783872	20	5685
2026-01-29 02:15:58.85	354.78	15.93	-30.5	-34.5	12.3	1.35e-04	0	43	0	234881024	20	5694
2026-01-29 02:15:59.86	354.61	16.00	-30.5	-34.0	12.3	1.91e-04	0	43	0	236978176	21	5376
2026-01-29 02:16:00.86	354.44	16.08	-30.6	-34.3	12.1	1.76e-03	0	43	0	238026752	21	5499
2026-01-29 02:16:01.87	354.28	16.15	-30.5	-34.1	12.2	2.55e-04	0	43	0	240123904	21	5434
2026-01-29 02:16:02.87	354.11	16.22	-30.4	-33.6	12.5	1.60e-04	0	43	0	242221056	21	5237
2026-01-29 02:16:03.88	353.94	16.29	-30.4	-34.1	12.6	1.03e-04	0	43	0	244318208	20	5547
2026-01-29 02:16:04.88	353.77	16.37	-30.4	-34.2	12.5	1.67e-04	0	43	0	246415360	20	5596
2026-01-29 02:16:05.88	353.60	16.44	-30.4	-34.3	12.5	1.56e-03	0	43	0	247463936	20	5622
2026-01-29 02:16:06.89	353.42	16.51	-30.4	-34.4	12.4	1.45e-04	0	43	0	249561088	20	5676
2026-01-29 02:16:07.89	353.25	16.58	-30.4	-34.4	12.4	2.14e-04	0	43	0	251658240	20	5675
2026-01-29 02:16:08.90	353.08	16.65	-30.5	-34.4	12.3	1.41e-03	0	43	0	253755392	20	5688
2026-01-29 02:16:09.90	352.90	16.72	-30.5	-34.0	12.3	1.49e-04	0	43	0	255852544	21	5392
2026-01-29 02:16:10.90	352.73	16.80	-30.7	-34.6	12.0	2.55e-04	0	43	0	256901120	21	5621
2026-01-29 02:16:11.91	352.55	16.87	-30.5	-34.0	12.3	1.23e-03	0	43	0	258998272	21	5394
2026-01-29 02:16:12.91	352.38	16.94	-30.4	-34.2	12.6	1.23e-04	0	43	0	261095424	20	5570
2026-01-29 02:16:13.91	352.20	17.01	-30.5	-34.5	12.4	1.26e-04	0	43	0	263192576	20	5709
2026-01-29 02:16:14.92	352.02	17.08	-30.5	-34.1	12.2	2.08e-04	0	43	0	265289728	21	5461
2026-01-29 02:16:15.92	351.84	17.15	-30.7	-34.6	11.9	9.70e-04	0	43	0	266338304	21	5636
2026-01-29 02:16:16.93	351.66	17.23	-30.6	-34.4	12.0	3.17e-04	0	43	0	268435456	21	5576
2026-01-29 02:16:17.93	351.48	17.30	-30.7	-34.7	11.9	3.58e-04	0	43	0	270532608	21	5700
2026-01-29 02:16:18.93	351.30	17.37	-30.7	-34.7	11.9	9.96e-04	0	43	0	272629760	21	5664
2026-01-29 02:16:19.94	351.11	17.44	-30.8	-34.8	11.9	3.90e-04	0	43	0	274726912	21	5705
2026-01-29 02:16:20.95	350.93	17.51	-30.9	-35.0	11.7	5.29e-04	0	43	0	275775488	21	5817
2026-01-29 02:16:21.95	350.74	17.58	-30.8	-34.7	11.9	5.10e-04	0	43	0	277872640	21	5673
2026-01-29 02:16:22.96	350.56	17.65	-30.7	-34.6	12.0	3.57e-04	0	43	0	279969792	21	5617
2026-01-29 02:16:23.96	350.37	17.72	-30.7	-34.6	12.0	3.43e-04	0	43	0	282066944	21	5608
2026-01-29 02:16:24.96	350.18	17.79	-30.7	-34.7	11.9	3.18e-04	0	43	0	283115520	21	5653
2026-01-29 02:16:25.96	350.00	17.86	-30.7	-34.6	12.0	3.59e-04	0	43	0	285212672	21	5650
2026-01-29 02:16:26.96	349.81	17.93	-30.7	-34.7	11.9	4.49e-04	0	43	0	287309824	21	5677
2026-01-29 02:16:27.96	349.62	18.00	-30.7	-34.6	12.0	4.08e-04	0	43	0	289406976	21	5643
2026-01-29 02:16:28.97	349.43	18.07	-30.6	-34.3	12.2	3.19e-04	0	43	0	291504128	21	5520
2026-01-29 02:16:29.97	349.23	18.14	-30.6	-34.2	12.3	1.94e-04	0	43	0	293601280	21	5455
2026-01-29 02:16:30.97	349.04	18.21	-30.6	-34.1	12.4	1.76e-04	0	43	0	294649856	21	5402
2026-01-29 02:16:31.98	348.85	18.28	-30.5	-33.9	12.5	1.43e-04	0	43	0	296747008	21	5349
2026-01-29 02:16:32.98	348.65	18.35	-30.5	-34.0	12.4	1.52e-04	0	43	0	298844160	21	5370
2026-01-29 02:16:33.98	348.46	18.42	-30.5	-34.0	12.4	1.34e-04	0	43	0	300941312	21	5380
2026-01-29 02:16:34.99	348.26	18.49	-30.7	-34.4	12.1	1.93e-04	0	43	0	301989888	21	5549
2026-01-29 02:16:36.00	348.06	18.56	-30.5	-34.0	12.4	2.03e-04	0	43	0	304087040	21	5371
2026-01-29 02:16:37.00	347.87	18.63	-30.4	-33.7	12.6	1.04e-04	0	43	0	306184192	21	5267
2026-01-29 02:16:38.01	347.66	18.70	-30.3	-33.4	12.8	6.63e-05	0	43	0	308281344	21	5137
2026-01-29 02:16:39.01	347.47	18.77	-30.3	-33.2	12.9	5.03e-05	0	43	0	310378496	21	5064
2026-01-29 02:16:40.02	347.26	18.84	-30.2	-33.2	13.0	4.34e-05	0	43	0	312475648	21	5051
2026-01-29 02:16:41.02	347.06	18.90	-30.1	-32.9	13.2	3.05e-05	0	43	0	313524224	21	4936
2026-01-29 02:16:42.03	346.86	18.97	-30.3	-33.2	12.9	2.21e-05	0	43	0	315621376	21	5056
2026-01-29 02:16:43.03	346.65	19.04	-30.1	-32.8	13.2	3.05e-05	0	43	0	317718528	21	4925
2026-01-29 02:16:44.04	346.45	19.11	-29.9	-32.2	13.6	1.60e-05	0	43	0	319815680	21	4701
2026-01-29 02:16:45.04	346.24	19.17	-29.8	-32.5	13.8	6.80e-06	0	43	0	320864256	20	4885
2026-01-29 02:16:46.04	346.04	19.24	-29.7	-32.3	14.0	6.10e-06	0	43	0	322961408	20	4821
2026-01-29 02:16:47.04	345.83	19.31	-29.6	-32.3	14.2	6.04e-04	0	43	0	325058560	19	4940
2026-01-29 02:16:48.04	345.62	19.37	-29.5	-32.6	14.5	1.50e-06	0	43	0	327155712	18	5135
2026-01-29 02:16:49.04	345.42	19.44	-29.4	-32.3	14.6	0.00e+00	0	43	0	329252864	18	5028
2026-01-29 02:16:50.05	345.20	19.51	-29.4	-32.3	14.6	1.65e-03	0	43	0	330301440	18	5039
2026-01-29 02:16:51.06	344.99	19.57	-29.3	-32.2	14.7	0.00e+00	0	43	0	332398592	18	5007
2026-01-29 02:16:52.06	344.78	19.64	-29.4	-32.2	14.7	0.00e+00	0	43	0	334495744	18	5014
2026-01-29 02:16:53.06	344.57	19.70	-29.3	-32.2	14.7	0.00e+00	0	43	0	336592896	18	5007
2026-01-29 02:16:54.07	344.35	19.77	-29.5	-32.5	14.5	1.89e-03	0	43	0	338690048	18	5111
2026-01-29 02:16:55.07	344.14	19.84	-29.3	-32.0	14.8	0.00e+00	0	43	0	339738624	18	4932
2026-01-29 02:16:56.08	343.92	19.90	-29.3	-32.2	14.7	0.00e+00	0	43	0	341835776	18	5000
2026-01-29 02:16:57.08	343.71	19.96	-29.2	-31.8	14.9	2.07e-03	0	43	0	343932928	18	4878
2026-01-29 02:16:58.09	343.49	20.03	-29.2	-31.8	14.9	0.00e+00	0	43	0	346030080	18	4862
2026-01-29 02:16:59.09	343.27	20.09	-29.3	-32.1	14.7	0.00e+00	0	43	0	348127232	18	4986
2026-01-29 02:17:00.09	343.05	20.16	-29.2	-31.8	14.9	1.96e-03	0	43	0	349175808	18	4867
2026-01-29 02:17:01.10	342.83	20.22	-29.2	-31.8	14.9	0.00e+00	0	43	0	351272960	18	4882
2026-01-29 02:17:02.10	342.61	20.28	-29.2	-31.7	15.0	7.00e-07	0	43	0	353370112	18	4841
2026-01-29 02:17:03.10	342.39	20.35	-29.1	-31.6	15.0	0.00e+00	0	43	0	355467264	18	4800
2026-01-29 02:17:04.10	342.16	20.41	-29.0	-31.4	15.2	0.00e+00	0	43	0	357564416	18	4730
2026-01-29 02:17:05.11	341.94	20.47	-29.0	-31.4	15.2	2.20e-03	0	43	0	358612992	18	4749
2026-01-29 02:17:06.11	341.71	20.53	-29.2	-31.7	15.0	0.00e+00	0	43	0	360710144	18	4837
2026-01-29 02:17:07.11	341.49	20.59	-29.0	-31.4	15.2	0.00e+00	0	43	0	362807296	18	4723
2026-01-29 02:17:08.11	341.26	20.66	-29.0	-31.4	15.2	2.23e-03	0	43	0	364904448	18	4721
2026-01-29 02:17:09.11	341.04	20.72	-29.0	-31.4	15.2	1.22e-05	0	43	0	365953024	18	4737
2026-01-29 02:17:10.12	340.81	20.78	-29.0	-31.4	15.2	0.00e+00	0	43	0	368050176	18	4732
2026-01-29 02:17:11.12	340.58	20.84	-28.9	-31.5	15.4	2.06e-03	0	43	0	370147328	17	4873
2026-01-29 02:17:12.12	340.35	20.90	-28.9	-31.7	15.3	2.29e-03	0	43	0	372244480	17	4936
2026-01-29 02:17:13.12	340.12	20.96	-29.2	-31.8	14.9	0.00e+00	0	43	0	374341632	18	4878
2026-01-29 02:17:14.13	339.88	21.02	-29.4	-32.4	14.5	2.36e-03	0	43	0	375390208	18	5084
2026-01-29 02:17:15.13	339.65	21.07	-29.2	-31.8	15.0	2.27e-03	0	43	0	377487360	18	4847
2026-01-29 02:17:16.13	339.42	21.13	-29.1	-31.5	15.2	0.00e+00	0	43	0	379584512	18	4748
2026-01-29 02:17:17.13	339.18	21.19	-28.9	-31.6	15.3	2.17e-03	0	43	0	381681664	17	4917
2026-01-29 02:17:18.14	338.95	21.25	-29.0	-31.3	15.2	1.99e-03	0	44	0	383778816	18	4712
2026-01-29 02:17:19.14	338.71	21.31	-29.1	-31.7	15.1	0.00e+00	0	43	0	384827392	18	4823
2026-01-29 02:17:20.15	338.47	21.36	-29.3	-32.2	14.7	7.00e-07	0	43	0	386924544	18	4993
2026-01-29 02:17:21.16	338.23	21.42	-29.2	-31.9	14.9	2.28e-03	0	43	0	389021696	18	4895
2026-01-29 02:17:22.16	337.99	21.48	-29.2	-31.8	15.0	0.00e+00	0	43	0	391118848	18	4870
2026-01-29 02:17:23.17	337.75	21.53	-29.1	-31.6	15.0	2.52e-03	0	44	0	393216000	18	4790
2026-01-29 02:17:24.17	337.51	21.59	-29.2	-31.9	14.9	2.49e-03	0	43	0	394264576	18	4893
2026-01-29 02:17:25.17	337.27	21.64	-29.2	-31.8	15.0	0.00e+00	0	43	0	396361728	18	4868
2026-01-29 02:17:26.18	337.02	21.70	-29.3	-32.0	14.8	2.64e-03	0	44	0	398458880	18	4940
2026-01-29 02:17:27.18	336.78	21.75	-29.2	-31.7	15.0	0.00e+00	0	43	0	400556032	18	4831
2026-01-29 02:17:28.18	336.54	21.81	-29.1	-31.6	15.1	0.00e+00	0	43	0	402653184	18	4794
2026-01-29 02:17:29.18	336.29	21.86	-29.2	-31.7	15.0	2.37e-03	0	43	0	403701760	18	4834
2026-01-29 02:17:30.19	336.04	21.91	-29.1	-31.7	15.0	2.49e-03	0	43	0	405798912	18	4824
2026-01-29 02:17:31.19	335.80	21.96	-29.3	-32.2	14.8	0.00e+00	0	43	0	407896064	18	4989
2026-01-29 02:17:32.20	335.55	22.02	-29.3	-32.0	14.9	2.44e-03	0	43	0	409993216	18	4926
2026-01-29 02:17:33.21	335.30	22.07	-29.3	-32.0	14.8	2.56e-03	0	43	0	412090368	18	4931
2026-01-29 02:17:34.20	335.05	22.12	-29.2	-31.7	15.0	0.00e+00	0	43	0	413138944	18	4831
2026-01-29 02:17:35.20	334.80	22.17	-29.0	-31.3	15.3	3.28e-03	0	43	0	415236096	18	4696
2026-01-29 02:17:36.21	334.55	22.22	-28.9	-31.6	15.4	3.16e-03	0	43	0	417333248	17	4912
2026-01-29 02:17:37.20	334.30	22.27	-28.9	-31.6	15.4	0.00e+00	0	43	0	419430400	17	4905
2026-01-29 02:17:38.21	334.05	22.32	-29.1	-31.7	15.1	0.00e+00	0	43	0	420478976	18	4807
2026-01-29 02:17:39.21	333.79	22.36	-29.4	-32.2	14.8	3.19e-03	0	43	0	422576128	18	4990
2026-01-29 02:17:40.21	333.54	22.41	-29.2	-31.8	15.1	7.00e-07	0	44	0	424673280	18	4846
2026-01-29 02:17:41.22	333.28	22.46	-28.9	-31.2	15.4	7.00e-07	0	43	0	426770432	18	4650
2026-01-29 02:17:42.22	333.03	22.51	-28.8	-31.3	15.6	2.23e-03	0	43	0	428867584	17	4798
2026-01-29 02:17:43.22	332.77	22.55	-28.7	-31.1	15.7	0.00e+00	0	43	0	430964736	17	4742
2026-01-29 02:17:44.23	332.51	22.60	-28.7	-31.0	15.8	0.00e+00	0	43	0	432013312	17	4695
2026-01-29 02:17:45.23	332.25	22.64	-28.7	-31.0	15.8	0.00e+00	0	43	0	434110464	17	4698
2026-01-29 02:17:46.23	332.00	22.69	-28.7	-31.1	15.7	0.00e+00	0	43	0	436207616	17	4722
2026-01-29 02:17:47.23	331.74	22.73	-28.5	-30.5	16.1	3.48e-03	0	43	0	438304768	17	4555
2026-01-29 02:17:48.24	331.47	22.78	-28.5	-31.0	16.1	0.00e+00	0	43	0	439353344	16	4816
2026-01-29 02:17:49.23	331.22	22.82	-28.5	-30.6	16.0	0.00e+00	0	43	0	441450496	17	4593
2026-01-29 02:17:50.23	330.95	22.86	-28.6	-30.8	15.9	2.81e-03	0	43	0	443547648	17	4635
2026-01-29 02:17:51.24	330.69	22.90	-28.4	-30.5	16.1	0.00e+00	0	43	0	445644800	17	4535
2026-01-29 02:17:52.24	330.43	22.94	-28.5	-30.5	16.1	0.00e+00	0	43	0	447741952	17	4549
2026-01-29 02:17:53.25	330.16	22.98	-28.4	-30.8	16.1	1.47e-03	0	43	0	448790528	16	4764
2026-01-29 02:17:54.25	329.90	23.02	-28.5	-30.5	16.0	1.71e-03	0	43	0	450887680	17	4555
2026-01-29 02:17:55.25	329.63	23.06	-28.5	-30.7	16.0	0.00e+00	0	43	0	452984832	17	4600
2026-01-29 02:17:56.25	329.37	23.10	-28.7	-31.1	15.7	0.00e+00	0	43	0	455081984	17	4740
2026-01-29 02:17:57.25	329.10	23.14	-28.8	-31.4	15.5	2.70e-03	0	43	0	457179136	17	4850
2026-01-29 02:17:58.26	328.83	23.18	-29.0	-31.3	15.3	0.00e+00	0	43	0	458227712	18	4696
2026-01-29 02:17:59.26	328.56	23.22	-28.8	-31.2	15.6	0.00e+00	0	43	0	460324864	17	4786
2026-01-29 02:18:00.27	328.29	23.25	-28.6	-30.9	15.8	1.83e-03	0	43	0	462422016	17	4687
2026-01-29 02:18:01.27	328.02	23.29	-28.6	-30.8	15.9	0.00e+00	0	43	0	464519168	17	4635
2026-01-29 02:18:02.27	327.76	23.32	-28.6	-30.9	15.8	0.00e+00	0	43	0	466616320	17	4668
2026-01-29 02:18:03.27	327.49	23.36	-28.9	-31.5	15.5	0.00e+00	0	43	0	467664896	17	4867
2026-01-29 02:18:04.28	327.21	23.39	-28.9	-31.4	15.5	7.00e-07	0	43	0	469762048	17	4848
2026-01-29 02:18:05.29	326.94	23.42	-29.0	-31.2	15.3	0.00e+00	0	43	0	471859200	18	4662
2026-01-29 02:18:06.28	326.67	23.46	-29.0	-31.3	15.3	0.00e+00	0	43	0	473956352	18	4677
2026-01-29 02:18:07.29	326.39	23.49	-29.1	-31.5	15.2	7.00e-07	0	43	0	476053504	18	4759
2026-01-29 02:18:08.29	326.12	23.52	-29.1	-31.4	15.2	0.00e+00	0	43	0	477102080	18	4737
2026-01-29 02:18:09.29	325.85	23.55	-29.2	-31.8	15.0	0.00e+00	0	43	0	479199232	18	4844
2026-01-29 02:18:10.30	325.57	23.58	-29.4	-32.3	14.7	0.00e+00	0	43	0	481296384	18	5027
2026-01-29 02:18:11.31	325.29	23.61	-29.7	-32.6	14.2	0.00e+00	0	43	0	483393536	19	5025
2026-01-29 02:18:12.31	325.02	23.64	-29.9	-33.1	13.9	3.80e-06	0	43	0	485490688	19	5199
2026-01-29 02:18:13.32	324.74	23.67	-29.9	-33.2	13.9	8.30e-06	0	43	0	486539264	19	5250
2026-01-29 02:18:14.33	324.46	23.69	-29.8	-32.5	13.9	9.10e-06	0	43	0	488636416	20	4895
2026-01-29 02:18:15.33	324.19	23.72	-29.7	-32.2	14.1	3.80e-06	0	43	0	490733568	20	4782
2026-01-29 02:18:16.34	323.91	23.75	-29.7	-32.6	14.3	7.00e-07	0	43	0	492830720	19	5000
2026-01-29 02:18:17.35	323.63	23.77	-29.8	-32.9	14.0	7.00e-07	0	43	0	493879296	19	5119
2026-01-29 02:18:18.35	323.35	23.79	-29.9	-33.2	13.8	5.30e-06	0	43	0	495976448	19	5243
2026-01-29 02:18:19.35	323.07	23.82	-29.9	-33.1	13.3	4.50e-06	0	44	0	498073600	19	5198
2026-01-29 02:18:20.36	322.79	23.84	-30.1	-33.2	13.1	9.90e-06	0	43	0	500170752	20	5139
2026-01-29 02:18:21.36	322.51	23.86	-30.2	-33.5	13.4	1.90e-05	0	43	0	502267904	20	5236
2026-01-29 02:18:22.37	322.23	23.88	-30.0	-32.9	13.6	1.06e-05	0	43	0	504365056	20	5046
2026-01-29 02:18:23.37	321.95	23.91	-29.9	-32.7	13.7	3.00e-06	0	43	0	505413632	20	4965
2026-01-29 02:18:24.37	321.67	23.93	-29.9	-32.6	13.9	1.50e-06	0	43	0	507510784	20	4903
2026-01-29 02:18:25.38	321.38	23.94	-30.0	-33.3	13.8	3.80e-06	0	43	0	509607936	19	5278
2026-01-29 02:18:26.38	321.10	23.96	-30.0	-32.8	13.7	2.20e-06	0	43	0	511705088	20	5006
2026-01-29 02:18:27.39	320.82	23.98	-29.9	-32.7	13.8	3.00e-06	0	44	0	512753664	20	4970
2026-01-29 02:18:28.39	320.54	24.00	-30.0	-32.8	13.7	3.62e-03	0	43	0	514850816	20	5010
2026-01-29 02:18:29.39	320.26	24.01	-30.1	-33.1	13.6	9.10e-06	0	43	0	516947968	20	5085
2026-01-29 02:18:30.40	319.97	24.03	-30.2	-33.6	13.2	1.22e-05	0	43	0	519045120	20	5273
2026-01-29 02:18:31.41	319.69	24.04	-30.3	-33.7	13.2	3.24e-03	0	43	0	521142272	20	5313
2026-01-29 02:18:32.41	319.40	24.06	-30.3	-33.8	13.1	1.85e-03	0	44	0	522190848	20	5367
2026-01-29 02:18:33.41	319.12	24.07	-30.2	-33.4	13.3	2.05e-05	0	43	0	524288000	20	5239
2026-01-29 02:18:34.41	318.84	24.08	-30.2	-33.4	13.3	1.67e-05	0	43	0	526385152	20	5228
2026-01-29 02:18:35.42	318.55	24.10	-30.2	-33.6	13.2	4.15e-03	0	43	0	528482304	20	5293
2026-01-29 02:18:36.42	318.27	24.11	-30.1	-33.2	13.5	1.29e-05	0	43	0	530579456	20	5144
2026-01-29 02:18:37.43	317.98	24.12	-30.2	-33.3	13.4	1.14e-05	0	43	0	531628032	20	5172
2026-01-29 02:18:38.43	317.70	24.13	-30.1	-33.1	13.5	3.32e-03	0	43	0	533725184	20	5119
2026-01-29 02:18:39.43	317.41	24.13	-30.0	-33.0	13.6	2.04e-04	0	44	0	535822336	20	5057
2026-01-29 02:18:40.44	317.13	24.14	-30.1	-33.1	13.5	8.30e-06	0	43	0	537919488	20	5106
2026-01-29 02:18:41.44	316.84	24.15	-30.1	-33.3	13.4	3.10e-03	0	44	0	540016640	20	5176
2026-01-29 02:18:42.44	316.56	24.16	-30.2	-33.5	13.3	2.17e-04	0	43	0	541065216	20	5263
2026-01-29 02:18:43.45	316.27	24.16	-30.2	-33.6	13.2	4.13e-04	0	43	0	543162368	20	5277
2026-01-29 02:18:44.45	315.98	24.17	-30.2	-33.6	13.2	2.97e-05	0	43	0	545259520	20	5272
2026-01-29 02:18:45.46	315.70	24.17	-30.1	-33.2	13.4	1.68e-04	0	43	0	547356672	20	5158
2026-01-29 02:18:46.47	315.41	24.17	-30.2	-33.3	13.4	2.60e-03	0	43	0	549453824	20	5182
2026-01-29 02:18:47.47	315.12	24.18	-30.2	-33.3	13.4	6.80e-06	0	44	0	550502400	20	5178
2026-01-29 02:18:48.47	314.84	24.18	-30.1	-33.3	13.4	1.83e-05	0	44	0	552599552	20	5160
2026-01-29 02:18:49.47	314.55	24.18	-30.1	-33.2	13.5	2.09e-03	0	43	0	554696704	20	5157
2026-01-29 02:18:50.48	314.27	24.18	-30.2	-33.3	13.4	2.40e-03	0	43	0	556793856	20	5175
2026-01-29 02:18:51.49	313.98	24.18	-30.2	-33.5	13.3	1.90e-05	0	44	0	558891008	20	5237
2026-01-29 02:18:52.49	313.69	24.18	-30.2	-33.5	13.3	2.59e-03	0	44	0	559939584	20	5241
2026-01-29 02:18:53.50	313.40	24.18	-30.1	-33.1	13.5	2.57e-03	0	43	0	562036736	20	5101
2026-01-29 02:18:54.50	313.12	24.17	-30.1	-33.2	13.4	1.14e-05	0	44	0	564133888	20	5149
2026-01-29 02:18:55.50	312.83	24.17	-30.1	-33.1	13.5	2.65e-03	0	43	0	566231040	20	5112
2026-01-29 02:18:56.50	312.55	24.16	-30.1	-33.1	13.5	2.40e-03	0	43	0	567279616	20	5102
2026-01-29 02:18:57.50	312.26	24.16	-30.1	-33.1	13.5	1.22e-05	0	43	0	569376768	20	5093
2026-01-29 02:18:58.51	311.98	24.15	-30.2	-33.5	13.3	1.98e-03	0	43	0	571473920	20	5244
2026-01-29 02:18:59.51	311.69	24.15	-30.2	-33.6	13.1	2.36e-03	0	43	0	573571072	20	5288
2026-01-29 02:19:00.51	311.41	24.14	-30.0	-32.9	13.7	1.22e-05	0	43	0	575668224	20	5015
2026-01-29 02:19:01.51	311.12	24.13	-29.9	-33.0	14.0	2.64e-03	0	44	0	576716800	19	5167
2026-01-29 02:19:02.52	310.84	24.12	-29.8	-32.9	14.0	2.70e-03	0	43	0	578813952	19	5133
2026-01-29 02:19:03.52	310.55	24.11	-29.9	-33.2	13.8	1.50e-06	0	43	0	580911104	19	5245
2026-01-29 02:19:04.53	310.27	24.10	-29.8	-32.8	14.1	2.28e-03	0	43	0	583008256	19	5104
2026-01-29 02:19:05.53	309.98	24.09	-29.7	-32.6	14.3	2.00e-03	0	44	0	585105408	19	5014
2026-01-29 02:19:06.54	309.70	24.08	-29.6	-32.3	14.4	2.20e-06	0	43	0	586153984	19	4916
2026-01-29 02:19:07.55	309.41	24.06	-29.4	-32.3	14.7	1.98e-03	0	44	0	588251136	18	5007
2026-01-29 02:19:08.55	309.13	24.05	-29.3	-32.1	14.8	0.00e+00	0	44	0	590348288	18	4958
2026-01-29 02:19:09.56	308.84	24.04	-29.3	-32.0	15.0	0.00e+00	0	43	0	592445440	18	4905
2026-01-29 02:19:10.55	308.56	24.02	-29.1	-31.5	15.2	1.79e-03	0	44	0	594542592	18	4743
2026-01-29 02:19:11.55	308.28	24.01	-29.0	-31.3	15.3	1.44e-03	0	44	0	595591168	18	4702
2026-01-29 02:19:12.56	307.99	23.99	-28.9	-31.1	15.5	0.00e+00	0	43	0	597688320	18	4621
2026-01-29 02:19:13.56	307.71	23.97	-28.8	-31.4	15.5	5.55e-04	0	43	0	599785472	17	4842
2026-01-29 02:19:14.56	307.43	23.95	-28.8	-31.3	15.6	1.36e-03	0	43	0	601882624	17	4804
2026-01-29 02:19:15.56	307.15	23.93	-28.7	-31.1	15.7	0.00e+00	0	44	0	603979776	17	4738
2026-01-29 02:19:16.57	306.87	23.91	-28.6	-30.7	16.0	1.82e-03	0	43	0	605028352	17	4605
2026-01-29 02:19:17.58	306.58	23.89	-28.5	-30.6	16.0	1.90e-03	0	44	0	607125504	17	4579
2026-01-29 02:19:18.58	306.30	23.87	-28.5	-30.5	16.0	0.00e+00	0	43	0	609222656	17	4550
2026-01-29 02:19:19.58	306.02	23.85	-28.5	-30.6	16.0	0.00e+00	0	44	0	611319808	17	4593
2026-01-29 02:19:20.58	305.75	23.83	-28.6	-30.8	15.9	3.44e-04	0	43	0	613416960	17	4645
2026-01-29 02:19:21.58	305.47	23.81	-28.7	-31.0	15.8	1.59e-04	0	44	0	614465536	17	4690
2026-01-29 02:19:22.59	305.19	23.78	-28.6	-30.8	15.9	0.00e+00	0	44	0	616562688	17	4642
2026-01-29 02:19:23.60	304.90	23.76	-28.5	-30.6	16.0	1.96e-03	0	44	0	618659840	17	4575
2026-01-29 02:19:24.60	304.63	23.73	-28.6	-30.8	15.9	2.71e-04	0	44	0	620756992	17	4634
2026-01-29 02:19:25.60	304.35	23.71	-28.5	-30.7	16.0	0.00e+00	0	44	0	622854144	17	4598
2026-01-29 02:19:26.60	304.07	23.68	-28.4	-30.9	16.1	0.00e+00	0	44	0	623902720	16	4770
2026-01-29 02:19:27.61	303.80	23.65	-28.3	-30.7	16.2	2.62e-04	0	43	0	625999872	16	4725
2026-01-29 02:19:28.61	303.52	23.62	-28.5	-30.6	16.0	2.50e-03	0	43	0	628097024	17	4583
2026-01-29 02:19:29.62	303.24	23.59	-28.6	-30.7	15.9	0.00e+00	0	43	0	630194176	17	4621
2026-01-29 02:19:30.62	302.97	23.56	-28.4	-30.4	16.1	0.00e+00	0	44	0	632291328	17	4511
2026-01-29 02:19:31.63	302.69	23.53	-28.4	-30.8	16.1	2.31e-03	0	44	0	633339904	16	4766
2026-01-29 02:19:32.63	302.42	23.50	-28.4	-30.9	16.1	0.00e+00	0	44	0	635437056	16	4803
2026-01-29 02:19:33.63	302.14	23.47	-28.4	-30.3	16.1	0.00e+00	0	44	0	637534208	17	4482
2026-01-29 02:19:34.64	301.87	23.44	-28.4	-31.0	16.1	2.16e-03	0	44	0	639631360	16	4815
2026-01-29 02:19:35.64	301.60	23.41	-28.4	-30.8	16.1	0.00e+00	0	43	0	641728512	16	4771
2026-01-29 02:19:36.64	301.33	23.37	-28.5	-31.0	16.1	0.00e+00	0	43	0	642777088	16	4814
2026-01-29 02:19:37.65	301.05	23.34	-28.4	-30.8	16.1	0.00e+00	0	43	0	644874240	16	4754
2026-01-29 02:19:38.66	300.78	23.30	-28.3	-30.6	16.2	2.59e-03	0	43	0	646971392	16	4681
2026-01-29 02:19:39.67	300.51	23.27	-28.3	-30.5	16.3	0.00e+00	0	44	0	649068544	16	4678
2026-01-29 02:19:40.67	300.24	23.23	-28.4	-30.8	16.2	0.00e+00	0	44	0	651165696	16	4770
2026-01-29 02:19:41.67	299.97	23.19	-28.5	-30.6	16.0	0.00e+00	0	43	0	652214272	17	4583
2026-01-29 02:19:42.68	299.70	23.16	-28.6	-30.9	15.8	0.00e+00	0	43	0	654311424	17	4691
2026-01-29 02:19:43.68	299.43	23.12	-28.7	-31.2	15.6	0.00e+00	0	43	0	656408576	17	4772
2026-01-29 02:19:44.68	299.17	23.08	-28.8	-31.4	15.5	0.00e+00	0	44	0	658505728	17	4846
2026-01-29 02:19:45.69	298.90	23.04	-28.9	-31.6	15.3	0.00e+00	0	43	0	659554304	17	4922
2026-01-29 02:19:46.69	298.63	23.00	-29.0	-31.3	15.3	0.00e+00	0	44	0	661651456	18	4696
2026-01-29 02:19:47.68	298.37	22.96	-29.0	-31.4	15.2	0.00e+00	0	44	0	663748608	18	4726
2026-01-29 02:19:48.68	298.11	22.92	-29.1	-31.6	15.1	0.00e+00	0	43	0	665845760	18	4787
2026-01-29 02:19:49.68	297.85	22.88	-29.1	-31.6	15.1	0.00e+00	0	43	0	667942912	18	4790
2026-01-29 02:19:50.68	297.58	22.84	-29.1	-31.6	15.1	0.00e+00	0	44	0	668991488	18	4809
2026-01-29 02:19:51.68	297.32	22.79	-29.1	-31.5	15.2	7.00e-07	0	43	0	671088640	18	4771
2026-01-29 02:19:52.68	297.06	22.75	-29.1	-31.6	15.1	0.00e+00	0	44	0	673185792	18	4796
2026-01-29 02:19:53.69	296.80	22.71	-29.1	-31.5	15.2	7.00e-07	0	44	0	675282944	18	4751
2026-01-29 02:19:54.69	296.54	22.66	-29.0	-31.3	15.3	0.00e+00	0	43	0	677380096	18	4692
2026-01-29 02:19:55.69	296.28	22.62	-29.0	-31.4	15.2	0.00e+00	0	44	0	678428672	18	4731
2026-01-29 02:19:56.70	296.02	22.57	-29.2	-31.8	15.0	0.00e+00	0	44	0	680525824	18	4845
2026-01-29 02:19:57.70	295.76	22.53	-29.4	-32.2	14.7	1.50e-06	0	43	0	682622976	18	5009
2026-01-29 02:19:58.70	295.51	22.48	-29.5	-32.1	14.5	0.00e+00	0	43	0	684720128	19	4843
2026-01-29 02:19:59.71	295.25	22.43	-29.7	-32.5	14.2	1.50e-06	0	43	0	686817280	19	4998
2026-01-29 02:20:00.71	295.00	22.38	-29.7	-32.6	14.1	2.20e-06	0	44	0	687865856	19	5015
2026-01-29 02:20:01.71	294.74	22.34	-29.7	-32.5	14.2	2.20e-06	0	44	0	689963008	19	4988
2026-01-29 02:20:02.71	294.49	22.29	-29.7	-32.6	14.2	1.50e-06	0	44	0	692060160	19	5027
2026-01-29 02:20:03.71	294.24	22.24	-29.8	-33.0	13.9	5.30e-06	0	43	0	694157312	19	5164
2026-01-29 02:20:04.72	293.98	22.19	-29.8	-32.9	13.9	3.00e-06	0	44	0	696254464	19	5155
2026-01-29 02:20:05.72	293.73	22.14	-29.8	-32.8	14.0	4.50e-06	0	44	0	697303040	19	5118
2026-01-29 02:20:06.72	293.48	22.09	-29.9	-33.1	13.8	6.34e-04	0	43	0	699400192	19	5220
2026-01-29 02:20:07.72	293.23	22.04	-30.0	-32.9	13.5	7.60e-06	0	43	0	701497344	20	5037
2026-01-29 02:20:08.72	292.98	21.98	-30.2	-33.6	13.1	1.44e-05	0	44	0	703594496	20	5315
2026-01-29 02:20:09.73	292.73	21.93	-30.2	-33.6	13.0	1.81e-03	0	43	0	704643072	20	5317
2026-01-29 02:20:10.73	292.49	21.88	-30.2	-33.6	13.1	1.60e-03	0	44	0	706740224	20	5298
2026-01-29 02:20:11.73	292.24	21.83	-30.2	-33.4	13.2	2.97e-05	0	43	0	708837376	20	5240
2026-01-29 02:20:12.74	291.99	21.77	-30.1	-33.2	13.3	1.67e-05	0	44	0	710934528	20	5148
2026-01-29 02:20:13.74	291.75	21.72	-30.0	-33.0	13.4	1.13e-03	0	43	0	713031680	20	5080
2026-01-29 02:20:14.74	291.51	21.67	-30.0	-33.0	13.4	1.22e-05	0	43	0	714080256	20	5094
2026-01-29 02:20:15.74	291.27	21.61	-30.0	-32.9	13.5	9.10e-06	0	43	0	716177408	20	5056
2026-01-29 02:20:16.75	291.02	21.55	-29.9	-33.1	13.7	5.63e-04	0	44	0	718274560	19	5237
2026-01-29 02:20:17.75	290.78	21.50	-29.9	-33.1	13.8	3.00e-06	0	44	0	720371712	19	5205
2026-01-29 02:20:18.76	290.54	21.44	-29.9	-33.2	13.6	7.60e-06	0	44	0	722468864	19	5260
2026-01-29 02:20:19.76	290.30	21.39	-29.8	-33.0	13.8	4.80e-04	0	43	0	723517440	19	5193
2026-01-29 02:20:20.77	290.06	21.33	-29.7	-32.8	13.9	2.20e-06	0	44	0	725614592	19	5099
2026-01-29 02:20:21.77	289.82	21.27	-29.8	-33.1	13.7	4.27e-04	0	43	0	727711744	19	5206
2026-01-29 02:20:22.77	289.59	21.21	-30.0	-33.0	13.4	4.50e-06	0	43	0	729808896	20	5101
2026-01-29 02:20:23.77	289.35	21.16	-30.2	-33.7	13.0	2.97e-05	0	43	0	731906048	20	5345
2026-01-29 02:20:24.77	289.12	21.10	-30.2	-33.5	13.1	3.75e-04	0	44	0	732954624	20	5289
2026-01-29 02:20:25.78	288.88	21.04	-30.1	-33.2	13.3	2.97e-05	0	44	0	735051776	20	5157
2026-01-29 02:20:26.78	288.65	20.98	-29.9	-32.7	13.6	9.90e-06	0	44	0	737148928	20	4991
2026-01-29 02:20:27.78	288.42	20.92	-30.0	-33.4	13.6	7.36e-04	0	43	0	739246080	19	5327
2026-01-29 02:20:28.78	288.19	20.86	-29.8	-32.9	13.9	3.39e-04	0	44	0	741343232	19	5142
2026-01-29 02:20:29.79	287.95	20.80	-29.7	-32.7	13.9	1.50e-06	0	44	0	742391808	19	5070
2026-01-29 02:20:30.78	287.73	20.74	-29.6	-32.5	14.1	1.25e-03	0	43	0	744488960	19	5003
2026-01-29 02:20:31.78	287.50	20.68	-29.8	-32.9	13.8	1.00e-03	0	43	0	746586112	19	5161
2026-01-29 02:20:32.79	287.27	20.62	-29.8	-32.9	13.8	3.80e-06	0	44	0	748683264	19	5158
2026-01-29 02:20:33.79	287.04	20.56	-29.9	-33.3	13.6	1.40e-04	0	43	0	749731840	19	5315
2026-01-29 02:20:34.79	286.82	20.49	-29.9	-32.7	13.5	9.10e-06	0	44	0	751828992	20	4974
2026-01-29 02:20:35.79	286.59	20.43	-29.8	-32.4	13.7	7.60e-06	0	44	0	753926144	20	4865
2026-01-29 02:20:36.78	286.37	20.37	-29.7	-32.3	13.8	8.31e-05	0	43	0	756023296	20	4832
2026-01-29 02:20:37.78	286.15	20.31	-29.6	-32.1	14.0	1.83e-04	0	44	0	758120448	20	4757
2026-01-29 02:20:38.78	285.93	20.24	-29.6	-31.9	14.0	3.00e-06	0	44	0	759169024	20	4711
2026-01-29 02:20:39.79	285.70	20.18	-29.7	-32.7	13.9	3.69e-04	0	43	0	761266176	19	5077
2026-01-29 02:20:40.79	285.48	20.12	-29.6	-32.5	14.1	4.29e-04	0	43	0	763363328	19	4991
2026-01-29 02:20:41.79	285.27	20.05	-29.6	-32.5	14.2	1.50e-06	0	43	0	765460480	19	4996
2026-01-29 02:20:42.80	285.05	19.99	-29.7	-32.5	14.1	3.59e-04	0	43	0	767557632	19	5019
2026-01-29 02:20:43.81	284.83	19.92	-29.7	-32.8	13.9	6.80e-06	0	43	0	768606208	19	5118
2026-01-29 02:20:44.81	284.61	19.86	-29.7	-32.8	13.9	2.20e-06	0	44	0	770703360	19	5105
2026-01-29 02:20:45.81	284.39	19.79	-29.8	-32.8	13.9	5.86e-04	0	44	0	772800512	19	5129
2026-01-29 02:20:46.82	284.18	19.73	-29.8	-32.9	13.8	6.10e-06	0	44	0	774897664	19	5159
2026-01-29 02:20:47.82	283.96	19.66	-29.6	-32.5	14.0	7.00e-07	0	44	0	776994816	19	5025
2026-01-29 02:20:48.82	283.75	19.60	-29.6	-32.4	14.1	1.19e-03	0	44	0	778043392	19	4978
2026-01-29 02:20:49.83	283.54	19.53	-29.6	-32.5	14.1	1.55e-03	0	43	0	780140544	19	5002
2026-01-29 02:20:50.83	283.33	19.46	-29.7	-32.6	14.0	2.20e-06	0	44	0	782237696	19	5055
2026-01-29 02:20:51.83	283.12	19.40	-29.8	-32.9	13.8	2.25e-03	0	44	0	784334848	19	5157
2026-01-29 02:20:52.83	282.91	19.33	-29.7	-32.6	14.0	2.40e-03	0	43	0	786432000	19	5041
2026-01-29 02:20:53.84	282.70	19.26	-29.7	-32.6	14.0	1.50e-06	0	44	0	787480576	19	5049
2026-01-29 02:20:54.84	282.49	19.20	-29.7	-32.7	13.9	7.11e-04	0	44	0	789577728	19	5088
2026-01-29 02:20:55.84	282.29	19.13	-29.7	-32.8	13.8	2.88e-03	0	44	0	791674880	19	5131
2026-01-29 02:20:56.85	282.08	19.06	-29.8	-32.9	13.8	3.80e-06	0	44	0	793772032	19	5153
2026-01-29 02:20:57.85	281.87	18.99	-29.8	-32.9	13.8	3.00e-06	0	44	0	794820608	19	5170
2026-01-29 02:20:58.86	281.67	18.93	-29.7	-32.8	13.8	9.26e-04	0	44	0	796917760	19	5137
2026-01-29 02:20:59.86	281.47	18.86	-29.7	-32.8	13.8	6.10e-06	0	44	0	799014912	19	5115
2026-01-29 02:21:00.86	281.26	18.79	-29.9	-33.2	13.5	6.80e-06	0	44	0	801112064	19	5294
2026-01-29 02:21:01.87	281.06	18.72	-30.1	-33.2	13.1	4.42e-05	0	43	0	803209216	20	5190
2026-01-29 02:21:02.87	280.86	18.65	-30.2	-33.8	12.8	2.59e-05	0	43	0	805306368	20	5403
2026-01-29 02:21:03.88	280.66	18.58	-30.1	-33.4	13.0	3.35e-05	0	43	0	806354944	20	5263
2026-01-29 02:21:04.89	280.46	18.51	-30.0	-33.0	13.3	2.51e-05	0	43	0	808452096	20	5094
2026-01-29 02:21:05.89	280.26	18.44	-29.9	-32.8	13.4	1.60e-05	0	43	0	810549248	20	5045
2026-01-29 02:21:06.90	280.07	18.37	-29.9	-33.4	13.4	1.84e-03	0	43	0	812646400	19	5351
2026-01-29 02:21:07.90	279.87	18.30	-30.0	-33.0	13.3	1.29e-05	0	43	0	813694976	20	5104
2026-01-29 02:21:08.90	279.68	18.24	-30.2	-33.6	12.9	4.11e-05	0	43	0	815792128	20	5323
2026-01-29 02:21:09.90	279.48	18.17	-30.0	-33.1	13.2	2.91e-04	0	44	0	817889280	20	5124
2026-01-29 02:21:10.90	279.29	18.10	-29.8	-32.5	13.5	7.60e-06	0	44	0	819986432	20	4927
2026-01-29 02:21:11.91	279.10	18.03	-29.6	-32.1	13.8	4.50e-06	0	43	0	822083584	20	4776
2026-01-29 02:21:12.91	278.91	17.96	-29.6	-32.6	14.0	2.28e-04	0	44	0	823132160	19	5042
2026-01-29 02:21:13.91	278.72	17.88	-29.6	-32.4	14.1	7.00e-07	0	44	0	825229312	19	4982
2026-01-29 02:21:14.91	278.53	17.81	-29.6	-32.6	13.9	0.00e+00	0	44	0	827326464	19	5044
2026-01-29 02:21:15.92	278.34	17.74	-29.6	-32.5	14.0	3.00e-06	0	43	0	829423616	19	5008
2026-01-29 02:21:16.93	278.15	17.67	-29.7	-32.8	13.8	1.63e-03	0	44	0	831520768	19	5145
2026-01-29 02:21:17.93	277.96	17.60	-29.6	-32.6	13.9	4.50e-06	0	43	0	832569344	19	5055
2026-01-29 02:21:18.93	277.78	17.53	-29.7	-32.6	13.9	1.50e-06	0	44	0	834666496	19	5065
2026-01-29 02:21:19.94	277.59	17.46	-29.8	-32.9	13.7	4.50e-06	0	43	0	836763648	19	5165
2026-01-29 02:21:20.94	277.41	17.39	-29.8	-32.9	13.7	7.60e-06	0	44	0	838860800	19	5181
2026-01-29 02:21:21.95	277.22	17.32	-29.7	-32.7	13.8	4.50e-06	0	44	0	840957952	19	5104
2026-01-29 02:21:22.94	277.04	17.25	-29.8	-32.9	13.7	5.30e-06	0	44	0	842006528	19	5163
2026-01-29 02:21:23.95	276.86	17.17	-29.8	-33.0	13.6	1.43e-04	0	44	0	844103680	19	5209
2026-01-29 02:21:24.95	276.68	17.10	-29.6	-32.6	13.9	4.50e-06	0	44	0	846200832	19	5062
2026-01-29 02:21:25.95	276.50	17.03	-29.6	-32.4	14.0	7.00e-07	0	44	0	848297984	19	4978
2026-01-29 02:21:26.95	276.32	16.96	-29.6	-32.4	14.0	1.50e-06	0	44	0	850395136	19	4987
2026-01-29 02:21:27.95	276.14	16.89	-29.5	-32.4	14.0	7.00e-07	0	44	0	851443712	19	4979
2026-01-29 02:21:28.96	275.97	16.82	-29.7	-32.7	13.8	1.50e-06	0	44	0	853540864	19	5094
2026-01-29 02:21:29.96	275.79	16.74	-29.6	-32.5	13.9	3.80e-06	0	43	0	855638016	19	5012
2026-01-29 02:21:30.97	275.61	16.67	-29.7	-32.6	13.8	3.00e-06	0	44	0	857735168	19	5071
2026-01-29 02:21:31.97	275.44	16.60	-29.5	-32.1	14.1	5.30e-06	0	44	0	859832320	19	4897
2026-01-29 02:21:32.98	275.26	16.53	-29.3	-31.8	14.3	7.00e-07	0	44	0	860880896	19	4771
2026-01-29 02:21:33.99	275.09	16.45	-29.3	-32.2	14.4	0.00e+00	0	44	0	862978048	18	5016
2026-01-29 02:21:34.99	274.92	16.38	-29.2	-31.9	14.6	0.00e+00	0	44	0	865075200	18	4914
2026-01-29 02:21:35.99	274.75	16.31	-29.2	-31.9	14.6	0.00e+00	0	44	0	867172352	18	4926
2026-01-29 02:21:36.99	274.58	16.24	-29.3	-32.3	14.3	0.00e+00	0	44	0	868220928	18	5059
2026-01-29 02:21:38.00	274.41	16.17	-29.2	-32.0	14.5	0.00e+00	0	44	0	870318080	18	4945
2026-01-29 02:21:39.01	274.24	16.09	-29.2	-31.9	14.6	0.00e+00	0	44	0	872415232	18	4932
2026-01-29 02:21:40.02	274.07	16.02	-29.3	-32.1	14.4	0.00e+00	0	43	0	874512384	18	5010
2026-01-29 02:21:41.02	273.90	15.95	-29.3	-32.1	14.4	0.00e+00	0	44	0	876609536	18	5013
2026-01-29 02:21:42.03	273.73	15.87	-29.3	-32.1	14.4	1.50e-06	0	43	0	878706688	18	5003
2026-01-29 02:21:43.03	273.57	15.80	-29.4	-32.4	14.2	2.20e-06	0	43	0	879755264	18	5106
2026-01-29 02:21:44.03	273.40	15.73	-29.3	-32.1	14.4	7.00e-07	0	44	0	881852416	18	5016
2026-01-29 02:21:45.03	273.24	15.66	-29.2	-32.0	14.5	2.66e-04	0	44	0	883949568	18	4973
2026-01-29 02:21:46.04	273.08	15.58	-29.2	-32.1	14.5	0.00e+00	0	44	0	886046720	18	4983
2026-01-29 02:21:47.04	272.91	15.51	-29.3	-32.2	14.4	0.00e+00	0	43	0	887095296	18	5042
2026-01-29 02:21:48.04	272.75	15.44	-29.2	-32.0	14.5	2.43e-03	0	43	0	889192448	18	4975
2026-01-29 02:21:49.05	272.59	15.37	-29.3	-32.3	14.2	5.84e-04	0	44	0	891289600	18	5086
2026-01-29 02:21:50.05	272.43	15.29	-29.2	-31.9	14.5	7.00e-07	0	44	0	893386752	18	4951
2026-01-29 02:21:51.06	272.27	15.22	-29.1	-31.8	14.6	0.00e+00	0	44	0	895483904	18	4911
2026-01-29 02:21:52.07	272.11	15.15	-29.4	-32.5	14.2	6.79e-04	0	43	0	896532480	18	5134
2026-01-29 02:21:53.07	271.96	15.07	-29.5	-32.4	13.9	5.30e-06	0	44	0	898629632	19	5000
2026-01-29 02:21:54.06	271.80	15.00	-29.5	-32.7	14.0	3.00e-06	0	43	0	900726784	18	5206
2026-01-29 02:21:55.06	271.64	14.93	-29.3	-32.3	14.3	3.64e-03	0	44	0	902823936	18	5084
2026-01-29 02:21:56.05	271.49	14.86	-29.3	-32.2	14.3	7.00e-07	0	43	0	904921088	18	5051
2026-01-29 02:21:57.05	271.34	14.79	-29.2	-32.1	14.4	0.00e+00	0	44	0	905969664	18	5000
2026-01-29 02:21:58.05	271.18	14.71	-29.2	-32.1	14.4	4.24e-03	0	43	0	908066816	18	4994
2026-01-29 02:21:59.05	271.03	14.64	-29.2	-31.9	14.5	1.20e-04	0	44	0	910163968	18	4939
2026-01-29 02:22:00.06	270.88	14.57	-29.2	-31.9	14.5	1.96e-03	0	44	0	912261120	18	4926
2026-01-29 02:22:01.06	270.73	14.50	-29.3	-32.2	14.4	7.00e-07	0	44	0	913309696	18	5036
2026-01-29 02:22:02.07	270.58	14.42	-29.4	-32.5	14.2	3.03e-04	0	44	0	915406848	18	5131
2026-01-29 02:22:03.06	270.43	14.35	-29.2	-32.1	14.3	1.95e-03	0	43	0	917504000	18	5015
2026-01-29 02:22:04.07	270.28	14.28	-29.2	-32.0	14.4	7.00e-07	0	43	0	919601152	18	4993
2026-01-29 02:22:05.07	270.13	14.21	-29.3	-32.2	14.2	3.52e-04	0	44	0	921698304	18	5049
2026-01-29 02:22:06.07	269.98	14.13	-29.3	-32.2	14.3	4.25e-03	0	43	0	923795456	18	5045
2026-01-29 02:22:07.08	269.83	14.06	-29.3	-32.4	14.1	1.78e-03	0	43	0	924844032	18	5122
2026-01-29 02:22:08.09	269.69	13.99	-29.4	-32.4	14.1	3.55e-04	0	44	0	926941184	18	5136
2026-01-29 02:22:09.09	269.54	13.92	-29.5	-32.4	13.8	4.44e-03	0	44	0	929038336	19	5007
2026-01-29 02:22:10.10	269.39	13.84	-29.4	-32.5	14.1	4.38e-03	0	43	0	931135488	18	5158
2026-01-29 02:22:11.10	269.25	13.77	-29.2	-32.1	14.3	1.50e-06	0	43	0	932184064	18	5011
2026-01-29 02:22:12.10	269.11	13.70	-29.2	-32.1	14.3	4.37e-03	0	44	0	934281216	18	5000
2026-01-29 02:22:13.10	268.97	13.63	-29.2	-32.1	14.3	4.52e-03	0	44	0	936378368	18	5019
2026-01-29 02:22:14.11	268.82	13.55	-29.3	-32.3	14.2	7.00e-07	0	44	0	938475520	18	5086
2026-01-29 02:22:15.11	268.68	13.48	-29.4	-32.6	14.0	4.22e-03	0	44	0	940572672	18	5198
2026-01-29 02:22:16.11	268.54	13.41	-29.4	-32.6	14.0	4.46e-03	0	44	0	941621248	18	5193
2026-01-29 02:22:17.12	268.40	13.34	-29.5	-32.3	13.8	7.60e-06	0	44	0	943718400	19	4991
2026-01-29 02:22:18.12	268.26	13.26	-29.5	-32.4	13.8	2.27e-03	0	44	0	945815552	19	4998
2026-01-29 02:22:19.13	268.12	13.19	-29.6	-32.7	13.6	4.27e-03	0	44	0	947912704	19	5117
2026-01-29 02:22:20.13	267.98	13.12	-29.6	-32.7	13.5	1.06e-05	0	44	0	950009856	19	5130
2026-01-29 02:22:21.13	267.85	13.05	-29.7	-33.0	13.4	4.25e-03	0	44	0	951058432	19	5222
2026-01-29 02:22:22.14	267.71	12.98	-29.7	-33.0	13.4	1.96e-03	0	44	0	953155584	19	5224
2026-01-29 02:22:23.14	267.57	12.90	-29.8	-33.1	13.3	2.13e-05	0	44	0	955252736	19	5292
2026-01-29 02:22:24.15	267.44	12.83	-29.8	-33.3	13.1	4.17e-03	0	44	0	957349888	19	5373
2026-01-29 02:22:25.15	267.30	12.76	-29.7	-32.9	13.4	2.34e-03	0	44	0	959447040	19	5202
2026-01-29 02:22:26.16	267.17	12.69	-29.6	-32.6	13.6	1.14e-05	0	44	0	960495616	19	5084
2026-01-29 02:22:27.16	267.04	12.62	-29.5	-32.3	13.8	4.38e-03	0	43	0	962592768	19	4990
2026-01-29 02:22:28.16	266.90	12.55	-29.5	-32.3	13.8	4.31e-03	0	44	0	964689920	19	4999
2026-01-29 02:22:29.17	266.77	12.47	-29.4	-32.2	13.8	5.30e-06	0	44	0	966787072	19	4961
2026-01-29 02:22:30.17	266.64	12.40	-29.5	-32.4	13.7	4.35e-03	0	44	0	968884224	19	5020
2026-01-29 02:22:31.18	266.51	12.33	-29.5	-32.8	13.8	4.18e-03	0	43	0	969932800	18	5296
2026-01-29 02:22:32.19	266.38	12.26	-29.7	-32.9	13.4	6.10e-06	0	44	0	972029952	19	5203
2026-01-29 02:22:33.19	266.25	12.19	-29.8	-33.3	13.1	2.89e-03	0	44	0	974127104	19	5380
2026-01-29 02:22:34.20	266.12	12.12	-29.7	-32.9	13.3	4.24e-03	0	44	0	976224256	19	5221
2026-01-29 02:22:35.20	265.99	12.04	-29.6	-32.7	13.5	7.60e-06	0	44	0	978321408	19	5125
2026-01-29 02:22:36.21	265.86	11.97	-29.6	-32.7	13.5	2.38e-03	0	44	0	979369984	19	5122
2026-01-29 02:22:37.21	265.74	11.90	-29.6	-32.8	13.4	3.87e-03	0	44	0	981467136	19	5175
2026-01-29 02:22:38.21	265.61	11.83	-29.7	-32.9	13.3	1.75e-05	0	44	0	983564288	19	5202
2026-01-29 02:22:39.21	265.49	11.76	-29.7	-32.9	13.3	1.67e-05	0	43	0	985661440	19	5216
2026-01-29 02:22:40.22	265.36	11.69	-29.7	-32.9	13.3	1.91e-03	0	44	0	987758592	19	5206
2026-01-29 02:22:41.23	265.24	11.62	-29.6	-32.8	13.4	2.51e-05	0	44	0	988807168	19	5190
2026-01-29 02:22:42.23	265.11	11.55	-29.7	-32.9	13.3	1.60e-05	0	44	0	990904320	19	5231
2026-01-29 02:22:43.24	264.99	11.48	-29.8	-33.1	13.1	1.14e-05	0	44	0	993001472	19	5309
2026-01-29 02:22:44.23	264.87	11.41	-29.8	-33.1	13.1	2.04e-04	0	44	0	995098624	19	5321
2026-01-29 02:22:45.24	264.74	11.34	-29.8	-33.2	13.1	2.67e-05	0	44	0	997195776	19	5346
2026-01-29 02:22:46.24	264.62	11.27	-29.8	-33.3	13.0	4.88e-05	0	44	0	998244352	19	5379
2026-01-29 02:22:47.24	264.50	11.20	-29.8	-33.4	13.0	6.37e-04	0	44	0	1000341504	19	5415
2026-01-29 02:22:48.25	264.38	11.13	-29.9	-33.5	12.8	5.46e-03	0	43	0	1002438656	19	5468
2026-01-29 02:22:49.25	264.26	11.06	-29.9	-33.2	12.6	1.02e-04	0	44	0	1004535808	20	5259
2026-01-29 02:22:50.25	264.14	10.99	-29.9	-33.5	12.8	5.56e-05	0	44	0	1005584384	19	5457
2026-01-29 02:22:51.25	264.03	10.92	-29.8	-33.3	12.9	4.78e-03	0	44	0	1007681536	19	5373
2026-01-29 02:22:52.25	263.91	10.85	-29.8	-33.3	12.9	5.18e-05	0	44	0	1009778688	19	5379
2026-01-29 02:22:53.25	263.79	10.78	-29.8	-33.3	12.9	2.97e-05	0	43	0	1011875840	19	5378
2026-01-29 02:22:54.26	263.67	10.71	-29.9	-33.6	12.7	7.40e-05	0	43	0	1013972992	19	5511
2026-01-29 02:22:55.26	263.56	10.64	-29.8	-33.3	12.9	6.26e-03	0	44	0	1015021568	19	5380
2026-01-29 02:22:56.26	263.44	10.57	-29.8	-33.3	12.9	4.42e-05	0	43	0	1017118720	19	5411
2026-01-29 02:22:57.27	263.33	10.50	-29.8	-33.4	12.8	5.34e-05	0	43	0	1019215872	19	5441
2026-01-29 02:22:58.28	263.21	10.43	-29.9	-33.5	12.7	3.82e-03	0	43	0	1021313024	19	5498
2026-01-29 02:22:59.28	263.10	10.36	-29.9	-33.7	12.6	7.09e-05	0	44	0	1023410176	19	5580
2026-01-29 02:23:00.27	262.99	10.29	-30.0	-33.4	12.4	1.22e-04	0	44	0	1024458752	20	5344
2026-01-29 02:23:01.27	262.87	10.22	-29.9	-33.3	12.5	1.18e-04	0	44	0	1026555904	20	5302
2026-01-29 02:23:02.28	262.76	10.15	-30.0	-33.5	12.3	1.62e-04	0	44	0	1028653056	20	5386
2026-01-29 02:23:03.28	262.65	10.08	-30.1	-33.8	12.1	2.56e-04	0	44	0	1030750208	20	5518
2026-01-29 02:23:04.28	262.54	10.01	-30.0	-33.6	12.2	2.53e-04	0	44	0	1032847360	20	5441
2026-01-29 02:23:05.29	262.43	9.94	-30.1	-33.7	12.1	2.12e-04	0	44	0	1033895936	20	5482
2026-01-29 02:23:06.30	262.32	9.88	-30.1	-33.7	12.1	2.96e-04	0	43	0	1035993088	20	5495
2026-01-29 02:23:07.30	262.21	9.81	-30.0	-33.6	12.2	2.27e-04	0	43	0	1038090240	20	5414
2026-01-29 02:23:08.30	262.10	9.74	-30.1	-33.8	12.1	2.36e-04	0	44	0	1040187392	20	5513
2026-01-29 02:23:09.30	261.99	9.67	-30.1	-33.8	12.0	3.36e-04	0	43	0	1042284544	20	5534
2026-01-29 02:23:10.31	261.88	9.60	-30.0	-33.5	12.3	2.15e-04	0	44	0	1043333120	20	5394
2026-01-29 02:23:11.31	261.77	9.53	-29.9	-33.9	12.4	1.53e-04	0	44	0	1045430272	19	5645
2026-01-29 02:23:12.31	261.67	9.47	-30.0	-33.9	12.1	1.35e-04	0	44	0	1047527424	19	5664
2026-01-29 02:23:13.31	261.56	9.40	-29.9	-33.8	12.4	1.61e-04	0	44	0	1049624576	19	5621
2026-01-29 02:23:14.31	261.46	9.33	-30.0	-33.9	12.4	1.33e-04	0	44	0	1050673152	19	5656
2026-01-29 02:23:15.31	261.35	9.26	-29.9	-33.3	12.3	1.55e-04	0	44	0	1052770304	20	5326
2026-01-29 02:23:16.32	261.24	9.19	-29.9	-33.3	12.4	1.59e-04	0	43	0	1054867456	20	5315
2026-01-29 02:23:17.33	261.14	9.13	-29.4	-33.0	12.2	1.79e-04	0	44	0	1056964608	20	5422
2026-01-29 02:23:18.33	261.04	9.06	-29.6	-33.9	11.3	2.76e-04	0	44	0	1059061760	19	5881
2026-01-29 02:23:19.33	260.93	8.99	-30.1	-33.9	11.7	3.59e-04	0	44	0	1061158912	20	5568
2026-01-29 02:23:20.34	260.83	8.92	-30.2	-34.2	11.1	5.83e-04	0	44	0	1062207488	20	5718
2026-01-29 02:23:21.34	260.73	8.86	-30.2	-34.3	11.2	5.90e-04	0	44	0	1064304640	20	5760
2026-01-29 02:23:22.34	260.62	8.79	-30.3	-34.6	11.4	9.19e-04	0	44	0	1066401792	20	5877
2026-01-29 02:23:23.34	260.52	8.72	-30.3	-34.5	11.2	1.22e-03	0	44	0	1068498944	20	5863
2026-01-29 02:23:24.34	260.42	8.65	-30.3	-34.7	11.2	1.25e-03	0	44	0	1069547520	20	5940
2026-01-29 02:23:25.34	260.32	8.59	-30.3	-34.6	11.3	1.15e-03	0	44	0	1071644672	20	5919
2026-01-29 02:23:26.35	260.22	8.52	-30.2	-34.4	11.4	5.96e-03	0	44	0	1073741824	20	5820
2026-01-29 02:23:27.35	260.12	8.45	-30.3	-34.5	11.3	1.19e-03	0	44	0	1075838976	20	5886
2026-01-29 02:23:28.36	260.02	8.39	-30.3	-34.7	11.2	1.36e-03	0	43	0	1077936128	20	5959
2026-01-29 02:23:29.36	259.92	8.32	-30.2	-34.4	11.4	1.23e-03	0	44	0	1078984704	20	5805
2026-01-29 02:23:30.37	259.82	8.25	-30.2	-34.3	11.5	1.14e-03	0	44	0	1081081856	20	5795
2026-01-29 02:23:31.38	259.73	8.19	-30.3	-34.6	11.3	9.89e-04	0	44	0	1083179008	20	5906
2026-01-29 02:23:32.38	259.63	8.12	-30.3	-34.7	11.2	1.31e-03	0	44	0	1085276160	20	5944
2026-01-29 02:23:33.38	259.53	8.05	-30.3	-34.6	11.2	6.28e-03	0	44	0	1087373312	20	5934
2026-01-29 02:23:34.38	259.44	7.99	-30.4	-34.9	10.9	1.83e-03	0	44	0	1088421888	20	6054
2026-01-29 02:23:35.38	259.34	7.92	-30.4	-35.0	10.9	1.86e-03	0	44	0	1090519040	20	6132
2026-01-29 02:23:36.39	259.24	7.86	-30.5	-34.8	10.7	8.42e-03	0	44	0	1092616192	21	5924
2026-01-29 02:23:37.39	259.15	7.79	-30.5	-34.8	10.7	4.18e-03	0	44	0	1094713344	21	5937
2026-01-29 02:23:38.40	259.05	7.72	-30.5	-34.9	10.6	3.81e-03	0	44	0	1096810496	21	5972
2026-01-29 02:23:39.40	258.96	7.66	-30.6	-35.1	10.5	3.64e-03	0	44	0	1097859072	21	6054
2026-01-29 02:23:40.41	258.87	7.59	-30.6	-35.1	10.4	4.49e-03	0	43	0	1099956224	21	6077
2026-01-29 02:23:41.41	258.77	7.53	-30.6	-35.2	10.4	4.94e-03	0	44	0	1102053376	21	6110
2026-01-29 02:23:42.41	258.68	7.46	-30.6	-35.1	10.4	4.39e-03	0	44	0	1104150528	21	6060
2026-01-29 02:23:43.42	258.59	7.40	-30.6	-35.1	10.4	4.78e-03	0	44	0	1106247680	21	6046
2026-01-29 02:23:44.42	258.50	7.33	-30.5	-34.9	10.6	7.87e-03	0	44	0	1107296256	21	5972
2026-01-29 02:23:45.42	258.40	7.27	-30.5	-35.0	10.4	4.23e-03	0	44	0	1109393408	21	6040
2026-01-29 02:23:46.42	258.31	7.20	-30.5	-35.0	10.4	5.10e-03	0	44	0	1111490560	21	6032
2026-01-29 02:23:47.43	258.22	7.14	-30.5	-34.9	10.5	8.19e-03	0	44	0	1113587712	21	5982
2026-01-29 02:23:48.43	258.13	7.07	-32.6	-46.4	3.8	8.64e-03	0	44	0	1114636288	25	17626
2026-01-29 02:23:49.43	258.04	7.01	-33.1	-47.2	3.8	1.49e+00	0	44	104	1114636288	26	18369

#Closed at: 2026-01-29 02:23:49
#Recorded file [1114 MB]: D:/data/31010_260129_051353.dat