passes_logs/2026/01/29/R2M6_AANII_01/R2M6_AANII_01__20260129_232410_NOAA_21_JPSS-2_rec.log

#Pass ID: 20260129_232410_NOAA 21 (JPSS-2)
#Satellite: NOAA 21 (JPSS-2)
#Configuration: NOAA 21
#almurnet v.1.7.20240730
#Start time: 2026-01-29 23:24:12

#Version: 2.2.20231116
#Station: R2M6_AANII_01
#Location: 30.233357 lon 59.946436 lat
#TLE: 1 54234U 22150A   26028.89828222  .00000145  00000+0  89569-4 0  9997
#TLE: 2 54234  98.7511 329.6308 0000927 198.8651 161.2491 14.19540676166783

#Time	Az	El	Level	Level2	SNR	BER	BlckErr	Temp	State	Recorded	gain1	gain2
2026-01-29 23:24:12.58	24.03	7.15	-30.1	-34.5	4.7	1.37e+00	0	41	0	0	20	5987
2026-01-29 23:24:13.58	24.09	7.22	-30.5	-35.5	4.6	1.40e+00	0	41	104	0	21	6364
2026-01-29 23:24:14.59	24.15	7.30	-31.0	-36.2	7.5	9.01e-02	0	41	0	0	21	6557
2026-01-29 23:24:15.60	24.21	7.37	-31.0	-35.9	7.4	1.33e-01	0	41	0	3145728	22	6299
2026-01-29 23:24:16.60	24.26	7.44	-30.7	-34.8	8.1	6.55e-02	0	41	0	6291456	22	5770
2026-01-29 23:24:17.60	24.32	7.51	-30.5	-34.6	8.7	3.91e-02	0	41	0	9437184	21	5769
2026-01-29 23:24:18.61	24.38	7.59	-30.2	-33.7	9.3	2.29e-02	0	41	0	12582912	21	5337
2026-01-29 23:24:19.61	24.44	7.66	-30.0	-33.6	9.7	1.24e-02	0	41	0	15728640	20	5402
2026-01-29 23:24:20.61	24.50	7.74	-30.0	-33.4	9.9	8.12e-03	0	41	0	18874368	20	5343
2026-01-29 23:24:21.61	24.56	7.81	-29.9	-33.3	10.0	9.38e-03	0	41	0	22020096	20	5291
2026-01-29 23:24:22.61	24.62	7.88	-29.8	-33.4	10.3	5.46e-03	0	41	0	24117248	19	5415
2026-01-29 23:24:23.62	24.68	7.96	-29.8	-33.2	10.5	3.75e-03	0	41	0	27262976	19	5336
2026-01-29 23:24:24.62	24.73	8.03	-29.9	-33.7	10.1	5.10e-03	0	41	0	30408704	19	5547
2026-01-29 23:24:25.63	24.80	8.11	-29.9	-33.1	10.1	7.95e-03	0	41	0	33554432	20	5214
2026-01-29 23:24:26.63	24.86	8.18	-29.7	-33.0	10.6	3.82e-03	0	41	0	36700160	19	5258
2026-01-29 23:24:27.64	24.92	8.26	-29.8	-33.2	10.5	3.23e-03	0	41	0	40894464	19	5329
2026-01-29 23:24:28.64	24.98	8.33	-29.7	-32.9	10.7	3.35e-03	0	41	0	44040192	19	5231
2026-01-29 23:24:29.64	25.04	8.41	-29.5	-32.4	11.1	1.92e-03	0	41	0	47185920	19	5037
2026-01-29 23:24:30.65	25.10	8.49	-29.4	-32.1	11.3	1.37e-03	0	41	0	49283072	19	4911
2026-01-29 23:24:31.66	25.16	8.56	-29.2	-32.2	11.6	8.55e-04	0	41	0	52428800	18	5067
2026-01-29 23:24:32.65	25.23	8.64	-29.2	-32.1	11.6	6.09e-04	0	41	0	55574528	18	5028
2026-01-29 23:24:33.66	25.29	8.72	-29.2	-32.2	11.6	7.20e-04	0	41	0	58720256	18	5058
2026-01-29 23:24:34.66	25.35	8.79	-29.2	-32.2	11.6	8.04e-04	0	42	0	61865984	18	5051
2026-01-29 23:24:35.66	25.41	8.87	-29.4	-32.5	11.4	8.84e-04	0	42	0	65011712	18	5181
2026-01-29 23:24:36.66	25.48	8.95	-29.2	-31.7	11.6	1.03e-03	0	41	0	68157440	19	4772
2026-01-29 23:24:37.66	25.54	9.02	-28.9	-30.8	12.2	3.30e-04	0	42	0	71303168	19	4474
2026-01-29 23:24:38.66	25.61	9.10	-28.6	-30.5	12.6	1.11e-04	0	41	0	74448896	18	4504
2026-01-29 23:24:39.67	25.67	9.18	-28.3	-29.8	13.1	3.28e-05	0	42	0	77594624	18	4289
2026-01-29 23:24:40.67	25.73	9.26	-28.2	-30.1	13.2	2.36e-05	0	42	0	80740352	17	4471
2026-01-29 23:24:41.68	25.80	9.34	-28.2	-30.1	13.2	1.52e-05	0	42	0	83886080	17	4482
2026-01-29 23:24:42.68	25.87	9.41	-28.3	-30.2	13.1	1.90e-05	0	42	0	87031808	17	4511
2026-01-29 23:24:43.68	25.93	9.49	-28.2	-30.2	13.2	3.50e-05	0	42	0	90177536	17	4486
2026-01-29 23:24:44.68	26.00	9.57	-28.1	-29.9	13.3	2.28e-05	0	42	0	93323264	17	4413
2026-01-29 23:24:45.68	26.06	9.65	-28.1	-29.7	13.5	9.90e-06	0	42	0	96468992	17	4355
2026-01-29 23:24:46.69	26.13	9.73	-28.1	-29.8	13.4	1.06e-05	0	42	0	99614720	17	4372
2026-01-29 23:24:47.69	26.20	9.81	-28.1	-29.8	13.5	1.52e-05	0	42	0	102760448	17	4362
2026-01-29 23:24:48.69	26.26	9.89	-28.2	-30.0	13.4	1.22e-05	0	42	0	105906176	17	4424
2026-01-29 23:24:49.69	26.33	9.97	-28.1	-29.8	13.4	1.60e-05	0	42	0	109051904	17	4383
2026-01-29 23:24:50.70	26.40	10.05	-27.9	-29.3	13.7	9.10e-06	0	42	0	112197632	17	4224
2026-01-29 23:24:51.69	26.47	10.13	-27.8	-29.5	13.9	3.80e-06	0	42	0	115343360	16	4388
2026-01-29 23:24:52.70	26.54	10.21	-27.8	-29.6	13.9	2.20e-06	0	42	0	118489088	16	4407
2026-01-29 23:24:53.70	26.61	10.29	-27.8	-29.6	13.9	6.80e-06	0	42	0	121634816	16	4407
2026-01-29 23:24:54.70	26.68	10.37	-27.6	-29.1	14.2	2.20e-06	0	42	0	124780544	16	4268
2026-01-29 23:24:55.70	26.75	10.45	-27.6	-29.0	14.2	7.00e-07	0	42	0	127926272	16	4252
2026-01-29 23:24:56.70	26.82	10.53	-27.7	-29.2	14.1	2.20e-06	0	42	0	131072000	16	4307
2026-01-29 23:24:57.70	26.89	10.61	-27.7	-29.4	14.0	7.00e-07	0	42	0	134217728	16	4361
2026-01-29 23:24:58.71	26.96	10.70	-27.7	-29.3	14.1	7.00e-07	0	42	0	137363456	16	4316
2026-01-29 23:24:59.71	27.03	10.78	-27.6	-29.1	14.2	1.50e-06	0	42	0	140509184	16	4262
2026-01-29 23:25:00.71	27.10	10.86	-27.5	-28.9	14.3	7.00e-07	0	42	0	143654912	16	4215
2026-01-29 23:25:01.71	27.17	10.94	-27.5	-28.9	14.2	7.00e-07	0	42	0	146800640	16	4207
2026-01-29 23:25:02.71	27.24	11.03	-27.5	-28.7	14.4	7.00e-07	0	42	0	149946368	16	4157
2026-01-29 23:25:03.72	27.32	11.11	-27.6	-29.1	14.1	7.00e-07	0	42	0	153092096	16	4272
2026-01-29 23:25:04.73	27.39	11.20	-27.6	-29.1	14.2	2.20e-06	0	42	0	156237824	16	4285
2026-01-29 23:25:05.73	27.47	11.28	-27.5	-28.8	14.4	1.50e-06	0	42	0	159383552	16	4202
2026-01-29 23:25:06.73	27.54	11.36	-27.5	-28.8	14.4	1.50e-06	0	42	0	162529280	16	4194
2026-01-29 23:25:07.73	27.61	11.45	-27.5	-28.8	14.4	1.50e-06	0	42	0	165675008	16	4177
2026-01-29 23:25:08.74	27.69	11.53	-27.5	-28.7	14.5	7.00e-07	0	42	0	168820736	16	4166
2026-01-29 23:25:09.74	27.76	11.62	-27.5	-28.7	14.4	2.20e-06	0	42	0	171966464	16	4157
2026-01-29 23:25:10.74	27.84	11.70	-27.5	-28.8	14.5	0.00e+00	0	42	0	175112192	16	4176
2026-01-29 23:25:11.75	27.92	11.79	-27.6	-29.0	14.4	7.00e-07	0	42	0	178257920	16	4234
2026-01-29 23:25:12.75	27.99	11.87	-27.4	-28.6	14.5	1.50e-06	0	42	0	181403648	16	4139
2026-01-29 23:25:13.74	28.07	11.96	-27.1	-28.5	14.7	0.00e+00	0	42	0	184549376	15	4202
2026-01-29 23:25:14.75	28.15	12.04	-27.0	-28.2	14.9	7.00e-07	0	42	0	187695104	15	4143
2026-01-29 23:25:15.75	28.22	12.13	-27.0	-28.1	14.9	0.00e+00	0	42	0	190840832	15	4112
2026-01-29 23:25:16.76	28.30	12.22	-27.0	-28.2	14.9	0.00e+00	0	42	0	193986560	15	4131
2026-01-29 23:25:17.76	28.38	12.30	-27.2	-28.5	14.7	0.00e+00	0	42	0	197132288	15	4223
2026-01-29 23:25:18.76	28.46	12.39	-27.1	-28.3	14.8	0.00e+00	0	42	0	200278016	15	4173
2026-01-29 23:25:19.77	28.54	12.48	-27.0	-28.2	14.9	2.13e-05	0	42	0	203423744	15	4126
2026-01-29 23:25:20.77	28.62	12.57	-27.0	-28.3	14.9	0.00e+00	0	42	0	206569472	15	4157
2026-01-29 23:25:21.77	28.70	12.65	-27.1	-28.4	14.8	0.00e+00	0	42	0	209715200	15	4191
2026-01-29 23:25:22.78	28.78	12.74	-27.1	-28.4	14.8	3.34e-04	0	42	0	212860928	15	4173
2026-01-29 23:25:23.78	28.86	12.83	-27.1	-28.5	14.7	0.00e+00	0	42	0	216006656	15	4209
2026-01-29 23:25:24.78	28.94	12.92	-27.0	-28.8	14.9	5.39e-04	0	42	0	219152384	14	4394
2026-01-29 23:25:25.78	29.03	13.01	-27.0	-28.7	14.9	5.91e-04	0	42	0	222298112	14	4379
2026-01-29 23:25:26.78	29.11	13.10	-27.1	-28.9	14.8	0.00e+00	0	42	0	225443840	14	4444
2026-01-29 23:25:27.78	29.19	13.19	-27.0	-28.6	15.0	6.96e-04	0	43	0	228589568	14	4350
2026-01-29 23:25:28.78	29.28	13.28	-26.9	-28.9	15.1	8.21e-04	0	42	0	231735296	13	4530
2026-01-29 23:25:29.79	29.36	13.37	-26.9	-28.9	15.1	0.00e+00	0	42	0	234881024	13	4548
2026-01-29 23:25:30.79	29.44	13.46	-26.8	-28.8	15.2	8.20e-04	0	42	0	238026752	13	4508
2026-01-29 23:25:31.80	29.53	13.55	-26.8	-28.8	15.2	9.46e-04	0	43	0	241172480	13	4512
2026-01-29 23:25:32.81	29.62	13.64	-27.0	-29.1	15.1	0.00e+00	0	42	0	244318208	13	4597
2026-01-29 23:25:33.82	29.70	13.73	-26.9	-28.5	15.1	1.20e-03	0	42	0	247463936	14	4323
2026-01-29 23:25:34.82	29.79	13.82	-26.9	-29.0	15.1	1.08e-03	0	43	0	250609664	13	4564
2026-01-29 23:25:35.83	29.88	13.91	-26.9	-29.0	15.1	0.00e+00	0	42	0	253755392	13	4574
2026-01-29 23:25:36.83	29.96	14.01	-27.0	-28.7	14.9	9.97e-04	0	42	0	256901120	14	4385
2026-01-29 23:25:37.84	30.05	14.10	-27.2	-29.1	14.7	0.00e+00	0	42	0	260046848	14	4498
2026-01-29 23:25:38.84	30.14	14.19	-27.0	-28.7	15.0	0.00e+00	0	42	0	263192576	14	4386
2026-01-29 23:25:39.84	30.23	14.28	-26.8	-28.8	15.2	7.03e-04	0	43	0	266338304	13	4530
2026-01-29 23:25:40.84	30.32	14.38	-26.8	-28.8	15.2	6.33e-04	0	43	0	269484032	13	4519
2026-01-29 23:25:41.85	30.41	14.47	-27.1	-28.8	14.9	0.00e+00	0	42	0	272629760	14	4409
2026-01-29 23:25:42.84	30.50	14.56	-27.2	-29.1	14.8	1.50e-06	0	43	0	275775488	14	4478
2026-01-29 23:25:43.84	30.59	14.66	-27.1	-28.9	14.9	0.00e+00	0	43	0	278921216	14	4421
2026-01-29 23:25:44.83	30.68	14.75	-27.0	-28.8	15.0	0.00e+00	0	43	0	282066944	14	4392
2026-01-29 23:25:45.84	30.78	14.85	-27.1	-29.0	14.9	1.95e-04	0	42	0	285212672	14	4449
2026-01-29 23:25:46.85	30.87	14.94	-27.1	-28.9	14.9	0.00e+00	0	43	0	288358400	14	4420
2026-01-29 23:25:47.85	30.96	15.04	-27.1	-28.9	14.9	0.00e+00	0	43	0	291504128	14	4437
2026-01-29 23:25:48.86	31.06	15.13	-27.0	-28.8	15.0	7.00e-07	0	43	0	294649856	14	4388
2026-01-29 23:25:49.86	31.15	15.23	-26.9	-28.4	15.2	0.00e+00	0	43	0	297795584	14	4298
2026-01-29 23:25:50.86	31.25	15.33	-26.9	-28.5	15.2	0.00e+00	0	43	0	300941312	14	4306
2026-01-29 23:25:51.86	31.34	15.42	-26.9	-28.4	15.2	0.00e+00	0	43	0	303038464	14	4298
2026-01-29 23:25:52.87	31.44	15.52	-27.0	-28.7	15.1	0.00e+00	0	43	0	306184192	14	4362
2026-01-29 23:25:53.87	31.54	15.62	-26.9	-28.4	15.2	0.00e+00	0	43	0	309329920	14	4290
2026-01-29 23:25:54.87	31.64	15.72	-26.8	-28.2	15.3	0.00e+00	0	43	0	312475648	14	4233
2026-01-29 23:25:55.88	31.73	15.81	-26.8	-28.3	15.3	2.72e-04	0	43	0	315621376	14	4255
2026-01-29 23:25:56.89	31.83	15.91	-26.8	-28.2	15.4	0.00e+00	0	43	0	319815680	14	4228
2026-01-29 23:25:57.89	31.93	16.01	-26.9	-28.5	15.2	0.00e+00	0	43	0	322961408	14	4320
2026-01-29 23:25:58.89	32.03	16.11	-26.9	-28.4	15.2	0.00e+00	0	43	0	325058560	14	4289
2026-01-29 23:25:59.90	32.14	16.21	-26.9	-28.4	15.3	0.00e+00	0	43	0	328204288	14	4276
2026-01-29 23:26:00.90	32.24	16.31	-26.9	-28.5	15.2	7.00e-07	0	43	0	331350016	14	4306
2026-01-29 23:26:01.90	32.34	16.41	-26.9	-28.9	15.2	0.00e+00	0	43	0	334495744	13	4545
2026-01-29 23:26:02.91	32.44	16.51	-26.9	-29.0	15.2	0.00e+00	0	43	0	337641472	13	4575
2026-01-29 23:26:03.91	32.55	16.61	-27.0	-28.7	15.1	0.00e+00	0	43	0	340787200	14	4352
2026-01-29 23:26:04.91	32.65	16.71	-27.1	-29.0	15.0	0.00e+00	0	43	0	343932928	14	4441
2026-01-29 23:26:05.92	32.75	16.81	-27.0	-28.7	15.1	0.00e+00	0	43	0	347078656	14	4362
2026-01-29 23:26:06.92	32.86	16.91	-26.9	-28.5	15.2	0.00e+00	0	43	0	350224384	14	4297
2026-01-29 23:26:07.93	32.97	17.02	-27.0	-28.6	15.2	0.00e+00	0	43	0	353370112	14	4320
2026-01-29 23:26:08.92	33.07	17.12	-26.9	-28.4	15.3	0.00e+00	0	43	0	356515840	14	4293
2026-01-29 23:26:09.93	33.18	17.22	-27.1	-28.8	15.1	7.00e-07	0	43	0	359661568	14	4382
2026-01-29 23:26:10.93	33.29	17.32	-27.0	-28.6	15.2	0.00e+00	0	43	0	362807296	14	4331
2026-01-29 23:26:11.94	33.40	17.43	-27.0	-28.6	15.2	0.00e+00	0	43	0	365953024	14	4334
2026-01-29 23:26:12.94	33.51	17.53	-27.1	-28.9	15.0	0.00e+00	0	43	0	369098752	14	4412
2026-01-29 23:26:13.94	33.62	17.63	-27.1	-29.0	15.0	0.00e+00	0	43	0	372244480	14	4439
2026-01-29 23:26:14.95	33.73	17.74	-27.2	-29.1	14.9	7.00e-07	0	43	0	375390208	14	4472
2026-01-29 23:26:15.94	33.84	17.84	-27.3	-29.2	14.8	0.00e+00	0	43	0	378535936	14	4522
2026-01-29 23:26:16.94	33.95	17.95	-27.2	-29.2	14.9	0.00e+00	0	43	0	381681664	14	4501
2026-01-29 23:26:17.94	34.07	18.05	-27.3	-29.3	14.8	0.00e+00	0	43	0	384827392	14	4535
2026-01-29 23:26:18.95	34.18	18.16	-27.2	-29.1	14.9	0.00e+00	0	43	0	387973120	14	4488
2026-01-29 23:26:19.95	34.30	18.26	-27.2	-29.1	14.9	0.00e+00	0	43	0	391118848	14	4475
2026-01-29 23:26:20.95	34.41	18.37	-27.3	-29.3	14.8	0.00e+00	0	43	0	394264576	14	4545
2026-01-29 23:26:21.96	34.53	18.48	-27.2	-29.0	15.0	0.00e+00	0	43	0	397410304	14	4441
2026-01-29 23:26:22.96	34.65	18.58	-27.2	-29.1	14.9	0.00e+00	0	43	0	400556032	14	4481
2026-01-29 23:26:23.97	34.76	18.69	-27.1	-28.9	15.0	0.00e+00	0	43	0	403701760	14	4429
2026-01-29 23:26:24.97	34.88	18.80	-27.2	-29.0	15.0	0.00e+00	0	43	0	406847488	14	4434
2026-01-29 23:26:25.97	35.00	18.91	-27.2	-29.1	15.0	0.00e+00	0	43	0	409993216	14	4474
2026-01-29 23:26:26.98	35.12	19.02	-27.2	-29.1	14.9	7.00e-07	0	43	0	413138944	14	4470
2026-01-29 23:26:27.98	35.24	19.13	-27.2	-29.1	15.0	0.00e+00	0	43	0	416284672	14	4487
2026-01-29 23:26:28.98	35.37	19.23	-27.4	-29.5	14.8	7.00e-07	0	43	0	419430400	14	4589
2026-01-29 23:26:29.99	35.49	19.34	-27.2	-29.1	15.0	0.00e+00	0	43	0	422576128	14	4483
2026-01-29 23:26:30.99	35.61	19.45	-27.2	-29.0	15.0	0.00e+00	0	43	0	425721856	14	4449
2026-01-29 23:26:32.00	35.74	19.57	-27.1	-28.9	15.1	0.00e+00	0	43	0	428867584	14	4414
2026-01-29 23:26:33.00	35.87	19.68	-27.3	-29.2	14.9	0.00e+00	0	43	0	432013312	14	4509
2026-01-29 23:26:34.00	35.99	19.79	-27.1	-28.8	15.2	0.00e+00	0	43	0	435159040	14	4387
2026-01-29 23:26:35.01	36.12	19.90	-27.2	-29.1	15.0	0.00e+00	0	43	0	438304768	14	4479
2026-01-29 23:26:36.01	36.25	20.01	-27.1	-28.8	15.2	0.00e+00	0	43	0	441450496	14	4396
2026-01-29 23:26:37.01	36.38	20.12	-27.1	-28.8	15.2	0.00e+00	0	43	0	444596224	14	4389
2026-01-29 23:26:38.02	36.51	20.24	-27.1	-28.9	15.1	0.00e+00	0	43	0	447741952	14	4429
2026-01-29 23:26:39.02	36.64	20.35	-27.1	-28.8	15.2	0.00e+00	0	43	0	450887680	14	4373
2026-01-29 23:26:40.02	36.77	20.46	-27.0	-28.7	15.2	0.00e+00	0	43	0	454033408	14	4355
2026-01-29 23:26:41.03	36.90	20.58	-26.9	-28.5	15.4	0.00e+00	0	43	0	457179136	14	4295
2026-01-29 23:26:42.03	37.04	20.69	-27.0	-28.5	15.4	0.00e+00	0	43	0	460324864	14	4305
2026-01-29 23:26:43.03	37.17	20.80	-27.1	-28.8	15.2	0.00e+00	0	43	0	463470592	14	4386
2026-01-29 23:26:44.03	37.31	20.92	-26.9	-28.4	15.4	0.00e+00	0	43	0	466616320	14	4284
2026-01-29 23:26:45.03	37.44	21.03	-26.7	-28.0	15.6	0.00e+00	0	43	0	469762048	14	4171
2026-01-29 23:26:46.04	37.58	21.15	-26.7	-28.0	15.7	0.00e+00	0	43	0	472907776	14	4157
2026-01-29 23:26:47.04	37.72	21.26	-26.8	-28.2	15.5	0.00e+00	0	43	0	476053504	14	4224
2026-01-29 23:26:48.05	37.86	21.38	-26.7	-28.0	15.6	0.00e+00	0	43	0	479199232	14	4175
2026-01-29 23:26:49.05	38.00	21.50	-26.8	-28.2	15.6	0.00e+00	0	43	0	482344960	14	4217
2026-01-29 23:26:50.06	38.14	21.62	-26.7	-27.9	15.7	0.00e+00	0	43	0	485490688	14	4127
2026-01-29 23:26:51.05	38.29	21.73	-26.7	-27.9	15.7	0.00e+00	0	43	0	488636416	14	4128
2026-01-29 23:26:52.06	38.43	21.85	-26.7	-27.9	15.6	0.00e+00	0	43	0	491782144	14	4141
2026-01-29 23:26:53.07	38.58	21.97	-26.6	-27.8	15.8	0.00e+00	0	43	0	494927872	14	4109
2026-01-29 23:26:54.07	38.72	22.09	-26.7	-27.9	15.7	0.00e+00	0	43	0	498073600	14	4127
2026-01-29 23:26:55.08	38.87	22.21	-26.5	-27.6	15.9	0.00e+00	0	43	0	501219328	14	4049
2026-01-29 23:26:56.09	39.02	22.33	-26.5	-27.4	16.0	0.00e+00	0	43	0	504365056	14	4002
2026-01-29 23:26:57.09	39.17	22.45	-26.4	-27.3	16.1	0.00e+00	0	43	0	507510784	14	3979
2026-01-29 23:26:58.10	39.32	22.57	-26.5	-27.5	15.9	0.00e+00	0	43	0	510656512	14	4045
2026-01-29 23:26:59.10	39.47	22.69	-26.3	-27.0	16.2	0.00e+00	0	43	0	513802240	14	3905
2026-01-29 23:27:00.11	39.63	22.81	-26.2	-27.2	16.3	0.00e+00	0	43	0	516947968	13	4072
2026-01-29 23:27:01.11	39.78	22.93	-26.2	-27.4	16.3	0.00e+00	0	43	0	520093696	13	4104
2026-01-29 23:27:02.12	39.94	23.05	-26.2	-27.2	16.3	0.00e+00	0	43	0	523239424	13	4067
2026-01-29 23:27:03.12	40.09	23.17	-26.3	-27.5	16.2	8.77e-05	0	43	0	526385152	13	4131
2026-01-29 23:27:04.12	40.25	23.29	-26.1	-27.1	16.4	7.47e-05	0	43	0	529530880	13	4048
2026-01-29 23:27:05.13	40.41	23.42	-26.1	-27.2	16.4	0.00e+00	0	43	0	532676608	13	4050
2026-01-29 23:27:06.13	40.57	23.54	-26.3	-27.4	16.3	0.00e+00	0	43	0	535822336	13	4117
2026-01-29 23:27:07.13	40.73	23.66	-26.1	-27.2	16.4	0.00e+00	0	43	0	538968064	13	4057
2026-01-29 23:27:08.14	40.89	23.79	-26.2	-27.2	16.4	0.00e+00	0	43	0	542113792	13	4067
2026-01-29 23:27:09.14	41.06	23.91	-26.0	-26.9	16.6	7.00e-07	0	43	0	545259520	13	3989
2026-01-29 23:27:10.15	41.22	24.04	-26.0	-26.9	16.6	1.50e-06	0	43	0	548405248	13	3982
2026-01-29 23:27:11.15	41.39	24.16	-26.0	-26.9	16.6	0.00e+00	0	43	0	551550976	13	3991
2026-01-29 23:27:12.16	41.56	24.29	-26.1	-27.1	16.5	0.00e+00	0	43	0	554696704	13	4020
2026-01-29 23:27:13.16	41.72	24.41	-26.0	-26.8	16.6	0.00e+00	0	43	0	557842432	13	3965
2026-01-29 23:27:14.16	41.89	24.54	-26.0	-26.8	16.6	0.00e+00	0	43	0	560988160	13	3963
2026-01-29 23:27:15.16	42.06	24.66	-26.0	-26.9	16.6	0.00e+00	0	43	0	564133888	13	3971
2026-01-29 23:27:16.17	42.24	24.79	-25.8	-26.5	16.8	7.60e-06	0	43	0	567279616	13	3873
2026-01-29 23:27:17.17	42.41	24.92	-25.9	-26.5	16.8	0.00e+00	0	43	0	570425344	13	3882
2026-01-29 23:27:18.18	42.59	25.04	-26.0	-26.9	16.6	5.95e-05	0	43	0	573571072	13	3980
2026-01-29 23:27:19.18	42.77	25.17	-26.0	-26.7	16.7	4.27e-05	0	43	0	576716800	13	3934
2026-01-29 23:27:20.19	42.95	25.30	-26.0	-26.9	16.6	0.00e+00	0	43	0	579862528	13	3977
2026-01-29 23:27:21.19	43.12	25.43	-26.1	-27.2	16.5	7.00e-07	0	43	0	583008256	13	4046
2026-01-29 23:27:22.19	43.31	25.56	-26.2	-27.2	16.4	7.00e-07	0	43	0	586153984	13	4062
2026-01-29 23:27:23.20	43.49	25.69	-26.4	-27.6	16.2	0.00e+00	0	43	0	589299712	13	4165
2026-01-29 23:27:24.19	43.67	25.81	-26.5	-27.9	16.1	1.29e-05	0	43	0	592445440	13	4245
2026-01-29 23:27:25.19	43.86	25.94	-26.6	-28.1	16.0	3.81e-05	0	43	0	595591168	13	4302
2026-01-29 23:27:26.19	44.04	26.07	-26.6	-28.1	16.0	0.00e+00	0	43	0	598736896	13	4289
2026-01-29 23:27:27.20	44.23	26.20	-26.6	-28.3	15.9	5.03e-05	0	43	0	601882624	13	4345
2026-01-29 23:27:28.20	44.42	26.33	-26.7	-28.3	15.9	0.00e+00	0	43	0	605028352	13	4360
2026-01-29 23:27:29.20	44.61	26.46	-26.7	-28.3	15.9	0.00e+00	0	43	0	608174080	13	4354
2026-01-29 23:27:30.21	44.81	26.59	-26.7	-28.5	15.8	2.15e-04	0	43	0	611319808	13	4397
2026-01-29 23:27:31.21	45.00	26.73	-26.8	-28.7	15.7	4.44e-04	0	43	0	614465536	13	4466
2026-01-29 23:27:32.21	45.20	26.86	-26.9	-28.8	15.6	0.00e+00	0	43	0	617611264	13	4504
2026-01-29 23:27:33.21	45.39	26.99	-26.9	-28.9	15.6	0.00e+00	0	43	0	620756992	13	4533
2026-01-29 23:27:34.22	45.59	27.12	-27.0	-28.6	15.5	0.00e+00	0	43	0	623902720	14	4328
2026-01-29 23:27:35.22	45.80	27.25	-27.2	-29.1	15.2	0.00e+00	0	43	0	625999872	14	4460
2026-01-29 23:27:36.22	46.00	27.39	-27.4	-29.4	15.1	8.53e-04	0	43	0	629145600	14	4551
2026-01-29 23:27:37.23	46.20	27.52	-27.3	-29.2	15.2	0.00e+00	0	43	0	632291328	14	4485
2026-01-29 23:27:38.22	46.41	27.65	-27.4	-29.6	15.0	0.00e+00	0	43	0	635437056	14	4603
2026-01-29 23:27:39.22	46.61	27.78	-27.6	-29.5	14.8	0.00e+00	0	43	0	638582784	15	4457
2026-01-29 23:27:40.22	46.82	27.92	-27.7	-29.7	14.6	8.56e-04	0	43	0	641728512	15	4523
2026-01-29 23:27:41.22	47.03	28.05	-27.5	-29.2	14.9	7.00e-07	0	43	0	644874240	15	4365
2026-01-29 23:27:42.23	47.25	28.19	-27.6	-29.5	14.8	0.00e+00	0	43	0	648019968	15	4459
2026-01-29 23:27:43.23	47.46	28.32	-27.5	-29.3	14.9	1.50e-06	0	43	0	651165696	15	4400
2026-01-29 23:27:44.22	47.68	28.45	-27.5	-29.2	14.9	0.00e+00	0	43	0	654311424	15	4372
2026-01-29 23:27:45.22	47.89	28.59	-27.5	-29.2	14.9	0.00e+00	0	43	0	657457152	15	4388
2026-01-29 23:27:46.22	48.11	28.72	-27.5	-29.2	14.9	2.13e-05	0	43	0	660602880	15	4362
2026-01-29 23:27:47.22	48.33	28.86	-27.5	-29.1	15.0	0.00e+00	0	43	0	663748608	15	4348
2026-01-29 23:27:48.22	48.56	28.99	-27.2	-28.4	15.4	0.00e+00	0	43	0	666894336	15	4149
2026-01-29 23:27:49.23	48.78	29.13	-27.1	-28.2	15.5	0.00e+00	0	43	0	670040064	15	4109
2026-01-29 23:27:50.23	49.01	29.27	-27.1	-28.3	15.4	0.00e+00	0	43	0	673185792	15	4136
2026-01-29 23:27:51.23	49.24	29.40	-27.0	-28.6	15.6	0.00e+00	0	43	0	676331520	14	4333
2026-01-29 23:27:52.24	49.47	29.54	-27.0	-28.5	15.6	0.00e+00	0	43	0	679477248	14	4293
2026-01-29 23:27:53.24	49.70	29.68	-27.0	-28.6	15.6	0.00e+00	0	43	0	682622976	14	4305
2026-01-29 23:27:54.24	49.94	29.81	-27.0	-28.6	15.6	0.00e+00	0	43	0	685768704	14	4310
2026-01-29 23:27:55.25	50.18	29.95	-27.0	-28.5	15.6	0.00e+00	0	43	0	688914432	14	4284
2026-01-29 23:27:56.25	50.42	30.09	-27.1	-28.8	15.5	0.00e+00	0	43	0	692060160	14	4381
2026-01-29 23:27:57.25	50.66	30.22	-27.0	-28.6	15.5	0.00e+00	0	43	0	695205888	14	4324
2026-01-29 23:27:58.26	50.90	30.36	-27.2	-29.1	15.3	0.00e+00	0	43	0	698351616	14	4452
2026-01-29 23:27:59.26	51.14	30.50	-27.3	-29.3	15.2	0.00e+00	0	43	0	701497344	14	4514
2026-01-29 23:28:00.26	51.39	30.63	-27.0	-28.6	15.6	0.00e+00	0	43	0	704643072	14	4309
2026-01-29 23:28:01.27	51.64	30.77	-26.8	-28.1	15.8	0.00e+00	0	43	0	707788800	14	4176
2026-01-29 23:28:02.27	51.89	30.91	-26.7	-27.9	15.9	0.00e+00	0	43	0	710934528	14	4133
2026-01-29 23:28:03.28	52.15	31.05	-26.8	-28.2	15.9	0.00e+00	0	43	0	714080256	14	4195
2026-01-29 23:28:04.28	52.40	31.19	-26.9	-28.3	15.8	0.00e+00	0	43	0	717225984	14	4227
2026-01-29 23:28:05.28	52.66	31.32	-27.0	-28.4	15.7	0.00e+00	0	43	0	720371712	14	4267
2026-01-29 23:28:06.28	52.92	31.46	-27.0	-28.6	15.6	7.00e-07	0	43	0	723517440	14	4326
2026-01-29 23:28:07.28	53.18	31.60	-27.1	-28.9	15.4	0.00e+00	0	43	0	726663168	14	4397
2026-01-29 23:28:08.29	53.45	31.74	-27.1	-28.9	15.4	0.00e+00	0	43	0	729808896	14	4390
2026-01-29 23:28:09.29	53.71	31.87	-27.1	-28.8	15.4	0.00e+00	0	43	0	732954624	14	4384
2026-01-29 23:28:10.29	53.98	32.01	-27.1	-28.8	15.4	0.00e+00	0	43	0	736100352	14	4386
2026-01-29 23:28:11.30	54.25	32.15	-27.0	-28.7	15.6	0.00e+00	0	43	0	739246080	14	4330
2026-01-29 23:28:12.30	54.52	32.29	-27.1	-28.8	15.5	0.00e+00	0	43	0	742391808	14	4378
2026-01-29 23:28:13.31	54.80	32.43	-27.2	-29.0	15.4	0.00e+00	0	43	0	745537536	14	4436
2026-01-29 23:28:14.31	55.08	32.56	-27.3	-29.2	15.3	0.00e+00	0	43	0	748683264	14	4480
2026-01-29 23:28:15.31	55.36	32.70	-27.4	-29.4	15.2	0.00e+00	0	43	0	751828992	14	4553
2026-01-29 23:28:16.32	55.64	32.84	-27.3	-29.3	15.2	0.00e+00	0	43	0	754974720	14	4527
2026-01-29 23:28:17.33	55.93	32.98	-27.5	-29.3	15.0	0.00e+00	0	43	0	758120448	15	4392
2026-01-29 23:28:18.34	56.22	33.11	-27.6	-29.5	14.8	7.00e-07	0	43	0	761266176	15	4459
2026-01-29 23:28:19.34	56.51	33.25	-27.7	-29.5	14.8	1.50e-06	0	43	0	764411904	15	4470
2026-01-29 23:28:20.34	56.80	33.39	-27.5	-29.2	15.0	0.00e+00	0	43	0	767557632	15	4367
2026-01-29 23:28:21.34	57.09	33.52	-27.5	-29.1	15.1	0.00e+00	0	43	0	770703360	15	4331
2026-01-29 23:28:22.35	57.39	33.66	-27.6	-29.3	15.0	7.00e-07	0	43	0	773849088	15	4407
2026-01-29 23:28:23.36	57.69	33.80	-27.6	-29.5	14.8	7.00e-07	0	43	0	776994816	15	4465
2026-01-29 23:28:24.36	57.99	33.93	-27.7	-29.7	14.7	0.00e+00	0	43	0	780140544	15	4521
2026-01-29 23:28:25.36	58.30	34.07	-27.9	-30.0	14.6	7.00e-07	0	43	0	783286272	15	4615
2026-01-29 23:28:26.36	58.60	34.20	-27.9	-30.2	14.5	0.00e+00	0	43	0	786432000	15	4659
2026-01-29 23:28:27.35	58.91	34.33	-28.2	-30.3	14.3	7.00e-07	0	43	0	789577728	16	4564
2026-01-29 23:28:28.35	59.22	34.47	-28.1	-30.1	14.4	0.00e+00	0	43	0	792723456	16	4511
2026-01-29 23:28:29.35	59.53	34.60	-28.3	-30.4	14.3	1.50e-06	0	43	0	795869184	16	4600
2026-01-29 23:28:30.35	59.85	34.74	-28.3	-30.5	14.2	0.00e+00	0	43	0	799014912	16	4630
2026-01-29 23:28:31.36	60.17	34.87	-28.5	-30.4	14.0	4.50e-06	0	43	0	802160640	17	4473
2026-01-29 23:28:32.36	60.49	35.00	-28.2	-29.7	14.4	0.00e+00	0	43	0	805306368	17	4296
2026-01-29 23:28:33.37	60.82	35.14	-28.1	-29.5	14.5	0.00e+00	0	43	0	808452096	17	4232
2026-01-29 23:28:34.38	61.15	35.27	-28.1	-29.5	14.5	1.50e-06	0	43	0	811597824	17	4231
2026-01-29 23:28:35.38	61.48	35.40	-28.2	-29.7	14.3	2.20e-06	0	43	0	814743552	17	4297
2026-01-29 23:28:36.39	61.81	35.53	-28.4	-30.2	14.1	2.20e-06	0	43	0	817889280	17	4444
2026-01-29 23:28:37.39	62.15	35.66	-28.5	-30.5	14.0	3.00e-06	0	43	0	821035008	17	4509
2026-01-29 23:28:38.40	62.49	35.79	-28.5	-30.6	13.9	3.80e-06	0	43	0	824180736	17	4543
2026-01-29 23:28:39.40	62.83	35.92	-28.5	-30.6	13.9	3.80e-06	0	43	0	827326464	17	4548
2026-01-29 23:28:40.41	63.17	36.05	-28.4	-30.2	14.1	0.00e+00	0	43	0	830472192	17	4439
2026-01-29 23:28:41.40	63.52	36.18	-28.4	-30.1	14.1	3.00e-06	0	43	0	833617920	17	4404
2026-01-29 23:28:42.41	63.87	36.31	-28.3	-30.0	14.2	7.00e-07	0	43	0	836763648	17	4383
2026-01-29 23:28:43.41	64.22	36.43	-28.2	-29.7	14.4	7.00e-07	0	43	0	839909376	17	4287
2026-01-29 23:28:44.41	64.57	36.56	-28.1	-29.7	14.3	2.20e-06	0	43	0	843055104	17	4321
2026-01-29 23:28:45.42	64.93	36.69	-28.3	-30.1	14.0	4.50e-06	0	43	0	846200832	17	4404
2026-01-29 23:28:46.42	65.29	36.81	-28.5	-30.4	14.0	1.50e-06	0	43	0	849346560	17	4492
2026-01-29 23:28:47.42	65.65	36.93	-28.6	-30.6	13.8	8.30e-06	0	43	0	852492288	17	4570
2026-01-29 23:28:48.42	66.01	37.06	-28.6	-30.7	13.8	3.80e-06	0	43	0	855638016	17	4592
2026-01-29 23:28:49.42	66.38	37.18	-28.5	-30.5	13.9	1.50e-06	0	43	0	858783744	17	4529
2026-01-29 23:28:50.43	66.75	37.30	-28.5	-30.5	13.9	3.00e-06	0	43	0	861929472	17	4534
2026-01-29 23:28:51.43	67.12	37.42	-28.6	-30.6	13.9	7.60e-06	0	43	0	865075200	17	4550
2026-01-29 23:28:52.44	67.50	37.54	-28.4	-30.1	14.1	7.00e-07	0	43	0	868220928	17	4391
2026-01-29 23:28:53.44	67.88	37.66	-28.4	-30.2	14.1	3.00e-06	0	43	0	871366656	17	4422
2026-01-29 23:28:54.44	68.26	37.78	-28.5	-30.5	14.0	9.46e-05	0	43	0	874512384	17	4529
2026-01-29 23:28:55.43	68.64	37.89	-28.7	-30.9	13.7	6.80e-06	0	43	0	877658112	17	4650
2026-01-29 23:28:56.44	69.03	38.01	-28.8	-31.2	13.6	1.14e-05	0	43	0	880803840	17	4732
2026-01-29 23:28:57.44	69.42	38.13	-28.9	-31.5	13.4	1.22e-05	0	43	0	883949568	17	4819
2026-01-29 23:28:58.44	69.81	38.24	-28.9	-31.4	13.5	9.90e-06	0	43	0	887095296	17	4792
2026-01-29 23:28:59.45	70.21	38.35	-28.8	-31.2	13.6	7.93e-05	0	43	0	890241024	17	4744
2026-01-29 23:29:00.44	70.60	38.46	-29.0	-31.6	13.3	1.08e-04	0	43	0	893386752	17	4861
2026-01-29 23:29:01.44	71.00	38.57	-29.2	-31.5	13.0	2.74e-05	0	43	0	896532480	18	4724
2026-01-29 23:29:02.45	71.40	38.68	-29.3	-31.9	12.9	5.87e-05	0	43	0	899678208	18	4846
2026-01-29 23:29:03.45	71.81	38.79	-29.2	-31.6	13.1	1.05e-04	0	43	0	902823936	18	4739
2026-01-29 23:29:04.45	72.22	38.90	-29.2	-31.7	13.0	5.41e-05	0	43	0	904921088	18	4778
2026-01-29 23:29:05.46	72.63	39.00	-29.3	-31.9	12.9	6.79e-05	0	43	0	908066816	18	4834
2026-01-29 23:29:06.46	73.04	39.11	-29.5	-31.8	12.7	8.77e-05	0	43	0	911212544	19	4690
2026-01-29 23:29:07.47	73.46	39.21	-29.6	-32.1	12.5	1.01e-04	0	43	0	914358272	19	4810
2026-01-29 23:29:08.46	73.88	39.31	-29.7	-32.3	12.3	3.15e-04	0	43	0	917504000	19	4865
2026-01-29 23:29:09.46	74.30	39.41	-29.7	-32.3	12.4	3.43e-04	0	43	0	920649728	19	4854
2026-01-29 23:29:10.46	74.72	39.51	-29.3	-31.4	12.9	6.94e-05	0	43	0	923795456	19	4577
2026-01-29 23:29:11.47	75.15	39.61	-29.1	-30.9	13.2	3.00e-04	0	43	0	926941184	19	4423
2026-01-29 23:29:12.48	75.58	39.70	-28.9	-30.4	13.5	1.06e-05	0	43	0	930086912	19	4269
2026-01-29 23:29:13.48	76.01	39.80	-29.0	-30.7	13.3	1.37e-05	0	43	0	933232640	19	4363
2026-01-29 23:29:14.48	76.44	39.89	-29.2	-31.2	13.0	1.39e-04	0	43	0	936378368	19	4501
2026-01-29 23:29:15.48	76.88	39.98	-29.2	-31.2	13.0	1.71e-04	0	43	0	939524096	19	4511
2026-01-29 23:29:16.49	77.32	40.07	-29.2	-31.0	13.2	1.90e-05	0	43	0	942669824	19	4466
2026-01-29 23:29:17.49	77.76	40.16	-29.0	-30.6	13.4	6.86e-05	0	43	0	945815552	19	4344
2026-01-29 23:29:18.49	78.20	40.24	-29.2	-31.1	13.1	2.31e-04	0	43	0	948961280	19	4480
2026-01-29 23:29:19.50	78.65	40.33	-29.2	-31.0	13.1	4.11e-05	0	43	0	952107008	19	4443
2026-01-29 23:29:20.50	79.10	40.41	-29.0	-30.7	13.3	3.00e-04	0	43	0	955252736	19	4355
2026-01-29 23:29:21.51	79.55	40.49	-28.9	-30.3	13.5	2.55e-04	0	43	0	958398464	19	4253
2026-01-29 23:29:22.51	80.00	40.57	-28.9	-30.2	13.6	8.30e-06	0	43	0	961544192	19	4224
2026-01-29 23:29:23.52	80.46	40.65	-29.0	-30.5	13.5	1.22e-05	0	43	0	964689920	19	4290
2026-01-29 23:29:24.53	80.92	40.72	-29.1	-30.9	13.2	2.39e-04	0	43	0	967835648	19	4426
2026-01-29 23:29:25.54	81.39	40.80	-29.2	-31.2	13.0	4.27e-05	0	43	0	970981376	19	4523
2026-01-29 23:29:26.55	81.85	40.87	-29.3	-31.4	12.9	2.87e-04	0	43	0	974127104	19	4579
2026-01-29 23:29:27.56	82.32	40.94	-29.2	-31.1	13.0	3.96e-05	0	43	0	977272832	19	4498
2026-01-29 23:29:28.55	82.78	41.01	-29.0	-30.7	13.4	1.37e-05	0	43	0	980418560	19	4350
2026-01-29 23:29:29.55	83.24	41.07	-29.1	-30.8	13.3	1.37e-05	0	43	0	983564288	19	4375
2026-01-29 23:29:30.55	83.71	41.14	-29.1	-31.0	13.2	1.81e-04	0	43	0	986710016	19	4437
2026-01-29 23:29:31.55	84.18	41.20	-29.1	-30.9	13.2	2.82e-05	0	43	0	989855744	19	4427
2026-01-29 23:29:32.56	84.65	41.26	-29.1	-30.9	13.2	1.29e-05	0	43	0	993001472	19	4435
2026-01-29 23:29:33.56	85.13	41.32	-28.9	-30.3	13.6	1.14e-05	0	43	0	996147200	19	4241
2026-01-29 23:29:34.57	85.61	41.37	-28.8	-30.7	13.7	7.60e-06	0	43	0	999292928	18	4449
2026-01-29 23:29:35.57	86.08	41.43	-28.8	-30.5	13.8	6.80e-06	0	43	0	1002438656	18	4388
2026-01-29 23:29:36.57	86.56	41.48	-28.8	-30.6	13.7	1.60e-05	0	43	0	1005584384	18	4441
2026-01-29 23:29:37.58	87.05	41.53	-29.1	-31.3	13.3	1.29e-05	0	43	0	1008730112	18	4651
2026-01-29 23:29:38.58	87.53	41.58	-29.3	-31.8	13.0	3.50e-05	0	44	0	1011875840	18	4814
2026-01-29 23:29:39.58	88.01	41.62	-29.3	-31.7	13.0	3.81e-05	0	43	0	1015021568	18	4789
2026-01-29 23:29:40.59	88.50	41.66	-29.0	-31.0	13.5	1.60e-05	0	43	0	1018167296	18	4539
2026-01-29 23:29:41.59	88.98	41.70	-28.8	-30.7	13.6	9.90e-06	0	43	0	1021313024	18	4449
2026-01-29 23:29:42.60	89.47	41.74	-29.0	-31.1	13.4	6.80e-06	0	43	0	1024458752	18	4564
2026-01-29 23:29:43.60	89.96	41.78	-29.3	-31.7	13.1	2.89e-05	0	43	0	1027604480	18	4778
2026-01-29 23:29:44.61	90.45	41.81	-29.2	-31.6	13.1	2.89e-05	0	43	0	1030750208	18	4758
2026-01-29 23:29:45.62	90.95	41.85	-29.2	-31.5	13.2	2.74e-05	0	43	0	1033895936	18	4702
2026-01-29 23:29:46.62	91.44	41.88	-29.2	-31.6	13.1	2.51e-05	0	43	0	1037041664	18	4731
2026-01-29 23:29:47.62	91.93	41.90	-29.2	-31.5	13.2	3.35e-05	0	43	0	1040187392	18	4722
2026-01-29 23:29:48.62	92.42	41.93	-29.2	-31.7	13.0	2.82e-05	0	43	0	1043333120	18	4770
2026-01-29 23:29:49.62	92.91	41.95	-29.3	-31.7	13.0	3.58e-05	0	43	0	1046478848	18	4786
2026-01-29 23:29:50.63	93.41	41.97	-29.2	-31.5	13.2	2.97e-05	0	43	0	1049624576	18	4713
2026-01-29 23:29:51.63	93.90	41.99	-29.0	-31.1	13.4	1.83e-05	0	43	0	1052770304	18	4582
2026-01-29 23:29:52.63	94.40	42.00	-29.1	-31.4	13.2	1.22e-05	0	43	0	1055916032	18	4661
2026-01-29 23:29:53.63	94.89	42.02	-29.4	-32.0	12.9	3.81e-05	0	43	0	1059061760	18	4872
2026-01-29 23:29:54.63	95.39	42.03	-29.5	-32.3	12.7	6.86e-05	0	43	0	1062207488	18	4979
2026-01-29 23:29:55.64	95.89	42.04	-29.5	-31.9	12.6	9.46e-05	0	44	0	1065353216	19	4741
2026-01-29 23:29:56.64	96.38	42.04	-29.3	-31.3	13.0	3.66e-05	0	43	0	1068498944	19	4543
2026-01-29 23:29:57.65	96.88	42.05	-29.1	-30.9	13.3	1.75e-05	0	44	0	1071644672	19	4414
2026-01-29 23:29:58.65	97.38	42.05	-29.3	-31.4	13.0	3.89e-05	0	43	0	1074790400	19	4575
2026-01-29 23:29:59.66	97.88	42.05	-29.5	-31.8	12.7	6.71e-05	0	43	0	1077936128	19	4698
2026-01-29 23:30:00.66	98.38	42.04	-29.2	-31.2	13.1	4.04e-05	0	43	0	1081081856	19	4500
2026-01-29 23:30:01.67	98.88	42.04	-29.2	-31.0	13.2	1.83e-05	0	43	0	1084227584	19	4431
2026-01-29 23:30:02.67	99.37	42.03	-29.2	-31.2	13.1	2.67e-05	0	43	0	1087373312	19	4498
2026-01-29 23:30:03.67	99.87	42.02	-29.3	-31.5	12.9	4.11e-05	0	43	0	1090519040	19	4591
2026-01-29 23:30:04.67	100.36	42.01	-29.5	-31.8	12.7	8.31e-05	0	43	0	1093664768	19	4702
2026-01-29 23:30:05.67	100.86	41.99	-29.6	-32.2	12.4	9.07e-05	0	43	0	1096810496	19	4830
2026-01-29 23:30:06.68	101.36	41.97	-29.4	-31.7	12.8	1.04e-04	0	43	0	1099956224	19	4661
2026-01-29 23:30:07.67	101.85	41.95	-29.0	-30.7	13.3	1.52e-05	0	43	0	1103101952	19	4354
2026-01-29 23:30:08.68	102.34	41.93	-29.1	-30.8	13.4	1.90e-05	0	43	0	1106247680	19	4376
2026-01-29 23:30:09.69	102.84	41.91	-29.1	-31.0	13.2	2.51e-05	0	44	0	1109393408	19	4437
2026-01-29 23:30:10.70	103.34	41.88	-29.2	-31.1	13.1	2.51e-05	0	43	0	1112539136	19	4484
2026-01-29 23:30:11.70	103.83	41.85	-29.2	-31.0	13.2	3.58e-05	0	44	0	1115684864	19	4436
2026-01-29 23:30:12.71	104.32	41.82	-29.0	-30.5	13.5	1.06e-05	0	43	0	1118830592	19	4289
2026-01-29 23:30:13.71	104.81	41.79	-29.0	-30.5	13.5	1.22e-05	0	43	0	1121976320	19	4294
2026-01-29 23:30:14.72	105.30	41.75	-29.0	-30.7	13.4	9.90e-06	0	43	0	1125122048	19	4341
2026-01-29 23:30:15.73	105.79	41.71	-28.9	-30.3	13.6	6.80e-06	0	43	0	1128267776	19	4222
2026-01-29 23:30:16.74	106.28	41.67	-28.8	-30.5	13.9	2.20e-06	0	43	0	1131413504	18	4381
2026-01-29 23:30:17.74	106.77	41.63	-29.0	-31.2	13.5	6.10e-06	0	43	0	1134559232	18	4599
2026-01-29 23:30:18.74	107.25	41.58	-29.4	-32.0	12.9	4.42e-05	0	44	0	1137704960	18	4888
2026-01-29 23:30:19.74	107.73	41.54	-29.6	-32.0	12.5	7.55e-05	0	43	0	1140850688	19	4776
2026-01-29 23:30:20.75	108.22	41.49	-29.5	-31.9	12.6	1.30e-04	0	43	0	1143996416	19	4743
2026-01-29 23:30:21.74	108.69	41.44	-29.6	-32.1	12.6	9.38e-05	0	43	0	1147142144	19	4780
2026-01-29 23:30:22.75	109.17	41.38	-29.4	-31.6	12.8	8.23e-05	0	43	0	1150287872	19	4633
2026-01-29 23:30:23.75	109.65	41.33	-29.4	-31.6	12.8	4.73e-05	0	43	0	1153433600	19	4632
2026-01-29 23:30:24.75	110.12	41.27	-29.5	-31.9	12.6	8.16e-05	0	43	0	1156579328	19	4751
2026-01-29 23:30:25.75	110.60	41.21	-29.4	-31.5	12.9	7.24e-05	0	43	0	1159725056	19	4597
2026-01-29 23:30:26.75	111.07	41.15	-29.5	-31.8	12.7	7.70e-05	0	43	0	1162870784	19	4706
2026-01-29 23:30:27.75	111.54	41.08	-29.7	-32.4	12.3	1.56e-04	0	43	0	1166016512	19	4893
2026-01-29 23:30:28.75	112.00	41.02	-29.8	-32.5	12.3	1.61e-04	0	43	0	1169162240	19	4947
2026-01-29 23:30:29.76	112.47	40.95	-29.9	-32.9	12.0	2.74e-04	0	43	0	1172307968	19	5057
2026-01-29 23:30:30.77	112.94	40.88	-29.6	-32.0	12.6	1.38e-04	0	43	0	1175453696	19	4762
2026-01-29 23:30:31.77	113.40	40.81	-29.3	-31.2	13.0	4.19e-05	0	43	0	1178599424	19	4508
2026-01-29 23:30:32.78	113.87	40.73	-29.3	-31.2	13.1	2.97e-05	0	43	0	1181745152	19	4509
2026-01-29 23:30:33.78	114.32	40.66	-29.6	-32.1	12.4	1.12e-04	0	43	0	1184890880	19	4813
2026-01-29 23:30:34.78	114.78	40.58	-29.5	-31.9	12.6	1.59e-04	0	43	0	1188036608	19	4741
2026-01-29 23:30:35.78	115.23	40.50	-29.3	-31.4	12.9	4.95e-05	0	43	0	1191182336	19	4575
2026-01-29 23:30:36.79	115.69	40.42	-29.5	-31.7	12.7	6.48e-05	0	43	0	1194328064	19	4660
2026-01-29 23:30:37.79	116.13	40.34	-29.2	-31.1	13.1	4.34e-05	0	43	0	1197473792	19	4488
2026-01-29 23:30:38.79	116.58	40.26	-28.9	-30.3	13.6	1.37e-05	0	43	0	1200619520	19	4245
2026-01-29 23:30:39.79	117.02	40.17	-28.5	-29.9	14.1	1.50e-06	0	43	0	1203765248	18	4221
2026-01-29 23:30:40.79	117.46	40.08	-28.6	-30.1	14.0	1.50e-06	0	43	0	1206910976	18	4280
2026-01-29 23:30:41.80	117.91	39.99	-29.1	-31.3	13.3	1.22e-05	0	43	0	1210056704	18	4636
2026-01-29 23:30:42.80	118.35	39.90	-29.2	-31.7	13.1	3.12e-05	0	43	0	1213202432	18	4770
2026-01-29 23:30:43.79	118.78	39.81	-29.1	-31.4	13.2	1.10e-04	0	43	0	1216348160	18	4680
2026-01-29 23:30:44.80	119.21	39.71	-28.9	-30.9	13.6	2.67e-05	0	43	0	1219493888	18	4530
2026-01-29 23:30:45.80	119.64	39.62	-28.7	-30.5	13.8	6.10e-06	0	43	0	1222639616	18	4387
2026-01-29 23:30:46.80	120.07	39.52	-28.7	-30.3	13.9	2.20e-06	0	43	0	1225785344	18	4343
2026-01-29 23:30:47.81	120.50	39.42	-28.9	-30.8	13.6	9.90e-06	0	43	0	1227882496	18	4488
2026-01-29 23:30:48.82	120.92	39.32	-29.0	-31.1	13.4	1.75e-05	0	43	0	1231028224	18	4592
2026-01-29 23:30:49.82	121.34	39.22	-29.2	-31.6	13.1	2.82e-05	0	43	0	1234173952	18	4730
2026-01-29 23:30:50.83	121.76	39.12	-29.6	-32.0	12.6	7.93e-05	0	43	0	1237319680	19	4785
2026-01-29 23:30:51.83	122.18	39.01	-29.8	-32.6	12.3	1.85e-04	0	43	0	1240465408	19	4977
2026-01-29 23:30:52.84	122.59	38.91	-29.5	-31.9	12.6	2.40e-04	0	43	0	1244659712	19	4742
2026-01-29 23:30:53.84	123.00	38.80	-29.2	-31.0	13.2	8.08e-05	0	43	0	1247805440	19	4457
2026-01-29 23:30:54.84	123.41	38.69	-28.9	-30.4	13.5	1.52e-05	0	43	0	1250951168	19	4273
2026-01-29 23:30:55.85	123.81	38.58	-29.0	-30.7	13.3	3.35e-05	0	43	0	1253048320	19	4354
2026-01-29 23:30:56.85	124.21	38.47	-28.9	-30.3	13.7	6.17e-05	0	43	0	1256194048	19	4224
2026-01-29 23:30:57.85	124.61	38.36	-28.9	-30.4	13.6	1.06e-05	0	43	0	1259339776	19	4274
2026-01-29 23:30:58.85	125.01	38.25	-29.3	-31.4	13.0	8.23e-05	0	43	0	1262485504	19	4568
2026-01-29 23:30:59.86	125.41	38.13	-29.1	-30.9	13.2	6.71e-05	0	43	0	1265631232	19	4418
2026-01-29 23:31:00.86	125.80	38.02	-29.0	-30.6	13.4	8.30e-06	0	43	0	1268776960	19	4319
2026-01-29 23:31:01.86	126.18	37.90	-29.2	-31.0	13.1	2.36e-05	0	43	0	1271922688	19	4444
2026-01-29 23:31:02.87	126.57	37.78	-29.2	-31.1	13.1	2.67e-05	0	43	0	1275068416	19	4493
2026-01-29 23:31:03.88	126.96	37.66	-29.3	-31.4	12.9	3.50e-05	0	43	0	1278214144	19	4571
2026-01-29 23:31:04.88	127.34	37.55	-28.9	-30.3	13.6	2.13e-05	0	43	0	1281359872	19	4231
2026-01-29 23:31:05.88	127.71	37.43	-28.7	-30.3	13.9	2.20e-06	0	43	0	1284505600	18	4342
2026-01-29 23:31:06.89	128.09	37.30	-29.2	-31.6	13.1	1.67e-05	0	43	0	1287651328	18	4740
2026-01-29 23:31:07.89	128.46	37.18	-29.3	-31.8	12.9	4.34e-05	0	43	0	1290797056	18	4823
2026-01-29 23:31:08.89	128.83	37.06	-29.5	-32.3	12.6	7.78e-05	0	43	0	1293942784	18	4993
2026-01-29 23:31:09.90	129.20	36.93	-29.4	-31.7	12.8	8.01e-05	0	43	0	1297088512	19	4655
2026-01-29 23:31:10.90	129.56	36.81	-29.3	-31.3	13.0	5.79e-05	0	43	0	1300234240	19	4548
2026-01-29 23:31:11.91	129.92	36.68	-29.3	-31.4	12.9	3.89e-05	0	43	0	1303379968	19	4567
2026-01-29 23:31:12.91	130.28	36.56	-29.6	-32.0	12.5	6.86e-05	0	43	0	1306525696	19	4775
2026-01-29 23:31:13.92	130.64	36.43	-29.2	-31.1	13.1	3.20e-05	0	43	0	1309671424	19	4463
2026-01-29 23:31:14.91	130.99	36.30	-29.0	-30.7	13.3	2.82e-05	0	43	0	1312817152	19	4348
2026-01-29 23:31:15.92	131.34	36.18	-28.8	-30.3	13.6	6.80e-06	0	43	0	1315962880	19	4241
2026-01-29 23:31:16.92	131.69	36.05	-28.9	-30.4	13.4	6.10e-06	0	43	0	1319108608	19	4299
2026-01-29 23:31:17.93	132.03	35.92	-29.2	-31.1	13.0	3.20e-05	0	43	0	1322254336	19	4504
2026-01-29 23:31:18.94	132.38	35.79	-29.0	-30.7	13.3	1.52e-05	0	43	0	1325400064	19	4367
2026-01-29 23:31:19.95	132.72	35.65	-28.7	-30.5	13.7	3.00e-06	0	43	0	1328545792	18	4425
2026-01-29 23:31:20.95	133.06	35.52	-28.5	-30.0	14.0	2.20e-06	0	43	0	1331691520	18	4261
2026-01-29 23:31:21.96	133.39	35.39	-28.5	-29.9	14.0	1.50e-06	0	43	0	1334837248	18	4239
2026-01-29 23:31:22.96	133.72	35.26	-28.7	-30.4	13.8	1.50e-06	0	43	0	1337982976	18	4378
2026-01-29 23:31:23.97	134.05	35.12	-28.8	-30.7	13.6	8.30e-06	0	44	0	1341128704	18	4480
2026-01-29 23:31:24.96	134.37	34.99	-28.8	-30.7	13.6	1.06e-05	0	43	0	1344274432	18	4464
2026-01-29 23:31:25.97	134.70	34.86	-28.9	-30.9	13.5	9.90e-06	0	44	0	1347420160	18	4530
2026-01-29 23:31:26.98	135.02	34.72	-28.8	-30.6	13.7	1.22e-05	0	43	0	1350565888	18	4443
2026-01-29 23:31:27.98	135.34	34.59	-28.6	-30.1	13.9	5.30e-06	0	43	0	1353711616	18	4306
2026-01-29 23:31:28.99	135.66	34.45	-28.6	-30.1	13.9	4.50e-06	0	43	0	1356857344	18	4310
2026-01-29 23:31:29.99	135.97	34.32	-28.4	-29.7	14.1	0.00e+00	0	43	0	1360003072	18	4185
2026-01-29 23:31:31.00	136.28	34.18	-28.3	-29.5	14.3	7.00e-07	0	43	0	1363148800	18	4133
2026-01-29 23:31:32.00	136.59	34.05	-28.4	-30.2	14.1	1.50e-06	0	43	0	1366294528	17	4434
2026-01-29 23:31:33.00	136.90	33.91	-27.9	-29.1	14.8	0.00e+00	0	43	0	1369440256	17	4109
2026-01-29 23:31:34.00	137.20	33.77	-27.6	-28.8	15.2	0.00e+00	0	43	0	1372585984	16	4144
2026-01-29 23:31:35.00	137.50	33.64	-27.6	-28.7	15.3	0.00e+00	0	43	0	1375731712	16	4120
2026-01-29 23:31:36.00	137.80	33.50	-27.7	-29.1	15.1	0.00e+00	0	43	0	1378877440	16	4225
2026-01-29 23:31:37.00	138.09	33.36	-27.7	-29.1	15.0	0.00e+00	0	43	0	1382023168	16	4217
2026-01-29 23:31:38.00	138.38	33.23	-27.7	-29.2	15.0	0.00e+00	0	43	0	1385168896	16	4249
2026-01-29 23:31:39.00	138.67	33.09	-27.6	-28.9	15.1	0.00e+00	0	43	0	1388314624	16	4171
2026-01-29 23:31:40.01	138.96	32.95	-27.5	-28.7	15.3	0.00e+00	0	43	0	1391460352	16	4118
2026-01-29 23:31:41.01	139.25	32.81	-27.4	-28.9	15.3	0.00e+00	0	43	0	1394606080	15	4278
2026-01-29 23:31:42.02	139.53	32.67	-27.1	-28.3	15.7	0.00e+00	0	43	0	1397751808	15	4120
2026-01-29 23:31:43.02	139.81	32.54	-27.1	-28.2	15.7	0.00e+00	0	43	0	1400897536	15	4090
2026-01-29 23:31:44.02	140.09	32.40	-27.0	-28.1	15.7	0.00e+00	0	43	0	1404043264	15	4053
2026-01-29 23:31:45.02	140.37	32.26	-27.1	-28.8	15.6	0.00e+00	0	43	0	1407188992	14	4355
2026-01-29 23:31:46.03	140.64	32.12	-26.8	-28.2	16.0	0.00e+00	0	43	0	1410334720	14	4190
2026-01-29 23:31:47.03	140.92	31.98	-26.9	-28.2	15.9	0.00e+00	0	43	0	1413480448	14	4211
2026-01-29 23:31:48.03	141.18	31.85	-27.0	-28.6	15.7	0.00e+00	0	43	0	1416626176	14	4309
2026-01-29 23:31:49.03	141.45	31.71	-27.0	-28.5	15.7	0.00e+00	0	43	0	1419771904	14	4294
2026-01-29 23:31:50.04	141.72	31.57	-27.2	-29.0	15.5	0.00e+00	0	43	0	1422917632	14	4416
2026-01-29 23:31:51.03	141.98	31.43	-27.0	-28.4	15.8	0.00e+00	0	43	0	1426063360	14	4259
2026-01-29 23:31:52.03	142.24	31.29	-26.8	-28.1	16.0	0.00e+00	0	43	0	1429209088	14	4166
2026-01-29 23:31:53.04	142.50	31.15	-26.9	-28.7	15.9	0.00e+00	0	43	0	1432354816	13	4448
2026-01-29 23:31:54.03	142.75	31.02	-26.8	-28.6	16.0	0.00e+00	0	43	0	1435500544	13	4418
2026-01-29 23:31:55.03	143.01	30.88	-26.6	-28.1	16.2	0.00e+00	0	43	0	1438646272	13	4272
2026-01-29 23:31:56.04	143.26	30.74	-26.5	-27.8	16.3	0.00e+00	0	43	0	1441792000	13	4210
2026-01-29 23:31:57.04	143.51	30.60	-26.6	-28.2	16.2	0.00e+00	0	43	0	1444937728	13	4300
2026-01-29 23:31:58.04	143.76	30.46	-26.6	-28.1	16.2	0.00e+00	0	43	0	1448083456	13	4291
2026-01-29 23:31:59.05	144.00	30.32	-26.8	-28.6	15.9	0.00e+00	0	43	0	1451229184	13	4419
2026-01-29 23:32:00.05	144.25	30.19	-26.8	-28.6	15.9	0.00e+00	0	43	0	1454374912	13	4419
2026-01-29 23:32:01.05	144.49	30.05	-26.9	-28.7	15.9	0.00e+00	0	43	0	1457520640	13	4448
2026-01-29 23:32:02.05	144.73	29.91	-26.8	-28.7	15.9	0.00e+00	0	43	0	1460666368	13	4448
2026-01-29 23:32:03.06	144.97	29.77	-27.0	-29.0	15.8	0.00e+00	0	43	0	1463812096	13	4528
2026-01-29 23:32:04.06	145.20	29.63	-26.8	-28.6	15.9	0.00e+00	0	43	0	1466957824	13	4420
2026-01-29 23:32:05.06	145.44	29.50	-26.8	-28.5	16.0	0.00e+00	0	43	0	1470103552	13	4390
2026-01-29 23:32:06.07	145.67	29.36	-26.9	-28.7	15.8	0.00e+00	0	43	0	1473249280	13	4449
2026-01-29 23:32:07.07	145.90	29.22	-26.8	-28.7	15.8	0.00e+00	0	43	0	1476395008	13	4450
2026-01-29 23:32:08.07	146.13	29.09	-27.0	-29.0	15.7	0.00e+00	0	43	0	1479540736	13	4544
2026-01-29 23:32:09.07	146.35	28.95	-27.1	-28.7	15.5	0.00e+00	0	43	0	1482686464	14	4357
2026-01-29 23:32:10.08	146.58	28.81	-27.1	-28.7	15.6	0.00e+00	0	43	0	1485832192	14	4354
2026-01-29 23:32:11.09	146.80	28.67	-26.9	-28.3	15.8	0.00e+00	0	43	0	1488977920	14	4217
2026-01-29 23:32:12.10	147.03	28.54	-26.8	-28.7	15.8	0.00e+00	0	43	0	1492123648	13	4447
2026-01-29 23:32:13.10	147.24	28.40	-26.9	-28.7	15.8	0.00e+00	0	43	0	1495269376	13	4465
2026-01-29 23:32:14.10	147.46	28.27	-27.0	-28.9	15.7	0.00e+00	0	43	0	1498415104	13	4520
2026-01-29 23:32:15.10	147.67	28.13	-27.1	-28.7	15.6	0.00e+00	0	43	0	1501560832	14	4329
2026-01-29 23:32:16.11	147.89	27.99	-27.2	-28.9	15.4	0.00e+00	0	43	0	1504706560	14	4402
2026-01-29 23:32:17.11	148.10	27.86	-27.0	-28.6	15.6	0.00e+00	0	43	0	1507852288	14	4353
2026-01-29 23:32:18.12	148.31	27.72	-27.1	-28.7	15.5	0.00e+00	0	43	0	1510998016	14	4347
2026-01-29 23:32:19.12	148.52	27.59	-27.1	-29.4	13.5	0.00e+00	0	43	0	1514143744	13	4646
2026-01-29 23:32:20.12	148.73	27.46	-27.4	-29.4	14.3	0.00e+00	0	43	0	1517289472	14	4535
2026-01-29 23:32:21.12	148.93	27.32	-27.2	-29.0	15.4	0.00e+00	0	43	0	1520435200	14	4440
2026-01-29 23:32:22.13	149.14	27.19	-27.3	-29.1	15.3	0.00e+00	0	43	0	1523580928	14	4463
2026-01-29 23:32:23.13	149.34	27.06	-27.3	-29.3	15.2	7.00e-07	0	43	0	1526726656	14	4526
2026-01-29 23:32:24.13	149.54	26.92	-27.4	-29.6	15.1	0.00e+00	0	43	0	1528823808	14	4590
2026-01-29 23:32:25.14	149.74	26.79	-27.0	-28.6	15.5	0.00e+00	0	43	0	1533018112	14	4327
2026-01-29 23:32:26.14	149.93	26.66	-26.9	-28.7	15.8	2.20e-06	0	43	0	1536163840	13	4469
2026-01-29 23:32:27.15	150.13	26.52	-26.8	-28.6	15.8	0.00e+00	0	43	0	1539309568	13	4434
2026-01-29 23:32:28.15	150.32	26.39	-26.9	-28.7	15.8	3.68e-03	0	43	0	1542455296	13	4469
2026-01-29 23:32:29.17	150.52	26.26	-26.6	-28.2	16.0	3.52e-03	0	43	0	1545601024	13	4317
2026-01-29 23:32:30.17	150.71	26.13	-26.6	-28.1	16.1	0.00e+00	0	43	0	1548746752	13	4294
2026-01-29 23:32:31.17	150.90	26.00	-26.6	-28.2	16.0	0.00e+00	0	43	0	1550843904	13	4320
2026-01-29 23:32:32.17	151.08	25.87	-26.6	-28.2	16.0	0.00e+00	0	43	0	1553989632	13	4326
2026-01-29 23:32:33.17	151.27	25.74	-26.8	-28.6	15.8	0.00e+00	0	43	0	1557135360	13	4442
2026-01-29 23:32:34.18	151.45	25.60	-26.8	-28.6	15.8	3.28e-03	0	43	0	1560281088	13	4444
2026-01-29 23:32:35.18	151.64	25.48	-26.8	-28.6	15.8	3.68e-03	0	43	0	1563426816	13	4427
2026-01-29 23:32:36.18	151.82	25.35	-26.8	-28.6	15.7	0.00e+00	0	43	0	1567621120	13	4444
2026-01-29 23:32:37.19	152.00	25.22	-26.7	-28.3	16.0	0.00e+00	0	43	0	1570766848	13	4345
2026-01-29 23:32:38.19	152.18	25.09	-26.7	-28.3	15.9	3.29e-03	0	43	0	1573912576	13	4355
2026-01-29 23:32:39.20	152.35	24.96	-26.7	-28.4	15.9	0.00e+00	0	43	0	1576009728	13	4381
2026-01-29 23:32:40.20	152.53	24.83	-26.6	-28.1	16.0	3.55e-03	0	43	0	1579155456	13	4307
2026-01-29 23:32:41.20	152.70	24.70	-26.6	-28.1	16.0	3.18e-03	0	43	0	1582301184	13	4292
2026-01-29 23:32:42.21	152.88	24.58	-26.6	-28.2	16.0	0.00e+00	0	43	0	1585446912	13	4313
2026-01-29 23:32:43.21	153.05	24.45	-26.5	-28.0	16.1	3.22e-03	0	43	0	1588592640	13	4273
2026-01-29 23:32:44.22	153.22	24.32	-26.6	-28.2	15.9	3.70e-03	0	43	0	1591738368	13	4333
2026-01-29 23:32:45.22	153.39	24.20	-26.6	-28.3	15.9	0.00e+00	0	43	0	1594884096	13	4343
2026-01-29 23:32:46.23	153.56	24.07	-26.8	-28.5	15.8	3.73e-03	0	43	0	1598029824	13	4420
2026-01-29 23:32:47.24	153.73	23.94	-26.7	-28.5	15.8	3.51e-03	0	43	0	1601175552	13	4412
2026-01-29 23:32:48.24	153.89	23.82	-26.9	-28.8	15.6	0.00e+00	0	43	0	1604321280	13	4485
2026-01-29 23:32:49.24	154.05	23.69	-26.8	-28.5	15.7	3.45e-03	0	43	0	1607467008	13	4419
2026-01-29 23:32:50.25	154.22	23.57	-26.8	-28.6	15.8	3.20e-03	0	43	0	1610612736	13	4432
2026-01-29 23:32:51.25	154.38	23.44	-26.9	-28.8	15.6	0.00e+00	0	43	0	1613758464	13	4505
2026-01-29 23:32:52.25	154.54	23.32	-26.8	-28.7	15.7	0.00e+00	0	43	0	1616904192	13	4471
2026-01-29 23:32:53.26	154.70	23.20	-26.9	-28.9	15.5	0.00e+00	0	43	0	1620049920	13	4538
2026-01-29 23:32:54.27	154.86	23.07	-27.0	-28.6	15.5	0.00e+00	0	43	0	1623195648	14	4330
2026-01-29 23:32:55.27	155.01	22.95	-26.9	-28.9	15.6	3.74e-03	0	43	0	1626341376	13	4521
2026-01-29 23:32:56.28	155.17	22.83	-26.9	-28.9	15.6	3.53e-03	0	43	0	1629487104	13	4514
2026-01-29 23:32:57.28	155.32	22.71	-26.9	-28.9	15.5	0.00e+00	0	43	0	1632632832	13	4534
2026-01-29 23:32:58.29	155.48	22.58	-27.1	-28.8	15.3	0.00e+00	0	43	0	1635778560	14	4388
2026-01-29 23:32:59.29	155.63	22.46	-27.2	-29.0	15.2	0.00e+00	0	43	0	1638924288	14	4436
2026-01-29 23:33:00.29	155.78	22.34	-27.0	-28.5	15.5	0.00e+00	0	43	0	1642070016	14	4295
2026-01-29 23:33:01.29	155.93	22.22	-26.9	-28.3	15.6	3.25e-03	0	43	0	1645215744	14	4239
2026-01-29 23:33:02.29	156.08	22.10	-26.7	-28.5	15.8	0.00e+00	0	43	0	1648361472	13	4409
2026-01-29 23:33:03.30	156.22	21.98	-26.7	-28.3	15.9	0.00e+00	0	43	0	1651507200	13	4359
2026-01-29 23:33:04.30	156.37	21.86	-26.5	-28.0	16.0	0.00e+00	0	43	0	1654652928	13	4260
2026-01-29 23:33:05.30	156.52	21.74	-26.5	-28.4	16.1	0.00e+00	0	43	0	1657798656	12	4483
2026-01-29 23:33:06.30	156.66	21.63	-26.6	-28.2	16.0	0.00e+00	0	43	0	1660944384	13	4314
2026-01-29 23:33:07.30	156.80	21.51	-26.7	-28.4	15.8	0.00e+00	0	43	0	1664090112	13	4369
2026-01-29 23:33:08.31	156.94	21.39	-26.6	-28.2	15.9	0.00e+00	0	43	0	1667235840	13	4337
2026-01-29 23:33:09.31	157.09	21.27	-26.6	-28.1	15.9	0.00e+00	0	43	0	1670381568	13	4317
2026-01-29 23:33:10.31	157.22	21.16	-26.7	-28.4	15.9	0.00e+00	0	43	0	1673527296	13	4377
2026-01-29 23:33:11.31	157.36	21.04	-26.7	-28.6	15.7	0.00e+00	0	44	0	1676673024	13	4450
2026-01-29 23:33:12.31	157.50	20.92	-26.8	-28.6	15.6	0.00e+00	0	44	0	1679818752	13	4457
2026-01-29 23:33:13.31	157.64	20.81	-26.7	-28.5	15.7	5.30e-06	0	43	0	1682964480	13	4429
2026-01-29 23:33:14.31	157.77	20.69	-26.8	-28.7	15.6	0.00e+00	0	43	0	1686110208	13	4475
2026-01-29 23:33:15.32	157.91	20.58	-26.8	-28.7	15.6	0.00e+00	0	43	0	1689255936	13	4472
2026-01-29 23:33:16.32	158.04	20.46	-26.7	-28.5	15.7	1.06e-05	0	43	0	1692401664	13	4418
2026-01-29 23:33:17.32	158.17	20.35	-26.7	-28.4	15.8	0.00e+00	0	43	0	1695547392	13	4380
2026-01-29 23:33:18.33	158.31	20.23	-26.7	-28.5	15.7	0.00e+00	0	43	0	1698693120	13	4418
2026-01-29 23:33:19.34	158.44	20.12	-26.8	-28.6	15.6	9.10e-06	0	43	0	1701838848	13	4448
2026-01-29 23:33:20.34	158.57	20.01	-26.6	-28.1	15.9	0.00e+00	0	43	0	1704984576	13	4313
2026-01-29 23:33:21.34	158.70	19.89	-26.5	-28.1	15.9	0.00e+00	0	43	0	1708130304	13	4290
2026-01-29 23:33:22.34	158.83	19.78	-26.5	-28.0	16.0	0.00e+00	0	43	0	1711276032	13	4264
2026-01-29 23:33:23.35	158.95	19.67	-26.5	-28.1	15.9	0.00e+00	0	44	0	1714421760	13	4293
2026-01-29 23:33:24.35	159.08	19.56	-26.7	-28.3	15.8	0.00e+00	0	43	0	1717567488	13	4369
2026-01-29 23:33:25.36	159.21	19.44	-26.6	-28.2	15.8	4.50e-06	0	43	0	1720713216	13	4337
2026-01-29 23:33:26.36	159.33	19.33	-26.7	-28.4	15.7	0.00e+00	0	43	0	1723858944	13	4398
2026-01-29 23:33:27.37	159.46	19.22	-26.7	-28.5	15.7	0.00e+00	0	43	0	1727004672	13	4426
2026-01-29 23:33:28.37	159.58	19.11	-26.8	-28.6	15.6	0.00e+00	0	43	0	1730150400	13	4454
2026-01-29 23:33:29.38	159.70	19.00	-26.8	-28.8	15.5	0.00e+00	0	43	0	1733296128	13	4492
2026-01-29 23:33:30.38	159.82	18.89	-26.9	-28.9	15.4	0.00e+00	0	43	0	1736441856	13	4536
2026-01-29 23:33:31.38	159.94	18.78	-27.0	-29.0	15.4	0.00e+00	0	43	0	1739587584	13	4561
2026-01-29 23:33:32.38	160.06	18.67	-27.2	-29.0	15.1	0.00e+00	0	44	0	1742733312	14	4455
2026-01-29 23:33:33.38	160.18	18.57	-27.2	-29.1	15.1	7.00e-07	0	43	0	1745879040	14	4482
2026-01-29 23:33:34.38	160.30	18.46	-27.1	-28.8	15.2	0.00e+00	0	43	0	1749024768	14	4380
2026-01-29 23:33:35.39	160.42	18.35	-27.0	-28.6	15.3	0.00e+00	0	43	0	1752170496	14	4347
2026-01-29 23:33:36.39	160.53	18.24	-27.0	-28.6	15.3	0.00e+00	0	43	0	1755316224	14	4344
2026-01-29 23:33:37.40	160.65	18.14	-27.1	-28.8	15.2	0.00e+00	0	43	0	1758461952	14	4390
2026-01-29 23:33:38.40	160.76	18.03	-27.1	-28.9	15.2	0.00e+00	0	43	0	1761607680	14	4416
2026-01-29 23:33:39.41	160.88	17.92	-27.0	-28.7	15.3	7.00e-07	0	43	0	1764753408	14	4374
2026-01-29 23:33:40.42	160.99	17.81	-27.0	-28.7	15.2	0.00e+00	0	43	0	1767899136	14	4376
2026-01-29 23:33:41.42	161.10	17.71	-27.2	-29.1	15.0	0.00e+00	0	44	0	1771044864	14	4484
2026-01-29 23:33:42.42	161.21	17.60	-27.3	-29.4	14.8	0.00e+00	0	43	0	1774190592	14	4568
2026-01-29 23:33:43.42	161.33	17.50	-27.3	-29.3	14.9	0.00e+00	0	43	0	1777336320	14	4534
2026-01-29 23:33:44.42	161.43	17.40	-27.4	-29.6	14.7	0.00e+00	0	43	0	1780482048	14	4635
2026-01-29 23:33:45.43	161.55	17.29	-27.6	-29.6	14.4	7.00e-07	0	44	0	1783627776	15	4513
2026-01-29 23:33:46.43	161.65	17.19	-27.7	-29.6	14.4	7.00e-07	0	43	0	1786773504	15	4512
2026-01-29 23:33:47.44	161.76	17.08	-27.4	-29.0	14.8	0.00e+00	0	43	0	1789919232	15	4343
2026-01-29 23:33:48.45	161.87	16.98	-27.2	-28.5	15.0	0.00e+00	0	43	0	1793064960	15	4204
2026-01-29 23:33:49.45	161.98	16.88	-27.2	-29.0	15.1	0.00e+00	0	43	0	1796210688	14	4441
2026-01-29 23:33:50.46	162.08	16.77	-27.3	-29.2	15.0	0.00e+00	0	43	0	1799356416	14	4512
2026-01-29 23:33:51.47	162.19	16.67	-27.3	-29.2	14.9	0.00e+00	0	43	0	1802502144	14	4526
2026-01-29 23:33:52.48	162.29	16.57	-27.1	-28.9	15.1	0.00e+00	0	43	0	1805647872	14	4438
2026-01-29 23:33:53.48	162.40	16.47	-27.1	-28.9	15.1	7.00e-07	0	43	0	1808793600	14	4448
2026-01-29 23:33:54.48	162.50	16.36	-27.1	-29.1	15.0	0.00e+00	0	43	0	1811939328	14	4502
2026-01-29 23:33:55.49	162.60	16.26	-27.2	-29.2	12.4	0.00e+00	0	43	0	1815085056	14	4548
2026-01-29 23:33:56.49	162.71	16.16	-27.1	-29.1	14.7	0.00e+00	0	43	0	1818230784	14	4512
2026-01-29 23:33:57.49	162.81	16.06	-27.1	-29.1	14.8	0.00e+00	0	43	0	1821376512	14	4517
2026-01-29 23:33:58.49	162.91	15.96	-27.2	-29.2	14.8	3.77e-03	0	43	0	1824522240	14	4543
2026-01-29 23:33:59.49	163.01	15.86	-27.2	-29.3	14.8	0.00e+00	0	44	0	1827667968	14	4588
2026-01-29 23:34:00.50	163.11	15.76	-27.2	-29.4	14.7	7.00e-07	0	43	0	1830813696	14	4609
2026-01-29 23:34:01.50	163.21	15.67	-27.3	-29.6	14.6	0.00e+00	0	43	0	1833959424	14	4656
2026-01-29 23:34:02.51	163.30	15.57	-27.4	-29.7	14.5	1.50e-06	0	43	0	1837105152	14	4701
2026-01-29 23:34:03.51	163.40	15.47	-27.5	-29.5	14.4	3.46e-03	0	43	0	1840250880	15	4516
2026-01-29 23:34:04.51	163.50	15.37	-27.6	-29.7	14.3	7.00e-07	0	43	0	1843396608	15	4564
2026-01-29 23:34:05.52	163.59	15.27	-27.7	-29.9	14.1	1.50e-06	0	43	0	1846542336	15	4647
2026-01-29 23:34:06.52	163.69	15.18	-27.8	-30.1	14.0	2.20e-06	0	43	0	1849688064	15	4706
2026-01-29 23:34:07.52	163.78	15.08	-27.9	-30.3	13.9	2.20e-06	0	43	0	1852833792	15	4750
2026-01-29 23:34:08.53	163.88	14.98	-27.9	-30.3	13.9	3.81e-05	0	43	0	1855979520	15	4745
2026-01-29 23:34:09.54	163.97	14.88	-27.9	-30.4	13.9	3.79e-03	0	43	0	1859125248	15	4768
2026-01-29 23:34:10.55	164.07	14.79	-27.9	-30.4	13.9	3.51e-03	0	43	0	1862270976	15	4763
2026-01-29 23:34:11.55	164.16	14.69	-28.1	-30.4	13.8	2.20e-06	0	43	0	1865416704	16	4645
2026-01-29 23:34:12.55	164.25	14.60	-28.2	-30.4	13.7	2.21e-05	0	44	0	1868562432	16	4652
2026-01-29 23:34:13.56	164.34	14.50	-28.2	-30.4	13.7	3.95e-03	0	43	0	1871708160	16	4646
2026-01-29 23:34:14.56	164.44	14.41	-28.1	-30.2	13.9	1.50e-06	0	43	0	1874853888	16	4578
2026-01-29 23:34:15.56	164.53	14.31	-28.1	-30.2	13.8	3.92e-03	0	43	0	1877999616	16	4600
2026-01-29 23:34:16.56	164.62	14.22	-28.2	-30.4	13.7	2.20e-06	0	43	0	1881145344	16	4648
2026-01-29 23:34:17.56	164.70	14.12	-28.2	-30.5	13.7	7.60e-06	0	43	0	1884291072	16	4679
2026-01-29 23:34:18.57	164.79	14.03	-28.1	-30.2	13.8	3.84e-03	0	43	0	1887436800	16	4590
2026-01-29 23:34:19.57	164.88	13.94	-28.0	-30.1	13.9	3.50e-03	0	43	0	1890582528	16	4558
2026-01-29 23:34:20.58	164.97	13.84	-28.0	-30.1	13.9	8.85e-05	0	43	0	1893728256	16	4561
2026-01-29 23:34:21.58	165.06	13.75	-28.1	-30.2	13.8	1.29e-05	0	43	0	1896873984	16	4606
2026-01-29 23:34:22.59	165.14	13.66	-28.0	-30.6	13.7	6.10e-06	0	43	0	1900019712	15	4850
2026-01-29 23:34:23.60	165.23	13.57	-28.1	-30.2	13.8	1.17e-04	0	43	0	1903165440	16	4615
2026-01-29 23:34:24.61	165.32	13.47	-27.8	-30.0	14.0	3.78e-03	0	43	0	1906311168	15	4666
2026-01-29 23:34:25.60	165.40	13.38	-27.7	-29.8	14.2	3.62e-03	0	43	0	1909456896	15	4601
2026-01-29 23:34:26.61	165.49	13.29	-27.7	-29.9	14.1	1.49e-04	0	43	0	1912602624	15	4630
2026-01-29 23:34:27.61	165.57	13.20	-27.7	-29.8	14.2	7.00e-07	0	43	0	1915748352	15	4582
2026-01-29 23:34:28.62	165.66	13.11	-27.6	-29.7	14.3	3.32e-03	0	43	0	1918894080	15	4545
2026-01-29 23:34:29.62	165.74	13.02	-27.7	-29.9	14.1	1.22e-04	0	43	0	1920991232	15	4608
2026-01-29 23:34:30.62	165.82	12.93	-27.8	-30.1	14.0	3.32e-03	0	43	0	1924136960	15	4676
2026-01-29 23:34:31.62	165.90	12.84	-27.7	-29.9	14.1	3.82e-03	0	43	0	1927282688	15	4639
2026-01-29 23:34:32.63	165.98	12.75	-27.7	-29.8	14.1	2.20e-06	0	43	0	1930428416	15	4613
2026-01-29 23:34:33.63	166.07	12.66	-27.8	-30.2	13.9	3.00e-06	0	43	0	1934622720	15	4734
2026-01-29 23:34:34.64	166.15	12.57	-27.8	-30.2	13.9	3.64e-03	0	43	0	1937768448	15	4726
2026-01-29 23:34:35.64	166.23	12.48	-27.7	-30.0	14.0	1.91e-04	0	43	0	1940914176	15	4669
2026-01-29 23:34:36.65	166.31	12.39	-27.8	-30.1	13.9	3.67e-03	0	44	0	1944059904	15	4715
2026-01-29 23:34:37.65	166.39	12.31	-27.8	-30.1	13.9	3.80e-06	0	43	0	1946157056	15	4717
2026-01-29 23:34:38.65	166.47	12.22	-27.9	-30.4	13.7	1.50e-06	0	43	0	1949302784	15	4817
2026-01-29 23:34:39.66	166.54	12.13	-27.9	-30.4	13.8	6.10e-06	0	43	0	1952448512	15	4794
2026-01-29 23:34:40.66	166.62	12.04	-27.8	-30.2	13.9	3.77e-03	0	43	0	1955594240	15	4730
2026-01-29 23:34:41.67	166.70	11.95	-27.8	-30.3	13.8	2.36e-04	0	43	0	1958739968	15	4746
2026-01-29 23:34:42.68	166.78	11.87	-28.0	-30.6	13.6	5.30e-06	0	43	0	1961885696	15	4858
2026-01-29 23:34:43.68	166.86	11.78	-28.1	-30.3	13.7	4.50e-06	0	43	0	1966080000	16	4633
2026-01-29 23:34:44.69	166.93	11.69	-28.2	-30.5	13.6	9.10e-06	0	43	0	1968177152	16	4699
2026-01-29 23:34:45.69	167.01	11.61	-28.2	-30.6	13.5	8.30e-06	0	43	0	1971322880	16	4727
2026-01-29 23:34:46.69	167.08	11.52	-28.3	-30.7	13.4	3.33e-03	0	44	0	1974468608	16	4763
2026-01-29 23:34:47.69	167.16	11.44	-28.2	-30.6	13.5	6.10e-06	0	43	0	1977614336	16	4727
2026-01-29 23:34:48.69	167.23	11.35	-28.3	-30.7	13.5	4.50e-06	0	43	0	1980760064	16	4747
2026-01-29 23:34:49.69	167.31	11.27	-28.2	-30.4	13.6	6.80e-06	0	43	0	1983905792	16	4669
2026-01-29 23:34:50.70	167.38	11.18	-28.1	-30.3	13.7	9.10e-06	0	43	0	1987051520	16	4644
2026-01-29 23:34:51.71	167.45	11.10	-28.2	-30.6	13.5	1.29e-05	0	43	0	1990197248	16	4710
2026-01-29 23:34:52.71	167.53	11.01	-28.2	-30.4	13.6	1.14e-05	0	43	0	1993342976	16	4666
2026-01-29 23:34:53.71	167.60	10.93	-28.1	-30.2	13.7	6.10e-06	0	43	0	1996488704	16	4593
2026-01-29 23:34:54.71	167.67	10.85	-28.2	-30.4	13.6	5.30e-06	0	44	0	1999634432	16	4650
2026-01-29 23:34:55.71	167.74	10.76	-28.1	-30.3	13.7	8.30e-06	0	43	0	2002780160	16	4625
2026-01-29 23:34:56.72	167.82	10.68	-28.2	-30.5	13.5	1.06e-05	0	43	0	2005925888	16	4695
2026-01-29 23:34:57.72	167.89	10.60	-28.2	-30.4	13.6	1.22e-05	0	43	0	2009071616	16	4650
2026-01-29 23:34:58.73	167.96	10.51	-28.0	-30.5	13.6	5.30e-06	0	43	0	2012217344	15	4815
2026-01-29 23:34:59.74	168.03	10.43	-28.1	-30.2	13.7	3.80e-06	0	43	0	2015363072	16	4604
2026-01-29 23:35:00.74	168.10	10.35	-28.1	-30.2	13.7	6.80e-06	0	43	0	2018508800	16	4596
2026-01-29 23:35:01.75	168.17	10.26	-28.0	-30.5	13.6	4.50e-06	0	44	0	2021654528	15	4823
2026-01-29 23:35:02.75	168.24	10.18	-28.2	-30.5	13.5	2.59e-05	0	43	0	2024800256	16	4683
2026-01-29 23:35:03.75	168.31	10.10	-28.3	-30.7	13.4	1.37e-05	0	43	0	2027945984	16	4745
2026-01-29 23:35:04.76	168.37	10.02	-28.3	-30.9	13.3	1.60e-05	0	43	0	2031091712	16	4822
2026-01-29 23:35:05.76	168.44	9.94	-28.3	-30.9	13.2	2.44e-05	0	44	0	2034237440	16	4837
2026-01-29 23:35:06.76	168.51	9.86	-28.3	-30.8	13.3	1.44e-05	0	43	0	2037383168	16	4788
2026-01-29 23:35:07.77	168.58	9.78	-28.3	-30.8	13.3	1.67e-05	0	43	0	2040528896	16	4807
2026-01-29 23:35:08.78	168.65	9.70	-28.4	-31.0	13.2	4.19e-05	0	43	0	2043674624	16	4867
2026-01-29 23:35:09.78	168.71	9.62	-28.4	-31.1	13.0	2.28e-05	0	43	0	2046820352	16	4901
2026-01-29 23:35:10.78	168.78	9.54	-28.4	-31.2	13.0	4.19e-05	0	43	0	2049966080	16	4932
2026-01-29 23:35:11.79	168.84	9.46	-28.4	-31.1	13.0	5.56e-05	0	43	0	2053111808	16	4913
2026-01-29 23:35:12.79	168.91	9.38	-28.5	-31.3	12.9	3.50e-05	0	43	0	2056257536	16	4974
2026-01-29 23:35:13.79	168.98	9.30	-28.4	-31.2	13.0	4.73e-05	0	43	0	2059403264	16	4941
2026-01-29 23:35:14.80	169.04	9.22	-28.5	-31.3	12.9	5.26e-05	0	43	0	2062548992	16	4999
2026-01-29 23:35:15.80	169.11	9.14	-28.6	-31.1	12.7	7.17e-05	0	43	0	2065694720	17	4818
2026-01-29 23:35:16.80	169.17	9.06	-28.7	-31.4	12.5	1.14e-04	0	44	0	2068840448	17	4927
2026-01-29 23:35:17.81	169.23	8.98	-28.7	-31.4	12.5	1.36e-04	0	43	0	2071986176	17	4910
2026-01-29 23:35:18.81	169.30	8.90	-28.7	-31.5	12.4	1.33e-04	0	43	0	2075131904	17	4939
2026-01-29 23:35:19.82	169.36	8.83	-28.7	-31.6	12.3	1.69e-04	0	43	0	2078277632	17	4979
2026-01-29 23:35:20.82	169.42	8.75	-28.7	-31.6	12.3	1.69e-04	0	43	0	2081423360	17	4979
2026-01-29 23:35:21.82	169.49	8.67	-28.9	-31.9	12.1	2.04e-04	0	43	0	2084569088	17	5108
2026-01-29 23:35:22.82	169.55	8.59	-28.9	-32.0	12.1	3.31e-04	0	44	0	2087714816	17	5125
2026-01-29 23:35:23.83	169.61	8.52	-29.0	-32.1	12.0	3.28e-04	0	44	0	2090860544	17	5193
2026-01-29 23:35:24.83	169.67	8.44	-29.0	-31.7	12.0	3.74e-04	0	43	0	2094006272	18	4911
2026-01-29 23:35:25.84	169.73	8.36	-28.8	-31.8	12.2	2.35e-04	0	43	0	2097152000	17	5060
2026-01-29 23:35:26.83	169.80	8.29	-28.9	-32.1	12.0	2.75e-04	0	43	0	2100297728	17	5166
2026-01-29 23:35:27.84	169.86	8.21	-29.0	-31.6	12.0	3.93e-04	0	43	0	2103443456	18	4863
2026-01-29 23:35:28.84	169.92	8.13	-28.9	-31.9	12.1	2.71e-04	0	43	0	2106589184	17	5096
2026-01-29 23:35:29.84	169.98	8.06	-28.9	-31.9	12.1	2.67e-04	0	43	0	2109734912	17	5080
2026-01-29 23:35:30.85	170.04	7.98	-29.1	-31.9	11.8	4.52e-04	0	43	0	2112880640	18	4997
2026-01-29 23:35:31.85	170.10	7.91	-29.3	-32.4	11.5	7.51e-04	0	43	0	2116026368	18	5158
2026-01-29 23:35:32.86	170.16	7.83	-29.2	-32.3	11.5	9.80e-04	0	43	0	2119172096	18	5138
2026-01-29 23:35:33.86	170.22	7.76	-29.3	-32.6	11.3	9.33e-04	0	44	0	2122317824	18	5224
2026-01-29 23:35:34.86	170.27	7.68	-29.6	-32.9	10.8	2.01e-03	0	43	0	2125463552	19	5237
2026-01-29 23:35:35.87	170.33	7.61	-29.5	-32.5	11.0	2.16e-03	0	44	0	2128609280	19	5084
2026-01-29 23:35:36.86	170.39	7.53	-29.5	-32.5	11.0	1.62e-03	0	43	0	2131755008	19	5110
2026-01-29 23:35:37.86	170.45	7.46	-29.6	-32.7	10.9	2.23e-03	0	44	0	2134900736	19	5184
2026-01-29 23:35:38.87	170.51	7.38	-29.6	-32.7	10.8	2.57e-03	0	44	0	2138046464	19	5174
