passes_logs/2026/01/29/R2M6_AANII_01/R2M6_AANII_01__20260129_015312_SUOMI_NPP_rec.log

#Pass ID: 20260129_015312_SUOMI NPP
#Satellite: SUOMI NPP
#Configuration: NPP
#almurnet v.1.7.20240730
#Start time: 2026-01-29 01:53:14

#Version: 2.2.20231116
#Station: R2M6_AANII_01
#Location: 30.233357 lon 59.946436 lat
#TLE: 1 37849U 11061A   26027.86188320  .00000172  00000+0  10275-3 0  9990
#TLE: 2 37849  98.7823 329.8005 0002088  41.4184 318.7150 14.19530883738530

#Time	Az	El	Level	Level2	SNR	BER	BlckErr	Temp	State	Recorded	gain1	gain2
2026-01-29 01:53:14.14	11.84	7.12	-32.1	-39.5	4.2	1.43e+00	0	41	0	0	24	8377
2026-01-29 01:53:15.14	11.77	7.19	-32.1	-38.9	4.3	1.41e+00	0	41	104	0	24	7874
2026-01-29 01:53:16.14	11.70	7.26	-32.1	-39.0	5.4	5.28e-01	0	41	0	0	24	7931
2026-01-29 01:53:17.14	11.63	7.33	-32.1	-38.9	5.4	5.16e-01	0	41	0	1048576	24	7881
2026-01-29 01:53:18.14	11.56	7.40	-32.2	-39.3	5.2	5.76e-01	0	41	0	3145728	24	8198
2026-01-29 01:53:19.15	11.48	7.47	-32.2	-39.9	4.9	6.69e-01	0	41	0	5242880	24	8669
2026-01-29 01:53:20.15	11.41	7.54	-32.3	-40.3	4.7	7.67e-01	0	41	0	7340032	24	9072
2026-01-29 01:53:21.15	11.34	7.61	-32.2	-39.4	5.1	6.94e-01	0	41	0	9437184	24	8284
2026-01-29 01:53:22.16	11.26	7.68	-32.1	-38.8	5.5	5.27e-01	0	41	0	10485760	24	7734
2026-01-29 01:53:23.16	11.19	7.75	-32.0	-38.2	6.2	3.68e-01	0	42	0	12582912	23	7408
2026-01-29 01:53:24.17	11.12	7.82	-31.8	-37.2	6.9	1.97e-01	0	41	0	14680064	23	6721
2026-01-29 01:53:25.18	11.04	7.90	-31.6	-36.2	7.7	1.18e-01	0	41	0	16777216	23	6118
2026-01-29 01:53:26.18	10.97	7.97	-31.4	-36.0	8.2	7.22e-02	0	42	0	17825792	22	6104
2026-01-29 01:53:27.18	10.89	8.04	-31.2	-35.0	9.0	3.32e-02	0	41	0	19922944	22	5590
2026-01-29 01:53:28.18	10.81	8.11	-31.0	-34.9	9.5	1.38e-02	0	41	0	22020096	21	5631
2026-01-29 01:53:29.19	10.74	8.18	-30.9	-34.4	9.8	1.00e-02	0	41	0	24117248	21	5404
2026-01-29 01:53:30.19	10.66	8.25	-30.6	-33.6	10.4	7.51e-03	0	42	0	26214400	21	5064
2026-01-29 01:53:31.19	10.58	8.33	-30.6	-33.6	10.5	4.15e-03	0	42	0	28311552	21	5076
2026-01-29 01:53:32.20	10.51	8.40	-30.7	-33.7	10.4	4.14e-03	0	42	0	29360128	21	5099
2026-01-29 01:53:33.20	10.43	8.47	-30.6	-33.4	10.6	4.41e-03	0	42	0	31457280	21	4994
2026-01-29 01:53:34.20	10.35	8.54	-30.4	-32.8	11.0	2.43e-03	0	42	0	33554432	21	4769
2026-01-29 01:53:35.21	10.27	8.62	-30.3	-33.1	11.3	3.89e-03	0	42	0	35651584	20	4933
2026-01-29 01:53:36.21	10.19	8.69	-30.3	-33.0	11.4	1.42e-03	0	42	0	36700160	20	4898
2026-01-29 01:53:37.22	10.11	8.76	-30.3	-33.0	11.4	1.13e-03	0	42	0	38797312	20	4893
2026-01-29 01:53:38.22	10.03	8.84	-30.4	-33.1	11.2	3.71e-03	0	42	0	40894464	20	4962
2026-01-29 01:53:39.22	9.95	8.91	-30.3	-32.9	11.4	1.48e-03	0	42	0	42991616	20	4883
2026-01-29 01:53:40.23	9.87	8.98	-30.3	-33.0	11.4	1.43e-03	0	42	0	45088768	20	4892
2026-01-29 01:53:41.23	9.79	9.06	-30.4	-33.2	11.3	3.59e-03	0	42	0	46137344	20	4967
2026-01-29 01:53:42.23	9.71	9.13	-30.5	-33.1	10.9	4.38e-03	0	42	0	48234496	21	4854
2026-01-29 01:53:43.24	9.63	9.20	-30.3	-32.5	11.3	1.87e-03	0	42	0	50331648	21	4642
2026-01-29 01:53:44.24	9.54	9.28	-30.2	-32.7	11.6	3.03e-03	0	42	0	52428800	20	4799
2026-01-29 01:53:45.24	9.46	9.35	-30.3	-32.9	11.5	2.88e-03	0	42	0	54525952	20	4842
2026-01-29 01:53:46.24	9.38	9.43	-30.3	-32.9	11.5	9.57e-04	0	42	0	55574528	20	4851
2026-01-29 01:53:47.24	9.29	9.50	-30.2	-32.6	11.7	2.73e-03	0	42	0	57671680	20	4762
2026-01-29 01:53:48.25	9.21	9.58	-30.2	-32.5	11.8	2.98e-03	0	42	0	59768832	20	4714
2026-01-29 01:53:49.26	9.12	9.65	-30.1	-32.4	11.8	4.61e-04	0	42	0	61865984	20	4670
2026-01-29 01:53:50.26	9.04	9.73	-30.2	-32.5	11.8	4.22e-04	0	42	0	63963136	20	4716
2026-01-29 01:53:51.26	8.95	9.80	-30.2	-32.7	11.7	3.00e-03	0	42	0	65011712	20	4762
2026-01-29 01:53:52.26	8.87	9.88	-30.1	-32.3	11.9	5.64e-04	0	42	0	67108864	20	4632
2026-01-29 01:53:53.26	8.78	9.95	-30.3	-32.8	11.6	2.77e-03	0	42	0	69206016	20	4812
2026-01-29 01:53:54.27	8.69	10.03	-30.3	-33.0	11.5	3.09e-03	0	42	0	71303168	20	4878
2026-01-29 01:53:55.27	8.61	10.11	-30.2	-32.4	11.9	5.35e-04	0	42	0	73400320	20	4681
2026-01-29 01:53:56.27	8.52	10.18	-30.2	-32.5	11.8	2.56e-03	0	42	0	74448896	20	4692
2026-01-29 01:53:57.28	8.43	10.26	-30.3	-32.9	11.6	6.75e-04	0	42	0	76546048	20	4852
2026-01-29 01:53:58.28	8.34	10.33	-30.4	-33.0	11.5	9.50e-04	0	42	0	78643200	20	4894
2026-01-29 01:53:59.28	8.25	10.41	-30.2	-32.7	11.8	3.11e-03	0	42	0	80740352	20	4761
2026-01-29 01:54:00.29	8.16	10.49	-30.2	-32.7	11.7	3.09e-03	0	42	0	82837504	20	4768
2026-01-29 01:54:01.30	8.07	10.57	-30.3	-32.9	11.6	7.38e-04	0	42	0	83886080	20	4830
2026-01-29 01:54:02.30	7.98	10.64	-30.4	-33.1	11.5	2.93e-03	0	42	0	85983232	20	4907
2026-01-29 01:54:03.30	7.89	10.72	-30.4	-33.1	11.4	2.90e-03	0	42	0	88080384	20	4903
2026-01-29 01:54:04.31	7.79	10.80	-30.4	-32.7	11.3	1.17e-03	0	42	0	90177536	21	4688
2026-01-29 01:54:05.31	7.70	10.88	-30.3	-32.7	11.7	3.00e-03	0	42	0	91226112	20	4767
2026-01-29 01:54:06.31	7.61	10.95	-30.3	-32.7	11.7	2.88e-03	0	42	0	93323264	20	4773
2026-01-29 01:54:07.32	7.52	11.03	-30.4	-33.1	11.5	7.62e-04	0	42	0	95420416	20	4905
2026-01-29 01:54:08.31	7.42	11.11	-30.3	-32.7	11.7	3.08e-03	0	42	0	97517568	20	4771
2026-01-29 01:54:09.31	7.33	11.19	-30.3	-32.9	11.6	2.87e-03	0	42	0	99614720	20	4854
2026-01-29 01:54:10.31	7.23	11.27	-30.5	-32.9	11.2	1.04e-03	0	42	0	100663296	21	4755
2026-01-29 01:54:11.32	7.14	11.34	-30.2	-32.4	11.9	4.28e-04	0	42	0	102760448	20	4653
2026-01-29 01:54:12.32	7.04	11.42	-30.1	-32.3	12.1	2.44e-03	0	42	0	104857600	20	4614
2026-01-29 01:54:13.32	6.95	11.50	-30.2	-32.4	11.9	3.12e-04	0	42	0	106954752	20	4663
2026-01-29 01:54:14.32	6.85	11.58	-30.2	-32.4	12.0	2.27e-03	0	42	0	109051904	20	4649
2026-01-29 01:54:15.32	6.75	11.66	-30.2	-32.4	12.0	3.39e-04	0	42	0	110100480	20	4642
2026-01-29 01:54:16.32	6.65	11.74	-30.2	-32.5	11.9	3.74e-04	0	43	0	112197632	20	4691
2026-01-29 01:54:17.32	6.55	11.82	-30.2	-32.6	11.9	2.58e-03	0	42	0	114294784	20	4724
2026-01-29 01:54:18.32	6.46	11.90	-30.3	-32.9	11.6	5.15e-04	0	42	0	116391936	20	4851
2026-01-29 01:54:19.32	6.36	11.98	-30.1	-32.1	12.2	2.88e-04	0	43	0	118489088	20	4544
2026-01-29 01:54:20.32	6.26	12.06	-30.1	-32.1	12.2	2.54e-03	0	43	0	119537664	20	4561
2026-01-29 01:54:21.33	6.15	12.14	-29.7	-31.8	12.1	2.35e-03	0	43	0	121634816	20	4618
2026-01-29 01:54:22.33	6.05	12.22	-30.3	-32.8	11.7	3.14e-04	0	43	0	123731968	20	4809
2026-01-29 01:54:23.34	5.95	12.30	-30.3	-32.9	11.6	2.87e-03	0	43	0	125829120	20	4821
2026-01-29 01:54:24.35	5.85	12.38	-30.2	-32.5	12.0	2.96e-03	0	42	0	127926272	20	4681
2026-01-29 01:54:25.35	5.74	12.46	-30.3	-32.8	11.8	3.96e-04	0	43	0	128974848	20	4785
2026-01-29 01:54:26.36	5.64	12.55	-30.4	-33.0	11.6	5.49e-04	0	43	0	131072000	20	4866
2026-01-29 01:54:27.36	5.53	12.63	-30.1	-32.2	12.2	2.62e-03	0	43	0	133169152	20	4563
2026-01-29 01:54:28.36	5.43	12.71	-30.0	-31.8	12.4	1.67e-04	0	43	0	135266304	20	4452
2026-01-29 01:54:29.37	5.32	12.79	-29.9	-31.5	12.7	1.38e-04	0	43	0	136314880	20	4336
2026-01-29 01:54:30.37	5.22	12.87	-30.0	-31.7	12.6	2.25e-03	0	43	0	138412032	20	4407
2026-01-29 01:54:31.37	5.11	12.95	-30.1	-32.0	12.4	1.72e-04	0	43	0	140509184	20	4510
2026-01-29 01:54:32.38	5.00	13.04	-30.1	-32.1	12.3	3.17e-04	0	43	0	142606336	20	4541
2026-01-29 01:54:33.38	4.89	13.12	-30.1	-32.2	12.3	2.09e-04	0	43	0	144703488	20	4563
2026-01-29 01:54:34.38	4.78	13.20	-30.0	-31.7	12.6	1.23e-04	0	43	0	145752064	20	4399
2026-01-29 01:54:35.38	4.67	13.28	-29.9	-31.6	12.7	8.23e-05	0	42	0	147849216	20	4356
2026-01-29 01:54:36.39	4.56	13.37	-30.1	-32.0	12.4	9.15e-05	0	43	0	149946368	20	4494
2026-01-29 01:54:37.39	4.45	13.45	-30.1	-31.9	12.5	2.01e-04	0	43	0	152043520	20	4470
2026-01-29 01:54:38.39	4.34	13.53	-30.0	-31.9	12.5	1.04e-04	0	43	0	154140672	20	4447
2026-01-29 01:54:39.39	4.23	13.62	-30.0	-31.8	12.6	9.99e-05	0	43	0	155189248	20	4418
2026-01-29 01:54:40.40	4.12	13.70	-30.0	-31.6	12.7	8.46e-05	0	43	0	157286400	20	4359
2026-01-29 01:54:41.40	4.00	13.79	-30.0	-31.9	12.6	2.21e-03	0	43	0	159383552	20	4457
2026-01-29 01:54:42.40	3.89	13.87	-30.0	-31.7	12.7	9.61e-05	0	43	0	161480704	20	4374
2026-01-29 01:54:43.41	3.77	13.95	-29.9	-31.6	12.7	6.48e-05	0	43	0	163577856	20	4345
2026-01-29 01:54:44.41	3.66	14.04	-30.0	-31.8	12.6	1.19e-04	0	43	0	164626432	20	4420
2026-01-29 01:54:45.42	3.54	14.12	-29.9	-31.5	12.8	6.86e-05	0	43	0	166723584	20	4336
2026-01-29 01:54:46.42	3.43	14.21	-29.9	-31.4	12.9	3.96e-05	0	43	0	168820736	20	4295
2026-01-29 01:54:47.42	3.31	14.29	-29.9	-32.0	12.9	4.04e-05	0	43	0	170917888	19	4572
2026-01-29 01:54:48.43	3.19	14.38	-30.0	-31.6	12.7	3.89e-05	0	43	0	173015040	20	4362
2026-01-29 01:54:49.43	3.07	14.46	-30.2	-32.4	12.3	1.50e-04	0	43	0	174063616	20	4610
2026-01-29 01:54:50.44	2.95	14.55	-30.3	-32.5	12.1	3.25e-04	0	43	0	176160768	20	4678
2026-01-29 01:54:51.43	2.83	14.64	-30.0	-31.9	12.5	1.60e-04	0	43	0	178257920	20	4462
2026-01-29 01:54:52.44	2.71	14.72	-30.0	-31.7	12.7	9.07e-05	0	43	0	180355072	20	4392
2026-01-29 01:54:53.44	2.59	14.81	-29.9	-31.5	12.8	5.79e-05	0	43	0	182452224	20	4321
2026-01-29 01:54:54.44	2.47	14.89	-30.0	-31.7	12.7	5.95e-05	0	43	0	183500800	20	4401
2026-01-29 01:54:55.44	2.34	14.98	-29.9	-31.4	12.9	5.41e-05	0	43	0	185597952	20	4297
2026-01-29 01:54:56.45	2.22	15.07	-29.9	-31.5	12.8	5.95e-05	0	43	0	187695104	20	4341
2026-01-29 01:54:57.45	2.09	15.15	-29.9	-31.5	12.7	8.62e-05	0	43	0	189792256	20	4341
2026-01-29 01:54:58.45	1.97	15.24	-29.7	-31.0	13.1	5.41e-05	0	43	0	191889408	20	4187
2026-01-29 01:54:59.45	1.84	15.33	-29.9	-31.6	12.7	9.07e-05	0	43	0	192937984	20	4372
2026-01-29 01:55:00.46	1.71	15.41	-30.0	-31.8	12.6	1.84e-04	0	43	0	195035136	20	4445
2026-01-29 01:55:01.47	1.59	15.50	-29.9	-32.2	12.4	7.55e-05	0	43	0	197132288	19	4645
2026-01-29 01:55:02.47	1.46	15.59	-30.1	-32.1	11.7	1.23e-04	0	43	0	199229440	20	4534
2026-01-29 01:55:03.48	1.33	15.68	-30.0	-31.8	12.6	1.48e-04	0	43	0	200278016	20	4432
2026-01-29 01:55:04.48	1.20	15.77	-30.0	-32.1	11.8	6.02e-05	0	43	0	202375168	19	4615
2026-01-29 01:55:05.48	1.07	15.85	-30.0	-31.7	12.1	8.62e-05	0	43	0	204472320	20	4387
2026-01-29 01:55:06.48	0.94	15.94	-29.7	-31.0	13.2	1.82e-04	0	43	0	206569472	20	4177
2026-01-29 01:55:07.48	0.80	16.03	-30.0	-32.1	12.8	5.34e-05	0	43	0	208666624	19	4614
2026-01-29 01:55:08.49	0.67	16.12	-30.0	-32.0	12.9	2.84e-04	0	43	0	209715200	19	4573
2026-01-29 01:55:09.49	0.54	16.21	-29.8	-31.5	13.3	1.90e-05	0	43	0	211812352	19	4396
2026-01-29 01:55:10.49	0.40	16.30	-29.8	-31.6	13.2	2.13e-05	0	43	0	213909504	19	4438
2026-01-29 01:55:11.49	0.27	16.39	-29.8	-31.6	13.3	1.13e-04	0	43	0	216006656	19	4432
2026-01-29 01:55:12.49	0.13	16.47	-29.9	-31.5	12.9	4.11e-05	0	43	0	218103808	20	4315
2026-01-29 01:55:13.49	359.99	16.56	-30.2	-32.2	12.4	7.01e-05	0	43	0	219152384	20	4553
2026-01-29 01:55:14.50	359.85	16.65	-30.2	-32.1	12.6	4.02e-04	0	43	0	221249536	20	4507
2026-01-29 01:55:15.50	359.72	16.74	-30.1	-31.9	12.7	1.08e-04	0	43	0	223346688	20	4452
2026-01-29 01:55:16.50	359.58	16.83	-30.2	-32.3	12.4	2.24e-03	0	43	0	225443840	20	4575
2026-01-29 01:55:17.50	359.44	16.92	-30.3	-32.6	12.2	2.50e-04	0	43	0	227540992	20	4692
2026-01-29 01:55:18.51	359.29	17.01	-30.5	-33.0	11.9	4.58e-04	0	43	0	228589568	20	4842
2026-01-29 01:55:19.52	359.15	17.10	-30.5	-32.6	11.9	2.81e-03	0	43	0	230686720	21	4581
2026-01-29 01:55:20.52	359.01	17.19	-30.7	-33.1	11.5	4.54e-04	0	43	0	232783872	21	4770
2026-01-29 01:55:21.52	358.86	17.28	-30.8	-33.5	11.3	1.52e-03	0	43	0	234881024	21	4906
2026-01-29 01:55:22.52	358.72	17.37	-30.7	-33.1	11.6	2.93e-03	0	43	0	236978176	21	4772
2026-01-29 01:55:23.53	358.57	17.47	-30.9	-33.9	11.0	3.98e-03	0	43	0	238026752	21	5084
2026-01-29 01:55:24.53	358.42	17.56	-30.9	-33.9	11.0	1.93e-03	0	43	0	240123904	21	5082
2026-01-29 01:55:25.53	358.28	17.65	-31.0	-33.6	10.8	2.06e-03	0	43	0	242221056	22	4845
2026-01-29 01:55:26.54	358.13	17.74	-30.8	-33.6	11.2	4.20e-03	0	43	0	244318208	21	4959
2026-01-29 01:55:27.54	357.98	17.83	-30.5	-32.7	11.6	9.54e-04	0	43	0	246415360	21	4632
2026-01-29 01:55:28.55	357.83	17.92	-30.5	-32.8	11.7	5.09e-04	0	43	0	247463936	21	4655
2026-01-29 01:55:29.55	357.67	18.01	-30.4	-33.0	12.0	2.70e-03	0	43	0	249561088	20	4820
2026-01-29 01:55:30.55	357.52	18.11	-30.3	-32.6	12.3	3.59e-04	0	43	0	251658240	20	4667
2026-01-29 01:55:31.56	357.37	18.20	-30.2	-32.1	12.5	1.57e-04	0	43	0	253755392	20	4521
2026-01-29 01:55:32.57	357.21	18.29	-30.0	-31.8	12.7	2.13e-03	0	43	0	254803968	20	4426
2026-01-29 01:55:33.57	357.06	18.38	-30.0	-31.6	12.8	1.05e-04	0	43	0	256901120	20	4356
2026-01-29 01:55:34.56	356.90	18.47	-29.9	-31.8	13.1	2.08e-03	0	43	0	258998272	19	4507
2026-01-29 01:55:35.56	356.75	18.57	-29.9	-31.8	13.1	4.36e-04	0	43	0	261095424	19	4492
2026-01-29 01:55:36.56	356.59	18.66	-29.9	-31.9	13.1	6.63e-05	0	43	0	263192576	19	4506
2026-01-29 01:55:37.56	356.43	18.75	-29.9	-31.9	13.1	2.02e-03	0	43	0	264241152	19	4538
2026-01-29 01:55:38.56	356.27	18.84	-29.9	-31.6	13.0	3.43e-05	0	43	0	266338304	20	4364
2026-01-29 01:55:39.56	356.11	18.94	-30.2	-32.2	12.6	9.61e-05	0	43	0	268435456	20	4542
2026-01-29 01:55:40.56	355.95	19.03	-30.3	-32.6	12.3	1.83e-03	0	43	0	270532608	20	4665
2026-01-29 01:55:41.57	355.78	19.12	-30.3	-32.4	12.3	1.68e-03	0	43	0	272629760	20	4617
2026-01-29 01:55:42.58	355.62	19.22	-30.3	-32.6	12.3	2.97e-04	0	43	0	273678336	20	4680
2026-01-29 01:55:43.58	355.45	19.31	-30.3	-32.6	12.2	1.56e-03	0	43	0	275775488	20	4686
2026-01-29 01:55:44.59	355.29	19.40	-30.1	-32.0	12.7	1.58e-03	0	43	0	277872640	20	4464
2026-01-29 01:55:45.59	355.12	19.50	-29.9	-31.4	13.0	5.87e-05	0	43	0	279969792	20	4283
2026-01-29 01:55:46.60	354.95	19.59	-29.9	-31.9	13.2	1.12e-03	0	43	0	282066944	19	4516
2026-01-29 01:55:47.60	354.78	19.68	-29.8	-31.6	13.4	1.01e-03	0	43	0	283115520	19	4423
2026-01-29 01:55:48.61	354.61	19.78	-29.8	-31.7	13.4	1.98e-05	0	43	0	285212672	19	4438
2026-01-29 01:55:49.62	354.44	19.87	-30.0	-31.7	13.0	8.93e-04	0	43	0	287309824	20	4365
2026-01-29 01:55:50.62	354.26	19.97	-30.2	-32.2	12.7	8.79e-04	0	43	0	289406976	20	4516
2026-01-29 01:55:51.63	354.09	20.06	-30.3	-32.5	12.4	1.17e-04	0	43	0	291504128	20	4647
2026-01-29 01:55:52.63	353.91	20.16	-30.4	-32.6	12.3	1.03e-03	0	43	0	292552704	20	4662
2026-01-29 01:55:53.64	353.74	20.25	-30.3	-32.6	11.9	1.04e-03	0	43	0	294649856	20	4662
2026-01-29 01:55:54.64	353.56	20.34	-30.6	-32.8	11.8	2.89e-04	0	43	0	296747008	21	4657
2026-01-29 01:55:55.65	353.38	20.44	-30.6	-32.8	11.8	1.23e-03	0	43	0	298844160	21	4653
2026-01-29 01:55:56.65	353.20	20.53	-30.5	-32.4	12.1	4.32e-04	0	43	0	300941312	21	4499
2026-01-29 01:55:57.66	353.02	20.63	-30.3	-32.0	12.4	2.39e-04	0	43	0	301989888	21	4353
2026-01-29 01:55:58.66	352.84	20.72	-30.1	-32.0	12.7	8.73e-04	0	43	0	304087040	20	4463
2026-01-29 01:55:59.66	352.66	20.82	-30.3	-32.4	12.4	5.02e-04	0	43	0	306184192	20	4586
2026-01-29 01:56:00.67	352.47	20.91	-30.3	-32.4	12.5	1.38e-04	0	43	0	308281344	20	4584
2026-01-29 01:56:01.67	352.29	21.01	-30.3	-32.6	12.4	1.07e-03	0	43	0	310378496	20	4661
2026-01-29 01:56:02.68	352.10	21.10	-30.4	-32.9	12.1	1.10e-03	0	43	0	311427072	20	4766
2026-01-29 01:56:03.67	351.91	21.19	-30.1	-31.9	12.8	1.13e-04	0	43	0	313524224	20	4429
2026-01-29 01:56:04.69	351.72	21.29	-29.8	-31.0	13.3	4.65e-04	0	43	0	315621376	20	4164
2026-01-29 01:56:05.69	351.53	21.39	-29.6	-31.1	13.6	3.15e-04	0	43	0	317718528	19	4271
2026-01-29 01:56:06.69	351.34	21.48	-29.7	-31.3	13.7	6.10e-06	0	43	0	319815680	19	4315
2026-01-29 01:56:07.70	351.15	21.58	-29.6	-31.0	13.8	1.50e-06	0	43	0	320864256	19	4217
2026-01-29 01:56:08.71	350.96	21.67	-29.5	-30.7	13.9	4.27e-04	0	43	0	322961408	19	4125
2026-01-29 01:56:09.71	350.76	21.77	-29.5	-30.7	14.0	7.00e-07	0	43	0	325058560	19	4137
2026-01-29 01:56:10.71	350.57	21.86	-29.6	-31.0	13.8	1.11e-04	0	43	0	327155712	19	4219
2026-01-29 01:56:11.71	350.37	21.95	-29.8	-31.5	13.5	1.03e-03	0	43	0	329252864	19	4373
2026-01-29 01:56:12.72	350.17	22.05	-29.9	-31.7	13.4	1.14e-05	0	43	0	330301440	19	4425
2026-01-29 01:56:13.72	349.97	22.14	-29.9	-31.4	13.3	9.61e-05	0	43	0	332398592	20	4257
2026-01-29 01:56:14.72	349.77	22.24	-30.0	-31.6	13.1	1.06e-04	0	43	0	334495744	20	4321
2026-01-29 01:56:15.72	349.57	22.33	-30.1	-31.7	13.0	2.28e-05	0	43	0	336592896	20	4365
2026-01-29 01:56:16.73	349.37	22.43	-30.0	-31.5	13.2	4.73e-05	0	43	0	337641472	20	4300
2026-01-29 01:56:17.73	349.16	22.52	-29.8	-31.0	13.5	1.75e-05	0	43	0	339738624	20	4121
2026-01-29 01:56:18.74	348.95	22.62	-29.6	-30.4	13.9	1.14e-05	0	43	0	341835776	20	3945
2026-01-29 01:56:19.74	348.75	22.71	-29.6	-30.9	13.9	2.20e-06	0	43	0	343932928	19	4193
2026-01-29 01:56:20.74	348.54	22.81	-29.7	-31.3	13.7	5.30e-06	0	43	0	346030080	19	4290
2026-01-29 01:56:21.75	348.33	22.90	-29.9	-31.6	13.4	7.60e-06	0	43	0	347078656	19	4410
2026-01-29 01:56:22.75	348.12	22.99	-30.0	-31.5	13.1	3.17e-04	0	43	0	349175808	20	4288
2026-01-29 01:56:23.75	347.91	23.09	-30.1	-32.0	12.8	2.36e-05	0	43	0	351272960	20	4433
2026-01-29 01:56:24.75	347.70	23.18	-30.0	-31.5	13.2	2.74e-05	0	43	0	353370112	20	4296
2026-01-29 01:56:25.76	347.48	23.28	-29.8	-31.1	13.4	1.29e-05	0	43	0	355467264	20	4164
2026-01-29 01:56:26.76	347.26	23.37	-29.8	-30.9	13.5	1.37e-05	0	43	0	356515840	20	4109
2026-01-29 01:56:27.77	347.05	23.46	-29.7	-30.6	13.8	3.80e-06	0	43	0	358612992	20	4020
2026-01-29 01:56:28.77	346.83	23.56	-29.9	-31.3	13.3	1.29e-05	0	43	0	360710144	20	4228
2026-01-29 01:56:29.77	346.61	23.65	-30.0	-31.6	13.1	3.66e-05	0	43	0	362807296	20	4325
2026-01-29 01:56:30.78	346.38	23.75	-30.1	-31.9	12.9	2.97e-05	0	43	0	364904448	20	4421
2026-01-29 01:56:31.78	346.16	23.84	-30.6	-32.7	12.0	1.18e-04	0	43	0	365953024	21	4591
2026-01-29 01:56:32.78	345.94	23.93	-30.4	-32.3	12.3	1.08e-04	0	43	0	368050176	21	4455
2026-01-29 01:56:33.79	345.71	24.03	-30.5	-32.4	12.2	1.61e-04	0	43	0	370147328	21	4498
2026-01-29 01:56:34.80	345.48	24.12	-30.2	-31.7	12.7	1.66e-04	0	43	0	372244480	21	4279
2026-01-29 01:56:35.80	345.26	24.21	-30.2	-32.2	12.7	9.30e-05	0	44	0	374341632	20	4523
2026-01-29 01:56:36.80	345.03	24.30	-30.2	-32.2	12.7	6.25e-05	0	43	0	375390208	20	4521
2026-01-29 01:56:37.80	344.80	24.40	-30.4	-32.7	12.4	8.92e-05	0	43	0	377487360	20	4693
2026-01-29 01:56:38.81	344.56	24.49	-30.4	-32.0	12.5	1.17e-04	0	44	0	379584512	21	4355
2026-01-29 01:56:39.81	344.33	24.58	-30.1	-31.4	13.0	6.48e-05	0	43	0	381681664	21	4150
2026-01-29 01:56:40.81	344.10	24.67	-30.3	-32.3	12.7	6.25e-05	0	43	0	383778816	20	4541
2026-01-29 01:56:41.82	343.86	24.76	-30.3	-32.2	12.7	8.69e-05	0	43	0	384827392	20	4520
2026-01-29 01:56:42.82	343.62	24.86	-29.2	-31.1	12.7	7.24e-05	0	43	0	386924544	20	4487
2026-01-29 01:56:43.82	343.38	24.95	-30.3	-32.3	12.6	7.24e-05	0	43	0	389021696	20	4545
2026-01-29 01:56:44.82	343.14	25.04	-30.0	-31.5	13.2	2.76e-04	0	43	0	391118848	20	4268
2026-01-29 01:56:45.83	342.90	25.13	-29.9	-31.8	12.4	1.90e-05	0	43	0	392167424	19	4454
2026-01-29 01:56:46.83	342.66	25.22	-29.7	-31.1	12.9	2.20e-04	0	43	0	394264576	19	4251
2026-01-29 01:56:47.83	342.41	25.31	-29.7	-31.1	13.9	3.00e-06	0	43	0	396361728	19	4243
2026-01-29 01:56:48.84	342.17	25.40	-29.6	-30.9	13.9	1.50e-06	0	43	0	398458880	19	4195
2026-01-29 01:56:49.84	341.92	25.49	-29.5	-31.1	14.2	3.35e-05	0	43	0	400556032	18	4335
2026-01-29 01:56:50.84	341.67	25.58	-29.4	-30.4	14.2	2.20e-06	0	43	0	402653184	19	4052
2026-01-29 01:56:51.84	341.42	25.67	-29.2	-30.3	14.6	7.00e-07	0	43	0	403701760	18	4106
2026-01-29 01:56:52.85	341.17	25.75	-29.3	-30.5	14.6	2.63e-04	0	43	0	405798912	18	4180
2026-01-29 01:56:53.85	340.91	25.84	-29.0	-29.8	14.9	0.00e+00	0	43	0	407896064	18	3969
2026-01-29 01:56:54.85	340.66	25.93	-29.1	-30.1	14.8	0.00e+00	0	43	0	409993216	18	4054
2026-01-29 01:56:55.85	340.40	26.02	-29.0	-29.9	14.8	3.52e-04	0	43	0	411041792	18	4006
2026-01-29 01:56:56.86	340.15	26.11	-29.2	-30.4	14.6	3.56e-04	0	43	0	413138944	18	4150
2026-01-29 01:56:57.86	339.89	26.19	-29.5	-31.1	14.2	1.96e-03	0	44	0	415236096	18	4343
2026-01-29 01:56:58.86	339.63	26.28	-29.6	-31.1	13.8	3.80e-06	0	43	0	417333248	19	4251
2026-01-29 01:56:59.87	339.36	26.37	-30.1	-31.8	13.0	1.01e-03	0	43	0	419430400	20	4384
2026-01-29 01:57:00.87	339.10	26.45	-30.2	-32.3	12.6	2.20e-03	0	44	0	420478976	20	4555
2026-01-29 01:57:01.88	338.83	26.54	-30.4	-32.7	12.4	9.76e-05	0	43	0	422576128	20	4689
2026-01-29 01:57:02.88	338.57	26.62	-30.2	-32.3	12.7	1.74e-03	0	43	0	424673280	20	4553
2026-01-29 01:57:03.88	338.30	26.71	-30.2	-32.1	12.8	9.23e-05	0	43	0	426770432	20	4496
2026-01-29 01:57:04.88	338.03	26.79	-30.4	-32.6	12.5	1.98e-03	0	44	0	428867584	20	4633
2026-01-29 01:57:05.88	337.76	26.87	-30.1	-31.9	13.0	7.70e-05	0	43	0	429916160	20	4406
2026-01-29 01:57:06.89	337.49	26.96	-29.9	-31.4	13.3	4.04e-05	0	43	0	432013312	20	4259
2026-01-29 01:57:07.89	337.22	27.04	-30.0	-31.9	13.3	1.59e-03	0	43	0	434110464	19	4511
2026-01-29 01:57:08.89	336.94	27.12	-30.1	-31.9	13.0	3.05e-05	0	43	0	436207616	20	4428
2026-01-29 01:57:09.90	336.67	27.21	-30.3	-32.3	12.7	8.77e-05	0	43	0	438304768	20	4556
2026-01-29 01:57:10.90	336.39	27.29	-30.3	-32.4	12.7	1.25e-03	0	43	0	439353344	20	4569
2026-01-29 01:57:11.90	336.11	27.37	-30.2	-32.2	12.7	1.15e-04	0	43	0	441450496	20	4502
2026-01-29 01:57:12.90	335.83	27.45	-30.1	-31.8	13.0	5.18e-05	0	43	0	443547648	20	4387
2026-01-29 01:57:13.91	335.55	27.53	-30.2	-32.1	12.9	1.67e-03	0	43	0	445644800	20	4498
2026-01-29 01:57:14.91	335.26	27.61	-30.0	-31.7	13.1	2.51e-05	0	43	0	447741952	20	4339
2026-01-29 01:57:15.91	334.98	27.69	-30.1	-32.0	12.9	7.35e-04	0	43	0	448790528	20	4438
2026-01-29 01:57:16.92	334.69	27.76	-30.2	-32.1	12.7	6.79e-05	0	43	0	450887680	20	4488
2026-01-29 01:57:17.92	334.40	27.84	-30.1	-31.8	12.9	6.02e-05	0	43	0	452984832	20	4398
2026-01-29 01:57:18.92	334.12	27.92	-30.0	-31.5	13.1	4.76e-04	0	43	0	455081984	20	4314
2026-01-29 01:57:19.92	333.83	27.99	-30.1	-32.0	12.9	2.91e-04	0	43	0	456130560	20	4462
2026-01-29 01:57:20.93	333.53	28.07	-30.2	-32.3	12.7	7.47e-05	0	43	0	458227712	20	4552
2026-01-29 01:57:21.93	333.24	28.15	-30.4	-32.6	12.4	1.41e-04	0	43	0	460324864	20	4676
2026-01-29 01:57:22.94	332.94	28.22	-30.6	-32.8	11.9	3.68e-04	0	43	0	462422016	21	4646
2026-01-29 01:57:23.95	332.64	28.29	-30.8	-33.3	11.5	4.68e-04	0	43	0	464519168	21	4835
2026-01-29 01:57:24.95	332.35	28.37	-31.2	-34.3	10.6	2.55e-03	0	43	0	465567744	22	5124
2026-01-29 01:57:25.96	332.05	28.44	-31.1	-33.8	10.8	3.94e-03	0	43	0	467664896	22	4931
2026-01-29 01:57:26.96	331.75	28.51	-31.1	-33.7	11.0	2.05e-03	0	44	0	469762048	22	4885
2026-01-29 01:57:27.96	331.45	28.58	-31.0	-33.4	11.3	2.11e-03	0	43	0	471859200	22	4750
2026-01-29 01:57:28.97	331.14	28.65	-30.9	-33.1	11.5	9.09e-04	0	44	0	473956352	22	4649
2026-01-29 01:57:29.97	330.84	28.72	-30.5	-31.9	12.3	5.22e-04	0	44	0	475004928	22	4221
2026-01-29 01:57:30.98	330.53	28.79	-30.2	-31.5	12.9	6.79e-05	0	43	0	477102080	21	4204
2026-01-29 01:57:31.98	330.22	28.86	-30.2	-32.0	12.9	1.27e-03	0	43	0	479199232	20	4456
2026-01-29 01:57:32.99	329.91	28.93	-30.1	-31.8	13.0	2.70e-04	0	43	0	481296384	20	4388
2026-01-29 01:57:33.99	329.61	29.00	-30.2	-32.1	12.8	2.88e-04	0	44	0	483393536	20	4489
2026-01-29 01:57:34.98	329.30	29.06	-30.1	-32.0	12.9	1.71e-03	0	44	0	484442112	20	4434
2026-01-29 01:57:35.99	328.98	29.13	-30.1	-32.0	12.9	2.17e-04	0	43	0	486539264	20	4444
2026-01-29 01:57:36.99	328.67	29.19	-30.1	-31.9	12.9	6.26e-04	0	44	0	488636416	20	4427
2026-01-29 01:57:37.99	328.36	29.25	-30.4	-32.6	12.4	1.41e-04	0	43	0	490733568	20	4653
2026-01-29 01:57:38.99	328.04	29.32	-30.8	-33.5	11.6	5.48e-04	0	43	0	492830720	21	4892
2026-01-29 01:57:40.00	327.72	29.38	-30.8	-33.4	11.6	2.32e-03	0	44	0	493879296	21	4850
2026-01-29 01:57:41.01	327.40	29.44	-30.9	-33.7	11.4	1.61e-03	0	44	0	495976448	21	4986
2026-01-29 01:57:42.01	327.08	29.50	-31.2	-34.1	10.8	1.62e-03	0	44	0	498073600	22	5030
2026-01-29 01:57:43.01	326.77	29.56	-30.9	-33.6	11.3	4.21e-03	0	43	0	500170752	21	4958
2026-01-29 01:57:44.02	326.44	29.62	-30.6	-32.8	11.9	3.07e-03	0	43	0	502267904	21	4649
2026-01-29 01:57:45.02	326.12	29.67	-30.4	-32.2	12.4	1.85e-04	0	43	0	503316480	21	4424
2026-01-29 01:57:46.02	325.80	29.73	-30.4	-32.7	12.4	2.42e-03	0	44	0	505413632	20	4715
2026-01-29 01:57:47.02	325.47	29.79	-30.2	-32.1	12.8	2.23e-03	0	43	0	507510784	20	4481
2026-01-29 01:57:48.02	325.15	29.84	-30.5	-32.4	12.2	1.19e-04	0	44	0	509607936	21	4492
2026-01-29 01:57:49.02	324.82	29.89	-30.5	-32.5	12.3	2.57e-04	0	43	0	510656512	21	4529
2026-01-29 01:57:50.03	324.49	29.95	-30.2	-32.1	12.8	2.64e-03	0	43	0	512753664	20	4480
2026-01-29 01:57:51.03	324.16	30.00	-29.9	-31.4	13.4	1.24e-04	0	44	0	514850816	20	4254
2026-01-29 01:57:52.03	323.83	30.05	-29.7	-31.3	13.7	1.29e-04	0	43	0	516947968	19	4304
2026-01-29 01:57:53.03	323.50	30.10	-29.7	-31.3	13.7	1.71e-04	0	43	0	519045120	19	4326
2026-01-29 01:57:54.04	323.16	30.15	-29.8	-31.6	13.5	6.10e-06	0	43	0	520093696	19	4397
2026-01-29 01:57:55.04	322.83	30.20	-30.0	-31.6	13.1	3.29e-04	0	44	0	522190848	20	4316
2026-01-29 01:57:56.05	322.49	30.24	-30.1	-31.8	12.9	4.32e-04	0	43	0	524288000	20	4396
2026-01-29 01:57:57.05	322.16	30.29	-30.1	-31.7	13.0	3.50e-05	0	43	0	526385152	20	4371
2026-01-29 01:57:58.05	321.82	30.33	-30.0	-31.4	13.2	3.80e-04	0	44	0	528482304	20	4260
2026-01-29 01:57:59.06	321.48	30.38	-30.2	-32.0	12.9	4.04e-04	0	43	0	529530880	20	4448
2026-01-29 01:58:00.06	321.14	30.42	-29.7	-30.6	13.9	1.37e-05	0	43	0	531628032	20	4010
2026-01-29 01:58:01.06	320.80	30.46	-29.8	-31.5	13.7	2.28e-03	0	43	0	533725184	19	4368
2026-01-29 01:58:02.07	320.46	30.50	-29.6	-30.9	14.0	5.21e-04	0	44	0	535822336	19	4182
2026-01-29 01:58:03.07	320.12	30.54	-29.6	-30.8	14.1	1.50e-06	0	44	0	537919488	19	4150
2026-01-29 01:58:04.07	319.78	30.58	-29.8	-31.4	13.7	4.41e-04	0	44	0	538968064	19	4319
2026-01-29 01:58:05.07	319.44	30.62	-30.0	-31.4	13.3	3.52e-04	0	43	0	541065216	20	4266
2026-01-29 01:58:06.07	319.09	30.65	-30.3	-32.4	12.7	4.50e-05	0	43	0	543162368	20	4572
2026-01-29 01:58:07.08	318.75	30.69	-30.6	-32.9	12.0	3.10e-04	0	44	0	545259520	21	4659
2026-01-29 01:58:08.08	318.40	30.72	-31.3	-34.3	10.6	2.20e-03	0	43	0	547356672	22	5104
2026-01-29 01:58:09.09	318.05	30.75	-31.2	-34.0	10.9	2.12e-03	0	43	0	548405248	22	4999
2026-01-29 01:58:10.09	317.71	30.79	-31.0	-33.6	11.2	1.89e-03	0	44	0	550502400	22	4832
2026-01-29 01:58:11.10	317.36	30.82	-30.7	-32.6	11.8	1.00e-03	0	43	0	552599552	22	4474
2026-01-29 01:58:12.10	317.01	30.84	-30.7	-32.6	11.8	4.78e-04	0	44	0	554696704	22	4474
2026-01-29 01:58:13.10	316.66	30.87	-30.6	-32.8	11.9	6.98e-04	0	43	0	556793856	21	4643
2026-01-29 01:58:14.10	316.32	30.90	-30.7	-33.0	11.8	7.06e-04	0	43	0	557842432	21	4733
2026-01-29 01:58:15.10	315.97	30.93	-30.7	-33.0	11.9	3.49e-04	0	43	0	559939584	21	4721
2026-01-29 01:58:16.11	315.61	30.95	-30.8	-33.5	11.5	1.02e-03	0	44	0	562036736	21	4879
2026-01-29 01:58:17.11	315.26	30.97	-30.6	-32.8	12.0	6.31e-04	0	44	0	564133888	21	4626
2026-01-29 01:58:18.12	314.91	31.00	-30.1	-31.4	12.9	1.52e-04	0	44	0	566231040	21	4162
2026-01-29 01:58:19.12	314.56	31.02	-29.7	-30.6	13.8	2.68e-04	0	44	0	567279616	20	4027
2026-01-29 01:58:20.12	314.21	31.04	-29.6	-30.8	14.0	2.91e-04	0	43	0	569376768	19	4165
2026-01-29 01:58:21.12	313.86	31.05	-29.4	-30.4	14.4	7.00e-07	0	44	0	571473920	19	4037
2026-01-29 01:58:22.12	313.50	31.07	-29.7	-31.1	13.9	3.80e-06	0	43	0	573571072	19	4251
2026-01-29 01:58:23.13	313.15	31.09	-30.0	-31.5	13.3	3.12e-04	0	44	0	574619648	20	4274
2026-01-29 01:58:24.13	312.80	31.10	-30.4	-32.8	12.3	4.95e-05	0	44	0	576716800	20	4713
2026-01-29 01:58:25.13	312.44	31.12	-30.7	-33.1	11.8	4.10e-04	0	43	0	578813952	21	4734
2026-01-29 01:58:26.13	312.09	31.13	-30.5	-32.5	12.1	4.47e-04	0	43	0	580911104	21	4539
2026-01-29 01:58:27.13	311.73	31.14	-30.2	-31.5	12.9	2.04e-04	0	43	0	583008256	21	4194
2026-01-29 01:58:28.14	311.38	31.15	-30.1	-31.7	13.0	3.33e-04	0	43	0	584056832	20	4358
2026-01-29 01:58:29.14	311.02	31.16	-30.1	-31.7	13.1	2.51e-05	0	44	0	586153984	20	4345
2026-01-29 01:58:30.14	310.67	31.17	-30.3	-32.3	12.7	3.58e-05	0	43	0	588251136	20	4545
2026-01-29 01:58:31.15	310.31	31.17	-30.7	-33.0	11.9	6.05e-04	0	43	0	590348288	21	4715
2026-01-29 01:58:32.16	309.95	31.18	-30.8	-33.5	11.5	8.79e-04	0	44	0	592445440	21	4910
2026-01-29 01:58:33.17	309.59	31.18	-31.0	-33.6	11.2	1.44e-03	0	44	0	593494016	22	4831
2026-01-29 01:58:34.17	309.24	31.18	-31.1	-33.8	11.0	2.69e-03	0	43	0	595591168	22	4909
2026-01-29 01:58:35.17	308.88	31.18	-30.9	-33.3	11.4	1.48e-03	0	43	0	597688320	22	4703
2026-01-29 01:58:36.17	308.53	31.18	-30.7	-33.0	11.9	4.73e-04	0	44	0	599785472	21	4714
2026-01-29 01:58:37.18	308.17	31.18	-30.7	-32.9	12.0	3.25e-04	0	44	0	601882624	21	4651
2026-01-29 01:58:38.18	307.82	31.18	-30.6	-32.7	12.1	8.98e-04	0	44	0	602931200	21	4573
2026-01-29 01:58:39.18	307.46	31.18	-30.7	-33.0	11.9	2.25e-03	0	44	0	605028352	21	4698
2026-01-29 01:58:40.18	307.11	31.17	-30.7	-33.0	11.9	5.84e-04	0	44	0	607125504	21	4693
2026-01-29 01:58:41.19	306.75	31.17	-30.7	-33.2	11.8	8.80e-04	0	44	0	609222656	21	4764
2026-01-29 01:58:42.19	306.39	31.16	-30.8	-33.4	11.6	2.74e-03	0	44	0	611319808	21	4844
2026-01-29 01:58:43.19	306.04	31.15	-30.8	-33.4	11.6	3.18e-03	0	44	0	612368384	21	4853
2026-01-29 01:58:44.20	305.68	31.14	-30.6	-32.6	12.2	4.58e-04	0	43	0	614465536	21	4554
2026-01-29 01:58:45.20	305.33	31.13	-30.5	-32.5	12.3	1.65e-04	0	44	0	616562688	21	4509
2026-01-29 01:58:46.21	304.97	31.12	-30.1	-31.8	13.0	2.25e-03	0	43	0	618659840	20	4391
2026-01-29 01:58:47.21	304.62	31.10	-29.9	-31.3	13.4	2.51e-05	0	44	0	620756992	20	4216
2026-01-29 01:58:48.22	304.26	31.09	-30.0	-31.3	13.4	2.28e-05	0	43	0	621805568	20	4225
2026-01-29 01:58:49.23	303.90	31.07	-30.2	-31.9	13.1	2.10e-03	0	43	0	623902720	20	4405
2026-01-29 01:58:50.23	303.55	31.05	-30.6	-32.6	12.2	1.37e-04	0	44	0	625999872	21	4545
2026-01-29 01:58:51.24	303.20	31.03	-30.9	-33.5	11.7	2.52e-04	0	44	0	628097024	21	4862
2026-01-29 01:58:52.24	302.84	31.01	-31.3	-34.2	10.8	3.51e-03	0	44	0	630194176	22	5054
2026-01-29 01:58:53.24	302.49	30.99	-31.1	-33.8	11.1	2.18e-03	0	44	0	631242752	22	4879
2026-01-29 01:58:54.25	302.14	30.97	-31.0	-33.5	11.3	4.18e-03	0	44	0	633339904	22	4767
2026-01-29 01:58:55.25	301.79	30.95	-31.2	-33.9	11.1	1.24e-03	0	44	0	635437056	22	4916
2026-01-29 01:58:56.26	301.44	30.92	-31.3	-34.2	10.9	3.15e-03	0	44	0	637534208	22	5034
2026-01-29 01:58:57.26	301.09	30.90	-31.0	-33.4	11.3	3.27e-03	0	43	0	639631360	22	4748
2026-01-29 01:58:58.26	300.74	30.87	-31.0	-33.7	11.5	8.95e-04	0	44	0	640679936	21	4957
2026-01-29 01:58:59.27	300.39	30.84	-30.7	-32.4	12.0	3.86e-04	0	44	0	642777088	22	4398
2026-01-29 01:59:00.27	300.04	30.81	-30.6	-32.7	12.2	1.53e-03	0	44	0	644874240	21	4569
2026-01-29 01:59:01.27	299.69	30.78	-30.5	-32.5	12.3	1.47e-03	0	44	0	646971392	21	4513
2026-01-29 01:59:02.27	299.35	30.75	-30.4	-32.2	12.5	2.29e-04	0	44	0	648019968	21	4405
2026-01-29 01:59:03.27	299.00	30.72	-30.3	-32.3	12.7	1.67e-03	0	44	0	650117120	20	4532
2026-01-29 01:59:04.28	298.65	30.68	-30.4	-32.5	12.6	1.56e-03	0	44	0	652214272	20	4588
2026-01-29 01:59:05.28	298.31	30.65	-30.1	-31.8	13.1	4.50e-05	0	44	0	654311424	20	4363
2026-01-29 01:59:06.29	297.96	30.61	-30.5	-32.8	12.4	1.29e-03	0	44	0	656408576	20	4733
2026-01-29 01:59:07.28	297.62	30.58	-30.7	-33.2	11.7	1.40e-03	0	44	0	657457152	21	4765
2026-01-29 01:59:08.29	297.28	30.54	-30.9	-33.7	11.3	5.61e-04	0	43	0	659554304	21	4976
2026-01-29 01:59:09.29	296.94	30.50	-31.0	-33.9	11.2	2.81e-03	0	44	0	661651456	21	5044
2026-01-29 01:59:10.30	296.59	30.46	-30.5	-32.4	12.2	2.33e-03	0	43	0	663748608	21	4508
2026-01-29 01:59:11.31	296.25	30.42	-29.8	-30.9	13.6	6.02e-05	0	43	0	665845760	20	4111
2026-01-29 01:59:12.31	295.91	30.37	-29.3	-30.2	14.3	2.17e-03	0	44	0	666894336	19	3995
2026-01-29 01:59:13.31	295.58	30.33	-29.3	-30.7	14.4	2.20e-03	0	43	0	668991488	18	4212
2026-01-29 01:59:14.31	295.24	30.28	-29.6	-31.1	13.9	7.00e-07	0	44	0	671088640	19	4251
2026-01-29 01:59:15.31	294.91	30.24	-29.5	-30.6	14.1	1.59e-03	0	44	0	673185792	19	4118
2026-01-29 01:59:16.32	294.57	30.19	-29.6	-30.8	14.0	7.64e-04	0	44	0	675282944	19	4177
2026-01-29 01:59:17.32	294.23	30.14	-29.7	-31.2	13.8	4.50e-06	0	44	0	676331520	19	4293
2026-01-29 01:59:18.33	293.90	30.09	-29.8	-31.5	13.6	1.41e-03	0	44	0	678428672	19	4371
2026-01-29 01:59:19.33	293.57	30.04	-30.0	-31.6	13.0	4.88e-05	0	44	0	680525824	20	4307
2026-01-29 01:59:20.33	293.24	29.99	-29.9	-31.4	13.2	1.83e-05	0	44	0	682622976	20	4273
2026-01-29 01:59:21.34	292.90	29.94	-30.1	-31.9	12.9	1.73e-03	0	44	0	684720128	20	4437
2026-01-29 01:59:22.34	292.58	29.89	-30.3	-32.6	12.5	1.38e-03	0	43	0	685768704	20	4640
2026-01-29 01:59:23.34	292.25	29.84	-30.2	-32.0	12.9	6.17e-05	0	43	0	687865856	20	4441
2026-01-29 01:59:24.34	291.92	29.78	-29.9	-31.3	13.3	1.72e-03	0	44	0	689963008	20	4234
2026-01-29 01:59:25.35	291.59	29.72	-30.0	-31.6	13.2	2.04e-03	0	44	0	692060160	20	4309
2026-01-29 01:59:26.36	291.27	29.67	-30.0	-31.6	13.2	2.28e-05	0	44	0	694157312	20	4307
2026-01-29 01:59:27.36	290.94	29.61	-30.4	-32.4	12.8	2.28e-03	0	44	0	695205888	20	4555
2026-01-29 01:59:28.37	290.62	29.55	-30.2	-31.9	13.1	2.52e-03	0	43	0	697303040	20	4390
2026-01-29 01:59:29.37	290.30	29.49	-30.2	-31.9	13.1	3.81e-05	0	44	0	699400192	20	4382
2026-01-29 01:59:30.38	289.98	29.43	-29.8	-30.9	13.7	1.47e-04	0	43	0	701497344	20	4066
2026-01-29 01:59:31.38	289.66	29.37	-29.9	-31.1	13.6	2.40e-03	0	44	0	703594496	20	4123
2026-01-29 01:59:32.39	289.34	29.31	-30.2	-31.8	13.1	9.10e-06	0	44	0	704643072	20	4367
2026-01-29 01:59:33.38	289.03	29.25	-30.2	-32.0	13.0	7.70e-05	0	43	0	706740224	20	4427
2026-01-29 01:59:34.38	288.71	29.18	-30.3	-32.3	12.8	1.04e-04	0	44	0	708837376	20	4519
2026-01-29 01:59:35.38	288.40	29.12	-30.5	-32.4	12.4	1.20e-04	0	44	0	710934528	21	4460
2026-01-29 01:59:36.38	288.09	29.05	-30.7	-32.9	12.0	3.76e-04	0	43	0	711983104	21	4620
2026-01-29 01:59:37.38	287.78	28.99	-31.0	-33.2	11.5	8.29e-04	0	43	0	714080256	22	4657
2026-01-29 01:59:38.39	287.46	28.92	-30.9	-32.8	11.8	3.77e-04	0	44	0	716177408	22	4507
2026-01-29 01:59:39.39	287.16	28.85	-30.8	-33.1	11.9	5.72e-04	0	43	0	718274560	21	4702
2026-01-29 01:59:40.40	286.85	28.78	-30.8	-33.0	12.0	5.00e-04	0	44	0	720371712	21	4677
2026-01-29 01:59:41.40	286.54	28.71	-31.0	-33.4	11.4	8.15e-04	0	44	0	721420288	22	4709
2026-01-29 01:59:42.40	286.24	28.64	-31.2	-33.8	11.1	2.48e-03	0	44	0	723517440	22	4878
2026-01-29 01:59:43.40	285.94	28.57	-31.2	-33.8	11.1	1.50e-03	0	43	0	725614592	22	4886
2026-01-29 01:59:44.41	285.63	28.50	-31.1	-33.6	11.2	1.40e-03	0	43	0	727711744	22	4811
2026-01-29 01:59:45.41	285.33	28.43	-31.1	-33.5	11.3	9.12e-04	0	44	0	729808896	22	4763
2026-01-29 01:59:46.42	285.03	28.36	-31.3	-34.2	10.8	2.31e-03	0	44	0	730857472	22	5023
2026-01-29 01:59:47.42	284.73	28.28	-31.3	-34.2	10.8	1.91e-03	0	44	0	732954624	22	5038
2026-01-29 01:59:48.43	284.43	28.21	-31.3	-34.2	10.7	3.99e-03	0	44	0	735051776	22	5035
2026-01-29 01:59:49.43	284.14	28.14	-31.1	-33.6	11.2	3.31e-03	0	44	0	737148928	22	4803
2026-01-29 01:59:50.43	283.85	28.06	-31.1	-33.7	11.1	1.28e-03	0	44	0	739246080	22	4849
2026-01-29 01:59:51.43	283.55	27.98	-31.3	-34.2	10.8	1.88e-03	0	43	0	740294656	22	5061
2026-01-29 01:59:52.43	283.26	27.91	-31.3	-34.4	10.5	2.52e-03	0	43	0	742391808	22	5130
2026-01-29 01:59:53.43	282.97	27.83	-31.2	-34.0	10.9	3.01e-03	0	44	0	744488960	22	4954
2026-01-29 01:59:54.43	282.69	27.75	-31.0	-33.3	11.4	7.71e-04	0	44	0	746586112	22	4685
2026-01-29 01:59:55.44	282.40	27.67	-30.5	-31.8	12.4	3.42e-04	0	44	0	748683264	22	4174
2026-01-29 01:59:56.44	282.11	27.60	-30.3	-31.2	12.8	7.70e-05	0	44	0	749731840	22	3995
2026-01-29 01:59:57.45	281.83	27.52	-29.9	-30.6	13.5	4.42e-05	0	43	0	751828992	21	3911
2026-01-29 01:59:58.44	281.55	27.44	-29.3	-29.7	14.4	1.50e-06	0	43	0	753926144	20	3751
2026-01-29 01:59:59.45	281.27	27.36	-29.1	-29.6	14.9	0.00e+00	0	43	0	756023296	19	3786
2026-01-29 02:00:00.45	280.99	27.27	-29.1	-29.9	14.9	0.00e+00	0	44	0	758120448	18	3980
2026-01-29 02:00:01.46	280.71	27.19	-29.4	-30.8	14.4	0.00e+00	0	43	0	759169024	18	4225
2026-01-29 02:00:02.46	280.43	27.11	-29.5	-31.0	14.3	0.00e+00	0	43	0	761266176	18	4288
2026-01-29 02:00:03.46	280.15	27.03	-29.3	-30.0	14.6	7.00e-07	0	43	0	763363328	19	3895
2026-01-29 02:00:04.46	279.88	26.95	-29.2	-30.2	14.8	0.00e+00	0	43	0	765460480	18	4049
2026-01-29 02:00:05.46	279.61	26.86	-29.3	-30.5	14.6	7.00e-07	0	44	0	766509056	18	4144
2026-01-29 02:00:06.47	279.34	26.78	-29.5	-30.6	14.2	6.56e-05	0	44	0	768606208	19	4084
2026-01-29 02:00:07.47	279.07	26.69	-30.0	-31.8	13.5	8.30e-06	0	43	0	770703360	19	4444
2026-01-29 02:00:08.48	278.80	26.61	-30.1	-31.8	13.1	2.28e-05	0	44	0	772800512	20	4377
2026-01-29 02:00:09.48	278.53	26.52	-30.1	-31.6	13.1	3.92e-04	0	44	0	774897664	20	4294
2026-01-29 02:00:10.48	278.27	26.44	-29.8	-30.9	13.7	9.10e-06	0	43	0	775946240	20	4095
2026-01-29 02:00:11.48	278.00	26.35	-29.8	-31.0	13.6	9.90e-06	0	43	0	778043392	20	4106
2026-01-29 02:00:12.48	277.74	26.26	-30.0	-31.4	13.3	1.98e-04	0	43	0	780140544	20	4249
2026-01-29 02:00:13.49	277.48	26.18	-30.3	-32.5	12.6	7.93e-05	0	44	0	782237696	20	4595
2026-01-29 02:00:14.50	277.22	26.09	-30.8	-33.5	11.5	3.32e-04	0	44	0	784334848	21	4870
2026-01-29 02:00:15.51	276.96	26.00	-31.2	-33.9	11.0	1.17e-03	0	44	0	785383424	22	4944
2026-01-29 02:00:16.51	276.70	25.91	-31.0	-33.5	11.2	2.33e-03	0	44	0	787480576	22	4765
2026-01-29 02:00:17.52	276.44	25.82	-30.8	-33.4	11.7	7.58e-04	0	44	0	789577728	21	4823
2026-01-29 02:00:18.52	276.19	25.74	-30.7	-33.0	11.9	9.36e-04	0	43	0	791674880	21	4673
2026-01-29 02:00:19.52	275.94	25.65	-30.3	-31.8	12.7	1.80e-04	0	44	0	793772032	21	4276
2026-01-29 02:00:20.52	275.69	25.56	-29.8	-30.8	13.6	4.32e-04	0	44	0	794820608	20	4067
2026-01-29 02:00:21.53	275.44	25.47	-29.3	-29.6	14.4	1.50e-06	0	44	0	796917760	20	3727
2026-01-29 02:00:22.53	275.19	25.38	-29.3	-30.0	14.5	7.00e-07	0	43	0	799014912	19	3902
2026-01-29 02:00:23.53	274.94	25.29	-29.4	-30.2	14.4	0.00e+00	0	44	0	801112064	19	3982
2026-01-29 02:00:24.53	274.70	25.20	-29.2	-30.3	14.6	0.00e+00	0	43	0	803209216	18	4103
2026-01-29 02:00:25.54	274.45	25.11	-29.0	-29.8	15.0	0.00e+00	0	44	0	804257792	18	3955
2026-01-29 02:00:26.54	274.21	25.02	-29.0	-29.8	15.0	0.00e+00	0	44	0	806354944	18	3951
2026-01-29 02:00:27.54	273.97	24.93	-28.7	-29.6	15.3	0.00e+00	0	44	0	808452096	17	4001
2026-01-29 02:00:28.55	273.73	24.83	-28.6	-29.4	15.5	0.00e+00	0	44	0	810549248	17	3933
2026-01-29 02:00:29.55	273.49	24.74	-28.6	-29.3	15.5	0.00e+00	0	43	0	812646400	17	3924
2026-01-29 02:00:30.55	273.25	24.65	-28.8	-29.8	15.2	0.00e+00	0	43	0	813694976	17	4052
2026-01-29 02:00:31.56	273.02	24.56	-28.8	-29.9	15.0	0.00e+00	0	43	0	815792128	17	4081
2026-01-29 02:00:32.56	272.78	24.47	-28.8	-29.9	15.1	7.00e-07	0	43	0	817889280	17	4085
2026-01-29 02:00:33.57	272.55	24.37	-28.7	-29.6	15.3	0.00e+00	0	44	0	819986432	17	3994
2026-01-29 02:00:34.57	272.32	24.28	-28.6	-29.3	15.5	0.00e+00	0	44	0	822083584	17	3921
2026-01-29 02:00:35.57	272.09	24.19	-28.4	-28.8	15.8	1.46e-04	0	43	0	823132160	17	3785
2026-01-29 02:00:36.58	271.86	24.09	-28.4	-29.4	15.7	0.00e+00	0	44	0	825229312	16	4024
2026-01-29 02:00:37.58	271.63	24.00	-28.4	-29.0	15.6	0.00e+00	0	43	0	827326464	17	3832
2026-01-29 02:00:38.58	271.40	23.91	-28.5	-29.0	15.6	3.95e-04	0	44	0	829423616	17	3839
2026-01-29 02:00:39.58	271.18	23.81	-28.7	-29.7	15.3	0.00e+00	0	44	0	830472192	17	4023
2026-01-29 02:00:40.59	270.96	23.72	-28.8	-29.9	15.1	0.00e+00	0	44	0	832569344	17	4092
2026-01-29 02:00:41.58	270.74	23.63	-29.0	-30.4	14.9	7.00e-07	0	43	0	834666496	17	4210
2026-01-29 02:00:42.59	270.51	23.53	-29.2	-30.4	14.2	1.50e-06	0	44	0	836763648	18	4131
2026-01-29 02:00:43.60	270.29	23.44	-29.3	-30.7	14.4	7.00e-07	0	43	0	838860800	18	4216
2026-01-29 02:00:44.60	270.08	23.34	-29.5	-31.1	13.6	3.88e-04	0	44	0	839909376	18	4324
2026-01-29 02:00:45.60	269.86	23.25	-29.8	-31.3	13.5	5.78e-04	0	44	0	842006528	19	4317
2026-01-29 02:00:46.61	269.64	23.16	-29.7	-31.2	13.7	1.29e-05	0	43	0	844103680	19	4276
2026-01-29 02:00:47.61	269.43	23.06	-29.5	-30.7	13.9	4.46e-04	0	43	0	846200832	19	4110
2026-01-29 02:00:48.61	269.22	22.97	-29.3	-30.6	14.4	3.55e-04	0	44	0	848297984	18	4189
2026-01-29 02:00:49.61	269.01	22.87	-29.2	-30.3	14.6	7.00e-07	0	44	0	849346560	18	4089
2026-01-29 02:00:50.62	268.79	22.78	-29.2	-30.4	14.5	0.00e+00	0	43	0	851443712	18	4122
2026-01-29 02:00:51.62	268.59	22.68	-29.0	-29.9	14.8	3.33e-04	0	43	0	853540864	18	3997
2026-01-29 02:00:52.63	268.38	22.59	-28.9	-29.5	15.0	0.00e+00	0	43	0	855638016	18	3890
2026-01-29 02:00:53.63	268.17	22.49	-28.7	-29.6	15.3	1.82e-03	0	43	0	857735168	17	3987
2026-01-29 02:00:54.63	267.97	22.40	-28.4	-29.4	15.6	3.50e-03	0	43	0	858783744	16	4053
2026-01-29 02:00:55.63	267.76	22.30	-28.0	-28.5	16.2	0.00e+00	0	43	0	860880896	16	3796
2026-01-29 02:00:56.63	267.56	22.21	-28.0	-28.5	16.2	2.00e-03	0	43	0	862978048	16	3804
2026-01-29 02:00:57.63	267.36	22.11	-27.8	-28.6	16.3	3.77e-03	0	43	0	865075200	15	3928
2026-01-29 02:00:58.63	267.16	22.02	-27.7	-28.3	16.4	3.81e-05	0	44	0	867172352	15	3856
2026-01-29 02:00:59.64	266.96	21.92	-27.9	-28.7	16.2	2.38e-03	0	44	0	868220928	15	3953
2026-01-29 02:01:00.64	266.76	21.83	-28.3	-29.1	15.8	2.33e-03	0	43	0	870318080	16	3960
2026-01-29 02:01:01.64	266.57	21.73	-28.5	-29.3	15.4	1.11e-04	0	43	0	872415232	17	3917
2026-01-29 02:01:02.65	266.37	21.64	-28.6	-29.5	15.3	2.50e-03	0	43	0	874512384	17	3980
2026-01-29 02:01:03.66	266.18	21.54	-28.6	-29.4	15.3	2.25e-03	0	44	0	876609536	17	3946
2026-01-29 02:01:04.67	265.98	21.45	-28.5	-29.3	15.4	3.05e-05	0	43	0	877658112	17	3916
2026-01-29 02:01:05.67	265.79	21.35	-28.4	-29.4	15.6	4.19e-03	0	43	0	879755264	16	4050
2026-01-29 02:01:06.67	265.60	21.26	-28.4	-29.3	15.6	2.45e-03	0	43	0	881852416	16	4030
2026-01-29 02:01:07.68	265.41	21.16	-28.6	-29.3	15.4	0.00e+00	0	44	0	883949568	17	3933
2026-01-29 02:01:08.68	265.22	21.07	-28.7	-29.7	15.2	4.35e-03	0	44	0	884998144	17	4041
2026-01-29 02:01:09.68	265.04	20.97	-28.6	-29.4	15.3	2.47e-03	0	43	0	887095296	17	3935
2026-01-29 02:01:10.68	264.85	20.88	-28.7	-29.6	15.2	0.00e+00	0	43	0	889192448	17	4002
2026-01-29 02:01:11.69	264.67	20.78	-28.7	-29.7	15.2	1.32e-03	0	43	0	891289600	17	4027
2026-01-29 02:01:12.69	264.48	20.69	-28.5	-29.3	15.3	3.29e-03	0	44	0	893386752	17	3922
2026-01-29 02:01:13.69	264.30	20.59	-28.7	-29.6	15.2	0.00e+00	0	44	0	895483904	17	4009
2026-01-29 02:01:14.70	264.12	20.50	-28.7	-29.7	15.1	1.05e-03	0	43	0	896532480	17	4036
2026-01-29 02:01:15.70	263.94	20.40	-28.8	-29.9	15.0	1.18e-03	0	43	0	898629632	17	4085
2026-01-29 02:01:16.71	263.76	20.31	-28.8	-30.0	14.9	7.00e-07	0	44	0	900726784	17	4121
2026-01-29 02:01:17.72	263.58	20.21	-28.8	-29.8	15.0	4.06e-04	0	43	0	902823936	17	4071
2026-01-29 02:01:18.72	263.40	20.12	-28.6	-29.4	15.3	3.97e-04	0	43	0	903872512	17	3955
2026-01-29 02:01:19.72	263.23	20.02	-28.4	-29.0	15.5	0.00e+00	0	43	0	905969664	17	3850
2026-01-29 02:01:20.73	263.05	19.93	-28.4	-29.4	15.6	4.58e-04	0	43	0	908066816	16	4059
2026-01-29 02:01:21.73	262.88	19.84	-28.3	-29.1	15.8	3.80e-06	0	43	0	910163968	16	3951
2026-01-29 02:01:22.74	262.71	19.74	-28.0	-28.6	16.0	0.00e+00	0	43	0	912261120	16	3834
2026-01-29 02:01:23.74	262.53	19.65	-28.2	-28.9	15.9	1.23e-03	0	43	0	913309696	16	3898
2026-01-29 02:01:24.74	262.36	19.55	-28.4	-29.5	15.5	1.72e-04	0	43	0	915406848	16	4087
2026-01-29 02:01:25.74	262.20	19.46	-28.6	-29.4	15.2	0.00e+00	0	43	0	917504000	17	3968
2026-01-29 02:01:26.74	262.03	19.37	-28.9	-30.1	14.8	1.49e-03	0	44	0	919601152	17	4162
2026-01-29 02:01:27.74	261.86	19.27	-29.2	-30.5	14.3	1.50e-06	0	44	0	921698304	18	4162
2026-01-29 02:01:28.75	261.69	19.18	-29.2	-30.6	14.3	1.50e-06	0	44	0	922746880	18	4197
2026-01-29 02:01:29.75	261.53	19.09	-29.3	-30.7	14.2	6.69e-04	0	44	0	924844032	18	4245
2026-01-29 02:01:30.75	261.37	18.99	-29.3	-30.6	14.2	7.08e-04	0	44	0	926941184	18	4210
2026-01-29 02:01:31.76	261.20	18.90	-29.2	-30.4	14.4	7.00e-07	0	44	0	929038336	18	4154
2026-01-29 02:01:32.76	261.04	18.81	-29.2	-30.4	14.3	1.65e-04	0	44	0	931135488	18	4136
2026-01-29 02:01:33.77	260.88	18.71	-29.3	-30.6	14.2	4.73e-04	0	44	0	932184064	18	4209
2026-01-29 02:01:34.77	260.72	18.62	-29.0	-30.0	14.6	1.50e-06	0	44	0	934281216	18	4042
2026-01-29 02:01:35.78	260.56	18.53	-28.6	-29.5	15.2	0.00e+00	0	43	0	936378368	17	3974
2026-01-29 02:01:36.79	260.40	18.43	-28.6	-29.4	15.2	0.00e+00	0	44	0	938475520	17	3964
2026-01-29 02:01:37.79	260.24	18.34	-28.5	-29.2	15.3	0.00e+00	0	43	0	940572672	17	3914
2026-01-29 02:01:38.79	260.09	18.25	-28.6	-29.6	15.1	0.00e+00	0	44	0	941621248	17	4008
2026-01-29 02:01:39.80	259.93	18.15	-28.8	-29.9	14.9	0.00e+00	0	44	0	943718400	17	4112
2026-01-29 02:01:40.80	259.78	18.06	-28.9	-30.3	14.7	7.00e-07	0	44	0	945815552	17	4205
2026-01-29 02:01:41.80	259.62	17.97	-29.2	-30.4	14.2	1.50e-06	0	44	0	947912704	18	4159
2026-01-29 02:01:42.81	259.47	17.88	-29.4	-31.0	13.9	2.20e-06	0	43	0	950009856	18	4323
2026-01-29 02:01:43.81	259.32	17.79	-29.7	-31.2	13.5	3.80e-06	0	44	0	951058432	19	4297
2026-01-29 02:01:44.82	259.17	17.69	-29.7	-31.3	13.4	1.22e-05	0	44	0	953155584	19	4345
2026-01-29 02:01:45.82	259.02	17.60	-29.9	-32.0	12.9	2.51e-05	0	44	0	955252736	19	4558
2026-01-29 02:01:46.82	258.87	17.51	-29.8	-31.2	13.1	4.73e-05	0	44	0	957349888	20	4209
2026-01-29 02:01:47.83	258.72	17.42	-29.8	-31.5	13.2	3.39e-04	0	44	0	958398464	19	4412
2026-01-29 02:01:48.83	258.58	17.33	-29.7	-31.4	13.3	1.83e-05	0	43	0	960495616	19	4360
2026-01-29 02:01:49.84	258.43	17.24	-29.6	-31.1	13.5	1.06e-05	0	43	0	962592768	19	4280
2026-01-29 02:01:50.84	258.28	17.15	-29.7	-31.4	13.3	1.31e-03	0	44	0	964689920	19	4352
2026-01-29 02:01:51.85	258.14	17.06	-29.4	-30.4	13.9	5.30e-06	0	43	0	966787072	19	4071
2026-01-29 02:01:52.85	258.00	16.97	-29.5	-30.8	13.7	9.90e-06	0	44	0	968884224	19	4170
2026-01-29 02:01:53.86	257.85	16.87	-29.5	-30.9	13.6	7.91e-04	0	44	0	969932800	19	4200
2026-01-29 02:01:54.87	257.71	16.78	-29.8	-31.5	13.2	1.22e-05	0	44	0	972029952	19	4397
2026-01-29 02:01:55.87	257.57	16.69	-29.7	-31.4	13.3	1.67e-05	0	43	0	974127104	19	4355
2026-01-29 02:01:56.87	257.43	16.60	-29.9	-31.8	13.2	1.98e-05	0	44	0	976224256	19	4491
2026-01-29 02:01:57.88	257.29	16.51	-30.0	-31.7	12.7	2.24e-04	0	43	0	977272832	20	4394
2026-01-29 02:01:58.88	257.15	16.42	-30.3	-32.5	12.1	1.76e-04	0	43	0	979369984	20	4656
2026-01-29 02:01:59.88	257.02	16.33	-30.3	-32.5	12.1	2.75e-04	0	43	0	981467136	20	4671
2026-01-29 02:02:00.88	256.88	16.25	-30.3	-32.5	12.1	2.33e-04	0	44	0	983564288	20	4669
2026-01-29 02:02:01.89	256.74	16.16	-30.4	-32.9	11.6	3.63e-04	0	44	0	985661440	20	4783
2026-01-29 02:02:02.89	256.61	16.07	-29.9	-31.4	12.8	1.91e-04	0	44	0	986710016	20	4300
2026-01-29 02:02:03.89	256.48	15.98	-29.7	-30.8	13.3	5.56e-05	0	43	0	988807168	20	4095
2026-01-29 02:02:04.89	256.34	15.89	-29.3	-30.3	14.0	1.25e-03	0	43	0	990904320	19	4021
2026-01-29 02:02:05.89	256.21	15.80	-29.2	-30.6	14.1	7.60e-06	0	43	0	993001472	18	4214
2026-01-29 02:02:06.90	256.08	15.71	-29.2	-30.5	14.1	0.00e+00	0	44	0	995098624	18	4177
2026-01-29 02:02:07.90	255.95	15.62	-29.1	-30.4	14.2	7.00e-07	0	44	0	996147200	18	4141
2026-01-29 02:02:08.91	255.82	15.54	-29.4	-31.1	13.8	2.42e-03	0	44	0	998244352	18	4371
2026-01-29 02:02:09.91	255.69	15.45	-29.3	-30.6	14.0	4.50e-06	0	44	0	1000341504	18	4229
2026-01-29 02:02:10.91	255.56	15.36	-29.3	-30.7	14.0	2.20e-06	0	43	0	1002438656	18	4237
2026-01-29 02:02:11.90	255.43	15.27	-29.1	-30.3	14.3	2.50e-03	0	44	0	1004535808	18	4114
2026-01-29 02:02:12.90	255.31	15.19	-29.3	-30.7	13.9	0.00e+00	0	44	0	1005584384	18	4247
2026-01-29 02:02:13.91	255.18	15.10	-29.2	-30.6	14.0	7.00e-07	0	43	0	1007681536	18	4214
2026-01-29 02:02:14.91	255.06	15.01	-29.3	-30.8	13.9	9.10e-06	0	43	0	1009778688	18	4278
2026-01-29 02:02:15.91	254.93	14.93	-29.5	-30.9	13.6	3.48e-04	0	43	0	1011875840	19	4202
2026-01-29 02:02:16.91	254.81	14.84	-29.6	-31.1	13.4	1.22e-05	0	44	0	1013972992	19	4286
2026-01-29 02:02:17.91	254.68	14.75	-29.6	-31.0	13.4	1.52e-05	0	43	0	1015021568	19	4259
2026-01-29 02:02:18.92	254.56	14.67	-29.6	-31.1	13.4	3.86e-04	0	43	0	1017118720	19	4274
2026-01-29 02:02:19.91	254.44	14.58	-29.6	-31.1	13.4	2.93e-03	0	44	0	1019215872	19	4278
2026-01-29 02:02:20.92	254.32	14.50	-29.6	-31.0	13.4	2.44e-05	0	43	0	1021313024	19	4260
2026-01-29 02:02:21.92	254.20	14.41	-29.6	-31.3	13.3	1.29e-05	0	44	0	1022361600	19	4333
2026-01-29 02:02:22.93	254.08	14.32	-29.4	-31.0	13.2	2.55e-03	0	44	0	1024458752	19	4363
2026-01-29 02:02:23.93	253.96	14.24	-29.5	-30.8	13.4	1.98e-05	0	43	0	1026555904	19	4201
2026-01-29 02:02:24.94	253.84	14.15	-29.4	-30.7	13.6	6.10e-06	0	44	0	1028653056	19	4151
2026-01-29 02:02:25.95	253.72	14.07	-29.5	-31.3	13.5	2.31e-03	0	44	0	1030750208	18	4456
2026-01-29 02:02:26.95	253.61	13.98	-29.6	-31.2	13.2	2.50e-03	0	43	0	1031798784	19	4329
2026-01-29 02:02:27.95	253.49	13.90	-29.8	-31.7	12.9	2.05e-05	0	43	0	1033895936	19	4475
2026-01-29 02:02:28.96	253.37	13.81	-29.8	-31.8	12.8	3.18e-03	0	44	0	1035993088	19	4519
2026-01-29 02:02:29.96	253.26	13.73	-30.1	-32.0	12.3	2.85e-03	0	44	0	1038090240	20	4516
2026-01-29 02:02:30.96	253.14	13.64	-30.1	-32.2	12.2	5.65e-04	0	44	0	1040187392	20	4557
2026-01-29 02:02:31.97	253.03	13.56	-30.5	-32.9	11.3	3.85e-04	0	44	0	1041235968	21	4731
2026-01-29 02:02:32.97	252.92	13.48	-30.5	-32.8	11.4	4.34e-03	0	43	0	1043333120	21	4680
2026-01-29 02:02:33.97	252.81	13.39	-30.7	-33.3	11.0	1.87e-03	0	44	0	1045430272	21	4897
2026-01-29 02:02:34.98	252.69	13.31	-30.5	-32.8	11.4	2.05e-03	0	44	0	1047527424	21	4697
2026-01-29 02:02:35.98	252.58	13.23	-30.4	-33.0	11.6	4.16e-03	0	44	0	1049624576	20	4851
2026-01-29 02:02:36.98	252.47	13.14	-30.3	-32.7	11.8	8.21e-04	0	44	0	1050673152	20	4748
2026-01-29 02:02:37.98	252.36	13.06	-30.0	-31.9	12.4	3.13e-03	0	44	0	1052770304	20	4462
2026-01-29 02:02:38.99	252.25	12.98	-29.9	-31.5	12.5	1.51e-04	0	44	0	1054867456	20	4350
2026-01-29 02:02:39.98	252.15	12.90	-29.5	-30.6	13.1	1.86e-04	0	44	0	1056964608	20	4058
2026-01-29 02:02:40.99	252.04	12.81	-29.3	-30.5	13.6	2.52e-03	0	44	0	1059061760	19	4110
2026-01-29 02:02:41.99	251.93	12.73	-29.3	-30.9	13.7	2.21e-03	0	44	0	1060110336	18	4333
2026-01-29 02:02:42.99	251.82	12.65	-29.2	-30.6	13.9	2.20e-06	0	43	0	1062207488	18	4225
2026-01-29 02:02:44.00	251.72	12.57	-29.1	-30.3	14.1	2.43e-03	0	44	0	1064304640	18	4131
2026-01-29 02:02:45.00	251.61	12.48	-29.1	-30.4	14.0	2.45e-03	0	44	0	1066401792	18	4184
2026-01-29 02:02:46.01	251.51	12.40	-29.2	-30.7	13.8	1.90e-05	0	44	0	1068498944	18	4252
2026-01-29 02:02:47.02	251.40	12.32	-29.4	-31.1	13.5	3.20e-03	0	44	0	1069547520	18	4381
2026-01-29 02:02:48.02	251.30	12.24	-29.7	-31.5	13.0	2.44e-03	0	44	0	1071644672	19	4440
2026-01-29 02:02:49.02	251.20	12.16	-29.8	-31.8	12.7	1.24e-04	0	44	0	1073741824	19	4515
2026-01-29 02:02:50.03	251.09	12.08	-30.1	-32.1	12.1	3.65e-03	0	43	0	1075838976	20	4544
2026-01-29 02:02:51.04	250.99	12.00	-30.2	-32.6	11.7	3.72e-03	0	44	0	1076887552	20	4728
2026-01-29 02:02:52.04	250.89	11.92	-30.5	-32.9	11.1	7.92e-04	0	44	0	1078984704	21	4767
2026-01-29 02:02:53.04	250.79	11.84	-30.5	-32.8	11.2	5.04e-03	0	43	0	1081081856	21	4705
2026-01-29 02:02:54.05	250.69	11.76	-30.7	-33.5	10.7	6.07e-03	0	43	0	1083179008	21	4991
2026-01-29 02:02:55.05	250.59	11.68	-30.8	-33.8	10.5	3.53e-03	0	44	0	1085276160	21	5119
2026-01-29 02:02:56.06	250.49	11.60	-30.8	-34.1	10.3	4.86e-03	0	44	0	1087373312	21	5215
2026-01-29 02:02:57.06	250.39	11.52	-30.7	-33.5	10.7	7.79e-03	0	44	0	1088421888	21	4986
2026-01-29 02:02:58.07	250.29	11.44	-30.7	-33.5	10.6	3.79e-03	0	44	0	1090519040	21	5000
2026-01-29 02:02:59.07	250.19	11.36	-30.6	-33.4	10.8	6.02e-03	0	44	0	1092616192	21	4931
2026-01-29 02:03:00.08	250.10	11.28	-30.7	-33.7	10.5	4.08e-03	0	44	0	1094713344	21	5074
2026-01-29 02:03:01.07	250.00	11.20	-30.8	-34.1	10.2	4.82e-03	0	44	0	1095761920	21	5237
2026-01-29 02:03:02.07	249.91	11.12	-30.7	-33.5	10.6	8.55e-03	0	44	0	1097859072	21	5002
2026-01-29 02:03:03.08	249.81	11.04	-30.5	-33.1	10.9	3.17e-03	0	43	0	1099956224	21	4855
2026-01-29 02:03:04.08	249.72	10.96	-30.4	-32.8	11.1	1.72e-03	0	43	0	1102053376	21	4728
2026-01-29 02:03:05.09	249.62	10.88	-30.4	-33.2	11.2	5.16e-03	0	44	0	1104150528	20	4971
2026-01-29 02:03:06.10	249.53	10.81	-30.4	-33.2	11.1	1.19e-03	0	44	0	1105199104	20	4988
2026-01-29 02:03:07.10	249.43	10.73	-30.4	-32.8	11.0	1.68e-03	0	44	0	1107296256	21	4740
2026-01-29 02:03:08.10	249.34	10.65	-30.4	-33.1	11.2	4.86e-03	0	44	0	1109393408	20	4941
2026-01-29 02:03:09.09	249.25	10.57	-30.3	-33.0	11.3	4.05e-03	0	44	0	1111490560	20	4907
2026-01-29 02:03:10.10	249.16	10.50	-30.3	-33.1	11.3	1.12e-03	0	44	0	1113587712	20	4915
2026-01-29 02:03:11.10	249.07	10.42	-30.4	-33.2	11.2	1.63e-03	0	44	0	1114636288	20	4959
2026-01-29 02:03:12.11	248.98	10.34	-30.5	-33.1	10.9	4.77e-03	0	43	0	1116733440	21	4843
2026-01-29 02:03:13.11	248.89	10.27	-30.5	-32.9	11.0	2.13e-03	0	44	0	1118830592	21	4790
2026-01-29 02:03:14.11	248.80	10.19	-30.6	-33.3	10.8	3.12e-03	0	43	0	1120927744	21	4918
2026-01-29 02:03:15.12	248.71	10.11	-30.5	-33.0	10.9	5.50e-03	0	44	0	1123024896	21	4811
2026-01-29 02:03:16.13	248.62	10.04	-30.5	-33.0	10.9	2.32e-03	0	44	0	1124073472	21	4832
2026-01-29 02:03:17.13	248.53	9.96	-30.5	-33.1	10.8	2.88e-03	0	44	0	1126170624	21	4861
2026-01-29 02:03:18.14	248.44	9.88	-30.5	-33.2	10.7	3.17e-03	0	44	0	1128267776	21	4898
2026-01-29 02:03:19.14	248.35	9.81	-30.6	-33.3	10.7	3.08e-03	0	44	0	1130364928	21	4936
2026-01-29 02:03:20.14	248.27	9.73	-30.6	-33.6	10.5	4.47e-03	0	44	0	1132462080	21	5040
2026-01-29 02:03:21.15	248.18	9.66	-30.5	-33.1	10.8	4.05e-03	0	44	0	1133510656	21	4863
2026-01-29 02:03:22.15	248.09	9.58	-30.4	-33.3	11.1	1.78e-03	0	44	0	1135607808	20	5037
2026-01-29 02:03:23.15	248.01	9.51	-30.4	-33.2	11.0	1.46e-03	0	44	0	1137704960	20	5007
2026-01-29 02:03:24.15	247.92	9.43	-30.3	-33.0	11.2	1.43e-03	0	44	0	1139802112	20	4921
2026-01-29 02:03:25.16	247.84	9.36	-30.4	-33.2	11.0	1.85e-03	0	44	0	1141899264	20	4972
2026-01-29 02:03:26.16	247.75	9.28	-30.2	-32.8	11.3	5.66e-03	0	44	0	1142947840	20	4826
2026-01-29 02:03:27.16	247.67	9.21	-30.1	-32.4	11.6	7.75e-04	0	44	0	1145044992	20	4698
2026-01-29 02:03:28.17	247.59	9.13	-30.1	-32.5	11.5	6.26e-04	0	44	0	1147142144	20	4729
2026-01-29 02:03:29.17	247.50	9.06	-30.1	-32.3	11.6	1.43e-03	0	44	0	1149239296	20	4663
2026-01-29 02:03:30.18	247.42	8.98	-29.8	-31.6	12.1	4.55e-04	0	44	0	1150287872	20	4420
2026-01-29 02:03:31.18	247.34	8.91	-29.8	-31.9	12.3	2.50e-04	0	44	0	1152385024	19	4604
2026-01-29 02:03:32.18	247.26	8.84	-29.8	-32.1	12.2	6.64e-04	0	44	0	1154482176	19	4663
2026-01-29 02:03:33.19	247.18	8.76	-29.9	-31.7	12.0	3.63e-04	0	44	0	1156579328	20	4474
2026-01-29 02:03:34.19	247.10	8.69	-29.8	-31.4	12.2	2.37e-04	0	44	0	1158676480	20	4358
2026-01-29 02:03:35.19	247.01	8.62	-29.8	-31.9	12.3	1.68e-04	0	44	0	1160773632	19	4599
2026-01-29 02:03:36.19	246.94	8.54	-29.9	-32.2	12.0	7.25e-04	0	43	0	1161822208	19	4723
2026-01-29 02:03:37.20	246.86	8.47	-29.9	-32.2	12.1	2.75e-04	0	43	0	1163919360	19	4718
2026-01-29 02:03:38.20	246.78	8.40	-29.9	-32.0	11.8	4.33e-04	0	43	0	1166016512	20	4566
2026-01-29 02:03:39.20	246.70	8.32	-29.9	-32.0	11.7	5.51e-04	0	44	0	1168113664	20	4564
2026-01-29 02:03:40.21	246.62	8.25	-29.1	-31.5	11.4	8.70e-04	0	43	0	1169162240	20	4746
2026-01-29 02:03:41.21	246.54	8.18	-30.2	-33.4	11.1	1.12e-03	0	43	0	1171259392	19	5167
2026-01-29 02:03:42.21	246.46	8.11	-30.3	-33.2	10.9	1.62e-03	0	44	0	1173356544	20	5000
2026-01-29 02:03:43.21	246.39	8.04	-30.4	-33.4	10.5	3.47e-03	0	43	0	1175453696	20	5092
2026-01-29 02:03:44.22	246.31	7.96	-30.4	-33.6	10.3	4.40e-03	0	44	0	1177550848	20	5196
2026-01-29 02:03:45.23	246.23	7.89	-30.5	-33.3	10.4	4.59e-03	0	44	0	1178599424	21	4971
2026-01-29 02:03:46.23	246.16	7.82	-30.5	-33.3	10.4	4.28e-03	0	44	0	1180696576	21	4978
2026-01-29 02:03:47.24	246.08	7.75	-30.5	-33.5	10.2	4.57e-03	0	44	0	1182793728	21	5061
2026-01-29 02:03:48.24	246.01	7.68	-30.6	-33.7	10.1	7.06e-03	0	44	0	1184890880	21	5138
2026-01-29 02:03:49.25	245.93	7.61	-30.6	-33.9	9.9	6.72e-03	0	44	0	1186988032	21	5223
2026-01-29 02:03:50.25	245.86	7.53	-30.6	-33.9	9.9	9.41e-03	0	44	0	1188036608	21	5220
2026-01-29 02:03:51.25	245.78	7.46	-30.7	-34.1	9.7	9.75e-03	0	44	0	1190133760	21	5334
2026-01-29 02:03:52.26	245.71	7.39	-30.8	-34.4	9.5	1.31e-02	0	44	0	1192230912	21	5492
2026-01-29 02:03:53.27	245.63	7.32	-30.6	-34.0	9.8	1.07e-02	0	44	0	1194328064	21	5297
2026-01-29 02:03:54.27	245.56	7.25	-30.7	-34.0	9.7	1.07e-02	0	44	0	1196425216	21	5303
2026-01-29 02:03:55.27	245.49	7.18	-29.7	-33.7	9.5	1.35e-02	0	44	0	1197473792	20	5672
2026-01-29 02:03:56.27	245.42	7.11	-31.3	-36.1	8.2	1.39e-02	0	44	0	1199570944	22	6227
2026-01-29 02:03:57.27	245.35	7.04	-32.9	-45.5	3.8	1.49e+00	0	44	104	1199570944	25	15358
2026-01-29 02:03:58.27	245.27	6.97	-33.3	-45.8	3.8	1.49e+00	0	44	104	1199570944	26	15221
2026-01-29 02:03:59.28	245.20	6.90	-33.5	-45.8	3.8	1.49e+00	0	43	104	1199570944	27	14736
2026-01-29 02:04:00.28	245.13	6.83	-33.7	-46.2	3.8	1.49e+00	0	44	104	1199570944	27	15052

#Closed at: 2026-01-29 02:04:00
#Recorded file [1199 MB]: D:/data/31010_260129_045316.dat