passes_logs/2026/01/29/R2M6_AANII_01/R2M6_AANII_01__20260129_160607_FENGYUN_3E_rec.log

#Pass ID: 20260129_160607_FENGYUN 3E
#Satellite: FENGYUN 3E
#Configuration: FENGYUN 3E
#almurnet v.1.7.20240730
#Start time: 2026-01-29 16:06:08

#Version: 2.2.20231116
#Station: R2M6_AANII_01
#Location: 30.233357 lon 59.946436 lat
#TLE: 1 49008U 21062A   26028.95833242 -.00000015  00000+0  13843-4 0  9995
#TLE: 2 49008  98.7500  33.9242 0002547 112.2873 247.8573 14.19887818236829

#Time	Az	El	Level	Level2	SNR	BER	BlckErr	Temp	State	Recorded	gain1	gain2
2026-01-29 16:06:08.32	209.05	7.04	-28.2	-30.0	5.6	7.51e-01	0	41	0	0	16	4383
2026-01-29 16:06:09.31	209.13	7.10	-30.0	-32.5	5.1	7.83e-01	0	41	104	0	20	4837
2026-01-29 16:06:10.32	209.22	7.17	-29.8	-32.1	8.7	3.29e-02	0	41	0	0	20	4664
2026-01-29 16:06:11.32	209.31	7.23	-30.0	-32.7	8.3	6.57e-02	0	41	0	7340032	20	4882
2026-01-29 16:06:12.32	209.40	7.30	-29.6	-31.4	9.2	3.35e-02	0	41	0	14680064	20	4434
2026-01-29 16:06:13.32	209.49	7.36	-29.3	-31.0	9.8	1.25e-02	0	41	0	22020096	19	4376
2026-01-29 16:06:14.33	209.59	7.43	-28.9	-30.4	10.6	5.67e-03	0	41	0	28311552	18	4308
2026-01-29 16:06:15.33	209.68	7.49	-28.6	-29.7	11.0	2.11e-03	0	41	0	35651584	18	4087
2026-01-29 16:06:16.33	209.77	7.56	-28.2	-29.2	11.7	7.32e-04	0	41	0	42991616	17	4046
2026-01-29 16:06:17.34	209.86	7.63	-27.9	-29.1	12.0	3.55e-04	0	41	0	50331648	16	4131
2026-01-29 16:06:18.34	209.95	7.69	-27.8	-28.9	12.2	2.40e-04	0	41	0	57671680	16	4068
2026-01-29 16:06:19.35	210.05	7.76	-27.9	-29.1	12.1	3.56e-04	0	41	0	65011712	16	4132
2026-01-29 16:06:20.35	210.14	7.83	-27.6	-28.3	12.6	1.28e-04	0	41	0	72351744	16	3913
2026-01-29 16:06:21.36	210.24	7.89	-27.5	-28.0	12.7	7.32e-05	0	41	0	79691776	16	3838
2026-01-29 16:06:22.36	210.33	7.96	-27.2	-28.0	12.9	5.14e-05	0	41	0	85983232	15	3927
2026-01-29 16:06:23.37	210.43	8.03	-27.2	-27.9	13.0	3.66e-05	0	41	0	94371840	15	3905
2026-01-29 16:06:24.37	210.52	8.10	-27.1	-27.7	13.1	4.00e-05	0	41	0	101711872	15	3862
2026-01-29 16:06:25.37	210.62	8.16	-27.2	-27.9	13.0	3.66e-05	0	41	0	108003328	15	3901
2026-01-29 16:06:26.37	210.71	8.23	-27.2	-27.8	13.0	8.69e-05	0	41	0	115343360	15	3886
2026-01-29 16:06:27.38	210.81	8.30	-27.0	-27.5	13.2	3.20e-05	0	42	0	122683392	15	3814
2026-01-29 16:06:28.38	210.91	8.36	-26.7	-27.4	13.6	1.71e-05	0	42	0	130023424	14	3869
2026-01-29 16:06:29.38	211.00	8.43	-26.6	-27.1	13.7	8.00e-06	0	41	0	137363456	14	3811
2026-01-29 16:06:30.39	211.10	8.50	-26.5	-26.9	13.9	4.50e-06	0	41	0	144703488	14	3754
2026-01-29 16:06:31.39	211.20	8.57	-26.6	-27.0	13.8	5.70e-06	0	42	0	152043520	14	3787
2026-01-29 16:06:32.40	211.30	8.64	-26.7	-27.2	13.7	8.00e-06	0	42	0	159383552	14	3833
2026-01-29 16:06:33.40	211.40	8.70	-26.5	-26.9	13.9	1.10e-06	0	42	0	166723584	14	3758
2026-01-29 16:06:34.40	211.50	8.77	-26.5	-26.8	14.0	2.20e-06	0	42	0	173015040	14	3724
2026-01-29 16:06:35.41	211.60	8.84	-26.6	-27.1	13.8	2.20e-06	0	42	0	180355072	14	3795
2026-01-29 16:06:36.41	211.70	8.91	-26.6	-27.1	13.8	6.80e-06	0	42	0	187695104	14	3792
2026-01-29 16:06:37.41	211.80	8.98	-26.5	-26.8	14.0	1.10e-06	0	42	0	195035136	14	3729
2026-01-29 16:06:38.42	211.90	9.05	-26.4	-27.1	14.1	1.10e-06	0	42	0	202375168	13	3889
2026-01-29 16:06:39.43	212.00	9.12	-26.4	-27.2	14.0	1.10e-06	0	42	0	209715200	13	3922
2026-01-29 16:06:40.43	212.11	9.18	-26.4	-27.0	14.2	3.40e-06	0	42	0	217055232	13	3880
2026-01-29 16:06:41.43	212.21	9.25	-26.4	-27.0	14.2	3.40e-06	0	42	0	224395264	13	3867
2026-01-29 16:06:42.44	212.31	9.32	-26.4	-27.0	14.1	1.10e-06	0	42	0	231735296	13	3877
2026-01-29 16:06:43.44	212.42	9.39	-26.4	-27.1	14.1	1.10e-06	0	42	0	239075328	13	3891
2026-01-29 16:06:44.45	212.52	9.46	-26.3	-26.9	14.2	2.20e-06	0	42	0	246415360	13	3856
2026-01-29 16:06:45.45	212.62	9.53	-26.3	-26.9	14.2	1.10e-06	0	42	0	252706816	13	3845
2026-01-29 16:06:46.45	212.73	9.60	-26.3	-26.8	14.3	3.40e-06	0	42	0	260046848	13	3820
2026-01-29 16:06:47.45	212.83	9.67	-26.5	-27.3	14.0	2.20e-06	0	42	0	267386880	13	3948
2026-01-29 16:06:48.46	212.94	9.74	-26.4	-27.2	14.1	3.40e-06	0	42	0	274726912	13	3919
2026-01-29 16:06:49.46	213.05	9.81	-26.5	-27.3	14.0	4.50e-06	0	42	0	282066944	13	3955
2026-01-29 16:06:50.46	213.15	9.88	-26.3	-27.0	14.2	1.10e-06	0	42	0	289406976	13	3869
2026-01-29 16:06:51.46	213.26	9.95	-26.5	-27.2	14.1	2.20e-06	0	42	0	296747008	13	3928
2026-01-29 16:06:52.47	213.37	10.02	-26.5	-27.3	14.0	3.40e-06	0	42	0	304087040	13	3957
2026-01-29 16:06:53.47	213.48	10.09	-26.4	-27.1	14.1	0.00e+00	0	42	0	311427072	13	3910
2026-01-29 16:06:54.48	213.59	10.16	-26.5	-27.3	14.1	1.10e-06	0	42	0	318767104	13	3949
2026-01-29 16:06:55.48	213.70	10.23	-26.3	-26.9	14.3	1.10e-06	0	42	0	326107136	13	3849
2026-01-29 16:06:56.48	213.81	10.30	-26.2	-26.7	14.4	0.00e+00	0	42	0	333447168	13	3811
2026-01-29 16:06:57.49	213.92	10.37	-26.2	-26.6	14.5	1.10e-06	0	42	0	339738624	13	3779
2026-01-29 16:06:58.50	214.03	10.44	-26.2	-26.7	14.4	0.00e+00	0	42	0	347078656	13	3808
2026-01-29 16:06:59.50	214.14	10.52	-26.2	-26.7	14.4	0.00e+00	0	42	0	354418688	13	3793
2026-01-29 16:07:00.50	214.25	10.59	-26.2	-26.7	14.4	0.00e+00	0	42	0	361758720	13	3794
2026-01-29 16:07:01.50	214.37	10.66	-26.3	-26.8	14.4	0.00e+00	0	42	0	369098752	13	3833
2026-01-29 16:07:02.50	214.48	10.73	-26.3	-26.8	14.4	2.20e-06	0	42	0	376438784	13	3813
2026-01-29 16:07:03.50	214.59	10.80	-26.1	-26.4	14.6	0.00e+00	0	42	0	383778816	13	3721
2026-01-29 16:07:04.51	214.71	10.87	-26.0	-26.3	14.7	0.00e+00	0	42	0	391118848	13	3695
2026-01-29 16:07:05.51	214.82	10.94	-25.9	-26.0	14.8	0.00e+00	0	42	0	398458880	13	3635
2026-01-29 16:07:06.51	214.94	11.01	-26.0	-26.1	14.8	2.20e-06	0	42	0	404750336	13	3650
2026-01-29 16:07:07.51	215.05	11.09	-26.1	-26.3	14.7	1.10e-06	0	42	0	412090368	13	3709
2026-01-29 16:07:08.52	215.17	11.16	-26.0	-26.1	14.8	0.00e+00	0	42	0	420478976	13	3662
2026-01-29 16:07:09.53	215.29	11.23	-25.9	-26.0	14.8	0.00e+00	0	42	0	426770432	13	3635
2026-01-29 16:07:10.53	215.41	11.30	-26.1	-26.3	14.7	0.00e+00	0	42	0	434110464	13	3710
2026-01-29 16:07:11.53	215.52	11.38	-26.0	-26.3	14.7	0.00e+00	0	42	0	441450496	13	3696
2026-01-29 16:07:12.53	215.64	11.45	-26.1	-26.3	14.7	0.00e+00	0	42	0	448790528	13	3704
2026-01-29 16:07:13.52	215.76	11.52	-26.1	-26.4	14.6	0.00e+00	0	42	0	456130560	13	3721
2026-01-29 16:07:14.52	215.88	11.59	-26.1	-26.5	14.6	0.00e+00	0	42	0	463470592	13	3737
2026-01-29 16:07:15.52	216.00	11.66	-26.1	-26.3	14.7	0.00e+00	0	42	0	470810624	13	3703
2026-01-29 16:07:16.52	216.12	11.74	-26.1	-26.3	14.7	2.20e-06	0	42	0	478150656	13	3705
2026-01-29 16:07:17.52	216.24	11.81	-26.1	-26.3	14.7	0.00e+00	0	43	0	484442112	13	3703
2026-01-29 16:07:18.53	216.36	11.88	-26.0	-26.2	14.8	1.10e-06	0	43	0	491782144	13	3669
2026-01-29 16:07:19.54	216.49	11.96	-26.0	-26.2	14.8	0.00e+00	0	42	0	499122176	13	3671
2026-01-29 16:07:20.54	216.61	12.03	-26.1	-26.4	14.7	0.00e+00	0	43	0	506462208	13	3730
2026-01-29 16:07:21.54	216.74	12.10	-26.2	-26.7	14.5	0.00e+00	0	43	0	513802240	13	3787
2026-01-29 16:07:22.54	216.86	12.18	-26.3	-26.9	14.4	0.00e+00	0	42	0	521142272	13	3842
2026-01-29 16:07:23.55	216.99	12.25	-26.2	-26.6	14.6	1.10e-06	0	42	0	528482304	13	3767
2026-01-29 16:07:24.55	217.11	12.32	-26.0	-26.1	14.8	0.00e+00	0	43	0	535822336	13	3662
2026-01-29 16:07:25.56	217.24	12.40	-25.9	-26.4	14.9	0.00e+00	0	43	0	543162368	12	3832
2026-01-29 16:07:26.55	217.36	12.47	-25.9	-26.5	14.9	0.00e+00	0	43	0	549453824	12	3840
2026-01-29 16:07:27.56	217.49	12.55	-26.0	-26.7	14.8	0.00e+00	0	43	0	556793856	12	3891
2026-01-29 16:07:28.57	217.62	12.62	-25.9	-26.4	15.0	0.00e+00	0	42	0	565182464	12	3817
2026-01-29 16:07:29.57	217.75	12.69	-25.8	-26.2	15.0	0.00e+00	0	43	0	571473920	12	3788
2026-01-29 16:07:30.58	217.88	12.77	-25.9	-26.3	15.0	0.00e+00	0	43	0	578813952	12	3808
2026-01-29 16:07:31.58	218.01	12.84	-25.8	-26.1	15.1	1.10e-06	0	42	0	586153984	12	3758
2026-01-29 16:07:32.59	218.14	12.92	-25.8	-26.1	15.1	0.00e+00	0	43	0	593494016	12	3753
2026-01-29 16:07:33.59	218.27	12.99	-25.9	-26.4	15.0	0.00e+00	0	43	0	600834048	12	3819
2026-01-29 16:07:34.59	218.40	13.07	-25.8	-26.3	15.1	0.00e+00	0	43	0	608174080	12	3792
2026-01-29 16:07:35.60	218.54	13.14	-25.8	-26.2	15.1	0.00e+00	0	43	0	615514112	12	3774
2026-01-29 16:07:36.60	218.67	13.22	-25.8	-26.1	15.2	0.00e+00	0	43	0	622854144	12	3759
2026-01-29 16:07:37.60	218.80	13.29	-25.8	-26.3	15.1	0.00e+00	0	43	0	630194176	12	3787
2026-01-29 16:07:38.61	218.94	13.37	-25.8	-26.3	15.1	0.00e+00	0	43	0	636485632	12	3795
2026-01-29 16:07:39.61	219.08	13.44	-25.9	-26.4	15.1	0.00e+00	0	43	0	644874240	12	3815
2026-01-29 16:07:40.61	219.21	13.52	-26.0	-26.6	14.9	0.00e+00	0	43	0	651165696	12	3882
2026-01-29 16:07:41.62	219.35	13.59	-25.9	-26.4	15.0	0.00e+00	0	43	0	658505728	12	3816
2026-01-29 16:07:42.62	219.49	13.67	-25.7	-26.1	15.2	0.00e+00	0	43	0	665845760	12	3746
2026-01-29 16:07:43.63	219.62	13.74	-25.7	-26.0	15.3	0.00e+00	0	43	0	673185792	12	3735
2026-01-29 16:07:44.64	219.76	13.82	-25.7	-26.1	15.2	0.00e+00	0	43	0	680525824	12	3738
2026-01-29 16:07:45.65	219.90	13.90	-25.6	-25.9	15.3	0.00e+00	0	43	0	687865856	12	3693
2026-01-29 16:07:46.65	220.04	13.97	-25.7	-26.0	15.2	0.00e+00	0	43	0	695205888	12	3736
2026-01-29 16:07:47.65	220.18	14.05	-25.7	-26.0	15.2	0.00e+00	0	43	0	702545920	12	3728
2026-01-29 16:07:48.65	220.33	14.12	-25.6	-25.8	15.4	0.00e+00	0	43	0	709885952	12	3669
2026-01-29 16:07:49.65	220.47	14.20	-25.6	-25.9	15.4	0.00e+00	0	43	0	716177408	12	3695
2026-01-29 16:07:50.66	220.61	14.27	-25.6	-25.7	15.4	0.00e+00	0	43	0	723517440	12	3661
2026-01-29 16:07:51.67	220.76	14.35	-25.6	-25.9	15.3	0.00e+00	0	43	0	731906048	12	3697
2026-01-29 16:07:52.67	220.90	14.43	-25.8	-26.2	15.1	0.00e+00	0	43	0	738197504	12	3782
2026-01-29 16:07:53.68	221.05	14.50	-25.6	-25.8	15.4	0.00e+00	0	43	0	745537536	12	3683
2026-01-29 16:07:54.68	221.19	14.58	-25.6	-25.7	15.5	0.00e+00	0	43	0	752877568	12	3653
2026-01-29 16:07:55.69	221.34	14.66	-25.4	-25.4	15.6	0.00e+00	0	43	0	760217600	12	3589
2026-01-29 16:07:56.69	221.49	14.73	-25.6	-25.7	15.5	0.00e+00	0	43	0	767557632	12	3657
2026-01-29 16:07:57.69	221.63	14.81	-25.4	-25.3	15.7	0.00e+00	0	43	0	774897664	12	3569
2026-01-29 16:07:58.68	221.78	14.88	-25.4	-25.8	15.8	0.00e+00	0	43	0	782237696	11	3777
2026-01-29 16:07:59.69	221.93	14.96	-25.4	-25.9	15.7	0.00e+00	0	43	0	789577728	11	3809
2026-01-29 16:08:00.69	222.08	15.04	-25.3	-25.7	15.8	0.00e+00	0	43	0	796917760	11	3752
2026-01-29 16:08:01.70	222.23	15.11	-25.4	-25.7	15.8	0.00e+00	0	43	0	803209216	11	3754
2026-01-29 16:08:02.70	222.38	15.19	-25.4	-25.8	15.8	0.00e+00	0	43	0	810549248	11	3768
2026-01-29 16:08:03.70	222.54	15.27	-25.3	-25.5	16.0	0.00e+00	0	43	0	817889280	11	3700
2026-01-29 16:08:04.71	222.69	15.35	-25.3	-25.5	15.9	0.00e+00	0	43	0	825229312	11	3702
2026-01-29 16:08:05.71	222.84	15.42	-25.3	-25.5	16.0	0.00e+00	0	43	0	832569344	11	3702
2026-01-29 16:08:06.71	223.00	15.50	-25.4	-25.8	15.8	0.00e+00	0	43	0	839909376	11	3766
2026-01-29 16:08:07.72	223.15	15.58	-25.2	-25.5	16.0	0.00e+00	0	43	0	847249408	11	3692
2026-01-29 16:08:08.72	223.31	15.65	-24.9	-24.8	16.3	0.00e+00	0	43	0	854589440	11	3549
2026-01-29 16:08:09.72	223.47	15.73	-24.7	-24.8	16.6	0.00e+00	0	43	0	861929472	10	3642
2026-01-29 16:08:10.73	223.63	15.81	-24.7	-24.8	16.6	0.00e+00	0	43	0	869269504	10	3640
2026-01-29 16:08:11.73	223.78	15.88	-24.9	-25.3	16.4	0.00e+00	0	43	0	876609536	10	3743
2026-01-29 16:08:12.74	223.94	15.96	-24.8	-25.0	16.5	0.00e+00	0	43	0	882900992	10	3691
2026-01-29 16:08:13.74	224.10	16.04	-24.8	-25.1	16.5	0.00e+00	0	43	0	890241024	10	3703
2026-01-29 16:08:14.73	224.26	16.12	-24.9	-25.1	16.5	0.00e+00	0	43	0	897581056	10	3713
2026-01-29 16:08:15.74	224.43	16.19	-24.9	-25.3	16.4	0.00e+00	0	43	0	904921088	10	3764
2026-01-29 16:08:16.73	224.59	16.27	-24.9	-25.3	16.4	0.00e+00	0	43	0	912261120	10	3754
2026-01-29 16:08:17.74	224.75	16.35	-25.0	-25.5	16.3	0.00e+00	0	43	0	919601152	10	3792
2026-01-29 16:08:18.74	224.92	16.43	-24.9	-25.2	16.4	0.00e+00	0	43	0	926941184	10	3744
2026-01-29 16:08:19.75	225.08	16.50	-24.9	-25.1	16.5	0.00e+00	0	43	0	934281216	10	3719
2026-01-29 16:08:20.75	225.25	16.58	-24.9	-25.1	16.5	0.00e+00	0	43	0	941621248	10	3719
2026-01-29 16:08:21.75	225.41	16.66	-24.8	-24.9	16.6	0.00e+00	0	43	0	947912704	10	3671
2026-01-29 16:08:22.75	225.58	16.73	-24.6	-24.7	16.8	0.00e+00	0	43	0	955252736	10	3607
2026-01-29 16:08:23.76	225.75	16.81	-24.5	-24.4	16.9	0.00e+00	0	43	0	962592768	10	3549
2026-01-29 16:08:24.76	225.92	16.89	-24.6	-24.5	16.9	0.00e+00	0	43	0	969932800	10	3570
2026-01-29 16:08:25.77	226.09	16.97	-24.7	-24.7	16.7	0.00e+00	0	43	0	977272832	10	3616
2026-01-29 16:08:26.77	226.26	17.05	-24.8	-25.0	16.6	0.00e+00	0	43	0	984612864	10	3693
2026-01-29 16:08:27.77	226.43	17.12	-24.7	-24.9	16.7	0.00e+00	0	43	0	991952896	10	3651
2026-01-29 16:08:28.77	226.60	17.20	-24.7	-24.7	16.7	0.00e+00	0	43	0	999292928	10	3611
2026-01-29 16:08:29.77	226.78	17.28	-24.6	-24.7	16.8	0.00e+00	0	43	0	1006632960	10	3603
2026-01-29 16:08:30.78	226.95	17.36	-24.7	-24.9	16.7	0.00e+00	0	43	0	1013972992	10	3656
2026-01-29 16:08:31.79	227.13	17.43	-24.6	-24.5	16.9	0.00e+00	0	43	0	1021313024	10	3580
2026-01-29 16:08:32.79	227.31	17.51	-24.5	-24.4	16.9	0.00e+00	0	43	0	1028653056	10	3549
2026-01-29 16:08:33.79	227.48	17.59	-24.5	-24.4	16.9	0.00e+00	0	43	0	1034944512	10	3555
2026-01-29 16:08:34.79	227.66	17.67	-24.7	-24.7	16.8	0.00e+00	0	43	0	1042284544	10	3620
2026-01-29 16:08:35.80	227.84	17.74	-24.5	-24.4	16.9	0.00e+00	0	43	0	1049624576	10	3544
2026-01-29 16:08:36.80	228.02	17.82	-24.5	-24.3	17.0	0.00e+00	0	43	0	1056964608	10	3522
2026-01-29 16:08:37.81	228.20	17.90	-24.5	-24.8	17.0	0.00e+00	0	43	0	1064304640	9	3736
2026-01-29 16:08:38.81	228.38	17.98	-24.4	-24.7	17.0	0.00e+00	0	43	0	1071644672	9	3721
2026-01-29 16:08:39.81	228.56	18.05	-24.6	-25.1	16.8	0.00e+00	0	43	0	1078984704	9	3800
2026-01-29 16:08:40.80	228.75	18.13	-24.5	-24.9	17.0	0.00e+00	0	43	0	1086324736	9	3756
2026-01-29 16:08:41.81	228.93	18.21	-24.7	-25.3	16.7	0.00e+00	0	43	0	1092616192	9	3862
2026-01-29 16:08:42.81	229.12	18.28	-24.6	-25.1	16.8	0.00e+00	0	43	0	1099956224	9	3812
2026-01-29 16:08:43.81	229.30	18.36	-24.5	-24.8	17.0	0.00e+00	0	43	0	1107296256	9	3736
2026-01-29 16:08:44.81	229.49	18.44	-24.4	-24.7	17.1	0.00e+00	0	43	0	1114636288	9	3712
2026-01-29 16:08:45.82	229.68	18.52	-24.4	-24.7	17.0	0.00e+00	0	43	0	1121976320	9	3721
2026-01-29 16:08:46.83	229.87	18.59	-24.4	-24.7	17.0	0.00e+00	0	43	0	1129316352	9	3722
2026-01-29 16:08:47.83	230.06	18.67	-24.4	-24.6	17.1	0.00e+00	0	43	0	1136656384	9	3703
2026-01-29 16:08:48.83	230.25	18.75	-24.5	-24.8	17.0	0.00e+00	0	43	0	1143996416	9	3748
2026-01-29 16:08:49.84	230.44	18.82	-24.4	-24.7	17.1	0.00e+00	0	43	0	1151336448	9	3708
2026-01-29 16:08:50.85	230.63	18.90	-24.3	-24.4	17.2	0.00e+00	0	43	0	1158676480	9	3655
2026-01-29 16:08:51.85	230.83	18.98	-24.3	-24.5	17.1	0.00e+00	0	43	0	1166016512	9	3685
2026-01-29 16:08:52.85	231.02	19.05	-24.2	-24.3	17.3	0.00e+00	0	43	0	1173356544	9	3621
2026-01-29 16:08:53.85	231.22	19.13	-24.3	-24.5	17.2	0.00e+00	0	43	0	1179648000	9	3664
2026-01-29 16:08:54.85	231.41	19.21	-24.1	-24.1	17.4	0.00e+00	0	43	0	1186988032	9	3582
2026-01-29 16:08:55.85	231.61	19.28	-24.0	-23.9	17.5	0.00e+00	0	43	0	1194328064	9	3540
2026-01-29 16:08:56.86	231.81	19.36	-24.1	-24.1	17.4	0.00e+00	0	43	0	1201668096	9	3573
2026-01-29 16:08:57.87	232.01	19.44	-24.1	-23.9	17.5	0.00e+00	0	43	0	1209008128	9	3550
2026-01-29 16:08:58.87	232.21	19.51	-24.2	-24.2	17.4	0.00e+00	0	43	0	1216348160	9	3610
2026-01-29 16:08:59.88	232.41	19.59	-24.2	-24.2	17.4	0.00e+00	0	43	0	1223688192	9	3602
2026-01-29 16:09:00.89	232.62	19.66	-24.3	-24.5	17.2	0.00e+00	0	43	0	1231028224	9	3679
2026-01-29 16:09:01.89	232.82	19.74	-24.1	-24.1	17.4	0.00e+00	0	43	0	1238368256	9	3582
2026-01-29 16:09:02.90	233.02	19.82	-24.1	-24.0	17.4	0.00e+00	0	43	0	1245708288	9	3567
2026-01-29 16:09:03.90	233.23	19.89	-24.2	-24.1	17.4	0.00e+00	0	43	0	1253048320	9	3593
2026-01-29 16:09:04.90	233.43	19.97	-24.1	-24.0	17.5	0.00e+00	0	43	0	1260388352	9	3558
2026-01-29 16:09:05.91	233.64	20.04	-24.0	-23.8	17.6	0.00e+00	0	43	0	1266679808	9	3523
2026-01-29 16:09:06.91	233.85	20.12	-24.2	-24.3	17.3	0.00e+00	0	43	0	1275068416	9	3620
2026-01-29 16:09:07.91	234.06	20.19	-24.1	-24.0	17.5	0.00e+00	0	43	0	1281359872	9	3561
2026-01-29 16:09:08.92	234.27	20.27	-24.1	-23.9	17.5	0.00e+00	0	43	0	1288699904	9	3548
2026-01-29 16:09:09.92	234.48	20.34	-24.1	-24.0	17.5	0.00e+00	0	43	0	1296039936	9	3560
2026-01-29 16:09:10.93	234.69	20.41	-24.1	-24.0	17.5	0.00e+00	0	43	0	1303379968	9	3558
2026-01-29 16:09:11.93	234.91	20.49	-24.2	-24.3	17.4	0.00e+00	0	43	0	1310720000	9	3618
2026-01-29 16:09:12.93	235.12	20.56	-24.1	-23.9	17.5	0.00e+00	0	43	0	1318060032	9	3537
2026-01-29 16:09:13.93	235.34	20.64	-24.0	-23.8	17.6	0.00e+00	0	43	0	1325400064	9	3513
2026-01-29 16:09:14.93	235.55	20.71	-24.0	-23.7	17.6	0.00e+00	0	43	0	1332740096	9	3500
2026-01-29 16:09:15.94	235.77	20.78	-24.0	-23.7	17.7	0.00e+00	0	43	0	1340080128	9	3494
2026-01-29 16:09:16.94	235.99	20.86	-23.8	-23.9	17.8	0.00e+00	0	43	0	1346371584	8	3644
2026-01-29 16:09:17.94	236.21	20.93	-23.8	-23.9	17.8	0.00e+00	0	43	0	1353711616	8	3635
2026-01-29 16:09:18.94	236.43	21.00	-23.9	-24.1	17.7	0.00e+00	0	43	0	1361051648	8	3677
2026-01-29 16:09:19.95	236.65	21.07	-23.7	-23.6	18.0	0.00e+00	0	43	0	1368391680	8	3569
2026-01-29 16:09:20.95	236.87	21.15	-23.6	-23.5	18.0	0.00e+00	0	43	0	1375731712	8	3539
2026-01-29 16:09:21.96	237.09	21.22	-23.6	-23.5	18.1	0.00e+00	0	43	0	1383071744	8	3540
2026-01-29 16:09:22.97	237.32	21.29	-23.9	-24.1	17.7	0.00e+00	0	43	0	1390411776	8	3685
2026-01-29 16:09:23.97	237.55	21.36	-23.8	-23.8	17.9	0.00e+00	0	43	0	1397751808	8	3621
2026-01-29 16:09:24.98	237.77	21.44	-23.8	-23.9	17.8	0.00e+00	0	43	0	1405091840	8	3629
2026-01-29 16:09:25.98	238.00	21.51	-24.0	-24.2	17.7	0.00e+00	0	43	0	1412431872	8	3715
2026-01-29 16:09:26.99	238.23	21.58	-24.0	-24.2	17.7	0.00e+00	0	43	0	1419771904	8	3707
2026-01-29 16:09:28.00	238.46	21.65	-24.1	-24.5	17.5	0.00e+00	0	43	0	1427111936	8	3779
2026-01-29 16:09:29.00	238.69	21.72	-23.9	-24.1	17.7	0.00e+00	0	43	0	1433403392	8	3678
2026-01-29 16:09:29.99	238.92	21.79	-23.9	-24.1	17.8	0.00e+00	0	43	0	1440743424	8	3680
2026-01-29 16:09:31.00	239.15	21.86	-24.0	-24.2	17.7	0.00e+00	0	43	0	1448083456	8	3707
2026-01-29 16:09:32.00	239.39	21.93	-23.8	-23.9	17.8	0.00e+00	0	43	0	1455423488	8	3647
2026-01-29 16:09:33.00	239.62	22.00	-24.0	-24.2	17.7	0.00e+00	0	43	0	1462763520	8	3702
2026-01-29 16:09:34.00	239.85	22.07	-23.9	-24.1	17.8	0.00e+00	0	43	0	1470103552	8	3675
2026-01-29 16:09:35.01	240.09	22.14	-24.0	-24.4	17.6	0.00e+00	0	43	0	1477443584	8	3747
2026-01-29 16:09:36.01	240.33	22.20	-24.2	-24.8	17.4	0.00e+00	0	43	0	1484783616	8	3831
2026-01-29 16:09:37.02	240.57	22.27	-24.0	-24.4	17.6	0.00e+00	0	43	0	1492123648	8	3745
2026-01-29 16:09:38.01	240.81	22.34	-24.2	-24.8	17.4	0.00e+00	0	43	0	1499463680	8	3832
2026-01-29 16:09:39.02	241.05	22.41	-23.9	-24.1	17.7	0.00e+00	0	43	0	1506803712	8	3682
2026-01-29 16:09:40.03	241.29	22.47	-23.9	-24.0	17.8	0.00e+00	0	43	0	1513095168	8	3664
2026-01-29 16:09:41.04	241.54	22.54	-23.9	-24.0	17.8	0.00e+00	0	44	0	1520435200	8	3649
2026-01-29 16:09:42.04	241.78	22.61	-24.0	-24.2	17.7	0.00e+00	0	43	0	1527775232	8	3711
2026-01-29 16:09:43.04	242.02	22.67	-23.7	-23.6	18.0	0.00e+00	0	43	0	1535115264	8	3564
2026-01-29 16:09:44.04	242.27	22.74	-23.5	-23.2	18.2	0.00e+00	0	43	0	1542455296	8	3475
2026-01-29 16:09:45.05	242.52	22.80	-23.5	-23.2	18.2	0.00e+00	0	43	0	1549795328	8	3473
2026-01-29 16:09:46.05	242.76	22.87	-23.5	-23.2	18.2	0.00e+00	0	43	0	1557135360	8	3487
2026-01-29 16:09:47.06	243.01	22.93	-23.6	-23.4	18.1	0.00e+00	0	43	0	1564475392	8	3523
2026-01-29 16:09:48.06	243.26	23.00	-23.5	-23.2	18.2	0.00e+00	0	43	0	1571815424	8	3491
2026-01-29 16:09:49.07	243.52	23.06	-23.6	-23.4	18.1	0.00e+00	0	43	0	1579155456	8	3535
2026-01-29 16:09:50.06	243.76	23.12	-23.6	-23.4	18.1	0.00e+00	0	43	0	1586495488	8	3533
2026-01-29 16:09:51.06	244.02	23.19	-23.4	-23.1	18.3	0.00e+00	0	43	0	1592786944	8	3459
2026-01-29 16:09:52.07	244.27	23.25	-23.5	-23.3	18.2	0.00e+00	0	43	0	1600126976	8	3495
2026-01-29 16:09:53.07	244.53	23.31	-23.5	-23.2	18.2	0.00e+00	0	43	0	1607467008	8	3487
2026-01-29 16:09:54.07	244.78	23.37	-23.6	-23.4	18.2	0.00e+00	0	43	0	1614807040	8	3514
2026-01-29 16:09:55.07	245.04	23.44	-23.5	-23.2	18.2	0.00e+00	0	43	0	1622147072	8	3484
2026-01-29 16:09:56.08	245.30	23.50	-23.5	-23.3	18.2	0.00e+00	0	43	0	1629487104	8	3498
2026-01-29 16:09:57.08	245.55	23.56	-23.6	-23.4	18.2	0.00e+00	0	43	0	1636827136	8	3531
2026-01-29 16:09:58.09	245.82	23.62	-23.7	-23.7	18.0	0.00e+00	0	43	0	1644167168	8	3590
2026-01-29 16:09:59.09	246.08	23.68	-23.6	-23.5	18.1	0.00e+00	0	43	0	1651507200	8	3552
2026-01-29 16:10:00.09	246.34	23.73	-23.7	-23.6	18.1	0.00e+00	0	43	0	1658847232	8	3567
2026-01-29 16:10:01.08	246.60	23.79	-23.6	-23.5	18.1	0.00e+00	0	43	0	1665138688	8	3559
2026-01-29 16:10:02.08	246.86	23.85	-23.5	-23.3	18.2	0.00e+00	0	43	0	1672478720	8	3495
2026-01-29 16:10:03.09	247.12	23.91	-23.5	-23.3	18.2	0.00e+00	0	43	0	1679818752	8	3512
2026-01-29 16:10:04.09	247.39	23.96	-23.5	-23.2	18.2	0.00e+00	0	43	0	1687158784	8	3494
2026-01-29 16:10:05.10	247.66	24.02	-23.6	-23.4	18.2	0.00e+00	0	43	0	1694498816	8	3520
2026-01-29 16:10:06.10	247.92	24.08	-23.7	-23.8	18.0	0.00e+00	0	43	0	1701838848	8	3604
2026-01-29 16:10:07.11	248.19	24.13	-23.6	-23.5	18.1	0.00e+00	0	43	0	1709178880	8	3554
2026-01-29 16:10:08.11	248.46	24.19	-23.5	-23.2	18.3	3.40e-06	0	43	0	1716518912	8	3491
2026-01-29 16:10:09.11	248.73	24.24	-23.4	-23.5	18.3	0.00e+00	0	43	0	1722810368	7	3650
2026-01-29 16:10:10.12	249.00	24.30	-23.4	-23.4	18.4	0.00e+00	0	43	0	1731198976	7	3627
2026-01-29 16:10:11.13	249.28	24.35	-23.2	-23.0	18.6	0.00e+00	0	43	0	1738539008	7	3543
2026-01-29 16:10:12.13	249.55	24.40	-23.2	-23.1	18.5	0.00e+00	0	43	0	1744830464	7	3554
2026-01-29 16:10:13.13	249.82	24.45	-23.4	-23.5	18.4	0.00e+00	0	43	0	1752170496	7	3638
2026-01-29 16:10:14.14	250.10	24.51	-23.1	-23.0	18.6	0.00e+00	0	43	0	1759510528	7	3539
2026-01-29 16:10:15.14	250.37	24.56	-23.1	-22.8	18.7	0.00e+00	0	43	0	1766850560	7	3500
2026-01-29 16:10:16.14	250.65	24.61	-23.0	-22.7	18.7	0.00e+00	0	43	0	1774190592	7	3485
2026-01-29 16:10:17.15	250.93	24.66	-23.2	-23.1	18.5	0.00e+00	0	43	0	1781530624	7	3566
2026-01-29 16:10:18.16	251.21	24.71	-23.4	-23.5	18.3	0.00e+00	0	43	0	1788870656	7	3641
2026-01-29 16:10:19.17	251.49	24.76	-23.3	-23.3	18.4	0.00e+00	0	43	0	1796210688	7	3602
2026-01-29 16:10:20.17	251.77	24.80	-23.2	-23.2	18.5	0.00e+00	0	43	0	1803550720	7	3568
2026-01-29 16:10:21.18	252.05	24.85	-23.3	-23.3	18.5	0.00e+00	0	43	0	1810890752	7	3596
2026-01-29 16:10:22.18	252.33	24.90	-23.4	-23.5	18.3	0.00e+00	0	43	0	1818230784	7	3656
2026-01-29 16:10:23.19	252.61	24.94	-23.1	-23.0	18.6	0.00e+00	0	43	0	1825570816	7	3529
2026-01-29 16:10:24.19	252.90	24.99	-23.1	-23.0	18.6	0.00e+00	0	43	0	1831862272	7	3527
2026-01-29 16:10:25.19	253.18	25.03	-23.2	-23.2	18.5	0.00e+00	0	43	0	1839202304	7	3577
2026-01-29 16:10:26.20	253.46	25.08	-23.3	-23.3	18.5	0.00e+00	0	43	0	1846542336	7	3598
2026-01-29 16:10:27.21	253.75	25.12	-23.3	-23.3	18.5	0.00e+00	0	44	0	1853882368	7	3605
2026-01-29 16:10:28.21	254.04	25.17	-23.5	-23.7	18.2	0.00e+00	0	43	0	1861222400	7	3694
2026-01-29 16:10:29.21	254.32	25.21	-23.3	-23.4	18.4	0.00e+00	0	43	0	1868562432	7	3624
2026-01-29 16:10:30.22	254.61	25.25	-23.2	-23.0	18.6	0.00e+00	0	43	0	1875902464	7	3541
2026-01-29 16:10:31.23	254.90	25.29	-23.1	-22.9	18.7	0.00e+00	0	43	0	1883242496	7	3514
2026-01-29 16:10:32.23	255.19	25.33	-23.0	-22.8	18.7	0.00e+00	0	43	0	1890582528	7	3488
2026-01-29 16:10:33.23	255.48	25.37	-23.1	-22.8	18.7	0.00e+00	0	43	0	1897922560	7	3501
2026-01-29 16:10:34.25	255.77	25.41	-23.1	-22.8	18.7	0.00e+00	0	43	0	1905262592	7	3501
2026-01-29 16:10:35.25	256.06	25.45	-23.2	-23.2	18.6	0.00e+00	0	43	0	1912602624	7	3571
2026-01-29 16:10:36.25	256.36	25.48	-23.2	-23.1	18.6	0.00e+00	0	43	0	1918894080	7	3553
2026-01-29 16:10:37.26	256.65	25.52	-23.2	-23.2	18.5	0.00e+00	0	43	0	1926234112	7	3582
2026-01-29 16:10:38.26	256.94	25.56	-23.3	-23.3	18.4	0.00e+00	0	43	0	1933574144	7	3616
2026-01-29 16:10:39.27	257.24	25.59	-23.3	-23.3	18.5	0.00e+00	0	43	0	1940914176	7	3611
2026-01-29 16:10:40.27	257.53	25.63	-23.5	-23.7	18.3	0.00e+00	0	44	0	1948254208	7	3690
2026-01-29 16:10:41.27	257.82	25.66	-23.2	-23.1	18.6	0.00e+00	0	43	0	1955594240	7	3551
2026-01-29 16:10:42.28	258.12	25.69	-23.1	-22.8	18.7	0.00e+00	0	43	0	1962934272	7	3503
2026-01-29 16:10:43.28	258.42	25.72	-23.1	-22.9	18.7	0.00e+00	0	44	0	1970274304	7	3509
2026-01-29 16:10:44.28	258.71	25.75	-23.2	-23.0	18.7	0.00e+00	0	44	0	1977614336	7	3537
2026-01-29 16:10:45.29	259.01	25.79	-23.1	-22.9	18.7	0.00e+00	0	43	0	1984954368	7	3525
2026-01-29 16:10:46.30	259.31	25.82	-23.2	-23.1	18.6	0.00e+00	0	43	0	1992294400	7	3554
2026-01-29 16:10:47.31	259.61	25.84	-23.2	-23.1	18.6	0.00e+00	0	44	0	1998585856	7	3553
2026-01-29 16:10:48.31	259.91	25.87	-23.2	-23.1	18.6	0.00e+00	0	43	0	2006974464	7	3558
2026-01-29 16:10:49.32	260.21	25.90	-23.3	-23.2	18.5	0.00e+00	0	43	0	2014314496	7	3587
2026-01-29 16:10:50.33	260.51	25.93	-23.4	-23.5	18.4	0.00e+00	0	43	0	2020605952	7	3642
2026-01-29 16:10:51.33	260.81	25.95	-23.4	-23.6	18.4	0.00e+00	0	43	0	2027945984	7	3664
2026-01-29 16:10:52.34	261.12	25.98	-23.3	-23.3	18.5	0.00e+00	0	43	0	2035286016	7	3607
2026-01-29 16:10:53.34	261.42	26.00	-23.2	-23.2	18.6	0.00e+00	0	43	0	2042626048	7	3577
2026-01-29 16:10:54.34	261.72	26.02	-23.2	-23.1	18.6	0.00e+00	0	43	0	2049966080	7	3557
2026-01-29 16:10:55.33	262.01	26.05	-23.1	-22.8	18.7	0.00e+00	0	43	0	2057306112	7	3497
2026-01-29 16:10:56.34	262.32	26.07	-23.0	-22.6	18.8	0.00e+00	0	43	0	2064646144	7	3461
2026-01-29 16:10:57.34	262.62	26.09	-23.0	-22.7	18.8	0.00e+00	0	43	0	2071986176	7	3470
2026-01-29 16:10:58.34	262.92	26.11	-23.0	-22.8	18.8	0.00e+00	0	43	0	2079326208	7	3488
2026-01-29 16:10:59.34	263.23	26.13	-23.1	-22.9	18.8	0.00e+00	0	43	0	2085617664	7	3509
2026-01-29 16:11:00.34	263.53	26.15	-23.0	-22.7	18.8	0.00e+00	0	44	0	2092957696	7	3475
2026-01-29 16:11:01.35	263.84	26.17	-23.0	-22.6	18.9	0.00e+00	0	43	0	2100297728	7	3457
2026-01-29 16:11:02.35	264.14	26.18	-22.9	-22.5	18.9	0.00e+00	0	44	0	2107637760	7	3436
2026-01-29 16:11:03.36	264.45	26.20	-22.9	-22.9	18.9	0.00e+00	0	43	0	2114977792	6	3609
2026-01-29 16:11:04.36	264.75	26.21	-22.8	-22.7	19.0	0.00e+00	0	43	0	2122317824	6	3582
2026-01-29 16:11:05.36	265.06	26.23	-22.9	-22.9	19.0	0.00e+00	0	43	0	2129657856	6	3609
2026-01-29 16:11:06.37	265.36	26.24	-23.0	-23.2	18.8	0.00e+00	0	43	0	2136997888	6	3675
2026-01-29 16:11:07.36	265.67	26.25	-22.9	-23.0	18.9	1.10e-06	0	44	0	2143289344	6	3642
2026-01-29 16:11:08.37	265.97	26.26	-23.0	-23.1	18.8	0.00e+00	0	43	0	2151677952	6	3667
2026-01-29 16:11:09.37	266.28	26.28	-23.0	-23.2	18.8	0.00e+00	0	43	0	2159017984	6	3681
2026-01-29 16:11:10.37	266.58	26.29	-23.1	-23.3	18.8	0.00e+00	0	44	0	2165309440	6	3703
2026-01-29 16:11:11.37	266.89	26.29	-23.1	-23.3	18.7	0.00e+00	0	43	0	2172649472	6	3699
2026-01-29 16:11:12.38	267.20	26.30	-23.0	-23.2	18.8	0.00e+00	0	43	0	2179989504	6	3681
2026-01-29 16:11:13.38	267.51	26.31	-23.1	-23.3	18.8	0.00e+00	0	43	0	2187329536	6	3711
2026-01-29 16:11:14.38	267.81	26.32	-23.0	-23.3	18.8	0.00e+00	0	43	0	2194669568	6	3694
2026-01-29 16:11:15.39	268.12	26.32	-22.9	-23.0	18.9	0.00e+00	0	43	0	2202009600	6	3631
2026-01-29 16:11:16.39	268.43	26.33	-22.9	-22.9	19.0	0.00e+00	0	43	0	2209349632	6	3614
2026-01-29 16:11:17.39	268.73	26.33	-22.9	-23.0	18.9	0.00e+00	0	43	0	2216689664	6	3628
2026-01-29 16:11:18.40	269.04	26.33	-22.9	-23.0	18.9	0.00e+00	0	44	0	2224029696	6	3623
2026-01-29 16:11:19.40	269.35	26.34	-23.0	-23.1	18.9	0.00e+00	0	43	0	2230321152	6	3652
2026-01-29 16:11:20.40	269.66	26.34	-23.0	-23.2	18.8	0.00e+00	0	43	0	2237661184	6	3693
2026-01-29 16:11:21.41	269.97	26.34	-23.0	-23.2	18.8	0.00e+00	0	43	0	2245001216	6	3690
2026-01-29 16:11:22.41	270.27	26.34	-23.1	-23.3	18.7	0.00e+00	0	43	0	2252341248	6	3699
2026-01-29 16:11:23.42	270.58	26.34	-23.1	-23.4	18.7	0.00e+00	0	43	0	2259681280	6	3728
2026-01-29 16:11:24.42	270.89	26.34	-23.1	-23.4	18.7	0.00e+00	0	43	0	2267021312	6	3726
2026-01-29 16:11:25.43	271.20	26.33	-23.1	-23.4	18.7	0.00e+00	0	43	0	2274361344	6	3730
2026-01-29 16:11:26.43	271.51	26.33	-23.1	-23.4	18.7	0.00e+00	0	43	0	2281701376	6	3713
2026-01-29 16:11:27.44	271.81	26.32	-23.1	-23.5	18.6	0.00e+00	0	43	0	2289041408	6	3739
2026-01-29 16:11:28.44	272.12	26.32	-23.1	-23.5	18.6	0.00e+00	0	43	0	2296381440	6	3744
2026-01-29 16:11:29.44	272.43	26.31	-23.1	-23.3	18.7	0.00e+00	0	43	0	2303721472	6	3709
2026-01-29 16:11:30.45	272.74	26.30	-23.1	-23.4	18.7	0.00e+00	0	43	0	2311061504	6	3723
2026-01-29 16:11:31.45	273.04	26.30	-23.1	-23.4	18.7	0.00e+00	0	44	0	2317352960	6	3725
2026-01-29 16:11:32.45	273.35	26.29	-23.1	-23.3	18.7	0.00e+00	0	43	0	2324692992	6	3711
2026-01-29 16:11:33.46	273.66	26.28	-23.1	-23.4	18.7	0.00e+00	0	44	0	2332033024	6	3727
2026-01-29 16:11:34.46	273.96	26.27	-23.1	-23.4	18.7	0.00e+00	0	43	0	2339373056	6	3722
2026-01-29 16:11:35.45	274.26	26.26	-22.8	-22.8	19.0	0.00e+00	0	43	0	2346713088	6	3586
2026-01-29 16:11:36.46	274.57	26.24	-22.8	-22.6	19.1	0.00e+00	0	43	0	2354053120	6	3557
2026-01-29 16:11:37.46	274.88	26.23	-22.8	-22.7	19.1	0.00e+00	0	44	0	2361393152	6	3570
2026-01-29 16:11:38.46	275.18	26.22	-22.9	-23.0	18.9	0.00e+00	0	43	0	2368733184	6	3626
2026-01-29 16:11:39.46	275.48	26.20	-23.0	-23.2	18.8	0.00e+00	0	44	0	2375024640	6	3689
2026-01-29 16:11:40.47	275.79	26.19	-23.1	-23.3	18.7	0.00e+00	0	43	0	2383413248	6	3704
2026-01-29 16:11:41.47	276.09	26.17	-23.1	-23.4	18.7	0.00e+00	0	44	0	2390753280	6	3724
2026-01-29 16:11:42.48	276.40	26.15	-23.1	-23.3	18.7	0.00e+00	0	43	0	2397044736	6	3707
2026-01-29 16:11:43.48	276.70	26.13	-23.0	-23.1	18.9	0.00e+00	0	43	0	2404384768	6	3646
2026-01-29 16:11:44.49	277.01	26.11	-23.0	-23.1	18.8	0.00e+00	0	43	0	2411724800	6	3666
2026-01-29 16:11:45.49	277.31	26.09	-23.1	-23.3	18.8	0.00e+00	0	43	0	2419064832	6	3702
2026-01-29 16:11:46.50	277.62	26.07	-23.1	-23.5	18.7	0.00e+00	0	43	0	2426404864	6	3743
2026-01-29 16:11:47.49	277.91	26.05	-23.2	-23.6	18.6	0.00e+00	0	43	0	2433744896	6	3770
2026-01-29 16:11:48.49	278.22	26.03	-23.3	-23.7	18.5	0.00e+00	0	44	0	2441084928	6	3802
2026-01-29 16:11:49.50	278.52	26.01	-23.3	-23.8	18.5	0.00e+00	0	43	0	2448424960	6	3824
2026-01-29 16:11:50.50	278.82	25.98	-23.4	-24.0	18.4	0.00e+00	0	43	0	2455764992	6	3867
2026-01-29 16:11:51.50	279.12	25.96	-23.4	-24.1	18.4	0.00e+00	0	43	0	2462056448	6	3883
2026-01-29 16:11:52.51	279.42	25.93	-23.5	-24.1	18.3	0.00e+00	0	44	0	2469396480	6	3891
2026-01-29 16:11:53.51	279.72	25.91	-23.5	-23.6	18.3	0.00e+00	0	43	0	2476736512	7	3675
2026-01-29 16:11:54.51	280.02	25.88	-23.2	-23.2	18.6	0.00e+00	0	43	0	2484076544	7	3568
2026-01-29 16:11:55.52	280.32	25.85	-23.0	-22.7	18.8	0.00e+00	0	43	0	2491416576	7	3480
2026-01-29 16:11:56.52	280.61	25.82	-23.1	-22.8	18.8	0.00e+00	0	43	0	2498756608	7	3493
2026-01-29 16:11:57.52	280.91	25.79	-23.1	-22.9	18.7	0.00e+00	0	43	0	2506096640	7	3504
2026-01-29 16:11:58.52	281.21	25.76	-23.1	-23.0	18.6	0.00e+00	0	43	0	2513436672	7	3531
2026-01-29 16:11:59.53	281.51	25.73	-23.2	-23.1	18.6	0.00e+00	0	44	0	2520776704	7	3553
2026-01-29 16:12:00.53	281.80	25.70	-23.0	-22.8	18.8	0.00e+00	0	43	0	2528116736	7	3488
2026-01-29 16:12:01.54	282.10	25.67	-23.0	-22.7	18.8	0.00e+00	0	43	0	2535456768	7	3471
2026-01-29 16:12:02.54	282.39	25.63	-23.1	-22.8	18.8	0.00e+00	0	44	0	2542796800	7	3493
2026-01-29 16:12:03.54	282.68	25.60	-23.1	-22.8	18.7	0.00e+00	0	44	0	2549088256	7	3493
2026-01-29 16:12:04.54	282.98	25.57	-23.0	-22.6	18.8	0.00e+00	0	43	0	2556428288	7	3454
2026-01-29 16:12:05.54	283.27	25.53	-23.2	-23.0	18.6	0.00e+00	0	43	0	2563768320	7	3540
2026-01-29 16:12:06.54	283.56	25.49	-23.2	-23.1	18.6	0.00e+00	0	44	0	2571108352	7	3570
2026-01-29 16:12:07.55	283.85	25.46	-23.4	-23.5	18.4	0.00e+00	0	43	0	2578448384	7	3638
2026-01-29 16:12:08.55	284.14	25.42	-23.4	-23.5	18.4	0.00e+00	0	43	0	2585788416	7	3649
2026-01-29 16:12:09.56	284.43	25.38	-23.3	-23.3	18.5	0.00e+00	0	43	0	2593128448	7	3609
2026-01-29 16:12:10.56	284.72	25.34	-23.4	-23.6	18.3	0.00e+00	0	43	0	2600468480	7	3667
2026-01-29 16:12:11.57	285.01	25.30	-23.5	-23.7	18.3	0.00e+00	0	43	0	2607808512	7	3677
2026-01-29 16:12:12.57	285.30	25.26	-23.3	-23.3	18.5	0.00e+00	0	43	0	2615148544	7	3589
2026-01-29 16:12:13.58	285.59	25.22	-23.3	-23.3	18.5	0.00e+00	0	43	0	2622488576	7	3608
2026-01-29 16:12:14.58	285.87	25.18	-23.4	-23.6	18.3	0.00e+00	0	44	0	2628780032	7	3666
2026-01-29 16:12:15.58	286.16	25.14	-23.5	-23.7	18.3	0.00e+00	0	43	0	2636120064	7	3695
2026-01-29 16:12:16.58	286.44	25.09	-23.5	-23.7	18.3	0.00e+00	0	43	0	2643460096	7	3689
2026-01-29 16:12:17.58	286.72	25.05	-23.6	-23.9	18.2	0.00e+00	0	43	0	2650800128	7	3746
2026-01-29 16:12:18.58	287.01	25.01	-23.8	-24.3	18.0	0.00e+00	0	43	0	2658140160	7	3823
2026-01-29 16:12:19.59	287.29	24.96	-23.7	-24.1	18.0	0.00e+00	0	43	0	2665480192	7	3787
2026-01-29 16:12:20.60	287.58	24.91	-23.6	-23.9	18.2	0.00e+00	0	44	0	2672820224	7	3730
2026-01-29 16:12:21.60	287.85	24.87	-23.5	-23.7	18.3	0.00e+00	0	44	0	2680160256	7	3686
2026-01-29 16:12:22.61	288.14	24.82	-23.4	-23.6	18.3	0.00e+00	0	43	0	2687500288	7	3661
2026-01-29 16:12:23.61	288.42	24.77	-23.3	-23.4	18.4	0.00e+00	0	43	0	2693791744	7	3617
2026-01-29 16:12:24.61	288.69	24.73	-23.5	-23.7	18.2	0.00e+00	0	43	0	2701131776	7	3693
2026-01-29 16:12:25.61	288.97	24.68	-23.5	-23.6	18.2	0.00e+00	0	43	0	2708471808	7	3672
2026-01-29 16:12:26.62	289.25	24.63	-23.5	-23.7	18.1	0.00e+00	0	44	0	2715811840	7	3693
2026-01-29 16:12:27.62	289.52	24.58	-23.5	-23.7	18.2	0.00e+00	0	43	0	2723151872	7	3690
2026-01-29 16:12:28.63	289.80	24.53	-23.4	-23.6	18.2	0.00e+00	0	43	0	2730491904	7	3674
2026-01-29 16:12:29.63	290.07	24.48	-23.5	-23.7	18.2	0.00e+00	0	43	0	2737831936	7	3689
2026-01-29 16:12:30.63	290.34	24.42	-23.5	-23.7	18.2	0.00e+00	0	44	0	2745171968	7	3696
2026-01-29 16:12:31.63	290.62	24.37	-23.5	-23.8	18.2	0.00e+00	0	43	0	2752512000	7	3710
2026-01-29 16:12:32.63	290.89	24.32	-23.6	-23.8	18.2	0.00e+00	0	43	0	2759852032	7	3719
2026-01-29 16:12:33.64	291.16	24.27	-23.6	-24.0	18.0	0.00e+00	0	43	0	2767192064	7	3755
2026-01-29 16:12:34.65	291.43	24.21	-23.7	-24.1	18.1	0.00e+00	0	44	0	2773483520	7	3778
2026-01-29 16:12:35.65	291.70	24.16	-23.8	-24.3	17.9	0.00e+00	0	43	0	2780823552	7	3835
2026-01-29 16:12:36.66	291.97	24.10	-23.8	-24.4	17.9	0.00e+00	0	44	0	2788163584	7	3846
2026-01-29 16:12:37.66	292.23	24.05	-23.9	-24.5	17.8	0.00e+00	0	43	0	2795503616	7	3882
2026-01-29 16:12:38.66	292.50	23.99	-23.8	-24.4	17.9	0.00e+00	0	43	0	2802843648	7	3835
2026-01-29 16:12:39.67	292.76	23.93	-23.9	-24.5	17.9	0.00e+00	0	43	0	2810183680	7	3880
2026-01-29 16:12:40.67	293.03	23.88	-23.8	-24.3	18.0	0.00e+00	0	43	0	2817523712	7	3820
2026-01-29 16:12:41.67	293.29	23.82	-23.4	-23.6	18.3	0.00e+00	0	43	0	2824863744	7	3670
2026-01-29 16:12:42.68	293.55	23.76	-23.3	-23.4	18.4	0.00e+00	0	43	0	2832203776	7	3629
2026-01-29 16:12:43.68	293.81	23.70	-23.3	-23.5	18.3	0.00e+00	0	43	0	2839543808	7	3647
2026-01-29 16:12:44.68	294.07	23.64	-23.3	-23.5	18.3	0.00e+00	0	43	0	2846883840	7	3643
2026-01-29 16:12:45.68	294.33	23.58	-23.4	-23.6	18.3	0.00e+00	0	43	0	2854223872	7	3675
2026-01-29 16:12:46.68	294.59	23.52	-23.5	-23.6	18.3	0.00e+00	0	43	0	2860515328	7	3673
2026-01-29 16:12:47.67	294.84	23.47	-23.5	-23.7	18.2	0.00e+00	0	43	0	2867855360	7	3704
2026-01-29 16:12:48.67	295.10	23.40	-23.5	-23.7	18.1	0.00e+00	0	43	0	2875195392	7	3689
2026-01-29 16:12:49.68	295.36	23.34	-23.5	-23.8	18.0	0.00e+00	0	43	0	2882535424	7	3723
2026-01-29 16:12:50.69	295.61	23.28	-23.7	-24.1	17.9	0.00e+00	0	43	0	2889875456	7	3781
2026-01-29 16:12:51.68	295.86	23.22	-23.8	-24.5	17.6	0.00e+00	0	43	0	2897215488	7	3867
2026-01-29 16:12:52.69	296.12	23.16	-23.9	-24.6	17.6	0.00e+00	0	43	0	2904555520	7	3897
2026-01-29 16:12:53.69	296.37	23.09	-23.9	-24.6	17.7	0.00e+00	0	43	0	2911895552	7	3895
2026-01-29 16:12:54.69	296.62	23.03	-23.9	-24.7	17.7	0.00e+00	0	43	0	2919235584	7	3915
2026-01-29 16:12:55.69	296.86	22.97	-24.0	-24.8	17.6	0.00e+00	0	43	0	2925527040	7	3952
2026-01-29 16:12:56.70	297.11	22.90	-24.1	-24.9	17.5	0.00e+00	0	43	0	2932867072	7	3973
2026-01-29 16:12:57.70	297.36	22.84	-24.0	-24.3	17.7	0.00e+00	0	43	0	2940207104	8	3720
2026-01-29 16:12:58.70	297.61	22.77	-24.0	-24.2	17.7	0.00e+00	0	43	0	2947547136	8	3702
2026-01-29 16:12:59.71	297.85	22.71	-24.0	-24.3	17.7	0.00e+00	0	43	0	2954887168	8	3729
2026-01-29 16:13:00.72	298.10	22.64	-24.1	-24.5	17.6	0.00e+00	0	44	0	2962227200	8	3771
2026-01-29 16:13:01.72	298.34	22.58	-24.0	-24.3	17.7	0.00e+00	0	44	0	2969567232	8	3716
2026-01-29 16:13:02.73	298.59	22.51	-23.9	-24.1	17.7	0.00e+00	0	43	0	2976907264	8	3689
2026-01-29 16:13:03.74	298.83	22.44	-23.9	-24.1	17.8	0.00e+00	0	43	0	2984247296	8	3674
2026-01-29 16:13:04.75	299.07	22.38	-23.9	-24.0	17.8	0.00e+00	0	43	0	2991587328	8	3644
2026-01-29 16:13:05.75	299.31	22.31	-23.9	-24.0	17.9	0.00e+00	0	43	0	2998927360	8	3646
2026-01-29 16:13:06.75	299.55	22.24	-24.0	-24.3	17.6	0.00e+00	0	43	0	3005218816	8	3732
2026-01-29 16:13:07.75	299.78	22.17	-23.9	-24.1	17.8	0.00e+00	0	43	0	3012558848	8	3685
2026-01-29 16:13:08.76	300.02	22.11	-23.9	-24.1	17.7	0.00e+00	0	44	0	3019898880	8	3684
2026-01-29 16:13:09.76	300.25	22.04	-24.1	-24.5	17.5	0.00e+00	0	43	0	3027238912	8	3764
2026-01-29 16:13:10.76	300.49	21.97	-24.1	-24.5	17.5	0.00e+00	0	43	0	3034578944	8	3768
2026-01-29 16:13:11.77	300.72	21.90	-24.0	-24.4	17.6	0.00e+00	0	43	0	3041918976	8	3736
2026-01-29 16:13:12.77	300.95	21.83	-24.1	-24.5	17.5	0.00e+00	0	44	0	3049259008	8	3770
2026-01-29 16:13:13.77	301.18	21.76	-24.0	-24.3	17.7	0.00e+00	0	44	0	3056599040	8	3732
2026-01-29 16:13:14.78	301.42	21.69	-24.0	-24.2	17.7	0.00e+00	0	44	0	3063939072	8	3709
2026-01-29 16:13:15.78	301.64	21.62	-24.1	-24.5	17.5	0.00e+00	0	43	0	3071279104	8	3773
2026-01-29 16:13:16.78	301.87	21.55	-24.0	-24.4	17.5	0.00e+00	0	43	0	3078619136	8	3736
2026-01-29 16:13:17.79	302.10	21.48	-24.1	-24.6	17.3	0.00e+00	0	43	0	3085959168	8	3789
2026-01-29 16:13:18.79	302.32	21.41	-24.2	-24.7	17.1	0.00e+00	0	43	0	3092250624	8	3805
2026-01-29 16:13:19.79	302.55	21.34	-24.2	-24.7	17.1	2.20e-06	0	44	0	3099590656	8	3829
2026-01-29 16:13:20.79	302.77	21.27	-24.2	-24.7	17.1	1.10e-06	0	44	0	3106930688	8	3815
2026-01-29 16:13:21.80	303.00	21.19	-24.2	-24.7	17.2	1.10e-06	0	43	0	3114270720	8	3824
2026-01-29 16:13:22.80	303.22	21.12	-24.4	-25.1	17.1	0.00e+00	0	43	0	3121610752	8	3900
2026-01-29 16:13:23.80	303.44	21.05	-24.4	-25.2	17.2	0.00e+00	0	43	0	3128950784	8	3934
2026-01-29 16:13:24.81	303.66	20.98	-24.3	-25.0	17.3	0.00e+00	0	43	0	3136290816	8	3884
2026-01-29 16:13:25.81	303.88	20.91	-24.3	-25.0	17.3	0.00e+00	0	44	0	3143630848	8	3880
2026-01-29 16:13:26.81	304.09	20.83	-24.4	-25.0	17.3	0.00e+00	0	43	0	3149922304	8	3885
2026-01-29 16:13:27.82	304.31	20.76	-24.3	-24.8	17.4	0.00e+00	0	43	0	3158310912	8	3847
2026-01-29 16:13:28.82	304.53	20.69	-24.3	-25.0	17.3	0.00e+00	0	44	0	3165650944	8	3883
2026-01-29 16:13:29.82	304.74	20.61	-24.3	-24.8	17.4	0.00e+00	0	43	0	3171942400	8	3838
2026-01-29 16:13:30.82	304.96	20.54	-24.5	-25.4	17.1	0.00e+00	0	43	0	3179282432	8	3965
2026-01-29 16:13:31.83	305.17	20.47	-24.3	-24.5	17.3	0.00e+00	0	44	0	3186622464	9	3652
2026-01-29 16:13:32.83	305.38	20.39	-24.2	-24.1	17.5	0.00e+00	0	44	0	3193962496	9	3581
2026-01-29 16:13:33.84	305.59	20.32	-24.2	-24.2	17.5	0.00e+00	0	44	0	3201302528	9	3594
2026-01-29 16:13:34.84	305.80	20.25	-24.4	-24.5	17.3	0.00e+00	0	43	0	3208642560	9	3676
2026-01-29 16:13:35.85	306.01	20.17	-24.4	-24.7	17.2	0.00e+00	0	44	0	3215982592	9	3715
2026-01-29 16:13:36.85	306.22	20.10	-24.6	-25.0	17.0	0.00e+00	0	44	0	3223322624	9	3781
2026-01-29 16:13:37.85	306.43	20.02	-24.6	-25.1	17.0	0.00e+00	0	44	0	3230662656	9	3797
2026-01-29 16:13:38.86	306.63	19.95	-24.7	-25.3	16.9	0.00e+00	0	43	0	3236954112	9	3848
2026-01-29 16:13:39.86	306.84	19.87	-24.7	-25.2	16.9	0.00e+00	0	43	0	3244294144	9	3826
2026-01-29 16:13:40.86	307.04	19.80	-24.7	-25.3	16.9	0.00e+00	0	43	0	3251634176	9	3854
2026-01-29 16:13:41.87	307.25	19.72	-24.9	-25.7	16.6	0.00e+00	0	44	0	3258974208	9	3944
2026-01-29 16:13:42.87	307.45	19.65	-24.8	-25.6	16.7	0.00e+00	0	43	0	3266314240	9	3918
2026-01-29 16:13:43.87	307.65	19.57	-24.9	-25.6	16.7	0.00e+00	0	43	0	3273654272	9	3931
2026-01-29 16:13:44.88	307.85	19.50	-24.9	-25.7	16.7	0.00e+00	0	43	0	3280994304	9	3943
2026-01-29 16:13:45.88	308.05	19.42	-24.9	-25.6	16.7	0.00e+00	0	43	0	3288334336	9	3927
2026-01-29 16:13:46.89	308.25	19.35	-24.9	-25.7	16.7	0.00e+00	0	43	0	3295674368	9	3944
2026-01-29 16:13:47.89	308.44	19.27	-25.1	-26.1	16.4	0.00e+00	0	43	0	3303014400	9	4047
2026-01-29 16:13:48.90	308.64	19.19	-25.0	-25.4	16.6	0.00e+00	0	43	0	3310354432	10	3763
2026-01-29 16:13:49.90	308.83	19.12	-24.9	-25.1	16.7	0.00e+00	0	43	0	3317694464	10	3707
2026-01-29 16:13:50.90	309.03	19.04	-24.9	-25.2	16.7	0.00e+00	0	44	0	3323985920	10	3715
2026-01-29 16:13:51.91	309.22	18.97	-24.9	-25.1	16.7	0.00e+00	0	43	0	3331325952	10	3711
2026-01-29 16:13:52.91	309.42	18.89	-24.9	-25.2	16.6	0.00e+00	0	43	0	3338665984	10	3730
2026-01-29 16:13:53.91	309.61	18.81	-24.8	-25.1	16.7	0.00e+00	0	43	0	3346006016	10	3689
2026-01-29 16:13:54.91	309.80	18.74	-24.9	-25.3	16.6	0.00e+00	0	43	0	3353346048	10	3737
2026-01-29 16:13:55.91	309.98	18.66	-24.9	-25.3	16.6	0.00e+00	0	44	0	3360686080	10	3739
2026-01-29 16:13:56.92	310.17	18.59	-25.4	-26.2	16.1	0.00e+00	0	44	0	3368026112	10	3962
2026-01-29 16:13:57.93	310.36	18.51	-25.2	-25.8	16.3	0.00e+00	0	43	0	3375366144	10	3856
2026-01-29 16:13:58.93	310.55	18.43	-25.0	-25.4	16.5	0.00e+00	0	44	0	3382706176	10	3769
2026-01-29 16:13:59.92	310.73	18.36	-24.9	-25.3	16.6	0.00e+00	0	44	0	3390046208	10	3742
2026-01-29 16:14:00.93	310.92	18.28	-25.0	-25.5	16.5	0.00e+00	0	44	0	3397386240	10	3788
2026-01-29 16:14:01.93	311.10	18.20	-25.0	-25.5	16.5	0.00e+00	0	44	0	3403677696	10	3787
2026-01-29 16:14:02.93	311.29	18.13	-25.1	-25.7	16.4	0.00e+00	0	43	0	3411017728	10	3840
2026-01-29 16:14:03.92	311.47	18.05	-25.1	-25.6	16.4	0.00e+00	0	44	0	3418357760	10	3824
2026-01-29 16:14:04.93	311.65	17.97	-25.1	-25.6	16.4	0.00e+00	0	43	0	3425697792	10	3817
2026-01-29 16:14:05.93	311.83	17.90	-25.1	-25.7	16.3	0.00e+00	0	43	0	3433037824	10	3843
2026-01-29 16:14:06.93	312.01	17.82	-24.9	-25.1	16.6	0.00e+00	0	44	0	3440377856	10	3712
2026-01-29 16:14:07.93	312.19	17.74	-24.7	-24.8	16.8	0.00e+00	0	44	0	3447717888	10	3629
2026-01-29 16:14:08.93	312.36	17.67	-24.6	-24.6	16.9	0.00e+00	0	43	0	3455057920	10	3584
2026-01-29 16:14:09.94	312.54	17.59	-24.7	-24.6	16.9	0.00e+00	0	43	0	3462397952	10	3598
2026-01-29 16:14:10.94	312.72	17.51	-24.5	-24.4	17.0	0.00e+00	0	44	0	3468689408	10	3543
2026-01-29 16:14:11.94	312.89	17.44	-24.7	-24.7	16.9	0.00e+00	0	44	0	3476029440	10	3615
2026-01-29 16:14:12.95	313.07	17.36	-24.6	-24.5	17.0	0.00e+00	0	43	0	3483369472	10	3574
2026-01-29 16:14:13.95	313.24	17.28	-24.7	-24.9	16.8	0.00e+00	0	43	0	3490709504	10	3645
2026-01-29 16:14:14.96	313.41	17.20	-24.7	-24.8	16.8	0.00e+00	0	44	0	3498049536	10	3630
2026-01-29 16:14:15.96	313.59	17.13	-24.9	-25.2	16.6	0.00e+00	0	44	0	3505389568	10	3729
2026-01-29 16:14:16.96	313.76	17.05	-24.9	-25.2	16.6	0.00e+00	0	43	0	3512729600	10	3727
2026-01-29 16:14:17.98	313.93	16.97	-25.1	-25.7	16.3	0.00e+00	0	44	0	3520069632	10	3840
2026-01-29 16:14:18.98	314.10	16.90	-25.3	-26.1	16.1	0.00e+00	0	43	0	3527409664	10	3930
2026-01-29 16:14:19.98	314.27	16.82	-25.6	-26.6	15.9	0.00e+00	0	44	0	3534749696	10	4062
2026-01-29 16:14:20.98	314.43	16.74	-25.5	-26.6	15.8	0.00e+00	0	44	0	3542089728	10	4052
2026-01-29 16:14:21.98	314.60	16.67	-25.8	-26.6	15.6	0.00e+00	0	43	0	3549429760	11	3950
2026-01-29 16:14:22.99	314.77	16.59	-26.0	-27.1	15.3	0.00e+00	0	43	0	3555721216	11	4084
2026-01-29 16:14:24.00	314.93	16.51	-25.8	-26.6	15.6	0.00e+00	0	44	0	3563061248	11	3948
2026-01-29 16:14:25.00	315.10	16.44	-25.6	-26.3	15.8	0.00e+00	0	44	0	3570401280	11	3878
2026-01-29 16:14:26.00	315.26	16.36	-25.6	-26.3	15.8	0.00e+00	0	43	0	3577741312	11	3878
2026-01-29 16:14:27.01	315.42	16.28	-25.4	-25.9	16.0	0.00e+00	0	44	0	3585081344	11	3789
2026-01-29 16:14:28.01	315.58	16.20	-25.4	-25.7	16.0	0.00e+00	0	44	0	3592421376	11	3740
2026-01-29 16:14:29.02	315.75	16.13	-25.5	-26.0	15.9	1.10e-06	0	43	0	3599761408	11	3814
2026-01-29 16:14:30.02	315.91	16.05	-25.3	-25.5	16.2	0.00e+00	0	43	0	3607101440	11	3688
2026-01-29 16:14:31.02	316.06	15.97	-25.1	-25.2	16.3	0.00e+00	0	43	0	3614441472	11	3628
2026-01-29 16:14:32.03	316.22	15.90	-25.1	-25.0	16.4	0.00e+00	0	43	0	3621781504	11	3589
2026-01-29 16:14:33.02	316.38	15.82	-25.1	-25.1	16.4	0.00e+00	0	43	0	3629121536	11	3605
2026-01-29 16:14:34.03	316.54	15.75	-25.2	-25.3	16.2	0.00e+00	0	43	0	3635412992	11	3652
2026-01-29 16:14:35.03	316.69	15.67	-25.0	-24.8	16.5	0.00e+00	0	44	0	3642753024	11	3542
2026-01-29 16:14:36.03	316.85	15.59	-25.0	-24.8	16.5	0.00e+00	0	43	0	3650093056	11	3541
2026-01-29 16:14:37.04	317.00	15.52	-25.0	-24.8	16.5	0.00e+00	0	44	0	3657433088	11	3545
2026-01-29 16:14:38.04	317.16	15.44	-25.1	-25.0	16.4	0.00e+00	0	43	0	3664773120	11	3587
2026-01-29 16:14:39.05	317.31	15.36	-25.3	-25.5	16.1	0.00e+00	0	43	0	3672113152	11	3696
2026-01-29 16:14:40.04	317.46	15.29	-25.3	-25.5	16.1	0.00e+00	0	43	0	3679453184	11	3695
2026-01-29 16:14:41.04	317.61	15.21	-25.6	-26.2	15.7	0.00e+00	0	44	0	3686793216	11	3865
2026-01-29 16:14:42.05	317.77	15.14	-25.6	-26.1	15.8	0.00e+00	0	43	0	3694133248	11	3851
2026-01-29 16:14:43.06	317.92	15.06	-25.9	-26.9	15.4	0.00e+00	0	43	0	3700424704	11	4026
2026-01-29 16:14:44.06	318.07	14.98	-25.9	-26.8	15.4	0.00e+00	0	43	0	3708813312	11	4007
2026-01-29 16:14:45.06	318.21	14.91	-26.0	-27.2	15.2	0.00e+00	0	44	0	3716153344	11	4103
2026-01-29 16:14:46.07	318.36	14.83	-26.1	-27.2	15.2	0.00e+00	0	43	0	3722444800	11	4114
2026-01-29 16:14:47.08	318.51	14.75	-26.1	-26.8	15.1	0.00e+00	0	43	0	3729784832	12	3919
2026-01-29 16:14:48.08	318.66	14.68	-26.3	-27.2	14.8	0.00e+00	0	44	0	3737124864	12	4013
2026-01-29 16:14:49.09	318.81	14.60	-26.1	-26.8	15.1	0.00e+00	0	44	0	3744464896	12	3912
2026-01-29 16:14:50.09	318.95	14.53	-26.0	-26.6	15.2	0.00e+00	0	43	0	3751804928	12	3858
2026-01-29 16:14:51.10	319.10	14.45	-26.0	-26.6	15.2	0.00e+00	0	44	0	3759144960	12	3850
2026-01-29 16:14:52.10	319.24	14.38	-26.0	-26.6	15.2	0.00e+00	0	44	0	3766484992	12	3859
2026-01-29 16:14:53.11	319.38	14.30	-25.8	-26.1	15.4	0.00e+00	0	44	0	3773825024	12	3750
2026-01-29 16:14:54.12	319.53	14.22	-25.6	-25.8	15.6	0.00e+00	0	44	0	3781165056	12	3667
2026-01-29 16:14:55.12	319.67	14.15	-25.6	-25.7	15.7	0.00e+00	0	43	0	3788505088	12	3639
2026-01-29 16:14:56.13	319.81	14.07	-25.7	-25.9	15.6	0.00e+00	0	43	0	3795845120	12	3683
2026-01-29 16:14:57.13	319.95	14.00	-25.4	-25.3	15.8	0.00e+00	0	44	0	3802136576	12	3570
2026-01-29 16:14:58.14	320.09	13.92	-25.4	-25.9	15.9	0.00e+00	0	44	0	3809476608	11	3780
2026-01-29 16:14:59.14	320.23	13.85	-25.4	-25.8	15.9	0.00e+00	0	44	0	3816816640	11	3769
2026-01-29 16:15:00.15	320.37	13.77	-25.4	-25.8	15.9	0.00e+00	0	43	0	3824156672	11	3755
2026-01-29 16:15:01.15	320.50	13.70	-25.5	-26.0	15.8	0.00e+00	0	44	0	3831496704	11	3811
2026-01-29 16:15:02.15	320.64	13.62	-25.5	-25.9	15.8	0.00e+00	0	43	0	3838836736	11	3792
2026-01-29 16:15:03.15	320.78	13.55	-25.5	-26.0	15.8	0.00e+00	0	44	0	3846176768	11	3804
2026-01-29 16:15:04.15	320.91	13.48	-25.6	-26.2	15.7	0.00e+00	0	44	0	3853516800	11	3862
2026-01-29 16:15:05.15	321.05	13.40	-25.7	-26.5	15.5	0.00e+00	0	44	0	3860856832	11	3931
2026-01-29 16:15:06.15	321.18	13.33	-25.9	-26.8	15.4	0.00e+00	0	43	0	3867148288	11	3999
2026-01-29 16:15:07.15	321.31	13.25	-25.9	-26.8	15.4	0.00e+00	0	43	0	3874488320	11	3995
2026-01-29 16:15:08.15	321.44	13.18	-25.9	-26.8	15.3	0.00e+00	0	44	0	3881828352	11	4011
2026-01-29 16:15:09.15	321.58	13.11	-26.0	-27.2	15.1	0.00e+00	0	43	0	3889168384	11	4110
2026-01-29 16:15:10.15	321.71	13.03	-26.0	-27.1	15.1	0.00e+00	0	44	0	3896508416	11	4082
2026-01-29 16:15:11.15	321.84	12.96	-26.1	-26.9	14.9	0.00e+00	0	43	0	3903848448	12	3942
2026-01-29 16:15:12.15	321.97	12.88	-26.2	-27.1	14.8	0.00e+00	0	43	0	3911188480	12	3994
2026-01-29 16:15:13.16	322.10	12.81	-26.2	-27.0	14.8	0.00e+00	0	44	0	3918528512	12	3960
2026-01-29 16:15:14.17	322.23	12.74	-26.1	-26.9	14.9	0.00e+00	0	44	0	3925868544	12	3946
2026-01-29 16:15:15.17	322.36	12.66	-26.1	-26.9	14.9	0.00e+00	0	44	0	3933208576	12	3930
2026-01-29 16:15:16.18	322.49	12.59	-26.1	-26.9	14.9	0.00e+00	0	44	0	3940548608	12	3935
2026-01-29 16:15:17.18	322.61	12.52	-26.2	-27.0	14.8	0.00e+00	0	43	0	3947888640	12	3962
2026-01-29 16:15:18.18	322.74	12.44	-26.2	-27.1	14.8	0.00e+00	0	44	0	3954180096	12	3988
2026-01-29 16:15:19.18	322.86	12.37	-26.3	-27.3	14.6	0.00e+00	0	43	0	3961520128	12	4033
2026-01-29 16:15:20.19	322.99	12.30	-26.1	-26.8	14.9	1.10e-06	0	44	0	3968860160	12	3925
2026-01-29 16:15:21.19	323.11	12.22	-26.0	-26.7	15.0	0.00e+00	0	43	0	3976200192	12	3886
2026-01-29 16:15:22.19	323.24	12.15	-26.0	-26.6	15.0	0.00e+00	0	44	0	3983540224	12	3867
2026-01-29 16:15:23.19	323.36	12.08	-26.0	-26.7	15.0	0.00e+00	0	44	0	3990880256	12	3883
2026-01-29 16:15:24.19	323.48	12.01	-26.0	-26.7	15.0	0.00e+00	0	44	0	3998220288	12	3878
2026-01-29 16:15:25.19	323.61	11.93	-26.0	-26.7	15.0	0.00e+00	0	44	0	4005560320	12	3883
2026-01-29 16:15:26.20	323.73	11.86	-25.9	-26.4	15.1	0.00e+00	0	44	0	4011851776	12	3819
2026-01-29 16:15:27.20	323.85	11.79	-26.0	-26.6	15.0	0.00e+00	0	44	0	4019191808	12	3852
2026-01-29 16:15:28.20	323.97	11.72	-26.0	-26.6	15.0	0.00e+00	0	44	0	4026531840	12	3861
2026-01-29 16:15:29.19	324.09	11.65	-26.1	-26.8	14.9	1.10e-06	0	44	0	4033871872	12	3910
2026-01-29 16:15:30.19	324.21	11.57	-25.9	-26.5	15.1	0.00e+00	0	43	0	4041211904	12	3828
2026-01-29 16:15:31.20	324.33	11.50	-26.1	-26.9	14.9	1.10e-06	0	44	0	4048551936	12	3924
2026-01-29 16:15:32.20	324.45	11.43	-26.0	-26.6	15.0	0.00e+00	0	43	0	4055891968	12	3871
2026-01-29 16:15:33.21	324.57	11.36	-26.0	-26.6	15.0	1.10e-06	0	44	0	4063232000	12	3862
2026-01-29 16:15:34.21	324.68	11.29	-26.1	-26.9	14.9	1.10e-06	0	43	0	4070572032	12	3928
2026-01-29 16:15:35.21	324.80	11.22	-26.0	-26.7	14.9	0.00e+00	0	43	0	4077912064	12	3891
2026-01-29 16:15:36.21	324.92	11.15	-26.1	-26.8	14.9	0.00e+00	0	43	0	4085252096	12	3922
2026-01-29 16:15:37.22	325.03	11.07	-26.0	-26.7	14.9	0.00e+00	0	43	0	4092592128	12	3890
2026-01-29 16:15:38.23	325.15	11.00	-26.1	-27.0	14.8	0.00e+00	0	44	0	4098883584	12	3955
2026-01-29 16:15:39.23	325.26	10.93	-26.1	-27.0	14.8	0.00e+00	0	43	0	4106223616	12	3950
2026-01-29 16:15:40.24	325.38	10.86	-26.2	-27.1	14.7	0.00e+00	0	43	0	4113563648	12	3977
2026-01-29 16:15:41.24	325.49	10.79	-26.2	-27.1	14.7	0.00e+00	0	44	0	4120903680	12	3982
2026-01-29 16:15:42.25	325.60	10.72	-26.3	-27.2	14.6	0.00e+00	0	44	0	4128243712	12	4009
2026-01-29 16:15:43.25	325.72	10.65	-26.2	-27.2	14.6	0.00e+00	0	43	0	4135583744	12	4005
2026-01-29 16:15:44.25	325.83	10.58	-26.3	-27.3	14.6	1.10e-06	0	44	0	4142923776	12	4047
2026-01-29 16:15:45.25	325.94	10.51	-26.5	-27.7	14.3	0.00e+00	0	43	0	4150263808	12	4143
2026-01-29 16:15:46.25	326.05	10.44	-26.4	-27.5	14.4	1.10e-06	0	43	0	4156555264	12	4101
2026-01-29 16:15:47.26	326.16	10.37	-26.4	-27.6	14.4	2.20e-06	0	43	0	4164943872	12	4109
2026-01-29 16:15:48.27	326.27	10.30	-26.5	-27.8	14.3	0.00e+00	0	43	0	4172283904	12	4158
2026-01-29 16:15:49.28	326.38	10.23	-26.5	-27.7	14.3	1.10e-06	0	43	0	4178575360	12	4147
2026-01-29 16:15:50.28	326.49	10.16	-26.6	-28.0	14.2	1.10e-06	0	44	0	4185915392	12	4214
2026-01-29 16:15:51.29	326.60	10.09	-26.8	-27.9	13.9	6.80e-06	0	43	0	4193255424	13	4086
2026-01-29 16:15:52.29	326.71	10.02	-27.0	-28.3	13.7	1.25e-05	0	44	0	4200595456	13	4199
2026-01-29 16:15:53.29	326.82	9.95	-26.7	-27.8	14.0	3.40e-06	0	43	0	4207935488	13	4064
2026-01-29 16:15:54.30	326.92	9.88	-26.6	-27.5	14.1	2.20e-06	0	44	0	4215275520	13	3994
2026-01-29 16:15:55.31	327.03	9.81	-26.7	-27.7	14.0	1.10e-06	0	43	0	4222615552	13	4034
2026-01-29 16:15:56.31	327.14	9.74	-26.7	-27.8	13.9	4.50e-06	0	44	0	4229955584	13	4053
2026-01-29 16:15:57.31	327.24	9.67	-26.8	-27.8	14.0	4.50e-06	0	43	0	4237295616	13	4072
2026-01-29 16:15:58.32	327.35	9.60	-26.9	-28.1	13.8	9.10e-06	0	43	0	4244635648	13	4138
2026-01-29 16:15:59.32	327.45	9.53	-26.8	-28.0	13.9	3.40e-06	0	43	0	4251975680	13	4106
2026-01-29 16:16:00.33	327.56	9.46	-26.9	-28.2	13.7	9.10e-06	0	44	0	4259315712	13	4160
2026-01-29 16:16:01.33	327.66	9.39	-26.8	-28.0	13.8	4.50e-06	0	43	0	4265607168	13	4116
2026-01-29 16:16:02.33	327.76	9.33	-26.9	-28.2	13.7	8.00e-06	0	44	0	4272947200	13	4160
2026-01-29 16:16:03.34	327.87	9.26	-26.9	-28.1	13.8	3.40e-06	0	44	0	4280287232	13	4141
2026-01-29 16:16:04.34	327.97	9.19	-27.0	-28.4	13.6	2.05e-05	0	43	0	4287627264	13	4216
2026-01-29 16:16:05.34	328.07	9.12	-26.8	-28.0	13.8	1.02e-05	0	43	0	4294967296	13	4114
2026-01-29 16:16:06.34	328.17	9.05	-26.8	-27.9	13.9	4.50e-06	0	43	0	4302307328	13	4085
2026-01-29 16:16:07.35	328.27	8.98	-26.8	-27.9	13.8	5.70e-06	0	43	0	4309647360	13	4098
2026-01-29 16:16:08.35	328.37	8.92	-26.8	-28.0	13.8	3.40e-06	0	44	0	4316987392	13	4114
2026-01-29 16:16:09.36	328.47	8.85	-26.8	-28.0	13.8	4.50e-06	0	44	0	4324327424	13	4118
2026-01-29 16:16:10.36	328.57	8.78	-26.8	-27.9	13.8	5.70e-06	0	43	0	4331667456	13	4102
2026-01-29 16:16:11.36	328.67	8.71	-26.8	-28.0	13.8	9.10e-06	0	43	0	4339007488	13	4117
2026-01-29 16:16:12.37	328.77	8.65	-26.8	-27.9	13.8	5.70e-06	0	43	0	4346347520	13	4080
2026-01-29 16:16:13.37	328.87	8.58	-26.8	-27.8	13.8	5.70e-06	0	43	0	4352638976	13	4071
2026-01-29 16:16:14.37	328.97	8.51	-26.8	-27.8	13.8	5.70e-06	0	43	0	4359979008	13	4081
2026-01-29 16:16:15.38	329.07	8.45	-26.9	-28.2	13.6	8.00e-06	0	44	0	4367319040	13	4157
2026-01-29 16:16:16.38	329.16	8.38	-26.9	-28.2	13.6	1.25e-05	0	44	0	4374659072	13	4171
2026-01-29 16:16:17.39	329.26	8.31	-27.0	-28.4	13.5	1.14e-05	0	44	0	4381999104	13	4217
2026-01-29 16:16:18.38	329.35	8.25	-27.0	-28.4	13.5	1.94e-05	0	43	0	4389339136	13	4221
2026-01-29 16:16:19.39	329.45	8.18	-27.1	-28.5	13.3	1.14e-05	0	44	0	4396679168	13	4266
2026-01-29 16:16:20.40	329.55	8.11	-27.1	-28.2	13.3	2.74e-05	0	43	0	4404019200	14	4067
2026-01-29 16:16:21.40	329.64	8.05	-27.1	-28.1	13.4	2.40e-05	0	44	0	4410310656	14	4041
2026-01-29 16:16:22.40	329.74	7.98	-27.2	-28.4	13.2	1.60e-05	0	44	0	4417650688	14	4124
2026-01-29 16:16:23.41	329.83	7.91	-27.4	-28.7	13.0	4.92e-05	0	44	0	4426039296	14	4217
2026-01-29 16:16:24.41	329.92	7.85	-27.1	-28.1	13.4	2.74e-05	0	43	0	4432330752	14	4039
2026-01-29 16:16:25.41	330.02	7.78	-27.0	-28.0	13.5	6.80e-06	0	43	0	4439670784	14	4006
2026-01-29 16:16:26.42	330.11	7.71	-27.1	-28.2	13.3	1.14e-05	0	43	0	4447010816	14	4061
2026-01-29 16:16:27.43	330.20	7.65	-27.0	-28.0	13.4	1.94e-05	0	43	0	4454350848	14	4023
2026-01-29 16:16:28.43	330.30	7.58	-27.2	-28.4	13.2	2.97e-05	0	43	0	4461690880	14	4124
2026-01-29 16:16:29.44	330.39	7.52	-27.1	-28.2	13.3	3.89e-05	0	43	0	4469030912	14	4064
2026-01-29 16:16:30.45	330.48	7.45	-27.1	-28.1	13.3	1.25e-05	0	43	0	4476370944	14	4050
2026-01-29 16:16:31.46	330.57	7.39	-27.1	-28.2	13.3	3.31e-05	0	43	0	4483710976	14	4071
2026-01-29 16:16:32.46	330.66	7.32	-27.2	-28.4	13.1	3.66e-05	0	43	0	4491051008	14	4127
2026-01-29 16:16:33.46	330.75	7.26	-27.3	-28.6	13.1	3.66e-05	0	44	0	4498391040	14	4169
2026-01-29 16:16:34.47	330.84	7.19	-27.3	-28.5	13.1	4.11e-05	0	43	0	4505731072	14	4169
2026-01-29 16:16:35.48	330.93	7.13	-27.3	-28.6	13.0	3.08e-05	0	43	0	4513071104	14	4189
2026-01-29 16:16:36.48	331.02	7.06	-32.9	-41.2	3.9	6.06e-05	0	44	0	4519362560	25	9311
2026-01-29 16:16:37.49	331.11	7.00	-33.5	-43.4	3.8	8.46e-01	0	44	104	4519362560	26	11232
2026-01-29 16:16:38.49	331.20	6.93	-33.8	-43.4	3.8	8.48e-01	0	43	104	4519362560	27	10956
2026-01-29 16:16:39.50	331.29	6.87	-33.9	-43.8	3.8	8.46e-01	0	44	104	4519362560	27	11158

#Closed at: 2026-01-29 16:16:39
#Recorded file [4519 MB]: D:/data/31010_260129_190610.dat