passes_logs/2026/01/29/R2M6_AANII_01/R2M6_AANII_01__20260129_124221_FENGYUN_3D_rec.log

#Pass ID: 20260129_124221_FENGYUN 3D
#Satellite: FENGYUN 3D
#Configuration: FENGYUN 3D
#almurnet v.1.7.20240730
#Start time: 2026-01-29 12:42:22

#Version: 2.2.20231116
#Station: R2M6_AANII_01
#Location: 30.233357 lon 59.946436 lat
#TLE: 1 43010U 17072A   26027.97130493  .00000326  00000+0  17586-3 0  9998
#TLE: 2 43010  98.9960 359.9900 0002514  87.8428 272.3036 14.19701925425097

#Time	Az	El	Level	Level2	SNR	BER	BlckErr	Temp	State	Recorded	gain1	gain2
2026-01-29 12:42:22.40	169.86	7.09	-28.2	-30.9	5.7	7.75e-01	0	38	0	0	16	4873
2026-01-29 12:42:23.40	169.88	7.16	-29.2	-32.3	5.5	7.86e-01	0	38	104	0	18	5164
2026-01-29 12:42:24.41	169.91	7.24	-29.0	-31.7	11.1	1.04e-03	0	38	0	0	18	4923
2026-01-29 12:42:25.41	169.93	7.32	-29.1	-32.1	10.8	2.50e-03	0	38	0	5242880	18	5053
2026-01-29 12:42:26.41	169.95	7.40	-28.7	-30.9	11.6	9.84e-04	0	38	0	11534336	18	4662
2026-01-29 12:42:27.41	169.98	7.48	-28.2	-30.3	12.3	1.49e-04	0	38	0	16777216	17	4559
2026-01-29 12:42:28.42	170.00	7.56	-27.8	-29.3	12.9	6.40e-05	0	38	0	22020096	17	4257
2026-01-29 12:42:29.42	170.02	7.63	-27.4	-28.7	13.6	1.02e-05	0	38	0	28311552	16	4204
2026-01-29 12:42:30.42	170.05	7.71	-26.9	-28.2	14.0	1.10e-06	0	38	0	33554432	15	4167
2026-01-29 12:42:31.43	170.07	7.79	-26.7	-28.3	14.2	0.00e+00	0	38	0	38797312	14	4308
2026-01-29 12:42:32.44	170.10	7.87	-26.6	-28.1	14.4	0.00e+00	0	38	0	45088768	14	4259
2026-01-29 12:42:33.43	170.12	7.95	-26.7	-28.3	14.3	0.00e+00	0	39	0	50331648	14	4299
2026-01-29 12:42:34.43	170.14	8.03	-26.7	-28.2	14.3	0.00e+00	0	38	0	55574528	14	4271
2026-01-29 12:42:35.43	170.17	8.11	-26.7	-28.2	14.4	0.00e+00	0	39	0	61865984	14	4264
2026-01-29 12:42:36.44	170.19	8.19	-26.6	-28.0	14.4	0.00e+00	0	38	0	67108864	14	4226
2026-01-29 12:42:37.43	170.22	8.27	-26.7	-28.1	14.4	0.00e+00	0	39	0	73400320	14	4240
2026-01-29 12:42:38.43	170.24	8.35	-26.6	-27.9	14.5	0.00e+00	0	39	0	78643200	14	4189
2026-01-29 12:42:39.43	170.27	8.43	-26.6	-28.0	14.4	0.00e+00	0	39	0	83886080	14	4231
2026-01-29 12:42:40.43	170.29	8.52	-26.7	-28.1	14.4	0.00e+00	0	39	0	90177536	14	4254
2026-01-29 12:42:41.44	170.32	8.60	-26.6	-27.9	14.6	0.00e+00	0	39	0	95420416	14	4184
2026-01-29 12:42:42.44	170.34	8.68	-26.5	-27.6	14.8	0.00e+00	0	39	0	100663296	14	4116
2026-01-29 12:42:43.44	170.37	8.76	-26.5	-27.7	14.7	1.10e-06	0	39	0	106954752	14	4127
2026-01-29 12:42:44.44	170.39	8.85	-26.5	-27.8	14.7	0.00e+00	0	39	0	112197632	14	4147
2026-01-29 12:42:45.44	170.42	8.93	-26.4	-27.4	14.9	0.00e+00	0	39	0	117440512	14	4057
2026-01-29 12:42:46.45	170.44	9.01	-26.4	-27.5	14.8	0.00e+00	0	39	0	123731968	14	4077
2026-01-29 12:42:47.45	170.47	9.09	-26.5	-27.7	14.8	0.00e+00	0	39	0	128974848	14	4117
2026-01-29 12:42:48.45	170.50	9.18	-26.4	-27.4	14.9	0.00e+00	0	39	0	135266304	14	4044
2026-01-29 12:42:49.46	170.52	9.26	-26.3	-27.3	15.0	0.00e+00	0	39	0	140509184	14	4008
2026-01-29 12:42:50.46	170.55	9.35	-26.3	-27.2	15.0	0.00e+00	0	39	0	146800640	14	4002
2026-01-29 12:42:51.46	170.58	9.43	-26.3	-27.7	15.1	0.00e+00	0	39	0	152043520	13	4220
2026-01-29 12:42:52.46	170.60	9.52	-26.2	-27.6	15.1	0.00e+00	0	39	0	157286400	13	4190
2026-01-29 12:42:53.47	170.63	9.60	-26.2	-27.6	15.1	0.00e+00	0	39	0	163577856	13	4193
2026-01-29 12:42:54.48	170.66	9.69	-26.2	-27.5	15.2	0.00e+00	0	39	0	168820736	13	4185
2026-01-29 12:42:55.48	170.68	9.77	-26.1	-27.4	15.3	0.00e+00	0	39	0	174063616	13	4138
2026-01-29 12:42:56.48	170.71	9.86	-26.2	-27.5	15.2	0.00e+00	0	39	0	180355072	13	4163
2026-01-29 12:42:57.48	170.74	9.95	-26.2	-27.5	15.2	0.00e+00	0	39	0	185597952	13	4185
2026-01-29 12:42:58.48	170.77	10.03	-26.1	-27.3	15.3	0.00e+00	0	39	0	190840832	13	4127
2026-01-29 12:42:59.49	170.79	10.12	-26.1	-27.2	15.3	0.00e+00	0	39	0	197132288	13	4104
2026-01-29 12:43:00.48	170.82	10.21	-26.3	-27.7	15.1	0.00e+00	0	39	0	202375168	13	4227
2026-01-29 12:43:01.48	170.85	10.29	-26.4	-27.9	15.0	0.00e+00	0	39	0	208666624	13	4276
2026-01-29 12:43:02.48	170.88	10.38	-26.4	-27.9	15.0	0.00e+00	0	39	0	213909504	13	4284
2026-01-29 12:43:03.48	170.90	10.47	-26.5	-28.1	14.9	0.00e+00	0	39	0	219152384	13	4346
2026-01-29 12:43:04.47	170.93	10.56	-26.5	-28.2	14.8	0.00e+00	0	40	0	225443840	13	4369
2026-01-29 12:43:05.48	170.96	10.64	-26.5	-28.0	14.9	0.00e+00	0	39	0	230686720	13	4319
2026-01-29 12:43:06.48	170.99	10.73	-26.4	-27.9	15.0	0.00e+00	0	39	0	235929600	13	4293
2026-01-29 12:43:07.49	171.02	10.82	-26.4	-27.9	15.0	0.00e+00	0	40	0	242221056	13	4275
2026-01-29 12:43:08.49	171.05	10.91	-26.4	-27.9	15.0	0.00e+00	0	39	0	247463936	13	4275
2026-01-29 12:43:09.50	171.08	11.00	-26.5	-28.0	14.9	0.00e+00	0	39	0	252706816	13	4323
2026-01-29 12:43:10.50	171.11	11.09	-26.5	-28.2	14.9	0.00e+00	0	40	0	258998272	13	4361
2026-01-29 12:43:11.51	171.14	11.19	-26.3	-27.7	15.2	0.00e+00	0	39	0	264241152	13	4212
2026-01-29 12:43:12.51	171.17	11.28	-26.1	-27.2	15.4	0.00e+00	0	40	0	270532608	13	4094
2026-01-29 12:43:13.51	171.20	11.37	-26.1	-27.1	15.5	0.00e+00	0	40	0	275775488	13	4072
2026-01-29 12:43:14.51	171.23	11.46	-26.0	-27.0	15.5	0.00e+00	0	40	0	282066944	13	4044
2026-01-29 12:43:15.52	171.26	11.55	-26.1	-27.2	15.4	0.00e+00	0	40	0	287309824	13	4083
2026-01-29 12:43:16.53	171.29	11.64	-26.2	-27.3	15.4	0.00e+00	0	40	0	292552704	13	4123
2026-01-29 12:43:17.52	171.32	11.74	-26.2	-27.4	15.4	0.00e+00	0	39	0	298844160	13	4140
2026-01-29 12:43:18.53	171.35	11.83	-26.2	-27.3	15.4	0.00e+00	0	39	0	304087040	13	4117
2026-01-29 12:43:19.53	171.38	11.92	-26.2	-27.4	15.4	2.20e-06	0	40	0	309329920	13	4133
2026-01-29 12:43:20.54	171.41	12.02	-26.2	-27.5	15.3	0.00e+00	0	40	0	315621376	13	4170
2026-01-29 12:43:21.54	171.44	12.11	-26.2	-27.5	15.3	0.00e+00	0	40	0	320864256	13	4176
2026-01-29 12:43:22.55	171.47	12.21	-26.3	-27.7	15.2	1.10e-06	0	40	0	326107136	13	4213
2026-01-29 12:43:23.55	171.50	12.30	-26.3	-27.7	15.2	0.00e+00	0	40	0	332398592	13	4216
2026-01-29 12:43:24.56	171.54	12.40	-26.4	-27.8	15.2	0.00e+00	0	40	0	337641472	13	4251
2026-01-29 12:43:25.56	171.57	12.49	-26.5	-28.0	15.1	0.00e+00	0	40	0	343932928	13	4295
2026-01-29 12:43:26.57	171.60	12.59	-26.3	-27.6	15.3	0.00e+00	0	40	0	349175808	13	4191
2026-01-29 12:43:27.58	171.63	12.69	-26.3	-27.6	15.3	0.00e+00	0	40	0	355467264	13	4200
2026-01-29 12:43:28.58	171.66	12.78	-26.2	-27.4	15.4	0.00e+00	0	40	0	360710144	13	4155
2026-01-29 12:43:29.58	171.70	12.88	-26.2	-27.5	15.3	0.00e+00	0	40	0	365953024	13	4177
2026-01-29 12:43:30.58	171.73	12.98	-26.3	-27.6	15.3	0.00e+00	0	40	0	372244480	13	4209
2026-01-29 12:43:31.59	171.76	13.08	-26.1	-27.1	15.6	6.80e-06	0	40	0	377487360	13	4075
2026-01-29 12:43:32.59	171.80	13.17	-25.9	-26.8	15.7	0.00e+00	0	40	0	382730240	13	3987
2026-01-29 12:43:33.59	171.83	13.27	-25.8	-26.5	15.9	0.00e+00	0	40	0	389021696	13	3921
2026-01-29 12:43:34.60	171.86	13.37	-25.8	-27.0	15.9	6.80e-06	0	40	0	394264576	12	4165
2026-01-29 12:43:35.60	171.90	13.47	-25.7	-26.9	16.0	0.00e+00	0	40	0	400556032	12	4130
2026-01-29 12:43:36.61	171.93	13.57	-25.8	-27.0	15.9	0.00e+00	0	40	0	405798912	12	4164
2026-01-29 12:43:37.61	171.97	13.67	-25.7	-26.8	16.0	0.00e+00	0	40	0	411041792	12	4109
2026-01-29 12:43:38.62	172.00	13.77	-25.6	-26.6	16.2	0.00e+00	0	40	0	417333248	12	4046
2026-01-29 12:43:39.62	172.04	13.87	-25.6	-26.6	16.2	0.00e+00	0	40	0	422576128	12	4039
2026-01-29 12:43:40.63	172.07	13.98	-25.6	-26.8	16.1	0.00e+00	0	40	0	428867584	12	4091
2026-01-29 12:43:41.63	172.11	14.08	-25.6	-26.7	16.1	0.00e+00	0	40	0	434110464	12	4066
2026-01-29 12:43:42.64	172.14	14.18	-25.5	-26.4	16.3	0.00e+00	0	40	0	439353344	12	3999
2026-01-29 12:43:43.64	172.18	14.28	-25.5	-26.5	16.3	0.00e+00	0	40	0	445644800	12	4018
2026-01-29 12:43:44.64	172.21	14.39	-25.5	-26.4	16.3	0.00e+00	0	40	0	450887680	12	3994
2026-01-29 12:43:45.64	172.25	14.49	-25.4	-26.1	16.4	0.00e+00	0	40	0	456130560	12	3927
2026-01-29 12:43:46.64	172.28	14.59	-25.3	-26.0	16.5	0.00e+00	0	40	0	462422016	12	3915
2026-01-29 12:43:47.64	172.32	14.70	-25.3	-26.0	16.5	0.00e+00	0	40	0	467664896	12	3904
2026-01-29 12:43:48.65	172.36	14.80	-25.3	-26.5	16.6	0.00e+00	0	40	0	472907776	11	4132
2026-01-29 12:43:49.66	172.40	14.91	-25.3	-26.5	16.6	0.00e+00	0	40	0	479199232	11	4119
2026-01-29 12:43:50.65	172.43	15.01	-25.2	-26.3	16.7	0.00e+00	0	40	0	484442112	11	4068
2026-01-29 12:43:51.66	172.47	15.12	-25.0	-25.9	16.9	0.00e+00	0	40	0	490733568	11	3982
2026-01-29 12:43:52.67	172.51	15.23	-25.0	-25.8	17.0	0.00e+00	0	40	0	495976448	11	3950
2026-01-29 12:43:53.67	172.55	15.34	-25.0	-25.9	16.9	0.00e+00	0	40	0	502267904	11	3977
2026-01-29 12:43:54.67	172.58	15.44	-25.0	-25.7	17.0	0.00e+00	0	40	0	507510784	11	3941
2026-01-29 12:43:55.68	172.62	15.55	-24.9	-25.5	17.1	0.00e+00	0	40	0	512753664	11	3889
2026-01-29 12:43:56.68	172.66	15.66	-24.9	-25.6	17.1	0.00e+00	0	40	0	519045120	11	3897
2026-01-29 12:43:57.69	172.70	15.77	-24.8	-25.4	17.2	0.00e+00	0	40	0	524288000	11	3864
2026-01-29 12:43:58.69	172.74	15.88	-24.7	-25.7	17.3	0.00e+00	0	40	0	529530880	10	4042
2026-01-29 12:43:59.70	172.78	15.99	-24.8	-25.8	17.3	0.00e+00	0	40	0	535822336	10	4067
2026-01-29 12:44:00.70	172.82	16.10	-24.8	-25.8	17.2	0.00e+00	0	40	0	541065216	10	4070
2026-01-29 12:44:01.69	172.86	16.21	-24.7	-25.7	17.3	0.00e+00	0	40	0	547356672	10	4041
2026-01-29 12:44:02.69	172.90	16.32	-24.8	-25.8	17.3	0.00e+00	0	40	0	552599552	10	4053
2026-01-29 12:44:03.70	172.94	16.43	-24.7	-25.7	17.3	6.80e-06	0	40	0	557842432	10	4047
2026-01-29 12:44:04.70	172.98	16.55	-24.7	-25.7	17.3	0.00e+00	0	40	0	564133888	10	4036
2026-01-29 12:44:05.69	173.02	16.66	-24.7	-25.7	17.3	0.00e+00	0	40	0	569376768	10	4041
2026-01-29 12:44:06.69	173.06	16.77	-24.8	-25.8	17.3	3.40e-06	0	40	0	575668224	10	4060
2026-01-29 12:44:07.70	173.10	16.89	-24.9	-26.1	17.2	0.00e+00	0	40	0	580911104	10	4121
2026-01-29 12:44:08.71	173.15	17.00	-24.9	-26.1	17.1	0.00e+00	0	40	0	586153984	10	4130
2026-01-29 12:44:09.71	173.19	17.12	-24.9	-26.1	17.2	0.00e+00	0	40	0	592445440	10	4121
2026-01-29 12:44:10.72	173.23	17.23	-24.9	-26.1	17.2	0.00e+00	0	40	0	597688320	10	4128
2026-01-29 12:44:11.72	173.27	17.35	-25.0	-26.2	17.2	0.00e+00	0	40	0	602931200	10	4155
2026-01-29 12:44:12.72	173.32	17.47	-25.0	-26.2	17.1	0.00e+00	0	40	0	609222656	10	4147
2026-01-29 12:44:13.73	173.36	17.58	-24.9	-26.1	17.2	0.00e+00	0	40	0	614465536	10	4126
2026-01-29 12:44:14.73	173.41	17.70	-25.0	-26.3	17.1	0.00e+00	0	40	0	619708416	10	4180
2026-01-29 12:44:15.74	173.45	17.82	-24.9	-26.1	17.2	0.00e+00	0	40	0	625999872	10	4117
2026-01-29 12:44:16.74	173.49	17.94	-24.7	-25.6	17.5	0.00e+00	0	40	0	631242752	10	4004
2026-01-29 12:44:17.73	173.54	18.06	-24.6	-25.4	17.6	0.00e+00	0	40	0	637534208	10	3946
2026-01-29 12:44:18.73	173.58	18.18	-24.6	-25.4	17.6	3.40e-06	0	40	0	642777088	10	3948
2026-01-29 12:44:19.74	173.63	18.30	-24.5	-25.3	17.7	0.00e+00	0	40	0	648019968	10	3911
2026-01-29 12:44:20.74	173.68	18.42	-24.4	-25.0	17.8	0.00e+00	0	40	0	654311424	10	3852
2026-01-29 12:44:21.73	173.72	18.54	-24.4	-25.1	17.8	4.50e-06	0	40	0	659554304	10	3859
2026-01-29 12:44:22.74	173.77	18.66	-24.4	-25.0	17.8	0.00e+00	0	40	0	664797184	10	3845
2026-01-29 12:44:23.74	173.81	18.79	-24.4	-24.9	17.9	0.00e+00	0	40	0	671088640	10	3831
2026-01-29 12:44:24.74	173.86	18.91	-24.4	-25.0	17.8	0.00e+00	0	40	0	676331520	10	3858
2026-01-29 12:44:25.74	173.91	19.03	-24.4	-25.0	17.8	0.00e+00	0	40	0	681574400	10	3839
2026-01-29 12:44:26.74	173.96	19.16	-24.4	-24.9	17.9	0.00e+00	0	40	0	687865856	10	3822
2026-01-29 12:44:27.75	174.01	19.28	-24.5	-25.2	17.8	0.00e+00	0	40	0	693108736	10	3882
2026-01-29 12:44:28.75	174.05	19.41	-24.4	-24.9	17.9	0.00e+00	0	40	0	699400192	10	3830
2026-01-29 12:44:29.75	174.10	19.54	-24.2	-25.1	18.0	0.00e+00	0	40	0	704643072	9	3976
2026-01-29 12:44:30.76	174.15	19.66	-24.2	-25.0	18.1	4.50e-06	0	40	0	710934528	9	3953
2026-01-29 12:44:31.76	174.20	19.79	-24.2	-25.1	18.0	0.00e+00	0	41	0	716177408	9	3977
2026-01-29 12:44:32.77	174.25	19.92	-24.1	-24.9	18.2	0.00e+00	0	40	0	721420288	9	3921
2026-01-29 12:44:33.77	174.30	20.05	-24.0	-24.6	18.3	0.00e+00	0	41	0	727711744	9	3856
2026-01-29 12:44:34.78	174.35	20.18	-24.0	-24.5	18.4	0.00e+00	0	41	0	732954624	9	3840
2026-01-29 12:44:35.77	174.41	20.31	-24.0	-24.7	18.3	0.00e+00	0	40	0	738197504	9	3876
2026-01-29 12:44:36.77	174.46	20.44	-24.0	-24.6	18.4	0.00e+00	0	40	0	744488960	9	3844
2026-01-29 12:44:37.78	174.51	20.57	-23.8	-24.2	18.5	0.00e+00	0	40	0	749731840	9	3771
2026-01-29 12:44:38.78	174.56	20.71	-23.7	-24.5	18.6	0.00e+00	0	40	0	754974720	8	3932
2026-01-29 12:44:39.79	174.62	20.84	-23.7	-24.5	18.7	0.00e+00	0	40	0	761266176	8	3928
2026-01-29 12:44:40.79	174.67	20.97	-23.8	-24.6	18.6	0.00e+00	0	41	0	766509056	8	3971
2026-01-29 12:44:41.79	174.72	21.11	-23.7	-24.5	18.6	0.00e+00	0	40	0	772800512	8	3942
2026-01-29 12:44:42.80	174.78	21.24	-23.7	-24.5	18.6	0.00e+00	0	41	0	778043392	8	3947
2026-01-29 12:44:43.80	174.83	21.38	-23.7	-24.5	18.6	0.00e+00	0	40	0	784334848	8	3940
2026-01-29 12:44:44.79	174.89	21.52	-23.9	-24.8	18.5	0.00e+00	0	41	0	789577728	8	4010
2026-01-29 12:44:45.80	174.94	21.65	-23.8	-24.6	18.6	0.00e+00	0	41	0	794820608	8	3969
2026-01-29 12:44:46.81	175.00	21.79	-23.9	-24.8	18.5	0.00e+00	0	40	0	801112064	8	4014
2026-01-29 12:44:47.81	175.06	21.93	-23.9	-24.9	18.5	0.00e+00	0	41	0	806354944	8	4019
2026-01-29 12:44:48.82	175.11	22.07	-24.0	-25.0	18.4	0.00e+00	0	41	0	811597824	8	4065
2026-01-29 12:44:49.82	175.17	22.21	-24.0	-25.1	18.4	0.00e+00	0	41	0	817889280	8	4071
2026-01-29 12:44:50.83	175.23	22.36	-24.1	-25.3	18.3	0.00e+00	0	40	0	823132160	8	4131
2026-01-29 12:44:51.84	175.29	22.50	-24.1	-25.2	18.3	0.00e+00	0	41	0	829423616	8	4123
2026-01-29 12:44:52.84	175.35	22.64	-24.2	-25.5	18.2	0.00e+00	0	41	0	834666496	8	4185
2026-01-29 12:44:53.85	175.41	22.78	-24.0	-25.1	18.4	0.00e+00	0	41	0	840957952	8	4089
2026-01-29 12:44:54.85	175.47	22.93	-23.9	-24.9	18.5	0.00e+00	0	41	0	846200832	8	4050
2026-01-29 12:44:55.85	175.53	23.07	-23.9	-25.0	18.5	0.00e+00	0	41	0	851443712	8	4054
2026-01-29 12:44:56.85	175.59	23.22	-23.8	-24.6	18.6	0.00e+00	0	40	0	857735168	8	3972
2026-01-29 12:44:57.85	175.65	23.37	-23.7	-24.5	18.7	0.00e+00	0	41	0	862978048	8	3948
2026-01-29 12:44:58.86	175.71	23.51	-23.8	-24.7	18.6	0.00e+00	0	41	0	868220928	8	3993
2026-01-29 12:44:59.86	175.78	23.66	-23.6	-24.3	18.8	0.00e+00	0	41	0	874512384	8	3900
2026-01-29 12:45:00.86	175.84	23.81	-23.6	-24.2	18.8	0.00e+00	0	41	0	879755264	8	3879
2026-01-29 12:45:01.87	175.90	23.96	-23.6	-24.3	18.8	0.00e+00	0	40	0	884998144	8	3893
2026-01-29 12:45:02.87	175.97	24.11	-23.5	-24.1	18.9	4.50e-06	0	41	0	891289600	8	3847
2026-01-29 12:45:03.87	176.03	24.26	-23.5	-24.0	19.0	0.00e+00	0	40	0	896532480	8	3820
2026-01-29 12:45:04.87	176.10	24.42	-23.6	-24.2	18.9	0.00e+00	0	41	0	902823936	8	3872
2026-01-29 12:45:05.87	176.17	24.57	-23.5	-24.1	18.9	0.00e+00	0	41	0	908066816	8	3844
2026-01-29 12:45:06.88	176.23	24.72	-23.5	-24.0	19.0	0.00e+00	0	41	0	913309696	8	3817
2026-01-29 12:45:07.88	176.30	24.88	-23.6	-24.2	18.9	0.00e+00	0	41	0	919601152	8	3879
2026-01-29 12:45:08.88	176.37	25.03	-23.5	-24.0	19.0	0.00e+00	0	41	0	924844032	8	3825
2026-01-29 12:45:09.89	176.44	25.19	-23.4	-23.9	19.0	0.00e+00	0	40	0	930086912	8	3803
2026-01-29 12:45:10.89	176.51	25.35	-23.5	-24.0	19.0	0.00e+00	0	41	0	936378368	8	3830
2026-01-29 12:45:11.89	176.58	25.51	-23.4	-23.8	19.1	1.10e-06	0	41	0	941621248	8	3768
2026-01-29 12:45:12.90	176.65	25.67	-23.3	-23.7	19.2	0.00e+00	0	41	0	947912704	8	3743
2026-01-29 12:45:13.91	176.72	25.83	-23.4	-23.8	19.1	0.00e+00	0	41	0	953155584	8	3764
2026-01-29 12:45:14.91	176.79	25.99	-23.5	-24.0	19.0	0.00e+00	0	41	0	958398464	8	3829
2026-01-29 12:45:15.92	176.87	26.15	-23.4	-23.9	19.1	0.00e+00	0	41	0	964689920	8	3786
2026-01-29 12:45:16.92	176.94	26.32	-23.3	-23.7	19.2	0.00e+00	0	41	0	969932800	8	3748
2026-01-29 12:45:17.92	177.02	26.48	-23.3	-23.7	19.2	0.00e+00	0	41	0	976224256	8	3748
2026-01-29 12:45:18.93	177.09	26.65	-23.4	-23.8	19.2	0.00e+00	0	41	0	981467136	8	3765
2026-01-29 12:45:19.93	177.17	26.81	-23.5	-24.0	19.1	0.00e+00	0	41	0	986710016	8	3811
2026-01-29 12:45:20.93	177.24	26.98	-23.4	-23.9	19.1	0.00e+00	0	41	0	993001472	8	3793
2026-01-29 12:45:21.94	177.32	27.15	-23.5	-24.0	19.0	0.00e+00	0	41	0	998244352	8	3828
2026-01-29 12:45:22.94	177.40	27.32	-23.4	-23.8	19.2	0.00e+00	0	41	0	1004535808	8	3768
2026-01-29 12:45:23.94	177.48	27.49	-23.4	-23.8	19.2	0.00e+00	0	41	0	1009778688	8	3763
2026-01-29 12:45:24.94	177.56	27.66	-23.3	-23.6	19.2	0.00e+00	0	41	0	1015021568	8	3727
2026-01-29 12:45:25.95	177.64	27.83	-23.3	-23.7	19.2	0.00e+00	0	41	0	1021313024	8	3750
2026-01-29 12:45:26.95	177.72	28.00	-23.1	-23.8	19.4	1.10e-06	0	41	0	1026555904	7	3877
2026-01-29 12:45:27.95	177.80	28.18	-23.1	-23.7	19.4	0.00e+00	0	41	0	1031798784	7	3858
2026-01-29 12:45:28.96	177.89	28.35	-23.2	-23.8	19.4	0.00e+00	0	41	0	1038090240	7	3886
2026-01-29 12:45:29.95	177.97	28.53	-23.0	-23.6	19.5	0.00e+00	0	41	0	1043333120	7	3824
2026-01-29 12:45:30.96	178.06	28.71	-23.0	-23.4	19.6	0.00e+00	0	41	0	1049624576	7	3795
2026-01-29 12:45:31.96	178.14	28.88	-23.1	-23.7	19.5	0.00e+00	0	41	0	1054867456	7	3854
2026-01-29 12:45:32.96	178.23	29.06	-23.1	-23.8	19.4	0.00e+00	0	41	0	1060110336	7	3868
2026-01-29 12:45:33.96	178.31	29.24	-23.3	-24.1	19.3	0.00e+00	0	41	0	1066401792	7	3943
2026-01-29 12:45:34.96	178.40	29.42	-23.2	-24.0	19.3	0.00e+00	0	41	0	1071644672	7	3921
2026-01-29 12:45:35.96	178.49	29.61	-23.3	-24.2	19.2	0.00e+00	0	41	0	1076887552	7	3963
2026-01-29 12:45:36.96	178.58	29.79	-23.2	-23.9	19.3	0.00e+00	0	41	0	1083179008	7	3903
2026-01-29 12:45:37.96	178.67	29.97	-23.2	-23.9	19.4	0.00e+00	0	41	0	1088421888	7	3895
2026-01-29 12:45:38.97	178.77	30.16	-23.3	-24.2	19.3	0.00e+00	0	41	0	1093664768	7	3964
2026-01-29 12:45:39.97	178.86	30.35	-23.2	-23.8	19.4	0.00e+00	0	41	0	1099956224	7	3880
2026-01-29 12:45:40.98	178.96	30.54	-23.2	-24.0	19.3	0.00e+00	0	41	0	1105199104	7	3930
2026-01-29 12:45:41.98	179.05	30.73	-23.3	-24.1	19.3	0.00e+00	0	41	0	1111490560	7	3958
2026-01-29 12:45:42.98	179.15	30.92	-23.4	-24.4	19.1	0.00e+00	0	41	0	1116733440	7	4026
2026-01-29 12:45:43.99	179.25	31.11	-23.4	-24.4	19.1	0.00e+00	0	41	0	1121976320	7	4021
2026-01-29 12:45:44.99	179.35	31.30	-23.5	-24.5	19.1	0.00e+00	0	41	0	1128267776	7	4061
2026-01-29 12:45:45.99	179.45	31.50	-23.4	-24.3	19.2	0.00e+00	0	41	0	1133510656	7	4004
2026-01-29 12:45:47.00	179.55	31.69	-23.2	-23.9	19.3	0.00e+00	0	41	0	1139802112	7	3907
2026-01-29 12:45:48.01	179.65	31.89	-23.1	-23.8	19.4	0.00e+00	0	41	0	1145044992	7	3875
2026-01-29 12:45:49.01	179.76	32.09	-23.3	-24.2	19.2	0.00e+00	0	41	0	1150287872	7	3962
2026-01-29 12:45:50.02	179.86	32.29	-23.2	-23.9	19.4	0.00e+00	0	41	0	1156579328	7	3917
2026-01-29 12:45:51.02	179.97	32.49	-23.5	-24.5	19.1	0.00e+00	0	41	0	1161822208	7	4050
2026-01-29 12:45:52.03	180.08	32.69	-23.3	-24.2	19.2	0.00e+00	0	41	0	1167065088	7	3985
2026-01-29 12:45:53.03	180.18	32.90	-23.2	-23.9	19.4	0.00e+00	0	41	0	1173356544	7	3912
2026-01-29 12:45:54.04	180.30	33.10	-23.2	-23.8	19.4	0.00e+00	0	41	0	1178599424	7	3888
2026-01-29 12:45:55.04	180.41	33.31	-23.3	-24.2	19.3	0.00e+00	0	41	0	1184890880	7	3972
2026-01-29 12:45:56.04	180.52	33.51	-23.0	-23.5	19.6	0.00e+00	0	41	0	1190133760	7	3817
2026-01-29 12:45:57.05	180.64	33.72	-23.0	-23.6	19.6	0.00e+00	0	41	0	1196425216	7	3826
2026-01-29 12:45:58.05	180.75	33.93	-23.2	-23.8	19.5	0.00e+00	0	41	0	1201668096	7	3891
2026-01-29 12:45:59.06	180.87	34.14	-23.1	-23.6	19.6	0.00e+00	0	41	0	1206910976	7	3835
2026-01-29 12:46:00.06	180.99	34.35	-23.2	-23.8	19.5	0.00e+00	0	41	0	1213202432	7	3887
2026-01-29 12:46:01.07	181.11	34.57	-23.2	-24.0	19.4	0.00e+00	0	41	0	1218445312	7	3937
2026-01-29 12:46:02.07	181.23	34.78	-23.3	-24.1	19.3	0.00e+00	0	41	0	1223688192	7	3951
2026-01-29 12:46:03.07	181.35	35.00	-23.4	-24.4	19.1	0.00e+00	0	41	0	1229979648	7	4023
2026-01-29 12:46:04.08	181.48	35.22	-23.1	-23.7	19.6	0.00e+00	0	41	0	1235222528	7	3845
2026-01-29 12:46:05.08	181.61	35.44	-22.9	-23.2	19.8	0.00e+00	0	41	0	1240465408	7	3748
2026-01-29 12:46:06.08	181.73	35.65	-22.9	-23.3	19.8	0.00e+00	0	41	0	1246756864	7	3763
2026-01-29 12:46:07.09	181.86	35.88	-23.2	-23.8	19.5	0.00e+00	0	41	0	1251999744	7	3880
2026-01-29 12:46:08.09	182.00	36.10	-23.2	-24.0	19.4	0.00e+00	0	41	0	1258291200	7	3922
2026-01-29 12:46:09.10	182.13	36.33	-23.3	-24.0	19.4	0.00e+00	0	41	0	1263534080	7	3944
2026-01-29 12:46:10.11	182.27	36.55	-23.1	-23.8	19.5	0.00e+00	0	41	0	1269825536	7	3878
2026-01-29 12:46:11.10	182.40	36.78	-23.1	-23.6	19.6	0.00e+00	0	41	0	1275068416	7	3839
2026-01-29 12:46:12.11	182.54	37.01	-22.8	-23.1	19.8	0.00e+00	0	41	0	1280311296	7	3714
2026-01-29 12:46:13.11	182.68	37.24	-22.8	-23.6	19.9	0.00e+00	0	41	0	1286602752	6	3928
2026-01-29 12:46:14.11	182.82	37.47	-22.9	-23.8	19.8	0.00e+00	0	41	0	1291845632	6	3978
2026-01-29 12:46:15.12	182.97	37.70	-22.8	-23.6	19.8	0.00e+00	0	41	0	1297088512	6	3951
2026-01-29 12:46:16.12	183.12	37.93	-23.0	-23.9	19.7	0.00e+00	0	41	0	1303379968	6	4009
2026-01-29 12:46:17.13	183.27	38.17	-23.0	-24.1	19.6	0.00e+00	0	41	0	1308622848	6	4047
2026-01-29 12:46:18.13	183.42	38.41	-22.7	-23.3	20.1	0.00e+00	0	41	0	1313865728	6	3858
2026-01-29 12:46:19.13	183.57	38.65	-22.5	-23.0	20.2	0.00e+00	0	41	0	1320157184	6	3794
2026-01-29 12:46:20.13	183.73	38.88	-22.6	-23.1	20.2	0.00e+00	0	41	0	1325400064	6	3809
2026-01-29 12:46:21.13	183.88	39.13	-22.8	-23.5	20.0	0.00e+00	0	41	0	1331691520	6	3912
2026-01-29 12:46:22.14	184.04	39.37	-22.7	-23.4	20.0	0.00e+00	0	41	0	1336934400	6	3887
2026-01-29 12:46:23.14	184.21	39.61	-22.9	-23.8	19.8	0.00e+00	0	41	0	1342177280	6	3988
2026-01-29 12:46:24.14	184.37	39.86	-23.0	-24.0	19.7	0.00e+00	0	41	0	1348468736	6	4029
2026-01-29 12:46:25.15	184.54	40.11	-23.1	-24.2	19.6	0.00e+00	0	41	0	1353711616	6	4078
2026-01-29 12:46:26.15	184.71	40.35	-23.0	-23.9	19.8	0.00e+00	0	41	0	1360003072	6	4008
2026-01-29 12:46:27.15	184.88	40.60	-23.0	-23.9	19.8	0.00e+00	0	41	0	1365245952	6	4013
2026-01-29 12:46:28.16	185.06	40.86	-23.1	-24.2	19.6	0.00e+00	0	41	0	1370488832	6	4089
2026-01-29 12:46:29.17	185.23	41.11	-23.1	-24.2	19.6	0.00e+00	0	41	0	1376780288	6	4068
2026-01-29 12:46:30.17	185.41	41.37	-23.1	-24.2	19.6	0.00e+00	0	41	0	1382023168	6	4075
2026-01-29 12:46:31.18	185.60	41.62	-23.2	-24.3	19.6	0.00e+00	0	41	0	1387266048	6	4113
2026-01-29 12:46:32.18	185.78	41.88	-23.0	-23.9	19.8	0.00e+00	0	41	0	1393557504	6	4010
2026-01-29 12:46:33.19	185.97	42.14	-23.0	-23.9	19.8	0.00e+00	0	41	0	1398800384	6	4018
2026-01-29 12:46:34.18	186.16	42.40	-23.2	-24.3	19.6	0.00e+00	0	41	0	1405091840	6	4116
2026-01-29 12:46:35.19	186.36	42.66	-23.2	-24.4	19.5	0.00e+00	0	41	0	1410334720	6	4122
2026-01-29 12:46:36.19	186.56	42.93	-23.3	-24.6	19.4	0.00e+00	0	41	0	1416626176	6	4190
2026-01-29 12:46:37.20	186.76	43.19	-23.3	-24.5	19.5	0.00e+00	0	41	0	1421869056	6	4162
2026-01-29 12:46:38.20	186.96	43.46	-23.2	-24.4	19.5	0.00e+00	0	41	0	1427111936	6	4137
2026-01-29 12:46:39.20	187.17	43.73	-23.3	-24.6	19.5	0.00e+00	0	41	0	1433403392	6	4187
2026-01-29 12:46:40.21	187.39	44.00	-23.3	-24.6	19.5	0.00e+00	0	41	0	1438646272	6	4171
2026-01-29 12:46:41.21	187.60	44.27	-23.5	-24.6	19.3	0.00e+00	0	41	0	1443889152	7	4056
2026-01-29 12:46:42.21	187.82	44.54	-23.7	-24.8	19.1	0.00e+00	0	41	0	1450180608	7	4126
2026-01-29 12:46:43.22	188.04	44.81	-23.6	-24.6	19.2	0.00e+00	0	41	0	1455423488	7	4069
2026-01-29 12:46:44.22	188.27	45.09	-23.6	-24.7	19.2	0.00e+00	0	41	0	1460666368	7	4077
2026-01-29 12:46:45.22	188.50	45.36	-23.6	-24.8	19.1	0.00e+00	0	41	0	1466957824	7	4105
2026-01-29 12:46:46.23	188.73	45.64	-23.3	-24.0	19.5	0.00e+00	0	41	0	1472200704	7	3933
2026-01-29 12:46:47.23	188.97	45.92	-23.1	-23.7	19.7	0.00e+00	0	41	0	1478492160	7	3848
2026-01-29 12:46:48.24	189.21	46.20	-23.2	-23.8	19.7	0.00e+00	0	41	0	1483735040	7	3873
2026-01-29 12:46:49.25	189.46	46.49	-23.3	-24.1	19.5	0.00e+00	0	41	0	1490026496	7	3948
2026-01-29 12:46:50.26	189.72	46.77	-23.7	-24.9	19.1	0.00e+00	0	41	0	1495269376	7	4150
2026-01-29 12:46:51.26	189.97	47.06	-23.7	-25.0	19.1	0.00e+00	0	41	0	1500512256	7	4166
2026-01-29 12:46:52.26	190.23	47.34	-23.8	-25.1	19.0	0.00e+00	0	41	0	1506803712	7	4193
2026-01-29 12:46:53.27	190.50	47.63	-23.3	-24.2	19.5	0.00e+00	0	41	0	1512046592	7	3957
2026-01-29 12:46:54.27	190.77	47.92	-23.0	-23.3	19.9	0.00e+00	0	41	0	1517289472	7	3763
2026-01-29 12:46:55.27	191.04	48.21	-22.9	-23.2	20.0	0.00e+00	0	41	0	1523580928	7	3719
2026-01-29 12:46:56.27	191.32	48.50	-23.2	-23.9	19.7	0.00e+00	0	41	0	1528823808	7	3894
2026-01-29 12:46:57.28	191.61	48.80	-23.4	-24.3	19.4	0.00e+00	0	41	0	1534066688	7	3998
2026-01-29 12:46:58.28	191.90	49.09	-23.5	-24.5	19.3	0.00e+00	0	41	0	1540358144	7	4027
2026-01-29 12:46:59.28	192.19	49.38	-23.2	-23.8	19.6	0.00e+00	0	41	0	1545601024	7	3874
2026-01-29 12:47:00.29	192.50	49.68	-23.2	-23.8	19.7	0.00e+00	0	41	0	1551892480	7	3863
2026-01-29 12:47:01.30	192.81	49.98	-23.4	-24.2	19.5	0.00e+00	0	41	0	1557135360	7	3966
2026-01-29 12:47:02.30	193.12	50.28	-23.4	-24.4	19.4	0.00e+00	0	41	0	1563426816	7	4005
2026-01-29 12:47:03.31	193.44	50.58	-23.6	-24.7	19.3	0.00e+00	0	41	0	1568669696	7	4088
2026-01-29 12:47:04.31	193.77	50.88	-23.7	-24.8	19.2	0.00e+00	0	41	0	1573912576	7	4112
2026-01-29 12:47:05.32	194.10	51.18	-23.5	-24.6	19.4	0.00e+00	0	41	0	1580204032	7	4053
2026-01-29 12:47:06.31	194.44	51.48	-23.8	-25.1	19.1	0.00e+00	0	41	0	1585446912	7	4172
2026-01-29 12:47:07.31	194.78	51.78	-23.9	-25.4	18.9	0.00e+00	0	41	0	1590689792	7	4269
2026-01-29 12:47:08.32	195.14	52.09	-23.8	-25.1	19.1	0.00e+00	0	41	0	1596981248	7	4197
2026-01-29 12:47:09.32	195.50	52.39	-24.0	-25.5	18.9	0.00e+00	0	41	0	1602224128	7	4299
2026-01-29 12:47:10.33	195.87	52.70	-24.4	-25.9	18.5	0.00e+00	0	41	0	1607467008	8	4273
2026-01-29 12:47:11.33	196.25	53.00	-24.4	-25.8	18.5	0.00e+00	0	41	0	1613758464	8	4248
2026-01-29 12:47:12.33	196.63	53.31	-24.4	-25.9	18.5	0.00e+00	0	41	0	1619001344	8	4274
2026-01-29 12:47:13.33	197.02	53.62	-24.9	-26.3	18.0	0.00e+00	0	41	0	1625292800	9	4270
2026-01-29 12:47:14.33	197.42	53.92	-25.1	-26.3	17.8	0.00e+00	0	41	0	1630535680	10	4138
2026-01-29 12:47:15.33	197.83	54.23	-24.7	-25.6	18.2	0.00e+00	0	41	0	1635778560	10	3972
2026-01-29 12:47:16.33	198.24	54.54	-24.6	-25.4	18.3	0.00e+00	0	41	0	1642070016	10	3921
2026-01-29 12:47:17.33	198.67	54.85	-24.5	-25.1	18.4	0.00e+00	0	41	0	1647312896	10	3855
2026-01-29 12:47:18.34	199.11	55.16	-24.5	-25.0	18.4	0.00e+00	0	41	0	1652555776	10	3841
2026-01-29 12:47:19.34	199.55	55.46	-24.4	-24.9	18.5	0.00e+00	0	41	0	1658847232	10	3812
2026-01-29 12:47:20.34	200.00	55.77	-24.3	-24.6	18.6	0.00e+00	0	41	0	1664090112	10	3749
2026-01-29 12:47:21.34	200.47	56.08	-24.3	-25.2	18.6	0.00e+00	0	41	0	1669332992	9	3979
2026-01-29 12:47:22.34	200.94	56.39	-24.5	-25.5	18.5	0.00e+00	0	41	0	1675624448	9	4060
2026-01-29 12:47:23.35	201.43	56.70	-23.9	-24.3	19.1	0.00e+00	0	41	0	1680867328	9	3778
2026-01-29 12:47:24.35	201.93	57.01	-23.7	-24.4	19.2	0.00e+00	0	41	0	1687158784	8	3904
2026-01-29 12:47:25.36	202.44	57.32	-24.1	-25.3	18.8	0.00e+00	0	41	0	1692401664	8	4116
2026-01-29 12:47:26.37	202.96	57.63	-24.3	-25.6	18.6	0.00e+00	0	41	0	1698693120	8	4203
2026-01-29 12:47:27.37	203.49	57.94	-24.0	-25.1	18.9	0.00e+00	0	41	0	1703936000	8	4089
2026-01-29 12:47:28.37	204.03	58.24	-23.7	-24.4	19.3	0.00e+00	0	41	0	1709178880	8	3896
2026-01-29 12:47:29.38	204.59	58.55	-23.6	-24.1	19.5	0.00e+00	0	41	0	1715470336	8	3836
2026-01-29 12:47:30.38	205.16	58.85	-23.7	-24.4	19.3	0.00e+00	0	41	0	1720713216	8	3907
2026-01-29 12:47:31.38	205.74	59.16	-23.8	-24.5	19.3	0.00e+00	0	41	0	1725956096	8	3918
2026-01-29 12:47:32.38	206.33	59.46	-23.7	-24.4	19.3	0.00e+00	0	41	0	1732247552	8	3908
2026-01-29 12:47:33.39	206.95	59.76	-23.7	-24.4	19.3	0.00e+00	0	41	0	1737490432	8	3913
2026-01-29 12:47:34.40	207.58	60.06	-23.3	-23.5	19.8	0.00e+00	0	41	0	1743781888	8	3687
2026-01-29 12:47:35.41	208.22	60.36	-23.3	-24.0	19.9	0.00e+00	0	41	0	1749024768	7	3910
2026-01-29 12:47:36.42	208.88	60.66	-23.2	-23.9	19.9	0.00e+00	0	41	0	1755316224	7	3873
2026-01-29 12:47:37.42	209.54	60.95	-22.8	-23.0	20.4	0.00e+00	0	41	0	1760559104	7	3681
2026-01-29 12:47:38.42	210.23	61.24	-22.9	-23.2	20.3	0.00e+00	0	41	0	1765801984	7	3728
2026-01-29 12:47:39.43	210.93	61.53	-23.2	-23.8	20.0	0.00e+00	0	41	0	1772093440	7	3854
2026-01-29 12:47:40.43	211.65	61.82	-23.0	-23.4	20.1	0.00e+00	0	41	0	1777336320	7	3772
2026-01-29 12:47:41.44	212.38	62.11	-23.0	-23.5	20.1	0.00e+00	0	41	0	1782579200	7	3784
2026-01-29 12:47:42.44	213.13	62.39	-23.1	-23.5	20.1	0.00e+00	0	41	0	1788870656	7	3787
2026-01-29 12:47:43.45	213.91	62.67	-22.7	-23.3	20.5	0.00e+00	0	41	0	1794113536	6	3843
2026-01-29 12:47:44.45	214.69	62.94	-22.8	-23.5	20.4	0.00e+00	0	41	0	1800404992	6	3894
2026-01-29 12:47:45.45	215.49	63.21	-23.0	-23.9	20.2	0.00e+00	0	41	0	1805647872	6	3980
2026-01-29 12:47:46.45	216.31	63.48	-23.0	-24.0	20.2	0.00e+00	0	41	0	1810890752	6	4007
2026-01-29 12:47:47.46	217.16	63.75	-22.8	-23.4	20.5	0.00e+00	0	41	0	1817182208	6	3871
2026-01-29 12:47:48.45	218.01	64.00	-22.5	-22.9	20.7	0.00e+00	0	41	0	1822425088	6	3749
2026-01-29 12:47:49.46	218.89	64.26	-22.8	-23.4	20.4	0.00e+00	0	41	0	1828716544	6	3868
2026-01-29 12:47:50.47	219.80	64.51	-22.9	-23.6	20.3	0.00e+00	0	41	0	1833959424	6	3923
2026-01-29 12:47:51.47	220.71	64.76	-22.5	-22.9	20.7	0.00e+00	0	41	0	1839202304	6	3768
2026-01-29 12:47:52.48	221.66	65.00	-22.6	-23.0	20.6	0.00e+00	0	41	0	1845493760	6	3769
2026-01-29 12:47:53.49	222.62	65.24	-22.7	-23.2	20.5	0.00e+00	0	41	0	1850736640	6	3833
2026-01-29 12:47:54.50	223.61	65.47	-22.5	-22.9	20.7	0.00e+00	0	41	0	1857028096	6	3765
2026-01-29 12:47:55.50	224.60	65.69	-22.8	-23.5	20.4	0.00e+00	0	41	0	1862270976	6	3885
2026-01-29 12:47:56.51	225.63	65.91	-22.7	-23.3	20.5	0.00e+00	0	41	0	1867513856	6	3854
2026-01-29 12:47:57.51	226.67	66.12	-22.5	-22.9	20.7	0.00e+00	0	41	0	1873805312	6	3762
2026-01-29 12:47:58.51	227.72	66.33	-22.4	-22.6	20.9	0.00e+00	0	41	0	1879048192	6	3692
2026-01-29 12:47:59.51	228.80	66.52	-22.5	-22.9	20.7	0.00e+00	0	41	0	1884291072	6	3760
2026-01-29 12:48:00.50	229.88	66.71	-22.9	-23.6	20.4	0.00e+00	0	41	0	1890582528	6	3922
2026-01-29 12:48:01.51	231.01	66.90	-23.3	-24.5	19.9	0.00e+00	0	41	0	1895825408	6	4149
2026-01-29 12:48:02.51	232.14	67.07	-23.2	-24.3	20.0	0.00e+00	0	41	0	1902116864	6	4080
2026-01-29 12:48:03.51	233.29	67.24	-22.8	-23.5	20.5	0.00e+00	0	41	0	1907359744	6	3886
2026-01-29 12:48:04.51	234.46	67.40	-22.5	-22.8	20.7	0.00e+00	0	41	0	1912602624	6	3740
2026-01-29 12:48:05.51	235.65	67.55	-22.5	-22.9	20.7	0.00e+00	0	41	0	1918894080	6	3760
2026-01-29 12:48:06.52	236.87	67.69	-22.6	-23.0	20.7	0.00e+00	0	41	0	1924136960	6	3787
2026-01-29 12:48:07.53	238.10	67.82	-22.5	-22.8	20.8	0.00e+00	0	41	0	1929379840	6	3737
2026-01-29 12:48:08.53	239.34	67.95	-22.5	-22.8	20.8	0.00e+00	0	41	0	1935671296	6	3733
2026-01-29 12:48:09.53	240.59	68.06	-22.6	-23.1	20.6	0.00e+00	0	41	0	1940914176	6	3803
2026-01-29 12:48:10.54	241.86	68.17	-22.5	-22.8	20.8	0.00e+00	0	41	0	1946157056	6	3733
2026-01-29 12:48:11.54	243.14	68.26	-22.1	-22.6	21.1	0.00e+00	0	41	0	1952448512	5	3796
2026-01-29 12:48:12.54	244.43	68.35	-22.0	-22.3	21.2	0.00e+00	0	41	0	1957691392	5	3737
2026-01-29 12:48:13.54	245.73	68.42	-22.3	-22.9	21.0	0.00e+00	0	41	0	1963982848	5	3864
2026-01-29 12:48:14.55	247.05	68.49	-22.4	-23.1	20.9	0.00e+00	0	41	0	1969225728	5	3915
2026-01-29 12:48:15.55	248.36	68.54	-22.1	-22.4	21.2	0.00e+00	0	41	0	1975517184	5	3754
2026-01-29 12:48:16.55	249.69	68.59	-22.1	-22.5	21.1	0.00e+00	0	41	0	1980760064	5	3779
2026-01-29 12:48:17.55	251.01	68.62	-22.2	-22.8	21.0	0.00e+00	0	41	0	1986002944	5	3847
2026-01-29 12:48:18.55	252.34	68.64	-22.0	-22.3	21.3	0.00e+00	0	41	0	1992294400	5	3723
2026-01-29 12:48:19.56	253.69	68.65	-22.1	-22.5	21.2	0.00e+00	0	41	0	1997537280	5	3771
2026-01-29 12:48:20.56	255.03	68.66	-22.2	-22.6	21.1	0.00e+00	0	41	0	2002780160	5	3801
2026-01-29 12:48:21.57	256.37	68.65	-22.4	-23.1	20.9	0.00e+00	0	41	0	2009071616	5	3920
2026-01-29 12:48:22.58	257.72	68.63	-22.7	-23.8	20.5	0.00e+00	0	41	0	2014314496	5	4091
2026-01-29 12:48:23.58	259.04	68.60	-22.6	-23.6	20.6	0.00e+00	0	41	0	2019557376	5	4032
2026-01-29 12:48:24.60	260.39	68.55	-22.9	-24.1	20.4	0.00e+00	0	41	0	2025848832	5	4156
2026-01-29 12:48:25.60	261.71	68.50	-22.8	-23.6	20.4	0.00e+00	0	41	0	2031091712	6	3909
2026-01-29 12:48:26.60	263.02	68.44	-22.5	-22.9	20.8	0.00e+00	0	41	0	2037383168	6	3757
2026-01-29 12:48:27.61	264.33	68.37	-22.5	-22.8	20.8	0.00e+00	0	41	0	2042626048	6	3737
2026-01-29 12:48:28.62	265.64	68.28	-22.6	-23.1	20.6	0.00e+00	0	41	0	2048917504	6	3811
2026-01-29 12:48:29.62	266.92	68.19	-22.7	-23.3	20.6	0.00e+00	0	41	0	2054160384	6	3839
2026-01-29 12:48:30.63	268.20	68.09	-22.9	-23.7	20.4	0.00e+00	0	41	0	2059403264	6	3943
2026-01-29 12:48:31.63	269.45	67.98	-23.0	-23.8	20.3	0.00e+00	0	41	0	2065694720	6	3975
2026-01-29 12:48:32.63	270.69	67.85	-23.1	-24.0	20.2	0.00e+00	0	41	0	2070937600	6	4021
2026-01-29 12:48:33.63	271.91	67.72	-22.9	-23.7	20.3	0.00e+00	0	41	0	2076180480	6	3949
2026-01-29 12:48:34.63	273.12	67.58	-23.1	-24.0	20.2	0.00e+00	0	41	0	2082471936	6	4005
2026-01-29 12:48:35.64	274.32	67.43	-23.3	-24.5	20.0	0.00e+00	0	41	0	2087714816	6	4135
2026-01-29 12:48:36.64	275.50	67.28	-23.0	-24.0	20.2	0.00e+00	0	41	0	2092957696	6	4008
2026-01-29 12:48:37.65	276.66	67.11	-22.6	-23.1	20.7	0.00e+00	0	41	0	2099249152	6	3795
2026-01-29 12:48:38.65	277.80	66.94	-22.6	-23.0	20.7	0.00e+00	0	41	0	2104492032	6	3785
2026-01-29 12:48:39.65	278.92	66.76	-22.7	-23.2	20.6	0.00e+00	0	41	0	2110783488	6	3829
2026-01-29 12:48:40.66	280.03	66.57	-22.7	-23.2	20.6	0.00e+00	0	41	0	2116026368	6	3825
2026-01-29 12:48:41.67	281.12	66.37	-22.8	-23.5	20.4	0.00e+00	0	41	0	2122317824	6	3905
2026-01-29 12:48:42.67	282.18	66.17	-22.7	-23.4	20.5	0.00e+00	0	41	0	2127560704	6	3862
2026-01-29 12:48:43.68	283.23	65.96	-22.7	-23.2	20.5	0.00e+00	0	41	0	2132803584	6	3837
2026-01-29 12:48:44.68	284.25	65.74	-23.3	-24.4	20.0	0.00e+00	0	41	0	2139095040	6	4124
2026-01-29 12:48:45.69	285.25	65.52	-23.3	-24.5	20.0	0.00e+00	0	41	0	2144337920	6	4129
2026-01-29 12:48:46.69	286.23	65.29	-22.8	-23.5	20.4	0.00e+00	0	41	0	2149580800	6	3905
2026-01-29 12:48:47.70	287.20	65.06	-22.7	-23.3	20.5	0.00e+00	0	41	0	2155872256	6	3856
2026-01-29 12:48:48.70	288.14	64.82	-22.7	-23.2	20.5	0.00e+00	0	41	0	2161115136	6	3838
2026-01-29 12:48:49.71	289.07	64.57	-22.6	-23.0	20.6	0.00e+00	0	41	0	2167406592	6	3778
2026-01-29 12:48:50.71	289.97	64.32	-22.6	-23.0	20.7	0.00e+00	0	41	0	2172649472	6	3781
2026-01-29 12:48:51.72	290.86	64.07	-22.6	-23.0	20.7	0.00e+00	0	41	0	2177892352	6	3773
2026-01-29 12:48:52.72	291.72	63.81	-22.7	-23.3	20.6	0.00e+00	0	41	0	2184183808	6	3847
2026-01-29 12:48:53.72	292.56	63.55	-22.8	-23.4	20.5	0.00e+00	0	41	0	2189426688	6	3864
2026-01-29 12:48:54.72	293.38	63.28	-22.9	-23.8	20.3	0.00e+00	0	41	0	2195718144	6	3954
2026-01-29 12:48:55.73	294.19	63.01	-22.9	-23.6	20.4	0.00e+00	0	41	0	2200961024	6	3913
2026-01-29 12:48:56.74	294.99	62.73	-22.9	-23.7	20.3	0.00e+00	0	41	0	2206203904	6	3956
2026-01-29 12:48:57.75	295.76	62.46	-22.9	-23.8	20.3	0.00e+00	0	41	0	2212495360	6	3962
2026-01-29 12:48:58.76	296.52	62.17	-22.9	-23.7	20.3	0.00e+00	0	41	0	2217738240	6	3945
2026-01-29 12:48:59.76	297.26	61.89	-23.2	-24.4	20.0	0.00e+00	0	41	0	2224029696	6	4104
2026-01-29 12:49:00.75	297.97	61.61	-23.3	-24.6	19.9	0.00e+00	0	41	0	2229272576	6	4166
2026-01-29 12:49:01.75	298.67	61.32	-23.4	-24.6	19.9	0.00e+00	0	41	0	2234515456	6	4165
2026-01-29 12:49:02.76	299.36	61.03	-23.4	-24.8	19.8	0.00e+00	0	41	0	2240806912	6	4198
2026-01-29 12:49:03.76	300.03	60.74	-23.4	-24.2	19.9	0.00e+00	0	41	0	2246049792	7	3956
2026-01-29 12:49:04.77	300.69	60.44	-23.3	-24.1	20.0	0.00e+00	0	41	0	2251292672	7	3911
2026-01-29 12:49:05.77	301.33	60.15	-23.5	-24.3	19.8	0.00e+00	0	41	0	2257584128	7	3975
2026-01-29 12:49:06.78	301.96	59.85	-23.7	-24.8	19.6	0.00e+00	0	41	0	2262827008	7	4099
2026-01-29 12:49:07.78	302.57	59.55	-23.9	-25.3	19.3	0.00e+00	0	41	0	2269118464	7	4220
2026-01-29 12:49:08.79	303.17	59.24	-23.8	-25.0	19.5	0.00e+00	0	41	0	2274361344	7	4135
2026-01-29 12:49:09.79	303.76	58.94	-23.8	-25.1	19.4	0.00e+00	0	41	0	2279604224	7	4164
2026-01-29 12:49:10.79	304.33	58.64	-23.8	-25.1	19.4	0.00e+00	0	41	0	2285895680	7	4156
2026-01-29 12:49:11.79	304.88	58.34	-23.8	-25.0	19.5	0.00e+00	0	41	0	2291138560	7	4150
2026-01-29 12:49:12.80	305.43	58.03	-23.8	-25.0	19.5	0.00e+00	0	41	0	2297430016	7	4144
2026-01-29 12:49:13.80	305.96	57.72	-23.8	-24.9	19.5	0.00e+00	0	41	0	2302672896	7	4126
2026-01-29 12:49:14.80	306.48	57.42	-23.9	-25.2	19.4	0.00e+00	0	42	0	2307915776	7	4191
2026-01-29 12:49:15.81	307.00	57.11	-24.0	-25.0	19.2	0.00e+00	0	41	0	2314207232	8	4028
2026-01-29 12:49:16.81	307.50	56.80	-24.5	-26.0	18.7	0.00e+00	0	41	0	2319450112	8	4293
2026-01-29 12:49:17.82	307.99	56.49	-24.6	-25.8	18.6	0.00e+00	0	41	0	2324692992	9	4120
2026-01-29 12:49:18.82	308.46	56.18	-24.4	-25.4	18.8	0.00e+00	0	41	0	2330984448	9	4028
2026-01-29 12:49:19.82	308.93	55.88	-24.5	-25.5	18.8	0.00e+00	0	41	0	2336227328	9	4049
2026-01-29 12:49:20.83	309.39	55.57	-24.3	-25.2	18.9	0.00e+00	0	41	0	2342518784	9	3955
2026-01-29 12:49:21.84	309.84	55.26	-24.3	-25.1	19.0	0.00e+00	0	41	0	2347761664	9	3945
2026-01-29 12:49:22.84	310.27	54.95	-24.6	-25.8	18.6	0.00e+00	0	41	0	2353004544	9	4108
2026-01-29 12:49:23.85	310.71	54.64	-24.8	-26.2	18.4	0.00e+00	0	41	0	2359296000	9	4207
2026-01-29 12:49:24.85	311.12	54.33	-24.5	-25.6	18.7	0.00e+00	0	41	0	2364538880	9	4064
2026-01-29 12:49:25.86	311.54	54.02	-24.2	-24.8	19.1	0.00e+00	0	41	0	2370830336	9	3863
2026-01-29 12:49:26.86	311.94	53.72	-24.0	-24.5	19.3	0.00e+00	0	41	0	2376073216	9	3791
2026-01-29 12:49:27.86	312.33	53.41	-24.3	-25.1	19.0	0.00e+00	0	41	0	2381316096	9	3942
2026-01-29 12:49:28.86	312.71	53.11	-24.3	-25.1	19.0	0.00e+00	0	41	0	2387607552	9	3939
2026-01-29 12:49:29.87	313.09	52.80	-24.5	-25.5	18.7	0.00e+00	0	41	0	2392850432	9	4047
2026-01-29 12:49:30.88	313.47	52.49	-24.2	-24.8	19.1	0.00e+00	0	41	0	2398093312	9	3865
2026-01-29 12:49:31.89	313.83	52.19	-23.9	-24.3	19.3	0.00e+00	0	41	0	2404384768	9	3756
2026-01-29 12:49:32.89	314.18	51.89	-23.9	-24.2	19.4	0.00e+00	0	41	0	2409627648	9	3725
2026-01-29 12:49:33.89	314.53	51.58	-24.0	-24.4	19.3	0.00e+00	0	41	0	2415919104	9	3790
2026-01-29 12:49:34.89	314.87	51.28	-24.0	-24.4	19.3	0.00e+00	0	41	0	2421161984	9	3778
2026-01-29 12:49:35.89	315.20	50.98	-23.9	-24.3	19.3	0.00e+00	0	41	0	2426404864	9	3764
2026-01-29 12:49:36.89	315.53	50.69	-23.8	-24.0	19.5	0.00e+00	0	41	0	2432696320	9	3697
2026-01-29 12:49:37.90	315.85	50.39	-23.7	-24.3	19.6	0.00e+00	0	41	0	2437939200	8	3855
2026-01-29 12:49:38.90	316.17	50.09	-23.5	-23.9	19.8	0.00e+00	0	41	0	2444230656	8	3772
2026-01-29 12:49:39.90	316.48	49.79	-23.5	-23.9	19.8	0.00e+00	0	41	0	2449473536	8	3771
2026-01-29 12:49:40.90	316.78	49.50	-23.7	-24.4	19.6	0.00e+00	0	41	0	2454716416	8	3888
2026-01-29 12:49:41.90	317.07	49.21	-23.6	-24.1	19.7	0.00e+00	0	41	0	2461007872	8	3816
2026-01-29 12:49:42.90	317.37	48.91	-23.7	-24.3	19.6	0.00e+00	0	41	0	2466250752	8	3859
2026-01-29 12:49:43.90	317.65	48.62	-23.5	-24.0	19.7	0.00e+00	0	41	0	2471493632	8	3790
2026-01-29 12:49:44.91	317.93	48.33	-23.4	-23.8	19.8	0.00e+00	0	41	0	2477785088	8	3756
2026-01-29 12:49:45.92	318.21	48.04	-23.6	-24.2	19.6	0.00e+00	0	41	0	2483027968	8	3839
2026-01-29 12:49:46.93	318.49	47.75	-23.7	-24.3	19.5	0.00e+00	0	41	0	2489319424	8	3878
2026-01-29 12:49:47.93	318.75	47.46	-23.8	-24.5	19.4	0.00e+00	0	41	0	2494562304	8	3926
2026-01-29 12:49:48.94	319.01	47.18	-23.9	-24.8	19.3	0.00e+00	0	41	0	2499805184	8	3979
2026-01-29 12:49:49.95	319.27	46.89	-23.7	-24.3	19.5	0.00e+00	0	41	0	2506096640	8	3866
2026-01-29 12:49:50.95	319.52	46.61	-23.6	-24.1	19.7	0.00e+00	0	41	0	2511339520	8	3815
2026-01-29 12:49:51.96	319.77	46.33	-23.6	-24.1	19.6	0.00e+00	0	41	0	2517630976	8	3813
2026-01-29 12:49:52.96	320.02	46.05	-23.4	-23.7	19.8	0.00e+00	0	41	0	2522873856	8	3730
2026-01-29 12:49:53.96	320.25	45.77	-23.3	-23.5	19.9	0.00e+00	0	41	0	2528116736	8	3686
2026-01-29 12:49:54.96	320.49	45.49	-23.3	-23.9	19.9	0.00e+00	0	41	0	2534408192	7	3887
2026-01-29 12:49:55.96	320.72	45.22	-23.1	-23.6	20.1	0.00e+00	0	41	0	2539651072	7	3807
2026-01-29 12:49:56.96	320.94	44.94	-23.4	-24.1	19.8	0.00e+00	0	41	0	2544893952	7	3939
2026-01-29 12:49:57.96	321.17	44.67	-23.3	-23.9	19.9	0.00e+00	0	41	0	2551185408	7	3882
2026-01-29 12:49:58.97	321.39	44.40	-23.2	-23.8	20.0	0.00e+00	0	41	0	2556428288	7	3861
2026-01-29 12:49:59.98	321.61	44.13	-23.3	-24.0	19.9	0.00e+00	0	41	0	2562719744	7	3911
2026-01-29 12:50:00.97	321.82	43.86	-23.3	-24.0	19.9	0.00e+00	0	41	0	2567962624	7	3902
2026-01-29 12:50:01.98	322.03	43.59	-23.3	-24.1	19.8	0.00e+00	0	41	0	2573205504	7	3925
2026-01-29 12:50:02.98	322.23	43.33	-23.3	-23.9	19.9	0.00e+00	0	41	0	2579496960	7	3890
2026-01-29 12:50:03.99	322.43	43.06	-23.2	-23.8	20.0	0.00e+00	0	41	0	2584739840	7	3850
2026-01-29 12:50:04.99	322.63	42.80	-23.2	-23.8	20.0	0.00e+00	0	41	0	2589982720	7	3854
2026-01-29 12:50:06.00	322.83	42.54	-23.4	-24.2	19.8	0.00e+00	0	41	0	2596274176	7	3943
2026-01-29 12:50:07.01	323.02	42.27	-23.1	-23.7	20.0	0.00e+00	0	41	0	2601517056	7	3824
2026-01-29 12:50:08.01	323.21	42.02	-23.0	-23.4	20.1	0.00e+00	0	41	0	2607808512	7	3775
2026-01-29 12:50:09.01	323.40	41.76	-23.0	-23.5	20.1	0.00e+00	0	41	0	2613051392	7	3782
2026-01-29 12:50:10.02	323.59	41.50	-23.2	-23.8	20.0	0.00e+00	0	41	0	2618294272	7	3852
2026-01-29 12:50:11.02	323.77	41.25	-23.0	-23.4	20.2	0.00e+00	0	41	0	2624585728	7	3759
2026-01-29 12:50:12.02	323.94	41.00	-23.0	-23.4	20.2	0.00e+00	0	41	0	2629828608	7	3769
2026-01-29 12:50:13.02	324.12	40.75	-22.9	-23.1	20.3	0.00e+00	0	41	0	2636120064	7	3708
2026-01-29 12:50:14.03	324.29	40.50	-23.0	-23.3	20.2	0.00e+00	0	41	0	2641362944	7	3751
2026-01-29 12:50:15.03	324.46	40.25	-23.0	-23.3	20.2	0.00e+00	0	41	0	2646605824	7	3755
2026-01-29 12:50:16.03	324.63	40.00	-23.1	-23.6	20.1	0.00e+00	0	42	0	2652897280	7	3819
2026-01-29 12:50:17.04	324.80	39.76	-23.1	-23.5	20.1	0.00e+00	0	41	0	2658140160	7	3800
2026-01-29 12:50:18.04	324.96	39.51	-23.0	-23.5	20.1	0.00e+00	0	41	0	2663383040	7	3789
2026-01-29 12:50:19.05	325.12	39.27	-23.1	-23.6	20.0	0.00e+00	0	41	0	2669674496	7	3818
2026-01-29 12:50:20.06	325.28	39.03	-22.9	-23.2	20.2	0.00e+00	0	41	0	2674917376	7	3729
2026-01-29 12:50:21.06	325.44	38.79	-22.8	-23.1	20.3	0.00e+00	0	41	0	2681208832	7	3702
2026-01-29 12:50:22.07	325.59	38.55	-23.0	-23.3	20.2	0.00e+00	0	41	0	2686451712	7	3746
2026-01-29 12:50:23.07	325.74	38.31	-22.8	-22.9	20.4	0.00e+00	0	41	0	2691694592	7	3667
2026-01-29 12:50:24.07	325.89	38.08	-22.8	-23.0	20.3	0.00e+00	0	42	0	2697986048	7	3677
2026-01-29 12:50:25.08	326.04	37.85	-22.8	-23.4	20.4	0.00e+00	0	41	0	2703228928	6	3887
2026-01-29 12:50:26.08	326.19	37.61	-22.9	-23.6	20.3	0.00e+00	0	41	0	2709520384	6	3928
2026-01-29 12:50:27.09	326.33	37.38	-22.8	-23.6	20.3	0.00e+00	0	41	0	2714763264	6	3917
2026-01-29 12:50:28.10	326.47	37.15	-23.0	-23.8	20.1	0.00e+00	0	42	0	2721054720	6	3979
2026-01-29 12:50:29.09	326.61	36.93	-22.9	-23.8	20.2	0.00e+00	0	41	0	2726297600	6	3968
2026-01-29 12:50:30.09	326.75	36.70	-23.0	-24.0	20.1	0.00e+00	0	41	0	2731540480	6	4006
2026-01-29 12:50:31.10	326.88	36.47	-23.1	-24.1	20.0	0.00e+00	0	42	0	2737831936	6	4033
2026-01-29 12:50:32.10	327.02	36.25	-23.0	-23.8	20.2	0.00e+00	0	41	0	2743074816	6	3966
2026-01-29 12:50:33.11	327.15	36.03	-23.0	-23.8	20.1	0.00e+00	0	41	0	2748317696	6	3967
2026-01-29 12:50:34.11	327.28	35.81	-23.1	-24.0	20.0	0.00e+00	0	41	0	2754609152	6	4020
2026-01-29 12:50:35.12	327.41	35.59	-22.9	-23.7	20.2	0.00e+00	0	41	0	2759852032	6	3950
2026-01-29 12:50:36.12	327.54	35.37	-22.9	-23.7	20.2	0.00e+00	0	41	0	2765094912	6	3947
2026-01-29 12:50:37.12	327.66	35.15	-23.0	-23.9	20.1	0.00e+00	0	41	0	2771386368	6	4001
2026-01-29 12:50:38.13	327.79	34.94	-23.0	-24.0	20.0	0.00e+00	0	41	0	2776629248	6	4015
2026-01-29 12:50:39.14	327.91	34.72	-23.1	-24.2	20.0	0.00e+00	0	41	0	2782920704	6	4065
2026-01-29 12:50:40.14	328.03	34.51	-23.1	-24.2	19.9	0.00e+00	0	41	0	2788163584	6	4069
2026-01-29 12:50:41.15	328.15	34.29	-23.2	-24.4	19.8	0.00e+00	0	41	0	2794455040	6	4123
2026-01-29 12:50:42.15	328.27	34.09	-23.2	-24.3	19.9	0.00e+00	0	41	0	2799697920	6	4083
2026-01-29 12:50:43.16	328.39	33.87	-23.2	-24.3	19.9	0.00e+00	0	41	0	2804940800	6	4095
2026-01-29 12:50:44.16	328.50	33.67	-23.2	-24.3	19.9	0.00e+00	0	41	0	2811232256	6	4082
2026-01-29 12:50:45.16	328.62	33.46	-23.3	-24.5	19.8	0.00e+00	0	41	0	2816475136	6	4134
2026-01-29 12:50:46.17	328.73	33.26	-23.1	-24.1	20.0	0.00e+00	0	41	0	2821718016	6	4044
2026-01-29 12:50:47.17	328.84	33.05	-23.1	-24.1	20.0	0.00e+00	0	41	0	2828009472	6	4027
2026-01-29 12:50:48.16	328.95	32.85	-23.2	-24.3	19.9	0.00e+00	0	41	0	2833252352	6	4081
2026-01-29 12:50:49.16	329.06	32.65	-23.2	-24.2	19.9	0.00e+00	0	41	0	2838495232	6	4069
2026-01-29 12:50:50.16	329.16	32.45	-23.3	-24.5	19.8	0.00e+00	0	41	0	2844786688	6	4138
2026-01-29 12:50:51.17	329.27	32.25	-23.4	-24.8	19.7	0.00e+00	0	41	0	2850029568	6	4200
2026-01-29 12:50:52.17	329.37	32.06	-23.5	-24.9	19.6	0.00e+00	0	41	0	2856321024	6	4228
2026-01-29 12:50:53.17	329.48	31.86	-23.6	-24.7	19.4	0.00e+00	0	41	0	2861563904	7	4087
2026-01-29 12:50:54.18	329.58	31.66	-23.8	-25.1	19.2	0.00e+00	0	41	0	2866806784	7	4188
2026-01-29 12:50:55.19	329.68	31.47	-23.7	-24.8	19.4	0.00e+00	0	41	0	2873098240	7	4102
2026-01-29 12:50:56.19	329.78	31.28	-23.6	-24.7	19.4	0.00e+00	0	41	0	2878341120	7	4085
2026-01-29 12:50:57.20	329.88	31.08	-23.7	-24.8	19.4	0.00e+00	0	41	0	2884632576	7	4094
2026-01-29 12:50:58.20	329.98	30.89	-23.6	-24.6	19.5	0.00e+00	0	41	0	2889875456	7	4060
2026-01-29 12:50:59.20	330.07	30.71	-23.7	-24.9	19.3	0.00e+00	0	41	0	2895118336	7	4129
2026-01-29 12:51:00.20	330.17	30.52	-23.9	-25.2	19.2	0.00e+00	0	41	0	2901409792	7	4197
2026-01-29 12:51:01.21	330.26	30.33	-23.6	-24.7	19.4	0.00e+00	0	41	0	2906652672	7	4067
2026-01-29 12:51:02.21	330.36	30.14	-23.4	-24.2	19.7	0.00e+00	0	41	0	2911895552	7	3959
2026-01-29 12:51:03.22	330.45	29.96	-23.4	-24.1	19.7	0.00e+00	0	41	0	2918187008	7	3941
2026-01-29 12:51:04.22	330.54	29.78	-23.4	-24.2	19.6	0.00e+00	0	41	0	2923429888	7	3963
2026-01-29 12:51:05.23	330.63	29.59	-23.4	-24.2	19.7	0.00e+00	0	42	0	2929721344	7	3966
2026-01-29 12:51:06.23	330.72	29.41	-23.5	-24.5	19.5	0.00e+00	0	41	0	2934964224	7	4020
2026-01-29 12:51:07.23	330.81	29.23	-23.7	-24.8	19.3	0.00e+00	0	41	0	2940207104	7	4094
2026-01-29 12:51:08.23	330.90	29.05	-23.5	-24.5	19.5	0.00e+00	0	41	0	2946498560	7	4036
2026-01-29 12:51:09.24	330.98	28.87	-23.5	-24.5	19.5	0.00e+00	0	41	0	2951741440	7	4027
2026-01-29 12:51:10.25	331.07	28.70	-23.5	-24.6	19.4	0.00e+00	0	41	0	2958032896	7	4045
2026-01-29 12:51:11.26	331.15	28.52	-23.5	-24.5	19.5	0.00e+00	0	41	0	2963275776	7	4028
2026-01-29 12:51:12.26	331.24	28.34	-23.6	-24.6	19.4	0.00e+00	0	41	0	2968518656	7	4055
2026-01-29 12:51:13.26	331.32	28.17	-23.7	-24.8	19.3	0.00e+00	0	41	0	2974810112	7	4111
2026-01-29 12:51:14.26	331.40	28.00	-23.5	-24.4	19.6	0.00e+00	0	41	0	2980052992	7	3996
2026-01-29 12:51:15.26	331.48	27.83	-23.3	-24.1	19.7	0.00e+00	0	41	0	2985295872	7	3943
2026-01-29 12:51:16.26	331.56	27.66	-23.3	-24.1	19.7	0.00e+00	0	41	0	2991587328	7	3928
2026-01-29 12:51:17.27	331.64	27.49	-23.3	-24.0	19.7	0.00e+00	0	42	0	2996830208	7	3905
2026-01-29 12:51:18.27	331.72	27.32	-23.3	-24.0	19.7	0.00e+00	0	41	0	3003121664	7	3905
2026-01-29 12:51:19.28	331.80	27.15	-23.3	-23.9	19.8	0.00e+00	0	41	0	3008364544	7	3894
2026-01-29 12:51:20.28	331.88	26.98	-23.3	-24.0	19.7	0.00e+00	0	41	0	3013607424	7	3906
2026-01-29 12:51:21.28	331.95	26.82	-23.3	-24.0	19.7	0.00e+00	0	42	0	3019898880	7	3906
2026-01-29 12:51:22.29	332.03	26.65	-23.4	-24.1	19.7	0.00e+00	0	41	0	3025141760	7	3941
2026-01-29 12:51:23.29	332.11	26.49	-23.3	-24.1	19.6	0.00e+00	0	41	0	3031433216	7	3936
2026-01-29 12:51:24.30	332.18	26.32	-23.4	-24.3	19.6	0.00e+00	0	41	0	3036676096	7	3969
2026-01-29 12:51:25.30	332.25	26.16	-23.5	-24.4	19.5	0.00e+00	0	41	0	3041918976	7	4006
2026-01-29 12:51:26.30	332.33	26.00	-23.5	-24.5	19.5	0.00e+00	0	41	0	3048210432	7	4027
2026-01-29 12:51:27.31	332.40	25.84	-23.6	-24.6	19.4	0.00e+00	0	41	0	3053453312	7	4060
2026-01-29 12:51:28.31	332.47	25.68	-23.6	-24.7	19.3	0.00e+00	0	42	0	3058696192	7	4071
2026-01-29 12:51:29.32	332.54	25.52	-23.6	-24.7	19.3	0.00e+00	0	41	0	3064987648	7	4085
2026-01-29 12:51:30.32	332.61	25.37	-23.7	-24.9	19.2	0.00e+00	0	41	0	3070230528	7	4128
2026-01-29 12:51:31.33	332.68	25.21	-23.8	-25.2	19.1	0.00e+00	0	42	0	3076521984	7	4187
2026-01-29 12:51:32.33	332.75	25.05	-23.7	-24.9	19.2	0.00e+00	0	41	0	3081764864	7	4125
2026-01-29 12:51:33.33	332.82	24.90	-23.7	-24.9	19.2	0.00e+00	0	42	0	3087007744	7	4125
2026-01-29 12:51:34.33	332.89	24.75	-23.8	-25.0	19.2	0.00e+00	0	41	0	3093299200	7	4151
2026-01-29 12:51:35.34	332.95	24.59	-23.8	-25.1	19.1	0.00e+00	0	41	0	3098542080	7	4170
2026-01-29 12:51:36.34	333.02	24.44	-23.9	-25.2	19.1	0.00e+00	0	41	0	3103784960	7	4205
2026-01-29 12:51:37.35	333.09	24.29	-23.9	-25.3	19.0	0.00e+00	0	42	0	3110076416	7	4232
2026-01-29 12:51:38.35	333.15	24.14	-24.0	-25.4	18.9	0.00e+00	0	41	0	3115319296	7	4257
2026-01-29 12:51:39.36	333.22	23.99	-24.0	-25.1	18.9	0.00e+00	0	41	0	3121610752	8	4051
2026-01-29 12:51:40.36	333.28	23.84	-24.1	-25.2	18.8	0.00e+00	0	42	0	3126853632	8	4089
2026-01-29 12:51:41.37	333.34	23.69	-24.2	-25.4	18.7	0.00e+00	0	41	0	3133145088	8	4149
2026-01-29 12:51:42.38	333.41	23.54	-24.2	-25.5	18.7	0.00e+00	0	41	0	3138387968	8	4150
2026-01-29 12:51:43.38	333.47	23.39	-24.3	-25.7	18.6	0.00e+00	0	41	0	3143630848	8	4213
2026-01-29 12:51:44.39	333.53	23.25	-24.2	-25.4	18.7	0.00e+00	0	41	0	3149922304	8	4151
2026-01-29 12:51:45.39	333.59	23.10	-24.2	-25.4	18.7	0.00e+00	0	41	0	3155165184	8	4146
2026-01-29 12:51:46.40	333.66	22.96	-24.2	-25.5	18.7	0.00e+00	0	41	0	3161456640	8	4156
2026-01-29 12:51:47.41	333.72	22.81	-24.2	-25.5	18.7	0.00e+00	0	41	0	3166699520	8	4159
2026-01-29 12:51:48.41	333.78	22.67	-24.3	-25.6	18.6	0.00e+00	0	41	0	3171942400	8	4197
2026-01-29 12:51:49.42	333.84	22.53	-24.2	-25.5	18.6	0.00e+00	0	41	0	3178233856	8	4170
2026-01-29 12:51:50.42	333.89	22.39	-24.2	-25.5	18.6	0.00e+00	0	42	0	3183476736	8	4160
2026-01-29 12:51:51.43	333.95	22.25	-24.3	-25.7	18.5	0.00e+00	0	41	0	3188719616	8	4213
2026-01-29 12:51:52.44	334.01	22.11	-24.4	-25.8	18.5	0.00e+00	0	41	0	3195011072	8	4247
2026-01-29 12:51:53.44	334.07	21.97	-24.3	-25.7	18.5	0.00e+00	0	41	0	3200253952	8	4221
2026-01-29 12:51:54.45	334.13	21.83	-24.5	-25.6	18.3	0.00e+00	0	41	0	3206545408	9	4083
2026-01-29 12:51:55.46	334.18	21.69	-24.7	-26.0	18.1	0.00e+00	0	41	0	3211788288	9	4178
2026-01-29 12:51:56.46	334.24	21.56	-24.7	-26.1	18.1	0.00e+00	0	41	0	3218079744	9	4192
2026-01-29 12:51:57.46	334.29	21.42	-24.7	-26.0	18.1	0.00e+00	0	41	0	3223322624	9	4171
2026-01-29 12:51:58.46	334.35	21.29	-24.8	-26.1	18.1	0.00e+00	0	41	0	3228565504	9	4200
2026-01-29 12:51:59.46	334.40	21.15	-24.8	-26.1	18.1	0.00e+00	0	41	0	3234856960	9	4199
2026-01-29 12:52:00.45	334.46	21.02	-24.8	-26.1	18.0	0.00e+00	0	41	0	3240099840	9	4207
2026-01-29 12:52:01.46	334.51	20.89	-24.9	-26.5	17.9	0.00e+00	0	41	0	3245342720	9	4295
2026-01-29 12:52:02.47	334.56	20.75	-25.0	-26.2	17.8	0.00e+00	0	42	0	3251634176	10	4109
2026-01-29 12:52:03.47	334.62	20.62	-24.8	-25.6	18.1	0.00e+00	0	42	0	3256877056	10	3962
2026-01-29 12:52:04.47	334.67	20.49	-24.6	-25.3	18.2	0.00e+00	0	41	0	3262119936	10	3883
2026-01-29 12:52:05.47	334.72	20.36	-24.5	-25.1	18.3	0.00e+00	0	41	0	3268411392	10	3853
2026-01-29 12:52:06.48	334.77	20.23	-24.6	-25.2	18.3	0.00e+00	0	41	0	3273654272	10	3873
2026-01-29 12:52:07.48	334.82	20.10	-24.7	-25.5	18.1	0.00e+00	0	42	0	3279945728	10	3940
2026-01-29 12:52:08.49	334.88	19.97	-24.7	-25.5	18.1	0.00e+00	0	42	0	3285188608	10	3945
2026-01-29 12:52:09.49	334.93	19.85	-24.8	-25.7	18.0	0.00e+00	0	42	0	3290431488	10	3980
2026-01-29 12:52:10.49	334.98	19.72	-24.8	-25.7	18.0	0.00e+00	0	41	0	3296722944	10	3995
2026-01-29 12:52:11.50	335.03	19.59	-24.9	-25.9	17.9	0.00e+00	0	41	0	3301965824	10	4048
2026-01-29 12:52:12.50	335.08	19.47	-24.9	-26.0	17.8	0.00e+00	0	42	0	3308257280	10	4051
2026-01-29 12:52:13.50	335.12	19.34	-25.0	-26.1	17.7	0.00e+00	0	42	0	3313500160	10	4092
2026-01-29 12:52:14.50	335.17	19.22	-25.1	-26.2	17.7	0.00e+00	0	41	0	3318743040	10	4121
2026-01-29 12:52:15.51	335.22	19.09	-25.1	-26.3	17.6	0.00e+00	0	41	0	3325034496	10	4142
2026-01-29 12:52:16.51	335.27	18.97	-25.1	-26.4	17.6	0.00e+00	0	41	0	3330277376	10	4173
2026-01-29 12:52:17.51	335.32	18.85	-25.2	-26.5	17.5	0.00e+00	0	42	0	3335520256	10	4187
2026-01-29 12:52:18.52	335.36	18.72	-25.2	-26.6	17.5	0.00e+00	0	41	0	3341811712	10	4206
2026-01-29 12:52:19.52	335.41	18.60	-25.2	-26.7	17.4	0.00e+00	0	41	0	3347054592	10	4231
2026-01-29 12:52:20.52	335.46	18.48	-25.2	-26.6	17.4	0.00e+00	0	41	0	3353346048	10	4230
2026-01-29 12:52:21.52	335.50	18.36	-25.2	-26.6	17.4	0.00e+00	0	41	0	3358588928	10	4225
2026-01-29 12:52:22.52	335.55	18.24	-25.3	-26.7	17.4	0.00e+00	0	42	0	3363831808	10	4251
2026-01-29 12:52:23.53	335.59	18.12	-25.3	-26.8	17.3	0.00e+00	0	41	0	3370123264	10	4272
2026-01-29 12:52:24.53	335.64	18.00	-25.3	-26.9	17.3	0.00e+00	0	41	0	3375366144	10	4292
2026-01-29 12:52:25.53	335.68	17.89	-25.3	-26.7	17.4	0.00e+00	0	41	0	3380609024	10	4248
2026-01-29 12:52:26.54	335.73	17.77	-25.3	-26.8	17.3	0.00e+00	0	41	0	3386900480	10	4274
2026-01-29 12:52:27.55	335.77	17.65	-25.4	-26.9	17.2	0.00e+00	0	42	0	3392143360	10	4308
2026-01-29 12:52:28.55	335.82	17.53	-25.4	-27.0	17.2	0.00e+00	0	41	0	3398434816	10	4316
2026-01-29 12:52:29.56	335.86	17.42	-25.3	-26.7	17.4	0.00e+00	0	42	0	3403677696	10	4251
2026-01-29 12:52:30.56	335.91	17.30	-25.2	-26.7	17.4	0.00e+00	0	42	0	3408920576	10	4233
2026-01-29 12:52:31.56	335.95	17.19	-25.2	-26.6	17.4	0.00e+00	0	42	0	3415212032	10	4225
2026-01-29 12:52:32.57	335.99	17.07	-25.3	-26.7	17.4	0.00e+00	0	42	0	3420454912	10	4243
2026-01-29 12:52:33.57	336.03	16.96	-25.3	-26.7	17.3	0.00e+00	0	42	0	3426746368	10	4237
2026-01-29 12:52:34.58	336.08	16.84	-25.3	-26.7	17.4	0.00e+00	0	41	0	3431989248	10	4242
2026-01-29 12:52:35.58	336.12	16.73	-25.4	-26.9	17.2	0.00e+00	0	41	0	3437232128	10	4298
2026-01-29 12:52:36.59	336.16	16.62	-25.4	-27.0	17.2	0.00e+00	0	41	0	3443523584	10	4316
2026-01-29 12:52:37.59	336.20	16.51	-25.3	-26.7	17.3	0.00e+00	0	42	0	3448766464	10	4244
2026-01-29 12:52:38.59	336.24	16.40	-25.3	-26.8	17.3	0.00e+00	0	42	0	3454009344	10	4263
2026-01-29 12:52:39.60	336.28	16.28	-25.3	-26.8	17.3	0.00e+00	0	42	0	3460300800	10	4272
2026-01-29 12:52:40.60	336.32	16.17	-25.3	-26.9	17.2	0.00e+00	0	42	0	3465543680	10	4285
2026-01-29 12:52:41.61	336.36	16.06	-25.4	-27.0	17.1	0.00e+00	0	41	0	3471835136	10	4336
2026-01-29 12:52:42.61	336.40	15.96	-25.4	-27.1	17.1	0.00e+00	0	41	0	3477078016	10	4343
2026-01-29 12:52:43.61	336.44	15.85	-25.4	-27.0	17.1	0.00e+00	0	41	0	3482320896	10	4333
2026-01-29 12:52:44.61	336.48	15.74	-25.5	-27.2	17.1	0.00e+00	0	42	0	3488612352	10	4369
2026-01-29 12:52:45.62	336.52	15.63	-25.5	-27.1	17.1	0.00e+00	0	41	0	3493855232	10	4355
2026-01-29 12:52:46.62	336.56	15.52	-25.5	-26.7	17.0	0.00e+00	0	41	0	3500146688	11	4136
2026-01-29 12:52:47.63	336.60	15.41	-25.6	-27.0	16.9	0.00e+00	0	42	0	3505389568	11	4214
2026-01-29 12:52:48.63	336.64	15.31	-25.6	-27.0	16.8	0.00e+00	0	42	0	3510632448	11	4207
2026-01-29 12:52:49.64	336.68	15.20	-25.5	-26.8	17.0	0.00e+00	0	42	0	3516923904	11	4159
2026-01-29 12:52:50.65	336.72	15.10	-25.6	-26.9	16.9	0.00e+00	0	42	0	3522166784	11	4179
2026-01-29 12:52:51.66	336.75	14.99	-25.6	-26.9	16.9	0.00e+00	0	41	0	3528458240	11	4179
2026-01-29 12:52:52.66	336.79	14.89	-25.6	-27.0	16.8	0.00e+00	0	41	0	3533701120	11	4221
2026-01-29 12:52:53.67	336.83	14.78	-25.7	-27.1	16.8	0.00e+00	0	42	0	3538944000	11	4247
2026-01-29 12:52:54.68	336.87	14.68	-25.7	-27.2	16.7	0.00e+00	0	42	0	3545235456	11	4261
2026-01-29 12:52:55.68	336.90	14.57	-25.7	-27.2	16.7	0.00e+00	0	41	0	3550478336	11	4271
2026-01-29 12:52:56.69	336.94	14.47	-25.8	-27.3	16.6	0.00e+00	0	41	0	3555721216	11	4305
2026-01-29 12:52:57.69	336.98	14.37	-25.8	-27.5	16.5	0.00e+00	0	42	0	3562012672	11	4339
2026-01-29 12:52:58.69	337.01	14.26	-25.9	-27.6	16.5	0.00e+00	0	42	0	3567255552	11	4365
2026-01-29 12:52:59.70	337.05	14.16	-26.0	-27.8	16.4	0.00e+00	0	42	0	3573547008	11	4429
2026-01-29 12:53:00.70	337.08	14.06	-26.2	-27.8	16.0	0.00e+00	0	42	0	3578789888	12	4312
2026-01-29 12:53:01.71	337.12	13.96	-26.1	-27.6	16.1	0.00e+00	0	42	0	3585081344	12	4268
2026-01-29 12:53:02.71	337.15	13.86	-25.9	-27.2	16.3	0.00e+00	0	42	0	3590324224	12	4154
2026-01-29 12:53:03.72	337.19	13.76	-25.9	-27.0	16.4	0.00e+00	0	42	0	3595567104	12	4109
2026-01-29 12:53:04.72	337.22	13.66	-25.9	-27.1	16.4	0.00e+00	0	42	0	3601858560	12	4127
2026-01-29 12:53:05.73	337.26	13.56	-25.9	-27.1	16.4	0.00e+00	0	42	0	3607101440	12	4137
2026-01-29 12:53:06.73	337.29	13.46	-26.0	-27.2	16.3	0.00e+00	0	41	0	3612344320	12	4166
2026-01-29 12:53:07.74	337.33	13.36	-25.9	-27.1	16.3	1.10e-06	0	42	0	3618635776	12	4141
2026-01-29 12:53:08.75	337.36	13.26	-25.9	-27.2	16.3	0.00e+00	0	42	0	3623878656	12	4153
2026-01-29 12:53:09.76	337.40	13.17	-25.9	-27.1	16.3	0.00e+00	0	42	0	3630170112	12	4140
2026-01-29 12:53:10.76	337.43	13.07	-26.0	-27.3	16.2	0.00e+00	0	42	0	3635412992	12	4186
2026-01-29 12:53:11.76	337.46	12.97	-26.0	-27.2	16.3	0.00e+00	0	42	0	3640655872	12	4164
2026-01-29 12:53:12.76	337.50	12.88	-26.0	-27.4	16.2	1.10e-06	0	42	0	3646947328	12	4218
2026-01-29 12:53:13.76	337.53	12.78	-26.0	-27.3	16.2	0.00e+00	0	41	0	3652190208	12	4192
2026-01-29 12:53:14.77	337.56	12.68	-26.0	-27.4	16.2	0.00e+00	0	41	0	3658481664	12	4215
2026-01-29 12:53:15.77	337.60	12.59	-26.1	-27.5	16.1	0.00e+00	0	42	0	3663724544	12	4231
2026-01-29 12:53:16.78	337.63	12.49	-26.1	-27.5	16.1	1.10e-06	0	42	0	3668967424	12	4225
2026-01-29 12:53:17.78	337.66	12.40	-26.2	-27.8	16.0	0.00e+00	0	42	0	3675258880	12	4307
2026-01-29 12:53:18.78	337.69	12.30	-26.2	-27.7	16.0	0.00e+00	0	41	0	3680501760	12	4281
2026-01-29 12:53:19.79	337.73	12.21	-26.2	-27.8	15.9	0.00e+00	0	41	0	3685744640	12	4317
2026-01-29 12:53:20.79	337.76	12.12	-26.3	-28.0	15.8	0.00e+00	0	42	0	3692036096	12	4386
2026-01-29 12:53:21.79	337.79	12.02	-26.3	-28.1	15.8	0.00e+00	0	42	0	3697278976	12	4389
2026-01-29 12:53:22.80	337.82	11.93	-26.3	-27.9	15.9	0.00e+00	0	42	0	3703570432	12	4342
2026-01-29 12:53:23.81	337.85	11.84	-26.3	-27.9	15.9	0.00e+00	0	42	0	3708813312	12	4341
2026-01-29 12:53:24.81	337.88	11.74	-26.3	-27.9	15.9	0.00e+00	0	42	0	3714056192	12	4346
2026-01-29 12:53:25.82	337.91	11.65	-26.3	-27.9	15.8	0.00e+00	0	42	0	3720347648	12	4337
2026-01-29 12:53:26.82	337.95	11.56	-26.4	-28.1	15.7	0.00e+00	0	42	0	3725590528	12	4393
2026-01-29 12:53:27.82	337.98	11.47	-26.3	-28.0	15.8	0.00e+00	0	42	0	3731881984	12	4374
2026-01-29 12:53:28.82	338.01	11.38	-26.4	-28.1	15.7	0.00e+00	0	42	0	3737124864	12	4404
2026-01-29 12:53:29.82	338.04	11.29	-26.4	-28.1	15.7	0.00e+00	0	41	0	3742367744	12	4396
2026-01-29 12:53:30.83	338.07	11.20	-26.4	-28.3	15.6	0.00e+00	0	42	0	3748659200	12	4460
2026-01-29 12:53:31.83	338.10	11.11	-26.4	-28.2	15.6	0.00e+00	0	42	0	3753902080	12	4439
2026-01-29 12:53:32.84	338.13	11.02	-26.5	-27.9	15.5	0.00e+00	0	42	0	3759144960	13	4248
2026-01-29 12:53:33.84	338.16	10.93	-26.7	-28.3	15.3	0.00e+00	0	42	0	3765436416	13	4347
2026-01-29 12:53:34.84	338.19	10.84	-26.6	-28.2	15.3	0.00e+00	0	42	0	3770679296	13	4325
2026-01-29 12:53:35.84	338.22	10.75	-26.7	-28.4	15.2	0.00e+00	0	42	0	3775922176	13	4357
2026-01-29 12:53:36.85	338.25	10.66	-26.7	-28.3	15.3	0.00e+00	0	42	0	3782213632	13	4332
2026-01-29 12:53:37.85	338.27	10.58	-26.6	-28.1	15.4	0.00e+00	0	42	0	3787456512	13	4279
2026-01-29 12:53:38.85	338.30	10.49	-26.5	-28.0	15.4	0.00e+00	0	42	0	3793747968	13	4270
2026-01-29 12:53:39.85	338.33	10.40	-26.6	-28.1	15.4	0.00e+00	0	42	0	3798990848	13	4284
2026-01-29 12:53:40.86	338.36	10.31	-26.6	-28.2	15.3	0.00e+00	0	42	0	3805282304	13	4325
2026-01-29 12:53:41.86	338.39	10.23	-26.7	-28.3	15.2	0.00e+00	0	42	0	3810525184	13	4355
2026-01-29 12:53:42.87	338.42	10.14	-26.7	-28.3	15.2	0.00e+00	0	42	0	3815768064	13	4358
2026-01-29 12:53:43.88	338.45	10.05	-26.7	-28.4	15.1	0.00e+00	0	42	0	3822059520	13	4382
2026-01-29 12:53:44.88	338.47	9.97	-26.7	-28.5	15.1	0.00e+00	0	42	0	3827302400	13	4400
2026-01-29 12:53:45.88	338.50	9.88	-26.8	-28.6	15.0	0.00e+00	0	42	0	3832545280	13	4424
2026-01-29 12:53:46.88	338.53	9.80	-26.8	-28.5	15.0	0.00e+00	0	42	0	3838836736	13	4415
2026-01-29 12:53:47.89	338.56	9.71	-26.8	-28.7	15.0	0.00e+00	0	42	0	3844079616	13	4461
