passes_logs/2026/01/29/R2M6_AANII_01/R2M6_AANII_01__20260129_082702_SUOMI_NPP_rec.log

#Pass ID: 20260129_082702_SUOMI NPP
#Satellite: SUOMI NPP
#Configuration: NPP
#almurnet v.1.7.20240730
#Start time: 2026-01-29 08:27:01

#Version: 2.2.20231116
#Station: R2M6_AANII_01
#Location: 30.233357 lon 59.946436 lat
#TLE: 1 37849U 11061A   26027.93236865  .00000148  00000+0  91411-4 0  9991
#TLE: 2 37849  98.7823 329.8704 0002085  41.3231 318.8102 14.19530777738546

#Time	Az	El	Level	Level2	SNR	BER	BlckErr	Temp	State	Recorded	gain1	gain2
2026-01-29 08:27:01.98	99.84	6.99	-31.8	-43.8	3.7	1.50e+00	0	40	0	0	24	14327
2026-01-29 08:27:02.98	99.75	7.05	-31.8	-43.3	3.8	1.49e+00	0	40	104	0	25	13497
2026-01-29 08:27:03.99	99.65	7.12	-31.8	-43.2	3.8	1.49e+00	0	40	104	0	25	13468
2026-01-29 08:27:04.99	99.56	7.18	-31.7	-43.6	3.8	1.49e+00	0	40	104	0	24	14152
2026-01-29 08:27:05.99	99.47	7.24	-31.7	-43.5	3.8	1.49e+00	0	40	104	0	24	13992
2026-01-29 08:27:07.00	99.37	7.31	-31.6	-43.2	3.8	1.49e+00	0	40	104	0	24	13689
2026-01-29 08:27:08.00	99.28	7.37	-31.5	-43.0	3.8	1.49e+00	0	40	104	0	24	13571
2026-01-29 08:27:09.01	99.18	7.44	-31.4	-42.8	3.8	1.49e+00	0	40	104	0	24	13381
2026-01-29 08:27:10.02	99.08	7.50	-31.4	-42.3	3.8	1.49e+00	0	40	104	0	24	12672
2026-01-29 08:27:11.02	98.99	7.57	-31.3	-41.5	3.8	1.49e+00	0	41	104	0	24	11574
2026-01-29 08:27:12.02	98.89	7.63	-31.3	-40.8	4.0	1.49e+00	0	41	104	0	23	10722
2026-01-29 08:27:13.03	98.79	7.70	-31.2	-39.8	4.2	1.41e+00	0	41	0	0	23	9634
2026-01-29 08:27:14.04	98.70	7.76	-31.3	-39.4	4.4	1.31e+00	0	41	0	1048576	23	9155
2026-01-29 08:27:15.04	98.60	7.83	-31.3	-39.0	4.6	9.98e-01	0	40	0	3145728	23	8726
2026-01-29 08:27:16.04	98.50	7.89	-31.4	-39.5	4.5	9.36e-01	0	41	0	4194304	23	9116
2026-01-29 08:27:17.04	98.40	7.95	-31.4	-40.2	4.2	1.20e+00	0	41	0	6291456	23	9942
2026-01-29 08:27:18.05	98.30	8.02	-31.4	-40.6	4.1	1.39e+00	0	41	0	6291456	23	10302
2026-01-29 08:27:19.05	98.20	8.09	-31.6	-42.2	3.8	1.49e+00	0	41	104	6291456	23	12239
2026-01-29 08:27:20.05	98.10	8.15	-31.7	-43.3	3.8	1.49e+00	0	41	104	6291456	23	13709
2026-01-29 08:27:21.05	98.00	8.22	-31.7	-43.2	3.8	1.49e+00	0	41	104	6291456	23	13623
2026-01-29 08:27:22.06	97.90	8.28	-31.7	-43.6	3.8	1.49e+00	0	41	104	6291456	23	14192
2026-01-29 08:27:23.06	97.80	8.35	-31.7	-43.9	3.8	1.49e+00	0	41	104	6291456	23	14654
2026-01-29 08:27:24.06	97.70	8.41	-31.7	-43.8	3.8	1.49e+00	0	41	104	6291456	23	14526
2026-01-29 08:27:25.07	97.59	8.48	-31.6	-43.9	3.8	1.49e+00	0	41	104	6291456	23	14821
2026-01-29 08:27:26.08	97.49	8.54	-31.6	-43.9	3.8	1.49e+00	0	41	104	6291456	23	14867
2026-01-29 08:27:27.09	97.38	8.61	-31.5	-43.7	3.8	1.49e+00	0	41	104	6291456	23	14613
2026-01-29 08:27:28.10	97.28	8.68	-31.5	-43.6	3.8	1.49e+00	0	41	104	6291456	23	14545
2026-01-29 08:27:29.10	97.17	8.74	-31.4	-43.5	3.8	1.49e+00	0	41	104	6291456	23	14449
2026-01-29 08:27:30.10	97.07	8.81	-31.4	-43.5	3.8	1.49e+00	0	41	104	6291456	23	14497
2026-01-29 08:27:31.11	96.96	8.88	-31.4	-43.5	3.8	1.49e+00	0	41	104	6291456	23	14495
2026-01-29 08:27:32.11	96.86	8.94	-31.5	-43.6	3.8	1.49e+00	0	41	104	6291456	23	14551
2026-01-29 08:27:33.11	96.75	9.01	-31.5	-43.6	3.8	1.49e+00	0	41	104	6291456	23	14625
2026-01-29 08:27:34.10	96.65	9.07	-31.5	-43.6	3.8	1.49e+00	0	41	104	6291456	23	14618
2026-01-29 08:27:35.11	96.54	9.14	-31.5	-43.5	3.8	1.49e+00	0	41	104	6291456	23	14432
2026-01-29 08:27:36.11	96.43	9.21	-31.4	-43.3	3.8	1.49e+00	0	41	104	6291456	23	14212
2026-01-29 08:27:37.12	96.32	9.27	-31.3	-43.2	3.8	1.49e+00	0	41	104	6291456	23	14142
2026-01-29 08:27:38.12	96.21	9.34	-31.3	-43.1	3.8	1.49e+00	0	41	104	6291456	23	14086
2026-01-29 08:27:39.12	96.10	9.41	-31.3	-43.1	3.8	1.49e+00	0	41	104	6291456	23	14017
2026-01-29 08:27:40.13	95.99	9.47	-31.2	-42.8	3.8	1.49e+00	0	41	104	6291456	23	13736
2026-01-29 08:27:41.14	95.88	9.54	-31.2	-42.7	3.8	1.49e+00	0	41	104	6291456	23	13550
2026-01-29 08:27:42.14	95.77	9.61	-31.3	-42.7	3.8	1.49e+00	0	41	104	6291456	23	13463
2026-01-29 08:27:43.14	95.66	9.68	-31.3	-42.7	3.8	1.49e+00	0	41	104	6291456	23	13351
2026-01-29 08:27:44.14	95.54	9.74	-31.3	-42.7	3.8	1.49e+00	0	41	104	6291456	23	13341
2026-01-29 08:27:45.15	95.43	9.81	-31.3	-42.4	3.8	1.49e+00	0	41	104	6291456	23	12949
2026-01-29 08:27:46.15	95.32	9.88	-31.4	-41.8	3.8	1.49e+00	0	41	104	6291456	23	11912
2026-01-29 08:27:47.15	95.20	9.94	-31.5	-41.0	3.9	1.49e+00	0	41	104	6291456	23	10716
2026-01-29 08:27:48.15	95.09	10.01	-31.5	-39.7	4.5	1.42e+00	0	42	104	6291456	23	9229
2026-01-29 08:27:49.15	94.98	10.08	-31.5	-38.2	4.3	1.41e+00	0	42	104	6291456	23	7804
2026-01-29 08:27:50.16	94.86	10.15	-31.4	-36.5	6.8	2.97e-01	0	41	104	6291456	23	6498
2026-01-29 08:27:51.16	94.74	10.22	-31.4	-36.0	7.6	1.33e-01	0	41	0	1048576	23	6107
2026-01-29 08:27:52.17	94.63	10.28	-31.6	-36.4	7.6	9.19e-02	0	41	0	3145728	23	6251
2026-01-29 08:27:53.17	94.51	10.35	-31.8	-37.0	7.4	9.66e-02	0	41	0	5242880	23	6542
2026-01-29 08:27:54.18	94.39	10.42	-32.2	-38.5	5.9	2.17e-01	0	41	0	6291456	24	7463
2026-01-29 08:27:55.18	94.27	10.49	-32.4	-39.5	5.4	4.70e-01	0	41	0	8388608	24	8183
2026-01-29 08:27:56.18	94.16	10.56	-32.2	-38.0	6.4	3.29e-01	0	42	0	10485760	24	7009
2026-01-29 08:27:57.18	94.04	10.62	-32.0	-36.5	7.7	1.16e-01	0	41	0	12582912	24	6059
2026-01-29 08:27:58.19	93.92	10.69	-31.9	-36.2	8.1	6.37e-02	0	42	0	14680064	24	5884
2026-01-29 08:27:59.19	93.80	10.76	-32.2	-37.1	7.4	9.42e-02	0	42	0	16777216	24	6391
2026-01-29 08:28:00.20	93.67	10.83	-32.2	-37.3	7.3	1.42e-01	0	42	0	17825792	24	6477
2026-01-29 08:28:01.20	93.55	10.90	-31.9	-35.8	8.5	7.93e-02	0	42	0	19922944	24	5654
2026-01-29 08:28:02.21	93.43	10.97	-31.7	-35.1	9.2	2.14e-02	0	42	0	22020096	24	5300
2026-01-29 08:28:03.21	93.31	11.03	-31.5	-34.3	9.8	1.43e-02	0	42	0	24117248	24	4922
2026-01-29 08:28:04.21	93.18	11.10	-31.2	-33.7	10.7	5.17e-03	0	42	0	25165824	23	4758
2026-01-29 08:28:05.22	93.06	11.17	-31.0	-32.8	11.3	1.79e-03	0	42	0	27262976	23	4438
2026-01-29 08:28:06.22	92.93	11.24	-30.8	-32.3	11.8	6.55e-04	0	42	0	29360128	23	4270
2026-01-29 08:28:07.23	92.81	11.31	-30.7	-32.4	12.0	3.22e-04	0	42	0	31457280	22	4400
2026-01-29 08:28:08.23	92.68	11.38	-30.7	-32.5	12.0	3.84e-04	0	42	0	33554432	22	4413
2026-01-29 08:28:09.23	92.56	11.45	-30.7	-32.5	11.9	3.65e-04	0	42	0	34603008	22	4419
2026-01-29 08:28:10.24	92.43	11.52	-31.0	-33.3	11.5	7.03e-04	0	42	0	36700160	22	4710
2026-01-29 08:28:11.25	92.30	11.59	-30.9	-33.0	11.6	6.65e-04	0	42	0	38797312	22	4584
2026-01-29 08:28:12.24	92.17	11.65	-30.9	-33.0	11.7	5.32e-04	0	42	0	40894464	22	4578
2026-01-29 08:28:13.25	92.04	11.72	-30.8	-32.8	11.8	6.30e-04	0	42	0	42991616	22	4524
2026-01-29 08:28:14.24	91.92	11.79	-30.8	-32.6	12.0	3.96e-04	0	42	0	44040192	22	4430
2026-01-29 08:28:15.25	91.79	11.86	-30.9	-32.8	11.9	3.74e-04	0	42	0	46137344	22	4491
2026-01-29 08:28:16.25	91.66	11.93	-30.8	-32.7	12.0	2.81e-04	0	42	0	48234496	22	4462
2026-01-29 08:28:17.25	91.52	12.00	-31.0	-33.3	11.6	6.68e-04	0	42	0	50331648	22	4663
2026-01-29 08:28:18.26	91.39	12.07	-31.3	-34.1	11.1	1.02e-03	0	42	0	52428800	22	4986
2026-01-29 08:28:19.26	91.26	12.14	-31.4	-34.5	10.8	2.38e-03	0	42	0	53477376	22	5115
2026-01-29 08:28:20.27	91.13	12.21	-31.3	-34.2	11.0	1.92e-03	0	42	0	55574528	22	4995
2026-01-29 08:28:21.27	90.99	12.28	-31.3	-34.1	11.1	1.74e-03	0	42	0	57671680	22	4962
2026-01-29 08:28:22.28	90.86	12.35	-31.3	-34.1	11.1	1.76e-03	0	42	0	59768832	22	4957
2026-01-29 08:28:23.29	90.72	12.42	-31.4	-34.6	10.7	2.66e-03	0	42	0	61865984	22	5165
2026-01-29 08:28:24.29	90.59	12.49	-31.6	-34.5	10.4	4.53e-03	0	42	0	62914560	23	5055
2026-01-29 08:28:25.29	90.45	12.56	-31.7	-34.8	10.2	5.32e-03	0	42	0	65011712	23	5185
2026-01-29 08:28:26.30	90.31	12.63	-31.9	-35.6	9.7	9.20e-03	0	42	0	67108864	23	5523
2026-01-29 08:28:27.31	90.17	12.70	-31.8	-35.4	9.8	8.65e-03	0	42	0	69206016	23	5450
2026-01-29 08:28:28.31	90.03	12.77	-31.8	-35.2	9.9	1.01e-02	0	42	0	71303168	23	5325
2026-01-29 08:28:29.32	89.89	12.84	-31.7	-34.9	10.2	7.52e-03	0	42	0	72351744	23	5200
2026-01-29 08:28:30.32	89.76	12.91	-31.7	-35.0	10.1	8.05e-03	0	42	0	74448896	23	5255
2026-01-29 08:28:31.32	89.62	12.98	-31.5	-34.3	10.7	3.72e-03	0	42	0	76546048	23	4944
2026-01-29 08:28:32.32	89.47	13.05	-31.4	-33.7	11.1	2.33e-03	0	42	0	78643200	23	4706
2026-01-29 08:28:33.33	89.33	13.12	-31.4	-33.7	11.2	1.32e-03	0	42	0	79691776	23	4705
2026-01-29 08:28:34.34	89.19	13.19	-31.5	-34.0	10.9	1.63e-03	0	42	0	81788928	23	4816
2026-01-29 08:28:35.34	89.05	13.26	-31.6	-34.4	10.7	1.89e-03	0	42	0	83886080	23	4952
2026-01-29 08:28:36.35	88.90	13.33	-31.5	-34.2	10.8	3.07e-03	0	42	0	85983232	23	4899
2026-01-29 08:28:37.35	88.76	13.40	-31.3	-33.5	11.3	2.09e-03	0	42	0	88080384	23	4647
2026-01-29 08:28:38.35	88.61	13.47	-31.3	-33.3	11.4	1.02e-03	0	42	0	90177536	23	4579
2026-01-29 08:28:39.36	88.46	13.54	-31.2	-33.3	11.3	1.22e-03	0	42	0	91226112	23	4611
2026-01-29 08:28:40.36	88.32	13.61	-31.2	-33.4	11.3	1.26e-03	0	42	0	93323264	23	4632
2026-01-29 08:28:41.36	88.17	13.68	-31.2	-33.3	11.3	1.20e-03	0	42	0	95420416	23	4611
2026-01-29 08:28:42.36	88.02	13.75	-31.2	-33.5	11.2	1.22e-03	0	42	0	97517568	23	4698
2026-01-29 08:28:43.36	87.88	13.82	-31.3	-33.6	11.1	1.11e-03	0	42	0	98566144	23	4724
2026-01-29 08:28:44.36	87.73	13.89	-31.3	-33.6	11.2	2.04e-03	0	42	0	100663296	23	4704
2026-01-29 08:28:45.37	87.58	13.96	-31.1	-32.9	11.7	1.18e-03	0	42	0	102760448	23	4475
2026-01-29 08:28:46.37	87.42	14.03	-31.1	-33.0	11.6	8.27e-04	0	42	0	104857600	23	4499
2026-01-29 08:28:47.37	87.27	14.10	-31.0	-32.7	11.9	5.58e-04	0	42	0	106954752	23	4378
2026-01-29 08:28:48.37	87.12	14.17	-31.0	-32.8	11.8	4.49e-04	0	42	0	108003328	23	4428
2026-01-29 08:28:49.37	86.97	14.24	-31.1	-33.0	11.7	4.97e-04	0	42	0	110100480	23	4482
2026-01-29 08:28:50.37	86.82	14.31	-31.1	-33.2	11.5	6.19e-04	0	42	0	112197632	23	4575
2026-01-29 08:28:51.38	86.66	14.38	-31.2	-33.4	11.4	8.05e-04	0	42	0	114294784	23	4635
2026-01-29 08:28:52.38	86.50	14.45	-31.3	-33.6	11.2	8.19e-04	0	42	0	116391936	23	4726
2026-01-29 08:28:53.38	86.35	14.52	-31.3	-33.7	11.2	1.85e-03	0	42	0	117440512	23	4740
2026-01-29 08:28:54.39	86.19	14.59	-31.2	-33.3	11.4	1.37e-03	0	42	0	119537664	23	4609
2026-01-29 08:28:55.39	86.03	14.66	-31.1	-33.0	11.6	8.00e-04	0	42	0	121634816	23	4508
2026-01-29 08:28:56.40	85.87	14.73	-31.0	-32.8	11.7	4.75e-04	0	42	0	123731968	23	4428
2026-01-29 08:28:57.40	85.72	14.80	-31.0	-32.9	11.8	5.93e-04	0	42	0	125829120	23	4463
2026-01-29 08:28:58.40	85.56	14.87	-31.0	-32.9	11.8	4.63e-04	0	42	0	126877696	23	4453
2026-01-29 08:28:59.40	85.40	14.94	-31.1	-33.1	11.6	5.44e-04	0	42	0	128974848	23	4513
2026-01-29 08:29:00.40	85.24	15.01	-31.3	-33.7	11.2	9.97e-04	0	42	0	131072000	23	4740
2026-01-29 08:29:01.40	85.07	15.08	-31.2	-33.5	11.3	1.71e-03	0	42	0	133169152	23	4688
2026-01-29 08:29:02.41	84.91	15.15	-31.2	-33.4	11.4	1.26e-03	0	42	0	135266304	23	4635
2026-01-29 08:29:03.41	84.75	15.22	-31.2	-33.4	11.4	9.26e-04	0	42	0	136314880	23	4645
2026-01-29 08:29:04.41	84.58	15.29	-31.2	-33.3	11.5	6.85e-04	0	42	0	138412032	23	4580
2026-01-29 08:29:05.42	84.42	15.36	-31.2	-33.2	11.5	8.15e-04	0	42	0	140509184	23	4576
2026-01-29 08:29:06.42	84.25	15.43	-31.3	-33.7	11.2	1.24e-03	0	42	0	142606336	23	4720
2026-01-29 08:29:07.42	84.08	15.50	-31.4	-34.0	11.0	2.30e-03	0	42	0	143654912	23	4858
2026-01-29 08:29:08.43	83.92	15.57	-31.4	-33.8	11.1	1.78e-03	0	42	0	145752064	23	4789
2026-01-29 08:29:09.43	83.75	15.64	-31.2	-33.2	11.6	9.93e-04	0	42	0	147849216	23	4550
2026-01-29 08:29:10.44	83.58	15.71	-31.1	-33.1	11.6	5.18e-04	0	42	0	149946368	23	4514
2026-01-29 08:29:11.44	83.41	15.78	-31.1	-33.0	11.7	4.32e-04	0	42	0	152043520	23	4477
2026-01-29 08:29:12.44	83.24	15.84	-31.1	-33.0	11.7	5.17e-04	0	42	0	153092096	23	4491
2026-01-29 08:29:13.44	83.07	15.91	-31.1	-33.0	11.8	4.85e-04	0	42	0	155189248	23	4471
2026-01-29 08:29:14.44	82.90	15.98	-31.1	-33.1	11.7	6.96e-04	0	42	0	157286400	23	4513
2026-01-29 08:29:15.44	82.72	16.05	-31.3	-33.6	11.3	6.97e-04	0	42	0	159383552	23	4702
2026-01-29 08:29:16.44	82.55	16.12	-31.4	-33.8	11.2	1.56e-03	0	42	0	161480704	23	4769
2026-01-29 08:29:17.45	82.37	16.19	-31.2	-33.4	11.5	1.02e-03	0	42	0	162529280	23	4621
2026-01-29 08:29:18.45	82.20	16.26	-31.3	-33.5	11.4	9.04e-04	0	42	0	164626432	23	4652
2026-01-29 08:29:19.46	82.02	16.33	-31.3	-33.6	11.3	1.16e-03	0	42	0	166723584	23	4679
2026-01-29 08:29:20.45	81.85	16.40	-31.3	-33.7	11.3	9.17e-04	0	42	0	168820736	23	4725
2026-01-29 08:29:21.46	81.67	16.47	-31.3	-33.6	11.4	1.30e-03	0	43	0	170917888	23	4702
2026-01-29 08:29:22.46	81.49	16.53	-31.4	-33.9	11.2	1.49e-03	0	42	0	171966464	23	4806
2026-01-29 08:29:23.47	81.31	16.60	-31.3	-33.5	11.4	1.07e-03	0	42	0	174063616	23	4647
2026-01-29 08:29:24.47	81.13	16.67	-31.2	-33.4	11.5	8.79e-04	0	42	0	176160768	23	4619
2026-01-29 08:29:25.48	80.94	16.74	-31.1	-33.1	11.7	8.50e-04	0	42	0	178257920	23	4524
2026-01-29 08:29:26.49	80.76	16.81	-31.0	-32.8	12.0	2.94e-04	0	43	0	180355072	23	4417
2026-01-29 08:29:27.49	80.58	16.88	-31.2	-33.3	11.8	3.26e-04	0	42	0	181403648	23	4567
2026-01-29 08:29:28.50	80.39	16.95	-31.0	-32.8	12.0	5.74e-04	0	42	0	183500800	23	4388
2026-01-29 08:29:29.50	80.21	17.01	-30.8	-32.4	12.5	1.88e-04	0	42	0	185597952	22	4366
2026-01-29 08:29:30.51	80.02	17.08	-30.9	-32.9	12.2	1.27e-04	0	42	0	187695104	22	4544
2026-01-29 08:29:31.51	79.84	17.15	-30.9	-32.8	12.3	2.77e-04	0	42	0	189792256	22	4504
2026-01-29 08:29:32.51	79.65	17.22	-30.6	-32.1	12.8	1.03e-04	0	42	0	190840832	22	4265
2026-01-29 08:29:33.52	79.46	17.28	-30.6	-31.9	12.9	6.40e-05	0	42	0	192937984	22	4208
2026-01-29 08:29:34.51	79.27	17.35	-30.6	-32.0	12.8	4.11e-05	0	42	0	195035136	22	4242
2026-01-29 08:29:35.51	79.08	17.42	-30.6	-32.0	12.7	5.87e-05	0	42	0	197132288	22	4253
2026-01-29 08:29:36.52	78.89	17.49	-30.6	-32.1	12.8	5.72e-05	0	42	0	198180864	22	4272
2026-01-29 08:29:37.52	78.70	17.55	-30.6	-32.0	12.9	6.17e-05	0	42	0	200278016	22	4235
2026-01-29 08:29:38.52	78.51	17.62	-30.4	-31.5	13.2	3.50e-05	0	42	0	202375168	22	4083
2026-01-29 08:29:39.52	78.32	17.69	-30.4	-31.6	13.1	1.90e-05	0	42	0	204472320	22	4123
2026-01-29 08:29:40.53	78.12	17.75	-30.5	-31.7	13.1	3.50e-05	0	42	0	206569472	22	4142
2026-01-29 08:29:41.53	77.93	17.82	-30.4	-31.5	13.2	2.51e-05	0	42	0	207618048	22	4067
2026-01-29 08:29:42.53	77.73	17.88	-30.5	-31.7	13.0	3.58e-05	0	43	0	209715200	22	4154
2026-01-29 08:29:43.54	77.53	17.95	-30.4	-31.4	13.4	1.98e-05	0	42	0	211812352	22	4059
2026-01-29 08:29:44.54	77.34	18.02	-30.5	-31.7	13.1	2.28e-05	0	42	0	213909504	22	4130
2026-01-29 08:29:45.53	77.14	18.08	-30.5	-31.7	13.1	4.19e-05	0	42	0	216006656	22	4131
2026-01-29 08:29:46.54	76.94	18.15	-30.4	-31.6	13.2	2.36e-05	0	42	0	217055232	22	4089
2026-01-29 08:29:47.53	76.74	18.21	-30.5	-31.7	13.1	5.18e-05	0	43	0	219152384	22	4123
2026-01-29 08:29:48.53	76.54	18.28	-30.4	-31.5	13.3	1.37e-05	0	42	0	221249536	22	4069
2026-01-29 08:29:49.54	76.34	18.34	-30.3	-31.1	13.5	2.89e-05	0	42	0	223346688	22	3954
2026-01-29 08:29:50.54	76.14	18.41	-30.0	-30.7	14.1	7.00e-07	0	42	0	225443840	21	3912
2026-01-29 08:29:51.54	75.93	18.47	-29.9	-30.6	14.1	1.50e-06	0	43	0	226492416	21	3886
2026-01-29 08:29:52.54	75.73	18.53	-29.8	-30.8	14.4	3.00e-06	0	43	0	228589568	20	4021
2026-01-29 08:29:53.55	75.52	18.60	-29.8	-30.8	14.4	7.00e-07	0	42	0	230686720	20	4027
2026-01-29 08:29:54.55	75.32	18.66	-29.9	-30.9	14.2	2.20e-06	0	42	0	232783872	20	4077
2026-01-29 08:29:55.55	75.11	18.73	-29.8	-30.7	14.4	5.30e-06	0	43	0	234881024	20	4011
2026-01-29 08:29:56.55	74.90	18.79	-29.7	-30.7	14.5	7.00e-07	0	43	0	235929600	20	3997
2026-01-29 08:29:57.56	74.69	18.85	-29.8	-30.7	14.4	0.00e+00	0	42	0	238026752	20	4011
2026-01-29 08:29:58.55	74.49	18.91	-29.8	-30.9	14.3	2.20e-06	0	42	0	240123904	20	4057
2026-01-29 08:29:59.56	74.27	18.98	-29.8	-30.9	14.3	2.20e-06	0	42	0	242221056	20	4056
2026-01-29 08:30:00.56	74.06	19.04	-29.9	-31.2	14.2	7.00e-07	0	42	0	243269632	20	4141
2026-01-29 08:30:01.56	73.85	19.10	-30.1	-31.5	13.9	3.00e-06	0	43	0	245366784	20	4253
2026-01-29 08:30:02.57	73.64	19.16	-30.1	-31.7	13.8	3.00e-06	0	42	0	247463936	20	4311
2026-01-29 08:30:03.58	73.42	19.23	-30.2	-31.8	13.7	6.80e-06	0	43	0	249561088	20	4351
2026-01-29 08:30:04.59	73.21	19.29	-30.1	-31.6	13.8	6.80e-06	0	43	0	251658240	20	4288
2026-01-29 08:30:05.59	72.99	19.35	-30.0	-31.4	14.0	4.50e-06	0	43	0	253755392	20	4200
2026-01-29 08:30:06.59	72.77	19.41	-29.9	-31.0	14.2	2.20e-06	0	43	0	254803968	20	4104
2026-01-29 08:30:07.60	72.56	19.47	-29.8	-30.8	14.4	1.50e-06	0	42	0	256901120	20	4042
2026-01-29 08:30:08.60	72.34	19.53	-29.9	-31.0	14.2	3.00e-06	0	42	0	258998272	20	4102
2026-01-29 08:30:09.60	72.12	19.59	-29.9	-30.9	14.3	0.00e+00	0	43	0	261095424	20	4065
2026-01-29 08:30:10.61	71.90	19.65	-30.0	-31.3	14.1	3.80e-06	0	42	0	262144000	20	4170
2026-01-29 08:30:11.61	71.68	19.71	-29.9	-30.9	14.3	2.20e-06	0	43	0	264241152	20	4053
2026-01-29 08:30:12.61	71.46	19.77	-29.7	-30.5	14.6	1.50e-06	0	42	0	266338304	20	3950
2026-01-29 08:30:13.62	71.23	19.83	-29.8	-30.7	14.5	7.00e-07	0	42	0	268435456	20	4015
2026-01-29 08:30:14.62	71.01	19.88	-29.7	-30.5	14.6	7.00e-07	0	43	0	270532608	20	3954
2026-01-29 08:30:15.62	70.79	19.94	-29.8	-30.8	14.4	1.50e-06	0	43	0	271581184	20	4040
2026-01-29 08:30:16.62	70.56	20.00	-29.7	-30.6	14.6	0.00e+00	0	43	0	273678336	20	3964
2026-01-29 08:30:17.63	70.33	20.06	-29.6	-30.2	14.8	0.00e+00	0	43	0	275775488	20	3862
2026-01-29 08:30:18.63	70.11	20.11	-29.4	-29.7	15.1	0.00e+00	0	42	0	277872640	20	3725
2026-01-29 08:30:19.63	69.88	20.17	-29.6	-30.1	14.8	0.00e+00	0	43	0	279969792	20	3841
2026-01-29 08:30:20.64	69.65	20.23	-29.5	-29.9	15.0	0.00e+00	0	42	0	281018368	20	3781
2026-01-29 08:30:21.63	69.42	20.28	-29.3	-29.4	15.3	0.00e+00	0	43	0	283115520	20	3655
2026-01-29 08:30:22.64	69.19	20.34	-29.5	-30.3	15.2	0.00e+00	0	43	0	285212672	19	3960
2026-01-29 08:30:23.64	68.96	20.39	-29.5	-30.5	15.0	0.00e+00	0	43	0	287309824	19	4005
2026-01-29 08:30:24.64	68.73	20.45	-29.5	-30.4	15.1	7.00e-07	0	43	0	289406976	19	3992
2026-01-29 08:30:25.65	68.50	20.50	-29.4	-30.0	15.3	0.00e+00	0	42	0	290455552	19	3884
2026-01-29 08:30:26.64	68.26	20.56	-29.4	-30.1	15.3	0.00e+00	0	43	0	292552704	19	3912
2026-01-29 08:30:27.65	68.03	20.61	-29.3	-30.0	15.3	0.00e+00	0	43	0	294649856	19	3875
2026-01-29 08:30:28.65	67.79	20.66	-29.4	-30.2	15.2	0.00e+00	0	43	0	296747008	19	3939
2026-01-29 08:30:29.65	67.56	20.72	-29.6	-30.8	14.9	7.00e-07	0	42	0	298844160	19	4093
2026-01-29 08:30:30.66	67.32	20.77	-29.6	-30.7	14.9	0.00e+00	0	42	0	299892736	19	4077
2026-01-29 08:30:31.67	67.08	20.82	-29.5	-30.3	15.1	0.00e+00	0	43	0	301989888	19	3954
2026-01-29 08:30:32.67	66.84	20.87	-29.6	-30.7	14.9	0.00e+00	0	43	0	304087040	19	4057
2026-01-29 08:30:33.67	66.60	20.93	-29.7	-31.0	14.8	0.00e+00	0	42	0	306184192	19	4146
2026-01-29 08:30:34.68	66.36	20.98	-29.6	-30.7	14.9	7.00e-07	0	43	0	307232768	19	4075
2026-01-29 08:30:35.68	66.12	21.03	-29.7	-30.8	14.8	0.00e+00	0	43	0	309329920	19	4100
2026-01-29 08:30:36.68	65.88	21.08	-29.6	-30.7	14.9	0.00e+00	0	43	0	311427072	19	4082
2026-01-29 08:30:37.68	65.64	21.13	-29.5	-30.4	15.1	0.00e+00	0	43	0	313524224	19	3993
2026-01-29 08:30:38.68	65.40	21.18	-29.5	-30.4	15.1	0.00e+00	0	42	0	315621376	19	3988
2026-01-29 08:30:39.69	65.15	21.22	-29.6	-30.6	15.0	0.00e+00	0	42	0	317718528	19	4047
2026-01-29 08:30:40.69	64.91	21.27	-29.5	-30.5	15.1	0.00e+00	0	43	0	318767104	19	4002
2026-01-29 08:30:41.69	64.66	21.32	-29.5	-30.4	15.1	0.00e+00	0	43	0	320864256	19	3989
2026-01-29 08:30:42.70	64.41	21.37	-29.4	-30.1	15.2	0.00e+00	0	42	0	322961408	19	3905
2026-01-29 08:30:43.70	64.17	21.41	-29.2	-29.6	15.6	0.00e+00	0	42	0	325058560	19	3772
2026-01-29 08:30:44.70	63.92	21.46	-29.3	-29.9	15.4	0.00e+00	0	43	0	326107136	19	3856
2026-01-29 08:30:45.70	63.67	21.51	-29.3	-29.8	15.4	0.00e+00	0	42	0	328204288	19	3835
2026-01-29 08:30:46.71	63.42	21.55	-29.2	-29.5	15.6	0.00e+00	0	43	0	330301440	19	3757
2026-01-29 08:30:47.71	63.17	21.60	-28.9	-29.0	16.0	0.00e+00	0	42	0	332398592	19	3609
2026-01-29 08:30:48.72	62.92	21.64	-29.2	-29.5	15.7	0.00e+00	0	43	0	334495744	19	3740
2026-01-29 08:30:49.72	62.67	21.68	-29.2	-29.7	15.6	0.00e+00	0	42	0	335544320	19	3779
2026-01-29 08:30:50.73	62.42	21.73	-29.2	-29.7	15.6	0.00e+00	0	43	0	337641472	19	3778
2026-01-29 08:30:51.73	62.16	21.77	-29.2	-29.6	15.6	0.00e+00	0	43	0	339738624	19	3758
2026-01-29 08:30:52.73	61.91	21.81	-29.1	-29.4	15.8	0.00e+00	0	43	0	341835776	19	3704
2026-01-29 08:30:53.73	61.66	21.85	-29.2	-29.4	15.7	0.00e+00	0	42	0	343932928	19	3725
2026-01-29 08:30:54.73	61.40	21.90	-29.3	-29.7	15.5	0.00e+00	0	43	0	344981504	19	3799
2026-01-29 08:30:55.74	61.15	21.94	-29.6	-30.6	15.0	0.00e+00	0	43	0	347078656	19	4023
2026-01-29 08:30:56.74	60.89	21.98	-29.6	-30.6	15.1	0.00e+00	0	43	0	349175808	19	4026
2026-01-29 08:30:57.74	60.63	22.02	-29.9	-31.3	14.6	0.00e+00	0	42	0	351272960	19	4241
2026-01-29 08:30:58.74	60.38	22.05	-30.0	-31.0	14.5	0.00e+00	0	43	0	353370112	20	4054
2026-01-29 08:30:59.75	60.12	22.09	-30.0	-31.2	14.3	7.00e-07	0	43	0	354418688	20	4106
2026-01-29 08:31:00.75	59.86	22.13	-30.2	-31.6	14.0	7.00e-07	0	43	0	356515840	20	4228
2026-01-29 08:31:01.75	59.60	22.17	-30.4	-32.1	13.6	8.30e-06	0	42	0	358612992	20	4408
2026-01-29 08:31:02.76	59.34	22.20	-30.6	-32.2	13.3	1.44e-05	0	43	0	360710144	21	4336
2026-01-29 08:31:03.77	59.08	22.24	-30.6	-32.2	13.4	1.83e-05	0	43	0	362807296	21	4330
2026-01-29 08:31:04.77	58.82	22.28	-30.6	-32.3	13.3	1.98e-05	0	43	0	363855872	21	4367
2026-01-29 08:31:05.78	58.55	22.31	-30.8	-32.7	13.1	3.20e-05	0	43	0	365953024	21	4492
2026-01-29 08:31:06.79	58.29	22.35	-30.6	-32.2	13.2	2.59e-05	0	43	0	368050176	21	4351
2026-01-29 08:31:07.79	58.03	22.38	-30.5	-32.0	13.5	1.29e-05	0	42	0	370147328	21	4268
2026-01-29 08:31:08.79	57.76	22.41	-30.4	-31.8	13.4	7.60e-06	0	43	0	372244480	21	4230
2026-01-29 08:31:09.79	57.50	22.45	-30.5	-31.9	13.4	5.30e-06	0	43	0	373293056	21	4256
2026-01-29 08:31:10.80	57.23	22.48	-30.3	-31.5	13.7	7.60e-06	0	43	0	375390208	21	4117
2026-01-29 08:31:11.80	56.97	22.51	-30.2	-31.2	13.9	6.10e-06	0	43	0	377487360	21	4046
2026-01-29 08:31:12.80	56.70	22.54	-30.4	-31.7	13.7	8.30e-06	0	43	0	379584512	21	4178
2026-01-29 08:31:13.80	56.44	22.57	-30.3	-31.5	13.8	4.50e-06	0	43	0	380633088	21	4123
2026-01-29 08:31:14.80	56.17	22.60	-30.2	-31.1	14.0	5.30e-06	0	43	0	382730240	21	4013
2026-01-29 08:31:15.80	55.90	22.63	-30.2	-31.3	14.0	0.00e+00	0	43	0	384827392	21	4069
2026-01-29 08:31:16.80	55.64	22.66	-30.2	-31.3	14.0	7.00e-07	0	43	0	386924544	21	4078
2026-01-29 08:31:17.81	55.37	22.68	-30.3	-31.6	13.7	4.50e-06	0	43	0	389021696	21	4163
2026-01-29 08:31:18.82	55.10	22.71	-30.4	-31.9	13.5	8.30e-06	0	43	0	390070272	21	4251
2026-01-29 08:31:19.82	54.83	22.74	-30.7	-32.6	13.1	1.37e-05	0	43	0	392167424	21	4478
2026-01-29 08:31:20.82	54.56	22.76	-30.5	-32.1	13.4	2.28e-05	0	43	0	394264576	21	4323
2026-01-29 08:31:21.82	54.29	22.79	-30.4	-31.7	13.6	1.67e-05	0	43	0	396361728	21	4199
2026-01-29 08:31:22.83	54.02	22.81	-30.4	-31.6	13.7	6.10e-06	0	43	0	398458880	21	4158
2026-01-29 08:31:23.83	53.75	22.83	-30.4	-31.8	13.6	6.10e-06	0	43	0	399507456	21	4204
2026-01-29 08:31:24.84	53.47	22.86	-30.5	-31.9	13.4	1.14e-05	0	43	0	401604608	21	4253
2026-01-29 08:31:25.84	53.20	22.88	-30.7	-32.6	13.1	1.67e-05	0	43	0	403701760	21	4474
2026-01-29 08:31:26.85	52.93	22.90	-30.7	-32.6	13.1	3.05e-05	0	43	0	405798912	21	4478
2026-01-29 08:31:27.85	52.66	22.92	-30.8	-32.8	13.0	4.95e-05	0	43	0	407896064	21	4532
2026-01-29 08:31:28.86	52.38	22.94	-30.8	-32.9	12.8	5.49e-05	0	42	0	408944640	21	4570
2026-01-29 08:31:29.86	52.11	22.96	-30.9	-33.1	12.7	6.63e-05	0	43	0	411041792	21	4651
2026-01-29 08:31:30.87	51.84	22.98	-30.8	-32.9	12.8	7.85e-05	0	43	0	413138944	21	4595
2026-01-29 08:31:31.87	51.56	23.00	-30.7	-32.7	13.0	4.65e-05	0	43	0	415236096	21	4505
2026-01-29 08:31:32.88	51.29	23.02	-30.7	-32.7	13.1	2.97e-05	0	43	0	417333248	21	4513
2026-01-29 08:31:33.88	51.01	23.03	-30.8	-32.9	12.8	4.73e-05	0	43	0	418381824	21	4571
2026-01-29 08:31:34.88	50.74	23.05	-30.7	-32.7	13.0	6.10e-05	0	43	0	420478976	21	4515
2026-01-29 08:31:35.89	50.46	23.06	-30.9	-33.1	12.7	6.71e-05	0	43	0	422576128	21	4640
2026-01-29 08:31:36.90	50.18	23.08	-31.1	-33.3	12.3	1.38e-04	0	43	0	424673280	22	4611
2026-01-29 08:31:37.91	49.91	23.09	-31.4	-34.1	11.7	3.21e-04	0	43	0	426770432	22	4909
2026-01-29 08:31:38.92	49.63	23.11	-31.4	-34.2	11.7	5.03e-04	0	43	0	427819008	22	4943
2026-01-29 08:31:39.92	49.35	23.12	-31.5	-34.0	11.4	8.80e-04	0	43	0	429916160	23	4788
2026-01-29 08:31:40.93	49.08	23.13	-31.5	-33.9	11.4	1.59e-03	0	43	0	432013312	23	4751
2026-01-29 08:31:41.93	48.80	23.14	-31.4	-33.7	11.6	1.18e-03	0	43	0	434110464	23	4695
2026-01-29 08:31:42.94	48.52	23.15	-31.2	-33.0	12.1	3.45e-04	0	42	0	436207616	23	4434
2026-01-29 08:31:43.94	48.25	23.16	-30.9	-32.3	12.6	1.17e-04	0	43	0	437256192	23	4186
2026-01-29 08:31:44.94	47.97	23.17	-30.7	-31.9	13.1	3.20e-05	0	43	0	439353344	22	4177
2026-01-29 08:31:45.94	47.69	23.18	-30.5	-31.4	13.5	1.60e-05	0	43	0	441450496	22	4022
2026-01-29 08:31:46.95	47.41	23.19	-30.4	-31.2	13.7	6.80e-06	0	43	0	443547648	22	3956
2026-01-29 08:31:47.95	47.14	23.19	-30.5	-31.4	13.5	8.30e-06	0	43	0	445644800	22	4024
2026-01-29 08:31:48.95	46.86	23.20	-30.4	-31.3	13.5	6.80e-06	0	43	0	446693376	22	3991
2026-01-29 08:31:49.95	46.59	23.21	-30.7	-32.0	13.1	1.14e-05	0	43	0	448790528	22	4195
2026-01-29 08:31:50.96	46.31	23.21	-30.6	-31.8	13.2	3.05e-05	0	43	0	450887680	22	4142
2026-01-29 08:31:51.96	46.03	23.21	-30.8	-32.3	12.9	2.36e-05	0	43	0	452984832	22	4301
2026-01-29 08:31:52.96	45.75	23.22	-30.6	-31.8	13.2	2.74e-05	0	43	0	454033408	22	4135
2026-01-29 08:31:53.97	45.47	23.22	-30.4	-31.4	13.5	2.21e-05	0	43	0	456130560	22	4027
2026-01-29 08:31:54.97	45.20	23.22	-30.4	-31.2	13.6	1.06e-05	0	43	0	458227712	22	3964
2026-01-29 08:31:55.97	44.92	23.22	-30.6	-31.7	13.4	1.60e-05	0	43	0	460324864	22	4108
2026-01-29 08:31:56.97	44.64	23.22	-30.5	-31.6	13.4	1.22e-05	0	43	0	462422016	22	4065
2026-01-29 08:31:57.97	44.36	23.22	-30.5	-31.4	13.5	8.30e-06	0	42	0	463470592	22	4024
2026-01-29 08:31:58.97	44.09	23.22	-30.6	-31.9	13.1	1.14e-05	0	43	0	465567744	22	4166
2026-01-29 08:31:59.97	43.81	23.22	-30.4	-31.2	13.6	9.90e-06	0	43	0	467664896	22	3958
2026-01-29 08:32:00.97	43.53	23.22	-30.3	-31.0	13.7	6.80e-06	0	43	0	469762048	22	3903
2026-01-29 08:32:01.97	43.26	23.21	-30.2	-31.2	13.9	2.20e-06	0	43	0	471859200	21	4032
2026-01-29 08:32:02.97	42.98	23.21	-30.3	-31.5	13.7	1.50e-06	0	43	0	472907776	21	4136
2026-01-29 08:32:03.97	42.70	23.20	-30.3	-31.6	13.7	8.30e-06	0	43	0	475004928	21	4152
2026-01-29 08:32:04.97	42.43	23.20	-30.3	-31.5	13.7	3.80e-06	0	43	0	477102080	21	4131
2026-01-29 08:32:05.97	42.15	23.19	-30.2	-31.1	14.0	5.30e-06	0	43	0	479199232	21	4020
2026-01-29 08:32:06.97	41.87	23.19	-30.4	-31.6	13.7	6.80e-06	0	43	0	481296384	21	4134
2026-01-29 08:32:07.97	41.60	23.18	-30.2	-31.1	14.0	3.80e-06	0	43	0	482344960	21	3994
2026-01-29 08:32:08.97	41.32	23.17	-30.2	-31.0	14.0	7.00e-07	0	43	0	484442112	21	3987
2026-01-29 08:32:09.97	41.05	23.16	-30.2	-31.2	13.9	3.80e-06	0	43	0	486539264	21	4024
2026-01-29 08:32:10.97	40.77	23.15	-30.2	-31.3	13.9	4.50e-06	0	43	0	488636416	21	4058
2026-01-29 08:32:11.98	40.49	23.14	-30.3	-31.5	13.8	5.30e-06	0	43	0	489684992	21	4105
2026-01-29 08:32:12.98	40.22	23.13	-29.9	-30.3	14.5	0.00e+00	0	43	0	491782144	21	3773
2026-01-29 08:32:13.98	39.94	23.12	-29.6	-30.2	14.9	7.00e-07	0	43	0	493879296	20	3829
2026-01-29 08:32:14.99	39.66	23.10	-29.5	-29.9	15.1	0.00e+00	0	43	0	495976448	20	3745
2026-01-29 08:32:15.99	39.39	23.09	-29.5	-29.9	15.1	0.00e+00	0	43	0	498073600	20	3769
2026-01-29 08:32:16.99	39.11	23.08	-29.6	-30.0	15.0	0.00e+00	0	43	0	499122176	20	3791
2026-01-29 08:32:18.00	38.84	23.06	-29.6	-30.2	14.9	0.00e+00	0	43	0	501219328	20	3834
2026-01-29 08:32:19.00	38.56	23.05	-29.3	-29.4	15.3	0.00e+00	0	43	0	503316480	20	3638
2026-01-29 08:32:20.01	38.29	23.03	-29.1	-29.4	15.7	0.00e+00	0	43	0	505413632	19	3726
2026-01-29 08:32:21.00	38.02	23.01	-28.9	-28.8	16.0	0.00e+00	0	43	0	507510784	19	3569
2026-01-29 08:32:22.01	37.74	23.00	-29.1	-29.3	15.8	0.00e+00	0	43	0	508559360	19	3682
2026-01-29 08:32:23.01	37.47	22.98	-29.0	-29.1	15.9	0.00e+00	0	43	0	510656512	19	3637
2026-01-29 08:32:24.01	37.20	22.96	-29.1	-29.4	15.7	0.00e+00	0	43	0	512753664	19	3708
2026-01-29 08:32:25.02	36.92	22.94	-29.2	-29.4	15.7	0.00e+00	0	43	0	514850816	19	3723
2026-01-29 08:32:26.02	36.65	22.92	-29.1	-29.2	15.8	0.00e+00	0	43	0	516947968	19	3672
2026-01-29 08:32:27.02	36.38	22.90	-29.2	-29.7	15.5	0.00e+00	0	42	0	517996544	19	3785
2026-01-29 08:32:28.03	36.10	22.88	-29.3	-29.9	15.4	0.00e+00	0	43	0	520093696	19	3857
2026-01-29 08:32:29.02	35.84	22.85	-29.6	-30.5	15.0	0.00e+00	0	43	0	522190848	19	4017
2026-01-29 08:32:30.02	35.57	22.83	-29.4	-30.1	15.3	0.00e+00	0	43	0	524288000	19	3899
2026-01-29 08:32:31.03	35.29	22.81	-29.2	-29.7	15.5	0.00e+00	0	43	0	526385152	19	3773
2026-01-29 08:32:32.03	35.03	22.78	-29.2	-29.5	15.6	0.00e+00	0	43	0	527433728	19	3730
2026-01-29 08:32:33.03	34.76	22.76	-29.4	-30.0	15.4	0.00e+00	0	43	0	529530880	19	3862
2026-01-29 08:32:34.03	34.49	22.73	-29.4	-29.9	15.4	0.00e+00	0	43	0	531628032	19	3854
2026-01-29 08:32:35.04	34.22	22.71	-29.2	-29.7	15.6	0.00e+00	0	43	0	533725184	19	3784
2026-01-29 08:32:36.04	33.95	22.68	-29.3	-29.9	15.4	0.00e+00	0	43	0	535822336	19	3838
2026-01-29 08:32:37.04	33.68	22.65	-29.1	-29.3	15.7	0.00e+00	0	43	0	536870912	19	3685
2026-01-29 08:32:38.05	33.41	22.62	-29.1	-29.2	15.8	0.00e+00	0	43	0	538968064	19	3671
2026-01-29 08:32:39.05	33.15	22.60	-29.4	-30.1	15.2	0.00e+00	0	43	0	541065216	19	3888
2026-01-29 08:32:40.05	32.88	22.57	-29.6	-30.7	14.9	0.00e+00	0	43	0	543162368	19	4049
2026-01-29 08:32:41.05	32.62	22.54	-29.9	-31.3	14.5	0.00e+00	0	43	0	544210944	19	4230
2026-01-29 08:32:42.06	32.35	22.50	-29.9	-31.3	14.5	7.00e-07	0	42	0	546308096	19	4238
2026-01-29 08:32:43.06	32.09	22.47	-29.9	-30.8	14.5	7.00e-07	0	43	0	548405248	20	4005
2026-01-29 08:32:44.07	31.82	22.44	-29.8	-30.6	14.6	0.00e+00	0	43	0	550502400	20	3946
2026-01-29 08:32:45.07	31.56	22.41	-29.7	-30.2	14.8	0.00e+00	0	43	0	552599552	20	3842
2026-01-29 08:32:46.08	31.29	22.38	-30.0	-31.0	14.3	0.00e+00	0	43	0	553648128	20	4072
2026-01-29 08:32:47.08	31.03	22.34	-29.8	-30.6	14.6	0.00e+00	0	42	0	555745280	20	3958
2026-01-29 08:32:48.08	30.77	22.31	-29.8	-30.7	14.5	0.00e+00	0	43	0	557842432	20	3984
2026-01-29 08:32:49.09	30.51	22.27	-29.9	-30.9	14.4	0.00e+00	0	43	0	559939584	20	4026
2026-01-29 08:32:50.09	30.25	22.24	-30.1	-31.4	14.1	2.20e-06	0	42	0	562036736	20	4186
2026-01-29 08:32:51.09	29.99	22.20	-30.1	-31.5	14.0	3.80e-06	0	43	0	563085312	20	4204
2026-01-29 08:32:52.09	29.73	22.16	-30.4	-32.2	13.6	6.80e-06	0	43	0	565182464	20	4436
2026-01-29 08:32:53.10	29.47	22.13	-30.4	-32.2	13.6	6.10e-06	0	43	0	567279616	20	4417
2026-01-29 08:32:54.10	29.21	22.09	-30.5	-32.4	13.4	8.30e-06	0	43	0	569376768	20	4507
2026-01-29 08:32:55.10	28.95	22.05	-30.6	-32.3	13.1	1.14e-05	0	43	0	571473920	21	4376
2026-01-29 08:32:56.10	28.70	22.01	-30.8	-32.9	12.8	4.11e-05	0	43	0	572522496	21	4564
2026-01-29 08:32:57.11	28.44	21.97	-31.0	-33.3	12.5	9.53e-05	0	43	0	574619648	21	4699
2026-01-29 08:32:58.11	28.18	21.93	-30.9	-33.2	12.5	1.06e-04	0	43	0	576716800	21	4674
2026-01-29 08:32:59.11	27.93	21.89	-31.0	-33.0	12.2	1.30e-04	0	43	0	578813952	22	4539
2026-01-29 08:33:00.11	27.68	21.85	-31.1	-33.2	12.3	1.45e-04	0	43	0	580911104	22	4571
2026-01-29 08:33:01.12	27.42	21.81	-31.2	-33.5	12.0	2.06e-04	0	43	0	581959680	22	4712
2026-01-29 08:33:02.13	27.17	21.77	-30.8	-32.5	12.7	1.44e-04	0	43	0	584056832	22	4352
2026-01-29 08:33:03.13	26.92	21.72	-30.9	-32.7	12.5	9.23e-05	0	43	0	586153984	22	4427
2026-01-29 08:33:04.14	26.66	21.68	-30.6	-31.9	13.0	7.47e-05	0	43	0	588251136	22	4182
2026-01-29 08:33:05.14	26.41	21.64	-30.6	-31.8	13.1	3.05e-05	0	43	0	590348288	22	4128
2026-01-29 08:33:06.14	26.16	21.59	-30.7	-32.0	13.0	4.11e-05	0	43	0	591396864	22	4210
2026-01-29 08:33:07.15	25.91	21.55	-30.9	-32.6	12.5	7.85e-05	0	43	0	593494016	22	4403
2026-01-29 08:33:08.15	25.66	21.50	-30.7	-32.3	12.7	6.25e-05	0	43	0	595591168	22	4287
2026-01-29 08:33:09.15	25.42	21.46	-30.8	-32.4	12.6	1.17e-04	0	43	0	597688320	22	4333
2026-01-29 08:33:10.14	25.17	21.41	-30.5	-31.5	13.3	5.03e-05	0	43	0	599785472	22	4047
2026-01-29 08:33:11.15	24.93	21.36	-30.2	-31.4	13.6	6.10e-06	0	43	0	600834048	21	4114
2026-01-29 08:33:12.14	24.68	21.32	-30.2	-31.4	13.6	9.10e-06	0	43	0	602931200	21	4104
2026-01-29 08:33:13.14	24.44	21.27	-30.2	-31.2	13.7	7.60e-06	0	43	0	605028352	21	4055
2026-01-29 08:33:14.14	24.20	21.22	-30.2	-31.3	13.8	6.10e-06	0	43	0	607125504	21	4073
2026-01-29 08:33:15.15	23.95	21.17	-30.1	-31.0	13.9	4.50e-06	0	43	0	608174080	21	3981
2026-01-29 08:33:16.15	23.71	21.12	-30.1	-30.9	14.0	2.20e-06	0	43	0	610271232	21	3955
2026-01-29 08:33:17.16	23.47	21.07	-30.3	-31.5	13.5	2.20e-06	0	43	0	612368384	21	4135
2026-01-29 08:33:18.16	23.23	21.02	-30.2	-31.4	13.6	3.00e-06	0	43	0	614465536	21	4104
2026-01-29 08:33:19.16	22.99	20.97	-30.6	-32.3	13.0	1.83e-05	0	43	0	616562688	21	4381
2026-01-29 08:33:20.16	22.75	20.92	-30.7	-32.5	12.9	2.89e-05	0	43	0	617611264	21	4451
2026-01-29 08:33:21.16	22.51	20.87	-30.9	-33.3	12.4	1.14e-04	0	43	0	619708416	21	4737
2026-01-29 08:33:22.16	22.27	20.82	-31.2	-33.6	11.8	3.20e-04	0	43	0	621805568	22	4761
2026-01-29 08:33:23.17	22.04	20.77	-31.2	-33.5	11.9	3.68e-04	0	43	0	623902720	22	4714
2026-01-29 08:33:24.17	21.80	20.72	-31.2	-33.7	11.7	4.34e-04	0	43	0	625999872	22	4776
2026-01-29 08:33:25.18	21.56	20.66	-31.3	-33.8	11.7	5.26e-04	0	43	0	627048448	22	4796
2026-01-29 08:33:26.19	21.33	20.61	-30.9	-32.7	12.4	1.98e-04	0	43	0	629145600	22	4441
2026-01-29 08:33:27.19	21.09	20.56	-30.8	-32.4	12.6	9.84e-05	0	43	0	631242752	22	4340
2026-01-29 08:33:28.20	20.86	20.50	-31.0	-32.9	12.3	1.65e-04	0	43	0	633339904	22	4503
2026-01-29 08:33:29.20	20.63	20.45	-31.1	-33.3	12.0	2.62e-04	0	43	0	635437056	22	4635
2026-01-29 08:33:30.20	20.40	20.39	-31.3	-33.9	11.5	4.66e-04	0	43	0	636485632	22	4877
2026-01-29 08:33:31.20	20.17	20.34	-31.6	-34.6	10.7	2.27e-03	0	43	0	638582784	23	5044
2026-01-29 08:33:32.20	19.94	20.28	-31.7	-34.7	10.6	3.21e-03	0	43	0	640679936	23	5110
2026-01-29 08:33:33.20	19.71	20.23	-31.6	-34.3	10.9	2.29e-03	0	43	0	642777088	23	4940
2026-01-29 08:33:34.21	19.48	20.17	-31.5	-34.0	11.1	1.91e-03	0	43	0	644874240	23	4829
2026-01-29 08:33:35.22	19.25	20.11	-31.1	-32.8	12.0	4.84e-04	0	43	0	645922816	23	4380
2026-01-29 08:33:36.22	19.03	20.06	-31.0	-32.6	12.1	2.93e-04	0	43	0	648019968	23	4333
2026-01-29 08:33:37.23	18.80	20.00	-31.0	-32.5	12.2	2.41e-04	0	43	0	650117120	23	4280
2026-01-29 08:33:38.23	18.58	19.94	-31.1	-32.9	11.9	2.37e-04	0	43	0	652214272	23	4404
2026-01-29 08:33:39.23	18.36	19.88	-31.2	-33.1	11.8	4.64e-04	0	43	0	654311424	23	4474
2026-01-29 08:33:40.24	18.13	19.83	-30.9	-32.1	12.4	2.76e-04	0	43	0	655360000	23	4163
2026-01-29 08:33:41.25	17.91	19.77	-30.5	-31.5	13.1	3.35e-05	0	43	0	657457152	22	4069
2026-01-29 08:33:42.25	17.69	19.71	-30.3	-31.2	13.4	1.83e-05	0	43	0	659554304	22	3960
2026-01-29 08:33:43.25	17.47	19.65	-30.1	-31.1	13.7	9.90e-06	0	43	0	661651456	21	4035
2026-01-29 08:33:44.26	17.25	19.59	-30.0	-30.8	13.9	3.80e-06	0	43	0	663748608	21	3950
2026-01-29 08:33:45.25	17.03	19.53	-29.8	-30.3	14.2	7.00e-07	0	43	0	664797184	21	3803
2026-01-29 08:33:46.26	16.81	19.47	-29.5	-30.0	14.7	1.50e-06	0	43	0	666894336	20	3800
2026-01-29 08:33:47.26	16.60	19.41	-29.4	-29.6	14.9	0.00e+00	0	43	0	668991488	20	3705
2026-01-29 08:33:48.27	16.38	19.35	-29.3	-29.6	14.9	0.00e+00	0	43	0	671088640	20	3703
2026-01-29 08:33:49.27	16.17	19.29	-29.4	-30.2	14.9	0.00e+00	0	43	0	672137216	19	3936
2026-01-29 08:33:50.28	15.95	19.23	-29.2	-29.6	15.2	0.00e+00	0	43	0	674234368	19	3793
2026-01-29 08:33:51.28	15.74	19.16	-29.3	-29.9	15.0	0.00e+00	0	43	0	676331520	19	3876
2026-01-29 08:33:52.28	15.53	19.10	-29.2	-29.8	15.1	7.00e-07	0	43	0	678428672	19	3853
2026-01-29 08:33:53.29	15.31	19.04	-29.5	-30.6	14.7	7.00e-07	0	43	0	680525824	19	4067
2026-01-29 08:33:54.29	15.11	18.98	-29.5	-30.6	14.6	0.00e+00	0	43	0	681574400	19	4054
2026-01-29 08:33:55.29	14.90	18.92	-30.0	-31.7	13.9	1.50e-06	0	43	0	683671552	19	4392
2026-01-29 08:33:56.28	14.69	18.85	-30.0	-31.5	13.7	3.80e-06	0	43	0	685768704	20	4233
2026-01-29 08:33:57.29	14.48	18.79	-30.2	-31.9	13.5	1.06e-05	0	43	0	687865856	20	4366
2026-01-29 08:33:58.29	14.27	18.73	-30.3	-32.2	13.2	1.90e-05	0	43	0	689963008	20	4486
2026-01-29 08:33:59.30	14.07	18.66	-30.5	-32.3	12.8	5.49e-05	0	43	0	691011584	21	4410
2026-01-29 08:34:00.30	13.86	18.60	-30.6	-32.6	12.5	7.17e-05	0	43	0	693108736	21	4533
2026-01-29 08:34:01.29	13.66	18.54	-30.6	-32.6	12.5	8.69e-05	0	43	0	695205888	21	4533
2026-01-29 08:34:02.30	13.46	18.47	-30.6	-32.6	12.5	7.93e-05	0	43	0	697303040	21	4539
2026-01-29 08:34:03.30	13.25	18.41	-30.6	-32.6	12.6	8.62e-05	0	43	0	699400192	21	4519
2026-01-29 08:34:04.30	13.05	18.35	-30.7	-32.7	12.5	9.15e-05	0	42	0	700448768	21	4553
2026-01-29 08:34:05.30	12.85	18.28	-30.7	-32.8	12.5	2.37e-04	0	43	0	702545920	21	4580
2026-01-29 08:34:06.30	12.65	18.22	-30.4	-31.9	13.0	5.34e-05	0	43	0	704643072	21	4285
2026-01-29 08:34:07.30	12.45	18.15	-30.2	-31.4	13.4	1.29e-05	0	43	0	706740224	21	4126
2026-01-29 08:34:08.31	12.26	18.09	-29.9	-30.5	13.9	4.50e-06	0	43	0	708837376	21	3865
2026-01-29 08:34:09.31	12.06	18.02	-29.7	-30.5	14.2	7.00e-07	0	43	0	709885952	20	3966
2026-01-29 08:34:10.32	11.86	17.95	-29.5	-30.0	14.5	7.00e-07	0	43	0	711983104	20	3828
2026-01-29 08:34:11.33	11.66	17.89	-29.5	-30.1	14.5	7.00e-07	0	43	0	714080256	20	3844
2026-01-29 08:34:12.33	11.47	17.82	-29.5	-30.1	14.5	0.00e+00	0	43	0	716177408	20	3851
2026-01-29 08:34:13.33	11.28	17.76	-29.6	-30.3	14.5	0.00e+00	0	43	0	717225984	20	3888
2026-01-29 08:34:14.33	11.08	17.69	-29.7	-30.6	14.2	0.00e+00	0	43	0	719323136	20	3992
2026-01-29 08:34:15.33	10.89	17.63	-30.0	-31.3	13.8	4.50e-06	0	43	0	721420288	20	4182
2026-01-29 08:34:16.32	10.70	17.56	-30.2	-31.9	13.4	1.37e-05	0	43	0	723517440	20	4379
2026-01-29 08:34:17.32	10.51	17.49	-30.2	-31.9	13.4	1.75e-05	0	43	0	725614592	20	4374
2026-01-29 08:34:18.32	10.32	17.43	-30.2	-31.8	13.4	1.14e-05	0	43	0	726663168	20	4345
2026-01-29 08:34:19.33	10.13	17.36	-30.1	-31.6	13.6	7.60e-06	0	43	0	728760320	20	4280
2026-01-29 08:34:20.33	9.95	17.29	-30.2	-31.8	13.4	1.60e-05	0	43	0	730857472	20	4354
2026-01-29 08:34:21.34	9.76	17.22	-30.0	-31.3	13.7	5.30e-06	0	43	0	732954624	20	4194
2026-01-29 08:34:22.35	9.57	17.16	-30.1	-31.6	13.5	9.10e-06	0	43	0	735051776	20	4280
2026-01-29 08:34:23.36	9.38	17.09	-30.2	-31.8	13.4	1.06e-05	0	43	0	736100352	20	4357
2026-01-29 08:34:24.36	9.20	17.02	-30.2	-31.8	13.4	1.98e-05	0	43	0	738197504	20	4353
2026-01-29 08:34:25.36	9.02	16.95	-30.2	-32.0	13.3	1.98e-05	0	43	0	740294656	20	4402
2026-01-29 08:34:26.36	8.83	16.89	-30.2	-31.9	13.3	1.90e-05	0	43	0	742391808	20	4384
2026-01-29 08:34:27.37	8.65	16.82	-30.1	-31.6	13.6	1.22e-05	0	43	0	744488960	20	4291
2026-01-29 08:34:28.37	8.47	16.75	-30.0	-31.3	13.7	9.90e-06	0	43	0	745537536	20	4185
2026-01-29 08:34:29.37	8.29	16.68	-30.0	-31.4	13.7	8.30e-06	0	43	0	747634688	20	4227
2026-01-29 08:34:30.37	8.11	16.61	-30.0	-31.5	13.7	1.06e-05	0	43	0	749731840	20	4241
2026-01-29 08:34:31.38	7.93	16.55	-30.1	-31.5	13.6	7.60e-06	0	43	0	751828992	20	4261
2026-01-29 08:34:32.39	7.75	16.48	-29.9	-31.2	13.8	3.80e-06	0	43	0	753926144	20	4157
2026-01-29 08:34:33.39	7.58	16.41	-29.8	-30.9	14.0	2.20e-06	0	43	0	754974720	20	4068
2026-01-29 08:34:34.40	7.40	16.34	-29.8	-30.8	14.0	3.00e-06	0	43	0	757071872	20	4047
2026-01-29 08:34:35.41	7.22	16.27	-29.9	-31.0	13.9	2.20e-06	0	43	0	759169024	20	4089
2026-01-29 08:34:36.42	7.05	16.20	-29.9	-30.9	14.0	1.50e-06	0	43	0	761266176	20	4080
2026-01-29 08:34:37.42	6.87	16.13	-30.0	-31.2	13.8	4.50e-06	0	43	0	763363328	20	4161
2026-01-29 08:34:38.43	6.70	16.06	-30.1	-31.6	13.5	7.60e-06	0	42	0	764411904	20	4293
2026-01-29 08:34:39.43	6.53	15.99	-30.2	-31.8	13.4	6.10e-06	0	43	0	766509056	20	4339
2026-01-29 08:34:40.44	6.35	15.92	-30.1	-31.6	13.5	1.67e-05	0	43	0	768606208	20	4284
2026-01-29 08:34:41.44	6.18	15.86	-29.8	-30.9	14.0	4.50e-06	0	43	0	770703360	20	4062
2026-01-29 08:34:42.45	6.01	15.79	-29.6	-30.2	14.5	0.00e+00	0	43	0	772800512	20	3861
2026-01-29 08:34:43.45	5.85	15.72	-29.4	-29.7	14.7	1.50e-06	0	43	0	773849088	20	3730
2026-01-29 08:34:44.45	5.68	15.65	-29.4	-29.6	14.8	0.00e+00	0	43	0	775946240	20	3712
2026-01-29 08:34:45.46	5.51	15.58	-29.5	-29.9	14.6	7.00e-07	0	43	0	778043392	20	3776
2026-01-29 08:34:46.46	5.34	15.51	-29.4	-30.2	14.8	0.00e+00	0	43	0	780140544	19	3941
2026-01-29 08:34:47.47	5.18	15.44	-29.4	-30.2	14.8	0.00e+00	0	43	0	782237696	19	3961
2026-01-29 08:34:48.47	5.01	15.37	-29.5	-30.5	14.6	7.00e-07	0	43	0	783286272	19	4037
2026-01-29 08:34:49.47	4.85	15.30	-29.6	-30.8	14.4	0.00e+00	0	43	0	785383424	19	4125
2026-01-29 08:34:50.47	4.69	15.23	-29.7	-31.0	14.3	0.00e+00	0	43	0	787480576	19	4187
2026-01-29 08:34:51.47	4.52	15.16	-29.9	-31.4	14.1	3.00e-06	0	43	0	789577728	19	4307
2026-01-29 08:34:52.47	4.36	15.09	-30.0	-31.2	13.8	5.30e-06	0	43	0	790626304	20	4166
2026-01-29 08:34:53.48	4.20	15.02	-30.1	-31.5	13.6	5.30e-06	0	43	0	792723456	20	4257
2026-01-29 08:34:54.48	4.04	14.95	-29.9	-31.2	13.8	5.30e-06	0	43	0	794820608	20	4142
2026-01-29 08:34:55.48	3.88	14.88	-29.8	-30.7	14.0	5.30e-06	0	42	0	796917760	20	4014
2026-01-29 08:34:56.48	3.72	14.81	-29.8	-30.8	14.0	1.50e-06	0	43	0	799014912	20	4043
2026-01-29 08:34:57.49	3.56	14.74	-29.7	-30.6	14.1	2.20e-06	0	43	0	800063488	20	3990
2026-01-29 08:34:58.49	3.41	14.67	-29.8	-30.7	14.1	3.80e-06	0	43	0	802160640	20	4006
2026-01-29 08:34:59.50	3.25	14.60	-29.5	-30.0	14.5	2.20e-06	0	43	0	804257792	20	3809
2026-01-29 08:35:00.51	3.09	14.53	-29.3	-29.5	14.8	7.00e-07	0	43	0	806354944	20	3682
2026-01-29 08:35:01.51	2.94	14.46	-29.3	-30.0	14.9	0.00e+00	0	43	0	808452096	19	3900
2026-01-29 08:35:02.52	2.78	14.39	-29.5	-30.4	14.6	0.00e+00	0	43	0	809500672	19	3996
2026-01-29 08:35:03.52	2.63	14.32	-29.6	-30.7	14.4	0.00e+00	0	43	0	811597824	19	4107
2026-01-29 08:35:04.52	2.48	14.25	-29.8	-31.2	14.2	3.00e-06	0	43	0	813694976	19	4233
2026-01-29 08:35:05.53	2.32	14.18	-30.0	-31.7	13.8	2.20e-06	0	43	0	815792128	19	4401
2026-01-29 08:35:06.53	2.17	14.11	-30.1	-31.7	13.4	1.22e-05	0	43	0	817889280	20	4301
2026-01-29 08:35:07.53	2.02	14.04	-30.3	-32.1	13.2	2.13e-05	0	43	0	818937856	20	4443
2026-01-29 08:35:08.53	1.87	13.97	-30.4	-32.4	12.9	3.35e-05	0	43	0	821035008	20	4542
2026-01-29 08:35:09.54	1.72	13.90	-30.3	-32.1	13.1	2.44e-05	0	43	0	823132160	20	4433
2026-01-29 08:35:10.54	1.58	13.83	-30.2	-31.8	13.3	1.90e-05	0	43	0	825229312	20	4343
2026-01-29 08:35:11.55	1.43	13.76	-30.3	-32.0	13.1	1.83e-05	0	43	0	827326464	20	4427
2026-01-29 08:35:12.55	1.28	13.69	-30.2	-31.8	13.4	2.21e-05	0	43	0	828375040	20	4341
2026-01-29 08:35:13.55	1.13	13.63	-30.0	-31.5	13.5	7.60e-06	0	43	0	830472192	20	4255
2026-01-29 08:35:14.56	0.99	13.55	-30.2	-32.0	13.2	1.22e-05	0	43	0	832569344	20	4398
2026-01-29 08:35:15.57	0.84	13.48	-30.0	-31.4	13.6	7.60e-06	0	43	0	834666496	20	4211
2026-01-29 08:35:16.58	0.70	13.41	-29.9	-31.0	13.8	7.00e-07	0	43	0	836763648	20	4104
2026-01-29 08:35:17.58	0.55	13.34	-29.7	-30.6	14.1	3.00e-06	0	43	0	837812224	20	3981
2026-01-29 08:35:18.58	0.41	13.28	-29.6	-30.4	14.1	1.50e-06	0	43	0	839909376	20	3937
2026-01-29 08:35:19.59	0.27	13.21	-29.6	-30.3	14.2	1.50e-06	0	43	0	842006528	20	3917
2026-01-29 08:35:20.59	0.13	13.14	-29.6	-30.3	14.2	1.50e-06	0	43	0	844103680	20	3902
2026-01-29 08:35:21.59	359.99	13.07	-29.5	-30.2	14.3	1.50e-06	0	43	0	846200832	20	3862
2026-01-29 08:35:22.59	359.85	13.00	-29.6	-30.2	14.3	7.00e-07	0	43	0	847249408	20	3882
2026-01-29 08:35:23.60	359.71	12.93	-29.9	-31.1	13.7	2.20e-06	0	43	0	849346560	20	4124
2026-01-29 08:35:24.60	359.57	12.86	-30.1	-31.6	13.4	5.30e-06	0	43	0	851443712	20	4286
2026-01-29 08:35:25.61	359.43	12.79	-30.3	-32.1	13.0	1.14e-05	0	43	0	853540864	20	4457
2026-01-29 08:35:26.61	359.29	12.72	-30.4	-32.6	12.7	5.56e-05	0	43	0	855638016	20	4628
2026-01-29 08:35:27.62	359.15	12.65	-30.5	-32.4	12.5	1.01e-04	0	43	0	856686592	21	4466
2026-01-29 08:35:28.62	359.02	12.58	-30.5	-32.4	12.5	2.00e-04	0	43	0	858783744	21	4449
2026-01-29 08:35:29.62	358.88	12.51	-30.4	-32.1	12.7	7.24e-05	0	43	0	860880896	21	4367
2026-01-29 08:35:30.63	358.75	12.44	-30.4	-32.1	12.7	7.32e-05	0	43	0	862978048	21	4364
2026-01-29 08:35:31.64	358.61	12.37	-30.3	-31.6	13.0	3.73e-05	0	43	0	865075200	21	4198
2026-01-29 08:35:32.64	358.48	12.30	-30.3	-31.6	13.0	4.50e-05	0	43	0	866123776	21	4205
2026-01-29 08:35:33.64	358.35	12.23	-30.1	-31.2	13.3	3.81e-05	0	43	0	868220928	21	4077
2026-01-29 08:35:34.64	358.22	12.16	-30.2	-31.3	13.1	1.67e-05	0	43	0	870318080	21	4129
2026-01-29 08:35:35.64	358.08	12.09	-30.0	-31.0	13.4	2.59e-05	0	43	0	872415232	21	4020
2026-01-29 08:35:36.65	357.95	12.02	-30.0	-30.9	13.4	1.37e-05	0	43	0	873463808	21	4006
2026-01-29 08:35:37.65	357.82	11.96	-30.0	-31.0	13.4	9.90e-06	0	43	0	875560960	21	4009
2026-01-29 08:35:38.65	357.69	11.89	-30.0	-30.9	13.4	1.75e-05	0	43	0	877658112	21	3986
2026-01-29 08:35:39.66	357.56	11.82	-30.2	-31.3	13.2	2.05e-05	0	43	0	879755264	21	4122
2026-01-29 08:35:40.66	357.44	11.75	-30.1	-31.2	13.2	2.05e-05	0	43	0	881852416	21	4084
2026-01-29 08:35:41.66	357.31	11.68	-30.1	-31.1	13.3	1.75e-05	0	43	0	882900992	21	4044
2026-01-29 08:35:42.67	357.18	11.61	-30.0	-30.8	13.5	1.22e-05	0	43	0	884998144	21	3981
2026-01-29 08:35:43.67	357.05	11.54	-30.0	-30.9	13.4	1.29e-05	0	43	0	887095296	21	3996
2026-01-29 08:35:44.67	356.93	11.47	-29.9	-30.7	13.5	1.90e-05	0	43	0	889192448	21	3951
2026-01-29 08:35:45.67	356.80	11.41	-30.0	-30.9	13.4	9.10e-06	0	43	0	891289600	21	3989
2026-01-29 08:35:46.67	356.68	11.34	-30.1	-31.4	13.1	2.74e-05	0	43	0	892338176	21	4146
2026-01-29 08:35:47.68	356.55	11.27	-30.2	-31.4	13.0	2.05e-05	0	43	0	894435328	21	4164
2026-01-29 08:35:48.68	356.43	11.20	-30.3	-31.7	12.8	3.50e-05	0	43	0	896532480	21	4254
2026-01-29 08:35:49.69	356.31	11.13	-30.4	-32.0	12.6	8.92e-05	0	43	0	898629632	21	4345
2026-01-29 08:35:50.69	356.19	11.06	-30.5	-32.3	12.4	1.58e-04	0	43	0	900726784	21	4459
2026-01-29 08:35:51.68	356.06	11.00	-30.5	-32.5	12.3	2.41e-04	0	43	0	901775360	21	4513
2026-01-29 08:35:52.69	355.94	10.93	-30.5	-32.5	12.3	1.36e-04	0	43	0	903872512	21	4524
2026-01-29 08:35:53.69	355.82	10.86	-30.6	-32.6	12.2	2.03e-04	0	43	0	905969664	21	4562
2026-01-29 08:35:54.69	355.70	10.79	-30.4	-32.3	12.4	2.17e-04	0	43	0	908066816	21	4436
2026-01-29 08:35:55.70	355.58	10.72	-30.7	-32.9	12.0	2.05e-04	0	43	0	910163968	21	4666
2026-01-29 08:35:56.70	355.46	10.65	-30.7	-33.1	11.9	3.86e-04	0	43	0	911212544	21	4711
2026-01-29 08:35:57.71	355.34	10.59	-30.7	-33.1	11.8	3.13e-04	0	43	0	913309696	21	4730
2026-01-29 08:35:58.71	355.23	10.52	-30.8	-33.2	11.7	5.19e-04	0	43	0	915406848	21	4780
2026-01-29 08:35:59.71	355.11	10.45	-30.7	-33.1	11.8	4.79e-04	0	43	0	917504000	21	4725
2026-01-29 08:36:00.72	354.99	10.38	-30.8	-33.4	11.6	7.97e-04	0	43	0	918552576	21	4844
2026-01-29 08:36:01.72	354.88	10.32	-30.9	-33.7	11.4	9.13e-04	0	43	0	920649728	21	4959
2026-01-29 08:36:02.73	354.76	10.25	-31.1	-33.8	11.0	1.09e-03	0	43	0	922746880	22	4914
2026-01-29 08:36:03.74	354.65	10.18	-31.1	-33.6	11.1	1.63e-03	0	43	0	924844032	22	4849
2026-01-29 08:36:04.74	354.53	10.11	-31.2	-34.2	10.7	2.34e-03	0	43	0	926941184	22	5053
2026-01-29 08:36:05.75	354.42	10.04	-31.1	-33.8	10.9	4.18e-03	0	43	0	929038336	22	4925
2026-01-29 08:36:06.75	354.30	9.98	-30.9	-33.2	11.4	1.35e-03	0	43	0	930086912	22	4676
2026-01-29 08:36:07.76	354.19	9.91	-30.9	-33.0	11.6	7.70e-04	0	43	0	932184064	22	4602
2026-01-29 08:36:08.76	354.08	9.84	-30.8	-32.7	11.8	5.48e-04	0	43	0	934281216	22	4485
2026-01-29 08:36:09.76	353.97	9.78	-30.7	-32.4	11.9	4.30e-04	0	43	0	936378368	22	4391
2026-01-29 08:36:10.77	353.85	9.71	-30.6	-32.2	12.1	3.69e-04	0	43	0	937426944	22	4338
2026-01-29 08:36:11.77	353.74	9.64	-30.9	-33.0	11.5	5.18e-04	0	43	0	939524096	22	4607
2026-01-29 08:36:12.77	353.63	9.58	-30.7	-32.5	11.9	7.29e-04	0	43	0	941621248	22	4410
2026-01-29 08:36:13.77	353.52	9.51	-30.7	-32.6	11.9	2.53e-04	0	43	0	943718400	22	4445
2026-01-29 08:36:14.77	353.42	9.44	-30.7	-32.6	11.8	4.44e-04	0	43	0	945815552	22	4450
2026-01-29 08:36:15.78	353.31	9.38	-30.8	-32.6	11.8	4.27e-04	0	43	0	946864128	22	4456
2026-01-29 08:36:16.78	353.20	9.31	-30.9	-33.2	11.4	6.04e-04	0	43	0	948961280	22	4677
2026-01-29 08:36:17.78	353.09	9.24	-30.9	-33.3	11.3	1.18e-03	0	43	0	951058432	22	4693
2026-01-29 08:36:18.79	352.98	9.18	-31.1	-33.8	10.9	1.52e-03	0	43	0	953155584	22	4919
2026-01-29 08:36:19.79	352.88	9.11	-31.3	-34.3	10.6	2.51e-03	0	43	0	955252736	22	5115
2026-01-29 08:36:20.80	352.77	9.04	-31.3	-34.2	10.6	4.14e-03	0	43	0	956301312	22	5081
2026-01-29 08:36:21.80	352.67	8.98	-31.2	-34.0	10.8	3.68e-03	0	43	0	958398464	22	5002
2026-01-29 08:36:22.81	352.56	8.91	-31.1	-33.8	10.9	2.44e-03	0	43	0	960495616	22	4909
2026-01-29 08:36:23.81	352.46	8.85	-31.1	-33.6	11.0	1.93e-03	0	43	0	962592768	22	4842
2026-01-29 08:36:24.81	352.35	8.78	-31.1	-33.7	11.0	1.78e-03	0	43	0	964689920	22	4866
2026-01-29 08:36:25.81	352.25	8.71	-31.2	-34.0	10.7	2.27e-03	0	43	0	965738496	22	5007
2026-01-29 08:36:26.82	352.14	8.65	-31.0	-33.5	11.0	2.95e-03	0	43	0	967835648	22	4789
2026-01-29 08:36:27.82	352.04	8.58	-30.8	-33.0	11.4	1.11e-03	0	43	0	969932800	22	4612
2026-01-29 08:36:28.82	351.94	8.52	-30.6	-32.4	11.8	6.19e-04	0	43	0	972029952	22	4400
2026-01-29 08:36:29.82	351.84	8.45	-30.5	-32.1	12.0	4.10e-04	0	43	0	974127104	22	4324
2026-01-29 08:36:30.82	351.74	8.39	-30.5	-32.0	12.1	2.84e-04	0	43	0	975175680	22	4286
2026-01-29 08:36:31.82	351.64	8.32	-30.5	-32.1	12.0	2.50e-04	0	43	0	977272832	22	4314
2026-01-29 08:36:32.83	351.54	8.26	-30.6	-32.4	11.8	3.58e-04	0	43	0	979369984	22	4405
2026-01-29 08:36:33.83	351.44	8.19	-30.6	-32.3	11.8	4.14e-04	0	43	0	981467136	22	4382
2026-01-29 08:36:34.83	351.34	8.13	-30.5	-32.0	12.1	2.91e-04	0	43	0	982515712	22	4281
2026-01-29 08:36:35.84	351.24	8.06	-30.7	-32.5	11.7	4.13e-04	0	43	0	984612864	22	4432
2026-01-29 08:36:36.85	351.14	8.00	-30.7	-32.5	11.7	6.74e-04	0	43	0	986710016	22	4466
2026-01-29 08:36:37.86	351.04	7.93	-30.8	-32.8	11.4	8.56e-04	0	43	0	988807168	22	4559
2026-01-29 08:36:38.86	350.94	7.87	-30.8	-33.0	11.3	1.03e-03	0	43	0	990904320	22	4645
2026-01-29 08:36:39.86	350.85	7.80	-30.9	-33.3	11.1	1.12e-03	0	43	0	991952896	22	4730
2026-01-29 08:36:40.87	350.75	7.74	-30.9	-33.4	11.0	1.70e-03	0	43	0	994050048	22	4760
2026-01-29 08:36:41.87	350.65	7.67	-31.0	-33.6	10.9	2.25e-03	0	43	0	996147200	22	4847
2026-01-29 08:36:42.87	350.56	7.61	-31.1	-34.1	10.4	2.86e-03	0	43	0	998244352	22	5071
2026-01-29 08:36:43.88	350.46	7.54	-31.1	-34.1	10.5	3.88e-03	0	43	0	1000341504	22	5053
2026-01-29 08:36:44.88	350.37	7.48	-31.1	-34.0	10.6	4.12e-03	0	43	0	1001390080	22	5002
2026-01-29 08:36:45.88	350.27	7.42	-31.3	-34.7	10.0	6.47e-03	0	43	0	1003487232	22	5308
2026-01-29 08:36:46.88	350.18	7.35	-31.2	-34.5	10.2	7.37e-03	0	43	0	1005584384	22	5227
2026-01-29 08:36:47.88	350.08	7.29	-31.4	-34.9	9.8	8.23e-03	0	43	0	1007681536	22	5413
2026-01-29 08:36:48.89	349.99	7.22	-31.3	-34.8	9.9	8.70e-03	0	43	0	1009778688	22	5374
2026-01-29 08:36:49.89	349.90	7.16	-31.4	-34.9	9.8	9.70e-03	0	43	0	1010827264	22	5430
2026-01-29 08:36:50.89	349.81	7.10	-31.3	-34.7	10.0	9.43e-03	0	43	0	1012924416	22	5317
2026-01-29 08:36:51.89	349.71	7.03	-33.3	-44.1	3.8	9.21e-01	0	43	104	1013972992	26	12468
2026-01-29 08:36:52.89	349.62	6.97	-33.7	-46.0	3.8	1.49e+00	0	43	104	1013972992	27	14779
2026-01-29 08:36:53.90	349.53	6.91	-34.0	-46.7	3.8	1.49e+00	0	43	104	1013972992	27	15543

#Closed at: 2026-01-29 08:36:54
#Recorded file [1013 MB]: D:/data/31010_260129_112750.dat