passes_logs/2026/01/29/R2M6_AANII_01/R2M6_AANII_01__20260129_110255_FENGYUN_3D_rec.log

#Pass ID: 20260129_110255_FENGYUN 3D
#Satellite: FENGYUN 3D
#Configuration: FENGYUN 3D
#almurnet v.1.7.20240730
#Start time: 2026-01-29 11:02:57

#Version: 2.2.20231116
#Station: R2M6_AANII_01
#Location: 30.233357 lon 59.946436 lat
#TLE: 1 43010U 17072A   26027.97130493  .00000326  00000+0  17586-3 0  9998
#TLE: 2 43010  98.9960 359.9900 0002514  87.8428 272.3036 14.19701925425097

#Time	Az	El	Level	Level2	SNR	BER	BlckErr	Temp	State	Recorded	gain1	gain2
2026-01-29 11:02:57.99	118.57	7.15	-30.6	-33.7	5.2	7.92e-01	0	40	0	0	22	5167
2026-01-29 11:02:58.98	118.50	7.22	-30.3	-33.3	5.3	7.87e-01	0	40	104	0	21	5122
2026-01-29 11:02:59.99	118.43	7.29	-30.2	-33.1	9.7	1.06e-02	0	40	0	0	21	5020
2026-01-29 11:03:00.98	118.37	7.36	-30.3	-33.3	9.6	1.01e-02	0	40	0	5242880	21	5087
2026-01-29 11:03:01.99	118.30	7.43	-30.1	-32.9	9.9	7.90e-03	0	40	0	10485760	21	4926
2026-01-29 11:03:02.99	118.24	7.51	-29.6	-32.0	10.8	2.65e-03	0	40	0	16777216	20	4739
2026-01-29 11:03:03.99	118.17	7.58	-29.3	-31.5	11.5	9.25e-04	0	40	0	22020096	19	4656
2026-01-29 11:03:04.99	118.10	7.65	-28.8	-30.4	12.2	1.79e-04	0	40	0	27262976	19	4328
2026-01-29 11:03:05.99	118.03	7.72	-28.5	-30.1	12.7	5.72e-05	0	40	0	33554432	18	4333
2026-01-29 11:03:06.99	117.96	7.80	-28.2	-29.9	13.2	1.71e-05	0	40	0	38797312	17	4377
2026-01-29 11:03:07.99	117.90	7.87	-28.0	-29.5	13.4	1.37e-05	0	40	0	45088768	17	4257
2026-01-29 11:03:09.00	117.83	7.94	-27.9	-29.3	13.6	6.80e-06	0	40	0	50331648	17	4212
2026-01-29 11:03:10.00	117.76	8.02	-27.9	-29.3	13.6	2.20e-06	0	40	0	55574528	17	4193
2026-01-29 11:03:11.00	117.69	8.09	-27.9	-29.1	13.7	2.20e-06	0	40	0	61865984	17	4149
2026-01-29 11:03:12.01	117.62	8.17	-28.0	-29.3	13.6	5.70e-06	0	40	0	67108864	17	4214
2026-01-29 11:03:13.01	117.55	8.24	-27.9	-29.1	13.7	2.20e-06	0	40	0	73400320	17	4138
2026-01-29 11:03:14.02	117.48	8.31	-27.9	-29.2	13.7	5.70e-06	0	40	0	78643200	17	4172
2026-01-29 11:03:15.02	117.40	8.39	-28.0	-29.4	13.6	9.10e-06	0	40	0	83886080	17	4224
2026-01-29 11:03:16.02	117.33	8.46	-27.8	-28.9	13.9	0.00e+00	0	40	0	90177536	17	4100
2026-01-29 11:03:17.03	117.26	8.54	-27.7	-29.2	14.0	0.00e+00	0	40	0	95420416	16	4277
2026-01-29 11:03:18.02	117.19	8.61	-27.7	-29.2	14.1	2.20e-06	0	40	0	100663296	16	4268
2026-01-29 11:03:19.03	117.12	8.69	-27.8	-29.3	14.0	4.50e-06	0	40	0	106954752	16	4306
2026-01-29 11:03:20.02	117.04	8.76	-27.9	-29.5	13.9	5.70e-06	0	40	0	112197632	16	4369
2026-01-29 11:03:21.02	116.97	8.84	-27.8	-29.4	14.0	1.10e-06	0	41	0	117440512	16	4320
2026-01-29 11:03:22.01	116.90	8.91	-27.6	-29.0	14.2	0.00e+00	0	41	0	123731968	16	4225
2026-01-29 11:03:23.02	116.82	8.99	-27.6	-29.1	14.2	0.00e+00	0	40	0	128974848	16	4231
2026-01-29 11:03:24.02	116.75	9.06	-27.6	-28.9	14.3	2.20e-06	0	41	0	135266304	16	4200
2026-01-29 11:03:25.03	116.67	9.14	-27.6	-29.1	14.2	0.00e+00	0	41	0	140509184	16	4233
2026-01-29 11:03:26.03	116.60	9.22	-27.8	-29.4	14.0	1.10e-06	0	40	0	145752064	16	4323
2026-01-29 11:03:27.03	116.52	9.29	-27.7	-29.1	14.2	1.10e-06	0	41	0	152043520	16	4244
2026-01-29 11:03:28.04	116.44	9.37	-27.6	-28.9	14.3	2.20e-06	0	41	0	157286400	16	4179
2026-01-29 11:03:29.04	116.37	9.45	-27.6	-29.0	14.3	1.10e-06	0	41	0	163577856	16	4204
2026-01-29 11:03:30.05	116.29	9.53	-27.6	-28.8	14.3	0.00e+00	0	41	0	168820736	16	4169
2026-01-29 11:03:31.05	116.21	9.60	-27.6	-29.0	14.3	0.00e+00	0	41	0	174063616	16	4217
2026-01-29 11:03:32.06	116.13	9.68	-27.6	-29.0	14.3	2.20e-06	0	41	0	180355072	16	4214
2026-01-29 11:03:33.06	116.05	9.76	-27.7	-29.1	14.3	0.00e+00	0	41	0	185597952	16	4228
2026-01-29 11:03:34.06	115.98	9.84	-27.8	-29.3	14.1	1.10e-06	0	41	0	190840832	16	4298
2026-01-29 11:03:35.06	115.90	9.91	-27.6	-29.0	14.3	0.00e+00	0	41	0	197132288	16	4209
2026-01-29 11:03:36.06	115.82	9.99	-27.5	-28.8	14.5	0.00e+00	0	41	0	202375168	16	4159
2026-01-29 11:03:37.06	115.74	10.07	-27.5	-28.8	14.4	1.10e-06	0	41	0	208666624	16	4154
2026-01-29 11:03:38.06	115.66	10.15	-27.5	-28.6	14.6	0.00e+00	0	41	0	213909504	16	4102
2026-01-29 11:03:39.06	115.57	10.23	-27.6	-29.0	14.4	0.00e+00	0	41	0	219152384	16	4198
2026-01-29 11:03:40.07	115.49	10.31	-27.4	-28.4	14.7	0.00e+00	0	41	0	225443840	16	4060
2026-01-29 11:03:41.07	115.41	10.39	-27.1	-28.2	14.9	0.00e+00	0	41	0	230686720	15	4114
2026-01-29 11:03:42.07	115.33	10.47	-27.0	-28.2	14.9	1.10e-06	0	41	0	235929600	15	4103
2026-01-29 11:03:43.07	115.25	10.55	-27.0	-28.2	14.9	0.00e+00	0	41	0	242221056	15	4110
2026-01-29 11:03:44.07	115.16	10.63	-27.1	-28.3	14.9	0.00e+00	0	41	0	247463936	15	4145
2026-01-29 11:03:45.07	115.08	10.70	-27.2	-28.5	14.8	0.00e+00	0	41	0	252706816	15	4178
2026-01-29 11:03:46.08	114.99	10.79	-27.3	-28.7	14.7	3.40e-06	0	41	0	258998272	15	4233
2026-01-29 11:03:47.08	114.91	10.87	-27.1	-28.3	14.9	0.00e+00	0	41	0	264241152	15	4139
2026-01-29 11:03:48.09	114.82	10.95	-27.1	-28.3	14.9	0.00e+00	0	41	0	270532608	15	4126
2026-01-29 11:03:49.09	114.74	11.03	-27.1	-28.3	14.9	1.10e-06	0	41	0	275775488	15	4134
2026-01-29 11:03:50.09	114.65	11.11	-27.1	-28.2	15.0	0.00e+00	0	41	0	282066944	15	4112
2026-01-29 11:03:51.10	114.56	11.19	-27.1	-28.4	14.8	0.00e+00	0	41	0	287309824	15	4163
2026-01-29 11:03:52.11	114.48	11.27	-27.3	-28.8	14.6	5.70e-06	0	41	0	292552704	15	4261
2026-01-29 11:03:53.11	114.39	11.35	-27.1	-28.3	14.9	0.00e+00	0	41	0	298844160	15	4151
2026-01-29 11:03:54.11	114.30	11.44	-27.1	-28.2	14.9	0.00e+00	0	41	0	304087040	15	4126
2026-01-29 11:03:55.11	114.21	11.52	-27.0	-28.2	15.0	0.00e+00	0	41	0	309329920	15	4113
2026-01-29 11:03:56.11	114.12	11.60	-27.1	-28.2	15.0	0.00e+00	0	41	0	315621376	15	4116
2026-01-29 11:03:57.11	114.03	11.68	-27.1	-28.4	14.9	0.00e+00	0	41	0	320864256	15	4154
2026-01-29 11:03:58.11	113.94	11.77	-27.2	-28.6	14.7	0.00e+00	0	41	0	326107136	15	4225
2026-01-29 11:03:59.12	113.85	11.85	-27.1	-28.2	15.0	0.00e+00	0	41	0	332398592	15	4115
2026-01-29 11:04:00.12	113.76	11.93	-27.0	-28.2	15.0	0.00e+00	0	41	0	337641472	15	4097
2026-01-29 11:04:01.12	113.67	12.01	-27.1	-28.3	15.0	1.10e-06	0	41	0	343932928	15	4128
2026-01-29 11:04:02.12	113.57	12.10	-27.1	-28.4	14.9	0.00e+00	0	41	0	349175808	15	4164
2026-01-29 11:04:03.13	113.48	12.18	-27.2	-28.5	14.8	0.00e+00	0	41	0	354418688	15	4196
2026-01-29 11:04:04.13	113.39	12.27	-27.1	-28.4	14.9	0.00e+00	0	41	0	360710144	15	4150
2026-01-29 11:04:05.13	113.29	12.35	-27.1	-28.4	14.9	0.00e+00	0	41	0	365953024	15	4152
2026-01-29 11:04:06.14	113.20	12.44	-27.1	-28.3	15.0	0.00e+00	0	41	0	371195904	15	4137
2026-01-29 11:04:07.15	113.10	12.52	-27.1	-28.3	15.0	0.00e+00	0	41	0	377487360	15	4126
2026-01-29 11:04:08.15	113.01	12.61	-27.1	-28.3	15.0	0.00e+00	0	41	0	382730240	15	4128
2026-01-29 11:04:09.15	112.91	12.69	-27.1	-28.3	15.0	0.00e+00	0	41	0	389021696	15	4135
2026-01-29 11:04:10.14	112.81	12.77	-27.3	-28.7	14.7	1.10e-06	0	41	0	394264576	15	4254
2026-01-29 11:04:11.15	112.72	12.86	-27.0	-28.0	15.2	0.00e+00	0	41	0	399507456	15	4056
2026-01-29 11:04:12.15	112.62	12.95	-26.8	-28.0	15.4	0.00e+00	0	41	0	405798912	14	4165
2026-01-29 11:04:13.15	112.52	13.03	-26.6	-27.7	15.6	0.00e+00	0	41	0	411041792	14	4091
2026-01-29 11:04:14.15	112.42	13.12	-26.7	-27.9	15.5	0.00e+00	0	41	0	417333248	14	4146
2026-01-29 11:04:15.15	112.32	13.20	-26.8	-28.3	15.3	0.00e+00	0	41	0	422576128	14	4231
2026-01-29 11:04:16.15	112.22	13.29	-26.6	-27.7	15.6	0.00e+00	0	41	0	427819008	14	4068
2026-01-29 11:04:17.16	112.12	13.38	-26.7	-27.9	15.5	0.00e+00	0	41	0	434110464	14	4123
2026-01-29 11:04:18.16	112.02	13.46	-26.8	-28.1	15.4	0.00e+00	0	41	0	439353344	14	4180
2026-01-29 11:04:19.17	111.91	13.55	-26.6	-27.6	15.7	0.00e+00	0	41	0	444596224	14	4049
2026-01-29 11:04:20.17	111.81	13.64	-26.5	-27.4	15.8	0.00e+00	0	41	0	450887680	14	4009
2026-01-29 11:04:21.18	111.71	13.73	-26.5	-27.4	15.9	0.00e+00	0	41	0	456130560	14	3994
2026-01-29 11:04:22.18	111.60	13.82	-26.6	-27.6	15.7	0.00e+00	0	42	0	461373440	14	4047
2026-01-29 11:04:23.18	111.50	13.90	-26.4	-27.3	15.9	0.00e+00	0	41	0	467664896	14	3980
2026-01-29 11:04:24.18	111.39	13.99	-26.3	-27.1	16.0	0.00e+00	0	42	0	472907776	14	3919
2026-01-29 11:04:25.19	111.28	14.08	-26.3	-27.4	16.1	0.00e+00	0	42	0	479199232	13	4118
2026-01-29 11:04:26.19	111.18	14.17	-26.3	-27.5	16.1	0.00e+00	0	41	0	484442112	13	4134
2026-01-29 11:04:27.20	111.07	14.26	-26.2	-27.3	16.1	0.00e+00	0	42	0	490733568	13	4092
2026-01-29 11:04:28.20	110.96	14.35	-26.3	-27.5	16.1	0.00e+00	0	41	0	495976448	13	4123
2026-01-29 11:04:29.20	110.85	14.44	-26.4	-27.7	15.9	0.00e+00	0	41	0	501219328	13	4183
2026-01-29 11:04:30.20	110.74	14.53	-26.4	-27.8	15.9	0.00e+00	0	41	0	507510784	13	4216
2026-01-29 11:04:31.21	110.63	14.62	-26.3	-27.5	16.0	0.00e+00	0	41	0	512753664	13	4141
2026-01-29 11:04:32.22	110.52	14.71	-26.3	-27.4	16.1	0.00e+00	0	42	0	517996544	13	4118
2026-01-29 11:04:33.22	110.41	14.80	-26.3	-27.4	16.1	0.00e+00	0	42	0	524288000	13	4116
2026-01-29 11:04:34.23	110.30	14.89	-26.2	-27.3	16.2	0.00e+00	0	41	0	529530880	13	4095
2026-01-29 11:04:35.23	110.18	14.98	-26.3	-27.5	16.1	0.00e+00	0	41	0	534773760	13	4148
2026-01-29 11:04:36.24	110.07	15.07	-26.4	-27.8	15.9	0.00e+00	0	42	0	541065216	13	4208
2026-01-29 11:04:37.25	109.95	15.17	-26.2	-27.3	16.2	0.00e+00	0	41	0	546308096	13	4085
2026-01-29 11:04:38.26	109.84	15.26	-26.1	-27.0	16.4	0.00e+00	0	41	0	552599552	13	3998
2026-01-29 11:04:39.25	109.72	15.35	-26.1	-27.0	16.4	0.00e+00	0	42	0	557842432	13	4005
2026-01-29 11:04:40.26	109.61	15.44	-26.1	-27.1	16.3	0.00e+00	0	42	0	564133888	13	4032
2026-01-29 11:04:41.26	109.49	15.53	-26.0	-26.7	16.5	0.00e+00	0	41	0	569376768	13	3945
2026-01-29 11:04:42.27	109.37	15.63	-25.9	-26.7	16.5	1.10e-06	0	41	0	574619648	13	3946
2026-01-29 11:04:43.27	109.25	15.72	-26.1	-27.1	16.4	0.00e+00	0	42	0	580911104	13	4027
2026-01-29 11:04:44.28	109.13	15.81	-26.3	-27.4	16.1	0.00e+00	0	42	0	586153984	13	4117
2026-01-29 11:04:45.28	109.01	15.90	-26.3	-27.4	16.2	0.00e+00	0	41	0	591396864	13	4108
2026-01-29 11:04:46.27	108.89	16.00	-26.3	-27.5	16.1	0.00e+00	0	42	0	597688320	13	4129
2026-01-29 11:04:47.27	108.77	16.09	-26.3	-27.6	16.1	0.00e+00	0	42	0	602931200	13	4156
2026-01-29 11:04:48.28	108.65	16.18	-26.3	-27.4	16.2	2.20e-06	0	42	0	608174080	13	4110
2026-01-29 11:04:49.28	108.52	16.28	-26.3	-27.5	16.2	0.00e+00	0	42	0	614465536	13	4123
2026-01-29 11:04:50.28	108.40	16.37	-26.3	-27.5	16.2	0.00e+00	0	42	0	619708416	13	4127
2026-01-29 11:04:51.29	108.27	16.47	-26.3	-27.4	16.2	0.00e+00	0	42	0	625999872	13	4121
2026-01-29 11:04:52.30	108.15	16.56	-26.3	-27.5	16.1	0.00e+00	0	42	0	631242752	13	4147
2026-01-29 11:04:53.30	108.02	16.66	-25.9	-26.6	16.6	0.00e+00	0	42	0	637534208	13	3908
2026-01-29 11:04:54.30	107.89	16.75	-25.6	-26.5	16.9	2.20e-06	0	41	0	642777088	12	3987
2026-01-29 11:04:55.31	107.76	16.85	-25.5	-26.2	17.2	0.00e+00	0	42	0	648019968	12	3908
2026-01-29 11:04:56.32	107.63	16.95	-25.4	-26.1	17.2	0.00e+00	0	42	0	654311424	12	3892
2026-01-29 11:04:57.32	107.50	17.04	-25.4	-26.1	17.2	2.20e-06	0	42	0	659554304	12	3889
2026-01-29 11:04:58.33	107.37	17.14	-25.3	-25.9	17.3	0.00e+00	0	42	0	664797184	12	3839
2026-01-29 11:04:59.33	107.24	17.23	-25.4	-26.1	17.2	0.00e+00	0	42	0	671088640	12	3880
2026-01-29 11:05:00.34	107.11	17.33	-25.4	-26.1	17.2	0.00e+00	0	42	0	676331520	12	3898
2026-01-29 11:05:01.34	106.97	17.43	-25.5	-26.3	17.1	0.00e+00	0	42	0	682622976	12	3938
2026-01-29 11:05:02.34	106.84	17.52	-25.5	-26.2	17.1	0.00e+00	0	42	0	687865856	12	3926
2026-01-29 11:05:03.34	106.71	17.62	-25.6	-26.5	17.0	0.00e+00	0	42	0	693108736	12	3982
2026-01-29 11:05:04.34	106.57	17.72	-25.8	-26.8	16.9	0.00e+00	0	42	0	699400192	12	4059
2026-01-29 11:05:05.35	106.43	17.82	-25.7	-26.8	16.9	0.00e+00	0	42	0	704643072	12	4049
2026-01-29 11:05:06.35	106.30	17.91	-25.6	-26.4	17.0	0.00e+00	0	42	0	710934528	12	3971
2026-01-29 11:05:07.35	106.16	18.01	-25.5	-26.3	17.1	0.00e+00	0	42	0	716177408	12	3951
2026-01-29 11:05:08.35	106.02	18.11	-25.6	-26.5	17.1	0.00e+00	0	42	0	721420288	12	3976
2026-01-29 11:05:09.36	105.88	18.21	-25.6	-26.4	17.1	0.00e+00	0	42	0	727711744	12	3965
2026-01-29 11:05:10.37	105.73	18.31	-25.4	-26.1	17.3	0.00e+00	0	42	0	732954624	12	3881
2026-01-29 11:05:11.37	105.59	18.41	-25.4	-26.0	17.3	0.00e+00	0	42	0	738197504	12	3872
2026-01-29 11:05:12.37	105.45	18.51	-25.4	-26.0	17.3	0.00e+00	0	42	0	744488960	12	3862
2026-01-29 11:05:13.38	105.30	18.61	-25.4	-26.0	17.3	0.00e+00	0	42	0	749731840	12	3871
2026-01-29 11:05:14.38	105.16	18.71	-25.5	-26.2	17.2	0.00e+00	0	42	0	754974720	12	3918
2026-01-29 11:05:15.38	105.01	18.80	-25.3	-26.3	17.5	0.00e+00	0	42	0	761266176	11	4043
2026-01-29 11:05:16.38	104.87	18.90	-25.2	-26.2	17.6	0.00e+00	0	42	0	766509056	11	4013
2026-01-29 11:05:17.39	104.72	19.01	-25.3	-26.4	17.5	0.00e+00	0	42	0	772800512	11	4058
2026-01-29 11:05:18.39	104.57	19.11	-25.2	-26.2	17.6	0.00e+00	0	42	0	778043392	11	4006
2026-01-29 11:05:19.40	104.42	19.21	-25.3	-26.2	17.5	0.00e+00	0	42	0	784334848	11	4027
2026-01-29 11:05:20.40	104.26	19.31	-25.4	-26.5	17.4	0.00e+00	0	42	0	789577728	11	4083
2026-01-29 11:05:21.41	104.11	19.41	-25.4	-26.5	17.4	0.00e+00	0	42	0	794820608	11	4087
2026-01-29 11:05:22.41	103.96	19.51	-25.4	-26.5	17.4	0.00e+00	0	42	0	801112064	11	4081
2026-01-29 11:05:23.41	103.80	19.61	-25.5	-26.7	17.3	0.00e+00	0	42	0	806354944	11	4132
2026-01-29 11:05:24.42	103.65	19.71	-25.4	-26.5	17.4	0.00e+00	0	42	0	811597824	11	4101
2026-01-29 11:05:25.43	103.49	19.82	-25.1	-25.8	17.8	0.00e+00	0	42	0	817889280	11	3928
2026-01-29 11:05:26.43	103.33	19.92	-25.0	-25.6	17.9	0.00e+00	0	42	0	823132160	11	3880
2026-01-29 11:05:27.44	103.17	20.02	-25.0	-25.7	17.9	0.00e+00	0	42	0	829423616	11	3883
2026-01-29 11:05:28.44	103.01	20.12	-25.0	-25.7	17.9	0.00e+00	0	42	0	834666496	11	3885
2026-01-29 11:05:29.45	102.85	20.23	-25.0	-25.6	17.9	0.00e+00	0	42	0	840957952	11	3856
2026-01-29 11:05:30.45	102.69	20.33	-25.0	-25.6	17.9	0.00e+00	0	42	0	846200832	11	3869
2026-01-29 11:05:31.45	102.53	20.43	-24.8	-25.3	18.1	0.00e+00	0	42	0	851443712	11	3788
2026-01-29 11:05:32.45	102.36	20.53	-24.8	-25.2	18.1	0.00e+00	0	42	0	857735168	11	3770
2026-01-29 11:05:33.45	102.20	20.64	-24.8	-25.3	18.1	0.00e+00	0	42	0	862978048	11	3789
2026-01-29 11:05:34.45	102.03	20.74	-24.9	-25.5	18.0	0.00e+00	0	42	0	868220928	11	3833
2026-01-29 11:05:35.45	101.87	20.84	-25.1	-25.9	17.8	0.00e+00	0	42	0	874512384	11	3927
2026-01-29 11:05:36.46	101.70	20.95	-25.2	-26.1	17.7	0.00e+00	0	42	0	879755264	11	3986
2026-01-29 11:05:37.46	101.53	21.05	-25.2	-26.0	17.7	0.00e+00	0	42	0	884998144	11	3964
2026-01-29 11:05:38.47	101.36	21.16	-25.2	-26.1	17.7	1.10e-06	0	42	0	891289600	11	3989
2026-01-29 11:05:39.48	101.18	21.26	-25.2	-26.0	17.7	0.00e+00	0	42	0	896532480	11	3979
2026-01-29 11:05:40.47	101.01	21.36	-25.1	-25.8	17.8	0.00e+00	0	42	0	902823936	11	3925
2026-01-29 11:05:41.47	100.84	21.47	-25.1	-25.9	17.8	1.10e-06	0	42	0	908066816	11	3936
2026-01-29 11:05:42.48	100.66	21.57	-25.1	-25.8	17.8	0.00e+00	0	42	0	913309696	11	3921
2026-01-29 11:05:43.48	100.48	21.68	-25.0	-25.8	17.9	0.00e+00	0	42	0	919601152	11	3913
2026-01-29 11:05:44.49	100.31	21.78	-25.0	-25.7	17.9	0.00e+00	0	42	0	924844032	11	3897
2026-01-29 11:05:45.49	100.13	21.89	-24.8	-25.2	18.2	0.00e+00	0	42	0	930086912	11	3776
2026-01-29 11:05:46.49	99.95	21.99	-24.7	-25.5	18.3	0.00e+00	0	42	0	936378368	10	3955
2026-01-29 11:05:47.50	99.76	22.10	-24.7	-25.5	18.3	0.00e+00	0	42	0	941621248	10	3950
2026-01-29 11:05:48.50	99.58	22.20	-24.6	-25.3	18.4	0.00e+00	0	42	0	947912704	10	3913
2026-01-29 11:05:49.51	99.40	22.31	-24.6	-25.4	18.3	0.00e+00	0	42	0	953155584	10	3918
2026-01-29 11:05:50.50	99.21	22.41	-24.6	-25.3	18.4	0.00e+00	0	42	0	958398464	10	3906
2026-01-29 11:05:51.50	99.03	22.52	-24.6	-25.3	18.4	0.00e+00	0	42	0	964689920	10	3901
2026-01-29 11:05:52.49	98.84	22.62	-24.6	-25.4	18.4	0.00e+00	0	42	0	969932800	10	3919
2026-01-29 11:05:53.49	98.65	22.73	-24.7	-25.4	18.3	0.00e+00	0	42	0	976224256	10	3931
2026-01-29 11:05:54.50	98.46	22.84	-24.6	-25.3	18.4	0.00e+00	0	42	0	981467136	10	3906
2026-01-29 11:05:55.50	98.27	22.94	-24.6	-25.3	18.4	0.00e+00	0	42	0	986710016	10	3903
2026-01-29 11:05:56.50	98.08	23.05	-24.6	-25.3	18.4	0.00e+00	0	42	0	993001472	10	3910
2026-01-29 11:05:57.51	97.88	23.16	-24.5	-25.1	18.5	0.00e+00	0	42	0	998244352	10	3868
2026-01-29 11:05:58.52	97.68	23.26	-24.4	-24.9	18.6	0.00e+00	0	42	0	1003487232	10	3819
2026-01-29 11:05:59.52	97.49	23.37	-24.3	-24.7	18.7	0.00e+00	0	42	0	1009778688	10	3766
2026-01-29 11:06:00.52	97.29	23.48	-24.4	-24.9	18.6	0.00e+00	0	42	0	1015021568	10	3817
2026-01-29 11:06:01.53	97.09	23.58	-24.4	-24.9	18.6	0.00e+00	0	42	0	1020264448	10	3800
2026-01-29 11:06:02.52	96.89	23.69	-24.2	-25.0	18.8	0.00e+00	0	42	0	1026555904	9	3942
2026-01-29 11:06:03.53	96.68	23.80	-24.2	-25.0	18.8	0.00e+00	0	42	0	1031798784	9	3932
2026-01-29 11:06:04.53	96.48	23.90	-24.3	-25.1	18.7	0.00e+00	0	42	0	1038090240	9	3973
2026-01-29 11:06:05.53	96.27	24.01	-24.4	-25.3	18.6	0.00e+00	0	42	0	1043333120	9	4020
2026-01-29 11:06:06.53	96.07	24.12	-24.4	-25.5	18.6	0.00e+00	0	42	0	1048576000	9	4051
2026-01-29 11:06:07.54	95.86	24.22	-24.5	-25.6	18.5	0.00e+00	0	42	0	1054867456	9	4078
2026-01-29 11:06:08.54	95.65	24.33	-24.5	-25.6	18.5	0.00e+00	0	42	0	1060110336	9	4098
2026-01-29 11:06:09.55	95.43	24.44	-24.5	-25.6	18.5	0.00e+00	0	42	0	1066401792	9	4080
2026-01-29 11:06:10.55	95.22	24.54	-24.5	-25.6	18.5	0.00e+00	0	42	0	1071644672	9	4074
2026-01-29 11:06:11.55	95.01	24.65	-24.4	-25.4	18.6	0.00e+00	0	42	0	1076887552	9	4040
2026-01-29 11:06:12.56	94.79	24.76	-24.5	-25.5	18.6	0.00e+00	0	42	0	1083179008	9	4071
2026-01-29 11:06:13.56	94.57	24.86	-24.3	-25.2	18.8	0.00e+00	0	42	0	1088421888	9	3983
2026-01-29 11:06:14.56	94.36	24.97	-24.0	-24.6	19.1	0.00e+00	0	42	0	1093664768	9	3844
2026-01-29 11:06:15.57	94.13	25.08	-23.9	-24.3	19.2	0.00e+00	0	42	0	1099956224	9	3781
2026-01-29 11:06:16.57	93.91	25.19	-24.0	-24.5	19.1	0.00e+00	0	42	0	1105199104	9	3825
2026-01-29 11:06:17.57	93.69	25.29	-24.0	-24.6	19.1	0.00e+00	0	42	0	1111490560	9	3837
2026-01-29 11:06:18.57	93.47	25.40	-24.0	-24.5	19.1	0.00e+00	0	42	0	1116733440	9	3827
2026-01-29 11:06:19.57	93.24	25.50	-24.0	-24.5	19.1	0.00e+00	0	42	0	1121976320	9	3832
2026-01-29 11:06:20.57	93.01	25.61	-24.0	-24.5	19.1	0.00e+00	0	42	0	1128267776	9	3817
2026-01-29 11:06:21.58	92.78	25.72	-24.1	-24.6	19.0	0.00e+00	0	42	0	1133510656	9	3854
2026-01-29 11:06:22.58	92.55	25.82	-24.0	-24.5	19.1	0.00e+00	0	42	0	1138753536	9	3825
2026-01-29 11:06:23.58	92.32	25.93	-23.8	-24.2	19.3	0.00e+00	0	42	0	1145044992	9	3748
2026-01-29 11:06:24.58	92.09	26.04	-23.8	-24.1	19.3	0.00e+00	0	42	0	1150287872	9	3740
2026-01-29 11:06:25.59	91.85	26.14	-23.8	-24.2	19.3	0.00e+00	0	42	0	1155530752	9	3748
2026-01-29 11:06:26.59	91.61	26.25	-23.8	-24.2	19.3	0.00e+00	0	42	0	1161822208	9	3750
2026-01-29 11:06:27.59	91.38	26.35	-23.9	-24.2	19.3	0.00e+00	0	42	0	1167065088	9	3752
2026-01-29 11:06:28.60	91.13	26.46	-23.9	-24.4	19.2	0.00e+00	0	42	0	1173356544	9	3784
2026-01-29 11:06:29.60	90.89	26.57	-23.8	-24.1	19.4	0.00e+00	0	42	0	1178599424	9	3720
2026-01-29 11:06:30.60	90.65	26.67	-23.8	-24.6	19.4	0.00e+00	0	42	0	1184890880	8	3948
2026-01-29 11:06:31.61	90.40	26.78	-23.9	-24.7	19.3	0.00e+00	0	42	0	1190133760	8	3983
2026-01-29 11:06:32.62	90.15	26.88	-23.8	-24.7	19.3	0.00e+00	0	42	0	1195376640	8	3963
2026-01-29 11:06:33.63	89.90	26.99	-23.8	-24.7	19.3	0.00e+00	0	42	0	1201668096	8	3962
2026-01-29 11:06:34.63	89.65	27.09	-23.9	-24.9	19.2	0.00e+00	0	42	0	1206910976	8	4010
2026-01-29 11:06:35.63	89.40	27.20	-24.0	-25.1	19.1	0.00e+00	0	42	0	1212153856	8	4060
2026-01-29 11:06:36.63	89.15	27.30	-24.0	-25.1	19.1	0.00e+00	0	42	0	1218445312	8	4074
2026-01-29 11:06:37.64	88.89	27.41	-24.1	-25.3	19.0	0.00e+00	0	42	0	1223688192	8	4129
2026-01-29 11:06:38.63	88.64	27.51	-24.1	-25.1	19.1	0.00e+00	0	42	0	1228931072	8	4077
2026-01-29 11:06:39.64	88.38	27.61	-23.8	-24.6	19.4	0.00e+00	0	42	0	1235222528	8	3948
2026-01-29 11:06:40.65	88.11	27.72	-23.7	-24.4	19.4	0.00e+00	0	42	0	1240465408	8	3907
2026-01-29 11:06:41.65	87.85	27.82	-23.8	-24.6	19.4	0.00e+00	0	42	0	1246756864	8	3936
2026-01-29 11:06:42.65	87.59	27.92	-23.7	-24.5	19.4	0.00e+00	0	42	0	1251999744	8	3924
2026-01-29 11:06:43.65	87.33	28.02	-23.8	-24.6	19.4	0.00e+00	0	42	0	1258291200	8	3943
2026-01-29 11:06:44.66	87.06	28.13	-23.9	-24.9	19.2	0.00e+00	0	42	0	1263534080	8	4024
2026-01-29 11:06:45.66	86.79	28.23	-24.1	-25.3	19.0	0.00e+00	0	42	0	1268776960	8	4122
2026-01-29 11:06:46.67	86.52	28.33	-24.1	-25.2	19.1	0.00e+00	0	42	0	1275068416	8	4096
2026-01-29 11:06:47.67	86.24	28.43	-24.0	-25.0	19.2	0.00e+00	0	42	0	1280311296	8	4047
2026-01-29 11:06:48.68	85.97	28.53	-24.0	-25.0	19.2	0.00e+00	0	42	0	1285554176	8	4046
2026-01-29 11:06:49.69	85.69	28.63	-24.0	-25.1	19.1	0.00e+00	0	42	0	1291845632	8	4073
2026-01-29 11:06:50.69	85.41	28.73	-24.1	-25.2	19.1	0.00e+00	0	42	0	1297088512	8	4097
2026-01-29 11:06:51.70	85.13	28.83	-24.0	-24.9	19.2	0.00e+00	0	42	0	1303379968	8	4034
2026-01-29 11:06:52.70	84.85	28.93	-23.8	-24.5	19.4	0.00e+00	0	42	0	1308622848	8	3936
2026-01-29 11:06:53.70	84.57	29.03	-23.7	-24.3	19.5	0.00e+00	0	42	0	1313865728	8	3878
2026-01-29 11:06:54.71	84.28	29.13	-23.7	-24.4	19.5	0.00e+00	0	42	0	1320157184	8	3891
2026-01-29 11:06:55.71	84.00	29.23	-23.6	-24.1	19.7	0.00e+00	0	42	0	1325400064	8	3826
2026-01-29 11:06:56.72	83.71	29.33	-23.5	-24.0	19.7	0.00e+00	0	42	0	1331691520	8	3795
2026-01-29 11:06:57.72	83.42	29.42	-23.6	-24.3	19.5	0.00e+00	0	42	0	1336934400	8	3874
2026-01-29 11:06:58.72	83.13	29.52	-23.7	-24.5	19.4	0.00e+00	0	42	0	1342177280	8	3920
2026-01-29 11:06:59.72	82.84	29.61	-23.7	-24.4	19.5	0.00e+00	0	42	0	1348468736	8	3899
2026-01-29 11:07:00.72	82.54	29.71	-23.6	-24.2	19.6	0.00e+00	0	42	0	1353711616	8	3861
2026-01-29 11:07:01.72	82.25	29.80	-23.7	-24.5	19.4	0.00e+00	0	42	0	1358954496	8	3922
2026-01-29 11:07:02.73	81.95	29.90	-23.7	-24.4	19.5	0.00e+00	0	42	0	1365245952	8	3900
2026-01-29 11:07:03.74	81.64	29.99	-23.6	-24.2	19.6	0.00e+00	0	42	0	1370488832	8	3857
2026-01-29 11:07:04.74	81.34	30.09	-23.6	-24.3	19.5	0.00e+00	0	42	0	1376780288	8	3875
2026-01-29 11:07:05.76	81.03	30.18	-23.6	-24.1	19.6	0.00e+00	0	42	0	1382023168	8	3839
2026-01-29 11:07:06.76	80.73	30.27	-23.6	-24.1	19.6	0.00e+00	0	42	0	1387266048	8	3837
2026-01-29 11:07:07.77	80.42	30.36	-23.5	-24.0	19.7	0.00e+00	0	42	0	1393557504	8	3809
2026-01-29 11:07:08.77	80.11	30.45	-23.5	-24.0	19.7	0.00e+00	0	42	0	1398800384	8	3818
2026-01-29 11:07:09.77	79.80	30.54	-23.5	-23.9	19.7	0.00e+00	0	42	0	1405091840	8	3788
2026-01-29 11:07:10.78	79.49	30.63	-23.4	-23.8	19.8	0.00e+00	0	42	0	1410334720	8	3770
2026-01-29 11:07:11.78	79.17	30.72	-23.6	-24.1	19.7	0.00e+00	0	42	0	1415577600	8	3838
2026-01-29 11:07:12.78	78.86	30.81	-23.5	-24.0	19.7	0.00e+00	0	42	0	1421869056	8	3816
2026-01-29 11:07:13.78	78.54	30.90	-23.5	-24.0	19.7	0.00e+00	0	42	0	1427111936	8	3804
2026-01-29 11:07:14.78	78.22	30.98	-23.6	-24.2	19.6	0.00e+00	0	42	0	1432354816	8	3866
2026-01-29 11:07:15.79	77.90	31.07	-23.6	-24.1	19.6	0.00e+00	0	42	0	1438646272	8	3839
2026-01-29 11:07:16.79	77.58	31.15	-23.4	-23.7	19.8	0.00e+00	0	42	0	1443889152	8	3744
2026-01-29 11:07:17.79	77.25	31.24	-23.3	-23.7	19.9	0.00e+00	0	42	0	1449132032	8	3732
2026-01-29 11:07:18.79	76.93	31.32	-23.2	-23.9	20.0	0.00e+00	0	42	0	1455423488	7	3887
2026-01-29 11:07:19.79	76.60	31.40	-23.3	-24.1	19.9	0.00e+00	0	42	0	1460666368	7	3933
2026-01-29 11:07:20.79	76.27	31.48	-23.2	-23.9	20.0	0.00e+00	0	42	0	1466957824	7	3888
2026-01-29 11:07:21.79	75.94	31.56	-23.1	-23.7	20.1	0.00e+00	0	42	0	1472200704	7	3833
2026-01-29 11:07:22.79	75.61	31.64	-23.2	-23.8	20.1	0.00e+00	0	42	0	1478492160	7	3861
2026-01-29 11:07:23.79	75.28	31.72	-23.1	-23.6	20.1	0.00e+00	0	42	0	1483735040	7	3828
2026-01-29 11:07:24.80	74.94	31.80	-23.3	-24.0	19.9	0.00e+00	0	42	0	1488977920	7	3917
2026-01-29 11:07:25.81	74.60	31.88	-23.5	-24.5	19.7	0.00e+00	0	42	0	1495269376	7	4038
2026-01-29 11:07:26.81	74.26	31.95	-23.5	-24.5	19.7	0.00e+00	0	42	0	1500512256	7	4044
2026-01-29 11:07:27.81	73.92	32.03	-23.4	-24.3	19.8	0.00e+00	0	42	0	1505755136	7	3985
2026-01-29 11:07:28.81	73.58	32.10	-23.5	-24.4	19.8	0.00e+00	0	42	0	1512046592	7	3999
2026-01-29 11:07:29.81	73.24	32.18	-23.3	-24.1	19.9	0.00e+00	0	42	0	1517289472	7	3938
2026-01-29 11:07:30.80	72.89	32.25	-23.3	-24.0	20.0	0.00e+00	0	42	0	1522532352	7	3908
2026-01-29 11:07:31.81	72.54	32.32	-23.3	-24.1	19.9	0.00e+00	0	42	0	1528823808	7	3935
2026-01-29 11:07:32.81	72.20	32.39	-23.2	-23.9	20.0	0.00e+00	0	42	0	1534066688	7	3890
2026-01-29 11:07:33.81	71.85	32.46	-23.4	-24.4	19.8	0.00e+00	0	42	0	1540358144	7	3999
2026-01-29 11:07:34.81	71.50	32.53	-23.4	-24.3	19.8	0.00e+00	0	42	0	1545601024	7	3991
2026-01-29 11:07:35.81	71.14	32.59	-23.4	-24.2	19.9	0.00e+00	0	42	0	1550843904	7	3964
2026-01-29 11:07:36.82	70.79	32.66	-23.4	-24.3	19.8	0.00e+00	0	42	0	1557135360	7	3975
2026-01-29 11:07:37.82	70.43	32.72	-23.5	-24.6	19.7	0.00e+00	0	42	0	1562378240	7	4049
2026-01-29 11:07:38.82	70.08	32.79	-23.3	-24.0	20.0	0.00e+00	0	42	0	1567621120	7	3906
2026-01-29 11:07:39.83	69.72	32.85	-23.1	-23.7	20.2	0.00e+00	0	42	0	1573912576	7	3833
2026-01-29 11:07:40.83	69.36	32.91	-23.1	-23.7	20.2	0.00e+00	0	42	0	1579155456	7	3840
2026-01-29 11:07:41.84	68.99	32.97	-23.3	-24.1	20.0	0.00e+00	0	42	0	1584398336	7	3927
2026-01-29 11:07:42.84	68.63	33.03	-23.0	-23.4	20.3	0.00e+00	0	42	0	1590689792	7	3782
2026-01-29 11:07:43.84	68.27	33.09	-22.8	-23.0	20.5	0.00e+00	0	42	0	1595932672	7	3694
2026-01-29 11:07:44.85	67.90	33.15	-22.8	-23.0	20.5	0.00e+00	0	42	0	1602224128	7	3692
2026-01-29 11:07:45.85	67.53	33.20	-23.0	-23.4	20.3	0.00e+00	0	42	0	1607467008	7	3775
2026-01-29 11:07:46.85	67.17	33.26	-23.3	-24.0	20.2	0.00e+00	0	42	0	1613758464	7	3905
2026-01-29 11:07:47.86	66.79	33.31	-23.0	-23.4	20.5	0.00e+00	0	42	0	1619001344	7	3763
2026-01-29 11:07:48.87	66.42	33.36	-22.9	-23.1	20.6	3.40e-06	0	42	0	1624244224	7	3701
2026-01-29 11:07:49.87	66.05	33.41	-23.0	-23.4	20.5	0.00e+00	0	42	0	1630535680	7	3750
2026-01-29 11:07:50.87	65.68	33.46	-23.1	-23.6	20.4	0.00e+00	0	42	0	1635778560	7	3815
2026-01-29 11:07:51.88	65.30	33.51	-23.1	-23.5	20.4	1.10e-06	0	42	0	1641021440	7	3790
2026-01-29 11:07:52.88	64.93	33.56	-23.0	-23.4	20.5	0.00e+00	0	42	0	1647312896	7	3767
2026-01-29 11:07:53.88	64.55	33.60	-23.2	-23.8	20.3	0.00e+00	0	42	0	1652555776	7	3856
2026-01-29 11:07:54.88	64.18	33.65	-23.1	-23.6	20.4	1.10e-06	0	42	0	1657798656	7	3811
2026-01-29 11:07:55.89	63.80	33.69	-23.4	-24.2	20.1	0.00e+00	0	42	0	1664090112	7	3936
2026-01-29 11:07:56.89	63.42	33.73	-23.1	-23.6	20.4	0.00e+00	0	42	0	1669332992	7	3816
2026-01-29 11:07:57.90	63.04	33.77	-22.9	-23.2	20.6	0.00e+00	0	42	0	1675624448	7	3723
2026-01-29 11:07:58.90	62.66	33.81	-23.0	-23.3	20.5	0.00e+00	0	42	0	1680867328	7	3744
2026-01-29 11:07:59.91	62.27	33.85	-23.1	-23.6	20.4	0.00e+00	0	42	0	1687158784	7	3810
2026-01-29 11:08:00.91	61.89	33.88	-23.3	-23.9	20.2	0.00e+00	0	42	0	1692401664	7	3883
2026-01-29 11:08:01.92	61.51	33.92	-23.3	-24.1	20.1	0.00e+00	0	42	0	1697644544	7	3917
2026-01-29 11:08:02.91	61.13	33.95	-23.3	-24.0	20.2	0.00e+00	0	42	0	1703936000	7	3896
2026-01-29 11:08:03.92	60.74	33.98	-23.3	-23.9	20.3	0.00e+00	0	42	0	1709178880	7	3872
2026-01-29 11:08:04.92	60.35	34.01	-23.4	-24.2	20.1	0.00e+00	0	42	0	1714421760	7	3946
2026-01-29 11:08:05.93	59.97	34.04	-23.2	-23.7	20.3	0.00e+00	0	42	0	1720713216	7	3825
2026-01-29 11:08:06.93	59.58	34.06	-23.3	-24.0	20.2	0.00e+00	0	42	0	1725956096	7	3897
2026-01-29 11:08:07.94	59.19	34.09	-23.2	-23.7	20.3	0.00e+00	0	42	0	1732247552	7	3839
2026-01-29 11:08:08.94	58.80	34.11	-23.1	-23.5	20.4	0.00e+00	0	42	0	1737490432	7	3789
2026-01-29 11:08:09.94	58.41	34.14	-23.1	-23.7	20.4	0.00e+00	0	42	0	1742733312	7	3820
2026-01-29 11:08:10.94	58.03	34.16	-23.1	-23.6	20.4	0.00e+00	0	42	0	1749024768	7	3801
2026-01-29 11:08:11.95	57.63	34.18	-23.2	-23.9	20.3	0.00e+00	0	42	0	1754267648	7	3865
2026-01-29 11:08:12.96	57.24	34.20	-23.5	-24.5	19.9	0.00e+00	0	42	0	1760559104	7	4020
2026-01-29 11:08:13.96	56.85	34.21	-23.2	-23.7	20.3	0.00e+00	0	42	0	1765801984	7	3835
2026-01-29 11:08:14.96	56.46	34.23	-22.9	-23.2	20.6	0.00e+00	0	42	0	1771044864	7	3710
2026-01-29 11:08:15.96	56.07	34.24	-22.9	-23.1	20.6	0.00e+00	0	42	0	1777336320	7	3701
2026-01-29 11:08:16.97	55.68	34.25	-23.0	-23.4	20.5	0.00e+00	0	42	0	1782579200	7	3756
2026-01-29 11:08:17.97	55.29	34.26	-22.9	-23.2	20.6	0.00e+00	0	42	0	1787822080	7	3719
2026-01-29 11:08:18.98	54.89	34.27	-23.0	-23.4	20.5	0.00e+00	0	42	0	1794113536	7	3753
2026-01-29 11:08:19.98	54.50	34.28	-23.2	-23.8	20.3	0.00e+00	0	42	0	1799356416	7	3863
2026-01-29 11:08:20.98	54.11	34.29	-22.9	-23.2	20.6	0.00e+00	0	42	0	1805647872	7	3706
2026-01-29 11:08:21.99	53.71	34.29	-22.7	-23.2	20.8	0.00e+00	0	42	0	1810890752	6	3829
2026-01-29 11:08:22.99	53.32	34.29	-22.9	-23.5	20.7	0.00e+00	0	42	0	1816133632	6	3897
2026-01-29 11:08:23.99	52.93	34.30	-22.9	-23.8	20.5	0.00e+00	0	42	0	1822425088	6	3954
2026-01-29 11:08:24.98	52.54	34.30	-23.1	-24.1	20.4	0.00e+00	0	42	0	1827667968	6	4026
2026-01-29 11:08:25.99	52.15	34.29	-23.0	-23.8	20.5	0.00e+00	0	42	0	1832910848	6	3965
2026-01-29 11:08:26.99	51.76	34.29	-23.1	-24.1	20.4	0.00e+00	0	42	0	1839202304	6	4019
2026-01-29 11:08:28.00	51.36	34.29	-23.1	-24.0	20.4	0.00e+00	0	42	0	1844445184	6	4015
2026-01-29 11:08:29.00	50.97	34.28	-23.2	-24.3	20.2	0.00e+00	0	42	0	1850736640	6	4080
2026-01-29 11:08:30.00	50.58	34.27	-23.3	-24.5	20.2	0.00e+00	0	42	0	1855979520	6	4131
2026-01-29 11:08:31.00	50.19	34.26	-23.2	-24.3	20.2	0.00e+00	0	42	0	1861222400	6	4087
2026-01-29 11:08:32.00	49.80	34.25	-23.4	-24.7	20.0	0.00e+00	0	42	0	1867513856	6	4185
2026-01-29 11:08:33.01	49.40	34.24	-23.1	-24.2	20.3	0.00e+00	0	42	0	1872756736	6	4046
2026-01-29 11:08:34.01	49.01	34.23	-23.1	-24.0	20.4	0.00e+00	0	42	0	1879048192	6	4023
2026-01-29 11:08:35.01	48.62	34.21	-23.1	-24.1	20.3	0.00e+00	0	42	0	1884291072	6	4038
2026-01-29 11:08:36.01	48.24	34.19	-23.0	-23.9	20.4	0.00e+00	0	42	0	1889533952	6	3983
2026-01-29 11:08:37.01	47.85	34.18	-23.1	-24.0	20.4	0.00e+00	0	42	0	1895825408	6	4011
2026-01-29 11:08:38.00	47.46	34.16	-22.9	-23.7	20.5	0.00e+00	0	42	0	1901068288	6	3933
2026-01-29 11:08:39.00	47.07	34.13	-23.0	-23.8	20.5	0.00e+00	0	42	0	1906311168	6	3949
2026-01-29 11:08:40.01	46.68	34.11	-23.2	-24.3	20.2	0.00e+00	0	42	0	1912602624	6	4076
2026-01-29 11:08:41.01	46.30	34.09	-23.0	-23.9	20.4	0.00e+00	0	42	0	1917845504	6	3987
2026-01-29 11:08:42.02	45.91	34.06	-23.0	-23.8	20.5	0.00e+00	0	42	0	1923088384	6	3958
2026-01-29 11:08:43.02	45.52	34.03	-22.9	-23.7	20.5	0.00e+00	0	42	0	1929379840	6	3932
2026-01-29 11:08:44.02	45.14	34.01	-22.8	-23.4	20.7	0.00e+00	0	42	0	1934622720	6	3875
2026-01-29 11:08:45.03	44.75	33.98	-22.8	-23.4	20.7	0.00e+00	0	42	0	1940914176	6	3874
2026-01-29 11:08:46.03	44.37	33.94	-22.9	-23.6	20.6	0.00e+00	0	42	0	1946157056	6	3920
2026-01-29 11:08:47.04	43.98	33.91	-23.0	-23.9	20.4	0.00e+00	0	42	0	1951399936	6	3988
2026-01-29 11:08:48.04	43.60	33.88	-23.0	-23.9	20.5	0.00e+00	0	42	0	1957691392	6	3975
2026-01-29 11:08:49.04	43.22	33.84	-22.9	-23.7	20.5	0.00e+00	0	42	0	1962934272	6	3943
2026-01-29 11:08:50.04	42.84	33.80	-23.1	-24.1	20.4	0.00e+00	0	42	0	1969225728	6	4029
2026-01-29 11:08:51.05	42.45	33.76	-23.0	-23.9	20.4	0.00e+00	0	42	0	1974468608	6	3983
2026-01-29 11:08:52.05	42.07	33.72	-23.2	-24.2	20.3	0.00e+00	0	42	0	1979711488	6	4067
2026-01-29 11:08:53.06	41.69	33.68	-23.0	-23.9	20.4	0.00e+00	0	42	0	1986002944	6	3986
2026-01-29 11:08:54.06	41.32	33.64	-23.1	-24.0	20.4	0.00e+00	0	42	0	1991245824	6	4012
2026-01-29 11:08:55.06	40.94	33.60	-23.2	-24.2	20.2	0.00e+00	0	42	0	1996488704	6	4070
2026-01-29 11:08:56.06	40.57	33.55	-23.1	-24.2	20.3	0.00e+00	0	42	0	2002780160	6	4055
2026-01-29 11:08:57.07	40.19	33.50	-23.0	-24.0	20.4	0.00e+00	0	42	0	2008023040	6	3998
2026-01-29 11:08:58.07	39.82	33.46	-22.9	-23.6	20.6	0.00e+00	0	42	0	2014314496	6	3901
2026-01-29 11:08:59.07	39.45	33.41	-22.9	-23.7	20.5	0.00e+00	0	42	0	2019557376	6	3937
2026-01-29 11:09:00.08	39.07	33.36	-23.1	-24.2	20.3	0.00e+00	0	42	0	2024800256	6	4048
2026-01-29 11:09:01.08	38.71	33.30	-22.9	-23.7	20.5	0.00e+00	0	42	0	2031091712	6	3933
2026-01-29 11:09:02.09	38.34	33.25	-22.7	-23.3	20.7	0.00e+00	0	42	0	2036334592	6	3854
2026-01-29 11:09:03.09	37.97	33.20	-22.8	-23.4	20.6	0.00e+00	0	42	0	2042626048	6	3872
2026-01-29 11:09:04.10	37.60	33.14	-22.8	-23.5	20.6	0.00e+00	0	42	0	2047868928	6	3887
2026-01-29 11:09:05.10	37.24	33.08	-23.1	-24.0	20.3	0.00e+00	0	42	0	2053111808	6	4020
2026-01-29 11:09:06.11	36.87	33.03	-23.1	-24.1	20.3	0.00e+00	0	42	0	2059403264	6	4025
2026-01-29 11:09:07.11	36.51	32.97	-23.4	-24.7	20.0	0.00e+00	0	42	0	2064646144	6	4188
2026-01-29 11:09:08.12	36.15	32.91	-23.4	-24.7	20.0	0.00e+00	0	42	0	2069889024	6	4185
2026-01-29 11:09:09.12	35.79	32.84	-23.6	-24.6	19.8	0.00e+00	0	42	0	2076180480	7	4054
2026-01-29 11:09:10.12	35.43	32.78	-23.8	-25.1	19.6	0.00e+00	0	42	0	2081423360	7	4152
2026-01-29 11:09:11.12	35.08	32.72	-23.4	-24.3	19.9	0.00e+00	0	42	0	2087714816	7	3969
2026-01-29 11:09:12.13	34.72	32.65	-23.5	-24.3	19.9	0.00e+00	0	42	0	2092957696	7	3979
2026-01-29 11:09:13.12	34.37	32.59	-23.5	-24.4	19.9	0.00e+00	0	42	0	2098200576	7	3991
2026-01-29 11:09:14.13	34.01	32.52	-23.3	-23.9	20.1	0.00e+00	0	42	0	2104492032	7	3886
2026-01-29 11:09:15.13	33.66	32.45	-23.1	-23.7	20.3	0.00e+00	0	42	0	2109734912	7	3821
2026-01-29 11:09:16.14	33.31	32.38	-23.2	-23.7	20.2	0.00e+00	0	42	0	2114977792	7	3836
2026-01-29 11:09:17.14	32.97	32.31	-23.4	-24.2	20.0	0.00e+00	0	42	0	2121269248	7	3940
2026-01-29 11:09:18.14	32.62	32.24	-23.3	-23.9	20.1	0.00e+00	0	42	0	2126512128	7	3872
2026-01-29 11:09:19.15	32.27	32.17	-23.1	-23.6	20.3	0.00e+00	0	42	0	2132803584	7	3808
2026-01-29 11:09:20.15	31.93	32.10	-23.1	-23.6	20.3	0.00e+00	0	42	0	2138046464	7	3797
2026-01-29 11:09:21.15	31.59	32.02	-23.1	-23.7	20.2	0.00e+00	0	42	0	2143289344	7	3824
2026-01-29 11:09:22.15	31.25	31.95	-23.2	-23.7	20.3	0.00e+00	0	42	0	2149580800	7	3829
2026-01-29 11:09:23.16	30.91	31.87	-23.3	-23.9	20.1	0.00e+00	0	42	0	2154823680	7	3882
2026-01-29 11:09:24.16	30.58	31.79	-23.3	-24.1	20.0	0.00e+00	0	42	0	2161115136	7	3924
2026-01-29 11:09:25.16	30.24	31.71	-23.7	-24.8	19.6	0.00e+00	0	42	0	2166358016	7	4106
2026-01-29 11:09:26.16	29.91	31.64	-23.6	-24.6	19.8	0.00e+00	0	42	0	2171600896	7	4048
2026-01-29 11:09:27.17	29.58	31.56	-23.3	-24.0	20.1	0.00e+00	0	42	0	2177892352	7	3905
2026-01-29 11:09:28.17	29.25	31.48	-23.1	-23.6	20.3	0.00e+00	0	42	0	2183135232	7	3804
2026-01-29 11:09:29.17	28.92	31.39	-23.2	-23.7	20.2	0.00e+00	0	42	0	2188378112	7	3833
2026-01-29 11:09:30.18	28.59	31.31	-23.5	-24.4	19.8	0.00e+00	0	42	0	2194669568	7	3989
2026-01-29 11:09:31.19	28.26	31.23	-23.3	-24.0	20.0	0.00e+00	0	42	0	2199912448	7	3906
2026-01-29 11:09:32.20	27.94	31.14	-23.3	-24.1	20.0	0.00e+00	0	42	0	2206203904	7	3917
2026-01-29 11:09:33.20	27.62	31.06	-23.4	-24.2	20.0	0.00e+00	0	42	0	2211446784	7	3940
2026-01-29 11:09:34.20	27.30	30.97	-23.5	-24.5	19.8	0.00e+00	0	42	0	2216689664	7	4018
2026-01-29 11:09:35.21	26.98	30.89	-23.5	-24.4	19.9	0.00e+00	0	42	0	2222981120	7	3988
2026-01-29 11:09:36.21	26.66	30.80	-23.6	-24.5	19.8	0.00e+00	0	42	0	2228224000	7	4016
2026-01-29 11:09:37.22	26.34	30.71	-23.4	-24.1	20.0	0.00e+00	0	42	0	2234515456	7	3921
2026-01-29 11:09:38.22	26.03	30.62	-23.2	-23.8	20.1	0.00e+00	0	42	0	2239758336	7	3851
2026-01-29 11:09:39.22	25.72	30.53	-23.2	-23.8	20.2	0.00e+00	0	42	0	2245001216	7	3849
2026-01-29 11:09:40.23	25.41	30.44	-23.3	-23.9	20.1	0.00e+00	0	42	0	2251292672	7	3888
2026-01-29 11:09:41.23	25.10	30.35	-23.2	-23.8	20.1	0.00e+00	0	42	0	2256535552	7	3850
2026-01-29 11:09:42.23	24.80	30.26	-23.2	-23.8	20.1	0.00e+00	0	42	0	2261778432	7	3857
2026-01-29 11:09:43.23	24.49	30.17	-23.3	-24.0	20.0	0.00e+00	0	42	0	2268069888	7	3894
2026-01-29 11:09:44.24	24.19	30.08	-23.1	-23.5	20.3	0.00e+00	0	42	0	2273312768	7	3786
2026-01-29 11:09:45.24	23.89	29.99	-23.1	-23.5	20.3	0.00e+00	0	42	0	2278555648	7	3785
2026-01-29 11:09:46.23	23.59	29.89	-23.2	-23.7	20.2	0.00e+00	0	42	0	2284847104	7	3833
2026-01-29 11:09:47.23	23.30	29.80	-23.2	-23.7	20.2	0.00e+00	0	42	0	2290089984	7	3833
2026-01-29 11:09:48.23	23.00	29.71	-23.2	-23.9	20.0	0.00e+00	0	42	0	2296381440	7	3869
2026-01-29 11:09:49.24	22.71	29.61	-23.3	-24.1	20.0	0.00e+00	0	42	0	2301624320	7	3923
2026-01-29 11:09:50.24	22.41	29.51	-23.2	-23.7	20.2	0.00e+00	0	42	0	2307915776	7	3837
2026-01-29 11:09:51.25	22.12	29.42	-23.1	-23.7	20.2	0.00e+00	0	42	0	2313158656	7	3830
2026-01-29 11:09:52.25	21.83	29.32	-23.2	-23.8	20.1	0.00e+00	0	42	0	2318401536	7	3857
2026-01-29 11:09:53.25	21.55	29.22	-23.3	-24.0	20.0	0.00e+00	0	42	0	2324692992	7	3908
2026-01-29 11:09:54.26	21.26	29.13	-23.3	-23.9	20.0	0.00e+00	0	42	0	2329935872	7	3879
2026-01-29 11:09:55.26	20.98	29.03	-23.4	-24.2	19.9	0.00e+00	0	42	0	2335178752	7	3937
2026-01-29 11:09:56.27	20.70	28.93	-23.4	-24.2	19.9	0.00e+00	0	42	0	2341470208	7	3943
2026-01-29 11:09:57.27	20.42	28.83	-23.6	-24.6	19.7	0.00e+00	0	42	0	2346713088	7	4036
2026-01-29 11:09:58.27	20.14	28.73	-23.4	-24.3	19.8	0.00e+00	0	42	0	2351955968	7	3969
2026-01-29 11:09:59.27	19.86	28.63	-23.4	-24.1	19.9	0.00e+00	0	42	0	2358247424	7	3930
2026-01-29 11:10:00.26	19.59	28.53	-23.4	-24.1	19.9	0.00e+00	0	42	0	2363490304	7	3923
2026-01-29 11:10:01.26	19.32	28.43	-23.4	-24.1	19.9	0.00e+00	0	42	0	2369781760	7	3935
2026-01-29 11:10:02.27	19.05	28.33	-23.2	-23.9	20.1	0.00e+00	0	42	0	2375024640	7	3873
2026-01-29 11:10:03.27	18.78	28.23	-23.3	-24.0	20.0	0.00e+00	0	42	0	2380267520	7	3905
2026-01-29 11:10:04.27	18.51	28.13	-23.3	-23.9	20.0	0.00e+00	0	42	0	2386558976	7	3887
2026-01-29 11:10:05.27	18.25	28.03	-23.3	-24.0	20.0	0.00e+00	0	42	0	2391801856	7	3890
2026-01-29 11:10:06.27	17.98	27.93	-23.2	-23.8	20.1	0.00e+00	0	42	0	2397044736	7	3842
2026-01-29 11:10:07.27	17.72	27.83	-23.3	-23.9	20.0	0.00e+00	0	42	0	2403336192	7	3883
2026-01-29 11:10:08.28	17.46	27.72	-23.4	-24.1	19.9	0.00e+00	0	42	0	2408579072	7	3931
2026-01-29 11:10:09.29	17.20	27.62	-23.6	-24.6	19.6	0.00e+00	0	42	0	2413821952	7	4042
2026-01-29 11:10:10.28	16.94	27.52	-23.7	-24.9	19.5	0.00e+00	0	42	0	2420113408	7	4117
2026-01-29 11:10:11.29	16.68	27.41	-23.6	-24.7	19.6	0.00e+00	0	42	0	2425356288	7	4071
2026-01-29 11:10:12.29	16.43	27.31	-23.7	-24.7	19.6	0.00e+00	0	42	0	2431647744	7	4080
2026-01-29 11:10:13.28	16.18	27.21	-23.8	-25.0	19.5	0.00e+00	0	42	0	2436890624	7	4138
2026-01-29 11:10:14.29	15.93	27.10	-23.8	-25.0	19.5	0.00e+00	0	42	0	2442133504	7	4132
2026-01-29 11:10:15.29	15.68	27.00	-23.8	-25.1	19.4	0.00e+00	0	42	0	2448424960	7	4180
2026-01-29 11:10:16.30	15.43	26.89	-23.8	-25.0	19.4	0.00e+00	0	42	0	2453667840	7	4149
2026-01-29 11:10:17.31	15.18	26.79	-23.8	-24.9	19.4	0.00e+00	0	42	0	2459959296	7	4125
2026-01-29 11:10:18.31	14.94	26.68	-23.6	-24.7	19.6	0.00e+00	0	42	0	2465202176	7	4055
2026-01-29 11:10:19.32	14.70	26.58	-23.7	-24.7	19.5	0.00e+00	0	42	0	2470445056	7	4069
2026-01-29 11:10:20.32	14.46	26.47	-23.8	-25.0	19.4	0.00e+00	0	42	0	2476736512	7	4149
2026-01-29 11:10:21.32	14.22	26.37	-23.9	-25.2	19.3	0.00e+00	0	42	0	2481979392	7	4200
2026-01-29 11:10:22.33	13.98	26.26	-24.1	-25.2	19.1	0.00e+00	0	42	0	2487222272	8	4093
2026-01-29 11:10:23.32	13.74	26.16	-24.0	-25.1	19.1	0.00e+00	0	42	0	2493513728	8	4056
2026-01-29 11:10:24.33	13.51	26.05	-24.0	-25.0	19.2	0.00e+00	0	42	0	2498756608	8	4023
2026-01-29 11:10:25.34	13.27	25.94	-24.0	-24.9	19.2	0.00e+00	0	42	0	2505048064	8	4015
2026-01-29 11:10:26.34	13.04	25.84	-23.9	-24.8	19.3	0.00e+00	0	42	0	2510290944	8	3987
2026-01-29 11:10:27.34	12.81	25.73	-24.0	-24.9	19.2	0.00e+00	0	42	0	2516582400	8	4007
2026-01-29 11:10:28.34	12.59	25.63	-24.0	-25.0	19.2	0.00e+00	0	42	0	2521825280	8	4021
2026-01-29 11:10:29.34	12.36	25.52	-23.8	-24.5	19.4	0.00e+00	0	42	0	2527068160	8	3911
2026-01-29 11:10:30.34	12.13	25.41	-23.8	-24.6	19.3	0.00e+00	0	42	0	2533359616	8	3938
2026-01-29 11:10:31.35	11.91	25.31	-23.9	-24.8	19.3	0.00e+00	0	42	0	2538602496	8	3968
2026-01-29 11:10:32.36	11.69	25.20	-24.0	-24.9	19.2	0.00e+00	0	41	0	2543845376	8	4007
2026-01-29 11:10:33.36	11.47	25.09	-24.1	-25.2	19.0	0.00e+00	0	42	0	2550136832	8	4078
2026-01-29 11:10:34.35	11.25	24.99	-24.2	-25.4	19.0	0.00e+00	0	42	0	2555379712	8	4120
2026-01-29 11:10:35.36	11.03	24.88	-24.3	-25.6	18.9	0.00e+00	0	42	0	2560622592	8	4172
2026-01-29 11:10:36.36	10.81	24.77	-24.3	-25.5	18.8	0.00e+00	0	42	0	2566914048	8	4165
2026-01-29 11:10:37.37	10.60	24.67	-24.3	-25.6	18.8	0.00e+00	0	42	0	2572156928	8	4182
2026-01-29 11:10:38.37	10.39	24.56	-24.1	-25.2	19.0	0.00e+00	0	42	0	2578448384	8	4074
2026-01-29 11:10:39.37	10.17	24.46	-24.1	-25.1	19.1	0.00e+00	0	42	0	2583691264	8	4049
2026-01-29 11:10:40.37	9.96	24.35	-24.1	-25.2	19.0	0.00e+00	0	42	0	2588934144	8	4093
2026-01-29 11:10:41.38	9.75	24.24	-24.2	-25.5	18.9	0.00e+00	0	42	0	2595225600	8	4149
2026-01-29 11:10:42.39	9.54	24.13	-24.3	-25.6	18.8	0.00e+00	0	42	0	2600468480	8	4194
2026-01-29 11:10:43.39	9.34	24.03	-24.4	-25.7	18.7	0.00e+00	0	42	0	2606759936	8	4206
2026-01-29 11:10:44.40	9.13	23.92	-24.3	-25.7	18.8	0.00e+00	0	42	0	2612002816	8	4196
2026-01-29 11:10:45.40	8.93	23.82	-24.3	-25.7	18.7	0.00e+00	0	42	0	2617245696	8	4210
2026-01-29 11:10:46.41	8.73	23.71	-24.5	-25.6	18.6	0.00e+00	0	42	0	2623537152	9	4064
2026-01-29 11:10:47.41	8.53	23.60	-24.8	-26.1	18.3	0.00e+00	0	42	0	2628780032	9	4185
2026-01-29 11:10:48.41	8.33	23.50	-25.0	-26.5	18.1	0.00e+00	0	42	0	2634022912	9	4288
2026-01-29 11:10:49.41	8.13	23.39	-24.9	-26.5	18.1	0.00e+00	0	42	0	2640314368	9	4283
2026-01-29 11:10:50.40	7.94	23.29	-24.9	-26.3	18.1	0.00e+00	0	42	0	2645557248	9	4243
2026-01-29 11:10:51.40	7.74	23.18	-24.9	-26.3	18.1	0.00e+00	0	42	0	2651848704	9	4255
2026-01-29 11:10:52.41	7.55	23.07	-24.9	-26.4	18.1	0.00e+00	0	42	0	2657091584	9	4272
2026-01-29 11:10:53.41	7.36	22.97	-24.8	-26.2	18.2	0.00e+00	0	42	0	2662334464	9	4215
2026-01-29 11:10:54.41	7.17	22.86	-24.8	-26.3	18.2	0.00e+00	0	42	0	2668625920	9	4236
2026-01-29 11:10:55.42	6.98	22.76	-25.2	-26.4	17.8	0.00e+00	0	42	0	2673868800	10	4167
2026-01-29 11:10:56.42	6.79	22.65	-25.3	-26.3	17.6	0.00e+00	0	42	0	2679111680	11	4017
2026-01-29 11:10:57.43	6.60	22.54	-24.9	-25.4	18.1	0.00e+00	0	42	0	2685403136	11	3797
2026-01-29 11:10:58.43	6.41	22.44	-24.5	-25.1	18.5	0.00e+00	0	42	0	2690646016	10	3847
2026-01-29 11:10:59.44	6.23	22.33	-24.3	-24.7	18.7	0.00e+00	0	42	0	2695888896	10	3744
2026-01-29 11:11:00.44	6.05	22.23	-24.2	-25.0	18.8	0.00e+00	0	42	0	2702180352	9	3920
2026-01-29 11:11:01.44	5.86	22.12	-24.3	-25.0	18.8	0.00e+00	0	42	0	2707423232	9	3928
2026-01-29 11:11:02.44	5.68	22.02	-24.2	-25.0	18.8	0.00e+00	0	41	0	2713714688	9	3915
2026-01-29 11:11:03.45	5.50	21.91	-24.3	-25.0	18.8	0.00e+00	0	42	0	2718957568	9	3928
2026-01-29 11:11:04.46	5.32	21.81	-24.1	-24.8	18.9	0.00e+00	0	42	0	2725249024	9	3866
2026-01-29 11:11:05.46	5.15	21.70	-24.1	-24.7	18.9	0.00e+00	0	42	0	2730491904	9	3862
2026-01-29 11:11:06.46	4.97	21.60	-24.1	-24.8	18.9	0.00e+00	0	42	0	2735734784	9	3874
2026-01-29 11:11:07.46	4.80	21.50	-24.1	-24.7	18.9	0.00e+00	0	42	0	2742026240	9	3863
2026-01-29 11:11:08.46	4.62	21.39	-24.1	-24.8	18.9	0.00e+00	0	42	0	2747269120	9	3867
2026-01-29 11:11:09.46	4.45	21.29	-24.2	-24.9	18.8	0.00e+00	0	42	0	2752512000	9	3890
2026-01-29 11:11:10.47	4.28	21.18	-24.2	-24.9	18.8	0.00e+00	0	41	0	2758803456	9	3909
2026-01-29 11:11:11.47	4.11	21.08	-24.2	-25.0	18.7	0.00e+00	0	42	0	2764046336	9	3925
2026-01-29 11:11:12.48	3.94	20.98	-24.3	-25.2	18.6	0.00e+00	0	42	0	2769289216	9	3971
2026-01-29 11:11:13.48	3.77	20.87	-24.4	-25.3	18.6	0.00e+00	0	42	0	2775580672	9	3987
2026-01-29 11:11:14.48	3.61	20.77	-24.4	-25.2	18.6	0.00e+00	0	42	0	2780823552	9	3984
2026-01-29 11:11:15.48	3.44	20.67	-24.4	-25.3	18.6	0.00e+00	0	42	0	2787115008	9	4000
2026-01-29 11:11:16.49	3.28	20.57	-24.4	-25.2	18.6	0.00e+00	0	42	0	2792357888	9	3976
2026-01-29 11:11:17.49	3.12	20.46	-24.3	-25.2	18.6	0.00e+00	0	42	0	2798649344	9	3983
2026-01-29 11:11:18.49	2.95	20.36	-24.4	-25.3	18.6	0.00e+00	0	42	0	2803892224	9	4002
2026-01-29 11:11:19.50	2.79	20.26	-24.4	-25.4	18.5	0.00e+00	0	42	0	2809135104	9	4011
2026-01-29 11:11:20.50	2.63	20.16	-24.5	-25.6	18.4	0.00e+00	0	41	0	2815426560	9	4069
2026-01-29 11:11:21.50	2.47	20.05	-24.5	-25.6	18.4	0.00e+00	0	42	0	2820669440	9	4072
2026-01-29 11:11:22.50	2.32	19.95	-24.5	-25.6	18.4	0.00e+00	0	42	0	2825912320	9	4062
2026-01-29 11:11:23.51	2.16	19.85	-24.5	-25.6	18.4	0.00e+00	0	42	0	2832203776	9	4082
2026-01-29 11:11:24.51	2.00	19.75	-24.6	-25.8	18.3	0.00e+00	0	41	0	2837446656	9	4124
2026-01-29 11:11:25.52	1.85	19.65	-24.7	-25.9	18.2	0.00e+00	0	42	0	2843738112	9	4149
2026-01-29 11:11:26.53	1.69	19.55	-24.6	-25.9	18.2	0.00e+00	0	42	0	2848980992	9	4135
2026-01-29 11:11:27.53	1.54	19.45	-24.7	-25.9	18.2	0.00e+00	0	42	0	2854223872	9	4150
2026-01-29 11:11:28.53	1.39	19.35	-24.6	-25.8	18.3	0.00e+00	0	42	0	2860515328	9	4130
2026-01-29 11:11:29.54	1.24	19.24	-24.6	-25.8	18.2	0.00e+00	0	42	0	2865758208	9	4131
2026-01-29 11:11:30.54	1.09	19.14	-24.6	-25.8	18.3	0.00e+00	0	42	0	2872049664	9	4112
2026-01-29 11:11:31.55	0.94	19.04	-24.6	-25.7	18.3	0.00e+00	0	42	0	2877292544	9	4094
2026-01-29 11:11:32.56	0.79	18.94	-24.6	-25.7	18.3	0.00e+00	0	42	0	2882535424	9	4103
2026-01-29 11:11:33.56	0.65	18.84	-24.7	-25.9	18.2	0.00e+00	0	42	0	2888826880	9	4142
2026-01-29 11:11:34.56	0.50	18.74	-24.8	-26.1	18.1	0.00e+00	0	41	0	2894069760	9	4198
2026-01-29 11:11:35.56	0.36	18.65	-24.8	-26.2	18.1	0.00e+00	0	42	0	2899312640	9	4237
2026-01-29 11:11:36.56	0.22	18.55	-24.9	-26.4	18.0	0.00e+00	0	42	0	2905604096	9	4265
2026-01-29 11:11:37.57	0.07	18.45	-25.0	-26.5	17.8	0.00e+00	0	42	0	2910846976	9	4315
2026-01-29 11:11:38.57	359.93	18.35	-25.1	-26.4	17.7	0.00e+00	0	42	0	2917138432	10	4161
2026-01-29 11:11:39.57	359.79	18.25	-25.2	-26.5	17.6	0.00e+00	0	42	0	2922381312	10	4202
2026-01-29 11:11:40.58	359.65	18.15	-25.3	-26.8	17.5	0.00e+00	0	42	0	2927624192	10	4264
2026-01-29 11:11:41.58	359.51	18.06	-25.3	-26.8	17.5	0.00e+00	0	42	0	2933915648	10	4256
2026-01-29 11:11:42.58	359.37	17.96	-25.2	-26.5	17.6	0.00e+00	0	42	0	2939158528	10	4193
2026-01-29 11:11:43.59	359.24	17.86	-25.2	-26.5	17.6	0.00e+00	0	42	0	2945449984	10	4194
2026-01-29 11:11:44.59	359.10	17.76	-25.2	-26.5	17.6	0.00e+00	0	42	0	2950692864	10	4189
2026-01-29 11:11:45.59	358.97	17.67	-25.3	-26.7	17.5	0.00e+00	0	42	0	2955935744	10	4248
2026-01-29 11:11:46.60	358.83	17.57	-25.5	-27.1	17.3	0.00e+00	0	42	0	2962227200	10	4345
2026-01-29 11:11:47.60	358.70	17.47	-25.7	-27.1	17.0	0.00e+00	0	42	0	2967470080	11	4228
2026-01-29 11:11:48.61	358.56	17.38	-25.7	-27.1	17.0	0.00e+00	0	42	0	2972712960	11	4225
2026-01-29 11:11:49.61	358.43	17.28	-25.6	-26.8	17.2	0.00e+00	0	42	0	2979004416	11	4154
2026-01-29 11:11:50.62	358.30	17.18	-25.5	-26.8	17.2	0.00e+00	0	42	0	2984247296	11	4147
2026-01-29 11:11:51.62	358.17	17.09	-25.6	-26.8	17.2	0.00e+00	0	42	0	2990538752	11	4158
2026-01-29 11:11:52.62	358.04	16.99	-25.6	-26.9	17.1	0.00e+00	0	42	0	2995781632	11	4184
2026-01-29 11:11:53.63	357.91	16.90	-25.6	-26.8	17.1	0.00e+00	0	42	0	3001024512	11	4166
2026-01-29 11:11:54.62	357.79	16.80	-25.5	-26.7	17.2	0.00e+00	0	42	0	3007315968	11	4124
2026-01-29 11:11:55.63	357.66	16.71	-25.5	-26.7	17.2	0.00e+00	0	42	0	3012558848	11	4123
2026-01-29 11:11:56.63	357.54	16.61	-25.6	-26.9	17.1	0.00e+00	0	42	0	3017801728	11	4169
2026-01-29 11:11:57.63	357.41	16.52	-25.6	-26.8	17.1	0.00e+00	0	42	0	3024093184	11	4161
2026-01-29 11:11:58.63	357.29	16.42	-25.5	-26.7	17.2	0.00e+00	0	42	0	3029336064	11	4117
2026-01-29 11:11:59.64	357.16	16.33	-25.6	-26.8	17.1	0.00e+00	0	42	0	3034578944	11	4153
2026-01-29 11:12:00.64	357.04	16.24	-25.7	-27.1	17.0	0.00e+00	0	42	0	3040870400	11	4221
2026-01-29 11:12:01.64	356.92	16.14	-25.7	-27.1	17.0	0.00e+00	0	42	0	3046113280	11	4223
2026-01-29 11:12:02.64	356.80	16.05	-25.5	-26.8	17.1	0.00e+00	0	42	0	3052404736	11	4151
2026-01-29 11:12:03.65	356.68	15.96	-25.6	-26.8	17.1	0.00e+00	0	42	0	3057647616	11	4165
2026-01-29 11:12:04.65	356.56	15.86	-25.6	-26.9	17.1	0.00e+00	0	42	0	3063939072	11	4182
2026-01-29 11:12:05.66	356.44	15.77	-25.6	-27.0	17.0	0.00e+00	0	42	0	3069181952	11	4198
2026-01-29 11:12:06.67	356.32	15.68	-25.7	-27.1	17.0	0.00e+00	0	42	0	3074424832	11	4225
2026-01-29 11:12:07.67	356.20	15.59	-25.7	-27.2	16.9	0.00e+00	0	42	0	3080716288	11	4255
2026-01-29 11:12:08.67	356.09	15.49	-25.8	-27.2	16.8	0.00e+00	0	42	0	3085959168	11	4265
2026-01-29 11:12:09.67	355.97	15.40	-25.8	-27.3	16.8	0.00e+00	0	42	0	3091202048	11	4281
2026-01-29 11:12:10.67	355.86	15.31	-25.9	-27.6	16.6	0.00e+00	0	42	0	3097493504	11	4357
2026-01-29 11:12:11.68	355.74	15.22	-25.9	-27.6	16.6	0.00e+00	0	42	0	3102736384	11	4365
2026-01-29 11:12:12.68	355.63	15.13	-26.0	-27.7	16.5	0.00e+00	0	42	0	3107979264	11	4395
2026-01-29 11:12:13.68	355.52	15.04	-26.2	-27.7	16.1	0.00e+00	0	42	0	3114270720	12	4278
2026-01-29 11:12:14.69	355.40	14.95	-26.1	-27.5	16.2	0.00e+00	0	42	0	3119513600	12	4216
2026-01-29 11:12:15.69	355.29	14.86	-25.9	-27.0	16.5	0.00e+00	0	42	0	3125805056	12	4098
2026-01-29 11:12:16.69	355.18	14.77	-25.8	-26.8	16.6	0.00e+00	0	42	0	3131047936	12	4058
2026-01-29 11:12:17.70	355.07	14.68	-25.8	-26.9	16.5	0.00e+00	0	42	0	3137339392	12	4080
2026-01-29 11:12:18.70	354.96	14.59	-25.8	-26.9	16.5	0.00e+00	0	42	0	3142582272	12	4080
2026-01-29 11:12:19.71	354.85	14.50	-26.0	-27.3	16.4	0.00e+00	0	42	0	3147825152	12	4170
2026-01-29 11:12:20.71	354.74	14.41	-26.0	-27.2	16.4	0.00e+00	0	42	0	3154116608	12	4161
2026-01-29 11:12:21.73	354.64	14.32	-26.1	-27.4	16.3	0.00e+00	0	42	0	3159359488	12	4203
2026-01-29 11:12:22.73	354.53	14.23	-26.1	-27.4	16.2	0.00e+00	0	42	0	3164602368	12	4221
2026-01-29 11:12:23.73	354.42	14.14	-26.1	-27.6	16.1	2.20e-06	0	41	0	3170893824	12	4249
2026-01-29 11:12:24.73	354.32	14.05	-26.1	-27.5	16.1	0.00e+00	0	42	0	3176136704	12	4243
2026-01-29 11:12:25.73	354.21	13.97	-26.2	-27.6	16.1	0.00e+00	0	42	0	3181379584	12	4271
2026-01-29 11:12:26.74	354.11	13.88	-26.1	-27.5	16.1	0.00e+00	0	42	0	3187671040	12	4243
2026-01-29 11:12:27.74	354.01	13.79	-26.1	-27.6	16.1	0.00e+00	0	42	0	3192913920	12	4252
2026-01-29 11:12:28.74	353.90	13.70	-26.1	-27.6	16.1	0.00e+00	0	42	0	3199205376	12	4247
2026-01-29 11:12:29.75	353.80	13.61	-26.2	-27.7	16.0	0.00e+00	0	42	0	3204448256	12	4299
2026-01-29 11:12:30.75	353.70	13.53	-26.2	-27.7	16.0	0.00e+00	0	42	0	3210739712	12	4280
2026-01-29 11:12:31.76	353.60	13.44	-26.3	-27.9	15.9	0.00e+00	0	42	0	3215982592	12	4331
2026-01-29 11:12:32.76	353.50	13.35	-26.2	-27.8	15.9	0.00e+00	0	42	0	3221225472	12	4310
2026-01-29 11:12:33.76	353.40	13.27	-26.1	-27.6	16.0	0.00e+00	0	42	0	3227516928	12	4267
2026-01-29 11:12:34.76	353.30	13.18	-26.1	-27.6	16.0	0.00e+00	0	42	0	3232759808	12	4266
2026-01-29 11:12:35.76	353.20	13.10	-26.1	-27.5	16.0	0.00e+00	0	42	0	3238002688	12	4237
2026-01-29 11:12:36.77	353.10	13.01	-26.1	-27.6	16.0	0.00e+00	0	42	0	3244294144	12	4246
2026-01-29 11:12:37.77	353.01	12.92	-26.1	-27.6	16.0	0.00e+00	0	42	0	3249537024	12	4255
2026-01-29 11:12:38.77	352.91	12.84	-26.3	-27.9	15.9	0.00e+00	0	42	0	3254779904	12	4329
2026-01-29 11:12:39.78	352.81	12.75	-26.2	-27.8	15.9	0.00e+00	0	42	0	3261071360	12	4323
2026-01-29 11:12:40.78	352.72	12.67	-26.2	-27.8	15.9	0.00e+00	0	42	0	3266314240	12	4309
2026-01-29 11:12:41.78	352.62	12.58	-26.2	-27.8	15.8	0.00e+00	0	42	0	3272605696	12	4316
2026-01-29 11:12:42.79	352.53	12.50	-26.2	-27.7	15.8	0.00e+00	0	42	0	3277848576	12	4295
2026-01-29 11:12:43.79	352.43	12.42	-26.2	-27.9	15.8	0.00e+00	0	42	0	3284140032	12	4336
2026-01-29 11:12:44.79	352.34	12.33	-26.2	-27.9	15.7	0.00e+00	0	42	0	3289382912	12	4332
2026-01-29 11:12:45.79	352.25	12.25	-26.2	-27.8	15.7	0.00e+00	0	42	0	3294625792	12	4323
2026-01-29 11:12:46.79	352.16	12.17	-26.3	-27.9	15.6	0.00e+00	0	42	0	3300917248	12	4350
2026-01-29 11:12:47.80	352.06	12.08	-26.2	-27.8	15.5	0.00e+00	0	42	0	3306160128	12	4332
2026-01-29 11:12:48.81	351.97	12.00	-26.3	-28.0	15.2	0.00e+00	0	42	0	3311403008	12	4366
2026-01-29 11:12:49.80	351.88	11.92	-26.3	-27.9	15.1	0.00e+00	0	42	0	3317694464	12	4360
2026-01-29 11:12:50.81	351.79	11.83	-26.3	-28.0	15.1	0.00e+00	0	42	0	3322937344	12	4395
2026-01-29 11:12:51.81	351.70	11.75	-26.3	-28.1	14.7	0.00e+00	0	42	0	3328180224	12	4417
2026-01-29 11:12:52.81	351.61	11.67	-26.4	-28.2	14.6	0.00e+00	0	42	0	3334471680	12	4446
2026-01-29 11:12:53.81	351.52	11.59	-26.4	-28.2	14.4	0.00e+00	0	42	0	3339714560	12	4448
2026-01-29 11:12:54.81	351.44	11.50	-26.4	-28.3	14.2	0.00e+00	0	42	0	3346006016	12	4480
2026-01-29 11:12:55.82	351.35	11.42	-26.6	-28.1	14.1	0.00e+00	0	42	0	3351248896	13	4308
2026-01-29 11:12:56.82	351.26	11.34	-26.8	-28.7	14.1	0.00e+00	0	42	0	3356491776	13	4462
2026-01-29 11:12:57.83	351.17	11.26	-26.7	-28.4	14.2	0.00e+00	0	42	0	3362783232	13	4381
2026-01-29 11:12:58.83	351.09	11.18	-26.7	-28.4	14.1	1.10e-06	0	42	0	3368026112	13	4405
2026-01-29 11:12:59.83	351.00	11.10	-26.8	-28.8	13.4	1.10e-06	0	42	0	3373268992	13	4500
2026-01-29 11:13:00.83	350.92	11.02	-26.6	-28.3	12.0	1.25e-05	0	42	0	3379560448	13	4396
2026-01-29 11:13:01.83	350.83	10.94	-26.2	-27.6	10.4	2.15e-04	0	42	0	3384803328	13	4249
2026-01-29 11:13:02.83	350.75	10.86	-25.9	-27.2	8.8	2.05e-03	0	42	0	3390046208	13	4185
2026-01-29 11:13:03.83	350.67	10.78	-25.5	-27.2	7.6	2.01e-02	0	42	0	3396337664	12	4364
2026-01-29 11:13:04.84	350.58	10.70	-25.3	-27.4	6.8	5.36e-02	0	42	0	3401580544	11	4580
2026-01-29 11:13:05.84	350.50	10.62	-25.1	-26.9	6.6	7.84e-02	0	42	0	3407872000	11	4474
2026-01-29 11:13:06.85	350.42	10.54	-25.0	-26.8	6.4	8.93e-02	0	42	0	3413114880	11	4444
2026-01-29 11:13:07.86	350.34	10.46	-24.9	-26.7	6.2	1.11e-01	0	42	0	3419406336	11	4429
2026-01-29 11:13:08.86	350.26	10.38	-24.7	-26.8	5.7	1.73e-01	0	42	0	3424649216	10	4612
2026-01-29 11:13:09.87	350.17	10.30	-24.6	-26.7	5.7	2.11e-01	0	42	0	3429892096	10	4585
2026-01-29 11:13:10.88	350.09	10.22	-25.0	-27.4	6.1	1.60e-01	0	42	0	3436183552	10	4751
2026-01-29 11:13:11.88	350.01	10.14	-25.1	-27.6	6.5	1.01e-01	0	42	0	3441426432	10	4763
2026-01-29 11:13:12.88	349.93	10.06	-25.5	-27.7	7.4	4.16e-02	0	42	0	3446669312	11	4632
2026-01-29 11:13:13.88	349.86	9.99	-25.8	-28.0	8.5	1.14e-02	0	42	0	3452960768	11	4681
2026-01-29 11:13:14.88	349.78	9.91	-26.0	-27.9	9.6	3.11e-03	0	42	0	3458203648	12	4460
2026-01-29 11:13:15.88	349.70	9.83	-26.3	-28.5	10.6	4.76e-04	0	42	0	3463446528	12	4605
2026-01-29 11:13:16.88	349.62	9.75	-26.4	-28.5	11.9	1.05e-04	0	42	0	3469737984	12	4586
2026-01-29 11:13:17.88	349.54	9.68	-26.7	-28.5	12.6	4.50e-06	0	42	0	3474980864	13	4431
2026-01-29 11:13:18.89	349.47	9.60	-26.7	-28.5	12.9	5.70e-06	0	42	0	3481272320	13	4448
2026-01-29 11:13:19.89	349.39	9.52	-26.7	-28.5	13.5	2.20e-06	0	41	0	3486515200	13	4421
2026-01-29 11:13:20.89	349.32	9.45	-26.9	-28.9	13.4	1.10e-06	0	42	0	3491758080	13	4544
2026-01-29 11:13:21.89	349.24	9.37	-26.8	-28.7	13.5	0.00e+00	0	42	0	3498049536	13	4480
2026-01-29 11:13:22.90	349.16	9.29	-27.0	-29.1	13.3	5.70e-06	0	41	0	3503292416	13	4595
2026-01-29 11:13:23.90	349.09	9.22	-26.9	-28.5	13.4	6.80e-06	0	42	0	3509583872	14	4313
2026-01-29 11:13:24.90	349.02	9.14	-27.2	-29.0	13.2	5.70e-06	0	42	0	3514826752	14	4454
2026-01-29 11:13:25.90	348.94	9.06	-27.0	-28.6	13.4	8.00e-06	0	41	0	3520069632	14	4340
2026-01-29 11:13:26.90	348.87	8.99	-27.0	-28.5	13.5	3.40e-06	0	42	0	3526361088	14	4313
2026-01-29 11:13:27.91	348.80	8.91	-26.9	-28.4	13.7	0.00e+00	0	42	0	3531603968	14	4274
2026-01-29 11:13:28.91	348.72	8.84	-27.0	-28.5	13.8	2.20e-06	0	42	0	3536846848	14	4310
2026-01-29 11:13:29.92	348.65	8.76	-26.9	-28.4	14.0	0.00e+00	0	42	0	3543138304	14	4284
2026-01-29 11:13:30.92	348.58	8.69	-27.0	-28.6	14.1	1.10e-06	0	42	0	3548381184	14	4338
2026-01-29 11:13:31.93	348.51	8.61	-27.0	-28.5	14.1	0.00e+00	0	42	0	3554672640	14	4309
2026-01-29 11:13:32.93	348.44	8.54	-27.0	-28.5	14.1	2.20e-06	0	42	0	3559915520	14	4312
2026-01-29 11:13:33.94	348.36	8.46	-26.9	-28.5	14.2	1.10e-06	0	42	0	3565158400	14	4293
2026-01-29 11:13:34.95	348.29	8.39	-27.1	-28.8	14.1	1.10e-06	0	42	0	3571449856	14	4387
2026-01-29 11:13:35.95	348.22	8.31	-27.1	-28.8	14.2	0.00e+00	0	42	0	3576692736	14	4380
2026-01-29 11:13:36.96	348.15	8.24	-27.3	-29.4	14.0	1.10e-06	0	42	0	3582984192	14	4552
2026-01-29 11:13:37.97	348.08	8.17	-27.1	-28.9	14.3	1.10e-06	0	42	0	3588227072	14	4407
2026-01-29 11:13:38.97	348.01	8.09	-27.1	-28.8	14.5	1.10e-06	0	42	0	3593469952	14	4392
2026-01-29 11:13:39.98	347.95	8.02	-27.5	-29.7	14.0	3.40e-06	0	42	0	3599761408	14	4635
2026-01-29 11:13:40.98	347.88	7.95	-27.3	-29.3	14.3	0.00e+00	0	42	0	3605004288	14	4519
2026-01-29 11:13:41.98	347.81	7.87	-27.3	-29.3	14.3	0.00e+00	0	42	0	3610247168	14	4512
2026-01-29 11:13:42.99	347.74	7.80	-27.2	-29.1	14.4	0.00e+00	0	42	0	3616538624	14	4453
2026-01-29 11:13:43.99	347.68	7.73	-27.4	-29.5	14.1	2.20e-06	0	42	0	3621781504	14	4589
2026-01-29 11:13:44.99	347.61	7.65	-27.3	-29.3	14.3	0.00e+00	0	42	0	3628072960	14	4515
2026-01-29 11:13:46.00	347.54	7.58	-27.2	-29.1	14.3	1.10e-06	0	42	0	3633315840	14	4478
2026-01-29 11:13:47.01	347.48	7.51	-27.2	-29.2	14.3	0.00e+00	0	42	0	3639607296	14	4491
2026-01-29 11:13:48.02	347.41	7.44	-27.2	-29.1	14.3	1.10e-06	0	42	0	3644850176	14	4473
2026-01-29 11:13:49.02	347.34	7.37	-27.4	-29.4	14.0	0.00e+00	0	42	0	3650093056	14	4576
2026-01-29 11:13:50.03	347.28	7.29	-27.3	-29.4	14.1	1.10e-06	0	42	0	3656384512	14	4560
2026-01-29 11:13:51.03	347.21	7.22	-27.4	-29.6	13.9	4.50e-06	0	42	0	3661627392	14	4620
2026-01-29 11:13:52.03	347.15	7.15	-27.4	-29.6	14.0	2.20e-06	0	42	0	3667918848	14	4636
2026-01-29 11:13:53.04	347.09	7.08	-27.5	-29.7	13.9	2.20e-06	0	42	0	3673161728	14	4646
2026-01-29 11:13:54.04	347.02	7.01	-32.9	-40.8	3.9	8.42e-01	0	42	104	3676307456	26	8913
2026-01-29 11:13:55.04	346.96	6.94	-33.8	-44.4	3.8	8.45e-01	0	42	104	3676307456	27	12254
2026-01-29 11:13:56.04	346.90	6.87	-33.9	-44.7	3.8	8.46e-01	0	42	104	3676307456	28	12482

#Closed at: 2026-01-29 11:13:56
#Recorded file [3676 MB]: D:/data/31010_260129_140259.dat