passes_logs/2026/01/29/R2M6_AANII_01/R2M6_AANII_01__20260129_012321_NOAA_21_JPSS-2_rec.log

#Pass ID: 20260129_012321_NOAA 21 (JPSS-2)
#Satellite: NOAA 21 (JPSS-2)
#Configuration: NOAA 21
#almurnet v.1.7.20240730
#Start time: 2026-01-29 01:23:23

#Version: 2.2.20231116
#Station: R2M6_AANII_01
#Location: 30.233357 lon 59.946436 lat
#TLE: 1 54234U 22150A   26027.77052245  .00000166  00000+0  99439-4 0  9997
#TLE: 2 54234  98.7510 328.5165 0000872 203.6403 156.4733 14.19540252166628

#Time	Az	El	Level	Level2	SNR	BER	BlckErr	Temp	State	Recorded	gain1	gain2
2026-01-29 01:23:23.05	13.35	7.11	-31.2	-37.1	4.4	1.43e+00	0	42	0	0	22	7138
2026-01-29 01:23:24.05	13.30	7.19	-31.2	-37.0	4.4	1.43e+00	0	42	104	0	22	7087
2026-01-29 01:23:25.05	13.25	7.26	-31.3	-36.7	6.9	1.66e-01	0	42	0	0	22	6715
2026-01-29 01:23:26.06	13.19	7.34	-31.4	-37.0	6.7	2.03e-01	0	42	0	3145728	22	6913
2026-01-29 01:23:27.06	13.14	7.41	-31.2	-36.5	7.1	1.58e-01	0	42	0	6291456	22	6582
2026-01-29 01:23:28.06	13.09	7.48	-31.1	-36.1	7.4	1.20e-01	0	42	0	9437184	22	6350
2026-01-29 01:23:29.07	13.04	7.56	-31.0	-35.6	7.7	8.85e-02	0	42	0	12582912	22	6087
2026-01-29 01:23:30.07	12.98	7.63	-31.0	-35.8	7.9	7.65e-02	0	42	0	15728640	21	6324
2026-01-29 01:23:31.07	12.93	7.71	-31.0	-35.4	7.9	7.97e-02	0	42	0	18874368	22	6013
2026-01-29 01:23:32.07	12.88	7.78	-30.6	-34.6	8.8	3.95e-02	0	42	0	22020096	21	5714
2026-01-29 01:23:33.08	12.82	7.86	-30.2	-33.8	9.7	1.33e-02	0	42	0	24117248	20	5465
2026-01-29 01:23:34.09	12.77	7.93	-29.8	-32.6	10.6	4.03e-03	0	42	0	27262976	20	5004
2026-01-29 01:23:35.08	12.71	8.01	-29.4	-32.1	11.4	5.53e-03	0	42	0	30408704	19	4890
2026-01-29 01:23:36.09	12.66	8.08	-29.1	-31.6	12.0	4.31e-03	0	42	0	33554432	18	4845
2026-01-29 01:23:37.09	12.61	8.16	-28.7	-31.3	12.6	1.42e-04	0	42	0	36700160	17	4835
2026-01-29 01:23:38.09	12.55	8.24	-28.5	-30.7	12.9	4.65e-05	0	42	0	39845888	17	4644
2026-01-29 01:23:39.09	12.49	8.31	-28.3	-30.7	13.3	2.97e-05	0	42	0	42991616	16	4738
2026-01-29 01:23:40.09	12.44	8.39	-28.1	-30.3	13.5	1.72e-04	0	42	0	46137344	16	4636
2026-01-29 01:23:41.10	12.38	8.47	-28.1	-30.2	13.6	3.43e-03	0	42	0	49283072	16	4606
2026-01-29 01:23:42.10	12.33	8.54	-28.2	-30.4	13.5	1.14e-05	0	42	0	52428800	16	4658
2026-01-29 01:23:43.11	12.27	8.62	-27.9	-30.4	13.6	6.10e-06	0	42	0	55574528	15	4768
2026-01-29 01:23:44.11	12.21	8.70	-27.9	-30.3	13.7	7.60e-06	0	42	0	58720256	15	4762
2026-01-29 01:23:45.12	12.15	8.78	-28.2	-30.3	13.6	6.10e-06	0	42	0	61865984	16	4631
2026-01-29 01:23:46.12	12.10	8.85	-28.0	-30.1	13.7	6.10e-06	0	42	0	65011712	16	4561
2026-01-29 01:23:47.13	12.04	8.93	-28.0	-30.0	13.7	2.20e-06	0	43	0	68157440	16	4532
2026-01-29 01:23:48.13	11.98	9.01	-27.9	-30.2	13.7	4.50e-06	0	43	0	71303168	15	4717
2026-01-29 01:23:49.13	11.92	9.09	-27.8	-30.1	13.8	6.80e-06	0	43	0	74448896	15	4682
2026-01-29 01:23:50.13	11.86	9.17	-27.8	-30.1	13.8	2.20e-06	0	42	0	77594624	15	4689
2026-01-29 01:23:51.14	11.80	9.25	-27.8	-30.2	13.8	3.00e-06	0	43	0	80740352	15	4704
2026-01-29 01:23:52.14	11.74	9.33	-27.7	-29.9	13.9	6.10e-06	0	42	0	83886080	15	4626
2026-01-29 01:23:53.15	11.68	9.41	-27.8	-29.9	13.9	2.20e-06	0	43	0	87031808	15	4633
2026-01-29 01:23:54.14	11.62	9.48	-27.8	-30.1	13.8	2.20e-06	0	43	0	90177536	15	4672
2026-01-29 01:23:55.15	11.56	9.56	-27.9	-30.3	13.8	3.80e-06	0	43	0	93323264	15	4736
2026-01-29 01:23:56.15	11.50	9.64	-28.0	-30.4	13.6	9.10e-06	0	43	0	96468992	15	4776
2026-01-29 01:23:57.15	11.44	9.72	-27.9	-30.2	13.8	8.30e-06	0	42	0	99614720	15	4702
2026-01-29 01:23:58.15	11.38	9.80	-27.9	-30.2	13.8	1.50e-06	0	43	0	102760448	15	4706
2026-01-29 01:23:59.16	11.31	9.89	-27.9	-30.3	13.8	9.10e-06	0	43	0	105906176	15	4736
2026-01-29 01:24:00.16	11.25	9.97	-27.9	-30.2	13.8	3.80e-06	0	43	0	109051904	15	4701
2026-01-29 01:24:01.16	11.19	10.05	-27.9	-30.3	13.8	2.20e-06	0	43	0	112197632	15	4736
2026-01-29 01:24:02.17	11.12	10.13	-28.0	-30.5	13.7	3.00e-06	0	43	0	115343360	15	4794
2026-01-29 01:24:03.17	11.06	10.21	-28.3	-30.6	13.5	9.90e-06	0	43	0	118489088	16	4695
2026-01-29 01:24:04.18	10.99	10.29	-28.1	-30.1	13.8	1.06e-05	0	43	0	121634816	16	4548
2026-01-29 01:24:05.18	10.93	10.38	-27.8	-30.1	13.9	3.00e-06	0	43	0	124780544	15	4686
2026-01-29 01:24:06.19	10.86	10.46	-27.8	-30.0	13.9	4.50e-06	0	43	0	127926272	15	4652
2026-01-29 01:24:07.19	10.80	10.54	-27.8	-30.1	13.9	1.50e-06	0	43	0	131072000	15	4670
2026-01-29 01:24:08.19	10.73	10.62	-27.9	-30.2	13.8	3.80e-06	0	43	0	134217728	15	4698
2026-01-29 01:24:09.20	10.67	10.71	-27.8	-30.0	14.0	2.20e-06	0	43	0	137363456	15	4641
2026-01-29 01:24:10.21	10.60	10.79	-27.9	-30.3	13.8	1.50e-06	0	43	0	140509184	15	4745
2026-01-29 01:24:11.21	10.53	10.87	-28.2	-30.4	13.6	6.10e-06	0	43	0	143654912	16	4648
2026-01-29 01:24:12.21	10.47	10.96	-27.9	-29.8	14.0	3.80e-06	0	43	0	146800640	16	4459
2026-01-29 01:24:13.22	10.40	11.04	-27.8	-29.5	14.2	7.00e-07	0	43	0	149946368	16	4356
2026-01-29 01:24:14.22	10.33	11.13	-27.6	-29.5	14.3	1.50e-06	0	43	0	153092096	15	4477
2026-01-29 01:24:15.22	10.26	11.21	-27.5	-29.4	14.4	0.00e+00	0	43	0	156237824	15	4463
2026-01-29 01:24:16.22	10.19	11.29	-27.6	-29.5	14.3	7.00e-07	0	43	0	159383552	15	4475
2026-01-29 01:24:17.22	10.12	11.38	-27.5	-29.3	14.4	1.50e-06	0	43	0	162529280	15	4432
2026-01-29 01:24:18.23	10.05	11.47	-27.5	-29.3	14.5	1.50e-06	0	43	0	165675008	15	4418
2026-01-29 01:24:19.23	9.98	11.55	-27.6	-29.4	14.4	1.50e-06	0	43	0	168820736	15	4460
2026-01-29 01:24:20.24	9.91	11.64	-27.5	-29.7	14.5	0.00e+00	0	43	0	171966464	14	4654
2026-01-29 01:24:21.23	9.84	11.72	-27.6	-29.5	13.9	0.00e+00	0	43	0	175112192	15	4476
2026-01-29 01:24:22.24	9.77	11.81	-27.6	-29.6	13.8	3.80e-06	0	43	0	178257920	15	4528
2026-01-29 01:24:23.24	9.70	11.90	-27.4	-29.0	14.6	7.00e-07	0	43	0	181403648	15	4348
2026-01-29 01:24:24.25	9.62	11.98	-27.3	-29.4	14.7	0.00e+00	0	43	0	184549376	14	4563
2026-01-29 01:24:25.25	9.55	12.07	-27.3	-29.3	14.7	0.00e+00	0	43	0	187695104	14	4551
2026-01-29 01:24:26.26	9.48	12.16	-27.3	-29.2	14.8	7.00e-07	0	43	0	190840832	14	4510
2026-01-29 01:24:27.26	9.40	12.25	-27.3	-29.3	14.8	4.56e-04	0	43	0	193986560	14	4528
2026-01-29 01:24:28.27	9.33	12.33	-27.2	-29.1	14.9	0.00e+00	0	43	0	197132288	14	4489
2026-01-29 01:24:29.27	9.25	12.42	-27.3	-29.2	14.8	1.50e-06	0	43	0	200278016	14	4512
2026-01-29 01:24:30.28	9.18	12.51	-27.2	-29.0	14.9	2.74e-05	0	43	0	203423744	14	4461
2026-01-29 01:24:31.29	9.10	12.60	-27.1	-28.8	15.0	4.04e-04	0	43	0	206569472	14	4402
2026-01-29 01:24:32.29	9.03	12.69	-27.1	-28.8	15.0	0.00e+00	0	43	0	209715200	14	4405
2026-01-29 01:24:33.29	8.95	12.78	-27.1	-29.0	15.0	0.00e+00	0	43	0	212860928	14	4440
2026-01-29 01:24:34.29	8.87	12.87	-27.1	-28.9	12.8	0.00e+00	0	43	0	216006656	14	4420
2026-01-29 01:24:35.29	8.79	12.96	-27.2	-29.0	12.9	0.00e+00	0	43	0	219152384	14	4445
2026-01-29 01:24:36.30	8.72	13.05	-27.1	-28.9	15.1	3.27e-04	0	43	0	222298112	14	4412
2026-01-29 01:24:37.30	8.64	13.14	-27.1	-29.0	15.0	3.44e-04	0	43	0	225443840	14	4433
2026-01-29 01:24:38.31	8.56	13.23	-27.1	-28.9	15.0	3.76e-03	0	43	0	228589568	14	4423
2026-01-29 01:24:39.31	8.48	13.32	-27.2	-29.0	15.0	0.00e+00	0	43	0	231735296	14	4440
2026-01-29 01:24:40.32	8.40	13.41	-27.2	-29.0	15.0	3.26e-04	0	43	0	234881024	14	4432
2026-01-29 01:24:41.32	8.32	13.50	-27.2	-29.1	14.9	7.00e-07	0	43	0	238026752	14	4478
2026-01-29 01:24:42.33	8.23	13.59	-27.3	-29.3	14.8	3.51e-04	0	43	0	241172480	14	4535
2026-01-29 01:24:43.33	8.15	13.69	-27.3	-29.3	14.8	3.75e-03	0	43	0	244318208	14	4532
2026-01-29 01:24:44.34	8.07	13.78	-27.2	-29.1	14.9	3.83e-03	0	43	0	247463936	14	4482
2026-01-29 01:24:45.34	7.99	13.87	-27.2	-29.2	14.9	3.98e-04	0	43	0	250609664	14	4489
2026-01-29 01:24:46.35	7.90	13.97	-27.2	-29.1	15.0	3.39e-04	0	43	0	253755392	14	4464
2026-01-29 01:24:47.35	7.82	14.06	-27.2	-29.1	15.0	2.25e-03	0	43	0	256901120	14	4475
2026-01-29 01:24:48.35	7.73	14.15	-27.2	-29.0	15.0	2.43e-04	0	43	0	260046848	14	4439
2026-01-29 01:24:49.35	7.65	14.24	-27.3	-29.3	14.9	3.69e-03	0	43	0	263192576	14	4520
2026-01-29 01:24:50.35	7.56	14.34	-27.0	-28.7	15.2	0.00e+00	0	43	0	266338304	14	4348
2026-01-29 01:24:51.36	7.48	14.43	-26.9	-28.5	15.4	1.06e-05	0	43	0	269484032	14	4283
2026-01-29 01:24:52.36	7.39	14.53	-26.9	-28.9	15.4	3.40e-03	0	43	0	272629760	13	4526
2026-01-29 01:24:53.36	7.30	14.62	-26.9	-28.9	15.4	3.88e-03	0	43	0	275775488	13	4527
2026-01-29 01:24:54.36	7.22	14.72	-26.9	-28.9	15.4	0.00e+00	0	43	0	278921216	13	4518
2026-01-29 01:24:55.37	7.13	14.81	-26.9	-28.9	15.4	3.77e-03	0	43	0	282066944	13	4532
2026-01-29 01:24:56.37	7.04	14.91	-26.9	-29.0	15.4	3.69e-03	0	43	0	285212672	13	4549
2026-01-29 01:24:57.37	6.95	15.01	-27.1	-28.7	15.2	8.54e-05	0	43	0	288358400	14	4363
2026-01-29 01:24:58.38	6.86	15.10	-27.1	-28.8	15.2	3.84e-03	0	43	0	291504128	14	4379
2026-01-29 01:24:59.38	6.77	15.20	-27.0	-28.7	15.3	3.40e-03	0	43	0	294649856	14	4348
2026-01-29 01:25:00.38	6.68	15.30	-27.1	-28.8	15.2	0.00e+00	0	43	0	297795584	14	4374
2026-01-29 01:25:01.38	6.58	15.39	-27.2	-29.0	15.1	3.41e-03	0	43	0	300941312	14	4451
2026-01-29 01:25:02.39	6.49	15.49	-27.3	-29.4	14.9	3.94e-03	0	43	0	304087040	14	4546
2026-01-29 01:25:03.39	6.40	15.59	-27.4	-29.5	14.8	0.00e+00	0	43	0	307232768	14	4584
2026-01-29 01:25:04.39	6.30	15.69	-27.3	-29.4	14.9	3.84e-03	0	43	0	310378496	14	4562
2026-01-29 01:25:05.39	6.21	15.79	-27.4	-29.5	14.9	3.76e-03	0	43	0	313524224	14	4590
2026-01-29 01:25:06.39	6.11	15.88	-27.4	-29.6	14.8	7.00e-07	0	43	0	316669952	14	4611
2026-01-29 01:25:07.39	6.02	15.98	-27.4	-29.5	14.9	4.31e-03	0	43	0	319815680	14	4579
2026-01-29 01:25:08.39	5.92	16.08	-27.5	-29.3	14.7	3.39e-03	0	43	0	322961408	15	4415
2026-01-29 01:25:09.40	5.82	16.18	-27.8	-29.9	14.4	0.00e+00	0	43	0	325058560	15	4583
2026-01-29 01:25:10.41	5.72	16.28	-27.8	-30.0	14.2	3.46e-03	0	43	0	329252864	15	4637
2026-01-29 01:25:11.41	5.62	16.39	-27.6	-29.4	14.6	3.12e-03	0	43	0	332398592	15	4434
2026-01-29 01:25:12.41	5.53	16.49	-27.4	-28.9	14.9	0.00e+00	0	43	0	335544320	15	4298
2026-01-29 01:25:13.42	5.42	16.59	-27.3	-29.2	15.0	0.00e+00	0	43	0	338690048	14	4501
2026-01-29 01:25:14.42	5.32	16.69	-27.2	-29.1	15.1	3.83e-03	0	43	0	341835776	14	4463
2026-01-29 01:25:15.42	5.22	16.79	-27.3	-29.2	15.1	0.00e+00	0	43	0	344981504	14	4496
2026-01-29 01:25:16.43	5.12	16.89	-27.4	-29.4	14.9	0.00e+00	0	43	0	348127232	14	4556
2026-01-29 01:25:17.43	5.02	17.00	-27.4	-29.1	14.8	0.00e+00	0	43	0	350224384	15	4344
2026-01-29 01:25:18.43	4.91	17.10	-27.4	-28.9	14.9	0.00e+00	0	43	0	353370112	15	4307
2026-01-29 01:25:19.43	4.81	17.20	-27.4	-29.5	14.9	3.39e-03	0	44	0	356515840	14	4588
2026-01-29 01:25:20.43	4.70	17.31	-27.4	-29.5	14.9	3.78e-03	0	43	0	359661568	14	4586
2026-01-29 01:25:21.43	4.60	17.41	-27.4	-29.6	14.9	0.00e+00	0	43	0	362807296	14	4597
2026-01-29 01:25:22.44	4.49	17.51	-27.5	-29.2	14.8	0.00e+00	0	43	0	365953024	15	4375
2026-01-29 01:25:23.44	4.38	17.62	-27.5	-29.7	14.8	0.00e+00	0	43	0	369098752	14	4637
2026-01-29 01:25:24.44	4.28	17.72	-27.5	-29.3	14.8	0.00e+00	0	43	0	372244480	15	4405
2026-01-29 01:25:25.44	4.17	17.83	-27.5	-29.3	14.8	3.77e-03	0	43	0	375390208	15	4419
2026-01-29 01:25:26.44	4.06	17.93	-27.6	-29.4	14.7	7.00e-07	0	44	0	378535936	15	4438
2026-01-29 01:25:27.45	3.95	18.04	-27.5	-29.3	14.7	7.00e-07	0	43	0	381681664	15	4413
2026-01-29 01:25:28.45	3.83	18.15	-27.6	-29.4	14.7	7.00e-07	0	43	0	384827392	15	4432
2026-01-29 01:25:29.46	3.72	18.25	-27.6	-29.3	14.7	0.00e+00	0	43	0	387973120	15	4420
2026-01-29 01:25:30.46	3.61	18.36	-27.5	-29.3	14.8	0.00e+00	0	43	0	391118848	15	4411
2026-01-29 01:25:31.46	3.49	18.47	-27.4	-29.5	15.0	0.00e+00	0	43	0	394264576	14	4568
2026-01-29 01:25:32.46	3.38	18.57	-27.4	-29.5	15.0	0.00e+00	0	43	0	397410304	14	4566
2026-01-29 01:25:33.46	3.27	18.68	-27.4	-29.5	14.9	0.00e+00	0	43	0	400556032	14	4588
2026-01-29 01:25:34.46	3.15	18.79	-27.4	-29.4	15.0	0.00e+00	0	43	0	403701760	14	4551
2026-01-29 01:25:35.46	3.03	18.90	-27.2	-29.1	15.2	0.00e+00	0	43	0	406847488	14	4461
2026-01-29 01:25:36.46	2.91	19.01	-27.3	-29.2	15.2	0.00e+00	0	43	0	409993216	14	4483
2026-01-29 01:25:37.46	2.80	19.12	-27.3	-29.3	15.1	0.00e+00	0	43	0	413138944	14	4514
2026-01-29 01:25:38.46	2.68	19.23	-27.2	-28.9	15.3	0.00e+00	0	44	0	416284672	14	4413
2026-01-29 01:25:39.47	2.55	19.34	-27.1	-28.8	15.4	0.00e+00	0	44	0	419430400	14	4364
2026-01-29 01:25:40.47	2.43	19.45	-27.2	-29.1	15.2	0.00e+00	0	44	0	422576128	14	4459
2026-01-29 01:25:41.47	2.31	19.56	-27.3	-29.2	15.2	0.00e+00	0	43	0	425721856	14	4485
2026-01-29 01:25:42.47	2.19	19.67	-27.2	-29.0	15.3	0.00e+00	0	43	0	428867584	14	4423
2026-01-29 01:25:43.48	2.06	19.78	-27.2	-29.0	15.3	0.00e+00	0	43	0	432013312	14	4442
2026-01-29 01:25:44.48	1.94	19.89	-27.2	-29.1	15.3	0.00e+00	0	43	0	435159040	14	4450
2026-01-29 01:25:45.49	1.81	20.01	-27.0	-28.6	15.5	0.00e+00	0	43	0	438304768	14	4323
2026-01-29 01:25:46.49	1.68	20.12	-27.1	-28.7	15.5	0.00e+00	0	44	0	441450496	14	4350
2026-01-29 01:25:47.49	1.55	20.23	-27.0	-28.6	15.5	0.00e+00	0	43	0	444596224	14	4331
2026-01-29 01:25:48.50	1.42	20.35	-27.2	-28.9	15.3	0.00e+00	0	44	0	447741952	14	4416
2026-01-29 01:25:49.50	1.29	20.46	-27.3	-29.2	15.2	0.00e+00	0	43	0	450887680	14	4496
2026-01-29 01:25:50.50	1.16	20.57	-27.2	-29.0	15.3	0.00e+00	0	43	0	454033408	14	4439
2026-01-29 01:25:51.50	1.03	20.69	-27.0	-28.5	15.6	0.00e+00	0	44	0	457179136	14	4288
2026-01-29 01:25:52.50	0.90	20.80	-26.9	-28.8	15.7	0.00e+00	0	43	0	460324864	13	4492
2026-01-29 01:25:53.50	0.77	20.92	-26.9	-28.8	15.6	0.00e+00	0	44	0	463470592	13	4492
2026-01-29 01:25:54.51	0.63	21.03	-26.8	-28.6	15.7	0.00e+00	0	44	0	466616320	13	4418
2026-01-29 01:25:55.51	0.49	21.15	-26.9	-28.7	15.7	0.00e+00	0	43	0	469762048	13	4466
2026-01-29 01:25:56.51	0.36	21.26	-26.8	-28.6	15.7	0.00e+00	0	43	0	472907776	13	4433
2026-01-29 01:25:57.52	0.22	21.38	-26.9	-28.9	15.6	0.00e+00	0	43	0	476053504	13	4520
2026-01-29 01:25:58.52	0.08	21.50	-26.9	-28.3	15.7	0.00e+00	0	43	0	479199232	14	4233
2026-01-29 01:25:59.52	359.94	21.61	-26.6	-28.0	16.1	0.00e+00	0	44	0	482344960	13	4272
2026-01-29 01:26:00.52	359.80	21.73	-26.2	-27.4	16.5	0.00e+00	0	44	0	485490688	13	4093
2026-01-29 01:26:01.53	359.65	21.85	-26.3	-27.9	16.5	0.00e+00	0	44	0	488636416	12	4341
2026-01-29 01:26:02.53	359.51	21.97	-26.1	-27.6	16.6	0.00e+00	0	44	0	491782144	12	4274
2026-01-29 01:26:03.54	359.36	22.09	-26.2	-27.7	16.6	2.63e-04	0	44	0	494927872	12	4277
2026-01-29 01:26:04.54	359.22	22.21	-26.1	-27.6	16.6	0.00e+00	0	44	0	498073600	12	4265
2026-01-29 01:26:05.54	359.07	22.33	-26.3	-28.0	16.4	0.00e+00	0	44	0	501219328	12	4360
2026-01-29 01:26:06.54	358.92	22.45	-26.2	-27.7	16.5	0.00e+00	0	44	0	504365056	12	4299
2026-01-29 01:26:07.55	358.77	22.57	-26.1	-27.5	16.7	0.00e+00	0	43	0	507510784	12	4230
2026-01-29 01:26:08.56	358.62	22.69	-26.1	-27.6	16.7	9.10e-06	0	44	0	510656512	12	4259
2026-01-29 01:26:09.56	358.47	22.81	-26.1	-27.5	16.7	4.73e-05	0	44	0	513802240	12	4225
2026-01-29 01:26:10.56	358.31	22.93	-25.9	-27.1	16.9	0.00e+00	0	43	0	516947968	12	4127
2026-01-29 01:26:11.57	358.16	23.05	-25.9	-27.2	16.9	0.00e+00	0	44	0	520093696	12	4155
2026-01-29 01:26:12.56	358.00	23.17	-25.9	-27.0	16.9	1.84e-04	0	44	0	523239424	12	4116
2026-01-29 01:26:13.56	357.85	23.29	-26.0	-27.2	16.8	0.00e+00	0	44	0	526385152	12	4164
2026-01-29 01:26:14.57	357.69	23.42	-25.9	-27.2	16.8	1.21e-04	0	43	0	529530880	12	4160
2026-01-29 01:26:15.57	357.53	23.54	-25.9	-27.2	16.9	1.32e-04	0	43	0	532676608	12	4148
2026-01-29 01:26:16.57	357.37	23.66	-26.1	-27.5	16.7	0.00e+00	0	43	0	535822336	12	4231
2026-01-29 01:26:17.57	357.21	23.79	-26.2	-27.7	16.6	2.27e-04	0	43	0	538968064	12	4284
2026-01-29 01:26:18.57	357.04	23.91	-26.2	-27.8	16.6	2.58e-04	0	44	0	542113792	12	4323
2026-01-29 01:26:19.57	356.88	24.03	-26.2	-27.8	16.6	0.00e+00	0	44	0	545259520	12	4315
2026-01-29 01:26:20.58	356.71	24.16	-26.2	-27.8	16.6	2.59e-04	0	43	0	548405248	12	4321
2026-01-29 01:26:21.59	356.54	24.28	-25.6	-27.3	15.9	2.01e-04	0	44	0	551550976	12	4391
2026-01-29 01:26:22.59	356.37	24.41	-26.3	-27.8	14.7	0.00e+00	0	44	0	554696704	12	4326
2026-01-29 01:26:23.60	356.20	24.54	-26.3	-28.0	16.4	6.71e-05	0	43	0	557842432	12	4358
2026-01-29 01:26:24.60	356.03	24.66	-26.2	-27.8	16.6	7.62e-05	0	44	0	560988160	12	4321
2026-01-29 01:26:25.61	355.86	24.79	-26.1	-27.6	16.7	0.00e+00	0	44	0	564133888	12	4254
2026-01-29 01:26:26.61	355.68	24.91	-26.2	-27.8	16.6	0.00e+00	0	44	0	567279616	12	4313
2026-01-29 01:26:27.62	355.51	25.04	-26.4	-28.2	16.4	2.07e-03	0	44	0	570425344	12	4410
2026-01-29 01:26:28.62	355.33	25.17	-26.3	-28.0	16.4	0.00e+00	0	44	0	573571072	12	4377
2026-01-29 01:26:29.63	355.15	25.30	-26.3	-27.9	16.5	0.00e+00	0	44	0	576716800	12	4353
2026-01-29 01:26:30.63	354.97	25.43	-26.3	-28.0	16.5	0.00e+00	0	44	0	579862528	12	4365
2026-01-29 01:26:31.64	354.79	25.55	-26.3	-28.1	16.4	1.40e-03	0	44	0	583008256	12	4381
2026-01-29 01:26:32.64	354.60	25.68	-26.5	-27.9	16.3	0.00e+00	0	44	0	586153984	13	4223
2026-01-29 01:26:33.64	354.42	25.81	-26.7	-28.3	16.1	1.17e-03	0	44	0	589299712	13	4339
2026-01-29 01:26:34.64	354.23	25.94	-26.8	-28.6	15.9	0.00e+00	0	44	0	592445440	13	4407
2026-01-29 01:26:35.65	354.04	26.07	-26.9	-28.8	15.8	0.00e+00	0	44	0	595591168	13	4463
2026-01-29 01:26:36.66	353.85	26.20	-27.0	-28.5	15.7	1.17e-03	0	43	0	598736896	14	4288
2026-01-29 01:26:37.66	353.66	26.33	-27.0	-28.9	15.7	1.47e-03	0	44	0	601882624	13	4504
2026-01-29 01:26:38.67	353.47	26.46	-27.0	-28.4	15.8	0.00e+00	0	44	0	605028352	14	4264
2026-01-29 01:26:39.67	353.28	26.59	-27.0	-28.6	15.7	1.69e-03	0	44	0	608174080	14	4298
2026-01-29 01:26:40.68	353.08	26.72	-27.1	-28.8	15.6	0.00e+00	0	44	0	611319808	14	4355
2026-01-29 01:26:41.67	352.88	26.85	-27.0	-28.6	15.7	0.00e+00	0	44	0	614465536	14	4307
2026-01-29 01:26:42.68	352.68	26.98	-27.2	-29.0	15.5	1.69e-03	0	44	0	617611264	14	4414
2026-01-29 01:26:43.68	352.48	27.11	-27.1	-28.8	15.5	1.75e-03	0	44	0	620756992	14	4369
2026-01-29 01:26:44.69	352.28	27.25	-27.4	-29.5	15.2	0.00e+00	0	44	0	623902720	14	4555
2026-01-29 01:26:45.69	352.07	27.38	-27.5	-29.1	15.1	0.00e+00	0	44	0	625999872	15	4343
2026-01-29 01:26:46.69	351.87	27.51	-27.5	-29.2	15.1	1.60e-03	0	44	0	629145600	15	4372
2026-01-29 01:26:47.70	351.66	27.64	-27.5	-29.1	15.1	0.00e+00	0	44	0	632291328	15	4327
2026-01-29 01:26:48.69	351.45	27.77	-27.3	-29.2	15.4	1.31e-03	0	44	0	635437056	14	4471
2026-01-29 01:26:49.69	351.24	27.91	-27.1	-28.8	15.6	1.17e-03	0	44	0	638582784	14	4369
2026-01-29 01:26:50.69	351.03	28.04	-27.1	-28.7	15.6	0.00e+00	0	44	0	641728512	14	4342
2026-01-29 01:26:51.70	350.81	28.17	-27.0	-28.5	15.8	1.39e-03	0	44	0	644874240	14	4263
2026-01-29 01:26:52.71	350.59	28.31	-26.8	-28.6	15.9	1.99e-03	0	44	0	649068544	13	4417
2026-01-29 01:26:53.71	350.38	28.44	-26.8	-28.6	16.0	0.00e+00	0	44	0	651165696	13	4407
2026-01-29 01:26:54.70	350.16	28.57	-26.8	-28.7	15.9	2.68e-03	0	44	0	654311424	13	4440
2026-01-29 01:26:55.71	349.94	28.71	-26.9	-28.7	15.9	0.00e+00	0	44	0	657457152	13	4450
2026-01-29 01:26:56.72	349.71	28.84	-26.8	-28.6	15.9	0.00e+00	0	44	0	660602880	13	4434
2026-01-29 01:26:57.72	349.48	28.97	-27.1	-28.8	15.6	3.21e-03	0	44	0	663748608	14	4357
2026-01-29 01:26:58.72	349.26	29.11	-27.2	-29.0	15.5	3.38e-03	0	44	0	666894336	14	4408
2026-01-29 01:26:59.73	349.03	29.24	-27.2	-28.9	15.5	1.26e-04	0	44	0	670040064	14	4388
2026-01-29 01:27:00.73	348.79	29.38	-27.1	-28.7	15.7	0.00e+00	0	44	0	673185792	14	4322
2026-01-29 01:27:01.73	348.56	29.51	-27.1	-28.6	15.7	0.00e+00	0	44	0	676331520	14	4312
2026-01-29 01:27:02.73	348.33	29.65	-27.2	-28.9	15.5	0.00e+00	0	44	0	679477248	14	4399
2026-01-29 01:27:03.73	348.09	29.78	-27.1	-28.8	15.5	5.52e-04	0	44	0	682622976	14	4363
2026-01-29 01:27:04.73	347.85	29.91	-27.3	-29.2	15.3	3.36e-04	0	44	0	685768704	14	4485
2026-01-29 01:27:05.74	347.61	30.05	-27.3	-29.3	15.3	0.00e+00	0	44	0	688914432	14	4494
2026-01-29 01:27:06.74	347.36	30.18	-27.0	-28.6	15.7	0.00e+00	0	44	0	692060160	14	4302
2026-01-29 01:27:07.74	347.12	30.32	-26.9	-28.3	15.9	0.00e+00	0	44	0	695205888	14	4219
2026-01-29 01:27:08.74	346.87	30.45	-26.8	-28.0	16.0	0.00e+00	0	44	0	698351616	14	4154
2026-01-29 01:27:09.75	346.62	30.59	-26.8	-28.5	16.1	0.00e+00	0	44	0	701497344	13	4378
2026-01-29 01:27:10.76	346.36	30.73	-26.8	-28.5	16.0	0.00e+00	0	44	0	704643072	13	4389
2026-01-29 01:27:11.77	346.11	30.86	-26.7	-28.4	16.1	0.00e+00	0	44	0	707788800	13	4356
2026-01-29 01:27:12.77	345.85	31.00	-26.9	-28.8	15.8	0.00e+00	0	44	0	710934528	13	4479
2026-01-29 01:27:13.77	345.59	31.13	-26.9	-28.3	15.9	0.00e+00	0	44	0	714080256	14	4228
2026-01-29 01:27:14.77	345.33	31.27	-27.0	-28.6	15.7	0.00e+00	0	44	0	717225984	14	4314
2026-01-29 01:27:15.77	345.07	31.40	-27.1	-28.8	15.6	0.00e+00	0	44	0	720371712	14	4372
2026-01-29 01:27:16.78	344.80	31.54	-27.2	-28.9	15.6	0.00e+00	0	44	0	723517440	14	4391
2026-01-29 01:27:17.78	344.54	31.67	-27.2	-29.0	15.5	0.00e+00	0	44	0	726663168	14	4410
2026-01-29 01:27:18.78	344.27	31.80	-27.3	-29.3	15.4	0.00e+00	0	44	0	729808896	14	4496
2026-01-29 01:27:19.78	344.00	31.94	-27.2	-29.1	15.5	0.00e+00	0	44	0	732954624	14	4441
2026-01-29 01:27:20.78	343.72	32.07	-27.1	-28.7	15.6	0.00e+00	0	44	0	736100352	14	4325
2026-01-29 01:27:21.79	343.44	32.21	-27.2	-28.9	15.6	0.00e+00	0	44	0	739246080	14	4387
2026-01-29 01:27:22.79	343.16	32.34	-27.1	-28.8	15.6	0.00e+00	0	44	0	742391808	14	4371
2026-01-29 01:27:23.80	342.88	32.48	-27.2	-29.0	15.6	0.00e+00	0	44	0	745537536	14	4406
2026-01-29 01:27:24.80	342.60	32.61	-27.2	-29.0	15.5	0.00e+00	0	44	0	748683264	14	4404
2026-01-29 01:27:25.81	342.31	32.74	-27.3	-29.2	15.4	0.00e+00	0	44	0	751828992	14	4468
2026-01-29 01:27:26.81	342.02	32.88	-27.3	-29.1	15.5	0.00e+00	0	44	0	754974720	14	4454
2026-01-29 01:27:27.82	341.73	33.01	-27.3	-29.2	15.4	7.00e-07	0	44	0	758120448	14	4474
2026-01-29 01:27:28.82	341.44	33.14	-27.5	-29.5	15.2	0.00e+00	0	44	0	761266176	14	4577
2026-01-29 01:27:29.82	341.14	33.27	-27.7	-29.7	14.8	0.00e+00	0	44	0	764411904	15	4500
2026-01-29 01:27:30.82	340.84	33.41	-27.8	-29.8	14.8	0.00e+00	0	44	0	767557632	15	4531
2026-01-29 01:27:31.83	340.54	33.54	-27.9	-30.0	14.7	0.00e+00	0	44	0	770703360	15	4606
2026-01-29 01:27:32.83	340.24	33.67	-27.9	-30.1	14.6	0.00e+00	0	44	0	773849088	15	4620
2026-01-29 01:27:33.83	339.93	33.80	-28.2	-30.2	14.4	7.00e-07	0	44	0	776994816	16	4533
2026-01-29 01:27:34.84	339.62	33.93	-28.3	-30.5	14.2	0.00e+00	0	44	0	780140544	16	4638
2026-01-29 01:27:35.84	339.31	34.06	-28.5	-30.8	14.1	1.50e-06	0	44	0	783286272	16	4727
2026-01-29 01:27:36.85	339.00	34.19	-28.5	-30.3	14.1	1.50e-06	0	44	0	786432000	17	4463
2026-01-29 01:27:37.86	338.68	34.32	-28.5	-30.8	14.1	2.20e-06	0	44	0	789577728	16	4723
2026-01-29 01:27:38.86	338.36	34.45	-28.5	-30.5	14.0	1.50e-06	0	44	0	792723456	17	4531
2026-01-29 01:27:39.86	338.04	34.58	-28.6	-30.6	13.9	4.50e-06	0	44	0	795869184	17	4543
2026-01-29 01:27:40.86	337.72	34.71	-28.6	-30.7	13.9	2.07e-04	0	44	0	799014912	17	4562
2026-01-29 01:27:41.87	337.39	34.84	-28.6	-30.8	13.8	3.00e-06	0	44	0	802160640	17	4592
2026-01-29 01:27:42.87	337.06	34.96	-28.7	-30.8	13.8	4.50e-06	0	44	0	805306368	17	4609
2026-01-29 01:27:43.87	336.73	35.09	-28.7	-30.9	13.8	5.30e-06	0	44	0	808452096	17	4618
2026-01-29 01:27:44.88	336.40	35.22	-28.8	-31.0	13.7	9.10e-06	0	44	0	811597824	17	4683
2026-01-29 01:27:45.88	336.06	35.34	-28.6	-30.7	13.8	3.80e-06	0	44	0	814743552	17	4589
2026-01-29 01:27:46.89	335.72	35.47	-28.3	-30.0	14.3	5.30e-06	0	44	0	817889280	17	4346
2026-01-29 01:27:47.90	335.37	35.59	-28.2	-29.6	14.5	2.53e-04	0	44	0	821035008	17	4242
2026-01-29 01:27:48.90	335.03	35.71	-28.3	-30.3	14.4	1.50e-06	0	44	0	824180736	16	4563
2026-01-29 01:27:49.91	334.68	35.84	-28.1	-30.0	14.6	4.08e-04	0	44	0	827326464	16	4458
2026-01-29 01:27:50.91	334.33	35.96	-28.2	-30.2	14.4	2.42e-04	0	44	0	830472192	16	4536
2026-01-29 01:27:51.92	333.98	36.08	-28.1	-30.0	14.6	3.00e-06	0	44	0	833617920	16	4479
2026-01-29 01:27:52.91	333.63	36.20	-28.1	-29.9	14.6	3.00e-06	0	44	0	836763648	16	4453
2026-01-29 01:27:53.91	333.27	36.32	-28.1	-30.0	14.6	7.00e-07	0	44	0	839909376	16	4470
2026-01-29 01:27:54.92	332.91	36.44	-28.0	-29.8	14.7	0.00e+00	0	44	0	843055104	16	4412
2026-01-29 01:27:55.92	332.55	36.55	-28.2	-30.2	14.5	1.82e-04	0	44	0	846200832	16	4519
2026-01-29 01:27:56.93	332.18	36.67	-28.3	-30.4	14.3	2.63e-04	0	44	0	849346560	16	4590
2026-01-29 01:27:57.93	331.81	36.79	-28.7	-30.9	13.8	3.00e-06	0	44	0	852492288	17	4647
2026-01-29 01:27:58.94	331.44	36.90	-28.7	-30.9	13.7	4.02e-04	0	44	0	855638016	17	4643
2026-01-29 01:27:59.95	331.06	37.02	-28.7	-30.9	13.8	3.80e-06	0	44	0	858783744	17	4636
2026-01-29 01:28:00.95	330.69	37.13	-28.3	-30.0	14.2	3.00e-06	0	44	0	861929472	17	4370
2026-01-29 01:28:01.95	330.31	37.24	-27.9	-29.6	14.8	8.54e-04	0	44	0	865075200	16	4344
2026-01-29 01:28:02.94	329.93	37.35	-27.9	-29.6	14.8	6.87e-04	0	44	0	868220928	16	4350
2026-01-29 01:28:03.95	329.55	37.46	-28.1	-29.9	14.6	0.00e+00	0	44	0	871366656	16	4441
2026-01-29 01:28:04.96	329.16	37.57	-27.8	-29.8	14.8	7.00e-07	0	44	0	874512384	15	4524
2026-01-29 01:28:05.96	328.77	37.68	-27.7	-29.7	14.9	9.99e-05	0	44	0	877658112	15	4489
2026-01-29 01:28:06.96	328.38	37.78	-27.7	-29.6	14.9	1.79e-04	0	44	0	880803840	15	4455
2026-01-29 01:28:07.96	327.98	37.89	-28.0	-30.2	14.6	1.53e-03	0	44	0	883949568	15	4647
2026-01-29 01:28:08.96	327.59	37.99	-28.2	-30.1	14.6	0.00e+00	0	44	0	887095296	16	4510
2026-01-29 01:28:09.96	327.19	38.09	-28.7	-30.9	13.8	3.00e-06	0	44	0	890241024	17	4620
2026-01-29 01:28:10.97	326.79	38.19	-28.5	-30.5	14.0	1.50e-06	0	44	0	893386752	17	4518
2026-01-29 01:28:11.98	326.38	38.29	-28.6	-30.6	13.9	2.18e-03	0	44	0	896532480	17	4554
2026-01-29 01:28:12.98	325.97	38.39	-28.5	-30.5	14.0	2.47e-03	0	44	0	899678208	17	4509
2026-01-29 01:28:13.99	325.56	38.49	-28.4	-30.7	14.2	7.00e-07	0	44	0	902823936	16	4676
2026-01-29 01:28:14.99	325.15	38.59	-28.4	-30.6	14.2	0.00e+00	0	44	0	905969664	16	4654
2026-01-29 01:28:16.00	324.73	38.68	-28.7	-30.9	13.8	3.20e-03	0	44	0	909115392	17	4630
2026-01-29 01:28:17.00	324.32	38.77	-28.9	-31.3	13.5	1.37e-05	0	44	0	912261120	17	4774
2026-01-29 01:28:18.01	323.90	38.87	-29.1	-31.4	13.1	3.31e-03	0	44	0	915406848	18	4694
2026-01-29 01:28:19.00	323.48	38.95	-29.4	-32.2	12.7	5.95e-05	0	44	0	918552576	18	4958
2026-01-29 01:28:20.01	323.05	39.04	-29.3	-31.8	12.9	5.18e-05	0	44	0	921698304	18	4821
2026-01-29 01:28:21.01	322.63	39.13	-29.1	-31.4	13.2	2.34e-03	0	44	0	924844032	18	4687
2026-01-29 01:28:22.01	322.20	39.21	-29.1	-31.4	13.2	1.73e-03	0	44	0	927989760	18	4691
2026-01-29 01:28:23.02	321.77	39.30	-29.4	-32.1	12.8	4.95e-05	0	44	0	931135488	18	4908
2026-01-29 01:28:24.01	321.34	39.38	-29.3	-31.9	12.9	1.85e-03	0	44	0	934281216	18	4843
2026-01-29 01:28:25.01	320.91	39.46	-29.0	-31.1	13.3	2.44e-05	0	44	0	937426944	18	4591
2026-01-29 01:28:26.02	320.47	39.54	-28.8	-31.1	13.6	9.10e-06	0	44	0	940572672	17	4700
2026-01-29 01:28:27.01	320.03	39.61	-28.7	-30.8	13.8	9.73e-04	0	44	0	943718400	17	4610
2026-01-29 01:28:28.02	319.59	39.69	-28.7	-30.8	13.8	4.69e-04	0	44	0	946864128	17	4612
2026-01-29 01:28:29.02	319.15	39.76	-28.6	-30.7	13.8	1.50e-06	0	44	0	950009856	17	4556
2026-01-29 01:28:30.02	318.70	39.83	-28.8	-31.0	13.6	6.80e-06	0	44	0	952107008	17	4665
2026-01-29 01:28:31.02	318.26	39.90	-28.8	-31.2	13.5	2.53e-04	0	44	0	955252736	17	4728
2026-01-29 01:28:32.03	317.80	39.97	-29.0	-31.2	13.3	1.14e-05	0	44	0	958398464	18	4605
2026-01-29 01:28:33.03	317.35	40.04	-29.2	-31.6	13.1	3.48e-04	0	44	0	961544192	18	4733
2026-01-29 01:28:34.04	316.90	40.10	-28.9	-31.0	13.5	4.33e-04	0	44	0	964689920	18	4539
2026-01-29 01:28:35.05	316.44	40.16	-28.8	-31.0	13.7	9.10e-06	0	44	0	967835648	17	4659
2026-01-29 01:28:36.05	315.98	40.22	-28.9	-31.3	13.5	4.50e-04	0	44	0	970981376	17	4766
2026-01-29 01:28:37.05	315.53	40.28	-28.7	-30.9	13.8	2.08e-04	0	44	0	974127104	17	4639
2026-01-29 01:28:38.05	315.07	40.34	-28.6	-30.6	13.9	3.00e-06	0	44	0	977272832	17	4550
2026-01-29 01:28:39.05	314.61	40.39	-28.8	-31.1	13.6	3.60e-04	0	44	0	980418560	17	4710
2026-01-29 01:28:40.06	314.14	40.44	-28.6	-30.7	13.9	2.20e-06	0	44	0	983564288	17	4569
2026-01-29 01:28:41.06	313.68	40.49	-28.5	-30.4	14.1	3.80e-06	0	45	0	986710016	17	4465
2026-01-29 01:28:42.06	313.22	40.54	-28.5	-30.4	14.0	7.60e-06	0	44	0	989855744	17	4485
2026-01-29 01:28:43.06	312.75	40.59	-28.6	-30.6	13.9	2.91e-03	0	44	0	993001472	17	4550
2026-01-29 01:28:44.07	312.28	40.63	-28.4	-30.1	14.3	2.21e-05	0	44	0	996147200	17	4380
2026-01-29 01:28:45.07	311.81	40.67	-28.4	-30.6	14.3	7.00e-07	0	44	0	999292928	16	4637
2026-01-29 01:28:46.08	311.34	40.71	-28.4	-30.6	14.3	2.20e-06	0	44	0	1002438656	16	4637
2026-01-29 01:28:47.07	310.87	40.75	-28.5	-30.8	14.1	2.20e-06	0	44	0	1005584384	16	4715
2026-01-29 01:28:48.08	310.39	40.78	-28.4	-30.7	14.1	2.21e-03	0	44	0	1008730112	16	4693
2026-01-29 01:28:49.09	309.92	40.81	-28.8	-31.1	13.7	1.94e-03	0	44	0	1011875840	17	4684
2026-01-29 01:28:50.09	309.44	40.85	-28.9	-31.3	13.5	7.60e-06	0	44	0	1015021568	17	4750
2026-01-29 01:28:51.10	308.96	40.87	-28.9	-31.3	13.6	1.14e-05	0	44	0	1018167296	17	4744
2026-01-29 01:28:52.11	308.48	40.90	-29.1	-31.3	13.2	2.05e-05	0	44	0	1021313024	18	4642
2026-01-29 01:28:53.11	308.01	40.92	-29.2	-31.7	13.0	3.81e-05	0	44	0	1024458752	18	4772
2026-01-29 01:28:54.12	307.53	40.95	-29.1	-31.3	13.2	1.98e-05	0	44	0	1027604480	18	4656
2026-01-29 01:28:55.12	307.05	40.97	-29.1	-31.2	13.3	1.90e-05	0	44	0	1030750208	18	4630
2026-01-29 01:28:56.13	306.56	40.98	-28.9	-30.8	13.6	1.29e-05	0	44	0	1033895936	18	4484
2026-01-29 01:28:57.13	306.09	41.00	-29.0	-31.2	13.4	1.29e-05	0	44	0	1037041664	18	4598
2026-01-29 01:28:58.13	305.61	41.01	-29.1	-31.3	13.3	1.67e-05	0	44	0	1040187392	18	4650
2026-01-29 01:28:59.13	305.13	41.02	-29.3	-31.8	13.0	3.28e-05	0	44	0	1043333120	18	4801
2026-01-29 01:29:00.14	304.64	41.03	-29.3	-31.7	13.0	2.74e-05	0	44	0	1046478848	18	4782
2026-01-29 01:29:01.14	304.16	41.03	-29.4	-32.1	12.8	6.17e-05	0	44	0	1049624576	18	4895
2026-01-29 01:29:02.15	303.68	41.04	-29.3	-31.7	13.1	3.20e-05	0	44	0	1052770304	18	4760
2026-01-29 01:29:03.15	303.20	41.04	-29.2	-31.5	13.2	3.73e-05	0	44	0	1055916032	18	4698
2026-01-29 01:29:04.15	302.72	41.04	-29.5	-32.2	12.8	6.48e-05	0	44	0	1059061760	18	4950
2026-01-29 01:29:05.15	302.24	41.03	-29.4	-32.1	12.8	5.34e-05	0	44	0	1062207488	18	4894
2026-01-29 01:29:06.15	301.76	41.03	-29.3	-31.8	13.0	4.50e-05	0	44	0	1065353216	18	4794
2026-01-29 01:29:07.17	301.27	41.02	-29.4	-32.0	12.8	6.17e-05	0	44	0	1068498944	18	4877
2026-01-29 01:29:08.17	300.79	41.01	-29.4	-32.0	12.8	6.79e-05	0	44	0	1071644672	18	4863
2026-01-29 01:29:09.17	300.31	41.00	-29.6	-32.0	12.5	9.99e-05	0	44	0	1074790400	19	4765
2026-01-29 01:29:10.17	299.83	40.98	-29.6	-32.1	12.5	1.79e-04	0	44	0	1077936128	19	4809
2026-01-29 01:29:11.18	299.35	40.97	-29.2	-31.0	13.2	3.35e-05	0	44	0	1081081856	19	4439
2026-01-29 01:29:12.18	298.87	40.95	-29.0	-30.5	13.4	1.75e-05	0	44	0	1084227584	19	4304
2026-01-29 01:29:13.18	298.40	40.92	-29.2	-31.5	13.2	2.28e-05	0	44	0	1087373312	18	4708
2026-01-29 01:29:14.19	297.91	40.90	-29.4	-32.2	12.7	4.66e-04	0	44	0	1090519040	18	4954
2026-01-29 01:29:15.19	297.44	40.87	-29.9	-32.9	12.0	2.89e-04	0	44	0	1093664768	19	5082
2026-01-29 01:29:16.19	296.96	40.85	-30.1	-32.9	11.5	9.96e-04	0	44	0	1096810496	20	4990
2026-01-29 01:29:17.20	296.49	40.82	-29.8	-32.3	11.9	5.40e-04	0	44	0	1099956224	20	4763
2026-01-29 01:29:18.20	296.01	40.78	-29.4	-31.6	12.8	1.11e-04	0	44	0	1103101952	19	4622
2026-01-29 01:29:19.21	295.54	40.75	-29.0	-31.2	13.3	2.05e-05	0	44	0	1106247680	18	4601
2026-01-29 01:29:20.21	295.06	40.71	-28.8	-30.6	13.7	9.90e-06	0	44	0	1109393408	18	4432
2026-01-29 01:29:21.22	294.59	40.67	-29.0	-31.2	13.3	1.22e-05	0	44	0	1112539136	18	4611
2026-01-29 01:29:22.22	294.12	40.63	-29.1	-31.4	13.3	1.75e-05	0	44	0	1115684864	18	4661
2026-01-29 01:29:23.22	293.65	40.59	-29.1	-31.4	13.2	2.05e-05	0	44	0	1118830592	18	4687
2026-01-29 01:29:24.23	293.18	40.54	-29.2	-31.5	13.2	2.13e-05	0	44	0	1121976320	18	4713
2026-01-29 01:29:25.24	292.71	40.49	-29.0	-31.0	13.5	1.83e-04	0	44	0	1125122048	18	4553
2026-01-29 01:29:26.25	292.24	40.44	-28.6	-30.2	13.9	3.74e-04	0	44	0	1128267776	18	4305
2026-01-29 01:29:27.25	291.78	40.39	-28.6	-30.6	14.0	5.30e-06	0	44	0	1131413504	17	4531
2026-01-29 01:29:28.26	291.32	40.34	-28.5	-30.4	14.1	0.00e+00	0	44	0	1134559232	17	4465
2026-01-29 01:29:29.26	290.86	40.28	-28.5	-30.5	14.0	7.00e-07	0	44	0	1137704960	17	4505
2026-01-29 01:29:30.27	290.40	40.22	-29.0	-31.2	13.4	6.80e-06	0	44	0	1140850688	18	4602
2026-01-29 01:29:31.28	289.94	40.16	-29.4	-32.0	12.8	7.85e-05	0	44	0	1143996416	18	4882
2026-01-29 01:29:32.29	289.48	40.10	-29.3	-31.8	12.9	6.63e-05	0	44	0	1147142144	18	4818
2026-01-29 01:29:33.29	289.03	40.03	-29.0	-31.2	13.3	1.98e-05	0	44	0	1150287872	18	4604
2026-01-29 01:29:34.29	288.57	39.97	-28.6	-30.7	13.8	8.30e-06	0	44	0	1153433600	17	4575
2026-01-29 01:29:35.30	288.12	39.90	-28.2	-29.7	14.5	7.00e-07	0	44	0	1156579328	17	4271
2026-01-29 01:29:36.30	287.67	39.83	-28.0	-29.3	14.7	0.00e+00	0	44	0	1159725056	17	4147
2026-01-29 01:29:37.30	287.23	39.76	-28.3	-29.9	14.4	0.00e+00	0	44	0	1162870784	17	4331
2026-01-29 01:29:38.30	286.79	39.69	-28.5	-30.3	14.1	7.00e-07	0	44	0	1166016512	17	4457
2026-01-29 01:29:39.30	286.35	39.61	-28.9	-31.3	13.5	5.30e-06	0	44	0	1169162240	17	4755
2026-01-29 01:29:40.31	285.90	39.53	-29.2	-31.6	13.1	1.52e-05	0	44	0	1172307968	18	4749
2026-01-29 01:29:41.31	285.47	39.46	-29.4	-32.1	12.8	2.03e-04	0	44	0	1175453696	18	4925
2026-01-29 01:29:42.32	285.03	39.37	-29.1	-31.5	13.1	3.28e-05	0	44	0	1178599424	18	4711
2026-01-29 01:29:43.33	284.59	39.29	-28.8	-30.6	13.7	6.80e-06	0	44	0	1181745152	18	4436
2026-01-29 01:29:44.33	284.16	39.21	-28.4	-29.6	14.2	3.00e-06	0	44	0	1184890880	18	4155
2026-01-29 01:29:45.33	283.73	39.12	-28.3	-29.9	14.3	1.50e-06	0	44	0	1188036608	17	4342
2026-01-29 01:29:46.33	283.31	39.04	-28.9	-31.3	13.5	9.90e-06	0	44	0	1191182336	17	4763
2026-01-29 01:29:47.33	282.88	38.95	-29.3	-31.8	12.9	1.90e-05	0	44	0	1194328064	18	4820
2026-01-29 01:29:48.34	282.46	38.86	-29.5	-31.8	12.5	1.04e-04	0	44	0	1197473792	19	4715
2026-01-29 01:29:49.34	282.04	38.77	-29.3	-31.3	12.8	6.79e-05	0	44	0	1200619520	19	4536
2026-01-29 01:29:50.34	281.62	38.67	-28.9	-31.4	13.4	2.71e-03	0	44	0	1203765248	17	4790
2026-01-29 01:29:51.34	281.21	38.58	-28.4	-30.3	14.1	2.55e-03	0	44	0	1206910976	17	4438
2026-01-29 01:29:52.35	280.79	38.48	-28.2	-30.2	14.4	0.00e+00	0	44	0	1210056704	16	4540
2026-01-29 01:29:53.35	280.39	38.39	-28.2	-30.2	14.4	8.31e-04	0	44	0	1213202432	16	4521
2026-01-29 01:29:54.36	279.97	38.29	-28.3	-30.4	14.3	7.00e-07	0	44	0	1216348160	16	4592
2026-01-29 01:29:55.36	279.57	38.19	-28.4	-30.8	14.1	0.00e+00	0	44	0	1219493888	16	4711
2026-01-29 01:29:56.37	279.16	38.08	-28.7	-31.0	13.7	9.90e-06	0	44	0	1222639616	17	4663
2026-01-29 01:29:57.38	278.76	37.98	-28.7	-30.9	13.7	1.98e-05	0	44	0	1225785344	17	4639
2026-01-29 01:29:58.38	278.37	37.88	-28.6	-30.8	13.7	6.80e-06	0	44	0	1228931072	17	4592
2026-01-29 01:29:59.37	277.97	37.77	-28.3	-30.6	14.2	7.00e-07	0	44	0	1232076800	16	4646
2026-01-29 01:30:00.37	277.58	37.67	-28.3	-30.5	14.2	1.63e-03	0	44	0	1235222528	16	4632
2026-01-29 01:30:01.37	277.19	37.56	-28.7	-31.0	13.7	1.50e-06	0	44	0	1238368256	17	4653
2026-01-29 01:30:02.38	276.80	37.45	-29.2	-31.5	13.0	1.78e-03	0	44	0	1241513984	18	4728
2026-01-29 01:30:03.37	276.42	37.34	-29.5	-32.0	12.5	1.21e-03	0	44	0	1244659712	19	4767
2026-01-29 01:30:04.37	276.04	37.23	-29.6	-32.0	12.4	2.13e-04	0	44	0	1247805440	19	4778
2026-01-29 01:30:05.38	275.66	37.12	-29.0	-30.6	13.3	1.04e-03	0	44	0	1250951168	19	4324
2026-01-29 01:30:06.39	275.28	37.00	-28.3	-29.9	14.3	1.62e-03	0	44	0	1254096896	17	4326
2026-01-29 01:30:07.39	274.91	36.89	-27.7	-29.1	15.0	0.00e+00	0	44	0	1257242624	16	4212
2026-01-29 01:30:08.39	274.54	36.77	-27.4	-28.8	15.3	2.47e-03	0	44	0	1260388352	15	4251
2026-01-29 01:30:09.39	274.17	36.66	-27.5	-29.2	15.1	0.00e+00	0	44	0	1263534080	15	4354
2026-01-29 01:30:10.40	273.80	36.54	-27.9	-30.0	14.6	0.00e+00	0	44	0	1266679808	15	4601
2026-01-29 01:30:11.40	273.44	36.42	-28.7	-31.0	13.5	4.96e-04	0	44	0	1269825536	17	4668
2026-01-29 01:30:12.40	273.08	36.30	-29.4	-32.1	12.6	4.20e-04	0	44	0	1272971264	18	4921
2026-01-29 01:30:13.41	272.72	36.18	-29.3	-31.9	12.8	8.31e-05	0	44	0	1276116992	18	4845
2026-01-29 01:30:14.41	272.36	36.06	-28.9	-30.9	13.3	2.97e-05	0	44	0	1279262720	18	4539
2026-01-29 01:30:15.41	272.01	35.94	-28.3	-30.1	14.1	1.50e-06	0	44	0	1282408448	17	4388
2026-01-29 01:30:16.42	271.66	35.82	-28.2	-29.7	14.4	0.00e+00	0	44	0	1285554176	17	4276
2026-01-29 01:30:17.42	271.31	35.70	-28.2	-30.2	14.4	2.43e-03	0	44	0	1288699904	16	4542
2026-01-29 01:30:18.43	270.96	35.57	-28.2	-30.2	14.4	1.81e-03	0	44	0	1291845632	16	4539
2026-01-29 01:30:19.43	270.62	35.45	-28.5	-30.4	13.9	1.50e-06	0	44	0	1294991360	17	4492
2026-01-29 01:30:20.44	270.28	35.32	-28.9	-31.3	13.4	7.60e-06	0	44	0	1298137088	17	4777
2026-01-29 01:30:21.44	269.94	35.20	-29.2	-31.8	12.8	6.63e-05	0	44	0	1300234240	18	4809
2026-01-29 01:30:22.45	269.60	35.07	-29.2	-31.7	12.9	4.65e-05	0	44	0	1303379968	18	4803
2026-01-29 01:30:23.45	269.27	34.94	-29.0	-31.3	13.1	7.77e-04	0	44	0	1306525696	18	4653
2026-01-29 01:30:24.45	268.94	34.82	-29.0	-31.1	13.3	2.36e-05	0	44	0	1310720000	18	4592
2026-01-29 01:30:25.46	268.61	34.69	-29.1	-31.4	13.1	2.51e-05	0	44	0	1313865728	18	4697
2026-01-29 01:30:26.46	268.29	34.56	-29.2	-31.5	13.0	3.58e-05	0	44	0	1317011456	18	4726
2026-01-29 01:30:27.46	267.97	34.43	-28.5	-30.9	12.9	4.34e-05	0	44	0	1320157184	18	4736
2026-01-29 01:30:28.46	267.65	34.30	-29.6	-32.1	11.9	7.85e-05	0	44	0	1322254336	19	4812
2026-01-29 01:30:29.47	267.33	34.17	-29.9	-32.9	11.8	5.40e-04	0	44	0	1325400064	19	5083
2026-01-29 01:30:30.48	267.01	34.04	-29.5	-32.0	12.2	2.48e-04	0	44	0	1328545792	19	4781
2026-01-29 01:30:31.48	266.70	33.91	-29.1	-31.4	12.9	4.73e-05	0	44	0	1331691520	18	4701
2026-01-29 01:30:32.49	266.39	33.78	-28.7	-30.9	13.6	8.30e-06	0	44	0	1334837248	17	4637
2026-01-29 01:30:33.49	266.08	33.65	-28.5	-30.4	14.0	4.50e-06	0	44	0	1337982976	17	4481
2026-01-29 01:30:34.50	265.78	33.51	-28.5	-30.3	14.0	7.00e-07	0	44	0	1341128704	17	4470
2026-01-29 01:30:35.50	265.48	33.38	-28.5	-30.4	13.9	0.00e+00	0	44	0	1344274432	17	4475
2026-01-29 01:30:36.50	265.18	33.25	-28.4	-30.2	14.0	3.80e-06	0	44	0	1347420160	17	4432
2026-01-29 01:30:37.50	264.88	33.12	-28.3	-30.0	14.1	3.00e-06	0	44	0	1350565888	17	4384
2026-01-29 01:30:38.51	264.59	32.98	-28.5	-30.6	13.8	3.00e-06	0	44	0	1353711616	17	4546
2026-01-29 01:30:39.51	264.29	32.85	-28.5	-30.5	13.9	3.69e-04	0	44	0	1356857344	17	4519
2026-01-29 01:30:40.52	264.00	32.71	-28.1	-30.0	14.5	1.50e-06	0	44	0	1360003072	16	4479
2026-01-29 01:30:41.52	263.72	32.58	-27.4	-29.0	15.1	0.00e+00	0	44	0	1363148800	15	4309
2026-01-29 01:30:42.52	263.43	32.45	-27.1	-28.7	15.5	1.48e-03	0	44	0	1366294528	14	4343
2026-01-29 01:30:43.53	263.15	32.31	-26.9	-28.3	15.8	2.07e-03	0	44	0	1369440256	14	4227
2026-01-29 01:30:44.53	262.87	32.18	-26.7	-28.3	16.0	0.00e+00	0	44	0	1372585984	13	4331
2026-01-29 01:30:45.54	262.59	32.04	-26.7	-28.3	16.1	0.00e+00	0	44	0	1375731712	13	4325
2026-01-29 01:30:46.54	262.31	31.91	-26.9	-28.7	15.8	0.00e+00	0	44	0	1378877440	13	4449
2026-01-29 01:30:47.55	262.04	31.77	-27.2	-29.0	15.4	0.00e+00	0	44	0	1382023168	14	4438
2026-01-29 01:30:48.56	261.77	31.63	-27.4	-29.5	15.1	3.44e-03	0	44	0	1385168896	14	4567
2026-01-29 01:30:49.56	261.50	31.50	-27.4	-29.0	15.1	3.42e-03	0	44	0	1388314624	15	4323
2026-01-29 01:30:50.57	261.23	31.36	-27.4	-28.8	15.2	0.00e+00	0	44	0	1391460352	15	4269
2026-01-29 01:30:51.57	260.97	31.23	-27.2	-29.0	15.3	7.00e-07	0	44	0	1394606080	14	4431
2026-01-29 01:30:52.57	260.70	31.09	-27.3	-29.2	15.3	2.71e-03	0	44	0	1397751808	14	4496
2026-01-29 01:30:53.58	260.44	30.96	-27.2	-28.9	15.4	0.00e+00	0	44	0	1400897536	14	4410
2026-01-29 01:30:54.59	260.18	30.82	-27.1	-28.8	15.5	1.69e-03	0	44	0	1404043264	14	4361
2026-01-29 01:30:55.59	259.93	30.68	-27.2	-28.9	15.4	8.42e-04	0	44	0	1407188992	14	4396
2026-01-29 01:30:56.59	259.68	30.55	-27.2	-28.9	15.4	0.00e+00	0	44	0	1410334720	14	4401
2026-01-29 01:30:57.59	259.43	30.41	-27.1	-28.8	15.5	2.60e-04	0	44	0	1413480448	14	4361
2026-01-29 01:30:58.60	259.18	30.28	-26.9	-28.3	15.8	4.03e-04	0	44	0	1416626176	14	4228
2026-01-29 01:30:59.60	258.93	30.14	-26.6	-28.2	16.0	0.00e+00	0	44	0	1419771904	13	4323
2026-01-29 01:31:00.60	258.68	30.01	-26.5	-27.9	16.2	7.47e-04	0	44	0	1422917632	13	4218
2026-01-29 01:31:01.60	258.44	29.87	-26.6	-28.2	16.1	2.20e-06	0	44	0	1426063360	13	4311
2026-01-29 01:31:02.61	258.20	29.74	-26.7	-28.5	15.9	0.00e+00	0	44	0	1429209088	13	4385
2026-01-29 01:31:03.61	257.96	29.60	-26.9	-28.8	15.8	1.80e-04	0	44	0	1432354816	13	4475
2026-01-29 01:31:04.62	257.72	29.46	-27.1	-28.7	15.6	0.00e+00	0	44	0	1435500544	14	4344
2026-01-29 01:31:05.62	257.49	29.33	-27.2	-29.0	15.4	0.00e+00	0	44	0	1438646272	14	4442
2026-01-29 01:31:06.62	257.26	29.20	-27.3	-29.3	15.2	0.00e+00	0	44	0	1441792000	14	4515
2026-01-29 01:31:07.63	257.02	29.06	-27.4	-29.5	15.0	4.50e-06	0	44	0	1444937728	14	4588
2026-01-29 01:31:08.63	256.80	28.93	-27.4	-29.4	15.1	0.00e+00	0	44	0	1448083456	14	4549
2026-01-29 01:31:09.63	256.57	28.79	-27.2	-28.9	15.4	0.00e+00	0	44	0	1451229184	14	4396
2026-01-29 01:31:10.64	256.34	28.66	-26.8	-28.2	15.8	5.30e-06	0	44	0	1454374912	14	4195
2026-01-29 01:31:11.64	256.12	28.52	-26.6	-27.6	16.1	0.00e+00	0	44	0	1457520640	14	4054
2026-01-29 01:31:12.65	255.90	28.39	-26.3	-27.5	16.4	0.00e+00	0	44	0	1460666368	13	4119
2026-01-29 01:31:13.65	255.68	28.25	-26.2	-27.3	16.5	6.80e-06	0	44	0	1463812096	13	4065
2026-01-29 01:31:14.65	255.46	28.12	-26.3	-27.9	16.4	0.00e+00	0	44	0	1466957824	12	4353
2026-01-29 01:31:15.65	255.25	27.99	-26.4	-28.2	16.3	0.00e+00	0	44	0	1470103552	12	4418
2026-01-29 01:31:16.65	255.03	27.85	-26.5	-28.0	16.1	5.30e-06	0	44	0	1473249280	13	4258
2026-01-29 01:31:17.65	254.82	27.72	-26.8	-28.6	15.7	0.00e+00	0	44	0	1476395008	13	4429
2026-01-29 01:31:18.66	254.61	27.59	-26.9	-28.9	15.6	0.00e+00	0	44	0	1479540736	13	4515
2026-01-29 01:31:19.66	254.40	27.45	-27.0	-28.6	15.5	0.00e+00	0	44	0	1482686464	14	4327
2026-01-29 01:31:20.66	254.20	27.32	-27.1	-28.7	15.4	3.10e-04	0	44	0	1485832192	14	4353
2026-01-29 01:31:21.67	253.99	27.19	-27.1	-28.8	15.4	0.00e+00	0	44	0	1488977920	14	4378
2026-01-29 01:31:22.67	253.79	27.06	-27.0	-28.6	15.5	6.80e-06	0	44	0	1492123648	14	4324
2026-01-29 01:31:23.68	253.58	26.92	-26.8	-28.6	15.7	0.00e+00	0	44	0	1495269376	13	4431
2026-01-29 01:31:24.68	253.38	26.79	-26.6	-28.1	16.0	0.00e+00	0	44	0	1498415104	13	4288
2026-01-29 01:31:25.68	253.19	26.66	-26.3	-27.6	16.3	2.98e-03	0	44	0	1501560832	13	4147
2026-01-29 01:31:26.69	252.99	26.53	-26.4	-28.3	16.2	0.00e+00	0	44	0	1504706560	12	4442
2026-01-29 01:31:27.69	252.79	26.40	-26.6	-28.2	15.9	0.00e+00	0	44	0	1507852288	13	4323
2026-01-29 01:31:28.70	252.60	26.27	-27.1	-28.8	15.4	0.00e+00	0	44	0	1510998016	14	4384
2026-01-29 01:31:29.70	252.41	26.14	-27.3	-29.2	15.1	2.70e-03	0	44	0	1514143744	14	4504
2026-01-29 01:31:30.70	252.22	26.01	-27.6	-29.4	14.7	0.00e+00	0	44	0	1517289472	15	4453
2026-01-29 01:31:31.71	252.03	25.88	-27.6	-29.5	14.6	1.21e-03	0	44	0	1520435200	15	4491
2026-01-29 01:31:32.71	251.84	25.75	-27.4	-29.0	14.9	7.00e-07	0	44	0	1523580928	15	4338
2026-01-29 01:31:33.71	251.66	25.62	-27.2	-28.5	15.2	0.00e+00	0	44	0	1526726656	15	4202
2026-01-29 01:31:34.72	251.47	25.49	-27.1	-28.2	15.4	7.17e-05	0	44	0	1529872384	15	4118
2026-01-29 01:31:35.73	251.29	25.36	-26.9	-27.9	15.5	0.00e+00	0	44	0	1533018112	15	4040
2026-01-29 01:31:36.73	251.11	25.23	-26.8	-27.7	15.6	0.00e+00	0	44	0	1536163840	15	3988
2026-01-29 01:31:37.73	250.93	25.10	-26.9	-27.9	15.6	0.00e+00	0	44	0	1539309568	15	4015
2026-01-29 01:31:38.73	250.75	24.98	-26.8	-28.0	15.8	0.00e+00	0	44	0	1542455296	14	4162
2026-01-29 01:31:39.74	250.57	24.85	-26.7	-27.9	15.9	0.00e+00	0	44	0	1545601024	14	4118
2026-01-29 01:31:40.75	250.39	24.72	-26.9	-28.4	15.6	9.65e-04	0	44	0	1548746752	14	4255
2026-01-29 01:31:41.75	250.22	24.59	-26.8	-28.6	15.6	2.46e-03	0	44	0	1551892480	13	4447
2026-01-29 01:31:42.75	250.05	24.47	-27.0	-29.0	15.5	0.00e+00	0	44	0	1555038208	13	4546
2026-01-29 01:31:43.75	249.88	24.34	-26.9	-28.3	15.6	3.48e-03	0	44	0	1558183936	14	4239
2026-01-29 01:31:44.75	249.71	24.22	-26.7	-28.4	15.8	4.27e-03	0	44	0	1561329664	13	4390
2026-01-29 01:31:45.75	249.54	24.09	-26.8	-28.7	15.6	3.14e-04	0	44	0	1564475392	13	4457
2026-01-29 01:31:46.75	249.38	23.97	-27.0	-29.1	15.4	4.65e-03	0	44	0	1567621120	13	4575
2026-01-29 01:31:47.76	249.21	23.84	-26.8	-28.6	15.7	4.61e-03	0	44	0	1570766848	13	4427
2026-01-29 01:31:48.77	249.04	23.71	-26.7	-28.4	15.8	7.03e-04	0	44	0	1573912576	13	4384
2026-01-29 01:31:49.76	248.88	23.59	-26.7	-28.3	15.8	0.00e+00	0	44	0	1577058304	13	4359
2026-01-29 01:31:50.77	248.72	23.47	-26.6	-28.2	15.9	4.17e-03	0	44	0	1580204032	13	4324
2026-01-29 01:31:51.77	248.56	23.34	-26.9	-28.8	15.6	4.13e-04	0	44	0	1583349760	13	4498
2026-01-29 01:31:52.78	248.40	23.22	-26.8	-28.6	15.7	4.16e-03	0	44	0	1586495488	13	4423
2026-01-29 01:31:53.79	248.24	23.10	-27.0	-29.0	15.4	0.00e+00	0	44	0	1589641216	13	4542
2026-01-29 01:31:54.79	248.08	22.97	-27.1	-28.8	15.3	0.00e+00	0	44	0	1592786944	14	4376
2026-01-29 01:31:55.79	247.93	22.85	-26.9	-28.9	15.5	4.44e-03	0	44	0	1595932672	13	4515
2026-01-29 01:31:56.80	247.77	22.73	-26.8	-28.5	15.7	3.96e-03	0	44	0	1599078400	13	4425
2026-01-29 01:31:57.80	247.62	22.61	-26.9	-28.8	15.6	0.00e+00	0	44	0	1602224128	13	4488
2026-01-29 01:31:58.81	247.47	22.49	-26.8	-28.7	15.5	0.00e+00	0	44	0	1605369856	13	4471
2026-01-29 01:31:59.81	247.32	22.37	-27.1	-28.7	15.3	0.00e+00	0	44	0	1608515584	14	4356
2026-01-29 01:32:00.81	247.17	22.25	-27.3	-29.3	15.0	0.00e+00	0	44	0	1611661312	14	4525
2026-01-29 01:32:01.81	247.02	22.13	-27.0	-28.6	15.4	0.00e+00	0	44	0	1614807040	14	4314
2026-01-29 01:32:02.81	246.88	22.01	-26.7	-28.4	14.4	4.19e-04	0	44	0	1617952768	13	4373
2026-01-29 01:32:03.82	246.73	21.89	-26.5	-28.0	15.7	0.00e+00	0	44	0	1621098496	13	4258
2026-01-29 01:32:04.82	246.58	21.77	-26.4	-28.2	16.1	0.00e+00	0	44	0	1624244224	12	4426
2026-01-29 01:32:05.83	246.44	21.65	-26.4	-28.3	16.0	0.00e+00	0	44	0	1627389952	12	4474
2026-01-29 01:32:06.83	246.30	21.53	-26.5	-28.0	15.9	3.58e-04	0	44	0	1630535680	13	4268
2026-01-29 01:32:07.83	246.16	21.42	-26.6	-28.2	15.8	5.26e-04	0	44	0	1633681408	13	4329
2026-01-29 01:32:08.84	246.01	21.30	-26.5	-28.0	15.9	0.00e+00	0	44	0	1636827136	13	4282
2026-01-29 01:32:09.84	245.88	21.18	-26.5	-27.9	15.9	0.00e+00	0	44	0	1639972864	13	4258
2026-01-29 01:32:10.84	245.74	21.06	-26.5	-28.0	15.9	0.00e+00	0	44	0	1643118592	13	4275
2026-01-29 01:32:11.85	245.60	20.95	-26.5	-28.0	15.9	2.82e-05	0	44	0	1645215744	13	4263
2026-01-29 01:32:12.86	245.46	20.83	-26.7	-28.4	15.7	3.04e-04	0	44	0	1649410048	13	4376
2026-01-29 01:32:13.85	245.33	20.72	-26.6	-28.2	15.8	0.00e+00	0	44	0	1652555776	13	4326
2026-01-29 01:32:14.86	245.19	20.60	-26.8	-28.6	15.5	0.00e+00	0	44	0	1655701504	13	4439
2026-01-29 01:32:15.86	245.06	20.49	-26.7	-28.4	15.6	1.50e-06	0	44	0	1658847232	13	4386
2026-01-29 01:32:16.86	244.93	20.37	-26.7	-28.5	15.6	0.00e+00	0	44	0	1661992960	13	4426
2026-01-29 01:32:17.86	244.80	20.26	-26.9	-28.9	15.4	2.37e-03	0	44	0	1665138688	13	4516
2026-01-29 01:32:18.87	244.67	20.14	-26.8	-28.8	15.4	2.38e-03	0	44	0	1668284416	13	4489
2026-01-29 01:32:19.86	244.54	20.03	-26.8	-28.6	15.5	0.00e+00	0	44	0	1670381568	13	4443
2026-01-29 01:32:20.86	244.41	19.92	-26.8	-28.7	15.5	2.46e-03	0	44	0	1673527296	13	4472
2026-01-29 01:32:21.86	244.29	19.81	-26.7	-28.4	15.6	2.45e-03	0	44	0	1676673024	13	4395
2026-01-29 01:32:22.86	244.16	19.69	-26.7	-28.3	15.7	0.00e+00	0	44	0	1679818752	13	4372
2026-01-29 01:32:23.86	244.04	19.58	-26.8	-28.7	15.5	2.39e-03	0	44	0	1682964480	13	4458
2026-01-29 01:32:24.86	243.91	19.47	-26.8	-28.7	15.4	0.00e+00	0	44	0	1686110208	13	4481
2026-01-29 01:32:25.87	243.79	19.36	-26.9	-28.9	15.3	0.00e+00	0	44	0	1689255936	13	4537
2026-01-29 01:32:26.87	243.67	19.25	-26.9	-28.9	15.4	1.98e-03	0	44	0	1692401664	13	4527
2026-01-29 01:32:27.88	243.54	19.14	-26.9	-28.9	15.3	1.88e-03	0	44	0	1695547392	13	4542
2026-01-29 01:32:28.89	243.42	19.02	-27.1	-28.8	15.1	0.00e+00	0	44	0	1698693120	14	4403
2026-01-29 01:32:29.89	243.30	18.92	-27.4	-29.5	14.8	1.28e-03	0	44	0	1701838848	14	4579
2026-01-29 01:32:30.90	243.18	18.80	-27.2	-29.0	15.0	1.07e-03	0	44	0	1704984576	14	4446
2026-01-29 01:32:31.90	243.06	18.70	-27.1	-28.8	15.1	0.00e+00	0	44	0	1708130304	14	4375
2026-01-29 01:32:32.90	242.95	18.59	-27.1	-28.8	15.1	8.09e-04	0	44	0	1711276032	14	4375
2026-01-29 01:32:33.90	242.83	18.48	-27.3	-29.2	14.9	6.40e-04	0	44	0	1714421760	14	4503
2026-01-29 01:32:34.89	242.72	18.37	-27.1	-28.9	15.0	0.00e+00	0	44	0	1717567488	14	4421
2026-01-29 01:32:35.89	242.60	18.27	-27.0	-28.5	15.2	6.45e-04	0	44	0	1720713216	14	4314
2026-01-29 01:32:36.89	242.49	18.16	-26.9	-28.8	15.3	6.26e-04	0	44	0	1723858944	13	4492
2026-01-29 01:32:37.90	242.38	18.05	-26.9	-28.9	15.3	0.00e+00	0	44	0	1727004672	13	4514
2026-01-29 01:32:38.90	242.26	17.94	-27.2	-29.1	14.9	6.12e-04	0	44	0	1730150400	14	4477
2026-01-29 01:32:39.90	242.15	17.84	-27.0	-28.6	15.2	7.00e-07	0	44	0	1733296128	14	4338
2026-01-29 01:32:40.91	242.04	17.73	-26.8	-28.6	15.4	0.00e+00	0	44	0	1736441856	13	4457
2026-01-29 01:32:41.92	241.93	17.62	-26.9	-28.8	15.3	8.25e-04	0	44	0	1739587584	13	4509
2026-01-29 01:32:42.93	241.82	17.52	-27.1	-29.0	15.0	9.74e-04	0	44	0	1742733312	14	4435
2026-01-29 01:32:43.93	241.71	17.41	-26.9	-28.4	15.3	0.00e+00	0	44	0	1745879040	14	4280
2026-01-29 01:32:44.94	241.60	17.31	-26.7	-28.4	15.5	0.00e+00	0	44	0	1749024768	13	4401
2026-01-29 01:32:45.95	241.50	17.20	-26.9	-29.0	15.2	0.00e+00	0	44	0	1752170496	13	4555
2026-01-29 01:32:46.95	241.39	17.10	-27.0	-29.1	15.1	7.00e-07	0	44	0	1755316224	13	4600
2026-01-29 01:32:47.95	241.29	17.00	-27.2	-29.1	14.8	0.00e+00	0	44	0	1758461952	14	4488
2026-01-29 01:32:48.95	241.18	16.89	-27.1	-28.9	14.9	1.03e-03	0	44	0	1761607680	14	4419
2026-01-29 01:32:49.96	241.08	16.79	-27.3	-29.3	14.7	0.00e+00	0	44	0	1764753408	14	4532
2026-01-29 01:32:50.97	240.97	16.69	-27.3	-29.3	14.7	0.00e+00	0	44	0	1767899136	14	4553
2026-01-29 01:32:51.97	240.87	16.58	-27.4	-29.6	14.5	7.00e-07	0	44	0	1771044864	14	4626
2026-01-29 01:32:52.98	240.77	16.48	-27.3	-29.4	14.6	7.00e-07	0	44	0	1774190592	14	4570
2026-01-29 01:32:53.98	240.67	16.38	-27.2	-29.2	14.8	5.45e-04	0	44	0	1777336320	14	4509
2026-01-29 01:32:54.99	240.57	16.28	-27.2	-29.1	14.8	0.00e+00	0	44	0	1780482048	14	4482
2026-01-29 01:32:55.99	240.47	16.18	-27.2	-29.1	14.8	0.00e+00	0	44	0	1783627776	14	4486
2026-01-29 01:32:56.99	240.37	16.08	-27.2	-29.0	14.8	0.00e+00	0	44	0	1786773504	14	4458
2026-01-29 01:32:58.00	240.27	15.98	-27.1	-29.0	14.9	0.00e+00	0	44	0	1789919232	14	4442
2026-01-29 01:32:59.01	240.17	15.87	-27.2	-29.1	12.3	7.00e-07	0	44	0	1793064960	14	4484
2026-01-29 01:33:00.01	240.08	15.78	-27.0	-29.1	14.9	1.54e-03	0	44	0	1796210688	13	4615
2026-01-29 01:33:01.02	239.98	15.68	-26.9	-29.0	14.9	0.00e+00	0	44	0	1799356416	13	4586
2026-01-29 01:33:02.03	239.88	15.58	-26.9	-28.9	15.1	0.00e+00	0	44	0	1802502144	13	4543
2026-01-29 01:33:03.04	239.79	15.48	-26.9	-28.9	15.1	0.00e+00	0	44	0	1805647872	13	4551
2026-01-29 01:33:04.03	239.69	15.38	-26.9	-28.8	15.1	0.00e+00	0	44	0	1808793600	13	4527
2026-01-29 01:33:05.04	239.60	15.28	-26.9	-28.9	15.1	3.99e-03	0	44	0	1811939328	13	4554
2026-01-29 01:33:06.03	239.51	15.18	-27.1	-28.8	14.9	0.00e+00	0	44	0	1815085056	14	4408
2026-01-29 01:33:07.04	239.42	15.09	-26.9	-28.9	15.1	0.00e+00	0	44	0	1818230784	13	4556
2026-01-29 01:33:08.05	239.32	14.99	-26.8	-28.8	15.2	7.00e-07	0	44	0	1821376512	13	4505
2026-01-29 01:33:09.05	239.23	14.89	-26.9	-28.8	15.1	0.00e+00	0	44	0	1824522240	13	4522
2026-01-29 01:33:10.06	239.14	14.79	-27.0	-29.2	14.9	3.23e-04	0	44	0	1827667968	13	4624
2026-01-29 01:33:11.07	239.05	14.70	-26.9	-28.9	15.1	1.88e-04	0	44	0	1830813696	13	4529
2026-01-29 01:33:12.07	238.96	14.60	-26.8	-28.8	15.1	0.00e+00	0	44	0	1833959424	13	4513
2026-01-29 01:33:13.07	238.87	14.51	-26.9	-29.0	15.0	0.00e+00	0	44	0	1837105152	13	4560
2026-01-29 01:33:14.07	238.78	14.41	-26.9	-28.8	15.1	0.00e+00	0	44	0	1840250880	13	4525
2026-01-29 01:33:15.07	238.70	14.32	-27.1	-29.0	14.8	7.00e-07	0	44	0	1843396608	14	4447
2026-01-29 01:33:16.08	238.61	14.22	-27.4	-29.7	14.3	1.58e-04	0	44	0	1846542336	14	4678
2026-01-29 01:33:17.09	238.52	14.13	-27.3	-29.3	14.5	3.11e-04	0	44	0	1849688064	14	4547
2026-01-29 01:33:18.09	238.44	14.03	-27.2	-29.1	14.7	0.00e+00	0	44	0	1852833792	14	4480
2026-01-29 01:33:19.10	238.35	13.94	-27.1	-28.9	14.8	2.05e-03	0	44	0	1855979520	14	4435
2026-01-29 01:33:20.10	238.27	13.84	-27.1	-29.0	14.7	2.93e-03	0	44	0	1859125248	14	4463
2026-01-29 01:33:21.10	238.18	13.75	-27.2	-29.2	14.6	0.00e+00	0	44	0	1862270976	14	4516
2026-01-29 01:33:22.11	238.10	13.66	-27.4	-29.5	14.4	3.34e-03	0	44	0	1865416704	14	4622
2026-01-29 01:33:23.11	238.02	13.57	-27.3	-29.5	14.4	4.00e-03	0	44	0	1868562432	14	4619
2026-01-29 01:33:24.11	237.93	13.47	-27.4	-29.6	14.3	1.50e-06	0	44	0	1871708160	14	4657
2026-01-29 01:33:25.11	237.85	13.38	-27.5	-29.4	14.1	4.14e-03	0	44	0	1874853888	15	4475
2026-01-29 01:33:26.11	237.77	13.29	-27.4	-29.7	14.2	3.94e-03	0	44	0	1877999616	14	4692
2026-01-29 01:33:27.12	237.69	13.20	-27.4	-29.8	14.2	1.50e-06	0	44	0	1881145344	14	4704
2026-01-29 01:33:28.11	237.61	13.11	-27.5	-29.8	14.1	3.96e-03	0	44	0	1884291072	14	4721
2026-01-29 01:33:29.12	237.53	13.02	-27.5	-29.5	14.0	0.00e+00	0	44	0	1887436800	15	4507
2026-01-29 01:33:30.12	237.45	12.93	-27.7	-29.9	13.7	1.50e-06	0	44	0	1890582528	15	4650
2026-01-29 01:33:31.12	237.37	12.84	-27.5	-29.4	14.1	3.81e-03	0	44	0	1893728256	15	4486
2026-01-29 01:33:32.12	237.29	12.75	-27.4	-29.6	14.2	4.31e-03	0	44	0	1896873984	14	4655
2026-01-29 01:33:33.13	237.21	12.66	-27.4	-29.7	14.2	7.60e-06	0	44	0	1900019712	14	4676
2026-01-29 01:33:34.14	237.13	12.57	-27.3	-29.4	14.3	3.00e-06	0	44	0	1903165440	14	4598
2026-01-29 01:33:35.14	237.06	12.48	-27.3	-29.5	14.3	3.99e-03	0	44	0	1906311168	14	4624
2026-01-29 01:33:36.14	236.98	12.39	-27.2	-29.3	14.4	4.50e-06	0	44	0	1909456896	14	4562
2026-01-29 01:33:37.15	236.90	12.30	-27.2	-29.2	14.4	4.03e-03	0	44	0	1912602624	14	4542
2026-01-29 01:33:38.15	236.83	12.21	-27.2	-29.2	14.5	7.60e-06	0	44	0	1915748352	14	4537
2026-01-29 01:33:39.15	236.75	12.12	-27.3	-29.4	14.3	7.00e-07	0	44	0	1918894080	14	4601
2026-01-29 01:33:40.15	236.68	12.04	-27.4	-29.7	14.1	3.48e-03	0	44	0	1922039808	14	4694
2026-01-29 01:33:41.15	236.61	11.95	-27.3	-29.4	14.3	3.94e-03	0	44	0	1925185536	14	4598
2026-01-29 01:33:42.15	236.53	11.86	-27.3	-29.4	14.3	3.80e-06	0	44	0	1928331264	14	4609
2026-01-29 01:33:43.15	236.46	11.77	-27.3	-29.5	14.3	2.20e-06	0	44	0	1931476992	14	4622
2026-01-29 01:33:44.15	236.39	11.69	-27.3	-29.5	14.3	2.20e-06	0	44	0	1934622720	14	4617
2026-01-29 01:33:45.15	236.31	11.60	-27.4	-29.6	14.2	0.00e+00	0	44	0	1937768448	14	4663
2026-01-29 01:33:46.16	236.24	11.51	-27.5	-29.8	14.1	3.80e-06	0	44	0	1940914176	14	4716
2026-01-29 01:33:47.16	236.17	11.43	-27.4	-29.7	14.1	3.17e-03	0	44	0	1944059904	14	4676
2026-01-29 01:33:48.16	236.10	11.34	-27.6	-29.7	13.8	3.00e-06	0	44	0	1947205632	15	4574
2026-01-29 01:33:49.17	236.03	11.26	-27.8	-30.3	13.5	1.22e-05	0	44	0	1950351360	15	4756
2026-01-29 01:33:50.18	235.96	11.17	-27.6	-29.7	13.8	1.80e-04	0	44	0	1953497088	15	4575
2026-01-29 01:33:51.19	235.89	11.09	-27.5	-29.4	13.9	1.94e-04	0	44	0	1956642816	15	4494
2026-01-29 01:33:52.19	235.82	11.00	-27.4	-29.3	14.0	1.13e-03	0	44	0	1959788544	15	4455
2026-01-29 01:33:53.19	235.75	10.92	-27.5	-29.8	14.0	3.00e-06	0	44	0	1962934272	14	4731
2026-01-29 01:33:54.20	235.68	10.83	-27.5	-29.4	14.0	1.50e-06	0	44	0	1966080000	15	4494
2026-01-29 01:33:55.20	235.61	10.75	-27.5	-29.5	13.9	3.80e-06	0	44	0	1969225728	15	4507
2026-01-29 01:33:56.21	235.54	10.66	-27.5	-29.6	13.9	2.12e-04	0	44	0	1972371456	15	4536
2026-01-29 01:33:57.21	235.48	10.58	-27.7	-29.8	13.7	2.76e-04	0	44	0	1975517184	15	4622
2026-01-29 01:33:58.22	235.41	10.50	-27.6	-29.7	13.7	3.00e-06	0	44	0	1978662912	15	4586
2026-01-29 01:33:59.23	235.34	10.41	-27.7	-29.9	13.6	1.14e-05	0	44	0	1981808640	15	4655
2026-01-29 01:34:00.23	235.28	10.33	-27.7	-29.9	13.7	4.21e-04	0	44	0	1984954368	15	4630
2026-01-29 01:34:01.24	235.21	10.25	-27.8	-30.1	13.5	9.10e-06	0	44	0	1988100096	15	4719
2026-01-29 01:34:02.24	235.14	10.16	-27.9	-30.4	13.3	6.32e-04	0	44	0	1991245824	15	4813
2026-01-29 01:34:03.24	235.08	10.08	-27.8	-30.2	13.4	6.23e-04	0	44	0	1993342976	15	4746
2026-01-29 01:34:04.25	235.01	10.00	-27.8	-30.1	13.5	1.06e-05	0	44	0	1997537280	15	4714
2026-01-29 01:34:05.26	234.95	9.92	-27.8	-30.2	13.4	6.32e-04	0	44	0	2000683008	15	4740
2026-01-29 01:34:06.27	234.88	9.84	-27.9	-30.4	13.3	6.16e-04	0	44	0	2003828736	15	4815
2026-01-29 01:34:07.28	234.82	9.75	-28.2	-30.6	13.1	3.20e-05	0	44	0	2006974464	16	4748
2026-01-29 01:34:08.29	234.76	9.67	-28.2	-30.7	13.0	6.55e-04	0	44	0	2010120192	16	4790
2026-01-29 01:34:09.29	234.69	9.59	-28.2	-30.7	13.0	3.66e-05	0	44	0	2013265920	16	4766
2026-01-29 01:34:10.30	234.63	9.51	-28.2	-30.7	13.0	3.50e-05	0	44	0	2015363072	16	4786
2026-01-29 01:34:11.30	234.57	9.43	-28.3	-30.9	12.9	5.02e-04	0	44	0	2019557376	16	4833
2026-01-29 01:34:12.30	234.51	9.35	-28.3	-31.0	12.7	4.96e-04	0	44	0	2022703104	16	4864
2026-01-29 01:34:13.31	234.45	9.27	-28.4	-31.0	12.7	6.10e-05	0	44	0	2025848832	16	4887
2026-01-29 01:34:14.32	234.38	9.19	-28.5	-30.8	12.5	1.08e-04	0	44	0	2028994560	17	4717
2026-01-29 01:34:15.32	234.32	9.11	-28.3	-30.4	12.8	6.79e-05	0	44	0	2032140288	17	4590
2026-01-29 01:34:16.33	234.26	9.03	-28.2	-30.2	12.9	3.81e-05	0	44	0	2035286016	17	4517
2026-01-29 01:34:17.33	234.20	8.95	-28.3	-30.9	12.8	3.79e-04	0	44	0	2038431744	16	4853
2026-01-29 01:34:18.34	234.14	8.87	-28.3	-30.9	12.8	3.58e-04	0	44	0	2040528896	16	4865
2026-01-29 01:34:19.34	234.08	8.80	-28.3	-30.9	12.8	7.09e-05	0	44	0	2043674624	16	4862
2026-01-29 01:34:20.35	234.02	8.72	-28.4	-31.0	12.7	8.92e-05	0	44	0	2046820352	16	4898
2026-01-29 01:34:21.35	233.97	8.64	-28.3	-31.0	12.7	7.55e-05	0	44	0	2051014656	16	4887
2026-01-29 01:34:22.36	233.91	8.56	-28.4	-31.2	12.5	1.06e-04	0	44	0	2054160384	16	4962
2026-01-29 01:34:23.37	233.85	8.48	-28.4	-31.2	12.6	9.30e-05	0	44	0	2057306112	16	4945
2026-01-29 01:34:24.37	233.79	8.41	-28.5	-31.3	12.4	1.29e-04	0	44	0	2060451840	16	5007
2026-01-29 01:34:25.38	233.73	8.33	-28.6	-31.2	12.2	2.28e-04	0	44	0	2062548992	17	4853
2026-01-29 01:34:26.38	233.68	8.25	-28.6	-31.2	12.2	2.28e-04	0	44	0	2065694720	17	4868
2026-01-29 01:34:27.38	233.62	8.18	-28.6	-31.3	12.2	2.06e-04	0	44	0	2068840448	17	4875
2026-01-29 01:34:28.38	233.56	8.10	-28.7	-31.4	12.0	3.29e-04	0	44	0	2071986176	17	4931
2026-01-29 01:34:29.39	233.51	8.02	-28.6	-31.2	12.1	2.58e-04	0	44	0	2075131904	17	4852
2026-01-29 01:34:30.40	233.45	7.95	-28.7	-31.3	12.1	2.30e-04	0	44	0	2078277632	17	4895
2026-01-29 01:34:31.40	233.40	7.87	-28.7	-31.5	12.0	3.06e-04	0	44	0	2081423360	17	4955
2026-01-29 01:34:32.40	233.34	7.79	-28.7	-31.4	12.1	3.07e-04	0	44	0	2085617664	17	4916
2026-01-29 01:34:33.41	233.29	7.72	-28.7	-31.3	12.0	2.94e-04	0	44	0	2087714816	17	4904
2026-01-29 01:34:34.41	233.23	7.64	-28.7	-31.4	12.0	1.70e-03	0	44	0	2090860544	17	4922
2026-01-29 01:34:35.41	233.18	7.57	-28.7	-31.4	12.0	3.39e-04	0	44	0	2094006272	17	4923
2026-01-29 01:34:36.42	233.12	7.49	-28.7	-31.4	12.0	3.17e-04	0	44	0	2097152000	17	4925
2026-01-29 01:34:37.42	233.07	7.42	-28.8	-31.6	11.9	3.91e-04	0	44	0	2100297728	17	4988
2026-01-29 01:34:38.42	233.02	7.34	-28.7	-31.4	12.0	3.56e-04	0	44	0	2103443456	17	4926
2026-01-29 01:34:39.43	232.96	7.27	-28.7	-31.6	11.9	2.99e-03	0	44	0	2106589184	17	4993
2026-01-29 01:34:40.44	232.91	7.19	-28.8	-31.6	11.8	3.16e-03	0	44	0	2109734912	17	5015
2026-01-29 01:34:41.44	232.86	7.12	-28.8	-31.6	11.8	4.45e-04	0	44	0	2112880640	17	5019
2026-01-29 01:34:42.45	232.80	7.05	-32.3	-41.7	4.2	1.35e-03	0	44	0	2116026368	24	10699
2026-01-29 01:34:43.45	232.75	6.97	-32.9	-45.2	3.8	1.49e+00	0	44	104	2116026368	25	14741
2026-01-29 01:34:44.46	232.70	6.90	-33.3	-45.4	3.8	1.49e+00	0	44	104	2116026368	26	14561
2026-01-29 01:34:45.47	232.65	6.82	-33.5	-45.3	3.9	1.49e+00	0	44	104	2116026368	27	14023

#Closed at: 2026-01-29 01:34:45
#Recorded file [2116 MB]: D:/data/31010_260129_042324.dat