passes_logs/2026/01/29/R2M6_AANII_01/R2M6_AANII_01__20260129_223431_NOAA_20_JPSS-1_rec.log

#Pass ID: 20260129_223431_NOAA 20 (JPSS-1)
#Satellite: NOAA 20 (JPSS-1)
#Configuration: NOAA 20
#almurnet v.1.7.20240730
#Start time: 2026-01-29 22:34:31

#Version: 2.2.20231116
#Station: R2M6_AANII_01
#Location: 30.233357 lon 59.946436 lat
#TLE: 1 43013U 17073A   26028.86313978  .00000144  00000+0  89200-4 0  9993
#TLE: 2 43013  98.7648 329.6571 0000891  20.0014 340.1197 14.19541559424709

#Time	Az	El	Level	Level2	SNR	BER	BlckErr	Temp	State	Recorded	gain1	gain2
2026-01-29 22:34:31.81	31.87	7.02	-31.9	-39.2	4.8	1.25e+00	0	41	0	0	23	8317
2026-01-29 22:34:32.81	31.98	7.08	-32.1	-40.1	4.6	1.32e+00	0	40	104	0	24	9006
2026-01-29 22:34:33.81	32.08	7.14	-32.1	-39.5	6.4	2.87e-01	0	41	0	0	24	8448
2026-01-29 22:34:34.81	32.18	7.20	-32.1	-39.7	6.3	2.57e-01	0	41	0	1048576	24	8609
2026-01-29 22:34:35.81	32.29	7.26	-32.1	-39.4	6.5	2.53e-01	0	41	0	3145728	24	8354
2026-01-29 22:34:36.82	32.39	7.32	-32.0	-39.0	6.9	2.03e-01	0	41	0	5242880	24	8031
2026-01-29 22:34:37.82	32.50	7.38	-32.0	-38.6	7.2	1.51e-01	0	41	0	7340032	24	7707
2026-01-29 22:34:38.83	32.60	7.44	-31.9	-38.3	7.5	1.12e-01	0	41	0	9437184	24	7468
2026-01-29 22:34:39.83	32.71	7.49	-31.9	-38.8	7.5	1.03e-01	0	41	0	10485760	23	7892
2026-01-29 22:34:40.83	32.82	7.55	-32.0	-38.5	7.5	9.95e-02	0	41	0	12582912	24	7596
2026-01-29 22:34:41.84	32.92	7.61	-32.1	-39.2	6.9	1.44e-01	0	41	0	14680064	24	8126
2026-01-29 22:34:42.85	33.03	7.68	-32.0	-38.5	7.4	1.50e-01	0	41	0	16777216	24	7637
2026-01-29 22:34:43.85	33.14	7.74	-31.8	-37.9	8.3	8.31e-02	0	41	0	17825792	23	7292
2026-01-29 22:34:44.85	33.25	7.79	-31.6	-37.0	9.0	3.94e-02	0	41	0	19922944	23	6710
2026-01-29 22:34:45.85	33.36	7.85	-31.4	-36.1	9.7	1.39e-02	0	41	0	22020096	23	6219
2026-01-29 22:34:46.86	33.47	7.92	-31.2	-35.8	10.3	7.04e-03	0	41	0	24117248	22	6166
2026-01-29 22:34:47.86	33.58	7.98	-31.1	-35.5	10.7	4.00e-03	0	41	0	26214400	22	5987
2026-01-29 22:34:48.87	33.69	8.04	-30.9	-34.9	11.1	1.94e-03	0	41	0	28311552	22	5729
2026-01-29 22:34:49.87	33.80	8.10	-30.8	-35.2	11.2	1.50e-03	0	41	0	29360128	21	5959
2026-01-29 22:34:50.88	33.91	8.16	-30.8	-35.3	11.2	1.38e-03	0	41	0	31457280	21	5992
2026-01-29 22:34:51.88	34.02	8.22	-30.9	-35.5	11.0	1.62e-03	0	41	0	33554432	21	6101
2026-01-29 22:34:52.88	34.13	8.28	-30.9	-35.4	11.1	1.67e-03	0	41	0	35651584	21	6063
2026-01-29 22:34:53.89	34.24	8.34	-30.9	-35.5	11.0	1.71e-03	0	41	0	36700160	21	6114
2026-01-29 22:34:54.89	34.36	8.40	-31.0	-35.7	10.8	2.06e-03	0	41	0	38797312	21	6212
2026-01-29 22:34:55.90	34.47	8.46	-30.9	-35.3	11.2	1.91e-03	0	41	0	40894464	21	6028
2026-01-29 22:34:56.90	34.58	8.52	-30.8	-35.0	11.4	1.34e-03	0	41	0	42991616	21	5881
2026-01-29 22:34:57.90	34.70	8.58	-30.0	-34.2	11.4	1.08e-03	0	41	0	45088768	21	5856
2026-01-29 22:34:58.91	34.81	8.64	-30.8	-35.0	11.4	9.51e-04	0	41	0	46137344	21	5878
2026-01-29 22:34:59.92	34.93	8.70	-30.9	-35.4	11.2	1.08e-03	0	41	0	48234496	21	6037
2026-01-29 22:35:00.92	35.04	8.76	-30.8	-35.1	11.3	1.24e-03	0	41	0	50331648	21	5924
2026-01-29 22:35:01.92	35.16	8.83	-30.9	-35.4	11.1	1.31e-03	0	41	0	52428800	21	6041
2026-01-29 22:35:02.92	35.28	8.89	-30.8	-35.1	11.4	1.13e-03	0	41	0	54525952	21	5882
2026-01-29 22:35:03.93	35.39	8.95	-30.8	-34.9	11.6	8.99e-04	0	42	0	55574528	21	5793
2026-01-29 22:35:04.93	35.51	9.01	-30.7	-34.8	11.6	6.90e-04	0	41	0	57671680	21	5747
2026-01-29 22:35:05.93	35.63	9.07	-30.7	-34.8	11.7	5.86e-04	0	41	0	59768832	21	5734
2026-01-29 22:35:06.94	35.75	9.13	-30.7	-34.6	11.7	5.07e-04	0	42	0	61865984	21	5680
2026-01-29 22:35:07.94	35.87	9.19	-30.7	-34.8	11.6	5.63e-04	0	42	0	63963136	21	5733
2026-01-29 22:35:08.94	35.99	9.25	-30.8	-35.0	11.5	9.35e-04	0	42	0	65011712	21	5851
2026-01-29 22:35:09.95	36.11	9.32	-30.6	-34.5	11.8	5.94e-04	0	42	0	67108864	21	5611
2026-01-29 22:35:10.95	36.23	9.38	-30.5	-34.1	12.1	3.48e-04	0	42	0	69206016	21	5448
2026-01-29 22:35:11.95	36.35	9.44	-30.5	-33.9	12.3	2.53e-04	0	42	0	71303168	21	5374
2026-01-29 22:35:12.95	36.47	9.50	-30.4	-33.8	12.4	2.04e-04	0	42	0	73400320	21	5334
2026-01-29 22:35:13.95	36.59	9.56	-30.4	-33.7	12.4	1.55e-04	0	42	0	74448896	21	5286
2026-01-29 22:35:14.96	36.71	9.62	-30.5	-34.0	12.2	1.49e-04	0	42	0	76546048	21	5405
2026-01-29 22:35:15.95	36.83	9.68	-30.4	-33.9	12.4	1.93e-04	0	42	0	78643200	21	5345
2026-01-29 22:35:16.95	36.96	9.75	-30.5	-34.0	12.2	1.91e-04	0	42	0	80740352	21	5401
2026-01-29 22:35:17.96	37.08	9.81	-30.6	-34.4	11.9	2.56e-04	0	42	0	82837504	21	5589
2026-01-29 22:35:18.97	37.20	9.87	-30.5	-34.1	12.2	2.46e-04	0	42	0	83886080	21	5449
2026-01-29 22:35:19.97	37.33	9.93	-30.4	-33.8	12.4	1.81e-04	0	42	0	85983232	21	5318
2026-01-29 22:35:20.97	37.45	9.99	-30.4	-33.7	12.5	1.46e-04	0	42	0	88080384	21	5264
2026-01-29 22:35:21.97	37.58	10.05	-30.4	-33.7	12.5	1.86e-04	0	42	0	90177536	21	5267
2026-01-29 22:35:22.97	37.71	10.12	-30.4	-33.7	12.5	1.17e-04	0	42	0	91226112	21	5281
2026-01-29 22:35:23.98	37.83	10.18	-30.4	-33.9	12.3	1.99e-04	0	42	0	93323264	21	5343
2026-01-29 22:35:24.97	37.96	10.24	-30.6	-34.3	12.1	2.04e-04	0	42	0	95420416	21	5530
2026-01-29 22:35:25.98	38.09	10.30	-30.5	-34.0	12.2	2.16e-04	0	42	0	97517568	21	5409
2026-01-29 22:35:26.98	38.22	10.36	-30.4	-33.9	12.4	1.81e-04	0	42	0	99614720	21	5357
2026-01-29 22:35:27.98	38.34	10.43	-30.5	-34.1	12.1	1.88e-04	0	42	0	100663296	21	5463
2026-01-29 22:35:28.99	38.47	10.49	-30.6	-34.3	12.1	2.84e-04	0	42	0	102760448	21	5550
2026-01-29 22:35:29.99	38.60	10.55	-30.6	-34.4	12.0	2.67e-04	0	42	0	104857600	21	5589
2026-01-29 22:35:30.99	38.73	10.61	-30.7	-34.6	11.8	4.02e-04	0	42	0	106954752	21	5671
2026-01-29 22:35:31.99	38.86	10.67	-30.7	-34.5	11.9	4.49e-04	0	42	0	109051904	21	5632
2026-01-29 22:35:33.00	39.00	10.74	-30.7	-34.7	11.9	4.43e-04	0	42	0	110100480	21	5687
2026-01-29 22:35:34.00	39.13	10.80	-30.8	-35.0	11.6	5.65e-04	0	42	0	112197632	21	5816
2026-01-29 22:35:35.01	39.26	10.86	-30.7	-34.6	11.9	5.07e-04	0	42	0	114294784	21	5648
2026-01-29 22:35:36.01	39.39	10.92	-30.8	-34.9	11.6	5.36e-04	0	42	0	116391936	21	5800
2026-01-29 22:35:37.01	39.53	10.99	-30.7	-34.5	12.0	4.52e-04	0	42	0	118489088	21	5606
2026-01-29 22:35:38.01	39.66	11.05	-30.5	-34.2	12.2	2.26e-04	0	42	0	119537664	21	5466
2026-01-29 22:35:39.01	39.80	11.11	-30.6	-34.2	12.2	2.16e-04	0	42	0	121634816	21	5467
2026-01-29 22:35:40.01	39.93	11.17	-30.5	-34.1	12.3	1.72e-04	0	42	0	123731968	21	5442
2026-01-29 22:35:41.01	40.07	11.24	-30.5	-34.0	12.3	1.77e-04	0	42	0	125829120	21	5386
2026-01-29 22:35:42.01	40.20	11.30	-30.6	-34.3	12.1	1.75e-04	0	42	0	127926272	21	5525
2026-01-29 22:35:43.01	40.34	11.36	-30.5	-34.1	12.3	2.72e-04	0	42	0	128974848	21	5448
2026-01-29 22:35:44.02	40.48	11.42	-30.5	-34.0	12.4	1.65e-04	0	42	0	131072000	21	5366
2026-01-29 22:35:45.02	40.61	11.49	-30.6	-34.2	12.2	1.57e-04	0	42	0	133169152	21	5467
2026-01-29 22:35:46.03	40.75	11.55	-30.7	-34.5	12.0	3.32e-04	0	42	0	135266304	21	5614
2026-01-29 22:35:47.03	40.89	11.61	-30.6	-34.2	12.2	2.30e-04	0	42	0	136314880	21	5450
2026-01-29 22:35:48.03	41.03	11.67	-30.6	-34.3	12.2	2.23e-04	0	42	0	138412032	21	5500
2026-01-29 22:35:49.04	41.17	11.74	-30.6	-34.4	12.1	2.36e-04	0	42	0	140509184	21	5559
2026-01-29 22:35:50.04	41.31	11.80	-30.8	-34.8	11.8	3.99e-04	0	42	0	142606336	21	5729
2026-01-29 22:35:51.04	41.46	11.86	-30.6	-34.3	12.2	2.40e-04	0	42	0	144703488	21	5487
2026-01-29 22:35:52.05	41.60	11.92	-30.5	-34.1	12.3	1.85e-04	0	42	0	145752064	21	5410
2026-01-29 22:35:53.05	41.74	11.99	-30.4	-33.8	12.5	1.27e-04	0	42	0	147849216	21	5299
2026-01-29 22:35:54.06	41.89	12.05	-30.4	-33.7	12.6	1.13e-04	0	42	0	149946368	21	5237
2026-01-29 22:35:55.06	42.03	12.11	-30.3	-33.3	12.8	8.39e-05	0	42	0	152043520	21	5096
2026-01-29 22:35:56.07	42.17	12.17	-30.2	-33.2	13.0	4.27e-05	0	42	0	154140672	21	5036
2026-01-29 22:35:57.08	42.32	12.24	-30.2	-33.2	13.0	3.20e-05	0	42	0	155189248	21	5055
2026-01-29 22:35:58.08	42.47	12.30	-30.3	-33.3	12.9	4.19e-05	0	42	0	157286400	21	5074
2026-01-29 22:35:59.07	42.61	12.36	-30.3	-33.3	13.0	4.88e-05	0	42	0	159383552	21	5095
2026-01-29 22:36:00.08	42.76	12.42	-30.4	-33.8	12.6	8.85e-05	0	42	0	161480704	21	5298
2026-01-29 22:36:01.08	42.91	12.49	-30.4	-33.6	12.7	8.23e-05	0	42	0	163577856	21	5195
2026-01-29 22:36:02.08	43.05	12.55	-30.4	-33.6	12.7	6.17e-05	0	42	0	164626432	21	5199
2026-01-29 22:36:03.09	43.20	12.61	-30.4	-33.6	12.7	7.78e-05	0	42	0	166723584	21	5226
2026-01-29 22:36:04.10	43.35	12.68	-30.5	-33.9	12.5	3.89e-04	0	42	0	168820736	21	5344
2026-01-29 22:36:05.10	43.50	12.74	-30.4	-33.8	12.6	1.14e-04	0	42	0	170917888	21	5281
2026-01-29 22:36:06.11	43.66	12.80	-30.5	-33.8	12.6	9.23e-05	0	42	0	173015040	21	5301
2026-01-29 22:36:07.12	43.81	12.86	-30.4	-34.2	12.6	3.67e-04	0	42	0	174063616	20	5581
2026-01-29 22:36:08.12	43.96	12.93	-30.4	-34.1	12.9	3.04e-04	0	42	0	176160768	20	5489
2026-01-29 22:36:09.12	44.11	12.99	-30.4	-34.0	12.8	6.10e-05	0	42	0	178257920	20	5486
2026-01-29 22:36:10.13	44.26	13.05	-30.6	-34.1	12.4	3.03e-04	0	42	0	180355072	21	5405
2026-01-29 22:36:11.13	44.42	13.11	-30.8	-34.8	12.0	4.71e-04	0	42	0	182452224	21	5682
2026-01-29 22:36:12.13	44.57	13.18	-30.7	-34.4	12.2	2.56e-04	0	42	0	183500800	21	5554
2026-01-29 22:36:13.13	44.73	13.24	-30.8	-34.9	11.8	5.87e-04	0	42	0	185597952	21	5773
2026-01-29 22:36:14.14	44.88	13.30	-30.7	-34.4	12.2	3.37e-04	0	43	0	187695104	21	5521
2026-01-29 22:36:15.14	45.04	13.36	-30.5	-34.1	12.4	1.92e-04	0	43	0	189792256	21	5396
2026-01-29 22:36:16.14	45.20	13.42	-30.5	-33.9	12.6	1.15e-04	0	43	0	191889408	21	5320
2026-01-29 22:36:17.15	45.35	13.49	-30.5	-33.8	12.6	8.77e-05	0	42	0	192937984	21	5306
2026-01-29 22:36:18.14	45.51	13.55	-30.4	-33.6	12.7	6.86e-05	0	42	0	195035136	21	5207
2026-01-29 22:36:19.14	45.67	13.61	-30.5	-33.8	12.6	7.47e-05	0	43	0	197132288	21	5281
2026-01-29 22:36:20.15	45.83	13.67	-30.5	-33.9	12.7	9.46e-05	0	43	0	199229440	21	5321
2026-01-29 22:36:21.15	45.99	13.73	-30.3	-33.4	12.9	6.25e-05	0	43	0	200278016	21	5131
2026-01-29 22:36:22.15	46.15	13.80	-30.3	-33.2	13.1	4.73e-05	0	43	0	202375168	21	5051
2026-01-29 22:36:23.15	46.31	13.86	-30.3	-33.1	13.2	3.35e-05	0	43	0	204472320	21	4998
2026-01-29 22:36:24.16	46.47	13.92	-30.3	-33.3	13.0	3.28e-05	0	43	0	206569472	21	5089
2026-01-29 22:36:25.17	46.64	13.98	-30.4	-33.5	12.9	4.57e-05	0	43	0	208666624	21	5165
2026-01-29 22:36:26.16	46.80	14.04	-30.3	-33.2	13.2	5.49e-05	0	42	0	209715200	21	5039
2026-01-29 22:36:27.17	46.96	14.11	-30.3	-33.2	13.2	2.51e-05	0	43	0	211812352	21	5035
2026-01-29 22:36:28.17	47.13	14.17	-30.2	-33.0	13.3	5.41e-05	0	43	0	213909504	21	4966
2026-01-29 22:36:29.17	47.29	14.23	-30.3	-33.2	13.2	2.51e-05	0	43	0	216006656	21	5028
2026-01-29 22:36:30.17	47.46	14.29	-30.3	-33.3	13.1	3.66e-05	0	43	0	218103808	21	5079
2026-01-29 22:36:31.17	47.62	14.35	-30.2	-32.9	13.4	2.44e-05	0	43	0	219152384	21	4932
2026-01-29 22:36:32.18	47.79	14.41	-30.2	-33.0	13.3	2.05e-05	0	43	0	221249536	21	4948
2026-01-29 22:36:33.18	47.96	14.48	-30.3	-33.3	13.1	1.90e-05	0	43	0	223346688	21	5060
2026-01-29 22:36:34.19	48.13	14.54	-30.1	-32.7	13.5	9.10e-06	0	43	0	225443840	21	4843
2026-01-29 22:36:35.19	48.30	14.60	-30.0	-32.5	13.6	4.50e-06	0	43	0	227540992	21	4761
2026-01-29 22:36:36.18	48.47	14.66	-30.0	-32.4	13.7	1.06e-05	0	43	0	228589568	21	4756
2026-01-29 22:36:37.18	48.64	14.72	-30.0	-32.4	13.7	6.10e-06	0	43	0	230686720	21	4747
2026-01-29 22:36:38.19	48.81	14.78	-30.1	-33.2	13.5	6.40e-05	0	43	0	232783872	20	5147
2026-01-29 22:36:39.20	48.98	14.84	-30.0	-32.8	13.8	5.30e-06	0	43	0	234881024	20	4976
2026-01-29 22:36:40.21	49.16	14.90	-29.8	-32.3	14.1	7.00e-07	0	43	0	236978176	20	4798
2026-01-29 22:36:41.22	49.33	14.96	-29.8	-32.3	14.1	7.00e-07	0	43	0	238026752	20	4817
2026-01-29 22:36:42.22	49.51	15.02	-29.8	-32.3	14.2	7.00e-07	0	43	0	240123904	20	4792
2026-01-29 22:36:43.22	49.68	15.09	-29.7	-32.0	14.3	1.14e-05	0	43	0	242221056	20	4707
2026-01-29 22:36:44.23	49.86	15.15	-29.7	-32.1	14.2	7.00e-07	0	43	0	244318208	20	4750
2026-01-29 22:36:45.23	50.03	15.21	-29.8	-32.3	14.2	1.50e-06	0	43	0	246415360	20	4792
2026-01-29 22:36:46.24	50.21	15.27	-29.7	-32.1	14.3	2.89e-05	0	43	0	247463936	20	4745
2026-01-29 22:36:47.24	50.39	15.33	-29.9	-32.6	14.0	1.50e-06	0	43	0	249561088	20	4897
2026-01-29 22:36:48.24	50.57	15.39	-30.0	-32.8	13.7	3.80e-06	0	43	0	251658240	20	4972
2026-01-29 22:36:49.24	50.75	15.45	-29.9	-32.6	13.9	9.68e-05	0	43	0	253755392	20	4903
2026-01-29 22:36:50.25	50.93	15.51	-30.0	-32.7	13.9	1.50e-06	0	43	0	254803968	20	4963
2026-01-29 22:36:51.26	51.11	15.57	-30.0	-32.9	13.8	3.00e-06	0	43	0	256901120	20	5033
2026-01-29 22:36:52.26	51.29	15.63	-29.9	-32.6	14.0	4.59e-04	0	43	0	258998272	20	4916
2026-01-29 22:36:53.26	51.47	15.69	-29.9	-32.6	14.1	9.90e-04	0	43	0	261095424	20	4888
2026-01-29 22:36:54.27	51.65	15.75	-29.8	-32.4	14.1	5.30e-06	0	43	0	263192576	20	4822
2026-01-29 22:36:55.27	51.84	15.80	-29.8	-32.7	14.3	0.00e+00	0	43	0	265289728	19	5056
2026-01-29 22:36:56.27	52.02	15.86	-29.9	-33.0	14.2	5.31e-04	0	43	0	266338304	19	5162
2026-01-29 22:36:57.27	52.21	15.92	-30.0	-32.7	13.9	3.80e-06	0	43	0	268435456	20	4950
2026-01-29 22:36:58.27	52.39	15.98	-30.2	-33.3	13.5	1.22e-05	0	43	0	270532608	20	5158
2026-01-29 22:36:59.28	52.58	16.04	-30.1	-33.0	13.8	1.06e-05	0	43	0	272629760	20	5055
2026-01-29 22:37:00.28	52.76	16.10	-30.0	-32.8	13.9	5.30e-06	0	43	0	273678336	20	4968
2026-01-29 22:37:01.28	52.95	16.16	-30.0	-32.8	14.0	2.20e-06	0	43	0	275775488	20	4973
2026-01-29 22:37:02.29	53.14	16.22	-30.1	-33.0	13.8	5.30e-06	0	43	0	277872640	20	5057
2026-01-29 22:37:03.30	53.33	16.27	-30.1	-33.0	13.8	6.10e-06	0	43	0	279969792	20	5054
2026-01-29 22:37:04.30	53.52	16.33	-30.2	-33.2	13.7	6.10e-06	0	43	0	282066944	20	5129
2026-01-29 22:37:05.30	53.71	16.39	-30.2	-33.3	13.7	6.10e-06	0	43	0	283115520	20	5149
2026-01-29 22:37:06.30	53.90	16.45	-30.0	-32.9	13.8	6.10e-06	0	43	0	285212672	20	4997
2026-01-29 22:37:07.31	54.09	16.50	-30.0	-32.9	13.8	3.00e-06	0	43	0	287309824	20	5019
2026-01-29 22:37:08.31	54.29	16.56	-30.1	-33.1	13.8	3.80e-06	0	43	0	289406976	20	5061
2026-01-29 22:37:09.31	54.48	16.62	-30.1	-33.2	13.7	2.20e-06	0	43	0	291504128	20	5114
2026-01-29 22:37:10.31	54.67	16.68	-30.2	-33.3	13.6	1.06e-05	0	43	0	292552704	20	5165
2026-01-29 22:37:11.32	54.87	16.73	-30.1	-33.1	13.7	5.30e-06	0	43	0	294649856	20	5095
2026-01-29 22:37:12.32	55.06	16.79	-30.2	-33.4	13.5	9.90e-06	0	43	0	296747008	20	5191
2026-01-29 22:37:13.33	55.26	16.85	-30.1	-33.1	13.7	1.29e-05	0	43	0	298844160	20	5072
2026-01-29 22:37:14.33	55.46	16.90	-30.1	-33.0	13.8	4.50e-06	0	43	0	300941312	20	5046
2026-01-29 22:37:15.34	55.66	16.96	-30.1	-33.1	13.7	3.00e-06	0	43	0	301989888	20	5082
2026-01-29 22:37:16.34	55.85	17.01	-30.1	-33.2	13.7	2.20e-06	0	43	0	304087040	20	5099
2026-01-29 22:37:17.35	56.06	17.07	-30.2	-33.4	13.6	1.52e-05	0	43	0	306184192	20	5201
2026-01-29 22:37:18.35	56.25	17.13	-30.2	-33.2	13.7	3.80e-06	0	43	0	308281344	20	5114
2026-01-29 22:37:19.36	56.46	17.18	-30.2	-33.4	13.4	6.80e-06	0	43	0	310378496	20	5173
2026-01-29 22:37:20.36	56.66	17.24	-30.2	-33.4	13.6	1.06e-05	0	43	0	311427072	20	5190
2026-01-29 22:37:21.36	56.86	17.29	-30.2	-33.4	13.6	9.10e-06	0	43	0	313524224	20	5164
2026-01-29 22:37:22.36	57.06	17.35	-30.2	-33.4	13.6	6.10e-06	0	43	0	315621376	20	5184
2026-01-29 22:37:23.36	57.26	17.40	-30.3	-33.6	13.5	6.10e-06	0	43	0	317718528	20	5268
2026-01-29 22:37:24.37	57.47	17.45	-30.3	-33.7	13.4	1.75e-05	0	43	0	319815680	20	5282
2026-01-29 22:37:25.37	57.67	17.51	-30.3	-33.5	13.5	9.10e-06	0	43	0	320864256	20	5216
2026-01-29 22:37:26.37	57.88	17.56	-30.3	-33.7	13.4	1.06e-05	0	43	0	322961408	20	5291
2026-01-29 22:37:27.37	58.08	17.61	-30.4	-34.0	13.3	6.71e-05	0	43	0	325058560	20	5406
2026-01-29 22:37:28.38	58.29	17.67	-30.4	-34.0	13.2	1.67e-05	0	43	0	327155712	20	5413
2026-01-29 22:37:29.39	58.50	17.72	-30.6	-33.8	13.0	3.05e-05	0	43	0	329252864	21	5232
2026-01-29 22:37:30.39	58.71	17.77	-30.6	-34.0	12.9	3.73e-05	0	43	0	330301440	21	5307
2026-01-29 22:37:31.39	58.92	17.83	-30.6	-34.0	12.9	4.19e-05	0	43	0	332398592	21	5311
2026-01-29 22:37:32.39	59.13	17.88	-30.7	-34.1	12.8	5.87e-05	0	43	0	334495744	21	5327
2026-01-29 22:37:33.39	59.34	17.93	-30.6	-34.0	12.9	4.27e-05	0	43	0	336592896	21	5309
2026-01-29 22:37:34.39	59.55	17.98	-30.7	-34.2	12.7	5.03e-04	0	43	0	337641472	21	5388
2026-01-29 22:37:35.40	59.76	18.03	-30.8	-34.5	12.6	7.01e-05	0	43	0	339738624	21	5501
2026-01-29 22:37:36.40	59.97	18.08	-30.8	-34.6	12.5	9.61e-05	0	43	0	341835776	21	5555
2026-01-29 22:37:37.41	60.19	18.14	-30.8	-34.6	12.5	4.26e-04	0	43	0	343932928	21	5550
2026-01-29 22:37:38.41	60.40	18.19	-30.9	-34.8	12.4	1.67e-04	0	43	0	346030080	21	5629
2026-01-29 22:37:39.41	60.62	18.24	-30.9	-34.8	12.3	1.65e-04	0	43	0	347078656	21	5640
2026-01-29 22:37:40.41	60.83	18.29	-30.9	-34.9	12.3	1.28e-04	0	43	0	349175808	21	5662
2026-01-29 22:37:41.41	61.05	18.34	-30.9	-34.8	12.3	1.66e-04	0	43	0	351272960	21	5653
2026-01-29 22:37:42.41	61.26	18.39	-30.9	-34.8	12.4	1.27e-04	0	43	0	353370112	21	5619
2026-01-29 22:37:43.42	61.48	18.43	-30.9	-34.7	12.4	1.55e-04	0	43	0	355467264	21	5608
2026-01-29 22:37:44.42	61.70	18.48	-30.8	-34.5	12.6	1.12e-04	0	43	0	356515840	21	5514
2026-01-29 22:37:45.43	61.92	18.53	-30.8	-34.5	12.6	1.11e-04	0	43	0	358612992	21	5491
2026-01-29 22:37:46.44	62.14	18.58	-30.9	-34.7	12.4	9.38e-05	0	43	0	360710144	21	5590
2026-01-29 22:37:47.44	62.36	18.63	-31.0	-34.5	12.3	1.74e-04	0	43	0	362807296	22	5397
2026-01-29 22:37:48.45	62.58	18.68	-30.9	-34.3	12.3	2.03e-04	0	43	0	364904448	22	5333
2026-01-29 22:37:49.45	62.80	18.72	-31.0	-34.5	12.3	4.13e-04	0	43	0	365953024	22	5392
2026-01-29 22:37:50.45	63.03	18.77	-30.9	-34.1	12.6	1.33e-04	0	43	0	368050176	22	5234
2026-01-29 22:37:51.45	63.25	18.82	-30.9	-34.1	12.6	7.12e-04	0	43	0	370147328	22	5238
2026-01-29 22:37:52.45	63.47	18.86	-30.8	-34.4	12.6	9.99e-04	0	43	0	372244480	21	5468
2026-01-29 22:37:53.46	63.70	18.91	-30.8	-34.4	12.7	9.91e-05	0	43	0	374341632	21	5454
2026-01-29 22:37:54.46	63.92	18.95	-30.7	-34.1	12.9	9.12e-04	0	43	0	375390208	21	5327
2026-01-29 22:37:55.46	64.15	19.00	-30.6	-33.9	13.0	8.54e-04	0	43	0	377487360	21	5265
2026-01-29 22:37:56.46	64.37	19.04	-30.5	-33.7	13.1	2.82e-05	0	43	0	379584512	21	5191
2026-01-29 22:37:57.46	64.60	19.09	-30.5	-33.7	13.1	2.44e-05	0	43	0	381681664	21	5189
2026-01-29 22:37:58.46	64.83	19.13	-30.6	-33.9	13.0	8.55e-04	0	43	0	383778816	21	5268
2026-01-29 22:37:59.47	65.06	19.18	-30.7	-34.1	12.9	5.41e-05	0	43	0	384827392	21	5342
2026-01-29 22:38:00.47	65.28	19.22	-30.6	-33.8	13.0	1.09e-03	0	43	0	386924544	21	5229
2026-01-29 22:38:01.47	65.51	19.26	-30.6	-33.8	13.1	9.00e-04	0	43	0	389021696	21	5222
2026-01-29 22:38:02.48	65.74	19.31	-30.6	-33.8	13.1	2.67e-05	0	43	0	391118848	21	5205
2026-01-29 22:38:03.48	65.97	19.35	-30.6	-33.9	13.0	6.39e-04	0	43	0	392167424	21	5258
2026-01-29 22:38:04.48	66.21	19.39	-30.6	-33.8	13.0	3.20e-05	0	43	0	394264576	21	5236
2026-01-29 22:38:05.48	66.44	19.43	-30.5	-33.6	13.2	2.67e-05	0	43	0	396361728	21	5132
2026-01-29 22:38:06.49	66.67	19.47	-30.6	-33.8	13.1	5.28e-04	0	43	0	398458880	21	5204
2026-01-29 22:38:07.49	66.90	19.51	-30.6	-33.8	13.1	6.89e-04	0	43	0	400556032	21	5208
2026-01-29 22:38:08.49	67.14	19.55	-30.7	-34.1	12.9	3.28e-05	0	43	0	401604608	21	5338
2026-01-29 22:38:09.50	67.37	19.60	-30.7	-34.2	12.8	6.55e-04	0	43	0	403701760	21	5390
2026-01-29 22:38:10.50	67.61	19.63	-30.6	-33.9	13.0	4.60e-04	0	43	0	405798912	21	5252
2026-01-29 22:38:11.50	67.84	19.67	-30.6	-33.8	13.1	3.28e-05	0	43	0	407896064	21	5214
2026-01-29 22:38:12.51	68.08	19.71	-30.6	-33.7	13.2	1.95e-04	0	43	0	409993216	21	5200
2026-01-29 22:38:13.51	68.32	19.75	-30.5	-33.5	13.3	3.82e-04	0	43	0	411041792	21	5117
2026-01-29 22:38:14.50	68.55	19.79	-30.5	-33.6	13.3	1.37e-05	0	43	0	413138944	21	5134
2026-01-29 22:38:15.51	68.79	19.83	-30.5	-33.7	13.1	4.47e-04	0	43	0	415236096	21	5179
2026-01-29 22:38:16.51	69.03	19.86	-30.5	-33.6	13.2	2.98e-04	0	43	0	417333248	21	5141
2026-01-29 22:38:17.52	69.27	19.90	-30.5	-33.7	13.2	1.90e-05	0	43	0	419430400	21	5171
2026-01-29 22:38:18.52	69.51	19.94	-30.5	-33.7	13.1	3.35e-05	0	43	0	420478976	21	5169
2026-01-29 22:38:19.53	69.75	19.97	-30.5	-33.6	13.3	1.98e-05	0	43	0	422576128	21	5133
2026-01-29 22:38:20.54	69.99	20.01	-30.6	-33.8	13.2	1.98e-05	0	43	0	424673280	21	5214
2026-01-29 22:38:21.53	70.23	20.04	-30.5	-33.7	13.1	2.82e-05	0	43	0	426770432	21	5183
2026-01-29 22:38:22.52	70.47	20.08	-30.6	-33.8	13.1	2.89e-05	0	43	0	428867584	21	5236
2026-01-29 22:38:23.53	70.72	20.11	-30.6	-33.8	13.1	4.27e-05	0	43	0	429916160	21	5238
2026-01-29 22:38:24.53	70.96	20.14	-30.5	-33.6	13.3	8.46e-05	0	43	0	432013312	21	5127
2026-01-29 22:38:25.53	71.20	20.18	-30.3	-33.2	13.5	1.90e-05	0	43	0	434110464	21	4976
2026-01-29 22:38:26.53	71.44	20.21	-30.3	-33.1	13.6	6.80e-06	0	43	0	436207616	21	4944
2026-01-29 22:38:27.53	71.69	20.24	-30.3	-33.0	13.6	6.10e-06	0	43	0	437256192	21	4934
2026-01-29 22:38:28.53	71.93	20.27	-30.2	-32.8	13.8	4.50e-06	0	43	0	439353344	21	4834
2026-01-29 22:38:29.53	72.18	20.30	-30.1	-32.5	13.9	4.50e-06	0	43	0	441450496	21	4759
2026-01-29 22:38:30.53	72.42	20.33	-30.0	-32.1	14.2	1.50e-06	0	43	0	443547648	21	4612
2026-01-29 22:38:31.54	72.67	20.36	-29.9	-31.8	14.4	7.00e-07	0	43	0	445644800	21	4523
2026-01-29 22:38:32.55	72.92	20.39	-29.9	-31.9	14.3	1.50e-06	0	43	0	446693376	21	4553
2026-01-29 22:38:33.55	73.17	20.42	-30.0	-32.3	14.1	1.50e-06	0	43	0	448790528	21	4671
2026-01-29 22:38:34.54	73.41	20.45	-30.1	-32.5	14.0	3.00e-06	0	43	0	450887680	21	4736
2026-01-29 22:38:35.55	73.66	20.48	-30.1	-32.6	13.9	4.50e-06	0	43	0	452984832	21	4789
2026-01-29 22:38:36.56	73.91	20.51	-30.1	-32.6	13.9	3.80e-06	0	43	0	455081984	21	4762
2026-01-29 22:38:37.55	74.16	20.53	-30.2	-32.7	13.8	2.20e-06	0	43	0	456130560	21	4820
2026-01-29 22:38:38.55	74.41	20.56	-30.1	-32.4	14.0	6.80e-06	0	43	0	458227712	21	4705
2026-01-29 22:38:39.56	74.66	20.59	-30.0	-32.2	14.1	1.50e-06	0	43	0	460324864	21	4649
2026-01-29 22:38:40.56	74.91	20.61	-30.0	-32.3	14.2	2.20e-06	0	43	0	462422016	21	4667
2026-01-29 22:38:41.56	75.16	20.64	-30.1	-32.5	14.0	3.80e-06	0	43	0	464519168	21	4744
2026-01-29 22:38:42.57	75.41	20.66	-30.1	-32.6	13.9	1.50e-06	0	43	0	465567744	21	4769
2026-01-29 22:38:43.57	75.66	20.69	-30.2	-32.7	13.9	3.00e-06	0	43	0	467664896	21	4798
2026-01-29 22:38:44.58	75.92	20.71	-30.3	-32.9	13.7	2.20e-06	0	43	0	469762048	21	4898
2026-01-29 22:38:45.58	76.17	20.73	-30.4	-33.2	13.5	1.22e-05	0	43	0	471859200	21	4994
2026-01-29 22:38:46.59	76.42	20.76	-30.5	-33.7	13.2	2.13e-05	0	43	0	473956352	21	5165
2026-01-29 22:38:47.59	76.68	20.78	-30.6	-34.0	13.0	2.97e-05	0	43	0	475004928	21	5303
2026-01-29 22:38:48.60	76.93	20.80	-30.7	-34.2	12.8	4.50e-05	0	43	0	477102080	21	5376
2026-01-29 22:38:49.60	77.18	20.82	-30.7	-34.1	12.9	4.50e-05	0	43	0	479199232	21	5357
2026-01-29 22:38:50.61	77.44	20.84	-30.6	-34.0	13.0	4.57e-05	0	43	0	481296384	21	5299
2026-01-29 22:38:51.61	77.69	20.86	-30.5	-33.6	13.3	3.66e-05	0	43	0	483393536	21	5148
2026-01-29 22:38:52.62	77.95	20.88	-30.3	-33.0	13.7	5.30e-06	0	43	0	484442112	21	4911
2026-01-29 22:38:53.62	78.21	20.90	-30.3	-32.9	13.7	1.06e-05	0	43	0	486539264	21	4888
2026-01-29 22:38:54.62	78.46	20.92	-30.3	-33.0	13.7	4.50e-06	0	43	0	488636416	21	4902
2026-01-29 22:38:55.63	78.72	20.93	-30.3	-33.2	13.5	6.80e-06	0	43	0	490733568	21	4986
2026-01-29 22:38:56.64	78.98	20.95	-30.4	-33.2	13.5	9.90e-06	0	43	0	492830720	21	5007
2026-01-29 22:38:57.64	79.23	20.97	-30.4	-33.4	13.3	2.13e-05	0	43	0	493879296	21	5085
2026-01-29 22:38:58.64	79.49	20.98	-30.6	-33.8	13.1	2.59e-05	0	43	0	495976448	21	5223
2026-01-29 22:38:59.65	79.75	21.00	-30.7	-34.1	12.9	3.81e-05	0	43	0	498073600	21	5359
2026-01-29 22:39:00.65	80.00	21.01	-30.7	-34.3	12.8	5.72e-05	0	43	0	500170752	21	5434
2026-01-29 22:39:01.65	80.26	21.03	-30.8	-34.5	12.7	8.23e-05	0	43	0	501219328	21	5514
2026-01-29 22:39:02.66	80.52	21.04	-30.8	-34.5	12.7	6.86e-05	0	43	0	503316480	21	5480
2026-01-29 22:39:03.66	80.78	21.05	-30.7	-34.2	12.8	8.46e-05	0	43	0	505413632	21	5387
2026-01-29 22:39:04.66	81.03	21.07	-30.6	-33.8	13.2	3.50e-05	0	43	0	507510784	21	5202
2026-01-29 22:39:05.66	81.29	21.08	-30.5	-33.5	13.3	2.59e-05	0	43	0	509607936	21	5093
2026-01-29 22:39:06.67	81.55	21.09	-30.4	-33.9	13.5	1.06e-05	0	43	0	510656512	20	5356
2026-01-29 22:39:07.67	81.81	21.10	-30.4	-33.9	13.4	9.10e-06	0	43	0	512753664	20	5359
2026-01-29 22:39:08.68	82.07	21.11	-30.5	-33.5	13.3	2.44e-05	0	43	0	514850816	21	5120
2026-01-29 22:39:09.68	82.33	21.12	-30.6	-34.0	13.0	1.67e-05	0	43	0	516947968	21	5290
2026-01-29 22:39:10.69	82.59	21.13	-30.7	-34.1	12.9	5.87e-05	0	43	0	519045120	21	5343
2026-01-29 22:39:11.69	82.85	21.14	-30.7	-34.0	13.0	3.81e-05	0	43	0	520093696	21	5299
2026-01-29 22:39:12.69	83.11	21.15	-30.7	-34.0	13.0	4.19e-05	0	43	0	522190848	21	5302
2026-01-29 22:39:13.69	83.37	21.15	-30.7	-34.2	12.9	4.42e-05	0	43	0	524288000	21	5376
2026-01-29 22:39:14.70	83.63	21.16	-30.6	-33.9	13.1	4.11e-05	0	43	0	526385152	21	5272
2026-01-29 22:39:15.70	83.89	21.17	-30.5	-33.7	13.3	3.05e-05	0	43	0	528482304	21	5167
2026-01-29 22:39:16.71	84.15	21.17	-30.5	-33.6	13.2	1.44e-05	0	43	0	529530880	21	5159
2026-01-29 22:39:17.71	84.41	21.18	-30.4	-33.2	13.6	1.67e-05	0	43	0	531628032	21	4989
2026-01-29 22:39:18.71	84.67	21.18	-30.3	-32.9	13.8	7.60e-06	0	43	0	533725184	21	4888
2026-01-29 22:39:19.71	84.93	21.18	-30.1	-32.5	14.0	5.30e-06	0	43	0	535822336	21	4749
2026-01-29 22:39:20.71	85.19	21.19	-30.2	-32.6	13.9	4.50e-06	0	43	0	537919488	21	4794
2026-01-29 22:39:21.72	85.45	21.19	-30.0	-32.3	14.1	5.30e-06	0	43	0	538968064	21	4691
2026-01-29 22:39:22.72	85.71	21.19	-30.0	-32.2	14.2	0.00e+00	0	43	0	541065216	21	4643
2026-01-29 22:39:23.72	85.97	21.19	-30.1	-32.4	14.0	3.00e-06	0	43	0	543162368	21	4709
2026-01-29 22:39:24.73	86.23	21.19	-30.1	-32.6	13.9	7.00e-07	0	43	0	545259520	21	4782
2026-01-29 22:39:25.74	86.49	21.19	-30.2	-32.7	13.9	1.50e-06	0	43	0	547356672	21	4800
2026-01-29 22:39:26.74	86.75	21.19	-30.3	-33.1	13.5	3.80e-06	0	43	0	548405248	21	4969
2026-01-29 22:39:27.75	87.01	21.19	-30.4	-33.3	13.4	9.10e-06	0	43	0	550502400	21	5039
2026-01-29 22:39:28.75	87.27	21.19	-30.6	-33.9	13.0	1.60e-05	0	43	0	552599552	21	5275
2026-01-29 22:39:29.75	87.53	21.19	-30.6	-33.9	13.1	4.73e-05	0	43	0	554696704	21	5247
2026-01-29 22:39:30.75	87.79	21.19	-30.6	-33.8	13.2	2.59e-05	0	43	0	555745280	21	5200
2026-01-29 22:39:31.75	88.05	21.18	-30.7	-34.0	13.0	2.74e-05	0	43	0	557842432	21	5303
2026-01-29 22:39:32.76	88.32	21.18	-30.6	-33.8	13.1	8.39e-05	0	43	0	559939584	21	5230
2026-01-29 22:39:33.76	88.57	21.17	-30.5	-33.6	13.2	8.23e-05	0	43	0	562036736	21	5129
2026-01-29 22:39:34.77	88.84	21.17	-30.5	-33.7	13.2	3.12e-05	0	43	0	564133888	21	5169
2026-01-29 22:39:35.77	89.10	21.16	-30.5	-33.6	13.3	2.28e-05	0	43	0	566231040	21	5167
2026-01-29 22:39:36.77	89.36	21.16	-30.4	-33.4	13.3	1.29e-04	0	43	0	567279616	21	5072
2026-01-29 22:39:37.77	89.61	21.15	-30.5	-33.5	13.3	2.74e-05	0	43	0	569376768	21	5104
2026-01-29 22:39:38.77	89.87	21.14	-30.4	-33.5	13.4	2.36e-05	0	43	0	571473920	21	5093
2026-01-29 22:39:39.78	90.13	21.13	-30.5	-33.7	13.2	8.46e-05	0	43	0	573571072	21	5185
2026-01-29 22:39:40.78	90.39	21.13	-30.5	-33.5	13.3	2.28e-05	0	43	0	574619648	21	5118
2026-01-29 22:39:41.78	90.65	21.12	-30.5	-33.7	13.2	1.98e-05	0	43	0	576716800	21	5193
2026-01-29 22:39:42.78	90.91	21.11	-30.6	-33.8	13.1	2.97e-05	0	43	0	578813952	21	5237
2026-01-29 22:39:43.79	91.17	21.10	-30.7	-34.2	12.9	3.20e-05	0	43	0	580911104	21	5368
2026-01-29 22:39:44.79	91.43	21.09	-30.7	-34.0	12.9	9.15e-05	0	43	0	583008256	21	5311
2026-01-29 22:39:45.80	91.69	21.07	-30.6	-33.8	13.1	2.67e-05	0	43	0	584056832	21	5206
2026-01-29 22:39:46.80	91.95	21.06	-30.5	-33.5	13.3	2.28e-05	0	43	0	586153984	21	5103
2026-01-29 22:39:47.80	92.21	21.05	-30.4	-33.4	13.4	9.90e-06	0	43	0	588251136	21	5082
2026-01-29 22:39:48.80	92.46	21.04	-30.6	-33.9	13.0	2.13e-05	0	43	0	590348288	21	5270
2026-01-29 22:39:49.81	92.72	21.02	-30.7	-34.1	13.0	4.34e-05	0	43	0	592445440	21	5332
2026-01-29 22:39:50.81	92.98	21.01	-30.7	-34.3	12.8	4.88e-05	0	43	0	593494016	21	5405
2026-01-29 22:39:51.82	93.24	20.99	-30.7	-34.2	12.8	6.56e-05	0	43	0	595591168	21	5399
2026-01-29 22:39:52.82	93.50	20.98	-30.7	-34.3	12.7	6.63e-05	0	43	0	597688320	21	5422
2026-01-29 22:39:53.83	93.75	20.96	-30.8	-34.5	12.7	7.17e-05	0	43	0	599785472	21	5499
2026-01-29 22:39:54.83	94.01	20.94	-30.8	-34.4	12.7	8.01e-05	0	43	0	601882624	21	5469
2026-01-29 22:39:55.83	94.27	20.93	-30.9	-34.8	12.4	7.85e-05	0	43	0	602931200	21	5663
2026-01-29 22:39:56.83	94.52	20.91	-30.7	-34.2	12.8	9.15e-05	0	43	0	605028352	21	5386
2026-01-29 22:39:57.83	94.78	20.89	-30.4	-33.3	13.5	2.28e-05	0	43	0	607125504	21	5022
2026-01-29 22:39:58.84	95.03	20.87	-30.1	-32.6	13.8	8.30e-06	0	43	0	609222656	21	4794
2026-01-29 22:39:59.84	95.29	20.85	-30.0	-32.2	14.1	1.50e-06	0	43	0	611319808	21	4651
2026-01-29 22:40:00.85	95.54	20.83	-29.9	-32.1	14.3	1.50e-06	0	43	0	612368384	21	4604
2026-01-29 22:40:01.85	95.80	20.81	-29.9	-31.9	14.2	7.00e-07	0	43	0	614465536	21	4568
2026-01-29 22:40:02.86	96.05	20.79	-30.0	-32.1	14.2	7.00e-07	0	43	0	616562688	21	4630
2026-01-29 22:40:03.86	96.31	20.77	-29.8	-32.1	14.6	7.00e-07	0	43	0	618659840	20	4717
2026-01-29 22:40:04.86	96.56	20.75	-29.7	-31.9	14.6	7.00e-07	0	43	0	620756992	20	4655
2026-01-29 22:40:05.87	96.82	20.72	-29.7	-32.0	14.6	0.00e+00	0	43	0	621805568	20	4678
2026-01-29 22:40:06.88	97.07	20.70	-29.9	-32.4	14.3	0.00e+00	0	43	0	623902720	20	4826
2026-01-29 22:40:07.88	97.32	20.68	-30.0	-32.7	14.1	1.50e-06	0	43	0	625999872	20	4914
2026-01-29 22:40:08.88	97.57	20.65	-30.2	-33.3	13.8	3.80e-06	0	43	0	628097024	20	5141
2026-01-29 22:40:09.88	97.82	20.63	-30.2	-33.3	13.7	1.50e-06	0	43	0	630194176	20	5166
2026-01-29 22:40:10.89	98.08	20.60	-30.1	-33.0	13.9	5.30e-06	0	43	0	631242752	20	5046
2026-01-29 22:40:11.89	98.33	20.57	-30.1	-32.9	14.0	4.50e-06	0	43	0	633339904	20	5010
2026-01-29 22:40:12.90	98.58	20.55	-30.0	-32.8	14.1	4.11e-05	0	43	0	635437056	20	4962
2026-01-29 22:40:13.90	98.83	20.52	-30.1	-32.9	14.0	2.20e-06	0	43	0	637534208	20	5013
2026-01-29 22:40:14.91	99.08	20.49	-29.9	-32.5	14.2	7.70e-05	0	43	0	639631360	20	4867
2026-01-29 22:40:15.91	99.33	20.47	-29.7	-32.0	14.5	7.32e-05	0	43	0	640679936	20	4699
2026-01-29 22:40:16.92	99.58	20.44	-29.6	-31.7	14.8	0.00e+00	0	43	0	642777088	20	4589
2026-01-29 22:40:17.92	99.83	20.41	-29.4	-31.3	14.9	0.00e+00	0	43	0	644874240	20	4473
2026-01-29 22:40:18.92	100.07	20.38	-29.4	-31.3	15.0	2.44e-05	0	43	0	646971392	20	4477
2026-01-29 22:40:19.93	100.32	20.35	-29.6	-31.6	14.8	7.00e-07	0	43	0	648019968	20	4558
2026-01-29 22:40:20.93	100.57	20.32	-29.3	-31.0	15.2	0.00e+00	0	43	0	650117120	20	4372
2026-01-29 22:40:21.93	100.82	20.29	-29.4	-31.8	15.1	1.52e-05	0	43	0	652214272	19	4713
2026-01-29 22:40:22.94	101.06	20.26	-29.6	-32.1	14.8	0.00e+00	0	43	0	654311424	19	4839
2026-01-29 22:40:23.94	101.31	20.22	-29.7	-32.5	14.6	7.00e-07	0	43	0	656408576	19	4963
2026-01-29 22:40:24.95	101.55	20.19	-29.9	-32.9	14.4	7.00e-07	0	43	0	657457152	19	5111
2026-01-29 22:40:25.95	101.80	20.16	-30.0	-33.1	14.2	2.20e-06	0	43	0	659554304	19	5182
2026-01-29 22:40:26.95	102.04	20.12	-30.0	-32.7	14.1	1.50e-06	0	43	0	661651456	20	4927
2026-01-29 22:40:27.95	102.28	20.09	-29.8	-32.4	14.3	0.00e+00	0	43	0	663748608	20	4816
2026-01-29 22:40:28.95	102.53	20.06	-29.7	-32.1	14.5	7.00e-07	0	43	0	665845760	20	4715
2026-01-29 22:40:29.95	102.77	20.02	-29.7	-32.0	14.5	7.00e-07	0	43	0	666894336	20	4687
2026-01-29 22:40:30.96	103.01	19.99	-29.7	-32.1	14.4	7.00e-07	0	43	0	668991488	20	4723
2026-01-29 22:40:31.96	103.25	19.95	-29.8	-32.4	14.3	1.50e-06	0	43	0	671088640	20	4834
2026-01-29 22:40:32.96	103.49	19.92	-29.6	-31.7	14.7	2.51e-05	0	43	0	673185792	20	4593
2026-01-29 22:40:33.96	103.73	19.88	-29.3	-31.0	15.1	0.00e+00	0	43	0	675282944	20	4383
2026-01-29 22:40:34.97	103.97	19.84	-29.2	-31.2	15.3	0.00e+00	0	43	0	676331520	19	4554
2026-01-29 22:40:35.97	104.21	19.80	-29.1	-30.9	15.5	0.00e+00	0	43	0	678428672	19	4451
2026-01-29 22:40:36.97	104.45	19.77	-29.0	-30.7	15.6	0.00e+00	0	43	0	680525824	19	4395
2026-01-29 22:40:37.97	104.69	19.73	-29.1	-31.0	15.4	0.00e+00	0	43	0	682622976	19	4475
2026-01-29 22:40:38.97	104.92	19.69	-28.9	-30.5	15.8	0.00e+00	0	43	0	684720128	19	4313
2026-01-29 22:40:39.97	105.16	19.65	-28.8	-30.8	15.9	5.79e-05	0	43	0	685768704	18	4519
2026-01-29 22:40:40.98	105.40	19.61	-29.0	-31.1	15.7	0.00e+00	0	43	0	687865856	18	4607
2026-01-29 22:40:41.98	105.63	19.57	-28.9	-30.9	15.8	0.00e+00	0	43	0	689963008	18	4560
2026-01-29 22:40:42.99	105.87	19.53	-29.0	-31.3	15.6	0.00e+00	0	43	0	692060160	18	4674
2026-01-29 22:40:43.99	106.10	19.49	-28.9	-31.1	15.7	0.00e+00	0	43	0	693108736	18	4613
2026-01-29 22:40:44.99	106.34	19.45	-29.0	-31.1	15.6	0.00e+00	0	43	0	695205888	18	4624
2026-01-29 22:40:45.99	106.57	19.41	-29.1	-31.5	15.5	0.00e+00	0	43	0	697303040	18	4727
2026-01-29 22:40:46.99	106.80	19.36	-29.3	-31.8	15.2	0.00e+00	0	43	0	699400192	18	4852
2026-01-29 22:40:47.99	107.03	19.32	-29.4	-32.2	15.0	0.00e+00	0	43	0	701497344	18	4985
2026-01-29 22:40:49.00	107.26	19.28	-29.6	-32.2	14.7	0.00e+00	0	43	0	702545920	19	4850
2026-01-29 22:40:50.00	107.49	19.24	-29.6	-32.2	14.7	7.00e-07	0	43	0	704643072	19	4858
2026-01-29 22:40:51.01	107.73	19.19	-29.6	-32.2	14.6	7.00e-07	0	43	0	706740224	19	4879
2026-01-29 22:40:52.01	107.95	19.15	-29.5	-31.9	14.8	0.00e+00	0	43	0	708837376	19	4778
2026-01-29 22:40:53.01	108.18	19.10	-29.4	-31.8	14.9	1.50e-06	0	43	0	710934528	19	4739
2026-01-29 22:40:54.01	108.41	19.06	-29.4	-31.7	15.0	0.00e+00	0	43	0	711983104	19	4706
2026-01-29 22:40:55.02	108.64	19.01	-29.4	-31.7	15.0	0.00e+00	0	43	0	714080256	19	4698
2026-01-29 22:40:56.02	108.87	18.97	-29.5	-32.1	14.7	7.00e-07	0	43	0	716177408	19	4823
2026-01-29 22:40:57.02	109.09	18.92	-29.4	-31.9	14.8	7.00e-07	0	43	0	718274560	19	4749
2026-01-29 22:40:58.02	109.32	18.88	-29.4	-31.6	15.0	0.00e+00	0	43	0	720371712	19	4678
2026-01-29 22:40:59.02	109.54	18.83	-29.4	-31.8	14.9	0.00e+00	0	43	0	721420288	19	4729
2026-01-29 22:41:00.02	109.76	18.79	-29.4	-31.8	14.9	0.00e+00	0	43	0	723517440	19	4730
2026-01-29 22:41:01.03	109.99	18.74	-29.5	-31.9	14.8	7.00e-07	0	43	0	725614592	19	4774
2026-01-29 22:41:02.03	110.21	18.69	-29.7	-32.6	14.4	0.00e+00	0	43	0	727711744	19	5005
2026-01-29 22:41:03.03	110.43	18.64	-30.0	-33.2	14.0	2.20e-06	0	43	0	729808896	19	5235
2026-01-29 22:41:04.04	110.66	18.59	-30.0	-33.0	13.8	6.80e-06	0	43	0	730857472	20	5058
2026-01-29 22:41:05.04	110.88	18.55	-30.2	-33.4	13.4	8.30e-06	0	43	0	732954624	20	5213
2026-01-29 22:41:06.04	111.09	18.50	-30.2	-33.5	13.2	1.14e-05	0	43	0	735051776	20	5234
2026-01-29 22:41:07.05	111.32	18.45	-30.3	-33.6	13.4	2.28e-05	0	43	0	737148928	20	5292
2026-01-29 22:41:08.05	111.53	18.40	-30.2	-33.5	13.2	1.29e-05	0	43	0	738197504	20	5239
2026-01-29 22:41:09.05	111.75	18.35	-30.5	-34.2	12.9	3.20e-05	0	43	0	740294656	20	5511
2026-01-29 22:41:10.05	111.97	18.30	-30.3	-33.8	13.2	2.44e-05	0	43	0	742391808	20	5367
2026-01-29 22:41:11.05	112.18	18.25	-30.3	-33.6	13.3	1.90e-05	0	43	0	744488960	20	5301
2026-01-29 22:41:12.06	112.40	18.20	-30.4	-33.9	13.1	2.36e-05	0	43	0	746586112	20	5406
2026-01-29 22:41:13.06	112.62	18.15	-30.5	-33.9	12.8	4.88e-05	0	43	0	748683264	21	5290
2026-01-29 22:41:14.06	112.83	18.10	-30.7	-34.5	12.3	8.62e-05	0	43	0	749731840	21	5562
2026-01-29 22:41:15.07	113.05	18.05	-30.7	-34.5	12.3	1.65e-04	0	43	0	751828992	21	5584
2026-01-29 22:41:16.07	113.26	17.99	-30.6	-34.3	12.4	1.44e-04	0	43	0	753926144	21	5464
2026-01-29 22:41:17.07	113.47	17.94	-30.6	-34.1	12.6	1.04e-04	0	43	0	756023296	21	5398
2026-01-29 22:41:18.07	113.68	17.89	-30.6	-34.2	12.5	1.38e-04	0	43	0	757071872	21	5427
2026-01-29 22:41:19.07	113.89	17.84	-30.5	-34.0	12.7	8.77e-05	0	43	0	759169024	21	5360
2026-01-29 22:41:20.08	114.10	17.78	-30.6	-34.1	12.6	8.46e-05	0	43	0	761266176	21	5409
2026-01-29 22:41:21.08	114.31	17.73	-30.6	-34.2	12.5	1.15e-04	0	43	0	763363328	21	5457
2026-01-29 22:41:22.09	114.52	17.68	-30.4	-33.6	12.9	6.25e-05	0	43	0	765460480	21	5205
2026-01-29 22:41:23.10	114.73	17.62	-30.4	-33.5	13.0	3.81e-05	0	43	0	766509056	21	5150
2026-01-29 22:41:24.10	114.94	17.57	-30.4	-33.4	13.1	2.97e-05	0	43	0	768606208	21	5126
2026-01-29 22:41:25.11	115.15	17.52	-30.4	-33.5	13.0	3.05e-05	0	43	0	770703360	21	5149
2026-01-29 22:41:26.11	115.35	17.46	-30.5	-33.7	12.8	4.04e-05	0	43	0	772800512	21	5234
2026-01-29 22:41:27.12	115.56	17.41	-30.5	-33.9	12.6	5.64e-05	0	43	0	774897664	21	5330
2026-01-29 22:41:28.12	115.76	17.35	-30.4	-33.7	12.8	5.41e-05	0	43	0	775946240	21	5220
2026-01-29 22:41:29.13	115.97	17.30	-30.5	-33.7	12.8	7.01e-05	0	43	0	778043392	21	5245
2026-01-29 22:41:30.14	116.17	17.24	-30.4	-33.5	13.0	5.72e-05	0	43	0	780140544	21	5143
2026-01-29 22:41:31.14	116.38	17.19	-30.2	-33.1	13.2	2.21e-05	0	43	0	782237696	21	5036
2026-01-29 22:41:32.14	116.58	17.13	-30.2	-33.0	13.3	1.83e-05	0	43	0	784334848	21	4977
2026-01-29 22:41:33.14	116.78	17.08	-30.1	-32.9	13.3	1.98e-05	0	43	0	785383424	21	4969
2026-01-29 22:41:34.15	116.98	17.02	-30.0	-32.5	13.6	1.52e-05	0	43	0	787480576	21	4821
2026-01-29 22:41:35.15	117.18	16.96	-30.0	-32.4	13.6	1.22e-05	0	43	0	789577728	21	4784
2026-01-29 22:41:36.15	117.38	16.91	-30.0	-32.5	13.5	7.60e-06	0	43	0	791674880	21	4818
2026-01-29 22:41:37.16	117.58	16.85	-30.2	-33.1	13.2	1.29e-05	0	43	0	793772032	21	5003
2026-01-29 22:41:38.16	117.77	16.79	-30.1	-32.7	13.4	1.44e-05	0	43	0	794820608	21	4851
2026-01-29 22:41:39.17	117.97	16.74	-30.1	-32.7	13.5	1.06e-05	0	43	0	796917760	21	4847
2026-01-29 22:41:40.17	118.17	16.68	-30.1	-32.7	13.5	1.83e-05	0	43	0	799014912	21	4853
2026-01-29 22:41:41.18	118.36	16.62	-30.0	-32.4	13.6	6.80e-06	0	43	0	801112064	21	4746
2026-01-29 22:41:42.18	118.56	16.56	-30.0	-32.5	13.6	1.29e-05	0	43	0	803209216	21	4802
2026-01-29 22:41:43.19	118.75	16.51	-30.0	-32.6	13.6	9.10e-06	0	43	0	804257792	21	4816
2026-01-29 22:41:44.19	118.94	16.45	-30.1	-32.8	13.4	7.32e-05	0	43	0	806354944	21	4902
2026-01-29 22:41:45.19	119.14	16.39	-30.3	-33.3	13.0	1.33e-04	0	43	0	808452096	21	5079
2026-01-29 22:41:46.19	119.33	16.33	-30.5	-33.8	12.7	6.40e-05	0	43	0	810549248	21	5281
2026-01-29 22:41:47.20	119.52	16.27	-30.5	-34.0	12.6	2.32e-04	0	43	0	811597824	21	5368
2026-01-29 22:41:48.20	119.71	16.22	-30.6	-34.2	12.5	1.37e-04	0	43	0	813694976	21	5427
2026-01-29 22:41:49.21	119.90	16.16	-30.5	-34.0	12.6	1.24e-04	0	43	0	815792128	21	5350
2026-01-29 22:41:50.21	120.09	16.10	-30.5	-33.9	12.7	8.39e-05	0	43	0	817889280	21	5307
2026-01-29 22:41:51.21	120.27	16.04	-30.5	-33.8	12.7	1.04e-04	0	43	0	819986432	21	5305
2026-01-29 22:41:52.22	120.46	15.98	-30.5	-33.9	12.6	1.11e-04	0	43	0	822083584	21	5352
2026-01-29 22:41:53.22	120.65	15.92	-30.3	-33.3	13.0	4.42e-05	0	43	0	823132160	21	5103
2026-01-29 22:41:54.22	120.83	15.86	-30.3	-33.5	12.9	3.43e-05	0	43	0	825229312	21	5177
2026-01-29 22:41:55.23	121.02	15.80	-30.4	-33.5	12.9	4.73e-05	0	43	0	827326464	21	5168
2026-01-29 22:41:56.24	121.21	15.74	-30.3	-33.4	13.0	3.43e-05	0	43	0	829423616	21	5121
2026-01-29 22:41:57.24	121.39	15.68	-30.3	-33.5	12.9	4.19e-05	0	43	0	830472192	21	5149
2026-01-29 22:41:58.24	121.57	15.62	-30.3	-33.2	13.1	4.19e-05	0	43	0	832569344	21	5047
2026-01-29 22:41:59.24	121.75	15.56	-30.2	-32.9	13.4	5.26e-05	0	43	0	834666496	21	4920
2026-01-29 22:42:00.23	121.93	15.50	-30.0	-32.4	13.6	7.01e-05	0	43	0	836763648	21	4760
2026-01-29 22:42:01.21	122.11	15.44	-29.9	-32.1	13.9	1.50e-06	0	43	0	838860800	21	4638
2026-01-29 22:42:02.22	122.29	15.38	-29.9	-32.3	13.7	4.50e-06	0	43	0	839909376	21	4708
2026-01-29 22:42:03.22	122.47	15.32	-30.0	-32.6	13.5	4.50e-05	0	43	0	842006528	21	4811
2026-01-29 22:42:04.22	122.65	15.26	-30.1	-32.7	13.4	9.10e-06	0	43	0	844103680	21	4861
2026-01-29 22:42:05.23	122.83	15.20	-30.3	-33.4	12.9	5.26e-05	0	43	0	846200832	21	5116
2026-01-29 22:42:06.23	123.00	15.14	-30.3	-33.4	12.9	4.11e-05	0	43	0	848297984	21	5118
2026-01-29 22:42:07.23	123.18	15.08	-30.4	-33.7	12.7	6.02e-05	0	43	0	849346560	21	5232
2026-01-29 22:42:08.23	123.36	15.02	-30.3	-33.2	13.0	5.95e-05	0	43	0	851443712	21	5060
2026-01-29 22:42:09.23	123.53	14.96	-30.1	-32.8	13.3	2.05e-05	0	43	0	853540864	21	4910
2026-01-29 22:42:10.23	123.71	14.90	-30.1	-32.7	13.4	1.29e-05	0	43	0	855638016	21	4861
2026-01-29 22:42:11.23	123.88	14.84	-30.0	-33.0	13.5	1.68e-04	0	43	0	856686592	20	5103
2026-01-29 22:42:12.23	124.05	14.77	-29.9	-32.8	13.6	6.80e-06	0	43	0	858783744	20	5008
2026-01-29 22:42:13.23	124.22	14.71	-30.1	-33.2	13.3	1.60e-05	0	43	0	860880896	20	5187
2026-01-29 22:42:14.23	124.39	14.65	-30.0	-33.0	13.4	8.82e-04	0	43	0	862978048	20	5112
2026-01-29 22:42:15.24	124.57	14.59	-30.1	-33.3	13.3	1.01e-03	0	43	0	865075200	20	5227
2026-01-29 22:42:16.23	124.74	14.53	-30.3	-33.8	12.9	5.26e-05	0	43	0	866123776	20	5402
2026-01-29 22:42:17.22	124.90	14.47	-30.3	-33.7	13.0	4.04e-05	0	43	0	868220928	20	5373
2026-01-29 22:42:18.22	125.07	14.41	-30.3	-33.8	13.0	6.71e-04	0	43	0	870318080	20	5387
2026-01-29 22:42:19.23	125.24	14.34	-30.1	-33.2	13.3	1.90e-05	0	43	0	872415232	20	5153
2026-01-29 22:42:20.24	125.41	14.28	-29.9	-32.7	13.6	9.90e-06	0	43	0	874512384	20	4982
2026-01-29 22:42:21.25	125.58	14.22	-29.8	-32.4	13.8	6.02e-05	0	43	0	875560960	20	4875
2026-01-29 22:42:22.25	125.74	14.16	-29.8	-32.4	13.8	1.50e-06	0	43	0	877658112	20	4881
2026-01-29 22:42:23.26	125.91	14.09	-29.7	-32.3	13.9	6.80e-06	0	43	0	879755264	20	4835
2026-01-29 22:42:24.27	126.08	14.03	-29.8	-32.5	13.8	5.30e-06	0	43	0	881852416	20	4912
2026-01-29 22:42:25.27	126.24	13.97	-30.0	-33.1	13.4	2.20e-06	0	43	0	883949568	20	5141
2026-01-29 22:42:26.28	126.41	13.91	-30.2	-33.7	13.0	3.73e-05	0	43	0	884998144	20	5377
2026-01-29 22:42:27.29	126.57	13.84	-30.4	-34.1	12.7	4.57e-05	0	43	0	887095296	20	5511
2026-01-29 22:42:28.29	126.73	13.78	-30.5	-34.0	12.4	1.01e-04	0	43	0	889192448	21	5380
2026-01-29 22:42:29.30	126.89	13.72	-30.4	-33.7	12.6	8.69e-05	0	43	0	891289600	21	5242
2026-01-29 22:42:30.30	127.06	13.65	-30.4	-33.5	12.7	7.70e-05	0	43	0	893386752	21	5181
2026-01-29 22:42:31.31	127.22	13.59	-30.3	-33.3	12.9	7.78e-05	0	43	0	894435328	21	5104
2026-01-29 22:42:32.31	127.38	13.53	-30.2	-33.0	13.1	3.43e-05	0	43	0	896532480	21	4984
2026-01-29 22:42:33.31	127.53	13.47	-30.1	-32.9	13.1	2.28e-05	0	43	0	898629632	21	4957
2026-01-29 22:42:34.31	127.69	13.40	-30.1	-32.8	13.2	2.13e-05	0	43	0	900726784	21	4907
2026-01-29 22:42:35.31	127.85	13.34	-30.2	-33.0	13.0	2.97e-05	0	43	0	902823936	21	5009
2026-01-29 22:42:36.31	128.01	13.28	-30.2	-33.3	12.8	4.57e-05	0	43	0	903872512	21	5115
2026-01-29 22:42:37.31	128.16	13.22	-30.3	-33.6	12.6	8.16e-05	0	43	0	905969664	21	5262
2026-01-29 22:42:38.31	128.32	13.15	-30.4	-33.9	12.4	1.30e-04	0	43	0	908066816	21	5394
2026-01-29 22:42:39.31	128.47	13.09	-30.4	-33.8	12.4	1.47e-04	0	43	0	910163968	21	5345
2026-01-29 22:42:40.32	128.63	13.03	-30.3	-33.6	12.5	1.16e-04	0	43	0	912261120	21	5258
2026-01-29 22:42:41.32	128.78	12.96	-30.3	-33.5	12.6	9.38e-05	0	43	0	913309696	21	5208
2026-01-29 22:42:42.32	128.93	12.90	-30.3	-33.6	12.6	1.01e-04	0	43	0	915406848	21	5229
2026-01-29 22:42:43.32	129.09	12.84	-30.5	-33.9	12.4	1.23e-04	0	43	0	917504000	21	5357
2026-01-29 22:42:44.32	129.24	12.78	-30.5	-34.0	12.3	2.58e-04	0	43	0	919601152	21	5398
2026-01-29 22:42:45.31	129.39	12.71	-30.3	-33.6	12.6	1.37e-04	0	43	0	920649728	21	5212
2026-01-29 22:42:46.32	129.54	12.65	-30.4	-33.8	12.4	1.48e-04	0	43	0	922746880	21	5312
2026-01-29 22:42:47.33	129.69	12.59	-30.5	-34.0	12.3	1.40e-04	0	43	0	924844032	21	5378
2026-01-29 22:42:48.33	129.84	12.52	-30.6	-34.3	12.0	2.72e-04	0	43	0	926941184	21	5546
2026-01-29 22:42:49.33	129.99	12.46	-30.6	-34.5	11.9	3.35e-04	0	43	0	929038336	21	5622
2026-01-29 22:42:50.33	130.14	12.40	-30.8	-34.9	11.6	6.70e-04	0	43	0	930086912	21	5809
2026-01-29 22:42:51.34	130.28	12.33	-30.8	-35.1	11.5	7.73e-04	0	43	0	932184064	21	5896
2026-01-29 22:42:52.33	130.43	12.27	-30.9	-35.3	11.3	1.34e-03	0	43	0	934281216	21	5976
2026-01-29 22:42:53.34	130.58	12.21	-30.6	-34.5	11.8	6.41e-04	0	43	0	936378368	21	5641
2026-01-29 22:42:54.34	130.72	12.14	-30.4	-33.8	12.3	2.37e-04	0	43	0	938475520	21	5343
2026-01-29 22:42:55.34	130.87	12.08	-30.2	-33.3	12.6	1.35e-04	0	43	0	939524096	21	5156
2026-01-29 22:42:56.34	131.01	12.02	-30.2	-33.3	12.5	9.07e-05	0	43	0	941621248	21	5132
2026-01-29 22:42:57.34	131.16	11.96	-30.2	-33.1	12.8	7.93e-05	0	43	0	943718400	21	5071
2026-01-29 22:42:58.33	131.30	11.89	-30.2	-33.8	12.3	6.40e-05	0	43	0	945815552	20	5421
2026-01-29 22:42:59.34	131.44	11.83	-30.3	-33.9	12.3	7.62e-05	0	43	0	947912704	20	5469
2026-01-29 22:43:00.34	131.58	11.77	-30.3	-34.1	12.4	1.14e-04	0	43	0	948961280	20	5571
2026-01-29 22:43:01.35	131.73	11.70	-30.4	-34.4	12.2	1.82e-04	0	43	0	951058432	20	5703
2026-01-29 22:43:02.35	131.87	11.64	-30.4	-34.4	12.2	2.35e-04	0	43	0	953155584	20	5710
2026-01-29 22:43:03.36	132.01	11.58	-30.4	-34.4	12.2	2.23e-04	0	43	0	955252736	20	5716
2026-01-29 22:43:04.36	132.15	11.51	-30.3	-34.3	12.2	2.16e-04	0	43	0	957349888	20	5689
2026-01-29 22:43:05.36	132.29	11.45	-30.3	-34.2	12.3	1.88e-04	0	43	0	958398464	20	5633
2026-01-29 22:43:06.37	132.43	11.39	-30.3	-34.3	12.2	2.18e-04	0	43	0	960495616	20	5704
2026-01-29 22:43:07.37	132.56	11.32	-30.2	-34.0	12.5	5.77e-04	0	43	0	962592768	20	5551
2026-01-29 22:43:08.37	132.70	11.26	-30.3	-34.1	12.4	1.46e-04	0	43	0	964689920	20	5578
2026-01-29 22:43:09.37	132.84	11.20	-30.4	-34.3	12.3	1.56e-04	0	43	0	965738496	20	5642
2026-01-29 22:43:10.36	132.97	11.14	-30.4	-34.5	12.2	7.24e-04	0	43	0	967835648	20	5726
2026-01-29 22:43:11.36	133.11	11.07	-30.6	-34.4	11.9	3.08e-04	0	43	0	969932800	21	5574
2026-01-29 22:43:12.36	133.24	11.01	-30.7	-34.8	11.6	5.29e-04	0	43	0	972029952	21	5761
2026-01-29 22:43:13.37	133.38	10.95	-30.8	-35.1	11.3	8.22e-04	0	43	0	974127104	21	5943
2026-01-29 22:43:14.37	133.51	10.88	-30.8	-35.4	11.0	2.00e-03	0	43	0	975175680	21	6096
2026-01-29 22:43:15.37	133.64	10.82	-30.8	-35.5	10.9	1.99e-03	0	43	0	977272832	21	6176
2026-01-29 22:43:16.38	133.78	10.76	-30.8	-35.5	10.9	2.25e-03	0	43	0	979369984	21	6190
2026-01-29 22:43:17.38	133.91	10.70	-30.7	-35.2	11.0	2.28e-03	0	43	0	981467136	21	6068
2026-01-29 22:43:18.38	134.04	10.63	-30.5	-34.8	11.3	1.41e-03	0	43	0	983564288	21	5884
2026-01-29 22:43:19.38	134.17	10.57	-30.5	-34.8	11.3	1.06e-03	0	43	0	984612864	21	5882
2026-01-29 22:43:20.39	134.31	10.51	-30.6	-35.0	11.2	1.57e-03	0	43	0	986710016	21	5957
2026-01-29 22:43:21.40	134.44	10.44	-30.6	-34.9	11.2	1.68e-03	0	43	0	988807168	21	5907
2026-01-29 22:43:22.40	134.57	10.38	-30.4	-34.1	11.8	8.11e-04	0	43	0	990904320	21	5536
2026-01-29 22:43:23.40	134.70	10.32	-30.3	-33.8	12.1	3.85e-04	0	43	0	993001472	21	5389
2026-01-29 22:43:24.41	134.83	10.26	-30.3	-33.7	12.2	2.36e-04	0	43	0	994050048	21	5320
2026-01-29 22:43:25.41	134.95	10.19	-30.3	-33.8	12.0	3.47e-04	0	43	0	996147200	21	5388
2026-01-29 22:43:26.41	135.08	10.13	-30.4	-34.0	11.9	4.07e-04	0	43	0	998244352	21	5460
2026-01-29 22:43:27.41	135.21	10.07	-30.4	-33.9	12.0	3.42e-04	0	43	0	1000341504	21	5417
2026-01-29 22:43:28.41	135.33	10.01	-30.5	-34.3	11.7	5.45e-04	0	43	0	1002438656	21	5566
2026-01-29 22:43:29.41	135.46	9.94	-30.5	-34.3	11.7	7.06e-04	0	43	0	1003487232	21	5574
2026-01-29 22:43:30.41	135.58	9.88	-30.5	-34.2	11.8	4.85e-04	0	43	0	1005584384	21	5553
2026-01-29 22:43:31.42	135.71	9.82	-30.5	-34.4	11.7	6.27e-04	0	43	0	1007681536	21	5613
2026-01-29 22:43:32.42	135.83	9.76	-30.5	-34.4	11.7	7.37e-04	0	43	0	1009778688	21	5606
2026-01-29 22:43:33.42	135.96	9.69	-30.5	-34.2	11.8	5.43e-04	0	43	0	1010827264	21	5533
2026-01-29 22:43:34.43	136.08	9.63	-30.5	-34.4	11.6	6.35e-04	0	43	0	1012924416	21	5605
2026-01-29 22:43:35.43	136.21	9.57	-30.5	-34.3	11.7	7.54e-04	0	43	0	1015021568	21	5589
2026-01-29 22:43:36.42	136.33	9.51	-30.6	-34.6	11.4	7.27e-04	0	43	0	1017118720	21	5736
2026-01-29 22:43:37.43	136.45	9.45	-30.6	-34.8	11.2	1.36e-03	0	43	0	1019215872	21	5831
2026-01-29 22:43:38.44	136.57	9.38	-30.6	-34.8	11.2	1.38e-03	0	43	0	1020264448	21	5848
2026-01-29 22:43:39.44	136.69	9.32	-30.6	-35.2	10.9	1.70e-03	0	43	0	1022361600	21	6058
2026-01-29 22:43:40.44	136.81	9.26	-30.6	-35.2	10.8	2.29e-03	0	43	0	1024458752	21	6119
2026-01-29 22:43:41.45	136.93	9.20	-30.7	-35.4	10.6	3.57e-03	0	43	0	1026555904	21	6202
2026-01-29 22:43:42.45	137.05	9.13	-30.7	-35.5	10.6	3.79e-03	0	43	0	1028653056	21	6254
2026-01-29 22:43:43.45	137.17	9.07	-30.6	-35.3	10.7	4.38e-03	0	43	0	1029701632	21	6189
2026-01-29 22:43:44.45	137.29	9.01	-30.6	-35.2	10.7	3.35e-03	0	43	0	1031798784	21	6134
2026-01-29 22:43:45.45	137.41	8.95	-30.7	-35.4	10.7	3.44e-03	0	43	0	1033895936	21	6187
2026-01-29 22:43:46.46	137.53	8.89	-30.6	-35.2	10.8	3.26e-03	0	43	0	1035993088	21	6067
2026-01-29 22:43:47.46	137.64	8.83	-30.7	-35.4	10.6	2.86e-03	0	43	0	1038090240	21	6167
2026-01-29 22:43:48.47	137.76	8.76	-30.7	-35.3	10.8	3.49e-03	0	43	0	1039138816	21	6076
2026-01-29 22:43:49.47	137.88	8.70	-30.7	-35.0	11.0	2.27e-03	0	43	0	1041235968	21	5936
2026-01-29 22:43:50.48	137.99	8.64	-30.7	-35.2	10.8	2.21e-03	0	43	0	1043333120	21	6014
2026-01-29 22:43:51.48	138.11	8.58	-30.7	-35.1	10.9	2.51e-03	0	43	0	1045430272	21	5998
2026-01-29 22:43:52.49	138.22	8.52	-30.7	-35.1	10.9	2.29e-03	0	43	0	1047527424	21	5992
2026-01-29 22:43:53.49	138.34	8.46	-30.8	-35.4	10.7	2.81e-03	0	43	0	1048576000	21	6135
2026-01-29 22:43:54.50	138.45	8.39	-30.7	-35.4	10.6	3.09e-03	0	43	0	1050673152	21	6165
2026-01-29 22:43:55.49	138.56	8.33	-30.8	-35.8	10.3	5.16e-03	0	43	0	1052770304	21	6381
2026-01-29 22:43:56.49	138.68	8.27	-30.8	-35.8	10.3	5.96e-03	0	43	0	1054867456	21	6374
2026-01-29 22:43:57.49	138.79	8.21	-30.8	-35.8	10.3	5.12e-03	0	43	0	1055916032	21	6372
2026-01-29 22:43:58.49	138.90	8.15	-30.9	-36.1	10.0	7.00e-03	0	43	0	1058013184	21	6576
2026-01-29 22:43:59.49	139.01	8.09	-30.9	-36.1	10.0	8.78e-03	0	43	0	1060110336	21	6581
2026-01-29 22:44:00.49	139.12	8.03	-30.9	-36.2	9.9	7.64e-03	0	43	0	1062207488	21	6620
2026-01-29 22:44:01.49	139.23	7.97	-31.0	-36.4	9.8	9.67e-03	0	43	0	1064304640	21	6687
2026-01-29 22:44:02.50	139.34	7.91	-31.0	-36.2	9.9	8.71e-03	0	44	0	1065353216	21	6616
2026-01-29 22:44:03.50	139.45	7.85	-31.1	-36.3	9.5	1.03e-02	0	43	0	1067450368	22	6526
2026-01-29 22:44:04.50	139.56	7.79	-31.1	-36.4	9.4	1.76e-02	0	43	0	1069547520	22	6594
2026-01-29 22:44:05.50	139.67	7.73	-31.1	-36.2	9.6	1.30e-02	0	43	0	1071644672	22	6490
2026-01-29 22:44:06.50	139.78	7.66	-31.2	-36.5	9.3	1.73e-02	0	43	0	1073741824	22	6651
2026-01-29 22:44:07.51	139.89	7.60	-31.1	-36.3	9.3	1.85e-02	0	43	0	1074790400	22	6599
2026-01-29 22:44:08.51	140.00	7.54	-31.1	-36.6	9.1	1.96e-02	0	43	0	1076887552	22	6750
2026-01-29 22:44:09.52	140.10	7.48	-31.0	-36.6	9.1	2.25e-02	0	43	0	1078984704	22	6799
2026-01-29 22:44:10.52	140.21	7.42	-30.9	-36.4	9.2	2.34e-02	0	43	0	1081081856	22	6719
2026-01-29 22:44:11.53	140.32	7.36	-30.9	-36.4	9.1	2.39e-02	0	43	0	1083179008	22	6784
2026-01-29 22:44:12.54	140.42	7.30	-30.7	-36.0	9.2	1.99e-02	0	43	0	1084227584	22	6654
2026-01-29 22:44:13.54	140.53	7.24	-30.6	-36.3	9.3	1.81e-02	0	43	0	1086324736	21	6951
2026-01-29 22:44:14.55	140.64	7.18	-30.7	-36.7	9.0	2.20e-02	0	44	0	1088421888	21	7214
2026-01-29 22:44:15.54	140.74	7.12	-30.7	-36.7	9.0	2.68e-02	0	43	0	1090519040	21	7226
2026-01-29 22:44:16.55	140.84	7.06	-32.7	-46.7	3.8	6.63e-02	0	43	104	1091567616	25	18141
2026-01-29 22:44:17.55	140.95	7.00	-33.4	-47.9	3.8	1.49e+00	0	43	104	1091567616	26	19071

#Closed at: 2026-01-29 22:44:18
#Recorded file [1091 MB]: D:/data/31010_260130_013433.dat