passes_logs/2026/01/29/R2M6_AANII_01/R2M6_AANII_01__20260129_061227_FENGYUN_3E_rec.log

#Pass ID: 20260129_061227_FENGYUN 3E
#Satellite: FENGYUN 3E
#Configuration: FENGYUN 3E
#almurnet v.1.7.20240730
#Start time: 2026-01-29 06:12:26

#Version: 2.2.20231116
#Station: R2M6_AANII_01
#Location: 30.233357 lon 59.946436 lat
#TLE: 1 49008U 21062A   26027.97178348  .00000209  00000+0  11900-3 0  9990
#TLE: 2 49008  98.7501  32.9491 0002537 114.6782 245.4659 14.19888434236687

#Time	Az	El	Level	Level2	SNR	BER	BlckErr	Temp	State	Recorded	gain1	gain2
2026-01-29 06:12:26.79	11.47	6.95	-31.6	-36.6	4.3	8.32e-01	0	40	0	0	23	6404
2026-01-29 06:12:27.79	11.39	7.02	-31.0	-35.3	4.6	8.12e-01	0	40	104	0	21	5940
2026-01-29 06:12:28.80	11.32	7.09	-31.0	-35.1	6.4	2.69e-01	0	40	0	0	21	5771
2026-01-29 06:12:29.80	11.24	7.15	-30.8	-34.5	6.7	2.08e-01	0	40	0	7340032	21	5514
2026-01-29 06:12:30.81	11.16	7.22	-30.8	-34.6	6.7	1.76e-01	0	40	0	14680064	21	5538
2026-01-29 06:12:31.81	11.09	7.29	-30.8	-34.6	6.8	1.95e-01	0	40	0	20971520	21	5545
2026-01-29 06:12:32.81	11.01	7.36	-31.0	-35.0	6.5	2.13e-01	0	40	0	28311552	21	5719
2026-01-29 06:12:33.81	10.93	7.43	-30.8	-34.6	6.7	2.08e-01	0	41	0	35651584	21	5565
2026-01-29 06:12:34.81	10.85	7.50	-30.5	-34.0	7.4	1.37e-01	0	40	0	42991616	20	5368
2026-01-29 06:12:35.82	10.77	7.57	-30.0	-32.5	8.4	6.64e-02	0	40	0	50331648	20	4811
2026-01-29 06:12:36.82	10.69	7.64	-29.6	-31.8	9.4	2.18e-02	0	41	0	57671680	19	4620
2026-01-29 06:12:37.81	10.61	7.70	-28.9	-30.6	10.5	1.09e-02	0	40	0	65011712	18	4340
2026-01-29 06:12:38.81	10.53	7.77	-28.4	-30.2	11.4	3.72e-03	0	41	0	72351744	16	4452
2026-01-29 06:12:39.81	10.45	7.84	-27.9	-29.0	12.1	4.77e-04	0	41	0	79691776	16	4087
2026-01-29 06:12:40.82	10.37	7.91	-27.3	-28.6	12.8	1.12e-04	0	41	0	85983232	14	4187
2026-01-29 06:12:41.82	10.29	7.98	-26.9	-28.3	13.3	1.79e-03	0	41	0	93323264	13	4212
2026-01-29 06:12:42.82	10.21	8.05	-26.7	-27.8	13.5	2.40e-05	0	41	0	100663296	13	4091
2026-01-29 06:12:43.82	10.13	8.12	-26.5	-27.8	13.8	2.01e-03	0	41	0	108003328	12	4196
2026-01-29 06:12:44.82	10.04	8.19	-26.6	-28.0	13.7	1.51e-03	0	41	0	115343360	12	4241
2026-01-29 06:12:45.83	9.96	8.26	-26.7	-27.8	13.6	5.70e-06	0	41	0	122683392	13	4085
2026-01-29 06:12:46.83	9.88	8.33	-26.9	-28.2	13.4	1.54e-03	0	41	0	130023424	13	4185
2026-01-29 06:12:47.84	9.79	8.41	-26.7	-27.8	13.6	1.67e-03	0	41	0	137363456	13	4098
2026-01-29 06:12:48.84	9.71	8.48	-26.6	-27.5	13.8	1.25e-05	0	41	0	144703488	13	3994
2026-01-29 06:12:49.85	9.62	8.55	-26.5	-27.4	13.8	1.55e-03	0	41	0	152043520	13	3984
2026-01-29 06:12:50.86	9.54	8.62	-26.5	-27.9	13.8	2.27e-04	0	41	0	159383552	12	4218
2026-01-29 06:12:51.86	9.45	8.69	-26.4	-27.6	14.0	1.10e-06	0	41	0	165675008	12	4135
2026-01-29 06:12:52.87	9.37	8.76	-26.5	-27.8	13.9	2.83e-04	0	41	0	173015040	12	4198
2026-01-29 06:12:53.87	9.28	8.83	-26.3	-27.4	14.2	1.46e-03	0	41	0	180355072	12	4069
2026-01-29 06:12:54.87	9.19	8.90	-26.2	-27.2	14.3	3.40e-06	0	41	0	187695104	12	4019
2026-01-29 06:12:55.87	9.11	8.98	-26.1	-26.9	14.4	2.77e-04	0	41	0	195035136	12	3955
2026-01-29 06:12:56.88	9.02	9.05	-26.2	-27.1	14.3	1.80e-03	0	41	0	202375168	12	4007
2026-01-29 06:12:57.88	8.93	9.12	-26.2	-27.1	14.3	2.20e-06	0	41	0	209715200	12	4007
2026-01-29 06:12:58.89	8.84	9.19	-26.1	-27.0	14.4	1.76e-04	0	41	0	217055232	12	3978
2026-01-29 06:12:59.89	8.75	9.27	-26.3	-27.3	14.3	1.62e-03	0	41	0	224395264	12	4041
2026-01-29 06:13:00.89	8.66	9.34	-26.2	-27.2	14.3	1.10e-06	0	41	0	230686720	12	4012
2026-01-29 06:13:01.89	8.57	9.41	-26.1	-26.8	14.5	1.60e-03	0	41	0	238026752	12	3922
2026-01-29 06:13:02.89	8.48	9.48	-26.0	-26.6	14.6	2.74e-05	0	41	0	245366784	12	3876
2026-01-29 06:13:03.89	8.39	9.56	-25.9	-26.5	14.7	1.10e-06	0	41	0	252706816	12	3853
2026-01-29 06:13:04.89	8.30	9.63	-26.1	-26.9	14.5	1.53e-03	0	41	0	260046848	12	3941
2026-01-29 06:13:05.90	8.21	9.70	-26.1	-26.9	14.5	8.69e-05	0	41	0	267386880	12	3945
2026-01-29 06:13:06.90	8.11	9.78	-26.1	-26.8	14.6	1.10e-06	0	41	0	274726912	12	3926
2026-01-29 06:13:07.90	8.02	9.85	-26.1	-26.9	14.5	1.10e-06	0	41	0	282066944	12	3944
2026-01-29 06:13:08.91	7.93	9.92	-26.0	-26.7	14.6	1.45e-04	0	41	0	289406976	12	3894
2026-01-29 06:13:09.91	7.83	10.00	-26.4	-27.6	14.1	0.00e+00	0	41	0	296747008	12	4121
2026-01-29 06:13:10.92	7.74	10.07	-26.3	-27.3	14.3	4.69e-05	0	42	0	304087040	12	4051
2026-01-29 06:13:11.92	7.64	10.15	-26.2	-27.2	14.3	4.57e-05	0	42	0	311427072	12	4034
2026-01-29 06:13:12.93	7.55	10.22	-26.3	-27.4	14.2	1.10e-06	0	41	0	317718528	12	4080
2026-01-29 06:13:13.93	7.45	10.29	-26.4	-27.5	14.1	5.70e-06	0	41	0	325058560	12	4110
2026-01-29 06:13:14.93	7.35	10.37	-26.4	-27.5	14.2	3.40e-06	0	41	0	332398592	12	4099
2026-01-29 06:13:15.93	7.26	10.44	-26.4	-27.6	14.1	1.10e-06	0	42	0	339738624	12	4129
2026-01-29 06:13:16.94	7.16	10.52	-26.4	-27.6	14.1	3.40e-06	0	42	0	347078656	12	4123
2026-01-29 06:13:17.94	7.06	10.59	-26.6	-27.9	13.9	3.40e-06	0	41	0	354418688	12	4218
2026-01-29 06:13:18.94	6.96	10.67	-26.4	-27.5	14.2	0.00e+00	0	41	0	361758720	12	4109
2026-01-29 06:13:19.95	6.86	10.74	-26.1	-26.9	14.6	2.20e-06	0	42	0	369098752	12	3942
2026-01-29 06:13:20.96	6.76	10.82	-26.1	-26.9	14.5	0.00e+00	0	42	0	376438784	12	3953
2026-01-29 06:13:21.97	6.66	10.90	-26.1	-26.8	14.6	1.10e-06	0	42	0	383778816	12	3925
2026-01-29 06:13:22.97	6.56	10.97	-26.1	-26.8	14.6	0.00e+00	0	42	0	391118848	12	3927
2026-01-29 06:13:23.97	6.46	11.05	-26.2	-27.2	14.4	0.00e+00	0	42	0	397410304	12	4013
2026-01-29 06:13:24.98	6.36	11.12	-26.2	-27.2	14.4	0.00e+00	0	42	0	404750336	12	4009
2026-01-29 06:13:25.99	6.26	11.20	-26.2	-27.1	14.5	2.20e-06	0	42	0	412090368	12	3997
2026-01-29 06:13:26.99	6.15	11.28	-26.1	-26.9	14.6	0.00e+00	0	42	0	419430400	12	3943
2026-01-29 06:13:28.00	6.05	11.35	-26.0	-26.7	14.7	0.00e+00	0	42	0	426770432	12	3894
2026-01-29 06:13:28.99	5.95	11.43	-26.1	-26.8	14.6	0.00e+00	0	42	0	434110464	12	3921
2026-01-29 06:13:30.00	5.84	11.51	-26.1	-26.9	14.6	0.00e+00	0	42	0	441450496	12	3941
2026-01-29 06:13:31.00	5.74	11.58	-26.1	-26.9	14.6	0.00e+00	0	42	0	448790528	12	3939
2026-01-29 06:13:32.00	5.63	11.66	-26.4	-27.4	14.3	1.10e-06	0	42	0	456130560	12	4082
2026-01-29 06:13:33.00	5.52	11.74	-26.0	-26.7	14.7	1.10e-06	0	42	0	463470592	12	3893
2026-01-29 06:13:34.01	5.42	11.81	-25.8	-26.3	15.0	0.00e+00	0	42	0	470810624	12	3788
2026-01-29 06:13:35.01	5.31	11.89	-25.7	-26.5	15.2	1.10e-06	0	42	0	478150656	11	3941
2026-01-29 06:13:36.01	5.20	11.97	-25.8	-26.6	15.1	0.00e+00	0	42	0	484442112	11	3981
2026-01-29 06:13:37.01	5.09	12.05	-25.7	-26.6	15.2	0.00e+00	0	42	0	491782144	11	3964
2026-01-29 06:13:38.02	4.98	12.13	-25.6	-26.4	15.3	0.00e+00	0	42	0	499122176	11	3908
2026-01-29 06:13:39.02	4.87	12.20	-25.7	-26.5	15.2	1.10e-06	0	42	0	506462208	11	3943
2026-01-29 06:13:40.03	4.76	12.28	-25.7	-26.5	15.2	0.00e+00	0	42	0	513802240	11	3954
2026-01-29 06:13:41.04	4.65	12.36	-25.7	-26.5	15.2	0.00e+00	0	42	0	521142272	11	3942
2026-01-29 06:13:42.04	4.54	12.44	-25.7	-26.4	15.2	0.00e+00	0	42	0	528482304	11	3920
2026-01-29 06:13:43.04	4.43	12.52	-25.6	-26.3	15.3	0.00e+00	0	42	0	535822336	11	3903
2026-01-29 06:13:44.05	4.31	12.60	-25.6	-26.3	15.3	0.00e+00	0	42	0	543162368	11	3899
2026-01-29 06:13:45.04	4.20	12.67	-25.6	-26.2	15.4	0.00e+00	0	42	0	550502400	11	3878
2026-01-29 06:13:46.05	4.09	12.75	-25.5	-26.1	15.4	0.00e+00	0	42	0	557842432	11	3850
2026-01-29 06:13:47.05	3.97	12.83	-25.6	-26.3	15.3	0.00e+00	0	42	0	564133888	11	3896
2026-01-29 06:13:48.05	3.86	12.91	-25.7	-26.5	15.3	0.00e+00	0	42	0	571473920	11	3929
2026-01-29 06:13:49.05	3.74	12.99	-25.5	-26.0	15.5	0.00e+00	0	42	0	578813952	11	3827
2026-01-29 06:13:50.05	3.62	13.07	-25.4	-26.3	15.6	0.00e+00	0	42	0	586153984	10	4009
2026-01-29 06:13:51.06	3.51	13.15	-25.4	-26.4	15.6	0.00e+00	0	42	0	593494016	10	4035
2026-01-29 06:13:52.06	3.39	13.23	-25.4	-26.4	15.6	0.00e+00	0	42	0	600834048	10	4021
2026-01-29 06:13:53.06	3.27	13.31	-25.4	-26.3	15.7	0.00e+00	0	42	0	608174080	10	3993
2026-01-29 06:13:54.06	3.15	13.39	-25.4	-26.2	15.7	0.00e+00	0	42	0	615514112	10	3975
2026-01-29 06:13:55.07	3.03	13.47	-25.4	-26.3	15.6	0.00e+00	0	42	0	622854144	10	4002
2026-01-29 06:13:56.07	2.91	13.55	-25.3	-26.0	15.8	0.00e+00	0	42	0	629145600	10	3935
2026-01-29 06:13:57.08	2.79	13.63	-25.3	-26.0	15.8	0.00e+00	0	42	0	636485632	10	3923
2026-01-29 06:13:58.09	2.66	13.71	-24.8	-25.7	15.5	0.00e+00	0	42	0	644874240	10	3980
2026-01-29 06:13:59.09	2.54	13.79	-24.6	-25.4	12.3	0.00e+00	0	42	0	651165696	10	3922
2026-01-29 06:14:00.09	2.42	13.88	-25.4	-26.3	15.7	0.00e+00	0	42	0	658505728	10	3990
2026-01-29 06:14:01.10	2.29	13.96	-25.2	-26.0	15.4	0.00e+00	0	42	0	665845760	10	3919
2026-01-29 06:14:02.11	2.17	14.04	-25.1	-25.8	15.9	0.00e+00	0	42	0	673185792	10	3868
2026-01-29 06:14:03.11	2.04	14.12	-25.2	-25.9	15.9	0.00e+00	0	42	0	680525824	10	3903
2026-01-29 06:14:04.12	1.91	14.20	-25.3	-26.1	15.8	0.00e+00	0	42	0	687865856	10	3958
2026-01-29 06:14:05.12	1.79	14.28	-25.2	-25.9	15.9	0.00e+00	0	42	0	695205888	10	3894
2026-01-29 06:14:06.12	1.66	14.37	-25.2	-25.9	15.9	0.00e+00	0	42	0	702545920	10	3895
2026-01-29 06:14:07.12	1.53	14.45	-25.2	-25.8	16.0	1.36e-03	0	42	0	709885952	10	3871
2026-01-29 06:14:08.13	1.40	14.53	-25.3	-26.0	15.9	0.00e+00	0	42	0	716177408	10	3920
2026-01-29 06:14:09.13	1.27	14.61	-25.2	-25.9	16.0	0.00e+00	0	42	0	723517440	10	3907
2026-01-29 06:14:10.13	1.14	14.69	-25.3	-26.1	15.8	0.00e+00	0	42	0	730857472	10	3947
2026-01-29 06:14:11.14	1.01	14.78	-25.1	-25.7	16.1	1.54e-03	0	42	0	738197504	10	3843
2026-01-29 06:14:12.14	0.88	14.86	-25.1	-25.6	16.1	0.00e+00	0	42	0	745537536	10	3820
2026-01-29 06:14:13.15	0.74	14.94	-25.1	-25.6	16.1	0.00e+00	0	42	0	752877568	10	3818
2026-01-29 06:14:14.15	0.61	15.02	-25.2	-25.9	15.9	1.36e-03	0	42	0	760217600	10	3903
2026-01-29 06:14:15.15	0.48	15.11	-25.1	-25.6	16.1	0.00e+00	0	42	0	767557632	10	3814
2026-01-29 06:14:16.15	0.34	15.19	-25.0	-25.5	16.2	1.37e-03	0	42	0	774897664	10	3793
2026-01-29 06:14:17.16	0.20	15.27	-25.2	-26.0	15.9	1.48e-03	0	42	0	782237696	10	3910
2026-01-29 06:14:18.16	0.07	15.36	-25.2	-25.9	16.0	0.00e+00	0	42	0	789577728	10	3895
2026-01-29 06:14:19.16	359.93	15.44	-25.2	-25.8	16.0	1.65e-03	0	42	0	795869184	10	3872
2026-01-29 06:14:20.16	359.79	15.52	-25.2	-25.8	16.0	1.54e-03	0	42	0	803209216	10	3883
2026-01-29 06:14:21.17	359.65	15.61	-25.2	-25.9	16.0	0.00e+00	0	42	0	810549248	10	3887
2026-01-29 06:14:22.17	359.51	15.69	-25.0	-25.5	16.2	1.51e-03	0	42	0	817889280	10	3800
2026-01-29 06:14:23.18	359.37	15.78	-25.1	-26.1	16.1	1.17e-03	0	42	0	825229312	9	4041
2026-01-29 06:14:24.18	359.23	15.86	-25.1	-25.6	16.2	0.00e+00	0	42	0	832569344	10	3823
2026-01-29 06:14:25.18	359.09	15.94	-24.9	-25.7	16.4	1.33e-03	0	42	0	839909376	9	3951
2026-01-29 06:14:26.19	358.94	16.03	-25.0	-25.9	16.3	1.74e-03	0	42	0	847249408	9	3993
2026-01-29 06:14:27.20	358.80	16.11	-24.7	-25.2	16.6	0.00e+00	0	42	0	854589440	9	3840
2026-01-29 06:14:28.20	358.65	16.20	-24.5	-24.9	16.8	3.03e-04	0	42	0	861929472	9	3749
2026-01-29 06:14:29.21	358.51	16.28	-24.6	-25.5	16.7	1.66e-03	0	42	0	869269504	8	4013
2026-01-29 06:14:30.21	358.36	16.37	-24.6	-25.1	16.7	0.00e+00	0	42	0	876609536	9	3799
2026-01-29 06:14:31.22	358.21	16.45	-24.4	-24.6	16.9	1.58e-03	0	42	0	882900992	9	3701
2026-01-29 06:14:32.22	358.07	16.54	-24.4	-25.1	17.0	1.50e-03	0	42	0	890241024	8	3909
2026-01-29 06:14:33.23	357.91	16.62	-24.2	-24.8	17.1	0.00e+00	0	42	0	897581056	8	3831
2026-01-29 06:14:34.24	357.76	16.71	-24.3	-24.9	17.0	1.56e-03	0	43	0	904921088	8	3870
2026-01-29 06:14:35.24	357.61	16.79	-24.4	-25.1	17.0	0.00e+00	0	42	0	912261120	8	3910
2026-01-29 06:14:36.24	357.46	16.88	-24.4	-25.1	17.0	0.00e+00	0	43	0	919601152	8	3916
2026-01-29 06:14:37.25	357.31	16.96	-24.5	-25.5	16.8	0.00e+00	0	42	0	926941184	8	3998
2026-01-29 06:14:38.25	357.15	17.05	-24.7	-25.2	16.6	3.36e-04	0	43	0	934281216	9	3839
2026-01-29 06:14:39.26	357.00	17.13	-24.6	-25.1	16.7	0.00e+00	0	42	0	941621248	9	3806
2026-01-29 06:14:40.26	356.84	17.22	-24.6	-25.0	16.7	0.00e+00	0	42	0	948961280	9	3793
2026-01-29 06:14:41.27	356.69	17.31	-24.7	-25.3	16.6	2.87e-04	0	42	0	956301312	9	3849
2026-01-29 06:14:42.27	356.53	17.39	-24.8	-25.5	16.5	0.00e+00	0	43	0	963641344	9	3906
2026-01-29 06:14:43.27	356.37	17.48	-24.6	-25.1	16.7	0.00e+00	0	42	0	969932800	9	3814
2026-01-29 06:14:44.27	356.21	17.56	-24.6	-25.1	16.7	4.20e-04	0	42	0	977272832	9	3819
2026-01-29 06:14:45.27	356.05	17.65	-24.5	-24.9	16.8	0.00e+00	0	43	0	984612864	9	3766
2026-01-29 06:14:46.28	355.89	17.73	-24.4	-25.2	16.9	4.20e-04	0	42	0	991952896	8	3940
2026-01-29 06:14:47.28	355.73	17.82	-24.4	-25.3	16.9	1.10e-06	0	42	0	999292928	8	3955
2026-01-29 06:14:48.29	355.57	17.91	-24.4	-25.1	17.0	0.00e+00	0	42	0	1006632960	8	3911
2026-01-29 06:14:49.29	355.40	17.99	-24.4	-25.1	17.0	0.00e+00	0	42	0	1013972992	8	3911
2026-01-29 06:14:50.29	355.24	18.08	-24.4	-25.0	17.0	0.00e+00	0	42	0	1021313024	8	3901
2026-01-29 06:14:51.29	355.07	18.16	-24.2	-24.8	17.1	0.00e+00	0	43	0	1028653056	8	3841
2026-01-29 06:14:52.29	354.91	18.25	-24.2	-24.8	17.2	0.00e+00	0	43	0	1035993088	8	3837
2026-01-29 06:14:53.30	354.74	18.34	-24.2	-24.8	17.2	0.00e+00	0	42	0	1043333120	8	3840
2026-01-29 06:14:54.31	354.57	18.42	-24.3	-24.9	17.1	0.00e+00	0	43	0	1049624576	8	3867
2026-01-29 06:14:55.31	354.40	18.51	-24.4	-25.1	17.0	0.00e+00	0	42	0	1056964608	8	3909
2026-01-29 06:14:56.31	354.23	18.60	-24.4	-25.1	17.0	0.00e+00	0	43	0	1064304640	8	3926
2026-01-29 06:14:57.31	354.06	18.68	-24.4	-25.2	16.9	0.00e+00	0	42	0	1071644672	8	3948
2026-01-29 06:14:58.31	353.89	18.77	-24.5	-25.3	16.9	0.00e+00	0	43	0	1078984704	8	3959
2026-01-29 06:14:59.31	353.72	18.86	-24.2	-24.8	17.1	0.00e+00	0	43	0	1086324736	8	3847
2026-01-29 06:15:00.32	353.54	18.94	-24.2	-24.7	17.2	0.00e+00	0	43	0	1093664768	8	3817
2026-01-29 06:15:01.32	353.36	19.03	-24.2	-24.7	17.2	0.00e+00	0	43	0	1101004800	8	3823
2026-01-29 06:15:02.33	353.19	19.12	-24.4	-25.0	17.1	0.00e+00	0	43	0	1108344832	8	3900
2026-01-29 06:15:03.34	353.01	19.20	-24.4	-25.2	17.0	1.10e-06	0	43	0	1115684864	8	3945
2026-01-29 06:15:04.34	352.83	19.29	-24.4	-25.2	17.0	0.00e+00	0	42	0	1123024896	8	3946
2026-01-29 06:15:05.34	352.65	19.38	-24.5	-25.3	16.9	0.00e+00	0	43	0	1130364928	8	3966
2026-01-29 06:15:06.35	352.47	19.46	-24.5	-25.3	16.9	0.00e+00	0	42	0	1136656384	8	3963
2026-01-29 06:15:07.36	352.29	19.55	-24.3	-25.0	17.1	0.00e+00	0	42	0	1143996416	8	3890
2026-01-29 06:15:08.36	352.10	19.64	-24.3	-25.0	17.1	0.00e+00	0	43	0	1151336448	8	3886
2026-01-29 06:15:09.37	351.92	19.73	-24.5	-25.3	16.9	0.00e+00	0	42	0	1158676480	8	3967
2026-01-29 06:15:10.37	351.73	19.81	-24.5	-24.9	16.9	0.00e+00	0	43	0	1166016512	9	3750
2026-01-29 06:15:11.38	351.55	19.90	-24.4	-25.2	17.0	0.00e+00	0	43	0	1173356544	8	3947
2026-01-29 06:15:12.37	351.36	19.99	-24.6	-25.0	16.8	0.00e+00	0	42	0	1180696576	9	3794
2026-01-29 06:15:13.37	351.17	20.07	-24.5	-25.3	17.0	0.00e+00	0	42	0	1188036608	8	3962
2026-01-29 06:15:14.38	350.98	20.16	-24.9	-25.6	16.5	0.00e+00	0	43	0	1194328064	9	3928
2026-01-29 06:15:15.38	350.79	20.25	-25.1	-25.6	16.3	0.00e+00	0	43	0	1201668096	10	3826
2026-01-29 06:15:16.39	350.60	20.33	-24.9	-25.1	16.6	0.00e+00	0	43	0	1210056704	10	3716
2026-01-29 06:15:17.39	350.41	20.42	-24.9	-25.8	16.5	0.00e+00	0	43	0	1217396736	9	3972
2026-01-29 06:15:18.40	350.21	20.51	-25.0	-25.8	16.4	0.00e+00	0	43	0	1223688192	9	3979
2026-01-29 06:15:19.40	350.02	20.59	-25.0	-26.0	16.3	0.00e+00	0	43	0	1231028224	9	4013
2026-01-29 06:15:20.40	349.83	20.68	-25.0	-25.5	16.3	0.00e+00	0	43	0	1238368256	10	3806
2026-01-29 06:15:21.41	349.63	20.76	-25.0	-25.5	16.3	0.00e+00	0	42	0	1245708288	10	3798
2026-01-29 06:15:22.41	349.43	20.85	-25.2	-25.8	16.2	0.00e+00	0	43	0	1253048320	10	3861
2026-01-29 06:15:23.41	349.23	20.94	-25.3	-26.0	16.1	0.00e+00	0	43	0	1260388352	10	3909
2026-01-29 06:15:24.41	349.03	21.02	-24.8	-24.9	16.6	0.00e+00	0	43	0	1267728384	10	3664
2026-01-29 06:15:25.41	348.83	21.11	-24.5	-24.3	17.1	0.00e+00	0	43	0	1275068416	10	3520
2026-01-29 06:15:26.41	348.63	21.19	-24.2	-24.2	17.3	0.00e+00	0	43	0	1281359872	9	3603
2026-01-29 06:15:27.41	348.42	21.28	-24.1	-24.0	17.4	0.00e+00	0	43	0	1288699904	9	3556
2026-01-29 06:15:28.42	348.22	21.37	-24.0	-23.8	17.5	0.00e+00	0	43	0	1296039936	9	3526
2026-01-29 06:15:29.42	348.01	21.45	-24.0	-24.2	17.5	0.00e+00	0	43	0	1303379968	8	3712
2026-01-29 06:15:30.43	347.80	21.54	-23.9	-24.2	17.6	0.00e+00	0	43	0	1310720000	8	3693
2026-01-29 06:15:31.43	347.60	21.62	-24.0	-24.3	17.5	0.00e+00	0	43	0	1318060032	8	3730
2026-01-29 06:15:32.43	347.39	21.71	-24.1	-24.4	17.4	0.00e+00	0	43	0	1325400064	8	3756
2026-01-29 06:15:33.43	347.18	21.79	-24.0	-24.3	17.5	0.00e+00	0	43	0	1332740096	8	3715
2026-01-29 06:15:34.44	346.96	21.88	-24.1	-24.4	17.4	0.00e+00	0	43	0	1340080128	8	3757
2026-01-29 06:15:35.45	346.75	21.96	-24.1	-24.6	17.4	0.00e+00	0	43	0	1347420160	8	3790
2026-01-29 06:15:36.45	346.54	22.05	-24.2	-24.7	17.3	0.00e+00	0	43	0	1354760192	8	3813
2026-01-29 06:15:37.46	346.32	22.13	-24.3	-24.9	17.2	0.00e+00	0	43	0	1362100224	8	3860
2026-01-29 06:15:38.46	346.10	22.22	-24.2	-24.7	17.3	0.00e+00	0	43	0	1368391680	8	3828
2026-01-29 06:15:39.47	345.88	22.30	-24.3	-25.0	17.2	0.00e+00	0	43	0	1375731712	8	3889
2026-01-29 06:15:40.47	345.66	22.39	-24.2	-24.8	17.2	0.00e+00	0	43	0	1383071744	8	3851
2026-01-29 06:15:41.47	345.44	22.47	-24.0	-24.3	17.5	0.00e+00	0	43	0	1390411776	8	3720
2026-01-29 06:15:42.48	345.22	22.55	-23.5	-23.7	16.9	0.00e+00	0	43	0	1397751808	8	3707
2026-01-29 06:15:43.48	345.00	22.64	-23.9	-24.1	13.8	0.00e+00	0	43	0	1405091840	8	3676
2026-01-29 06:15:44.48	344.78	22.72	-23.9	-24.1	17.6	0.00e+00	0	43	0	1412431872	8	3680
2026-01-29 06:15:45.49	344.55	22.80	-23.8	-23.9	17.7	0.00e+00	0	43	0	1419771904	8	3635
2026-01-29 06:15:46.50	344.32	22.89	-23.6	-23.9	17.9	1.14e-03	0	43	0	1427111936	7	3744
2026-01-29 06:15:47.50	344.09	22.97	-23.5	-23.8	18.0	0.00e+00	0	43	0	1434451968	7	3713
2026-01-29 06:15:48.50	343.87	23.05	-23.6	-23.9	18.0	0.00e+00	0	43	0	1441792000	7	3725
2026-01-29 06:15:49.51	343.63	23.14	-23.6	-23.9	17.9	1.23e-03	0	43	0	1448083456	7	3746
2026-01-29 06:15:50.51	343.40	23.22	-23.6	-23.9	17.9	0.00e+00	0	43	0	1455423488	7	3749
2026-01-29 06:15:51.51	343.17	23.30	-23.6	-23.9	18.0	1.24e-03	0	43	0	1462763520	7	3749
2026-01-29 06:15:52.52	342.94	23.38	-23.4	-23.5	18.1	0.00e+00	0	43	0	1470103552	7	3650
2026-01-29 06:15:53.52	342.70	23.46	-23.3	-23.4	18.2	0.00e+00	0	43	0	1477443584	7	3627
2026-01-29 06:15:54.53	342.46	23.54	-23.5	-23.6	18.1	1.18e-03	0	43	0	1484783616	7	3679
2026-01-29 06:15:55.53	342.23	23.62	-23.6	-23.9	18.0	0.00e+00	0	43	0	1492123648	7	3728
2026-01-29 06:15:56.54	341.99	23.70	-23.5	-23.8	18.0	0.00e+00	0	43	0	1499463680	7	3716
2026-01-29 06:15:57.54	341.75	23.78	-23.5	-23.8	18.0	7.74e-04	0	43	0	1506803712	7	3725
2026-01-29 06:15:58.55	341.50	23.87	-23.4	-23.6	18.2	1.28e-03	0	43	0	1514143744	7	3665
2026-01-29 06:15:59.55	341.26	23.94	-23.4	-23.6	18.1	0.00e+00	0	43	0	1521483776	7	3677
2026-01-29 06:16:00.55	341.02	24.02	-23.4	-23.5	18.2	1.33e-03	0	43	0	1528823808	7	3660
2026-01-29 06:16:01.56	340.77	24.10	-23.4	-23.9	18.2	1.30e-03	0	43	0	1535115264	6	3854
2026-01-29 06:16:02.56	340.53	24.18	-23.2	-23.7	18.3	0.00e+00	0	43	0	1542455296	6	3791
2026-01-29 06:16:03.57	340.28	24.26	-23.2	-23.7	18.3	1.25e-03	0	43	0	1549795328	6	3785
2026-01-29 06:16:04.57	340.03	24.34	-23.3	-23.7	18.3	1.35e-03	0	43	0	1557135360	6	3806
2026-01-29 06:16:05.57	339.78	24.41	-23.2	-23.6	18.4	0.00e+00	0	43	0	1564475392	6	3768
2026-01-29 06:16:06.57	339.53	24.49	-23.3	-23.7	18.3	1.49e-03	0	43	0	1571815424	6	3806
2026-01-29 06:16:07.58	339.28	24.57	-23.2	-23.6	18.4	1.57e-03	0	43	0	1579155456	6	3772
2026-01-29 06:16:08.58	339.02	24.65	-23.2	-23.6	18.4	0.00e+00	0	43	0	1586495488	6	3767
2026-01-29 06:16:09.59	338.77	24.72	-23.4	-24.1	18.2	1.74e-03	0	43	0	1593835520	6	3878
2026-01-29 06:16:10.59	338.51	24.80	-23.4	-24.1	18.2	3.91e-04	0	43	0	1601175552	6	3881
2026-01-29 06:16:11.60	338.25	24.87	-23.3	-23.9	18.2	0.00e+00	0	43	0	1608515584	6	3832
2026-01-29 06:16:12.60	337.99	24.95	-23.2	-23.7	18.4	0.00e+00	0	43	0	1615855616	6	3785
2026-01-29 06:16:13.60	337.73	25.02	-23.4	-24.0	18.2	1.57e-03	0	43	0	1622147072	6	3866
2026-01-29 06:16:14.59	337.48	25.09	-23.4	-24.0	18.2	0.00e+00	0	43	0	1629487104	6	3862
2026-01-29 06:16:15.60	337.21	25.17	-23.4	-24.0	18.2	0.00e+00	0	43	0	1636827136	6	3865
2026-01-29 06:16:16.60	336.95	25.24	-23.5	-24.2	18.1	2.07e-03	0	43	0	1644167168	6	3918
2026-01-29 06:16:17.60	336.68	25.31	-23.6	-24.0	17.9	0.00e+00	0	43	0	1651507200	7	3771
2026-01-29 06:16:18.60	336.42	25.39	-23.7	-24.1	17.9	8.65e-04	0	43	0	1658847232	7	3791
2026-01-29 06:16:19.60	336.15	25.46	-23.7	-24.1	17.9	2.03e-03	0	43	0	1666187264	7	3783
2026-01-29 06:16:20.60	335.88	25.53	-23.6	-24.0	17.9	0.00e+00	0	43	0	1673527296	7	3762
2026-01-29 06:16:21.61	335.61	25.60	-23.5	-23.7	18.1	1.67e-03	0	43	0	1679818752	7	3693
2026-01-29 06:16:22.61	335.34	25.67	-23.3	-23.8	18.3	0.00e+00	0	43	0	1687158784	6	3829
2026-01-29 06:16:23.62	335.07	25.74	-23.3	-23.9	18.3	0.00e+00	0	43	0	1694498816	6	3835
2026-01-29 06:16:24.62	334.79	25.81	-23.3	-23.7	18.3	0.00e+00	0	43	0	1701838848	6	3804
2026-01-29 06:16:25.62	334.52	25.87	-23.3	-23.7	18.4	0.00e+00	0	43	0	1709178880	6	3800
2026-01-29 06:16:26.62	334.25	25.94	-23.3	-23.8	18.3	0.00e+00	0	43	0	1716518912	6	3808
2026-01-29 06:16:27.63	333.97	26.01	-23.3	-23.9	18.3	0.00e+00	0	43	0	1723858944	6	3848
2026-01-29 06:16:28.63	333.69	26.08	-23.3	-23.9	18.3	0.00e+00	0	43	0	1731198976	6	3841
2026-01-29 06:16:29.64	333.41	26.14	-23.3	-23.8	18.3	0.00e+00	0	43	0	1738539008	6	3809
2026-01-29 06:16:30.63	333.13	26.21	-23.3	-23.8	18.3	0.00e+00	0	43	0	1744830464	6	3821
2026-01-29 06:16:31.64	332.85	26.27	-23.5	-24.2	18.1	0.00e+00	0	43	0	1753219072	6	3907
2026-01-29 06:16:32.64	332.56	26.34	-23.4	-24.0	18.2	0.00e+00	0	43	0	1760559104	6	3859
2026-01-29 06:16:33.64	332.28	26.40	-23.4	-24.0	18.2	0.00e+00	0	43	0	1766850560	6	3863
2026-01-29 06:16:34.64	332.00	26.46	-23.6	-24.4	18.0	0.00e+00	0	43	0	1774190592	6	3964
2026-01-29 06:16:35.65	331.71	26.53	-23.5	-23.8	18.1	0.00e+00	0	43	0	1781530624	7	3717
2026-01-29 06:16:36.65	331.42	26.59	-23.4	-24.1	18.2	0.00e+00	0	43	0	1788870656	6	3882
2026-01-29 06:16:37.65	331.13	26.65	-23.5	-24.3	18.1	0.00e+00	0	43	0	1796210688	6	3929
2026-01-29 06:16:38.66	330.84	26.71	-23.5	-24.2	18.2	0.00e+00	0	43	0	1803550720	6	3902
2026-01-29 06:16:39.66	330.55	26.77	-23.3	-23.8	18.3	0.00e+00	0	43	0	1810890752	6	3825
2026-01-29 06:16:40.65	330.26	26.83	-23.2	-23.7	18.4	0.00e+00	0	43	0	1818230784	6	3791
2026-01-29 06:16:41.66	329.97	26.89	-23.4	-24.1	18.2	0.00e+00	0	43	0	1825570816	6	3879
2026-01-29 06:16:42.66	329.68	26.94	-23.3	-23.9	18.3	0.00e+00	0	43	0	1831862272	6	3832
2026-01-29 06:16:43.67	329.38	27.00	-23.3	-23.7	18.4	0.00e+00	0	43	0	1839202304	6	3801
2026-01-29 06:16:44.67	329.08	27.06	-23.3	-23.8	18.3	0.00e+00	0	43	0	1846542336	6	3816
2026-01-29 06:16:45.68	328.78	27.11	-23.3	-23.8	18.3	0.00e+00	0	43	0	1853882368	6	3810
2026-01-29 06:16:46.68	328.49	27.17	-23.3	-23.7	18.3	0.00e+00	0	43	0	1861222400	6	3804
2026-01-29 06:16:47.69	328.18	27.22	-23.3	-23.9	18.3	0.00e+00	0	43	0	1868562432	6	3848
2026-01-29 06:16:48.69	327.88	27.28	-23.3	-23.7	18.4	0.00e+00	0	43	0	1875902464	6	3802
2026-01-29 06:16:49.69	327.58	27.33	-23.3	-23.8	18.3	0.00e+00	0	43	0	1883242496	6	3823
2026-01-29 06:16:50.69	327.28	27.38	-23.3	-23.8	18.4	0.00e+00	0	43	0	1890582528	6	3807
2026-01-29 06:16:51.68	326.98	27.43	-23.4	-24.0	18.3	0.00e+00	0	43	0	1897922560	6	3859
2026-01-29 06:16:52.69	326.68	27.48	-23.3	-23.7	18.4	0.00e+00	0	43	0	1905262592	6	3801
2026-01-29 06:16:53.69	326.37	27.53	-23.1	-23.5	18.5	0.00e+00	0	43	0	1911554048	6	3743
2026-01-29 06:16:54.70	326.06	27.58	-23.2	-23.5	18.5	0.00e+00	0	43	0	1918894080	6	3753
2026-01-29 06:16:55.70	325.76	27.63	-23.1	-23.4	18.5	0.00e+00	0	43	0	1926234112	6	3738
2026-01-29 06:16:56.71	325.45	27.67	-23.1	-23.5	18.5	0.00e+00	0	43	0	1933574144	6	3745
2026-01-29 06:16:57.71	325.14	27.72	-23.2	-23.6	18.4	0.00e+00	0	43	0	1940914176	6	3781
2026-01-29 06:16:58.72	324.83	27.77	-23.2	-23.7	18.4	0.00e+00	0	43	0	1948254208	6	3794
2026-01-29 06:16:59.73	324.51	27.81	-23.3	-23.8	18.4	0.00e+00	0	43	0	1955594240	6	3824
2026-01-29 06:17:00.74	324.20	27.85	-23.2	-23.7	18.4	0.00e+00	0	43	0	1962934272	6	3785
2026-01-29 06:17:01.74	323.89	27.90	-23.1	-23.4	18.5	0.00e+00	0	43	0	1970274304	6	3737
2026-01-29 06:17:02.73	323.58	27.94	-23.1	-23.4	18.6	0.00e+00	0	43	0	1977614336	6	3730
2026-01-29 06:17:03.73	323.26	27.98	-23.1	-23.3	18.6	0.00e+00	0	43	0	1984954368	6	3708
2026-01-29 06:17:04.74	322.95	28.02	-23.1	-23.5	18.5	0.00e+00	0	43	0	1992294400	6	3751
2026-01-29 06:17:05.75	322.63	28.06	-23.1	-23.5	18.5	0.00e+00	0	43	0	1998585856	6	3748
2026-01-29 06:17:06.76	322.31	28.10	-23.2	-23.6	18.4	0.00e+00	0	43	0	2005925888	6	3780
2026-01-29 06:17:07.76	321.99	28.13	-23.2	-23.6	18.5	0.00e+00	0	43	0	2013265920	6	3772
2026-01-29 06:17:08.77	321.67	28.17	-23.3	-23.9	18.3	0.00e+00	0	43	0	2020605952	6	3839
2026-01-29 06:17:09.78	321.35	28.20	-23.3	-23.9	18.3	0.00e+00	0	43	0	2027945984	6	3841
2026-01-29 06:17:10.78	321.03	28.24	-23.5	-24.3	18.1	0.00e+00	0	43	0	2035286016	6	3940
2026-01-29 06:17:11.78	320.71	28.27	-23.6	-24.0	18.1	0.00e+00	0	43	0	2042626048	7	3752
2026-01-29 06:17:12.78	320.39	28.30	-23.8	-24.3	17.9	0.00e+00	0	43	0	2049966080	7	3837
2026-01-29 06:17:13.79	320.07	28.34	-23.5	-23.8	18.1	0.00e+00	0	43	0	2057306112	7	3718
2026-01-29 06:17:14.79	319.75	28.37	-23.4	-23.5	18.3	0.00e+00	0	43	0	2064646144	7	3648
2026-01-29 06:17:15.80	319.42	28.40	-23.2	-23.7	18.4	0.00e+00	0	43	0	2071986176	6	3784
2026-01-29 06:17:16.81	319.10	28.42	-23.2	-23.6	18.5	0.00e+00	0	43	0	2078277632	6	3768
2026-01-29 06:17:17.81	318.77	28.45	-23.4	-23.9	18.3	0.00e+00	0	43	0	2085617664	6	3851
2026-01-29 06:17:18.81	318.45	28.48	-23.3	-23.8	18.4	0.00e+00	0	43	0	2092957696	6	3828
2026-01-29 06:17:19.82	318.12	28.50	-23.1	-23.4	18.5	0.00e+00	0	43	0	2100297728	6	3737
2026-01-29 06:17:20.82	317.80	28.53	-23.1	-23.4	18.5	0.00e+00	0	43	0	2107637760	6	3740
2026-01-29 06:17:21.82	317.47	28.55	-23.1	-23.4	18.6	0.00e+00	0	43	0	2114977792	6	3730
2026-01-29 06:17:22.82	317.15	28.57	-23.1	-23.4	18.6	0.00e+00	0	43	0	2122317824	6	3730
2026-01-29 06:17:23.83	316.82	28.59	-23.2	-23.5	16.9	0.00e+00	0	43	0	2129657856	6	3750
2026-01-29 06:17:24.83	316.49	28.61	-23.1	-23.3	18.6	0.00e+00	0	43	0	2136997888	6	3706
2026-01-29 06:17:25.84	316.16	28.63	-23.1	-23.3	18.6	0.00e+00	0	43	0	2144337920	6	3706
2026-01-29 06:17:26.84	315.83	28.65	-23.0	-23.7	18.7	3.57e-04	0	43	0	2151677952	5	3901
2026-01-29 06:17:27.85	315.50	28.67	-23.1	-23.8	18.6	0.00e+00	0	43	0	2159017984	5	3920
2026-01-29 06:17:28.85	315.17	28.69	-23.2	-23.6	18.5	0.00e+00	0	43	0	2165309440	6	3764
2026-01-29 06:17:29.85	314.85	28.70	-23.3	-23.8	18.4	0.00e+00	0	43	0	2172649472	6	3822
2026-01-29 06:17:30.85	314.52	28.72	-23.4	-24.0	18.3	0.00e+00	0	43	0	2179989504	6	3853
2026-01-29 06:17:31.86	314.18	28.73	-23.4	-24.0	18.3	0.00e+00	0	43	0	2187329536	6	3871
2026-01-29 06:17:32.86	313.86	28.74	-23.3	-23.9	18.4	0.00e+00	0	43	0	2194669568	6	3836
2026-01-29 06:17:33.87	313.52	28.75	-23.4	-24.1	18.2	1.26e-04	0	43	0	2202009600	6	3877
2026-01-29 06:17:34.88	313.19	28.76	-23.3	-23.9	18.3	0.00e+00	0	43	0	2209349632	6	3833
2026-01-29 06:17:35.88	312.86	28.77	-23.2	-23.5	18.5	0.00e+00	0	43	0	2216689664	6	3754
2026-01-29 06:17:36.88	312.53	28.78	-23.2	-23.5	18.5	1.64e-04	0	43	0	2224029696	6	3749
2026-01-29 06:17:37.89	312.20	28.78	-23.1	-23.4	18.5	0.00e+00	0	43	0	2231369728	6	3736
2026-01-29 06:17:38.89	311.87	28.79	-23.1	-23.4	18.6	1.04e-03	0	43	0	2238709760	6	3736
2026-01-29 06:17:39.90	311.53	28.79	-23.4	-24.0	18.3	1.06e-03	0	43	0	2246049792	6	3867
2026-01-29 06:17:40.90	311.20	28.80	-23.2	-23.6	18.5	1.25e-05	0	43	0	2252341248	6	3765
2026-01-29 06:17:41.91	310.87	28.80	-23.2	-23.7	18.4	1.41e-03	0	43	0	2259681280	6	3792
2026-01-29 06:17:42.91	310.54	28.80	-23.3	-23.9	18.3	1.41e-03	0	43	0	2267021312	6	3837
2026-01-29 06:17:43.92	310.20	28.80	-23.2	-23.7	18.4	3.77e-05	0	43	0	2274361344	6	3792
2026-01-29 06:17:44.92	309.87	28.80	-23.1	-23.4	18.6	1.25e-03	0	43	0	2281701376	6	3736
2026-01-29 06:17:45.93	309.54	28.80	-23.1	-23.4	18.6	1.43e-03	0	43	0	2289041408	6	3733
2026-01-29 06:17:46.93	309.21	28.80	-23.3	-23.7	18.4	0.00e+00	0	43	0	2296381440	6	3801
2026-01-29 06:17:47.94	308.87	28.79	-23.4	-23.9	18.3	1.36e-03	0	43	0	2303721472	6	3846
2026-01-29 06:17:48.94	308.54	28.79	-23.5	-24.2	18.2	1.31e-03	0	43	0	2311061504	6	3920
2026-01-29 06:17:49.94	308.21	28.78	-23.2	-23.6	18.5	0.00e+00	0	43	0	2318401536	6	3767
2026-01-29 06:17:50.95	307.88	28.77	-23.2	-23.6	18.5	1.22e-03	0	43	0	2325741568	6	3761
2026-01-29 06:17:51.96	307.54	28.77	-23.4	-24.0	18.3	1.66e-03	0	43	0	2332033024	6	3860
2026-01-29 06:17:52.97	307.21	28.76	-23.4	-23.9	18.3	0.00e+00	0	43	0	2339373056	6	3852
2026-01-29 06:17:53.97	306.88	28.75	-23.3	-23.9	18.3	1.83e-03	0	43	0	2346713088	6	3845
2026-01-29 06:17:54.97	306.55	28.73	-23.4	-24.0	18.3	0.00e+00	0	43	0	2354053120	6	3862
2026-01-29 06:17:55.98	306.22	28.72	-23.3	-23.8	18.4	0.00e+00	0	43	0	2361393152	6	3808
2026-01-29 06:17:56.98	305.89	28.71	-23.2	-23.6	18.5	1.70e-03	0	43	0	2368733184	6	3765
2026-01-29 06:17:57.99	305.56	28.69	-23.1	-23.3	18.6	0.00e+00	0	43	0	2376073216	6	3705
2026-01-29 06:17:58.98	305.23	28.68	-23.1	-23.4	18.6	2.20e-06	0	43	0	2383413248	6	3726
2026-01-29 06:17:59.99	304.90	28.66	-23.0	-23.7	18.6	0.00e+00	0	43	0	2390753280	5	3901
2026-01-29 06:18:00.99	304.57	28.64	-23.1	-23.9	18.6	0.00e+00	0	43	0	2398093312	5	3949
2026-01-29 06:18:01.99	304.25	28.62	-23.1	-23.5	18.5	0.00e+00	0	43	0	2405433344	6	3752
2026-01-29 06:18:02.99	303.92	28.60	-23.2	-23.6	18.4	0.00e+00	0	43	0	2412773376	6	3778
2026-01-29 06:18:03.99	303.59	28.58	-23.2	-23.5	18.5	8.55e-04	0	43	0	2419064832	6	3758
2026-01-29 06:18:05.00	303.26	28.56	-23.2	-23.5	18.5	0.00e+00	0	43	0	2426404864	6	3758
2026-01-29 06:18:06.00	302.94	28.54	-23.1	-23.4	18.6	0.00e+00	0	43	0	2433744896	6	3730
2026-01-29 06:18:07.00	302.61	28.51	-23.1	-23.5	18.5	0.00e+00	0	43	0	2441084928	6	3745
2026-01-29 06:18:08.01	302.28	28.49	-23.2	-23.7	18.4	0.00e+00	0	43	0	2448424960	6	3788
2026-01-29 06:18:09.01	301.96	28.46	-23.1	-23.4	18.6	4.57e-05	0	43	0	2455764992	6	3717
2026-01-29 06:18:10.01	301.64	28.44	-23.1	-23.4	18.6	0.00e+00	0	43	0	2463105024	6	3719
2026-01-29 06:18:11.02	301.31	28.41	-23.2	-23.6	18.4	0.00e+00	0	43	0	2470445056	6	3773
2026-01-29 06:18:12.03	300.98	28.38	-23.1	-23.4	18.6	0.00e+00	0	43	0	2476736512	6	3724
2026-01-29 06:18:13.03	300.66	28.35	-23.1	-23.5	18.5	0.00e+00	0	43	0	2484076544	6	3751
2026-01-29 06:18:14.03	300.34	28.32	-23.2	-23.5	18.5	0.00e+00	0	43	0	2492465152	6	3755
2026-01-29 06:18:15.04	300.02	28.29	-23.3	-23.8	18.4	0.00e+00	0	43	0	2498756608	6	3815
2026-01-29 06:18:16.04	299.70	28.25	-23.1	-23.5	18.6	0.00e+00	0	43	0	2506096640	6	3740
2026-01-29 06:18:17.04	299.38	28.22	-23.2	-23.6	18.5	0.00e+00	0	43	0	2513436672	6	3762
2026-01-29 06:18:18.05	299.05	28.18	-23.1	-23.4	18.5	0.00e+00	0	43	0	2520776704	6	3729
2026-01-29 06:18:19.06	298.73	28.15	-23.1	-23.3	18.6	0.00e+00	0	43	0	2528116736	6	3715
2026-01-29 06:18:20.07	298.41	28.11	-23.1	-23.5	18.5	0.00e+00	0	43	0	2535456768	6	3748
2026-01-29 06:18:21.07	298.10	28.07	-22.9	-23.0	18.7	0.00e+00	0	43	0	2542796800	6	3645
2026-01-29 06:18:22.08	297.78	28.04	-22.9	-23.0	18.7	0.00e+00	0	43	0	2550136832	6	3645
2026-01-29 06:18:23.09	297.46	28.00	-23.0	-23.1	18.7	0.00e+00	0	43	0	2557476864	6	3662
2026-01-29 06:18:24.09	297.14	27.96	-22.8	-22.8	18.8	0.00e+00	0	43	0	2564816896	6	3592
2026-01-29 06:18:25.09	296.83	27.91	-22.9	-22.9	18.8	0.00e+00	0	43	0	2572156928	6	3615
2026-01-29 06:18:26.10	296.52	27.87	-23.0	-23.1	18.7	0.00e+00	0	43	0	2579496960	6	3665
2026-01-29 06:18:27.11	296.20	27.83	-22.8	-23.4	18.8	0.00e+00	0	43	0	2585788416	5	3824
2026-01-29 06:18:28.11	295.89	27.78	-23.0	-23.2	18.6	0.00e+00	0	43	0	2593128448	6	3694
2026-01-29 06:18:29.12	295.58	27.74	-23.0	-23.2	18.6	0.00e+00	0	43	0	2600468480	6	3681
2026-01-29 06:18:30.12	295.27	27.69	-23.1	-23.8	18.6	0.00e+00	0	43	0	2607808512	5	3931
2026-01-29 06:18:31.12	294.96	27.65	-23.3	-23.8	18.4	0.00e+00	0	43	0	2615148544	6	3813
2026-01-29 06:18:32.12	294.65	27.60	-23.2	-23.7	18.4	0.00e+00	0	43	0	2622488576	6	3796
2026-01-29 06:18:33.13	294.34	27.55	-23.3	-23.8	18.4	0.00e+00	0	43	0	2629828608	6	3814
2026-01-29 06:18:34.13	294.04	27.50	-23.3	-23.7	18.3	0.00e+00	0	43	0	2637168640	6	3806
2026-01-29 06:18:35.14	293.73	27.45	-23.3	-23.9	18.3	0.00e+00	0	43	0	2644508672	6	3836
2026-01-29 06:18:36.14	293.42	27.40	-23.5	-24.3	18.1	0.00e+00	0	43	0	2651848704	6	3929
2026-01-29 06:18:37.15	293.12	27.35	-23.3	-23.9	18.3	0.00e+00	0	43	0	2659188736	6	3843
2026-01-29 06:18:38.16	292.81	27.30	-23.5	-24.2	18.1	0.00e+00	0	43	0	2666528768	6	3919
2026-01-29 06:18:39.16	292.51	27.25	-23.2	-23.6	18.4	0.00e+00	0	43	0	2672820224	6	3773
2026-01-29 06:18:40.17	292.21	27.19	-23.1	-23.4	18.5	0.00e+00	0	43	0	2680160256	6	3720
2026-01-29 06:18:41.17	291.91	27.14	-23.1	-23.3	18.5	0.00e+00	0	43	0	2687500288	6	3709
2026-01-29 06:18:42.18	291.61	27.08	-23.1	-23.4	18.5	0.00e+00	0	43	0	2694840320	6	3724
2026-01-29 06:18:43.18	291.31	27.02	-23.1	-23.3	18.6	0.00e+00	0	43	0	2702180352	6	3708
2026-01-29 06:18:44.18	291.02	26.97	-23.0	-23.2	18.6	0.00e+00	0	43	0	2709520384	6	3671
2026-01-29 06:18:45.19	290.72	26.91	-23.0	-23.2	18.6	0.00e+00	0	43	0	2716860416	6	3687
2026-01-29 06:18:46.20	290.42	26.85	-22.9	-23.0	18.7	0.00e+00	0	43	0	2724200448	6	3648
2026-01-29 06:18:47.20	290.13	26.79	-23.0	-23.2	18.6	0.00e+00	0	43	0	2731540480	6	3673
2026-01-29 06:18:48.20	289.84	26.73	-22.8	-23.1	17.8	0.00e+00	0	43	0	2738880512	6	3720
2026-01-29 06:18:49.20	289.55	26.67	-23.0	-23.2	18.6	0.00e+00	0	43	0	2746220544	6	3681
2026-01-29 06:18:50.21	289.26	26.61	-23.1	-23.4	18.5	0.00e+00	0	43	0	2752512000	6	3718
2026-01-29 06:18:51.22	288.97	26.55	-23.2	-23.7	18.3	0.00e+00	0	43	0	2759852032	6	3799
2026-01-29 06:18:52.22	288.68	26.49	-23.2	-23.7	18.4	0.00e+00	0	43	0	2767192064	6	3788
2026-01-29 06:18:53.23	288.39	26.42	-23.3	-23.8	18.3	0.00e+00	0	43	0	2774532096	6	3828
2026-01-29 06:18:54.23	288.11	26.36	-23.3	-23.8	18.2	4.80e-05	0	43	0	2781872128	6	3821
2026-01-29 06:18:55.24	287.82	26.30	-23.2	-23.6	18.4	0.00e+00	0	43	0	2789212160	6	3772
2026-01-29 06:18:56.25	287.54	26.23	-23.2	-23.6	18.4	2.76e-04	0	43	0	2796552192	6	3763
2026-01-29 06:18:57.25	287.26	26.17	-23.1	-23.5	18.4	0.00e+00	0	43	0	2803892224	6	3754
2026-01-29 06:18:58.26	286.97	26.10	-23.2	-23.6	18.4	0.00e+00	0	43	0	2811232256	6	3767
2026-01-29 06:18:59.26	286.69	26.03	-22.5	-22.8	15.9	1.02e-05	0	43	0	2818572288	6	3705
2026-01-29 06:19:00.26	286.42	25.97	-23.0	-23.2	13.6	0.00e+00	0	43	0	2825912320	6	3681
2026-01-29 06:19:01.27	286.14	25.90	-23.0	-23.2	18.5	0.00e+00	0	43	0	2833252352	6	3678
2026-01-29 06:19:02.27	285.86	25.83	-22.9	-22.9	18.6	0.00e+00	0	43	0	2839543808	6	3617
2026-01-29 06:19:03.27	285.59	25.76	-22.9	-23.1	18.6	8.12e-04	0	43	0	2846883840	6	3655
2026-01-29 06:19:04.28	285.31	25.69	-22.8	-22.8	18.7	0.00e+00	0	43	0	2854223872	6	3599
2026-01-29 06:19:05.28	285.04	25.62	-22.8	-23.2	18.8	0.00e+00	0	43	0	2861563904	5	3797
2026-01-29 06:19:06.29	284.77	25.55	-22.9	-23.4	18.7	1.32e-04	0	43	0	2868903936	5	3838
2026-01-29 06:19:07.28	284.50	25.48	-22.8	-23.3	18.7	0.00e+00	0	43	0	2876243968	5	3812
2026-01-29 06:19:08.29	284.23	25.41	-22.9	-23.4	18.7	2.60e-04	0	43	0	2883584000	5	3844
2026-01-29 06:19:09.29	283.96	25.34	-22.9	-23.5	18.6	2.78e-04	0	43	0	2890924032	5	3853
2026-01-29 06:19:10.29	283.70	25.26	-22.9	-23.5	18.6	0.00e+00	0	43	0	2898264064	5	3853
2026-01-29 06:19:11.30	283.43	25.19	-22.9	-23.6	18.6	1.59e-04	0	43	0	2905604096	5	3878
2026-01-29 06:19:12.30	283.17	25.12	-23.0	-23.7	18.5	6.80e-06	0	43	0	2912944128	5	3909
2026-01-29 06:19:13.30	282.91	25.04	-22.9	-23.5	18.6	0.00e+00	0	43	0	2919235584	5	3858
2026-01-29 06:19:14.31	282.64	24.97	-23.0	-23.7	18.5	5.70e-06	0	43	0	2926575616	5	3899
2026-01-29 06:19:15.32	282.38	24.89	-23.1	-23.5	18.4	7.78e-05	0	43	0	2933915648	6	3743
2026-01-29 06:19:16.32	282.12	24.82	-23.0	-23.3	18.5	0.00e+00	0	43	0	2941255680	6	3707
2026-01-29 06:19:17.33	281.86	24.74	-23.1	-23.5	18.4	1.83e-05	0	43	0	2948595712	6	3742
2026-01-29 06:19:18.33	281.61	24.67	-23.1	-23.5	18.4	0.00e+00	0	43	0	2955935744	6	3759
2026-01-29 06:19:19.33	281.35	24.59	-23.2	-23.6	18.3	0.00e+00	0	43	0	2963275776	6	3783
2026-01-29 06:19:20.34	281.10	24.51	-23.1	-23.5	18.4	0.00e+00	0	43	0	2970615808	6	3750
2026-01-29 06:19:21.34	280.85	24.43	-23.1	-23.4	18.4	0.00e+00	0	43	0	2977955840	6	3723
2026-01-29 06:19:22.35	280.59	24.36	-23.0	-23.2	18.6	0.00e+00	0	43	0	2985295872	6	3677
2026-01-29 06:19:23.35	280.34	24.28	-22.9	-23.1	18.5	0.00e+00	0	43	0	2992635904	6	3661
2026-01-29 06:19:24.36	280.09	24.20	-22.9	-23.0	18.6	2.63e-05	0	43	0	2999975936	6	3648
2026-01-29 06:19:25.37	279.84	24.12	-23.1	-23.4	18.4	0.00e+00	0	43	0	3006267392	6	3730
2026-01-29 06:19:26.37	279.60	24.04	-23.1	-23.4	18.4	5.17e-04	0	43	0	3013607424	6	3728
2026-01-29 06:19:27.38	279.35	23.96	-23.1	-23.5	18.4	7.20e-04	0	43	0	3020947456	6	3749
2026-01-29 06:19:28.37	279.11	23.88	-23.2	-23.5	18.4	0.00e+00	0	43	0	3028287488	6	3754
2026-01-29 06:19:29.38	278.87	23.80	-23.1	-23.5	18.4	0.00e+00	0	43	0	3035627520	6	3749
2026-01-29 06:19:30.39	278.62	23.72	-23.1	-23.4	18.4	1.37e-03	0	43	0	3042967552	6	3718
2026-01-29 06:19:31.39	278.38	23.64	-23.0	-23.3	18.4	0.00e+00	0	43	0	3050307584	6	3709
2026-01-29 06:19:32.39	278.15	23.56	-23.3	-23.7	18.2	0.00e+00	0	43	0	3057647616	6	3806
2026-01-29 06:19:33.40	277.91	23.48	-23.3	-23.9	18.1	1.68e-03	0	43	0	3064987648	6	3842
2026-01-29 06:19:34.40	277.67	23.40	-23.1	-23.4	18.4	0.00e+00	0	43	0	3072327680	6	3725
2026-01-29 06:19:35.40	277.44	23.32	-23.0	-23.7	18.4	1.62e-03	0	43	0	3079667712	5	3912
2026-01-29 06:19:36.40	277.20	23.23	-23.0	-23.7	18.5	0.00e+00	0	43	0	3087007744	5	3894
2026-01-29 06:19:37.40	276.97	23.15	-23.0	-23.8	18.4	0.00e+00	0	43	0	3093299200	5	3918
2026-01-29 06:19:38.40	276.74	23.07	-23.1	-23.5	18.3	1.45e-03	0	43	0	3100639232	6	3757
2026-01-29 06:19:39.40	276.51	22.99	-23.4	-24.0	18.0	0.00e+00	0	43	0	3107979264	6	3877
2026-01-29 06:19:40.40	276.28	22.90	-23.5	-23.8	17.9	0.00e+00	0	43	0	3115319296	7	3728
2026-01-29 06:19:41.40	276.05	22.82	-23.3	-23.8	18.2	0.00e+00	0	43	0	3122659328	6	3811
2026-01-29 06:19:42.40	275.83	22.74	-23.3	-23.8	18.2	0.00e+00	0	43	0	3129999360	6	3813
2026-01-29 06:19:43.41	275.60	22.65	-23.4	-24.0	18.0	0.00e+00	0	43	0	3137339392	6	3872
2026-01-29 06:19:44.42	275.38	22.57	-23.4	-24.1	18.0	0.00e+00	0	43	0	3144679424	6	3891
2026-01-29 06:19:45.42	275.15	22.49	-23.4	-24.1	17.9	0.00e+00	0	43	0	3150970880	6	3903
2026-01-29 06:19:46.43	274.93	22.40	-23.4	-24.1	18.0	0.00e+00	0	43	0	3158310912	6	3882
2026-01-29 06:19:47.43	274.71	22.32	-23.4	-24.0	18.0	0.00e+00	0	43	0	3165650944	6	3874
2026-01-29 06:19:48.44	274.49	22.23	-23.4	-24.1	18.0	0.00e+00	0	43	0	3172990976	6	3891
2026-01-29 06:19:49.44	274.27	22.15	-23.4	-24.0	18.0	0.00e+00	0	43	0	3180331008	6	3879
2026-01-29 06:19:50.44	274.06	22.06	-23.5	-24.2	17.9	0.00e+00	0	43	0	3187671040	6	3917
2026-01-29 06:19:51.45	273.84	21.98	-23.4	-23.6	17.9	0.00e+00	0	43	0	3195011072	7	3678
2026-01-29 06:19:52.45	273.62	21.89	-23.2	-23.1	18.2	0.00e+00	0	43	0	3202351104	7	3574
2026-01-29 06:19:53.46	273.41	21.81	-23.2	-23.7	18.2	1.10e-06	0	43	0	3209691136	6	3795
2026-01-29 06:19:54.46	273.20	21.72	-23.3	-23.7	18.1	0.00e+00	0	43	0	3217031168	6	3806
2026-01-29 06:19:55.46	272.99	21.64	-23.3	-23.8	18.1	0.00e+00	0	43	0	3224371200	6	3822
2026-01-29 06:19:56.46	272.78	21.55	-23.4	-24.1	17.9	0.00e+00	0	43	0	3231711232	6	3896
2026-01-29 06:19:57.47	272.57	21.46	-23.4	-24.1	17.9	0.00e+00	0	43	0	3238002688	6	3885
2026-01-29 06:19:58.47	272.36	21.38	-23.5	-24.2	17.9	0.00e+00	0	43	0	3245342720	6	3913
2026-01-29 06:19:59.48	272.15	21.29	-23.5	-24.4	17.8	0.00e+00	0	43	0	3252682752	6	3962
2026-01-29 06:20:00.48	271.95	21.21	-23.8	-24.3	17.6	0.00e+00	0	43	0	3260022784	7	3841
2026-01-29 06:20:01.49	271.74	21.12	-23.8	-24.3	17.6	0.00e+00	0	43	0	3267362816	7	3832
2026-01-29 06:20:02.49	271.54	21.03	-23.8	-24.5	17.5	0.00e+00	0	43	0	3274702848	7	3874
2026-01-29 06:20:03.49	271.34	20.95	-24.0	-24.8	17.3	0.00e+00	0	43	0	3282042880	7	3942
2026-01-29 06:20:04.50	271.14	20.86	-23.7	-24.2	17.6	0.00e+00	0	43	0	3289382912	7	3813
2026-01-29 06:20:05.50	270.94	20.77	-23.7	-24.3	17.6	0.00e+00	0	43	0	3296722944	7	3832
2026-01-29 06:20:06.50	270.74	20.69	-23.6	-24.0	17.7	0.00e+00	0	43	0	3304062976	7	3779
2026-01-29 06:20:07.51	270.54	20.60	-23.7	-24.3	17.5	0.00e+00	0	43	0	3311403008	7	3830
2026-01-29 06:20:08.51	270.35	20.51	-23.7	-24.1	17.6	0.00e+00	0	43	0	3317694464	7	3798
2026-01-29 06:20:09.52	270.15	20.43	-23.6	-23.9	17.8	0.00e+00	0	43	0	3325034496	7	3733
2026-01-29 06:20:10.53	269.96	20.34	-23.5	-23.7	17.8	0.00e+00	0	43	0	3332374528	7	3696
2026-01-29 06:20:11.53	269.76	20.25	-23.4	-24.2	17.9	0.00e+00	0	43	0	3339714560	6	3905
2026-01-29 06:20:12.52	269.57	20.17	-23.5	-24.3	17.8	0.00e+00	0	43	0	3347054592	6	3932
2026-01-29 06:20:13.51	269.39	20.08	-23.5	-24.3	17.8	0.00e+00	0	43	0	3354394624	6	3952
2026-01-29 06:20:14.51	269.20	19.99	-23.7	-24.2	17.6	0.00e+00	0	43	0	3361734656	7	3820
2026-01-29 06:20:15.52	269.01	19.91	-23.9	-24.6	17.4	0.00e+00	0	43	0	3369074688	7	3908
2026-01-29 06:20:16.52	268.82	19.82	-23.8	-24.5	17.5	0.00e+00	0	43	0	3376414720	7	3874
2026-01-29 06:20:17.52	268.63	19.73	-23.9	-24.6	17.3	0.00e+00	0	43	0	3382706176	7	3909
2026-01-29 06:20:18.52	268.45	19.65	-24.0	-24.8	17.3	0.00e+00	0	43	0	3390046208	7	3965
2026-01-29 06:20:19.53	268.26	19.56	-23.9	-24.7	17.3	0.00e+00	0	43	0	3397386240	7	3919
2026-01-29 06:20:20.53	268.08	19.47	-23.9	-24.6	17.3	0.00e+00	0	43	0	3404726272	7	3916
2026-01-29 06:20:21.53	267.90	19.38	-24.1	-25.0	17.1	0.00e+00	0	43	0	3412066304	7	4001
2026-01-29 06:20:22.54	267.72	19.30	-24.3	-25.1	16.8	0.00e+00	0	43	0	3419406336	8	3918
2026-01-29 06:20:23.55	267.54	19.21	-23.4	-24.1	16.0	3.40e-06	0	43	0	3426746368	8	3899
2026-01-29 06:20:24.55	267.36	19.12	-24.1	-24.5	17.1	0.00e+00	0	43	0	3434086400	8	3783
2026-01-29 06:20:25.55	267.18	19.04	-24.0	-24.7	15.9	0.00e+00	0	43	0	3441426432	7	3936
2026-01-29 06:20:26.55	267.00	18.95	-24.0	-24.8	17.2	1.26e-03	0	43	0	3448766464	7	3954
2026-01-29 06:20:27.56	266.83	18.86	-24.0	-24.7	17.2	0.00e+00	0	43	0	3456106496	7	3935
2026-01-29 06:20:28.56	266.65	18.77	-24.1	-25.0	17.1	0.00e+00	0	43	0	3463446528	7	3993
2026-01-29 06:20:29.57	266.48	18.69	-24.5	-25.3	16.7	0.00e+00	0	43	0	3469737984	8	3973
2026-01-29 06:20:30.57	266.31	18.60	-24.4	-24.7	16.8	0.00e+00	0	43	0	3477078016	9	3725
2026-01-29 06:20:31.57	266.13	18.51	-24.1	-24.6	17.1	1.10e-03	0	43	0	3484418048	8	3796
2026-01-29 06:20:32.58	265.96	18.43	-23.9	-24.6	17.3	0.00e+00	0	43	0	3491758080	7	3897
2026-01-29 06:20:33.58	265.79	18.34	-23.9	-24.7	17.2	0.00e+00	0	43	0	3499098112	7	3928
2026-01-29 06:20:34.58	265.62	18.25	-24.1	-25.0	17.1	5.48e-04	0	43	0	3506438144	7	4002
2026-01-29 06:20:35.59	265.46	18.17	-24.3	-25.1	16.8	0.00e+00	0	43	0	3513778176	8	3910
2026-01-29 06:20:36.60	265.29	18.08	-24.4	-25.1	16.8	0.00e+00	0	43	0	3521118208	8	3912
2026-01-29 06:20:37.60	265.12	17.99	-24.2	-24.8	16.9	0.00e+00	0	43	0	3528458240	8	3849
2026-01-29 06:20:38.60	264.96	17.91	-24.3	-24.9	16.9	0.00e+00	0	43	0	3535798272	8	3867
2026-01-29 06:20:39.61	264.79	17.82	-24.2	-24.8	16.9	0.00e+00	0	43	0	3543138304	8	3858
2026-01-29 06:20:40.62	264.63	17.73	-24.3	-25.0	16.8	0.00e+00	0	43	0	3549429760	8	3894
2026-01-29 06:20:41.62	264.47	17.65	-23.7	-24.4	16.7	3.57e-04	0	43	0	3556769792	8	3914
2026-01-29 06:20:42.63	264.30	17.56	-24.3	-25.0	16.8	0.00e+00	0	43	0	3564109824	8	3891
2026-01-29 06:20:43.63	264.14	17.47	-24.3	-25.1	16.7	3.16e-04	0	43	0	3571449856	8	3915
2026-01-29 06:20:44.64	263.98	17.39	-24.3	-25.1	16.8	3.83e-04	0	43	0	3578789888	8	3915
2026-01-29 06:20:45.64	263.83	17.30	-24.4	-25.1	16.8	0.00e+00	0	43	0	3586129920	8	3921
2026-01-29 06:20:46.65	263.67	17.21	-24.4	-25.3	16.7	5.62e-04	0	43	0	3593469952	8	3971
2026-01-29 06:20:47.65	263.51	17.13	-24.5	-25.5	16.6	6.64e-04	0	43	0	3600809984	8	4009
2026-01-29 06:20:48.66	263.35	17.04	-24.5	-25.5	16.5	1.48e-05	0	43	0	3608150016	8	4018
2026-01-29 06:20:49.66	263.20	16.96	-24.6	-25.6	16.5	6.00e-04	0	43	0	3615490048	8	4029
2026-01-29 06:20:50.66	263.05	16.87	-24.6	-25.2	16.5	1.55e-03	0	43	0	3622830080	9	3842
2026-01-29 06:20:51.67	262.89	16.78	-24.8	-25.5	16.3	0.00e+00	0	43	0	3630170112	9	3912
2026-01-29 06:20:52.67	262.74	16.70	-24.8	-25.6	16.2	1.70e-03	0	43	0	3636461568	9	3932
2026-01-29 06:20:53.68	262.59	16.61	-24.9	-25.8	16.1	2.50e-03	0	43	0	3643801600	9	3987
2026-01-29 06:20:54.68	262.44	16.53	-24.9	-25.8	16.1	0.00e+00	0	43	0	3651141632	9	3979
2026-01-29 06:20:55.67	262.29	16.44	-24.8	-25.5	16.3	1.45e-03	0	43	0	3658481664	9	3909
2026-01-29 06:20:56.68	262.14	16.36	-24.8	-25.5	16.3	2.00e-03	0	43	0	3665821696	9	3900
2026-01-29 06:20:57.68	261.99	16.27	-24.9	-25.7	16.2	0.00e+00	0	43	0	3673161728	9	3958
2026-01-29 06:20:58.68	261.85	16.19	-24.9	-25.8	16.1	7.87e-04	0	43	0	3680501760	9	3983
2026-01-29 06:20:59.69	261.70	16.10	-24.8	-25.7	16.2	0.00e+00	0	43	0	3687841792	9	3950
2026-01-29 06:21:00.69	261.56	16.02	-24.8	-25.6	16.2	0.00e+00	0	43	0	3695181824	9	3942
2026-01-29 06:21:01.70	261.41	15.93	-25.0	-25.9	16.1	1.42e-03	0	43	0	3702521856	9	4019
2026-01-29 06:21:02.70	261.27	15.85	-24.9	-25.7	16.1	9.27e-04	0	43	0	3709861888	9	3971
2026-01-29 06:21:03.71	261.12	15.77	-24.8	-25.6	16.2	1.10e-06	0	43	0	3717201920	9	3948
2026-01-29 06:21:04.71	260.98	15.68	-24.8	-25.6	16.2	8.20e-04	0	43	0	3723493376	9	3933
2026-01-29 06:21:05.71	260.84	15.60	-24.9	-25.8	16.1	8.62e-04	0	43	0	3730833408	9	3973
2026-01-29 06:21:06.71	260.70	15.51	-24.8	-25.6	16.2	0.00e+00	0	43	0	3738173440	9	3949
2026-01-29 06:21:07.72	260.56	15.43	-24.8	-25.5	16.2	8.07e-04	0	43	0	3745513472	9	3899
2026-01-29 06:21:08.73	260.42	15.34	-24.8	-25.6	16.2	1.09e-03	0	43	0	3752853504	9	3929
2026-01-29 06:21:09.73	260.28	15.26	-24.8	-25.6	16.1	0.00e+00	0	43	0	3760193536	9	3946
2026-01-29 06:21:10.74	260.14	15.18	-25.0	-25.9	16.0	1.66e-03	0	43	0	3767533568	9	4019
2026-01-29 06:21:11.75	260.01	15.09	-25.0	-26.0	16.0	0.00e+00	0	43	0	3774873600	9	4031
2026-01-29 06:21:12.75	259.87	15.01	-25.1	-25.8	15.8	0.00e+00	0	43	0	3782213632	10	3879
2026-01-29 06:21:13.75	259.74	14.93	-25.2	-25.9	15.7	2.17e-03	0	43	0	3789553664	10	3908
2026-01-29 06:21:14.75	259.60	14.84	-25.2	-25.9	15.8	0.00e+00	0	43	0	3796893696	10	3897
2026-01-29 06:21:15.76	259.47	14.76	-25.1	-25.8	15.8	1.65e-04	0	43	0	3803185152	10	3890
2026-01-29 06:21:16.76	259.34	14.68	-25.2	-25.9	15.7	4.50e-06	0	43	0	3810525184	10	3909
2026-01-29 06:21:17.76	259.20	14.60	-25.1	-25.7	15.8	0.00e+00	0	43	0	3817865216	10	3870
2026-01-29 06:21:18.77	259.07	14.51	-25.0	-26.0	15.9	0.00e+00	0	43	0	3825205248	9	4023
2026-01-29 06:21:19.78	258.94	14.43	-25.0	-26.0	15.9	4.50e-06	0	43	0	3832545280	9	4023
2026-01-29 06:21:20.78	258.81	14.35	-25.1	-25.8	15.8	2.45e-03	0	43	0	3839885312	10	3873
2026-01-29 06:21:21.79	258.68	14.26	-25.4	-26.5	15.4	0.00e+00	0	43	0	3847225344	10	4046
2026-01-29 06:21:22.79	258.55	14.18	-25.3	-26.1	15.6	3.40e-06	0	43	0	3854565376	10	3945
2026-01-29 06:21:23.79	258.43	14.10	-25.0	-25.6	15.9	1.10e-06	0	43	0	3861905408	10	3823
2026-01-29 06:21:24.79	258.30	14.02	-25.0	-26.0	15.9	0.00e+00	0	43	0	3869245440	9	4041
2026-01-29 06:21:25.80	258.17	13.94	-25.1	-25.8	15.7	1.10e-06	0	43	0	3876585472	10	3886
2026-01-29 06:21:26.80	258.05	13.86	-25.3	-26.2	15.5	0.00e+00	0	43	0	3883925504	10	3982
2026-01-29 06:21:27.80	257.92	13.78	-25.3	-26.2	15.5	0.00e+00	0	43	0	3890216960	10	3968
2026-01-29 06:21:28.81	257.80	13.69	-25.4	-26.5	15.3	1.14e-05	0	43	0	3897556992	10	4046
2026-01-29 06:21:29.82	257.68	13.61	-25.5	-26.6	15.2	0.00e+00	0	43	0	3904897024	10	4078
2026-01-29 06:21:30.83	257.55	13.53	-25.6	-26.7	15.2	0.00e+00	0	43	0	3912237056	10	4112
2026-01-29 06:21:31.83	257.43	13.45	-25.6	-26.8	15.2	3.40e-06	0	43	0	3919577088	10	4123
2026-01-29 06:21:32.83	257.31	13.37	-25.6	-26.3	15.1	0.00e+00	0	43	0	3926917120	11	3913
2026-01-29 06:21:33.83	257.19	13.29	-25.9	-26.9	14.8	8.00e-06	0	43	0	3934257152	11	4040
2026-01-29 06:21:34.84	257.07	13.21	-25.7	-26.5	15.0	3.40e-06	0	43	0	3941597184	11	3960
2026-01-29 06:21:35.84	256.95	13.13	-25.6	-26.4	15.1	0.00e+00	0	43	0	3948937216	11	3934
2026-01-29 06:21:36.85	256.83	13.05	-25.6	-26.3	15.1	0.00e+00	0	43	0	3956277248	11	3913
2026-01-29 06:21:37.85	256.71	12.97	-25.7	-26.5	15.0	0.00e+00	0	43	0	3963617280	11	3961
2026-01-29 06:21:38.86	256.59	12.89	-25.7	-26.5	15.0	0.00e+00	0	43	0	3969908736	11	3945
2026-01-29 06:21:39.85	256.48	12.81	-25.8	-26.7	14.8	2.20e-06	0	43	0	3977248768	11	4012
2026-01-29 06:21:40.85	256.36	12.73	-25.7	-26.6	15.0	0.00e+00	0	43	0	3984588800	11	3969
2026-01-29 06:21:41.86	256.25	12.65	-25.6	-26.3	15.1	0.00e+00	0	43	0	3991928832	11	3913
2026-01-29 06:21:42.86	256.13	12.57	-25.6	-26.4	15.1	0.00e+00	0	43	0	3999268864	11	3922
2026-01-29 06:21:43.87	256.02	12.49	-25.6	-26.3	15.1	0.00e+00	0	43	0	4006608896	11	3912
2026-01-29 06:21:44.87	255.91	12.41	-25.6	-26.8	15.1	0.00e+00	0	43	0	4013948928	10	4127
2026-01-29 06:21:45.88	255.79	12.33	-25.5	-26.5	15.2	0.00e+00	0	43	0	4021288960	10	4068
2026-01-29 06:21:46.88	255.68	12.25	-25.4	-26.4	15.3	0.00e+00	0	43	0	4028628992	10	4034
2026-01-29 06:21:47.88	255.57	12.18	-25.5	-26.5	15.2	0.00e+00	0	43	0	4034920448	10	4059
2026-01-29 06:21:48.89	255.46	12.10	-25.3	-26.2	15.4	0.00e+00	0	43	0	4043309056	10	3992
2026-01-29 06:21:49.89	255.35	12.02	-25.4	-26.3	15.3	1.10e-06	0	43	0	4050649088	10	4004
2026-01-29 06:21:50.90	255.24	11.94	-25.3	-26.2	15.4	0.00e+00	0	43	0	4056940544	10	3990
2026-01-29 06:21:51.89	255.13	11.86	-25.4	-26.3	15.3	0.00e+00	0	43	0	4064280576	10	4006
2026-01-29 06:21:52.90	255.02	11.79	-25.5	-26.6	15.2	0.00e+00	0	43	0	4071620608	10	4074
2026-01-29 06:21:53.90	254.91	11.71	-25.4	-26.4	15.3	0.00e+00	0	43	0	4078960640	10	4028
2026-01-29 06:21:54.91	254.80	11.63	-25.4	-26.3	15.3	0.00e+00	0	43	0	4086300672	10	4012
2026-01-29 06:21:55.92	254.70	11.55	-25.4	-26.4	15.2	0.00e+00	0	43	0	4093640704	10	4043
2026-01-29 06:21:56.92	254.59	11.48	-25.4	-26.3	15.3	0.00e+00	0	43	0	4100980736	10	4027
2026-01-29 06:21:57.93	254.48	11.40	-25.0	-26.0	15.1	0.00e+00	0	43	0	4108320768	10	4035
2026-01-29 06:21:58.93	254.38	11.32	-24.9	-26.0	13.2	0.00e+00	0	43	0	4115660800	10	4072
2026-01-29 06:21:59.94	254.27	11.24	-25.5	-26.5	15.1	0.00e+00	0	43	0	4123000832	10	4066
2026-01-29 06:22:00.94	254.17	11.17	-25.4	-26.4	15.2	0.00e+00	0	43	0	4130340864	10	4044
2026-01-29 06:22:01.94	254.07	11.09	-25.4	-26.4	15.2	2.20e-06	0	43	0	4137680896	10	4048
2026-01-29 06:22:02.95	253.96	11.01	-25.6	-26.8	15.0	0.00e+00	0	43	0	4143972352	10	4133
2026-01-29 06:22:03.95	253.86	10.94	-25.5	-26.6	15.0	1.32e-03	0	43	0	4151312384	10	4099
2026-01-29 06:22:04.96	253.76	10.86	-25.6	-26.7	15.0	0.00e+00	0	43	0	4158652416	10	4125
2026-01-29 06:22:05.96	253.66	10.79	-25.6	-26.3	14.9	0.00e+00	0	43	0	4165992448	11	3915
2026-01-29 06:22:06.97	253.55	10.71	-25.9	-26.9	14.6	1.13e-03	0	43	0	4173332480	11	4053
2026-01-29 06:22:07.97	253.45	10.63	-26.1	-27.0	14.2	1.10e-06	0	43	0	4180672512	12	3989
2026-01-29 06:22:08.97	253.36	10.56	-26.0	-26.7	14.4	1.10e-06	0	43	0	4188012544	12	3896
2026-01-29 06:22:09.97	253.26	10.48	-26.0	-27.1	14.5	0.00e+00	0	43	0	4195352576	11	4116
2026-01-29 06:22:10.97	253.16	10.41	-26.1	-27.0	14.2	2.20e-06	0	43	0	4201644032	12	3979
2026-01-29 06:22:11.97	253.06	10.33	-26.4	-27.6	13.8	9.10e-06	0	43	0	4208984064	12	4150
2026-01-29 06:22:12.97	252.96	10.26	-26.3	-27.3	14.0	5.70e-06	0	43	0	4216324096	12	4070
2026-01-29 06:22:13.97	252.87	10.19	-26.4	-27.7	13.8	3.22e-04	0	43	0	4223664128	12	4166
2026-01-29 06:22:14.98	252.77	10.11	-26.4	-27.6	13.8	5.70e-06	0	43	0	4231004160	12	4130
2026-01-29 06:22:15.99	252.67	10.03	-26.4	-27.6	13.8	1.48e-04	0	43	0	4238344192	12	4151
2026-01-29 06:22:16.99	252.58	9.96	-26.4	-27.7	13.7	9.10e-06	0	43	0	4245684224	12	4182
2026-01-29 06:22:17.99	252.48	9.89	-25.6	-27.2	13.5	1.25e-05	0	43	0	4253024256	12	4316
2026-01-29 06:22:18.99	252.39	9.81	-26.1	-27.5	10.7	1.71e-05	0	43	0	4260364288	12	4227
2026-01-29 06:22:19.99	252.29	9.74	-26.7	-28.0	11.4	2.05e-05	0	43	0	4267704320	13	4141
2026-01-29 06:22:21.01	252.20	9.66	-27.0	-28.5	12.9	4.11e-05	0	43	0	4275044352	13	4301
2026-01-29 06:22:22.00	252.11	9.59	-26.6	-27.7	13.3	2.17e-05	0	43	0	4282384384	13	4074
2026-01-29 06:22:23.01	252.01	9.52	-26.4	-27.7	13.6	3.22e-03	0	43	0	4288675840	12	4191
2026-01-29 06:22:24.02	251.92	9.44	-26.2	-27.3	13.9	3.40e-06	0	43	0	4296015872	12	4082
2026-01-29 06:22:25.02	251.83	9.37	-26.5	-27.8	13.6	8.00e-06	0	43	0	4303355904	12	4208
2026-01-29 06:22:26.03	251.74	9.30	-26.3	-27.4	13.9	3.40e-06	0	43	0	4310695936	12	4093
2026-01-29 06:22:27.03	251.65	9.23	-26.3	-27.4	13.8	8.00e-06	0	43	0	4318035968	12	4105
2026-01-29 06:22:28.03	251.56	9.15	-26.3	-27.4	13.8	2.70e-03	0	43	0	4325376000	12	4096
2026-01-29 06:22:29.03	251.47	9.08	-26.3	-27.4	13.8	1.10e-06	0	43	0	4332716032	12	4100
2026-01-29 06:22:30.04	251.38	9.01	-26.5	-27.9	13.5	2.33e-04	0	43	0	4340056064	12	4241
2026-01-29 06:22:31.04	251.29	8.94	-26.4	-27.7	13.6	2.35e-03	0	43	0	4347396096	12	4178
2026-01-29 06:22:32.04	251.20	8.86	-26.3	-27.4	13.8	4.50e-06	0	43	0	4354736128	12	4108
2026-01-29 06:22:33.04	251.11	8.79	-26.3	-27.4	13.8	1.14e-05	0	43	0	4362076160	12	4114
2026-01-29 06:22:34.05	251.02	8.72	-26.4	-27.6	13.7	1.10e-04	0	43	0	4368367616	12	4169
2026-01-29 06:22:35.06	250.94	8.65	-26.3	-27.4	13.8	1.11e-03	0	43	0	4375707648	12	4115
2026-01-29 06:22:36.06	250.85	8.58	-26.2	-27.3	13.8	5.70e-06	0	43	0	4383047680	12	4093
2026-01-29 06:22:37.05	250.76	8.51	-26.3	-27.4	13.7	2.72e-04	0	43	0	4390387712	12	4123
2026-01-29 06:22:38.06	250.68	8.43	-26.3	-27.6	13.6	2.24e-03	0	43	0	4397727744	12	4163
2026-01-29 06:22:39.06	250.59	8.36	-26.3	-27.6	13.6	1.25e-05	0	43	0	4405067776	12	4171
2026-01-29 06:22:40.07	250.51	8.29	-26.4	-27.7	13.5	2.86e-03	0	43	0	4412407808	12	4200
2026-01-29 06:22:41.07	250.42	8.22	-26.4	-27.7	13.6	2.67e-03	0	43	0	4419747840	12	4194
2026-01-29 06:22:42.08	250.34	8.15	-26.3	-27.5	13.6	4.10e-04	0	43	0	4427087872	12	4151
2026-01-29 06:22:43.09	250.25	8.08	-26.3	-27.6	13.6	2.72e-03	0	43	0	4434427904	12	4169
2026-01-29 06:22:44.09	250.17	8.01	-26.4	-27.7	13.5	1.14e-05	0	43	0	4441767936	12	4206
2026-01-29 06:22:45.10	250.09	7.94	-26.4	-27.8	13.4	3.62e-04	0	43	0	4449107968	12	4229
2026-01-29 06:22:46.11	250.00	7.87	-26.4	-27.7	13.5	2.55e-03	0	43	0	4455399424	12	4204
2026-01-29 06:22:47.11	249.92	7.80	-26.4	-27.8	13.4	2.57e-03	0	43	0	4462739456	12	4213
2026-01-29 06:22:48.12	249.84	7.73	-26.4	-27.9	13.3	2.97e-04	0	43	0	4470079488	12	4244
2026-01-29 06:22:49.12	249.76	7.66	-26.6	-28.1	13.2	3.20e-05	0	43	0	4477419520	12	4319
2026-01-29 06:22:50.13	249.68	7.59	-26.4	-27.8	13.4	1.83e-03	0	43	0	4484759552	12	4230
2026-01-29 06:22:51.14	249.60	7.52	-26.4	-27.8	13.4	1.83e-05	0	43	0	4492099584	12	4232
2026-01-29 06:22:52.14	249.52	7.45	-26.4	-27.9	13.3	1.94e-05	0	43	0	4499439616	12	4251
2026-01-29 06:22:53.14	249.44	7.38	-26.4	-27.8	13.4	1.18e-03	0	43	0	4506779648	12	4212
2026-01-29 06:22:54.14	249.36	7.31	-26.4	-27.7	13.4	5.70e-06	0	43	0	4514119680	12	4207
2026-01-29 06:22:55.14	249.28	7.24	-26.4	-27.8	13.3	8.54e-04	0	43	0	4521459712	12	4232
2026-01-29 06:22:56.15	249.20	7.17	-26.6	-28.1	13.1	2.40e-05	0	43	0	4528799744	12	4315
2026-01-29 06:22:57.15	249.12	7.10	-26.8	-28.2	12.9	2.74e-05	0	43	0	4536139776	13	4222
2026-01-29 06:22:58.15	249.05	7.04	-32.9	-42.6	3.8	8.47e-01	0	43	104	4537188352	25	11025
2026-01-29 06:22:59.16	248.97	6.97	-33.3	-43.1	3.8	8.46e-01	0	43	104	4537188352	26	11073
2026-01-29 06:23:00.16	248.89	6.90	-33.6	-43.5	3.8	8.47e-01	0	43	104	4537188352	26	11322
2026-01-29 06:23:01.17	248.81	6.83	-33.9	-43.6	3.8	8.45e-01	0	43	104	4537188352	27	10990

#Closed at: 2026-01-29 06:23:01
#Recorded file [4537 MB]: D:/data/31010_260129_091228.dat