passes_logs/2026/01/29/R2M6_AANII_01/R2M6_AANII_01__20260129_111628_NOAA_21_JPSS-2_rec.log

#Pass ID: 20260129_111628_NOAA 21 (JPSS-2)
#Satellite: NOAA 21 (JPSS-2)
#Configuration: NOAA 21
#almurnet v.1.7.20240730
#Start time: 2026-01-29 11:17:40

#Version: 2.2.20231116
#Station: R2M6_AANII_01
#Location: 30.233357 lon 59.946436 lat
#TLE: 1 54234U 22150A   26027.91149249  .00000141  00000+0  87546-4 0  9993
#TLE: 2 54234  98.7510 328.6558 0000880 202.8718 157.2419 14.19540177166642

#Time	Az	El	Level	Level2	SNR	BER	BlckErr	Temp	State	Recorded	gain1	gain2
2026-01-29 11:17:40.82	195.48	12.76	-34.5	-50.3	4.0	7.38e-01	0	42	0	0	29	22124
2026-01-29 11:17:41.82	195.56	12.85	-34.8	-46.4	3.8	1.49e+00	0	42	104	0	30	13712
2026-01-29 11:17:42.82	195.65	12.94	-34.8	-46.4	3.8	1.49e+00	0	42	104	0	30	13725
2026-01-29 11:17:43.83	195.74	13.03	-34.8	-46.4	3.8	1.49e+00	0	42	104	0	30	13742
2026-01-29 11:17:44.83	195.82	13.12	-34.8	-46.4	3.8	1.49e+00	0	42	104	0	30	13698
2026-01-29 11:17:45.83	195.91	13.21	-34.8	-46.4	3.8	1.49e+00	0	42	104	0	30	13696
2026-01-29 11:17:46.83	196.00	13.30	-34.8	-46.4	3.8	1.49e+00	0	42	104	0	30	13765
2026-01-29 11:17:47.83	196.08	13.39	-34.8	-46.4	3.8	1.49e+00	0	42	104	0	30	13725
2026-01-29 11:17:48.83	196.17	13.48	-34.8	-46.4	3.8	1.49e+00	0	42	104	0	30	13742
2026-01-29 11:17:49.83	196.26	13.57	-34.8	-46.4	3.8	1.49e+00	0	42	104	0	30	13771
2026-01-29 11:17:50.83	196.35	13.66	-34.8	-46.4	3.8	1.49e+00	0	42	104	0	30	13731
2026-01-29 11:17:51.83	196.44	13.75	-34.7	-46.4	3.8	1.49e+00	0	42	104	0	30	13725
2026-01-29 11:17:52.83	196.53	13.84	-34.8	-46.4	3.8	1.49e+00	0	42	104	0	30	13678
2026-01-29 11:17:53.83	196.62	13.93	-34.8	-46.3	3.8	1.49e+00	0	42	104	0	30	13673
2026-01-29 11:17:54.82	196.71	14.02	-34.8	-46.4	3.8	1.49e+00	0	42	104	0	30	13695
2026-01-29 11:17:55.82	196.80	14.12	-34.8	-46.4	3.8	1.49e+00	0	42	104	0	30	13710
2026-01-29 11:17:56.82	196.89	14.21	-34.7	-46.3	3.8	1.49e+00	0	42	104	0	30	13667
2026-01-29 11:17:57.82	196.99	14.30	-34.8	-46.4	3.8	1.49e+00	0	42	104	0	30	13726
2026-01-29 11:17:58.82	197.08	14.40	-34.7	-46.3	3.8	1.49e+00	0	42	104	0	30	13654
2026-01-29 11:17:59.82	197.18	14.49	-34.7	-46.2	3.8	1.49e+00	0	42	104	0	30	13603
2026-01-29 11:18:00.82	197.27	14.58	-34.7	-46.2	3.8	1.49e+00	0	42	104	0	30	13586
2026-01-29 11:18:01.82	197.37	14.68	-34.6	-46.1	3.8	1.49e+00	0	42	104	0	30	13564
2026-01-29 11:18:02.82	197.46	14.77	-34.6	-46.1	3.8	1.49e+00	0	42	104	0	30	13488
2026-01-29 11:18:03.81	197.56	14.87	-34.5	-46.0	3.8	1.49e+00	0	42	104	0	30	13404
2026-01-29 11:18:04.81	197.65	14.96	-34.4	-45.8	3.8	1.49e+00	0	42	104	0	30	13252
2026-01-29 11:18:05.81	197.75	15.06	-34.4	-45.6	3.8	1.49e+00	0	42	104	0	30	13135
2026-01-29 11:18:06.81	197.85	15.15	-34.3	-45.6	3.8	1.49e+00	0	42	104	0	30	13129
2026-01-29 11:18:07.82	197.95	15.25	-34.3	-45.5	3.8	1.49e+00	0	42	104	0	30	13093
2026-01-29 11:18:08.82	198.05	15.34	-34.4	-45.5	3.8	1.49e+00	0	42	104	0	30	13039
2026-01-29 11:18:09.82	198.15	15.44	-34.3	-45.5	3.8	1.49e+00	0	42	104	0	30	13016
2026-01-29 11:18:10.83	198.25	15.54	-34.2	-45.7	3.8	1.49e+00	0	42	104	0	29	13619
2026-01-29 11:18:11.84	198.35	15.64	-34.0	-45.5	3.8	1.49e+00	0	42	104	0	29	13535
2026-01-29 11:18:12.83	198.45	15.73	-34.0	-45.4	3.8	1.49e+00	0	42	104	0	29	13353
2026-01-29 11:18:13.84	198.56	15.83	-33.6	-43.4	3.8	1.49e+00	0	42	104	0	28	11175
2026-01-29 11:18:14.85	198.66	15.93	-33.5	-43.1	3.9	1.49e+00	0	42	104	0	28	10872
2026-01-29 11:18:15.85	198.76	16.03	-33.5	-42.1	4.1	1.47e+00	0	42	104	0	28	9710
2026-01-29 11:18:16.85	198.87	16.13	-33.4	-41.9	3.9	1.48e+00	0	42	104	0	28	9584
2026-01-29 11:18:17.86	198.97	16.23	-33.3	-41.3	3.9	1.45e+00	0	42	104	0	28	9064
2026-01-29 11:18:18.86	199.08	16.33	-33.3	-40.7	4.6	1.20e+00	0	42	104	0	27	8501
2026-01-29 11:18:19.86	199.19	16.43	-33.2	-41.0	4.0	1.30e+00	0	42	104	0	27	8860
2026-01-29 11:18:20.86	199.29	16.53	-33.2	-40.4	4.8	9.31e-01	0	42	104	0	27	8185
2026-01-29 11:18:21.86	199.40	16.63	-33.3	-41.3	4.0	1.47e+00	0	42	104	0	27	9101
2026-01-29 11:18:22.86	199.51	16.73	-33.3	-40.8	4.6	9.57e-01	0	42	104	0	27	8593
2026-01-29 11:18:23.86	199.62	16.83	-33.2	-41.0	4.0	1.47e+00	0	42	104	0	27	8830
2026-01-29 11:18:24.86	199.73	16.93	-32.9	-38.7	5.6	6.02e-01	0	42	0	0	27	6983
2026-01-29 11:18:25.87	199.84	17.03	-32.2	-36.9	7.3	2.01e-01	0	42	0	3145728	25	6140
2026-01-29 11:18:26.86	199.95	17.13	-31.4	-34.6	9.3	3.36e-02	0	42	0	6291456	24	5178
2026-01-29 11:18:27.86	200.06	17.24	-30.5	-32.8	11.1	2.74e-03	0	42	0	9437184	22	4729
2026-01-29 11:18:28.87	200.18	17.34	-29.6	-31.5	12.6	1.41e-04	0	42	0	12582912	20	4510
2026-01-29 11:18:29.87	200.29	17.44	-29.0	-30.7	13.5	1.06e-05	0	42	0	15728640	19	4344
2026-01-29 11:18:30.87	200.41	17.55	-28.6	-30.1	14.1	3.00e-06	0	42	0	18874368	18	4296
2026-01-29 11:18:31.86	200.52	17.65	-28.4	-29.8	14.4	0.00e+00	0	42	0	22020096	18	4182
2026-01-29 11:18:32.87	200.64	17.75	-28.5	-29.9	14.3	1.50e-06	0	42	0	24117248	18	4220
2026-01-29 11:18:33.87	200.75	17.86	-28.8	-30.7	13.8	3.80e-06	0	42	0	27262976	18	4439
2026-01-29 11:18:34.87	200.87	17.96	-29.4	-32.1	13.0	2.44e-05	0	42	0	30408704	18	4888
2026-01-29 11:18:35.87	200.99	18.07	-29.8	-32.5	12.4	1.40e-04	0	42	0	34603008	19	4917
2026-01-29 11:18:36.88	201.11	18.17	-29.4	-31.6	13.0	6.94e-05	0	42	0	37748736	19	4641
2026-01-29 11:18:37.88	201.23	18.28	-29.8	-32.4	12.5	6.71e-05	0	42	0	40894464	19	4908
2026-01-29 11:18:38.88	201.35	18.38	-29.5	-31.8	12.9	7.93e-05	0	42	0	44040192	19	4678
2026-01-29 11:18:39.88	201.47	18.49	-29.1	-30.8	13.5	2.05e-05	0	42	0	47185920	19	4383
2026-01-29 11:18:40.89	201.60	18.60	-28.8	-30.0	14.1	7.00e-07	0	42	0	49283072	19	4134
2026-01-29 11:18:41.90	201.72	18.71	-28.5	-29.9	14.4	7.00e-07	0	42	0	52428800	18	4198
2026-01-29 11:18:42.90	201.84	18.81	-28.3	-29.3	14.7	0.00e+00	0	42	0	55574528	18	4063
2026-01-29 11:18:43.90	201.97	18.92	-28.2	-29.5	14.9	0.00e+00	0	42	0	58720256	17	4216
2026-01-29 11:18:44.90	202.09	19.03	-28.1	-29.5	14.9	0.00e+00	0	42	0	61865984	17	4200
2026-01-29 11:18:45.90	202.22	19.14	-28.2	-29.7	14.8	9.90e-06	0	42	0	65011712	17	4271
2026-01-29 11:18:46.91	202.35	19.25	-28.1	-29.4	15.0	7.00e-07	0	42	0	68157440	17	4182
2026-01-29 11:18:47.91	202.48	19.35	-28.0	-29.2	15.1	7.00e-07	0	42	0	71303168	17	4118
2026-01-29 11:18:48.91	202.61	19.46	-28.0	-29.1	15.2	2.20e-06	0	42	0	74448896	17	4086
2026-01-29 11:18:49.91	202.74	19.57	-28.1	-29.3	15.0	0.00e+00	0	42	0	77594624	17	4148
2026-01-29 11:18:50.92	202.87	19.68	-27.9	-29.0	15.2	0.00e+00	0	42	0	80740352	17	4065
2026-01-29 11:18:51.91	203.00	19.79	-27.8	-28.8	15.3	3.80e-06	0	42	0	83886080	17	4010
2026-01-29 11:18:52.92	203.13	19.91	-27.8	-28.8	15.3	0.00e+00	0	42	0	87031808	17	4013
2026-01-29 11:18:53.92	203.27	20.02	-27.7	-29.0	15.5	0.00e+00	0	42	0	90177536	16	4187
2026-01-29 11:18:54.93	203.40	20.13	-27.6	-28.8	15.6	3.00e-06	0	42	0	93323264	16	4132
2026-01-29 11:18:55.93	203.54	20.24	-27.7	-28.9	15.5	0.00e+00	0	42	0	96468992	16	4144
2026-01-29 11:18:56.92	203.67	20.35	-27.5	-28.6	15.7	0.00e+00	0	42	0	99614720	16	4069
2026-01-29 11:18:57.93	203.81	20.46	-27.5	-28.5	15.8	0.00e+00	0	42	0	102760448	16	4029
2026-01-29 11:18:58.92	203.95	20.58	-27.5	-28.5	15.8	0.00e+00	0	42	0	105906176	16	4044
2026-01-29 11:18:59.92	204.09	20.69	-27.6	-28.8	15.6	0.00e+00	0	42	0	109051904	16	4113
2026-01-29 11:19:00.92	204.23	20.80	-27.7	-29.0	15.5	0.00e+00	0	42	0	112197632	16	4161
2026-01-29 11:19:01.93	204.37	20.92	-27.6	-28.7	15.7	0.00e+00	0	42	0	115343360	16	4089
2026-01-29 11:19:02.93	204.52	21.03	-27.5	-28.6	15.8	0.00e+00	0	42	0	118489088	16	4056
2026-01-29 11:19:03.94	204.66	21.15	-27.6	-28.8	15.7	0.00e+00	0	42	0	121634816	16	4113
2026-01-29 11:19:04.94	204.81	21.26	-27.5	-28.5	15.8	0.00e+00	0	42	0	124780544	16	4047
2026-01-29 11:19:05.94	204.95	21.38	-27.5	-28.5	15.8	0.00e+00	0	42	0	127926272	16	4034
2026-01-29 11:19:06.94	205.10	21.49	-27.5	-28.6	15.8	0.00e+00	0	42	0	131072000	16	4050
2026-01-29 11:19:07.94	205.25	21.61	-27.3	-28.1	16.1	0.00e+00	0	42	0	134217728	16	3938
2026-01-29 11:19:08.94	205.40	21.72	-27.0	-28.0	16.2	0.00e+00	0	42	0	137363456	15	4025
2026-01-29 11:19:09.95	205.55	21.84	-27.0	-27.9	16.3	0.00e+00	0	42	0	140509184	15	3993
2026-01-29 11:19:10.95	205.70	21.96	-27.1	-28.1	16.2	0.00e+00	0	42	0	143654912	15	4038
2026-01-29 11:19:11.96	205.85	22.08	-26.9	-27.6	16.4	0.00e+00	0	42	0	146800640	15	3933
2026-01-29 11:19:12.96	206.01	22.19	-26.9	-27.7	16.4	0.00e+00	0	42	0	149946368	15	3936
2026-01-29 11:19:13.96	206.16	22.31	-26.9	-27.8	16.3	0.00e+00	0	42	0	153092096	15	3967
2026-01-29 11:19:14.96	206.32	22.43	-27.2	-28.3	16.1	0.00e+00	0	42	0	156237824	15	4094
2026-01-29 11:19:15.96	206.47	22.55	-27.0	-27.8	16.3	0.00e+00	0	42	0	159383552	15	3975
2026-01-29 11:19:16.96	206.63	22.67	-26.8	-27.6	16.5	0.00e+00	0	42	0	162529280	15	3908
2026-01-29 11:19:17.96	206.79	22.79	-26.9	-27.6	16.4	0.00e+00	0	42	0	165675008	15	3916
2026-01-29 11:19:18.97	206.95	22.91	-26.9	-27.6	16.4	0.00e+00	0	42	0	168820736	15	3921
2026-01-29 11:19:19.97	207.11	23.03	-26.9	-27.7	16.4	0.00e+00	0	42	0	171966464	15	3943
2026-01-29 11:19:20.96	207.27	23.14	-26.8	-27.4	16.5	0.00e+00	0	42	0	175112192	15	3881
2026-01-29 11:19:21.96	207.44	23.26	-26.9	-27.6	16.5	0.00e+00	0	42	0	178257920	15	3920
2026-01-29 11:19:22.96	207.60	23.39	-26.8	-27.4	16.5	0.00e+00	0	42	0	181403648	15	3872
2026-01-29 11:19:23.96	207.77	23.51	-26.7	-27.8	16.7	0.00e+00	0	42	0	184549376	14	4064
2026-01-29 11:19:24.97	207.94	23.63	-26.7	-27.8	16.6	0.00e+00	0	42	0	187695104	14	4076
2026-01-29 11:19:25.97	208.11	23.75	-26.9	-28.1	16.5	0.00e+00	0	42	0	190840832	14	4158
2026-01-29 11:19:26.98	208.28	23.87	-26.8	-27.9	16.6	0.00e+00	0	42	0	193986560	14	4091
2026-01-29 11:19:27.97	208.45	24.00	-26.8	-28.0	16.6	0.00e+00	0	42	0	197132288	14	4120
2026-01-29 11:19:28.98	208.62	24.12	-26.8	-28.0	16.6	0.00e+00	0	42	0	200278016	14	4127
2026-01-29 11:19:29.98	208.80	24.24	-26.9	-28.3	16.4	0.00e+00	0	42	0	203423744	14	4202
2026-01-29 11:19:30.99	208.97	24.37	-26.9	-28.1	16.5	0.00e+00	0	42	0	206569472	14	4163
2026-01-29 11:19:31.99	209.15	24.49	-26.9	-28.3	16.4	0.00e+00	0	42	0	209715200	14	4206
2026-01-29 11:19:32.99	209.33	24.61	-26.9	-28.3	16.4	0.00e+00	0	42	0	212860928	14	4193
2026-01-29 11:19:34.00	209.51	24.74	-27.1	-28.6	16.2	0.00e+00	0	42	0	216006656	14	4282
2026-01-29 11:19:35.00	209.69	24.86	-27.0	-28.3	16.4	0.00e+00	0	42	0	219152384	14	4213
2026-01-29 11:19:36.00	209.87	24.99	-27.0	-28.4	16.4	0.00e+00	0	42	0	222298112	14	4229
2026-01-29 11:19:37.00	210.06	25.11	-27.1	-28.5	16.3	0.00e+00	0	42	0	225443840	14	4263
2026-01-29 11:19:38.01	210.25	25.24	-27.1	-28.6	16.3	0.00e+00	0	42	0	228589568	14	4272
2026-01-29 11:19:39.01	210.43	25.37	-27.1	-28.6	16.3	0.00e+00	0	42	0	231735296	14	4269
2026-01-29 11:19:40.01	210.62	25.49	-27.0	-28.5	16.3	0.00e+00	0	42	0	234881024	14	4243
2026-01-29 11:19:41.01	210.81	25.62	-27.2	-28.8	16.2	0.00e+00	0	42	0	238026752	14	4326
2026-01-29 11:19:42.01	211.00	25.74	-27.1	-28.6	16.3	0.00e+00	0	42	0	241172480	14	4283
2026-01-29 11:19:43.01	211.19	25.87	-27.1	-28.6	16.3	0.00e+00	0	42	0	244318208	14	4290
2026-01-29 11:19:44.02	211.39	26.00	-27.3	-29.1	16.0	0.00e+00	0	42	0	247463936	14	4412
2026-01-29 11:19:45.02	211.58	26.13	-27.3	-29.0	16.1	0.00e+00	0	42	0	250609664	14	4385
2026-01-29 11:19:46.02	211.78	26.25	-27.5	-29.4	15.9	0.00e+00	0	42	0	253755392	14	4501
2026-01-29 11:19:47.03	211.98	26.38	-27.5	-29.4	15.9	0.00e+00	0	42	0	256901120	14	4498
2026-01-29 11:19:48.03	212.18	26.51	-27.5	-29.1	15.8	7.60e-06	0	42	0	260046848	15	4301
2026-01-29 11:19:49.04	212.39	26.64	-27.8	-29.7	15.4	0.00e+00	0	42	0	263192576	15	4485
2026-01-29 11:19:50.05	212.59	26.77	-27.8	-29.7	15.4	0.00e+00	0	42	0	266338304	15	4486
2026-01-29 11:19:51.05	212.80	26.90	-28.3	-30.2	15.0	0.00e+00	0	42	0	269484032	16	4515
2026-01-29 11:19:52.06	213.01	27.03	-28.2	-30.0	15.2	0.00e+00	0	42	0	272629760	16	4429
2026-01-29 11:19:53.06	213.21	27.16	-28.2	-30.0	15.2	0.00e+00	0	42	0	275775488	16	4444
2026-01-29 11:19:54.05	213.42	27.29	-28.1	-29.9	15.2	1.50e-06	0	42	0	277872640	16	4411
2026-01-29 11:19:55.05	213.63	27.42	-28.3	-30.3	15.0	0.00e+00	0	42	0	281018368	16	4529
2026-01-29 11:19:56.05	213.85	27.55	-28.2	-30.1	15.1	0.00e+00	0	42	0	284164096	16	4481
2026-01-29 11:19:57.05	214.06	27.68	-28.2	-30.0	15.1	7.00e-07	0	42	0	287309824	16	4459
2026-01-29 11:19:58.05	214.28	27.81	-28.4	-30.5	14.9	0.00e+00	0	42	0	290455552	16	4586
2026-01-29 11:19:59.05	214.50	27.94	-28.5	-30.3	14.7	0.00e+00	0	42	0	293601280	17	4440
2026-01-29 11:20:00.04	214.71	28.07	-28.7	-30.8	14.4	7.00e-07	0	42	0	296747008	17	4577
2026-01-29 11:20:01.04	214.94	28.20	-28.5	-30.4	14.7	0.00e+00	0	42	0	299892736	17	4448
2026-01-29 11:20:02.05	215.16	28.33	-28.4	-30.1	14.9	0.00e+00	0	42	0	303038464	17	4353
2026-01-29 11:20:03.05	215.39	28.46	-28.4	-30.0	14.9	7.00e-07	0	42	0	306184192	17	4338
2026-01-29 11:20:04.05	215.62	28.59	-28.4	-30.1	14.8	0.00e+00	0	42	0	309329920	17	4360
2026-01-29 11:20:05.05	215.85	28.72	-28.6	-30.6	14.6	0.00e+00	0	42	0	312475648	17	4496
2026-01-29 11:20:06.05	216.08	28.85	-28.3	-29.7	15.0	0.00e+00	0	42	0	315621376	17	4257
2026-01-29 11:20:07.05	216.31	28.98	-28.1	-29.4	15.3	0.00e+00	0	42	0	318767104	17	4152
2026-01-29 11:20:08.06	216.55	29.12	-28.0	-29.2	15.3	0.00e+00	0	42	0	321912832	17	4117
2026-01-29 11:20:09.07	216.79	29.25	-28.1	-29.2	15.3	0.00e+00	0	42	0	325058560	17	4110
2026-01-29 11:20:10.07	217.02	29.38	-28.0	-29.1	15.4	0.00e+00	0	42	0	328204288	17	4080
2026-01-29 11:20:11.07	217.26	29.51	-28.0	-29.1	15.4	7.00e-07	0	42	0	331350016	17	4081
2026-01-29 11:20:12.07	217.51	29.65	-28.1	-29.3	15.3	0.00e+00	0	42	0	334495744	17	4131
2026-01-29 11:20:13.07	217.75	29.78	-28.1	-29.4	15.2	0.00e+00	0	42	0	337641472	17	4172
2026-01-29 11:20:14.08	218.00	29.91	-28.1	-29.4	15.2	0.00e+00	0	42	0	340787200	17	4170
2026-01-29 11:20:15.08	218.25	30.04	-28.2	-29.4	15.2	0.00e+00	0	42	0	343932928	17	4179
2026-01-29 11:20:16.09	218.50	30.18	-28.1	-29.3	15.3	7.00e-07	0	42	0	347078656	17	4146
2026-01-29 11:20:17.10	218.76	30.31	-28.1	-29.3	15.3	0.00e+00	0	42	0	350224384	17	4141
2026-01-29 11:20:18.09	219.01	30.44	-28.1	-29.3	15.3	0.00e+00	0	42	0	353370112	17	4148
2026-01-29 11:20:19.09	219.26	30.57	-28.0	-29.0	15.5	0.00e+00	0	42	0	356515840	17	4066
2026-01-29 11:20:20.09	219.52	30.71	-28.1	-29.3	15.3	0.00e+00	0	42	0	359661568	17	4137
2026-01-29 11:20:21.10	219.79	30.84	-27.8	-28.7	15.6	0.00e+00	0	42	0	362807296	17	3988
2026-01-29 11:20:22.10	220.05	30.97	-27.8	-29.1	15.7	0.00e+00	0	42	0	365953024	16	4197
2026-01-29 11:20:23.11	220.32	31.10	-27.8	-29.0	15.7	0.00e+00	0	42	0	369098752	16	4169
2026-01-29 11:20:24.11	220.58	31.24	-27.9	-29.3	15.6	0.00e+00	0	42	0	372244480	16	4235
2026-01-29 11:20:25.11	220.85	31.37	-27.8	-29.1	15.8	0.00e+00	0	42	0	375390208	16	4176
2026-01-29 11:20:26.11	221.12	31.50	-27.7	-28.8	15.9	7.00e-07	0	42	0	378535936	16	4116
2026-01-29 11:20:27.11	221.40	31.63	-27.7	-29.0	15.8	0.00e+00	0	42	0	381681664	16	4146
2026-01-29 11:20:28.11	221.67	31.76	-27.9	-29.4	15.6	0.00e+00	0	42	0	384827392	16	4275
2026-01-29 11:20:29.10	221.95	31.89	-27.8	-29.2	15.7	0.00e+00	0	42	0	387973120	16	4214
2026-01-29 11:20:30.10	222.23	32.02	-27.8	-29.2	15.7	0.00e+00	0	42	0	391118848	16	4204
2026-01-29 11:20:31.10	222.51	32.16	-28.0	-29.6	15.5	0.00e+00	0	42	0	394264576	16	4327
2026-01-29 11:20:32.11	222.80	32.29	-28.1	-29.8	15.4	0.00e+00	0	42	0	397410304	16	4376
2026-01-29 11:20:33.11	223.08	32.42	-28.2	-30.0	15.2	0.00e+00	0	42	0	400556032	16	4446
2026-01-29 11:20:34.10	223.37	32.55	-28.1	-29.9	15.3	0.00e+00	0	42	0	403701760	16	4402
2026-01-29 11:20:35.10	223.66	32.68	-28.1	-29.8	15.3	0.00e+00	0	42	0	406847488	16	4385
2026-01-29 11:20:36.10	223.95	32.81	-28.1	-29.9	15.4	7.00e-07	0	42	0	409993216	16	4412
2026-01-29 11:20:37.10	224.25	32.94	-28.2	-30.1	15.2	0.00e+00	0	42	0	413138944	16	4462
2026-01-29 11:20:38.11	224.55	33.07	-28.1	-29.9	15.3	0.00e+00	0	42	0	416284672	16	4410
2026-01-29 11:20:39.11	224.85	33.20	-28.1	-29.9	15.3	0.00e+00	0	42	0	419430400	16	4405
2026-01-29 11:20:40.10	225.15	33.32	-28.2	-30.1	15.2	0.00e+00	0	42	0	422576128	16	4471
2026-01-29 11:20:41.11	225.46	33.45	-28.3	-30.2	15.2	0.00e+00	0	42	0	425721856	16	4489
2026-01-29 11:20:42.12	225.77	33.58	-28.3	-30.3	15.1	0.00e+00	0	42	0	428867584	16	4529
2026-01-29 11:20:43.13	226.08	33.71	-28.4	-30.4	15.0	0.00e+00	0	42	0	432013312	16	4576
2026-01-29 11:20:44.13	226.40	33.84	-28.4	-30.6	14.9	0.00e+00	0	42	0	435159040	16	4620
2026-01-29 11:20:45.14	226.71	33.97	-28.4	-30.6	14.9	0.00e+00	0	42	0	438304768	16	4628
2026-01-29 11:20:46.15	227.04	34.10	-28.6	-30.6	14.7	0.00e+00	0	42	0	441450496	17	4492
2026-01-29 11:20:47.15	227.36	34.22	-28.5	-30.3	14.8	0.00e+00	0	42	0	444596224	17	4417
2026-01-29 11:20:48.15	227.68	34.35	-28.6	-30.5	14.7	0.00e+00	0	42	0	447741952	17	4491
2026-01-29 11:20:49.15	228.00	34.47	-28.7	-30.7	14.6	0.00e+00	0	42	0	450887680	17	4533
2026-01-29 11:20:50.15	228.33	34.60	-28.8	-31.0	14.4	7.00e-07	0	42	0	454033408	17	4628
2026-01-29 11:20:51.15	228.66	34.72	-28.8	-31.0	14.4	7.00e-07	0	42	0	457179136	17	4635
2026-01-29 11:20:52.15	228.99	34.84	-28.8	-31.1	14.4	7.00e-07	0	42	0	460324864	17	4643
2026-01-29 11:20:53.15	229.33	34.97	-29.0	-31.3	14.2	1.50e-06	0	42	0	463470592	17	4723
2026-01-29 11:20:54.15	229.66	35.09	-29.0	-30.9	14.2	0.00e+00	0	42	0	466616320	18	4480
2026-01-29 11:20:55.15	230.00	35.21	-29.3	-31.6	13.8	3.80e-06	0	42	0	469762048	18	4695
2026-01-29 11:20:56.15	230.34	35.33	-29.1	-31.2	14.0	3.80e-06	0	42	0	472907776	18	4589
2026-01-29 11:20:57.15	230.69	35.45	-29.1	-31.1	14.1	1.50e-06	0	42	0	476053504	18	4544
2026-01-29 11:20:58.15	231.03	35.57	-29.1	-31.2	14.1	0.00e+00	0	42	0	479199232	18	4564
2026-01-29 11:20:59.15	231.38	35.69	-29.3	-31.5	13.9	4.50e-06	0	42	0	482344960	18	4674
2026-01-29 11:21:00.16	231.74	35.81	-29.3	-31.6	13.9	1.50e-06	0	42	0	484442112	18	4692
2026-01-29 11:21:01.16	232.09	35.93	-29.5	-32.0	13.6	1.06e-05	0	42	0	487587840	18	4843
2026-01-29 11:21:02.16	232.45	36.05	-29.3	-31.6	13.8	4.50e-06	0	42	0	490733568	18	4708
2026-01-29 11:21:03.16	232.81	36.16	-29.2	-31.3	14.1	2.20e-06	0	42	0	493879296	18	4591
2026-01-29 11:21:04.16	233.17	36.28	-29.1	-31.0	14.2	7.00e-07	0	42	0	497025024	18	4509
2026-01-29 11:21:05.17	233.54	36.39	-29.0	-31.0	14.3	7.60e-06	0	42	0	500170752	18	4506
2026-01-29 11:21:06.17	233.91	36.50	-29.1	-31.1	14.2	1.50e-06	0	42	0	503316480	18	4526
2026-01-29 11:21:07.17	234.28	36.62	-29.0	-30.9	14.3	0.00e+00	0	42	0	506462208	18	4465
2026-01-29 11:21:08.17	234.65	36.73	-29.2	-31.4	14.0	3.00e-06	0	42	0	509607936	18	4618
2026-01-29 11:21:09.17	235.02	36.84	-29.4	-31.7	13.8	5.30e-06	0	42	0	512753664	18	4719
2026-01-29 11:21:10.18	235.40	36.95	-29.4	-31.8	13.7	2.20e-06	0	42	0	515899392	18	4757
2026-01-29 11:21:11.18	235.78	37.06	-29.4	-31.7	13.8	4.50e-06	0	42	0	519045120	18	4730
2026-01-29 11:21:12.18	236.17	37.16	-29.4	-31.7	13.9	2.20e-06	0	42	0	522190848	18	4707
2026-01-29 11:21:13.18	236.55	37.27	-29.3	-31.6	13.9	1.50e-06	0	42	0	525336576	18	4676
2026-01-29 11:21:14.19	236.94	37.38	-29.2	-31.4	14.0	1.50e-06	0	42	0	528482304	18	4607
2026-01-29 11:21:15.19	237.33	37.48	-29.2	-31.4	14.0	3.00e-06	0	42	0	531628032	18	4606
2026-01-29 11:21:16.19	237.72	37.58	-29.3	-31.5	13.9	4.50e-06	0	42	0	534773760	18	4642
2026-01-29 11:21:17.20	238.12	37.69	-29.5	-31.9	13.7	7.60e-06	0	42	0	537919488	18	4785
2026-01-29 11:21:18.21	238.52	37.79	-29.5	-31.5	13.6	6.80e-06	0	42	0	541065216	19	4555
2026-01-29 11:21:19.21	238.92	37.89	-29.7	-32.0	13.3	1.60e-05	0	42	0	544210944	19	4712
2026-01-29 11:21:20.22	239.33	37.99	-29.5	-31.6	13.6	7.60e-06	0	42	0	547356672	19	4580
2026-01-29 11:21:21.22	239.73	38.08	-29.5	-31.5	13.7	9.10e-06	0	42	0	550502400	19	4549
2026-01-29 11:21:22.22	240.14	38.18	-29.4	-31.3	13.8	7.60e-06	0	42	0	553648128	19	4467
2026-01-29 11:21:23.22	240.55	38.27	-29.2	-30.9	14.0	4.50e-06	0	42	0	556793856	19	4352
2026-01-29 11:21:24.22	240.96	38.37	-29.3	-31.0	13.9	2.20e-06	0	42	0	559939584	19	4396
2026-01-29 11:21:25.23	241.37	38.46	-29.4	-31.2	13.8	6.80e-06	0	42	0	563085312	19	4444
2026-01-29 11:21:26.23	241.79	38.55	-29.5	-31.5	13.7	6.80e-06	0	42	0	566231040	19	4539
2026-01-29 11:21:27.23	242.21	38.64	-29.7	-32.0	13.4	9.90e-06	0	42	0	569376768	19	4700
2026-01-29 11:21:28.23	242.63	38.72	-29.6	-31.8	13.5	1.14e-05	0	42	0	572522496	19	4628
2026-01-29 11:21:29.23	243.05	38.81	-29.6	-31.8	13.5	9.90e-06	0	42	0	575668224	19	4626
2026-01-29 11:21:30.23	243.47	38.89	-30.0	-32.2	12.9	4.34e-05	0	42	0	578813952	20	4651
2026-01-29 11:21:31.24	243.90	38.98	-30.1	-32.4	12.7	6.71e-05	0	42	0	581959680	20	4728
2026-01-29 11:21:32.24	244.33	39.06	-29.9	-32.0	13.0	4.42e-05	0	42	0	585105408	20	4575
2026-01-29 11:21:33.24	244.76	39.14	-29.8	-31.7	13.2	2.51e-05	0	42	0	588251136	20	4481
2026-01-29 11:21:34.24	245.20	39.22	-29.8	-31.7	13.2	1.83e-05	0	42	0	591396864	20	4497
2026-01-29 11:21:35.25	245.63	39.29	-29.9	-31.9	13.1	2.97e-05	0	42	0	594542592	20	4545
2026-01-29 11:21:36.25	246.07	39.37	-29.9	-31.9	13.1	2.59e-05	0	42	0	597688320	20	4556
2026-01-29 11:21:37.26	246.51	39.44	-30.2	-32.8	12.5	1.01e-04	0	42	0	600834048	20	4847
2026-01-29 11:21:38.26	246.96	39.51	-30.0	-32.3	12.9	7.62e-05	0	42	0	603979776	20	4691
2026-01-29 11:21:39.26	247.40	39.58	-29.7	-31.5	13.3	3.12e-05	0	43	0	607125504	20	4434
2026-01-29 11:21:40.25	247.84	39.65	-29.6	-31.3	13.4	1.37e-05	0	42	0	610271232	20	4388
2026-01-29 11:21:41.26	248.29	39.71	-29.6	-31.3	13.4	1.44e-05	0	42	0	613416960	20	4375
2026-01-29 11:21:42.26	248.74	39.78	-29.7	-31.4	13.4	1.06e-05	0	42	0	616562688	20	4416
2026-01-29 11:21:43.27	249.19	39.84	-29.6	-31.3	13.5	9.90e-06	0	43	0	619708416	20	4386
2026-01-29 11:21:44.28	249.65	39.90	-29.5	-30.9	13.7	4.50e-06	0	43	0	622854144	20	4262
2026-01-29 11:21:45.28	250.10	39.96	-29.5	-31.0	13.6	1.06e-05	0	42	0	625999872	20	4291
2026-01-29 11:21:46.28	250.55	40.02	-29.6	-31.3	13.5	1.29e-05	0	42	0	629145600	20	4373
2026-01-29 11:21:47.28	251.01	40.07	-29.8	-31.7	13.2	2.21e-05	0	42	0	632291328	20	4497
2026-01-29 11:21:48.28	251.47	40.12	-29.7	-31.7	13.2	1.67e-05	0	42	0	635437056	20	4484
2026-01-29 11:21:49.28	251.93	40.17	-29.7	-31.5	13.3	2.05e-05	0	42	0	638582784	20	4443
2026-01-29 11:21:50.28	252.39	40.22	-29.5	-31.0	13.6	8.30e-06	0	42	0	641728512	20	4300
2026-01-29 11:21:51.28	252.85	40.27	-29.4	-30.9	13.7	6.10e-06	0	42	0	644874240	20	4259
2026-01-29 11:21:52.28	253.31	40.31	-29.7	-31.5	13.3	2.36e-05	0	42	0	648019968	20	4447
2026-01-29 11:21:53.27	253.77	40.36	-29.9	-32.0	13.0	3.12e-05	0	42	0	651165696	20	4601
2026-01-29 11:21:54.27	254.24	40.40	-30.1	-32.4	12.8	8.01e-05	0	42	0	654311424	20	4736
2026-01-29 11:21:55.28	254.71	40.44	-29.8	-31.8	13.2	5.03e-05	0	42	0	657457152	20	4517
2026-01-29 11:21:56.29	255.18	40.47	-29.6	-31.2	13.5	1.29e-05	0	42	0	660602880	20	4355
2026-01-29 11:21:57.28	255.64	40.51	-29.4	-30.9	13.7	3.80e-06	0	43	0	663748608	20	4239
2026-01-29 11:21:58.29	256.12	40.54	-29.5	-31.1	13.6	2.59e-05	0	42	0	666894336	20	4306
2026-01-29 11:21:59.29	256.59	40.57	-29.5	-31.1	13.6	7.60e-06	0	42	0	670040064	20	4313
2026-01-29 11:22:00.29	257.06	40.60	-29.5	-31.1	13.6	1.37e-05	0	42	0	673185792	20	4314
2026-01-29 11:22:01.29	257.53	40.63	-29.5	-31.1	13.6	1.75e-05	0	42	0	676331520	20	4299
2026-01-29 11:22:02.29	258.00	40.65	-29.3	-30.6	13.9	3.00e-06	0	42	0	679477248	20	4161
2026-01-29 11:22:03.30	258.48	40.67	-29.6	-31.2	13.5	9.90e-06	0	42	0	682622976	20	4328
2026-01-29 11:22:04.30	258.95	40.69	-30.0	-32.2	12.9	3.58e-05	0	42	0	685768704	20	4640
2026-01-29 11:22:05.30	259.43	40.71	-30.3	-33.0	12.4	1.14e-04	0	43	0	688914432	20	4908
2026-01-29 11:22:06.30	259.90	40.72	-30.3	-33.1	12.4	1.43e-04	0	42	0	692060160	20	4945
2026-01-29 11:22:07.30	260.38	40.74	-30.4	-33.3	12.3	1.89e-04	0	43	0	695205888	20	5011
2026-01-29 11:22:08.31	260.86	40.75	-30.5	-33.4	12.2	2.14e-04	0	43	0	698351616	20	5073
2026-01-29 11:22:09.31	261.34	40.76	-30.7	-33.5	11.8	3.68e-04	0	42	0	701497344	21	4965
2026-01-29 11:22:10.31	261.81	40.76	-30.8	-33.7	11.6	7.29e-04	0	43	0	704643072	21	5061
2026-01-29 11:22:11.32	262.29	40.77	-30.6	-33.3	12.0	4.45e-04	0	43	0	707788800	21	4900
2026-01-29 11:22:12.32	262.77	40.77	-30.2	-32.4	12.5	1.88e-04	0	43	0	710934528	21	4607
2026-01-29 11:22:13.33	263.25	40.77	-29.9	-31.6	13.0	4.42e-05	0	43	0	714080256	21	4372
2026-01-29 11:22:14.33	263.73	40.77	-30.0	-31.8	12.9	4.95e-05	0	43	0	717225984	21	4406
2026-01-29 11:22:15.34	264.21	40.77	-30.1	-32.1	12.7	6.40e-05	0	42	0	720371712	21	4516
2026-01-29 11:22:16.34	264.68	40.76	-30.2	-32.1	12.6	1.09e-04	0	42	0	723517440	21	4527
2026-01-29 11:22:17.34	265.16	40.75	-30.1	-32.1	12.7	7.62e-05	0	42	0	726663168	21	4512
2026-01-29 11:22:18.35	265.64	40.74	-30.0	-31.7	12.9	3.96e-05	0	42	0	729808896	21	4374
2026-01-29 11:22:19.35	266.12	40.73	-29.9	-31.4	13.1	3.96e-05	0	42	0	732954624	21	4295
2026-01-29 11:22:20.35	266.59	40.71	-30.0	-31.6	13.0	4.42e-05	0	42	0	736100352	21	4365
2026-01-29 11:22:21.36	267.07	40.69	-30.1	-32.1	12.7	6.48e-05	0	42	0	738197504	21	4498
2026-01-29 11:22:22.36	267.54	40.68	-30.4	-32.7	12.3	1.55e-04	0	43	0	741343232	21	4699
2026-01-29 11:22:23.37	268.02	40.65	-30.3	-32.4	12.4	1.16e-04	0	43	0	744488960	21	4618
2026-01-29 11:22:24.37	268.49	40.63	-30.3	-32.4	12.6	9.99e-05	0	42	0	747634688	21	4622
2026-01-29 11:22:25.36	268.96	40.60	-30.2	-32.4	12.5	1.45e-04	0	43	0	750780416	21	4596
2026-01-29 11:22:26.36	269.43	40.58	-29.9	-31.6	13.0	4.42e-05	0	42	0	753926144	21	4352
2026-01-29 11:22:27.37	269.91	40.55	-30.1	-32.0	12.7	6.48e-05	0	42	0	757071872	21	4475
2026-01-29 11:22:28.37	270.38	40.51	-30.1	-32.1	12.7	9.23e-05	0	43	0	760217600	21	4511
2026-01-29 11:22:29.38	270.85	40.48	-29.9	-31.4	13.0	4.34e-05	0	43	0	763363328	21	4305
2026-01-29 11:22:30.38	271.32	40.44	-29.9	-31.4	13.1	2.82e-05	0	43	0	766509056	21	4297
2026-01-29 11:22:31.39	271.79	40.40	-30.1	-31.9	12.8	8.54e-05	0	43	0	769654784	21	4448
2026-01-29 11:22:32.39	272.25	40.36	-29.8	-31.2	13.2	2.67e-05	0	42	0	772800512	21	4242
2026-01-29 11:22:33.40	272.72	40.32	-29.8	-31.9	13.2	2.13e-05	0	43	0	775946240	20	4541
2026-01-29 11:22:34.40	273.18	40.28	-30.0	-32.2	12.9	5.49e-05	0	43	0	779091968	20	4649
2026-01-29 11:22:35.40	273.64	40.23	-29.8	-31.7	13.3	1.83e-05	0	43	0	782237696	20	4475
2026-01-29 11:22:36.40	274.10	40.18	-30.1	-32.4	12.8	4.80e-05	0	43	0	785383424	20	4719
2026-01-29 11:22:37.41	274.57	40.13	-30.3	-33.0	12.5	9.23e-05	0	43	0	788529152	20	4899
2026-01-29 11:22:38.41	275.02	40.08	-30.3	-33.1	12.4	1.95e-04	0	43	0	791674880	20	4969
2026-01-29 11:22:39.42	275.48	40.02	-30.0	-32.4	12.8	9.30e-05	0	42	0	794820608	20	4700
2026-01-29 11:22:40.42	275.94	39.97	-30.0	-32.2	12.9	4.04e-05	0	43	0	797966336	20	4646
2026-01-29 11:22:41.42	276.39	39.91	-30.1	-32.5	12.8	7.70e-05	0	43	0	801112064	20	4741
2026-01-29 11:22:42.43	276.85	39.85	-30.2	-32.8	12.6	8.69e-05	0	43	0	804257792	20	4829
2026-01-29 11:22:43.43	277.29	39.79	-30.3	-33.1	12.4	2.04e-04	0	43	0	807403520	20	4957
2026-01-29 11:22:44.43	277.74	39.73	-30.0	-32.3	12.9	5.72e-05	0	43	0	810549248	20	4673
2026-01-29 11:22:45.44	278.19	39.66	-29.9	-32.0	13.0	3.35e-05	0	43	0	813694976	20	4599
2026-01-29 11:22:46.44	278.64	39.59	-29.8	-31.7	13.2	2.51e-05	0	43	0	816840704	20	4492
2026-01-29 11:22:47.44	279.08	39.52	-29.8	-31.8	13.2	1.44e-05	0	43	0	819986432	20	4513
2026-01-29 11:22:48.44	279.52	39.45	-29.6	-31.3	13.5	1.52e-05	0	43	0	823132160	20	4387
2026-01-29 11:22:49.45	279.96	39.38	-29.3	-31.0	14.0	3.00e-06	0	42	0	826277888	19	4379
2026-01-29 11:22:50.45	280.40	39.31	-29.2	-30.8	14.1	0.00e+00	0	43	0	829423616	19	4304
2026-01-29 11:22:51.45	280.83	39.23	-29.4	-31.3	13.8	5.30e-06	0	43	0	832569344	19	4479
2026-01-29 11:22:52.45	281.26	39.15	-29.6	-31.7	13.6	3.80e-06	0	43	0	835715072	19	4607
2026-01-29 11:22:53.46	281.70	39.07	-29.5	-31.5	13.7	9.10e-06	0	43	0	838860800	19	4524
2026-01-29 11:22:54.46	282.13	38.99	-29.1	-30.5	14.2	1.50e-06	0	43	0	842006528	19	4244
2026-01-29 11:22:55.47	282.56	38.91	-28.7	-30.0	14.9	0.00e+00	0	43	0	845152256	18	4207
2026-01-29 11:22:56.47	282.98	38.83	-28.6	-29.9	14.9	0.00e+00	0	43	0	848297984	18	4178
2026-01-29 11:22:57.47	283.40	38.74	-28.7	-30.1	14.8	0.00e+00	0	42	0	851443712	18	4235
2026-01-29 11:22:58.48	283.82	38.65	-28.8	-30.3	14.7	0.00e+00	0	43	0	854589440	18	4286
2026-01-29 11:22:59.47	284.24	38.57	-28.9	-30.5	14.6	0.00e+00	0	43	0	857735168	18	4356
2026-01-29 11:23:00.47	284.65	38.48	-29.1	-31.0	14.3	7.00e-07	0	43	0	860880896	18	4496
2026-01-29 11:23:01.47	285.07	38.39	-29.5	-31.9	13.7	5.30e-06	0	42	0	864026624	18	4784
2026-01-29 11:23:02.48	285.48	38.29	-29.6	-31.7	13.5	1.37e-05	0	43	0	867172352	19	4598
2026-01-29 11:23:03.48	285.89	38.20	-29.6	-31.8	13.5	1.29e-05	0	43	0	870318080	19	4639
2026-01-29 11:23:04.48	286.29	38.10	-29.4	-31.2	13.8	4.50e-06	0	42	0	873463808	19	4449
2026-01-29 11:23:05.49	286.70	38.01	-29.1	-30.5	14.3	7.00e-07	0	43	0	876609536	19	4243
2026-01-29 11:23:06.49	287.10	37.91	-29.0	-30.3	14.4	0.00e+00	0	43	0	879755264	19	4170
2026-01-29 11:23:07.49	287.50	37.81	-29.2	-30.7	14.1	1.50e-06	0	43	0	882900992	19	4303
2026-01-29 11:23:08.50	287.90	37.71	-29.4	-31.2	13.9	1.50e-06	0	43	0	886046720	19	4436
2026-01-29 11:23:09.50	288.29	37.61	-29.3	-31.0	13.9	4.50e-06	0	43	0	889192448	19	4372
2026-01-29 11:23:10.50	288.68	37.51	-29.2	-30.9	14.1	7.00e-07	0	43	0	892338176	19	4343
2026-01-29 11:23:11.50	289.07	37.40	-29.2	-30.9	14.1	4.50e-06	0	43	0	895483904	19	4346
2026-01-29 11:23:12.52	289.47	37.30	-29.2	-30.7	14.1	7.00e-07	0	43	0	898629632	19	4312
2026-01-29 11:23:13.52	289.85	37.19	-29.2	-30.7	14.2	1.50e-06	0	43	0	901775360	19	4291
2026-01-29 11:23:14.52	290.23	37.08	-29.0	-30.3	14.3	0.00e+00	0	43	0	904921088	19	4196
2026-01-29 11:23:15.52	290.61	36.98	-28.8	-29.8	14.6	7.00e-07	0	43	0	908066816	19	4061
2026-01-29 11:23:16.52	290.99	36.87	-28.9	-30.0	14.5	7.00e-07	0	42	0	911212544	19	4102
2026-01-29 11:23:17.52	291.36	36.76	-29.2	-30.7	14.1	1.50e-06	0	43	0	914358272	19	4302
2026-01-29 11:23:18.53	291.74	36.65	-29.5	-31.5	13.7	8.30e-06	0	42	0	917504000	19	4543
2026-01-29 11:23:19.53	292.11	36.53	-29.5	-31.5	13.7	9.90e-06	0	43	0	920649728	19	4526
2026-01-29 11:23:20.54	292.48	36.42	-29.1	-30.5	14.3	7.00e-07	0	43	0	923795456	19	4233
2026-01-29 11:23:21.54	292.84	36.31	-28.9	-30.1	14.5	0.00e+00	0	42	0	926941184	19	4129
2026-01-29 11:23:22.54	293.20	36.19	-28.9	-30.0	14.5	1.50e-06	0	43	0	930086912	19	4104
2026-01-29 11:23:23.53	293.56	36.08	-28.9	-30.0	14.5	0.00e+00	0	42	0	933232640	19	4110
2026-01-29 11:23:24.53	293.91	35.96	-28.8	-30.2	14.7	1.50e-06	0	43	0	936378368	18	4275
2026-01-29 11:23:25.54	294.27	35.85	-28.7	-30.1	14.7	0.00e+00	0	43	0	939524096	18	4245
2026-01-29 11:23:26.55	294.63	35.73	-28.9	-30.5	14.5	7.00e-07	0	43	0	942669824	18	4346
2026-01-29 11:23:27.55	294.97	35.61	-29.0	-30.9	14.4	1.50e-06	0	43	0	945815552	18	4457
2026-01-29 11:23:28.56	295.32	35.49	-29.0	-30.8	14.4	2.20e-06	0	42	0	948961280	18	4443
2026-01-29 11:23:29.56	295.67	35.37	-28.9	-30.5	14.5	1.50e-06	0	43	0	952107008	18	4357
2026-01-29 11:23:30.57	296.01	35.25	-28.9	-30.6	14.6	0.00e+00	0	43	0	955252736	18	4358
2026-01-29 11:23:31.56	296.35	35.13	-28.8	-30.3	14.7	1.50e-06	0	42	0	958398464	18	4294
2026-01-29 11:23:32.57	296.69	35.00	-28.6	-30.0	14.9	0.00e+00	0	43	0	961544192	18	4198
2026-01-29 11:23:33.57	297.02	34.88	-28.7	-30.2	14.7	0.00e+00	0	43	0	964689920	18	4261
2026-01-29 11:23:34.57	297.35	34.76	-28.8	-30.4	14.6	0.00e+00	0	43	0	967835648	18	4308
2026-01-29 11:23:35.58	297.68	34.64	-28.7	-30.1	14.7	7.00e-07	0	43	0	970981376	18	4239
2026-01-29 11:23:36.58	298.01	34.51	-28.7	-30.1	14.8	0.00e+00	0	43	0	974127104	18	4227
2026-01-29 11:23:37.59	298.34	34.39	-28.8	-30.3	14.7	0.00e+00	0	43	0	977272832	18	4292
2026-01-29 11:23:38.59	298.66	34.26	-29.1	-31.1	14.3	2.20e-06	0	43	0	980418560	18	4535
2026-01-29 11:23:39.59	298.98	34.14	-29.3	-31.4	14.1	2.20e-06	0	43	0	983564288	18	4616
2026-01-29 11:23:40.60	299.30	34.01	-29.0	-30.9	14.4	1.50e-06	0	42	0	986710016	18	4458
2026-01-29 11:23:41.60	299.61	33.88	-28.7	-30.0	14.9	0.00e+00	0	43	0	989855744	18	4204
2026-01-29 11:23:42.60	299.93	33.76	-28.4	-29.5	15.1	0.00e+00	0	43	0	993001472	18	4066
2026-01-29 11:23:43.61	300.24	33.63	-28.6	-29.8	15.0	0.00e+00	0	43	0	996147200	18	4141
2026-01-29 11:23:44.62	300.55	33.50	-28.5	-29.7	15.0	0.00e+00	0	43	0	999292928	18	4118
2026-01-29 11:23:45.62	300.85	33.37	-28.4	-29.5	15.2	0.00e+00	0	43	0	1002438656	18	4062
2026-01-29 11:23:46.63	301.16	33.24	-28.4	-29.3	15.2	7.00e-07	0	43	0	1005584384	18	4025
2026-01-29 11:23:47.63	301.46	33.11	-28.5	-29.7	15.0	0.00e+00	0	42	0	1008730112	18	4128
2026-01-29 11:23:48.64	301.76	32.98	-28.5	-29.6	15.1	0.00e+00	0	43	0	1011875840	18	4089
2026-01-29 11:23:49.64	302.05	32.86	-28.3	-29.2	15.3	0.00e+00	0	42	0	1015021568	18	3995
2026-01-29 11:23:50.65	302.35	32.72	-28.3	-29.2	15.4	0.00e+00	0	42	0	1018167296	18	3980
2026-01-29 11:23:51.65	302.64	32.60	-28.3	-29.7	15.3	0.00e+00	0	42	0	1021313024	17	4220
2026-01-29 11:23:52.66	302.93	32.46	-28.4	-29.9	15.2	0.00e+00	0	42	0	1024458752	17	4282
2026-01-29 11:23:53.67	303.22	32.33	-28.3	-29.7	15.3	0.00e+00	0	43	0	1027604480	17	4219
2026-01-29 11:23:54.67	303.50	32.20	-28.2	-29.4	15.4	0.00e+00	0	43	0	1030750208	17	4159
2026-01-29 11:23:55.67	303.79	32.07	-28.2	-29.5	15.4	0.00e+00	0	42	0	1033895936	17	4179
2026-01-29 11:23:56.67	304.07	31.94	-28.3	-29.8	15.3	0.00e+00	0	43	0	1037041664	17	4252
2026-01-29 11:23:57.68	304.35	31.81	-28.3	-29.8	15.2	0.00e+00	0	43	0	1040187392	17	4253
2026-01-29 11:23:58.68	304.62	31.68	-28.4	-30.0	15.1	0.00e+00	0	43	0	1043333120	17	4317
2026-01-29 11:23:59.68	304.89	31.55	-28.4	-29.9	15.1	0.00e+00	0	42	0	1046478848	17	4285
2026-01-29 11:24:00.68	305.16	31.42	-28.3	-29.7	15.2	0.00e+00	0	42	0	1049624576	17	4243
2026-01-29 11:24:01.69	305.44	31.29	-28.4	-30.0	15.1	0.00e+00	0	43	0	1052770304	17	4312
2026-01-29 11:24:02.69	305.70	31.15	-28.5	-30.2	15.0	0.00e+00	0	42	0	1055916032	17	4361
2026-01-29 11:24:03.69	305.97	31.02	-28.6	-30.5	14.8	7.00e-07	0	43	0	1059061760	17	4450
2026-01-29 11:24:04.70	306.23	30.89	-28.8	-30.8	14.6	0.00e+00	0	43	0	1061158912	17	4562
2026-01-29 11:24:05.70	306.49	30.76	-28.8	-30.8	14.6	0.00e+00	0	42	0	1064304640	17	4535
2026-01-29 11:24:06.71	306.75	30.63	-28.7	-30.7	14.7	7.00e-07	0	43	0	1067450368	17	4518
2026-01-29 11:24:07.71	307.01	30.50	-28.7	-30.7	14.7	7.00e-07	0	43	0	1070596096	17	4533
2026-01-29 11:24:08.71	307.26	30.36	-28.7	-30.6	14.7	0.00e+00	0	43	0	1073741824	17	4502
2026-01-29 11:24:09.72	307.52	30.23	-28.7	-30.6	14.7	1.50e-06	0	43	0	1076887552	17	4504
2026-01-29 11:24:10.72	307.77	30.10	-28.6	-30.4	14.8	0.00e+00	0	42	0	1081081856	17	4445
2026-01-29 11:24:11.72	308.01	29.97	-28.6	-30.4	14.9	0.00e+00	0	43	0	1083179008	17	4434
2026-01-29 11:24:12.72	308.26	29.84	-28.5	-30.3	14.9	0.00e+00	0	43	0	1086324736	17	4402
2026-01-29 11:24:13.73	308.51	29.71	-28.6	-30.5	14.8	0.00e+00	0	43	0	1089470464	17	4463
2026-01-29 11:24:14.73	308.75	29.57	-28.4	-30.0	15.1	0.00e+00	0	42	0	1092616192	17	4320
2026-01-29 11:24:15.73	308.99	29.44	-28.3	-29.8	15.2	0.00e+00	0	43	0	1095761920	17	4258
2026-01-29 11:24:16.74	309.23	29.31	-28.3	-29.7	15.2	0.00e+00	0	43	0	1098907648	17	4235
2026-01-29 11:24:17.74	309.46	29.18	-28.2	-29.5	15.3	0.00e+00	0	43	0	1102053376	17	4190
2026-01-29 11:24:18.74	309.70	29.05	-28.2	-29.5	15.4	0.00e+00	0	43	0	1105199104	17	4174
2026-01-29 11:24:19.74	309.93	28.92	-28.1	-29.2	15.6	0.00e+00	0	42	0	1108344832	17	4100
2026-01-29 11:24:20.75	310.16	28.79	-28.0	-28.9	15.7	0.00e+00	0	42	0	1111490560	17	4032
2026-01-29 11:24:21.75	310.39	28.66	-28.0	-29.1	15.6	0.00e+00	0	42	0	1114636288	17	4069
2026-01-29 11:24:22.76	310.62	28.53	-28.0	-29.0	15.7	0.00e+00	0	42	0	1117782016	17	4044
2026-01-29 11:24:23.76	310.85	28.40	-27.9	-28.8	15.7	0.00e+00	0	42	0	1120927744	17	4003
2026-01-29 11:24:24.77	311.07	28.26	-27.9	-28.7	15.8	0.00e+00	0	42	0	1124073472	17	3970
2026-01-29 11:24:25.76	311.29	28.14	-27.7	-28.8	16.0	0.00e+00	0	42	0	1127219200	16	4110
2026-01-29 11:24:26.77	311.51	28.00	-27.6	-28.6	16.1	0.00e+00	0	42	0	1130364928	16	4032
2026-01-29 11:24:27.77	311.73	27.88	-27.6	-28.6	16.1	0.00e+00	0	42	0	1133510656	16	4045
2026-01-29 11:24:28.78	311.95	27.74	-27.5	-28.5	16.1	0.00e+00	0	42	0	1136656384	16	4021
2026-01-29 11:24:29.77	312.16	27.62	-27.5	-28.5	16.2	0.00e+00	0	42	0	1139802112	16	4011
2026-01-29 11:24:30.78	312.38	27.49	-27.5	-28.5	16.2	0.00e+00	0	42	0	1142947840	16	4020
2026-01-29 11:24:31.79	312.59	27.36	-27.6	-28.6	16.1	0.00e+00	0	42	0	1146093568	16	4056
2026-01-29 11:24:32.79	312.80	27.23	-27.7	-28.8	16.0	0.00e+00	0	42	0	1149239296	16	4109
2026-01-29 11:24:33.80	313.01	27.10	-27.6	-28.5	16.1	0.00e+00	0	42	0	1152385024	16	4031
2026-01-29 11:24:34.80	313.22	26.97	-27.5	-28.5	16.1	0.00e+00	0	42	0	1155530752	16	4028
2026-01-29 11:24:35.81	313.42	26.84	-27.6	-28.6	16.1	0.00e+00	0	42	0	1158676480	16	4050
2026-01-29 11:24:36.81	313.63	26.71	-27.5	-28.5	16.1	0.00e+00	0	42	0	1161822208	16	4018
2026-01-29 11:24:37.82	313.83	26.58	-27.5	-28.5	16.1	0.00e+00	0	42	0	1164967936	16	4013
2026-01-29 11:24:38.82	314.03	26.46	-27.6	-28.7	16.0	0.00e+00	0	42	0	1168113664	16	4090
2026-01-29 11:24:39.83	314.23	26.33	-27.6	-28.6	16.1	0.00e+00	0	43	0	1171259392	16	4048
2026-01-29 11:24:40.83	314.43	26.20	-27.8	-29.0	15.9	0.00e+00	0	43	0	1174405120	16	4153
2026-01-29 11:24:41.83	314.62	26.08	-27.6	-28.8	16.0	0.00e+00	0	42	0	1177550848	16	4089
2026-01-29 11:24:42.84	314.82	25.95	-27.6	-28.5	16.1	0.00e+00	0	42	0	1180696576	16	4035
2026-01-29 11:24:43.84	315.01	25.82	-27.5	-28.5	16.1	0.00e+00	0	42	0	1183842304	16	4038
2026-01-29 11:24:44.85	315.20	25.70	-27.5	-28.5	16.1	0.00e+00	0	42	0	1186988032	16	4034
2026-01-29 11:24:45.85	315.39	25.57	-27.6	-28.7	16.0	0.00e+00	0	42	0	1190133760	16	4084
2026-01-29 11:24:46.86	315.58	25.44	-27.5	-28.5	16.1	0.00e+00	0	42	0	1193279488	16	4020
2026-01-29 11:24:47.86	315.77	25.32	-27.5	-28.4	16.2	0.00e+00	0	42	0	1196425216	16	3990
2026-01-29 11:24:48.86	315.95	25.20	-27.5	-28.5	16.1	0.00e+00	0	43	0	1199570944	16	4026
2026-01-29 11:24:49.87	316.14	25.07	-27.5	-28.4	16.2	0.00e+00	0	42	0	1202716672	16	4005
2026-01-29 11:24:50.87	316.32	24.95	-27.4	-28.3	16.2	0.00e+00	0	42	0	1205862400	16	3975
2026-01-29 11:24:51.87	316.50	24.82	-27.5	-28.5	16.1	0.00e+00	0	42	0	1209008128	16	4031
2026-01-29 11:24:52.87	316.68	24.70	-27.5	-28.4	16.2	0.00e+00	0	42	0	1212153856	16	3992
2026-01-29 11:24:53.88	316.86	24.57	-27.5	-28.4	16.2	0.00e+00	0	42	0	1215299584	16	3995
2026-01-29 11:24:54.89	317.04	24.45	-27.5	-28.4	16.1	0.00e+00	0	42	0	1218445312	16	4001
2026-01-29 11:24:55.88	317.21	24.33	-27.7	-28.8	16.0	0.00e+00	0	43	0	1221591040	16	4101
2026-01-29 11:24:56.89	317.39	24.21	-27.5	-28.4	16.1	0.00e+00	0	42	0	1224736768	16	4012
2026-01-29 11:24:57.90	317.56	24.08	-27.4	-28.1	16.3	0.00e+00	0	42	0	1227882496	16	3933
2026-01-29 11:24:58.90	317.73	23.96	-27.4	-28.1	16.3	0.00e+00	0	42	0	1231028224	16	3933
2026-01-29 11:24:59.90	317.90	23.84	-27.5	-28.5	16.1	0.00e+00	0	42	0	1234173952	16	4023
2026-01-29 11:25:00.91	318.07	23.72	-27.5	-28.4	16.2	0.00e+00	0	42	0	1237319680	16	3996
2026-01-29 11:25:01.91	318.24	23.60	-27.5	-28.4	16.2	0.00e+00	0	42	0	1240465408	16	3991
2026-01-29 11:25:02.91	318.41	23.48	-27.6	-28.6	16.0	0.00e+00	0	43	0	1243611136	16	4045
2026-01-29 11:25:03.92	318.58	23.36	-27.6	-28.7	16.0	0.00e+00	0	43	0	1246756864	16	4077
2026-01-29 11:25:04.92	318.74	23.24	-27.7	-29.0	15.8	0.00e+00	0	42	0	1249902592	16	4143
2026-01-29 11:25:05.93	318.90	23.12	-27.8	-29.1	15.8	0.00e+00	0	42	0	1253048320	16	4176
2026-01-29 11:25:06.93	319.06	23.00	-27.9	-29.3	15.6	0.00e+00	0	42	0	1256194048	16	4251
2026-01-29 11:25:07.94	319.23	22.88	-28.0	-29.6	15.4	0.00e+00	0	42	0	1259339776	16	4327
2026-01-29 11:25:08.94	319.39	22.76	-28.0	-29.6	15.4	0.00e+00	0	43	0	1262485504	16	4316
2026-01-29 11:25:09.94	319.54	22.64	-28.0	-29.6	15.5	0.00e+00	0	42	0	1265631232	16	4317
2026-01-29 11:25:10.93	319.70	22.52	-28.2	-30.0	15.2	0.00e+00	0	42	0	1268776960	16	4425
2026-01-29 11:25:11.94	319.86	22.41	-28.1	-29.9	15.2	0.00e+00	0	42	0	1271922688	16	4412
2026-01-29 11:25:12.94	320.01	22.29	-28.2	-30.0	15.2	7.00e-07	0	42	0	1275068416	16	4438
2026-01-29 11:25:13.94	320.16	22.17	-28.2	-30.1	15.2	0.00e+00	0	42	0	1278214144	16	4462
2026-01-29 11:25:14.95	320.32	22.06	-28.1	-29.9	15.3	0.00e+00	0	42	0	1281359872	16	4407
2026-01-29 11:25:15.95	320.47	21.94	-28.1	-29.9	15.3	0.00e+00	0	42	0	1284505600	16	4395
2026-01-29 11:25:16.95	320.62	21.82	-28.3	-30.2	15.1	0.00e+00	0	42	0	1287651328	16	4499
2026-01-29 11:25:17.95	320.77	21.71	-28.1	-29.7	15.3	0.00e+00	0	42	0	1290797056	16	4359
2026-01-29 11:25:18.95	320.91	21.59	-28.0	-29.6	15.4	0.00e+00	0	42	0	1293942784	16	4322
2026-01-29 11:25:19.96	321.06	21.48	-28.0	-29.6	15.4	0.00e+00	0	42	0	1297088512	16	4323
2026-01-29 11:25:20.95	321.21	21.36	-28.0	-29.5	15.5	0.00e+00	0	42	0	1300234240	16	4290
2026-01-29 11:25:21.96	321.35	21.25	-28.0	-29.6	15.4	0.00e+00	0	42	0	1303379968	16	4321
2026-01-29 11:25:22.96	321.50	21.14	-28.0	-29.5	15.4	0.00e+00	0	42	0	1306525696	16	4300
2026-01-29 11:25:23.95	321.64	21.02	-28.0	-29.5	15.5	0.00e+00	0	42	0	1309671424	16	4293
2026-01-29 11:25:24.96	321.78	20.91	-28.0	-29.7	15.3	0.00e+00	0	42	0	1312817152	16	4345
2026-01-29 11:25:25.96	321.92	20.80	-27.8	-29.2	15.6	0.00e+00	0	42	0	1315962880	16	4206
2026-01-29 11:25:26.97	322.06	20.68	-27.7	-28.9	15.8	0.00e+00	0	42	0	1319108608	16	4125
2026-01-29 11:25:27.96	322.20	20.57	-27.7	-28.9	15.8	0.00e+00	0	42	0	1322254336	16	4126
2026-01-29 11:25:28.96	322.34	20.46	-27.7	-28.8	15.8	0.00e+00	0	42	0	1325400064	16	4113
2026-01-29 11:25:29.97	322.47	20.35	-27.8	-29.1	15.7	0.00e+00	0	42	0	1328545792	16	4179
2026-01-29 11:25:30.97	322.61	20.24	-27.7	-29.0	15.7	0.00e+00	0	42	0	1331691520	16	4153
2026-01-29 11:25:31.98	322.75	20.13	-27.7	-29.0	15.7	0.00e+00	0	42	0	1334837248	16	4149
2026-01-29 11:25:32.99	322.88	20.01	-27.6	-28.7	15.8	0.00e+00	0	42	0	1337982976	16	4093
2026-01-29 11:25:33.99	323.01	19.91	-27.7	-28.9	15.8	0.00e+00	0	42	0	1341128704	16	4126
2026-01-29 11:25:34.99	323.15	19.80	-27.6	-28.6	15.9	0.00e+00	0	42	0	1344274432	16	4055
2026-01-29 11:25:35.99	323.28	19.69	-27.7	-28.9	15.8	0.00e+00	0	42	0	1347420160	16	4131
2026-01-29 11:25:36.99	323.41	19.58	-27.9	-29.4	15.5	0.00e+00	0	42	0	1350565888	16	4265
2026-01-29 11:25:37.99	323.54	19.47	-27.7	-29.0	15.7	0.00e+00	0	42	0	1353711616	16	4156
2026-01-29 11:25:38.99	323.67	19.36	-27.6	-28.8	15.8	0.00e+00	0	42	0	1356857344	16	4111
2026-01-29 11:25:39.99	323.79	19.25	-27.7	-28.9	15.7	0.00e+00	0	42	0	1358954496	16	4145
2026-01-29 11:25:41.00	323.92	19.14	-27.7	-28.9	15.7	0.00e+00	0	42	0	1362100224	16	4130
2026-01-29 11:25:42.00	324.05	19.04	-27.8	-29.2	15.6	0.00e+00	0	42	0	1365245952	16	4218
2026-01-29 11:25:42.99	324.17	18.93	-27.8	-29.1	15.6	0.00e+00	0	42	0	1368391680	16	4178
2026-01-29 11:25:44.00	324.30	18.82	-27.8	-29.1	15.6	0.00e+00	0	43	0	1371537408	16	4193
2026-01-29 11:25:45.00	324.42	18.72	-27.8	-29.1	15.6	0.00e+00	0	42	0	1374683136	16	4184
2026-01-29 11:25:46.01	324.54	18.61	-27.7	-29.0	15.6	0.00e+00	0	42	0	1377828864	16	4167
2026-01-29 11:25:47.01	324.67	18.51	-27.7	-29.0	15.6	0.00e+00	0	42	0	1380974592	16	4170
2026-01-29 11:25:48.01	324.79	18.40	-27.8	-29.1	15.6	7.00e-07	0	42	0	1384120320	16	4196
2026-01-29 11:25:49.01	324.91	18.30	-27.7	-28.8	15.7	0.00e+00	0	42	0	1387266048	16	4111
2026-01-29 11:25:50.02	325.03	18.19	-27.7	-28.9	15.7	0.00e+00	0	42	0	1390411776	16	4131
2026-01-29 11:25:51.02	325.14	18.09	-27.7	-28.9	15.7	0.00e+00	0	42	0	1393557504	16	4131
2026-01-29 11:25:52.02	325.26	17.98	-27.8	-29.1	15.5	0.00e+00	0	42	0	1396703232	16	4199
2026-01-29 11:25:53.03	325.38	17.88	-27.8	-29.1	15.5	0.00e+00	0	42	0	1399848960	16	4200
2026-01-29 11:25:54.03	325.50	17.77	-27.9	-29.4	15.4	0.00e+00	0	42	0	1402994688	16	4285
2026-01-29 11:25:55.03	325.61	17.67	-27.9	-29.3	15.4	0.00e+00	0	42	0	1406140416	16	4254
2026-01-29 11:25:56.03	325.73	17.57	-27.9	-29.4	15.4	0.00e+00	0	42	0	1409286144	16	4278
2026-01-29 11:25:57.04	325.84	17.47	-27.9	-29.5	15.3	0.00e+00	0	42	0	1412431872	16	4305
2026-01-29 11:25:58.04	325.95	17.36	-28.0	-29.7	15.2	7.00e-07	0	42	0	1415577600	16	4351
2026-01-29 11:25:59.04	326.07	17.26	-28.1	-29.8	15.1	0.00e+00	0	42	0	1418723328	16	4388
2026-01-29 11:26:00.04	326.18	17.16	-28.1	-29.7	15.1	0.00e+00	0	42	0	1421869056	16	4373
2026-01-29 11:26:01.04	326.29	17.06	-28.1	-29.8	15.1	0.00e+00	0	43	0	1425014784	16	4379
2026-01-29 11:26:02.05	326.40	16.96	-28.2	-30.1	15.0	0.00e+00	0	42	0	1428160512	16	4465
2026-01-29 11:26:03.04	326.51	16.86	-28.0	-29.7	15.2	0.00e+00	0	42	0	1431306240	16	4350
2026-01-29 11:26:04.05	326.62	16.76	-27.9	-29.5	15.3	0.00e+00	0	42	0	1434451968	16	4292
2026-01-29 11:26:05.05	326.73	16.66	-28.0	-29.6	15.2	0.00e+00	0	42	0	1437597696	16	4336
2026-01-29 11:26:06.06	326.84	16.56	-27.9	-29.4	15.3	0.00e+00	0	42	0	1440743424	16	4279
2026-01-29 11:26:07.06	326.94	16.46	-28.0	-29.6	15.2	0.00e+00	0	42	0	1443889152	16	4332
2026-01-29 11:26:08.06	327.05	16.36	-27.9	-29.5	15.2	0.00e+00	0	42	0	1447034880	16	4299
2026-01-29 11:26:09.06	327.16	16.26	-28.0	-29.6	15.2	0.00e+00	0	42	0	1450180608	16	4350
2026-01-29 11:26:10.06	327.26	16.16	-28.0	-29.6	15.2	0.00e+00	0	42	0	1453326336	16	4340
2026-01-29 11:26:11.05	327.36	16.07	-28.1	-29.8	15.1	0.00e+00	0	42	0	1456472064	16	4386
2026-01-29 11:26:12.06	327.47	15.97	-28.0	-29.7	15.1	0.00e+00	0	42	0	1459617792	16	4367
2026-01-29 11:26:13.06	327.57	15.87	-28.2	-30.0	14.9	0.00e+00	0	42	0	1462763520	16	4454
2026-01-29 11:26:14.07	327.67	15.77	-28.2	-30.1	14.9	7.00e-07	0	42	0	1465909248	16	4468
2026-01-29 11:26:15.07	327.78	15.68	-28.3	-30.3	14.7	0.00e+00	0	42	0	1469054976	16	4542
2026-01-29 11:26:16.08	327.88	15.58	-28.3	-30.3	14.7	0.00e+00	0	42	0	1472200704	16	4557
2026-01-29 11:26:17.08	327.98	15.48	-28.4	-30.7	14.5	0.00e+00	0	42	0	1475346432	16	4661
2026-01-29 11:26:18.09	328.08	15.39	-28.4	-30.6	14.6	0.00e+00	0	42	0	1478492160	16	4626
2026-01-29 11:26:19.10	328.18	15.29	-28.5	-30.3	14.4	0.00e+00	0	42	0	1481637888	17	4430
2026-01-29 11:26:20.10	328.28	15.20	-28.5	-30.3	14.5	0.00e+00	0	42	0	1484783616	17	4422
2026-01-29 11:26:21.11	328.38	15.10	-28.6	-30.5	14.3	7.00e-07	0	42	0	1487929344	17	4492
2026-01-29 11:26:22.11	328.47	15.01	-28.4	-30.1	14.5	7.00e-07	0	42	0	1491075072	17	4384
2026-01-29 11:26:23.12	328.57	14.91	-28.4	-30.1	14.5	7.00e-07	0	42	0	1494220800	17	4382
2026-01-29 11:26:24.12	328.67	14.82	-28.4	-30.0	14.6	0.00e+00	0	42	0	1497366528	17	4349
2026-01-29 11:26:25.12	328.76	14.72	-28.4	-30.1	14.6	7.00e-07	0	42	0	1500512256	17	4363
2026-01-29 11:26:26.12	328.86	14.63	-28.5	-30.4	14.4	7.00e-07	0	42	0	1503657984	17	4449
2026-01-29 11:26:27.13	328.95	14.54	-28.4	-30.1	14.5	2.20e-06	0	42	0	1506803712	17	4369
2026-01-29 11:26:28.13	329.05	14.44	-28.4	-30.1	14.5	0.00e+00	0	42	0	1509949440	17	4363
2026-01-29 11:26:29.13	329.14	14.35	-28.5	-30.2	14.4	7.00e-07	0	42	0	1513095168	17	4415
2026-01-29 11:26:30.14	329.23	14.26	-28.5	-30.2	14.4	1.50e-06	0	42	0	1516240896	17	4411
2026-01-29 11:26:31.14	329.33	14.17	-28.5	-30.3	14.4	1.50e-06	0	42	0	1519386624	17	4442
2026-01-29 11:26:32.15	329.42	14.07	-28.6	-30.6	14.2	1.50e-06	0	42	0	1522532352	17	4513
2026-01-29 11:26:33.15	329.51	13.98	-28.5	-30.3	14.3	7.00e-07	0	42	0	1525678080	17	4443
2026-01-29 11:26:34.16	329.60	13.89	-28.6	-30.5	14.2	7.00e-07	0	42	0	1528823808	17	4486
2026-01-29 11:26:35.17	329.69	13.80	-28.6	-30.5	14.3	7.00e-07	0	42	0	1531969536	17	4484
2026-01-29 11:26:36.17	329.78	13.71	-28.5	-30.4	14.3	1.50e-06	0	42	0	1535115264	17	4470
2026-01-29 11:26:37.17	329.87	13.62	-28.6	-30.6	14.2	7.00e-07	0	42	0	1538260992	17	4524
2026-01-29 11:26:38.17	329.96	13.53	-28.6	-30.5	14.2	3.00e-06	0	42	0	1541406720	17	4487
2026-01-29 11:26:39.17	330.05	13.44	-28.5	-30.5	14.2	1.50e-06	0	42	0	1544552448	17	4484
2026-01-29 11:26:40.18	330.14	13.35	-28.5	-30.4	14.2	1.50e-06	0	42	0	1547698176	17	4469
2026-01-29 11:26:41.18	330.22	13.26	-28.5	-30.4	14.2	7.00e-07	0	42	0	1550843904	17	4472
2026-01-29 11:26:42.18	330.31	13.17	-28.6	-30.7	14.1	1.50e-06	0	42	0	1553989632	17	4545
2026-01-29 11:26:43.18	330.40	13.08	-28.6	-30.6	14.1	2.20e-06	0	42	0	1557135360	17	4537
2026-01-29 11:26:44.19	330.48	12.99	-28.6	-30.7	14.1	3.00e-06	0	42	0	1560281088	17	4547
2026-01-29 11:26:45.19	330.57	12.91	-28.7	-30.7	14.0	3.00e-06	0	42	0	1563426816	17	4568
2026-01-29 11:26:46.19	330.65	12.82	-28.7	-30.8	13.9	2.20e-06	0	42	0	1566572544	17	4604
2026-01-29 11:26:47.20	330.74	12.73	-28.8	-31.1	13.8	4.50e-06	0	42	0	1569718272	17	4686
2026-01-29 11:26:48.20	330.82	12.64	-28.8	-31.0	13.8	6.10e-06	0	42	0	1572864000	17	4664
2026-01-29 11:26:49.20	330.90	12.56	-28.7	-30.9	13.9	5.30e-06	0	42	0	1576009728	17	4623
2026-01-29 11:26:50.20	330.99	12.47	-28.8	-31.2	13.7	3.00e-06	0	42	0	1579155456	17	4700
2026-01-29 11:26:51.20	331.07	12.38	-28.7	-30.9	13.9	1.50e-06	0	42	0	1582301184	17	4624
2026-01-29 11:26:52.21	331.15	12.29	-28.8	-31.0	13.8	2.20e-06	0	42	0	1585446912	17	4659
2026-01-29 11:26:53.21	331.23	12.21	-28.8	-31.1	13.8	6.10e-06	0	42	0	1588592640	17	4679
2026-01-29 11:26:54.22	331.31	12.12	-29.0	-31.4	13.5	9.90e-06	0	42	0	1591738368	17	4796
2026-01-29 11:26:55.23	331.40	12.04	-28.8	-31.0	13.8	1.14e-05	0	42	0	1594884096	17	4658
2026-01-29 11:26:56.23	331.48	11.95	-28.6	-30.7	14.0	2.20e-06	0	42	0	1598029824	17	4549
2026-01-29 11:26:57.23	331.56	11.87	-28.6	-30.7	14.0	3.80e-06	0	42	0	1601175552	17	4549
2026-01-29 11:26:58.24	331.64	11.78	-28.6	-30.7	14.0	7.00e-07	0	42	0	1604321280	17	4556
2026-01-29 11:26:59.24	331.71	11.70	-28.6	-30.6	14.0	4.50e-06	0	42	0	1607467008	17	4542
2026-01-29 11:27:00.25	331.79	11.61	-28.8	-31.0	13.8	5.30e-06	0	42	0	1610612736	17	4659
2026-01-29 11:27:01.25	331.87	11.53	-28.8	-31.0	13.7	6.80e-06	0	42	0	1613758464	17	4652
2026-01-29 11:27:02.26	331.95	11.44	-28.7	-30.9	13.8	6.10e-06	0	42	0	1616904192	17	4637
2026-01-29 11:27:03.26	332.03	11.36	-28.8	-31.2	13.7	1.06e-05	0	42	0	1620049920	17	4701
2026-01-29 11:27:04.27	332.10	11.28	-28.8	-31.1	13.7	6.80e-06	0	42	0	1623195648	17	4694
2026-01-29 11:27:05.27	332.18	11.19	-28.8	-31.1	13.7	5.30e-06	0	42	0	1626341376	17	4700
2026-01-29 11:27:06.28	332.26	11.11	-28.9	-31.3	13.6	6.80e-06	0	42	0	1629487104	17	4753
2026-01-29 11:27:07.28	332.33	11.03	-29.0	-31.1	13.4	1.22e-05	0	42	0	1632632832	18	4578
2026-01-29 11:27:08.28	332.41	10.94	-28.9	-30.9	13.5	5.30e-06	0	42	0	1635778560	18	4519
2026-01-29 11:27:09.28	332.48	10.86	-28.9	-30.9	13.6	1.06e-05	0	42	0	1638924288	18	4512
2026-01-29 11:27:10.29	332.56	10.78	-28.9	-30.9	13.5	9.10e-06	0	42	0	1642070016	18	4522
2026-01-29 11:27:11.29	332.63	10.70	-29.0	-31.0	13.5	6.10e-06	0	42	0	1645215744	18	4541
2026-01-29 11:27:12.29	332.70	10.62	-29.1	-31.3	13.3	2.36e-05	0	42	0	1648361472	18	4646
2026-01-29 11:27:13.29	332.78	10.54	-29.1	-31.5	13.2	2.82e-05	0	42	0	1651507200	18	4700
2026-01-29 11:27:14.29	332.85	10.46	-29.1	-31.4	13.2	2.44e-05	0	42	0	1654652928	18	4681
2026-01-29 11:27:15.29	332.92	10.37	-29.2	-31.5	13.1	2.97e-05	0	42	0	1657798656	18	4724
2026-01-29 11:27:16.30	333.00	10.29	-29.2	-31.7	13.0	3.96e-05	0	42	0	1659895808	18	4785
2026-01-29 11:27:17.30	333.07	10.21	-29.3	-31.8	12.9	4.95e-05	0	42	0	1663041536	18	4811
2026-01-29 11:27:18.31	333.14	10.13	-29.3	-31.9	12.8	5.79e-05	0	42	0	1666187264	18	4855
2026-01-29 11:27:19.31	333.21	10.05	-29.5	-32.3	12.6	8.62e-05	0	42	0	1669332992	18	4980
2026-01-29 11:27:20.32	333.28	9.97	-29.3	-31.9	12.8	7.32e-05	0	42	0	1672478720	18	4865
2026-01-29 11:27:21.32	333.35	9.89	-29.3	-31.9	12.8	4.19e-05	0	42	0	1675624448	18	4842
2026-01-29 11:27:22.33	333.42	9.81	-29.3	-31.9	12.8	4.88e-05	0	42	0	1679818752	18	4850
2026-01-29 11:27:23.33	333.49	9.73	-29.3	-31.8	12.9	5.95e-05	0	42	0	1682964480	18	4828
2026-01-29 11:27:24.32	333.56	9.66	-29.4	-32.1	12.7	7.24e-05	0	42	0	1685061632	18	4913
2026-01-29 11:27:25.33	333.63	9.58	-29.3	-31.9	12.9	5.34e-05	0	42	0	1688207360	18	4837
2026-01-29 11:27:26.33	333.70	9.50	-29.3	-31.9	12.8	5.11e-05	0	42	0	1691353088	18	4842
2026-01-29 11:27:27.34	333.77	9.42	-29.3	-31.8	12.9	5.56e-05	0	42	0	1694498816	18	4803
2026-01-29 11:27:28.34	333.83	9.34	-29.3	-31.8	12.9	7.40e-05	0	42	0	1697644544	18	4810
2026-01-29 11:27:29.34	333.90	9.27	-29.3	-31.9	12.8	4.80e-05	0	42	0	1700790272	18	4868
2026-01-29 11:27:30.35	333.97	9.19	-29.3	-32.0	12.7	8.01e-05	0	42	0	1703936000	18	4871
2026-01-29 11:27:31.35	334.04	9.11	-29.2	-31.7	12.9	6.17e-05	0	42	0	1707081728	18	4797
2026-01-29 11:27:32.35	334.10	9.03	-29.3	-31.9	12.8	5.49e-05	0	42	0	1710227456	18	4849
2026-01-29 11:27:33.35	334.17	8.96	-29.4	-32.0	12.7	7.40e-05	0	42	0	1713373184	18	4885
2026-01-29 11:27:34.35	334.23	8.88	-29.3	-31.8	12.8	5.64e-05	0	42	0	1716518912	18	4840
2026-01-29 11:27:35.35	334.30	8.80	-29.3	-32.0	12.7	6.94e-05	0	42	0	1719664640	18	4879
2026-01-29 11:27:36.34	334.36	8.73	-29.3	-32.0	12.6	1.01e-04	0	42	0	1722810368	18	4891
2026-01-29 11:27:37.35	334.43	8.65	-29.3	-32.0	12.6	9.07e-05	0	42	0	1725956096	18	4893
2026-01-29 11:27:38.36	334.49	8.58	-29.3	-32.0	12.6	8.92e-05	0	42	0	1729101824	18	4897
2026-01-29 11:27:39.37	334.56	8.50	-29.4	-32.1	12.6	9.76e-05	0	42	0	1732247552	18	4919
2026-01-29 11:27:40.37	334.62	8.42	-29.3	-31.9	12.7	8.31e-05	0	42	0	1735393280	18	4871
2026-01-29 11:27:41.37	334.69	8.35	-29.3	-32.0	12.6	8.46e-05	0	42	0	1738539008	18	4885
2026-01-29 11:27:42.37	334.75	8.27	-29.3	-32.0	12.6	1.03e-04	0	42	0	1741684736	18	4880
2026-01-29 11:27:43.37	334.81	8.20	-29.3	-32.1	12.6	9.30e-05	0	42	0	1744830464	18	4919
2026-01-29 11:27:44.37	334.88	8.12	-29.3	-31.9	12.7	9.84e-05	0	42	0	1747976192	18	4863
2026-01-29 11:27:45.37	334.94	8.05	-29.3	-32.0	12.6	9.07e-05	0	42	0	1751121920	18	4881
2026-01-29 11:27:46.38	335.00	7.98	-29.4	-32.1	12.5	1.26e-04	0	42	0	1754267648	18	4948
2026-01-29 11:27:47.38	335.06	7.90	-29.2	-31.8	12.7	1.04e-04	0	42	0	1757413376	18	4815
2026-01-29 11:27:48.38	335.12	7.83	-29.3	-31.8	12.7	8.85e-05	0	42	0	1760559104	18	4834
2026-01-29 11:27:49.38	335.18	7.75	-29.3	-31.9	12.6	8.54e-05	0	42	0	1763704832	18	4873
2026-01-29 11:27:50.39	335.25	7.68	-29.2	-31.7	12.7	8.23e-05	0	42	0	1766850560	18	4793
2026-01-29 11:27:51.39	335.31	7.61	-29.2	-31.7	12.7	7.78e-05	0	42	0	1769996288	18	4801
2026-01-29 11:27:52.40	335.37	7.53	-29.3	-32.0	12.6	6.56e-05	0	42	0	1773142016	18	4885
2026-01-29 11:27:53.40	335.43	7.46	-29.4	-32.2	12.4	1.78e-04	0	42	0	1776287744	18	4983
2026-01-29 11:27:54.40	335.49	7.39	-29.4	-32.1	12.5	1.24e-04	0	42	0	1779433472	18	4936
2026-01-29 11:27:55.41	335.55	7.32	-29.4	-32.3	12.3	1.80e-04	0	42	0	1782579200	18	5016
2026-01-29 11:27:56.41	335.61	7.24	-29.5	-31.9	12.2	2.33e-04	0	42	0	1785724928	19	4763
2026-01-29 11:27:57.41	335.67	7.17	-29.5	-31.9	12.2	2.19e-04	0	42	0	1788870656	19	4768
2026-01-29 11:27:58.42	335.73	7.10	-32.6	-39.5	6.0	2.52e-04	0	42	0	1792016384	24	8012
2026-01-29 11:27:59.42	335.78	7.03	-33.8	-46.0	3.8	1.49e+00	0	42	104	1792016384	27	14576
2026-01-29 11:28:00.43	335.84	6.95	-34.0	-45.9	3.8	1.49e+00	0	42	104	1792016384	28	14074

#Closed at: 2026-01-29 11:28:00
#Recorded file [1792 MB]: D:/data/31010_260129_141824.dat