passes_logs/2026/01/14/R3.2S_Murmansk/R3.2S_Murmansk__20260114_230117_NOAA_21_JPSS-2_rec.log

#Pass ID: 20260114_230117_NOAA 21 (JPSS-2)
#Satellite: NOAA 21 (JPSS-2)
#Configuration: NOAA-21
#almurnet v.1.7.20251203
#Start time: 2026-01-14 23:01:17

#Version: 2.2.20231116
#Station: R3.2S_Murmansk
#Location: 33.079688 lon 68.888172 lat
#TLE: 1 54234U 22150A   26014.58979933  .00000039  00000+0  39403-4 0  9998
#TLE: 2 54234  98.7497 315.4945 0000653 294.6373  65.4735 14.19534652164756

#Time	Az	El	Level	Level2	SNR	BER	BlckErr	Temp	State	Recorded	gain1	gain2
2026-01-14 23:01:17.43	19.77	1.98	-58.3	-72.0	3.8	1.49e+00	0	27	0	0	83	16710
2026-01-14 23:01:18.44	19.82	2.03	-58.2	-71.7	3.8	1.49e+00	0	27	104	0	81	18280
2026-01-14 23:01:19.44	19.87	2.09	-58.2	-71.7	3.8	1.49e+00	0	27	104	0	81	18292
2026-01-14 23:01:20.44	19.92	2.15	-58.2	-71.5	3.8	1.49e+00	0	27	104	0	81	17876
2026-01-14 23:01:21.44	19.97	2.21	-58.2	-71.8	3.8	1.49e+00	0	27	104	0	81	18313
2026-01-14 23:01:22.44	20.02	2.27	-58.2	-71.3	3.8	1.49e+00	0	27	104	0	81	17412
2026-01-14 23:01:23.45	20.07	2.33	-58.2	-71.5	3.8	1.49e+00	0	27	104	0	81	17776
2026-01-14 23:01:24.44	20.12	2.39	-58.2	-71.0	3.8	1.49e+00	0	27	104	0	81	16762
2026-01-14 23:01:25.45	20.18	2.45	-58.2	-71.0	3.8	1.49e+00	0	27	104	0	81	16717
2026-01-14 23:01:26.45	20.23	2.51	-58.1	-70.7	3.8	1.49e+00	0	27	104	0	81	16252
2026-01-14 23:01:27.46	20.28	2.57	-58.2	-70.8	3.8	1.49e+00	0	27	104	0	81	16448
2026-01-14 23:01:28.46	20.33	2.63	-58.1	-70.4	3.8	1.49e+00	0	27	104	0	81	15665
2026-01-14 23:01:29.46	20.39	2.70	-58.1	-70.0	3.9	1.48e+00	0	27	104	0	81	14971
2026-01-14 23:01:30.46	20.44	2.76	-58.1	-70.6	3.8	1.49e+00	0	27	104	0	81	16077
2026-01-14 23:01:31.46	20.49	2.82	-58.1	-70.2	3.9	1.49e+00	0	27	104	0	81	15376
2026-01-14 23:01:32.46	20.54	2.88	-58.2	-70.6	3.9	1.49e+00	0	27	104	0	81	15995
2026-01-14 23:01:33.45	20.60	2.94	-58.1	-70.2	3.9	1.49e+00	0	27	104	0	81	15274
2026-01-14 23:01:34.45	20.65	3.00	-58.1	-70.0	3.9	1.49e+00	0	27	104	0	81	15030
2026-01-14 23:01:35.45	20.70	3.06	-58.1	-69.8	3.9	1.49e+00	0	27	104	0	81	14674
2026-01-14 23:01:36.46	20.76	3.12	-58.0	-68.9	4.1	1.48e+00	0	28	104	0	81	13219
2026-01-14 23:01:37.46	20.81	3.18	-58.0	-68.4	4.0	1.45e+00	0	27	104	0	81	12502
2026-01-14 23:01:38.46	20.86	3.24	-57.9	-67.7	4.4	1.25e+00	0	27	104	0	81	11448
2026-01-14 23:01:39.46	20.92	3.31	-57.7	-66.4	4.9	1.47e+00	0	27	104	0	81	9944
2026-01-14 23:01:40.46	20.97	3.37	-57.7	-66.2	5.0	6.50e-01	0	27	0	2097152	81	9666
2026-01-14 23:01:41.45	21.03	3.43	-57.7	-66.3	5.0	1.19e+00	0	27	104	4194304	81	9738
2026-01-14 23:01:42.45	21.08	3.49	-57.7	-66.0	5.2	5.20e-01	0	28	0	6291456	81	9411
2026-01-14 23:01:43.44	21.14	3.55	-57.6	-65.5	5.5	4.60e-01	0	27	0	9437184	81	8864
2026-01-14 23:01:44.43	21.19	3.61	-57.5	-65.2	5.6	4.67e-01	0	28	0	12582912	81	8596
2026-01-14 23:01:45.43	21.25	3.68	-57.4	-64.3	6.2	2.40e-01	0	28	0	15728640	81	7783
2026-01-14 23:01:46.43	21.30	3.74	-57.2	-63.9	6.5	1.57e-01	0	28	0	18874368	80	7841
2026-01-14 23:01:47.44	21.36	3.80	-56.9	-62.7	7.4	9.21e-02	0	27	0	22020096	80	6875
2026-01-14 23:01:48.43	21.42	3.86	-56.7	-61.9	8.2	4.96e-02	0	28	0	25165824	80	6205
2026-01-14 23:01:49.44	21.47	3.93	-55.7	-59.6	10.1	2.96e-03	0	28	0	28311552	78	5373
2026-01-14 23:01:50.44	21.53	3.99	-55.4	-58.9	10.6	8.76e-04	0	28	0	31457280	77	5249
2026-01-14 23:01:51.45	21.59	4.05	-54.9	-58.1	11.1	9.23e-05	0	28	0	34603008	76	5076
2026-01-14 23:01:52.44	21.64	4.12	-54.3	-57.1	11.8	3.00e-06	0	28	0	37748736	75	4770
2026-01-14 23:01:53.44	21.70	4.18	-53.9	-56.5	12.2	3.00e-06	0	28	0	40894464	74	4714
2026-01-14 23:01:54.44	21.76	4.24	-53.3	-55.6	12.6	0.00e+00	0	28	0	44040192	73	4539
2026-01-14 23:01:55.44	21.82	4.31	-53.5	-56.0	12.4	0.00e+00	0	28	0	47185920	73	4717
2026-01-14 23:01:56.44	21.87	4.37	-53.3	-55.5	12.6	0.00e+00	0	28	0	50331648	72	4755
2026-01-14 23:01:57.44	21.93	4.44	-53.5	-55.9	12.5	0.00e+00	0	28	0	53477376	72	4928
2026-01-14 23:01:58.44	21.99	4.50	-53.4	-55.7	12.6	0.00e+00	0	28	0	56623104	73	4588
2026-01-14 23:01:59.44	22.05	4.56	-54.0	-56.8	11.9	1.50e-06	0	28	0	59768832	73	5162
2026-01-14 23:02:00.44	22.11	4.63	-54.0	-56.7	12.0	0.00e+00	0	28	0	62914560	73	5122
2026-01-14 23:02:01.45	22.17	4.69	-54.5	-57.4	11.5	1.98e-05	0	28	0	66060288	74	5276
2026-01-14 23:02:02.45	22.23	4.76	-55.6	-59.4	10.1	8.69e-04	0	28	0	69206016	76	5876
2026-01-14 23:02:03.45	22.29	4.82	-55.7	-59.6	10.0	6.83e-04	0	28	0	72351744	76	5997
2026-01-14 23:02:04.44	22.35	4.89	-56.1	-60.6	9.1	6.74e-03	0	28	0	75497472	77	6415
2026-01-14 23:02:05.45	22.41	4.95	-56.6	-61.7	8.3	1.58e-02	0	28	0	78643200	78	6873
2026-01-14 23:02:06.44	22.47	5.02	-56.7	-62.1	7.9	4.34e-02	0	28	0	81788928	78	7171
2026-01-14 23:02:07.44	22.53	5.08	-56.8	-62.3	7.8	4.10e-02	0	28	0	84934656	78	7336
2026-01-14 23:02:08.45	22.59	5.15	-56.5	-61.3	8.7	7.61e-02	0	28	0	88080384	79	6178
2026-01-14 23:02:09.45	22.65	5.21	-56.7	-61.8	8.4	2.65e-03	0	28	0	91226112	78	6904
2026-01-14 23:02:10.45	22.71	5.28	-57.6	-65.5	5.4	8.56e-01	0	28	0	92274688	81	8963
2026-01-14 23:02:11.45	22.77	5.34	-55.5	-59.0	10.5	4.21e-01	0	28	0	95420416	77	5281
2026-01-14 23:02:12.45	22.83	5.41	-54.1	-56.6	12.1	7.00e-07	0	28	0	98566144	73	5091
2026-01-14 23:02:13.45	22.90	5.48	-53.7	-56.1	12.5	0.00e+00	0	28	0	101711872	73	4779
2026-01-14 23:02:14.45	22.96	5.54	-53.9	-56.4	12.2	0.00e+00	0	28	0	104857600	73	4955
2026-01-14 23:02:15.45	23.02	5.61	-52.8	-54.8	13.2	0.00e+00	0	28	0	108003328	72	4383
2026-01-14 23:02:16.44	23.08	5.67	-52.9	-55.0	13.1	0.00e+00	0	28	0	111149056	72	4445
2026-01-14 23:02:17.45	23.15	5.74	-52.9	-55.0	13.0	0.00e+00	0	28	0	113246208	71	4707
2026-01-14 23:02:18.45	23.21	5.81	-53.0	-55.1	13.0	0.00e+00	0	28	0	116391936	71	4782
2026-01-14 23:02:19.45	23.28	5.87	-52.7	-54.7	13.2	0.00e+00	0	28	0	119537664	71	4598
2026-01-14 23:02:20.45	23.34	5.94	-52.6	-54.5	13.3	0.00e+00	0	28	0	122683392	71	4491
2026-01-14 23:02:21.46	23.40	6.01	-52.4	-54.3	13.4	0.00e+00	0	28	0	125829120	71	4388
2026-01-14 23:02:22.45	23.47	6.08	-53.1	-55.2	12.9	0.00e+00	0	28	0	128974848	71	4824
2026-01-14 23:02:23.45	23.53	6.14	-51.7	-53.9	13.6	0.00e+00	0	28	0	132120576	70	4404
2026-01-14 23:02:24.44	23.60	6.21	-52.3	-54.2	13.4	0.00e+00	0	28	0	135266304	70	4570
2026-01-14 23:02:25.44	23.66	6.28	-52.2	-54.0	13.5	0.00e+00	0	28	0	138412032	70	4462
2026-01-14 23:02:26.44	23.73	6.35	-51.8	-53.5	13.8	0.00e+00	0	28	0	141557760	70	4207
2026-01-14 23:02:27.43	23.79	6.41	-52.0	-53.8	13.6	0.00e+00	0	28	0	144703488	70	4350
2026-01-14 23:02:28.44	23.86	6.48	-52.0	-53.7	13.7	0.00e+00	0	28	0	147849216	70	4324
2026-01-14 23:02:29.43	23.93	6.55	-52.1	-53.9	13.6	0.00e+00	0	28	0	150994944	70	4409
2026-01-14 23:02:30.43	23.99	6.62	-52.0	-53.8	13.6	0.00e+00	0	28	0	154140672	70	4381
2026-01-14 23:02:31.43	24.06	6.69	-52.0	-53.8	13.6	0.00e+00	0	28	0	157286400	70	4374
2026-01-14 23:02:32.43	24.13	6.76	-52.2	-54.0	13.5	0.00e+00	0	28	0	160432128	70	4492
2026-01-14 23:02:33.44	24.20	6.83	-52.1	-53.9	13.6	0.00e+00	0	28	0	163577856	70	4396
2026-01-14 23:02:34.44	24.26	6.89	-52.1	-54.0	13.6	0.00e+00	0	28	0	166723584	70	4448
2026-01-14 23:02:35.45	24.33	6.96	-52.0	-53.8	13.7	0.00e+00	0	28	0	169869312	70	4353
2026-01-14 23:02:36.44	24.40	7.03	-51.8	-53.5	13.8	0.00e+00	0	28	0	173015040	70	4230
2026-01-14 23:02:37.44	24.47	7.10	-52.2	-54.0	13.6	0.00e+00	0	28	0	176160768	70	4465
2026-01-14 23:02:38.44	24.54	7.17	-52.1	-53.9	13.7	0.00e+00	0	28	0	179306496	70	4393
2026-01-14 23:02:39.45	24.61	7.24	-52.3	-54.1	13.5	0.00e+00	0	28	0	182452224	70	4544
2026-01-14 23:02:40.45	24.68	7.31	-52.0	-53.7	13.7	0.00e+00	0	28	0	185597952	70	4339
2026-01-14 23:02:41.46	24.75	7.38	-51.7	-53.4	13.9	0.00e+00	0	28	0	188743680	70	4167
2026-01-14 23:02:42.46	24.82	7.45	-51.7	-53.4	13.9	0.00e+00	0	28	0	191889408	70	4167
2026-01-14 23:02:43.46	24.89	7.53	-51.6	-53.3	13.8	0.00e+00	0	28	0	195035136	69	4359
2026-01-14 23:02:44.46	24.96	7.60	-51.7	-53.3	13.8	0.00e+00	0	28	0	198180864	69	4389
2026-01-14 23:02:45.46	25.03	7.67	-51.7	-53.4	13.8	0.00e+00	0	28	0	201326592	69	4412
2026-01-14 23:02:46.45	25.10	7.74	-51.4	-53.0	14.0	0.00e+00	0	28	0	204472320	69	4231
2026-01-14 23:02:47.45	25.18	7.81	-51.7	-53.5	13.8	0.00e+00	0	28	0	207618048	69	4442
2026-01-14 23:02:48.45	25.25	7.88	-51.4	-53.0	14.0	0.00e+00	0	28	0	210763776	69	4240
2026-01-14 23:02:49.45	25.32	7.95	-51.7	-53.4	13.8	0.00e+00	0	28	0	213909504	69	4418
2026-01-14 23:02:50.45	25.40	8.02	-51.7	-53.4	13.8	0.00e+00	0	28	0	217055232	69	4410
2026-01-14 23:02:51.45	25.47	8.09	-51.7	-53.4	13.8	0.00e+00	0	28	0	220200960	69	4400
2026-01-14 23:02:52.45	25.54	8.17	-51.6	-53.3	13.9	0.00e+00	0	28	0	223346688	69	4353
2026-01-14 23:02:53.45	25.62	8.24	-51.7	-53.3	13.8	0.00e+00	0	28	0	226492416	69	4386
2026-01-14 23:02:54.45	25.69	8.31	-51.6	-53.3	13.9	0.00e+00	0	28	0	229638144	69	4356
2026-01-14 23:02:55.46	25.77	8.38	-51.6	-53.2	13.9	0.00e+00	0	28	0	232783872	69	4314
2026-01-14 23:02:56.45	25.84	8.46	-51.6	-53.2	13.9	0.00e+00	0	28	0	235929600	69	4333
2026-01-14 23:02:57.45	25.92	8.53	-51.5	-53.1	14.0	0.00e+00	0	28	0	239075328	69	4272
2026-01-14 23:02:58.45	25.99	8.60	-51.4	-53.0	14.0	0.00e+00	0	28	0	242221056	69	4219
2026-01-14 23:02:59.45	26.07	8.68	-51.4	-53.0	14.0	0.00e+00	0	28	0	245366784	69	4218
2026-01-14 23:03:00.45	26.14	8.75	-51.4	-53.0	14.0	0.00e+00	0	28	0	248512512	69	4204
2026-01-14 23:03:01.45	26.22	8.82	-51.3	-52.9	14.1	0.00e+00	0	28	0	251658240	69	4163
2026-01-14 23:03:02.46	26.30	8.90	-51.2	-52.8	14.1	0.00e+00	0	28	0	254803968	69	4106
2026-01-14 23:03:03.46	26.38	8.97	-51.4	-52.9	14.1	0.00e+00	0	28	0	257949696	69	4191
2026-01-14 23:03:04.46	26.46	9.05	-51.3	-52.9	14.1	0.00e+00	0	28	0	261095424	69	4176
2026-01-14 23:03:05.47	26.53	9.12	-51.4	-53.0	14.0	0.00e+00	0	28	0	264241152	69	4201
2026-01-14 23:03:06.46	26.61	9.19	-51.3	-52.9	14.1	0.00e+00	0	28	0	267386880	69	4174
2026-01-14 23:03:07.47	26.69	9.27	-51.3	-52.9	14.1	0.00e+00	0	28	0	269484032	69	4161
2026-01-14 23:03:08.47	26.77	9.34	-51.4	-53.0	14.1	0.00e+00	0	28	0	272629760	69	4199
2026-01-14 23:03:09.47	26.85	9.42	-51.2	-52.8	14.1	0.00e+00	0	28	0	275775488	68	4357
2026-01-14 23:03:10.48	26.93	9.49	-51.3	-52.9	14.0	0.00e+00	0	28	0	278921216	68	4403
2026-01-14 23:03:11.48	27.01	9.57	-51.4	-53.0	13.9	0.00e+00	0	28	0	282066944	68	4488
2026-01-14 23:03:12.49	27.10	9.65	-51.2	-52.7	14.1	0.00e+00	0	28	0	286261248	68	4333
2026-01-14 23:03:13.49	27.18	9.72	-51.1	-52.7	14.1	0.00e+00	0	28	0	289406976	68	4298
2026-01-14 23:03:14.50	27.26	9.80	-51.2	-52.8	14.1	0.00e+00	0	28	0	292552704	68	4343
2026-01-14 23:03:15.49	27.34	9.87	-51.2	-52.7	14.1	0.00e+00	0	28	0	294649856	68	4301
2026-01-14 23:03:16.49	27.42	9.95	-51.2	-52.8	14.1	0.00e+00	0	28	0	297795584	68	4352
2026-01-14 23:03:17.49	27.51	10.03	-51.1	-52.6	14.1	0.00e+00	0	28	0	300941312	68	4282
2026-01-14 23:03:18.48	27.59	10.10	-51.0	-52.5	14.2	0.00e+00	0	28	0	304087040	68	4227
2026-01-14 23:03:19.48	27.67	10.18	-50.9	-52.4	14.3	0.00e+00	0	28	0	307232768	68	4150
2026-01-14 23:03:20.48	27.76	10.26	-50.8	-52.3	14.3	0.00e+00	0	28	0	310378496	68	4125
2026-01-14 23:03:21.48	27.84	10.33	-50.8	-52.3	14.3	0.00e+00	0	28	0	313524224	68	4113
2026-01-14 23:03:22.48	27.93	10.41	-50.8	-52.2	14.3	0.00e+00	0	28	0	316669952	68	4097
2026-01-14 23:03:23.48	28.01	10.49	-50.9	-52.4	14.3	0.00e+00	0	28	0	319815680	68	4146
2026-01-14 23:03:24.49	28.10	10.57	-50.9	-52.4	14.3	0.00e+00	0	28	0	322961408	68	4158
2026-01-14 23:03:25.49	28.19	10.65	-50.8	-52.2	14.3	0.00e+00	0	28	0	326107136	68	4087
2026-01-14 23:03:26.48	28.27	10.72	-50.7	-52.2	14.4	0.00e+00	0	28	0	329252864	68	4069
2026-01-14 23:03:27.48	28.36	10.80	-50.9	-52.4	14.3	0.00e+00	0	28	0	332398592	68	4179
2026-01-14 23:03:28.49	28.45	10.88	-50.9	-52.3	14.3	0.00e+00	0	28	0	335544320	68	4137
2026-01-14 23:03:29.49	28.54	10.96	-50.9	-52.4	14.3	0.00e+00	0	28	0	338690048	68	4171
2026-01-14 23:03:30.49	28.63	11.04	-50.8	-52.3	14.3	0.00e+00	0	28	0	341835776	68	4114
2026-01-14 23:03:31.49	28.71	11.12	-50.7	-52.1	14.4	0.00e+00	0	28	0	344981504	68	4035
2026-01-14 23:03:32.49	28.80	11.20	-50.8	-52.2	14.3	0.00e+00	0	28	0	348127232	68	4097
2026-01-14 23:03:33.50	28.90	11.28	-50.5	-51.9	14.3	0.00e+00	0	28	0	351272960	67	4175
2026-01-14 23:03:34.49	28.99	11.36	-50.5	-52.0	14.3	0.00e+00	0	28	0	354418688	67	4200
2026-01-14 23:03:35.49	29.08	11.44	-50.5	-51.9	14.4	0.00e+00	0	28	0	357564416	67	4154
2026-01-14 23:03:36.49	29.17	11.52	-50.4	-51.8	14.4	0.00e+00	0	28	0	360710144	67	4128
2026-01-14 23:03:37.49	29.26	11.60	-50.5	-51.9	14.3	0.00e+00	0	28	0	363855872	67	4179
2026-01-14 23:03:38.48	29.35	11.68	-50.5	-51.9	14.4	0.00e+00	0	28	0	367001600	67	4164
2026-01-14 23:03:39.48	29.44	11.76	-50.4	-51.8	14.4	0.00e+00	0	28	0	370147328	67	4124
2026-01-14 23:03:40.47	29.54	11.84	-50.4	-51.9	14.4	0.00e+00	0	28	0	373293056	67	4149
2026-01-14 23:03:41.48	29.63	11.92	-50.4	-51.8	14.4	0.00e+00	0	28	0	376438784	67	4139
2026-01-14 23:03:42.48	29.73	12.00	-50.4	-51.8	14.4	0.00e+00	0	28	0	379584512	67	4121
2026-01-14 23:03:43.48	29.82	12.08	-50.4	-51.8	14.4	0.00e+00	0	28	0	382730240	67	4109
2026-01-14 23:03:44.48	29.92	12.16	-50.3	-51.7	14.4	0.00e+00	0	28	0	385875968	67	4083
2026-01-14 23:03:45.47	30.01	12.24	-50.3	-51.7	14.5	0.00e+00	0	28	0	389021696	67	4053
2026-01-14 23:03:46.46	30.11	12.33	-50.3	-51.7	14.5	0.00e+00	0	28	0	392167424	67	4058
2026-01-14 23:03:47.45	30.20	12.41	-50.1	-51.5	14.4	0.00e+00	0	28	0	395313152	66	4197
2026-01-14 23:03:48.45	30.30	12.49	-50.2	-51.6	14.4	0.00e+00	0	28	0	398458880	66	4274
2026-01-14 23:03:49.44	30.40	12.57	-50.1	-51.4	14.5	0.00e+00	0	28	0	401604608	66	4178
2026-01-14 23:03:50.44	30.49	12.66	-50.2	-51.5	14.4	0.00e+00	0	28	0	404750336	66	4230
2026-01-14 23:03:51.45	30.59	12.74	-50.2	-51.6	14.4	0.00e+00	0	28	0	407896064	66	4271
2026-01-14 23:03:52.44	30.69	12.82	-50.3	-51.6	14.4	0.00e+00	0	28	0	411041792	66	4286
2026-01-14 23:03:53.43	30.79	12.90	-50.2	-51.6	14.4	0.00e+00	0	28	0	413138944	66	4253
2026-01-14 23:03:54.43	30.89	12.99	-50.3	-51.7	14.4	0.00e+00	0	28	0	416284672	66	4334
2026-01-14 23:03:55.43	30.99	13.07	-50.2	-51.6	14.4	0.00e+00	0	28	0	419430400	66	4255
2026-01-14 23:03:56.43	31.09	13.16	-50.2	-51.6	14.4	0.00e+00	0	29	0	423624704	66	4278
2026-01-14 23:03:57.43	31.20	13.24	-50.3	-51.6	14.4	0.00e+00	0	28	0	425721856	66	4286
2026-01-14 23:03:58.43	31.30	13.33	-50.2	-51.6	14.4	0.00e+00	0	28	0	428867584	66	4263
2026-01-14 23:03:59.43	31.40	13.41	-50.2	-51.6	14.4	0.00e+00	0	28	0	432013312	66	4275
2026-01-14 23:04:00.43	31.51	13.50	-50.1	-51.5	14.5	0.00e+00	0	28	0	435159040	66	4214
2026-01-14 23:04:01.42	31.61	13.58	-50.0	-51.4	14.5	0.00e+00	0	28	0	438304768	66	4154
2026-01-14 23:04:02.42	31.72	13.67	-50.1	-51.5	14.5	0.00e+00	0	28	0	441450496	66	4206
2026-01-14 23:04:03.42	31.82	13.75	-50.0	-51.3	14.5	0.00e+00	0	28	0	444596224	66	4144
2026-01-14 23:04:04.42	31.93	13.84	-50.0	-51.3	14.5	0.00e+00	0	28	0	447741952	66	4140
2026-01-14 23:04:05.42	32.03	13.92	-50.0	-51.4	14.5	0.00e+00	0	28	0	450887680	66	4150
2026-01-14 23:04:06.42	32.14	14.01	-50.0	-51.3	14.5	0.00e+00	0	29	0	454033408	66	4134
2026-01-14 23:04:07.43	32.25	14.10	-50.0	-51.3	14.5	0.00e+00	0	28	0	457179136	66	4121
2026-01-14 23:04:08.43	32.36	14.19	-50.0	-51.4	14.5	0.00e+00	0	28	0	460324864	66	4151
2026-01-14 23:04:09.43	32.47	14.27	-50.0	-51.3	14.5	0.00e+00	0	28	0	463470592	66	4106
2026-01-14 23:04:10.43	32.58	14.36	-50.0	-51.3	14.5	0.00e+00	0	28	0	466616320	66	4130
2026-01-14 23:04:11.43	32.69	14.45	-50.0	-51.4	14.5	0.00e+00	0	28	0	469762048	66	4156
2026-01-14 23:04:12.43	32.80	14.53	-50.0	-51.4	14.5	0.00e+00	0	28	0	472907776	66	4162
2026-01-14 23:04:13.43	32.91	14.62	-50.1	-51.4	14.5	0.00e+00	0	28	0	476053504	66	4188
2026-01-14 23:04:14.43	33.02	14.71	-50.1	-51.4	14.5	0.00e+00	0	28	0	479199232	66	4180
2026-01-14 23:04:15.43	33.14	14.80	-50.2	-51.6	14.4	0.00e+00	0	28	0	482344960	66	4245
2026-01-14 23:04:16.42	33.25	14.89	-50.1	-51.5	14.5	0.00e+00	0	28	0	485490688	66	4210
2026-01-14 23:04:17.42	33.36	14.98	-50.1	-51.5	14.5	0.00e+00	0	28	0	488636416	66	4194
2026-01-14 23:04:18.41	33.48	15.06	-50.1	-51.5	14.5	0.00e+00	0	28	0	491782144	66	4197
2026-01-14 23:04:19.42	33.59	15.15	-50.2	-51.6	14.4	0.00e+00	0	28	0	494927872	66	4273
2026-01-14 23:04:20.41	33.71	15.24	-50.1	-51.4	14.5	0.00e+00	0	28	0	498073600	66	4192
2026-01-14 23:04:21.41	33.83	15.33	-50.1	-51.5	14.5	0.00e+00	0	28	0	501219328	66	4194
2026-01-14 23:04:22.41	33.94	15.42	-50.1	-51.4	14.5	0.00e+00	0	28	0	504365056	66	4172
2026-01-14 23:04:23.41	34.06	15.51	-50.1	-51.4	14.5	0.00e+00	0	28	0	507510784	66	4189
2026-01-14 23:04:24.41	34.18	15.60	-50.1	-51.4	14.5	0.00e+00	0	28	0	510656512	66	4193
2026-01-14 23:04:25.41	34.30	15.69	-50.1	-51.4	14.5	0.00e+00	0	28	0	513802240	66	4172
2026-01-14 23:04:26.41	34.42	15.79	-50.0	-51.3	14.5	0.00e+00	0	28	0	516947968	66	4129
2026-01-14 23:04:27.41	34.54	15.88	-50.1	-51.4	14.5	0.00e+00	0	28	0	520093696	66	4178
2026-01-14 23:04:28.41	34.66	15.97	-50.0	-51.4	14.5	0.00e+00	0	28	0	523239424	66	4152
2026-01-14 23:04:29.40	34.78	16.06	-50.1	-51.4	14.5	0.00e+00	0	28	0	526385152	66	4165
2026-01-14 23:04:30.40	34.91	16.15	-50.1	-51.5	14.5	0.00e+00	0	28	0	529530880	66	4211
2026-01-14 23:04:31.41	35.03	16.24	-50.1	-51.5	14.5	0.00e+00	0	28	0	532676608	66	4204
2026-01-14 23:04:32.41	35.16	16.34	-50.0	-51.3	14.5	0.00e+00	0	28	0	535822336	66	4145
2026-01-14 23:04:33.41	35.28	16.43	-50.0	-51.4	14.5	0.00e+00	0	28	0	538968064	66	4159
2026-01-14 23:04:34.40	35.41	16.52	-50.0	-51.3	14.5	0.00e+00	0	28	0	542113792	66	4139
2026-01-14 23:04:35.40	35.53	16.61	-50.0	-51.3	14.6	0.00e+00	0	28	0	545259520	66	4134
2026-01-14 23:04:36.39	35.66	16.70	-50.0	-51.3	14.6	0.00e+00	0	28	0	548405248	66	4121
2026-01-14 23:04:37.40	35.79	16.80	-49.9	-51.2	14.6	0.00e+00	0	28	0	551550976	66	4065
2026-01-14 23:04:38.40	35.92	16.89	-49.8	-51.1	14.6	0.00e+00	0	28	0	554696704	66	4051
2026-01-14 23:04:39.39	36.05	16.99	-49.9	-51.2	14.6	0.00e+00	0	28	0	557842432	66	4056
2026-01-14 23:04:40.38	36.18	17.08	-49.9	-51.3	14.6	0.00e+00	0	28	0	559939584	66	4100
2026-01-14 23:04:41.38	36.31	17.17	-49.9	-51.3	14.6	0.00e+00	0	28	0	563085312	66	4099
2026-01-14 23:04:42.38	36.44	17.27	-49.9	-51.3	14.6	0.00e+00	0	28	0	566231040	66	4100
2026-01-14 23:04:43.38	36.57	17.36	-50.0	-51.3	14.6	0.00e+00	0	28	0	569376768	66	4141
2026-01-14 23:04:44.39	36.71	17.46	-50.1	-51.4	14.5	0.00e+00	0	28	0	572522496	66	4163
2026-01-14 23:04:45.38	36.84	17.55	-50.0	-51.3	14.6	0.00e+00	0	28	0	575668224	66	4126
2026-01-14 23:04:46.38	36.98	17.65	-50.1	-51.4	14.5	0.00e+00	0	29	0	578813952	66	4164
2026-01-14 23:04:47.39	37.11	17.74	-50.0	-51.3	14.6	0.00e+00	0	28	0	581959680	66	4135
2026-01-14 23:04:48.39	37.25	17.84	-50.0	-51.3	14.6	0.00e+00	0	29	0	585105408	66	4136
2026-01-14 23:04:49.39	37.39	17.94	-49.9	-51.2	14.6	0.00e+00	0	28	0	588251136	66	4093
2026-01-14 23:04:50.38	37.53	18.03	-49.9	-51.2	14.6	0.00e+00	0	28	0	591396864	66	4072
2026-01-14 23:04:51.39	37.67	18.13	-49.9	-51.2	14.6	0.00e+00	0	28	0	594542592	66	4059
2026-01-14 23:04:52.39	37.81	18.23	-49.8	-51.1	14.6	0.00e+00	0	28	0	597688320	66	4050
2026-01-14 23:04:53.39	37.95	18.32	-49.8	-51.1	14.6	0.00e+00	0	28	0	600834048	66	4037
2026-01-14 23:04:54.39	38.09	18.42	-49.8	-51.1	14.6	0.00e+00	0	28	0	603979776	66	4031
2026-01-14 23:04:55.39	38.24	18.52	-49.9	-51.2	14.6	0.00e+00	0	28	0	607125504	66	4082
2026-01-14 23:04:56.40	38.38	18.62	-49.9	-51.2	14.6	0.00e+00	0	28	0	610271232	66	4077
2026-01-14 23:04:57.40	38.53	18.71	-50.0	-51.3	14.6	0.00e+00	0	28	0	613416960	66	4105
2026-01-14 23:04:58.39	38.67	18.81	-50.0	-51.3	14.6	0.00e+00	0	28	0	616562688	66	4117
2026-01-14 23:04:59.39	38.82	18.91	-50.0	-51.3	14.6	0.00e+00	0	28	0	619708416	66	4116
2026-01-14 23:05:00.39	38.97	19.01	-50.1	-51.4	14.5	0.00e+00	0	28	0	622854144	66	4193
2026-01-14 23:05:01.39	39.11	19.11	-49.9	-51.2	14.6	0.00e+00	0	28	0	625999872	66	4064
2026-01-14 23:05:02.39	39.26	19.20	-49.8	-51.1	14.7	0.00e+00	0	28	0	629145600	66	4037
2026-01-14 23:05:03.39	39.41	19.30	-49.8	-51.0	14.7	0.00e+00	0	28	0	632291328	66	3993
2026-01-14 23:05:04.40	39.57	19.40	-49.6	-50.9	14.6	0.00e+00	0	28	0	635437056	65	4165
2026-01-14 23:05:05.40	39.72	19.50	-49.5	-50.8	14.6	0.00e+00	0	28	0	638582784	65	4120
2026-01-14 23:05:06.41	39.87	19.60	-49.5	-50.8	14.7	0.00e+00	0	28	0	641728512	65	4113
2026-01-14 23:05:07.40	40.03	19.70	-49.6	-50.8	14.6	0.00e+00	0	28	0	644874240	65	4137
2026-01-14 23:05:08.40	40.18	19.80	-49.5	-50.8	14.7	0.00e+00	0	28	0	648019968	65	4120
2026-01-14 23:05:09.40	40.34	19.90	-49.6	-50.9	14.6	0.00e+00	0	28	0	651165696	65	4179
2026-01-14 23:05:10.40	40.50	20.00	-49.7	-51.0	14.6	0.00e+00	0	28	0	654311424	65	4221
2026-01-14 23:05:11.40	40.65	20.10	-49.7	-51.0	14.6	0.00e+00	0	28	0	657457152	65	4196
2026-01-14 23:05:12.40	40.81	20.21	-49.7	-51.0	14.6	0.00e+00	0	28	0	660602880	65	4200
2026-01-14 23:05:13.40	40.97	20.31	-49.5	-50.8	14.7	0.00e+00	0	29	0	663748608	65	4105
2026-01-14 23:05:14.40	41.14	20.41	-49.5	-50.8	14.6	0.00e+00	0	28	0	666894336	65	4125
2026-01-14 23:05:15.40	41.30	20.51	-49.4	-50.7	14.7	0.00e+00	0	28	0	670040064	65	4053
2026-01-14 23:05:16.41	41.46	20.61	-49.2	-50.5	14.8	0.00e+00	0	28	0	673185792	65	3964
2026-01-14 23:05:17.40	41.63	20.71	-49.1	-50.4	14.7	0.00e+00	0	28	0	676331520	64	4146
2026-01-14 23:05:18.41	41.79	20.82	-49.2	-50.5	14.7	0.00e+00	0	28	0	679477248	64	4205
2026-01-14 23:05:19.41	41.96	20.92	-49.1	-50.3	14.7	0.00e+00	0	28	0	682622976	64	4134
2026-01-14 23:05:20.41	42.13	21.02	-49.4	-50.6	14.6	0.00e+00	0	28	0	685768704	64	4273
2026-01-14 23:05:21.40	42.29	21.12	-49.2	-50.4	14.7	0.00e+00	0	28	0	688914432	64	4186
2026-01-14 23:05:22.40	42.46	21.22	-49.3	-50.5	14.7	0.00e+00	0	28	0	692060160	64	4234
2026-01-14 23:05:23.40	42.63	21.33	-49.3	-50.5	14.7	0.00e+00	0	28	0	695205888	64	4238
2026-01-14 23:05:24.39	42.81	21.43	-49.4	-50.6	14.6	0.00e+00	0	28	0	698351616	64	4285
2026-01-14 23:05:25.39	42.98	21.53	-49.2	-50.4	14.7	0.00e+00	0	28	0	701497344	64	4167
2026-01-14 23:05:26.38	43.15	21.64	-49.1	-50.3	14.8	0.00e+00	0	28	0	703594496	64	4131
2026-01-14 23:05:27.38	43.33	21.74	-49.0	-50.2	14.8	0.00e+00	0	28	0	706740224	64	4083
2026-01-14 23:05:28.37	43.50	21.84	-48.8	-49.9	14.9	0.00e+00	0	28	0	709885952	64	3955
2026-01-14 23:05:29.37	43.68	21.95	-48.7	-49.9	14.9	0.00e+00	0	28	0	713031680	64	3934
2026-01-14 23:05:30.36	43.86	22.05	-48.8	-49.9	14.9	0.00e+00	0	28	0	716177408	64	3953
2026-01-14 23:05:31.36	44.04	22.15	-48.7	-49.9	14.9	0.00e+00	0	28	0	719323136	64	3935
2026-01-14 23:05:32.36	44.22	22.26	-48.8	-50.0	14.8	0.00e+00	0	28	0	722468864	64	3992
2026-01-14 23:05:33.35	44.40	22.36	-48.8	-50.0	14.8	0.00e+00	0	28	0	725614592	64	3981
2026-01-14 23:05:34.35	44.58	22.46	-48.9	-50.1	14.8	0.00e+00	0	28	0	728760320	64	4022
2026-01-14 23:05:35.35	44.77	22.57	-49.0	-50.2	14.8	0.00e+00	0	28	0	731906048	64	4058
2026-01-14 23:05:36.34	44.95	22.67	-49.0	-50.2	14.8	0.00e+00	0	28	0	735051776	64	4071
2026-01-14 23:05:37.34	45.14	22.78	-49.0	-50.2	14.8	0.00e+00	0	28	0	738197504	64	4065
2026-01-14 23:05:38.34	45.33	22.88	-48.9	-50.1	14.8	0.00e+00	0	28	0	741343232	64	4006
2026-01-14 23:05:39.34	45.52	22.99	-48.7	-49.9	14.9	0.00e+00	0	28	0	744488960	64	3927
2026-01-14 23:05:40.34	45.71	23.09	-48.7	-49.9	14.8	0.00e+00	0	28	0	747634688	63	4152
2026-01-14 23:05:41.34	45.90	23.20	-48.7	-49.8	14.8	0.00e+00	0	28	0	750780416	63	4134
2026-01-14 23:05:42.34	46.09	23.31	-48.7	-49.9	14.8	0.00e+00	0	28	0	753926144	63	4156
2026-01-14 23:05:43.34	46.29	23.41	-48.8	-50.0	14.8	0.00e+00	0	28	0	757071872	63	4215
2026-01-14 23:05:44.34	46.48	23.52	-48.8	-50.0	14.8	0.00e+00	0	28	0	760217600	63	4207
2026-01-14 23:05:45.33	46.68	23.62	-49.0	-50.2	14.7	0.00e+00	0	28	0	763363328	63	4312
2026-01-14 23:05:46.34	46.88	23.73	-49.0	-50.3	14.7	0.00e+00	0	28	0	766509056	63	4354
2026-01-14 23:05:47.34	47.08	23.83	-49.1	-50.3	14.6	0.00e+00	0	28	0	769654784	63	4366
2026-01-14 23:05:48.34	47.28	23.94	-49.1	-50.3	14.6	0.00e+00	0	28	0	772800512	63	4378
2026-01-14 23:05:49.34	47.48	24.05	-48.9	-50.1	14.7	0.00e+00	0	28	0	775946240	63	4266
2026-01-14 23:05:50.34	47.69	24.15	-48.8	-49.9	14.8	0.00e+00	0	28	0	779091968	63	4193
2026-01-14 23:05:51.34	47.89	24.26	-48.8	-50.0	14.7	0.00e+00	0	28	0	782237696	63	4235
2026-01-14 23:05:52.35	48.10	24.37	-48.8	-50.0	14.8	0.00e+00	0	29	0	785383424	63	4228
2026-01-14 23:05:53.36	48.31	24.47	-48.8	-50.0	14.7	0.00e+00	0	28	0	788529152	63	4219
2026-01-14 23:05:54.35	48.52	24.58	-49.0	-50.2	14.7	0.00e+00	0	28	0	791674880	63	4308
2026-01-14 23:05:55.35	48.73	24.69	-49.0	-50.2	14.7	0.00e+00	0	28	0	794820608	63	4305
2026-01-14 23:05:56.35	48.94	24.79	-49.2	-50.4	14.6	0.00e+00	0	28	0	797966336	63	4410
2026-01-14 23:05:57.35	49.15	24.90	-49.2	-50.4	14.6	0.00e+00	0	28	0	801112064	63	4419
2026-01-14 23:05:58.35	49.37	25.01	-49.1	-50.4	14.7	0.00e+00	0	29	0	804257792	63	4395
2026-01-14 23:05:59.34	49.58	25.11	-49.1	-50.4	14.6	0.00e+00	0	28	0	807403520	63	4395
2026-01-14 23:06:00.34	49.80	25.22	-49.1	-50.3	14.6	0.00e+00	0	28	0	810549248	63	4358
2026-01-14 23:06:01.34	50.02	25.33	-49.1	-50.3	14.6	0.00e+00	0	29	0	813694976	63	4369
2026-01-14 23:06:02.34	50.24	25.43	-49.1	-50.4	14.6	0.00e+00	0	28	0	816840704	63	4396
2026-01-14 23:06:03.34	50.46	25.54	-49.1	-50.4	14.6	0.00e+00	0	28	0	819986432	63	4401
2026-01-14 23:06:04.34	50.69	25.64	-49.4	-50.6	14.6	0.00e+00	0	28	0	823132160	63	4531
2026-01-14 23:06:05.34	50.91	25.75	-49.4	-50.7	14.6	0.00e+00	0	28	0	826277888	64	4297
2026-01-14 23:06:06.34	51.14	25.86	-49.5	-50.8	14.6	0.00e+00	0	28	0	829423616	64	4352
2026-01-14 23:06:07.35	51.37	25.97	-49.7	-51.0	14.5	0.00e+00	0	28	0	832569344	64	4464
2026-01-14 23:06:08.35	51.60	26.07	-49.7	-51.0	14.5	0.00e+00	0	28	0	835715072	64	4469
2026-01-14 23:06:09.35	51.83	26.18	-49.6	-50.9	14.5	0.00e+00	0	28	0	838860800	64	4425
2026-01-14 23:06:10.35	52.06	26.28	-49.5	-50.8	14.6	0.00e+00	0	28	0	842006528	64	4351
2026-01-14 23:06:11.35	52.30	26.39	-49.5	-50.8	14.6	0.00e+00	0	28	0	845152256	64	4367
2026-01-14 23:06:12.36	52.54	26.50	-49.5	-50.7	14.6	0.00e+00	0	28	0	848297984	64	4331
2026-01-14 23:06:13.35	52.77	26.60	-49.4	-50.6	14.7	0.00e+00	0	28	0	851443712	64	4281
2026-01-14 23:06:14.35	53.01	26.71	-49.3	-50.5	14.7	0.00e+00	0	28	0	854589440	64	4226
2026-01-14 23:06:15.34	53.25	26.81	-49.5	-50.8	14.6	0.00e+00	0	28	0	856686592	64	4349
2026-01-14 23:06:16.34	53.49	26.92	-49.6	-50.9	14.6	0.00e+00	0	28	0	859832320	64	4395
2026-01-14 23:06:17.34	53.73	27.03	-49.7	-51.0	14.5	0.00e+00	0	28	0	862978048	64	4484
2026-01-14 23:06:18.34	53.98	27.13	-49.8	-51.1	14.5	0.00e+00	0	28	0	866123776	64	4526
2026-01-14 23:06:19.33	54.22	27.24	-49.9	-51.2	14.5	0.00e+00	0	28	0	869269504	64	4550
2026-01-14 23:06:20.33	54.47	27.34	-49.8	-51.1	14.6	0.00e+00	0	28	0	872415232	65	4275
2026-01-14 23:06:21.33	54.72	27.45	-49.9	-51.1	14.6	0.00e+00	0	28	0	875560960	65	4285
2026-01-14 23:06:22.34	54.98	27.55	-49.7	-51.0	14.6	0.00e+00	0	28	0	878706688	65	4211
2026-01-14 23:06:23.33	55.23	27.66	-49.7	-50.9	14.6	0.00e+00	0	28	0	881852416	65	4187
2026-01-14 23:06:24.33	55.48	27.76	-49.8	-51.1	14.6	0.00e+00	0	28	0	884998144	65	4258
2026-01-14 23:06:25.33	55.74	27.86	-49.8	-51.1	14.6	0.00e+00	0	28	0	888143872	65	4266
2026-01-14 23:06:26.33	56.00	27.97	-49.9	-51.2	14.6	0.00e+00	0	28	0	891289600	65	4323
2026-01-14 23:06:27.32	56.25	28.07	-49.9	-51.2	14.6	0.00e+00	0	28	0	894435328	65	4297
2026-01-14 23:06:28.33	56.52	28.18	-49.8	-51.0	14.6	0.00e+00	0	28	0	897581056	65	4238
2026-01-14 23:06:29.32	56.78	28.28	-49.6	-50.9	14.7	0.00e+00	0	28	0	900726784	65	4161
2026-01-14 23:06:30.32	57.04	28.38	-49.7	-50.9	14.6	0.00e+00	0	28	0	903872512	65	4172
2026-01-14 23:06:31.32	57.31	28.49	-49.6	-50.8	14.7	0.00e+00	0	28	0	907018240	65	4137
2026-01-14 23:06:32.30	57.57	28.59	-49.7	-50.9	14.6	0.00e+00	0	28	0	910163968	65	4192
2026-01-14 23:06:33.30	57.84	28.69	-49.8	-51.1	14.6	0.00e+00	0	28	0	913309696	65	4268
2026-01-14 23:06:34.30	58.11	28.79	-49.8	-51.1	14.6	0.00e+00	0	28	0	916455424	65	4274
2026-01-14 23:06:35.30	58.39	28.89	-49.8	-51.1	14.6	0.00e+00	0	28	0	919601152	65	4266
2026-01-14 23:06:36.29	58.66	28.99	-49.8	-51.1	14.6	0.00e+00	0	28	0	922746880	65	4274
2026-01-14 23:06:37.29	58.93	29.09	-50.0	-51.2	14.5	0.00e+00	0	28	0	925892608	65	4335
2026-01-14 23:06:38.28	59.21	29.19	-49.6	-50.9	14.6	0.00e+00	0	28	0	929038336	65	4172
2026-01-14 23:06:39.28	59.49	29.29	-49.6	-50.8	14.7	0.00e+00	0	28	0	932184064	65	4139
2026-01-14 23:06:40.28	59.77	29.39	-49.7	-50.9	14.6	0.00e+00	0	28	0	935329792	65	4193
2026-01-14 23:06:41.26	60.05	29.49	-49.6	-50.8	14.7	0.00e+00	0	28	0	938475520	65	4128
2026-01-14 23:06:42.25	60.33	29.59	-49.5	-50.7	14.7	0.00e+00	0	28	0	941621248	65	4087
2026-01-14 23:06:43.26	60.62	29.69	-49.6	-50.9	14.7	0.00e+00	0	28	0	944766976	65	4169
2026-01-14 23:06:44.25	60.91	29.79	-49.8	-51.1	14.6	0.00e+00	0	28	0	947912704	65	4250
2026-01-14 23:06:45.25	61.20	29.88	-49.8	-51.1	14.6	0.00e+00	0	28	0	951058432	65	4269
2026-01-14 23:06:46.25	61.49	29.98	-49.9	-51.2	14.6	0.00e+00	0	28	0	954204160	65	4312
2026-01-14 23:06:47.25	61.78	30.08	-49.8	-51.1	14.6	0.00e+00	0	28	0	957349888	65	4252
2026-01-14 23:06:48.25	62.08	30.18	-49.7	-51.0	14.6	0.00e+00	0	28	0	960495616	65	4196
2026-01-14 23:06:49.25	62.38	30.27	-49.6	-50.8	14.7	0.00e+00	0	29	0	963641344	65	4131
2026-01-14 23:06:50.24	62.67	30.37	-49.4	-50.6	14.8	0.00e+00	0	28	0	965738496	65	4040
2026-01-14 23:06:51.25	62.98	30.46	-49.3	-50.5	14.8	0.00e+00	0	28	0	968884224	65	3995
2026-01-14 23:06:52.24	63.27	30.56	-49.4	-50.6	14.8	0.00e+00	0	28	0	972029952	65	4043
2026-01-14 23:06:53.24	63.58	30.65	-49.6	-50.8	14.7	0.00e+00	0	29	0	975175680	65	4137
2026-01-14 23:06:54.25	63.89	30.74	-49.4	-50.7	14.7	0.00e+00	0	28	0	978321408	65	4065
2026-01-14 23:06:55.24	64.19	30.84	-49.6	-50.8	14.7	0.00e+00	0	29	0	981467136	65	4137
2026-01-14 23:06:56.24	64.50	30.93	-49.5	-50.7	14.7	0.00e+00	0	28	0	984612864	65	4097
2026-01-14 23:06:57.23	64.81	31.02	-49.4	-50.6	14.8	0.00e+00	0	28	0	987758592	65	4016
2026-01-14 23:06:58.23	65.12	31.11	-49.4	-50.6	14.8	0.00e+00	0	29	0	990904320	65	4026
2026-01-14 23:06:59.23	65.44	31.20	-49.5	-50.7	14.7	0.00e+00	0	29	0	994050048	65	4084
2026-01-14 23:07:00.23	65.75	31.29	-49.4	-50.6	14.8	0.00e+00	0	28	0	997195776	65	4022
2026-01-14 23:07:01.23	66.07	31.38	-49.5	-50.7	14.7	0.00e+00	0	29	0	1000341504	65	4069
2026-01-14 23:07:02.22	66.39	31.47	-49.6	-50.9	14.7	0.00e+00	0	28	0	1003487232	65	4161
2026-01-14 23:07:03.22	66.71	31.55	-49.7	-50.9	14.7	0.00e+00	0	29	0	1006632960	65	4179
2026-01-14 23:07:04.21	67.03	31.64	-49.8	-51.1	14.6	0.00e+00	0	28	0	1009778688	65	4244
2026-01-14 23:07:05.21	67.35	31.73	-49.8	-51.1	14.6	0.00e+00	0	28	0	1012924416	65	4276
2026-01-14 23:07:06.21	67.68	31.81	-49.8	-51.1	14.6	0.00e+00	0	28	0	1016070144	65	4247
2026-01-14 23:07:07.21	68.01	31.90	-49.6	-50.8	14.7	0.00e+00	0	28	0	1019215872	65	4143
2026-01-14 23:07:08.20	68.34	31.98	-49.8	-51.1	14.6	0.00e+00	0	28	0	1022361600	65	4272
2026-01-14 23:07:09.20	68.67	32.06	-50.0	-51.2	14.5	0.00e+00	0	28	0	1025507328	65	4336
2026-01-14 23:07:10.20	69.00	32.14	-50.2	-51.5	14.4	0.00e+00	0	28	0	1028653056	65	4464
2026-01-14 23:07:11.20	69.34	32.23	-50.3	-51.7	14.4	0.00e+00	0	28	0	1031798784	65	4574
2026-01-14 23:07:12.21	69.68	32.31	-50.4	-51.8	14.4	0.00e+00	0	28	0	1034944512	66	4364
2026-01-14 23:07:13.20	70.01	32.39	-50.4	-51.8	14.5	0.00e+00	0	28	0	1038090240	66	4346
2026-01-14 23:07:14.21	70.35	32.47	-50.4	-51.7	14.5	0.00e+00	0	28	0	1041235968	66	4312
2026-01-14 23:07:15.21	70.70	32.54	-50.3	-51.6	14.5	0.00e+00	0	28	0	1044381696	66	4264
2026-01-14 23:07:16.20	71.04	32.62	-50.2	-51.5	14.5	0.00e+00	0	28	0	1047527424	66	4232
2026-01-14 23:07:17.21	71.38	32.70	-50.3	-51.7	14.5	0.00e+00	0	28	0	1050673152	66	4303
2026-01-14 23:07:18.20	71.73	32.77	-50.4	-51.8	14.4	0.00e+00	0	28	0	1053818880	66	4352
2026-01-14 23:07:19.21	72.08	32.85	-50.6	-51.9	14.4	0.00e+00	0	29	0	1056964608	66	4433
2026-01-14 23:07:20.20	72.42	32.92	-50.5	-51.9	14.4	0.00e+00	0	28	0	1060110336	66	4425
2026-01-14 23:07:21.20	72.77	32.99	-50.5	-51.9	14.4	0.00e+00	0	28	0	1063256064	66	4403
2026-01-14 23:07:22.20	73.13	33.06	-50.3	-51.6	14.5	0.00e+00	0	28	0	1066401792	66	4277
2026-01-14 23:07:23.20	73.48	33.13	-50.5	-51.8	14.4	0.00e+00	0	29	0	1069547520	66	4365
2026-01-14 23:07:24.19	73.83	33.20	-50.4	-51.8	14.4	0.00e+00	0	28	0	1072693248	66	4351
2026-01-14 23:07:25.19	74.19	33.27	-50.6	-52.0	14.3	0.00e+00	0	28	0	1075838976	66	4473
2026-01-14 23:07:26.19	74.55	33.34	-50.6	-52.0	14.4	0.00e+00	0	28	0	1078984704	66	4448
2026-01-14 23:07:27.19	74.91	33.40	-50.5	-51.8	14.4	0.00e+00	0	28	0	1082130432	66	4377
2026-01-14 23:07:28.19	75.27	33.47	-50.4	-51.7	14.5	0.00e+00	0	28	0	1085276160	66	4313
2026-01-14 23:07:29.18	75.63	33.53	-50.3	-51.6	14.5	0.00e+00	0	28	0	1087373312	66	4282
2026-01-14 23:07:30.18	75.99	33.59	-50.1	-51.4	14.6	0.00e+00	0	28	0	1090519040	66	4182
2026-01-14 23:07:31.18	76.36	33.66	-50.2	-51.6	14.5	0.00e+00	0	28	0	1093664768	66	4248
2026-01-14 23:07:32.18	76.73	33.72	-50.4	-51.7	14.4	0.00e+00	0	28	0	1096810496	66	4338
2026-01-14 23:07:33.17	77.09	33.78	-50.5	-51.8	14.4	0.00e+00	0	28	0	1099956224	66	4376
2026-01-14 23:07:34.17	77.46	33.83	-50.5	-51.8	14.4	0.00e+00	0	28	0	1103101952	66	4384
2026-01-14 23:07:35.16	77.83	33.89	-50.5	-51.8	14.4	0.00e+00	0	28	0	1106247680	66	4391
2026-01-14 23:07:36.16	78.20	33.95	-50.5	-51.9	14.4	0.00e+00	0	28	0	1109393408	66	4396
2026-01-14 23:07:37.15	78.57	34.00	-50.6	-52.0	14.4	0.00e+00	0	28	0	1112539136	66	4463
2026-01-14 23:07:38.16	78.95	34.05	-50.6	-52.0	14.4	0.00e+00	0	29	0	1115684864	66	4480
2026-01-14 23:07:39.16	79.32	34.11	-50.7	-52.1	14.3	0.00e+00	0	29	0	1118830592	66	4505
2026-01-14 23:07:40.16	79.70	34.16	-50.4	-51.7	14.5	0.00e+00	0	28	0	1121976320	66	4303
2026-01-14 23:07:41.15	80.07	34.21	-50.4	-51.7	14.5	0.00e+00	0	29	0	1125122048	66	4330
2026-01-14 23:07:42.16	80.46	34.25	-50.2	-51.5	14.6	0.00e+00	0	28	0	1128267776	66	4217
2026-01-14 23:07:43.15	80.83	34.30	-50.1	-51.4	14.6	0.00e+00	0	28	0	1131413504	66	4185
2026-01-14 23:07:44.15	81.22	34.35	-50.3	-51.6	14.5	0.00e+00	0	28	0	1134559232	66	4254
2026-01-14 23:07:45.15	81.60	34.39	-50.2	-51.5	14.5	0.00e+00	0	29	0	1137704960	66	4230
2026-01-14 23:07:46.15	81.98	34.43	-50.2	-51.5	14.5	0.00e+00	0	28	0	1140850688	66	4240
2026-01-14 23:07:47.14	82.36	34.47	-50.3	-51.6	14.5	0.00e+00	0	28	0	1143996416	66	4267
2026-01-14 23:07:48.14	82.75	34.51	-50.5	-51.9	14.4	0.00e+00	0	28	0	1147142144	66	4411
2026-01-14 23:07:49.14	83.13	34.55	-50.5	-51.9	14.4	0.00e+00	0	28	0	1150287872	66	4415
2026-01-14 23:07:50.14	83.52	34.59	-50.7	-52.1	14.3	0.00e+00	0	29	0	1153433600	66	4515
2026-01-14 23:07:51.14	83.91	34.63	-50.7	-52.1	14.3	0.00e+00	0	28	0	1156579328	66	4537
2026-01-14 23:07:52.15	84.30	34.66	-50.7	-52.1	14.3	0.00e+00	0	28	0	1159725056	66	4524
2026-01-14 23:07:53.15	84.69	34.70	-50.9	-52.3	14.3	0.00e+00	0	28	0	1162870784	66	4602
2026-01-14 23:07:54.15	85.08	34.73	-50.8	-52.1	14.3	0.00e+00	0	28	0	1166016512	66	4541
2026-01-14 23:07:55.15	85.47	34.76	-50.8	-52.2	14.3	0.00e+00	0	28	0	1169162240	66	4553
2026-01-14 23:07:56.14	85.86	34.79	-50.8	-52.2	14.3	0.00e+00	0	28	0	1172307968	66	4551
2026-01-14 23:07:57.14	86.26	34.81	-50.6	-51.9	14.4	0.00e+00	0	28	0	1175453696	66	4424
2026-01-14 23:07:58.13	86.64	34.84	-50.5	-51.8	14.4	0.00e+00	0	28	0	1178599424	66	4367
2026-01-14 23:07:59.13	87.04	34.86	-50.6	-51.9	14.4	0.00e+00	0	28	0	1181745152	66	4422
2026-01-14 23:08:00.13	87.43	34.89	-50.6	-51.9	14.4	0.00e+00	0	29	0	1184890880	66	4416
2026-01-14 23:08:01.12	87.82	34.91	-50.7	-52.1	14.3	0.00e+00	0	28	0	1188036608	66	4497
2026-01-14 23:08:02.12	88.22	34.93	-50.7	-52.1	14.3	0.00e+00	0	29	0	1191182336	66	4511
2026-01-14 23:08:03.12	88.62	34.95	-50.5	-51.8	14.4	0.00e+00	0	29	0	1194328064	66	4365
2026-01-14 23:08:04.13	89.02	34.97	-50.4	-51.7	14.5	0.00e+00	0	28	0	1197473792	66	4305
2026-01-14 23:08:05.13	89.41	34.98	-50.4	-51.7	14.5	0.00e+00	0	28	0	1200619520	66	4314
2026-01-14 23:08:06.13	89.81	35.00	-50.6	-51.9	14.4	0.00e+00	0	29	0	1203765248	66	4423
2026-01-14 23:08:07.13	90.21	35.01	-50.6	-51.9	14.4	0.00e+00	0	28	0	1206910976	66	4416
2026-01-14 23:08:08.13	90.61	35.02	-50.5	-51.8	14.4	0.00e+00	0	28	0	1210056704	66	4377
2026-01-14 23:08:09.13	91.00	35.03	-50.5	-51.9	14.4	0.00e+00	0	28	0	1212153856	66	4398
2026-01-14 23:08:10.12	91.40	35.04	-50.7	-52.0	14.4	0.00e+00	0	28	0	1215299584	66	4473
2026-01-14 23:08:11.12	91.80	35.04	-50.9	-52.3	14.3	0.00e+00	0	28	0	1218445312	66	4607
2026-01-14 23:08:12.13	92.20	35.05	-50.8	-52.1	14.3	0.00e+00	0	28	0	1221591040	66	4531
2026-01-14 23:08:13.13	92.60	35.05	-50.6	-51.9	14.4	0.00e+00	0	28	0	1224736768	66	4421
2026-01-14 23:08:14.12	92.99	35.06	-50.4	-51.8	14.4	0.00e+00	0	28	0	1227882496	66	4343
2026-01-14 23:08:15.13	93.40	35.06	-50.5	-51.9	14.4	0.00e+00	0	28	0	1231028224	66	4393
2026-01-14 23:08:16.13	93.80	35.06	-50.4	-51.7	14.5	0.00e+00	0	29	0	1234173952	66	4312
2026-01-14 23:08:17.13	94.20	35.05	-50.5	-51.8	14.4	0.00e+00	0	29	0	1237319680	66	4376
2026-01-14 23:08:18.14	94.60	35.05	-50.4	-51.8	14.4	0.00e+00	0	28	0	1240465408	66	4344
2026-01-14 23:08:19.13	94.99	35.04	-50.3	-51.6	14.5	0.00e+00	0	28	0	1243611136	66	4246
2026-01-14 23:08:20.13	95.39	35.04	-50.3	-51.6	14.6	0.00e+00	0	28	0	1246756864	66	4243
2026-01-14 23:08:21.13	95.79	35.03	-50.2	-51.5	14.5	0.00e+00	0	28	0	1249902592	66	4215
2026-01-14 23:08:22.14	96.19	35.02	-50.4	-51.7	14.5	0.00e+00	0	28	0	1253048320	66	4310
2026-01-14 23:08:23.14	96.59	35.01	-50.3	-51.6	14.5	0.00e+00	0	29	0	1256194048	66	4252
2026-01-14 23:08:24.14	96.99	34.99	-50.5	-51.8	14.5	0.00e+00	0	28	0	1259339776	66	4368
2026-01-14 23:08:25.13	97.38	34.98	-50.6	-52.0	14.4	0.00e+00	0	28	0	1262485504	66	4450
2026-01-14 23:08:26.12	97.77	34.96	-50.6	-51.9	14.4	0.00e+00	0	29	0	1265631232	66	4419
2026-01-14 23:08:27.12	98.17	34.95	-50.7	-52.1	14.4	0.00e+00	0	29	0	1268776960	66	4499
2026-01-14 23:08:28.12	98.57	34.93	-50.6	-51.9	14.4	0.00e+00	0	28	0	1271922688	66	4439
2026-01-14 23:08:29.12	98.96	34.91	-50.5	-51.9	14.4	0.00e+00	0	28	0	1275068416	66	4409
2026-01-14 23:08:30.11	99.35	34.88	-50.5	-51.9	14.4	0.00e+00	0	29	0	1278214144	66	4393
2026-01-14 23:08:31.11	99.75	34.86	-50.5	-51.8	14.4	0.00e+00	0	28	0	1281359872	66	4367
2026-01-14 23:08:32.10	100.14	34.84	-50.4	-51.8	14.5	0.00e+00	0	28	0	1284505600	66	4356
2026-01-14 23:08:33.09	100.53	34.81	-50.5	-51.8	14.4	0.00e+00	0	28	0	1287651328	66	4373
2026-01-14 23:08:34.09	100.92	34.78	-50.5	-51.8	14.4	0.00e+00	0	28	0	1290797056	66	4383
2026-01-14 23:08:35.09	101.31	34.75	-50.5	-51.8	14.4	0.00e+00	0	29	0	1293942784	66	4383
2026-01-14 23:08:36.09	101.71	34.72	-50.8	-52.2	14.3	0.00e+00	0	28	0	1297088512	66	4576
2026-01-14 23:08:37.08	102.09	34.69	-50.8	-52.2	14.3	0.00e+00	0	28	0	1300234240	66	4584
2026-01-14 23:08:38.08	102.48	34.66	-50.8	-52.2	14.4	0.00e+00	0	29	0	1303379968	67	4292
2026-01-14 23:08:39.09	102.88	34.62	-50.5	-51.9	14.5	0.00e+00	0	29	0	1306525696	67	4160
2026-01-14 23:08:40.08	103.26	34.59	-50.5	-51.8	14.5	0.00e+00	0	29	0	1309671424	67	4141
2026-01-14 23:08:41.07	103.64	34.55	-50.6	-51.9	14.5	0.00e+00	0	29	0	1312817152	67	4161
2026-01-14 23:08:42.07	104.03	34.51	-50.6	-51.9	14.5	0.00e+00	0	28	0	1315962880	67	4157
2026-01-14 23:08:43.06	104.41	34.47	-50.5	-51.8	14.5	0.00e+00	0	29	0	1319108608	67	4143
2026-01-14 23:08:44.06	104.80	34.43	-50.4	-51.7	14.6	0.00e+00	0	28	0	1322254336	67	4087
2026-01-14 23:08:45.06	105.18	34.38	-50.4	-51.7	14.6	0.00e+00	0	28	0	1325400064	67	4096
2026-01-14 23:08:46.06	105.57	34.34	-50.3	-51.6	14.6	0.00e+00	0	28	0	1328545792	67	4018
2026-01-14 23:08:47.06	105.95	34.29	-50.2	-51.5	14.7	0.00e+00	0	29	0	1331691520	67	3985
2026-01-14 23:08:48.06	106.33	34.25	-50.2	-51.5	14.6	0.00e+00	0	28	0	1334837248	67	4003
2026-01-14 23:08:49.06	106.71	34.20	-50.4	-51.7	14.6	0.00e+00	0	28	0	1337982976	67	4074
2026-01-14 23:08:50.06	107.09	34.15	-50.5	-51.8	14.5	0.00e+00	0	28	0	1341128704	67	4123
2026-01-14 23:08:51.07	107.47	34.10	-50.7	-52.0	14.5	0.00e+00	0	28	0	1344274432	67	4235
2026-01-14 23:08:52.07	107.84	34.04	-50.7	-52.1	14.4	0.00e+00	0	28	0	1346371584	67	4276
2026-01-14 23:08:53.07	108.22	33.99	-50.7	-52.1	14.4	0.00e+00	0	28	0	1349517312	67	4249
2026-01-14 23:08:54.07	108.59	33.94	-50.8	-52.1	14.4	0.00e+00	0	28	0	1352663040	67	4286
2026-01-14 23:08:55.07	108.96	33.88	-50.6	-52.0	14.5	0.00e+00	0	28	0	1355808768	67	4216
2026-01-14 23:08:56.07	109.34	33.82	-50.8	-52.2	14.4	0.00e+00	0	28	0	1358954496	67	4320
2026-01-14 23:08:57.07	109.71	33.76	-50.5	-51.8	14.5	0.00e+00	0	28	0	1362100224	67	4129
2026-01-14 23:08:58.07	110.07	33.70	-50.4	-51.7	14.6	0.00e+00	0	28	0	1365245952	67	4092
2026-01-14 23:08:59.06	110.44	33.64	-50.4	-51.7	14.6	0.00e+00	0	28	0	1368391680	67	4088
2026-01-14 23:09:00.06	110.80	33.58	-50.6	-51.9	14.5	0.00e+00	0	28	0	1371537408	67	4175
2026-01-14 23:09:01.06	111.17	33.52	-50.6	-52.0	14.5	0.00e+00	0	28	0	1374683136	67	4202
2026-01-14 23:09:02.06	111.53	33.45	-50.6	-51.9	14.5	0.00e+00	0	28	0	1377828864	67	4188
2026-01-14 23:09:03.06	111.89	33.39	-50.6	-52.0	14.5	0.00e+00	0	29	0	1380974592	67	4194
2026-01-14 23:09:04.06	112.25	33.32	-50.6	-51.9	14.5	0.00e+00	0	28	0	1384120320	67	4173
2026-01-14 23:09:05.06	112.61	33.25	-50.4	-51.7	14.6	0.00e+00	0	28	0	1387266048	67	4081
2026-01-14 23:09:06.06	112.97	33.19	-50.5	-51.9	14.5	0.00e+00	0	29	0	1390411776	67	4152
2026-01-14 23:09:07.07	113.33	33.12	-50.8	-52.2	14.3	0.00e+00	0	28	0	1393557504	67	4320
2026-01-14 23:09:08.07	113.68	33.04	-50.9	-52.4	14.3	0.00e+00	0	29	0	1396703232	67	4393
2026-01-14 23:09:09.07	114.04	32.97	-50.8	-52.1	14.4	0.00e+00	0	28	0	1399848960	67	4288
2026-01-14 23:09:10.08	114.39	32.90	-50.7	-52.1	14.4	0.00e+00	0	28	0	1402994688	67	4257
2026-01-14 23:09:11.07	114.74	32.83	-50.6	-52.0	14.5	0.00e+00	0	29	0	1406140416	67	4205
2026-01-14 23:09:12.07	115.09	32.75	-50.6	-52.0	14.4	0.00e+00	0	28	0	1409286144	67	4205
2026-01-14 23:09:13.07	115.43	32.68	-50.6	-52.0	14.4	0.00e+00	0	28	0	1412431872	67	4207
2026-01-14 23:09:14.06	115.78	32.60	-50.6	-52.0	14.5	0.00e+00	0	28	0	1415577600	67	4213
2026-01-14 23:09:15.07	116.12	32.52	-50.4	-51.8	14.5	0.00e+00	0	28	0	1418723328	67	4103
2026-01-14 23:09:16.07	116.46	32.44	-50.4	-51.7	14.6	0.00e+00	0	28	0	1421869056	67	4076
2026-01-14 23:09:17.07	116.81	32.36	-50.5	-51.9	14.5	0.00e+00	0	29	0	1425014784	67	4146
2026-01-14 23:09:18.07	117.14	32.28	-50.4	-51.7	14.6	0.00e+00	0	29	0	1428160512	67	4096
2026-01-14 23:09:19.07	117.48	32.20	-50.3	-51.7	14.6	0.00e+00	0	29	0	1431306240	67	4069
2026-01-14 23:09:20.06	117.81	32.12	-50.3	-51.6	14.6	0.00e+00	0	29	0	1434451968	67	4015
2026-01-14 23:09:21.06	118.15	32.04	-50.3	-51.6	14.6	0.00e+00	0	28	0	1437597696	67	4025
2026-01-14 23:09:22.06	118.48	31.95	-49.9	-51.2	14.7	0.00e+00	0	29	0	1440743424	66	4084
2026-01-14 23:09:23.06	118.81	31.87	-49.5	-50.8	14.7	0.00e+00	0	28	0	1443889152	65	4104
2026-01-14 23:09:24.05	119.13	31.79	-49.6	-50.8	14.7	0.00e+00	0	28	0	1447034880	65	4122
2026-01-14 23:09:25.05	119.46	31.70	-49.7	-50.9	14.7	0.00e+00	0	29	0	1450180608	65	4175
2026-01-14 23:09:26.05	119.79	31.61	-49.7	-50.9	14.7	0.00e+00	0	28	0	1453326336	65	4190
2026-01-14 23:09:27.05	120.11	31.53	-49.7	-50.9	14.7	0.00e+00	0	28	0	1456472064	65	4192
2026-01-14 23:09:28.05	120.43	31.44	-49.7	-51.0	14.7	0.00e+00	0	28	0	1459617792	65	4198
2026-01-14 23:09:29.05	120.75	31.35	-49.8	-51.0	14.6	0.00e+00	0	28	0	1462763520	65	4236
2026-01-14 23:09:30.05	121.07	31.26	-49.9	-51.1	14.6	0.00e+00	0	29	0	1465909248	65	4291
2026-01-14 23:09:31.05	121.39	31.17	-49.8	-51.1	14.6	0.00e+00	0	29	0	1469054976	65	4251
2026-01-14 23:09:32.05	121.70	31.08	-49.8	-51.1	14.6	0.00e+00	0	28	0	1472200704	65	4267
2026-01-14 23:09:33.05	122.02	30.99	-49.8	-51.1	14.6	0.00e+00	0	29	0	1475346432	65	4261
2026-01-14 23:09:34.04	122.32	30.90	-49.6	-50.9	14.7	0.00e+00	0	28	0	1478492160	65	4173
2026-01-14 23:09:35.04	122.63	30.80	-49.4	-50.6	14.8	0.00e+00	0	28	0	1481637888	65	4023
2026-01-14 23:09:36.03	122.94	30.71	-49.4	-50.6	14.8	0.00e+00	0	28	0	1483735040	65	4012
2026-01-14 23:09:37.03	123.25	30.62	-49.3	-50.6	14.8	0.00e+00	0	29	0	1486880768	65	4011
2026-01-14 23:09:38.02	123.55	30.52	-49.5	-50.7	14.7	0.00e+00	0	29	0	1490026496	65	4098
2026-01-14 23:09:39.03	123.85	30.43	-49.6	-50.9	14.7	0.00e+00	0	28	0	1493172224	65	4174
2026-01-14 23:09:40.03	124.15	30.33	-49.7	-51.0	14.6	0.00e+00	0	29	0	1496317952	65	4226
2026-01-14 23:09:41.02	124.45	30.24	-49.6	-50.9	14.7	0.00e+00	0	28	0	1499463680	65	4164
2026-01-14 23:09:42.02	124.75	30.14	-49.6	-50.8	14.7	0.00e+00	0	28	0	1502609408	65	4141
2026-01-14 23:09:43.02	125.04	30.04	-49.6	-50.9	14.7	0.00e+00	0	28	0	1505755136	65	4155
2026-01-14 23:09:44.02	125.34	29.94	-49.4	-50.6	14.8	0.00e+00	0	28	0	1508900864	65	4030
2026-01-14 23:09:45.02	125.63	29.85	-49.5	-50.7	14.7	0.00e+00	0	28	0	1512046592	65	4080
2026-01-14 23:09:46.03	125.92	29.75	-49.5	-50.8	14.7	0.00e+00	0	29	0	1515192320	65	4104
2026-01-14 23:09:47.03	126.21	29.65	-49.6	-50.9	14.7	0.00e+00	0	28	0	1518338048	65	4148
2026-01-14 23:09:48.03	126.50	29.55	-49.7	-51.0	14.6	0.00e+00	0	28	0	1521483776	65	4223
2026-01-14 23:09:49.03	126.79	29.45	-49.9	-51.2	14.6	0.00e+00	0	29	0	1524629504	65	4302
2026-01-14 23:09:50.03	127.07	29.35	-50.0	-51.3	14.5	0.00e+00	0	29	0	1527775232	65	4364
2026-01-14 23:09:51.02	127.35	29.25	-49.9	-51.2	14.6	0.00e+00	0	28	0	1530920960	65	4340
2026-01-14 23:09:52.02	127.63	29.15	-49.6	-50.9	14.7	0.00e+00	0	28	0	1534066688	65	4169
2026-01-14 23:09:53.03	127.91	29.05	-49.5	-50.8	14.7	0.00e+00	0	29	0	1537212416	65	4111
2026-01-14 23:09:54.02	128.18	28.95	-49.6	-50.9	14.7	0.00e+00	0	28	0	1540358144	65	4164
2026-01-14 23:09:55.02	128.46	28.84	-49.5	-50.7	14.7	0.00e+00	0	28	0	1543503872	65	4091
2026-01-14 23:09:56.02	128.73	28.74	-49.4	-50.6	14.8	0.00e+00	0	28	0	1546649600	65	4042
2026-01-14 23:09:57.02	129.00	28.64	-49.3	-50.5	14.8	0.00e+00	0	28	0	1549795328	65	3980
2026-01-14 23:09:58.03	129.28	28.53	-49.2	-50.4	14.9	0.00e+00	0	28	0	1552941056	65	3944
2026-01-14 23:09:59.03	129.55	28.43	-49.1	-50.3	14.8	0.00e+00	0	29	0	1556086784	64	4128
2026-01-14 23:10:00.03	129.81	28.33	-49.1	-50.3	14.8	0.00e+00	0	28	0	1559232512	64	4135
2026-01-14 23:10:01.02	130.07	28.22	-49.0	-50.2	14.8	0.00e+00	0	28	0	1562378240	64	4093
2026-01-14 23:10:02.02	130.34	28.12	-49.1	-50.3	14.8	0.00e+00	0	28	0	1565523968	64	4101
2026-01-14 23:10:03.02	130.60	28.02	-49.0	-50.2	14.8	0.00e+00	0	28	0	1568669696	64	4071
2026-01-14 23:10:04.02	130.86	27.91	-49.1	-50.3	14.8	0.00e+00	0	28	0	1571815424	64	4101
2026-01-14 23:10:05.03	131.12	27.81	-49.2	-50.4	14.7	0.00e+00	0	28	0	1574961152	64	4159
2026-01-14 23:10:06.02	131.37	27.70	-49.3	-50.6	14.6	0.00e+00	0	28	0	1578106880	64	4264
2026-01-14 23:10:07.04	131.63	27.59	-49.4	-50.6	14.6	0.00e+00	0	28	0	1581252608	64	4286
2026-01-14 23:10:08.03	131.89	27.49	-49.3	-50.5	14.7	0.00e+00	0	28	0	1584398336	64	4236
2026-01-14 23:10:09.04	132.14	27.38	-49.2	-50.5	14.7	0.00e+00	0	28	0	1587544064	64	4199
2026-01-14 23:10:10.03	132.39	27.28	-49.0	-50.2	14.8	0.00e+00	0	28	0	1590689792	64	4090
2026-01-14 23:10:11.03	132.64	27.17	-49.1	-50.3	14.8	0.00e+00	0	28	0	1593835520	64	4115
2026-01-14 23:10:12.04	132.89	27.07	-49.1	-50.4	14.7	0.00e+00	0	28	0	1596981248	64	4150
2026-01-14 23:10:13.04	133.13	26.96	-49.1	-50.3	14.8	0.00e+00	0	29	0	1600126976	64	4129
2026-01-14 23:10:14.05	133.38	26.85	-49.1	-50.3	14.7	0.00e+00	0	28	0	1603272704	64	4138
2026-01-14 23:10:15.05	133.62	26.75	-49.0	-50.2	14.8	0.00e+00	0	28	0	1606418432	64	4090
2026-01-14 23:10:16.05	133.86	26.64	-49.1	-50.3	14.8	0.00e+00	0	29	0	1609564160	64	4122
2026-01-14 23:10:17.06	134.10	26.53	-49.0	-50.2	14.8	0.00e+00	0	28	0	1612709888	64	4098
2026-01-14 23:10:18.06	134.34	26.42	-49.1	-50.3	14.8	0.00e+00	0	28	0	1615855616	64	4124
2026-01-14 23:10:19.06	134.57	26.32	-49.1	-50.3	14.8	0.00e+00	0	28	0	1619001344	64	4127
2026-01-14 23:10:20.06	134.81	26.21	-49.1	-50.3	14.8	0.00e+00	0	28	0	1622147072	64	4128
2026-01-14 23:10:21.06	135.04	26.10	-49.1	-50.3	14.8	0.00e+00	0	28	0	1625292800	64	4104
2026-01-14 23:10:22.06	135.27	26.00	-49.0	-50.2	14.8	0.00e+00	0	28	0	1628438528	64	4058
2026-01-14 23:10:23.07	135.50	25.89	-48.9	-50.1	14.8	0.00e+00	0	28	0	1631584256	64	4046
2026-01-14 23:10:24.06	135.73	25.78	-48.9	-50.1	14.8	0.00e+00	0	28	0	1634729984	64	4019
2026-01-14 23:10:25.06	135.96	25.68	-48.9	-50.1	14.8	0.00e+00	0	28	0	1637875712	64	4036
2026-01-14 23:10:26.05	136.18	25.57	-49.1	-50.3	14.7	0.00e+00	0	28	0	1641021440	64	4108
2026-01-14 23:10:27.05	136.40	25.46	-49.1	-50.3	14.7	0.00e+00	0	28	0	1644167168	64	4134
2026-01-14 23:10:28.05	136.63	25.35	-49.2	-50.4	14.7	0.00e+00	0	28	0	1647312896	64	4186
2026-01-14 23:10:29.04	136.84	25.25	-49.2	-50.4	14.7	0.00e+00	0	28	0	1650458624	64	4187
2026-01-14 23:10:30.04	137.06	25.14	-49.2	-50.5	14.7	0.00e+00	0	28	0	1653604352	64	4195
2026-01-14 23:10:31.03	137.28	25.04	-49.2	-50.4	14.7	0.00e+00	0	28	0	1655701504	64	4168
2026-01-14 23:10:32.03	137.50	24.93	-49.2	-50.5	14.7	0.00e+00	0	28	0	1658847232	64	4198
2026-01-14 23:10:33.03	137.71	24.82	-49.2	-50.4	14.7	0.00e+00	0	28	0	1661992960	64	4186
2026-01-14 23:10:34.03	137.93	24.71	-49.2	-50.4	14.7	0.00e+00	0	29	0	1665138688	64	4188
2026-01-14 23:10:35.02	138.14	24.61	-49.1	-50.3	14.8	0.00e+00	0	28	0	1668284416	64	4112
2026-01-14 23:10:36.02	138.35	24.50	-48.9	-50.1	14.8	0.00e+00	0	28	0	1671430144	64	4027
2026-01-14 23:10:37.01	138.55	24.39	-49.0	-50.1	14.8	0.00e+00	0	28	0	1674575872	64	4050
2026-01-14 23:10:38.01	138.76	24.29	-48.9	-50.1	14.8	0.00e+00	0	29	0	1677721600	64	4028
2026-01-14 23:10:39.00	138.97	24.18	-48.9	-50.1	14.8	0.00e+00	0	28	0	1680867328	64	4040
2026-01-14 23:10:40.00	139.17	24.07	-48.9	-50.1	14.8	0.00e+00	0	28	0	1684013056	64	4042
2026-01-14 23:10:41.00	139.38	23.97	-48.9	-50.1	14.8	0.00e+00	0	28	0	1687158784	64	4051
2026-01-14 23:10:41.99	139.58	23.86	-49.0	-50.2	14.8	0.00e+00	0	29	0	1690304512	64	4095
2026-01-14 23:10:43.00	139.78	23.75	-49.0	-50.2	14.8	0.00e+00	0	28	0	1693450240	64	4069
2026-01-14 23:10:44.00	139.98	23.65	-49.0	-50.2	14.8	0.00e+00	0	29	0	1696595968	64	4062
2026-01-14 23:10:45.00	140.18	23.54	-49.0	-50.2	14.8	0.00e+00	0	29	0	1699741696	64	4088
2026-01-14 23:10:46.00	140.38	23.43	-49.1	-50.3	14.7	0.00e+00	0	28	0	1702887424	64	4129
2026-01-14 23:10:47.00	140.57	23.33	-49.1	-50.4	14.7	0.00e+00	0	29	0	1706033152	64	4154
2026-01-14 23:10:48.00	140.77	23.22	-49.0	-50.2	14.8	0.00e+00	0	29	0	1709178880	64	4075
2026-01-14 23:10:48.99	140.96	23.12	-49.1	-50.4	14.7	0.00e+00	0	28	0	1712324608	64	4153
2026-01-14 23:10:49.99	141.15	23.01	-49.2	-50.5	14.7	0.00e+00	0	28	0	1715470336	64	4205
2026-01-14 23:10:50.98	141.34	22.91	-49.2	-50.4	14.7	0.00e+00	0	28	0	1718616064	64	4189
2026-01-14 23:10:51.98	141.53	22.80	-49.1	-50.4	14.7	0.00e+00	0	28	0	1721761792	64	4159
2026-01-14 23:10:52.98	141.72	22.69	-49.2	-50.5	14.7	0.00e+00	0	28	0	1724907520	64	4202
2026-01-14 23:10:53.98	141.90	22.59	-49.2	-50.4	14.7	0.00e+00	0	28	0	1728053248	64	4161
2026-01-14 23:10:54.98	142.09	22.48	-49.2	-50.4	14.7	0.00e+00	0	28	0	1731198976	64	4178
2026-01-14 23:10:55.98	142.28	22.38	-49.3	-50.5	14.6	0.00e+00	0	28	0	1734344704	64	4217
2026-01-14 23:10:56.99	142.46	22.27	-49.3	-50.6	14.6	0.00e+00	0	29	0	1737490432	64	4262
2026-01-14 23:10:57.99	142.64	22.17	-49.5	-50.8	14.6	0.00e+00	0	28	0	1740636160	64	4349
2026-01-14 23:10:58.99	142.82	22.06	-49.4	-50.7	14.6	0.00e+00	0	28	0	1743781888	64	4324
2026-01-14 23:11:00.00	143.01	21.96	-49.5	-50.8	14.6	0.00e+00	0	28	0	1746927616	64	4361
2026-01-14 23:11:00.99	143.18	21.85	-49.5	-50.8	14.6	0.00e+00	0	29	0	1750073344	64	4364
2026-01-14 23:11:01.99	143.36	21.75	-49.6	-50.9	14.5	0.00e+00	0	28	0	1753219072	64	4434
2026-01-14 23:11:02.99	143.54	21.64	-49.6	-50.9	14.5	0.00e+00	0	28	0	1756364800	64	4406
2026-01-14 23:11:03.99	143.71	21.54	-49.6	-50.9	14.5	0.00e+00	0	29	0	1759510528	64	4409
2026-01-14 23:11:04.99	143.89	21.44	-49.5	-50.8	14.5	0.00e+00	0	28	0	1762656256	64	4389
2026-01-14 23:11:06.00	144.06	21.33	-49.6	-50.9	14.5	0.00e+00	0	29	0	1765801984	64	4397
2026-01-14 23:11:06.99	144.23	21.23	-49.5	-50.8	14.5	0.00e+00	0	29	0	1768947712	64	4383
2026-01-14 23:11:07.99	144.40	21.12	-49.6	-50.8	14.5	0.00e+00	0	28	0	1772093440	64	4388
2026-01-14 23:11:08.99	144.57	21.02	-49.5	-50.8	14.5	0.00e+00	0	28	0	1775239168	64	4368
2026-01-14 23:11:09.99	144.74	20.92	-49.5	-50.8	14.5	0.00e+00	0	28	0	1778384896	64	4366
2026-01-14 23:11:10.98	144.91	20.82	-49.4	-50.6	14.6	0.00e+00	0	28	0	1780482048	64	4276
2026-01-14 23:11:11.98	145.07	20.71	-49.3	-50.6	14.6	0.00e+00	0	28	0	1783627776	64	4243
2026-01-14 23:11:12.98	145.24	20.61	-49.5	-50.7	14.6	0.00e+00	0	28	0	1786773504	64	4328
2026-01-14 23:11:13.98	145.40	20.51	-49.5	-50.8	14.5	0.00e+00	0	28	0	1789919232	64	4353
2026-01-14 23:11:14.98	145.57	20.41	-49.5	-50.8	14.5	0.00e+00	0	28	0	1793064960	64	4376
2026-01-14 23:11:15.98	145.73	20.30	-49.3	-50.6	14.6	0.00e+00	0	28	0	1796210688	64	4249
2026-01-14 23:11:16.98	145.89	20.20	-49.3	-50.5	14.6	0.00e+00	0	28	0	1799356416	64	4240
2026-01-14 23:11:17.97	146.05	20.10	-49.4	-50.6	14.6	0.00e+00	0	28	0	1802502144	64	4285
2026-01-14 23:11:18.97	146.21	20.00	-49.2	-50.5	14.6	0.00e+00	0	28	0	1805647872	64	4207
2026-01-14 23:11:19.96	146.36	19.90	-49.3	-50.5	14.6	0.00e+00	0	28	0	1808793600	64	4240
2026-01-14 23:11:20.96	146.52	19.80	-49.2	-50.4	14.7	0.00e+00	0	28	0	1811939328	64	4184
2026-01-14 23:11:21.96	146.68	19.70	-49.2	-50.4	14.7	0.00e+00	0	28	0	1815085056	64	4165
2026-01-14 23:11:22.96	146.83	19.60	-49.2	-50.5	14.6	0.00e+00	0	28	0	1818230784	64	4215
2026-01-14 23:11:23.96	146.99	19.50	-49.3	-50.6	14.6	0.00e+00	0	28	0	1821376512	64	4250
2026-01-14 23:11:24.96	147.14	19.40	-49.2	-50.5	14.6	0.00e+00	0	28	0	1824522240	64	4217
2026-01-14 23:11:25.96	147.29	19.30	-49.4	-50.6	14.6	0.00e+00	0	28	0	1827667968	64	4283
2026-01-14 23:11:26.96	147.44	19.20	-49.3	-50.6	14.6	0.00e+00	0	28	0	1830813696	64	4265
2026-01-14 23:11:27.96	147.59	19.10	-49.3	-50.6	14.6	0.00e+00	0	28	0	1833959424	64	4245
2026-01-14 23:11:28.95	147.74	19.00	-49.3	-50.5	14.6	0.00e+00	0	28	0	1837105152	64	4219
2026-01-14 23:11:29.95	147.89	18.90	-49.3	-50.5	14.6	0.00e+00	0	28	0	1840250880	64	4220
2026-01-14 23:11:30.94	148.04	18.80	-49.1	-50.4	14.7	0.00e+00	0	28	0	1843396608	64	4152
2026-01-14 23:11:31.95	148.19	18.70	-49.0	-50.2	14.7	0.00e+00	0	28	0	1846542336	64	4084
2026-01-14 23:11:32.95	148.33	18.60	-49.1	-50.3	14.7	0.00e+00	0	29	0	1849688064	64	4124
2026-01-14 23:11:33.95	148.48	18.51	-49.1	-50.3	14.7	0.00e+00	0	28	0	1852833792	64	4131
2026-01-14 23:11:34.94	148.62	18.41	-49.1	-50.3	14.7	0.00e+00	0	28	0	1855979520	64	4114
2026-01-14 23:11:35.94	148.76	18.31	-49.1	-50.3	14.7	0.00e+00	0	28	0	1859125248	64	4143
2026-01-14 23:11:36.93	148.90	18.21	-49.2	-50.4	14.6	0.00e+00	0	28	0	1862270976	64	4193
2026-01-14 23:11:37.94	149.04	18.12	-49.1	-50.3	14.7	0.00e+00	0	28	0	1865416704	64	4112
2026-01-14 23:11:38.93	149.18	18.02	-49.0	-50.2	14.7	0.00e+00	0	28	0	1868562432	64	4097
2026-01-14 23:11:39.93	149.32	17.92	-49.0	-50.2	14.7	0.00e+00	0	28	0	1871708160	64	4077
2026-01-14 23:11:40.93	149.46	17.83	-49.0	-50.2	14.8	0.00e+00	0	28	0	1874853888	64	4052
2026-01-14 23:11:41.93	149.60	17.73	-49.0	-50.2	14.7	0.00e+00	0	28	0	1877999616	64	4092
2026-01-14 23:11:42.93	149.74	17.63	-49.1	-50.3	14.7	0.00e+00	0	28	0	1881145344	64	4128
2026-01-14 23:11:43.93	149.87	17.54	-49.3	-50.5	14.6	0.00e+00	0	28	0	1884291072	64	4231
2026-01-14 23:11:44.93	150.01	17.44	-49.4	-50.6	14.6	0.00e+00	0	28	0	1887436800	64	4282
2026-01-14 23:11:45.92	150.14	17.35	-49.4	-50.7	14.6	0.00e+00	0	28	0	1890582528	64	4331
2026-01-14 23:11:46.92	150.27	17.25	-49.6	-50.9	14.5	0.00e+00	0	29	0	1893728256	64	4436
2026-01-14 23:11:47.92	150.41	17.16	-49.5	-50.8	14.5	0.00e+00	0	28	0	1896873984	64	4385
2026-01-14 23:11:48.91	150.54	17.06	-49.7	-51.0	14.5	0.00e+00	0	29	0	1900019712	64	4467
2026-01-14 23:11:49.92	150.67	16.97	-49.6	-50.9	14.5	0.00e+00	0	28	0	1903165440	64	4433
2026-01-14 23:11:50.91	150.80	16.87	-49.6	-50.9	14.5	0.00e+00	0	28	0	1905262592	64	4404
2026-01-14 23:11:51.92	150.93	16.78	-49.6	-50.9	14.5	0.00e+00	0	28	0	1908408320	64	4400
2026-01-14 23:11:52.91	151.06	16.68	-49.7	-51.0	14.4	0.00e+00	0	29	0	1911554048	64	4459
2026-01-14 23:11:53.91	151.19	16.59	-49.7	-51.0	14.4	0.00e+00	0	28	0	1914699776	64	4493
2026-01-14 23:11:54.90	151.31	16.50	-49.8	-51.1	14.4	0.00e+00	0	28	0	1917845504	64	4521
2026-01-14 23:11:55.90	151.44	16.40	-49.7	-51.0	14.4	0.00e+00	0	28	0	1920991232	64	4493
2026-01-14 23:11:56.90	151.57	16.31	-49.7	-51.0	14.4	0.00e+00	0	28	0	1924136960	64	4465
2026-01-14 23:11:57.90	151.69	16.22	-49.7	-51.0	14.4	0.00e+00	0	29	0	1927282688	64	4467
2026-01-14 23:11:58.90	151.81	16.12	-49.8	-51.1	14.4	0.00e+00	0	28	0	1930428416	64	4517
2026-01-14 23:11:59.90	151.94	16.03	-49.9	-51.2	14.4	0.00e+00	0	28	0	1933574144	64	4598
2026-01-14 23:12:00.89	152.06	15.94	-50.0	-51.3	14.4	0.00e+00	0	28	0	1936719872	65	4377
2026-01-14 23:12:01.89	152.18	15.85	-50.1	-51.4	14.4	0.00e+00	0	28	0	1939865600	65	4434
2026-01-14 23:12:02.89	152.30	15.76	-49.9	-51.2	14.4	0.00e+00	0	28	0	1943011328	65	4340
2026-01-14 23:12:03.90	152.43	15.66	-49.9	-51.2	14.4	0.00e+00	0	28	0	1946157056	65	4332
2026-01-14 23:12:04.90	152.55	15.57	-50.1	-51.4	14.4	0.00e+00	0	28	0	1949302784	65	4419
2026-01-14 23:12:05.90	152.66	15.48	-50.1	-51.5	14.4	0.00e+00	0	28	0	1952448512	65	4448
2026-01-14 23:12:06.91	152.78	15.39	-50.0	-51.4	14.4	0.00e+00	0	28	0	1955594240	65	4412
2026-01-14 23:12:07.90	152.90	15.30	-50.0	-51.4	14.4	0.00e+00	0	28	0	1958739968	65	4418
2026-01-14 23:12:08.90	153.02	15.21	-49.9	-51.2	14.4	0.00e+00	0	28	0	1961885696	65	4328
2026-01-14 23:12:09.90	153.14	15.12	-49.8	-51.2	14.5	0.00e+00	0	28	0	1965031424	65	4306
2026-01-14 23:12:10.90	153.25	15.03	-50.1	-51.4	14.4	0.00e+00	0	29	0	1968177152	65	4438
2026-01-14 23:12:11.89	153.37	14.94	-50.2	-51.6	14.3	0.00e+00	0	28	0	1971322880	65	4511
2026-01-14 23:12:12.89	153.48	14.85	-50.3	-51.7	14.3	0.00e+00	0	28	0	1974468608	65	4551
2026-01-14 23:12:13.89	153.59	14.76	-50.2	-51.5	14.3	0.00e+00	0	28	0	1977614336	65	4490
2026-01-14 23:12:14.89	153.71	14.67	-50.2	-51.6	14.3	0.00e+00	0	28	0	1980760064	65	4514
2026-01-14 23:12:15.90	153.82	14.58	-50.3	-51.7	14.3	0.00e+00	0	28	0	1983905792	65	4576
2026-01-14 23:12:16.90	153.93	14.49	-50.3	-51.7	14.3	0.00e+00	0	28	0	1987051520	65	4547
2026-01-14 23:12:17.89	154.04	14.41	-50.3	-51.7	14.3	0.00e+00	0	28	0	1990197248	65	4579
2026-01-14 23:12:18.89	154.15	14.32	-50.3	-51.7	14.2	0.00e+00	0	28	0	1993342976	65	4579
2026-01-14 23:12:19.89	154.26	14.23	-50.4	-51.8	14.3	0.00e+00	0	28	0	1996488704	66	4381
2026-01-14 23:12:20.89	154.37	14.14	-50.3	-51.7	14.3	0.00e+00	0	28	0	1999634432	66	4334
2026-01-14 23:12:21.89	154.48	14.06	-50.3	-51.7	14.4	0.00e+00	0	29	0	2002780160	66	4297
2026-01-14 23:12:22.88	154.59	13.97	-50.3	-51.7	14.4	0.00e+00	0	28	0	2005925888	66	4312
2026-01-14 23:12:23.89	154.70	13.88	-50.3	-51.7	14.3	0.00e+00	0	28	0	2009071616	66	4314
2026-01-14 23:12:24.89	154.80	13.79	-50.3	-51.7	14.3	0.00e+00	0	28	0	2012217344	66	4331
2026-01-14 23:12:25.89	154.91	13.71	-50.2	-51.5	14.4	0.00e+00	0	28	0	2015363072	66	4236
2026-01-14 23:12:26.89	155.02	13.62	-50.2	-51.6	14.4	0.00e+00	0	28	0	2018508800	66	4257
2026-01-14 23:12:27.89	155.12	13.54	-50.3	-51.6	14.4	0.00e+00	0	28	0	2021654528	66	4289
2026-01-14 23:12:28.89	155.23	13.45	-50.2	-51.6	14.4	0.00e+00	0	29	0	2024800256	66	4249
2026-01-14 23:12:29.89	155.33	13.36	-50.1	-51.5	14.4	0.00e+00	0	28	0	2027945984	66	4227
2026-01-14 23:12:30.89	155.43	13.28	-50.1	-51.5	14.4	0.00e+00	0	28	0	2031091712	66	4212
2026-01-14 23:12:31.89	155.54	13.19	-50.0	-51.4	14.5	0.00e+00	0	28	0	2034237440	66	4154
2026-01-14 23:12:32.89	155.64	13.11	-50.0	-51.4	14.5	0.00e+00	0	28	0	2037383168	66	4151
2026-01-14 23:12:33.89	155.74	13.02	-50.3	-51.6	14.4	0.00e+00	0	28	0	2040528896	66	4289
2026-01-14 23:12:34.89	155.84	12.94	-50.2	-51.6	14.4	0.00e+00	0	28	0	2043674624	66	4265
2026-01-14 23:12:35.88	155.94	12.85	-50.1	-51.5	14.4	0.00e+00	0	28	0	2045771776	66	4233
2026-01-14 23:12:36.88	156.04	12.77	-50.2	-51.6	14.4	0.00e+00	0	29	0	2048917504	66	4272
2026-01-14 23:12:37.87	156.14	12.69	-50.1	-51.5	14.4	0.00e+00	0	28	0	2052063232	66	4226
2026-01-14 23:12:38.87	156.24	12.60	-50.2	-51.6	14.4	0.00e+00	0	28	0	2055208960	66	4260
2026-01-14 23:12:39.88	156.34	12.52	-50.1	-51.5	14.4	0.00e+00	0	28	0	2058354688	66	4204
2026-01-14 23:12:40.88	156.44	12.44	-50.1	-51.5	14.4	0.00e+00	0	29	0	2061500416	66	4206
2026-01-14 23:12:41.88	156.54	12.35	-50.2	-51.6	14.4	0.00e+00	0	28	0	2064646144	66	4270
2026-01-14 23:12:42.88	156.63	12.27	-50.3	-51.7	14.3	0.00e+00	0	28	0	2067791872	66	4322
2026-01-14 23:12:43.89	156.73	12.19	-50.3	-51.7	14.3	0.00e+00	0	29	0	2070937600	66	4306
