passes_logs/2026/01/14/R3.2S_Murmansk/R3.2S_Murmansk__20260114_215028_SUOMI_NPP_rec.log

#Pass ID: 20260114_215028_SUOMI NPP
#Satellite: SUOMI NPP
#Configuration: NPP
#almurnet v.1.7.20251203
#Start time: 2026-01-14 21:50:29

#Version: 2.2.20231116
#Station: R3.2S_Murmansk
#Location: 33.079688 lon 68.888172 lat
#TLE: 1 37849U 11061A   26014.61059675  .00000037  00000+0  38639-4 0  9994
#TLE: 2 37849  98.7810 316.6625 0002460  64.3781 295.7649 14.19525105736658

#Time	Az	El	Level	Level2	SNR	BER	BlckErr	Temp	State	Recorded	gain1	gain2
2026-01-14 21:50:29.45	18.53	2.04	-58.2	-74.1	3.8	1.49e+00	0	27	0	0	82	22588
2026-01-14 21:50:30.45	18.61	2.09	-58.2	-74.0	3.8	1.49e+00	0	27	104	0	81	23722
2026-01-14 21:50:31.46	18.70	2.14	-58.2	-74.0	3.8	1.49e+00	0	27	104	0	81	23739
2026-01-14 21:50:32.46	18.78	2.19	-58.2	-73.9	3.8	1.49e+00	0	27	104	0	81	23578
2026-01-14 21:50:33.46	18.87	2.24	-58.2	-74.1	3.8	1.49e+00	0	27	104	0	81	23971
2026-01-14 21:50:34.46	18.96	2.29	-58.2	-74.1	3.8	1.49e+00	0	27	104	0	81	23994
2026-01-14 21:50:35.46	19.05	2.34	-58.2	-74.1	3.8	1.49e+00	0	27	104	0	81	24028
2026-01-14 21:50:36.46	19.13	2.39	-58.2	-74.1	3.8	1.49e+00	0	27	104	0	81	24126
2026-01-14 21:50:37.46	19.22	2.44	-58.2	-74.2	3.8	1.49e+00	0	27	104	0	81	24162
2026-01-14 21:50:38.46	19.31	2.49	-58.2	-74.1	3.8	1.49e+00	0	27	104	0	81	24071
2026-01-14 21:50:39.47	19.40	2.54	-58.2	-74.2	3.8	1.49e+00	0	26	104	0	81	24134
2026-01-14 21:50:40.47	19.49	2.59	-58.2	-74.1	3.8	1.49e+00	0	27	104	0	81	23923
2026-01-14 21:50:41.47	19.58	2.64	-58.2	-74.1	3.8	1.49e+00	0	27	104	0	81	24074
2026-01-14 21:50:42.47	19.67	2.69	-58.2	-74.0	3.8	1.49e+00	0	27	104	0	81	23759
2026-01-14 21:50:43.47	19.76	2.74	-58.2	-73.9	3.8	1.49e+00	0	27	104	0	81	23565
2026-01-14 21:50:44.47	19.84	2.79	-58.2	-74.0	3.8	1.49e+00	0	27	104	0	81	23692
2026-01-14 21:50:45.46	19.93	2.84	-58.2	-74.0	3.8	1.49e+00	0	27	104	0	81	23746
2026-01-14 21:50:46.46	20.02	2.89	-58.2	-73.9	3.8	1.49e+00	0	27	104	0	81	23571
2026-01-14 21:50:47.46	20.12	2.94	-58.2	-74.1	3.8	1.49e+00	0	27	104	0	81	23899
2026-01-14 21:50:48.46	20.21	2.99	-58.2	-74.1	3.8	1.49e+00	0	27	104	0	81	24083
2026-01-14 21:50:49.46	20.30	3.04	-58.2	-74.2	3.8	1.49e+00	0	27	104	0	81	24169
2026-01-14 21:50:50.46	20.39	3.09	-58.2	-74.2	3.8	1.49e+00	0	27	104	0	81	24273
2026-01-14 21:50:51.46	20.48	3.14	-58.2	-74.2	3.8	1.49e+00	0	27	104	0	81	24273
2026-01-14 21:50:52.45	20.57	3.19	-58.2	-74.2	3.8	1.49e+00	0	27	104	0	81	24213
2026-01-14 21:50:53.46	20.67	3.24	-58.2	-74.2	3.8	1.49e+00	0	27	104	0	81	24268
2026-01-14 21:50:54.47	20.76	3.29	-58.2	-74.2	3.8	1.49e+00	0	27	104	0	81	24244
2026-01-14 21:50:55.46	20.85	3.34	-58.2	-74.2	3.8	1.49e+00	0	27	104	0	81	24321
2026-01-14 21:50:56.47	20.95	3.40	-58.2	-74.2	3.8	1.49e+00	0	27	104	0	81	24332
2026-01-14 21:50:57.48	21.04	3.45	-58.2	-74.1	3.8	1.49e+00	0	27	104	0	81	24026
2026-01-14 21:50:58.47	21.13	3.50	-58.2	-74.0	3.8	1.49e+00	0	27	104	0	81	23697
2026-01-14 21:50:59.48	21.23	3.55	-58.2	-73.9	3.8	1.49e+00	0	27	104	0	81	23315
2026-01-14 21:51:00.47	21.32	3.60	-58.2	-73.8	3.8	1.49e+00	0	27	104	0	81	23158
2026-01-14 21:51:01.48	21.42	3.65	-58.2	-73.6	3.8	1.49e+00	0	27	104	0	81	22657
2026-01-14 21:51:02.48	21.51	3.70	-58.2	-73.8	3.8	1.49e+00	0	27	104	0	81	23243
2026-01-14 21:51:03.48	21.61	3.75	-58.2	-74.0	3.8	1.49e+00	0	27	104	0	81	23673
2026-01-14 21:51:04.49	21.71	3.80	-58.2	-74.0	3.8	1.49e+00	0	27	104	0	81	23792
2026-01-14 21:51:05.49	21.80	3.85	-58.2	-73.9	3.8	1.49e+00	0	27	104	0	81	23460
2026-01-14 21:51:06.50	21.90	3.90	-58.2	-73.6	3.8	1.49e+00	0	27	104	0	81	22682
2026-01-14 21:51:07.49	22.00	3.96	-58.2	-73.2	3.8	1.49e+00	0	27	104	0	81	21716
2026-01-14 21:51:08.49	22.09	4.01	-58.2	-73.1	3.8	1.49e+00	0	27	104	0	81	21291
2026-01-14 21:51:09.49	22.19	4.06	-58.2	-72.9	3.8	1.49e+00	0	27	104	0	81	20780
2026-01-14 21:51:10.49	22.29	4.11	-58.2	-72.7	3.8	1.49e+00	0	27	104	0	81	20453
2026-01-14 21:51:11.49	22.39	4.16	-58.2	-72.9	3.8	1.49e+00	0	27	104	0	81	20809
2026-01-14 21:51:12.49	22.48	4.21	-58.2	-72.6	3.8	1.49e+00	0	27	104	0	81	20092
2026-01-14 21:51:13.49	22.58	4.26	-58.1	-71.9	3.8	1.49e+00	0	27	104	0	81	18537
2026-01-14 21:51:14.50	22.68	4.31	-58.0	-70.0	4.4	1.44e+00	58	27	0	0	81	14983
2026-01-14 21:51:15.49	22.78	4.36	-57.8	-67.7	5.4	8.97e-01	0	27	0	1048576	81	11536
2026-01-14 21:51:16.50	22.88	4.42	-57.6	-66.3	6.3	3.15e-01	0	27	0	3145728	81	9794
2026-01-14 21:51:17.50	22.98	4.47	-57.1	-63.9	8.3	9.18e-02	0	28	0	5242880	80	7811
2026-01-14 21:51:18.51	23.08	4.52	-56.7	-62.2	9.7	1.08e-02	0	27	0	7340032	79	6836
2026-01-14 21:51:19.51	23.18	4.57	-56.4	-61.5	10.3	1.11e-03	0	27	0	8388608	79	6327
2026-01-14 21:51:20.51	23.29	4.62	-56.3	-61.1	10.6	3.93e-04	0	27	0	10485760	79	6013
2026-01-14 21:51:21.51	23.39	4.67	-56.1	-60.7	10.8	2.40e-04	0	27	0	12582912	78	6099
2026-01-14 21:51:22.51	23.49	4.72	-56.5	-61.7	10.1	6.69e-04	0	27	0	14680064	78	6855
2026-01-14 21:51:23.51	23.59	4.78	-56.4	-61.4	10.3	1.73e-03	0	28	0	16777216	78	6595
2026-01-14 21:51:24.52	23.69	4.83	-56.6	-62.1	9.8	1.13e-03	0	28	0	17825792	78	7140
2026-01-14 21:51:25.52	23.80	4.88	-56.9	-63.0	9.0	4.78e-03	0	27	0	19922944	78	7981
2026-01-14 21:51:26.51	23.90	4.93	-57.1	-63.8	8.4	1.99e-02	0	28	0	22020096	79	8188
2026-01-14 21:51:27.51	24.00	4.98	-57.3	-64.8	7.5	4.37e-02	0	28	0	24117248	79	9190
2026-01-14 21:51:28.51	24.11	5.03	-57.0	-63.3	8.7	8.78e-02	0	28	0	26214400	80	7358
2026-01-14 21:51:29.52	24.21	5.09	-57.6	-66.4	6.3	3.42e-02	0	28	0	27262976	80	10494
2026-01-14 21:51:30.52	24.32	5.14	-57.3	-64.6	7.5	1.45e+00	0	28	104	28311552	80	8496
2026-01-14 21:51:31.52	24.42	5.19	-56.3	-60.9	10.7	1.78e-02	0	28	0	29360128	79	5904
2026-01-14 21:51:32.52	24.53	5.24	-57.3	-64.1	8.6	2.27e-03	0	28	0	31457280	79	8470
2026-01-14 21:51:33.51	24.63	5.29	-57.4	-64.3	7.8	4.39e-01	0	28	0	33554432	81	7732
2026-01-14 21:51:34.50	24.74	5.34	-55.1	-58.3	12.5	0.00e+00	0	28	0	34603008	76	5210
2026-01-14 21:51:35.50	24.84	5.40	-54.9	-58.1	12.7	0.00e+00	0	28	0	36700160	76	5072
2026-01-14 21:51:36.49	24.95	5.45	-54.8	-57.9	12.8	0.00e+00	0	28	0	38797312	76	4981
2026-01-14 21:51:37.49	25.05	5.50	-54.8	-57.9	12.9	0.00e+00	0	28	0	40894464	76	4938
2026-01-14 21:51:38.48	25.16	5.55	-54.7	-57.7	13.0	0.00e+00	0	28	0	41943040	76	4828
2026-01-14 21:51:39.48	25.27	5.60	-53.8	-56.4	13.5	0.00e+00	0	28	0	44040192	74	4667
2026-01-14 21:51:40.48	25.38	5.65	-54.4	-57.3	13.0	0.00e+00	0	28	0	46137344	74	5177
2026-01-14 21:51:41.48	25.48	5.71	-54.9	-58.0	12.6	0.00e+00	0	28	0	48234496	75	5323
2026-01-14 21:51:42.47	25.59	5.76	-54.3	-57.0	13.3	0.00e+00	0	28	0	50331648	75	4732
2026-01-14 21:51:43.47	25.70	5.81	-54.3	-57.0	13.3	0.00e+00	0	28	0	51380224	75	4749
2026-01-14 21:51:44.47	25.81	5.86	-54.3	-57.1	13.2	0.00e+00	0	28	0	53477376	75	4795
2026-01-14 21:51:45.46	25.92	5.91	-54.4	-57.2	13.2	0.00e+00	0	28	0	55574528	75	4860
2026-01-14 21:51:46.46	26.03	5.96	-54.4	-57.2	13.2	0.00e+00	0	28	0	57671680	75	4854
2026-01-14 21:51:47.45	26.14	6.02	-54.5	-57.3	13.2	0.00e+00	0	28	0	59768832	75	4895
2026-01-14 21:51:48.46	26.25	6.07	-54.4	-57.1	13.2	0.00e+00	0	28	0	60817408	75	4804
2026-01-14 21:51:49.45	26.36	6.12	-54.3	-57.1	13.3	0.00e+00	0	28	0	62914560	75	4762
2026-01-14 21:51:50.45	26.47	6.17	-54.1	-56.7	13.4	0.00e+00	0	28	0	65011712	74	4838
2026-01-14 21:51:51.46	26.59	6.22	-54.1	-56.7	13.4	0.00e+00	0	28	0	67108864	74	4821
2026-01-14 21:51:52.45	26.70	6.28	-54.1	-56.7	13.4	0.00e+00	0	28	0	68157440	74	4831
2026-01-14 21:51:53.44	26.81	6.33	-54.0	-56.6	13.5	0.00e+00	0	28	0	70254592	74	4768
2026-01-14 21:51:54.44	26.92	6.38	-54.3	-57.1	13.2	0.00e+00	0	28	0	72351744	74	5062
2026-01-14 21:51:55.44	27.04	6.43	-54.1	-56.7	13.4	0.00e+00	0	28	0	74448896	74	4843
2026-01-14 21:51:56.44	27.15	6.48	-53.9	-56.5	13.5	0.00e+00	0	28	0	76546048	74	4706
2026-01-14 21:51:57.43	27.27	6.54	-53.9	-56.4	13.6	0.00e+00	0	28	0	77594624	74	4663
2026-01-14 21:51:58.44	27.38	6.59	-54.1	-56.6	13.5	0.00e+00	0	28	0	79691776	74	4807
2026-01-14 21:51:59.44	27.50	6.64	-54.0	-56.5	13.5	0.00e+00	0	28	0	81788928	74	4757
2026-01-14 21:52:00.44	27.61	6.69	-53.7	-56.1	13.8	0.00e+00	0	28	0	83886080	74	4509
2026-01-14 21:52:01.44	27.73	6.74	-53.7	-56.1	13.8	0.00e+00	0	28	0	84934656	74	4527
2026-01-14 21:52:02.44	27.85	6.80	-53.9	-56.3	13.7	0.00e+00	0	28	0	87031808	74	4638
2026-01-14 21:52:03.43	27.96	6.85	-53.5	-55.8	13.8	0.00e+00	0	28	0	89128960	73	4633
2026-01-14 21:52:04.43	28.08	6.90	-53.7	-56.0	13.7	0.00e+00	0	28	0	91226112	73	4754
2026-01-14 21:52:05.43	28.20	6.95	-53.7	-56.0	13.7	0.00e+00	0	28	0	93323264	73	4759
2026-01-14 21:52:06.42	28.31	7.00	-53.4	-55.7	13.9	0.00e+00	0	28	0	94371840	73	4567
2026-01-14 21:52:07.43	28.43	7.06	-53.4	-55.6	13.9	0.00e+00	0	28	0	96468992	73	4519
2026-01-14 21:52:08.43	28.55	7.11	-53.6	-55.9	13.8	0.00e+00	0	28	0	98566144	73	4693
2026-01-14 21:52:09.43	28.67	7.16	-53.4	-55.6	13.9	0.00e+00	0	28	0	100663296	73	4523
2026-01-14 21:52:10.43	28.79	7.21	-53.4	-55.7	13.9	0.00e+00	0	28	0	102760448	73	4576
2026-01-14 21:52:11.43	28.91	7.27	-53.4	-55.6	13.9	0.00e+00	0	28	0	103809024	73	4541
2026-01-14 21:52:12.43	29.03	7.32	-53.4	-55.7	13.9	0.00e+00	0	28	0	105906176	73	4550
2026-01-14 21:52:13.43	29.15	7.37	-53.6	-55.9	13.8	0.00e+00	0	28	0	108003328	73	4657
2026-01-14 21:52:14.42	29.27	7.42	-53.7	-56.0	13.7	0.00e+00	0	28	0	110100480	73	4740
2026-01-14 21:52:15.43	29.40	7.48	-53.6	-56.0	13.8	0.00e+00	0	28	0	112197632	73	4707
2026-01-14 21:52:16.43	29.52	7.53	-53.7	-56.1	13.7	0.00e+00	0	28	0	113246208	73	4786
2026-01-14 21:52:17.42	29.64	7.58	-53.6	-55.9	13.8	0.00e+00	0	28	0	115343360	73	4678
2026-01-14 21:52:18.41	29.76	7.63	-53.6	-56.0	13.8	0.00e+00	0	28	0	117440512	73	4716
2026-01-14 21:52:19.41	29.88	7.68	-53.6	-55.9	13.8	0.00e+00	0	28	0	119537664	73	4705
2026-01-14 21:52:20.40	30.01	7.74	-53.7	-56.1	13.7	0.00e+00	0	28	0	120586240	73	4778
2026-01-14 21:52:21.40	30.13	7.79	-53.7	-56.0	13.8	0.00e+00	0	28	0	122683392	73	4737
2026-01-14 21:52:22.40	30.26	7.84	-53.6	-56.0	13.8	0.00e+00	0	28	0	124780544	73	4717
2026-01-14 21:52:23.39	30.38	7.89	-53.7	-56.0	13.8	0.00e+00	0	28	0	126877696	73	4741
2026-01-14 21:52:24.39	30.51	7.94	-53.6	-56.0	13.8	0.00e+00	0	28	0	128974848	73	4707
2026-01-14 21:52:25.39	30.63	8.00	-53.8	-56.2	13.6	0.00e+00	0	28	0	130023424	73	4855
2026-01-14 21:52:26.40	30.76	8.05	-53.9	-56.3	13.6	0.00e+00	0	28	0	132120576	73	4917
2026-01-14 21:52:27.39	30.88	8.10	-53.7	-56.1	13.7	0.00e+00	0	28	0	134217728	73	4777
2026-01-14 21:52:28.39	31.01	8.15	-54.0	-56.4	13.6	0.00e+00	0	28	0	136314880	73	4966
2026-01-14 21:52:29.40	31.14	8.21	-54.0	-56.5	13.5	0.00e+00	0	28	0	138412032	73	5000
2026-01-14 21:52:30.40	31.27	8.26	-54.0	-56.4	13.6	0.00e+00	0	28	0	139460608	73	4952
2026-01-14 21:52:31.40	31.40	8.31	-53.9	-56.3	13.6	0.00e+00	0	28	0	141557760	73	4891
2026-01-14 21:52:32.40	31.53	8.36	-54.0	-56.4	13.6	0.00e+00	0	28	0	143654912	73	4973
2026-01-14 21:52:33.40	31.66	8.41	-53.8	-56.1	13.7	0.00e+00	0	28	0	145752064	73	4805
2026-01-14 21:52:34.40	31.79	8.47	-53.9	-56.2	13.7	0.00e+00	0	28	0	146800640	73	4860
2026-01-14 21:52:35.39	31.92	8.52	-53.9	-56.3	13.6	0.00e+00	0	28	0	148897792	73	4913
2026-01-14 21:52:36.39	32.05	8.57	-53.8	-56.2	13.7	0.00e+00	0	28	0	150994944	73	4821
2026-01-14 21:52:37.39	32.18	8.62	-54.0	-56.4	13.6	0.00e+00	0	28	0	153092096	73	4957
2026-01-14 21:52:38.39	32.31	8.67	-54.0	-56.4	13.6	0.00e+00	0	28	0	155189248	73	4941
2026-01-14 21:52:39.39	32.44	8.73	-54.0	-56.5	13.5	0.00e+00	0	28	0	156237824	73	4998
2026-01-14 21:52:40.38	32.57	8.78	-54.0	-56.4	13.6	0.00e+00	0	28	0	158334976	73	4948
2026-01-14 21:52:41.38	32.71	8.83	-54.2	-56.7	13.4	0.00e+00	0	28	0	160432128	73	5121
2026-01-14 21:52:42.37	32.84	8.88	-53.8	-56.2	13.7	0.00e+00	0	28	0	162529280	73	4869
2026-01-14 21:52:43.37	32.97	8.93	-53.7	-56.0	13.8	0.00e+00	0	28	0	163577856	73	4722
2026-01-14 21:52:44.37	33.11	8.98	-53.7	-56.1	13.8	0.00e+00	0	28	0	165675008	73	4778
2026-01-14 21:52:45.38	33.24	9.04	-53.5	-55.8	13.9	0.00e+00	0	28	0	167772160	73	4609
2026-01-14 21:52:46.38	33.38	9.09	-53.6	-55.8	13.9	0.00e+00	0	28	0	169869312	73	4628
2026-01-14 21:52:47.38	33.52	9.14	-53.5	-55.8	13.9	0.00e+00	0	28	0	171966464	73	4620
2026-01-14 21:52:48.38	33.65	9.19	-53.5	-55.7	14.0	0.00e+00	0	28	0	173015040	73	4563
2026-01-14 21:52:49.39	33.79	9.25	-53.2	-55.3	14.1	0.00e+00	0	28	0	175112192	73	4376
2026-01-14 21:52:50.38	33.93	9.30	-53.2	-55.4	14.0	0.00e+00	0	28	0	177209344	72	4658
2026-01-14 21:52:51.38	34.06	9.35	-53.3	-55.4	14.0	0.00e+00	0	28	0	179306496	72	4685
2026-01-14 21:52:52.38	34.20	9.40	-53.2	-55.4	14.0	0.00e+00	0	28	0	181403648	72	4671
2026-01-14 21:52:53.37	34.34	9.45	-53.4	-55.6	13.9	0.00e+00	0	28	0	182452224	72	4772
2026-01-14 21:52:54.37	34.48	9.50	-53.1	-55.2	14.1	0.00e+00	0	28	0	184549376	72	4591
2026-01-14 21:52:55.37	34.62	9.55	-53.0	-55.1	14.2	0.00e+00	0	28	0	186646528	72	4508
2026-01-14 21:52:56.37	34.76	9.61	-53.0	-55.0	14.2	0.00e+00	0	28	0	188743680	72	4466
2026-01-14 21:52:57.37	34.90	9.66	-52.8	-54.7	14.3	0.00e+00	0	28	0	190840832	72	4322
2026-01-14 21:52:58.36	35.04	9.71	-52.7	-54.7	14.4	0.00e+00	0	28	0	191889408	72	4304
2026-01-14 21:52:59.36	35.18	9.76	-52.4	-54.3	14.4	0.00e+00	0	28	0	193986560	71	4366
2026-01-14 21:53:00.36	35.32	9.81	-52.5	-54.4	14.4	0.00e+00	0	28	0	196083712	71	4409
2026-01-14 21:53:01.35	35.46	9.86	-52.5	-54.3	14.4	0.00e+00	0	28	0	198180864	71	4384
2026-01-14 21:53:02.35	35.61	9.91	-52.5	-54.3	14.4	0.00e+00	0	28	0	199229440	71	4391
2026-01-14 21:53:03.35	35.75	9.96	-52.4	-54.2	14.5	0.00e+00	0	28	0	201326592	71	4335
2026-01-14 21:53:04.35	35.89	10.02	-52.5	-54.4	14.4	0.00e+00	0	28	0	203423744	71	4395
2026-01-14 21:53:05.36	36.04	10.07	-52.6	-54.5	14.3	0.00e+00	0	28	0	205520896	71	4474
2026-01-14 21:53:06.35	36.18	10.12	-52.6	-54.5	14.3	0.00e+00	0	28	0	207618048	71	4461
2026-01-14 21:53:07.35	36.33	10.17	-52.7	-54.7	14.2	0.00e+00	0	28	0	208666624	71	4586
2026-01-14 21:53:08.34	36.47	10.22	-52.7	-54.7	14.2	0.00e+00	0	28	0	210763776	71	4576
2026-01-14 21:53:09.35	36.62	10.27	-52.8	-54.7	14.2	0.00e+00	0	28	0	212860928	71	4591
2026-01-14 21:53:10.34	36.77	10.32	-52.8	-54.8	14.2	0.00e+00	0	28	0	214958080	71	4611
2026-01-14 21:53:11.35	36.92	10.37	-52.8	-54.8	14.2	0.00e+00	0	28	0	217055232	71	4601
2026-01-14 21:53:12.35	37.06	10.42	-52.8	-54.7	14.2	0.00e+00	0	28	0	218103808	71	4588
2026-01-14 21:53:13.34	37.21	10.47	-52.6	-54.5	14.3	0.00e+00	0	28	0	220200960	71	4491
2026-01-14 21:53:14.34	37.36	10.52	-52.7	-54.6	14.3	0.00e+00	0	28	0	222298112	71	4544
2026-01-14 21:53:15.34	37.51	10.57	-52.6	-54.6	14.3	0.00e+00	0	28	0	224395264	71	4513
2026-01-14 21:53:16.33	37.66	10.62	-52.6	-54.5	14.4	0.00e+00	0	28	0	225443840	71	4454
2026-01-14 21:53:17.33	37.81	10.67	-52.6	-54.6	14.3	0.00e+00	0	28	0	227540992	71	4494
2026-01-14 21:53:18.33	37.96	10.72	-52.5	-54.4	14.4	0.00e+00	0	28	0	229638144	71	4432
2026-01-14 21:53:19.33	38.11	10.78	-52.7	-54.6	14.3	0.00e+00	0	28	0	231735296	71	4514
2026-01-14 21:53:20.33	38.26	10.83	-52.7	-54.6	14.3	0.00e+00	0	28	0	233832448	71	4520
2026-01-14 21:53:21.33	38.41	10.88	-52.7	-54.6	14.3	0.00e+00	0	28	0	234881024	71	4544
2026-01-14 21:53:22.32	38.57	10.93	-52.6	-54.6	14.3	0.00e+00	0	28	0	236978176	71	4501
2026-01-14 21:53:23.32	38.72	10.98	-52.7	-54.6	14.3	0.00e+00	0	28	0	239075328	71	4511
2026-01-14 21:53:24.32	38.87	11.03	-52.6	-54.5	14.3	0.00e+00	0	28	0	241172480	71	4485
2026-01-14 21:53:25.31	39.03	11.07	-52.6	-54.5	14.3	0.00e+00	0	28	0	242221056	71	4483
2026-01-14 21:53:26.32	39.18	11.12	-52.7	-54.6	14.3	0.00e+00	0	28	0	244318208	71	4544
2026-01-14 21:53:27.32	39.34	11.17	-52.6	-54.5	14.4	0.00e+00	0	28	0	246415360	71	4463
2026-01-14 21:53:28.32	39.49	11.22	-52.7	-54.6	14.3	0.00e+00	0	28	0	248512512	71	4537
2026-01-14 21:53:29.31	39.65	11.27	-52.8	-54.7	14.2	0.00e+00	0	28	0	250609664	71	4598
2026-01-14 21:53:30.32	39.81	11.32	-52.9	-54.9	14.2	0.00e+00	0	28	0	251658240	71	4669
2026-01-14 21:53:31.32	39.97	11.37	-52.8	-54.7	14.2	0.00e+00	0	28	0	253755392	71	4595
2026-01-14 21:53:32.32	40.12	11.42	-52.9	-54.9	14.2	0.00e+00	0	28	0	255852544	71	4702
2026-01-14 21:53:33.31	40.28	11.47	-52.8	-54.7	14.3	0.00e+00	0	28	0	257949696	71	4567
2026-01-14 21:53:34.31	40.44	11.52	-52.7	-54.7	14.3	0.00e+00	0	28	0	260046848	71	4559
2026-01-14 21:53:35.31	40.60	11.57	-52.8	-54.7	14.2	0.00e+00	0	28	0	261095424	71	4580
2026-01-14 21:53:36.30	40.76	11.62	-52.6	-54.5	14.3	0.00e+00	0	28	0	263192576	71	4481
2026-01-14 21:53:37.29	40.92	11.66	-52.7	-54.6	14.3	0.00e+00	0	28	0	265289728	71	4512
2026-01-14 21:53:38.29	41.08	11.71	-52.6	-54.5	14.4	0.00e+00	0	28	0	267386880	71	4473
2026-01-14 21:53:39.29	41.24	11.76	-52.7	-54.7	14.3	0.00e+00	0	28	0	268435456	71	4553
2026-01-14 21:53:40.29	41.40	11.81	-52.8	-54.8	14.3	0.00e+00	0	28	0	270532608	71	4620
2026-01-14 21:53:41.29	41.56	11.86	-53.0	-55.0	14.1	0.00e+00	0	28	0	272629760	71	4755
2026-01-14 21:53:42.28	41.73	11.91	-53.3	-55.5	13.9	0.00e+00	0	28	0	274726912	71	4995
2026-01-14 21:53:43.27	41.89	11.95	-53.2	-55.2	14.0	0.00e+00	0	28	0	276824064	71	4867
2026-01-14 21:53:44.27	42.05	12.00	-53.3	-55.4	14.0	0.00e+00	0	28	0	277872640	71	4949
2026-01-14 21:53:45.26	42.21	12.05	-53.2	-55.3	14.0	0.00e+00	0	28	0	279969792	71	4880
2026-01-14 21:53:46.27	42.38	12.10	-53.2	-55.2	14.0	0.00e+00	0	28	0	282066944	71	4863
2026-01-14 21:53:47.26	42.55	12.14	-53.1	-55.1	14.1	0.00e+00	0	28	0	284164096	71	4780
2026-01-14 21:53:48.25	42.71	12.19	-53.1	-55.1	14.1	0.00e+00	0	28	0	286261248	71	4770
2026-01-14 21:53:49.26	42.88	12.24	-53.1	-55.1	14.1	0.00e+00	0	28	0	287309824	71	4789
2026-01-14 21:53:50.25	43.04	12.29	-53.1	-55.1	14.0	0.00e+00	0	28	0	289406976	71	4812
2026-01-14 21:53:51.26	43.21	12.33	-53.2	-55.2	14.0	0.00e+00	0	28	0	291504128	71	4858
2026-01-14 21:53:52.25	43.38	12.38	-53.1	-55.2	14.1	0.00e+00	0	28	0	293601280	71	4835
2026-01-14 21:53:53.25	43.55	12.43	-53.3	-55.4	14.0	0.00e+00	0	28	0	294649856	71	4933
2026-01-14 21:53:54.25	43.72	12.47	-53.4	-55.5	13.9	0.00e+00	0	28	0	296747008	71	5016
2026-01-14 21:53:55.24	43.89	12.52	-53.5	-55.7	13.9	0.00e+00	0	28	0	298844160	72	4860
2026-01-14 21:53:56.23	44.06	12.57	-53.4	-55.6	14.0	0.00e+00	0	28	0	300941312	72	4788
2026-01-14 21:53:57.23	44.23	12.61	-53.6	-55.8	13.9	0.00e+00	0	28	0	303038464	72	4913
2026-01-14 21:53:58.23	44.40	12.66	-53.7	-56.0	13.8	0.00e+00	0	28	0	304087040	72	4997
2026-01-14 21:53:59.22	44.57	12.70	-53.4	-55.6	14.0	0.00e+00	0	28	0	306184192	72	4771
2026-01-14 21:54:00.22	44.74	12.75	-53.6	-55.7	13.9	0.00e+00	0	28	0	308281344	72	4861
2026-01-14 21:54:01.22	44.91	12.80	-53.4	-55.5	14.0	0.00e+00	0	28	0	310378496	72	4757
2026-01-14 21:54:02.21	45.09	12.84	-53.4	-55.5	14.0	0.00e+00	0	28	0	311427072	72	4747
2026-01-14 21:54:03.21	45.26	12.89	-53.3	-55.4	14.0	0.00e+00	0	28	0	313524224	72	4701
2026-01-14 21:54:04.20	45.43	12.93	-53.5	-55.7	14.0	0.00e+00	0	28	0	315621376	72	4827
2026-01-14 21:54:05.19	45.61	12.98	-53.5	-55.6	14.0	0.00e+00	0	28	0	317718528	72	4808
2026-01-14 21:54:06.19	45.78	13.02	-53.4	-55.5	14.0	0.00e+00	0	28	0	319815680	72	4751
2026-01-14 21:54:07.18	45.96	13.07	-53.4	-55.5	14.0	0.00e+00	0	28	0	320864256	72	4749
2026-01-14 21:54:08.18	46.13	13.11	-53.5	-55.6	14.0	0.00e+00	0	28	0	322961408	72	4796
2026-01-14 21:54:09.17	46.31	13.15	-53.6	-55.8	13.9	0.00e+00	0	28	0	325058560	72	4925
2026-01-14 21:54:10.17	46.49	13.20	-53.7	-55.9	13.9	0.00e+00	0	28	0	327155712	72	4941
2026-01-14 21:54:11.17	46.66	13.24	-53.8	-56.0	13.8	0.00e+00	0	28	0	328204288	72	5028
2026-01-14 21:54:12.16	46.84	13.29	-54.0	-56.3	13.7	0.00e+00	0	28	0	330301440	73	4894
2026-01-14 21:54:13.16	47.02	13.33	-54.0	-56.4	13.7	0.00e+00	0	28	0	332398592	73	4954
2026-01-14 21:54:14.16	47.20	13.37	-54.1	-56.5	13.7	0.00e+00	0	28	0	334495744	73	5018
2026-01-14 21:54:15.16	47.38	13.42	-54.1	-56.5	13.6	0.00e+00	0	28	0	336592896	73	5040
2026-01-14 21:54:16.16	47.56	13.46	-54.0	-56.4	13.7	0.00e+00	0	28	0	337641472	73	4960
2026-01-14 21:54:17.16	47.74	13.50	-53.9	-56.2	13.8	0.00e+00	0	28	0	339738624	73	4856
2026-01-14 21:54:18.15	47.92	13.55	-54.0	-56.3	13.8	0.00e+00	0	28	0	341835776	73	4925
2026-01-14 21:54:19.16	48.11	13.59	-53.9	-56.2	13.8	0.00e+00	0	28	0	343932928	73	4842
2026-01-14 21:54:20.16	48.29	13.63	-54.1	-56.5	13.7	0.00e+00	0	28	0	346030080	73	5006
2026-01-14 21:54:21.15	48.47	13.67	-54.2	-56.7	13.6	0.00e+00	0	28	0	347078656	73	5118
2026-01-14 21:54:22.16	48.66	13.72	-54.1	-56.5	13.6	0.00e+00	0	28	0	349175808	73	5040
2026-01-14 21:54:23.15	48.84	13.76	-54.3	-56.7	13.6	0.00e+00	0	28	0	351272960	73	5138
2026-01-14 21:54:24.16	49.03	13.80	-54.3	-56.8	13.6	0.00e+00	0	28	0	353370112	74	4901
2026-01-14 21:54:25.16	49.21	13.84	-54.5	-57.1	13.4	0.00e+00	0	28	0	355467264	74	5076
2026-01-14 21:54:26.15	49.40	13.88	-54.3	-56.8	13.6	0.00e+00	0	28	0	356515840	74	4897
2026-01-14 21:54:27.15	49.58	13.93	-54.4	-56.8	13.6	0.00e+00	0	28	0	358612992	74	4921
2026-01-14 21:54:28.15	49.77	13.97	-54.3	-56.8	13.6	0.00e+00	0	28	0	360710144	74	4879
2026-01-14 21:54:29.14	49.95	14.01	-54.4	-57.0	13.5	0.00e+00	0	28	0	362807296	74	4984
2026-01-14 21:54:30.14	50.14	14.05	-54.6	-57.2	13.4	0.00e+00	0	28	0	363855872	74	5108
2026-01-14 21:54:31.14	50.33	14.09	-54.6	-57.2	13.4	0.00e+00	0	28	0	365953024	74	5115
2026-01-14 21:54:32.14	50.52	14.13	-54.8	-57.6	13.2	0.00e+00	0	28	0	368050176	74	5352
2026-01-14 21:54:33.14	50.71	14.17	-54.8	-57.5	13.2	0.00e+00	0	28	0	370147328	74	5332
2026-01-14 21:54:34.13	50.90	14.21	-54.7	-57.4	13.3	0.00e+00	0	28	0	372244480	74	5224
2026-01-14 21:54:35.12	51.09	14.25	-54.6	-57.1	13.4	0.00e+00	0	28	0	373293056	74	5081
2026-01-14 21:54:36.12	51.28	14.29	-54.4	-56.9	13.5	0.00e+00	0	28	0	375390208	74	4972
2026-01-14 21:54:37.12	51.47	14.32	-54.2	-56.6	13.7	0.00e+00	0	28	0	377487360	74	4772
2026-01-14 21:54:38.11	51.66	14.36	-54.2	-56.6	13.7	0.00e+00	0	28	0	379584512	74	4766
2026-01-14 21:54:39.12	51.85	14.40	-54.1	-56.4	13.8	0.00e+00	0	28	0	380633088	74	4691
2026-01-14 21:54:40.11	52.04	14.44	-54.3	-56.8	13.6	0.00e+00	0	28	0	382730240	74	4887
2026-01-14 21:54:41.12	52.24	14.48	-54.3	-56.8	13.6	0.00e+00	0	28	0	384827392	74	4899
2026-01-14 21:54:42.11	52.43	14.52	-54.4	-56.9	13.6	0.00e+00	0	28	0	386924544	74	4942
2026-01-14 21:54:43.11	52.62	14.55	-54.5	-57.0	13.5	0.00e+00	0	28	0	389021696	74	4994
2026-01-14 21:54:44.11	52.82	14.59	-54.4	-56.9	13.5	0.00e+00	0	28	0	390070272	74	4979
2026-01-14 21:54:45.10	53.01	14.63	-54.4	-56.9	13.6	0.00e+00	0	28	0	392167424	74	4958
2026-01-14 21:54:46.10	53.21	14.66	-54.5	-57.0	13.5	0.00e+00	0	28	0	394264576	74	5011
2026-01-14 21:54:47.10	53.40	14.70	-54.4	-56.9	13.6	0.00e+00	0	28	0	396361728	74	4946
2026-01-14 21:54:48.10	53.60	14.74	-54.3	-56.7	13.6	0.00e+00	0	28	0	398458880	74	4866
2026-01-14 21:54:49.10	53.80	14.77	-54.1	-56.5	13.8	0.00e+00	0	28	0	399507456	74	4723
2026-01-14 21:54:50.09	53.99	14.81	-54.0	-56.3	13.8	0.00e+00	0	28	0	401604608	74	4617
2026-01-14 21:54:51.09	54.19	14.84	-53.9	-56.2	13.9	0.00e+00	0	28	0	403701760	74	4570
2026-01-14 21:54:52.09	54.39	14.88	-53.8	-56.0	14.0	0.00e+00	0	28	0	405798912	74	4483
2026-01-14 21:54:53.08	54.59	14.91	-53.4	-55.4	14.2	0.00e+00	0	29	0	406847488	73	4434
2026-01-14 21:54:54.09	54.79	14.95	-53.4	-55.4	14.2	0.00e+00	0	28	0	408944640	73	4438
2026-01-14 21:54:55.08	54.99	14.98	-53.1	-55.1	14.3	0.00e+00	0	28	0	411041792	72	4498
2026-01-14 21:54:56.08	55.19	15.02	-52.9	-54.8	14.4	0.00e+00	0	28	0	413138944	72	4352
2026-01-14 21:54:57.09	55.39	15.05	-52.8	-54.7	14.4	0.00e+00	0	28	0	415236096	72	4306
2026-01-14 21:54:58.08	55.59	15.09	-52.7	-54.6	14.5	0.00e+00	0	28	0	416284672	72	4251
2026-01-14 21:54:59.08	55.79	15.12	-52.5	-54.3	14.5	0.00e+00	0	28	0	418381824	71	4381
2026-01-14 21:55:00.36	56.05	15.16	-52.7	-54.6	14.4	0.00e+00	0	28	0	420478976	71	4508
2026-01-14 21:55:01.12	56.20	15.19	-52.7	-54.6	14.4	0.00e+00	0	28	0	421527552	71	4525
2026-01-14 21:55:02.41	56.46	15.23	-52.8	-54.7	14.4	0.00e+00	0	28	0	424673280	71	4559
2026-01-14 21:55:03.12	56.61	15.25	-52.7	-54.5	14.4	0.00e+00	0	28	0	425721856	71	4492
2026-01-14 21:55:04.41	56.87	15.29	-52.7	-54.6	14.4	0.00e+00	0	28	0	427819008	71	4524
2026-01-14 21:55:05.13	57.02	15.31	-52.8	-54.7	14.3	0.00e+00	0	28	0	429916160	71	4593
2026-01-14 21:55:06.42	57.28	15.35	-52.9	-54.8	14.3	0.00e+00	0	28	0	432013312	71	4639
2026-01-14 21:55:07.14	57.43	15.38	-52.9	-54.9	14.3	0.00e+00	0	28	0	433061888	71	4660
2026-01-14 21:55:08.43	57.70	15.42	-53.1	-55.1	14.2	0.00e+00	0	28	0	435159040	71	4788
2026-01-14 21:55:09.14	57.84	15.44	-53.0	-54.9	14.2	0.00e+00	0	28	0	437256192	71	4688
2026-01-14 21:55:10.43	58.11	15.48	-53.0	-55.0	14.2	0.00e+00	0	28	0	439353344	71	4742
2026-01-14 21:55:11.14	58.26	15.50	-52.9	-54.9	14.3	0.00e+00	0	28	0	440401920	71	4652
2026-01-14 21:55:12.43	58.52	15.54	-53.0	-55.0	14.2	0.00e+00	0	28	0	443547648	71	4719
2026-01-14 21:55:13.15	58.67	15.56	-53.0	-54.9	14.3	0.00e+00	0	28	0	444596224	71	4701
2026-01-14 21:55:14.45	58.94	15.59	-53.2	-55.2	14.1	0.00e+00	0	28	0	446693376	71	4855
2026-01-14 21:55:15.16	59.09	15.61	-53.3	-55.3	14.1	0.00e+00	0	28	0	447741952	71	4906
2026-01-14 21:55:16.44	59.36	15.65	-53.4	-55.5	14.1	0.00e+00	0	28	0	450887680	72	4732
2026-01-14 21:55:17.17	59.51	15.67	-53.4	-55.5	14.1	0.00e+00	0	28	0	451936256	72	4746
2026-01-14 21:55:18.45	59.78	15.71	-53.3	-55.4	14.1	0.00e+00	0	28	0	454033408	72	4657
2026-01-14 21:55:19.17	59.93	15.73	-53.2	-55.3	14.2	0.00e+00	0	28	0	456130560	72	4608
2026-01-14 21:55:20.45	60.20	15.76	-52.8	-54.7	14.4	0.00e+00	0	29	0	458227712	72	4316
2026-01-14 21:55:21.17	60.35	15.78	-52.8	-54.7	14.5	0.00e+00	0	28	0	459276288	72	4320
2026-01-14 21:55:22.46	60.62	15.81	-52.6	-54.5	14.4	0.00e+00	0	28	0	461373440	71	4452
2026-01-14 21:55:23.17	60.77	15.83	-52.8	-54.6	14.4	0.00e+00	0	28	0	463470592	71	4542
2026-01-14 21:55:24.45	61.04	15.86	-52.9	-54.8	14.3	0.00e+00	0	28	0	465567744	71	4613
2026-01-14 21:55:25.17	61.20	15.88	-53.1	-55.2	14.1	0.00e+00	0	28	0	466616320	71	4817
2026-01-14 21:55:26.45	61.47	15.91	-53.5	-55.5	14.1	0.00e+00	0	28	0	469762048	72	4758
2026-01-14 21:55:27.20	61.63	15.93	-53.5	-55.6	14.1	0.00e+00	0	28	0	470810624	72	4770
2026-01-14 21:55:28.48	61.90	15.96	-53.5	-55.6	14.0	0.00e+00	0	28	0	472907776	72	4786
2026-01-14 21:55:29.19	62.05	15.98	-53.5	-55.5	14.1	0.00e+00	0	28	0	475004928	72	4759
2026-01-14 21:55:30.48	62.33	16.01	-53.4	-55.5	14.1	0.00e+00	0	28	0	477102080	72	4732
2026-01-14 21:55:31.20	62.48	16.03	-53.5	-55.6	14.0	0.00e+00	0	28	0	478150656	72	4797
2026-01-14 21:55:32.49	62.76	16.06	-53.8	-56.0	13.9	0.00e+00	0	28	0	480247808	72	4994
2026-01-14 21:55:33.20	62.91	16.07	-54.4	-56.4	13.8	0.00e+00	0	28	0	482344960	73	4948
2026-01-14 21:55:34.49	63.19	16.10	-54.1	-56.5	13.7	0.00e+00	0	28	0	484442112	73	4990
2026-01-14 21:55:35.20	63.34	16.12	-54.1	-56.5	13.7	0.00e+00	0	28	0	485490688	73	4984
2026-01-14 21:55:36.49	63.62	16.14	-53.6	-55.8	14.0	0.00e+00	0	28	0	488636416	73	4603
2026-01-14 21:55:37.20	63.77	16.16	-53.3	-55.3	14.2	0.00e+00	0	28	0	489684992	73	4383
2026-01-14 21:55:38.48	64.05	16.19	-52.6	-54.4	14.4	0.00e+00	0	28	0	491782144	71	4427
2026-01-14 21:55:39.20	64.21	16.20	-52.5	-54.3	14.5	0.00e+00	0	28	0	492830720	71	4365
2026-01-14 21:55:40.48	64.49	16.22	-52.6	-54.5	14.5	0.00e+00	0	28	0	495976448	71	4449
2026-01-14 21:55:41.19	64.64	16.24	-52.7	-54.6	14.4	0.00e+00	0	28	0	497025024	71	4498
2026-01-14 21:55:42.48	64.92	16.26	-53.0	-55.0	14.2	0.00e+00	0	29	0	499122176	71	4716
2026-01-14 21:55:43.19	65.07	16.28	-53.2	-55.2	14.1	0.00e+00	0	28	0	501219328	71	4842
2026-01-14 21:55:44.47	65.35	16.30	-53.3	-55.4	14.1	0.00e+00	0	28	0	503316480	71	4959
2026-01-14 21:55:45.22	65.52	16.31	-53.2	-55.2	14.1	0.00e+00	0	28	0	504365056	71	4832
2026-01-14 21:55:46.50	65.80	16.34	-52.9	-54.9	14.3	0.00e+00	0	28	0	506462208	71	4668
2026-01-14 21:55:47.25	65.96	16.35	-52.8	-54.7	14.3	0.00e+00	0	29	0	508559360	71	4568
2026-01-14 21:55:48.53	66.24	16.37	-52.4	-54.2	14.5	0.00e+00	0	28	0	510656512	71	4335
2026-01-14 21:55:49.25	66.40	16.38	-52.5	-54.3	14.5	0.00e+00	0	28	0	511705088	71	4349
2026-01-14 21:55:50.55	66.68	16.40	-52.8	-54.7	14.3	0.00e+00	0	28	0	514850816	71	4570
2026-01-14 21:55:51.27	66.84	16.41	-52.9	-54.9	14.3	0.00e+00	0	28	0	515899392	71	4667
2026-01-14 21:55:52.55	67.12	16.43	-53.2	-55.2	14.1	0.00e+00	0	28	0	517996544	71	4854
2026-01-14 21:55:53.30	67.29	16.45	-53.4	-55.4	14.0	0.00e+00	0	29	0	520093696	71	4977
2026-01-14 21:55:54.58	67.57	16.46	-53.2	-55.2	14.1	0.00e+00	0	29	0	522190848	71	4845
2026-01-14 21:55:55.30	67.73	16.47	-53.2	-55.3	14.2	0.00e+00	0	28	0	523239424	71	4871
2026-01-14 21:55:56.59	68.01	16.49	-53.3	-55.4	14.1	0.00e+00	0	28	0	526385152	71	4957
2026-01-14 21:55:57.30	68.17	16.50	-53.5	-55.6	14.1	0.00e+00	0	28	0	527433728	72	4790
2026-01-14 21:55:58.61	68.46	16.52	-53.7	-55.8	14.0	0.00e+00	0	28	0	529530880	72	4920
2026-01-14 21:55:59.32	68.62	16.53	-53.9	-56.2	13.8	0.00e+00	0	28	0	530579456	73	4847
2026-01-14 21:56:00.61	68.90	16.54	-54.2	-56.5	13.7	0.00e+00	0	28	0	533725184	73	5035
2026-01-14 21:56:01.32	69.06	16.55	-54.0	-56.3	13.8	0.00e+00	0	28	0	534773760	73	4903
2026-01-14 21:56:02.61	69.35	16.56	-53.9	-56.1	13.9	0.00e+00	0	28	0	536870912	73	4790
2026-01-14 21:56:03.33	69.51	16.57	-53.9	-56.2	13.9	0.00e+00	0	28	0	537919488	73	4827
2026-01-14 21:56:04.62	69.79	16.59	-53.8	-56.0	13.9	0.00e+00	0	28	0	541065216	73	4744
2026-01-14 21:56:05.32	69.95	16.59	-53.9	-56.1	13.9	0.00e+00	0	28	0	542113792	73	4811
2026-01-14 21:56:06.62	70.24	16.61	-54.1	-56.4	13.8	0.00e+00	0	28	0	544210944	73	4961
2026-01-14 21:56:07.34	70.40	16.61	-54.1	-56.4	13.7	0.00e+00	0	28	0	546308096	73	4970
2026-01-14 21:56:08.61	70.68	16.62	-54.0	-56.3	13.8	0.00e+00	0	28	0	548405248	73	4923
2026-01-14 21:56:09.33	70.84	16.63	-54.1	-56.4	13.8	0.00e+00	0	28	0	549453824	73	4934
2026-01-14 21:56:10.62	71.13	16.64	-53.9	-56.1	13.9	0.00e+00	0	28	0	552599552	73	4811
2026-01-14 21:56:11.35	71.29	16.65	-53.7	-55.8	14.0	0.00e+00	0	28	0	553648128	73	4628
2026-01-14 21:56:12.64	71.58	16.65	-53.6	-55.7	14.1	0.00e+00	0	28	0	555745280	73	4594
2026-01-14 21:56:13.37	71.74	16.66	-53.6	-55.8	14.1	0.00e+00	0	28	0	556793856	73	4606
2026-01-14 21:56:14.66	72.03	16.67	-53.7	-55.9	14.0	0.00e+00	0	28	0	559939584	73	4665
2026-01-14 21:56:15.37	72.19	16.67	-53.7	-55.9	14.0	0.00e+00	0	28	0	560988160	73	4653
2026-01-14 21:56:16.66	72.48	16.68	-53.8	-55.9	14.0	0.00e+00	0	28	0	563085312	73	4705
2026-01-14 21:56:17.37	72.64	16.68	-53.5	-55.6	14.1	0.00e+00	0	28	0	565182464	73	4525
2026-01-14 21:56:18.66	72.93	16.69	-53.4	-55.5	14.2	0.00e+00	0	28	0	567279616	73	4476
2026-01-14 21:56:19.37	73.09	16.69	-53.5	-55.6	14.1	0.00e+00	0	28	0	568328192	73	4510
2026-01-14 21:56:20.66	73.38	16.70	-53.2	-55.2	14.3	0.00e+00	0	28	0	571473920	73	4298
2026-01-14 21:56:21.38	73.54	16.70	-53.2	-55.2	14.2	0.00e+00	0	28	0	572522496	72	4588
2026-01-14 21:56:22.66	73.82	16.70	-53.4	-55.4	14.1	0.00e+00	0	28	0	574619648	72	4699
2026-01-14 21:56:23.37	73.98	16.71	-53.3	-55.4	14.1	0.00e+00	0	28	0	575668224	72	4664
2026-01-14 21:56:24.65	74.27	16.71	-53.3	-55.3	14.2	0.00e+00	0	29	0	578813952	72	4627
2026-01-14 21:56:25.36	74.43	16.71	-53.2	-55.2	14.2	0.00e+00	0	28	0	579862528	72	4557
2026-01-14 21:56:26.66	74.72	16.71	-52.9	-54.8	14.4	0.00e+00	0	28	0	581959680	72	4355
2026-01-14 21:56:27.37	74.88	16.71	-52.8	-54.7	14.4	0.00e+00	0	28	0	583008256	72	4310
2026-01-14 21:56:28.65	75.17	16.71	-52.9	-54.8	14.4	0.00e+00	0	28	0	586153984	72	4374
2026-01-14 21:56:29.36	75.33	16.71	-52.8	-54.7	14.4	0.00e+00	0	28	0	587202560	72	4320
2026-01-14 21:56:30.65	75.61	16.71	-53.0	-55.0	14.3	0.00e+00	0	28	0	589299712	72	4454
2026-01-14 21:56:31.36	75.77	16.71	-53.1	-55.1	14.3	0.00e+00	0	28	0	591396864	72	4496
2026-01-14 21:56:32.67	76.07	16.71	-53.3	-55.4	14.1	0.00e+00	0	28	0	593494016	72	4671
2026-01-14 21:56:33.38	76.23	16.71	-53.3	-55.3	14.2	0.00e+00	0	28	0	594542592	72	4625
2026-01-14 21:56:34.67	76.52	16.71	-53.1	-55.1	14.3	0.00e+00	0	28	0	597688320	72	4510
2026-01-14 21:56:35.39	76.68	16.71	-53.0	-55.0	14.3	0.00e+00	0	28	0	598736896	72	4444
2026-01-14 21:56:36.68	76.97	16.70	-53.1	-55.1	14.3	0.00e+00	0	29	0	600834048	72	4494
2026-01-14 21:56:37.40	77.13	16.70	-53.2	-55.2	14.2	0.00e+00	0	28	0	601882624	72	4598
2026-01-14 21:56:38.68	77.41	16.69	-53.4	-55.5	14.1	0.00e+00	0	29	0	605028352	72	4711
2026-01-14 21:56:39.41	77.58	16.69	-53.5	-55.7	14.0	0.00e+00	0	28	0	606076928	72	4833
2026-01-14 21:56:40.69	77.86	16.69	-53.4	-55.5	14.1	0.00e+00	0	28	0	608174080	72	4740
2026-01-14 21:56:41.42	78.03	16.68	-53.4	-55.6	14.1	0.00e+00	0	28	0	610271232	72	4760
2026-01-14 21:56:42.70	78.31	16.68	-53.4	-55.4	14.1	0.00e+00	0	28	0	612368384	72	4705
2026-01-14 21:56:43.43	78.48	16.67	-53.4	-55.4	14.1	0.00e+00	0	28	0	613416960	72	4691
2026-01-14 21:56:44.72	78.77	16.66	-53.3	-55.4	14.2	0.00e+00	0	28	0	616562688	72	4653
2026-01-14 21:56:45.43	78.93	16.66	-53.3	-55.4	14.1	0.00e+00	0	29	0	617611264	72	4669
2026-01-14 21:56:46.75	79.22	16.65	-53.4	-55.5	14.1	0.00e+00	0	29	0	619708416	72	4725
2026-01-14 21:56:47.46	79.38	16.65	-53.7	-55.9	13.9	0.00e+00	0	28	0	620756992	72	4942
2026-01-14 21:56:48.74	79.66	16.64	-53.9	-56.2	13.8	0.00e+00	0	28	0	623902720	73	4851
2026-01-14 21:56:49.45	79.82	16.63	-54.1	-56.4	13.7	0.00e+00	0	29	0	624951296	73	4971
2026-01-14 21:56:50.75	80.11	16.62	-54.0	-56.3	13.8	0.00e+00	0	28	0	627048448	73	4925
2026-01-14 21:56:51.46	80.27	16.61	-54.0	-56.3	13.8	0.00e+00	0	28	0	629145600	73	4904
2026-01-14 21:56:52.74	80.56	16.60	-53.8	-56.1	13.9	0.00e+00	0	28	0	631242752	73	4780
2026-01-14 21:56:53.51	80.73	16.59	-53.7	-55.9	14.0	0.00e+00	0	29	0	632291328	73	4652
2026-01-14 21:56:54.78	81.01	16.58	-53.1	-55.1	14.3	0.00e+00	0	28	0	635437056	72	4523
2026-01-14 21:56:55.52	81.17	16.57	-53.0	-54.9	14.4	0.00e+00	0	28	0	636485632	72	4423
2026-01-14 21:56:56.81	81.46	16.56	-52.8	-54.8	14.4	0.00e+00	0	28	0	638582784	72	4341
2026-01-14 21:56:57.53	81.62	16.55	-52.8	-54.8	14.4	0.00e+00	0	28	0	639631360	72	4345
2026-01-14 21:56:58.82	81.91	16.53	-52.9	-54.8	14.4	0.00e+00	0	28	0	642777088	72	4373
2026-01-14 21:56:59.53	82.06	16.53	-52.9	-54.8	14.4	0.00e+00	0	28	0	643825664	72	4360
2026-01-14 21:57:00.84	82.35	16.51	-52.9	-54.8	14.4	0.00e+00	0	28	0	645922816	72	4379
2026-01-14 21:57:01.55	82.51	16.50	-53.1	-55.0	14.3	0.00e+00	0	28	0	648019968	72	4475
2026-01-14 21:57:02.84	82.80	16.48	-53.1	-55.1	14.3	0.00e+00	0	28	0	650117120	72	4517
2026-01-14 21:57:03.57	82.96	16.47	-53.1	-55.1	14.2	0.00e+00	0	28	0	651165696	72	4539
2026-01-14 21:57:04.86	83.24	16.45	-53.3	-55.4	14.1	0.00e+00	0	28	0	654311424	72	4653
2026-01-14 21:57:05.58	83.40	16.44	-53.3	-55.4	14.1	0.00e+00	0	28	0	655360000	72	4677
2026-01-14 21:57:06.86	83.68	16.42	-53.3	-55.3	14.2	0.00e+00	0	28	0	657457152	72	4611
2026-01-14 21:57:07.58	83.84	16.41	-53.3	-55.4	14.1	0.00e+00	0	28	0	658505728	72	4676
2026-01-14 21:57:08.86	84.12	16.39	-53.3	-55.4	14.1	0.00e+00	0	28	0	661651456	72	4669
2026-01-14 21:57:09.57	84.28	16.38	-53.3	-55.4	14.1	0.00e+00	0	28	0	662700032	72	4658
2026-01-14 21:57:10.88	84.57	16.36	-53.3	-55.3	14.2	0.00e+00	0	28	0	664797184	72	4639
2026-01-14 21:57:11.59	84.72	16.35	-53.1	-55.1	14.3	0.00e+00	0	28	0	666894336	72	4504
2026-01-14 21:57:12.87	85.00	16.32	-52.9	-54.8	14.3	0.00e+00	0	28	0	668991488	72	4361
2026-01-14 21:57:13.59	85.16	16.31	-52.9	-54.8	14.4	0.00e+00	0	28	0	670040064	72	4358
2026-01-14 21:57:14.88	85.44	16.29	-52.6	-54.4	14.5	0.00e+00	0	28	0	673185792	71	4436
2026-01-14 21:57:15.59	85.60	16.28	-52.7	-54.6	14.4	0.00e+00	0	28	0	674234368	71	4495
2026-01-14 21:57:16.88	85.88	16.25	-52.5	-54.3	14.5	0.00e+00	0	28	0	676331520	71	4388
2026-01-14 21:57:17.59	86.03	16.24	-52.6	-54.5	14.4	0.00e+00	0	28	0	677380096	71	4471
2026-01-14 21:57:18.88	86.31	16.21	-52.5	-54.3	14.5	0.00e+00	0	28	0	680525824	71	4365
2026-01-14 21:57:19.61	86.47	16.20	-52.6	-54.4	14.5	0.00e+00	0	28	0	681574400	71	4433
2026-01-14 21:57:20.90	86.75	16.17	-52.5	-54.3	14.5	0.00e+00	0	28	0	683671552	71	4379
2026-01-14 21:57:21.62	86.91	16.16	-52.4	-54.2	14.5	0.00e+00	0	28	0	684720128	71	4337
2026-01-14 21:57:22.89	87.18	16.13	-52.4	-54.2	14.6	0.00e+00	0	28	0	687865856	71	4315
2026-01-14 21:57:23.61	87.34	16.11	-52.5	-54.4	14.5	0.00e+00	0	28	0	688914432	71	4398
2026-01-14 21:57:24.89	87.61	16.09	-52.7	-54.6	14.4	0.00e+00	0	28	0	691011584	71	4510
2026-01-14 21:57:25.60	87.77	16.07	-52.9	-54.8	14.3	0.00e+00	0	28	0	693108736	71	4630
2026-01-14 21:57:26.89	88.04	16.04	-52.9	-54.9	14.3	0.00e+00	0	28	0	695205888	71	4660
2026-01-14 21:57:27.61	88.20	16.02	-53.0	-54.9	14.2	0.00e+00	0	28	0	696254464	71	4696
2026-01-14 21:57:28.89	88.47	15.99	-52.9	-54.8	14.3	0.00e+00	0	28	0	699400192	71	4636
2026-01-14 21:57:29.61	88.63	15.98	-52.9	-54.8	14.3	0.00e+00	0	29	0	700448768	71	4630
2026-01-14 21:57:30.89	88.90	15.95	-52.6	-54.4	14.5	0.00e+00	0	28	0	702545920	71	4430
2026-01-14 21:57:31.61	89.05	15.93	-52.7	-54.6	14.4	0.00e+00	0	28	0	703594496	71	4520
2026-01-14 21:57:32.90	89.33	15.90	-52.6	-54.5	14.4	0.00e+00	0	28	0	706740224	71	4444
2026-01-14 21:57:33.61	89.48	15.88	-52.7	-54.6	14.4	0.00e+00	0	29	0	707788800	71	4498
2026-01-14 21:57:34.90	89.75	15.85	-52.8	-54.7	14.3	0.00e+00	0	29	0	709885952	71	4548
2026-01-14 21:57:35.62	89.91	15.83	-52.8	-54.7	14.4	0.00e+00	0	28	0	711983104	71	4546
2026-01-14 21:57:36.91	90.18	15.80	-52.8	-54.7	14.4	0.00e+00	0	29	0	714080256	71	4566
2026-01-14 21:57:37.64	90.33	15.78	-52.7	-54.6	14.4	0.00e+00	0	28	0	715128832	71	4506
2026-01-14 21:57:38.92	90.60	15.74	-52.4	-54.3	14.5	0.00e+00	0	28	0	717225984	71	4347
2026-01-14 21:57:39.64	90.76	15.72	-52.3	-54.0	14.6	0.00e+00	0	29	0	719323136	71	4237
2026-01-14 21:57:40.93	91.03	15.69	-52.1	-53.8	14.6	0.00e+00	0	28	0	721420288	70	4360
2026-01-14 21:57:41.64	91.18	15.67	-52.0	-53.7	14.6	0.00e+00	0	28	0	722468864	70	4329
2026-01-14 21:57:42.94	91.45	15.63	-51.8	-53.5	14.7	0.00e+00	0	28	0	725614592	70	4225
2026-01-14 21:57:43.65	91.60	15.61	-51.9	-53.6	14.7	0.00e+00	0	28	0	726663168	70	4250
2026-01-14 21:57:44.94	91.87	15.57	-52.0	-53.8	14.6	0.00e+00	0	28	0	728760320	70	4347
2026-01-14 21:57:45.65	92.01	15.55	-52.0	-53.8	14.6	0.00e+00	0	28	0	729808896	70	4343
2026-01-14 21:57:46.94	92.28	15.52	-52.3	-54.1	14.5	0.00e+00	0	28	0	732954624	70	4518
2026-01-14 21:57:47.66	92.43	15.49	-52.4	-54.2	14.5	0.00e+00	0	28	0	734003200	70	4549
2026-01-14 21:57:48.95	92.70	15.45	-52.4	-54.2	14.5	0.00e+00	0	28	0	736100352	70	4566
2026-01-14 21:57:49.66	92.85	15.43	-52.4	-54.2	14.4	0.00e+00	0	28	0	738197504	70	4564
2026-01-14 21:57:50.95	93.11	15.39	-52.4	-54.1	14.4	0.00e+00	0	28	0	740294656	70	4544
2026-01-14 21:57:51.67	93.26	15.37	-52.3	-54.1	14.5	0.00e+00	0	28	0	741343232	70	4510
2026-01-14 21:57:52.95	93.52	15.33	-52.4	-54.2	14.5	0.00e+00	0	28	0	744488960	70	4551
2026-01-14 21:57:53.67	93.67	15.31	-52.3	-54.0	14.5	0.00e+00	0	28	0	745537536	70	4486
2026-01-14 21:57:54.94	93.93	15.27	-52.5	-54.4	14.4	0.00e+00	0	29	0	747634688	70	4655
2026-01-14 21:57:55.74	94.09	15.24	-52.6	-54.5	14.4	0.00e+00	0	28	0	749731840	70	4718
2026-01-14 21:57:56.91	94.33	15.20	-52.7	-54.6	14.3	0.00e+00	0	29	0	751828992	70	4799
2026-01-14 21:57:57.76	94.51	15.18	-52.8	-54.7	14.2	0.00e+00	0	29	0	752877568	70	4844
2026-01-14 21:57:58.91	94.74	15.14	-52.6	-54.5	14.3	0.00e+00	0	28	0	754974720	70	4744
2026-01-14 21:57:59.76	94.91	15.11	-52.5	-54.3	14.4	0.00e+00	0	29	0	757071872	70	4640
2026-01-14 21:58:00.90	95.14	15.07	-52.5	-54.3	14.4	0.00e+00	0	29	0	759169024	70	4639
2026-01-14 21:58:01.75	95.31	15.04	-52.4	-54.2	14.5	0.00e+00	0	28	0	760217600	70	4548
2026-01-14 21:58:02.89	95.54	15.00	-52.3	-54.1	14.5	0.00e+00	0	28	0	762314752	70	4517
2026-01-14 21:58:03.75	95.72	14.98	-52.2	-54.0	14.5	0.00e+00	0	29	0	764411904	70	4462
2026-01-14 21:58:04.89	95.94	14.94	-52.2	-53.9	14.6	0.00e+00	0	29	0	766509056	70	4424
2026-01-14 21:58:05.75	96.12	14.91	-52.1	-53.9	14.6	0.00e+00	0	29	0	767557632	70	4405
2026-01-14 21:58:06.89	96.34	14.87	-52.2	-53.9	14.5	0.00e+00	0	29	0	769654784	70	4441
2026-01-14 21:58:07.75	96.51	14.83	-52.2	-53.9	14.5	0.00e+00	0	28	0	771751936	70	4437
2026-01-14 21:58:08.89	96.74	14.79	-52.4	-54.3	14.4	0.00e+00	0	28	0	773849088	70	4606
2026-01-14 21:58:09.74	96.91	14.76	-52.4	-54.2	14.4	0.00e+00	0	29	0	775946240	70	4593
2026-01-14 21:58:10.89	97.14	14.72	-52.5	-54.4	14.4	0.00e+00	0	28	0	778043392	70	4670
2026-01-14 21:58:11.74	97.30	14.69	-52.5	-54.4	14.4	0.00e+00	0	28	0	779091968	70	4668
2026-01-14 21:58:12.88	97.53	14.65	-52.6	-54.5	14.3	0.00e+00	0	28	0	781189120	70	4739
2026-01-14 21:58:13.74	97.70	14.62	-52.6	-54.5	14.3	0.00e+00	0	28	0	783286272	70	4742
2026-01-14 21:58:14.89	97.92	14.57	-52.7	-54.6	14.3	0.00e+00	0	29	0	785383424	70	4796
2026-01-14 21:58:15.75	98.09	14.54	-52.8	-54.8	14.2	0.00e+00	0	28	0	786432000	70	4891
2026-01-14 21:58:16.89	98.31	14.50	-53.0	-55.1	14.2	0.00e+00	0	28	0	788529152	71	4765
2026-01-14 21:58:17.75	98.48	14.47	-53.3	-55.4	14.0	0.00e+00	0	29	0	790626304	71	4935
2026-01-14 21:58:18.89	98.70	14.42	-53.5	-55.7	14.0	0.00e+00	0	28	0	792723456	72	4840
2026-01-14 21:58:19.76	98.87	14.39	-53.7	-55.9	13.9	0.00e+00	0	28	0	793772032	72	4939
2026-01-14 21:58:20.90	99.09	14.34	-53.8	-56.0	13.8	0.00e+00	0	28	0	796917760	72	5041
2026-01-14 21:58:21.75	99.25	14.31	-53.8	-56.0	13.8	0.00e+00	0	28	0	797966336	72	5030
2026-01-14 21:58:22.89	99.47	14.27	-53.6	-55.9	13.9	0.00e+00	0	29	0	800063488	72	4934
2026-01-14 21:58:23.74	99.63	14.23	-53.5	-55.6	14.0	0.00e+00	0	28	0	802160640	72	4780
2026-01-14 21:58:24.88	99.85	14.19	-53.3	-55.4	14.1	0.00e+00	0	28	0	804257792	72	4676
2026-01-14 21:58:25.74	100.01	14.15	-53.2	-55.2	14.2	0.00e+00	0	29	0	805306368	72	4578
2026-01-14 21:58:26.89	100.23	14.11	-53.1	-55.2	14.2	0.00e+00	0	29	0	807403520	72	4550
2026-01-14 21:58:27.75	100.39	14.07	-53.2	-55.2	14.2	0.00e+00	0	29	0	809500672	72	4570
2026-01-14 21:58:28.88	100.61	14.03	-53.2	-55.2	14.2	0.00e+00	0	28	0	811597824	72	4576
2026-01-14 21:58:29.75	100.77	13.99	-53.3	-55.4	14.1	0.00e+00	0	28	0	812646400	72	4667
2026-01-14 21:58:30.89	100.98	13.94	-53.4	-55.5	14.1	0.00e+00	0	29	0	814743552	72	4718
2026-01-14 21:58:31.74	101.14	13.91	-53.5	-55.7	14.0	0.00e+00	0	28	0	816840704	72	4829
2026-01-14 21:58:32.88	101.36	13.86	-53.7	-55.9	13.9	0.00e+00	0	28	0	818937856	72	4975
2026-01-14 21:58:33.73	101.52	13.83	-53.6	-55.8	13.9	0.00e+00	0	28	0	821035008	72	4894
2026-01-14 21:58:34.87	101.73	13.78	-53.5	-55.7	14.0	0.00e+00	0	28	0	822083584	72	4828
2026-01-14 21:58:35.72	101.88	13.74	-53.4	-55.5	14.1	0.00e+00	0	29	0	824180736	72	4714
2026-01-14 21:58:36.87	102.10	13.69	-53.5	-55.6	14.0	0.00e+00	0	28	0	826277888	72	4799
2026-01-14 21:58:37.73	102.26	13.66	-53.5	-55.6	14.0	0.00e+00	0	28	0	828375040	72	4804
2026-01-14 21:58:38.87	102.47	13.61	-53.6	-55.8	13.9	0.00e+00	0	28	0	830472192	72	4877
2026-01-14 21:58:39.73	102.62	13.57	-53.7	-56.0	13.8	0.00e+00	0	28	0	831520768	72	4989
2026-01-14 21:58:40.86	102.83	13.52	-53.9	-56.2	13.8	0.00e+00	0	29	0	833617920	72	5106
2026-01-14 21:58:41.73	102.99	13.49	-54.1	-56.5	13.7	0.00e+00	0	28	0	835715072	73	4996
2026-01-14 21:58:42.87	103.19	13.44	-54.1	-56.5	13.7	0.00e+00	0	28	0	837812224	73	4990
2026-01-14 21:58:43.73	103.35	13.40	-54.2	-56.6	13.6	0.00e+00	0	29	0	838860800	73	5058
2026-01-14 21:58:44.87	103.56	13.35	-54.2	-56.6	13.6	0.00e+00	0	28	0	840957952	73	5085
2026-01-14 21:58:45.72	103.71	13.31	-54.1	-56.5	13.6	0.00e+00	0	28	0	843055104	73	5020
2026-01-14 21:58:46.87	103.92	13.26	-54.3	-56.7	13.6	0.00e+00	0	28	0	845152256	73	5119
2026-01-14 21:58:47.73	104.07	13.22	-54.2	-56.6	13.6	0.00e+00	0	28	0	847249408	73	5094
2026-01-14 21:58:48.87	104.27	13.17	-54.5	-57.1	13.4	0.00e+00	0	29	0	849346560	74	5073
2026-01-14 21:58:49.72	104.43	13.13	-54.5	-57.1	13.4	0.00e+00	0	28	0	850395136	74	5067
2026-01-14 21:58:50.86	104.63	13.08	-54.4	-56.9	13.5	0.00e+00	0	28	0	852492288	74	4930
2026-01-14 21:58:51.72	104.78	13.04	-54.1	-56.4	13.8	0.00e+00	0	28	0	854589440	74	4697
2026-01-14 21:58:52.86	104.98	12.99	-54.1	-56.5	13.7	0.00e+00	0	28	0	856686592	74	4723
2026-01-14 21:58:53.72	105.13	12.95	-53.9	-56.1	13.9	0.00e+00	0	29	0	857735168	74	4542
2026-01-14 21:58:54.86	105.33	12.90	-53.7	-55.9	14.0	0.00e+00	0	28	0	859832320	73	4661
2026-01-14 21:58:55.72	105.48	12.86	-53.8	-56.0	13.9	0.00e+00	0	28	0	861929472	73	4727
2026-01-14 21:58:56.87	105.68	12.81	-53.5	-55.6	14.1	0.00e+00	0	28	0	864026624	73	4527
2026-01-14 21:58:57.71	105.83	12.77	-53.6	-55.8	14.1	0.00e+00	0	29	0	865075200	73	4610
2026-01-14 21:58:58.85	106.03	12.72	-53.7	-55.9	13.9	0.00e+00	0	29	0	867172352	73	4700
2026-01-14 21:58:59.71	106.18	12.68	-53.8	-56.0	13.9	0.00e+00	0	29	0	869269504	73	4753
2026-01-14 21:59:00.85	106.37	12.63	-54.0	-56.4	13.7	0.00e+00	0	28	0	871366656	73	4943
2026-01-14 21:59:01.71	106.52	12.59	-54.0	-56.3	13.8	0.00e+00	0	28	0	872415232	73	4923
2026-01-14 21:59:02.85	106.72	12.53	-54.0	-56.3	13.7	0.00e+00	0	29	0	875560960	73	4908
2026-01-14 21:59:03.71	106.86	12.49	-54.1	-56.5	13.7	0.00e+00	0	28	0	876609536	73	5009
2026-01-14 21:59:04.85	107.06	12.44	-54.1	-56.5	13.7	0.00e+00	0	28	0	878706688	73	5017
2026-01-14 21:59:05.71	107.20	12.40	-54.2	-56.6	13.6	0.00e+00	0	29	0	880803840	73	5075
2026-01-14 21:59:06.85	107.40	12.34	-54.2	-56.6	13.6	0.00e+00	0	28	0	882900992	73	5055
2026-01-14 21:59:07.71	107.54	12.30	-54.3	-56.7	13.6	0.00e+00	0	29	0	883949568	73	5123
2026-01-14 21:59:08.85	107.73	12.25	-54.4	-57.0	13.5	0.00e+00	0	28	0	886046720	74	4986
2026-01-14 21:59:09.71	107.88	12.21	-54.3	-56.8	13.6	0.00e+00	0	29	0	888143872	74	4895
2026-01-14 21:59:10.85	108.07	12.15	-54.1	-56.5	13.7	0.00e+00	0	29	0	890241024	74	4737
2026-01-14 21:59:11.70	108.21	12.11	-54.1	-56.5	13.7	0.00e+00	0	29	0	891289600	74	4723
2026-01-14 21:59:12.85	108.40	12.06	-54.0	-56.3	13.8	0.00e+00	0	29	0	893386752	74	4634
2026-01-14 21:59:13.71	108.54	12.02	-54.0	-56.4	13.7	0.00e+00	0	28	0	895483904	74	4653
2026-01-14 21:59:14.85	108.73	11.96	-54.0	-56.4	13.8	0.00e+00	0	28	0	897581056	74	4655
2026-01-14 21:59:15.71	108.87	11.92	-54.1	-56.5	13.8	0.00e+00	0	28	0	899678208	74	4715
2026-01-14 21:59:16.86	109.06	11.86	-54.1	-56.5	13.8	0.00e+00	0	28	0	901775360	74	4709
2026-01-14 21:59:17.71	109.20	11.82	-54.2	-56.6	13.7	0.00e+00	0	28	0	902823936	74	4800
2026-01-14 21:59:18.85	109.38	11.77	-54.1	-56.5	13.7	0.00e+00	0	28	0	904921088	74	4751
2026-01-14 21:59:19.71	109.52	11.73	-54.3	-56.7	13.6	0.00e+00	0	28	0	907018240	74	4844
2026-01-14 21:59:20.85	109.71	11.67	-54.0	-56.3	13.8	0.00e+00	0	28	0	909115392	74	4643
2026-01-14 21:59:21.71	109.85	11.63	-53.7	-56.0	14.0	0.00e+00	0	28	0	910163968	74	4451
2026-01-14 21:59:22.84	110.03	11.57	-53.7	-55.9	14.1	0.00e+00	0	29	0	912261120	74	4418
2026-01-14 21:59:23.70	110.17	11.53	-53.8	-56.1	13.9	0.00e+00	0	28	0	914358272	74	4517
2026-01-14 21:59:24.84	110.35	11.47	-53.5	-55.6	14.1	0.00e+00	0	28	0	916455424	73	4537
2026-01-14 21:59:25.70	110.49	11.43	-53.5	-55.7	14.1	0.00e+00	0	28	0	917504000	73	4563
2026-01-14 21:59:26.85	110.67	11.37	-53.2	-55.2	14.2	0.00e+00	0	29	0	919601152	72	4595
2026-01-14 21:59:27.70	110.80	11.33	-53.1	-55.2	14.2	0.00e+00	0	29	0	921698304	72	4546
2026-01-14 21:59:28.83	110.98	11.28	-53.4	-55.5	14.1	0.00e+00	0	28	0	923795456	72	4714
2026-01-14 21:59:29.68	111.12	11.23	-53.3	-55.3	14.1	0.00e+00	0	28	0	925892608	72	4645
2026-01-14 21:59:30.82	111.29	11.18	-53.3	-55.4	14.1	0.00e+00	0	28	0	927989760	72	4696
2026-01-14 21:59:31.68	111.43	11.13	-53.4	-55.5	14.0	0.00e+00	0	29	0	929038336	72	4745
2026-01-14 21:59:32.83	111.61	11.08	-53.4	-55.5	14.0	0.00e+00	0	28	0	931135488	72	4741
2026-01-14 21:59:33.68	111.74	11.03	-53.4	-55.5	14.0	0.00e+00	0	29	0	933232640	72	4740
2026-01-14 21:59:34.83	111.92	10.98	-53.4	-55.4	14.1	0.00e+00	0	28	0	935329792	72	4704
2026-01-14 21:59:35.68	112.05	10.93	-53.1	-55.0	14.3	0.00e+00	0	28	0	936378368	72	4492
2026-01-14 21:59:36.82	112.22	10.88	-53.1	-55.1	14.2	0.00e+00	0	29	0	938475520	72	4512
2026-01-14 21:59:37.67	112.35	10.83	-53.2	-55.2	14.2	0.00e+00	0	29	0	940572672	72	4598
2026-01-14 21:59:38.81	112.53	10.78	-53.2	-55.2	14.2	0.00e+00	0	28	0	942669824	72	4571
2026-01-14 21:59:39.67	112.66	10.73	-53.3	-55.3	14.1	0.00e+00	0	28	0	943718400	72	4650
2026-01-14 21:59:40.80	112.83	10.67	-53.4	-55.5	14.0	0.00e+00	0	28	0	945815552	72	4743
2026-01-14 21:59:41.66	112.96	10.63	-53.5	-55.7	14.0	0.00e+00	0	29	0	947912704	72	4822
2026-01-14 21:59:42.80	113.13	10.57	-53.5	-55.7	13.9	0.00e+00	0	28	0	950009856	72	4835
2026-01-14 21:59:43.65	113.26	10.53	-53.4	-55.5	14.0	0.00e+00	0	28	0	951058432	72	4748
2026-01-14 21:59:44.80	113.43	10.47	-53.4	-55.5	14.0	0.00e+00	0	28	0	954204160	72	4743
2026-01-14 21:59:45.65	113.56	10.43	-53.2	-55.3	14.1	0.00e+00	0	28	0	955252736	72	4604
2026-01-14 21:59:46.79	113.73	10.37	-53.2	-55.3	14.1	0.00e+00	0	28	0	957349888	72	4636
2026-01-14 21:59:47.64	113.85	10.33	-53.1	-55.2	14.2	0.00e+00	0	28	0	959447040	72	4550
2026-01-14 21:59:48.78	114.02	10.27	-52.7	-54.6	14.4	0.00e+00	0	29	0	961544192	71	4498
2026-01-14 21:59:49.64	114.15	10.22	-52.5	-54.3	14.4	0.00e+00	0	28	0	962592768	71	4390
2026-01-14 21:59:50.78	114.32	10.17	-52.5	-54.3	14.5	0.00e+00	0	28	0	964689920	71	4388
2026-01-14 21:59:51.64	114.44	10.12	-52.6	-54.5	14.4	0.00e+00	0	28	0	966787072	71	4448
2026-01-14 21:59:52.77	114.61	10.06	-52.6	-54.5	14.4	0.00e+00	0	29	0	968884224	71	4468
2026-01-14 21:59:53.63	114.73	10.02	-52.7	-54.7	14.3	0.00e+00	0	28	0	969932800	71	4554
2026-01-14 21:59:54.77	114.90	9.96	-52.7	-54.6	14.3	0.00e+00	0	28	0	972029952	71	4531
2026-01-14 21:59:55.63	115.02	9.92	-52.8	-54.7	14.3	0.00e+00	0	29	0	974127104	71	4583
2026-01-14 21:59:56.77	115.18	9.86	-53.0	-55.0	14.2	0.00e+00	0	29	0	976224256	71	4733
2026-01-14 21:59:57.62	115.31	9.81	-52.9	-54.9	14.2	0.00e+00	0	28	0	977272832	71	4669
2026-01-14 21:59:58.75	115.47	9.75	-53.1	-55.2	14.1	0.00e+00	0	29	0	979369984	71	4861
2026-01-14 21:59:59.61	115.59	9.71	-53.3	-55.4	14.0	0.00e+00	0	28	0	981467136	71	4942
2026-01-14 22:00:00.75	115.75	9.65	-53.1	-55.2	14.1	0.00e+00	0	28	0	983564288	71	4824
2026-01-14 22:00:01.61	115.87	9.61	-53.2	-55.3	14.1	0.00e+00	0	28	0	985661440	71	4890
2026-01-14 22:00:02.76	116.03	9.55	-53.3	-55.5	13.9	0.00e+00	0	29	0	987758592	71	4987
2026-01-14 22:00:03.61	116.15	9.50	-53.4	-55.6	13.9	0.00e+00	0	28	0	988807168	72	4803
2026-01-14 22:00:04.76	116.31	9.44	-53.6	-55.9	13.8	0.00e+00	0	29	0	990904320	72	4930
2026-01-14 22:00:05.62	116.43	9.40	-53.6	-55.8	13.8	0.00e+00	0	28	0	993001472	72	4916
2026-01-14 22:00:06.76	116.59	9.34	-53.7	-56.0	13.7	0.00e+00	0	29	0	995098624	72	5020
2026-01-14 22:00:07.62	116.71	9.29	-53.7	-56.0	13.7	0.00e+00	0	29	0	996147200	72	5022
2026-01-14 22:00:08.76	116.87	9.23	-53.6	-55.8	13.9	0.00e+00	0	28	0	998244352	72	4910
2026-01-14 22:00:09.62	116.99	9.19	-53.4	-55.6	13.9	0.00e+00	0	28	0	1000341504	72	4769
2026-01-14 22:00:10.75	117.14	9.13	-53.4	-55.6	13.9	0.00e+00	0	28	0	1002438656	72	4779
2026-01-14 22:00:11.61	117.26	9.09	-53.1	-55.2	14.1	0.00e+00	0	28	0	1003487232	72	4575
2026-01-14 22:00:12.76	117.42	9.03	-53.0	-55.1	14.2	0.00e+00	0	29	0	1006632960	72	4526
2026-01-14 22:00:13.61	117.53	8.98	-53.1	-55.2	14.1	0.00e+00	0	29	0	1007681536	72	4593
2026-01-14 22:00:14.75	117.68	8.92	-52.8	-54.8	14.3	0.00e+00	0	28	0	1009778688	72	4363
2026-01-14 22:00:15.61	117.80	8.88	-52.9	-54.9	14.3	0.00e+00	0	29	0	1011875840	72	4411
2026-01-14 22:00:16.75	117.95	8.82	-53.0	-55.0	14.2	0.00e+00	0	29	0	1013972992	72	4488
2026-01-14 22:00:17.60	118.07	8.77	-53.2	-55.3	14.0	0.00e+00	0	28	0	1015021568	72	4615
2026-01-14 22:00:18.74	118.22	8.71	-53.3	-55.5	13.9	0.00e+00	0	29	0	1017118720	72	4758
2026-01-14 22:00:19.59	118.33	8.67	-53.5	-55.8	13.8	0.00e+00	0	29	0	1019215872	72	4893
2026-01-14 22:00:20.74	118.48	8.61	-53.8	-56.2	13.6	0.00e+00	0	28	0	1021313024	72	5139
2026-01-14 22:00:21.60	118.60	8.56	-53.8	-56.2	13.7	0.00e+00	0	28	0	1022361600	72	5103
2026-01-14 22:00:22.76	118.75	8.50	-53.9	-56.4	13.6	0.00e+00	0	29	0	1024458752	73	4953
2026-01-14 22:00:23.61	118.86	8.46	-53.8	-56.2	13.6	0.00e+00	0	28	0	1026555904	73	4851
2026-01-14 22:00:24.75	119.01	8.40	-53.8	-56.2	13.7	0.00e+00	0	28	0	1028653056	73	4844
2026-01-14 22:00:25.60	119.12	8.35	-53.6	-56.0	13.8	0.00e+00	0	29	0	1029701632	73	4737
2026-01-14 22:00:26.74	119.27	8.29	-53.6	-55.9	13.8	0.00e+00	0	28	0	1032847360	73	4692
2026-01-14 22:00:27.60	119.38	8.25	-53.5	-55.9	13.8	0.00e+00	0	29	0	1033895936	73	4662
2026-01-14 22:00:28.73	119.52	8.19	-53.6	-55.9	13.8	0.00e+00	0	29	0	1035993088	73	4694
2026-01-14 22:00:29.59	119.64	8.14	-53.7	-56.1	13.7	0.00e+00	0	28	0	1038090240	73	4787
2026-01-14 22:00:30.74	119.78	8.08	-53.8	-56.3	13.6	0.00e+00	0	29	0	1040187392	73	4899
2026-01-14 22:00:31.60	119.89	8.04	-53.7	-56.1	13.7	0.00e+00	0	28	0	1041235968	73	4779
2026-01-14 22:00:32.74	120.04	7.98	-54.0	-56.6	13.5	0.00e+00	0	29	0	1043333120	73	5047
2026-01-14 22:00:33.60	120.15	7.93	-54.1	-56.8	13.4	0.00e+00	0	28	0	1045430272	73	5162
2026-01-14 22:00:34.75	120.29	7.87	-54.3	-57.0	13.2	0.00e+00	0	28	0	1047527424	73	5300
2026-01-14 22:00:35.61	120.40	7.83	-54.2	-56.9	13.3	0.00e+00	0	29	0	1048576000	73	5219
2026-01-14 22:00:36.75	120.54	7.77	-54.2	-56.9	13.3	0.00e+00	0	29	0	1050673152	73	5230
2026-01-14 22:00:37.61	120.65	7.72	-54.3	-57.0	13.2	0.00e+00	0	29	0	1052770304	73	5299
2026-01-14 22:00:38.76	120.79	7.66	-54.0	-56.6	13.4	0.00e+00	0	28	0	1054867456	73	5080
2026-01-14 22:00:39.62	120.90	7.61	-54.0	-56.5	13.4	0.00e+00	0	29	0	1056964608	73	5026
2026-01-14 22:00:40.77	121.04	7.55	-54.0	-56.6	13.4	0.00e+00	0	29	0	1059061760	73	5086
2026-01-14 22:00:41.63	121.15	7.51	-54.2	-56.9	13.2	0.00e+00	0	28	0	1060110336	73	5261
2026-01-14 22:00:42.77	121.29	7.45	-54.2	-57.0	13.2	0.00e+00	0	28	0	1062207488	73	5301
2026-01-14 22:00:43.62	121.39	7.40	-54.3	-57.0	13.2	0.00e+00	0	29	0	1064304640	73	5320
2026-01-14 22:00:44.76	121.53	7.34	-54.4	-57.3	13.1	0.00e+00	0	29	0	1066401792	74	5188
2026-01-14 22:00:45.62	121.63	7.30	-54.5	-57.4	13.1	0.00e+00	0	28	0	1067450368	74	5219
2026-01-14 22:00:46.77	121.77	7.24	-54.6	-57.5	13.0	0.00e+00	0	29	0	1069547520	74	5304
2026-01-14 22:00:47.63	121.87	7.19	-54.5	-57.4	13.0	0.00e+00	0	29	0	1071644672	74	5273
2026-01-14 22:00:48.77	122.01	7.13	-54.6	-57.5	12.9	0.00e+00	0	29	0	1073741824	74	5322
2026-01-14 22:00:49.62	122.11	7.09	-54.5	-57.4	13.0	0.00e+00	0	29	0	1074790400	74	5265
2026-01-14 22:00:50.76	122.25	7.03	-54.5	-57.4	13.0	0.00e+00	0	29	0	1076887552	74	5267
2026-01-14 22:00:51.62	122.35	6.98	-54.7	-57.7	12.8	0.00e+00	0	29	0	1078984704	74	5457
2026-01-14 22:00:52.76	122.49	6.92	-54.3	-57.1	13.2	0.00e+00	0	28	0	1081081856	74	5087
2026-01-14 22:00:53.62	122.59	6.88	-54.2	-56.9	13.3	0.00e+00	0	29	0	1083179008	74	4950
2026-01-14 22:00:54.76	122.72	6.82	-53.9	-56.5	13.5	0.00e+00	0	29	0	1085276160	74	4737
2026-01-14 22:00:55.62	122.82	6.77	-53.8	-56.2	13.6	0.00e+00	0	29	0	1086324736	74	4598
2026-01-14 22:00:56.76	122.96	6.71	-53.7	-56.2	13.7	0.00e+00	0	29	0	1088421888	74	4579
2026-01-14 22:00:57.61	123.06	6.67	-53.7	-56.2	13.7	0.00e+00	0	29	0	1090519040	74	4555
2026-01-14 22:00:58.75	123.19	6.61	-53.9	-56.5	13.5	0.00e+00	0	29	0	1092616192	74	4721
2026-01-14 22:00:59.61	123.29	6.56	-53.9	-56.5	13.5	0.00e+00	0	29	0	1093664768	74	4750
2026-01-14 22:01:00.76	123.42	6.50	-54.3	-57.1	13.2	0.00e+00	0	29	0	1095761920	74	5050
2026-01-14 22:01:01.61	123.52	6.46	-54.5	-57.4	13.0	0.00e+00	0	28	0	1097859072	74	5230
2026-01-14 22:01:02.75	123.65	6.40	-54.6	-57.6	12.8	0.00e+00	0	29	0	1099956224	74	5402
2026-01-14 22:01:03.60	123.74	6.35	-54.7	-57.8	12.8	0.00e+00	0	29	0	1101004800	74	5469
2026-01-14 22:01:04.74	123.87	6.29	-54.7	-57.9	12.7	0.00e+00	0	28	0	1104150528	74	5532
2026-01-14 22:01:05.60	123.97	6.25	-54.9	-58.1	12.5	0.00e+00	0	29	0	1105199104	74	5703
2026-01-14 22:01:06.74	124.10	6.19	-54.8	-58.0	12.6	0.00e+00	0	29	0	1107296256	75	5322
2026-01-14 22:01:07.60	124.20	6.14	-54.8	-58.1	12.6	0.00e+00	0	29	0	1109393408	75	5342
2026-01-14 22:01:08.74	124.32	6.08	-54.6	-57.6	12.9	0.00e+00	0	28	0	1111490560	75	5090
2026-01-14 22:01:09.60	124.42	6.04	-54.4	-57.3	13.1	0.00e+00	0	29	0	1112539136	75	4894
2026-01-14 22:01:10.76	124.55	5.98	-54.3	-57.1	13.2	0.00e+00	0	29	0	1114636288	75	4772
2026-01-14 22:01:11.61	124.64	5.93	-54.1	-56.9	13.2	0.00e+00	0	29	0	1116733440	74	4942
2026-01-14 22:01:12.75	124.77	5.87	-54.1	-56.8	13.3	0.00e+00	0	29	0	1118830592	74	4923
2026-01-14 22:01:13.61	124.86	5.83	-54.1	-56.9	13.2	0.00e+00	0	28	0	1119879168	74	4953
2026-01-14 22:01:14.75	124.99	5.77	-54.2	-57.1	13.1	0.00e+00	0	29	0	1121976320	74	5077
2026-01-14 22:01:15.62	125.08	5.72	-54.3	-57.1	13.0	0.00e+00	0	29	0	1124073472	74	5097
2026-01-14 22:01:16.75	125.21	5.66	-54.3	-57.2	13.1	0.00e+00	0	29	0	1126170624	74	5108
2026-01-14 22:01:17.62	125.30	5.62	-54.3	-57.2	13.0	0.00e+00	0	28	0	1127219200	74	5135
2026-01-14 22:01:18.76	125.43	5.56	-54.4	-57.4	12.9	0.00e+00	0	29	0	1130364928	74	5278
2026-01-14 22:01:19.61	125.52	5.51	-54.5	-57.6	12.8	0.00e+00	0	29	0	1131413504	74	5342
2026-01-14 22:01:20.76	125.64	5.45	-54.7	-58.0	12.5	0.00e+00	0	29	0	1133510656	74	5610
2026-01-14 22:01:21.61	125.73	5.41	-54.7	-58.0	12.5	7.00e-07	0	29	0	1135607808	74	5605
2026-01-14 22:01:22.76	125.86	5.35	-54.6	-57.8	12.6	0.00e+00	0	28	0	1137704960	74	5492
2026-01-14 22:01:23.62	125.95	5.30	-54.6	-57.8	12.7	0.00e+00	0	28	0	1138753536	74	5482
2026-01-14 22:01:24.76	126.07	5.25	-54.6	-57.8	12.6	0.00e+00	0	28	0	1140850688	74	5486
2026-01-14 22:01:25.62	126.16	5.20	-54.7	-57.9	12.6	0.00e+00	0	29	0	1142947840	74	5541
2026-01-14 22:01:26.76	126.28	5.14	-54.7	-57.9	12.5	7.00e-07	0	29	0	1145044992	74	5573
2026-01-14 22:01:27.62	126.37	5.10	-54.6	-57.8	12.6	0.00e+00	0	29	0	1146093568	74	5507
2026-01-14 22:01:28.77	126.49	5.04	-54.6	-57.8	12.6	0.00e+00	0	29	0	1148190720	74	5520
2026-01-14 22:01:29.62	126.58	4.99	-54.8	-58.2	12.3	0.00e+00	0	29	0	1150287872	74	5754
2026-01-14 22:01:30.77	126.70	4.93	-58.6	-74.6	3.8	1.00e+00	0	29	104	1151336448	82	23894
2026-01-14 22:01:31.63	126.79	4.89	-58.9	-74.9	3.8	1.49e+00	0	29	104	1151336448	82	24726
2026-01-14 22:01:32.77	126.90	4.83	-59.2	-75.2	3.8	1.49e+00	0	29	104	1151336448	83	24386
2026-01-14 22:01:33.63	126.99	4.78	-59.4	-75.4	3.8	1.49e+00	0	29	104	1151336448	83	24914
2026-01-14 22:01:34.78	127.11	4.72	-59.8	-75.8	3.8	1.49e+00	0	28	104	1151336448	84	24594
2026-01-14 22:01:35.64	127.20	4.68	-59.9	-75.9	3.8	1.49e+00	0	29	104	1151336448	84	24890
2026-01-14 22:01:36.78	127.31	4.62	-60.0	-76.1	3.8	1.49e+00	0	29	104	1151336448	85	23924
2026-01-14 22:01:37.63	127.40	4.58	-60.1	-76.1	3.8	1.49e+00	0	29	104	1151336448	85	24092
2026-01-14 22:01:38.78	127.52	4.52	-60.2	-76.2	3.8	1.49e+00	0	29	104	1151336448	85	24342
2026-01-14 22:01:39.64	127.60	4.47	-60.2	-76.3	3.8	1.49e+00	0	29	104	1151336448	85	24569
2026-01-14 22:01:40.78	127.72	4.41	-60.3	-76.4	3.8	1.49e+00	0	29	104	1151336448	85	24715
2026-01-14 22:01:41.64	127.80	4.37	-60.3	-76.4	3.8	1.49e+00	0	29	104	1151336448	85	24828
2026-01-14 22:01:42.78	127.92	4.31	-60.4	-76.5	3.8	1.49e+00	0	29	104	1151336448	85	24994
2026-01-14 22:01:43.65	128.00	4.26	-60.4	-76.5	3.8	1.49e+00	0	29	104	1151336448	85	25067
2026-01-14 22:01:44.80	128.12	4.21	-60.5	-76.5	3.8	1.49e+00	0	29	104	1151336448	86	23790
2026-01-14 22:01:45.66	128.20	4.16	-60.5	-76.6	3.8	1.49e+00	0	29	104	1151336448	86	23893
2026-01-14 22:01:46.80	128.32	4.10	-60.5	-76.6	3.8	1.49e+00	0	29	104	1151336448	86	24008
2026-01-14 22:01:47.66	128.40	4.06	-60.6	-76.6	3.8	1.49e+00	0	29	104	1151336448	86	24127
2026-01-14 22:01:48.81	128.51	4.00	-60.6	-76.7	3.8	1.49e+00	0	29	104	1151336448	86	24155
2026-01-14 22:01:49.67	128.60	3.95	-60.6	-76.7	3.8	1.49e+00	0	29	104	1151336448	86	24245
2026-01-14 22:01:50.81	128.71	3.90	-60.6	-76.7	3.8	1.49e+00	0	29	104	1151336448	86	24314
2026-01-14 22:01:51.68	128.79	3.85	-60.7	-76.7	3.8	1.49e+00	0	29	104	1151336448	86	24297
2026-01-14 22:01:52.82	128.90	3.79	-60.7	-76.7	3.8	1.49e+00	0	29	104	1151336448	86	24369
2026-01-14 22:01:53.68	128.98	3.75	-60.7	-76.7	3.9	1.49e+00	0	29	104	1151336448	86	24367
2026-01-14 22:01:54.82	129.09	3.69	-60.7	-76.8	3.8	1.49e+00	0	29	104	1151336448	86	24426
2026-01-14 22:01:55.68	129.18	3.65	-60.7	-76.8	3.8	1.49e+00	0	29	104	1151336448	86	24417
2026-01-14 22:01:56.82	129.28	3.59	-60.6	-76.7	3.8	1.49e+00	0	29	104	1151336448	86	24362
2026-01-14 22:01:57.67	129.36	3.54	-60.6	-76.7	3.8	1.49e+00	0	29	104	1151336448	86	24302
2026-01-14 22:01:58.81	129.47	3.49	-60.6	-76.7	3.8	1.49e+00	0	29	104	1151336448	86	24251
2026-01-14 22:01:59.67	129.55	3.44	-60.6	-76.7	3.8	1.49e+00	0	29	104	1151336448	86	24265
2026-01-14 22:02:00.81	129.66	3.38	-60.6	-76.7	3.8	1.49e+00	0	29	104	1151336448	86	24270
2026-01-14 22:02:01.68	129.74	3.34	-60.6	-76.7	3.8	1.49e+00	0	29	104	1151336448	86	24170
2026-01-14 22:02:02.82	129.85	3.28	-60.6	-76.7	3.8	1.49e+00	0	29	104	1151336448	86	24182
2026-01-14 22:02:03.68	129.93	3.24	-60.6	-76.7	3.8	1.49e+00	0	29	104	1151336448	86	24197
