passes_logs/2026/01/14/R3.2S_Murmansk/R3.2S_Murmansk__20260114_062840_SUOMI_NPP_rec.log

#Pass ID: 20260114_062840_SUOMI NPP
#Satellite: SUOMI NPP
#Configuration: NPP
#almurnet v.1.7.20251203
#Start time: 2026-01-14 06:28:42

#Version: 2.2.20231116
#Station: R3.2S_Murmansk
#Location: 33.079688 lon 68.888172 lat
#TLE: 1 37849U 11061A   26013.55331121  .00000059  00000+0  48721-4 0  9992
#TLE: 2 37849  98.7808 315.6144 0002478  66.1553 293.9883 14.19524925736509

#Time	Az	El	Level	Level2	SNR	BER	BlckErr	Temp	State	Recorded	gain1	gain2
2026-01-14 06:28:42.37	83.13	2.12	-54.5	-70.4	3.8	1.49e+00	0	26	0	0	74	23528
2026-01-14 06:28:43.39	83.07	2.18	-54.4	-70.4	3.8	1.49e+00	0	26	104	0	73	24881
2026-01-14 06:28:44.40	83.01	2.24	-54.4	-70.4	3.8	1.49e+00	0	26	104	0	73	24892
2026-01-14 06:28:45.40	82.95	2.30	-54.5	-70.5	3.8	1.49e+00	0	26	104	0	74	23614
2026-01-14 06:28:46.41	82.89	2.36	-54.5	-70.4	3.8	1.49e+00	0	26	104	0	74	23552
2026-01-14 06:28:47.42	82.83	2.42	-54.5	-70.5	3.8	1.49e+00	0	26	104	0	74	23585
2026-01-14 06:28:48.43	82.77	2.48	-54.5	-70.5	3.8	1.49e+00	0	26	104	0	74	23615
2026-01-14 06:28:49.44	82.71	2.54	-54.5	-70.5	3.8	1.49e+00	0	26	104	0	74	23601
2026-01-14 06:28:50.45	82.65	2.60	-54.5	-70.5	3.8	1.49e+00	0	26	104	0	74	23602
2026-01-14 06:28:51.46	82.59	2.66	-54.5	-70.5	3.8	1.49e+00	0	26	104	0	74	23591
2026-01-14 06:28:52.47	82.53	2.72	-54.5	-70.5	3.8	1.49e+00	0	26	104	0	74	23602
2026-01-14 06:28:53.48	82.47	2.78	-54.5	-70.4	3.8	1.49e+00	0	26	104	0	74	23566
2026-01-14 06:28:54.49	82.41	2.84	-54.5	-70.5	3.8	1.49e+00	0	26	104	0	74	23586
2026-01-14 06:28:55.50	82.34	2.90	-54.5	-70.4	3.8	1.49e+00	0	26	104	0	74	23534
2026-01-14 06:28:56.50	82.28	2.96	-54.5	-70.5	3.8	1.49e+00	0	26	104	0	74	23588
2026-01-14 06:28:57.52	82.22	3.02	-54.5	-70.4	3.8	1.49e+00	0	26	104	0	74	23556
2026-01-14 06:28:58.53	82.16	3.08	-54.5	-70.4	3.8	1.49e+00	0	26	104	0	74	23539
2026-01-14 06:28:59.54	82.09	3.14	-54.5	-70.4	3.8	1.49e+00	0	26	104	0	74	23566
2026-01-14 06:29:00.54	82.03	3.20	-54.5	-70.4	3.8	1.49e+00	0	26	104	0	74	23524
2026-01-14 06:29:01.55	81.97	3.26	-54.4	-70.4	3.8	1.49e+00	0	26	104	0	74	23549
2026-01-14 06:29:02.56	81.90	3.32	-54.5	-70.5	3.8	1.49e+00	0	26	104	0	74	23598
2026-01-14 06:29:03.57	81.84	3.38	-54.5	-70.5	3.8	1.49e+00	0	26	104	0	74	23613
2026-01-14 06:29:04.58	81.78	3.44	-54.5	-70.5	3.8	1.49e+00	0	26	104	0	74	23649
2026-01-14 06:29:05.58	81.71	3.50	-54.5	-70.4	3.8	1.49e+00	0	26	104	0	74	23570
2026-01-14 06:29:06.60	81.65	3.56	-54.5	-70.4	3.8	1.49e+00	0	26	104	0	74	23561
2026-01-14 06:29:07.61	81.58	3.62	-54.5	-70.4	3.8	1.49e+00	0	26	104	0	74	23572
2026-01-14 06:29:08.61	81.52	3.68	-54.5	-70.5	3.8	1.49e+00	0	26	104	0	74	23636
2026-01-14 06:29:09.62	81.45	3.75	-54.5	-70.5	3.8	1.49e+00	0	26	104	0	74	23706
2026-01-14 06:29:10.64	81.38	3.81	-54.5	-70.5	3.8	1.49e+00	0	26	104	0	74	23617
2026-01-14 06:29:11.65	81.32	3.87	-54.5	-70.5	3.8	1.49e+00	0	27	104	0	74	23609
2026-01-14 06:29:12.66	81.25	3.93	-54.5	-70.5	3.8	1.49e+00	0	26	104	0	74	23583
2026-01-14 06:29:13.67	81.18	3.99	-54.5	-70.5	3.8	1.49e+00	0	26	104	0	74	23608
2026-01-14 06:29:14.68	81.12	4.06	-54.5	-70.5	3.8	1.49e+00	0	26	104	0	74	23618
2026-01-14 06:29:15.69	81.05	4.12	-54.5	-70.5	3.8	1.49e+00	0	26	104	0	74	23620
2026-01-14 06:29:16.70	80.98	4.18	-54.5	-70.5	3.8	1.49e+00	0	27	104	0	74	23643
2026-01-14 06:29:17.71	80.91	4.24	-54.5	-70.5	3.8	1.49e+00	0	26	104	0	74	23647
2026-01-14 06:29:18.72	80.84	4.30	-54.5	-70.5	3.8	1.49e+00	0	27	104	0	74	23615
2026-01-14 06:29:19.73	80.78	4.37	-54.5	-70.5	3.8	1.49e+00	0	27	104	0	74	23674
2026-01-14 06:29:20.73	80.71	4.43	-54.5	-70.5	3.8	1.49e+00	0	26	104	0	74	23612
2026-01-14 06:29:21.74	80.64	4.49	-54.5	-70.5	3.8	1.49e+00	0	26	104	0	74	23608
2026-01-14 06:29:22.75	80.57	4.55	-54.5	-70.5	3.8	1.49e+00	0	26	104	0	74	23701
2026-01-14 06:29:23.76	80.50	4.62	-54.5	-70.5	3.8	1.49e+00	0	27	104	0	74	23597
2026-01-14 06:29:24.77	80.43	4.68	-54.5	-70.5	3.8	1.49e+00	0	26	104	0	74	23694
2026-01-14 06:29:25.77	80.36	4.74	-54.5	-70.5	3.8	1.49e+00	0	27	104	0	74	23617
2026-01-14 06:29:26.78	80.29	4.81	-54.5	-70.5	3.8	1.49e+00	0	27	104	0	74	23618
2026-01-14 06:29:27.79	80.21	4.87	-54.5	-70.5	3.8	1.49e+00	0	27	104	0	74	23670
2026-01-14 06:29:28.80	80.14	4.93	-54.5	-70.5	3.8	1.49e+00	0	27	104	0	74	23630
2026-01-14 06:29:29.81	80.07	5.00	-54.5	-70.5	3.8	1.49e+00	0	27	104	0	74	23649
2026-01-14 06:29:30.81	80.00	5.06	-54.5	-70.5	3.8	1.49e+00	0	27	104	0	74	23671
2026-01-14 06:29:31.82	79.93	5.12	-54.5	-70.5	3.8	1.49e+00	0	27	104	0	74	23732
2026-01-14 06:29:32.83	79.85	5.19	-54.5	-70.5	3.8	1.49e+00	0	27	104	0	74	23697
2026-01-14 06:29:33.84	79.78	5.25	-54.5	-70.5	3.8	1.49e+00	0	27	104	0	74	23737
2026-01-14 06:29:34.85	79.71	5.32	-54.5	-70.5	3.8	1.49e+00	0	27	104	0	74	23661
2026-01-14 06:29:35.86	79.63	5.38	-54.5	-70.5	3.8	1.49e+00	0	27	104	0	74	23724
2026-01-14 06:29:36.87	79.56	5.44	-54.5	-70.5	3.8	1.49e+00	0	27	104	0	74	23602
2026-01-14 06:29:37.88	79.48	5.51	-54.5	-70.5	3.8	1.49e+00	0	27	104	0	74	23617
2026-01-14 06:29:38.89	79.41	5.57	-54.5	-70.5	3.8	1.49e+00	0	27	104	0	74	23689
2026-01-14 06:29:39.90	79.33	5.64	-54.5	-70.5	3.8	1.49e+00	0	27	104	0	74	23648
2026-01-14 06:29:40.91	79.26	5.70	-54.5	-70.5	3.8	1.49e+00	0	27	104	0	74	23647
2026-01-14 06:29:41.92	79.18	5.77	-54.5	-70.5	3.8	1.49e+00	0	27	104	0	74	23614
2026-01-14 06:29:42.93	79.11	5.83	-54.5	-70.5	3.8	1.49e+00	0	27	104	0	74	23688
2026-01-14 06:29:43.93	79.03	5.90	-54.5	-70.5	3.8	1.49e+00	0	27	104	0	74	23688
2026-01-14 06:29:44.94	78.95	5.96	-54.5	-70.5	3.8	1.49e+00	0	27	104	0	74	23708
2026-01-14 06:29:45.95	78.88	6.03	-54.5	-70.5	3.8	1.49e+00	0	27	104	0	74	23688
2026-01-14 06:29:46.96	78.80	6.09	-54.5	-70.5	3.8	1.49e+00	0	27	104	0	74	23660
2026-01-14 06:29:47.96	78.72	6.16	-54.5	-70.5	3.8	1.49e+00	0	27	104	0	74	23682
2026-01-14 06:29:48.97	78.64	6.22	-54.5	-70.5	3.8	1.49e+00	0	27	104	0	74	23671
2026-01-14 06:29:49.98	78.56	6.29	-54.5	-70.5	3.8	1.49e+00	0	27	104	0	74	23673
2026-01-14 06:29:50.99	78.48	6.35	-54.5	-70.5	3.8	1.49e+00	0	27	104	0	74	23641
2026-01-14 06:29:52.00	78.40	6.42	-54.5	-70.5	3.8	1.49e+00	0	27	104	0	74	23706
2026-01-14 06:29:53.00	78.32	6.49	-54.5	-70.5	3.8	1.49e+00	0	27	104	0	74	23656
2026-01-14 06:29:54.01	78.24	6.55	-54.5	-70.5	3.8	1.49e+00	0	27	104	0	74	23672
2026-01-14 06:29:55.02	78.16	6.62	-54.5	-70.5	3.8	1.49e+00	0	27	104	0	74	23686
2026-01-14 06:29:56.03	78.08	6.69	-54.5	-70.5	3.8	1.49e+00	0	27	104	0	74	23663
2026-01-14 06:29:57.04	78.00	6.75	-54.5	-70.5	3.8	1.49e+00	0	27	104	0	74	23704
2026-01-14 06:29:58.05	77.92	6.82	-54.5	-70.5	3.8	1.49e+00	0	27	104	0	74	23654
2026-01-14 06:29:59.06	77.84	6.89	-54.5	-70.5	3.8	1.49e+00	0	27	104	0	74	23681
2026-01-14 06:30:00.07	77.75	6.95	-54.5	-70.5	3.8	1.49e+00	0	27	104	0	74	23696
2026-01-14 06:30:01.08	77.67	7.02	-54.5	-70.5	3.8	1.49e+00	0	27	104	0	74	23693
2026-01-14 06:30:02.09	77.59	7.09	-54.5	-70.5	3.8	1.49e+00	0	27	104	0	74	23662
2026-01-14 06:30:03.10	77.50	7.15	-54.5	-70.5	3.8	1.49e+00	0	27	104	0	74	23704
2026-01-14 06:30:04.11	77.42	7.22	-54.5	-70.5	3.8	1.49e+00	0	27	104	0	74	23743
2026-01-14 06:30:05.13	77.33	7.29	-54.5	-70.5	3.8	1.49e+00	0	27	104	0	74	23700
2026-01-14 06:30:06.13	77.25	7.36	-54.5	-70.5	3.8	1.49e+00	0	27	104	0	74	23668
2026-01-14 06:30:07.14	77.16	7.42	-54.5	-70.5	3.8	1.49e+00	0	27	104	0	74	23688
2026-01-14 06:30:08.16	77.08	7.49	-54.5	-70.5	3.8	1.49e+00	0	27	104	0	74	23640
2026-01-14 06:30:09.17	76.99	7.56	-54.5	-70.5	3.8	1.49e+00	0	27	104	0	74	23699
2026-01-14 06:30:10.17	76.90	7.63	-54.5	-70.5	3.8	1.49e+00	0	27	104	0	74	23657
2026-01-14 06:30:11.18	76.82	7.70	-54.5	-70.5	3.8	1.49e+00	0	27	104	0	74	23760
2026-01-14 06:30:12.19	76.73	7.76	-54.5	-70.5	3.8	1.49e+00	0	27	104	0	74	23745
2026-01-14 06:30:13.20	76.64	7.83	-54.5	-70.5	3.8	1.49e+00	0	27	104	0	74	23688
2026-01-14 06:30:14.21	76.55	7.90	-54.5	-70.5	3.8	1.49e+00	0	27	104	0	74	23710
2026-01-14 06:30:15.22	76.46	7.97	-54.5	-70.5	3.8	1.49e+00	0	27	104	0	74	23629
2026-01-14 06:30:16.23	76.37	8.04	-54.5	-70.5	3.8	1.49e+00	0	27	104	0	74	23643
2026-01-14 06:30:17.24	76.28	8.11	-54.5	-70.5	3.8	1.49e+00	0	27	104	0	74	23729
2026-01-14 06:30:18.25	76.19	8.18	-54.5	-70.5	3.8	1.49e+00	0	27	104	0	74	23673
2026-01-14 06:30:19.26	76.10	8.25	-54.5	-70.5	3.8	1.49e+00	0	27	104	0	74	23720
2026-01-14 06:30:20.27	76.01	8.32	-54.5	-70.5	3.8	1.49e+00	0	27	104	0	74	23750
2026-01-14 06:30:21.27	75.92	8.38	-54.5	-70.5	3.8	1.49e+00	0	27	104	0	74	23709
2026-01-14 06:30:22.28	75.83	8.45	-54.5	-70.5	3.8	1.49e+00	0	27	104	0	74	23689
2026-01-14 06:30:23.29	75.74	8.52	-54.5	-70.5	3.8	1.49e+00	0	27	104	0	74	23705
2026-01-14 06:30:24.30	75.64	8.59	-54.5	-70.5	3.8	1.49e+00	0	27	104	0	74	23769
2026-01-14 06:30:25.31	75.55	8.66	-54.5	-70.5	3.8	1.49e+00	0	27	104	0	74	23689
2026-01-14 06:30:26.31	75.46	8.73	-54.5	-70.5	3.8	1.49e+00	0	27	104	0	74	23755
2026-01-14 06:30:27.32	75.36	8.80	-54.5	-70.5	3.8	1.49e+00	0	27	104	0	74	23669
2026-01-14 06:30:28.34	75.27	8.87	-54.5	-70.5	3.8	1.49e+00	0	27	104	0	74	23681
2026-01-14 06:30:29.34	75.17	8.94	-54.5	-70.5	3.8	1.49e+00	0	27	104	0	74	23688
2026-01-14 06:30:30.35	75.08	9.01	-54.5	-70.5	3.8	1.49e+00	0	27	104	0	74	23725
2026-01-14 06:30:31.35	74.98	9.08	-54.5	-70.5	3.8	1.49e+00	0	27	104	0	74	23712
2026-01-14 06:30:32.36	74.89	9.15	-54.5	-70.5	3.8	1.49e+00	0	27	104	0	74	23673
2026-01-14 06:30:33.37	74.79	9.23	-54.5	-70.5	3.8	1.49e+00	0	27	104	0	74	23691
2026-01-14 06:30:34.38	74.69	9.30	-54.5	-70.5	3.8	1.49e+00	0	27	104	0	74	23702
2026-01-14 06:30:35.39	74.59	9.37	-54.5	-70.5	3.8	1.49e+00	0	27	104	0	74	23746
2026-01-14 06:30:36.40	74.49	9.44	-54.5	-70.5	3.8	1.49e+00	0	27	104	0	74	23736
2026-01-14 06:30:37.40	74.40	9.51	-54.5	-70.5	3.8	1.49e+00	0	27	104	0	74	23730
2026-01-14 06:30:38.41	74.30	9.58	-54.5	-70.5	3.8	1.49e+00	0	27	104	0	74	23696
2026-01-14 06:30:39.42	74.20	9.65	-54.5	-70.5	3.8	1.49e+00	0	27	104	0	74	23702
2026-01-14 06:30:40.43	74.09	9.72	-54.5	-70.5	3.8	1.49e+00	0	27	104	0	74	23719
2026-01-14 06:30:41.44	73.99	9.80	-54.5	-70.5	3.8	1.49e+00	0	27	104	0	74	23685
2026-01-14 06:30:42.45	73.89	9.87	-54.5	-70.5	3.8	1.49e+00	0	27	104	0	74	23787
2026-01-14 06:30:43.46	73.79	9.94	-54.5	-70.5	3.8	1.49e+00	0	27	104	0	74	23733
2026-01-14 06:30:44.47	73.69	10.01	-54.5	-70.5	3.8	1.49e+00	0	27	104	0	74	23758
2026-01-14 06:30:45.48	73.58	10.08	-54.5	-70.5	3.8	1.49e+00	0	27	104	0	74	23755
2026-01-14 06:30:46.49	73.48	10.16	-54.5	-70.5	3.8	1.49e+00	0	27	104	0	74	23790
2026-01-14 06:30:47.50	73.38	10.23	-54.5	-70.5	3.8	1.49e+00	0	27	104	0	74	23737
2026-01-14 06:30:48.51	73.27	10.30	-54.5	-70.5	3.8	1.49e+00	0	27	104	0	74	23785
2026-01-14 06:30:49.52	73.16	10.37	-54.5	-70.5	3.8	1.49e+00	0	27	104	0	74	23798
2026-01-14 06:30:50.53	73.06	10.45	-54.5	-70.5	3.8	1.49e+00	0	27	104	0	74	23772
2026-01-14 06:30:51.53	72.95	10.52	-54.5	-70.5	3.8	1.49e+00	0	27	104	0	74	23743
2026-01-14 06:30:52.54	72.85	10.59	-54.5	-70.5	3.8	1.49e+00	0	27	104	0	74	23776
2026-01-14 06:30:53.55	72.74	10.67	-54.5	-70.5	3.8	1.49e+00	0	27	104	0	74	23722
2026-01-14 06:30:54.56	72.63	10.74	-54.5	-70.5	3.8	1.49e+00	0	27	104	0	74	23753
2026-01-14 06:30:55.57	72.52	10.81	-54.5	-70.5	3.8	1.49e+00	0	27	104	0	74	23736
2026-01-14 06:30:56.58	72.41	10.89	-54.5	-70.5	3.8	1.49e+00	0	27	104	0	74	23710
2026-01-14 06:30:57.59	72.30	10.96	-54.5	-70.5	3.8	1.49e+00	0	27	104	0	74	23706
2026-01-14 06:30:58.60	72.19	11.03	-54.5	-70.5	3.8	1.49e+00	0	27	104	0	74	23699
2026-01-14 06:30:59.60	72.08	11.11	-54.5	-70.5	3.8	1.49e+00	0	27	104	0	74	23709
2026-01-14 06:31:00.60	71.97	11.18	-54.5	-70.5	3.8	1.49e+00	0	27	104	0	74	23747
2026-01-14 06:31:01.61	71.86	11.26	-54.5	-70.5	3.8	1.49e+00	0	27	104	0	74	23763
2026-01-14 06:31:02.62	71.75	11.33	-54.5	-70.5	3.8	1.49e+00	0	27	104	0	74	23710
2026-01-14 06:31:03.63	71.63	11.40	-54.5	-70.5	3.8	1.49e+00	0	27	104	0	74	23775
2026-01-14 06:31:04.64	71.52	11.48	-54.5	-70.5	3.8	1.49e+00	0	27	104	0	74	23748
2026-01-14 06:31:05.65	71.41	11.55	-54.5	-70.5	3.8	1.49e+00	0	27	104	0	74	23637
2026-01-14 06:31:06.65	71.29	11.63	-54.5	-70.5	3.8	1.49e+00	0	27	104	0	74	23709
2026-01-14 06:31:07.66	71.18	11.70	-54.5	-70.5	3.8	1.49e+00	0	27	104	0	74	23742
2026-01-14 06:31:08.67	71.06	11.78	-54.5	-70.5	3.8	1.49e+00	0	27	104	0	74	23764
2026-01-14 06:31:09.68	70.94	11.85	-54.5	-70.5	3.8	1.49e+00	0	27	104	0	74	23752
2026-01-14 06:31:10.69	70.82	11.93	-54.5	-70.5	3.8	1.49e+00	0	27	104	0	74	23792
2026-01-14 06:31:11.71	70.71	12.00	-54.5	-70.5	3.8	1.49e+00	0	27	104	0	74	23805
2026-01-14 06:31:12.72	70.59	12.08	-54.5	-70.5	3.8	1.49e+00	0	27	104	0	74	23761
2026-01-14 06:31:13.73	70.47	12.15	-54.5	-70.5	3.8	1.49e+00	0	27	104	0	74	23794
2026-01-14 06:31:14.73	70.35	12.23	-54.5	-70.5	3.8	1.49e+00	0	27	104	0	74	23811
2026-01-14 06:31:15.74	70.23	12.30	-54.5	-70.5	3.8	1.49e+00	0	27	104	0	74	23760
2026-01-14 06:31:16.75	70.11	12.38	-54.5	-70.5	3.8	1.49e+00	0	27	104	0	74	23743
2026-01-14 06:31:17.76	69.98	12.46	-54.5	-70.5	3.8	1.49e+00	0	27	104	0	74	23812
2026-01-14 06:31:18.77	69.86	12.53	-54.5	-70.5	3.8	1.49e+00	0	27	104	0	74	23809
2026-01-14 06:31:19.78	69.74	12.61	-54.5	-70.5	3.8	1.49e+00	0	27	104	0	74	23713
2026-01-14 06:31:20.79	69.61	12.69	-54.5	-70.5	3.9	1.49e+00	0	27	104	0	74	23731
2026-01-14 06:31:21.80	69.49	12.76	-54.5	-70.5	3.8	1.49e+00	0	27	104	0	74	23794
2026-01-14 06:31:22.81	69.37	12.84	-54.5	-70.5	3.8	1.49e+00	0	27	104	0	74	23798
2026-01-14 06:31:23.82	69.24	12.91	-54.6	-70.5	3.8	1.49e+00	0	27	104	0	74	23789
2026-01-14 06:31:24.83	69.11	12.99	-54.5	-70.5	3.8	1.49e+00	0	27	104	0	74	23786
2026-01-14 06:31:25.84	68.99	13.07	-54.5	-70.5	3.8	1.49e+00	0	27	104	0	74	23745
2026-01-14 06:31:26.85	68.86	13.14	-54.5	-70.5	3.8	1.49e+00	0	27	104	0	74	23707
2026-01-14 06:31:27.86	68.73	13.22	-54.6	-70.6	3.8	1.49e+00	0	27	104	0	74	23865
2026-01-14 06:31:28.87	68.60	13.30	-54.5	-70.6	3.8	1.49e+00	0	27	104	0	74	23871
2026-01-14 06:31:29.88	68.47	13.38	-54.5	-70.5	3.8	1.49e+00	0	27	104	0	74	23795
2026-01-14 06:31:30.89	68.34	13.45	-54.6	-70.6	3.8	1.49e+00	0	27	104	0	74	23858
2026-01-14 06:31:31.90	68.21	13.53	-54.5	-70.5	3.8	1.49e+00	0	27	104	0	74	23833
2026-01-14 06:31:32.91	68.08	13.61	-54.6	-70.5	3.8	1.49e+00	0	27	104	0	74	23807
2026-01-14 06:31:33.91	67.94	13.69	-54.6	-70.5	3.8	1.49e+00	0	27	104	0	74	23833
2026-01-14 06:31:34.92	67.81	13.76	-54.6	-70.5	3.8	1.49e+00	0	27	104	0	74	23799
2026-01-14 06:31:35.93	67.68	13.84	-54.6	-70.5	3.8	1.49e+00	0	27	104	0	74	23779
2026-01-14 06:31:36.93	67.54	13.92	-54.5	-70.5	3.8	1.49e+00	0	27	104	0	74	23783
2026-01-14 06:31:37.94	67.41	14.00	-54.5	-70.5	3.8	1.49e+00	0	27	104	0	74	23765
2026-01-14 06:31:38.95	67.27	14.07	-54.6	-70.5	3.8	1.49e+00	0	27	104	0	74	23750
2026-01-14 06:31:39.96	67.13	14.15	-54.5	-70.5	3.8	1.49e+00	0	27	104	0	74	23829
2026-01-14 06:31:40.97	67.00	14.23	-54.6	-70.5	3.8	1.49e+00	0	27	104	0	74	23839
2026-01-14 06:31:41.98	66.86	14.31	-54.6	-70.5	3.8	1.49e+00	0	27	104	0	74	23840
2026-01-14 06:31:42.99	66.72	14.39	-54.6	-70.5	3.8	1.49e+00	0	27	104	0	74	23806
2026-01-14 06:31:44.00	66.58	14.46	-54.6	-70.6	3.8	1.49e+00	0	27	104	0	74	23863
2026-01-14 06:31:45.00	66.44	14.54	-54.6	-70.6	3.8	1.49e+00	0	27	104	0	74	23867
2026-01-14 06:31:46.01	66.30	14.62	-54.6	-70.6	3.8	1.49e+00	0	27	104	0	74	23873
2026-01-14 06:31:47.02	66.15	14.70	-54.5	-70.5	3.8	1.49e+00	0	27	104	0	74	23776
2026-01-14 06:31:48.03	66.01	14.78	-54.6	-70.5	3.8	1.49e+00	0	27	104	0	74	23804
2026-01-14 06:31:49.04	65.87	14.86	-54.6	-70.6	3.8	1.49e+00	0	27	104	0	74	23860
2026-01-14 06:31:50.05	65.72	14.94	-54.6	-70.5	3.8	1.49e+00	0	27	104	0	74	23828
2026-01-14 06:31:51.06	65.58	15.01	-54.6	-70.6	3.8	1.49e+00	0	27	104	0	74	23875
2026-01-14 06:31:52.06	65.43	15.09	-54.6	-70.6	3.8	1.49e+00	0	27	104	0	74	23887
2026-01-14 06:31:53.08	65.28	15.17	-54.6	-70.6	3.8	1.49e+00	0	27	104	0	74	23922
2026-01-14 06:31:54.08	65.14	15.25	-54.6	-70.6	3.8	1.49e+00	0	27	104	0	74	23905
2026-01-14 06:31:55.09	64.99	15.33	-54.5	-70.5	3.8	1.49e+00	0	27	104	0	74	23777
2026-01-14 06:31:56.10	64.84	15.41	-54.6	-70.5	3.8	1.49e+00	0	27	104	0	74	23827
2026-01-14 06:31:57.10	64.69	15.49	-54.6	-70.5	3.9	1.49e+00	0	27	104	0	74	23839
2026-01-14 06:31:58.11	64.54	15.57	-54.6	-70.5	3.8	1.49e+00	0	27	104	0	74	23828
2026-01-14 06:31:59.12	64.39	15.65	-54.6	-70.5	3.8	1.49e+00	0	27	104	0	74	23823
2026-01-14 06:32:00.13	64.24	15.73	-54.6	-70.5	3.8	1.49e+00	0	27	104	0	74	23829
2026-01-14 06:32:01.14	64.08	15.81	-54.6	-70.5	3.8	1.49e+00	0	27	104	0	74	23844
2026-01-14 06:32:02.15	63.93	15.89	-54.5	-70.5	3.8	1.49e+00	0	27	104	0	74	23836
2026-01-14 06:32:03.16	63.77	15.96	-54.6	-70.5	3.8	1.49e+00	0	27	104	0	74	23836
2026-01-14 06:32:04.17	63.62	16.04	-54.6	-70.6	3.8	1.49e+00	0	27	104	0	74	23855
2026-01-14 06:32:05.18	63.46	16.12	-54.6	-70.5	3.8	1.49e+00	0	27	104	0	74	23818
2026-01-14 06:32:06.18	63.30	16.20	-54.6	-70.6	3.8	1.49e+00	0	27	104	0	74	23897
2026-01-14 06:32:07.19	63.15	16.28	-54.6	-70.5	3.8	1.49e+00	0	27	104	0	74	23839
2026-01-14 06:32:08.20	62.99	16.36	-54.6	-70.5	3.8	1.49e+00	0	27	104	0	74	23797
2026-01-14 06:32:09.21	62.83	16.44	-54.6	-70.5	3.8	1.49e+00	0	27	104	0	74	23852
2026-01-14 06:32:10.22	62.66	16.52	-54.6	-70.5	3.8	1.49e+00	0	27	104	0	74	23823
2026-01-14 06:32:11.23	62.50	16.60	-54.6	-70.5	3.8	1.49e+00	0	27	104	0	74	23794
2026-01-14 06:32:12.24	62.34	16.68	-54.6	-70.5	3.8	1.49e+00	0	27	104	0	74	23765
2026-01-14 06:32:13.25	62.18	16.76	-54.5	-70.6	3.8	1.49e+00	0	27	104	0	74	23868
2026-01-14 06:32:14.26	62.01	16.84	-54.6	-70.5	3.8	1.49e+00	0	27	104	0	74	23791
2026-01-14 06:32:15.27	61.85	16.92	-54.6	-70.5	3.8	1.49e+00	0	27	104	0	74	23776
2026-01-14 06:32:16.28	61.68	17.00	-54.6	-70.5	3.8	1.49e+00	0	27	104	0	74	23802
2026-01-14 06:32:17.29	61.51	17.08	-54.6	-70.5	3.8	1.49e+00	0	27	104	0	74	23849
2026-01-14 06:32:18.30	61.34	17.16	-54.6	-70.6	3.8	1.49e+00	0	27	104	0	74	23917
2026-01-14 06:32:19.31	61.17	17.24	-54.6	-70.5	3.8	1.49e+00	0	27	104	0	74	23800
2026-01-14 06:32:20.32	61.00	17.32	-54.5	-70.5	3.8	1.49e+00	0	27	104	0	74	23840
2026-01-14 06:32:21.32	60.84	17.40	-54.6	-70.5	3.8	1.49e+00	0	27	104	0	74	23784
2026-01-14 06:32:22.32	60.67	17.48	-54.5	-70.5	3.8	1.49e+00	0	27	104	0	74	23838
2026-01-14 06:32:23.33	60.49	17.56	-54.5	-70.6	3.8	1.49e+00	0	27	104	0	74	23855
2026-01-14 06:32:24.34	60.32	17.64	-54.6	-70.5	3.8	1.49e+00	0	27	104	0	74	23814
2026-01-14 06:32:25.35	60.14	17.72	-54.6	-70.6	3.8	1.49e+00	0	27	104	0	74	23891
2026-01-14 06:32:26.36	59.97	17.80	-54.6	-70.5	3.8	1.49e+00	0	27	104	0	74	23819
2026-01-14 06:32:27.37	59.79	17.88	-54.6	-70.5	3.8	1.49e+00	0	27	104	0	74	23773
2026-01-14 06:32:28.38	59.61	17.96	-54.6	-70.5	3.8	1.49e+00	0	27	104	0	74	23842
2026-01-14 06:32:29.39	59.44	18.04	-54.6	-70.5	3.8	1.49e+00	0	27	104	0	74	23792
2026-01-14 06:32:30.40	59.26	18.12	-54.6	-70.6	3.8	1.49e+00	0	27	104	0	74	23868
2026-01-14 06:32:31.41	59.08	18.20	-54.5	-70.5	3.8	1.49e+00	0	27	104	0	74	23816
2026-01-14 06:32:32.41	58.90	18.28	-54.6	-70.5	3.8	1.49e+00	0	27	104	0	74	23850
2026-01-14 06:32:33.42	58.71	18.36	-54.6	-70.6	3.8	1.49e+00	0	27	104	0	74	23866
2026-01-14 06:32:34.43	58.53	18.44	-54.6	-70.5	3.8	1.49e+00	0	27	104	0	74	23840
2026-01-14 06:32:35.44	58.35	18.52	-54.6	-70.5	3.8	1.49e+00	0	27	104	0	74	23808
2026-01-14 06:32:36.45	58.16	18.60	-54.6	-70.5	3.8	1.49e+00	0	27	104	0	74	23840
2026-01-14 06:32:37.46	57.98	18.68	-54.6	-70.6	3.8	1.49e+00	0	27	104	0	74	23899
2026-01-14 06:32:38.47	57.79	18.76	-54.6	-70.6	3.8	1.49e+00	0	27	104	0	74	23889
2026-01-14 06:32:39.48	57.60	18.83	-54.6	-70.6	3.8	1.49e+00	0	27	104	0	74	23879
2026-01-14 06:32:40.49	57.41	18.91	-54.6	-70.6	3.8	1.49e+00	0	27	104	0	74	23892
2026-01-14 06:32:41.49	57.22	18.99	-54.6	-70.5	3.8	1.49e+00	0	27	104	0	74	23837
2026-01-14 06:32:42.50	57.03	19.07	-54.6	-70.5	3.8	1.49e+00	0	27	104	0	74	23776
2026-01-14 06:32:43.51	56.84	19.15	-54.6	-70.5	3.8	1.49e+00	0	27	104	0	74	23818
2026-01-14 06:32:44.52	56.65	19.23	-54.6	-70.5	3.8	1.49e+00	0	27	104	0	74	23824
2026-01-14 06:32:45.53	56.45	19.31	-54.6	-70.6	3.8	1.49e+00	0	27	104	0	74	23876
2026-01-14 06:32:46.55	56.25	19.39	-54.6	-70.5	3.8	1.49e+00	0	27	104	0	74	23803
2026-01-14 06:32:47.55	56.06	19.47	-54.5	-70.6	3.8	1.49e+00	0	27	104	0	74	23864
2026-01-14 06:32:48.56	55.86	19.54	-54.6	-70.5	3.8	1.49e+00	0	27	104	0	74	23807
2026-01-14 06:32:49.57	55.66	19.62	-54.6	-70.5	3.8	1.49e+00	0	27	104	0	74	23835
2026-01-14 06:32:50.58	55.47	19.70	-54.5	-70.5	3.8	1.49e+00	0	27	104	0	74	23833
2026-01-14 06:32:51.59	55.26	19.78	-54.6	-70.5	3.8	1.49e+00	0	27	104	0	74	23821
2026-01-14 06:32:52.59	55.07	19.86	-54.6	-70.5	3.8	1.49e+00	0	27	104	0	74	23829
2026-01-14 06:32:53.60	54.86	19.93	-54.6	-70.5	3.8	1.49e+00	0	27	104	0	74	23829
2026-01-14 06:32:54.61	54.66	20.01	-54.6	-70.5	3.8	1.49e+00	0	27	104	0	74	23833
2026-01-14 06:32:55.61	54.46	20.09	-54.5	-70.5	3.8	1.49e+00	0	27	104	0	74	23785
2026-01-14 06:32:56.62	54.25	20.17	-54.6	-70.5	3.8	1.49e+00	0	27	104	0	74	23835
2026-01-14 06:32:57.63	54.05	20.24	-54.6	-70.6	3.8	1.49e+00	0	27	104	0	74	23902
2026-01-14 06:32:58.64	53.84	20.32	-54.6	-70.6	3.8	1.49e+00	0	27	104	0	74	23884
2026-01-14 06:32:59.65	53.63	20.40	-54.6	-70.5	3.8	1.49e+00	0	27	104	0	74	23852
2026-01-14 06:33:00.66	53.42	20.48	-54.6	-70.5	3.8	1.49e+00	0	27	104	0	74	23851
2026-01-14 06:33:01.67	53.21	20.55	-54.5	-70.5	3.8	1.49e+00	0	27	104	0	74	23823
2026-01-14 06:33:02.68	53.00	20.63	-54.5	-70.6	3.8	1.49e+00	0	27	104	0	74	23867
2026-01-14 06:33:03.69	52.78	20.71	-54.6	-70.5	3.8	1.49e+00	0	27	104	0	74	23824
2026-01-14 06:33:04.70	52.57	20.78	-54.6	-70.5	3.8	1.49e+00	0	27	104	0	74	23852
2026-01-14 06:33:05.71	52.35	20.86	-54.6	-70.5	3.8	1.49e+00	0	27	104	0	74	23825
2026-01-14 06:33:06.71	52.14	20.93	-54.6	-70.5	3.8	1.49e+00	0	27	104	0	74	23836
2026-01-14 06:33:07.72	51.92	21.01	-54.6	-70.6	3.8	1.49e+00	0	27	104	0	74	23908
2026-01-14 06:33:08.73	51.70	21.08	-54.6	-70.6	3.8	1.49e+00	0	27	104	0	74	23865
2026-01-14 06:33:09.74	51.49	21.16	-54.6	-70.5	3.8	1.49e+00	0	27	104	0	74	23831
2026-01-14 06:33:10.75	51.26	21.23	-54.6	-70.5	3.8	1.49e+00	0	27	104	0	74	23787
2026-01-14 06:33:11.76	51.04	21.31	-54.6	-70.6	3.8	1.49e+00	0	27	104	0	74	23857
2026-01-14 06:33:12.77	50.82	21.38	-54.5	-70.6	3.8	1.49e+00	0	27	104	0	74	23862
2026-01-14 06:33:13.78	50.60	21.46	-54.5	-70.5	3.8	1.49e+00	0	27	104	0	74	23805
2026-01-14 06:33:14.79	50.37	21.53	-54.6	-70.5	3.8	1.49e+00	0	27	104	0	74	23819
2026-01-14 06:33:15.80	50.15	21.60	-54.5	-70.5	3.8	1.49e+00	0	27	104	0	74	23831
2026-01-14 06:33:16.81	49.92	21.68	-54.6	-70.5	3.8	1.49e+00	0	27	104	0	74	23817
2026-01-14 06:33:17.81	49.69	21.75	-54.6	-70.5	3.8	1.49e+00	0	27	104	0	74	23825
2026-01-14 06:33:18.82	49.46	21.82	-54.5	-70.5	3.8	1.49e+00	0	27	104	0	74	23800
2026-01-14 06:33:19.83	49.23	21.89	-54.5	-70.5	3.8	1.49e+00	0	27	104	0	74	23803
2026-01-14 06:33:20.84	49.00	21.97	-54.6	-70.5	3.9	1.49e+00	0	27	104	0	74	23791
2026-01-14 06:33:21.85	48.77	22.04	-54.5	-70.5	3.8	1.49e+00	0	27	104	0	74	23734
2026-01-14 06:33:22.86	48.54	22.11	-54.6	-70.5	3.8	1.49e+00	0	27	104	0	74	23842
2026-01-14 06:33:23.87	48.30	22.18	-54.6	-70.6	3.8	1.49e+00	0	27	104	0	74	23883
2026-01-14 06:33:24.88	48.07	22.25	-54.5	-70.6	3.8	1.49e+00	0	27	104	0	74	23868
2026-01-14 06:33:25.88	47.83	22.32	-54.6	-70.6	3.8	1.49e+00	0	27	104	0	74	23889
2026-01-14 06:33:26.90	47.59	22.39	-54.5	-70.6	3.8	1.49e+00	0	27	104	0	74	23858
2026-01-14 06:33:27.91	47.35	22.46	-54.6	-70.5	3.8	1.49e+00	0	27	104	0	74	23760
2026-01-14 06:33:28.92	47.11	22.53	-54.6	-70.6	3.8	1.49e+00	0	27	104	0	74	23905
2026-01-14 06:33:29.93	46.87	22.60	-54.6	-70.5	3.8	1.49e+00	0	27	104	0	74	23824
2026-01-14 06:33:30.94	46.63	22.67	-54.6	-70.5	3.8	1.49e+00	0	28	104	0	74	23832
2026-01-14 06:33:31.95	46.39	22.74	-54.6	-70.5	3.8	1.49e+00	0	27	104	0	74	23828
2026-01-14 06:33:32.96	46.14	22.81	-54.6	-70.6	3.8	1.49e+00	0	27	104	0	74	23858
2026-01-14 06:33:33.97	45.90	22.88	-54.6	-70.5	3.8	1.49e+00	0	27	104	0	74	23853
2026-01-14 06:33:34.97	45.65	22.94	-54.6	-70.5	3.8	1.49e+00	0	28	104	0	74	23784
2026-01-14 06:33:35.98	45.41	23.01	-54.5	-70.5	3.8	1.49e+00	0	27	104	0	74	23824
2026-01-14 06:33:36.99	45.16	23.08	-54.6	-70.6	3.8	1.49e+00	0	27	104	0	74	23863
2026-01-14 06:33:37.99	44.91	23.14	-54.6	-70.6	3.8	1.49e+00	0	27	104	0	74	23919
2026-01-14 06:33:39.00	44.66	23.21	-54.6	-70.5	3.8	1.49e+00	0	27	104	0	74	23816
2026-01-14 06:33:40.01	44.41	23.27	-54.6	-70.5	3.8	1.49e+00	0	27	104	0	74	23828
2026-01-14 06:33:41.02	44.15	23.34	-54.6	-70.5	3.8	1.49e+00	0	27	104	0	74	23801
2026-01-14 06:33:42.03	43.90	23.40	-54.6	-70.5	3.8	1.49e+00	0	27	104	0	74	23834
2026-01-14 06:33:43.04	43.65	23.47	-54.6	-70.5	3.8	1.49e+00	0	27	104	0	74	23770
2026-01-14 06:33:44.05	43.39	23.53	-54.6	-70.5	3.8	1.49e+00	0	27	104	0	74	23831
2026-01-14 06:33:45.05	43.14	23.59	-54.6	-70.5	3.8	1.49e+00	0	27	104	0	74	23832
2026-01-14 06:33:46.06	42.88	23.66	-54.6	-70.5	3.8	1.49e+00	0	27	104	0	74	23792
2026-01-14 06:33:47.07	42.62	23.72	-54.6	-70.5	3.9	1.49e+00	0	27	104	0	74	23784
2026-01-14 06:33:48.08	42.36	23.78	-54.6	-70.5	3.8	1.49e+00	0	27	104	0	74	23833
2026-01-14 06:33:49.09	42.10	23.84	-54.6	-70.6	3.8	1.49e+00	0	27	104	0	74	23877
2026-01-14 06:33:50.10	41.83	23.90	-54.6	-70.6	3.8	1.49e+00	0	28	104	0	74	23933
2026-01-14 06:33:51.11	41.57	23.96	-54.6	-70.5	3.8	1.49e+00	0	27	104	0	74	23844
2026-01-14 06:33:52.12	41.31	24.02	-54.6	-70.5	3.8	1.49e+00	0	27	104	0	74	23811
2026-01-14 06:33:53.13	41.04	24.08	-54.6	-70.6	3.8	1.49e+00	0	27	104	0	74	23873
2026-01-14 06:33:54.14	40.78	24.14	-54.6	-70.6	3.8	1.49e+00	0	27	104	0	74	23868
2026-01-14 06:33:55.14	40.51	24.20	-54.6	-70.6	3.8	1.49e+00	0	28	104	0	74	23875
2026-01-14 06:33:56.15	40.24	24.25	-54.6	-70.6	3.8	1.49e+00	0	27	104	0	74	23902
2026-01-14 06:33:57.16	39.97	24.31	-54.5	-70.6	3.8	1.49e+00	0	27	104	0	74	23870
2026-01-14 06:33:58.17	39.70	24.37	-54.6	-70.6	3.8	1.49e+00	0	27	104	0	74	23864
2026-01-14 06:33:59.19	39.43	24.42	-54.6	-70.5	3.8	1.49e+00	0	27	104	0	74	23832
2026-01-14 06:34:00.20	39.16	24.48	-54.6	-70.5	3.8	1.49e+00	0	27	104	0	74	23774
2026-01-14 06:34:01.21	38.88	24.53	-54.6	-70.6	3.8	1.49e+00	0	28	104	0	74	23892
2026-01-14 06:34:02.22	38.61	24.59	-54.6	-70.6	3.8	1.49e+00	0	27	104	0	74	23867
2026-01-14 06:34:03.22	38.34	24.64	-54.6	-70.6	3.8	1.49e+00	0	27	104	0	74	23877
2026-01-14 06:34:04.23	38.06	24.69	-54.6	-70.6	3.8	1.49e+00	0	27	104	0	74	23924
2026-01-14 06:34:05.24	37.79	24.74	-54.6	-70.5	3.8	1.49e+00	0	27	104	0	74	23780
2026-01-14 06:34:06.25	37.51	24.80	-54.6	-70.6	3.8	1.49e+00	0	27	104	0	74	23888
2026-01-14 06:34:07.26	37.23	24.85	-54.6	-70.6	3.8	1.49e+00	0	27	104	0	74	23867
2026-01-14 06:34:08.26	36.95	24.90	-54.6	-70.5	3.8	1.49e+00	0	27	104	0	74	23817
2026-01-14 06:34:09.27	36.67	24.95	-54.6	-70.6	3.8	1.49e+00	0	27	104	0	74	23865
2026-01-14 06:34:10.28	36.39	24.99	-54.6	-70.6	3.8	1.49e+00	0	27	104	0	74	23878
2026-01-14 06:34:11.29	36.11	25.04	-54.6	-70.6	3.8	1.49e+00	0	27	104	0	74	23868
2026-01-14 06:34:12.30	35.83	25.09	-54.6	-70.5	3.8	1.49e+00	0	27	104	0	74	23811
2026-01-14 06:34:13.31	35.54	25.14	-54.6	-70.6	3.8	1.49e+00	0	27	104	0	74	23866
2026-01-14 06:34:14.32	35.26	25.18	-54.6	-70.6	3.8	1.49e+00	0	27	104	0	74	23894
2026-01-14 06:34:15.33	34.97	25.23	-54.6	-70.5	3.8	1.49e+00	0	27	104	0	74	23842
2026-01-14 06:34:16.33	34.69	25.27	-54.6	-70.6	3.8	1.49e+00	0	27	104	0	74	23864
2026-01-14 06:34:17.34	34.40	25.32	-54.6	-70.6	3.8	1.49e+00	0	27	104	0	74	23875
2026-01-14 06:34:18.35	34.11	25.36	-54.6	-70.6	3.8	1.49e+00	0	27	104	0	74	23882
2026-01-14 06:34:19.36	33.82	25.40	-54.6	-70.5	3.8	1.49e+00	0	27	104	0	74	23840
2026-01-14 06:34:20.38	33.53	25.45	-54.6	-70.6	3.8	1.49e+00	0	27	104	0	74	23903
2026-01-14 06:34:21.38	33.24	25.49	-54.6	-70.5	3.8	1.49e+00	0	28	104	0	74	23797
2026-01-14 06:34:22.39	32.95	25.53	-54.6	-70.5	3.8	1.49e+00	0	27	104	0	74	23832
2026-01-14 06:34:23.40	32.66	25.57	-54.6	-70.5	3.8	1.49e+00	0	27	104	0	74	23853
2026-01-14 06:34:24.41	32.37	25.61	-54.6	-70.6	3.8	1.49e+00	0	27	104	0	74	23877
2026-01-14 06:34:25.42	32.08	25.64	-54.6	-70.5	3.8	1.49e+00	0	27	104	0	74	23815
2026-01-14 06:34:26.43	31.78	25.68	-54.6	-70.6	3.8	1.49e+00	0	28	104	0	74	23871
2026-01-14 06:34:27.44	31.49	25.72	-54.6	-70.6	3.8	1.49e+00	0	27	104	0	74	23888
2026-01-14 06:34:28.45	31.19	25.75	-54.6	-70.6	3.8	1.49e+00	0	27	104	0	74	23872
2026-01-14 06:34:29.46	30.90	25.79	-54.6	-70.5	3.8	1.49e+00	0	27	104	0	74	23836
2026-01-14 06:34:30.47	30.60	25.82	-54.6	-70.6	3.8	1.49e+00	0	27	104	0	74	23876
2026-01-14 06:34:31.48	30.30	25.86	-54.6	-70.5	3.8	1.49e+00	0	27	104	0	74	23824
2026-01-14 06:34:32.49	30.00	25.89	-54.6	-70.5	3.8	1.49e+00	0	27	104	0	74	23796
2026-01-14 06:34:33.50	29.71	25.92	-54.6	-70.6	3.8	1.49e+00	0	28	104	0	74	23902
2026-01-14 06:34:34.51	29.41	25.95	-54.6	-70.6	3.8	1.49e+00	0	27	104	0	74	23894
2026-01-14 06:34:35.52	29.11	25.98	-54.6	-70.5	3.8	1.49e+00	0	27	104	0	74	23848
2026-01-14 06:34:36.52	28.81	26.01	-54.6	-70.5	3.8	1.49e+00	0	27	104	0	74	23835
2026-01-14 06:34:37.53	28.51	26.04	-54.6	-70.6	3.8	1.49e+00	0	27	104	0	74	23894
2026-01-14 06:34:38.54	28.21	26.07	-54.6	-70.6	3.8	1.49e+00	0	27	104	0	74	23856
2026-01-14 06:34:39.55	27.91	26.09	-54.5	-70.5	3.8	1.49e+00	0	27	104	0	74	23787
2026-01-14 06:34:40.56	27.60	26.12	-54.6	-70.5	3.8	1.49e+00	0	27	104	0	74	23818
2026-01-14 06:34:41.57	27.30	26.14	-54.6	-70.5	3.8	1.49e+00	0	27	104	0	74	23795
2026-01-14 06:34:42.58	27.00	26.17	-54.6	-70.5	3.8	1.49e+00	0	27	104	0	74	23849
2026-01-14 06:34:43.59	26.69	26.19	-54.6	-70.6	3.8	1.49e+00	0	27	104	0	74	23859
2026-01-14 06:34:44.60	26.39	26.21	-54.6	-70.5	3.8	1.49e+00	0	27	104	0	74	23849
2026-01-14 06:34:45.61	26.08	26.23	-54.5	-70.5	3.8	1.49e+00	0	27	104	0	74	23778
2026-01-14 06:34:46.61	25.78	26.26	-54.5	-70.5	3.8	1.49e+00	0	27	104	0	74	23796
2026-01-14 06:34:47.62	25.48	26.28	-54.6	-70.6	3.8	1.49e+00	0	27	104	0	74	23861
2026-01-14 06:34:48.63	25.17	26.29	-54.5	-70.5	3.8	1.49e+00	0	27	104	0	74	23797
2026-01-14 06:34:49.64	24.87	26.31	-54.6	-70.6	3.8	1.49e+00	0	27	104	0	74	23867
2026-01-14 06:34:50.65	24.56	26.33	-54.5	-70.5	3.8	1.49e+00	0	27	104	0	74	23770
2026-01-14 06:34:51.66	24.25	26.35	-54.5	-70.5	3.8	1.49e+00	0	27	104	0	74	23779
2026-01-14 06:34:52.67	23.95	26.36	-54.5	-70.5	3.8	1.49e+00	0	28	104	0	74	23834
2026-01-14 06:34:53.68	23.64	26.38	-54.6	-70.5	3.8	1.49e+00	0	27	104	0	74	23794
2026-01-14 06:34:54.69	23.33	26.39	-54.5	-70.5	3.8	1.49e+00	0	27	104	0	74	23813
2026-01-14 06:34:55.69	23.03	26.40	-54.6	-70.5	3.8	1.49e+00	0	27	104	0	74	23796
2026-01-14 06:34:56.70	22.72	26.41	-54.6	-70.5	3.8	1.49e+00	0	27	104	0	74	23840
2026-01-14 06:34:57.71	22.41	26.42	-54.6	-70.5	3.8	1.49e+00	0	28	104	0	74	23797
2026-01-14 06:34:58.72	22.10	26.43	-54.6	-70.5	3.8	1.49e+00	0	27	104	0	74	23805
2026-01-14 06:34:59.73	21.79	26.44	-54.6	-70.5	3.8	1.49e+00	0	27	104	0	74	23801
2026-01-14 06:35:00.74	21.48	26.45	-54.5	-70.5	3.8	1.49e+00	0	27	104	0	74	23831
2026-01-14 06:35:01.75	21.17	26.46	-54.6	-70.5	3.8	1.49e+00	0	27	104	0	74	23777
2026-01-14 06:35:02.76	20.86	26.47	-54.6	-70.6	3.8	1.49e+00	0	27	104	0	74	23871
2026-01-14 06:35:03.77	20.56	26.47	-54.5	-70.5	3.8	1.49e+00	0	27	104	0	74	23808
2026-01-14 06:35:04.77	20.25	26.47	-54.6	-70.6	3.8	1.49e+00	0	27	104	0	74	23861
2026-01-14 06:35:05.78	19.94	26.48	-54.6	-70.5	3.8	1.49e+00	0	27	104	0	74	23854
2026-01-14 06:35:06.79	19.63	26.48	-54.6	-70.6	3.8	1.49e+00	0	28	104	0	74	23902
2026-01-14 06:35:07.80	19.32	26.48	-54.5	-70.5	3.8	1.49e+00	0	28	104	0	74	23765
2026-01-14 06:35:08.81	19.01	26.48	-54.5	-70.5	3.8	1.49e+00	0	27	104	0	74	23796
2026-01-14 06:35:09.82	18.70	26.48	-54.6	-70.5	3.8	1.49e+00	0	27	104	0	74	23805
2026-01-14 06:35:10.83	18.39	26.48	-54.6	-70.6	3.8	1.49e+00	0	27	104	0	74	23908
2026-01-14 06:35:11.84	18.08	26.48	-54.6	-70.6	3.8	1.49e+00	0	27	104	0	74	23881
2026-01-14 06:35:12.85	17.77	26.48	-54.6	-70.6	3.8	1.49e+00	0	27	104	0	74	23863
2026-01-14 06:35:13.85	17.47	26.47	-54.6	-70.6	3.8	1.49e+00	0	27	104	0	74	23886
2026-01-14 06:35:14.86	17.16	26.47	-54.6	-70.6	3.8	1.49e+00	0	27	104	0	74	23939
2026-01-14 06:35:15.87	16.85	26.46	-54.6	-70.6	3.8	1.49e+00	0	27	104	0	74	23892
2026-01-14 06:35:16.88	16.54	26.46	-54.6	-70.5	3.8	1.49e+00	0	27	104	0	74	23846
2026-01-14 06:35:17.89	16.23	26.45	-54.6	-70.6	3.8	1.49e+00	0	27	104	0	74	23880
2026-01-14 06:35:18.90	15.92	26.44	-54.6	-70.5	3.8	1.49e+00	0	27	104	0	74	23844
2026-01-14 06:35:19.91	15.61	26.43	-54.6	-70.6	3.8	1.49e+00	0	27	104	0	74	23864
2026-01-14 06:35:20.91	15.31	26.42	-54.6	-70.6	3.8	1.49e+00	0	27	104	0	74	23862
2026-01-14 06:35:21.92	15.00	26.41	-54.6	-70.6	3.8	1.49e+00	0	27	104	0	74	23886
2026-01-14 06:35:22.93	14.69	26.40	-54.6	-70.5	3.8	1.49e+00	0	27	104	0	74	23827
2026-01-14 06:35:23.93	14.39	26.38	-54.6	-70.6	3.8	1.49e+00	0	27	104	0	74	23874
2026-01-14 06:35:24.94	14.08	26.37	-54.6	-70.6	3.8	1.49e+00	0	27	104	0	74	23878
2026-01-14 06:35:25.95	13.77	26.36	-54.6	-70.6	3.8	1.49e+00	0	27	104	0	74	23867
2026-01-14 06:35:26.96	13.46	26.34	-54.6	-70.5	3.8	1.49e+00	0	27	104	0	74	23842
2026-01-14 06:35:27.97	13.16	26.32	-54.6	-70.6	3.8	1.49e+00	0	27	104	0	74	23877
2026-01-14 06:35:28.98	12.85	26.31	-54.6	-70.5	3.8	1.49e+00	0	27	104	0	74	23837
2026-01-14 06:35:30.00	12.54	26.29	-54.6	-70.5	3.8	1.49e+00	0	27	104	0	74	23802
2026-01-14 06:35:31.00	12.24	26.27	-54.6	-70.6	3.8	1.49e+00	0	28	104	0	74	23889
2026-01-14 06:35:32.01	11.94	26.25	-54.6	-70.5	3.8	1.49e+00	0	27	104	0	74	23808
2026-01-14 06:35:33.02	11.63	26.23	-54.6	-70.6	3.8	1.49e+00	0	27	104	0	74	23910
2026-01-14 06:35:34.03	11.33	26.21	-54.6	-70.5	3.8	1.49e+00	0	27	104	0	74	23841
2026-01-14 06:35:35.04	11.02	26.18	-54.6	-70.6	3.8	1.49e+00	0	27	104	0	74	23857
2026-01-14 06:35:36.05	10.72	26.16	-54.6	-70.5	3.8	1.49e+00	0	28	104	0	74	23838
2026-01-14 06:35:37.05	10.42	26.14	-54.6	-70.6	3.8	1.49e+00	0	27	104	0	74	23902
2026-01-14 06:35:38.06	10.12	26.11	-54.6	-70.6	3.8	1.49e+00	0	27	104	0	74	23869
2026-01-14 06:35:39.07	9.81	26.08	-54.6	-70.5	3.8	1.49e+00	0	27	104	0	74	23833
2026-01-14 06:35:40.08	9.51	26.06	-54.6	-70.6	3.8	1.49e+00	0	27	104	0	74	23895
2026-01-14 06:35:41.08	9.21	26.03	-54.6	-70.6	3.8	1.49e+00	0	27	104	0	74	23855
2026-01-14 06:35:42.09	8.91	26.00	-54.6	-70.5	3.8	1.49e+00	0	27	104	0	74	23825
2026-01-14 06:35:43.10	8.61	25.97	-54.6	-70.6	3.8	1.49e+00	0	27	104	0	74	23915
2026-01-14 06:35:44.11	8.32	25.94	-54.6	-70.6	3.8	1.49e+00	0	27	104	0	74	23887
2026-01-14 06:35:45.12	8.02	25.91	-54.6	-70.6	3.8	1.49e+00	0	27	104	0	74	23921
2026-01-14 06:35:46.13	7.72	25.88	-54.6	-70.6	3.8	1.49e+00	0	27	104	0	74	23912
2026-01-14 06:35:47.14	7.42	25.84	-54.6	-70.6	3.8	1.49e+00	0	27	104	0	74	23915
2026-01-14 06:35:48.15	7.12	25.81	-54.6	-70.5	3.8	1.49e+00	0	27	104	0	74	23847
2026-01-14 06:35:49.16	6.83	25.78	-54.6	-70.6	3.8	1.49e+00	0	27	104	0	74	23881
2026-01-14 06:35:50.17	6.53	25.74	-54.6	-70.6	3.8	1.49e+00	0	27	104	0	74	23893
2026-01-14 06:35:51.18	6.24	25.71	-54.6	-70.6	3.8	1.49e+00	0	27	104	0	74	23911
2026-01-14 06:35:52.19	5.94	25.67	-54.6	-70.6	3.8	1.49e+00	0	27	104	0	74	23921
2026-01-14 06:35:53.20	5.65	25.63	-54.6	-70.6	3.8	1.49e+00	0	27	104	0	74	23856
2026-01-14 06:35:54.20	5.36	25.59	-54.6	-70.6	3.8	1.49e+00	0	27	104	0	74	23906
2026-01-14 06:35:55.21	5.07	25.55	-54.6	-70.6	3.8	1.49e+00	0	27	104	0	74	23883
2026-01-14 06:35:56.22	4.78	25.51	-54.6	-70.5	3.8	1.49e+00	0	27	104	0	74	23825
2026-01-14 06:35:57.22	4.49	25.47	-54.6	-70.6	3.8	1.49e+00	0	27	104	0	74	23873
2026-01-14 06:35:58.24	4.20	25.43	-54.6	-70.6	3.8	1.49e+00	0	27	104	0	74	23902
2026-01-14 06:35:59.25	3.91	25.39	-54.6	-70.6	3.8	1.49e+00	0	27	104	0	74	23873
2026-01-14 06:36:00.25	3.62	25.35	-54.6	-70.6	3.8	1.49e+00	0	27	104	0	74	23888
2026-01-14 06:36:01.26	3.33	25.30	-54.6	-70.6	3.8	1.49e+00	0	27	104	0	74	23871
2026-01-14 06:36:02.27	3.05	25.26	-54.6	-70.6	3.8	1.49e+00	0	28	104	0	74	23881
2026-01-14 06:36:03.28	2.76	25.22	-54.6	-70.6	3.8	1.49e+00	0	28	104	0	74	23940
2026-01-14 06:36:04.29	2.48	25.17	-54.6	-70.6	3.8	1.49e+00	0	27	104	0	74	23900
2026-01-14 06:36:05.29	2.19	25.12	-54.6	-70.5	3.8	1.49e+00	0	27	104	0	74	23837
2026-01-14 06:36:06.30	1.91	25.08	-54.6	-70.5	3.8	1.49e+00	0	27	104	0	74	23811
2026-01-14 06:36:07.31	1.63	25.03	-54.5	-70.5	3.8	1.49e+00	0	27	104	0	74	23811
2026-01-14 06:36:08.32	1.35	24.98	-54.6	-70.5	3.8	1.49e+00	0	27	104	0	74	23836
2026-01-14 06:36:09.32	1.07	24.93	-54.6	-70.5	3.8	1.49e+00	0	28	104	0	74	23811
2026-01-14 06:36:10.33	0.79	24.88	-54.6	-70.6	3.8	1.49e+00	0	27	104	0	74	23874
2026-01-14 06:36:11.34	0.51	24.83	-54.6	-70.5	3.8	1.49e+00	0	27	104	0	74	23844
2026-01-14 06:36:12.34	0.24	24.78	-54.6	-70.5	3.8	1.49e+00	0	27	104	0	74	23815
2026-01-14 06:36:13.35	359.96	24.73	-54.6	-70.6	3.8	1.49e+00	0	28	104	0	74	23886
2026-01-14 06:36:14.36	359.68	24.68	-54.6	-70.6	3.8	1.49e+00	0	28	104	0	74	23883
2026-01-14 06:36:15.37	359.41	24.62	-54.6	-70.6	3.8	1.49e+00	0	27	104	0	74	23860
2026-01-14 06:36:16.38	359.13	24.57	-54.6	-70.5	3.8	1.49e+00	0	28	104	0	74	23830
2026-01-14 06:36:17.39	358.86	24.52	-54.6	-70.5	3.8	1.49e+00	0	27	104	0	74	23853
2026-01-14 06:36:18.40	358.59	24.46	-54.6	-70.5	3.8	1.49e+00	0	27	104	0	74	23836
2026-01-14 06:36:19.41	358.31	24.41	-54.6	-70.5	3.8	1.49e+00	0	28	104	0	74	23838
2026-01-14 06:36:20.42	358.04	24.35	-54.6	-70.5	3.8	1.49e+00	0	27	104	0	74	23853
2026-01-14 06:36:21.43	357.77	24.29	-54.6	-70.6	3.8	1.49e+00	0	27	104	0	74	23872
2026-01-14 06:36:22.44	357.51	24.24	-54.6	-70.6	3.8	1.49e+00	0	27	104	0	74	23897
2026-01-14 06:36:23.45	357.24	24.18	-54.6	-70.6	3.8	1.49e+00	0	27	104	0	74	23863
2026-01-14 06:36:24.46	356.97	24.12	-54.6	-70.6	3.8	1.49e+00	0	27	104	0	74	23899
2026-01-14 06:36:25.46	356.71	24.06	-54.6	-70.6	3.8	1.49e+00	0	28	104	0	74	23915
2026-01-14 06:36:26.47	356.44	24.01	-54.6	-70.6	3.8	1.49e+00	0	27	104	0	74	23933
2026-01-14 06:36:27.48	356.18	23.95	-54.6	-70.6	3.8	1.49e+00	0	28	104	0	74	23858
2026-01-14 06:36:28.49	355.92	23.89	-54.6	-70.6	3.8	1.49e+00	0	27	104	0	74	23864
2026-01-14 06:36:29.50	355.66	23.82	-54.6	-70.5	3.8	1.49e+00	0	27	104	0	74	23851
2026-01-14 06:36:30.51	355.40	23.76	-54.6	-70.6	3.8	1.49e+00	0	27	104	0	74	23888
2026-01-14 06:36:31.52	355.14	23.70	-54.6	-70.6	3.8	1.49e+00	0	27	104	0	74	23913
2026-01-14 06:36:32.53	354.88	23.64	-54.6	-70.6	3.8	1.49e+00	0	28	104	0	74	23907
2026-01-14 06:36:33.54	354.62	23.58	-54.6	-70.5	3.8	1.49e+00	0	27	104	0	74	23839
2026-01-14 06:36:34.55	354.36	23.51	-54.6	-70.6	3.8	1.49e+00	0	27	104	0	74	23875
2026-01-14 06:36:35.56	354.11	23.45	-54.6	-70.6	3.8	1.49e+00	0	27	104	0	74	23906
2026-01-14 06:36:36.56	353.86	23.39	-54.6	-70.6	3.8	1.49e+00	0	27	104	0	74	23910
2026-01-14 06:36:37.57	353.60	23.32	-54.6	-70.6	3.8	1.49e+00	0	27	104	0	74	23870
2026-01-14 06:36:38.58	353.35	23.26	-54.6	-70.5	3.8	1.49e+00	0	27	104	0	74	23854
2026-01-14 06:36:39.59	353.10	23.19	-54.6	-70.6	3.8	1.49e+00	0	27	104	0	74	23915
2026-01-14 06:36:40.60	352.85	23.13	-54.6	-70.5	3.8	1.49e+00	0	27	104	0	74	23824
2026-01-14 06:36:41.61	352.60	23.06	-54.6	-70.6	3.8	1.49e+00	0	27	104	0	74	23876
2026-01-14 06:36:42.61	352.36	22.99	-54.6	-70.5	3.8	1.49e+00	0	27	104	0	74	23849
2026-01-14 06:36:43.62	352.11	22.93	-54.6	-70.6	3.8	1.49e+00	0	27	104	0	74	23881
2026-01-14 06:36:44.63	351.86	22.86	-54.6	-70.6	3.9	1.49e+00	0	27	104	0	74	23889
2026-01-14 06:36:45.64	351.62	22.79	-54.6	-70.6	3.8	1.49e+00	0	27	104	0	74	23883
2026-01-14 06:36:46.65	351.37	22.72	-54.6	-70.5	3.8	1.49e+00	0	27	104	0	74	23851
2026-01-14 06:36:47.66	351.13	22.65	-54.6	-70.6	3.8	1.49e+00	0	27	104	0	74	23901
2026-01-14 06:36:48.67	350.89	22.59	-54.6	-70.5	3.8	1.49e+00	0	27	104	0	74	23851
2026-01-14 06:36:49.68	350.65	22.52	-54.6	-70.6	3.8	1.49e+00	0	27	104	0	74	23866
2026-01-14 06:36:50.69	350.41	22.45	-54.6	-70.6	3.8	1.49e+00	0	27	104	0	74	23866
2026-01-14 06:36:51.69	350.17	22.38	-54.6	-70.5	3.8	1.49e+00	0	27	104	0	74	23823
2026-01-14 06:36:52.70	349.94	22.31	-54.6	-70.6	3.8	1.49e+00	0	27	104	0	74	23857
2026-01-14 06:36:53.71	349.70	22.24	-54.6	-70.6	3.8	1.49e+00	0	27	104	0	74	23885
2026-01-14 06:36:54.71	349.47	22.17	-54.6	-70.6	3.8	1.49e+00	0	27	104	0	74	23885
2026-01-14 06:36:55.73	349.23	22.09	-54.6	-70.6	3.8	1.49e+00	0	28	104	0	74	23921
2026-01-14 06:36:56.73	349.00	22.02	-54.6	-70.6	3.8	1.49e+00	0	27	104	0	74	23857
2026-01-14 06:36:57.74	348.77	21.95	-54.6	-70.5	3.8	1.49e+00	0	27	104	0	74	23854
2026-01-14 06:36:58.75	348.54	21.88	-54.6	-70.6	3.8	1.49e+00	0	27	104	0	74	23871
2026-01-14 06:36:59.76	348.31	21.81	-54.6	-70.6	3.8	1.49e+00	0	27	104	0	74	23906
2026-01-14 06:37:00.77	348.08	21.73	-54.6	-70.6	3.8	1.49e+00	0	27	104	0	74	23879
2026-01-14 06:37:01.78	347.85	21.66	-54.6	-70.6	3.8	1.49e+00	0	27	104	0	74	23917
2026-01-14 06:37:02.79	347.63	21.59	-54.6	-70.5	3.8	1.49e+00	0	27	104	0	74	23852
2026-01-14 06:37:03.80	347.40	21.51	-54.6	-70.6	3.8	1.49e+00	0	27	104	0	74	23871
2026-01-14 06:37:04.81	347.18	21.44	-54.6	-70.6	3.8	1.49e+00	0	27	104	0	74	23862
2026-01-14 06:37:05.82	346.96	21.37	-54.6	-70.6	3.8	1.49e+00	0	27	104	0	74	23903
2026-01-14 06:37:06.82	346.74	21.29	-54.6	-70.6	3.8	1.49e+00	0	27	104	0	74	23915
2026-01-14 06:37:07.83	346.52	21.22	-54.6	-70.6	3.8	1.49e+00	0	27	104	0	74	23865
2026-01-14 06:37:08.85	346.29	21.14	-54.6	-70.6	3.8	1.49e+00	0	27	104	0	74	23882
2026-01-14 06:37:09.85	346.08	21.07	-54.6	-70.6	3.8	1.49e+00	0	27	104	0	74	23892
2026-01-14 06:37:10.87	345.86	20.99	-54.6	-70.6	3.8	1.49e+00	0	27	104	0	74	23858
2026-01-14 06:37:11.87	345.64	20.92	-54.6	-70.6	3.8	1.49e+00	0	27	104	0	74	23935
2026-01-14 06:37:12.88	345.43	20.84	-54.6	-70.6	3.8	1.49e+00	0	27	104	0	74	23857
2026-01-14 06:37:13.89	345.21	20.77	-54.6	-70.5	3.8	1.49e+00	0	27	104	0	74	23847
2026-01-14 06:37:14.90	345.00	20.69	-54.6	-70.5	3.8	1.49e+00	0	27	104	0	74	23820
2026-01-14 06:37:15.91	344.79	20.61	-54.6	-70.5	3.8	1.49e+00	0	27	104	0	74	23834
2026-01-14 06:37:16.92	344.58	20.54	-54.6	-70.5	3.8	1.49e+00	0	28	104	0	74	23842
2026-01-14 06:37:17.93	344.37	20.46	-54.6	-70.5	3.8	1.49e+00	0	28	104	0	74	23852
2026-01-14 06:37:18.94	344.16	20.38	-54.6	-70.5	3.8	1.49e+00	0	28	104	0	74	23849
2026-01-14 06:37:19.94	343.95	20.31	-54.6	-70.5	3.8	1.49e+00	0	27	104	0	74	23839
2026-01-14 06:37:20.96	343.74	20.23	-54.6	-70.5	3.8	1.49e+00	0	27	104	0	74	23838
2026-01-14 06:37:21.96	343.54	20.15	-54.6	-70.6	3.8	1.49e+00	0	27	104	0	74	23919
2026-01-14 06:37:22.98	343.33	20.07	-54.6	-70.5	3.8	1.49e+00	0	28	104	0	74	23839
2026-01-14 06:37:23.98	343.13	20.00	-54.6	-70.5	3.8	1.49e+00	0	27	104	0	74	23806
2026-01-14 06:37:24.99	342.93	19.92	-54.5	-70.5	3.8	1.49e+00	0	27	104	0	74	23791
2026-01-14 06:37:26.00	342.72	19.84	-54.6	-70.5	3.8	1.49e+00	0	27	104	0	74	23817
2026-01-14 06:37:27.01	342.52	19.76	-54.5	-70.5	3.8	1.49e+00	0	27	104	0	74	23821
2026-01-14 06:37:28.02	342.32	19.69	-54.6	-70.6	3.8	1.49e+00	0	27	104	0	74	23860
2026-01-14 06:37:29.03	342.13	19.61	-54.5	-70.5	3.8	1.49e+00	0	27	104	0	74	23792
2026-01-14 06:37:30.04	341.93	19.53	-54.6	-70.5	3.8	1.49e+00	0	27	104	0	74	23770
2026-01-14 06:37:31.05	341.73	19.45	-54.6	-70.5	3.8	1.49e+00	0	27	104	0	74	23824
2026-01-14 06:37:32.06	341.54	19.37	-54.6	-70.5	3.8	1.49e+00	0	27	104	0	74	23834
2026-01-14 06:37:33.07	341.34	19.29	-54.6	-70.6	3.8	1.49e+00	0	27	104	0	74	23934
2026-01-14 06:37:34.08	341.15	19.21	-54.6	-70.5	3.8	1.49e+00	0	27	104	0	74	23847
2026-01-14 06:37:35.08	340.96	19.14	-54.6	-70.6	3.8	1.49e+00	0	27	104	0	74	23874
2026-01-14 06:37:36.09	340.77	19.06	-54.6	-70.6	3.8	1.49e+00	0	27	104	0	74	23911
2026-01-14 06:37:37.10	340.57	18.98	-54.6	-70.5	3.8	1.49e+00	0	27	104	0	74	23845
2026-01-14 06:37:38.11	340.39	18.90	-54.6	-70.5	3.8	1.49e+00	0	27	104	0	74	23848
2026-01-14 06:37:39.12	340.20	18.82	-54.6	-70.6	3.8	1.49e+00	0	27	104	0	74	23936
2026-01-14 06:37:40.13	340.01	18.74	-54.6	-70.6	3.8	1.49e+00	0	27	104	0	74	23891
2026-01-14 06:37:41.13	339.82	18.66	-54.6	-70.6	3.8	1.49e+00	0	27	104	0	74	23889
2026-01-14 06:37:42.15	339.64	18.58	-54.6	-70.6	3.8	1.49e+00	0	27	104	0	74	23893
2026-01-14 06:37:43.16	339.45	18.50	-54.6	-70.6	3.8	1.49e+00	0	27	104	0	74	23955
2026-01-14 06:37:44.16	339.27	18.42	-54.6	-70.6	3.8	1.49e+00	0	27	104	0	74	23923
2026-01-14 06:37:45.17	339.09	18.34	-54.6	-70.5	3.8	1.49e+00	0	28	104	0	74	23852
2026-01-14 06:37:46.18	338.91	18.27	-54.6	-70.6	3.8	1.49e+00	0	27	104	0	74	23899
2026-01-14 06:37:47.19	338.73	18.19	-54.6	-70.6	3.8	1.49e+00	0	27	104	0	74	23879
2026-01-14 06:37:48.20	338.55	18.11	-54.6	-70.6	3.8	1.49e+00	0	27	104	0	74	23909
2026-01-14 06:37:49.21	338.37	18.03	-54.6	-70.5	3.8	1.49e+00	0	28	104	0	74	23821
2026-01-14 06:37:50.22	338.19	17.95	-54.6	-70.6	3.8	1.49e+00	0	27	104	0	74	23861
2026-01-14 06:37:51.22	338.01	17.87	-54.6	-70.6	3.8	1.49e+00	0	27	104	0	74	23861
2026-01-14 06:37:52.23	337.84	17.79	-54.6	-70.6	3.8	1.49e+00	0	27	104	0	74	23920
2026-01-14 06:37:53.24	337.66	17.71	-54.6	-70.6	3.8	1.49e+00	0	27	104	0	74	23914
2026-01-14 06:37:54.25	337.49	17.63	-54.6	-70.6	3.8	1.49e+00	0	27	104	0	74	23882
2026-01-14 06:37:55.26	337.32	17.55	-54.6	-70.6	3.8	1.49e+00	0	27	104	0	74	23865
2026-01-14 06:37:56.27	337.14	17.47	-54.6	-70.5	3.8	1.49e+00	0	27	104	0	74	23843
2026-01-14 06:37:57.28	336.97	17.39	-54.6	-70.6	3.8	1.49e+00	0	27	104	0	74	23877
2026-01-14 06:37:58.28	336.80	17.31	-54.6	-70.5	3.8	1.49e+00	0	27	104	0	74	23804
2026-01-14 06:37:59.29	336.63	17.23	-54.6	-70.5	3.8	1.49e+00	0	27	104	0	74	23840
2026-01-14 06:38:00.29	336.47	17.15	-54.6	-70.5	3.8	1.49e+00	0	27	104	0	74	23831
2026-01-14 06:38:01.29	336.30	17.07	-54.6	-70.5	3.8	1.49e+00	0	27	104	0	74	23828
2026-01-14 06:38:02.30	336.14	16.99	-54.6	-70.5	3.8	1.49e+00	0	27	104	0	74	23841
2026-01-14 06:38:03.30	335.97	16.91	-54.6	-70.5	3.8	1.49e+00	0	27	104	0	74	23802
2026-01-14 06:38:04.32	335.80	16.83	-54.6	-70.6	3.8	1.49e+00	0	27	104	0	74	23905
2026-01-14 06:38:05.32	335.64	16.75	-54.6	-70.6	3.8	1.49e+00	0	27	104	0	74	23865
2026-01-14 06:38:06.33	335.48	16.67	-54.6	-70.5	3.8	1.49e+00	0	27	104	0	74	23836
2026-01-14 06:38:07.34	335.32	16.59	-54.6	-70.6	3.8	1.49e+00	0	27	104	0	74	23916
2026-01-14 06:38:08.35	335.16	16.51	-54.6	-70.6	3.8	1.49e+00	0	27	104	0	74	23898
2026-01-14 06:38:09.36	334.99	16.43	-54.6	-70.5	3.8	1.49e+00	0	27	104	0	74	23801
2026-01-14 06:38:10.37	334.84	16.35	-54.6	-70.5	3.8	1.49e+00	0	27	104	0	74	23850
2026-01-14 06:38:11.38	334.68	16.27	-54.6	-70.5	3.8	1.49e+00	0	27	104	0	74	23854
2026-01-14 06:38:12.39	334.52	16.20	-54.6	-70.6	3.8	1.49e+00	0	27	104	0	74	23923
2026-01-14 06:38:13.40	334.36	16.12	-54.6	-70.6	3.8	1.49e+00	0	28	104	0	74	23859
2026-01-14 06:38:14.40	334.21	16.04	-54.6	-70.6	3.8	1.49e+00	0	27	104	0	74	23894
2026-01-14 06:38:15.41	334.05	15.96	-54.6	-70.5	3.8	1.49e+00	0	27	104	0	74	23830
2026-01-14 06:38:16.42	333.90	15.88	-54.6	-70.5	3.8	1.49e+00	0	27	104	0	74	23825
2026-01-14 06:38:17.43	333.74	15.80	-54.6	-70.6	3.8	1.49e+00	0	27	104	0	74	23911
2026-01-14 06:38:18.44	333.59	15.72	-54.6	-70.6	3.8	1.49e+00	0	27	104	0	74	23900
2026-01-14 06:38:19.45	333.44	15.64	-54.6	-70.5	3.8	1.49e+00	0	27	104	0	74	23799
2026-01-14 06:38:20.46	333.29	15.56	-54.6	-70.6	3.8	1.49e+00	0	27	104	0	74	23893
2026-01-14 06:38:21.47	333.14	15.48	-54.6	-70.6	3.8	1.49e+00	0	27	104	0	74	23861
2026-01-14 06:38:22.48	332.99	15.40	-54.6	-70.6	3.8	1.49e+00	0	28	104	0	74	23909
2026-01-14 06:38:23.49	332.84	15.32	-54.6	-70.6	3.8	1.49e+00	0	27	104	0	74	23870
2026-01-14 06:38:24.50	332.69	15.24	-54.6	-70.6	3.8	1.49e+00	0	27	104	0	74	23871
2026-01-14 06:38:25.50	332.54	15.17	-54.6	-70.6	3.8	1.49e+00	0	27	104	0	74	23902
2026-01-14 06:38:26.51	332.40	15.09	-54.6	-70.5	3.8	1.49e+00	0	27	104	0	74	23831
2026-01-14 06:38:27.52	332.25	15.01	-54.6	-70.5	3.8	1.49e+00	0	27	104	0	74	23841
2026-01-14 06:38:28.53	332.11	14.93	-54.6	-70.6	3.8	1.49e+00	0	27	104	0	74	23908
2026-01-14 06:38:29.54	331.96	14.85	-54.6	-70.6	3.8	1.49e+00	0	28	104	0	74	23917
2026-01-14 06:38:30.55	331.82	14.77	-54.6	-70.6	3.8	1.49e+00	0	27	104	0	74	23898
2026-01-14 06:38:31.56	331.68	14.69	-54.6	-70.6	3.8	1.49e+00	0	27	104	0	74	23927
2026-01-14 06:38:32.57	331.53	14.62	-54.6	-70.6	3.8	1.49e+00	0	27	104	0	74	23885
2026-01-14 06:38:33.58	331.39	14.54	-54.6	-70.6	3.8	1.49e+00	0	27	104	0	74	23875
2026-01-14 06:38:34.59	331.25	14.46	-54.6	-70.6	3.8	1.49e+00	0	27	104	0	74	23956
2026-01-14 06:38:35.60	331.11	14.38	-54.6	-70.6	3.8	1.49e+00	0	27	104	0	74	23910
2026-01-14 06:38:36.61	330.98	14.30	-54.6	-70.6	3.8	1.49e+00	0	27	104	0	74	23871
2026-01-14 06:38:37.62	330.84	14.22	-54.6	-70.6	3.8	1.49e+00	0	27	104	0	74	23936
2026-01-14 06:38:38.63	330.70	14.15	-54.6	-70.6	3.8	1.49e+00	0	27	104	0	74	23949
2026-01-14 06:38:39.64	330.56	14.07	-54.6	-70.5	3.8	1.49e+00	0	27	104	0	74	23852
2026-01-14 06:38:40.65	330.43	13.99	-54.6	-70.5	3.8	1.49e+00	0	28	104	0	74	23815
2026-01-14 06:38:41.66	330.29	13.91	-54.6	-70.5	3.8	1.49e+00	0	27	104	0	74	23807
2026-01-14 06:38:42.67	330.16	13.83	-54.6	-70.6	3.8	1.49e+00	0	27	104	0	74	23875
2026-01-14 06:38:43.68	330.02	13.76	-54.6	-70.5	3.8	1.49e+00	0	27	104	0	74	23821
2026-01-14 06:38:44.69	329.89	13.68	-54.6	-70.5	3.8	1.49e+00	0	28	104	0	74	23814
2026-01-14 06:38:45.70	329.76	13.60	-54.6	-70.6	3.8	1.49e+00	0	27	104	0	74	23887
2026-01-14 06:38:46.71	329.63	13.52	-54.6	-70.6	3.8	1.49e+00	0	27	104	0	74	23871
2026-01-14 06:38:47.72	329.50	13.45	-54.6	-70.6	3.8	1.49e+00	0	28	104	0	74	23877
2026-01-14 06:38:48.73	329.37	13.37	-54.6	-70.6	3.8	1.49e+00	0	27	104	0	74	23870
2026-01-14 06:38:49.74	329.24	13.29	-54.6	-70.5	3.8	1.49e+00	0	28	104	0	74	23847
2026-01-14 06:38:50.74	329.11	13.22	-54.6	-70.6	3.8	1.49e+00	0	27	104	0	74	23925
2026-01-14 06:38:51.75	328.98	13.14	-54.6	-70.6	3.8	1.49e+00	0	27	104	0	74	23883
2026-01-14 06:38:52.76	328.85	13.06	-54.6	-70.6	3.8	1.49e+00	0	27	104	0	74	23893
2026-01-14 06:38:53.77	328.73	12.99	-54.6	-70.6	3.8	1.49e+00	0	27	104	0	74	23884
2026-01-14 06:38:54.78	328.60	12.91	-54.6	-70.6	3.8	1.49e+00	0	27	104	0	74	23868
2026-01-14 06:38:55.78	328.48	12.84	-54.6	-70.6	3.8	1.49e+00	0	27	104	0	74	23875
2026-01-14 06:38:56.79	328.35	12.76	-54.6	-70.5	3.8	1.49e+00	0	28	104	0	74	23839
2026-01-14 06:38:57.80	328.23	12.68	-54.6	-70.5	3.8	1.49e+00	0	28	104	0	74	23849
2026-01-14 06:38:58.81	328.11	12.61	-54.6	-70.6	3.8	1.49e+00	0	27	104	0	74	23858
2026-01-14 06:38:59.82	327.98	12.53	-54.6	-70.5	3.8	1.49e+00	0	27	104	0	74	23847
2026-01-14 06:39:00.83	327.86	12.45	-54.6	-70.5	3.9	1.49e+00	0	27	104	0	74	23838
2026-01-14 06:39:01.84	327.74	12.38	-54.6	-70.5	3.8	1.49e+00	0	27	104	0	74	23819
2026-01-14 06:39:02.85	327.62	12.30	-54.6	-70.5	3.8	1.49e+00	0	27	104	0	74	23830
2026-01-14 06:39:03.86	327.50	12.23	-54.6	-70.6	3.8	1.49e+00	0	27	104	0	74	23877
2026-01-14 06:39:04.87	327.38	12.15	-54.6	-70.5	3.8	1.49e+00	0	27	104	0	74	23842
2026-01-14 06:39:05.87	327.26	12.08	-54.6	-70.6	3.8	1.49e+00	0	28	104	0	74	23898
2026-01-14 06:39:06.88	327.14	12.00	-54.6	-70.5	3.8	1.49e+00	0	27	104	0	74	23787
2026-01-14 06:39:07.90	327.02	11.93	-54.6	-70.6	3.8	1.49e+00	0	27	104	0	74	23895
2026-01-14 06:39:08.91	326.91	11.85	-54.6	-70.6	3.8	1.49e+00	0	27	104	0	74	23884
2026-01-14 06:39:09.91	326.79	11.78	-54.6	-70.6	3.8	1.49e+00	0	27	104	0	74	23879
2026-01-14 06:39:10.92	326.68	11.70	-54.6	-70.6	3.8	1.49e+00	0	28	104	0	74	23927
2026-01-14 06:39:11.93	326.56	11.63	-54.6	-70.6	3.8	1.49e+00	0	27	104	0	74	23912
2026-01-14 06:39:12.94	326.45	11.55	-54.6	-70.5	3.8	1.49e+00	0	27	104	0	74	23824
2026-01-14 06:39:13.95	326.33	11.48	-54.6	-70.5	3.8	1.49e+00	0	27	104	0	74	23818
2026-01-14 06:39:14.96	326.22	11.40	-54.6	-70.5	3.8	1.49e+00	0	27	104	0	74	23847
2026-01-14 06:39:15.97	326.11	11.33	-54.6	-70.6	3.8	1.49e+00	0	28	104	0	74	23915
2026-01-14 06:39:16.97	326.00	11.26	-54.6	-70.6	3.8	1.49e+00	0	28	104	0	74	23864
2026-01-14 06:39:17.98	325.88	11.18	-54.6	-70.5	3.8	1.49e+00	0	27	104	0	74	23845
2026-01-14 06:39:18.99	325.77	11.11	-54.6	-70.5	3.8	1.49e+00	0	27	104	0	74	23832
2026-01-14 06:39:20.00	325.66	11.03	-54.6	-70.6	3.8	1.49e+00	0	27	104	0	74	23914
2026-01-14 06:39:21.00	325.55	10.96	-54.6	-70.6	3.8	1.49e+00	0	28	104	0	74	23860
2026-01-14 06:39:22.01	325.44	10.89	-54.6	-70.6	3.8	1.49e+00	0	27	104	0	74	23872
2026-01-14 06:39:23.02	325.33	10.81	-54.6	-70.6	3.8	1.49e+00	0	27	104	0	74	23858
2026-01-14 06:39:24.03	325.23	10.74	-54.6	-70.5	3.8	1.49e+00	0	27	104	0	74	23804
2026-01-14 06:39:25.04	325.12	10.67	-54.6	-70.6	3.8	1.49e+00	0	27	104	0	74	23925
2026-01-14 06:39:26.05	325.01	10.59	-54.6	-70.5	3.8	1.49e+00	0	27	104	0	74	23770
2026-01-14 06:39:27.05	324.91	10.52	-54.6	-70.6	3.8	1.49e+00	0	27	104	0	74	23914
2026-01-14 06:39:28.07	324.80	10.45	-54.6	-70.5	3.8	1.49e+00	0	27	104	0	74	23845
2026-01-14 06:39:29.08	324.69	10.38	-54.6	-70.5	3.8	1.49e+00	0	28	104	0	74	23843
2026-01-14 06:39:30.09	324.59	10.30	-54.6	-70.6	3.8	1.49e+00	0	28	104	0	74	23936
2026-01-14 06:39:31.10	324.48	10.23	-54.6	-70.6	3.8	1.49e+00	0	27	104	0	74	23920
2026-01-14 06:39:32.10	324.38	10.16	-54.6	-70.6	3.8	1.49e+00	0	27	104	0	74	23879
2026-01-14 06:39:33.11	324.28	10.09	-54.6	-70.5	3.8	1.49e+00	0	27	104	0	74	23818
2026-01-14 06:39:34.12	324.18	10.01	-54.6	-70.5	3.8	1.49e+00	0	28	104	0	74	23835
2026-01-14 06:39:35.13	324.07	9.94	-54.6	-70.6	3.8	1.49e+00	0	28	104	0	74	23908
2026-01-14 06:39:36.14	323.97	9.87	-54.6	-70.6	3.8	1.49e+00	0	28	104	0	74	23861
2026-01-14 06:39:37.15	323.87	9.80	-54.6	-70.5	3.8	1.49e+00	0	27	104	0	74	23801
2026-01-14 06:39:38.16	323.77	9.73	-54.6	-70.5	3.8	1.49e+00	0	27	104	0	74	23843
2026-01-14 06:39:39.17	323.67	9.66	-54.6	-70.6	3.8	1.49e+00	0	27	104	0	74	23882
2026-01-14 06:39:40.18	323.57	9.58	-54.6	-70.6	3.8	1.49e+00	0	28	104	0	74	23868
2026-01-14 06:39:41.18	323.47	9.51	-54.6	-70.5	3.8	1.49e+00	0	28	104	0	74	23763
2026-01-14 06:39:42.19	323.37	9.44	-54.6	-70.5	3.8	1.49e+00	0	27	104	0	74	23809
2026-01-14 06:39:43.20	323.27	9.37	-54.6	-70.6	3.8	1.49e+00	0	27	104	0	74	23870
2026-01-14 06:39:44.21	323.18	9.30	-54.6	-70.6	3.8	1.49e+00	0	28	104	0	74	23868
2026-01-14 06:39:45.22	323.08	9.23	-54.6	-70.6	3.8	1.49e+00	0	28	104	0	74	23877
2026-01-14 06:39:46.23	322.98	9.16	-54.6	-70.6	3.8	1.49e+00	0	27	104	0	74	23891
2026-01-14 06:39:47.24	322.89	9.09	-54.6	-70.6	3.8	1.49e+00	0	27	104	0	74	23859
2026-01-14 06:39:48.24	322.79	9.02	-54.6	-70.5	3.8	1.49e+00	0	27	104	0	74	23848
2026-01-14 06:39:49.26	322.69	8.95	-54.6	-70.6	3.8	1.49e+00	0	27	104	0	74	23884
2026-01-14 06:39:50.27	322.60	8.88	-54.6	-70.6	3.8	1.49e+00	0	27	104	0	74	23869
2026-01-14 06:39:51.27	322.51	8.81	-54.6	-70.5	3.8	1.49e+00	0	27	104	0	74	23831
2026-01-14 06:39:52.28	322.41	8.74	-54.6	-70.5	3.8	1.49e+00	0	28	104	0	74	23849
2026-01-14 06:39:53.29	322.32	8.67	-54.6	-70.5	3.8	1.49e+00	0	27	104	0	74	23853
2026-01-14 06:39:54.31	322.23	8.60	-54.6	-70.5	3.8	1.49e+00	0	27	104	0	74	23821
2026-01-14 06:39:55.32	322.13	8.53	-54.6	-70.6	3.8	1.49e+00	0	27	104	0	74	23896
2026-01-14 06:39:56.33	322.04	8.46	-54.6	-70.5	3.8	1.49e+00	0	27	104	0	74	23838
2026-01-14 06:39:57.33	321.95	8.39	-54.6	-70.5	3.8	1.49e+00	0	28	104	0	74	23845
2026-01-14 06:39:58.34	321.86	8.32	-54.6	-70.5	3.8	1.49e+00	0	27	104	0	74	23817
2026-01-14 06:39:59.35	321.77	8.25	-54.6	-70.5	3.8	1.49e+00	0	27	104	0	74	23790
2026-01-14 06:40:00.36	321.68	8.18	-54.6	-70.6	3.8	1.49e+00	0	27	104	0	74	23940
2026-01-14 06:40:01.35	321.59	8.11	-54.6	-70.5	3.8	1.49e+00	0	27	104	0	74	23833
2026-01-14 06:40:02.36	321.50	8.05	-54.6	-70.6	3.8	1.49e+00	0	28	104	0	74	23884
2026-01-14 06:40:03.37	321.41	7.98	-54.6	-70.6	3.8	1.49e+00	0	27	104	0	74	23899
2026-01-14 06:40:04.38	321.32	7.91	-54.6	-70.5	3.8	1.49e+00	0	27	104	0	74	23852
2026-01-14 06:40:05.39	321.23	7.84	-54.6	-70.6	3.8	1.49e+00	0	27	104	0	74	23868
2026-01-14 06:40:06.39	321.15	7.77	-54.6	-70.6	3.8	1.49e+00	0	27	104	0	74	23914
2026-01-14 06:40:07.40	321.06	7.70	-54.6	-70.6	3.8	1.49e+00	0	27	104	0	74	23872
2026-01-14 06:40:08.41	320.97	7.64	-54.6	-70.5	3.8	1.49e+00	0	27	104	0	74	23798
2026-01-14 06:40:09.42	320.89	7.57	-54.6	-70.5	3.8	1.49e+00	0	27	104	0	74	23836
2026-01-14 06:40:10.43	320.80	7.50	-54.6	-70.6	3.8	1.49e+00	0	28	104	0	74	23857
2026-01-14 06:40:11.44	320.72	7.43	-54.6	-70.6	3.8	1.49e+00	0	27	104	0	74	23877
2026-01-14 06:40:12.45	320.63	7.36	-54.6	-70.5	3.8	1.49e+00	0	28	104	0	74	23767
2026-01-14 06:40:13.46	320.55	7.30	-54.6	-70.6	3.8	1.49e+00	0	27	104	0	74	23887
2026-01-14 06:40:14.47	320.46	7.23	-54.6	-70.6	3.8	1.49e+00	0	27	104	0	74	23890
2026-01-14 06:40:15.48	320.38	7.16	-54.6	-70.5	3.8	1.49e+00	0	27	104	0	74	23828
2026-01-14 06:40:16.49	320.29	7.10	-54.6	-70.5	3.8	1.49e+00	0	28	104	0	74	23820
2026-01-14 06:40:17.49	320.21	7.03	-54.6	-70.5	3.8	1.49e+00	0	27	104	0	74	23813
2026-01-14 06:40:18.50	320.13	6.96	-54.6	-70.5	3.8	1.49e+00	0	27	104	0	74	23800
2026-01-14 06:40:19.51	320.05	6.90	-54.6	-70.5	3.8	1.49e+00	0	28	104	0	74	23803
2026-01-14 06:40:20.52	319.97	6.83	-54.6	-70.6	3.8	1.49e+00	0	27	104	0	74	23890
2026-01-14 06:40:21.53	319.88	6.76	-54.6	-70.5	3.8	1.49e+00	0	27	104	0	74	23833
2026-01-14 06:40:22.54	319.80	6.70	-54.6	-70.5	3.8	1.49e+00	0	27	104	0	74	23761
2026-01-14 06:40:23.55	319.72	6.63	-54.6	-70.5	3.8	1.49e+00	0	27	104	0	74	23851
2026-01-14 06:40:24.56	319.64	6.56	-54.6	-70.5	3.8	1.49e+00	0	27	104	0	74	23830
2026-01-14 06:40:25.57	319.56	6.50	-54.6	-70.5	3.8	1.49e+00	0	27	104	0	74	23808
2026-01-14 06:40:26.57	319.48	6.43	-54.6	-70.6	3.8	1.49e+00	0	28	104	0	74	23872
2026-01-14 06:40:27.58	319.40	6.37	-54.6	-70.5	3.8	1.49e+00	0	27	104	0	74	23764
2026-01-14 06:40:28.59	319.32	6.30	-54.6	-70.5	3.8	1.49e+00	0	27	104	0	74	23843
2026-01-14 06:40:29.60	319.25	6.23	-54.6	-70.5	3.8	1.49e+00	0	27	104	0	74	23850
2026-01-14 06:40:30.61	319.17	6.17	-54.6	-70.5	3.8	1.49e+00	0	27	104	0	74	23822
2026-01-14 06:40:31.62	319.09	6.10	-54.6	-70.6	3.8	1.49e+00	0	27	104	0	74	23859
2026-01-14 06:40:32.63	319.01	6.04	-54.6	-70.6	3.8	1.49e+00	0	27	104	0	74	23913
2026-01-14 06:40:33.64	318.94	5.97	-54.6	-70.6	3.8	1.49e+00	0	27	104	0	74	23882
2026-01-14 06:40:34.65	318.86	5.91	-54.6	-70.6	3.8	1.49e+00	0	28	104	0	74	23902
2026-01-14 06:40:35.66	318.78	5.84	-54.6	-70.5	3.8	1.49e+00	0	27	104	0	74	23844
2026-01-14 06:40:36.67	318.71	5.78	-54.6	-70.5	3.8	1.49e+00	0	27	104	0	74	23848
2026-01-14 06:40:37.67	318.63	5.71	-54.6	-70.6	3.8	1.49e+00	0	28	104	0	74	23917
2026-01-14 06:40:38.68	318.56	5.65	-54.6	-70.5	3.8	1.49e+00	0	27	104	0	74	23813
2026-01-14 06:40:39.69	318.48	5.58	-54.6	-70.5	3.8	1.49e+00	0	28	104	0	74	23788
2026-01-14 06:40:40.70	318.41	5.52	-54.6	-70.5	3.8	1.49e+00	0	27	104	0	74	23842
2026-01-14 06:40:41.70	318.33	5.46	-54.6	-70.5	3.8	1.49e+00	0	28	104	0	74	23789
2026-01-14 06:40:42.71	318.26	5.39	-54.6	-70.5	3.8	1.49e+00	0	27	104	0	74	23827
2026-01-14 06:40:43.73	318.19	5.33	-54.6	-70.5	3.8	1.49e+00	0	27	104	0	74	23800
2026-01-14 06:40:44.73	318.11	5.26	-54.6	-70.5	3.8	1.49e+00	0	27	104	0	74	23781
2026-01-14 06:40:45.74	318.04	5.20	-54.6	-70.6	3.8	1.49e+00	0	27	104	0	74	23881
2026-01-14 06:40:46.75	317.97	5.14	-54.6	-70.6	3.8	1.49e+00	0	27	104	0	74	23862
2026-01-14 06:40:47.76	317.90	5.07	-54.6	-70.5	3.8	1.49e+00	0	27	104	0	74	23827
2026-01-14 06:40:48.77	317.82	5.01	-54.6	-70.5	3.8	1.49e+00	0	27	104	0	74	23799
2026-01-14 06:40:49.78	317.75	4.95	-54.6	-70.5	3.8	1.49e+00	0	27	104	0	74	23828
2026-01-14 06:40:50.79	317.68	4.88	-54.6	-70.5	3.8	1.49e+00	0	27	104	0	74	23824
2026-01-14 06:40:51.80	317.61	4.82	-54.6	-70.5	3.8	1.49e+00	0	27	104	0	74	23824
2026-01-14 06:40:52.81	317.54	4.76	-54.6	-70.5	3.8	1.49e+00	0	27	104	0	74	23846
2026-01-14 06:40:53.82	317.47	4.69	-54.6	-70.5	3.8	1.49e+00	0	27	104	0	74	23817
2026-01-14 06:40:54.83	317.40	4.63	-54.6	-70.5	3.8	1.49e+00	0	28	104	0	74	23799
2026-01-14 06:40:55.84	317.33	4.57	-54.6	-70.5	3.8	1.49e+00	0	27	104	0	74	23827
2026-01-14 06:40:56.84	317.26	4.50	-54.6	-70.5	3.8	1.49e+00	0	27	104	0	74	23803
2026-01-14 06:40:57.85	317.19	4.44	-54.6	-70.5	3.8	1.49e+00	0	27	104	0	74	23844
2026-01-14 06:40:58.86	317.12	4.38	-54.6	-70.6	3.8	1.49e+00	0	27	104	0	74	23892
2026-01-14 06:40:59.87	317.05	4.32	-54.6	-70.6	3.8	1.49e+00	0	27	104	0	74	23867
2026-01-14 06:41:00.88	316.99	4.25	-54.6	-70.5	3.8	1.49e+00	0	27	104	0	74	23822
2026-01-14 06:41:01.89	316.92	4.19	-54.6	-70.5	3.8	1.49e+00	0	27	104	0	74	23846
2026-01-14 06:41:02.90	316.85	4.13	-54.6	-70.5	3.8	1.49e+00	0	27	104	0	74	23815
2026-01-14 06:41:03.90	316.79	4.07	-54.6	-70.6	3.8	1.49e+00	0	27	104	0	74	23876
2026-01-14 06:41:04.92	316.72	4.01	-54.6	-70.6	3.8	1.49e+00	0	28	104	0	74	23877
2026-01-14 06:41:05.93	316.65	3.94	-54.6	-70.5	3.8	1.49e+00	0	28	104	0	74	23814
2026-01-14 06:41:06.93	316.59	3.88	-54.6	-70.5	3.8	1.49e+00	0	27	104	0	74	23852
2026-01-14 06:41:07.95	316.52	3.82	-54.6	-70.6	3.8	1.49e+00	0	27	104	0	74	23883
2026-01-14 06:41:08.96	316.45	3.76	-54.6	-70.5	3.8	1.49e+00	0	27	104	0	74	23842
2026-01-14 06:41:09.97	316.39	3.70	-54.6	-70.6	3.8	1.49e+00	0	27	104	0	74	23896
2026-01-14 06:41:10.97	316.32	3.64	-54.6	-70.5	3.8	1.49e+00	0	27	104	0	74	23819
