passes_logs/2026/01/14/R3.2S_Murmansk/R3.2S_Murmansk__20260114_212047_NOAA_21_JPSS-2_rec.log

#Pass ID: 20260114_212047_NOAA 21 (JPSS-2)
#Satellite: NOAA 21 (JPSS-2)
#Configuration: NOAA-21
#almurnet v.1.7.20251203
#Start time: 2026-01-14 21:20:49

#Version: 2.2.20231116
#Station: R3.2S_Murmansk
#Location: 33.079688 lon 68.888172 lat
#TLE: 1 54234U 22150A   26014.58979933  .00000039  00000+0  39403-4 0  9998
#TLE: 2 54234  98.7497 315.4945 0000653 294.6373  65.4735 14.19534652164756

#Time	Az	El	Level	Level2	SNR	BER	BlckErr	Temp	State	Recorded	gain1	gain2
2026-01-14 21:20:49.35	18.51	2.09	-58.0	-71.7	3.8	1.49e+00	0	26	0	0	82	17116
2026-01-14 21:20:50.35	18.60	2.13	-58.0	-71.5	3.8	1.49e+00	0	26	104	0	81	17872
2026-01-14 21:20:51.35	18.70	2.18	-58.0	-71.5	3.8	1.49e+00	0	26	104	0	81	17881
2026-01-14 21:20:52.35	18.80	2.22	-58.0	-71.5	3.8	1.49e+00	0	26	104	0	81	17831
2026-01-14 21:20:53.36	18.90	2.27	-58.0	-71.5	3.8	1.49e+00	0	26	104	0	81	17838
2026-01-14 21:20:54.35	18.99	2.31	-58.0	-71.6	3.8	1.49e+00	0	26	104	0	81	17935
2026-01-14 21:20:55.36	19.09	2.36	-58.0	-71.6	3.8	1.49e+00	0	26	104	0	81	18058
2026-01-14 21:20:56.36	19.19	2.40	-58.0	-71.6	3.8	1.49e+00	0	26	104	0	81	18049
2026-01-14 21:20:57.36	19.29	2.45	-58.0	-71.6	3.8	1.49e+00	0	26	104	0	81	17912
2026-01-14 21:20:58.36	19.39	2.50	-58.0	-71.6	3.8	1.49e+00	0	26	104	0	81	17968
2026-01-14 21:20:59.36	19.49	2.54	-58.0	-71.6	3.8	1.49e+00	0	26	104	0	81	18027
2026-01-14 21:21:00.36	19.59	2.59	-58.0	-71.6	3.9	1.49e+00	0	27	104	0	81	17939
2026-01-14 21:21:01.36	19.69	2.63	-58.0	-71.5	3.8	1.49e+00	0	26	104	0	81	17869
2026-01-14 21:21:02.36	19.79	2.68	-58.0	-71.5	3.8	1.49e+00	0	26	104	0	81	17856
2026-01-14 21:21:03.37	19.89	2.72	-58.0	-71.6	3.8	1.49e+00	0	26	104	0	81	17958
2026-01-14 21:21:04.36	19.99	2.77	-58.0	-71.6	3.8	1.49e+00	0	26	104	0	81	18073
2026-01-14 21:21:05.37	20.09	2.81	-58.0	-71.6	3.8	1.49e+00	0	26	104	0	81	18091
2026-01-14 21:21:06.37	20.19	2.86	-58.0	-71.7	3.8	1.49e+00	0	27	104	0	81	18180
2026-01-14 21:21:07.37	20.29	2.90	-58.0	-71.7	3.8	1.49e+00	0	27	104	0	81	18255
2026-01-14 21:21:08.38	20.40	2.95	-58.0	-71.7	3.8	1.49e+00	0	27	104	0	81	18222
2026-01-14 21:21:09.38	20.50	2.99	-58.0	-71.7	3.8	1.49e+00	0	27	104	0	81	18227
2026-01-14 21:21:10.39	20.60	3.04	-58.0	-71.7	3.8	1.49e+00	0	27	104	0	81	18229
2026-01-14 21:21:11.38	20.70	3.08	-58.0	-71.6	3.8	1.49e+00	0	27	104	0	81	18088
2026-01-14 21:21:12.39	20.81	3.13	-58.0	-71.6	3.8	1.49e+00	0	27	104	0	81	17996
2026-01-14 21:21:13.40	20.91	3.18	-58.0	-71.5	3.8	1.49e+00	0	27	104	0	81	17867
2026-01-14 21:21:14.40	21.02	3.22	-58.0	-71.6	3.8	1.49e+00	0	27	104	0	81	18001
2026-01-14 21:21:15.40	21.12	3.27	-58.0	-71.6	3.8	1.49e+00	0	27	104	0	81	17978
2026-01-14 21:21:16.41	21.22	3.31	-58.0	-71.6	3.8	1.49e+00	0	27	104	0	81	17975
2026-01-14 21:21:17.41	21.33	3.36	-58.0	-71.6	3.8	1.49e+00	0	27	104	0	81	18014
2026-01-14 21:21:18.41	21.43	3.40	-58.0	-71.7	3.8	1.49e+00	0	27	104	0	81	18248
2026-01-14 21:21:19.40	21.54	3.45	-58.0	-71.8	3.8	1.49e+00	0	27	104	0	81	18464
2026-01-14 21:21:20.41	21.64	3.49	-58.0	-71.8	3.8	1.49e+00	0	27	104	0	81	18427
2026-01-14 21:21:21.41	21.75	3.54	-58.0	-71.8	3.8	1.49e+00	0	27	104	0	81	18434
2026-01-14 21:21:22.42	21.86	3.58	-58.0	-71.7	3.8	1.49e+00	0	27	104	0	81	18268
2026-01-14 21:21:23.42	21.96	3.63	-58.0	-71.8	3.8	1.49e+00	0	27	104	0	81	18352
2026-01-14 21:21:24.43	22.07	3.67	-58.0	-71.8	3.8	1.49e+00	0	27	104	0	81	18437
2026-01-14 21:21:25.43	22.18	3.72	-58.0	-71.8	3.8	1.49e+00	0	27	104	0	81	18454
2026-01-14 21:21:26.43	22.29	3.77	-58.0	-71.8	3.8	1.49e+00	0	27	104	0	81	18383
2026-01-14 21:21:27.43	22.39	3.81	-58.0	-71.8	3.8	1.49e+00	0	27	104	0	81	18310
2026-01-14 21:21:28.44	22.50	3.86	-58.0	-71.7	3.8	1.49e+00	0	27	104	0	81	18153
2026-01-14 21:21:29.44	22.61	3.90	-58.0	-71.6	3.8	1.49e+00	0	27	104	0	81	17990
2026-01-14 21:21:30.45	22.72	3.95	-58.0	-71.7	3.8	1.49e+00	0	27	104	0	81	18144
2026-01-14 21:21:31.45	22.83	3.99	-58.0	-71.7	3.8	1.49e+00	0	27	104	0	81	18255
2026-01-14 21:21:32.44	22.94	4.04	-58.0	-71.8	3.8	1.49e+00	0	27	104	0	81	18435
2026-01-14 21:21:33.45	23.05	4.08	-58.0	-71.7	3.8	1.49e+00	0	27	104	0	81	18292
2026-01-14 21:21:34.44	23.16	4.13	-58.0	-71.6	3.8	1.49e+00	0	27	104	0	81	17889
2026-01-14 21:21:35.44	23.27	4.17	-58.0	-70.9	3.8	1.49e+00	0	27	104	0	81	16639
2026-01-14 21:21:36.44	23.38	4.22	-58.0	-70.5	3.8	1.49e+00	0	27	104	0	81	15890
2026-01-14 21:21:37.44	23.49	4.26	-57.9	-70.3	3.9	1.49e+00	0	27	104	0	81	15497
2026-01-14 21:21:38.44	23.60	4.31	-57.9	-70.5	3.8	1.49e+00	0	27	104	0	81	15806
2026-01-14 21:21:39.43	23.71	4.35	-58.0	-70.7	3.8	1.49e+00	0	27	104	0	81	16266
2026-01-14 21:21:40.43	23.82	4.40	-58.0	-71.0	3.8	1.49e+00	0	27	104	0	81	16756
2026-01-14 21:21:41.43	23.94	4.44	-57.9	-70.5	3.8	1.49e+00	0	27	104	0	81	15865
2026-01-14 21:21:42.43	24.05	4.49	-57.8	-68.4	4.2	1.47e+00	0	27	104	0	81	12492
2026-01-14 21:21:43.43	24.16	4.53	-57.4	-65.5	5.3	9.32e-01	0	27	0	0	81	8958
2026-01-14 21:21:44.43	24.28	4.58	-56.9	-63.1	6.9	1.79e-01	0	27	0	3145728	80	7156
2026-01-14 21:21:45.43	24.39	4.62	-56.3	-61.3	8.5	2.53e-02	0	27	0	6291456	79	6142
2026-01-14 21:21:46.43	24.50	4.67	-56.3	-61.2	8.6	1.38e-02	0	27	0	9437184	79	6098
2026-01-14 21:21:47.43	24.62	4.71	-55.8	-59.9	9.7	4.14e-03	0	27	0	12582912	78	5564
2026-01-14 21:21:48.43	24.73	4.76	-55.7	-59.8	9.7	2.87e-03	0	27	0	15728640	77	5846
2026-01-14 21:21:49.42	24.85	4.80	-55.9	-60.2	9.4	4.86e-03	0	27	0	18874368	77	6116
2026-01-14 21:21:50.42	24.96	4.85	-55.9	-60.3	9.3	6.07e-03	0	27	0	22020096	77	6189
2026-01-14 21:21:51.42	25.08	4.89	-56.2	-61.0	8.7	9.30e-03	0	27	0	25165824	77	6666
2026-01-14 21:21:52.42	25.19	4.94	-56.4	-61.6	8.2	2.20e-02	0	27	0	28311552	77	7176
2026-01-14 21:21:53.42	25.31	4.98	-56.7	-62.3	7.6	5.19e-02	0	27	0	31457280	78	7321
2026-01-14 21:21:54.41	25.42	5.03	-56.2	-60.8	8.8	7.16e-02	0	27	0	34603008	78	6197
2026-01-14 21:21:55.42	25.54	5.07	-56.3	-61.2	8.8	2.20e-06	0	27	0	37748736	77	6848
2026-01-14 21:21:56.41	25.66	5.12	-57.2	-65.4	4.2	1.48e+00	0	27	104	38797312	80	9312
2026-01-14 21:21:57.40	25.77	5.16	-55.7	-59.3	10.3	1.14e-02	0	27	0	40894464	78	5216
2026-01-14 21:21:58.40	25.89	5.21	-55.6	-59.4	10.3	1.75e-05	0	28	0	44040192	76	5900
2026-01-14 21:21:59.40	26.01	5.25	-57.1	-63.3	6.9	4.58e-01	0	28	0	47185920	80	7296
2026-01-14 21:22:00.41	26.13	5.30	-53.2	-55.5	12.8	0.00e+00	0	27	0	50331648	73	4442
2026-01-14 21:22:01.41	26.25	5.34	-52.7	-54.7	13.3	0.00e+00	0	27	0	52428800	72	4306
2026-01-14 21:22:02.41	26.37	5.39	-52.5	-54.5	13.3	0.00e+00	0	28	0	55574528	71	4449
2026-01-14 21:22:03.41	26.49	5.43	-52.7	-54.7	13.1	0.00e+00	0	27	0	58720256	71	4583
2026-01-14 21:22:04.41	26.61	5.47	-52.6	-54.5	13.3	0.00e+00	0	27	0	61865984	71	4492
2026-01-14 21:22:05.40	26.73	5.52	-52.6	-54.6	13.2	0.00e+00	0	27	0	65011712	71	4526
2026-01-14 21:22:06.39	26.85	5.56	-52.7	-54.7	13.2	0.00e+00	0	28	0	68157440	71	4586
2026-01-14 21:22:07.39	26.97	5.61	-52.4	-54.3	13.4	0.00e+00	0	27	0	71303168	71	4369
2026-01-14 21:22:08.39	27.09	5.65	-52.3	-54.2	13.4	0.00e+00	0	27	0	74448896	71	4339
2026-01-14 21:22:09.39	27.21	5.70	-52.3	-54.2	13.5	0.00e+00	0	28	0	77594624	71	4318
2026-01-14 21:22:10.40	27.34	5.74	-52.5	-54.4	13.3	0.00e+00	0	28	0	80740352	71	4437
2026-01-14 21:22:11.40	27.46	5.79	-52.6	-54.6	13.2	0.00e+00	0	27	0	83886080	71	4515
2026-01-14 21:22:12.40	27.58	5.83	-52.0	-53.8	13.6	0.00e+00	0	28	0	87031808	70	4356
2026-01-14 21:22:13.39	27.70	5.87	-52.0	-53.8	13.6	0.00e+00	0	27	0	90177536	70	4374
2026-01-14 21:22:14.40	27.83	5.92	-52.2	-54.0	13.5	0.00e+00	0	28	0	93323264	70	4487
2026-01-14 21:22:15.40	27.95	5.96	-52.1	-53.9	13.6	0.00e+00	0	28	0	96468992	70	4405
2026-01-14 21:22:16.41	28.08	6.01	-51.9	-53.6	13.7	0.00e+00	0	28	0	99614720	70	4289
2026-01-14 21:22:17.41	28.20	6.05	-52.1	-53.9	13.6	0.00e+00	0	28	0	102760448	70	4400
2026-01-14 21:22:18.42	28.33	6.10	-52.0	-53.8	13.6	0.00e+00	0	28	0	105906176	70	4385
2026-01-14 21:22:19.42	28.45	6.14	-52.0	-53.8	13.6	0.00e+00	0	28	0	109051904	70	4386
2026-01-14 21:22:20.43	28.58	6.19	-52.0	-53.8	13.6	0.00e+00	0	28	0	112197632	70	4379
2026-01-14 21:22:21.43	28.71	6.23	-52.1	-53.8	13.6	0.00e+00	0	28	0	115343360	70	4391
2026-01-14 21:22:22.42	28.83	6.27	-51.9	-53.7	13.7	0.00e+00	0	28	0	118489088	70	4325
2026-01-14 21:22:23.43	28.96	6.32	-52.1	-53.9	13.6	0.00e+00	0	28	0	121634816	70	4438
2026-01-14 21:22:24.43	29.09	6.36	-52.1	-54.0	13.5	0.00e+00	0	28	0	124780544	70	4461
2026-01-14 21:22:25.43	29.22	6.41	-52.1	-53.9	13.6	0.00e+00	0	28	0	127926272	70	4439
2026-01-14 21:22:26.44	29.35	6.45	-52.2	-54.0	13.5	0.00e+00	0	28	0	131072000	70	4480
2026-01-14 21:22:27.44	29.47	6.50	-52.1	-53.9	13.6	0.00e+00	0	28	0	134217728	70	4422
2026-01-14 21:22:28.44	29.60	6.54	-52.0	-53.8	13.6	0.00e+00	0	28	0	137363456	70	4383
2026-01-14 21:22:29.44	29.73	6.58	-52.1	-53.9	13.6	0.00e+00	0	28	0	140509184	70	4396
2026-01-14 21:22:30.43	29.86	6.63	-52.1	-53.8	13.6	0.00e+00	0	27	0	143654912	70	4390
2026-01-14 21:22:31.43	29.99	6.67	-52.1	-53.9	13.6	0.00e+00	0	28	0	146800640	70	4403
2026-01-14 21:22:32.44	30.12	6.71	-52.1	-53.8	13.6	0.00e+00	0	28	0	149946368	70	4391
2026-01-14 21:22:33.44	30.25	6.76	-51.6	-53.3	13.8	0.00e+00	0	28	0	153092096	69	4378
2026-01-14 21:22:34.44	30.38	6.80	-51.7	-53.4	13.8	0.00e+00	0	28	0	156237824	69	4412
2026-01-14 21:22:35.44	30.51	6.84	-51.9	-53.6	13.7	0.00e+00	0	28	0	159383552	69	4513
2026-01-14 21:22:36.44	30.65	6.89	-51.7	-53.4	13.8	0.00e+00	0	28	0	162529280	69	4414
2026-01-14 21:22:37.44	30.78	6.93	-51.8	-53.6	13.7	0.00e+00	0	28	0	165675008	69	4505
2026-01-14 21:22:38.45	30.91	6.98	-52.1	-53.9	13.5	0.00e+00	0	28	0	168820736	69	4675
2026-01-14 21:22:39.45	31.05	7.02	-52.1	-54.0	13.5	0.00e+00	0	28	0	171966464	69	4706
2026-01-14 21:22:40.45	31.18	7.06	-52.1	-53.8	13.6	0.00e+00	0	28	0	175112192	69	4647
2026-01-14 21:22:41.44	31.31	7.10	-51.6	-53.3	13.8	0.00e+00	0	28	0	178257920	69	4353
2026-01-14 21:22:42.44	31.44	7.15	-51.8	-53.6	13.7	0.00e+00	0	28	0	181403648	69	4494
2026-01-14 21:22:43.44	31.58	7.19	-51.6	-53.3	13.8	0.00e+00	0	28	0	184549376	69	4375
2026-01-14 21:22:44.44	31.71	7.23	-51.8	-53.5	13.7	0.00e+00	0	28	0	187695104	69	4474
2026-01-14 21:22:45.44	31.85	7.28	-51.6	-53.3	13.8	0.00e+00	0	28	0	190840832	69	4365
2026-01-14 21:22:46.45	31.99	7.32	-51.8	-53.6	13.7	0.00e+00	0	28	0	193986560	69	4496
2026-01-14 21:22:47.45	32.12	7.36	-51.9	-53.6	13.7	0.00e+00	0	28	0	197132288	69	4497
2026-01-14 21:22:48.46	32.26	7.41	-51.6	-53.2	13.9	0.00e+00	0	28	0	200278016	69	4340
2026-01-14 21:22:49.46	32.40	7.45	-51.4	-53.0	14.0	0.00e+00	0	28	0	203423744	69	4214
2026-01-14 21:22:50.46	32.53	7.49	-51.4	-53.0	14.0	0.00e+00	0	28	0	206569472	69	4231
2026-01-14 21:22:51.45	32.67	7.53	-51.5	-53.1	13.9	0.00e+00	0	28	0	209715200	69	4284
2026-01-14 21:22:52.45	32.81	7.58	-51.5	-53.1	13.9	0.00e+00	0	28	0	212860928	69	4273
2026-01-14 21:22:53.46	32.95	7.62	-51.4	-53.0	14.0	0.00e+00	0	28	0	216006656	69	4217
2026-01-14 21:22:54.46	33.09	7.66	-51.4	-53.0	14.0	0.00e+00	0	28	0	219152384	69	4217
2026-01-14 21:22:55.46	33.23	7.70	-51.4	-53.0	14.0	0.00e+00	0	28	0	222298112	69	4224
2026-01-14 21:22:56.46	33.36	7.75	-51.6	-53.3	13.9	0.00e+00	0	28	0	225443840	69	4342
2026-01-14 21:22:57.46	33.50	7.79	-51.6	-53.3	13.9	0.00e+00	0	28	0	228589568	69	4346
2026-01-14 21:22:58.45	33.64	7.83	-51.5	-53.1	14.0	0.00e+00	0	28	0	231735296	69	4277
2026-01-14 21:22:59.44	33.78	7.87	-51.4	-53.1	14.0	0.00e+00	0	28	0	233832448	69	4248
2026-01-14 21:23:00.44	33.92	7.91	-51.5	-53.1	14.0	0.00e+00	0	28	0	236978176	69	4269
2026-01-14 21:23:01.44	34.06	7.96	-51.5	-53.1	13.9	0.00e+00	0	28	0	240123904	69	4282
2026-01-14 21:23:02.44	34.21	8.00	-51.6	-53.2	13.9	0.00e+00	0	28	0	243269632	69	4327
2026-01-14 21:23:03.44	34.35	8.04	-51.6	-53.2	13.9	0.00e+00	0	28	0	246415360	69	4317
2026-01-14 21:23:04.44	34.49	8.08	-51.5	-53.1	14.0	0.00e+00	0	28	0	249561088	69	4277
2026-01-14 21:23:05.44	34.63	8.12	-51.5	-53.1	14.0	0.00e+00	0	28	0	252706816	69	4270
2026-01-14 21:23:06.44	34.78	8.16	-51.4	-52.9	14.0	0.00e+00	0	28	0	255852544	69	4193
2026-01-14 21:23:07.44	34.92	8.20	-51.5	-53.1	14.0	0.00e+00	0	28	0	258998272	69	4263
2026-01-14 21:23:08.44	35.07	8.25	-51.3	-52.9	14.1	0.00e+00	0	28	0	262144000	69	4171
2026-01-14 21:23:09.44	35.21	8.29	-51.3	-52.9	14.0	0.00e+00	0	28	0	265289728	69	4179
2026-01-14 21:23:10.44	35.36	8.33	-51.3	-52.8	14.1	0.00e+00	0	28	0	268435456	69	4142
2026-01-14 21:23:11.44	35.50	8.37	-51.3	-52.9	14.1	0.00e+00	0	28	0	271581184	69	4167
2026-01-14 21:23:12.44	35.65	8.41	-51.3	-52.9	14.1	0.00e+00	0	28	0	274726912	69	4181
2026-01-14 21:23:13.44	35.79	8.45	-51.5	-53.1	14.0	0.00e+00	0	28	0	277872640	69	4252
2026-01-14 21:23:14.44	35.94	8.49	-51.6	-53.2	13.9	0.00e+00	0	28	0	281018368	69	4316
2026-01-14 21:23:15.45	36.09	8.53	-51.3	-52.9	14.1	0.00e+00	0	28	0	284164096	69	4170
2026-01-14 21:23:16.44	36.23	8.57	-51.3	-52.9	14.1	0.00e+00	0	28	0	287309824	69	4179
2026-01-14 21:23:17.45	36.38	8.61	-51.3	-52.9	14.1	0.00e+00	0	28	0	290455552	69	4153
2026-01-14 21:23:18.45	36.53	8.65	-51.3	-52.9	14.1	0.00e+00	0	28	0	293601280	69	4183
2026-01-14 21:23:19.45	36.68	8.69	-51.3	-52.9	14.1	0.00e+00	0	28	0	296747008	69	4174
2026-01-14 21:23:20.46	36.83	8.73	-51.4	-53.0	14.0	0.00e+00	0	28	0	299892736	69	4200
2026-01-14 21:23:21.46	36.98	8.77	-51.3	-52.9	14.1	0.00e+00	0	28	0	303038464	69	4169
2026-01-14 21:23:22.47	37.13	8.82	-51.1	-52.6	14.1	0.00e+00	0	28	0	306184192	68	4291
2026-01-14 21:23:23.47	37.28	8.86	-51.2	-52.8	14.1	0.00e+00	0	28	0	309329920	68	4348
2026-01-14 21:23:24.46	37.43	8.89	-51.2	-52.7	14.1	0.00e+00	0	28	0	312475648	68	4340
2026-01-14 21:23:25.46	37.58	8.93	-51.2	-52.7	14.1	0.00e+00	0	28	0	315621376	68	4334
2026-01-14 21:23:26.46	37.73	8.97	-51.1	-52.7	14.1	0.00e+00	0	28	0	318767104	68	4310
2026-01-14 21:23:27.46	37.88	9.01	-51.2	-52.8	14.0	0.00e+00	0	28	0	321912832	68	4365
2026-01-14 21:23:28.45	38.03	9.05	-51.3	-52.9	14.0	0.00e+00	0	28	0	325058560	68	4418
2026-01-14 21:23:29.46	38.19	9.09	-51.1	-52.7	14.1	0.00e+00	0	28	0	328204288	68	4293
2026-01-14 21:23:30.47	38.34	9.13	-51.1	-52.6	14.1	0.00e+00	0	28	0	331350016	68	4286
2026-01-14 21:23:31.47	38.49	9.17	-51.1	-52.6	14.1	0.00e+00	0	28	0	334495744	68	4284
2026-01-14 21:23:32.48	38.65	9.21	-51.2	-52.7	14.1	0.00e+00	0	28	0	337641472	68	4311
2026-01-14 21:23:33.48	38.80	9.25	-51.0	-52.5	14.2	0.00e+00	0	28	0	340787200	68	4223
2026-01-14 21:23:34.48	38.96	9.29	-51.1	-52.6	14.2	0.00e+00	0	28	0	343932928	68	4263
2026-01-14 21:23:35.48	39.11	9.33	-51.3	-52.8	14.0	0.00e+00	0	28	0	347078656	68	4389
2026-01-14 21:23:36.48	39.27	9.36	-51.2	-52.7	14.1	0.00e+00	0	28	0	350224384	68	4321
2026-01-14 21:23:37.48	39.42	9.40	-51.2	-52.7	14.1	0.00e+00	0	28	0	353370112	68	4308
2026-01-14 21:23:38.48	39.58	9.44	-51.0	-52.5	14.2	0.00e+00	0	28	0	356515840	68	4201
2026-01-14 21:23:39.48	39.74	9.48	-51.2	-52.8	14.1	0.00e+00	0	28	0	359661568	68	4349
2026-01-14 21:23:40.48	39.89	9.52	-51.0	-52.5	14.2	0.00e+00	0	28	0	362807296	68	4230
2026-01-14 21:23:41.48	40.05	9.55	-51.0	-52.5	14.2	0.00e+00	0	28	0	365953024	68	4217
2026-01-14 21:23:42.49	40.21	9.59	-51.1	-52.7	14.1	0.00e+00	0	28	0	369098752	68	4302
2026-01-14 21:23:43.49	40.37	9.63	-51.1	-52.6	14.1	0.00e+00	0	28	0	372244480	68	4278
2026-01-14 21:23:44.49	40.53	9.67	-51.0	-52.5	14.2	0.00e+00	0	28	0	375390208	68	4221
2026-01-14 21:23:45.50	40.69	9.70	-51.2	-52.7	14.1	0.00e+00	0	28	0	378535936	68	4330
2026-01-14 21:23:46.50	40.85	9.74	-51.1	-52.6	14.2	0.00e+00	0	28	0	381681664	68	4260
2026-01-14 21:23:47.50	41.01	9.78	-51.2	-52.7	14.1	0.00e+00	0	28	0	384827392	68	4328
2026-01-14 21:23:48.49	41.16	9.81	-51.2	-52.8	14.1	0.00e+00	0	28	0	387973120	68	4356
2026-01-14 21:23:49.49	41.32	9.85	-51.2	-52.8	14.1	0.00e+00	0	28	0	390070272	68	4348
2026-01-14 21:23:50.49	41.48	9.89	-51.3	-52.9	14.0	0.00e+00	0	28	0	393216000	68	4420
2026-01-14 21:23:51.49	41.65	9.92	-51.2	-52.8	14.1	0.00e+00	0	28	0	396361728	68	4366
2026-01-14 21:23:52.48	41.81	9.96	-51.0	-52.5	14.2	0.00e+00	0	28	0	399507456	68	4238
2026-01-14 21:23:53.49	41.97	10.00	-51.1	-52.6	14.2	0.00e+00	0	28	0	402653184	68	4273
2026-01-14 21:23:54.48	42.13	10.03	-51.2	-52.8	14.1	0.00e+00	0	28	0	405798912	68	4342
2026-01-14 21:23:55.47	42.29	10.07	-51.0	-52.5	14.2	0.00e+00	0	28	0	408944640	68	4242
2026-01-14 21:23:56.47	42.45	10.10	-51.2	-52.7	14.1	0.00e+00	0	28	0	412090368	68	4326
2026-01-14 21:23:57.47	42.62	10.14	-51.1	-52.6	14.2	0.00e+00	0	28	0	415236096	68	4273
2026-01-14 21:23:58.48	42.78	10.17	-51.1	-52.7	14.1	0.00e+00	0	28	0	418381824	68	4295
2026-01-14 21:23:59.48	42.95	10.21	-51.2	-52.8	14.1	0.00e+00	0	28	0	421527552	68	4368
2026-01-14 21:24:00.47	43.11	10.24	-51.2	-52.7	14.1	0.00e+00	0	28	0	424673280	68	4337
2026-01-14 21:24:01.48	43.28	10.28	-51.2	-52.7	14.1	0.00e+00	0	28	0	427819008	68	4311
2026-01-14 21:24:02.48	43.44	10.31	-51.1	-52.6	14.2	0.00e+00	0	28	0	430964736	68	4272
2026-01-14 21:24:03.47	43.61	10.35	-51.2	-52.7	14.1	0.00e+00	0	28	0	434110464	68	4328
2026-01-14 21:24:04.47	43.77	10.38	-51.1	-52.6	14.1	0.00e+00	0	28	0	437256192	68	4288
2026-01-14 21:24:05.47	43.94	10.42	-51.1	-52.7	14.1	0.00e+00	0	28	0	440401920	68	4305
2026-01-14 21:24:06.46	44.10	10.45	-50.9	-52.4	14.2	0.00e+00	0	28	0	443547648	68	4164
2026-01-14 21:24:07.46	44.27	10.49	-51.0	-52.5	14.2	0.00e+00	0	28	0	446693376	68	4204
2026-01-14 21:24:08.46	44.44	10.52	-50.9	-52.4	14.3	0.00e+00	0	28	0	449839104	68	4147
2026-01-14 21:24:09.45	44.61	10.55	-51.0	-52.5	14.2	0.00e+00	0	28	0	452984832	68	4230
2026-01-14 21:24:10.45	44.77	10.59	-51.0	-52.5	14.2	0.00e+00	0	28	0	456130560	68	4222
2026-01-14 21:24:11.45	44.94	10.62	-51.0	-52.5	14.2	0.00e+00	0	28	0	459276288	68	4241
2026-01-14 21:24:12.45	45.11	10.65	-51.0	-52.5	14.2	0.00e+00	0	28	0	462422016	68	4218
2026-01-14 21:24:13.46	45.28	10.69	-51.1	-52.6	14.1	0.00e+00	0	28	0	465567744	68	4280
2026-01-14 21:24:14.45	45.45	10.72	-51.1	-52.7	14.1	0.00e+00	0	28	0	468713472	68	4302
2026-01-14 21:24:15.45	45.62	10.75	-51.2	-52.7	14.1	0.00e+00	0	28	0	471859200	68	4327
2026-01-14 21:24:16.45	45.79	10.78	-51.2	-52.8	14.1	0.00e+00	0	28	0	475004928	68	4372
2026-01-14 21:24:17.44	45.96	10.81	-51.3	-52.9	14.0	0.00e+00	0	28	0	478150656	68	4404
2026-01-14 21:24:18.44	46.13	10.85	-51.3	-52.9	14.0	0.00e+00	0	28	0	481296384	68	4395
2026-01-14 21:24:19.43	46.30	10.88	-51.2	-52.7	14.1	0.00e+00	0	28	0	484442112	68	4328
2026-01-14 21:24:20.44	46.48	10.91	-51.1	-52.6	14.1	0.00e+00	0	28	0	487587840	68	4288
2026-01-14 21:24:21.44	46.65	10.94	-51.1	-52.6	14.2	0.00e+00	0	28	0	490733568	68	4282
2026-01-14 21:24:22.44	46.82	10.97	-51.1	-52.6	14.1	0.00e+00	0	28	0	493879296	68	4291
2026-01-14 21:24:23.44	46.99	11.00	-51.0	-52.5	14.2	0.00e+00	0	28	0	497025024	68	4222
2026-01-14 21:24:24.44	47.17	11.04	-50.9	-52.4	14.3	0.00e+00	0	28	0	500170752	68	4162
2026-01-14 21:24:25.44	47.34	11.07	-51.0	-52.5	14.2	0.00e+00	0	28	0	503316480	68	4209
2026-01-14 21:24:26.45	47.52	11.10	-50.9	-52.4	14.3	0.00e+00	0	28	0	506462208	68	4171
2026-01-14 21:24:27.45	47.69	11.13	-51.0	-52.5	14.2	0.00e+00	0	28	0	509607936	68	4194
2026-01-14 21:24:28.45	47.87	11.16	-51.0	-52.5	14.2	0.00e+00	0	28	0	512753664	68	4239
2026-01-14 21:24:29.44	48.04	11.19	-51.1	-52.6	14.2	0.00e+00	0	28	0	515899392	68	4257
2026-01-14 21:24:30.44	48.22	11.22	-51.2	-52.7	14.1	0.00e+00	0	28	0	519045120	68	4314
2026-01-14 21:24:31.44	48.39	11.25	-51.0	-52.6	14.2	0.00e+00	0	28	0	522190848	68	4243
2026-01-14 21:24:32.44	48.57	11.28	-51.1	-52.6	14.2	0.00e+00	0	28	0	524288000	68	4262
2026-01-14 21:24:33.43	48.74	11.30	-51.1	-52.6	14.2	0.00e+00	0	28	0	527433728	68	4248
2026-01-14 21:24:34.43	48.92	11.33	-51.1	-52.6	14.2	0.00e+00	0	28	0	530579456	68	4257
2026-01-14 21:24:35.42	49.10	11.36	-51.0	-52.4	14.2	0.00e+00	0	28	0	533725184	68	4191
2026-01-14 21:24:36.43	49.28	11.39	-51.0	-52.5	14.2	0.00e+00	0	28	0	536870912	68	4242
2026-01-14 21:24:37.43	49.45	11.42	-51.1	-52.6	14.2	0.00e+00	0	28	0	540016640	68	4258
2026-01-14 21:24:38.43	49.63	11.45	-51.0	-52.4	14.2	0.00e+00	0	28	0	543162368	68	4187
2026-01-14 21:24:39.43	49.81	11.47	-51.0	-52.5	14.2	0.00e+00	0	28	0	546308096	68	4211
2026-01-14 21:24:40.43	49.99	11.50	-51.0	-52.5	14.3	0.00e+00	0	28	0	549453824	68	4200
2026-01-14 21:24:41.43	50.17	11.53	-50.9	-52.4	14.3	0.00e+00	0	28	0	552599552	68	4177
2026-01-14 21:24:42.43	50.35	11.56	-51.0	-52.4	14.3	0.00e+00	0	28	0	555745280	68	4187
2026-01-14 21:24:43.44	50.53	11.58	-51.0	-52.5	14.3	0.00e+00	0	28	0	558891008	68	4194
2026-01-14 21:24:44.44	50.71	11.61	-50.9	-52.4	14.3	0.00e+00	0	28	0	562036736	68	4151
2026-01-14 21:24:45.44	50.89	11.64	-50.9	-52.3	14.3	0.00e+00	0	28	0	565182464	68	4127
2026-01-14 21:24:46.44	51.07	11.66	-50.9	-52.3	14.3	0.00e+00	0	28	0	568328192	68	4127
2026-01-14 21:24:47.44	51.25	11.69	-50.9	-52.3	14.3	0.00e+00	0	28	0	571473920	68	4140
2026-01-14 21:24:48.44	51.43	11.72	-50.9	-52.4	14.3	0.00e+00	0	28	0	574619648	68	4147
2026-01-14 21:24:49.44	51.62	11.74	-50.9	-52.4	14.3	0.00e+00	0	28	0	577765376	68	4178
2026-01-14 21:24:50.44	51.80	11.77	-51.0	-52.5	14.2	0.00e+00	0	28	0	580911104	68	4195
2026-01-14 21:24:51.44	51.98	11.79	-50.9	-52.4	14.3	0.00e+00	0	28	0	584056832	68	4177
2026-01-14 21:24:52.44	52.16	11.82	-51.0	-52.5	14.2	0.00e+00	0	28	0	587202560	68	4213
2026-01-14 21:24:53.45	52.35	11.84	-51.0	-52.5	14.2	0.00e+00	0	28	0	590348288	68	4224
2026-01-14 21:24:54.45	52.53	11.87	-51.0	-52.5	14.2	0.00e+00	0	28	0	593494016	68	4242
2026-01-14 21:24:55.44	52.71	11.89	-51.1	-52.6	14.2	0.00e+00	0	28	0	596639744	68	4258
2026-01-14 21:24:56.44	52.90	11.91	-50.9	-52.4	14.3	0.00e+00	0	28	0	599785472	68	4156
2026-01-14 21:24:57.43	53.08	11.94	-50.7	-52.2	14.4	0.00e+00	0	28	0	602931200	68	4061
2026-01-14 21:24:58.33	53.25	11.96	-50.8	-52.3	14.3	0.00e+00	0	28	0	606076928	68	4119
2026-01-14 21:24:59.45	53.45	11.98	-50.8	-52.3	14.3	0.00e+00	0	28	0	609222656	68	4114
2026-01-14 21:25:00.31	53.61	12.00	-50.8	-52.2	14.4	0.00e+00	0	28	0	612368384	68	4076
2026-01-14 21:25:01.45	53.82	12.03	-50.8	-52.3	14.3	0.00e+00	0	28	0	615514112	68	4100
2026-01-14 21:25:02.30	53.98	12.05	-50.8	-52.2	14.4	0.00e+00	0	28	0	618659840	68	4078
2026-01-14 21:25:03.44	54.19	12.07	-50.9	-52.3	14.3	0.00e+00	0	28	0	621805568	68	4130
2026-01-14 21:25:04.29	54.35	12.09	-50.8	-52.3	14.3	0.00e+00	0	28	0	624951296	68	4123
2026-01-14 21:25:05.43	54.56	12.12	-50.9	-52.3	14.3	0.00e+00	0	28	0	628097024	68	4129
2026-01-14 21:25:06.28	54.72	12.14	-50.9	-52.4	14.3	0.00e+00	0	28	0	631242752	68	4162
2026-01-14 21:25:07.42	54.94	12.16	-50.9	-52.4	14.3	0.00e+00	0	28	0	634388480	68	4184
2026-01-14 21:25:08.27	55.10	12.18	-51.0	-52.4	14.3	0.00e+00	0	28	0	637534208	68	4191
2026-01-14 21:25:09.42	55.31	12.20	-50.9	-52.4	14.3	0.00e+00	0	28	0	640679936	68	4163
2026-01-14 21:25:10.28	55.47	12.22	-50.8	-52.2	14.3	0.00e+00	0	28	0	643825664	68	4096
2026-01-14 21:25:11.41	55.69	12.24	-50.8	-52.2	14.4	0.00e+00	0	28	0	646971392	68	4094
2026-01-14 21:25:12.27	55.85	12.26	-50.7	-52.2	14.4	0.00e+00	0	28	0	650117120	68	4062
2026-01-14 21:25:13.41	56.06	12.28	-50.8	-52.2	14.4	0.00e+00	0	28	0	653262848	68	4080
2026-01-14 21:25:14.27	56.22	12.30	-50.8	-52.3	14.3	0.00e+00	0	28	0	656408576	68	4100
2026-01-14 21:25:15.42	56.44	12.32	-50.9	-52.4	14.3	0.00e+00	0	28	0	659554304	68	4171
2026-01-14 21:25:16.26	56.60	12.34	-51.0	-52.5	14.2	0.00e+00	0	28	0	661651456	68	4228
2026-01-14 21:25:17.41	56.82	12.36	-50.9	-52.4	14.3	0.00e+00	0	28	0	665845760	68	4166
2026-01-14 21:25:18.27	56.98	12.38	-50.9	-52.4	14.3	0.00e+00	0	28	0	667942912	68	4180
2026-01-14 21:25:19.41	57.20	12.40	-50.8	-52.2	14.4	0.00e+00	0	28	0	672137216	68	4082
2026-01-14 21:25:20.27	57.36	12.41	-50.7	-52.2	14.4	0.00e+00	0	28	0	674234368	68	4069
2026-01-14 21:25:21.41	57.58	12.43	-50.7	-52.2	14.4	0.00e+00	0	28	0	678428672	68	4056
2026-01-14 21:25:22.26	57.74	12.45	-50.5	-51.9	14.4	0.00e+00	0	28	0	680525824	67	4187
2026-01-14 21:25:23.41	57.96	12.47	-50.3	-51.7	14.5	0.00e+00	0	28	0	684720128	67	4074
2026-01-14 21:25:24.26	58.12	12.48	-50.4	-51.8	14.4	0.00e+00	0	28	0	686817280	67	4117
2026-01-14 21:25:25.40	58.34	12.50	-50.4	-51.8	14.4	0.00e+00	0	28	0	691011584	67	4129
2026-01-14 21:25:26.25	58.50	12.51	-50.3	-51.7	14.4	0.00e+00	0	28	0	693108736	67	4067
2026-01-14 21:25:27.40	58.73	12.53	-50.4	-51.8	14.4	0.00e+00	0	28	0	697303040	67	4106
2026-01-14 21:25:28.26	58.89	12.54	-50.4	-51.8	14.4	0.00e+00	0	28	0	699400192	67	4129
2026-01-14 21:25:29.40	59.11	12.56	-50.4	-51.9	14.4	0.00e+00	0	28	0	703594496	67	4155
2026-01-14 21:25:30.26	59.27	12.57	-50.5	-51.9	14.4	0.00e+00	0	28	0	705691648	67	4182
2026-01-14 21:25:31.41	59.50	12.59	-50.6	-52.0	14.3	0.00e+00	0	28	0	709885952	67	4229
2026-01-14 21:25:32.26	59.66	12.60	-50.6	-52.0	14.3	0.00e+00	0	28	0	711983104	67	4223
2026-01-14 21:25:33.40	59.88	12.62	-50.6	-52.0	14.3	0.00e+00	0	28	0	716177408	67	4216
2026-01-14 21:25:34.26	60.05	12.63	-50.5	-52.0	14.3	0.00e+00	0	28	0	718274560	67	4205
2026-01-14 21:25:35.40	60.27	12.65	-50.5	-52.0	14.3	0.00e+00	0	28	0	722468864	67	4203
2026-01-14 21:25:36.25	60.43	12.66	-50.5	-52.0	14.3	0.00e+00	0	28	0	724566016	67	4214
2026-01-14 21:25:37.40	60.65	12.67	-50.6	-52.0	14.3	0.00e+00	0	28	0	728760320	67	4237
2026-01-14 21:25:38.26	60.82	12.69	-50.6	-52.1	14.3	0.00e+00	0	28	0	730857472	67	4254
2026-01-14 21:25:39.40	61.04	12.70	-50.7	-52.2	14.3	0.00e+00	0	28	0	734003200	67	4302
2026-01-14 21:25:40.26	61.21	12.71	-50.7	-52.1	14.3	0.00e+00	0	28	0	737148928	67	4274
2026-01-14 21:25:41.41	61.43	12.72	-50.8	-52.2	14.2	0.00e+00	0	28	0	740294656	67	4324
2026-01-14 21:25:42.27	61.60	12.73	-50.7	-52.2	14.3	0.00e+00	0	28	0	743440384	67	4311
2026-01-14 21:25:43.42	61.82	12.75	-50.7	-52.1	14.3	0.00e+00	0	28	0	746586112	67	4268
2026-01-14 21:25:44.27	61.99	12.76	-50.7	-52.2	14.3	0.00e+00	0	28	0	749731840	67	4293
2026-01-14 21:25:45.41	62.21	12.77	-50.6	-52.0	14.3	0.00e+00	0	28	0	752877568	67	4225
2026-01-14 21:25:46.27	62.38	12.78	-50.6	-52.0	14.3	0.00e+00	0	28	0	756023296	67	4237
2026-01-14 21:25:47.41	62.60	12.79	-50.4	-51.8	14.4	0.00e+00	0	28	0	759169024	67	4125
2026-01-14 21:25:48.26	62.77	12.80	-50.5	-51.9	14.4	0.00e+00	0	28	0	762314752	67	4169
2026-01-14 21:25:49.41	62.99	12.81	-50.4	-51.8	14.4	0.00e+00	0	28	0	765460480	67	4142
2026-01-14 21:25:50.26	63.16	12.82	-50.5	-51.9	14.4	0.00e+00	0	28	0	768606208	67	4162
2026-01-14 21:25:51.41	63.38	12.83	-50.4	-51.7	14.4	0.00e+00	0	28	0	771751936	67	4097
2026-01-14 21:25:52.26	63.55	12.83	-50.3	-51.7	14.5	0.00e+00	0	28	0	774897664	67	4071
2026-01-14 21:25:53.40	63.77	12.84	-50.3	-51.7	14.5	0.00e+00	0	28	0	778043392	67	4066
2026-01-14 21:25:54.25	63.94	12.85	-50.2	-51.6	14.5	0.00e+00	0	28	0	781189120	67	4022
2026-01-14 21:25:55.40	64.16	12.86	-50.2	-51.6	14.5	0.00e+00	0	28	0	784334848	67	4020
2026-01-14 21:25:56.25	64.33	12.87	-50.3	-51.7	14.5	0.00e+00	0	28	0	787480576	67	4060
2026-01-14 21:25:57.39	64.55	12.87	-50.3	-51.7	14.4	0.00e+00	0	28	0	790626304	67	4086
2026-01-14 21:25:58.24	64.72	12.88	-50.4	-51.8	14.4	0.00e+00	0	28	0	793772032	67	4117
2026-01-14 21:25:59.38	64.94	12.89	-50.4	-51.8	14.4	0.00e+00	0	28	0	796917760	67	4115
2026-01-14 21:26:00.24	65.11	12.89	-50.4	-51.8	14.4	0.00e+00	0	28	0	799014912	67	4122
2026-01-14 21:26:01.37	65.34	12.90	-50.5	-51.9	14.3	0.00e+00	0	28	0	803209216	67	4190
2026-01-14 21:26:02.22	65.50	12.91	-50.5	-51.9	14.3	0.00e+00	0	28	0	805306368	67	4193
2026-01-14 21:26:03.36	65.73	12.91	-50.3	-51.7	14.4	0.00e+00	0	28	0	809500672	67	4089
2026-01-14 21:26:04.22	65.90	12.92	-50.4	-51.8	14.4	0.00e+00	0	28	0	811597824	67	4141
2026-01-14 21:26:05.37	66.12	12.92	-50.3	-51.7	14.4	0.00e+00	0	28	0	815792128	67	4094
2026-01-14 21:26:06.23	66.29	12.93	-50.4	-51.7	14.4	0.00e+00	0	28	0	817889280	67	4097
2026-01-14 21:26:07.37	66.52	12.93	-50.4	-51.8	14.4	0.00e+00	0	28	0	822083584	67	4112
2026-01-14 21:26:08.23	66.69	12.93	-50.4	-51.8	14.4	0.00e+00	0	28	0	824180736	67	4132
2026-01-14 21:26:09.37	66.91	12.94	-50.3	-51.7	14.4	0.00e+00	0	28	0	828375040	67	4071
2026-01-14 21:26:10.22	67.08	12.94	-50.4	-51.8	14.4	0.00e+00	0	28	0	830472192	67	4110
2026-01-14 21:26:11.36	67.30	12.94	-50.4	-51.8	14.4	0.00e+00	0	28	0	834666496	67	4144
2026-01-14 21:26:12.21	67.47	12.95	-50.5	-51.9	14.4	0.00e+00	0	28	0	836763648	67	4164
2026-01-14 21:26:13.35	67.70	12.95	-50.5	-51.9	14.4	0.00e+00	0	28	0	840957952	67	4180
2026-01-14 21:26:14.21	67.87	12.95	-50.4	-51.8	14.4	0.00e+00	0	28	0	843055104	67	4119
2026-01-14 21:26:15.36	68.09	12.95	-50.4	-51.8	14.4	0.00e+00	0	28	0	847249408	67	4144
2026-01-14 21:26:16.22	68.26	12.95	-50.4	-51.8	14.4	0.00e+00	0	28	0	849346560	67	4128
2026-01-14 21:26:17.36	68.49	12.95	-50.5	-52.0	14.3	0.00e+00	0	28	0	853540864	67	4197
2026-01-14 21:26:18.22	68.66	12.96	-50.6	-52.0	14.3	0.00e+00	0	28	0	855638016	67	4211
2026-01-14 21:26:19.36	68.88	12.96	-50.5	-51.9	14.4	0.00e+00	0	28	0	859832320	67	4170
2026-01-14 21:26:20.21	69.05	12.96	-50.4	-51.8	14.4	0.00e+00	0	28	0	861929472	67	4114
2026-01-14 21:26:21.35	69.28	12.96	-50.5	-51.9	14.4	0.00e+00	0	28	0	865075200	67	4154
2026-01-14 21:26:22.20	69.44	12.96	-50.4	-51.8	14.4	0.00e+00	0	28	0	868220928	67	4128
2026-01-14 21:26:23.34	69.67	12.95	-50.3	-51.7	14.5	0.00e+00	0	28	0	871366656	67	4054
2026-01-14 21:26:24.19	69.84	12.95	-50.3	-51.6	14.5	0.00e+00	0	28	0	874512384	67	4043
2026-01-14 21:26:25.34	70.06	12.95	-50.3	-51.7	14.5	0.00e+00	0	28	0	877658112	67	4056
2026-01-14 21:26:26.19	70.23	12.95	-50.3	-51.6	14.5	0.00e+00	0	28	0	880803840	67	4051
2026-01-14 21:26:27.34	70.46	12.95	-50.3	-51.7	14.5	0.00e+00	0	28	0	883949568	67	4088
2026-01-14 21:26:28.19	70.63	12.95	-50.3	-51.7	14.5	0.00e+00	0	28	0	887095296	67	4082
2026-01-14 21:26:29.34	70.85	12.94	-50.3	-51.7	14.5	0.00e+00	0	28	0	890241024	67	4077
2026-01-14 21:26:30.19	71.02	12.94	-50.3	-51.7	14.5	0.00e+00	0	28	0	893386752	67	4082
2026-01-14 21:26:31.33	71.25	12.94	-50.4	-51.7	14.4	0.00e+00	0	28	0	896532480	67	4098
2026-01-14 21:26:32.19	71.41	12.93	-50.4	-51.9	14.4	0.00e+00	0	28	0	899678208	67	4153
2026-01-14 21:26:33.34	71.64	12.93	-50.5	-51.9	14.4	0.00e+00	0	28	0	902823936	67	4157
2026-01-14 21:26:34.20	71.81	12.93	-50.5	-51.9	14.4	0.00e+00	0	28	0	905969664	67	4175
2026-01-14 21:26:35.35	72.04	12.92	-50.5	-51.9	14.3	0.00e+00	0	28	0	909115392	67	4185
2026-01-14 21:26:36.21	72.21	12.92	-50.6	-52.0	14.3	0.00e+00	0	28	0	912261120	67	4234
2026-01-14 21:26:37.36	72.43	12.91	-50.5	-51.9	14.4	0.00e+00	0	28	0	915406848	67	4170
2026-01-14 21:26:38.22	72.60	12.91	-50.5	-51.9	14.3	0.00e+00	0	28	0	918552576	67	4189
2026-01-14 21:26:39.36	72.83	12.90	-50.5	-51.9	14.4	0.00e+00	0	28	0	921698304	67	4188
2026-01-14 21:26:40.22	73.00	12.89	-50.6	-52.1	14.3	0.00e+00	0	28	0	924844032	67	4247
2026-01-14 21:26:41.36	73.22	12.89	-50.6	-52.1	14.3	0.00e+00	0	28	0	927989760	67	4264
2026-01-14 21:26:42.21	73.39	12.88	-50.6	-52.0	14.3	0.00e+00	0	28	0	931135488	67	4235
2026-01-14 21:26:43.36	73.61	12.87	-50.6	-52.0	14.3	0.00e+00	0	28	0	934281216	67	4229
2026-01-14 21:26:44.20	73.78	12.87	-50.6	-52.1	14.3	0.00e+00	0	28	0	937426944	67	4259
2026-01-14 21:26:45.35	74.00	12.86	-50.5	-52.0	14.4	0.00e+00	0	28	0	940572672	67	4212
2026-01-14 21:26:46.21	74.17	12.85	-50.6	-52.1	14.3	0.00e+00	0	28	0	943718400	67	4251
2026-01-14 21:26:47.35	74.40	12.84	-50.6	-52.0	14.4	0.00e+00	0	28	0	946864128	67	4214
2026-01-14 21:26:48.21	74.57	12.84	-50.5	-51.9	14.4	0.00e+00	0	28	0	950009856	67	4161
2026-01-14 21:26:49.34	74.79	12.83	-50.5	-51.9	14.4	0.00e+00	0	28	0	953155584	67	4159
2026-01-14 21:26:50.20	74.96	12.82	-50.5	-51.9	14.4	0.00e+00	0	28	0	955252736	67	4174
2026-01-14 21:26:51.33	75.18	12.81	-50.4	-51.8	14.4	0.00e+00	0	28	0	959447040	67	4143
2026-01-14 21:26:52.19	75.34	12.80	-50.5	-51.9	14.4	0.00e+00	0	28	0	961544192	67	4162
2026-01-14 21:26:53.34	75.57	12.79	-50.6	-52.0	14.3	0.00e+00	0	28	0	965738496	67	4236
2026-01-14 21:26:54.19	75.74	12.78	-50.6	-52.0	14.3	0.00e+00	0	28	0	967835648	67	4227
2026-01-14 21:26:55.33	75.96	12.77	-50.5	-51.9	14.4	0.00e+00	0	28	0	972029952	67	4186
2026-01-14 21:26:56.18	76.12	12.76	-50.4	-51.8	14.4	0.00e+00	0	28	0	974127104	67	4099
2026-01-14 21:26:57.33	76.35	12.75	-50.2	-51.6	14.5	0.00e+00	0	28	0	978321408	67	4033
2026-01-14 21:26:58.19	76.52	12.74	-50.3	-51.6	14.5	0.00e+00	0	28	0	980418560	67	4044
2026-01-14 21:26:59.32	76.74	12.72	-50.3	-51.7	14.5	0.00e+00	0	28	0	984612864	67	4087
2026-01-14 21:27:00.17	76.90	12.71	-50.5	-51.9	14.4	0.00e+00	0	28	0	986710016	67	4167
2026-01-14 21:27:01.31	77.12	12.70	-50.6	-52.0	14.3	0.00e+00	0	28	0	990904320	67	4231
2026-01-14 21:27:02.17	77.29	12.69	-50.6	-52.1	14.3	0.00e+00	0	28	0	993001472	67	4264
2026-01-14 21:27:03.32	77.51	12.67	-50.4	-51.8	14.4	0.00e+00	0	28	0	997195776	67	4117
2026-01-14 21:27:04.17	77.68	12.66	-50.4	-51.8	14.4	0.00e+00	0	28	0	999292928	67	4130
2026-01-14 21:27:05.30	77.90	12.65	-50.5	-51.9	14.4	0.00e+00	0	28	0	1002438656	67	4152
2026-01-14 21:27:06.16	78.06	12.64	-50.5	-51.9	14.4	0.00e+00	0	28	0	1005584384	67	4178
2026-01-14 21:27:07.30	78.28	12.62	-50.5	-51.9	14.4	0.00e+00	0	28	0	1008730112	67	4188
2026-01-14 21:27:08.16	78.45	12.61	-50.4	-51.9	14.4	0.00e+00	0	28	0	1011875840	67	4150
2026-01-14 21:27:09.30	78.67	12.59	-50.4	-51.8	14.4	0.00e+00	0	28	0	1015021568	67	4113
2026-01-14 21:27:10.15	78.83	12.58	-50.4	-51.9	14.4	0.00e+00	0	28	0	1018167296	67	4152
2026-01-14 21:27:11.29	79.05	12.56	-50.6	-52.0	14.3	0.00e+00	0	28	0	1021313024	67	4235
2026-01-14 21:27:12.15	79.22	12.55	-50.5	-51.9	14.4	0.00e+00	0	28	0	1024458752	67	4187
2026-01-14 21:27:13.29	79.44	12.53	-50.6	-52.0	14.3	0.00e+00	0	28	0	1027604480	67	4220
2026-01-14 21:27:14.15	79.60	12.52	-50.5	-51.9	14.4	0.00e+00	0	28	0	1030750208	67	4168
2026-01-14 21:27:15.28	79.82	12.50	-50.4	-51.8	14.4	0.00e+00	0	28	0	1033895936	67	4127
2026-01-14 21:27:16.13	79.98	12.48	-50.4	-51.7	14.4	0.00e+00	0	28	0	1037041664	67	4097
2026-01-14 21:27:17.28	80.20	12.46	-50.3	-51.7	14.4	0.00e+00	0	28	0	1040187392	67	4083
2026-01-14 21:27:18.14	80.37	12.45	-50.4	-51.8	14.4	0.00e+00	0	28	0	1043333120	67	4127
2026-01-14 21:27:19.28	80.58	12.43	-50.4	-51.8	14.4	0.00e+00	0	28	0	1046478848	67	4105
2026-01-14 21:27:20.14	80.75	12.42	-50.3	-51.7	14.5	0.00e+00	0	28	0	1049624576	67	4073
2026-01-14 21:27:21.28	80.97	12.39	-50.3	-51.7	14.4	0.00e+00	0	28	0	1052770304	67	4093
2026-01-14 21:27:22.13	81.13	12.38	-50.3	-51.6	14.5	0.00e+00	0	28	0	1055916032	67	4050
2026-01-14 21:27:23.28	81.35	12.36	-50.2	-51.6	14.5	0.00e+00	0	28	0	1059061760	67	4030
2026-01-14 21:27:24.14	81.51	12.34	-50.3	-51.7	14.4	0.00e+00	0	28	0	1062207488	67	4091
2026-01-14 21:27:25.29	81.73	12.32	-50.4	-51.9	14.4	0.00e+00	0	28	0	1065353216	67	4149
2026-01-14 21:27:26.14	81.89	12.30	-50.4	-51.8	14.4	0.00e+00	0	28	0	1067450368	67	4124
2026-01-14 21:27:27.28	82.11	12.28	-50.4	-51.9	14.4	0.00e+00	0	28	0	1071644672	67	4151
2026-01-14 21:27:28.13	82.27	12.26	-50.5	-51.9	14.3	0.00e+00	0	28	0	1073741824	67	4193
2026-01-14 21:27:29.27	82.48	12.24	-50.5	-51.9	14.4	0.00e+00	0	28	0	1077936128	67	4190
2026-01-14 21:27:30.13	82.64	12.22	-50.5	-51.9	14.4	0.00e+00	0	28	0	1080033280	67	4162
2026-01-14 21:27:31.27	82.86	12.20	-50.5	-52.0	14.3	0.00e+00	0	28	0	1084227584	67	4195
2026-01-14 21:27:32.13	83.02	12.18	-50.4	-51.9	14.4	0.00e+00	0	28	0	1086324736	67	4146
2026-01-14 21:27:33.27	83.23	12.16	-50.4	-51.8	14.4	0.00e+00	0	28	0	1090519040	67	4130
2026-01-14 21:27:34.13	83.39	12.14	-50.4	-51.9	14.4	0.00e+00	0	28	0	1092616192	67	4162
2026-01-14 21:27:35.28	83.61	12.12	-50.3	-51.7	14.5	0.00e+00	0	28	0	1096810496	67	4060
2026-01-14 21:27:36.13	83.77	12.10	-50.3	-51.7	14.4	0.00e+00	0	28	0	1098907648	67	4090
2026-01-14 21:27:37.27	83.98	12.07	-50.4	-51.9	14.4	0.00e+00	0	28	0	1103101952	67	4146
2026-01-14 21:27:38.13	84.14	12.05	-50.4	-51.8	14.4	0.00e+00	0	28	0	1105199104	67	4134
2026-01-14 21:27:39.26	84.35	12.03	-50.5	-51.9	14.4	0.00e+00	0	28	0	1109393408	67	4164
2026-01-14 21:27:40.12	84.51	12.01	-50.4	-51.8	14.4	0.00e+00	0	28	0	1111490560	67	4136
2026-01-14 21:27:41.25	84.72	11.98	-50.6	-52.1	14.3	0.00e+00	0	28	0	1115684864	67	4250
2026-01-14 21:27:42.11	84.88	11.96	-50.7	-52.2	14.2	0.00e+00	0	28	0	1117782016	67	4308
2026-01-14 21:27:43.25	85.09	11.93	-50.7	-52.1	14.3	0.00e+00	0	28	0	1121976320	67	4273
2026-01-14 21:27:44.11	85.25	11.91	-50.7	-52.2	14.2	0.00e+00	0	28	0	1124073472	67	4303
2026-01-14 21:27:45.26	85.46	11.89	-50.8	-52.3	14.2	0.00e+00	0	28	0	1128267776	67	4359
2026-01-14 21:27:46.11	85.62	11.87	-50.8	-52.3	14.2	0.00e+00	0	28	0	1130364928	67	4346
2026-01-14 21:27:47.25	85.83	11.84	-50.8	-52.3	14.2	0.00e+00	0	28	0	1133510656	67	4356
2026-01-14 21:27:48.11	85.99	11.82	-50.8	-52.3	14.2	0.00e+00	0	28	0	1136656384	67	4352
2026-01-14 21:27:49.25	86.20	11.79	-50.7	-52.2	14.3	0.00e+00	0	28	0	1139802112	67	4300
2026-01-14 21:27:50.11	86.35	11.77	-50.6	-52.1	14.3	0.00e+00	0	28	0	1142947840	67	4273
2026-01-14 21:27:51.25	86.56	11.74	-50.7	-52.1	14.3	0.00e+00	0	28	0	1146093568	67	4273
2026-01-14 21:27:52.11	86.72	11.72	-50.6	-52.1	14.3	0.00e+00	0	28	0	1149239296	67	4262
2026-01-14 21:27:53.26	86.93	11.69	-50.7	-52.2	14.2	0.00e+00	0	28	0	1152385024	67	4318
2026-01-14 21:27:54.12	87.08	11.66	-50.6	-52.0	14.3	0.00e+00	0	28	0	1155530752	67	4217
2026-01-14 21:27:55.26	87.29	11.63	-50.6	-52.1	14.3	0.00e+00	0	28	0	1158676480	67	4253
2026-01-14 21:27:56.11	87.44	11.61	-50.6	-52.1	14.3	0.00e+00	0	28	0	1161822208	67	4256
2026-01-14 21:27:57.26	87.65	11.58	-50.7	-52.1	14.3	0.00e+00	0	28	0	1164967936	67	4286
2026-01-14 21:27:58.12	87.81	11.56	-50.7	-52.1	14.3	0.00e+00	0	28	0	1168113664	67	4283
2026-01-14 21:27:59.26	88.01	11.52	-50.7	-52.2	14.2	0.00e+00	0	28	0	1171259392	67	4319
2026-01-14 21:28:00.12	88.17	11.50	-50.6	-52.1	14.3	0.00e+00	0	28	0	1174405120	67	4251
2026-01-14 21:28:01.25	88.37	11.47	-50.5	-51.9	14.4	0.00e+00	0	28	0	1177550848	67	4171
2026-01-14 21:28:02.10	88.52	11.45	-50.5	-51.9	14.3	0.00e+00	0	28	0	1180696576	67	4173
2026-01-14 21:28:03.25	88.73	11.41	-50.5	-52.0	14.3	0.00e+00	0	28	0	1183842304	67	4218
2026-01-14 21:28:04.11	88.88	11.39	-50.6	-52.0	14.3	0.00e+00	0	28	0	1186988032	67	4239
2026-01-14 21:28:05.24	89.08	11.36	-50.6	-52.1	14.3	0.00e+00	0	28	0	1190133760	67	4262
2026-01-14 21:28:06.10	89.24	11.33	-50.6	-52.0	14.3	0.00e+00	0	28	0	1193279488	67	4232
2026-01-14 21:28:07.24	89.44	11.30	-50.7	-52.2	14.2	0.00e+00	0	28	0	1196425216	67	4318
2026-01-14 21:28:08.10	89.59	11.27	-50.7	-52.2	14.2	0.00e+00	0	28	0	1199570944	67	4306
2026-01-14 21:28:09.24	89.79	11.24	-50.7	-52.2	14.2	0.00e+00	0	28	0	1202716672	67	4316
2026-01-14 21:28:10.10	89.94	11.21	-50.7	-52.2	14.2	0.00e+00	0	28	0	1205862400	67	4305
2026-01-14 21:28:11.23	90.14	11.18	-50.7	-52.2	14.2	0.00e+00	0	28	0	1209008128	67	4306
2026-01-14 21:28:12.09	90.29	11.16	-50.6	-52.1	14.3	0.00e+00	0	28	0	1211105280	67	4253
2026-01-14 21:28:13.24	90.50	11.12	-50.7	-52.2	14.2	0.00e+00	0	28	0	1215299584	67	4315
2026-01-14 21:28:14.09	90.65	11.09	-50.7	-52.2	14.2	0.00e+00	0	28	0	1217396736	67	4324
2026-01-14 21:28:15.23	90.84	11.06	-50.7	-52.2	14.2	0.00e+00	0	28	0	1221591040	67	4311
2026-01-14 21:28:16.09	90.99	11.03	-50.6	-52.1	14.2	0.00e+00	0	28	0	1223688192	67	4272
2026-01-14 21:28:17.23	91.19	11.00	-50.7	-52.2	14.2	0.00e+00	0	28	0	1227882496	67	4332
2026-01-14 21:28:18.09	91.34	10.97	-50.6	-52.1	14.3	0.00e+00	0	28	0	1229979648	67	4255
2026-01-14 21:28:19.23	91.54	10.93	-50.5	-52.0	14.3	0.00e+00	0	28	0	1234173952	67	4207
2026-01-14 21:28:20.09	91.69	10.91	-50.5	-52.0	14.3	0.00e+00	0	28	0	1236271104	67	4207
2026-01-14 21:28:21.24	91.89	10.87	-50.4	-51.9	14.4	0.00e+00	0	28	0	1240465408	67	4154
2026-01-14 21:28:22.10	92.04	10.84	-50.4	-51.9	14.3	0.00e+00	0	28	0	1242562560	67	4158
2026-01-14 21:28:23.25	92.23	10.81	-50.5	-51.9	14.3	0.00e+00	0	28	0	1246756864	67	4179
2026-01-14 21:28:24.10	92.38	10.78	-50.5	-51.9	14.3	0.00e+00	0	28	0	1248854016	67	4184
2026-01-14 21:28:25.25	92.58	10.74	-50.6	-52.1	14.3	0.00e+00	0	28	0	1253048320	67	4264
2026-01-14 21:28:26.10	92.72	10.71	-50.6	-52.1	14.3	0.00e+00	0	28	0	1255145472	67	4253
2026-01-14 21:28:27.24	92.92	10.68	-50.6	-52.1	14.3	0.00e+00	0	28	0	1259339776	67	4246
2026-01-14 21:28:28.10	93.06	10.65	-50.7	-52.2	14.2	0.00e+00	0	28	0	1261436928	67	4303
2026-01-14 21:28:29.25	93.26	10.61	-50.7	-52.1	14.2	0.00e+00	0	28	0	1265631232	67	4285
2026-01-14 21:28:30.10	93.40	10.58	-50.7	-52.2	14.2	0.00e+00	0	28	0	1267728384	67	4315
2026-01-14 21:28:31.24	93.59	10.54	-50.8	-52.3	14.1	0.00e+00	0	28	0	1270874112	67	4389
2026-01-14 21:28:32.10	93.74	10.51	-50.9	-52.4	14.1	0.00e+00	0	28	0	1274019840	67	4401
2026-01-14 21:28:33.24	93.93	10.47	-50.8	-52.3	14.2	0.00e+00	0	28	0	1277165568	67	4376
2026-01-14 21:28:34.09	94.07	10.45	-50.8	-52.3	14.2	0.00e+00	0	28	0	1280311296	67	4352
2026-01-14 21:28:35.23	94.26	10.41	-50.7	-52.1	14.2	0.00e+00	0	28	0	1283457024	67	4289
2026-01-14 21:28:36.09	94.41	10.38	-50.7	-52.2	14.2	0.00e+00	0	28	0	1286602752	67	4313
2026-01-14 21:28:37.23	94.60	10.34	-50.7	-52.2	14.2	0.00e+00	0	28	0	1289748480	67	4305
2026-01-14 21:28:38.08	94.74	10.31	-50.7	-52.1	14.2	0.00e+00	0	28	0	1292894208	67	4289
2026-01-14 21:28:39.23	94.93	10.27	-50.7	-52.2	14.2	0.00e+00	0	28	0	1296039936	67	4305
2026-01-14 21:28:40.09	95.07	10.24	-50.7	-52.2	14.2	0.00e+00	0	28	0	1299185664	67	4322
2026-01-14 21:28:41.23	95.26	10.20	-50.8	-52.3	14.2	0.00e+00	0	28	0	1302331392	67	4361
2026-01-14 21:28:42.09	95.40	10.17	-50.9	-52.4	14.1	0.00e+00	0	28	0	1305477120	67	4429
2026-01-14 21:28:43.24	95.59	10.13	-50.8	-52.3	14.1	0.00e+00	0	28	0	1308622848	67	4378
2026-01-14 21:28:44.10	95.73	10.09	-51.0	-52.5	14.1	0.00e+00	0	28	0	1311768576	67	4465
2026-01-14 21:28:45.25	95.92	10.05	-51.0	-52.6	14.0	0.00e+00	0	28	0	1314914304	67	4500
2026-01-14 21:28:46.11	96.06	10.02	-51.1	-52.7	14.0	0.00e+00	0	28	0	1318060032	67	4552
2026-01-14 21:28:47.25	96.25	9.98	-50.9	-52.5	14.1	0.00e+00	0	28	0	1321205760	67	4448
2026-01-14 21:28:48.11	96.39	9.95	-51.0	-52.6	14.0	0.00e+00	0	28	0	1324351488	67	4522
2026-01-14 21:28:49.26	96.57	9.91	-51.1	-52.7	14.0	0.00e+00	0	28	0	1327497216	67	4547
2026-01-14 21:28:50.12	96.71	9.88	-51.2	-52.7	13.9	0.00e+00	0	28	0	1330642944	67	4596
2026-01-14 21:28:51.26	96.90	9.83	-51.2	-52.7	13.9	0.00e+00	0	28	0	1333788672	67	4597
2026-01-14 21:28:52.11	97.03	9.80	-51.0	-52.6	14.0	0.00e+00	0	28	0	1336934400	67	4495
2026-01-14 21:28:53.26	97.22	9.76	-51.0	-52.5	14.1	0.00e+00	0	28	0	1340080128	67	4490
2026-01-14 21:28:54.11	97.35	9.73	-51.0	-52.6	14.0	0.00e+00	0	28	0	1343225856	67	4507
2026-01-14 21:28:55.26	97.54	9.69	-51.0	-52.5	14.0	0.00e+00	0	28	0	1346371584	67	4491
2026-01-14 21:28:56.13	97.68	9.65	-50.9	-52.4	14.1	0.00e+00	0	28	0	1349517312	67	4428
2026-01-14 21:28:57.27	97.86	9.61	-51.0	-52.5	14.0	0.00e+00	0	28	0	1352663040	67	4468
2026-01-14 21:28:58.13	97.99	9.58	-51.0	-52.5	14.0	0.00e+00	0	28	0	1355808768	67	4484
2026-01-14 21:28:59.26	98.17	9.54	-51.0	-52.6	14.0	0.00e+00	0	28	0	1358954496	67	4499
2026-01-14 21:29:00.13	98.31	9.50	-51.0	-52.5	14.0	0.00e+00	0	28	0	1362100224	67	4469
2026-01-14 21:29:01.28	98.49	9.46	-51.0	-52.6	14.0	0.00e+00	0	28	0	1365245952	67	4503
2026-01-14 21:29:02.13	98.62	9.43	-51.0	-52.6	14.0	0.00e+00	0	28	0	1368391680	67	4515
2026-01-14 21:29:03.28	98.80	9.38	-51.2	-52.8	13.9	0.00e+00	0	28	0	1371537408	67	4611
2026-01-14 21:29:04.13	98.94	9.35	-51.1	-52.7	14.0	0.00e+00	0	29	0	1374683136	67	4581
2026-01-14 21:29:05.28	99.11	9.30	-51.3	-52.9	13.9	0.00e+00	0	28	0	1377828864	67	4663
2026-01-14 21:29:06.14	99.25	9.27	-51.3	-52.9	13.8	0.00e+00	0	28	0	1379926016	67	4690
2026-01-14 21:29:07.28	99.43	9.23	-51.3	-53.0	13.8	0.00e+00	0	28	0	1384120320	67	4716
2026-01-14 21:29:08.13	99.56	9.19	-51.3	-52.9	13.9	0.00e+00	0	28	0	1386217472	67	4695
2026-01-14 21:29:09.28	99.73	9.15	-51.3	-53.0	13.8	0.00e+00	0	28	0	1390411776	67	4721
2026-01-14 21:29:10.14	99.87	9.11	-51.6	-53.2	13.8	0.00e+00	0	28	0	1392508928	68	4589
2026-01-14 21:29:11.28	100.04	9.07	-51.6	-53.3	13.8	0.00e+00	0	28	0	1396703232	68	4622
2026-01-14 21:29:12.14	100.17	9.04	-51.5	-53.1	13.9	0.00e+00	0	28	0	1398800384	68	4538
2026-01-14 21:29:13.28	100.35	8.99	-51.5	-53.1	13.9	0.00e+00	0	28	0	1402994688	68	4519
2026-01-14 21:29:14.13	100.48	8.96	-51.4	-53.0	13.9	0.00e+00	0	28	0	1405091840	68	4461
2026-01-14 21:29:15.27	100.65	8.91	-51.5	-53.1	13.9	0.00e+00	0	28	0	1409286144	68	4509
2026-01-14 21:29:16.13	100.78	8.88	-51.5	-53.2	13.9	0.00e+00	0	28	0	1411383296	68	4557
2026-01-14 21:29:17.27	100.95	8.83	-51.5	-53.1	13.9	0.00e+00	0	28	0	1415577600	68	4534
2026-01-14 21:29:18.14	101.08	8.80	-51.5	-53.2	13.9	0.00e+00	0	28	0	1417674752	68	4571
2026-01-14 21:29:19.29	101.25	8.75	-51.5	-53.1	13.9	0.00e+00	0	28	0	1421869056	68	4514
2026-01-14 21:29:20.15	101.38	8.72	-51.6	-53.2	13.9	0.00e+00	0	28	0	1423966208	68	4577
2026-01-14 21:29:21.30	101.56	8.67	-51.5	-53.2	13.9	0.00e+00	0	28	0	1428160512	68	4550
2026-01-14 21:29:22.15	101.68	8.63	-51.6	-53.2	13.8	0.00e+00	0	28	0	1430257664	68	4598
2026-01-14 21:29:23.30	101.85	8.59	-51.6	-53.3	13.8	0.00e+00	0	28	0	1434451968	68	4620
2026-01-14 21:29:24.16	101.98	8.55	-51.6	-53.3	13.8	0.00e+00	0	28	0	1436549120	68	4605
2026-01-14 21:29:25.30	102.15	8.51	-51.7	-53.4	13.7	0.00e+00	0	28	0	1440743424	68	4692
2026-01-14 21:29:26.15	102.27	8.47	-51.7	-53.4	13.8	0.00e+00	0	28	0	1442840576	68	4668
2026-01-14 21:29:27.30	102.44	8.42	-51.6	-53.3	13.8	0.00e+00	0	28	0	1447034880	68	4622
2026-01-14 21:29:28.15	102.57	8.39	-51.5	-53.2	13.8	0.00e+00	0	29	0	1449132032	68	4564
2026-01-14 21:29:29.29	102.73	8.34	-51.6	-53.3	13.8	0.00e+00	0	28	0	1452277760	68	4603
2026-01-14 21:29:30.16	102.86	8.31	-51.6	-53.3	13.8	0.00e+00	0	28	0	1455423488	68	4641
2026-01-14 21:29:31.30	103.03	8.26	-51.5	-53.2	13.8	0.00e+00	0	28	0	1459617792	68	4560
2026-01-14 21:29:32.17	103.15	8.22	-51.7	-53.4	13.8	0.00e+00	0	28	0	1461714944	68	4662
2026-01-14 21:29:33.31	103.32	8.18	-51.6	-53.3	13.8	0.00e+00	0	28	0	1465909248	68	4628
2026-01-14 21:29:34.17	103.44	8.14	-51.8	-53.5	13.7	0.00e+00	0	28	0	1468006400	68	4721
2026-01-14 21:29:35.31	103.61	8.09	-51.7	-53.4	13.8	0.00e+00	0	28	0	1472200704	68	4652
2026-01-14 21:29:36.18	103.73	8.06	-51.7	-53.4	13.8	0.00e+00	0	28	0	1474297856	68	4668
2026-01-14 21:29:37.32	103.89	8.01	-51.9	-53.6	13.7	0.00e+00	0	28	0	1477443584	68	4789
2026-01-14 21:29:38.18	104.02	7.97	-51.7	-53.4	13.8	0.00e+00	0	28	0	1480589312	68	4657
2026-01-14 21:29:39.33	104.18	7.92	-51.5	-53.2	13.9	0.00e+00	0	28	0	1483735040	68	4555
2026-01-14 21:29:40.19	104.30	7.89	-51.6	-53.3	13.8	0.00e+00	0	28	0	1486880768	68	4625
2026-01-14 21:29:41.33	104.46	7.84	-51.6	-53.3	13.8	0.00e+00	0	28	0	1490026496	68	4641
2026-01-14 21:29:42.18	104.58	7.80	-51.7	-53.4	13.8	0.00e+00	0	28	0	1493172224	68	4672
2026-01-14 21:29:43.33	104.75	7.75	-51.9	-53.6	13.7	0.00e+00	0	28	0	1496317952	68	4812
2026-01-14 21:29:44.19	104.87	7.72	-51.8	-53.5	13.8	0.00e+00	0	29	0	1499463680	69	4476
2026-01-14 21:29:45.32	105.02	7.67	-51.9	-53.7	13.7	0.00e+00	0	29	0	1502609408	69	4554
2026-01-14 21:29:46.18	105.14	7.63	-52.1	-53.9	13.6	0.00e+00	0	28	0	1505755136	69	4673
2026-01-14 21:29:47.32	105.30	7.58	-52.1	-53.9	13.6	0.00e+00	0	28	0	1508900864	69	4673
2026-01-14 21:29:48.18	105.42	7.55	-51.9	-53.7	13.7	0.00e+00	0	29	0	1512046592	69	4579
2026-01-14 21:29:49.32	105.58	7.50	-51.9	-53.7	13.7	0.00e+00	0	29	0	1515192320	69	4554
2026-01-14 21:29:50.18	105.70	7.46	-51.9	-53.7	13.7	0.00e+00	0	28	0	1518338048	69	4552
2026-01-14 21:29:51.32	105.86	7.41	-51.9	-53.6	13.7	0.00e+00	0	28	0	1521483776	69	4533
2026-01-14 21:29:52.17	105.97	7.38	-51.9	-53.7	13.7	0.00e+00	0	28	0	1524629504	69	4556
2026-01-14 21:29:53.31	106.13	7.33	-52.0	-53.8	13.6	0.00e+00	0	29	0	1527775232	69	4621
2026-01-14 21:29:54.17	106.24	7.29	-52.0	-53.8	13.6	0.00e+00	0	28	0	1530920960	69	4643
2026-01-14 21:29:55.32	106.40	7.24	-52.0	-53.8	13.6	0.00e+00	0	28	0	1534066688	69	4617
2026-01-14 21:29:56.17	106.52	7.20	-52.2	-54.0	13.5	0.00e+00	0	28	0	1537212416	69	4717
2026-01-14 21:29:57.32	106.67	7.15	-52.2	-54.0	13.5	0.00e+00	0	28	0	1540358144	69	4758
2026-01-14 21:29:58.18	106.79	7.12	-52.3	-54.1	13.5	0.00e+00	0	28	0	1543503872	69	4793
2026-01-14 21:29:59.32	106.94	7.07	-52.2	-54.1	13.5	0.00e+00	0	28	0	1546649600	69	4777
2026-01-14 21:30:00.18	107.06	7.03	-52.2	-54.0	13.5	0.00e+00	0	28	0	1549795328	69	4717
2026-01-14 21:30:01.33	107.21	6.98	-52.0	-53.8	13.6	0.00e+00	0	29	0	1552941056	69	4645
2026-01-14 21:30:02.19	107.32	6.94	-52.1	-53.9	13.5	0.00e+00	0	29	0	1556086784	69	4700
2026-01-14 21:30:03.34	107.48	6.89	-52.2	-54.0	13.5	0.00e+00	0	28	0	1559232512	69	4727
2026-01-14 21:30:04.20	107.59	6.85	-52.0	-53.8	13.6	0.00e+00	0	28	0	1561329664	69	4621
2026-01-14 21:30:05.34	107.74	6.80	-52.1	-53.9	13.6	0.00e+00	0	28	0	1565523968	69	4657
2026-01-14 21:30:06.20	107.86	6.77	-52.1	-54.0	13.6	0.00e+00	0	28	0	1568669696	69	4708
2026-01-14 21:30:07.33	108.00	6.72	-52.0	-53.8	13.6	0.00e+00	0	28	0	1571815424	69	4632
2026-01-14 21:30:08.19	108.12	6.68	-52.2	-54.0	13.5	0.00e+00	0	28	0	1573912576	69	4747
2026-01-14 21:30:09.33	108.27	6.63	-52.3	-54.1	13.4	0.00e+00	0	28	0	1578106880	69	4812
2026-01-14 21:30:10.19	108.38	6.59	-52.2	-54.0	13.5	0.00e+00	0	28	0	1580204032	69	4739
2026-01-14 21:30:11.32	108.52	6.54	-52.2	-54.0	13.5	0.00e+00	0	28	0	1584398336	69	4735
2026-01-14 21:30:12.18	108.64	6.50	-52.0	-53.8	13.6	0.00e+00	0	28	0	1586495488	69	4632
2026-01-14 21:30:13.33	108.78	6.45	-51.8	-53.5	13.7	0.00e+00	0	28	0	1590689792	69	4488
2026-01-14 21:30:14.18	108.89	6.41	-52.0	-53.8	13.6	0.00e+00	0	28	0	1592786944	69	4625
2026-01-14 21:30:15.33	109.04	6.36	-52.1	-53.9	13.5	0.00e+00	0	28	0	1596981248	69	4679
2026-01-14 21:30:16.19	109.15	6.32	-52.1	-54.0	13.5	0.00e+00	0	28	0	1599078400	69	4706
2026-01-14 21:30:17.34	109.30	6.27	-52.2	-54.0	13.5	0.00e+00	0	28	0	1603272704	69	4728
2026-01-14 21:30:18.20	109.41	6.23	-52.1	-54.0	13.5	0.00e+00	0	28	0	1605369856	69	4716
2026-01-14 21:30:19.34	109.55	6.18	-52.2	-54.0	13.5	0.00e+00	0	28	0	1609564160	69	4727
2026-01-14 21:30:20.20	109.66	6.15	-52.0	-53.8	13.6	0.00e+00	0	28	0	1611661312	69	4626
2026-01-14 21:30:21.34	109.80	6.10	-52.1	-53.9	13.5	0.00e+00	0	29	0	1615855616	69	4675
2026-01-14 21:30:22.19	109.91	6.06	-52.2	-54.0	13.5	0.00e+00	0	28	0	1617952768	69	4733
2026-01-14 21:30:23.34	110.06	6.01	-52.3	-54.2	13.4	0.00e+00	0	28	0	1622147072	69	4825
2026-01-14 21:30:24.20	110.16	5.97	-52.2	-54.1	13.4	0.00e+00	0	28	0	1624244224	69	4795
2026-01-14 21:30:25.35	110.31	5.92	-52.2	-54.1	13.4	0.00e+00	0	28	0	1628438528	69	4774
2026-01-14 21:30:26.20	110.41	5.88	-52.1	-53.9	13.5	0.00e+00	0	28	0	1630535680	69	4702
2026-01-14 21:30:27.35	110.55	5.83	-52.1	-54.0	13.4	0.00e+00	0	28	0	1634729984	69	4711
2026-01-14 21:30:28.21	110.66	5.79	-52.0	-53.9	13.5	0.00e+00	0	28	0	1636827136	69	4652
2026-01-14 21:30:29.35	110.80	5.74	-52.1	-53.9	13.5	0.00e+00	0	28	0	1641021440	69	4705
2026-01-14 21:30:30.21	110.91	5.70	-52.0	-53.8	13.6	0.00e+00	0	28	0	1643118592	69	4610
2026-01-14 21:30:31.36	111.05	5.65	-52.1	-53.9	13.5	0.00e+00	0	28	0	1647312896	69	4683
2026-01-14 21:30:32.22	111.15	5.61	-52.2	-54.1	13.4	0.00e+00	0	28	0	1649410048	69	4781
2026-01-14 21:30:33.36	111.29	5.56	-52.5	-54.4	13.3	0.00e+00	0	28	0	1653604352	70	4666
2026-01-14 21:30:34.22	111.40	5.52	-52.2	-54.1	13.5	0.00e+00	0	28	0	1655701504	70	4505
2026-01-14 21:30:35.37	111.54	5.47	-52.3	-54.2	13.4	0.00e+00	0	28	0	1658847232	70	4561
2026-01-14 21:30:36.23	111.64	5.43	-52.4	-54.3	13.4	0.00e+00	0	29	0	1661992960	70	4616
2026-01-14 21:30:37.37	111.78	5.38	-52.3	-54.2	13.4	0.00e+00	0	28	0	1665138688	70	4592
2026-01-14 21:30:38.23	111.88	5.34	-52.4	-54.3	13.3	0.00e+00	0	28	0	1668284416	70	4642
2026-01-14 21:30:39.36	112.01	5.29	-52.4	-54.3	13.3	0.00e+00	0	28	0	1671430144	70	4619
2026-01-14 21:30:40.22	112.12	5.25	-52.5	-54.5	13.3	0.00e+00	0	29	0	1674575872	70	4719
2026-01-14 21:30:41.36	112.25	5.20	-52.1	-54.0	13.5	0.00e+00	0	28	0	1677721600	70	4475
2026-01-14 21:30:42.22	112.35	5.16	-52.3	-54.2	13.4	0.00e+00	0	28	0	1680867328	70	4584
2026-01-14 21:30:43.36	112.49	5.11	-52.7	-54.7	13.1	0.00e+00	0	28	0	1684013056	70	4841
2026-01-14 21:30:44.21	112.59	5.07	-52.5	-54.4	13.2	0.00e+00	0	28	0	1687158784	70	4701
2026-01-14 21:30:45.36	112.73	5.02	-53.9	-56.4	12.3	0.00e+00	0	29	0	1690304512	72	5233
2026-01-14 21:30:46.20	112.82	4.98	-58.8	-72.3	3.8	1.09e+00	0	29	104	1692401664	82	18311
2026-01-14 21:30:47.34	112.96	4.93	-59.2	-72.9	3.8	1.49e+00	0	28	104	1692401664	83	18544
2026-01-14 21:30:48.20	113.06	4.89	-59.4	-73.2	3.8	1.49e+00	0	28	104	1692401664	83	19296
2026-01-14 21:30:49.34	113.19	4.83	-59.8	-73.6	3.8	1.49e+00	0	29	104	1692401664	84	19024
2026-01-14 21:30:50.19	113.29	4.80	-59.9	-73.6	3.8	1.49e+00	0	29	104	1692401664	84	19155
2026-01-14 21:30:51.33	113.42	4.74	-60.0	-73.8	3.8	1.49e+00	0	29	104	1692401664	85	18345
2026-01-14 21:30:52.19	113.52	4.71	-60.0	-73.8	3.8	1.49e+00	0	28	104	1692401664	85	18436
2026-01-14 21:30:53.33	113.65	4.65	-60.1	-73.9	3.8	1.49e+00	0	28	104	1692401664	85	18592
2026-01-14 21:30:54.18	113.75	4.62	-60.1	-73.9	3.8	1.49e+00	0	29	104	1692401664	85	18623
2026-01-14 21:30:55.32	113.88	4.56	-60.1	-74.0	3.9	1.49e+00	0	28	104	1692401664	85	18740
2026-01-14 21:30:56.18	113.97	4.52	-60.1	-74.0	3.8	1.49e+00	0	29	104	1692401664	85	18753
2026-01-14 21:30:57.33	114.10	4.47	-60.2	-74.0	3.8	1.49e+00	0	28	104	1692401664	85	18838
2026-01-14 21:30:58.19	114.20	4.43	-60.2	-74.0	3.8	1.49e+00	0	29	104	1692401664	85	18927
2026-01-14 21:30:59.34	114.33	4.38	-60.2	-74.0	3.8	1.49e+00	0	29	104	1692401664	85	18920
2026-01-14 21:31:00.19	114.43	4.34	-60.2	-74.1	3.8	1.49e+00	0	28	104	1692401664	85	19014
2026-01-14 21:31:01.34	114.56	4.29	-60.3	-74.1	3.8	1.49e+00	0	28	104	1692401664	85	19056
2026-01-14 21:31:02.19	114.65	4.25	-60.3	-74.1	3.8	1.49e+00	0	29	104	1692401664	85	19131
2026-01-14 21:31:03.33	114.78	4.20	-60.3	-74.1	3.8	1.49e+00	0	29	104	1692401664	85	19162
2026-01-14 21:31:04.19	114.87	4.16	-60.3	-74.1	3.8	1.49e+00	0	29	104	1692401664	85	19156
2026-01-14 21:31:05.34	115.00	4.11	-60.3	-74.2	3.8	1.49e+00	0	29	104	1692401664	85	19210
2026-01-14 21:31:06.20	115.10	4.07	-60.4	-74.2	3.8	1.49e+00	0	29	104	1692401664	85	19281
2026-01-14 21:31:07.34	115.22	4.02	-60.3	-74.2	3.8	1.49e+00	0	29	104	1692401664	85	19370
2026-01-14 21:31:08.19	115.31	3.98	-60.4	-74.3	3.8	1.49e+00	0	29	104	1692401664	85	19417
2026-01-14 21:31:09.35	115.44	3.92	-60.4	-74.3	3.8	1.49e+00	0	29	104	1692401664	86	18378
2026-01-14 21:31:10.20	115.53	3.89	-60.5	-74.4	3.8	1.49e+00	0	29	104	1692401664	86	18521
2026-01-14 21:31:11.33	115.66	3.83	-60.5	-74.3	3.8	1.49e+00	0	29	104	1692401664	86	18510
2026-01-14 21:31:12.20	115.75	3.79	-60.5	-74.3	3.8	1.49e+00	0	29	104	1692401664	86	18507
2026-01-14 21:31:13.35	115.88	3.74	-60.5	-74.4	3.8	1.49e+00	0	29	104	1692401664	86	18645
2026-01-14 21:31:14.21	115.97	3.70	-60.6	-74.4	3.8	1.49e+00	0	29	104	1692401664	86	18701
2026-01-14 21:31:15.35	116.09	3.65	-60.6	-74.4	3.8	1.49e+00	0	29	104	1692401664	86	18701
2026-01-14 21:31:16.20	116.18	3.61	-60.5	-74.4	3.8	1.49e+00	0	28	104	1692401664	86	18618
2026-01-14 21:31:17.34	116.30	3.56	-60.5	-74.3	3.8	1.49e+00	0	29	104	1692401664	86	18493
2026-01-14 21:31:18.20	116.40	3.52	-60.5	-74.4	3.8	1.49e+00	0	28	104	1692401664	86	18519
2026-01-14 21:31:19.34	116.52	3.47	-60.5	-74.3	3.8	1.49e+00	0	29	104	1692401664	86	18430
2026-01-14 21:31:20.20	116.61	3.43	-60.4	-74.3	3.8	1.49e+00	0	28	104	1692401664	86	18389
2026-01-14 21:31:21.34	116.73	3.38	-60.4	-74.3	3.8	1.49e+00	0	29	104	1692401664	86	18345
2026-01-14 21:31:22.19	116.82	3.34	-60.4	-74.3	3.8	1.49e+00	0	29	104	1692401664	86	18343
2026-01-14 21:31:23.33	116.94	3.29	-60.4	-74.3	3.8	1.49e+00	0	29	104	1692401664	86	18325
2026-01-14 21:31:24.20	117.03	3.25	-60.4	-74.3	3.8	1.49e+00	0	29	104	1692401664	86	18310
2026-01-14 21:31:25.34	117.15	3.19	-60.4	-74.3	3.8	1.49e+00	0	29	104	1692401664	86	18352
2026-01-14 21:31:26.19	117.24	3.16	-60.4	-74.3	3.8	1.49e+00	0	29	104	1692401664	86	18306
2026-01-14 21:31:27.33	117.35	3.10	-60.4	-74.2	3.8	1.49e+00	0	29	104	1692401664	86	18204
2026-01-14 21:31:28.19	117.44	3.06	-60.4	-74.2	3.8	1.49e+00	0	28	104	1692401664	86	18226
2026-01-14 21:31:29.34	117.56	3.01	-60.4	-74.2	3.8	1.49e+00	0	29	104	1692401664	86	18226
2026-01-14 21:31:30.20	117.65	2.97	-60.4	-74.2	3.8	1.49e+00	0	29	104	1692401664	86	18213
2026-01-14 21:31:31.34	117.77	2.92	-60.4	-74.2	3.8	1.49e+00	0	28	104	1692401664	86	18242
2026-01-14 21:31:32.20	117.86	2.88	-60.4	-74.2	3.8	1.49e+00	0	29	104	1692401664	86	18262
2026-01-14 21:31:33.33	117.97	2.83	-60.4	-74.2	3.8	1.49e+00	0	29	104	1692401664	86	18209
2026-01-14 21:31:34.19	118.06	2.79	-60.4	-74.2	3.8	1.49e+00	0	29	104	1692401664	86	18132
2026-01-14 21:31:35.34	118.17	2.74	-60.4	-74.2	3.8	1.49e+00	0	29	104	1692401664	86	18150
2026-01-14 21:31:36.20	118.26	2.70	-60.4	-74.2	3.8	1.49e+00	0	29	104	1692401664	86	18182
2026-01-14 21:31:37.34	118.38	2.65	-60.4	-74.2	3.8	1.49e+00	0	29	104	1692401664	86	18251
2026-01-14 21:31:38.19	118.46	2.61	-60.4	-74.2	3.8	1.49e+00	0	29	104	1692401664	86	18186
2026-01-14 21:31:39.34	118.58	2.56	-60.3	-74.2	3.8	1.49e+00	0	29	104	1692401664	86	18154
2026-01-14 21:31:40.20	118.66	2.52	-60.3	-74.2	3.8	1.49e+00	0	29	104	1692401664	86	18196
2026-01-14 21:31:41.34	118.78	2.46	-60.3	-74.2	3.8	1.49e+00	0	29	104	1692401664	86	18150
2026-01-14 21:31:42.19	118.86	2.43	-60.3	-74.2	3.8	1.49e+00	0	29	104	1692401664	86	18114
2026-01-14 21:31:43.34	118.97	2.37	-60.3	-74.2	3.8	1.49e+00	0	29	104	1692401664	86	18143
2026-01-14 21:31:44.20	119.06	2.33	-60.3	-74.2	3.8	1.49e+00	0	29	104	1692401664	86	18176
2026-01-14 21:31:45.35	119.17	2.28	-60.3	-74.2	3.8	1.49e+00	0	29	104	1692401664	86	18137
2026-01-14 21:31:46.20	119.26	2.24	-60.3	-74.2	3.8	1.49e+00	0	29	104	1692401664	86	18139
2026-01-14 21:31:47.35	119.37	2.19	-60.3	-74.1	3.8	1.49e+00	0	29	104	1692401664	86	18085
2026-01-14 21:31:48.21	119.45	2.15	-60.3	-74.2	3.8	1.49e+00	0	29	104	1692401664	86	18144
2026-01-14 21:31:49.35	119.56	2.10	-60.3	-74.2	3.8	1.49e+00	0	29	104	1692401664	86	18108
2026-01-14 21:31:50.21	119.65	2.06	-60.3	-74.2	3.8	1.49e+00	0	29	104	1692401664	86	18107
2026-01-14 21:31:51.35	119.76	2.01	-60.3	-74.2	3.8	1.49e+00	0	29	104	1692401664	86	18135
2026-01-14 21:31:52.21	119.84	1.97	-60.3	-74.2	3.8	1.49e+00	0	29	104	1692401664	86	18123
2026-01-14 21:31:53.35	119.95	1.92	-60.3	-74.2	3.8	1.49e+00	0	29	104	1692401664	86	18144

#Closed at: 2026-01-14 21:31:54
#Recorded file [1692 MB]: D:/lorett/data/31004_260115_002049.dat