passes_logs/2026/01/14/R3.2S_Murmansk/R3.2S_Murmansk__20260114_133414_NOAA_20_JPSS-1_rec.log

#Pass ID: 20260114_133414_NOAA 20 (JPSS-1)
#Satellite: NOAA 20 (JPSS-1)
#Configuration: NOAA 20
#almurnet v.1.7.20251203
#Start time: 2026-01-14 13:34:17

#Version: 2.2.20231116
#Station: R3.2S_Murmansk
#Location: 33.079688 lon 68.888172 lat
#TLE: 1 43013U 17073A   26013.84982170  .00000053  00000+0  46215-4 0  9999
#TLE: 2 43013  98.7633 314.8013 0001544  40.9009 319.2282 14.19535753422575

#Time	Az	El	Level	Level2	SNR	BER	BlckErr	Temp	State	Recorded	gain1	gain2
2026-01-14 13:34:17.13	260.39	2.09	-58.2	-74.2	3.8	1.49e+00	0	25	0	0	82	23005
2026-01-14 13:34:18.14	260.51	2.13	-58.2	-74.2	3.8	1.49e+00	0	26	104	0	81	24189
2026-01-14 13:34:19.16	260.62	2.16	-58.2	-74.2	3.8	1.49e+00	0	26	104	0	81	24203
2026-01-14 13:34:20.17	260.73	2.20	-58.2	-74.2	3.8	1.49e+00	0	26	104	0	81	24249
2026-01-14 13:34:21.17	260.85	2.24	-58.2	-74.2	3.8	1.49e+00	0	26	104	0	81	24173
2026-01-14 13:34:22.18	260.96	2.27	-58.2	-74.2	3.8	1.49e+00	0	26	104	0	81	24174
2026-01-14 13:34:23.19	261.08	2.31	-58.2	-74.2	3.8	1.49e+00	0	26	104	0	81	24189
2026-01-14 13:34:24.20	261.19	2.35	-58.2	-74.2	3.8	1.49e+00	0	26	104	0	81	24208
2026-01-14 13:34:25.20	261.31	2.39	-58.2	-74.2	3.8	1.49e+00	0	26	104	0	81	24225
2026-01-14 13:34:26.21	261.42	2.42	-58.2	-74.2	3.8	1.49e+00	0	26	104	0	81	24248
2026-01-14 13:34:27.22	261.54	2.46	-58.2	-74.2	3.8	1.49e+00	0	26	104	0	81	24252
2026-01-14 13:34:28.22	261.66	2.50	-58.2	-74.2	3.8	1.49e+00	0	26	104	0	81	24277
2026-01-14 13:34:29.23	261.77	2.53	-58.2	-74.2	3.8	1.49e+00	0	26	104	0	81	24246
2026-01-14 13:34:30.24	261.89	2.57	-58.2	-74.2	3.8	1.49e+00	0	26	104	0	81	24240
2026-01-14 13:34:31.25	262.01	2.61	-58.2	-74.2	3.8	1.49e+00	0	26	104	0	81	24224
2026-01-14 13:34:32.26	262.12	2.64	-58.2	-74.2	3.8	1.49e+00	0	26	104	0	81	24218
2026-01-14 13:34:33.27	262.24	2.68	-58.2	-74.2	3.8	1.49e+00	0	26	104	0	81	24260
2026-01-14 13:34:34.28	262.36	2.72	-58.2	-74.2	3.8	1.49e+00	0	26	104	0	81	24230
2026-01-14 13:34:35.28	262.48	2.75	-58.2	-74.2	3.8	1.49e+00	0	26	104	0	81	24250
2026-01-14 13:34:36.29	262.60	2.79	-58.2	-74.2	3.8	1.49e+00	0	26	104	0	81	24253
2026-01-14 13:34:37.30	262.71	2.83	-58.2	-74.2	3.8	1.49e+00	0	26	104	0	81	24224
2026-01-14 13:34:38.31	262.83	2.86	-58.2	-74.2	3.8	1.49e+00	0	26	104	0	81	24255
2026-01-14 13:34:39.31	262.95	2.90	-58.2	-74.2	3.8	1.49e+00	0	26	104	0	81	24232
2026-01-14 13:34:40.33	263.07	2.93	-58.2	-74.2	3.8	1.49e+00	0	26	104	0	81	24253
2026-01-14 13:34:41.33	263.19	2.97	-58.2	-74.2	3.8	1.49e+00	0	26	104	0	81	24192
2026-01-14 13:34:42.34	263.31	3.01	-58.2	-74.2	3.8	1.49e+00	0	26	104	0	81	24262
2026-01-14 13:34:43.35	263.43	3.04	-58.2	-74.2	3.8	1.49e+00	0	26	104	0	81	24218
2026-01-14 13:34:44.36	263.55	3.08	-58.2	-74.2	3.8	1.49e+00	0	26	104	0	81	24263
2026-01-14 13:34:45.37	263.67	3.11	-58.2	-74.2	3.8	1.49e+00	0	26	104	0	81	24225
2026-01-14 13:34:46.38	263.80	3.15	-58.2	-74.2	3.8	1.49e+00	0	26	104	0	81	24316
2026-01-14 13:34:47.39	263.92	3.19	-58.2	-74.2	3.8	1.49e+00	0	26	104	0	81	24249
2026-01-14 13:34:48.39	264.04	3.22	-58.2	-74.2	3.8	1.49e+00	0	26	104	0	81	24144
2026-01-14 13:34:49.40	264.16	3.26	-58.2	-74.1	3.8	1.49e+00	0	26	104	0	81	24027
2026-01-14 13:34:50.41	264.28	3.29	-58.2	-74.1	3.8	1.49e+00	0	26	104	0	81	24108
2026-01-14 13:34:51.42	264.41	3.33	-58.2	-74.2	3.8	1.49e+00	0	26	104	0	81	24162
2026-01-14 13:34:52.43	264.53	3.36	-58.2	-74.1	3.8	1.49e+00	0	26	104	0	81	23884
2026-01-14 13:34:53.44	264.65	3.40	-58.2	-74.0	3.8	1.49e+00	0	26	104	0	81	23710
2026-01-14 13:34:54.44	264.78	3.44	-58.2	-74.1	3.8	1.49e+00	0	26	104	0	81	23976
2026-01-14 13:34:55.45	264.90	3.47	-58.2	-74.2	3.8	1.49e+00	0	26	104	0	81	24285
2026-01-14 13:34:56.46	265.02	3.51	-58.2	-74.2	3.8	1.49e+00	0	26	104	0	81	24269
2026-01-14 13:34:57.47	265.15	3.54	-58.2	-74.1	3.8	1.49e+00	0	26	104	0	81	23877
2026-01-14 13:34:58.48	265.27	3.58	-58.2	-74.1	3.8	1.49e+00	0	26	104	0	81	23986
2026-01-14 13:34:59.49	265.40	3.61	-58.2	-74.2	3.8	1.49e+00	0	26	104	0	81	24144
2026-01-14 13:35:00.50	265.52	3.65	-58.2	-74.2	3.8	1.49e+00	0	26	104	0	81	24311
2026-01-14 13:35:01.52	265.65	3.68	-58.2	-74.2	3.8	1.49e+00	0	26	104	0	81	24242
2026-01-14 13:35:02.52	265.78	3.72	-58.2	-74.2	3.8	1.49e+00	0	26	104	0	81	24273
2026-01-14 13:35:03.53	265.90	3.75	-58.2	-74.1	3.8	1.49e+00	0	26	104	0	81	24101
2026-01-14 13:35:04.54	266.03	3.79	-58.2	-74.1	3.8	1.49e+00	0	27	104	0	81	23864
2026-01-14 13:35:05.55	266.16	3.82	-58.2	-74.0	3.8	1.49e+00	0	27	104	0	81	23773
2026-01-14 13:35:06.56	266.28	3.86	-58.2	-74.1	3.8	1.49e+00	0	27	104	0	81	23985
2026-01-14 13:35:07.57	266.41	3.89	-58.2	-74.2	3.8	1.49e+00	0	27	104	0	81	24142
2026-01-14 13:35:08.57	266.54	3.92	-58.2	-74.1	3.8	1.49e+00	0	27	104	0	81	23943
2026-01-14 13:35:09.58	266.66	3.96	-58.2	-74.2	3.8	1.49e+00	0	27	104	0	81	24144
2026-01-14 13:35:10.59	266.79	3.99	-58.2	-74.1	3.8	1.49e+00	0	27	104	0	81	23916
2026-01-14 13:35:11.60	266.92	4.03	-58.2	-74.2	3.8	1.49e+00	0	26	104	0	81	24216
2026-01-14 13:35:12.61	267.05	4.06	-58.2	-74.2	3.8	1.49e+00	0	27	104	0	81	24303
2026-01-14 13:35:13.61	267.18	4.10	-58.2	-74.3	3.8	1.49e+00	0	27	104	0	81	24418
2026-01-14 13:35:14.62	267.31	4.13	-58.2	-74.1	3.8	1.49e+00	0	27	104	0	81	24097
2026-01-14 13:35:15.63	267.44	4.16	-58.2	-74.2	3.8	1.49e+00	0	27	104	0	81	24209
2026-01-14 13:35:16.64	267.57	4.20	-58.2	-74.1	3.8	1.49e+00	0	27	104	0	81	24020
2026-01-14 13:35:17.65	267.70	4.23	-58.2	-74.0	3.8	1.49e+00	0	27	104	0	81	23688
2026-01-14 13:35:18.66	267.83	4.27	-58.2	-74.1	3.8	1.49e+00	0	27	104	0	81	24010
2026-01-14 13:35:19.67	267.96	4.30	-58.2	-74.2	3.8	1.49e+00	0	27	104	0	81	24327
2026-01-14 13:35:20.68	268.09	4.33	-58.2	-74.2	3.9	1.49e+00	0	27	104	0	81	24215
2026-01-14 13:35:21.69	268.22	4.37	-58.2	-74.2	3.8	1.49e+00	0	27	104	0	81	24165
2026-01-14 13:35:22.70	268.35	4.40	-58.2	-74.2	3.8	1.49e+00	0	27	104	0	81	24135
2026-01-14 13:35:23.70	268.48	4.43	-58.2	-74.0	3.8	1.49e+00	0	27	104	0	81	23827
2026-01-14 13:35:24.71	268.62	4.47	-58.2	-74.0	3.8	1.49e+00	0	27	104	0	81	23815
2026-01-14 13:35:25.73	268.75	4.50	-58.2	-74.2	3.8	1.49e+00	0	27	104	0	81	24146
2026-01-14 13:35:26.73	268.88	4.53	-58.2	-74.1	3.8	1.49e+00	0	27	104	0	81	24108
2026-01-14 13:35:27.74	269.02	4.57	-58.2	-73.8	3.8	1.49e+00	0	27	104	0	81	23221
2026-01-14 13:35:28.74	269.15	4.60	-58.2	-73.5	3.8	1.49e+00	0	27	104	0	81	22479
2026-01-14 13:35:29.75	269.28	4.63	-58.2	-73.3	3.8	1.49e+00	0	27	104	0	81	21976
2026-01-14 13:35:30.76	269.42	4.66	-58.2	-73.5	3.8	1.49e+00	0	27	104	0	81	22419
2026-01-14 13:35:31.77	269.55	4.70	-58.2	-73.9	3.8	1.49e+00	0	27	104	0	81	23444
2026-01-14 13:35:32.78	269.68	4.73	-58.2	-74.0	3.8	1.49e+00	0	27	104	0	81	23700
2026-01-14 13:35:33.79	269.82	4.76	-58.2	-73.1	3.8	1.49e+00	0	27	104	0	81	21330
2026-01-14 13:35:34.80	269.95	4.80	-58.1	-71.6	3.8	1.49e+00	0	27	104	0	81	18041
2026-01-14 13:35:35.81	270.09	4.83	-58.0	-70.6	4.2	1.43e+00	0	27	0	0	81	15949
2026-01-14 13:35:36.81	270.22	4.86	-58.0	-69.7	4.5	1.11e+00	8	27	0	1048576	81	14514
2026-01-14 13:35:37.82	270.36	4.89	-58.0	-69.3	4.6	9.51e-01	0	27	0	3145728	81	13877
2026-01-14 13:35:38.83	270.50	4.92	-57.9	-68.7	4.9	8.28e-01	0	27	0	4194304	81	12932
2026-01-14 13:35:39.84	270.63	4.96	-57.7	-67.0	5.8	4.34e-01	0	27	0	6291456	81	10608
2026-01-14 13:35:40.85	270.77	4.99	-57.2	-64.1	8.1	9.74e-02	0	27	0	8388608	81	7617
2026-01-14 13:35:41.85	270.91	5.02	-56.5	-61.7	10.2	6.24e-03	0	27	0	10485760	79	6438
2026-01-14 13:35:42.86	271.04	5.05	-56.1	-60.7	10.9	2.87e-04	0	27	0	12582912	78	6109
2026-01-14 13:35:43.87	271.18	5.08	-58.0	-70.1	4.4	2.15e-01	43	27	0	13631488	81	15053
2026-01-14 13:35:44.88	271.32	5.11	-56.8	-62.2	10.0	7.62e-02	0	27	0	15728640	79	6867
2026-01-14 13:35:45.88	271.46	5.15	-57.8	-66.2	6.5	1.08e-02	0	27	0	17825792	80	10266
2026-01-14 13:35:46.89	271.60	5.18	-54.9	-58.1	12.7	6.90e-04	0	27	0	18874368	76	5092
2026-01-14 13:35:47.90	271.73	5.21	-54.9	-58.1	12.8	0.00e+00	0	27	0	20971520	76	5057
2026-01-14 13:35:48.91	271.87	5.24	-54.8	-57.9	12.9	0.00e+00	0	27	0	23068672	76	4937
2026-01-14 13:35:49.92	272.01	5.27	-54.8	-57.8	12.9	0.00e+00	0	27	0	25165824	76	4915
2026-01-14 13:35:50.93	272.15	5.30	-54.5	-57.5	13.0	0.00e+00	0	27	0	27262976	75	4988
2026-01-14 13:35:51.94	272.29	5.33	-54.2	-57.0	13.3	0.00e+00	0	27	0	29360128	75	4746
2026-01-14 13:35:52.95	272.43	5.36	-54.3	-57.1	13.2	0.00e+00	0	27	0	30408704	75	4807
2026-01-14 13:35:53.95	272.57	5.39	-54.3	-57.1	13.3	0.00e+00	0	27	0	32505856	75	4761
2026-01-14 13:35:54.96	272.71	5.42	-54.3	-57.1	13.2	0.00e+00	0	27	0	34603008	75	4806
2026-01-14 13:35:55.97	272.86	5.45	-54.4	-57.2	13.2	0.00e+00	0	27	0	36700160	75	4862
2026-01-14 13:35:56.98	273.00	5.48	-54.4	-57.2	13.2	0.00e+00	0	27	0	38797312	75	4846
2026-01-14 13:35:57.99	273.14	5.51	-54.3	-57.2	13.2	0.00e+00	0	27	0	39845888	75	4821
2026-01-14 13:35:58.99	273.28	5.54	-54.2	-57.0	13.3	0.00e+00	0	27	0	41943040	75	4728
2026-01-14 13:36:00.00	273.42	5.57	-54.3	-57.1	13.3	0.00e+00	0	27	0	44040192	75	4765
2026-01-14 13:36:01.01	273.56	5.60	-54.4	-57.2	13.2	0.00e+00	0	27	0	46137344	75	4864
2026-01-14 13:36:02.02	273.71	5.63	-54.4	-57.3	13.1	0.00e+00	0	27	0	47185920	75	4893
2026-01-14 13:36:03.03	273.85	5.66	-54.2	-57.0	13.3	0.00e+00	0	27	0	49283072	75	4725
2026-01-14 13:36:04.04	273.99	5.69	-54.3	-57.2	13.2	0.00e+00	0	27	0	51380224	75	4826
2026-01-14 13:36:05.05	274.14	5.72	-54.4	-57.3	13.1	0.00e+00	0	27	0	53477376	75	4908
2026-01-14 13:36:06.06	274.28	5.75	-54.4	-57.3	13.2	0.00e+00	0	27	0	55574528	75	4888
2026-01-14 13:36:07.05	274.42	5.78	-54.4	-57.2	13.2	0.00e+00	0	27	0	57671680	75	4860
2026-01-14 13:36:08.07	274.57	5.81	-54.5	-57.4	13.1	0.00e+00	0	27	0	58720256	75	4931
2026-01-14 13:36:09.07	274.71	5.84	-54.4	-57.3	13.2	0.00e+00	0	27	0	60817408	75	4872
2026-01-14 13:36:10.08	274.86	5.87	-54.4	-57.2	13.3	0.00e+00	0	27	0	62914560	75	4832
2026-01-14 13:36:11.09	275.00	5.89	-54.4	-57.2	13.2	0.00e+00	0	27	0	65011712	75	4862
2026-01-14 13:36:12.10	275.15	5.92	-54.4	-57.3	13.2	0.00e+00	0	27	0	67108864	75	4893
2026-01-14 13:36:13.11	275.29	5.95	-54.4	-57.3	13.1	0.00e+00	0	27	0	68157440	75	4924
2026-01-14 13:36:14.11	275.44	5.98	-54.3	-57.2	13.3	0.00e+00	0	27	0	70254592	75	4825
2026-01-14 13:36:15.12	275.58	6.01	-54.4	-57.3	13.2	0.00e+00	0	27	0	72351744	75	4912
2026-01-14 13:36:16.12	275.73	6.04	-54.5	-57.4	13.1	0.00e+00	0	27	0	74448896	75	4981
2026-01-14 13:36:17.13	275.88	6.06	-54.4	-57.2	13.2	0.00e+00	0	27	0	76546048	75	4837
2026-01-14 13:36:18.14	276.02	6.09	-54.3	-57.2	13.3	0.00e+00	0	27	0	77594624	75	4827
2026-01-14 13:36:19.15	276.17	6.12	-54.4	-57.2	13.2	0.00e+00	0	27	0	79691776	75	4843
2026-01-14 13:36:20.15	276.32	6.15	-54.4	-57.3	13.2	0.00e+00	0	27	0	81788928	75	4881
2026-01-14 13:36:21.16	276.47	6.17	-54.5	-57.4	13.1	0.00e+00	0	27	0	83886080	75	4944
2026-01-14 13:36:22.18	276.62	6.20	-54.4	-57.3	13.2	0.00e+00	0	27	0	85983232	75	4887
2026-01-14 13:36:23.18	276.76	6.23	-54.5	-57.3	13.2	0.00e+00	0	27	0	87031808	75	4908
2026-01-14 13:36:24.18	276.91	6.25	-54.5	-57.4	13.1	0.00e+00	0	27	0	89128960	75	4980
2026-01-14 13:36:25.19	277.06	6.28	-54.6	-57.6	13.0	0.00e+00	0	27	0	91226112	75	5068
2026-01-14 13:36:26.20	277.21	6.31	-54.7	-57.7	12.9	0.00e+00	0	27	0	93323264	75	5138
2026-01-14 13:36:27.21	277.36	6.33	-54.6	-57.5	13.1	0.00e+00	0	27	0	95420416	75	5017
2026-01-14 13:36:28.21	277.51	6.36	-54.6	-57.6	13.0	0.00e+00	0	27	0	96468992	75	5081
2026-01-14 13:36:29.21	277.66	6.39	-54.7	-57.6	13.0	0.00e+00	0	27	0	98566144	75	5095
2026-01-14 13:36:30.22	277.81	6.41	-54.6	-57.6	13.0	0.00e+00	0	27	0	100663296	75	5053
2026-01-14 13:36:31.23	277.96	6.44	-54.6	-57.5	13.0	0.00e+00	0	27	0	102760448	75	5026
2026-01-14 13:36:32.24	278.11	6.47	-54.6	-57.6	13.0	0.00e+00	0	27	0	104857600	75	5045
2026-01-14 13:36:33.25	278.26	6.49	-54.6	-57.5	13.1	0.00e+00	0	27	0	105906176	75	5010
2026-01-14 13:36:34.25	278.41	6.52	-54.6	-57.6	13.0	0.00e+00	0	27	0	108003328	75	5058
2026-01-14 13:36:35.26	278.56	6.54	-54.8	-57.8	12.9	0.00e+00	0	27	0	110100480	75	5186
2026-01-14 13:36:36.27	278.71	6.57	-54.8	-57.8	12.9	0.00e+00	0	27	0	112197632	75	5188
2026-01-14 13:36:37.28	278.86	6.59	-54.7	-57.7	12.9	0.00e+00	0	27	0	114294784	75	5128
2026-01-14 13:36:38.28	279.01	6.62	-54.7	-57.8	12.9	0.00e+00	0	27	0	115343360	75	5172
2026-01-14 13:36:39.29	279.17	6.64	-54.6	-57.6	13.0	0.00e+00	0	27	0	117440512	75	5090
2026-01-14 13:36:40.30	279.32	6.67	-54.6	-57.5	13.1	0.00e+00	0	27	0	119537664	75	5013
2026-01-14 13:36:41.31	279.47	6.69	-54.6	-57.6	13.0	0.00e+00	0	27	0	121634816	75	5072
2026-01-14 13:36:42.32	279.63	6.72	-54.6	-57.5	13.1	0.00e+00	0	27	0	123731968	75	5003
2026-01-14 13:36:43.33	279.78	6.74	-54.6	-57.5	13.1	0.00e+00	0	27	0	124780544	75	5022
2026-01-14 13:36:44.34	279.93	6.76	-54.6	-57.5	13.1	0.00e+00	0	27	0	126877696	75	5033
2026-01-14 13:36:45.35	280.09	6.79	-54.5	-57.3	13.2	0.00e+00	0	27	0	128974848	75	4882
2026-01-14 13:36:46.36	280.24	6.81	-54.4	-57.2	13.3	0.00e+00	0	27	0	131072000	75	4823
2026-01-14 13:36:47.36	280.40	6.84	-54.5	-57.3	13.2	0.00e+00	0	27	0	133169152	75	4920
2026-01-14 13:36:48.36	280.55	6.86	-54.5	-57.3	13.2	0.00e+00	0	27	0	134217728	75	4875
2026-01-14 13:36:49.37	280.70	6.88	-54.4	-57.2	13.2	0.00e+00	0	27	0	136314880	75	4861
2026-01-14 13:36:50.38	280.86	6.91	-54.4	-57.2	13.3	0.00e+00	0	27	0	138412032	75	4865
2026-01-14 13:36:51.39	281.02	6.93	-54.6	-57.5	13.1	0.00e+00	0	27	0	140509184	75	4994
2026-01-14 13:36:52.40	281.17	6.95	-54.6	-57.5	13.1	0.00e+00	0	27	0	142606336	75	5007
2026-01-14 13:36:53.40	281.33	6.97	-54.6	-57.5	13.1	0.00e+00	0	27	0	143654912	75	5021
2026-01-14 13:36:54.41	281.48	7.00	-54.6	-57.5	13.1	0.00e+00	0	27	0	145752064	75	4992
2026-01-14 13:36:55.42	281.64	7.02	-54.6	-57.6	13.0	0.00e+00	0	27	0	147849216	75	5052
2026-01-14 13:36:56.43	281.80	7.04	-54.7	-57.7	13.0	0.00e+00	0	27	0	149946368	75	5146
2026-01-14 13:36:57.44	281.95	7.06	-54.8	-57.8	13.0	0.00e+00	0	27	0	152043520	75	5174
2026-01-14 13:36:58.45	282.11	7.09	-54.8	-57.7	13.0	0.00e+00	0	27	0	153092096	75	5152
2026-01-14 13:36:59.45	282.27	7.11	-54.7	-57.7	13.0	0.00e+00	0	27	0	155189248	75	5105
2026-01-14 13:37:00.46	282.42	7.13	-54.7	-57.6	13.1	0.00e+00	0	27	0	157286400	75	5091
2026-01-14 13:37:01.47	282.58	7.15	-54.7	-57.6	13.1	0.00e+00	0	27	0	159383552	75	5061
2026-01-14 13:37:02.48	282.74	7.17	-54.6	-57.5	13.1	0.00e+00	0	27	0	161480704	75	5030
2026-01-14 13:37:03.49	282.90	7.19	-54.6	-57.5	13.1	0.00e+00	0	27	0	162529280	75	4990
2026-01-14 13:37:04.49	283.05	7.21	-54.6	-57.4	13.2	0.00e+00	0	27	0	164626432	75	4959
2026-01-14 13:37:05.50	283.21	7.23	-54.6	-57.5	13.2	0.00e+00	0	27	0	166723584	75	4984
2026-01-14 13:37:06.51	283.37	7.26	-54.6	-57.4	13.2	0.00e+00	0	27	0	168820736	75	4942
2026-01-14 13:37:07.52	283.53	7.28	-54.6	-57.5	13.2	0.00e+00	0	27	0	170917888	75	5001
2026-01-14 13:37:08.53	283.69	7.30	-54.6	-57.5	13.2	0.00e+00	0	27	0	171966464	75	5000
2026-01-14 13:37:09.53	283.85	7.32	-54.7	-57.6	13.1	0.00e+00	0	27	0	174063616	75	5053
2026-01-14 13:37:10.54	284.01	7.34	-54.8	-57.7	13.0	0.00e+00	0	27	0	176160768	75	5120
2026-01-14 13:37:11.55	284.17	7.36	-54.7	-57.6	13.1	0.00e+00	0	27	0	178257920	75	5097
2026-01-14 13:37:12.55	284.33	7.38	-54.7	-57.6	13.1	0.00e+00	0	27	0	180355072	75	5084
2026-01-14 13:37:13.56	284.49	7.39	-54.8	-57.8	13.0	0.00e+00	0	27	0	181403648	75	5165
2026-01-14 13:37:14.57	284.65	7.41	-54.8	-57.7	13.0	0.00e+00	0	27	0	183500800	75	5119
2026-01-14 13:37:15.57	284.81	7.43	-54.7	-57.6	13.1	0.00e+00	0	27	0	185597952	75	5086
2026-01-14 13:37:16.58	284.97	7.45	-54.7	-57.6	13.1	0.00e+00	0	27	0	187695104	75	5063
2026-01-14 13:37:17.59	285.13	7.47	-54.8	-57.7	13.1	0.00e+00	0	27	0	189792256	75	5122
2026-01-14 13:37:18.60	285.29	7.49	-54.7	-57.6	13.1	0.00e+00	0	27	0	190840832	75	5084
2026-01-14 13:37:19.61	285.45	7.51	-54.7	-57.5	13.2	0.00e+00	0	27	0	192937984	75	5040
2026-01-14 13:37:20.61	285.61	7.53	-54.8	-57.7	13.1	0.00e+00	0	27	0	195035136	75	5134
2026-01-14 13:37:21.62	285.77	7.54	-54.8	-57.8	13.0	0.00e+00	0	27	0	197132288	75	5160
2026-01-14 13:37:22.63	285.94	7.56	-54.8	-57.7	13.0	0.00e+00	0	27	0	199229440	75	5156
2026-01-14 13:37:23.64	286.10	7.58	-54.8	-57.8	13.0	0.00e+00	0	27	0	200278016	75	5165
2026-01-14 13:37:24.65	286.26	7.60	-54.8	-57.7	13.1	0.00e+00	0	27	0	202375168	75	5115
2026-01-14 13:37:25.65	286.42	7.61	-54.9	-57.9	12.9	0.00e+00	0	27	0	204472320	75	5236
2026-01-14 13:37:26.66	286.59	7.63	-54.9	-57.9	12.9	0.00e+00	0	27	0	206569472	75	5257
2026-01-14 13:37:27.67	286.75	7.65	-54.9	-57.9	12.9	0.00e+00	0	27	0	208666624	75	5263
2026-01-14 13:37:28.68	286.91	7.66	-54.9	-57.9	12.9	0.00e+00	0	27	0	209715200	75	5260
2026-01-14 13:37:29.68	287.07	7.68	-54.9	-58.0	12.9	0.00e+00	0	27	0	211812352	75	5287
2026-01-14 13:37:30.69	287.24	7.70	-54.8	-57.8	13.0	0.00e+00	0	27	0	213909504	75	5160
2026-01-14 13:37:31.70	287.40	7.71	-54.8	-57.7	13.1	0.00e+00	0	27	0	216006656	75	5151
2026-01-14 13:37:32.70	287.56	7.73	-54.8	-57.7	13.0	0.00e+00	0	27	0	218103808	75	5155
2026-01-14 13:37:33.71	287.73	7.75	-54.9	-57.8	13.0	0.00e+00	0	27	0	219152384	75	5189
2026-01-14 13:37:34.72	287.89	7.76	-54.9	-57.8	13.0	0.00e+00	0	27	0	221249536	75	5180
2026-01-14 13:37:35.73	288.06	7.78	-54.8	-57.7	13.0	0.00e+00	0	27	0	223346688	75	5135
2026-01-14 13:37:36.73	288.22	7.79	-54.8	-57.6	13.1	0.00e+00	0	27	0	225443840	75	5074
2026-01-14 13:37:37.74	288.39	7.81	-54.9	-57.8	13.0	0.00e+00	0	27	0	227540992	75	5183
2026-01-14 13:37:38.75	288.55	7.82	-54.8	-57.7	13.1	0.00e+00	0	27	0	228589568	75	5145
2026-01-14 13:37:39.76	288.72	7.84	-54.9	-57.8	13.0	0.00e+00	0	27	0	230686720	75	5213
2026-01-14 13:37:40.77	288.88	7.85	-54.8	-57.7	13.1	0.00e+00	0	27	0	232783872	75	5119
2026-01-14 13:37:41.78	289.05	7.86	-54.8	-57.7	13.1	0.00e+00	0	27	0	234881024	75	5119
2026-01-14 13:37:42.78	289.21	7.88	-54.9	-57.8	13.0	0.00e+00	0	27	0	236978176	75	5174
2026-01-14 13:37:43.79	289.38	7.89	-54.9	-57.8	13.0	0.00e+00	0	27	0	239075328	75	5218
2026-01-14 13:37:44.79	289.54	7.91	-54.9	-57.8	13.1	0.00e+00	0	27	0	240123904	75	5163
2026-01-14 13:37:45.80	289.71	7.92	-54.9	-57.7	13.1	0.00e+00	0	27	0	242221056	75	5149
2026-01-14 13:37:46.81	289.87	7.93	-54.8	-57.7	13.1	0.00e+00	0	27	0	244318208	75	5109
2026-01-14 13:37:47.81	290.04	7.95	-54.9	-57.8	13.1	0.00e+00	0	27	0	246415360	75	5166
2026-01-14 13:37:48.82	290.20	7.96	-54.9	-57.8	13.0	0.00e+00	0	27	0	247463936	75	5197
2026-01-14 13:37:49.83	290.37	7.97	-55.0	-57.9	13.0	0.00e+00	0	27	0	249561088	75	5265
2026-01-14 13:37:50.84	290.54	7.98	-55.0	-57.9	13.0	0.00e+00	0	27	0	251658240	75	5255
2026-01-14 13:37:51.85	290.70	8.00	-55.0	-58.1	12.9	0.00e+00	0	27	0	253755392	75	5342
2026-01-14 13:37:52.86	290.87	8.01	-55.0	-58.0	12.9	0.00e+00	0	27	0	255852544	75	5283
2026-01-14 13:37:53.87	291.04	8.02	-55.0	-58.0	13.0	0.00e+00	0	27	0	256901120	75	5284
2026-01-14 13:37:54.87	291.20	8.03	-54.9	-57.8	13.0	0.00e+00	0	27	0	258998272	75	5196
2026-01-14 13:37:55.88	291.37	8.04	-54.8	-57.7	13.1	0.00e+00	0	27	0	261095424	75	5113
2026-01-14 13:37:56.88	291.54	8.05	-54.7	-57.4	13.2	0.00e+00	0	27	0	263192576	75	4982
2026-01-14 13:37:57.89	291.70	8.07	-54.8	-57.6	13.2	0.00e+00	0	27	0	265289728	75	5048
2026-01-14 13:37:58.90	291.87	8.08	-54.8	-57.6	13.2	0.00e+00	0	27	0	267386880	75	5057
2026-01-14 13:37:59.90	292.04	8.09	-54.8	-57.7	13.1	0.00e+00	0	27	0	268435456	75	5150
2026-01-14 13:38:00.90	292.21	8.10	-55.0	-58.0	12.9	0.00e+00	0	27	0	270532608	75	5321
2026-01-14 13:38:01.91	292.37	8.11	-54.9	-57.9	13.0	0.00e+00	0	27	0	272629760	75	5238
2026-01-14 13:38:02.92	292.54	8.12	-54.9	-57.8	13.0	0.00e+00	0	27	0	274726912	75	5189
2026-01-14 13:38:03.93	292.71	8.13	-54.9	-57.8	13.0	0.00e+00	0	27	0	275775488	75	5217
2026-01-14 13:38:04.94	292.88	8.14	-55.0	-58.0	12.9	0.00e+00	0	27	0	277872640	75	5297
2026-01-14 13:38:05.94	293.05	8.15	-55.0	-58.0	12.9	0.00e+00	0	27	0	279969792	75	5340
2026-01-14 13:38:06.95	293.21	8.16	-55.0	-58.1	12.8	0.00e+00	0	27	0	282066944	75	5366
2026-01-14 13:38:07.96	293.38	8.17	-55.2	-58.3	12.7	0.00e+00	0	27	0	284164096	75	5497
2026-01-14 13:38:08.96	293.55	8.17	-55.2	-58.4	12.7	0.00e+00	0	27	0	285212672	75	5530
2026-01-14 13:38:09.97	293.72	8.18	-55.3	-58.4	12.6	0.00e+00	0	27	0	287309824	75	5592
2026-01-14 13:38:10.98	293.89	8.19	-55.2	-58.5	12.6	0.00e+00	0	27	0	289406976	75	5595
2026-01-14 13:38:11.99	294.06	8.20	-55.3	-58.5	12.6	0.00e+00	0	27	0	291504128	75	5608
2026-01-14 13:38:13.00	294.23	8.21	-55.4	-58.6	12.5	0.00e+00	0	28	0	293601280	75	5715
2026-01-14 13:38:14.01	294.40	8.21	-55.3	-58.6	12.6	0.00e+00	0	27	0	295698432	75	5663
2026-01-14 13:38:15.02	294.56	8.22	-55.2	-58.4	12.6	0.00e+00	0	27	0	296747008	75	5577
2026-01-14 13:38:16.02	294.73	8.23	-55.3	-58.5	12.6	0.00e+00	0	27	0	298844160	75	5613
2026-01-14 13:38:17.03	294.90	8.24	-55.2	-58.4	12.6	0.00e+00	0	27	0	300941312	75	5589
2026-01-14 13:38:18.04	295.07	8.24	-55.1	-58.2	12.8	0.00e+00	0	27	0	303038464	75	5405
2026-01-14 13:38:19.05	295.24	8.25	-55.0	-58.0	12.9	0.00e+00	0	27	0	305135616	75	5286
2026-01-14 13:38:20.05	295.41	8.26	-55.0	-58.1	12.9	0.00e+00	0	27	0	306184192	75	5347
2026-01-14 13:38:21.06	295.58	8.26	-55.0	-58.0	12.9	0.00e+00	0	27	0	308281344	75	5280
2026-01-14 13:38:22.07	295.75	8.27	-55.0	-58.1	12.8	0.00e+00	0	27	0	310378496	75	5375
2026-01-14 13:38:23.08	295.92	8.28	-55.1	-58.2	12.8	0.00e+00	0	27	0	312475648	75	5423
2026-01-14 13:38:24.08	296.09	8.28	-55.1	-58.2	12.8	0.00e+00	0	27	0	314572800	75	5423
2026-01-14 13:38:25.09	296.26	8.29	-55.2	-58.4	12.7	0.00e+00	0	27	0	315621376	75	5537
2026-01-14 13:38:26.10	296.43	8.29	-55.3	-58.6	12.5	0.00e+00	0	27	0	317718528	75	5679
2026-01-14 13:38:27.11	296.60	8.30	-55.4	-58.7	12.4	0.00e+00	0	27	0	319815680	75	5751
2026-01-14 13:38:28.12	296.77	8.30	-55.5	-58.9	12.4	0.00e+00	0	27	0	321912832	76	5534
2026-01-14 13:38:29.12	296.94	8.31	-55.5	-58.9	12.4	0.00e+00	0	27	0	324009984	76	5573
2026-01-14 13:38:30.12	297.11	8.31	-55.5	-58.9	12.4	0.00e+00	0	28	0	325058560	76	5582
2026-01-14 13:38:31.13	297.28	8.31	-55.5	-58.8	12.5	0.00e+00	0	28	0	327155712	76	5493
2026-01-14 13:38:32.14	297.45	8.32	-55.4	-58.6	12.6	0.00e+00	0	27	0	329252864	76	5385
2026-01-14 13:38:33.15	297.62	8.32	-55.4	-58.6	12.6	0.00e+00	0	27	0	331350016	76	5392
2026-01-14 13:38:34.16	297.79	8.33	-55.3	-58.4	12.7	0.00e+00	0	27	0	333447168	76	5272
2026-01-14 13:38:35.16	297.96	8.33	-55.2	-58.3	12.8	0.00e+00	0	27	0	334495744	76	5211
2026-01-14 13:38:36.17	298.13	8.33	-55.2	-58.3	12.8	0.00e+00	0	27	0	336592896	76	5166
2026-01-14 13:38:37.18	298.30	8.33	-55.1	-58.1	12.9	0.00e+00	0	27	0	338690048	76	5097
2026-01-14 13:38:38.18	298.47	8.34	-55.1	-58.1	12.9	0.00e+00	0	27	0	340787200	76	5099
2026-01-14 13:38:39.19	298.64	8.34	-55.0	-58.0	13.0	0.00e+00	0	27	0	342884352	76	5027
2026-01-14 13:38:40.20	298.81	8.34	-55.0	-57.9	13.0	0.00e+00	0	27	0	343932928	76	4978
2026-01-14 13:38:41.21	298.98	8.34	-54.9	-57.8	13.1	0.00e+00	0	27	0	346030080	76	4906
2026-01-14 13:38:42.21	299.15	8.35	-54.9	-57.9	13.1	0.00e+00	0	27	0	348127232	76	4941
2026-01-14 13:38:43.22	299.32	8.35	-54.9	-57.7	13.1	0.00e+00	0	27	0	350224384	76	4864
2026-01-14 13:38:44.23	299.49	8.35	-54.9	-57.7	13.1	0.00e+00	0	27	0	352321536	76	4866
2026-01-14 13:38:45.23	299.66	8.35	-54.9	-57.7	13.1	0.00e+00	0	27	0	353370112	76	4864
2026-01-14 13:38:46.25	299.83	8.35	-54.8	-57.7	13.2	0.00e+00	0	28	0	355467264	76	4850
2026-01-14 13:38:47.26	300.00	8.35	-54.9	-57.9	13.1	0.00e+00	0	27	0	357564416	76	4934
2026-01-14 13:38:48.26	300.17	8.35	-54.9	-57.8	13.1	0.00e+00	0	27	0	359661568	76	4895
2026-01-14 13:38:49.27	300.34	8.35	-55.0	-57.9	13.0	0.00e+00	0	27	0	361758720	76	4954
2026-01-14 13:38:50.28	300.51	8.35	-54.9	-57.8	13.1	0.00e+00	0	27	0	362807296	76	4913
2026-01-14 13:38:51.29	300.68	8.35	-54.8	-57.7	13.1	0.00e+00	0	27	0	364904448	76	4855
2026-01-14 13:38:52.30	300.85	8.35	-54.8	-57.8	13.1	0.00e+00	0	27	0	367001600	76	4871
2026-01-14 13:38:53.31	301.02	8.35	-54.8	-57.7	13.2	0.00e+00	0	27	0	369098752	76	4821
2026-01-14 13:38:54.32	301.20	8.35	-54.8	-57.6	13.2	0.00e+00	0	27	0	371195904	76	4777
2026-01-14 13:38:55.32	301.36	8.35	-54.5	-57.3	13.3	0.00e+00	0	27	0	372244480	75	4893
2026-01-14 13:38:56.32	301.53	8.35	-54.5	-57.2	13.4	0.00e+00	0	27	0	374341632	75	4834
2026-01-14 13:38:57.33	301.70	8.35	-54.4	-57.0	13.4	0.00e+00	0	27	0	376438784	75	4735
2026-01-14 13:38:58.34	301.87	8.34	-54.3	-56.9	13.5	0.00e+00	0	27	0	378535936	75	4702
2026-01-14 13:38:59.34	302.04	8.34	-54.2	-56.8	13.6	0.00e+00	0	27	0	380633088	75	4599
2026-01-14 13:39:00.35	302.21	8.34	-54.1	-56.7	13.5	0.00e+00	0	27	0	381681664	74	4839
2026-01-14 13:39:01.35	302.38	8.34	-54.1	-56.7	13.5	0.00e+00	0	28	0	383778816	74	4828
2026-01-14 13:39:02.36	302.55	8.34	-54.1	-56.6	13.6	0.00e+00	0	27	0	385875968	74	4812
2026-01-14 13:39:03.36	302.72	8.33	-54.2	-56.7	13.5	0.00e+00	0	28	0	387973120	74	4848
2026-01-14 13:39:04.37	302.89	8.33	-54.2	-56.8	13.5	0.00e+00	0	27	0	390070272	74	4881
2026-01-14 13:39:05.38	303.06	8.33	-54.3	-57.0	13.4	0.00e+00	0	27	0	391118848	74	4991
2026-01-14 13:39:06.39	303.23	8.32	-54.3	-56.9	13.4	0.00e+00	0	27	0	393216000	74	4968
2026-01-14 13:39:07.40	303.40	8.32	-54.3	-56.9	13.4	0.00e+00	0	27	0	395313152	74	4959
2026-01-14 13:39:08.41	303.58	8.32	-54.3	-56.9	13.4	0.00e+00	0	28	0	397410304	74	4934
2026-01-14 13:39:09.42	303.75	8.31	-54.2	-56.8	13.5	0.00e+00	0	28	0	399507456	74	4901
2026-01-14 13:39:10.43	303.92	8.31	-54.2	-56.8	13.5	0.00e+00	0	28	0	400556032	74	4904
2026-01-14 13:39:11.43	304.08	8.30	-54.0	-56.6	13.6	0.00e+00	0	27	0	402653184	74	4760
2026-01-14 13:39:12.44	304.25	8.30	-54.0	-56.5	13.6	0.00e+00	0	28	0	404750336	74	4746
2026-01-14 13:39:13.44	304.42	8.29	-54.0	-56.5	13.6	0.00e+00	0	27	0	406847488	74	4731
2026-01-14 13:39:14.45	304.59	8.29	-53.9	-56.3	13.7	0.00e+00	0	27	0	408944640	74	4632
2026-01-14 13:39:15.45	304.76	8.28	-53.9	-56.4	13.7	0.00e+00	0	27	0	409993216	74	4684
2026-01-14 13:39:16.46	304.93	8.28	-53.9	-56.3	13.7	0.00e+00	0	28	0	412090368	74	4643
2026-01-14 13:39:17.47	305.10	8.27	-53.9	-56.4	13.7	0.00e+00	0	27	0	414187520	74	4659
2026-01-14 13:39:18.48	305.27	8.26	-54.0	-56.5	13.6	0.00e+00	0	28	0	416284672	74	4734
2026-01-14 13:39:19.49	305.44	8.26	-54.0	-56.5	13.6	0.00e+00	0	27	0	418381824	74	4752
2026-01-14 13:39:20.49	305.61	8.25	-53.9	-56.3	13.7	0.00e+00	0	27	0	419430400	74	4645
2026-01-14 13:39:21.50	305.78	8.25	-53.9	-56.4	13.7	0.00e+00	0	28	0	421527552	74	4656
2026-01-14 13:39:22.51	305.95	8.24	-53.9	-56.4	13.7	0.00e+00	0	27	0	423624704	74	4703
2026-01-14 13:39:23.52	306.12	8.23	-53.7	-56.2	13.8	0.00e+00	0	28	0	425721856	74	4594
2026-01-14 13:39:24.53	306.29	8.22	-52.9	-56.3	13.7	0.00e+00	0	27	0	427819008	72	5173
2026-01-14 13:39:25.53	306.45	8.22	-51.0	-56.4	13.4	0.00e+00	0	27	0	428867584	68	6620
2026-01-14 13:39:26.54	306.62	8.21	-51.0	-56.5	13.2	0.00e+00	0	27	0	430964736	68	6701
2026-01-14 13:39:27.55	306.79	8.20	-52.7	-56.4	13.3	0.00e+00	0	28	0	433061888	70	5903
2026-01-14 13:39:28.55	306.96	8.19	-53.5	-56.1	13.6	0.00e+00	0	27	0	435159040	72	5092
2026-01-14 13:39:29.57	307.13	8.19	-53.6	-56.1	13.6	0.00e+00	0	27	0	437256192	72	5077
2026-01-14 13:39:30.57	307.30	8.18	-53.7	-56.2	13.6	0.00e+00	0	27	0	438304768	72	5122
2026-01-14 13:39:31.57	307.46	8.17	-53.7	-56.1	13.6	0.00e+00	0	27	0	440401920	72	5093
2026-01-14 13:39:32.58	307.63	8.16	-53.7	-56.1	13.6	0.00e+00	0	27	0	442499072	72	5057
2026-01-14 13:39:33.59	307.80	8.15	-53.8	-56.2	13.6	0.00e+00	0	27	0	444596224	72	5133
2026-01-14 13:39:34.60	307.97	8.14	-53.8	-56.3	13.4	0.00e+00	0	27	0	446693376	72	5204
2026-01-14 13:39:35.61	308.14	8.13	-53.9	-56.3	13.5	0.00e+00	0	27	0	447741952	72	5217
2026-01-14 13:39:36.61	308.30	8.12	-53.9	-56.5	13.5	0.00e+00	0	28	0	449839104	73	4988
2026-01-14 13:39:37.63	308.47	8.11	-53.9	-56.5	13.5	0.00e+00	0	27	0	451936256	73	4988
2026-01-14 13:39:38.63	308.64	8.10	-53.9	-56.4	13.5	0.00e+00	0	27	0	454033408	73	4966
2026-01-14 13:39:39.64	308.81	8.09	-54.0	-56.5	13.5	0.00e+00	0	27	0	456130560	73	5012
2026-01-14 13:39:40.65	308.98	8.08	-53.8	-56.3	13.6	0.00e+00	0	27	0	457179136	73	4897
2026-01-14 13:39:41.66	309.14	8.07	-53.8	-56.3	13.6	0.00e+00	0	27	0	459276288	73	4912
2026-01-14 13:39:42.67	309.31	8.06	-53.7	-56.2	13.7	0.00e+00	0	27	0	461373440	73	4819
2026-01-14 13:39:43.68	309.48	8.05	-53.7	-56.1	13.7	0.00e+00	0	27	0	463470592	73	4807
2026-01-14 13:39:44.69	309.64	8.04	-53.7	-56.2	13.7	0.00e+00	0	27	0	465567744	73	4822
2026-01-14 13:39:45.69	309.81	8.02	-53.8	-56.3	13.6	0.00e+00	0	27	0	466616320	73	4911
2026-01-14 13:39:46.70	309.98	8.01	-53.8	-56.3	13.6	0.00e+00	0	27	0	468713472	73	4908
2026-01-14 13:39:47.70	310.14	8.00	-53.9	-56.3	13.6	0.00e+00	0	27	0	470810624	73	4919
2026-01-14 13:39:48.71	310.31	7.99	-53.9	-56.3	13.6	0.00e+00	0	27	0	472907776	73	4918
2026-01-14 13:39:49.71	310.47	7.98	-53.9	-56.4	13.5	0.00e+00	0	28	0	475004928	73	4981
2026-01-14 13:39:50.72	310.64	7.96	-53.9	-56.4	13.5	0.00e+00	0	27	0	476053504	73	4964
2026-01-14 13:39:51.73	310.81	7.95	-54.0	-56.5	13.5	0.00e+00	0	28	0	478150656	73	5009
2026-01-14 13:39:52.74	310.97	7.94	-54.0	-56.5	13.5	0.00e+00	0	27	0	480247808	73	5023
2026-01-14 13:39:53.75	311.14	7.92	-53.9	-56.5	13.5	0.00e+00	0	27	0	482344960	73	5002
2026-01-14 13:39:54.76	311.30	7.91	-53.9	-56.5	13.5	0.00e+00	0	28	0	484442112	73	4991
2026-01-14 13:39:55.76	311.47	7.90	-54.0	-56.5	13.5	0.00e+00	0	27	0	485490688	73	5022
2026-01-14 13:39:56.78	311.64	7.88	-54.0	-56.5	13.4	0.00e+00	0	28	0	487587840	73	5037
2026-01-14 13:39:57.78	311.80	7.87	-54.0	-56.5	13.5	0.00e+00	0	28	0	489684992	73	5017
2026-01-14 13:39:58.79	311.96	7.86	-54.0	-56.5	13.5	0.00e+00	0	27	0	491782144	73	5039
2026-01-14 13:39:59.80	312.13	7.84	-54.0	-56.6	13.5	0.00e+00	0	27	0	493879296	73	5045
2026-01-14 13:40:00.81	312.29	7.83	-54.0	-56.6	13.4	0.00e+00	0	28	0	494927872	73	5054
2026-01-14 13:40:01.81	312.46	7.81	-54.0	-56.6	13.4	0.00e+00	0	27	0	497025024	73	5061
2026-01-14 13:40:02.82	312.62	7.80	-54.0	-56.5	13.5	0.00e+00	0	27	0	499122176	73	5025
2026-01-14 13:40:03.83	312.79	7.78	-54.0	-56.6	13.4	0.00e+00	0	28	0	501219328	73	5082
2026-01-14 13:40:04.84	312.95	7.77	-53.9	-56.5	13.5	0.00e+00	0	28	0	503316480	73	4998
2026-01-14 13:40:05.84	313.11	7.75	-54.0	-56.5	13.5	0.00e+00	0	28	0	505413632	73	5021
2026-01-14 13:40:06.85	313.28	7.74	-53.9	-56.5	13.5	0.00e+00	0	28	0	506462208	73	4991
2026-01-14 13:40:07.86	313.44	7.72	-53.8	-56.2	13.6	0.00e+00	0	27	0	508559360	73	4850
2026-01-14 13:40:08.87	313.60	7.70	-53.7	-56.1	13.7	0.00e+00	0	27	0	510656512	73	4781
2026-01-14 13:40:09.88	313.77	7.69	-53.7	-56.1	13.7	0.00e+00	0	28	0	512753664	73	4766
2026-01-14 13:40:10.89	313.93	7.67	-53.6	-56.0	13.7	0.00e+00	0	27	0	514850816	73	4757
2026-01-14 13:40:11.89	314.09	7.65	-53.7	-56.1	13.7	0.00e+00	0	27	0	515899392	73	4777
2026-01-14 13:40:12.90	314.25	7.64	-53.8	-56.2	13.6	0.00e+00	0	28	0	517996544	73	4843
2026-01-14 13:40:13.91	314.42	7.62	-53.9	-56.4	13.5	0.00e+00	0	28	0	520093696	73	4947
2026-01-14 13:40:14.91	314.58	7.60	-53.9	-56.4	13.6	0.00e+00	0	28	0	522190848	73	4936
2026-01-14 13:40:15.91	314.74	7.59	-54.0	-56.5	13.5	0.00e+00	0	28	0	524288000	73	5016
2026-01-14 13:40:16.92	314.90	7.57	-54.0	-56.6	13.4	0.00e+00	0	27	0	525336576	73	5062
2026-01-14 13:40:17.93	315.06	7.55	-54.0	-56.6	13.4	0.00e+00	0	28	0	527433728	73	5070
2026-01-14 13:40:18.93	315.22	7.53	-54.0	-56.6	13.4	0.00e+00	0	27	0	529530880	73	5079
2026-01-14 13:40:19.94	315.38	7.52	-54.0	-56.6	13.4	0.00e+00	0	28	0	531628032	73	5085
2026-01-14 13:40:20.94	315.54	7.50	-54.0	-56.6	13.4	0.00e+00	0	28	0	533725184	73	5053
2026-01-14 13:40:21.95	315.70	7.48	-54.0	-56.5	13.4	0.00e+00	0	28	0	534773760	73	5038
2026-01-14 13:40:22.96	315.87	7.46	-53.9	-56.5	13.5	0.00e+00	0	27	0	536870912	73	4987
2026-01-14 13:40:23.96	316.02	7.44	-53.8	-56.3	13.6	0.00e+00	0	27	0	538968064	73	4874
2026-01-14 13:40:24.97	316.19	7.42	-53.8	-56.2	13.6	0.00e+00	0	27	0	541065216	73	4865
2026-01-14 13:40:25.98	316.35	7.40	-53.7	-56.1	13.6	0.00e+00	0	27	0	543162368	73	4800
2026-01-14 13:40:26.99	316.51	7.38	-53.7	-56.1	13.6	0.00e+00	0	27	0	544210944	73	4802
2026-01-14 13:40:27.99	316.66	7.36	-53.6	-56.0	13.7	0.00e+00	0	28	0	546308096	73	4750
2026-01-14 13:40:29.01	316.83	7.34	-53.6	-56.0	13.7	0.00e+00	0	27	0	548405248	73	4717
2026-01-14 13:40:30.02	316.98	7.33	-53.5	-55.9	13.8	0.00e+00	0	27	0	550502400	73	4666
2026-01-14 13:40:31.02	317.14	7.31	-53.6	-55.9	13.8	0.00e+00	0	27	0	552599552	73	4699
2026-01-14 13:40:32.03	317.30	7.29	-53.5	-55.9	13.8	0.00e+00	0	27	0	553648128	73	4664
2026-01-14 13:40:33.03	317.46	7.26	-53.4	-55.8	13.8	0.00e+00	0	27	0	555745280	73	4606
2026-01-14 13:40:34.04	317.62	7.24	-53.4	-55.7	13.9	0.00e+00	0	28	0	557842432	73	4564
2026-01-14 13:40:35.05	317.78	7.22	-53.4	-55.8	13.8	0.00e+00	0	28	0	559939584	73	4600
2026-01-14 13:40:36.05	317.93	7.20	-53.4	-55.8	13.8	0.00e+00	0	27	0	562036736	73	4616
2026-01-14 13:40:37.06	318.09	7.18	-53.4	-55.7	13.9	0.00e+00	0	28	0	563085312	73	4594
2026-01-14 13:40:38.07	318.25	7.16	-53.4	-55.7	13.9	0.00e+00	0	27	0	565182464	73	4556
2026-01-14 13:40:39.07	318.40	7.14	-53.4	-55.7	13.9	0.00e+00	0	28	0	567279616	73	4583
2026-01-14 13:40:40.08	318.56	7.12	-53.4	-55.7	13.9	0.00e+00	0	28	0	569376768	73	4583
2026-01-14 13:40:41.08	318.72	7.10	-53.5	-55.9	13.7	0.00e+00	0	27	0	571473920	73	4691
2026-01-14 13:40:42.09	318.87	7.07	-53.5	-55.9	13.8	0.00e+00	0	27	0	572522496	73	4685
2026-01-14 13:40:43.10	319.03	7.05	-53.6	-56.1	13.7	0.00e+00	0	27	0	574619648	73	4774
2026-01-14 13:40:44.11	319.19	7.03	-53.7	-56.1	13.6	0.00e+00	0	28	0	576716800	73	4800
2026-01-14 13:40:45.11	319.34	7.01	-53.7	-56.2	13.6	0.00e+00	0	27	0	578813952	73	4831
2026-01-14 13:40:46.12	319.50	6.99	-53.7	-56.2	13.6	0.00e+00	0	27	0	580911104	73	4854
2026-01-14 13:40:47.13	319.65	6.96	-53.7	-56.2	13.6	0.00e+00	0	28	0	581959680	73	4815
2026-01-14 13:40:48.14	319.81	6.94	-53.7	-56.2	13.6	0.00e+00	0	27	0	584056832	73	4824
2026-01-14 13:40:49.14	319.96	6.92	-53.7	-56.2	13.6	0.00e+00	0	27	0	586153984	73	4826
2026-01-14 13:40:50.15	320.12	6.90	-53.8	-56.4	13.5	0.00e+00	0	28	0	588251136	73	4932
2026-01-14 13:40:51.16	320.27	6.87	-53.8	-56.3	13.5	0.00e+00	0	27	0	590348288	73	4879
2026-01-14 13:40:52.17	320.43	6.85	-53.8	-56.3	13.6	0.00e+00	0	27	0	591396864	73	4894
2026-01-14 13:40:53.18	320.58	6.82	-53.8	-56.3	13.5	0.00e+00	0	27	0	593494016	73	4915
2026-01-14 13:40:54.19	320.73	6.80	-53.8	-56.4	13.5	0.00e+00	0	27	0	595591168	73	4953
2026-01-14 13:40:55.20	320.89	6.78	-53.7	-56.2	13.6	0.00e+00	0	28	0	597688320	73	4840
2026-01-14 13:40:56.20	321.04	6.75	-53.7	-56.2	13.6	0.00e+00	0	28	0	599785472	73	4818
2026-01-14 13:40:57.21	321.19	6.73	-53.6	-56.0	13.7	0.00e+00	0	28	0	600834048	73	4716
2026-01-14 13:40:58.21	321.34	6.71	-53.6	-56.1	13.6	0.00e+00	0	27	0	602931200	73	4783
2026-01-14 13:40:59.22	321.50	6.68	-53.5	-55.9	13.8	0.00e+00	0	27	0	605028352	73	4658
2026-01-14 13:41:00.23	321.65	6.66	-53.5	-55.8	13.8	0.00e+00	0	28	0	607125504	73	4644
2026-01-14 13:41:01.23	321.80	6.63	-53.5	-55.9	13.7	0.00e+00	0	27	0	609222656	73	4671
2026-01-14 13:41:02.24	321.95	6.61	-53.5	-55.8	13.8	0.00e+00	0	28	0	610271232	73	4650
2026-01-14 13:41:03.25	322.10	6.58	-53.6	-56.0	13.7	0.00e+00	0	28	0	612368384	73	4740
2026-01-14 13:41:04.25	322.25	6.56	-53.7	-56.2	13.5	0.00e+00	0	28	0	614465536	73	4860
2026-01-14 13:41:05.26	322.41	6.53	-53.9	-56.4	13.4	0.00e+00	0	28	0	616562688	73	4982
2026-01-14 13:41:06.27	322.56	6.51	-53.9	-56.5	13.4	0.00e+00	0	28	0	618659840	73	4993
2026-01-14 13:41:07.28	322.71	6.48	-54.1	-56.8	13.2	0.00e+00	0	28	0	619708416	73	5187
2026-01-14 13:41:08.29	322.86	6.46	-54.2	-56.9	13.1	0.00e+00	0	27	0	621805568	73	5278
2026-01-14 13:41:09.30	323.01	6.43	-54.3	-57.2	13.0	0.00e+00	0	28	0	623902720	73	5410
2026-01-14 13:41:10.31	323.16	6.40	-54.4	-57.3	13.0	0.00e+00	0	28	0	625999872	73	5475
2026-01-14 13:41:11.31	323.31	6.38	-54.4	-57.3	12.9	0.00e+00	0	28	0	628097024	73	5514
2026-01-14 13:41:12.31	323.45	6.35	-54.4	-57.3	13.0	0.00e+00	0	27	0	629145600	74	5187
2026-01-14 13:41:13.31	323.60	6.33	-54.4	-57.3	13.1	0.00e+00	0	27	0	631242752	74	5162
2026-01-14 13:41:14.32	323.75	6.30	-54.4	-57.3	13.1	0.00e+00	0	27	0	633339904	74	5167
2026-01-14 13:41:15.33	323.90	6.27	-54.3	-57.1	13.2	0.00e+00	0	27	0	635437056	74	5052
2026-01-14 13:41:16.34	324.05	6.25	-54.2	-56.9	13.2	0.00e+00	0	27	0	637534208	74	4980
2026-01-14 13:41:17.34	324.19	6.22	-54.2	-57.1	13.2	0.00e+00	0	27	0	638582784	74	5049
2026-01-14 13:41:18.35	324.34	6.19	-54.3	-57.2	13.1	0.00e+00	0	27	0	640679936	74	5101
2026-01-14 13:41:19.36	324.49	6.16	-54.1	-56.8	13.3	0.00e+00	0	27	0	642777088	74	4907
2026-01-14 13:41:20.37	324.64	6.14	-54.1	-56.8	13.3	0.00e+00	0	27	0	644874240	74	4924
2026-01-14 13:41:21.37	324.78	6.11	-54.2	-57.0	13.2	0.00e+00	0	28	0	646971392	74	5010
2026-01-14 13:41:22.38	324.93	6.08	-54.2	-57.0	13.2	0.00e+00	0	28	0	648019968	74	4984
2026-01-14 13:41:23.39	325.08	6.05	-54.3	-57.1	13.1	0.00e+00	0	28	0	650117120	74	5066
2026-01-14 13:41:24.40	325.22	6.03	-54.2	-56.9	13.2	0.00e+00	0	27	0	652214272	74	4973
2026-01-14 13:41:25.41	325.37	6.00	-54.2	-56.9	13.2	0.00e+00	0	28	0	654311424	74	4976
2026-01-14 13:41:26.41	325.51	5.97	-54.1	-56.9	13.3	0.00e+00	0	28	0	656408576	74	4933
2026-01-14 13:41:27.42	325.66	5.94	-54.2	-57.0	13.2	0.00e+00	0	27	0	657457152	74	4985
2026-01-14 13:41:28.43	325.80	5.91	-54.3	-57.1	13.1	0.00e+00	0	27	0	659554304	74	5083
2026-01-14 13:41:29.44	325.95	5.89	-54.3	-57.1	13.1	0.00e+00	0	27	0	661651456	74	5099
2026-01-14 13:41:30.45	326.09	5.86	-54.5	-57.5	12.9	0.00e+00	0	27	0	663748608	74	5285
2026-01-14 13:41:31.45	326.24	5.83	-54.7	-57.8	12.7	0.00e+00	0	27	0	665845760	74	5504
2026-01-14 13:41:32.46	326.38	5.80	-54.8	-58.0	12.6	0.00e+00	0	27	0	666894336	74	5605
2026-01-14 13:41:33.47	326.52	5.77	-54.9	-58.2	12.5	0.00e+00	0	28	0	668991488	75	5457
2026-01-14 13:41:34.48	326.67	5.74	-55.1	-58.5	12.3	7.00e-07	0	28	0	671088640	75	5628
2026-01-14 13:41:35.48	326.81	5.71	-55.2	-58.8	12.1	1.50e-06	0	28	0	673185792	75	5834
2026-01-14 13:41:36.49	326.95	5.68	-55.5	-59.3	11.9	3.00e-06	0	28	0	675282944	76	5804
2026-01-14 13:41:37.50	327.10	5.66	-55.5	-59.3	11.9	3.00e-06	0	27	0	676331520	76	5821
2026-01-14 13:41:38.51	327.24	5.63	-55.5	-59.2	11.9	2.20e-06	0	28	0	678428672	76	5759
2026-01-14 13:41:39.52	327.38	5.60	-55.5	-59.3	11.9	1.50e-06	0	28	0	680525824	76	5831
2026-01-14 13:41:40.53	327.52	5.57	-55.5	-59.2	11.9	1.50e-06	0	27	0	682622976	76	5778
2026-01-14 13:41:41.54	327.66	5.54	-55.5	-59.2	11.9	6.10e-06	0	28	0	684720128	76	5786
2026-01-14 13:41:42.54	327.80	5.51	-55.4	-59.1	12.0	7.00e-07	0	28	0	685768704	76	5722
2026-01-14 13:41:43.55	327.95	5.48	-55.4	-59.0	12.1	0.00e+00	0	28	0	687865856	76	5639
2026-01-14 13:41:44.55	328.08	5.45	-55.1	-58.6	12.3	3.00e-06	0	28	0	689963008	76	5375
2026-01-14 13:41:45.56	328.22	5.42	-55.2	-58.6	12.3	0.00e+00	0	27	0	692060160	76	5376
2026-01-14 13:41:46.57	328.37	5.39	-55.1	-58.5	12.4	0.00e+00	0	28	0	694157312	76	5328
2026-01-14 13:41:47.58	328.51	5.36	-55.2	-58.6	12.3	7.00e-07	0	28	0	695205888	76	5394
2026-01-14 13:41:48.59	328.64	5.33	-55.0	-58.4	12.5	0.00e+00	0	28	0	697303040	76	5224
2026-01-14 13:41:49.59	328.78	5.30	-54.9	-58.2	12.6	0.00e+00	0	28	0	699400192	76	5149
2026-01-14 13:41:50.60	328.92	5.26	-54.9	-58.1	12.6	0.00e+00	0	28	0	701497344	76	5094
2026-01-14 13:41:51.61	329.06	5.23	-54.9	-58.1	12.6	0.00e+00	0	28	0	703594496	76	5087
2026-01-14 13:41:52.62	329.20	5.20	-54.8	-58.0	12.8	0.00e+00	0	28	0	704643072	76	5016
2026-01-14 13:41:53.63	329.34	5.17	-54.8	-58.0	12.7	0.00e+00	0	27	0	706740224	76	5039
2026-01-14 13:41:54.64	329.48	5.14	-55.0	-58.4	12.5	0.00e+00	0	28	0	708837376	76	5231
2026-01-14 13:41:55.65	329.61	5.11	-55.2	-58.6	12.3	7.00e-07	0	28	0	710934528	76	5383
2026-01-14 13:41:56.66	329.75	5.08	-55.3	-58.9	12.1	7.00e-07	0	28	0	713031680	76	5530
2026-01-14 13:41:57.66	329.89	5.05	-55.5	-59.3	11.9	1.50e-06	0	28	0	714080256	76	5789
2026-01-14 13:41:58.67	330.02	5.02	-55.5	-59.4	11.7	3.80e-06	0	28	0	716177408	76	5876
2026-01-14 13:41:59.68	330.16	4.98	-57.6	-65.3	7.5	3.20e-05	0	28	0	718274560	80	9259
2026-01-14 13:42:00.68	330.29	4.95	-58.9	-74.9	3.8	1.48e+00	0	28	104	719323136	82	24915
2026-01-14 13:42:01.69	330.43	4.92	-59.2	-75.2	3.8	1.49e+00	0	28	104	719323136	83	24380
2026-01-14 13:42:02.70	330.57	4.89	-59.6	-75.4	3.8	1.49e+00	0	28	104	719323136	84	23477
2026-01-14 13:42:03.71	330.70	4.86	-59.8	-75.8	3.8	1.49e+00	0	28	104	719323136	84	24506
2026-01-14 13:42:04.72	330.84	4.82	-60.0	-75.8	3.8	1.49e+00	0	28	104	719323136	85	23150
2026-01-14 13:42:05.73	330.97	4.79	-60.1	-76.1	3.8	1.49e+00	0	28	104	719323136	85	24127
2026-01-14 13:42:06.73	331.11	4.76	-60.2	-76.2	3.8	1.49e+00	0	28	104	719323136	85	24364
2026-01-14 13:42:07.74	331.24	4.73	-60.3	-76.3	3.8	1.49e+00	0	28	104	719323136	85	24639
2026-01-14 13:42:08.75	331.37	4.70	-60.3	-76.4	3.8	1.49e+00	0	28	104	719323136	85	24745
2026-01-14 13:42:09.76	331.51	4.66	-60.4	-76.4	3.8	1.49e+00	0	28	104	719323136	85	24934
2026-01-14 13:42:10.77	331.64	4.63	-60.4	-76.5	3.8	1.49e+00	0	28	104	719323136	85	24985
2026-01-14 13:42:11.78	331.77	4.60	-60.5	-76.6	3.8	1.49e+00	0	28	104	719323136	86	23885
2026-01-14 13:42:12.78	331.91	4.57	-60.5	-76.6	3.8	1.49e+00	0	27	104	719323136	86	23945
2026-01-14 13:42:13.79	332.04	4.53	-60.5	-76.6	3.8	1.49e+00	0	28	104	719323136	86	24060
2026-01-14 13:42:14.80	332.17	4.50	-60.6	-76.6	3.8	1.49e+00	0	27	104	719323136	86	24118
2026-01-14 13:42:15.81	332.30	4.47	-60.6	-76.6	3.8	1.49e+00	0	28	104	719323136	86	24122
2026-01-14 13:42:16.83	332.44	4.43	-60.6	-76.7	3.8	1.49e+00	0	28	104	719323136	86	24136
2026-01-14 13:42:17.83	332.57	4.40	-60.6	-76.7	3.8	1.49e+00	0	28	104	719323136	86	24168
2026-01-14 13:42:18.84	332.70	4.37	-60.6	-76.7	3.8	1.49e+00	0	28	104	719323136	86	24211
2026-01-14 13:42:19.85	332.83	4.33	-60.6	-76.7	3.8	1.49e+00	0	28	104	719323136	86	24158
2026-01-14 13:42:20.86	332.96	4.30	-60.6	-76.7	3.8	1.49e+00	0	28	104	719323136	86	24214
2026-01-14 13:42:21.86	333.09	4.27	-60.5	-76.6	3.8	1.49e+00	0	28	104	719323136	86	24023
2026-01-14 13:42:22.87	333.22	4.23	-60.5	-76.6	3.8	1.49e+00	0	28	104	719323136	86	23952
2026-01-14 13:42:23.88	333.35	4.20	-60.5	-76.6	3.8	1.49e+00	0	28	104	719323136	86	23949
2026-01-14 13:42:24.89	333.48	4.17	-60.5	-76.6	3.8	1.49e+00	0	28	104	719323136	86	23897
2026-01-14 13:42:25.90	333.61	4.13	-60.5	-76.6	3.8	1.49e+00	0	28	104	719323136	86	23864
2026-01-14 13:42:26.91	333.73	4.10	-60.5	-76.5	3.8	1.49e+00	0	28	104	719323136	86	23829
2026-01-14 13:42:27.92	333.86	4.06	-60.4	-76.5	3.8	1.49e+00	0	28	104	719323136	86	23782
2026-01-14 13:42:28.93	333.99	4.03	-60.4	-76.5	3.8	1.49e+00	0	28	104	719323136	86	23803
2026-01-14 13:42:29.94	334.12	4.00	-60.4	-76.5	3.8	1.49e+00	0	28	104	719323136	86	23716
2026-01-14 13:42:30.94	334.25	3.96	-60.4	-76.5	3.8	1.49e+00	0	28	104	719323136	86	23683
2026-01-14 13:42:31.95	334.37	3.93	-60.4	-76.5	3.8	1.49e+00	0	28	104	719323136	86	23671
2026-01-14 13:42:32.96	334.50	3.89	-60.4	-76.4	3.8	1.49e+00	0	28	104	719323136	86	23580
2026-01-14 13:42:33.97	334.63	3.86	-60.4	-76.5	3.8	1.49e+00	0	28	104	719323136	86	23582
2026-01-14 13:42:34.97	334.75	3.83	-60.4	-76.4	3.8	1.49e+00	0	28	104	719323136	86	23483
2026-01-14 13:42:35.99	334.88	3.79	-60.4	-76.5	3.8	1.49e+00	0	28	104	719323136	86	23594
2026-01-14 13:42:36.99	335.00	3.76	-60.4	-76.4	3.8	1.49e+00	0	28	104	719323136	86	23539
2026-01-14 13:42:38.00	335.13	3.72	-60.4	-76.4	3.8	1.49e+00	0	28	104	719323136	86	23497
2026-01-14 13:42:39.01	335.26	3.69	-60.3	-76.4	3.8	1.49e+00	0	28	104	719323136	86	23470
2026-01-14 13:42:40.02	335.38	3.65	-60.4	-76.4	3.8	1.49e+00	0	28	104	719323136	86	23544
2026-01-14 13:42:41.03	335.51	3.62	-60.3	-76.4	3.8	1.49e+00	0	28	104	719323136	86	23468
2026-01-14 13:42:42.04	335.63	3.58	-60.3	-76.4	3.8	1.49e+00	0	28	104	719323136	86	23495
2026-01-14 13:42:43.05	335.75	3.55	-60.3	-76.4	3.8	1.49e+00	0	28	104	719323136	86	23513
2026-01-14 13:42:44.06	335.88	3.51	-60.3	-76.4	3.8	1.49e+00	0	28	104	719323136	86	23535
2026-01-14 13:42:45.06	336.00	3.48	-60.3	-76.4	3.8	1.49e+00	0	28	104	719323136	86	23433
2026-01-14 13:42:46.07	336.12	3.44	-60.3	-76.4	3.8	1.49e+00	0	28	104	719323136	86	23449
2026-01-14 13:42:47.08	336.25	3.41	-60.3	-76.4	3.8	1.49e+00	0	28	104	719323136	86	23459
2026-01-14 13:42:48.09	336.37	3.37	-60.3	-76.4	3.8	1.49e+00	0	28	104	719323136	86	23401
2026-01-14 13:42:49.10	336.49	3.34	-60.3	-76.4	3.8	1.49e+00	0	28	104	719323136	86	23381
2026-01-14 13:42:50.11	336.62	3.30	-60.3	-76.4	3.8	1.49e+00	0	28	104	719323136	86	23431
2026-01-14 13:42:51.12	336.74	3.27	-60.3	-76.4	3.8	1.49e+00	0	28	104	719323136	86	23387
2026-01-14 13:42:52.13	336.86	3.23	-60.3	-76.4	3.8	1.49e+00	0	28	104	719323136	86	23365
2026-01-14 13:42:53.13	336.98	3.20	-60.3	-76.4	3.8	1.49e+00	0	28	104	719323136	86	23445
2026-01-14 13:42:54.14	337.10	3.16	-60.3	-76.4	3.8	1.49e+00	0	28	104	719323136	86	23438
2026-01-14 13:42:55.15	337.22	3.12	-60.3	-76.4	3.8	1.49e+00	0	28	104	719323136	86	23351
2026-01-14 13:42:56.16	337.34	3.09	-60.3	-76.4	3.8	1.49e+00	0	28	104	719323136	86	23365
2026-01-14 13:42:57.17	337.46	3.05	-60.3	-76.4	3.8	1.49e+00	0	28	104	719323136	86	23355
2026-01-14 13:42:58.17	337.58	3.02	-60.3	-76.3	3.8	1.49e+00	0	28	104	719323136	86	23267
2026-01-14 13:42:59.18	337.70	2.98	-60.3	-76.3	3.8	1.49e+00	0	28	104	719323136	86	23277
2026-01-14 13:43:00.19	337.82	2.95	-60.3	-76.4	3.8	1.49e+00	0	28	104	719323136	86	23343
2026-01-14 13:43:01.20	337.94	2.91	-60.3	-76.4	3.8	1.49e+00	0	28	104	719323136	86	23325
2026-01-14 13:43:02.20	338.06	2.87	-60.3	-76.3	3.8	1.49e+00	0	28	104	719323136	86	23301
2026-01-14 13:43:03.21	338.18	2.84	-60.3	-76.4	3.8	1.49e+00	0	28	104	719323136	86	23324
2026-01-14 13:43:04.21	338.29	2.80	-60.3	-76.4	3.8	1.49e+00	0	28	104	719323136	86	23332
2026-01-14 13:43:05.22	338.41	2.77	-60.3	-76.3	3.8	1.49e+00	0	28	104	719323136	86	23281
2026-01-14 13:43:06.23	338.53	2.73	-60.3	-76.3	3.8	1.49e+00	0	28	104	719323136	86	23250
2026-01-14 13:43:07.24	338.65	2.69	-60.3	-76.3	3.8	1.49e+00	0	28	104	719323136	86	23211
2026-01-14 13:43:08.25	338.76	2.66	-60.3	-76.3	3.8	1.49e+00	0	28	104	719323136	86	23242
2026-01-14 13:43:09.26	338.88	2.62	-60.3	-76.4	3.8	1.49e+00	0	28	104	719323136	86	23354
2026-01-14 13:43:10.27	339.00	2.58	-60.2	-76.3	3.8	1.49e+00	0	28	104	719323136	86	23294
2026-01-14 13:43:11.28	339.11	2.55	-60.3	-76.3	3.8	1.49e+00	0	28	104	719323136	86	23266
2026-01-14 13:43:12.29	339.23	2.51	-60.2	-76.3	3.8	1.49e+00	0	28	104	719323136	86	23205
2026-01-14 13:43:13.29	339.35	2.47	-60.2	-76.3	3.8	1.49e+00	0	28	104	719323136	86	23152
2026-01-14 13:43:14.30	339.46	2.44	-60.2	-76.3	3.8	1.49e+00	0	28	104	719323136	86	23216
2026-01-14 13:43:15.31	339.58	2.40	-60.2	-76.3	3.8	1.49e+00	0	28	104	719323136	86	23177
2026-01-14 13:43:16.32	339.69	2.36	-60.2	-76.3	3.8	1.49e+00	0	28	104	719323136	86	23173
2026-01-14 13:43:17.33	339.81	2.33	-60.2	-76.3	3.8	1.49e+00	0	28	104	719323136	86	23187
2026-01-14 13:43:18.33	339.92	2.29	-60.2	-76.3	3.8	1.49e+00	0	28	104	719323136	86	23178
2026-01-14 13:43:19.34	340.03	2.25	-60.2	-76.3	3.8	1.49e+00	0	28	104	719323136	86	23205
2026-01-14 13:43:20.35	340.15	2.22	-60.2	-76.3	3.8	1.49e+00	0	28	104	719323136	86	23171
2026-01-14 13:43:21.36	340.26	2.18	-60.2	-76.3	3.8	1.49e+00	0	28	104	719323136	86	23199
2026-01-14 13:43:22.37	340.38	2.14	-60.2	-76.3	3.8	1.49e+00	0	28	104	719323136	86	23157
2026-01-14 13:43:23.38	340.49	2.11	-60.2	-76.3	3.8	1.49e+00	0	28	104	719323136	86	23179
2026-01-14 13:43:24.39	340.60	2.07	-60.2	-76.3	3.8	1.49e+00	0	28	104	719323136	86	23162
2026-01-14 13:43:25.40	340.71	2.03	-60.2	-76.3	3.8	1.49e+00	0	28	104	719323136	86	23173
2026-01-14 13:43:26.41	340.83	2.00	-60.2	-76.3	3.8	1.49e+00	0	28	104	719323136	86	23142
2026-01-14 13:43:27.42	340.94	1.96	-60.2	-76.3	3.8	1.49e+00	0	28	104	719323136	86	23205

#Closed at: 2026-01-14 13:43:27
#Recorded file [719 MB]: D:/lorett/data/31004_260114_163416.dat