passes_logs/2026/01/14/R3.2S_Murmansk/R3.2S_Murmansk__20260114_000547_KANOPUS-V_5_rec.log

#Pass ID: 20260114_000547_KANOPUS-V 5
#Satellite: KANOPUS-V 5
#Configuration: KANOPUS-V_8320
#almurnet v.1.7.20251203
#Start time: 2026-01-14 00:05:48

#Version: 2.2.20231116
#Station: R3.2S_Murmansk
#Location: 33.079688 lon 68.888172 lat
#TLE: 1 43876U 18111A   26013.65992293  .00002361  00000+0  10210-3 0  9995
#TLE: 2 43876  97.3684 282.1984 0001772  87.0401 273.1039 15.23431305391261

#Time	Az	El	Level	Level2	SNR	BER	BlckErr	Temp	State	Recorded	gain1	gain2
2026-01-14 00:05:48.95	23.42	2.12	-61.0	-70.8	3.8	7.46e-01	0	27	0	0	85	11587
2026-01-14 00:05:49.95	23.35	2.19	-61.1	-70.8	3.8	7.45e-01	0	27	104	0	86	10968
2026-01-14 00:05:50.95	23.28	2.25	-61.1	-70.8	3.8	7.46e-01	0	27	104	0	86	10969
2026-01-14 00:05:51.95	23.20	2.32	-61.1	-70.8	3.8	7.47e-01	0	27	104	0	86	10978
2026-01-14 00:05:52.96	23.13	2.38	-61.1	-70.8	3.8	7.47e-01	0	27	104	0	86	11010
2026-01-14 00:05:53.96	23.05	2.45	-61.1	-70.8	3.8	7.46e-01	0	27	104	0	86	10975
2026-01-14 00:05:54.96	22.98	2.51	-61.1	-70.8	3.8	7.46e-01	0	27	104	0	86	10945
2026-01-14 00:05:55.96	22.90	2.58	-61.1	-70.8	3.8	7.45e-01	0	27	104	0	86	10976
2026-01-14 00:05:56.96	22.83	2.64	-61.0	-70.8	3.8	7.45e-01	0	27	104	0	86	10955
2026-01-14 00:05:57.96	22.75	2.71	-61.1	-70.8	3.8	7.46e-01	0	27	104	0	86	10924
2026-01-14 00:05:58.97	22.67	2.78	-61.0	-70.8	3.8	7.46e-01	0	27	104	0	86	10912
2026-01-14 00:05:59.98	22.59	2.84	-61.1	-70.8	3.8	7.46e-01	0	27	104	0	86	10977
2026-01-14 00:06:00.98	22.52	2.91	-61.1	-70.8	3.8	7.46e-01	0	27	104	0	86	10977
2026-01-14 00:06:01.99	22.44	2.98	-61.1	-70.8	3.8	7.45e-01	0	27	104	0	86	10985
2026-01-14 00:06:02.98	22.36	3.04	-61.1	-70.8	3.8	7.46e-01	0	27	104	0	86	10939
2026-01-14 00:06:03.98	22.28	3.11	-61.0	-70.8	3.8	7.47e-01	0	27	104	0	86	10948
2026-01-14 00:06:04.97	22.20	3.18	-61.0	-70.8	3.8	7.47e-01	0	27	104	0	86	10906
2026-01-14 00:06:05.97	22.12	3.24	-61.0	-70.8	3.8	7.46e-01	0	27	104	0	86	10916
2026-01-14 00:06:06.97	22.04	3.31	-61.0	-70.8	3.8	7.44e-01	0	27	104	0	86	10973
2026-01-14 00:06:07.97	21.96	3.38	-61.0	-70.7	3.8	7.44e-01	0	27	104	0	86	10903
2026-01-14 00:06:08.97	21.88	3.45	-61.0	-70.8	3.8	7.46e-01	0	27	104	0	86	10937
2026-01-14 00:06:09.98	21.79	3.52	-61.0	-70.8	3.8	7.46e-01	0	27	104	0	86	10958
2026-01-14 00:06:10.99	21.71	3.58	-61.0	-70.8	3.8	7.44e-01	0	27	104	0	86	10944
2026-01-14 00:06:11.98	21.63	3.65	-61.0	-70.8	3.8	7.46e-01	0	27	104	0	86	10967
2026-01-14 00:06:12.98	21.54	3.72	-61.1	-70.8	3.8	7.45e-01	0	27	104	0	86	10968
2026-01-14 00:06:13.98	21.46	3.79	-61.1	-70.8	3.8	7.44e-01	0	27	104	0	86	10956
2026-01-14 00:06:14.98	21.38	3.86	-61.0	-70.8	3.8	7.47e-01	0	27	104	0	86	10973
2026-01-14 00:06:15.99	21.29	3.93	-61.1	-70.8	3.8	7.46e-01	0	27	104	0	86	10941
2026-01-14 00:06:16.98	21.20	4.00	-61.0	-70.7	3.8	7.46e-01	0	27	104	0	86	10885
2026-01-14 00:06:17.98	21.12	4.07	-61.0	-70.8	3.8	7.46e-01	0	27	104	0	86	10951
2026-01-14 00:06:18.98	21.03	4.14	-61.0	-70.8	3.8	7.46e-01	0	27	104	0	86	10924
2026-01-14 00:06:19.98	20.94	4.21	-61.0	-70.8	3.8	7.45e-01	0	27	104	0	86	10913
2026-01-14 00:06:20.97	20.86	4.27	-61.0	-70.8	3.8	7.45e-01	0	27	104	0	86	10932
2026-01-14 00:06:21.97	20.77	4.34	-61.0	-70.8	3.8	7.45e-01	0	27	104	0	86	10946
2026-01-14 00:06:22.97	20.68	4.42	-61.1	-70.8	3.8	7.46e-01	0	27	104	0	86	10933
2026-01-14 00:06:23.97	20.59	4.49	-61.0	-70.8	3.8	7.45e-01	0	27	104	0	86	10968
2026-01-14 00:06:24.98	20.50	4.56	-61.0	-70.8	3.8	7.45e-01	0	27	104	0	86	10935
2026-01-14 00:06:25.98	20.41	4.63	-61.0	-70.8	3.8	7.47e-01	0	27	104	0	86	10938
2026-01-14 00:06:26.98	20.31	4.70	-61.0	-70.8	3.8	7.47e-01	0	27	104	0	86	10961
2026-01-14 00:06:27.98	20.22	4.77	-61.0	-70.8	3.8	7.46e-01	0	27	104	0	86	10945
2026-01-14 00:06:28.99	20.13	4.84	-61.0	-70.8	3.8	7.45e-01	0	27	104	0	86	10954
2026-01-14 00:06:29.98	20.04	4.91	-61.0	-70.8	3.8	7.47e-01	0	27	104	0	86	10929
2026-01-14 00:06:30.98	19.94	4.99	-61.1	-70.8	3.8	7.45e-01	0	27	104	0	86	10928
2026-01-14 00:06:31.97	19.85	5.06	-61.1	-70.8	3.8	7.45e-01	0	27	104	0	86	10986
2026-01-14 00:06:32.97	19.75	5.13	-61.0	-70.8	3.8	7.45e-01	0	27	104	0	86	10935
2026-01-14 00:06:33.97	19.66	5.20	-61.1	-70.8	3.8	7.47e-01	0	27	104	0	86	10971
2026-01-14 00:06:34.97	19.56	5.28	-61.1	-70.8	3.8	7.44e-01	0	27	104	0	86	10961
2026-01-14 00:06:35.96	19.46	5.35	-61.1	-70.8	3.8	7.45e-01	0	28	104	0	86	10940
2026-01-14 00:06:36.97	19.36	5.42	-61.0	-70.8	3.8	7.45e-01	0	27	104	0	86	10918
2026-01-14 00:06:37.96	19.27	5.49	-61.1	-70.8	3.8	7.45e-01	0	27	104	0	86	10941
2026-01-14 00:06:38.96	19.17	5.57	-61.1	-70.8	3.8	7.47e-01	0	27	104	0	86	10955
2026-01-14 00:06:39.95	19.07	5.64	-61.0	-70.7	3.8	7.46e-01	0	28	104	0	86	10882
2026-01-14 00:06:40.95	18.97	5.71	-61.0	-70.8	3.8	7.46e-01	0	27	104	0	86	10972
2026-01-14 00:06:41.96	18.87	5.79	-61.1	-70.8	3.8	7.45e-01	0	27	104	0	86	10934
2026-01-14 00:06:42.96	18.77	5.86	-61.0	-70.8	3.8	7.45e-01	0	27	104	0	86	10959
2026-01-14 00:06:43.96	18.66	5.94	-61.0	-70.8	3.8	7.47e-01	0	27	104	0	86	10933
2026-01-14 00:06:44.96	18.56	6.01	-61.1	-70.8	3.8	7.46e-01	0	27	104	0	86	10925
2026-01-14 00:06:45.95	18.46	6.09	-61.0	-70.8	3.8	7.44e-01	0	28	104	0	86	10948
2026-01-14 00:06:46.95	18.35	6.16	-61.1	-70.8	3.8	7.45e-01	0	27	104	0	86	10989
2026-01-14 00:06:47.95	18.25	6.24	-61.1	-70.8	3.8	7.45e-01	0	28	104	0	86	10972
2026-01-14 00:06:48.95	18.14	6.31	-61.1	-70.8	3.8	7.45e-01	0	27	104	0	86	10983
2026-01-14 00:06:49.96	18.03	6.39	-61.1	-70.8	3.8	7.45e-01	0	27	104	0	86	10968
2026-01-14 00:06:50.96	17.93	6.47	-61.1	-70.8	3.8	7.45e-01	0	27	104	0	86	10928
2026-01-14 00:06:51.96	17.82	6.54	-61.0	-70.8	3.8	7.44e-01	0	27	104	0	86	10922
2026-01-14 00:06:52.96	17.71	6.62	-61.0	-70.8	3.8	7.46e-01	0	27	104	0	86	10913
2026-01-14 00:06:53.96	17.60	6.70	-61.0	-70.8	3.8	7.47e-01	0	27	104	0	86	10917
2026-01-14 00:06:54.96	17.49	6.77	-61.0	-70.8	3.8	7.46e-01	0	27	104	0	86	10920
2026-01-14 00:06:55.96	17.38	6.85	-61.0	-70.8	3.8	7.44e-01	0	28	104	0	86	10946
2026-01-14 00:06:56.96	17.27	6.93	-61.0	-70.8	3.8	7.45e-01	0	27	104	0	86	10948
2026-01-14 00:06:57.95	17.15	7.01	-61.0	-70.8	3.8	7.46e-01	0	28	104	0	86	10954
2026-01-14 00:06:58.95	17.04	7.08	-61.0	-70.7	3.8	7.45e-01	0	27	104	0	86	10874
2026-01-14 00:06:59.95	16.93	7.16	-61.0	-70.8	3.8	7.46e-01	0	28	104	0	86	10922
2026-01-14 00:07:00.95	16.81	7.24	-61.0	-70.8	3.8	7.45e-01	0	27	104	0	86	10981
2026-01-14 00:07:01.95	16.69	7.32	-61.0	-70.8	3.8	7.44e-01	0	27	104	0	86	10956
2026-01-14 00:07:02.94	16.58	7.40	-61.1	-70.8	3.8	7.47e-01	0	27	104	0	86	11013
2026-01-14 00:07:03.95	16.46	7.48	-61.0	-70.8	3.8	7.46e-01	0	27	104	0	86	10943
2026-01-14 00:07:04.95	16.34	7.56	-61.0	-70.8	3.8	7.46e-01	0	28	104	0	86	11005
2026-01-14 00:07:05.94	16.22	7.63	-61.0	-70.8	3.8	7.46e-01	0	28	104	0	86	10940
2026-01-14 00:07:06.94	16.10	7.71	-61.0	-70.8	3.8	7.45e-01	0	27	104	0	86	10936
2026-01-14 00:07:07.94	15.98	7.79	-61.0	-70.8	3.8	7.45e-01	0	28	104	0	86	10948
2026-01-14 00:07:08.94	15.86	7.87	-61.0	-70.8	3.8	7.44e-01	0	28	104	0	86	10942
2026-01-14 00:07:09.94	15.74	7.96	-61.0	-70.8	3.8	7.46e-01	0	27	104	0	86	10930
2026-01-14 00:07:10.94	15.61	8.04	-61.0	-70.8	3.8	7.43e-01	0	28	104	0	86	10926
2026-01-14 00:07:11.94	15.49	8.12	-61.0	-70.8	3.8	7.47e-01	0	28	104	0	86	10946
2026-01-14 00:07:12.94	15.37	8.20	-61.0	-70.8	3.8	7.45e-01	0	27	104	0	86	10936
2026-01-14 00:07:13.95	15.24	8.28	-61.0	-70.8	3.8	7.46e-01	0	27	104	0	86	10952
2026-01-14 00:07:14.95	15.11	8.36	-61.0	-70.8	3.8	7.46e-01	0	28	104	0	86	10912
2026-01-14 00:07:15.94	14.98	8.44	-61.0	-70.7	3.8	7.45e-01	0	28	104	0	86	10880
2026-01-14 00:07:16.94	14.85	8.53	-61.0	-70.8	3.8	7.46e-01	0	28	104	0	86	10931
2026-01-14 00:07:17.95	14.72	8.61	-61.0	-70.8	3.8	7.46e-01	0	27	104	0	86	10965
2026-01-14 00:07:18.94	14.59	8.69	-61.0	-70.8	3.8	7.44e-01	0	27	104	0	86	10910
2026-01-14 00:07:19.94	14.46	8.77	-61.0	-70.8	3.8	7.44e-01	0	28	104	0	86	10963
2026-01-14 00:07:20.94	14.33	8.86	-61.0	-70.8	3.8	7.47e-01	0	27	104	0	86	10923
2026-01-14 00:07:21.94	14.20	8.94	-61.0	-70.8	3.8	7.45e-01	0	28	104	0	86	10955
2026-01-14 00:07:22.94	14.06	9.02	-61.0	-70.8	3.8	7.46e-01	0	28	104	0	86	10955
2026-01-14 00:07:23.94	13.93	9.11	-61.0	-70.8	3.8	7.48e-01	0	27	104	0	86	10971
2026-01-14 00:07:24.94	13.79	9.19	-61.0	-70.7	3.8	7.46e-01	0	28	104	0	86	10901
2026-01-14 00:07:25.94	13.65	9.28	-61.0	-70.8	3.8	7.45e-01	0	28	104	0	86	10934
2026-01-14 00:07:26.93	13.51	9.36	-61.1	-70.8	3.8	7.45e-01	0	28	104	0	86	10975
2026-01-14 00:07:27.92	13.37	9.44	-61.0	-70.8	3.8	7.46e-01	0	28	104	0	86	10942
2026-01-14 00:07:28.93	13.23	9.53	-61.0	-70.8	3.8	7.45e-01	0	27	104	0	86	10946
2026-01-14 00:07:29.94	13.09	9.62	-61.0	-70.8	3.8	7.46e-01	0	28	104	0	86	10929
2026-01-14 00:07:30.93	12.95	9.70	-61.0	-70.8	3.8	7.46e-01	0	28	104	0	86	10914
2026-01-14 00:07:31.93	12.80	9.79	-61.0	-70.8	3.8	7.45e-01	0	27	104	0	86	10958
2026-01-14 00:07:32.92	12.66	9.87	-61.0	-70.8	3.8	7.45e-01	0	28	104	0	86	10951
2026-01-14 00:07:33.91	12.52	9.96	-61.0	-70.8	3.8	7.46e-01	0	28	104	0	86	10955
2026-01-14 00:07:34.91	12.37	10.04	-61.0	-70.8	3.8	7.46e-01	0	28	104	0	86	10928
2026-01-14 00:07:35.90	12.22	10.13	-61.0	-70.8	3.8	7.46e-01	0	27	104	0	86	10964
2026-01-14 00:07:36.90	12.07	10.22	-61.0	-70.8	3.8	7.45e-01	0	28	104	0	86	10968
2026-01-14 00:07:37.91	11.92	10.31	-61.0	-70.8	3.8	7.45e-01	0	28	104	0	86	10963
2026-01-14 00:07:38.90	11.77	10.39	-61.0	-70.8	3.8	7.45e-01	0	28	104	0	86	10942
2026-01-14 00:07:39.90	11.62	10.48	-61.0	-70.8	3.8	7.46e-01	0	28	104	0	86	10943
2026-01-14 00:07:40.90	11.46	10.57	-61.0	-70.8	3.8	7.46e-01	0	28	104	0	86	10915
2026-01-14 00:07:41.90	11.31	10.66	-61.0	-70.8	3.8	7.47e-01	0	28	104	0	86	10962
2026-01-14 00:07:42.90	11.15	10.75	-61.0	-70.8	3.8	7.47e-01	0	28	104	0	86	10935
2026-01-14 00:07:43.89	11.00	10.83	-61.0	-70.8	3.8	7.46e-01	0	28	104	0	86	10918
2026-01-14 00:07:44.89	10.84	10.92	-61.0	-70.8	3.8	7.46e-01	0	28	104	0	86	10975
2026-01-14 00:07:45.89	10.68	11.01	-61.0	-70.8	3.8	7.45e-01	0	28	104	0	86	10969
2026-01-14 00:07:46.89	10.52	11.10	-61.0	-70.8	3.8	7.46e-01	0	28	104	0	86	10915
2026-01-14 00:07:47.89	10.35	11.19	-61.0	-70.8	3.8	7.46e-01	0	27	104	0	86	10942
2026-01-14 00:07:48.89	10.19	11.28	-61.0	-70.8	3.8	7.46e-01	0	28	104	0	86	10970
2026-01-14 00:07:49.89	10.02	11.37	-61.0	-70.8	3.8	7.43e-01	0	28	104	0	86	10936
2026-01-14 00:07:50.89	9.86	11.46	-61.0	-70.8	3.8	7.47e-01	0	28	104	0	86	10908
2026-01-14 00:07:51.89	9.69	11.55	-61.0	-70.7	3.8	7.45e-01	0	28	104	0	86	10894
2026-01-14 00:07:52.88	9.52	11.64	-61.0	-70.8	3.8	7.45e-01	0	28	104	0	86	10921
2026-01-14 00:07:53.88	9.35	11.73	-61.0	-70.7	3.8	7.45e-01	0	28	104	0	86	10880
2026-01-14 00:07:54.88	9.18	11.83	-61.0	-70.8	3.8	7.44e-01	0	28	104	0	86	10924
2026-01-14 00:07:55.88	9.01	11.92	-61.0	-70.8	3.8	7.44e-01	0	28	104	0	86	10911
2026-01-14 00:07:56.89	8.83	12.01	-61.0	-70.7	3.8	7.46e-01	0	28	104	0	86	10845
2026-01-14 00:07:57.88	8.66	12.10	-61.0	-70.7	3.8	7.46e-01	0	27	104	0	86	10883
2026-01-14 00:07:58.88	8.48	12.19	-61.0	-70.8	3.8	7.46e-01	0	28	104	0	86	10930
2026-01-14 00:07:59.89	8.30	12.29	-61.0	-70.7	3.8	7.46e-01	0	28	104	0	86	10883
2026-01-14 00:08:00.88	8.13	12.38	-61.0	-70.8	3.8	7.46e-01	0	28	104	0	86	10937
2026-01-14 00:08:01.88	7.94	12.47	-61.0	-70.7	3.8	7.46e-01	0	27	104	0	86	10892
2026-01-14 00:08:02.88	7.76	12.57	-61.0	-70.8	3.8	7.45e-01	0	28	104	0	86	10910
2026-01-14 00:08:03.88	7.58	12.66	-61.0	-70.8	3.8	7.46e-01	0	28	104	0	86	10922
2026-01-14 00:08:04.88	7.39	12.75	-61.0	-70.7	3.8	7.45e-01	0	28	104	0	86	10861
2026-01-14 00:08:05.88	7.21	12.85	-61.0	-70.8	3.8	7.46e-01	0	27	104	0	86	10914
2026-01-14 00:08:06.88	7.02	12.94	-61.0	-70.8	3.8	7.45e-01	0	28	104	0	86	10918
2026-01-14 00:08:07.88	6.83	13.04	-61.0	-70.8	3.8	7.46e-01	0	28	104	0	86	10906
2026-01-14 00:08:08.88	6.64	13.13	-61.0	-70.8	3.8	7.46e-01	0	28	104	0	86	10931
2026-01-14 00:08:09.89	6.44	13.23	-61.0	-70.8	3.8	7.47e-01	0	28	104	0	86	10920
2026-01-14 00:08:10.89	6.25	13.32	-61.0	-70.7	3.8	7.47e-01	0	28	104	0	86	10889
2026-01-14 00:08:11.89	6.05	13.42	-61.0	-70.8	3.8	7.46e-01	0	28	104	0	86	10931
2026-01-14 00:08:12.89	5.85	13.51	-61.0	-70.8	3.8	7.46e-01	0	28	104	0	86	10933
2026-01-14 00:08:13.89	5.66	13.61	-61.0	-70.8	3.8	7.45e-01	0	28	104	0	86	10914
2026-01-14 00:08:14.89	5.46	13.71	-61.0	-70.8	3.8	7.45e-01	0	28	104	0	86	10938
2026-01-14 00:08:15.89	5.25	13.80	-61.0	-70.7	3.8	7.46e-01	0	27	104	0	86	10900
2026-01-14 00:08:16.89	5.05	13.90	-61.0	-70.7	3.8	7.46e-01	0	28	104	0	86	10890
2026-01-14 00:08:17.89	4.84	13.99	-61.0	-70.8	3.8	7.46e-01	0	27	104	0	86	10921
2026-01-14 00:08:18.90	4.64	14.09	-61.0	-70.8	3.8	7.46e-01	0	28	104	0	86	10914
2026-01-14 00:08:19.90	4.43	14.19	-61.0	-70.8	3.8	7.46e-01	0	28	104	0	86	10920
2026-01-14 00:08:20.90	4.22	14.29	-61.0	-70.8	3.8	7.45e-01	0	28	104	0	86	10941
2026-01-14 00:08:21.90	4.00	14.38	-61.0	-70.8	3.8	7.44e-01	0	27	104	0	86	10922
2026-01-14 00:08:22.89	3.79	14.48	-61.0	-70.8	3.8	7.47e-01	0	28	104	0	86	10919
2026-01-14 00:08:23.89	3.58	14.58	-61.0	-70.7	3.8	7.46e-01	0	28	104	0	86	10900
2026-01-14 00:08:24.89	3.36	14.68	-61.0	-70.8	3.8	7.44e-01	0	28	104	0	86	10917
2026-01-14 00:08:25.89	3.14	14.77	-61.0	-70.8	3.8	7.45e-01	0	28	104	0	86	10907
2026-01-14 00:08:26.89	2.92	14.87	-61.0	-70.8	3.8	7.46e-01	0	28	104	0	86	10910
2026-01-14 00:08:27.89	2.70	14.97	-61.0	-70.8	3.8	7.46e-01	0	28	104	0	86	10951
2026-01-14 00:08:28.89	2.47	15.07	-61.0	-70.8	3.8	7.45e-01	0	28	104	0	86	10971
2026-01-14 00:08:29.89	2.25	15.17	-61.0	-70.8	3.8	7.46e-01	0	28	104	0	86	10904
2026-01-14 00:08:30.89	2.02	15.27	-61.0	-70.7	3.8	7.45e-01	0	28	104	0	86	10890
2026-01-14 00:08:31.90	1.79	15.36	-61.0	-70.7	3.8	7.44e-01	0	28	104	0	86	10903
2026-01-14 00:08:32.89	1.56	15.46	-61.0	-70.7	3.8	7.47e-01	0	28	104	0	86	10885
2026-01-14 00:08:33.90	1.33	15.56	-61.0	-70.7	3.8	7.45e-01	0	28	104	0	86	10872
2026-01-14 00:08:34.89	1.09	15.66	-61.0	-70.7	3.8	7.45e-01	0	28	104	0	86	10880
2026-01-14 00:08:35.89	0.86	15.76	-61.0	-70.8	3.8	7.46e-01	0	28	104	0	86	10912
2026-01-14 00:08:36.89	0.62	15.86	-61.0	-70.7	3.8	7.46e-01	0	28	104	0	86	10886
2026-01-14 00:08:37.90	0.37	15.96	-61.0	-70.8	3.8	7.46e-01	0	28	104	0	86	10919
2026-01-14 00:08:38.90	0.13	16.06	-61.0	-70.8	3.8	7.45e-01	0	27	104	0	86	10905
2026-01-14 00:08:39.90	359.89	16.16	-61.0	-70.7	3.8	7.45e-01	0	28	104	0	86	10865
2026-01-14 00:08:40.89	359.64	16.26	-61.0	-70.7	3.8	7.45e-01	0	28	104	0	86	10882
2026-01-14 00:08:41.90	359.39	16.36	-61.0	-70.7	3.8	7.46e-01	0	28	104	0	86	10900
2026-01-14 00:08:42.90	359.14	16.46	-61.0	-70.8	3.8	7.46e-01	0	28	104	0	86	10936
2026-01-14 00:08:43.90	358.89	16.56	-61.0	-70.8	3.8	7.46e-01	0	28	104	0	86	10905
2026-01-14 00:08:44.91	358.63	16.66	-61.0	-70.8	3.8	7.45e-01	0	28	104	0	86	10925
2026-01-14 00:08:45.91	358.38	16.76	-61.0	-70.8	3.8	7.46e-01	0	28	104	0	86	10950
2026-01-14 00:08:46.91	358.12	16.86	-61.0	-70.8	3.8	7.45e-01	0	28	104	0	86	10915
2026-01-14 00:08:47.91	357.86	16.96	-61.0	-70.7	3.8	7.47e-01	0	28	104	0	86	10900
2026-01-14 00:08:48.91	357.59	17.06	-61.0	-70.8	3.8	7.46e-01	0	28	104	0	86	10916
2026-01-14 00:08:49.91	357.33	17.16	-61.0	-70.8	3.8	7.44e-01	0	28	104	0	86	10910
2026-01-14 00:08:50.91	357.06	17.26	-61.0	-70.7	3.8	7.45e-01	0	28	104	0	86	10902
2026-01-14 00:08:51.91	356.79	17.35	-61.0	-70.8	3.8	7.45e-01	0	28	104	0	86	10940
2026-01-14 00:08:52.91	356.52	17.45	-61.0	-70.8	3.8	7.44e-01	0	28	104	0	86	10927
2026-01-14 00:08:53.90	356.25	17.55	-61.0	-70.8	3.8	7.46e-01	0	27	104	0	86	10923
2026-01-14 00:08:54.91	355.97	17.65	-61.0	-70.8	3.8	7.46e-01	0	28	104	0	86	10911
2026-01-14 00:08:55.90	355.70	17.75	-61.0	-70.7	3.8	7.45e-01	0	28	104	0	86	10884
2026-01-14 00:08:56.91	355.42	17.85	-61.0	-70.8	3.8	7.45e-01	0	27	104	0	86	10912
2026-01-14 00:08:57.90	355.14	17.95	-61.0	-70.8	3.8	7.47e-01	0	28	104	0	86	10936
2026-01-14 00:08:58.90	354.85	18.05	-61.0	-70.7	3.8	7.46e-01	0	28	104	0	86	10890
2026-01-14 00:08:59.90	354.57	18.15	-61.0	-70.7	3.8	7.46e-01	0	27	104	0	86	10882
2026-01-14 00:09:00.90	354.28	18.25	-61.0	-70.8	3.8	7.46e-01	0	28	104	0	86	10910
2026-01-14 00:09:01.89	353.99	18.34	-61.0	-70.7	3.8	7.45e-01	0	28	104	0	86	10893
2026-01-14 00:09:02.89	353.70	18.44	-61.0	-70.7	3.8	7.46e-01	0	28	104	0	86	10897
2026-01-14 00:09:03.90	353.40	18.54	-61.0	-70.7	3.8	7.45e-01	0	28	104	0	86	10873
2026-01-14 00:09:04.90	353.11	18.64	-61.0	-70.7	3.8	7.46e-01	0	28	104	0	86	10871
2026-01-14 00:09:05.90	352.81	18.74	-61.0	-70.7	3.8	7.47e-01	0	28	104	0	86	10898
2026-01-14 00:09:06.90	352.50	18.83	-61.0	-70.7	3.8	7.44e-01	0	28	104	0	86	10903
2026-01-14 00:09:07.89	352.20	18.93	-61.0	-70.8	3.8	7.47e-01	0	28	104	0	86	10925
2026-01-14 00:09:08.89	351.90	19.03	-61.0	-70.7	3.8	7.46e-01	0	28	104	0	86	10882
2026-01-14 00:09:09.89	351.59	19.12	-61.0	-70.8	3.8	7.45e-01	0	28	104	0	86	10914
2026-01-14 00:09:10.88	351.28	19.22	-61.0	-70.7	3.8	7.45e-01	0	28	104	0	86	10841
2026-01-14 00:09:11.87	350.97	19.32	-61.0	-70.8	3.8	7.46e-01	0	28	104	0	86	10909
2026-01-14 00:09:12.87	350.66	19.41	-61.0	-70.7	3.8	7.46e-01	0	28	104	0	86	10868
2026-01-14 00:09:13.87	350.34	19.51	-61.0	-70.8	3.8	7.45e-01	0	28	104	0	86	10932
2026-01-14 00:09:14.87	350.02	19.60	-61.0	-70.7	3.8	7.45e-01	0	28	104	0	86	10877
2026-01-14 00:09:15.87	349.70	19.70	-61.0	-70.7	3.8	7.46e-01	0	28	104	0	86	10884
2026-01-14 00:09:16.87	349.37	19.79	-61.0	-70.7	3.8	7.46e-01	0	28	104	0	86	10882
2026-01-14 00:09:17.86	349.05	19.88	-61.0	-70.7	3.8	7.46e-01	0	28	104	0	86	10875
2026-01-14 00:09:18.86	348.72	19.98	-61.0	-70.8	3.8	7.44e-01	0	28	104	0	86	10908
2026-01-14 00:09:19.86	348.39	20.07	-61.0	-70.7	3.8	7.44e-01	0	28	104	0	86	10880
2026-01-14 00:09:20.86	348.06	20.16	-61.0	-70.8	3.8	7.44e-01	0	28	104	0	86	10925
2026-01-14 00:09:21.86	347.72	20.26	-61.0	-70.7	3.8	7.44e-01	0	28	104	0	86	10868
2026-01-14 00:09:22.86	347.38	20.35	-61.0	-70.7	3.8	7.47e-01	0	28	104	0	86	10868
2026-01-14 00:09:23.86	347.04	20.44	-61.0	-70.8	3.8	7.46e-01	0	28	104	0	86	10906
2026-01-14 00:09:24.86	346.70	20.53	-61.0	-70.7	3.8	7.45e-01	0	28	104	0	86	10854
2026-01-14 00:09:25.86	346.35	20.62	-61.0	-70.7	3.8	7.45e-01	0	28	104	0	86	10868
2026-01-14 00:09:26.87	346.00	20.71	-61.0	-70.7	3.8	7.44e-01	0	28	104	0	86	10894
2026-01-14 00:09:27.87	345.65	20.80	-61.0	-70.7	3.8	7.45e-01	0	28	104	0	86	10896
2026-01-14 00:09:28.87	345.30	20.89	-61.0	-70.7	3.8	7.44e-01	0	28	104	0	86	10876
2026-01-14 00:09:29.87	344.94	20.97	-61.0	-70.8	3.8	7.45e-01	0	28	104	0	86	10912
2026-01-14 00:09:30.87	344.59	21.06	-61.0	-70.8	3.8	7.46e-01	0	28	104	0	86	10923
2026-01-14 00:09:31.87	344.23	21.15	-61.0	-70.7	3.8	7.47e-01	0	28	104	0	86	10870
2026-01-14 00:09:32.87	343.87	21.23	-61.0	-70.7	3.8	7.47e-01	0	27	104	0	86	10865
2026-01-14 00:09:33.87	343.50	21.32	-61.0	-70.7	3.8	7.45e-01	0	28	104	0	86	10890
2026-01-14 00:09:34.87	343.14	21.40	-61.0	-70.7	3.8	7.47e-01	0	28	104	0	86	10873
2026-01-14 00:09:35.87	342.77	21.48	-61.0	-70.7	3.8	7.46e-01	0	28	104	0	86	10854
2026-01-14 00:09:36.87	342.40	21.57	-61.0	-70.7	3.8	7.46e-01	0	28	104	0	86	10852
2026-01-14 00:09:37.86	342.03	21.65	-61.0	-70.8	3.8	7.45e-01	0	28	104	0	86	10911
2026-01-14 00:09:38.86	341.65	21.73	-61.0	-70.7	3.8	7.46e-01	0	28	104	0	86	10872
2026-01-14 00:09:39.86	341.27	21.81	-61.0	-70.7	3.8	7.47e-01	0	28	104	0	86	10895
2026-01-14 00:09:40.86	340.89	21.89	-61.0	-70.7	3.8	7.46e-01	0	28	104	0	86	10861
2026-01-14 00:09:41.86	340.51	21.96	-61.0	-70.7	3.8	7.45e-01	0	28	104	0	86	10848
2026-01-14 00:09:42.86	340.13	22.04	-61.0	-70.7	3.8	7.46e-01	0	28	104	0	86	10850
2026-01-14 00:09:43.87	339.74	22.12	-61.0	-70.7	3.8	7.47e-01	0	28	104	0	86	10896
2026-01-14 00:09:44.87	339.35	22.19	-61.0	-70.7	3.8	7.46e-01	0	28	104	0	86	10897
2026-01-14 00:09:45.88	338.96	22.27	-61.0	-70.7	3.8	7.46e-01	0	28	104	0	86	10859
2026-01-14 00:09:46.88	338.56	22.34	-61.0	-70.7	3.8	7.45e-01	0	28	104	0	86	10868
2026-01-14 00:09:47.88	338.17	22.41	-61.0	-70.7	3.8	7.46e-01	0	28	104	0	86	10882
2026-01-14 00:09:48.88	337.77	22.48	-61.0	-70.7	3.8	7.47e-01	0	28	104	0	86	10868
2026-01-14 00:09:49.88	337.37	22.55	-61.0	-70.7	3.8	7.44e-01	0	28	104	0	86	10886
2026-01-14 00:09:50.88	336.97	22.62	-61.0	-70.8	3.8	7.44e-01	0	27	104	0	86	10908
2026-01-14 00:09:51.89	336.56	22.69	-61.0	-70.7	3.8	7.45e-01	0	28	104	0	86	10863
2026-01-14 00:09:52.88	336.16	22.76	-61.0	-70.7	3.8	7.48e-01	0	28	104	0	86	10889
2026-01-14 00:09:53.88	335.76	22.82	-61.0	-70.8	3.8	7.47e-01	0	28	104	0	86	10914
2026-01-14 00:09:54.89	335.34	22.89	-61.0	-70.7	3.8	7.46e-01	0	28	104	0	86	10883
2026-01-14 00:09:55.88	334.94	22.95	-61.0	-70.7	3.8	7.45e-01	0	28	104	0	86	10889
2026-01-14 00:09:56.88	334.52	23.01	-61.0	-70.8	3.8	7.46e-01	0	27	104	0	86	10945
2026-01-14 00:09:57.89	334.10	23.07	-61.0	-70.8	3.8	7.45e-01	0	28	104	0	86	10909
2026-01-14 00:09:58.88	333.69	23.13	-61.0	-70.7	3.8	7.45e-01	0	28	104	0	86	10871
2026-01-14 00:09:59.89	333.27	23.19	-61.0	-70.7	3.8	7.44e-01	0	28	104	0	86	10883
2026-01-14 00:10:00.88	332.85	23.25	-61.0	-70.8	3.8	7.46e-01	0	28	104	0	86	10925
2026-01-14 00:10:01.89	332.43	23.30	-61.0	-70.8	3.8	7.45e-01	0	28	104	0	86	10959
2026-01-14 00:10:02.88	332.01	23.36	-61.0	-70.7	3.8	7.45e-01	0	28	104	0	86	10837
2026-01-14 00:10:03.88	331.59	23.41	-61.0	-70.7	3.8	7.45e-01	0	28	104	0	86	10863
2026-01-14 00:10:04.88	331.16	23.46	-61.0	-70.7	3.8	7.45e-01	0	28	104	0	86	10888
2026-01-14 00:10:05.87	330.73	23.51	-61.0	-70.7	3.8	7.44e-01	0	28	104	0	86	10863
2026-01-14 00:10:06.87	330.31	23.56	-61.0	-70.7	3.8	7.48e-01	0	28	104	0	86	10899
2026-01-14 00:10:07.87	329.87	23.60	-61.0	-70.7	3.8	7.46e-01	0	28	104	0	86	10850
2026-01-14 00:10:08.86	329.45	23.65	-61.0	-70.7	3.8	7.45e-01	0	28	104	0	86	10847
2026-01-14 00:10:09.85	329.02	23.69	-61.0	-70.7	3.8	7.44e-01	0	28	104	0	86	10902
2026-01-14 00:10:10.84	328.59	23.73	-61.0	-70.7	3.8	7.44e-01	0	28	104	0	86	10872
2026-01-14 00:10:11.84	328.15	23.77	-61.0	-70.7	3.8	7.45e-01	0	28	104	0	86	10884
2026-01-14 00:10:12.84	327.71	23.81	-61.0	-70.7	3.8	7.45e-01	0	28	104	0	86	10865
2026-01-14 00:10:13.85	327.27	23.85	-61.0	-70.7	3.8	7.44e-01	0	28	104	0	86	10840
2026-01-14 00:10:14.85	326.83	23.89	-61.0	-70.7	3.8	7.45e-01	0	28	104	0	86	10864
2026-01-14 00:10:15.84	326.39	23.92	-61.0	-70.7	3.8	7.44e-01	0	28	104	0	86	10900
2026-01-14 00:10:16.83	325.95	23.95	-61.0	-70.7	3.8	7.46e-01	0	28	104	0	86	10868
2026-01-14 00:10:17.83	325.51	23.98	-61.0	-70.7	3.8	7.46e-01	0	28	104	0	86	10895
2026-01-14 00:10:18.83	325.07	24.01	-61.0	-70.7	3.8	7.44e-01	0	28	104	0	86	10894
2026-01-14 00:10:19.83	324.62	24.04	-61.0	-70.7	3.8	7.45e-01	0	28	104	0	86	10883
2026-01-14 00:10:20.82	324.18	24.07	-61.0	-70.7	3.8	7.45e-01	0	28	104	0	86	10874
2026-01-14 00:10:21.83	323.73	24.09	-61.0	-70.7	3.8	7.47e-01	0	28	104	0	86	10878
2026-01-14 00:10:22.82	323.28	24.11	-61.0	-70.7	3.8	7.46e-01	0	28	104	0	86	10847
2026-01-14 00:10:23.82	322.84	24.14	-61.0	-70.7	3.8	7.46e-01	0	28	104	0	86	10901
2026-01-14 00:10:24.82	322.39	24.15	-61.0	-70.7	3.8	7.47e-01	0	28	104	0	86	10872
2026-01-14 00:10:25.83	321.93	24.17	-61.0	-70.7	3.8	7.45e-01	0	28	104	0	86	10874
2026-01-14 00:10:26.83	321.48	24.19	-61.0	-70.7	3.8	7.46e-01	0	28	104	0	86	10868
2026-01-14 00:10:27.83	321.03	24.20	-61.0	-70.7	3.8	7.45e-01	0	28	104	0	86	10891
2026-01-14 00:10:28.82	320.59	24.22	-61.0	-70.7	3.8	7.46e-01	0	28	104	0	86	10863
2026-01-14 00:10:29.82	320.13	24.23	-61.0	-70.7	3.8	7.47e-01	0	28	104	0	86	10868
2026-01-14 00:10:30.82	319.68	24.23	-61.0	-70.7	3.8	7.45e-01	0	28	104	0	86	10870
2026-01-14 00:10:31.82	319.23	24.24	-61.0	-70.7	3.8	7.46e-01	0	28	104	0	86	10814
2026-01-14 00:10:32.82	318.78	24.25	-61.0	-70.7	3.8	7.45e-01	0	28	104	0	86	10879
2026-01-14 00:10:33.82	318.33	24.25	-61.0	-70.7	3.8	7.44e-01	0	28	104	0	86	10815
2026-01-14 00:10:34.82	317.87	24.25	-61.0	-70.7	3.8	7.44e-01	0	28	104	0	86	10875
2026-01-14 00:10:35.82	317.42	24.25	-61.0	-70.7	3.8	7.46e-01	0	28	104	0	86	10901
2026-01-14 00:10:36.82	316.97	24.25	-61.0	-70.8	3.8	7.45e-01	0	28	104	0	86	10914
2026-01-14 00:10:37.82	316.52	24.25	-61.0	-70.7	3.8	7.45e-01	0	28	104	0	86	10863
2026-01-14 00:10:38.81	316.07	24.24	-61.0	-70.8	3.8	7.46e-01	0	28	104	0	86	10905
2026-01-14 00:10:39.82	315.61	24.24	-61.0	-70.7	3.8	7.45e-01	0	28	104	0	86	10841
2026-01-14 00:10:40.81	315.16	24.23	-61.0	-70.7	3.8	7.44e-01	0	28	104	0	86	10882
2026-01-14 00:10:41.82	314.71	24.22	-61.0	-70.7	3.8	7.47e-01	0	28	104	0	86	10855
2026-01-14 00:10:42.81	314.26	24.21	-61.0	-70.7	3.8	7.46e-01	0	28	104	0	86	10892
2026-01-14 00:10:43.81	313.81	24.19	-61.0	-70.7	3.8	7.45e-01	0	28	104	0	86	10820
2026-01-14 00:10:44.80	313.36	24.18	-61.0	-70.8	3.8	7.44e-01	0	28	104	0	86	10908
2026-01-14 00:10:45.81	312.91	24.16	-61.0	-70.7	3.8	7.46e-01	0	28	104	0	86	10889
2026-01-14 00:10:46.80	312.46	24.14	-61.0	-70.7	3.8	7.46e-01	0	28	104	0	86	10867
2026-01-14 00:10:47.80	312.01	24.12	-61.0	-70.7	3.8	7.45e-01	0	28	104	0	86	10852
2026-01-14 00:10:48.80	311.57	24.10	-61.0	-70.7	3.8	7.45e-01	0	28	104	0	86	10864
2026-01-14 00:10:49.81	311.11	24.07	-61.0	-70.7	3.8	7.46e-01	0	28	104	0	86	10877
2026-01-14 00:10:50.81	310.67	24.05	-61.0	-70.8	3.8	7.46e-01	0	28	104	0	86	10910
2026-01-14 00:10:51.81	310.22	24.02	-61.0	-70.7	3.8	7.43e-01	0	28	104	0	86	10864
2026-01-14 00:10:52.81	309.78	23.99	-61.0	-70.8	3.8	7.44e-01	0	28	104	0	86	10904
2026-01-14 00:10:53.81	309.33	23.96	-61.0	-70.7	3.8	7.46e-01	0	28	104	0	86	10874
2026-01-14 00:10:54.81	308.89	23.93	-61.0	-70.7	3.8	7.45e-01	0	28	104	0	86	10846
2026-01-14 00:10:55.80	308.45	23.89	-61.0	-70.7	3.8	7.47e-01	0	28	104	0	86	10839
2026-01-14 00:10:56.80	308.01	23.86	-61.0	-70.8	3.8	7.47e-01	0	28	104	0	86	10918
2026-01-14 00:10:57.79	307.58	23.82	-61.0	-70.7	3.8	7.46e-01	0	28	104	0	86	10888
2026-01-14 00:10:58.80	307.13	23.78	-61.0	-70.7	3.8	7.47e-01	0	28	104	0	86	10869
2026-01-14 00:10:59.80	306.70	23.74	-61.0	-70.7	3.8	7.45e-01	0	28	104	0	86	10858
2026-01-14 00:11:00.79	306.27	23.70	-61.0	-70.7	3.8	7.45e-01	0	28	104	0	86	10866
2026-01-14 00:11:01.78	305.83	23.66	-61.0	-70.7	3.8	7.45e-01	0	28	104	0	86	10893
2026-01-14 00:11:02.78	305.40	23.61	-61.0	-70.7	3.8	7.46e-01	0	28	104	0	86	10882
2026-01-14 00:11:03.78	304.97	23.57	-61.0	-70.7	3.8	7.45e-01	0	28	104	0	86	10843
2026-01-14 00:11:04.77	304.54	23.52	-61.0	-70.7	3.8	7.45e-01	0	28	104	0	86	10830
2026-01-14 00:11:05.76	304.12	23.47	-61.0	-70.7	3.8	7.46e-01	0	28	104	0	86	10855
2026-01-14 00:11:06.76	303.69	23.42	-61.0	-70.7	3.8	7.46e-01	0	28	104	0	86	10891
2026-01-14 00:11:07.76	303.27	23.37	-61.0	-70.7	3.8	7.43e-01	0	28	104	0	86	10863
2026-01-14 00:11:08.76	302.84	23.31	-61.0	-70.7	3.8	7.46e-01	0	28	104	0	86	10868
2026-01-14 00:11:09.76	302.42	23.26	-61.0	-70.7	3.8	7.46e-01	0	28	104	0	86	10838
2026-01-14 00:11:10.75	302.00	23.20	-61.0	-70.7	3.8	7.46e-01	0	28	104	0	86	10834
2026-01-14 00:11:11.75	301.58	23.15	-61.0	-70.7	3.8	7.46e-01	0	28	104	0	86	10873
2026-01-14 00:11:12.75	301.17	23.09	-61.0	-70.7	3.8	7.45e-01	0	28	104	0	86	10879
2026-01-14 00:11:13.75	300.75	23.03	-61.0	-70.7	3.8	7.44e-01	0	28	104	0	86	10875
2026-01-14 00:11:14.75	300.34	22.97	-61.0	-70.7	3.8	7.45e-01	0	28	104	0	86	10841
2026-01-14 00:11:15.75	299.92	22.90	-61.0	-70.7	3.8	7.45e-01	0	28	104	0	86	10888
2026-01-14 00:11:16.74	299.52	22.84	-61.0	-70.7	3.8	7.45e-01	0	28	104	0	86	10862
2026-01-14 00:11:17.73	299.11	22.77	-61.0	-70.7	3.8	7.46e-01	0	28	104	0	86	10877
2026-01-14 00:11:18.73	298.71	22.71	-61.0	-70.7	3.8	7.44e-01	0	28	104	0	86	10839
2026-01-14 00:11:19.73	298.30	22.64	-61.0	-70.7	3.8	7.46e-01	0	28	104	0	86	10888
2026-01-14 00:11:20.73	297.90	22.57	-61.0	-70.7	3.8	7.45e-01	0	28	104	0	86	10887
2026-01-14 00:11:21.73	297.50	22.50	-61.0	-70.7	3.8	7.45e-01	0	28	104	0	86	10854
2026-01-14 00:11:22.73	297.10	22.43	-61.0	-70.7	3.8	7.45e-01	0	28	104	0	86	10866
2026-01-14 00:11:23.73	296.71	22.36	-61.0	-70.7	3.8	7.46e-01	0	28	104	0	86	10877
2026-01-14 00:11:24.73	296.31	22.29	-61.0	-70.7	3.8	7.47e-01	0	28	104	0	86	10873
2026-01-14 00:11:25.72	295.92	22.21	-61.0	-70.7	3.8	7.44e-01	0	28	104	0	86	10866
2026-01-14 00:11:26.73	295.53	22.14	-61.0	-70.7	3.8	7.43e-01	0	28	104	0	86	10868
2026-01-14 00:11:27.73	295.14	22.06	-61.0	-70.7	3.8	7.46e-01	0	28	104	0	86	10853
2026-01-14 00:11:28.72	294.76	21.98	-61.0	-70.7	3.8	7.45e-01	0	28	104	0	86	10852
2026-01-14 00:11:29.72	294.38	21.91	-61.0	-70.7	3.8	7.47e-01	0	28	104	0	86	10842
2026-01-14 00:11:30.72	294.00	21.83	-61.0	-70.7	3.8	7.46e-01	0	28	104	0	86	10828
2026-01-14 00:11:31.71	293.62	21.75	-61.0	-70.7	3.8	7.47e-01	0	28	104	0	86	10867
2026-01-14 00:11:32.71	293.24	21.67	-61.0	-70.7	3.8	7.45e-01	0	28	104	0	86	10881
2026-01-14 00:11:33.71	292.87	21.59	-61.0	-70.7	3.8	7.45e-01	0	28	104	0	86	10864
2026-01-14 00:11:34.71	292.50	21.50	-61.0	-70.7	3.8	7.44e-01	0	28	104	0	86	10823
2026-01-14 00:11:35.71	292.13	21.42	-61.0	-70.7	3.8	7.45e-01	0	28	104	0	86	10860
2026-01-14 00:11:36.70	291.76	21.34	-61.0	-70.7	3.8	7.45e-01	0	28	104	0	86	10815
2026-01-14 00:11:37.70	291.40	21.25	-61.0	-70.7	3.8	7.45e-01	0	28	104	0	86	10881
2026-01-14 00:11:38.70	291.03	21.17	-61.0	-70.7	3.8	7.45e-01	0	28	104	0	86	10846
2026-01-14 00:11:39.70	290.67	21.08	-61.0	-70.7	3.8	7.45e-01	0	28	104	0	86	10864
2026-01-14 00:11:40.70	290.31	20.99	-61.0	-70.7	3.8	7.45e-01	0	28	104	0	86	10851
2026-01-14 00:11:41.70	289.96	20.91	-61.0	-70.7	3.8	7.44e-01	0	28	104	0	86	10855
2026-01-14 00:11:42.69	289.61	20.82	-61.0	-70.7	3.8	7.45e-01	0	28	104	0	86	10866
2026-01-14 00:11:43.69	289.25	20.73	-61.0	-70.7	3.8	7.46e-01	0	28	104	0	86	10870
2026-01-14 00:11:44.69	288.90	20.64	-61.0	-70.7	3.8	7.45e-01	0	28	104	0	86	10860
2026-01-14 00:11:45.67	288.56	20.55	-61.0	-70.7	3.8	7.45e-01	0	28	104	0	86	10869
2026-01-14 00:11:46.67	288.22	20.46	-61.0	-70.8	3.8	7.47e-01	0	28	104	0	86	10906
2026-01-14 00:11:47.66	287.88	20.37	-61.0	-70.7	3.8	7.46e-01	0	28	104	0	86	10897
2026-01-14 00:11:48.66	287.54	20.28	-61.0	-70.7	3.8	7.46e-01	0	28	104	0	86	10857
2026-01-14 00:11:49.66	287.20	20.19	-61.0	-70.7	3.8	7.47e-01	0	28	104	0	86	10842
2026-01-14 00:11:50.65	286.87	20.10	-61.0	-70.7	3.8	7.44e-01	0	28	104	0	86	10898
2026-01-14 00:11:51.65	286.54	20.00	-61.0	-70.7	3.8	7.43e-01	0	28	104	0	86	10830
2026-01-14 00:11:52.64	286.21	19.91	-61.0	-70.7	3.8	7.46e-01	0	28	104	0	86	10876
2026-01-14 00:11:53.64	285.88	19.82	-61.0	-70.7	3.8	7.47e-01	0	28	104	0	86	10838
2026-01-14 00:11:54.64	285.55	19.72	-61.0	-70.7	3.8	7.46e-01	0	28	104	0	86	10847
2026-01-14 00:11:55.64	285.23	19.63	-61.0	-70.7	3.8	7.48e-01	0	28	104	0	86	10853
2026-01-14 00:11:56.64	284.91	19.53	-61.0	-70.7	3.8	7.45e-01	0	28	104	0	86	10869
2026-01-14 00:11:57.64	284.59	19.44	-61.0	-70.7	3.8	7.46e-01	0	28	104	0	86	10866
2026-01-14 00:11:58.63	284.28	19.34	-61.0	-70.7	3.8	7.46e-01	0	28	104	0	86	10882
2026-01-14 00:11:59.63	283.96	19.24	-61.0	-70.7	3.8	7.46e-01	0	28	104	0	86	10884
2026-01-14 00:12:00.63	283.65	19.15	-61.0	-70.7	3.8	7.46e-01	0	28	104	0	86	10830
2026-01-14 00:12:01.63	283.34	19.05	-61.0	-70.7	3.8	7.46e-01	0	28	104	0	86	10886
2026-01-14 00:12:02.63	283.03	18.95	-61.0	-70.7	3.8	7.46e-01	0	28	104	0	86	10846
2026-01-14 00:12:03.63	282.73	18.86	-61.0	-70.7	3.8	7.47e-01	0	28	104	0	86	10851
2026-01-14 00:12:04.63	282.42	18.76	-61.0	-70.7	3.8	7.46e-01	0	28	104	0	86	10863
2026-01-14 00:12:05.62	282.12	18.66	-61.0	-70.7	3.8	7.45e-01	0	28	104	0	86	10846
2026-01-14 00:12:06.63	281.82	18.56	-61.0	-70.7	3.8	7.46e-01	0	28	104	0	86	10851
2026-01-14 00:12:07.63	281.53	18.46	-61.0	-70.7	3.8	7.47e-01	0	28	104	0	86	10852
2026-01-14 00:12:08.63	281.23	18.36	-61.0	-70.7	3.8	7.46e-01	0	28	104	0	86	10901
2026-01-14 00:12:09.63	280.94	18.27	-61.0	-70.7	3.8	7.44e-01	0	28	104	0	86	10865
2026-01-14 00:12:10.63	280.65	18.17	-61.0	-70.7	3.8	7.47e-01	0	28	104	0	86	10874
2026-01-14 00:12:11.62	280.36	18.07	-61.0	-70.7	3.8	7.47e-01	0	28	104	0	86	10884
2026-01-14 00:12:12.62	280.08	17.97	-61.0	-70.7	3.8	7.46e-01	0	28	104	0	86	10863
2026-01-14 00:12:13.61	279.80	17.87	-61.0	-70.7	3.8	7.45e-01	0	28	104	0	86	10852
2026-01-14 00:12:14.60	279.52	17.77	-61.0	-70.7	3.8	7.48e-01	0	28	104	0	86	10856
2026-01-14 00:12:15.60	279.24	17.67	-61.0	-70.7	3.8	7.46e-01	0	28	104	0	86	10886
2026-01-14 00:12:16.59	278.97	17.57	-61.0	-70.7	3.8	7.46e-01	0	28	104	0	86	10836
2026-01-14 00:12:17.59	278.69	17.47	-61.0	-70.7	3.8	7.45e-01	0	28	104	0	86	10843
2026-01-14 00:12:18.59	278.42	17.37	-61.0	-70.7	3.8	7.44e-01	0	28	104	0	86	10852
2026-01-14 00:12:19.59	278.15	17.27	-61.0	-70.7	3.8	7.45e-01	0	28	104	0	86	10808
2026-01-14 00:12:20.58	277.88	17.18	-61.0	-70.7	3.8	7.45e-01	0	28	104	0	86	10870
2026-01-14 00:12:21.58	277.62	17.08	-61.0	-70.7	3.8	7.46e-01	0	28	104	0	86	10819
2026-01-14 00:12:22.58	277.35	16.98	-61.0	-70.7	3.8	7.46e-01	0	28	104	0	86	10881
2026-01-14 00:12:23.59	277.09	16.87	-61.0	-70.7	3.8	7.45e-01	0	28	104	0	86	10867
2026-01-14 00:12:24.59	276.83	16.77	-61.0	-70.7	3.8	7.43e-01	0	28	104	0	86	10860
2026-01-14 00:12:25.59	276.57	16.67	-61.0	-70.7	3.8	7.46e-01	0	28	104	0	86	10859
2026-01-14 00:12:26.57	276.32	16.58	-61.0	-70.7	3.8	7.47e-01	0	28	104	0	86	10871
2026-01-14 00:12:27.56	276.07	16.48	-61.0	-70.7	3.8	7.45e-01	0	28	104	0	86	10890
2026-01-14 00:12:28.56	275.81	16.38	-61.0	-70.7	3.8	7.45e-01	0	28	104	0	86	10836
2026-01-14 00:12:29.57	275.56	16.28	-61.0	-70.7	3.8	7.46e-01	0	28	104	0	86	10844
2026-01-14 00:12:30.57	275.31	16.18	-61.0	-70.7	3.8	7.45e-01	0	28	104	0	86	10845
2026-01-14 00:12:31.56	275.07	16.08	-61.0	-70.7	3.8	7.47e-01	0	27	104	0	86	10853
2026-01-14 00:12:32.56	274.83	15.98	-61.0	-70.7	3.8	7.45e-01	0	28	104	0	86	10838
2026-01-14 00:12:33.55	274.59	15.88	-61.0	-70.7	3.8	7.46e-01	0	28	104	0	86	10852
2026-01-14 00:12:34.55	274.34	15.78	-61.0	-70.7	3.8	7.43e-01	0	28	104	0	86	10846
2026-01-14 00:12:35.55	274.11	15.68	-61.0	-70.7	3.8	7.46e-01	0	27	104	0	86	10856
2026-01-14 00:12:36.54	273.87	15.58	-61.0	-70.7	3.8	7.45e-01	0	28	104	0	86	10841
2026-01-14 00:12:37.54	273.64	15.48	-61.0	-70.8	3.8	7.46e-01	0	28	104	0	86	10908
2026-01-14 00:12:38.54	273.40	15.38	-61.0	-70.8	3.8	7.47e-01	0	28	104	0	86	10904
2026-01-14 00:12:39.54	273.17	15.28	-61.0	-70.7	3.8	7.47e-01	0	28	104	0	86	10868
2026-01-14 00:12:40.54	272.94	15.18	-61.0	-70.7	3.8	7.46e-01	0	28	104	0	86	10825
2026-01-14 00:12:41.53	272.72	15.09	-61.0	-70.7	3.8	7.45e-01	0	28	104	0	86	10847
2026-01-14 00:12:42.53	272.49	14.99	-61.0	-70.7	3.8	7.47e-01	0	28	104	0	86	10845
2026-01-14 00:12:43.54	272.27	14.89	-60.9	-70.7	3.8	7.46e-01	0	28	104	0	86	10845
2026-01-14 00:12:44.54	272.04	14.79	-60.9	-70.7	3.8	7.45e-01	0	28	104	0	86	10819
2026-01-14 00:12:45.54	271.82	14.69	-61.0	-70.7	3.8	7.45e-01	0	28	104	0	86	10852
2026-01-14 00:12:46.53	271.61	14.59	-61.0	-70.7	3.8	7.46e-01	0	28	104	0	86	10829
2026-01-14 00:12:47.53	271.39	14.50	-61.0	-70.7	3.8	7.46e-01	0	28	104	0	86	10854
2026-01-14 00:12:48.52	271.18	14.40	-61.0	-70.7	3.8	7.45e-01	0	28	104	0	86	10852
2026-01-14 00:12:49.52	270.96	14.30	-60.9	-70.7	3.8	7.45e-01	0	28	104	0	86	10822
2026-01-14 00:12:50.53	270.75	14.20	-60.9	-70.7	3.8	7.44e-01	0	28	104	0	86	10786
2026-01-14 00:12:51.53	270.54	14.11	-60.9	-70.7	3.8	7.44e-01	0	28	104	0	86	10805
2026-01-14 00:12:52.53	270.33	14.01	-60.9	-70.6	3.8	7.46e-01	0	28	104	0	86	10772
2026-01-14 00:12:53.53	270.12	13.91	-61.0	-70.7	3.8	7.45e-01	0	28	104	0	86	10821
2026-01-14 00:12:54.53	269.92	13.82	-61.0	-70.7	3.8	7.46e-01	0	28	104	0	86	10839
2026-01-14 00:12:55.53	269.71	13.72	-61.0	-70.7	3.8	7.45e-01	0	28	104	0	86	10885
2026-01-14 00:12:56.53	269.51	13.62	-60.9	-70.7	3.8	7.45e-01	0	28	104	0	86	10830
2026-01-14 00:12:57.53	269.31	13.53	-61.0	-70.7	3.8	7.45e-01	0	28	104	0	86	10832
2026-01-14 00:12:58.53	269.11	13.43	-61.0	-70.7	3.8	7.46e-01	0	28	104	0	86	10850
2026-01-14 00:12:59.53	268.92	13.33	-61.0	-70.7	3.8	7.45e-01	0	28	104	0	86	10851
2026-01-14 00:13:00.54	268.72	13.24	-61.0	-70.7	3.8	7.45e-01	0	28	104	0	86	10848
2026-01-14 00:13:01.54	268.52	13.14	-60.9	-70.6	3.8	7.44e-01	0	28	104	0	86	10771
2026-01-14 00:13:02.53	268.33	13.05	-61.0	-70.6	3.8	7.46e-01	0	28	104	0	86	10776
2026-01-14 00:13:03.53	268.14	12.95	-60.9	-70.7	3.8	7.46e-01	0	28	104	0	86	10818
2026-01-14 00:13:04.53	267.95	12.86	-60.9	-70.7	3.8	7.46e-01	0	28	104	0	86	10818
2026-01-14 00:13:05.52	267.77	12.76	-61.0	-70.7	3.8	7.44e-01	0	28	104	0	86	10831
2026-01-14 00:13:06.53	267.58	12.67	-60.9	-70.7	3.8	7.44e-01	0	28	104	0	86	10818
2026-01-14 00:13:07.53	267.39	12.58	-60.9	-70.7	3.8	7.48e-01	0	28	104	0	86	10828
2026-01-14 00:13:08.53	267.21	12.48	-61.0	-70.7	3.8	7.46e-01	0	28	104	0	86	10852
2026-01-14 00:13:09.53	267.03	12.39	-60.9	-70.7	3.8	7.46e-01	0	28	104	0	86	10800
2026-01-14 00:13:10.53	266.85	12.29	-60.9	-70.7	3.8	7.44e-01	0	28	104	0	86	10828
2026-01-14 00:13:11.53	266.67	12.20	-61.0	-70.7	3.8	7.44e-01	0	28	104	0	86	10814
2026-01-14 00:13:12.53	266.49	12.11	-60.9	-70.7	3.8	7.44e-01	0	28	104	0	86	10806
2026-01-14 00:13:13.53	266.31	12.02	-60.9	-70.7	3.8	7.46e-01	0	28	104	0	86	10843
2026-01-14 00:13:14.53	266.14	11.92	-60.9	-70.7	3.8	7.46e-01	0	28	104	0	86	10806
2026-01-14 00:13:15.52	265.96	11.83	-60.9	-70.6	3.8	7.47e-01	0	28	104	0	86	10773
2026-01-14 00:13:16.52	265.79	11.74	-60.9	-70.7	3.8	7.44e-01	0	28	104	0	86	10786
2026-01-14 00:13:17.52	265.62	11.65	-60.9	-70.7	3.8	7.46e-01	0	28	104	0	86	10790
2026-01-14 00:13:18.52	265.45	11.56	-60.9	-70.7	3.8	7.45e-01	0	28	104	0	86	10809
2026-01-14 00:13:19.51	265.28	11.47	-60.9	-70.7	3.8	7.44e-01	0	28	104	0	86	10813
2026-01-14 00:13:20.51	265.11	11.38	-60.9	-70.7	3.8	7.46e-01	0	28	104	0	86	10797
2026-01-14 00:13:21.51	264.95	11.28	-60.9	-70.7	3.8	7.46e-01	0	28	104	0	86	10779
2026-01-14 00:13:22.51	264.78	11.19	-60.9	-70.6	3.8	7.45e-01	0	28	104	0	86	10778
2026-01-14 00:13:23.51	264.62	11.10	-60.9	-70.7	3.8	7.45e-01	0	28	104	0	86	10821
2026-01-14 00:13:24.52	264.45	11.01	-60.9	-70.7	3.8	7.46e-01	0	28	104	0	86	10786
2026-01-14 00:13:25.51	264.29	10.92	-60.9	-70.7	3.8	7.46e-01	0	28	104	0	86	10804
2026-01-14 00:13:26.50	264.14	10.84	-60.9	-70.7	3.8	7.45e-01	0	28	104	0	86	10799
2026-01-14 00:13:27.50	263.98	10.75	-60.9	-70.7	3.8	7.46e-01	0	28	104	0	86	10804
2026-01-14 00:13:28.51	263.82	10.66	-60.9	-70.7	3.8	7.45e-01	0	28	104	0	86	10830
2026-01-14 00:13:29.51	263.66	10.57	-60.9	-70.7	3.8	7.46e-01	0	28	104	0	86	10832
2026-01-14 00:13:30.51	263.51	10.48	-60.9	-70.7	3.8	7.45e-01	0	28	104	0	86	10840
2026-01-14 00:13:31.50	263.35	10.39	-60.9	-70.7	3.8	7.46e-01	0	28	104	0	86	10786
2026-01-14 00:13:32.51	263.20	10.30	-60.9	-70.7	3.8	7.47e-01	0	28	104	0	86	10785
2026-01-14 00:13:33.50	263.05	10.22	-60.9	-70.7	3.8	7.44e-01	0	28	104	0	86	10781
2026-01-14 00:13:34.50	262.90	10.13	-60.9	-70.7	3.8	7.48e-01	0	28	104	0	86	10794
2026-01-14 00:13:35.50	262.75	10.04	-60.9	-70.7	3.8	7.46e-01	0	28	104	0	86	10790
2026-01-14 00:13:36.50	262.60	9.95	-61.0	-70.6	3.8	7.46e-01	0	28	104	0	86	10771
2026-01-14 00:13:37.50	262.45	9.87	-60.9	-70.7	3.8	7.46e-01	0	28	104	0	86	10808
2026-01-14 00:13:38.51	262.31	9.78	-60.9	-70.7	3.8	7.46e-01	0	28	104	0	86	10837
2026-01-14 00:13:39.51	262.16	9.69	-60.9	-70.7	3.8	7.46e-01	0	28	104	0	86	10798
2026-01-14 00:13:40.51	262.02	9.61	-60.9	-70.6	3.8	7.45e-01	0	28	104	0	86	10754
2026-01-14 00:13:41.51	261.87	9.52	-60.9	-70.7	3.8	7.46e-01	0	28	104	0	86	10791
2026-01-14 00:13:42.50	261.73	9.44	-60.9	-70.6	3.8	7.46e-01	0	28	104	0	86	10766
2026-01-14 00:13:43.50	261.59	9.35	-60.9	-70.6	3.8	7.46e-01	0	28	104	0	86	10758
2026-01-14 00:13:44.49	261.45	9.27	-60.9	-70.7	3.8	7.46e-01	0	28	104	0	86	10785
2026-01-14 00:13:45.50	261.31	9.18	-60.9	-70.7	3.8	7.47e-01	0	28	104	0	86	10790
2026-01-14 00:13:46.50	261.18	9.10	-60.9	-70.7	3.8	7.46e-01	0	28	104	0	86	10808
2026-01-14 00:13:47.48	261.04	9.01	-60.9	-70.6	3.8	7.46e-01	0	28	104	0	86	10747
2026-01-14 00:13:48.48	260.91	8.93	-60.9	-70.7	3.8	7.46e-01	0	28	104	0	86	10827
2026-01-14 00:13:49.48	260.77	8.85	-60.9	-70.7	3.8	7.45e-01	0	28	104	0	86	10835
2026-01-14 00:13:50.48	260.64	8.76	-60.9	-70.7	3.8	7.44e-01	0	28	104	0	86	10846
2026-01-14 00:13:51.48	260.50	8.68	-60.9	-70.7	3.8	7.44e-01	0	28	104	0	86	10810
2026-01-14 00:13:52.47	260.37	8.60	-60.9	-70.7	3.8	7.45e-01	0	28	104	0	86	10837
2026-01-14 00:13:53.47	260.24	8.52	-60.9	-70.7	3.8	7.47e-01	0	28	104	0	86	10840
2026-01-14 00:13:54.47	260.11	8.43	-60.9	-70.7	3.8	7.46e-01	0	28	104	0	86	10784
2026-01-14 00:13:55.47	259.98	8.35	-60.9	-70.7	3.8	7.47e-01	0	28	104	0	86	10811
2026-01-14 00:13:56.47	259.86	8.27	-60.9	-70.7	3.8	7.46e-01	0	28	104	0	86	10804
2026-01-14 00:13:57.47	259.73	8.19	-60.9	-70.6	3.8	7.45e-01	0	28	104	0	86	10778
2026-01-14 00:13:58.46	259.60	8.11	-60.9	-70.6	3.8	7.46e-01	0	28	104	0	86	10760
2026-01-14 00:13:59.47	259.48	8.02	-60.9	-70.7	3.8	7.46e-01	0	28	104	0	86	10785
2026-01-14 00:14:00.47	259.35	7.94	-60.9	-70.7	3.8	7.46e-01	0	28	104	0	86	10822
2026-01-14 00:14:01.46	259.23	7.86	-60.9	-70.7	3.8	7.45e-01	0	28	104	0	86	10804
2026-01-14 00:14:02.46	259.11	7.78	-60.9	-70.7	3.8	7.46e-01	0	28	104	0	86	10823
2026-01-14 00:14:03.46	258.98	7.70	-60.9	-70.7	3.8	7.48e-01	0	28	104	0	86	10821
2026-01-14 00:14:04.46	258.86	7.62	-60.9	-70.7	3.8	7.44e-01	0	28	104	0	86	10803
2026-01-14 00:14:05.46	258.74	7.54	-60.9	-70.6	3.8	7.46e-01	0	28	104	0	86	10761
2026-01-14 00:14:06.46	258.62	7.46	-60.9	-70.7	3.8	7.45e-01	0	28	104	0	86	10822
2026-01-14 00:14:07.46	258.50	7.38	-60.9	-70.7	3.8	7.45e-01	0	28	104	0	86	10811
2026-01-14 00:14:08.45	258.39	7.30	-61.0	-70.7	3.8	7.47e-01	0	28	104	0	86	10818
2026-01-14 00:14:09.46	258.27	7.22	-60.9	-70.7	3.8	7.45e-01	0	28	104	0	86	10825
2026-01-14 00:14:10.46	258.15	7.15	-60.9	-70.7	3.8	7.45e-01	0	28	104	0	86	10790
2026-01-14 00:14:11.45	258.04	7.07	-60.9	-70.6	3.8	7.46e-01	0	28	104	0	86	10774
2026-01-14 00:14:12.45	257.93	6.99	-60.9	-70.7	3.8	7.47e-01	0	28	104	0	86	10811
2026-01-14 00:14:13.44	257.81	6.91	-61.0	-70.7	3.8	7.45e-01	0	28	104	0	86	10834
2026-01-14 00:14:14.44	257.70	6.83	-60.9	-70.7	3.8	7.46e-01	0	28	104	0	86	10782
2026-01-14 00:14:15.43	257.59	6.76	-60.9	-70.7	3.8	7.45e-01	0	28	104	0	86	10779
2026-01-14 00:14:16.43	257.48	6.68	-60.9	-70.7	3.8	7.44e-01	0	28	104	0	86	10811
2026-01-14 00:14:17.43	257.37	6.60	-60.9	-70.7	3.8	7.46e-01	0	28	104	0	86	10779
2026-01-14 00:14:18.43	257.26	6.53	-60.9	-70.7	3.8	7.45e-01	0	28	104	0	86	10822
2026-01-14 00:14:19.42	257.15	6.45	-60.9	-70.7	3.8	7.45e-01	0	28	104	0	86	10835
2026-01-14 00:14:20.42	257.04	6.37	-60.9	-70.7	3.8	7.46e-01	0	28	104	0	86	10796
2026-01-14 00:14:21.42	256.93	6.30	-60.9	-70.7	3.8	7.45e-01	0	28	104	0	86	10812
2026-01-14 00:14:22.41	256.83	6.22	-60.9	-70.7	3.8	7.46e-01	0	28	104	0	86	10809
2026-01-14 00:14:23.41	256.72	6.15	-60.9	-70.7	3.8	7.47e-01	0	28	104	0	86	10795
2026-01-14 00:14:24.41	256.61	6.07	-60.9	-70.6	3.8	7.44e-01	0	28	104	0	86	10769
2026-01-14 00:14:25.41	256.51	6.00	-60.9	-70.6	3.8	7.45e-01	0	28	104	0	86	10773
2026-01-14 00:14:26.41	256.41	5.92	-60.9	-70.6	3.8	7.47e-01	0	28	104	0	86	10776
2026-01-14 00:14:27.41	256.30	5.85	-60.9	-70.7	3.8	7.45e-01	0	28	104	0	86	10831
2026-01-14 00:14:28.40	256.20	5.77	-60.9	-70.7	3.8	7.47e-01	0	28	104	0	86	10813
2026-01-14 00:14:29.39	256.10	5.70	-60.9	-70.7	3.8	7.45e-01	0	28	104	0	86	10820
2026-01-14 00:14:30.39	256.00	5.62	-60.9	-70.7	3.8	7.46e-01	0	28	104	0	86	10832
2026-01-14 00:14:31.39	255.90	5.55	-60.9	-70.6	3.8	7.45e-01	0	28	104	0	86	10772
2026-01-14 00:14:32.39	255.80	5.48	-60.9	-70.7	3.8	7.45e-01	0	28	104	0	86	10787
2026-01-14 00:14:33.39	255.70	5.40	-60.9	-70.6	3.8	7.46e-01	0	27	104	0	86	10761
2026-01-14 00:14:34.39	255.60	5.33	-60.9	-70.6	3.8	7.44e-01	0	28	104	0	86	10756
2026-01-14 00:14:35.39	255.50	5.26	-60.9	-70.7	3.8	7.46e-01	0	28	104	0	86	10785
2026-01-14 00:14:36.39	255.40	5.18	-60.9	-70.6	3.8	7.46e-01	0	28	104	0	86	10736
2026-01-14 00:14:37.39	255.31	5.11	-60.9	-70.6	3.8	7.46e-01	0	28	104	0	86	10767
2026-01-14 00:14:38.39	255.21	5.04	-60.9	-70.7	3.8	7.46e-01	0	28	104	0	86	10785
2026-01-14 00:14:39.38	255.12	4.96	-60.9	-70.7	3.8	7.46e-01	0	28	104	0	86	10783
2026-01-14 00:14:40.38	255.02	4.89	-60.9	-70.6	3.8	7.45e-01	0	28	104	0	86	10753
2026-01-14 00:14:41.37	254.93	4.82	-60.9	-70.7	3.8	7.46e-01	0	28	104	0	86	10797
2026-01-14 00:14:42.37	254.83	4.75	-60.9	-70.6	3.8	7.46e-01	0	28	104	0	86	10764
2026-01-14 00:14:43.37	254.74	4.68	-60.9	-70.6	3.8	7.45e-01	0	28	104	0	86	10770
2026-01-14 00:14:44.38	254.65	4.61	-60.9	-70.6	3.8	7.44e-01	0	28	104	0	86	10773
2026-01-14 00:14:45.37	254.56	4.54	-60.9	-70.6	3.8	7.44e-01	0	28	104	0	86	10743
2026-01-14 00:14:46.37	254.46	4.46	-60.9	-70.7	3.8	7.47e-01	0	28	104	0	86	10792
2026-01-14 00:14:47.37	254.37	4.39	-60.9	-70.6	3.8	7.47e-01	0	28	104	0	86	10767
2026-01-14 00:14:48.36	254.28	4.32	-60.9	-70.7	3.8	7.43e-01	0	28	104	0	86	10795
2026-01-14 00:14:49.36	254.20	4.25	-60.9	-70.7	3.8	7.46e-01	0	28	104	0	86	10798
2026-01-14 00:14:50.37	254.11	4.18	-60.9	-70.6	3.8	7.46e-01	0	28	104	0	86	10734
2026-01-14 00:14:51.36	254.02	4.11	-60.9	-70.6	3.8	7.46e-01	0	28	104	0	86	10753
2026-01-14 00:14:52.36	253.93	4.04	-60.9	-70.6	3.8	7.46e-01	0	28	104	0	86	10768
2026-01-14 00:14:53.35	253.84	3.97	-60.9	-70.6	3.8	7.45e-01	0	28	104	0	86	10771
2026-01-14 00:14:54.36	253.76	3.90	-60.9	-70.6	3.8	7.46e-01	0	28	104	0	86	10743
2026-01-14 00:14:55.35	253.67	3.83	-60.9	-70.6	3.8	7.44e-01	0	28	104	0	86	10734
2026-01-14 00:14:56.35	253.58	3.77	-60.9	-70.6	3.8	7.46e-01	0	28	104	0	86	10761
2026-01-14 00:14:57.35	253.50	3.70	-60.9	-70.6	3.8	7.45e-01	0	28	104	0	86	10764
2026-01-14 00:14:58.34	253.42	3.63	-60.9	-70.6	3.8	7.47e-01	0	28	104	0	86	10752
2026-01-14 00:14:59.34	253.33	3.56	-60.9	-70.6	3.8	7.46e-01	0	28	104	0	86	10749
2026-01-14 00:15:00.35	253.25	3.49	-60.9	-70.7	3.8	7.45e-01	0	28	104	0	86	10787
2026-01-14 00:15:01.34	253.16	3.42	-60.9	-70.6	3.8	7.46e-01	0	28	104	0	86	10770
2026-01-14 00:15:02.35	253.08	3.35	-60.9	-70.6	3.8	7.44e-01	0	28	104	0	86	10756
2026-01-14 00:15:03.34	253.00	3.29	-60.9	-70.6	3.8	7.45e-01	0	28	104	0	86	10757
2026-01-14 00:15:04.34	252.92	3.22	-60.9	-70.7	3.8	7.45e-01	0	28	104	0	86	10779
2026-01-14 00:15:05.35	252.84	3.15	-60.9	-70.6	3.8	7.44e-01	0	28	104	0	86	10730
2026-01-14 00:15:06.34	252.76	3.08	-60.9	-70.7	3.8	7.45e-01	0	28	104	0	86	10782
2026-01-14 00:15:07.34	252.68	3.02	-60.9	-70.7	3.8	7.45e-01	0	28	104	0	86	10800
2026-01-14 00:15:08.33	252.60	2.95	-60.9	-70.6	3.8	7.46e-01	0	28	104	0	86	10747
2026-01-14 00:15:09.33	252.52	2.88	-60.9	-70.7	3.8	7.45e-01	0	28	104	0	86	10786
2026-01-14 00:15:10.33	252.44	2.82	-60.9	-70.6	3.8	7.46e-01	0	28	104	0	86	10774
2026-01-14 00:15:11.33	252.36	2.75	-60.9	-70.6	3.8	7.46e-01	0	28	104	0	86	10774
2026-01-14 00:15:12.33	252.28	2.68	-60.9	-70.6	3.8	7.43e-01	0	28	104	0	86	10770
2026-01-14 00:15:13.32	252.21	2.62	-60.9	-70.6	3.8	7.47e-01	0	28	104	0	86	10760
2026-01-14 00:15:14.32	252.13	2.55	-60.9	-70.6	3.8	7.46e-01	0	28	104	0	86	10777
2026-01-14 00:15:15.32	252.05	2.49	-60.9	-70.6	3.8	7.45e-01	0	28	104	0	86	10755
2026-01-14 00:15:16.31	251.98	2.42	-60.9	-70.7	3.8	7.47e-01	0	28	104	0	86	10812
2026-01-14 00:15:17.30	251.90	2.36	-60.9	-70.7	3.8	7.46e-01	0	28	104	0	86	10786
2026-01-14 00:15:18.30	251.83	2.29	-60.9	-70.6	3.8	7.46e-01	0	28	104	0	86	10763
2026-01-14 00:15:19.30	251.75	2.23	-60.9	-70.7	3.8	7.46e-01	0	28	104	0	86	10813
2026-01-14 00:15:20.30	251.68	2.16	-60.9	-70.6	3.8	7.45e-01	0	28	104	0	86	10738
2026-01-14 00:15:21.29	251.61	2.10	-60.9	-70.7	3.8	7.45e-01	0	28	104	0	86	10787
2026-01-14 00:15:22.29	251.53	2.03	-60.9	-70.7	3.8	7.47e-01	0	28	104	0	86	10815
2026-01-14 00:15:23.29	251.46	1.97	-60.9	-70.6	3.8	7.44e-01	0	28	104	0	86	10752

#Closed at: 2026-01-14 00:15:23
#Recorded file [0 MB]: D:/lorett/data/31004_260114_030548.dat