passes_logs/2026/01/14/R3.2S_Murmansk/R3.2S_Murmansk__20260114_140912_FENGYUN_3D_rec.log

#Pass ID: 20260114_140912_FENGYUN 3D
#Satellite: FENGYUN 3D
#Configuration: FENGYUN 3D
#almurnet v.1.7.20251203
#Start time: 2026-01-14 14:09:13

#Version: 2.2.20231116
#Station: R3.2S_Murmansk
#Location: 33.079688 lon 68.888172 lat
#TLE: 1 43010U 17072A   26013.94640698 -.00000044  00000+0  88349-6 0  9999
#TLE: 2 43010  98.9934 345.7464 0002313 110.9627 249.1796 14.19695403423100

#Time	Az	El	Level	Level2	SNR	BER	BlckErr	Temp	State	Recorded	gain1	gain2
2026-01-14 14:09:13.84	217.58	2.06	-58.4	-71.4	3.8	8.45e-01	0	25	0	0	83	15681
2026-01-14 14:09:14.84	217.66	2.11	-58.3	-71.3	3.8	8.45e-01	0	26	104	0	81	17306
2026-01-14 14:09:15.86	217.73	2.16	-58.3	-71.2	3.8	8.46e-01	0	25	104	0	81	17126
2026-01-14 14:09:16.87	217.81	2.22	-58.3	-71.2	3.8	8.46e-01	0	25	104	0	81	17250
2026-01-14 14:09:17.87	217.89	2.27	-58.3	-71.3	3.8	8.45e-01	0	26	104	0	81	17383
2026-01-14 14:09:18.88	217.97	2.33	-58.3	-71.3	3.8	8.46e-01	0	26	104	0	81	17378
2026-01-14 14:09:19.89	218.05	2.38	-58.3	-71.3	3.8	8.46e-01	0	26	104	0	81	17330
2026-01-14 14:09:20.90	218.13	2.44	-58.3	-71.2	3.8	8.46e-01	0	26	104	0	81	17258
2026-01-14 14:09:21.91	218.21	2.49	-58.3	-71.2	3.8	8.45e-01	0	26	104	0	81	17272
2026-01-14 14:09:22.92	218.29	2.54	-58.3	-71.1	3.8	8.46e-01	0	26	104	0	81	17056
2026-01-14 14:09:23.93	218.37	2.60	-58.3	-71.2	3.8	8.44e-01	0	26	104	0	81	17153
2026-01-14 14:09:24.94	218.45	2.65	-58.3	-71.2	3.8	8.45e-01	0	26	104	0	81	17227
2026-01-14 14:09:25.94	218.53	2.71	-58.3	-71.3	3.8	8.46e-01	0	26	104	0	81	17321
2026-01-14 14:09:26.96	218.61	2.76	-58.3	-71.4	3.8	8.46e-01	0	26	104	0	81	17491
2026-01-14 14:09:27.96	218.69	2.82	-58.3	-71.3	3.8	8.45e-01	0	26	104	0	81	17431
2026-01-14 14:09:28.97	218.77	2.87	-58.3	-71.3	3.8	8.47e-01	0	26	104	0	81	17401
2026-01-14 14:09:29.98	218.85	2.93	-58.3	-71.3	3.8	8.45e-01	0	26	104	0	81	17341
2026-01-14 14:09:30.99	218.93	2.98	-58.3	-71.2	3.8	8.44e-01	0	26	104	0	81	17259
2026-01-14 14:09:32.00	219.02	3.04	-58.3	-71.2	3.8	8.45e-01	0	26	104	0	81	17128
2026-01-14 14:09:33.01	219.10	3.09	-58.3	-71.2	3.8	8.46e-01	0	26	104	0	81	17265
2026-01-14 14:09:34.02	219.18	3.15	-58.3	-71.3	3.8	8.46e-01	0	26	104	0	81	17336
2026-01-14 14:09:35.03	219.27	3.20	-58.3	-71.3	3.8	8.46e-01	0	26	104	0	81	17404
2026-01-14 14:09:36.03	219.35	3.26	-58.3	-71.3	3.8	8.45e-01	0	26	104	0	81	17319
2026-01-14 14:09:37.04	219.43	3.31	-58.3	-71.3	3.8	8.45e-01	0	26	104	0	81	17397
2026-01-14 14:09:38.05	219.52	3.37	-58.3	-71.3	3.8	8.47e-01	0	26	104	0	81	17402
2026-01-14 14:09:39.06	219.60	3.42	-58.3	-71.3	3.8	8.45e-01	0	26	104	0	81	17412
2026-01-14 14:09:40.07	219.69	3.48	-58.3	-71.4	3.8	8.45e-01	0	26	104	0	81	17490
2026-01-14 14:09:41.07	219.77	3.53	-58.3	-71.3	3.8	8.47e-01	0	26	104	0	81	17393
2026-01-14 14:09:42.08	219.85	3.59	-58.3	-71.3	3.9	8.46e-01	0	26	104	0	81	17305
2026-01-14 14:09:43.09	219.94	3.65	-58.3	-71.1	3.8	8.46e-01	0	26	104	0	81	17022
2026-01-14 14:09:44.10	220.03	3.70	-58.3	-71.1	3.8	8.45e-01	0	26	104	0	81	16893
2026-01-14 14:09:45.10	220.11	3.76	-58.3	-71.0	3.8	8.45e-01	0	26	104	0	81	16858
2026-01-14 14:09:46.12	220.20	3.81	-58.3	-70.8	3.8	8.45e-01	0	26	104	0	81	16362
2026-01-14 14:09:47.12	220.29	3.87	-58.3	-70.8	3.8	8.45e-01	0	26	104	0	81	16402
2026-01-14 14:09:48.13	220.37	3.92	-58.3	-70.5	3.8	8.45e-01	0	26	104	0	81	15940
2026-01-14 14:09:49.14	220.46	3.98	-58.2	-70.2	3.8	8.44e-01	0	26	104	0	81	15285
2026-01-14 14:09:50.15	220.55	4.04	-58.2	-70.4	3.8	8.46e-01	0	26	104	0	81	15694
2026-01-14 14:09:51.16	220.64	4.09	-58.2	-70.1	3.8	8.45e-01	0	26	104	0	81	15200
2026-01-14 14:09:52.17	220.72	4.15	-58.3	-70.6	3.8	8.45e-01	0	27	104	0	81	16035
2026-01-14 14:09:53.17	220.81	4.21	-58.3	-71.0	3.8	8.47e-01	0	26	104	0	81	16735
2026-01-14 14:09:54.18	220.90	4.26	-58.3	-71.3	3.8	8.46e-01	0	26	104	0	81	17298
2026-01-14 14:09:55.19	220.99	4.32	-58.3	-71.1	3.8	8.45e-01	0	27	104	0	81	16963
2026-01-14 14:09:56.20	221.08	4.37	-58.2	-70.2	3.8	8.45e-01	0	27	104	0	81	15387
2026-01-14 14:09:57.21	221.17	4.43	-58.1	-68.7	4.0	8.44e-01	0	26	104	0	81	12917
2026-01-14 14:09:58.22	221.26	4.49	-57.9	-66.9	4.5	8.24e-01	0	27	0	0	81	10486
2026-01-14 14:09:59.23	221.35	4.55	-57.8	-66.6	4.6	8.14e-01	0	26	0	0	81	10063
2026-01-14 14:10:00.24	221.44	4.60	-57.6	-64.9	5.4	7.23e-01	0	26	0	0	81	8356
2026-01-14 14:10:01.25	221.54	4.66	-57.6	-65.2	5.2	7.02e-01	0	27	0	2097152	81	8636
2026-01-14 14:10:02.26	221.63	4.72	-57.6	-65.2	5.2	7.34e-01	0	27	0	3145728	81	8635
2026-01-14 14:10:03.26	221.72	4.77	-57.2	-63.5	6.3	3.14e-01	0	27	0	7340032	81	7093
2026-01-14 14:10:04.27	221.81	4.83	-56.8	-62.2	7.4	1.13e-01	0	27	0	12582912	80	6446
2026-01-14 14:10:05.28	221.90	4.89	-56.1	-60.4	8.9	3.41e-02	0	27	0	18874368	78	5861
2026-01-14 14:10:06.29	222.00	4.94	-55.2	-58.6	10.4	2.71e-03	0	26	0	24117248	77	5061
2026-01-14 14:10:07.30	222.09	5.00	-54.3	-57.1	11.4	8.69e-05	0	27	0	30408704	75	4813
2026-01-14 14:10:08.31	222.18	5.06	-53.5	-56.0	12.1	5.70e-06	0	27	0	35651584	73	4712
2026-01-14 14:10:09.31	222.28	5.11	-54.3	-57.2	11.3	2.20e-06	0	27	0	41943040	73	5440
2026-01-14 14:10:10.32	222.37	5.17	-57.4	-64.3	5.5	8.43e-01	0	27	104	42991616	81	7794
2026-01-14 14:10:11.33	222.47	5.23	-52.2	-54.1	13.1	0.00e+00	0	27	0	47185920	69	4780
2026-01-14 14:10:12.34	222.56	5.29	-53.1	-55.2	12.6	8.23e-04	0	27	0	53477376	72	4579
2026-01-14 14:10:13.35	222.66	5.35	-49.9	-51.3	14.3	0.00e+00	0	27	0	58720256	66	4126
2026-01-14 14:10:14.36	222.75	5.40	-49.8	-51.2	14.2	0.00e+00	0	27	0	63963136	65	4338
2026-01-14 14:10:15.36	222.85	5.46	-49.9	-51.5	14.1	0.00e+00	0	27	0	70254592	65	4442
2026-01-14 14:10:16.38	222.95	5.52	-49.9	-51.3	14.1	0.00e+00	0	27	0	75497472	65	4389
2026-01-14 14:10:17.39	223.05	5.58	-49.5	-50.9	14.3	0.00e+00	0	27	0	81788928	65	4181
2026-01-14 14:10:18.39	223.14	5.63	-49.5	-50.9	14.3	0.00e+00	0	27	0	87031808	65	4182
2026-01-14 14:10:19.40	223.24	5.69	-49.8	-51.3	14.2	0.00e+00	0	27	0	92274688	65	4345
2026-01-14 14:10:20.41	223.34	5.75	-49.8	-51.3	14.2	0.00e+00	0	27	0	98566144	65	4360
2026-01-14 14:10:21.42	223.44	5.81	-50.0	-51.5	14.0	0.00e+00	0	27	0	103809024	65	4485
2026-01-14 14:10:22.43	223.54	5.87	-49.8	-51.3	14.2	0.00e+00	0	27	0	110100480	65	4346
2026-01-14 14:10:23.44	223.64	5.92	-49.7	-51.1	14.2	0.00e+00	0	27	0	115343360	65	4288
2026-01-14 14:10:24.45	223.73	5.98	-49.8	-51.2	14.2	0.00e+00	0	27	0	121634816	65	4331
2026-01-14 14:10:25.46	223.83	6.04	-49.8	-51.3	14.2	0.00e+00	0	27	0	126877696	65	4345
2026-01-14 14:10:26.46	223.93	6.10	-49.7	-51.1	14.2	0.00e+00	0	27	0	132120576	65	4282
2026-01-14 14:10:27.47	224.04	6.16	-49.7	-51.2	14.2	0.00e+00	0	27	0	138412032	65	4299
2026-01-14 14:10:28.48	224.14	6.22	-49.7	-51.1	14.3	0.00e+00	0	27	0	143654912	65	4283
2026-01-14 14:10:29.49	224.24	6.27	-49.7	-51.2	14.2	0.00e+00	0	27	0	149946368	65	4320
2026-01-14 14:10:30.50	224.34	6.33	-49.5	-50.9	14.4	0.00e+00	0	27	0	155189248	65	4174
2026-01-14 14:10:31.50	224.44	6.39	-49.4	-50.8	14.4	0.00e+00	0	27	0	160432128	65	4135
2026-01-14 14:10:32.51	224.54	6.45	-49.4	-50.8	14.4	0.00e+00	0	27	0	166723584	65	4143
2026-01-14 14:10:33.52	224.65	6.51	-49.5	-50.9	14.4	0.00e+00	0	27	0	171966464	65	4152
2026-01-14 14:10:34.53	224.75	6.57	-49.5	-50.9	14.4	0.00e+00	0	27	0	177209344	65	4191
2026-01-14 14:10:35.54	224.86	6.63	-49.4	-50.8	14.4	0.00e+00	0	27	0	183500800	65	4116
2026-01-14 14:10:36.55	224.96	6.69	-49.4	-50.8	14.5	0.00e+00	0	27	0	188743680	65	4106
2026-01-14 14:10:37.56	225.07	6.74	-49.4	-50.8	14.4	0.00e+00	0	27	0	195035136	65	4118
2026-01-14 14:10:38.57	225.17	6.80	-49.5	-50.9	14.4	0.00e+00	0	27	0	200278016	65	4180
2026-01-14 14:10:39.58	225.28	6.86	-49.4	-50.8	14.5	0.00e+00	0	27	0	206569472	65	4105
2026-01-14 14:10:40.59	225.38	6.92	-49.6	-51.0	14.4	0.00e+00	0	27	0	211812352	65	4211
2026-01-14 14:10:41.60	225.49	6.98	-49.5	-50.9	14.4	0.00e+00	0	27	0	218103808	65	4153
2026-01-14 14:10:42.61	225.60	7.04	-49.5	-50.9	14.4	0.00e+00	0	27	0	223346688	65	4170
2026-01-14 14:10:43.61	225.70	7.10	-49.4	-50.8	14.4	0.00e+00	0	27	0	228589568	65	4123
2026-01-14 14:10:44.62	225.81	7.16	-49.5	-50.9	14.4	0.00e+00	0	27	0	234881024	65	4154
2026-01-14 14:10:45.63	225.92	7.22	-49.4	-50.8	14.4	0.00e+00	0	27	0	240123904	65	4142
2026-01-14 14:10:46.64	226.03	7.28	-49.5	-51.0	14.4	0.00e+00	0	27	0	246415360	65	4201
2026-01-14 14:10:47.65	226.14	7.34	-49.3	-50.7	14.5	0.00e+00	0	27	0	251658240	65	4056
2026-01-14 14:10:48.65	226.24	7.40	-49.4	-50.8	14.4	0.00e+00	0	27	0	256901120	65	4131
2026-01-14 14:10:49.66	226.35	7.46	-49.5	-51.0	14.4	0.00e+00	0	27	0	263192576	65	4195
2026-01-14 14:10:50.67	226.46	7.52	-49.1	-50.5	14.5	0.00e+00	0	27	0	268435456	64	4203
2026-01-14 14:10:51.68	226.58	7.58	-49.0	-50.3	14.6	0.00e+00	0	27	0	273678336	64	4128
2026-01-14 14:10:52.69	226.69	7.64	-49.1	-50.5	14.5	0.00e+00	0	27	0	279969792	64	4219
2026-01-14 14:10:53.70	226.80	7.69	-49.0	-50.4	14.5	0.00e+00	0	27	0	285212672	64	4150
2026-01-14 14:10:54.71	226.91	7.75	-49.0	-50.3	14.6	0.00e+00	0	27	0	291504128	64	4124
2026-01-14 14:10:55.72	227.02	7.81	-49.1	-50.4	14.5	0.00e+00	0	27	0	296747008	64	4163
2026-01-14 14:10:56.73	227.14	7.87	-49.1	-50.4	14.5	0.00e+00	0	27	0	303038464	64	4182
2026-01-14 14:10:57.74	227.25	7.94	-49.1	-50.5	14.5	0.00e+00	0	27	0	308281344	64	4199
2026-01-14 14:10:58.75	227.36	8.00	-49.1	-50.4	14.5	0.00e+00	0	27	0	314572800	64	4191
2026-01-14 14:10:59.76	227.48	8.06	-49.1	-50.5	14.5	0.00e+00	0	27	0	319815680	64	4197
2026-01-14 14:11:00.77	227.59	8.12	-49.2	-50.6	14.5	0.00e+00	0	27	0	325058560	64	4247
2026-01-14 14:11:01.78	227.71	8.18	-49.0	-50.3	14.6	0.00e+00	0	27	0	331350016	64	4133
2026-01-14 14:11:02.79	227.82	8.24	-49.0	-50.3	14.6	0.00e+00	0	27	0	336592896	64	4124
2026-01-14 14:11:03.79	227.94	8.30	-48.9	-50.2	14.6	0.00e+00	0	27	0	342884352	64	4085
2026-01-14 14:11:04.80	228.05	8.36	-49.0	-50.3	14.6	0.00e+00	0	27	0	348127232	64	4114
2026-01-14 14:11:05.81	228.17	8.42	-48.8	-50.1	14.7	0.00e+00	0	27	0	353370112	64	4031
2026-01-14 14:11:06.82	228.29	8.48	-48.8	-50.1	14.7	0.00e+00	0	27	0	359661568	64	4044
2026-01-14 14:11:07.83	228.41	8.54	-48.6	-49.9	14.6	0.00e+00	0	27	0	364904448	63	4172
2026-01-14 14:11:08.84	228.53	8.60	-48.7	-50.0	14.6	0.00e+00	0	27	0	371195904	63	4198
2026-01-14 14:11:09.85	228.64	8.66	-48.7	-50.0	14.6	0.00e+00	0	27	0	376438784	63	4218
2026-01-14 14:11:10.86	228.76	8.72	-48.7	-50.0	14.6	0.00e+00	0	27	0	381681664	63	4229
2026-01-14 14:11:11.86	228.88	8.78	-48.7	-50.0	14.6	0.00e+00	0	27	0	387973120	63	4230
2026-01-14 14:11:12.88	229.00	8.84	-48.7	-50.0	14.6	0.00e+00	0	27	0	393216000	63	4235
2026-01-14 14:11:13.88	229.12	8.90	-48.7	-50.0	14.6	0.00e+00	0	27	0	399507456	63	4223
2026-01-14 14:11:14.89	229.25	8.96	-48.6	-49.9	14.7	0.00e+00	0	27	0	404750336	63	4168
2026-01-14 14:11:15.89	229.37	9.02	-48.5	-49.8	14.7	0.00e+00	0	27	0	411041792	63	4137
2026-01-14 14:11:16.91	229.49	9.08	-48.7	-49.9	14.6	0.00e+00	0	27	0	416284672	63	4191
2026-01-14 14:11:17.92	229.61	9.15	-48.5	-49.8	14.7	0.00e+00	0	27	0	421527552	63	4113
2026-01-14 14:11:18.93	229.74	9.21	-48.6	-49.8	14.7	0.00e+00	0	27	0	427819008	63	4137
2026-01-14 14:11:19.94	229.86	9.27	-48.5	-49.8	14.7	0.00e+00	0	27	0	433061888	63	4119
2026-01-14 14:11:20.94	229.98	9.33	-48.7	-50.0	14.6	0.00e+00	0	27	0	439353344	63	4212
2026-01-14 14:11:21.95	230.11	9.39	-48.7	-50.0	14.6	0.00e+00	0	27	0	444596224	63	4223
2026-01-14 14:11:22.96	230.23	9.45	-48.9	-50.2	14.5	0.00e+00	0	27	0	449839104	63	4325
2026-01-14 14:11:23.97	230.36	9.51	-48.9	-50.2	14.5	0.00e+00	0	27	0	456130560	63	4330
2026-01-14 14:11:24.98	230.49	9.57	-48.8	-50.1	14.6	0.00e+00	0	27	0	461373440	63	4251
2026-01-14 14:11:25.99	230.61	9.63	-48.7	-50.0	14.6	0.00e+00	0	27	0	467664896	63	4220
2026-01-14 14:11:27.00	230.74	9.69	-48.8	-50.1	14.6	0.00e+00	0	27	0	472907776	63	4247
2026-01-14 14:11:28.01	230.87	9.76	-48.7	-50.0	14.6	0.00e+00	0	27	0	478150656	63	4207
2026-01-14 14:11:29.02	231.00	9.82	-48.7	-49.9	14.6	0.00e+00	0	27	0	484442112	63	4193
2026-01-14 14:11:30.03	231.12	9.88	-48.4	-49.7	14.8	0.00e+00	0	27	0	489684992	63	4072
2026-01-14 14:11:31.04	231.25	9.94	-48.4	-49.7	14.8	0.00e+00	0	27	0	495976448	63	4064
2026-01-14 14:11:32.05	231.38	10.00	-48.5	-49.8	14.7	0.00e+00	0	27	0	501219328	63	4111
2026-01-14 14:11:33.06	231.51	10.06	-48.2	-49.4	14.9	0.00e+00	0	27	0	507510784	63	3946
2026-01-14 14:11:34.06	231.64	10.12	-48.1	-49.3	14.8	0.00e+00	0	27	0	512753664	62	4122
2026-01-14 14:11:35.07	231.78	10.19	-48.2	-49.4	14.7	0.00e+00	0	27	0	517996544	62	4180
2026-01-14 14:11:36.08	231.91	10.25	-48.1	-49.3	14.8	0.00e+00	0	27	0	524288000	62	4140
2026-01-14 14:11:37.09	232.04	10.31	-48.1	-49.4	14.7	0.00e+00	0	27	0	529530880	62	4158
2026-01-14 14:11:38.10	232.17	10.37	-48.2	-49.4	14.7	0.00e+00	0	27	0	535822336	62	4187
2026-01-14 14:11:39.11	232.31	10.43	-48.1	-49.4	14.8	0.00e+00	0	27	0	541065216	62	4151
2026-01-14 14:11:40.12	232.44	10.49	-48.1	-49.3	14.8	0.00e+00	0	27	0	546308096	62	4145
2026-01-14 14:11:41.13	232.58	10.55	-48.2	-49.5	14.7	0.00e+00	0	27	0	552599552	62	4209
2026-01-14 14:11:42.14	232.71	10.62	-48.3	-49.6	14.7	0.00e+00	0	27	0	557842432	62	4248
2026-01-14 14:11:43.14	232.85	10.68	-48.3	-49.6	14.7	0.00e+00	0	27	0	564133888	62	4264
2026-01-14 14:11:44.15	232.98	10.74	-48.3	-49.6	14.6	0.00e+00	0	27	0	569376768	62	4279
2026-01-14 14:11:45.16	233.12	10.80	-48.4	-49.6	14.7	0.00e+00	0	27	0	574619648	62	4274
2026-01-14 14:11:46.17	233.26	10.86	-48.3	-49.5	14.7	0.00e+00	0	27	0	580911104	62	4226
2026-01-14 14:11:47.18	233.39	10.92	-48.3	-49.6	14.7	0.00e+00	0	27	0	586153984	62	4267
2026-01-14 14:11:48.18	233.53	10.98	-48.3	-49.5	14.7	0.00e+00	0	27	0	592445440	62	4214
2026-01-14 14:11:49.19	233.67	11.05	-48.2	-49.4	14.7	0.00e+00	0	27	0	597688320	62	4186
2026-01-14 14:11:50.20	233.81	11.11	-48.2	-49.4	14.8	0.00e+00	0	27	0	603979776	62	4173
2026-01-14 14:11:51.21	233.95	11.17	-48.2	-49.4	14.7	0.00e+00	0	27	0	609222656	62	4177
2026-01-14 14:11:52.22	234.09	11.23	-48.2	-49.4	14.7	0.00e+00	0	27	0	614465536	62	4180
2026-01-14 14:11:53.23	234.23	11.29	-48.1	-49.4	14.8	0.00e+00	0	27	0	620756992	62	4154
2026-01-14 14:11:54.23	234.37	11.35	-48.1	-49.4	14.8	0.00e+00	0	27	0	625999872	62	4156
2026-01-14 14:11:55.23	234.52	11.41	-48.2	-49.4	14.7	0.00e+00	0	27	0	631242752	62	4177
2026-01-14 14:11:56.24	234.66	11.48	-48.2	-49.4	14.8	0.00e+00	0	27	0	637534208	62	4168
2026-01-14 14:11:57.24	234.80	11.54	-48.1	-49.4	14.8	0.00e+00	0	27	0	642777088	62	4152
2026-01-14 14:11:58.25	234.95	11.60	-48.1	-49.3	14.8	0.00e+00	0	27	0	649068544	62	4141
2026-01-14 14:11:59.25	235.09	11.66	-48.0	-49.3	14.8	0.00e+00	0	27	0	654311424	62	4112
2026-01-14 14:12:00.26	235.23	11.72	-48.0	-49.2	14.8	0.00e+00	0	27	0	659554304	62	4078
2026-01-14 14:12:01.26	235.38	11.78	-48.0	-49.2	14.8	0.00e+00	0	27	0	665845760	62	4094
2026-01-14 14:12:02.27	235.53	11.84	-48.0	-49.2	14.8	0.00e+00	0	27	0	671088640	62	4087
2026-01-14 14:12:03.28	235.67	11.91	-48.0	-49.2	14.8	0.00e+00	0	27	0	677380096	62	4067
2026-01-14 14:12:04.29	235.82	11.97	-48.0	-49.2	14.8	0.00e+00	0	27	0	682622976	62	4077
2026-01-14 14:12:05.30	235.97	12.03	-47.8	-49.0	14.9	0.00e+00	0	27	0	688914432	62	3990
2026-01-14 14:12:06.30	236.12	12.09	-47.8	-49.0	15.0	0.00e+00	0	27	0	694157312	62	3971
2026-01-14 14:12:07.32	236.27	12.15	-47.8	-49.0	14.9	0.00e+00	0	27	0	699400192	62	3980
2026-01-14 14:12:08.33	236.42	12.21	-47.7	-48.9	15.0	0.00e+00	0	27	0	705691648	62	3926
2026-01-14 14:12:09.34	236.57	12.28	-47.6	-48.8	14.9	0.00e+00	0	27	0	710934528	61	4117
2026-01-14 14:12:10.35	236.72	12.34	-47.6	-48.8	14.9	0.00e+00	0	27	0	717225984	61	4114
2026-01-14 14:12:11.36	236.87	12.40	-47.6	-48.8	14.9	0.00e+00	0	27	0	722468864	61	4113
2026-01-14 14:12:12.37	237.03	12.46	-47.5	-48.7	14.9	0.00e+00	0	27	0	727711744	61	4075
2026-01-14 14:12:13.38	237.18	12.52	-47.6	-48.8	14.9	0.00e+00	0	27	0	734003200	61	4118
2026-01-14 14:12:14.38	237.33	12.58	-47.5	-48.7	14.9	0.00e+00	0	27	0	739246080	61	4075
2026-01-14 14:12:15.39	237.49	12.64	-47.7	-48.9	14.8	0.00e+00	0	27	0	745537536	61	4151
2026-01-14 14:12:16.40	237.64	12.71	-47.7	-48.8	14.9	0.00e+00	0	27	0	750780416	61	4144
2026-01-14 14:12:17.41	237.80	12.77	-47.7	-48.9	14.8	0.00e+00	0	27	0	756023296	61	4178
2026-01-14 14:12:18.43	237.96	12.83	-47.7	-48.9	14.8	0.00e+00	0	27	0	762314752	61	4164
2026-01-14 14:12:19.43	238.11	12.89	-47.6	-48.8	14.9	0.00e+00	0	27	0	767557632	61	4105
2026-01-14 14:12:20.44	238.27	12.95	-47.5	-48.6	14.9	0.00e+00	0	27	0	773849088	61	4036
2026-01-14 14:12:21.45	238.43	13.01	-47.4	-48.6	14.9	0.00e+00	0	27	0	779091968	61	4024
2026-01-14 14:12:22.46	238.59	13.07	-47.4	-48.6	15.0	0.00e+00	0	27	0	785383424	61	4013
2026-01-14 14:12:23.47	238.75	13.13	-47.4	-48.6	15.0	0.00e+00	0	27	0	790626304	61	4017
2026-01-14 14:12:24.48	238.91	13.19	-47.5	-48.7	14.9	0.00e+00	0	27	0	795869184	61	4060
2026-01-14 14:12:25.49	239.07	13.26	-47.4	-48.6	15.0	0.00e+00	0	28	0	802160640	61	4008
2026-01-14 14:12:26.49	239.23	13.32	-47.5	-48.6	14.9	0.00e+00	0	27	0	807403520	61	4045
2026-01-14 14:12:27.50	239.39	13.38	-47.6	-48.7	14.9	0.00e+00	0	27	0	813694976	61	4095
2026-01-14 14:12:28.51	239.55	13.44	-47.7	-48.9	14.8	0.00e+00	0	27	0	818937856	61	4156
2026-01-14 14:12:29.52	239.71	13.50	-47.7	-48.9	14.9	0.00e+00	0	28	0	824180736	61	4149
2026-01-14 14:12:30.53	239.88	13.56	-47.8	-49.0	14.8	0.00e+00	0	28	0	830472192	61	4197
2026-01-14 14:12:31.53	240.04	13.62	-47.7	-48.9	14.8	0.00e+00	0	28	0	835715072	61	4188
2026-01-14 14:12:32.54	240.21	13.68	-47.7	-48.9	14.8	0.00e+00	0	27	0	842006528	61	4171
2026-01-14 14:12:33.55	240.37	13.74	-47.8	-49.0	14.8	0.00e+00	0	27	0	847249408	61	4205
2026-01-14 14:12:34.55	240.54	13.80	-47.9	-49.1	14.8	0.00e+00	0	27	0	852492288	61	4249
2026-01-14 14:12:35.56	240.71	13.86	-47.8	-49.0	14.8	0.00e+00	0	27	0	858783744	61	4205
2026-01-14 14:12:36.57	240.87	13.92	-47.8	-49.0	14.8	0.00e+00	0	27	0	864026624	61	4202
2026-01-14 14:12:37.58	241.04	13.98	-47.6	-48.7	14.9	0.00e+00	0	28	0	870318080	61	4097
2026-01-14 14:12:38.59	241.21	14.04	-47.4	-48.6	15.0	0.00e+00	0	27	0	875560960	61	4022
2026-01-14 14:12:39.60	241.38	14.10	-47.4	-48.6	15.0	0.00e+00	0	27	0	881852416	61	4018
2026-01-14 14:12:40.61	241.55	14.16	-47.4	-48.6	15.0	0.00e+00	0	27	0	887095296	61	4023
2026-01-14 14:12:41.62	241.72	14.22	-47.4	-48.6	15.0	0.00e+00	0	27	0	892338176	61	4020
2026-01-14 14:12:42.62	241.89	14.28	-47.3	-48.5	15.0	0.00e+00	0	27	0	898629632	61	3974
2026-01-14 14:12:43.64	242.07	14.34	-47.4	-48.6	15.0	0.00e+00	0	27	0	903872512	61	4015
2026-01-14 14:12:44.64	242.24	14.40	-47.5	-48.6	15.0	0.00e+00	0	27	0	910163968	61	4047
2026-01-14 14:12:45.65	242.41	14.46	-47.4	-48.5	15.0	0.00e+00	0	27	0	915406848	61	4003
2026-01-14 14:12:46.66	242.59	14.52	-47.4	-48.6	15.0	0.00e+00	0	27	0	920649728	61	4023
2026-01-14 14:12:47.67	242.76	14.58	-47.4	-48.6	15.0	0.00e+00	0	27	0	926941184	61	4027
2026-01-14 14:12:48.68	242.94	14.64	-47.4	-48.6	15.0	0.00e+00	0	28	0	932184064	61	4022
2026-01-14 14:12:49.68	243.12	14.69	-47.3	-48.4	15.0	0.00e+00	0	27	0	938475520	61	3940
2026-01-14 14:12:50.69	243.29	14.75	-47.3	-48.5	15.0	0.00e+00	0	27	0	943718400	61	3969
2026-01-14 14:12:51.70	243.47	14.81	-47.4	-48.5	15.0	0.00e+00	0	28	0	948961280	61	3991
2026-01-14 14:12:52.71	243.65	14.87	-47.3	-48.5	15.0	0.00e+00	0	27	0	955252736	61	3962
2026-01-14 14:12:53.72	243.83	14.93	-47.4	-48.5	15.0	0.00e+00	0	27	0	960495616	61	3994
2026-01-14 14:12:54.73	244.01	14.99	-47.4	-48.6	15.0	0.00e+00	0	27	0	966787072	61	4006
2026-01-14 14:12:55.73	244.19	15.05	-47.2	-48.3	15.1	0.00e+00	0	27	0	972029952	61	3902
2026-01-14 14:12:56.74	244.37	15.10	-47.0	-48.2	15.0	0.00e+00	0	28	0	978321408	60	4059
2026-01-14 14:12:57.75	244.55	15.16	-47.1	-48.2	15.0	0.00e+00	0	27	0	983564288	60	4089
2026-01-14 14:12:58.76	244.74	15.22	-46.9	-48.1	15.0	0.00e+00	0	28	0	988807168	60	4009
2026-01-14 14:12:59.77	244.92	15.28	-46.9	-48.0	15.1	0.00e+00	0	27	0	995098624	60	3978
2026-01-14 14:13:00.79	245.11	15.34	-47.0	-48.2	15.0	0.00e+00	0	27	0	1000341504	60	4065
2026-01-14 14:13:01.80	245.29	15.39	-47.0	-48.2	15.0	0.00e+00	0	28	0	1006632960	60	4058
2026-01-14 14:13:02.81	245.48	15.45	-47.0	-48.1	15.0	0.00e+00	0	27	0	1011875840	60	4025
2026-01-14 14:13:03.82	245.66	15.51	-47.0	-48.2	15.0	0.00e+00	0	27	0	1017118720	60	4064
2026-01-14 14:13:04.82	245.85	15.56	-47.0	-48.1	15.0	0.00e+00	0	27	0	1023410176	60	4042
2026-01-14 14:13:05.83	246.04	15.62	-47.0	-48.1	15.0	0.00e+00	0	27	0	1028653056	60	4034
2026-01-14 14:13:06.84	246.22	15.68	-47.0	-48.1	15.0	0.00e+00	0	27	0	1034944512	60	4049
2026-01-14 14:13:07.85	246.41	15.74	-47.0	-48.1	15.0	0.00e+00	0	27	0	1040187392	60	4036
2026-01-14 14:13:08.86	246.60	15.79	-47.0	-48.1	15.0	0.00e+00	0	27	0	1045430272	60	4041
2026-01-14 14:13:09.87	246.79	15.85	-46.9	-48.0	15.0	0.00e+00	0	27	0	1051721728	60	3999
2026-01-14 14:13:10.88	246.98	15.90	-46.9	-48.0	15.1	0.00e+00	0	27	0	1056964608	60	3985
2026-01-14 14:13:11.89	247.18	15.96	-46.9	-48.0	15.0	0.00e+00	0	28	0	1063256064	60	3992
2026-01-14 14:13:12.90	247.37	16.02	-46.8	-48.0	15.1	0.00e+00	0	27	0	1068498944	60	3960
2026-01-14 14:13:13.91	247.56	16.07	-46.8	-48.0	15.1	0.00e+00	0	28	0	1074790400	60	3959
2026-01-14 14:13:14.91	247.75	16.13	-46.8	-47.9	15.1	0.00e+00	0	27	0	1080033280	60	3923
2026-01-14 14:13:15.92	247.95	16.18	-46.8	-47.9	15.1	0.00e+00	0	28	0	1085276160	60	3921
2026-01-14 14:13:16.93	248.14	16.24	-46.7	-47.8	15.1	0.00e+00	0	27	0	1091567616	60	3887
2026-01-14 14:13:17.94	248.34	16.29	-46.7	-47.8	15.1	0.00e+00	0	27	0	1096810496	60	3900
2026-01-14 14:13:18.95	248.54	16.35	-46.8	-47.9	15.1	0.00e+00	0	27	0	1103101952	60	3918
2026-01-14 14:13:19.96	248.73	16.40	-46.7	-47.8	15.1	0.00e+00	0	28	0	1108344832	60	3894
2026-01-14 14:13:20.97	248.93	16.46	-46.7	-47.8	15.1	0.00e+00	0	27	0	1113587712	60	3885
2026-01-14 14:13:21.98	249.13	16.51	-47.1	-48.2	14.9	0.00e+00	0	28	0	1119879168	59	4325
2026-01-14 14:13:22.99	249.33	16.56	-47.1	-48.3	14.9	0.00e+00	0	27	0	1125122048	59	4367
2026-01-14 14:13:24.00	249.53	16.62	-47.1	-48.3	14.9	0.00e+00	0	27	0	1131413504	59	4359
2026-01-14 14:13:25.01	249.73	16.67	-47.2	-48.4	14.9	0.00e+00	0	27	0	1136656384	59	4411
2026-01-14 14:13:26.01	249.93	16.72	-47.2	-48.4	14.8	0.00e+00	0	28	0	1141899264	59	4421
2026-01-14 14:13:27.02	250.13	16.78	-47.3	-48.4	14.8	0.00e+00	0	27	0	1148190720	59	4440
2026-01-14 14:13:28.02	250.34	16.83	-47.2	-48.4	14.9	0.00e+00	0	27	0	1153433600	59	4409
2026-01-14 14:13:29.03	250.54	16.88	-47.2	-48.4	14.9	0.00e+00	0	28	0	1159725056	59	4409
2026-01-14 14:13:30.03	250.74	16.93	-47.2	-48.4	14.9	0.00e+00	0	27	0	1164967936	59	4411
2026-01-14 14:13:31.05	250.95	16.99	-47.2	-48.4	14.9	0.00e+00	0	27	0	1171259392	59	4400
2026-01-14 14:13:32.06	251.15	17.04	-47.2	-48.3	14.9	0.00e+00	0	28	0	1176502272	59	4382
2026-01-14 14:13:33.07	251.36	17.09	-47.1	-48.2	14.9	0.00e+00	0	27	0	1181745152	59	4327
2026-01-14 14:13:34.07	251.57	17.14	-47.1	-48.3	14.9	0.00e+00	0	27	0	1188036608	59	4343
2026-01-14 14:13:35.08	251.77	17.19	-47.1	-48.3	14.9	0.00e+00	0	28	0	1193279488	59	4342
2026-01-14 14:13:36.08	251.98	17.24	-47.1	-48.3	14.9	0.00e+00	0	27	0	1199570944	59	4345
2026-01-14 14:13:37.09	252.19	17.29	-47.2	-48.4	14.8	0.00e+00	0	27	0	1204813824	59	4416
2026-01-14 14:13:38.10	252.40	17.34	-47.2	-48.4	14.9	0.00e+00	0	28	0	1210056704	59	4421
2026-01-14 14:13:39.11	252.61	17.39	-47.1	-48.3	14.9	0.00e+00	0	27	0	1216348160	59	4357
2026-01-14 14:13:40.12	252.82	17.44	-47.2	-48.3	14.9	0.00e+00	0	27	0	1221591040	59	4380
2026-01-14 14:13:41.13	253.03	17.49	-47.2	-48.4	14.9	0.00e+00	0	27	0	1227882496	59	4415
2026-01-14 14:13:42.14	253.24	17.54	-47.1	-48.3	14.9	0.00e+00	0	27	0	1233125376	59	4367
2026-01-14 14:13:43.15	253.46	17.59	-47.0	-48.2	14.9	0.00e+00	0	27	0	1238368256	59	4307
2026-01-14 14:13:44.16	253.67	17.64	-46.8	-48.0	15.0	0.00e+00	0	28	0	1244659712	59	4204
2026-01-14 14:13:45.16	253.88	17.69	-46.9	-48.0	14.9	0.00e+00	0	27	0	1249902592	59	4238
2026-01-14 14:13:46.17	254.10	17.74	-46.9	-48.0	15.0	0.00e+00	0	28	0	1256194048	59	4222
2026-01-14 14:13:47.18	254.32	17.78	-46.9	-48.0	14.9	0.00e+00	0	28	0	1261436928	59	4238
2026-01-14 14:13:48.19	254.53	17.83	-46.9	-48.1	15.0	0.00e+00	0	27	0	1267728384	59	4247
2026-01-14 14:13:49.20	254.75	17.88	-47.0	-48.1	14.9	0.00e+00	0	27	0	1272971264	59	4279
2026-01-14 14:13:50.20	254.96	17.92	-47.0	-48.2	14.9	0.00e+00	0	28	0	1278214144	59	4302
2026-01-14 14:13:51.21	255.18	17.97	-46.9	-48.0	15.0	0.00e+00	0	28	0	1284505600	59	4233
2026-01-14 14:13:52.22	255.40	18.02	-46.8	-47.9	15.0	0.00e+00	0	28	0	1289748480	59	4173
2026-01-14 14:13:53.23	255.62	18.06	-46.7	-47.8	15.0	0.00e+00	0	27	0	1294991360	59	4131
2026-01-14 14:13:54.24	255.84	18.11	-46.8	-47.9	15.0	0.00e+00	0	27	0	1301282816	59	4158
2026-01-14 14:13:55.25	256.06	18.16	-46.6	-47.7	15.1	0.00e+00	0	27	0	1306525696	59	4089
2026-01-14 14:13:56.26	256.29	18.20	-46.6	-47.7	15.0	0.00e+00	0	27	0	1312817152	59	4092
2026-01-14 14:13:57.27	256.51	18.24	-46.6	-47.7	15.1	0.00e+00	0	28	0	1318060032	59	4080
2026-01-14 14:13:58.28	256.73	18.29	-46.6	-47.7	15.1	0.00e+00	0	27	0	1323302912	59	4093
2026-01-14 14:13:59.29	256.95	18.33	-46.8	-47.9	15.0	0.00e+00	0	28	0	1329594368	59	4181
2026-01-14 14:14:00.29	257.18	18.38	-46.8	-48.0	15.0	0.00e+00	0	28	0	1334837248	59	4211
2026-01-14 14:14:01.30	257.40	18.42	-46.9	-48.0	15.0	0.00e+00	0	28	0	1341128704	59	4220
2026-01-14 14:14:02.31	257.63	18.46	-46.9	-48.0	15.0	0.00e+00	0	28	0	1346371584	59	4227
2026-01-14 14:14:03.32	257.85	18.51	-46.9	-48.1	14.9	0.00e+00	0	28	0	1352663040	59	4263
2026-01-14 14:14:04.33	258.08	18.55	-46.9	-48.1	14.9	0.00e+00	0	28	0	1357905920	59	4270
2026-01-14 14:14:05.34	258.31	18.59	-46.7	-47.9	15.0	0.00e+00	0	27	0	1364197376	59	4163
2026-01-14 14:14:06.34	258.53	18.63	-46.7	-47.8	15.0	0.00e+00	0	27	0	1369440256	59	4135
2026-01-14 14:14:07.36	258.76	18.67	-46.6	-47.8	15.0	0.00e+00	0	28	0	1374683136	59	4101
2026-01-14 14:14:08.37	258.99	18.71	-46.7	-47.8	15.0	0.00e+00	0	27	0	1380974592	59	4141
2026-01-14 14:14:09.38	259.22	18.75	-46.8	-48.0	15.0	0.00e+00	0	27	0	1386217472	59	4204
2026-01-14 14:14:10.38	259.45	18.79	-46.9	-48.1	14.9	0.00e+00	0	28	0	1392508928	59	4265
2026-01-14 14:14:11.39	259.68	18.83	-47.0	-48.1	14.9	0.00e+00	0	28	0	1397751808	59	4279
2026-01-14 14:14:12.40	259.91	18.87	-46.8	-47.9	15.0	0.00e+00	0	27	0	1402994688	59	4182
2026-01-14 14:14:13.41	260.14	18.91	-46.7	-47.8	15.0	0.00e+00	0	27	0	1409286144	59	4131
2026-01-14 14:14:14.42	260.38	18.95	-46.7	-47.8	15.0	0.00e+00	0	28	0	1414529024	59	4134
2026-01-14 14:14:15.43	260.61	18.99	-46.7	-47.8	15.0	0.00e+00	0	27	0	1419771904	59	4119
2026-01-14 14:14:16.44	260.84	19.03	-46.7	-47.9	15.0	0.00e+00	0	28	0	1426063360	59	4152
2026-01-14 14:14:17.44	261.08	19.06	-46.7	-47.9	15.0	0.00e+00	0	27	0	1431306240	59	4153
2026-01-14 14:14:18.45	261.31	19.10	-46.8	-47.9	15.0	0.00e+00	0	28	0	1437597696	59	4193
2026-01-14 14:14:19.46	261.55	19.14	-46.7	-47.8	15.0	0.00e+00	0	27	0	1442840576	59	4137
2026-01-14 14:14:20.47	261.78	19.17	-46.7	-47.9	15.0	0.00e+00	0	28	0	1449132032	59	4158
2026-01-14 14:14:21.48	262.02	19.21	-46.6	-47.7	15.1	0.00e+00	0	28	0	1454374912	59	4089
2026-01-14 14:14:22.48	262.25	19.24	-46.5	-47.6	15.1	0.00e+00	0	28	0	1460666368	59	4044
2026-01-14 14:14:23.49	262.49	19.28	-46.6	-47.7	15.1	0.00e+00	0	28	0	1465909248	59	4091
2026-01-14 14:14:24.50	262.73	19.31	-46.6	-47.7	15.1	0.00e+00	0	28	0	1471152128	59	4095
2026-01-14 14:14:25.51	262.97	19.34	-46.6	-47.7	15.1	0.00e+00	0	28	0	1477443584	59	4059
2026-01-14 14:14:26.52	263.21	19.38	-46.5	-47.7	15.1	0.00e+00	0	27	0	1482686464	59	4056
2026-01-14 14:14:27.53	263.45	19.41	-46.6	-47.7	15.0	0.00e+00	0	27	0	1488977920	59	4097
2026-01-14 14:14:28.54	263.69	19.44	-46.5	-47.6	15.1	0.00e+00	0	28	0	1494220800	59	4031
2026-01-14 14:14:29.55	263.93	19.48	-46.4	-47.5	15.1	0.00e+00	0	28	0	1499463680	59	3982
2026-01-14 14:14:30.56	264.17	19.51	-46.5	-47.6	15.1	0.00e+00	0	27	0	1505755136	59	4014
2026-01-14 14:14:31.57	264.41	19.54	-46.4	-47.5	15.2	0.00e+00	0	27	0	1510998016	59	3963
2026-01-14 14:14:32.58	264.65	19.57	-46.4	-47.4	15.2	0.00e+00	0	28	0	1516240896	59	3958
2026-01-14 14:14:33.59	264.89	19.60	-46.4	-47.5	15.2	0.00e+00	0	27	0	1522532352	59	3964
2026-01-14 14:14:34.59	265.13	19.63	-46.4	-47.5	15.1	0.00e+00	0	27	0	1527775232	59	4004
2026-01-14 14:14:35.59	265.38	19.66	-46.5	-47.6	15.1	0.00e+00	0	28	0	1534066688	59	4048
2026-01-14 14:14:36.60	265.62	19.69	-46.4	-47.5	15.1	0.00e+00	0	28	0	1539309568	59	3990
2026-01-14 14:14:37.61	265.86	19.72	-46.4	-47.4	15.2	0.00e+00	0	27	0	1545601024	59	3956
2026-01-14 14:14:38.62	266.11	19.74	-46.4	-47.5	15.1	0.00e+00	0	27	0	1550843904	59	3976
2026-01-14 14:14:39.63	266.35	19.77	-46.6	-47.7	15.1	0.00e+00	0	27	0	1556086784	59	4062
2026-01-14 14:14:40.64	266.60	19.80	-46.7	-47.8	15.0	0.00e+00	0	28	0	1562378240	59	4102
2026-01-14 14:14:41.65	266.85	19.82	-46.6	-47.7	15.0	0.00e+00	0	27	0	1567621120	59	4097
2026-01-14 14:14:42.66	267.09	19.85	-46.6	-47.7	15.1	0.00e+00	0	28	0	1573912576	59	4084
2026-01-14 14:14:43.67	267.34	19.88	-46.6	-47.7	15.1	0.00e+00	0	28	0	1579155456	59	4094
2026-01-14 14:14:44.68	267.59	19.90	-46.6	-47.7	15.1	0.00e+00	0	28	0	1585446912	59	4078
2026-01-14 14:14:45.69	267.83	19.92	-46.6	-47.8	15.0	0.00e+00	0	27	0	1590689792	59	4110
2026-01-14 14:14:46.70	268.08	19.95	-46.7	-47.8	15.0	0.00e+00	0	27	0	1595932672	59	4134
2026-01-14 14:14:47.71	268.33	19.97	-46.5	-47.7	15.1	0.00e+00	0	27	0	1602224128	59	4053
2026-01-14 14:14:48.72	268.58	19.99	-46.6	-47.7	15.1	0.00e+00	0	27	0	1607467008	59	4055
2026-01-14 14:14:49.73	268.83	20.02	-46.5	-47.6	15.1	0.00e+00	0	27	0	1612709888	59	4024
2026-01-14 14:14:50.74	269.08	20.04	-46.5	-47.6	15.1	0.00e+00	0	28	0	1619001344	59	4038
2026-01-14 14:14:51.75	269.33	20.06	-46.5	-47.6	15.1	0.00e+00	0	27	0	1624244224	59	4025
2026-01-14 14:14:52.76	269.58	20.08	-46.6	-47.8	15.0	0.00e+00	0	28	0	1630535680	59	4102
2026-01-14 14:14:53.77	269.83	20.10	-46.6	-47.7	15.1	0.00e+00	0	28	0	1635778560	59	4065
2026-01-14 14:14:54.78	270.08	20.12	-46.6	-47.7	15.1	0.00e+00	0	27	0	1642070016	59	4085
2026-01-14 14:14:55.79	270.33	20.14	-46.6	-47.7	15.1	0.00e+00	0	27	0	1647312896	59	4082
2026-01-14 14:14:56.79	270.58	20.16	-46.6	-47.7	15.1	0.00e+00	0	28	0	1653604352	59	4088
2026-01-14 14:14:57.80	270.83	20.18	-46.6	-47.7	15.1	0.00e+00	0	28	0	1658847232	59	4079
2026-01-14 14:14:58.81	271.08	20.20	-46.6	-47.7	15.1	0.00e+00	0	28	0	1664090112	59	4088
2026-01-14 14:14:59.82	271.33	20.21	-46.6	-47.7	15.1	0.00e+00	0	27	0	1670381568	59	4059
2026-01-14 14:15:00.83	271.59	20.23	-46.6	-47.7	15.1	0.00e+00	0	27	0	1675624448	59	4077
2026-01-14 14:15:01.84	271.84	20.24	-46.5	-47.6	15.1	0.00e+00	0	27	0	1681915904	59	4050
2026-01-14 14:15:02.85	272.09	20.26	-46.7	-47.8	15.0	0.00e+00	0	27	0	1687158784	59	4120
2026-01-14 14:15:03.86	272.34	20.28	-46.7	-47.8	15.1	0.00e+00	0	27	0	1692401664	59	4122
2026-01-14 14:15:04.87	272.60	20.29	-46.7	-47.8	15.0	0.00e+00	0	27	0	1698693120	59	4128
2026-01-14 14:15:05.88	272.85	20.30	-46.7	-47.9	15.0	0.00e+00	0	28	0	1703936000	59	4151
2026-01-14 14:15:06.89	273.11	20.32	-46.6	-47.8	15.1	0.00e+00	0	27	0	1710227456	59	4105
2026-01-14 14:15:07.90	273.36	20.33	-46.7	-47.8	15.0	0.00e+00	0	27	0	1715470336	59	4133
2026-01-14 14:15:08.90	273.61	20.34	-46.6	-47.8	15.0	0.00e+00	0	27	0	1720713216	59	4106
2026-01-14 14:15:09.91	273.87	20.35	-46.5	-47.6	15.1	0.00e+00	0	27	0	1727004672	59	4041
2026-01-14 14:15:10.92	274.12	20.36	-46.5	-47.6	15.1	0.00e+00	0	27	0	1732247552	59	4025
2026-01-14 14:15:11.93	274.37	20.38	-46.5	-47.6	15.1	0.00e+00	0	28	0	1738539008	59	4042
2026-01-14 14:15:12.94	274.63	20.39	-46.5	-47.5	15.1	0.00e+00	0	28	0	1743781888	59	4004
2026-01-14 14:15:13.95	274.88	20.40	-46.4	-47.5	15.2	0.00e+00	0	27	0	1750073344	59	3959
2026-01-14 14:15:14.96	275.14	20.40	-46.4	-47.5	15.1	0.00e+00	0	27	0	1755316224	59	3971
2026-01-14 14:15:15.97	275.40	20.41	-46.4	-47.5	15.1	0.00e+00	0	28	0	1760559104	59	3991
2026-01-14 14:15:16.98	275.65	20.42	-46.4	-47.5	15.1	0.00e+00	0	27	0	1766850560	59	3986
2026-01-14 14:15:17.99	275.91	20.43	-46.4	-47.5	15.2	0.00e+00	0	28	0	1772093440	59	3973
2026-01-14 14:15:18.99	276.16	20.43	-46.4	-47.5	15.1	0.00e+00	0	28	0	1778384896	59	3976
2026-01-14 14:15:20.00	276.42	20.44	-46.4	-47.5	15.1	0.00e+00	0	27	0	1783627776	59	3997
2026-01-14 14:15:21.00	276.67	20.45	-46.3	-47.4	15.2	0.00e+00	0	27	0	1788870656	59	3942
2026-01-14 14:15:22.01	276.92	20.45	-46.4	-47.5	15.2	0.00e+00	0	27	0	1795162112	59	3964
2026-01-14 14:15:23.01	277.18	20.46	-46.4	-47.5	15.1	0.00e+00	0	28	0	1800404992	59	3967
2026-01-14 14:15:24.02	277.43	20.46	-46.5	-47.6	15.1	0.00e+00	0	28	0	1805647872	59	4035
2026-01-14 14:15:25.03	277.69	20.46	-46.6	-47.7	15.1	0.00e+00	0	28	0	1811939328	59	4064
2026-01-14 14:15:26.04	277.95	20.47	-46.7	-47.8	15.0	0.00e+00	0	27	0	1817182208	59	4143
2026-01-14 14:15:27.05	278.20	20.47	-46.7	-47.8	15.0	0.00e+00	0	28	0	1823473664	59	4103
2026-01-14 14:15:28.06	278.46	20.47	-46.6	-47.7	15.1	0.00e+00	0	28	0	1828716544	59	4085
2026-01-14 14:15:29.06	278.71	20.47	-46.6	-47.7	15.1	0.00e+00	0	27	0	1835008000	59	4057
2026-01-14 14:15:30.08	278.97	20.47	-46.6	-47.8	15.1	0.00e+00	0	28	0	1840250880	59	4102
2026-01-14 14:15:31.08	279.23	20.47	-46.6	-47.8	15.0	0.00e+00	0	27	0	1845493760	59	4103
2026-01-14 14:15:32.09	279.48	20.47	-46.7	-47.8	15.0	0.00e+00	0	27	0	1851785216	59	4141
2026-01-14 14:15:33.10	279.74	20.47	-46.6	-47.7	15.1	0.00e+00	0	28	0	1857028096	59	4079
2026-01-14 14:15:34.11	279.99	20.47	-46.6	-47.7	15.1	0.00e+00	0	27	0	1863319552	59	4055
2026-01-14 14:15:35.12	280.25	20.46	-46.7	-47.8	15.0	0.00e+00	0	27	0	1868562432	59	4112
2026-01-14 14:15:36.12	280.50	20.46	-46.6	-47.7	15.1	0.00e+00	0	27	0	1873805312	59	4065
2026-01-14 14:15:37.13	280.76	20.46	-46.6	-47.7	15.1	0.00e+00	0	27	0	1880096768	59	4068
2026-01-14 14:15:38.14	281.02	20.45	-46.6	-47.7	15.1	0.00e+00	0	28	0	1885339648	59	4097
2026-01-14 14:15:39.15	281.27	20.45	-46.6	-47.7	15.1	0.00e+00	0	27	0	1891631104	59	4074
2026-01-14 14:15:40.15	281.53	20.44	-46.6	-47.7	15.1	0.00e+00	0	28	0	1896873984	59	4092
2026-01-14 14:15:41.16	281.78	20.44	-46.6	-47.6	15.1	0.00e+00	0	28	0	1902116864	59	4046
2026-01-14 14:15:42.17	282.04	20.43	-46.6	-47.7	15.1	0.00e+00	0	27	0	1908408320	59	4057
2026-01-14 14:15:43.18	282.29	20.43	-46.6	-47.7	15.1	0.00e+00	0	27	0	1913651200	59	4078
2026-01-14 14:15:44.19	282.55	20.42	-46.7	-47.8	15.0	0.00e+00	0	27	0	1919942656	59	4134
2026-01-14 14:15:45.20	282.80	20.41	-46.7	-47.8	15.0	0.00e+00	0	27	0	1925185536	59	4113
2026-01-14 14:15:46.21	283.06	20.40	-46.6	-47.7	15.1	0.00e+00	0	28	0	1931476992	59	4094
2026-01-14 14:15:47.22	283.31	20.39	-46.6	-47.7	15.1	0.00e+00	0	28	0	1936719872	59	4086
2026-01-14 14:15:48.24	283.57	20.38	-46.8	-47.9	15.0	0.00e+00	0	27	0	1943011328	59	4161
2026-01-14 14:15:49.24	283.82	20.37	-46.8	-48.0	15.0	0.00e+00	0	28	0	1948254208	59	4195
2026-01-14 14:15:50.25	284.08	20.36	-46.8	-48.0	15.0	0.00e+00	0	28	0	1953497088	59	4213
2026-01-14 14:15:51.26	284.33	20.35	-46.9	-48.1	15.0	0.00e+00	0	28	0	1959788544	59	4249
2026-01-14 14:15:52.27	284.59	20.34	-46.7	-47.9	15.0	0.00e+00	0	27	0	1965031424	59	4155
2026-01-14 14:15:53.28	284.84	20.33	-46.7	-47.8	15.0	0.00e+00	0	27	0	1970274304	59	4138
2026-01-14 14:15:54.29	285.09	20.31	-46.6	-47.8	15.0	0.00e+00	0	28	0	1976565760	59	4102
2026-01-14 14:15:55.29	285.35	20.30	-46.7	-47.8	15.0	0.00e+00	0	27	0	1981808640	59	4113
2026-01-14 14:15:56.30	285.60	20.29	-46.5	-47.6	15.1	0.00e+00	0	28	0	1988100096	59	4018
2026-01-14 14:15:57.31	285.85	20.27	-46.5	-47.6	15.1	0.00e+00	0	27	0	1993342976	59	4015
2026-01-14 14:15:58.32	286.11	20.26	-46.5	-47.6	15.1	0.00e+00	0	27	0	1998585856	59	4024
2026-01-14 14:15:59.33	286.36	20.24	-46.6	-47.6	15.1	0.00e+00	0	28	0	2004877312	59	4047
2026-01-14 14:16:00.34	286.61	20.22	-46.6	-47.7	15.1	0.00e+00	0	28	0	2010120192	59	4052
2026-01-14 14:16:01.35	286.86	20.21	-46.7	-47.8	15.0	0.00e+00	0	27	0	2016411648	59	4126
2026-01-14 14:16:02.36	287.11	20.19	-46.8	-47.9	15.0	0.00e+00	0	28	0	2021654528	59	4186
2026-01-14 14:16:03.36	287.36	20.17	-46.8	-47.9	15.0	0.00e+00	0	28	0	2027945984	59	4165
2026-01-14 14:16:04.37	287.61	20.15	-46.9	-48.0	15.0	0.00e+00	0	28	0	2033188864	59	4212
2026-01-14 14:16:05.38	287.87	20.14	-46.9	-48.0	15.0	0.00e+00	0	27	0	2039480320	59	4221
2026-01-14 14:16:06.39	288.12	20.12	-46.9	-48.0	15.0	0.00e+00	0	28	0	2044723200	59	4239
2026-01-14 14:16:07.40	288.37	20.10	-47.0	-48.2	14.9	0.00e+00	0	27	0	2049966080	59	4294
2026-01-14 14:16:08.41	288.62	20.08	-47.0	-48.2	14.9	0.00e+00	0	27	0	2056257536	59	4315
2026-01-14 14:16:09.42	288.87	20.05	-47.2	-48.4	14.9	0.00e+00	0	28	0	2061500416	59	4407
2026-01-14 14:16:10.43	289.11	20.03	-47.2	-48.4	14.9	0.00e+00	0	28	0	2066743296	59	4404
2026-01-14 14:16:11.44	289.36	20.01	-47.1	-48.3	14.9	0.00e+00	0	28	0	2073034752	59	4360
2026-01-14 14:16:12.45	289.61	19.99	-47.1	-48.2	14.9	0.00e+00	0	28	0	2078277632	59	4318
2026-01-14 14:16:13.46	289.86	19.97	-47.1	-48.2	14.9	0.00e+00	0	27	0	2084569088	59	4330
2026-01-14 14:16:14.47	290.11	19.94	-47.0	-48.2	14.9	0.00e+00	0	27	0	2089811968	59	4294
2026-01-14 14:16:15.47	290.35	19.92	-47.0	-48.1	14.9	0.00e+00	0	28	0	2095054848	59	4271
2026-01-14 14:16:16.48	290.60	19.89	-47.1	-48.2	14.9	0.00e+00	0	28	0	2101346304	59	4310
2026-01-14 14:16:17.49	290.85	19.87	-47.0	-48.1	15.0	0.00e+00	0	28	0	2106589184	59	4264
2026-01-14 14:16:18.50	291.09	19.84	-47.0	-48.1	14.9	0.00e+00	0	28	0	2112880640	59	4255
2026-01-14 14:16:19.51	291.34	19.82	-47.1	-48.2	14.9	0.00e+00	0	28	0	2118123520	59	4337
2026-01-14 14:16:20.51	291.58	19.79	-47.1	-48.2	14.9	0.00e+00	0	28	0	2124414976	59	4308
2026-01-14 14:16:21.52	291.83	19.76	-47.2	-48.3	14.9	0.00e+00	0	28	0	2129657856	59	4381
2026-01-14 14:16:22.53	292.07	19.74	-47.1	-48.3	14.9	0.00e+00	0	28	0	2134900736	59	4341
2026-01-14 14:16:23.54	292.32	19.71	-47.0	-48.2	14.9	0.00e+00	0	28	0	2141192192	59	4321
2026-01-14 14:16:24.55	292.56	19.68	-47.2	-48.4	14.9	0.00e+00	0	27	0	2146435072	59	4410
2026-01-14 14:16:25.56	292.80	19.65	-47.2	-48.3	14.9	0.00e+00	0	27	0	2152726528	59	4380
2026-01-14 14:16:26.57	293.05	19.62	-47.1	-48.3	14.9	0.00e+00	0	27	0	2157969408	59	4358
2026-01-14 14:16:27.58	293.29	19.59	-47.0	-48.1	15.0	0.00e+00	0	27	0	2163212288	59	4256
2026-01-14 14:16:28.59	293.53	19.56	-46.9	-48.0	15.0	0.00e+00	0	28	0	2169503744	59	4242
2026-01-14 14:16:29.60	293.77	19.53	-46.8	-47.9	15.0	0.00e+00	0	27	0	2174746624	59	4191
2026-01-14 14:16:30.61	294.01	19.50	-46.9	-48.0	15.0	0.00e+00	0	27	0	2181038080	59	4207
2026-01-14 14:16:31.61	294.25	19.47	-46.9	-48.0	15.0	0.00e+00	0	27	0	2186280960	59	4223
2026-01-14 14:16:32.62	294.49	19.44	-46.9	-48.1	15.0	0.00e+00	0	27	0	2191523840	59	4246
2026-01-14 14:16:33.63	294.73	19.40	-46.9	-48.0	15.0	0.00e+00	0	27	0	2197815296	59	4227
2026-01-14 14:16:34.64	294.97	19.37	-47.0	-48.1	15.0	0.00e+00	0	27	0	2203058176	59	4274
2026-01-14 14:16:35.64	295.21	19.34	-47.0	-48.1	14.9	0.00e+00	0	27	0	2209349632	59	4286
2026-01-14 14:16:36.65	295.44	19.30	-46.8	-48.0	15.0	0.00e+00	0	27	0	2214592512	59	4198
2026-01-14 14:16:37.66	295.68	19.27	-46.8	-47.9	15.0	0.00e+00	0	28	0	2220883968	59	4169
2026-01-14 14:16:38.67	295.92	19.24	-46.9	-48.0	15.0	0.00e+00	0	27	0	2226126848	59	4217
2026-01-14 14:16:39.68	296.15	19.20	-46.9	-48.0	15.0	0.00e+00	0	27	0	2232418304	59	4236
2026-01-14 14:16:40.69	296.39	19.16	-47.0	-48.1	14.9	0.00e+00	0	28	0	2237661184	59	4286
2026-01-14 14:16:41.70	296.62	19.13	-47.2	-48.3	14.9	0.00e+00	0	28	0	2242904064	59	4366
2026-01-14 14:16:42.71	296.86	19.09	-47.0	-48.1	14.9	0.00e+00	0	27	0	2249195520	59	4289
2026-01-14 14:16:43.71	297.09	19.06	-47.0	-48.1	14.9	0.00e+00	0	28	0	2254438400	59	4291
2026-01-14 14:16:44.72	297.33	19.02	-47.1	-48.2	14.9	0.00e+00	0	28	0	2259681280	59	4334
2026-01-14 14:16:45.73	297.56	18.98	-47.1	-48.3	14.9	0.00e+00	0	28	0	2265972736	59	4342
2026-01-14 14:16:46.74	297.79	18.94	-47.2	-48.3	14.9	0.00e+00	0	28	0	2271215616	59	4383
2026-01-14 14:16:47.75	298.02	18.90	-47.2	-48.3	14.9	0.00e+00	0	28	0	2277507072	59	4374
2026-01-14 14:16:48.76	298.25	18.87	-47.2	-48.4	14.9	0.00e+00	0	28	0	2282749952	59	4400
2026-01-14 14:16:49.77	298.48	18.83	-47.3	-48.4	14.9	0.00e+00	0	27	0	2287992832	59	4421
2026-01-14 14:16:50.78	298.71	18.79	-47.2	-48.4	14.9	0.00e+00	0	28	0	2294284288	59	4400
2026-01-14 14:16:51.79	298.94	18.75	-47.2	-48.4	14.9	0.00e+00	0	28	0	2299527168	59	4398
2026-01-14 14:16:52.80	299.17	18.71	-47.2	-48.4	14.9	0.00e+00	0	28	0	2305818624	59	4403
2026-01-14 14:16:53.80	299.40	18.67	-47.2	-48.3	14.9	0.00e+00	0	28	0	2311061504	59	4375
2026-01-14 14:16:54.81	299.63	18.62	-47.3	-48.4	14.9	0.00e+00	0	28	0	2317352960	59	4434
2026-01-14 14:16:55.82	299.85	18.58	-47.4	-48.5	14.8	0.00e+00	0	27	0	2322595840	59	4486
2026-01-14 14:16:56.83	300.08	18.54	-47.3	-48.5	14.9	0.00e+00	0	28	0	2327838720	59	4450
2026-01-14 14:16:57.84	300.31	18.50	-47.3	-48.5	14.8	0.00e+00	0	27	0	2334130176	59	4474
2026-01-14 14:16:58.85	300.53	18.46	-47.3	-48.4	14.9	0.00e+00	0	27	0	2339373056	59	4431
2026-01-14 14:16:59.86	300.76	18.41	-47.3	-48.5	14.9	0.00e+00	0	27	0	2345664512	59	4454
2026-01-14 14:17:00.87	300.98	18.37	-47.4	-48.5	14.8	0.00e+00	0	28	0	2350907392	59	4485
2026-01-14 14:17:01.88	301.21	18.33	-47.4	-48.6	14.8	0.00e+00	0	27	0	2356150272	59	4503
2026-01-14 14:17:02.88	301.43	18.28	-47.2	-48.4	14.9	0.00e+00	0	28	0	2362441728	60	4150
2026-01-14 14:17:03.89	301.65	18.24	-47.1	-48.3	15.0	0.00e+00	0	28	0	2367684608	60	4111
2026-01-14 14:17:04.91	301.87	18.19	-47.2	-48.3	15.0	0.00e+00	0	28	0	2373976064	60	4125
2026-01-14 14:17:05.91	302.09	18.15	-47.2	-48.3	14.9	0.00e+00	0	28	0	2379218944	60	4140
2026-01-14 14:17:06.92	302.31	18.10	-47.2	-48.3	15.0	0.00e+00	0	28	0	2384461824	60	4119
2026-01-14 14:17:07.93	302.53	18.06	-47.0	-48.2	15.0	0.00e+00	0	28	0	2390753280	60	4060
2026-01-14 14:17:08.94	302.75	18.01	-47.1	-48.2	15.0	0.00e+00	0	28	0	2395996160	60	4090
2026-01-14 14:17:09.95	302.97	17.97	-47.1	-48.2	15.0	0.00e+00	0	28	0	2402287616	60	4071
2026-01-14 14:17:10.96	303.19	17.92	-47.1	-48.2	15.0	0.00e+00	0	28	0	2407530496	60	4064
2026-01-14 14:17:11.97	303.40	17.87	-47.0	-48.1	15.0	0.00e+00	0	28	0	2413821952	60	4032
2026-01-14 14:17:12.97	303.62	17.83	-47.0	-48.1	15.0	0.00e+00	0	28	0	2419064832	60	4041
2026-01-14 14:17:13.98	303.83	17.78	-47.0	-48.1	15.0	0.00e+00	0	28	0	2424307712	60	4042
2026-01-14 14:17:14.99	304.05	17.73	-47.0	-48.1	15.0	0.00e+00	0	27	0	2430599168	60	4036
2026-01-14 14:17:16.00	304.26	17.68	-47.0	-48.2	15.0	0.00e+00	0	27	0	2435842048	60	4054
2026-01-14 14:17:17.00	304.47	17.64	-46.9	-48.1	15.0	0.00e+00	0	27	0	2442133504	60	4005
2026-01-14 14:17:18.01	304.69	17.59	-46.9	-48.0	15.0	0.00e+00	0	28	0	2447376384	60	3996
2026-01-14 14:17:19.02	304.90	17.54	-46.9	-48.0	15.0	0.00e+00	0	28	0	2452619264	60	3996
2026-01-14 14:17:20.03	305.11	17.49	-46.9	-48.0	15.1	0.00e+00	0	28	0	2458910720	60	3995
2026-01-14 14:17:21.04	305.32	17.44	-47.0	-48.1	15.0	0.00e+00	0	28	0	2464153600	60	4018
2026-01-14 14:17:22.05	305.53	17.39	-47.1	-48.2	15.0	0.00e+00	0	28	0	2470445056	60	4069
2026-01-14 14:17:23.06	305.74	17.34	-47.1	-48.2	15.0	0.00e+00	0	28	0	2475687936	60	4070
2026-01-14 14:17:24.05	305.95	17.29	-47.1	-48.2	15.0	0.00e+00	0	27	0	2480930816	60	4073
2026-01-14 14:17:25.06	306.16	17.24	-47.1	-48.3	15.0	0.00e+00	0	28	0	2487222272	60	4114
2026-01-14 14:17:26.07	306.36	17.19	-47.1	-48.2	15.0	0.00e+00	0	28	0	2492465152	60	4093
2026-01-14 14:17:27.08	306.57	17.14	-47.1	-48.2	15.0	0.00e+00	0	28	0	2498756608	60	4073
2026-01-14 14:17:28.09	306.78	17.09	-47.1	-48.3	15.0	0.00e+00	0	28	0	2503999488	60	4099
2026-01-14 14:17:29.11	306.98	17.04	-47.1	-48.2	15.0	0.00e+00	0	28	0	2510290944	60	4079
2026-01-14 14:17:30.12	307.19	16.98	-47.1	-48.2	15.0	0.00e+00	0	28	0	2515533824	60	4098
2026-01-14 14:17:31.13	307.39	16.93	-47.1	-48.2	15.0	0.00e+00	0	27	0	2520776704	60	4088
2026-01-14 14:17:32.13	307.59	16.88	-47.0	-48.1	15.0	0.00e+00	0	28	0	2527068160	60	4030
2026-01-14 14:17:33.14	307.80	16.83	-47.0	-48.1	15.0	0.00e+00	0	27	0	2532311040	60	4045
2026-01-14 14:17:34.15	308.00	16.78	-47.0	-48.1	15.0	0.00e+00	0	28	0	2538602496	60	4021
2026-01-14 14:17:35.16	308.20	16.72	-47.1	-48.2	15.0	0.00e+00	0	28	0	2543845376	60	4065
2026-01-14 14:17:36.17	308.40	16.67	-47.2	-48.3	14.9	0.00e+00	0	28	0	2549088256	60	4129
2026-01-14 14:17:37.18	308.60	16.62	-47.3	-48.4	14.9	0.00e+00	0	27	0	2555379712	60	4184
2026-01-14 14:17:38.19	308.80	16.56	-47.4	-48.6	14.9	0.00e+00	0	27	0	2560622592	60	4245
2026-01-14 14:17:39.19	309.00	16.51	-47.5	-48.7	14.8	0.00e+00	0	28	0	2566914048	60	4324
2026-01-14 14:17:40.20	309.20	16.46	-47.5	-48.7	14.8	0.00e+00	0	28	0	2572156928	60	4335
2026-01-14 14:17:41.21	309.39	16.40	-47.5	-48.7	14.8	0.00e+00	0	28	0	2577399808	60	4336
2026-01-14 14:17:42.22	309.59	16.35	-47.4	-48.6	14.8	0.00e+00	0	28	0	2583691264	60	4268
2026-01-14 14:17:43.23	309.79	16.29	-47.4	-48.6	14.8	0.00e+00	0	28	0	2588934144	60	4274
2026-01-14 14:17:44.24	309.98	16.24	-47.4	-48.5	14.9	0.00e+00	0	28	0	2595225600	60	4221
2026-01-14 14:17:45.25	310.18	16.18	-47.4	-48.6	14.8	0.00e+00	0	28	0	2600468480	60	4245
2026-01-14 14:17:46.26	310.37	16.13	-47.4	-48.5	14.8	0.00e+00	0	27	0	2606759936	60	4238
2026-01-14 14:17:47.26	310.56	16.07	-47.3	-48.5	14.9	0.00e+00	0	28	0	2612002816	60	4199
2026-01-14 14:17:48.27	310.75	16.02	-47.3	-48.4	14.9	0.00e+00	0	28	0	2617245696	60	4168
2026-01-14 14:17:49.28	310.95	15.96	-47.3	-48.4	14.9	0.00e+00	0	27	0	2623537152	60	4181
2026-01-14 14:17:50.30	311.14	15.91	-47.3	-48.5	14.9	0.00e+00	0	27	0	2628780032	60	4202
2026-01-14 14:17:51.31	311.33	15.85	-47.4	-48.6	14.8	0.00e+00	0	28	0	2635071488	60	4243
2026-01-14 14:17:52.31	311.52	15.80	-47.4	-48.5	14.9	0.00e+00	0	27	0	2640314368	60	4235
2026-01-14 14:17:53.32	311.71	15.74	-47.3	-48.5	14.9	0.00e+00	0	28	0	2645557248	60	4215
2026-01-14 14:17:54.33	311.90	15.68	-47.4	-48.6	14.8	0.00e+00	0	27	0	2651848704	60	4261
2026-01-14 14:17:55.34	312.08	15.63	-47.5	-48.6	14.8	0.00e+00	0	27	0	2657091584	60	4270
2026-01-14 14:17:56.34	312.27	15.57	-47.4	-48.6	14.8	0.00e+00	0	28	0	2663383040	60	4244
2026-01-14 14:17:57.34	312.45	15.51	-47.5	-48.7	14.8	0.00e+00	0	28	0	2668625920	60	4294
2026-01-14 14:17:58.35	312.64	15.46	-47.5	-48.7	14.8	0.00e+00	0	28	0	2673868800	60	4313
2026-01-14 14:17:59.36	312.82	15.40	-47.6	-48.8	14.8	0.00e+00	0	28	0	2680160256	60	4368
2026-01-14 14:18:00.37	313.01	15.34	-47.7	-48.9	14.7	0.00e+00	0	28	0	2685403136	60	4428
2026-01-14 14:18:01.37	313.19	15.29	-47.7	-48.9	14.7	0.00e+00	0	28	0	2691694592	60	4407
2026-01-14 14:18:02.38	313.37	15.23	-47.7	-48.9	14.7	0.00e+00	0	28	0	2696937472	60	4432
2026-01-14 14:18:03.39	313.55	15.17	-47.8	-49.0	14.7	0.00e+00	0	28	0	2703228928	60	4447
2026-01-14 14:18:04.41	313.74	15.11	-47.8	-49.0	14.7	0.00e+00	0	28	0	2708471808	60	4460
2026-01-14 14:18:05.41	313.92	15.06	-48.0	-49.1	14.7	0.00e+00	0	27	0	2713714688	61	4289
2026-01-14 14:18:06.42	314.10	15.00	-47.9	-49.1	14.8	0.00e+00	0	27	0	2720006144	61	4270
2026-01-14 14:18:07.42	314.27	14.94	-47.9	-49.1	14.7	0.00e+00	0	28	0	2725249024	61	4290
2026-01-14 14:18:08.43	314.45	14.88	-48.1	-49.3	14.7	0.00e+00	0	28	0	2730491904	61	4363
2026-01-14 14:18:09.44	314.63	14.82	-48.1	-49.3	14.7	0.00e+00	0	28	0	2736783360	61	4356
2026-01-14 14:18:10.45	314.81	14.76	-48.1	-49.3	14.7	0.00e+00	0	28	0	2742026240	61	4377
2026-01-14 14:18:11.45	314.98	14.71	-48.0	-49.2	14.7	0.00e+00	0	28	0	2748317696	61	4322
2026-01-14 14:18:12.46	315.16	14.65	-47.9	-49.1	14.8	0.00e+00	0	28	0	2753560576	61	4278
2026-01-14 14:18:13.47	315.33	14.59	-47.9	-49.1	14.8	0.00e+00	0	28	0	2758803456	61	4258
2026-01-14 14:18:14.48	315.51	14.53	-47.8	-49.1	14.8	0.00e+00	0	28	0	2765094912	61	4243
2026-01-14 14:18:15.49	315.68	14.47	-47.7	-48.9	14.8	0.00e+00	0	28	0	2770337792	61	4146
2026-01-14 14:18:16.50	315.86	14.41	-47.5	-48.7	14.9	0.00e+00	0	28	0	2776629248	61	4069
2026-01-14 14:18:17.50	316.03	14.35	-47.6	-48.8	14.9	0.00e+00	0	28	0	2781872128	61	4102
2026-01-14 14:18:18.51	316.20	14.29	-47.7	-48.9	14.8	0.00e+00	0	28	0	2788163584	61	4153
2026-01-14 14:18:19.52	316.37	14.23	-47.6	-48.8	14.9	0.00e+00	0	28	0	2793406464	61	4111
2026-01-14 14:18:20.53	316.54	14.18	-47.6	-48.8	14.9	0.00e+00	0	28	0	2798649344	61	4117
2026-01-14 14:18:21.54	316.71	14.12	-47.7	-48.9	14.8	0.00e+00	0	28	0	2804940800	61	4156
2026-01-14 14:18:22.54	316.88	14.06	-47.7	-48.8	14.8	0.00e+00	0	28	0	2810183680	61	4144
2026-01-14 14:18:23.55	317.05	14.00	-47.6	-48.8	14.9	0.00e+00	0	27	0	2816475136	61	4115
2026-01-14 14:18:24.56	317.22	13.94	-47.7	-48.9	14.8	0.00e+00	0	28	0	2821718016	61	4152
2026-01-14 14:18:25.57	317.38	13.88	-47.6	-48.8	14.9	0.00e+00	0	28	0	2826960896	61	4123
2026-01-14 14:18:26.58	317.55	13.82	-47.7	-48.9	14.8	0.00e+00	0	28	0	2833252352	61	4150
2026-01-14 14:18:27.59	317.72	13.76	-47.7	-48.9	14.8	0.00e+00	0	27	0	2838495232	61	4156
2026-01-14 14:18:28.60	317.88	13.70	-47.6	-48.8	14.9	0.00e+00	0	27	0	2844786688	61	4124
2026-01-14 14:18:29.61	318.05	13.64	-47.7	-48.9	14.8	0.00e+00	0	28	0	2850029568	61	4178
2026-01-14 14:18:30.62	318.21	13.58	-47.7	-48.9	14.8	0.00e+00	0	28	0	2855272448	61	4181
2026-01-14 14:18:31.63	318.38	13.52	-47.8	-48.9	14.8	0.00e+00	0	28	0	2861563904	61	4183
2026-01-14 14:18:32.64	318.54	13.46	-47.8	-48.9	14.8	0.00e+00	0	27	0	2866806784	61	4193
2026-01-14 14:18:33.65	318.70	13.40	-47.9	-49.1	14.7	0.00e+00	0	28	0	2873098240	61	4263
2026-01-14 14:18:34.65	318.86	13.34	-48.0	-49.2	14.7	0.00e+00	0	28	0	2878341120	61	4299
2026-01-14 14:18:35.66	319.02	13.28	-48.0	-49.3	14.7	0.00e+00	0	27	0	2884632576	61	4342
2026-01-14 14:18:36.67	319.18	13.22	-48.0	-49.2	14.7	0.00e+00	0	28	0	2889875456	61	4294
2026-01-14 14:18:37.67	319.34	13.16	-48.1	-49.3	14.7	0.00e+00	0	27	0	2895118336	61	4369
2026-01-14 14:18:38.68	319.50	13.09	-48.1	-49.3	14.7	0.00e+00	0	28	0	2901409792	61	4385
2026-01-14 14:18:39.68	319.66	13.03	-48.1	-49.3	14.7	0.00e+00	0	28	0	2906652672	61	4361
2026-01-14 14:18:40.69	319.81	12.97	-48.1	-49.4	14.6	0.00e+00	0	27	0	2912944128	61	4392
2026-01-14 14:18:41.70	319.97	12.91	-48.1	-49.3	14.7	0.00e+00	0	28	0	2918187008	61	4381
2026-01-14 14:18:42.71	320.13	12.85	-48.1	-49.3	14.7	0.00e+00	0	28	0	2923429888	61	4388
2026-01-14 14:18:43.72	320.28	12.79	-48.2	-49.5	14.6	0.00e+00	0	28	0	2929721344	61	4452
2026-01-14 14:18:44.73	320.44	12.73	-48.3	-49.5	14.6	0.00e+00	0	28	0	2934964224	61	4478
2026-01-14 14:18:45.74	320.59	12.67	-48.3	-49.5	14.6	0.00e+00	0	28	0	2941255680	61	4475
2026-01-14 14:18:46.74	320.75	12.61	-48.2	-49.5	14.6	0.00e+00	0	28	0	2946498560	61	4463
2026-01-14 14:18:47.75	320.90	12.55	-48.2	-49.4	14.6	0.00e+00	0	28	0	2951741440	61	4430
2026-01-14 14:18:48.76	321.05	12.49	-48.2	-49.4	14.6	0.00e+00	0	28	0	2958032896	61	4413
2026-01-14 14:18:49.76	321.20	12.43	-48.1	-49.3	14.6	0.00e+00	0	28	0	2963275776	61	4377
2026-01-14 14:18:50.77	321.35	12.37	-48.1	-49.4	14.6	0.00e+00	0	28	0	2969567232	61	4400
2026-01-14 14:18:51.78	321.51	12.30	-48.1	-49.3	14.6	0.00e+00	0	28	0	2974810112	61	4382
2026-01-14 14:18:52.79	321.66	12.24	-48.1	-49.3	14.6	0.00e+00	0	28	0	2981101568	61	4370
2026-01-14 14:18:53.80	321.81	12.18	-48.1	-49.3	14.6	0.00e+00	0	28	0	2986344448	61	4379
2026-01-14 14:18:54.81	321.96	12.12	-48.1	-49.3	14.7	0.00e+00	0	28	0	2991587328	61	4354
2026-01-14 14:18:55.81	322.10	12.06	-48.1	-49.4	14.6	0.00e+00	0	28	0	2997878784	61	4402
2026-01-14 14:18:56.82	322.25	12.00	-48.1	-49.3	14.6	0.00e+00	0	28	0	3003121664	61	4391
2026-01-14 14:18:57.83	322.40	11.94	-48.1	-49.4	14.6	0.00e+00	0	28	0	3008364544	61	4396
2026-01-14 14:18:58.83	322.54	11.88	-48.2	-49.5	14.6	0.00e+00	0	28	0	3014656000	61	4442
2026-01-14 14:18:59.84	322.69	11.82	-48.1	-49.3	14.7	0.00e+00	0	28	0	3019898880	61	4385
2026-01-14 14:19:00.85	322.84	11.76	-48.2	-49.5	14.6	0.00e+00	0	28	0	3026190336	61	4449
2026-01-14 14:19:01.86	322.98	11.69	-48.1	-49.4	14.6	0.00e+00	0	28	0	3031433216	61	4405
2026-01-14 14:19:02.87	323.12	11.63	-48.1	-49.4	14.6	0.00e+00	0	28	0	3036676096	61	4397
2026-01-14 14:19:03.88	323.27	11.57	-48.2	-49.5	14.6	0.00e+00	0	27	0	3042967552	61	4449
2026-01-14 14:19:04.89	323.41	11.51	-48.2	-49.4	14.6	0.00e+00	0	28	0	3048210432	61	4415
2026-01-14 14:19:05.89	323.55	11.45	-48.1	-49.4	14.6	0.00e+00	0	28	0	3054501888	61	4394
2026-01-14 14:19:06.90	323.70	11.39	-48.2	-49.5	14.6	0.00e+00	0	28	0	3059744768	61	4458
2026-01-14 14:19:07.91	323.84	11.33	-48.3	-49.6	14.6	0.00e+00	0	28	0	3066036224	61	4505
2026-01-14 14:19:08.92	323.98	11.27	-48.3	-49.5	14.6	0.00e+00	0	28	0	3071279104	61	4474
2026-01-14 14:19:09.93	324.12	11.20	-48.3	-49.6	14.6	0.00e+00	0	28	0	3076521984	61	4507
2026-01-14 14:19:10.94	324.26	11.14	-48.3	-49.5	14.6	0.00e+00	0	28	0	3082813440	61	4480
2026-01-14 14:19:11.95	324.40	11.08	-48.4	-49.7	14.5	0.00e+00	0	27	0	3088056320	61	4551
2026-01-14 14:19:12.96	324.54	11.02	-48.3	-49.6	14.5	0.00e+00	0	28	0	3094347776	61	4510
2026-01-14 14:19:13.97	324.68	10.96	-48.4	-49.6	14.5	0.00e+00	0	28	0	3099590656	61	4523
2026-01-14 14:19:14.97	324.81	10.90	-48.5	-49.7	14.6	0.00e+00	0	28	0	3104833536	62	4336
2026-01-14 14:19:15.98	324.95	10.84	-48.5	-49.8	14.6	0.00e+00	0	28	0	3111124992	62	4347
2026-01-14 14:19:16.99	325.09	10.78	-48.6	-49.9	14.5	0.00e+00	0	28	0	3116367872	62	4401
2026-01-14 14:19:18.00	325.22	10.72	-48.6	-49.9	14.5	0.00e+00	0	28	0	3122659328	62	4436
2026-01-14 14:19:19.01	325.36	10.65	-48.7	-50.0	14.5	0.00e+00	0	28	0	3127902208	62	4467
2026-01-14 14:19:20.02	325.49	10.59	-48.8	-50.1	14.4	0.00e+00	0	28	0	3133145088	62	4504
2026-01-14 14:19:21.03	325.63	10.53	-48.8	-50.1	14.4	0.00e+00	0	28	0	3139436544	62	4531
2026-01-14 14:19:22.04	325.76	10.47	-48.8	-50.1	14.4	0.00e+00	0	28	0	3144679424	62	4545
2026-01-14 14:19:23.04	325.89	10.41	-48.8	-50.1	14.4	0.00e+00	0	28	0	3150970880	62	4541
2026-01-14 14:19:24.05	326.03	10.35	-49.0	-50.3	14.4	0.00e+00	0	28	0	3156213760	63	4376
2026-01-14 14:19:25.06	326.16	10.29	-48.9	-50.2	14.5	0.00e+00	0	28	0	3162505216	63	4319
2026-01-14 14:19:26.07	326.29	10.23	-48.8	-50.1	14.5	0.00e+00	0	28	0	3167748096	63	4289
2026-01-14 14:19:27.08	326.42	10.17	-49.0	-50.3	14.5	0.00e+00	0	28	0	3174039552	63	4361
2026-01-14 14:19:28.09	326.55	10.11	-48.8	-50.1	14.5	0.00e+00	0	28	0	3179282432	63	4268
2026-01-14 14:19:29.10	326.68	10.04	-48.7	-50.0	14.6	0.00e+00	0	27	0	3184525312	63	4227
2026-01-14 14:19:30.11	326.81	9.98	-48.7	-50.0	14.6	0.00e+00	0	28	0	3190816768	63	4232
2026-01-14 14:19:31.12	326.94	9.92	-48.7	-50.0	14.6	0.00e+00	0	28	0	3196059648	63	4199
2026-01-14 14:19:32.13	327.07	9.86	-48.8	-50.0	14.6	3.40e-06	0	28	0	3201302528	63	4234
2026-01-14 14:19:33.14	327.20	9.80	-48.8	-50.0	14.6	0.00e+00	0	28	0	3207593984	63	4235
2026-01-14 14:19:34.15	327.32	9.74	-48.7	-50.0	14.6	0.00e+00	0	28	0	3212836864	63	4216
2026-01-14 14:19:35.16	327.45	9.68	-48.8	-50.1	14.5	0.00e+00	0	27	0	3219128320	63	4258
2026-01-14 14:19:36.17	327.58	9.62	-48.8	-50.1	14.5	0.00e+00	0	28	0	3224371200	63	4286
2026-01-14 14:19:37.18	327.70	9.56	-48.9	-50.2	14.5	4.50e-06	0	27	0	3229614080	63	4325
2026-01-14 14:19:38.18	327.83	9.50	-49.0	-50.3	14.5	0.00e+00	0	28	0	3235905536	63	4359
2026-01-14 14:19:39.19	327.95	9.44	-49.0	-50.4	14.4	0.00e+00	0	28	0	3241148416	63	4413
2026-01-14 14:19:40.20	328.08	9.38	-49.1	-50.4	14.4	0.00e+00	0	27	0	3247439872	63	4438
2026-01-14 14:19:41.21	328.20	9.32	-49.2	-50.5	14.3	0.00e+00	0	27	0	3252682752	63	4481
2026-01-14 14:19:42.22	328.33	9.26	-49.2	-50.5	14.3	0.00e+00	0	28	0	3258974208	63	4492
2026-01-14 14:19:43.23	328.45	9.19	-49.2	-50.6	14.3	0.00e+00	0	28	0	3264217088	63	4502
2026-01-14 14:19:44.24	328.57	9.13	-49.2	-50.5	14.3	0.00e+00	0	28	0	3270508544	63	4480
2026-01-14 14:19:45.25	328.69	9.07	-49.3	-50.6	14.3	0.00e+00	0	28	0	3275751424	63	4533
2026-01-14 14:19:46.26	328.82	9.01	-49.3	-50.6	14.3	0.00e+00	0	28	0	3280994304	63	4533
2026-01-14 14:19:47.27	328.94	8.95	-49.2	-50.6	14.3	0.00e+00	0	28	0	3287285760	63	4519
2026-01-14 14:19:48.27	329.06	8.89	-49.2	-50.6	14.3	0.00e+00	0	28	0	3292528640	63	4516
2026-01-14 14:19:49.28	329.18	8.83	-49.3	-50.6	14.3	0.00e+00	0	27	0	3297771520	63	4529
2026-01-14 14:19:50.29	329.30	8.77	-49.2	-50.6	14.3	0.00e+00	0	28	0	3304062976	63	4522
2026-01-14 14:19:51.30	329.42	8.71	-49.2	-50.6	14.3	0.00e+00	0	28	0	3309305856	63	4523
2026-01-14 14:19:52.31	329.53	8.65	-49.3	-50.6	14.3	0.00e+00	0	28	0	3315597312	63	4541
2026-01-14 14:19:53.32	329.65	8.59	-49.2	-50.5	14.3	0.00e+00	0	28	0	3320840192	63	4490
2026-01-14 14:19:54.33	329.77	8.53	-49.2	-50.6	14.3	0.00e+00	0	28	0	3326083072	63	4495
2026-01-14 14:19:55.34	329.89	8.47	-49.2	-50.6	14.3	0.00e+00	0	28	0	3332374528	63	4519
2026-01-14 14:19:56.34	330.00	8.41	-49.2	-50.6	14.3	0.00e+00	0	28	0	3337617408	63	4526
2026-01-14 14:19:57.35	330.12	8.35	-49.3	-50.7	14.3	0.00e+00	0	28	0	3343908864	63	4554
2026-01-14 14:19:58.36	330.24	8.29	-49.3	-50.7	14.3	0.00e+00	0	28	0	3349151744	63	4557
2026-01-14 14:19:59.37	330.35	8.23	-49.3	-50.7	14.3	0.00e+00	0	28	0	3355443200	63	4578
2026-01-14 14:20:00.38	330.47	8.17	-49.4	-50.8	14.3	0.00e+00	0	28	0	3360686080	64	4352
2026-01-14 14:20:01.39	330.58	8.11	-49.3	-50.7	14.3	0.00e+00	0	28	0	3366977536	64	4321
2026-01-14 14:20:02.40	330.70	8.05	-49.4	-50.8	14.3	0.00e+00	0	28	0	3372220416	64	4353
2026-01-14 14:20:03.41	330.81	7.99	-49.4	-50.8	14.3	0.00e+00	0	28	0	3377463296	64	4363
2026-01-14 14:20:04.42	330.92	7.93	-49.3	-50.6	14.4	0.00e+00	0	28	0	3383754752	64	4288
2026-01-14 14:20:05.43	331.04	7.87	-49.2	-50.6	14.4	0.00e+00	0	28	0	3388997632	64	4261
2026-01-14 14:20:06.44	331.15	7.81	-49.3	-50.7	14.3	0.00e+00	0	27	0	3395289088	64	4297
2026-01-14 14:20:07.45	331.26	7.76	-49.4	-50.7	14.3	0.00e+00	0	28	0	3400531968	64	4325
2026-01-14 14:20:08.45	331.37	7.70	-49.2	-50.6	14.4	0.00e+00	0	28	0	3405774848	64	4254
2026-01-14 14:20:09.47	331.48	7.64	-49.2	-50.6	14.4	0.00e+00	0	28	0	3412066304	64	4253
2026-01-14 14:20:10.48	331.59	7.58	-49.3	-50.7	14.3	0.00e+00	0	28	0	3417309184	64	4306
2026-01-14 14:20:11.48	331.70	7.52	-49.3	-50.6	14.4	0.00e+00	0	28	0	3423600640	64	4266
2026-01-14 14:20:12.49	331.81	7.46	-49.3	-50.6	14.3	0.00e+00	0	28	0	3428843520	64	4278
2026-01-14 14:20:13.50	331.92	7.40	-49.3	-50.6	14.4	0.00e+00	0	28	0	3434086400	64	4271
2026-01-14 14:20:14.51	332.03	7.34	-49.4	-50.7	14.3	0.00e+00	0	28	0	3440377856	64	4331
2026-01-14 14:20:15.52	332.14	7.28	-49.4	-50.8	14.3	0.00e+00	0	28	0	3445620736	64	4353
2026-01-14 14:20:16.53	332.25	7.22	-49.4	-50.8	14.3	0.00e+00	0	27	0	3451912192	64	4349
2026-01-14 14:20:17.54	332.36	7.16	-49.5	-50.9	14.2	0.00e+00	0	28	0	3457155072	64	4418
2026-01-14 14:20:18.55	332.46	7.10	-49.5	-50.9	14.2	0.00e+00	0	28	0	3463446528	64	4440
2026-01-14 14:20:19.56	332.57	7.05	-49.6	-51.0	14.2	0.00e+00	0	28	0	3468689408	64	4468
2026-01-14 14:20:20.57	332.68	6.99	-49.6	-51.1	14.1	0.00e+00	0	28	0	3473932288	64	4508
2026-01-14 14:20:21.58	332.78	6.93	-49.8	-51.2	14.1	0.00e+00	0	28	0	3480223744	64	4597
2026-01-14 14:20:22.59	332.89	6.87	-49.7	-51.2	14.1	0.00e+00	0	28	0	3485466624	64	4579
2026-01-14 14:20:23.59	332.99	6.81	-49.7	-51.1	14.1	0.00e+00	0	28	0	3491758080	64	4537
2026-01-14 14:20:24.60	333.10	6.75	-49.8	-51.2	14.1	0.00e+00	0	28	0	3497000960	64	4592
2026-01-14 14:20:25.61	333.20	6.69	-49.8	-51.2	14.1	0.00e+00	0	28	0	3502243840	64	4592
2026-01-14 14:20:26.61	333.31	6.64	-49.8	-51.2	14.1	0.00e+00	0	28	0	3508535296	64	4592
2026-01-14 14:20:27.62	333.41	6.58	-49.7	-51.2	14.1	0.00e+00	0	28	0	3513778176	64	4551
2026-01-14 14:20:28.63	333.51	6.52	-49.7	-51.1	14.1	0.00e+00	0	28	0	3519021056	64	4535
2026-01-14 14:20:29.64	333.62	6.46	-49.6	-51.0	14.2	0.00e+00	0	28	0	3525312512	64	4474
2026-01-14 14:20:30.65	333.72	6.40	-49.5	-51.0	14.2	0.00e+00	0	28	0	3530555392	64	4465
2026-01-14 14:20:31.65	333.82	6.35	-49.5	-51.0	14.2	0.00e+00	0	28	0	3536846848	64	4442
2026-01-14 14:20:32.66	333.92	6.29	-49.7	-51.1	14.1	0.00e+00	0	28	0	3542089728	64	4512
2026-01-14 14:20:33.67	334.02	6.23	-49.5	-50.9	14.2	0.00e+00	0	28	0	3548381184	64	4404
2026-01-14 14:20:34.68	334.12	6.17	-49.6	-51.1	14.1	0.00e+00	0	28	0	3553624064	64	4494
2026-01-14 14:20:35.68	334.22	6.11	-49.6	-51.0	14.1	0.00e+00	0	28	0	3559915520	64	4489
2026-01-14 14:20:36.69	334.32	6.06	-49.5	-50.9	14.2	0.00e+00	0	28	0	3565158400	64	4413
2026-01-14 14:20:37.70	334.42	6.00	-49.7	-51.1	14.0	0.00e+00	0	28	0	3570401280	64	4536
2026-01-14 14:20:38.71	334.52	5.94	-49.8	-51.2	14.0	0.00e+00	0	28	0	3576692736	64	4592
2026-01-14 14:20:39.72	334.62	5.88	-49.6	-51.0	14.1	0.00e+00	0	27	0	3581935616	64	4487
2026-01-14 14:20:40.72	334.72	5.83	-49.7	-51.1	14.0	0.00e+00	0	28	0	3587178496	64	4540
2026-01-14 14:20:41.73	334.82	5.77	-49.7	-51.2	14.0	0.00e+00	0	28	0	3593469952	64	4592
2026-01-14 14:20:42.73	334.91	5.71	-50.0	-51.6	13.9	0.00e+00	0	27	0	3598712832	65	4507
2026-01-14 14:20:43.74	335.01	5.65	-50.1	-51.7	13.8	0.00e+00	0	28	0	3605004288	65	4571
