passes_logs/2026/01/14/R3.2S_Murmansk/R3.2S_Murmansk__20260114_090731_FENGYUN_3D_rec.log

#Pass ID: 20260114_090731_FENGYUN 3D
#Satellite: FENGYUN 3D
#Configuration: FENGYUN 3D
#almurnet v.1.7.20251203
#Start time: 2026-01-14 09:07:33

#Version: 2.2.20231116
#Station: R3.2S_Murmansk
#Location: 33.079688 lon 68.888172 lat
#TLE: 1 43010U 17072A   26013.94640698 -.00000044  00000+0  88349-6 0  9999
#TLE: 2 43010  98.9934 345.7464 0002313 110.9627 249.1796 14.19695403423100

#Time	Az	El	Level	Level2	SNR	BER	BlckErr	Temp	State	Recorded	gain1	gain2
2026-01-14 09:07:33.19	96.72	2.11	-58.0	-70.9	3.8	8.46e-01	0	25	0	0	82	15738
2026-01-14 09:07:34.18	96.67	2.17	-58.0	-70.9	3.8	8.45e-01	0	25	104	0	81	16557
2026-01-14 09:07:35.17	96.62	2.23	-57.9	-70.9	3.8	8.46e-01	0	25	104	0	81	16618
2026-01-14 09:07:36.16	96.57	2.29	-58.0	-70.9	3.8	8.46e-01	0	25	104	0	81	16640
2026-01-14 09:07:37.15	96.52	2.35	-57.9	-70.9	3.8	8.45e-01	0	25	104	0	81	16574
2026-01-14 09:07:38.15	96.48	2.41	-57.9	-70.9	3.8	8.46e-01	0	26	104	0	81	16658
2026-01-14 09:07:39.15	96.43	2.47	-57.9	-70.9	3.8	8.46e-01	0	26	104	0	81	16606
2026-01-14 09:07:40.14	96.38	2.53	-58.0	-70.9	3.8	8.45e-01	0	26	104	0	81	16668
2026-01-14 09:07:41.14	96.32	2.59	-58.0	-71.0	3.8	8.46e-01	0	26	104	0	81	16767
2026-01-14 09:07:42.13	96.27	2.65	-58.0	-71.0	3.8	8.47e-01	0	26	104	0	81	16762
2026-01-14 09:07:43.12	96.22	2.71	-58.0	-71.0	3.8	8.46e-01	0	26	104	0	81	16756
2026-01-14 09:07:44.12	96.17	2.77	-58.0	-71.0	3.8	8.46e-01	0	26	104	0	81	16737
2026-01-14 09:07:45.11	96.12	2.83	-58.0	-70.9	3.8	8.46e-01	0	26	104	0	81	16672
2026-01-14 09:07:46.10	96.07	2.90	-58.0	-70.9	3.8	8.45e-01	0	26	104	0	81	16658
2026-01-14 09:07:47.10	96.02	2.96	-58.0	-70.8	3.8	8.46e-01	0	26	104	0	81	16483
2026-01-14 09:07:48.10	95.97	3.02	-58.0	-70.7	3.8	8.45e-01	0	26	104	0	81	16304
2026-01-14 09:07:49.09	95.92	3.08	-58.0	-70.9	3.8	8.45e-01	0	26	104	0	81	16603
2026-01-14 09:07:50.08	95.86	3.14	-58.0	-70.8	3.8	8.46e-01	0	26	104	0	81	16462
2026-01-14 09:07:51.08	95.81	3.20	-58.0	-70.9	3.8	8.45e-01	0	26	104	0	81	16628
2026-01-14 09:07:52.07	95.76	3.27	-58.0	-70.9	3.8	8.45e-01	0	26	104	0	81	16641
2026-01-14 09:07:53.07	95.71	3.33	-58.0	-71.0	3.8	8.46e-01	0	26	104	0	81	16736
2026-01-14 09:07:54.07	95.65	3.39	-58.0	-71.0	3.8	8.45e-01	0	26	104	0	81	16699
2026-01-14 09:07:55.06	95.60	3.45	-58.0	-70.9	3.8	8.45e-01	0	26	104	0	81	16638
2026-01-14 09:07:56.06	95.54	3.51	-58.0	-70.8	3.8	8.46e-01	0	26	104	0	81	16376
2026-01-14 09:07:57.06	95.49	3.58	-58.0	-70.8	3.8	8.45e-01	0	26	104	0	81	16329
2026-01-14 09:07:58.05	95.44	3.64	-58.0	-70.7	3.8	8.46e-01	0	26	104	0	81	16308
2026-01-14 09:07:59.04	95.38	3.70	-58.0	-70.7	3.8	8.46e-01	0	26	104	0	81	16181
2026-01-14 09:08:00.04	95.33	3.77	-58.0	-70.7	3.8	8.46e-01	0	26	104	0	81	16195
2026-01-14 09:08:01.03	95.27	3.83	-58.0	-70.9	3.8	8.46e-01	0	26	104	0	81	16533
2026-01-14 09:08:02.03	95.22	3.89	-58.0	-71.0	3.8	8.45e-01	0	26	104	0	81	16768
2026-01-14 09:08:03.02	95.16	3.95	-58.0	-70.9	3.8	8.46e-01	0	26	104	0	81	16687
2026-01-14 09:08:04.01	95.11	4.02	-58.0	-70.7	3.8	8.45e-01	0	26	104	0	81	16277
2026-01-14 09:08:05.00	95.05	4.08	-57.9	-70.2	3.8	8.46e-01	0	26	104	0	81	15228
2026-01-14 09:08:06.00	95.00	4.14	-57.8	-69.1	3.8	8.45e-01	0	26	104	0	81	13471
2026-01-14 09:08:07.00	94.94	4.21	-57.7	-68.2	4.0	8.45e-01	0	26	104	0	81	12128
2026-01-14 09:08:07.99	94.88	4.27	-57.7	-67.7	4.1	8.39e-01	0	26	0	0	81	11458
2026-01-14 09:08:08.98	94.83	4.33	-57.5	-66.2	4.6	8.23e-01	0	26	0	0	81	9668
2026-01-14 09:08:09.97	94.77	4.40	-57.3	-64.9	5.1	7.65e-01	0	26	0	0	81	8366
2026-01-14 09:08:10.97	94.71	4.46	-57.2	-64.4	5.4	5.82e-01	0	26	0	3145728	80	8357
2026-01-14 09:08:11.97	94.65	4.53	-56.9	-63.2	6.2	3.99e-01	0	26	0	7340032	80	7228
2026-01-14 09:08:12.96	94.59	4.59	-56.5	-61.9	7.3	9.80e-02	0	26	0	13631488	79	6589
2026-01-14 09:08:13.95	94.54	4.66	-56.4	-61.6	7.6	7.94e-02	0	26	0	18874368	79	6356
2026-01-14 09:08:14.93	94.48	4.72	-56.0	-60.7	8.2	4.52e-02	0	26	0	24117248	78	6131
2026-01-14 09:08:15.92	94.42	4.78	-55.4	-59.4	9.4	9.05e-03	0	26	0	30408704	77	5557
2026-01-14 09:08:16.92	94.36	4.85	-55.5	-59.6	9.2	8.50e-03	0	27	0	35651584	77	5703
2026-01-14 09:08:17.91	94.30	4.91	-55.2	-59.0	9.8	4.44e-03	0	26	0	40894464	77	5319
2026-01-14 09:08:18.91	94.24	4.98	-54.9	-58.4	10.2	1.82e-03	0	27	0	47185920	76	5251
2026-01-14 09:08:19.90	94.18	5.04	-55.1	-58.7	9.9	2.17e-03	0	26	0	52428800	76	5457
2026-01-14 09:08:20.90	94.12	5.11	-51.6	-53.5	13.3	0.00e+00	0	26	0	57671680	69	4464
2026-01-14 09:08:21.90	94.06	5.18	-56.2	-60.9	8.3	1.62e-02	0	26	0	63963136	77	6605
2026-01-14 09:08:22.89	94.00	5.24	-56.4	-61.7	7.5	1.36e-02	0	26	0	69206016	77	7227
2026-01-14 09:08:23.89	93.94	5.31	-51.6	-53.5	13.3	6.61e-04	0	27	0	74448896	69	4481
2026-01-14 09:08:24.88	93.88	5.37	-57.1	-63.7	6.1	7.00e-02	0	26	0	80740352	79	8097
2026-01-14 09:08:25.89	93.82	5.44	-52.0	-54.0	13.1	6.92e-03	0	26	0	85983232	70	4465
2026-01-14 09:08:26.89	93.75	5.51	-51.1	-52.9	13.6	0.00e+00	0	27	0	91226112	68	4417
2026-01-14 09:08:27.89	93.69	5.57	-51.2	-53.0	13.5	0.00e+00	0	27	0	96468992	68	4471
2026-01-14 09:08:28.89	93.63	5.64	-51.0	-52.8	13.6	0.00e+00	0	26	0	102760448	68	4387
2026-01-14 09:08:29.89	93.56	5.71	-51.0	-52.9	13.6	0.00e+00	0	26	0	108003328	68	4408
2026-01-14 09:08:30.88	93.50	5.77	-50.3	-52.0	13.9	0.00e+00	0	26	0	113246208	67	4232
2026-01-14 09:08:31.87	93.44	5.84	-50.8	-52.7	13.5	0.00e+00	0	27	0	119537664	67	4557
2026-01-14 09:08:32.86	93.38	5.91	-50.2	-51.8	14.0	0.00e+00	0	27	0	124780544	67	4134
2026-01-14 09:08:33.85	93.31	5.97	-50.6	-52.3	13.6	0.00e+00	0	27	0	130023424	66	4636
2026-01-14 09:08:34.85	93.25	6.04	-50.5	-52.2	13.8	0.00e+00	0	27	0	136314880	67	4330
2026-01-14 09:08:35.84	93.18	6.11	-51.4	-53.3	13.4	0.00e+00	0	27	0	141557760	68	4625
2026-01-14 09:08:36.84	93.12	6.18	-49.4	-51.0	14.2	0.00e+00	0	27	0	146800640	65	4228
2026-01-14 09:08:37.83	93.05	6.24	-49.9	-51.6	13.8	0.00e+00	0	27	0	153092096	64	4780
2026-01-14 09:08:38.83	92.99	6.31	-50.4	-52.2	13.7	0.00e+00	0	27	0	158334976	66	4555
2026-01-14 09:08:39.83	92.92	6.38	-50.2	-51.9	13.9	0.00e+00	0	27	0	163577856	66	4394
2026-01-14 09:08:40.82	92.85	6.45	-50.1	-51.7	14.0	0.00e+00	0	27	0	169869312	66	4325
2026-01-14 09:08:41.81	92.79	6.52	-49.5	-51.1	14.2	0.00e+00	0	27	0	175112192	65	4268
2026-01-14 09:08:42.80	92.72	6.59	-50.0	-51.6	13.9	0.00e+00	0	27	0	180355072	65	4535
2026-01-14 09:08:43.79	92.65	6.65	-49.5	-51.1	14.2	0.00e+00	0	27	0	186646528	65	4253
2026-01-14 09:08:44.79	92.59	6.72	-49.4	-51.0	14.2	0.00e+00	0	27	0	191889408	65	4220
2026-01-14 09:08:45.79	92.52	6.79	-49.6	-51.2	14.1	0.00e+00	0	27	0	197132288	65	4293
2026-01-14 09:08:46.78	92.45	6.86	-49.5	-51.1	14.2	0.00e+00	0	27	0	203423744	65	4262
2026-01-14 09:08:47.77	92.38	6.93	-49.7	-51.3	14.1	0.00e+00	0	27	0	208666624	65	4374
2026-01-14 09:08:48.78	92.31	7.00	-49.5	-51.0	14.2	0.00e+00	0	27	0	213909504	65	4242
2026-01-14 09:08:49.77	92.24	7.07	-49.1	-50.7	14.3	0.00e+00	0	27	0	220200960	64	4298
2026-01-14 09:08:50.76	92.17	7.14	-49.3	-50.8	14.2	0.00e+00	0	27	0	225443840	64	4363
2026-01-14 09:08:51.76	92.10	7.21	-49.2	-50.7	14.3	0.00e+00	0	27	0	230686720	64	4305
2026-01-14 09:08:52.75	92.03	7.28	-49.4	-50.9	14.2	0.00e+00	0	27	0	236978176	64	4417
2026-01-14 09:08:53.75	91.96	7.35	-49.1	-50.7	14.3	0.00e+00	0	27	0	242221056	64	4297
2026-01-14 09:08:54.75	91.89	7.42	-49.0	-50.5	14.3	0.00e+00	0	27	0	248512512	64	4234
2026-01-14 09:08:55.74	91.82	7.49	-49.1	-50.6	14.3	0.00e+00	0	27	0	253755392	64	4272
2026-01-14 09:08:56.74	91.75	7.56	-49.0	-50.5	14.3	0.00e+00	0	27	0	258998272	64	4239
2026-01-14 09:08:57.73	91.68	7.63	-49.0	-50.5	14.4	0.00e+00	0	27	0	264241152	64	4207
2026-01-14 09:08:58.72	91.60	7.70	-49.1	-50.6	14.3	0.00e+00	0	27	0	270532608	64	4252
2026-01-14 09:08:59.71	91.53	7.77	-49.1	-50.6	14.3	0.00e+00	0	27	0	275775488	64	4276
2026-01-14 09:09:00.71	91.46	7.84	-49.2	-50.7	14.3	0.00e+00	0	27	0	281018368	64	4336
2026-01-14 09:09:01.71	91.38	7.91	-49.0	-50.5	14.4	0.00e+00	0	27	0	287309824	64	4210
2026-01-14 09:09:02.70	91.31	7.99	-48.9	-50.4	14.4	0.00e+00	0	27	0	292552704	64	4186
2026-01-14 09:09:03.69	91.24	8.06	-49.0	-50.5	14.4	0.00e+00	0	27	0	298844160	64	4213
2026-01-14 09:09:04.68	91.16	8.13	-48.8	-50.2	14.5	0.00e+00	0	27	0	304087040	64	4087
2026-01-14 09:09:05.67	91.09	8.20	-48.9	-50.4	14.5	0.00e+00	0	27	0	309329920	64	4163
2026-01-14 09:09:06.66	91.01	8.27	-49.0	-50.4	14.4	0.00e+00	0	27	0	314572800	64	4191
2026-01-14 09:09:07.65	90.94	8.34	-49.0	-50.5	14.4	0.00e+00	0	27	0	320864256	64	4213
2026-01-14 09:09:08.65	90.86	8.42	-49.0	-50.5	14.4	0.00e+00	0	27	0	326107136	64	4218
2026-01-14 09:09:09.65	90.78	8.49	-49.0	-50.5	14.4	0.00e+00	0	27	0	331350016	64	4204
2026-01-14 09:09:10.64	90.70	8.56	-48.7	-50.2	14.6	0.00e+00	0	27	0	337641472	64	4061
2026-01-14 09:09:11.64	90.63	8.63	-48.9	-50.4	14.4	0.00e+00	0	27	0	342884352	64	4164
2026-01-14 09:09:12.63	90.55	8.71	-49.0	-50.5	14.4	0.00e+00	0	27	0	348127232	64	4218
2026-01-14 09:09:13.63	90.47	8.78	-48.8	-50.2	14.5	0.00e+00	0	27	0	354418688	64	4091
2026-01-14 09:09:14.62	90.39	8.85	-48.7	-50.2	14.6	0.00e+00	0	27	0	359661568	64	4060
2026-01-14 09:09:15.62	90.31	8.93	-48.9	-50.4	14.4	0.00e+00	0	27	0	364904448	64	4163
2026-01-14 09:09:16.61	90.23	9.00	-48.9	-50.4	14.4	0.00e+00	0	27	0	371195904	64	4181
2026-01-14 09:09:17.60	90.15	9.07	-48.6	-50.1	14.5	0.00e+00	0	27	0	376438784	63	4268
2026-01-14 09:09:18.60	90.07	9.15	-48.8	-50.3	14.4	0.00e+00	0	27	0	381681664	63	4353
2026-01-14 09:09:19.60	89.99	9.22	-48.7	-50.2	14.4	0.00e+00	0	27	0	387973120	63	4301
2026-01-14 09:09:20.59	89.91	9.30	-48.8	-50.3	14.4	0.00e+00	0	27	0	393216000	63	4350
2026-01-14 09:09:21.58	89.83	9.37	-48.7	-50.2	14.4	0.00e+00	0	27	0	398458880	63	4305
2026-01-14 09:09:22.57	89.75	9.44	-48.6	-50.1	14.5	0.00e+00	0	27	0	404750336	63	4260
2026-01-14 09:09:23.56	89.67	9.52	-48.8	-50.3	14.4	0.00e+00	0	27	0	409993216	63	4346
2026-01-14 09:09:24.56	89.58	9.59	-48.7	-50.2	14.4	0.00e+00	0	27	0	415236096	63	4326
2026-01-14 09:09:25.55	89.50	9.67	-48.8	-50.3	14.4	0.00e+00	0	27	0	421527552	63	4359
2026-01-14 09:09:26.54	89.42	9.74	-49.0	-50.5	14.3	0.00e+00	0	27	0	426770432	63	4452
2026-01-14 09:09:27.54	89.33	9.82	-48.8	-50.2	14.4	0.00e+00	0	27	0	432013312	63	4333
2026-01-14 09:09:28.53	89.25	9.90	-48.8	-50.3	14.4	0.00e+00	0	27	0	438304768	63	4341
2026-01-14 09:09:29.52	89.16	9.97	-48.8	-50.2	14.4	0.00e+00	0	27	0	443547648	63	4333
2026-01-14 09:09:30.52	89.08	10.05	-48.8	-50.2	14.4	0.00e+00	0	27	0	448790528	63	4334
2026-01-14 09:09:31.52	88.99	10.12	-48.7	-50.1	14.5	0.00e+00	0	27	0	455081984	63	4287
2026-01-14 09:09:32.51	88.90	10.20	-48.7	-50.1	14.5	0.00e+00	0	27	0	460324864	63	4277
2026-01-14 09:09:33.50	88.82	10.28	-48.6	-50.1	14.5	0.00e+00	0	27	0	465567744	63	4273
2026-01-14 09:09:34.49	88.73	10.35	-48.6	-50.1	14.5	0.00e+00	0	27	0	470810624	63	4275
2026-01-14 09:09:35.48	88.64	10.43	-48.6	-50.1	14.5	0.00e+00	0	27	0	477102080	63	4252
2026-01-14 09:09:36.48	88.55	10.51	-48.4	-49.9	14.6	0.00e+00	0	27	0	482344960	63	4160
2026-01-14 09:09:37.47	88.46	10.58	-48.6	-50.0	14.5	0.00e+00	0	27	0	488636416	63	4231
2026-01-14 09:09:38.46	88.37	10.66	-48.6	-50.0	14.5	0.00e+00	0	27	0	493879296	63	4235
2026-01-14 09:09:39.46	88.28	10.74	-48.6	-50.1	14.5	0.00e+00	0	27	0	499122176	63	4249
2026-01-14 09:09:40.46	88.19	10.82	-48.3	-49.7	14.7	0.00e+00	0	27	0	505413632	63	4070
2026-01-14 09:09:41.45	88.10	10.89	-48.4	-49.8	14.6	0.00e+00	0	27	0	510656512	63	4131
2026-01-14 09:09:42.45	88.01	10.97	-48.4	-49.9	14.6	0.00e+00	0	27	0	515899392	63	4156
2026-01-14 09:09:43.44	87.92	11.05	-48.3	-49.7	14.7	0.00e+00	0	27	0	521142272	63	4057
2026-01-14 09:09:44.43	87.83	11.13	-48.2	-49.7	14.7	0.00e+00	0	27	0	527433728	63	4055
2026-01-14 09:09:45.42	87.73	11.21	-48.3	-49.7	14.7	0.00e+00	0	27	0	532676608	63	4054
2026-01-14 09:09:46.42	87.64	11.28	-48.2	-49.6	14.7	0.00e+00	0	27	0	538968064	63	4030
2026-01-14 09:09:47.41	87.55	11.36	-48.3	-49.7	14.5	0.00e+00	0	27	0	544210944	62	4297
2026-01-14 09:09:48.41	87.45	11.44	-48.2	-49.6	14.6	0.00e+00	0	27	0	549453824	62	4267
2026-01-14 09:09:49.40	87.36	11.52	-48.1	-49.5	14.6	0.00e+00	0	27	0	555745280	62	4225
2026-01-14 09:09:50.40	87.26	11.60	-48.1	-49.5	14.6	0.00e+00	0	27	0	560988160	62	4241
2026-01-14 09:09:51.39	87.17	11.68	-48.1	-49.5	14.7	0.00e+00	0	27	0	566231040	62	4211
2026-01-14 09:09:52.39	87.07	11.76	-48.1	-49.5	14.6	0.00e+00	0	27	0	572522496	62	4240
2026-01-14 09:09:53.38	86.97	11.84	-48.1	-49.5	14.6	0.00e+00	0	27	0	577765376	62	4225
2026-01-14 09:09:54.37	86.87	11.92	-48.0	-49.4	14.7	0.00e+00	0	27	0	583008256	62	4171
2026-01-14 09:09:55.38	86.77	12.00	-48.0	-49.4	14.7	0.00e+00	0	27	0	589299712	62	4170
2026-01-14 09:09:56.37	86.68	12.08	-48.1	-49.5	14.7	0.00e+00	0	27	0	594542592	62	4198
2026-01-14 09:09:57.37	86.58	12.16	-48.0	-49.4	14.7	0.00e+00	0	27	0	599785472	62	4169
2026-01-14 09:09:58.37	86.48	12.24	-48.0	-49.4	14.7	0.00e+00	0	27	0	606076928	62	4154
2026-01-14 09:09:59.36	86.38	12.32	-47.9	-49.2	14.8	0.00e+00	0	27	0	611319808	62	4089
2026-01-14 09:10:00.36	86.27	12.41	-47.8	-49.1	14.8	0.00e+00	0	27	0	616562688	62	4047
2026-01-14 09:10:01.35	86.17	12.49	-47.9	-49.2	14.8	0.00e+00	0	27	0	622854144	62	4082
2026-01-14 09:10:02.34	86.07	12.57	-47.9	-49.3	14.7	0.00e+00	0	27	0	628097024	62	4118
2026-01-14 09:10:03.34	85.97	12.65	-48.0	-49.3	14.7	0.00e+00	0	27	0	633339904	62	4137
2026-01-14 09:10:04.33	85.86	12.73	-48.0	-49.4	14.7	0.00e+00	0	27	0	639631360	62	4154
2026-01-14 09:10:05.32	85.76	12.81	-48.0	-49.4	14.7	0.00e+00	0	27	0	644874240	62	4170
2026-01-14 09:10:06.32	85.66	12.90	-47.8	-49.2	14.8	0.00e+00	0	27	0	650117120	62	4074
2026-01-14 09:10:07.30	85.55	12.98	-47.9	-49.3	14.8	0.00e+00	0	27	0	656408576	62	4102
2026-01-14 09:10:08.29	85.45	13.06	-47.9	-49.3	14.7	0.00e+00	0	27	0	661651456	62	4105
2026-01-14 09:10:09.28	85.34	13.14	-47.8	-49.2	14.8	0.00e+00	0	27	0	666894336	62	4084
2026-01-14 09:10:10.27	85.23	13.22	-47.9	-49.3	14.7	0.00e+00	0	27	0	673185792	62	4113
2026-01-14 09:10:11.26	85.13	13.31	-47.8	-49.2	14.8	0.00e+00	0	27	0	678428672	62	4061
2026-01-14 09:10:12.26	85.02	13.39	-47.6	-48.9	14.8	0.00e+00	0	27	0	683671552	61	4178
2026-01-14 09:10:13.25	84.91	13.47	-47.6	-48.9	14.8	0.00e+00	0	27	0	689963008	61	4191
2026-01-14 09:10:14.25	84.80	13.56	-47.5	-48.8	14.8	0.00e+00	0	27	0	695205888	61	4135
2026-01-14 09:10:15.24	84.69	13.64	-47.5	-48.9	14.8	0.00e+00	0	27	0	700448768	61	4146
2026-01-14 09:10:16.24	84.58	13.73	-47.5	-48.9	14.8	0.00e+00	0	27	0	705691648	61	4148
2026-01-14 09:10:17.23	84.47	13.81	-47.5	-48.9	14.8	0.00e+00	0	27	0	711983104	61	4156
2026-01-14 09:10:18.23	84.35	13.90	-47.6	-49.0	14.8	0.00e+00	0	27	0	717225984	61	4195
2026-01-14 09:10:19.22	84.24	13.98	-47.6	-48.9	14.8	0.00e+00	0	27	0	723517440	61	4174
2026-01-14 09:10:20.22	84.13	14.07	-47.5	-48.8	14.8	0.00e+00	0	27	0	728760320	61	4121
2026-01-14 09:10:21.21	84.01	14.15	-47.7	-48.9	14.8	0.00e+00	0	27	0	734003200	61	4148
2026-01-14 09:10:22.21	83.90	14.24	-47.7	-48.9	14.8	0.00e+00	0	27	0	740294656	61	4156
2026-01-14 09:10:23.20	83.78	14.32	-47.7	-48.9	14.8	0.00e+00	0	27	0	745537536	61	4154
2026-01-14 09:10:24.20	83.67	14.41	-47.6	-48.8	14.8	0.00e+00	0	27	0	750780416	61	4112
2026-01-14 09:10:25.19	83.55	14.49	-47.6	-48.8	14.8	0.00e+00	0	27	0	757071872	61	4141
2026-01-14 09:10:26.19	83.43	14.58	-47.6	-48.8	14.8	0.00e+00	0	27	0	762314752	61	4120
2026-01-14 09:10:27.18	83.31	14.66	-47.6	-48.8	14.8	0.00e+00	0	27	0	767557632	61	4142
2026-01-14 09:10:28.18	83.20	14.75	-47.5	-48.7	14.9	0.00e+00	0	27	0	773849088	61	4080
2026-01-14 09:10:29.18	83.07	14.84	-47.5	-48.7	14.9	0.00e+00	0	27	0	779091968	61	4053
2026-01-14 09:10:30.17	82.96	14.92	-47.4	-48.6	14.9	0.00e+00	0	27	0	784334848	61	4025
2026-01-14 09:10:31.17	82.83	15.01	-47.4	-48.6	14.9	0.00e+00	0	27	0	790626304	61	4046
2026-01-14 09:10:32.17	82.71	15.10	-47.4	-48.6	14.9	0.00e+00	0	27	0	795869184	61	4008
2026-01-14 09:10:33.17	82.59	15.19	-47.3	-48.4	15.0	0.00e+00	0	27	0	801112064	61	3951
2026-01-14 09:10:34.17	82.46	15.27	-47.4	-48.5	14.9	0.00e+00	0	27	0	807403520	61	4001
2026-01-14 09:10:35.15	82.34	15.36	-47.2	-48.4	15.0	0.00e+00	0	27	0	812646400	61	3933
2026-01-14 09:10:36.15	82.22	15.45	-47.1	-48.2	14.9	0.00e+00	0	27	0	817889280	60	4082
2026-01-14 09:10:37.15	82.09	15.54	-47.0	-48.2	14.9	0.00e+00	0	27	0	824180736	60	4071
2026-01-14 09:10:38.14	81.96	15.62	-47.0	-48.2	15.0	0.00e+00	0	27	0	829423616	60	4069
2026-01-14 09:10:39.14	81.84	15.71	-47.1	-48.3	14.9	0.00e+00	0	27	0	835715072	60	4106
2026-01-14 09:10:40.13	81.71	15.80	-47.2	-48.4	14.9	0.00e+00	0	27	0	840957952	60	4168
2026-01-14 09:10:41.13	81.58	15.89	-47.2	-48.4	14.9	0.00e+00	0	27	0	846200832	60	4185
2026-01-14 09:10:42.13	81.45	15.98	-47.3	-48.4	14.8	0.00e+00	0	27	0	851443712	60	4189
2026-01-14 09:10:43.12	81.32	16.07	-47.1	-48.3	14.9	0.00e+00	0	27	0	857735168	60	4109
2026-01-14 09:10:44.12	81.19	16.16	-47.1	-48.3	14.9	0.00e+00	0	27	0	862978048	60	4127
2026-01-14 09:10:45.13	81.05	16.25	-47.1	-48.3	14.9	0.00e+00	0	27	0	868220928	60	4110
2026-01-14 09:10:46.12	80.92	16.34	-47.2	-48.4	14.9	0.00e+00	0	27	0	874512384	60	4162
2026-01-14 09:10:47.12	80.79	16.43	-47.2	-48.4	14.9	0.00e+00	0	27	0	879755264	60	4160
2026-01-14 09:10:48.12	80.65	16.52	-47.1	-48.3	14.9	0.00e+00	0	27	0	886046720	60	4118
2026-01-14 09:10:49.11	80.52	16.61	-47.1	-48.3	14.9	0.00e+00	0	27	0	891289600	60	4123
2026-01-14 09:10:50.11	80.38	16.70	-46.9	-48.0	15.0	0.00e+00	0	27	0	896532480	60	3995
2026-01-14 09:10:51.11	80.24	16.79	-46.9	-48.0	15.0	0.00e+00	0	27	0	902823936	60	3989
2026-01-14 09:10:52.10	80.11	16.88	-46.9	-48.0	15.0	0.00e+00	0	27	0	908066816	60	3981
2026-01-14 09:10:53.09	79.97	16.97	-46.9	-48.0	15.0	0.00e+00	0	27	0	913309696	60	3982
2026-01-14 09:10:54.09	79.83	17.06	-46.9	-48.0	15.0	0.00e+00	0	27	0	919601152	60	3986
2026-01-14 09:10:55.08	79.69	17.15	-46.8	-47.9	15.1	0.00e+00	0	27	0	924844032	60	3927
2026-01-14 09:10:56.08	79.55	17.24	-46.7	-47.9	15.1	0.00e+00	0	27	0	930086912	60	3914
2026-01-14 09:10:57.08	79.41	17.33	-47.0	-48.2	14.9	0.00e+00	0	27	0	936378368	59	4294
2026-01-14 09:10:58.08	79.26	17.42	-47.0	-48.2	14.9	0.00e+00	0	27	0	941621248	59	4312
2026-01-14 09:10:59.06	79.12	17.51	-47.0	-48.2	14.9	0.00e+00	0	27	0	946864128	59	4304
2026-01-14 09:11:00.05	78.98	17.61	-47.1	-48.3	14.9	0.00e+00	0	27	0	953155584	59	4365
2026-01-14 09:11:01.05	78.83	17.70	-47.1	-48.3	14.8	0.00e+00	0	27	0	958398464	59	4379
2026-01-14 09:11:02.04	78.69	17.79	-47.1	-48.2	14.9	0.00e+00	0	27	0	963641344	59	4336
2026-01-14 09:11:03.04	78.54	17.88	-46.9	-48.1	14.9	0.00e+00	0	27	0	969932800	59	4255
2026-01-14 09:11:04.03	78.39	17.97	-47.0	-48.1	14.9	0.00e+00	0	27	0	975175680	59	4278
2026-01-14 09:11:05.04	78.24	18.07	-47.0	-48.2	14.9	0.00e+00	0	27	0	980418560	59	4312
2026-01-14 09:11:06.03	78.09	18.16	-47.1	-48.3	14.8	0.00e+00	0	27	0	986710016	59	4381
2026-01-14 09:11:07.02	77.94	18.25	-47.1	-48.2	14.9	0.00e+00	0	27	0	991952896	59	4335
2026-01-14 09:11:08.02	77.79	18.35	-46.9	-48.1	14.9	0.00e+00	0	27	0	997195776	59	4256
2026-01-14 09:11:09.01	77.63	18.44	-47.0	-48.1	14.9	0.00e+00	0	27	0	1003487232	59	4281
2026-01-14 09:11:10.01	77.48	18.53	-47.0	-48.1	14.9	0.00e+00	0	27	0	1008730112	59	4280
2026-01-14 09:11:11.01	77.32	18.63	-46.8	-48.0	15.0	0.00e+00	0	27	0	1013972992	59	4202
2026-01-14 09:11:12.01	77.17	18.72	-46.8	-47.9	15.0	0.00e+00	0	27	0	1020264448	59	4176
2026-01-14 09:11:13.00	77.01	18.81	-46.8	-47.9	15.0	0.00e+00	0	27	0	1025507328	59	4187
2026-01-14 09:11:13.99	76.86	18.91	-46.8	-47.9	15.0	0.00e+00	0	27	0	1030750208	59	4187
2026-01-14 09:11:14.98	76.70	19.00	-46.7	-47.8	15.0	0.00e+00	0	27	0	1037041664	59	4128
2026-01-14 09:11:15.97	76.54	19.09	-46.5	-47.6	15.1	0.00e+00	0	27	0	1042284544	59	4048
2026-01-14 09:11:16.96	76.38	19.19	-46.4	-47.5	15.1	0.00e+00	0	27	0	1047527424	59	4000
2026-01-14 09:11:17.95	76.22	19.28	-46.5	-47.7	15.1	0.00e+00	0	27	0	1053818880	59	4057
2026-01-14 09:11:18.95	76.05	19.37	-46.5	-47.6	15.1	0.00e+00	0	27	0	1059061760	59	4040
2026-01-14 09:11:19.93	75.89	19.47	-46.6	-47.8	15.0	0.00e+00	0	27	0	1064304640	59	4099
2026-01-14 09:11:20.93	75.73	19.56	-46.5	-47.7	15.1	0.00e+00	0	27	0	1070596096	59	4052
2026-01-14 09:11:21.93	75.56	19.66	-46.5	-47.6	15.1	0.00e+00	0	27	0	1075838976	59	4042
2026-01-14 09:11:22.93	75.39	19.75	-46.5	-47.7	15.1	0.00e+00	0	27	0	1081081856	59	4060
2026-01-14 09:11:23.92	75.23	19.85	-46.7	-47.8	15.0	0.00e+00	0	27	0	1087373312	59	4114
2026-01-14 09:11:24.91	75.06	19.94	-46.4	-47.5	15.1	0.00e+00	0	27	0	1092616192	59	4003
2026-01-14 09:11:25.91	74.89	20.04	-46.4	-47.5	15.1	0.00e+00	0	27	0	1097859072	59	4003
2026-01-14 09:11:26.91	74.71	20.13	-46.5	-47.6	15.1	0.00e+00	0	27	0	1104150528	59	4037
2026-01-14 09:11:27.90	74.54	20.23	-46.4	-47.5	15.1	0.00e+00	0	27	0	1109393408	59	3999
2026-01-14 09:11:28.90	74.37	20.32	-46.5	-47.6	15.1	0.00e+00	0	27	0	1114636288	59	4039
2026-01-14 09:11:29.89	74.20	20.42	-46.5	-47.6	15.1	0.00e+00	0	27	0	1120927744	59	4036
2026-01-14 09:11:30.89	74.02	20.51	-46.5	-47.7	15.1	0.00e+00	0	27	0	1126170624	59	4055
2026-01-14 09:11:31.88	73.84	20.61	-46.5	-47.6	15.1	0.00e+00	0	27	0	1131413504	59	4030
2026-01-14 09:11:32.88	73.67	20.71	-46.6	-47.8	15.0	0.00e+00	0	27	0	1137704960	59	4109
2026-01-14 09:11:33.87	73.49	20.80	-46.6	-47.7	15.0	0.00e+00	0	27	0	1142947840	59	4095
2026-01-14 09:11:34.87	73.31	20.90	-46.7	-47.8	15.0	0.00e+00	0	27	0	1148190720	59	4132
2026-01-14 09:11:35.87	73.12	20.99	-46.7	-47.8	15.0	0.00e+00	0	27	0	1154482176	59	4135
2026-01-14 09:11:36.87	72.94	21.09	-46.7	-47.8	15.0	0.00e+00	0	27	0	1159725056	59	4125
2026-01-14 09:11:37.86	72.76	21.18	-46.7	-47.8	15.0	0.00e+00	0	27	0	1164967936	59	4139
2026-01-14 09:11:38.85	72.58	21.28	-46.5	-47.6	15.1	0.00e+00	0	27	0	1171259392	59	4048
2026-01-14 09:11:39.85	72.39	21.38	-46.6	-47.7	15.1	0.00e+00	0	27	0	1176502272	59	4063
2026-01-14 09:11:40.84	72.20	21.47	-46.6	-47.7	15.1	0.00e+00	0	27	0	1181745152	59	4082
2026-01-14 09:11:41.83	72.02	21.57	-46.5	-47.6	15.1	0.00e+00	0	27	0	1188036608	59	4015
2026-01-14 09:11:42.82	71.83	21.66	-46.5	-47.6	15.1	0.00e+00	0	27	0	1193279488	59	4039
2026-01-14 09:11:43.81	71.64	21.76	-46.6	-47.7	15.1	0.00e+00	0	27	0	1198522368	59	4083
2026-01-14 09:11:44.81	71.45	21.85	-46.4	-47.5	15.1	0.00e+00	0	27	0	1204813824	59	3982
2026-01-14 09:11:45.81	71.25	21.95	-46.4	-47.6	15.1	0.00e+00	0	27	0	1210056704	59	4014
2026-01-14 09:11:46.81	71.06	22.05	-46.5	-47.6	15.1	0.00e+00	0	27	0	1215299584	59	4023
2026-01-14 09:11:47.81	70.86	22.14	-46.5	-47.6	15.1	0.00e+00	0	27	0	1221591040	59	4014
2026-01-14 09:11:48.80	70.67	22.24	-46.6	-47.7	15.1	0.00e+00	0	27	0	1226833920	59	4063
2026-01-14 09:11:49.80	70.47	22.34	-46.3	-47.4	15.2	0.00e+00	0	27	0	1233125376	59	3945
2026-01-14 09:11:50.79	70.27	22.43	-46.4	-47.5	15.1	0.00e+00	0	27	0	1238368256	59	3968
2026-01-14 09:11:51.78	70.07	22.53	-46.3	-47.5	15.2	0.00e+00	0	27	0	1243611136	59	3961
2026-01-14 09:11:52.78	69.87	22.62	-46.3	-47.4	15.2	0.00e+00	0	27	0	1248854016	59	3942
2026-01-14 09:11:53.77	69.67	22.72	-46.2	-47.3	15.2	0.00e+00	0	27	0	1255145472	59	3901
2026-01-14 09:11:54.76	69.46	22.82	-46.2	-47.3	15.2	0.00e+00	0	27	0	1260388352	59	3892
2026-01-14 09:11:55.76	69.26	22.91	-46.2	-47.3	15.2	0.00e+00	0	27	0	1265631232	59	3891
2026-01-14 09:11:56.75	69.05	23.01	-46.1	-47.2	15.1	0.00e+00	0	27	0	1271922688	58	4054
2026-01-14 09:11:57.75	68.84	23.10	-46.0	-47.1	15.1	0.00e+00	0	27	0	1277165568	58	4041
2026-01-14 09:11:58.75	68.63	23.20	-46.0	-47.1	15.2	0.00e+00	0	27	0	1283457024	58	4010
2026-01-14 09:11:59.74	68.42	23.30	-45.8	-46.9	15.2	0.00e+00	0	27	0	1288699904	58	3947
2026-01-14 09:12:00.73	68.21	23.39	-45.9	-47.0	15.2	0.00e+00	0	27	0	1293942784	58	3964
2026-01-14 09:12:01.73	68.00	23.49	-45.8	-46.9	15.2	0.00e+00	0	27	0	1299185664	58	3937
2026-01-14 09:12:02.72	67.78	23.58	-45.8	-46.9	15.2	0.00e+00	0	27	0	1305477120	58	3920
2026-01-14 09:12:03.72	67.57	23.68	-46.0	-47.1	15.1	0.00e+00	0	27	0	1310720000	58	4012
2026-01-14 09:12:04.71	67.35	23.77	-46.0	-47.1	15.1	0.00e+00	0	27	0	1315962880	58	4031
2026-01-14 09:12:05.71	67.13	23.87	-46.1	-47.2	15.1	0.00e+00	0	27	0	1322254336	58	4092
2026-01-14 09:12:06.70	66.91	23.96	-46.1	-47.2	15.1	0.00e+00	0	27	0	1327497216	58	4059
2026-01-14 09:12:07.70	66.69	24.06	-46.2	-47.3	15.1	0.00e+00	0	27	0	1333788672	58	4105
2026-01-14 09:12:08.69	66.47	24.15	-46.2	-47.3	15.1	0.00e+00	0	27	0	1339031552	58	4102
2026-01-14 09:12:09.69	66.25	24.25	-46.0	-47.0	15.2	0.00e+00	0	27	0	1344274432	58	3997
2026-01-14 09:12:10.68	66.02	24.34	-45.9	-47.0	15.2	0.00e+00	0	28	0	1349517312	58	3978
2026-01-14 09:12:11.67	65.80	24.44	-46.0	-47.0	15.1	0.00e+00	0	27	0	1355808768	58	4001
2026-01-14 09:12:12.67	65.57	24.53	-45.7	-46.8	15.2	0.00e+00	0	27	0	1361051648	58	3886
2026-01-14 09:12:13.67	65.34	24.63	-45.6	-46.6	15.1	0.00e+00	0	27	0	1367343104	57	4048
2026-01-14 09:12:14.68	65.10	24.72	-45.6	-46.7	15.1	0.00e+00	0	27	0	1372585984	57	4083
2026-01-14 09:12:15.68	64.87	24.82	-45.7	-46.8	15.1	0.00e+00	0	27	0	1377828864	57	4100
2026-01-14 09:12:16.67	64.64	24.91	-45.8	-46.9	15.1	0.00e+00	0	27	0	1384120320	57	4162
2026-01-14 09:12:17.67	64.40	25.00	-45.8	-46.9	15.1	0.00e+00	0	27	0	1389363200	57	4154
2026-01-14 09:12:18.66	64.17	25.10	-45.8	-46.9	15.1	0.00e+00	0	27	0	1394606080	57	4147
2026-01-14 09:12:19.66	63.93	25.19	-45.6	-46.7	15.1	0.00e+00	0	27	0	1400897536	57	4074
2026-01-14 09:12:20.65	63.69	25.28	-45.7	-46.8	15.1	0.00e+00	0	27	0	1406140416	57	4120
2026-01-14 09:12:21.64	63.45	25.37	-45.5	-46.5	15.2	0.00e+00	0	27	0	1411383296	57	4000
2026-01-14 09:12:22.64	63.21	25.47	-45.6	-46.7	15.1	0.00e+00	0	27	0	1417674752	57	4056
2026-01-14 09:12:23.63	62.97	25.56	-45.6	-46.7	15.1	0.00e+00	0	27	0	1422917632	57	4086
2026-01-14 09:12:24.62	62.72	25.65	-45.7	-46.8	15.1	0.00e+00	0	27	0	1428160512	57	4110
2026-01-14 09:12:25.61	62.48	25.74	-45.6	-46.7	15.1	0.00e+00	0	27	0	1434451968	57	4073
2026-01-14 09:12:26.61	62.23	25.83	-45.7	-46.7	15.1	0.00e+00	0	27	0	1439694848	57	4091
2026-01-14 09:12:27.61	61.98	25.93	-45.7	-46.7	15.1	0.00e+00	0	27	0	1444937728	57	4091
2026-01-14 09:12:28.61	61.73	26.02	-45.7	-46.8	15.1	0.00e+00	0	27	0	1451229184	57	4123
2026-01-14 09:12:29.60	61.47	26.11	-45.7	-46.7	15.1	0.00e+00	0	27	0	1456472064	57	4091
2026-01-14 09:12:30.60	61.22	26.20	-45.7	-46.8	15.1	0.00e+00	0	27	0	1461714944	57	4117
2026-01-14 09:12:31.59	60.97	26.29	-45.6	-46.7	15.1	0.00e+00	0	28	0	1468006400	57	4079
2026-01-14 09:12:32.58	60.71	26.38	-45.6	-46.7	15.1	0.00e+00	0	27	0	1473249280	57	4053
2026-01-14 09:12:33.58	60.45	26.47	-45.4	-46.5	15.2	0.00e+00	0	27	0	1478492160	57	3968
2026-01-14 09:12:34.57	60.19	26.55	-45.5	-46.6	15.2	0.00e+00	0	27	0	1484783616	57	4008
2026-01-14 09:12:35.56	59.93	26.64	-45.6	-46.7	15.2	0.00e+00	0	27	0	1490026496	57	4059
2026-01-14 09:12:36.55	59.67	26.73	-45.7	-46.8	15.1	0.00e+00	0	27	0	1495269376	57	4117
2026-01-14 09:12:37.55	59.41	26.82	-45.8	-46.9	15.1	0.00e+00	0	27	0	1501560832	57	4183
2026-01-14 09:12:38.55	59.14	26.91	-45.8	-46.9	15.1	0.00e+00	0	28	0	1506803712	57	4174
2026-01-14 09:12:39.54	58.88	26.99	-45.7	-46.8	15.1	0.00e+00	0	27	0	1512046592	57	4139
2026-01-14 09:12:40.54	58.61	27.08	-45.7	-46.8	15.1	0.00e+00	0	27	0	1518338048	57	4120
2026-01-14 09:12:41.53	58.34	27.16	-45.6	-46.6	15.2	0.00e+00	0	27	0	1523580928	57	4048
2026-01-14 09:12:42.53	58.07	27.25	-45.5	-46.5	15.2	0.00e+00	0	27	0	1528823808	57	3997
2026-01-14 09:12:43.52	57.80	27.34	-45.4	-46.5	15.2	0.00e+00	0	27	0	1535115264	57	3979
2026-01-14 09:12:44.52	57.52	27.42	-45.3	-46.4	15.3	0.00e+00	0	27	0	1540358144	57	3918
2026-01-14 09:12:45.53	57.24	27.51	-45.3	-46.4	15.2	0.00e+00	0	27	0	1545601024	57	3929
2026-01-14 09:12:46.52	56.97	27.59	-45.1	-46.1	15.2	0.00e+00	0	27	0	1551892480	56	4043
2026-01-14 09:12:47.52	56.69	27.67	-45.0	-46.1	15.2	0.00e+00	0	27	0	1557135360	56	4022
2026-01-14 09:12:48.52	56.41	27.76	-45.1	-46.2	15.2	0.00e+00	0	27	0	1562378240	56	4060
2026-01-14 09:12:49.52	56.12	27.84	-45.1	-46.2	15.2	0.00e+00	0	27	0	1568669696	56	4062
2026-01-14 09:12:50.51	55.84	27.92	-45.2	-46.2	15.2	0.00e+00	0	27	0	1573912576	56	4084
2026-01-14 09:12:51.51	55.56	28.00	-45.2	-46.2	15.1	0.00e+00	0	28	0	1580204032	56	4089
2026-01-14 09:12:52.50	55.27	28.08	-45.1	-46.2	15.2	0.00e+00	0	27	0	1585446912	56	4067
2026-01-14 09:12:53.50	54.98	28.16	-45.1	-46.2	15.2	0.00e+00	0	27	0	1590689792	56	4057
2026-01-14 09:12:54.49	54.70	28.24	-45.2	-46.3	15.1	0.00e+00	0	27	0	1596981248	56	4102
2026-01-14 09:12:55.48	54.41	28.32	-45.3	-46.3	15.1	0.00e+00	0	28	0	1602224128	56	4145
2026-01-14 09:12:56.47	54.12	28.40	-45.4	-46.5	15.1	0.00e+00	0	27	0	1607467008	56	4203
2026-01-14 09:12:57.47	53.82	28.48	-45.6	-46.6	15.1	0.00e+00	0	27	0	1612709888	56	4288
2026-01-14 09:12:58.47	53.53	28.55	-45.3	-46.4	15.1	0.00e+00	0	27	0	1619001344	56	4165
2026-01-14 09:12:59.47	53.23	28.63	-45.3	-46.3	15.1	0.00e+00	0	27	0	1624244224	56	4139
2026-01-14 09:13:00.48	52.93	28.71	-45.2	-46.2	15.2	0.00e+00	0	27	0	1630535680	56	4089
2026-01-14 09:13:01.47	52.63	28.78	-45.1	-46.2	15.2	0.00e+00	0	27	0	1635778560	56	4059
2026-01-14 09:13:02.45	52.34	28.85	-45.2	-46.2	15.2	0.00e+00	0	27	0	1641021440	56	4080
2026-01-14 09:13:03.45	52.03	28.93	-45.2	-46.3	15.1	0.00e+00	0	27	0	1647312896	56	4118
2026-01-14 09:13:04.44	51.73	29.00	-45.1	-46.2	15.2	0.00e+00	0	27	0	1652555776	56	4064
2026-01-14 09:13:05.45	51.43	29.07	-45.1	-46.2	15.2	0.00e+00	0	27	0	1657798656	56	4070
2026-01-14 09:13:06.45	51.12	29.15	-45.1	-46.2	15.2	0.00e+00	0	27	0	1664090112	56	4077
2026-01-14 09:13:07.43	50.82	29.22	-45.2	-46.4	15.2	0.00e+00	0	27	0	1669332992	56	4146
2026-01-14 09:13:08.43	50.51	29.29	-45.3	-46.4	15.2	0.00e+00	0	28	0	1674575872	56	4160
2026-01-14 09:13:09.41	50.20	29.36	-45.3	-46.3	15.1	0.00e+00	0	27	0	1680867328	56	4137
2026-01-14 09:13:10.40	49.89	29.42	-44.9	-45.9	15.2	0.00e+00	0	28	0	1686110208	56	3933
2026-01-14 09:13:11.39	49.58	29.49	-44.7	-45.7	15.3	0.00e+00	0	27	0	1691353088	56	3847
2026-01-14 09:13:12.38	49.27	29.56	-44.7	-45.7	15.3	0.00e+00	0	27	0	1696595968	56	3854
2026-01-14 09:13:13.38	48.95	29.62	-44.6	-45.6	15.2	0.00e+00	0	27	0	1702887424	55	4047
2026-01-14 09:13:14.37	48.64	29.69	-44.7	-45.7	15.2	0.00e+00	0	28	0	1708130304	55	4093
2026-01-14 09:13:15.38	48.32	29.75	-44.8	-45.9	15.1	0.00e+00	0	28	0	1713373184	55	4168
2026-01-14 09:13:16.37	48.00	29.82	-44.8	-45.9	15.1	0.00e+00	0	27	0	1719664640	55	4159
2026-01-14 09:13:17.36	47.68	29.88	-44.8	-45.9	15.1	0.00e+00	0	27	0	1724907520	55	4167
2026-01-14 09:13:18.36	47.36	29.94	-44.8	-45.8	15.1	0.00e+00	0	27	0	1731198976	55	4125
2026-01-14 09:13:19.36	47.04	30.00	-44.7	-45.8	15.1	0.00e+00	0	27	0	1736441856	55	4111
2026-01-14 09:13:20.35	46.71	30.06	-44.7	-45.7	15.2	0.00e+00	0	27	0	1741684736	55	4095
2026-01-14 09:13:21.34	46.39	30.12	-44.8	-45.8	15.1	0.00e+00	0	27	0	1747976192	55	4141
2026-01-14 09:13:22.33	46.07	30.18	-44.8	-45.9	15.1	0.00e+00	0	27	0	1753219072	55	4154
2026-01-14 09:13:23.34	45.73	30.24	-44.8	-45.8	15.2	0.00e+00	0	27	0	1758461952	55	4121
2026-01-14 09:13:24.32	45.41	30.29	-44.8	-45.8	15.2	0.00e+00	0	27	0	1764753408	55	4140
2026-01-14 09:13:25.32	45.08	30.35	-44.7	-45.8	15.2	0.00e+00	0	27	0	1769996288	55	4101
2026-01-14 09:13:26.32	44.75	30.40	-44.8	-45.8	15.1	0.00e+00	0	27	0	1775239168	55	4133
2026-01-14 09:13:27.31	44.42	30.46	-44.8	-45.8	15.1	0.00e+00	0	27	0	1781530624	55	4137
2026-01-14 09:13:28.31	44.08	30.51	-44.7	-45.7	15.2	0.00e+00	0	27	0	1786773504	55	4098
2026-01-14 09:13:29.30	43.75	30.56	-44.9	-45.9	15.1	0.00e+00	0	27	0	1792016384	55	4181
2026-01-14 09:13:30.29	43.42	30.61	-44.9	-46.0	15.1	0.00e+00	0	28	0	1798307840	55	4200
2026-01-14 09:13:31.30	43.08	30.66	-44.8	-45.9	15.1	0.00e+00	0	27	0	1803550720	55	4167
2026-01-14 09:13:32.29	42.74	30.71	-44.9	-45.9	15.1	0.00e+00	0	27	0	1808793600	55	4191
2026-01-14 09:13:33.29	42.40	30.76	-44.9	-46.0	15.1	0.00e+00	0	27	0	1815085056	55	4201
2026-01-14 09:13:34.28	42.07	30.81	-44.6	-45.7	15.2	0.00e+00	0	27	0	1820327936	55	4053
2026-01-14 09:13:35.28	41.72	30.85	-44.6	-45.6	15.2	0.00e+00	0	27	0	1825570816	55	4023
2026-01-14 09:13:36.28	41.38	30.90	-44.6	-45.6	15.2	0.00e+00	0	27	0	1831862272	55	4030
2026-01-14 09:13:37.26	41.04	30.94	-44.6	-45.7	15.2	0.00e+00	0	27	0	1837105152	55	4069
2026-01-14 09:13:38.26	40.70	30.98	-44.7	-45.8	15.2	0.00e+00	0	28	0	1842348032	55	4102
2026-01-14 09:13:39.25	40.36	31.02	-44.6	-45.6	15.2	0.00e+00	0	27	0	1848639488	55	4040
2026-01-14 09:13:40.26	40.01	31.06	-44.6	-45.6	15.2	0.00e+00	0	27	0	1853882368	55	4033
2026-01-14 09:13:41.25	39.67	31.10	-44.6	-45.6	15.2	0.00e+00	0	27	0	1859125248	55	4047
2026-01-14 09:13:42.24	39.32	31.14	-44.7	-45.8	15.2	0.00e+00	0	28	0	1865416704	55	4118
2026-01-14 09:13:43.24	38.97	31.17	-44.7	-45.7	15.2	0.00e+00	0	27	0	1870659584	55	4086
2026-01-14 09:13:44.23	38.63	31.21	-44.6	-45.7	15.2	0.00e+00	0	28	0	1875902464	55	4060
2026-01-14 09:13:45.23	38.28	31.24	-44.7	-45.7	15.2	0.00e+00	0	27	0	1882193920	55	4090
2026-01-14 09:13:46.22	37.93	31.28	-44.7	-45.7	15.2	0.00e+00	0	27	0	1887436800	55	4086
2026-01-14 09:13:47.22	37.58	31.31	-44.6	-45.6	15.2	0.00e+00	0	27	0	1892679680	55	4019
2026-01-14 09:13:48.21	37.23	31.34	-44.5	-45.5	15.2	0.00e+00	0	27	0	1898971136	55	3985
2026-01-14 09:13:49.21	36.88	31.37	-44.5	-45.6	15.2	0.00e+00	0	28	0	1904214016	55	4017
2026-01-14 09:13:50.20	36.53	31.40	-44.6	-45.7	15.2	0.00e+00	0	28	0	1909456896	55	4058
2026-01-14 09:13:51.20	36.17	31.42	-44.5	-45.5	15.2	0.00e+00	0	27	0	1915748352	55	3995
2026-01-14 09:13:52.19	35.82	31.45	-44.4	-45.4	15.3	0.00e+00	0	27	0	1920991232	55	3954
2026-01-14 09:13:53.19	35.47	31.47	-44.4	-45.4	15.3	0.00e+00	0	27	0	1926234112	55	3930
2026-01-14 09:13:54.19	35.11	31.50	-44.4	-45.5	15.2	0.00e+00	0	27	0	1932525568	55	3961
2026-01-14 09:13:55.19	34.75	31.52	-44.3	-45.4	15.3	0.00e+00	0	27	0	1937768448	55	3915
2026-01-14 09:13:56.18	34.40	31.54	-44.4	-45.4	15.3	0.00e+00	0	27	0	1943011328	55	3929
2026-01-14 09:13:57.18	34.04	31.56	-44.5	-45.6	15.2	0.00e+00	0	27	0	1949302784	55	4009
2026-01-14 09:13:58.18	33.69	31.58	-44.5	-45.6	15.2	0.00e+00	0	27	0	1954545664	55	4008
2026-01-14 09:13:59.18	33.33	31.60	-44.7	-45.7	15.2	0.00e+00	0	27	0	1959788544	55	4065
2026-01-14 09:14:00.17	32.97	31.61	-44.7	-45.7	15.2	0.00e+00	0	27	0	1966080000	55	4080
2026-01-14 09:14:01.17	32.61	31.63	-44.6	-45.7	15.2	0.00e+00	0	27	0	1971322880	55	4058
2026-01-14 09:14:02.16	32.26	31.64	-44.5	-45.6	15.2	0.00e+00	0	28	0	1977614336	55	4005
2026-01-14 09:14:03.17	31.90	31.65	-44.5	-45.6	15.2	0.00e+00	0	28	0	1982857216	55	4012
2026-01-14 09:14:04.16	31.54	31.67	-44.5	-45.5	15.2	0.00e+00	0	28	0	1988100096	55	3993
2026-01-14 09:14:05.16	31.18	31.68	-44.4	-45.5	15.2	0.00e+00	0	28	0	1994391552	55	3967
2026-01-14 09:14:06.14	30.83	31.68	-44.4	-45.5	15.3	0.00e+00	0	27	0	1999634432	55	3960
2026-01-14 09:14:07.13	30.47	31.69	-44.3	-45.3	15.3	0.00e+00	0	27	0	2004877312	55	3908
2026-01-14 09:14:08.14	30.11	31.70	-44.3	-45.3	15.3	0.00e+00	0	27	0	2010120192	55	3908
2026-01-14 09:14:09.13	29.75	31.70	-44.4	-45.5	15.3	0.00e+00	0	27	0	2016411648	55	3966
2026-01-14 09:14:10.13	29.39	31.71	-44.6	-45.6	15.2	0.00e+00	0	27	0	2021654528	55	4026
2026-01-14 09:14:11.13	29.03	31.71	-44.4	-45.4	15.3	0.00e+00	0	28	0	2027945984	55	3951
2026-01-14 09:14:12.12	28.67	31.71	-44.4	-45.5	15.2	0.00e+00	0	27	0	2033188864	55	3971
2026-01-14 09:14:13.11	28.31	31.71	-44.4	-45.4	15.3	0.00e+00	0	27	0	2038431744	55	3954
2026-01-14 09:14:14.11	27.95	31.71	-44.4	-45.5	15.3	0.00e+00	0	27	0	2044723200	55	3960
2026-01-14 09:14:15.11	27.59	31.70	-44.4	-45.4	15.3	0.00e+00	0	27	0	2049966080	55	3935
2026-01-14 09:14:16.11	27.23	31.70	-44.6	-45.6	15.2	0.00e+00	0	27	0	2055208960	55	4016
2026-01-14 09:14:17.10	26.88	31.69	-44.7	-45.7	15.2	0.00e+00	0	27	0	2061500416	55	4092
2026-01-14 09:14:18.10	26.52	31.69	-44.8	-45.8	15.1	0.00e+00	0	27	0	2066743296	55	4145
2026-01-14 09:14:19.09	26.16	31.68	-44.7	-45.7	15.2	0.00e+00	0	27	0	2071986176	55	4079
2026-01-14 09:14:20.09	25.80	31.67	-44.7	-45.7	15.2	0.00e+00	0	27	0	2078277632	55	4077
2026-01-14 09:14:21.08	25.44	31.66	-44.5	-45.5	15.2	0.00e+00	0	27	0	2083520512	55	3992
2026-01-14 09:14:22.07	25.09	31.65	-44.5	-45.6	15.2	0.00e+00	0	27	0	2088763392	55	4012
2026-01-14 09:14:23.06	24.73	31.63	-44.6	-45.6	15.2	0.00e+00	0	27	0	2095054848	55	4025
2026-01-14 09:14:24.06	24.37	31.62	-44.5	-45.5	15.2	0.00e+00	0	27	0	2100297728	55	3984
2026-01-14 09:14:25.05	24.02	31.61	-44.5	-45.5	15.2	0.00e+00	0	27	0	2105540608	55	3962
2026-01-14 09:14:26.05	23.66	31.59	-44.4	-45.4	15.3	0.00e+00	0	27	0	2111832064	55	3922
2026-01-14 09:14:27.04	23.31	31.57	-44.3	-45.3	15.3	0.00e+00	0	28	0	2117074944	55	3889
2026-01-14 09:14:28.04	22.95	31.55	-44.4	-45.4	15.3	0.00e+00	0	27	0	2122317824	55	3942
2026-01-14 09:14:29.04	22.59	31.53	-44.5	-45.5	15.2	0.00e+00	0	27	0	2128609280	55	3986
2026-01-14 09:14:30.04	22.23	31.51	-44.5	-45.5	15.2	0.00e+00	0	27	0	2133852160	55	4002
2026-01-14 09:14:31.04	21.88	31.49	-44.6	-45.6	15.2	0.00e+00	0	27	0	2140143616	55	4019
2026-01-14 09:14:32.04	21.52	31.46	-44.7	-45.8	15.1	0.00e+00	0	28	0	2145386496	55	4107
2026-01-14 09:14:33.03	21.17	31.44	-44.9	-45.9	15.1	0.00e+00	0	27	0	2150629376	55	4173
2026-01-14 09:14:34.02	20.82	31.41	-45.0	-46.1	15.1	0.00e+00	0	27	0	2155872256	55	4258
2026-01-14 09:14:35.01	20.47	31.38	-45.1	-46.2	15.1	0.00e+00	0	27	0	2162163712	55	4301
2026-01-14 09:14:36.00	20.12	31.35	-45.2	-46.2	15.1	0.00e+00	0	27	0	2167406592	55	4329
2026-01-14 09:14:36.99	19.77	31.32	-45.1	-46.1	15.1	0.00e+00	0	27	0	2173698048	55	4286
2026-01-14 09:14:37.99	19.42	31.29	-45.0	-46.0	15.1	0.00e+00	0	27	0	2178940928	55	4224
2026-01-14 09:14:38.97	19.08	31.26	-44.9	-46.0	15.1	0.00e+00	0	27	0	2184183808	55	4194
2026-01-14 09:14:39.96	18.73	31.23	-44.6	-45.7	15.2	0.00e+00	0	27	0	2189426688	55	4055
2026-01-14 09:14:40.96	18.38	31.19	-44.5	-45.5	15.2	0.00e+00	0	27	0	2195718144	55	3999
2026-01-14 09:14:41.95	18.04	31.16	-44.5	-45.5	15.2	0.00e+00	0	27	0	2200961024	55	3975
2026-01-14 09:14:42.94	17.69	31.12	-44.4	-45.5	15.2	0.00e+00	0	28	0	2206203904	55	3965
2026-01-14 09:14:43.95	17.34	31.08	-44.3	-45.3	15.3	0.00e+00	0	27	0	2212495360	55	3874
2026-01-14 09:14:44.93	17.00	31.04	-44.2	-45.3	15.3	0.00e+00	0	27	0	2217738240	55	3873
2026-01-14 09:14:45.93	16.66	31.00	-44.4	-45.4	15.3	0.00e+00	0	27	0	2222981120	55	3929
2026-01-14 09:14:46.93	16.31	30.96	-44.4	-45.4	15.3	0.00e+00	0	27	0	2229272576	55	3946
2026-01-14 09:14:47.92	15.97	30.92	-44.5	-45.5	15.2	0.00e+00	0	27	0	2234515456	55	3974
2026-01-14 09:14:48.92	15.63	30.87	-44.5	-45.5	15.2	0.00e+00	0	27	0	2239758336	55	3984
2026-01-14 09:14:49.92	15.29	30.83	-44.5	-45.6	15.2	0.00e+00	0	27	0	2246049792	55	4010
2026-01-14 09:14:50.91	14.95	30.78	-44.7	-45.7	15.2	0.00e+00	0	27	0	2251292672	55	4082
2026-01-14 09:14:51.90	14.61	30.74	-44.8	-45.8	15.2	0.00e+00	0	27	0	2256535552	55	4130
2026-01-14 09:14:52.90	14.27	30.69	-44.8	-45.9	15.1	0.00e+00	0	27	0	2262827008	55	4153
2026-01-14 09:14:53.89	13.94	30.64	-44.9	-45.9	15.1	0.00e+00	0	27	0	2268069888	55	4188
2026-01-14 09:14:54.88	13.61	30.59	-44.8	-45.9	15.1	0.00e+00	0	27	0	2273312768	55	4156
2026-01-14 09:14:55.88	13.27	30.54	-44.9	-45.9	15.1	0.00e+00	0	27	0	2279604224	55	4170
2026-01-14 09:14:56.88	12.93	30.48	-44.8	-45.8	15.2	0.00e+00	0	27	0	2284847104	55	4122
2026-01-14 09:14:57.88	12.60	30.43	-44.8	-45.8	15.1	0.00e+00	0	27	0	2290089984	55	4140
2026-01-14 09:14:58.88	12.27	30.38	-44.5	-45.5	15.2	0.00e+00	0	27	0	2296381440	55	3975
2026-01-14 09:14:59.87	11.94	30.32	-44.4	-45.4	15.2	0.00e+00	0	27	0	2301624320	55	3951
2026-01-14 09:15:00.87	11.61	30.27	-44.5	-45.5	15.2	0.00e+00	0	27	0	2306867200	55	3972
2026-01-14 09:15:01.86	11.28	30.21	-44.6	-45.6	15.2	0.00e+00	0	27	0	2313158656	55	4025
2026-01-14 09:15:02.86	10.96	30.15	-44.7	-45.8	15.2	0.00e+00	0	27	0	2318401536	55	4099
2026-01-14 09:15:03.85	10.63	30.09	-44.8	-45.8	15.2	0.00e+00	0	27	0	2324692992	55	4118
2026-01-14 09:15:04.85	10.31	30.03	-44.8	-45.8	15.2	0.00e+00	0	27	0	2329935872	55	4130
2026-01-14 09:15:05.84	9.99	29.97	-44.7	-45.7	15.2	0.00e+00	0	27	0	2335178752	55	4080
2026-01-14 09:15:06.83	9.67	29.91	-44.7	-45.8	15.2	0.00e+00	0	27	0	2340421632	55	4107
2026-01-14 09:15:07.84	9.34	29.85	-44.7	-45.8	15.2	0.00e+00	0	27	0	2346713088	55	4104
2026-01-14 09:15:08.82	9.03	29.79	-44.9	-45.9	15.1	0.00e+00	0	27	0	2351955968	55	4185
2026-01-14 09:15:09.82	8.71	29.72	-45.0	-46.1	15.1	0.00e+00	0	27	0	2357198848	55	4262
2026-01-14 09:15:10.81	8.39	29.66	-45.1	-46.2	15.1	0.00e+00	0	27	0	2363490304	55	4294
2026-01-14 09:15:11.81	8.08	29.59	-45.0	-46.1	15.1	0.00e+00	0	27	0	2368733184	55	4244
2026-01-14 09:15:12.81	7.76	29.52	-44.9	-46.0	15.1	0.00e+00	0	27	0	2375024640	55	4206
2026-01-14 09:15:13.80	7.45	29.46	-45.0	-46.0	15.1	0.00e+00	0	27	0	2380267520	55	4226
2026-01-14 09:15:14.80	7.14	29.39	-45.0	-46.0	15.1	0.00e+00	0	27	0	2385510400	55	4228
2026-01-14 09:15:15.80	6.83	29.32	-44.8	-45.9	15.1	0.00e+00	0	27	0	2391801856	55	4147
2026-01-14 09:15:16.80	6.52	29.25	-44.6	-45.7	15.2	0.00e+00	0	27	0	2397044736	55	4054
2026-01-14 09:15:17.79	6.21	29.18	-44.8	-45.8	15.2	0.00e+00	0	27	0	2402287616	55	4119
2026-01-14 09:15:18.79	5.91	29.11	-44.8	-45.8	15.1	0.00e+00	0	27	0	2407530496	55	4140
2026-01-14 09:15:19.78	5.60	29.04	-44.8	-45.8	15.1	0.00e+00	0	27	0	2413821952	55	4127
2026-01-14 09:15:20.77	5.30	28.96	-44.7	-45.8	15.2	0.00e+00	0	27	0	2419064832	55	4113
2026-01-14 09:15:21.77	5.00	28.89	-44.8	-45.9	15.1	0.00e+00	0	27	0	2425356288	55	4150
2026-01-14 09:15:22.77	4.70	28.82	-44.8	-45.8	15.1	0.00e+00	0	27	0	2430599168	55	4142
2026-01-14 09:15:23.76	4.40	28.74	-44.7	-45.7	15.2	0.00e+00	0	27	0	2435842048	55	4090
2026-01-14 09:15:24.76	4.10	28.67	-44.6	-45.7	15.2	0.00e+00	0	27	0	2442133504	55	4052
2026-01-14 09:15:25.76	3.80	28.59	-44.6	-45.6	15.2	0.00e+00	0	27	0	2447376384	55	4027
2026-01-14 09:15:26.76	3.51	28.51	-44.6	-45.6	15.2	0.00e+00	0	27	0	2452619264	55	4029
2026-01-14 09:15:27.75	3.22	28.44	-44.6	-45.6	15.2	0.00e+00	0	27	0	2458910720	55	4048
2026-01-14 09:15:28.75	2.92	28.36	-44.8	-45.8	15.2	0.00e+00	0	27	0	2464153600	55	4127
2026-01-14 09:15:29.75	2.63	28.28	-44.9	-45.9	15.1	0.00e+00	0	28	0	2469396480	55	4183
2026-01-14 09:15:30.75	2.34	28.20	-44.8	-45.8	15.1	0.00e+00	0	27	0	2475687936	55	4145
2026-01-14 09:15:31.74	2.06	28.12	-44.8	-45.9	15.1	0.00e+00	0	27	0	2480930816	55	4148
2026-01-14 09:15:32.74	1.77	28.04	-44.7	-45.7	15.2	0.00e+00	0	27	0	2486173696	55	4077
2026-01-14 09:15:33.73	1.48	27.96	-44.7	-45.7	15.2	0.00e+00	0	27	0	2492465152	55	4091
2026-01-14 09:15:34.72	1.20	27.88	-44.7	-45.8	15.2	0.00e+00	0	27	0	2497708032	55	4100
2026-01-14 09:15:35.72	0.92	27.80	-44.8	-45.8	15.2	0.00e+00	0	27	0	2502950912	55	4127
2026-01-14 09:15:36.71	0.64	27.71	-44.9	-45.9	15.1	0.00e+00	0	27	0	2509242368	55	4188
2026-01-14 09:15:37.71	0.36	27.63	-44.9	-45.9	15.1	0.00e+00	0	28	0	2514485248	55	4175
2026-01-14 09:15:38.70	0.09	27.55	-45.0	-46.0	15.1	0.00e+00	0	27	0	2519728128	55	4224
2026-01-14 09:15:39.70	359.81	27.46	-45.0	-46.0	15.1	0.00e+00	0	27	0	2526019584	55	4226
2026-01-14 09:15:40.68	359.54	27.38	-44.9	-46.0	15.1	0.00e+00	0	27	0	2531262464	55	4205
2026-01-14 09:15:41.67	359.27	27.30	-45.1	-46.1	15.1	0.00e+00	0	27	0	2536505344	55	4265
2026-01-14 09:15:42.67	358.99	27.21	-45.0	-46.1	15.1	0.00e+00	0	27	0	2542796800	55	4251
2026-01-14 09:15:43.66	358.73	27.12	-45.1	-46.2	15.1	0.00e+00	0	27	0	2548039680	55	4307
2026-01-14 09:15:44.65	358.46	27.04	-45.1	-46.1	15.1	0.00e+00	0	27	0	2553282560	55	4287
2026-01-14 09:15:45.65	358.19	26.95	-45.1	-46.1	15.1	0.00e+00	0	27	0	2559574016	55	4291
2026-01-14 09:15:46.64	357.93	26.87	-45.1	-46.2	15.1	0.00e+00	0	28	0	2564816896	55	4295
2026-01-14 09:15:47.64	357.66	26.78	-45.1	-46.2	15.1	0.00e+00	0	27	0	2570059776	55	4316
2026-01-14 09:15:48.64	357.40	26.69	-45.1	-46.2	15.1	0.00e+00	0	27	0	2576351232	55	4314
2026-01-14 09:15:49.64	357.14	26.60	-45.2	-46.2	15.1	0.00e+00	0	27	0	2581594112	55	4340
2026-01-14 09:15:50.64	356.87	26.51	-45.2	-46.2	15.0	0.00e+00	0	27	0	2587885568	55	4331
2026-01-14 09:15:51.64	356.62	26.42	-45.2	-46.2	15.0	0.00e+00	0	27	0	2593128448	55	4322
2026-01-14 09:15:52.63	356.36	26.33	-45.1	-46.2	15.1	0.00e+00	0	27	0	2598371328	55	4305
2026-01-14 09:15:53.62	356.11	26.24	-45.2	-46.2	15.1	0.00e+00	0	27	0	2603614208	55	4324
2026-01-14 09:15:54.62	355.85	26.15	-45.1	-46.2	15.1	0.00e+00	0	27	0	2609905664	55	4302
2026-01-14 09:15:55.61	355.60	26.06	-45.2	-46.3	15.1	0.00e+00	0	28	0	2615148544	55	4354
2026-01-14 09:15:56.61	355.35	25.97	-45.2	-46.3	15.1	0.00e+00	0	27	0	2621440000	55	4342
2026-01-14 09:15:57.61	355.10	25.88	-45.1	-46.2	15.1	0.00e+00	0	28	0	2626682880	55	4295
2026-01-14 09:15:58.59	354.85	25.79	-45.1	-46.2	15.1	0.00e+00	0	27	0	2631925760	55	4294
2026-01-14 09:15:59.59	354.61	25.70	-45.1	-46.2	15.1	0.00e+00	0	27	0	2638217216	55	4310
2026-01-14 09:16:00.59	354.36	25.61	-45.2	-46.2	15.0	0.00e+00	0	27	0	2643460096	55	4330
2026-01-14 09:16:01.58	354.12	25.52	-45.1	-46.1	15.1	0.00e+00	0	28	0	2648702976	55	4266
2026-01-14 09:16:02.57	353.88	25.43	-45.2	-46.2	15.0	0.00e+00	0	28	0	2653945856	55	4316
2026-01-14 09:16:03.57	353.63	25.33	-45.1	-46.2	15.1	0.00e+00	0	28	0	2660237312	55	4313
2026-01-14 09:16:04.57	353.39	25.24	-45.2	-46.2	15.1	0.00e+00	0	27	0	2665480192	55	4335
2026-01-14 09:16:05.55	353.16	25.15	-45.1	-46.1	15.1	0.00e+00	0	27	0	2671771648	55	4284
2026-01-14 09:16:06.54	352.92	25.06	-45.0	-46.0	15.1	0.00e+00	0	28	0	2677014528	55	4234
2026-01-14 09:16:07.54	352.69	24.96	-45.1	-46.1	15.1	0.00e+00	0	27	0	2682257408	55	4281
2026-01-14 09:16:08.53	352.45	24.87	-45.1	-46.1	15.1	0.00e+00	0	27	0	2687500288	55	4278
2026-01-14 09:16:09.53	352.22	24.77	-45.3	-46.3	15.0	0.00e+00	0	27	0	2693791744	55	4391
2026-01-14 09:16:10.52	351.99	24.68	-45.6	-46.7	15.0	0.00e+00	0	28	0	2699034624	56	4334
2026-01-14 09:16:11.51	351.76	24.59	-45.6	-46.7	15.1	0.00e+00	0	28	0	2704277504	56	4316
2026-01-14 09:16:12.50	351.54	24.49	-45.7	-46.8	15.0	0.00e+00	0	27	0	2710568960	56	4341
2026-01-14 09:16:13.50	351.31	24.40	-45.5	-46.6	15.0	0.00e+00	0	28	0	2715811840	56	4274
2026-01-14 09:16:14.49	351.08	24.31	-45.6	-46.7	15.0	0.00e+00	0	28	0	2722103296	56	4294
2026-01-14 09:16:15.48	350.86	24.21	-45.5	-46.5	15.1	0.00e+00	0	28	0	2727346176	56	4233
2026-01-14 09:16:16.47	350.64	24.12	-45.6	-46.6	15.0	0.00e+00	0	28	0	2732589056	56	4278
2026-01-14 09:16:17.46	350.42	24.02	-45.6	-46.7	15.0	0.00e+00	0	28	0	2737831936	56	4295
2026-01-14 09:16:18.45	350.20	23.93	-45.6	-46.6	15.0	0.00e+00	0	28	0	2744123392	56	4291
2026-01-14 09:16:19.45	349.98	23.83	-45.6	-46.7	15.0	0.00e+00	0	27	0	2749366272	56	4294
2026-01-14 09:16:20.43	349.77	23.74	-45.5	-46.6	15.1	0.00e+00	0	28	0	2754609152	56	4268
2026-01-14 09:16:21.43	349.55	23.64	-45.6	-46.6	15.0	0.00e+00	0	27	0	2760900608	56	4284
2026-01-14 09:16:22.42	349.34	23.55	-45.6	-46.6	15.1	0.00e+00	0	28	0	2766143488	56	4286
2026-01-14 09:16:23.42	349.12	23.45	-45.8	-46.8	15.0	0.00e+00	0	27	0	2771386368	56	4382
2026-01-14 09:16:24.41	348.91	23.36	-45.7	-46.8	15.0	0.00e+00	0	27	0	2777677824	56	4358
2026-01-14 09:16:25.40	348.70	23.26	-45.6	-46.7	15.0	0.00e+00	0	28	0	2782920704	56	4327
2026-01-14 09:16:26.39	348.49	23.17	-45.6	-46.7	15.0	0.00e+00	0	27	0	2788163584	56	4310
2026-01-14 09:16:27.39	348.28	23.07	-45.6	-46.6	15.0	0.00e+00	0	28	0	2793406464	56	4278
2026-01-14 09:16:28.38	348.08	22.98	-45.7	-46.7	15.0	0.00e+00	0	28	0	2799697920	56	4337
2026-01-14 09:16:29.37	347.87	22.88	-45.7	-46.7	15.0	0.00e+00	0	27	0	2804940800	56	4326
2026-01-14 09:16:30.37	347.67	22.78	-45.8	-46.9	15.0	0.00e+00	0	28	0	2811232256	56	4419
2026-01-14 09:16:31.36	347.47	22.69	-45.9	-47.0	15.0	0.00e+00	0	27	0	2816475136	56	4454
2026-01-14 09:16:32.35	347.26	22.59	-46.0	-47.1	15.0	0.00e+00	0	28	0	2821718016	57	4254
2026-01-14 09:16:33.34	347.07	22.50	-45.9	-47.0	15.0	0.00e+00	0	27	0	2828009472	57	4213
2026-01-14 09:16:34.33	346.87	22.40	-45.9	-47.0	15.0	0.00e+00	0	27	0	2833252352	57	4215
2026-01-14 09:16:35.33	346.67	22.31	-45.8	-46.9	15.1	0.00e+00	0	27	0	2838495232	57	4182
2026-01-14 09:16:36.32	346.47	22.21	-45.8	-46.8	15.1	0.00e+00	0	27	0	2843738112	57	4144
2026-01-14 09:16:37.31	346.28	22.11	-45.9	-46.9	15.1	0.00e+00	0	27	0	2850029568	57	4188
2026-01-14 09:16:38.31	346.08	22.02	-45.9	-47.0	15.1	0.00e+00	0	27	0	2855272448	57	4197
2026-01-14 09:16:39.29	345.89	21.92	-46.0	-47.1	15.0	0.00e+00	0	27	0	2861563904	57	4245
2026-01-14 09:16:40.28	345.70	21.83	-45.9	-47.0	15.0	0.00e+00	0	28	0	2866806784	57	4199
2026-01-14 09:16:41.28	345.51	21.73	-45.8	-46.8	15.1	0.00e+00	0	27	0	2872049664	57	4138
2026-01-14 09:16:42.27	345.32	21.64	-45.7	-46.8	15.1	0.00e+00	0	27	0	2877292544	57	4124
2026-01-14 09:16:43.27	345.13	21.54	-45.8	-46.8	15.1	0.00e+00	0	27	0	2883584000	57	4139
2026-01-14 09:16:44.27	344.94	21.44	-45.8	-46.8	15.1	0.00e+00	0	28	0	2888826880	57	4135
2026-01-14 09:16:45.27	344.76	21.35	-45.7	-46.8	15.1	0.00e+00	0	27	0	2894069760	57	4129
2026-01-14 09:16:46.25	344.57	21.25	-45.7	-46.8	15.1	0.00e+00	0	27	0	2900361216	57	4099
2026-01-14 09:16:47.25	344.39	21.16	-45.7	-46.7	15.1	0.00e+00	0	28	0	2905604096	57	4095
2026-01-14 09:16:48.25	344.21	21.06	-45.7	-46.8	15.1	0.00e+00	0	27	0	2911895552	57	4100
2026-01-14 09:16:49.25	344.02	20.96	-45.6	-46.7	15.1	0.00e+00	0	28	0	2917138432	57	4083
2026-01-14 09:16:50.24	343.85	20.87	-45.7	-46.8	15.1	0.00e+00	0	27	0	2922381312	57	4113
2026-01-14 09:16:51.24	343.67	20.77	-45.8	-46.8	15.1	0.00e+00	0	27	0	2927624192	57	4142
2026-01-14 09:16:52.23	343.49	20.68	-45.9	-47.0	15.0	0.00e+00	0	27	0	2933915648	57	4207
2026-01-14 09:16:53.22	343.31	20.58	-46.0	-47.0	15.0	0.00e+00	0	27	0	2939158528	57	4240
2026-01-14 09:16:54.21	343.14	20.49	-46.0	-47.0	15.0	0.00e+00	0	27	0	2944401408	57	4242
2026-01-14 09:16:55.21	342.96	20.39	-46.0	-47.1	15.0	0.00e+00	0	28	0	2950692864	57	4283
2026-01-14 09:16:56.20	342.79	20.30	-46.0	-47.1	15.0	0.00e+00	0	28	0	2955935744	57	4260
2026-01-14 09:16:57.20	342.62	20.20	-46.1	-47.2	15.0	0.00e+00	0	27	0	2962227200	57	4304
2026-01-14 09:16:58.19	342.45	20.11	-46.1	-47.2	15.0	0.00e+00	0	28	0	2967470080	57	4329
2026-01-14 09:16:59.19	342.27	20.01	-46.2	-47.3	15.0	0.00e+00	0	28	0	2972712960	57	4344
2026-01-14 09:17:00.19	342.10	19.92	-46.1	-47.2	15.0	0.00e+00	0	28	0	2979004416	57	4325
2026-01-14 09:17:01.18	341.94	19.82	-46.1	-47.1	15.0	0.00e+00	0	28	0	2984247296	57	4285
2026-01-14 09:17:02.18	341.77	19.73	-46.1	-47.2	15.0	0.00e+00	0	27	0	2989490176	57	4305
2026-01-14 09:17:03.17	341.60	19.63	-46.1	-47.2	15.0	0.00e+00	0	28	0	2994733056	57	4329
2026-01-14 09:17:04.17	341.44	19.54	-46.2	-47.3	15.0	0.00e+00	0	28	0	3001024512	57	4376
2026-01-14 09:17:05.16	341.28	19.45	-46.2	-47.4	15.0	0.00e+00	0	27	0	3006267392	57	4398
2026-01-14 09:17:06.16	341.11	19.35	-46.4	-47.5	14.9	0.00e+00	0	28	0	3012558848	57	4473
2026-01-14 09:17:07.16	340.95	19.26	-46.4	-47.5	15.0	0.00e+00	0	28	0	3017801728	58	4208
2026-01-14 09:17:08.15	340.79	19.16	-46.3	-47.4	15.0	0.00e+00	0	28	0	3023044608	58	4193
2026-01-14 09:17:09.15	340.63	19.07	-46.3	-47.4	15.0	0.00e+00	0	28	0	3029336064	58	4159
2026-01-14 09:17:10.14	340.47	18.98	-46.3	-47.4	15.0	0.00e+00	0	27	0	3034578944	58	4185
2026-01-14 09:17:11.14	340.31	18.88	-46.3	-47.4	15.0	0.00e+00	0	28	0	3039821824	58	4191
2026-01-14 09:17:12.13	340.16	18.79	-46.4	-47.5	15.0	0.00e+00	0	27	0	3046113280	58	4238
2026-01-14 09:17:13.13	340.00	18.69	-46.5	-47.7	15.0	0.00e+00	0	28	0	3051356160	58	4295
2026-01-14 09:17:14.12	339.84	18.60	-46.6	-47.7	14.9	0.00e+00	0	28	0	3056599040	58	4330
2026-01-14 09:17:15.12	339.69	18.51	-46.5	-47.6	15.0	0.00e+00	0	27	0	3062890496	58	4273
2026-01-14 09:17:16.12	339.54	18.41	-46.5	-47.7	15.0	0.00e+00	0	28	0	3068133376	58	4301
2026-01-14 09:17:17.11	339.38	18.32	-46.5	-47.6	15.0	0.00e+00	0	27	0	3073376256	58	4281
2026-01-14 09:17:18.10	339.23	18.23	-46.6	-47.7	14.9	0.00e+00	0	27	0	3079667712	58	4308
2026-01-14 09:17:19.10	339.08	18.14	-46.6	-47.7	14.9	0.00e+00	0	28	0	3084910592	58	4332
2026-01-14 09:17:20.09	338.93	18.05	-46.6	-47.7	14.9	0.00e+00	0	28	0	3090153472	58	4305
2026-01-14 09:17:21.09	338.79	17.95	-46.6	-47.7	14.9	0.00e+00	0	28	0	3096444928	58	4319
2026-01-14 09:17:22.08	338.64	17.86	-46.6	-47.7	14.9	0.00e+00	0	28	0	3101687808	58	4322
2026-01-14 09:17:23.07	338.49	17.77	-46.6	-47.8	14.9	0.00e+00	0	28	0	3106930688	58	4343
2026-01-14 09:17:24.07	338.35	17.68	-46.7	-47.9	14.9	0.00e+00	0	27	0	3113222144	58	4396
2026-01-14 09:17:25.06	338.20	17.59	-46.9	-48.1	14.9	0.00e+00	0	27	0	3118465024	58	4495
2026-01-14 09:17:26.05	338.06	17.49	-46.9	-48.0	14.9	0.00e+00	0	27	0	3123707904	58	4479
2026-01-14 09:17:27.04	337.92	17.40	-47.0	-48.1	14.9	0.00e+00	0	27	0	3128950784	59	4275
2026-01-14 09:17:28.03	337.78	17.31	-46.9	-48.1	14.9	0.00e+00	0	28	0	3135242240	59	4250
2026-01-14 09:17:29.03	337.63	17.22	-47.0	-48.1	14.9	0.00e+00	0	28	0	3140485120	59	4289
2026-01-14 09:17:30.02	337.50	17.13	-46.9	-48.0	14.9	0.00e+00	0	28	0	3146776576	59	4215
2026-01-14 09:17:31.02	337.35	17.04	-47.0	-48.1	14.9	0.00e+00	0	28	0	3152019456	59	4265
2026-01-14 09:17:32.01	337.22	16.95	-47.1	-48.2	14.9	0.00e+00	0	27	0	3157262336	59	4321
2026-01-14 09:17:33.01	337.08	16.86	-47.1	-48.2	14.9	0.00e+00	0	27	0	3163553792	59	4325
2026-01-14 09:17:34.01	336.94	16.77	-47.1	-48.3	14.9	0.00e+00	0	28	0	3168796672	59	4346
2026-01-14 09:17:35.00	336.81	16.68	-47.2	-48.3	14.9	0.00e+00	0	28	0	3174039552	59	4374
2026-01-14 09:17:35.99	336.67	16.59	-47.2	-48.4	14.8	0.00e+00	0	27	0	3180331008	59	4424
2026-01-14 09:17:36.99	336.54	16.50	-47.3	-48.5	14.8	0.00e+00	0	27	0	3185573888	59	4453
2026-01-14 09:17:37.98	336.40	16.41	-47.1	-48.2	15.0	0.00e+00	0	28	0	3190816768	60	4085
2026-01-14 09:17:38.98	336.27	16.32	-47.2	-48.4	14.9	0.00e+00	0	28	0	3197108224	60	4149
2026-01-14 09:17:39.97	336.14	16.23	-46.9	-48.1	15.0	0.00e+00	0	28	0	3202351104	60	4010
2026-01-14 09:17:40.97	336.01	16.14	-46.9	-48.0	15.0	0.00e+00	0	27	0	3207593984	60	3991
2026-01-14 09:17:41.95	335.88	16.05	-46.9	-48.0	15.0	0.00e+00	0	27	0	3213885440	60	3998
2026-01-14 09:17:42.95	335.75	15.97	-46.8	-47.9	15.1	0.00e+00	0	27	0	3219128320	60	3944
2026-01-14 09:17:43.94	335.62	15.88	-46.9	-48.0	15.0	0.00e+00	0	27	0	3224371200	60	3993
2026-01-14 09:17:44.93	335.49	15.79	-46.9	-48.0	15.0	0.00e+00	0	27	0	3229614080	60	4004
2026-01-14 09:17:45.94	335.36	15.70	-47.0	-48.1	15.0	0.00e+00	0	28	0	3235905536	60	4033
2026-01-14 09:17:46.94	335.24	15.61	-47.1	-48.2	14.9	0.00e+00	0	28	0	3241148416	60	4082
2026-01-14 09:17:47.94	335.11	15.52	-47.0	-48.1	15.0	0.00e+00	0	28	0	3247439872	60	4049
2026-01-14 09:17:48.92	334.99	15.44	-47.0	-48.1	15.0	0.00e+00	0	28	0	3252682752	60	4040
2026-01-14 09:17:49.92	334.86	15.35	-47.1	-48.2	15.0	0.00e+00	0	28	0	3257925632	60	4074
2026-01-14 09:17:50.91	334.74	15.26	-47.1	-48.3	14.9	0.00e+00	0	28	0	3264217088	60	4121
2026-01-14 09:17:51.91	334.62	15.17	-47.1	-48.3	14.9	0.00e+00	0	27	0	3269459968	60	4118
2026-01-14 09:17:52.90	334.49	15.09	-47.1	-48.3	14.9	0.00e+00	0	27	0	3274702848	60	4105
2026-01-14 09:17:53.89	334.37	15.00	-47.2	-48.3	14.9	0.00e+00	0	27	0	3280994304	60	4142
2026-01-14 09:17:54.89	334.25	14.91	-47.2	-48.3	14.9	0.00e+00	0	28	0	3286237184	60	4130
2026-01-14 09:17:55.89	334.13	14.83	-47.2	-48.4	14.9	0.00e+00	0	27	0	3291480064	60	4151
2026-01-14 09:17:56.89	334.01	14.74	-47.4	-48.5	14.8	0.00e+00	0	28	0	3297771520	60	4230
2026-01-14 09:17:57.89	333.89	14.65	-47.4	-48.5	14.8	0.00e+00	0	27	0	3303014400	60	4222
2026-01-14 09:17:58.88	333.78	14.57	-47.4	-48.6	14.8	0.00e+00	0	28	0	3308257280	60	4243
2026-01-14 09:17:59.87	333.66	14.48	-47.4	-48.6	14.8	0.00e+00	0	28	0	3314548736	60	4257
2026-01-14 09:18:00.87	333.54	14.40	-47.4	-48.6	14.8	0.00e+00	0	28	0	3319791616	60	4270
2026-01-14 09:18:01.86	333.43	14.31	-47.5	-48.6	14.8	0.00e+00	0	28	0	3325034496	60	4281
2026-01-14 09:18:02.87	333.31	14.23	-47.4	-48.6	14.8	0.00e+00	0	27	0	3331325952	60	4269
2026-01-14 09:18:03.86	333.20	14.14	-47.5	-48.6	14.8	0.00e+00	0	28	0	3336568832	60	4291
2026-01-14 09:18:04.85	333.08	14.06	-47.5	-48.7	14.8	0.00e+00	0	28	0	3341811712	60	4314
2026-01-14 09:18:05.85	332.97	13.97	-47.6	-48.8	14.7	0.00e+00	0	27	0	3348103168	60	4356
2026-01-14 09:18:06.84	332.86	13.89	-47.5	-48.7	14.8	0.00e+00	0	27	0	3353346048	60	4307
2026-01-14 09:18:07.83	332.75	13.80	-47.6	-48.8	14.8	0.00e+00	0	28	0	3358588928	60	4348
2026-01-14 09:18:08.82	332.64	13.72	-47.5	-48.7	14.8	0.00e+00	0	28	0	3364880384	60	4323
2026-01-14 09:18:09.81	332.53	13.64	-47.5	-48.7	14.8	0.00e+00	0	28	0	3370123264	60	4295
2026-01-14 09:18:10.81	332.42	13.55	-47.6	-48.8	14.7	0.00e+00	0	27	0	3375366144	60	4364
2026-01-14 09:18:11.81	332.31	13.47	-47.7	-48.9	14.7	0.00e+00	0	28	0	3381657600	60	4419
2026-01-14 09:18:12.81	332.20	13.38	-47.6	-48.8	14.7	5.70e-06	0	28	0	3386900480	60	4381
2026-01-14 09:18:13.80	332.09	13.30	-47.7	-48.9	14.7	0.00e+00	0	28	0	3392143360	60	4418
2026-01-14 09:18:14.80	331.98	13.22	-47.7	-49.0	14.7	0.00e+00	0	28	0	3398434816	60	4442
2026-01-14 09:18:15.80	331.88	13.14	-47.7	-48.9	14.7	0.00e+00	0	28	0	3403677696	60	4427
2026-01-14 09:18:16.79	331.77	13.05	-47.7	-48.9	14.7	0.00e+00	0	28	0	3408920576	60	4417
2026-01-14 09:18:17.78	331.67	12.97	-47.7	-48.9	14.7	0.00e+00	0	28	0	3415212032	60	4431
2026-01-14 09:18:18.78	331.56	12.89	-47.8	-49.0	14.7	0.00e+00	0	28	0	3420454912	60	4480
2026-01-14 09:18:19.77	331.46	12.81	-47.8	-49.0	14.7	0.00e+00	0	27	0	3425697792	60	4468
2026-01-14 09:18:20.76	331.36	12.72	-47.8	-49.0	14.7	1.10e-06	0	27	0	3431989248	60	4485
2026-01-14 09:18:21.75	331.25	12.64	-47.8	-49.0	14.7	0.00e+00	0	27	0	3437232128	60	4474
2026-01-14 09:18:22.74	331.15	12.56	-47.7	-48.9	14.7	0.00e+00	0	28	0	3442475008	60	4399
2026-01-14 09:18:23.74	331.05	12.48	-47.7	-48.9	14.7	2.20e-06	0	27	0	3448766464	60	4402
2026-01-14 09:18:24.73	330.95	12.40	-47.7	-48.9	14.7	0.00e+00	0	28	0	3454009344	60	4413
2026-01-14 09:18:25.73	330.85	12.32	-47.7	-48.9	14.7	0.00e+00	0	27	0	3459252224	60	4414
2026-01-14 09:18:26.72	330.75	12.24	-47.8	-49.0	14.7	0.00e+00	0	27	0	3465543680	60	4489
2026-01-14 09:18:27.72	330.65	12.16	-47.8	-49.1	14.6	4.50e-06	0	27	0	3470786560	60	4503
2026-01-14 09:18:28.71	330.55	12.08	-47.7	-49.0	14.7	0.00e+00	0	28	0	3476029440	60	4449
2026-01-14 09:18:29.70	330.45	12.00	-47.8	-49.0	14.7	0.00e+00	0	28	0	3482320896	60	4472
2026-01-14 09:18:30.70	330.35	11.92	-47.8	-49.1	14.6	0.00e+00	0	28	0	3487563776	60	4504
2026-01-14 09:18:31.69	330.26	11.84	-47.8	-49.0	14.7	0.00e+00	0	28	0	3493855232	61	4242
2026-01-14 09:18:32.68	330.16	11.76	-48.0	-49.2	14.7	0.00e+00	0	28	0	3499098112	61	4318
2026-01-14 09:18:33.67	330.07	11.68	-48.0	-49.2	14.7	0.00e+00	0	28	0	3504340992	61	4310
2026-01-14 09:18:34.67	329.97	11.60	-48.1	-49.3	14.6	0.00e+00	0	27	0	3509583872	61	4369
2026-01-14 09:18:35.67	329.87	11.52	-48.0	-49.3	14.7	0.00e+00	0	28	0	3515875328	61	4356
2026-01-14 09:18:36.66	329.78	11.44	-48.0	-49.2	14.7	0.00e+00	0	27	0	3521118208	61	4321
2026-01-14 09:18:37.66	329.69	11.36	-48.1	-49.4	14.6	0.00e+00	0	28	0	3526361088	61	4407
2026-01-14 09:18:38.65	329.59	11.28	-48.1	-49.3	14.6	0.00e+00	0	28	0	3532652544	61	4391
2026-01-14 09:18:39.65	329.50	11.20	-48.1	-49.4	14.6	0.00e+00	0	27	0	3537895424	61	4407
2026-01-14 09:18:40.64	329.41	11.13	-48.3	-49.5	14.6	0.00e+00	0	28	0	3543138304	61	4493
2026-01-14 09:18:41.63	329.32	11.05	-48.3	-49.6	14.6	0.00e+00	0	27	0	3549429760	61	4495
2026-01-14 09:18:42.64	329.22	10.97	-48.3	-49.5	14.6	0.00e+00	0	27	0	3554672640	61	4492
2026-01-14 09:18:43.64	329.13	10.89	-48.3	-49.6	14.5	0.00e+00	0	28	0	3559915520	61	4501
2026-01-14 09:18:44.63	329.04	10.81	-48.3	-49.5	14.5	0.00e+00	0	28	0	3566206976	61	4481
2026-01-14 09:18:45.63	328.95	10.73	-48.3	-49.5	14.5	0.00e+00	0	28	0	3571449856	61	4480
2026-01-14 09:18:46.63	328.86	10.66	-48.4	-49.7	14.5	0.00e+00	0	28	0	3576692736	61	4546
2026-01-14 09:18:47.63	328.77	10.58	-48.5	-49.8	14.6	0.00e+00	0	28	0	3582984192	62	4349
2026-01-14 09:18:48.62	328.68	10.50	-48.4	-49.6	14.6	0.00e+00	0	27	0	3588227072	62	4264
2026-01-14 09:18:49.62	328.60	10.43	-48.5	-49.7	14.6	0.00e+00	0	28	0	3594518528	62	4336
2026-01-14 09:18:50.61	328.51	10.35	-48.4	-49.7	14.6	0.00e+00	0	28	0	3599761408	62	4311
2026-01-14 09:18:51.60	328.42	10.27	-48.3	-49.6	14.6	0.00e+00	0	27	0	3605004288	62	4252
2026-01-14 09:18:52.60	328.33	10.20	-48.5	-49.7	14.6	0.00e+00	0	28	0	3611295744	62	4329
2026-01-14 09:18:53.59	328.25	10.12	-48.5	-49.7	14.6	0.00e+00	0	28	0	3616538624	62	4328
2026-01-14 09:18:54.58	328.16	10.05	-48.4	-49.7	14.6	0.00e+00	0	27	0	3621781504	62	4314
2026-01-14 09:18:55.58	328.08	9.97	-48.4	-49.7	14.6	0.00e+00	0	27	0	3627024384	62	4299
2026-01-14 09:18:56.57	327.99	9.89	-48.5	-49.8	14.5	0.00e+00	0	27	0	3633315840	62	4347
2026-01-14 09:18:57.57	327.91	9.82	-48.6	-49.8	14.5	0.00e+00	0	27	0	3638558720	62	4389
