passes_logs/2026/01/14/R3.2S_Murmansk/R3.2S_Murmansk__20260114_015057_NOAA_20_JPSS-1_rec.log

#Pass ID: 20260114_015057_NOAA 20 (JPSS-1)
#Satellite: NOAA 20 (JPSS-1)
#Configuration: NOAA 20
#almurnet v.1.7.20251203
#Start time: 2026-01-14 01:50:58

#Version: 2.2.20231116
#Station: R3.2S_Murmansk
#Location: 33.079688 lon 68.888172 lat
#TLE: 1 43013U 17073A   26013.56788096  .00000060  00000+0  49292-4 0  9995
#TLE: 2 43013  98.7633 314.5224 0001558  41.3934 318.7360 14.19535692422532

#Time	Az	El	Level	Level2	SNR	BER	BlckErr	Temp	State	Recorded	gain1	gain2
2026-01-14 01:50:58.96	29.83	2.12	-57.9	-73.9	3.8	1.49e+00	0	25	0	0	82	22138
2026-01-14 01:50:59.97	29.81	2.19	-57.9	-73.9	3.8	1.49e+00	0	26	104	0	80	24710
2026-01-14 01:51:00.97	29.78	2.25	-57.9	-73.9	3.8	1.49e+00	0	25	104	0	80	24737
2026-01-14 01:51:01.98	29.76	2.31	-57.9	-73.8	3.8	1.49e+00	0	25	104	0	80	24676
2026-01-14 01:51:02.99	29.73	2.38	-57.9	-73.9	3.8	1.49e+00	0	26	104	0	80	24828
2026-01-14 01:51:04.00	29.71	2.44	-57.9	-73.9	3.8	1.49e+00	0	26	104	0	80	24801
2026-01-14 01:51:05.01	29.68	2.51	-57.9	-73.9	3.8	1.49e+00	0	25	104	0	80	24733
2026-01-14 01:51:06.02	29.66	2.57	-57.9	-73.8	3.8	1.49e+00	0	26	104	0	80	24669
2026-01-14 01:51:07.02	29.63	2.64	-57.9	-73.9	3.8	1.49e+00	0	25	104	0	80	24711
2026-01-14 01:51:08.04	29.60	2.70	-57.9	-73.9	3.8	1.49e+00	0	26	104	0	80	24738
2026-01-14 01:51:09.04	29.58	2.77	-57.9	-73.9	3.8	1.49e+00	0	26	104	0	80	24791
2026-01-14 01:51:10.05	29.55	2.83	-57.9	-73.9	3.8	1.49e+00	0	26	104	0	80	24744
2026-01-14 01:51:11.06	29.52	2.90	-57.9	-73.9	3.8	1.49e+00	0	26	104	0	80	24735
2026-01-14 01:51:12.07	29.50	2.96	-57.9	-73.8	3.8	1.49e+00	0	26	104	0	80	24673
2026-01-14 01:51:13.08	29.47	3.03	-57.9	-73.8	3.8	1.49e+00	0	26	104	0	80	24613
2026-01-14 01:51:14.09	29.44	3.09	-57.9	-73.7	3.8	1.49e+00	0	26	104	0	80	24281
2026-01-14 01:51:15.10	29.42	3.16	-57.9	-73.6	3.8	1.49e+00	0	26	104	0	80	23973
2026-01-14 01:51:16.11	29.39	3.22	-57.9	-73.4	3.8	1.49e+00	0	26	104	0	80	23521
2026-01-14 01:51:17.12	29.36	3.29	-57.9	-73.4	3.8	1.49e+00	0	26	104	0	80	23456
2026-01-14 01:51:18.13	29.33	3.36	-57.9	-73.3	3.8	1.49e+00	0	26	104	0	80	23193
2026-01-14 01:51:19.14	29.30	3.42	-57.9	-73.1	3.8	1.49e+00	0	26	104	0	80	22697
2026-01-14 01:51:20.15	29.28	3.49	-57.9	-73.1	3.8	1.49e+00	0	26	104	0	80	22568
2026-01-14 01:51:21.16	29.25	3.56	-57.8	-73.0	3.8	1.49e+00	0	26	104	0	80	22324
2026-01-14 01:51:22.17	29.22	3.62	-57.8	-72.9	3.8	1.49e+00	0	26	104	0	80	22208
2026-01-14 01:51:23.17	29.19	3.69	-57.9	-72.9	3.8	1.49e+00	0	26	104	0	80	22211
2026-01-14 01:51:24.18	29.16	3.76	-57.8	-72.6	3.8	1.49e+00	0	26	104	0	80	21424
2026-01-14 01:51:25.19	29.13	3.83	-57.8	-72.1	3.8	1.49e+00	0	26	104	0	80	20081
2026-01-14 01:51:26.20	29.11	3.89	-57.8	-70.6	4.2	1.44e+00	0	26	0	0	80	16919
2026-01-14 01:51:27.21	29.08	3.96	-57.6	-69.1	4.6	1.24e+00	0	26	0	0	80	14228
2026-01-14 01:51:28.22	29.05	4.03	-57.5	-67.7	5.3	7.10e-01	0	26	0	2097152	80	12096
2026-01-14 01:51:29.23	29.02	4.10	-57.4	-66.8	5.8	4.17e-01	0	26	0	4194304	80	11017
2026-01-14 01:51:30.24	28.99	4.16	-57.3	-65.8	6.4	2.11e-01	0	26	0	6291456	80	9791
2026-01-14 01:51:31.24	28.96	4.23	-57.2	-65.2	6.9	1.44e-01	0	26	0	8388608	80	9152
2026-01-14 01:51:32.25	28.93	4.30	-57.0	-64.1	7.9	7.87e-02	0	26	0	9437184	80	8022
2026-01-14 01:51:33.26	28.90	4.37	-56.8	-63.5	8.5	3.12e-02	0	26	0	11534336	80	7462
2026-01-14 01:51:34.27	28.87	4.44	-56.7	-62.9	8.9	2.01e-02	0	26	0	13631488	80	7028
2026-01-14 01:51:35.28	28.84	4.51	-56.6	-62.8	8.9	1.19e-02	0	26	0	15728640	79	7370
2026-01-14 01:51:36.28	28.81	4.58	-56.6	-62.7	9.1	1.25e-02	0	26	0	17825792	79	7253
2026-01-14 01:51:37.29	28.78	4.65	-56.6	-62.7	9.1	8.90e-03	0	26	0	18874368	79	7224
2026-01-14 01:51:38.30	28.75	4.71	-56.6	-62.8	9.0	9.33e-03	0	26	0	20971520	79	7363
2026-01-14 01:51:39.31	28.72	4.78	-56.8	-63.3	8.5	1.45e-02	0	26	0	23068672	79	7796
2026-01-14 01:51:40.31	28.68	4.85	-56.9	-63.7	8.2	2.38e-02	0	26	0	25165824	79	8129
2026-01-14 01:51:41.32	28.65	4.92	-57.0	-64.4	7.6	3.51e-02	0	26	0	27262976	79	8792
2026-01-14 01:51:42.33	28.62	4.99	-57.0	-64.5	7.5	5.26e-02	0	26	0	28311552	79	8941
2026-01-14 01:51:43.34	28.59	5.06	-57.2	-65.0	7.1	1.20e-01	0	27	0	30408704	79	9446
2026-01-14 01:51:44.35	28.56	5.13	-57.1	-64.3	7.7	1.39e-01	0	26	0	32505856	79	8699
2026-01-14 01:51:45.36	28.53	5.21	-56.7	-62.8	9.2	4.94e-04	0	26	0	34603008	78	7780
2026-01-14 01:51:46.36	28.49	5.28	-57.3	-65.6	6.5	1.08e+00	0	26	0	35651584	80	9507
2026-01-14 01:51:47.37	28.46	5.35	-54.7	-58.0	12.8	0.00e+00	0	26	0	37748736	75	5293
2026-01-14 01:51:48.37	28.43	5.42	-57.4	-65.5	6.5	3.43e-01	0	26	0	39845888	80	9433
2026-01-14 01:51:49.38	28.40	5.49	-54.3	-57.3	13.1	0.00e+00	0	27	0	41943040	75	4897
2026-01-14 01:51:50.39	28.36	5.56	-54.3	-57.3	13.1	0.00e+00	0	27	0	44040192	75	4879
2026-01-14 01:51:51.40	28.33	5.63	-54.3	-57.1	13.2	0.00e+00	0	27	0	45088768	75	4793
2026-01-14 01:51:52.41	28.30	5.70	-54.2	-57.1	13.2	0.00e+00	0	26	0	47185920	74	5047
2026-01-14 01:51:53.42	28.26	5.78	-53.9	-56.5	13.5	0.00e+00	0	27	0	49283072	74	4756
2026-01-14 01:51:54.43	28.23	5.85	-53.9	-56.5	13.5	0.00e+00	0	26	0	51380224	74	4723
2026-01-14 01:51:55.43	28.20	5.92	-53.7	-56.2	13.6	0.00e+00	0	27	0	53477376	73	4843
2026-01-14 01:51:56.44	28.16	5.99	-53.5	-56.0	13.7	0.00e+00	0	27	0	54525952	73	4729
2026-01-14 01:51:57.46	28.13	6.07	-53.6	-56.0	13.7	0.00e+00	0	27	0	56623104	73	4740
2026-01-14 01:51:58.46	28.09	6.14	-53.5	-55.9	13.8	0.00e+00	0	27	0	58720256	73	4661
2026-01-14 01:51:59.47	28.06	6.21	-53.6	-56.0	13.7	0.00e+00	0	27	0	60817408	73	4751
2026-01-14 01:52:00.47	28.03	6.29	-53.2	-55.5	14.0	0.00e+00	0	26	0	62914560	73	4455
2026-01-14 01:52:01.48	27.99	6.36	-53.4	-55.7	13.9	0.00e+00	0	26	0	63963136	73	4582
2026-01-14 01:52:02.49	27.96	6.43	-53.4	-55.7	13.9	0.00e+00	0	26	0	66060288	73	4557
2026-01-14 01:52:03.50	27.92	6.51	-53.3	-55.5	14.0	0.00e+00	0	26	0	68157440	73	4492
2026-01-14 01:52:04.51	27.88	6.58	-53.3	-55.6	14.0	0.00e+00	0	27	0	70254592	73	4497
2026-01-14 01:52:05.52	27.85	6.66	-53.2	-55.4	14.1	0.00e+00	0	26	0	72351744	73	4422
2026-01-14 01:52:06.53	27.81	6.73	-53.2	-55.5	13.9	0.00e+00	0	27	0	73400320	72	4706
2026-01-14 01:52:07.53	27.78	6.81	-53.2	-55.4	13.9	0.00e+00	0	26	0	75497472	72	4677
2026-01-14 01:52:08.54	27.74	6.88	-53.1	-55.3	14.0	0.00e+00	0	27	0	77594624	72	4649
2026-01-14 01:52:09.54	27.70	6.96	-53.2	-55.4	14.0	0.00e+00	0	27	0	79691776	72	4674
2026-01-14 01:52:10.56	27.67	7.03	-53.2	-55.5	13.9	0.00e+00	0	27	0	81788928	72	4723
2026-01-14 01:52:11.56	27.63	7.11	-53.2	-55.4	14.0	0.00e+00	0	27	0	82837504	72	4673
2026-01-14 01:52:12.57	27.59	7.18	-53.3	-55.5	13.9	0.00e+00	0	27	0	84934656	72	4749
2026-01-14 01:52:13.58	27.56	7.26	-53.3	-55.6	13.9	0.00e+00	0	27	0	87031808	72	4764
2026-01-14 01:52:14.58	27.52	7.34	-53.1	-55.3	14.0	0.00e+00	0	27	0	89128960	72	4640
2026-01-14 01:52:15.59	27.48	7.41	-53.2	-55.5	13.9	0.00e+00	0	27	0	91226112	72	4710
2026-01-14 01:52:16.59	27.44	7.49	-53.2	-55.4	14.0	0.00e+00	0	27	0	92274688	72	4661
2026-01-14 01:52:17.60	27.40	7.57	-53.3	-55.6	13.9	0.00e+00	0	27	0	94371840	72	4769
2026-01-14 01:52:18.60	27.37	7.64	-53.2	-55.4	14.0	0.00e+00	0	27	0	96468992	72	4686
2026-01-14 01:52:19.61	27.33	7.72	-53.0	-55.1	14.1	0.00e+00	0	27	0	98566144	72	4533
2026-01-14 01:52:20.62	27.29	7.80	-53.1	-55.2	14.1	0.00e+00	0	27	0	100663296	72	4579
2026-01-14 01:52:21.63	27.25	7.87	-53.1	-55.3	14.1	0.00e+00	0	27	0	101711872	72	4599
2026-01-14 01:52:22.64	27.21	7.95	-53.0	-55.1	14.2	0.00e+00	0	27	0	103809024	72	4513
2026-01-14 01:52:23.65	27.17	8.03	-53.0	-55.1	14.1	0.00e+00	0	27	0	105906176	72	4537
2026-01-14 01:52:24.65	27.13	8.11	-53.1	-55.2	14.1	0.00e+00	0	27	0	108003328	72	4592
2026-01-14 01:52:25.67	27.09	8.19	-53.1	-55.3	14.1	0.00e+00	0	27	0	110100480	72	4608
2026-01-14 01:52:26.67	27.05	8.27	-53.1	-55.3	14.0	0.00e+00	0	27	0	111149056	72	4619
2026-01-14 01:52:27.68	27.01	8.35	-53.2	-55.3	14.0	0.00e+00	0	27	0	113246208	72	4642
2026-01-14 01:52:28.69	26.97	8.43	-53.0	-55.1	14.1	0.00e+00	0	26	0	115343360	72	4532
2026-01-14 01:52:29.70	26.93	8.51	-53.0	-55.2	14.1	0.00e+00	0	27	0	117440512	72	4562
2026-01-14 01:52:30.71	26.89	8.59	-53.0	-55.1	14.1	0.00e+00	0	27	0	119537664	72	4535
2026-01-14 01:52:31.72	26.84	8.67	-53.1	-55.3	14.1	0.00e+00	0	27	0	120586240	72	4599
2026-01-14 01:52:32.72	26.80	8.75	-53.0	-55.1	14.2	0.00e+00	0	27	0	122683392	72	4512
2026-01-14 01:52:33.73	26.76	8.83	-53.0	-55.1	14.2	0.00e+00	0	27	0	124780544	72	4502
2026-01-14 01:52:34.74	26.72	8.91	-52.9	-55.0	14.2	0.00e+00	0	27	0	126877696	72	4474
2026-01-14 01:52:35.75	26.67	8.99	-53.0	-55.1	14.2	0.00e+00	0	27	0	128974848	72	4519
2026-01-14 01:52:36.76	26.63	9.07	-52.9	-55.0	14.2	0.00e+00	0	27	0	131072000	72	4446
2026-01-14 01:52:37.77	26.59	9.15	-52.9	-55.0	14.2	0.00e+00	0	27	0	132120576	72	4447
2026-01-14 01:52:38.78	26.54	9.23	-52.9	-54.9	14.3	0.00e+00	0	27	0	134217728	72	4430
2026-01-14 01:52:39.79	26.50	9.32	-52.9	-54.9	14.3	0.00e+00	0	27	0	136314880	72	4424
2026-01-14 01:52:40.80	26.46	9.40	-52.9	-54.9	14.3	0.00e+00	0	27	0	138412032	72	4418
2026-01-14 01:52:41.81	26.41	9.48	-52.9	-54.9	14.3	0.00e+00	0	27	0	139460608	72	4407
2026-01-14 01:52:42.82	26.37	9.57	-52.9	-54.9	14.3	0.00e+00	0	27	0	141557760	72	4430
2026-01-14 01:52:43.82	26.32	9.65	-52.8	-54.8	14.3	0.00e+00	0	27	0	143654912	72	4374
2026-01-14 01:52:44.83	26.28	9.73	-52.8	-54.8	14.3	0.00e+00	0	27	0	145752064	72	4383
2026-01-14 01:52:45.84	26.23	9.82	-52.8	-54.8	14.3	0.00e+00	0	27	0	147849216	72	4384
2026-01-14 01:52:46.85	26.19	9.90	-52.8	-54.8	14.3	0.00e+00	0	27	0	148897792	72	4362
2026-01-14 01:52:47.86	26.14	9.98	-52.8	-54.8	14.3	0.00e+00	0	27	0	150994944	72	4373
2026-01-14 01:52:48.87	26.10	10.07	-52.8	-54.8	14.3	0.00e+00	0	27	0	153092096	72	4377
2026-01-14 01:52:49.87	26.05	10.15	-52.7	-54.7	14.4	0.00e+00	0	27	0	155189248	72	4334
2026-01-14 01:52:50.88	26.00	10.24	-52.7	-54.7	14.4	0.00e+00	0	27	0	157286400	72	4317
2026-01-14 01:52:51.89	25.95	10.32	-52.6	-54.6	14.3	0.00e+00	0	27	0	159383552	71	4515
2026-01-14 01:52:52.90	25.91	10.41	-52.7	-54.7	14.3	0.00e+00	0	27	0	160432128	71	4568
2026-01-14 01:52:53.90	25.86	10.49	-52.7	-54.7	14.2	0.00e+00	0	27	0	162529280	71	4592
2026-01-14 01:52:54.91	25.81	10.58	-52.7	-54.7	14.3	0.00e+00	0	27	0	164626432	71	4568
2026-01-14 01:52:55.92	25.76	10.67	-52.6	-54.6	14.3	0.00e+00	0	27	0	166723584	71	4524
2026-01-14 01:52:56.93	25.72	10.75	-52.8	-54.8	14.2	0.00e+00	0	27	0	168820736	71	4600
2026-01-14 01:52:57.94	25.67	10.84	-52.6	-54.6	14.3	0.00e+00	0	27	0	169869312	71	4520
2026-01-14 01:52:58.95	25.62	10.93	-52.7	-54.7	14.3	0.00e+00	0	27	0	171966464	71	4570
2026-01-14 01:52:59.95	25.57	11.01	-52.6	-54.6	14.3	0.00e+00	0	27	0	174063616	71	4527
2026-01-14 01:53:00.96	25.52	11.10	-52.6	-54.5	14.4	0.00e+00	0	27	0	176160768	71	4471
2026-01-14 01:53:01.97	25.47	11.19	-52.6	-54.6	14.3	0.00e+00	0	27	0	178257920	71	4523
2026-01-14 01:53:02.98	25.42	11.28	-52.7	-54.7	14.3	0.00e+00	0	27	0	179306496	71	4551
2026-01-14 01:53:03.99	25.37	11.37	-52.6	-54.5	14.4	0.00e+00	0	27	0	181403648	71	4477
2026-01-14 01:53:04.99	25.31	11.46	-52.7	-54.7	14.3	0.00e+00	0	27	0	183500800	71	4555
2026-01-14 01:53:06.01	25.26	11.55	-52.6	-54.6	14.3	0.00e+00	0	27	0	185597952	71	4504
2026-01-14 01:53:07.01	25.21	11.64	-52.6	-54.6	14.3	0.00e+00	0	27	0	187695104	71	4509
2026-01-14 01:53:08.02	25.16	11.73	-52.6	-54.5	14.4	0.00e+00	0	27	0	188743680	71	4463
2026-01-14 01:53:09.03	25.11	11.82	-52.6	-54.5	14.4	0.00e+00	0	27	0	190840832	71	4472
2026-01-14 01:53:10.04	25.05	11.91	-52.7	-54.6	14.3	0.00e+00	0	27	0	192937984	71	4540
2026-01-14 01:53:11.05	25.00	12.00	-52.6	-54.5	14.4	0.00e+00	0	27	0	195035136	71	4472
2026-01-14 01:53:12.05	24.95	12.09	-52.6	-54.5	14.4	0.00e+00	0	27	0	197132288	71	4463
2026-01-14 01:53:13.06	24.89	12.18	-52.7	-54.6	14.3	0.00e+00	0	27	0	198180864	71	4525
2026-01-14 01:53:14.07	24.84	12.27	-52.5	-54.4	14.4	0.00e+00	0	27	0	200278016	71	4427
2026-01-14 01:53:15.08	24.78	12.36	-52.5	-54.3	14.4	0.00e+00	0	27	0	202375168	71	4391
2026-01-14 01:53:16.08	24.73	12.46	-52.6	-54.5	14.4	0.00e+00	0	27	0	204472320	71	4448
2026-01-14 01:53:17.10	24.67	12.55	-52.5	-54.3	14.5	0.00e+00	0	27	0	206569472	71	4383
2026-01-14 01:53:18.10	24.62	12.64	-52.6	-54.5	14.4	0.00e+00	0	27	0	207618048	71	4455
2026-01-14 01:53:19.11	24.56	12.74	-52.5	-54.4	14.4	0.00e+00	0	27	0	209715200	71	4423
2026-01-14 01:53:20.12	24.50	12.83	-52.5	-54.4	14.4	0.00e+00	0	27	0	211812352	71	4429
2026-01-14 01:53:21.13	24.45	12.92	-52.4	-54.3	14.5	0.00e+00	0	27	0	213909504	71	4350
2026-01-14 01:53:22.13	24.39	13.02	-52.4	-54.3	14.5	0.00e+00	0	27	0	216006656	71	4369
2026-01-14 01:53:23.14	24.33	13.11	-52.5	-54.3	14.5	0.00e+00	0	27	0	217055232	71	4379
2026-01-14 01:53:24.15	24.27	13.21	-52.4	-54.3	14.5	0.00e+00	0	27	0	219152384	71	4362
2026-01-14 01:53:25.16	24.22	13.30	-52.5	-54.4	14.4	0.00e+00	0	27	0	221249536	71	4412
2026-01-14 01:53:26.16	24.16	13.40	-52.5	-54.4	14.4	0.00e+00	0	27	0	223346688	71	4428
2026-01-14 01:53:27.17	24.10	13.49	-52.4	-54.2	14.5	0.00e+00	0	27	0	225443840	71	4328
2026-01-14 01:53:28.18	24.04	13.59	-52.4	-54.2	14.5	0.00e+00	0	27	0	226492416	71	4323
2026-01-14 01:53:29.19	23.98	13.69	-52.4	-54.3	14.5	0.00e+00	0	27	0	228589568	71	4367
2026-01-14 01:53:30.20	23.92	13.78	-52.5	-54.3	14.5	0.00e+00	0	27	0	230686720	71	4381
2026-01-14 01:53:31.21	23.86	13.88	-52.5	-54.4	14.4	0.00e+00	0	27	0	232783872	71	4412
2026-01-14 01:53:32.22	23.79	13.98	-52.4	-54.3	14.5	0.00e+00	0	27	0	234881024	71	4347
2026-01-14 01:53:33.23	23.73	14.08	-52.5	-54.4	14.5	0.00e+00	0	27	0	235929600	71	4400
2026-01-14 01:53:34.24	23.67	14.18	-52.4	-54.2	14.5	0.00e+00	0	27	0	238026752	71	4339
2026-01-14 01:53:35.25	23.61	14.28	-52.3	-54.2	14.6	0.00e+00	0	27	0	240123904	71	4302
2026-01-14 01:53:36.25	23.54	14.37	-52.3	-54.1	14.6	0.00e+00	0	27	0	242221056	71	4261
2026-01-14 01:53:37.26	23.48	14.47	-52.4	-54.2	14.5	0.00e+00	0	27	0	244318208	71	4312
2026-01-14 01:53:38.27	23.42	14.57	-52.3	-54.1	14.6	0.00e+00	0	27	0	245366784	71	4255
2026-01-14 01:53:39.28	23.35	14.68	-52.3	-54.1	14.6	0.00e+00	0	27	0	247463936	71	4268
2026-01-14 01:53:40.29	23.29	14.78	-52.3	-54.1	14.6	0.00e+00	0	27	0	249561088	71	4275
2026-01-14 01:53:41.29	23.22	14.88	-52.2	-54.0	14.6	0.00e+00	0	27	0	251658240	71	4220
2026-01-14 01:53:42.30	23.16	14.98	-52.3	-54.1	14.6	0.00e+00	0	27	0	253755392	71	4253
2026-01-14 01:53:43.31	23.09	15.08	-52.2	-53.9	14.7	0.00e+00	0	27	0	255852544	71	4193
2026-01-14 01:53:44.32	23.02	15.18	-52.3	-54.1	14.6	0.00e+00	0	27	0	256901120	71	4251
2026-01-14 01:53:45.33	22.95	15.29	-52.3	-54.1	14.6	0.00e+00	0	27	0	258998272	71	4263
2026-01-14 01:53:46.33	22.89	15.39	-52.2	-54.0	14.6	0.00e+00	0	27	0	261095424	71	4226
2026-01-14 01:53:47.34	22.82	15.49	-52.3	-54.0	14.6	0.00e+00	0	27	0	263192576	71	4239
2026-01-14 01:53:48.35	22.75	15.60	-52.2	-54.0	14.5	0.00e+00	0	27	0	264241152	70	4454
2026-01-14 01:53:49.36	22.68	15.70	-52.3	-54.0	14.5	0.00e+00	0	27	0	266338304	70	4487
2026-01-14 01:53:50.36	22.61	15.80	-52.2	-53.9	14.5	0.00e+00	0	27	0	268435456	70	4438
2026-01-14 01:53:51.37	22.54	15.91	-52.2	-54.0	14.5	0.00e+00	0	27	0	270532608	70	4444
2026-01-14 01:53:52.38	22.47	16.02	-52.2	-54.0	14.5	0.00e+00	0	27	0	272629760	70	4481
2026-01-14 01:53:53.39	22.40	16.12	-52.2	-54.0	14.5	0.00e+00	0	27	0	273678336	70	4468
2026-01-14 01:53:54.40	22.33	16.23	-52.3	-54.1	14.5	0.00e+00	0	27	0	275775488	70	4526
2026-01-14 01:53:55.40	22.25	16.33	-52.3	-54.1	14.5	0.00e+00	0	27	0	277872640	70	4543
2026-01-14 01:53:56.41	22.18	16.44	-52.3	-54.2	14.4	0.00e+00	0	27	0	279969792	70	4552
2026-01-14 01:53:57.41	22.11	16.55	-52.3	-54.1	14.5	0.00e+00	0	27	0	282066944	70	4525
2026-01-14 01:53:58.42	22.03	16.66	-52.3	-54.1	14.5	0.00e+00	0	27	0	284164096	70	4518
2026-01-14 01:53:59.43	21.96	16.76	-52.3	-54.1	14.5	0.00e+00	0	27	0	285212672	70	4516
2026-01-14 01:54:00.44	21.88	16.87	-52.4	-54.2	14.5	0.00e+00	0	27	0	287309824	70	4560
2026-01-14 01:54:01.45	21.81	16.98	-52.3	-54.1	14.5	0.00e+00	0	27	0	289406976	70	4502
2026-01-14 01:54:02.46	21.73	17.09	-52.3	-54.1	14.5	0.00e+00	0	27	0	291504128	70	4542
2026-01-14 01:54:03.47	21.65	17.20	-52.3	-54.1	14.5	0.00e+00	0	27	0	293601280	70	4527
2026-01-14 01:54:04.48	21.57	17.31	-52.4	-54.3	14.4	0.00e+00	0	27	0	294649856	70	4602
2026-01-14 01:54:05.49	21.50	17.43	-52.4	-54.2	14.4	0.00e+00	0	27	0	296747008	70	4579
2026-01-14 01:54:06.50	21.42	17.54	-52.4	-54.2	14.4	0.00e+00	0	27	0	298844160	70	4551
2026-01-14 01:54:07.51	21.34	17.65	-52.4	-54.2	14.5	0.00e+00	0	27	0	300941312	70	4549
2026-01-14 01:54:08.52	21.26	17.76	-52.4	-54.2	14.4	0.00e+00	0	27	0	303038464	70	4570
2026-01-14 01:54:09.53	21.18	17.87	-52.3	-54.0	14.5	0.00e+00	0	27	0	304087040	70	4483
2026-01-14 01:54:10.53	21.09	17.99	-52.3	-54.1	14.5	0.00e+00	0	27	0	306184192	70	4509
2026-01-14 01:54:11.54	21.01	18.10	-52.2	-54.0	14.5	0.00e+00	0	27	0	308281344	70	4450
2026-01-14 01:54:12.54	20.93	18.21	-52.3	-54.0	14.5	0.00e+00	0	27	0	310378496	70	4482
2026-01-14 01:54:13.55	20.85	18.33	-52.2	-54.0	14.5	0.00e+00	0	27	0	312475648	70	4460
2026-01-14 01:54:14.56	20.76	18.44	-52.2	-54.0	14.5	0.00e+00	0	27	0	313524224	70	4470
2026-01-14 01:54:15.57	20.68	18.56	-52.3	-54.1	14.5	0.00e+00	0	27	0	315621376	70	4496
2026-01-14 01:54:16.57	20.59	18.68	-52.2	-54.0	14.5	0.00e+00	0	27	0	317718528	70	4461
2026-01-14 01:54:17.58	20.51	18.79	-52.2	-54.0	14.6	0.00e+00	0	27	0	319815680	70	4457
2026-01-14 01:54:18.59	20.42	18.91	-52.3	-54.1	14.5	0.00e+00	0	27	0	321912832	70	4504
2026-01-14 01:54:19.60	20.33	19.03	-52.2	-54.0	14.5	0.00e+00	0	27	0	322961408	70	4462
2026-01-14 01:54:20.61	20.24	19.15	-52.2	-54.0	14.6	0.00e+00	0	27	0	325058560	70	4450
2026-01-14 01:54:21.62	20.16	19.26	-52.2	-54.0	14.6	0.00e+00	0	27	0	327155712	70	4455
2026-01-14 01:54:22.63	20.07	19.38	-52.2	-53.9	14.6	0.00e+00	0	27	0	329252864	70	4438
2026-01-14 01:54:23.64	19.98	19.50	-52.2	-54.0	14.6	0.00e+00	0	27	0	331350016	70	4455
2026-01-14 01:54:24.64	19.88	19.62	-52.4	-54.2	14.5	0.00e+00	0	27	0	332398592	70	4550
2026-01-14 01:54:25.65	19.79	19.74	-52.4	-54.2	14.5	0.00e+00	0	27	0	334495744	70	4570
2026-01-14 01:54:26.66	19.70	19.86	-52.5	-54.3	14.4	0.00e+00	0	27	0	336592896	70	4621
2026-01-14 01:54:27.67	19.61	19.99	-52.6	-54.4	14.4	0.00e+00	0	27	0	338690048	70	4705
2026-01-14 01:54:28.68	19.51	20.11	-52.5	-54.3	14.4	0.00e+00	0	27	0	340787200	70	4648
2026-01-14 01:54:29.69	19.42	20.23	-52.5	-54.3	14.4	0.00e+00	0	27	0	341835776	70	4620
2026-01-14 01:54:30.70	19.32	20.35	-52.5	-54.3	14.4	0.00e+00	0	27	0	343932928	70	4626
2026-01-14 01:54:31.70	19.23	20.48	-52.6	-54.4	14.3	0.00e+00	0	27	0	346030080	70	4688
2026-01-14 01:54:32.71	19.13	20.60	-52.7	-54.5	14.3	0.00e+00	0	27	0	348127232	70	4755
2026-01-14 01:54:33.72	19.03	20.73	-52.7	-54.6	14.3	0.00e+00	0	27	0	350224384	70	4779
2026-01-14 01:54:34.73	18.93	20.85	-52.7	-54.5	14.3	0.00e+00	0	27	0	351272960	70	4752
2026-01-14 01:54:35.73	18.83	20.98	-52.7	-54.6	14.3	0.00e+00	0	27	0	353370112	70	4788
2026-01-14 01:54:36.74	18.73	21.10	-52.8	-54.7	14.3	0.00e+00	0	27	0	355467264	70	4823
2026-01-14 01:54:37.75	18.63	21.23	-52.8	-54.7	14.3	0.00e+00	0	27	0	357564416	70	4841
2026-01-14 01:54:38.76	18.53	21.36	-52.9	-54.9	14.2	0.00e+00	0	27	0	359661568	70	4936
2026-01-14 01:54:39.76	18.42	21.48	-52.9	-54.9	14.3	0.00e+00	0	27	0	360710144	71	4653
2026-01-14 01:54:40.77	18.32	21.61	-53.0	-54.9	14.2	0.00e+00	0	27	0	362807296	71	4705
2026-01-14 01:54:41.78	18.22	21.74	-53.1	-55.0	14.2	0.00e+00	0	27	0	364904448	71	4741
2026-01-14 01:54:42.78	18.11	21.87	-53.0	-55.0	14.3	0.00e+00	0	27	0	367001600	71	4717
2026-01-14 01:54:43.79	18.00	22.00	-53.0	-55.0	14.3	0.00e+00	0	27	0	369098752	71	4707
2026-01-14 01:54:44.80	17.90	22.13	-52.9	-54.8	14.3	0.00e+00	0	27	0	370147328	71	4649
2026-01-14 01:54:45.81	17.79	22.26	-52.9	-54.9	14.3	0.00e+00	0	27	0	372244480	71	4663
2026-01-14 01:54:46.82	17.68	22.39	-53.0	-55.0	14.3	0.00e+00	0	27	0	374341632	71	4706
2026-01-14 01:54:47.83	17.57	22.53	-53.1	-55.1	14.2	0.00e+00	0	27	0	376438784	71	4777
2026-01-14 01:54:48.84	17.45	22.66	-53.0	-55.0	14.2	0.00e+00	0	27	0	378535936	71	4715
2026-01-14 01:54:49.85	17.34	22.79	-53.1	-55.1	14.2	0.00e+00	0	27	0	379584512	71	4773
2026-01-14 01:54:50.86	17.23	22.93	-53.0	-55.0	14.2	0.00e+00	0	27	0	381681664	71	4729
2026-01-14 01:54:51.86	17.11	23.06	-53.1	-55.0	14.2	0.00e+00	0	27	0	383778816	71	4752
2026-01-14 01:54:52.87	17.00	23.20	-53.2	-55.2	14.2	0.00e+00	0	27	0	385875968	71	4817
2026-01-14 01:54:53.88	16.88	23.33	-53.3	-55.3	14.1	0.00e+00	0	27	0	387973120	71	4896
2026-01-14 01:54:54.89	16.76	23.47	-53.3	-55.3	14.1	0.00e+00	0	27	0	389021696	71	4901
2026-01-14 01:54:55.90	16.64	23.61	-53.3	-55.4	14.1	0.00e+00	0	27	0	391118848	71	4943
2026-01-14 01:54:56.91	16.52	23.74	-53.5	-55.5	14.1	0.00e+00	0	27	0	393216000	72	4755
2026-01-14 01:54:57.92	16.40	23.88	-53.5	-55.5	14.1	0.00e+00	0	27	0	395313152	72	4754
2026-01-14 01:54:58.92	16.28	24.02	-53.5	-55.6	14.1	0.00e+00	0	27	0	397410304	72	4783
2026-01-14 01:54:59.93	16.16	24.16	-53.6	-55.7	14.0	0.00e+00	0	27	0	398458880	72	4836
2026-01-14 01:55:00.94	16.03	24.30	-53.7	-55.9	14.0	0.00e+00	0	27	0	400556032	72	4935
2026-01-14 01:55:01.95	15.91	24.44	-53.7	-55.9	14.0	0.00e+00	0	27	0	402653184	72	4943
2026-01-14 01:55:02.96	15.78	24.58	-53.7	-55.9	14.0	0.00e+00	0	27	0	404750336	72	4946
2026-01-14 01:55:03.97	15.65	24.72	-53.8	-55.9	13.9	0.00e+00	0	27	0	406847488	72	4982
2026-01-14 01:55:04.97	15.53	24.87	-53.8	-56.0	13.9	0.00e+00	0	27	0	408944640	72	5009
2026-01-14 01:55:05.98	15.40	25.01	-53.9	-56.1	13.8	0.00e+00	0	27	0	409993216	72	5059
2026-01-14 01:55:06.99	15.26	25.15	-53.9	-56.1	14.0	0.00e+00	0	27	0	412090368	73	4766
2026-01-14 01:55:08.00	15.13	25.30	-54.0	-56.2	13.9	0.00e+00	0	27	0	414187520	73	4844
2026-01-14 01:55:09.01	15.00	25.44	-54.0	-56.3	13.9	0.00e+00	0	27	0	416284672	73	4890
2026-01-14 01:55:10.02	14.86	25.59	-53.9	-56.1	13.9	0.00e+00	0	27	0	418381824	73	4792
2026-01-14 01:55:11.02	14.73	25.73	-54.1	-56.3	13.9	0.00e+00	0	27	0	419430400	73	4903
2026-01-14 01:55:12.03	14.59	25.88	-54.0	-56.2	13.9	0.00e+00	0	27	0	421527552	73	4864
2026-01-14 01:55:13.04	14.45	26.03	-54.1	-56.3	13.9	0.00e+00	0	27	0	423624704	73	4902
2026-01-14 01:55:14.04	14.31	26.17	-54.1	-56.3	13.8	0.00e+00	0	27	0	425721856	73	4920
2026-01-14 01:55:15.05	14.17	26.32	-54.0	-56.3	13.9	0.00e+00	0	27	0	426770432	73	4903
2026-01-14 01:55:16.06	14.02	26.47	-54.0	-56.3	13.9	0.00e+00	0	27	0	428867584	73	4872
2026-01-14 01:55:17.06	13.88	26.62	-53.9	-56.2	13.9	0.00e+00	0	27	0	430964736	73	4821
2026-01-14 01:55:18.07	13.74	26.77	-53.9	-56.1	14.0	0.00e+00	0	27	0	433061888	73	4805
2026-01-14 01:55:19.08	13.59	26.92	-53.9	-56.2	13.9	0.00e+00	0	27	0	435159040	73	4823
2026-01-14 01:55:20.09	13.44	27.07	-54.0	-56.2	13.9	0.00e+00	0	27	0	437256192	73	4823
2026-01-14 01:55:21.10	13.29	27.22	-53.9	-56.1	14.0	0.00e+00	0	27	0	438304768	73	4766
2026-01-14 01:55:22.10	13.14	27.38	-53.8	-56.0	14.0	0.00e+00	0	27	0	440401920	73	4720
2026-01-14 01:55:23.11	12.98	27.53	-53.9	-56.1	14.0	0.00e+00	0	27	0	442499072	73	4790
2026-01-14 01:55:24.12	12.83	27.68	-54.0	-56.2	13.9	0.00e+00	0	27	0	444596224	73	4859
2026-01-14 01:55:25.13	12.67	27.84	-54.0	-56.2	13.9	0.00e+00	0	27	0	446693376	73	4845
2026-01-14 01:55:26.13	12.52	27.99	-53.9	-56.1	14.0	0.00e+00	0	27	0	447741952	73	4788
2026-01-14 01:55:27.14	12.36	28.15	-53.9	-56.1	13.9	0.00e+00	0	27	0	449839104	73	4800
2026-01-14 01:55:28.15	12.20	28.31	-53.9	-56.0	14.0	0.00e+00	0	27	0	451936256	73	4752
2026-01-14 01:55:29.16	12.03	28.46	-53.8	-55.9	14.0	0.00e+00	0	27	0	454033408	73	4702
2026-01-14 01:55:30.17	11.87	28.62	-53.9	-56.0	14.0	0.00e+00	0	27	0	456130560	73	4728
2026-01-14 01:55:31.18	11.70	28.78	-53.9	-56.0	14.0	0.00e+00	0	27	0	457179136	73	4737
2026-01-14 01:55:32.18	11.54	28.94	-53.8	-56.0	14.0	0.00e+00	0	27	0	459276288	73	4725
2026-01-14 01:55:33.20	11.37	29.10	-53.9	-56.1	14.0	0.00e+00	0	27	0	461373440	73	4764
2026-01-14 01:55:34.21	11.19	29.26	-53.9	-56.1	14.0	0.00e+00	0	27	0	463470592	73	4781
2026-01-14 01:55:35.21	11.02	29.42	-53.9	-56.0	14.0	0.00e+00	0	27	0	465567744	73	4754
2026-01-14 01:55:36.21	10.85	29.58	-53.9	-56.1	14.0	0.00e+00	0	27	0	466616320	73	4795
2026-01-14 01:55:37.22	10.67	29.74	-54.0	-56.3	13.9	0.00e+00	0	27	0	468713472	73	4873
2026-01-14 01:55:38.22	10.50	29.90	-54.1	-56.3	13.9	0.00e+00	0	27	0	470810624	73	4904
2026-01-14 01:55:39.23	10.32	30.07	-54.1	-56.3	13.9	0.00e+00	0	27	0	472907776	73	4892
2026-01-14 01:55:40.24	10.13	30.23	-54.1	-56.4	13.9	0.00e+00	0	27	0	475004928	73	4946
2026-01-14 01:55:41.25	9.95	30.40	-54.2	-56.5	13.8	0.00e+00	0	27	0	476053504	73	5036
2026-01-14 01:55:42.26	9.76	30.56	-54.3	-56.7	13.7	0.00e+00	0	27	0	478150656	73	5107
2026-01-14 01:55:43.27	9.58	30.73	-54.4	-56.7	13.7	0.00e+00	0	27	0	480247808	73	5139
2026-01-14 01:55:44.28	9.39	30.90	-54.4	-56.7	13.8	0.00e+00	0	27	0	482344960	74	4861
2026-01-14 01:55:45.29	9.20	31.06	-54.4	-56.7	13.8	0.00e+00	0	27	0	484442112	74	4832
2026-01-14 01:55:46.30	9.00	31.23	-54.4	-56.7	13.8	0.00e+00	0	27	0	485490688	74	4849
2026-01-14 01:55:47.30	8.81	31.40	-54.4	-56.7	13.8	0.00e+00	0	27	0	487587840	74	4857
2026-01-14 01:55:48.31	8.61	31.57	-54.7	-57.1	13.6	0.00e+00	0	27	0	489684992	74	5069
2026-01-14 01:55:49.33	8.41	31.74	-54.8	-57.3	13.5	0.00e+00	0	27	0	491782144	74	5203
2026-01-14 01:55:50.34	8.21	31.91	-54.8	-57.3	13.5	0.00e+00	0	27	0	493879296	74	5181
2026-01-14 01:55:51.34	8.00	32.08	-54.8	-57.3	13.5	0.00e+00	0	27	0	494927872	74	5167
2026-01-14 01:55:52.35	7.80	32.25	-54.7	-57.1	13.6	0.00e+00	0	27	0	497025024	74	5083
2026-01-14 01:55:53.36	7.59	32.42	-54.7	-57.2	13.6	0.00e+00	0	27	0	499122176	74	5121
2026-01-14 01:55:54.37	7.38	32.59	-54.9	-57.5	13.5	0.00e+00	0	27	0	501219328	75	4999
2026-01-14 01:55:55.38	7.16	32.77	-54.9	-57.4	13.6	0.00e+00	0	27	0	503316480	75	4967
2026-01-14 01:55:56.38	6.95	32.94	-55.0	-57.6	13.4	0.00e+00	0	27	0	504365056	75	5090
2026-01-14 01:55:57.39	6.73	33.11	-55.1	-57.7	13.4	0.00e+00	0	27	0	506462208	75	5150
2026-01-14 01:55:58.40	6.51	33.29	-55.1	-57.7	13.4	0.00e+00	0	27	0	508559360	75	5152
2026-01-14 01:55:59.41	6.29	33.46	-55.0	-57.6	13.4	0.00e+00	0	27	0	510656512	75	5080
2026-01-14 01:56:00.42	6.06	33.64	-55.2	-57.8	13.3	0.00e+00	0	27	0	512753664	75	5215
2026-01-14 01:56:01.43	5.84	33.81	-55.1	-57.7	13.4	0.00e+00	0	27	0	513802240	75	5136
2026-01-14 01:56:02.44	5.60	33.99	-55.1	-57.7	13.4	0.00e+00	0	27	0	515899392	75	5149
2026-01-14 01:56:03.45	5.37	34.17	-55.2	-57.8	13.3	0.00e+00	0	27	0	517996544	75	5199
2026-01-14 01:56:04.46	5.14	34.34	-54.8	-57.3	13.6	0.00e+00	0	27	0	520093696	75	4898
2026-01-14 01:56:05.47	4.90	34.52	-54.8	-57.3	13.6	0.00e+00	0	27	0	522190848	75	4876
2026-01-14 01:56:06.48	4.66	34.70	-54.6	-57.0	13.8	0.00e+00	0	27	0	523239424	75	4708
2026-01-14 01:56:07.49	4.41	34.88	-54.4	-56.7	14.0	0.00e+00	0	27	0	525336576	75	4573
2026-01-14 01:56:08.49	4.17	35.06	-54.5	-56.8	13.9	0.00e+00	0	27	0	527433728	75	4629
2026-01-14 01:56:09.50	3.92	35.24	-54.5	-56.8	13.9	0.00e+00	0	27	0	529530880	75	4624
2026-01-14 01:56:10.51	3.67	35.42	-54.5	-56.8	13.9	0.00e+00	0	27	0	531628032	75	4599
2026-01-14 01:56:11.52	3.42	35.60	-54.4	-56.7	13.9	0.00e+00	0	27	0	533725184	75	4573
2026-01-14 01:56:12.53	3.16	35.78	-54.3	-56.6	14.0	0.00e+00	0	27	0	534773760	75	4508
2026-01-14 01:56:13.54	2.90	35.96	-54.3	-56.5	14.0	0.00e+00	0	27	0	536870912	75	4487
2026-01-14 01:56:14.55	2.64	36.14	-54.3	-56.5	14.0	0.00e+00	0	27	0	538968064	75	4492
2026-01-14 01:56:15.55	2.37	36.32	-54.4	-56.7	13.9	0.00e+00	0	27	0	541065216	75	4582
2026-01-14 01:56:16.56	2.10	36.50	-54.4	-56.7	13.9	0.00e+00	0	27	0	543162368	75	4591
2026-01-14 01:56:17.57	1.83	36.68	-54.6	-56.9	13.8	0.00e+00	0	27	0	544210944	75	4699
2026-01-14 01:56:18.58	1.55	36.87	-54.6	-56.9	13.8	0.00e+00	0	27	0	546308096	75	4685
2026-01-14 01:56:19.59	1.28	37.05	-54.5	-56.7	13.9	0.00e+00	0	27	0	548405248	75	4589
2026-01-14 01:56:20.60	0.99	37.23	-54.5	-56.7	13.9	0.00e+00	0	27	0	550502400	75	4596
2026-01-14 01:56:21.60	0.71	37.41	-54.5	-56.8	13.9	0.00e+00	0	27	0	551550976	75	4613
2026-01-14 01:56:22.61	0.42	37.60	-54.6	-56.9	13.8	0.00e+00	0	27	0	553648128	75	4657
2026-01-14 01:56:23.62	0.13	37.78	-54.7	-57.0	13.8	0.00e+00	0	27	0	555745280	75	4758
2026-01-14 01:56:24.63	359.84	37.96	-54.7	-57.1	13.7	0.00e+00	0	27	0	557842432	75	4798
2026-01-14 01:56:25.64	359.54	38.15	-54.7	-57.1	13.7	0.00e+00	0	27	0	559939584	75	4791
2026-01-14 01:56:26.64	359.24	38.33	-54.8	-57.2	13.7	0.00e+00	0	27	0	562036736	75	4836
2026-01-14 01:56:27.65	358.94	38.51	-54.7	-57.2	13.7	0.00e+00	0	27	0	563085312	75	4819
2026-01-14 01:56:28.66	358.63	38.70	-54.6	-56.9	13.9	0.00e+00	0	27	0	565182464	75	4700
2026-01-14 01:56:29.67	358.32	38.88	-54.7	-57.0	13.8	0.00e+00	0	27	0	567279616	75	4744
2026-01-14 01:56:30.68	358.00	39.07	-54.8	-57.2	13.7	0.00e+00	0	27	0	569376768	75	4865
2026-01-14 01:56:31.69	357.68	39.25	-54.8	-57.3	13.6	0.00e+00	0	27	0	571473920	75	4894
2026-01-14 01:56:32.70	357.36	39.44	-54.9	-57.3	13.6	0.00e+00	0	27	0	572522496	75	4919
2026-01-14 01:56:33.70	357.04	39.62	-54.7	-57.1	13.8	0.00e+00	0	27	0	574619648	75	4786
2026-01-14 01:56:34.71	356.70	39.80	-54.6	-56.9	13.9	0.00e+00	0	27	0	576716800	75	4667
2026-01-14 01:56:35.72	356.37	39.99	-54.7	-57.0	13.8	0.00e+00	0	27	0	578813952	75	4748
2026-01-14 01:56:36.73	356.03	40.17	-54.7	-57.0	13.8	0.00e+00	0	27	0	580911104	75	4743
2026-01-14 01:56:37.74	355.69	40.35	-54.6	-57.0	13.8	0.00e+00	0	27	0	581959680	75	4713
2026-01-14 01:56:38.75	355.34	40.54	-54.7	-57.1	13.8	0.00e+00	0	27	0	584056832	75	4788
2026-01-14 01:56:39.76	355.00	40.72	-54.8	-57.2	13.7	0.00e+00	0	27	0	586153984	75	4858
2026-01-14 01:56:40.77	354.64	40.90	-55.1	-57.6	13.5	0.00e+00	0	27	0	588251136	75	5083
2026-01-14 01:56:41.77	354.29	41.08	-55.3	-58.0	13.3	0.00e+00	0	27	0	590348288	75	5296
2026-01-14 01:56:42.78	353.93	41.26	-55.2	-57.7	13.4	0.00e+00	0	27	0	591396864	75	5145
2026-01-14 01:56:43.79	353.56	41.45	-55.0	-57.5	13.5	0.00e+00	0	27	0	593494016	75	5011
2026-01-14 01:56:44.80	353.19	41.63	-55.0	-57.5	13.5	0.00e+00	0	27	0	595591168	75	5035
2026-01-14 01:56:45.81	352.81	41.81	-55.0	-57.6	13.5	0.00e+00	0	27	0	597688320	75	5047
2026-01-14 01:56:46.82	352.44	41.99	-55.0	-57.5	13.5	0.00e+00	0	27	0	599785472	75	5035
2026-01-14 01:56:47.83	352.05	42.17	-55.0	-57.5	13.5	0.00e+00	0	27	0	600834048	75	5021
2026-01-14 01:56:48.83	351.67	42.34	-55.1	-57.6	13.5	0.00e+00	0	27	0	602931200	75	5072
2026-01-14 01:56:49.84	351.28	42.52	-55.2	-57.8	13.4	0.00e+00	0	27	0	605028352	75	5202
2026-01-14 01:56:50.85	350.88	42.70	-55.4	-58.1	13.2	0.00e+00	0	27	0	607125504	75	5376
2026-01-14 01:56:51.86	350.48	42.88	-55.5	-58.2	13.3	0.00e+00	0	27	0	609222656	76	5112
2026-01-14 01:56:52.87	350.08	43.05	-55.4	-58.0	13.4	0.00e+00	0	27	0	610271232	76	5033
2026-01-14 01:56:53.88	349.67	43.23	-55.1	-57.6	13.6	0.00e+00	0	27	0	612368384	76	4792
2026-01-14 01:56:54.88	349.26	43.40	-54.9	-57.2	13.8	0.00e+00	0	27	0	614465536	76	4577
2026-01-14 01:56:55.89	348.84	43.57	-54.8	-57.2	13.9	0.00e+00	0	27	0	616562688	76	4554
2026-01-14 01:56:56.90	348.42	43.75	-55.0	-57.4	13.8	0.00e+00	0	27	0	618659840	76	4664
2026-01-14 01:56:57.90	347.99	43.92	-55.1	-57.6	13.6	0.00e+00	0	27	0	619708416	76	4788
2026-01-14 01:56:58.92	347.56	44.09	-55.1	-57.5	13.7	0.00e+00	0	27	0	621805568	76	4748
2026-01-14 01:56:59.92	347.12	44.26	-54.9	-57.2	13.8	0.00e+00	0	27	0	623902720	76	4582
2026-01-14 01:57:00.93	346.68	44.43	-54.4	-56.6	14.0	0.00e+00	0	27	0	625999872	75	4525
2026-01-14 01:57:01.94	346.24	44.59	-54.2	-56.3	14.2	0.00e+00	0	27	0	628097024	75	4375
2026-01-14 01:57:02.94	345.79	44.76	-54.0	-56.0	14.2	0.00e+00	0	27	0	629145600	74	4467
2026-01-14 01:57:03.95	345.33	44.92	-54.0	-56.0	14.2	0.00e+00	0	27	0	631242752	74	4475
2026-01-14 01:57:04.96	344.87	45.08	-54.0	-56.0	14.2	0.00e+00	0	27	0	633339904	74	4476
2026-01-14 01:57:05.97	344.41	45.25	-53.8	-55.8	14.3	0.00e+00	0	27	0	635437056	74	4362
2026-01-14 01:57:06.98	343.94	45.41	-53.7	-55.6	14.4	0.00e+00	0	27	0	637534208	74	4284
2026-01-14 01:57:07.99	343.46	45.57	-53.5	-55.4	14.4	0.00e+00	0	27	0	638582784	73	4398
2026-01-14 01:57:09.00	342.98	45.72	-53.6	-55.6	14.3	0.00e+00	0	27	0	640679936	73	4497
2026-01-14 01:57:10.01	342.50	45.88	-53.5	-55.5	14.4	0.00e+00	0	27	0	642777088	73	4447
2026-01-14 01:57:11.02	342.01	46.03	-53.7	-55.7	14.3	0.00e+00	0	27	0	644874240	73	4550
2026-01-14 01:57:12.02	341.52	46.18	-53.8	-55.8	14.2	0.00e+00	0	27	0	646971392	73	4608
2026-01-14 01:57:13.03	341.02	46.33	-53.8	-55.9	14.2	0.00e+00	0	27	0	649068544	73	4663
2026-01-14 01:57:14.04	340.52	46.48	-53.9	-56.0	14.1	0.00e+00	0	27	0	650117120	73	4726
2026-01-14 01:57:15.05	340.01	46.63	-54.0	-56.1	14.1	0.00e+00	0	27	0	652214272	73	4780
2026-01-14 01:57:16.05	339.50	46.77	-53.9	-55.9	14.2	0.00e+00	0	27	0	654311424	73	4662
2026-01-14 01:57:17.06	338.99	46.91	-53.8	-55.8	14.2	0.00e+00	0	27	0	656408576	73	4612
2026-01-14 01:57:18.07	338.46	47.05	-53.8	-55.8	14.2	0.00e+00	0	27	0	658505728	73	4626
2026-01-14 01:57:19.08	337.94	47.19	-53.9	-55.9	14.1	0.00e+00	0	27	0	659554304	73	4670
2026-01-14 01:57:20.09	337.40	47.33	-54.3	-56.4	13.9	0.00e+00	0	27	0	661651456	73	4971
2026-01-14 01:57:21.10	336.87	47.46	-54.5	-56.7	13.9	0.00e+00	0	27	0	663748608	74	4848
2026-01-14 01:57:22.11	336.33	47.59	-54.5	-56.7	13.9	0.00e+00	0	27	0	665845760	74	4851
2026-01-14 01:57:23.12	335.78	47.72	-54.4	-56.5	14.0	0.00e+00	0	27	0	667942912	74	4754
2026-01-14 01:57:24.13	335.23	47.85	-54.4	-56.6	13.9	0.00e+00	0	27	0	668991488	74	4802
2026-01-14 01:57:25.14	334.68	47.97	-54.6	-56.9	13.8	0.00e+00	0	27	0	671088640	74	4968
2026-01-14 01:57:26.14	334.12	48.09	-54.9	-57.3	13.6	0.00e+00	0	27	0	673185792	74	5166
2026-01-14 01:57:27.15	333.56	48.21	-55.2	-57.7	13.4	0.00e+00	0	27	0	675282944	75	5154
2026-01-14 01:57:28.15	333.00	48.32	-55.2	-57.7	13.5	0.00e+00	0	27	0	677380096	75	5155
2026-01-14 01:57:29.16	332.42	48.44	-55.1	-57.7	13.5	0.00e+00	0	27	0	678428672	75	5117
2026-01-14 01:57:30.17	331.85	48.55	-55.2	-57.8	13.4	0.00e+00	0	27	0	680525824	75	5170
2026-01-14 01:57:31.18	331.27	48.65	-55.7	-58.5	13.2	0.00e+00	0	27	0	682622976	76	5295
2026-01-14 01:57:32.19	330.68	48.76	-56.1	-59.1	12.9	0.00e+00	0	27	0	684720128	77	5384
2026-01-14 01:57:33.20	330.09	48.86	-56.3	-59.5	12.7	0.00e+00	0	27	0	686817280	77	5609
2026-01-14 01:57:34.21	329.50	48.96	-56.5	-59.7	12.6	0.00e+00	0	27	0	687865856	78	5440
2026-01-14 01:57:35.22	328.91	49.05	-56.4	-59.6	12.7	0.00e+00	0	27	0	689963008	78	5384
2026-01-14 01:57:36.23	328.31	49.14	-56.3	-59.5	12.7	0.00e+00	0	27	0	692060160	78	5310
2026-01-14 01:57:37.23	327.71	49.23	-56.2	-59.3	12.9	0.00e+00	0	27	0	694157312	78	5195
2026-01-14 01:57:38.24	327.10	49.32	-55.9	-58.7	13.2	0.00e+00	0	27	0	696254464	78	4826
2026-01-14 01:57:39.25	326.49	49.40	-55.7	-58.5	13.3	0.00e+00	0	27	0	697303040	77	4986
2026-01-14 01:57:40.25	325.89	49.48	-55.6	-58.3	13.4	0.00e+00	0	27	0	699400192	77	4886
2026-01-14 01:57:41.27	325.26	49.55	-55.6	-58.3	13.4	0.00e+00	0	27	0	701497344	77	4918
2026-01-14 01:57:42.27	324.65	49.63	-55.3	-57.8	13.6	0.00e+00	0	27	0	703594496	77	4634
2026-01-14 01:57:43.28	324.03	49.69	-55.0	-57.4	13.7	0.00e+00	0	27	0	705691648	76	4703
2026-01-14 01:57:44.29	323.40	49.76	-54.8	-57.1	13.9	0.00e+00	0	27	0	706740224	76	4508
2026-01-14 01:57:45.30	322.78	49.82	-54.3	-56.5	14.1	0.00e+00	0	27	0	708837376	75	4471
2026-01-14 01:57:46.30	322.15	49.88	-54.0	-56.1	14.2	0.00e+00	0	27	0	710934528	74	4496
2026-01-14 01:57:47.31	321.52	49.93	-53.8	-55.8	14.3	0.00e+00	0	27	0	713031680	74	4346
2026-01-14 01:57:48.32	320.89	49.98	-53.9	-55.9	14.2	0.00e+00	0	27	0	715128832	73	4667
2026-01-14 01:57:49.33	320.25	50.03	-54.1	-56.2	14.0	0.00e+00	0	27	0	716177408	73	4868
2026-01-14 01:57:50.33	319.62	50.07	-54.1	-56.3	14.0	0.00e+00	0	27	0	718274560	73	4877
2026-01-14 01:57:51.34	318.98	50.11	-54.1	-56.2	14.0	0.00e+00	0	27	0	720371712	73	4819
2026-01-14 01:57:52.34	318.34	50.15	-54.0	-56.0	14.1	0.00e+00	0	27	0	722468864	73	4742
2026-01-14 01:57:53.35	317.70	50.18	-53.7	-55.6	14.3	0.00e+00	0	27	0	724566016	73	4545
2026-01-14 01:57:54.36	317.05	50.21	-53.1	-54.9	14.5	0.00e+00	0	27	0	725614592	72	4429
2026-01-14 01:57:55.37	316.41	50.23	-53.0	-54.7	14.6	0.00e+00	0	27	0	727711744	72	4331
2026-01-14 01:57:56.37	315.77	50.25	-53.0	-54.8	14.6	0.00e+00	0	27	0	729808896	72	4364
2026-01-14 01:57:57.38	315.12	50.27	-52.8	-54.6	14.7	0.00e+00	0	27	0	731906048	72	4255
2026-01-14 01:57:58.39	314.47	50.28	-52.9	-54.7	14.6	0.00e+00	0	27	0	734003200	72	4295
2026-01-14 01:57:59.40	313.82	50.29	-53.3	-55.1	14.4	0.00e+00	0	27	0	735051776	72	4523
2026-01-14 01:58:00.40	313.18	50.29	-53.4	-55.2	14.4	0.00e+00	0	27	0	737148928	72	4569
2026-01-14 01:58:01.40	312.54	50.29	-53.2	-55.0	14.5	0.00e+00	0	27	0	739246080	72	4477
2026-01-14 01:58:02.41	311.89	50.29	-53.1	-54.9	14.5	0.00e+00	0	27	0	741343232	72	4403
2026-01-14 01:58:03.42	311.24	50.28	-53.1	-54.8	14.5	0.00e+00	0	27	0	743440384	72	4386
2026-01-14 01:58:04.43	310.59	50.27	-53.1	-54.8	14.5	0.00e+00	0	27	0	744488960	72	4391
2026-01-14 01:58:05.44	309.94	50.26	-53.2	-55.0	14.5	0.00e+00	0	27	0	746586112	72	4472
2026-01-14 01:58:06.45	309.30	50.24	-53.4	-55.3	14.3	0.00e+00	0	27	0	748683264	72	4618
2026-01-14 01:58:07.45	308.66	50.22	-53.5	-55.4	14.3	0.00e+00	0	27	0	750780416	72	4675
2026-01-14 01:58:08.47	308.01	50.19	-53.4	-55.3	14.4	0.00e+00	0	27	0	752877568	72	4601
2026-01-14 01:58:09.47	307.37	50.16	-53.2	-55.0	14.5	0.00e+00	0	27	0	753926144	72	4454
2026-01-14 01:58:10.48	306.73	50.13	-53.4	-55.2	14.4	0.00e+00	0	27	0	756023296	72	4597
2026-01-14 01:58:11.49	306.08	50.09	-53.5	-55.4	14.3	0.00e+00	0	27	0	758120448	72	4667
2026-01-14 01:58:12.50	305.45	50.05	-53.6	-55.6	14.2	0.00e+00	0	27	0	760217600	72	4777
2026-01-14 01:58:13.50	304.81	50.00	-53.8	-55.8	14.1	0.00e+00	0	27	0	762314752	72	4917
2026-01-14 01:58:14.51	304.18	49.96	-53.8	-55.8	14.1	0.00e+00	0	27	0	763363328	72	4878
2026-01-14 01:58:15.52	303.54	49.90	-53.5	-55.4	14.3	0.00e+00	0	27	0	765460480	72	4695
2026-01-14 01:58:16.53	302.91	49.85	-53.4	-55.3	14.3	0.00e+00	0	27	0	767557632	72	4639
2026-01-14 01:58:17.54	302.28	49.79	-53.5	-55.4	14.3	0.00e+00	0	27	0	769654784	72	4666
2026-01-14 01:58:18.55	301.66	49.72	-53.6	-55.5	14.3	0.00e+00	0	27	0	771751936	72	4720
2026-01-14 01:58:19.56	301.03	49.66	-53.7	-55.6	14.2	0.00e+00	0	27	0	773849088	72	4810
2026-01-14 01:58:20.57	300.41	49.59	-53.8	-55.7	14.2	0.00e+00	0	27	0	774897664	72	4865
2026-01-14 01:58:21.58	299.80	49.51	-53.9	-55.9	14.1	0.00e+00	0	27	0	776994816	72	4932
2026-01-14 01:58:22.58	299.19	49.43	-53.8	-55.8	14.1	0.00e+00	0	27	0	779091968	72	4900
2026-01-14 01:58:23.59	298.57	49.35	-53.8	-55.7	14.2	0.00e+00	0	27	0	781189120	72	4862
2026-01-14 01:58:24.60	297.97	49.27	-53.6	-55.5	14.3	0.00e+00	0	27	0	782237696	72	4717
2026-01-14 01:58:25.61	297.36	49.18	-53.5	-55.4	14.3	0.00e+00	0	27	0	784334848	72	4694
2026-01-14 01:58:26.62	296.76	49.09	-53.7	-55.7	14.1	0.00e+00	0	27	0	786432000	72	4863
2026-01-14 01:58:27.63	296.16	49.00	-54.2	-56.4	14.0	0.00e+00	0	27	0	788529152	73	4927
2026-01-14 01:58:28.63	295.57	48.90	-54.3	-56.4	13.9	0.00e+00	0	27	0	790626304	73	4961
2026-01-14 01:58:29.64	294.98	48.80	-54.3	-56.5	13.9	0.00e+00	0	27	0	791674880	73	5012
2026-01-14 01:58:30.65	294.40	48.70	-54.3	-56.4	14.0	0.00e+00	0	27	0	793772032	73	4969
2026-01-14 01:58:31.65	293.82	48.59	-54.3	-56.5	13.9	0.00e+00	0	27	0	795869184	73	5026
2026-01-14 01:58:32.66	293.24	48.48	-54.5	-56.7	13.9	0.00e+00	0	27	0	797966336	74	4868
2026-01-14 01:58:33.68	292.66	48.37	-54.5	-56.7	13.9	0.00e+00	0	27	0	800063488	74	4840
2026-01-14 01:58:34.69	292.09	48.26	-54.7	-57.0	13.8	0.00e+00	0	27	0	802160640	74	5025
2026-01-14 01:58:35.69	291.53	48.14	-54.8	-57.1	13.7	0.00e+00	0	27	0	803209216	74	5060
2026-01-14 01:58:36.70	290.97	48.02	-54.9	-57.3	13.7	0.00e+00	0	27	0	805306368	75	4912
2026-01-14 01:58:37.70	290.42	47.90	-55.1	-57.6	13.5	0.00e+00	0	27	0	807403520	75	5084
2026-01-14 01:58:38.71	289.86	47.77	-55.0	-57.5	13.7	0.00e+00	0	27	0	809500672	75	4985
2026-01-14 01:58:39.72	289.32	47.64	-54.7	-57.0	13.8	0.00e+00	0	27	0	811597824	75	4759
2026-01-14 01:58:40.73	288.77	47.51	-54.6	-56.9	13.9	0.00e+00	0	27	0	812646400	75	4695
2026-01-14 01:58:41.73	288.24	47.38	-54.6	-56.9	13.9	0.00e+00	0	27	0	814743552	75	4674
2026-01-14 01:58:42.74	287.70	47.25	-54.7	-57.0	13.8	0.00e+00	0	27	0	816840704	75	4747
2026-01-14 01:58:43.75	287.17	47.11	-54.9	-57.2	13.7	0.00e+00	0	27	0	818937856	75	4860
2026-01-14 01:58:44.76	286.65	46.97	-55.0	-57.4	13.6	0.00e+00	0	27	0	819986432	75	4977
2026-01-14 01:58:45.76	286.13	46.83	-54.9	-57.2	13.7	0.00e+00	0	27	0	822083584	75	4862
2026-01-14 01:58:46.77	285.62	46.69	-54.4	-56.6	14.1	0.00e+00	0	27	0	824180736	75	4532
2026-01-14 01:58:47.78	285.11	46.54	-54.0	-56.0	14.2	0.00e+00	0	27	0	826277888	74	4486
2026-01-14 01:58:48.79	284.60	46.39	-53.9	-55.8	14.4	0.00e+00	0	27	0	828375040	74	4391
2026-01-14 01:58:49.80	284.10	46.24	-53.7	-55.6	14.4	0.00e+00	0	27	0	830472192	74	4270
2026-01-14 01:58:50.81	283.60	46.09	-53.7	-55.6	14.3	0.00e+00	0	27	0	831520768	73	4540
2026-01-14 01:58:51.82	283.11	45.94	-54.2	-56.4	14.0	0.00e+00	0	27	0	833617920	73	4940
2026-01-14 01:58:52.83	282.62	45.78	-54.2	-56.4	13.9	0.00e+00	0	27	0	835715072	73	4945
2026-01-14 01:58:53.84	282.14	45.63	-53.9	-56.0	14.1	0.00e+00	0	27	0	837812224	73	4732
2026-01-14 01:58:54.85	281.66	45.47	-53.8	-55.8	14.2	0.00e+00	0	27	0	839909376	73	4629
2026-01-14 01:58:55.86	281.19	45.31	-53.7	-55.7	14.3	0.00e+00	0	27	0	840957952	73	4577
2026-01-14 01:58:56.86	280.73	45.15	-53.5	-55.4	14.4	0.00e+00	0	27	0	843055104	73	4399
2026-01-14 01:58:57.87	280.26	44.99	-53.3	-55.1	14.5	0.00e+00	0	27	0	845152256	73	4273
2026-01-14 01:58:58.88	279.81	44.82	-53.4	-55.3	14.5	0.00e+00	0	27	0	847249408	73	4358
2026-01-14 01:58:59.89	279.35	44.66	-53.5	-55.4	14.4	0.00e+00	0	27	0	849346560	73	4427
2026-01-14 01:59:00.90	278.90	44.49	-53.5	-55.4	14.4	0.00e+00	0	27	0	850395136	73	4437
2026-01-14 01:59:01.90	278.46	44.32	-53.5	-55.4	14.3	0.00e+00	0	27	0	852492288	73	4431
2026-01-14 01:59:02.92	278.02	44.15	-53.2	-55.1	14.5	0.00e+00	0	27	0	854589440	73	4255
2026-01-14 01:59:03.93	277.59	43.98	-53.1	-55.0	14.5	0.00e+00	0	27	0	856686592	72	4446
2026-01-14 01:59:04.94	277.16	43.81	-52.9	-54.7	14.6	0.00e+00	0	27	0	858783744	72	4306
2026-01-14 01:59:05.94	276.73	43.64	-53.1	-55.0	14.5	0.00e+00	0	27	0	859832320	72	4445
2026-01-14 01:59:06.95	276.31	43.47	-53.5	-55.4	14.3	0.00e+00	0	27	0	861929472	72	4685
2026-01-14 01:59:07.95	275.90	43.29	-53.8	-55.9	14.1	0.00e+00	0	27	0	864026624	72	4932
2026-01-14 01:59:08.96	275.49	43.12	-53.8	-55.8	14.1	0.00e+00	0	27	0	866123776	72	4911
2026-01-14 01:59:09.97	275.08	42.94	-53.7	-55.7	14.1	0.00e+00	0	27	0	868220928	72	4861
2026-01-14 01:59:10.98	274.68	42.77	-53.5	-55.4	14.2	0.00e+00	0	27	0	869269504	72	4701
2026-01-14 01:59:11.99	274.28	42.59	-53.4	-55.3	14.3	0.00e+00	0	27	0	871366656	72	4604
2026-01-14 01:59:13.00	273.89	42.41	-53.4	-55.3	14.3	0.00e+00	0	27	0	873463808	72	4609
2026-01-14 01:59:14.00	273.50	42.23	-53.4	-55.4	14.3	0.00e+00	0	27	0	875560960	72	4654
2026-01-14 01:59:15.01	273.11	42.05	-53.4	-55.4	14.3	0.00e+00	0	27	0	877658112	72	4659
2026-01-14 01:59:16.02	272.73	41.87	-53.3	-55.2	14.4	0.00e+00	0	27	0	878706688	72	4586
2026-01-14 01:59:17.03	272.36	41.69	-53.3	-55.2	14.4	0.00e+00	0	27	0	880803840	72	4553
2026-01-14 01:59:18.04	271.98	41.51	-53.2	-55.0	14.4	0.00e+00	0	27	0	882900992	72	4478
2026-01-14 01:59:19.04	271.62	41.33	-53.3	-55.1	14.4	0.00e+00	0	27	0	884998144	72	4544
2026-01-14 01:59:20.05	271.26	41.15	-53.4	-55.3	14.3	0.00e+00	0	27	0	887095296	72	4613
2026-01-14 01:59:21.06	270.90	40.97	-53.6	-55.5	14.2	0.00e+00	0	27	0	888143872	72	4742
2026-01-14 01:59:22.07	270.54	40.78	-53.6	-55.6	14.2	0.00e+00	0	27	0	890241024	72	4774
2026-01-14 01:59:23.07	270.19	40.60	-53.6	-55.6	14.2	0.00e+00	0	27	0	892338176	72	4780
2026-01-14 01:59:24.08	269.84	40.42	-53.6	-55.6	14.2	0.00e+00	0	27	0	894435328	72	4808
2026-01-14 01:59:25.08	269.50	40.24	-53.8	-55.9	14.1	0.00e+00	0	27	0	896532480	72	4936
2026-01-14 01:59:26.09	269.16	40.05	-54.0	-56.0	14.1	0.00e+00	0	27	0	897581056	73	4758
2026-01-14 01:59:27.10	268.82	39.87	-53.9	-55.9	14.1	0.00e+00	0	27	0	899678208	73	4685
2026-01-14 01:59:28.11	268.49	39.68	-54.0	-56.0	14.1	0.00e+00	0	27	0	901775360	73	4751
2026-01-14 01:59:29.11	268.17	39.50	-54.3	-56.5	13.9	0.00e+00	0	27	0	903872512	73	4985
2026-01-14 01:59:30.12	267.84	39.32	-54.4	-56.6	13.8	0.00e+00	0	27	0	905969664	73	5081
2026-01-14 01:59:31.13	267.52	39.13	-54.7	-57.0	13.7	0.00e+00	0	27	0	907018240	74	5030
2026-01-14 01:59:32.14	267.20	38.95	-54.7	-57.1	13.7	0.00e+00	0	27	0	909115392	74	5045
2026-01-14 01:59:33.15	266.89	38.76	-54.9	-57.4	13.6	0.00e+00	0	27	0	911212544	74	5229
2026-01-14 01:59:34.16	266.58	38.58	-54.7	-57.1	13.7	0.00e+00	0	27	0	913309696	74	5059
2026-01-14 01:59:35.17	266.27	38.39	-54.5	-56.8	13.8	0.00e+00	0	27	0	915406848	74	4886
2026-01-14 01:59:36.18	265.97	38.21	-54.3	-56.5	13.9	0.00e+00	0	27	0	916455424	74	4736
2026-01-14 01:59:37.18	265.67	38.03	-54.6	-56.9	13.8	0.00e+00	0	27	0	918552576	74	4929
2026-01-14 01:59:38.19	265.37	37.84	-54.9	-57.4	13.6	0.00e+00	0	27	0	920649728	75	4941
2026-01-14 01:59:39.20	265.08	37.66	-55.4	-58.1	13.3	0.00e+00	0	27	0	922746880	75	5349
2026-01-14 01:59:40.20	264.79	37.48	-55.4	-58.1	13.3	0.00e+00	0	27	0	924844032	76	5080
2026-01-14 01:59:41.21	264.50	37.29	-55.4	-58.0	13.4	0.00e+00	0	27	0	926941184	76	5000
2026-01-14 01:59:42.22	264.22	37.11	-55.2	-57.8	13.5	0.00e+00	0	27	0	927989760	76	4882
2026-01-14 01:59:43.22	263.94	36.93	-55.1	-57.6	13.6	0.00e+00	0	27	0	930086912	76	4801
2026-01-14 01:59:44.23	263.67	36.74	-55.1	-57.6	13.6	0.00e+00	0	27	0	932184064	76	4790
2026-01-14 01:59:45.24	263.39	36.56	-55.2	-57.7	13.5	0.00e+00	0	27	0	934281216	76	4862
2026-01-14 01:59:46.25	263.12	36.38	-55.3	-57.9	13.4	0.00e+00	0	27	0	935329792	76	4966
2026-01-14 01:59:47.25	262.86	36.20	-55.7	-58.5	13.1	0.00e+00	0	27	0	937426944	76	5306
2026-01-14 01:59:48.26	262.59	36.02	-55.7	-58.5	13.0	0.00e+00	0	27	0	939524096	76	5335
2026-01-14 01:59:49.28	262.33	35.83	-55.6	-58.4	13.2	0.00e+00	0	27	0	941621248	76	5244
2026-01-14 01:59:50.29	262.07	35.65	-55.5	-58.2	13.3	0.00e+00	0	27	0	943718400	76	5107
2026-01-14 01:59:51.29	261.81	35.47	-55.4	-58.0	13.4	0.00e+00	0	27	0	944766976	76	5003
2026-01-14 01:59:52.30	261.56	35.29	-55.2	-57.7	13.5	0.00e+00	0	27	0	946864128	76	4867
2026-01-14 01:59:53.31	261.31	35.11	-55.3	-57.9	13.5	0.00e+00	0	27	0	948961280	76	4946
2026-01-14 01:59:54.31	261.06	34.93	-55.2	-57.7	13.5	0.00e+00	0	27	0	951058432	76	4858
2026-01-14 01:59:55.32	260.82	34.75	-55.4	-58.0	13.4	0.00e+00	0	27	0	953155584	76	5027
2026-01-14 01:59:56.33	260.58	34.57	-55.5	-58.2	13.3	0.00e+00	0	27	0	955252736	76	5144
2026-01-14 01:59:57.33	260.34	34.40	-55.6	-58.4	13.2	0.00e+00	0	27	0	956301312	76	5221
2026-01-14 01:59:58.34	260.10	34.22	-55.8	-58.7	13.0	0.00e+00	0	27	0	958398464	76	5419
2026-01-14 01:59:59.34	259.87	34.04	-55.8	-58.7	13.0	0.00e+00	0	27	0	960495616	76	5438
2026-01-14 02:00:00.35	259.64	33.87	-55.5	-58.3	13.2	0.00e+00	0	27	0	962592768	76	5201
2026-01-14 02:00:01.36	259.41	33.69	-55.2	-57.7	13.5	0.00e+00	0	27	0	964689920	76	4861
2026-01-14 02:00:02.37	259.18	33.51	-55.0	-57.5	13.7	0.00e+00	0	27	0	965738496	76	4733
2026-01-14 02:00:03.37	258.96	33.34	-55.0	-57.5	13.7	0.00e+00	0	27	0	967835648	76	4754
2026-01-14 02:00:04.38	258.74	33.16	-55.1	-57.6	13.6	0.00e+00	0	27	0	969932800	76	4799
2026-01-14 02:00:05.39	258.52	32.99	-55.0	-57.5	13.6	0.00e+00	0	27	0	972029952	76	4749
2026-01-14 02:00:06.40	258.30	32.82	-54.9	-57.4	13.7	0.00e+00	0	27	0	973078528	76	4672
2026-01-14 02:00:07.41	258.08	32.64	-55.0	-57.5	13.7	0.00e+00	0	27	0	975175680	76	4743
2026-01-14 02:00:08.42	257.87	32.47	-54.8	-57.1	13.9	0.00e+00	0	27	0	977272832	76	4539
2026-01-14 02:00:09.43	257.66	32.30	-54.8	-57.2	13.8	0.00e+00	0	27	0	979369984	76	4593
2026-01-14 02:00:10.43	257.46	32.13	-54.8	-57.2	13.8	0.00e+00	0	27	0	981467136	76	4563
2026-01-14 02:00:11.44	257.25	31.95	-54.8	-57.2	13.8	0.00e+00	0	27	0	983564288	76	4587
2026-01-14 02:00:12.45	257.05	31.78	-54.9	-57.3	13.8	0.00e+00	0	27	0	984612864	76	4621
2026-01-14 02:00:13.46	256.84	31.61	-54.9	-57.4	13.7	0.00e+00	0	27	0	986710016	76	4681
2026-01-14 02:00:14.46	256.65	31.45	-55.0	-57.5	13.6	0.00e+00	0	27	0	988807168	76	4759
2026-01-14 02:00:15.47	256.45	31.28	-55.3	-57.9	13.5	0.00e+00	0	27	0	990904320	76	4952
2026-01-14 02:00:16.48	256.25	31.11	-55.4	-58.2	13.3	0.00e+00	0	27	0	993001472	76	5106
2026-01-14 02:00:17.49	256.06	30.94	-55.5	-58.3	13.2	0.00e+00	0	27	0	994050048	76	5180
2026-01-14 02:00:18.50	255.87	30.77	-55.5	-58.3	13.2	0.00e+00	0	27	0	996147200	76	5167
2026-01-14 02:00:19.51	255.68	30.61	-55.1	-57.7	13.5	0.00e+00	0	27	0	998244352	76	4841
2026-01-14 02:00:20.52	255.49	30.44	-54.8	-57.2	13.8	0.00e+00	0	27	0	1000341504	76	4546
2026-01-14 02:00:21.52	255.31	30.28	-54.6	-57.0	13.8	0.00e+00	0	27	0	1002438656	75	4735
2026-01-14 02:00:22.53	255.13	30.11	-54.5	-56.9	13.8	0.00e+00	0	27	0	1003487232	75	4671
2026-01-14 02:00:23.54	254.94	29.95	-54.7	-57.0	13.7	0.00e+00	0	27	0	1005584384	75	4757
2026-01-14 02:00:24.54	254.77	29.78	-54.7	-57.1	13.7	0.00e+00	0	27	0	1007681536	75	4763
2026-01-14 02:00:25.55	254.59	29.62	-54.7	-57.1	13.7	0.00e+00	0	27	0	1009778688	75	4799
2026-01-14 02:00:26.56	254.41	29.46	-54.8	-57.2	13.7	0.00e+00	0	27	0	1011875840	75	4842
2026-01-14 02:00:27.56	254.24	29.30	-54.7	-57.1	13.8	0.00e+00	0	27	0	1012924416	75	4765
2026-01-14 02:00:28.57	254.07	29.14	-54.7	-57.1	13.7	0.00e+00	0	27	0	1015021568	75	4770
2026-01-14 02:00:29.57	253.90	28.98	-54.6	-57.0	13.8	0.00e+00	0	27	0	1017118720	75	4716
2026-01-14 02:00:30.58	253.73	28.82	-54.5	-56.9	13.8	0.00e+00	0	27	0	1019215872	75	4655
2026-01-14 02:00:31.59	253.56	28.66	-54.5	-56.8	13.9	0.00e+00	0	27	0	1021313024	75	4610
2026-01-14 02:00:32.60	253.40	28.50	-54.4	-56.7	13.9	0.00e+00	0	27	0	1022361600	75	4546
2026-01-14 02:00:33.61	253.23	28.34	-54.1	-56.2	14.1	0.00e+00	0	27	0	1024458752	74	4570
2026-01-14 02:00:34.62	253.07	28.18	-53.9	-55.9	14.2	0.00e+00	0	27	0	1026555904	74	4426
2026-01-14 02:00:35.62	252.91	28.03	-53.8	-55.9	14.2	0.00e+00	0	27	0	1028653056	74	4395
2026-01-14 02:00:36.64	252.75	27.87	-54.0	-56.1	14.1	0.00e+00	0	27	0	1030750208	74	4504
2026-01-14 02:00:37.64	252.59	27.72	-54.0	-56.1	14.1	0.00e+00	0	27	0	1031798784	74	4537
2026-01-14 02:00:38.65	252.44	27.56	-54.2	-56.4	14.0	0.00e+00	0	27	0	1033895936	74	4670
2026-01-14 02:00:39.66	252.28	27.41	-54.1	-56.3	14.0	0.00e+00	0	27	0	1035993088	74	4644
2026-01-14 02:00:40.67	252.13	27.25	-54.1	-56.3	14.0	0.00e+00	0	27	0	1038090240	74	4604
2026-01-14 02:00:41.68	251.98	27.10	-54.1	-56.3	14.0	0.00e+00	0	27	0	1040187392	74	4620
2026-01-14 02:00:42.69	251.83	26.95	-54.1	-56.2	14.1	0.00e+00	0	27	0	1041235968	74	4586
2026-01-14 02:00:43.69	251.68	26.80	-54.0	-56.1	14.1	0.00e+00	0	27	0	1043333120	74	4507
2026-01-14 02:00:44.70	251.53	26.65	-53.7	-55.7	14.3	0.00e+00	0	27	0	1045430272	74	4337
2026-01-14 02:00:45.71	251.39	26.50	-53.7	-55.7	14.2	0.00e+00	0	27	0	1047527424	73	4585
2026-01-14 02:00:46.72	251.24	26.35	-53.7	-55.8	14.2	0.00e+00	0	27	0	1049624576	73	4609
2026-01-14 02:00:47.73	251.10	26.20	-53.8	-55.9	14.1	0.00e+00	0	27	0	1050673152	73	4697
2026-01-14 02:00:48.73	250.96	26.05	-54.0	-56.2	14.0	0.00e+00	0	27	0	1052770304	73	4824
2026-01-14 02:00:49.74	250.82	25.90	-54.1	-56.3	13.9	0.00e+00	0	27	0	1054867456	73	4909
2026-01-14 02:00:50.75	250.68	25.75	-54.2	-56.4	13.8	0.00e+00	0	27	0	1056964608	73	4971
2026-01-14 02:00:51.76	250.54	25.61	-54.1	-56.4	13.8	0.00e+00	0	27	0	1059061760	73	4941
2026-01-14 02:00:52.77	250.41	25.46	-54.1	-56.4	13.8	0.00e+00	0	27	0	1060110336	73	4960
2026-01-14 02:00:53.78	250.27	25.32	-54.2	-56.4	13.8	0.00e+00	0	27	0	1062207488	73	4979
2026-01-14 02:00:54.78	250.14	25.17	-54.0	-56.1	13.9	0.00e+00	0	27	0	1064304640	73	4809
2026-01-14 02:00:55.79	250.01	25.03	-53.9	-56.1	14.0	0.00e+00	0	27	0	1066401792	73	4785
2026-01-14 02:00:56.80	249.88	24.88	-53.9	-56.1	14.0	0.00e+00	0	27	0	1068498944	73	4760
2026-01-14 02:00:57.81	249.75	24.74	-53.7	-55.8	14.1	0.00e+00	0	27	0	1069547520	73	4643
2026-01-14 02:00:58.82	249.62	24.60	-53.5	-55.6	14.3	0.00e+00	0	27	0	1071644672	73	4494
2026-01-14 02:00:59.83	249.49	24.46	-53.5	-55.5	14.3	0.00e+00	0	27	0	1073741824	73	4472
2026-01-14 02:01:00.84	249.36	24.31	-53.5	-55.5	14.3	0.00e+00	0	27	0	1075838976	73	4454
2026-01-14 02:01:01.84	249.24	24.18	-53.6	-55.6	14.2	0.00e+00	0	27	0	1077936128	73	4513
2026-01-14 02:01:02.85	249.11	24.04	-53.5	-55.6	14.2	0.00e+00	0	27	0	1078984704	73	4509
2026-01-14 02:01:03.86	248.99	23.90	-53.6	-55.7	14.2	0.00e+00	0	27	0	1081081856	73	4561
2026-01-14 02:01:04.87	248.87	23.76	-53.7	-55.8	14.1	0.00e+00	0	27	0	1083179008	73	4604
2026-01-14 02:01:05.88	248.75	23.62	-53.6	-55.7	14.1	0.00e+00	0	27	0	1085276160	73	4572
2026-01-14 02:01:06.89	248.63	23.48	-53.6	-55.7	14.1	0.00e+00	0	27	0	1087373312	73	4582
2026-01-14 02:01:07.90	248.51	23.34	-53.6	-55.7	14.2	0.00e+00	0	27	0	1088421888	73	4577
2026-01-14 02:01:08.91	248.39	23.21	-53.7	-55.8	14.1	0.00e+00	0	27	0	1090519040	73	4633
2026-01-14 02:01:09.92	248.27	23.07	-53.6	-55.7	14.1	0.00e+00	0	27	0	1092616192	73	4565
2026-01-14 02:01:10.92	248.16	22.94	-53.5	-55.6	14.1	0.00e+00	0	27	0	1094713344	73	4510
2026-01-14 02:01:11.93	248.05	22.80	-53.5	-55.6	14.2	0.00e+00	0	27	0	1096810496	73	4510
2026-01-14 02:01:12.94	247.93	22.67	-53.6	-55.7	14.2	0.00e+00	0	27	0	1097859072	73	4563
2026-01-14 02:01:13.95	247.82	22.53	-53.6	-55.6	14.2	0.00e+00	0	27	0	1099956224	73	4543
2026-01-14 02:01:14.96	247.71	22.40	-53.5	-55.6	14.2	0.00e+00	0	27	0	1102053376	73	4515
2026-01-14 02:01:15.97	247.60	22.27	-53.6	-55.7	14.2	0.00e+00	0	27	0	1104150528	73	4569
2026-01-14 02:01:16.98	247.49	22.14	-53.6	-55.7	14.1	0.00e+00	0	27	0	1106247680	73	4579
2026-01-14 02:01:17.99	247.38	22.01	-53.6	-55.7	14.2	0.00e+00	0	27	0	1108344832	73	4557
2026-01-14 02:01:19.00	247.27	21.87	-53.6	-55.7	14.1	0.00e+00	0	27	0	1109393408	73	4592
2026-01-14 02:01:20.01	247.16	21.74	-53.5	-55.5	14.2	0.00e+00	0	27	0	1111490560	73	4470
2026-01-14 02:01:21.02	247.06	21.62	-53.4	-55.5	14.3	0.00e+00	0	27	0	1113587712	73	4449
2026-01-14 02:01:22.03	246.95	21.49	-53.4	-55.4	14.3	0.00e+00	0	27	0	1115684864	73	4417
2026-01-14 02:01:23.03	246.85	21.36	-53.5	-55.5	14.3	0.00e+00	0	27	0	1117782016	73	4455
2026-01-14 02:01:24.04	246.75	21.23	-53.3	-55.3	14.4	0.00e+00	0	27	0	1118830592	73	4348
2026-01-14 02:01:25.05	246.64	21.10	-53.2	-55.2	14.4	0.00e+00	0	27	0	1120927744	73	4315
2026-01-14 02:01:26.06	246.54	20.98	-53.3	-55.3	14.4	0.00e+00	0	27	0	1123024896	73	4354
2026-01-14 02:01:27.07	246.44	20.85	-53.3	-55.3	14.4	0.00e+00	0	27	0	1125122048	73	4358
2026-01-14 02:01:28.08	246.34	20.72	-53.4	-55.3	14.3	0.00e+00	0	27	0	1127219200	73	4387
2026-01-14 02:01:29.09	246.24	20.60	-53.4	-55.4	14.3	0.00e+00	0	27	0	1128267776	73	4425
2026-01-14 02:01:30.09	246.14	20.47	-53.5	-55.5	14.2	0.00e+00	0	27	0	1130364928	73	4462
2026-01-14 02:01:31.10	246.05	20.35	-53.4	-55.4	14.3	0.00e+00	0	27	0	1132462080	73	4438
2026-01-14 02:01:32.11	245.95	20.23	-53.5	-55.5	14.2	0.00e+00	0	27	0	1134559232	73	4478
2026-01-14 02:01:33.12	245.85	20.10	-53.6	-55.6	14.2	0.00e+00	0	27	0	1136656384	73	4538
2026-01-14 02:01:34.13	245.76	19.98	-53.5	-55.6	14.2	0.00e+00	0	27	0	1137704960	73	4501
2026-01-14 02:01:35.14	245.67	19.86	-53.6	-55.6	14.2	0.00e+00	0	27	0	1139802112	73	4528
2026-01-14 02:01:36.15	245.57	19.74	-53.6	-55.6	14.2	0.00e+00	0	27	0	1141899264	73	4529
2026-01-14 02:01:37.15	245.48	19.62	-53.5	-55.5	14.2	0.00e+00	0	27	0	1143996416	73	4489
2026-01-14 02:01:38.16	245.39	19.50	-53.4	-55.5	14.3	0.00e+00	0	27	0	1146093568	73	4448
2026-01-14 02:01:39.17	245.30	19.38	-53.4	-55.4	14.3	0.00e+00	0	27	0	1147142144	73	4424
2026-01-14 02:01:40.18	245.21	19.26	-53.4	-55.4	14.3	0.00e+00	0	27	0	1149239296	73	4434
2026-01-14 02:01:41.19	245.12	19.14	-53.5	-55.6	14.2	0.00e+00	0	27	0	1151336448	73	4503
2026-01-14 02:01:42.19	245.03	19.02	-53.4	-55.5	14.3	0.00e+00	0	27	0	1153433600	73	4449
2026-01-14 02:01:43.20	244.94	18.90	-53.3	-55.4	14.3	0.00e+00	0	27	0	1155530752	73	4393
2026-01-14 02:01:44.21	244.85	18.78	-53.6	-55.6	14.2	0.00e+00	0	27	0	1156579328	73	4534
2026-01-14 02:01:45.21	244.77	18.67	-53.6	-55.7	14.2	0.00e+00	0	27	0	1158676480	73	4547
2026-01-14 02:01:46.22	244.68	18.55	-53.6	-55.7	14.1	0.00e+00	0	27	0	1160773632	73	4576
2026-01-14 02:01:47.23	244.59	18.43	-53.7	-55.8	14.1	0.00e+00	0	27	0	1162870784	73	4620
2026-01-14 02:01:48.24	244.51	18.32	-53.8	-56.0	14.0	0.00e+00	0	27	0	1164967936	73	4737
2026-01-14 02:01:49.25	244.43	18.20	-53.8	-56.0	14.0	0.00e+00	0	27	0	1166016512	73	4755
2026-01-14 02:01:50.26	244.34	18.09	-53.9	-56.2	13.9	0.00e+00	0	27	0	1168113664	73	4821
2026-01-14 02:01:51.26	244.26	17.98	-54.0	-56.3	13.8	0.00e+00	0	27	0	1170210816	73	4913
2026-01-14 02:01:52.27	244.18	17.86	-53.9	-56.2	13.9	0.00e+00	0	27	0	1172307968	73	4821
2026-01-14 02:01:53.28	244.10	17.75	-53.9	-56.1	13.9	0.00e+00	0	27	0	1174405120	73	4801
2026-01-14 02:01:54.29	244.01	17.63	-54.0	-56.2	13.9	0.00e+00	0	27	0	1175453696	73	4858
2026-01-14 02:01:55.29	243.94	17.52	-53.8	-56.0	14.0	0.00e+00	0	27	0	1177550848	73	4743
2026-01-14 02:01:56.30	243.86	17.41	-53.9	-56.1	13.9	0.00e+00	0	27	0	1179648000	73	4790
2026-01-14 02:01:57.31	243.78	17.30	-53.9	-56.2	13.9	0.00e+00	0	27	0	1181745152	73	4822
2026-01-14 02:01:58.32	243.70	17.19	-53.9	-56.1	13.9	0.00e+00	0	27	0	1183842304	73	4770
2026-01-14 02:01:59.32	243.62	17.08	-53.9	-56.1	13.9	0.00e+00	0	27	0	1184890880	73	4770
2026-01-14 02:02:00.33	243.54	16.97	-53.8	-56.1	13.9	0.00e+00	0	27	0	1186988032	73	4762
2026-01-14 02:02:01.34	243.47	16.86	-53.9	-56.1	13.9	0.00e+00	0	27	0	1189085184	73	4784
2026-01-14 02:02:02.35	243.39	16.75	-54.0	-56.2	13.9	0.00e+00	0	27	0	1191182336	73	4849
2026-01-14 02:02:03.36	243.31	16.64	-53.8	-56.1	13.9	0.00e+00	0	27	0	1193279488	73	4772
2026-01-14 02:02:04.37	243.24	16.53	-53.8	-56.0	13.9	0.00e+00	0	27	0	1194328064	73	4751
2026-01-14 02:02:05.38	243.16	16.42	-53.8	-56.0	14.0	0.00e+00	0	27	0	1196425216	73	4742
2026-01-14 02:02:06.38	243.09	16.32	-53.8	-56.0	14.0	0.00e+00	0	27	0	1198522368	73	4719
2026-01-14 02:02:07.39	243.02	16.21	-53.8	-55.9	14.0	0.00e+00	0	27	0	1200619520	73	4705
2026-01-14 02:02:08.40	242.95	16.10	-53.7	-55.9	14.0	0.00e+00	0	27	0	1202716672	73	4662
2026-01-14 02:02:09.41	242.87	16.00	-53.7	-55.9	14.0	0.00e+00	0	27	0	1203765248	73	4685
2026-01-14 02:02:10.42	242.80	15.89	-53.7	-55.9	14.0	0.00e+00	0	27	0	1205862400	73	4692
2026-01-14 02:02:11.42	242.73	15.79	-53.7	-55.8	14.0	0.00e+00	0	27	0	1207959552	73	4645
2026-01-14 02:02:12.43	242.66	15.68	-53.6	-55.8	14.1	0.00e+00	0	27	0	1210056704	73	4610
2026-01-14 02:02:13.44	242.59	15.57	-53.6	-55.7	14.1	0.00e+00	0	27	0	1212153856	73	4562
2026-01-14 02:02:14.45	242.52	15.47	-53.4	-55.5	14.2	0.00e+00	0	27	0	1213202432	73	4452
2026-01-14 02:02:15.45	242.45	15.37	-53.4	-55.5	14.2	0.00e+00	0	27	0	1215299584	73	4467
2026-01-14 02:02:16.46	242.38	15.26	-53.5	-55.6	14.1	0.00e+00	0	27	0	1217396736	73	4540
2026-01-14 02:02:17.47	242.31	15.16	-53.6	-55.7	14.1	0.00e+00	0	27	0	1219493888	73	4582
2026-01-14 02:02:18.48	242.25	15.06	-53.7	-55.8	14.0	0.00e+00	0	27	0	1221591040	73	4649
2026-01-14 02:02:19.49	242.18	14.96	-53.8	-56.0	14.0	0.00e+00	0	27	0	1222639616	73	4716
2026-01-14 02:02:20.50	242.11	14.85	-53.9	-56.2	13.9	0.00e+00	0	27	0	1224736768	73	4831
2026-01-14 02:02:21.50	242.05	14.75	-54.0	-56.3	13.8	0.00e+00	0	27	0	1226833920	73	4880
2026-01-14 02:02:22.51	241.98	14.65	-54.1	-56.5	13.7	0.00e+00	0	27	0	1228931072	73	4988
2026-01-14 02:02:23.52	241.92	14.55	-54.1	-56.5	13.6	0.00e+00	0	27	0	1231028224	73	5027
2026-01-14 02:02:24.53	241.85	14.45	-54.2	-56.6	13.6	0.00e+00	0	27	0	1233125376	73	5043
2026-01-14 02:02:25.54	241.79	14.35	-54.3	-56.7	13.5	0.00e+00	0	27	0	1234173952	73	5149
2026-01-14 02:02:26.55	241.72	14.25	-54.3	-56.8	13.5	0.00e+00	0	27	0	1236271104	73	5199
2026-01-14 02:02:27.56	241.66	14.15	-54.3	-56.8	13.5	0.00e+00	0	27	0	1238368256	73	5196
2026-01-14 02:02:28.56	241.60	14.05	-54.2	-56.7	13.6	0.00e+00	0	27	0	1240465408	73	5108
2026-01-14 02:02:29.57	241.53	13.95	-54.2	-56.7	13.6	0.00e+00	0	27	0	1242562560	73	5107
2026-01-14 02:02:30.58	241.47	13.86	-54.1	-56.5	13.7	0.00e+00	0	27	0	1243611136	73	5024
2026-01-14 02:02:31.59	241.41	13.76	-54.1	-56.5	13.7	0.00e+00	0	27	0	1245708288	73	5001
2026-01-14 02:02:32.60	241.35	13.66	-54.2	-56.6	13.6	0.00e+00	0	27	0	1247805440	73	5064
2026-01-14 02:02:33.61	241.29	13.56	-54.0	-56.4	13.7	0.00e+00	0	27	0	1249902592	73	4953
2026-01-14 02:02:34.62	241.23	13.47	-54.1	-56.4	13.7	0.00e+00	0	27	0	1251999744	73	4966
