passes_logs/2026/01/14/R3.2S_Murmansk/R3.2S_Murmansk__20260114_013017_SUOMI_NPP_rec.log

#Pass ID: 20260114_013017_SUOMI NPP
#Satellite: SUOMI NPP
#Configuration: NPP
#almurnet v.1.7.20251203
#Start time: 2026-01-14 01:30:16

#Version: 2.2.20231116
#Station: R3.2S_Murmansk
#Location: 33.079688 lon 68.888172 lat
#TLE: 1 37849U 11061A   26013.55331121  .00000059  00000+0  48721-4 0  9992
#TLE: 2 37849  98.7808 315.6144 0002478  66.1553 293.9883 14.19524925736509

#Time	Az	El	Level	Level2	SNR	BER	BlckErr	Temp	State	Recorded	gain1	gain2
2026-01-14 01:30:16.87	27.75	1.98	-57.6	-73.6	3.8	1.49e+00	0	25	0	0	81	22567
2026-01-14 01:30:17.87	27.73	2.05	-57.6	-73.6	3.8	1.49e+00	0	25	104	0	80	23907
2026-01-14 01:30:18.87	27.72	2.11	-57.6	-73.6	3.8	1.49e+00	0	26	104	0	80	23925
2026-01-14 01:30:19.88	27.70	2.17	-57.6	-73.6	3.8	1.49e+00	0	25	104	0	80	23928
2026-01-14 01:30:20.89	27.69	2.24	-57.6	-73.6	3.8	1.49e+00	0	25	104	0	80	23902
2026-01-14 01:30:21.90	27.67	2.30	-57.6	-73.6	3.8	1.49e+00	0	26	104	0	80	23903
2026-01-14 01:30:22.91	27.66	2.37	-57.6	-73.6	3.8	1.49e+00	0	26	104	0	80	23890
2026-01-14 01:30:23.92	27.64	2.43	-57.6	-73.6	3.8	1.49e+00	0	25	104	0	80	24000
2026-01-14 01:30:24.92	27.62	2.50	-57.6	-73.6	3.8	1.49e+00	0	25	104	0	80	23870
2026-01-14 01:30:25.93	27.61	2.56	-57.6	-73.6	3.8	1.49e+00	0	26	104	0	80	23920
2026-01-14 01:30:26.94	27.59	2.63	-57.6	-73.6	3.8	1.49e+00	0	26	104	0	80	23884
2026-01-14 01:30:27.95	27.58	2.69	-57.6	-73.5	3.8	1.49e+00	0	26	104	0	80	23773
2026-01-14 01:30:28.95	27.56	2.76	-57.6	-73.5	3.8	1.49e+00	0	26	104	0	80	23695
2026-01-14 01:30:29.96	27.54	2.82	-57.6	-73.4	3.8	1.49e+00	0	26	104	0	80	23525
2026-01-14 01:30:30.97	27.53	2.89	-57.6	-73.4	3.8	1.49e+00	0	26	104	0	80	23415
2026-01-14 01:30:31.98	27.51	2.96	-57.6	-73.3	3.8	1.49e+00	0	26	104	0	80	23210
2026-01-14 01:30:32.99	27.50	3.02	-57.6	-73.3	3.8	1.49e+00	0	26	104	0	80	23128
2026-01-14 01:30:34.00	27.48	3.09	-57.6	-73.2	3.8	1.49e+00	0	26	104	0	80	22906
2026-01-14 01:30:35.02	27.46	3.16	-57.6	-73.1	3.8	1.49e+00	0	26	104	0	80	22752
2026-01-14 01:30:36.02	27.45	3.22	-57.5	-72.7	3.8	1.49e+00	0	26	104	0	80	21553
2026-01-14 01:30:37.03	27.43	3.29	-57.5	-72.6	3.8	1.49e+00	0	26	104	0	80	21319
2026-01-14 01:30:38.04	27.41	3.36	-57.5	-72.4	3.8	1.49e+00	0	26	104	0	80	21002
2026-01-14 01:30:39.04	27.39	3.42	-57.5	-72.5	3.8	1.49e+00	0	26	104	0	80	21044
2026-01-14 01:30:40.05	27.38	3.49	-57.5	-72.6	3.8	1.49e+00	0	26	104	0	80	21475
2026-01-14 01:30:41.07	27.36	3.56	-57.6	-72.8	3.8	1.49e+00	0	26	104	0	80	21812
2026-01-14 01:30:42.07	27.34	3.63	-57.6	-72.9	3.8	1.49e+00	0	26	104	0	80	22140
2026-01-14 01:30:43.08	27.32	3.69	-57.6	-72.9	3.8	1.49e+00	0	26	104	0	80	22251
2026-01-14 01:30:44.09	27.31	3.76	-57.6	-72.8	3.8	1.49e+00	0	26	104	0	80	21867
2026-01-14 01:30:45.10	27.29	3.83	-57.6	-72.4	3.8	1.49e+00	0	26	104	0	80	20819
2026-01-14 01:30:46.11	27.27	3.90	-57.5	-72.0	3.8	1.49e+00	0	26	104	0	80	19873
2026-01-14 01:30:47.12	27.25	3.97	-57.5	-71.1	3.9	1.49e+00	0	26	104	0	80	17948
2026-01-14 01:30:48.13	27.24	4.04	-57.5	-70.3	4.1	1.47e+00	0	26	104	0	80	16398
2026-01-14 01:30:49.14	27.22	4.10	-57.4	-69.2	4.4	1.32e+00	53	26	0	0	80	14538
2026-01-14 01:30:50.15	27.20	4.17	-57.3	-68.4	4.7	9.47e-01	0	26	0	2097152	80	13215
2026-01-14 01:30:51.16	27.18	4.24	-57.2	-67.3	5.3	5.80e-01	0	26	0	4194304	80	11592
2026-01-14 01:30:52.17	27.16	4.31	-57.1	-66.6	5.7	4.32e-01	0	26	0	6291456	80	10717
2026-01-14 01:30:53.18	27.14	4.38	-57.0	-66.1	6.1	3.47e-01	0	26	0	7340032	80	10072
2026-01-14 01:30:54.19	27.13	4.45	-57.0	-65.8	6.2	2.29e-01	0	26	0	9437184	80	9806
2026-01-14 01:30:55.20	27.11	4.52	-56.9	-65.4	6.5	2.17e-01	0	26	0	11534336	80	9352
2026-01-14 01:30:56.21	27.09	4.59	-56.9	-65.4	6.6	1.96e-01	0	26	0	13631488	80	9290
2026-01-14 01:30:57.21	27.07	4.66	-56.9	-65.2	6.7	1.88e-01	0	26	0	15728640	80	9081
2026-01-14 01:30:58.22	27.05	4.73	-56.9	-65.3	6.6	1.56e-01	0	26	0	16777216	80	9204
2026-01-14 01:30:59.23	27.03	4.80	-56.9	-65.2	6.7	1.35e-01	0	26	0	18874368	80	9141
2026-01-14 01:31:00.24	27.01	4.87	-56.9	-65.4	6.5	1.75e-01	0	27	0	20971520	80	9353
2026-01-14 01:31:01.25	26.99	4.94	-57.0	-66.0	6.1	2.28e-01	0	27	0	23068672	80	9961
2026-01-14 01:31:02.26	26.97	5.02	-57.0	-65.9	6.2	2.57e-01	0	26	0	25165824	80	9909
2026-01-14 01:31:03.27	26.95	5.09	-57.1	-66.5	5.8	2.55e-01	0	26	0	27262976	80	10607
2026-01-14 01:31:04.28	26.93	5.16	-57.6	-69.0	4.6	1.32e+00	0	27	0	28311552	80	14166
2026-01-14 01:31:05.29	26.91	5.23	-57.2	-65.0	7.2	1.68e-01	0	26	0	30408704	80	8946
2026-01-14 01:31:06.30	26.89	5.30	-57.3	-70.2	3.9	1.08e+00	0	27	104	30408704	80	16199
2026-01-14 01:31:07.31	26.87	5.38	-56.5	-62.1	9.8	5.55e-04	0	27	0	30408704	78	7159
2026-01-14 01:31:08.31	26.85	5.45	-57.6	-67.9	5.1	9.76e-01	0	27	0	32505856	80	12376
2026-01-14 01:31:09.32	26.83	5.52	-55.7	-60.0	11.4	6.72e-03	0	27	0	34603008	78	5648
2026-01-14 01:31:10.33	26.81	5.59	-55.6	-59.9	11.4	4.80e-05	0	27	0	36700160	77	5883
2026-01-14 01:31:11.34	26.79	5.67	-55.5	-59.6	11.8	6.80e-06	0	27	0	37748736	77	5700
2026-01-14 01:31:12.35	26.77	5.74	-55.1	-58.8	12.2	1.06e-05	0	27	0	39845888	76	5493
2026-01-14 01:31:13.36	26.75	5.81	-54.7	-58.0	12.7	0.00e+00	0	27	0	41943040	76	5023
2026-01-14 01:31:14.36	26.73	5.88	-54.3	-57.3	13.0	0.00e+00	0	27	0	44040192	75	4917
2026-01-14 01:31:15.37	26.71	5.96	-54.3	-57.5	13.0	0.00e+00	0	27	0	46137344	75	4985
2026-01-14 01:31:16.38	26.69	6.03	-54.2	-57.2	13.1	0.00e+00	0	26	0	48234496	75	4855
2026-01-14 01:31:17.39	26.66	6.11	-54.0	-57.0	13.2	0.00e+00	0	27	0	49283072	74	5003
2026-01-14 01:31:18.40	26.64	6.18	-54.0	-57.0	13.2	0.00e+00	0	27	0	51380224	74	4995
2026-01-14 01:31:19.41	26.62	6.26	-53.7	-56.5	13.5	0.00e+00	0	27	0	53477376	74	4732
2026-01-14 01:31:20.42	26.60	6.33	-53.5	-56.2	13.6	0.00e+00	0	27	0	55574528	73	4833
2026-01-14 01:31:21.43	26.58	6.41	-53.6	-56.2	13.5	0.00e+00	0	27	0	57671680	73	4864
2026-01-14 01:31:22.43	26.56	6.48	-53.5	-56.1	13.6	0.00e+00	0	27	0	58720256	73	4787
2026-01-14 01:31:23.44	26.53	6.56	-53.4	-56.0	13.6	0.00e+00	0	27	0	60817408	73	4749
2026-01-14 01:31:24.45	26.51	6.63	-53.3	-55.8	13.8	0.00e+00	0	27	0	62914560	73	4625
2026-01-14 01:31:25.46	26.49	6.71	-53.3	-55.9	13.7	0.00e+00	0	27	0	65011712	73	4671
2026-01-14 01:31:26.46	26.47	6.78	-53.3	-55.9	13.6	0.00e+00	0	27	0	66060288	72	4948
2026-01-14 01:31:27.47	26.44	6.86	-53.3	-55.9	13.6	0.00e+00	0	27	0	68157440	72	4937
2026-01-14 01:31:28.48	26.42	6.94	-53.2	-55.7	13.7	0.00e+00	0	27	0	70254592	72	4853
2026-01-14 01:31:29.49	26.40	7.01	-53.2	-55.8	13.7	0.00e+00	0	27	0	72351744	72	4880
2026-01-14 01:31:30.50	26.37	7.09	-53.3	-55.9	13.6	0.00e+00	0	27	0	74448896	72	4944
2026-01-14 01:31:31.51	26.35	7.17	-53.2	-55.7	13.8	0.00e+00	0	27	0	76546048	72	4820
2026-01-14 01:31:32.52	26.33	7.24	-53.2	-55.7	13.8	0.00e+00	0	27	0	77594624	72	4841
2026-01-14 01:31:33.53	26.30	7.32	-53.1	-55.6	13.8	0.00e+00	0	27	0	79691776	72	4761
2026-01-14 01:31:34.54	26.28	7.40	-53.0	-55.4	13.9	0.00e+00	0	27	0	81788928	72	4670
2026-01-14 01:31:35.55	26.26	7.48	-53.0	-55.4	13.9	0.00e+00	0	27	0	83886080	72	4676
2026-01-14 01:31:36.56	26.23	7.56	-53.1	-55.5	13.9	0.00e+00	0	27	0	85983232	72	4733
2026-01-14 01:31:37.56	26.21	7.63	-52.9	-55.3	14.0	0.00e+00	0	27	0	87031808	72	4644
2026-01-14 01:31:38.57	26.18	7.71	-53.0	-55.4	13.9	0.00e+00	0	27	0	89128960	72	4670
2026-01-14 01:31:39.58	26.16	7.79	-52.9	-55.3	14.0	0.00e+00	0	27	0	91226112	72	4609
2026-01-14 01:31:40.59	26.13	7.87	-52.9	-55.2	14.0	0.00e+00	0	27	0	93323264	72	4568
2026-01-14 01:31:41.60	26.11	7.95	-52.8	-55.2	14.1	0.00e+00	0	27	0	95420416	72	4552
2026-01-14 01:31:42.61	26.08	8.03	-52.9	-55.3	14.0	0.00e+00	0	27	0	96468992	72	4600
2026-01-14 01:31:43.62	26.06	8.11	-52.9	-55.2	14.0	0.00e+00	0	27	0	98566144	72	4580
2026-01-14 01:31:44.63	26.03	8.19	-52.8	-55.1	14.1	0.00e+00	0	27	0	100663296	72	4514
2026-01-14 01:31:45.64	26.01	8.27	-52.8	-55.2	14.1	0.00e+00	0	27	0	102760448	72	4546
2026-01-14 01:31:46.65	25.98	8.35	-52.8	-55.2	14.1	0.00e+00	0	27	0	104857600	72	4563
2026-01-14 01:31:47.65	25.96	8.43	-52.8	-55.1	14.1	0.00e+00	0	27	0	105906176	72	4506
2026-01-14 01:31:48.65	25.93	8.51	-52.7	-55.0	14.0	0.00e+00	0	27	0	108003328	71	4723
2026-01-14 01:31:49.66	25.90	8.59	-52.7	-55.0	14.0	0.00e+00	0	27	0	110100480	71	4722
2026-01-14 01:31:50.67	25.88	8.68	-52.8	-55.1	14.0	0.00e+00	0	27	0	112197632	71	4784
2026-01-14 01:31:51.67	25.85	8.76	-52.7	-54.9	14.1	0.00e+00	0	27	0	114294784	71	4699
2026-01-14 01:31:52.68	25.82	8.84	-52.5	-54.8	14.1	0.00e+00	0	27	0	115343360	71	4610
2026-01-14 01:31:53.69	25.80	8.92	-52.6	-54.8	14.1	0.00e+00	0	27	0	117440512	71	4639
2026-01-14 01:31:54.69	25.77	9.00	-52.6	-54.8	14.1	0.00e+00	0	27	0	119537664	71	4651
2026-01-14 01:31:55.70	25.74	9.09	-52.6	-54.8	14.1	0.00e+00	0	27	0	121634816	71	4650
2026-01-14 01:31:56.71	25.72	9.17	-52.5	-54.8	14.2	0.00e+00	0	27	0	123731968	71	4610
2026-01-14 01:31:57.71	25.69	9.25	-52.6	-54.8	14.1	0.00e+00	0	27	0	124780544	71	4641
2026-01-14 01:31:58.72	25.66	9.34	-52.6	-54.9	14.1	0.00e+00	0	27	0	126877696	71	4662
2026-01-14 01:31:59.73	25.63	9.42	-52.6	-54.8	14.1	0.00e+00	0	27	0	128974848	71	4639
2026-01-14 01:32:00.74	25.61	9.51	-52.4	-54.5	14.3	0.00e+00	0	27	0	131072000	71	4491
2026-01-14 01:32:01.75	25.58	9.59	-52.3	-54.5	14.3	0.00e+00	0	27	0	133169152	71	4476
2026-01-14 01:32:02.76	25.55	9.68	-52.5	-54.7	14.2	0.00e+00	0	27	0	134217728	71	4564
2026-01-14 01:32:03.77	25.52	9.76	-52.4	-54.6	14.3	0.00e+00	0	27	0	136314880	71	4511
2026-01-14 01:32:04.78	25.49	9.85	-52.3	-54.5	14.3	0.00e+00	0	27	0	138412032	71	4448
2026-01-14 01:32:05.78	25.46	9.93	-52.4	-54.5	14.3	0.00e+00	0	27	0	140509184	71	4459
2026-01-14 01:32:06.79	25.43	10.02	-52.3	-54.4	14.3	0.00e+00	0	27	0	142606336	71	4403
2026-01-14 01:32:07.80	25.40	10.11	-52.4	-54.5	14.3	0.00e+00	0	27	0	143654912	71	4484
2026-01-14 01:32:08.80	25.37	10.19	-52.1	-54.2	14.3	0.00e+00	0	27	0	145752064	70	4562
2026-01-14 01:32:09.81	25.34	10.28	-52.1	-54.2	14.3	0.00e+00	0	27	0	147849216	70	4558
2026-01-14 01:32:10.82	25.31	10.37	-52.2	-54.2	14.3	0.00e+00	0	27	0	149946368	70	4594
2026-01-14 01:32:11.83	25.28	10.45	-52.2	-54.3	14.2	0.00e+00	0	27	0	152043520	70	4626
2026-01-14 01:32:12.84	25.25	10.54	-52.1	-54.1	14.3	0.00e+00	0	27	0	153092096	70	4514
2026-01-14 01:32:13.85	25.22	10.63	-52.0	-54.1	14.3	0.00e+00	0	27	0	155189248	70	4511
2026-01-14 01:32:14.85	25.19	10.72	-52.0	-54.1	14.3	0.00e+00	0	27	0	157286400	70	4504
2026-01-14 01:32:15.86	25.16	10.81	-52.1	-54.2	14.3	0.00e+00	0	27	0	159383552	70	4555
2026-01-14 01:32:16.87	25.13	10.90	-52.0	-54.1	14.4	0.00e+00	0	27	0	161480704	70	4511
2026-01-14 01:32:17.88	25.10	10.99	-52.0	-54.0	14.4	0.00e+00	0	27	0	162529280	70	4454
2026-01-14 01:32:18.89	25.07	11.08	-51.9	-53.9	14.4	0.00e+00	0	27	0	164626432	70	4432
2026-01-14 01:32:19.90	25.03	11.17	-51.9	-54.0	14.4	0.00e+00	0	27	0	166723584	70	4444
2026-01-14 01:32:20.91	25.00	11.26	-51.9	-53.9	14.4	0.00e+00	0	27	0	168820736	70	4418
2026-01-14 01:32:21.92	24.97	11.35	-51.8	-53.8	14.5	0.00e+00	0	27	0	170917888	70	4359
2026-01-14 01:32:22.92	24.94	11.44	-51.8	-53.8	14.5	0.00e+00	0	27	0	173015040	70	4375
2026-01-14 01:32:23.93	24.90	11.53	-51.9	-53.9	14.4	0.00e+00	0	27	0	174063616	70	4421
2026-01-14 01:32:24.94	24.87	11.62	-51.8	-53.8	14.5	0.00e+00	0	27	0	176160768	70	4356
2026-01-14 01:32:25.95	24.84	11.71	-51.6	-53.5	14.5	0.00e+00	0	27	0	178257920	69	4485
2026-01-14 01:32:26.96	24.80	11.81	-51.6	-53.6	14.5	0.00e+00	0	27	0	180355072	69	4498
2026-01-14 01:32:27.96	24.77	11.90	-51.6	-53.6	14.5	0.00e+00	0	27	0	181403648	69	4508
2026-01-14 01:32:28.97	24.74	11.99	-51.5	-53.4	14.5	0.00e+00	0	27	0	183500800	69	4422
2026-01-14 01:32:29.98	24.70	12.08	-51.6	-53.5	14.5	0.00e+00	0	27	0	185597952	69	4454
2026-01-14 01:32:30.99	24.67	12.18	-51.5	-53.4	14.5	0.00e+00	0	27	0	187695104	69	4434
2026-01-14 01:32:32.00	24.63	12.27	-51.5	-53.4	14.5	0.00e+00	0	27	0	189792256	69	4420
2026-01-14 01:32:33.01	24.60	12.37	-51.4	-53.3	14.6	0.00e+00	0	27	0	190840832	69	4370
2026-01-14 01:32:34.02	24.56	12.46	-51.5	-53.3	14.6	0.00e+00	0	27	0	192937984	69	4388
2026-01-14 01:32:35.03	24.53	12.56	-51.4	-53.3	14.6	0.00e+00	0	27	0	195035136	69	4354
2026-01-14 01:32:36.03	24.49	12.65	-51.4	-53.3	14.6	0.00e+00	0	27	0	197132288	69	4360
2026-01-14 01:32:37.04	24.45	12.75	-51.6	-53.5	14.5	0.00e+00	0	27	0	199229440	69	4479
2026-01-14 01:32:38.05	24.42	12.84	-51.5	-53.4	14.5	0.00e+00	0	27	0	201326592	69	4416
2026-01-14 01:32:39.06	24.38	12.94	-51.4	-53.3	14.6	0.00e+00	0	27	0	202375168	69	4345
2026-01-14 01:32:40.07	24.34	13.04	-51.6	-53.4	14.5	0.00e+00	0	27	0	204472320	69	4436
2026-01-14 01:32:41.08	24.31	13.14	-51.5	-53.3	14.6	0.00e+00	0	27	0	206569472	69	4385
2026-01-14 01:32:42.09	24.27	13.23	-51.4	-53.2	14.6	0.00e+00	0	27	0	208666624	69	4326
2026-01-14 01:32:43.09	24.23	13.33	-51.6	-53.4	14.5	0.00e+00	0	27	0	210763776	69	4436
2026-01-14 01:32:44.10	24.19	13.43	-51.5	-53.4	14.6	0.00e+00	0	27	0	211812352	69	4418
2026-01-14 01:32:45.11	24.16	13.53	-51.5	-53.3	14.6	0.00e+00	0	27	0	213909504	69	4369
2026-01-14 01:32:46.12	24.12	13.63	-51.5	-53.3	14.6	0.00e+00	0	27	0	216006656	69	4382
2026-01-14 01:32:47.12	24.08	13.73	-51.6	-53.4	14.5	0.00e+00	0	27	0	218103808	69	4433
2026-01-14 01:32:48.13	24.04	13.83	-51.6	-53.5	14.5	0.00e+00	0	27	0	220200960	69	4459
2026-01-14 01:32:49.14	24.00	13.93	-51.7	-53.6	14.5	0.00e+00	0	27	0	221249536	69	4511
2026-01-14 01:32:50.15	23.96	14.03	-51.6	-53.4	14.5	0.00e+00	0	27	0	223346688	69	4429
2026-01-14 01:32:51.16	23.92	14.13	-51.6	-53.5	14.5	0.00e+00	0	27	0	225443840	69	4463
2026-01-14 01:32:52.17	23.88	14.23	-51.5	-53.3	14.6	0.00e+00	0	27	0	227540992	69	4391
2026-01-14 01:32:53.18	23.84	14.33	-51.7	-53.5	14.5	0.00e+00	0	27	0	229638144	69	4482
2026-01-14 01:32:54.18	23.80	14.44	-51.5	-53.4	14.6	0.00e+00	0	27	0	230686720	69	4397
2026-01-14 01:32:55.19	23.76	14.54	-51.5	-53.3	14.6	0.00e+00	0	27	0	232783872	69	4373
2026-01-14 01:32:56.19	23.72	14.64	-51.6	-53.4	14.6	0.00e+00	0	27	0	234881024	69	4428
2026-01-14 01:32:57.20	23.67	14.75	-51.7	-53.5	14.5	0.00e+00	0	27	0	236978176	69	4489
2026-01-14 01:32:58.21	23.63	14.85	-51.5	-53.3	14.6	0.00e+00	0	27	0	239075328	69	4370
2026-01-14 01:32:59.22	23.59	14.95	-51.5	-53.3	14.6	0.00e+00	0	27	0	240123904	69	4383
2026-01-14 01:33:00.23	23.55	15.06	-51.6	-53.4	14.6	0.00e+00	0	27	0	242221056	69	4414
2026-01-14 01:33:01.24	23.50	15.17	-51.5	-53.4	14.6	0.00e+00	0	27	0	244318208	69	4393
2026-01-14 01:33:02.24	23.46	15.27	-51.5	-53.3	14.6	0.00e+00	0	27	0	246415360	69	4391
2026-01-14 01:33:03.25	23.42	15.38	-51.5	-53.3	14.6	0.00e+00	0	27	0	248512512	69	4388
2026-01-14 01:33:04.25	23.37	15.48	-51.6	-53.4	14.5	0.00e+00	0	27	0	249561088	69	4437
2026-01-14 01:33:05.26	23.33	15.59	-51.4	-53.2	14.6	0.00e+00	0	27	0	251658240	69	4330
2026-01-14 01:33:06.27	23.28	15.70	-51.5	-53.3	14.6	0.00e+00	0	27	0	253755392	69	4345
2026-01-14 01:33:07.28	23.24	15.81	-51.5	-53.3	14.6	0.00e+00	0	27	0	255852544	69	4341
2026-01-14 01:33:08.28	23.19	15.91	-51.4	-53.2	14.7	0.00e+00	0	27	0	257949696	69	4296
2026-01-14 01:33:09.29	23.15	16.02	-51.4	-53.1	14.7	0.00e+00	0	27	0	258998272	69	4288
2026-01-14 01:33:10.30	23.10	16.13	-51.4	-53.2	14.6	0.00e+00	0	27	0	261095424	69	4299
2026-01-14 01:33:11.30	23.05	16.24	-51.3	-53.1	14.7	0.00e+00	0	27	0	263192576	69	4246
2026-01-14 01:33:12.31	23.01	16.35	-51.2	-53.0	14.6	0.00e+00	0	27	0	265289728	68	4468
2026-01-14 01:33:13.32	22.96	16.46	-51.3	-53.0	14.6	0.00e+00	0	27	0	267386880	68	4489
2026-01-14 01:33:14.32	22.91	16.58	-51.2	-52.9	14.6	0.00e+00	0	27	0	268435456	68	4409
2026-01-14 01:33:15.32	22.86	16.69	-51.2	-53.0	14.6	0.00e+00	0	27	0	270532608	68	4465
2026-01-14 01:33:16.33	22.81	16.80	-51.3	-53.0	14.6	0.00e+00	0	27	0	272629760	68	4475
2026-01-14 01:33:17.34	22.77	16.91	-51.1	-52.9	14.7	0.00e+00	0	27	0	274726912	68	4402
2026-01-14 01:33:18.35	22.72	17.03	-51.2	-52.9	14.7	0.00e+00	0	27	0	276824064	68	4411
2026-01-14 01:33:19.35	22.67	17.14	-51.2	-53.0	14.6	0.00e+00	0	27	0	277872640	68	4452
2026-01-14 01:33:20.36	22.62	17.25	-51.2	-53.0	14.6	0.00e+00	0	27	0	279969792	68	4469
2026-01-14 01:33:21.37	22.57	17.37	-51.3	-53.0	14.6	0.00e+00	0	27	0	282066944	68	4470
2026-01-14 01:33:22.38	22.51	17.48	-51.2	-52.9	14.7	0.00e+00	0	27	0	284164096	68	4411
2026-01-14 01:33:23.38	22.46	17.60	-51.3	-53.1	14.6	0.00e+00	0	27	0	286261248	68	4500
2026-01-14 01:33:24.39	22.41	17.72	-51.2	-53.0	14.6	0.00e+00	0	27	0	287309824	68	4445
2026-01-14 01:33:25.40	22.36	17.83	-51.2	-52.9	14.6	0.00e+00	0	27	0	289406976	68	4419
2026-01-14 01:33:26.41	22.31	17.95	-51.3	-53.1	14.6	0.00e+00	0	27	0	291504128	68	4524
2026-01-14 01:33:27.42	22.25	18.07	-51.3	-53.1	14.6	0.00e+00	0	27	0	293601280	68	4533
2026-01-14 01:33:28.42	22.20	18.19	-51.4	-53.3	14.5	0.00e+00	0	27	0	295698432	68	4601
2026-01-14 01:33:29.43	22.15	18.31	-51.3	-53.1	14.6	0.00e+00	0	27	0	296747008	68	4514
2026-01-14 01:33:30.44	22.09	18.43	-51.2	-53.0	14.6	0.00e+00	0	27	0	298844160	68	4465
2026-01-14 01:33:31.44	22.04	18.55	-51.6	-53.4	14.5	0.00e+00	0	27	0	300941312	68	4674
2026-01-14 01:33:32.45	21.98	18.67	-51.7	-53.6	14.4	0.00e+00	0	27	0	303038464	68	4774
2026-01-14 01:33:33.46	21.93	18.79	-51.5	-53.4	14.5	0.00e+00	0	27	0	305135616	68	4662
2026-01-14 01:33:34.47	21.87	18.91	-51.7	-53.6	14.4	0.00e+00	0	27	0	306184192	68	4777
2026-01-14 01:33:35.48	21.81	19.03	-51.7	-53.6	14.4	0.00e+00	0	27	0	308281344	68	4789
2026-01-14 01:33:36.48	21.75	19.16	-51.6	-53.4	14.5	0.00e+00	0	27	0	310378496	68	4701
2026-01-14 01:33:37.49	21.70	19.28	-51.6	-53.5	14.4	0.00e+00	0	27	0	312475648	68	4757
2026-01-14 01:33:38.50	21.64	19.40	-51.5	-53.3	14.5	0.00e+00	0	27	0	314572800	68	4634
2026-01-14 01:33:39.50	21.58	19.53	-51.7	-53.5	14.4	0.00e+00	0	27	0	315621376	68	4753
2026-01-14 01:33:40.52	21.52	19.66	-51.9	-53.8	14.3	0.00e+00	0	27	0	317718528	68	4904
2026-01-14 01:33:41.52	21.46	19.78	-51.9	-53.8	14.3	0.00e+00	0	27	0	319815680	68	4888
2026-01-14 01:33:42.54	21.40	19.91	-51.8	-53.7	14.3	0.00e+00	0	27	0	321912832	68	4869
2026-01-14 01:33:43.54	21.34	20.03	-51.6	-53.5	14.4	0.00e+00	0	27	0	324009984	68	4708
2026-01-14 01:33:44.55	21.28	20.16	-51.8	-53.7	14.3	0.00e+00	0	27	0	325058560	68	4870
2026-01-14 01:33:45.56	21.21	20.29	-51.8	-53.6	14.4	0.00e+00	0	27	0	327155712	68	4810
2026-01-14 01:33:46.57	21.15	20.42	-51.5	-53.3	14.5	0.00e+00	0	27	0	329252864	68	4639
2026-01-14 01:33:47.58	21.09	20.55	-51.8	-53.6	14.4	0.00e+00	0	27	0	331350016	68	4804
2026-01-14 01:33:48.59	21.02	20.68	-51.8	-53.7	14.4	0.00e+00	0	27	0	333447168	68	4820
2026-01-14 01:33:49.59	20.96	20.81	-51.7	-53.5	14.4	0.00e+00	0	27	0	334495744	68	4753
2026-01-14 01:33:50.60	20.90	20.94	-51.8	-53.7	14.4	0.00e+00	0	27	0	336592896	68	4846
2026-01-14 01:33:51.61	20.83	21.08	-51.5	-53.3	14.5	0.00e+00	0	27	0	338690048	68	4633
2026-01-14 01:33:52.61	20.76	21.21	-51.6	-53.4	14.5	0.00e+00	0	27	0	340787200	68	4674
2026-01-14 01:33:53.62	20.70	21.34	-51.8	-53.7	14.4	0.00e+00	0	27	0	342884352	68	4827
2026-01-14 01:33:54.62	20.63	21.48	-51.8	-53.7	14.4	0.00e+00	0	27	0	343932928	68	4827
2026-01-14 01:33:55.63	20.56	21.61	-52.0	-53.9	14.4	0.00e+00	0	27	0	346030080	69	4656
2026-01-14 01:33:56.64	20.49	21.75	-52.0	-53.9	14.4	0.00e+00	0	27	0	348127232	69	4700
2026-01-14 01:33:57.65	20.42	21.88	-51.9	-53.8	14.4	0.00e+00	0	27	0	350224384	69	4618
2026-01-14 01:33:58.66	20.35	22.02	-52.1	-54.0	14.3	0.00e+00	0	27	0	352321536	69	4752
2026-01-14 01:33:59.67	20.28	22.16	-51.7	-53.5	14.6	0.00e+00	0	27	0	354418688	69	4462
2026-01-14 01:34:00.68	20.21	22.30	-52.0	-53.9	14.4	0.00e+00	0	27	0	355467264	69	4662
2026-01-14 01:34:01.69	20.14	22.44	-52.1	-54.0	14.4	0.00e+00	0	27	0	357564416	69	4738
2026-01-14 01:34:02.69	20.07	22.58	-51.8	-53.6	14.5	0.00e+00	0	27	0	359661568	69	4520
2026-01-14 01:34:03.70	20.00	22.72	-51.9	-53.8	14.4	0.00e+00	0	27	0	361758720	69	4649
2026-01-14 01:34:04.71	19.92	22.86	-51.9	-53.8	14.4	0.00e+00	0	27	0	362807296	69	4612
2026-01-14 01:34:05.72	19.85	23.00	-51.7	-53.6	14.5	0.00e+00	0	27	0	364904448	69	4509
2026-01-14 01:34:06.73	19.77	23.14	-51.9	-53.8	14.4	0.00e+00	0	27	0	367001600	69	4623
2026-01-14 01:34:07.74	19.69	23.29	-51.5	-53.3	14.6	0.00e+00	0	27	0	369098752	69	4387
2026-01-14 01:34:08.75	19.62	23.43	-51.9	-53.8	14.4	0.00e+00	0	27	0	371195904	69	4615
2026-01-14 01:34:09.75	19.54	23.58	-51.9	-53.8	14.4	0.00e+00	0	27	0	372244480	69	4650
2026-01-14 01:34:10.76	19.46	23.72	-51.8	-53.8	14.5	0.00e+00	0	27	0	374341632	69	4603
2026-01-14 01:34:11.77	19.38	23.87	-52.0	-53.9	14.4	0.00e+00	0	27	0	376438784	69	4698
2026-01-14 01:34:12.77	19.30	24.02	-52.0	-54.0	14.3	0.00e+00	0	27	0	378535936	69	4737
2026-01-14 01:34:13.78	19.22	24.16	-52.2	-54.2	14.3	0.00e+00	0	27	0	380633088	69	4849
2026-01-14 01:34:14.78	19.14	24.31	-52.5	-54.7	14.2	0.00e+00	0	27	0	382730240	70	4830
2026-01-14 01:34:15.80	19.06	24.46	-52.3	-54.3	14.3	0.00e+00	0	27	0	383778816	70	4647
2026-01-14 01:34:16.81	18.97	24.61	-52.6	-54.7	14.2	0.00e+00	0	27	0	385875968	70	4842
2026-01-14 01:34:17.82	18.89	24.77	-52.5	-54.6	14.2	0.00e+00	0	27	0	387973120	70	4799
2026-01-14 01:34:18.82	18.81	24.92	-52.8	-54.9	14.1	0.00e+00	0	27	0	390070272	70	4973
2026-01-14 01:34:19.84	18.72	25.07	-52.8	-55.0	14.0	0.00e+00	0	27	0	392167424	70	5015
2026-01-14 01:34:20.84	18.63	25.22	-52.7	-54.8	14.1	0.00e+00	0	27	0	393216000	70	4908
2026-01-14 01:34:21.85	18.55	25.38	-52.8	-55.0	14.1	0.00e+00	0	27	0	395313152	70	4988
2026-01-14 01:34:22.86	18.46	25.53	-53.0	-55.2	14.1	0.00e+00	0	27	0	397410304	71	4827
2026-01-14 01:34:23.87	18.37	25.69	-52.6	-54.6	14.3	0.00e+00	0	27	0	399507456	71	4525
2026-01-14 01:34:24.88	18.28	25.85	-52.8	-55.0	14.2	0.00e+00	0	27	0	401604608	71	4719
2026-01-14 01:34:25.89	18.19	26.01	-53.1	-55.3	14.0	0.00e+00	0	27	0	402653184	71	4925
2026-01-14 01:34:26.89	18.10	26.16	-52.9	-55.1	14.1	0.00e+00	0	27	0	404750336	71	4781
2026-01-14 01:34:27.90	18.00	26.32	-53.2	-55.5	13.9	0.00e+00	0	27	0	406847488	71	5008
2026-01-14 01:34:28.91	17.91	26.48	-53.2	-55.5	14.0	0.00e+00	0	27	0	408944640	72	4722
2026-01-14 01:34:29.92	17.81	26.65	-53.3	-55.6	14.0	0.00e+00	0	27	0	411041792	72	4813
2026-01-14 01:34:30.93	17.72	26.81	-53.3	-55.6	14.0	0.00e+00	0	27	0	412090368	72	4787
2026-01-14 01:34:31.93	17.62	26.97	-53.1	-55.3	14.1	0.00e+00	0	27	0	414187520	72	4651
2026-01-14 01:34:32.95	17.52	27.14	-53.3	-55.7	14.0	0.00e+00	0	27	0	416284672	72	4828
2026-01-14 01:34:33.96	17.42	27.30	-53.4	-55.7	13.9	0.00e+00	0	27	0	418381824	72	4845
2026-01-14 01:34:34.97	17.32	27.47	-53.3	-55.7	14.0	0.00e+00	0	27	0	420478976	72	4817
2026-01-14 01:34:35.97	17.22	27.63	-53.1	-55.4	14.1	0.00e+00	0	27	0	421527552	72	4656
2026-01-14 01:34:36.98	17.12	27.80	-52.9	-55.0	14.2	0.00e+00	0	27	0	423624704	72	4477
2026-01-14 01:34:37.98	17.02	27.97	-52.7	-54.7	14.3	0.00e+00	0	27	0	425721856	71	4595
2026-01-14 01:34:38.99	16.91	28.14	-52.6	-54.6	14.3	0.00e+00	0	27	0	427819008	71	4516
2026-01-14 01:34:40.00	16.80	28.31	-52.4	-54.4	14.4	0.00e+00	0	27	0	429916160	71	4441
2026-01-14 01:34:41.01	16.70	28.48	-52.6	-54.7	14.3	0.00e+00	0	27	0	430964736	71	4562
2026-01-14 01:34:42.01	16.59	28.65	-52.4	-54.3	14.5	0.00e+00	0	27	0	433061888	71	4389
2026-01-14 01:34:43.03	16.48	28.83	-52.3	-54.3	14.4	0.00e+00	0	27	0	435159040	71	4384
2026-01-14 01:34:44.03	16.37	29.00	-52.7	-54.8	14.2	0.00e+00	0	27	0	437256192	71	4607
2026-01-14 01:34:45.03	16.26	29.17	-52.9	-55.1	14.1	0.00e+00	0	27	0	439353344	71	4766
2026-01-14 01:34:46.05	16.14	29.35	-52.7	-54.9	14.2	0.00e+00	0	27	0	440401920	71	4652
2026-01-14 01:34:47.05	16.03	29.53	-53.2	-55.6	13.9	0.00e+00	0	27	0	442499072	71	5046
2026-01-14 01:34:48.06	15.91	29.71	-53.6	-56.0	13.8	0.00e+00	0	27	0	444596224	72	5033
2026-01-14 01:34:49.07	15.80	29.88	-53.5	-56.0	13.8	0.00e+00	0	27	0	446693376	72	4992
2026-01-14 01:34:50.08	15.68	30.06	-54.0	-56.7	13.6	0.00e+00	0	27	0	448790528	73	5133
2026-01-14 01:34:51.09	15.56	30.25	-54.0	-56.6	13.6	0.00e+00	0	27	0	449839104	73	5094
2026-01-14 01:34:52.10	15.44	30.43	-53.9	-56.6	13.7	0.00e+00	0	27	0	451936256	73	5049
2026-01-14 01:34:53.11	15.31	30.61	-54.2	-57.0	13.4	0.00e+00	0	27	0	454033408	73	5295
2026-01-14 01:34:54.12	15.19	30.80	-54.2	-56.9	13.5	0.00e+00	0	27	0	456130560	73	5253
2026-01-14 01:34:55.13	15.06	30.98	-54.2	-57.0	13.5	0.00e+00	0	27	0	458227712	73	5285
2026-01-14 01:34:56.13	14.94	31.17	-54.4	-57.2	13.3	0.00e+00	0	28	0	459276288	73	5447
2026-01-14 01:34:57.14	14.81	31.35	-54.4	-57.2	13.4	0.00e+00	0	27	0	461373440	74	5152
2026-01-14 01:34:58.15	14.68	31.54	-54.8	-57.9	13.1	0.00e+00	0	27	0	463470592	74	5532
2026-01-14 01:34:59.16	14.55	31.73	-54.9	-57.9	13.2	0.00e+00	0	27	0	465567744	75	5237
2026-01-14 01:35:00.17	14.41	31.92	-55.0	-58.0	13.1	0.00e+00	0	27	0	467664896	75	5310
2026-01-14 01:35:01.18	14.28	32.11	-54.7	-57.6	13.3	0.00e+00	0	27	0	468713472	75	5095
2026-01-14 01:35:02.19	14.14	32.31	-54.6	-57.5	13.4	0.00e+00	0	27	0	470810624	75	4997
2026-01-14 01:35:03.19	14.00	32.50	-54.3	-57.1	13.6	0.00e+00	0	27	0	472907776	75	4766
2026-01-14 01:35:04.20	13.86	32.69	-54.2	-57.0	13.5	0.00e+00	0	27	0	475004928	74	5006
2026-01-14 01:35:05.21	13.72	32.89	-54.2	-57.0	13.5	0.00e+00	0	27	0	477102080	74	4999
2026-01-14 01:35:06.22	13.58	33.09	-54.2	-57.1	13.4	0.00e+00	0	27	0	479199232	74	5044
2026-01-14 01:35:07.23	13.43	33.28	-54.1	-56.9	13.5	0.00e+00	0	27	0	480247808	74	4937
2026-01-14 01:35:08.24	13.29	33.48	-54.4	-57.5	13.2	0.00e+00	0	27	0	482344960	74	5283
2026-01-14 01:35:09.25	13.14	33.68	-54.3	-57.3	13.3	0.00e+00	0	27	0	484442112	74	5173
2026-01-14 01:35:10.25	12.99	33.88	-54.8	-58.2	12.8	0.00e+00	0	27	0	486539264	74	5775
2026-01-14 01:35:11.26	12.83	34.08	-54.8	-58.4	12.7	0.00e+00	0	27	0	487587840	74	5880
2026-01-14 01:35:12.27	12.68	34.29	-54.9	-58.5	12.7	0.00e+00	0	28	0	489684992	75	5624
2026-01-14 01:35:13.28	12.52	34.49	-54.8	-58.3	12.8	0.00e+00	0	27	0	491782144	75	5502
2026-01-14 01:35:14.28	12.36	34.70	-54.4	-57.5	13.3	0.00e+00	0	27	0	493879296	75	4997
2026-01-14 01:35:15.29	12.20	34.90	-54.9	-58.3	12.8	0.00e+00	0	27	0	495976448	75	5509
2026-01-14 01:35:16.30	12.04	35.11	-55.2	-58.9	12.5	0.00e+00	0	27	0	497025024	75	5906
2026-01-14 01:35:17.30	11.88	35.32	-55.0	-58.5	12.8	0.00e+00	0	27	0	499122176	75	5620
2026-01-14 01:35:18.31	11.71	35.53	-55.6	-59.7	12.1	7.00e-07	0	27	0	501219328	76	6093
2026-01-14 01:35:19.32	11.54	35.74	-55.8	-60.1	11.8	7.00e-07	0	27	0	503316480	76	6362
2026-01-14 01:35:20.33	11.37	35.95	-56.0	-60.5	11.6	5.30e-06	0	27	0	505413632	77	6306
2026-01-14 01:35:21.34	11.19	36.16	-55.9	-60.2	11.8	8.30e-06	0	27	0	507510784	77	6131
2026-01-14 01:35:22.35	11.02	36.38	-55.3	-58.9	12.6	0.00e+00	0	27	0	508559360	77	5258
2026-01-14 01:35:23.35	10.84	36.59	-55.0	-58.4	13.0	0.00e+00	0	27	0	510656512	76	5221
2026-01-14 01:35:24.36	10.66	36.81	-54.5	-57.6	13.2	0.00e+00	0	27	0	512753664	75	5098
2026-01-14 01:35:25.37	10.48	37.03	-54.3	-57.3	13.4	0.00e+00	0	28	0	514850816	74	5171
2026-01-14 01:35:26.38	10.29	37.25	-54.2	-57.1	13.4	0.00e+00	0	27	0	516947968	74	5089
2026-01-14 01:35:27.39	10.10	37.47	-54.3	-57.3	13.3	0.00e+00	0	27	0	517996544	74	5212
2026-01-14 01:35:28.40	9.91	37.69	-54.2	-57.2	13.4	0.00e+00	0	27	0	520093696	74	5116
2026-01-14 01:35:29.40	9.72	37.91	-54.3	-57.4	13.3	0.00e+00	0	27	0	522190848	74	5230
2026-01-14 01:35:30.41	9.52	38.13	-54.2	-57.2	13.3	0.00e+00	0	27	0	524288000	74	5152
2026-01-14 01:35:31.42	9.32	38.35	-54.1	-57.2	13.3	0.00e+00	0	27	0	525336576	74	5118
2026-01-14 01:35:32.43	9.12	38.58	-54.1	-57.1	13.4	0.00e+00	0	27	0	527433728	74	5075
2026-01-14 01:35:33.43	8.91	38.80	-53.9	-56.9	13.6	0.00e+00	0	27	0	529530880	74	4931
2026-01-14 01:35:34.45	8.70	39.03	-53.8	-56.7	13.5	0.00e+00	0	27	0	531628032	73	5152
2026-01-14 01:35:35.45	8.49	39.26	-53.8	-56.6	13.5	0.00e+00	0	27	0	533725184	73	5091
2026-01-14 01:35:36.46	8.28	39.49	-53.6	-56.3	13.8	0.00e+00	0	27	0	535822336	73	4889
2026-01-14 01:35:37.47	8.06	39.72	-53.4	-56.1	13.9	0.00e+00	0	27	0	536870912	73	4771
2026-01-14 01:35:38.48	7.84	39.95	-53.1	-55.5	14.1	0.00e+00	0	27	0	538968064	72	4753
2026-01-14 01:35:39.48	7.62	40.18	-53.4	-55.9	13.9	0.00e+00	0	27	0	541065216	72	4970
2026-01-14 01:35:40.49	7.39	40.42	-53.5	-56.0	13.8	0.00e+00	0	27	0	543162368	72	5040
2026-01-14 01:35:41.50	7.16	40.65	-53.7	-56.3	13.7	0.00e+00	0	27	0	545259520	72	5194
2026-01-14 01:35:42.51	6.93	40.89	-53.8	-56.4	13.7	0.00e+00	0	27	0	546308096	72	5246
2026-01-14 01:35:43.52	6.69	41.12	-53.9	-56.5	13.6	0.00e+00	0	27	0	548405248	73	5039
2026-01-14 01:35:44.53	6.45	41.36	-53.9	-56.4	13.8	0.00e+00	0	27	0	550502400	73	4979
2026-01-14 01:35:45.54	6.21	41.60	-53.6	-56.0	14.0	0.00e+00	0	27	0	552599552	73	4749
2026-01-14 01:35:46.55	5.96	41.84	-54.1	-56.8	13.6	0.00e+00	0	27	0	554696704	73	5183
2026-01-14 01:35:47.55	5.71	42.08	-53.5	-55.8	14.0	0.00e+00	0	27	0	555745280	73	4637
2026-01-14 01:35:48.56	5.45	42.32	-53.4	-55.7	14.2	0.00e+00	0	27	0	557842432	73	4550
2026-01-14 01:35:49.57	5.19	42.56	-53.6	-56.0	14.0	0.00e+00	0	27	0	559939584	73	4739
2026-01-14 01:35:50.58	4.93	42.81	-53.8	-56.4	13.8	0.00e+00	0	27	0	562036736	73	4958
2026-01-14 01:35:51.59	4.66	43.05	-54.2	-57.1	13.4	0.00e+00	0	27	0	564133888	73	5383
2026-01-14 01:35:52.60	4.39	43.29	-54.4	-57.5	13.3	0.00e+00	0	27	0	565182464	74	5280
2026-01-14 01:35:53.61	4.11	43.54	-54.2	-57.1	13.4	0.00e+00	0	27	0	567279616	74	5085
2026-01-14 01:35:54.62	3.83	43.79	-54.3	-57.1	13.5	0.00e+00	0	27	0	569376768	74	5045
2026-01-14 01:35:55.63	3.55	44.04	-54.1	-56.9	13.6	0.00e+00	0	27	0	571473920	74	4966
2026-01-14 01:35:56.64	3.26	44.28	-54.4	-57.4	13.4	0.00e+00	0	27	0	573571072	74	5232
2026-01-14 01:35:57.65	2.96	44.53	-54.4	-57.3	13.4	0.00e+00	0	27	0	574619648	74	5162
2026-01-14 01:35:58.65	2.67	44.78	-54.4	-57.2	13.5	0.00e+00	0	27	0	576716800	74	5145
2026-01-14 01:35:59.66	2.36	45.03	-54.4	-57.2	13.4	0.00e+00	0	27	0	578813952	74	5147
2026-01-14 01:36:00.67	2.05	45.28	-54.4	-57.1	13.5	0.00e+00	0	27	0	580911104	74	5068
2026-01-14 01:36:01.68	1.74	45.53	-53.4	-55.7	14.1	0.00e+00	0	27	0	583008256	73	4549
2026-01-14 01:36:02.69	1.42	45.79	-53.7	-56.2	13.9	0.00e+00	0	27	0	584056832	73	4848
2026-01-14 01:36:03.69	1.10	46.04	-53.9	-56.5	13.7	0.00e+00	0	27	0	586153984	73	5034
2026-01-14 01:36:04.70	0.77	46.29	-54.2	-57.0	13.5	0.00e+00	0	27	0	588251136	73	5322
2026-01-14 01:36:05.71	0.44	46.54	-54.2	-57.1	13.5	0.00e+00	0	27	0	590348288	74	5077
2026-01-14 01:36:06.72	0.10	46.80	-53.5	-56.3	13.8	0.00e+00	0	27	0	592445440	73	4872
2026-01-14 01:36:07.73	359.75	47.05	-53.3	-56.0	13.9	0.00e+00	0	27	0	593494016	73	4734
2026-01-14 01:36:08.74	359.40	47.31	-53.0	-55.6	14.0	0.00e+00	0	27	0	595591168	72	4779
2026-01-14 01:36:09.75	359.04	47.56	-52.8	-55.2	14.2	0.00e+00	0	27	0	597688320	72	4594
2026-01-14 01:36:10.75	358.68	47.82	-53.1	-55.6	14.0	0.00e+00	0	27	0	599785472	72	4789
2026-01-14 01:36:11.77	358.31	48.08	-52.8	-55.3	14.1	0.00e+00	0	27	0	601882624	72	4625
2026-01-14 01:36:12.77	357.94	48.33	-52.7	-55.2	14.2	0.00e+00	0	27	0	603979776	72	4568
2026-01-14 01:36:13.78	357.56	48.59	-52.5	-54.8	14.3	0.00e+00	0	27	0	605028352	71	4617
2026-01-14 01:36:14.79	357.17	48.84	-52.3	-54.5	14.5	0.00e+00	0	27	0	607125504	71	4472
2026-01-14 01:36:15.80	356.77	49.10	-52.8	-55.3	14.1	0.00e+00	0	27	0	609222656	71	4882
2026-01-14 01:36:16.81	356.37	49.36	-52.9	-55.4	14.0	0.00e+00	0	27	0	611319808	71	4943
2026-01-14 01:36:17.82	355.96	49.61	-53.2	-55.8	13.9	0.00e+00	0	27	0	613416960	71	5191
2026-01-14 01:36:18.83	355.55	49.87	-53.3	-55.7	13.8	0.00e+00	0	27	0	614465536	71	5156
2026-01-14 01:36:19.83	355.13	50.12	-53.1	-55.5	14.1	0.00e+00	0	28	0	616562688	72	4732
2026-01-14 01:36:20.84	354.70	50.38	-52.7	-55.0	14.2	0.00e+00	0	27	0	618659840	72	4466
2026-01-14 01:36:21.85	354.26	50.64	-52.7	-55.1	14.2	0.00e+00	0	27	0	620756992	72	4526
2026-01-14 01:36:22.86	353.82	50.89	-52.8	-55.3	14.0	0.00e+00	0	28	0	621805568	71	4920
2026-01-14 01:36:23.87	353.36	51.15	-52.6	-55.2	14.1	0.00e+00	0	27	0	623902720	71	4821
2026-01-14 01:36:24.87	352.91	51.40	-53.0	-55.6	13.9	0.00e+00	0	27	0	625999872	71	5094
2026-01-14 01:36:25.88	352.44	51.65	-52.3	-54.6	14.4	0.00e+00	0	27	0	628097024	71	4533
2026-01-14 01:36:26.89	351.96	51.90	-51.5	-53.5	14.6	0.00e+00	0	27	0	630194176	69	4484
2026-01-14 01:36:27.90	351.48	52.16	-50.6	-52.4	14.7	0.00e+00	0	27	0	632291328	67	4432
2026-01-14 01:36:28.90	350.99	52.40	-50.3	-52.1	14.8	0.00e+00	0	27	0	633339904	67	4284
2026-01-14 01:36:29.91	350.49	52.66	-50.9	-52.8	14.6	0.00e+00	0	27	0	635437056	67	4631
2026-01-14 01:36:30.92	349.98	52.90	-51.4	-53.5	14.3	0.00e+00	0	27	0	637534208	67	5013
2026-01-14 01:36:31.93	349.46	53.15	-52.3	-54.6	14.1	0.00e+00	0	27	0	639631360	69	5092
2026-01-14 01:36:32.94	348.93	53.40	-52.5	-55.0	14.1	0.00e+00	0	27	0	641728512	70	4995
2026-01-14 01:36:33.95	348.40	53.65	-52.6	-55.1	14.0	0.00e+00	0	28	0	642777088	70	5055
2026-01-14 01:36:34.96	347.85	53.89	-52.8	-55.3	14.0	0.00e+00	0	27	0	644874240	71	4908
2026-01-14 01:36:35.96	347.30	54.13	-53.3	-56.0	13.8	0.00e+00	0	27	0	646971392	71	5300
2026-01-14 01:36:36.97	346.74	54.37	-53.3	-56.0	13.9	0.00e+00	0	27	0	649068544	72	5014
2026-01-14 01:36:37.98	346.16	54.61	-52.8	-55.3	14.2	0.00e+00	0	27	0	651165696	72	4608
2026-01-14 01:36:38.99	345.58	54.85	-52.8	-55.2	14.2	0.00e+00	0	27	0	652214272	71	4842
2026-01-14 01:36:40.00	344.98	55.08	-52.3	-54.5	14.4	0.00e+00	0	27	0	654311424	71	4475
2026-01-14 01:36:41.00	344.39	55.31	-51.9	-53.9	14.6	0.00e+00	0	27	0	656408576	70	4426
2026-01-14 01:36:42.01	343.77	55.55	-52.0	-54.0	14.5	0.00e+00	0	27	0	658505728	70	4453
2026-01-14 01:36:43.02	343.15	55.77	-52.3	-54.3	14.4	0.00e+00	0	27	0	660602880	70	4640
2026-01-14 01:36:44.03	342.51	56.00	-52.8	-55.1	14.1	0.00e+00	0	27	0	661651456	70	5086
2026-01-14 01:36:45.03	341.88	56.22	-53.1	-55.5	14.0	0.00e+00	0	27	0	663748608	71	5016
2026-01-14 01:36:46.03	341.23	56.44	-52.7	-55.0	14.2	0.00e+00	0	27	0	665845760	71	4728
2026-01-14 01:36:47.04	340.56	56.66	-52.6	-54.9	14.3	0.00e+00	0	27	0	667942912	71	4664
2026-01-14 01:36:48.05	339.89	56.87	-52.8	-55.1	14.2	0.00e+00	0	27	0	670040064	71	4763
2026-01-14 01:36:49.06	339.20	57.09	-52.8	-55.0	14.2	0.00e+00	0	27	0	671088640	71	4743
2026-01-14 01:36:50.07	338.50	57.30	-52.7	-54.8	14.3	0.00e+00	0	27	0	673185792	71	4636
2026-01-14 01:36:51.08	337.79	57.50	-52.6	-54.7	14.4	0.00e+00	0	27	0	675282944	71	4597
2026-01-14 01:36:52.08	337.08	57.70	-52.8	-55.1	14.2	0.00e+00	0	28	0	677380096	71	4789
2026-01-14 01:36:53.09	336.35	57.90	-53.0	-55.4	14.0	0.00e+00	0	27	0	679477248	71	4968
2026-01-14 01:36:54.11	335.60	58.10	-52.4	-54.5	14.4	0.00e+00	0	27	0	680525824	71	4492
2026-01-14 01:36:55.11	334.86	58.29	-52.1	-54.1	14.5	0.00e+00	0	27	0	682622976	70	4526
2026-01-14 01:36:56.12	334.10	58.47	-52.0	-54.0	14.6	0.00e+00	0	27	0	684720128	70	4449
2026-01-14 01:36:57.13	333.32	58.66	-52.2	-54.3	14.4	0.00e+00	0	27	0	686817280	70	4642
2026-01-14 01:36:58.14	332.54	58.83	-52.4	-54.6	14.3	0.00e+00	0	27	0	688914432	70	4763
2026-01-14 01:36:59.14	331.75	59.01	-52.6	-54.8	14.3	0.00e+00	0	27	0	689963008	70	4876
2026-01-14 01:37:00.14	330.96	59.17	-53.2	-55.7	14.0	0.00e+00	0	27	0	692060160	71	5155
2026-01-14 01:37:01.13	330.16	59.33	-53.0	-55.5	14.0	0.00e+00	0	27	0	694157312	71	4988
2026-01-14 01:37:02.14	329.33	59.49	-52.0	-54.1	14.4	0.00e+00	0	27	0	696254464	70	4540
2026-01-14 01:37:03.16	328.49	59.65	-52.0	-54.2	14.5	0.00e+00	0	27	0	698351616	70	4575
2026-01-14 01:37:04.16	327.66	59.80	-52.2	-54.5	14.4	0.00e+00	0	27	0	699400192	70	4727
2026-01-14 01:37:05.17	326.80	59.94	-51.8	-53.9	14.6	0.00e+00	0	27	0	701497344	70	4438
2026-01-14 01:37:06.18	325.94	60.08	-51.4	-53.4	14.7	0.00e+00	0	27	0	703594496	69	4412
2026-01-14 01:37:07.19	325.06	60.21	-51.4	-53.4	14.7	0.00e+00	0	27	0	705691648	69	4417
2026-01-14 01:37:08.20	324.18	60.34	-51.9	-54.1	14.4	0.00e+00	0	27	0	707788800	69	4764
2026-01-14 01:37:09.21	323.29	60.46	-53.0	-55.7	13.9	0.00e+00	0	27	0	708837376	71	5107
2026-01-14 01:37:10.21	322.40	60.57	-53.2	-56.0	13.7	0.00e+00	0	27	0	710934528	72	5012
2026-01-14 01:37:11.22	321.50	60.68	-52.5	-54.9	14.2	0.00e+00	0	27	0	713031680	71	4686
2026-01-14 01:37:12.23	320.58	60.78	-51.8	-54.0	14.5	0.00e+00	0	27	0	715128832	70	4491
2026-01-14 01:37:13.24	319.66	60.88	-52.3	-54.6	14.3	0.00e+00	0	27	0	717225984	70	4812
2026-01-14 01:37:14.25	318.73	60.97	-52.8	-55.3	14.0	0.00e+00	0	27	0	718274560	70	5203
2026-01-14 01:37:15.25	317.81	61.05	-52.2	-54.6	14.3	0.00e+00	0	28	0	720371712	70	4762
2026-01-14 01:37:16.25	316.87	61.13	-51.9	-54.0	14.5	0.00e+00	0	27	0	722468864	70	4454
2026-01-14 01:37:17.26	315.93	61.20	-51.7	-53.7	14.5	0.00e+00	0	27	0	724566016	69	4571
2026-01-14 01:37:18.27	314.98	61.26	-52.3	-54.6	14.2	0.00e+00	0	27	0	726663168	69	5043
2026-01-14 01:37:19.28	314.02	61.32	-52.6	-55.0	14.1	0.00e+00	0	28	0	727711744	70	4986
2026-01-14 01:37:20.29	313.06	61.37	-51.9	-54.0	14.5	0.00e+00	0	27	0	729808896	70	4451
2026-01-14 01:37:21.29	312.11	61.41	-50.8	-52.5	14.8	0.00e+00	0	27	0	731906048	68	4226
2026-01-14 01:37:22.30	311.14	61.44	-50.4	-52.1	14.9	0.00e+00	0	27	0	734003200	67	4279
2026-01-14 01:37:23.31	310.17	61.47	-50.9	-52.8	14.6	0.00e+00	0	27	0	736100352	67	4617
2026-01-14 01:37:24.33	309.19	61.49	-50.7	-52.5	14.7	0.00e+00	0	27	0	737148928	67	4460
2026-01-14 01:37:25.34	308.22	61.51	-50.1	-51.7	14.9	0.00e+00	0	27	0	739246080	66	4340
2026-01-14 01:37:26.34	307.25	61.51	-50.0	-51.7	14.9	0.00e+00	0	27	0	741343232	66	4308
2026-01-14 01:37:27.35	306.28	61.51	-50.0	-51.6	15.0	0.00e+00	0	27	0	743440384	66	4280
2026-01-14 01:37:28.35	305.32	61.50	-50.0	-51.6	15.0	0.00e+00	0	28	0	745537536	66	4273
2026-01-14 01:37:29.37	304.33	61.49	-51.1	-53.1	14.5	0.00e+00	0	28	0	746586112	67	4774
2026-01-14 01:37:30.37	303.37	61.47	-51.7	-53.8	14.5	0.00e+00	0	27	0	748683264	69	4634
2026-01-14 01:37:31.38	302.40	61.44	-51.2	-53.0	14.7	0.00e+00	0	27	0	750780416	68	4488
2026-01-14 01:37:32.38	301.45	61.40	-50.4	-52.1	14.9	0.00e+00	0	28	0	752877568	67	4270
2026-01-14 01:37:33.39	300.48	61.36	-50.1	-51.7	14.9	0.00e+00	0	27	0	754974720	66	4319
2026-01-14 01:37:34.40	299.52	61.31	-49.9	-51.5	15.0	0.00e+00	0	27	0	756023296	66	4236
2026-01-14 01:37:35.41	298.57	61.25	-50.8	-52.6	14.6	0.00e+00	0	27	0	758120448	66	4760
2026-01-14 01:37:36.42	297.62	61.19	-51.8	-53.8	14.4	0.00e+00	0	27	0	760217600	68	4902
2026-01-14 01:37:37.43	296.67	61.12	-51.5	-53.4	14.6	0.00e+00	0	27	0	762314752	68	4694
2026-01-14 01:37:38.44	295.73	61.04	-51.9	-54.1	14.4	0.00e+00	0	27	0	764411904	69	4776
2026-01-14 01:37:39.45	294.80	60.95	-51.3	-53.2	14.8	0.00e+00	0	27	0	765460480	69	4304
2026-01-14 01:37:40.46	293.87	60.86	-50.3	-52.0	15.0	0.00e+00	0	27	0	767557632	67	4213
2026-01-14 01:37:41.46	292.96	60.77	-50.8	-52.5	14.8	0.00e+00	0	27	0	769654784	67	4472
2026-01-14 01:37:42.47	292.04	60.66	-52.4	-54.5	14.3	0.00e+00	0	27	0	771751936	69	5010
2026-01-14 01:37:43.48	291.14	60.55	-52.6	-54.7	14.2	0.00e+00	0	27	0	773849088	70	4851
2026-01-14 01:37:44.49	290.24	60.44	-52.2	-54.2	14.5	0.00e+00	0	27	0	774897664	70	4587
2026-01-14 01:37:45.50	289.35	60.31	-51.8	-53.7	14.7	0.00e+00	0	27	0	776994816	70	4336
2026-01-14 01:37:46.50	288.48	60.19	-51.9	-53.8	14.5	0.00e+00	0	27	0	779091968	69	4641
2026-01-14 01:37:47.51	287.61	60.05	-51.7	-53.6	14.6	0.00e+00	0	27	0	781189120	69	4513
2026-01-14 01:37:48.52	286.75	59.91	-52.7	-55.0	14.1	0.00e+00	0	27	0	783286272	70	5012
2026-01-14 01:37:49.52	285.90	59.77	-53.6	-56.3	13.8	0.00e+00	0	27	0	785383424	72	5193
2026-01-14 01:37:50.53	285.06	59.62	-52.9	-55.2	14.3	0.00e+00	0	27	0	786432000	72	4592
2026-01-14 01:37:51.54	284.22	59.46	-52.3	-54.3	14.5	0.00e+00	0	27	0	788529152	70	4618
2026-01-14 01:37:52.55	283.40	59.30	-52.1	-53.9	14.6	0.00e+00	0	27	0	790626304	70	4441
2026-01-14 01:37:53.56	282.59	59.14	-52.1	-53.9	14.6	0.00e+00	0	27	0	792723456	70	4431
2026-01-14 01:37:54.56	281.79	58.97	-52.2	-54.0	14.6	0.00e+00	0	27	0	793772032	70	4478
2026-01-14 01:37:55.57	281.00	58.79	-53.0	-55.2	14.2	0.00e+00	0	27	0	795869184	71	4818
2026-01-14 01:37:56.58	280.22	58.62	-52.0	-53.8	14.6	0.00e+00	0	27	0	797966336	70	4378
2026-01-14 01:37:57.59	279.45	58.43	-51.5	-53.2	14.7	0.00e+00	0	27	0	800063488	69	4319
2026-01-14 01:37:58.60	278.69	58.24	-51.7	-53.4	14.7	0.00e+00	0	27	0	802160640	69	4437
2026-01-14 01:37:59.61	277.94	58.05	-52.2	-54.1	14.4	0.00e+00	0	27	0	803209216	69	4781
2026-01-14 01:38:00.61	277.20	57.86	-52.7	-54.8	14.3	0.00e+00	0	27	0	805306368	70	4875
2026-01-14 01:38:01.62	276.48	57.66	-53.1	-55.3	14.2	0.00e+00	0	27	0	807403520	71	4877
2026-01-14 01:38:02.63	275.76	57.46	-52.8	-54.7	14.4	0.00e+00	0	27	0	809500672	71	4571
2026-01-14 01:38:03.64	275.05	57.25	-52.2	-54.0	14.6	0.00e+00	0	27	0	811597824	70	4472
2026-01-14 01:38:04.64	274.36	57.04	-52.7	-54.8	14.2	0.00e+00	0	27	0	813694976	70	4891
2026-01-14 01:38:05.65	273.68	56.83	-53.1	-55.5	14.0	0.00e+00	0	27	0	814743552	71	4997
2026-01-14 01:38:06.66	273.00	56.61	-53.8	-56.4	13.7	0.00e+00	0	27	0	816840704	72	5260
2026-01-14 01:38:07.67	272.34	56.39	-53.7	-56.2	13.9	0.00e+00	0	27	0	818937856	73	4867
2026-01-14 01:38:08.68	271.69	56.17	-53.2	-55.4	14.2	0.00e+00	0	27	0	821035008	73	4438
2026-01-14 01:38:09.69	271.04	55.94	-52.9	-55.1	14.4	0.00e+00	0	27	0	823132160	72	4500
2026-01-14 01:38:10.70	270.41	55.72	-53.3	-55.7	14.0	0.00e+00	0	27	0	824180736	72	4845
2026-01-14 01:38:11.70	269.79	55.49	-53.2	-55.4	14.2	0.00e+00	0	27	0	826277888	72	4692
2026-01-14 01:38:12.71	269.18	55.26	-52.8	-54.9	14.4	0.00e+00	0	27	0	828375040	72	4421
2026-01-14 01:38:13.72	268.58	55.02	-52.6	-54.7	14.4	0.00e+00	0	27	0	830472192	71	4571
2026-01-14 01:38:14.73	267.99	54.79	-52.2	-54.2	14.6	0.00e+00	0	27	0	832569344	71	4303
2026-01-14 01:38:15.74	267.40	54.55	-52.2	-54.2	14.5	0.00e+00	0	28	0	833617920	70	4547
2026-01-14 01:38:16.74	266.84	54.31	-52.8	-55.1	14.1	0.00e+00	0	27	0	835715072	70	5049
2026-01-14 01:38:17.75	266.27	54.07	-52.2	-54.3	14.5	0.00e+00	0	27	0	837812224	70	4632
2026-01-14 01:38:18.77	265.71	53.82	-51.8	-53.8	14.5	0.00e+00	0	27	0	839909376	69	4626
2026-01-14 01:38:19.78	265.17	53.58	-51.7	-53.7	14.6	0.00e+00	0	27	0	842006528	69	4552
2026-01-14 01:38:20.79	264.63	53.33	-51.9	-53.9	14.5	0.00e+00	0	27	0	843055104	69	4668
2026-01-14 01:38:21.79	264.11	53.09	-51.6	-53.4	14.6	0.00e+00	0	27	0	845152256	69	4428
2026-01-14 01:38:22.80	263.60	52.84	-51.9	-53.9	14.5	0.00e+00	0	28	0	847249408	69	4685
2026-01-14 01:38:23.81	263.09	52.59	-52.3	-54.4	14.3	0.00e+00	0	27	0	849346560	69	4974
2026-01-14 01:38:24.82	262.59	52.34	-52.4	-54.6	14.3	0.00e+00	0	27	0	851443712	70	4765
2026-01-14 01:38:25.83	262.10	52.08	-51.7	-53.6	14.7	0.00e+00	0	27	0	852492288	70	4268
2026-01-14 01:38:26.83	261.62	51.83	-51.1	-52.8	14.7	0.00e+00	0	28	0	854589440	68	4344
2026-01-14 01:38:27.84	261.14	51.58	-50.6	-52.3	14.8	0.00e+00	0	27	0	856686592	67	4360
2026-01-14 01:38:28.85	260.68	51.33	-52.1	-54.1	14.4	0.00e+00	0	27	0	858783744	69	4793
2026-01-14 01:38:29.86	260.22	51.07	-53.0	-55.3	14.0	0.00e+00	0	27	0	860880896	71	4908
2026-01-14 01:38:30.87	259.76	50.82	-54.1	-57.0	13.5	0.00e+00	0	27	0	861929472	73	5328
2026-01-14 01:38:31.87	259.33	50.56	-54.0	-57.1	13.4	0.00e+00	0	28	0	864026624	73	5369
2026-01-14 01:38:32.88	258.89	50.31	-53.2	-55.8	14.0	0.00e+00	0	28	0	866123776	73	4621
2026-01-14 01:38:33.88	258.47	50.05	-52.5	-54.8	14.3	0.00e+00	0	27	0	868220928	71	4647
2026-01-14 01:38:34.90	258.04	49.79	-52.5	-54.7	14.2	0.00e+00	0	27	0	870318080	70	4854
2026-01-14 01:38:35.91	257.62	49.54	-53.0	-55.5	14.0	0.00e+00	0	27	0	871366656	71	4992
2026-01-14 01:38:36.92	257.22	49.28	-53.6	-56.3	13.6	0.00e+00	0	27	0	873463808	72	5208
2026-01-14 01:38:37.92	256.82	49.02	-54.6	-58.1	12.9	0.00e+00	0	27	0	875560960	74	5681
2026-01-14 01:38:38.93	256.43	48.77	-55.6	-59.9	12.0	0.00e+00	0	27	0	877658112	76	6211
2026-01-14 01:38:39.94	256.04	48.51	-54.5	-57.7	13.3	0.00e+00	0	27	0	879755264	75	5118
2026-01-14 01:38:40.95	255.66	48.25	-53.7	-56.2	14.0	0.00e+00	0	27	0	880803840	74	4593
2026-01-14 01:38:41.96	255.28	48.00	-53.4	-55.8	14.1	0.00e+00	0	27	0	882900992	73	4612
2026-01-14 01:38:42.97	254.91	47.74	-53.7	-56.3	13.8	0.00e+00	0	27	0	884998144	73	4879
2026-01-14 01:38:43.97	254.56	47.49	-54.0	-56.7	13.6	0.00e+00	0	27	0	887095296	73	5159
2026-01-14 01:38:44.98	254.20	47.23	-54.2	-57.1	13.5	0.00e+00	0	27	0	889192448	73	5349
2026-01-14 01:38:45.99	253.85	46.97	-54.9	-58.2	13.0	0.00e+00	0	28	0	890241024	74	5765
2026-01-14 01:38:46.99	253.51	46.72	-54.7	-57.9	13.2	0.00e+00	0	28	0	892338176	75	5229
2026-01-14 01:38:48.00	253.17	46.47	-54.3	-57.0	13.6	0.00e+00	0	27	0	894435328	74	5027
2026-01-14 01:38:49.01	252.83	46.21	-54.0	-56.6	13.8	0.00e+00	0	27	0	896532480	74	4802
2026-01-14 01:38:50.02	252.51	45.96	-53.7	-56.2	13.9	0.00e+00	0	27	0	898629632	73	4824
2026-01-14 01:38:51.03	252.18	45.70	-53.6	-56.1	13.9	0.00e+00	0	27	0	899678208	73	4769
2026-01-14 01:38:52.04	251.86	45.45	-53.6	-56.0	14.0	0.00e+00	0	27	0	901775360	73	4740
2026-01-14 01:38:53.04	251.55	45.20	-54.0	-56.6	13.6	0.00e+00	0	27	0	903872512	73	5062
2026-01-14 01:38:54.05	251.25	44.95	-54.7	-57.6	13.2	0.00e+00	0	27	0	905969664	74	5386
2026-01-14 01:38:55.06	250.94	44.70	-54.8	-57.9	13.2	0.00e+00	0	27	0	908066816	75	5236
2026-01-14 01:38:56.06	250.65	44.45	-54.4	-57.2	13.5	0.00e+00	0	28	0	909115392	75	4826
2026-01-14 01:38:57.07	250.35	44.20	-53.9	-56.4	13.9	0.00e+00	0	27	0	911212544	74	4699
2026-01-14 01:38:58.08	250.07	43.95	-53.7	-56.1	13.9	0.00e+00	0	28	0	913309696	73	4769
2026-01-14 01:38:59.09	249.78	43.70	-53.8	-56.2	13.9	0.00e+00	0	27	0	915406848	73	4859
2026-01-14 01:39:00.10	249.50	43.46	-53.9	-56.5	13.7	0.00e+00	0	27	0	917504000	73	4993
2026-01-14 01:39:01.10	249.23	43.21	-54.5	-57.3	13.5	0.00e+00	0	27	0	918552576	74	5187
2026-01-14 01:39:02.11	248.96	42.97	-54.7	-57.7	13.2	0.00e+00	0	28	0	920649728	74	5408
2026-01-14 01:39:03.11	248.69	42.73	-53.9	-56.3	14.0	0.00e+00	0	27	0	922746880	74	4644
2026-01-14 01:39:04.12	248.43	42.48	-53.0	-55.1	14.3	0.00e+00	0	27	0	924844032	72	4503
2026-01-14 01:39:05.13	248.17	42.24	-53.0	-55.1	14.3	0.00e+00	0	28	0	926941184	72	4536
2026-01-14 01:39:06.14	247.91	42.00	-53.6	-55.9	14.0	0.00e+00	0	28	0	927989760	72	4953
2026-01-14 01:39:07.14	247.66	41.76	-53.6	-55.9	13.9	0.00e+00	0	27	0	930086912	72	4975
2026-01-14 01:39:08.15	247.42	41.52	-53.9	-56.4	13.7	0.00e+00	0	28	0	932184064	73	4961
2026-01-14 01:39:09.16	247.17	41.28	-54.7	-57.7	13.3	0.00e+00	0	28	0	934281216	74	5421
2026-01-14 01:39:10.17	246.93	41.04	-55.3	-58.5	12.9	0.00e+00	0	28	0	936378368	75	5633
2026-01-14 01:39:11.18	246.69	40.80	-55.8	-59.2	12.6	0.00e+00	0	27	0	938475520	76	5765
2026-01-14 01:39:12.18	246.46	40.57	-55.6	-58.7	13.0	0.00e+00	0	27	0	939524096	76	5428
2026-01-14 01:39:13.20	246.23	40.33	-55.6	-58.8	12.9	0.00e+00	0	28	0	941621248	76	5481
2026-01-14 01:39:14.20	246.01	40.10	-55.7	-58.9	13.0	0.00e+00	0	28	0	943718400	76	5539
2026-01-14 01:39:15.21	245.78	39.87	-55.5	-58.5	13.0	0.00e+00	0	27	0	945815552	76	5290
2026-01-14 01:39:16.22	245.56	39.64	-55.3	-58.3	13.2	0.00e+00	0	27	0	947912704	76	5190
2026-01-14 01:39:17.23	245.34	39.40	-55.4	-58.5	13.1	0.00e+00	0	27	0	948961280	76	5281
2026-01-14 01:39:18.24	245.13	39.17	-54.9	-57.7	13.5	0.00e+00	0	27	0	951058432	76	4839
2026-01-14 01:39:19.25	244.92	38.95	-55.3	-58.3	13.1	0.00e+00	0	27	0	953155584	76	5215
2026-01-14 01:39:20.26	244.71	38.72	-55.2	-58.2	13.2	0.00e+00	0	27	0	955252736	76	5109
2026-01-14 01:39:21.27	244.51	38.49	-55.2	-58.2	13.1	0.00e+00	0	27	0	956301312	76	5129
2026-01-14 01:39:22.28	244.30	38.27	-54.7	-57.4	13.6	0.00e+00	0	27	0	958398464	76	4673
2026-01-14 01:39:23.28	244.11	38.04	-54.8	-57.6	13.4	0.00e+00	0	27	0	960495616	75	5081
2026-01-14 01:39:24.29	243.91	37.82	-54.5	-57.1	13.7	0.00e+00	0	27	0	962592768	75	4804
2026-01-14 01:39:25.30	243.71	37.60	-54.2	-56.8	13.8	0.00e+00	0	28	0	964689920	75	4602
2026-01-14 01:39:26.31	243.52	37.38	-54.1	-56.6	13.8	0.00e+00	0	28	0	966787072	74	4771
2026-01-14 01:39:27.31	243.34	37.16	-54.6	-57.3	13.5	0.00e+00	0	27	0	967835648	74	5174
2026-01-14 01:39:28.32	243.15	36.94	-55.4	-58.6	12.9	0.00e+00	0	27	0	969932800	76	5357
2026-01-14 01:39:29.33	242.97	36.72	-55.6	-59.3	12.5	0.00e+00	0	27	0	972029952	76	5802
2026-01-14 01:39:30.34	242.79	36.50	-55.8	-59.7	12.2	0.00e+00	0	27	0	974127104	76	6070
2026-01-14 01:39:31.34	242.61	36.29	-55.7	-59.3	12.4	0.00e+00	0	27	0	976224256	76	5855
2026-01-14 01:39:32.35	242.43	36.08	-55.6	-59.2	12.5	0.00e+00	0	27	0	977272832	76	5770
2026-01-14 01:39:33.36	242.26	35.86	-55.5	-59.0	12.6	0.00e+00	0	27	0	979369984	76	5634
2026-01-14 01:39:34.37	242.09	35.65	-56.0	-60.2	12.0	7.00e-07	0	27	0	981467136	77	6093
2026-01-14 01:39:35.37	241.92	35.44	-56.0	-60.1	11.9	2.20e-06	0	27	0	983564288	77	6050
2026-01-14 01:39:36.38	241.75	35.23	-55.5	-59.1	12.6	0.00e+00	0	27	0	985661440	77	5382
2026-01-14 01:39:37.38	241.59	35.02	-54.3	-57.2	13.5	0.00e+00	0	27	0	986710016	75	4826
2026-01-14 01:39:38.39	241.42	34.81	-54.0	-56.7	13.7	0.00e+00	0	28	0	988807168	74	4818
2026-01-14 01:39:39.40	241.26	34.61	-54.0	-56.6	13.8	0.00e+00	0	27	0	990904320	74	4772
2026-01-14 01:39:40.41	241.10	34.40	-54.4	-57.2	13.4	0.00e+00	0	27	0	993001472	74	5152
2026-01-14 01:39:41.42	240.95	34.20	-55.1	-58.5	12.8	0.00e+00	0	27	0	995098624	75	5612
2026-01-14 01:39:42.43	240.79	33.99	-55.1	-58.5	12.8	0.00e+00	0	27	0	996147200	75	5632
2026-01-14 01:39:43.43	240.64	33.79	-54.6	-57.6	13.4	0.00e+00	0	28	0	998244352	75	5046
2026-01-14 01:39:44.44	240.49	33.59	-54.1	-56.8	13.7	0.00e+00	0	28	0	1000341504	74	4903
2026-01-14 01:39:45.45	240.34	33.39	-54.1	-56.8	13.7	0.00e+00	0	28	0	1002438656	74	4916
2026-01-14 01:39:46.46	240.19	33.19	-54.4	-57.2	13.4	0.00e+00	0	27	0	1004535808	74	5145
2026-01-14 01:39:47.46	240.05	33.00	-55.0	-58.4	12.9	7.00e-07	0	27	0	1005584384	75	5570
2026-01-14 01:39:48.47	239.91	32.80	-55.7	-59.6	12.3	0.00e+00	0	27	0	1007681536	76	5994
2026-01-14 01:39:49.47	239.77	32.60	-55.5	-59.3	12.5	0.00e+00	0	28	0	1009778688	76	5804
2026-01-14 01:39:50.48	239.63	32.41	-54.4	-57.3	13.4	0.00e+00	0	27	0	1011875840	75	4920
2026-01-14 01:39:51.49	239.49	32.22	-53.8	-56.4	13.7	0.00e+00	0	27	0	1013972992	74	4681
2026-01-14 01:39:52.50	239.35	32.02	-53.3	-55.8	14.0	0.00e+00	0	28	0	1015021568	73	4600
2026-01-14 01:39:53.51	239.21	31.83	-53.6	-56.2	13.8	0.00e+00	0	28	0	1017118720	73	4857
2026-01-14 01:39:54.52	239.08	31.64	-53.9	-56.6	13.6	0.00e+00	0	28	0	1019215872	73	5086
2026-01-14 01:39:55.53	238.95	31.45	-54.3	-57.2	13.3	0.00e+00	0	27	0	1021313024	73	5443
2026-01-14 01:39:56.54	238.82	31.26	-54.2	-57.0	13.4	0.00e+00	0	27	0	1023410176	73	5327
2026-01-14 01:39:57.55	238.69	31.07	-54.0	-56.7	13.6	0.00e+00	0	28	0	1024458752	73	5113
2026-01-14 01:39:58.56	238.56	30.89	-53.8	-56.3	13.7	0.00e+00	0	28	0	1026555904	73	4918
2026-01-14 01:39:59.56	238.44	30.70	-53.5	-56.0	13.9	0.00e+00	0	28	0	1028653056	73	4743
2026-01-14 01:40:00.57	238.31	30.52	-53.9	-56.5	13.7	0.00e+00	0	27	0	1030750208	73	5006
2026-01-14 01:40:01.58	238.19	30.33	-54.5	-57.5	13.3	0.00e+00	0	28	0	1032847360	74	5315
2026-01-14 01:40:02.59	238.07	30.15	-55.1	-58.5	12.8	0.00e+00	0	27	0	1033895936	75	5643
2026-01-14 01:40:03.59	237.95	29.97	-55.2	-58.6	12.7	0.00e+00	0	27	0	1035993088	75	5710
2026-01-14 01:40:04.59	237.83	29.79	-54.8	-57.9	13.2	0.00e+00	0	28	0	1038090240	75	5265
2026-01-14 01:40:05.60	237.72	29.61	-54.0	-56.7	13.7	0.00e+00	0	27	0	1040187392	74	4831
2026-01-14 01:40:06.61	237.60	29.44	-53.5	-55.9	14.0	0.00e+00	0	28	0	1042284544	73	4696
2026-01-14 01:40:07.62	237.48	29.26	-53.2	-55.5	14.1	0.00e+00	0	28	0	1043333120	72	4713
2026-01-14 01:40:08.63	237.37	29.08	-53.3	-55.6	14.0	0.00e+00	0	27	0	1045430272	72	4767
2026-01-14 01:40:09.64	237.26	28.91	-53.5	-55.8	13.9	0.00e+00	0	27	0	1047527424	72	4907
2026-01-14 01:40:10.65	237.15	28.73	-53.4	-55.8	14.0	0.00e+00	0	28	0	1049624576	72	4874
2026-01-14 01:40:11.66	237.04	28.56	-53.8	-56.3	13.7	0.00e+00	0	27	0	1051721728	72	5171
2026-01-14 01:40:12.67	236.93	28.38	-53.6	-56.1	13.8	0.00e+00	0	28	0	1052770304	72	5071
2026-01-14 01:40:13.68	236.82	28.21	-53.6	-56.1	13.8	0.00e+00	0	28	0	1054867456	72	5056
2026-01-14 01:40:14.68	236.72	28.04	-53.4	-55.7	14.0	0.00e+00	0	28	0	1056964608	72	4826
2026-01-14 01:40:15.70	236.61	27.87	-53.4	-55.8	13.9	0.00e+00	0	27	0	1059061760	72	4878
2026-01-14 01:40:16.70	236.51	27.70	-53.2	-55.4	14.1	0.00e+00	0	28	0	1061158912	72	4689
2026-01-14 01:40:17.70	236.41	27.54	-53.8	-56.3	13.7	0.00e+00	0	27	0	1062207488	72	5166
2026-01-14 01:40:18.71	236.30	27.37	-54.1	-56.8	13.5	0.00e+00	0	28	0	1064304640	73	5192
2026-01-14 01:40:19.72	236.20	27.20	-54.5	-57.4	13.3	0.00e+00	0	28	0	1066401792	74	5227
2026-01-14 01:40:20.73	236.10	27.04	-55.0	-58.1	13.1	0.00e+00	0	28	0	1068498944	75	5366
2026-01-14 01:40:21.74	236.01	26.87	-55.0	-58.1	13.0	0.00e+00	0	27	0	1070596096	75	5365
2026-01-14 01:40:22.75	235.91	26.71	-55.2	-58.4	12.8	0.00e+00	0	27	0	1071644672	75	5551
2026-01-14 01:40:23.76	235.81	26.55	-55.0	-58.2	12.9	0.00e+00	0	28	0	1073741824	75	5422
2026-01-14 01:40:24.76	235.72	26.39	-54.8	-57.7	13.2	0.00e+00	0	28	0	1075838976	75	5133
2026-01-14 01:40:25.77	235.62	26.23	-54.5	-57.3	13.5	0.00e+00	0	28	0	1077936128	75	4901
2026-01-14 01:40:26.79	235.53	26.07	-54.6	-57.4	13.4	0.00e+00	0	28	0	1080033280	75	4981
2026-01-14 01:40:27.79	235.44	25.91	-54.6	-57.4	13.4	0.00e+00	0	28	0	1081081856	75	4937
2026-01-14 01:40:28.80	235.35	25.75	-54.6	-57.4	13.4	0.00e+00	0	27	0	1083179008	75	4969
2026-01-14 01:40:29.81	235.26	25.59	-54.6	-57.4	13.4	0.00e+00	0	28	0	1085276160	75	4937
2026-01-14 01:40:30.82	235.17	25.44	-54.4	-57.0	13.6	0.00e+00	0	28	0	1087373312	75	4732
2026-01-14 01:40:31.84	235.08	25.28	-54.2	-56.8	13.7	0.00e+00	0	27	0	1089470464	75	4636
2026-01-14 01:40:32.84	234.99	25.12	-54.1	-56.6	13.8	0.00e+00	0	28	0	1091567616	74	4778
2026-01-14 01:40:33.84	234.90	24.97	-53.8	-56.2	13.9	0.00e+00	0	28	0	1092616192	74	4571
2026-01-14 01:40:34.85	234.82	24.82	-53.8	-56.2	14.0	0.00e+00	0	27	0	1094713344	74	4577
2026-01-14 01:40:35.86	234.73	24.67	-53.8	-56.2	13.9	0.00e+00	0	28	0	1096810496	74	4563
2026-01-14 01:40:36.87	234.65	24.51	-53.9	-56.3	13.8	0.00e+00	0	27	0	1098907648	74	4644
2026-01-14 01:40:37.87	234.56	24.37	-53.9	-56.3	13.9	0.00e+00	0	27	0	1101004800	74	4624
2026-01-14 01:40:38.88	234.48	24.22	-54.1	-56.6	13.7	0.00e+00	0	28	0	1102053376	74	4792
2026-01-14 01:40:39.89	234.40	24.07	-54.1	-56.7	13.6	0.00e+00	0	28	0	1104150528	74	4827
2026-01-14 01:40:40.90	234.32	23.92	-54.1	-56.7	13.7	0.00e+00	0	27	0	1106247680	74	4837
2026-01-14 01:40:41.91	234.24	23.77	-54.1	-56.7	13.7	0.00e+00	0	27	0	1108344832	74	4821
2026-01-14 01:40:42.92	234.16	23.62	-54.0	-56.5	13.8	0.00e+00	0	27	0	1110441984	74	4738
2026-01-14 01:40:43.93	234.08	23.48	-53.7	-56.0	14.0	0.00e+00	0	27	0	1111490560	74	4484
2026-01-14 01:40:44.93	234.00	23.33	-53.4	-55.7	14.1	0.00e+00	0	27	0	1113587712	73	4546
2026-01-14 01:40:45.94	233.93	23.19	-53.2	-55.3	14.1	0.00e+00	0	28	0	1115684864	72	4635
2026-01-14 01:40:46.95	233.85	23.04	-52.8	-54.9	14.4	0.00e+00	0	28	0	1117782016	72	4401
2026-01-14 01:40:47.96	233.77	22.90	-52.7	-54.8	14.3	0.00e+00	0	28	0	1119879168	71	4602
2026-01-14 01:40:48.96	233.70	22.76	-52.9	-55.1	14.2	0.00e+00	0	28	0	1120927744	71	4766
2026-01-14 01:40:49.97	233.62	22.62	-53.1	-55.2	14.1	0.00e+00	0	28	0	1123024896	71	4867
2026-01-14 01:40:50.98	233.55	22.48	-53.2	-55.5	14.0	0.00e+00	0	28	0	1125122048	71	4998
2026-01-14 01:40:51.99	233.48	22.34	-53.7	-56.2	13.8	0.00e+00	0	27	0	1127219200	72	5103
2026-01-14 01:40:53.00	233.41	22.20	-54.1	-56.8	13.5	0.00e+00	0	27	0	1129316352	73	5202
2026-01-14 01:40:54.01	233.33	22.06	-54.6	-57.5	13.2	0.00e+00	0	27	0	1130364928	74	5330
2026-01-14 01:40:55.01	233.26	21.92	-55.1	-58.5	12.8	0.00e+00	0	28	0	1132462080	75	5611
2026-01-14 01:40:56.02	233.19	21.78	-55.3	-58.9	12.5	0.00e+00	0	28	0	1134559232	75	5864
2026-01-14 01:40:57.03	233.12	21.65	-55.6	-59.3	12.4	0.00e+00	0	27	0	1136656384	76	5819
2026-01-14 01:40:58.03	233.06	21.51	-55.5	-59.1	12.6	0.00e+00	0	28	0	1138753536	76	5683
2026-01-14 01:40:59.04	232.99	21.38	-55.2	-58.6	12.8	0.00e+00	0	28	0	1139802112	76	5402
2026-01-14 01:41:00.05	232.92	21.24	-54.9	-58.0	13.2	0.00e+00	0	27	0	1141899264	76	5023
2026-01-14 01:41:01.06	232.85	21.11	-54.5	-57.4	13.4	0.00e+00	0	28	0	1143996416	75	4970
2026-01-14 01:41:02.07	232.79	20.97	-54.0	-56.7	13.7	0.00e+00	0	28	0	1146093568	74	4825
2026-01-14 01:41:03.08	232.72	20.84	-53.9	-56.4	13.8	0.00e+00	0	28	0	1148190720	74	4688
2026-01-14 01:41:04.08	232.66	20.71	-53.9	-56.5	13.8	0.00e+00	0	28	0	1149239296	74	4730
2026-01-14 01:41:05.09	232.59	20.58	-53.4	-55.8	14.0	0.00e+00	0	28	0	1151336448	73	4609
2026-01-14 01:41:06.10	232.53	20.45	-53.4	-55.8	14.0	0.00e+00	0	28	0	1153433600	73	4641
2026-01-14 01:41:07.11	232.46	20.32	-53.5	-55.9	13.9	0.00e+00	0	28	0	1155530752	73	4685
2026-01-14 01:41:08.12	232.40	20.19	-53.3	-55.7	14.1	0.00e+00	0	28	0	1157627904	73	4561
2026-01-14 01:41:09.12	232.34	20.06	-53.4	-55.8	14.0	0.00e+00	0	28	0	1158676480	73	4643
2026-01-14 01:41:10.13	232.28	19.93	-53.3	-55.6	14.1	0.00e+00	0	28	0	1160773632	73	4532
2026-01-14 01:41:11.14	232.21	19.80	-53.1	-55.4	14.1	0.00e+00	0	27	0	1162870784	72	4662
2026-01-14 01:41:12.15	232.15	19.68	-52.9	-55.1	14.2	0.00e+00	0	27	0	1164967936	72	4512
2026-01-14 01:41:13.15	232.09	19.55	-52.9	-55.1	14.2	0.00e+00	0	28	0	1167065088	72	4521
2026-01-14 01:41:14.16	232.03	19.43	-52.6	-54.7	14.3	0.00e+00	0	28	0	1168113664	71	4548
2026-01-14 01:41:15.17	231.97	19.30	-52.5	-54.5	14.4	0.00e+00	0	27	0	1170210816	71	4460
2026-01-14 01:41:16.18	231.92	19.18	-52.3	-54.2	14.5	0.00e+00	0	27	0	1172307968	71	4328
2026-01-14 01:41:17.19	231.86	19.05	-52.1	-53.9	14.5	0.00e+00	0	27	0	1174405120	70	4432
2026-01-14 01:41:18.19	231.80	18.93	-51.9	-53.8	14.6	0.00e+00	0	28	0	1176502272	70	4362
2026-01-14 01:41:19.20	231.74	18.81	-51.9	-53.8	14.6	0.00e+00	0	28	0	1177550848	70	4344
2026-01-14 01:41:20.21	231.69	18.68	-51.7	-53.5	14.7	0.00e+00	0	28	0	1179648000	70	4197
2026-01-14 01:41:21.21	231.63	18.56	-51.9	-53.8	14.6	0.00e+00	0	27	0	1181745152	70	4342
2026-01-14 01:41:22.22	231.57	18.44	-51.9	-53.8	14.6	0.00e+00	0	28	0	1183842304	70	4348
2026-01-14 01:41:23.23	231.52	18.32	-51.9	-53.6	14.6	0.00e+00	0	28	0	1185939456	70	4287
2026-01-14 01:41:24.24	231.46	18.20	-52.0	-53.8	14.6	0.00e+00	0	27	0	1186988032	70	4375
2026-01-14 01:41:25.25	231.41	18.08	-52.2	-54.1	14.4	0.00e+00	0	28	0	1189085184	70	4502
2026-01-14 01:41:26.26	231.35	17.96	-52.2	-54.2	14.4	0.00e+00	0	27	0	1191182336	70	4549
2026-01-14 01:41:27.27	231.30	17.85	-52.4	-54.3	14.3	0.00e+00	0	27	0	1193279488	70	4640
2026-01-14 01:41:28.27	231.25	17.73	-52.8	-55.0	14.1	0.00e+00	0	28	0	1195376640	70	4985
2026-01-14 01:41:29.28	231.20	17.61	-52.8	-54.8	14.1	0.00e+00	0	28	0	1196425216	70	4921
2026-01-14 01:41:30.29	231.14	17.49	-53.2	-55.4	14.0	0.00e+00	0	28	0	1198522368	71	4939
2026-01-14 01:41:31.30	231.09	17.38	-53.1	-55.3	14.0	0.00e+00	0	27	0	1200619520	71	4891
2026-01-14 01:41:32.31	231.04	17.26	-53.2	-55.4	14.0	0.00e+00	0	28	0	1202716672	71	4941
2026-01-14 01:41:33.32	230.99	17.15	-53.2	-55.4	14.0	0.00e+00	0	28	0	1204813824	71	4943
2026-01-14 01:41:34.32	230.94	17.03	-53.3	-55.6	13.9	0.00e+00	0	27	0	1205862400	71	5091
2026-01-14 01:41:35.33	230.89	16.92	-53.4	-55.8	13.9	0.00e+00	0	28	0	1207959552	72	4887
2026-01-14 01:41:36.34	230.84	16.81	-53.4	-55.8	13.9	0.00e+00	0	28	0	1210056704	72	4875
2026-01-14 01:41:37.35	230.79	16.69	-53.4	-55.8	13.9	0.00e+00	0	27	0	1212153856	72	4895
2026-01-14 01:41:38.35	230.74	16.58	-53.7	-56.1	13.7	0.00e+00	0	28	0	1214251008	72	5077
2026-01-14 01:41:39.36	230.69	16.47	-53.6	-56.1	13.7	0.00e+00	0	28	0	1215299584	72	5042
2026-01-14 01:41:40.37	230.64	16.36	-53.7	-56.2	13.6	0.00e+00	0	28	0	1217396736	72	5151
2026-01-14 01:41:41.38	230.60	16.24	-53.7	-56.2	13.7	0.00e+00	0	27	0	1219493888	72	5135
2026-01-14 01:41:42.39	230.55	16.13	-53.9	-56.4	13.5	0.00e+00	0	28	0	1221591040	72	5274
2026-01-14 01:41:43.39	230.50	16.02	-54.1	-56.7	13.5	0.00e+00	0	28	0	1223688192	73	5157
2026-01-14 01:41:44.40	230.46	15.92	-54.0	-56.6	13.5	0.00e+00	0	28	0	1224736768	73	5083
2026-01-14 01:41:45.40	230.41	15.81	-54.2	-57.0	13.4	0.00e+00	0	28	0	1226833920	73	5286
2026-01-14 01:41:46.41	230.36	15.70	-54.1	-56.8	13.4	0.00e+00	0	28	0	1228931072	73	5217
2026-01-14 01:41:47.42	230.32	15.59	-54.0	-56.7	13.5	0.00e+00	0	27	0	1231028224	73	5117
2026-01-14 01:41:48.43	230.27	15.48	-54.0	-56.7	13.5	0.00e+00	0	28	0	1233125376	73	5115
2026-01-14 01:41:49.44	230.23	15.37	-53.9	-56.5	13.6	0.00e+00	0	28	0	1234173952	73	4999
2026-01-14 01:41:50.45	230.18	15.27	-54.0	-56.7	13.5	0.00e+00	0	28	0	1236271104	73	5128
2026-01-14 01:41:51.45	230.14	15.16	-53.8	-56.3	13.7	0.00e+00	0	28	0	1238368256	73	4894
2026-01-14 01:41:52.46	230.09	15.06	-53.8	-56.3	13.7	0.00e+00	0	27	0	1240465408	73	4891
