passes_logs/2026/01/14/R3.2S_Murmansk/R3.2S_Murmansk__20260114_203715_KANOPUS-V_5_rec.log

#Pass ID: 20260114_203715_KANOPUS-V 5
#Satellite: KANOPUS-V 5
#Configuration: KANOPUS-V_8320
#almurnet v.1.7.20251203
#Start time: 2026-01-14 20:37:15

#Version: 2.2.20231116
#Station: R3.2S_Murmansk
#Location: 33.079688 lon 68.888172 lat
#TLE: 1 43876U 18111A   26014.64517351  .00002226  00000+0  96418-4 0  9998
#TLE: 2 43876  97.3685 283.1659 0001742  85.8061 274.3376 15.23434183391418

#Time	Az	El	Level	Level2	SNR	BER	BlckErr	Temp	State	Recorded	gain1	gain2
2026-01-14 20:37:15.67	22.69	2.02	-58.7	-68.5	3.8	7.44e-01	0	26	0	0	81	11216
2026-01-14 20:37:16.67	22.78	2.08	-58.8	-68.5	3.8	7.46e-01	0	26	104	0	82	10642
2026-01-14 20:37:17.67	22.86	2.14	-58.8	-68.5	3.8	7.45e-01	0	26	104	0	82	10649
2026-01-14 20:37:18.67	22.95	2.21	-58.8	-68.5	3.8	7.47e-01	0	26	104	0	82	10585
2026-01-14 20:37:19.67	23.04	2.27	-58.8	-68.5	3.8	7.46e-01	0	26	104	0	82	10627
2026-01-14 20:37:20.67	23.12	2.33	-58.8	-68.5	3.8	7.45e-01	0	27	104	0	82	10591
2026-01-14 20:37:21.67	23.21	2.39	-58.8	-68.5	3.8	7.46e-01	0	26	104	0	82	10624
2026-01-14 20:37:22.67	23.30	2.46	-58.8	-68.5	3.8	7.46e-01	0	26	104	0	82	10604
2026-01-14 20:37:23.67	23.39	2.52	-58.8	-68.5	3.8	7.46e-01	0	26	104	0	82	10653
2026-01-14 20:37:24.67	23.48	2.58	-58.8	-68.5	3.8	7.45e-01	0	26	104	0	82	10654
2026-01-14 20:37:25.67	23.57	2.64	-58.8	-68.5	3.8	7.46e-01	0	26	104	0	82	10649
2026-01-14 20:37:26.66	23.66	2.71	-58.8	-68.5	3.8	7.45e-01	0	26	104	0	82	10587
2026-01-14 20:37:27.67	23.75	2.77	-58.8	-68.5	3.8	7.46e-01	0	27	104	0	82	10631
2026-01-14 20:37:28.66	23.84	2.83	-58.8	-68.5	3.8	7.48e-01	0	27	104	0	82	10629
2026-01-14 20:37:29.67	23.93	2.90	-58.8	-68.6	3.8	7.46e-01	0	27	104	0	82	10671
2026-01-14 20:37:30.67	24.02	2.96	-58.8	-68.6	3.8	7.45e-01	0	27	104	0	82	10656
2026-01-14 20:37:31.66	24.12	3.03	-58.8	-68.5	3.8	7.45e-01	0	27	104	0	82	10629
2026-01-14 20:37:32.67	24.21	3.09	-58.8	-68.5	3.8	7.45e-01	0	27	104	0	82	10623
2026-01-14 20:37:33.67	24.30	3.16	-58.8	-68.5	3.8	7.46e-01	0	27	104	0	82	10636
2026-01-14 20:37:34.67	24.40	3.22	-58.8	-68.5	3.8	7.45e-01	0	27	104	0	82	10640
2026-01-14 20:37:35.68	24.49	3.29	-58.8	-68.5	3.8	7.47e-01	0	27	104	0	82	10598
2026-01-14 20:37:36.67	24.59	3.35	-58.8	-68.5	3.8	7.46e-01	0	27	104	0	82	10644
2026-01-14 20:37:37.68	24.68	3.42	-58.8	-68.5	3.8	7.46e-01	0	27	104	0	82	10617
2026-01-14 20:37:38.67	24.78	3.48	-58.8	-68.5	3.8	7.45e-01	0	27	104	0	82	10621
2026-01-14 20:37:39.67	24.87	3.54	-58.8	-68.6	3.8	7.45e-01	0	27	104	0	82	10683
2026-01-14 20:37:40.67	24.97	3.61	-58.8	-68.6	3.8	7.46e-01	0	27	104	0	82	10673
2026-01-14 20:37:41.67	25.07	3.68	-58.8	-68.5	3.8	7.47e-01	0	27	104	0	82	10637
2026-01-14 20:37:42.67	25.17	3.74	-58.8	-68.6	3.8	7.46e-01	0	27	104	0	82	10657
2026-01-14 20:37:43.68	25.27	3.81	-58.8	-68.6	3.8	7.47e-01	0	27	104	0	82	10677
2026-01-14 20:37:44.68	25.37	3.87	-58.8	-68.5	3.8	7.46e-01	0	27	104	0	82	10655
2026-01-14 20:37:45.68	25.47	3.94	-58.8	-68.5	3.8	7.45e-01	0	27	104	0	82	10644
2026-01-14 20:37:46.69	25.57	4.01	-58.8	-68.6	3.8	7.46e-01	0	27	104	0	82	10713
2026-01-14 20:37:47.68	25.67	4.07	-58.8	-68.6	3.8	7.47e-01	0	27	104	0	82	10669
2026-01-14 20:37:48.68	25.77	4.14	-58.8	-68.6	3.8	7.46e-01	0	27	104	0	82	10714
2026-01-14 20:37:49.67	25.87	4.21	-58.8	-68.6	3.8	7.45e-01	0	27	104	0	82	10685
2026-01-14 20:37:50.67	25.97	4.27	-58.8	-68.6	3.8	7.45e-01	0	27	104	0	82	10656
2026-01-14 20:37:51.67	26.08	4.34	-58.8	-68.6	3.8	7.46e-01	0	27	104	0	82	10716
2026-01-14 20:37:52.68	26.18	4.41	-58.8	-68.5	3.8	7.46e-01	0	27	104	0	82	10631
2026-01-14 20:37:53.67	26.28	4.48	-58.8	-68.6	3.8	7.45e-01	0	27	104	0	82	10698
2026-01-14 20:37:54.67	26.39	4.54	-58.8	-68.6	3.8	7.44e-01	0	27	104	0	82	10712
2026-01-14 20:37:55.67	26.49	4.61	-58.8	-68.6	3.8	7.46e-01	0	27	104	0	82	10661
2026-01-14 20:37:56.67	26.60	4.68	-58.8	-68.6	3.8	7.46e-01	0	27	104	0	82	10679
2026-01-14 20:37:57.67	26.71	4.75	-58.8	-68.6	3.8	7.45e-01	0	27	104	0	82	10679
2026-01-14 20:37:58.67	26.82	4.81	-58.8	-68.6	3.8	7.44e-01	0	27	104	0	82	10671
2026-01-14 20:37:59.67	26.92	4.88	-58.8	-68.6	3.8	7.45e-01	0	27	104	0	82	10691
2026-01-14 20:38:00.67	27.03	4.95	-58.8	-68.6	3.8	7.46e-01	0	27	104	0	82	10721
2026-01-14 20:38:01.67	27.14	5.02	-58.8	-68.6	3.8	7.46e-01	0	27	104	0	82	10669
2026-01-14 20:38:02.67	27.25	5.09	-58.9	-68.7	3.8	7.46e-01	0	27	104	0	82	10782
2026-01-14 20:38:03.67	27.36	5.16	-59.1	-68.9	3.8	7.44e-01	0	27	104	0	82	11044
2026-01-14 20:38:04.67	27.47	5.23	-59.0	-68.7	3.8	7.46e-01	0	27	104	0	82	10823
2026-01-14 20:38:05.67	27.58	5.30	-58.8	-68.5	3.8	7.47e-01	0	27	104	0	82	10624
2026-01-14 20:38:06.67	27.70	5.37	-59.3	-69.0	3.8	7.46e-01	0	27	104	0	82	11248
2026-01-14 20:38:07.67	27.81	5.44	-59.1	-68.8	3.8	7.46e-01	0	27	104	0	82	10985
2026-01-14 20:38:08.67	27.92	5.51	-59.0	-68.7	3.8	7.44e-01	0	28	104	0	82	10877
2026-01-14 20:38:09.66	28.04	5.58	-58.9	-68.7	3.8	7.45e-01	0	27	104	0	82	10810
2026-01-14 20:38:10.66	28.15	5.65	-59.2	-68.9	3.8	7.46e-01	0	28	104	0	82	11156
2026-01-14 20:38:11.66	28.27	5.72	-59.1	-68.9	3.8	7.46e-01	0	27	104	0	82	11078
2026-01-14 20:38:12.66	28.38	5.79	-59.4	-69.2	3.8	7.46e-01	0	27	104	0	82	11430
2026-01-14 20:38:13.66	28.50	5.86	-59.4	-69.2	3.8	7.45e-01	0	27	104	0	82	11466
2026-01-14 20:38:14.67	28.62	5.93	-59.3	-69.1	3.8	7.46e-01	0	28	104	0	82	11289
2026-01-14 20:38:15.66	28.74	6.00	-59.2	-69.0	3.8	7.45e-01	0	27	104	0	82	11192
2026-01-14 20:38:16.66	28.86	6.07	-59.4	-69.2	3.8	7.46e-01	0	28	104	0	82	11483
2026-01-14 20:38:17.65	28.98	6.14	-59.5	-69.2	3.8	7.46e-01	0	28	104	0	82	11526
2026-01-14 20:38:18.65	29.10	6.22	-59.4	-69.2	3.8	7.45e-01	0	28	104	0	82	11440
2026-01-14 20:38:19.65	29.22	6.29	-59.3	-69.1	3.8	7.45e-01	0	27	104	0	82	11320
2026-01-14 20:38:20.66	29.34	6.36	-59.5	-69.2	3.8	7.45e-01	0	27	104	0	82	11516
2026-01-14 20:38:21.65	29.46	6.43	-59.5	-69.3	3.8	7.47e-01	0	28	104	0	82	11603
2026-01-14 20:38:22.65	29.59	6.50	-59.4	-69.2	3.8	7.46e-01	0	28	104	0	82	11491
2026-01-14 20:38:23.65	29.71	6.58	-59.4	-69.1	3.8	7.44e-01	0	28	104	0	82	11351
2026-01-14 20:38:24.65	29.84	6.65	-59.5	-69.3	3.8	7.47e-01	0	28	104	0	82	11600
2026-01-14 20:38:25.65	29.96	6.72	-59.6	-69.3	3.8	7.46e-01	0	28	104	0	82	11609
2026-01-14 20:38:26.65	30.09	6.80	-59.5	-69.2	3.8	7.45e-01	0	28	104	0	82	11541
2026-01-14 20:38:27.65	30.22	6.87	-59.4	-69.2	3.8	7.47e-01	0	28	104	0	82	11479
2026-01-14 20:38:28.65	30.34	6.94	-59.6	-69.3	3.8	7.47e-01	0	28	104	0	82	11666
2026-01-14 20:38:29.65	30.47	7.02	-59.6	-69.4	3.8	7.45e-01	0	28	104	0	82	11697
2026-01-14 20:38:30.65	30.60	7.09	-59.5	-69.3	3.8	7.46e-01	0	28	104	0	82	11592
2026-01-14 20:38:31.64	30.73	7.16	-59.5	-69.3	3.8	7.46e-01	0	28	104	0	82	11551
2026-01-14 20:38:32.65	30.86	7.24	-59.6	-69.4	3.8	7.46e-01	0	27	104	0	82	11696
2026-01-14 20:38:33.65	31.00	7.31	-59.6	-69.4	3.8	7.45e-01	0	28	104	0	82	11787
2026-01-14 20:38:34.64	31.13	7.39	-59.6	-69.4	3.8	7.47e-01	0	28	104	0	82	11710
2026-01-14 20:38:35.64	31.26	7.46	-59.5	-69.3	3.8	7.46e-01	0	28	104	0	82	11589
2026-01-14 20:38:36.64	31.40	7.54	-59.7	-69.4	3.8	7.48e-01	0	28	104	0	82	11773
2026-01-14 20:38:37.64	31.53	7.61	-59.7	-69.4	3.8	7.45e-01	0	28	104	0	82	11815
2026-01-14 20:38:38.64	31.67	7.69	-59.6	-69.4	3.8	7.45e-01	0	28	104	0	82	11687
2026-01-14 20:38:39.64	31.81	7.76	-59.6	-69.3	3.8	7.46e-01	0	28	104	0	82	11679
2026-01-14 20:38:40.64	31.94	7.84	-59.7	-69.5	3.8	7.45e-01	0	28	104	0	82	11834
2026-01-14 20:38:41.64	32.08	7.92	-59.7	-69.5	3.8	7.45e-01	0	28	104	0	82	11843
2026-01-14 20:38:42.64	32.22	7.99	-59.7	-69.4	3.8	7.44e-01	0	28	104	0	82	11774
2026-01-14 20:38:43.64	32.36	8.07	-59.6	-69.4	3.8	7.45e-01	0	28	104	0	82	11786
2026-01-14 20:38:44.64	32.50	8.15	-59.7	-69.5	3.8	7.46e-01	0	28	104	0	82	11891
2026-01-14 20:38:45.64	32.65	8.22	-59.7	-69.5	3.8	7.47e-01	0	28	104	0	82	11889
2026-01-14 20:38:46.64	32.79	8.30	-59.7	-69.4	3.8	7.45e-01	0	28	104	0	82	11803
2026-01-14 20:38:47.64	32.94	8.38	-59.7	-69.4	3.8	7.46e-01	0	28	104	0	82	11731
2026-01-14 20:38:48.64	33.08	8.45	-59.7	-69.5	3.8	7.44e-01	0	28	104	0	82	11907
2026-01-14 20:38:49.64	33.23	8.53	-59.8	-69.5	3.8	7.45e-01	0	28	104	0	82	11936
2026-01-14 20:38:50.63	33.37	8.61	-59.7	-69.5	3.8	7.46e-01	0	28	104	0	82	11839
2026-01-14 20:38:51.63	33.52	8.69	-59.7	-69.4	3.8	7.45e-01	0	28	104	0	82	11803
2026-01-14 20:38:52.63	33.67	8.76	-59.8	-69.5	3.8	7.45e-01	0	28	104	0	82	11921
2026-01-14 20:38:53.63	33.82	8.84	-59.8	-69.5	3.8	7.45e-01	0	28	104	0	82	11949
2026-01-14 20:38:54.63	33.97	8.92	-59.8	-69.5	3.8	7.48e-01	0	28	104	0	82	11908
2026-01-14 20:38:55.63	34.12	9.00	-59.7	-69.5	3.8	7.45e-01	0	28	104	0	82	11856
2026-01-14 20:38:56.62	34.27	9.08	-59.8	-69.6	3.8	7.47e-01	0	28	104	0	82	11982
2026-01-14 20:38:57.62	34.43	9.16	-59.8	-69.6	3.8	7.45e-01	0	28	104	0	82	12046
2026-01-14 20:38:58.62	34.58	9.24	-59.8	-69.5	3.8	7.44e-01	0	28	104	0	82	11936
2026-01-14 20:38:59.61	34.74	9.31	-59.7	-69.5	3.8	7.46e-01	0	28	104	0	82	11882
2026-01-14 20:39:00.61	34.89	9.39	-59.8	-69.5	3.8	7.45e-01	0	28	104	0	82	11955
2026-01-14 20:39:01.60	35.05	9.47	-59.8	-69.6	3.8	7.47e-01	0	28	104	0	82	12066
2026-01-14 20:39:02.60	35.21	9.55	-59.8	-69.6	3.8	7.46e-01	0	28	104	0	82	11984
2026-01-14 20:39:03.59	35.37	9.63	-59.8	-69.5	3.8	7.46e-01	0	28	104	0	82	11932
2026-01-14 20:39:04.59	35.53	9.71	-59.8	-69.6	3.8	7.45e-01	0	28	104	0	82	12001
2026-01-14 20:39:05.58	35.69	9.79	-59.9	-69.6	3.8	7.47e-01	0	28	104	0	82	12052
2026-01-14 20:39:06.58	35.85	9.87	-59.8	-69.6	3.8	7.46e-01	0	28	104	0	82	12027
2026-01-14 20:39:07.59	36.02	9.95	-59.8	-69.6	3.8	7.45e-01	0	28	104	0	82	11977
2026-01-14 20:39:08.58	36.18	10.03	-59.9	-69.6	3.8	7.46e-01	0	28	104	0	82	12088
2026-01-14 20:39:09.58	36.35	10.12	-59.9	-69.6	3.8	7.46e-01	0	28	104	0	83	11412
2026-01-14 20:39:10.58	36.52	10.20	-59.9	-69.6	3.8	7.47e-01	0	28	104	0	83	11370
2026-01-14 20:39:11.58	36.69	10.28	-59.8	-69.6	3.8	7.46e-01	0	28	104	0	83	11341
2026-01-14 20:39:12.59	36.86	10.36	-59.9	-69.7	3.8	7.47e-01	0	28	104	0	83	11438
2026-01-14 20:39:13.59	37.03	10.44	-59.9	-69.7	3.8	7.47e-01	0	28	104	0	83	11463
2026-01-14 20:39:14.59	37.20	10.52	-59.9	-69.6	3.8	7.45e-01	0	28	104	0	83	11411
2026-01-14 20:39:15.58	37.37	10.61	-59.9	-69.6	3.8	7.46e-01	0	28	104	0	83	11394
2026-01-14 20:39:16.58	37.55	10.69	-59.9	-69.7	3.8	7.46e-01	0	28	104	0	83	11457
2026-01-14 20:39:17.58	37.72	10.77	-60.0	-69.7	3.8	7.45e-01	0	28	104	0	83	11544
2026-01-14 20:39:18.58	37.90	10.85	-59.9	-69.7	3.8	7.45e-01	0	28	104	0	83	11461
2026-01-14 20:39:19.58	38.08	10.94	-59.9	-69.7	3.8	7.45e-01	0	28	104	0	83	11439
2026-01-14 20:39:20.57	38.26	11.02	-59.9	-69.7	3.8	7.45e-01	0	28	104	0	83	11488
2026-01-14 20:39:21.57	38.44	11.10	-60.0	-69.7	3.8	7.46e-01	0	28	104	0	83	11495
2026-01-14 20:39:22.57	38.62	11.19	-60.0	-69.7	3.8	7.45e-01	0	28	104	0	83	11462
2026-01-14 20:39:23.57	38.80	11.27	-59.9	-69.6	3.8	7.47e-01	0	28	104	0	83	11404
2026-01-14 20:39:24.56	38.98	11.35	-60.0	-69.7	3.8	7.45e-01	0	28	104	0	83	11501
2026-01-14 20:39:25.56	39.17	11.44	-60.0	-69.8	3.8	7.46e-01	0	28	104	0	83	11590
2026-01-14 20:39:26.56	39.36	11.52	-60.0	-69.8	3.8	7.47e-01	0	28	104	0	83	11563
2026-01-14 20:39:27.56	39.54	11.60	-60.0	-69.7	3.8	7.46e-01	0	28	104	0	83	11500
2026-01-14 20:39:28.57	39.74	11.69	-60.0	-69.7	3.8	7.45e-01	0	28	104	0	83	11523
2026-01-14 20:39:29.56	39.92	11.77	-60.0	-69.8	3.8	7.45e-01	0	28	104	0	83	11604
2026-01-14 20:39:30.55	40.11	11.86	-60.0	-69.7	3.8	7.45e-01	0	28	104	0	83	11541
2026-01-14 20:39:31.55	40.31	11.94	-60.0	-69.7	3.8	7.45e-01	0	28	104	0	83	11520
2026-01-14 20:39:32.55	40.50	12.03	-60.0	-69.7	3.8	7.47e-01	0	28	104	0	83	11535
2026-01-14 20:39:33.54	40.70	12.11	-60.0	-69.8	3.8	7.45e-01	0	28	104	0	83	11631
2026-01-14 20:39:34.53	40.89	12.19	-60.0	-69.8	3.8	7.45e-01	0	28	104	0	83	11587
2026-01-14 20:39:35.52	41.09	12.28	-60.0	-69.7	3.8	7.45e-01	0	28	104	0	83	11510
2026-01-14 20:39:36.52	41.29	12.36	-60.0	-69.8	3.8	7.45e-01	0	28	104	0	83	11585
2026-01-14 20:39:37.50	41.49	12.45	-60.1	-69.8	3.8	7.45e-01	0	28	104	0	83	11657
2026-01-14 20:39:38.49	41.69	12.53	-60.0	-69.7	3.8	7.44e-01	0	28	104	0	83	11541
2026-01-14 20:39:39.50	41.89	12.62	-60.0	-69.7	3.8	7.47e-01	0	28	104	0	83	11549
2026-01-14 20:39:40.50	42.10	12.70	-60.0	-69.8	3.8	7.45e-01	0	28	104	0	83	11598
2026-01-14 20:39:41.49	42.30	12.79	-60.1	-69.9	3.8	7.48e-01	0	28	104	0	83	11696
2026-01-14 20:39:42.49	42.51	12.88	-60.1	-69.8	3.8	7.45e-01	0	28	104	0	83	11631
2026-01-14 20:39:43.49	42.72	12.96	-60.0	-69.8	3.8	7.45e-01	0	28	104	0	83	11599
2026-01-14 20:39:44.49	42.93	13.05	-60.1	-69.8	3.8	7.46e-01	0	28	104	0	83	11609
2026-01-14 20:39:45.49	43.14	13.13	-60.1	-69.8	3.8	7.44e-01	0	28	104	0	83	11666
2026-01-14 20:39:46.48	43.36	13.22	-60.1	-69.8	3.8	7.44e-01	0	28	104	0	83	11655
2026-01-14 20:39:47.48	43.57	13.31	-60.0	-69.8	3.8	7.47e-01	0	28	104	0	83	11630
2026-01-14 20:39:48.48	43.79	13.39	-60.1	-69.8	3.8	7.45e-01	0	28	104	0	83	11667
2026-01-14 20:39:49.48	44.01	13.48	-60.1	-69.9	3.8	7.47e-01	0	28	104	0	83	11719
2026-01-14 20:39:50.47	44.23	13.57	-60.1	-69.8	3.8	7.43e-01	0	28	104	0	83	11675
2026-01-14 20:39:51.47	44.45	13.65	-60.1	-69.9	3.8	7.46e-01	0	28	104	0	83	11684
2026-01-14 20:39:52.46	44.67	13.74	-60.1	-69.8	3.8	7.47e-01	0	28	104	0	83	11659
2026-01-14 20:39:53.45	44.89	13.82	-60.1	-69.9	3.8	7.44e-01	0	28	104	0	83	11733
2026-01-14 20:39:54.45	45.12	13.91	-60.1	-69.9	3.8	7.46e-01	0	28	104	0	83	11736
2026-01-14 20:39:55.46	45.35	14.00	-60.1	-69.8	3.8	7.45e-01	0	28	104	0	83	11681
2026-01-14 20:39:56.45	45.57	14.09	-60.1	-69.8	3.8	7.47e-01	0	28	104	0	83	11661
2026-01-14 20:39:57.44	45.80	14.17	-60.1	-69.9	3.8	7.44e-01	0	28	104	0	83	11786
2026-01-14 20:39:58.44	46.04	14.26	-60.1	-69.9	3.8	7.46e-01	0	28	104	0	83	11712
2026-01-14 20:39:59.44	46.27	14.35	-60.1	-69.9	3.8	7.46e-01	0	28	104	0	83	11717
2026-01-14 20:40:00.44	46.51	14.43	-60.1	-69.9	3.8	7.46e-01	0	28	104	0	83	11701
2026-01-14 20:40:01.44	46.74	14.52	-60.2	-69.9	3.8	7.45e-01	0	28	104	0	83	11763
2026-01-14 20:40:02.44	46.98	14.61	-60.2	-69.9	3.8	7.44e-01	0	28	104	0	83	11740
2026-01-14 20:40:03.44	47.22	14.70	-60.1	-69.9	3.8	7.46e-01	0	28	104	0	83	11716
2026-01-14 20:40:04.44	47.47	14.78	-60.1	-69.9	3.8	7.47e-01	0	28	104	0	83	11727
2026-01-14 20:40:05.44	47.71	14.87	-60.2	-69.9	3.8	7.46e-01	0	28	104	0	83	11775
2026-01-14 20:40:06.43	47.95	14.96	-60.2	-69.9	3.8	7.46e-01	0	28	104	0	83	11782
2026-01-14 20:40:07.43	48.20	15.04	-60.1	-69.9	3.8	7.46e-01	0	28	104	0	83	11753
2026-01-14 20:40:08.44	48.45	15.13	-60.2	-69.9	3.8	7.45e-01	0	28	104	0	83	11741
2026-01-14 20:40:09.43	48.70	15.22	-60.2	-70.0	3.8	7.46e-01	0	28	104	0	83	11844
2026-01-14 20:40:10.43	48.95	15.31	-60.2	-69.9	3.8	7.48e-01	0	28	104	0	83	11807
2026-01-14 20:40:11.42	49.20	15.39	-60.2	-69.9	3.8	7.46e-01	0	28	104	0	83	11784
2026-01-14 20:40:12.42	49.46	15.48	-60.2	-69.9	3.8	7.46e-01	0	28	104	0	83	11797
2026-01-14 20:40:13.41	49.72	15.56	-60.2	-70.0	3.8	7.46e-01	0	28	104	0	83	11873
2026-01-14 20:40:14.41	49.97	15.65	-60.2	-70.0	3.8	7.45e-01	0	28	104	0	83	11870
2026-01-14 20:40:15.42	50.24	15.74	-60.2	-69.9	3.8	7.46e-01	0	28	104	0	83	11803
2026-01-14 20:40:16.41	50.50	15.83	-60.2	-69.9	3.8	7.45e-01	0	28	104	0	83	11807
2026-01-14 20:40:17.40	50.76	15.91	-60.3	-70.0	3.8	7.46e-01	0	28	104	0	83	11922
2026-01-14 20:40:18.40	51.03	16.00	-60.2	-70.0	3.8	7.44e-01	0	28	104	0	83	11838
2026-01-14 20:40:19.39	51.29	16.08	-60.2	-70.0	3.8	7.45e-01	0	28	104	0	83	11892
2026-01-14 20:40:20.39	51.56	16.17	-60.2	-70.0	3.8	7.47e-01	0	28	104	0	83	11874
2026-01-14 20:40:21.38	51.83	16.25	-60.3	-70.0	3.8	7.47e-01	0	28	104	0	83	11927
2026-01-14 20:40:22.39	52.11	16.34	-60.3	-70.0	3.8	7.47e-01	0	28	104	0	83	11899
2026-01-14 20:40:23.39	52.38	16.43	-60.2	-70.0	3.8	7.47e-01	0	28	104	0	83	11878
2026-01-14 20:40:24.39	52.66	16.51	-60.2	-70.0	3.8	7.45e-01	0	28	104	0	83	11901
2026-01-14 20:40:25.39	52.94	16.60	-60.3	-70.1	3.9	7.45e-01	0	28	104	0	83	11976
2026-01-14 20:40:26.38	53.22	16.68	-60.3	-70.0	3.8	7.45e-01	0	28	104	0	83	11917
2026-01-14 20:40:27.38	53.50	16.77	-60.3	-70.0	3.8	7.44e-01	0	28	104	0	83	11907
2026-01-14 20:40:28.38	53.79	16.85	-60.3	-70.0	3.8	7.46e-01	0	28	104	0	83	11894
2026-01-14 20:40:29.37	54.07	16.94	-60.3	-70.1	3.8	7.45e-01	0	28	104	0	83	11992
2026-01-14 20:40:30.37	54.36	17.02	-60.3	-70.0	3.8	7.45e-01	0	28	104	0	83	11914
2026-01-14 20:40:31.36	54.64	17.10	-60.3	-70.0	3.8	7.46e-01	0	28	104	0	83	11891
2026-01-14 20:40:32.35	54.93	17.19	-60.3	-70.0	3.8	7.44e-01	0	28	104	0	83	11921
2026-01-14 20:40:33.36	55.23	17.27	-60.3	-70.1	3.8	7.45e-01	0	28	104	0	83	12016
2026-01-14 20:40:34.37	55.53	17.36	-60.3	-70.1	3.8	7.45e-01	0	28	104	0	83	11992
2026-01-14 20:40:35.36	55.82	17.44	-60.3	-70.0	3.8	7.45e-01	0	28	104	0	83	11912
2026-01-14 20:40:36.36	56.12	17.52	-60.3	-70.0	3.8	7.43e-01	0	28	104	0	83	11940
2026-01-14 20:40:37.36	56.42	17.60	-60.3	-70.1	3.8	7.47e-01	0	28	104	0	83	12004
2026-01-14 20:40:38.35	56.73	17.68	-60.3	-70.1	3.8	7.45e-01	0	28	104	0	83	11984
2026-01-14 20:40:39.35	57.03	17.77	-60.3	-70.0	3.8	7.44e-01	0	28	104	0	83	11890
2026-01-14 20:40:40.35	57.34	17.85	-60.3	-70.1	3.8	7.45e-01	0	28	104	0	83	11971
2026-01-14 20:40:41.35	57.65	17.93	-60.3	-70.1	3.8	7.45e-01	0	28	104	0	83	12050
2026-01-14 20:40:42.35	57.96	18.01	-60.3	-70.1	3.8	7.46e-01	0	28	104	0	83	11992
2026-01-14 20:40:43.34	58.27	18.09	-60.3	-70.1	3.8	7.46e-01	0	28	104	0	83	11959
2026-01-14 20:40:44.33	58.58	18.17	-60.3	-70.0	3.8	7.45e-01	0	28	104	0	83	11954
2026-01-14 20:40:45.33	58.90	18.25	-60.4	-70.1	3.8	7.47e-01	0	28	104	0	83	12044
2026-01-14 20:40:46.33	59.21	18.33	-60.3	-70.1	3.8	7.46e-01	0	28	104	0	83	11993
2026-01-14 20:40:47.33	59.53	18.41	-59.6	-70.1	3.8	7.46e-01	0	28	104	0	82	12696
2026-01-14 20:40:48.32	59.85	18.48	-59.0	-70.1	3.8	7.45e-01	0	28	104	0	82	12747
2026-01-14 20:40:49.31	60.17	18.56	-53.5	-56.6	10.4	6.18e-01	0	28	0	0	71	5088
2026-01-14 20:40:50.31	60.50	18.64	-51.2	-54.1	12.0	6.12e-01	0	28	0	14680064	65	5347
2026-01-14 20:40:51.30	60.82	18.71	-56.4	-60.4	7.9	6.43e-01	0	28	0	31457280	77	5567
2026-01-14 20:40:52.30	61.15	18.79	-49.1	-52.0	13.1	6.09e-01	0	28	0	46137344	62	4996
2026-01-14 20:40:53.30	61.49	18.86	-48.1	-51.0	13.4	6.09e-01	0	28	0	60817408	60	4995
2026-01-14 20:40:54.30	61.82	18.94	-47.9	-50.7	13.6	6.08e-01	0	28	0	77594624	60	4848
2026-01-14 20:40:55.29	62.15	19.01	-47.8	-50.6	13.5	6.08e-01	0	28	0	92274688	59	5055
2026-01-14 20:40:56.29	62.49	19.09	-47.7	-50.5	13.6	6.08e-01	0	28	0	106954752	59	5024
2026-01-14 20:40:57.28	62.83	19.16	-47.9	-50.6	13.5	6.08e-01	0	28	0	123731968	59	5043
2026-01-14 20:40:58.28	63.17	19.23	-48.1	-50.6	13.4	6.09e-01	0	28	0	138412032	59	5094
2026-01-14 20:40:59.27	63.51	19.30	-47.9	-50.3	13.5	6.09e-01	0	28	0	153092096	59	4912
2026-01-14 20:41:00.27	63.85	19.38	-47.9	-50.3	13.6	6.09e-01	0	28	0	167772160	59	4917
2026-01-14 20:41:01.27	64.20	19.45	-47.7	-50.1	13.7	6.08e-01	0	28	0	184549376	59	4783
2026-01-14 20:41:02.27	64.55	19.52	-47.7	-50.1	13.7	6.08e-01	0	28	0	199229440	59	4784
2026-01-14 20:41:03.27	64.90	19.59	-47.7	-50.1	13.7	6.09e-01	0	28	0	213909504	59	4782
2026-01-14 20:41:04.26	65.24	19.65	-47.6	-50.0	13.7	6.08e-01	0	28	0	230686720	59	4735
2026-01-14 20:41:05.26	65.60	19.72	-47.7	-50.2	13.7	6.09e-01	0	28	0	245366784	59	4851
2026-01-14 20:41:06.25	65.95	19.79	-47.8	-50.4	13.6	6.09e-01	0	28	0	260046848	59	4974
2026-01-14 20:41:07.24	66.30	19.85	-47.9	-50.6	13.5	6.09e-01	0	28	0	276824064	59	5062
2026-01-14 20:41:08.23	66.66	19.92	-47.9	-50.5	13.5	6.08e-01	0	28	0	291504128	59	5016
2026-01-14 20:41:09.22	67.02	19.98	-48.0	-50.9	13.4	5.78e-01	0	28	0	306184192	59	5258
2026-01-14 20:41:10.22	67.38	20.05	-48.1	-51.0	13.4	5.77e-01	0	28	0	320864256	59	5281
2026-01-14 20:41:11.21	67.74	20.11	-48.0	-50.9	13.4	5.78e-01	0	28	0	337641472	59	5242
2026-01-14 20:41:12.21	68.10	20.17	-48.0	-50.8	13.5	5.78e-01	0	28	0	352321536	59	5190
2026-01-14 20:41:13.21	68.47	20.23	-48.0	-50.7	13.5	5.77e-01	0	28	0	367001600	59	5135
2026-01-14 20:41:14.20	68.84	20.29	-47.8	-50.5	13.6	5.77e-01	0	28	0	383778816	59	5036
2026-01-14 20:41:15.20	69.21	20.35	-47.8	-50.5	13.6	5.78e-01	0	28	0	398458880	59	5028
2026-01-14 20:41:16.19	69.58	20.41	-47.9	-50.7	13.5	5.77e-01	0	28	0	413138944	59	5101
2026-01-14 20:41:17.19	69.95	20.47	-48.0	-50.7	13.5	5.77e-01	0	28	0	429916160	59	5135
2026-01-14 20:41:18.20	70.33	20.53	-47.9	-50.7	13.5	5.76e-01	0	28	0	444596224	59	5119
2026-01-14 20:41:19.19	70.70	20.58	-47.9	-50.6	13.6	5.77e-01	0	29	0	459276288	59	5087
2026-01-14 20:41:20.20	71.09	20.64	-47.9	-50.6	13.5	5.77e-01	0	28	0	473956352	59	5097
2026-01-14 20:41:21.20	71.47	20.69	-47.8	-50.5	13.6	5.77e-01	0	28	0	490733568	59	5017
2026-01-14 20:41:22.20	71.85	20.75	-47.7	-50.5	13.6	5.77e-01	0	28	0	505413632	59	4987
2026-01-14 20:41:23.20	72.23	20.80	-47.7	-50.4	13.6	5.77e-01	0	28	0	520093696	59	4970
2026-01-14 20:41:24.20	72.62	20.85	-47.8	-50.4	13.6	5.78e-01	0	28	0	536870912	59	4975
2026-01-14 20:41:25.19	73.00	20.90	-47.6	-50.3	13.7	5.77e-01	0	28	0	551550976	59	4915
2026-01-14 20:41:26.18	73.38	20.95	-47.7	-50.4	13.7	5.76e-01	0	28	0	566231040	59	4952
2026-01-14 20:41:27.18	73.77	21.00	-47.8	-50.5	13.6	5.77e-01	0	28	0	583008256	59	5037
2026-01-14 20:41:28.17	74.16	21.04	-47.8	-50.5	13.6	5.78e-01	0	28	0	597688320	59	5024
2026-01-14 20:41:29.18	74.55	21.09	-47.8	-50.5	13.6	5.77e-01	0	28	0	612368384	59	5030
2026-01-14 20:41:30.18	74.95	21.14	-47.7	-50.5	13.6	5.77e-01	0	28	0	629145600	59	4995
2026-01-14 20:41:31.17	75.34	21.18	-47.8	-50.6	13.6	5.77e-01	0	28	0	643825664	59	5058
2026-01-14 20:41:32.17	75.73	21.22	-47.8	-50.6	13.5	5.77e-01	0	28	0	658505728	59	5089
2026-01-14 20:41:33.17	76.13	21.26	-47.7	-50.5	13.6	5.78e-01	0	28	0	673185792	59	4990
2026-01-14 20:41:34.17	76.53	21.30	-47.8	-50.7	13.5	5.77e-01	0	28	0	689963008	59	5117
2026-01-14 20:41:35.16	76.92	21.34	-47.8	-50.6	13.6	5.78e-01	0	28	0	704643072	59	5058
2026-01-14 20:41:36.17	77.33	21.38	-47.8	-50.6	13.6	5.76e-01	0	28	0	719323136	59	5054
2026-01-14 20:41:37.16	77.72	21.42	-47.7	-50.5	13.6	6.04e-01	0	28	0	736100352	59	4993
2026-01-14 20:41:38.16	78.13	21.45	-47.8	-50.5	13.6	6.03e-01	0	28	0	750780416	59	5041
2026-01-14 20:41:39.16	78.53	21.48	-47.9	-50.7	13.5	6.04e-01	0	28	0	765460480	59	5101
2026-01-14 20:41:40.16	78.93	21.52	-47.8	-50.6	13.6	6.06e-01	0	28	0	782237696	59	5070
2026-01-14 20:41:41.16	79.34	21.55	-47.8	-50.6	13.6	6.06e-01	0	28	0	796917760	59	5081
2026-01-14 20:41:42.16	79.75	21.58	-47.8	-50.6	13.6	6.06e-01	0	29	0	811597824	59	5043
2026-01-14 20:41:43.15	80.15	21.61	-47.7	-50.5	13.6	6.06e-01	0	28	0	828375040	59	4997
2026-01-14 20:41:44.16	80.56	21.64	-47.8	-50.5	13.6	6.04e-01	0	28	0	843055104	59	5023
2026-01-14 20:41:45.15	80.97	21.66	-47.8	-50.7	13.6	6.07e-01	0	28	0	857735168	59	5106
2026-01-14 20:41:46.15	81.38	21.69	-47.9	-50.8	13.5	5.95e-01	0	28	0	874512384	59	5160
2026-01-14 20:41:47.14	81.78	21.71	-47.9	-50.7	13.5	6.01e-01	0	28	0	889192448	59	5145
2026-01-14 20:41:48.14	82.19	21.73	-47.9	-50.7	13.5	6.03e-01	0	28	0	903872512	59	5145
2026-01-14 20:41:49.14	82.60	21.76	-47.8	-50.6	13.6	5.99e-01	0	28	0	920649728	59	5086
2026-01-14 20:41:50.13	83.01	21.78	-47.8	-50.7	13.5	5.89e-01	0	28	0	935329792	59	5129
2026-01-14 20:41:51.12	83.42	21.79	-47.9	-50.7	13.5	5.89e-01	0	28	0	950009856	59	5156
2026-01-14 20:41:52.12	83.83	21.81	-48.0	-50.9	13.4	6.07e-01	0	28	0	964689920	59	5254
2026-01-14 20:41:53.11	84.24	21.83	-48.0	-50.8	13.4	5.88e-01	0	29	0	979369984	59	5213
2026-01-14 20:41:54.10	84.65	21.84	-47.9	-50.7	13.5	5.92e-01	0	28	0	996147200	59	5150
2026-01-14 20:41:55.09	85.07	21.85	-47.9	-50.7	13.5	6.02e-01	0	29	0	1010827264	59	5151
2026-01-14 20:41:56.08	85.48	21.87	-47.8	-50.7	13.5	6.00e-01	0	28	0	1025507328	59	5123
2026-01-14 20:41:57.08	85.89	21.88	-47.7	-50.6	13.6	5.76e-01	0	28	0	1042284544	59	5063
2026-01-14 20:41:58.08	86.31	21.89	-47.8	-50.6	13.6	5.96e-01	0	28	0	1056964608	59	5095
2026-01-14 20:41:59.08	86.72	21.89	-47.7	-50.5	13.6	6.04e-01	0	28	0	1071644672	59	5016
2026-01-14 20:42:00.08	87.14	21.90	-47.8	-50.5	13.6	5.98e-01	0	29	0	1088421888	59	5030
2026-01-14 20:42:01.07	87.55	21.90	-47.9	-50.6	13.6	6.05e-01	0	29	0	1103101952	59	5058
2026-01-14 20:42:02.07	87.97	21.91	-47.7	-50.3	13.7	6.04e-01	0	28	0	1117782016	59	4918
2026-01-14 20:42:03.06	88.38	21.91	-47.6	-50.2	13.7	6.02e-01	0	28	0	1132462080	59	4829
2026-01-14 20:42:04.06	88.80	21.91	-47.5	-50.1	13.8	6.04e-01	0	28	0	1149239296	59	4790
2026-01-14 20:42:05.07	89.22	21.91	-47.5	-50.1	13.8	6.04e-01	0	28	0	1163919360	59	4803
2026-01-14 20:42:06.06	89.63	21.91	-47.5	-50.1	13.8	5.93e-01	0	28	0	1178599424	59	4790
2026-01-14 20:42:07.05	90.05	21.91	-47.5	-50.1	13.8	5.91e-01	0	29	0	1195376640	59	4782
2026-01-14 20:42:08.06	90.47	21.90	-47.4	-50.0	13.8	6.03e-01	0	28	0	1210056704	59	4734
2026-01-14 20:42:09.05	90.88	21.89	-47.4	-50.0	13.8	6.04e-01	0	28	0	1224736768	59	4730
2026-01-14 20:42:10.05	91.30	21.89	-47.4	-50.1	13.8	5.85e-01	0	28	0	1241513984	59	4764
2026-01-14 20:42:11.05	91.71	21.88	-47.5	-50.1	13.8	6.02e-01	0	28	0	1256194048	59	4779
2026-01-14 20:42:12.05	92.13	21.87	-47.6	-50.3	13.7	6.04e-01	0	28	0	1270874112	59	4889
2026-01-14 20:42:13.05	92.54	21.86	-47.6	-50.3	13.7	6.02e-01	0	29	0	1287651328	59	4885
2026-01-14 20:42:14.05	92.96	21.84	-47.7	-50.3	13.7	6.02e-01	0	28	0	1302331392	59	4916
2026-01-14 20:42:15.05	93.37	21.83	-47.6	-50.3	13.7	6.03e-01	0	28	0	1317011456	59	4900
2026-01-14 20:42:16.05	93.79	21.81	-47.6	-50.3	13.7	6.01e-01	0	28	0	1333788672	59	4871
2026-01-14 20:42:17.05	94.20	21.80	-47.6	-50.3	13.7	6.02e-01	0	29	0	1348468736	59	4921
2026-01-14 20:42:18.05	94.61	21.78	-47.6	-50.3	13.7	6.02e-01	0	28	0	1363148800	59	4912
2026-01-14 20:42:19.05	95.03	21.76	-47.7	-50.4	13.6	6.02e-01	0	28	0	1379926016	59	4967
2026-01-14 20:42:20.05	95.44	21.74	-47.7	-50.5	13.6	6.04e-01	0	28	0	1394606080	59	5024
2026-01-14 20:42:21.05	95.85	21.71	-47.7	-50.4	13.7	6.03e-01	0	28	0	1409286144	59	4956
2026-01-14 20:42:22.05	96.26	21.69	-47.6	-50.3	13.7	6.03e-01	0	28	0	1423966208	59	4901
2026-01-14 20:42:23.05	96.67	21.66	-47.7	-50.3	13.7	6.03e-01	0	28	0	1440743424	59	4906
2026-01-14 20:42:24.04	97.08	21.64	-47.6	-50.1	13.7	6.06e-01	0	28	0	1455423488	59	4810
2026-01-14 20:42:25.05	97.49	21.61	-47.6	-50.1	13.7	6.07e-01	0	28	0	1470103552	59	4807
2026-01-14 20:42:26.04	97.89	21.58	-47.5	-50.1	13.8	6.02e-01	0	28	0	1486880768	59	4787
2026-01-14 20:42:27.04	98.30	21.55	-47.6	-50.2	13.7	6.02e-01	0	28	0	1501560832	59	4866
2026-01-14 20:42:28.04	98.71	21.52	-47.7	-50.4	13.7	6.08e-01	0	28	0	1516240896	59	4933
2026-01-14 20:42:29.04	99.11	21.49	-47.6	-50.1	13.7	6.05e-01	0	29	0	1533018112	59	4809
2026-01-14 20:42:30.04	99.52	21.45	-47.6	-50.1	13.8	6.03e-01	0	28	0	1547698176	59	4791
2026-01-14 20:42:31.04	99.92	21.42	-47.6	-50.1	13.8	5.95e-01	0	28	0	1562378240	59	4779
2026-01-14 20:42:32.04	100.32	21.38	-47.6	-50.1	13.7	6.03e-01	0	28	0	1579155456	59	4769
2026-01-14 20:42:33.04	100.72	21.34	-47.6	-50.1	13.8	6.04e-01	0	28	0	1593835520	59	4771
2026-01-14 20:42:34.04	101.12	21.30	-47.6	-50.1	13.7	6.04e-01	0	28	0	1608515584	59	4798
2026-01-14 20:42:35.04	101.52	21.26	-47.6	-50.1	13.7	6.06e-01	0	28	0	1625292800	59	4788
2026-01-14 20:42:36.04	101.92	21.22	-47.6	-50.1	13.8	6.04e-01	0	28	0	1639972864	59	4765
2026-01-14 20:42:37.04	102.31	21.18	-47.6	-50.1	13.7	6.07e-01	0	29	0	1654652928	59	4814
2026-01-14 20:42:38.03	102.71	21.13	-47.7	-50.3	13.7	6.06e-01	0	28	0	1671430144	59	4881
2026-01-14 20:42:39.03	103.10	21.09	-47.8	-50.3	13.7	6.06e-01	0	28	0	1686110208	59	4889
2026-01-14 20:42:40.03	103.49	21.04	-47.9	-50.4	13.6	6.07e-01	0	28	0	1700790272	59	4944
2026-01-14 20:42:41.03	103.88	21.00	-47.8	-50.3	13.6	6.05e-01	0	28	0	1717567488	59	4883
2026-01-14 20:42:42.03	104.27	20.95	-47.7	-50.1	13.7	6.04e-01	0	28	0	1732247552	59	4807
2026-01-14 20:42:43.03	104.66	20.90	-47.7	-50.1	13.7	6.06e-01	0	29	0	1746927616	59	4801
2026-01-14 20:42:44.03	105.05	20.85	-47.7	-50.1	13.8	6.07e-01	0	29	0	1763704832	59	4804
2026-01-14 20:42:45.03	105.43	20.80	-47.7	-50.2	13.7	6.01e-01	0	28	0	1778384896	59	4853
2026-01-14 20:42:46.03	105.82	20.75	-47.8	-50.4	13.6	5.99e-01	0	29	0	1793064960	59	4930
2026-01-14 20:42:47.03	106.20	20.69	-47.7	-50.2	13.7	6.06e-01	0	28	0	1809842176	59	4855
2026-01-14 20:42:48.02	106.58	20.64	-47.7	-50.2	13.7	6.05e-01	0	28	0	1824522240	59	4867
2026-01-14 20:42:49.02	106.96	20.58	-47.6	-50.1	13.7	6.05e-01	0	29	0	1839202304	59	4811
2026-01-14 20:42:50.02	107.34	20.53	-47.7	-50.1	13.7	6.04e-01	0	29	0	1855979520	59	4798
2026-01-14 20:42:51.03	107.72	20.47	-47.8	-50.3	13.7	6.01e-01	0	29	0	1870659584	59	4897
2026-01-14 20:42:52.03	108.09	20.41	-47.7	-50.2	13.7	6.06e-01	0	29	0	1885339648	59	4861
2026-01-14 20:42:53.03	108.47	20.35	-47.8	-50.3	13.6	6.06e-01	0	28	0	1902116864	59	4922
2026-01-14 20:42:54.03	108.84	20.29	-47.7	-50.3	13.7	6.02e-01	0	28	0	1916796928	59	4890
2026-01-14 20:42:55.04	109.21	20.23	-47.7	-50.3	13.7	5.99e-01	0	28	0	1931476992	59	4873
2026-01-14 20:42:56.03	109.58	20.17	-47.7	-50.3	13.7	6.05e-01	0	29	0	1946157056	59	4875
2026-01-14 20:42:57.03	109.94	20.10	-47.7	-50.3	13.7	6.03e-01	0	29	0	1962934272	59	4875
2026-01-14 20:42:58.03	110.31	20.04	-47.8	-50.4	13.6	6.01e-01	0	28	0	1977614336	59	4960
2026-01-14 20:42:59.03	110.67	19.98	-47.9	-50.6	13.6	6.01e-01	0	29	0	1992294400	59	5060
2026-01-14 20:43:00.03	111.04	19.91	-47.9	-50.5	13.6	6.00e-01	0	29	0	2009071616	59	5040
2026-01-14 20:43:01.02	111.39	19.85	-48.0	-50.7	13.5	6.02e-01	0	29	0	2023751680	59	5120
2026-01-14 20:43:02.02	111.75	19.78	-48.1	-50.7	13.5	6.03e-01	0	28	0	2038431744	59	5154
2026-01-14 20:43:03.02	112.11	19.71	-47.9	-50.6	13.5	6.01e-01	0	28	0	2055208960	59	5089
2026-01-14 20:43:04.03	112.47	19.64	-47.9	-50.6	13.5	6.03e-01	0	28	0	2069889024	59	5086
2026-01-14 20:43:05.03	112.82	19.57	-47.9	-50.7	13.5	6.03e-01	0	28	0	2084569088	59	5116
2026-01-14 20:43:06.03	113.17	19.50	-47.9	-50.7	13.5	6.05e-01	0	29	0	2101346304	59	5142
2026-01-14 20:43:07.03	113.52	19.43	-48.1	-50.9	13.4	6.02e-01	0	29	0	2116026368	59	5228
2026-01-14 20:43:08.02	113.86	19.36	-48.1	-50.9	13.4	6.04e-01	0	28	0	2130706432	59	5251
2026-01-14 20:43:09.02	114.21	19.29	-48.2	-51.0	13.4	6.02e-01	0	28	0	2145386496	59	5280
2026-01-14 20:43:10.02	114.55	19.22	-48.1	-50.7	13.5	6.03e-01	0	28	0	2162163712	59	5141
2026-01-14 20:43:11.02	114.90	19.14	-48.1	-50.7	13.5	6.02e-01	0	29	0	2176843776	59	5131
2026-01-14 20:43:12.01	115.23	19.07	-48.1	-50.7	13.4	6.01e-01	0	28	0	2191523840	59	5129
2026-01-14 20:43:13.01	115.57	19.00	-48.1	-50.5	13.5	6.04e-01	0	29	0	2208301056	59	5015
2026-01-14 20:43:14.01	115.91	18.92	-48.0	-50.4	13.6	6.01e-01	0	28	0	2222981120	59	4942
2026-01-14 20:43:15.02	116.25	18.85	-47.8	-50.2	13.7	6.03e-01	0	29	0	2237661184	59	4827
2026-01-14 20:43:16.02	116.58	18.77	-47.7	-50.0	13.7	6.02e-01	0	29	0	2254438400	59	4756
2026-01-14 20:43:17.02	116.91	18.69	-47.7	-50.0	13.7	6.05e-01	0	28	0	2269118464	59	4754
2026-01-14 20:43:18.02	117.24	18.62	-47.7	-50.0	13.7	6.04e-01	0	28	0	2283798528	59	4746
2026-01-14 20:43:19.03	117.57	18.54	-47.8	-50.1	13.7	6.07e-01	0	29	0	2300575744	59	4786
2026-01-14 20:43:20.03	117.89	18.46	-47.9	-50.1	13.6	6.06e-01	0	29	0	2315255808	59	4802
2026-01-14 20:43:21.02	118.21	18.38	-47.8	-50.2	13.7	6.02e-01	0	28	0	2329935872	59	4820
2026-01-14 20:43:22.03	118.54	18.30	-47.9	-50.3	13.6	6.04e-01	0	29	0	2346713088	59	4925
2026-01-14 20:43:23.02	118.85	18.22	-47.9	-50.4	13.6	6.02e-01	0	29	0	2361393152	59	4943
2026-01-14 20:43:24.02	119.17	18.14	-48.0	-50.5	13.5	6.02e-01	0	28	0	2376073216	59	5006
2026-01-14 20:43:25.03	119.49	18.06	-48.1	-50.6	13.5	6.03e-01	0	29	0	2392850432	59	5057
2026-01-14 20:43:26.02	119.80	17.98	-48.0	-50.6	13.5	6.04e-01	0	28	0	2407530496	59	5043
2026-01-14 20:43:27.02	120.11	17.90	-48.1	-50.6	13.5	6.05e-01	0	29	0	2424307712	59	5071
2026-01-14 20:43:28.02	120.42	17.82	-48.2	-50.7	13.5	6.03e-01	0	29	0	2438987776	59	5102
2026-01-14 20:43:29.01	120.73	17.74	-48.3	-50.8	13.4	6.05e-01	0	28	0	2453667840	59	5160
2026-01-14 20:43:30.01	121.03	17.65	-48.4	-50.9	13.3	6.01e-01	0	29	0	2468347904	59	5245
2026-01-14 20:43:31.01	121.34	17.57	-48.3	-50.9	13.3	5.99e-01	0	28	0	2483027968	59	5222
2026-01-14 20:43:32.01	121.64	17.49	-48.4	-51.0	13.4	6.04e-01	0	29	0	2499805184	60	4990
2026-01-14 20:43:33.01	121.94	17.41	-48.4	-51.0	13.4	6.04e-01	0	28	0	2514485248	60	5028
2026-01-14 20:43:34.00	122.24	17.32	-48.5	-51.2	13.3	6.02e-01	0	29	0	2529165312	60	5103
2026-01-14 20:43:35.00	122.53	17.24	-48.2	-50.8	13.5	6.02e-01	0	28	0	2545942528	60	4879
2026-01-14 20:43:35.99	122.83	17.16	-48.1	-50.6	13.6	6.04e-01	0	29	0	2560622592	60	4779
2026-01-14 20:43:36.99	123.12	17.07	-48.2	-50.7	13.5	6.03e-01	0	29	0	2575302656	60	4837
2026-01-14 20:43:37.99	123.41	16.99	-48.2	-50.8	13.5	6.04e-01	0	28	0	2592079872	60	4872
2026-01-14 20:43:38.99	123.70	16.90	-48.2	-50.7	13.5	6.03e-01	0	28	0	2606759936	60	4816
2026-01-14 20:43:39.99	123.99	16.82	-48.4	-50.8	13.4	6.03e-01	0	28	0	2621440000	60	4911
2026-01-14 20:43:40.99	124.27	16.73	-48.4	-50.8	13.4	6.06e-01	0	28	0	2638217216	60	4902
2026-01-14 20:43:41.99	124.56	16.65	-48.3	-50.8	13.4	6.06e-01	0	29	0	2652897280	60	4891
2026-01-14 20:43:42.98	124.84	16.56	-48.3	-50.8	13.4	6.04e-01	0	29	0	2667577344	60	4872
2026-01-14 20:43:43.99	125.12	16.47	-48.3	-50.6	13.5	6.01e-01	0	28	0	2684354560	60	4814
2026-01-14 20:43:44.99	125.40	16.39	-48.3	-50.7	13.4	6.07e-01	0	28	0	2699034624	60	4850
2026-01-14 20:43:45.99	125.67	16.30	-48.4	-50.8	13.4	6.06e-01	0	28	0	2713714688	60	4907
2026-01-14 20:43:46.99	125.95	16.21	-48.4	-50.9	13.4	6.02e-01	0	29	0	2730491904	60	4937
2026-01-14 20:43:47.99	126.22	16.13	-48.6	-51.1	13.3	6.04e-01	0	29	0	2745171968	60	5047
2026-01-14 20:43:49.00	126.49	16.04	-48.4	-50.9	13.3	6.03e-01	0	28	0	2759852032	60	4972
2026-01-14 20:43:50.00	126.76	15.95	-48.5	-51.1	13.3	6.04e-01	0	28	0	2776629248	60	5066
2026-01-14 20:43:51.00	127.03	15.87	-48.5	-51.1	13.3	6.06e-01	0	28	0	2791309312	60	5064
2026-01-14 20:43:52.01	127.30	15.78	-48.4	-51.0	13.3	6.02e-01	0	29	0	2805989376	60	5011
2026-01-14 20:43:53.00	127.56	15.69	-48.4	-50.9	13.3	6.03e-01	0	28	0	2822766592	60	4979
2026-01-14 20:43:54.00	127.82	15.60	-48.5	-51.1	13.3	6.05e-01	0	29	0	2837446656	60	5048
2026-01-14 20:43:55.00	128.08	15.52	-48.5	-51.1	13.2	6.04e-01	0	29	0	2852126720	60	5081
2026-01-14 20:43:56.00	128.34	15.43	-48.6	-51.2	13.2	6.06e-01	0	28	0	2868903936	60	5108
2026-01-14 20:43:57.01	128.60	15.34	-48.7	-51.3	13.1	6.04e-01	0	28	0	2883584000	60	5191
2026-01-14 20:43:58.01	128.85	15.25	-48.8	-51.4	13.1	6.04e-01	0	28	0	2898264064	60	5254
2026-01-14 20:43:59.01	129.11	15.16	-48.8	-51.4	13.1	6.05e-01	0	28	0	2915041280	60	5241
2026-01-14 20:44:00.01	129.36	15.08	-48.8	-51.4	13.1	6.06e-01	0	28	0	2929721344	60	5270
2026-01-14 20:44:01.00	129.61	14.99	-48.8	-51.4	13.1	6.03e-01	0	28	0	2944401408	60	5221
2026-01-14 20:44:02.00	129.85	14.90	-48.8	-51.5	13.0	6.03e-01	0	28	0	2961178624	60	5280
2026-01-14 20:44:03.00	130.10	14.81	-48.9	-51.5	13.0	6.04e-01	0	28	0	2975858688	60	5292
2026-01-14 20:44:04.00	130.34	14.73	-48.9	-51.5	13.0	6.02e-01	0	28	0	2990538752	60	5305
2026-01-14 20:44:05.00	130.59	14.64	-48.9	-51.4	13.1	6.02e-01	0	28	0	3005218816	60	5248
2026-01-14 20:44:05.99	130.83	14.55	-48.8	-51.3	13.1	6.02e-01	0	28	0	3021996032	60	5180
2026-01-14 20:44:06.99	131.07	14.46	-48.8	-51.3	13.1	6.04e-01	0	28	0	3036676096	60	5189
2026-01-14 20:44:07.99	131.30	14.38	-48.9	-51.4	13.0	6.06e-01	0	28	0	3051356160	60	5229
2026-01-14 20:44:08.99	131.54	14.29	-48.9	-51.3	13.1	6.07e-01	0	28	0	3068133376	60	5183
2026-01-14 20:44:09.99	131.78	14.20	-48.8	-51.2	13.1	6.03e-01	0	29	0	3082813440	60	5127
2026-01-14 20:44:10.99	132.01	14.11	-48.8	-51.2	13.1	6.03e-01	0	28	0	3097493504	60	5151
2026-01-14 20:44:11.98	132.24	14.03	-48.8	-51.2	13.1	6.04e-01	0	28	0	3114270720	60	5157
2026-01-14 20:44:12.97	132.47	13.94	-48.9	-51.2	13.1	6.04e-01	0	28	0	3128950784	60	5152
2026-01-14 20:44:13.97	132.69	13.85	-48.9	-51.3	13.2	6.04e-01	0	29	0	3143630848	61	4896
2026-01-14 20:44:14.97	132.92	13.76	-49.0	-51.4	13.1	6.02e-01	0	29	0	3160408064	61	4969
2026-01-14 20:44:15.97	133.15	13.68	-49.1	-51.5	13.1	6.04e-01	0	29	0	3175088128	61	4988
2026-01-14 20:44:16.97	133.37	13.59	-49.1	-51.5	13.0	6.01e-01	0	28	0	3189768192	61	5028
2026-01-14 20:44:17.98	133.59	13.50	-49.2	-51.6	13.0	6.03e-01	0	28	0	3206545408	61	5090
2026-01-14 20:44:18.98	133.81	13.41	-49.3	-51.8	12.9	6.03e-01	0	28	0	3221225472	61	5185
2026-01-14 20:44:19.98	134.03	13.33	-49.3	-51.8	12.9	6.03e-01	0	28	0	3235905536	61	5166
2026-01-14 20:44:20.97	134.25	13.24	-49.3	-51.8	12.9	6.04e-01	0	28	0	3250585600	61	5184
2026-01-14 20:44:21.97	134.47	13.15	-49.4	-51.9	12.8	6.03e-01	0	29	0	3267362816	61	5241
2026-01-14 20:44:22.96	134.68	13.07	-49.5	-52.0	12.8	6.05e-01	0	28	0	3282042880	62	5034
2026-01-14 20:44:23.96	134.89	12.98	-49.5	-52.1	12.8	6.05e-01	0	29	0	3296722944	62	5053
2026-01-14 20:44:24.96	135.10	12.89	-49.6	-52.2	12.8	6.05e-01	0	28	0	3313500160	62	5114
2026-01-14 20:44:25.96	135.31	12.80	-49.6	-52.1	12.8	6.04e-01	0	29	0	3328180224	62	5071
2026-01-14 20:44:26.96	135.52	12.72	-49.6	-52.1	12.8	6.03e-01	0	29	0	3342860288	62	5075
2026-01-14 20:44:27.96	135.73	12.63	-49.5	-52.0	12.8	6.03e-01	0	28	0	3359637504	62	5013
2026-01-14 20:44:28.97	135.94	12.54	-49.6	-52.1	12.8	6.04e-01	0	29	0	3374317568	62	5073
2026-01-14 20:44:29.97	136.14	12.46	-49.6	-52.1	12.8	6.04e-01	0	29	0	3388997632	62	5077
2026-01-14 20:44:30.97	136.34	12.37	-49.8	-52.3	12.7	6.04e-01	0	29	0	3405774848	62	5179
2026-01-14 20:44:31.96	136.54	12.29	-49.8	-52.3	12.7	6.01e-01	0	29	0	3420454912	62	5169
2026-01-14 20:44:32.96	136.74	12.20	-49.7	-52.2	12.7	6.03e-01	0	28	0	3435134976	62	5116
2026-01-14 20:44:33.96	136.94	12.12	-49.8	-52.2	12.7	6.02e-01	0	28	0	3451912192	62	5147
2026-01-14 20:44:34.96	137.14	12.03	-49.7	-52.1	12.8	6.02e-01	0	29	0	3466592256	62	5080
2026-01-14 20:44:35.96	137.34	11.94	-49.7	-52.1	12.7	6.03e-01	0	29	0	3481272320	62	5089
2026-01-14 20:44:36.96	137.53	11.86	-49.8	-52.3	12.7	6.03e-01	0	29	0	3495952384	62	5162
2026-01-14 20:44:37.96	137.73	11.77	-49.7	-52.2	12.7	6.01e-01	0	29	0	3512729600	62	5152
2026-01-14 20:44:38.96	137.92	11.69	-49.8	-52.3	12.7	6.05e-01	0	28	0	3527409664	62	5190
2026-01-14 20:44:39.96	138.11	11.60	-49.8	-52.3	12.7	6.05e-01	0	29	0	3542089728	62	5164
2026-01-14 20:44:40.96	138.30	11.52	-49.7	-52.2	12.7	6.04e-01	0	28	0	3558866944	62	5146
2026-01-14 20:44:41.96	138.49	11.43	-49.9	-52.4	12.6	6.02e-01	0	29	0	3573547008	62	5242
2026-01-14 20:44:42.96	138.67	11.35	-50.0	-52.5	12.6	6.03e-01	0	29	0	3588227072	63	5014
2026-01-14 20:44:43.96	138.86	11.26	-50.1	-52.7	12.5	6.03e-01	0	29	0	3605004288	63	5110
2026-01-14 20:44:44.97	139.05	11.18	-50.0	-52.6	12.6	6.05e-01	0	29	0	3619684352	63	5078
2026-01-14 20:44:45.97	139.23	11.10	-50.0	-52.7	12.5	6.05e-01	0	28	0	3634364416	63	5116
2026-01-14 20:44:46.97	139.41	11.01	-50.0	-52.7	12.5	6.04e-01	0	28	0	3651141632	63	5114
2026-01-14 20:44:47.97	139.59	10.93	-50.1	-52.7	12.5	6.04e-01	0	29	0	3665821696	63	5149
2026-01-14 20:44:48.97	139.77	10.84	-50.1	-52.8	12.4	6.04e-01	0	29	0	3680501760	63	5161
2026-01-14 20:44:49.97	139.95	10.76	-50.3	-53.0	12.3	6.03e-01	0	29	0	3697278976	63	5286
2026-01-14 20:44:50.97	140.13	10.68	-50.2	-52.9	12.4	6.02e-01	0	28	0	3711959040	63	5260
2026-01-14 20:44:51.96	140.30	10.60	-50.4	-53.1	12.3	6.04e-01	0	28	0	3726639104	63	5364
2026-01-14 20:44:52.97	140.48	10.51	-50.3	-53.0	12.3	6.06e-01	0	28	0	3743416320	64	5008
2026-01-14 20:44:53.96	140.65	10.43	-50.4	-53.1	12.3	6.03e-01	0	29	0	3758096384	64	5079
2026-01-14 20:44:54.97	140.82	10.35	-50.4	-53.1	12.3	6.05e-01	0	29	0	3772776448	64	5048
2026-01-14 20:44:55.96	140.99	10.27	-50.4	-53.0	12.3	6.02e-01	0	29	0	3789553664	64	5026
2026-01-14 20:44:56.97	141.16	10.18	-50.3	-52.9	12.4	6.04e-01	0	29	0	3804233728	64	4976
2026-01-14 20:44:57.97	141.33	10.10	-50.5	-53.1	12.3	6.03e-01	0	29	0	3818913792	64	5079
2026-01-14 20:44:58.97	141.50	10.02	-50.6	-53.1	12.2	6.09e-01	0	29	0	3835691008	64	5093
2026-01-14 20:44:59.97	141.67	9.94	-50.6	-53.1	12.2	6.04e-01	0	29	0	3850371072	64	5098
2026-01-14 20:45:00.96	141.83	9.86	-50.7	-53.3	12.1	6.03e-01	0	28	0	3865051136	64	5165
2026-01-14 20:45:01.96	142.00	9.77	-50.7	-53.3	12.1	6.04e-01	0	28	0	3881828352	64	5179
2026-01-14 20:45:02.96	142.16	9.69	-50.8	-53.4	12.0	6.10e-01	0	29	0	3896508416	64	5240
2026-01-14 20:45:03.95	142.32	9.61	-50.7	-53.3	12.1	6.08e-01	0	29	0	3911188480	64	5181
2026-01-14 20:45:04.96	142.48	9.53	-50.8	-53.3	12.1	6.06e-01	0	29	0	3927965696	64	5212
2026-01-14 20:45:05.96	142.64	9.45	-50.8	-53.3	12.1	6.08e-01	0	29	0	3942645760	64	5189
2026-01-14 20:45:06.96	142.80	9.37	-50.8	-53.4	12.0	6.10e-01	0	28	0	3957325824	64	5240
2026-01-14 20:45:07.95	142.96	9.29	-50.9	-53.4	12.0	6.05e-01	0	28	0	3974103040	64	5268
2026-01-14 20:45:08.95	143.12	9.21	-50.8	-53.4	12.0	6.09e-01	0	28	0	3988783104	64	5253
2026-01-14 20:45:09.95	143.27	9.13	-50.9	-53.5	12.0	6.07e-01	0	29	0	4003463168	64	5300
2026-01-14 20:45:10.94	143.43	9.05	-50.8	-53.3	12.0	6.07e-01	0	28	0	4020240384	64	5206
2026-01-14 20:45:11.94	143.58	8.97	-50.8	-53.5	12.1	6.09e-01	0	28	0	4034920448	65	4988
2026-01-14 20:45:12.93	143.73	8.89	-50.8	-53.4	12.1	6.10e-01	0	29	0	4049600512	65	4970
2026-01-14 20:45:13.93	143.88	8.82	-51.0	-53.7	11.9	6.09e-01	0	29	0	4064280576	65	5110
2026-01-14 20:45:14.93	144.03	8.74	-50.9	-53.5	12.0	6.10e-01	0	29	0	4081057792	65	5041
2026-01-14 20:45:15.94	144.19	8.66	-51.1	-53.8	11.8	6.10e-01	0	29	0	4095737856	65	5202
2026-01-14 20:45:16.94	144.33	8.58	-51.2	-53.9	11.7	6.11e-01	0	29	0	4110417920	65	5248
2026-01-14 20:45:17.94	144.48	8.50	-51.1	-53.8	11.8	6.09e-01	0	29	0	4127195136	65	5181
2026-01-14 20:45:18.94	144.63	8.42	-51.3	-54.1	11.7	6.09e-01	0	29	0	4141875200	65	5342
2026-01-14 20:45:19.94	144.78	8.34	-51.4	-54.2	11.6	6.09e-01	0	29	0	4156555264	66	5111
2026-01-14 20:45:20.94	144.92	8.27	-51.3	-54.1	11.7	6.11e-01	0	29	0	4173332480	66	5054
2026-01-14 20:45:21.95	145.07	8.19	-51.4	-54.2	11.6	6.10e-01	0	28	0	4188012544	66	5150
2026-01-14 20:45:22.95	145.21	8.11	-51.5	-54.3	11.5	6.08e-01	0	29	0	4202692608	66	5192
2026-01-14 20:45:23.95	145.35	8.03	-51.6	-54.4	11.5	6.11e-01	0	29	0	4219469824	66	5238
2026-01-14 20:45:24.94	145.49	7.96	-51.6	-54.4	11.5	6.08e-01	0	29	0	4234149888	66	5242
2026-01-14 20:45:25.94	145.63	7.88	-51.7	-54.5	11.4	6.08e-01	0	29	0	4248829952	66	5323
2026-01-14 20:45:26.94	145.77	7.80	-51.7	-54.5	11.4	6.07e-01	0	29	0	4265607168	66	5333
2026-01-14 20:45:27.94	145.91	7.73	-51.7	-54.5	11.4	6.06e-01	0	29	0	4280287232	66	5326
2026-01-14 20:45:28.93	146.05	7.65	-51.7	-54.6	11.3	6.07e-01	0	29	0	4294967296	66	5367
2026-01-14 20:45:29.93	146.19	7.58	-51.8	-54.7	11.2	6.08e-01	0	29	0	4311744512	66	5438
2026-01-14 20:45:30.92	146.32	7.50	-51.7	-54.6	11.3	6.07e-01	0	28	0	4326424576	66	5364
2026-01-14 20:45:31.92	146.46	7.43	-51.8	-54.7	11.2	6.06e-01	0	29	0	4341104640	66	5445
2026-01-14 20:45:32.92	146.59	7.35	-51.9	-54.7	11.3	6.08e-01	0	29	0	4355784704	67	5153
2026-01-14 20:45:33.92	146.72	7.27	-51.8	-54.7	11.3	6.11e-01	0	29	0	4372561920	67	5103
2026-01-14 20:45:34.93	146.86	7.20	-51.9	-54.7	11.2	6.07e-01	0	29	0	4387241984	67	5141
2026-01-14 20:45:35.92	146.99	7.12	-51.8	-54.6	11.3	6.06e-01	0	29	0	4401922048	67	5098
2026-01-14 20:45:36.92	147.12	7.05	-51.6	-54.3	11.5	6.05e-01	0	29	0	4418699264	67	4919
2026-01-14 20:45:37.91	147.25	6.98	-51.8	-54.6	11.3	6.06e-01	0	29	0	4433379328	67	5059
2026-01-14 20:45:38.92	147.38	6.90	-51.8	-54.5	11.3	6.05e-01	0	29	0	4448059392	67	5026
2026-01-14 20:45:39.92	147.51	6.83	-51.9	-54.6	11.3	6.05e-01	0	28	0	4464836608	67	5080
2026-01-14 20:45:40.92	147.64	6.75	-51.8	-54.6	11.3	6.06e-01	0	29	0	4479516672	67	5065
2026-01-14 20:45:41.92	147.76	6.68	-52.0	-54.8	11.1	6.08e-01	0	29	0	4494196736	67	5187
2026-01-14 20:45:42.91	147.89	6.61	-51.9	-54.6	11.2	6.06e-01	0	29	0	4510973952	67	5085
2026-01-14 20:45:43.90	148.01	6.53	-52.0	-54.7	11.2	6.08e-01	0	29	0	4525654016	67	5152
2026-01-14 20:45:44.90	148.14	6.46	-52.0	-54.8	11.1	6.08e-01	0	29	0	4540334080	67	5214
2026-01-14 20:45:45.90	148.26	6.39	-52.0	-54.8	11.1	6.08e-01	0	29	0	4555014144	67	5207
2026-01-14 20:45:46.89	148.39	6.31	-52.1	-54.9	11.0	6.10e-01	0	29	0	4571791360	67	5243
2026-01-14 20:45:47.89	148.51	6.24	-51.9	-54.7	11.2	6.07e-01	0	29	0	4586471424	67	5119
2026-01-14 20:45:48.90	148.63	6.17	-52.2	-55.1	10.9	6.10e-01	0	29	0	4601151488	67	5376
2026-01-14 20:45:49.90	148.75	6.10	-52.0	-55.0	11.0	6.08e-01	0	29	0	4617928704	67	5289
2026-01-14 20:45:50.90	148.87	6.02	-52.0	-55.0	11.0	6.08e-01	0	29	0	4632608768	67	5291
2026-01-14 20:45:51.89	148.99	5.95	-52.1	-55.1	10.9	6.09e-01	0	29	0	4647288832	67	5345
2026-01-14 20:45:52.88	149.11	5.88	-52.5	-55.6	10.5	6.11e-01	0	29	0	4664066048	68	5342
2026-01-14 20:45:53.88	149.23	5.81	-52.5	-55.5	10.5	6.11e-01	0	29	0	4678746112	68	5323
2026-01-14 20:45:54.88	149.35	5.74	-52.7	-55.7	10.3	6.14e-01	0	29	0	4693426176	68	5461
2026-01-14 20:45:55.88	149.46	5.67	-52.4	-55.5	10.6	6.16e-01	0	29	0	4710203392	68	5290
2026-01-14 20:45:56.88	149.58	5.60	-52.3	-55.3	10.7	6.16e-01	0	29	0	4724883456	68	5207
2026-01-14 20:45:57.87	149.69	5.53	-52.6	-55.6	10.4	6.17e-01	0	29	0	4739563520	68	5351
2026-01-14 20:45:58.87	149.81	5.46	-52.5	-55.5	10.5	6.03e-01	0	29	0	4754243584	68	5294
2026-01-14 20:45:59.87	149.92	5.39	-52.3	-55.2	10.7	6.14e-01	0	29	0	4771020800	68	5118
2026-01-14 20:46:00.86	150.03	5.32	-52.5	-55.5	10.5	6.15e-01	0	29	0	4785700864	68	5286
2026-01-14 20:46:01.85	150.15	5.25	-52.5	-55.5	10.4	6.14e-01	0	29	0	4800380928	68	5336
2026-01-14 20:46:02.85	150.26	5.18	-52.9	-56.0	10.1	6.16e-01	0	29	0	4817158144	69	5305
2026-01-14 20:46:03.85	150.37	5.11	-52.8	-55.9	10.2	6.18e-01	0	29	0	4831838208	69	5243
2026-01-14 20:46:04.85	150.48	5.04	-52.8	-55.9	10.2	6.18e-01	0	29	0	4846518272	69	5243
2026-01-14 20:46:05.85	150.59	4.97	-58.2	-64.7	4.5	7.23e-01	0	29	0	4863295488	79	8136
2026-01-14 20:46:06.85	150.70	4.90	-59.9	-69.6	3.8	7.47e-01	0	29	104	4863295488	82	12072
2026-01-14 20:46:07.85	150.81	4.83	-60.2	-69.9	3.8	7.46e-01	0	29	104	4863295488	83	11803
2026-01-14 20:46:08.84	150.92	4.76	-60.4	-70.1	3.8	7.45e-01	0	29	104	4863295488	83	12035
2026-01-14 20:46:09.84	151.02	4.69	-60.7	-70.5	3.8	7.45e-01	0	29	104	4863295488	84	11824
2026-01-14 20:46:10.84	151.13	4.62	-60.8	-70.6	3.8	7.46e-01	0	28	104	4863295488	84	12014
2026-01-14 20:46:11.84	151.24	4.55	-60.9	-70.7	3.8	7.46e-01	0	29	104	4863295488	84	12105
2026-01-14 20:46:12.83	151.34	4.49	-61.0	-70.7	3.8	7.49e-01	0	29	104	4863295488	85	11533
2026-01-14 20:46:13.83	151.45	4.42	-61.1	-70.9	3.8	7.43e-01	0	29	104	4863295488	85	11689
2026-01-14 20:46:14.83	151.55	4.35	-61.2	-70.9	3.8	7.44e-01	0	29	104	4863295488	85	11796
2026-01-14 20:46:15.83	151.66	4.28	-61.2	-71.0	3.8	7.45e-01	0	29	104	4863295488	85	11891
2026-01-14 20:46:16.82	151.76	4.22	-61.3	-71.1	3.8	7.46e-01	0	29	104	4863295488	85	11995
2026-01-14 20:46:17.82	151.86	4.15	-61.4	-71.1	3.8	7.45e-01	0	29	104	4863295488	85	12004
2026-01-14 20:46:18.82	151.96	4.08	-61.4	-71.1	3.8	7.45e-01	0	29	104	4863295488	85	12071
2026-01-14 20:46:19.83	152.07	4.01	-61.5	-71.2	3.8	7.46e-01	0	28	104	4863295488	86	11471
2026-01-14 20:46:20.82	152.17	3.95	-61.5	-71.2	3.8	7.46e-01	0	29	104	4863295488	86	11536
2026-01-14 20:46:21.83	152.27	3.88	-61.5	-71.3	3.8	7.45e-01	0	28	104	4863295488	86	11645
2026-01-14 20:46:22.84	152.37	3.81	-61.6	-71.3	3.8	7.46e-01	0	29	104	4863295488	86	11663
2026-01-14 20:46:23.83	152.47	3.75	-61.6	-71.3	3.8	7.44e-01	0	28	104	4863295488	86	11646
2026-01-14 20:46:24.83	152.57	3.68	-61.6	-71.3	3.8	7.45e-01	0	29	104	4863295488	86	11656
2026-01-14 20:46:25.83	152.67	3.61	-61.6	-71.4	3.8	7.46e-01	0	29	104	4863295488	86	11689
2026-01-14 20:46:26.83	152.76	3.55	-61.6	-71.3	3.8	7.48e-01	0	29	104	4863295488	86	11640
2026-01-14 20:46:27.83	152.86	3.48	-61.6	-71.3	3.8	7.46e-01	0	29	104	4863295488	86	11637
2026-01-14 20:46:28.83	152.96	3.42	-61.6	-71.3	3.8	7.46e-01	0	29	104	4863295488	86	11614
2026-01-14 20:46:29.83	153.05	3.35	-61.5	-71.3	3.8	7.44e-01	0	29	104	4863295488	86	11616
2026-01-14 20:46:30.83	153.15	3.28	-61.5	-71.3	3.8	7.44e-01	0	28	104	4863295488	86	11551
2026-01-14 20:46:31.83	153.24	3.22	-61.5	-71.2	3.8	7.44e-01	0	29	104	4863295488	86	11545
2026-01-14 20:46:32.83	153.34	3.15	-61.5	-71.3	3.8	7.45e-01	0	29	104	4863295488	86	11588
2026-01-14 20:46:33.83	153.43	3.09	-61.5	-71.2	3.8	7.45e-01	0	29	104	4863295488	86	11515
2026-01-14 20:46:34.83	153.53	3.02	-61.5	-71.2	3.8	7.45e-01	0	29	104	4863295488	86	11530
2026-01-14 20:46:35.83	153.62	2.96	-61.5	-71.2	3.8	7.46e-01	0	29	104	4863295488	86	11518
2026-01-14 20:46:36.82	153.71	2.90	-61.5	-71.2	3.8	7.44e-01	0	29	104	4863295488	86	11473
2026-01-14 20:46:37.82	153.80	2.83	-61.5	-71.2	3.8	7.46e-01	0	29	104	4863295488	86	11510
2026-01-14 20:46:38.82	153.90	2.77	-61.5	-71.2	3.8	7.46e-01	0	29	104	4863295488	86	11506
2026-01-14 20:46:39.83	153.99	2.70	-61.5	-71.2	3.8	7.47e-01	0	29	104	4863295488	86	11510
2026-01-14 20:46:40.84	154.08	2.64	-61.5	-71.2	3.8	7.44e-01	0	29	104	4863295488	86	11522
2026-01-14 20:46:41.84	154.17	2.57	-61.5	-71.2	3.8	7.45e-01	0	29	104	4863295488	86	11476
2026-01-14 20:46:42.83	154.26	2.51	-61.5	-71.2	3.8	7.45e-01	0	29	104	4863295488	86	11481
2026-01-14 20:46:43.83	154.35	2.45	-61.4	-71.1	3.8	7.47e-01	0	29	104	4863295488	86	11413
2026-01-14 20:46:44.83	154.44	2.38	-61.4	-71.1	3.8	7.47e-01	0	29	104	4863295488	86	11397
2026-01-14 20:46:45.83	154.53	2.32	-61.4	-71.2	3.8	7.46e-01	0	29	104	4863295488	86	11428
2026-01-14 20:46:46.83	154.61	2.26	-61.4	-71.1	3.8	7.46e-01	0	29	104	4863295488	86	11375
2026-01-14 20:46:47.83	154.70	2.19	-61.4	-71.2	3.8	7.45e-01	0	29	104	4863295488	86	11431
2026-01-14 20:46:48.84	154.79	2.13	-61.4	-71.2	3.8	7.47e-01	0	28	104	4863295488	86	11445
2026-01-14 20:46:49.84	154.87	2.07	-61.4	-71.1	3.8	7.45e-01	0	29	104	4863295488	86	11365
2026-01-14 20:46:50.84	154.96	2.01	-61.4	-71.1	3.8	7.46e-01	0	29	104	4863295488	86	11399
2026-01-14 20:46:51.85	155.05	1.94	-61.4	-71.1	3.8	7.45e-01	0	29	104	4863295488	86	11372
2026-01-14 20:46:52.85	155.13	1.88	-61.4	-71.1	3.8	7.46e-01	0	29	104	4863295488	86	11383

#Closed at: 2026-01-14 20:46:53
#Recorded file [4863 MB]: D:/lorett/data/31004_260114_233715.dat