passes_logs/2026/01/14/R3.2S_Murmansk/R3.2S_Murmansk__20260114_094718_SUOMI_NPP_rec.log

#Pass ID: 20260114_094718_SUOMI NPP
#Satellite: SUOMI NPP
#Configuration: NPP
#almurnet v.1.7.20251203
#Start time: 2026-01-14 09:47:19

#Version: 2.2.20231116
#Station: R3.2S_Murmansk
#Location: 33.079688 lon 68.888172 lat
#TLE: 1 37849U 11061A   26013.83525404  .00000052  00000+0  45495-4 0  9990
#TLE: 2 37849  98.7808 315.8939 0002471  65.6575 294.4859 14.19524986736544

#Time	Az	El	Level	Level2	SNR	BER	BlckErr	Temp	State	Recorded	gain1	gain2
2026-01-14 09:47:19.39	156.28	2.05	-58.1	-74.1	3.8	1.49e+00	0	25	0	0	81	23974
2026-01-14 09:47:20.38	156.29	2.12	-58.1	-74.1	3.8	1.49e+00	0	25	104	0	81	23972
2026-01-14 09:47:21.37	156.30	2.18	-58.1	-74.1	3.8	1.49e+00	0	25	104	0	81	24013
2026-01-14 09:47:22.37	156.31	2.25	-58.1	-74.1	3.8	1.49e+00	0	25	104	0	81	23997
2026-01-14 09:47:23.36	156.32	2.31	-58.1	-74.1	3.8	1.49e+00	0	25	104	0	81	24002
2026-01-14 09:47:24.36	156.32	2.38	-58.1	-74.1	3.8	1.49e+00	0	25	104	0	81	23981
2026-01-14 09:47:25.35	156.33	2.44	-58.1	-74.1	3.8	1.49e+00	0	26	104	0	81	23931
2026-01-14 09:47:26.34	156.34	2.50	-58.1	-74.1	3.8	1.49e+00	0	26	104	0	81	23915
2026-01-14 09:47:27.34	156.35	2.57	-58.1	-74.1	3.8	1.49e+00	0	26	104	0	81	24022
2026-01-14 09:47:28.34	156.36	2.64	-58.1	-74.1	3.8	1.49e+00	0	25	104	0	81	23928
2026-01-14 09:47:29.33	156.37	2.70	-58.1	-74.1	3.8	1.49e+00	0	26	104	0	81	23989
2026-01-14 09:47:30.33	156.37	2.77	-58.1	-74.1	3.8	1.49e+00	0	26	104	0	81	23953
2026-01-14 09:47:31.32	156.38	2.83	-58.1	-74.1	3.8	1.49e+00	0	26	104	0	81	23989
2026-01-14 09:47:32.31	156.39	2.90	-58.1	-74.0	3.8	1.49e+00	0	26	104	0	81	23752
2026-01-14 09:47:33.30	156.40	2.96	-58.1	-74.0	3.8	1.49e+00	0	26	104	0	81	23611
2026-01-14 09:47:34.30	156.41	3.03	-58.1	-73.8	3.8	1.49e+00	0	26	104	0	81	23273
2026-01-14 09:47:35.29	156.42	3.10	-58.1	-73.7	3.8	1.49e+00	0	26	104	0	81	22890
2026-01-14 09:47:36.28	156.42	3.16	-58.1	-73.3	3.8	1.49e+00	0	26	104	0	81	21875
2026-01-14 09:47:37.28	156.43	3.23	-58.1	-73.0	3.8	1.49e+00	0	26	104	0	81	21124
2026-01-14 09:47:38.27	156.44	3.29	-58.1	-72.9	3.8	1.49e+00	0	26	104	0	81	21010
2026-01-14 09:47:39.27	156.45	3.36	-58.0	-72.0	3.9	1.49e+00	0	26	104	0	81	18816
2026-01-14 09:47:40.26	156.46	3.43	-58.0	-71.3	4.0	1.47e+00	0	26	0	0	81	17288
2026-01-14 09:47:41.26	156.47	3.50	-58.0	-71.2	4.0	1.47e+00	0	26	0	0	81	17199
2026-01-14 09:47:42.25	156.48	3.56	-57.9	-70.0	4.4	1.32e+00	64	26	0	0	81	14891
2026-01-14 09:47:43.24	156.48	3.63	-57.9	-69.7	4.5	1.06e+00	9	26	0	1048576	81	14401
2026-01-14 09:47:44.24	156.49	3.70	-57.8	-68.5	4.9	7.65e-01	0	26	0	3145728	81	12614
2026-01-14 09:47:45.22	156.50	3.77	-57.8	-68.3	5.1	6.43e-01	0	26	0	5242880	81	12337
2026-01-14 09:47:46.22	156.51	3.83	-57.8	-68.0	5.2	5.46e-01	0	26	0	7340032	81	11931
2026-01-14 09:47:47.22	156.52	3.90	-57.6	-66.5	6.1	3.05e-01	0	26	0	9437184	81	10032
2026-01-14 09:47:48.22	156.53	3.97	-57.6	-66.5	6.1	3.00e-01	0	26	0	10485760	81	10019
2026-01-14 09:47:49.21	156.54	4.04	-57.4	-65.6	6.8	2.36e-01	0	26	0	12582912	81	8980
2026-01-14 09:47:50.21	156.55	4.11	-57.3	-64.9	7.3	5.69e-02	0	26	0	14680064	81	8342
2026-01-14 09:47:51.21	156.55	4.18	-57.0	-63.6	8.5	4.05e-02	0	26	0	16777216	80	7585
2026-01-14 09:47:52.21	156.56	4.25	-57.1	-64.2	7.9	3.70e-02	0	26	0	17825792	80	8157
2026-01-14 09:47:53.19	156.57	4.32	-56.9	-63.1	8.9	1.30e-02	0	26	0	19922944	80	7193
2026-01-14 09:47:54.19	156.58	4.39	-56.6	-62.1	9.8	5.07e-03	0	26	0	22020096	79	6739
2026-01-14 09:47:55.18	156.59	4.45	-56.6	-62.4	9.5	7.47e-03	0	26	0	24117248	79	6976
2026-01-14 09:47:56.18	156.60	4.53	-56.3	-61.3	10.4	1.20e-03	0	26	0	26214400	79	6171
2026-01-14 09:47:57.17	156.61	4.59	-56.7	-62.5	9.4	3.32e-03	0	26	0	27262976	79	7106
2026-01-14 09:47:58.16	156.62	4.66	-56.3	-61.5	10.2	2.50e-03	0	26	0	29360128	79	6289
2026-01-14 09:47:59.15	156.63	4.73	-56.5	-62.0	9.8	9.79e-04	0	26	0	31457280	79	6721
2026-01-14 09:48:00.15	156.63	4.81	-56.5	-61.9	9.9	1.86e-03	0	26	0	33554432	79	6637
2026-01-14 09:48:01.14	156.64	4.88	-56.6	-62.3	9.6	4.48e-03	0	26	0	34603008	79	6915
2026-01-14 09:48:02.14	156.65	4.95	-56.6	-62.4	9.5	2.90e-03	0	26	0	36700160	79	6983
2026-01-14 09:48:03.13	156.66	5.02	-57.1	-64.0	8.0	1.31e-02	0	26	0	38797312	79	8446
2026-01-14 09:48:04.13	156.67	5.09	-56.9	-62.7	9.4	3.65e-03	0	26	0	40894464	79	7215
2026-01-14 09:48:05.13	156.68	5.16	-56.6	-61.8	10.1	2.56e-03	0	26	0	42991616	79	6524
2026-01-14 09:48:06.13	156.69	5.23	-57.9	-71.7	3.8	4.48e-01	0	26	104	44040192	80	19382
2026-01-14 09:48:07.12	156.70	5.31	-58.0	-70.0	4.4	1.17e+00	13	26	0	44040192	81	14882
2026-01-14 09:48:08.11	156.71	5.38	-55.5	-59.3	11.9	2.44e-05	0	26	0	46137344	77	5478
2026-01-14 09:48:09.11	156.72	5.45	-55.4	-59.0	12.1	3.00e-06	0	27	0	48234496	77	5315
2026-01-14 09:48:10.11	156.73	5.52	-55.5	-59.3	11.9	2.20e-06	0	26	0	50331648	77	5522
2026-01-14 09:48:11.10	156.74	5.60	-55.7	-59.7	11.6	5.30e-06	0	27	0	51380224	77	5787
2026-01-14 09:48:12.09	156.75	5.67	-55.3	-58.9	12.2	3.00e-06	0	26	0	53477376	77	5223
2026-01-14 09:48:13.08	156.76	5.74	-55.4	-59.1	12.0	0.00e+00	0	26	0	55574528	76	5683
2026-01-14 09:48:14.08	156.76	5.81	-55.3	-58.9	12.1	7.60e-06	0	26	0	57671680	76	5582
2026-01-14 09:48:15.07	156.77	5.89	-55.4	-59.1	12.0	3.00e-06	0	26	0	58720256	76	5701
2026-01-14 09:48:16.06	156.78	5.96	-55.4	-59.1	12.0	7.00e-07	0	26	0	60817408	76	5671
2026-01-14 09:48:17.06	156.79	6.03	-55.5	-59.2	11.9	2.20e-06	0	26	0	62914560	76	5776
2026-01-14 09:48:18.05	156.80	6.11	-55.4	-59.0	12.1	3.00e-06	0	26	0	65011712	76	5599
2026-01-14 09:48:19.04	156.81	6.18	-55.4	-59.0	12.1	7.00e-07	0	26	0	67108864	76	5625
2026-01-14 09:48:20.03	156.82	6.26	-55.3	-58.8	12.2	1.50e-06	0	26	0	68157440	76	5485
2026-01-14 09:48:21.03	156.83	6.33	-55.3	-58.7	12.3	1.50e-06	0	26	0	70254592	76	5446
2026-01-14 09:48:22.02	156.84	6.41	-55.1	-58.5	12.5	0.00e+00	0	26	0	72351744	76	5294
2026-01-14 09:48:23.02	156.85	6.48	-55.0	-58.3	12.6	0.00e+00	0	27	0	74448896	76	5196
2026-01-14 09:48:24.01	156.86	6.56	-55.3	-58.8	12.3	0.00e+00	0	26	0	75497472	76	5479
2026-01-14 09:48:25.02	156.87	6.63	-55.3	-58.8	12.3	0.00e+00	0	26	0	77594624	76	5469
2026-01-14 09:48:26.01	156.88	6.71	-55.1	-58.4	12.6	0.00e+00	0	27	0	79691776	76	5230
2026-01-14 09:48:27.00	156.89	6.79	-55.2	-58.6	12.4	7.00e-07	0	27	0	81788928	76	5360
2026-01-14 09:48:28.00	156.90	6.86	-55.2	-58.6	12.4	1.50e-06	0	26	0	83886080	76	5358
2026-01-14 09:48:29.00	156.91	6.94	-55.2	-58.5	12.5	0.00e+00	0	26	0	84934656	76	5338
2026-01-14 09:48:29.99	156.92	7.02	-55.2	-58.6	12.4	0.00e+00	0	26	0	87031808	76	5380
2026-01-14 09:48:30.98	156.93	7.09	-55.3	-58.7	12.4	0.00e+00	0	27	0	89128960	76	5412
2026-01-14 09:48:31.98	156.94	7.17	-55.4	-58.9	12.2	0.00e+00	0	26	0	91226112	76	5544
2026-01-14 09:48:32.97	156.95	7.25	-55.1	-58.4	12.6	0.00e+00	0	27	0	92274688	76	5256
2026-01-14 09:48:33.98	156.96	7.33	-55.3	-58.6	12.4	0.00e+00	0	27	0	94371840	76	5391
2026-01-14 09:48:34.97	156.97	7.40	-55.3	-58.7	12.4	1.50e-06	0	27	0	96468992	76	5432
2026-01-14 09:48:35.97	156.98	7.48	-55.2	-58.6	12.5	0.00e+00	0	27	0	98566144	76	5356
2026-01-14 09:48:36.97	156.99	7.56	-55.2	-58.5	12.5	0.00e+00	0	27	0	100663296	76	5293
2026-01-14 09:48:37.96	157.00	7.64	-55.2	-58.5	12.6	0.00e+00	0	27	0	101711872	76	5322
2026-01-14 09:48:38.96	157.01	7.72	-55.1	-58.2	12.7	0.00e+00	0	27	0	103809024	76	5151
2026-01-14 09:48:39.95	157.02	7.80	-55.2	-58.4	12.6	7.00e-07	0	27	0	105906176	76	5256
2026-01-14 09:48:40.94	157.03	7.88	-55.2	-58.5	12.6	0.00e+00	0	27	0	108003328	76	5302
2026-01-14 09:48:41.93	157.04	7.96	-55.1	-58.3	12.6	0.00e+00	0	27	0	109051904	76	5210
2026-01-14 09:48:42.93	157.05	8.04	-55.2	-58.4	12.6	0.00e+00	0	27	0	111149056	76	5236
2026-01-14 09:48:43.92	157.06	8.12	-55.0	-58.2	12.8	0.00e+00	0	27	0	113246208	76	5117
2026-01-14 09:48:44.92	157.08	8.20	-55.0	-58.1	12.8	0.00e+00	0	27	0	115343360	76	5069
2026-01-14 09:48:45.91	157.09	8.28	-55.2	-58.4	12.6	0.00e+00	0	27	0	117440512	76	5228
2026-01-14 09:48:46.91	157.10	8.36	-55.0	-58.0	12.9	0.00e+00	0	27	0	118489088	76	5033
2026-01-14 09:48:47.90	157.11	8.44	-55.1	-58.3	12.7	0.00e+00	0	27	0	120586240	76	5193
2026-01-14 09:48:48.89	157.12	8.52	-55.0	-58.1	12.8	0.00e+00	0	26	0	122683392	76	5091
2026-01-14 09:48:49.89	157.13	8.60	-55.1	-58.3	12.7	0.00e+00	0	27	0	124780544	76	5168
2026-01-14 09:48:50.88	157.14	8.68	-55.1	-58.3	12.7	0.00e+00	0	27	0	125829120	76	5174
2026-01-14 09:48:51.87	157.15	8.77	-55.1	-58.2	12.8	0.00e+00	0	27	0	127926272	76	5128
2026-01-14 09:48:52.86	157.16	8.85	-55.0	-58.0	12.9	0.00e+00	0	27	0	130023424	76	5037
2026-01-14 09:48:53.86	157.17	8.93	-54.9	-57.9	13.0	0.00e+00	0	27	0	132120576	76	4942
2026-01-14 09:48:54.85	157.18	9.01	-54.9	-57.9	13.0	0.00e+00	0	27	0	134217728	76	4927
2026-01-14 09:48:55.84	157.19	9.10	-54.8	-57.8	13.1	0.00e+00	0	27	0	135266304	76	4889
2026-01-14 09:48:56.84	157.21	9.18	-54.8	-57.6	13.2	0.00e+00	0	27	0	137363456	76	4799
2026-01-14 09:48:57.83	157.22	9.26	-54.8	-57.6	13.2	0.00e+00	0	27	0	139460608	76	4804
2026-01-14 09:48:58.83	157.23	9.35	-54.8	-57.8	13.1	0.00e+00	0	27	0	141557760	76	4871
2026-01-14 09:48:59.82	157.24	9.43	-54.7	-57.6	13.2	0.00e+00	0	27	0	142606336	76	4777
2026-01-14 09:49:00.82	157.25	9.52	-54.8	-57.8	13.1	0.00e+00	0	27	0	144703488	76	4881
2026-01-14 09:49:01.81	157.26	9.60	-54.6	-57.4	13.2	0.00e+00	0	27	0	146800640	75	4963
2026-01-14 09:49:02.81	157.27	9.69	-54.6	-57.4	13.2	0.00e+00	0	27	0	148897792	75	4959
2026-01-14 09:49:03.80	157.28	9.77	-54.7	-57.6	13.1	0.00e+00	0	27	0	150994944	75	5084
2026-01-14 09:49:04.80	157.30	9.86	-54.4	-57.1	13.4	0.00e+00	0	27	0	152043520	75	4798
2026-01-14 09:49:05.80	157.31	9.95	-54.5	-57.3	13.2	0.00e+00	0	27	0	154140672	75	4905
2026-01-14 09:49:06.80	157.32	10.03	-54.5	-57.3	13.3	0.00e+00	0	27	0	156237824	75	4902
2026-01-14 09:49:07.80	157.33	10.12	-54.6	-57.4	13.2	0.00e+00	0	27	0	158334976	75	4929
2026-01-14 09:49:08.80	157.34	10.21	-54.4	-57.2	13.4	0.00e+00	0	27	0	160432128	75	4817
2026-01-14 09:49:09.80	157.35	10.30	-54.5	-57.2	13.3	0.00e+00	0	27	0	161480704	75	4854
2026-01-14 09:49:10.80	157.37	10.39	-54.4	-57.2	13.3	0.00e+00	0	27	0	163577856	75	4828
2026-01-14 09:49:11.79	157.38	10.47	-54.4	-57.1	13.4	0.00e+00	0	27	0	165675008	75	4802
2026-01-14 09:49:12.78	157.39	10.56	-54.3	-57.0	13.5	0.00e+00	0	27	0	167772160	75	4714
2026-01-14 09:49:13.78	157.40	10.65	-54.2	-56.8	13.6	0.00e+00	0	27	0	168820736	75	4631
2026-01-14 09:49:14.79	157.41	10.74	-54.1	-56.7	13.5	0.00e+00	0	27	0	170917888	74	4819
2026-01-14 09:49:15.77	157.42	10.83	-54.1	-56.6	13.6	0.00e+00	0	27	0	173015040	74	4777
2026-01-14 09:49:16.77	157.44	10.92	-54.1	-56.6	13.6	0.00e+00	0	27	0	175112192	74	4787
2026-01-14 09:49:17.76	157.45	11.01	-54.1	-56.7	13.5	0.00e+00	0	27	0	177209344	74	4848
2026-01-14 09:49:18.75	157.46	11.10	-54.1	-56.6	13.6	0.00e+00	0	27	0	178257920	74	4785
2026-01-14 09:49:19.75	157.47	11.19	-54.0	-56.5	13.6	0.00e+00	0	27	0	180355072	74	4750
2026-01-14 09:49:20.74	157.49	11.28	-53.9	-56.4	13.7	0.00e+00	0	27	0	182452224	74	4673
2026-01-14 09:49:21.73	157.50	11.37	-53.9	-56.2	13.8	0.00e+00	0	27	0	184549376	74	4587
2026-01-14 09:49:22.72	157.51	11.46	-53.8	-56.1	13.9	0.00e+00	0	27	0	185597952	74	4529
2026-01-14 09:49:23.72	157.52	11.56	-53.9	-56.3	13.8	0.00e+00	0	27	0	187695104	74	4609
2026-01-14 09:49:24.72	157.54	11.65	-53.8	-56.1	13.9	0.00e+00	0	27	0	189792256	74	4511
2026-01-14 09:49:25.71	157.55	11.74	-53.7	-56.0	13.8	0.00e+00	0	27	0	191889408	73	4729
2026-01-14 09:49:26.70	157.56	11.83	-53.7	-56.0	13.8	0.00e+00	0	27	0	193986560	73	4745
2026-01-14 09:49:27.69	157.57	11.93	-53.7	-56.0	13.8	0.00e+00	0	27	0	195035136	73	4713
2026-01-14 09:49:28.69	157.59	12.02	-53.5	-55.7	13.9	0.00e+00	0	27	0	197132288	73	4582
2026-01-14 09:49:29.68	157.60	12.11	-53.5	-55.8	13.9	0.00e+00	0	27	0	199229440	73	4622
2026-01-14 09:49:30.67	157.61	12.21	-53.4	-55.6	14.0	0.00e+00	0	27	0	201326592	73	4523
2026-01-14 09:49:31.66	157.62	12.30	-53.7	-56.0	13.8	0.00e+00	0	27	0	202375168	73	4721
2026-01-14 09:49:32.65	157.64	12.40	-53.5	-55.7	13.9	0.00e+00	0	27	0	204472320	73	4590
2026-01-14 09:49:33.65	157.65	12.49	-53.5	-55.8	13.9	0.00e+00	0	27	0	206569472	73	4620
2026-01-14 09:49:34.64	157.66	12.59	-53.6	-55.8	13.9	0.00e+00	0	27	0	208666624	73	4632
2026-01-14 09:49:35.63	157.68	12.69	-53.5	-55.7	14.0	0.00e+00	0	27	0	209715200	73	4558
2026-01-14 09:49:36.62	157.69	12.78	-53.5	-55.8	13.9	0.00e+00	0	27	0	211812352	73	4601
2026-01-14 09:49:37.62	157.70	12.88	-53.6	-55.9	13.9	0.00e+00	0	27	0	213909504	73	4665
2026-01-14 09:49:38.62	157.72	12.98	-53.2	-55.3	14.2	0.00e+00	0	27	0	216006656	73	4352
2026-01-14 09:49:39.61	157.73	13.08	-53.2	-55.3	14.2	0.00e+00	0	27	0	218103808	73	4382
2026-01-14 09:49:40.60	157.74	13.17	-53.0	-55.0	14.2	0.00e+00	0	27	0	219152384	72	4489
2026-01-14 09:49:41.59	157.76	13.27	-52.9	-54.9	14.2	0.00e+00	0	27	0	221249536	72	4436
2026-01-14 09:49:42.58	157.77	13.37	-53.0	-55.1	14.2	0.00e+00	0	27	0	223346688	72	4494
2026-01-14 09:49:43.57	157.78	13.47	-52.9	-54.9	14.3	0.00e+00	0	27	0	225443840	72	4436
2026-01-14 09:49:44.56	157.80	13.57	-52.9	-54.8	14.3	0.00e+00	0	27	0	226492416	72	4384
2026-01-14 09:49:45.56	157.81	13.67	-52.9	-54.9	14.3	0.00e+00	0	27	0	228589568	72	4392
2026-01-14 09:49:46.56	157.82	13.77	-52.8	-54.7	14.3	0.00e+00	0	27	0	230686720	72	4331
2026-01-14 09:49:47.56	157.84	13.87	-52.7	-54.7	14.4	0.00e+00	0	27	0	232783872	72	4299
2026-01-14 09:49:48.56	157.85	13.98	-52.7	-54.6	14.4	0.00e+00	0	27	0	234881024	72	4291
2026-01-14 09:49:49.56	157.87	14.08	-52.5	-54.5	14.4	0.00e+00	0	27	0	235929600	71	4447
2026-01-14 09:49:50.55	157.88	14.18	-52.6	-54.5	14.3	0.00e+00	0	27	0	238026752	71	4448
2026-01-14 09:49:51.55	157.89	14.28	-52.5	-54.4	14.4	0.00e+00	0	27	0	240123904	71	4424
2026-01-14 09:49:52.54	157.91	14.39	-52.5	-54.3	14.4	0.00e+00	0	27	0	242221056	71	4383
2026-01-14 09:49:53.54	157.92	14.49	-52.5	-54.4	14.4	0.00e+00	0	27	0	243269632	71	4429
2026-01-14 09:49:54.52	157.94	14.59	-52.4	-54.3	14.4	0.00e+00	0	27	0	245366784	71	4364
2026-01-14 09:49:55.52	157.95	14.70	-52.4	-54.2	14.5	0.00e+00	0	27	0	247463936	71	4332
2026-01-14 09:49:56.51	157.97	14.80	-52.3	-54.2	14.5	0.00e+00	0	27	0	249561088	71	4298
2026-01-14 09:49:57.51	157.98	14.91	-52.4	-54.2	14.5	0.00e+00	0	27	0	251658240	71	4323
2026-01-14 09:49:58.51	158.00	15.02	-52.4	-54.3	14.4	0.00e+00	0	27	0	252706816	71	4376
2026-01-14 09:49:59.50	158.01	15.12	-52.3	-54.1	14.5	0.00e+00	0	27	0	254803968	71	4250
2026-01-14 09:50:00.49	158.03	15.23	-52.4	-54.3	14.4	0.00e+00	0	27	0	256901120	71	4366
2026-01-14 09:50:01.48	158.04	15.34	-52.2	-54.0	14.6	0.00e+00	0	27	0	258998272	71	4230
2026-01-14 09:50:02.48	158.06	15.44	-52.1	-53.8	14.5	0.00e+00	0	27	0	260046848	70	4389
2026-01-14 09:50:03.46	158.07	15.55	-52.2	-54.0	14.5	0.00e+00	0	27	0	262144000	70	4442
2026-01-14 09:50:04.46	158.09	15.66	-52.2	-54.0	14.5	0.00e+00	0	27	0	264241152	70	4459
2026-01-14 09:50:05.46	158.10	15.77	-52.1	-53.9	14.5	0.00e+00	0	27	0	266338304	70	4425
2026-01-14 09:50:06.46	158.12	15.88	-52.2	-54.0	14.5	0.00e+00	0	27	0	268435456	70	4465
2026-01-14 09:50:07.45	158.13	15.99	-52.1	-53.8	14.5	0.00e+00	0	27	0	269484032	70	4391
2026-01-14 09:50:08.45	158.15	16.10	-52.2	-54.1	14.4	0.00e+00	0	27	0	271581184	70	4497
2026-01-14 09:50:09.45	158.16	16.21	-52.2	-54.0	14.5	0.00e+00	0	27	0	273678336	70	4470
2026-01-14 09:50:10.44	158.18	16.33	-52.0	-53.8	14.5	0.00e+00	0	27	0	275775488	70	4365
2026-01-14 09:50:11.43	158.20	16.44	-52.2	-54.0	14.4	0.00e+00	0	27	0	276824064	70	4468
2026-01-14 09:50:12.41	158.21	16.55	-52.2	-54.0	14.5	0.00e+00	0	27	0	278921216	70	4442
2026-01-14 09:50:13.40	158.23	16.66	-52.1	-53.9	14.5	0.00e+00	0	27	0	281018368	70	4419
2026-01-14 09:50:14.39	158.24	16.78	-52.1	-53.9	14.5	0.00e+00	0	27	0	283115520	70	4414
2026-01-14 09:50:15.39	158.26	16.89	-52.1	-53.8	14.6	0.00e+00	0	27	0	285212672	70	4379
2026-01-14 09:50:16.38	158.28	17.01	-52.1	-53.9	14.5	0.00e+00	0	27	0	286261248	70	4418
2026-01-14 09:50:17.37	158.29	17.12	-52.1	-53.8	14.5	0.00e+00	0	27	0	288358400	70	4369
2026-01-14 09:50:18.36	158.31	17.24	-52.0	-53.7	14.6	0.00e+00	0	27	0	290455552	70	4310
2026-01-14 09:50:19.35	158.32	17.35	-51.9	-53.6	14.6	0.00e+00	0	27	0	292552704	70	4290
2026-01-14 09:50:20.35	158.34	17.47	-51.9	-53.6	14.6	0.00e+00	0	27	0	293601280	70	4256
2026-01-14 09:50:21.35	158.36	17.59	-51.9	-53.6	14.6	0.00e+00	0	27	0	295698432	70	4288
2026-01-14 09:50:22.35	158.38	17.71	-51.8	-53.5	14.7	0.00e+00	0	27	0	297795584	70	4225
2026-01-14 09:50:23.34	158.39	17.83	-51.8	-53.5	14.7	0.00e+00	0	27	0	299892736	70	4218
2026-01-14 09:50:24.33	158.41	17.95	-51.8	-53.5	14.7	0.00e+00	0	27	0	301989888	70	4241
2026-01-14 09:50:25.32	158.43	18.07	-51.8	-53.5	14.7	0.00e+00	0	27	0	303038464	70	4239
2026-01-14 09:50:26.32	158.44	18.19	-51.9	-53.6	14.6	0.00e+00	0	27	0	305135616	70	4281
2026-01-14 09:50:27.30	158.46	18.31	-51.9	-53.6	14.7	0.00e+00	0	27	0	307232768	70	4272
2026-01-14 09:50:28.30	158.48	18.43	-52.0	-53.7	14.6	0.00e+00	0	27	0	309329920	70	4311
2026-01-14 09:50:29.29	158.50	18.55	-52.1	-53.8	14.5	0.00e+00	0	27	0	310378496	70	4384
2026-01-14 09:50:30.28	158.51	18.67	-51.9	-53.6	14.6	0.00e+00	0	27	0	312475648	70	4256
2026-01-14 09:50:31.28	158.53	18.80	-52.1	-53.8	14.6	0.00e+00	0	27	0	314572800	70	4367
2026-01-14 09:50:32.28	158.55	18.92	-52.1	-53.9	14.5	0.00e+00	0	27	0	316669952	70	4403
2026-01-14 09:50:33.28	158.57	19.05	-52.0	-53.8	14.6	0.00e+00	0	27	0	318767104	70	4341
2026-01-14 09:50:34.28	158.59	19.17	-52.2	-53.9	14.5	0.00e+00	0	27	0	319815680	70	4435
2026-01-14 09:50:35.27	158.61	19.30	-52.2	-53.9	14.5	0.00e+00	0	27	0	321912832	70	4431
2026-01-14 09:50:36.27	158.62	19.43	-52.2	-54.0	14.5	0.00e+00	0	27	0	324009984	70	4444
2026-01-14 09:50:37.26	158.64	19.55	-52.3	-54.0	14.5	0.00e+00	0	27	0	326107136	70	4492
2026-01-14 09:50:38.25	158.66	19.68	-52.2	-53.9	14.5	0.00e+00	0	27	0	327155712	70	4440
2026-01-14 09:50:39.25	158.68	19.81	-52.2	-54.0	14.5	0.00e+00	0	27	0	329252864	70	4475
2026-01-14 09:50:40.24	158.70	19.94	-52.2	-53.9	14.5	0.00e+00	0	27	0	331350016	70	4432
2026-01-14 09:50:41.24	158.72	20.07	-52.2	-54.0	14.5	0.00e+00	0	27	0	333447168	70	4451
2026-01-14 09:50:42.24	158.74	20.20	-52.3	-54.1	14.4	0.00e+00	0	27	0	335544320	70	4533
2026-01-14 09:50:43.23	158.76	20.33	-52.2	-53.9	14.5	0.00e+00	0	27	0	336592896	70	4425
2026-01-14 09:50:44.22	158.78	20.47	-52.2	-54.0	14.5	0.00e+00	0	27	0	338690048	70	4443
2026-01-14 09:50:45.21	158.80	20.60	-52.3	-54.1	14.5	0.00e+00	0	27	0	340787200	70	4494
2026-01-14 09:50:46.21	158.82	20.73	-52.2	-54.0	14.5	0.00e+00	0	27	0	342884352	70	4463
2026-01-14 09:50:47.20	158.84	20.87	-52.4	-54.2	14.4	0.00e+00	0	27	0	343932928	70	4582
2026-01-14 09:50:48.19	158.86	21.00	-52.5	-54.4	14.3	0.00e+00	0	27	0	346030080	70	4656
2026-01-14 09:50:49.18	158.88	21.14	-52.5	-54.4	14.3	0.00e+00	0	27	0	348127232	70	4670
2026-01-14 09:50:50.17	158.90	21.27	-52.6	-54.5	14.3	0.00e+00	0	27	0	350224384	70	4727
2026-01-14 09:50:51.16	158.92	21.41	-52.7	-54.6	14.2	0.00e+00	0	27	0	352321536	70	4811
2026-01-14 09:50:52.16	158.94	21.55	-52.8	-54.7	14.2	0.00e+00	0	27	0	353370112	70	4845
2026-01-14 09:50:53.15	158.96	21.69	-53.1	-55.1	14.1	0.00e+00	0	27	0	355467264	71	4760
2026-01-14 09:50:54.14	158.98	21.83	-53.0	-55.0	14.2	0.00e+00	0	27	0	357564416	71	4725
2026-01-14 09:50:55.14	159.00	21.97	-53.1	-55.1	14.2	0.00e+00	0	27	0	359661568	71	4768
2026-01-14 09:50:56.13	159.02	22.11	-53.2	-55.3	14.0	0.00e+00	0	27	0	360710144	71	4882
2026-01-14 09:50:57.13	159.04	22.25	-53.2	-55.2	14.1	0.00e+00	0	27	0	362807296	71	4843
2026-01-14 09:50:58.12	159.07	22.39	-53.1	-55.1	14.1	0.00e+00	0	27	0	364904448	71	4786
2026-01-14 09:50:59.11	159.09	22.53	-53.2	-55.2	14.1	0.00e+00	0	27	0	367001600	71	4868
2026-01-14 09:51:00.11	159.11	22.68	-53.3	-55.4	14.0	0.00e+00	0	27	0	369098752	71	4972
2026-01-14 09:51:01.10	159.13	22.82	-53.5	-55.6	14.0	0.00e+00	0	27	0	370147328	72	4804
2026-01-14 09:51:02.10	159.15	22.97	-53.4	-55.4	14.1	0.00e+00	0	27	0	372244480	72	4693
2026-01-14 09:51:03.09	159.18	23.12	-53.5	-55.6	14.1	0.00e+00	0	27	0	374341632	72	4764
2026-01-14 09:51:04.09	159.20	23.27	-53.4	-55.5	14.0	0.00e+00	0	27	0	376438784	72	4746
2026-01-14 09:51:05.08	159.22	23.41	-53.4	-55.5	14.0	0.00e+00	0	27	0	377487360	72	4746
2026-01-14 09:51:06.08	159.24	23.56	-53.4	-55.5	14.0	0.00e+00	0	27	0	379584512	72	4743
2026-01-14 09:51:07.07	159.27	23.71	-53.6	-55.8	13.9	0.00e+00	0	27	0	381681664	72	4899
2026-01-14 09:51:08.06	159.29	23.86	-53.6	-55.7	14.0	0.00e+00	0	27	0	383778816	72	4831
2026-01-14 09:51:09.05	159.31	24.01	-53.6	-55.7	13.9	0.00e+00	0	27	0	385875968	72	4848
2026-01-14 09:51:10.04	159.34	24.17	-53.6	-55.8	13.9	0.00e+00	0	27	0	386924544	72	4891
2026-01-14 09:51:11.02	159.36	24.32	-53.6	-55.7	13.9	0.00e+00	0	27	0	389021696	72	4869
2026-01-14 09:51:12.02	159.39	24.47	-53.6	-55.7	14.0	0.00e+00	0	27	0	391118848	72	4839
2026-01-14 09:51:13.02	159.41	24.63	-53.6	-55.7	14.0	0.00e+00	0	27	0	393216000	72	4851
2026-01-14 09:51:14.01	159.44	24.79	-53.6	-55.8	13.9	0.00e+00	0	27	0	394264576	72	4886
2026-01-14 09:51:14.99	159.46	24.94	-53.6	-55.8	13.9	0.00e+00	0	27	0	396361728	72	4886
2026-01-14 09:51:15.98	159.48	25.10	-53.7	-55.9	13.9	0.00e+00	0	27	0	398458880	72	4961
2026-01-14 09:51:16.97	159.51	25.26	-53.7	-55.9	13.9	0.00e+00	0	27	0	400556032	72	4929
2026-01-14 09:51:17.96	159.54	25.42	-53.8	-56.1	13.8	0.00e+00	0	27	0	401604608	72	5049
2026-01-14 09:51:18.95	159.56	25.58	-54.0	-56.3	13.8	0.00e+00	0	27	0	403701760	73	4907
2026-01-14 09:51:19.95	159.59	25.74	-53.8	-56.0	13.9	0.00e+00	0	27	0	405798912	73	4712
2026-01-14 09:51:20.94	159.61	25.90	-54.1	-56.5	13.7	0.00e+00	0	27	0	407896064	73	5005
2026-01-14 09:51:21.93	159.64	26.06	-54.2	-56.6	13.7	0.00e+00	0	27	0	409993216	73	5062
2026-01-14 09:51:22.92	159.67	26.23	-54.1	-56.4	13.7	0.00e+00	0	27	0	411041792	73	4944
2026-01-14 09:51:23.91	159.69	26.39	-54.2	-56.5	13.6	0.00e+00	0	27	0	413138944	73	5023
2026-01-14 09:51:24.91	159.72	26.56	-54.2	-56.5	13.8	0.00e+00	0	27	0	415236096	73	5026
2026-01-14 09:51:25.90	159.75	26.73	-54.1	-56.5	13.7	0.00e+00	0	27	0	417333248	73	5000
2026-01-14 09:51:26.90	159.77	26.90	-54.1	-56.5	13.7	0.00e+00	0	27	0	418381824	73	4993
2026-01-14 09:51:27.89	159.80	27.07	-53.6	-55.8	14.0	0.00e+00	0	27	0	420478976	73	4615
2026-01-14 09:51:28.88	159.83	27.24	-53.8	-56.1	13.9	0.00e+00	0	27	0	422576128	73	4766
2026-01-14 09:51:29.88	159.86	27.41	-53.9	-56.2	13.9	0.00e+00	0	27	0	424673280	73	4831
2026-01-14 09:51:30.87	159.89	27.59	-53.8	-55.9	14.0	0.00e+00	0	27	0	426770432	73	4702
2026-01-14 09:51:31.86	159.92	27.76	-53.9	-56.2	13.9	0.00e+00	0	27	0	427819008	73	4833
2026-01-14 09:51:32.86	159.95	27.94	-54.1	-56.5	13.7	0.00e+00	0	27	0	429916160	73	4993
2026-01-14 09:51:33.85	159.97	28.11	-54.0	-56.2	13.9	0.00e+00	0	27	0	432013312	73	4869
2026-01-14 09:51:34.85	160.00	28.29	-54.1	-56.3	13.8	0.00e+00	0	27	0	434110464	73	4915
2026-01-14 09:51:35.85	160.03	28.47	-54.0	-56.3	13.8	0.00e+00	0	27	0	435159040	73	4880
2026-01-14 09:51:36.84	160.06	28.65	-53.9	-56.1	13.9	0.00e+00	0	27	0	437256192	73	4792
2026-01-14 09:51:37.84	160.10	28.83	-53.9	-56.1	13.9	0.00e+00	0	27	0	439353344	73	4773
2026-01-14 09:51:38.83	160.13	29.02	-53.9	-56.1	13.9	0.00e+00	0	27	0	441450496	73	4773
2026-01-14 09:51:39.82	160.16	29.20	-53.5	-55.6	14.1	0.00e+00	0	27	0	443547648	73	4508
2026-01-14 09:51:40.81	160.19	29.38	-53.8	-56.0	14.0	0.00e+00	0	27	0	444596224	73	4720
2026-01-14 09:51:41.82	160.22	29.57	-53.5	-55.6	14.1	0.00e+00	0	27	0	446693376	73	4499
2026-01-14 09:51:42.81	160.25	29.76	-53.5	-55.6	14.1	0.00e+00	0	27	0	448790528	73	4519
2026-01-14 09:51:43.81	160.29	29.95	-54.1	-56.3	13.8	0.00e+00	0	27	0	450887680	73	4923
2026-01-14 09:51:44.80	160.32	30.14	-54.1	-56.4	13.8	0.00e+00	0	27	0	451936256	73	4966
2026-01-14 09:51:45.79	160.35	30.33	-54.0	-56.3	13.8	0.00e+00	0	27	0	454033408	73	4899
2026-01-14 09:51:46.79	160.39	30.52	-54.5	-56.9	13.6	0.00e+00	0	27	0	456130560	74	4967
2026-01-14 09:51:47.78	160.42	30.71	-54.4	-56.9	13.6	0.00e+00	0	27	0	458227712	74	4949
2026-01-14 09:51:48.78	160.45	30.91	-54.5	-56.9	13.6	0.00e+00	0	27	0	460324864	74	4976
2026-01-14 09:51:49.76	160.49	31.10	-54.5	-57.0	13.6	0.00e+00	0	27	0	461373440	74	4986
2026-01-14 09:51:50.76	160.52	31.30	-54.5	-56.9	13.6	0.00e+00	0	27	0	463470592	74	4952
2026-01-14 09:51:51.76	160.56	31.50	-54.3	-56.7	13.7	0.00e+00	0	27	0	465567744	74	4869
2026-01-14 09:51:52.75	160.59	31.70	-54.2	-56.6	13.8	0.00e+00	0	27	0	467664896	74	4769
2026-01-14 09:51:53.75	160.63	31.90	-54.4	-56.8	13.7	0.00e+00	0	27	0	468713472	74	4890
2026-01-14 09:51:54.74	160.67	32.11	-54.4	-56.8	13.7	0.00e+00	0	27	0	470810624	74	4875
2026-01-14 09:51:55.74	160.70	32.31	-54.6	-57.1	13.5	0.00e+00	0	27	0	472907776	74	5070
2026-01-14 09:51:56.96	160.75	32.56	-54.8	-57.3	13.3	0.00e+00	0	27	0	475004928	74	5203
2026-01-14 09:51:57.82	160.78	32.74	-54.7	-57.3	13.4	0.00e+00	0	27	0	476053504	74	5164
2026-01-14 09:51:58.95	160.83	32.98	-54.8	-57.4	13.5	0.00e+00	0	27	0	478150656	75	4947
2026-01-14 09:51:59.80	160.86	33.16	-54.9	-57.4	13.4	0.00e+00	0	27	0	480247808	75	4970
2026-01-14 09:52:00.94	160.91	33.40	-54.5	-56.9	13.8	0.00e+00	0	27	0	482344960	75	4681
2026-01-14 09:52:01.79	160.94	33.59	-54.6	-57.0	13.6	0.00e+00	0	27	0	483393536	75	4746
2026-01-14 09:52:02.92	160.99	33.83	-54.1	-56.3	13.9	0.00e+00	0	27	0	485490688	74	4614
2026-01-14 09:52:03.77	161.02	34.01	-54.2	-56.5	13.8	0.00e+00	0	27	0	487587840	74	4710
2026-01-14 09:52:04.91	161.07	34.26	-54.1	-56.3	13.9	0.00e+00	0	27	0	489684992	74	4632
2026-01-14 09:52:05.75	161.10	34.45	-53.9	-56.1	14.0	0.00e+00	0	27	0	491782144	74	4531
2026-01-14 09:52:06.89	161.15	34.70	-53.8	-55.9	14.2	0.00e+00	0	27	0	493879296	74	4400
2026-01-14 09:52:07.75	161.19	34.89	-53.6	-55.7	14.1	0.00e+00	0	27	0	494927872	73	4574
2026-01-14 09:52:08.88	161.24	35.15	-53.2	-55.1	14.3	0.00e+00	0	27	0	497025024	72	4531
2026-01-14 09:52:09.73	161.27	35.34	-52.8	-54.6	14.5	0.00e+00	0	27	0	499122176	72	4290
2026-01-14 09:52:10.87	161.33	35.60	-52.4	-54.2	14.6	0.00e+00	0	27	0	501219328	71	4304
2026-01-14 09:52:11.72	161.36	35.80	-52.3	-54.0	14.6	0.00e+00	0	27	0	502267904	71	4233
2026-01-14 09:52:12.85	161.42	36.06	-52.1	-53.8	14.6	0.00e+00	0	27	0	504365056	70	4382
2026-01-14 09:52:13.71	161.46	36.26	-51.9	-53.6	14.7	0.00e+00	0	27	0	506462208	70	4256
2026-01-14 09:52:14.84	161.51	36.52	-51.9	-53.6	14.7	0.00e+00	0	27	0	508559360	70	4260
2026-01-14 09:52:15.69	161.55	36.73	-52.0	-53.6	14.7	0.00e+00	0	27	0	509607936	70	4270
2026-01-14 09:52:16.82	161.60	36.99	-52.0	-53.7	14.7	0.00e+00	0	27	0	511705088	70	4326
2026-01-14 09:52:17.66	161.65	37.20	-52.0	-53.7	14.6	0.00e+00	0	27	0	513802240	70	4330
2026-01-14 09:52:18.80	161.70	37.47	-52.0	-53.7	14.7	0.00e+00	0	27	0	515899392	70	4300
2026-01-14 09:52:19.65	161.74	37.68	-51.8	-53.4	14.8	0.00e+00	0	27	0	516947968	70	4170
2026-01-14 09:52:20.78	161.80	37.96	-51.7	-53.4	14.8	0.00e+00	0	27	0	519045120	70	4153
2026-01-14 09:52:21.63	161.85	38.17	-51.7	-53.4	14.6	0.00e+00	0	27	0	521142272	69	4409
2026-01-14 09:52:22.76	161.91	38.45	-51.3	-52.9	14.8	0.00e+00	0	27	0	523239424	69	4166
2026-01-14 09:52:23.61	161.95	38.66	-51.5	-53.1	14.8	0.00e+00	0	27	0	525336576	69	4262
2026-01-14 09:52:24.75	162.01	38.95	-51.6	-53.2	14.7	0.00e+00	0	27	0	526385152	69	4318
2026-01-14 09:52:25.60	162.06	39.16	-51.5	-53.1	14.8	0.00e+00	0	27	0	528482304	69	4243
2026-01-14 09:52:26.74	162.12	39.45	-51.7	-53.3	14.7	0.00e+00	0	27	0	530579456	69	4361
2026-01-14 09:52:27.60	162.17	39.68	-51.4	-53.0	14.8	0.00e+00	0	27	0	532676608	69	4205
2026-01-14 09:52:28.74	162.23	39.97	-51.7	-53.3	14.7	0.00e+00	0	27	0	534773760	69	4383
2026-01-14 09:52:29.58	162.28	40.19	-51.6	-53.2	14.7	0.00e+00	0	27	0	535822336	69	4324
2026-01-14 09:52:30.73	162.35	40.49	-52.2	-53.9	14.5	0.00e+00	0	27	0	537919488	69	4685
2026-01-14 09:52:31.59	162.40	40.72	-52.6	-54.4	14.4	0.00e+00	0	27	0	540016640	70	4688
2026-01-14 09:52:32.72	162.47	41.03	-53.0	-54.9	14.3	0.00e+00	0	27	0	542113792	71	4681
2026-01-14 09:52:33.58	162.52	41.26	-52.9	-54.8	14.3	0.00e+00	0	27	0	543162368	71	4631
2026-01-14 09:52:34.72	162.60	41.57	-52.9	-54.8	14.3	0.00e+00	0	27	0	545259520	71	4632
2026-01-14 09:52:35.57	162.65	41.80	-53.5	-55.5	14.1	0.00e+00	0	27	0	547356672	72	4725
2026-01-14 09:52:36.71	162.72	42.11	-53.4	-55.4	14.1	0.00e+00	0	27	0	549453824	72	4668
2026-01-14 09:52:37.56	162.78	42.35	-53.4	-55.4	14.2	0.00e+00	0	27	0	550502400	72	4652
2026-01-14 09:52:38.70	162.86	42.67	-53.7	-55.8	14.0	0.00e+00	0	27	0	552599552	72	4882
2026-01-14 09:52:39.55	162.91	42.91	-53.5	-55.5	14.1	0.00e+00	0	27	0	554696704	72	4738
2026-01-14 09:52:40.69	162.99	43.23	-53.4	-55.5	14.1	0.00e+00	0	27	0	556793856	72	4728
2026-01-14 09:52:41.55	163.05	43.47	-53.4	-55.4	14.1	0.00e+00	0	27	0	558891008	72	4699
2026-01-14 09:52:42.69	163.13	43.80	-53.0	-54.8	14.4	0.00e+00	0	27	0	560988160	72	4388
2026-01-14 09:52:43.54	163.19	44.05	-52.4	-54.2	14.6	0.00e+00	0	27	0	562036736	71	4309
2026-01-14 09:52:44.67	163.28	44.38	-52.4	-54.1	14.6	0.00e+00	0	27	0	564133888	71	4280
2026-01-14 09:52:45.53	163.34	44.63	-52.6	-54.4	14.5	0.00e+00	0	27	0	566231040	71	4394
2026-01-14 09:52:46.67	163.43	44.97	-52.5	-54.2	14.6	0.00e+00	0	27	0	568328192	71	4338
2026-01-14 09:52:47.53	163.50	45.23	-52.7	-54.5	14.5	0.00e+00	0	27	0	569376768	71	4472
2026-01-14 09:52:48.67	163.59	45.57	-53.0	-54.9	14.3	0.00e+00	0	27	0	571473920	71	4671
2026-01-14 09:52:49.52	163.66	45.83	-53.2	-55.1	14.2	0.00e+00	0	27	0	573571072	71	4783
2026-01-14 09:52:50.66	163.75	46.17	-53.7	-55.7	14.0	0.00e+00	0	27	0	575668224	72	4838
2026-01-14 09:52:51.51	163.82	46.43	-53.9	-56.0	13.9	0.00e+00	0	27	0	576716800	72	5008
2026-01-14 09:52:52.65	163.92	46.79	-54.0	-56.1	13.9	0.00e+00	0	27	0	578813952	73	4774
2026-01-14 09:52:53.51	163.99	47.05	-53.9	-56.0	14.0	0.00e+00	0	27	0	580911104	73	4734
2026-01-14 09:52:54.65	164.09	47.41	-54.4	-56.7	13.7	0.00e+00	0	27	0	583008256	73	5123
2026-01-14 09:52:55.50	164.17	47.68	-54.5	-56.9	13.6	0.00e+00	0	27	0	584056832	74	4945
2026-01-14 09:52:56.64	164.27	48.04	-54.9	-57.4	13.5	0.00e+00	0	27	0	587202560	75	4953
2026-01-14 09:52:57.50	164.36	48.32	-54.9	-57.5	13.5	0.00e+00	0	27	0	588251136	75	4987
2026-01-14 09:52:58.64	164.46	48.69	-54.5	-56.8	13.8	0.00e+00	0	27	0	590348288	75	4613
2026-01-14 09:52:59.48	164.55	48.96	-54.5	-56.8	13.8	0.00e+00	0	27	0	592445440	75	4644
2026-01-14 09:53:00.62	164.66	49.33	-53.8	-55.8	14.2	0.00e+00	0	27	0	594542592	74	4359
2026-01-14 09:53:01.48	164.75	49.62	-53.5	-55.4	14.3	0.00e+00	0	27	0	595591168	73	4436
2026-01-14 09:53:02.61	164.86	49.99	-52.9	-54.7	14.5	0.00e+00	0	27	0	597688320	72	4315
2026-01-14 09:53:03.47	164.96	50.28	-52.5	-54.2	14.6	0.00e+00	0	27	0	599785472	71	4305
2026-01-14 09:53:04.60	165.08	50.66	-52.0	-53.6	14.7	0.00e+00	0	27	0	601882624	70	4281
2026-01-14 09:53:05.45	165.17	50.95	-51.9	-53.5	14.7	0.00e+00	0	27	0	602931200	70	4205
2026-01-14 09:53:06.59	165.30	51.34	-51.2	-52.7	14.9	0.00e+00	0	27	0	605028352	69	4069
2026-01-14 09:53:07.45	165.40	51.63	-51.0	-52.4	14.9	0.00e+00	0	27	0	607125504	68	4175
2026-01-14 09:53:08.59	165.54	52.03	-51.3	-52.8	14.8	0.00e+00	0	27	0	609222656	68	4365
2026-01-14 09:53:09.44	165.64	52.33	-51.5	-53.1	14.6	0.00e+00	0	27	0	610271232	68	4510
2026-01-14 09:53:10.58	165.78	52.73	-51.9	-53.6	14.6	0.00e+00	0	27	0	612368384	69	4499
2026-01-14 09:53:11.44	165.89	53.03	-51.9	-53.6	14.6	0.00e+00	0	27	0	614465536	69	4495
2026-01-14 09:53:12.57	166.03	53.43	-52.1	-53.8	14.5	0.00e+00	0	27	0	616562688	69	4602
2026-01-14 09:53:13.42	166.15	53.74	-51.8	-53.4	14.7	0.00e+00	0	27	0	618659840	69	4418
2026-01-14 09:53:14.56	166.30	54.15	-51.5	-53.1	14.8	0.00e+00	0	27	0	620756992	69	4245
2026-01-14 09:53:15.40	166.42	54.45	-51.4	-52.9	14.8	0.00e+00	0	27	0	621805568	69	4177
2026-01-14 09:53:16.54	166.58	54.87	-51.4	-53.0	14.8	0.00e+00	0	27	0	623902720	69	4202
2026-01-14 09:53:17.39	166.71	55.18	-51.2	-52.6	14.9	0.00e+00	0	27	0	625999872	69	4050
2026-01-14 09:53:18.53	166.88	55.60	-51.0	-52.5	14.9	0.00e+00	0	27	0	628097024	68	4211
2026-01-14 09:53:19.38	167.01	55.92	-50.9	-52.4	14.9	0.00e+00	0	27	0	629145600	68	4158
2026-01-14 09:53:20.51	167.19	56.34	-50.5	-51.9	14.9	0.00e+00	0	27	0	631242752	67	4182
2026-01-14 09:53:21.37	167.33	56.66	-50.4	-51.8	15.0	0.00e+00	0	27	0	633339904	67	4125
2026-01-14 09:53:22.50	167.51	57.09	-50.5	-51.9	15.0	0.00e+00	0	27	0	635437056	67	4159
2026-01-14 09:53:23.36	167.66	57.42	-50.6	-52.1	14.9	0.00e+00	0	27	0	636485632	67	4251
2026-01-14 09:53:24.50	167.86	57.86	-50.7	-52.1	14.9	0.00e+00	0	27	0	638582784	67	4283
2026-01-14 09:53:25.36	168.02	58.19	-50.6	-52.0	15.0	0.00e+00	0	27	0	640679936	67	4199
2026-01-14 09:53:26.50	168.23	58.63	-50.9	-52.4	14.8	0.00e+00	0	27	0	642777088	67	4398
2026-01-14 09:53:27.35	168.39	58.97	-50.9	-52.4	14.8	0.00e+00	0	27	0	643825664	67	4427
2026-01-14 09:53:28.49	168.62	59.41	-50.3	-51.7	15.0	0.00e+00	0	27	0	645922816	67	4053
2026-01-14 09:53:29.35	168.79	59.75	-50.3	-51.7	14.9	0.00e+00	0	27	0	648019968	66	4323
2026-01-14 09:53:30.49	169.03	60.21	-50.4	-51.7	14.9	0.00e+00	0	27	0	650117120	66	4336
2026-01-14 09:53:31.35	169.21	60.55	-50.9	-52.3	14.8	0.00e+00	0	27	0	652214272	67	4385
2026-01-14 09:53:32.49	169.47	61.01	-52.0	-53.6	14.6	0.00e+00	0	27	0	654311424	69	4543
2026-01-14 09:53:33.35	169.66	61.35	-52.0	-53.7	14.5	0.00e+00	0	27	0	655360000	69	4577
2026-01-14 09:53:34.48	169.93	61.81	-50.7	-52.5	14.9	0.00e+00	0	27	0	657457152	68	4208
2026-01-14 09:53:35.32	170.14	62.15	-50.5	-51.9	15.0	0.00e+00	0	27	0	659554304	67	4150
2026-01-14 09:53:36.46	170.43	62.62	-50.0	-51.3	15.0	0.00e+00	0	27	0	661651456	66	4117
2026-01-14 09:53:37.31	170.65	62.97	-50.2	-51.6	14.9	0.00e+00	0	27	0	662700032	66	4273
2026-01-14 09:53:38.45	170.96	63.44	-50.5	-51.9	14.9	0.00e+00	0	27	0	664797184	66	4432
2026-01-14 09:53:39.30	171.19	63.80	-50.5	-51.9	14.8	0.00e+00	0	27	0	666894336	66	4429
2026-01-14 09:53:40.44	171.52	64.27	-51.1	-52.6	14.7	0.00e+00	0	27	0	668991488	67	4527
2026-01-14 09:53:41.29	171.78	64.63	-52.0	-53.7	14.6	0.00e+00	0	27	0	670040064	69	4555
2026-01-14 09:53:42.44	172.14	65.11	-52.8	-54.6	14.3	0.00e+00	0	27	0	672137216	70	4781
2026-01-14 09:53:43.29	172.41	65.47	-52.7	-54.4	14.4	0.00e+00	0	27	0	674234368	70	4704
2026-01-14 09:53:44.44	172.80	65.96	-52.1	-53.7	14.7	0.00e+00	0	27	0	676331520	70	4320
2026-01-14 09:53:45.29	173.09	66.32	-52.3	-53.9	14.6	0.00e+00	0	27	0	678428672	70	4431
2026-01-14 09:53:46.44	173.51	66.81	-52.0	-53.7	14.7	0.00e+00	0	27	0	680525824	70	4309
2026-01-14 09:53:47.30	173.84	67.18	-52.3	-53.9	14.6	0.00e+00	0	27	0	681574400	70	4437
2026-01-14 09:53:48.44	174.28	67.67	-52.3	-54.0	14.6	0.00e+00	0	27	0	683671552	70	4469
2026-01-14 09:53:49.30	174.64	68.04	-53.4	-55.4	14.2	0.00e+00	0	27	0	685768704	72	4654
2026-01-14 09:53:50.44	175.12	68.53	-54.5	-56.8	13.7	0.00e+00	0	27	0	687865856	74	4904
2026-01-14 09:53:51.30	175.51	68.90	-54.7	-57.2	13.6	0.00e+00	0	27	0	688914432	74	5114
2026-01-14 09:53:52.44	176.04	69.40	-54.7	-57.2	13.6	0.00e+00	0	27	0	691011584	74	5108
2026-01-14 09:53:53.30	176.46	69.77	-55.0	-57.5	13.4	0.00e+00	0	27	0	693108736	75	5003
2026-01-14 09:53:54.45	177.04	70.27	-55.1	-57.7	13.5	0.00e+00	0	27	0	695205888	75	5145
2026-01-14 09:53:55.31	177.50	70.64	-54.4	-56.6	14.0	0.00e+00	0	27	0	696254464	75	4531
2026-01-14 09:53:56.45	178.14	71.14	-53.7	-55.7	14.3	0.00e+00	0	27	0	698351616	74	4319
2026-01-14 09:53:57.31	178.65	71.51	-53.6	-55.5	14.2	0.00e+00	0	27	0	700448768	73	4491
2026-01-14 09:53:58.45	179.36	72.01	-53.4	-55.4	14.4	0.00e+00	0	27	0	702545920	73	4392
2026-01-14 09:53:59.31	179.92	72.38	-53.4	-55.4	14.3	0.00e+00	0	27	0	704643072	73	4401
2026-01-14 09:54:00.45	180.70	72.88	-53.5	-55.5	14.2	0.00e+00	0	27	0	706740224	72	4707
2026-01-14 09:54:01.31	181.32	73.25	-54.2	-56.5	13.8	0.00e+00	0	27	0	707788800	73	5017
2026-01-14 09:54:02.45	182.19	73.75	-53.3	-55.1	14.5	0.00e+00	0	27	0	709885952	72	4539
2026-01-14 09:54:03.30	182.88	74.11	-53.1	-54.9	14.4	0.00e+00	0	27	0	711983104	72	4427
2026-01-14 09:54:04.44	183.85	74.60	-54.9	-57.3	13.6	0.00e+00	0	27	0	714080256	74	5215
2026-01-14 09:54:05.30	184.62	74.97	-55.8	-58.7	13.0	0.00e+00	0	27	0	715128832	77	5131
2026-01-14 09:54:06.44	185.72	75.45	-55.1	-58.1	13.3	7.00e-07	0	27	0	717225984	77	4773
2026-01-14 09:54:07.30	186.59	75.82	-54.9	-57.2	13.8	0.00e+00	0	27	0	719323136	76	4573
2026-01-14 09:54:08.44	187.82	76.30	-54.9	-57.3	13.7	0.00e+00	0	27	0	721420288	75	4871
2026-01-14 09:54:09.30	188.81	76.65	-55.6	-58.3	13.2	0.00e+00	0	27	0	722468864	76	5177
2026-01-14 09:54:10.44	190.21	77.12	-57.4	-61.7	11.5	0.00e+00	0	27	0	724566016	79	6441
2026-01-14 09:54:11.30	191.34	77.47	-57.8	-62.6	10.6	2.97e-05	0	27	0	726663168	80	6748
2026-01-14 09:54:12.45	192.95	77.93	-57.0	-60.7	11.9	0.00e+00	0	27	0	728760320	79	5780
2026-01-14 09:54:13.30	194.22	78.26	-56.9	-60.6	12.4	7.00e-07	0	27	0	730857472	79	5700
2026-01-14 09:54:14.45	196.06	78.71	-56.4	-59.7	12.6	0.00e+00	0	27	0	732954624	78	5430
2026-01-14 09:54:15.30	197.52	79.03	-55.9	-58.7	13.2	0.00e+00	0	27	0	734003200	78	4815
2026-01-14 09:54:16.44	199.61	79.45	-55.9	-58.8	13.0	0.00e+00	0	27	0	736100352	77	5184
2026-01-14 09:54:17.30	201.31	79.76	-56.9	-60.6	12.0	0.00e+00	0	27	0	738197504	78	6047
2026-01-14 09:54:18.44	203.72	80.15	-56.8	-60.3	12.4	0.00e+00	0	27	0	740294656	79	5488
2026-01-14 09:54:19.30	205.67	80.44	-56.0	-58.8	13.1	0.00e+00	0	27	0	741343232	78	4900
2026-01-14 09:54:20.45	208.46	80.80	-55.0	-57.4	13.6	0.00e+00	0	27	0	743440384	76	4701
2026-01-14 09:54:21.31	210.70	81.06	-54.8	-57.1	13.7	0.00e+00	0	27	0	745537536	75	4800
2026-01-14 09:54:22.44	213.83	81.38	-53.8	-55.7	14.3	0.00e+00	0	27	0	747634688	74	4337
2026-01-14 09:54:23.30	216.38	81.60	-53.5	-55.4	14.4	0.00e+00	0	27	0	748683264	73	4410
2026-01-14 09:54:24.44	219.95	81.87	-53.9	-55.9	14.2	0.00e+00	0	27	0	751828992	73	4680
2026-01-14 09:54:25.31	222.84	82.06	-54.0	-56.1	14.0	0.00e+00	0	27	0	752877568	73	4808
2026-01-14 09:54:26.45	226.82	82.26	-53.4	-55.3	14.4	0.00e+00	0	27	0	754974720	73	4363
2026-01-14 09:54:27.30	229.92	82.40	-53.1	-55.0	14.4	0.00e+00	0	27	0	757071872	72	4469
2026-01-14 09:54:28.45	234.27	82.54	-53.4	-55.3	14.2	0.00e+00	0	27	0	759169024	72	4633
2026-01-14 09:54:29.31	237.62	82.61	-53.7	-55.7	14.1	0.00e+00	0	27	0	760217600	72	4856
2026-01-14 09:54:30.45	242.15	82.68	-53.3	-55.2	14.3	0.00e+00	0	27	0	762314752	72	4593
2026-01-14 09:54:31.30	245.56	82.69	-52.7	-54.5	14.6	0.00e+00	0	28	0	764411904	71	4461
2026-01-14 09:54:32.45	250.18	82.68	-52.5	-54.2	14.6	0.00e+00	0	27	0	766509056	71	4322
2026-01-14 09:54:33.30	253.56	82.63	-51.4	-52.8	14.9	0.00e+00	0	27	0	767557632	69	4140
2026-01-14 09:54:34.44	258.02	82.54	-50.5	-51.9	14.9	0.00e+00	0	27	0	769654784	67	4156
2026-01-14 09:54:35.29	261.25	82.44	-51.9	-53.4	14.6	0.00e+00	0	27	0	771751936	68	4693
2026-01-14 09:54:36.44	265.46	82.26	-54.7	-57.1	13.7	0.00e+00	0	27	0	773849088	74	5072
2026-01-14 09:54:37.29	268.45	82.11	-54.7	-57.0	13.7	0.00e+00	0	27	0	774897664	75	4725
2026-01-14 09:54:38.44	272.29	81.87	-54.9	-57.3	13.7	0.00e+00	0	27	0	778043392	75	4894
2026-01-14 09:54:39.29	274.98	81.67	-55.0	-57.4	13.6	0.00e+00	0	27	0	779091968	75	4982
2026-01-14 09:54:40.42	278.35	81.38	-53.8	-55.8	14.3	0.00e+00	0	27	0	781189120	74	4367
2026-01-14 09:54:41.28	280.76	81.14	-54.5	-56.6	13.8	0.00e+00	0	27	0	783286272	74	4809
2026-01-14 09:54:42.42	283.76	80.80	-55.7	-58.5	13.1	0.00e+00	0	27	0	785383424	76	5299
2026-01-14 09:54:43.27	285.84	80.54	-55.5	-58.1	13.4	0.00e+00	0	27	0	786432000	77	4781
2026-01-14 09:54:44.41	288.45	80.16	-54.8	-57.1	13.8	0.00e+00	0	27	0	788529152	75	4769
2026-01-14 09:54:45.25	290.25	79.87	-56.5	-59.8	12.6	0.00e+00	0	28	0	790626304	78	5506
2026-01-14 09:54:46.39	292.53	79.47	-55.5	-58.1	13.4	0.00e+00	0	28	0	792723456	77	4776
2026-01-14 09:54:47.25	294.13	79.15	-54.3	-56.4	14.1	0.00e+00	0	27	0	793772032	75	4440
2026-01-14 09:54:48.39	296.11	78.73	-54.5	-56.6	14.0	0.00e+00	0	27	0	795869184	75	4536
2026-01-14 09:54:49.25	297.50	78.39	-54.0	-56.0	14.2	0.00e+00	0	27	0	797966336	74	4443
2026-01-14 09:54:50.38	299.21	77.95	-54.3	-56.5	13.9	0.00e+00	0	27	0	800063488	74	4740
2026-01-14 09:54:51.24	300.43	77.61	-54.1	-56.2	14.1	0.00e+00	0	27	0	801112064	74	4549
2026-01-14 09:54:52.37	301.93	77.15	-54.0	-56.0	14.0	0.00e+00	0	27	0	803209216	73	4733
2026-01-14 09:54:53.23	303.00	76.80	-54.9	-57.3	13.5	0.00e+00	0	27	0	805306368	74	5192
2026-01-14 09:54:54.38	304.34	76.32	-55.5	-58.1	13.4	0.00e+00	0	27	0	807403520	77	4808
2026-01-14 09:54:55.23	305.27	75.97	-54.7	-56.9	13.9	0.00e+00	0	27	0	809500672	75	4703
2026-01-14 09:54:56.37	306.44	75.49	-53.9	-55.9	14.2	0.00e+00	0	27	0	811597824	74	4438
2026-01-14 09:54:57.22	307.27	75.13	-53.3	-55.1	14.5	0.00e+00	0	28	0	812646400	73	4278
2026-01-14 09:54:58.36	308.31	74.64	-52.5	-54.2	14.6	0.00e+00	0	27	0	814743552	71	4312
2026-01-14 09:54:59.21	309.04	74.28	-52.6	-54.3	14.6	0.00e+00	0	27	0	816840704	71	4347
2026-01-14 09:55:00.35	309.97	73.79	-53.8	-55.8	14.1	0.00e+00	0	27	0	818937856	72	4871
2026-01-14 09:55:01.21	310.64	73.42	-53.5	-55.4	14.3	0.00e+00	0	28	0	819986432	72	4662
2026-01-14 09:55:02.35	311.47	72.92	-54.3	-56.4	13.9	0.00e+00	0	27	0	822083584	73	4976
2026-01-14 09:55:03.21	312.07	72.55	-54.5	-56.7	13.8	0.00e+00	0	27	0	824180736	74	4855
2026-01-14 09:55:04.35	312.82	72.05	-54.2	-56.3	14.0	0.00e+00	0	27	0	826277888	74	4604
2026-01-14 09:55:05.20	313.35	71.68	-55.4	-58.0	13.4	0.00e+00	0	28	0	827326464	75	5308
2026-01-14 09:55:06.34	314.03	71.19	-57.3	-61.3	11.7	0.00e+00	0	27	0	829423616	79	6194
2026-01-14 09:55:07.19	314.51	70.82	-57.2	-61.0	11.9	2.20e-06	0	27	0	831520768	80	5605
2026-01-14 09:55:08.34	315.13	70.32	-55.2	-57.6	13.6	0.00e+00	0	27	0	833617920	76	4787
2026-01-14 09:55:09.19	315.57	69.95	-55.3	-57.7	13.5	0.00e+00	0	27	0	835715072	76	4864
2026-01-14 09:55:10.33	316.13	69.46	-56.9	-60.6	12.1	0.00e+00	0	27	0	837812224	78	6002
2026-01-14 09:55:11.19	316.54	69.08	-57.8	-62.4	10.8	4.50e-05	0	27	0	838860800	80	6626
2026-01-14 09:55:12.32	317.05	68.60	-56.9	-60.4	12.2	6.94e-05	0	27	0	840957952	80	5259
2026-01-14 09:55:13.18	317.42	68.23	-54.9	-57.2	13.7	7.00e-07	0	27	0	843055104	76	4596
2026-01-14 09:55:14.31	317.89	67.74	-52.0	-53.5	14.8	0.00e+00	0	27	0	845152256	70	4204
2026-01-14 09:55:15.17	318.23	67.37	-51.5	-52.9	14.9	0.00e+00	0	27	0	846200832	69	4188
2026-01-14 09:55:16.30	318.66	66.89	-52.3	-53.9	14.5	0.00e+00	0	27	0	848297984	69	4683
2026-01-14 09:55:17.16	318.98	66.52	-53.1	-54.9	14.4	0.00e+00	0	27	0	850395136	71	4679
2026-01-14 09:55:18.29	319.37	66.04	-52.7	-54.4	14.5	0.00e+00	0	27	0	852492288	71	4411
2026-01-14 09:55:19.14	319.66	65.68	-51.9	-53.4	14.8	0.00e+00	0	28	0	853540864	70	4169
2026-01-14 09:55:20.27	320.03	65.20	-52.4	-54.1	14.4	0.00e+00	0	27	0	855638016	69	4768
2026-01-14 09:55:21.13	320.30	64.84	-54.5	-56.9	13.8	0.00e+00	0	27	0	857735168	74	4948
2026-01-14 09:55:22.27	320.65	64.37	-55.2	-57.7	13.6	0.00e+00	0	27	0	859832320	76	4869
2026-01-14 09:55:23.12	320.90	64.01	-53.1	-55.0	14.4	0.00e+00	0	27	0	860880896	72	4448
2026-01-14 09:55:24.26	321.22	63.54	-52.8	-54.6	14.5	0.00e+00	0	27	0	862978048	71	4521
2026-01-14 09:55:25.10	321.45	63.19	-52.9	-54.7	14.4	0.00e+00	0	27	0	865075200	71	4578
2026-01-14 09:55:26.25	321.75	62.72	-52.9	-54.7	14.4	0.00e+00	0	27	0	867172352	71	4548
2026-01-14 09:55:27.10	321.97	62.37	-53.4	-55.3	14.2	0.00e+00	0	27	0	869269504	71	4881
2026-01-14 09:55:28.25	322.26	61.90	-53.6	-55.6	14.2	0.00e+00	0	27	0	871366656	72	4765
2026-01-14 09:55:29.10	322.46	61.56	-52.7	-54.4	14.7	0.00e+00	0	27	0	872415232	72	4172
2026-01-14 09:55:30.25	322.72	61.09	-51.4	-52.8	14.9	0.00e+00	0	27	0	874512384	69	4142
2026-01-14 09:55:31.10	322.92	60.75	-51.4	-52.9	14.8	0.00e+00	0	27	0	876609536	68	4393
2026-01-14 09:55:32.24	323.16	60.30	-51.9	-53.4	14.7	0.00e+00	0	27	0	878706688	69	4425
2026-01-14 09:55:33.09	323.34	59.96	-52.3	-53.9	14.5	0.00e+00	0	27	0	879755264	69	4671
2026-01-14 09:55:34.23	323.58	59.51	-53.2	-55.0	14.3	0.00e+00	0	27	0	881852416	71	4745
2026-01-14 09:55:35.08	323.75	59.18	-53.4	-55.3	14.3	0.00e+00	0	27	0	883949568	72	4633
2026-01-14 09:55:36.21	323.96	58.74	-52.6	-54.3	14.6	0.00e+00	0	27	0	886046720	71	4369
2026-01-14 09:55:37.07	324.12	58.40	-52.5	-54.2	14.6	0.00e+00	0	27	0	887095296	71	4298
2026-01-14 09:55:38.21	324.33	57.96	-53.2	-55.1	14.2	0.00e+00	0	27	0	889192448	71	4807
2026-01-14 09:55:39.07	324.49	57.63	-52.4	-54.1	14.7	0.00e+00	0	27	0	891289600	71	4269
2026-01-14 09:55:40.21	324.68	57.20	-51.5	-53.0	14.8	0.00e+00	0	27	0	893386752	69	4220
2026-01-14 09:55:41.06	324.82	56.88	-51.6	-53.1	14.8	0.00e+00	0	27	0	895483904	69	4288
2026-01-14 09:55:42.19	325.01	56.45	-52.5	-54.2	14.5	0.00e+00	0	28	0	897581056	70	4570
2026-01-14 09:55:43.04	325.15	56.13	-52.1	-53.7	14.7	0.00e+00	0	27	0	898629632	70	4329
2026-01-14 09:55:44.18	325.32	55.71	-51.8	-53.3	14.9	0.00e+00	0	27	0	900726784	70	4105
2026-01-14 09:55:45.03	325.45	55.39	-52.6	-54.3	14.5	0.00e+00	0	27	0	902823936	70	4632
2026-01-14 09:55:46.17	325.62	54.97	-53.5	-55.4	14.2	0.00e+00	0	27	0	904921088	72	4699
2026-01-14 09:55:47.02	325.74	54.66	-53.3	-55.2	14.4	0.00e+00	0	27	0	905969664	72	4551
2026-01-14 09:55:48.15	325.90	54.25	-52.6	-54.3	14.5	0.00e+00	0	27	0	908066816	71	4389
2026-01-14 09:55:49.01	326.02	53.94	-52.7	-54.4	14.5	0.00e+00	0	27	0	910163968	71	4434
2026-01-14 09:55:50.16	326.17	53.53	-53.6	-55.6	14.2	0.00e+00	0	27	0	912261120	72	4777
2026-01-14 09:55:51.02	326.28	53.23	-54.2	-56.4	13.9	0.00e+00	0	27	0	913309696	74	4675
2026-01-14 09:55:52.15	326.43	52.83	-53.9	-55.9	14.2	0.00e+00	0	27	0	915406848	74	4423
2026-01-14 09:55:53.00	326.53	52.53	-53.5	-55.4	14.3	0.00e+00	0	27	0	917504000	73	4440
2026-01-14 09:55:54.13	326.67	52.14	-53.0	-54.7	14.5	0.00e+00	0	27	0	919601152	72	4327
2026-01-14 09:55:54.98	326.77	51.84	-53.0	-54.8	14.5	0.00e+00	0	27	0	920649728	72	4360
2026-01-14 09:55:56.12	326.91	51.45	-53.4	-55.3	14.2	0.00e+00	0	27	0	922746880	72	4645
2026-01-14 09:55:56.96	327.00	51.16	-54.1	-56.2	14.0	0.00e+00	0	27	0	924844032	73	4849
2026-01-14 09:55:58.10	327.13	50.78	-54.4	-56.7	13.8	0.00e+00	0	28	0	926941184	74	4826
2026-01-14 09:55:58.96	327.22	50.49	-54.4	-56.6	13.8	0.00e+00	0	27	0	929038336	74	4803
2026-01-14 09:56:00.11	327.35	50.10	-53.7	-55.6	14.3	0.00e+00	0	27	0	931135488	74	4263
2026-01-14 09:56:00.96	327.43	49.82	-53.6	-55.6	14.3	0.00e+00	0	27	0	932184064	73	4507
2026-01-14 09:56:02.10	327.55	49.45	-53.4	-55.3	14.4	0.00e+00	0	27	0	934281216	73	4377
2026-01-14 09:56:02.95	327.64	49.17	-53.5	-55.4	14.4	0.00e+00	0	27	0	936378368	73	4409
2026-01-14 09:56:04.09	327.75	48.80	-53.2	-55.0	14.5	0.00e+00	0	27	0	938475520	73	4232
2026-01-14 09:56:04.93	327.83	48.53	-53.2	-55.0	14.4	0.00e+00	0	27	0	939524096	72	4487
2026-01-14 09:56:06.07	327.94	48.16	-54.3	-56.5	13.8	0.00e+00	0	27	0	941621248	73	5012
2026-01-14 09:56:06.92	328.02	47.89	-55.9	-58.8	13.0	0.00e+00	0	27	0	943718400	77	5199
2026-01-14 09:56:08.06	328.12	47.53	-56.8	-60.6	12.0	2.20e-06	0	27	0	945815552	79	5706
2026-01-14 09:56:08.91	328.20	47.26	-56.9	-60.8	11.8	2.20e-06	0	27	0	946864128	79	5835
2026-01-14 09:56:10.05	328.30	46.91	-55.9	-58.8	13.0	0.00e+00	0	27	0	948961280	78	4884
2026-01-14 09:56:10.90	328.37	46.65	-54.1	-56.2	14.1	0.00e+00	0	27	0	951058432	74	4581
2026-01-14 09:56:12.04	328.46	46.30	-53.1	-55.0	14.4	0.00e+00	0	28	0	953155584	72	4445
2026-01-14 09:56:12.89	328.54	46.04	-52.9	-54.7	14.5	0.00e+00	0	27	0	954204160	72	4326
2026-01-14 09:56:14.03	328.63	45.69	-53.9	-56.0	14.0	0.00e+00	0	28	0	956301312	72	5002
2026-01-14 09:56:14.87	328.69	45.44	-54.3	-56.5	13.8	0.00e+00	0	27	0	958398464	73	5040
2026-01-14 09:56:16.00	328.78	45.10	-55.1	-57.6	13.4	0.00e+00	0	27	0	960495616	75	5091
2026-01-14 09:56:16.85	328.85	44.85	-54.9	-57.4	13.6	0.00e+00	0	27	0	961544192	75	4936
2026-01-14 09:56:17.99	328.94	44.52	-54.5	-56.8	13.9	0.00e+00	0	27	0	964689920	75	4641
2026-01-14 09:56:18.84	329.00	44.27	-54.4	-56.8	13.9	0.00e+00	0	27	0	965738496	75	4604
2026-01-14 09:56:19.97	329.08	43.94	-54.8	-57.3	13.6	0.00e+00	0	27	0	967835648	75	4894
2026-01-14 09:56:20.83	329.14	43.69	-54.6	-57.0	13.8	0.00e+00	0	27	0	969932800	75	4737
2026-01-14 09:56:21.97	329.22	43.37	-53.4	-55.4	14.3	0.00e+00	0	27	0	972029952	73	4418
2026-01-14 09:56:22.83	329.28	43.12	-53.1	-54.9	14.4	0.00e+00	0	27	0	973078528	72	4425
2026-01-14 09:56:23.97	329.36	42.80	-52.6	-54.3	14.6	0.00e+00	0	27	0	975175680	71	4359
2026-01-14 09:56:24.82	329.42	42.57	-52.4	-54.0	14.7	0.00e+00	0	27	0	977272832	71	4223
2026-01-14 09:56:25.95	329.49	42.25	-51.7	-53.3	14.9	0.00e+00	0	27	0	979369984	70	4103
2026-01-14 09:56:26.81	329.55	42.02	-52.3	-53.9	14.6	0.00e+00	0	27	0	980418560	70	4414
2026-01-14 09:56:27.94	329.62	41.71	-52.3	-54.0	14.5	0.00e+00	0	27	0	982515712	70	4478
2026-01-14 09:56:28.79	329.68	41.48	-52.6	-54.4	14.4	0.00e+00	0	27	0	984612864	70	4669
2026-01-14 09:56:29.92	329.75	41.17	-53.4	-55.4	14.2	0.00e+00	0	27	0	986710016	72	4698
2026-01-14 09:56:30.77	329.80	40.94	-53.5	-55.5	14.1	0.00e+00	0	27	0	987758592	72	4757
2026-01-14 09:56:31.91	329.87	40.64	-53.6	-55.7	14.1	0.00e+00	0	27	0	990904320	72	4819
2026-01-14 09:56:32.75	329.92	40.42	-53.1	-55.0	14.4	0.00e+00	0	27	0	991952896	72	4491
2026-01-14 09:56:33.89	329.98	40.12	-52.7	-54.4	14.6	0.00e+00	0	27	0	994050048	72	4177
2026-01-14 09:56:34.74	330.03	39.90	-51.9	-53.4	14.8	0.00e+00	0	27	0	996147200	70	4193
2026-01-14 09:56:35.88	330.10	39.61	-51.5	-53.0	14.8	0.00e+00	0	27	0	998244352	69	4208
2026-01-14 09:56:36.73	330.15	39.39	-51.4	-52.9	14.9	0.00e+00	0	27	0	999292928	69	4177
2026-01-14 09:56:37.87	330.21	39.10	-51.4	-52.9	14.7	0.00e+00	0	27	0	1001390080	68	4433
2026-01-14 09:56:38.72	330.25	38.89	-52.4	-54.1	14.4	0.00e+00	0	27	0	1003487232	69	4790
2026-01-14 09:56:39.86	330.32	38.60	-54.0	-56.1	13.9	0.00e+00	0	27	0	1005584384	73	4790
2026-01-14 09:56:40.71	330.36	38.39	-55.0	-57.6	13.5	0.00e+00	0	27	0	1006632960	75	5067
2026-01-14 09:56:41.85	330.42	38.11	-56.5	-59.9	12.4	0.00e+00	0	27	0	1008730112	78	5591
2026-01-14 09:56:42.70	330.46	37.90	-57.3	-61.6	11.3	6.10e-06	0	27	0	1010827264	79	6411
2026-01-14 09:56:43.83	330.52	37.62	-57.2	-61.5	11.3	3.12e-05	0	27	0	1012924416	79	6301
2026-01-14 09:56:44.69	330.56	37.42	-57.2	-61.5	11.4	1.37e-05	0	27	0	1013972992	79	6336
2026-01-14 09:56:45.82	330.62	37.14	-55.8	-58.8	13.0	7.00e-07	0	28	0	1016070144	78	4882
2026-01-14 09:56:46.68	330.66	36.94	-54.7	-57.1	13.8	0.00e+00	0	27	0	1018167296	76	4496
2026-01-14 09:56:47.82	330.72	36.67	-53.8	-55.9	14.2	0.00e+00	0	28	0	1020264448	74	4392
2026-01-14 09:56:48.67	330.76	36.47	-53.3	-55.2	14.4	0.00e+00	0	27	0	1021313024	73	4295
2026-01-14 09:56:49.81	330.81	36.20	-52.5	-54.2	14.5	0.00e+00	0	27	0	1024458752	71	4328
2026-01-14 09:56:50.66	330.85	36.01	-52.4	-54.0	14.6	0.00e+00	0	27	0	1025507328	71	4239
2026-01-14 09:56:51.80	330.90	35.75	-53.3	-55.1	14.2	0.00e+00	0	27	0	1027604480	71	4812
2026-01-14 09:56:52.66	330.94	35.55	-53.3	-55.2	14.2	0.00e+00	0	27	0	1029701632	71	4819
2026-01-14 09:56:53.79	330.99	35.29	-53.0	-54.8	14.3	0.00e+00	0	27	0	1031798784	71	4625
2026-01-14 09:56:54.64	331.03	35.10	-52.7	-54.4	14.5	0.00e+00	0	27	0	1032847360	71	4428
2026-01-14 09:56:55.77	331.08	34.85	-52.5	-54.1	14.6	0.00e+00	0	27	0	1034944512	71	4286
2026-01-14 09:56:56.62	331.11	34.66	-52.7	-54.5	14.4	0.00e+00	0	27	0	1037041664	71	4451
2026-01-14 09:56:57.75	331.16	34.41	-53.4	-55.3	14.1	0.00e+00	0	27	0	1039138816	71	4902
2026-01-14 09:56:58.61	331.20	34.22	-54.1	-56.2	13.9	0.00e+00	0	27	0	1040187392	73	4862
2026-01-14 09:56:59.74	331.25	33.98	-55.2	-57.9	13.2	0.00e+00	0	27	0	1042284544	75	5244
2026-01-14 09:57:00.60	331.28	33.79	-56.1	-59.2	12.7	0.00e+00	0	27	0	1044381696	77	5439
2026-01-14 09:57:01.74	331.33	33.55	-57.1	-61.3	11.5	1.06e-05	0	27	0	1046478848	79	6153
2026-01-14 09:57:02.58	331.36	33.37	-57.1	-61.3	11.4	1.83e-05	0	27	0	1047527424	79	6190
2026-01-14 09:57:03.72	331.41	33.13	-57.1	-61.2	11.6	9.10e-06	0	28	0	1049624576	79	6099
2026-01-14 09:57:04.57	331.44	32.95	-57.0	-61.0	11.5	2.21e-05	0	27	0	1051721728	79	5981
2026-01-14 09:57:05.70	331.48	32.71	-56.1	-59.1	12.8	0.00e+00	0	27	0	1053818880	78	5085
2026-01-14 09:57:06.54	331.51	32.54	-55.4	-58.1	13.3	0.00e+00	0	27	0	1054867456	77	4768
2026-01-14 09:57:07.67	331.56	32.31	-55.0	-57.5	13.5	0.00e+00	0	27	0	1056964608	76	4751
2026-01-14 09:57:08.52	331.59	32.13	-54.8	-57.2	13.7	0.00e+00	0	27	0	1059061760	76	4580
2026-01-14 09:57:09.67	331.63	31.90	-54.2	-56.4	14.0	0.00e+00	0	27	0	1061158912	75	4423
2026-01-14 09:57:10.51	331.66	31.73	-54.1	-56.2	14.0	0.00e+00	0	28	0	1063256064	74	4565
2026-01-14 09:57:11.65	331.70	31.50	-54.0	-56.1	14.0	0.00e+00	0	27	0	1064304640	74	4535
2026-01-14 09:57:12.50	331.73	31.33	-53.8	-55.8	14.1	0.00e+00	0	28	0	1066401792	73	4600
2026-01-14 09:57:13.63	331.77	31.11	-53.7	-55.7	14.1	0.00e+00	0	27	0	1068498944	73	4589
2026-01-14 09:57:14.48	331.80	30.94	-53.5	-55.5	14.3	0.00e+00	0	28	0	1070596096	73	4453
2026-01-14 09:57:15.62	331.84	30.72	-53.4	-55.3	14.3	0.00e+00	0	27	0	1072693248	73	4347
2026-01-14 09:57:16.47	331.87	30.56	-53.1	-55.0	14.4	0.00e+00	0	27	0	1073741824	72	4458
2026-01-14 09:57:17.61	331.91	30.34	-52.8	-54.6	14.5	0.00e+00	0	27	0	1075838976	72	4265
2026-01-14 09:57:18.47	331.94	30.17	-52.7	-54.4	14.5	0.00e+00	0	27	0	1077936128	71	4437
2026-01-14 09:57:19.61	331.98	29.96	-52.6	-54.3	14.5	0.00e+00	0	27	0	1080033280	71	4367
2026-01-14 09:57:20.45	332.01	29.80	-52.4	-54.1	14.6	0.00e+00	0	27	0	1081081856	71	4269
2026-01-14 09:57:21.59	332.04	29.58	-52.6	-54.3	14.5	0.00e+00	0	28	0	1083179008	71	4379
2026-01-14 09:57:22.44	332.07	29.43	-52.7	-54.4	14.4	0.00e+00	0	27	0	1085276160	71	4434
2026-01-14 09:57:23.58	332.11	29.22	-53.0	-54.8	14.3	0.00e+00	0	28	0	1087373312	71	4645
2026-01-14 09:57:24.43	332.13	29.06	-53.3	-55.3	14.1	0.00e+00	0	27	0	1088421888	71	4883
2026-01-14 09:57:25.57	332.17	28.85	-53.8	-55.9	13.9	0.00e+00	0	28	0	1090519040	72	4960
2026-01-14 09:57:26.42	332.19	28.70	-54.1	-56.3	13.8	0.00e+00	0	27	0	1092616192	73	4926
2026-01-14 09:57:27.55	332.23	28.49	-54.7	-57.2	13.5	0.00e+00	0	27	0	1094713344	74	5122
2026-01-14 09:57:28.41	332.26	28.34	-55.3	-58.1	13.0	0.00e+00	0	27	0	1096810496	75	5343
2026-01-14 09:57:29.54	332.29	28.14	-55.3	-58.1	13.1	0.00e+00	0	27	0	1097859072	75	5367
2026-01-14 09:57:30.40	332.32	27.99	-55.6	-58.4	13.0	0.00e+00	0	27	0	1099956224	76	5258
2026-01-14 09:57:31.54	332.35	27.79	-55.3	-57.9	13.3	0.00e+00	0	27	0	1102053376	76	4975
2026-01-14 09:57:32.39	332.37	27.64	-55.0	-57.5	13.6	0.00e+00	0	27	0	1104150528	76	4728
2026-01-14 09:57:33.53	332.41	27.44	-54.3	-56.6	13.9	0.00e+00	0	27	0	1106247680	75	4500
2026-01-14 09:57:34.38	332.43	27.29	-54.0	-56.2	14.0	0.00e+00	0	27	0	1107296256	74	4548
2026-01-14 09:57:35.52	332.46	27.10	-53.5	-55.5	14.2	0.00e+00	0	27	0	1109393408	73	4461
2026-01-14 09:57:36.37	332.49	26.95	-53.1	-55.0	14.3	0.00e+00	0	27	0	1111490560	72	4480
2026-01-14 09:57:37.51	332.52	26.76	-52.6	-54.4	14.6	0.00e+00	0	27	0	1113587712	71	4399
2026-01-14 09:57:38.37	332.54	26.61	-52.3	-54.0	14.6	0.00e+00	0	27	0	1114636288	71	4219
2026-01-14 09:57:39.50	332.57	26.43	-52.2	-53.9	14.7	0.00e+00	0	27	0	1116733440	71	4179
2026-01-14 09:57:40.35	332.60	26.28	-52.2	-53.9	14.5	0.00e+00	0	27	0	1118830592	70	4408
2026-01-14 09:57:41.49	332.63	26.10	-51.9	-53.5	14.7	0.00e+00	0	27	0	1120927744	70	4241
2026-01-14 09:57:42.34	332.65	25.96	-51.9	-53.5	14.7	0.00e+00	0	27	0	1121976320	70	4218
2026-01-14 09:57:43.48	332.68	25.77	-51.6	-53.1	14.7	0.00e+00	0	27	0	1124073472	69	4286
2026-01-14 09:57:44.33	332.70	25.63	-51.5	-53.1	14.8	0.00e+00	0	27	0	1126170624	69	4244
2026-01-14 09:57:45.47	332.73	25.45	-51.5	-53.1	14.8	0.00e+00	0	27	0	1128267776	69	4247
2026-01-14 09:57:46.32	332.76	25.31	-51.5	-53.0	14.8	0.00e+00	0	27	0	1130364928	69	4212
2026-01-14 09:57:47.45	332.78	25.13	-51.4	-52.9	14.8	0.00e+00	0	27	0	1132462080	69	4172
2026-01-14 09:57:48.30	332.81	25.00	-51.2	-52.7	14.9	0.00e+00	0	27	0	1133510656	69	4093
2026-01-14 09:57:49.44	332.83	24.82	-51.2	-52.8	14.7	0.00e+00	0	27	0	1135607808	68	4343
2026-01-14 09:57:50.30	332.86	24.68	-51.0	-52.4	14.9	0.00e+00	0	27	0	1137704960	68	4187
2026-01-14 09:57:51.43	332.88	24.51	-50.8	-52.3	14.9	0.00e+00	0	27	0	1139802112	68	4125
2026-01-14 09:57:52.29	332.91	24.38	-50.7	-52.2	15.0	0.00e+00	0	27	0	1140850688	68	4067
2026-01-14 09:57:53.42	332.93	24.20	-50.5	-51.9	14.9	0.00e+00	0	27	0	1142947840	67	4165
2026-01-14 09:57:54.28	332.95	24.07	-50.4	-51.8	14.9	0.00e+00	0	27	0	1145044992	67	4128
2026-01-14 09:57:55.42	332.98	23.90	-50.3	-51.7	15.0	0.00e+00	0	27	0	1147142144	67	4097
2026-01-14 09:57:56.27	333.00	23.77	-50.2	-51.6	14.9	0.00e+00	0	27	0	1148190720	66	4287
2026-01-14 09:57:57.41	333.03	23.60	-50.1	-51.5	14.9	0.00e+00	0	27	0	1150287872	66	4194
2026-01-14 09:57:58.26	333.05	23.47	-50.2	-51.6	14.9	0.00e+00	0	27	0	1152385024	66	4245
2026-01-14 09:57:59.40	333.08	23.30	-50.2	-51.6	14.9	0.00e+00	0	27	0	1154482176	66	4256
2026-01-14 09:58:00.26	333.10	23.17	-50.3	-51.7	14.9	0.00e+00	0	27	0	1155530752	66	4302
2026-01-14 09:58:01.39	333.12	23.01	-50.4	-51.8	14.8	0.00e+00	0	27	0	1157627904	66	4380
2026-01-14 09:58:02.24	333.14	22.88	-50.5	-52.0	14.7	0.00e+00	0	27	0	1159725056	66	4473
2026-01-14 09:58:03.38	333.17	22.72	-50.8	-52.3	14.6	0.00e+00	0	27	0	1161822208	66	4650
2026-01-14 09:58:04.24	333.19	22.60	-51.0	-52.5	14.7	0.00e+00	0	28	0	1163919360	67	4484
2026-01-14 09:58:05.38	333.21	22.43	-51.1	-52.6	14.7	0.00e+00	0	28	0	1166016512	67	4536
2026-01-14 09:58:06.24	333.23	22.31	-51.3	-52.9	14.6	0.00e+00	0	27	0	1167065088	67	4679
2026-01-14 09:58:07.38	333.25	22.15	-51.6	-53.2	14.6	0.00e+00	0	28	0	1169162240	68	4585
2026-01-14 09:58:08.23	333.27	22.03	-51.5	-53.1	14.6	0.00e+00	0	27	0	1171259392	68	4534
2026-01-14 09:58:09.37	333.30	21.87	-51.6	-53.2	14.6	0.00e+00	0	27	0	1173356544	68	4574
2026-01-14 09:58:10.22	333.32	21.75	-51.6	-53.3	14.6	0.00e+00	0	27	0	1174405120	68	4609
2026-01-14 09:58:11.35	333.34	21.59	-51.6	-53.2	14.5	0.00e+00	0	27	0	1176502272	68	4595
2026-01-14 09:58:12.20	333.36	21.47	-51.3	-52.9	14.7	0.00e+00	0	27	0	1178599424	68	4412
2026-01-14 09:58:13.33	333.38	21.32	-51.4	-52.9	14.7	0.00e+00	0	27	0	1180696576	68	4427
2026-01-14 09:58:14.19	333.40	21.20	-51.4	-53.0	14.6	0.00e+00	0	27	0	1181745152	68	4455
2026-01-14 09:58:15.32	333.42	21.05	-51.2	-52.8	14.7	0.00e+00	0	27	0	1183842304	68	4363
2026-01-14 09:58:16.17	333.44	20.93	-51.2	-52.8	14.7	0.00e+00	0	27	0	1185939456	68	4354
2026-01-14 09:58:17.31	333.46	20.78	-51.3	-52.9	14.7	0.00e+00	0	27	0	1188036608	68	4421
2026-01-14 09:58:18.16	333.48	20.67	-51.2	-52.8	14.7	0.00e+00	0	27	0	1189085184	68	4371
2026-01-14 09:58:19.30	333.50	20.51	-51.4	-53.0	14.7	0.00e+00	0	27	0	1191182336	68	4468
2026-01-14 09:58:20.15	333.52	20.40	-51.4	-53.0	14.6	0.00e+00	0	27	0	1193279488	68	4483
2026-01-14 09:58:21.28	333.54	20.25	-51.5	-53.1	14.6	0.00e+00	0	27	0	1195376640	68	4544
2026-01-14 09:58:22.13	333.56	20.14	-51.5	-53.1	14.6	0.00e+00	0	28	0	1197473792	68	4545
2026-01-14 09:58:23.27	333.58	19.99	-51.6	-53.3	14.5	0.00e+00	0	28	0	1199570944	68	4613
2026-01-14 09:58:24.12	333.60	19.88	-51.7	-53.4	14.5	0.00e+00	0	27	0	1200619520	68	4691
2026-01-14 09:58:25.25	333.62	19.74	-51.8	-53.5	14.5	0.00e+00	0	27	0	1202716672	68	4719
2026-01-14 09:58:26.11	333.64	19.63	-51.8	-53.5	14.4	0.00e+00	0	27	0	1204813824	68	4739
2026-01-14 09:58:27.23	333.66	19.48	-51.7	-53.3	14.5	0.00e+00	0	27	0	1206910976	68	4650
2026-01-14 09:58:28.09	333.68	19.38	-51.7	-53.4	14.5	0.00e+00	0	28	0	1207959552	68	4676
2026-01-14 09:58:29.24	333.70	19.23	-51.7	-53.4	14.5	0.00e+00	0	27	0	1210056704	68	4696
2026-01-14 09:58:30.09	333.71	19.12	-51.8	-53.5	14.5	0.00e+00	0	27	0	1212153856	68	4708
2026-01-14 09:58:31.22	333.73	18.98	-51.7	-53.4	14.5	0.00e+00	0	27	0	1214251008	68	4675
2026-01-14 09:58:32.08	333.75	18.87	-51.7	-53.4	14.5	0.00e+00	0	27	0	1215299584	68	4700
2026-01-14 09:58:33.22	333.77	18.73	-51.7	-53.4	14.5	0.00e+00	0	27	0	1217396736	68	4683
2026-01-14 09:58:34.07	333.79	18.63	-51.7	-53.4	14.5	0.00e+00	0	27	0	1219493888	68	4690
2026-01-14 09:58:35.20	333.81	18.49	-51.8	-53.5	14.5	0.00e+00	0	27	0	1221591040	68	4712
2026-01-14 09:58:36.05	333.82	18.39	-51.9	-53.6	14.4	0.00e+00	0	27	0	1222639616	68	4789
2026-01-14 09:58:37.19	333.84	18.25	-51.7	-53.4	14.5	0.00e+00	0	27	0	1224736768	68	4674
2026-01-14 09:58:38.04	333.86	18.15	-51.9	-53.6	14.4	0.00e+00	0	27	0	1226833920	68	4787
2026-01-14 09:58:39.18	333.88	18.01	-52.0	-53.8	14.4	0.00e+00	0	27	0	1228931072	69	4623
2026-01-14 09:58:40.03	333.89	17.91	-52.1	-53.8	14.4	0.00e+00	0	27	0	1231028224	69	4640
2026-01-14 09:58:41.16	333.91	17.77	-52.2	-53.9	14.4	0.00e+00	0	27	0	1233125376	69	4703
