passes_logs/2026/01/14/R3.2S_Murmansk/R3.2S_Murmansk__20260114_082757_NOAA_20_JPSS-1_rec.log

#Pass ID: 20260114_082757_NOAA 20 (JPSS-1)
#Satellite: NOAA 20 (JPSS-1)
#Configuration: NOAA 20
#almurnet v.1.7.20251203
#Start time: 2026-01-14 08:27:57

#Version: 2.2.20231116
#Station: R3.2S_Murmansk
#Location: 33.079688 lon 68.888172 lat
#TLE: 1 43013U 17073A   26013.84982170  .00000053  00000+0  46215-4 0  9999
#TLE: 2 43013  98.7633 314.8013 0001544  40.9009 319.2282 14.19535753422575

#Time	Az	El	Level	Level2	SNR	BER	BlckErr	Temp	State	Recorded	gain1	gain2
2026-01-14 08:27:57.65	126.85	2.00	-59.8	-75.9	3.8	1.49e+00	0	25	0	0	84	24872
2026-01-14 08:27:58.65	126.83	2.06	-59.8	-75.9	3.8	1.49e+00	0	25	104	0	84	24850
2026-01-14 08:27:59.64	126.81	2.12	-59.8	-75.9	3.8	1.49e+00	0	25	104	0	84	24842
2026-01-14 08:28:00.64	126.78	2.19	-59.8	-75.9	3.8	1.49e+00	0	25	104	0	84	24871
2026-01-14 08:28:01.64	126.76	2.25	-59.8	-75.9	3.8	1.49e+00	0	25	104	0	84	24895
2026-01-14 08:28:02.63	126.73	2.32	-59.8	-75.9	3.8	1.49e+00	0	25	104	0	84	24851
2026-01-14 08:28:03.62	126.71	2.38	-59.8	-75.9	3.8	1.49e+00	0	26	104	0	84	24877
2026-01-14 08:28:04.61	126.69	2.44	-59.8	-75.9	3.8	1.49e+00	0	25	104	0	84	24869
2026-01-14 08:28:05.61	126.66	2.51	-59.8	-75.9	3.8	1.49e+00	0	25	104	0	84	24786
2026-01-14 08:28:06.60	126.64	2.57	-59.8	-75.9	3.8	1.49e+00	0	25	104	0	84	24827
2026-01-14 08:28:07.59	126.61	2.63	-59.8	-75.9	3.8	1.49e+00	0	26	104	0	84	24796
2026-01-14 08:28:08.59	126.59	2.70	-59.8	-75.9	3.8	1.49e+00	0	26	104	0	84	24859
2026-01-14 08:28:09.58	126.56	2.76	-59.8	-75.9	3.8	1.49e+00	0	25	104	0	84	24883
2026-01-14 08:28:10.58	126.54	2.83	-59.8	-75.9	3.8	1.49e+00	0	26	104	0	84	24875
2026-01-14 08:28:11.57	126.51	2.89	-59.8	-75.9	3.8	1.49e+00	0	26	104	0	84	24794
2026-01-14 08:28:12.57	126.49	2.96	-59.8	-75.9	3.8	1.49e+00	0	26	104	0	84	24831
2026-01-14 08:28:13.57	126.46	3.02	-59.8	-75.9	3.8	1.49e+00	0	26	104	0	84	24806
2026-01-14 08:28:14.56	126.44	3.09	-59.8	-75.9	3.8	1.49e+00	0	26	104	0	84	24851
2026-01-14 08:28:15.56	126.41	3.15	-59.8	-75.9	3.8	1.49e+00	0	26	104	0	84	24868
2026-01-14 08:28:16.55	126.39	3.22	-59.8	-75.9	3.8	1.49e+00	0	26	104	0	84	24834
2026-01-14 08:28:17.55	126.36	3.29	-59.8	-75.9	3.8	1.49e+00	0	26	104	0	84	24839
2026-01-14 08:28:18.55	126.34	3.35	-59.8	-75.9	3.8	1.49e+00	0	26	104	0	84	24821
2026-01-14 08:28:19.54	126.31	3.42	-59.8	-75.9	3.8	1.49e+00	0	26	104	0	84	24861
2026-01-14 08:28:20.53	126.28	3.48	-59.8	-75.9	3.8	1.49e+00	0	26	104	0	84	24851
2026-01-14 08:28:21.53	126.26	3.55	-59.8	-75.9	3.8	1.49e+00	0	26	104	0	84	24840
2026-01-14 08:28:22.52	126.23	3.62	-59.8	-75.9	3.8	1.49e+00	0	26	104	0	84	24816
2026-01-14 08:28:23.52	126.21	3.68	-59.8	-75.9	3.9	1.49e+00	0	26	104	0	84	24779
2026-01-14 08:28:24.51	126.18	3.75	-59.8	-75.9	3.8	1.49e+00	0	26	104	0	84	24882
2026-01-14 08:28:25.50	126.15	3.82	-59.8	-75.9	3.8	1.49e+00	0	26	104	0	84	24823
2026-01-14 08:28:26.49	126.13	3.88	-59.8	-75.9	3.8	1.49e+00	0	26	104	0	84	24884
2026-01-14 08:28:27.48	126.10	3.95	-59.8	-75.9	3.8	1.49e+00	0	26	104	0	84	24885
2026-01-14 08:28:28.47	126.07	4.02	-59.8	-75.9	3.8	1.49e+00	0	26	104	0	84	24819
2026-01-14 08:28:29.47	126.04	4.08	-59.8	-75.9	3.8	1.49e+00	0	26	104	0	84	24787
2026-01-14 08:28:30.46	126.02	4.15	-59.8	-75.9	3.8	1.49e+00	0	26	104	0	84	24826
2026-01-14 08:28:31.46	125.99	4.22	-59.8	-75.9	3.8	1.49e+00	0	26	104	0	84	24821
2026-01-14 08:28:32.46	125.96	4.29	-59.8	-75.9	3.8	1.49e+00	0	26	104	0	84	24860
2026-01-14 08:28:33.45	125.93	4.36	-59.8	-75.9	3.8	1.49e+00	0	26	104	0	84	24853
2026-01-14 08:28:34.44	125.91	4.42	-59.8	-75.9	3.8	1.49e+00	0	26	104	0	84	24811
2026-01-14 08:28:35.43	125.88	4.49	-59.8	-75.9	3.8	1.49e+00	0	26	104	0	84	24829
2026-01-14 08:28:36.43	125.85	4.56	-59.8	-75.9	3.8	1.49e+00	0	26	104	0	84	24765
2026-01-14 08:28:37.43	125.82	4.63	-59.8	-75.9	3.8	1.49e+00	0	26	104	0	84	24813
2026-01-14 08:28:38.41	125.79	4.70	-59.8	-75.9	3.8	1.49e+00	0	26	104	0	84	24808
2026-01-14 08:28:39.41	125.76	4.77	-59.8	-75.9	3.8	1.49e+00	0	26	104	0	84	24887
2026-01-14 08:28:40.39	125.74	4.84	-59.8	-75.9	3.8	1.49e+00	0	26	104	0	84	24823
2026-01-14 08:28:41.39	125.71	4.91	-59.8	-75.9	3.8	1.49e+00	0	26	104	0	84	24835
2026-01-14 08:28:42.39	125.68	4.98	-59.8	-75.9	3.8	1.49e+00	0	26	104	0	84	24751
2026-01-14 08:28:43.39	125.65	5.05	-59.8	-75.9	3.8	1.49e+00	0	26	104	0	84	24783
2026-01-14 08:28:44.38	125.62	5.12	-59.8	-75.9	3.8	1.49e+00	0	26	104	0	84	24795
2026-01-14 08:28:45.37	125.59	5.19	-59.8	-75.9	3.8	1.49e+00	0	26	104	0	84	24759
2026-01-14 08:28:46.37	125.56	5.26	-59.8	-75.9	3.8	1.49e+00	0	26	104	0	84	24792
2026-01-14 08:28:47.36	125.53	5.33	-59.8	-75.9	3.8	1.49e+00	0	26	104	0	84	24778
2026-01-14 08:28:48.36	125.50	5.40	-59.8	-75.9	3.8	1.49e+00	0	26	104	0	84	24770
2026-01-14 08:28:49.35	125.47	5.47	-59.8	-75.9	3.8	1.49e+00	0	26	104	0	84	24747
2026-01-14 08:28:50.34	125.44	5.54	-59.8	-75.9	3.8	1.49e+00	0	26	104	0	84	24819
2026-01-14 08:28:51.35	125.41	5.61	-59.8	-75.9	3.8	1.49e+00	0	26	104	0	84	24762
2026-01-14 08:28:52.33	125.38	5.68	-59.8	-75.9	3.8	1.49e+00	0	26	104	0	84	24825
2026-01-14 08:28:53.33	125.35	5.76	-59.8	-75.9	3.8	1.49e+00	0	26	104	0	84	24854
2026-01-14 08:28:54.33	125.31	5.83	-59.8	-75.9	3.8	1.49e+00	0	26	104	0	84	24811
2026-01-14 08:28:55.32	125.28	5.90	-59.8	-75.8	3.8	1.49e+00	0	26	104	0	84	24683
2026-01-14 08:28:56.32	125.25	5.97	-59.8	-75.9	3.8	1.49e+00	0	26	104	0	84	24790
2026-01-14 08:28:57.32	125.22	6.05	-59.8	-75.9	3.8	1.49e+00	0	26	104	0	84	24805
2026-01-14 08:28:58.30	125.19	6.12	-59.8	-75.9	3.8	1.49e+00	0	27	104	0	84	24839
2026-01-14 08:28:59.29	125.16	6.19	-59.8	-75.9	3.8	1.49e+00	0	26	104	0	84	24794
2026-01-14 08:29:00.29	125.12	6.26	-59.8	-75.9	3.8	1.49e+00	0	27	104	0	84	24878
2026-01-14 08:29:01.28	125.09	6.34	-59.8	-75.9	3.8	1.49e+00	0	26	104	0	84	24765
2026-01-14 08:29:02.27	125.06	6.41	-59.8	-75.9	3.8	1.49e+00	0	26	104	0	84	24763
2026-01-14 08:29:03.27	125.03	6.48	-59.8	-75.9	3.8	1.49e+00	0	27	104	0	84	24733
2026-01-14 08:29:04.26	124.99	6.56	-59.8	-75.9	3.8	1.49e+00	0	27	104	0	84	24783
2026-01-14 08:29:05.25	124.96	6.63	-59.8	-75.9	3.8	1.49e+00	0	26	104	0	84	24837
2026-01-14 08:29:06.24	124.93	6.70	-59.8	-75.9	3.8	1.49e+00	0	27	104	0	84	24817
2026-01-14 08:29:07.23	124.89	6.78	-59.8	-75.9	3.8	1.49e+00	0	26	104	0	84	24794
2026-01-14 08:29:08.22	124.86	6.85	-59.8	-75.9	3.8	1.49e+00	0	27	104	0	84	24806
2026-01-14 08:29:09.21	124.83	6.93	-59.8	-75.9	3.8	1.49e+00	0	26	104	0	84	24814
2026-01-14 08:29:10.21	124.79	7.00	-59.8	-75.9	3.8	1.49e+00	0	27	104	0	84	24794
2026-01-14 08:29:11.21	124.76	7.08	-59.8	-75.9	3.8	1.49e+00	0	27	104	0	84	24781
2026-01-14 08:29:12.20	124.72	7.15	-59.8	-75.9	3.8	1.49e+00	0	26	104	0	84	24767
2026-01-14 08:29:13.20	124.69	7.23	-59.8	-75.9	3.8	1.49e+00	0	26	104	0	84	24790
2026-01-14 08:29:14.20	124.65	7.31	-59.8	-75.9	3.8	1.49e+00	0	27	104	0	84	24747
2026-01-14 08:29:15.20	124.62	7.38	-59.8	-75.9	3.8	1.49e+00	0	27	104	0	84	24765
2026-01-14 08:29:16.19	124.58	7.46	-59.8	-75.9	3.8	1.49e+00	0	26	104	0	84	24736
2026-01-14 08:29:17.19	124.55	7.54	-59.8	-75.9	3.8	1.49e+00	0	26	104	0	84	24713
2026-01-14 08:29:18.18	124.51	7.61	-59.8	-75.9	3.8	1.49e+00	0	27	104	0	84	24703
2026-01-14 08:29:19.17	124.48	7.69	-59.8	-75.8	3.8	1.49e+00	0	27	104	0	84	24673
2026-01-14 08:29:20.16	124.44	7.77	-59.8	-75.9	3.8	1.49e+00	0	27	104	0	84	24781
2026-01-14 08:29:21.15	124.41	7.84	-59.8	-75.9	3.8	1.49e+00	0	27	104	0	84	24733
2026-01-14 08:29:22.14	124.37	7.92	-59.8	-75.9	3.8	1.49e+00	0	27	104	0	84	24704
2026-01-14 08:29:23.13	124.33	8.00	-59.8	-75.9	3.8	1.49e+00	0	27	104	0	84	24748
2026-01-14 08:29:24.12	124.30	8.07	-59.8	-75.8	3.8	1.49e+00	0	27	104	0	84	24656
2026-01-14 08:29:25.12	124.26	8.15	-59.8	-75.8	3.8	1.49e+00	0	27	104	0	84	24652
2026-01-14 08:29:26.12	124.22	8.23	-59.8	-75.9	3.8	1.49e+00	0	27	104	0	84	24721
2026-01-14 08:29:27.11	124.18	8.31	-59.8	-75.9	3.8	1.49e+00	0	27	104	0	84	24710
2026-01-14 08:29:28.09	124.15	8.39	-59.8	-75.8	3.8	1.49e+00	0	27	104	0	84	24652
2026-01-14 08:29:29.08	124.11	8.47	-59.8	-75.9	3.8	1.49e+00	0	27	104	0	84	24701
2026-01-14 08:29:30.08	124.07	8.55	-59.8	-75.8	3.8	1.49e+00	0	27	104	0	84	24630
2026-01-14 08:29:31.08	124.03	8.63	-59.8	-75.8	3.8	1.49e+00	0	27	104	0	84	24670
2026-01-14 08:29:32.08	123.99	8.71	-59.8	-75.9	3.8	1.49e+00	0	27	104	0	84	24726
2026-01-14 08:29:33.07	123.96	8.79	-59.8	-75.9	3.8	1.49e+00	0	27	104	0	84	24738
2026-01-14 08:29:34.07	123.92	8.87	-59.8	-75.9	3.8	1.49e+00	0	27	104	0	84	24726
2026-01-14 08:29:35.07	123.88	8.95	-59.8	-75.9	3.8	1.49e+00	0	27	104	0	84	24738
2026-01-14 08:29:36.06	123.84	9.03	-59.8	-75.9	3.8	1.49e+00	0	27	104	0	84	24757
2026-01-14 08:29:37.05	123.80	9.11	-59.8	-75.9	3.8	1.49e+00	0	27	104	0	84	24733
2026-01-14 08:29:38.05	123.76	9.19	-59.8	-75.8	3.8	1.49e+00	0	27	104	0	84	24678
2026-01-14 08:29:39.05	123.72	9.28	-59.8	-75.9	3.8	1.49e+00	0	27	104	0	84	24744
2026-01-14 08:29:40.05	123.68	9.36	-59.8	-75.9	3.8	1.49e+00	0	27	104	0	84	24732
2026-01-14 08:29:41.04	123.64	9.44	-59.8	-75.9	3.8	1.49e+00	0	27	104	0	84	24761
2026-01-14 08:29:42.03	123.59	9.52	-59.8	-75.9	3.8	1.49e+00	0	27	104	0	84	24737
2026-01-14 08:29:43.04	123.55	9.61	-59.8	-75.9	3.8	1.49e+00	0	27	104	0	84	24721
2026-01-14 08:29:44.03	123.51	9.69	-59.8	-75.9	3.8	1.49e+00	0	27	104	0	84	24737
2026-01-14 08:29:45.03	123.47	9.77	-59.8	-75.8	3.8	1.49e+00	0	27	104	0	84	24683
2026-01-14 08:29:46.02	123.43	9.86	-59.8	-75.8	3.8	1.49e+00	0	27	104	0	84	24684
2026-01-14 08:29:47.01	123.39	9.94	-59.8	-75.9	3.8	1.49e+00	0	27	104	0	84	24734
2026-01-14 08:29:48.01	123.34	10.02	-59.8	-75.8	3.8	1.49e+00	0	27	104	0	84	24688
2026-01-14 08:29:49.01	123.30	10.11	-59.8	-75.9	3.8	1.49e+00	0	27	104	0	84	24723
2026-01-14 08:29:50.00	123.26	10.19	-59.8	-75.9	3.8	1.49e+00	0	27	104	0	84	24729
2026-01-14 08:29:51.00	123.21	10.28	-59.8	-75.8	3.8	1.49e+00	0	27	104	0	84	24655
2026-01-14 08:29:51.99	123.17	10.36	-59.8	-75.8	3.8	1.49e+00	0	27	104	0	84	24654
2026-01-14 08:29:52.99	123.13	10.45	-59.8	-75.8	3.8	1.49e+00	0	27	104	0	84	24640
2026-01-14 08:29:53.98	123.08	10.53	-59.8	-75.8	3.8	1.49e+00	0	27	104	0	84	24683
2026-01-14 08:29:54.97	123.04	10.62	-59.8	-75.8	3.8	1.49e+00	0	27	104	0	84	24658
2026-01-14 08:29:55.96	122.99	10.71	-59.8	-75.9	3.8	1.49e+00	0	27	104	0	84	24710
2026-01-14 08:29:56.96	122.95	10.79	-59.8	-75.9	3.8	1.49e+00	0	27	104	0	84	24761
2026-01-14 08:29:57.96	122.90	10.88	-59.8	-75.9	3.8	1.49e+00	0	27	104	0	84	24706
2026-01-14 08:29:58.95	122.86	10.97	-59.8	-75.9	3.8	1.49e+00	0	27	104	0	84	24748
2026-01-14 08:29:59.95	122.81	11.06	-59.8	-75.8	3.8	1.49e+00	0	27	104	0	84	24690
2026-01-14 08:30:00.94	122.76	11.14	-59.8	-75.8	3.8	1.49e+00	0	27	104	0	84	24692
2026-01-14 08:30:01.93	122.72	11.23	-59.8	-75.9	3.8	1.49e+00	0	27	104	0	84	24706
2026-01-14 08:30:02.92	122.67	11.32	-59.8	-75.8	3.9	1.49e+00	0	27	104	0	84	24665
2026-01-14 08:30:03.92	122.62	11.41	-59.8	-75.9	3.8	1.49e+00	0	27	104	0	84	24716
2026-01-14 08:30:04.91	122.58	11.50	-59.8	-75.9	3.8	1.49e+00	0	27	104	0	84	24699
2026-01-14 08:30:05.90	122.53	11.59	-59.8	-75.9	3.8	1.49e+00	0	27	104	0	84	24741
2026-01-14 08:30:06.89	122.48	11.67	-59.8	-75.9	3.8	1.49e+00	0	27	104	0	84	24715
2026-01-14 08:30:07.89	122.43	11.76	-59.8	-75.9	3.8	1.49e+00	0	27	104	0	84	24719
2026-01-14 08:30:08.89	122.38	11.86	-59.8	-75.8	3.8	1.49e+00	0	27	104	0	84	24657
2026-01-14 08:30:09.89	122.34	11.95	-59.8	-75.9	3.8	1.49e+00	0	27	104	0	84	24726
2026-01-14 08:30:10.89	122.29	12.04	-59.8	-75.9	3.8	1.49e+00	0	27	104	0	84	24757
2026-01-14 08:30:11.89	122.24	12.13	-59.8	-75.8	3.8	1.49e+00	0	27	104	0	84	24667
2026-01-14 08:30:12.89	122.19	12.22	-59.8	-75.9	3.8	1.49e+00	0	27	104	0	84	24749
2026-01-14 08:30:13.88	122.14	12.31	-59.8	-75.8	3.8	1.49e+00	0	27	104	0	84	24693
2026-01-14 08:30:14.86	122.09	12.40	-59.8	-75.8	3.8	1.49e+00	0	27	104	0	84	24662
2026-01-14 08:30:15.86	122.03	12.50	-59.8	-75.8	3.8	1.49e+00	0	27	104	0	84	24658
2026-01-14 08:30:16.85	121.98	12.59	-59.8	-75.8	3.8	1.49e+00	0	27	104	0	84	24654
2026-01-14 08:30:17.85	121.93	12.68	-59.8	-75.8	3.8	1.49e+00	0	27	104	0	84	24636
2026-01-14 08:30:18.84	121.88	12.77	-59.8	-75.8	3.8	1.49e+00	0	27	104	0	84	24636
2026-01-14 08:30:19.84	121.83	12.87	-59.8	-75.8	3.8	1.49e+00	0	27	104	0	84	24677
2026-01-14 08:30:20.83	121.77	12.96	-59.8	-75.8	3.8	1.49e+00	0	27	104	0	84	24644
2026-01-14 08:30:21.83	121.72	13.06	-59.8	-75.8	3.8	1.49e+00	0	27	104	0	84	24628
2026-01-14 08:30:22.83	121.67	13.15	-59.8	-75.8	3.8	1.49e+00	0	27	104	0	84	24599
2026-01-14 08:30:23.82	121.61	13.25	-59.8	-75.8	3.8	1.49e+00	0	27	104	0	84	24617
2026-01-14 08:30:24.81	121.56	13.34	-59.8	-75.8	3.8	1.49e+00	0	27	104	0	84	24587
2026-01-14 08:30:25.80	121.51	13.44	-59.8	-75.8	3.8	1.49e+00	0	27	104	0	84	24636
2026-01-14 08:30:26.80	121.45	13.53	-59.8	-75.8	3.8	1.49e+00	0	27	104	0	84	24665
2026-01-14 08:30:27.79	121.40	13.63	-59.8	-75.8	3.8	1.49e+00	0	27	104	0	84	24607
2026-01-14 08:30:28.78	121.34	13.73	-59.8	-75.8	3.8	1.49e+00	0	27	104	0	84	24628
2026-01-14 08:30:29.77	121.29	13.82	-59.8	-75.8	3.8	1.49e+00	0	27	104	0	84	24649
2026-01-14 08:30:30.76	121.23	13.92	-59.8	-75.8	3.8	1.49e+00	0	27	104	0	84	24667
2026-01-14 08:30:31.76	121.17	14.02	-59.8	-75.8	3.8	1.49e+00	0	27	104	0	84	24628
2026-01-14 08:30:32.75	121.12	14.12	-59.8	-75.8	3.8	1.49e+00	0	27	104	0	84	24604
2026-01-14 08:30:33.74	121.06	14.22	-59.8	-75.8	3.8	1.49e+00	0	27	104	0	84	24642
2026-01-14 08:30:34.73	121.00	14.31	-59.8	-75.8	3.8	1.49e+00	0	27	104	0	84	24614
2026-01-14 08:30:35.73	120.94	14.41	-59.8	-75.8	3.8	1.49e+00	0	27	104	0	84	24655
2026-01-14 08:30:36.72	120.88	14.51	-59.8	-75.8	3.8	1.49e+00	0	27	104	0	84	24659
2026-01-14 08:30:37.71	120.82	14.61	-59.8	-75.8	3.8	1.49e+00	0	27	104	0	84	24633
2026-01-14 08:30:38.70	120.76	14.71	-59.8	-75.8	3.8	1.49e+00	0	27	104	0	84	24613
2026-01-14 08:30:39.70	120.70	14.81	-59.8	-75.8	3.8	1.49e+00	0	27	104	0	84	24631
2026-01-14 08:30:40.70	120.64	14.92	-59.8	-75.8	3.8	1.49e+00	0	27	104	0	84	24680
2026-01-14 08:30:41.69	120.58	15.02	-59.8	-75.8	3.8	1.49e+00	0	27	104	0	84	24611
2026-01-14 08:30:42.69	120.52	15.12	-59.8	-75.8	3.8	1.49e+00	0	27	104	0	84	24644
2026-01-14 08:30:43.69	120.46	15.22	-59.8	-75.9	3.8	1.49e+00	0	27	104	0	84	24697
2026-01-14 08:30:44.68	120.40	15.33	-59.8	-75.9	3.8	1.49e+00	0	27	104	0	84	24727
2026-01-14 08:30:45.67	120.33	15.43	-59.8	-75.9	3.8	1.49e+00	0	27	104	0	84	24724
2026-01-14 08:30:46.65	120.27	15.53	-59.8	-75.8	3.8	1.49e+00	0	27	104	0	84	24649
2026-01-14 08:30:47.65	120.21	15.63	-59.8	-75.8	3.8	1.49e+00	0	27	104	0	84	24651
2026-01-14 08:30:48.65	120.14	15.74	-59.8	-75.8	3.8	1.49e+00	0	27	104	0	84	24640
2026-01-14 08:30:49.64	120.08	15.84	-59.8	-75.8	3.8	1.49e+00	0	27	104	0	84	24643
2026-01-14 08:30:50.64	120.01	15.95	-59.7	-75.8	3.8	1.49e+00	0	27	104	0	84	24647
2026-01-14 08:30:51.63	119.95	16.06	-59.7	-75.8	3.8	1.49e+00	0	27	104	0	84	24608
2026-01-14 08:30:52.63	119.88	16.16	-59.7	-75.8	3.8	1.49e+00	0	27	104	0	84	24596
2026-01-14 08:30:53.62	119.82	16.27	-59.8	-75.8	3.8	1.49e+00	0	27	104	0	84	24633
2026-01-14 08:30:54.62	119.75	16.38	-59.7	-75.8	3.8	1.49e+00	0	27	104	0	84	24603
2026-01-14 08:30:55.61	119.68	16.48	-59.7	-75.8	3.8	1.49e+00	0	27	104	0	84	24558
2026-01-14 08:30:56.61	119.61	16.59	-59.7	-75.8	3.8	1.49e+00	0	27	104	0	84	24598
2026-01-14 08:30:57.61	119.54	16.70	-59.8	-75.8	3.8	1.49e+00	0	27	104	0	84	24662
2026-01-14 08:30:58.60	119.48	16.81	-59.8	-75.8	3.8	1.49e+00	0	27	104	0	84	24627
2026-01-14 08:30:59.60	119.41	16.92	-59.8	-75.8	3.8	1.49e+00	0	27	104	0	84	24656
2026-01-14 08:31:00.59	119.34	17.03	-59.8	-75.8	3.8	1.49e+00	0	27	104	0	84	24665
2026-01-14 08:31:01.58	119.27	17.14	-59.8	-75.8	3.8	1.49e+00	0	27	104	0	84	24673
2026-01-14 08:31:02.58	119.19	17.25	-59.8	-75.9	3.8	1.49e+00	0	27	104	0	84	24732
2026-01-14 08:31:03.58	119.12	17.36	-59.8	-75.8	3.8	1.49e+00	0	27	104	0	84	24591
2026-01-14 08:31:04.58	119.05	17.47	-59.8	-75.8	3.8	1.49e+00	0	27	104	0	84	24595
2026-01-14 08:31:05.56	118.98	17.58	-59.8	-75.8	3.8	1.49e+00	0	27	104	0	84	24686
2026-01-14 08:31:06.56	118.90	17.69	-59.8	-75.8	3.8	1.49e+00	0	27	104	0	84	24687
2026-01-14 08:31:07.54	118.83	17.81	-59.8	-75.8	3.8	1.49e+00	0	27	104	0	84	24682
2026-01-14 08:31:08.54	118.76	17.92	-59.8	-75.8	3.8	1.49e+00	0	27	104	0	84	24644
2026-01-14 08:31:09.53	118.68	18.03	-59.8	-75.8	3.8	1.49e+00	0	27	104	0	84	24628
2026-01-14 08:31:10.53	118.61	18.15	-59.8	-75.8	3.8	1.49e+00	0	27	104	0	84	24579
2026-01-14 08:31:11.52	118.53	18.26	-59.8	-75.8	3.8	1.49e+00	0	27	104	0	84	24666
2026-01-14 08:31:12.52	118.45	18.38	-59.7	-75.8	3.8	1.49e+00	0	27	104	0	84	24577
2026-01-14 08:31:13.52	118.37	18.49	-59.8	-75.8	3.8	1.49e+00	0	27	104	0	84	24583
2026-01-14 08:31:14.52	118.30	18.61	-59.7	-75.8	3.8	1.49e+00	0	27	104	0	84	24634
2026-01-14 08:31:15.52	118.22	18.73	-59.8	-75.8	3.8	1.49e+00	0	27	104	0	84	24626
2026-01-14 08:31:16.51	118.14	18.84	-59.8	-75.8	3.8	1.49e+00	0	27	104	0	84	24615
2026-01-14 08:31:17.50	118.06	18.96	-59.8	-75.8	3.8	1.49e+00	0	27	104	0	84	24617
2026-01-14 08:31:18.49	117.98	19.08	-59.8	-75.8	3.8	1.49e+00	0	27	104	0	84	24659
2026-01-14 08:31:19.48	117.90	19.20	-59.8	-75.8	3.8	1.49e+00	0	27	104	0	84	24639
2026-01-14 08:31:20.48	117.81	19.32	-59.8	-75.8	3.8	1.49e+00	0	27	104	0	84	24608
2026-01-14 08:31:21.47	117.73	19.44	-59.8	-75.8	3.8	1.49e+00	0	27	104	0	84	24682
2026-01-14 08:31:22.46	117.65	19.56	-59.8	-75.8	3.8	1.49e+00	0	27	104	0	84	24671
2026-01-14 08:31:23.45	117.57	19.68	-59.8	-75.8	3.8	1.49e+00	0	27	104	0	84	24636
2026-01-14 08:31:24.44	117.48	19.80	-59.7	-75.8	3.8	1.49e+00	0	27	104	0	84	24603
2026-01-14 08:31:25.43	117.40	19.92	-59.7	-75.8	3.8	1.49e+00	0	27	104	0	84	24609
2026-01-14 08:31:26.42	117.31	20.04	-59.8	-75.8	3.8	1.49e+00	0	27	104	0	84	24609
2026-01-14 08:31:27.41	117.22	20.16	-59.8	-75.8	3.8	1.49e+00	0	27	104	0	84	24652
2026-01-14 08:31:28.41	117.14	20.28	-59.8	-75.8	3.8	1.49e+00	0	27	104	0	84	24643
2026-01-14 08:31:29.41	117.05	20.41	-59.7	-75.8	3.8	1.49e+00	0	27	104	0	84	24581
2026-01-14 08:31:30.40	116.96	20.53	-59.7	-75.8	3.8	1.49e+00	0	27	104	0	84	24593
2026-01-14 08:31:31.39	116.87	20.66	-59.7	-75.8	3.8	1.49e+00	0	27	104	0	84	24603
2026-01-14 08:31:32.38	116.78	20.78	-59.7	-75.8	3.8	1.49e+00	0	27	104	0	84	24583
2026-01-14 08:31:33.38	116.69	20.91	-59.7	-75.8	3.8	1.49e+00	0	27	104	0	84	24586
2026-01-14 08:31:34.37	116.60	21.03	-59.7	-75.8	3.8	1.49e+00	0	27	104	0	84	24550
2026-01-14 08:31:35.37	116.50	21.16	-59.7	-75.8	3.8	1.49e+00	0	27	104	0	84	24542
2026-01-14 08:31:36.36	116.41	21.29	-59.7	-75.8	3.8	1.49e+00	0	27	104	0	84	24573
2026-01-14 08:31:37.36	116.32	21.42	-59.7	-75.8	3.8	1.49e+00	0	27	104	0	84	24520
2026-01-14 08:31:38.35	116.22	21.55	-59.7	-75.8	3.8	1.49e+00	0	27	104	0	84	24628
2026-01-14 08:31:39.34	116.13	21.68	-59.7	-75.8	3.8	1.49e+00	0	27	104	0	84	24627
2026-01-14 08:31:40.33	116.03	21.80	-59.7	-75.8	3.8	1.49e+00	0	27	104	0	84	24578
2026-01-14 08:31:41.32	115.93	21.93	-59.7	-75.8	3.8	1.49e+00	0	27	104	0	84	24541
2026-01-14 08:31:42.31	115.83	22.06	-59.7	-75.8	3.8	1.49e+00	0	27	104	0	84	24559
2026-01-14 08:31:43.31	115.73	22.20	-59.7	-75.8	3.8	1.49e+00	0	27	104	0	84	24618
2026-01-14 08:31:44.31	115.63	22.33	-59.8	-75.8	3.8	1.49e+00	0	27	104	0	84	24583
2026-01-14 08:31:45.29	115.53	22.46	-59.8	-75.8	3.8	1.49e+00	0	27	104	0	84	24612
2026-01-14 08:31:46.28	115.43	22.59	-59.7	-75.8	3.8	1.49e+00	0	27	104	0	84	24619
2026-01-14 08:31:47.27	115.33	22.73	-59.7	-75.8	3.8	1.49e+00	0	27	104	0	84	24596
2026-01-14 08:31:48.27	115.22	22.86	-59.8	-75.8	3.8	1.49e+00	0	27	104	0	84	24535
2026-01-14 08:31:49.25	115.12	23.00	-59.7	-75.8	3.8	1.49e+00	0	27	104	0	84	24620
2026-01-14 08:31:50.25	115.02	23.13	-59.7	-75.8	3.8	1.49e+00	0	27	104	0	84	24553
2026-01-14 08:31:51.25	114.91	23.27	-59.7	-75.8	3.8	1.49e+00	0	27	104	0	84	24489
2026-01-14 08:31:52.26	114.80	23.41	-59.7	-75.8	3.8	1.49e+00	0	27	104	0	84	24525
2026-01-14 08:31:53.26	114.69	23.55	-59.7	-75.8	3.8	1.49e+00	0	27	104	0	84	24516
2026-01-14 08:31:54.25	114.58	23.68	-59.7	-75.8	3.8	1.49e+00	0	27	104	0	84	24471
2026-01-14 08:31:55.24	114.47	23.82	-59.7	-75.8	3.8	1.49e+00	0	27	104	0	84	24507
2026-01-14 08:31:56.24	114.36	23.96	-59.7	-75.8	3.8	1.49e+00	0	27	104	0	84	24604
2026-01-14 08:31:57.23	114.25	24.10	-59.7	-75.8	3.8	1.49e+00	0	27	104	0	84	24570
2026-01-14 08:31:58.23	114.13	24.24	-59.7	-75.8	3.8	1.49e+00	0	27	104	0	84	24510
2026-01-14 08:31:59.22	114.02	24.38	-59.7	-75.8	3.8	1.49e+00	0	27	104	0	84	24574
2026-01-14 08:32:00.22	113.90	24.53	-59.7	-75.8	3.8	1.49e+00	0	27	104	0	84	24578
2026-01-14 08:32:01.22	113.78	24.67	-59.7	-75.8	3.8	1.49e+00	0	27	104	0	84	24452
2026-01-14 08:32:02.21	113.67	24.81	-59.7	-75.8	3.8	1.49e+00	0	27	104	0	84	24536
2026-01-14 08:32:03.20	113.55	24.96	-59.7	-75.8	3.8	1.49e+00	0	27	104	0	84	24614
2026-01-14 08:32:04.20	113.43	25.10	-59.7	-75.8	3.8	1.49e+00	0	27	104	0	84	24550
2026-01-14 08:32:05.19	113.31	25.25	-59.7	-75.8	3.8	1.49e+00	0	27	104	0	84	24574
2026-01-14 08:32:06.18	113.18	25.39	-59.7	-75.8	3.8	1.49e+00	0	27	104	0	84	24499
2026-01-14 08:32:07.17	113.06	25.54	-59.7	-75.8	3.8	1.49e+00	0	27	104	0	84	24588
2026-01-14 08:32:08.16	112.94	25.68	-59.7	-75.8	3.8	1.49e+00	0	27	104	0	84	24569
2026-01-14 08:32:09.15	112.81	25.83	-59.7	-75.8	3.8	1.49e+00	0	27	104	0	84	24516
2026-01-14 08:32:10.15	112.68	25.98	-59.7	-75.8	3.8	1.49e+00	0	27	104	0	84	24523
2026-01-14 08:32:11.14	112.56	26.13	-59.7	-75.8	3.8	1.49e+00	0	27	104	0	84	24529
2026-01-14 08:32:12.12	112.43	26.28	-59.7	-75.8	3.8	1.49e+00	0	27	104	0	84	24530
2026-01-14 08:32:13.11	112.30	26.43	-59.7	-75.8	3.8	1.49e+00	0	27	104	0	84	24517
2026-01-14 08:32:14.11	112.17	26.58	-59.7	-75.8	3.8	1.49e+00	0	27	104	0	84	24524
2026-01-14 08:32:15.10	112.03	26.73	-59.7	-75.8	3.8	1.49e+00	0	27	104	0	84	24587
2026-01-14 08:32:16.09	111.90	26.88	-59.7	-75.8	3.8	1.49e+00	0	27	104	0	84	24541
2026-01-14 08:32:17.08	111.76	27.03	-59.7	-75.8	3.8	1.49e+00	0	27	104	0	84	24567
2026-01-14 08:32:18.08	111.62	27.19	-59.7	-75.8	3.8	1.49e+00	0	27	104	0	84	24564
2026-01-14 08:32:19.08	111.49	27.34	-59.7	-75.8	3.8	1.49e+00	0	27	104	0	84	24564
2026-01-14 08:32:20.08	111.34	27.50	-59.7	-75.8	3.8	1.49e+00	0	27	104	0	84	24578
2026-01-14 08:32:21.08	111.20	27.66	-59.7	-75.8	3.8	1.49e+00	0	27	104	0	84	24497
2026-01-14 08:32:22.06	111.06	27.81	-59.7	-75.8	3.8	1.49e+00	0	27	104	0	84	24582
2026-01-14 08:32:23.05	110.92	27.97	-59.7	-75.8	3.8	1.49e+00	0	27	104	0	84	24467
2026-01-14 08:32:24.05	110.77	28.13	-59.7	-75.8	3.8	1.49e+00	0	27	104	0	84	24551
2026-01-14 08:32:25.04	110.62	28.29	-59.7	-75.8	3.8	1.49e+00	0	27	104	0	84	24582
2026-01-14 08:32:26.04	110.47	28.45	-59.7	-75.8	3.8	1.49e+00	0	27	104	0	84	24526
2026-01-14 08:32:27.04	110.32	28.61	-59.7	-75.8	3.8	1.49e+00	0	27	104	0	84	24540
2026-01-14 08:32:28.04	110.17	28.77	-59.7	-75.8	3.8	1.49e+00	0	27	104	0	84	24527
2026-01-14 08:32:29.03	110.02	28.93	-59.7	-75.8	3.8	1.49e+00	0	27	104	0	84	24497
2026-01-14 08:32:30.02	109.86	29.09	-59.7	-75.8	3.8	1.49e+00	0	27	104	0	84	24579
2026-01-14 08:32:31.02	109.71	29.25	-59.7	-75.8	3.8	1.49e+00	0	27	104	0	84	24507
2026-01-14 08:32:32.02	109.55	29.42	-59.7	-75.8	3.8	1.49e+00	0	27	104	0	84	24539
2026-01-14 08:32:33.01	109.39	29.58	-59.7	-75.8	3.8	1.49e+00	0	27	104	0	84	24511
2026-01-14 08:32:34.00	109.23	29.75	-59.7	-75.8	3.8	1.49e+00	0	27	104	0	84	24562
2026-01-14 08:32:35.00	109.06	29.91	-59.7	-75.8	3.8	1.49e+00	0	27	104	0	84	24489
2026-01-14 08:32:35.99	108.90	30.08	-59.7	-75.8	3.8	1.49e+00	0	27	104	0	84	24539
2026-01-14 08:32:36.99	108.73	30.25	-59.7	-75.8	3.8	1.49e+00	0	27	104	0	84	24517
2026-01-14 08:32:37.99	108.56	30.41	-59.7	-75.8	3.8	1.49e+00	0	27	104	0	84	24483
2026-01-14 08:32:38.98	108.39	30.58	-59.7	-75.8	3.8	1.49e+00	0	27	104	0	84	24559
2026-01-14 08:32:39.98	108.22	30.75	-59.7	-75.8	3.8	1.49e+00	0	27	104	0	84	24561
2026-01-14 08:32:40.97	108.05	30.92	-59.7	-75.8	3.8	1.49e+00	0	27	104	0	84	24468
2026-01-14 08:32:41.96	107.87	31.09	-59.7	-75.8	3.8	1.49e+00	0	27	104	0	84	24542
2026-01-14 08:32:42.95	107.69	31.26	-59.7	-75.8	3.8	1.49e+00	0	27	104	0	84	24513
2026-01-14 08:32:43.94	107.52	31.43	-59.7	-75.8	3.8	1.49e+00	0	27	104	0	84	24420
2026-01-14 08:32:44.93	107.33	31.60	-59.7	-75.8	3.8	1.49e+00	0	27	104	0	84	24478
2026-01-14 08:32:45.93	107.15	31.78	-59.7	-75.8	3.8	1.49e+00	0	27	104	0	84	24532
2026-01-14 08:32:46.92	106.97	31.95	-59.7	-75.8	3.8	1.49e+00	0	27	104	0	84	24520
2026-01-14 08:32:47.92	106.78	32.13	-59.7	-75.8	3.8	1.49e+00	0	27	104	0	84	24471
2026-01-14 08:32:48.93	106.58	32.30	-59.7	-75.8	3.8	1.49e+00	0	27	104	0	84	24564
2026-01-14 08:32:49.92	106.39	32.48	-59.7	-75.8	3.8	1.49e+00	0	27	104	0	84	24523
2026-01-14 08:32:50.92	106.20	32.66	-59.7	-75.8	3.8	1.49e+00	0	27	104	0	84	24558
2026-01-14 08:32:51.92	106.00	32.84	-59.7	-75.8	3.8	1.49e+00	0	27	104	0	84	24533
2026-01-14 08:32:52.92	105.80	33.01	-59.7	-75.8	3.8	1.49e+00	0	27	104	0	84	24456
2026-01-14 08:32:53.91	105.60	33.19	-59.7	-75.8	3.8	1.49e+00	0	27	104	0	84	24475
2026-01-14 08:32:54.90	105.40	33.37	-59.7	-75.8	3.8	1.49e+00	0	27	104	0	84	24480
2026-01-14 08:32:55.89	105.20	33.55	-59.7	-75.8	3.8	1.49e+00	0	27	104	0	84	24452
2026-01-14 08:32:56.89	104.99	33.73	-59.7	-75.8	3.8	1.49e+00	0	27	104	0	84	24520
2026-01-14 08:32:57.88	104.78	33.91	-59.7	-75.8	3.8	1.49e+00	0	27	104	0	84	24529
2026-01-14 08:32:58.87	104.57	34.09	-59.7	-75.8	3.8	1.49e+00	0	27	104	0	84	24537
2026-01-14 08:32:59.85	104.36	34.27	-59.7	-75.8	3.8	1.49e+00	0	27	104	0	84	24511
2026-01-14 08:33:00.84	104.14	34.45	-59.7	-75.8	3.8	1.49e+00	0	27	104	0	84	24522
2026-01-14 08:33:01.84	103.92	34.64	-59.7	-75.8	3.8	1.49e+00	0	27	104	0	84	24531
2026-01-14 08:33:02.83	103.70	34.82	-59.7	-75.8	3.8	1.49e+00	0	27	104	0	84	24528
2026-01-14 08:33:03.81	103.48	35.00	-59.7	-75.8	3.8	1.49e+00	0	27	104	0	84	24534
2026-01-14 08:33:04.80	103.25	35.19	-59.7	-75.8	3.8	1.49e+00	0	27	104	0	84	24581
2026-01-14 08:33:05.80	103.02	35.37	-59.7	-75.8	3.8	1.49e+00	0	27	104	0	84	24489
2026-01-14 08:33:06.80	102.79	35.56	-59.7	-75.8	3.8	1.49e+00	0	27	104	0	84	24527
2026-01-14 08:33:07.80	102.55	35.75	-59.7	-75.8	3.8	1.49e+00	0	27	104	0	84	24548
2026-01-14 08:33:08.79	102.32	35.94	-59.7	-75.8	3.9	1.49e+00	0	27	104	0	84	24566
2026-01-14 08:33:09.78	102.08	36.12	-59.7	-75.8	3.8	1.49e+00	0	27	104	0	84	24538
2026-01-14 08:33:10.78	101.83	36.31	-59.7	-75.8	3.8	1.49e+00	0	27	104	0	84	24508
2026-01-14 08:33:11.77	101.59	36.50	-59.7	-75.8	3.8	1.49e+00	0	27	104	0	84	24538
2026-01-14 08:33:12.77	101.34	36.69	-59.7	-75.7	3.8	1.49e+00	0	27	104	0	84	24408
2026-01-14 08:33:13.76	101.09	36.88	-59.7	-75.8	3.8	1.49e+00	0	27	104	0	84	24481
2026-01-14 08:33:14.75	100.84	37.07	-59.7	-75.8	3.8	1.49e+00	0	27	104	0	84	24568
2026-01-14 08:33:15.74	100.58	37.26	-59.7	-75.8	3.8	1.49e+00	0	27	104	0	84	24579
2026-01-14 08:33:16.74	100.32	37.45	-59.7	-75.8	3.8	1.49e+00	0	27	104	0	84	24464
2026-01-14 08:33:17.74	100.05	37.64	-59.7	-75.8	3.8	1.49e+00	0	27	104	0	84	24533
2026-01-14 08:33:18.73	99.78	37.84	-59.7	-75.8	3.8	1.49e+00	0	27	104	0	84	24489
2026-01-14 08:33:19.72	99.52	38.03	-59.7	-75.8	3.8	1.49e+00	0	27	104	0	84	24490
2026-01-14 08:33:20.71	99.24	38.22	-59.7	-75.8	3.8	1.49e+00	0	27	104	0	84	24483
2026-01-14 08:33:21.70	98.97	38.41	-59.7	-75.8	3.8	1.49e+00	0	27	104	0	84	24440
2026-01-14 08:33:22.69	98.69	38.60	-59.7	-75.8	3.8	1.49e+00	0	27	104	0	84	24452
2026-01-14 08:33:23.69	98.40	38.80	-59.7	-75.8	3.8	1.49e+00	0	27	104	0	84	24436
2026-01-14 08:33:24.68	98.12	38.99	-59.7	-75.8	3.8	1.49e+00	0	27	104	0	84	24521
2026-01-14 08:33:25.68	97.83	39.19	-59.7	-75.8	3.8	1.49e+00	0	27	104	0	84	24498
2026-01-14 08:33:26.68	97.53	39.38	-59.7	-75.8	3.8	1.49e+00	0	27	104	0	84	24502
2026-01-14 08:33:27.67	97.23	39.58	-59.7	-75.8	3.8	1.49e+00	0	27	104	0	84	24425
2026-01-14 08:33:28.68	96.93	39.77	-59.7	-75.8	3.8	1.49e+00	0	27	104	0	84	24489
2026-01-14 08:33:29.66	96.63	39.97	-59.7	-75.8	3.8	1.49e+00	0	27	104	0	84	24525
2026-01-14 08:33:30.66	96.32	40.16	-59.7	-75.8	3.8	1.49e+00	0	27	104	0	84	24430
2026-01-14 08:33:31.65	96.01	40.36	-59.7	-75.8	3.8	1.49e+00	0	27	104	0	84	24462
2026-01-14 08:33:32.65	95.69	40.55	-59.7	-75.8	3.8	1.49e+00	0	27	104	0	84	24555
2026-01-14 08:33:33.64	95.37	40.75	-59.7	-75.8	3.8	1.49e+00	0	27	104	0	84	24474
2026-01-14 08:33:34.64	95.04	40.94	-59.7	-75.8	3.8	1.49e+00	0	27	104	0	84	24497
2026-01-14 08:33:35.63	94.72	41.14	-59.7	-75.8	3.8	1.49e+00	0	27	104	0	84	24413
2026-01-14 08:33:36.61	94.39	41.33	-59.7	-75.8	3.8	1.49e+00	0	27	104	0	84	24464
2026-01-14 08:33:37.61	94.05	41.53	-59.7	-75.8	3.8	1.49e+00	0	27	104	0	84	24478
2026-01-14 08:33:38.61	93.71	41.72	-59.7	-75.8	3.8	1.49e+00	0	27	104	0	84	24459
2026-01-14 08:33:39.60	93.37	41.92	-59.7	-75.8	3.8	1.49e+00	0	27	104	0	84	24491
2026-01-14 08:33:40.60	93.02	42.11	-59.7	-75.8	3.8	1.49e+00	0	27	104	0	84	24456
2026-01-14 08:33:41.59	92.67	42.31	-59.7	-75.8	3.8	1.49e+00	0	27	104	0	84	24494
2026-01-14 08:33:42.58	92.31	42.50	-59.7	-75.8	3.8	1.49e+00	0	27	104	0	84	24466
2026-01-14 08:33:43.58	91.95	42.70	-59.7	-75.8	3.8	1.49e+00	0	27	104	0	84	24445
2026-01-14 08:33:44.57	91.59	42.89	-59.7	-75.8	3.8	1.49e+00	0	27	104	0	84	24487
2026-01-14 08:33:45.56	91.22	43.08	-59.7	-75.8	3.8	1.49e+00	0	27	104	0	84	24421
2026-01-14 08:33:46.56	90.84	43.28	-59.7	-75.8	3.8	1.49e+00	0	27	104	0	84	24434
2026-01-14 08:33:47.57	90.45	43.47	-59.7	-75.7	3.8	1.49e+00	0	27	104	0	84	24361
2026-01-14 08:33:48.56	90.07	43.66	-59.7	-75.8	3.8	1.49e+00	0	27	104	0	84	24477
2026-01-14 08:33:49.56	89.68	43.86	-59.7	-75.7	3.8	1.49e+00	0	27	104	0	84	24408
2026-01-14 08:33:50.56	89.29	44.05	-59.7	-75.8	3.8	1.49e+00	0	27	104	0	84	24460
2026-01-14 08:33:51.55	88.89	44.24	-59.7	-75.8	3.8	1.49e+00	0	27	104	0	84	24418
2026-01-14 08:33:52.55	88.49	44.43	-59.7	-75.7	3.8	1.49e+00	0	27	104	0	84	24379
2026-01-14 08:33:53.54	88.08	44.62	-59.7	-75.8	3.8	1.49e+00	0	27	104	0	84	24482
2026-01-14 08:33:54.53	87.67	44.81	-59.7	-75.8	3.8	1.49e+00	0	27	104	0	84	24415
2026-01-14 08:33:55.53	87.25	44.99	-59.7	-75.8	3.8	1.49e+00	0	27	104	0	84	24432
2026-01-14 08:33:56.52	86.83	45.18	-59.7	-75.7	3.8	1.49e+00	0	27	104	0	84	24407
2026-01-14 08:33:57.52	86.40	45.37	-59.7	-75.8	3.8	1.49e+00	0	27	104	0	84	24484
2026-01-14 08:33:58.51	85.97	45.55	-59.7	-75.8	3.8	1.49e+00	0	27	104	0	84	24436
2026-01-14 08:33:59.50	85.53	45.73	-59.7	-75.8	3.8	1.49e+00	0	27	104	0	84	24462
2026-01-14 08:34:00.49	85.09	45.92	-59.7	-75.8	3.8	1.49e+00	0	27	104	0	84	24431
2026-01-14 08:34:01.49	84.64	46.10	-59.7	-75.8	3.8	1.49e+00	0	27	104	0	84	24423
2026-01-14 08:34:02.48	84.19	46.28	-59.7	-75.7	3.8	1.49e+00	0	27	104	0	84	24410
2026-01-14 08:34:03.47	83.73	46.46	-59.7	-75.7	3.8	1.49e+00	0	27	104	0	84	24307
2026-01-14 08:34:04.46	83.27	46.64	-59.7	-75.8	3.8	1.49e+00	0	27	104	0	84	24424
2026-01-14 08:34:05.47	82.79	46.82	-59.7	-75.7	3.8	1.49e+00	0	27	104	0	84	24396
2026-01-14 08:34:06.47	82.32	46.99	-59.7	-75.7	3.8	1.49e+00	0	27	104	0	84	24383
2026-01-14 08:34:07.47	81.83	47.17	-59.7	-75.7	3.8	1.49e+00	0	27	104	0	84	24339
2026-01-14 08:34:08.47	81.35	47.34	-59.7	-75.7	3.8	1.49e+00	0	27	104	0	84	24409
2026-01-14 08:34:09.46	80.86	47.51	-59.7	-75.7	3.8	1.49e+00	0	27	104	0	84	24407
2026-01-14 08:34:10.45	80.36	47.68	-59.7	-75.7	3.8	1.49e+00	0	27	104	0	84	24358
2026-01-14 08:34:11.44	79.87	47.85	-59.7	-75.7	3.8	1.49e+00	0	27	104	0	84	24398
2026-01-14 08:34:12.44	79.36	48.01	-59.7	-75.7	3.8	1.49e+00	0	27	104	0	84	24364
2026-01-14 08:34:13.43	78.85	48.18	-59.7	-75.7	3.8	1.49e+00	0	27	104	0	84	24403
2026-01-14 08:34:14.43	78.33	48.34	-59.7	-75.8	3.8	1.49e+00	0	27	104	0	84	24448
2026-01-14 08:34:15.42	77.80	48.50	-59.7	-75.7	3.8	1.49e+00	0	27	104	0	84	24393
2026-01-14 08:34:16.42	77.27	48.66	-59.7	-75.8	3.8	1.49e+00	0	27	104	0	84	24428
2026-01-14 08:34:17.41	76.74	48.81	-59.7	-75.8	3.8	1.49e+00	0	27	104	0	84	24436
2026-01-14 08:34:18.40	76.20	48.97	-59.7	-75.8	3.8	1.49e+00	0	27	104	0	84	24445
2026-01-14 08:34:19.39	75.66	49.12	-59.7	-75.8	3.8	1.49e+00	0	27	104	0	84	24412
2026-01-14 08:34:20.39	75.11	49.27	-59.7	-75.8	3.8	1.49e+00	0	27	104	0	84	24424
2026-01-14 08:34:21.37	74.56	49.41	-59.7	-75.8	3.8	1.49e+00	0	27	104	0	84	24423
2026-01-14 08:34:22.37	74.00	49.56	-59.7	-75.8	3.8	1.49e+00	0	27	104	0	84	24437
2026-01-14 08:34:23.35	73.44	49.70	-59.7	-75.8	3.8	1.49e+00	0	27	104	0	84	24417
2026-01-14 08:34:24.34	72.87	49.84	-59.7	-75.7	3.8	1.49e+00	0	27	104	0	84	24380
2026-01-14 08:34:25.33	72.30	49.97	-59.7	-75.7	3.8	1.49e+00	0	27	104	0	84	24335
2026-01-14 08:34:26.32	71.72	50.10	-59.7	-75.7	3.8	1.49e+00	0	27	104	0	84	24409
2026-01-14 08:34:27.32	71.13	50.24	-59.7	-75.7	3.8	1.49e+00	0	27	104	0	84	24360
2026-01-14 08:34:28.32	70.53	50.37	-59.7	-75.7	3.8	1.49e+00	0	27	104	0	84	24346
2026-01-14 08:34:29.31	69.94	50.49	-59.7	-75.8	3.8	1.49e+00	0	27	104	0	84	24417
2026-01-14 08:34:30.31	69.33	50.61	-59.7	-75.7	3.8	1.49e+00	0	27	104	0	84	24379
2026-01-14 08:34:31.31	68.72	50.73	-59.7	-75.8	3.8	1.49e+00	0	27	104	0	84	24430
2026-01-14 08:34:32.31	68.11	50.85	-59.7	-75.8	3.8	1.49e+00	0	27	104	0	84	24430
2026-01-14 08:34:33.31	67.49	50.96	-59.7	-75.7	3.8	1.49e+00	0	27	104	0	84	24398
2026-01-14 08:34:34.30	66.87	51.07	-59.7	-75.7	3.8	1.49e+00	0	27	104	0	84	24304
2026-01-14 08:34:35.30	66.24	51.18	-59.7	-75.7	3.8	1.49e+00	0	27	104	0	84	24367
2026-01-14 08:34:36.29	65.61	51.28	-59.7	-75.7	3.8	1.49e+00	0	27	104	0	84	24376
2026-01-14 08:34:37.28	64.98	51.38	-59.7	-75.7	3.8	1.49e+00	0	27	104	0	84	24399
2026-01-14 08:34:38.28	64.34	51.48	-59.7	-75.7	3.8	1.49e+00	0	27	104	0	84	24332
2026-01-14 08:34:39.27	63.70	51.57	-59.7	-75.7	3.8	1.49e+00	0	27	104	0	84	24356
2026-01-14 08:34:40.26	63.06	51.66	-59.7	-75.7	3.8	1.49e+00	0	27	104	0	84	24341
2026-01-14 08:34:41.25	62.41	51.74	-59.7	-75.7	3.8	1.49e+00	0	27	104	0	84	24339
2026-01-14 08:34:42.25	61.75	51.82	-59.7	-75.7	3.8	1.49e+00	0	27	104	0	84	24352
2026-01-14 08:34:43.25	61.09	51.90	-59.7	-75.7	3.8	1.49e+00	0	27	104	0	84	24338
2026-01-14 08:34:44.24	60.44	51.98	-59.7	-75.7	3.8	1.49e+00	0	27	104	0	84	24381
2026-01-14 08:34:45.23	59.78	52.05	-59.7	-75.7	3.8	1.49e+00	0	27	104	0	84	24366
2026-01-14 08:34:46.23	59.11	52.11	-59.7	-75.8	3.8	1.49e+00	0	27	104	0	84	24465
2026-01-14 08:34:47.23	58.43	52.17	-59.7	-75.7	3.8	1.49e+00	0	27	104	0	84	24385
2026-01-14 08:34:48.22	57.76	52.23	-59.7	-75.7	3.8	1.49e+00	0	27	104	0	84	24379
2026-01-14 08:34:49.21	57.09	52.29	-59.7	-75.7	3.8	1.49e+00	0	27	104	0	84	24387
2026-01-14 08:34:50.21	56.41	52.34	-59.7	-75.7	3.8	1.49e+00	0	27	104	0	84	24341
2026-01-14 08:34:51.20	55.73	52.38	-59.7	-75.7	3.8	1.49e+00	0	27	104	0	84	24401
2026-01-14 08:34:52.19	55.06	52.42	-59.7	-75.7	3.8	1.49e+00	0	27	104	0	84	24388
2026-01-14 08:34:53.18	54.38	52.46	-59.7	-75.7	3.8	1.49e+00	0	27	104	0	84	24367
2026-01-14 08:34:54.17	53.69	52.49	-59.7	-75.7	3.8	1.49e+00	0	27	104	0	84	24380
2026-01-14 08:34:55.16	53.01	52.52	-59.7	-75.7	3.8	1.49e+00	0	27	104	0	84	24367
2026-01-14 08:34:56.16	52.32	52.55	-59.7	-75.7	3.8	1.49e+00	0	27	104	0	84	24398
2026-01-14 08:34:57.16	51.63	52.57	-59.7	-75.7	3.8	1.49e+00	0	27	104	0	84	24354
2026-01-14 08:34:58.15	50.94	52.59	-59.7	-75.7	3.8	1.49e+00	0	27	104	0	84	24318
2026-01-14 08:34:59.14	50.25	52.60	-59.7	-75.7	3.8	1.49e+00	0	27	104	0	84	24368
2026-01-14 08:35:00.13	49.57	52.60	-59.7	-75.7	3.8	1.49e+00	0	27	104	0	84	24375
2026-01-14 08:35:01.13	48.87	52.61	-59.7	-75.7	3.8	1.49e+00	0	27	104	0	84	24334
2026-01-14 08:35:02.12	48.18	52.61	-59.7	-75.7	3.8	1.49e+00	0	27	104	0	84	24374
2026-01-14 08:35:03.11	47.50	52.60	-59.7	-75.7	3.8	1.49e+00	0	27	104	0	84	24321
2026-01-14 08:35:04.11	46.80	52.59	-59.7	-75.7	3.8	1.49e+00	0	27	104	0	84	24361
2026-01-14 08:35:05.11	46.11	52.58	-59.7	-75.7	3.8	1.49e+00	0	27	104	0	84	24347
2026-01-14 08:35:06.10	45.42	52.56	-59.7	-75.7	3.8	1.49e+00	0	27	104	0	84	24372
2026-01-14 08:35:07.08	44.74	52.54	-59.7	-75.8	3.8	1.49e+00	0	27	104	0	84	24439
2026-01-14 08:35:08.08	44.05	52.51	-59.7	-75.7	3.8	1.49e+00	0	27	104	0	84	24364
2026-01-14 08:35:09.07	43.37	52.48	-59.7	-75.7	3.8	1.49e+00	0	27	104	0	84	24350
2026-01-14 08:35:10.07	42.68	52.45	-59.7	-75.8	3.8	1.49e+00	0	27	104	0	84	24425
2026-01-14 08:35:11.05	42.01	52.41	-59.7	-75.7	3.8	1.49e+00	0	27	104	0	84	24345
2026-01-14 08:35:12.04	41.33	52.37	-59.7	-75.7	3.8	1.49e+00	0	27	104	0	84	24365
2026-01-14 08:35:13.04	40.65	52.32	-59.7	-75.7	3.8	1.49e+00	0	27	104	0	84	24359
2026-01-14 08:35:14.04	39.97	52.27	-59.7	-75.7	3.8	1.49e+00	0	27	104	0	84	24347
2026-01-14 08:35:15.03	39.30	52.21	-59.7	-75.7	3.8	1.49e+00	0	28	104	0	84	24347
2026-01-14 08:35:16.03	38.63	52.15	-59.7	-75.7	3.8	1.49e+00	0	27	104	0	84	24358
2026-01-14 08:35:17.03	37.96	52.09	-59.7	-75.7	3.8	1.49e+00	0	27	104	0	84	24364
2026-01-14 08:35:18.03	37.29	52.02	-59.7	-75.7	3.8	1.49e+00	0	27	104	0	84	24366
2026-01-14 08:35:19.02	36.63	51.95	-59.7	-75.7	3.8	1.49e+00	0	27	104	0	84	24364
2026-01-14 08:35:20.02	35.97	51.87	-59.7	-75.7	3.8	1.49e+00	0	27	104	0	84	24365
2026-01-14 08:35:21.01	35.31	51.79	-59.7	-75.7	3.8	1.49e+00	0	27	104	0	84	24302
2026-01-14 08:35:22.01	34.66	51.71	-59.7	-75.7	3.8	1.49e+00	0	27	104	0	84	24376
2026-01-14 08:35:23.00	34.01	51.62	-59.7	-75.7	3.8	1.49e+00	0	27	104	0	84	24328
2026-01-14 08:35:23.99	33.37	51.53	-59.7	-75.7	3.8	1.49e+00	0	27	104	0	84	24385
2026-01-14 08:35:24.99	32.73	51.44	-59.7	-75.7	3.8	1.49e+00	0	27	104	0	84	24385
2026-01-14 08:35:25.98	32.10	51.34	-59.7	-75.8	3.8	1.49e+00	0	28	104	0	84	24412
2026-01-14 08:35:26.98	31.46	51.24	-59.7	-75.7	3.8	1.49e+00	0	27	104	0	84	24343
2026-01-14 08:35:27.98	30.83	51.14	-59.7	-75.7	3.8	1.49e+00	0	27	104	0	84	24409
2026-01-14 08:35:28.97	30.21	51.03	-59.7	-75.7	3.8	1.49e+00	0	27	104	0	84	24295
2026-01-14 08:35:29.96	29.59	50.92	-59.6	-75.7	3.8	1.49e+00	0	27	104	0	84	24322
2026-01-14 08:35:30.94	28.99	50.81	-59.7	-75.7	3.8	1.49e+00	0	27	104	0	84	24329
2026-01-14 08:35:31.94	28.38	50.69	-59.7	-75.7	3.8	1.49e+00	0	27	104	0	84	24298
2026-01-14 08:35:32.93	27.77	50.57	-59.7	-75.7	3.8	1.49e+00	0	27	104	0	84	24335
2026-01-14 08:35:33.92	27.18	50.45	-59.7	-75.7	3.8	1.49e+00	0	27	104	0	84	24331
2026-01-14 08:35:34.91	26.59	50.32	-59.7	-75.7	3.8	1.49e+00	0	27	104	0	84	24299
2026-01-14 08:35:35.90	26.00	50.19	-59.7	-75.7	3.8	1.49e+00	0	27	104	0	84	24387
2026-01-14 08:35:36.90	25.41	50.06	-59.7	-75.7	3.8	1.49e+00	0	27	104	0	84	24350
2026-01-14 08:35:37.89	24.84	49.93	-59.7	-75.8	3.8	1.49e+00	0	27	104	0	84	24428
2026-01-14 08:35:38.89	24.26	49.79	-59.7	-75.7	3.9	1.49e+00	0	27	104	0	84	24372
2026-01-14 08:35:39.89	23.69	49.65	-59.7	-75.7	3.8	1.49e+00	0	27	104	0	84	24270
2026-01-14 08:35:40.89	23.12	49.50	-59.7	-75.7	3.8	1.49e+00	0	27	104	0	84	24273
2026-01-14 08:35:41.89	22.56	49.36	-59.7	-75.7	3.8	1.49e+00	0	27	104	0	84	24387
2026-01-14 08:35:42.88	22.01	49.21	-59.7	-75.7	3.8	1.49e+00	0	27	104	0	84	24360
2026-01-14 08:35:43.87	21.46	49.06	-59.6	-75.7	3.8	1.49e+00	0	27	104	0	84	24334
2026-01-14 08:35:44.87	20.92	48.91	-59.6	-75.7	3.8	1.49e+00	0	27	104	0	84	24330
2026-01-14 08:35:45.85	20.39	48.76	-59.7	-75.7	3.8	1.49e+00	0	27	104	0	84	24302
2026-01-14 08:35:46.86	19.85	48.60	-59.7	-75.7	3.8	1.49e+00	0	27	104	0	84	24300
2026-01-14 08:35:47.85	19.33	48.44	-59.7	-75.7	3.8	1.49e+00	0	27	104	0	84	24333
2026-01-14 08:35:48.84	18.81	48.28	-59.6	-75.7	3.8	1.49e+00	0	27	104	0	84	24328
2026-01-14 08:35:49.84	18.29	48.12	-59.6	-75.7	3.8	1.49e+00	0	27	104	0	84	24310
2026-01-14 08:35:50.83	17.78	47.95	-59.6	-75.7	3.8	1.49e+00	0	27	104	0	84	24259
2026-01-14 08:35:51.83	17.28	47.79	-59.6	-75.7	3.8	1.49e+00	0	27	104	0	84	24291
2026-01-14 08:35:52.83	16.78	47.62	-59.6	-75.7	3.8	1.49e+00	0	27	104	0	84	24336
2026-01-14 08:35:53.83	16.28	47.45	-59.6	-75.7	3.8	1.49e+00	0	28	104	0	84	24236
2026-01-14 08:35:54.82	15.80	47.28	-59.6	-75.7	3.8	1.49e+00	0	28	104	0	84	24295
2026-01-14 08:35:55.81	15.32	47.10	-59.7	-75.7	3.8	1.49e+00	0	27	104	0	84	24325
2026-01-14 08:35:56.80	14.84	46.93	-59.7	-75.7	3.8	1.49e+00	0	28	104	0	84	24326
2026-01-14 08:35:57.79	14.37	46.76	-59.7	-75.7	3.8	1.49e+00	0	27	104	0	84	24341
2026-01-14 08:35:58.79	13.90	46.58	-59.7	-75.7	3.8	1.49e+00	0	27	104	0	84	24302
2026-01-14 08:35:59.78	13.44	46.40	-59.6	-75.7	3.8	1.49e+00	0	27	104	0	84	24297
2026-01-14 08:36:00.77	12.99	46.22	-59.6	-75.7	3.8	1.49e+00	0	27	104	0	84	24283
2026-01-14 08:36:01.77	12.54	46.04	-59.6	-75.7	3.8	1.49e+00	0	27	104	0	84	24309
2026-01-14 08:36:02.77	12.09	45.86	-59.7	-75.7	3.8	1.49e+00	0	27	104	0	84	24271
2026-01-14 08:36:03.77	11.65	45.67	-59.7	-75.7	3.8	1.49e+00	0	28	104	0	84	24316
2026-01-14 08:36:04.76	11.21	45.49	-59.7	-75.7	3.8	1.49e+00	0	27	104	0	84	24272
2026-01-14 08:36:05.76	10.78	45.30	-59.6	-75.7	3.8	1.49e+00	0	27	104	0	84	24275
2026-01-14 08:36:06.76	10.35	45.12	-59.6	-75.7	3.8	1.49e+00	0	28	104	0	84	24300
2026-01-14 08:36:07.75	9.94	44.93	-59.6	-75.7	3.8	1.49e+00	0	27	104	0	84	24287
2026-01-14 08:36:08.75	9.52	44.74	-59.6	-75.7	3.8	1.49e+00	0	27	104	0	84	24268
2026-01-14 08:36:09.75	9.11	44.55	-59.6	-75.7	3.8	1.49e+00	0	27	104	0	84	24287
2026-01-14 08:36:10.75	8.70	44.36	-59.6	-75.7	3.8	1.49e+00	0	27	104	0	84	24340
2026-01-14 08:36:11.73	8.31	44.18	-59.6	-75.7	3.8	1.49e+00	0	27	104	0	84	24248
2026-01-14 08:36:12.72	7.91	43.99	-59.6	-75.7	3.8	1.49e+00	0	27	104	0	84	24325
2026-01-14 08:36:13.72	7.52	43.79	-59.7	-75.7	3.8	1.49e+00	0	27	104	0	84	24353
2026-01-14 08:36:14.71	7.14	43.60	-59.6	-75.7	3.8	1.49e+00	0	27	104	0	84	24283
2026-01-14 08:36:15.71	6.75	43.41	-59.6	-75.7	3.8	1.49e+00	0	27	104	0	84	24283
2026-01-14 08:36:16.70	6.38	43.22	-59.7	-75.7	3.8	1.49e+00	0	27	104	0	84	24312
2026-01-14 08:36:17.69	6.01	43.03	-59.6	-75.7	3.8	1.49e+00	0	27	104	0	84	24323
2026-01-14 08:36:18.68	5.64	42.83	-59.7	-75.7	3.8	1.49e+00	0	27	104	0	84	24366
2026-01-14 08:36:19.68	5.28	42.64	-59.6	-75.7	3.8	1.49e+00	0	27	104	0	84	24245
2026-01-14 08:36:20.67	4.92	42.45	-59.6	-75.7	3.8	1.49e+00	0	27	104	0	84	24297
2026-01-14 08:36:21.67	4.56	42.25	-59.7	-75.7	3.8	1.49e+00	0	27	104	0	84	24268
2026-01-14 08:36:22.66	4.21	42.06	-59.6	-75.7	3.8	1.49e+00	0	28	104	0	84	24325
2026-01-14 08:36:23.66	3.86	41.86	-59.6	-75.7	3.8	1.49e+00	0	27	104	0	84	24260
2026-01-14 08:36:24.65	3.52	41.67	-59.6	-75.7	3.8	1.49e+00	0	27	104	0	84	24254
2026-01-14 08:36:25.65	3.18	41.47	-59.7	-75.7	3.8	1.49e+00	0	27	104	0	84	24312
2026-01-14 08:36:26.64	2.85	41.28	-59.6	-75.7	3.8	1.49e+00	0	27	104	0	84	24317
2026-01-14 08:36:27.64	2.52	41.08	-59.6	-75.7	3.8	1.49e+00	0	27	104	0	84	24303
2026-01-14 08:36:28.64	2.19	40.89	-59.6	-75.7	3.8	1.49e+00	0	27	104	0	84	24301
2026-01-14 08:36:29.63	1.87	40.69	-59.6	-75.7	3.8	1.49e+00	0	28	104	0	84	24247
2026-01-14 08:36:30.62	1.56	40.50	-59.6	-75.7	3.8	1.49e+00	0	27	104	0	84	24211
2026-01-14 08:36:31.62	1.24	40.30	-59.6	-75.7	3.8	1.49e+00	0	27	104	0	84	24229
2026-01-14 08:36:32.61	0.93	40.11	-59.6	-75.7	3.8	1.49e+00	0	27	104	0	84	24292
2026-01-14 08:36:33.62	0.62	39.91	-59.6	-75.7	3.8	1.49e+00	0	27	104	0	84	24259
2026-01-14 08:36:34.61	0.32	39.72	-59.6	-75.7	3.8	1.49e+00	0	27	104	0	84	24235
2026-01-14 08:36:35.61	0.02	39.52	-59.6	-75.7	3.8	1.49e+00	0	27	104	0	84	24277
2026-01-14 08:36:36.60	359.73	39.33	-59.6	-75.7	3.8	1.49e+00	0	27	104	0	84	24227
2026-01-14 08:36:37.60	359.43	39.14	-59.6	-75.7	3.8	1.49e+00	0	27	104	0	84	24205
2026-01-14 08:36:38.59	359.14	38.94	-59.6	-75.7	3.8	1.49e+00	0	27	104	0	84	24290
2026-01-14 08:36:39.58	358.86	38.75	-59.6	-75.7	3.8	1.49e+00	0	28	104	0	84	24292
2026-01-14 08:36:40.58	358.58	38.56	-59.6	-75.7	3.8	1.49e+00	0	27	104	0	84	24247
2026-01-14 08:36:41.57	358.30	38.37	-59.6	-75.7	3.8	1.49e+00	0	27	104	0	84	24271
2026-01-14 08:36:42.55	358.03	38.18	-59.6	-75.7	3.8	1.49e+00	0	27	104	0	84	24242
2026-01-14 08:36:43.55	357.76	37.98	-59.6	-75.7	3.8	1.49e+00	0	28	104	0	84	24229
2026-01-14 08:36:44.54	357.49	37.79	-59.6	-75.7	3.8	1.49e+00	0	27	104	0	84	24275
2026-01-14 08:36:45.55	357.22	37.60	-59.6	-75.7	3.8	1.49e+00	0	27	104	0	84	24250
2026-01-14 08:36:46.54	356.96	37.41	-59.6	-75.7	3.8	1.49e+00	0	27	104	0	84	24219
2026-01-14 08:36:47.53	356.70	37.22	-59.6	-75.7	3.8	1.49e+00	0	27	104	0	84	24282
2026-01-14 08:36:48.53	356.44	37.03	-59.6	-75.7	3.8	1.49e+00	0	27	104	0	84	24291
2026-01-14 08:36:49.53	356.19	36.84	-59.6	-75.7	3.8	1.49e+00	0	27	104	0	84	24273
2026-01-14 08:36:50.53	355.94	36.65	-59.6	-75.7	3.8	1.49e+00	0	27	104	0	84	24289
2026-01-14 08:36:51.52	355.69	36.46	-59.6	-75.7	3.8	1.49e+00	0	27	104	0	84	24266
2026-01-14 08:36:52.50	355.45	36.27	-59.6	-75.7	3.8	1.49e+00	0	27	104	0	84	24198
2026-01-14 08:36:53.50	355.21	36.08	-59.6	-75.7	3.8	1.49e+00	0	27	104	0	84	24209
2026-01-14 08:36:54.49	354.97	35.90	-59.6	-75.7	3.8	1.49e+00	0	28	104	0	84	24246
2026-01-14 08:36:55.49	354.73	35.71	-59.6	-75.7	3.8	1.49e+00	0	27	104	0	84	24236
2026-01-14 08:36:56.50	354.50	35.52	-59.6	-75.7	3.8	1.49e+00	0	27	104	0	84	24263
2026-01-14 08:36:57.49	354.27	35.34	-59.6	-75.7	3.8	1.49e+00	0	27	104	0	84	24260
2026-01-14 08:36:58.49	354.04	35.15	-59.6	-75.7	3.8	1.49e+00	0	27	104	0	84	24244
2026-01-14 08:36:59.48	353.82	34.97	-59.6	-75.7	3.8	1.49e+00	0	27	104	0	84	24263
2026-01-14 08:37:00.47	353.59	34.78	-59.6	-75.7	3.8	1.49e+00	0	27	104	0	84	24219
2026-01-14 08:37:01.47	353.37	34.60	-59.6	-75.7	3.8	1.49e+00	0	27	104	0	84	24239
2026-01-14 08:37:02.47	353.15	34.42	-59.6	-75.7	3.8	1.49e+00	0	27	104	0	84	24225
2026-01-14 08:37:03.47	352.94	34.23	-59.6	-75.7	3.8	1.49e+00	0	27	104	0	84	24267
2026-01-14 08:37:04.46	352.73	34.05	-59.6	-75.7	3.8	1.49e+00	0	27	104	0	84	24202
2026-01-14 08:37:05.46	352.51	33.87	-59.6	-75.6	3.8	1.49e+00	0	27	104	0	84	24100
2026-01-14 08:37:06.45	352.31	33.69	-59.6	-75.7	3.8	1.49e+00	0	27	104	0	84	24272
2026-01-14 08:37:07.44	352.10	33.51	-59.6	-75.7	3.8	1.49e+00	0	27	104	0	84	24243
2026-01-14 08:37:08.43	351.90	33.34	-59.6	-75.7	3.8	1.49e+00	0	27	104	0	84	24247
2026-01-14 08:37:09.43	351.70	33.16	-59.6	-75.7	3.8	1.49e+00	0	27	104	0	84	24231
2026-01-14 08:37:10.43	351.50	32.98	-59.6	-75.7	3.8	1.49e+00	0	27	104	0	84	24259
2026-01-14 08:37:11.42	351.30	32.80	-59.6	-75.7	3.8	1.49e+00	0	27	104	0	84	24223
2026-01-14 08:37:12.41	351.11	32.63	-59.6	-75.7	3.8	1.49e+00	0	28	104	0	84	24266
2026-01-14 08:37:13.41	350.91	32.45	-59.6	-75.7	3.8	1.49e+00	0	27	104	0	84	24245
2026-01-14 08:37:14.41	350.72	32.27	-59.6	-75.7	3.8	1.49e+00	0	28	104	0	84	24226
2026-01-14 08:37:15.40	350.54	32.10	-59.6	-75.7	3.8	1.49e+00	0	27	104	0	84	24198
2026-01-14 08:37:16.40	350.35	31.92	-59.6	-75.7	3.8	1.49e+00	0	27	104	0	84	24214
2026-01-14 08:37:17.39	350.17	31.75	-59.6	-75.7	3.8	1.49e+00	0	27	104	0	84	24233
2026-01-14 08:37:18.38	349.98	31.58	-59.6	-75.7	3.8	1.49e+00	0	27	104	0	84	24272
2026-01-14 08:37:19.37	349.81	31.41	-59.6	-75.7	3.8	1.49e+00	0	27	104	0	84	24209
2026-01-14 08:37:20.37	349.63	31.24	-59.6	-75.7	3.8	1.49e+00	0	27	104	0	84	24269
2026-01-14 08:37:21.36	349.45	31.07	-59.6	-75.7	3.8	1.49e+00	0	27	104	0	84	24181
2026-01-14 08:37:22.35	349.28	30.90	-59.6	-75.7	3.8	1.49e+00	0	28	104	0	84	24236
2026-01-14 08:37:23.35	349.10	30.73	-59.6	-75.7	3.8	1.49e+00	0	27	104	0	84	24199
2026-01-14 08:37:24.34	348.93	30.56	-59.6	-75.7	3.8	1.49e+00	0	27	104	0	84	24218
2026-01-14 08:37:25.34	348.76	30.39	-59.6	-75.7	3.8	1.49e+00	0	28	104	0	84	24184
2026-01-14 08:37:26.33	348.60	30.23	-59.6	-75.7	3.9	1.49e+00	0	27	104	0	84	24200
2026-01-14 08:37:27.32	348.43	30.06	-59.6	-75.7	3.8	1.49e+00	0	27	104	0	84	24227
2026-01-14 08:37:28.33	348.27	29.89	-59.6	-75.7	3.8	1.49e+00	0	27	104	0	84	24248
2026-01-14 08:37:29.32	348.10	29.73	-59.6	-75.7	3.8	1.49e+00	0	27	104	0	84	24213
2026-01-14 08:37:30.32	347.94	29.56	-59.6	-75.7	3.8	1.49e+00	0	28	104	0	84	24193
2026-01-14 08:37:31.32	347.78	29.40	-59.6	-75.7	3.8	1.49e+00	0	27	104	0	84	24186
2026-01-14 08:37:32.31	347.63	29.24	-59.6	-75.7	3.8	1.49e+00	0	27	104	0	84	24179
2026-01-14 08:37:33.29	347.47	29.08	-59.6	-75.7	3.8	1.49e+00	0	27	104	0	84	24237
2026-01-14 08:37:34.29	347.32	28.92	-59.6	-75.7	3.8	1.49e+00	0	27	104	0	84	24227
2026-01-14 08:37:35.29	347.17	28.76	-59.6	-75.7	3.8	1.49e+00	0	27	104	0	84	24272
2026-01-14 08:37:36.27	347.02	28.60	-59.6	-75.7	3.8	1.49e+00	0	28	104	0	84	24247
2026-01-14 08:37:37.27	346.87	28.44	-59.6	-75.7	3.8	1.49e+00	0	27	104	0	84	24197
2026-01-14 08:37:38.27	346.72	28.28	-59.6	-75.7	3.8	1.49e+00	0	27	104	0	84	24185
2026-01-14 08:37:39.27	346.57	28.12	-59.6	-75.7	3.8	1.49e+00	0	27	104	0	84	24243
2026-01-14 08:37:40.26	346.43	27.96	-59.6	-75.7	3.8	1.49e+00	0	27	104	0	84	24232
2026-01-14 08:37:41.26	346.28	27.81	-59.6	-75.7	3.8	1.49e+00	0	28	104	0	84	24244
2026-01-14 08:37:42.24	346.14	27.65	-59.6	-75.7	3.8	1.49e+00	0	27	104	0	84	24223
2026-01-14 08:37:43.24	346.00	27.50	-59.6	-75.7	3.8	1.49e+00	0	27	104	0	84	24225
2026-01-14 08:37:44.23	345.86	27.34	-59.6	-75.7	3.8	1.49e+00	0	27	104	0	84	24221
2026-01-14 08:37:45.23	345.73	27.19	-59.6	-75.7	3.8	1.49e+00	0	28	104	0	84	24137
2026-01-14 08:37:46.23	345.59	27.03	-59.6	-75.7	3.8	1.49e+00	0	27	104	0	84	24279
2026-01-14 08:37:47.22	345.45	26.88	-59.6	-75.7	3.8	1.49e+00	0	27	104	0	84	24319
2026-01-14 08:37:48.22	345.32	26.73	-59.6	-75.7	3.8	1.49e+00	0	27	104	0	84	24234
2026-01-14 08:37:49.22	345.19	26.58	-59.6	-75.7	3.8	1.49e+00	0	27	104	0	84	24235
2026-01-14 08:37:50.21	345.06	26.43	-59.6	-75.7	3.8	1.49e+00	0	27	104	0	84	24232
2026-01-14 08:37:51.21	344.93	26.28	-59.6	-75.7	3.8	1.49e+00	0	27	104	0	84	24207
2026-01-14 08:37:52.21	344.80	26.13	-59.6	-75.7	3.8	1.49e+00	0	27	104	0	84	24232
2026-01-14 08:37:53.20	344.67	25.98	-59.6	-75.7	3.8	1.49e+00	0	27	104	0	84	24172
2026-01-14 08:37:54.20	344.54	25.83	-59.6	-75.7	3.8	1.49e+00	0	28	104	0	84	24197
2026-01-14 08:37:55.20	344.42	25.68	-59.6	-75.7	3.8	1.49e+00	0	27	104	0	84	24261
2026-01-14 08:37:56.19	344.29	25.54	-59.6	-75.7	3.8	1.49e+00	0	27	104	0	84	24212
2026-01-14 08:37:57.19	344.17	25.39	-59.6	-75.7	3.8	1.49e+00	0	27	104	0	84	24212
2026-01-14 08:37:58.18	344.05	25.25	-59.6	-75.7	3.8	1.49e+00	0	27	104	0	84	24210
2026-01-14 08:37:59.17	343.93	25.10	-59.6	-75.7	3.8	1.49e+00	0	27	104	0	84	24212
2026-01-14 08:38:00.16	343.81	24.96	-59.6	-75.7	3.8	1.49e+00	0	27	104	0	84	24181
2026-01-14 08:38:01.16	343.69	24.81	-59.6	-75.7	3.8	1.49e+00	0	28	104	0	84	24216
2026-01-14 08:38:02.15	343.58	24.67	-59.6	-75.7	3.8	1.49e+00	0	27	104	0	84	24181
2026-01-14 08:38:03.14	343.46	24.53	-59.6	-75.7	3.8	1.49e+00	0	27	104	0	84	24189
2026-01-14 08:38:04.13	343.35	24.39	-59.6	-75.7	3.8	1.49e+00	0	27	104	0	84	24213
2026-01-14 08:38:05.13	343.23	24.25	-59.6	-75.7	3.8	1.49e+00	0	28	104	0	84	24212
2026-01-14 08:38:06.12	343.12	24.11	-59.6	-75.7	3.8	1.49e+00	0	27	104	0	84	24179
2026-01-14 08:38:07.11	343.01	23.97	-59.6	-75.7	3.8	1.49e+00	0	27	104	0	84	24184
2026-01-14 08:38:08.11	342.90	23.83	-59.6	-75.7	3.8	1.49e+00	0	27	104	0	84	24165
2026-01-14 08:38:09.12	342.79	23.69	-59.6	-75.7	3.8	1.49e+00	0	27	104	0	84	24166
2026-01-14 08:38:10.11	342.68	23.55	-59.6	-75.7	3.8	1.49e+00	0	27	104	0	84	24163
2026-01-14 08:38:11.12	342.57	23.41	-59.6	-75.7	3.8	1.49e+00	0	27	104	0	84	24165
2026-01-14 08:38:12.11	342.46	23.28	-59.6	-75.7	3.8	1.49e+00	0	27	104	0	84	24223
2026-01-14 08:38:13.11	342.36	23.14	-59.6	-75.7	3.8	1.49e+00	0	27	104	0	84	24168
2026-01-14 08:38:14.10	342.25	23.01	-59.6	-75.7	3.8	1.49e+00	0	28	104	0	84	24166
2026-01-14 08:38:15.10	342.15	22.87	-59.6	-75.7	3.8	1.49e+00	0	27	104	0	84	24251
2026-01-14 08:38:16.09	342.05	22.74	-59.6	-75.7	3.8	1.49e+00	0	27	104	0	84	24209
2026-01-14 08:38:17.08	341.94	22.61	-59.6	-75.7	3.8	1.49e+00	0	27	104	0	84	24173
2026-01-14 08:38:18.08	341.84	22.47	-59.6	-75.7	3.8	1.49e+00	0	27	104	0	84	24246
2026-01-14 08:38:19.07	341.74	22.34	-59.6	-75.6	3.8	1.49e+00	0	27	104	0	84	24108
2026-01-14 08:38:20.07	341.64	22.21	-59.6	-75.7	3.8	1.49e+00	0	27	104	0	84	24179
2026-01-14 08:38:21.07	341.54	22.08	-59.6	-75.7	3.8	1.49e+00	0	27	104	0	84	24139
2026-01-14 08:38:22.07	341.44	21.95	-59.6	-75.7	3.8	1.49e+00	0	27	104	0	84	24169
2026-01-14 08:38:23.06	341.35	21.82	-59.6	-75.6	3.8	1.49e+00	0	27	104	0	84	24119
2026-01-14 08:38:24.06	341.25	21.69	-59.6	-75.7	3.8	1.49e+00	0	27	104	0	84	24169
2026-01-14 08:38:25.05	341.16	21.56	-59.6	-75.7	3.8	1.49e+00	0	27	104	0	84	24185
2026-01-14 08:38:26.05	341.06	21.43	-59.6	-75.7	3.8	1.49e+00	0	27	104	0	84	24187
2026-01-14 08:38:27.05	340.97	21.30	-59.6	-75.7	3.8	1.49e+00	0	27	104	0	84	24155
2026-01-14 08:38:28.04	340.88	21.18	-59.6	-75.7	3.8	1.49e+00	0	27	104	0	84	24151
2026-01-14 08:38:29.03	340.78	21.05	-59.6	-75.7	3.8	1.49e+00	0	27	104	0	84	24163
2026-01-14 08:38:30.03	340.69	20.92	-59.6	-75.7	3.8	1.49e+00	0	27	104	0	84	24193
2026-01-14 08:38:31.02	340.60	20.80	-59.6	-75.7	3.8	1.49e+00	0	28	104	0	84	24177
2026-01-14 08:38:32.02	340.51	20.67	-59.6	-75.6	3.8	1.49e+00	0	28	104	0	84	24099
2026-01-14 08:38:33.00	340.43	20.55	-59.6	-75.6	3.8	1.49e+00	0	27	104	0	84	24119
2026-01-14 08:38:34.00	340.34	20.43	-59.6	-75.7	3.8	1.49e+00	0	28	104	0	84	24192
2026-01-14 08:38:35.00	340.25	20.30	-59.6	-75.7	3.8	1.49e+00	0	27	104	0	84	24163
2026-01-14 08:38:35.99	340.16	20.18	-59.6	-75.7	3.8	1.49e+00	0	27	104	0	84	24213
2026-01-14 08:38:36.99	340.08	20.06	-59.6	-75.7	3.8	1.49e+00	0	27	104	0	84	24139
2026-01-14 08:38:37.99	339.99	19.94	-59.6	-75.7	3.8	1.49e+00	0	27	104	0	84	24160
2026-01-14 08:38:38.97	339.91	19.82	-59.6	-75.7	3.8	1.49e+00	0	27	104	0	84	24161
2026-01-14 08:38:39.97	339.82	19.69	-59.6	-75.6	3.8	1.49e+00	0	27	104	0	84	24101
2026-01-14 08:38:40.96	339.74	19.58	-59.6	-75.7	3.8	1.49e+00	0	27	104	0	84	24161
2026-01-14 08:38:41.96	339.66	19.45	-59.6	-75.7	3.8	1.49e+00	0	27	104	0	84	24138
2026-01-14 08:38:42.96	339.57	19.34	-59.6	-75.6	3.8	1.49e+00	0	27	104	0	84	24110
2026-01-14 08:38:43.95	339.49	19.22	-59.6	-75.6	3.8	1.49e+00	0	27	104	0	84	24129
2026-01-14 08:38:44.95	339.41	19.10	-59.6	-75.6	3.8	1.49e+00	0	27	104	0	84	24089
2026-01-14 08:38:45.94	339.33	18.98	-59.6	-75.6	3.8	1.49e+00	0	27	104	0	84	24097
2026-01-14 08:38:46.93	339.25	18.87	-59.6	-75.6	3.8	1.49e+00	0	27	104	0	84	24113
2026-01-14 08:38:47.92	339.18	18.75	-59.6	-75.6	3.8	1.49e+00	0	27	104	0	84	24078
2026-01-14 08:38:48.91	339.10	18.63	-59.6	-75.7	3.8	1.49e+00	0	27	104	0	84	24171
2026-01-14 08:38:49.90	339.02	18.52	-59.6	-75.6	3.8	1.49e+00	0	27	104	0	84	24127
2026-01-14 08:38:50.90	338.95	18.40	-59.6	-75.7	3.8	1.49e+00	0	27	104	0	84	24181
2026-01-14 08:38:51.90	338.87	18.29	-59.6	-75.6	3.8	1.49e+00	0	27	104	0	84	24093
2026-01-14 08:38:52.89	338.79	18.17	-59.6	-75.6	3.8	1.49e+00	0	27	104	0	84	24094
2026-01-14 08:38:53.89	338.72	18.06	-59.6	-75.6	3.8	1.49e+00	0	27	104	0	84	24070
2026-01-14 08:38:54.88	338.64	17.95	-59.6	-75.6	3.8	1.49e+00	0	27	104	0	84	24124
2026-01-14 08:38:55.88	338.57	17.83	-59.6	-75.7	3.8	1.49e+00	0	27	104	0	84	24151
2026-01-14 08:38:56.87	338.50	17.72	-59.6	-75.6	3.8	1.49e+00	0	27	104	0	84	24047
2026-01-14 08:38:57.86	338.42	17.61	-59.6	-75.6	3.8	1.49e+00	0	27	104	0	84	24113
2026-01-14 08:38:58.86	338.35	17.50	-59.6	-75.6	3.8	1.49e+00	0	27	104	0	84	24092
2026-01-14 08:38:59.85	338.28	17.39	-59.6	-75.6	3.8	1.49e+00	0	27	104	0	84	24073
2026-01-14 08:39:00.82	338.21	17.28	-59.6	-75.6	3.8	1.49e+00	0	27	104	0	84	24106
2026-01-14 08:39:01.82	338.14	17.17	-59.6	-75.6	3.8	1.49e+00	0	28	104	0	84	24071
2026-01-14 08:39:02.82	338.07	17.06	-59.6	-75.6	3.8	1.49e+00	0	27	104	0	84	24059
2026-01-14 08:39:03.81	338.00	16.95	-59.6	-75.6	3.8	1.49e+00	0	27	104	0	84	24061
2026-01-14 08:39:04.80	337.93	16.84	-59.6	-75.6	3.8	1.49e+00	0	27	104	0	84	24130
2026-01-14 08:39:05.80	337.86	16.73	-59.6	-75.7	3.8	1.49e+00	0	27	104	0	84	24138
2026-01-14 08:39:06.80	337.80	16.63	-59.6	-75.6	3.8	1.49e+00	0	27	104	0	84	24130
2026-01-14 08:39:07.79	337.73	16.52	-59.6	-75.6	3.8	1.49e+00	0	27	104	0	84	24118
2026-01-14 08:39:08.80	337.66	16.41	-59.6	-75.6	3.8	1.49e+00	0	28	104	0	84	24101
2026-01-14 08:39:09.79	337.60	16.30	-59.6	-75.6	3.8	1.49e+00	0	27	104	0	84	24081
2026-01-14 08:39:10.80	337.53	16.20	-59.6	-75.6	3.8	1.49e+00	0	27	104	0	84	24075
2026-01-14 08:39:11.80	337.46	16.09	-59.6	-75.6	3.8	1.49e+00	0	28	104	0	84	24090
2026-01-14 08:39:12.80	337.40	15.98	-59.6	-75.6	3.8	1.49e+00	0	27	104	0	84	24091
2026-01-14 08:39:13.79	337.33	15.88	-59.6	-75.6	3.8	1.49e+00	0	27	104	0	84	24055
2026-01-14 08:39:14.79	337.27	15.78	-59.6	-75.6	3.8	1.49e+00	0	27	104	0	84	24052
2026-01-14 08:39:15.79	337.21	15.67	-59.6	-75.6	3.8	1.49e+00	0	27	104	0	84	24066
2026-01-14 08:39:16.79	337.14	15.57	-59.6	-75.6	3.8	1.49e+00	0	27	104	0	84	24030
2026-01-14 08:39:17.78	337.08	15.46	-59.6	-75.6	3.8	1.49e+00	0	27	104	0	84	24097
2026-01-14 08:39:18.77	337.02	15.36	-59.6	-75.6	3.8	1.49e+00	0	27	104	0	84	24102
2026-01-14 08:39:19.77	336.96	15.26	-59.6	-75.6	3.8	1.49e+00	0	27	104	0	84	24109
2026-01-14 08:39:20.77	336.90	15.16	-59.6	-75.6	3.8	1.49e+00	0	28	104	0	84	24043
2026-01-14 08:39:21.76	336.84	15.05	-59.6	-75.6	3.8	1.49e+00	0	27	104	0	84	24063
2026-01-14 08:39:22.76	336.78	14.95	-59.6	-75.6	3.8	1.49e+00	0	27	104	0	84	24045
2026-01-14 08:39:23.74	336.72	14.85	-59.6	-75.6	3.8	1.49e+00	0	27	104	0	84	24073
2026-01-14 08:39:24.74	336.66	14.75	-59.6	-75.6	3.8	1.49e+00	0	27	104	0	84	24015
2026-01-14 08:39:25.73	336.60	14.65	-59.6	-75.6	3.8	1.49e+00	0	27	104	0	84	24078
2026-01-14 08:39:26.72	336.54	14.55	-59.6	-75.6	3.8	1.49e+00	0	27	104	0	84	24066
2026-01-14 08:39:27.71	336.48	14.45	-59.6	-75.6	3.8	1.49e+00	0	27	104	0	84	24043
2026-01-14 08:39:28.70	336.42	14.36	-59.6	-75.6	3.8	1.49e+00	0	27	104	0	84	24079
2026-01-14 08:39:29.70	336.37	14.26	-59.6	-75.6	3.8	1.49e+00	0	27	104	0	84	24117
2026-01-14 08:39:30.70	336.31	14.16	-59.6	-75.6	3.8	1.49e+00	0	27	104	0	84	24062
2026-01-14 08:39:31.69	336.25	14.06	-59.6	-75.6	3.9	1.49e+00	0	27	104	0	84	24092
2026-01-14 08:39:32.68	336.20	13.96	-59.6	-75.6	3.8	1.49e+00	0	27	104	0	84	24045
2026-01-14 08:39:33.68	336.14	13.87	-59.6	-75.6	3.8	1.49e+00	0	27	104	0	84	24021
2026-01-14 08:39:34.68	336.09	13.77	-59.6	-75.6	3.8	1.49e+00	0	27	104	0	84	24061
2026-01-14 08:39:35.66	336.03	13.67	-59.6	-75.6	3.8	1.49e+00	0	27	104	0	84	24074
2026-01-14 08:39:36.65	335.98	13.58	-59.6	-75.6	3.8	1.49e+00	0	27	104	0	84	24093
2026-01-14 08:39:37.65	335.92	13.48	-59.6	-75.6	3.8	1.49e+00	0	27	104	0	84	24119
2026-01-14 08:39:38.64	335.87	13.39	-59.6	-75.6	3.8	1.49e+00	0	27	104	0	84	24127
2026-01-14 08:39:39.63	335.82	13.29	-59.6	-75.6	3.8	1.49e+00	0	27	104	0	84	24093
2026-01-14 08:39:40.63	335.76	13.20	-59.6	-75.6	3.8	1.49e+00	0	28	104	0	84	24091
2026-01-14 08:39:41.62	335.71	13.10	-59.6	-75.6	3.8	1.49e+00	0	27	104	0	84	24025
2026-01-14 08:39:42.62	335.66	13.01	-59.6	-75.6	3.8	1.49e+00	0	27	104	0	84	23986
2026-01-14 08:39:43.61	335.61	12.92	-59.6	-75.6	3.8	1.49e+00	0	27	104	0	84	24102
2026-01-14 08:39:44.61	335.55	12.82	-59.6	-75.6	3.8	1.49e+00	0	27	104	0	84	24040
2026-01-14 08:39:45.60	335.50	12.73	-59.6	-75.6	3.8	1.49e+00	0	27	104	0	84	24074
2026-01-14 08:39:46.59	335.45	12.64	-59.6	-75.6	3.8	1.49e+00	0	27	104	0	84	24068
2026-01-14 08:39:47.59	335.40	12.54	-59.6	-75.6	3.8	1.49e+00	0	27	104	0	84	24031
2026-01-14 08:39:48.57	335.35	12.45	-59.6	-75.6	3.8	1.49e+00	0	27	104	0	84	24067
2026-01-14 08:39:49.57	335.30	12.36	-59.6	-75.6	3.8	1.49e+00	0	27	104	0	84	24091
2026-01-14 08:39:50.57	335.25	12.27	-59.6	-75.6	3.8	1.49e+00	0	27	104	0	84	24067
2026-01-14 08:39:51.57	335.20	12.18	-59.6	-75.6	3.8	1.49e+00	0	27	104	0	84	24087
2026-01-14 08:39:52.56	335.15	12.09	-59.6	-75.6	3.8	1.49e+00	0	27	104	0	84	24033
2026-01-14 08:39:53.55	335.11	12.00	-59.6	-75.6	3.8	1.49e+00	0	27	104	0	84	23983
2026-01-14 08:39:54.54	335.06	11.91	-59.6	-75.6	3.8	1.49e+00	0	27	104	0	84	24021
2026-01-14 08:39:55.54	335.01	11.82	-59.6	-75.6	3.8	1.49e+00	0	27	104	0	84	24123
2026-01-14 08:39:56.52	334.96	11.73	-59.6	-75.6	3.8	1.49e+00	0	27	104	0	84	24102
2026-01-14 08:39:57.51	334.92	11.64	-59.6	-75.6	3.8	1.49e+00	0	27	104	0	84	24102
2026-01-14 08:39:58.50	334.87	11.55	-59.6	-75.6	3.8	1.49e+00	0	27	104	0	84	24076
2026-01-14 08:39:59.49	334.82	11.46	-59.6	-75.6	3.8	1.49e+00	0	28	104	0	84	23989
2026-01-14 08:40:00.49	334.78	11.38	-59.5	-75.6	3.8	1.49e+00	0	27	104	0	84	24028
2026-01-14 08:40:01.49	334.73	11.29	-59.5	-75.6	3.8	1.49e+00	0	28	104	0	84	24001
2026-01-14 08:40:02.49	334.68	11.20	-59.5	-75.6	3.8	1.49e+00	0	27	104	0	84	24033
2026-01-14 08:40:03.48	334.64	11.11	-59.6	-75.6	3.8	1.49e+00	0	27	104	0	84	24041
2026-01-14 08:40:04.48	334.59	11.02	-59.5	-75.6	3.8	1.49e+00	0	27	104	0	84	24025
2026-01-14 08:40:05.47	334.55	10.94	-59.6	-75.6	3.8	1.49e+00	0	27	104	0	84	24072
2026-01-14 08:40:06.47	334.50	10.85	-59.6	-75.6	3.8	1.49e+00	0	27	104	0	84	24026
2026-01-14 08:40:07.47	334.46	10.76	-59.6	-75.6	3.8	1.49e+00	0	27	104	0	84	23972
2026-01-14 08:40:08.45	334.42	10.68	-59.6	-75.6	3.8	1.49e+00	0	27	104	0	84	24010
2026-01-14 08:40:09.45	334.37	10.59	-59.6	-75.6	3.8	1.49e+00	0	27	104	0	84	24046
2026-01-14 08:40:10.46	334.33	10.51	-59.5	-75.6	3.8	1.49e+00	0	27	104	0	84	24062
2026-01-14 08:40:11.45	334.28	10.42	-59.6	-75.6	3.8	1.49e+00	0	27	104	0	84	24016
