passes_logs/2026/01/14/R3.2S_Murmansk/R3.2S_Murmansk__20260114_122700_FENGYUN_3D_rec.log

#Pass ID: 20260114_122700_FENGYUN 3D
#Satellite: FENGYUN 3D
#Configuration: FENGYUN 3D
#almurnet v.1.7.20251203
#Start time: 2026-01-14 12:27:01

#Version: 2.2.20231116
#Station: R3.2S_Murmansk
#Location: 33.079688 lon 68.888172 lat
#TLE: 1 43010U 17072A   26013.94640698 -.00000044  00000+0  88349-6 0  9999
#TLE: 2 43010  98.9934 345.7464 0002313 110.9627 249.1796 14.19695403423100

#Time	Az	El	Level	Level2	SNR	BER	BlckErr	Temp	State	Recorded	gain1	gain2
2026-01-14 12:27:01.56	173.26	2.09	-58.3	-71.3	3.8	8.45e-01	0	26	0	0	83	15452
2026-01-14 12:27:02.55	173.29	2.15	-58.2	-71.0	3.8	8.47e-01	0	26	104	0	81	16705
2026-01-14 12:27:03.56	173.32	2.22	-58.3	-71.0	3.8	8.45e-01	0	25	104	0	81	16762
2026-01-14 12:27:04.57	173.35	2.28	-58.2	-70.4	3.8	8.45e-01	0	26	104	0	81	15670
2026-01-14 12:27:05.58	173.38	2.34	-58.2	-70.5	3.8	8.46e-01	0	26	104	0	81	15853
2026-01-14 12:27:06.59	173.41	2.41	-58.2	-70.4	3.8	8.45e-01	0	26	104	0	81	15742
2026-01-14 12:27:07.60	173.44	2.47	-58.2	-70.6	3.8	8.45e-01	0	26	104	0	81	15975
2026-01-14 12:27:08.61	173.47	2.54	-58.2	-70.8	3.8	8.46e-01	0	26	104	0	81	16500
2026-01-14 12:27:09.61	173.50	2.60	-58.2	-70.8	3.8	8.45e-01	0	26	104	0	81	16488
2026-01-14 12:27:10.63	173.53	2.67	-58.2	-71.1	3.8	8.46e-01	0	26	104	0	81	16988
2026-01-14 12:27:11.64	173.55	2.73	-58.3	-71.1	3.8	8.45e-01	0	26	104	0	81	16979
2026-01-14 12:27:12.65	173.58	2.80	-58.2	-71.0	3.8	8.45e-01	0	26	104	0	81	16857
2026-01-14 12:27:13.66	173.61	2.86	-58.2	-71.1	3.8	8.45e-01	0	26	104	0	81	16900
2026-01-14 12:27:14.67	173.64	2.93	-58.2	-70.9	3.8	8.45e-01	0	26	104	0	81	16509
2026-01-14 12:27:15.68	173.67	2.99	-58.2	-70.8	3.8	8.45e-01	0	26	104	0	81	16331
2026-01-14 12:27:16.69	173.70	3.06	-58.2	-70.9	3.8	8.46e-01	0	26	104	0	81	16504
2026-01-14 12:27:17.70	173.74	3.13	-58.2	-71.0	3.8	8.46e-01	0	26	104	0	81	16792
2026-01-14 12:27:18.70	173.77	3.19	-58.3	-71.2	3.8	8.44e-01	0	26	104	0	81	17252
2026-01-14 12:27:19.72	173.80	3.26	-58.3	-71.3	3.8	8.44e-01	0	26	104	0	81	17326
2026-01-14 12:27:20.72	173.83	3.32	-58.3	-71.0	3.8	8.46e-01	0	26	104	0	81	16835
2026-01-14 12:27:21.73	173.86	3.39	-58.2	-70.3	3.8	8.46e-01	0	26	104	0	81	15406
2026-01-14 12:27:22.74	173.89	3.46	-58.1	-69.1	3.8	8.45e-01	0	26	104	0	81	13555
2026-01-14 12:27:23.75	173.92	3.52	-58.0	-67.8	4.2	8.44e-01	0	26	104	0	81	11625
2026-01-14 12:27:24.75	173.95	3.59	-57.8	-66.5	4.6	8.21e-01	0	26	0	0	81	9969
2026-01-14 12:27:25.76	173.98	3.66	-57.5	-65.0	5.3	7.40e-01	0	26	0	0	81	8445
2026-01-14 12:27:26.77	174.01	3.73	-57.5	-64.6	5.5	6.09e-01	0	26	0	2097152	81	8057
2026-01-14 12:27:27.78	174.04	3.79	-57.1	-63.4	6.4	2.65e-01	0	26	0	7340032	80	7375
2026-01-14 12:27:28.79	174.08	3.86	-57.0	-62.8	6.8	1.85e-01	0	26	0	13631488	80	6939
2026-01-14 12:27:29.80	174.11	3.93	-56.8	-62.4	7.2	1.35e-01	0	26	0	18874368	80	6576
2026-01-14 12:27:30.81	174.14	4.00	-56.7	-62.0	7.5	8.10e-02	0	26	0	24117248	80	6295
2026-01-14 12:27:31.82	174.17	4.06	-56.5	-61.6	7.8	5.92e-02	0	26	0	30408704	79	6370
2026-01-14 12:27:32.83	174.20	4.13	-56.3	-60.9	8.4	2.87e-02	0	27	0	35651584	79	5900
2026-01-14 12:27:33.84	174.24	4.20	-55.7	-60.5	8.7	2.50e-02	0	26	0	41943040	78	5971
2026-01-14 12:27:34.85	174.27	4.27	-55.7	-59.7	9.5	6.11e-03	0	26	0	47185920	78	5408
2026-01-14 12:27:35.86	174.30	4.34	-55.4	-59.0	10.0	4.72e-03	0	26	0	52428800	77	5302
2026-01-14 12:27:36.87	174.34	4.41	-55.2	-58.7	10.2	1.26e-03	0	26	0	58720256	77	5156
2026-01-14 12:27:37.88	174.37	4.48	-54.8	-58.0	10.8	6.04e-04	0	26	0	63963136	76	4987
2026-01-14 12:27:38.89	174.40	4.55	-54.4	-57.4	11.2	1.42e-04	0	26	0	70254592	75	4941
2026-01-14 12:27:39.89	174.43	4.62	-54.0	-56.8	11.5	3.20e-05	0	27	0	75497472	74	4910
2026-01-14 12:27:40.90	174.47	4.68	-53.9	-56.6	11.7	2.51e-05	0	27	0	81788928	74	4777
2026-01-14 12:27:41.91	174.50	4.75	-53.9	-56.6	11.7	2.05e-05	0	26	0	87031808	74	4785
2026-01-14 12:27:42.92	174.53	4.82	-53.8	-56.5	11.8	8.00e-06	0	26	0	93323264	74	4734
2026-01-14 12:27:43.93	174.57	4.90	-53.8	-56.5	11.8	3.66e-05	0	26	0	98566144	74	4750
2026-01-14 12:27:44.94	174.60	4.97	-54.0	-56.8	11.5	3.31e-05	0	26	0	103809024	74	4912
2026-01-14 12:27:45.95	174.64	5.04	-54.4	-57.4	11.1	1.17e-04	0	27	0	110100480	74	5248
2026-01-14 12:27:46.96	174.67	5.11	-55.2	-58.8	10.0	6.32e-04	0	26	0	115343360	75	5846
2026-01-14 12:27:47.96	174.70	5.18	-54.1	-56.9	11.6	4.11e-05	0	27	0	121634816	74	4937
2026-01-14 12:27:48.97	174.74	5.25	-57.2	-63.9	6.0	3.01e-02	0	27	0	126877696	79	8288
2026-01-14 12:27:49.97	174.77	5.32	-58.2	-70.5	3.8	8.47e-01	0	26	104	128974848	81	15788
2026-01-14 12:27:50.98	174.81	5.39	-49.9	-51.5	14.1	0.00e+00	0	27	0	130023424	66	4203
2026-01-14 12:27:51.99	174.84	5.46	-49.8	-51.4	14.2	0.00e+00	0	27	0	135266304	66	4175
2026-01-14 12:27:52.99	174.88	5.53	-49.9	-51.5	14.2	0.00e+00	0	27	0	141557760	66	4196
2026-01-14 12:27:54.00	174.91	5.61	-49.7	-51.3	14.1	0.00e+00	0	27	0	146800640	65	4366
2026-01-14 12:27:55.01	174.95	5.68	-49.6	-51.1	14.2	0.00e+00	0	27	0	153092096	65	4269
2026-01-14 12:27:56.02	174.98	5.75	-49.9	-51.6	14.0	0.00e+00	0	27	0	158334976	65	4494
2026-01-14 12:27:57.03	175.02	5.82	-49.6	-51.2	14.2	0.00e+00	0	27	0	164626432	65	4314
2026-01-14 12:27:58.04	175.06	5.90	-50.1	-51.7	13.9	0.00e+00	0	27	0	169869312	65	4592
2026-01-14 12:27:59.05	175.09	5.97	-49.6	-51.1	14.2	0.00e+00	0	27	0	175112192	65	4277
2026-01-14 12:28:00.05	175.13	6.04	-49.7	-51.3	14.1	0.00e+00	0	27	0	181403648	65	4361
2026-01-14 12:28:01.06	175.17	6.11	-49.5	-51.0	14.3	0.00e+00	0	27	0	186646528	65	4240
2026-01-14 12:28:02.07	175.20	6.19	-49.7	-51.3	14.1	0.00e+00	0	27	0	192937984	65	4372
2026-01-14 12:28:03.08	175.24	6.26	-49.5	-51.1	14.2	0.00e+00	0	27	0	198180864	65	4250
2026-01-14 12:28:04.09	175.28	6.34	-49.5	-51.0	14.3	0.00e+00	0	27	0	203423744	65	4226
2026-01-14 12:28:05.10	175.31	6.41	-49.5	-51.0	14.3	0.00e+00	0	27	0	209715200	65	4239
2026-01-14 12:28:06.10	175.35	6.48	-49.5	-51.0	14.3	0.00e+00	0	27	0	214958080	65	4210
2026-01-14 12:28:07.11	175.39	6.56	-49.5	-51.0	14.3	0.00e+00	0	27	0	221249536	65	4223
2026-01-14 12:28:08.11	175.42	6.63	-49.5	-51.1	14.2	0.00e+00	0	27	0	226492416	65	4259
2026-01-14 12:28:09.12	175.46	6.71	-49.7	-51.3	14.2	0.00e+00	0	27	0	231735296	65	4341
2026-01-14 12:28:10.13	175.50	6.78	-49.7	-51.3	14.2	0.00e+00	0	27	0	238026752	65	4345
2026-01-14 12:28:11.14	175.54	6.86	-49.5	-51.0	14.3	0.00e+00	0	27	0	243269632	65	4238
2026-01-14 12:28:12.15	175.58	6.93	-49.3	-50.8	14.4	0.00e+00	0	27	0	249561088	65	4142
2026-01-14 12:28:13.16	175.61	7.01	-49.4	-51.0	14.3	0.00e+00	0	27	0	254803968	65	4195
2026-01-14 12:28:14.17	175.65	7.09	-49.3	-50.8	14.4	0.00e+00	0	27	0	261095424	65	4140
2026-01-14 12:28:15.18	175.69	7.16	-49.2	-50.7	14.5	0.00e+00	0	27	0	266338304	65	4065
2026-01-14 12:28:16.19	175.73	7.24	-49.3	-50.7	14.4	0.00e+00	0	27	0	271581184	65	4098
2026-01-14 12:28:17.19	175.77	7.32	-49.1	-50.6	14.5	0.00e+00	0	27	0	277872640	64	4274
2026-01-14 12:28:18.21	175.81	7.39	-49.1	-50.6	14.4	0.00e+00	0	27	0	283115520	64	4276
2026-01-14 12:28:19.21	175.85	7.47	-48.9	-50.4	14.5	0.00e+00	0	27	0	289406976	64	4156
2026-01-14 12:28:20.22	175.89	7.55	-49.0	-50.5	14.5	0.00e+00	0	27	0	294649856	64	4219
2026-01-14 12:28:21.23	175.93	7.63	-49.1	-50.6	14.4	0.00e+00	0	27	0	299892736	64	4268
2026-01-14 12:28:22.24	175.97	7.70	-49.0	-50.4	14.5	0.00e+00	0	27	0	306184192	64	4170
2026-01-14 12:28:23.25	176.01	7.78	-49.1	-50.5	14.4	0.00e+00	0	27	0	311427072	64	4237
2026-01-14 12:28:24.26	176.05	7.86	-48.9	-50.3	14.5	0.00e+00	0	27	0	317718528	64	4139
2026-01-14 12:28:25.27	176.09	7.94	-48.8	-50.2	14.6	0.00e+00	0	27	0	322961408	64	4069
2026-01-14 12:28:26.28	176.13	8.02	-48.9	-50.3	14.5	0.00e+00	0	27	0	328204288	64	4141
2026-01-14 12:28:27.29	176.17	8.10	-48.8	-50.2	14.6	0.00e+00	0	27	0	334495744	64	4065
2026-01-14 12:28:28.29	176.21	8.17	-48.8	-50.2	14.6	0.00e+00	0	27	0	339738624	64	4096
2026-01-14 12:28:29.30	176.26	8.25	-48.6	-50.0	14.6	0.00e+00	0	27	0	346030080	63	4204
2026-01-14 12:28:30.31	176.30	8.33	-48.8	-50.2	14.5	0.00e+00	0	27	0	351272960	63	4302
2026-01-14 12:28:31.32	176.34	8.41	-48.9	-50.3	14.5	0.00e+00	0	27	0	357564416	63	4356
2026-01-14 12:28:32.33	176.38	8.49	-48.8	-50.2	14.5	0.00e+00	0	27	0	362807296	63	4298
2026-01-14 12:28:33.34	176.42	8.57	-48.6	-50.0	14.6	0.00e+00	0	27	0	368050176	63	4233
2026-01-14 12:28:34.35	176.47	8.66	-48.6	-50.0	14.6	0.00e+00	0	27	0	374341632	63	4214
2026-01-14 12:28:35.35	176.51	8.74	-48.5	-49.9	14.6	0.00e+00	0	27	0	379584512	63	4162
2026-01-14 12:28:36.36	176.55	8.82	-48.6	-50.0	14.6	0.00e+00	0	27	0	385875968	63	4203
2026-01-14 12:28:37.37	176.60	8.90	-48.6	-49.9	14.6	0.00e+00	0	27	0	391118848	63	4190
2026-01-14 12:28:38.38	176.64	8.98	-48.5	-49.8	14.7	0.00e+00	0	27	0	396361728	63	4132
2026-01-14 12:28:39.38	176.68	9.06	-48.5	-49.9	14.6	0.00e+00	0	27	0	402653184	63	4166
2026-01-14 12:28:40.39	176.73	9.14	-48.6	-50.0	14.6	0.00e+00	0	27	0	407896064	63	4202
2026-01-14 12:28:41.41	176.77	9.23	-48.5	-49.9	14.6	0.00e+00	0	27	0	413138944	63	4151
2026-01-14 12:28:42.41	176.82	9.31	-48.6	-50.0	14.6	0.00e+00	0	27	0	419430400	63	4194
2026-01-14 12:28:43.43	176.86	9.39	-48.6	-49.9	14.6	0.00e+00	0	27	0	424673280	63	4193
2026-01-14 12:28:44.44	176.91	9.48	-48.5	-49.9	14.6	0.00e+00	0	27	0	430964736	63	4172
2026-01-14 12:28:45.45	176.95	9.56	-48.6	-50.0	14.6	0.00e+00	0	27	0	436207616	63	4225
2026-01-14 12:28:46.45	177.00	9.64	-48.6	-50.0	14.6	0.00e+00	0	27	0	442499072	63	4201
2026-01-14 12:28:47.47	177.04	9.73	-48.5	-49.9	14.6	0.00e+00	0	27	0	447741952	63	4170
2026-01-14 12:28:48.48	177.09	9.81	-48.6	-50.0	14.6	0.00e+00	0	27	0	454033408	63	4239
2026-01-14 12:28:49.49	177.13	9.90	-48.5	-49.9	14.6	0.00e+00	0	27	0	459276288	63	4188
2026-01-14 12:28:50.50	177.18	9.98	-48.7	-50.1	14.6	0.00e+00	0	27	0	464519168	63	4257
2026-01-14 12:28:51.50	177.23	10.07	-48.7	-50.1	14.6	0.00e+00	0	27	0	470810624	63	4249
2026-01-14 12:28:52.51	177.27	10.15	-48.7	-50.1	14.5	0.00e+00	0	27	0	476053504	63	4281
2026-01-14 12:28:53.52	177.32	10.24	-48.6	-49.9	14.6	0.00e+00	0	27	0	482344960	63	4188
2026-01-14 12:28:54.53	177.37	10.32	-48.6	-50.0	14.6	0.00e+00	0	27	0	487587840	63	4200
2026-01-14 12:28:55.54	177.42	10.41	-48.6	-50.0	14.6	0.00e+00	0	27	0	492830720	63	4203
2026-01-14 12:28:56.55	177.46	10.50	-48.6	-50.0	14.6	0.00e+00	0	27	0	499122176	63	4228
2026-01-14 12:28:57.55	177.51	10.58	-48.6	-50.0	14.6	0.00e+00	0	27	0	504365056	63	4223
2026-01-14 12:28:58.56	177.56	10.67	-48.6	-50.0	14.6	0.00e+00	0	27	0	510656512	63	4204
2026-01-14 12:28:59.56	177.61	10.76	-48.6	-50.0	14.6	0.00e+00	0	27	0	515899392	63	4213
2026-01-14 12:29:00.57	177.66	10.85	-48.6	-50.0	14.6	0.00e+00	0	27	0	521142272	63	4215
2026-01-14 12:29:01.57	177.71	10.93	-48.6	-49.9	14.6	0.00e+00	0	27	0	527433728	63	4191
2026-01-14 12:29:02.58	177.75	11.02	-48.6	-50.0	14.6	0.00e+00	0	27	0	532676608	63	4211
2026-01-14 12:29:03.59	177.80	11.11	-48.7	-50.0	14.6	0.00e+00	0	27	0	538968064	63	4239
2026-01-14 12:29:04.60	177.85	11.20	-48.6	-50.0	14.6	0.00e+00	0	27	0	544210944	63	4222
2026-01-14 12:29:05.61	177.90	11.29	-48.5	-49.8	14.7	0.00e+00	0	27	0	550502400	63	4134
2026-01-14 12:29:06.62	177.96	11.38	-48.3	-49.6	14.8	0.00e+00	0	27	0	555745280	63	4037
2026-01-14 12:29:07.62	178.01	11.47	-48.3	-49.6	14.8	0.00e+00	0	27	0	560988160	63	4050
2026-01-14 12:29:08.63	178.06	11.56	-48.2	-49.6	14.8	0.00e+00	0	27	0	567279616	63	4016
2026-01-14 12:29:09.64	178.11	11.65	-48.2	-49.5	14.8	0.00e+00	0	27	0	572522496	63	4000
2026-01-14 12:29:10.65	178.16	11.74	-48.1	-49.4	14.7	0.00e+00	0	27	0	577765376	62	4178
2026-01-14 12:29:11.66	178.21	11.83	-48.1	-49.5	14.7	0.00e+00	0	27	0	584056832	62	4212
2026-01-14 12:29:12.67	178.26	11.92	-48.1	-49.5	14.7	0.00e+00	0	27	0	589299712	62	4208
2026-01-14 12:29:13.67	178.32	12.01	-48.0	-49.3	14.8	0.00e+00	0	27	0	595591168	62	4130
2026-01-14 12:29:14.68	178.37	12.10	-48.0	-49.4	14.8	0.00e+00	0	27	0	600834048	62	4148
2026-01-14 12:29:15.69	178.42	12.20	-48.0	-49.3	14.8	0.00e+00	0	27	0	606076928	62	4113
2026-01-14 12:29:16.70	178.48	12.29	-48.0	-49.3	14.8	0.00e+00	0	27	0	612368384	62	4123
2026-01-14 12:29:17.71	178.53	12.38	-48.0	-49.4	14.7	0.00e+00	0	27	0	617611264	62	4152
2026-01-14 12:29:18.72	178.59	12.48	-48.0	-49.3	14.8	0.00e+00	0	27	0	623902720	62	4142
2026-01-14 12:29:19.73	178.64	12.57	-47.8	-49.1	14.9	0.00e+00	0	27	0	629145600	62	4032
2026-01-14 12:29:20.74	178.69	12.67	-47.8	-49.1	14.9	0.00e+00	0	27	0	635437056	62	4025
2026-01-14 12:29:21.74	178.75	12.76	-47.9	-49.2	14.8	0.00e+00	0	27	0	640679936	62	4098
2026-01-14 12:29:22.75	178.80	12.85	-47.9	-49.2	14.8	0.00e+00	0	27	0	645922816	62	4062
2026-01-14 12:29:23.76	178.86	12.95	-47.9	-49.2	14.8	0.00e+00	0	27	0	652214272	62	4097
2026-01-14 12:29:24.77	178.92	13.04	-47.8	-49.2	14.8	0.00e+00	0	27	0	657457152	62	4053
2026-01-14 12:29:25.79	178.97	13.14	-47.9	-49.2	14.8	0.00e+00	0	27	0	663748608	62	4078
2026-01-14 12:29:26.79	179.03	13.24	-47.9	-49.2	14.8	0.00e+00	0	27	0	668991488	62	4075
2026-01-14 12:29:27.80	179.09	13.33	-47.8	-49.2	14.8	0.00e+00	0	27	0	674234368	62	4060
2026-01-14 12:29:28.81	179.15	13.43	-47.8	-49.1	14.9	0.00e+00	0	27	0	680525824	62	4016
2026-01-14 12:29:29.82	179.20	13.53	-47.7	-49.0	14.9	0.00e+00	0	27	0	685768704	62	4000
2026-01-14 12:29:30.83	179.26	13.63	-47.8	-49.1	14.9	0.00e+00	0	27	0	692060160	62	4011
2026-01-14 12:29:31.85	179.32	13.73	-47.8	-49.1	14.9	0.00e+00	0	27	0	697303040	62	4034
2026-01-14 12:29:32.86	179.38	13.82	-47.6	-48.9	14.8	0.00e+00	0	27	0	702545920	61	4154
2026-01-14 12:29:33.86	179.44	13.92	-47.6	-48.9	14.8	0.00e+00	0	27	0	708837376	61	4152
2026-01-14 12:29:34.87	179.50	14.02	-47.5	-48.8	14.8	0.00e+00	0	27	0	714080256	61	4145
2026-01-14 12:29:35.88	179.56	14.12	-47.6	-48.9	14.8	0.00e+00	0	27	0	720371712	61	4160
2026-01-14 12:29:36.88	179.62	14.22	-47.5	-48.8	14.8	0.00e+00	0	27	0	725614592	61	4136
2026-01-14 12:29:37.89	179.68	14.32	-47.5	-48.8	14.9	0.00e+00	0	27	0	731906048	61	4116
2026-01-14 12:29:38.91	179.74	14.42	-47.5	-48.8	14.9	0.00e+00	0	27	0	737148928	61	4109
2026-01-14 12:29:39.91	179.80	14.52	-47.4	-48.7	14.9	0.00e+00	0	27	0	743440384	61	4054
2026-01-14 12:29:40.92	179.86	14.62	-47.5	-48.8	14.9	0.00e+00	0	27	0	748683264	61	4105
2026-01-14 12:29:41.93	179.93	14.73	-47.5	-48.7	14.9	0.00e+00	0	27	0	753926144	61	4098
2026-01-14 12:29:42.94	179.99	14.83	-47.3	-48.5	15.0	0.00e+00	0	27	0	760217600	61	4002
2026-01-14 12:29:43.95	180.05	14.93	-47.2	-48.4	15.0	0.00e+00	0	27	0	765460480	61	3955
2026-01-14 12:29:44.96	180.12	15.03	-47.1	-48.4	14.9	0.00e+00	0	27	0	771751936	60	4158
2026-01-14 12:29:45.97	180.18	15.14	-47.2	-48.5	14.9	0.00e+00	0	27	0	776994816	60	4205
2026-01-14 12:29:46.97	180.24	15.24	-47.2	-48.4	14.9	0.00e+00	0	27	0	782237696	60	4186
2026-01-14 12:29:47.97	180.31	15.34	-47.1	-48.4	14.9	0.00e+00	0	27	0	788529152	60	4163
2026-01-14 12:29:48.98	180.37	15.45	-47.1	-48.4	14.9	0.00e+00	0	27	0	793772032	60	4164
2026-01-14 12:29:49.99	180.44	15.55	-47.2	-48.5	14.9	0.00e+00	0	27	0	799014912	60	4194
2026-01-14 12:29:51.00	180.51	15.66	-47.1	-48.4	14.9	0.00e+00	0	27	0	805306368	60	4175
2026-01-14 12:29:52.00	180.57	15.77	-47.2	-48.5	14.9	0.00e+00	0	27	0	810549248	60	4202
2026-01-14 12:29:53.01	180.64	15.87	-47.1	-48.4	14.9	0.00e+00	0	27	0	816840704	60	4180
2026-01-14 12:29:54.02	180.71	15.98	-47.1	-48.4	14.9	0.00e+00	0	27	0	822083584	60	4176
2026-01-14 12:29:55.03	180.78	16.09	-47.2	-48.4	14.9	0.00e+00	0	27	0	828375040	60	4189
2026-01-14 12:29:56.04	180.84	16.19	-47.1	-48.3	14.9	0.00e+00	0	27	0	833617920	60	4142
2026-01-14 12:29:57.05	180.91	16.30	-47.1	-48.4	14.9	0.00e+00	0	27	0	838860800	60	4149
2026-01-14 12:29:58.06	180.98	16.41	-47.1	-48.4	14.9	0.00e+00	0	27	0	845152256	60	4150
2026-01-14 12:29:59.06	181.05	16.52	-46.9	-48.1	15.0	0.00e+00	0	27	0	850395136	60	4036
2026-01-14 12:30:00.07	181.12	16.63	-46.8	-48.0	15.1	0.00e+00	0	27	0	856686592	60	3994
2026-01-14 12:30:01.07	181.19	16.74	-46.8	-48.0	15.1	0.00e+00	0	27	0	861929472	60	3981
2026-01-14 12:30:02.08	181.26	16.85	-46.7	-47.9	15.1	0.00e+00	0	27	0	867172352	60	3943
2026-01-14 12:30:03.09	181.33	16.96	-47.0	-48.3	14.8	0.00e+00	0	27	0	873463808	59	4376
2026-01-14 12:30:04.10	181.41	17.07	-47.1	-48.3	14.8	0.00e+00	0	27	0	878706688	59	4387
2026-01-14 12:30:05.11	181.48	17.18	-47.0	-48.3	14.8	0.00e+00	0	27	0	884998144	59	4353
2026-01-14 12:30:06.11	181.55	17.29	-47.1	-48.4	14.8	0.00e+00	0	27	0	890241024	59	4413
2026-01-14 12:30:07.12	181.63	17.41	-47.0	-48.3	14.8	0.00e+00	0	27	0	895483904	59	4366
2026-01-14 12:30:08.13	181.70	17.52	-46.9	-48.2	14.9	0.00e+00	0	27	0	901775360	59	4313
2026-01-14 12:30:09.14	181.78	17.64	-47.0	-48.3	14.9	0.00e+00	0	27	0	907018240	59	4367
2026-01-14 12:30:10.15	181.85	17.75	-47.0	-48.3	14.8	0.00e+00	0	27	0	913309696	59	4371
2026-01-14 12:30:11.16	181.93	17.86	-47.0	-48.3	14.8	0.00e+00	0	27	0	918552576	59	4360
2026-01-14 12:30:12.17	182.00	17.98	-47.0	-48.3	14.9	0.00e+00	0	27	0	924844032	59	4375
2026-01-14 12:30:13.18	182.08	18.10	-47.0	-48.3	14.8	0.00e+00	0	27	0	930086912	59	4359
2026-01-14 12:30:14.19	182.16	18.21	-47.1	-48.4	14.8	0.00e+00	0	27	0	935329792	59	4409
2026-01-14 12:30:15.20	182.24	18.33	-46.9	-48.2	14.9	0.00e+00	0	27	0	941621248	59	4324
2026-01-14 12:30:16.21	182.32	18.45	-46.8	-48.1	14.9	0.00e+00	0	27	0	946864128	59	4280
2026-01-14 12:30:17.21	182.39	18.56	-46.8	-48.1	14.9	0.00e+00	0	27	0	953155584	59	4247
2026-01-14 12:30:18.22	182.47	18.68	-46.7	-48.0	15.0	0.00e+00	0	27	0	958398464	59	4212
2026-01-14 12:30:19.24	182.56	18.80	-46.8	-48.0	15.0	0.00e+00	0	27	0	963641344	59	4233
2026-01-14 12:30:20.24	182.64	18.92	-46.7	-48.0	15.0	0.00e+00	0	27	0	969932800	59	4219
2026-01-14 12:30:21.25	182.72	19.04	-46.7	-48.0	15.0	0.00e+00	0	27	0	975175680	59	4214
2026-01-14 12:30:22.26	182.80	19.16	-46.7	-47.9	15.0	0.00e+00	0	27	0	981467136	59	4193
2026-01-14 12:30:23.27	182.88	19.28	-46.7	-48.0	15.0	0.00e+00	0	27	0	986710016	59	4194
2026-01-14 12:30:24.28	182.97	19.40	-46.8	-48.1	14.9	0.00e+00	0	27	0	991952896	59	4255
2026-01-14 12:30:25.29	183.05	19.53	-46.7	-48.0	15.0	0.00e+00	0	27	0	998244352	59	4195
2026-01-14 12:30:26.30	183.14	19.65	-46.8	-48.0	14.9	0.00e+00	0	27	0	1003487232	59	4238
2026-01-14 12:30:27.31	183.22	19.77	-46.8	-48.1	14.9	0.00e+00	0	27	0	1009778688	59	4271
2026-01-14 12:30:28.31	183.31	19.89	-46.8	-48.1	14.9	0.00e+00	0	27	0	1015021568	59	4272
2026-01-14 12:30:29.32	183.39	20.02	-46.7	-48.0	15.0	0.00e+00	0	27	0	1021313024	59	4207
2026-01-14 12:30:30.33	183.48	20.14	-46.7	-47.9	15.0	0.00e+00	0	27	0	1026555904	59	4181
2026-01-14 12:30:31.34	183.57	20.27	-46.6	-47.9	15.0	0.00e+00	0	27	0	1031798784	59	4165
2026-01-14 12:30:32.35	183.66	20.39	-46.7	-48.0	15.0	0.00e+00	0	27	0	1038090240	59	4214
2026-01-14 12:30:33.36	183.75	20.52	-46.4	-47.7	15.1	0.00e+00	0	27	0	1043333120	59	4070
2026-01-14 12:30:34.36	183.84	20.65	-46.5	-47.7	15.1	0.00e+00	0	27	0	1049624576	59	4096
2026-01-14 12:30:35.37	183.93	20.77	-46.5	-47.7	15.1	0.00e+00	0	27	0	1054867456	59	4076
2026-01-14 12:30:36.38	184.02	20.90	-46.4	-47.7	15.1	0.00e+00	0	27	0	1060110336	59	4053
2026-01-14 12:30:37.38	184.11	21.03	-46.4	-47.6	15.1	0.00e+00	0	27	0	1066401792	59	4036
2026-01-14 12:30:38.39	184.21	21.16	-46.4	-47.6	15.1	0.00e+00	0	27	0	1071644672	59	4047
2026-01-14 12:30:39.40	184.30	21.29	-46.5	-47.7	15.1	0.00e+00	0	27	0	1076887552	59	4091
2026-01-14 12:30:40.41	184.40	21.42	-46.5	-47.7	15.1	0.00e+00	0	27	0	1083179008	59	4071
2026-01-14 12:30:41.42	184.49	21.55	-46.4	-47.6	15.1	0.00e+00	0	27	0	1088421888	59	4024
2026-01-14 12:30:42.43	184.59	21.68	-46.3	-47.5	15.2	0.00e+00	0	27	0	1094713344	59	3975
2026-01-14 12:30:43.44	184.68	21.82	-46.3	-47.5	15.2	0.00e+00	0	27	0	1099956224	59	3988
2026-01-14 12:30:44.45	184.78	21.95	-46.2	-47.5	15.2	0.00e+00	0	27	0	1106247680	59	3962
2026-01-14 12:30:45.46	184.88	22.08	-46.2	-47.4	15.2	0.00e+00	0	27	0	1111490560	59	3945
2026-01-14 12:30:46.47	184.98	22.22	-46.2	-47.5	15.2	0.00e+00	0	27	0	1117782016	59	3959
2026-01-14 12:30:47.47	185.08	22.35	-46.2	-47.4	15.2	0.00e+00	0	27	0	1123024896	59	3946
2026-01-14 12:30:48.48	185.18	22.49	-46.2	-47.4	15.2	0.00e+00	0	27	0	1128267776	59	3958
2026-01-14 12:30:49.49	185.28	22.62	-46.2	-47.4	15.2	0.00e+00	0	27	0	1134559232	59	3951
2026-01-14 12:30:50.51	185.39	22.76	-46.1	-47.4	15.1	0.00e+00	0	27	0	1139802112	58	4146
2026-01-14 12:30:51.51	185.49	22.90	-46.2	-47.5	15.0	0.00e+00	0	27	0	1146093568	58	4206
2026-01-14 12:30:52.52	185.59	23.04	-46.2	-47.4	15.0	0.00e+00	0	27	0	1151336448	58	4186
2026-01-14 12:30:53.53	185.70	23.17	-46.2	-47.4	15.0	0.00e+00	0	27	0	1156579328	58	4172
2026-01-14 12:30:54.54	185.81	23.31	-46.0	-47.2	15.1	0.00e+00	0	27	0	1162870784	58	4084
2026-01-14 12:30:55.55	185.91	23.45	-46.0	-47.2	15.1	0.00e+00	0	27	0	1168113664	58	4097
2026-01-14 12:30:56.56	186.02	23.60	-46.0	-47.2	15.1	0.00e+00	0	27	0	1174405120	58	4078
2026-01-14 12:30:57.57	186.13	23.74	-46.0	-47.2	15.1	0.00e+00	0	27	0	1179648000	58	4089
2026-01-14 12:30:58.58	186.24	23.88	-46.0	-47.2	15.1	0.00e+00	0	27	0	1184890880	58	4086
2026-01-14 12:30:59.59	186.35	24.02	-46.0	-47.2	15.1	0.00e+00	0	27	0	1191182336	58	4070
2026-01-14 12:31:00.59	186.46	24.16	-46.0	-47.2	15.1	0.00e+00	0	27	0	1196425216	58	4082
2026-01-14 12:31:01.60	186.58	24.31	-45.9	-47.1	15.2	0.00e+00	0	27	0	1202716672	58	4040
2026-01-14 12:31:02.60	186.69	24.45	-45.7	-46.9	15.3	0.00e+00	0	27	0	1207959552	58	3920
2026-01-14 12:31:03.61	186.81	24.60	-45.6	-46.8	15.1	0.00e+00	0	27	0	1214251008	57	4134
2026-01-14 12:31:04.62	186.92	24.74	-45.6	-46.8	15.1	0.00e+00	0	27	0	1219493888	57	4117
2026-01-14 12:31:05.63	187.04	24.89	-45.6	-46.8	15.1	0.00e+00	0	27	0	1224736768	57	4136
2026-01-14 12:31:06.63	187.16	25.04	-45.7	-46.9	15.1	0.00e+00	0	27	0	1231028224	57	4156
2026-01-14 12:31:07.64	187.28	25.18	-45.7	-46.9	15.1	0.00e+00	0	27	0	1236271104	57	4148
2026-01-14 12:31:08.65	187.40	25.33	-45.8	-47.0	15.1	0.00e+00	0	27	0	1241513984	57	4212
2026-01-14 12:31:09.66	187.52	25.48	-45.8	-47.0	15.1	0.00e+00	0	27	0	1247805440	57	4205
2026-01-14 12:31:10.67	187.64	25.63	-45.7	-46.9	15.1	0.00e+00	0	27	0	1253048320	57	4158
2026-01-14 12:31:11.68	187.76	25.79	-45.7	-46.9	15.1	0.00e+00	0	28	0	1259339776	57	4160
2026-01-14 12:31:12.69	187.89	25.94	-45.6	-46.8	15.1	0.00e+00	0	27	0	1264582656	57	4136
2026-01-14 12:31:13.70	188.01	26.09	-45.5	-46.7	15.2	0.00e+00	0	27	0	1269825536	57	4060
2026-01-14 12:31:14.71	188.14	26.24	-45.6	-46.8	15.1	0.00e+00	0	27	0	1276116992	57	4112
2026-01-14 12:31:15.72	188.27	26.40	-45.6	-46.8	15.1	0.00e+00	0	27	0	1281359872	57	4108
2026-01-14 12:31:16.73	188.40	26.55	-45.5	-46.7	15.2	0.00e+00	0	27	0	1287651328	57	4064
2026-01-14 12:31:17.74	188.53	26.71	-45.6	-46.8	15.2	0.00e+00	0	27	0	1292894208	57	4101
2026-01-14 12:31:18.75	188.66	26.86	-45.6	-46.8	15.1	0.00e+00	0	27	0	1299185664	57	4127
2026-01-14 12:31:19.76	188.80	27.02	-45.5	-46.7	15.2	0.00e+00	0	27	0	1304428544	57	4087
2026-01-14 12:31:20.76	188.93	27.18	-45.5	-46.7	15.2	0.00e+00	0	27	0	1310720000	57	4080
2026-01-14 12:31:21.77	189.07	27.34	-45.5	-46.7	15.2	0.00e+00	0	27	0	1315962880	57	4090
2026-01-14 12:31:22.78	189.20	27.50	-45.5	-46.7	15.2	0.00e+00	0	27	0	1321205760	57	4088
2026-01-14 12:31:23.79	189.34	27.66	-45.6	-46.8	15.1	0.00e+00	0	27	0	1327497216	57	4110
2026-01-14 12:31:24.80	189.48	27.82	-45.7	-46.7	15.1	0.00e+00	0	27	0	1332740096	57	4092
2026-01-14 12:31:25.81	189.62	27.98	-45.6	-46.7	15.2	0.00e+00	0	27	0	1339031552	57	4069
2026-01-14 12:31:26.82	189.77	28.14	-45.7	-46.8	15.1	0.00e+00	0	27	0	1344274432	57	4115
2026-01-14 12:31:27.83	189.91	28.30	-45.8	-46.9	15.1	0.00e+00	0	27	0	1349517312	57	4155
2026-01-14 12:31:28.83	190.05	28.47	-45.6	-46.7	15.2	0.00e+00	0	27	0	1355808768	57	4059
2026-01-14 12:31:29.84	190.20	28.63	-45.6	-46.7	15.2	0.00e+00	0	27	0	1361051648	57	4076
2026-01-14 12:31:30.84	190.35	28.80	-45.5	-46.6	15.2	0.00e+00	0	27	0	1366294528	57	4012
2026-01-14 12:31:31.85	190.50	28.96	-45.4	-46.5	15.2	0.00e+00	0	27	0	1372585984	57	3961
2026-01-14 12:31:32.86	190.65	29.13	-45.4	-46.4	15.2	0.00e+00	0	28	0	1377828864	57	3954
2026-01-14 12:31:33.87	190.80	29.30	-45.3	-46.3	15.3	0.00e+00	0	27	0	1384120320	57	3901
2026-01-14 12:31:34.88	190.96	29.47	-45.5	-46.5	15.2	0.00e+00	0	27	0	1389363200	57	3995
2026-01-14 12:31:35.89	191.11	29.63	-45.6	-46.6	15.2	0.00e+00	0	27	0	1395654656	57	4048
2026-01-14 12:31:36.90	191.27	29.80	-45.8	-46.8	15.1	0.00e+00	0	27	0	1400897536	57	4137
2026-01-14 12:31:37.90	191.43	29.97	-45.8	-46.9	15.1	0.00e+00	0	27	0	1406140416	57	4183
2026-01-14 12:31:38.92	191.59	30.15	-45.8	-46.9	15.1	0.00e+00	0	28	0	1412431872	57	4167
2026-01-14 12:31:39.93	191.75	30.32	-45.9	-47.0	15.1	0.00e+00	0	27	0	1417674752	57	4194
2026-01-14 12:31:40.93	191.92	30.49	-45.8	-46.9	15.1	0.00e+00	0	27	0	1423966208	57	4158
2026-01-14 12:31:41.94	192.08	30.67	-45.9	-47.0	15.1	0.00e+00	0	28	0	1429209088	57	4199
2026-01-14 12:31:42.95	192.25	30.84	-45.7	-46.8	15.1	0.00e+00	0	27	0	1434451968	57	4115
2026-01-14 12:31:43.96	192.42	31.02	-45.7	-46.7	15.2	0.00e+00	0	27	0	1440743424	57	4089
2026-01-14 12:31:44.97	192.59	31.19	-45.6	-46.7	15.2	0.00e+00	0	27	0	1445986304	57	4060
2026-01-14 12:31:45.98	192.77	31.37	-45.5	-46.6	15.2	0.00e+00	0	27	0	1452277760	57	4023
2026-01-14 12:31:46.98	192.94	31.55	-45.3	-46.4	15.3	0.00e+00	0	27	0	1457520640	57	3919
2026-01-14 12:31:47.99	193.12	31.73	-45.3	-46.3	15.3	0.00e+00	0	28	0	1462763520	57	3890
2026-01-14 12:31:49.00	193.29	31.91	-45.2	-46.3	15.3	0.00e+00	0	28	0	1469054976	57	3880
2026-01-14 12:31:50.00	193.47	32.09	-45.3	-46.4	15.3	0.00e+00	0	27	0	1474297856	57	3929
2026-01-14 12:31:51.01	193.66	32.27	-45.5	-46.5	15.2	0.00e+00	0	27	0	1480589312	57	3998
2026-01-14 12:31:52.02	193.84	32.45	-45.5	-46.6	15.2	0.00e+00	0	27	0	1485832192	57	4018
2026-01-14 12:31:53.03	194.03	32.63	-45.7	-46.7	15.1	0.00e+00	0	27	0	1492123648	57	4093
2026-01-14 12:31:54.04	194.22	32.82	-45.5	-46.5	15.2	0.00e+00	0	27	0	1497366528	57	4002
2026-01-14 12:31:55.04	194.41	33.00	-45.4	-46.5	15.2	0.00e+00	0	27	0	1502609408	57	3971
2026-01-14 12:31:56.05	194.60	33.18	-45.4	-46.5	15.2	0.00e+00	0	27	0	1508900864	57	3962
2026-01-14 12:31:57.06	194.80	33.37	-45.4	-46.4	15.3	0.00e+00	0	27	0	1514143744	57	3939
2026-01-14 12:31:58.07	194.99	33.56	-45.2	-46.2	15.3	0.00e+00	0	28	0	1520435200	57	3863
2026-01-14 12:31:59.08	195.19	33.74	-45.0	-46.1	15.2	0.00e+00	0	27	0	1525678080	56	4008
2026-01-14 12:32:00.09	195.39	33.93	-45.0	-46.1	15.2	0.00e+00	0	27	0	1530920960	56	4007
2026-01-14 12:32:01.09	195.60	34.12	-45.0	-46.0	15.2	0.00e+00	0	27	0	1537212416	56	3987
2026-01-14 12:32:02.10	195.80	34.31	-45.0	-46.1	15.2	0.00e+00	0	28	0	1542455296	56	4007
2026-01-14 12:32:03.10	196.01	34.50	-45.0	-46.1	15.2	0.00e+00	0	27	0	1547698176	56	4012
2026-01-14 12:32:04.11	196.22	34.69	-45.1	-46.2	15.2	0.00e+00	0	28	0	1553989632	56	4062
2026-01-14 12:32:05.11	196.43	34.88	-45.1	-46.2	15.2	0.00e+00	0	27	0	1559232512	56	4062
2026-01-14 12:32:06.13	196.65	35.08	-45.2	-46.3	15.2	0.00e+00	0	27	0	1565523968	56	4121
2026-01-14 12:32:07.14	196.87	35.27	-45.2	-46.3	15.2	0.00e+00	0	27	0	1570766848	56	4112
2026-01-14 12:32:08.14	197.09	35.46	-45.2	-46.3	15.1	0.00e+00	0	27	0	1577058304	56	4117
2026-01-14 12:32:09.15	197.31	35.66	-45.3	-46.3	15.1	0.00e+00	0	27	0	1582301184	56	4125
2026-01-14 12:32:10.16	197.54	35.85	-45.2	-46.3	15.2	0.00e+00	0	27	0	1588592640	56	4112
2026-01-14 12:32:11.17	197.77	36.05	-45.2	-46.2	15.2	0.00e+00	0	27	0	1593835520	56	4084
2026-01-14 12:32:12.17	198.00	36.24	-45.0	-46.1	15.2	0.00e+00	0	27	0	1599078400	56	4010
2026-01-14 12:32:13.18	198.23	36.44	-45.1	-46.2	15.2	0.00e+00	0	27	0	1605369856	56	4061
2026-01-14 12:32:14.19	198.47	36.64	-45.2	-46.2	15.2	0.00e+00	0	27	0	1610612736	56	4076
2026-01-14 12:32:15.20	198.71	36.84	-45.1	-46.2	15.2	0.00e+00	0	27	0	1615855616	56	4067
2026-01-14 12:32:16.21	198.96	37.04	-45.1	-46.2	15.2	0.00e+00	0	27	0	1622147072	56	4066
2026-01-14 12:32:17.23	199.20	37.24	-45.2	-46.2	15.2	0.00e+00	0	28	0	1627389952	56	4080
2026-01-14 12:32:18.23	199.45	37.44	-45.1	-46.2	15.2	0.00e+00	0	27	0	1633681408	56	4058
2026-01-14 12:32:19.24	199.70	37.64	-45.2	-46.2	15.2	0.00e+00	0	27	0	1638924288	56	4085
2026-01-14 12:32:20.25	199.96	37.85	-45.0	-46.1	15.2	0.00e+00	0	27	0	1644167168	56	4013
2026-01-14 12:32:21.26	200.22	38.05	-45.1	-46.1	15.2	0.00e+00	0	27	0	1650458624	56	4041
2026-01-14 12:32:22.27	200.48	38.25	-45.0	-46.0	15.2	0.00e+00	0	27	0	1655701504	56	3995
2026-01-14 12:32:23.27	200.74	38.46	-45.0	-46.0	15.2	0.00e+00	0	27	0	1661992960	56	3990
2026-01-14 12:32:24.28	201.01	38.66	-45.1	-46.1	15.2	0.00e+00	0	27	0	1667235840	56	4021
2026-01-14 12:32:25.29	201.28	38.87	-45.1	-46.1	15.2	0.00e+00	0	27	0	1673527296	56	4036
2026-01-14 12:32:26.30	201.56	39.07	-45.1	-46.2	15.2	0.00e+00	0	27	0	1678770176	56	4056
2026-01-14 12:32:27.31	201.83	39.28	-45.1	-46.2	15.2	0.00e+00	0	27	0	1684013056	56	4055
2026-01-14 12:32:28.31	202.11	39.48	-45.1	-46.1	15.2	0.00e+00	0	27	0	1690304512	56	4031
2026-01-14 12:32:29.33	202.40	39.69	-45.1	-46.1	15.2	0.00e+00	0	27	0	1695547392	56	4044
2026-01-14 12:32:30.34	202.69	39.90	-44.9	-45.9	15.3	0.00e+00	0	27	0	1701838848	56	3950
2026-01-14 12:32:31.35	202.98	40.11	-44.9	-45.9	15.3	0.00e+00	0	27	0	1707081728	56	3947
2026-01-14 12:32:32.35	203.28	40.31	-45.1	-46.1	15.2	0.00e+00	0	28	0	1712324608	56	4039
2026-01-14 12:32:33.36	203.58	40.52	-45.1	-46.2	15.2	0.00e+00	0	27	0	1718616064	56	4061
2026-01-14 12:32:34.37	203.88	40.73	-45.1	-46.2	15.2	0.00e+00	0	27	0	1723858944	56	4052
2026-01-14 12:32:35.38	204.19	40.94	-45.0	-46.0	15.2	0.00e+00	0	28	0	1730150400	56	3991
2026-01-14 12:32:36.39	204.50	41.15	-45.0	-46.0	15.2	0.00e+00	0	27	0	1735393280	56	3977
2026-01-14 12:32:37.40	204.82	41.36	-45.1	-46.2	15.2	0.00e+00	0	27	0	1740636160	56	4055
2026-01-14 12:32:38.40	205.13	41.57	-45.2	-46.2	15.2	0.00e+00	0	27	0	1746927616	56	4087
2026-01-14 12:32:39.41	205.46	41.78	-45.2	-46.2	15.2	0.00e+00	0	27	0	1752170496	56	4095
2026-01-14 12:32:40.42	205.79	41.99	-45.2	-46.2	15.2	0.00e+00	0	27	0	1758461952	56	4094
2026-01-14 12:32:41.42	206.11	42.20	-45.4	-46.4	15.1	0.00e+00	0	27	0	1763704832	56	4193
2026-01-14 12:32:42.43	206.45	42.41	-45.5	-46.6	15.1	0.00e+00	0	27	0	1769996288	56	4264
2026-01-14 12:32:43.44	206.79	42.62	-45.5	-46.5	15.1	0.00e+00	0	28	0	1775239168	56	4233
2026-01-14 12:32:44.45	207.14	42.84	-45.5	-46.5	15.1	0.00e+00	0	28	0	1780482048	56	4238
2026-01-14 12:32:45.46	207.49	43.05	-45.5	-46.6	15.1	0.00e+00	0	27	0	1786773504	56	4271
2026-01-14 12:32:46.47	207.84	43.26	-45.5	-46.6	15.1	0.00e+00	0	27	0	1792016384	56	4258
2026-01-14 12:32:47.48	208.20	43.47	-45.4	-46.4	15.1	0.00e+00	0	27	0	1798307840	56	4184
2026-01-14 12:32:48.49	208.57	43.68	-45.3	-46.4	15.1	0.00e+00	0	27	0	1803550720	56	4161
2026-01-14 12:32:49.49	208.93	43.89	-45.6	-46.7	15.1	0.00e+00	0	27	0	1808793600	56	4294
2026-01-14 12:32:50.50	209.30	44.10	-45.9	-47.0	15.0	0.00e+00	0	28	0	1815085056	56	4463
2026-01-14 12:32:51.51	209.68	44.31	-45.9	-47.0	15.1	0.00e+00	0	27	0	1820327936	57	4223
2026-01-14 12:32:52.52	210.07	44.52	-45.7	-46.8	15.1	0.00e+00	0	27	0	1826619392	57	4105
2026-01-14 12:32:53.53	210.45	44.73	-45.5	-46.5	15.2	0.00e+00	0	27	0	1831862272	57	3996
2026-01-14 12:32:54.54	210.85	44.94	-45.4	-46.5	15.2	0.00e+00	0	27	0	1837105152	57	3972
2026-01-14 12:32:55.55	211.25	45.15	-45.3	-46.4	15.3	0.00e+00	0	27	0	1843396608	57	3916
2026-01-14 12:32:56.56	211.65	45.36	-45.6	-46.6	15.2	0.00e+00	0	28	0	1848639488	57	4028
2026-01-14 12:32:57.57	212.06	45.57	-45.6	-46.7	15.2	0.00e+00	0	27	0	1854930944	57	4061
2026-01-14 12:32:58.58	212.47	45.78	-45.7	-46.8	15.1	0.00e+00	0	28	0	1860173824	57	4103
2026-01-14 12:32:59.58	212.89	45.98	-45.7	-46.8	15.1	0.00e+00	0	27	0	1866465280	57	4099
2026-01-14 12:33:00.59	213.32	46.19	-45.6	-46.7	15.2	0.00e+00	0	28	0	1871708160	57	4059
2026-01-14 12:33:01.59	213.74	46.40	-45.7	-46.8	15.1	0.00e+00	0	27	0	1876951040	57	4103
2026-01-14 12:33:02.60	214.18	46.60	-45.6	-46.7	15.2	0.00e+00	0	27	0	1883242496	57	4070
2026-01-14 12:33:03.61	214.62	46.81	-45.8	-46.9	15.1	0.00e+00	0	28	0	1888485376	57	4153
2026-01-14 12:33:04.61	215.06	47.01	-45.9	-46.9	15.1	0.00e+00	0	28	0	1894776832	57	4186
2026-01-14 12:33:05.62	215.52	47.21	-45.7	-46.8	15.1	0.00e+00	0	28	0	1900019712	57	4124
2026-01-14 12:33:06.63	215.98	47.41	-45.8	-46.9	15.1	0.00e+00	0	28	0	1905262592	57	4148
2026-01-14 12:33:07.64	216.44	47.62	-45.8	-46.9	15.1	0.00e+00	0	28	0	1911554048	57	4155
2026-01-14 12:33:08.64	216.91	47.81	-45.8	-46.8	15.1	0.00e+00	0	28	0	1916796928	57	4127
2026-01-14 12:33:09.65	217.39	48.01	-45.7	-46.7	15.2	0.00e+00	0	27	0	1922039808	57	4097
2026-01-14 12:33:10.66	217.87	48.21	-45.7	-46.7	15.1	0.00e+00	0	28	0	1928331264	57	4094
2026-01-14 12:33:11.67	218.36	48.41	-45.7	-46.7	15.1	0.00e+00	0	28	0	1933574144	57	4094
2026-01-14 12:33:12.69	218.86	48.60	-45.7	-46.7	15.1	0.00e+00	0	27	0	1939865600	57	4088
2026-01-14 12:33:13.69	219.36	48.80	-45.8	-46.8	15.1	0.00e+00	0	28	0	1945108480	57	4130
2026-01-14 12:33:14.70	219.87	48.99	-45.6	-46.7	15.1	0.00e+00	0	28	0	1951399936	57	4053
2026-01-14 12:33:15.71	220.38	49.18	-45.5	-46.5	15.2	0.00e+00	0	27	0	1956642816	57	3986
2026-01-14 12:33:16.72	220.90	49.37	-45.6	-46.7	15.2	0.00e+00	0	28	0	1962934272	57	4052
2026-01-14 12:33:17.73	221.43	49.56	-45.9	-46.9	15.1	0.00e+00	0	27	0	1968177152	57	4187
2026-01-14 12:33:18.74	221.96	49.74	-45.9	-46.9	15.1	0.00e+00	0	27	0	1973420032	57	4191
2026-01-14 12:33:19.75	222.50	49.92	-45.9	-46.9	15.1	0.00e+00	0	27	0	1979711488	57	4190
2026-01-14 12:33:20.76	223.05	50.11	-45.9	-47.0	15.1	0.00e+00	0	28	0	1984954368	57	4213
2026-01-14 12:33:21.77	223.60	50.29	-45.8	-46.9	15.1	0.00e+00	0	28	0	1991245824	57	4173
2026-01-14 12:33:22.78	224.16	50.46	-45.8	-46.8	15.1	0.00e+00	0	27	0	1996488704	57	4143
2026-01-14 12:33:23.78	224.72	50.64	-45.9	-47.0	15.1	0.00e+00	0	28	0	2001731584	57	4209
2026-01-14 12:33:24.79	225.30	50.81	-46.0	-47.0	15.1	0.00e+00	0	27	0	2008023040	57	4242
2026-01-14 12:33:25.80	225.88	50.98	-46.1	-47.2	15.1	0.00e+00	0	27	0	2013265920	57	4297
2026-01-14 12:33:26.81	226.46	51.15	-46.0	-47.1	15.1	0.00e+00	0	27	0	2019557376	57	4243
2026-01-14 12:33:27.82	227.05	51.32	-45.9	-47.0	15.1	0.00e+00	0	27	0	2024800256	57	4225
2026-01-14 12:33:28.83	227.65	51.48	-46.1	-47.2	15.0	0.00e+00	0	28	0	2030043136	57	4305
2026-01-14 12:33:29.84	228.26	51.64	-46.3	-47.4	15.0	0.00e+00	0	27	0	2036334592	57	4424
2026-01-14 12:33:30.85	228.87	51.80	-46.3	-47.4	15.0	0.00e+00	0	28	0	2041577472	57	4408
2026-01-14 12:33:31.86	229.49	51.95	-46.3	-47.4	15.0	0.00e+00	0	27	0	2047868928	57	4400
2026-01-14 12:33:32.87	230.11	52.10	-46.2	-47.3	15.0	0.00e+00	0	27	0	2053111808	57	4365
2026-01-14 12:33:33.87	230.73	52.25	-46.0	-47.1	15.0	0.00e+00	0	28	0	2059403264	57	4272
2026-01-14 12:33:34.88	231.37	52.40	-46.0	-47.0	15.1	0.00e+00	0	27	0	2064646144	57	4232
2026-01-14 12:33:35.89	232.01	52.54	-46.2	-47.3	15.0	0.00e+00	0	27	0	2069889024	57	4343
2026-01-14 12:33:36.90	232.66	52.68	-46.3	-47.3	15.0	0.00e+00	0	27	0	2076180480	57	4386
2026-01-14 12:33:37.91	233.32	52.82	-46.3	-47.3	15.0	0.00e+00	0	28	0	2081423360	57	4389
2026-01-14 12:33:38.92	233.98	52.95	-46.3	-47.3	15.0	0.00e+00	0	27	0	2087714816	57	4390
2026-01-14 12:33:39.93	234.65	53.08	-46.3	-47.4	15.0	0.00e+00	0	27	0	2092957696	57	4419
2026-01-14 12:33:40.94	235.32	53.20	-46.3	-47.4	15.0	0.00e+00	0	27	0	2098200576	57	4436
2026-01-14 12:33:41.95	236.00	53.33	-46.4	-47.5	15.0	0.00e+00	0	27	0	2104492032	58	4232
2026-01-14 12:33:42.96	236.68	53.44	-46.6	-47.7	15.0	0.00e+00	0	27	0	2109734912	58	4323
2026-01-14 12:33:43.97	237.37	53.56	-46.5	-47.6	15.0	0.00e+00	0	28	0	2116026368	58	4260
2026-01-14 12:33:44.97	238.06	53.67	-46.6	-47.7	15.0	0.00e+00	0	27	0	2121269248	58	4298
2026-01-14 12:33:45.98	238.76	53.77	-46.4	-47.5	15.1	0.00e+00	0	27	0	2126512128	58	4230
2026-01-14 12:33:46.99	239.46	53.88	-46.2	-47.3	15.1	0.00e+00	0	27	0	2132803584	58	4099
2026-01-14 12:33:48.00	240.17	53.97	-46.1	-47.1	15.1	0.00e+00	0	28	0	2138046464	58	4044
2026-01-14 12:33:49.01	240.89	54.07	-46.2	-47.3	15.1	0.00e+00	0	28	0	2144337920	58	4122
2026-01-14 12:33:50.02	241.61	54.16	-46.6	-47.7	15.0	0.00e+00	0	28	0	2149580800	58	4329
2026-01-14 12:33:51.03	242.33	54.24	-46.6	-47.8	15.0	0.00e+00	0	27	0	2155872256	58	4346
2026-01-14 12:33:52.04	243.06	54.32	-46.3	-47.4	15.1	0.00e+00	0	28	0	2161115136	58	4155
2026-01-14 12:33:53.04	243.78	54.40	-46.4	-47.5	15.0	0.00e+00	0	27	0	2166358016	58	4229
2026-01-14 12:33:54.05	244.52	54.47	-46.7	-47.8	15.0	0.00e+00	0	27	0	2172649472	58	4363
2026-01-14 12:33:55.06	245.26	54.54	-46.5	-47.6	15.0	0.00e+00	0	28	0	2177892352	58	4271
2026-01-14 12:33:56.07	246.00	54.60	-46.6	-47.7	15.0	0.00e+00	0	28	0	2184183808	58	4314
2026-01-14 12:33:57.08	246.74	54.66	-46.6	-47.7	15.0	0.00e+00	0	27	0	2189426688	58	4303
2026-01-14 12:33:58.08	247.48	54.71	-46.5	-47.6	15.0	0.00e+00	0	28	0	2194669568	58	4281
2026-01-14 12:33:59.10	248.24	54.76	-46.5	-47.6	15.0	0.00e+00	0	28	0	2200961024	58	4245
2026-01-14 12:34:00.10	248.99	54.81	-46.4	-47.5	15.0	0.00e+00	0	28	0	2206203904	58	4197
2026-01-14 12:34:01.11	249.74	54.84	-46.2	-47.3	15.1	0.00e+00	0	27	0	2212495360	58	4116
2026-01-14 12:34:02.12	250.50	54.88	-46.4	-47.5	15.0	0.00e+00	0	27	0	2217738240	58	4216
2026-01-14 12:34:03.13	251.26	54.91	-46.8	-47.9	15.0	0.00e+00	0	28	0	2222981120	58	4403
2026-01-14 12:34:04.14	252.02	54.93	-46.8	-47.9	15.0	0.00e+00	0	28	0	2229272576	58	4413
2026-01-14 12:34:05.15	252.78	54.95	-46.9	-48.0	15.0	0.00e+00	0	28	0	2234515456	59	4217
2026-01-14 12:34:06.15	253.53	54.97	-47.0	-48.1	15.0	0.00e+00	0	28	0	2240806912	59	4258
2026-01-14 12:34:07.17	254.30	54.98	-47.0	-48.1	15.0	0.00e+00	0	27	0	2246049792	59	4272
2026-01-14 12:34:08.17	255.06	54.98	-47.0	-48.1	15.0	0.00e+00	0	27	0	2252341248	59	4259
2026-01-14 12:34:09.18	255.82	54.98	-46.8	-48.0	15.0	0.00e+00	0	27	0	2257584128	59	4196
2026-01-14 12:34:10.18	256.58	54.98	-46.7	-47.8	15.1	0.00e+00	0	28	0	2262827008	59	4122
2026-01-14 12:34:11.19	257.34	54.97	-46.6	-47.7	15.1	0.00e+00	0	28	0	2269118464	59	4066
2026-01-14 12:34:12.20	258.10	54.95	-46.6	-47.6	15.1	0.00e+00	0	28	0	2274361344	59	4031
2026-01-14 12:34:13.21	258.87	54.93	-46.5	-47.5	15.2	0.00e+00	0	28	0	2280652800	59	4002
2026-01-14 12:34:14.22	259.63	54.91	-46.6	-47.7	15.1	0.00e+00	0	27	0	2285895680	59	4064
2026-01-14 12:34:15.23	260.38	54.88	-46.6	-47.7	15.1	0.00e+00	0	28	0	2291138560	59	4070
2026-01-14 12:34:16.24	261.14	54.84	-46.5	-47.5	15.2	0.00e+00	0	27	0	2297430016	59	3999
2026-01-14 12:34:17.24	261.89	54.80	-46.6	-47.7	15.1	0.00e+00	0	28	0	2302672896	59	4059
2026-01-14 12:34:18.25	262.64	54.76	-46.8	-48.0	15.0	0.00e+00	0	27	0	2307915776	59	4204
2026-01-14 12:34:19.26	263.39	54.71	-46.7	-47.8	15.1	0.00e+00	0	28	0	2314207232	59	4112
2026-01-14 12:34:20.27	264.14	54.66	-46.6	-47.7	15.1	0.00e+00	0	27	0	2319450112	59	4055
2026-01-14 12:34:21.28	264.88	54.60	-46.4	-47.5	15.2	0.00e+00	0	28	0	2325741568	59	3974
2026-01-14 12:34:22.29	265.62	54.53	-46.3	-47.4	15.2	0.00e+00	0	27	0	2330984448	59	3929
2026-01-14 12:34:23.30	266.36	54.47	-46.3	-47.4	15.2	0.00e+00	0	27	0	2337275904	59	3924
2026-01-14 12:34:24.31	267.10	54.39	-46.5	-47.6	15.1	0.00e+00	0	27	0	2342518784	59	4038
2026-01-14 12:34:25.31	267.82	54.32	-46.6	-47.7	15.1	0.00e+00	0	27	0	2348810240	59	4074
2026-01-14 12:34:26.32	268.55	54.24	-46.7	-47.8	15.1	0.00e+00	0	28	0	2354053120	59	4109
2026-01-14 12:34:27.34	269.28	54.15	-46.6	-47.7	15.1	0.00e+00	0	28	0	2359296000	59	4075
2026-01-14 12:34:28.35	269.99	54.06	-46.7	-47.8	15.1	0.00e+00	0	28	0	2365587456	59	4108
2026-01-14 12:34:29.35	270.70	53.97	-47.1	-48.3	15.0	0.00e+00	0	28	0	2370830336	59	4343
2026-01-14 12:34:30.36	271.41	53.87	-47.2	-48.3	14.9	0.00e+00	0	28	0	2377121792	59	4372
2026-01-14 12:34:31.37	272.11	53.77	-46.9	-48.0	15.0	0.00e+00	0	28	0	2382364672	59	4213
2026-01-14 12:34:32.38	272.81	53.66	-46.8	-47.9	15.0	0.00e+00	0	28	0	2387607552	59	4154
2026-01-14 12:34:33.39	273.51	53.55	-46.8	-47.8	15.1	0.00e+00	0	28	0	2393899008	59	4144
2026-01-14 12:34:34.40	274.19	53.43	-46.8	-47.9	15.1	0.00e+00	0	27	0	2399141888	59	4157
2026-01-14 12:34:35.41	274.88	53.32	-46.7	-47.7	15.1	0.00e+00	0	27	0	2405433344	59	4096
2026-01-14 12:34:36.42	275.55	53.19	-46.6	-47.7	15.1	0.00e+00	0	28	0	2410676224	59	4088
2026-01-14 12:34:37.43	276.23	53.07	-46.6	-47.7	15.1	0.00e+00	0	27	0	2415919104	59	4065
2026-01-14 12:34:38.44	276.89	52.94	-46.6	-47.7	15.1	0.00e+00	0	28	0	2422210560	59	4093
2026-01-14 12:34:39.44	277.54	52.81	-46.7	-47.8	15.1	0.00e+00	0	27	0	2427453440	59	4128
2026-01-14 12:34:40.45	278.20	52.67	-46.5	-47.6	15.1	0.00e+00	0	28	0	2433744896	59	4042
2026-01-14 12:34:41.46	278.85	52.53	-46.4	-47.5	15.2	0.00e+00	0	27	0	2438987776	59	3977
2026-01-14 12:34:42.47	279.49	52.39	-46.5	-47.7	15.2	0.00e+00	0	28	0	2445279232	59	4071
2026-01-14 12:34:43.48	280.12	52.24	-46.5	-47.7	15.2	0.00e+00	0	28	0	2450522112	59	4082
2026-01-14 12:34:44.49	280.75	52.09	-46.5	-47.6	15.1	0.00e+00	0	28	0	2455764992	59	4041
2026-01-14 12:34:45.50	281.38	51.94	-46.6	-47.7	15.1	0.00e+00	0	27	0	2462056448	59	4057
2026-01-14 12:34:46.51	281.99	51.79	-46.4	-47.5	15.2	0.00e+00	0	27	0	2467299328	59	3999
2026-01-14 12:34:47.52	282.60	51.63	-46.5	-47.6	15.1	0.00e+00	0	27	0	2473590784	59	4016
2026-01-14 12:34:48.52	283.20	51.47	-46.3	-47.3	15.2	0.00e+00	0	27	0	2478833664	59	3898
2026-01-14 12:34:49.53	283.80	51.31	-46.1	-47.2	15.1	0.00e+00	0	27	0	2484076544	58	4075
2026-01-14 12:34:50.54	284.39	51.14	-46.2	-47.3	15.1	0.00e+00	0	28	0	2490368000	58	4118
2026-01-14 12:34:51.55	284.97	50.97	-46.1	-47.2	15.1	0.00e+00	0	28	0	2495610880	58	4068
2026-01-14 12:34:52.56	285.55	50.80	-46.2	-47.3	15.1	0.00e+00	0	28	0	2500853760	58	4100
2026-01-14 12:34:53.57	286.12	50.63	-46.3	-47.3	15.1	0.00e+00	0	28	0	2507145216	58	4140
2026-01-14 12:34:54.57	286.68	50.46	-46.2	-47.3	15.1	0.00e+00	0	27	0	2512388096	58	4108
2026-01-14 12:34:55.58	287.24	50.28	-46.2	-47.3	15.1	0.00e+00	0	27	0	2518679552	58	4126
2026-01-14 12:34:56.60	287.80	50.10	-46.2	-47.3	15.1	0.00e+00	0	28	0	2523922432	58	4106
2026-01-14 12:34:57.61	288.34	49.92	-45.9	-47.0	15.2	0.00e+00	0	27	0	2530213888	58	3984
2026-01-14 12:34:58.61	288.88	49.74	-45.8	-46.9	15.3	0.00e+00	0	28	0	2535456768	58	3921
2026-01-14 12:34:59.62	289.41	49.55	-45.8	-46.9	15.3	0.00e+00	0	28	0	2541748224	58	3926
2026-01-14 12:35:00.64	289.94	49.36	-45.8	-46.9	15.2	0.00e+00	0	28	0	2546991104	58	3932
2026-01-14 12:35:01.64	290.45	49.18	-45.9	-47.0	15.2	0.00e+00	0	27	0	2552233984	58	3981
2026-01-14 12:35:02.65	290.97	48.98	-46.2	-47.3	15.1	0.00e+00	0	27	0	2558525440	58	4101
2026-01-14 12:35:03.66	291.47	48.79	-46.2	-47.3	15.1	0.00e+00	0	28	0	2563768320	58	4134
2026-01-14 12:35:04.67	291.98	48.60	-46.1	-47.2	15.1	0.00e+00	0	28	0	2570059776	58	4071
2026-01-14 12:35:05.68	292.47	48.40	-46.1	-47.1	15.1	0.00e+00	0	28	0	2575302656	58	4023
2026-01-14 12:35:06.69	292.96	48.21	-46.0	-47.0	15.2	0.00e+00	0	27	0	2580545536	58	3988
2026-01-14 12:35:07.70	293.44	48.01	-46.0	-47.0	15.2	0.00e+00	0	28	0	2586836992	58	3983
2026-01-14 12:35:08.70	293.91	47.81	-46.1	-47.2	15.1	0.00e+00	0	27	0	2592079872	58	4090
2026-01-14 12:35:09.71	294.38	47.62	-46.0	-47.1	15.2	0.00e+00	0	28	0	2598371328	58	4017
2026-01-14 12:35:10.72	294.85	47.41	-45.8	-46.8	15.3	0.00e+00	0	27	0	2603614208	58	3899
2026-01-14 12:35:11.73	295.31	47.21	-45.7	-46.8	15.3	0.00e+00	0	27	0	2608857088	58	3878
2026-01-14 12:35:12.74	295.76	47.01	-45.8	-46.9	15.2	0.00e+00	0	27	0	2615148544	58	3926
2026-01-14 12:35:13.75	296.21	46.81	-46.0	-47.1	15.2	0.00e+00	0	27	0	2620391424	58	4024
2026-01-14 12:35:14.76	296.65	46.60	-46.2	-47.3	15.1	0.00e+00	0	28	0	2626682880	58	4119
2026-01-14 12:35:15.77	297.08	46.40	-46.2	-47.3	15.1	0.00e+00	0	28	0	2631925760	58	4128
2026-01-14 12:35:16.78	297.51	46.19	-46.3	-47.3	15.1	0.00e+00	0	28	0	2638217216	58	4136
2026-01-14 12:35:17.79	297.94	45.98	-46.2	-47.2	15.1	0.00e+00	0	28	0	2643460096	58	4083
2026-01-14 12:35:18.80	298.35	45.78	-46.1	-47.1	15.1	0.00e+00	0	27	0	2648702976	58	4050
2026-01-14 12:35:19.80	298.76	45.57	-46.1	-47.1	15.1	0.00e+00	0	28	0	2654994432	58	4036
2026-01-14 12:35:20.81	299.17	45.36	-46.0	-47.1	15.2	0.00e+00	0	28	0	2660237312	58	4005
2026-01-14 12:35:21.82	299.57	45.15	-45.9	-47.0	15.2	0.00e+00	0	28	0	2666528768	58	3963
2026-01-14 12:35:22.83	299.97	44.95	-45.9	-46.9	15.2	0.00e+00	0	28	0	2671771648	58	3955
2026-01-14 12:35:23.83	300.36	44.74	-45.8	-46.8	15.3	0.00e+00	0	28	0	2677014528	58	3910
2026-01-14 12:35:24.84	300.75	44.53	-45.8	-46.8	15.3	0.00e+00	0	27	0	2683305984	58	3906
2026-01-14 12:35:25.85	301.13	44.32	-45.6	-46.7	15.1	0.00e+00	0	28	0	2688548864	57	4060
2026-01-14 12:35:26.86	301.51	44.11	-45.6	-46.7	15.2	0.00e+00	0	28	0	2694840320	57	4058
2026-01-14 12:35:27.87	301.88	43.90	-45.6	-46.7	15.2	0.00e+00	0	28	0	2700083200	57	4061
2026-01-14 12:35:28.88	302.25	43.69	-45.8	-46.9	15.1	0.00e+00	0	28	0	2705326080	57	4170
2026-01-14 12:35:29.89	302.61	43.48	-46.0	-47.0	15.1	0.00e+00	0	28	0	2711617536	57	4228
2026-01-14 12:35:30.90	302.97	43.27	-46.1	-47.1	15.1	0.00e+00	0	27	0	2716860416	57	4287
2026-01-14 12:35:31.91	303.32	43.06	-46.0	-47.1	15.1	0.00e+00	0	28	0	2723151872	57	4245
2026-01-14 12:35:32.92	303.67	42.84	-46.1	-47.2	15.0	0.00e+00	0	28	0	2728394752	57	4313
2026-01-14 12:35:33.93	304.02	42.63	-45.9	-46.9	15.1	0.00e+00	0	28	0	2734686208	57	4192
2026-01-14 12:35:34.93	304.35	42.43	-45.6	-46.6	15.2	0.00e+00	0	27	0	2739929088	57	4043
2026-01-14 12:35:35.95	304.69	42.21	-45.5	-46.5	15.2	0.00e+00	0	28	0	2745171968	57	3990
2026-01-14 12:35:36.95	305.02	42.00	-45.6	-46.6	15.2	0.00e+00	0	28	0	2751463424	57	4030
2026-01-14 12:35:37.96	305.35	41.79	-45.6	-46.7	15.2	0.00e+00	0	28	0	2756706304	57	4059
2026-01-14 12:35:38.97	305.67	41.58	-45.6	-46.7	15.2	0.00e+00	0	28	0	2762997760	57	4065
2026-01-14 12:35:39.98	305.99	41.37	-45.6	-46.6	15.2	0.00e+00	0	28	0	2768240640	57	4037
2026-01-14 12:35:40.99	306.31	41.17	-45.5	-46.5	15.2	0.00e+00	0	27	0	2773483520	57	3992
2026-01-14 12:35:42.00	306.62	40.96	-45.5	-46.5	15.2	0.00e+00	0	27	0	2779774976	57	3989
2026-01-14 12:35:43.00	306.92	40.75	-45.6	-46.6	15.2	0.00e+00	0	28	0	2785017856	57	4045
2026-01-14 12:35:44.01	307.23	40.54	-45.7	-46.8	15.1	0.00e+00	0	28	0	2791309312	57	4100
2026-01-14 12:35:45.02	307.52	40.33	-45.8	-46.8	15.1	0.00e+00	0	28	0	2796552192	57	4142
2026-01-14 12:35:46.03	307.82	40.12	-45.7	-46.7	15.2	0.00e+00	0	27	0	2801795072	57	4092
2026-01-14 12:35:47.04	308.11	39.92	-45.6	-46.7	15.2	0.00e+00	0	28	0	2808086528	57	4074
2026-01-14 12:35:48.05	308.40	39.71	-45.6	-46.7	15.2	0.00e+00	0	28	0	2813329408	57	4071
2026-01-14 12:35:49.06	308.69	39.50	-45.6	-46.6	15.2	0.00e+00	0	28	0	2819620864	57	4047
2026-01-14 12:35:50.07	308.97	39.30	-45.4	-46.4	15.2	0.00e+00	0	28	0	2824863744	57	3934
2026-01-14 12:35:51.08	309.24	39.09	-45.2	-46.3	15.3	0.00e+00	0	28	0	2831155200	57	3874
2026-01-14 12:35:52.09	309.52	38.89	-45.4	-46.4	15.2	0.00e+00	0	28	0	2836398080	57	3937
2026-01-14 12:35:53.09	309.79	38.68	-45.3	-46.4	15.3	0.00e+00	0	27	0	2841640960	57	3917
2026-01-14 12:35:54.10	310.05	38.48	-45.2	-46.2	15.3	0.00e+00	0	27	0	2847932416	57	3862
2026-01-14 12:35:55.11	310.32	38.28	-45.2	-46.2	15.3	0.00e+00	0	28	0	2853175296	57	3867
2026-01-14 12:35:56.12	310.58	38.07	-45.4	-46.4	15.3	0.00e+00	0	28	0	2859466752	57	3953
2026-01-14 12:35:57.13	310.84	37.87	-45.4	-46.5	15.2	0.00e+00	0	27	0	2864709632	57	3976
2026-01-14 12:35:58.14	311.09	37.67	-45.5	-46.5	15.2	0.00e+00	0	28	0	2869952512	57	4002
2026-01-14 12:35:59.15	311.35	37.47	-45.5	-46.5	15.2	0.00e+00	0	27	0	2876243968	57	4004
2026-01-14 12:36:00.16	311.59	37.27	-45.5	-46.5	15.2	0.00e+00	0	27	0	2881486848	57	3980
2026-01-14 12:36:01.17	311.84	37.07	-45.4	-46.5	15.2	0.00e+00	0	27	0	2887778304	57	3976
2026-01-14 12:36:02.18	312.08	36.87	-45.5	-46.5	15.2	0.00e+00	0	27	0	2893021184	57	3982
2026-01-14 12:36:03.18	312.32	36.67	-45.3	-46.3	15.3	0.00e+00	0	28	0	2898264064	57	3906
2026-01-14 12:36:04.19	312.56	36.48	-45.3	-46.3	15.3	0.00e+00	0	27	0	2904555520	57	3906
2026-01-14 12:36:05.20	312.79	36.28	-45.3	-46.3	15.3	0.00e+00	0	27	0	2909798400	57	3891
2026-01-14 12:36:06.21	313.02	36.08	-45.2	-46.3	15.3	0.00e+00	0	27	0	2916089856	57	3881
2026-01-14 12:36:07.22	313.25	35.89	-45.2	-46.2	15.3	0.00e+00	0	27	0	2921332736	57	3858
2026-01-14 12:36:08.23	313.48	35.69	-45.1	-46.1	15.2	0.00e+00	0	28	0	2927624192	56	4042
2026-01-14 12:36:09.24	313.70	35.50	-45.1	-46.1	15.2	0.00e+00	0	28	0	2932867072	56	4035
2026-01-14 12:36:10.25	313.92	35.30	-45.1	-46.1	15.2	0.00e+00	0	27	0	2938109952	56	4026
2026-01-14 12:36:11.26	314.14	35.11	-45.1	-46.2	15.2	0.00e+00	0	28	0	2944401408	56	4063
2026-01-14 12:36:12.27	314.36	34.92	-45.1	-46.1	15.2	0.00e+00	0	28	0	2949644288	56	4047
2026-01-14 12:36:13.28	314.57	34.73	-45.2	-46.3	15.2	0.00e+00	0	27	0	2955935744	56	4121
2026-01-14 12:36:14.29	314.78	34.54	-45.2	-46.3	15.2	0.00e+00	0	28	0	2961178624	56	4103
2026-01-14 12:36:15.30	314.99	34.35	-45.2	-46.2	15.2	0.00e+00	0	28	0	2966421504	56	4084
2026-01-14 12:36:16.31	315.20	34.16	-45.2	-46.3	15.2	0.00e+00	0	28	0	2972712960	56	4113
2026-01-14 12:36:17.32	315.40	33.97	-45.4	-46.4	15.1	0.00e+00	0	27	0	2977955840	56	4190
2026-01-14 12:36:18.33	315.60	33.78	-45.4	-46.4	15.1	0.00e+00	0	28	0	2984247296	56	4170
2026-01-14 12:36:19.34	315.80	33.59	-45.4	-46.5	15.1	0.00e+00	0	28	0	2989490176	56	4194
2026-01-14 12:36:20.35	316.00	33.41	-45.4	-46.4	15.1	0.00e+00	0	27	0	2994733056	56	4187
2026-01-14 12:36:21.36	316.19	33.22	-45.3	-46.4	15.1	0.00e+00	0	28	0	3001024512	56	4147
2026-01-14 12:36:22.37	316.39	33.04	-45.3	-46.3	15.1	0.00e+00	0	27	0	3006267392	56	4126
2026-01-14 12:36:23.38	316.58	32.85	-45.3	-46.3	15.1	0.00e+00	0	28	0	3012558848	56	4137
2026-01-14 12:36:24.39	316.77	32.67	-45.3	-46.4	15.1	0.00e+00	0	28	0	3017801728	56	4146
2026-01-14 12:36:25.39	316.95	32.49	-45.4	-46.4	15.1	0.00e+00	0	27	0	3024093184	56	4180
2026-01-14 12:36:26.40	317.14	32.31	-45.5	-46.5	15.1	0.00e+00	0	27	0	3029336064	56	4240
2026-01-14 12:36:27.41	317.32	32.13	-45.6	-46.7	15.1	0.00e+00	0	28	0	3035627520	56	4325
2026-01-14 12:36:28.42	317.50	31.95	-45.7	-46.7	15.1	0.00e+00	0	28	0	3040870400	56	4339
2026-01-14 12:36:29.43	317.68	31.77	-45.6	-46.7	15.1	0.00e+00	0	28	0	3046113280	56	4294
2026-01-14 12:36:30.44	317.85	31.59	-45.6	-46.7	15.1	0.00e+00	0	27	0	3052404736	56	4315
2026-01-14 12:36:31.45	318.03	31.42	-45.6	-46.7	15.1	0.00e+00	0	27	0	3057647616	56	4314
2026-01-14 12:36:32.46	318.20	31.24	-45.6	-46.6	15.1	0.00e+00	0	28	0	3063939072	56	4276
2026-01-14 12:36:33.47	318.37	31.06	-45.7	-46.8	15.0	0.00e+00	0	28	0	3069181952	56	4341
2026-01-14 12:36:34.47	318.54	30.89	-45.7	-46.8	15.1	0.00e+00	0	28	0	3074424832	56	4352
2026-01-14 12:36:35.48	318.71	30.71	-45.7	-46.8	15.1	0.00e+00	0	27	0	3080716288	56	4368
2026-01-14 12:36:36.49	318.88	30.54	-45.8	-46.9	15.0	0.00e+00	0	27	0	3085959168	56	4415
2026-01-14 12:36:37.50	319.04	30.37	-45.9	-47.0	15.0	0.00e+00	0	28	0	3091202048	56	4450
2026-01-14 12:36:38.51	319.20	30.20	-45.8	-46.9	15.0	0.00e+00	0	27	0	3097493504	56	4395
2026-01-14 12:36:39.52	319.36	30.03	-45.9	-47.0	15.0	0.00e+00	0	28	0	3102736384	56	4444
2026-01-14 12:36:40.53	319.52	29.86	-45.7	-46.8	15.1	0.00e+00	0	28	0	3109027840	56	4354
2026-01-14 12:36:41.53	319.68	29.69	-45.6	-46.7	15.0	0.00e+00	0	28	0	3114270720	56	4303
2026-01-14 12:36:42.54	319.83	29.52	-45.7	-46.8	15.0	0.00e+00	0	28	0	3120562176	56	4356
2026-01-14 12:36:43.54	319.99	29.35	-45.7	-46.7	15.0	0.00e+00	0	28	0	3125805056	56	4334
2026-01-14 12:36:44.55	320.14	29.19	-45.6	-46.6	15.1	0.00e+00	0	28	0	3131047936	56	4282
2026-01-14 12:36:45.56	320.29	29.02	-45.5	-46.6	15.1	0.00e+00	0	27	0	3137339392	56	4248
2026-01-14 12:36:46.56	320.44	28.86	-45.6	-46.7	15.1	0.00e+00	0	28	0	3142582272	56	4306
2026-01-14 12:36:47.57	320.59	28.69	-45.6	-46.6	15.1	0.00e+00	0	27	0	3148873728	56	4275
2026-01-14 12:36:48.58	320.74	28.53	-45.5	-46.6	15.1	0.00e+00	0	27	0	3154116608	56	4276
2026-01-14 12:36:49.59	320.88	28.36	-45.5	-46.6	15.1	0.00e+00	0	28	0	3159359488	56	4268
2026-01-14 12:36:50.60	321.03	28.20	-45.6	-46.7	15.1	0.00e+00	0	27	0	3165650944	56	4296
2026-01-14 12:36:51.61	321.17	28.04	-45.5	-46.5	15.1	0.00e+00	0	28	0	3170893824	56	4237
2026-01-14 12:36:52.62	321.31	27.88	-45.5	-46.5	15.1	0.00e+00	0	28	0	3177185280	56	4229
2026-01-14 12:36:53.62	321.45	27.72	-45.5	-46.6	15.1	0.00e+00	0	28	0	3182428160	56	4246
2026-01-14 12:36:54.63	321.59	27.56	-45.4	-46.4	15.1	0.00e+00	0	27	0	3187671040	56	4191
2026-01-14 12:36:55.64	321.72	27.40	-45.3	-46.4	15.1	0.00e+00	0	28	0	3193962496	56	4165
2026-01-14 12:36:56.64	321.86	27.24	-45.4	-46.5	15.1	0.00e+00	0	28	0	3199205376	56	4212
2026-01-14 12:36:57.65	321.99	27.09	-45.5	-46.5	15.1	0.00e+00	0	28	0	3205496832	56	4217
2026-01-14 12:36:58.66	322.13	26.93	-45.5	-46.6	15.1	0.00e+00	0	28	0	3210739712	56	4248
2026-01-14 12:36:59.67	322.26	26.77	-45.6	-46.7	15.1	0.00e+00	0	28	0	3217031168	56	4292
2026-01-14 12:37:00.68	322.39	26.62	-45.5	-46.6	15.1	0.00e+00	0	28	0	3222274048	56	4267
2026-01-14 12:37:01.69	322.52	26.47	-45.6	-46.6	15.1	0.00e+00	0	28	0	3227516928	56	4273
2026-01-14 12:37:02.70	322.65	26.31	-45.6	-46.7	15.1	0.00e+00	0	27	0	3233808384	56	4294
2026-01-14 12:37:03.71	322.77	26.16	-45.6	-46.7	15.1	0.00e+00	0	28	0	3239051264	56	4330
2026-01-14 12:37:04.72	322.90	26.01	-45.8	-46.8	15.0	0.00e+00	0	28	0	3245342720	56	4391
2026-01-14 12:37:05.72	323.02	25.86	-45.7	-46.8	15.1	0.00e+00	0	28	0	3250585600	56	4360
2026-01-14 12:37:06.73	323.15	25.71	-45.7	-46.8	15.0	0.00e+00	0	28	0	3255828480	56	4368
2026-01-14 12:37:07.73	323.27	25.56	-45.6	-46.7	15.1	0.00e+00	0	27	0	3262119936	56	4322
2026-01-14 12:37:08.74	323.39	25.41	-45.6	-46.7	15.1	0.00e+00	0	28	0	3267362816	56	4302
2026-01-14 12:37:09.75	323.51	25.26	-45.7	-46.7	15.1	0.00e+00	0	27	0	3272605696	56	4329
2026-01-14 12:37:10.76	323.63	25.11	-45.6	-46.7	15.1	0.00e+00	0	28	0	3278897152	56	4293
2026-01-14 12:37:11.77	323.75	24.97	-45.5	-46.6	15.1	0.00e+00	0	28	0	3284140032	56	4260
2026-01-14 12:37:12.78	323.87	24.82	-45.6	-46.7	15.0	0.00e+00	0	28	0	3290431488	56	4300
2026-01-14 12:37:13.79	323.98	24.67	-45.6	-46.6	15.1	0.00e+00	0	28	0	3295674368	56	4274
2026-01-14 12:37:14.80	324.10	24.53	-45.7	-46.7	15.0	0.00e+00	0	27	0	3301965824	56	4333
2026-01-14 12:37:15.81	324.21	24.38	-45.7	-46.8	15.0	0.00e+00	0	28	0	3307208704	56	4368
2026-01-14 12:37:16.82	324.33	24.24	-45.8	-46.9	15.0	0.00e+00	0	27	0	3313500160	56	4408
2026-01-14 12:37:17.83	324.44	24.10	-45.9	-47.0	15.0	0.00e+00	0	28	0	3318743040	56	4468
2026-01-14 12:37:18.84	324.55	23.96	-46.1	-47.2	15.0	0.00e+00	0	28	0	3323985920	57	4293
2026-01-14 12:37:19.85	324.66	23.81	-46.2	-47.3	15.0	0.00e+00	0	28	0	3330277376	57	4353
2026-01-14 12:37:20.86	324.77	23.67	-46.3	-47.4	15.0	0.00e+00	0	28	0	3335520256	57	4402
2026-01-14 12:37:21.87	324.88	23.53	-46.3	-47.4	15.0	0.00e+00	0	28	0	3341811712	57	4438
2026-01-14 12:37:22.88	324.99	23.39	-46.3	-47.5	15.0	0.00e+00	0	28	0	3347054592	57	4446
2026-01-14 12:37:23.88	325.09	23.26	-46.4	-47.6	15.0	0.00e+00	0	28	0	3352297472	57	4496
2026-01-14 12:37:24.89	325.20	23.12	-46.5	-47.6	15.0	0.00e+00	0	28	0	3358588928	58	4259
2026-01-14 12:37:25.90	325.30	22.98	-46.4	-47.6	15.0	0.00e+00	0	28	0	3363831808	58	4250
2026-01-14 12:37:26.90	325.40	22.84	-46.4	-47.5	15.0	0.00e+00	0	27	0	3369074688	58	4227
2026-01-14 12:37:27.92	325.51	22.71	-46.4	-47.6	15.0	0.00e+00	0	28	0	3375366144	58	4246
2026-01-14 12:37:28.92	325.61	22.57	-46.3	-47.4	15.0	0.00e+00	0	28	0	3380609024	58	4187
2026-01-14 12:37:29.93	325.71	22.44	-46.3	-47.4	15.1	0.00e+00	0	28	0	3386900480	58	4178
2026-01-14 12:37:30.94	325.81	22.30	-46.3	-47.4	15.0	0.00e+00	0	28	0	3392143360	58	4192
2026-01-14 12:37:31.95	325.91	22.17	-46.3	-47.4	15.1	0.00e+00	0	28	0	3398434816	58	4164
2026-01-14 12:37:32.97	326.01	22.03	-46.4	-47.5	15.0	0.00e+00	0	27	0	3403677696	58	4213
2026-01-14 12:37:33.97	326.11	21.90	-46.4	-47.4	15.0	0.00e+00	0	28	0	3409969152	58	4193
2026-01-14 12:37:34.98	326.21	21.77	-46.3	-47.4	15.0	0.00e+00	0	27	0	3415212032	58	4172
2026-01-14 12:37:35.99	326.30	21.64	-46.5	-47.6	15.0	0.00e+00	0	27	0	3420454912	58	4257
2026-01-14 12:37:37.00	326.40	21.51	-46.5	-47.6	15.0	0.00e+00	0	28	0	3426746368	58	4283
2026-01-14 12:37:38.01	326.49	21.38	-46.5	-47.6	15.0	0.00e+00	0	28	0	3431989248	58	4265
2026-01-14 12:37:39.02	326.59	21.25	-46.5	-47.6	15.0	0.00e+00	0	28	0	3438280704	58	4287
2026-01-14 12:37:40.02	326.68	21.12	-46.7	-47.8	14.9	0.00e+00	0	27	0	3443523584	58	4354
2026-01-14 12:37:41.03	326.77	20.99	-46.6	-47.8	15.0	0.00e+00	0	27	0	3448766464	58	4341
2026-01-14 12:37:42.04	326.87	20.86	-46.6	-47.7	15.0	0.00e+00	0	28	0	3455057920	58	4328
2026-01-14 12:37:43.05	326.96	20.74	-46.6	-47.7	15.0	0.00e+00	0	27	0	3460300800	58	4327
2026-01-14 12:37:44.06	327.05	20.61	-46.7	-47.8	14.9	0.00e+00	0	28	0	3466592256	58	4378
2026-01-14 12:37:45.07	327.14	20.48	-46.7	-47.8	14.9	0.00e+00	0	28	0	3471835136	58	4381
2026-01-14 12:37:46.08	327.23	20.36	-46.7	-47.8	14.9	0.00e+00	0	28	0	3477078016	58	4357
2026-01-14 12:37:47.08	327.31	20.24	-46.7	-47.9	14.9	0.00e+00	0	28	0	3483369472	58	4406
2026-01-14 12:37:48.09	327.40	20.11	-46.7	-47.8	14.9	0.00e+00	0	28	0	3488612352	58	4383
2026-01-14 12:37:49.10	327.49	19.99	-46.7	-47.8	14.9	0.00e+00	0	27	0	3494903808	58	4369
2026-01-14 12:37:50.11	327.58	19.86	-46.7	-47.8	15.0	0.00e+00	0	28	0	3500146688	58	4361
2026-01-14 12:37:51.12	327.66	19.74	-46.8	-47.9	14.9	0.00e+00	0	28	0	3506438144	58	4403
2026-01-14 12:37:52.13	327.75	19.62	-46.8	-47.9	14.9	0.00e+00	0	28	0	3511681024	58	4417
2026-01-14 12:37:53.14	327.83	19.50	-46.8	-47.9	14.9	0.00e+00	0	28	0	3516923904	58	4426
2026-01-14 12:37:54.15	327.92	19.38	-46.8	-47.9	14.9	0.00e+00	0	28	0	3523215360	58	4440
2026-01-14 12:37:55.16	328.00	19.26	-46.9	-48.1	14.9	0.00e+00	0	28	0	3528458240	59	4257
2026-01-14 12:37:56.16	328.08	19.14	-47.0	-48.2	14.9	0.00e+00	0	28	0	3534749696	59	4295
2026-01-14 12:37:57.17	328.16	19.02	-47.0	-48.2	14.9	0.00e+00	0	27	0	3539992576	59	4300
2026-01-14 12:37:58.18	328.24	18.90	-47.1	-48.2	14.9	0.00e+00	0	28	0	3545235456	59	4323
2026-01-14 12:37:59.19	328.32	18.78	-47.2	-48.3	14.9	0.00e+00	0	27	0	3551526912	59	4382
2026-01-14 12:38:00.20	328.41	18.66	-47.2	-48.3	14.9	0.00e+00	0	27	0	3556769792	59	4372
2026-01-14 12:38:01.21	328.48	18.54	-47.2	-48.4	14.9	0.00e+00	0	28	0	3563061248	59	4393
2026-01-14 12:38:02.22	328.56	18.43	-47.2	-48.4	14.9	0.00e+00	0	28	0	3568304128	59	4392
2026-01-14 12:38:03.23	328.64	18.31	-47.3	-48.4	14.9	0.00e+00	0	28	0	3573547008	59	4431
2026-01-14 12:38:04.23	328.72	18.20	-47.2	-48.4	14.9	0.00e+00	0	28	0	3579838464	59	4418
2026-01-14 12:38:05.24	328.80	18.08	-47.3	-48.4	14.9	0.00e+00	0	28	0	3585081344	59	4433
2026-01-14 12:38:06.24	328.87	17.97	-47.3	-48.4	14.8	0.00e+00	0	28	0	3591372800	59	4419
2026-01-14 12:38:07.26	328.95	17.85	-47.3	-48.4	14.8	0.00e+00	0	28	0	3596615680	59	4432
2026-01-14 12:38:08.27	329.03	17.74	-47.3	-48.5	14.8	0.00e+00	0	28	0	3602907136	59	4454
2026-01-14 12:38:09.28	329.10	17.62	-47.3	-48.4	14.8	0.00e+00	0	28	0	3608150016	59	4421
2026-01-14 12:38:10.28	329.18	17.51	-47.3	-48.4	14.8	0.00e+00	0	27	0	3613392896	59	4421
2026-01-14 12:38:11.29	329.25	17.40	-47.3	-48.5	14.8	0.00e+00	0	28	0	3619684352	59	4445
2026-01-14 12:38:12.30	329.32	17.29	-47.3	-48.5	14.8	0.00e+00	0	28	0	3624927232	59	4451
2026-01-14 12:38:13.31	329.40	17.18	-47.4	-48.5	14.8	0.00e+00	0	28	0	3631218688	59	4490
2026-01-14 12:38:14.32	329.47	17.06	-47.4	-48.5	14.8	0.00e+00	0	28	0	3636461568	59	4471
2026-01-14 12:38:15.33	329.54	16.95	-47.3	-48.5	14.8	0.00e+00	0	28	0	3641704448	59	4473
2026-01-14 12:38:16.34	329.61	16.84	-47.1	-48.2	15.0	0.00e+00	0	28	0	3647995904	60	4078
2026-01-14 12:38:17.35	329.69	16.73	-47.1	-48.2	15.0	0.00e+00	0	28	0	3653238784	60	4089
2026-01-14 12:38:18.36	329.76	16.62	-47.1	-48.2	15.0	0.00e+00	0	28	0	3658481664	60	4096
2026-01-14 12:38:19.37	329.83	16.52	-47.2	-48.3	14.9	0.00e+00	0	28	0	3664773120	60	4120
2026-01-14 12:38:20.37	329.90	16.41	-47.3	-48.5	14.9	0.00e+00	0	28	0	3670016000	60	4199
2026-01-14 12:38:21.38	329.96	16.30	-47.3	-48.5	14.9	0.00e+00	0	28	0	3676307456	60	4194
2026-01-14 12:38:22.39	330.03	16.19	-47.4	-48.5	14.9	0.00e+00	0	28	0	3681550336	60	4239
2026-01-14 12:38:23.40	330.10	16.09	-47.4	-48.5	14.9	0.00e+00	0	28	0	3687841792	60	4242
2026-01-14 12:38:24.41	330.17	15.98	-47.5	-48.7	14.8	0.00e+00	0	28	0	3693084672	60	4303
2026-01-14 12:38:25.41	330.24	15.87	-47.6	-48.8	14.8	0.00e+00	0	28	0	3699376128	60	4344
2026-01-14 12:38:26.42	330.30	15.77	-47.7	-48.9	14.8	0.00e+00	0	28	0	3704619008	60	4421
2026-01-14 12:38:27.42	330.37	15.66	-47.8	-49.0	14.7	0.00e+00	0	28	0	3709861888	60	4464
2026-01-14 12:38:28.43	330.44	15.56	-48.0	-49.2	14.8	0.00e+00	0	28	0	3716153344	61	4308
