passes_logs/2026/01/14/R3.2S_Murmansk/R3.2S_Murmansk__20260114_200357_TY-39_rec.log

#Pass ID: 20260114_200357_TY-39
#Satellite: TY-39
#Configuration: TY-39
#almurnet v.1.7.20251203
#Start time: 2026-01-14 20:03:58

#Version: 2.2.20231116
#Station: R3.2S_Murmansk
#Location: 33.079688 lon 68.888172 lat
#TLE: 1 51832U 22019J   26014.62932459  .00002192  00000-0  10588-3 0  9995
#TLE: 2 51832  97.3653  81.3287 0010081  53.0551 307.1605 15.19638504214474

#Time	Az	El	Level	Level2	SNR	BER	BlckErr	Temp	State	Recorded	gain1	gain2
2026-01-14 20:03:58.69	210.22	2.06	-58.0	-61.2	3.6	0.00e+00	0	30	0	0	83	20156
2026-01-14 20:03:59.69	210.32	2.12	-58.0	-61.2	3.7	0.00e+00	0	30	104	0	83	20161
2026-01-14 20:04:00.68	210.41	2.18	-58.0	-61.3	3.7	0.00e+00	0	30	104	0	83	20171
2026-01-14 20:04:01.68	210.51	2.24	-58.0	-61.2	3.7	0.00e+00	0	30	104	0	83	20140
2026-01-14 20:04:02.68	210.60	2.31	-58.0	-61.2	3.7	0.00e+00	0	30	104	0	83	20110
2026-01-14 20:04:03.68	210.70	2.37	-58.0	-61.3	3.7	0.00e+00	0	30	104	0	83	20191
2026-01-14 20:04:04.67	210.79	2.43	-58.0	-61.3	3.7	0.00e+00	0	30	104	0	83	20225
2026-01-14 20:04:05.67	210.89	2.49	-58.0	-61.2	3.6	0.00e+00	0	30	104	0	83	20116
2026-01-14 20:04:06.66	210.99	2.55	-58.0	-61.3	3.7	0.00e+00	0	30	104	0	83	20189
2026-01-14 20:04:07.66	211.08	2.61	-58.0	-61.3	3.7	0.00e+00	0	30	104	0	83	20190
2026-01-14 20:04:08.65	211.18	2.67	-58.0	-61.3	3.7	0.00e+00	0	30	104	0	83	20259
2026-01-14 20:04:09.65	211.28	2.74	-58.0	-61.3	3.7	0.00e+00	0	30	104	0	83	20211
2026-01-14 20:04:10.65	211.38	2.80	-58.0	-61.3	3.7	0.00e+00	0	31	104	0	83	20290
2026-01-14 20:04:11.65	211.48	2.86	-58.0	-61.2	3.7	0.00e+00	0	31	104	0	83	20110
2026-01-14 20:04:12.64	211.58	2.92	-58.0	-61.3	3.6	0.00e+00	0	31	104	0	83	20249
2026-01-14 20:04:13.63	211.68	2.98	-58.0	-61.3	3.7	0.00e+00	0	31	104	0	83	20205
2026-01-14 20:04:14.63	211.78	3.05	-58.0	-61.3	3.7	0.00e+00	0	31	104	0	83	20266
2026-01-14 20:04:15.63	211.88	3.11	-58.0	-61.3	3.6	0.00e+00	0	31	104	0	83	20223
2026-01-14 20:04:16.64	211.98	3.17	-58.0	-61.3	3.7	0.00e+00	0	31	104	0	83	20245
2026-01-14 20:04:17.64	212.09	3.24	-58.1	-61.3	3.7	0.00e+00	0	31	104	0	83	20170
2026-01-14 20:04:18.63	212.19	3.30	-58.1	-61.3	3.7	0.00e+00	0	31	104	0	83	20234
2026-01-14 20:04:19.63	212.29	3.36	-58.0	-61.3	3.6	0.00e+00	0	31	104	0	83	20296
2026-01-14 20:04:20.64	212.40	3.43	-58.1	-61.3	3.6	0.00e+00	0	31	104	0	83	20300
2026-01-14 20:04:21.64	212.50	3.49	-58.0	-61.3	3.6	0.00e+00	0	31	104	0	83	20318
2026-01-14 20:04:22.64	212.61	3.55	-58.0	-61.3	3.6	0.00e+00	0	31	104	0	83	20185
2026-01-14 20:04:23.63	212.72	3.62	-58.0	-61.3	3.7	0.00e+00	0	31	104	0	83	20192
2026-01-14 20:04:24.63	212.82	3.68	-58.0	-61.3	3.7	0.00e+00	0	31	104	0	83	20274
2026-01-14 20:04:25.64	212.93	3.75	-58.0	-61.3	3.7	0.00e+00	0	31	104	0	83	20208
2026-01-14 20:04:26.63	213.04	3.81	-58.0	-61.3	3.7	0.00e+00	0	31	104	0	83	20292
2026-01-14 20:04:27.63	213.15	3.88	-58.1	-61.3	3.6	0.00e+00	0	31	104	0	83	20358
2026-01-14 20:04:28.62	213.25	3.94	-58.1	-61.3	3.6	0.00e+00	0	31	104	0	83	20309
2026-01-14 20:04:29.62	213.36	4.00	-58.0	-61.3	3.7	0.00e+00	0	31	104	0	83	20231
2026-01-14 20:04:30.62	213.47	4.07	-58.1	-61.3	3.7	0.00e+00	0	31	104	0	83	20286
2026-01-14 20:04:31.62	213.59	4.13	-58.1	-61.3	3.6	0.00e+00	0	31	104	0	83	20306
2026-01-14 20:04:32.62	213.70	4.20	-58.1	-61.3	3.7	0.00e+00	0	31	104	0	83	20328
2026-01-14 20:04:33.62	213.81	4.26	-58.0	-61.3	3.7	0.00e+00	0	31	104	0	83	20241
2026-01-14 20:04:34.61	213.92	4.33	-58.1	-61.3	3.7	0.00e+00	0	31	104	0	83	20280
2026-01-14 20:04:35.61	214.03	4.39	-58.1	-61.3	3.6	0.00e+00	0	31	104	0	83	20233
2026-01-14 20:04:36.60	214.15	4.46	-58.1	-61.3	3.7	0.00e+00	0	31	104	0	83	20263
2026-01-14 20:04:37.60	214.26	4.52	-58.1	-61.3	3.6	0.00e+00	0	31	104	0	83	20275
2026-01-14 20:04:38.60	214.38	4.59	-58.1	-61.3	3.7	0.00e+00	0	31	104	0	83	20308
2026-01-14 20:04:39.59	214.49	4.66	-58.1	-61.3	3.7	0.00e+00	0	31	104	0	83	20248
2026-01-14 20:04:40.59	214.61	4.72	-58.1	-61.3	3.7	0.00e+00	0	31	104	0	83	20301
2026-01-14 20:04:41.59	214.73	4.79	-58.1	-61.3	3.7	0.00e+00	0	31	104	0	83	20255
2026-01-14 20:04:42.59	214.84	4.86	-58.1	-61.3	3.7	0.00e+00	0	31	104	0	83	20360
2026-01-14 20:04:43.59	214.96	4.92	-58.1	-61.3	3.6	0.00e+00	0	31	104	0	83	20351
2026-01-14 20:04:44.59	215.08	4.99	-58.1	-61.3	3.6	0.00e+00	0	31	104	0	83	20278
2026-01-14 20:04:45.58	215.20	5.06	-58.1	-61.4	3.7	0.00e+00	0	31	104	0	83	20456
2026-01-14 20:04:46.58	215.32	5.12	-58.1	-61.3	3.7	0.00e+00	0	31	104	0	83	20366
2026-01-14 20:04:47.58	215.44	5.19	-58.2	-61.4	3.7	0.00e+00	0	31	104	0	83	20541
2026-01-14 20:04:48.58	215.56	5.26	-58.2	-61.4	3.7	0.00e+00	0	31	104	0	83	20628
2026-01-14 20:04:49.57	215.68	5.32	-58.2	-61.4	3.7	0.00e+00	0	31	104	0	83	20501
2026-01-14 20:04:50.57	215.81	5.39	-58.1	-61.3	3.7	0.00e+00	0	31	104	0	83	20390
2026-01-14 20:04:51.56	215.93	5.46	-58.2	-61.4	3.7	0.00e+00	0	31	104	0	83	20568
2026-01-14 20:04:52.56	216.05	5.53	-58.3	-61.5	3.7	0.00e+00	0	31	104	0	83	20709
2026-01-14 20:04:53.56	216.18	5.59	-58.2	-61.4	3.7	0.00e+00	0	31	104	0	83	20537
2026-01-14 20:04:54.56	216.31	5.66	-58.1	-61.4	3.6	0.00e+00	0	31	104	0	83	20420
2026-01-14 20:04:55.56	216.43	5.73	-58.2	-61.4	3.6	0.00e+00	0	31	104	0	83	20617
2026-01-14 20:04:56.56	216.56	5.80	-58.3	-61.5	3.7	0.00e+00	0	31	104	0	83	20758
2026-01-14 20:04:57.55	216.69	5.87	-58.2	-61.5	3.7	0.00e+00	0	31	104	0	83	20696
2026-01-14 20:04:58.55	216.82	5.94	-58.2	-61.4	3.7	0.00e+00	0	31	104	0	83	20536
2026-01-14 20:04:59.54	216.94	6.00	-58.3	-61.5	3.6	0.00e+00	0	31	104	0	83	20738
2026-01-14 20:05:00.54	217.08	6.07	-58.3	-61.6	3.7	0.00e+00	0	32	104	0	83	20876
2026-01-14 20:05:01.54	217.21	6.14	-58.3	-61.5	3.7	0.00e+00	0	32	104	0	83	20734
2026-01-14 20:05:02.54	217.34	6.21	-58.2	-61.4	3.7	0.00e+00	0	32	104	0	83	20607
2026-01-14 20:05:03.54	217.47	6.28	-58.3	-61.5	3.7	0.00e+00	0	32	104	0	83	20749
2026-01-14 20:05:04.54	217.60	6.35	-58.3	-61.5	3.6	0.00e+00	0	32	104	0	83	20859
2026-01-14 20:05:05.54	217.74	6.42	-58.3	-61.5	3.7	0.00e+00	0	32	104	0	83	20726
2026-01-14 20:05:06.54	217.87	6.49	-58.2	-61.5	3.6	0.00e+00	0	32	104	0	83	20785
2026-01-14 20:05:07.54	218.01	6.56	-48.0	-48.4	8.7	0.00e+00	0	32	104	0	63	14480
2026-01-14 20:05:08.53	218.14	6.63	-50.0	-50.5	8.3	4.88e-03	0	32	0	58720256	65	16548
2026-01-14 20:05:09.52	218.28	6.70	-47.0	-47.4	10.3	6.98e-02	0	32	0	134217728	61	14567
2026-01-14 20:05:10.51	218.42	6.77	-44.8	-45.2	11.3	1.38e-05	0	32	0	209715200	56	15000
2026-01-14 20:05:11.51	218.56	6.84	-45.1	-45.5	11.1	0.00e+00	0	32	0	285212672	56	15506
2026-01-14 20:05:12.49	218.69	6.91	-44.9	-45.2	11.3	1.38e-05	0	32	0	360710144	56	15111
2026-01-14 20:05:13.48	218.83	6.98	-44.7	-45.0	11.4	0.00e+00	0	33	0	427819008	56	14762
2026-01-14 20:05:14.47	218.97	7.05	-44.7	-45.1	11.4	0.00e+00	0	32	0	503316480	56	14818
2026-01-14 20:05:15.47	219.12	7.12	-45.0	-45.3	11.3	0.00e+00	0	32	0	578813952	56	15198
2026-01-14 20:05:16.47	219.26	7.19	-44.7	-45.1	11.4	0.00e+00	0	33	0	654311424	56	14782
2026-01-14 20:05:17.46	219.40	7.26	-44.6	-44.9	11.5	0.00e+00	0	33	0	729808896	56	14554
2026-01-14 20:05:18.45	219.54	7.33	-44.7	-45.1	11.4	6.90e-06	0	33	0	805306368	56	14807
2026-01-14 20:05:19.44	219.69	7.40	-44.7	-45.1	11.4	1.38e-05	0	33	0	880803840	56	14834
2026-01-14 20:05:20.43	219.83	7.47	-44.6	-44.9	11.5	0.00e+00	0	32	0	947912704	56	14526
2026-01-14 20:05:21.43	219.98	7.55	-44.7	-45.0	11.5	0.00e+00	0	32	0	1023410176	56	14685
2026-01-14 20:05:22.43	220.13	7.62	-44.5	-44.8	11.5	0.00e+00	0	32	0	1098907648	56	14412
2026-01-14 20:05:23.43	220.28	7.69	-44.5	-44.8	11.6	0.00e+00	0	33	0	1174405120	56	14338
2026-01-14 20:05:24.43	220.43	7.76	-44.6	-45.0	11.5	6.90e-06	0	33	0	1249902592	56	14661
2026-01-14 20:05:25.42	220.58	7.83	-44.4	-44.7	11.7	0.00e+00	0	33	0	1325400064	56	14235
2026-01-14 20:05:26.42	220.73	7.91	-44.5	-44.8	11.6	0.00e+00	0	33	0	1400897536	56	14337
2026-01-14 20:05:27.42	220.88	7.98	-44.5	-44.8	11.6	0.00e+00	0	33	0	1476395008	56	14397
2026-01-14 20:05:28.42	221.04	8.05	-44.5	-44.8	11.7	0.00e+00	0	33	0	1551892480	56	14335
2026-01-14 20:05:29.42	221.19	8.12	-44.4	-44.7	11.6	0.00e+00	0	33	0	1627389952	55	15067
2026-01-14 20:05:30.42	221.35	8.20	-44.3	-44.6	11.6	0.00e+00	0	33	0	1702887424	55	14936
2026-01-14 20:05:31.41	221.50	8.27	-44.4	-44.8	11.6	0.00e+00	0	33	0	1778384896	55	15139
2026-01-14 20:05:32.40	221.66	8.34	-44.5	-44.8	11.6	0.00e+00	0	33	0	1853882368	55	15184
2026-01-14 20:05:33.40	221.82	8.42	-44.3	-44.7	11.6	0.00e+00	0	33	0	1929379840	55	15004
2026-01-14 20:05:34.39	221.97	8.49	-44.4	-44.7	11.6	0.00e+00	0	33	0	2004877312	55	15114
2026-01-14 20:05:35.39	222.13	8.56	-44.2	-44.5	11.8	0.00e+00	0	33	0	2080374784	55	14653
2026-01-14 20:05:36.39	222.30	8.64	-44.3	-44.6	11.7	0.00e+00	0	33	0	2147483648	55	14866
2026-01-14 20:05:37.37	222.45	8.71	-44.2	-44.5	11.7	0.00e+00	0	33	0	2222981120	55	14771
2026-01-14 20:05:38.37	222.62	8.78	-44.2	-44.5	11.7	0.00e+00	0	33	0	2298478592	55	14682
2026-01-14 20:05:39.37	222.78	8.86	-44.2	-44.5	11.7	0.00e+00	0	33	0	2373976064	55	14646
2026-01-14 20:05:40.37	222.95	8.93	-44.3	-44.6	11.7	0.00e+00	0	33	0	2449473536	55	14888
2026-01-14 20:05:41.36	223.11	9.01	-44.2	-44.5	11.8	0.00e+00	0	33	0	2524971008	55	14679
2026-01-14 20:05:42.36	223.28	9.08	-44.1	-44.4	11.8	0.00e+00	0	33	0	2600468480	55	14495
2026-01-14 20:05:43.36	223.45	9.15	-44.2	-44.5	11.8	0.00e+00	0	33	0	2675965952	55	14663
2026-01-14 20:05:44.36	223.62	9.23	-44.1	-44.4	11.8	6.90e-06	0	33	0	2751463424	55	14595
2026-01-14 20:05:45.36	223.79	9.30	-44.0	-44.3	11.8	0.00e+00	0	33	0	2818572288	55	14434
2026-01-14 20:05:46.35	223.96	9.38	-44.1	-44.4	11.8	0.00e+00	0	33	0	2894069760	55	14528
2026-01-14 20:05:47.35	224.13	9.45	-44.1	-44.4	11.8	0.00e+00	0	33	0	2969567232	55	14458
2026-01-14 20:05:48.33	224.30	9.53	-44.0	-44.3	11.9	0.00e+00	0	33	0	3045064704	55	14282
2026-01-14 20:05:49.34	224.48	9.60	-44.1	-44.4	11.8	0.00e+00	0	33	0	3120562176	55	14510
2026-01-14 20:05:50.34	224.65	9.68	-44.0	-44.3	11.9	0.00e+00	0	33	0	3196059648	55	14334
2026-01-14 20:05:51.33	224.83	9.75	-43.9	-44.2	12.0	0.00e+00	0	33	0	3271557120	55	14124
2026-01-14 20:05:52.32	225.00	9.83	-43.8	-44.1	11.9	0.00e+00	0	33	0	3347054592	54	14924
2026-01-14 20:05:53.32	225.18	9.90	-43.8	-44.1	11.9	0.00e+00	0	33	0	3422552064	54	14855
2026-01-14 20:05:54.31	225.36	9.98	-43.7	-44.0	11.9	0.00e+00	0	33	0	3498049536	54	14724
2026-01-14 20:05:55.30	225.54	10.05	-43.7	-44.0	11.9	6.90e-06	0	33	0	3565158400	54	14761
2026-01-14 20:05:56.30	225.72	10.13	-43.8	-44.1	11.9	0.00e+00	0	34	0	3640655872	54	14841
2026-01-14 20:05:57.29	225.90	10.21	-43.7	-44.0	12.0	0.00e+00	0	33	0	3716153344	54	14746
2026-01-14 20:05:58.28	226.09	10.28	-43.7	-44.0	12.0	0.00e+00	0	33	0	3791650816	54	14699
2026-01-14 20:05:59.28	226.27	10.36	-43.6	-43.9	12.0	0.00e+00	0	33	0	3867148288	54	14579
2026-01-14 20:06:00.28	226.46	10.43	-43.6	-43.9	12.0	0.00e+00	0	33	0	3942645760	54	14503
2026-01-14 20:06:01.28	226.65	10.51	-43.7	-44.0	11.9	0.00e+00	0	33	0	4018143232	54	14712
2026-01-14 20:06:02.27	226.83	10.59	-43.6	-43.9	12.0	0.00e+00	0	33	0	4093640704	54	14596
2026-01-14 20:06:03.26	227.02	10.66	-43.5	-43.9	12.1	0.00e+00	0	33	0	4169138176	54	14441
2026-01-14 20:06:04.26	227.21	10.74	-43.5	-43.8	12.1	0.00e+00	0	34	0	4236247040	54	14283
2026-01-14 20:06:05.26	227.41	10.82	-43.5	-43.8	12.0	0.00e+00	0	34	0	4311744512	54	14320
2026-01-14 20:06:06.25	227.60	10.89	-43.5	-43.8	12.0	0.00e+00	0	33	0	4387241984	54	14420
2026-01-14 20:06:07.24	227.79	10.97	-43.4	-43.7	12.1	0.00e+00	0	34	0	4462739456	54	14243
2026-01-14 20:06:08.24	227.99	11.04	-43.3	-43.6	12.0	0.00e+00	0	34	0	4538236928	53	14919
2026-01-14 20:06:09.23	228.18	11.12	-43.4	-43.7	12.0	0.00e+00	0	34	0	4613734400	53	14991
2026-01-14 20:06:10.23	228.38	11.20	-43.3	-43.6	12.0	0.00e+00	0	34	0	4689231872	53	14940
2026-01-14 20:06:11.23	228.58	11.27	-43.3	-43.6	12.1	0.00e+00	0	34	0	4764729344	53	14803
2026-01-14 20:06:12.23	228.78	11.35	-43.3	-43.6	12.0	0.00e+00	0	34	0	4840226816	53	14903
2026-01-14 20:06:13.23	228.99	11.43	-43.3	-43.7	12.0	0.00e+00	0	34	0	4907335680	53	14961
2026-01-14 20:06:14.21	229.19	11.50	-43.4	-43.7	12.0	0.00e+00	0	34	0	4982833152	53	15047
2026-01-14 20:06:15.21	229.39	11.58	-43.2	-43.5	12.1	0.00e+00	0	34	0	5058330624	53	14724
2026-01-14 20:06:16.20	229.60	11.66	-43.1	-43.4	12.1	0.00e+00	0	34	0	5133828096	53	14583
2026-01-14 20:06:17.19	229.80	11.74	-43.1	-43.4	12.2	0.00e+00	0	33	0	5209325568	53	14542
2026-01-14 20:06:18.19	230.01	11.81	-43.3	-43.6	12.1	0.00e+00	0	34	0	5284823040	53	14799
2026-01-14 20:06:19.18	230.22	11.89	-43.1	-43.4	12.2	0.00e+00	0	34	0	5360320512	53	14549
2026-01-14 20:06:20.18	230.43	11.97	-43.2	-43.4	12.2	0.00e+00	0	34	0	5435817984	53	14599
2026-01-14 20:06:21.17	230.64	12.04	-43.1	-43.4	12.2	0.00e+00	0	34	0	5511315456	53	14446
2026-01-14 20:06:22.17	230.85	12.12	-43.0	-43.3	12.2	0.00e+00	0	34	0	5586812928	53	14341
2026-01-14 20:06:23.17	231.07	12.20	-43.1	-43.4	12.2	0.00e+00	0	34	0	5653921792	53	14533
2026-01-14 20:06:24.16	231.28	12.27	-43.0	-43.3	12.2	0.00e+00	0	34	0	5729419264	53	14353
2026-01-14 20:06:25.15	231.50	12.35	-43.0	-43.3	12.2	0.00e+00	0	34	0	5804916736	53	14365
2026-01-14 20:06:26.15	231.72	12.43	-43.0	-43.3	12.3	0.00e+00	0	34	0	5880414208	53	14282
2026-01-14 20:06:27.14	231.94	12.51	-43.0	-43.3	12.3	0.00e+00	0	34	0	5955911680	53	14308
2026-01-14 20:06:28.14	232.16	12.58	-42.9	-43.2	12.3	0.00e+00	0	34	0	6031409152	53	14169
2026-01-14 20:06:29.13	232.38	12.66	-42.9	-43.2	12.3	0.00e+00	0	34	0	6106906624	53	14166
2026-01-14 20:06:30.13	232.61	12.74	-42.9	-43.2	12.3	0.00e+00	0	34	0	6182404096	53	14206
2026-01-14 20:06:31.13	232.83	12.81	-42.9	-43.2	12.3	0.00e+00	0	34	0	6257901568	53	14147
2026-01-14 20:06:32.12	233.06	12.89	-42.9	-43.2	12.2	0.00e+00	0	34	0	6325010432	52	15050
2026-01-14 20:06:33.11	233.28	12.97	-42.8	-43.1	12.2	0.00e+00	0	34	0	6400507904	52	14870
2026-01-14 20:06:34.11	233.52	13.04	-42.9	-43.2	12.2	0.00e+00	0	34	0	6476005376	52	14992
2026-01-14 20:06:35.11	233.75	13.12	-42.8	-43.1	12.2	0.00e+00	0	34	0	6551502848	52	14898
2026-01-14 20:06:36.10	233.98	13.20	-42.6	-42.9	12.3	0.00e+00	0	34	0	6627000320	52	14561
2026-01-14 20:06:37.10	234.21	13.28	-42.7	-43.0	12.3	0.00e+00	0	34	0	6702497792	52	14738
2026-01-14 20:06:38.09	234.45	13.35	-42.7	-43.0	12.3	0.00e+00	0	34	0	6777995264	52	14663
2026-01-14 20:06:39.09	234.68	13.43	-42.6	-42.9	12.4	0.00e+00	0	34	0	6853492736	52	14486
2026-01-14 20:06:40.08	234.92	13.50	-42.7	-43.0	12.3	0.00e+00	0	34	0	6928990208	52	14627
2026-01-14 20:06:41.08	235.16	13.58	-42.6	-42.9	12.4	0.00e+00	0	34	0	6996099072	52	14491
2026-01-14 20:06:42.07	235.40	13.66	-42.6	-42.9	12.4	0.00e+00	0	34	0	7071596544	52	14487
2026-01-14 20:06:43.06	235.64	13.73	-42.6	-42.9	12.4	0.00e+00	0	34	0	7147094016	52	14490
2026-01-14 20:06:44.05	235.88	13.81	-42.6	-42.9	12.4	0.00e+00	0	34	0	7222591488	52	14490
2026-01-14 20:06:45.05	236.13	13.89	-42.6	-42.8	12.4	0.00e+00	0	34	0	7298088960	52	14406
2026-01-14 20:06:46.04	236.38	13.96	-42.5	-42.8	12.4	0.00e+00	0	34	0	7373586432	52	14308
2026-01-14 20:06:47.04	236.62	14.04	-42.4	-42.7	12.4	0.00e+00	0	34	0	7449083904	52	14227
2026-01-14 20:06:48.04	236.88	14.11	-42.5	-42.8	12.4	0.00e+00	0	34	0	7524581376	52	14284
2026-01-14 20:06:49.03	237.12	14.19	-42.5	-42.7	12.4	0.00e+00	0	34	0	7600078848	52	14252
2026-01-14 20:06:50.02	237.38	14.26	-42.4	-42.6	12.4	0.00e+00	0	34	0	7667187712	51	14939
2026-01-14 20:06:51.02	237.63	14.34	-42.5	-42.8	12.3	0.00e+00	0	34	0	7742685184	51	15173
2026-01-14 20:06:52.01	237.89	14.41	-42.4	-42.7	12.3	0.00e+00	0	34	0	7818182656	51	15042
2026-01-14 20:06:53.01	238.14	14.49	-42.3	-42.6	12.4	0.00e+00	0	34	0	7893680128	51	14855
2026-01-14 20:06:54.00	238.40	14.56	-42.3	-42.6	12.4	0.00e+00	0	34	0	7969177600	51	14796
2026-01-14 20:06:54.99	238.66	14.64	-42.3	-42.6	12.4	0.00e+00	0	34	0	8044675072	51	14852
2026-01-14 20:06:55.99	238.92	14.71	-42.3	-42.6	12.4	0.00e+00	0	34	0	8120172544	51	14900
2026-01-14 20:06:56.99	239.19	14.79	-42.3	-42.6	12.4	0.00e+00	0	34	0	8195670016	51	14814
2026-01-14 20:06:57.98	239.45	14.86	-42.3	-42.6	12.4	0.00e+00	0	34	0	8271167488	51	14848
2026-01-14 20:06:58.97	239.71	14.93	-42.2	-42.5	12.5	0.00e+00	0	34	0	8346664960	51	14696
2026-01-14 20:06:59.97	239.98	15.01	-42.3	-42.5	12.4	0.00e+00	0	34	0	8413773824	51	14761
2026-01-14 20:07:00.97	240.25	15.08	-42.2	-42.5	12.5	0.00e+00	0	34	0	8489271296	51	14629
2026-01-14 20:07:01.97	240.52	15.15	-42.2	-42.5	12.5	0.00e+00	0	34	0	8564768768	51	14685
2026-01-14 20:07:02.96	240.80	15.23	-42.2	-42.5	12.5	0.00e+00	0	34	0	8640266240	51	14627
2026-01-14 20:07:03.95	241.07	15.30	-42.3	-42.5	12.5	0.00e+00	0	34	0	8715763712	51	14752
2026-01-14 20:07:04.96	241.35	15.37	-42.2	-42.5	12.5	0.00e+00	0	34	0	8791261184	51	14705
2026-01-14 20:07:05.95	241.62	15.44	-42.2	-42.4	12.5	0.00e+00	0	34	0	8866758656	51	14595
2026-01-14 20:07:06.95	241.90	15.52	-42.2	-42.5	12.5	0.00e+00	0	34	0	8942256128	51	14612
2026-01-14 20:07:07.94	242.18	15.59	-42.1	-42.4	12.5	0.00e+00	0	34	0	9017753600	51	14484
2026-01-14 20:07:08.93	242.46	15.66	-42.1	-42.4	12.5	0.00e+00	0	34	0	9084862464	51	14499
2026-01-14 20:07:09.92	242.74	15.73	-42.1	-42.4	12.5	0.00e+00	0	34	0	9160359936	51	14500
2026-01-14 20:07:10.91	243.02	15.80	-42.1	-42.3	12.5	0.00e+00	0	34	0	9235857408	51	14411
2026-01-14 20:07:11.90	243.31	15.87	-42.1	-42.4	12.5	0.00e+00	0	34	0	9311354880	51	14513
2026-01-14 20:07:12.89	243.59	15.94	-42.1	-42.4	12.5	0.00e+00	0	34	0	9386852352	51	14570
2026-01-14 20:07:13.89	243.89	16.01	-42.1	-42.3	12.5	0.00e+00	0	34	0	9462349824	51	14428
2026-01-14 20:07:14.89	244.18	16.08	-42.0	-42.3	12.6	0.00e+00	0	34	0	9537847296	51	14327
2026-01-14 20:07:15.88	244.47	16.15	-42.0	-42.3	12.6	0.00e+00	0	34	0	9613344768	51	14391
2026-01-14 20:07:16.88	244.76	16.21	-42.0	-42.3	12.6	0.00e+00	0	34	0	9688842240	51	14347
2026-01-14 20:07:17.88	245.06	16.28	-42.0	-42.3	12.6	0.00e+00	0	34	0	9764339712	51	14314
2026-01-14 20:07:18.87	245.35	16.35	-42.0	-42.2	12.6	0.00e+00	0	34	0	9831448576	51	14260
2026-01-14 20:07:19.87	245.65	16.42	-42.0	-42.3	12.6	0.00e+00	0	34	0	9906946048	51	14279
2026-01-14 20:07:20.86	245.95	16.48	-41.8	-42.1	12.5	0.00e+00	0	34	0	9982443520	50	14822
2026-01-14 20:07:21.86	246.25	16.55	-41.9	-42.2	12.5	0.00e+00	0	34	0	10057940992	50	15033
2026-01-14 20:07:22.86	246.56	16.62	-41.9	-42.2	12.5	0.00e+00	0	34	0	10133438464	50	15062
2026-01-14 20:07:23.86	246.86	16.68	-41.9	-42.2	12.5	0.00e+00	0	34	0	10208935936	50	15062
2026-01-14 20:07:24.86	247.17	16.75	-42.0	-42.3	12.5	0.00e+00	0	34	0	10284433408	50	15159
2026-01-14 20:07:25.86	247.48	16.81	-41.9	-42.2	12.6	0.00e+00	0	34	0	10359930880	50	14949
2026-01-14 20:07:26.86	247.79	16.88	-41.7	-42.0	12.6	0.00e+00	0	34	0	10435428352	50	14695
2026-01-14 20:07:27.85	248.10	16.94	-41.8	-42.1	12.6	0.00e+00	0	34	0	10510925824	50	14871
2026-01-14 20:07:28.84	248.41	17.00	-41.8	-42.1	12.6	0.00e+00	0	34	0	10586423296	50	14816
2026-01-14 20:07:29.84	248.72	17.06	-41.7	-42.0	12.6	0.00e+00	0	34	0	10661920768	50	14657
2026-01-14 20:07:30.84	249.04	17.13	-41.7	-41.9	12.6	0.00e+00	0	34	0	10729029632	50	14554
2026-01-14 20:07:31.83	249.36	17.19	-41.6	-41.9	12.6	0.00e+00	0	34	0	10804527104	50	14519
2026-01-14 20:07:32.82	249.67	17.25	-41.7	-41.9	12.7	0.00e+00	0	35	0	10880024576	50	14586
2026-01-14 20:07:33.82	249.99	17.31	-41.7	-41.9	12.6	0.00e+00	0	34	0	10955522048	50	14601
2026-01-14 20:07:34.81	250.31	17.37	-41.6	-41.9	12.6	0.00e+00	0	34	0	11031019520	50	14510
2026-01-14 20:07:35.81	250.63	17.43	-41.7	-41.9	12.7	0.00e+00	0	34	0	11106516992	50	14590
2026-01-14 20:07:36.81	250.96	17.49	-41.7	-42.0	12.6	0.00e+00	0	34	0	11182014464	50	14611
2026-01-14 20:07:37.81	251.29	17.54	-41.6	-41.8	12.7	0.00e+00	0	34	0	11257511936	50	14421
2026-01-14 20:07:38.80	251.61	17.60	-41.6	-41.9	12.6	0.00e+00	0	34	0	11333009408	50	14522
2026-01-14 20:07:39.80	251.94	17.66	-41.6	-41.9	12.7	0.00e+00	0	34	0	11408506880	50	14499
2026-01-14 20:07:40.80	252.27	17.71	-41.6	-41.9	12.7	0.00e+00	0	34	0	11484004352	50	14462
2026-01-14 20:07:41.80	252.60	17.77	-41.7	-41.9	12.6	0.00e+00	0	34	0	11559501824	50	14587
2026-01-14 20:07:42.79	252.93	17.82	-41.6	-41.9	12.7	0.00e+00	0	34	0	11634999296	50	14449
2026-01-14 20:07:43.79	253.27	17.88	-41.5	-41.8	12.7	0.00e+00	0	34	0	11710496768	50	14338
2026-01-14 20:07:44.79	253.60	17.93	-41.5	-41.8	12.7	0.00e+00	0	34	0	11777605632	50	14325
2026-01-14 20:07:45.79	253.94	17.98	-41.5	-41.8	12.7	0.00e+00	0	34	0	11853103104	50	14395
2026-01-14 20:07:46.78	254.28	18.04	-41.5	-41.7	12.7	0.00e+00	0	34	0	11928600576	50	14244
2026-01-14 20:07:47.77	254.61	18.09	-41.5	-41.7	12.7	0.00e+00	0	34	0	12004098048	50	14270
2026-01-14 20:07:48.76	254.95	18.14	-41.5	-41.7	12.8	0.00e+00	0	34	0	12079595520	50	14254
2026-01-14 20:07:49.76	255.29	18.19	-41.5	-41.7	12.7	0.00e+00	0	34	0	12155092992	50	14207
2026-01-14 20:07:50.76	255.64	18.24	-41.5	-41.7	12.8	0.00e+00	0	34	0	12230590464	50	14201
2026-01-14 20:07:51.75	255.98	18.28	-41.5	-41.7	12.7	0.00e+00	0	34	0	12306087936	50	14259
2026-01-14 20:07:52.74	256.32	18.33	-41.4	-41.7	12.8	0.00e+00	0	34	0	12381585408	50	14133
2026-01-14 20:07:53.73	256.66	18.38	-41.5	-41.8	12.7	0.00e+00	0	34	0	12448694272	50	14283
2026-01-14 20:07:54.73	257.01	18.42	-41.5	-41.7	12.7	0.00e+00	0	34	0	12524191744	50	14235
2026-01-14 20:07:55.73	257.36	18.47	-41.4	-41.6	12.8	0.00e+00	0	35	0	12599689216	50	14101
2026-01-14 20:07:56.73	257.71	18.51	-41.3	-41.6	12.7	0.00e+00	0	34	0	12675186688	49	14871
2026-01-14 20:07:57.73	258.07	18.55	-41.3	-41.6	12.7	0.00e+00	0	35	0	12750684160	49	14892
2026-01-14 20:07:58.72	258.42	18.60	-41.3	-41.5	12.7	0.00e+00	0	34	0	12826181632	49	14736
2026-01-14 20:07:59.71	258.77	18.64	-41.3	-41.5	12.7	0.00e+00	0	34	0	12901679104	49	14762
2026-01-14 20:08:00.71	259.12	18.68	-41.3	-41.5	12.7	0.00e+00	0	34	0	12977176576	49	14753
2026-01-14 20:08:01.71	259.48	18.72	-41.3	-41.6	12.7	0.00e+00	0	34	0	13052674048	49	14825
2026-01-14 20:08:02.71	259.84	18.76	-41.2	-41.5	12.7	0.00e+00	0	34	0	13119782912	49	14732
2026-01-14 20:08:03.70	260.19	18.80	-41.3	-41.5	12.7	0.00e+00	0	35	0	13195280384	49	14743
2026-01-14 20:08:04.69	260.55	18.83	-41.3	-41.5	12.7	0.00e+00	0	34	0	13270777856	49	14741
2026-01-14 20:08:05.69	260.91	18.87	-41.3	-41.6	12.7	0.00e+00	0	34	0	13346275328	49	14826
2026-01-14 20:08:06.68	261.26	18.90	-41.3	-41.6	12.7	0.00e+00	0	35	0	13421772800	49	14902
2026-01-14 20:08:07.68	261.63	18.94	-41.4	-41.7	12.7	0.00e+00	0	34	0	13497270272	49	14975
2026-01-14 20:08:08.67	261.99	18.97	-41.3	-41.6	12.7	0.00e+00	0	35	0	13572767744	49	14778
2026-01-14 20:08:09.68	262.35	19.00	-41.3	-41.6	12.7	0.00e+00	0	35	0	13648265216	49	14880
2026-01-14 20:08:10.68	262.72	19.04	-41.3	-41.5	12.7	0.00e+00	0	35	0	13723762688	49	14743
2026-01-14 20:08:11.68	263.09	19.07	-41.2	-41.5	12.7	0.00e+00	0	34	0	13799260160	49	14635
2026-01-14 20:08:12.66	263.44	19.09	-41.2	-41.5	12.7	0.00e+00	0	35	0	13866369024	49	14642
2026-01-14 20:08:13.66	263.81	19.12	-41.2	-41.4	12.8	0.00e+00	0	34	0	13941866496	49	14592
2026-01-14 20:08:14.64	264.17	19.15	-41.2	-41.4	12.7	0.00e+00	0	34	0	14017363968	49	14587
2026-01-14 20:08:15.64	264.54	19.18	-41.2	-41.4	12.7	0.00e+00	0	34	0	14092861440	49	14599
2026-01-14 20:08:16.63	264.91	19.20	-41.2	-41.5	12.8	0.00e+00	0	34	0	14168358912	49	14608
2026-01-14 20:08:17.63	265.28	19.23	-41.2	-41.5	12.7	0.00e+00	0	34	0	14243856384	49	14629
2026-01-14 20:08:18.63	265.65	19.25	-41.2	-41.5	12.7	0.00e+00	0	34	0	14319353856	49	14614
2026-01-14 20:08:19.62	266.02	19.27	-41.2	-41.5	12.8	0.00e+00	0	34	0	14394851328	49	14613
2026-01-14 20:08:20.62	266.39	19.29	-41.2	-41.4	12.8	0.00e+00	0	34	0	14470348800	49	14604
2026-01-14 20:08:21.62	266.76	19.31	-41.2	-41.5	12.8	0.00e+00	0	34	0	14537457664	49	14641
2026-01-14 20:08:22.61	267.13	19.33	-41.3	-41.6	12.7	0.00e+00	0	35	0	14612955136	49	14802
2026-01-14 20:08:23.61	267.50	19.35	-41.2	-41.4	12.8	0.00e+00	0	34	0	14688452608	49	14583
2026-01-14 20:08:24.61	267.88	19.37	-41.2	-41.5	12.7	0.00e+00	0	34	0	14763950080	49	14714
2026-01-14 20:08:25.61	268.25	19.38	-41.3	-41.5	12.7	0.00e+00	0	34	0	14839447552	49	14747
2026-01-14 20:08:26.61	268.63	19.40	-41.2	-41.4	12.8	0.00e+00	0	35	0	14914945024	49	14597
2026-01-14 20:08:27.60	269.00	19.41	-41.2	-41.4	12.8	0.00e+00	0	34	0	14990442496	49	14606
2026-01-14 20:08:28.60	269.37	19.43	-41.3	-41.5	12.7	0.00e+00	0	35	0	15065939968	49	14742
2026-01-14 20:08:29.59	269.75	19.44	-41.1	-41.4	12.8	0.00e+00	0	34	0	15141437440	49	14545
2026-01-14 20:08:30.59	270.12	19.45	-41.2	-41.5	12.7	0.00e+00	0	34	0	15208546304	49	14667
2026-01-14 20:08:31.59	270.50	19.46	-41.2	-41.5	12.7	0.00e+00	0	35	0	15284043776	49	14693
2026-01-14 20:08:32.58	270.87	19.47	-41.2	-41.4	12.8	0.00e+00	0	35	0	15359541248	49	14579
2026-01-14 20:08:33.57	271.24	19.47	-41.2	-41.4	12.7	0.00e+00	0	34	0	15435038720	49	14601
2026-01-14 20:08:34.56	271.62	19.48	-41.3	-41.5	12.7	0.00e+00	0	35	0	15510536192	49	14724
2026-01-14 20:08:35.56	272.00	19.49	-41.4	-41.6	12.7	0.00e+00	0	35	0	15586033664	49	14938
2026-01-14 20:08:36.56	272.37	19.49	-41.3	-41.6	12.7	0.00e+00	0	34	0	15661531136	49	14800
2026-01-14 20:08:37.55	272.75	19.49	-41.2	-41.5	12.7	0.00e+00	0	34	0	15737028608	49	14672
2026-01-14 20:08:38.54	273.12	19.50	-41.3	-41.6	12.7	0.00e+00	0	35	0	15812526080	49	14827
2026-01-14 20:08:39.54	273.50	19.50	-41.3	-41.5	12.7	0.00e+00	0	35	0	15888023552	49	14765
2026-01-14 20:08:40.53	273.87	19.50	-41.2	-41.5	12.8	0.00e+00	0	34	0	15955132416	49	14680
2026-01-14 20:08:41.54	274.25	19.49	-41.2	-41.5	12.7	0.00e+00	0	34	0	16039018496	49	14685
2026-01-14 20:08:42.53	274.63	19.49	-41.3	-41.6	12.7	0.00e+00	0	35	0	16106127360	49	14780
2026-01-14 20:08:43.53	275.00	19.49	-41.2	-41.4	12.7	0.00e+00	0	35	0	16181624832	49	14604
2026-01-14 20:08:44.52	275.38	19.48	-41.3	-41.6	12.7	0.00e+00	0	34	0	16257122304	49	14837
2026-01-14 20:08:45.52	275.75	19.48	-41.4	-41.6	12.7	0.00e+00	0	35	0	16332619776	49	14928
2026-01-14 20:08:46.51	276.13	19.47	-41.3	-41.5	12.8	0.00e+00	0	34	0	16408117248	49	14737
2026-01-14 20:08:47.50	276.50	19.46	-41.3	-41.5	12.8	0.00e+00	0	34	0	16483614720	49	14725
2026-01-14 20:08:48.50	276.88	19.46	-41.4	-41.6	12.7	0.00e+00	0	34	0	16559112192	49	14915
2026-01-14 20:08:49.49	277.25	19.45	-41.3	-41.6	12.7	0.00e+00	0	35	0	16634609664	49	14821
2026-01-14 20:08:50.50	277.63	19.43	-41.3	-41.6	12.7	0.00e+00	0	35	0	16710107136	49	14873
2026-01-14 20:08:51.49	278.00	19.42	-41.5	-41.8	12.6	0.00e+00	0	34	0	16785604608	49	15148
2026-01-14 20:08:52.49	278.38	19.41	-41.5	-41.7	12.7	0.00e+00	0	35	0	16861102080	49	15103
2026-01-14 20:08:53.49	278.75	19.39	-41.4	-41.7	12.7	0.00e+00	0	34	0	16936599552	49	15012
2026-01-14 20:08:54.48	279.12	19.38	-41.4	-41.7	12.7	0.00e+00	0	34	0	17003708416	49	14967
2026-01-14 20:08:55.48	279.50	19.36	-41.4	-41.7	12.7	0.00e+00	0	35	0	17079205888	49	14986
2026-01-14 20:08:56.48	279.87	19.34	-41.3	-41.6	12.8	0.00e+00	0	35	0	17154703360	49	14834
2026-01-14 20:08:57.47	280.24	19.33	-41.3	-41.5	12.7	0.00e+00	0	35	0	17230200832	49	14771
2026-01-14 20:08:58.46	280.61	19.31	-41.4	-41.7	12.7	0.00e+00	0	35	0	17305698304	49	14985
2026-01-14 20:08:59.47	280.98	19.29	-41.3	-41.6	12.7	0.00e+00	0	35	0	17381195776	49	14869
2026-01-14 20:09:00.46	281.35	19.26	-41.4	-41.6	12.7	0.00e+00	0	35	0	17456693248	49	14938
2026-01-14 20:09:01.46	281.72	19.24	-41.4	-41.6	12.7	0.00e+00	0	35	0	17532190720	49	14886
2026-01-14 20:09:02.46	282.09	19.22	-41.4	-41.7	12.7	0.00e+00	0	35	0	17607688192	49	14955
2026-01-14 20:09:03.46	282.46	19.19	-41.4	-41.6	12.7	0.00e+00	0	34	0	17683185664	49	14935
2026-01-14 20:09:04.45	282.82	19.17	-41.4	-41.7	12.7	0.00e+00	0	35	0	17758683136	49	15003
2026-01-14 20:09:05.45	283.19	19.14	-41.5	-41.7	12.7	0.00e+00	0	35	0	17834180608	49	15040
2026-01-14 20:09:06.45	283.56	19.11	-41.4	-41.7	12.7	0.00e+00	0	34	0	17901289472	49	14951
2026-01-14 20:09:07.46	283.93	19.08	-41.4	-41.6	12.7	0.00e+00	0	35	0	17976786944	49	14928
2026-01-14 20:09:08.45	284.29	19.05	-41.4	-41.6	12.7	0.00e+00	0	35	0	18052284416	49	14942
2026-01-14 20:09:09.45	284.65	19.02	-41.4	-41.7	12.6	0.00e+00	0	35	0	18127781888	49	15063
2026-01-14 20:09:10.46	285.02	18.99	-41.5	-41.8	12.6	0.00e+00	0	35	0	18203279360	49	15244
2026-01-14 20:09:11.46	285.38	18.96	-41.4	-41.7	12.7	0.00e+00	0	35	0	18278776832	49	15051
2026-01-14 20:09:12.46	285.75	18.92	-41.4	-41.7	12.7	0.00e+00	0	35	0	18354274304	49	15043
2026-01-14 20:09:13.45	286.10	18.89	-41.5	-41.7	12.6	0.00e+00	0	35	0	18429771776	49	15109
2026-01-14 20:09:14.46	286.47	18.85	-41.4	-41.7	12.7	0.00e+00	0	35	0	18505269248	49	15088
2026-01-14 20:09:15.46	286.83	18.82	-41.6	-41.8	12.6	0.00e+00	0	34	0	18580766720	49	15258
2026-01-14 20:09:16.46	287.18	18.78	-41.5	-41.8	12.7	0.00e+00	0	35	0	18656264192	49	15200
2026-01-14 20:09:17.45	287.54	18.74	-41.6	-41.9	12.7	0.00e+00	0	35	0	18731761664	49	15335
2026-01-14 20:09:18.45	287.89	18.70	-41.6	-41.9	12.6	0.00e+00	0	35	0	18807259136	49	15352
2026-01-14 20:09:19.45	288.25	18.66	-41.6	-41.8	12.6	0.00e+00	0	35	0	18882756608	49	15286
2026-01-14 20:09:20.44	288.60	18.62	-41.7	-42.0	12.6	0.00e+00	0	35	0	18958254080	49	15562
2026-01-14 20:09:21.44	288.95	18.58	-41.7	-42.0	12.6	0.00e+00	0	35	0	19033751552	49	15563
2026-01-14 20:09:22.43	289.30	18.54	-41.7	-42.0	12.6	0.00e+00	0	35	0	19100860416	49	15515
2026-01-14 20:09:23.43	289.65	18.49	-41.7	-42.0	12.6	0.00e+00	0	35	0	19176357888	49	15589
2026-01-14 20:09:24.43	290.00	18.45	-41.6	-41.8	12.7	0.00e+00	0	34	0	19251855360	49	15271
2026-01-14 20:09:25.43	290.35	18.40	-41.6	-41.8	12.7	0.00e+00	0	35	0	19327352832	49	15294
2026-01-14 20:09:26.43	290.69	18.36	-41.6	-41.8	12.7	0.00e+00	0	35	0	19402850304	49	15278
2026-01-14 20:09:27.42	291.04	18.31	-41.7	-42.0	12.6	0.00e+00	0	35	0	19478347776	49	15508
2026-01-14 20:09:28.43	291.38	18.26	-41.8	-42.1	12.6	0.00e+00	0	35	0	19553845248	49	15683
2026-01-14 20:09:29.42	291.72	18.22	-41.7	-42.0	12.6	0.00e+00	0	35	0	19629342720	49	15542
2026-01-14 20:09:30.42	292.07	18.17	-41.7	-42.0	12.6	0.00e+00	0	35	0	19704840192	49	15564
2026-01-14 20:09:31.43	292.41	18.12	-41.6	-41.9	12.6	0.00e+00	0	35	0	19780337664	49	15377
2026-01-14 20:09:32.41	292.74	18.07	-41.7	-42.0	12.6	0.00e+00	0	35	0	19847446528	49	15581
2026-01-14 20:09:33.41	293.08	18.02	-41.7	-42.0	12.6	0.00e+00	0	35	0	19922944000	49	15620
2026-01-14 20:09:34.40	293.41	17.96	-41.7	-42.0	12.6	0.00e+00	0	35	0	19998441472	49	15544
2026-01-14 20:09:35.41	293.75	17.91	-41.7	-42.0	12.6	0.00e+00	0	34	0	20073938944	49	15567
2026-01-14 20:09:36.41	294.09	17.86	-41.8	-42.1	12.6	0.00e+00	0	35	0	20149436416	49	15730
2026-01-14 20:09:37.41	294.42	17.80	-41.7	-42.0	12.6	0.00e+00	0	35	0	20224933888	49	15592
2026-01-14 20:09:38.42	294.75	17.75	-41.8	-42.1	12.6	0.00e+00	0	34	0	20300431360	49	15801
2026-01-14 20:09:39.40	295.08	17.69	-41.8	-42.1	12.6	0.00e+00	0	35	0	20375928832	49	15694
2026-01-14 20:09:40.41	295.41	17.64	-41.8	-42.1	12.6	0.00e+00	0	35	0	20451426304	49	15689
2026-01-14 20:09:41.40	295.73	17.58	-41.9	-42.2	12.5	0.00e+00	0	35	0	20526923776	49	15914
2026-01-14 20:09:42.40	296.06	17.52	-41.8	-42.1	12.6	0.00e+00	0	35	0	20602421248	49	15740
2026-01-14 20:09:43.40	296.38	17.46	-41.9	-42.1	12.6	0.00e+00	0	35	0	20677918720	49	15828
2026-01-14 20:09:44.40	296.70	17.41	-41.8	-42.1	12.6	0.00e+00	0	35	0	20753416192	49	15763
2026-01-14 20:09:45.39	297.02	17.35	-41.9	-42.2	12.5	0.00e+00	0	35	0	20828913664	49	15957
2026-01-14 20:09:46.38	297.34	17.29	-42.0	-42.3	12.5	0.00e+00	0	35	0	20896022528	49	16068
2026-01-14 20:09:47.37	297.65	17.23	-42.0	-42.3	12.5	0.00e+00	0	35	0	20971520000	49	16151
2026-01-14 20:09:48.38	297.97	17.17	-41.9	-42.2	12.6	0.00e+00	0	35	0	21047017472	49	15926
2026-01-14 20:09:49.37	298.29	17.11	-42.0	-42.2	12.6	0.00e+00	0	35	0	21122514944	49	15978
2026-01-14 20:09:50.37	298.60	17.04	-41.9	-42.2	12.6	0.00e+00	0	35	0	21198012416	49	15992
2026-01-14 20:09:51.37	298.91	16.98	-42.1	-42.4	12.5	0.00e+00	0	35	0	21273509888	49	16242
2026-01-14 20:09:52.37	299.22	16.92	-42.0	-42.3	12.5	0.00e+00	0	35	0	21349007360	49	16097
2026-01-14 20:09:53.38	299.54	16.85	-42.0	-42.3	12.5	0.00e+00	0	35	0	21424504832	49	16123
2026-01-14 20:09:54.37	299.84	16.79	-42.0	-42.3	12.5	0.00e+00	0	35	0	21500002304	49	16140
2026-01-14 20:09:55.37	300.15	16.73	-42.0	-42.3	12.5	0.00e+00	0	35	0	21575499776	49	16091
2026-01-14 20:09:56.36	300.45	16.66	-42.2	-42.4	12.5	0.00e+00	0	35	0	21650997248	50	15473
2026-01-14 20:09:57.36	300.75	16.60	-42.1	-42.4	12.6	0.00e+00	0	35	0	21726494720	50	15402
2026-01-14 20:09:58.36	301.06	16.53	-42.1	-42.4	12.6	0.00e+00	0	35	0	21793603584	50	15408
2026-01-14 20:09:59.35	301.35	16.46	-42.1	-42.4	12.6	0.00e+00	0	35	0	21869101056	50	15451
2026-01-14 20:10:00.35	301.65	16.40	-42.2	-42.5	12.5	0.00e+00	0	35	0	21944598528	50	15591
2026-01-14 20:10:01.35	301.95	16.33	-42.2	-42.5	12.5	0.00e+00	0	35	0	22020096000	50	15611
2026-01-14 20:10:02.35	302.24	16.26	-42.3	-42.6	12.5	0.00e+00	0	35	0	22095593472	50	15668
2026-01-14 20:10:03.35	302.54	16.20	-42.2	-42.4	12.5	0.00e+00	0	35	0	22171090944	50	15464
2026-01-14 20:10:04.35	302.83	16.13	-42.2	-42.5	12.5	0.00e+00	0	35	0	22246588416	50	15573
2026-01-14 20:10:05.35	303.12	16.06	-42.2	-42.5	12.5	0.00e+00	0	35	0	22322085888	50	15574
2026-01-14 20:10:06.35	303.41	15.99	-42.3	-42.6	12.5	0.00e+00	0	35	0	22397583360	50	15671
2026-01-14 20:10:07.35	303.70	15.92	-42.4	-42.7	12.5	0.00e+00	0	35	0	22473080832	50	15858
2026-01-14 20:10:08.35	303.99	15.85	-42.3	-42.6	12.5	0.00e+00	0	35	0	22548578304	50	15732
2026-01-14 20:10:09.35	304.27	15.78	-42.3	-42.6	12.5	0.00e+00	0	35	0	22624075776	50	15788
2026-01-14 20:10:10.35	304.56	15.71	-42.3	-42.6	12.5	0.00e+00	0	35	0	22699573248	50	15733
2026-01-14 20:10:11.34	304.83	15.64	-42.3	-42.6	12.5	0.00e+00	0	35	0	22775070720	50	15716
2026-01-14 20:10:12.34	305.11	15.57	-42.4	-42.7	12.5	0.00e+00	0	35	0	22842179584	50	15891
2026-01-14 20:10:13.33	305.39	15.50	-42.4	-42.7	12.4	0.00e+00	0	35	0	22917677056	50	16005
2026-01-14 20:10:14.32	305.66	15.43	-42.5	-42.7	12.4	0.00e+00	0	35	0	22993174528	50	16010
2026-01-14 20:10:15.32	305.94	15.35	-42.5	-42.8	12.4	0.00e+00	0	35	0	23068672000	50	16179
2026-01-14 20:10:16.32	306.21	15.28	-42.5	-42.8	12.5	0.00e+00	0	35	0	23144169472	51	15224
2026-01-14 20:10:17.31	306.48	15.21	-42.5	-42.8	12.5	0.00e+00	0	35	0	23219666944	51	15197
2026-01-14 20:10:18.31	306.76	15.14	-42.6	-42.9	12.5	0.00e+00	0	35	0	23295164416	51	15338
2026-01-14 20:10:19.31	307.02	15.07	-42.6	-42.9	12.4	0.00e+00	0	35	0	23370661888	51	15333
2026-01-14 20:10:20.30	307.29	14.99	-42.5	-42.8	12.5	0.00e+00	0	35	0	23446159360	51	15254
2026-01-14 20:10:21.30	307.56	14.92	-42.6	-42.8	12.5	0.00e+00	0	35	0	23521656832	51	15271
2026-01-14 20:10:22.29	307.82	14.85	-42.6	-42.9	12.5	0.00e+00	0	35	0	23597154304	51	15403
2026-01-14 20:10:23.29	308.08	14.77	-42.6	-42.9	12.5	0.00e+00	0	35	0	23672651776	51	15439
2026-01-14 20:10:24.28	308.34	14.70	-42.7	-43.0	12.4	0.00e+00	0	35	0	23739760640	51	15558
2026-01-14 20:10:25.28	308.60	14.63	-42.8	-43.1	12.4	0.00e+00	0	35	0	23815258112	51	15763
2026-01-14 20:10:26.28	308.86	14.55	-42.9	-43.2	12.3	0.00e+00	0	35	0	23890755584	51	15956
2026-01-14 20:10:27.28	309.12	14.48	-42.9	-43.1	12.4	0.00e+00	0	35	0	23966253056	51	15803
2026-01-14 20:10:28.28	309.37	14.40	-42.8	-43.1	12.4	0.00e+00	0	35	0	24041750528	51	15748
2026-01-14 20:10:29.27	309.63	14.33	-43.0	-43.3	12.3	0.00e+00	0	35	0	24117248000	51	16018
2026-01-14 20:10:30.27	309.88	14.25	-42.9	-43.2	12.3	0.00e+00	0	35	0	24192745472	51	15945
2026-01-14 20:10:31.27	310.13	14.18	-42.8	-43.1	12.4	0.00e+00	0	35	0	24268242944	51	15799
2026-01-14 20:10:32.27	310.38	14.10	-42.9	-43.2	12.3	0.00e+00	0	35	0	24343740416	51	15899
2026-01-14 20:10:33.27	310.63	14.03	-42.9	-43.2	12.3	0.00e+00	0	35	0	24410849280	51	15998
2026-01-14 20:10:34.27	310.88	13.95	-42.9	-43.2	12.3	0.00e+00	0	35	0	24486346752	51	15869
2026-01-14 20:10:35.25	311.12	13.88	-42.9	-43.2	12.3	0.00e+00	0	35	0	24561844224	51	15898
2026-01-14 20:10:36.24	311.36	13.80	-42.9	-43.2	12.3	0.00e+00	0	35	0	24637341696	51	15968
2026-01-14 20:10:37.24	311.60	13.73	-43.0	-43.3	12.3	0.00e+00	0	35	0	24712839168	51	16060
2026-01-14 20:10:38.23	311.84	13.65	-43.0	-43.3	12.3	0.00e+00	0	35	0	24788336640	51	16094
2026-01-14 20:10:39.23	312.08	13.57	-43.0	-43.3	12.3	0.00e+00	0	35	0	24863834112	51	16100
2026-01-14 20:10:40.22	312.31	13.50	-43.1	-43.4	12.2	0.00e+00	0	35	0	24939331584	51	16215
2026-01-14 20:10:41.22	312.55	13.42	-43.1	-43.4	12.3	0.00e+00	0	35	0	25014829056	52	15406
2026-01-14 20:10:42.22	312.79	13.35	-43.3	-43.6	12.2	0.00e+00	0	35	0	25090326528	52	15670
2026-01-14 20:10:43.21	313.02	13.27	-43.2	-43.5	12.3	0.00e+00	0	35	0	25157435392	52	15597
2026-01-14 20:10:44.21	313.25	13.19	-43.3	-43.6	12.2	0.00e+00	0	35	0	25232932864	52	15681
2026-01-14 20:10:45.21	313.48	13.12	-43.2	-43.5	12.3	0.00e+00	0	35	0	25308430336	52	15494
2026-01-14 20:10:46.22	313.71	13.04	-43.0	-43.3	12.3	0.00e+00	0	35	0	25383927808	52	15276
2026-01-14 20:10:47.21	313.94	12.97	-43.2	-43.4	12.3	0.00e+00	0	35	0	25459425280	52	15469
2026-01-14 20:10:48.21	314.17	12.89	-43.1	-43.4	12.3	0.00e+00	0	35	0	25534922752	52	15421
2026-01-14 20:10:49.21	314.39	12.81	-43.2	-43.5	12.2	0.00e+00	0	35	0	25610420224	52	15605
2026-01-14 20:10:50.20	314.61	12.74	-43.2	-43.5	12.2	0.00e+00	0	35	0	25685917696	52	15626
2026-01-14 20:10:51.21	314.84	12.66	-43.2	-43.5	12.2	0.00e+00	0	35	0	25761415168	52	15533
2026-01-14 20:10:52.20	315.06	12.58	-43.2	-43.5	12.2	0.00e+00	0	35	0	25836912640	52	15479
2026-01-14 20:10:53.19	315.28	12.51	-43.2	-43.5	12.2	0.00e+00	0	35	0	25912410112	52	15628
2026-01-14 20:10:54.19	315.49	12.43	-43.3	-43.6	12.2	0.00e+00	0	35	0	25987907584	52	15830
2026-01-14 20:10:55.18	315.71	12.35	-43.3	-43.6	12.2	0.00e+00	0	35	0	26055016448	52	15802
2026-01-14 20:10:56.18	315.93	12.28	-43.4	-43.7	12.2	0.00e+00	0	35	0	26130513920	52	15835
2026-01-14 20:10:57.18	316.14	12.20	-43.3	-43.6	12.2	0.00e+00	0	35	0	26206011392	52	15791
2026-01-14 20:10:58.17	316.35	12.12	-43.4	-43.7	12.2	0.00e+00	0	35	0	26281508864	52	15885
2026-01-14 20:10:59.17	316.56	12.05	-43.5	-43.8	12.1	0.00e+00	0	35	0	26357006336	52	16068
2026-01-14 20:11:00.17	316.77	11.97	-43.4	-43.7	12.2	0.00e+00	0	35	0	26432503808	52	15896
2026-01-14 20:11:01.16	316.98	11.89	-43.4	-43.7	12.1	0.00e+00	0	35	0	26508001280	52	15975
2026-01-14 20:11:02.16	317.19	11.82	-43.5	-43.8	12.1	0.00e+00	0	35	0	26583498752	52	16049
2026-01-14 20:11:03.16	317.40	11.74	-43.5	-43.8	12.1	0.00e+00	0	35	0	26658996224	52	16090
2026-01-14 20:11:04.16	317.60	11.66	-43.6	-43.9	12.1	0.00e+00	0	35	0	26734493696	52	16286
2026-01-14 20:11:05.15	317.81	11.59	-43.5	-43.8	12.2	0.00e+00	0	35	0	26809991168	53	15246
2026-01-14 20:11:06.15	318.01	11.51	-43.5	-43.9	12.2	0.00e+00	0	35	0	26885488640	53	15311
2026-01-14 20:11:07.15	318.21	11.44	-43.6	-44.0	12.1	0.00e+00	0	35	0	26960986112	53	15488
2026-01-14 20:11:08.14	318.41	11.36	-43.7	-44.0	12.1	0.00e+00	0	35	0	27036483584	53	15506
2026-01-14 20:11:09.14	318.61	11.28	-43.7	-44.0	12.1	0.00e+00	0	35	0	27103592448	53	15561
2026-01-14 20:11:10.14	318.81	11.21	-43.8	-44.1	12.1	0.00e+00	0	35	0	27179089920	53	15685
2026-01-14 20:11:11.14	319.00	11.13	-43.7	-44.0	12.1	0.00e+00	0	35	0	27254587392	53	15640
2026-01-14 20:11:12.14	319.20	11.05	-43.7	-44.0	12.1	0.00e+00	0	35	0	27330084864	53	15536
2026-01-14 20:11:13.13	319.39	10.98	-43.8	-44.1	12.0	0.00e+00	0	35	0	27405582336	53	15757
2026-01-14 20:11:14.13	319.58	10.90	-43.8	-44.1	12.0	0.00e+00	0	35	0	27481079808	53	15763
2026-01-14 20:11:15.13	319.78	10.83	-43.8	-44.1	12.0	0.00e+00	0	35	0	27556577280	53	15796
2026-01-14 20:11:16.12	319.97	10.75	-43.7	-44.1	12.1	0.00e+00	0	35	0	27632074752	53	15658
2026-01-14 20:11:17.11	320.15	10.68	-43.9	-44.2	12.0	0.00e+00	0	35	0	27707572224	53	15891
2026-01-14 20:11:18.11	320.34	10.60	-44.0	-44.3	12.0	0.00e+00	0	35	0	27774681088	53	16134
2026-01-14 20:11:19.10	320.53	10.53	-44.0	-44.3	11.9	0.00e+00	0	35	0	27850178560	53	16088
2026-01-14 20:11:20.10	320.71	10.45	-44.0	-44.4	11.9	0.00e+00	0	35	0	27925676032	53	16248
2026-01-14 20:11:21.10	320.90	10.37	-43.9	-44.3	11.9	0.00e+00	0	35	0	28001173504	53	16037
2026-01-14 20:11:22.10	321.08	10.30	-44.0	-44.3	12.0	0.00e+00	0	35	0	28076670976	53	16115
2026-01-14 20:11:23.09	321.26	10.22	-44.1	-44.4	11.9	0.00e+00	0	35	0	28152168448	53	16239
2026-01-14 20:11:24.08	321.44	10.15	-44.1	-44.4	11.9	0.00e+00	0	35	0	28227665920	53	16335
2026-01-14 20:11:25.07	321.62	10.07	-44.0	-44.3	11.9	0.00e+00	0	35	0	28303163392	53	16149
2026-01-14 20:11:26.07	321.80	10.00	-44.0	-44.3	11.9	0.00e+00	0	35	0	28378660864	53	16193
2026-01-14 20:11:27.07	321.98	9.92	-44.0	-44.4	11.9	0.00e+00	0	35	0	28445769728	53	16210
2026-01-14 20:11:28.07	322.16	9.85	-44.2	-44.5	11.9	0.00e+00	0	35	0	28521267200	54	15554
2026-01-14 20:11:29.07	322.34	9.77	-44.2	-44.5	11.9	0.00e+00	0	35	0	28596764672	54	15612
2026-01-14 20:11:30.06	322.51	9.70	-44.2	-44.6	11.9	0.00e+00	0	35	0	28672262144	54	15688
2026-01-14 20:11:31.06	322.68	9.63	-44.2	-44.5	11.9	0.00e+00	0	35	0	28747759616	54	15605
2026-01-14 20:11:32.06	322.86	9.55	-44.3	-44.6	11.8	0.00e+00	0	35	0	28823257088	54	15693
2026-01-14 20:11:33.06	323.03	9.48	-44.3	-44.6	11.8	0.00e+00	0	35	0	28898754560	54	15722
2026-01-14 20:11:34.06	323.20	9.40	-44.3	-44.6	11.8	0.00e+00	0	35	0	28974252032	54	15832
2026-01-14 20:11:35.06	323.37	9.33	-44.3	-44.7	11.8	0.00e+00	0	35	0	29049749504	54	15834
2026-01-14 20:11:36.06	323.54	9.25	-44.4	-44.7	11.8	0.00e+00	0	35	0	29125246976	54	15903
2026-01-14 20:11:37.06	323.71	9.18	-44.4	-44.7	11.8	0.00e+00	0	35	0	29200744448	54	15918
2026-01-14 20:11:38.05	323.87	9.11	-44.4	-44.7	11.8	0.00e+00	0	35	0	29276241920	54	16010
2026-01-14 20:11:39.05	324.04	9.03	-44.5	-44.9	11.8	6.90e-06	0	35	0	29351739392	55	15305
2026-01-14 20:11:40.04	324.20	8.96	-44.6	-44.9	11.8	0.00e+00	0	35	0	29427236864	55	15392
2026-01-14 20:11:41.04	324.36	8.89	-44.5	-44.8	11.8	0.00e+00	0	35	0	29502734336	55	15277
2026-01-14 20:11:42.04	324.53	8.81	-44.5	-44.9	11.8	0.00e+00	0	35	0	29578231808	55	15317
2026-01-14 20:11:43.04	324.69	8.74	-44.7	-45.0	11.7	0.00e+00	0	35	0	29653729280	55	15641
2026-01-14 20:11:44.03	324.85	8.67	-44.5	-44.9	11.8	0.00e+00	0	35	0	29720838144	55	15327
2026-01-14 20:11:45.03	325.01	8.59	-44.5	-44.8	11.8	0.00e+00	0	35	0	29796335616	55	15221
2026-01-14 20:11:46.02	325.17	8.52	-44.6	-44.9	11.7	0.00e+00	0	35	0	29871833088	55	15384
2026-01-14 20:11:47.02	325.32	8.45	-44.6	-45.0	11.7	0.00e+00	0	35	0	29947330560	55	15486
2026-01-14 20:11:48.02	325.48	8.38	-44.6	-45.0	11.7	0.00e+00	0	35	0	30022828032	55	15478
2026-01-14 20:11:49.02	325.64	8.30	-44.7	-45.0	11.7	0.00e+00	0	35	0	30098325504	55	15603
2026-01-14 20:11:50.02	325.79	8.23	-44.6	-44.9	11.7	0.00e+00	0	35	0	30173822976	55	15464
2026-01-14 20:11:51.03	325.95	8.16	-44.9	-45.3	11.5	0.00e+00	0	35	0	30249320448	55	16019
2026-01-14 20:11:52.03	326.10	8.09	-44.7	-45.1	11.6	0.00e+00	0	35	0	30324817920	55	15687
2026-01-14 20:11:53.03	326.25	8.01	-44.8	-45.2	11.6	0.00e+00	0	35	0	30391926784	55	15898
2026-01-14 20:11:54.04	326.41	7.94	-44.8	-45.2	11.6	0.00e+00	0	35	0	30467424256	55	15848
2026-01-14 20:11:55.03	326.56	7.87	-44.7	-45.1	11.6	0.00e+00	0	35	0	30542921728	55	15690
2026-01-14 20:11:56.02	326.70	7.80	-44.9	-45.2	11.6	6.90e-06	0	35	0	30618419200	55	15968
2026-01-14 20:11:57.02	326.85	7.73	-45.0	-45.3	11.5	0.00e+00	0	35	0	30693916672	55	16181
2026-01-14 20:11:58.02	327.00	7.66	-44.8	-45.2	11.6	1.38e-05	0	35	0	30769414144	55	15857
2026-01-14 20:11:59.01	327.15	7.59	-44.8	-45.2	11.5	0.00e+00	0	35	0	30844911616	55	15895
2026-01-14 20:12:00.01	327.29	7.51	-44.9	-45.2	11.5	6.90e-06	0	35	0	30920409088	55	15893
2026-01-14 20:12:01.01	327.44	7.44	-45.0	-45.3	11.5	0.00e+00	0	35	0	30995906560	55	16191
2026-01-14 20:12:02.01	327.58	7.37	-45.0	-45.4	11.5	1.38e-05	0	35	0	31071404032	55	16220
2026-01-14 20:12:02.99	327.72	7.30	-45.0	-45.3	11.4	1.38e-05	0	35	0	31146901504	55	16185
2026-01-14 20:12:03.99	327.87	7.23	-45.0	-45.4	11.5	6.90e-06	0	35	0	31222398976	55	16221
2026-01-14 20:12:04.99	328.01	7.16	-45.1	-45.5	11.5	6.90e-06	0	35	0	31297896448	56	15492
2026-01-14 20:12:05.99	328.15	7.09	-45.2	-45.5	11.4	0.00e+00	0	35	0	31373393920	56	15628
2026-01-14 20:12:06.99	328.29	7.02	-45.2	-45.5	11.4	1.38e-05	0	35	0	31448891392	56	15588
2026-01-14 20:12:07.99	328.43	6.95	-45.2	-45.5	11.4	0.00e+00	0	35	0	31524388864	56	15599
2026-01-14 20:12:08.98	328.57	6.88	-45.2	-45.5	11.4	1.38e-05	0	35	0	31591497728	56	15582
2026-01-14 20:12:09.98	328.70	6.81	-45.3	-45.6	11.4	0.00e+00	0	35	0	31666995200	56	15789
2026-01-14 20:12:10.97	328.84	6.74	-45.3	-45.7	11.3	0.00e+00	0	35	0	31742492672	56	15908
2026-01-14 20:12:11.97	328.98	6.67	-45.3	-45.6	11.4	1.38e-05	0	35	0	31817990144	56	15749
2026-01-14 20:12:12.96	329.11	6.60	-45.3	-45.6	11.3	6.90e-06	0	35	0	31893487616	56	15787
2026-01-14 20:12:13.95	329.24	6.54	-45.4	-45.7	11.3	6.90e-06	0	35	0	31968985088	56	15924
2026-01-14 20:12:14.95	329.38	6.47	-45.2	-45.6	11.4	2.08e-05	0	35	0	32044482560	56	15710
2026-01-14 20:12:15.95	329.51	6.40	-45.4	-45.7	11.3	2.08e-05	0	35	0	32119980032	56	15974
2026-01-14 20:12:16.95	329.64	6.33	-45.3	-45.7	11.3	0.00e+00	0	35	0	32195477504	56	15867
2026-01-14 20:12:17.94	329.77	6.26	-45.5	-45.9	11.2	1.38e-05	0	35	0	32270974976	56	16204
2026-01-14 20:12:18.93	329.90	6.19	-45.6	-45.9	11.2	2.08e-05	0	35	0	32338083840	56	16328
2026-01-14 20:12:19.93	330.03	6.12	-45.4	-45.8	11.2	1.38e-05	0	35	0	32413581312	56	16096
2026-01-14 20:12:20.92	330.16	6.06	-45.6	-46.0	11.2	0.00e+00	0	35	0	32489078784	57	15492
2026-01-14 20:12:21.91	330.29	5.99	-45.5	-45.9	11.3	3.46e-05	0	35	0	32564576256	57	15299
2026-01-14 20:12:22.91	330.42	5.92	-45.6	-45.9	11.2	1.38e-05	0	35	0	32640073728	57	15467
2026-01-14 20:12:23.91	330.55	5.85	-45.5	-45.8	11.3	1.38e-05	0	35	0	32715571200	57	15215
2026-01-14 20:12:24.91	330.67	5.79	-45.6	-45.9	11.2	6.90e-06	0	35	0	32791068672	57	15352
2026-01-14 20:12:25.92	330.80	5.72	-45.8	-46.1	11.1	2.08e-05	0	35	0	32866566144	57	15820
2026-01-14 20:12:26.91	330.92	5.65	-45.8	-46.1	11.1	3.46e-05	0	35	0	32942063616	57	15743
2026-01-14 20:12:27.91	331.05	5.58	-45.6	-46.0	11.2	1.38e-05	0	35	0	33017561088	57	15476
2026-01-14 20:12:28.91	331.17	5.52	-45.7	-46.0	11.1	5.54e-05	0	35	0	33084669952	57	15606
2026-01-14 20:12:29.90	331.29	5.45	-45.7	-46.1	11.1	0.00e+00	0	35	0	33160167424	57	15664
2026-01-14 20:12:30.91	331.42	5.38	-45.8	-46.2	11.1	4.16e-05	0	35	0	33235664896	57	15894
2026-01-14 20:12:31.90	331.54	5.32	-45.9	-46.2	11.0	6.90e-06	0	35	0	33311162368	57	15990
2026-01-14 20:12:32.90	331.66	5.25	-45.7	-46.0	11.1	2.08e-05	0	35	0	33386659840	57	15592
2026-01-14 20:12:33.90	331.78	5.18	-46.0	-46.4	10.9	0.00e+00	0	35	0	33462157312	57	16212
2026-01-14 20:12:34.88	331.90	5.12	-46.0	-46.3	10.9	5.54e-05	0	35	0	33537654784	57	16102
2026-01-14 20:12:35.88	332.02	5.05	-46.2	-46.6	10.8	4.85e-05	0	35	0	33613152256	58	15693
2026-01-14 20:12:36.88	332.13	4.99	-54.2	-55.3	5.2	8.56e-02	3484	36	0	33680261120	74	17012
2026-01-14 20:12:37.88	332.25	4.92	-59.0	-62.2	3.7	8.56e-02	0	35	104	33688649728	83	22572
2026-01-14 20:12:38.88	332.37	4.85	-59.5	-62.7	3.7	8.56e-02	0	35	104	33688649728	84	22462
2026-01-14 20:12:39.87	332.48	4.79	-59.7	-62.9	3.7	8.56e-02	0	35	104	33688649728	85	21821
2026-01-14 20:12:40.87	332.60	4.72	-59.8	-63.1	3.7	8.56e-02	0	35	104	33688649728	85	22216
2026-01-14 20:12:41.87	332.72	4.66	-60.0	-63.2	3.7	8.56e-02	0	34	104	33688649728	85	22545
2026-01-14 20:12:42.87	332.83	4.59	-60.1	-63.3	3.7	8.56e-02	0	35	104	33688649728	85	22845
2026-01-14 20:12:43.87	332.94	4.53	-60.2	-63.4	3.7	8.56e-02	0	35	104	33688649728	86	21833
2026-01-14 20:12:44.87	333.06	4.46	-60.3	-63.5	3.7	8.56e-02	0	34	104	33688649728	86	22039
2026-01-14 20:12:45.87	333.17	4.40	-60.3	-63.6	3.7	8.56e-02	0	35	104	33688649728	86	22190
2026-01-14 20:12:46.86	333.28	4.33	-60.4	-63.6	3.7	8.56e-02	0	35	104	33688649728	86	22359
2026-01-14 20:12:47.86	333.39	4.27	-60.4	-63.6	3.7	8.56e-02	0	34	104	33688649728	86	22341
2026-01-14 20:12:48.87	333.51	4.20	-60.4	-63.7	3.7	8.56e-02	0	34	104	33688649728	86	22419
2026-01-14 20:12:49.86	333.61	4.14	-60.4	-63.7	3.7	8.56e-02	0	34	104	33688649728	86	22463
2026-01-14 20:12:50.86	333.72	4.07	-60.5	-63.7	3.7	8.56e-02	0	34	104	33688649728	86	22484
2026-01-14 20:12:51.86	333.83	4.01	-60.5	-63.7	3.7	8.56e-02	0	34	104	33688649728	86	22490
2026-01-14 20:12:52.85	333.94	3.95	-60.5	-63.7	3.7	8.56e-02	0	34	104	33688649728	86	22551
2026-01-14 20:12:53.85	334.05	3.88	-60.4	-63.7	3.7	8.56e-02	0	34	104	33688649728	86	22401
2026-01-14 20:12:54.86	334.16	3.82	-60.4	-63.7	3.7	8.56e-02	0	34	104	33688649728	86	22374
2026-01-14 20:12:55.85	334.26	3.76	-60.4	-63.7	3.7	8.56e-02	0	34	104	33688649728	86	22413
2026-01-14 20:12:56.84	334.37	3.69	-60.4	-63.6	3.7	8.56e-02	0	34	104	33688649728	86	22306
2026-01-14 20:12:57.83	334.47	3.63	-60.4	-63.6	3.7	8.56e-02	0	34	104	33688649728	86	22333
2026-01-14 20:12:58.83	334.58	3.57	-60.3	-63.6	3.7	8.56e-02	0	34	104	33688649728	86	22217
2026-01-14 20:12:59.82	334.68	3.50	-60.3	-63.5	3.7	8.56e-02	0	34	104	33688649728	86	22008
2026-01-14 20:13:00.82	334.79	3.44	-60.2	-63.5	3.7	8.56e-02	0	34	104	33688649728	86	21960
2026-01-14 20:13:01.82	334.89	3.38	-60.2	-63.5	3.7	8.56e-02	0	34	104	33688649728	86	21966
2026-01-14 20:13:02.83	334.99	3.32	-60.2	-63.5	3.7	8.56e-02	0	34	104	33688649728	86	21899
2026-01-14 20:13:03.83	335.10	3.25	-60.2	-63.4	3.7	8.56e-02	0	34	104	33688649728	86	21838
2026-01-14 20:13:04.83	335.20	3.19	-60.2	-63.4	3.7	8.56e-02	0	34	104	33688649728	86	21748
2026-01-14 20:13:05.83	335.30	3.13	-60.2	-63.4	3.7	8.56e-02	0	34	104	33688649728	86	21700
2026-01-14 20:13:06.83	335.40	3.07	-60.1	-63.4	3.7	8.56e-02	0	34	104	33688649728	86	21617
2026-01-14 20:13:07.82	335.50	3.00	-60.1	-63.3	3.7	8.56e-02	0	34	104	33688649728	86	21594
2026-01-14 20:13:08.82	335.60	2.94	-60.1	-63.3	3.7	4.48e-02	0	34	104	33688649728	86	21447
2026-01-14 20:13:09.81	335.70	2.88	-60.0	-63.3	3.7	4.48e-02	0	34	104	33688649728	86	21510
2026-01-14 20:13:10.81	335.80	2.82	-60.1	-63.3	3.6	4.48e-02	0	34	104	33688649728	86	21494
2026-01-14 20:13:11.80	335.90	2.76	-60.0	-63.3	3.7	4.48e-02	0	34	104	33688649728	86	21482
2026-01-14 20:13:12.81	335.99	2.70	-60.0	-63.3	3.7	4.48e-02	0	34	104	33688649728	86	21388
2026-01-14 20:13:13.81	336.09	2.64	-60.0	-63.3	3.7	4.48e-02	0	34	104	33688649728	86	21361
2026-01-14 20:13:14.79	336.19	2.58	-60.0	-63.3	3.7	4.48e-02	0	34	104	33688649728	86	21417
2026-01-14 20:13:15.78	336.28	2.52	-60.0	-63.2	3.6	4.48e-02	0	34	104	33688649728	86	21349
2026-01-14 20:13:16.78	336.38	2.45	-60.1	-63.3	3.7	4.48e-02	0	34	104	33688649728	86	21425
2026-01-14 20:13:17.77	336.47	2.39	-60.0	-63.2	3.7	4.48e-02	0	34	104	33688649728	86	21327
2026-01-14 20:13:18.76	336.57	2.33	-60.0	-63.2	3.7	4.48e-02	0	34	104	33688649728	86	21294
2026-01-14 20:13:19.76	336.66	2.27	-60.0	-63.2	3.7	4.48e-02	0	34	104	33688649728	86	21317
2026-01-14 20:13:20.75	336.75	2.21	-60.0	-63.2	3.7	4.48e-02	0	34	104	33688649728	86	21226
2026-01-14 20:13:21.75	336.85	2.15	-60.0	-63.2	3.7	4.48e-02	0	34	104	33688649728	86	21234
2026-01-14 20:13:22.74	336.94	2.09	-60.0	-63.2	3.7	4.48e-02	0	34	104	33688649728	86	21257
2026-01-14 20:13:23.74	337.03	2.03	-60.0	-63.2	3.7	4.48e-02	0	34	104	33688649728	86	21205

#Closed at: 2026-01-14 20:13:24
#Recorded file [33688 MB]: D:/lorett/data/31004_260114_230358.dat