passes_logs/2026/01/14/R3.2S_Murmansk/R3.2S_Murmansk__20260114_112224_AQUA_rec.log

#Pass ID: 20260114_112224_AQUA
#Satellite: AQUA
#Configuration: AQUA
#almurnet v.1.7.20251203
#Start time: 2026-01-14 11:22:26

#Version: 2.2.20231116
#Station: R3.2S_Murmansk
#Location: 33.079688 lon 68.888172 lat
#TLE: 1 27424U 02022A   26013.85306262  .00000759  00000+0  16188-3 0  9996
#TLE: 2 27424  98.4079 340.2612 0002043  79.8220 301.8652 14.61819210260728

#Time	Az	El	Level	Level2	SNR	BER	BlckErr	Temp	State	Recorded	gain1	gain2
2026-01-14 11:22:26.82	154.67	2.13	-57.8	-77.1	3.8	7.47e-01	0	26	0	0	84	33116
2026-01-14 11:22:27.81	154.68	2.19	-57.6	-76.9	3.8	7.45e-01	0	25	104	0	82	36449
2026-01-14 11:22:28.79	154.68	2.26	-57.6	-76.9	3.8	7.43e-01	0	25	104	0	82	36366
2026-01-14 11:22:29.77	154.69	2.32	-57.6	-76.9	3.8	7.46e-01	0	26	104	0	82	36273
2026-01-14 11:22:30.74	154.69	2.39	-57.6	-76.8	3.8	7.46e-01	0	26	104	0	82	36097
2026-01-14 11:22:31.73	154.70	2.46	-57.6	-76.8	3.8	7.46e-01	0	26	104	0	82	36062
2026-01-14 11:22:32.71	154.70	2.52	-57.6	-76.8	3.8	7.46e-01	0	26	104	0	82	36023
2026-01-14 11:22:33.69	154.71	2.59	-57.6	-76.8	3.8	7.47e-01	0	26	104	0	82	35774
2026-01-14 11:22:34.67	154.71	2.66	-57.6	-76.7	3.8	7.44e-01	0	26	104	0	82	35526
2026-01-14 11:22:35.65	154.72	2.72	-57.6	-76.6	3.8	7.47e-01	0	26	104	0	82	35249
2026-01-14 11:22:36.64	154.72	2.79	-57.6	-76.7	3.8	7.45e-01	0	26	104	0	82	35457
2026-01-14 11:22:37.63	154.73	2.86	-57.6	-76.5	3.8	7.47e-01	0	26	104	0	82	34559
2026-01-14 11:22:38.61	154.73	2.93	-57.6	-76.4	3.8	7.47e-01	0	26	104	0	82	34125
2026-01-14 11:22:39.62	154.74	3.00	-57.6	-76.0	3.8	7.46e-01	0	26	104	0	82	32827
2026-01-14 11:22:40.60	154.74	3.06	-57.5	-75.6	3.9	7.45e-01	0	26	104	0	82	31160
2026-01-14 11:22:41.58	154.75	3.13	-57.5	-74.8	3.9	7.47e-01	0	26	104	0	82	28530
2026-01-14 11:22:42.57	154.75	3.20	-57.5	-73.9	4.0	7.41e-01	0	26	104	0	82	25712
2026-01-14 11:22:43.55	154.76	3.27	-57.5	-73.1	4.3	7.42e-01	0	26	104	0	82	23514
2026-01-14 11:22:44.53	154.76	3.34	-57.4	-71.3	5.0	7.10e-01	0	26	0	0	82	18962
2026-01-14 11:22:45.51	154.77	3.41	-57.3	-69.4	6.1	6.79e-01	90	26	0	1048576	82	15341
2026-01-14 11:22:46.49	154.77	3.48	-57.3	-68.9	6.4	6.69e-01	90	26	0	2621440	82	14378
2026-01-14 11:22:47.47	154.78	3.55	-57.1	-66.8	8.0	6.39e-01	0	26	0	4194304	82	11313
2026-01-14 11:22:48.45	154.78	3.62	-56.9	-65.9	8.9	6.31e-01	0	26	0	6291456	82	10239
2026-01-14 11:22:49.44	154.79	3.69	-56.7	-64.7	9.8	6.21e-01	0	26	0	7864320	82	8942
2026-01-14 11:22:50.42	154.80	3.76	-56.6	-63.9	10.5	6.14e-01	0	26	0	9961472	82	8169
2026-01-14 11:22:51.41	154.80	3.83	-56.4	-63.2	11.1	6.12e-01	0	26	0	11534336	82	7538
2026-01-14 11:22:52.39	154.81	3.90	-56.1	-62.2	11.8	6.11e-01	0	26	0	13631488	81	7068
2026-01-14 11:22:53.37	154.81	3.97	-55.6	-60.9	12.7	6.07e-01	0	26	0	15204352	80	6424
2026-01-14 11:22:54.34	154.82	4.04	-55.4	-60.3	13.0	6.07e-01	0	26	0	17301504	80	6053
2026-01-14 11:22:55.32	154.82	4.11	-55.5	-60.5	12.9	6.08e-01	0	26	0	18874368	80	6155
2026-01-14 11:22:56.30	154.83	4.18	-54.8	-58.8	13.7	6.06e-01	0	26	0	20971520	78	5707
2026-01-14 11:22:57.28	154.83	4.25	-54.3	-57.9	14.1	6.07e-01	0	26	0	22544384	77	5440
2026-01-14 11:22:58.27	154.84	4.32	-54.0	-57.4	14.3	6.07e-01	0	26	0	24641536	77	5111
2026-01-14 11:22:59.24	154.84	4.39	-53.2	-56.2	14.6	6.08e-01	0	26	0	26214400	75	5026
2026-01-14 11:23:00.22	154.85	4.47	-53.3	-56.3	14.5	6.07e-01	0	26	0	28311552	75	5092
2026-01-14 11:23:01.21	154.85	4.54	-53.1	-56.1	14.6	6.07e-01	0	26	0	29884416	75	4953
2026-01-14 11:23:02.18	154.86	4.61	-53.0	-55.9	14.7	6.07e-01	0	26	0	31981568	75	4850
2026-01-14 11:23:03.16	154.86	4.68	-53.0	-55.9	14.7	6.07e-01	0	26	0	33554432	75	4851
2026-01-14 11:23:04.14	154.87	4.76	-52.9	-55.7	14.7	6.05e-01	0	26	0	35651584	74	5011
2026-01-14 11:23:05.12	154.88	4.83	-53.1	-56.1	14.5	6.06e-01	0	26	0	37224448	74	5239
2026-01-14 11:23:06.10	154.88	4.90	-53.6	-56.8	14.2	6.06e-01	0	26	0	39321600	74	5686
2026-01-14 11:23:07.08	154.89	4.98	-53.8	-57.1	14.2	6.06e-01	0	26	0	40894464	75	5566
2026-01-14 11:23:08.06	154.89	5.05	-54.6	-58.6	13.6	6.06e-01	0	26	0	42991616	76	6224
2026-01-14 11:23:09.03	154.90	5.12	-55.1	-59.3	13.4	6.06e-01	0	26	0	44564480	77	6349
2026-01-14 11:23:10.01	154.90	5.20	-57.3	-69.0	6.6	6.65e-01	92	26	0	46661632	82	14552
2026-01-14 11:23:10.99	154.91	5.27	-52.7	-55.5	14.8	6.07e-01	0	26	0	48234496	74	4876
2026-01-14 11:23:11.97	154.91	5.34	-52.4	-55.0	14.7	6.08e-01	0	27	0	50331648	72	5171
2026-01-14 11:23:12.94	154.92	5.42	-56.6	-64.6	10.2	6.17e-01	0	26	0	51904512	80	9858
2026-01-14 11:23:13.92	154.92	5.49	-51.4	-53.5	15.2	6.07e-01	0	26	0	54001664	72	4390
2026-01-14 11:23:14.91	154.93	5.57	-51.4	-53.6	15.0	6.06e-01	0	26	0	55574528	71	4680
2026-01-14 11:23:15.89	154.93	5.65	-51.3	-53.5	15.1	6.06e-01	0	27	0	57671680	71	4631
2026-01-14 11:23:16.87	154.94	5.72	-51.4	-53.6	15.1	6.07e-01	0	26	0	59244544	71	4656
2026-01-14 11:23:17.85	154.95	5.80	-51.1	-53.2	15.2	6.07e-01	0	26	0	61341696	71	4466
2026-01-14 11:23:18.83	154.95	5.87	-51.4	-53.5	15.1	6.06e-01	0	27	0	62914560	71	4645
2026-01-14 11:23:19.81	154.96	5.95	-51.3	-53.4	15.1	6.08e-01	0	26	0	65011712	71	4575
2026-01-14 11:23:20.79	154.96	6.03	-51.3	-53.5	15.1	6.05e-01	0	26	0	66584576	71	4623
2026-01-14 11:23:21.77	154.97	6.10	-51.1	-53.1	15.3	6.06e-01	0	26	0	68681728	71	4438
2026-01-14 11:23:22.75	154.97	6.18	-51.4	-53.5	15.1	6.06e-01	0	26	0	70254592	71	4634
2026-01-14 11:23:23.72	154.98	6.26	-51.2	-53.3	15.2	6.06e-01	0	27	0	72351744	71	4541
2026-01-14 11:23:24.71	154.99	6.34	-51.2	-53.3	15.2	6.06e-01	0	27	0	73924608	71	4545
2026-01-14 11:23:25.69	154.99	6.42	-51.0	-53.1	15.3	6.06e-01	0	27	0	76021760	71	4397
2026-01-14 11:23:26.67	155.00	6.49	-51.2	-53.3	15.2	6.06e-01	0	27	0	77594624	71	4520
2026-01-14 11:23:27.64	155.00	6.57	-51.1	-53.2	15.2	6.07e-01	0	26	0	79691776	71	4480
2026-01-14 11:23:28.62	155.01	6.65	-50.9	-52.9	15.3	6.06e-01	0	26	0	81264640	71	4302
2026-01-14 11:23:29.60	155.01	6.73	-51.3	-53.4	15.0	6.07e-01	0	27	0	83361792	70	4842
2026-01-14 11:23:30.57	155.02	6.81	-50.9	-52.9	15.2	6.07e-01	0	27	0	84934656	70	4564
2026-01-14 11:23:31.55	155.02	6.89	-51.2	-53.3	15.0	6.07e-01	0	27	0	87031808	70	4800
2026-01-14 11:23:32.53	155.03	6.97	-51.0	-53.1	15.1	6.05e-01	0	27	0	88604672	70	4658
2026-01-14 11:23:33.51	155.04	7.05	-51.0	-53.0	15.1	6.06e-01	0	26	0	90701824	70	4646
2026-01-14 11:23:34.49	155.04	7.13	-50.9	-52.9	15.2	6.07e-01	0	27	0	92274688	70	4591
2026-01-14 11:23:35.47	155.05	7.21	-51.0	-53.0	15.2	6.07e-01	0	27	0	94371840	70	4624
2026-01-14 11:23:36.45	155.05	7.29	-51.0	-53.1	15.1	6.06e-01	0	27	0	95944704	70	4668
2026-01-14 11:23:37.43	155.06	7.37	-50.9	-52.8	15.2	6.06e-01	0	27	0	98041856	70	4536
2026-01-14 11:23:38.41	155.07	7.45	-51.1	-53.1	15.1	6.05e-01	0	27	0	99614720	70	4688
2026-01-14 11:23:39.38	155.07	7.53	-50.9	-52.9	15.2	6.06e-01	0	27	0	101711872	70	4590
2026-01-14 11:23:40.36	155.08	7.62	-50.9	-52.8	15.2	6.08e-01	0	27	0	103284736	70	4529
2026-01-14 11:23:41.33	155.08	7.70	-51.0	-53.0	15.2	6.07e-01	0	27	0	105381888	70	4614
2026-01-14 11:23:42.31	155.09	7.78	-51.0	-53.0	15.2	6.07e-01	0	27	0	106954752	70	4651
2026-01-14 11:23:43.27	155.09	7.86	-51.0	-52.9	15.2	6.07e-01	0	27	0	109051904	70	4598
2026-01-14 11:23:44.25	155.10	7.95	-50.9	-52.8	15.2	6.07e-01	0	27	0	110624768	70	4545
2026-01-14 11:23:45.22	155.11	8.03	-50.9	-52.9	15.2	6.06e-01	0	27	0	112721920	70	4580
2026-01-14 11:23:46.20	155.11	8.11	-50.9	-52.8	15.2	6.07e-01	0	27	0	114294784	70	4542
2026-01-14 11:23:47.18	155.12	8.20	-50.9	-52.9	15.2	6.08e-01	0	27	0	116391936	70	4565
2026-01-14 11:23:48.16	155.12	8.28	-51.0	-53.0	15.2	6.04e-01	0	27	0	117964800	70	4599
2026-01-14 11:23:49.14	155.13	8.37	-50.7	-52.7	15.3	6.08e-01	0	27	0	120061952	70	4454
2026-01-14 11:23:50.11	155.14	8.45	-50.8	-52.8	15.2	6.08e-01	0	27	0	121634816	70	4518
2026-01-14 11:23:51.09	155.14	8.54	-50.8	-52.8	15.2	6.05e-01	0	27	0	123731968	70	4495
2026-01-14 11:23:52.06	155.15	8.62	-50.9	-52.8	15.2	6.05e-01	0	27	0	125304832	70	4541
2026-01-14 11:23:53.05	155.15	8.71	-50.7	-52.7	15.3	6.07e-01	0	27	0	127401984	70	4453
2026-01-14 11:23:54.03	155.16	8.80	-50.8	-52.7	15.2	6.06e-01	0	27	0	128974848	70	4492
2026-01-14 11:23:55.00	155.17	8.88	-50.8	-52.8	15.2	6.06e-01	0	27	0	131072000	70	4510
2026-01-14 11:23:55.99	155.17	8.97	-50.8	-52.8	15.3	6.06e-01	0	27	0	132644864	70	4494
2026-01-14 11:23:56.97	155.18	9.06	-50.7	-52.6	15.3	6.06e-01	0	27	0	134742016	70	4404
2026-01-14 11:23:57.94	155.18	9.15	-50.7	-52.7	15.3	6.08e-01	0	27	0	136314880	70	4443
2026-01-14 11:23:58.93	155.19	9.24	-50.7	-52.6	15.3	6.07e-01	0	27	0	138412032	70	4398
2026-01-14 11:23:59.91	155.20	9.32	-50.9	-52.8	15.2	6.05e-01	0	27	0	139984896	70	4530
2026-01-14 11:24:00.89	155.20	9.41	-50.6	-52.5	15.3	6.08e-01	0	27	0	142082048	70	4357
2026-01-14 11:24:01.87	155.21	9.50	-50.7	-52.6	15.3	6.06e-01	0	27	0	143654912	70	4407
2026-01-14 11:24:02.84	155.22	9.59	-50.7	-52.5	15.3	6.07e-01	0	27	0	145752064	70	4383
2026-01-14 11:24:03.82	155.22	9.68	-50.7	-52.6	15.3	6.08e-01	0	27	0	147324928	70	4410
2026-01-14 11:24:04.79	155.23	9.77	-50.8	-52.6	15.3	6.07e-01	0	27	0	149422080	70	4441
2026-01-14 11:24:05.77	155.23	9.86	-50.7	-52.6	15.3	6.08e-01	0	27	0	150994944	70	4421
2026-01-14 11:24:06.74	155.24	9.95	-50.8	-52.7	15.3	6.07e-01	0	27	0	153092096	70	4466
2026-01-14 11:24:07.72	155.25	10.04	-50.7	-52.6	15.3	6.05e-01	0	27	0	154664960	70	4425
2026-01-14 11:24:08.70	155.25	10.14	-50.5	-52.3	15.4	6.08e-01	0	27	0	156762112	70	4283
2026-01-14 11:24:09.68	155.26	10.23	-50.3	-52.2	15.3	6.07e-01	0	27	0	158334976	69	4447
2026-01-14 11:24:10.66	155.27	10.32	-50.5	-52.3	15.3	6.05e-01	0	27	0	160432128	69	4537
2026-01-14 11:24:11.64	155.27	10.41	-50.3	-52.1	15.3	6.07e-01	0	27	0	162004992	69	4403
2026-01-14 11:24:12.62	155.28	10.51	-50.3	-52.1	15.3	6.06e-01	0	27	0	164102144	69	4413
2026-01-14 11:24:13.59	155.29	10.60	-50.4	-52.2	15.3	6.06e-01	0	27	0	165675008	69	4465
2026-01-14 11:24:14.57	155.29	10.70	-50.3	-52.1	15.3	6.07e-01	0	27	0	167772160	69	4422
2026-01-14 11:24:15.55	155.30	10.79	-50.2	-52.0	15.3	6.05e-01	0	27	0	169345024	69	4356
2026-01-14 11:24:16.54	155.31	10.89	-50.2	-51.9	15.4	6.07e-01	0	27	0	171442176	69	4335
2026-01-14 11:24:17.51	155.31	10.98	-50.1	-51.9	15.4	6.07e-01	0	27	0	173015040	69	4320
2026-01-14 11:24:18.49	155.32	11.08	-50.2	-52.0	15.4	6.08e-01	0	27	0	175112192	69	4341
2026-01-14 11:24:19.46	155.32	11.17	-50.1	-51.9	15.4	6.06e-01	0	27	0	176685056	69	4295
2026-01-14 11:24:20.44	155.33	11.27	-50.1	-51.8	15.4	6.06e-01	0	27	0	178782208	69	4291
2026-01-14 11:24:21.42	155.34	11.37	-50.0	-51.8	15.4	6.08e-01	0	27	0	180355072	69	4250
2026-01-14 11:24:22.41	155.34	11.47	-50.1	-51.9	15.4	6.05e-01	0	27	0	182452224	69	4317
2026-01-14 11:24:23.38	155.35	11.56	-50.1	-51.8	15.4	6.05e-01	0	27	0	184025088	69	4284
2026-01-14 11:24:24.36	155.36	11.66	-50.1	-51.9	15.4	6.07e-01	0	27	0	186122240	69	4297
2026-01-14 11:24:25.33	155.36	11.76	-50.0	-51.7	15.4	6.07e-01	0	27	0	187695104	69	4227
2026-01-14 11:24:26.31	155.37	11.86	-50.0	-51.7	15.4	6.03e-01	0	27	0	189792256	69	4224
2026-01-14 11:24:27.29	155.38	11.96	-50.0	-51.7	15.4	6.05e-01	0	27	0	191365120	69	4226
2026-01-14 11:24:28.27	155.39	12.06	-50.0	-51.7	15.4	6.05e-01	0	27	0	193462272	69	4213
2026-01-14 11:24:29.25	155.39	12.16	-50.0	-51.8	15.4	6.09e-01	0	27	0	195035136	69	4247
2026-01-14 11:24:30.22	155.40	12.26	-50.0	-51.8	15.4	6.06e-01	0	27	0	197132288	69	4243
2026-01-14 11:24:31.20	155.41	12.36	-50.0	-51.7	15.4	6.07e-01	0	27	0	198705152	69	4224
2026-01-14 11:24:32.17	155.41	12.46	-50.1	-51.8	15.4	6.05e-01	0	27	0	200802304	69	4282
2026-01-14 11:24:33.15	155.42	12.57	-50.1	-51.8	15.4	6.08e-01	0	27	0	202375168	69	4284
2026-01-14 11:24:34.13	155.43	12.67	-50.1	-51.8	15.4	6.05e-01	0	27	0	204472320	69	4272
2026-01-14 11:24:35.11	155.43	12.77	-50.0	-51.8	15.4	6.07e-01	0	27	0	206045184	69	4243
2026-01-14 11:24:36.08	155.44	12.88	-50.1	-51.8	15.4	6.06e-01	0	27	0	208142336	69	4281
2026-01-14 11:24:37.06	155.45	12.98	-50.1	-51.8	15.4	6.07e-01	0	27	0	209715200	69	4289
2026-01-14 11:24:38.03	155.45	13.08	-50.0	-51.7	15.4	6.07e-01	0	27	0	211812352	69	4233
2026-01-14 11:24:39.01	155.46	13.19	-50.0	-51.7	15.4	6.05e-01	0	27	0	213385216	69	4216
2026-01-14 11:24:39.98	155.47	13.30	-49.9	-51.6	15.5	6.09e-01	0	27	0	215482368	69	4190
2026-01-14 11:24:40.95	155.48	13.40	-49.9	-51.7	15.5	6.08e-01	0	27	0	217055232	69	4199
2026-01-14 11:24:41.92	155.48	13.51	-50.0	-51.7	15.5	6.05e-01	0	27	0	219152384	69	4203
2026-01-14 11:24:42.89	155.49	13.61	-49.9	-51.6	15.5	6.08e-01	0	27	0	220725248	69	4172
2026-01-14 11:24:43.86	155.50	13.72	-49.9	-51.6	15.5	6.07e-01	0	27	0	222298112	69	4175
2026-01-14 11:24:44.82	155.50	13.83	-49.8	-51.5	15.4	6.05e-01	0	27	0	224395264	68	4378
2026-01-14 11:24:45.79	155.51	13.94	-49.8	-51.5	15.4	6.06e-01	0	27	0	225968128	68	4343
2026-01-14 11:24:46.76	155.52	14.04	-49.8	-51.5	15.4	6.06e-01	0	27	0	228065280	68	4380
2026-01-14 11:24:47.73	155.53	14.15	-49.8	-51.5	15.4	6.06e-01	0	27	0	229638144	68	4387
2026-01-14 11:24:48.70	155.53	14.26	-49.7	-51.4	15.4	6.09e-01	0	27	0	231735296	68	4309
2026-01-14 11:24:49.66	155.54	14.37	-49.8	-51.4	15.4	6.08e-01	0	27	0	233308160	68	4338
2026-01-14 11:24:50.63	155.55	14.48	-49.7	-51.4	15.4	6.06e-01	0	27	0	235405312	68	4304
2026-01-14 11:24:51.60	155.55	14.60	-49.6	-51.2	15.4	6.06e-01	0	27	0	236978176	68	4236
2026-01-14 11:24:52.57	155.56	14.71	-49.5	-51.2	15.5	6.06e-01	0	27	0	239075328	68	4200
2026-01-14 11:24:53.53	155.57	14.82	-49.6	-51.3	15.4	6.06e-01	0	27	0	240648192	68	4271
2026-01-14 11:24:54.50	155.58	14.93	-49.5	-51.2	15.5	6.04e-01	0	27	0	242745344	68	4212
2026-01-14 11:24:55.47	155.58	15.05	-49.5	-51.2	15.5	6.07e-01	0	27	0	244318208	68	4198
2026-01-14 11:24:56.44	155.59	15.16	-49.5	-51.1	15.5	6.07e-01	0	27	0	246415360	68	4186
2026-01-14 11:24:57.40	155.60	15.27	-49.5	-51.1	15.5	6.07e-01	0	27	0	247988224	68	4185
2026-01-14 11:24:58.37	155.61	15.39	-49.5	-51.1	15.5	6.06e-01	0	27	0	249561088	68	4193
2026-01-14 11:24:59.34	155.62	15.51	-49.5	-51.1	15.5	6.06e-01	0	27	0	251658240	68	4187
2026-01-14 11:25:00.30	155.62	15.62	-49.5	-51.2	15.5	6.05e-01	0	27	0	253231104	68	4216
2026-01-14 11:25:01.27	155.63	15.74	-49.6	-51.3	15.4	6.08e-01	0	27	0	255328256	68	4252
2026-01-14 11:25:02.24	155.64	15.86	-49.6	-51.2	15.4	6.05e-01	0	27	0	256901120	68	4226
2026-01-14 11:25:03.21	155.65	15.98	-49.7	-51.3	15.4	6.08e-01	0	27	0	258998272	68	4282
2026-01-14 11:25:04.17	155.65	16.09	-49.6	-51.3	15.4	6.05e-01	0	27	0	260571136	68	4253
2026-01-14 11:25:05.14	155.66	16.21	-49.7	-51.4	15.4	6.04e-01	0	27	0	262668288	68	4325
2026-01-14 11:25:06.11	155.67	16.33	-49.7	-51.4	15.4	6.09e-01	0	27	0	264241152	68	4315
2026-01-14 11:25:07.07	155.68	16.45	-49.7	-51.4	15.4	6.07e-01	0	27	0	265814016	68	4299
2026-01-14 11:25:08.04	155.69	16.58	-49.6	-51.3	15.4	6.06e-01	0	27	0	267911168	68	4251
2026-01-14 11:25:09.01	155.69	16.70	-49.7	-51.4	15.4	6.07e-01	0	27	0	269484032	68	4313
2026-01-14 11:25:09.98	155.70	16.82	-49.8	-51.5	15.4	6.05e-01	0	27	0	271581184	68	4348
2026-01-14 11:25:10.95	155.71	16.95	-49.6	-51.3	15.4	6.06e-01	0	27	0	273154048	68	4250
2026-01-14 11:25:11.91	155.72	17.07	-49.6	-51.2	15.5	6.08e-01	0	27	0	275251200	68	4217
2026-01-14 11:25:12.88	155.73	17.20	-49.6	-51.2	15.4	6.05e-01	0	27	0	276824064	68	4241
2026-01-14 11:25:13.85	155.73	17.32	-49.5	-51.1	15.5	6.05e-01	0	27	0	278921216	68	4160
2026-01-14 11:25:14.81	155.74	17.45	-49.5	-51.2	15.5	6.05e-01	0	27	0	280494080	68	4194
2026-01-14 11:25:15.78	155.75	17.57	-49.5	-51.1	15.5	6.06e-01	0	27	0	282591232	68	4176
2026-01-14 11:25:16.75	155.76	17.70	-49.5	-51.1	15.5	6.08e-01	0	27	0	284164096	68	4168
2026-01-14 11:25:17.72	155.77	17.83	-49.4	-51.1	15.5	6.07e-01	0	27	0	286261248	68	4153
2026-01-14 11:25:18.69	155.78	17.96	-49.4	-51.0	15.5	6.05e-01	0	27	0	287834112	68	4123
2026-01-14 11:25:19.66	155.78	18.09	-49.4	-51.1	15.5	6.08e-01	0	27	0	289931264	68	4146
2026-01-14 11:25:20.62	155.79	18.22	-49.5	-51.1	15.5	6.06e-01	0	27	0	291504128	68	4190
2026-01-14 11:25:21.59	155.80	18.35	-49.6	-51.3	15.4	6.06e-01	0	27	0	293076992	68	4257
2026-01-14 11:25:22.55	155.81	18.49	-49.7	-51.3	15.4	6.08e-01	0	27	0	295174144	68	4265
2026-01-14 11:25:23.52	155.82	18.62	-49.7	-51.4	15.4	6.05e-01	0	27	0	296747008	68	4303
2026-01-14 11:25:24.48	155.83	18.75	-49.8	-51.5	15.4	6.07e-01	0	27	0	298844160	68	4364
2026-01-14 11:25:25.46	155.84	18.89	-49.9	-51.6	15.4	6.07e-01	0	27	0	300417024	68	4423
2026-01-14 11:25:26.43	155.85	19.03	-49.9	-51.6	15.3	6.08e-01	0	27	0	302514176	68	4417
2026-01-14 11:25:27.39	155.85	19.16	-50.0	-51.7	15.3	6.08e-01	0	27	0	304087040	68	4444
2026-01-14 11:25:28.36	155.86	19.30	-49.9	-51.6	15.4	6.06e-01	0	27	0	306184192	68	4418
2026-01-14 11:25:29.33	155.87	19.44	-49.9	-51.6	15.3	6.07e-01	0	27	0	307757056	68	4418
2026-01-14 11:25:30.30	155.88	19.58	-49.9	-51.6	15.4	6.07e-01	0	27	0	309854208	68	4401
2026-01-14 11:25:31.26	155.89	19.72	-49.8	-51.5	15.4	6.06e-01	0	27	0	311427072	68	4365
2026-01-14 11:25:32.23	155.90	19.86	-49.9	-51.5	15.4	6.07e-01	0	27	0	312999936	68	4389
2026-01-14 11:25:33.20	155.91	20.00	-49.8	-51.4	15.4	6.05e-01	0	27	0	315097088	68	4340
2026-01-14 11:25:34.17	155.92	20.14	-49.8	-51.4	15.4	6.07e-01	0	27	0	316669952	68	4324
2026-01-14 11:25:35.13	155.93	20.28	-49.7	-51.4	15.4	6.07e-01	0	27	0	318767104	68	4314
2026-01-14 11:25:36.10	155.94	20.43	-49.7	-51.3	15.4	6.06e-01	0	27	0	320339968	68	4289
2026-01-14 11:25:37.07	155.95	20.57	-49.7	-51.4	15.4	6.06e-01	0	27	0	322437120	68	4319
2026-01-14 11:25:38.03	155.95	20.72	-49.8	-51.4	15.4	6.07e-01	0	27	0	324009984	68	4330
2026-01-14 11:25:39.00	155.96	20.87	-49.7	-51.4	15.4	6.06e-01	0	27	0	326107136	68	4306
2026-01-14 11:25:39.97	155.97	21.02	-49.8	-51.5	15.4	6.07e-01	0	27	0	327680000	68	4364
2026-01-14 11:25:40.94	155.98	21.16	-49.9	-51.6	15.4	6.05e-01	0	27	0	329777152	68	4394
2026-01-14 11:25:41.90	155.99	21.31	-49.8	-51.5	15.4	6.08e-01	0	27	0	331350016	68	4359
2026-01-14 11:25:42.87	156.00	21.47	-49.8	-51.4	15.4	6.06e-01	0	27	0	332922880	68	4330
2026-01-14 11:25:43.84	156.01	21.62	-49.9	-51.6	15.3	6.06e-01	0	27	0	335020032	68	4406
2026-01-14 11:25:44.81	156.02	21.77	-50.0	-51.6	15.3	6.05e-01	0	27	0	336592896	68	4437
2026-01-14 11:25:45.78	156.03	21.93	-50.0	-51.7	15.3	6.06e-01	0	27	0	338690048	68	4460
2026-01-14 11:25:46.75	156.04	22.08	-50.1	-51.8	15.3	6.08e-01	0	27	0	340262912	68	4529
2026-01-14 11:25:47.72	156.05	22.24	-50.2	-51.9	15.3	6.05e-01	0	27	0	342360064	68	4560
2026-01-14 11:25:48.68	156.06	22.39	-50.1	-51.8	15.3	6.06e-01	0	27	0	343932928	68	4535
2026-01-14 11:25:49.65	156.07	22.55	-50.0	-51.7	15.3	6.07e-01	0	27	0	346030080	68	4473
2026-01-14 11:25:50.62	156.08	22.71	-50.0	-51.7	15.3	6.06e-01	0	27	0	347602944	68	4458
2026-01-14 11:25:51.59	156.09	22.87	-50.0	-51.7	15.3	6.06e-01	0	27	0	349700096	68	4458
2026-01-14 11:25:52.56	156.10	23.03	-50.1	-51.8	15.3	6.06e-01	0	27	0	351272960	68	4510
2026-01-14 11:25:53.53	156.12	23.20	-50.1	-51.8	15.3	6.07e-01	0	27	0	353370112	68	4512
2026-01-14 11:25:54.50	156.13	23.36	-50.2	-51.9	15.3	6.05e-01	0	27	0	354942976	68	4577
2026-01-14 11:25:55.46	156.14	23.52	-50.2	-51.9	15.3	6.06e-01	0	27	0	357040128	68	4546
2026-01-14 11:25:56.43	156.15	23.69	-50.2	-51.9	15.3	6.07e-01	0	27	0	358612992	68	4568
2026-01-14 11:25:57.40	156.16	23.86	-50.2	-51.9	15.3	6.05e-01	0	27	0	360710144	68	4592
2026-01-14 11:25:58.37	156.17	24.03	-50.1	-51.8	15.3	6.06e-01	0	27	0	362283008	68	4496
2026-01-14 11:25:59.34	156.18	24.20	-50.1	-51.7	15.3	6.08e-01	0	27	0	364380160	68	4488
2026-01-14 11:26:00.30	156.19	24.37	-50.1	-51.8	15.3	6.06e-01	0	27	0	365953024	68	4499
2026-01-14 11:26:01.27	156.20	24.54	-49.9	-51.5	15.4	6.06e-01	0	27	0	367525888	68	4390
2026-01-14 11:26:02.24	156.21	24.71	-49.9	-51.6	15.3	6.06e-01	0	27	0	369623040	68	4400
2026-01-14 11:26:03.21	156.22	24.89	-49.9	-51.5	15.4	6.08e-01	0	27	0	371195904	68	4376
2026-01-14 11:26:04.18	156.24	25.06	-49.9	-51.6	15.3	6.08e-01	0	27	0	373293056	68	4427
2026-01-14 11:26:05.14	156.25	25.24	-50.0	-51.7	15.3	6.07e-01	0	27	0	374865920	68	4459
2026-01-14 11:26:06.11	156.26	25.42	-49.9	-51.6	15.4	6.07e-01	0	27	0	376963072	68	4402
2026-01-14 11:26:07.08	156.27	25.60	-50.0	-51.6	15.3	6.06e-01	0	27	0	378535936	68	4432
2026-01-14 11:26:08.04	156.28	25.78	-49.8	-51.5	15.4	6.07e-01	0	27	0	380633088	68	4358
2026-01-14 11:26:09.01	156.29	25.96	-49.9	-51.5	15.3	6.04e-01	0	27	0	382205952	68	4376
2026-01-14 11:26:09.97	156.31	26.14	-49.9	-51.5	15.4	6.06e-01	0	27	0	383778816	68	4386
2026-01-14 11:26:10.94	156.32	26.33	-49.9	-51.5	15.4	6.07e-01	0	27	0	385875968	68	4371
2026-01-14 11:26:11.90	156.33	26.51	-49.8	-51.4	15.4	6.05e-01	0	27	0	387448832	68	4312
2026-01-14 11:26:12.87	156.34	26.70	-49.8	-51.4	15.4	6.05e-01	0	27	0	389545984	68	4338
2026-01-14 11:26:13.84	156.36	26.89	-49.6	-51.2	15.4	6.06e-01	0	27	0	391118848	68	4240
2026-01-14 11:26:14.81	156.37	27.08	-49.6	-51.2	15.4	6.07e-01	0	27	0	393216000	68	4212
2026-01-14 11:26:15.78	156.38	27.27	-49.5	-51.1	15.5	6.06e-01	0	27	0	394788864	68	4176
2026-01-14 11:26:16.75	156.39	27.46	-49.4	-51.0	15.5	6.07e-01	0	27	0	396886016	68	4132
2026-01-14 11:26:17.72	156.41	27.66	-49.5	-51.1	15.5	6.06e-01	0	27	0	398458880	68	4158
2026-01-14 11:26:18.68	156.42	27.85	-49.6	-51.2	15.4	6.08e-01	0	27	0	400556032	68	4199
2026-01-14 11:26:19.65	156.43	28.05	-49.7	-51.3	15.4	6.06e-01	0	27	0	402128896	68	4253
2026-01-14 11:26:20.62	156.45	28.25	-49.5	-51.1	15.5	6.08e-01	0	27	0	403701760	68	4179
2026-01-14 11:26:21.59	156.46	28.45	-49.5	-51.0	15.5	6.07e-01	0	27	0	405798912	68	4142
2026-01-14 11:26:22.56	156.47	28.66	-49.4	-51.0	15.5	6.07e-01	0	27	0	407371776	68	4105
2026-01-14 11:26:23.52	156.49	28.86	-49.5	-51.1	15.5	6.06e-01	0	27	0	409468928	68	4150
2026-01-14 11:26:24.49	156.50	29.07	-49.5	-51.0	15.5	6.06e-01	0	27	0	411041792	68	4140
2026-01-14 11:26:25.46	156.51	29.27	-49.3	-50.8	15.4	6.05e-01	0	27	0	413138944	67	4285
2026-01-14 11:26:26.43	156.53	29.48	-49.2	-50.8	15.4	6.07e-01	0	27	0	414711808	67	4258
2026-01-14 11:26:27.40	156.54	29.69	-49.4	-50.9	15.4	6.06e-01	0	27	0	416808960	67	4340
2026-01-14 11:26:28.36	156.56	29.90	-49.5	-51.1	15.3	6.07e-01	0	27	0	418381824	67	4440
2026-01-14 11:26:29.33	156.57	30.12	-49.6	-51.2	15.3	6.06e-01	0	27	0	420478976	67	4477
2026-01-14 11:26:30.30	156.59	30.34	-49.5	-51.2	15.3	6.07e-01	0	27	0	422051840	67	4447
2026-01-14 11:26:31.26	156.60	30.55	-49.4	-51.0	15.4	6.08e-01	0	27	0	424148992	67	4382
2026-01-14 11:26:32.23	156.62	30.77	-49.3	-50.9	15.4	6.05e-01	0	27	0	425721856	67	4320
2026-01-14 11:26:33.20	156.63	30.99	-49.4	-51.0	15.4	6.04e-01	0	27	0	427819008	67	4360
2026-01-14 11:26:34.17	156.65	31.22	-49.3	-50.8	15.4	6.07e-01	0	27	0	429391872	67	4285
2026-01-14 11:26:35.14	156.66	31.44	-49.2	-50.8	15.4	6.08e-01	0	27	0	431489024	67	4262
2026-01-14 11:26:36.11	156.68	31.67	-49.3	-50.9	15.4	6.06e-01	0	27	0	433061888	67	4302
2026-01-14 11:26:37.08	156.69	31.90	-49.3	-50.9	15.4	6.06e-01	0	27	0	434634752	67	4330
2026-01-14 11:26:38.05	156.71	32.13	-49.4	-51.0	15.4	6.07e-01	0	27	0	436731904	67	4354
2026-01-14 11:26:39.02	156.73	32.36	-49.6	-51.2	15.3	6.07e-01	0	27	0	438304768	67	4456
2026-01-14 11:26:39.99	156.74	32.59	-49.5	-51.1	15.4	6.06e-01	0	27	0	440401920	67	4410
2026-01-14 11:26:40.96	156.76	32.83	-49.7	-51.3	15.3	6.07e-01	0	27	0	441974784	67	4520
2026-01-14 11:26:41.93	156.78	33.07	-49.6	-51.2	15.3	6.06e-01	0	27	0	444071936	67	4473
2026-01-14 11:26:42.90	156.79	33.31	-49.7	-51.3	15.3	6.09e-01	0	27	0	445644800	67	4529
2026-01-14 11:26:43.87	156.81	33.55	-49.7	-51.4	15.3	6.06e-01	0	27	0	447741952	67	4566
2026-01-14 11:26:44.84	156.83	33.80	-49.9	-51.6	15.2	6.05e-01	0	27	0	449314816	67	4670
2026-01-14 11:26:45.81	156.84	34.04	-50.1	-51.8	15.2	6.08e-01	0	27	0	451411968	67	4763
2026-01-14 11:26:46.78	156.86	34.29	-50.0	-51.7	15.2	6.06e-01	0	27	0	452984832	67	4714
2026-01-14 11:26:47.75	156.88	34.54	-49.9	-51.6	15.2	6.06e-01	0	27	0	455081984	67	4684
2026-01-14 11:26:48.72	156.90	34.80	-50.0	-51.7	15.2	6.06e-01	0	27	0	456654848	67	4730
2026-01-14 11:26:49.69	156.92	35.05	-50.3	-52.0	15.2	6.07e-01	0	27	0	458227712	68	4600
2026-01-14 11:26:50.65	156.94	35.31	-50.4	-52.1	15.2	6.05e-01	0	27	0	460324864	68	4686
2026-01-14 11:26:51.62	156.95	35.57	-50.5	-52.2	15.2	6.08e-01	0	27	0	461897728	68	4748
2026-01-14 11:26:52.59	156.97	35.83	-50.5	-52.2	15.2	6.07e-01	0	27	0	463994880	68	4722
2026-01-14 11:26:53.55	156.99	36.09	-50.7	-52.5	15.2	6.08e-01	0	27	0	465567744	69	4615
2026-01-14 11:26:54.52	157.01	36.36	-50.9	-52.7	15.2	6.07e-01	0	27	0	467664896	69	4721
2026-01-14 11:26:55.49	157.03	36.63	-51.2	-53.1	15.2	6.08e-01	0	27	0	469237760	70	4677
2026-01-14 11:26:56.45	157.05	36.90	-51.4	-53.3	15.1	6.05e-01	0	27	0	471334912	70	4780
2026-01-14 11:26:57.42	157.07	37.17	-51.3	-53.2	15.1	6.06e-01	0	27	0	472907776	70	4738
2026-01-14 11:26:58.39	157.09	37.45	-51.2	-53.0	15.2	6.06e-01	0	27	0	475004928	70	4639
2026-01-14 11:26:59.36	157.12	37.73	-51.3	-53.2	15.1	6.06e-01	0	27	0	476577792	70	4713
2026-01-14 11:27:00.33	157.14	38.01	-51.6	-53.5	15.1	6.07e-01	0	27	0	478150656	70	4917
2026-01-14 11:27:01.30	157.16	38.29	-51.8	-53.8	15.1	6.07e-01	0	27	0	480247808	71	4801
2026-01-14 11:27:02.26	157.18	38.57	-51.7	-53.6	15.1	6.08e-01	0	27	0	481820672	71	4695
2026-01-14 11:27:03.23	157.20	38.86	-51.7	-53.7	15.1	6.08e-01	0	27	0	483917824	71	4726
2026-01-14 11:27:04.20	157.23	39.15	-51.5	-53.4	15.2	6.06e-01	0	27	0	485490688	71	4551
2026-01-14 11:27:05.16	157.25	39.44	-51.3	-53.1	15.3	6.05e-01	0	27	0	487587840	71	4439
2026-01-14 11:27:06.13	157.27	39.74	-51.3	-53.2	15.3	6.07e-01	0	27	0	489160704	71	4457
2026-01-14 11:27:07.09	157.30	40.04	-51.2	-53.1	15.3	6.07e-01	0	27	0	491257856	71	4401
2026-01-14 11:27:08.06	157.32	40.34	-51.3	-53.1	15.3	6.07e-01	0	27	0	492830720	71	4437
2026-01-14 11:27:09.03	157.35	40.64	-51.3	-53.2	15.3	6.07e-01	0	27	0	494927872	71	4463
2026-01-14 11:27:09.99	157.37	40.95	-51.1	-52.9	15.3	6.06e-01	0	27	0	496500736	71	4330
2026-01-14 11:27:10.96	157.40	41.26	-50.6	-52.4	15.4	6.08e-01	0	27	0	498597888	70	4292
2026-01-14 11:27:11.93	157.42	41.57	-50.6	-52.3	15.4	6.08e-01	0	27	0	500170752	70	4249
2026-01-14 11:27:12.89	157.45	41.88	-50.6	-52.3	15.4	6.07e-01	0	27	0	502267904	70	4290
2026-01-14 11:27:13.86	157.47	42.20	-50.5	-52.2	15.4	6.07e-01	0	27	0	503840768	70	4235
2026-01-14 11:27:14.82	157.50	42.52	-50.4	-52.1	15.5	6.06e-01	0	27	0	505413632	70	4176
2026-01-14 11:27:15.79	157.53	42.84	-50.5	-52.1	15.5	6.06e-01	0	27	0	507510784	70	4186
2026-01-14 11:27:16.76	157.56	43.17	-50.1	-51.7	15.4	6.06e-01	0	27	0	509083648	69	4239
2026-01-14 11:27:17.73	157.59	43.50	-50.0	-51.6	15.5	6.07e-01	0	28	0	511180800	69	4160
2026-01-14 11:27:18.70	157.62	43.83	-50.2	-51.8	15.4	6.05e-01	0	27	0	512753664	69	4275
2026-01-14 11:27:19.66	157.65	44.17	-50.2	-51.9	15.4	6.06e-01	0	27	0	514850816	69	4321
2026-01-14 11:27:20.63	157.68	44.51	-50.1	-51.8	15.4	6.05e-01	0	27	0	516423680	69	4248
2026-01-14 11:27:21.59	157.71	44.85	-49.8	-51.4	15.4	6.05e-01	0	27	0	518520832	68	4315
2026-01-14 11:27:22.56	157.74	45.19	-49.6	-51.1	15.5	6.08e-01	0	27	0	520093696	68	4183
2026-01-14 11:27:23.53	157.77	45.54	-49.6	-51.2	15.4	6.05e-01	0	27	0	521666560	68	4204
2026-01-14 11:27:24.50	157.80	45.89	-50.0	-51.6	15.4	6.06e-01	0	27	0	523763712	68	4417
2026-01-14 11:27:25.47	157.84	46.25	-50.3	-52.0	15.3	6.07e-01	0	27	0	525336576	68	4606
2026-01-14 11:27:26.44	157.87	46.60	-49.8	-51.5	15.4	6.05e-01	0	27	0	527433728	68	4342
2026-01-14 11:27:27.41	157.91	46.97	-49.6	-51.2	15.5	6.07e-01	0	27	0	529006592	68	4230
2026-01-14 11:27:28.37	157.94	47.33	-49.6	-51.1	15.5	6.08e-01	0	27	0	531103744	68	4190
2026-01-14 11:27:29.34	157.98	47.70	-49.7	-51.3	15.4	6.09e-01	0	27	0	532676608	68	4276
2026-01-14 11:27:30.31	158.02	48.07	-49.9	-51.5	15.4	6.05e-01	0	27	0	534773760	68	4370
2026-01-14 11:27:31.28	158.05	48.44	-49.7	-51.3	15.4	6.06e-01	0	27	0	536346624	68	4243
2026-01-14 11:27:32.24	158.09	48.82	-49.6	-51.2	15.4	6.08e-01	0	27	0	538443776	68	4232
2026-01-14 11:27:33.21	158.13	49.20	-49.8	-51.4	15.4	6.08e-01	0	27	0	540016640	68	4328
2026-01-14 11:27:34.18	158.17	49.58	-49.6	-51.2	15.4	6.06e-01	0	27	0	542113792	68	4226
2026-01-14 11:27:35.15	158.21	49.97	-49.6	-51.2	15.5	6.06e-01	0	27	0	543686656	68	4211
2026-01-14 11:27:36.11	158.26	50.36	-49.3	-50.8	15.4	6.04e-01	0	27	0	545783808	67	4289
2026-01-14 11:27:37.09	158.30	50.76	-49.2	-50.8	15.4	6.06e-01	0	27	0	547356672	67	4264
2026-01-14 11:27:38.05	158.35	51.15	-49.4	-51.0	15.4	6.07e-01	0	27	0	548929536	67	4345
2026-01-14 11:27:39.02	158.39	51.55	-49.1	-50.7	15.4	6.06e-01	0	27	0	551026688	67	4196
2026-01-14 11:27:39.99	158.44	51.96	-48.9	-50.4	15.5	6.07e-01	0	27	0	552599552	67	4090
2026-01-14 11:27:40.96	158.49	52.37	-48.7	-50.2	15.4	6.07e-01	0	27	0	554696704	66	4238
2026-01-14 11:27:41.92	158.54	52.78	-48.7	-50.2	15.4	6.07e-01	0	27	0	556269568	66	4238
2026-01-14 11:27:42.89	158.59	53.20	-48.9	-50.4	15.4	6.06e-01	0	27	0	558366720	66	4324
2026-01-14 11:27:43.86	158.64	53.62	-48.9	-50.4	15.4	6.06e-01	0	27	0	559939584	66	4304
2026-01-14 11:27:44.83	158.69	54.04	-48.8	-50.3	15.4	6.06e-01	0	27	0	562036736	66	4290
2026-01-14 11:27:45.79	158.75	54.46	-48.9	-50.4	15.4	6.09e-01	0	27	0	563609600	66	4337
2026-01-14 11:27:46.76	158.80	54.89	-48.9	-50.4	15.4	6.07e-01	0	28	0	565706752	66	4328
2026-01-14 11:27:47.73	158.86	55.33	-49.3	-50.9	15.3	6.08e-01	0	27	0	567279616	66	4561
2026-01-14 11:27:48.70	158.92	55.77	-49.5	-51.1	15.3	6.04e-01	0	27	0	569376768	66	4680
2026-01-14 11:27:49.67	158.99	56.21	-49.6	-51.2	15.2	6.07e-01	0	27	0	570949632	66	4720
2026-01-14 11:27:50.64	159.05	56.65	-49.7	-51.3	15.3	6.06e-01	0	27	0	573046784	67	4526
2026-01-14 11:27:51.61	159.12	57.10	-49.6	-51.2	15.3	6.07e-01	0	27	0	574619648	67	4455
2026-01-14 11:27:52.58	159.18	57.56	-50.4	-52.1	15.2	6.08e-01	0	27	0	576192512	68	4661
2026-01-14 11:27:53.55	159.25	58.01	-50.0	-51.7	15.3	6.05e-01	0	27	0	578289664	68	4449
2026-01-14 11:27:54.51	159.33	58.47	-50.5	-52.2	15.2	6.08e-01	0	27	0	579862528	68	4742
2026-01-14 11:27:55.48	159.40	58.93	-50.4	-52.1	15.2	6.07e-01	0	27	0	581959680	68	4702
2026-01-14 11:27:56.45	159.48	59.40	-50.7	-52.5	15.2	6.06e-01	0	27	0	583532544	69	4600
2026-01-14 11:27:57.42	159.56	59.87	-50.6	-52.3	15.3	6.07e-01	0	27	0	585629696	69	4543
2026-01-14 11:27:58.38	159.64	60.34	-51.1	-52.9	15.1	6.06e-01	0	27	0	587202560	69	4821
2026-01-14 11:27:59.35	159.73	60.82	-51.0	-52.8	15.2	6.04e-01	0	28	0	589299712	69	4770
2026-01-14 11:28:00.32	159.82	61.30	-51.1	-52.9	15.1	6.04e-01	0	27	0	590872576	69	4827
2026-01-14 11:28:01.29	159.91	61.79	-51.4	-53.2	15.2	6.04e-01	0	27	0	592969728	70	4738
2026-01-14 11:28:02.26	160.01	62.28	-51.8	-53.7	15.1	6.07e-01	0	27	0	594542592	71	4727
2026-01-14 11:28:03.22	160.11	62.77	-51.9	-53.8	15.1	6.06e-01	0	27	0	596115456	71	4811
2026-01-14 11:28:04.19	160.21	63.26	-52.0	-54.0	15.0	6.07e-01	0	27	0	598212608	71	4888
2026-01-14 11:28:05.16	160.32	63.76	-52.5	-54.5	15.0	6.07e-01	0	27	0	599785472	72	4915
2026-01-14 11:28:06.13	160.43	64.27	-53.1	-55.3	14.9	6.07e-01	0	27	0	601882624	73	5100
2026-01-14 11:28:07.09	160.55	64.77	-52.7	-54.8	15.2	6.07e-01	0	27	0	603455488	74	4494
2026-01-14 11:28:08.06	160.67	65.28	-53.4	-55.7	14.9	6.08e-01	0	27	0	605552640	74	5002
2026-01-14 11:28:09.03	160.80	65.79	-53.9	-56.4	14.7	6.08e-01	0	27	0	607125504	75	5121
2026-01-14 11:28:09.99	160.93	66.31	-53.5	-55.8	14.9	6.06e-01	0	27	0	609222656	75	4780
2026-01-14 11:28:10.97	161.08	66.83	-54.2	-56.8	14.7	6.07e-01	0	27	0	610795520	76	5050
2026-01-14 11:28:11.94	161.23	67.36	-54.1	-56.6	14.8	6.07e-01	0	27	0	612892672	76	4968
2026-01-14 11:28:12.91	161.38	67.88	-54.1	-56.6	14.8	6.07e-01	0	27	0	614465536	76	4944
2026-01-14 11:28:13.88	161.55	68.41	-54.3	-56.9	14.7	6.06e-01	0	28	0	616562688	76	5138
2026-01-14 11:28:14.85	161.72	68.95	-54.5	-57.2	14.5	6.04e-01	0	27	0	618135552	76	5324
2026-01-14 11:28:15.82	161.90	69.48	-54.2	-56.7	14.7	6.06e-01	0	27	0	619708416	76	5008
2026-01-14 11:28:16.79	162.10	70.02	-54.5	-57.3	14.5	6.04e-01	0	27	0	621805568	76	5350
2026-01-14 11:28:17.75	162.30	70.56	-54.5	-57.2	14.6	6.06e-01	0	27	0	623378432	76	5287
2026-01-14 11:28:18.72	162.51	71.10	-54.0	-56.5	14.8	6.07e-01	0	27	0	625475584	76	4896
2026-01-14 11:28:19.69	162.75	71.65	-54.3	-56.9	14.7	6.06e-01	0	27	0	627048448	76	5156
2026-01-14 11:28:20.66	162.99	72.20	-54.2	-56.7	14.7	6.05e-01	0	27	0	629145600	76	5025
2026-01-14 11:28:21.63	163.25	72.76	-53.8	-56.2	14.9	6.07e-01	0	27	0	630718464	76	4750
2026-01-14 11:28:22.59	163.53	73.31	-54.1	-56.7	14.7	6.07e-01	0	27	0	632815616	76	5020
2026-01-14 11:28:23.56	163.83	73.86	-53.2	-55.4	15.1	6.04e-01	0	27	0	634388480	75	4588
2026-01-14 11:28:24.53	164.15	74.42	-53.4	-55.7	15.0	6.04e-01	0	27	0	636485632	75	4743
2026-01-14 11:28:25.50	164.49	74.99	-53.1	-55.3	15.1	6.02e-01	0	27	0	638058496	75	4520
2026-01-14 11:28:26.47	164.87	75.55	-53.1	-55.3	15.1	6.03e-01	0	27	0	640155648	75	4516
2026-01-14 11:28:27.44	165.27	76.12	-53.1	-55.3	15.1	6.01e-01	0	27	0	641728512	75	4508
2026-01-14 11:28:28.41	165.71	76.68	-52.5	-54.5	15.3	6.04e-01	0	27	0	643825664	74	4352
2026-01-14 11:28:29.38	166.20	77.25	-52.4	-54.4	15.2	6.03e-01	0	27	0	645398528	73	4564
2026-01-14 11:28:30.34	166.72	77.82	-52.1	-54.0	15.3	6.04e-01	0	27	0	647495680	73	4389
2026-01-14 11:28:31.32	167.30	78.39	-52.0	-53.9	15.3	6.04e-01	0	27	0	649068544	73	4307
2026-01-14 11:28:32.28	167.94	78.96	-51.6	-53.5	15.3	6.03e-01	0	27	0	650641408	72	4348
2026-01-14 11:28:33.25	168.65	79.53	-51.4	-53.2	15.4	6.04e-01	0	27	0	652738560	72	4207
2026-01-14 11:28:34.21	169.43	80.10	-51.4	-53.2	15.3	6.04e-01	0	27	0	654311424	71	4454
2026-01-14 11:28:35.18	170.32	80.67	-51.4	-53.2	15.3	6.01e-01	0	27	0	656408576	71	4461
2026-01-14 11:28:36.15	171.33	81.24	-50.6	-52.2	15.4	6.02e-01	0	27	0	657981440	70	4225
2026-01-14 11:28:37.13	172.50	81.81	-50.5	-52.2	15.4	6.02e-01	0	27	0	660078592	70	4218
2026-01-14 11:28:38.11	173.84	82.39	-50.5	-52.2	15.5	6.04e-01	0	27	0	661651456	70	4194
2026-01-14 11:28:39.08	175.38	82.95	-50.2	-51.9	15.4	6.02e-01	0	27	0	663748608	69	4296
2026-01-14 11:28:40.05	177.20	83.51	-50.4	-52.1	15.3	6.03e-01	0	27	0	665321472	69	4408
2026-01-14 11:28:41.02	179.35	84.06	-50.5	-52.2	15.3	6.01e-01	0	27	0	667418624	69	4448
2026-01-14 11:28:41.99	181.94	84.60	-50.4	-52.0	15.4	6.04e-01	0	27	0	668991488	69	4372
2026-01-14 11:28:42.96	185.11	85.13	-50.3	-52.0	15.4	6.05e-01	0	27	0	671088640	69	4355
2026-01-14 11:28:43.93	189.04	85.65	-50.8	-52.5	15.2	6.03e-01	0	27	0	672661504	69	4639
2026-01-14 11:28:44.90	193.99	86.14	-50.3	-51.9	15.4	6.05e-01	0	27	0	674758656	69	4333
2026-01-14 11:28:45.86	200.24	86.58	-50.7	-52.4	15.2	6.01e-01	0	27	0	676331520	69	4571
2026-01-14 11:28:46.83	208.34	86.98	-50.4	-52.0	15.4	6.04e-01	0	27	0	677904384	69	4364
2026-01-14 11:28:47.80	218.62	87.30	-50.2	-51.8	15.4	6.04e-01	0	27	0	680001536	69	4257
2026-01-14 11:28:48.77	231.15	87.52	-49.9	-51.5	15.5	6.04e-01	0	27	0	681574400	68	4341
2026-01-14 11:28:49.74	245.23	87.59	-49.6	-51.1	15.5	6.02e-01	0	27	0	683671552	68	4190
2026-01-14 11:28:50.70	259.20	87.52	-49.6	-51.1	15.5	6.01e-01	0	27	0	685244416	68	4168
2026-01-14 11:28:51.67	271.85	87.32	-49.6	-51.2	15.4	6.03e-01	0	27	0	687341568	68	4207
2026-01-14 11:28:52.64	282.25	87.00	-49.5	-51.0	15.5	6.03e-01	0	27	0	688914432	68	4137
2026-01-14 11:28:53.60	290.38	86.61	-49.9	-51.5	15.4	6.02e-01	0	27	0	691011584	68	4387
2026-01-14 11:28:54.57	296.79	86.16	-50.3	-51.9	15.3	6.02e-01	0	27	0	692584448	68	4575
2026-01-14 11:28:55.54	301.81	85.68	-50.2	-51.8	15.3	6.04e-01	0	27	0	694681600	68	4519
2026-01-14 11:28:56.50	305.75	85.17	-50.8	-52.5	15.2	6.03e-01	0	27	0	696254464	69	4644
2026-01-14 11:28:57.47	308.96	84.64	-50.8	-52.5	15.2	6.04e-01	0	27	0	697827328	69	4637
2026-01-14 11:28:58.45	311.61	84.09	-51.0	-52.7	15.2	6.04e-01	0	27	0	699924480	69	4733
2026-01-14 11:28:59.42	313.78	83.54	-51.1	-52.8	15.2	6.03e-01	0	27	0	701497344	70	4529
2026-01-14 11:29:00.39	315.61	82.98	-51.1	-52.9	15.3	6.03e-01	0	27	0	703594496	70	4555
2026-01-14 11:29:01.37	317.19	82.41	-50.8	-52.5	15.4	6.02e-01	0	27	0	705167360	70	4341
2026-01-14 11:29:02.34	318.52	81.85	-50.8	-52.5	15.3	6.03e-01	0	28	0	707264512	70	4389
2026-01-14 11:29:03.32	319.70	81.27	-50.6	-52.2	15.5	6.03e-01	0	28	0	708837376	70	4217
2026-01-14 11:29:04.30	320.72	80.70	-50.5	-52.1	15.5	6.05e-01	0	27	0	710934528	70	4179
2026-01-14 11:29:05.28	321.63	80.12	-51.1	-52.8	15.3	6.03e-01	0	27	0	712507392	70	4538
2026-01-14 11:29:06.26	322.43	79.54	-50.9	-52.6	15.3	6.06e-01	0	27	0	714604544	70	4407
2026-01-14 11:29:07.24	323.15	78.97	-51.1	-52.8	15.3	6.04e-01	0	27	0	716177408	70	4512
2026-01-14 11:29:08.21	323.79	78.39	-52.2	-54.1	15.1	6.06e-01	0	27	0	718274560	72	4690
2026-01-14 11:29:09.19	324.38	77.82	-51.9	-53.7	15.2	6.02e-01	0	27	0	719847424	72	4483
2026-01-14 11:29:10.17	324.91	77.24	-52.5	-54.5	15.0	6.04e-01	0	27	0	721944576	72	4902
2026-01-14 11:29:11.14	325.39	76.67	-53.1	-55.2	14.9	6.00e-01	0	27	0	723517440	73	5034
2026-01-14 11:29:12.11	325.83	76.11	-53.1	-55.3	15.0	6.02e-01	0	27	0	725614592	74	4771
2026-01-14 11:29:13.09	326.24	75.54	-53.0	-55.1	15.0	6.03e-01	0	27	0	727187456	74	4664
2026-01-14 11:29:14.07	326.61	74.97	-53.3	-55.5	15.0	6.02e-01	0	27	0	729284608	74	4896
2026-01-14 11:29:15.05	326.96	74.40	-53.3	-55.5	14.9	6.04e-01	0	27	0	730857472	74	4912
2026-01-14 11:29:16.03	327.28	73.84	-53.2	-55.4	14.9	6.03e-01	0	27	0	732954624	74	4865
2026-01-14 11:29:17.00	327.58	73.28	-53.0	-55.0	15.1	6.04e-01	0	27	0	734527488	74	4650
2026-01-14 11:29:17.98	327.86	72.72	-53.5	-55.8	14.9	6.03e-01	0	28	0	736624640	74	5061
2026-01-14 11:29:18.96	328.12	72.16	-53.2	-55.4	15.1	6.03e-01	0	27	0	738197504	75	4591
2026-01-14 11:29:19.93	328.37	71.61	-53.5	-55.8	14.9	6.03e-01	0	27	0	740294656	75	4778
2026-01-14 11:29:20.91	328.60	71.06	-53.4	-55.5	15.0	6.04e-01	0	27	0	741867520	75	4650
2026-01-14 11:29:21.88	328.81	70.52	-53.8	-56.2	14.8	6.02e-01	0	27	0	743964672	75	4984
2026-01-14 11:29:22.86	329.02	69.97	-54.1	-56.5	14.8	6.02e-01	0	27	0	745537536	76	4908
2026-01-14 11:29:23.83	329.21	69.43	-53.7	-56.0	15.0	6.02e-01	0	28	0	747634688	76	4648
2026-01-14 11:29:24.80	329.39	68.90	-53.7	-56.0	15.0	6.03e-01	0	28	0	749207552	76	4628
2026-01-14 11:29:25.78	329.57	68.36	-53.9	-56.3	14.9	6.02e-01	0	27	0	751304704	76	4789
2026-01-14 11:29:26.75	329.73	67.83	-54.0	-56.5	14.9	6.04e-01	0	27	0	752877568	76	4874
2026-01-14 11:29:27.73	329.89	67.30	-54.3	-56.8	14.7	6.03e-01	0	27	0	754974720	76	5096
2026-01-14 11:29:28.70	330.03	66.78	-53.5	-55.8	15.1	6.02e-01	0	28	0	756547584	76	4499
2026-01-14 11:29:29.67	330.18	66.26	-52.9	-54.9	15.3	6.02e-01	0	27	0	758644736	74	4581
2026-01-14 11:29:30.65	330.31	65.74	-53.1	-55.3	15.0	6.02e-01	0	28	0	760217600	74	4762
2026-01-14 11:29:31.63	330.44	65.22	-53.3	-55.5	14.9	6.02e-01	0	27	0	762314752	74	4911
2026-01-14 11:29:32.61	330.56	64.70	-52.4	-54.4	15.3	6.02e-01	0	27	0	763887616	74	4292
2026-01-14 11:29:33.59	330.68	64.19	-52.0	-53.9	15.3	5.99e-01	0	28	0	765984768	73	4294
2026-01-14 11:29:34.57	330.80	63.69	-51.6	-53.4	15.3	6.02e-01	0	27	0	767557632	72	4332
2026-01-14 11:29:35.54	330.90	63.19	-51.5	-53.3	15.4	6.03e-01	0	28	0	769654784	72	4260
2026-01-14 11:29:36.52	331.01	62.69	-51.7	-53.6	15.3	6.03e-01	0	28	0	771227648	72	4396
2026-01-14 11:29:37.50	331.11	62.19	-51.5	-53.3	15.4	6.03e-01	0	27	0	773324800	72	4278
2026-01-14 11:29:38.48	331.21	61.70	-50.8	-52.4	15.4	6.03e-01	0	27	0	774897664	70	4315
2026-01-14 11:29:39.46	331.30	61.21	-50.9	-52.6	15.3	6.04e-01	0	27	0	776994816	70	4428
2026-01-14 11:29:40.44	331.39	60.72	-51.0	-52.7	15.3	6.03e-01	0	27	0	778567680	70	4444
2026-01-14 11:29:41.43	331.48	60.24	-51.1	-52.8	15.3	6.05e-01	0	27	0	780664832	70	4526
2026-01-14 11:29:42.42	331.56	59.75	-51.2	-52.9	15.0	6.03e-01	0	27	0	782237696	70	4586
2026-01-14 11:29:43.41	331.64	59.28	-50.9	-52.6	15.3	6.03e-01	0	27	0	784334848	70	4423
2026-01-14 11:29:44.40	331.72	58.80	-50.6	-52.2	15.4	6.04e-01	0	28	0	785907712	70	4217
2026-01-14 11:29:45.40	331.80	58.32	-50.7	-52.3	15.4	6.02e-01	0	27	0	788004864	70	4281
2026-01-14 11:29:46.40	331.87	57.85	-50.9	-52.6	15.3	6.02e-01	0	27	0	789577728	70	4419
2026-01-14 11:29:47.39	331.94	57.39	-50.5	-52.2	15.5	6.06e-01	0	28	0	791674880	70	4194
2026-01-14 11:29:48.39	332.01	56.92	-50.3	-52.0	15.4	6.03e-01	0	27	0	793772032	69	4349
2026-01-14 11:29:49.38	332.08	56.47	-49.8	-51.4	15.4	6.03e-01	0	27	0	795344896	68	4302
2026-01-14 11:29:50.38	332.14	56.01	-49.5	-51.0	15.5	6.03e-01	0	27	0	797442048	68	4133
2026-01-14 11:29:51.37	332.20	55.56	-49.4	-50.9	15.5	6.04e-01	0	27	0	799014912	68	4081
2026-01-14 11:29:52.36	332.26	55.12	-49.7	-51.3	15.4	6.04e-01	0	28	0	801112064	68	4260
2026-01-14 11:29:53.34	332.32	54.68	-49.4	-50.9	15.5	6.03e-01	0	27	0	802684928	68	4074
2026-01-14 11:29:54.32	332.38	54.25	-49.3	-50.8	15.4	6.04e-01	0	27	0	804782080	67	4255
2026-01-14 11:29:55.31	332.43	53.82	-49.2	-50.7	15.5	6.04e-01	0	27	0	806354944	67	4209
2026-01-14 11:29:56.29	332.49	53.39	-49.1	-50.6	15.5	6.03e-01	0	27	0	808452096	67	4171
2026-01-14 11:29:57.27	332.54	52.97	-49.2	-50.7	15.4	6.04e-01	0	27	0	810024960	67	4212
2026-01-14 11:29:58.25	332.59	52.56	-49.2	-50.7	15.4	6.03e-01	0	27	0	812122112	67	4224
2026-01-14 11:29:59.23	332.64	52.14	-49.3	-50.8	15.4	6.05e-01	0	28	0	813694976	67	4257
2026-01-14 11:30:00.21	332.69	51.73	-49.5	-51.0	15.4	6.01e-01	0	28	0	815792128	67	4374
2026-01-14 11:30:01.18	332.73	51.33	-49.8	-51.4	15.3	6.03e-01	0	28	0	817364992	67	4581
2026-01-14 11:30:02.16	332.78	50.93	-49.9	-51.5	15.3	6.04e-01	0	27	0	819462144	67	4605
2026-01-14 11:30:03.14	332.83	50.53	-50.0	-51.6	15.2	6.02e-01	0	27	0	821035008	67	4668
2026-01-14 11:30:04.12	332.87	50.13	-49.9	-51.5	15.3	6.04e-01	0	27	0	823132160	67	4619
2026-01-14 11:30:05.10	332.91	49.74	-49.8	-51.4	15.3	6.04e-01	0	27	0	824705024	67	4585
2026-01-14 11:30:06.08	332.95	49.35	-50.0	-51.6	15.2	6.03e-01	0	27	0	826802176	67	4652
2026-01-14 11:30:07.06	332.99	48.96	-50.2	-51.8	15.3	6.04e-01	0	27	0	828375040	68	4516
2026-01-14 11:30:08.05	333.03	48.58	-50.3	-52.0	15.3	6.03e-01	0	27	0	830472192	68	4615
2026-01-14 11:30:09.03	333.07	48.20	-50.4	-52.1	15.2	6.01e-01	0	27	0	832045056	68	4675
2026-01-14 11:30:10.01	333.11	47.83	-50.3	-51.9	15.3	6.06e-01	0	28	0	834142208	68	4567
2026-01-14 11:30:10.98	333.15	47.46	-50.3	-51.9	15.3	6.04e-01	0	27	0	835715072	68	4571
2026-01-14 11:30:11.96	333.18	47.09	-50.2	-51.8	15.3	6.02e-01	0	27	0	837812224	68	4503
2026-01-14 11:30:12.95	333.22	46.72	-50.3	-51.9	15.2	6.01e-01	0	27	0	839385088	68	4564
2026-01-14 11:30:13.93	333.25	46.36	-50.4	-52.0	15.2	6.04e-01	0	28	0	841482240	68	4651
2026-01-14 11:30:14.91	333.29	46.00	-50.5	-52.2	15.2	6.02e-01	0	27	0	843055104	68	4712
2026-01-14 11:30:15.89	333.32	45.65	-50.2	-51.9	15.3	6.03e-01	0	27	0	845152256	68	4555
2026-01-14 11:30:16.87	333.36	45.29	-50.1	-51.7	15.3	6.03e-01	0	28	0	846725120	68	4481
2026-01-14 11:30:17.85	333.39	44.95	-50.1	-51.8	15.3	6.03e-01	0	27	0	848822272	68	4494
2026-01-14 11:30:18.83	333.42	44.60	-50.2	-51.8	15.3	6.04e-01	0	27	0	850395136	68	4521
2026-01-14 11:30:19.82	333.45	44.25	-50.3	-51.9	15.3	6.05e-01	0	28	0	852492288	68	4594
2026-01-14 11:30:20.81	333.48	43.91	-50.4	-52.1	15.2	6.04e-01	0	28	0	854589440	68	4656
2026-01-14 11:30:21.80	333.51	43.57	-50.4	-52.1	15.2	6.02e-01	0	27	0	856162304	68	4657
2026-01-14 11:30:22.79	333.54	43.24	-50.2	-51.9	15.3	6.05e-01	0	27	0	858259456	68	4555
2026-01-14 11:30:23.78	333.57	42.90	-50.3	-51.9	15.3	6.02e-01	0	28	0	859832320	68	4580
2026-01-14 11:30:24.76	333.60	42.58	-50.4	-52.1	15.2	6.02e-01	0	27	0	861929472	68	4662
2026-01-14 11:30:25.74	333.63	42.25	-50.7	-52.4	15.3	6.02e-01	0	27	0	863502336	69	4564
2026-01-14 11:30:26.73	333.65	41.93	-50.9	-52.6	15.2	6.04e-01	0	27	0	865599488	69	4676
2026-01-14 11:30:27.72	333.68	41.61	-50.9	-52.7	15.2	6.01e-01	0	28	0	867172352	69	4712
2026-01-14 11:30:28.70	333.71	41.29	-50.8	-52.5	15.2	6.04e-01	0	27	0	869269504	69	4624
2026-01-14 11:30:29.69	333.73	40.98	-50.9	-52.7	15.2	6.03e-01	0	28	0	870842368	69	4728
2026-01-14 11:30:30.69	333.76	40.66	-51.1	-52.9	15.1	6.03e-01	0	27	0	872939520	69	4834
2026-01-14 11:30:31.68	333.78	40.35	-51.1	-52.9	15.1	6.04e-01	0	27	0	874512384	69	4834
2026-01-14 11:30:32.67	333.81	40.05	-50.9	-52.7	15.2	6.04e-01	0	28	0	876609536	69	4719
2026-01-14 11:30:33.66	333.83	39.74	-50.9	-52.7	15.2	6.04e-01	0	28	0	878182400	69	4709
2026-01-14 11:30:34.66	333.86	39.44	-50.9	-52.7	15.2	6.05e-01	0	27	0	880279552	69	4725
2026-01-14 11:30:35.65	333.88	39.14	-51.1	-52.9	15.1	6.02e-01	0	27	0	882376704	69	4823
2026-01-14 11:30:36.64	333.90	38.84	-51.2	-52.9	15.2	6.06e-01	0	28	0	883949568	70	4593
2026-01-14 11:30:37.63	333.93	38.55	-51.2	-53.0	15.2	6.03e-01	0	27	0	886046720	70	4633
2026-01-14 11:30:38.62	333.95	38.26	-51.2	-53.0	15.2	6.03e-01	0	28	0	887619584	70	4647
2026-01-14 11:30:39.61	333.97	37.97	-51.2	-53.0	15.2	6.06e-01	0	27	0	889716736	70	4647
2026-01-14 11:30:40.61	334.00	37.69	-51.1	-52.9	15.2	6.04e-01	0	27	0	891289600	70	4592
2026-01-14 11:30:41.61	334.02	37.40	-51.0	-52.8	15.3	6.04e-01	0	27	0	893386752	70	4509
2026-01-14 11:30:42.61	334.04	37.12	-51.1	-52.8	15.3	6.05e-01	0	28	0	894959616	70	4529
2026-01-14 11:30:43.60	334.06	36.84	-50.8	-52.6	15.3	6.00e-01	0	28	0	897056768	70	4407
2026-01-14 11:30:44.60	334.08	36.56	-50.6	-52.3	15.4	6.02e-01	0	27	0	899153920	70	4265
2026-01-14 11:30:45.60	334.10	36.29	-50.5	-52.1	15.5	6.02e-01	0	27	0	900726784	70	4180
2026-01-14 11:30:46.58	334.12	36.02	-50.4	-52.0	15.3	6.03e-01	0	27	0	902823936	69	4364
2026-01-14 11:30:47.58	334.14	35.75	-50.2	-51.9	15.4	6.04e-01	0	27	0	904396800	69	4299
2026-01-14 11:30:48.57	334.16	35.48	-50.1	-51.7	15.4	6.03e-01	0	28	0	906493952	69	4227
2026-01-14 11:30:49.56	334.18	35.22	-50.0	-51.6	15.5	6.00e-01	0	27	0	908066816	69	4186
2026-01-14 11:30:50.56	334.20	34.96	-50.0	-51.6	15.5	6.04e-01	0	27	0	910163968	69	4164
2026-01-14 11:30:51.56	334.22	34.70	-50.1	-51.7	15.4	6.01e-01	0	27	0	911736832	69	4230
2026-01-14 11:30:52.54	334.24	34.44	-50.1	-51.7	15.4	6.05e-01	0	27	0	913833984	69	4233
2026-01-14 11:30:53.54	334.26	34.19	-49.8	-51.4	15.4	6.05e-01	0	27	0	915931136	68	4318
2026-01-14 11:30:54.54	334.27	33.93	-49.6	-51.1	15.5	6.02e-01	0	28	0	917504000	68	4186
2026-01-14 11:30:55.54	334.29	33.68	-49.6	-51.1	15.5	6.02e-01	0	27	0	919601152	68	4192
2026-01-14 11:30:56.53	334.31	33.43	-49.5	-51.1	15.5	6.03e-01	0	28	0	921174016	68	4151
2026-01-14 11:30:57.52	334.33	33.19	-49.2	-50.8	15.4	6.01e-01	0	28	0	923271168	67	4248
2026-01-14 11:30:58.51	334.35	32.94	-49.1	-50.6	15.5	6.03e-01	0	27	0	924844032	67	4156
2026-01-14 11:30:59.50	334.36	32.70	-49.0	-50.5	15.5	6.04e-01	0	27	0	926941184	67	4121
2026-01-14 11:31:00.50	334.38	32.46	-49.2	-50.7	15.5	6.05e-01	0	27	0	928514048	67	4208
2026-01-14 11:31:01.50	334.40	32.22	-49.1	-50.6	15.5	6.03e-01	0	27	0	930611200	67	4159
2026-01-14 11:31:02.50	334.41	31.99	-49.1	-50.6	15.5	6.03e-01	0	27	0	932708352	67	4189
2026-01-14 11:31:03.49	334.43	31.75	-49.1	-50.6	15.5	6.03e-01	0	27	0	934281216	67	4164
2026-01-14 11:31:04.49	334.45	31.52	-49.1	-50.6	15.5	6.04e-01	0	28	0	936378368	67	4147
2026-01-14 11:31:05.49	334.46	31.29	-49.1	-50.6	15.5	6.04e-01	0	27	0	937951232	67	4151
2026-01-14 11:31:06.50	334.48	31.06	-49.0	-50.5	15.5	6.04e-01	0	27	0	940048384	67	4137
2026-01-14 11:31:07.50	334.49	30.83	-49.1	-50.6	15.5	6.03e-01	0	27	0	942145536	67	4168
2026-01-14 11:31:08.51	334.51	30.60	-49.2	-50.7	15.5	5.99e-01	0	27	0	943718400	67	4237
2026-01-14 11:31:09.50	334.53	30.38	-49.3	-50.9	15.4	6.02e-01	0	28	0	945815552	67	4306
2026-01-14 11:31:10.50	334.54	30.16	-49.3	-50.8	15.4	6.04e-01	0	27	0	947388416	67	4273
2026-01-14 11:31:11.51	334.56	29.94	-49.4	-51.0	15.4	6.03e-01	0	28	0	949485568	67	4343
2026-01-14 11:31:12.51	334.57	29.72	-49.3	-50.8	15.4	6.03e-01	0	27	0	951058432	67	4290
2026-01-14 11:31:13.51	334.59	29.50	-49.4	-51.0	15.4	6.03e-01	0	27	0	953155584	67	4348
2026-01-14 11:31:14.52	334.60	29.28	-49.2	-50.7	15.4	6.04e-01	0	28	0	955252736	67	4241
2026-01-14 11:31:15.53	334.62	29.07	-49.3	-50.8	15.4	6.02e-01	0	28	0	956825600	67	4280
2026-01-14 11:31:16.54	334.63	28.86	-49.2	-50.8	15.4	6.04e-01	0	27	0	958922752	67	4254
2026-01-14 11:31:17.54	334.64	28.65	-49.3	-50.8	15.4	6.03e-01	0	27	0	960495616	67	4282
2026-01-14 11:31:18.53	334.66	28.44	-49.4	-50.9	15.4	6.03e-01	0	27	0	962592768	67	4328
2026-01-14 11:31:19.53	334.67	28.23	-49.5	-51.1	15.3	6.00e-01	0	27	0	964165632	67	4405
2026-01-14 11:31:20.54	334.69	28.03	-49.4	-51.0	15.4	6.03e-01	0	27	0	966262784	67	4373
2026-01-14 11:31:21.54	334.70	27.83	-49.5	-51.1	15.3	6.04e-01	0	28	0	968359936	67	4409
2026-01-14 11:31:22.53	334.71	27.63	-49.5	-51.1	15.3	6.02e-01	0	27	0	969932800	67	4421
2026-01-14 11:31:23.53	334.73	27.43	-49.5	-51.1	15.3	6.04e-01	0	27	0	972029952	67	4413
2026-01-14 11:31:24.52	334.74	27.23	-49.5	-51.1	15.3	6.02e-01	0	27	0	973602816	67	4420
2026-01-14 11:31:25.52	334.75	27.03	-49.6	-51.2	15.3	6.04e-01	0	27	0	975699968	67	4469
2026-01-14 11:31:26.52	334.77	26.84	-49.6	-51.2	15.3	6.02e-01	0	28	0	977272832	67	4455
2026-01-14 11:31:27.51	334.78	26.65	-49.7	-51.4	15.3	6.02e-01	0	27	0	979369984	67	4547
2026-01-14 11:31:28.51	334.79	26.45	-49.9	-51.5	15.2	6.03e-01	0	27	0	981467136	67	4636
2026-01-14 11:31:29.51	334.81	26.26	-49.8	-51.4	15.3	6.02e-01	0	27	0	983040000	67	4590
2026-01-14 11:31:30.50	334.82	26.08	-49.8	-51.5	15.3	6.04e-01	0	27	0	985137152	67	4616
2026-01-14 11:31:31.50	334.83	25.89	-49.9	-51.5	15.3	6.03e-01	0	28	0	986710016	67	4640
2026-01-14 11:31:32.50	334.84	25.70	-49.9	-51.6	15.2	6.03e-01	0	28	0	988807168	67	4676
2026-01-14 11:31:33.49	334.86	25.52	-50.0	-51.7	15.2	6.04e-01	0	28	0	990904320	67	4714
2026-01-14 11:31:34.48	334.87	25.34	-50.0	-51.7	15.2	6.02e-01	0	27	0	992477184	67	4715
2026-01-14 11:31:35.48	334.88	25.16	-50.1	-51.8	15.2	6.03e-01	0	27	0	994050048	67	4786
2026-01-14 11:31:36.48	334.89	24.97	-50.2	-51.8	15.3	6.02e-01	0	27	0	996147200	68	4540
2026-01-14 11:31:37.49	334.91	24.79	-50.2	-51.9	15.3	6.06e-01	0	28	0	998244352	68	4567
2026-01-14 11:31:38.48	334.92	24.62	-50.2	-51.9	15.3	6.02e-01	0	27	0	999817216	68	4590
2026-01-14 11:31:39.48	334.93	24.44	-50.2	-51.9	15.2	6.04e-01	0	28	0	1001914368	68	4593
2026-01-14 11:31:40.48	334.94	24.26	-50.3	-52.1	15.2	6.06e-01	0	27	0	1003487232	68	4657
2026-01-14 11:31:41.47	334.95	24.09	-50.4	-52.1	15.2	6.03e-01	0	27	0	1005584384	68	4680
2026-01-14 11:31:42.46	334.96	23.92	-50.4	-52.1	15.2	6.02e-01	0	27	0	1007681536	68	4668
2026-01-14 11:31:43.46	334.98	23.75	-50.4	-52.1	15.2	6.03e-01	0	27	0	1009254400	68	4683
2026-01-14 11:31:44.46	334.99	23.58	-50.3	-52.0	15.2	6.03e-01	0	27	0	1011351552	68	4648
2026-01-14 11:31:45.45	335.00	23.41	-50.1	-51.8	15.3	6.01e-01	0	27	0	1012924416	68	4530
2026-01-14 11:31:46.45	335.01	23.24	-50.2	-51.9	15.3	6.03e-01	0	27	0	1015021568	68	4551
2026-01-14 11:31:47.45	335.02	23.07	-50.3	-52.0	15.2	6.05e-01	0	27	0	1016594432	68	4636
2026-01-14 11:31:48.44	335.03	22.91	-50.2	-51.9	15.2	6.01e-01	0	28	0	1018691584	68	4583
2026-01-14 11:31:49.44	335.04	22.75	-50.2	-51.9	15.2	6.05e-01	0	27	0	1020788736	68	4562
2026-01-14 11:31:50.43	335.05	22.58	-50.1	-51.8	15.3	6.02e-01	0	27	0	1022361600	68	4530
2026-01-14 11:31:51.42	335.06	22.42	-50.0	-51.7	15.3	6.04e-01	0	28	0	1024458752	68	4450
2026-01-14 11:31:52.42	335.08	22.26	-50.0	-51.7	15.3	6.03e-01	0	28	0	1026031616	68	4457
2026-01-14 11:31:53.43	335.09	22.10	-50.1	-51.8	15.3	6.01e-01	0	28	0	1028128768	68	4508
2026-01-14 11:31:54.44	335.10	21.94	-49.9	-51.5	15.3	6.04e-01	0	28	0	1029701632	68	4370
2026-01-14 11:31:55.44	335.11	21.78	-50.0	-51.6	15.3	6.05e-01	0	27	0	1031798784	68	4419
2026-01-14 11:31:56.44	335.12	21.62	-49.9	-51.5	15.3	6.04e-01	0	28	0	1033895936	68	4363
2026-01-14 11:31:57.44	335.13	21.47	-49.8	-51.4	15.4	6.02e-01	0	27	0	1035468800	68	4296
2026-01-14 11:31:58.43	335.14	21.31	-49.8	-51.4	15.4	6.05e-01	0	27	0	1037565952	68	4336
2026-01-14 11:31:59.42	335.15	21.16	-49.8	-51.4	15.4	6.05e-01	0	27	0	1039138816	68	4306
2026-01-14 11:32:00.43	335.16	21.01	-49.8	-51.4	15.4	6.05e-01	0	28	0	1041235968	68	4339
2026-01-14 11:32:01.43	335.17	20.86	-49.8	-51.4	15.4	6.04e-01	0	27	0	1042808832	68	4302
2026-01-14 11:32:02.42	335.18	20.71	-49.8	-51.5	15.4	6.05e-01	0	27	0	1044905984	68	4360
2026-01-14 11:32:03.41	335.19	20.56	-49.9	-51.6	15.3	6.04e-01	0	27	0	1046478848	68	4397
2026-01-14 11:32:04.41	335.20	20.41	-49.8	-51.4	15.4	6.04e-01	0	28	0	1048576000	68	4328
2026-01-14 11:32:05.41	335.21	20.26	-49.7	-51.3	15.4	6.02e-01	0	28	0	1050673152	68	4275
2026-01-14 11:32:06.41	335.22	20.11	-49.7	-51.3	15.4	6.04e-01	0	27	0	1052246016	68	4287
2026-01-14 11:32:07.41	335.23	19.97	-49.7	-51.3	15.4	6.04e-01	0	27	0	1054343168	68	4286
2026-01-14 11:32:08.40	335.24	19.82	-49.7	-51.3	15.4	6.07e-01	0	27	0	1055916032	68	4278
2026-01-14 11:32:09.40	335.25	19.68	-49.8	-51.4	15.4	6.02e-01	0	28	0	1058013184	68	4307
2026-01-14 11:32:10.39	335.26	19.54	-49.8	-51.4	15.4	6.04e-01	0	27	0	1059586048	68	4337
2026-01-14 11:32:11.39	335.27	19.40	-49.7	-51.3	15.4	6.03e-01	0	28	0	1061683200	68	4285
2026-01-14 11:32:12.38	335.28	19.26	-49.7	-51.3	15.4	6.06e-01	0	28	0	1063256064	68	4265
2026-01-14 11:32:13.37	335.29	19.12	-49.8	-51.4	15.4	6.04e-01	0	27	0	1065353216	68	4317
2026-01-14 11:32:14.37	335.30	18.98	-49.8	-51.5	15.4	6.05e-01	0	28	0	1067450368	68	4355
2026-01-14 11:32:15.38	335.31	18.84	-49.9	-51.6	15.3	6.05e-01	0	27	0	1069023232	68	4394
2026-01-14 11:32:16.38	335.32	18.70	-49.7	-51.4	15.4	6.04e-01	0	28	0	1071120384	68	4301
2026-01-14 11:32:17.37	335.32	18.56	-49.8	-51.4	15.4	6.02e-01	0	28	0	1072693248	68	4333
2026-01-14 11:32:18.37	335.33	18.43	-49.8	-51.5	15.4	6.02e-01	0	28	0	1074790400	68	4363
2026-01-14 11:32:19.37	335.34	18.29	-49.9	-51.5	15.4	6.02e-01	0	27	0	1076363264	68	4383
2026-01-14 11:32:20.37	335.35	18.16	-49.9	-51.6	15.3	6.02e-01	0	27	0	1078460416	68	4408
2026-01-14 11:32:21.37	335.36	18.02	-50.0	-51.6	15.3	6.03e-01	0	27	0	1080557568	68	4441
2026-01-14 11:32:22.36	335.37	17.89	-49.9	-51.6	15.3	6.03e-01	0	27	0	1082130432	68	4409
2026-01-14 11:32:23.36	335.38	17.76	-49.9	-51.6	15.3	6.03e-01	0	27	0	1084227584	68	4437
2026-01-14 11:32:24.36	335.39	17.63	-50.0	-51.7	15.3	6.02e-01	0	27	0	1085800448	68	4472
2026-01-14 11:32:25.36	335.40	17.50	-50.1	-51.8	15.3	6.02e-01	0	27	0	1087897600	68	4541
2026-01-14 11:32:26.35	335.41	17.37	-50.1	-51.8	15.3	6.03e-01	0	28	0	1089994752	68	4510
2026-01-14 11:32:27.35	335.42	17.24	-50.1	-51.8	15.3	6.05e-01	0	27	0	1091567616	68	4543
2026-01-14 11:32:28.34	335.42	17.11	-50.1	-51.8	15.3	6.02e-01	0	27	0	1093664768	68	4520
2026-01-14 11:32:29.34	335.43	16.98	-50.0	-51.7	15.3	6.02e-01	0	27	0	1095237632	68	4490
2026-01-14 11:32:30.34	335.44	16.86	-50.0	-51.7	15.3	6.04e-01	0	27	0	1097334784	68	4484
2026-01-14 11:32:31.34	335.45	16.73	-50.0	-51.7	15.3	6.05e-01	0	28	0	1098907648	68	4481
2026-01-14 11:32:32.33	335.46	16.60	-50.0	-51.7	15.3	6.02e-01	0	28	0	1101004800	68	4477
2026-01-14 11:32:33.32	335.47	16.48	-49.9	-51.6	15.3	6.04e-01	0	27	0	1102577664	68	4408
2026-01-14 11:32:34.33	335.48	16.36	-49.9	-51.6	15.3	6.01e-01	0	28	0	1104674816	68	4427
2026-01-14 11:32:35.33	335.48	16.23	-49.8	-51.4	15.4	6.03e-01	0	28	0	1106771968	68	4332
2026-01-14 11:32:36.32	335.49	16.11	-49.8	-51.5	15.4	6.03e-01	0	28	0	1108344832	68	4356
2026-01-14 11:32:37.31	335.50	15.99	-49.8	-51.4	15.3	6.01e-01	0	27	0	1110441984	68	4330
2026-01-14 11:32:38.31	335.51	15.87	-49.9	-51.6	15.3	6.02e-01	0	27	0	1112014848	68	4401
2026-01-14 11:32:39.30	335.52	15.75	-49.8	-51.5	15.4	6.02e-01	0	27	0	1114112000	68	4364
2026-01-14 11:32:40.30	335.53	15.63	-49.9	-51.5	15.3	6.04e-01	0	27	0	1115684864	68	4384
2026-01-14 11:32:41.30	335.53	15.51	-49.8	-51.5	15.3	6.00e-01	0	27	0	1117782016	68	4349
2026-01-14 11:32:42.31	335.54	15.39	-49.8	-51.5	15.3	6.02e-01	0	28	0	1119879168	68	4352
2026-01-14 11:32:43.30	335.55	15.27	-49.7	-51.3	15.4	6.06e-01	0	27	0	1121452032	68	4286
2026-01-14 11:32:44.30	335.56	15.15	-49.7	-51.4	15.4	6.04e-01	0	27	0	1123549184	68	4292
2026-01-14 11:32:45.30	335.57	15.04	-49.7	-51.3	15.4	6.06e-01	0	28	0	1125122048	68	4291
2026-01-14 11:32:46.30	335.58	14.92	-49.7	-51.3	15.4	6.03e-01	0	28	0	1127219200	68	4278
2026-01-14 11:32:47.30	335.58	14.80	-49.7	-51.3	15.4	6.04e-01	0	27	0	1128792064	68	4274
2026-01-14 11:32:48.29	335.59	14.69	-49.7	-51.3	15.4	6.05e-01	0	27	0	1130889216	68	4272
2026-01-14 11:32:49.29	335.60	14.58	-49.8	-51.4	15.4	6.03e-01	0	27	0	1132986368	68	4326
2026-01-14 11:32:50.29	335.61	14.46	-49.6	-51.2	15.4	6.03e-01	0	27	0	1134559232	68	4240
2026-01-14 11:32:51.29	335.62	14.35	-49.6	-51.3	15.4	6.03e-01	0	27	0	1136656384	68	4246
2026-01-14 11:32:52.30	335.62	14.24	-49.7	-51.3	15.4	6.02e-01	0	27	0	1138229248	68	4283
2026-01-14 11:32:53.31	335.63	14.12	-49.7	-51.3	15.4	6.02e-01	0	28	0	1140326400	68	4277
2026-01-14 11:32:54.32	335.64	14.01	-49.7	-51.3	15.3	6.04e-01	0	28	0	1141899264	68	4282
2026-01-14 11:32:55.33	335.65	13.90	-49.7	-51.4	15.4	6.03e-01	0	28	0	1143996416	68	4302
2026-01-14 11:32:56.33	335.66	13.79	-49.8	-51.4	15.4	6.04e-01	0	27	0	1146093568	68	4340
2026-01-14 11:32:57.34	335.66	13.68	-49.7	-51.4	15.4	6.02e-01	0	27	0	1147666432	68	4296
2026-01-14 11:32:58.35	335.67	13.56	-49.7	-51.3	15.4	6.03e-01	0	28	0	1149763584	68	4269
2026-01-14 11:32:59.36	335.68	13.45	-49.7	-51.3	15.4	6.05e-01	0	28	0	1151860736	68	4289
2026-01-14 11:33:00.37	335.69	13.35	-49.8	-51.4	15.4	6.02e-01	0	27	0	1153433600	68	4330
2026-01-14 11:33:01.38	335.70	13.24	-49.7	-51.4	15.4	6.05e-01	0	28	0	1155530752	68	4320
2026-01-14 11:33:02.38	335.70	13.13	-49.8	-51.4	15.4	6.04e-01	0	27	0	1157103616	68	4340
2026-01-14 11:33:03.39	335.71	13.02	-49.8	-51.5	15.3	6.01e-01	0	27	0	1159200768	68	4369
2026-01-14 11:33:04.40	335.72	12.91	-49.9	-51.5	15.3	6.04e-01	0	28	0	1161297920	68	4380
2026-01-14 11:33:05.41	335.73	12.81	-49.8	-51.4	15.4	6.04e-01	0	27	0	1162870784	68	4324
2026-01-14 11:33:06.41	335.73	12.70	-49.8	-51.5	15.4	6.02e-01	0	27	0	1164967936	68	4353
2026-01-14 11:33:07.42	335.74	12.60	-49.9	-51.6	15.3	6.06e-01	0	27	0	1166540800	68	4393
2026-01-14 11:33:08.43	335.75	12.49	-49.7	-51.4	15.4	6.03e-01	0	28	0	1168637952	68	4299
2026-01-14 11:33:09.44	335.76	12.39	-49.8	-51.5	15.4	6.02e-01	0	27	0	1170735104	68	4352
2026-01-14 11:33:10.44	335.76	12.28	-49.9	-51.6	15.3	6.05e-01	0	28	0	1172307968	68	4398
2026-01-14 11:33:11.45	335.77	12.18	-49.9	-51.6	15.3	6.05e-01	0	27	0	1174405120	68	4419
2026-01-14 11:33:12.46	335.78	12.08	-49.9	-51.5	15.3	6.02e-01	0	27	0	1175977984	68	4385
2026-01-14 11:33:13.47	335.79	11.97	-49.9	-51.6	15.3	6.04e-01	0	27	0	1178075136	68	4397
2026-01-14 11:33:14.47	335.79	11.87	-49.9	-51.6	15.3	6.04e-01	0	27	0	1180172288	68	4419
2026-01-14 11:33:15.48	335.80	11.77	-49.9	-51.6	15.3	6.02e-01	0	27	0	1181745152	68	4396
2026-01-14 11:33:16.49	335.81	11.67	-50.0	-51.7	15.3	6.03e-01	0	27	0	1183842304	68	4458
2026-01-14 11:33:17.50	335.82	11.57	-50.0	-51.8	15.3	6.06e-01	0	27	0	1185415168	68	4496
2026-01-14 11:33:18.51	335.82	11.47	-49.9	-51.6	15.3	6.03e-01	0	27	0	1187512320	68	4428
2026-01-14 11:33:19.51	335.83	11.37	-50.0	-51.8	15.3	6.02e-01	0	28	0	1189609472	68	4498
2026-01-14 11:33:20.52	335.84	11.27	-50.0	-51.7	15.3	6.03e-01	0	28	0	1191182336	68	4466
2026-01-14 11:33:21.53	335.85	11.17	-50.0	-51.8	15.3	6.03e-01	0	28	0	1193279488	68	4514
2026-01-14 11:33:22.54	335.85	11.07	-50.0	-51.8	15.3	6.04e-01	0	27	0	1194852352	68	4512
2026-01-14 11:33:23.54	335.86	10.98	-50.2	-51.9	15.2	6.02e-01	0	27	0	1196949504	68	4597
2026-01-14 11:33:24.55	335.87	10.88	-50.1	-51.9	15.2	6.02e-01	0	27	0	1199046656	68	4552
2026-01-14 11:33:25.56	335.88	10.78	-50.2	-52.0	15.2	6.04e-01	0	28	0	1200619520	68	4606
2026-01-14 11:33:26.57	335.88	10.68	-50.3	-52.0	15.2	6.05e-01	0	27	0	1202716672	68	4650
2026-01-14 11:33:27.58	335.89	10.59	-50.1	-51.9	15.2	6.03e-01	0	27	0	1204289536	68	4574
2026-01-14 11:33:28.59	335.90	10.49	-50.2	-52.0	15.2	6.04e-01	0	28	0	1206386688	68	4610
2026-01-14 11:33:29.60	335.90	10.40	-50.2	-52.0	15.2	6.04e-01	0	27	0	1208483840	68	4625
2026-01-14 11:33:30.61	335.91	10.30	-50.3	-52.1	15.2	6.04e-01	0	28	0	1210056704	68	4690
2026-01-14 11:33:31.62	335.92	10.21	-50.1	-51.9	15.2	6.03e-01	0	27	0	1212153856	68	4567
2026-01-14 11:33:32.63	335.93	10.11	-50.2	-52.0	15.2	6.04e-01	0	27	0	1213726720	68	4606
2026-01-14 11:33:33.63	335.93	10.02	-50.2	-52.0	15.2	6.01e-01	0	28	0	1215823872	68	4650
2026-01-14 11:33:34.64	335.94	9.93	-50.2	-52.0	15.2	6.03e-01	0	27	0	1217921024	68	4599
2026-01-14 11:33:35.65	335.95	9.83	-50.2	-52.0	15.2	6.02e-01	0	27	0	1219493888	68	4639
2026-01-14 11:33:36.65	335.95	9.74	-50.3	-52.2	15.2	6.03e-01	0	27	0	1221591040	68	4711
2026-01-14 11:33:37.66	335.96	9.65	-50.4	-52.2	15.2	6.05e-01	0	28	0	1223163904	68	4741
2026-01-14 11:33:38.67	335.97	9.56	-50.4	-52.3	15.1	6.02e-01	0	28	0	1225261056	68	4775
