passes_logs/2026/01/14/R3.2S_Murmansk/R3.2S_Murmansk__20260114_114957_NOAA_20_JPSS-1_rec.log

#Pass ID: 20260114_114957_NOAA 20 (JPSS-1)
#Satellite: NOAA 20 (JPSS-1)
#Configuration: NOAA 20
#almurnet v.1.7.20251203
#Start time: 2026-01-14 11:49:58

#Version: 2.2.20231116
#Station: R3.2S_Murmansk
#Location: 33.079688 lon 68.888172 lat
#TLE: 1 43013U 17073A   26013.84982170  .00000053  00000+0  46215-4 0  9999
#TLE: 2 43013  98.7633 314.8013 0001544  40.9009 319.2282 14.19535753422575

#Time	Az	El	Level	Level2	SNR	BER	BlckErr	Temp	State	Recorded	gain1	gain2
2026-01-14 11:49:58.45	210.01	2.07	-58.3	-74.3	3.8	1.49e+00	0	25	0	0	81	24619
2026-01-14 11:49:59.46	210.08	2.12	-58.3	-74.3	3.8	1.49e+00	0	25	104	0	81	24430
2026-01-14 11:50:00.46	210.15	2.18	-58.3	-74.3	3.8	1.49e+00	0	25	104	0	81	24449
2026-01-14 11:50:01.47	210.22	2.24	-58.3	-74.2	3.8	1.49e+00	0	25	104	0	81	24328
2026-01-14 11:50:02.48	210.29	2.29	-58.3	-74.3	3.8	1.49e+00	0	26	104	0	81	24481
2026-01-14 11:50:03.49	210.36	2.35	-58.3	-74.3	3.8	1.49e+00	0	25	104	0	81	24496
2026-01-14 11:50:04.50	210.43	2.41	-58.3	-74.3	3.8	1.49e+00	0	25	104	0	81	24543
2026-01-14 11:50:05.51	210.50	2.46	-58.3	-74.3	3.8	1.49e+00	0	26	104	0	81	24481
2026-01-14 11:50:06.52	210.57	2.52	-58.3	-74.3	3.8	1.49e+00	0	26	104	0	81	24560
2026-01-14 11:50:07.53	210.65	2.58	-58.3	-74.3	3.8	1.49e+00	0	26	104	0	81	24516
2026-01-14 11:50:08.54	210.72	2.64	-58.3	-74.3	3.8	1.49e+00	0	26	104	0	81	24520
2026-01-14 11:50:09.55	210.79	2.69	-58.3	-74.3	3.8	1.49e+00	0	26	104	0	81	24441
2026-01-14 11:50:10.56	210.86	2.75	-58.3	-74.3	3.8	1.49e+00	0	26	104	0	81	24600
2026-01-14 11:50:11.57	210.93	2.81	-58.3	-74.3	3.8	1.49e+00	0	26	104	0	81	24654
2026-01-14 11:50:12.58	211.01	2.87	-58.3	-74.3	3.8	1.49e+00	0	26	104	0	81	24530
2026-01-14 11:50:13.59	211.08	2.92	-58.3	-74.3	3.8	1.49e+00	0	26	104	0	81	24607
2026-01-14 11:50:14.60	211.15	2.98	-58.3	-74.3	3.8	1.49e+00	0	26	104	0	81	24569
2026-01-14 11:50:15.60	211.22	3.04	-58.3	-74.3	3.8	1.49e+00	0	26	104	0	81	24620
2026-01-14 11:50:16.61	211.30	3.10	-58.3	-74.3	3.8	1.49e+00	0	26	104	0	81	24565
2026-01-14 11:50:17.62	211.37	3.15	-58.3	-74.3	3.8	1.49e+00	0	26	104	0	81	24625
2026-01-14 11:50:18.63	211.45	3.21	-58.3	-74.3	3.8	1.49e+00	0	26	104	0	81	24610
2026-01-14 11:50:19.64	211.52	3.27	-58.3	-74.3	3.8	1.49e+00	0	26	104	0	81	24570
2026-01-14 11:50:20.64	211.59	3.33	-58.3	-74.3	3.8	1.49e+00	0	26	104	0	81	24570
2026-01-14 11:50:21.65	211.67	3.39	-58.3	-74.3	3.8	1.49e+00	0	26	104	0	81	24486
2026-01-14 11:50:22.66	211.74	3.44	-58.3	-74.2	3.8	1.49e+00	0	26	104	0	81	24256
2026-01-14 11:50:23.68	211.82	3.50	-58.3	-74.2	3.8	1.49e+00	0	26	104	0	81	24216
2026-01-14 11:50:24.68	211.90	3.56	-58.3	-74.1	3.8	1.49e+00	0	26	104	0	81	23939
2026-01-14 11:50:25.69	211.97	3.62	-58.3	-74.1	3.8	1.49e+00	0	26	104	0	81	24001
2026-01-14 11:50:26.70	212.05	3.68	-58.3	-74.0	3.8	1.49e+00	0	26	104	0	81	23603
2026-01-14 11:50:27.70	212.12	3.74	-58.3	-73.9	3.8	1.49e+00	0	26	104	0	81	23433
2026-01-14 11:50:28.71	212.20	3.80	-58.3	-73.6	3.8	1.49e+00	0	26	104	0	81	22759
2026-01-14 11:50:29.73	212.28	3.86	-58.3	-73.7	3.8	1.49e+00	0	26	104	0	81	22859
2026-01-14 11:50:30.73	212.36	3.91	-58.3	-73.7	3.8	1.49e+00	0	26	104	0	81	22989
2026-01-14 11:50:31.74	212.43	3.97	-58.3	-73.8	3.8	1.49e+00	0	26	104	0	81	23271
2026-01-14 11:50:32.75	212.51	4.03	-58.3	-74.2	3.8	1.49e+00	0	26	104	0	81	24142
2026-01-14 11:50:33.76	212.59	4.09	-58.3	-74.3	3.8	1.49e+00	0	26	104	0	81	24554
2026-01-14 11:50:34.77	212.67	4.15	-58.3	-74.3	3.8	1.49e+00	0	26	104	0	81	24531
2026-01-14 11:50:35.77	212.75	4.21	-58.3	-74.0	3.8	1.49e+00	0	26	104	0	81	23670
2026-01-14 11:50:36.78	212.83	4.27	-58.3	-73.2	3.8	1.49e+00	0	26	104	0	81	21638
2026-01-14 11:50:37.79	212.91	4.33	-58.3	-72.6	3.8	1.49e+00	0	26	104	0	81	20272
2026-01-14 11:50:38.80	212.99	4.39	-58.2	-71.5	4.1	1.46e+00	0	26	0	0	81	17787
2026-01-14 11:50:39.81	213.07	4.45	-58.2	-70.9	4.2	1.47e+00	0	26	0	0	81	16686
2026-01-14 11:50:40.82	213.15	4.51	-58.2	-70.7	4.2	1.36e+00	0	26	0	0	81	16201
2026-01-14 11:50:41.83	213.23	4.57	-58.2	-70.7	4.2	1.36e+00	0	26	0	0	81	16183
2026-01-14 11:50:42.84	213.31	4.63	-58.1	-70.3	4.3	1.37e+00	55	26	0	0	81	15528
2026-01-14 11:50:43.84	213.39	4.69	-58.1	-69.6	4.6	1.05e+00	0	27	0	1048576	81	14339
2026-01-14 11:50:44.86	213.47	4.75	-58.0	-68.8	4.9	8.20e-01	0	27	0	3145728	81	13062
2026-01-14 11:50:45.86	213.55	4.81	-57.9	-67.3	5.7	4.70e-01	0	26	0	5242880	81	11012
2026-01-14 11:50:46.87	213.64	4.87	-57.7	-66.1	6.5	2.78e-01	0	26	0	7340032	81	9557
2026-01-14 11:50:47.87	213.72	4.93	-57.4	-64.4	8.0	9.13e-02	0	26	0	8388608	81	7849
2026-01-14 11:50:48.88	213.80	4.99	-57.2	-63.6	8.7	1.75e-02	0	26	0	10485760	80	7580
2026-01-14 11:50:49.89	213.89	5.05	-57.0	-63.1	9.0	1.40e-02	0	27	0	12582912	80	7177
2026-01-14 11:50:50.91	213.97	5.11	-56.5	-61.1	10.8	8.59e-04	0	26	0	14680064	78	6404
2026-01-14 11:50:51.91	214.05	5.17	-58.2	-73.6	3.8	9.40e-01	0	26	104	15728640	81	22585
2026-01-14 11:50:52.92	214.14	5.24	-54.7	-57.6	13.0	3.75e-01	0	27	0	15728640	76	4804
2026-01-14 11:50:53.93	214.22	5.30	-57.0	-62.7	9.6	3.35e-05	0	27	0	17825792	79	7254
2026-01-14 11:50:54.94	214.31	5.36	-54.6	-57.7	12.9	4.07e-04	0	27	0	18874368	75	5107
2026-01-14 11:50:55.95	214.39	5.42	-54.2	-56.9	13.4	0.00e+00	0	26	0	20971520	75	4700
2026-01-14 11:50:56.96	214.48	5.48	-54.2	-57.0	13.4	0.00e+00	0	26	0	23068672	75	4711
2026-01-14 11:50:57.97	214.57	5.54	-54.2	-57.0	13.2	0.00e+00	0	26	0	25165824	74	5037
2026-01-14 11:50:58.98	214.65	5.60	-54.3	-57.2	13.1	0.00e+00	0	26	0	27262976	74	5120
2026-01-14 11:50:59.98	214.74	5.66	-54.2	-56.9	13.3	0.00e+00	0	27	0	28311552	74	4978
2026-01-14 11:51:00.99	214.83	5.73	-54.3	-57.1	13.2	0.00e+00	0	27	0	30408704	74	5074
2026-01-14 11:51:02.00	214.91	5.79	-54.2	-56.9	13.3	0.00e+00	0	26	0	32505856	74	4975
2026-01-14 11:51:03.00	215.00	5.85	-54.2	-56.9	13.3	0.00e+00	0	27	0	34603008	74	4937
2026-01-14 11:51:04.00	215.09	5.91	-54.4	-57.3	13.1	0.00e+00	0	27	0	36700160	74	5204
2026-01-14 11:51:05.01	215.18	5.97	-54.1	-56.8	13.4	0.00e+00	0	27	0	37748736	74	4907
2026-01-14 11:51:06.02	215.27	6.04	-54.2	-56.9	13.3	0.00e+00	0	27	0	39845888	74	4964
2026-01-14 11:51:07.02	215.35	6.10	-54.2	-56.9	13.3	0.00e+00	0	27	0	41943040	74	4952
2026-01-14 11:51:08.03	215.44	6.16	-54.3	-57.0	13.3	0.00e+00	0	27	0	44040192	74	5013
2026-01-14 11:51:09.04	215.53	6.22	-54.3	-57.0	13.3	0.00e+00	0	27	0	46137344	74	5039
2026-01-14 11:51:10.05	215.62	6.29	-54.1	-56.7	13.5	0.00e+00	0	27	0	48234496	74	4868
2026-01-14 11:51:11.06	215.72	6.35	-54.2	-56.8	13.4	0.00e+00	0	27	0	49283072	74	4917
2026-01-14 11:51:12.07	215.81	6.41	-54.1	-56.7	13.5	0.00e+00	0	27	0	51380224	74	4829
2026-01-14 11:51:13.08	215.90	6.47	-54.1	-56.7	13.4	0.00e+00	0	27	0	53477376	74	4870
2026-01-14 11:51:14.08	215.99	6.54	-54.2	-56.9	13.4	0.00e+00	0	27	0	55574528	74	4930
2026-01-14 11:51:15.09	216.08	6.60	-54.1	-56.7	13.5	0.00e+00	0	27	0	56623104	74	4866
2026-01-14 11:51:16.09	216.17	6.66	-54.2	-56.8	13.4	0.00e+00	0	27	0	58720256	74	4925
2026-01-14 11:51:17.10	216.27	6.72	-54.0	-56.6	13.5	0.00e+00	0	27	0	60817408	74	4805
2026-01-14 11:51:18.11	216.36	6.79	-54.0	-56.5	13.6	0.00e+00	0	27	0	62914560	74	4731
2026-01-14 11:51:19.12	216.45	6.85	-53.9	-56.4	13.6	0.00e+00	0	27	0	65011712	74	4702
2026-01-14 11:51:20.13	216.55	6.92	-54.0	-56.6	13.6	0.00e+00	0	27	0	66060288	74	4781
2026-01-14 11:51:21.13	216.64	6.98	-54.0	-56.5	13.6	0.00e+00	0	27	0	68157440	74	4722
2026-01-14 11:51:22.14	216.74	7.04	-53.9	-56.3	13.7	0.00e+00	0	27	0	70254592	74	4631
2026-01-14 11:51:23.15	216.83	7.11	-54.0	-56.5	13.6	0.00e+00	0	27	0	72351744	74	4715
2026-01-14 11:51:24.16	216.93	7.17	-53.8	-56.2	13.8	0.00e+00	0	27	0	74448896	74	4573
2026-01-14 11:51:25.17	217.02	7.23	-53.8	-56.2	13.8	0.00e+00	0	27	0	76546048	74	4558
2026-01-14 11:51:26.18	217.12	7.30	-53.8	-56.2	13.8	0.00e+00	0	27	0	77594624	74	4590
2026-01-14 11:51:27.19	217.22	7.36	-53.9	-56.3	13.8	0.00e+00	0	27	0	79691776	74	4636
2026-01-14 11:51:28.20	217.32	7.43	-53.7	-56.1	13.8	0.00e+00	0	27	0	81788928	74	4538
2026-01-14 11:51:29.20	217.41	7.49	-53.8	-56.2	13.8	0.00e+00	0	27	0	83886080	74	4565
2026-01-14 11:51:30.21	217.51	7.55	-53.8	-56.2	13.8	0.00e+00	0	27	0	85983232	74	4596
2026-01-14 11:51:31.22	217.61	7.62	-53.7	-56.1	13.9	0.00e+00	0	27	0	87031808	74	4506
2026-01-14 11:51:32.23	217.71	7.68	-53.7	-56.0	13.8	0.00e+00	0	27	0	89128960	73	4746
2026-01-14 11:51:33.24	217.81	7.75	-53.7	-56.0	13.8	0.00e+00	0	27	0	91226112	73	4747
2026-01-14 11:51:34.25	217.91	7.81	-53.6	-55.9	13.8	0.00e+00	0	27	0	93323264	73	4705
2026-01-14 11:51:35.25	218.01	7.88	-53.7	-56.0	13.8	0.00e+00	0	27	0	95420416	73	4741
2026-01-14 11:51:36.26	218.11	7.94	-53.7	-56.1	13.8	0.00e+00	0	27	0	96468992	73	4761
2026-01-14 11:51:37.27	218.21	8.01	-53.8	-56.2	13.7	0.00e+00	0	27	0	98566144	73	4824
2026-01-14 11:51:38.27	218.31	8.07	-53.7	-56.0	13.8	0.00e+00	0	27	0	100663296	73	4759
2026-01-14 11:51:39.28	218.41	8.14	-53.7	-56.1	13.8	0.00e+00	0	27	0	102760448	73	4777
2026-01-14 11:51:40.29	218.52	8.20	-53.7	-56.1	13.8	0.00e+00	0	27	0	104857600	73	4771
2026-01-14 11:51:41.29	218.62	8.27	-53.8	-56.2	13.7	0.00e+00	0	27	0	105906176	73	4853
2026-01-14 11:51:42.30	218.72	8.33	-53.9	-56.3	13.7	0.00e+00	0	27	0	108003328	73	4912
2026-01-14 11:51:43.30	218.82	8.40	-53.8	-56.2	13.7	0.00e+00	0	27	0	110100480	73	4835
2026-01-14 11:51:44.31	218.93	8.46	-53.8	-56.2	13.7	0.00e+00	0	27	0	112197632	73	4860
2026-01-14 11:51:45.32	219.03	8.53	-53.7	-56.1	13.8	0.00e+00	0	27	0	114294784	73	4787
2026-01-14 11:51:46.32	219.14	8.60	-53.7	-56.1	13.8	0.00e+00	0	27	0	115343360	73	4764
2026-01-14 11:51:47.33	219.24	8.66	-53.7	-56.1	13.8	0.00e+00	0	27	0	117440512	73	4788
2026-01-14 11:51:48.34	219.35	8.73	-53.7	-56.0	13.8	0.00e+00	0	27	0	119537664	73	4744
2026-01-14 11:51:49.35	219.46	8.79	-53.7	-56.0	13.8	0.00e+00	0	27	0	121634816	73	4753
2026-01-14 11:51:50.36	219.56	8.86	-53.7	-56.0	13.8	0.00e+00	0	27	0	123731968	73	4746
2026-01-14 11:51:51.37	219.67	8.93	-53.5	-55.8	13.9	0.00e+00	0	27	0	124780544	73	4632
2026-01-14 11:51:52.38	219.78	8.99	-53.5	-55.8	13.9	0.00e+00	0	27	0	126877696	73	4629
2026-01-14 11:51:53.39	219.89	9.06	-53.6	-55.9	13.9	0.00e+00	0	27	0	128974848	73	4657
2026-01-14 11:51:54.40	220.00	9.13	-53.4	-55.7	14.0	0.00e+00	0	27	0	131072000	73	4551
2026-01-14 11:51:55.41	220.11	9.19	-53.4	-55.6	14.1	0.00e+00	0	27	0	133169152	73	4501
2026-01-14 11:51:56.42	220.22	9.26	-53.4	-55.7	14.0	0.00e+00	0	27	0	134217728	73	4555
2026-01-14 11:51:57.42	220.33	9.33	-53.3	-55.5	14.1	0.00e+00	0	27	0	136314880	73	4467
2026-01-14 11:51:58.43	220.44	9.39	-53.4	-55.5	14.1	0.00e+00	0	27	0	138412032	73	4491
2026-01-14 11:51:59.44	220.55	9.46	-53.3	-55.5	14.1	0.00e+00	0	27	0	140509184	73	4456
2026-01-14 11:52:00.45	220.66	9.53	-53.2	-55.3	14.1	0.00e+00	0	27	0	142606336	72	4644
2026-01-14 11:52:01.45	220.77	9.60	-53.3	-55.4	14.0	0.00e+00	0	27	0	143654912	72	4700
2026-01-14 11:52:02.46	220.88	9.66	-53.3	-55.4	14.0	0.00e+00	0	27	0	145752064	72	4699
2026-01-14 11:52:03.46	221.00	9.73	-53.3	-55.4	14.1	0.00e+00	0	27	0	147849216	72	4682
2026-01-14 11:52:04.47	221.11	9.80	-53.2	-55.3	14.1	0.00e+00	0	27	0	149946368	72	4639
2026-01-14 11:52:05.47	221.22	9.86	-53.2	-55.3	14.1	0.00e+00	0	27	0	152043520	72	4639
2026-01-14 11:52:06.48	221.34	9.93	-53.3	-55.4	14.1	0.00e+00	0	27	0	153092096	72	4683
2026-01-14 11:52:07.49	221.45	10.00	-53.3	-55.5	14.0	0.00e+00	0	27	0	155189248	72	4744
2026-01-14 11:52:08.50	221.57	10.07	-53.2	-55.4	14.1	0.00e+00	0	27	0	157286400	72	4669
2026-01-14 11:52:09.51	221.69	10.14	-53.3	-55.4	14.0	0.00e+00	0	27	0	159383552	72	4671
2026-01-14 11:52:10.51	221.80	10.20	-53.3	-55.5	14.0	0.00e+00	0	27	0	161480704	72	4720
2026-01-14 11:52:11.52	221.92	10.27	-53.2	-55.4	14.1	0.00e+00	0	27	0	162529280	72	4655
2026-01-14 11:52:12.53	222.04	10.34	-53.2	-55.3	14.1	0.00e+00	0	27	0	164626432	72	4647
2026-01-14 11:52:13.53	222.15	10.41	-53.2	-55.3	14.1	0.00e+00	0	27	0	166723584	72	4645
2026-01-14 11:52:14.54	222.27	10.48	-53.3	-55.4	14.1	0.00e+00	0	27	0	168820736	72	4679
2026-01-14 11:52:15.55	222.39	10.54	-53.2	-55.4	14.1	0.00e+00	0	27	0	170917888	72	4657
2026-01-14 11:52:16.55	222.51	10.61	-53.2	-55.3	14.1	0.00e+00	0	27	0	171966464	72	4640
2026-01-14 11:52:17.55	222.63	10.68	-53.3	-55.4	14.1	0.00e+00	0	27	0	174063616	72	4679
2026-01-14 11:52:18.56	222.75	10.75	-53.4	-55.6	14.0	0.00e+00	0	27	0	176160768	72	4771
2026-01-14 11:52:19.57	222.88	10.82	-53.3	-55.5	14.0	0.00e+00	0	27	0	178257920	72	4726
2026-01-14 11:52:20.57	223.00	10.89	-53.4	-55.6	14.0	0.00e+00	0	27	0	180355072	72	4776
2026-01-14 11:52:21.58	223.12	10.96	-53.4	-55.6	14.0	0.00e+00	0	27	0	181403648	72	4768
2026-01-14 11:52:22.59	223.24	11.02	-53.3	-55.4	14.0	0.00e+00	0	27	0	183500800	72	4705
2026-01-14 11:52:23.60	223.37	11.09	-53.3	-55.4	14.1	0.00e+00	0	27	0	185597952	72	4694
2026-01-14 11:52:24.61	223.49	11.16	-53.2	-55.4	14.1	0.00e+00	0	27	0	187695104	72	4656
2026-01-14 11:52:25.62	223.62	11.23	-53.2	-55.3	14.1	0.00e+00	0	27	0	189792256	72	4623
2026-01-14 11:52:26.62	223.74	11.30	-53.2	-55.2	14.1	0.00e+00	0	27	0	190840832	72	4589
2026-01-14 11:52:27.64	223.87	11.37	-53.2	-55.2	14.1	0.00e+00	0	27	0	192937984	72	4590
2026-01-14 11:52:28.64	223.99	11.44	-53.2	-55.2	14.1	0.00e+00	0	27	0	195035136	72	4596
2026-01-14 11:52:29.65	224.12	11.51	-53.1	-55.2	14.2	0.00e+00	0	27	0	197132288	72	4579
2026-01-14 11:52:30.66	224.25	11.58	-53.0	-55.1	14.2	0.00e+00	0	27	0	199229440	72	4498
2026-01-14 11:52:31.66	224.38	11.65	-53.1	-55.1	14.2	0.00e+00	0	27	0	200278016	72	4537
2026-01-14 11:52:32.67	224.51	11.72	-53.1	-55.1	14.2	0.00e+00	0	27	0	202375168	72	4539
2026-01-14 11:52:33.68	224.64	11.79	-53.1	-55.1	14.2	0.00e+00	0	27	0	204472320	72	4519
2026-01-14 11:52:34.69	224.77	11.86	-53.0	-55.0	14.3	0.00e+00	0	27	0	206569472	72	4479
2026-01-14 11:52:35.70	224.90	11.93	-53.0	-55.1	14.2	0.00e+00	0	27	0	208666624	72	4498
2026-01-14 11:52:36.71	225.03	12.00	-53.0	-55.0	14.3	0.00e+00	0	27	0	209715200	72	4463
2026-01-14 11:52:37.71	225.16	12.07	-52.9	-54.9	14.4	0.00e+00	0	27	0	211812352	72	4392
2026-01-14 11:52:38.72	225.29	12.14	-52.8	-54.8	14.4	0.00e+00	0	27	0	213909504	72	4354
2026-01-14 11:52:39.74	225.43	12.21	-52.8	-54.7	14.4	0.00e+00	0	27	0	216006656	72	4314
2026-01-14 11:52:40.74	225.56	12.28	-52.7	-54.7	14.5	0.00e+00	0	27	0	218103808	72	4292
2026-01-14 11:52:41.74	225.69	12.35	-52.9	-54.8	14.4	0.00e+00	0	27	0	219152384	72	4375
2026-01-14 11:52:42.75	225.83	12.42	-52.7	-54.6	14.5	0.00e+00	0	27	0	221249536	72	4281
2026-01-14 11:52:43.76	225.96	12.49	-52.8	-54.7	14.4	0.00e+00	0	27	0	223346688	72	4307
2026-01-14 11:52:44.77	226.10	12.56	-52.8	-54.8	14.4	0.00e+00	0	27	0	225443840	72	4344
2026-01-14 11:52:45.78	226.24	12.63	-52.8	-54.8	14.4	0.00e+00	0	27	0	227540992	72	4345
2026-01-14 11:52:46.78	226.37	12.70	-52.8	-54.8	14.4	0.00e+00	0	27	0	228589568	72	4353
2026-01-14 11:52:47.79	226.51	12.77	-52.9	-54.8	14.4	0.00e+00	0	27	0	230686720	72	4388
2026-01-14 11:52:48.80	226.65	12.84	-53.0	-54.9	14.3	0.00e+00	0	27	0	232783872	72	4436
2026-01-14 11:52:49.81	226.79	12.91	-52.8	-54.8	14.4	0.00e+00	0	27	0	234881024	72	4366
2026-01-14 11:52:50.82	226.93	12.98	-52.9	-54.9	14.3	0.00e+00	0	27	0	236978176	72	4411
2026-01-14 11:52:51.83	227.07	13.06	-52.9	-54.8	14.4	0.00e+00	0	27	0	238026752	72	4374
2026-01-14 11:52:52.83	227.21	13.13	-52.9	-54.8	14.4	0.00e+00	0	27	0	240123904	72	4372
2026-01-14 11:52:53.84	227.35	13.20	-52.9	-54.9	14.4	0.00e+00	0	27	0	242221056	72	4410
2026-01-14 11:52:54.85	227.50	13.27	-52.8	-54.7	14.4	0.00e+00	0	27	0	244318208	72	4332
2026-01-14 11:52:55.86	227.64	13.34	-52.8	-54.7	14.4	0.00e+00	0	27	0	246415360	72	4336
2026-01-14 11:52:56.87	227.79	13.41	-52.8	-54.7	14.4	0.00e+00	0	27	0	247463936	72	4329
2026-01-14 11:52:57.88	227.93	13.48	-52.8	-54.7	14.4	0.00e+00	0	27	0	249561088	72	4340
2026-01-14 11:52:58.88	228.07	13.55	-52.8	-54.7	14.4	0.00e+00	0	27	0	251658240	72	4333
2026-01-14 11:52:59.89	228.22	13.62	-52.7	-54.6	14.5	0.00e+00	0	27	0	253755392	72	4276
2026-01-14 11:53:00.89	228.37	13.69	-52.8	-54.7	14.5	0.00e+00	0	27	0	255852544	72	4304
2026-01-14 11:53:01.90	228.51	13.77	-52.8	-54.7	14.4	0.00e+00	0	27	0	256901120	72	4328
2026-01-14 11:53:02.91	228.66	13.84	-52.7	-54.6	14.5	0.00e+00	0	27	0	258998272	72	4291
2026-01-14 11:53:03.92	228.81	13.91	-52.6	-54.5	14.4	0.00e+00	0	27	0	261095424	71	4493
2026-01-14 11:53:04.92	228.96	13.98	-52.7	-54.6	14.4	0.00e+00	0	27	0	263192576	71	4503
2026-01-14 11:53:05.93	229.11	14.05	-52.6	-54.5	14.4	0.00e+00	0	27	0	265289728	71	4479
2026-01-14 11:53:06.94	229.26	14.12	-52.5	-54.4	14.5	0.00e+00	0	27	0	266338304	71	4428
2026-01-14 11:53:07.95	229.41	14.20	-52.6	-54.5	14.4	0.00e+00	0	27	0	268435456	71	4442
2026-01-14 11:53:08.95	229.56	14.27	-52.5	-54.4	14.5	0.00e+00	0	27	0	270532608	71	4419
2026-01-14 11:53:09.96	229.72	14.34	-52.6	-54.5	14.4	0.00e+00	0	27	0	272629760	71	4448
2026-01-14 11:53:10.97	229.87	14.41	-52.6	-54.5	14.4	0.00e+00	0	27	0	274726912	71	4453
2026-01-14 11:53:11.97	230.02	14.48	-52.5	-54.4	14.5	0.00e+00	0	27	0	275775488	71	4429
2026-01-14 11:53:12.98	230.18	14.55	-52.6	-54.5	14.4	0.00e+00	0	27	0	277872640	71	4480
2026-01-14 11:53:13.98	230.33	14.62	-52.7	-54.6	14.4	0.00e+00	0	27	0	279969792	71	4502
2026-01-14 11:53:14.99	230.49	14.70	-52.6	-54.4	14.5	0.00e+00	0	27	0	282066944	71	4436
2026-01-14 11:53:16.00	230.65	14.77	-52.5	-54.4	14.5	0.00e+00	0	27	0	284164096	71	4412
2026-01-14 11:53:17.00	230.81	14.84	-52.5	-54.3	14.5	0.00e+00	0	27	0	285212672	71	4370
2026-01-14 11:53:18.00	230.96	14.91	-52.5	-54.4	14.5	0.00e+00	0	27	0	287309824	71	4401
2026-01-14 11:53:19.01	231.12	14.98	-52.5	-54.3	14.5	0.00e+00	0	27	0	289406976	71	4391
2026-01-14 11:53:20.02	231.28	15.05	-52.4	-54.2	14.5	0.00e+00	0	27	0	291504128	71	4338
2026-01-14 11:53:21.03	231.44	15.13	-52.4	-54.2	14.5	0.00e+00	0	27	0	293601280	71	4331
2026-01-14 11:53:22.04	231.61	15.20	-52.3	-54.2	14.6	0.00e+00	0	27	0	294649856	71	4294
2026-01-14 11:53:23.05	231.77	15.27	-52.4	-54.3	14.5	0.00e+00	0	27	0	296747008	71	4343
2026-01-14 11:53:24.06	231.93	15.34	-52.4	-54.2	14.5	0.00e+00	0	27	0	298844160	71	4334
2026-01-14 11:53:25.07	232.10	15.41	-52.4	-54.2	14.6	0.00e+00	0	27	0	300941312	71	4305
2026-01-14 11:53:26.08	232.26	15.48	-52.3	-54.1	14.6	0.00e+00	0	27	0	303038464	71	4270
2026-01-14 11:53:27.08	232.43	15.56	-52.3	-54.1	14.6	0.00e+00	0	27	0	304087040	71	4256
2026-01-14 11:53:28.09	232.59	15.63	-52.4	-54.2	14.6	0.00e+00	0	27	0	306184192	71	4315
2026-01-14 11:53:29.10	232.76	15.70	-52.3	-54.1	14.6	0.00e+00	0	27	0	308281344	71	4260
2026-01-14 11:53:30.11	232.93	15.77	-52.3	-54.1	14.6	0.00e+00	0	27	0	310378496	71	4270
2026-01-14 11:53:31.12	233.10	15.84	-52.3	-54.1	14.6	0.00e+00	0	27	0	312475648	71	4290
2026-01-14 11:53:32.12	233.27	15.91	-52.3	-54.2	14.6	0.00e+00	0	27	0	314572800	71	4292
2026-01-14 11:53:33.13	233.44	15.99	-52.4	-54.2	14.6	0.00e+00	0	27	0	315621376	71	4322
2026-01-14 11:53:34.14	233.61	16.06	-52.4	-54.2	14.6	0.00e+00	0	27	0	317718528	71	4314
2026-01-14 11:53:35.15	233.78	16.13	-52.4	-54.3	14.5	0.00e+00	0	27	0	319815680	71	4351
2026-01-14 11:53:36.16	233.95	16.20	-52.5	-54.4	14.5	0.00e+00	0	27	0	321912832	71	4405
2026-01-14 11:53:37.16	234.12	16.27	-52.6	-54.5	14.5	0.00e+00	0	27	0	324009984	71	4450
2026-01-14 11:53:38.17	234.30	16.34	-52.6	-54.5	14.4	0.00e+00	0	27	0	325058560	71	4486
2026-01-14 11:53:39.18	234.47	16.41	-52.7	-54.6	14.4	0.00e+00	0	27	0	327155712	71	4494
2026-01-14 11:53:40.19	234.65	16.49	-52.7	-54.6	14.4	0.00e+00	0	27	0	329252864	71	4516
2026-01-14 11:53:41.20	234.83	16.56	-52.7	-54.6	14.4	0.00e+00	0	27	0	331350016	71	4535
2026-01-14 11:53:42.20	235.00	16.63	-52.6	-54.5	14.4	0.00e+00	0	27	0	332398592	71	4474
2026-01-14 11:53:43.21	235.18	16.70	-52.8	-54.7	14.4	0.00e+00	0	27	0	334495744	71	4583
2026-01-14 11:53:44.22	235.36	16.77	-52.7	-54.6	14.4	0.00e+00	0	27	0	336592896	71	4523
2026-01-14 11:53:45.23	235.54	16.84	-52.7	-54.6	14.4	0.00e+00	0	27	0	338690048	71	4522
2026-01-14 11:53:46.23	235.72	16.91	-52.8	-54.7	14.4	0.00e+00	0	27	0	340787200	71	4561
2026-01-14 11:53:47.24	235.90	16.98	-52.7	-54.5	14.4	0.00e+00	0	27	0	342884352	71	4491
2026-01-14 11:53:48.25	236.09	17.05	-52.6	-54.4	14.5	0.00e+00	0	27	0	343932928	71	4420
2026-01-14 11:53:49.25	236.27	17.12	-52.6	-54.5	14.5	0.00e+00	0	27	0	346030080	71	4442
2026-01-14 11:53:50.26	236.45	17.20	-52.4	-54.2	14.6	0.00e+00	0	27	0	348127232	71	4312
2026-01-14 11:53:51.27	236.64	17.27	-52.4	-54.3	14.6	0.00e+00	0	27	0	350224384	71	4342
2026-01-14 11:53:52.28	236.82	17.34	-52.5	-54.3	14.6	0.00e+00	0	27	0	352321536	71	4352
2026-01-14 11:53:53.29	237.01	17.41	-52.5	-54.3	14.5	0.00e+00	0	27	0	353370112	71	4350
2026-01-14 11:53:54.30	237.20	17.48	-52.3	-54.1	14.7	0.00e+00	0	27	0	355467264	71	4251
2026-01-14 11:53:55.31	237.39	17.55	-52.3	-54.1	14.6	0.00e+00	0	27	0	357564416	71	4249
2026-01-14 11:53:56.31	237.57	17.62	-52.4	-54.2	14.6	0.00e+00	0	27	0	359661568	71	4295
2026-01-14 11:53:57.32	237.76	17.69	-52.2	-54.0	14.7	0.00e+00	0	27	0	361758720	71	4218
2026-01-14 11:53:58.33	237.96	17.76	-52.2	-54.0	14.7	0.00e+00	0	27	0	362807296	71	4223
2026-01-14 11:53:59.33	238.15	17.83	-52.2	-53.9	14.6	0.00e+00	0	27	0	364904448	70	4439
2026-01-14 11:54:00.34	238.34	17.90	-52.1	-53.8	14.6	0.00e+00	0	27	0	367001600	70	4349
2026-01-14 11:54:01.35	238.53	17.97	-52.0	-53.7	14.7	0.00e+00	0	27	0	369098752	70	4292
2026-01-14 11:54:02.35	238.72	18.04	-52.0	-53.6	14.7	0.00e+00	0	27	0	371195904	70	4291
2026-01-14 11:54:03.36	238.92	18.11	-51.9	-53.6	14.7	0.00e+00	0	27	0	372244480	70	4246
2026-01-14 11:54:04.37	239.12	18.18	-51.9	-53.6	14.7	0.00e+00	0	27	0	374341632	70	4286
2026-01-14 11:54:05.38	239.31	18.25	-52.0	-53.6	14.7	0.00e+00	0	27	0	376438784	70	4288
2026-01-14 11:54:06.39	239.51	18.31	-52.0	-53.8	14.7	0.00e+00	0	27	0	378535936	70	4345
2026-01-14 11:54:07.39	239.71	18.38	-51.9	-53.6	14.7	0.00e+00	0	27	0	380633088	70	4281
2026-01-14 11:54:08.40	239.91	18.45	-52.0	-53.6	14.7	0.00e+00	0	27	0	381681664	70	4288
2026-01-14 11:54:09.41	240.11	18.52	-52.0	-53.6	14.7	0.00e+00	0	27	0	383778816	70	4289
2026-01-14 11:54:10.42	240.31	18.59	-51.8	-53.5	14.8	0.00e+00	0	27	0	385875968	70	4218
2026-01-14 11:54:11.42	240.51	18.66	-51.8	-53.5	14.8	0.00e+00	0	27	0	387973120	70	4201
2026-01-14 11:54:12.43	240.71	18.73	-51.9	-53.5	14.8	0.00e+00	0	27	0	390070272	70	4241
2026-01-14 11:54:13.44	240.92	18.79	-51.8	-53.4	14.8	0.00e+00	0	27	0	391118848	70	4181
2026-01-14 11:54:14.45	241.12	18.86	-51.6	-53.3	14.7	0.00e+00	0	27	0	393216000	69	4348
2026-01-14 11:54:15.45	241.33	18.93	-51.6	-53.3	14.7	0.00e+00	0	27	0	395313152	69	4355
2026-01-14 11:54:16.46	241.53	19.00	-51.7	-53.3	14.7	0.00e+00	0	27	0	397410304	69	4374
2026-01-14 11:54:17.47	241.74	19.06	-51.7	-53.3	14.7	0.00e+00	0	27	0	399507456	69	4389
2026-01-14 11:54:18.48	241.95	19.13	-51.7	-53.4	14.7	0.00e+00	0	27	0	400556032	69	4412
2026-01-14 11:54:19.49	242.16	19.20	-51.8	-53.5	14.6	0.00e+00	0	27	0	402653184	69	4476
2026-01-14 11:54:20.50	242.37	19.27	-51.7	-53.4	14.7	0.00e+00	0	27	0	404750336	69	4410
2026-01-14 11:54:21.51	242.58	19.33	-51.8	-53.4	14.7	0.00e+00	0	27	0	406847488	69	4437
2026-01-14 11:54:22.51	242.79	19.40	-51.6	-53.3	14.8	0.00e+00	0	27	0	408944640	69	4353
2026-01-14 11:54:23.52	243.01	19.46	-51.7	-53.3	14.7	0.00e+00	0	27	0	409993216	69	4378
2026-01-14 11:54:24.53	243.22	19.53	-51.7	-53.3	14.7	0.00e+00	0	27	0	412090368	69	4385
2026-01-14 11:54:25.54	243.43	19.60	-51.7	-53.3	14.7	0.00e+00	0	27	0	414187520	69	4382
2026-01-14 11:54:26.55	243.65	19.66	-51.8	-53.4	14.7	0.00e+00	0	27	0	416284672	69	4423
2026-01-14 11:54:27.56	243.87	19.73	-51.9	-53.6	14.6	0.00e+00	0	27	0	418381824	69	4502
2026-01-14 11:54:28.57	244.08	19.79	-51.9	-53.6	14.6	0.00e+00	0	27	0	419430400	69	4532
2026-01-14 11:54:29.58	244.30	19.86	-51.9	-53.6	14.6	0.00e+00	0	27	0	421527552	69	4539
2026-01-14 11:54:30.59	244.52	19.92	-51.9	-53.7	14.6	0.00e+00	0	27	0	423624704	69	4546
2026-01-14 11:54:31.59	244.74	19.99	-51.9	-53.6	14.6	0.00e+00	0	27	0	425721856	69	4536
2026-01-14 11:54:32.60	244.96	20.05	-52.0	-53.7	14.6	0.00e+00	0	27	0	427819008	69	4561
2026-01-14 11:54:33.61	245.18	20.11	-52.0	-53.7	14.6	0.00e+00	0	27	0	428867584	69	4550
2026-01-14 11:54:34.62	245.41	20.18	-51.8	-53.5	14.6	0.00e+00	0	27	0	430964736	69	4471
2026-01-14 11:54:35.63	245.63	20.24	-52.0	-53.7	14.6	0.00e+00	0	27	0	433061888	69	4552
2026-01-14 11:54:36.63	245.85	20.30	-52.1	-53.8	14.5	0.00e+00	0	27	0	435159040	69	4620
2026-01-14 11:54:37.64	246.08	20.37	-52.2	-53.9	14.5	0.00e+00	0	27	0	437256192	69	4690
2026-01-14 11:54:38.65	246.31	20.43	-52.3	-54.1	14.4	0.00e+00	0	27	0	438304768	69	4783
2026-01-14 11:54:39.66	246.53	20.49	-52.4	-54.3	14.5	0.00e+00	0	27	0	440401920	70	4600
2026-01-14 11:54:40.67	246.76	20.55	-52.6	-54.5	14.4	0.00e+00	0	27	0	442499072	70	4711
2026-01-14 11:54:41.67	246.99	20.61	-52.6	-54.5	14.3	0.00e+00	0	27	0	444596224	70	4736
2026-01-14 11:54:42.68	247.22	20.68	-52.7	-54.6	14.3	0.00e+00	0	27	0	446693376	70	4770
2026-01-14 11:54:43.69	247.45	20.74	-52.7	-54.5	14.3	0.00e+00	0	27	0	447741952	70	4744
2026-01-14 11:54:44.70	247.68	20.80	-52.7	-54.5	14.3	0.00e+00	0	27	0	449839104	70	4758
2026-01-14 11:54:45.71	247.92	20.86	-52.7	-54.6	14.3	0.00e+00	0	27	0	451936256	70	4795
2026-01-14 11:54:46.71	248.15	20.92	-52.8	-54.7	14.3	0.00e+00	0	27	0	454033408	70	4818
2026-01-14 11:54:47.72	248.38	20.98	-52.9	-54.8	14.3	0.00e+00	0	27	0	456130560	70	4878
2026-01-14 11:54:48.72	248.61	21.04	-53.0	-54.9	14.3	0.00e+00	0	27	0	457179136	71	4693
2026-01-14 11:54:49.73	248.85	21.10	-53.1	-55.1	14.2	0.00e+00	0	27	0	459276288	71	4810
2026-01-14 11:54:50.74	249.09	21.15	-53.3	-55.4	14.1	0.00e+00	0	27	0	461373440	71	4934
2026-01-14 11:54:51.75	249.33	21.21	-53.3	-55.4	14.1	0.00e+00	0	27	0	463470592	71	4951
2026-01-14 11:54:52.76	249.57	21.27	-53.4	-55.5	14.0	0.00e+00	0	27	0	465567744	71	4995
2026-01-14 11:54:53.76	249.80	21.33	-53.4	-55.4	14.1	0.00e+00	0	27	0	467664896	71	4972
2026-01-14 11:54:54.77	250.04	21.39	-53.3	-55.4	14.1	0.00e+00	0	27	0	468713472	71	4934
2026-01-14 11:54:55.78	250.28	21.44	-53.2	-55.2	14.2	0.00e+00	0	27	0	470810624	71	4828
2026-01-14 11:54:56.79	250.53	21.50	-53.0	-55.0	14.2	0.00e+00	0	27	0	472907776	71	4729
2026-01-14 11:54:57.79	250.77	21.55	-52.8	-54.6	14.4	0.00e+00	0	27	0	475004928	71	4539
2026-01-14 11:54:58.80	251.01	21.61	-52.7	-54.6	14.5	0.00e+00	0	27	0	476053504	71	4509
2026-01-14 11:54:59.81	251.26	21.67	-52.6	-54.4	14.5	0.00e+00	0	27	0	478150656	71	4418
2026-01-14 11:55:00.82	251.50	21.72	-52.5	-54.4	14.5	0.00e+00	0	27	0	480247808	71	4394
2026-01-14 11:55:01.83	251.75	21.78	-52.7	-54.6	14.4	0.00e+00	0	27	0	482344960	71	4508
2026-01-14 11:55:02.84	252.00	21.83	-52.7	-54.6	14.4	0.00e+00	0	27	0	484442112	71	4511
2026-01-14 11:55:03.85	252.25	21.88	-52.8	-54.7	14.4	0.00e+00	0	27	0	485490688	71	4569
2026-01-14 11:55:04.86	252.50	21.94	-52.8	-54.7	14.4	0.00e+00	0	27	0	487587840	71	4549
2026-01-14 11:55:05.87	252.75	21.99	-52.8	-54.7	14.4	0.00e+00	0	27	0	489684992	71	4596
2026-01-14 11:55:06.88	253.00	22.04	-52.8	-54.7	14.4	0.00e+00	0	27	0	491782144	71	4554
2026-01-14 11:55:07.88	253.25	22.09	-52.7	-54.6	14.4	0.00e+00	0	27	0	493879296	71	4504
2026-01-14 11:55:08.89	253.50	22.15	-52.8	-54.6	14.4	0.00e+00	0	27	0	495976448	71	4545
2026-01-14 11:55:09.89	253.75	22.20	-52.8	-54.7	14.4	0.00e+00	0	27	0	497025024	71	4554
2026-01-14 11:55:10.90	254.00	22.25	-52.7	-54.6	14.5	0.00e+00	0	27	0	499122176	71	4494
2026-01-14 11:55:11.91	254.26	22.30	-52.7	-54.5	14.5	0.00e+00	0	27	0	501219328	71	4482
2026-01-14 11:55:12.91	254.51	22.35	-52.7	-54.5	14.5	0.00e+00	0	27	0	503316480	71	4477
2026-01-14 11:55:13.92	254.77	22.39	-52.7	-54.5	14.5	0.00e+00	0	27	0	505413632	71	4458
2026-01-14 11:55:14.92	255.02	22.44	-52.8	-54.7	14.4	0.00e+00	0	27	0	506462208	71	4569
2026-01-14 11:55:15.93	255.28	22.49	-53.0	-54.9	14.3	0.00e+00	0	27	0	508559360	71	4674
2026-01-14 11:55:16.94	255.54	22.54	-53.2	-55.3	14.2	0.00e+00	0	27	0	510656512	71	4871
2026-01-14 11:55:17.94	255.80	22.59	-53.4	-55.5	14.0	0.00e+00	0	27	0	512753664	71	4997
2026-01-14 11:55:18.95	256.06	22.63	-53.4	-55.5	14.1	0.00e+00	0	27	0	513802240	72	4741
2026-01-14 11:55:19.96	256.32	22.68	-53.5	-55.6	14.1	0.00e+00	0	27	0	515899392	72	4803
2026-01-14 11:55:20.97	256.58	22.72	-53.5	-55.6	14.1	0.00e+00	0	27	0	517996544	72	4766
2026-01-14 11:55:21.97	256.84	22.77	-53.4	-55.4	14.2	0.00e+00	0	27	0	520093696	72	4670
2026-01-14 11:55:22.98	257.10	22.81	-53.2	-55.2	14.3	0.00e+00	0	27	0	522190848	72	4547
2026-01-14 11:55:23.99	257.37	22.86	-53.3	-55.3	14.2	0.00e+00	0	27	0	524288000	72	4609
2026-01-14 11:55:25.00	257.63	22.90	-53.2	-55.1	14.3	0.00e+00	0	27	0	525336576	72	4541
2026-01-14 11:55:26.00	257.89	22.94	-53.2	-55.1	14.3	0.00e+00	0	27	0	527433728	72	4537
2026-01-14 11:55:27.01	258.16	22.99	-53.1	-55.0	14.4	0.00e+00	0	27	0	529530880	72	4481
2026-01-14 11:55:28.02	258.43	23.03	-53.1	-55.0	14.3	0.00e+00	0	27	0	531628032	72	4483
2026-01-14 11:55:29.03	258.70	23.07	-53.1	-55.1	14.3	0.00e+00	0	27	0	533725184	72	4511
2026-01-14 11:55:30.04	258.96	23.11	-53.2	-55.1	14.3	0.00e+00	0	27	0	534773760	72	4540
2026-01-14 11:55:31.05	259.23	23.15	-53.2	-55.2	14.3	0.00e+00	0	27	0	536870912	72	4554
2026-01-14 11:55:32.06	259.50	23.19	-53.3	-55.3	14.2	0.00e+00	0	27	0	538968064	72	4605
2026-01-14 11:55:33.07	259.77	23.23	-53.2	-55.2	14.3	0.00e+00	0	27	0	541065216	72	4576
2026-01-14 11:55:34.07	260.04	23.27	-53.2	-55.2	14.3	0.00e+00	0	27	0	543162368	72	4578
2026-01-14 11:55:35.08	260.31	23.30	-53.1	-55.1	14.3	0.00e+00	0	27	0	544210944	72	4512
2026-01-14 11:55:36.09	260.58	23.34	-53.0	-54.9	14.4	0.00e+00	0	27	0	546308096	72	4427
2026-01-14 11:55:37.10	260.86	23.38	-53.0	-54.9	14.4	0.00e+00	0	27	0	548405248	72	4398
2026-01-14 11:55:38.10	261.13	23.41	-53.0	-55.0	14.4	0.00e+00	0	27	0	550502400	72	4442
2026-01-14 11:55:39.11	261.40	23.45	-53.1	-55.0	14.4	0.00e+00	0	27	0	552599552	72	4480
2026-01-14 11:55:40.12	261.68	23.48	-53.3	-55.3	14.3	0.00e+00	0	27	0	553648128	72	4612
2026-01-14 11:55:41.13	261.95	23.52	-53.3	-55.4	14.2	0.00e+00	0	27	0	555745280	72	4652
2026-01-14 11:55:42.13	262.22	23.55	-53.5	-55.5	14.1	0.00e+00	0	27	0	557842432	72	4737
2026-01-14 11:55:43.14	262.50	23.58	-53.5	-55.6	14.1	0.00e+00	0	27	0	559939584	72	4783
2026-01-14 11:55:44.14	262.78	23.62	-53.5	-55.6	14.1	0.00e+00	0	27	0	562036736	72	4779
2026-01-14 11:55:45.15	263.05	23.65	-53.5	-55.6	14.1	0.00e+00	0	27	0	563085312	72	4802
2026-01-14 11:55:46.16	263.33	23.68	-53.7	-55.8	14.0	0.00e+00	0	27	0	565182464	72	4887
2026-01-14 11:55:47.17	263.61	23.71	-53.5	-55.5	14.1	0.00e+00	0	27	0	567279616	72	4734
2026-01-14 11:55:48.18	263.89	23.74	-53.5	-55.6	14.1	0.00e+00	0	27	0	569376768	72	4779
2026-01-14 11:55:49.18	264.17	23.77	-53.5	-55.5	14.1	0.00e+00	0	27	0	571473920	72	4746
2026-01-14 11:55:50.19	264.45	23.79	-53.5	-55.5	14.1	0.00e+00	0	27	0	572522496	72	4748
2026-01-14 11:55:51.20	264.73	23.82	-53.7	-55.8	14.0	0.00e+00	0	27	0	574619648	72	4899
2026-01-14 11:55:52.21	265.01	23.85	-53.7	-55.9	14.0	0.00e+00	0	27	0	576716800	72	4954
2026-01-14 11:55:53.22	265.29	23.88	-53.7	-55.9	13.9	0.00e+00	0	27	0	578813952	72	4957
2026-01-14 11:55:54.23	265.57	23.90	-53.8	-56.0	13.9	0.00e+00	0	27	0	580911104	72	5014
2026-01-14 11:55:55.24	265.85	23.93	-53.8	-55.9	13.9	0.00e+00	0	27	0	581959680	72	4982
2026-01-14 11:55:56.25	266.13	23.95	-53.8	-55.9	14.0	0.00e+00	0	27	0	584056832	72	4967
2026-01-14 11:55:57.25	266.42	23.97	-53.8	-55.9	14.0	0.00e+00	0	27	0	586153984	72	4954
2026-01-14 11:55:58.26	266.70	24.00	-53.6	-55.7	14.0	0.00e+00	0	27	0	588251136	72	4865
2026-01-14 11:55:59.27	266.98	24.02	-53.4	-55.5	14.2	0.00e+00	0	27	0	590348288	72	4720
2026-01-14 11:56:00.28	267.27	24.04	-53.2	-55.2	14.3	0.00e+00	0	27	0	591396864	72	4546
2026-01-14 11:56:01.29	267.55	24.06	-53.0	-54.9	14.4	0.00e+00	0	27	0	593494016	72	4438
2026-01-14 11:56:02.30	267.84	24.08	-52.8	-54.7	14.5	0.00e+00	0	27	0	595591168	72	4304
2026-01-14 11:56:03.30	268.12	24.10	-52.9	-54.7	14.5	0.00e+00	0	27	0	597688320	72	4316
2026-01-14 11:56:04.31	268.41	24.12	-52.9	-54.8	14.5	0.00e+00	0	27	0	599785472	72	4354
2026-01-14 11:56:05.32	268.69	24.14	-52.7	-54.5	14.6	0.00e+00	0	27	0	600834048	72	4225
2026-01-14 11:56:06.33	268.98	24.15	-52.8	-54.6	14.5	0.00e+00	0	27	0	602931200	72	4269
2026-01-14 11:56:07.34	269.26	24.17	-52.8	-54.6	14.5	0.00e+00	0	27	0	605028352	72	4286
2026-01-14 11:56:08.35	269.55	24.19	-52.8	-54.7	14.5	0.00e+00	0	27	0	607125504	72	4316
2026-01-14 11:56:09.36	269.84	24.20	-52.8	-54.7	14.5	0.00e+00	0	27	0	609222656	72	4314
2026-01-14 11:56:10.37	270.13	24.21	-52.8	-54.7	14.5	0.00e+00	0	27	0	610271232	72	4297
2026-01-14 11:56:11.37	270.41	24.23	-52.7	-54.5	14.6	0.00e+00	0	27	0	612368384	72	4240
2026-01-14 11:56:12.38	270.70	24.24	-52.6	-54.4	14.5	0.00e+00	0	27	0	614465536	71	4413
2026-01-14 11:56:13.38	270.98	24.25	-52.5	-54.3	14.6	0.00e+00	0	27	0	616562688	71	4380
2026-01-14 11:56:14.40	271.28	24.26	-52.7	-54.5	14.5	0.00e+00	0	27	0	618659840	71	4489
2026-01-14 11:56:15.40	271.56	24.27	-52.9	-54.8	14.4	0.00e+00	0	27	0	619708416	71	4602
2026-01-14 11:56:16.41	271.85	24.28	-53.1	-55.1	14.2	0.00e+00	0	27	0	621805568	71	4774
2026-01-14 11:56:17.42	272.14	24.29	-53.3	-55.3	14.1	0.00e+00	0	27	0	623902720	71	4922
2026-01-14 11:56:18.43	272.43	24.30	-53.4	-55.5	14.1	0.00e+00	0	27	0	625999872	72	4721
2026-01-14 11:56:19.43	272.71	24.31	-53.5	-55.6	14.1	0.00e+00	0	27	0	628097024	72	4788
2026-01-14 11:56:20.44	273.00	24.32	-53.3	-55.3	14.2	0.00e+00	0	27	0	629145600	72	4606
2026-01-14 11:56:21.45	273.29	24.32	-53.2	-55.1	14.3	0.00e+00	0	27	0	631242752	72	4532
2026-01-14 11:56:22.46	273.58	24.33	-53.1	-55.0	14.4	0.00e+00	0	27	0	633339904	72	4469
2026-01-14 11:56:23.47	273.87	24.33	-52.9	-54.8	14.5	0.00e+00	0	27	0	635437056	72	4360
2026-01-14 11:56:24.48	274.16	24.34	-52.8	-54.7	14.5	0.00e+00	0	27	0	637534208	72	4312
2026-01-14 11:56:25.49	274.45	24.34	-52.9	-54.8	14.5	0.00e+00	0	27	0	638582784	72	4376
2026-01-14 11:56:26.50	274.74	24.34	-52.9	-54.8	14.4	0.00e+00	0	27	0	640679936	72	4364
2026-01-14 11:56:27.51	275.03	24.34	-53.1	-55.0	14.4	0.00e+00	0	27	0	642777088	72	4444
2026-01-14 11:56:28.52	275.32	24.34	-53.2	-55.1	14.3	0.00e+00	0	27	0	644874240	72	4525
2026-01-14 11:56:29.53	275.61	24.34	-53.3	-55.2	14.3	0.00e+00	0	27	0	646971392	72	4585
2026-01-14 11:56:30.54	275.90	24.34	-53.3	-55.3	14.3	0.00e+00	0	27	0	649068544	72	4600
2026-01-14 11:56:31.54	276.19	24.34	-53.2	-55.1	14.3	0.00e+00	0	27	0	650117120	72	4541
2026-01-14 11:56:32.55	276.48	24.34	-53.2	-55.1	14.3	0.00e+00	0	27	0	652214272	72	4542
2026-01-14 11:56:33.56	276.77	24.34	-53.0	-55.0	14.4	0.00e+00	0	27	0	654311424	72	4446
2026-01-14 11:56:34.57	277.06	24.33	-52.9	-54.8	14.5	0.00e+00	0	27	0	656408576	72	4360
2026-01-14 11:56:35.57	277.34	24.33	-52.8	-54.6	14.6	0.00e+00	0	27	0	658505728	72	4284
2026-01-14 11:56:36.59	277.63	24.32	-52.9	-54.8	14.5	0.00e+00	0	27	0	659554304	72	4352
2026-01-14 11:56:37.59	277.92	24.32	-53.0	-54.9	14.4	0.00e+00	0	27	0	661651456	72	4418
2026-01-14 11:56:38.60	278.21	24.31	-53.1	-55.0	14.4	0.00e+00	0	27	0	663748608	72	4492
2026-01-14 11:56:39.61	278.50	24.30	-53.2	-55.2	14.3	0.00e+00	0	27	0	665845760	72	4583
2026-01-14 11:56:40.62	278.79	24.29	-53.3	-55.3	14.3	0.00e+00	0	27	0	667942912	72	4602
2026-01-14 11:56:41.63	279.08	24.28	-53.3	-55.2	14.3	0.00e+00	0	27	0	668991488	72	4588
2026-01-14 11:56:42.63	279.36	24.28	-53.2	-55.2	14.3	0.00e+00	0	27	0	671088640	72	4548
2026-01-14 11:56:43.64	279.65	24.26	-53.2	-55.1	14.3	0.00e+00	0	27	0	673185792	72	4528
2026-01-14 11:56:44.65	279.94	24.25	-53.1	-55.0	14.4	0.00e+00	0	27	0	675282944	72	4472
2026-01-14 11:56:45.66	280.23	24.24	-53.0	-54.9	14.4	0.00e+00	0	27	0	677380096	72	4431
2026-01-14 11:56:46.67	280.51	24.23	-53.0	-54.8	14.5	0.00e+00	0	27	0	678428672	72	4389
2026-01-14 11:56:47.67	280.80	24.22	-52.8	-54.6	14.6	0.00e+00	0	27	0	680525824	72	4255
2026-01-14 11:56:48.68	281.09	24.20	-52.7	-54.4	14.5	0.00e+00	0	27	0	682622976	71	4440
2026-01-14 11:56:49.69	281.37	24.19	-52.6	-54.4	14.5	0.00e+00	0	27	0	684720128	71	4422
2026-01-14 11:56:50.70	281.66	24.17	-52.8	-54.6	14.4	0.00e+00	0	27	0	686817280	71	4543
2026-01-14 11:56:51.70	281.94	24.16	-53.0	-54.9	14.3	0.00e+00	0	27	0	687865856	71	4702
2026-01-14 11:56:52.71	282.23	24.14	-53.3	-55.2	14.2	0.00e+00	0	27	0	689963008	71	4854
2026-01-14 11:56:53.72	282.51	24.12	-53.3	-55.3	14.1	0.00e+00	0	27	0	692060160	71	4916
2026-01-14 11:56:54.73	282.80	24.10	-53.5	-55.5	14.2	0.00e+00	0	27	0	694157312	72	4724
2026-01-14 11:56:55.73	283.08	24.08	-53.5	-55.5	14.2	0.00e+00	0	27	0	696254464	72	4755
2026-01-14 11:56:56.74	283.37	24.06	-53.6	-55.6	14.1	0.00e+00	0	27	0	697303040	72	4802
2026-01-14 11:56:57.75	283.65	24.04	-53.6	-55.6	14.1	0.00e+00	0	27	0	699400192	72	4797
2026-01-14 11:56:58.76	283.94	24.02	-53.6	-55.7	14.1	0.00e+00	0	27	0	701497344	72	4817
2026-01-14 11:56:59.77	284.22	24.00	-53.5	-55.5	14.1	0.00e+00	0	27	0	703594496	72	4748
2026-01-14 11:57:00.78	284.50	23.98	-53.4	-55.4	14.2	0.00e+00	0	27	0	705691648	72	4687
2026-01-14 11:57:01.78	284.78	23.95	-53.5	-55.5	14.2	0.00e+00	0	27	0	706740224	72	4723
2026-01-14 11:57:02.79	285.07	23.93	-53.2	-55.2	14.3	0.00e+00	0	27	0	708837376	72	4558
2026-01-14 11:57:03.80	285.35	23.90	-53.2	-55.1	14.3	0.00e+00	0	27	0	710934528	72	4541
2026-01-14 11:57:04.80	285.63	23.88	-53.1	-55.1	14.3	0.00e+00	0	27	0	713031680	72	4498
2026-01-14 11:57:05.81	285.91	23.85	-53.1	-55.0	14.4	0.00e+00	0	27	0	715128832	72	4469
2026-01-14 11:57:06.82	286.19	23.83	-53.1	-55.0	14.4	0.00e+00	0	27	0	716177408	72	4486
2026-01-14 11:57:07.83	286.47	23.80	-53.2	-55.2	14.3	0.00e+00	0	27	0	718274560	72	4555
2026-01-14 11:57:08.84	286.75	23.77	-53.3	-55.3	14.3	0.00e+00	0	27	0	720371712	72	4632
2026-01-14 11:57:09.85	287.03	23.74	-53.4	-55.4	14.2	0.00e+00	0	27	0	722468864	72	4689
2026-01-14 11:57:10.86	287.30	23.71	-53.4	-55.4	14.2	0.00e+00	0	27	0	724566016	72	4678
2026-01-14 11:57:11.87	287.58	23.68	-53.1	-55.0	14.4	0.00e+00	0	27	0	725614592	72	4474
2026-01-14 11:57:12.88	287.86	23.65	-53.0	-54.9	14.5	0.00e+00	0	27	0	727711744	72	4409
2026-01-14 11:57:13.88	288.13	23.62	-53.0	-54.8	14.5	0.00e+00	0	27	0	729808896	72	4377
2026-01-14 11:57:14.89	288.41	23.59	-53.0	-54.9	14.4	0.00e+00	0	27	0	731906048	72	4397
2026-01-14 11:57:15.91	288.69	23.56	-53.0	-54.9	14.4	0.00e+00	0	27	0	734003200	72	4432
2026-01-14 11:57:16.91	288.96	23.52	-53.0	-54.9	14.4	0.00e+00	0	27	0	735051776	72	4427
2026-01-14 11:57:17.92	289.24	23.49	-52.9	-54.8	14.5	0.00e+00	0	27	0	737148928	72	4354
2026-01-14 11:57:18.93	289.51	23.45	-52.8	-54.7	14.5	0.00e+00	0	27	0	739246080	72	4300
2026-01-14 11:57:19.93	289.78	23.42	-52.7	-54.5	14.7	0.00e+00	0	27	0	741343232	72	4204
2026-01-14 11:57:20.94	290.06	23.38	-52.5	-54.3	14.6	0.00e+00	0	27	0	743440384	71	4365
2026-01-14 11:57:21.95	290.33	23.35	-52.4	-54.1	14.7	0.00e+00	0	27	0	744488960	71	4283
2026-01-14 11:57:22.96	290.60	23.31	-52.4	-54.2	14.6	0.00e+00	0	27	0	746586112	71	4307
2026-01-14 11:57:23.96	290.87	23.27	-52.4	-54.1	14.7	0.00e+00	0	27	0	748683264	71	4274
2026-01-14 11:57:24.97	291.14	23.24	-52.4	-54.1	14.7	0.00e+00	0	27	0	750780416	71	4251
2026-01-14 11:57:25.98	291.41	23.20	-52.2	-53.9	14.8	0.00e+00	0	27	0	752877568	71	4160
2026-01-14 11:57:26.99	291.68	23.16	-52.2	-53.9	14.8	0.00e+00	0	27	0	753926144	71	4186
2026-01-14 11:57:28.00	291.95	23.12	-52.1	-53.8	14.6	0.00e+00	0	27	0	756023296	70	4378
2026-01-14 11:57:29.00	292.21	23.08	-52.2	-53.9	14.6	0.00e+00	0	27	0	758120448	70	4419
2026-01-14 11:57:30.02	292.48	23.04	-52.0	-53.6	14.7	0.00e+00	0	27	0	760217600	70	4288
2026-01-14 11:57:31.02	292.74	22.99	-51.9	-53.6	14.8	0.00e+00	0	27	0	762314752	70	4252
2026-01-14 11:57:32.03	293.01	22.95	-52.0	-53.6	14.7	0.00e+00	0	27	0	763363328	70	4267
2026-01-14 11:57:33.04	293.27	22.91	-52.0	-53.7	14.7	0.00e+00	0	27	0	765460480	70	4292
2026-01-14 11:57:34.05	293.54	22.87	-51.9	-53.6	14.8	0.00e+00	0	27	0	767557632	70	4246
2026-01-14 11:57:35.06	293.80	22.82	-51.8	-53.4	14.8	0.00e+00	0	27	0	769654784	70	4192
2026-01-14 11:57:36.07	294.06	22.78	-51.8	-53.4	14.9	0.00e+00	0	27	0	771751936	70	4160
2026-01-14 11:57:37.08	294.33	22.73	-51.7	-53.3	14.9	0.00e+00	0	27	0	773849088	70	4139
2026-01-14 11:57:38.08	294.59	22.69	-51.7	-53.3	14.9	0.00e+00	0	27	0	774897664	70	4123
2026-01-14 11:57:39.09	294.85	22.64	-51.5	-53.1	14.9	0.00e+00	0	27	0	776994816	69	4263
2026-01-14 11:57:40.10	295.11	22.60	-51.5	-53.0	14.9	0.00e+00	0	27	0	779091968	69	4233
2026-01-14 11:57:41.11	295.36	22.55	-51.4	-53.0	14.9	0.00e+00	0	27	0	781189120	69	4205
2026-01-14 11:57:42.12	295.62	22.50	-51.3	-52.8	14.9	0.00e+00	0	27	0	783286272	69	4133
2026-01-14 11:57:43.12	295.88	22.45	-51.1	-52.6	14.9	0.00e+00	0	27	0	784334848	68	4256
2026-01-14 11:57:44.12	296.13	22.41	-51.2	-52.7	14.9	0.00e+00	0	27	0	786432000	68	4300
2026-01-14 11:57:45.13	296.39	22.36	-50.9	-52.4	15.0	0.00e+00	0	27	0	788529152	68	4174
2026-01-14 11:57:46.14	296.64	22.31	-51.0	-52.4	15.0	0.00e+00	0	27	0	790626304	68	4187
2026-01-14 11:57:47.15	296.90	22.26	-51.1	-52.6	14.9	0.00e+00	0	27	0	791674880	68	4244
2026-01-14 11:57:48.16	297.15	22.21	-51.0	-52.5	14.9	0.00e+00	0	27	0	793772032	68	4219
2026-01-14 11:57:49.16	297.40	22.16	-51.1	-52.6	14.9	0.00e+00	0	27	0	795869184	68	4290
2026-01-14 11:57:50.17	297.65	22.11	-51.1	-52.6	14.9	0.00e+00	0	27	0	797966336	68	4277
2026-01-14 11:57:51.18	297.90	22.05	-51.2	-52.7	14.9	0.00e+00	0	27	0	800063488	68	4302
2026-01-14 11:57:52.19	298.15	22.00	-51.3	-52.9	14.8	0.00e+00	0	27	0	802160640	68	4413
2026-01-14 11:57:53.19	298.40	21.95	-51.5	-53.0	14.7	0.00e+00	0	27	0	803209216	68	4493
2026-01-14 11:57:54.20	298.65	21.90	-51.7	-53.3	14.6	0.00e+00	0	27	0	805306368	68	4617
2026-01-14 11:57:55.21	298.90	21.84	-51.9	-53.6	14.6	0.00e+00	0	27	0	807403520	68	4765
2026-01-14 11:57:56.22	299.14	21.79	-51.9	-53.6	14.6	0.00e+00	0	27	0	809500672	69	4522
2026-01-14 11:57:57.23	299.39	21.74	-51.9	-53.6	14.6	0.00e+00	0	27	0	811597824	69	4525
2026-01-14 11:57:58.23	299.63	21.68	-51.8	-53.5	14.7	0.00e+00	0	27	0	812646400	69	4451
2026-01-14 11:57:59.24	299.88	21.63	-51.8	-53.4	14.7	0.00e+00	0	27	0	814743552	69	4410
2026-01-14 11:58:00.24	300.12	21.57	-51.6	-53.2	14.8	0.00e+00	0	27	0	816840704	69	4323
2026-01-14 11:58:01.25	300.36	21.52	-51.5	-53.0	14.8	0.00e+00	0	27	0	818937856	69	4235
2026-01-14 11:58:02.27	300.60	21.46	-51.4	-53.0	14.9	0.00e+00	0	27	0	821035008	69	4204
2026-01-14 11:58:03.27	300.84	21.40	-51.5	-53.0	14.9	0.00e+00	0	27	0	822083584	69	4224
2026-01-14 11:58:04.28	301.08	21.35	-51.5	-53.0	14.9	0.00e+00	0	27	0	824180736	69	4232
2026-01-14 11:58:05.28	301.32	21.29	-51.4	-52.9	14.9	0.00e+00	0	27	0	826277888	69	4169
2026-01-14 11:58:06.29	301.56	21.23	-51.3	-52.9	14.9	0.00e+00	0	27	0	828375040	69	4161
2026-01-14 11:58:07.30	301.80	21.17	-51.5	-53.0	14.8	0.00e+00	0	27	0	830472192	69	4237
2026-01-14 11:58:08.31	302.03	21.11	-51.6	-53.2	14.8	0.00e+00	0	27	0	831520768	69	4320
2026-01-14 11:58:09.32	302.27	21.06	-52.0	-53.6	14.6	0.00e+00	0	27	0	833617920	69	4530
2026-01-14 11:58:10.33	302.50	21.00	-52.3	-54.0	14.4	0.00e+00	0	27	0	835715072	69	4748
2026-01-14 11:58:11.33	302.73	20.94	-52.6	-54.4	14.4	0.00e+00	0	27	0	837812224	70	4683
2026-01-14 11:58:12.34	302.97	20.88	-52.8	-54.7	14.3	0.00e+00	0	27	0	839909376	70	4836
2026-01-14 11:58:13.35	303.20	20.82	-52.9	-54.8	14.2	0.00e+00	0	27	0	840957952	70	4899
2026-01-14 11:58:14.36	303.43	20.76	-53.0	-54.9	14.3	0.00e+00	0	27	0	843055104	71	4670
2026-01-14 11:58:15.36	303.66	20.70	-53.1	-55.0	14.3	0.00e+00	0	27	0	845152256	71	4733
2026-01-14 11:58:16.36	303.89	20.64	-53.1	-55.1	14.2	0.00e+00	0	27	0	847249408	71	4762
2026-01-14 11:58:17.37	304.12	20.58	-53.0	-55.0	14.3	0.00e+00	0	27	0	849346560	71	4727
2026-01-14 11:58:18.38	304.34	20.51	-53.0	-54.9	14.3	0.00e+00	0	27	0	850395136	71	4666
2026-01-14 11:58:19.39	304.57	20.45	-52.9	-54.9	14.3	0.00e+00	0	27	0	852492288	71	4656
2026-01-14 11:58:20.39	304.79	20.39	-52.9	-54.8	14.3	0.00e+00	0	27	0	854589440	71	4628
2026-01-14 11:58:21.40	305.02	20.33	-52.7	-54.6	14.4	0.00e+00	0	27	0	856686592	71	4508
2026-01-14 11:58:22.41	305.24	20.27	-52.5	-54.3	14.6	0.00e+00	0	27	0	858783744	71	4345
2026-01-14 11:58:23.41	305.46	20.20	-52.2	-53.9	14.8	0.00e+00	0	27	0	859832320	71	4182
2026-01-14 11:58:24.43	305.69	20.14	-52.0	-53.7	14.7	0.00e+00	0	27	0	861929472	70	4304
2026-01-14 11:58:25.44	305.91	20.08	-52.1	-53.7	14.7	0.00e+00	0	27	0	864026624	70	4329
2026-01-14 11:58:26.45	306.13	20.01	-52.2	-53.9	14.6	0.00e+00	0	27	0	866123776	70	4412
2026-01-14 11:58:27.45	306.35	19.95	-52.3	-54.0	14.6	0.00e+00	0	27	0	868220928	70	4482
2026-01-14 11:58:28.46	306.57	19.88	-52.5	-54.3	14.4	0.00e+00	0	27	0	869269504	70	4600
2026-01-14 11:58:29.46	306.78	19.82	-52.5	-54.3	14.5	0.00e+00	0	27	0	871366656	70	4609
2026-01-14 11:58:30.47	307.00	19.76	-52.6	-54.5	14.4	0.00e+00	0	27	0	873463808	70	4706
2026-01-14 11:58:31.47	307.21	19.69	-52.7	-54.5	14.3	0.00e+00	0	27	0	875560960	70	4729
2026-01-14 11:58:32.48	307.43	19.63	-52.8	-54.7	14.3	0.00e+00	0	27	0	877658112	70	4821
2026-01-14 11:58:33.49	307.64	19.56	-52.8	-54.7	14.3	0.00e+00	0	27	0	878706688	70	4847
2026-01-14 11:58:34.50	307.86	19.50	-52.9	-54.8	14.2	0.00e+00	0	27	0	880803840	70	4886
2026-01-14 11:58:35.50	308.07	19.43	-52.9	-54.8	14.3	0.00e+00	0	27	0	882900992	71	4632
2026-01-14 11:58:36.51	308.28	19.36	-52.7	-54.6	14.4	0.00e+00	0	27	0	884998144	71	4523
2026-01-14 11:58:37.52	308.49	19.30	-52.7	-54.5	14.4	0.00e+00	0	27	0	887095296	71	4474
2026-01-14 11:58:38.52	308.70	19.23	-52.5	-54.2	14.6	0.00e+00	0	27	0	888143872	71	4338
2026-01-14 11:58:39.53	308.91	19.17	-52.5	-54.3	14.6	0.00e+00	0	27	0	890241024	71	4356
2026-01-14 11:58:40.54	309.11	19.10	-52.3	-54.0	14.7	0.00e+00	0	27	0	892338176	71	4239
2026-01-14 11:58:41.55	309.32	19.03	-52.2	-53.9	14.7	0.00e+00	0	27	0	894435328	71	4171
2026-01-14 11:58:42.56	309.53	18.96	-52.4	-54.2	14.6	0.00e+00	0	27	0	896532480	71	4312
2026-01-14 11:58:43.56	309.73	18.90	-52.4	-54.2	14.6	0.00e+00	0	27	0	897581056	71	4319
2026-01-14 11:58:44.56	309.93	18.83	-52.5	-54.3	14.5	0.00e+00	0	27	0	899678208	71	4372
2026-01-14 11:58:45.57	310.14	18.76	-52.5	-54.3	14.5	0.00e+00	0	27	0	901775360	71	4386
2026-01-14 11:58:46.58	310.34	18.70	-52.5	-54.3	14.5	0.00e+00	0	27	0	903872512	71	4372
2026-01-14 11:58:47.58	310.54	18.63	-52.5	-54.3	14.5	0.00e+00	0	27	0	905969664	71	4376
2026-01-14 11:58:48.59	310.74	18.56	-52.4	-54.2	14.6	0.00e+00	0	27	0	907018240	71	4330
2026-01-14 11:58:49.60	310.94	18.49	-52.4	-54.2	14.6	0.00e+00	0	27	0	909115392	71	4311
2026-01-14 11:58:50.60	311.14	18.42	-52.5	-54.3	14.6	0.00e+00	0	27	0	911212544	71	4345
2026-01-14 11:58:51.61	311.34	18.36	-52.5	-54.3	14.5	0.00e+00	0	27	0	913309696	71	4354
2026-01-14 11:58:52.62	311.53	18.29	-52.5	-54.3	14.5	0.00e+00	0	27	0	915406848	71	4370
2026-01-14 11:58:53.62	311.73	18.22	-52.5	-54.4	14.5	0.00e+00	0	27	0	916455424	71	4400
2026-01-14 11:58:54.63	311.92	18.15	-52.7	-54.5	14.4	0.00e+00	0	27	0	918552576	71	4477
2026-01-14 11:58:55.64	312.12	18.08	-52.6	-54.5	14.5	0.00e+00	0	27	0	920649728	71	4456
2026-01-14 11:58:56.64	312.31	18.01	-52.7	-54.6	14.4	0.00e+00	0	27	0	922746880	71	4501
2026-01-14 11:58:57.65	312.50	17.94	-52.7	-54.6	14.4	0.00e+00	0	27	0	924844032	71	4535
2026-01-14 11:58:58.66	312.70	17.87	-52.8	-54.7	14.3	0.00e+00	0	27	0	925892608	71	4587
2026-01-14 11:58:59.67	312.89	17.80	-53.0	-55.0	14.2	0.00e+00	0	27	0	927989760	71	4709
2026-01-14 11:59:00.67	313.08	17.73	-53.1	-55.1	14.2	0.00e+00	0	27	0	930086912	71	4800
2026-01-14 11:59:01.68	313.27	17.66	-53.2	-55.3	14.1	0.00e+00	0	27	0	932184064	71	4886
2026-01-14 11:59:02.69	313.46	17.60	-53.2	-55.2	14.1	0.00e+00	0	27	0	934281216	71	4862
2026-01-14 11:59:03.69	313.64	17.53	-53.1	-55.1	14.2	0.00e+00	0	27	0	935329792	71	4809
2026-01-14 11:59:04.70	313.83	17.46	-52.9	-54.9	14.3	0.00e+00	0	27	0	937426944	71	4670
2026-01-14 11:59:05.71	314.02	17.39	-52.7	-54.6	14.4	0.00e+00	0	27	0	939524096	71	4535
2026-01-14 11:59:06.71	314.20	17.32	-52.7	-54.5	14.4	0.00e+00	0	27	0	941621248	71	4482
2026-01-14 11:59:07.72	314.38	17.25	-52.4	-54.2	14.5	0.00e+00	0	27	0	943718400	71	4333
2026-01-14 11:59:08.73	314.57	17.18	-52.4	-54.2	14.6	0.00e+00	0	27	0	944766976	71	4335
2026-01-14 11:59:09.74	314.75	17.11	-52.6	-54.5	14.5	0.00e+00	0	27	0	946864128	71	4453
2026-01-14 11:59:10.75	314.93	17.03	-52.9	-54.9	14.3	0.00e+00	0	27	0	948961280	71	4657
2026-01-14 11:59:11.76	315.12	16.96	-53.2	-55.2	14.1	0.00e+00	0	27	0	951058432	71	4842
2026-01-14 11:59:12.76	315.29	16.89	-53.3	-55.4	14.0	0.00e+00	0	27	0	953155584	71	4931
2026-01-14 11:59:13.77	315.47	16.82	-53.4	-55.4	14.0	0.00e+00	0	27	0	954204160	71	4982
2026-01-14 11:59:14.78	315.65	16.75	-53.3	-55.3	14.1	0.00e+00	0	27	0	956301312	71	4912
2026-01-14 11:59:15.79	315.83	16.68	-52.9	-54.8	14.3	0.00e+00	0	27	0	958398464	71	4647
2026-01-14 11:59:16.79	316.01	16.61	-52.7	-54.6	14.4	0.00e+00	0	27	0	960495616	71	4508
2026-01-14 11:59:17.80	316.18	16.54	-52.6	-54.5	14.4	0.00e+00	0	27	0	962592768	71	4448
2026-01-14 11:59:18.81	316.36	16.47	-52.6	-54.5	14.4	0.00e+00	0	27	0	963641344	71	4464
2026-01-14 11:59:19.82	316.53	16.40	-52.8	-54.7	14.4	0.00e+00	0	27	0	965738496	71	4561
2026-01-14 11:59:20.82	316.71	16.33	-52.9	-54.8	14.3	0.00e+00	0	27	0	967835648	71	4637
2026-01-14 11:59:21.83	316.88	16.26	-53.0	-55.0	14.2	0.00e+00	0	27	0	969932800	71	4723
2026-01-14 11:59:22.84	317.05	16.19	-53.1	-55.2	14.1	0.00e+00	0	27	0	972029952	71	4815
2026-01-14 11:59:23.85	317.22	16.11	-53.0	-55.1	14.2	0.00e+00	0	27	0	973078528	71	4763
2026-01-14 11:59:24.86	317.39	16.04	-53.0	-54.9	14.2	0.00e+00	0	27	0	975175680	71	4699
2026-01-14 11:59:25.87	317.56	15.97	-52.8	-54.7	14.3	0.00e+00	0	27	0	977272832	71	4595
2026-01-14 11:59:26.87	317.73	15.90	-52.7	-54.6	14.4	0.00e+00	0	27	0	979369984	71	4507
2026-01-14 11:59:27.88	317.90	15.83	-52.6	-54.4	14.4	0.00e+00	0	27	0	981467136	71	4427
2026-01-14 11:59:28.89	318.07	15.76	-52.5	-54.3	14.5	0.00e+00	0	27	0	982515712	71	4366
2026-01-14 11:59:29.90	318.24	15.69	-52.6	-54.5	14.5	0.00e+00	0	27	0	984612864	71	4444
2026-01-14 11:59:30.91	318.40	15.62	-52.7	-54.6	14.4	0.00e+00	0	27	0	986710016	71	4529
2026-01-14 11:59:31.92	318.57	15.55	-53.0	-54.9	14.2	0.00e+00	0	27	0	988807168	71	4704
2026-01-14 11:59:32.93	318.73	15.47	-53.1	-55.2	14.1	0.00e+00	0	27	0	990904320	71	4818
2026-01-14 11:59:33.93	318.89	15.40	-53.2	-55.2	14.1	0.00e+00	0	27	0	991952896	71	4854
2026-01-14 11:59:34.94	319.06	15.33	-53.2	-55.3	14.0	0.00e+00	0	27	0	994050048	71	4898
2026-01-14 11:59:35.95	319.22	15.26	-53.2	-55.3	14.0	0.00e+00	0	27	0	996147200	71	4915
2026-01-14 11:59:36.96	319.38	15.19	-53.1	-55.2	14.1	0.00e+00	0	27	0	998244352	71	4843
2026-01-14 11:59:37.97	319.54	15.12	-53.0	-55.0	14.2	0.00e+00	0	27	0	1000341504	71	4725
2026-01-14 11:59:38.97	319.70	15.05	-52.7	-54.6	14.4	0.00e+00	0	27	0	1001390080	71	4521
2026-01-14 11:59:39.98	319.86	14.98	-52.7	-54.5	14.4	0.00e+00	0	27	0	1003487232	71	4492
2026-01-14 11:59:40.99	320.02	14.91	-52.7	-54.7	14.3	0.00e+00	0	27	0	1005584384	71	4558
2026-01-14 11:59:42.00	320.18	14.83	-53.0	-55.0	14.1	0.00e+00	0	27	0	1007681536	71	4754
2026-01-14 11:59:43.01	320.34	14.76	-53.2	-55.3	14.0	0.00e+00	0	27	0	1009778688	71	4909
2026-01-14 11:59:44.02	320.49	14.69	-53.3	-55.5	14.0	0.00e+00	0	27	0	1011875840	71	4991
2026-01-14 11:59:45.02	320.65	14.62	-53.4	-55.5	13.9	0.00e+00	0	27	0	1012924416	71	5028
2026-01-14 11:59:46.03	320.80	14.55	-53.3	-55.4	14.0	0.00e+00	0	27	0	1015021568	71	4960
2026-01-14 11:59:47.04	320.96	14.48	-53.3	-55.4	14.0	0.00e+00	0	27	0	1017118720	71	4964
2026-01-14 11:59:48.05	321.11	14.41	-53.2	-55.3	14.0	0.00e+00	0	27	0	1019215872	71	4889
2026-01-14 11:59:49.06	321.26	14.34	-53.1	-55.1	14.1	0.00e+00	0	27	0	1021313024	71	4811
2026-01-14 11:59:50.07	321.41	14.26	-52.9	-54.8	14.2	0.00e+00	0	27	0	1022361600	71	4645
2026-01-14 11:59:51.08	321.57	14.19	-52.8	-54.7	14.3	0.00e+00	0	27	0	1024458752	71	4591
2026-01-14 11:59:52.09	321.72	14.12	-52.7	-54.6	14.3	0.00e+00	0	27	0	1026555904	71	4530
2026-01-14 11:59:53.10	321.87	14.05	-52.9	-54.8	14.2	0.00e+00	0	27	0	1028653056	71	4644
2026-01-14 11:59:54.11	322.02	13.98	-53.1	-55.1	14.1	0.00e+00	0	27	0	1029701632	71	4793
2026-01-14 11:59:55.11	322.16	13.91	-53.2	-55.3	14.0	0.00e+00	0	27	0	1031798784	71	4914
2026-01-14 11:59:56.12	322.31	13.84	-53.5	-55.6	14.0	0.00e+00	0	27	0	1033895936	72	4808
2026-01-14 11:59:57.13	322.46	13.77	-53.5	-55.7	13.9	0.00e+00	0	27	0	1035993088	72	4842
2026-01-14 11:59:58.14	322.61	13.70	-53.4	-55.5	14.0	0.00e+00	0	27	0	1038090240	72	4752
2026-01-14 11:59:59.15	322.75	13.63	-53.2	-55.3	14.1	0.00e+00	0	27	0	1040187392	72	4634
2026-01-14 12:00:00.16	322.90	13.56	-53.3	-55.4	14.1	0.00e+00	0	27	0	1041235968	72	4665
2026-01-14 12:00:01.16	323.04	13.49	-53.0	-55.0	14.3	0.00e+00	0	27	0	1043333120	72	4461
2026-01-14 12:00:02.17	323.19	13.41	-52.8	-54.8	14.4	0.00e+00	0	27	0	1045430272	72	4360
2026-01-14 12:00:03.18	323.33	13.34	-52.8	-54.8	14.4	0.00e+00	0	27	0	1047527424	72	4358
2026-01-14 12:00:04.18	323.47	13.27	-52.9	-54.9	14.3	0.00e+00	0	27	0	1049624576	72	4435
2026-01-14 12:00:05.19	323.61	13.20	-52.9	-54.9	14.3	0.00e+00	0	27	0	1050673152	72	4427
2026-01-14 12:00:06.20	323.75	13.13	-53.1	-55.2	14.2	0.00e+00	0	27	0	1052770304	72	4558
2026-01-14 12:00:07.20	323.89	13.06	-53.2	-55.3	14.1	0.00e+00	0	27	0	1054867456	72	4640
2026-01-14 12:00:08.21	324.03	12.99	-53.3	-55.4	14.0	0.00e+00	0	27	0	1056964608	72	4690
2026-01-14 12:00:09.22	324.17	12.92	-53.4	-55.6	14.0	0.00e+00	0	27	0	1059061760	72	4762
2026-01-14 12:00:10.23	324.31	12.85	-53.4	-55.5	14.0	0.00e+00	0	27	0	1060110336	72	4748
2026-01-14 12:00:11.24	324.45	12.78	-53.3	-55.5	14.0	0.00e+00	0	27	0	1062207488	72	4713
2026-01-14 12:00:12.25	324.59	12.71	-53.2	-55.3	14.1	0.00e+00	0	27	0	1064304640	72	4644
2026-01-14 12:00:13.26	324.72	12.64	-53.1	-55.1	14.2	0.00e+00	0	27	0	1066401792	72	4541
2026-01-14 12:00:14.27	324.86	12.57	-53.0	-55.0	14.3	0.00e+00	0	27	0	1068498944	72	4456
2026-01-14 12:00:15.28	325.00	12.50	-53.0	-55.0	14.2	0.00e+00	0	27	0	1069547520	72	4478
2026-01-14 12:00:16.28	325.13	12.43	-53.0	-55.0	14.2	0.00e+00	0	27	0	1071644672	72	4458
2026-01-14 12:00:17.29	325.26	12.36	-53.0	-55.0	14.2	0.00e+00	0	27	0	1073741824	72	4491
2026-01-14 12:00:18.30	325.40	12.29	-53.2	-55.4	14.1	0.00e+00	0	27	0	1075838976	72	4656
2026-01-14 12:00:19.31	325.53	12.22	-53.3	-55.5	14.0	0.00e+00	0	27	0	1077936128	72	4715
2026-01-14 12:00:20.32	325.66	12.15	-53.4	-55.7	13.9	0.00e+00	0	27	0	1078984704	72	4816
2026-01-14 12:00:21.32	325.80	12.08	-53.6	-55.8	13.8	0.00e+00	0	27	0	1081081856	72	4923
2026-01-14 12:00:22.33	325.93	12.01	-53.5	-55.8	13.8	0.00e+00	0	27	0	1083179008	72	4898
2026-01-14 12:00:23.34	326.06	11.94	-53.6	-55.9	13.8	0.00e+00	0	27	0	1085276160	72	4965
2026-01-14 12:00:24.34	326.19	11.88	-53.6	-55.9	13.8	0.00e+00	0	27	0	1087373312	72	4947
2026-01-14 12:00:25.35	326.32	11.81	-53.6	-55.9	13.8	0.00e+00	0	27	0	1088421888	72	4968
2026-01-14 12:00:26.36	326.45	11.74	-53.6	-55.8	13.8	0.00e+00	0	27	0	1090519040	72	4916
2026-01-14 12:00:27.36	326.57	11.67	-53.4	-55.6	13.9	0.00e+00	0	27	0	1092616192	72	4806
2026-01-14 12:00:28.37	326.70	11.60	-53.4	-55.5	14.0	0.00e+00	0	27	0	1094713344	72	4751
2026-01-14 12:00:29.38	326.83	11.53	-53.3	-55.5	14.0	0.00e+00	0	27	0	1096810496	72	4716
2026-01-14 12:00:30.39	326.95	11.46	-53.4	-55.6	13.9	0.00e+00	0	27	0	1097859072	72	4788
2026-01-14 12:00:31.39	327.08	11.39	-53.2	-55.4	14.0	0.00e+00	0	27	0	1099956224	72	4657
2026-01-14 12:00:32.40	327.21	11.32	-53.2	-55.3	14.1	0.00e+00	0	27	0	1102053376	72	4620
2026-01-14 12:00:33.41	327.33	11.25	-53.2	-55.3	14.1	0.00e+00	0	27	0	1104150528	72	4637
2026-01-14 12:00:34.42	327.45	11.19	-53.3	-55.4	14.0	0.00e+00	0	27	0	1106247680	72	4682
2026-01-14 12:00:35.43	327.58	11.12	-53.4	-55.6	13.9	0.00e+00	0	27	0	1107296256	72	4762
2026-01-14 12:00:36.43	327.70	11.05	-53.4	-55.6	13.9	0.00e+00	0	27	0	1109393408	72	4791
2026-01-14 12:00:37.44	327.82	10.98	-53.4	-55.7	13.9	0.00e+00	0	27	0	1111490560	72	4826
2026-01-14 12:00:38.44	327.95	10.91	-53.5	-55.7	13.9	0.00e+00	0	27	0	1113587712	72	4862
2026-01-14 12:00:39.45	328.07	10.84	-53.6	-55.8	13.8	0.00e+00	0	27	0	1115684864	72	4919
2026-01-14 12:00:40.46	328.19	10.78	-53.5	-55.7	13.9	0.00e+00	0	27	0	1116733440	72	4864
2026-01-14 12:00:41.46	328.31	10.71	-53.5	-55.7	13.9	0.00e+00	0	27	0	1118830592	72	4837
2026-01-14 12:00:42.46	328.43	10.64	-53.5	-55.8	13.8	0.00e+00	0	27	0	1120927744	72	4895
2026-01-14 12:00:43.47	328.55	10.57	-53.5	-55.7	13.8	0.00e+00	0	27	0	1123024896	72	4851
2026-01-14 12:00:44.48	328.67	10.51	-53.5	-55.8	13.8	0.00e+00	0	27	0	1125122048	72	4916
2026-01-14 12:00:45.49	328.78	10.44	-53.6	-55.9	13.7	0.00e+00	0	27	0	1126170624	72	4964
2026-01-14 12:00:46.49	328.90	10.37	-53.6	-55.9	13.7	0.00e+00	0	27	0	1128267776	72	4969
2026-01-14 12:00:47.49	329.02	10.30	-53.6	-55.9	13.7	0.00e+00	0	28	0	1130364928	72	4944
2026-01-14 12:00:48.50	329.13	10.24	-53.7	-56.1	13.6	0.00e+00	0	27	0	1132462080	72	5091
2026-01-14 12:00:49.51	329.25	10.17	-53.8	-56.2	13.6	0.00e+00	0	27	0	1134559232	72	5127
2026-01-14 12:00:50.52	329.37	10.10	-53.9	-56.3	13.5	0.00e+00	0	27	0	1135607808	72	5187
2026-01-14 12:00:51.53	329.48	10.03	-53.8	-56.3	13.5	0.00e+00	0	27	0	1137704960	72	5172
2026-01-14 12:00:52.54	329.60	9.97	-53.9	-56.3	13.5	0.00e+00	0	27	0	1139802112	72	5189
2026-01-14 12:00:53.55	329.71	9.90	-53.8	-56.2	13.6	0.00e+00	0	27	0	1141899264	72	5118
2026-01-14 12:00:54.55	329.82	9.83	-53.7	-56.1	13.6	0.00e+00	0	27	0	1143996416	72	5075
2026-01-14 12:00:55.57	329.94	9.76	-53.7	-56.1	13.6	0.00e+00	0	27	0	1145044992	72	5065
2026-01-14 12:00:56.57	330.05	9.70	-53.7	-56.1	13.6	0.00e+00	0	27	0	1147142144	72	5078
2026-01-14 12:00:57.58	330.16	9.63	-53.7	-56.0	13.7	0.00e+00	0	27	0	1149239296	72	5027
2026-01-14 12:00:58.59	330.28	9.57	-53.6	-55.9	13.7	0.00e+00	0	27	0	1151336448	72	4964
2026-01-14 12:00:59.60	330.39	9.50	-53.7	-56.0	13.6	0.00e+00	0	27	0	1153433600	72	5034
2026-01-14 12:01:00.60	330.50	9.43	-53.6	-56.0	13.7	0.00e+00	0	27	0	1154482176	72	4997
2026-01-14 12:01:01.61	330.61	9.37	-53.6	-56.0	13.7	0.00e+00	0	27	0	1156579328	72	5013
2026-01-14 12:01:02.62	330.72	9.30	-53.7	-56.1	13.6	0.00e+00	0	27	0	1158676480	72	5075
2026-01-14 12:01:03.63	330.83	9.23	-53.8	-56.2	13.5	0.00e+00	0	27	0	1160773632	72	5153
2026-01-14 12:01:04.64	330.94	9.17	-54.0	-56.5	13.4	0.00e+00	0	27	0	1162870784	73	4999
2026-01-14 12:01:05.65	331.04	9.10	-54.1	-56.6	13.4	0.00e+00	0	27	0	1163919360	73	5099
2026-01-14 12:01:06.65	331.15	9.04	-54.0	-56.6	13.4	0.00e+00	0	27	0	1166016512	73	5055
2026-01-14 12:01:07.66	331.26	8.97	-54.1	-56.8	13.3	0.00e+00	0	27	0	1168113664	73	5172
2026-01-14 12:01:08.67	331.37	8.90	-54.2	-56.9	13.3	0.00e+00	0	27	0	1170210816	73	5251
2026-01-14 12:01:09.68	331.47	8.84	-54.2	-56.8	13.3	0.00e+00	0	27	0	1172307968	73	5195
2026-01-14 12:01:10.68	331.58	8.77	-54.2	-56.9	13.3	0.00e+00	0	27	0	1173356544	73	5241
2026-01-14 12:01:11.70	331.69	8.71	-54.2	-56.9	13.2	0.00e+00	0	27	0	1175453696	73	5271
2026-01-14 12:01:12.70	331.79	8.64	-54.3	-57.1	13.2	0.00e+00	0	27	0	1177550848	73	5351
2026-01-14 12:01:13.71	331.90	8.58	-54.4	-57.2	13.1	0.00e+00	0	27	0	1179648000	73	5421
2026-01-14 12:01:14.72	332.00	8.51	-54.5	-57.3	13.1	0.00e+00	0	27	0	1181745152	74	5182
2026-01-14 12:01:15.73	332.10	8.45	-54.5	-57.3	13.1	0.00e+00	0	27	0	1182793728	74	5215
2026-01-14 12:01:16.73	332.21	8.38	-54.5	-57.4	13.1	0.00e+00	0	27	0	1184890880	74	5239
2026-01-14 12:01:17.74	332.31	8.32	-54.7	-57.6	13.0	0.00e+00	0	27	0	1186988032	74	5360
2026-01-14 12:01:18.75	332.41	8.25	-54.7	-57.7	12.9	0.00e+00	0	27	0	1189085184	74	5417
2026-01-14 12:01:19.76	332.51	8.19	-54.6	-57.6	12.9	0.00e+00	0	27	0	1191182336	74	5356
2026-01-14 12:01:20.77	332.62	8.12	-54.7	-57.6	12.9	0.00e+00	0	27	0	1193279488	74	5400
2026-01-14 12:01:21.78	332.72	8.06	-54.6	-57.5	12.9	0.00e+00	0	27	0	1194328064	74	5330
2026-01-14 12:01:22.79	332.82	7.99	-54.6	-57.6	12.9	0.00e+00	0	27	0	1196425216	74	5366
2026-01-14 12:01:23.80	332.92	7.93	-54.7	-57.7	12.8	0.00e+00	0	27	0	1198522368	74	5453
2026-01-14 12:01:24.81	333.02	7.86	-54.6	-57.6	12.9	0.00e+00	0	27	0	1200619520	74	5366
2026-01-14 12:01:25.81	333.12	7.80	-54.9	-58.0	12.7	0.00e+00	0	27	0	1202716672	74	5604
2026-01-14 12:01:26.82	333.22	7.74	-54.8	-57.8	12.9	0.00e+00	0	27	0	1203765248	75	5184
2026-01-14 12:01:27.83	333.32	7.67	-54.9	-58.0	12.7	0.00e+00	0	27	0	1205862400	75	5332
2026-01-14 12:01:28.84	333.42	7.61	-54.9	-58.1	12.7	0.00e+00	0	27	0	1207959552	75	5356
2026-01-14 12:01:29.85	333.51	7.54	-54.8	-58.0	12.8	0.00e+00	0	27	0	1210056704	75	5285
2026-01-14 12:01:30.86	333.61	7.48	-54.8	-57.9	12.8	0.00e+00	0	27	0	1211105280	75	5226
