passes_logs/2026/01/14/R3.2S_Murmansk/R3.2S_Murmansk__20260114_124134_NOAA_21_JPSS-2_rec.log

#Pass ID: 20260114_124134_NOAA 21 (JPSS-2)
#Satellite: NOAA 21 (JPSS-2)
#Configuration: NOAA-21
#almurnet v.1.7.20251203
#Start time: 2026-01-14 12:41:36

#Version: 2.2.20231116
#Station: R3.2S_Murmansk
#Location: 33.079688 lon 68.888172 lat
#TLE: 1 54234U 22150A   26013.88494661  .00000045  00000+0  42271-4 0  9994
#TLE: 2 54234  98.7497 314.7982 0000672 299.1935  60.9174 14.19534564164652

#Time	Az	El	Level	Level2	SNR	BER	BlckErr	Temp	State	Recorded	gain1	gain2
2026-01-14 12:41:36.39	233.94	2.10	-60.7	-74.6	3.8	1.49e+00	0	28	0	0	86	18952
2026-01-14 12:41:37.39	234.04	2.15	-60.5	-74.3	3.8	1.49e+00	0	28	104	0	86	18506
2026-01-14 12:41:38.39	234.13	2.20	-60.4	-74.3	3.8	1.49e+00	0	28	104	0	86	18382
2026-01-14 12:41:39.40	234.22	2.25	-60.4	-74.2	3.8	1.49e+00	0	28	104	0	86	18244
2026-01-14 12:41:40.41	234.31	2.30	-60.3	-74.1	3.8	1.49e+00	0	28	104	0	86	18055
2026-01-14 12:41:41.42	234.41	2.35	-60.2	-74.1	3.8	1.49e+00	0	28	104	0	86	18018
2026-01-14 12:41:42.43	234.50	2.39	-60.2	-74.0	3.8	1.49e+00	0	28	104	0	86	17848
2026-01-14 12:41:43.43	234.60	2.44	-60.1	-73.9	3.8	1.49e+00	0	28	104	0	86	17626
2026-01-14 12:41:44.44	234.69	2.49	-60.0	-73.8	3.8	1.49e+00	0	28	104	0	86	17418
2026-01-14 12:41:45.45	234.79	2.54	-59.8	-73.6	3.8	1.49e+00	0	28	104	0	86	17063
2026-01-14 12:41:46.46	234.88	2.59	-59.6	-73.4	3.8	1.49e+00	0	28	104	0	85	17510
2026-01-14 12:41:47.47	234.98	2.64	-59.2	-73.0	3.8	1.49e+00	0	28	104	0	85	16872
2026-01-14 12:41:48.47	235.07	2.69	-58.9	-72.7	3.8	1.49e+00	0	28	104	0	84	17153
2026-01-14 12:41:49.48	235.17	2.74	-58.9	-72.7	3.8	1.49e+00	0	28	104	0	84	17123
2026-01-14 12:41:50.49	235.26	2.78	-58.9	-72.6	3.8	1.49e+00	0	28	104	0	84	17076
2026-01-14 12:41:51.49	235.36	2.83	-58.9	-72.6	3.8	1.49e+00	0	28	104	0	84	17056
2026-01-14 12:41:52.50	235.46	2.88	-58.9	-72.6	3.8	1.49e+00	0	28	104	0	84	16989
2026-01-14 12:41:53.51	235.55	2.93	-58.9	-72.6	3.8	1.49e+00	0	28	104	0	84	16971
2026-01-14 12:41:54.52	235.65	2.98	-58.9	-72.6	3.8	1.49e+00	0	28	104	0	84	17003
2026-01-14 12:41:55.53	235.75	3.03	-58.9	-72.6	3.8	1.49e+00	0	28	104	0	84	16922
2026-01-14 12:41:56.53	235.85	3.08	-58.9	-72.6	3.8	1.49e+00	0	28	104	0	84	16961
2026-01-14 12:41:57.54	235.94	3.13	-58.9	-72.7	3.8	1.49e+00	0	28	104	0	84	17107
2026-01-14 12:41:58.55	236.04	3.17	-58.9	-72.7	3.8	1.49e+00	0	28	104	0	84	17152
2026-01-14 12:41:59.56	236.14	3.22	-58.9	-72.7	3.8	1.49e+00	0	28	104	0	84	17158
2026-01-14 12:42:00.57	236.24	3.27	-58.9	-72.7	3.8	1.49e+00	0	28	104	0	84	17152
2026-01-14 12:42:01.57	236.34	3.32	-58.9	-72.6	3.8	1.49e+00	0	28	104	0	84	17061
2026-01-14 12:42:02.59	236.44	3.37	-58.9	-72.5	3.8	1.49e+00	0	28	104	0	84	16850
2026-01-14 12:42:03.60	236.54	3.42	-58.9	-72.5	3.8	1.49e+00	0	28	104	0	84	16834
2026-01-14 12:42:04.60	236.64	3.47	-58.8	-72.5	3.8	1.49e+00	0	28	104	0	84	16726
2026-01-14 12:42:05.61	236.74	3.52	-58.9	-72.5	3.8	1.49e+00	0	28	104	0	84	16796
2026-01-14 12:42:06.62	236.85	3.57	-58.8	-72.4	3.8	1.49e+00	0	28	104	0	84	16672
2026-01-14 12:42:07.63	236.95	3.62	-58.9	-72.6	3.8	1.49e+00	0	28	104	0	84	16944
2026-01-14 12:42:08.64	237.05	3.67	-58.9	-72.6	3.8	1.49e+00	0	28	104	0	84	17013
2026-01-14 12:42:09.65	237.15	3.71	-58.9	-72.6	3.8	1.49e+00	0	28	104	0	84	17059
2026-01-14 12:42:10.66	237.25	3.76	-58.9	-72.7	3.8	1.49e+00	0	28	104	0	84	17090
2026-01-14 12:42:11.67	237.36	3.81	-58.8	-72.7	3.8	1.49e+00	0	28	104	0	84	17132
2026-01-14 12:42:12.68	237.46	3.86	-58.9	-72.6	3.8	1.49e+00	0	28	104	0	84	17041
2026-01-14 12:42:13.68	237.56	3.91	-58.9	-72.6	3.8	1.49e+00	0	28	104	0	84	16911
2026-01-14 12:42:14.69	237.67	3.96	-58.9	-72.4	3.8	1.49e+00	0	28	104	0	84	16560
2026-01-14 12:42:15.70	237.77	4.01	-58.8	-72.3	3.8	1.49e+00	0	28	104	0	84	16435
2026-01-14 12:42:16.71	237.88	4.06	-58.8	-72.2	3.8	1.49e+00	0	28	104	0	84	16255
2026-01-14 12:42:17.72	237.98	4.11	-58.7	-72.2	3.8	1.49e+00	0	28	104	0	84	16230
2026-01-14 12:42:18.73	238.09	4.16	-58.7	-72.1	3.8	1.49e+00	0	28	104	0	84	16063
2026-01-14 12:42:19.73	238.19	4.21	-58.5	-71.9	3.8	1.49e+00	0	28	104	0	83	16569
2026-01-14 12:42:20.74	238.30	4.26	-58.4	-71.9	3.8	1.49e+00	0	28	104	0	83	16516
2026-01-14 12:42:21.75	238.40	4.31	-58.4	-72.0	3.8	1.49e+00	0	28	104	0	83	16708
2026-01-14 12:42:22.76	238.51	4.36	-58.5	-72.2	3.8	1.49e+00	0	28	104	0	83	17148
2026-01-14 12:42:23.77	238.62	4.40	-58.5	-72.4	3.8	1.49e+00	0	28	104	0	83	17647
2026-01-14 12:42:24.78	238.73	4.45	-58.4	-72.4	3.8	1.49e+00	0	28	104	0	83	17540
2026-01-14 12:42:25.79	238.83	4.50	-58.4	-71.9	3.8	1.49e+00	0	28	104	0	83	16604
2026-01-14 12:42:26.80	238.94	4.55	-58.3	-70.9	3.8	1.49e+00	0	28	104	0	83	14755
2026-01-14 12:42:27.81	239.05	4.60	-58.1	-69.4	4.1	1.48e+00	0	28	104	0	82	13183
2026-01-14 12:42:28.82	239.16	4.65	-58.0	-68.9	4.0	1.45e+00	0	28	104	0	82	12446
2026-01-14 12:42:29.83	239.27	4.70	-57.9	-68.2	4.4	1.44e+00	0	28	104	0	82	11500
2026-01-14 12:42:30.83	239.38	4.75	-57.8	-67.8	4.0	1.19e+00	0	28	104	0	82	11017
2026-01-14 12:42:31.84	239.49	4.80	-57.8	-67.1	4.8	1.04e+00	0	28	104	0	82	10089
2026-01-14 12:42:32.85	239.60	4.85	-57.4	-64.7	6.2	2.99e-01	0	28	0	2097152	81	8163
2026-01-14 12:42:33.86	239.71	4.90	-57.0	-63.0	7.5	1.06e-01	0	28	0	5242880	80	7090
2026-01-14 12:42:34.87	239.82	4.95	-56.3	-60.9	9.3	1.27e-02	0	28	0	8388608	79	5923
2026-01-14 12:42:35.88	239.93	5.00	-55.4	-59.2	10.7	4.49e-04	0	28	0	11534336	77	5405
2026-01-14 12:42:36.89	240.04	5.05	-55.0	-58.4	11.2	1.01e-04	0	28	0	14680064	76	5226
2026-01-14 12:42:37.89	240.15	5.10	-57.5	-65.3	5.9	1.00e-01	0	28	0	18874368	80	9273
2026-01-14 12:42:38.90	240.26	5.15	-54.4	-57.2	12.0	6.10e-06	0	28	0	20971520	75	4839
2026-01-14 12:42:39.91	240.38	5.20	-58.1	-69.1	3.9	1.01e+00	0	28	104	24117248	81	13438
2026-01-14 12:42:40.91	240.49	5.24	-52.5	-54.4	13.4	1.13e-04	0	28	0	25165824	71	4425
2026-01-14 12:42:41.92	240.60	5.29	-52.4	-54.3	13.5	0.00e+00	0	28	0	28311552	71	4384
2026-01-14 12:42:42.93	240.72	5.34	-52.4	-54.3	13.5	0.00e+00	0	28	0	31457280	71	4391
2026-01-14 12:42:43.93	240.83	5.39	-52.6	-54.6	13.3	0.00e+00	0	28	0	34603008	71	4534
2026-01-14 12:42:44.94	240.94	5.44	-52.5	-54.5	13.4	0.00e+00	0	28	0	37748736	71	4458
2026-01-14 12:42:45.95	241.06	5.49	-52.4	-54.2	13.5	0.00e+00	0	28	0	40894464	71	4338
2026-01-14 12:42:46.95	241.17	5.54	-52.3	-54.2	13.5	0.00e+00	0	28	0	44040192	71	4333
2026-01-14 12:42:47.96	241.29	5.59	-52.5	-54.5	13.4	0.00e+00	0	28	0	47185920	71	4459
2026-01-14 12:42:48.97	241.41	5.64	-52.6	-54.6	13.4	0.00e+00	0	28	0	50331648	71	4507
2026-01-14 12:42:49.98	241.52	5.69	-52.5	-54.4	13.5	0.00e+00	0	28	0	53477376	71	4413
2026-01-14 12:42:50.98	241.64	5.74	-52.4	-54.3	13.5	0.00e+00	0	28	0	56623104	71	4349
2026-01-14 12:42:51.99	241.76	5.79	-52.4	-54.2	13.5	0.00e+00	0	28	0	59768832	70	4591
2026-01-14 12:42:53.00	241.87	5.84	-52.4	-54.3	13.4	0.00e+00	0	28	0	62914560	70	4601
2026-01-14 12:42:54.01	241.99	5.89	-52.3	-54.1	13.5	0.00e+00	0	28	0	66060288	70	4518
2026-01-14 12:42:55.02	242.11	5.94	-52.3	-54.1	13.5	0.00e+00	0	28	0	69206016	70	4542
2026-01-14 12:42:56.02	242.23	5.98	-52.2	-54.1	13.6	0.00e+00	0	28	0	72351744	70	4509
2026-01-14 12:42:57.03	242.35	6.03	-52.4	-54.2	13.4	0.00e+00	0	28	0	75497472	70	4598
2026-01-14 12:42:58.05	242.47	6.08	-52.2	-54.0	13.6	0.00e+00	0	28	0	78643200	70	4469
2026-01-14 12:42:59.05	242.59	6.13	-52.0	-53.8	13.7	0.00e+00	0	28	0	81788928	70	4377
2026-01-14 12:43:00.06	242.71	6.18	-52.1	-54.0	13.6	0.00e+00	0	28	0	84934656	70	4453
2026-01-14 12:43:01.05	242.82	6.23	-52.2	-54.0	13.6	0.00e+00	0	28	0	88080384	70	4457
2026-01-14 12:43:02.06	242.95	6.28	-52.2	-54.0	13.6	0.00e+00	0	28	0	91226112	70	4448
2026-01-14 12:43:03.07	243.07	6.33	-52.2	-54.0	13.6	0.00e+00	0	28	0	94371840	70	4475
2026-01-14 12:43:04.08	243.19	6.38	-52.2	-54.0	13.6	0.00e+00	0	28	0	97517568	70	4475
2026-01-14 12:43:05.08	243.31	6.43	-52.1	-53.9	13.7	0.00e+00	0	28	0	100663296	70	4412
2026-01-14 12:43:06.09	243.43	6.48	-52.1	-53.8	13.7	0.00e+00	0	28	0	103809024	70	4389
2026-01-14 12:43:07.10	243.56	6.53	-51.8	-53.6	13.8	0.00e+00	0	28	0	106954752	70	4252
2026-01-14 12:43:08.11	243.68	6.58	-51.9	-53.7	13.8	0.00e+00	0	28	0	110100480	70	4299
2026-01-14 12:43:09.12	243.80	6.62	-51.9	-53.6	13.8	0.00e+00	0	28	0	113246208	70	4265
2026-01-14 12:43:10.13	243.93	6.67	-52.0	-53.8	13.7	0.00e+00	0	28	0	116391936	70	4350
2026-01-14 12:43:11.13	244.05	6.72	-51.9	-53.6	13.8	0.00e+00	0	28	0	119537664	70	4277
2026-01-14 12:43:12.14	244.18	6.77	-51.9	-53.6	13.8	0.00e+00	0	28	0	122683392	70	4290
2026-01-14 12:43:13.16	244.30	6.82	-51.5	-53.2	13.9	0.00e+00	0	28	0	125829120	69	4297
2026-01-14 12:43:14.16	244.43	6.87	-51.8	-53.5	13.8	0.00e+00	0	28	0	128974848	69	4474
2026-01-14 12:43:15.17	244.55	6.92	-51.9	-53.6	13.7	0.00e+00	0	28	0	132120576	69	4514
2026-01-14 12:43:16.18	244.68	6.97	-51.7	-53.4	13.8	0.00e+00	0	28	0	135266304	69	4429
2026-01-14 12:43:17.19	244.81	7.02	-51.6	-53.3	13.9	0.00e+00	0	28	0	138412032	69	4350
2026-01-14 12:43:18.20	244.93	7.07	-51.5	-53.1	14.0	0.00e+00	0	28	0	141557760	69	4276
2026-01-14 12:43:19.21	245.06	7.12	-51.5	-53.2	13.9	0.00e+00	0	28	0	144703488	69	4298
2026-01-14 12:43:20.22	245.19	7.17	-51.5	-53.2	13.9	0.00e+00	0	28	0	147849216	69	4294
2026-01-14 12:43:21.23	245.32	7.21	-51.5	-53.1	13.9	0.00e+00	0	28	0	150994944	69	4286
2026-01-14 12:43:22.24	245.45	7.26	-51.5	-53.1	14.0	0.00e+00	0	28	0	154140672	69	4289
2026-01-14 12:43:23.24	245.58	7.31	-51.5	-53.2	13.9	0.00e+00	0	28	0	157286400	69	4299
2026-01-14 12:43:24.25	245.71	7.36	-51.5	-53.1	14.0	0.00e+00	0	28	0	160432128	69	4277
2026-01-14 12:43:25.26	245.84	7.41	-51.6	-53.2	13.9	0.00e+00	0	28	0	163577856	69	4330
2026-01-14 12:43:26.27	245.97	7.46	-51.5	-53.1	14.0	0.00e+00	0	28	0	166723584	69	4279
2026-01-14 12:43:27.28	246.10	7.51	-51.5	-53.1	14.0	0.00e+00	0	28	0	169869312	69	4260
2026-01-14 12:43:28.29	246.23	7.56	-51.4	-53.0	14.0	0.00e+00	0	28	0	173015040	69	4208
2026-01-14 12:43:29.30	246.36	7.61	-51.5	-53.1	14.0	0.00e+00	0	28	0	176160768	69	4262
2026-01-14 12:43:30.30	246.50	7.65	-51.4	-53.0	14.0	0.00e+00	0	28	0	179306496	69	4235
2026-01-14 12:43:31.31	246.63	7.70	-51.5	-53.1	14.0	0.00e+00	0	28	0	182452224	69	4263
2026-01-14 12:43:32.32	246.76	7.75	-51.5	-53.1	14.0	0.00e+00	0	28	0	185597952	69	4268
2026-01-14 12:43:33.33	246.90	7.80	-51.4	-53.0	14.0	0.00e+00	0	28	0	188743680	69	4225
2026-01-14 12:43:34.34	247.03	7.85	-51.4	-53.0	14.0	0.00e+00	0	28	0	191889408	69	4227
2026-01-14 12:43:35.34	247.16	7.90	-51.4	-53.0	14.1	0.00e+00	0	28	0	195035136	69	4211
2026-01-14 12:43:36.35	247.30	7.94	-51.4	-53.0	14.0	0.00e+00	0	27	0	198180864	69	4230
2026-01-14 12:43:37.36	247.43	7.99	-51.4	-53.0	14.0	0.00e+00	0	28	0	201326592	69	4220
2026-01-14 12:43:38.37	247.57	8.04	-51.4	-53.0	14.0	0.00e+00	0	28	0	204472320	69	4214
2026-01-14 12:43:39.38	247.71	8.09	-51.5	-53.1	14.0	0.00e+00	0	28	0	207618048	69	4244
2026-01-14 12:43:40.39	247.84	8.14	-51.4	-53.0	14.0	0.00e+00	0	28	0	210763776	69	4219
2026-01-14 12:43:41.40	247.98	8.19	-51.5	-53.1	14.0	0.00e+00	0	28	0	213909504	69	4271
2026-01-14 12:43:42.41	248.12	8.23	-51.6	-53.2	14.0	0.00e+00	0	28	0	217055232	69	4310
2026-01-14 12:43:43.42	248.26	8.28	-51.5	-53.1	14.0	0.00e+00	0	28	0	220200960	69	4243
2026-01-14 12:43:44.42	248.39	8.33	-51.5	-53.1	14.0	0.00e+00	0	28	0	223346688	69	4251
2026-01-14 12:43:45.43	248.53	8.38	-51.4	-53.0	14.1	0.00e+00	0	28	0	226492416	69	4222
2026-01-14 12:43:46.44	248.67	8.43	-51.4	-53.0	14.0	0.00e+00	0	28	0	229638144	69	4215
2026-01-14 12:43:47.44	248.81	8.47	-51.4	-53.0	14.1	0.00e+00	0	28	0	232783872	69	4210
2026-01-14 12:43:48.45	248.95	8.52	-51.4	-53.0	14.1	0.00e+00	0	28	0	235929600	69	4219
2026-01-14 12:43:49.46	249.09	8.57	-51.2	-52.7	14.2	0.00e+00	0	28	0	239075328	69	4087
2026-01-14 12:43:50.47	249.23	8.62	-51.1	-52.7	14.1	0.00e+00	0	28	0	242221056	68	4296
2026-01-14 12:43:51.48	249.37	8.67	-51.1	-52.6	14.2	0.00e+00	0	28	0	245366784	68	4254
2026-01-14 12:43:52.49	249.52	8.71	-51.1	-52.6	14.1	0.00e+00	0	28	0	248512512	68	4272
2026-01-14 12:43:53.49	249.66	8.76	-51.1	-52.6	14.2	0.00e+00	0	28	0	251658240	68	4263
2026-01-14 12:43:54.50	249.80	8.81	-51.1	-52.6	14.2	0.00e+00	0	28	0	254803968	68	4255
2026-01-14 12:43:55.51	249.94	8.86	-51.0	-52.5	14.2	0.00e+00	0	28	0	257949696	68	4231
2026-01-14 12:43:56.51	250.09	8.90	-50.9	-52.4	14.2	0.00e+00	0	28	0	261095424	68	4164
2026-01-14 12:43:57.52	250.23	8.95	-51.0	-52.5	14.2	0.00e+00	0	28	0	264241152	68	4214
2026-01-14 12:43:58.53	250.38	9.00	-51.0	-52.5	14.2	0.00e+00	0	28	0	267386880	68	4219
2026-01-14 12:43:59.53	250.52	9.04	-51.0	-52.5	14.2	0.00e+00	0	28	0	270532608	68	4225
2026-01-14 12:44:00.54	250.67	9.09	-51.0	-52.5	14.2	0.00e+00	0	28	0	273678336	68	4216
2026-01-14 12:44:01.55	250.81	9.14	-51.0	-52.5	14.2	0.00e+00	0	28	0	276824064	68	4214
2026-01-14 12:44:02.56	250.96	9.19	-50.9	-52.4	14.2	0.00e+00	0	28	0	279969792	68	4186
2026-01-14 12:44:03.57	251.11	9.23	-50.8	-52.3	14.3	0.00e+00	0	28	0	283115520	68	4104
2026-01-14 12:44:04.58	251.25	9.28	-50.8	-52.3	14.3	0.00e+00	0	28	0	286261248	68	4109
2026-01-14 12:44:05.59	251.40	9.33	-50.9	-52.4	14.3	0.00e+00	0	28	0	290455552	68	4151
2026-01-14 12:44:06.60	251.55	9.37	-51.1	-52.6	14.1	0.00e+00	0	28	0	293601280	68	4266
2026-01-14 12:44:07.61	251.70	9.42	-51.0	-52.4	14.2	0.00e+00	0	28	0	296747008	68	4187
2026-01-14 12:44:08.62	251.85	9.47	-51.0	-52.5	14.2	0.00e+00	0	28	0	298844160	68	4209
2026-01-14 12:44:09.63	252.00	9.51	-51.1	-52.6	14.2	0.00e+00	0	28	0	301989888	68	4276
2026-01-14 12:44:10.64	252.15	9.56	-51.0	-52.5	14.2	0.00e+00	0	28	0	305135616	68	4209
2026-01-14 12:44:11.64	252.30	9.60	-50.9	-52.3	14.3	0.00e+00	0	28	0	309329920	68	4142
2026-01-14 12:44:12.66	252.45	9.65	-51.0	-52.5	14.2	0.00e+00	0	28	0	312475648	68	4214
2026-01-14 12:44:13.66	252.60	9.70	-50.8	-52.3	14.3	0.00e+00	0	28	0	315621376	68	4109
2026-01-14 12:44:14.67	252.75	9.74	-50.7	-52.1	14.4	0.00e+00	0	28	0	318767104	68	4043
2026-01-14 12:44:15.67	252.90	9.79	-50.8	-52.2	14.4	0.00e+00	0	28	0	320864256	68	4077
2026-01-14 12:44:16.68	253.06	9.83	-50.8	-52.3	14.3	0.00e+00	0	28	0	324009984	68	4120
2026-01-14 12:44:17.69	253.21	9.88	-50.7	-52.1	14.4	0.00e+00	0	28	0	328204288	68	4051
2026-01-14 12:44:18.70	253.36	9.93	-50.5	-52.0	14.3	0.00e+00	0	28	0	331350016	67	4212
2026-01-14 12:44:19.71	253.52	9.97	-50.5	-51.9	14.3	0.00e+00	0	28	0	334495744	67	4188
2026-01-14 12:44:20.72	253.67	10.02	-50.5	-51.9	14.3	0.00e+00	0	28	0	337641472	67	4176
2026-01-14 12:44:21.73	253.83	10.06	-50.4	-51.8	14.4	0.00e+00	0	28	0	340787200	67	4127
2026-01-14 12:44:22.74	253.98	10.11	-50.4	-51.8	14.4	0.00e+00	0	28	0	343932928	67	4128
2026-01-14 12:44:23.75	254.14	10.15	-50.4	-51.8	14.3	0.00e+00	0	28	0	347078656	67	4137
2026-01-14 12:44:24.75	254.30	10.20	-50.5	-51.9	14.3	0.00e+00	0	28	0	350224384	67	4178
2026-01-14 12:44:25.76	254.45	10.24	-50.5	-51.9	14.3	0.00e+00	0	28	0	353370112	67	4182
2026-01-14 12:44:26.77	254.61	10.29	-50.5	-51.9	14.3	0.00e+00	0	28	0	356515840	67	4178
2026-01-14 12:44:27.78	254.77	10.33	-50.4	-51.8	14.4	0.00e+00	0	28	0	359661568	67	4104
2026-01-14 12:44:28.79	254.93	10.38	-50.3	-51.7	14.4	0.00e+00	0	28	0	362807296	67	4070
2026-01-14 12:44:29.79	255.08	10.42	-50.3	-51.7	14.4	0.00e+00	0	28	0	365953024	67	4098
2026-01-14 12:44:30.80	255.24	10.47	-50.2	-51.6	14.5	0.00e+00	0	28	0	369098752	67	4036
2026-01-14 12:44:31.81	255.40	10.51	-50.3	-51.7	14.4	0.00e+00	0	28	0	372244480	67	4058
2026-01-14 12:44:32.82	255.56	10.55	-50.4	-51.8	14.4	0.00e+00	0	27	0	375390208	67	4112
2026-01-14 12:44:33.83	255.73	10.60	-50.3	-51.7	14.4	0.00e+00	0	28	0	378535936	67	4092
2026-01-14 12:44:34.84	255.89	10.64	-50.4	-51.9	14.4	0.00e+00	0	28	0	381681664	67	4150
2026-01-14 12:44:35.85	256.05	10.69	-50.4	-51.8	14.4	0.00e+00	0	28	0	384827392	67	4122
2026-01-14 12:44:36.86	256.21	10.73	-50.5	-51.9	14.3	0.00e+00	0	28	0	387973120	67	4166
2026-01-14 12:44:37.86	256.37	10.77	-50.4	-51.9	14.4	0.00e+00	0	28	0	391118848	67	4153
2026-01-14 12:44:38.87	256.54	10.82	-50.5	-51.9	14.3	0.00e+00	0	28	0	394264576	67	4170
2026-01-14 12:44:39.88	256.70	10.86	-50.4	-51.8	14.4	0.00e+00	0	28	0	397410304	67	4140
2026-01-14 12:44:40.89	256.86	10.90	-50.3	-51.7	14.4	0.00e+00	0	28	0	400556032	67	4079
2026-01-14 12:44:41.90	257.03	10.95	-50.3	-51.7	14.4	0.00e+00	0	28	0	403701760	67	4083
2026-01-14 12:44:42.91	257.19	10.99	-50.3	-51.7	14.4	0.00e+00	0	28	0	406847488	67	4098
2026-01-14 12:44:43.92	257.36	11.03	-50.4	-51.8	14.4	0.00e+00	0	28	0	409993216	67	4110
2026-01-14 12:44:44.92	257.52	11.07	-50.4	-51.8	14.4	0.00e+00	0	28	0	413138944	67	4131
2026-01-14 12:44:45.92	257.69	11.12	-50.4	-51.9	14.3	0.00e+00	0	28	0	416284672	67	4147
2026-01-14 12:44:46.93	257.86	11.16	-50.6	-52.0	14.3	0.00e+00	0	28	0	419430400	67	4241
2026-01-14 12:44:47.94	258.02	11.20	-50.6	-52.0	14.3	0.00e+00	0	28	0	422576128	67	4235
2026-01-14 12:44:48.95	258.19	11.24	-50.6	-52.1	14.3	0.00e+00	0	28	0	425721856	67	4246
2026-01-14 12:44:49.96	258.36	11.28	-50.6	-52.1	14.3	0.00e+00	0	28	0	428867584	67	4244
2026-01-14 12:44:50.97	258.53	11.33	-50.7	-52.1	14.2	0.00e+00	0	28	0	432013312	67	4273
2026-01-14 12:44:51.98	258.70	11.37	-50.6	-52.0	14.3	0.00e+00	0	28	0	435159040	67	4229
2026-01-14 12:44:52.99	258.87	11.41	-50.6	-52.0	14.3	0.00e+00	0	28	0	438304768	67	4241
2026-01-14 12:44:54.00	259.04	11.45	-50.6	-52.1	14.2	0.00e+00	0	28	0	441450496	67	4273
2026-01-14 12:44:55.01	259.21	11.49	-50.6	-52.1	14.3	0.00e+00	0	28	0	444596224	67	4261
2026-01-14 12:44:56.01	259.38	11.53	-50.6	-52.0	14.3	0.00e+00	0	28	0	447741952	67	4237
2026-01-14 12:44:57.02	259.55	11.57	-50.6	-52.0	14.3	0.00e+00	0	28	0	450887680	67	4238
2026-01-14 12:44:58.03	259.72	11.61	-50.5	-51.9	14.4	0.00e+00	0	28	0	454033408	67	4166
2026-01-14 12:44:59.04	259.89	11.65	-50.3	-51.7	14.4	0.00e+00	0	28	0	457179136	67	4094
2026-01-14 12:45:00.05	260.07	11.69	-50.3	-51.7	14.4	0.00e+00	0	28	0	460324864	67	4085
2026-01-14 12:45:01.05	260.24	11.73	-50.3	-51.7	14.4	0.00e+00	0	28	0	463470592	67	4072
2026-01-14 12:45:02.06	260.41	11.77	-50.4	-51.8	14.4	0.00e+00	0	28	0	466616320	67	4104
2026-01-14 12:45:03.07	260.59	11.81	-50.4	-51.8	14.4	0.00e+00	0	28	0	469762048	67	4135
2026-01-14 12:45:04.08	260.76	11.85	-50.5	-52.0	14.3	0.00e+00	0	28	0	472907776	67	4196
2026-01-14 12:45:05.09	260.94	11.89	-50.5	-51.9	14.4	0.00e+00	0	28	0	476053504	67	4163
2026-01-14 12:45:06.10	261.11	11.93	-50.5	-52.0	14.3	0.00e+00	0	28	0	479199232	67	4201
2026-01-14 12:45:07.10	261.29	11.97	-50.5	-51.9	14.3	0.00e+00	0	28	0	482344960	67	4183
2026-01-14 12:45:08.11	261.46	12.01	-50.5	-52.0	14.3	0.00e+00	0	27	0	485490688	67	4204
2026-01-14 12:45:09.12	261.64	12.05	-50.4	-51.9	14.4	0.00e+00	0	28	0	488636416	67	4153
2026-01-14 12:45:10.12	261.82	12.09	-50.5	-51.9	14.3	0.00e+00	0	28	0	491782144	67	4185
2026-01-14 12:45:11.13	261.99	12.13	-50.5	-52.0	14.3	0.00e+00	0	28	0	494927872	67	4195
2026-01-14 12:45:12.14	262.17	12.16	-50.6	-52.0	14.3	0.00e+00	0	28	0	498073600	67	4222
2026-01-14 12:45:13.14	262.35	12.20	-50.5	-51.9	14.3	0.00e+00	0	28	0	501219328	67	4178
2026-01-14 12:45:14.15	262.53	12.24	-50.5	-51.9	14.4	0.00e+00	0	28	0	504365056	67	4159
2026-01-14 12:45:15.16	262.71	12.28	-50.5	-51.9	14.3	0.00e+00	0	28	0	507510784	67	4182
2026-01-14 12:45:16.17	262.89	12.32	-50.5	-51.9	14.4	0.00e+00	0	28	0	510656512	67	4159
2026-01-14 12:45:17.18	263.07	12.35	-50.5	-51.9	14.4	0.00e+00	0	28	0	513802240	67	4169
2026-01-14 12:45:18.19	263.25	12.39	-50.6	-52.0	14.3	0.00e+00	0	28	0	516947968	67	4214
2026-01-14 12:45:19.20	263.43	12.43	-50.5	-52.0	14.3	0.00e+00	0	28	0	520093696	67	4205
2026-01-14 12:45:20.20	263.61	12.46	-50.5	-51.9	14.4	0.00e+00	0	27	0	523239424	67	4154
2026-01-14 12:45:21.21	263.79	12.50	-50.5	-51.9	14.3	0.00e+00	0	28	0	526385152	67	4191
2026-01-14 12:45:22.22	263.98	12.54	-50.6	-52.0	14.3	0.00e+00	0	27	0	529530880	67	4212
2026-01-14 12:45:23.23	264.16	12.57	-50.5	-52.0	14.3	0.00e+00	0	28	0	532676608	67	4205
2026-01-14 12:45:24.24	264.34	12.61	-50.5	-52.0	14.3	0.00e+00	0	28	0	535822336	67	4202
2026-01-14 12:45:25.25	264.53	12.64	-50.6	-52.0	14.3	0.00e+00	0	28	0	538968064	67	4225
2026-01-14 12:45:26.26	264.71	12.68	-50.5	-52.0	14.3	0.00e+00	0	28	0	542113792	67	4210
2026-01-14 12:45:27.27	264.90	12.71	-50.5	-51.9	14.4	0.00e+00	0	28	0	545259520	67	4156
2026-01-14 12:45:28.27	265.08	12.75	-50.5	-51.9	14.4	0.00e+00	0	28	0	548405248	67	4170
2026-01-14 12:45:29.28	265.27	12.78	-50.4	-51.8	14.4	0.00e+00	0	28	0	551550976	67	4127
2026-01-14 12:45:30.29	265.45	12.82	-50.3	-51.6	14.5	0.00e+00	0	28	0	554696704	67	4038
2026-01-14 12:45:31.30	265.64	12.85	-50.3	-51.6	14.5	0.00e+00	0	28	0	557842432	67	4039
2026-01-14 12:45:32.31	265.83	12.89	-50.3	-51.7	14.4	0.00e+00	0	28	0	560988160	67	4081
2026-01-14 12:45:33.32	266.01	12.92	-50.1	-51.5	14.4	0.00e+00	0	28	0	564133888	66	4216
2026-01-14 12:45:34.33	266.20	12.95	-50.3	-51.7	14.4	0.00e+00	0	28	0	567279616	66	4296
2026-01-14 12:45:35.34	266.39	12.99	-50.2	-51.6	14.4	0.00e+00	0	28	0	570425344	66	4266
2026-01-14 12:45:36.35	266.58	13.02	-50.2	-51.6	14.4	0.00e+00	0	28	0	573571072	66	4249
2026-01-14 12:45:37.36	266.77	13.05	-50.3	-51.7	14.3	0.00e+00	0	28	0	576716800	66	4299
2026-01-14 12:45:38.37	266.96	13.09	-50.3	-51.7	14.3	0.00e+00	0	28	0	579862528	66	4336
2026-01-14 12:45:39.37	267.15	13.12	-50.3	-51.7	14.3	0.00e+00	0	28	0	583008256	66	4323
2026-01-14 12:45:40.38	267.34	13.15	-50.3	-51.7	14.3	0.00e+00	0	28	0	586153984	66	4318
2026-01-14 12:45:41.39	267.53	13.18	-50.3	-51.7	14.3	0.00e+00	0	28	0	589299712	66	4311
2026-01-14 12:45:42.40	267.72	13.21	-50.2	-51.6	14.4	0.00e+00	0	28	0	592445440	66	4287
2026-01-14 12:45:43.41	267.91	13.25	-50.2	-51.6	14.4	0.00e+00	0	28	0	595591168	66	4263
2026-01-14 12:45:44.42	268.10	13.28	-50.2	-51.6	14.4	0.00e+00	0	28	0	598736896	66	4288
2026-01-14 12:45:45.43	268.29	13.31	-50.2	-51.6	14.4	0.00e+00	0	28	0	601882624	66	4251
2026-01-14 12:45:46.43	268.48	13.34	-50.2	-51.6	14.4	0.00e+00	0	28	0	605028352	66	4270
2026-01-14 12:45:47.44	268.68	13.37	-50.3	-51.7	14.3	0.00e+00	0	28	0	608174080	66	4303
2026-01-14 12:45:48.45	268.87	13.40	-50.4	-51.8	14.3	0.00e+00	0	28	0	611319808	66	4371
2026-01-14 12:45:49.46	269.06	13.43	-50.4	-51.8	14.3	0.00e+00	0	28	0	614465536	66	4367
2026-01-14 12:45:50.47	269.26	13.46	-50.5	-52.0	14.2	0.00e+00	0	28	0	617611264	66	4457
2026-01-14 12:45:51.48	269.45	13.49	-50.5	-51.9	14.2	0.00e+00	0	28	0	620756992	66	4429
2026-01-14 12:45:52.49	269.65	13.52	-50.3	-51.8	14.3	0.00e+00	0	28	0	623902720	66	4343
2026-01-14 12:45:53.50	269.84	13.55	-50.3	-51.7	14.4	0.00e+00	0	28	0	627048448	66	4301
2026-01-14 12:45:54.51	270.04	13.57	-50.3	-51.7	14.3	0.00e+00	0	28	0	630194176	66	4323
2026-01-14 12:45:55.52	270.23	13.60	-50.3	-51.7	14.3	0.00e+00	0	28	0	633339904	66	4307
2026-01-14 12:45:56.52	270.43	13.63	-50.3	-51.6	14.4	0.00e+00	0	28	0	636485632	66	4283
2026-01-14 12:45:57.54	270.63	13.66	-50.2	-51.6	14.4	0.00e+00	0	27	0	639631360	66	4275
2026-01-14 12:45:58.54	270.82	13.69	-50.2	-51.5	14.4	0.00e+00	0	28	0	642777088	66	4232
2026-01-14 12:45:59.55	271.02	13.71	-50.3	-51.7	14.3	0.00e+00	0	28	0	645922816	66	4332
2026-01-14 12:46:00.55	271.22	13.74	-50.2	-51.6	14.4	0.00e+00	0	28	0	649068544	66	4256
2026-01-14 12:46:01.56	271.41	13.77	-50.3	-51.7	14.4	0.00e+00	0	28	0	652214272	66	4306
2026-01-14 12:46:02.57	271.61	13.79	-50.2	-51.5	14.4	0.00e+00	0	28	0	655360000	66	4237
2026-01-14 12:46:03.57	271.81	13.82	-50.3	-51.7	14.3	0.00e+00	0	28	0	658505728	66	4312
2026-01-14 12:46:04.58	272.01	13.84	-50.3	-51.7	14.3	0.00e+00	0	28	0	661651456	66	4333
2026-01-14 12:46:05.59	272.21	13.87	-50.2	-51.6	14.4	0.00e+00	0	28	0	664797184	66	4276
2026-01-14 12:46:06.60	272.41	13.89	-50.1	-51.5	14.5	0.00e+00	0	28	0	667942912	66	4202
2026-01-14 12:46:07.61	272.61	13.92	-50.0	-51.3	14.5	0.00e+00	0	28	0	671088640	66	4122
2026-01-14 12:46:08.61	272.81	13.94	-50.0	-51.3	14.5	0.00e+00	0	28	0	674234368	66	4110
2026-01-14 12:46:09.62	273.01	13.97	-50.0	-51.4	14.5	0.00e+00	0	28	0	677380096	66	4153
2026-01-14 12:46:10.63	273.21	13.99	-50.0	-51.3	14.5	0.00e+00	0	28	0	680525824	66	4131
2026-01-14 12:46:11.63	273.41	14.02	-50.1	-51.5	14.4	0.00e+00	0	28	0	683671552	66	4202
2026-01-14 12:46:12.65	273.61	14.04	-50.2	-51.6	14.4	0.00e+00	0	28	0	686817280	66	4257
2026-01-14 12:46:13.66	273.81	14.06	-50.2	-51.6	14.4	0.00e+00	0	28	0	689963008	66	4243
2026-01-14 12:46:14.66	274.01	14.08	-50.2	-51.6	14.4	0.00e+00	0	28	0	693108736	66	4270
2026-01-14 12:46:15.67	274.22	14.11	-50.1	-51.5	14.4	0.00e+00	0	28	0	696254464	66	4214
2026-01-14 12:46:16.67	274.42	14.13	-50.1	-51.5	14.4	0.00e+00	0	27	0	699400192	66	4211
2026-01-14 12:46:17.68	274.62	14.15	-50.2	-51.6	14.4	0.00e+00	0	28	0	702545920	66	4264
2026-01-14 12:46:18.69	274.82	14.17	-50.1	-51.4	14.5	0.00e+00	0	28	0	705691648	66	4181
2026-01-14 12:46:19.70	275.03	14.19	-49.9	-51.3	14.6	0.00e+00	0	28	0	708837376	66	4099
2026-01-14 12:46:20.71	275.23	14.21	-50.0	-51.4	14.5	0.00e+00	0	28	0	711983104	66	4149
2026-01-14 12:46:21.72	275.44	14.24	-50.0	-51.3	14.5	0.00e+00	0	28	0	715128832	66	4134
2026-01-14 12:46:22.73	275.64	14.26	-50.0	-51.3	14.5	0.00e+00	0	28	0	718274560	66	4145
2026-01-14 12:46:23.74	275.84	14.28	-50.1	-51.4	14.5	0.00e+00	0	28	0	721420288	66	4164
2026-01-14 12:46:24.75	276.05	14.30	-50.1	-51.5	14.4	0.00e+00	0	28	0	724566016	66	4199
2026-01-14 12:46:25.76	276.25	14.31	-50.1	-51.5	14.5	0.00e+00	0	28	0	727711744	66	4197
2026-01-14 12:46:26.76	276.46	14.33	-50.1	-51.4	14.5	0.00e+00	0	27	0	730857472	66	4186
2026-01-14 12:46:27.77	276.66	14.35	-50.1	-51.5	14.5	0.00e+00	0	28	0	734003200	66	4198
2026-01-14 12:46:28.78	276.87	14.37	-50.0	-51.3	14.5	0.00e+00	0	28	0	737148928	66	4127
2026-01-14 12:46:29.79	277.08	14.39	-50.1	-51.4	14.5	0.00e+00	0	28	0	740294656	66	4177
2026-01-14 12:46:30.80	277.28	14.41	-50.1	-51.5	14.4	0.00e+00	0	28	0	743440384	66	4202
2026-01-14 12:46:31.80	277.49	14.42	-50.2	-51.5	14.4	0.00e+00	0	28	0	746586112	66	4217
2026-01-14 12:46:32.81	277.69	14.44	-50.3	-51.6	14.4	0.00e+00	0	28	0	749731840	66	4284
2026-01-14 12:46:33.82	277.90	14.46	-50.3	-51.7	14.4	0.00e+00	0	28	0	752877568	66	4300
2026-01-14 12:46:34.83	278.11	14.47	-50.2	-51.6	14.4	0.00e+00	0	28	0	756023296	66	4255
2026-01-14 12:46:35.84	278.32	14.49	-50.3	-51.6	14.4	0.00e+00	0	28	0	759169024	66	4278
2026-01-14 12:46:36.85	278.53	14.50	-50.3	-51.6	14.4	0.00e+00	0	28	0	762314752	66	4279
2026-01-14 12:46:37.86	278.73	14.52	-50.3	-51.7	14.4	0.00e+00	0	28	0	765460480	66	4307
2026-01-14 12:46:38.87	278.94	14.54	-50.1	-51.4	14.5	0.00e+00	0	28	0	768606208	66	4171
2026-01-14 12:46:39.88	279.15	14.55	-50.1	-51.4	14.5	0.00e+00	0	27	0	771751936	66	4167
2026-01-14 12:46:40.89	279.36	14.56	-50.0	-51.3	14.5	0.00e+00	0	27	0	774897664	66	4130
2026-01-14 12:46:41.89	279.57	14.58	-50.0	-51.4	14.5	0.00e+00	0	28	0	778043392	66	4154
2026-01-14 12:46:42.90	279.77	14.59	-50.0	-51.3	14.5	0.00e+00	0	28	0	781189120	66	4145
2026-01-14 12:46:43.91	279.98	14.60	-50.1	-51.5	14.5	0.00e+00	0	28	0	784334848	66	4224
2026-01-14 12:46:44.92	280.19	14.62	-50.2	-51.5	14.5	0.00e+00	0	28	0	787480576	66	4222
2026-01-14 12:46:45.92	280.40	14.63	-50.2	-51.5	14.4	0.00e+00	0	28	0	790626304	66	4239
2026-01-14 12:46:46.93	280.61	14.64	-50.1	-51.5	14.5	0.00e+00	0	28	0	793772032	66	4211
2026-01-14 12:46:47.94	280.82	14.65	-50.0	-51.4	14.5	0.00e+00	0	28	0	796917760	66	4159
2026-01-14 12:46:48.94	281.03	14.67	-50.1	-51.4	14.5	0.00e+00	0	28	0	800063488	66	4183
2026-01-14 12:46:49.95	281.24	14.68	-50.1	-51.5	14.5	0.00e+00	0	28	0	803209216	66	4206
2026-01-14 12:46:50.96	281.45	14.69	-50.2	-51.5	14.4	0.00e+00	0	27	0	806354944	66	4226
2026-01-14 12:46:51.97	281.66	14.70	-50.2	-51.6	14.4	0.00e+00	0	27	0	809500672	66	4249
2026-01-14 12:46:52.98	281.87	14.71	-50.3	-51.6	14.4	0.00e+00	0	28	0	812646400	66	4280
2026-01-14 12:46:53.99	282.08	14.72	-50.3	-51.6	14.4	0.00e+00	0	28	0	815792128	66	4284
2026-01-14 12:46:55.00	282.29	14.73	-50.2	-51.5	14.4	0.00e+00	0	28	0	818937856	66	4226
2026-01-14 12:46:56.01	282.50	14.74	-50.1	-51.5	14.5	0.00e+00	0	28	0	822083584	66	4211
2026-01-14 12:46:57.01	282.71	14.75	-50.1	-51.4	14.5	0.00e+00	0	28	0	825229312	66	4176
2026-01-14 12:46:58.02	282.92	14.75	-50.1	-51.5	14.4	0.00e+00	0	28	0	828375040	66	4206
2026-01-14 12:46:59.03	283.13	14.76	-50.1	-51.5	14.4	0.00e+00	0	28	0	831520768	66	4209
2026-01-14 12:47:00.04	283.35	14.77	-50.2	-51.6	14.4	0.00e+00	0	28	0	834666496	66	4260
2026-01-14 12:47:01.05	283.56	14.78	-50.3	-51.7	14.4	0.00e+00	0	28	0	837812224	66	4306
2026-01-14 12:47:02.05	283.77	14.78	-50.3	-51.7	14.4	0.00e+00	0	28	0	840957952	66	4329
2026-01-14 12:47:03.06	283.98	14.79	-50.4	-51.8	14.3	0.00e+00	0	28	0	844103680	66	4363
2026-01-14 12:47:04.07	284.19	14.80	-50.4	-51.7	14.3	0.00e+00	0	28	0	847249408	66	4336
2026-01-14 12:47:05.08	284.40	14.80	-50.3	-51.7	14.4	0.00e+00	0	28	0	850395136	66	4295
2026-01-14 12:47:06.09	284.61	14.81	-50.3	-51.6	14.4	0.00e+00	0	28	0	853540864	66	4282
2026-01-14 12:47:07.10	284.83	14.81	-50.2	-51.6	14.4	0.00e+00	0	28	0	856686592	66	4253
2026-01-14 12:47:08.11	285.04	14.82	-50.3	-51.7	14.4	0.00e+00	0	28	0	859832320	66	4307
2026-01-14 12:47:09.11	285.25	14.82	-50.3	-51.7	14.4	0.00e+00	0	28	0	862978048	66	4304
2026-01-14 12:47:10.12	285.46	14.83	-50.3	-51.6	14.4	0.00e+00	0	27	0	866123776	66	4290
2026-01-14 12:47:11.13	285.67	14.83	-50.3	-51.7	14.4	0.00e+00	0	28	0	869269504	66	4324
2026-01-14 12:47:12.13	285.88	14.83	-50.4	-51.8	14.4	0.00e+00	0	28	0	872415232	66	4342
2026-01-14 12:47:13.15	286.10	14.84	-50.4	-51.8	14.3	0.00e+00	0	28	0	875560960	66	4375
2026-01-14 12:47:14.15	286.31	14.84	-50.5	-51.9	14.3	0.00e+00	0	28	0	878706688	66	4440
2026-01-14 12:47:15.16	286.52	14.84	-50.5	-51.9	14.3	0.00e+00	0	28	0	881852416	66	4396
2026-01-14 12:47:16.17	286.73	14.84	-50.6	-52.0	14.3	0.00e+00	0	28	0	884998144	66	4459
2026-01-14 12:47:17.18	286.95	14.84	-50.5	-51.9	14.3	0.00e+00	0	28	0	888143872	66	4396
2026-01-14 12:47:18.19	287.16	14.85	-50.5	-51.9	14.3	0.00e+00	0	28	0	892338176	66	4416
2026-01-14 12:47:19.20	287.37	14.85	-50.5	-51.9	14.3	0.00e+00	0	27	0	895483904	66	4420
2026-01-14 12:47:20.21	287.58	14.85	-50.5	-51.9	14.3	0.00e+00	0	28	0	897581056	66	4423
2026-01-14 12:47:21.22	287.80	14.85	-50.4	-51.8	14.4	0.00e+00	0	28	0	900726784	66	4343
2026-01-14 12:47:22.23	288.01	14.85	-50.5	-51.9	14.3	0.00e+00	0	28	0	903872512	66	4425
2026-01-14 12:47:23.24	288.22	14.85	-50.4	-51.8	14.3	0.00e+00	0	28	0	907018240	66	4379
2026-01-14 12:47:24.25	288.43	14.84	-50.5	-51.9	14.3	0.00e+00	0	27	0	911212544	66	4396
2026-01-14 12:47:25.26	288.65	14.84	-50.5	-51.9	14.3	0.00e+00	0	28	0	914358272	66	4395
2026-01-14 12:47:26.26	288.86	14.84	-50.4	-51.7	14.4	0.00e+00	0	28	0	917504000	66	4338
2026-01-14 12:47:27.27	289.07	14.84	-50.4	-51.8	14.4	0.00e+00	0	28	0	920649728	66	4342
2026-01-14 12:47:28.28	289.28	14.84	-50.4	-51.7	14.4	0.00e+00	0	28	0	922746880	66	4331
2026-01-14 12:47:29.29	289.49	14.83	-50.3	-51.6	14.4	0.00e+00	0	28	0	926941184	66	4287
2026-01-14 12:47:30.30	289.70	14.83	-50.2	-51.6	14.4	0.00e+00	0	27	0	930086912	66	4249
2026-01-14 12:47:31.31	289.92	14.83	-50.3	-51.6	14.4	0.00e+00	0	28	0	933232640	66	4271
2026-01-14 12:47:32.32	290.13	14.82	-50.2	-51.5	14.4	0.00e+00	0	28	0	936378368	66	4230
2026-01-14 12:47:33.33	290.34	14.82	-50.2	-51.5	14.5	0.00e+00	0	28	0	939524096	66	4226
2026-01-14 12:47:34.34	290.55	14.81	-50.3	-51.7	14.4	0.00e+00	0	28	0	942669824	66	4297
2026-01-14 12:47:35.35	290.77	14.81	-50.2	-51.6	14.4	0.00e+00	0	28	0	945815552	66	4254
2026-01-14 12:47:36.36	290.98	14.80	-50.2	-51.5	14.5	0.00e+00	0	28	0	948961280	66	4225
2026-01-14 12:47:37.37	291.19	14.80	-50.2	-51.5	14.5	0.00e+00	0	28	0	952107008	66	4201
2026-01-14 12:47:38.38	291.40	14.79	-50.1	-51.4	14.5	0.00e+00	0	28	0	955252736	66	4182
2026-01-14 12:47:39.39	291.61	14.78	-50.1	-51.4	14.5	0.00e+00	0	28	0	958398464	66	4149
2026-01-14 12:47:40.39	291.82	14.78	-50.0	-51.3	14.5	0.00e+00	0	28	0	961544192	66	4141
2026-01-14 12:47:41.40	292.03	14.77	-50.1	-51.5	14.5	0.00e+00	0	28	0	964689920	66	4199
2026-01-14 12:47:42.41	292.24	14.76	-50.1	-51.5	14.5	0.00e+00	0	28	0	967835648	66	4204
2026-01-14 12:47:43.42	292.46	14.75	-50.2	-51.6	14.4	0.00e+00	0	28	0	970981376	66	4256
2026-01-14 12:47:44.43	292.67	14.75	-50.2	-51.5	14.5	0.00e+00	0	28	0	974127104	66	4235
2026-01-14 12:47:45.44	292.88	14.74	-50.2	-51.6	14.4	0.00e+00	0	28	0	977272832	66	4246
2026-01-14 12:47:46.44	293.09	14.73	-50.3	-51.7	14.4	0.00e+00	0	28	0	980418560	66	4313
2026-01-14 12:47:47.45	293.30	14.72	-50.3	-51.7	14.4	0.00e+00	0	28	0	983564288	66	4293
2026-01-14 12:47:48.46	293.51	14.71	-50.3	-51.6	14.4	0.00e+00	0	28	0	986710016	66	4277
2026-01-14 12:47:49.47	293.72	14.70	-50.2	-51.5	14.5	0.00e+00	0	28	0	989855744	66	4230
2026-01-14 12:47:50.48	293.93	14.69	-50.2	-51.5	14.5	0.00e+00	0	28	0	993001472	66	4215
2026-01-14 12:47:51.48	294.14	14.68	-50.2	-51.6	14.4	0.00e+00	0	28	0	996147200	66	4258
2026-01-14 12:47:52.49	294.35	14.67	-50.2	-51.5	14.4	0.00e+00	0	28	0	999292928	66	4237
2026-01-14 12:47:53.50	294.56	14.66	-50.2	-51.6	14.4	0.00e+00	0	28	0	1002438656	66	4252
2026-01-14 12:47:54.52	294.77	14.64	-50.2	-51.6	14.4	0.00e+00	0	28	0	1005584384	66	4249
2026-01-14 12:47:55.52	294.98	14.63	-50.1	-51.4	14.5	0.00e+00	0	28	0	1008730112	66	4188
2026-01-14 12:47:56.53	295.18	14.62	-50.2	-51.5	14.5	0.00e+00	0	28	0	1011875840	66	4217
2026-01-14 12:47:57.54	295.39	14.61	-50.2	-51.5	14.5	0.00e+00	0	28	0	1015021568	66	4212
2026-01-14 12:47:58.55	295.60	14.59	-50.1	-51.4	14.5	0.00e+00	0	28	0	1018167296	66	4184
2026-01-14 12:47:59.56	295.81	14.58	-50.2	-51.6	14.4	0.00e+00	0	28	0	1021313024	66	4245
2026-01-14 12:48:00.57	296.02	14.57	-50.1	-51.5	14.5	0.00e+00	0	28	0	1024458752	66	4214
2026-01-14 12:48:01.57	296.23	14.55	-50.2	-51.6	14.4	0.00e+00	0	28	0	1027604480	66	4264
2026-01-14 12:48:02.58	296.43	14.54	-50.3	-51.7	14.4	0.00e+00	0	28	0	1030750208	66	4321
2026-01-14 12:48:03.59	296.64	14.52	-50.4	-51.8	14.4	0.00e+00	0	28	0	1033895936	66	4344
2026-01-14 12:48:04.60	296.85	14.51	-50.3	-51.7	14.4	0.00e+00	0	28	0	1037041664	66	4310
2026-01-14 12:48:05.61	297.06	14.49	-50.4	-51.8	14.4	0.00e+00	0	28	0	1040187392	66	4353
2026-01-14 12:48:06.62	297.27	14.48	-50.3	-51.6	14.4	0.00e+00	0	28	0	1043333120	66	4276
2026-01-14 12:48:07.63	297.47	14.46	-50.2	-51.6	14.4	0.00e+00	0	28	0	1046478848	66	4260
2026-01-14 12:48:08.63	297.68	14.44	-50.3	-51.6	14.4	0.00e+00	0	28	0	1049624576	66	4289
2026-01-14 12:48:09.64	297.88	14.43	-50.2	-51.5	14.5	0.00e+00	0	27	0	1052770304	66	4227
2026-01-14 12:48:10.65	298.09	14.41	-50.3	-51.7	14.4	0.00e+00	0	28	0	1055916032	66	4298
2026-01-14 12:48:11.66	298.30	14.39	-50.4	-51.7	14.4	0.00e+00	0	28	0	1059061760	66	4337
2026-01-14 12:48:12.67	298.50	14.37	-50.4	-51.7	14.4	0.00e+00	0	28	0	1062207488	66	4331
2026-01-14 12:48:13.68	298.71	14.35	-50.3	-51.7	14.4	0.00e+00	0	28	0	1065353216	66	4313
2026-01-14 12:48:14.69	298.91	14.34	-50.2	-51.5	14.5	0.00e+00	0	28	0	1068498944	66	4222
2026-01-14 12:48:15.70	299.12	14.32	-50.1	-51.5	14.5	0.00e+00	0	28	0	1071644672	66	4197
2026-01-14 12:48:16.71	299.32	14.30	-50.2	-51.5	14.4	0.00e+00	0	28	0	1074790400	66	4236
2026-01-14 12:48:17.71	299.53	14.28	-50.2	-51.6	14.4	0.00e+00	0	28	0	1077936128	66	4261
2026-01-14 12:48:18.72	299.73	14.26	-50.3	-51.7	14.4	0.00e+00	0	28	0	1081081856	66	4311
2026-01-14 12:48:19.74	299.94	14.24	-50.4	-51.8	14.4	0.00e+00	0	28	0	1084227584	66	4343
2026-01-14 12:48:20.74	300.14	14.22	-50.3	-51.7	14.4	0.00e+00	0	28	0	1087373312	66	4294
2026-01-14 12:48:21.75	300.34	14.20	-50.3	-51.7	14.4	0.00e+00	0	28	0	1090519040	66	4305
2026-01-14 12:48:22.76	300.55	14.18	-50.3	-51.7	14.4	0.00e+00	0	28	0	1093664768	66	4319
2026-01-14 12:48:23.77	300.75	14.15	-50.3	-51.7	14.4	0.00e+00	0	28	0	1096810496	66	4303
2026-01-14 12:48:24.78	300.95	14.13	-50.3	-51.7	14.4	0.00e+00	0	28	0	1099956224	66	4302
2026-01-14 12:48:25.79	301.15	14.11	-50.1	-51.4	14.5	0.00e+00	0	28	0	1103101952	66	4181
2026-01-14 12:48:26.80	301.36	14.09	-50.1	-51.4	14.5	0.00e+00	0	28	0	1106247680	66	4158
2026-01-14 12:48:27.80	301.56	14.07	-50.2	-51.5	14.4	0.00e+00	0	28	0	1109393408	66	4220
2026-01-14 12:48:28.81	301.76	14.04	-50.1	-51.5	14.4	0.00e+00	0	28	0	1112539136	66	4196
2026-01-14 12:48:29.82	301.96	14.02	-50.2	-51.6	14.4	0.00e+00	0	28	0	1115684864	66	4243
2026-01-14 12:48:30.83	302.16	14.00	-50.2	-51.5	14.4	0.00e+00	0	28	0	1118830592	66	4229
2026-01-14 12:48:31.84	302.36	13.97	-50.1	-51.5	14.4	0.00e+00	0	28	0	1121976320	66	4220
2026-01-14 12:48:32.84	302.56	13.95	-50.2	-51.5	14.4	0.00e+00	0	28	0	1125122048	66	4222
2026-01-14 12:48:33.85	302.76	13.92	-50.2	-51.5	14.4	0.00e+00	0	28	0	1128267776	66	4229
2026-01-14 12:48:34.87	302.96	13.90	-50.1	-51.5	14.4	0.00e+00	0	28	0	1131413504	66	4210
2026-01-14 12:48:35.88	303.16	13.87	-50.2	-51.6	14.4	0.00e+00	0	28	0	1134559232	66	4253
2026-01-14 12:48:36.88	303.36	13.85	-50.2	-51.5	14.4	0.00e+00	0	28	0	1137704960	66	4226
2026-01-14 12:48:37.89	303.56	13.82	-50.1	-51.5	14.4	0.00e+00	0	28	0	1140850688	66	4219
2026-01-14 12:48:38.91	303.76	13.80	-50.2	-51.5	14.4	0.00e+00	0	28	0	1143996416	66	4232
2026-01-14 12:48:39.92	303.95	13.77	-50.1	-51.4	14.5	0.00e+00	0	28	0	1147142144	66	4186
2026-01-14 12:48:40.93	304.15	13.74	-50.1	-51.4	14.5	0.00e+00	0	27	0	1150287872	66	4182
2026-01-14 12:48:41.94	304.35	13.72	-50.0	-51.3	14.5	0.00e+00	0	28	0	1153433600	66	4144
2026-01-14 12:48:42.95	304.55	13.69	-50.0	-51.3	14.5	0.00e+00	0	28	0	1156579328	66	4119
2026-01-14 12:48:43.96	304.74	13.66	-50.0	-51.3	14.5	0.00e+00	0	28	0	1159725056	66	4144
2026-01-14 12:48:44.96	304.94	13.64	-49.9	-51.3	14.5	0.00e+00	0	28	0	1162870784	66	4099
2026-01-14 12:48:45.97	305.13	13.61	-50.0	-51.4	14.5	0.00e+00	0	28	0	1166016512	66	4147
2026-01-14 12:48:46.98	305.33	13.58	-50.0	-51.4	14.5	0.00e+00	0	28	0	1169162240	66	4149
2026-01-14 12:48:47.99	305.52	13.55	-50.0	-51.3	14.5	0.00e+00	0	28	0	1172307968	66	4135
2026-01-14 12:48:48.99	305.72	13.52	-50.1	-51.5	14.4	0.00e+00	0	28	0	1175453696	66	4201
2026-01-14 12:48:50.00	305.91	13.49	-50.2	-51.5	14.4	0.00e+00	0	28	0	1178599424	66	4226
2026-01-14 12:48:51.01	306.10	13.46	-50.1	-51.4	14.5	0.00e+00	0	28	0	1181745152	66	4174
2026-01-14 12:48:52.02	306.30	13.43	-50.2	-51.6	14.4	0.00e+00	0	28	0	1184890880	66	4245
2026-01-14 12:48:53.03	306.49	13.41	-50.2	-51.6	14.4	0.00e+00	0	28	0	1188036608	66	4257
2026-01-14 12:48:54.04	306.68	13.38	-50.2	-51.6	14.4	0.00e+00	0	28	0	1191182336	66	4243
2026-01-14 12:48:55.05	306.88	13.34	-50.2	-51.6	14.4	0.00e+00	0	28	0	1194328064	66	4247
2026-01-14 12:48:56.06	307.07	13.31	-50.2	-51.6	14.4	0.00e+00	0	28	0	1197473792	66	4280
2026-01-14 12:48:57.06	307.26	13.28	-50.3	-51.6	14.4	0.00e+00	0	28	0	1200619520	66	4291
2026-01-14 12:48:58.07	307.45	13.25	-50.2	-51.6	14.4	0.00e+00	0	28	0	1203765248	66	4267
2026-01-14 12:48:59.08	307.64	13.22	-50.3	-51.7	14.4	0.00e+00	0	28	0	1206910976	66	4308
2026-01-14 12:49:00.09	307.83	13.19	-50.3	-51.7	14.4	0.00e+00	0	28	0	1210056704	66	4295
2026-01-14 12:49:01.10	308.02	13.16	-50.3	-51.6	14.4	0.00e+00	0	28	0	1213202432	66	4283
2026-01-14 12:49:02.11	308.21	13.13	-50.3	-51.7	14.3	0.00e+00	0	28	0	1216348160	66	4314
2026-01-14 12:49:03.12	308.40	13.09	-50.4	-51.8	14.3	0.00e+00	0	28	0	1219493888	66	4364
2026-01-14 12:49:04.13	308.59	13.06	-50.3	-51.7	14.4	0.00e+00	0	28	0	1222639616	66	4302
2026-01-14 12:49:05.13	308.78	13.03	-50.3	-51.7	14.3	0.00e+00	0	28	0	1225785344	66	4329
2026-01-14 12:49:06.15	308.97	13.00	-50.3	-51.7	14.3	0.00e+00	0	28	0	1228931072	66	4314
2026-01-14 12:49:07.16	309.15	12.96	-50.3	-51.7	14.3	0.00e+00	0	28	0	1232076800	66	4314
2026-01-14 12:49:08.17	309.34	12.93	-50.3	-51.7	14.3	0.00e+00	0	28	0	1235222528	66	4299
2026-01-14 12:49:09.18	309.53	12.90	-50.2	-51.6	14.4	0.00e+00	0	28	0	1238368256	66	4262
2026-01-14 12:49:10.18	309.71	12.86	-50.3	-51.7	14.4	0.00e+00	0	28	0	1241513984	66	4294
2026-01-14 12:49:11.19	309.90	12.83	-50.3	-51.7	14.3	0.00e+00	0	28	0	1244659712	66	4302
2026-01-14 12:49:12.20	310.08	12.79	-50.3	-51.6	14.4	0.00e+00	0	27	0	1247805440	66	4288
2026-01-14 12:49:13.21	310.27	12.76	-50.2	-51.6	14.4	0.00e+00	0	28	0	1250951168	66	4275
2026-01-14 12:49:14.22	310.45	12.72	-50.2	-51.6	14.4	0.00e+00	0	28	0	1254096896	66	4246
2026-01-14 12:49:15.23	310.64	12.69	-50.3	-51.7	14.3	0.00e+00	0	28	0	1257242624	66	4300
2026-01-14 12:49:16.23	310.82	12.65	-50.2	-51.6	14.4	0.00e+00	0	28	0	1260388352	66	4252
2026-01-14 12:49:17.24	311.00	12.62	-50.3	-51.6	14.4	0.00e+00	0	28	0	1263534080	66	4278
2026-01-14 12:49:18.25	311.19	12.58	-50.3	-51.6	14.4	0.00e+00	0	28	0	1266679808	66	4285
2026-01-14 12:49:19.26	311.37	12.55	-50.2	-51.5	14.4	0.00e+00	0	28	0	1269825536	66	4232
2026-01-14 12:49:20.27	311.55	12.51	-50.1	-51.4	14.4	0.00e+00	0	28	0	1272971264	66	4177
2026-01-14 12:49:21.28	311.73	12.48	-50.1	-51.4	14.4	0.00e+00	0	28	0	1276116992	66	4188
2026-01-14 12:49:22.29	311.91	12.44	-50.1	-51.5	14.4	0.00e+00	0	28	0	1279262720	66	4205
2026-01-14 12:49:23.29	312.09	12.40	-50.1	-51.5	14.4	0.00e+00	0	28	0	1282408448	66	4217
2026-01-14 12:49:24.31	312.28	12.37	-50.0	-51.3	14.5	0.00e+00	0	28	0	1285554176	66	4145
2026-01-14 12:49:25.32	312.46	12.33	-50.0	-51.3	14.5	0.00e+00	0	28	0	1288699904	66	4139
2026-01-14 12:49:26.32	312.63	12.29	-50.0	-51.3	14.5	0.00e+00	0	28	0	1291845632	66	4121
2026-01-14 12:49:27.33	312.81	12.25	-49.9	-51.2	14.5	0.00e+00	0	28	0	1294991360	66	4096
2026-01-14 12:49:28.34	312.99	12.22	-49.9	-51.2	14.5	0.00e+00	0	28	0	1298137088	66	4083
2026-01-14 12:49:29.35	313.17	12.18	-49.9	-51.2	14.5	0.00e+00	0	28	0	1301282816	66	4072
2026-01-14 12:49:30.35	313.35	12.14	-50.0	-51.3	14.5	0.00e+00	0	28	0	1304428544	66	4139
2026-01-14 12:49:31.36	313.52	12.10	-50.0	-51.3	14.4	0.00e+00	0	28	0	1307574272	66	4143
2026-01-14 12:49:32.37	313.70	12.06	-50.2	-51.5	14.4	0.00e+00	0	28	0	1310720000	66	4231
2026-01-14 12:49:33.38	313.88	12.03	-50.2	-51.6	14.4	0.00e+00	0	28	0	1313865728	66	4258
2026-01-14 12:49:34.39	314.05	11.99	-50.3	-51.7	14.3	0.00e+00	0	28	0	1317011456	66	4315
2026-01-14 12:49:35.40	314.23	11.95	-50.2	-51.6	14.4	0.00e+00	0	28	0	1320157184	66	4278
2026-01-14 12:49:36.40	314.40	11.91	-50.3	-51.7	14.3	0.00e+00	0	28	0	1323302912	66	4303
2026-01-14 12:49:37.42	314.58	11.87	-50.3	-51.7	14.3	0.00e+00	0	28	0	1326448640	66	4328
2026-01-14 12:49:38.42	314.75	11.83	-50.3	-51.7	14.3	0.00e+00	0	28	0	1329594368	66	4305
2026-01-14 12:49:39.43	314.92	11.79	-50.3	-51.7	14.3	0.00e+00	0	28	0	1332740096	66	4338
2026-01-14 12:49:40.44	315.10	11.75	-50.3	-51.8	14.3	0.00e+00	0	28	0	1335885824	66	4342
2026-01-14 12:49:41.45	315.27	11.71	-50.4	-51.9	14.2	0.00e+00	0	28	0	1339031552	66	4394
2026-01-14 12:49:42.46	315.44	11.67	-50.3	-51.7	14.3	0.00e+00	0	28	0	1342177280	66	4312
2026-01-14 12:49:43.47	315.61	11.63	-50.3	-51.7	14.3	0.00e+00	0	28	0	1345323008	66	4295
2026-01-14 12:49:44.48	315.79	11.59	-50.3	-51.7	14.3	0.00e+00	0	28	0	1348468736	66	4294
2026-01-14 12:49:45.48	315.96	11.55	-50.4	-51.8	14.3	0.00e+00	0	28	0	1351614464	66	4356
2026-01-14 12:49:46.49	316.13	11.51	-50.3	-51.7	14.3	0.00e+00	0	28	0	1354760192	66	4326
2026-01-14 12:49:47.50	316.30	11.47	-50.3	-51.7	14.3	0.00e+00	0	28	0	1357905920	66	4297
2026-01-14 12:49:48.51	316.47	11.43	-50.3	-51.7	14.3	0.00e+00	0	28	0	1361051648	66	4322
2026-01-14 12:49:49.52	316.64	11.39	-50.2	-51.6	14.3	0.00e+00	0	27	0	1364197376	66	4283
2026-01-14 12:49:50.53	316.80	11.35	-50.3	-51.7	14.3	0.00e+00	0	28	0	1367343104	66	4326
2026-01-14 12:49:51.54	316.97	11.30	-50.4	-51.8	14.2	0.00e+00	0	28	0	1371537408	66	4372
2026-01-14 12:49:52.55	317.14	11.26	-50.6	-52.0	14.2	0.00e+00	0	28	0	1374683136	66	4461
2026-01-14 12:49:53.56	317.31	11.22	-50.5	-51.9	14.2	0.00e+00	0	28	0	1377828864	66	4417
2026-01-14 12:49:54.57	317.47	11.18	-50.5	-51.9	14.2	0.00e+00	0	28	0	1379926016	66	4398
2026-01-14 12:49:55.58	317.64	11.14	-50.5	-51.9	14.2	0.00e+00	0	28	0	1383071744	66	4422
2026-01-14 12:49:56.59	317.81	11.09	-50.5	-52.0	14.2	0.00e+00	0	28	0	1387266048	66	4451
2026-01-14 12:49:57.60	317.97	11.05	-50.6	-52.1	14.1	0.00e+00	0	28	0	1390411776	66	4516
2026-01-14 12:49:58.61	318.14	11.01	-50.6	-52.1	14.1	0.00e+00	0	27	0	1393557504	66	4508
2026-01-14 12:49:59.62	318.30	10.97	-50.5	-52.0	14.2	0.00e+00	0	28	0	1396703232	66	4458
2026-01-14 12:50:00.64	318.47	10.92	-50.5	-52.0	14.1	0.00e+00	0	28	0	1399848960	66	4468
2026-01-14 12:50:01.64	318.63	10.88	-50.6	-52.1	14.1	0.00e+00	0	28	0	1402994688	66	4498
2026-01-14 12:50:02.65	318.79	10.84	-50.6	-52.1	14.1	0.00e+00	0	28	0	1406140416	66	4507
2026-01-14 12:50:03.65	318.95	10.80	-50.6	-52.0	14.1	0.00e+00	0	28	0	1409286144	66	4486
2026-01-14 12:50:04.66	319.12	10.75	-50.6	-52.0	14.1	0.00e+00	0	28	0	1412431872	66	4481
2026-01-14 12:50:05.67	319.28	10.71	-50.6	-52.1	14.1	0.00e+00	0	28	0	1415577600	66	4509
2026-01-14 12:50:06.68	319.44	10.67	-50.6	-52.1	14.1	0.00e+00	0	28	0	1418723328	66	4531
2026-01-14 12:50:07.69	319.60	10.62	-50.7	-52.3	14.1	0.00e+00	0	28	0	1421869056	66	4599
2026-01-14 12:50:08.70	319.76	10.58	-50.8	-52.3	14.0	0.00e+00	0	28	0	1425014784	66	4604
2026-01-14 12:50:09.70	319.92	10.53	-50.8	-52.4	14.0	0.00e+00	0	28	0	1428160512	66	4655
2026-01-14 12:50:10.70	320.08	10.49	-50.8	-52.4	14.0	0.00e+00	0	28	0	1431306240	66	4654
2026-01-14 12:50:11.71	320.24	10.45	-50.9	-52.5	14.0	0.00e+00	0	28	0	1434451968	66	4706
2026-01-14 12:50:12.72	320.39	10.40	-50.8	-52.4	14.1	0.00e+00	0	28	0	1437597696	67	4397
2026-01-14 12:50:13.73	320.55	10.36	-50.9	-52.5	14.0	0.00e+00	0	28	0	1440743424	67	4459
2026-01-14 12:50:14.74	320.71	10.31	-51.0	-52.5	14.0	0.00e+00	0	28	0	1443889152	67	4479
2026-01-14 12:50:15.75	320.87	10.27	-50.9	-52.5	14.0	0.00e+00	0	28	0	1447034880	67	4452
2026-01-14 12:50:16.76	321.02	10.23	-51.0	-52.5	14.0	0.00e+00	0	28	0	1450180608	67	4481
2026-01-14 12:50:17.76	321.18	10.18	-50.9	-52.4	14.0	0.00e+00	0	28	0	1453326336	67	4441
2026-01-14 12:50:18.77	321.33	10.14	-50.9	-52.4	14.0	0.00e+00	0	28	0	1456472064	67	4432
2026-01-14 12:50:19.78	321.49	10.09	-50.8	-52.4	14.1	0.00e+00	0	28	0	1459617792	67	4392
2026-01-14 12:50:20.79	321.64	10.05	-50.7	-52.2	14.2	0.00e+00	0	28	0	1462763520	67	4296
2026-01-14 12:50:21.80	321.80	10.00	-50.7	-52.2	14.1	0.00e+00	0	28	0	1465909248	67	4326
2026-01-14 12:50:22.81	321.95	9.96	-50.7	-52.2	14.2	0.00e+00	0	28	0	1469054976	67	4322
2026-01-14 12:50:23.82	322.11	9.91	-50.7	-52.2	14.2	0.00e+00	0	28	0	1472200704	67	4311
2026-01-14 12:50:24.83	322.26	9.87	-50.7	-52.2	14.2	0.00e+00	0	28	0	1475346432	67	4307
2026-01-14 12:50:25.83	322.41	9.82	-50.7	-52.2	14.1	0.00e+00	0	28	0	1478492160	67	4328
2026-01-14 12:50:26.84	322.56	9.77	-50.8	-52.3	14.1	0.00e+00	0	28	0	1481637888	67	4368
2026-01-14 12:50:27.85	322.71	9.73	-50.9	-52.5	14.0	0.00e+00	0	28	0	1484783616	67	4442
2026-01-14 12:50:28.85	322.86	9.68	-51.0	-52.5	14.0	0.00e+00	0	28	0	1487929344	67	4477
2026-01-14 12:50:29.86	323.01	9.64	-51.0	-52.6	14.0	0.00e+00	0	28	0	1491075072	67	4529
2026-01-14 12:50:30.87	323.16	9.59	-51.1	-52.7	13.9	0.00e+00	0	28	0	1494220800	67	4549
2026-01-14 12:50:31.88	323.31	9.55	-51.1	-52.6	14.0	0.00e+00	0	28	0	1497366528	67	4540
2026-01-14 12:50:32.89	323.46	9.50	-51.1	-52.7	13.9	0.00e+00	0	28	0	1500512256	67	4551
2026-01-14 12:50:33.90	323.61	9.45	-51.1	-52.7	13.9	0.00e+00	0	28	0	1503657984	67	4557
2026-01-14 12:50:34.91	323.76	9.41	-51.1	-52.7	13.9	0.00e+00	0	28	0	1506803712	67	4592
2026-01-14 12:50:35.91	323.91	9.36	-51.1	-52.7	13.9	0.00e+00	0	28	0	1509949440	67	4568
2026-01-14 12:50:36.92	324.05	9.31	-51.1	-52.7	13.9	0.00e+00	0	28	0	1513095168	67	4571
2026-01-14 12:50:37.93	324.20	9.27	-51.2	-52.8	13.9	0.00e+00	0	28	0	1516240896	67	4614
2026-01-14 12:50:38.94	324.35	9.22	-51.1	-52.7	13.9	0.00e+00	0	28	0	1519386624	67	4583
2026-01-14 12:50:39.95	324.49	9.17	-51.1	-52.6	13.9	0.00e+00	0	28	0	1522532352	67	4540
2026-01-14 12:50:40.95	324.64	9.13	-51.0	-52.6	14.0	0.00e+00	0	28	0	1525678080	67	4500
2026-01-14 12:50:41.96	324.78	9.08	-51.1	-52.7	13.9	0.00e+00	0	28	0	1528823808	67	4548
2026-01-14 12:50:42.97	324.93	9.03	-51.0	-52.5	14.0	0.00e+00	0	28	0	1531969536	67	4492
2026-01-14 12:50:43.98	325.07	8.99	-51.0	-52.6	14.0	0.00e+00	0	28	0	1535115264	67	4504
2026-01-14 12:50:44.99	325.22	8.94	-51.1	-52.7	13.9	0.00e+00	0	28	0	1538260992	67	4567
2026-01-14 12:50:46.00	325.36	8.89	-51.1	-52.7	13.9	0.00e+00	0	28	0	1541406720	67	4581
2026-01-14 12:50:47.00	325.50	8.85	-51.1	-52.7	13.9	0.00e+00	0	28	0	1544552448	67	4583
2026-01-14 12:50:48.01	325.64	8.80	-51.1	-52.7	13.9	0.00e+00	0	28	0	1547698176	67	4576
2026-01-14 12:50:49.02	325.79	8.75	-51.2	-52.7	13.9	0.00e+00	0	28	0	1550843904	67	4597
2026-01-14 12:50:50.03	325.93	8.71	-51.2	-52.8	13.9	0.00e+00	0	28	0	1553989632	67	4617
2026-01-14 12:50:51.04	326.07	8.66	-51.1	-52.7	13.9	0.00e+00	0	28	0	1557135360	67	4580
2026-01-14 12:50:52.05	326.21	8.61	-51.2	-52.8	13.9	0.00e+00	0	28	0	1560281088	67	4599
2026-01-14 12:50:53.06	326.35	8.56	-51.2	-52.8	13.8	0.00e+00	0	28	0	1563426816	67	4642
2026-01-14 12:50:54.07	326.49	8.52	-51.2	-52.9	13.8	0.00e+00	0	27	0	1566572544	67	4652
2026-01-14 12:50:55.08	326.63	8.47	-51.2	-52.8	13.8	0.00e+00	0	28	0	1569718272	67	4648
2026-01-14 12:50:56.09	326.77	8.42	-51.3	-53.0	13.8	0.00e+00	0	28	0	1572864000	67	4714
2026-01-14 12:50:57.09	326.91	8.37	-51.4	-53.1	13.7	0.00e+00	0	28	0	1576009728	67	4760
2026-01-14 12:50:58.10	327.05	8.33	-51.3	-52.9	13.8	0.00e+00	0	28	0	1579155456	67	4681
2026-01-14 12:50:59.11	327.18	8.28	-51.3	-52.9	13.8	0.00e+00	0	28	0	1582301184	67	4667
2026-01-14 12:51:00.12	327.32	8.23	-51.3	-52.9	13.8	0.00e+00	0	28	0	1585446912	67	4691
2026-01-14 12:51:01.13	327.46	8.18	-51.4	-53.0	13.7	0.00e+00	0	28	0	1588592640	67	4737
2026-01-14 12:51:02.13	327.59	8.13	-51.1	-52.7	13.9	0.00e+00	0	28	0	1591738368	67	4572
2026-01-14 12:51:03.14	327.73	8.09	-51.2	-52.8	13.8	0.00e+00	0	28	0	1594884096	67	4616
2026-01-14 12:51:04.15	327.86	8.04	-51.3	-52.9	13.8	0.00e+00	0	28	0	1598029824	67	4663
2026-01-14 12:51:05.15	328.00	7.99	-51.2	-52.8	13.8	0.00e+00	0	28	0	1601175552	67	4651
2026-01-14 12:51:06.16	328.13	7.94	-51.3	-52.9	13.8	0.00e+00	0	28	0	1604321280	67	4678
2026-01-14 12:51:07.16	328.27	7.90	-51.4	-53.1	13.7	0.00e+00	0	28	0	1607467008	67	4760
2026-01-14 12:51:08.17	328.40	7.85	-51.4	-53.0	13.7	0.00e+00	0	28	0	1610612736	67	4746
2026-01-14 12:51:09.18	328.53	7.80	-51.3	-53.0	13.7	0.00e+00	0	28	0	1613758464	67	4726
2026-01-14 12:51:10.20	328.67	7.75	-51.6	-53.3	13.7	0.00e+00	0	28	0	1616904192	68	4641
2026-01-14 12:51:11.20	328.80	7.70	-51.5	-53.2	13.8	0.00e+00	0	28	0	1620049920	68	4563
2026-01-14 12:51:12.21	328.93	7.65	-51.7	-53.5	13.6	0.00e+00	0	28	0	1623195648	68	4710
2026-01-14 12:51:13.22	329.06	7.61	-51.8	-53.5	13.6	0.00e+00	0	27	0	1626341376	68	4739
2026-01-14 12:51:14.23	329.19	7.56	-51.8	-53.5	13.6	0.00e+00	0	28	0	1629487104	68	4734
2026-01-14 12:51:15.24	329.33	7.51	-51.3	-53.0	13.9	0.00e+00	0	28	0	1632632832	68	4457
2026-01-14 12:51:16.24	329.45	7.46	-51.5	-53.2	13.8	0.00e+00	0	28	0	1635778560	68	4546
2026-01-14 12:51:17.25	329.58	7.41	-51.5	-53.1	13.8	0.00e+00	0	28	0	1638924288	68	4530
2026-01-14 12:51:18.26	329.71	7.36	-51.5	-53.2	13.8	0.00e+00	0	28	0	1642070016	68	4576
2026-01-14 12:51:19.26	329.84	7.32	-51.6	-53.3	13.7	0.00e+00	0	28	0	1645215744	68	4605
2026-01-14 12:51:20.27	329.97	7.27	-51.7	-53.4	13.6	0.00e+00	0	28	0	1648361472	68	4691
2026-01-14 12:51:21.28	330.10	7.22	-51.6	-53.2	13.7	0.00e+00	0	28	0	1651507200	68	4588
2026-01-14 12:51:22.28	330.23	7.17	-51.7	-53.4	13.6	0.00e+00	0	28	0	1654652928	68	4695
2026-01-14 12:51:23.29	330.35	7.12	-51.7	-53.4	13.7	0.00e+00	0	28	0	1657798656	68	4672
2026-01-14 12:51:24.30	330.48	7.07	-52.1	-53.8	13.5	0.00e+00	0	28	0	1660944384	69	4650
2026-01-14 12:51:25.31	330.61	7.02	-51.3	-52.9	14.0	0.00e+00	0	28	0	1664090112	69	4151
2026-01-14 12:51:26.32	330.73	6.98	-51.5	-53.2	13.8	0.00e+00	0	27	0	1667235840	68	4564
2026-01-14 12:51:27.32	330.86	6.93	-51.8	-53.5	13.7	0.00e+00	0	28	0	1670381568	69	4491
2026-01-14 12:51:28.32	330.98	6.88	-51.7	-53.4	13.7	0.00e+00	0	28	0	1673527296	69	4420
2026-01-14 12:51:29.32	331.11	6.83	-51.8	-53.5	13.7	0.00e+00	0	28	0	1676673024	69	4490
2026-01-14 12:51:30.33	331.23	6.78	-51.8	-53.5	13.7	0.00e+00	0	28	0	1679818752	69	4483
2026-01-14 12:51:31.34	331.36	6.73	-51.8	-53.5	13.7	0.00e+00	0	28	0	1682964480	69	4483
2026-01-14 12:51:32.35	331.48	6.68	-51.6	-53.3	13.8	0.00e+00	0	28	0	1686110208	69	4346
2026-01-14 12:51:33.36	331.60	6.64	-51.7	-53.4	13.7	0.00e+00	0	28	0	1689255936	69	4398
2026-01-14 12:51:34.37	331.73	6.59	-51.8	-53.6	13.6	0.00e+00	0	28	0	1692401664	69	4523
2026-01-14 12:51:35.37	331.85	6.54	-51.6	-53.3	13.8	0.00e+00	0	28	0	1695547392	69	4341
2026-01-14 12:51:36.37	331.97	6.49	-51.9	-53.7	13.6	0.00e+00	0	28	0	1698693120	69	4570
2026-01-14 12:51:37.38	332.09	6.44	-51.9	-53.7	13.6	0.00e+00	0	28	0	1701838848	69	4566
2026-01-14 12:51:38.39	332.21	6.39	-51.6	-53.3	13.7	0.00e+00	0	28	0	1704984576	69	4377
2026-01-14 12:51:39.41	332.34	6.34	-51.7	-53.4	13.7	0.00e+00	0	28	0	1708130304	69	4440
2026-01-14 12:51:40.42	332.46	6.29	-51.8	-53.5	13.6	0.00e+00	0	28	0	1711276032	69	4466
2026-01-14 12:51:41.42	332.58	6.24	-51.8	-53.5	13.6	0.00e+00	0	28	0	1714421760	69	4481
2026-01-14 12:51:42.43	332.70	6.20	-51.5	-53.2	13.8	0.00e+00	0	28	0	1717567488	69	4328
2026-01-14 12:51:43.44	332.82	6.15	-51.7	-53.5	13.6	0.00e+00	0	28	0	1720713216	69	4457
2026-01-14 12:51:44.44	332.94	6.10	-51.7	-53.4	13.7	0.00e+00	0	28	0	1723858944	69	4428
2026-01-14 12:51:45.45	333.05	6.05	-51.9	-53.6	13.6	0.00e+00	0	28	0	1727004672	69	4544
2026-01-14 12:51:46.46	333.17	6.00	-51.8	-53.6	13.6	0.00e+00	0	28	0	1730150400	69	4535
2026-01-14 12:51:47.47	333.29	5.95	-51.8	-53.6	13.6	0.00e+00	0	28	0	1733296128	69	4521
2026-01-14 12:51:48.48	333.41	5.90	-52.2	-54.1	13.3	0.00e+00	0	28	0	1736441856	69	4778
2026-01-14 12:51:49.48	333.53	5.85	-52.0	-53.9	13.4	0.00e+00	0	28	0	1739587584	69	4662
2026-01-14 12:51:50.49	333.64	5.80	-52.0	-53.9	13.4	0.00e+00	0	28	0	1742733312	69	4665
2026-01-14 12:51:51.50	333.76	5.76	-51.9	-53.7	13.5	0.00e+00	0	28	0	1745879040	69	4558
2026-01-14 12:51:52.51	333.88	5.71	-51.9	-53.8	13.5	0.00e+00	0	28	0	1749024768	69	4601
2026-01-14 12:51:53.52	333.99	5.66	-52.0	-53.9	13.4	0.00e+00	0	28	0	1752170496	69	4676
2026-01-14 12:51:54.52	334.11	5.61	-51.9	-53.7	13.5	0.00e+00	0	28	0	1755316224	69	4589
2026-01-14 12:51:55.53	334.22	5.56	-52.2	-54.1	13.2	0.00e+00	0	28	0	1758461952	69	4787
2026-01-14 12:51:56.54	334.34	5.51	-52.1	-54.0	13.3	0.00e+00	0	28	0	1761607680	69	4725
2026-01-14 12:51:57.55	334.45	5.46	-51.9	-53.7	13.4	0.00e+00	0	28	0	1764753408	69	4574
2026-01-14 12:51:58.56	334.56	5.41	-52.4	-54.4	13.0	0.00e+00	0	28	0	1767899136	69	4963
2026-01-14 12:51:59.57	334.68	5.36	-51.8	-53.7	13.4	0.00e+00	0	28	0	1771044864	69	4598
2026-01-14 12:52:00.58	334.79	5.31	-52.0	-53.9	13.3	0.00e+00	0	28	0	1774190592	69	4657
2026-01-14 12:52:01.58	334.90	5.27	-52.0	-54.0	13.2	0.00e+00	0	28	0	1777336320	69	4733
2026-01-14 12:52:02.59	335.02	5.22	-52.1	-54.1	13.2	0.00e+00	0	28	0	1780482048	69	4779
2026-01-14 12:52:03.60	335.13	5.17	-51.9	-53.8	13.3	0.00e+00	0	28	0	1783627776	69	4641
2026-01-14 12:52:04.61	335.24	5.12	-52.2	-54.2	13.1	0.00e+00	0	28	0	1786773504	69	4829
2026-01-14 12:52:05.62	335.35	5.07	-52.3	-54.4	13.0	0.00e+00	0	28	0	1789919232	69	4929
2026-01-14 12:52:06.63	335.46	5.02	-52.6	-54.6	13.0	0.00e+00	0	28	0	1793064960	70	4803
2026-01-14 12:52:07.64	335.57	4.97	-55.6	-59.4	10.5	0.00e+00	0	28	0	1796210688	76	5867
2026-01-14 12:52:08.65	335.68	4.92	-59.0	-72.8	3.8	1.49e+00	0	28	104	1797259264	83	18358
2026-01-14 12:52:09.66	335.79	4.87	-59.3	-73.2	3.8	1.49e+00	0	28	104	1797259264	83	19191
2026-01-14 12:52:10.67	335.90	4.82	-59.7	-73.6	3.8	1.49e+00	0	28	104	1797259264	84	18996
2026-01-14 12:52:11.68	336.01	4.78	-59.9	-73.8	3.8	1.49e+00	0	28	104	1797259264	85	18421
2026-01-14 12:52:12.68	336.12	4.73	-60.1	-73.9	3.8	1.49e+00	0	28	104	1797259264	85	18629
2026-01-14 12:52:13.69	336.23	4.68	-60.2	-74.1	3.8	1.49e+00	0	28	104	1797259264	85	18954
2026-01-14 12:52:14.70	336.34	4.63	-60.3	-74.2	3.8	1.49e+00	0	28	104	1797259264	85	19224
2026-01-14 12:52:15.71	336.45	4.58	-60.4	-74.2	3.8	1.49e+00	0	28	104	1797259264	85	19332
2026-01-14 12:52:16.72	336.56	4.53	-60.5	-74.3	3.8	1.49e+00	0	28	104	1797259264	86	18455
2026-01-14 12:52:17.73	336.66	4.48	-60.5	-74.4	3.8	1.49e+00	0	28	104	1797259264	86	18537
2026-01-14 12:52:18.74	336.77	4.43	-60.6	-74.4	3.8	1.49e+00	0	28	104	1797259264	86	18584
2026-01-14 12:52:19.75	336.88	4.38	-60.6	-74.5	3.8	1.49e+00	0	28	104	1797259264	86	18738
2026-01-14 12:52:20.76	336.98	4.34	-60.6	-74.5	3.8	1.49e+00	0	28	104	1797259264	86	18763
2026-01-14 12:52:21.76	337.09	4.29	-60.6	-74.5	3.8	1.49e+00	0	28	104	1797259264	86	18755
2026-01-14 12:52:22.78	337.19	4.24	-60.7	-74.5	3.8	1.49e+00	0	28	104	1797259264	86	18884
2026-01-14 12:52:23.78	337.30	4.19	-60.7	-74.5	3.8	1.49e+00	0	28	104	1797259264	86	18845
2026-01-14 12:52:24.79	337.40	4.14	-60.7	-74.5	3.8	1.49e+00	0	28	104	1797259264	86	18865
2026-01-14 12:52:25.80	337.51	4.09	-60.7	-74.5	3.8	1.49e+00	0	28	104	1797259264	86	18903
2026-01-14 12:52:26.81	337.61	4.04	-60.7	-74.6	3.8	1.49e+00	0	28	104	1797259264	86	19015
2026-01-14 12:52:27.82	337.72	3.99	-60.7	-74.6	3.8	1.49e+00	0	28	104	1797259264	86	19037
2026-01-14 12:52:28.83	337.82	3.94	-60.7	-74.6	3.9	1.49e+00	0	28	104	1797259264	86	19065
2026-01-14 12:52:29.84	337.92	3.90	-60.7	-74.6	3.8	1.49e+00	0	28	104	1797259264	86	19023
2026-01-14 12:52:30.85	338.03	3.85	-60.7	-74.5	3.8	1.49e+00	0	28	104	1797259264	86	18934
2026-01-14 12:52:31.85	338.13	3.80	-60.7	-74.5	3.8	1.49e+00	0	28	104	1797259264	86	18854
2026-01-14 12:52:32.86	338.23	3.75	-60.7	-74.5	3.8	1.49e+00	0	28	104	1797259264	86	18826
2026-01-14 12:52:33.87	338.33	3.70	-60.6	-74.5	3.8	1.49e+00	0	28	104	1797259264	86	18805
2026-01-14 12:52:34.87	338.43	3.65	-60.6	-74.5	3.8	1.49e+00	0	28	104	1797259264	86	18763
2026-01-14 12:52:35.88	338.54	3.60	-60.6	-74.4	3.8	1.49e+00	0	28	104	1797259264	86	18695
2026-01-14 12:52:36.88	338.64	3.56	-60.6	-74.4	3.8	1.49e+00	0	28	104	1797259264	86	18717
2026-01-14 12:52:37.89	338.74	3.51	-60.6	-74.4	3.8	1.49e+00	0	28	104	1797259264	86	18676
2026-01-14 12:52:38.90	338.84	3.46	-60.6	-74.4	3.8	1.49e+00	0	28	104	1797259264	86	18670
2026-01-14 12:52:39.91	338.94	3.41	-60.6	-74.4	3.8	1.49e+00	0	28	104	1797259264	86	18674
2026-01-14 12:52:40.91	339.04	3.36	-60.5	-74.4	3.8	1.49e+00	0	28	104	1797259264	86	18669
2026-01-14 12:52:41.92	339.14	3.31	-60.6	-74.4	3.8	1.49e+00	0	28	104	1797259264	86	18568
2026-01-14 12:52:42.93	339.24	3.26	-60.6	-74.4	3.8	1.49e+00	0	28	104	1797259264	86	18599
2026-01-14 12:52:43.94	339.33	3.22	-60.5	-74.4	3.8	1.49e+00	0	28	104	1797259264	86	18564
2026-01-14 12:52:44.95	339.43	3.17	-60.5	-74.4	3.8	1.49e+00	0	28	104	1797259264	86	18600
2026-01-14 12:52:45.96	339.53	3.12	-60.5	-74.3	3.8	1.49e+00	0	28	104	1797259264	86	18510
2026-01-14 12:52:47.19	339.65	3.06	-60.5	-74.4	3.8	1.49e+00	0	28	104	1797259264	86	18568
2026-01-14 12:52:48.06	339.73	3.02	-60.5	-74.4	3.8	1.49e+00	0	28	104	1797259264	86	18544
2026-01-14 12:52:49.21	339.85	2.96	-60.5	-74.4	3.8	1.49e+00	0	28	104	1797259264	86	18545
2026-01-14 12:52:50.08	339.93	2.92	-60.5	-74.4	3.8	1.49e+00	0	28	104	1797259264	86	18525
2026-01-14 12:52:51.23	340.04	2.87	-60.5	-74.4	3.8	1.49e+00	0	28	104	1797259264	86	18522
2026-01-14 12:52:52.10	340.12	2.82	-60.5	-74.3	3.8	1.49e+00	0	28	104	1797259264	86	18439
2026-01-14 12:52:53.25	340.23	2.77	-60.5	-74.3	3.8	1.49e+00	0	28	104	1797259264	86	18417
2026-01-14 12:52:54.12	340.31	2.73	-60.5	-74.3	3.8	1.49e+00	0	28	104	1797259264	86	18376
2026-01-14 12:52:55.27	340.42	2.67	-60.5	-74.3	3.8	1.49e+00	0	28	104	1797259264	86	18458
2026-01-14 12:52:56.13	340.50	2.63	-60.5	-74.3	3.8	1.49e+00	0	28	104	1797259264	86	18439
2026-01-14 12:52:57.28	340.61	2.58	-60.5	-74.3	3.8	1.49e+00	0	28	104	1797259264	86	18443
2026-01-14 12:52:58.15	340.69	2.53	-60.4	-74.3	3.8	1.49e+00	0	28	104	1797259264	86	18386
2026-01-14 12:52:59.30	340.80	2.48	-60.5	-74.3	3.8	1.49e+00	0	28	104	1797259264	86	18411
2026-01-14 12:53:00.17	340.88	2.44	-60.4	-74.3	3.8	1.49e+00	0	28	104	1797259264	86	18334
2026-01-14 12:53:01.32	340.99	2.38	-60.4	-74.3	3.8	1.49e+00	0	28	104	1797259264	86	18377
2026-01-14 12:53:02.19	341.07	2.34	-60.4	-74.3	3.8	1.49e+00	0	28	104	1797259264	86	18430
2026-01-14 12:53:03.34	341.18	2.29	-60.4	-74.3	3.8	1.49e+00	0	28	104	1797259264	86	18365
2026-01-14 12:53:04.21	341.26	2.24	-60.4	-74.3	3.8	1.49e+00	0	28	104	1797259264	86	18344
2026-01-14 12:53:05.36	341.36	2.19	-60.4	-74.3	3.8	1.49e+00	0	28	104	1797259264	86	18346
2026-01-14 12:53:06.22	341.44	2.15	-60.4	-74.3	3.8	1.49e+00	0	28	104	1797259264	86	18357
2026-01-14 12:53:07.37	341.55	2.09	-60.4	-74.3	3.8	1.49e+00	0	28	104	1797259264	86	18328
2026-01-14 12:53:08.23	341.62	2.05	-60.4	-74.3	3.8	1.49e+00	0	28	104	1797259264	86	18332
