passes_logs/2026/01/14/R3.2S_Murmansk/R3.2S_Murmansk__20260114_045652_AQUA_rec.log

#Pass ID: 20260114_045652_AQUA
#Satellite: AQUA
#Configuration: AQUA
#almurnet v.1.7.20251203
#Start time: 2026-01-14 04:56:54

#Version: 2.2.20231116
#Station: R3.2S_Murmansk
#Location: 33.079688 lon 68.888172 lat
#TLE: 1 27424U 02022A   26013.58555111  .00000773  00000+0  16469-3 0  9993
#TLE: 2 27424  98.4079 339.9892 0002045  80.0365 334.6894 14.61818766260681

#Time	Az	El	Level	Level2	SNR	BER	BlckErr	Temp	State	Recorded	gain1	gain2
2026-01-14 04:56:54.49	36.33	2.14	-54.0	-73.4	3.8	7.47e-01	0	25	0	0	75	36220
2026-01-14 04:56:55.50	36.27	2.20	-54.0	-73.4	3.8	7.43e-01	0	25	104	0	75	36268
2026-01-14 04:56:56.51	36.20	2.26	-54.0	-73.4	3.8	7.47e-01	0	25	104	0	75	36244
2026-01-14 04:56:57.52	36.14	2.32	-54.0	-73.4	3.8	7.46e-01	0	25	104	0	75	36179
2026-01-14 04:56:58.52	36.07	2.38	-54.0	-73.4	3.8	7.43e-01	0	26	104	0	75	36307
2026-01-14 04:56:59.53	36.00	2.45	-54.0	-73.4	3.8	7.49e-01	0	26	104	0	75	36311
2026-01-14 04:57:00.54	35.94	2.51	-54.0	-73.4	3.8	7.48e-01	0	26	104	0	75	36255
2026-01-14 04:57:01.55	35.87	2.57	-54.0	-73.4	3.8	7.45e-01	0	26	104	0	75	36224
2026-01-14 04:57:02.56	35.80	2.63	-54.0	-73.4	3.8	7.45e-01	0	26	104	0	75	36242
2026-01-14 04:57:03.57	35.73	2.69	-54.0	-73.4	3.8	7.44e-01	0	26	104	0	75	36333
2026-01-14 04:57:04.58	35.66	2.75	-54.0	-73.4	3.8	7.48e-01	0	26	104	0	75	36126
2026-01-14 04:57:05.59	35.59	2.82	-54.0	-73.4	3.8	7.46e-01	0	26	104	0	75	36286
2026-01-14 04:57:06.60	35.52	2.88	-54.0	-73.4	3.8	7.46e-01	0	26	104	0	75	36243
2026-01-14 04:57:07.61	35.46	2.94	-54.0	-73.4	3.8	7.46e-01	0	26	104	0	75	36304
2026-01-14 04:57:08.62	35.39	3.00	-54.0	-73.4	3.8	7.48e-01	0	26	104	0	75	36279
2026-01-14 04:57:09.63	35.32	3.07	-54.0	-73.4	3.8	7.50e-01	0	26	104	0	75	36341
2026-01-14 04:57:10.64	35.24	3.13	-54.0	-73.4	3.8	7.46e-01	0	26	104	0	75	36393
2026-01-14 04:57:11.65	35.17	3.19	-54.0	-73.4	3.8	7.47e-01	0	26	104	0	75	36421
2026-01-14 04:57:12.65	35.10	3.25	-54.0	-73.4	3.8	7.47e-01	0	26	104	0	75	36377
2026-01-14 04:57:13.66	35.03	3.32	-54.0	-73.4	3.8	7.48e-01	0	26	104	0	75	36329
2026-01-14 04:57:14.67	34.96	3.38	-54.0	-73.4	3.8	7.48e-01	0	26	104	0	75	36361
2026-01-14 04:57:15.68	34.89	3.44	-54.0	-73.4	3.8	7.47e-01	0	26	104	0	75	36342
2026-01-14 04:57:16.68	34.82	3.51	-54.0	-73.4	3.8	7.46e-01	0	26	104	0	75	36349
2026-01-14 04:57:17.69	34.74	3.57	-54.0	-73.4	3.8	7.47e-01	0	26	104	0	75	36334
2026-01-14 04:57:18.70	34.67	3.63	-54.0	-73.4	3.8	7.46e-01	0	26	104	0	75	36401
2026-01-14 04:57:19.71	34.59	3.70	-54.0	-73.4	3.8	7.47e-01	0	26	104	0	75	36397
2026-01-14 04:57:20.72	34.52	3.76	-54.0	-73.4	3.8	7.47e-01	0	26	104	0	75	36364
2026-01-14 04:57:21.73	34.45	3.82	-54.0	-73.4	3.8	7.49e-01	0	26	104	0	75	36385
2026-01-14 04:57:22.74	34.37	3.89	-54.0	-73.4	3.8	7.48e-01	0	26	104	0	75	36272
2026-01-14 04:57:23.75	34.30	3.95	-54.0	-73.4	3.8	7.47e-01	0	26	104	0	75	36305
2026-01-14 04:57:24.76	34.22	4.02	-54.0	-73.4	3.8	7.46e-01	0	26	104	0	75	36352
2026-01-14 04:57:25.76	34.14	4.08	-54.0	-73.4	3.8	7.47e-01	0	26	104	0	75	36439
2026-01-14 04:57:26.77	34.07	4.15	-54.0	-73.4	3.8	7.48e-01	0	26	104	0	75	36367
2026-01-14 04:57:27.79	33.99	4.21	-54.0	-73.4	3.8	7.46e-01	0	26	104	0	75	36293
2026-01-14 04:57:28.79	33.91	4.28	-54.0	-73.4	3.8	7.46e-01	0	26	104	0	75	36348
2026-01-14 04:57:29.80	33.84	4.34	-54.0	-73.4	3.8	7.45e-01	0	26	104	0	75	36342
2026-01-14 04:57:30.81	33.76	4.41	-54.0	-73.4	3.8	7.43e-01	0	26	104	0	75	36402
2026-01-14 04:57:31.82	33.68	4.47	-54.0	-73.4	3.8	7.46e-01	0	26	104	0	75	36363
2026-01-14 04:57:32.83	33.60	4.54	-54.1	-73.4	3.8	7.44e-01	0	26	104	0	75	36404
2026-01-14 04:57:33.84	33.52	4.60	-54.1	-73.4	3.8	7.49e-01	0	26	104	0	75	36440
2026-01-14 04:57:34.85	33.44	4.67	-54.0	-73.4	3.8	7.47e-01	0	26	104	0	75	36416
2026-01-14 04:57:35.86	33.36	4.73	-54.1	-73.4	3.8	7.44e-01	0	26	104	0	75	36448
2026-01-14 04:57:36.86	33.28	4.80	-54.0	-73.4	3.8	7.47e-01	0	26	104	0	75	36436
2026-01-14 04:57:37.87	33.20	4.86	-54.1	-73.4	3.8	7.45e-01	0	26	104	0	75	36414
2026-01-14 04:57:38.88	33.12	4.93	-54.1	-73.4	3.8	7.46e-01	0	26	104	0	75	36482
2026-01-14 04:57:39.89	33.04	5.00	-54.1	-73.4	3.8	7.49e-01	0	26	104	0	75	36493
2026-01-14 04:57:40.90	32.96	5.06	-54.1	-73.4	3.8	7.46e-01	0	26	104	0	75	36428
2026-01-14 04:57:41.91	32.87	5.13	-54.1	-73.4	3.8	7.45e-01	0	26	104	0	75	36435
2026-01-14 04:57:42.92	32.79	5.20	-54.1	-73.4	3.8	7.45e-01	0	26	104	0	75	36520
2026-01-14 04:57:43.92	32.71	5.26	-54.0	-73.4	3.8	7.48e-01	0	26	104	0	75	36404
2026-01-14 04:57:44.93	32.62	5.33	-54.0	-73.4	3.8	7.45e-01	0	26	104	0	75	36414
2026-01-14 04:57:45.94	32.54	5.40	-54.0	-73.4	3.8	7.47e-01	0	26	104	0	75	36347
2026-01-14 04:57:46.95	32.46	5.46	-54.1	-73.4	3.8	7.49e-01	0	27	104	0	75	36505
2026-01-14 04:57:47.96	32.37	5.53	-54.0	-73.4	3.8	7.48e-01	0	26	104	0	75	36450
2026-01-14 04:57:48.97	32.29	5.60	-54.1	-73.4	3.8	7.47e-01	0	26	104	0	75	36447
2026-01-14 04:57:49.98	32.20	5.67	-54.0	-73.4	3.8	7.44e-01	0	27	104	0	75	36379
2026-01-14 04:57:50.99	32.11	5.73	-54.0	-73.4	3.8	7.48e-01	0	26	104	0	75	36303
2026-01-14 04:57:52.00	32.03	5.80	-54.1	-73.4	3.8	7.49e-01	0	27	104	0	75	36488
2026-01-14 04:57:53.01	31.94	5.87	-54.1	-73.4	3.8	7.42e-01	0	27	104	0	75	36423
2026-01-14 04:57:54.01	31.85	5.94	-54.0	-73.4	3.8	7.50e-01	0	27	104	0	75	36400
2026-01-14 04:57:55.02	31.76	6.00	-54.1	-73.4	3.8	7.46e-01	0	26	104	0	75	36364
2026-01-14 04:57:56.03	31.67	6.07	-54.0	-73.4	3.8	7.47e-01	0	27	104	0	75	36420
2026-01-14 04:57:57.04	31.58	6.14	-54.1	-73.4	3.8	7.46e-01	0	26	104	0	75	36444
2026-01-14 04:57:58.05	31.49	6.21	-54.0	-73.4	3.8	7.45e-01	0	27	104	0	75	36470
2026-01-14 04:57:59.06	31.40	6.28	-54.0	-73.4	3.8	7.46e-01	0	27	104	0	75	36409
2026-01-14 04:58:00.07	31.31	6.35	-54.0	-73.4	3.8	7.48e-01	0	27	104	0	75	36509
2026-01-14 04:58:01.07	31.22	6.42	-54.1	-73.5	3.8	7.48e-01	0	27	104	0	75	36594
2026-01-14 04:58:02.08	31.13	6.49	-54.1	-73.4	3.8	7.45e-01	0	27	104	0	75	36415
2026-01-14 04:58:03.09	31.04	6.56	-54.1	-73.4	3.8	7.48e-01	0	26	104	0	75	36472
2026-01-14 04:58:04.10	30.95	6.62	-54.1	-73.4	3.8	7.48e-01	0	27	104	0	75	36477
2026-01-14 04:58:05.11	30.85	6.69	-54.1	-73.4	3.8	7.47e-01	0	27	104	0	75	36468
2026-01-14 04:58:06.12	30.76	6.76	-54.1	-73.4	3.8	7.43e-01	0	27	104	0	75	36398
2026-01-14 04:58:07.13	30.66	6.83	-54.1	-73.4	3.8	7.47e-01	0	27	104	0	75	36305
2026-01-14 04:58:08.14	30.57	6.90	-54.1	-73.4	3.8	7.43e-01	0	27	104	0	75	36454
2026-01-14 04:58:09.14	30.48	6.97	-54.1	-73.4	3.8	7.47e-01	0	27	104	0	75	36469
2026-01-14 04:58:10.15	30.38	7.04	-54.1	-73.4	3.8	7.45e-01	0	27	104	0	75	36429
2026-01-14 04:58:11.16	30.28	7.11	-54.1	-73.4	3.8	7.44e-01	0	27	104	0	75	36432
2026-01-14 04:58:12.18	30.19	7.19	-54.1	-73.4	3.8	7.47e-01	0	27	104	0	75	36500
2026-01-14 04:58:13.19	30.09	7.26	-54.1	-73.4	3.8	7.45e-01	0	27	104	0	75	36506
2026-01-14 04:58:14.19	29.99	7.33	-54.1	-73.5	3.8	7.45e-01	0	27	104	0	75	36531
2026-01-14 04:58:15.20	29.89	7.40	-54.1	-73.5	3.8	7.47e-01	0	27	104	0	75	36568
2026-01-14 04:58:16.21	29.79	7.47	-54.1	-73.4	3.8	7.44e-01	0	27	104	0	75	36516
2026-01-14 04:58:17.22	29.69	7.54	-54.1	-73.4	3.8	7.47e-01	0	27	104	0	75	36487
2026-01-14 04:58:18.23	29.59	7.61	-54.1	-73.5	3.8	7.47e-01	0	27	104	0	75	36625
2026-01-14 04:58:19.24	29.49	7.68	-54.1	-73.5	3.9	7.45e-01	0	27	104	0	75	36547
2026-01-14 04:58:20.25	29.39	7.76	-54.1	-73.5	3.8	7.47e-01	0	27	104	0	75	36550
2026-01-14 04:58:21.26	29.29	7.83	-54.1	-73.5	3.8	7.48e-01	0	27	104	0	75	36680
2026-01-14 04:58:22.27	29.19	7.90	-54.1	-73.5	3.8	7.47e-01	0	27	104	0	75	36577
2026-01-14 04:58:23.28	29.09	7.97	-54.1	-73.5	3.8	7.48e-01	0	27	104	0	75	36540
2026-01-14 04:58:24.28	28.98	8.04	-54.1	-73.5	3.8	7.46e-01	0	27	104	0	75	36644
2026-01-14 04:58:25.29	28.88	8.12	-54.1	-73.4	3.8	7.50e-01	0	27	104	0	75	36465
2026-01-14 04:58:26.30	28.77	8.19	-54.1	-73.5	3.8	7.46e-01	0	27	104	0	75	36610
2026-01-14 04:58:27.31	28.67	8.26	-54.1	-73.5	3.8	7.48e-01	0	27	104	0	75	36620
2026-01-14 04:58:28.32	28.56	8.33	-54.1	-73.5	3.8	7.48e-01	0	27	104	0	75	36561
2026-01-14 04:58:29.33	28.46	8.41	-54.1	-73.5	3.8	7.46e-01	0	27	104	0	75	36600
2026-01-14 04:58:30.34	28.35	8.48	-54.1	-73.5	3.8	7.47e-01	0	27	104	0	75	36658
2026-01-14 04:58:31.35	28.24	8.55	-54.1	-73.5	3.8	7.48e-01	0	27	104	0	75	36577
2026-01-14 04:58:32.36	28.13	8.63	-54.1	-73.5	3.8	7.48e-01	0	27	104	0	75	36591
2026-01-14 04:58:33.37	28.02	8.70	-54.1	-73.5	3.8	7.44e-01	0	27	104	0	75	36609
2026-01-14 04:58:34.38	27.91	8.77	-54.1	-73.5	3.8	7.44e-01	0	27	104	0	75	36632
2026-01-14 04:58:35.38	27.81	8.85	-54.1	-73.5	3.8	7.43e-01	0	27	104	0	75	36623
2026-01-14 04:58:36.39	27.70	8.92	-54.1	-73.5	3.8	7.45e-01	0	27	104	0	75	36561
2026-01-14 04:58:37.40	27.58	9.00	-54.1	-73.5	3.8	7.47e-01	0	27	104	0	75	36552
2026-01-14 04:58:38.41	27.47	9.07	-54.1	-73.5	3.8	7.46e-01	0	27	104	0	75	36672
2026-01-14 04:58:39.42	27.36	9.15	-54.1	-73.4	3.8	7.47e-01	0	27	104	0	75	36505
2026-01-14 04:58:40.43	27.25	9.22	-54.1	-73.4	3.8	7.47e-01	0	27	104	0	75	36514
2026-01-14 04:58:41.44	27.13	9.30	-54.1	-73.5	3.8	7.47e-01	0	27	104	0	75	36596
2026-01-14 04:58:42.44	27.02	9.37	-54.1	-73.5	3.8	7.47e-01	0	27	104	0	75	36601
2026-01-14 04:58:43.46	26.90	9.45	-54.1	-73.4	3.8	7.45e-01	0	27	104	0	75	36491
2026-01-14 04:58:44.46	26.79	9.52	-54.1	-73.5	3.8	7.48e-01	0	27	104	0	75	36642
2026-01-14 04:58:45.47	26.67	9.60	-54.1	-73.5	3.8	7.46e-01	0	27	104	0	75	36638
2026-01-14 04:58:46.48	26.55	9.67	-54.1	-73.5	3.8	7.45e-01	0	27	104	0	75	36651
2026-01-14 04:58:47.49	26.44	9.75	-54.1	-73.5	3.8	7.52e-01	0	27	104	0	75	36638
2026-01-14 04:58:48.50	26.32	9.82	-54.1	-73.5	3.8	7.46e-01	0	27	104	0	75	36634
2026-01-14 04:58:49.51	26.20	9.90	-54.1	-73.5	3.8	7.47e-01	0	27	104	0	75	36682
2026-01-14 04:58:50.51	26.08	9.97	-54.1	-73.5	3.8	7.46e-01	0	27	104	0	75	36676
2026-01-14 04:58:51.52	25.96	10.05	-54.1	-73.5	3.8	7.44e-01	0	27	104	0	75	36663
2026-01-14 04:58:52.53	25.84	10.13	-54.1	-73.5	3.8	7.46e-01	0	27	104	0	75	36746
2026-01-14 04:58:53.55	25.71	10.20	-54.1	-73.5	3.8	7.41e-01	0	27	104	0	75	36780
2026-01-14 04:58:54.55	25.59	10.28	-54.1	-73.5	3.8	7.45e-01	0	27	104	0	75	36656
2026-01-14 04:58:55.56	25.47	10.36	-54.1	-73.5	3.8	7.47e-01	0	27	104	0	75	36573
2026-01-14 04:58:56.57	25.34	10.43	-54.1	-73.5	3.8	7.47e-01	0	27	104	0	75	36690
2026-01-14 04:58:57.58	25.22	10.51	-54.1	-73.5	3.8	7.47e-01	0	27	104	0	75	36665
2026-01-14 04:58:58.60	25.09	10.59	-54.1	-73.5	3.8	7.44e-01	0	27	104	0	75	36649
2026-01-14 04:58:59.60	24.97	10.67	-54.1	-73.5	3.8	7.49e-01	0	27	104	0	75	36708
2026-01-14 04:59:00.61	24.84	10.74	-54.1	-73.5	3.8	7.46e-01	0	27	104	0	75	36713
2026-01-14 04:59:01.62	24.71	10.82	-54.1	-73.5	3.8	7.48e-01	0	27	104	0	75	36687
2026-01-14 04:59:02.63	24.58	10.90	-54.1	-73.5	3.8	7.47e-01	0	27	104	0	75	36726
2026-01-14 04:59:03.64	24.45	10.98	-54.1	-73.5	3.8	7.45e-01	0	27	104	0	75	36668
2026-01-14 04:59:04.65	24.32	11.05	-54.1	-73.5	3.8	7.47e-01	0	27	104	0	75	36673
2026-01-14 04:59:05.65	24.19	11.13	-54.1	-73.5	3.8	7.50e-01	0	27	104	0	75	36788
2026-01-14 04:59:06.66	24.06	11.21	-54.1	-73.5	3.8	7.44e-01	0	27	104	0	75	36768
2026-01-14 04:59:07.67	23.93	11.29	-54.1	-73.5	3.8	7.46e-01	0	27	104	0	75	36637
2026-01-14 04:59:08.68	23.80	11.37	-54.1	-73.5	3.8	7.49e-01	0	27	104	0	75	36688
2026-01-14 04:59:09.69	23.66	11.45	-54.3	-73.6	3.8	7.44e-01	0	27	104	0	76	35221
2026-01-14 04:59:10.70	23.53	11.53	-54.3	-73.6	3.8	7.46e-01	0	27	104	0	76	35190
2026-01-14 04:59:11.71	23.39	11.60	-54.2	-73.6	3.8	7.47e-01	0	27	104	0	76	35191
2026-01-14 04:59:12.72	23.25	11.68	-54.2	-73.6	3.8	7.48e-01	0	27	104	0	76	35205
2026-01-14 04:59:13.73	23.12	11.76	-54.2	-73.6	3.8	7.46e-01	0	27	104	0	76	35135
2026-01-14 04:59:14.73	22.98	11.84	-54.2	-73.6	3.8	7.45e-01	0	27	104	0	76	35145
2026-01-14 04:59:15.74	22.84	11.92	-54.2	-73.6	3.8	7.45e-01	0	27	104	0	76	35140
2026-01-14 04:59:16.75	22.70	12.00	-54.2	-73.6	3.8	7.43e-01	0	27	104	0	76	35108
2026-01-14 04:59:17.76	22.56	12.08	-54.2	-73.6	3.8	7.48e-01	0	27	104	0	76	35105
2026-01-14 04:59:18.77	22.42	12.16	-54.2	-73.6	3.8	7.49e-01	0	27	104	0	76	35110
2026-01-14 04:59:19.77	22.28	12.24	-54.2	-73.6	3.8	7.48e-01	0	27	104	0	76	35107
2026-01-14 04:59:20.78	22.13	12.32	-54.2	-73.6	3.8	7.49e-01	0	27	104	0	76	35043
2026-01-14 04:59:21.79	21.99	12.40	-54.2	-73.6	3.8	7.47e-01	0	27	104	0	76	35066
2026-01-14 04:59:22.80	21.85	12.48	-54.2	-73.6	3.8	7.48e-01	0	27	104	0	76	35148
2026-01-14 04:59:23.81	21.70	12.56	-54.2	-73.6	3.8	7.46e-01	0	27	104	0	76	35075
2026-01-14 04:59:24.82	21.55	12.64	-54.2	-73.6	3.8	7.45e-01	0	27	104	0	76	35067
2026-01-14 04:59:25.83	21.41	12.72	-54.2	-73.6	3.8	7.45e-01	0	27	104	0	76	35065
2026-01-14 04:59:26.84	21.26	12.80	-54.2	-73.6	3.8	7.47e-01	0	27	104	0	76	35114
2026-01-14 04:59:27.85	21.11	12.89	-54.2	-73.6	3.8	7.48e-01	0	27	104	0	76	35115
2026-01-14 04:59:28.86	20.96	12.97	-54.2	-73.6	3.8	7.46e-01	0	27	104	0	76	35183
2026-01-14 04:59:29.86	20.81	13.05	-54.2	-73.6	3.8	7.46e-01	0	27	104	0	76	35242
2026-01-14 04:59:30.87	20.66	13.13	-54.2	-73.6	3.8	7.44e-01	0	27	104	0	76	35104
2026-01-14 04:59:31.88	20.50	13.21	-54.2	-73.6	3.8	7.45e-01	0	27	104	0	76	35181
2026-01-14 04:59:32.89	20.35	13.29	-54.2	-73.6	3.8	7.44e-01	0	27	104	0	76	35229
2026-01-14 04:59:33.90	20.19	13.37	-54.3	-73.6	3.8	7.49e-01	0	27	104	0	76	35169
2026-01-14 04:59:34.91	20.04	13.46	-54.2	-73.6	3.8	7.45e-01	0	27	104	0	76	35219
2026-01-14 04:59:35.92	19.88	13.54	-54.3	-73.6	3.8	7.48e-01	0	27	104	0	76	35183
2026-01-14 04:59:36.93	19.72	13.62	-54.2	-73.6	3.8	7.48e-01	0	27	104	0	76	35157
2026-01-14 04:59:37.93	19.57	13.70	-54.2	-73.6	3.8	7.46e-01	0	27	104	0	76	35257
2026-01-14 04:59:38.94	19.41	13.78	-54.3	-73.6	3.8	7.43e-01	0	27	104	0	76	35176
2026-01-14 04:59:39.95	19.25	13.86	-54.3	-73.6	3.8	7.50e-01	0	27	104	0	76	35199
2026-01-14 04:59:40.96	19.08	13.95	-54.2	-73.7	3.8	7.46e-01	0	27	104	0	76	35316
2026-01-14 04:59:41.97	18.92	14.03	-54.3	-73.6	3.8	7.47e-01	0	27	104	0	76	35138
2026-01-14 04:59:42.97	18.76	14.11	-54.3	-73.6	3.8	7.52e-01	0	27	104	0	76	35211
2026-01-14 04:59:43.98	18.60	14.19	-54.3	-73.6	3.8	7.45e-01	0	27	104	0	76	35242
2026-01-14 04:59:44.99	18.43	14.28	-54.2	-73.6	3.8	7.48e-01	0	27	104	0	76	35135
2026-01-14 04:59:45.99	18.27	14.36	-54.2	-73.6	3.8	7.46e-01	0	27	104	0	76	35107
2026-01-14 04:59:47.00	18.10	14.44	-54.2	-73.6	3.8	7.45e-01	0	27	104	0	76	35169
2026-01-14 04:59:48.01	17.93	14.52	-54.2	-73.6	3.8	7.47e-01	0	27	104	0	76	35190
2026-01-14 04:59:49.02	17.76	14.61	-54.2	-73.6	3.8	7.45e-01	0	27	104	0	76	35212
2026-01-14 04:59:50.03	17.59	14.69	-54.2	-73.6	3.8	7.43e-01	0	27	104	0	76	35242
2026-01-14 04:59:51.04	17.42	14.77	-54.2	-73.6	3.8	7.46e-01	0	27	104	0	76	35132
2026-01-14 04:59:52.05	17.24	14.86	-54.2	-73.6	3.8	7.46e-01	0	27	104	0	76	35180
2026-01-14 04:59:53.06	17.07	14.94	-54.3	-73.6	3.8	7.45e-01	0	27	104	0	76	35214
2026-01-14 04:59:54.07	16.90	15.02	-54.2	-73.6	3.8	7.47e-01	0	27	104	0	76	35226
2026-01-14 04:59:55.08	16.72	15.11	-54.2	-73.6	3.8	7.41e-01	0	27	104	0	76	35190
2026-01-14 04:59:56.09	16.54	15.19	-54.2	-73.6	3.8	7.46e-01	0	27	104	0	76	35146
2026-01-14 04:59:57.10	16.37	15.27	-54.3	-73.6	3.8	7.42e-01	0	27	104	0	76	35211
2026-01-14 04:59:58.11	16.19	15.36	-54.3	-73.6	3.8	7.46e-01	0	27	104	0	76	35252
2026-01-14 04:59:59.12	16.01	15.44	-54.3	-73.6	3.8	7.44e-01	0	27	104	0	76	35162
2026-01-14 05:00:00.12	15.83	15.53	-54.3	-73.6	3.8	7.45e-01	0	27	104	0	76	35214
2026-01-14 05:00:01.13	15.64	15.61	-54.2	-73.6	3.8	7.49e-01	0	27	104	0	76	35206
2026-01-14 05:00:02.14	15.46	15.69	-54.2	-73.6	3.8	7.46e-01	0	27	104	0	76	35171
2026-01-14 05:00:03.15	15.28	15.78	-54.2	-73.6	3.8	7.49e-01	0	27	104	0	76	35174
2026-01-14 05:00:04.16	15.09	15.86	-54.2	-73.6	3.8	7.46e-01	0	27	104	0	76	35138
2026-01-14 05:00:05.17	14.90	15.94	-54.2	-73.6	3.8	7.47e-01	0	27	104	0	76	35221
2026-01-14 05:00:06.18	14.72	16.03	-54.2	-73.6	3.8	7.46e-01	0	27	104	0	76	35182
2026-01-14 05:00:07.18	14.53	16.11	-54.3	-73.6	3.8	7.44e-01	0	27	104	0	76	35236
2026-01-14 05:00:08.19	14.34	16.19	-54.2	-73.6	3.8	7.48e-01	0	27	104	0	76	35167
2026-01-14 05:00:09.20	14.15	16.28	-54.3	-73.6	3.8	7.45e-01	0	27	104	0	76	35258
2026-01-14 05:00:10.21	13.95	16.36	-54.3	-73.6	3.8	7.43e-01	0	27	104	0	76	35221
2026-01-14 05:00:11.22	13.76	16.45	-54.3	-73.6	3.8	7.46e-01	0	27	104	0	76	35254
2026-01-14 05:00:12.23	13.56	16.53	-54.2	-73.6	3.8	7.45e-01	0	27	104	0	76	35200
2026-01-14 05:00:13.24	13.37	16.61	-54.2	-73.6	3.8	7.46e-01	0	27	104	0	76	35269
2026-01-14 05:00:14.25	13.17	16.70	-54.2	-73.6	3.9	7.48e-01	0	27	104	0	76	35180
2026-01-14 05:00:15.26	12.97	16.78	-54.3	-73.7	3.8	7.47e-01	0	27	104	0	76	35300
2026-01-14 05:00:16.26	12.78	16.87	-54.3	-73.6	3.8	7.47e-01	0	27	104	0	76	35230
2026-01-14 05:00:17.27	12.57	16.95	-54.3	-73.6	3.8	7.46e-01	0	27	104	0	76	35258
2026-01-14 05:00:18.28	12.37	17.03	-54.3	-73.6	3.8	7.46e-01	0	27	104	0	76	35232
2026-01-14 05:00:19.29	12.17	17.12	-54.2	-73.6	3.8	7.47e-01	0	27	104	0	76	35202
2026-01-14 05:00:20.30	11.96	17.20	-54.2	-73.6	3.8	7.46e-01	0	27	104	0	76	35209
2026-01-14 05:00:21.31	11.76	17.28	-54.3	-73.6	3.8	7.45e-01	0	27	104	0	76	35182
2026-01-14 05:00:22.32	11.55	17.37	-54.3	-73.6	3.8	7.45e-01	0	27	104	0	76	35237
2026-01-14 05:00:23.33	11.34	17.45	-54.3	-73.6	3.8	7.47e-01	0	27	104	0	76	35228
2026-01-14 05:00:24.33	11.14	17.53	-54.3	-73.7	3.8	7.46e-01	0	27	104	0	76	35296
2026-01-14 05:00:25.34	10.92	17.62	-54.3	-73.6	3.8	7.47e-01	0	27	104	0	76	35271
2026-01-14 05:00:26.35	10.71	17.70	-54.3	-73.6	3.8	7.47e-01	0	27	104	0	76	35249
2026-01-14 05:00:27.35	10.50	17.78	-54.3	-73.6	3.8	7.48e-01	0	27	104	0	76	35272
2026-01-14 05:00:28.36	10.29	17.87	-54.3	-73.6	3.8	7.43e-01	0	27	104	0	76	35241
2026-01-14 05:00:29.37	10.07	17.95	-54.3	-73.6	3.8	7.48e-01	0	27	104	0	76	35203
2026-01-14 05:00:30.38	9.85	18.03	-54.3	-73.6	3.8	7.46e-01	0	27	104	0	76	35214
2026-01-14 05:00:31.39	9.64	18.12	-54.3	-73.7	3.8	7.47e-01	0	27	104	0	76	35312
2026-01-14 05:00:32.40	9.42	18.20	-54.3	-73.6	3.8	7.50e-01	0	27	104	0	76	35196
2026-01-14 05:00:33.40	9.20	18.28	-54.3	-73.6	3.8	7.47e-01	0	27	104	0	76	35222
2026-01-14 05:00:34.41	8.98	18.36	-54.3	-73.7	3.8	7.45e-01	0	27	104	0	76	35314
2026-01-14 05:00:35.42	8.75	18.44	-54.3	-73.6	3.8	7.49e-01	0	27	104	0	76	35203
2026-01-14 05:00:36.43	8.53	18.53	-54.3	-73.6	3.8	7.43e-01	0	27	104	0	76	35268
2026-01-14 05:00:37.44	8.30	18.61	-54.3	-73.6	3.8	7.47e-01	0	27	104	0	76	35275
2026-01-14 05:00:38.45	8.07	18.69	-54.3	-73.6	3.8	7.44e-01	0	27	104	0	76	35185
2026-01-14 05:00:39.46	7.85	18.77	-54.2	-73.6	3.8	7.44e-01	0	27	104	0	76	35151
2026-01-14 05:00:40.47	7.62	18.85	-54.3	-73.7	3.8	7.47e-01	0	27	104	0	76	35311
2026-01-14 05:00:41.48	7.38	18.94	-54.3	-73.6	3.8	7.48e-01	0	27	104	0	76	35267
2026-01-14 05:00:42.49	7.15	19.02	-54.3	-73.6	3.8	7.49e-01	0	27	104	0	76	35187
2026-01-14 05:00:43.50	6.92	19.10	-54.3	-73.7	3.8	7.44e-01	0	27	104	0	76	35297
2026-01-14 05:00:44.51	6.68	19.18	-54.2	-73.6	3.8	7.45e-01	0	27	104	0	76	35132
2026-01-14 05:00:45.52	6.45	19.26	-54.2	-73.6	3.8	7.46e-01	0	27	104	0	76	35221
2026-01-14 05:00:46.53	6.21	19.34	-54.2	-73.6	3.8	7.48e-01	0	27	104	0	76	35203
2026-01-14 05:00:47.54	5.97	19.42	-54.2	-73.6	3.8	7.44e-01	0	27	104	0	76	35194
2026-01-14 05:00:48.55	5.73	19.50	-54.3	-73.6	3.8	7.43e-01	0	27	104	0	76	35245
2026-01-14 05:00:49.56	5.49	19.58	-54.3	-73.7	3.8	7.44e-01	0	27	104	0	76	35309
2026-01-14 05:00:50.57	5.24	19.66	-54.3	-73.7	3.8	7.50e-01	0	27	104	0	76	35334
2026-01-14 05:00:51.58	5.00	19.74	-54.3	-73.7	3.8	7.47e-01	0	27	104	0	76	35338
2026-01-14 05:00:52.59	4.75	19.82	-54.3	-73.7	3.8	7.47e-01	0	27	104	0	76	35331
2026-01-14 05:00:53.60	4.50	19.90	-54.3	-73.6	3.8	7.45e-01	0	27	104	0	76	35195
2026-01-14 05:00:54.61	4.25	19.98	-54.3	-73.6	3.8	7.47e-01	0	27	104	0	76	35202
2026-01-14 05:00:55.62	4.00	20.06	-54.3	-73.6	3.8	7.44e-01	0	27	104	0	76	35216
2026-01-14 05:00:56.63	3.75	20.13	-54.3	-73.7	3.8	7.50e-01	0	27	104	0	76	35285
2026-01-14 05:00:57.64	3.50	20.21	-54.3	-73.6	3.8	7.48e-01	0	27	104	0	76	35212
2026-01-14 05:00:58.65	3.25	20.29	-54.3	-73.6	3.8	7.47e-01	0	27	104	0	76	35200
2026-01-14 05:00:59.66	2.99	20.37	-54.3	-73.6	3.8	7.42e-01	0	27	104	0	76	35205
2026-01-14 05:01:00.66	2.74	20.44	-54.2	-73.6	3.8	7.47e-01	0	27	104	0	76	35198
2026-01-14 05:01:01.67	2.48	20.52	-54.3	-73.6	3.8	7.46e-01	0	27	104	0	76	35250
2026-01-14 05:01:02.68	2.22	20.59	-54.3	-73.7	3.8	7.45e-01	0	27	104	0	76	35306
2026-01-14 05:01:03.69	1.96	20.67	-54.3	-73.6	3.8	7.47e-01	0	27	104	0	76	35255
2026-01-14 05:01:04.69	1.70	20.75	-54.3	-73.6	3.8	7.44e-01	0	27	104	0	76	35272
2026-01-14 05:01:05.71	1.43	20.82	-54.3	-73.6	3.8	7.46e-01	0	27	104	0	76	35244
2026-01-14 05:01:06.72	1.16	20.90	-54.3	-73.6	3.8	7.46e-01	0	27	104	0	76	35130
2026-01-14 05:01:07.73	0.90	20.97	-54.3	-73.7	3.8	7.49e-01	0	27	104	0	76	35297
2026-01-14 05:01:08.74	0.63	21.04	-54.3	-73.7	3.8	7.47e-01	0	27	104	0	76	35333
2026-01-14 05:01:09.74	0.36	21.12	-54.3	-73.6	3.8	7.48e-01	0	27	104	0	76	35248
2026-01-14 05:01:10.75	0.09	21.19	-54.3	-73.6	3.8	7.47e-01	0	27	104	0	76	35245
2026-01-14 05:01:11.76	359.82	21.26	-54.3	-73.6	3.8	7.44e-01	0	27	104	0	76	35246
2026-01-14 05:01:12.77	359.55	21.33	-54.3	-73.7	3.8	7.47e-01	0	27	104	0	76	35405
2026-01-14 05:01:13.78	359.27	21.41	-54.3	-73.6	3.8	7.47e-01	0	27	104	0	76	35253
2026-01-14 05:01:14.79	359.00	21.48	-54.3	-73.6	3.8	7.48e-01	0	27	104	0	76	35235
2026-01-14 05:01:15.80	358.72	21.55	-54.3	-73.6	3.8	7.42e-01	0	27	104	0	76	35200
2026-01-14 05:01:16.80	358.44	21.62	-54.3	-73.6	3.8	7.44e-01	0	27	104	0	76	35231
2026-01-14 05:01:17.81	358.16	21.69	-54.3	-73.7	3.8	7.47e-01	0	27	104	0	76	35345
2026-01-14 05:01:18.83	357.88	21.76	-54.3	-73.6	3.8	7.44e-01	0	27	104	0	76	35254
2026-01-14 05:01:19.84	357.60	21.83	-54.3	-73.7	3.8	7.47e-01	0	27	104	0	76	35303
2026-01-14 05:01:20.85	357.31	21.90	-54.3	-73.6	3.8	7.49e-01	0	27	104	0	76	35227
2026-01-14 05:01:21.86	357.03	21.96	-54.3	-73.6	3.8	7.49e-01	0	27	104	0	76	35215
2026-01-14 05:01:22.87	356.74	22.03	-54.3	-73.6	3.8	7.45e-01	0	27	104	0	76	35206
2026-01-14 05:01:23.88	356.45	22.10	-54.3	-73.7	3.8	7.48e-01	0	27	104	0	76	35291
2026-01-14 05:01:24.89	356.16	22.16	-54.3	-73.7	3.8	7.47e-01	0	27	104	0	76	35321
2026-01-14 05:01:25.90	355.87	22.23	-54.3	-73.6	3.8	7.41e-01	0	27	104	0	76	35272
2026-01-14 05:01:26.90	355.58	22.29	-54.3	-73.7	3.8	7.46e-01	0	27	104	0	76	35402
2026-01-14 05:01:27.91	355.29	22.36	-54.3	-73.6	3.8	7.43e-01	0	27	104	0	76	35269
2026-01-14 05:01:28.92	354.99	22.42	-54.2	-73.6	3.8	7.45e-01	0	27	104	0	76	35264
2026-01-14 05:01:29.93	354.70	22.49	-54.3	-73.7	3.8	7.48e-01	0	27	104	0	76	35343
2026-01-14 05:01:30.94	354.40	22.55	-54.3	-73.7	3.8	7.46e-01	0	27	104	0	76	35346
2026-01-14 05:01:31.95	354.10	22.61	-54.3	-73.6	3.8	7.46e-01	0	27	104	0	76	35255
2026-01-14 05:01:32.96	353.80	22.67	-54.3	-73.6	3.8	7.43e-01	0	27	104	0	76	35238
2026-01-14 05:01:33.97	353.50	22.73	-54.3	-73.6	3.9	7.45e-01	0	27	104	0	76	35223
2026-01-14 05:01:34.98	353.20	22.79	-54.3	-73.7	3.8	7.45e-01	0	27	104	0	76	35324
2026-01-14 05:01:35.98	352.90	22.85	-54.3	-73.6	3.8	7.47e-01	0	27	104	0	76	35280
2026-01-14 05:01:37.00	352.59	22.91	-54.3	-73.7	3.8	7.44e-01	0	27	104	0	76	35340
2026-01-14 05:01:38.00	352.29	22.97	-54.3	-73.6	3.8	7.46e-01	0	27	104	0	76	35249
2026-01-14 05:01:39.01	351.98	23.03	-54.3	-73.7	3.8	7.45e-01	0	27	104	0	76	35332
2026-01-14 05:01:40.02	351.67	23.08	-54.3	-73.7	3.8	7.47e-01	0	27	104	0	76	35345
2026-01-14 05:01:41.03	351.36	23.14	-54.3	-73.7	3.8	7.48e-01	0	27	104	0	76	35285
2026-01-14 05:01:42.04	351.05	23.19	-54.3	-73.7	3.8	7.46e-01	0	27	104	0	76	35320
2026-01-14 05:01:43.05	350.74	23.25	-54.3	-73.6	3.8	7.44e-01	0	27	104	0	76	35275
2026-01-14 05:01:44.06	350.43	23.30	-54.3	-73.7	3.8	7.46e-01	0	27	104	0	76	35340
2026-01-14 05:01:45.07	350.12	23.35	-54.3	-73.6	3.8	7.44e-01	0	27	104	0	76	35243
2026-01-14 05:01:46.08	349.80	23.41	-54.3	-73.6	3.8	7.46e-01	0	27	104	0	76	35235
2026-01-14 05:01:47.08	349.49	23.46	-54.3	-73.6	3.8	7.50e-01	0	28	104	0	76	35226
2026-01-14 05:01:48.09	349.17	23.51	-54.3	-73.6	3.8	7.44e-01	0	27	104	0	76	35275
2026-01-14 05:01:49.10	348.85	23.56	-54.3	-73.6	3.8	7.46e-01	0	27	104	0	76	35273
2026-01-14 05:01:50.11	348.53	23.60	-54.3	-73.6	3.8	7.45e-01	0	27	104	0	76	35282
2026-01-14 05:01:51.12	348.21	23.65	-54.3	-73.7	3.8	7.45e-01	0	27	104	0	76	35284
2026-01-14 05:01:52.13	347.89	23.70	-54.3	-73.6	3.8	7.43e-01	0	27	104	0	76	35242
2026-01-14 05:01:53.14	347.57	23.75	-54.3	-73.6	3.8	7.46e-01	0	27	104	0	76	35260
2026-01-14 05:01:54.15	347.25	23.79	-54.3	-73.6	3.8	7.45e-01	0	27	104	0	76	35261
2026-01-14 05:01:55.16	346.92	23.84	-54.3	-73.6	3.8	7.49e-01	0	27	104	0	76	35279
2026-01-14 05:01:56.17	346.60	23.88	-54.3	-73.7	3.8	7.43e-01	0	27	104	0	76	35333
2026-01-14 05:01:57.18	346.27	23.92	-54.3	-73.6	3.8	7.45e-01	0	27	104	0	76	35282
2026-01-14 05:01:58.19	345.94	23.96	-54.3	-73.6	3.8	7.47e-01	0	27	104	0	76	35175
2026-01-14 05:01:59.19	345.62	24.01	-54.3	-73.7	3.8	7.48e-01	0	27	104	0	76	35301
2026-01-14 05:02:00.20	345.29	24.05	-54.3	-73.6	3.8	7.46e-01	0	27	104	0	76	35237
2026-01-14 05:02:01.21	344.96	24.08	-54.3	-73.6	3.8	7.45e-01	0	28	104	0	76	35271
2026-01-14 05:02:02.22	344.63	24.12	-54.3	-73.7	3.8	7.46e-01	0	27	104	0	76	35301
2026-01-14 05:02:03.23	344.30	24.16	-54.3	-73.6	3.8	7.48e-01	0	28	104	0	76	35216
2026-01-14 05:02:04.24	343.96	24.20	-54.3	-73.6	3.8	7.49e-01	0	27	104	0	76	35255
2026-01-14 05:02:05.24	343.63	24.23	-54.3	-73.7	3.8	7.45e-01	0	27	104	0	76	35293
2026-01-14 05:02:06.25	343.30	24.27	-54.3	-73.7	3.8	7.44e-01	0	27	104	0	76	35295
2026-01-14 05:02:07.26	342.96	24.30	-54.3	-73.7	3.8	7.46e-01	0	27	104	0	76	35332
2026-01-14 05:02:08.27	342.63	24.33	-54.3	-73.7	3.8	7.47e-01	0	27	104	0	76	35350
2026-01-14 05:02:09.28	342.29	24.36	-54.3	-73.7	3.8	7.47e-01	0	27	104	0	76	35371
2026-01-14 05:02:10.29	341.96	24.39	-54.3	-73.7	3.8	7.46e-01	0	27	104	0	76	35399
2026-01-14 05:02:11.30	341.62	24.42	-54.3	-73.7	3.8	7.46e-01	0	27	104	0	76	35349
2026-01-14 05:02:12.31	341.28	24.45	-54.3	-73.7	3.8	7.46e-01	0	27	104	0	76	35341
2026-01-14 05:02:13.32	340.94	24.48	-54.3	-73.7	3.8	7.45e-01	0	27	104	0	76	35361
2026-01-14 05:02:14.33	340.60	24.50	-54.3	-73.6	3.8	7.46e-01	0	27	104	0	76	35208
2026-01-14 05:02:15.34	340.26	24.53	-54.3	-73.7	3.8	7.48e-01	0	27	104	0	76	35348
2026-01-14 05:02:16.35	339.92	24.55	-54.3	-73.6	3.8	7.47e-01	0	27	104	0	76	35277
2026-01-14 05:02:17.35	339.58	24.58	-54.3	-73.7	3.8	7.44e-01	0	27	104	0	76	35357
2026-01-14 05:02:18.36	339.24	24.60	-54.3	-73.7	3.8	7.47e-01	0	27	104	0	76	35299
2026-01-14 05:02:19.37	338.90	24.62	-54.3	-73.7	3.8	7.46e-01	0	27	104	0	76	35363
2026-01-14 05:02:20.38	338.56	24.64	-54.3	-73.7	3.8	7.45e-01	0	27	104	0	76	35296
2026-01-14 05:02:21.39	338.21	24.66	-54.3	-73.6	3.9	7.46e-01	0	27	104	0	76	35221
2026-01-14 05:02:22.39	337.87	24.68	-54.3	-73.7	3.8	7.49e-01	0	27	104	0	76	35294
2026-01-14 05:02:23.40	337.53	24.69	-54.3	-73.6	3.8	7.48e-01	0	27	104	0	76	35234
2026-01-14 05:02:24.41	337.18	24.71	-54.3	-73.7	3.8	7.44e-01	0	27	104	0	76	35344
2026-01-14 05:02:25.42	336.84	24.73	-54.3	-73.7	3.8	7.45e-01	0	27	104	0	76	35302
2026-01-14 05:02:26.43	336.49	24.74	-54.3	-73.7	3.8	7.48e-01	0	27	104	0	76	35348
2026-01-14 05:02:27.44	336.15	24.75	-54.3	-73.6	3.8	7.44e-01	0	27	104	0	76	35272
2026-01-14 05:02:28.45	335.80	24.76	-54.3	-73.7	3.8	7.48e-01	0	27	104	0	76	35335
2026-01-14 05:02:29.46	335.46	24.77	-54.3	-73.7	3.8	7.45e-01	0	27	104	0	76	35367
2026-01-14 05:02:30.47	335.11	24.78	-54.3	-73.7	3.8	7.50e-01	0	27	104	0	76	35375
2026-01-14 05:02:31.48	334.77	24.79	-54.3	-73.7	3.8	7.48e-01	0	27	104	0	76	35314
2026-01-14 05:02:32.49	334.42	24.80	-54.3	-73.7	3.8	7.47e-01	0	27	104	0	76	35351
2026-01-14 05:02:33.50	334.07	24.80	-54.3	-73.6	3.8	7.49e-01	0	27	104	0	76	35247
2026-01-14 05:02:34.51	333.73	24.81	-54.3	-73.7	3.8	7.45e-01	0	27	104	0	76	35293
2026-01-14 05:02:35.51	333.38	24.81	-54.3	-73.6	3.8	7.44e-01	0	27	104	0	76	35254
2026-01-14 05:02:36.52	333.04	24.82	-54.3	-73.6	3.8	7.49e-01	0	27	104	0	76	35261
2026-01-14 05:02:37.53	332.69	24.82	-54.3	-73.7	3.8	7.48e-01	0	27	104	0	76	35353
2026-01-14 05:02:38.54	332.34	24.82	-54.3	-73.7	3.8	7.47e-01	0	27	104	0	76	35379
2026-01-14 05:02:39.55	331.99	24.82	-54.3	-73.7	3.8	7.45e-01	0	27	104	0	76	35326
2026-01-14 05:02:40.56	331.65	24.82	-54.3	-73.6	3.8	7.47e-01	0	27	104	0	76	35280
2026-01-14 05:02:41.57	331.30	24.81	-54.3	-73.6	3.8	7.49e-01	0	27	104	0	76	35243
2026-01-14 05:02:42.57	330.96	24.81	-54.3	-73.7	3.8	7.46e-01	0	27	104	0	76	35357
2026-01-14 05:02:43.58	330.61	24.80	-54.3	-73.7	3.8	7.44e-01	0	27	104	0	76	35352
2026-01-14 05:02:44.59	330.26	24.80	-54.3	-73.7	3.8	7.45e-01	0	27	104	0	76	35297
2026-01-14 05:02:45.60	329.92	24.79	-54.3	-73.6	3.8	7.45e-01	0	27	104	0	76	35244
2026-01-14 05:02:46.61	329.57	24.78	-54.3	-73.6	3.8	7.48e-01	0	27	104	0	76	35269
2026-01-14 05:02:47.62	329.22	24.77	-54.3	-73.7	3.8	7.47e-01	0	27	104	0	76	35309
2026-01-14 05:02:48.63	328.88	24.76	-54.3	-73.7	3.8	7.48e-01	0	27	104	0	76	35318
2026-01-14 05:02:49.64	328.53	24.75	-54.3	-73.7	3.8	7.49e-01	0	27	104	0	76	35284
2026-01-14 05:02:50.65	328.19	24.74	-54.3	-73.7	3.8	7.47e-01	0	27	104	0	76	35429
2026-01-14 05:02:51.66	327.84	24.72	-54.3	-73.6	3.8	7.49e-01	0	28	104	0	76	35214
2026-01-14 05:02:52.67	327.50	24.71	-54.3	-73.7	3.8	7.48e-01	0	27	104	0	76	35321
2026-01-14 05:02:53.68	327.15	24.69	-54.3	-73.7	3.8	7.45e-01	0	27	104	0	76	35353
2026-01-14 05:02:54.69	326.81	24.68	-54.3	-73.6	3.8	7.46e-01	0	27	104	0	76	35233
2026-01-14 05:02:55.70	326.46	24.66	-54.3	-73.6	3.8	7.48e-01	0	27	104	0	76	35244
2026-01-14 05:02:56.71	326.12	24.64	-54.3	-73.6	3.8	7.46e-01	0	27	104	0	76	35262
2026-01-14 05:02:57.72	325.78	24.62	-54.3	-73.6	3.8	7.47e-01	0	27	104	0	76	35209
2026-01-14 05:02:58.73	325.44	24.60	-54.3	-73.7	3.8	7.47e-01	0	27	104	0	76	35386
2026-01-14 05:02:59.74	325.09	24.58	-54.3	-73.7	3.8	7.45e-01	0	27	104	0	76	35300
2026-01-14 05:03:00.74	324.76	24.55	-54.3	-73.6	3.8	7.46e-01	0	27	104	0	76	35280
2026-01-14 05:03:01.75	324.42	24.53	-54.3	-73.7	3.8	7.50e-01	0	27	104	0	76	35333
2026-01-14 05:03:02.75	324.08	24.50	-54.3	-73.7	3.8	7.48e-01	0	27	104	0	76	35368
2026-01-14 05:03:03.77	323.74	24.48	-54.3	-73.7	3.8	7.47e-01	0	27	104	0	76	35324
2026-01-14 05:03:04.78	323.40	24.45	-54.3	-73.7	3.8	7.43e-01	0	27	104	0	76	35412
2026-01-14 05:03:05.78	323.06	24.42	-54.3	-73.7	3.8	7.47e-01	0	27	104	0	76	35343
2026-01-14 05:03:06.79	322.72	24.39	-54.3	-73.7	3.8	7.47e-01	0	27	104	0	76	35379
2026-01-14 05:03:07.80	322.39	24.36	-54.3	-73.6	3.8	7.46e-01	0	27	104	0	76	35279
2026-01-14 05:03:08.81	322.05	24.33	-54.3	-73.7	3.8	7.44e-01	0	27	104	0	76	35316
2026-01-14 05:03:09.82	321.71	24.30	-54.3	-73.7	3.8	7.47e-01	0	27	104	0	76	35414
2026-01-14 05:03:10.83	321.38	24.26	-54.3	-73.7	3.8	7.44e-01	0	28	104	0	76	35345
2026-01-14 05:03:11.84	321.05	24.23	-54.3	-73.7	3.8	7.49e-01	0	27	104	0	76	35399
2026-01-14 05:03:12.84	320.72	24.19	-54.3	-73.7	3.8	7.46e-01	0	27	104	0	76	35307
2026-01-14 05:03:13.86	320.38	24.16	-54.3	-73.7	3.8	7.50e-01	0	27	104	0	76	35387
2026-01-14 05:03:14.86	320.05	24.12	-54.3	-73.7	3.8	7.48e-01	0	27	104	0	76	35354
2026-01-14 05:03:15.87	319.72	24.08	-54.3	-73.7	3.8	7.47e-01	0	27	104	0	76	35320
2026-01-14 05:03:16.88	319.39	24.04	-54.3	-73.7	3.8	7.48e-01	0	27	104	0	76	35435
2026-01-14 05:03:17.88	319.06	24.00	-54.3	-73.7	3.8	7.46e-01	0	27	104	0	76	35302
2026-01-14 05:03:18.89	318.74	23.96	-54.3	-73.7	3.8	7.46e-01	0	27	104	0	76	35407
2026-01-14 05:03:19.90	318.41	23.92	-54.3	-73.7	3.8	7.46e-01	0	27	104	0	76	35372
2026-01-14 05:03:20.91	318.08	23.88	-54.3	-73.7	3.8	7.43e-01	0	27	104	0	76	35399
2026-01-14 05:03:21.92	317.76	23.83	-54.3	-73.7	3.8	7.49e-01	0	27	104	0	76	35467
2026-01-14 05:03:22.93	317.43	23.79	-54.3	-73.7	3.8	7.48e-01	0	27	104	0	76	35373
2026-01-14 05:03:23.94	317.11	23.74	-54.3	-73.7	3.8	7.47e-01	0	27	104	0	76	35383
2026-01-14 05:03:24.95	316.78	23.70	-54.3	-73.7	3.8	7.48e-01	0	27	104	0	76	35381
2026-01-14 05:03:25.96	316.46	23.65	-54.3	-73.7	3.8	7.45e-01	0	27	104	0	76	35386
2026-01-14 05:03:26.97	316.14	23.60	-54.3	-73.7	3.9	7.46e-01	0	27	104	0	76	35289
2026-01-14 05:03:27.97	315.83	23.55	-54.3	-73.7	3.8	7.45e-01	0	27	104	0	76	35348
2026-01-14 05:03:28.98	315.51	23.50	-54.3	-73.7	3.8	7.47e-01	0	27	104	0	76	35344
2026-01-14 05:03:29.99	315.19	23.45	-54.3	-73.7	3.8	7.48e-01	0	27	104	0	76	35400
2026-01-14 05:03:31.00	314.87	23.40	-54.3	-73.7	3.8	7.46e-01	0	27	104	0	76	35368
2026-01-14 05:03:32.01	314.56	23.35	-54.3	-73.7	3.8	7.50e-01	0	27	104	0	76	35413
2026-01-14 05:03:33.01	314.25	23.30	-54.3	-73.6	3.8	7.47e-01	0	27	104	0	76	35217
2026-01-14 05:03:34.02	313.93	23.24	-54.3	-73.7	3.8	7.47e-01	0	27	104	0	76	35419
2026-01-14 05:03:35.03	313.62	23.19	-54.3	-73.6	3.8	7.45e-01	0	27	104	0	76	35245
2026-01-14 05:03:36.03	313.31	23.13	-54.3	-73.6	3.8	7.46e-01	0	27	104	0	76	35235
2026-01-14 05:03:37.04	313.00	23.08	-54.3	-73.7	3.8	7.47e-01	0	27	104	0	76	35456
2026-01-14 05:03:38.05	312.70	23.02	-54.3	-73.7	3.8	7.46e-01	0	28	104	0	76	35306
2026-01-14 05:03:39.06	312.39	22.96	-54.3	-73.7	3.8	7.48e-01	0	27	104	0	76	35287
2026-01-14 05:03:40.07	312.08	22.91	-54.3	-73.7	3.8	7.45e-01	0	27	104	0	76	35336
2026-01-14 05:03:41.08	311.78	22.85	-54.3	-73.7	3.8	7.47e-01	0	27	104	0	76	35371
2026-01-14 05:03:42.09	311.47	22.79	-54.3	-73.7	3.8	7.45e-01	0	27	104	0	76	35364
2026-01-14 05:03:43.09	311.17	22.73	-54.3	-73.7	3.8	7.46e-01	0	27	104	0	76	35370
2026-01-14 05:03:44.10	310.87	22.67	-54.3	-73.7	3.8	7.46e-01	0	27	104	0	76	35285
2026-01-14 05:03:45.11	310.57	22.61	-54.3	-73.7	3.8	7.47e-01	0	27	104	0	76	35367
2026-01-14 05:03:46.12	310.28	22.54	-54.3	-73.7	3.8	7.46e-01	0	27	104	0	76	35390
2026-01-14 05:03:47.13	309.98	22.48	-54.3	-73.7	3.8	7.44e-01	0	27	104	0	76	35376
2026-01-14 05:03:48.14	309.68	22.42	-54.3	-73.7	3.8	7.47e-01	0	27	104	0	76	35320
2026-01-14 05:03:49.15	309.39	22.35	-54.3	-73.7	3.8	7.47e-01	0	27	104	0	76	35457
2026-01-14 05:03:50.15	309.10	22.29	-54.3	-73.7	3.8	7.43e-01	0	27	104	0	76	35341
2026-01-14 05:03:51.17	308.80	22.22	-54.3	-73.7	3.8	7.45e-01	0	27	104	0	76	35295
2026-01-14 05:03:52.17	308.51	22.16	-54.3	-73.7	3.8	7.44e-01	0	27	104	0	76	35303
2026-01-14 05:03:53.19	308.22	22.09	-54.3	-73.7	3.8	7.47e-01	0	27	104	0	76	35382
2026-01-14 05:03:54.19	307.93	22.03	-54.3	-73.6	3.8	7.46e-01	0	27	104	0	76	35272
2026-01-14 05:03:55.20	307.65	21.96	-54.3	-73.7	3.8	7.50e-01	0	27	104	0	76	35402
2026-01-14 05:03:56.21	307.36	21.89	-54.3	-73.7	3.8	7.46e-01	0	27	104	0	76	35331
2026-01-14 05:03:57.22	307.08	21.82	-54.3	-73.7	3.8	7.45e-01	0	27	104	0	76	35375
2026-01-14 05:03:58.23	306.79	21.75	-54.3	-73.7	3.8	7.51e-01	0	27	104	0	76	35318
2026-01-14 05:03:59.24	306.51	21.68	-54.3	-73.7	3.8	7.45e-01	0	27	104	0	76	35366
2026-01-14 05:04:00.25	306.23	21.61	-54.3	-73.7	3.8	7.48e-01	0	27	104	0	76	35299
2026-01-14 05:04:01.26	305.95	21.54	-54.3	-73.7	3.8	7.45e-01	0	27	104	0	76	35349
2026-01-14 05:04:02.27	305.67	21.47	-54.3	-73.7	3.8	7.45e-01	0	27	104	0	76	35376
2026-01-14 05:04:03.27	305.40	21.40	-54.3	-73.7	3.8	7.46e-01	0	27	104	0	76	35322
2026-01-14 05:04:04.29	305.12	21.33	-54.3	-73.7	3.8	7.46e-01	0	27	104	0	76	35378
2026-01-14 05:04:05.29	304.85	21.26	-54.3	-73.7	3.8	7.44e-01	0	27	104	0	76	35375
2026-01-14 05:04:06.30	304.58	21.18	-54.3	-73.7	3.8	7.48e-01	0	27	104	0	76	35285
2026-01-14 05:04:07.31	304.31	21.11	-54.3	-73.7	3.8	7.47e-01	0	27	104	0	76	35349
2026-01-14 05:04:08.32	304.04	21.04	-54.3	-73.7	3.8	7.45e-01	0	27	104	0	76	35352
2026-01-14 05:04:09.33	303.77	20.96	-54.3	-73.7	3.8	7.48e-01	0	27	104	0	76	35378
2026-01-14 05:04:10.33	303.51	20.89	-54.3	-73.7	3.8	7.45e-01	0	27	104	0	76	35294
2026-01-14 05:04:11.34	303.24	20.81	-54.3	-73.7	3.8	7.48e-01	0	27	104	0	76	35426
2026-01-14 05:04:12.35	302.98	20.74	-54.3	-73.7	3.8	7.46e-01	0	27	104	0	76	35362
2026-01-14 05:04:13.36	302.71	20.66	-54.3	-73.7	3.8	7.49e-01	0	27	104	0	76	35363
2026-01-14 05:04:14.37	302.45	20.59	-54.3	-73.7	3.8	7.47e-01	0	27	104	0	76	35400
2026-01-14 05:04:15.38	302.19	20.51	-54.3	-73.7	3.8	7.45e-01	0	27	104	0	76	35405
2026-01-14 05:04:16.39	301.93	20.43	-54.3	-73.7	3.8	7.41e-01	0	27	104	0	76	35400
2026-01-14 05:04:17.40	301.67	20.36	-54.3	-73.7	3.8	7.48e-01	0	27	104	0	76	35393
2026-01-14 05:04:18.40	301.42	20.28	-54.3	-73.7	3.8	7.45e-01	0	27	104	0	76	35326
2026-01-14 05:04:19.42	301.16	20.20	-54.3	-73.7	3.8	7.42e-01	0	27	104	0	76	35404
2026-01-14 05:04:20.42	300.91	20.12	-54.3	-73.7	3.8	7.44e-01	0	27	104	0	76	35399
2026-01-14 05:04:21.43	300.66	20.05	-54.3	-73.7	3.8	7.47e-01	0	27	104	0	76	35470
2026-01-14 05:04:22.45	300.41	19.97	-54.3	-73.7	3.8	7.45e-01	0	27	104	0	76	35358
2026-01-14 05:04:23.45	300.16	19.89	-54.3	-73.7	3.8	7.47e-01	0	27	104	0	76	35327
2026-01-14 05:04:24.47	299.91	19.81	-54.3	-73.7	3.8	7.46e-01	0	27	104	0	76	35333
2026-01-14 05:04:25.47	299.67	19.73	-54.3	-73.6	3.8	7.47e-01	0	27	104	0	76	35261
2026-01-14 05:04:26.48	299.42	19.65	-54.3	-73.7	3.8	7.48e-01	0	27	104	0	76	35307
2026-01-14 05:04:27.49	299.18	19.57	-54.3	-73.7	3.8	7.46e-01	0	27	104	0	76	35386
2026-01-14 05:04:28.49	298.94	19.49	-54.3	-73.7	3.8	7.45e-01	0	27	104	0	76	35314
2026-01-14 05:04:29.50	298.70	19.41	-54.3	-73.6	3.8	7.47e-01	0	27	104	0	76	35270
2026-01-14 05:04:30.51	298.46	19.33	-54.3	-73.7	3.8	7.45e-01	0	27	104	0	76	35310
2026-01-14 05:04:31.52	298.22	19.25	-54.3	-73.7	3.8	7.47e-01	0	27	104	0	76	35408
2026-01-14 05:04:32.52	297.98	19.17	-54.3	-73.7	3.8	7.49e-01	0	27	104	0	76	35376
2026-01-14 05:04:33.53	297.75	19.09	-54.3	-73.7	3.8	7.45e-01	0	28	104	0	76	35337
2026-01-14 05:04:34.54	297.51	19.01	-54.3	-73.7	3.8	7.47e-01	0	27	104	0	76	35366
2026-01-14 05:04:35.54	297.28	18.93	-54.3	-73.6	3.8	7.45e-01	0	28	104	0	76	35262
2026-01-14 05:04:36.55	297.05	18.85	-54.3	-73.7	3.8	7.46e-01	0	27	104	0	76	35325
2026-01-14 05:04:37.56	296.82	18.76	-54.3	-73.7	3.8	7.47e-01	0	27	104	0	76	35398
2026-01-14 05:04:38.57	296.59	18.68	-54.3	-73.7	3.8	7.46e-01	0	27	104	0	76	35422
2026-01-14 05:04:39.58	296.36	18.60	-54.3	-73.7	3.8	7.48e-01	0	27	104	0	76	35306
2026-01-14 05:04:40.59	296.14	18.52	-54.3	-73.7	3.8	7.47e-01	0	27	104	0	76	35360
2026-01-14 05:04:41.60	295.91	18.44	-54.3	-73.7	3.8	7.47e-01	0	27	104	0	76	35323
2026-01-14 05:04:42.61	295.69	18.35	-54.3	-73.7	3.8	7.47e-01	0	27	104	0	76	35370
2026-01-14 05:04:43.62	295.47	18.27	-54.3	-73.7	3.8	7.47e-01	0	27	104	0	76	35355
2026-01-14 05:04:44.62	295.25	18.19	-54.3	-73.7	3.8	7.45e-01	0	27	104	0	76	35394
2026-01-14 05:04:45.63	295.03	18.11	-54.3	-73.7	3.8	7.46e-01	0	27	104	0	76	35318
2026-01-14 05:04:46.64	294.81	18.02	-54.3	-73.7	3.8	7.46e-01	0	27	104	0	76	35412
2026-01-14 05:04:47.65	294.59	17.94	-54.3	-73.7	3.8	7.44e-01	0	27	104	0	76	35344
2026-01-14 05:04:48.66	294.37	17.86	-54.3	-73.7	3.8	7.47e-01	0	27	104	0	76	35337
2026-01-14 05:04:49.67	294.16	17.77	-54.3	-73.7	3.8	7.45e-01	0	27	104	0	76	35367
2026-01-14 05:04:50.68	293.94	17.69	-54.3	-73.7	3.8	7.45e-01	0	27	104	0	76	35294
2026-01-14 05:04:51.69	293.73	17.61	-54.3	-73.7	3.8	7.46e-01	0	28	104	0	76	35385
2026-01-14 05:04:52.69	293.52	17.52	-54.3	-73.7	3.8	7.45e-01	0	27	104	0	76	35410
2026-01-14 05:04:53.70	293.31	17.44	-54.3	-73.7	3.8	7.50e-01	0	28	104	0	76	35362
2026-01-14 05:04:54.71	293.10	17.36	-54.3	-73.7	3.8	7.49e-01	0	28	104	0	76	35378
2026-01-14 05:04:55.72	292.90	17.27	-54.3	-73.7	3.8	7.45e-01	0	27	104	0	76	35381
2026-01-14 05:04:56.73	292.69	17.19	-54.3	-73.6	3.8	7.48e-01	0	27	104	0	76	35274
2026-01-14 05:04:57.74	292.49	17.10	-54.3	-73.7	3.8	7.49e-01	0	27	104	0	76	35364
2026-01-14 05:04:58.75	292.28	17.02	-54.3	-73.7	3.8	7.44e-01	0	27	104	0	76	35395
2026-01-14 05:04:59.76	292.08	16.94	-54.3	-73.7	3.8	7.47e-01	0	27	104	0	76	35287
2026-01-14 05:05:00.77	291.88	16.85	-54.3	-73.7	3.8	7.46e-01	0	28	104	0	76	35369
2026-01-14 05:05:01.77	291.68	16.77	-54.3	-73.6	3.8	7.47e-01	0	28	104	0	76	35279
2026-01-14 05:05:02.78	291.48	16.68	-54.3	-73.7	3.8	7.45e-01	0	27	104	0	76	35332
2026-01-14 05:05:03.79	291.28	16.60	-54.3	-73.7	3.8	7.45e-01	0	27	104	0	76	35355
2026-01-14 05:05:04.80	291.09	16.52	-54.3	-73.7	3.8	7.43e-01	0	27	104	0	76	35407
2026-01-14 05:05:05.81	290.89	16.43	-54.3	-73.7	3.8	7.45e-01	0	27	104	0	76	35288
2026-01-14 05:05:06.82	290.70	16.35	-54.3	-73.6	3.8	7.46e-01	0	27	104	0	76	35176
2026-01-14 05:05:07.83	290.50	16.26	-54.3	-73.6	3.8	7.48e-01	0	27	104	0	76	35240
2026-01-14 05:05:08.83	290.31	16.18	-54.3	-73.7	3.8	7.46e-01	0	28	104	0	76	35350
2026-01-14 05:05:09.84	290.12	16.10	-54.3	-73.7	3.8	7.48e-01	0	27	104	0	76	35366
2026-01-14 05:05:10.85	289.93	16.01	-54.3	-73.7	3.8	7.46e-01	0	27	104	0	76	35368
2026-01-14 05:05:11.86	289.75	15.93	-54.3	-73.7	3.8	7.49e-01	0	27	104	0	76	35306
2026-01-14 05:05:12.87	289.56	15.84	-54.3	-73.7	3.8	7.47e-01	0	27	104	0	76	35435
2026-01-14 05:05:13.88	289.37	15.76	-54.3	-73.6	3.8	7.44e-01	0	27	104	0	76	35256
2026-01-14 05:05:14.89	289.19	15.68	-54.3	-73.6	3.8	7.46e-01	0	27	104	0	76	35273
2026-01-14 05:05:15.90	289.00	15.59	-54.3	-73.7	3.8	7.46e-01	0	27	104	0	76	35287
2026-01-14 05:05:16.91	288.82	15.51	-54.3	-73.7	3.8	7.48e-01	0	27	104	0	76	35340
2026-01-14 05:05:17.92	288.64	15.43	-54.3	-73.7	3.8	7.49e-01	0	28	104	0	76	35316
2026-01-14 05:05:18.92	288.46	15.34	-54.3	-73.7	3.8	7.47e-01	0	27	104	0	76	35347
2026-01-14 05:05:19.93	288.28	15.26	-54.3	-73.7	3.8	7.45e-01	0	27	104	0	76	35345
2026-01-14 05:05:20.94	288.10	15.17	-54.3	-73.7	3.8	7.46e-01	0	27	104	0	76	35324
2026-01-14 05:05:21.95	287.92	15.09	-54.3	-73.7	3.8	7.44e-01	0	27	104	0	76	35389
2026-01-14 05:05:22.96	287.75	15.01	-54.3	-73.7	3.8	7.49e-01	0	27	104	0	76	35332
2026-01-14 05:05:23.97	287.57	14.92	-54.3	-73.7	3.8	7.46e-01	0	28	104	0	76	35384
2026-01-14 05:05:24.97	287.40	14.84	-54.3	-73.7	3.8	7.43e-01	0	27	104	0	76	35306
2026-01-14 05:05:25.98	287.23	14.76	-54.3	-73.7	3.8	7.47e-01	0	27	104	0	76	35326
2026-01-14 05:05:26.99	287.05	14.67	-54.3	-73.6	3.8	7.47e-01	0	27	104	0	76	35259
2026-01-14 05:05:28.00	286.88	14.59	-54.3	-73.6	3.8	7.45e-01	0	27	104	0	76	35282
2026-01-14 05:05:29.01	286.71	14.51	-54.3	-73.6	3.8	7.46e-01	0	27	104	0	76	35214
2026-01-14 05:05:30.01	286.55	14.43	-54.3	-73.6	3.8	7.48e-01	0	27	104	0	76	35257
2026-01-14 05:05:31.02	286.38	14.34	-54.3	-73.7	3.8	7.48e-01	0	27	104	0	76	35285
2026-01-14 05:05:32.03	286.21	14.26	-54.3	-73.6	3.8	7.47e-01	0	28	104	0	76	35188
2026-01-14 05:05:33.04	286.05	14.18	-54.3	-73.7	3.8	7.47e-01	0	27	104	0	76	35301
2026-01-14 05:05:34.05	285.88	14.09	-54.3	-73.6	3.8	7.47e-01	0	27	104	0	76	35189
2026-01-14 05:05:35.06	285.72	14.01	-54.3	-73.6	3.8	7.48e-01	0	27	104	0	76	35235
2026-01-14 05:05:36.06	285.55	13.93	-54.3	-73.7	3.8	7.49e-01	0	27	104	0	76	35345
2026-01-14 05:05:37.07	285.39	13.85	-54.3	-73.7	3.8	7.45e-01	0	27	104	0	76	35391
2026-01-14 05:05:38.08	285.23	13.76	-54.3	-73.6	3.8	7.50e-01	0	27	104	0	76	35270
2026-01-14 05:05:39.09	285.07	13.68	-54.3	-73.7	3.8	7.45e-01	0	27	104	0	76	35411
2026-01-14 05:05:40.10	284.91	13.60	-54.3	-73.7	3.8	7.44e-01	0	27	104	0	76	35295
2026-01-14 05:05:41.11	284.75	13.52	-54.3	-73.6	3.8	7.44e-01	0	27	104	0	76	35235
2026-01-14 05:05:42.12	284.60	13.44	-54.3	-73.6	3.8	7.47e-01	0	27	104	0	76	35250
2026-01-14 05:05:43.13	284.44	13.35	-54.3	-73.7	3.8	7.45e-01	0	27	104	0	76	35369
2026-01-14 05:05:44.13	284.29	13.27	-54.3	-73.7	3.8	7.46e-01	0	27	104	0	76	35362
2026-01-14 05:05:45.14	284.13	13.19	-54.3	-73.6	3.8	7.47e-01	0	27	104	0	76	35210
2026-01-14 05:05:46.15	283.98	13.11	-54.3	-73.7	3.8	7.48e-01	0	27	104	0	76	35391
2026-01-14 05:05:47.16	283.83	13.03	-54.3	-73.7	3.8	7.42e-01	0	27	104	0	76	35405
2026-01-14 05:05:48.17	283.68	12.95	-54.3	-73.7	3.8	7.48e-01	0	27	104	0	76	35332
2026-01-14 05:05:49.18	283.52	12.86	-54.3	-73.7	3.8	7.43e-01	0	27	104	0	76	35442
2026-01-14 05:05:50.19	283.38	12.78	-54.3	-73.7	3.8	7.48e-01	0	27	104	0	76	35358
2026-01-14 05:05:51.20	283.23	12.70	-54.3	-73.7	3.8	7.44e-01	0	27	104	0	76	35338
2026-01-14 05:05:52.21	283.08	12.62	-54.3	-73.7	3.8	7.43e-01	0	27	104	0	76	35432
2026-01-14 05:05:53.22	282.93	12.54	-54.3	-73.7	3.8	7.47e-01	0	27	104	0	76	35386
2026-01-14 05:05:54.22	282.79	12.46	-54.3	-73.7	3.8	7.42e-01	0	28	104	0	76	35388
2026-01-14 05:05:55.23	282.64	12.38	-54.3	-73.7	3.8	7.47e-01	0	27	104	0	76	35403
2026-01-14 05:05:56.24	282.50	12.30	-54.3	-73.7	3.8	7.48e-01	0	27	104	0	76	35351
2026-01-14 05:05:57.25	282.35	12.22	-54.3	-73.7	3.8	7.49e-01	0	27	104	0	76	35307
2026-01-14 05:05:58.26	282.21	12.14	-54.3	-73.7	3.8	7.46e-01	0	27	104	0	76	35360
2026-01-14 05:05:59.27	282.07	12.06	-54.3	-73.7	3.8	7.46e-01	0	28	104	0	76	35368
2026-01-14 05:06:00.28	281.93	11.98	-54.3	-73.7	3.8	7.43e-01	0	27	104	0	76	35445
2026-01-14 05:06:01.29	281.79	11.90	-54.3	-73.7	3.8	7.48e-01	0	28	104	0	76	35390
2026-01-14 05:06:02.30	281.65	11.82	-54.3	-73.7	3.8	7.48e-01	0	27	104	0	76	35443
2026-01-14 05:06:03.31	281.51	11.74	-54.3	-73.7	3.8	7.45e-01	0	27	104	0	76	35296
2026-01-14 05:06:04.32	281.37	11.66	-54.3	-73.7	3.8	7.49e-01	0	27	104	0	76	35395
2026-01-14 05:06:05.32	281.24	11.58	-54.3	-73.7	3.8	7.50e-01	0	27	104	0	76	35317
2026-01-14 05:06:06.33	281.10	11.50	-54.3	-73.7	3.8	7.49e-01	0	27	104	0	76	35401
2026-01-14 05:06:07.34	280.96	11.42	-54.3	-73.7	3.8	7.46e-01	0	27	104	0	76	35426
2026-01-14 05:06:08.35	280.83	11.34	-54.3	-73.7	3.8	7.45e-01	0	27	104	0	76	35392
2026-01-14 05:06:09.36	280.70	11.27	-54.3	-73.7	3.8	7.46e-01	0	27	104	0	76	35374
2026-01-14 05:06:10.37	280.56	11.19	-54.3	-73.7	3.8	7.46e-01	0	27	104	0	76	35341
2026-01-14 05:06:11.38	280.43	11.11	-54.3	-73.7	3.8	7.47e-01	0	27	104	0	76	35335
2026-01-14 05:06:12.39	280.30	11.03	-54.3	-73.7	3.8	7.46e-01	0	27	104	0	76	35433
2026-01-14 05:06:13.40	280.17	10.95	-54.3	-73.7	3.8	7.46e-01	0	27	104	0	76	35338
2026-01-14 05:06:14.41	280.04	10.87	-54.3	-73.7	3.8	7.47e-01	0	27	104	0	76	35377
2026-01-14 05:06:15.41	279.91	10.80	-54.3	-73.7	3.8	7.47e-01	0	27	104	0	76	35388
2026-01-14 05:06:16.42	279.78	10.72	-54.3	-73.7	3.8	7.46e-01	0	27	104	0	76	35407
2026-01-14 05:06:17.42	279.66	10.64	-54.3	-73.7	3.8	7.46e-01	0	27	104	0	76	35372
2026-01-14 05:06:18.43	279.53	10.56	-54.3	-73.7	3.8	7.46e-01	0	28	104	0	76	35337
2026-01-14 05:06:19.44	279.40	10.49	-54.3	-73.7	3.8	7.47e-01	0	27	104	0	76	35317
2026-01-14 05:06:20.45	279.28	10.41	-54.3	-73.7	3.8	7.48e-01	0	27	104	0	76	35401
2026-01-14 05:06:21.46	279.15	10.33	-54.3	-73.7	3.8	7.44e-01	0	27	104	0	76	35414
2026-01-14 05:06:22.47	279.03	10.25	-54.3	-73.7	3.8	7.44e-01	0	27	104	0	76	35374
2026-01-14 05:06:23.48	278.91	10.18	-54.3	-73.7	3.8	7.45e-01	0	27	104	0	76	35411
2026-01-14 05:06:24.49	278.78	10.10	-54.3	-73.7	3.8	7.45e-01	0	27	104	0	76	35370
2026-01-14 05:06:25.50	278.66	10.02	-54.3	-73.7	3.8	7.47e-01	0	27	104	0	76	35313
2026-01-14 05:06:26.50	278.54	9.95	-54.3	-73.7	3.8	7.46e-01	0	27	104	0	76	35399
2026-01-14 05:06:27.51	278.42	9.87	-54.3	-73.7	3.8	7.45e-01	0	27	104	0	76	35287
2026-01-14 05:06:28.52	278.30	9.80	-54.3	-73.7	3.8	7.45e-01	0	27	104	0	76	35419
2026-01-14 05:06:29.53	278.18	9.72	-54.3	-73.7	3.8	7.46e-01	0	27	104	0	76	35311
2026-01-14 05:06:30.54	278.06	9.64	-54.3	-73.7	3.8	7.48e-01	0	27	104	0	76	35454
2026-01-14 05:06:31.55	277.95	9.57	-54.3	-73.7	3.8	7.45e-01	0	27	104	0	76	35473
2026-01-14 05:06:32.56	277.83	9.49	-54.3	-73.7	3.8	7.48e-01	0	27	104	0	76	35418
2026-01-14 05:06:33.57	277.71	9.42	-54.3	-73.7	3.8	7.47e-01	0	27	104	0	76	35372
2026-01-14 05:06:34.57	277.60	9.34	-54.3	-73.7	3.8	7.46e-01	0	28	104	0	76	35473
2026-01-14 05:06:35.58	277.48	9.27	-54.3	-73.7	3.8	7.47e-01	0	27	104	0	76	35446
2026-01-14 05:06:36.59	277.37	9.19	-54.3	-73.7	3.8	7.45e-01	0	27	104	0	76	35393
2026-01-14 05:06:37.59	277.26	9.12	-54.3	-73.7	3.8	7.46e-01	0	27	104	0	76	35395
2026-01-14 05:06:38.61	277.14	9.04	-54.3	-73.7	3.8	7.47e-01	0	28	104	0	76	35333
2026-01-14 05:06:39.61	277.03	8.97	-54.3	-73.7	3.8	7.45e-01	0	27	104	0	76	35314
2026-01-14 05:06:40.62	276.92	8.90	-54.3	-73.7	3.8	7.49e-01	0	28	104	0	76	35361
2026-01-14 05:06:41.63	276.81	8.82	-54.3	-73.7	3.8	7.47e-01	0	27	104	0	76	35315
2026-01-14 05:06:42.64	276.70	8.75	-54.3	-73.7	3.8	7.44e-01	0	27	104	0	76	35327
2026-01-14 05:06:43.65	276.59	8.67	-54.3	-73.6	3.8	7.45e-01	0	28	104	0	76	35230
2026-01-14 05:06:44.66	276.48	8.60	-54.3	-73.6	3.8	7.47e-01	0	27	104	0	76	35264
2026-01-14 05:06:45.67	276.37	8.53	-54.3	-73.7	3.8	7.44e-01	0	28	104	0	76	35342
2026-01-14 05:06:46.68	276.26	8.45	-54.3	-73.7	3.8	7.48e-01	0	27	104	0	76	35332
2026-01-14 05:06:47.69	276.15	8.38	-54.3	-73.7	3.8	7.46e-01	0	27	104	0	76	35414
2026-01-14 05:06:48.70	276.05	8.31	-54.3	-73.7	3.8	7.46e-01	0	27	104	0	76	35357
2026-01-14 05:06:49.70	275.94	8.23	-54.3	-73.7	3.8	7.48e-01	0	27	104	0	76	35326
2026-01-14 05:06:50.71	275.84	8.16	-54.3	-73.7	3.8	7.48e-01	0	27	104	0	76	35314
2026-01-14 05:06:51.72	275.73	8.09	-54.3	-73.7	3.8	7.45e-01	0	27	104	0	76	35391
2026-01-14 05:06:52.73	275.63	8.02	-54.3	-73.7	3.8	7.46e-01	0	27	104	0	76	35306
2026-01-14 05:06:53.74	275.52	7.94	-54.3	-73.7	3.8	7.46e-01	0	27	104	0	76	35399
2026-01-14 05:06:54.75	275.42	7.87	-54.3	-73.7	3.8	7.45e-01	0	27	104	0	76	35363
2026-01-14 05:06:55.76	275.32	7.80	-54.3	-73.7	3.8	7.46e-01	0	27	104	0	76	35359
2026-01-14 05:06:56.76	275.22	7.73	-54.3	-73.7	3.8	7.44e-01	0	28	104	0	76	35379
2026-01-14 05:06:57.77	275.11	7.66	-54.3	-73.7	3.8	7.49e-01	0	27	104	0	76	35497
2026-01-14 05:06:58.78	275.01	7.58	-54.3	-73.7	3.8	7.47e-01	0	27	104	0	76	35413
2026-01-14 05:06:59.79	274.91	7.51	-54.3	-73.6	3.8	7.44e-01	0	27	104	0	76	35276
2026-01-14 05:07:00.80	274.81	7.44	-54.3	-73.7	3.8	7.44e-01	0	27	104	0	76	35349
2026-01-14 05:07:01.81	274.71	7.37	-54.3	-73.7	3.8	7.50e-01	0	27	104	0	76	35306
2026-01-14 05:07:02.82	274.61	7.30	-54.3	-73.6	3.8	7.43e-01	0	27	104	0	76	35278
2026-01-14 05:07:03.83	274.52	7.23	-54.3	-73.7	3.8	7.45e-01	0	27	104	0	76	35322
2026-01-14 05:07:04.84	274.42	7.16	-54.3	-73.7	3.8	7.46e-01	0	27	104	0	76	35372
2026-01-14 05:07:05.85	274.32	7.09	-54.3	-73.7	3.8	7.46e-01	0	27	104	0	76	35311
2026-01-14 05:07:06.85	274.22	7.02	-54.3	-73.6	3.8	7.47e-01	0	27	104	0	76	35279
2026-01-14 05:07:07.86	274.13	6.95	-54.3	-73.7	3.8	7.47e-01	0	27	104	0	76	35318
2026-01-14 05:07:08.87	274.03	6.87	-54.3	-73.6	3.8	7.47e-01	0	27	104	0	76	35026
2026-01-14 05:07:09.88	273.94	6.80	-54.3	-73.6	3.8	7.45e-01	0	27	104	0	76	35149
2026-01-14 05:07:10.89	273.84	6.73	-54.3	-73.7	3.8	7.50e-01	0	27	104	0	76	35341
2026-01-14 05:07:11.90	273.75	6.66	-54.3	-73.7	3.8	7.46e-01	0	27	104	0	76	35328
2026-01-14 05:07:12.91	273.66	6.59	-54.3	-73.7	3.8	7.48e-01	0	28	104	0	76	35368
2026-01-14 05:07:13.92	273.56	6.53	-54.3	-73.7	3.8	7.47e-01	0	28	104	0	76	35329
2026-01-14 05:07:14.93	273.47	6.46	-54.3	-73.7	3.8	7.45e-01	0	27	104	0	76	35358
2026-01-14 05:07:15.94	273.38	6.39	-54.3	-73.7	3.8	7.46e-01	0	27	104	0	76	35332
2026-01-14 05:07:16.95	273.29	6.32	-54.3	-73.6	3.8	7.51e-01	0	27	104	0	76	35282
2026-01-14 05:07:17.96	273.19	6.25	-54.3	-73.6	3.8	7.44e-01	0	27	104	0	76	35242
2026-01-14 05:07:18.97	273.10	6.18	-54.3	-73.6	3.8	7.44e-01	0	27	104	0	76	35190
2026-01-14 05:07:19.97	273.01	6.11	-54.3	-73.7	3.8	7.48e-01	0	27	104	0	76	35289
2026-01-14 05:07:20.98	272.92	6.04	-54.3	-73.7	3.8	7.50e-01	0	28	104	0	76	35325
2026-01-14 05:07:21.98	272.84	5.97	-54.3	-73.7	3.8	7.49e-01	0	28	104	0	76	35393
2026-01-14 05:07:22.99	272.75	5.91	-54.3	-73.7	3.8	7.47e-01	0	28	104	0	76	35363
2026-01-14 05:07:24.00	272.66	5.84	-54.3	-73.6	3.8	7.44e-01	0	27	104	0	76	35198
2026-01-14 05:07:25.02	272.57	5.77	-54.3	-73.6	3.8	7.49e-01	0	27	104	0	76	35281
2026-01-14 05:07:26.03	272.48	5.70	-54.3	-73.7	3.8	7.43e-01	0	27	104	0	76	35288
2026-01-14 05:07:27.04	272.40	5.63	-54.3	-73.6	3.8	7.45e-01	0	27	104	0	76	35174
2026-01-14 05:07:28.05	272.31	5.57	-54.3	-73.6	3.8	7.47e-01	0	27	104	0	76	35227
2026-01-14 05:07:29.05	272.22	5.50	-54.3	-73.7	3.8	7.47e-01	0	28	104	0	76	35297
2026-01-14 05:07:30.06	272.14	5.43	-54.3	-73.6	3.8	7.47e-01	0	27	104	0	76	35228
2026-01-14 05:07:31.07	272.05	5.36	-54.3	-73.7	3.8	7.48e-01	0	27	104	0	76	35286
2026-01-14 05:07:32.08	271.97	5.30	-54.3	-73.6	3.8	7.47e-01	0	27	104	0	76	35225
2026-01-14 05:07:33.09	271.88	5.23	-54.3	-73.6	3.8	7.44e-01	0	27	104	0	76	35276
2026-01-14 05:07:34.10	271.80	5.16	-54.3	-73.7	3.8	7.46e-01	0	27	104	0	76	35406
2026-01-14 05:07:35.10	271.72	5.10	-54.3	-73.7	3.8	7.48e-01	0	27	104	0	76	35308
2026-01-14 05:07:36.11	271.63	5.03	-54.3	-73.7	3.8	7.46e-01	0	27	104	0	76	35368
2026-01-14 05:07:37.11	271.55	4.96	-54.3	-73.7	3.8	7.47e-01	0	28	104	0	76	35424
2026-01-14 05:07:38.12	271.47	4.90	-54.3	-73.7	3.8	7.48e-01	0	27	104	0	76	35339
2026-01-14 05:07:39.14	271.39	4.83	-54.3	-73.7	3.8	7.46e-01	0	27	104	0	76	35365
2026-01-14 05:07:40.14	271.31	4.77	-54.3	-73.6	3.8	7.45e-01	0	27	104	0	76	35250
2026-01-14 05:07:41.15	271.23	4.70	-54.3	-73.6	3.8	7.46e-01	0	27	104	0	76	35273
2026-01-14 05:07:42.17	271.15	4.63	-54.3	-73.6	3.8	7.48e-01	0	27	104	0	76	35241
2026-01-14 05:07:43.18	271.07	4.57	-54.3	-73.7	3.8	7.45e-01	0	27	104	0	76	35327
2026-01-14 05:07:44.19	270.99	4.50	-54.3	-73.7	3.8	7.47e-01	0	27	104	0	76	35320
2026-01-14 05:07:45.20	270.91	4.44	-54.3	-73.6	3.8	7.47e-01	0	27	104	0	76	35266
2026-01-14 05:07:46.21	270.83	4.37	-54.3	-73.7	3.8	7.46e-01	0	28	104	0	76	35357
2026-01-14 05:07:47.21	270.75	4.31	-54.3	-73.7	3.8	7.47e-01	0	27	104	0	76	35377
2026-01-14 05:07:48.21	270.67	4.24	-54.3	-73.7	3.8	7.48e-01	0	27	104	0	76	35385
2026-01-14 05:07:49.22	270.60	4.18	-54.3	-73.7	3.8	7.49e-01	0	27	104	0	76	35420
2026-01-14 05:07:50.23	270.52	4.11	-54.3	-73.7	3.8	7.45e-01	0	27	104	0	76	35400
2026-01-14 05:07:51.23	270.44	4.05	-54.3	-73.7	3.8	7.47e-01	0	27	104	0	76	35427
2026-01-14 05:07:52.25	270.36	3.98	-54.3	-73.7	3.8	7.48e-01	0	28	104	0	76	35297
2026-01-14 05:07:53.25	270.29	3.92	-54.3	-73.7	3.8	7.43e-01	0	27	104	0	76	35295
2026-01-14 05:07:54.26	270.21	3.86	-54.3	-73.7	3.8	7.46e-01	0	28	104	0	76	35359
2026-01-14 05:07:55.26	270.14	3.79	-54.3	-73.7	3.8	7.46e-01	0	27	104	0	76	35297
2026-01-14 05:07:56.27	270.06	3.73	-54.3	-73.7	3.8	7.47e-01	0	27	104	0	76	35296
2026-01-14 05:07:57.28	269.99	3.66	-54.3	-73.7	3.8	7.44e-01	0	27	104	0	76	35287
2026-01-14 05:07:58.29	269.92	3.60	-54.3	-73.6	3.8	7.47e-01	0	27	104	0	76	35250
2026-01-14 05:07:59.30	269.84	3.54	-54.3	-73.7	3.8	7.45e-01	0	28	104	0	76	35319
2026-01-14 05:08:00.31	269.77	3.47	-54.3	-73.6	3.8	7.50e-01	0	27	104	0	76	35231
2026-01-14 05:08:01.32	269.69	3.41	-54.3	-73.7	3.8	7.47e-01	0	28	104	0	76	35351
2026-01-14 05:08:02.33	269.62	3.35	-54.3	-73.7	3.8	7.43e-01	0	27	104	0	76	35303
2026-01-14 05:08:03.34	269.55	3.28	-54.3	-73.7	3.8	7.48e-01	0	27	104	0	76	35320
2026-01-14 05:08:04.35	269.48	3.22	-54.3	-73.7	3.8	7.48e-01	0	28	104	0	76	35362
2026-01-14 05:08:05.35	269.41	3.16	-54.3	-73.7	3.8	7.45e-01	0	27	104	0	76	35317
2026-01-14 05:08:06.36	269.34	3.09	-54.3	-73.7	3.8	7.47e-01	0	27	104	0	76	35338
2026-01-14 05:08:07.37	269.26	3.03	-54.3	-73.7	3.8	7.48e-01	0	27	104	0	76	35325
2026-01-14 05:08:08.38	269.19	2.97	-54.3	-73.7	3.8	7.47e-01	0	27	104	0	76	35294
2026-01-14 05:08:09.39	269.12	2.91	-54.3	-73.6	3.8	7.45e-01	0	27	104	0	76	35040
2026-01-14 05:08:10.40	269.05	2.84	-54.3	-73.7	3.8	7.45e-01	0	27	104	0	76	35396
2026-01-14 05:08:11.41	268.98	2.78	-54.3	-73.6	3.8	7.47e-01	0	27	104	0	76	35281
2026-01-14 05:08:12.42	268.91	2.72	-54.3	-73.7	3.8	7.47e-01	0	27	104	0	76	35389
2026-01-14 05:08:13.43	268.85	2.66	-54.3	-73.6	3.8	7.49e-01	0	27	104	0	76	35085
2026-01-14 05:08:14.44	268.78	2.60	-54.3	-73.6	3.8	7.47e-01	0	27	104	0	76	35106
2026-01-14 05:08:15.45	268.71	2.53	-54.3	-73.6	3.8	7.43e-01	0	27	104	0	76	35140
2026-01-14 05:08:16.46	268.64	2.47	-54.3	-73.6	3.8	7.49e-01	0	28	104	0	76	35224
2026-01-14 05:08:17.47	268.57	2.41	-54.3	-73.7	3.8	7.48e-01	0	27	104	0	76	35405
2026-01-14 05:08:18.47	268.51	2.35	-54.3	-73.6	3.8	7.48e-01	0	27	104	0	76	35206
2026-01-14 05:08:19.49	268.44	2.29	-54.3	-73.6	3.8	7.46e-01	0	28	104	0	76	35240
2026-01-14 05:08:20.49	268.37	2.23	-54.3	-73.6	3.8	7.47e-01	0	27	104	0	76	35272
2026-01-14 05:08:21.50	268.31	2.17	-54.3	-73.6	3.8	7.45e-01	0	28	104	0	76	35243
2026-01-14 05:08:22.51	268.24	2.11	-54.3	-73.7	3.8	7.43e-01	0	27	104	0	76	35402
2026-01-14 05:08:23.52	268.17	2.04	-54.3	-73.7	3.8	7.43e-01	0	28	104	0	76	35392
2026-01-14 05:08:24.53	268.11	1.98	-54.3	-73.7	3.8	7.47e-01	0	27	104	0	76	35429
2026-01-14 05:08:25.54	268.04	1.92	-54.3	-73.7	3.8	7.47e-01	0	27	104	0	76	35410
2026-01-14 05:08:26.55	267.98	1.86	-54.3	-73.7	3.8	7.47e-01	0	27	104	0	76	35361

#Closed at: 2026-01-14 05:08:27
#Recorded file [0 MB]: D:/lorett/data/31004_260114_075654.dat