passes_logs/2026/01/14/R3.2S_Murmansk/R3.2S_Murmansk__20260114_224940_FENGYUN_3D_rec.log

#Pass ID: 20260114_224940_FENGYUN 3D
#Satellite: FENGYUN 3D
#Configuration: FENGYUN 3D
#almurnet v.1.7.20251203
#Start time: 2026-01-14 22:49:40

#Version: 2.2.20231116
#Station: R3.2S_Murmansk
#Location: 33.079688 lon 68.888172 lat
#TLE: 1 43010U 17072A   26014.65117763 -.00000217  00000+0 -80772-4 0  9993
#TLE: 2 43010  98.9933 346.4618 0002330 108.4699 251.6730 14.19694700423204

#Time	Az	El	Level	Level2	SNR	BER	BlckErr	Temp	State	Recorded	gain1	gain2
2026-01-14 22:49:40.24	20.07	2.00	-57.9	-70.9	3.8	8.46e-01	0	26	0	0	82	15691
2026-01-14 22:49:41.24	20.19	2.04	-57.9	-70.9	3.8	8.45e-01	0	26	104	0	80	17567
2026-01-14 22:49:42.24	20.30	2.07	-57.9	-70.9	3.8	8.45e-01	0	26	104	0	80	17581
2026-01-14 22:49:43.24	20.41	2.11	-57.9	-70.9	3.8	8.46e-01	0	26	104	0	80	17626
2026-01-14 22:49:44.25	20.52	2.15	-57.9	-70.9	3.8	8.45e-01	0	27	104	0	80	17605
2026-01-14 22:49:45.25	20.64	2.18	-57.9	-70.9	3.8	8.47e-01	0	26	104	0	80	17606
2026-01-14 22:49:46.25	20.75	2.22	-57.9	-70.9	3.8	8.46e-01	0	26	104	0	81	16688
2026-01-14 22:49:47.25	20.86	2.26	-57.9	-70.9	3.8	8.46e-01	0	26	104	0	81	16638
2026-01-14 22:49:48.24	20.98	2.29	-57.9	-70.9	3.8	8.46e-01	0	26	104	0	81	16665
2026-01-14 22:49:49.24	21.09	2.33	-57.9	-70.9	3.8	8.46e-01	0	27	104	0	81	16598
2026-01-14 22:49:50.25	21.20	2.37	-57.9	-70.9	3.8	8.45e-01	0	27	104	0	81	16597
2026-01-14 22:49:51.25	21.32	2.40	-57.9	-70.9	3.8	8.46e-01	0	27	104	0	81	16637
2026-01-14 22:49:52.25	21.43	2.44	-57.9	-70.9	3.8	8.45e-01	0	27	104	0	81	16630
2026-01-14 22:49:53.26	21.55	2.47	-57.9	-70.9	3.8	8.45e-01	0	27	104	0	81	16616
2026-01-14 22:49:54.26	21.66	2.51	-57.9	-70.9	3.8	8.45e-01	0	27	104	0	81	16631
2026-01-14 22:49:55.26	21.78	2.55	-57.9	-70.9	3.9	8.47e-01	0	27	104	0	81	16638
2026-01-14 22:49:56.27	21.90	2.58	-57.9	-70.9	3.8	8.45e-01	0	27	104	0	81	16661
2026-01-14 22:49:57.27	22.01	2.62	-57.9	-70.9	3.8	8.45e-01	0	27	104	0	81	16612
2026-01-14 22:49:58.28	22.13	2.65	-57.9	-70.9	3.8	8.46e-01	0	27	104	0	81	16600
2026-01-14 22:49:59.27	22.25	2.69	-57.9	-70.8	3.8	8.47e-01	0	27	104	0	81	16460
2026-01-14 22:50:00.28	22.36	2.73	-57.9	-70.8	3.8	8.45e-01	0	27	104	0	81	16492
2026-01-14 22:50:01.28	22.48	2.76	-57.9	-70.8	3.8	8.46e-01	0	27	104	0	81	16388
2026-01-14 22:50:02.28	22.60	2.80	-57.9	-70.8	3.8	8.47e-01	0	27	104	0	81	16399
2026-01-14 22:50:03.28	22.72	2.83	-57.9	-70.8	3.8	8.46e-01	0	27	104	0	81	16368
2026-01-14 22:50:04.28	22.83	2.87	-57.9	-70.8	3.8	8.45e-01	0	27	104	0	81	16334
2026-01-14 22:50:05.28	22.95	2.90	-57.9	-70.8	3.8	8.45e-01	0	27	104	0	81	16342
2026-01-14 22:50:06.28	23.07	2.94	-57.9	-70.8	3.8	8.46e-01	0	27	104	0	81	16362
2026-01-14 22:50:07.28	23.19	2.98	-57.9	-70.9	3.8	8.45e-01	0	27	104	0	81	16507
2026-01-14 22:50:08.27	23.31	3.01	-57.9	-70.8	3.8	8.45e-01	0	27	104	0	81	16358
2026-01-14 22:50:09.27	23.43	3.05	-57.9	-70.7	3.8	8.45e-01	0	27	104	0	81	16227
2026-01-14 22:50:10.27	23.55	3.08	-57.9	-70.7	3.8	8.45e-01	0	27	104	0	81	16300
2026-01-14 22:50:11.27	23.67	3.12	-57.9	-70.6	3.8	8.47e-01	0	27	104	0	81	15945
2026-01-14 22:50:12.27	23.79	3.15	-57.9	-70.7	3.8	8.45e-01	0	27	104	0	81	16188
2026-01-14 22:50:13.28	23.91	3.19	-57.9	-70.4	3.8	8.46e-01	0	27	104	0	81	15754
2026-01-14 22:50:14.28	24.03	3.22	-57.9	-70.5	3.8	8.47e-01	0	27	104	0	81	15871
2026-01-14 22:50:15.28	24.15	3.26	-57.9	-70.7	3.8	8.46e-01	0	27	104	0	81	16253
2026-01-14 22:50:16.29	24.27	3.29	-57.9	-70.7	3.8	8.45e-01	0	27	104	0	81	16232
2026-01-14 22:50:17.29	24.39	3.33	-57.9	-70.7	3.8	8.46e-01	0	27	104	0	81	16267
2026-01-14 22:50:18.29	24.51	3.36	-58.0	-70.8	3.8	8.45e-01	0	27	104	0	81	16437
2026-01-14 22:50:19.29	24.64	3.40	-58.0	-70.8	3.8	8.45e-01	0	27	104	0	81	16461
2026-01-14 22:50:20.29	24.76	3.43	-58.0	-70.8	3.8	8.46e-01	0	27	104	0	81	16416
2026-01-14 22:50:21.29	24.88	3.47	-57.9	-70.8	3.8	8.44e-01	0	27	104	0	81	16448
2026-01-14 22:50:22.29	25.00	3.50	-57.9	-70.9	3.8	8.45e-01	0	27	104	0	81	16603
2026-01-14 22:50:23.29	25.13	3.54	-57.9	-70.8	3.8	8.45e-01	0	27	104	0	81	16475
2026-01-14 22:50:24.29	25.25	3.57	-57.9	-70.7	3.8	8.45e-01	0	27	104	0	81	16303
2026-01-14 22:50:25.29	25.37	3.60	-58.0	-70.8	3.8	8.44e-01	0	27	104	0	81	16435
2026-01-14 22:50:26.30	25.50	3.64	-57.9	-70.9	3.8	8.45e-01	0	27	104	0	81	16596
2026-01-14 22:50:27.30	25.62	3.67	-57.9	-70.9	3.8	8.45e-01	0	27	104	0	81	16565
2026-01-14 22:50:28.30	25.75	3.71	-57.9	-70.9	3.8	8.46e-01	0	27	104	0	81	16523
2026-01-14 22:50:29.30	25.87	3.74	-57.9	-70.7	3.8	8.46e-01	0	27	104	0	81	16278
2026-01-14 22:50:30.30	26.00	3.78	-57.9	-70.7	3.8	8.46e-01	0	27	104	0	81	16142
2026-01-14 22:50:31.31	26.12	3.81	-57.9	-70.7	3.8	8.44e-01	0	27	104	0	81	16308
2026-01-14 22:50:32.30	26.25	3.84	-57.9	-70.8	3.8	8.45e-01	0	27	104	0	81	16326
2026-01-14 22:50:33.30	26.38	3.88	-57.9	-70.5	3.8	8.43e-01	0	27	104	0	81	15911
2026-01-14 22:50:34.30	26.50	3.91	-57.9	-70.4	3.8	8.45e-01	0	27	104	0	81	15691
2026-01-14 22:50:35.30	26.63	3.94	-57.9	-70.6	3.8	8.45e-01	0	27	104	0	81	15995
2026-01-14 22:50:36.31	26.76	3.98	-57.9	-70.6	3.8	8.46e-01	0	27	104	0	81	16117
2026-01-14 22:50:37.31	26.88	4.01	-58.0	-70.8	3.8	8.46e-01	0	27	104	0	81	16450
2026-01-14 22:50:38.32	27.01	4.05	-58.0	-70.8	3.8	8.46e-01	0	27	104	0	81	16500
2026-01-14 22:50:39.32	27.14	4.08	-58.0	-70.9	3.8	8.46e-01	0	28	104	0	81	16638
2026-01-14 22:50:40.32	27.27	4.11	-58.0	-70.9	3.8	8.44e-01	0	28	104	0	81	16660
2026-01-14 22:50:41.32	27.40	4.15	-58.0	-70.9	3.8	8.46e-01	0	27	104	0	81	16517
2026-01-14 22:50:42.32	27.52	4.18	-58.0	-70.8	3.8	8.45e-01	0	28	104	0	81	16442
2026-01-14 22:50:43.31	27.65	4.21	-58.0	-70.9	3.8	8.46e-01	0	27	104	0	81	16542
2026-01-14 22:50:44.31	27.78	4.25	-58.0	-71.0	3.8	8.45e-01	0	28	104	0	81	16695
2026-01-14 22:50:45.31	27.91	4.28	-58.0	-70.9	3.8	8.45e-01	0	28	104	0	81	16540
2026-01-14 22:50:46.31	28.04	4.31	-58.0	-70.9	3.8	8.45e-01	0	28	104	0	81	16595
2026-01-14 22:50:47.31	28.17	4.34	-57.9	-70.8	3.8	8.45e-01	0	28	104	0	81	16496
2026-01-14 22:50:48.32	28.30	4.38	-58.0	-70.8	3.8	8.45e-01	0	28	104	0	81	16434
2026-01-14 22:50:49.31	28.43	4.41	-58.0	-70.8	3.8	8.45e-01	0	28	104	0	81	16501
2026-01-14 22:50:50.31	28.56	4.44	-58.0	-70.9	3.8	8.45e-01	0	28	104	0	81	16581
2026-01-14 22:50:51.31	28.69	4.47	-58.0	-70.8	3.8	8.46e-01	0	28	104	0	81	16374
2026-01-14 22:50:52.31	28.82	4.51	-57.9	-70.4	3.8	8.47e-01	0	27	104	0	81	15750
2026-01-14 22:50:53.32	28.96	4.54	-57.9	-70.1	3.8	8.46e-01	0	28	104	0	81	15129
2026-01-14 22:50:54.32	29.09	4.57	-57.8	-69.3	3.8	8.45e-01	0	28	104	0	81	13759
2026-01-14 22:50:55.32	29.22	4.60	-57.7	-68.4	4.0	8.44e-01	0	28	104	0	81	12462
2026-01-14 22:50:56.32	29.35	4.64	-57.8	-69.3	3.8	8.44e-01	0	28	104	0	81	13741
2026-01-14 22:50:57.32	29.48	4.67	-57.9	-70.1	3.8	8.45e-01	0	28	104	0	81	15101
2026-01-14 22:50:58.33	29.62	4.70	-57.7	-68.2	3.9	8.44e-01	0	28	104	0	81	12220
2026-01-14 22:50:59.33	29.75	4.73	-57.1	-63.9	5.8	6.69e-01	0	28	0	0	80	7899
2026-01-14 22:51:00.33	29.88	4.76	-56.3	-61.4	7.7	1.30e-01	0	28	0	6291456	79	6239
2026-01-14 22:51:01.33	30.02	4.80	-54.6	-58.5	9.9	6.47e-03	0	28	0	11534336	76	5283
2026-01-14 22:51:02.32	30.15	4.83	-54.0	-56.8	11.3	2.00e-04	0	28	0	16777216	74	4894
2026-01-14 22:51:03.32	30.29	4.86	-53.9	-56.7	11.3	6.86e-05	0	28	0	23068672	74	4855
2026-01-14 22:51:04.32	30.42	4.89	-53.9	-56.7	11.4	4.57e-05	0	28	0	28311552	74	4836
2026-01-14 22:51:05.31	30.55	4.92	-53.6	-56.2	11.7	2.63e-05	0	28	0	33554432	73	4853
2026-01-14 22:51:06.30	30.69	4.95	-53.9	-56.8	11.3	2.05e-05	0	28	0	39845888	73	5171
2026-01-14 22:51:07.30	30.82	4.98	-54.4	-57.6	10.6	2.14e-04	0	28	0	45088768	73	5688
2026-01-14 22:51:08.29	30.96	5.01	-54.5	-57.5	10.7	1.18e-03	0	28	0	50331648	74	5337
2026-01-14 22:51:09.29	31.09	5.05	-52.9	-55.0	12.6	5.70e-06	0	28	0	56623104	72	4486
2026-01-14 22:51:10.28	31.23	5.08	-53.5	-56.1	11.8	1.10e-06	0	28	0	61865984	72	5047
2026-01-14 22:51:11.28	31.36	5.11	-56.4	-61.8	7.3	1.25e-01	0	28	0	67108864	78	6941
2026-01-14 22:51:12.27	31.50	5.14	-56.3	-61.6	7.3	2.73e-01	0	28	0	73400320	78	6776
2026-01-14 22:51:13.28	31.64	5.17	-50.5	-52.1	13.9	0.00e+00	0	28	0	78643200	67	4254
2026-01-14 22:51:14.29	31.78	5.20	-50.1	-51.6	14.0	0.00e+00	0	28	0	83886080	66	4266
2026-01-14 22:51:15.29	31.92	5.23	-50.4	-52.0	13.8	0.00e+00	0	28	0	90177536	66	4468
2026-01-14 22:51:16.29	32.05	5.26	-50.1	-51.6	14.0	0.00e+00	0	28	0	95420416	66	4291
2026-01-14 22:51:17.29	32.19	5.29	-49.9	-51.3	14.2	0.00e+00	0	28	0	101711872	66	4140
2026-01-14 22:51:18.29	32.33	5.32	-49.9	-51.4	14.2	0.00e+00	0	28	0	106954752	66	4159
2026-01-14 22:51:19.29	32.47	5.35	-50.0	-51.5	14.1	0.00e+00	0	28	0	112197632	66	4225
2026-01-14 22:51:20.29	32.61	5.38	-49.7	-51.1	14.2	0.00e+00	0	28	0	118489088	65	4283
2026-01-14 22:51:21.30	32.75	5.41	-49.8	-51.3	14.1	0.00e+00	0	28	0	123731968	65	4364
2026-01-14 22:51:22.30	32.89	5.44	-50.1	-51.6	13.9	0.00e+00	0	28	0	130023424	65	4543
2026-01-14 22:51:23.31	33.03	5.47	-50.0	-51.4	14.0	0.00e+00	0	28	0	135266304	65	4437
2026-01-14 22:51:24.31	33.17	5.50	-49.9	-51.4	14.1	0.00e+00	0	28	0	140509184	65	4415
2026-01-14 22:51:25.31	33.31	5.53	-49.9	-51.4	14.1	0.00e+00	0	28	0	146800640	65	4399
2026-01-14 22:51:26.31	33.45	5.56	-49.7	-51.1	14.2	0.00e+00	0	28	0	152043520	65	4278
2026-01-14 22:51:27.31	33.59	5.59	-49.8	-51.2	14.1	0.00e+00	0	28	0	157286400	65	4328
2026-01-14 22:51:28.31	33.73	5.62	-49.8	-51.3	14.1	0.00e+00	0	28	0	163577856	65	4351
2026-01-14 22:51:29.31	33.87	5.64	-49.7	-51.1	14.2	0.00e+00	0	28	0	168820736	65	4282
2026-01-14 22:51:30.31	34.02	5.67	-49.5	-50.9	14.3	0.00e+00	0	28	0	174063616	65	4193
2026-01-14 22:51:31.31	34.16	5.70	-49.7	-51.2	14.2	0.00e+00	0	28	0	180355072	65	4305
2026-01-14 22:51:32.30	34.30	5.73	-49.6	-51.1	14.2	0.00e+00	0	28	0	185597952	65	4249
2026-01-14 22:51:33.30	34.44	5.76	-49.6	-51.0	14.3	0.00e+00	0	28	0	191889408	65	4226
2026-01-14 22:51:34.29	34.58	5.79	-49.7	-51.1	14.2	0.00e+00	0	28	0	197132288	65	4262
2026-01-14 22:51:35.29	34.73	5.81	-49.5	-50.9	14.3	0.00e+00	0	28	0	202375168	65	4180
2026-01-14 22:51:36.30	34.87	5.84	-49.9	-51.4	14.1	0.00e+00	0	28	0	208666624	65	4420
2026-01-14 22:51:37.30	35.01	5.87	-49.7	-51.1	14.2	0.00e+00	0	28	0	213909504	65	4290
2026-01-14 22:51:38.30	35.16	5.90	-49.7	-51.1	14.2	0.00e+00	0	28	0	219152384	65	4277
2026-01-14 22:51:39.30	35.30	5.93	-50.3	-51.8	13.9	0.00e+00	0	28	0	225443840	65	4651
2026-01-14 22:51:40.30	35.45	5.95	-50.1	-51.6	14.0	0.00e+00	0	28	0	230686720	65	4536
2026-01-14 22:51:41.30	35.59	5.98	-49.9	-51.3	14.1	0.00e+00	0	28	0	235929600	65	4379
2026-01-14 22:51:42.29	35.73	6.01	-50.2	-51.8	13.9	0.00e+00	0	28	0	242221056	65	4607
2026-01-14 22:51:43.29	35.88	6.04	-50.2	-51.7	13.9	0.00e+00	0	28	0	247463936	65	4568
2026-01-14 22:51:44.30	36.03	6.06	-50.1	-51.6	14.0	0.00e+00	0	28	0	253755392	65	4506
2026-01-14 22:51:45.30	36.17	6.09	-50.4	-52.0	13.8	0.00e+00	0	28	0	258998272	65	4714
2026-01-14 22:51:46.30	36.32	6.12	-50.5	-52.1	13.9	0.00e+00	0	28	0	264241152	66	4508
2026-01-14 22:51:47.29	36.46	6.14	-50.4	-52.0	13.9	0.00e+00	0	28	0	270532608	66	4458
2026-01-14 22:51:48.30	36.61	6.17	-50.1	-51.5	14.1	0.00e+00	0	28	0	275775488	66	4241
2026-01-14 22:51:49.30	36.76	6.20	-49.4	-50.8	14.4	0.00e+00	0	28	0	281018368	65	4103
2026-01-14 22:51:50.30	36.91	6.22	-49.5	-51.0	14.3	0.00e+00	0	28	0	287309824	65	4208
2026-01-14 22:51:51.29	37.05	6.25	-49.8	-51.3	14.2	0.00e+00	0	28	0	292552704	65	4364
2026-01-14 22:51:52.29	37.20	6.28	-49.6	-51.1	14.2	0.00e+00	0	28	0	297795584	65	4261
2026-01-14 22:51:53.29	37.35	6.30	-49.6	-51.1	14.3	0.00e+00	0	28	0	304087040	65	4249
2026-01-14 22:51:54.28	37.49	6.33	-49.8	-51.3	14.2	0.00e+00	0	28	0	309329920	65	4344
2026-01-14 22:51:55.28	37.64	6.35	-49.7	-51.2	14.2	0.00e+00	0	28	0	314572800	65	4292
2026-01-14 22:51:56.28	37.79	6.38	-49.6	-51.1	14.3	0.00e+00	0	28	0	320864256	65	4252
2026-01-14 22:51:57.29	37.94	6.40	-49.7	-51.1	14.2	0.00e+00	0	28	0	326107136	65	4283
2026-01-14 22:51:58.29	38.09	6.43	-49.7	-51.1	14.2	0.00e+00	0	28	0	332398592	65	4286
2026-01-14 22:51:59.29	38.24	6.45	-49.7	-51.1	14.3	0.00e+00	0	28	0	337641472	65	4262
2026-01-14 22:52:00.29	38.39	6.48	-49.5	-50.9	14.4	0.00e+00	0	28	0	342884352	65	4179
2026-01-14 22:52:01.28	38.54	6.50	-49.5	-50.9	14.4	0.00e+00	0	28	0	348127232	65	4161
2026-01-14 22:52:02.28	38.69	6.53	-49.5	-50.9	14.4	0.00e+00	0	28	0	354418688	65	4157
2026-01-14 22:52:03.28	38.84	6.55	-49.6	-51.0	14.3	0.00e+00	0	28	0	359661568	65	4210
2026-01-14 22:52:04.27	38.99	6.58	-49.6	-51.0	14.3	0.00e+00	0	28	0	365953024	65	4206
2026-01-14 22:52:05.28	39.14	6.60	-49.6	-51.0	14.3	0.00e+00	0	28	0	371195904	65	4226
2026-01-14 22:52:06.27	39.29	6.63	-49.6	-51.0	14.3	0.00e+00	0	28	0	376438784	65	4216
2026-01-14 22:52:07.27	39.44	6.65	-49.5	-51.0	14.3	0.00e+00	0	28	0	382730240	65	4195
2026-01-14 22:52:08.27	39.59	6.67	-49.5	-51.0	14.3	0.00e+00	0	28	0	387973120	65	4195
2026-01-14 22:52:09.28	39.74	6.70	-49.7	-51.1	14.3	0.00e+00	0	28	0	393216000	65	4278
2026-01-14 22:52:10.27	39.89	6.72	-49.7	-51.1	14.3	0.00e+00	0	28	0	399507456	65	4277
2026-01-14 22:52:11.28	40.05	6.75	-49.6	-51.0	14.3	0.00e+00	0	28	0	404750336	65	4221
2026-01-14 22:52:12.27	40.20	6.77	-49.6	-51.0	14.3	0.00e+00	0	28	0	409993216	65	4200
2026-01-14 22:52:13.27	40.35	6.79	-49.6	-51.0	14.3	0.00e+00	0	28	0	416284672	65	4231
2026-01-14 22:52:14.26	40.50	6.81	-49.5	-50.9	14.4	0.00e+00	0	28	0	421527552	65	4150
2026-01-14 22:52:15.27	40.66	6.84	-49.4	-50.8	14.4	0.00e+00	0	28	0	427819008	65	4104
2026-01-14 22:52:16.26	40.81	6.86	-49.4	-50.7	14.4	0.00e+00	0	28	0	433061888	65	4088
2026-01-14 22:52:17.25	40.96	6.88	-49.4	-50.8	14.4	0.00e+00	0	28	0	438304768	65	4127
2026-01-14 22:52:18.25	41.12	6.90	-49.5	-50.9	14.4	0.00e+00	0	28	0	444596224	65	4178
2026-01-14 22:52:19.25	41.27	6.93	-49.7	-51.2	14.3	0.00e+00	0	28	0	449839104	65	4296
2026-01-14 22:52:20.25	41.42	6.95	-49.7	-51.2	14.2	0.00e+00	0	28	0	455081984	65	4295
2026-01-14 22:52:21.25	41.58	6.97	-49.7	-51.1	14.3	0.00e+00	0	28	0	461373440	65	4287
2026-01-14 22:52:22.26	41.73	6.99	-49.6	-51.1	14.3	0.00e+00	0	28	0	466616320	65	4245
2026-01-14 22:52:23.25	41.89	7.01	-49.5	-50.9	14.4	0.00e+00	0	28	0	472907776	65	4180
2026-01-14 22:52:24.25	42.04	7.04	-49.6	-51.0	14.3	0.00e+00	0	28	0	478150656	65	4239
2026-01-14 22:52:25.25	42.20	7.06	-49.7	-51.2	14.3	0.00e+00	0	28	0	483393536	65	4293
2026-01-14 22:52:26.25	42.35	7.08	-49.7	-51.1	14.3	0.00e+00	0	28	0	489684992	65	4285
2026-01-14 22:52:27.25	42.51	7.10	-49.6	-51.0	14.3	0.00e+00	0	28	0	494927872	65	4224
2026-01-14 22:52:28.24	42.67	7.12	-49.4	-50.8	14.4	0.00e+00	0	28	0	500170752	65	4141
2026-01-14 22:52:29.25	42.82	7.14	-49.2	-50.6	14.5	0.00e+00	0	28	0	506462208	65	4023
2026-01-14 22:52:30.25	42.98	7.16	-49.1	-50.4	14.5	0.00e+00	0	28	0	511705088	64	4170
2026-01-14 22:52:31.25	43.14	7.18	-49.1	-50.4	14.5	0.00e+00	0	28	0	516947968	64	4189
2026-01-14 22:52:32.25	43.29	7.20	-49.2	-50.5	14.4	0.00e+00	0	28	0	523239424	64	4237
2026-01-14 22:52:33.24	43.45	7.22	-49.4	-50.7	14.3	0.00e+00	0	28	0	528482304	64	4327
2026-01-14 22:52:34.24	43.61	7.24	-49.3	-50.7	14.4	0.00e+00	0	28	0	534773760	64	4293
2026-01-14 22:52:35.24	43.76	7.26	-49.3	-50.7	14.4	0.00e+00	0	28	0	540016640	64	4306
2026-01-14 22:52:36.25	43.92	7.28	-49.3	-50.6	14.4	0.00e+00	0	28	0	545259520	64	4286
2026-01-14 22:52:37.25	44.08	7.30	-49.2	-50.6	14.4	0.00e+00	0	28	0	551550976	64	4245
2026-01-14 22:52:38.24	44.24	7.32	-49.3	-50.6	14.4	0.00e+00	0	28	0	556793856	64	4290
2026-01-14 22:52:39.24	44.40	7.34	-49.2	-50.6	14.4	0.00e+00	0	28	0	562036736	64	4279
2026-01-14 22:52:40.23	44.55	7.36	-49.2	-50.5	14.4	0.00e+00	0	28	0	567279616	64	4228
2026-01-14 22:52:41.23	44.71	7.38	-49.2	-50.6	14.4	0.00e+00	0	28	0	573571072	64	4277
2026-01-14 22:52:42.22	44.87	7.39	-49.2	-50.5	14.4	0.00e+00	0	28	0	578813952	64	4234
2026-01-14 22:52:43.22	45.03	7.41	-49.0	-50.4	14.5	0.00e+00	0	28	0	585105408	64	4146
2026-01-14 22:52:44.22	45.19	7.43	-49.1	-50.4	14.5	0.00e+00	0	28	0	590348288	64	4190
2026-01-14 22:52:45.21	45.35	7.45	-49.1	-50.5	14.5	0.00e+00	0	28	0	595591168	64	4202
2026-01-14 22:52:46.21	45.51	7.47	-49.1	-50.5	14.5	0.00e+00	0	28	0	601882624	64	4208
2026-01-14 22:52:47.21	45.67	7.48	-49.2	-50.5	14.5	0.00e+00	0	28	0	607125504	64	4214
2026-01-14 22:52:48.21	45.83	7.50	-49.1	-50.4	14.5	0.00e+00	0	28	0	612368384	64	4192
2026-01-14 22:52:49.21	45.99	7.52	-49.1	-50.4	14.5	0.00e+00	0	28	0	618659840	64	4190
2026-01-14 22:52:50.21	46.15	7.54	-49.0	-50.3	14.5	0.00e+00	0	28	0	623902720	64	4141
2026-01-14 22:52:51.20	46.31	7.55	-49.0	-50.3	14.5	0.00e+00	0	28	0	629145600	64	4143
2026-01-14 22:52:52.20	46.47	7.57	-49.1	-50.4	14.5	0.00e+00	0	28	0	635437056	64	4172
2026-01-14 22:52:53.20	46.63	7.59	-49.1	-50.5	14.5	0.00e+00	0	28	0	640679936	64	4208
2026-01-14 22:52:54.20	46.79	7.60	-49.1	-50.5	14.5	0.00e+00	0	28	0	646971392	64	4202
2026-01-14 22:52:55.20	46.95	7.62	-49.3	-50.7	14.4	0.00e+00	0	28	0	652214272	64	4293
2026-01-14 22:52:56.21	47.11	7.64	-49.2	-50.6	14.4	0.00e+00	0	28	0	657457152	64	4282
2026-01-14 22:52:57.21	47.28	7.65	-49.4	-50.8	14.3	0.00e+00	0	28	0	663748608	64	4381
2026-01-14 22:52:58.21	47.44	7.67	-49.6	-51.1	14.2	0.00e+00	0	28	0	668991488	64	4507
2026-01-14 22:52:59.21	47.60	7.68	-49.6	-51.0	14.2	0.00e+00	0	28	0	674234368	64	4471
2026-01-14 22:53:00.21	47.76	7.70	-49.5	-50.9	14.3	0.00e+00	0	28	0	680525824	64	4428
2026-01-14 22:53:01.21	47.92	7.71	-49.3	-50.7	14.3	0.00e+00	0	28	0	685768704	64	4331
2026-01-14 22:53:02.21	48.09	7.73	-49.4	-50.8	14.3	0.00e+00	0	28	0	691011584	64	4369
2026-01-14 22:53:03.21	48.25	7.74	-49.2	-50.6	14.4	0.00e+00	0	28	0	697303040	64	4253
2026-01-14 22:53:04.21	48.41	7.76	-49.1	-50.5	14.5	0.00e+00	0	28	0	702545920	64	4198
2026-01-14 22:53:05.21	48.58	7.77	-49.1	-50.5	14.5	0.00e+00	0	28	0	708837376	64	4212
2026-01-14 22:53:06.21	48.74	7.79	-49.1	-50.4	14.5	0.00e+00	0	28	0	714080256	64	4181
2026-01-14 22:53:07.21	48.90	7.80	-49.2	-50.5	14.4	0.00e+00	0	28	0	719323136	64	4218
2026-01-14 22:53:08.21	49.07	7.81	-49.0	-50.3	14.5	0.00e+00	0	28	0	725614592	64	4132
2026-01-14 22:53:09.21	49.23	7.83	-49.0	-50.3	14.5	0.00e+00	0	28	0	730857472	64	4143
2026-01-14 22:53:10.21	49.39	7.84	-49.2	-50.5	14.4	0.00e+00	0	28	0	736100352	64	4226
2026-01-14 22:53:11.20	49.56	7.85	-49.2	-50.6	14.4	0.00e+00	0	28	0	742391808	64	4260
2026-01-14 22:53:12.19	49.72	7.87	-49.1	-50.5	14.5	0.00e+00	0	28	0	747634688	64	4204
2026-01-14 22:53:13.18	49.88	7.88	-49.1	-50.4	14.5	0.00e+00	0	28	0	752877568	64	4179
2026-01-14 22:53:14.17	50.04	7.89	-49.1	-50.4	14.5	0.00e+00	0	28	0	759169024	64	4181
2026-01-14 22:53:15.18	50.21	7.90	-49.2	-50.6	14.4	0.00e+00	0	28	0	764411904	64	4243
2026-01-14 22:53:16.18	50.38	7.92	-49.2	-50.6	14.4	0.00e+00	0	28	0	769654784	64	4255
2026-01-14 22:53:17.19	50.54	7.93	-49.4	-50.7	14.3	0.00e+00	0	28	0	775946240	64	4336
2026-01-14 22:53:18.19	50.71	7.94	-49.2	-50.6	14.4	0.00e+00	0	28	0	781189120	64	4270
2026-01-14 22:53:19.19	50.87	7.95	-49.2	-50.6	14.4	0.00e+00	0	28	0	786432000	64	4270
2026-01-14 22:53:20.18	51.04	7.96	-49.2	-50.5	14.4	0.00e+00	0	28	0	792723456	64	4233
2026-01-14 22:53:21.18	51.20	7.97	-49.1	-50.5	14.5	0.00e+00	0	28	0	797966336	64	4204
2026-01-14 22:53:22.17	51.36	7.99	-49.1	-50.4	14.5	0.00e+00	0	28	0	803209216	64	4181
2026-01-14 22:53:23.16	51.53	8.00	-49.1	-50.4	14.5	0.00e+00	0	28	0	809500672	64	4176
2026-01-14 22:53:24.15	51.69	8.01	-49.0	-50.3	14.5	0.00e+00	0	28	0	814743552	64	4132
2026-01-14 22:53:25.15	51.86	8.02	-49.0	-50.4	14.5	0.00e+00	0	28	0	821035008	64	4156
2026-01-14 22:53:26.14	52.02	8.03	-49.1	-50.4	14.5	0.00e+00	0	28	0	826277888	64	4190
2026-01-14 22:53:27.15	52.19	8.04	-49.0	-50.3	14.5	0.00e+00	0	28	0	831520768	64	4142
2026-01-14 22:53:28.15	52.36	8.05	-49.1	-50.4	14.5	0.00e+00	0	28	0	837812224	64	4184
2026-01-14 22:53:29.15	52.52	8.06	-49.1	-50.5	14.5	0.00e+00	0	28	0	843055104	64	4216
2026-01-14 22:53:30.15	52.69	8.07	-49.1	-50.4	14.5	0.00e+00	0	28	0	848297984	64	4185
2026-01-14 22:53:31.16	52.86	8.08	-49.0	-50.4	14.5	0.00e+00	0	28	0	854589440	64	4151
2026-01-14 22:53:32.16	53.02	8.09	-48.9	-50.2	14.6	0.00e+00	0	28	0	859832320	64	4074
2026-01-14 22:53:33.16	53.19	8.09	-49.0	-50.3	14.6	0.00e+00	0	28	0	865075200	64	4120
2026-01-14 22:53:34.15	53.36	8.10	-49.1	-50.5	14.5	0.00e+00	0	28	0	871366656	64	4195
2026-01-14 22:53:35.16	53.53	8.11	-49.0	-50.3	14.5	0.00e+00	0	28	0	876609536	64	4127
2026-01-14 22:53:36.16	53.69	8.12	-49.1	-50.4	14.5	0.00e+00	0	28	0	882900992	64	4168
2026-01-14 22:53:37.15	53.86	8.13	-49.1	-50.5	14.5	0.00e+00	0	28	0	888143872	64	4212
2026-01-14 22:53:38.15	54.02	8.14	-49.1	-50.4	14.5	0.00e+00	0	28	0	893386752	64	4184
2026-01-14 22:53:39.16	54.19	8.14	-49.0	-50.4	14.5	0.00e+00	0	28	0	899678208	64	4159
2026-01-14 22:53:40.17	54.36	8.15	-49.1	-50.4	14.5	0.00e+00	0	28	0	904921088	64	4175
2026-01-14 22:53:41.17	54.53	8.16	-49.1	-50.5	14.5	0.00e+00	0	28	0	910163968	64	4211
2026-01-14 22:53:42.17	54.70	8.17	-49.2	-50.6	14.4	0.00e+00	0	28	0	916455424	64	4245
2026-01-14 22:53:43.18	54.87	8.17	-49.2	-50.6	14.4	0.00e+00	0	28	0	921698304	64	4271
2026-01-14 22:53:44.18	55.03	8.18	-49.4	-50.7	14.4	0.00e+00	0	28	0	926941184	64	4335
2026-01-14 22:53:45.18	55.20	8.19	-49.3	-50.7	14.4	0.00e+00	0	28	0	933232640	64	4312
2026-01-14 22:53:46.19	55.37	8.19	-49.4	-50.8	14.3	0.00e+00	0	28	0	938475520	64	4341
2026-01-14 22:53:47.19	55.54	8.20	-49.4	-50.8	14.3	0.00e+00	0	28	0	944766976	64	4368
2026-01-14 22:53:48.20	55.71	8.20	-49.3	-50.7	14.4	0.00e+00	0	28	0	950009856	64	4332
2026-01-14 22:53:49.19	55.88	8.21	-49.2	-50.6	14.4	0.00e+00	0	28	0	956301312	64	4263
2026-01-14 22:53:50.19	56.04	8.21	-49.2	-50.5	14.5	0.00e+00	0	28	0	961544192	64	4220
2026-01-14 22:53:51.18	56.21	8.22	-49.0	-50.4	14.5	0.00e+00	0	28	0	966787072	64	4156
2026-01-14 22:53:52.17	56.38	8.22	-49.1	-50.4	14.5	0.00e+00	0	28	0	972029952	64	4178
2026-01-14 22:53:53.17	56.55	8.23	-49.0	-50.3	14.5	0.00e+00	0	28	0	978321408	64	4136
2026-01-14 22:53:54.17	56.71	8.23	-49.0	-50.3	14.6	0.00e+00	0	28	0	983564288	64	4120
2026-01-14 22:53:55.16	56.88	8.24	-48.9	-50.2	14.6	0.00e+00	0	28	0	988807168	64	4079
2026-01-14 22:53:56.16	57.05	8.24	-49.1	-50.4	14.5	0.00e+00	0	28	0	995098624	64	4172
2026-01-14 22:53:57.16	57.22	8.25	-49.0	-50.4	14.5	0.00e+00	0	28	0	1000341504	64	4146
2026-01-14 22:53:58.16	57.39	8.25	-49.1	-50.4	14.5	0.00e+00	0	28	0	1006632960	64	4164
2026-01-14 22:53:59.16	57.55	8.25	-49.1	-50.5	14.5	0.00e+00	0	28	0	1011875840	64	4208
2026-01-14 22:54:00.16	57.72	8.26	-49.0	-50.4	14.5	0.00e+00	0	28	0	1017118720	64	4163
2026-01-14 22:54:01.15	57.89	8.26	-49.0	-50.3	14.6	0.00e+00	0	28	0	1023410176	64	4111
2026-01-14 22:54:02.15	58.06	8.26	-48.9	-50.3	14.6	0.00e+00	0	28	0	1028653056	64	4100
2026-01-14 22:54:03.15	58.23	8.27	-48.9	-50.3	14.6	0.00e+00	0	28	0	1033895936	64	4105
2026-01-14 22:54:04.15	58.40	8.27	-49.1	-50.4	14.5	0.00e+00	0	28	0	1040187392	64	4178
2026-01-14 22:54:05.14	58.56	8.27	-49.0	-50.4	14.5	0.00e+00	0	28	0	1045430272	64	4159
2026-01-14 22:54:06.14	58.73	8.27	-49.0	-50.3	14.5	0.00e+00	0	28	0	1051721728	64	4145
2026-01-14 22:54:07.14	58.90	8.27	-49.0	-50.3	14.5	0.00e+00	0	28	0	1056964608	64	4114
2026-01-14 22:54:08.14	59.07	8.28	-49.1	-50.5	14.5	0.00e+00	0	28	0	1062207488	64	4205
2026-01-14 22:54:09.13	59.24	8.28	-49.1	-50.4	14.5	0.00e+00	0	28	0	1067450368	64	4187
2026-01-14 22:54:10.13	59.41	8.28	-48.9	-50.3	14.6	0.00e+00	0	28	0	1073741824	64	4099
2026-01-14 22:54:11.13	59.58	8.28	-49.1	-50.5	14.5	0.00e+00	0	28	0	1078984704	64	4211
2026-01-14 22:54:12.13	59.74	8.28	-49.1	-50.5	14.5	0.00e+00	0	28	0	1084227584	64	4199
2026-01-14 22:54:13.13	59.91	8.28	-49.2	-50.5	14.5	0.00e+00	0	28	0	1090519040	64	4233
2026-01-14 22:54:14.13	60.08	8.28	-49.3	-50.7	14.4	0.00e+00	0	28	0	1095761920	64	4326
2026-01-14 22:54:15.13	60.25	8.28	-49.3	-50.7	14.4	0.00e+00	0	28	0	1102053376	64	4337
2026-01-14 22:54:16.13	60.42	8.28	-49.3	-50.7	14.4	0.00e+00	0	28	0	1107296256	64	4301
2026-01-14 22:54:17.13	60.59	8.28	-49.3	-50.6	14.4	0.00e+00	0	28	0	1112539136	64	4291
2026-01-14 22:54:18.13	60.76	8.28	-49.4	-50.7	14.4	0.00e+00	0	28	0	1118830592	64	4337
2026-01-14 22:54:19.14	60.93	8.28	-49.2	-50.6	14.4	0.00e+00	0	28	0	1124073472	64	4248
2026-01-14 22:54:20.14	61.10	8.28	-49.2	-50.5	14.5	0.00e+00	0	28	0	1130364928	64	4223
2026-01-14 22:54:21.14	61.27	8.28	-49.1	-50.5	14.5	0.00e+00	0	28	0	1135607808	64	4196
2026-01-14 22:54:22.15	61.44	8.27	-49.0	-50.3	14.5	0.00e+00	0	28	0	1140850688	64	4124
2026-01-14 22:54:23.15	61.61	8.27	-49.0	-50.3	14.5	0.00e+00	0	28	0	1147142144	64	4141
2026-01-14 22:54:24.16	61.78	8.27	-49.2	-50.5	14.4	0.00e+00	0	28	0	1152385024	64	4235
2026-01-14 22:54:25.15	61.94	8.27	-49.0	-50.3	14.5	0.00e+00	0	28	0	1157627904	64	4141
2026-01-14 22:54:26.16	62.11	8.27	-49.2	-50.5	14.4	0.00e+00	0	28	0	1163919360	64	4222
2026-01-14 22:54:27.15	62.28	8.26	-49.1	-50.5	14.5	0.00e+00	0	28	0	1169162240	64	4195
2026-01-14 22:54:28.15	62.45	8.26	-49.1	-50.5	14.5	0.00e+00	0	28	0	1175453696	64	4216
2026-01-14 22:54:29.14	62.62	8.26	-49.3	-50.6	14.4	0.00e+00	0	28	0	1180696576	64	4278
2026-01-14 22:54:30.14	62.79	8.26	-49.1	-50.5	14.5	0.00e+00	0	28	0	1185939456	64	4198
2026-01-14 22:54:31.14	62.95	8.25	-49.0	-50.3	14.5	0.00e+00	0	28	0	1192230912	64	4126
2026-01-14 22:54:32.14	63.12	8.25	-49.0	-50.4	14.5	0.00e+00	0	28	0	1197473792	64	4148
2026-01-14 22:54:33.15	63.29	8.25	-49.0	-50.4	14.5	0.00e+00	0	28	0	1202716672	64	4149
2026-01-14 22:54:34.14	63.46	8.24	-49.1	-50.4	14.5	0.00e+00	0	28	0	1209008128	64	4188
2026-01-14 22:54:35.14	63.63	8.24	-49.1	-50.5	14.5	0.00e+00	0	28	0	1214251008	64	4195
2026-01-14 22:54:36.15	63.80	8.23	-49.2	-50.5	14.4	0.00e+00	0	28	0	1219493888	64	4238
2026-01-14 22:54:37.15	63.97	8.23	-49.2	-50.6	14.4	0.00e+00	0	28	0	1225785344	64	4248
2026-01-14 22:54:38.16	64.14	8.22	-49.2	-50.5	14.5	0.00e+00	0	28	0	1231028224	64	4222
2026-01-14 22:54:39.15	64.30	8.22	-49.3	-50.6	14.4	0.00e+00	0	28	0	1237319680	64	4285
2026-01-14 22:54:40.15	64.47	8.21	-49.2	-50.6	14.4	0.00e+00	0	28	0	1242562560	64	4262
2026-01-14 22:54:41.15	64.64	8.21	-49.1	-50.5	14.5	0.00e+00	0	28	0	1247805440	64	4221
2026-01-14 22:54:42.15	64.81	8.20	-49.2	-50.5	14.5	0.00e+00	0	28	0	1254096896	64	4236
2026-01-14 22:54:43.15	64.98	8.20	-49.2	-50.5	14.5	0.00e+00	0	28	0	1259339776	64	4234
2026-01-14 22:54:44.16	65.15	8.19	-49.2	-50.6	14.5	0.00e+00	0	28	0	1264582656	64	4260
2026-01-14 22:54:45.16	65.31	8.18	-49.2	-50.6	14.4	0.00e+00	0	28	0	1270874112	64	4275
2026-01-14 22:54:46.17	65.48	8.18	-49.4	-50.7	14.4	0.00e+00	0	28	0	1276116992	64	4334
2026-01-14 22:54:47.17	65.65	8.17	-49.2	-50.6	14.4	0.00e+00	0	28	0	1281359872	64	4267
2026-01-14 22:54:48.17	65.82	8.16	-49.1	-50.5	14.5	0.00e+00	0	28	0	1287651328	64	4223
2026-01-14 22:54:49.17	65.99	8.16	-49.2	-50.5	14.5	0.00e+00	0	28	0	1292894208	64	4232
2026-01-14 22:54:50.17	66.15	8.15	-49.2	-50.5	14.5	0.00e+00	0	28	0	1299185664	64	4221
2026-01-14 22:54:51.18	66.32	8.14	-49.3	-50.6	14.4	0.00e+00	0	28	0	1304428544	64	4282
2026-01-14 22:54:52.17	66.49	8.13	-49.2	-50.6	14.4	0.00e+00	0	28	0	1309671424	64	4267
2026-01-14 22:54:53.17	66.66	8.13	-49.2	-50.5	14.4	0.00e+00	0	28	0	1315962880	64	4241
2026-01-14 22:54:54.17	66.82	8.12	-49.2	-50.6	14.4	0.00e+00	0	28	0	1321205760	64	4267
2026-01-14 22:54:55.17	66.99	8.11	-49.1	-50.5	14.4	0.00e+00	0	28	0	1326448640	64	4205
2026-01-14 22:54:56.16	67.16	8.10	-49.1	-50.5	14.5	0.00e+00	0	28	0	1332740096	64	4198
2026-01-14 22:54:57.16	67.32	8.09	-49.0	-50.4	14.5	0.00e+00	0	28	0	1337982976	64	4154
2026-01-14 22:54:58.15	67.49	8.08	-49.0	-50.3	14.5	0.00e+00	0	28	0	1343225856	64	4123
2026-01-14 22:54:59.15	67.66	8.08	-48.9	-50.2	14.6	0.00e+00	0	28	0	1349517312	64	4079
2026-01-14 22:55:00.15	67.82	8.07	-48.9	-50.2	14.6	0.00e+00	0	28	0	1354760192	64	4072
2026-01-14 22:55:01.15	67.99	8.06	-48.9	-50.3	14.6	0.00e+00	0	28	0	1361051648	64	4111
2026-01-14 22:55:02.14	68.15	8.05	-49.1	-50.4	14.5	0.00e+00	0	28	0	1366294528	64	4172
2026-01-14 22:55:03.15	68.32	8.04	-49.1	-50.5	14.5	0.00e+00	0	28	0	1371537408	64	4215
2026-01-14 22:55:04.14	68.49	8.03	-49.2	-50.6	14.4	0.00e+00	0	28	0	1377828864	64	4276
2026-01-14 22:55:05.15	68.66	8.02	-49.3	-50.6	14.4	0.00e+00	0	28	0	1383071744	64	4281
2026-01-14 22:55:06.15	68.82	8.01	-49.2	-50.6	14.4	0.00e+00	0	28	0	1388314624	64	4246
2026-01-14 22:55:07.16	68.99	7.99	-49.2	-50.6	14.4	0.00e+00	0	28	0	1394606080	64	4270
2026-01-14 22:55:08.16	69.15	7.98	-49.2	-50.6	14.4	0.00e+00	0	28	0	1399848960	64	4270
2026-01-14 22:55:09.15	69.32	7.97	-49.3	-50.6	14.4	0.00e+00	0	28	0	1405091840	64	4281
2026-01-14 22:55:10.14	69.48	7.96	-49.0	-50.4	14.5	0.00e+00	0	28	0	1411383296	64	4156
2026-01-14 22:55:11.14	69.65	7.95	-49.0	-50.3	14.6	0.00e+00	0	28	0	1416626176	64	4110
2026-01-14 22:55:12.13	69.81	7.94	-49.1	-50.4	14.5	0.00e+00	0	28	0	1421869056	64	4179
2026-01-14 22:55:13.13	69.98	7.93	-49.0	-50.4	14.5	0.00e+00	0	29	0	1428160512	64	4150
2026-01-14 22:55:14.13	70.14	7.91	-49.0	-50.4	14.5	0.00e+00	0	28	0	1433403392	64	4158
2026-01-14 22:55:15.13	70.31	7.90	-49.2	-50.5	14.4	0.00e+00	0	28	0	1438646272	64	4227
2026-01-14 22:55:16.13	70.47	7.89	-49.3	-50.6	14.4	0.00e+00	0	28	0	1444937728	64	4289
2026-01-14 22:55:17.12	70.63	7.88	-49.4	-50.8	14.3	0.00e+00	0	28	0	1450180608	64	4389
2026-01-14 22:55:18.06	70.79	7.86	-49.4	-50.8	14.3	0.00e+00	0	28	0	1455423488	64	4390
2026-01-14 22:55:19.05	70.95	7.85	-49.2	-50.6	14.4	0.00e+00	0	28	0	1461714944	64	4263
2026-01-14 22:55:20.05	71.12	7.84	-49.2	-50.6	14.4	0.00e+00	0	28	0	1466957824	64	4254
2026-01-14 22:55:21.05	71.28	7.83	-49.2	-50.5	14.4	0.00e+00	0	28	0	1473249280	64	4225
2026-01-14 22:55:22.05	71.44	7.81	-49.1	-50.5	14.5	0.00e+00	0	28	0	1478492160	64	4203
2026-01-14 22:55:23.05	71.61	7.80	-49.0	-50.4	14.5	0.00e+00	0	28	0	1483735040	64	4157
2026-01-14 22:55:24.05	71.77	7.78	-49.1	-50.5	14.5	0.00e+00	0	28	0	1490026496	64	4208
2026-01-14 22:55:25.05	71.94	7.77	-49.1	-50.5	14.5	0.00e+00	0	28	0	1495269376	64	4212
2026-01-14 22:55:26.05	72.10	7.75	-49.3	-50.7	14.4	0.00e+00	0	28	0	1500512256	64	4297
2026-01-14 22:55:27.05	72.26	7.74	-49.2	-50.5	14.4	0.00e+00	0	28	0	1506803712	64	4239
2026-01-14 22:55:28.05	72.43	7.73	-49.2	-50.5	14.4	0.00e+00	0	28	0	1512046592	64	4233
2026-01-14 22:55:29.05	72.59	7.71	-49.1	-50.5	14.5	0.00e+00	0	28	0	1517289472	64	4202
2026-01-14 22:55:30.06	72.75	7.69	-49.2	-50.6	14.4	0.00e+00	0	28	0	1523580928	64	4249
2026-01-14 22:55:31.06	72.92	7.68	-49.1	-50.6	14.4	0.00e+00	0	28	0	1528823808	64	4257
2026-01-14 22:55:32.06	73.08	7.66	-49.2	-50.7	14.3	0.00e+00	0	28	0	1535115264	64	4313
2026-01-14 22:55:33.06	73.24	7.65	-49.1	-50.6	14.4	0.00e+00	0	28	0	1540358144	64	4255
2026-01-14 22:55:34.06	73.40	7.63	-49.1	-50.6	14.4	0.00e+00	0	29	0	1545601024	64	4266
2026-01-14 22:55:35.06	73.56	7.62	-49.2	-50.7	14.3	0.00e+00	0	28	0	1551892480	64	4311
2026-01-14 22:55:36.05	73.72	7.60	-49.1	-50.7	14.3	0.00e+00	0	28	0	1557135360	64	4296
2026-01-14 22:55:37.05	73.89	7.58	-49.3	-50.8	14.3	0.00e+00	0	28	0	1562378240	64	4360
2026-01-14 22:55:38.06	74.05	7.57	-49.3	-50.8	14.3	0.00e+00	0	28	0	1568669696	64	4364
2026-01-14 22:55:39.05	74.21	7.55	-49.2	-50.7	14.3	0.00e+00	0	28	0	1573912576	64	4321
2026-01-14 22:55:40.05	74.37	7.53	-49.1	-50.6	14.3	0.00e+00	0	28	0	1579155456	64	4280
2026-01-14 22:55:41.05	74.53	7.52	-49.1	-50.6	14.3	0.00e+00	0	28	0	1585446912	64	4287
2026-01-14 22:55:42.05	74.69	7.50	-49.1	-50.6	14.3	0.00e+00	0	28	0	1590689792	64	4270
2026-01-14 22:55:43.06	74.85	7.48	-49.1	-50.6	14.3	0.00e+00	0	28	0	1596981248	64	4283
2026-01-14 22:55:44.06	75.01	7.46	-49.2	-50.7	14.3	0.00e+00	0	28	0	1602224128	64	4332
2026-01-14 22:55:45.07	75.18	7.44	-49.3	-50.8	14.3	0.00e+00	0	28	0	1607467008	64	4355
2026-01-14 22:55:46.07	75.34	7.43	-49.1	-50.6	14.3	0.00e+00	0	29	0	1613758464	64	4254
2026-01-14 22:55:47.07	75.50	7.41	-49.1	-50.6	14.3	0.00e+00	0	28	0	1619001344	64	4259
2026-01-14 22:55:48.07	75.65	7.39	-49.2	-50.7	14.3	0.00e+00	0	28	0	1624244224	64	4323
2026-01-14 22:55:49.07	75.81	7.37	-49.2	-50.7	14.3	0.00e+00	0	28	0	1630535680	64	4333
2026-01-14 22:55:50.07	75.97	7.35	-49.4	-51.0	14.2	0.00e+00	0	28	0	1635778560	64	4442
2026-01-14 22:55:51.07	76.13	7.33	-49.4	-50.9	14.2	0.00e+00	0	28	0	1641021440	64	4426
2026-01-14 22:55:52.07	76.29	7.31	-49.4	-51.0	14.2	0.00e+00	0	28	0	1647312896	64	4450
2026-01-14 22:55:53.07	76.45	7.30	-49.4	-51.0	14.2	0.00e+00	0	28	0	1652555776	64	4449
2026-01-14 22:55:54.08	76.61	7.28	-49.4	-51.0	14.2	0.00e+00	0	28	0	1658847232	64	4446
2026-01-14 22:55:55.07	76.77	7.26	-49.4	-51.0	14.2	0.00e+00	0	28	0	1664090112	64	4483
2026-01-14 22:55:56.08	76.93	7.24	-49.5	-51.1	14.1	0.00e+00	0	28	0	1669332992	64	4511
2026-01-14 22:55:57.07	77.08	7.22	-49.4	-51.0	14.2	0.00e+00	0	28	0	1675624448	64	4446
2026-01-14 22:55:58.07	77.24	7.20	-49.5	-51.1	14.1	0.00e+00	0	28	0	1680867328	64	4500
2026-01-14 22:55:59.08	77.40	7.18	-49.6	-51.2	14.0	0.00e+00	0	28	0	1686110208	64	4594
2026-01-14 22:56:00.07	77.55	7.16	-49.6	-51.2	14.1	0.00e+00	0	28	0	1692401664	64	4547
2026-01-14 22:56:01.07	77.71	7.13	-49.7	-51.3	14.0	0.00e+00	0	28	0	1697644544	64	4617
2026-01-14 22:56:02.07	77.87	7.11	-49.7	-51.3	14.1	0.00e+00	0	28	0	1703936000	64	4606
2026-01-14 22:56:03.08	78.03	7.09	-49.6	-51.2	14.1	0.00e+00	0	28	0	1709178880	64	4598
2026-01-14 22:56:04.07	78.18	7.07	-49.7	-51.3	14.0	0.00e+00	0	28	0	1714421760	64	4606
2026-01-14 22:56:05.07	78.34	7.05	-49.7	-51.3	14.0	0.00e+00	0	28	0	1720713216	64	4648
2026-01-14 22:56:06.07	78.49	7.03	-49.7	-51.3	14.0	0.00e+00	0	29	0	1725956096	64	4634
2026-01-14 22:56:07.06	78.65	7.01	-49.7	-51.3	14.0	0.00e+00	0	29	0	1731198976	64	4611
2026-01-14 22:56:08.06	78.80	6.99	-49.6	-51.3	14.0	0.00e+00	0	28	0	1737490432	64	4602
2026-01-14 22:56:09.05	78.96	6.96	-49.4	-51.0	14.1	0.00e+00	0	28	0	1742733312	64	4465
2026-01-14 22:56:10.05	79.11	6.94	-49.5	-51.1	14.1	0.00e+00	0	28	0	1747976192	64	4543
2026-01-14 22:56:11.06	79.27	6.92	-49.6	-51.2	14.0	0.00e+00	0	29	0	1754267648	64	4589
2026-01-14 22:56:12.05	79.42	6.90	-49.5	-51.1	14.1	0.00e+00	0	28	0	1759510528	64	4528
2026-01-14 22:56:13.05	79.57	6.87	-49.7	-51.3	14.0	0.00e+00	0	28	0	1765801984	64	4617
2026-01-14 22:56:14.05	79.73	6.85	-49.8	-51.5	13.9	0.00e+00	0	28	0	1771044864	64	4713
2026-01-14 22:56:15.05	79.88	6.83	-49.7	-51.3	14.0	0.00e+00	0	28	0	1776287744	64	4627
2026-01-14 22:56:16.04	80.03	6.81	-49.7	-51.3	14.0	0.00e+00	0	28	0	1782579200	64	4622
2026-01-14 22:56:17.05	80.19	6.78	-49.6	-51.2	14.1	0.00e+00	0	28	0	1787822080	64	4563
2026-01-14 22:56:18.05	80.34	6.76	-49.5	-51.1	14.1	0.00e+00	0	28	0	1793064960	64	4514
2026-01-14 22:56:19.05	80.49	6.74	-49.5	-51.0	14.1	0.00e+00	0	28	0	1799356416	64	4483
2026-01-14 22:56:20.05	80.65	6.71	-49.4	-50.9	14.2	0.00e+00	0	28	0	1804599296	64	4420
2026-01-14 22:56:21.05	80.80	6.69	-49.3	-50.9	14.2	0.00e+00	0	28	0	1809842176	64	4404
2026-01-14 22:56:22.05	80.95	6.66	-49.2	-50.7	14.3	0.00e+00	0	28	0	1816133632	64	4309
2026-01-14 22:56:23.04	81.10	6.64	-49.1	-50.7	14.3	0.00e+00	0	28	0	1821376512	64	4295
2026-01-14 22:56:24.04	81.25	6.62	-49.2	-50.7	14.3	0.00e+00	0	28	0	1827667968	64	4311
2026-01-14 22:56:25.04	81.41	6.59	-49.4	-50.9	14.2	0.00e+00	0	28	0	1832910848	64	4432
2026-01-14 22:56:26.05	81.56	6.57	-49.5	-51.0	14.1	0.00e+00	0	28	0	1838153728	64	4484
2026-01-14 22:56:27.06	81.71	6.54	-49.5	-51.1	14.1	0.00e+00	0	29	0	1844445184	64	4510
2026-01-14 22:56:28.06	81.86	6.52	-49.6	-51.2	14.1	0.00e+00	0	28	0	1849688064	64	4554
2026-01-14 22:56:29.06	82.01	6.49	-49.5	-51.1	14.1	0.00e+00	0	28	0	1854930944	64	4502
2026-01-14 22:56:30.05	82.16	6.47	-49.7	-51.3	14.0	0.00e+00	0	28	0	1861222400	64	4602
2026-01-14 22:56:31.05	82.31	6.44	-49.8	-51.4	14.0	0.00e+00	0	28	0	1866465280	64	4679
2026-01-14 22:56:32.04	82.46	6.42	-49.7	-51.3	14.0	0.00e+00	0	28	0	1871708160	64	4620
2026-01-14 22:56:33.04	82.61	6.39	-49.5	-51.1	14.1	0.00e+00	0	28	0	1877999616	64	4510
2026-01-14 22:56:34.04	82.76	6.37	-49.6	-51.2	14.0	0.00e+00	0	28	0	1883242496	64	4581
2026-01-14 22:56:35.04	82.91	6.34	-49.6	-51.2	14.0	0.00e+00	0	28	0	1889533952	64	4589
2026-01-14 22:56:36.05	83.06	6.31	-49.7	-51.3	14.0	0.00e+00	0	29	0	1894776832	64	4628
2026-01-14 22:56:37.05	83.20	6.29	-49.8	-51.5	13.9	0.00e+00	0	28	0	1900019712	64	4735
2026-01-14 22:56:38.04	83.35	6.26	-49.8	-51.5	13.9	0.00e+00	0	28	0	1906311168	64	4713
2026-01-14 22:56:39.04	83.50	6.24	-49.7	-51.4	14.0	0.00e+00	0	28	0	1911554048	64	4661
2026-01-14 22:56:40.03	83.65	6.21	-49.8	-51.5	13.9	0.00e+00	0	28	0	1916796928	64	4733
2026-01-14 22:56:41.03	83.79	6.18	-49.9	-51.6	13.9	0.00e+00	0	28	0	1923088384	64	4779
2026-01-14 22:56:42.03	83.94	6.16	-49.9	-51.6	14.0	0.00e+00	0	28	0	1928331264	65	4503
2026-01-14 22:56:43.03	84.09	6.13	-50.0	-51.6	13.9	0.00e+00	0	28	0	1933574144	65	4543
2026-01-14 22:56:44.03	84.23	6.10	-49.8	-51.5	14.0	0.00e+00	0	28	0	1939865600	65	4448
2026-01-14 22:56:45.02	84.38	6.08	-49.9	-51.5	14.0	0.00e+00	0	28	0	1945108480	65	4480
2026-01-14 22:56:46.03	84.53	6.05	-49.8	-51.3	14.1	0.00e+00	0	28	0	1950351360	65	4391
2026-01-14 22:56:47.03	84.67	6.02	-49.7	-51.3	14.1	0.00e+00	0	28	0	1956642816	65	4360
2026-01-14 22:56:48.03	84.82	5.99	-49.7	-51.3	14.1	0.00e+00	0	29	0	1961885696	65	4359
2026-01-14 22:56:49.04	84.96	5.97	-49.7	-51.2	14.1	0.00e+00	0	28	0	1968177152	65	4340
2026-01-14 22:56:50.04	85.11	5.94	-49.9	-51.5	14.0	0.00e+00	0	28	0	1973420032	65	4467
2026-01-14 22:56:51.04	85.25	5.91	-49.9	-51.6	13.9	0.00e+00	0	28	0	1978662912	65	4524
2026-01-14 22:56:52.04	85.40	5.88	-49.9	-51.6	13.9	0.00e+00	0	28	0	1984954368	65	4528
2026-01-14 22:56:53.03	85.54	5.86	-50.0	-51.7	13.9	0.00e+00	0	28	0	1990197248	65	4562
2026-01-14 22:56:54.03	85.69	5.83	-49.9	-51.6	13.9	0.00e+00	0	28	0	1995440128	65	4538
2026-01-14 22:56:55.03	85.83	5.80	-50.1	-51.9	13.8	0.00e+00	0	28	0	2001731584	65	4655
2026-01-14 22:56:56.03	85.97	5.77	-50.3	-52.0	13.7	0.00e+00	0	28	0	2006974464	65	4739
2026-01-14 22:56:57.04	86.12	5.74	-50.1	-51.8	13.8	0.00e+00	0	28	0	2013265920	65	4641
2026-01-14 22:56:58.04	86.26	5.71	-49.9	-51.5	13.9	0.00e+00	0	29	0	2018508800	65	4484
2026-01-14 22:56:59.04	86.40	5.68	-49.8	-51.4	14.0	0.00e+00	0	29	0	2023751680	65	4413
2026-01-14 22:57:00.05	86.55	5.66	-50.0	-51.7	13.9	0.00e+00	0	28	0	2030043136	65	4549
2026-01-14 22:57:01.05	86.69	5.63	-50.1	-51.8	13.8	0.00e+00	0	29	0	2035286016	65	4640
2026-01-14 22:57:02.05	86.83	5.60	-50.0	-51.7	13.9	0.00e+00	0	28	0	2040528896	65	4582
2026-01-14 22:57:03.05	86.97	5.57	-50.1	-51.8	13.8	0.00e+00	0	28	0	2046820352	65	4617
2026-01-14 22:57:04.05	87.11	5.54	-50.2	-51.9	13.8	0.00e+00	0	28	0	2052063232	65	4652
2026-01-14 22:57:05.05	87.26	5.51	-50.4	-52.1	13.7	0.00e+00	0	28	0	2057306112	65	4784
2026-01-14 22:57:06.05	87.40	5.48	-50.3	-52.0	13.8	0.00e+00	0	28	0	2063597568	66	4474
2026-01-14 22:57:07.05	87.54	5.45	-50.0	-51.7	14.0	0.00e+00	0	28	0	2068840448	66	4294
2026-01-14 22:57:08.04	87.68	5.42	-49.6	-51.3	14.1	0.00e+00	0	28	0	2075131904	65	4342
2026-01-14 22:57:09.04	87.82	5.39	-49.8	-51.4	14.0	0.00e+00	0	28	0	2080374784	65	4441
2026-01-14 22:57:10.03	87.95	5.36	-49.7	-51.3	14.0	0.00e+00	0	29	0	2085617664	65	4367
2026-01-14 22:57:11.04	88.09	5.33	-50.1	-51.8	13.8	0.00e+00	0	29	0	2091909120	65	4613
2026-01-14 22:57:12.04	88.23	5.30	-50.1	-51.8	13.8	0.00e+00	0	29	0	2097152000	65	4609
2026-01-14 22:57:13.04	88.37	5.27	-50.1	-51.8	13.8	0.00e+00	0	28	0	2102394880	65	4625
2026-01-14 22:57:14.03	88.51	5.24	-50.1	-51.8	13.8	0.00e+00	0	28	0	2108686336	65	4612
2026-01-14 22:57:15.03	88.65	5.21	-50.2	-51.9	13.8	0.00e+00	0	28	0	2113929216	65	4665
2026-01-14 22:57:16.03	88.79	5.18	-50.1	-51.8	13.8	0.00e+00	0	29	0	2119172096	65	4626
2026-01-14 22:57:17.02	88.92	5.15	-49.8	-51.4	14.0	0.00e+00	0	28	0	2125463552	65	4435
2026-01-14 22:57:18.02	89.06	5.12	-50.0	-51.7	13.8	0.00e+00	0	28	0	2130706432	65	4577
2026-01-14 22:57:19.03	89.20	5.09	-49.9	-51.5	13.9	0.00e+00	0	28	0	2135949312	65	4473
2026-01-14 22:57:20.02	89.33	5.06	-49.7	-51.3	14.0	0.00e+00	0	28	0	2142240768	65	4370
2026-01-14 22:57:21.03	89.47	5.02	-49.9	-51.6	13.9	0.00e+00	0	28	0	2147483648	65	4496
2026-01-14 22:57:22.03	89.61	4.99	-58.5	-71.2	3.8	6.75e-01	0	29	104	2151677952	82	16173
2026-01-14 22:57:23.03	89.74	4.96	-58.8	-71.9	3.8	8.47e-01	0	28	104	2151677952	82	17562
2026-01-14 22:57:24.04	89.88	4.93	-59.1	-72.1	3.8	8.45e-01	0	29	104	2151677952	83	16995
2026-01-14 22:57:25.05	90.02	4.90	-59.3	-72.3	3.8	8.45e-01	0	29	104	2151677952	83	17464
2026-01-14 22:57:26.05	90.15	4.87	-59.4	-72.5	3.8	8.44e-01	0	29	104	2151677952	83	17716
2026-01-14 22:57:27.06	90.29	4.83	-60.0	-73.1	3.8	8.45e-01	0	29	104	2151677952	85	16990
2026-01-14 22:57:28.06	90.43	4.80	-60.1	-73.1	3.8	8.47e-01	0	28	104	2151677952	85	17018
2026-01-14 22:57:29.05	90.56	4.77	-60.1	-73.1	3.8	8.47e-01	0	28	104	2151677952	85	17057
2026-01-14 22:57:30.06	90.69	4.74	-60.1	-73.2	3.8	8.44e-01	0	28	104	2151677952	85	17193
2026-01-14 22:57:31.05	90.83	4.71	-60.2	-73.3	3.8	8.46e-01	0	28	104	2151677952	85	17296
2026-01-14 22:57:32.05	90.96	4.68	-60.2	-73.3	3.8	8.46e-01	0	28	104	2151677952	85	17355
2026-01-14 22:57:33.06	91.09	4.64	-60.3	-73.3	3.8	8.46e-01	0	28	104	2151677952	85	17380
2026-01-14 22:57:34.05	91.23	4.61	-60.3	-73.3	3.8	8.46e-01	0	28	104	2151677952	85	17481
2026-01-14 22:57:35.05	91.36	4.58	-60.3	-73.4	3.8	8.46e-01	0	29	104	2151677952	85	17577
2026-01-14 22:57:36.05	91.49	4.55	-60.4	-73.5	3.8	8.46e-01	0	28	104	2151677952	85	17709
2026-01-14 22:57:37.05	91.62	4.51	-60.4	-73.5	3.8	8.46e-01	0	28	104	2151677952	85	17743
2026-01-14 22:57:38.05	91.76	4.48	-60.4	-73.5	3.8	8.45e-01	0	28	104	2151677952	85	17807
2026-01-14 22:57:39.05	91.89	4.45	-60.5	-73.6	3.8	8.45e-01	0	28	104	2151677952	86	16912
2026-01-14 22:57:40.04	92.02	4.42	-60.5	-73.6	3.8	8.46e-01	0	28	104	2151677952	86	16930
2026-01-14 22:57:41.05	92.15	4.38	-60.5	-73.6	3.8	8.46e-01	0	28	104	2151677952	86	17021
2026-01-14 22:57:42.03	92.28	4.35	-60.5	-73.6	3.8	8.46e-01	0	29	104	2151677952	86	17053
2026-01-14 22:57:43.03	92.41	4.32	-60.6	-73.7	3.8	8.45e-01	0	28	104	2151677952	86	17103
2026-01-14 22:57:44.03	92.54	4.28	-60.6	-73.7	3.8	8.45e-01	0	29	104	2151677952	86	17170
2026-01-14 22:57:45.03	92.67	4.25	-60.6	-73.7	3.8	8.45e-01	0	29	104	2151677952	86	17158
2026-01-14 22:57:46.02	92.80	4.22	-60.6	-73.7	3.8	8.44e-01	0	28	104	2151677952	86	17159
2026-01-14 22:57:47.02	92.93	4.18	-60.6	-73.6	3.8	8.46e-01	0	29	104	2151677952	86	17058
2026-01-14 22:57:48.02	93.05	4.15	-60.5	-73.6	3.8	8.46e-01	0	28	104	2151677952	86	17010
2026-01-14 22:57:49.03	93.18	4.12	-60.5	-73.6	3.8	8.46e-01	0	29	104	2151677952	86	16945
2026-01-14 22:57:50.04	93.31	4.08	-60.5	-73.6	3.8	8.45e-01	0	29	104	2151677952	86	16918
2026-01-14 22:57:51.04	93.44	4.05	-60.5	-73.6	3.8	8.45e-01	0	29	104	2151677952	86	16989
2026-01-14 22:57:52.02	93.57	4.02	-60.5	-73.6	3.8	8.46e-01	0	29	104	2151677952	86	16916
2026-01-14 22:57:53.03	93.70	3.98	-60.4	-73.5	3.8	8.46e-01	0	28	104	2151677952	86	16814
2026-01-14 22:57:54.03	93.82	3.95	-60.4	-73.5	3.8	8.46e-01	0	28	104	2151677952	86	16747
2026-01-14 22:57:55.04	93.95	3.91	-60.4	-73.5	3.8	8.44e-01	0	29	104	2151677952	86	16767
2026-01-14 22:57:56.04	94.08	3.88	-60.4	-73.4	3.8	8.45e-01	0	29	104	2151677952	86	16652
2026-01-14 22:57:57.03	94.20	3.85	-60.4	-73.4	3.8	8.46e-01	0	28	104	2151677952	86	16656
2026-01-14 22:57:58.03	94.33	3.81	-60.3	-73.4	3.8	8.44e-01	0	29	104	2151677952	86	16679
2026-01-14 22:57:59.03	94.46	3.78	-60.3	-73.4	3.8	8.46e-01	0	29	104	2151677952	86	16581
2026-01-14 22:58:00.02	94.58	3.74	-60.3	-73.4	3.8	8.46e-01	0	29	104	2151677952	86	16575
2026-01-14 22:58:01.02	94.71	3.71	-60.3	-73.3	3.8	8.46e-01	0	28	104	2151677952	86	16501
2026-01-14 22:58:02.03	94.83	3.67	-60.3	-73.3	3.8	8.45e-01	0	29	104	2151677952	86	16486
2026-01-14 22:58:03.03	94.96	3.64	-60.3	-73.4	3.8	8.45e-01	0	29	104	2151677952	86	16543
2026-01-14 22:58:04.04	95.08	3.60	-60.2	-73.3	3.8	8.45e-01	0	29	104	2151677952	86	16472
2026-01-14 22:58:05.05	95.21	3.57	-60.2	-73.3	3.8	8.46e-01	0	29	104	2151677952	86	16431
2026-01-14 22:58:06.06	95.33	3.53	-60.2	-73.3	3.8	8.46e-01	0	28	104	2151677952	86	16404
2026-01-14 22:58:07.06	95.46	3.50	-60.2	-73.3	3.8	8.45e-01	0	29	104	2151677952	86	16404
2026-01-14 22:58:08.07	95.58	3.46	-60.2	-73.3	3.8	8.46e-01	0	28	104	2151677952	86	16406
2026-01-14 22:58:09.07	95.71	3.43	-60.2	-73.3	3.8	8.46e-01	0	29	104	2151677952	86	16372
2026-01-14 22:58:10.07	95.83	3.40	-60.2	-73.3	3.8	8.45e-01	0	28	104	2151677952	86	16361
2026-01-14 22:58:11.07	95.95	3.36	-60.2	-73.3	3.8	8.45e-01	0	29	104	2151677952	86	16383
2026-01-14 22:58:12.07	96.07	3.33	-60.2	-73.3	3.8	8.45e-01	0	29	104	2151677952	86	16391
2026-01-14 22:58:13.07	96.20	3.29	-60.2	-73.3	3.8	8.45e-01	0	29	104	2151677952	86	16417
2026-01-14 22:58:14.07	96.32	3.25	-60.2	-73.3	3.8	8.46e-01	0	29	104	2151677952	86	16353
2026-01-14 22:58:15.07	96.44	3.22	-60.2	-73.3	3.8	8.45e-01	0	29	104	2151677952	86	16391
2026-01-14 22:58:16.07	96.56	3.18	-60.2	-73.3	3.8	8.45e-01	0	29	104	2151677952	86	16363
2026-01-14 22:58:17.07	96.68	3.15	-60.2	-73.3	3.8	8.45e-01	0	28	104	2151677952	86	16423
2026-01-14 22:58:18.07	96.80	3.11	-60.2	-73.3	3.8	8.45e-01	0	29	104	2151677952	86	16347
2026-01-14 22:58:19.07	96.92	3.08	-60.2	-73.3	3.8	8.46e-01	0	28	104	2151677952	86	16315
2026-01-14 22:58:20.08	97.04	3.04	-60.2	-73.3	3.8	8.45e-01	0	28	104	2151677952	86	16397
2026-01-14 22:58:21.08	97.16	3.01	-60.2	-73.3	3.8	8.46e-01	0	29	104	2151677952	86	16348
2026-01-14 22:58:22.08	97.28	2.97	-60.2	-73.3	3.8	8.46e-01	0	29	104	2151677952	86	16323
2026-01-14 22:58:23.08	97.40	2.94	-60.2	-73.3	3.8	8.45e-01	0	29	104	2151677952	86	16391
2026-01-14 22:58:24.08	97.52	2.90	-60.2	-73.3	3.8	8.46e-01	0	28	104	2151677952	86	16365
2026-01-14 22:58:25.07	97.64	2.86	-60.2	-73.3	3.8	8.46e-01	0	29	104	2151677952	86	16387
2026-01-14 22:58:26.06	97.76	2.83	-60.2	-73.3	3.8	8.45e-01	0	29	104	2151677952	86	16381
2026-01-14 22:58:27.06	97.87	2.79	-60.2	-73.3	3.8	8.45e-01	0	29	104	2151677952	86	16385
2026-01-14 22:58:28.05	97.99	2.76	-60.2	-73.3	3.8	8.45e-01	0	29	104	2151677952	86	16395
2026-01-14 22:58:29.05	98.11	2.72	-60.2	-73.3	3.8	8.45e-01	0	28	104	2151677952	86	16419
2026-01-14 22:58:30.05	98.23	2.68	-60.2	-73.3	3.8	8.45e-01	0	29	104	2151677952	86	16351
2026-01-14 22:58:31.05	98.34	2.65	-60.2	-73.3	3.8	8.46e-01	0	29	104	2151677952	86	16434
2026-01-14 22:58:32.05	98.46	2.61	-60.2	-73.3	3.9	8.46e-01	0	29	104	2151677952	86	16335
2026-01-14 22:58:33.05	98.58	2.58	-60.2	-73.3	3.8	8.44e-01	0	29	104	2151677952	86	16438
2026-01-14 22:58:34.06	98.69	2.54	-60.2	-73.3	3.8	8.45e-01	0	29	104	2151677952	86	16432
2026-01-14 22:58:35.06	98.81	2.50	-60.2	-73.3	3.8	8.46e-01	0	28	104	2151677952	86	16495
2026-01-14 22:58:36.06	98.93	2.47	-60.2	-73.3	3.8	8.45e-01	0	28	104	2151677952	86	16351
2026-01-14 22:58:37.05	99.04	2.43	-60.2	-73.3	3.8	8.46e-01	0	29	104	2151677952	86	16336
2026-01-14 22:58:38.06	99.16	2.39	-60.2	-73.3	3.8	8.46e-01	0	29	104	2151677952	86	16335
2026-01-14 22:58:39.05	99.27	2.36	-60.2	-73.3	3.8	8.44e-01	0	29	104	2151677952	86	16363
2026-01-14 22:58:40.05	99.38	2.32	-60.3	-73.4	3.8	8.47e-01	0	28	104	2151677952	86	16513
2026-01-14 22:58:41.05	99.50	2.29	-60.3	-73.3	3.8	8.45e-01	0	29	104	2151677952	86	16423
2026-01-14 22:58:42.05	99.61	2.25	-60.2	-73.3	3.8	8.47e-01	0	29	104	2151677952	86	16425
2026-01-14 22:58:43.05	99.73	2.21	-60.2	-73.3	3.8	8.46e-01	0	29	104	2151677952	86	16325
2026-01-14 22:58:44.04	99.84	2.18	-60.2	-73.3	3.8	8.45e-01	0	29	104	2151677952	86	16341
2026-01-14 22:58:45.04	99.95	2.14	-60.2	-73.3	3.8	8.44e-01	0	28	104	2151677952	86	16371
2026-01-14 22:58:46.04	100.06	2.10	-60.2	-73.3	3.8	8.45e-01	0	29	104	2151677952	86	16382
2026-01-14 22:58:47.04	100.18	2.07	-60.2	-73.3	3.8	8.45e-01	0	29	104	2151677952	86	16364
2026-01-14 22:58:48.04	100.29	2.03	-60.2	-73.3	3.8	8.44e-01	0	29	104	2151677952	86	16371
2026-01-14 22:58:49.03	100.40	1.99	-60.2	-73.3	3.8	8.44e-01	0	29	104	2151677952	86	16369
2026-01-14 22:58:50.03	100.51	1.95	-60.2	-73.3	3.8	8.45e-01	0	29	104	2151677952	86	16318

#Closed at: 2026-01-14 22:58:51
#Recorded file [2151 MB]: D:/lorett/data/31004_260115_014940.dat