passes_logs/2026/01/14/R3.2S_Murmansk/R3.2S_Murmansk__20260114_031937_AQUA_rec.log

#Pass ID: 20260114_031937_AQUA
#Satellite: AQUA
#Configuration: AQUA
#almurnet v.1.7.20251203
#Start time: 2026-01-14 03:19:38

#Version: 2.2.20231116
#Station: R3.2S_Murmansk
#Location: 33.079688 lon 68.888172 lat
#TLE: 1 27424U 02022A   26013.58555111  .00000773  00000+0  16469-3 0  9993
#TLE: 2 27424  98.4079 339.9892 0002045  80.0365 334.6894 14.61818766260681

#Time	Az	El	Level	Level2	SNR	BER	BlckErr	Temp	State	Recorded	gain1	gain2
2026-01-14 03:19:38.70	26.91	2.09	-54.1	-73.5	3.8	7.45e-01	0	25	0	0	75	36570
2026-01-14 03:19:39.70	26.88	2.15	-54.1	-73.5	3.8	7.47e-01	0	25	104	0	75	36652
2026-01-14 03:19:40.71	26.86	2.22	-54.1	-73.5	3.8	7.46e-01	0	25	104	0	75	36597
2026-01-14 03:19:41.72	26.83	2.28	-54.1	-73.5	3.8	7.46e-01	0	25	104	0	75	36628
2026-01-14 03:19:42.73	26.80	2.35	-54.1	-73.5	3.8	7.45e-01	0	25	104	0	75	36691
2026-01-14 03:19:43.74	26.77	2.42	-54.1	-73.5	3.8	7.45e-01	0	25	104	0	75	36667
2026-01-14 03:19:44.74	26.74	2.48	-54.1	-73.5	3.8	7.48e-01	0	25	104	0	75	36714
2026-01-14 03:19:45.75	26.72	2.55	-54.1	-73.5	3.8	7.44e-01	0	25	104	0	75	36696
2026-01-14 03:19:46.75	26.69	2.62	-54.1	-73.5	3.8	7.48e-01	0	25	104	0	75	36670
2026-01-14 03:19:47.76	26.66	2.69	-54.1	-73.5	3.8	7.44e-01	0	26	104	0	75	36769
2026-01-14 03:19:48.77	26.63	2.75	-54.1	-73.5	3.8	7.47e-01	0	25	104	0	75	36719
2026-01-14 03:19:49.78	26.60	2.82	-54.1	-73.5	3.8	7.47e-01	0	26	104	0	75	36662
2026-01-14 03:19:50.79	26.57	2.89	-54.1	-73.5	3.8	7.44e-01	0	26	104	0	75	36631
2026-01-14 03:19:51.80	26.54	2.96	-54.1	-73.5	3.8	7.45e-01	0	26	104	0	75	36657
2026-01-14 03:19:52.81	26.51	3.02	-54.1	-73.5	3.8	7.46e-01	0	26	104	0	75	36721
2026-01-14 03:19:53.82	26.48	3.09	-54.1	-73.5	3.8	7.47e-01	0	26	104	0	75	36757
2026-01-14 03:19:54.83	26.45	3.16	-54.3	-73.6	3.8	7.46e-01	0	26	104	0	76	35242
2026-01-14 03:19:55.83	26.42	3.23	-54.3	-73.6	3.8	7.46e-01	0	26	104	0	76	35198
2026-01-14 03:19:56.84	26.39	3.30	-54.3	-73.7	3.8	7.45e-01	0	26	104	0	76	35307
2026-01-14 03:19:57.85	26.36	3.37	-54.3	-73.7	3.8	7.43e-01	0	26	104	0	76	35337
2026-01-14 03:19:58.86	26.33	3.44	-54.3	-73.6	3.8	7.51e-01	0	26	104	0	76	35252
2026-01-14 03:19:59.87	26.30	3.51	-54.3	-73.6	3.8	7.46e-01	0	26	104	0	76	35141
2026-01-14 03:20:00.87	26.27	3.58	-54.3	-73.6	3.8	7.48e-01	0	26	104	0	76	35225
2026-01-14 03:20:01.88	26.24	3.65	-54.3	-73.7	3.8	7.47e-01	0	26	104	0	76	35372
2026-01-14 03:20:02.86	26.21	3.71	-54.3	-73.7	3.8	7.44e-01	0	26	104	0	76	35297
2026-01-14 03:20:03.86	26.18	3.78	-54.3	-73.7	3.8	7.48e-01	0	26	104	0	76	35306
2026-01-14 03:20:04.87	26.15	3.85	-54.3	-73.6	3.8	7.44e-01	0	26	104	0	76	35267
2026-01-14 03:20:05.88	26.11	3.92	-54.3	-73.7	3.8	7.46e-01	0	26	104	0	76	35327
2026-01-14 03:20:06.89	26.08	4.00	-54.3	-73.7	3.8	7.44e-01	0	26	104	0	76	35348
2026-01-14 03:20:07.90	26.05	4.07	-54.3	-73.6	3.8	7.48e-01	0	26	104	0	76	35276
2026-01-14 03:20:08.90	26.02	4.14	-54.3	-73.7	3.8	7.47e-01	0	26	104	0	76	35310
2026-01-14 03:20:09.91	25.99	4.21	-54.3	-73.6	3.8	7.47e-01	0	26	104	0	76	35246
2026-01-14 03:20:10.92	25.95	4.28	-54.3	-73.6	3.8	7.47e-01	0	26	104	0	76	35266
2026-01-14 03:20:11.94	25.92	4.35	-54.3	-73.7	3.8	7.47e-01	0	26	104	0	76	35391
2026-01-14 03:20:12.95	25.89	4.42	-54.3	-73.7	3.8	7.52e-01	0	26	104	0	76	35363
2026-01-14 03:20:13.96	25.85	4.50	-54.3	-73.7	3.8	7.48e-01	0	26	104	0	76	35379
2026-01-14 03:20:14.96	25.82	4.57	-54.3	-73.7	3.8	7.49e-01	0	26	104	0	76	35382
2026-01-14 03:20:15.97	25.79	4.64	-54.3	-73.7	3.8	7.46e-01	0	26	104	0	76	35482
2026-01-14 03:20:16.98	25.75	4.71	-54.3	-73.7	3.8	7.48e-01	0	26	104	0	76	35360
2026-01-14 03:20:17.99	25.72	4.79	-54.3	-73.7	3.8	7.47e-01	0	26	104	0	76	35418
2026-01-14 03:20:19.00	25.68	4.86	-54.3	-73.7	3.8	7.42e-01	0	26	104	0	76	35358
2026-01-14 03:20:20.01	25.65	4.93	-54.3	-73.7	3.8	7.47e-01	0	26	104	0	76	35418
2026-01-14 03:20:21.02	25.61	5.01	-54.3	-73.7	3.8	7.46e-01	0	26	104	0	76	35299
2026-01-14 03:20:22.03	25.58	5.08	-54.3	-73.7	3.8	7.48e-01	0	26	104	0	76	35321
2026-01-14 03:20:23.04	25.54	5.16	-54.3	-73.7	3.8	7.47e-01	0	26	104	0	76	35406
2026-01-14 03:20:24.05	25.51	5.23	-54.3	-73.7	3.8	7.46e-01	0	26	104	0	76	35449
2026-01-14 03:20:25.06	25.47	5.30	-54.3	-73.7	3.8	7.43e-01	0	26	104	0	76	35392
2026-01-14 03:20:26.07	25.44	5.38	-54.3	-73.7	3.8	7.47e-01	0	26	104	0	76	35428
2026-01-14 03:20:27.08	25.40	5.45	-54.3	-73.7	3.8	7.43e-01	0	26	104	0	76	35367
2026-01-14 03:20:28.09	25.36	5.53	-54.3	-73.7	3.8	7.47e-01	0	26	104	0	76	35351
2026-01-14 03:20:29.10	25.33	5.61	-54.3	-73.7	3.8	7.45e-01	0	26	104	0	76	35478
2026-01-14 03:20:30.11	25.29	5.68	-54.3	-73.7	3.8	7.46e-01	0	26	104	0	76	35413
2026-01-14 03:20:31.11	25.25	5.76	-54.3	-73.7	3.8	7.45e-01	0	26	104	0	76	35510
2026-01-14 03:20:32.12	25.21	5.83	-54.3	-73.7	3.8	7.47e-01	0	26	104	0	76	35445
2026-01-14 03:20:33.13	25.18	5.91	-54.3	-73.7	3.8	7.46e-01	0	26	104	0	76	35405
2026-01-14 03:20:34.14	25.14	5.99	-54.3	-73.7	3.8	7.46e-01	0	26	104	0	76	35422
2026-01-14 03:20:35.15	25.10	6.06	-54.3	-73.7	3.8	7.45e-01	0	26	104	0	76	35460
2026-01-14 03:20:36.16	25.06	6.14	-54.3	-73.7	3.8	7.48e-01	0	26	104	0	76	35493
2026-01-14 03:20:37.17	25.02	6.22	-54.3	-73.7	3.8	7.48e-01	0	26	104	0	76	35505
2026-01-14 03:20:38.18	24.98	6.29	-54.3	-73.7	3.8	7.47e-01	0	26	104	0	76	35407
2026-01-14 03:20:39.19	24.95	6.37	-54.3	-73.7	3.8	7.46e-01	0	27	104	0	76	35327
2026-01-14 03:20:40.20	24.91	6.45	-54.3	-73.7	3.8	7.44e-01	0	26	104	0	76	35508
2026-01-14 03:20:41.21	24.87	6.53	-54.3	-73.7	3.8	7.47e-01	0	26	104	0	76	35516
2026-01-14 03:20:42.22	24.83	6.61	-54.3	-73.7	3.8	7.47e-01	0	26	104	0	76	35531
2026-01-14 03:20:43.23	24.79	6.69	-54.3	-73.7	3.8	7.48e-01	0	27	104	0	76	35518
2026-01-14 03:20:44.24	24.75	6.77	-54.3	-73.7	3.8	7.45e-01	0	26	104	0	76	35459
2026-01-14 03:20:45.24	24.71	6.84	-54.3	-73.7	3.8	7.46e-01	0	26	104	0	76	35425
2026-01-14 03:20:46.25	24.67	6.92	-54.3	-73.7	3.9	7.46e-01	0	26	104	0	76	35441
2026-01-14 03:20:47.26	24.62	7.00	-54.3	-73.7	3.8	7.45e-01	0	27	104	0	76	35327
2026-01-14 03:20:48.27	24.58	7.08	-54.3	-73.7	3.8	7.46e-01	0	26	104	0	76	35521
2026-01-14 03:20:49.28	24.54	7.16	-54.3	-73.7	3.8	7.45e-01	0	26	104	0	76	35518
2026-01-14 03:20:50.29	24.50	7.25	-54.3	-73.7	3.8	7.43e-01	0	26	104	0	76	35503
2026-01-14 03:20:51.30	24.46	7.33	-54.3	-73.7	3.8	7.48e-01	0	27	104	0	76	35401
2026-01-14 03:20:52.30	24.41	7.41	-54.3	-73.7	3.8	7.42e-01	0	26	104	0	76	35550
2026-01-14 03:20:53.31	24.37	7.49	-54.3	-73.7	3.8	7.49e-01	0	26	104	0	76	35512
2026-01-14 03:20:54.32	24.33	7.57	-54.3	-73.7	3.8	7.46e-01	0	27	104	0	76	35558
2026-01-14 03:20:55.33	24.28	7.65	-54.3	-73.7	3.8	7.46e-01	0	27	104	0	76	35508
2026-01-14 03:20:56.34	24.24	7.73	-54.3	-73.7	3.8	7.45e-01	0	27	104	0	76	35488
2026-01-14 03:20:57.35	24.20	7.82	-54.3	-73.7	3.8	7.44e-01	0	27	104	0	76	35490
2026-01-14 03:20:58.36	24.15	7.90	-54.3	-73.7	3.8	7.49e-01	0	27	104	0	76	35522
2026-01-14 03:20:59.37	24.11	7.98	-54.3	-73.7	3.8	7.45e-01	0	27	104	0	76	35459
2026-01-14 03:21:00.38	24.06	8.07	-54.3	-73.7	3.8	7.49e-01	0	27	104	0	76	35434
2026-01-14 03:21:01.38	24.02	8.15	-54.3	-73.7	3.8	7.42e-01	0	27	104	0	76	35580
2026-01-14 03:21:02.39	23.97	8.23	-54.3	-73.7	3.8	7.49e-01	0	26	104	0	76	35604
2026-01-14 03:21:03.40	23.93	8.32	-54.4	-73.7	3.8	7.47e-01	0	27	104	0	76	35627
2026-01-14 03:21:04.41	23.88	8.40	-54.4	-73.7	3.8	7.49e-01	0	27	104	0	76	35658
2026-01-14 03:21:05.42	23.83	8.49	-54.3	-73.7	3.8	7.46e-01	0	27	104	0	76	35625
2026-01-14 03:21:06.43	23.79	8.57	-54.3	-73.7	3.8	7.44e-01	0	27	104	0	76	35592
2026-01-14 03:21:07.44	23.74	8.66	-54.3	-73.7	3.8	7.46e-01	0	27	104	0	76	35606
2026-01-14 03:21:08.44	23.69	8.74	-54.3	-73.7	3.8	7.46e-01	0	27	104	0	76	35583
2026-01-14 03:21:09.45	23.65	8.83	-54.3	-73.7	3.8	7.45e-01	0	27	104	0	76	35660
2026-01-14 03:21:10.46	23.60	8.92	-54.4	-73.7	3.8	7.44e-01	0	27	104	0	76	35643
2026-01-14 03:21:11.47	23.55	9.00	-54.3	-73.7	3.8	7.47e-01	0	27	104	0	76	35619
2026-01-14 03:21:12.48	23.50	9.09	-54.3	-73.7	3.8	7.49e-01	0	27	104	0	76	35600
2026-01-14 03:21:13.49	23.45	9.18	-54.4	-73.7	3.8	7.44e-01	0	27	104	0	76	35553
2026-01-14 03:21:14.50	23.40	9.27	-54.4	-73.7	3.8	7.46e-01	0	27	104	0	76	35665
2026-01-14 03:21:15.51	23.35	9.35	-54.3	-73.7	3.8	7.49e-01	0	27	104	0	76	35547
2026-01-14 03:21:16.52	23.30	9.44	-54.3	-73.7	3.8	7.47e-01	0	27	104	0	76	35634
2026-01-14 03:21:17.52	23.25	9.53	-54.3	-73.8	3.8	7.45e-01	0	27	104	0	76	35698
2026-01-14 03:21:18.53	23.20	9.62	-54.4	-73.7	3.8	7.49e-01	0	27	104	0	76	35644
2026-01-14 03:21:19.54	23.15	9.71	-54.4	-73.7	3.8	7.46e-01	0	27	104	0	76	35645
2026-01-14 03:21:20.55	23.10	9.80	-54.4	-73.7	3.8	7.47e-01	0	27	104	0	76	35590
2026-01-14 03:21:21.56	23.05	9.89	-54.3	-73.7	3.8	7.43e-01	0	27	104	0	76	35599
2026-01-14 03:21:22.57	22.99	9.98	-54.4	-73.7	3.8	7.46e-01	0	27	104	0	76	35672
2026-01-14 03:21:23.58	22.94	10.07	-54.4	-73.8	3.8	7.46e-01	0	27	104	0	76	35697
2026-01-14 03:21:24.59	22.89	10.16	-54.4	-73.8	3.8	7.45e-01	0	27	104	0	76	35698
2026-01-14 03:21:25.60	22.83	10.25	-54.3	-73.7	3.8	7.46e-01	0	27	104	0	76	35612
2026-01-14 03:21:26.60	22.78	10.34	-54.4	-73.7	3.8	7.45e-01	0	27	104	0	76	35648
2026-01-14 03:21:27.61	22.73	10.44	-54.4	-73.7	3.8	7.43e-01	0	27	104	0	76	35679
2026-01-14 03:21:28.62	22.67	10.53	-54.4	-73.7	3.8	7.48e-01	0	27	104	0	76	35689
2026-01-14 03:21:29.63	22.62	10.62	-54.4	-73.8	3.8	7.47e-01	0	27	104	0	76	35703
2026-01-14 03:21:30.64	22.56	10.71	-54.4	-73.8	3.8	7.44e-01	0	27	104	0	76	35700
2026-01-14 03:21:31.64	22.51	10.81	-54.4	-73.8	3.8	7.47e-01	0	27	104	0	76	35706
2026-01-14 03:21:32.64	22.45	10.90	-54.4	-73.8	3.8	7.47e-01	0	27	104	0	76	35783
2026-01-14 03:21:33.66	22.39	11.00	-54.4	-73.8	3.9	7.48e-01	0	27	104	0	76	35716
2026-01-14 03:21:34.66	22.34	11.09	-54.4	-73.8	3.8	7.48e-01	0	27	104	0	76	35755
2026-01-14 03:21:35.67	22.28	11.18	-54.4	-73.8	3.8	7.50e-01	0	27	104	0	76	35752
2026-01-14 03:21:36.68	22.22	11.28	-54.4	-73.8	3.8	7.47e-01	0	27	104	0	76	35727
2026-01-14 03:21:37.69	22.16	11.38	-54.4	-73.7	3.8	7.48e-01	0	27	104	0	76	35683
2026-01-14 03:21:38.70	22.10	11.47	-54.4	-73.8	3.8	7.49e-01	0	27	104	0	76	35722
2026-01-14 03:21:39.71	22.04	11.57	-54.4	-73.8	3.8	7.51e-01	0	27	104	0	76	35759
2026-01-14 03:21:40.72	21.98	11.67	-54.4	-73.8	3.8	7.45e-01	0	27	104	0	76	35705
2026-01-14 03:21:41.73	21.92	11.76	-54.4	-73.7	3.8	7.45e-01	0	27	104	0	76	35618
2026-01-14 03:21:42.74	21.86	11.86	-54.4	-73.7	3.8	7.44e-01	0	27	104	0	76	35642
2026-01-14 03:21:43.75	21.80	11.96	-54.4	-73.8	3.8	7.50e-01	0	27	104	0	76	35694
2026-01-14 03:21:44.76	21.74	12.06	-54.4	-73.8	3.8	7.46e-01	0	27	104	0	76	35723
2026-01-14 03:21:45.77	21.68	12.16	-54.4	-73.8	3.8	7.47e-01	0	27	104	0	76	35786
2026-01-14 03:21:46.77	21.61	12.26	-54.4	-73.8	3.8	7.44e-01	0	27	104	0	76	35746
2026-01-14 03:21:47.78	21.55	12.36	-54.4	-73.8	3.8	7.48e-01	0	27	104	0	76	35763
2026-01-14 03:21:48.78	21.49	12.46	-54.4	-73.8	3.8	7.45e-01	0	27	104	0	76	35783
2026-01-14 03:21:49.79	21.42	12.56	-54.4	-73.7	3.8	7.46e-01	0	27	104	0	76	35671
2026-01-14 03:21:50.80	21.36	12.66	-54.4	-73.8	3.8	7.46e-01	0	27	104	0	76	35756
2026-01-14 03:21:51.81	21.29	12.76	-54.4	-73.8	3.8	7.47e-01	0	27	104	0	76	35716
2026-01-14 03:21:52.82	21.23	12.86	-54.4	-73.7	3.8	7.46e-01	0	27	104	0	76	35664
2026-01-14 03:21:53.83	21.16	12.96	-54.4	-73.8	3.8	7.45e-01	0	27	104	0	76	35729
2026-01-14 03:21:54.84	21.10	13.07	-54.4	-73.8	3.8	7.44e-01	0	27	104	0	76	35709
2026-01-14 03:21:55.85	21.03	13.17	-54.4	-73.8	3.8	7.47e-01	0	27	104	0	76	35701
2026-01-14 03:21:56.85	20.96	13.27	-54.4	-73.8	3.8	7.46e-01	0	27	104	0	76	35811
2026-01-14 03:21:57.86	20.89	13.38	-54.4	-73.8	3.8	7.46e-01	0	27	104	0	76	35739
2026-01-14 03:21:58.87	20.83	13.48	-54.4	-73.7	3.8	7.49e-01	0	27	104	0	76	35646
2026-01-14 03:21:59.88	20.76	13.59	-54.4	-73.8	3.8	7.43e-01	0	27	104	0	76	35755
2026-01-14 03:22:00.89	20.69	13.69	-54.4	-73.8	3.8	7.50e-01	0	27	104	0	76	35699
2026-01-14 03:22:01.90	20.62	13.80	-54.4	-73.8	3.8	7.43e-01	0	27	104	0	76	35735
2026-01-14 03:22:02.90	20.54	13.90	-54.4	-73.8	3.8	7.47e-01	0	27	104	0	76	35766
2026-01-14 03:22:03.91	20.47	14.01	-54.4	-73.8	3.8	7.46e-01	0	27	104	0	76	35794
2026-01-14 03:22:04.92	20.40	14.12	-54.4	-73.8	3.8	7.46e-01	0	27	104	0	76	35704
2026-01-14 03:22:05.93	20.33	14.23	-54.4	-73.8	3.8	7.45e-01	0	27	104	0	76	35754
2026-01-14 03:22:06.94	20.25	14.34	-54.4	-73.8	3.8	7.44e-01	0	27	104	0	76	35759
2026-01-14 03:22:07.95	20.18	14.44	-54.4	-73.8	3.8	7.43e-01	0	27	104	0	76	35807
2026-01-14 03:22:08.96	20.11	14.55	-54.4	-73.7	3.8	7.49e-01	0	27	104	0	76	35647
2026-01-14 03:22:09.97	20.03	14.66	-54.4	-73.8	3.8	7.46e-01	0	27	104	0	76	35822
2026-01-14 03:22:10.98	19.95	14.78	-54.4	-73.8	3.8	7.46e-01	0	27	104	0	76	35813
2026-01-14 03:22:11.99	19.88	14.89	-54.4	-73.7	3.8	7.48e-01	0	27	104	0	76	35671
2026-01-14 03:22:13.00	19.80	15.00	-54.4	-73.8	3.8	7.47e-01	0	27	104	0	76	35783
2026-01-14 03:22:14.01	19.72	15.11	-54.4	-73.8	3.8	7.44e-01	0	27	104	0	76	35740
2026-01-14 03:22:15.01	19.65	15.22	-54.4	-73.7	3.8	7.46e-01	0	27	104	0	76	35684
2026-01-14 03:22:16.02	19.57	15.33	-54.4	-73.8	3.8	7.44e-01	0	27	104	0	76	35789
2026-01-14 03:22:17.03	19.49	15.45	-54.4	-73.8	3.8	7.46e-01	0	27	104	0	76	35701
2026-01-14 03:22:18.04	19.41	15.56	-54.4	-73.8	3.8	7.46e-01	0	27	104	0	76	35743
2026-01-14 03:22:19.05	19.32	15.68	-54.4	-73.8	3.8	7.44e-01	0	27	104	0	76	35830
2026-01-14 03:22:20.05	19.24	15.79	-54.4	-73.8	3.8	7.45e-01	0	27	104	0	76	35738
2026-01-14 03:22:21.06	19.16	15.91	-54.4	-73.7	3.8	7.47e-01	0	27	104	0	76	35656
2026-01-14 03:22:22.07	19.08	16.02	-54.4	-73.8	3.8	7.47e-01	0	27	104	0	76	35802
2026-01-14 03:22:23.08	18.99	16.14	-54.4	-73.8	3.8	7.48e-01	0	27	104	0	76	35792
2026-01-14 03:22:24.10	18.91	16.26	-54.4	-73.8	3.8	7.46e-01	0	27	104	0	76	35781
2026-01-14 03:22:25.11	18.82	16.38	-54.4	-73.8	3.8	7.46e-01	0	27	104	0	76	35756
2026-01-14 03:22:26.11	18.74	16.49	-54.4	-73.8	3.8	7.46e-01	0	27	104	0	76	35844
2026-01-14 03:22:27.13	18.65	16.61	-54.4	-73.8	3.8	7.43e-01	0	27	104	0	76	35877
2026-01-14 03:22:28.14	18.56	16.73	-54.4	-73.8	3.8	7.46e-01	0	27	104	0	76	35721
2026-01-14 03:22:29.15	18.47	16.85	-54.4	-73.8	3.8	7.47e-01	0	27	104	0	76	35735
2026-01-14 03:22:30.16	18.38	16.98	-54.4	-73.8	3.8	7.47e-01	0	27	104	0	76	35855
2026-01-14 03:22:31.17	18.29	17.10	-54.4	-73.8	3.8	7.48e-01	0	27	104	0	76	35872
2026-01-14 03:22:32.17	18.20	17.22	-54.4	-73.8	3.8	7.45e-01	0	27	104	0	76	35873
2026-01-14 03:22:33.18	18.11	17.34	-54.4	-73.8	3.8	7.47e-01	0	27	104	0	76	35845
2026-01-14 03:22:34.19	18.02	17.46	-54.4	-73.8	3.8	7.45e-01	0	27	104	0	76	35860
2026-01-14 03:22:35.20	17.92	17.59	-54.4	-73.8	3.8	7.47e-01	0	27	104	0	76	35905
2026-01-14 03:22:36.21	17.83	17.71	-54.4	-73.8	3.8	7.46e-01	0	27	104	0	76	35872
2026-01-14 03:22:37.22	17.74	17.84	-54.4	-73.8	3.8	7.49e-01	0	27	104	0	76	35848
2026-01-14 03:22:38.23	17.64	17.96	-54.4	-73.8	3.8	7.46e-01	0	27	104	0	76	35876
2026-01-14 03:22:39.24	17.54	18.09	-54.4	-73.8	3.8	7.48e-01	0	27	104	0	76	35784
2026-01-14 03:22:40.25	17.44	18.22	-54.4	-73.8	3.8	7.44e-01	0	27	104	0	76	35771
2026-01-14 03:22:41.26	17.35	18.34	-54.4	-73.8	3.8	7.46e-01	0	27	104	0	76	35779
2026-01-14 03:22:42.27	17.25	18.47	-54.4	-73.8	3.8	7.48e-01	0	27	104	0	76	35818
2026-01-14 03:22:43.27	17.15	18.60	-54.4	-73.8	3.8	7.47e-01	0	27	104	0	76	35836
2026-01-14 03:22:44.28	17.04	18.73	-54.4	-73.8	3.8	7.46e-01	0	27	104	0	76	35877
2026-01-14 03:22:45.29	16.94	18.86	-54.4	-73.8	3.8	7.47e-01	0	27	104	0	76	35820
2026-01-14 03:22:46.30	16.84	18.99	-54.4	-73.8	3.8	7.48e-01	0	27	104	0	76	35879
2026-01-14 03:22:47.31	16.73	19.12	-54.4	-73.8	3.8	7.47e-01	0	27	104	0	76	35850
2026-01-14 03:22:48.32	16.63	19.25	-54.4	-73.8	3.8	7.45e-01	0	27	104	0	76	35831
2026-01-14 03:22:49.32	16.52	19.39	-54.4	-73.8	3.8	7.46e-01	0	27	104	0	76	35743
2026-01-14 03:22:50.33	16.42	19.52	-54.4	-73.8	3.8	7.48e-01	0	27	104	0	76	35837
2026-01-14 03:22:51.34	16.31	19.65	-54.4	-73.8	3.8	7.43e-01	0	27	104	0	76	35827
2026-01-14 03:22:52.35	16.20	19.79	-54.4	-73.8	3.8	7.44e-01	0	27	104	0	76	35910
2026-01-14 03:22:53.36	16.09	19.92	-54.4	-73.8	3.8	7.45e-01	0	27	104	0	76	35894
2026-01-14 03:22:54.37	15.98	20.06	-54.4	-73.8	3.8	7.46e-01	0	27	104	0	76	35818
2026-01-14 03:22:55.38	15.86	20.20	-54.4	-73.8	3.8	7.51e-01	0	27	104	0	76	35848
2026-01-14 03:22:56.39	15.75	20.34	-54.4	-73.8	3.8	7.45e-01	0	27	104	0	76	35822
2026-01-14 03:22:57.40	15.63	20.47	-54.4	-73.8	3.8	7.49e-01	0	27	104	0	76	35856
2026-01-14 03:22:58.41	15.52	20.61	-54.4	-73.8	3.8	7.47e-01	0	27	104	0	76	35790
2026-01-14 03:22:59.42	15.40	20.75	-54.4	-73.8	3.8	7.42e-01	0	27	104	0	76	35792
2026-01-14 03:23:00.43	15.28	20.89	-54.4	-73.8	3.8	7.46e-01	0	27	104	0	76	35808
2026-01-14 03:23:01.44	15.16	21.04	-54.4	-73.8	3.8	7.45e-01	0	27	104	0	76	35856
2026-01-14 03:23:02.45	15.04	21.18	-54.4	-73.8	3.8	7.44e-01	0	27	104	0	76	35853
2026-01-14 03:23:03.45	14.92	21.32	-54.4	-73.8	3.8	7.47e-01	0	27	104	0	76	35831
2026-01-14 03:23:04.46	14.80	21.46	-54.4	-73.8	3.8	7.45e-01	0	27	104	0	76	35959
2026-01-14 03:23:05.47	14.67	21.61	-54.4	-73.8	3.8	7.48e-01	0	27	104	0	76	35874
2026-01-14 03:23:06.48	14.55	21.75	-54.4	-73.8	3.8	7.44e-01	0	27	104	0	76	35907
2026-01-14 03:23:07.49	14.42	21.90	-54.4	-73.8	3.8	7.47e-01	0	27	104	0	76	35907
2026-01-14 03:23:08.50	14.29	22.04	-54.4	-73.8	3.8	7.48e-01	0	27	104	0	76	35898
2026-01-14 03:23:09.50	14.16	22.19	-54.4	-73.8	3.8	7.48e-01	0	27	104	0	76	35896
2026-01-14 03:23:10.51	14.03	22.34	-54.4	-73.8	3.8	7.48e-01	0	27	104	0	76	35962
2026-01-14 03:23:11.52	13.90	22.49	-54.4	-73.8	3.8	7.44e-01	0	27	104	0	76	35983
2026-01-14 03:23:12.53	13.77	22.64	-54.4	-73.8	3.8	7.47e-01	0	27	104	0	76	35970
2026-01-14 03:23:13.54	13.63	22.79	-54.4	-73.8	3.8	7.48e-01	0	27	104	0	76	35899
2026-01-14 03:23:14.55	13.50	22.94	-54.4	-73.8	3.8	7.41e-01	0	27	104	0	76	35922
2026-01-14 03:23:15.56	13.36	23.09	-54.4	-73.8	3.8	7.48e-01	0	27	104	0	76	35897
2026-01-14 03:23:16.57	13.22	23.24	-54.4	-73.8	3.8	7.45e-01	0	27	104	0	76	35853
2026-01-14 03:23:17.58	13.08	23.40	-54.4	-73.8	3.8	7.44e-01	0	27	104	0	76	35915
2026-01-14 03:23:18.59	12.94	23.55	-54.4	-73.8	3.8	7.45e-01	0	27	104	0	76	35921
2026-01-14 03:23:19.59	12.79	23.71	-54.4	-73.8	3.8	7.46e-01	0	27	104	0	76	35853
2026-01-14 03:23:20.60	12.65	23.86	-54.4	-73.8	3.8	7.46e-01	0	27	104	0	76	35884
2026-01-14 03:23:21.61	12.50	24.02	-54.4	-73.8	3.8	7.46e-01	0	27	104	0	76	35852
2026-01-14 03:23:22.62	12.35	24.18	-54.4	-73.8	3.9	7.44e-01	0	27	104	0	76	35844
2026-01-14 03:23:23.63	12.20	24.34	-54.4	-73.8	3.8	7.49e-01	0	27	104	0	76	35936
2026-01-14 03:23:24.64	12.05	24.50	-54.4	-73.8	3.8	7.46e-01	0	27	104	0	76	35935
2026-01-14 03:23:25.65	11.90	24.66	-54.4	-73.8	3.8	7.45e-01	0	27	104	0	76	35824
2026-01-14 03:23:26.66	11.74	24.82	-54.4	-73.8	3.8	7.48e-01	0	27	104	0	76	35856
2026-01-14 03:23:27.67	11.59	24.98	-54.4	-73.8	3.8	7.48e-01	0	27	104	0	76	35817
2026-01-14 03:23:28.68	11.43	25.14	-54.4	-73.8	3.8	7.44e-01	0	27	104	0	76	35878
2026-01-14 03:23:29.69	11.27	25.31	-54.4	-73.8	3.8	7.43e-01	0	27	104	0	76	35802
2026-01-14 03:23:30.70	11.10	25.47	-54.4	-73.8	3.8	7.47e-01	0	27	104	0	76	35804
2026-01-14 03:23:31.71	10.94	25.64	-54.4	-73.8	3.8	7.47e-01	0	27	104	0	76	35774
2026-01-14 03:23:32.72	10.77	25.80	-54.4	-73.8	3.8	7.44e-01	0	27	104	0	76	35941
2026-01-14 03:23:33.72	10.61	25.97	-54.4	-73.8	3.8	7.50e-01	0	27	104	0	76	35916
2026-01-14 03:23:34.73	10.44	26.14	-54.4	-73.8	3.8	7.48e-01	0	27	104	0	76	35942
2026-01-14 03:23:35.74	10.27	26.31	-54.4	-73.8	3.8	7.45e-01	0	27	104	0	76	35923
2026-01-14 03:23:36.75	10.09	26.48	-54.4	-73.8	3.8	7.43e-01	0	27	104	0	76	35880
2026-01-14 03:23:37.76	9.92	26.65	-54.4	-73.8	3.8	7.46e-01	0	27	104	0	76	35847
2026-01-14 03:23:38.77	9.74	26.82	-54.4	-73.8	3.8	7.45e-01	0	27	104	0	76	35890
2026-01-14 03:23:39.78	9.56	26.99	-54.4	-73.8	3.8	7.46e-01	0	27	104	0	76	35900
2026-01-14 03:23:40.79	9.38	27.16	-54.4	-73.8	3.8	7.48e-01	0	27	104	0	76	35815
2026-01-14 03:23:41.80	9.20	27.34	-54.4	-73.8	3.8	7.44e-01	0	27	104	0	76	35814
2026-01-14 03:23:42.81	9.01	27.51	-54.4	-73.8	3.8	7.47e-01	0	27	104	0	76	35850
2026-01-14 03:23:43.82	8.82	27.69	-54.4	-73.8	3.8	7.49e-01	0	27	104	0	76	35801
2026-01-14 03:23:44.82	8.64	27.86	-54.4	-73.8	3.8	7.48e-01	0	27	104	0	76	35788
2026-01-14 03:23:45.83	8.44	28.04	-54.4	-73.8	3.8	7.45e-01	0	27	104	0	76	35900
2026-01-14 03:23:46.84	8.25	28.22	-54.4	-73.8	3.8	7.47e-01	0	27	104	0	76	35872
2026-01-14 03:23:47.85	8.05	28.40	-54.4	-73.8	3.8	7.44e-01	0	27	104	0	76	35902
2026-01-14 03:23:48.86	7.85	28.58	-54.4	-73.8	3.8	7.47e-01	0	27	104	0	76	35853
2026-01-14 03:23:49.87	7.65	28.76	-54.4	-73.8	3.8	7.48e-01	0	27	104	0	76	35861
2026-01-14 03:23:50.88	7.45	28.94	-54.4	-73.8	3.8	7.46e-01	0	27	104	0	76	35870
2026-01-14 03:23:51.89	7.24	29.13	-54.4	-73.8	3.8	7.46e-01	0	27	104	0	76	35880
2026-01-14 03:23:52.90	7.03	29.31	-54.4	-73.8	3.8	7.46e-01	0	27	104	0	76	35824
2026-01-14 03:23:53.91	6.82	29.49	-54.4	-73.8	3.8	7.47e-01	0	27	104	0	76	35775
2026-01-14 03:23:54.92	6.61	29.68	-54.4	-73.8	3.8	7.47e-01	0	27	104	0	76	35739
2026-01-14 03:23:55.93	6.39	29.87	-54.4	-73.8	3.8	7.46e-01	0	27	104	0	76	35797
2026-01-14 03:23:56.94	6.17	30.05	-54.4	-73.8	3.8	7.47e-01	0	27	104	0	76	35923
2026-01-14 03:23:57.94	5.95	30.24	-54.4	-73.8	3.8	7.48e-01	0	27	104	0	76	35912
2026-01-14 03:23:58.95	5.73	30.43	-54.4	-73.8	3.8	7.45e-01	0	27	104	0	76	35907
2026-01-14 03:23:59.96	5.50	30.62	-54.4	-73.8	3.8	7.45e-01	0	27	104	0	76	35854
2026-01-14 03:24:00.97	5.27	30.81	-54.4	-73.8	3.8	7.45e-01	0	27	104	0	76	35879
2026-01-14 03:24:01.98	5.04	31.00	-54.4	-73.8	3.8	7.48e-01	0	27	104	0	76	35882
2026-01-14 03:24:02.99	4.80	31.19	-54.4	-73.8	3.8	7.48e-01	0	27	104	0	76	35902
2026-01-14 03:24:04.00	4.56	31.39	-54.4	-73.8	3.8	7.44e-01	0	27	104	0	76	35892
2026-01-14 03:24:05.00	4.32	31.58	-54.4	-73.8	3.8	7.48e-01	0	27	104	0	76	35898
2026-01-14 03:24:06.02	4.07	31.77	-54.4	-73.8	3.8	7.42e-01	0	27	104	0	76	35845
2026-01-14 03:24:07.03	3.83	31.97	-54.4	-73.8	3.8	7.43e-01	0	27	104	0	76	35936
2026-01-14 03:24:08.04	3.57	32.17	-54.4	-73.8	3.8	7.46e-01	0	27	104	0	76	35848
2026-01-14 03:24:09.05	3.32	32.36	-54.4	-73.8	3.8	7.47e-01	0	27	104	0	76	35855
2026-01-14 03:24:10.05	3.07	32.56	-54.4	-73.8	3.8	7.45e-01	0	27	104	0	76	35875
2026-01-14 03:24:11.06	2.80	32.76	-54.4	-73.8	3.8	7.45e-01	0	27	104	0	76	35818
2026-01-14 03:24:12.07	2.54	32.96	-54.4	-73.8	3.8	7.43e-01	0	27	104	0	76	35807
2026-01-14 03:24:13.07	2.27	33.15	-54.4	-73.8	3.8	7.45e-01	0	27	104	0	76	35857
2026-01-14 03:24:14.08	2.00	33.36	-54.4	-73.8	3.8	7.45e-01	0	27	104	0	76	35822
2026-01-14 03:24:15.09	1.73	33.56	-54.4	-73.8	3.8	7.45e-01	0	27	104	0	76	35744
2026-01-14 03:24:16.10	1.45	33.76	-54.4	-73.8	3.8	7.45e-01	0	27	104	0	76	35835
2026-01-14 03:24:17.11	1.17	33.96	-54.4	-73.8	3.8	7.48e-01	0	27	104	0	76	35858
2026-01-14 03:24:18.12	0.88	34.16	-54.4	-73.8	3.8	7.45e-01	0	27	104	0	76	35832
2026-01-14 03:24:19.12	0.60	34.37	-54.4	-73.8	3.8	7.47e-01	0	27	104	0	76	35779
2026-01-14 03:24:20.13	0.30	34.57	-54.4	-73.8	3.8	7.48e-01	0	27	104	0	76	35857
2026-01-14 03:24:21.14	0.01	34.78	-54.4	-73.8	3.8	7.49e-01	0	27	104	0	76	35793
2026-01-14 03:24:22.15	359.71	34.98	-54.4	-73.8	3.8	7.48e-01	0	27	104	0	76	35860
2026-01-14 03:24:23.16	359.40	35.19	-54.4	-73.8	3.8	7.44e-01	0	27	104	0	76	35887
2026-01-14 03:24:24.17	359.09	35.39	-54.4	-73.8	3.8	7.48e-01	0	27	104	0	76	35885
2026-01-14 03:24:25.18	358.78	35.60	-54.4	-73.8	3.8	7.50e-01	0	27	104	0	76	35856
2026-01-14 03:24:26.19	358.46	35.81	-54.4	-73.8	3.8	7.44e-01	0	27	104	0	76	35898
2026-01-14 03:24:27.20	358.14	36.02	-54.4	-73.8	3.8	7.45e-01	0	27	104	0	76	35896
2026-01-14 03:24:28.21	357.82	36.23	-54.4	-73.8	3.8	7.49e-01	0	27	104	0	76	35991
2026-01-14 03:24:29.21	357.49	36.43	-54.4	-73.8	3.8	7.46e-01	0	27	104	0	76	35894
2026-01-14 03:24:30.22	357.16	36.64	-54.4	-73.8	3.8	7.46e-01	0	27	104	0	76	35854
2026-01-14 03:24:31.23	356.82	36.85	-54.4	-73.8	3.8	7.48e-01	0	27	104	0	76	35910
2026-01-14 03:24:32.24	356.48	37.06	-54.4	-73.8	3.8	7.47e-01	0	27	104	0	76	35942
2026-01-14 03:24:33.25	356.13	37.27	-54.4	-73.8	3.8	7.46e-01	0	27	104	0	76	35945
2026-01-14 03:24:34.26	355.78	37.48	-54.4	-73.8	3.8	7.43e-01	0	27	104	0	76	35912
2026-01-14 03:24:35.27	355.42	37.69	-54.4	-73.8	3.8	7.46e-01	0	27	104	0	76	36021
2026-01-14 03:24:36.27	355.06	37.90	-54.4	-73.8	3.8	7.50e-01	0	27	104	0	76	35927
2026-01-14 03:24:37.28	354.69	38.11	-54.4	-73.8	3.8	7.45e-01	0	27	104	0	76	36035
2026-01-14 03:24:38.29	354.32	38.32	-54.4	-73.8	3.8	7.48e-01	0	27	104	0	76	35896
2026-01-14 03:24:39.30	353.95	38.53	-54.4	-73.8	3.8	7.45e-01	0	27	104	0	76	35936
2026-01-14 03:24:40.31	353.56	38.74	-54.4	-73.8	3.8	7.48e-01	0	27	104	0	76	35969
2026-01-14 03:24:41.32	353.18	38.95	-54.4	-73.8	3.8	7.48e-01	0	27	104	0	76	35881
2026-01-14 03:24:42.32	352.79	39.16	-54.4	-73.8	3.8	7.47e-01	0	27	104	0	76	36005
2026-01-14 03:24:43.33	352.39	39.37	-54.4	-73.8	3.8	7.46e-01	0	27	104	0	76	36018
2026-01-14 03:24:44.34	351.99	39.58	-54.4	-73.8	3.8	7.47e-01	0	27	104	0	76	35968
2026-01-14 03:24:45.35	351.58	39.79	-54.4	-73.8	3.8	7.48e-01	0	27	104	0	76	36001
2026-01-14 03:24:46.36	351.17	40.00	-54.4	-73.8	3.8	7.46e-01	0	27	104	0	76	35995
2026-01-14 03:24:47.37	350.75	40.21	-54.4	-73.8	3.8	7.47e-01	0	27	104	0	76	35923
2026-01-14 03:24:48.38	350.33	40.42	-54.4	-73.8	3.8	7.46e-01	0	27	104	0	76	35924
2026-01-14 03:24:49.38	349.90	40.62	-54.4	-73.8	3.8	7.46e-01	0	27	104	0	76	35827
2026-01-14 03:24:50.39	349.46	40.83	-54.4	-73.8	3.8	7.43e-01	0	27	104	0	76	35985
2026-01-14 03:24:51.40	349.02	41.04	-54.4	-73.8	3.8	7.49e-01	0	27	104	0	76	35980
2026-01-14 03:24:52.41	348.58	41.25	-54.4	-73.8	3.8	7.43e-01	0	27	104	0	76	35818
2026-01-14 03:24:53.42	348.12	41.45	-54.4	-73.8	3.8	7.44e-01	0	27	104	0	76	35978
2026-01-14 03:24:54.43	347.66	41.66	-54.4	-73.8	3.8	7.46e-01	0	27	104	0	76	35963
2026-01-14 03:24:55.43	347.20	41.86	-54.4	-73.8	3.8	7.43e-01	0	27	104	0	76	35846
2026-01-14 03:24:56.44	346.73	42.06	-54.4	-73.8	3.8	7.48e-01	0	28	104	0	76	35873
2026-01-14 03:24:57.45	346.26	42.26	-54.4	-73.8	3.8	7.46e-01	0	27	104	0	76	35919
2026-01-14 03:24:58.46	345.77	42.46	-54.4	-73.8	3.8	7.45e-01	0	27	104	0	76	35900
2026-01-14 03:24:59.47	345.28	42.66	-54.4	-73.8	3.8	7.48e-01	0	27	104	0	76	35977
2026-01-14 03:25:00.48	344.79	42.86	-54.4	-73.8	3.8	7.46e-01	0	27	104	0	76	35941
2026-01-14 03:25:01.48	344.29	43.06	-54.4	-73.8	3.8	7.44e-01	0	27	104	0	76	35864
2026-01-14 03:25:02.49	343.78	43.25	-54.4	-73.8	3.8	7.47e-01	0	27	104	0	76	36002
2026-01-14 03:25:03.50	343.27	43.45	-54.4	-73.8	3.8	7.46e-01	0	27	104	0	76	35989
2026-01-14 03:25:04.51	342.75	43.64	-54.4	-73.8	3.8	7.47e-01	0	27	104	0	76	35852
2026-01-14 03:25:05.52	342.22	43.83	-54.4	-73.8	3.8	7.45e-01	0	27	104	0	76	35870
2026-01-14 03:25:06.53	341.68	44.02	-54.4	-73.8	3.8	7.47e-01	0	27	104	0	76	35798
2026-01-14 03:25:07.54	341.14	44.21	-54.4	-73.8	3.8	7.51e-01	0	27	104	0	76	35992
2026-01-14 03:25:08.54	340.60	44.39	-54.4	-73.8	3.8	7.46e-01	0	27	104	0	76	35857
2026-01-14 03:25:09.55	340.05	44.57	-54.4	-73.8	3.8	7.44e-01	0	27	104	0	76	35939
2026-01-14 03:25:10.56	339.49	44.76	-54.4	-73.8	3.8	7.48e-01	0	27	104	0	76	35927
2026-01-14 03:25:11.57	338.92	44.93	-54.4	-73.8	3.8	7.49e-01	0	27	104	0	76	35916
2026-01-14 03:25:12.58	338.35	45.11	-54.4	-73.8	3.8	7.48e-01	0	27	104	0	76	35975
2026-01-14 03:25:13.59	337.77	45.29	-54.4	-73.8	3.8	7.45e-01	0	27	104	0	76	35949
2026-01-14 03:25:14.59	337.19	45.46	-54.4	-73.8	3.8	7.46e-01	0	27	104	0	76	35963
2026-01-14 03:25:15.60	336.60	45.63	-54.4	-73.8	3.8	7.49e-01	0	27	104	0	76	35942
2026-01-14 03:25:16.61	336.00	45.79	-54.4	-73.8	3.8	7.46e-01	0	27	104	0	76	36003
2026-01-14 03:25:17.62	335.39	45.96	-54.4	-73.8	3.8	7.45e-01	0	27	104	0	76	35989
2026-01-14 03:25:18.63	334.78	46.12	-54.4	-73.8	3.8	7.50e-01	0	27	104	0	76	36009
2026-01-14 03:25:19.64	334.16	46.28	-54.4	-73.8	3.8	7.45e-01	0	27	104	0	76	35948
2026-01-14 03:25:20.65	333.54	46.43	-54.4	-73.8	3.8	7.45e-01	0	27	104	0	76	35930
2026-01-14 03:25:21.65	332.92	46.58	-54.4	-73.8	3.8	7.45e-01	0	27	104	0	76	35892
2026-01-14 03:25:22.66	332.28	46.73	-54.4	-73.8	3.8	7.48e-01	0	27	104	0	76	35876
2026-01-14 03:25:23.67	331.64	46.88	-54.4	-73.8	3.8	7.44e-01	0	27	104	0	76	35955
2026-01-14 03:25:24.68	330.99	47.02	-54.4	-73.8	3.8	7.46e-01	0	27	104	0	76	36033
2026-01-14 03:25:25.69	330.33	47.16	-54.4	-73.8	3.8	7.48e-01	0	27	104	0	76	35970
2026-01-14 03:25:26.70	329.67	47.29	-54.4	-73.8	3.8	7.46e-01	0	27	104	0	76	35989
2026-01-14 03:25:27.71	329.01	47.43	-54.4	-73.8	3.8	7.44e-01	0	27	104	0	76	35961
2026-01-14 03:25:28.72	328.33	47.55	-54.4	-73.8	3.9	7.47e-01	0	27	104	0	76	35888
2026-01-14 03:25:29.73	327.66	47.68	-54.4	-73.8	3.8	7.42e-01	0	27	104	0	76	35945
2026-01-14 03:25:30.73	326.98	47.80	-54.4	-73.8	3.8	7.45e-01	0	27	104	0	76	35979
2026-01-14 03:25:31.74	326.29	47.91	-54.4	-73.8	3.8	7.43e-01	0	27	104	0	76	35930
2026-01-14 03:25:32.75	325.60	48.02	-54.4	-73.8	3.8	7.45e-01	0	27	104	0	76	35941
2026-01-14 03:25:33.76	324.90	48.13	-54.4	-73.8	3.8	7.46e-01	0	27	104	0	76	35971
2026-01-14 03:25:34.77	324.19	48.23	-54.4	-73.8	3.8	7.42e-01	0	27	104	0	76	35936
2026-01-14 03:25:35.78	323.49	48.33	-54.4	-73.8	3.8	7.45e-01	0	27	104	0	76	35914
2026-01-14 03:25:36.79	322.77	48.43	-54.4	-73.8	3.8	7.45e-01	0	27	104	0	76	35915
2026-01-14 03:25:37.80	322.06	48.52	-54.4	-73.8	3.8	7.44e-01	0	27	104	0	76	35869
2026-01-14 03:25:38.80	321.34	48.60	-54.4	-73.8	3.8	7.49e-01	0	27	104	0	76	35839
2026-01-14 03:25:39.81	320.62	48.68	-54.4	-73.8	3.8	7.43e-01	0	27	104	0	76	35878
2026-01-14 03:25:40.82	319.89	48.75	-54.4	-73.8	3.8	7.45e-01	0	27	104	0	76	35910
2026-01-14 03:25:41.83	319.16	48.83	-54.4	-73.8	3.8	7.44e-01	0	27	104	0	76	35987
2026-01-14 03:25:42.84	318.42	48.89	-54.4	-73.8	3.8	7.49e-01	0	27	104	0	76	35886
2026-01-14 03:25:43.85	317.68	48.95	-54.4	-73.8	3.8	7.45e-01	0	27	104	0	76	35939
2026-01-14 03:25:44.86	316.94	49.01	-54.4	-73.8	3.8	7.45e-01	0	27	104	0	76	35974
2026-01-14 03:25:45.87	316.20	49.06	-54.4	-73.8	3.8	7.45e-01	0	27	104	0	76	35952
2026-01-14 03:25:46.88	315.45	49.10	-54.4	-73.8	3.8	7.48e-01	0	27	104	0	76	35905
2026-01-14 03:25:47.89	314.70	49.14	-54.4	-73.8	3.8	7.45e-01	0	27	104	0	76	35881
2026-01-14 03:25:48.90	313.95	49.18	-54.4	-73.8	3.8	7.44e-01	0	27	104	0	76	36021
2026-01-14 03:25:49.91	313.20	49.21	-54.4	-73.8	3.8	7.47e-01	0	27	104	0	76	35809
2026-01-14 03:25:50.91	312.45	49.23	-54.4	-73.8	3.8	7.47e-01	0	27	104	0	76	35830
2026-01-14 03:25:51.92	311.70	49.25	-54.4	-73.8	3.8	7.46e-01	0	27	104	0	76	35901
2026-01-14 03:25:52.93	310.94	49.27	-54.4	-73.8	3.8	7.46e-01	0	27	104	0	76	35981
2026-01-14 03:25:53.95	310.18	49.27	-54.4	-73.8	3.8	7.46e-01	0	27	104	0	76	35941
2026-01-14 03:25:54.95	309.43	49.28	-54.4	-73.8	3.8	7.47e-01	0	27	104	0	76	35952
2026-01-14 03:25:55.96	308.67	49.28	-54.4	-73.8	3.8	7.50e-01	0	27	104	0	76	35933
2026-01-14 03:25:56.98	307.91	49.27	-54.4	-73.8	3.8	7.45e-01	0	27	104	0	76	35861
2026-01-14 03:25:57.98	307.16	49.26	-54.4	-73.8	3.8	7.45e-01	0	27	104	0	76	35840
2026-01-14 03:25:58.99	306.41	49.24	-54.4	-73.8	3.8	7.49e-01	0	27	104	0	76	35904
2026-01-14 03:26:00.00	305.65	49.22	-54.4	-73.8	3.8	7.48e-01	0	27	104	0	76	35736
2026-01-14 03:26:01.01	304.90	49.19	-54.4	-73.8	3.8	7.49e-01	0	27	104	0	76	35912
2026-01-14 03:26:02.02	304.15	49.15	-54.4	-73.8	3.8	7.47e-01	0	27	104	0	76	35930
2026-01-14 03:26:03.02	303.41	49.12	-54.4	-73.8	3.8	7.47e-01	0	27	104	0	76	35998
2026-01-14 03:26:04.04	302.65	49.07	-54.4	-73.8	3.8	7.48e-01	0	27	104	0	76	35810
2026-01-14 03:26:05.04	301.91	49.02	-54.4	-73.8	3.8	7.44e-01	0	27	104	0	76	35901
2026-01-14 03:26:06.05	301.17	48.97	-54.4	-73.8	3.8	7.45e-01	0	27	104	0	76	35811
2026-01-14 03:26:07.06	300.43	48.91	-54.4	-73.8	3.8	7.43e-01	0	28	104	0	76	35975
2026-01-14 03:26:08.07	299.69	48.85	-54.4	-73.8	3.8	7.46e-01	0	27	104	0	76	35926
2026-01-14 03:26:09.08	298.96	48.78	-54.4	-73.8	3.8	7.45e-01	0	27	104	0	76	35861
2026-01-14 03:26:10.08	298.24	48.70	-54.4	-73.8	3.8	7.44e-01	0	27	104	0	76	35699
2026-01-14 03:26:11.09	297.51	48.63	-54.4	-73.8	3.8	7.44e-01	0	27	104	0	76	35830
2026-01-14 03:26:12.10	296.79	48.54	-54.4	-73.8	3.8	7.46e-01	0	27	104	0	76	35904
2026-01-14 03:26:13.11	296.07	48.45	-54.4	-73.8	3.8	7.47e-01	0	27	104	0	76	35860
2026-01-14 03:26:14.12	295.35	48.36	-54.4	-73.8	3.8	7.47e-01	0	27	104	0	76	35944
2026-01-14 03:26:15.13	294.64	48.26	-54.4	-73.8	3.8	7.49e-01	0	27	104	0	76	35949
2026-01-14 03:26:16.14	293.94	48.16	-54.4	-73.8	3.8	7.47e-01	0	27	104	0	76	35992
2026-01-14 03:26:17.15	293.24	48.06	-54.4	-73.8	3.8	7.50e-01	0	27	104	0	76	36105
2026-01-14 03:26:18.16	292.54	47.95	-54.4	-73.8	3.8	7.46e-01	0	27	104	0	76	35895
2026-01-14 03:26:19.17	291.85	47.83	-54.4	-73.8	3.8	7.45e-01	0	27	104	0	76	35975
2026-01-14 03:26:20.18	291.17	47.71	-54.4	-73.8	3.8	7.46e-01	0	27	104	0	76	36022
2026-01-14 03:26:21.18	290.49	47.59	-54.4	-73.8	3.8	7.44e-01	0	27	104	0	76	35928
2026-01-14 03:26:22.19	289.82	47.46	-54.4	-73.8	3.8	7.44e-01	0	27	104	0	76	35884
2026-01-14 03:26:23.20	289.15	47.33	-54.4	-73.8	3.8	7.43e-01	0	27	104	0	76	36004
2026-01-14 03:26:24.22	288.48	47.20	-54.4	-73.8	3.8	7.48e-01	0	27	104	0	76	35971
2026-01-14 03:26:25.23	287.82	47.06	-54.4	-73.8	3.8	7.44e-01	0	27	104	0	76	35848
2026-01-14 03:26:26.23	287.18	46.92	-54.4	-73.8	3.8	7.46e-01	0	27	104	0	76	35864
2026-01-14 03:26:27.24	286.53	46.78	-54.4	-73.8	3.8	7.47e-01	0	27	104	0	76	35834
2026-01-14 03:26:28.25	285.89	46.63	-54.4	-73.8	3.8	7.51e-01	0	27	104	0	76	35953
2026-01-14 03:26:29.26	285.26	46.48	-54.4	-73.8	3.8	7.47e-01	0	27	104	0	76	35947
2026-01-14 03:26:30.27	284.63	46.32	-54.4	-73.8	3.8	7.48e-01	0	27	104	0	76	35730
2026-01-14 03:26:31.28	284.01	46.16	-54.4	-73.8	3.8	7.46e-01	0	27	104	0	76	35924
2026-01-14 03:26:32.28	283.40	46.00	-54.4	-73.8	3.8	7.44e-01	0	27	104	0	76	35811
2026-01-14 03:26:33.29	282.79	45.84	-54.4	-73.8	3.8	7.45e-01	0	27	104	0	76	35732
2026-01-14 03:26:34.30	282.19	45.67	-54.4	-73.8	3.8	7.47e-01	0	27	104	0	76	35864
2026-01-14 03:26:35.31	281.60	45.50	-54.4	-73.8	3.8	7.47e-01	0	27	104	0	76	35811
2026-01-14 03:26:36.32	281.01	45.33	-54.4	-73.8	3.8	7.44e-01	0	27	104	0	76	35955
2026-01-14 03:26:37.33	280.43	45.16	-54.4	-73.8	3.8	7.44e-01	0	27	104	0	76	35741
2026-01-14 03:26:38.34	279.85	44.98	-54.4	-73.8	3.8	7.45e-01	0	27	104	0	76	35876
2026-01-14 03:26:39.35	279.28	44.80	-54.4	-73.8	3.8	7.47e-01	0	27	104	0	76	36045
2026-01-14 03:26:40.36	278.72	44.62	-54.4	-73.8	3.8	7.46e-01	0	27	104	0	76	35883
2026-01-14 03:26:41.37	278.16	44.44	-54.4	-73.8	3.8	7.46e-01	0	27	104	0	76	35824
2026-01-14 03:26:42.38	277.61	44.25	-54.4	-73.8	3.8	7.45e-01	0	27	104	0	76	35973
2026-01-14 03:26:43.39	277.07	44.07	-54.4	-73.8	3.8	7.48e-01	0	27	104	0	76	35900
2026-01-14 03:26:44.40	276.53	43.88	-54.4	-73.8	3.8	7.46e-01	0	27	104	0	76	35728
2026-01-14 03:26:45.40	276.01	43.69	-54.4	-73.8	3.8	7.45e-01	0	27	104	0	76	35696
2026-01-14 03:26:46.41	275.49	43.49	-54.4	-73.8	3.8	7.47e-01	0	27	104	0	76	35881
2026-01-14 03:26:47.42	274.97	43.30	-54.4	-73.8	3.8	7.45e-01	0	27	104	0	76	35706
2026-01-14 03:26:48.42	274.46	43.11	-54.4	-73.8	3.8	7.44e-01	0	27	104	0	76	35911
2026-01-14 03:26:49.43	273.96	42.91	-54.4	-73.8	3.8	7.47e-01	0	27	104	0	76	35845
2026-01-14 03:26:50.44	273.46	42.71	-54.4	-73.8	3.8	7.42e-01	0	28	104	0	76	35839
2026-01-14 03:26:51.44	272.97	42.51	-54.4	-73.7	3.8	7.45e-01	0	27	104	0	76	35473
2026-01-14 03:26:52.45	272.49	42.31	-54.4	-73.7	3.8	7.48e-01	0	27	104	0	76	35591
2026-01-14 03:26:53.46	272.01	42.11	-54.4	-73.8	3.8	7.46e-01	0	27	104	0	76	35907
2026-01-14 03:26:54.47	271.53	41.91	-54.4	-73.7	3.8	7.49e-01	0	27	104	0	76	35658
2026-01-14 03:26:55.48	271.07	41.70	-54.4	-73.8	3.8	7.46e-01	0	27	104	0	76	35859
2026-01-14 03:26:56.49	270.60	41.50	-54.4	-73.8	3.8	7.48e-01	0	27	104	0	76	35936
2026-01-14 03:26:57.49	270.15	41.29	-54.4	-73.8	3.8	7.46e-01	0	27	104	0	76	35884
2026-01-14 03:26:58.50	269.70	41.09	-54.4	-73.8	3.8	7.48e-01	0	27	104	0	76	35949
2026-01-14 03:26:59.51	269.26	40.88	-54.4	-73.8	3.8	7.45e-01	0	27	104	0	76	35719
2026-01-14 03:27:00.52	268.82	40.67	-54.4	-73.7	3.9	7.48e-01	0	27	104	0	76	35631
2026-01-14 03:27:01.53	268.39	40.46	-54.4	-73.8	3.8	7.48e-01	0	27	104	0	76	35839
2026-01-14 03:27:02.54	267.96	40.25	-54.4	-73.8	3.8	7.47e-01	0	27	104	0	76	35865
2026-01-14 03:27:03.55	267.54	40.04	-54.4	-73.8	3.8	7.47e-01	0	27	104	0	76	36025
2026-01-14 03:27:04.56	267.12	39.84	-54.4	-73.8	3.8	7.47e-01	0	27	104	0	76	35931
2026-01-14 03:27:05.57	266.71	39.62	-54.4	-73.8	3.8	7.47e-01	0	27	104	0	76	35907
2026-01-14 03:27:06.58	266.31	39.41	-54.4	-73.8	3.8	7.45e-01	0	27	104	0	76	35958
2026-01-14 03:27:07.59	265.91	39.20	-54.4	-73.7	3.8	7.48e-01	0	27	104	0	76	35640
2026-01-14 03:27:08.60	265.52	38.99	-54.4	-73.8	3.8	7.46e-01	0	27	104	0	76	35760
2026-01-14 03:27:09.60	265.13	38.78	-54.3	-73.5	3.9	7.45e-01	0	27	104	0	76	34585
2026-01-14 03:27:10.61	264.75	38.57	-54.3	-73.5	3.8	7.48e-01	0	27	104	0	76	34694
2026-01-14 03:27:11.62	264.37	38.36	-54.3	-73.6	3.8	7.47e-01	0	28	104	0	76	35234
2026-01-14 03:27:12.63	264.00	38.15	-54.3	-73.6	3.9	7.47e-01	0	27	104	0	76	34906
2026-01-14 03:27:13.64	263.63	37.94	-54.4	-73.7	3.8	7.47e-01	0	28	104	0	76	35318
2026-01-14 03:27:14.65	263.26	37.73	-54.3	-73.5	3.8	7.47e-01	0	28	104	0	76	34596
2026-01-14 03:27:15.65	262.91	37.52	-54.2	-73.3	3.8	7.48e-01	0	27	104	0	76	34058
2026-01-14 03:27:16.66	262.55	37.31	-54.0	-73.1	3.8	7.43e-01	0	27	104	0	76	33003
2026-01-14 03:27:17.67	262.20	37.10	-53.9	-72.8	3.8	7.46e-01	0	28	104	0	76	32029
2026-01-14 03:27:18.68	261.86	36.89	-53.9	-73.0	3.8	7.47e-01	0	27	104	0	76	32627
2026-01-14 03:27:19.69	261.52	36.68	-54.0	-73.1	3.8	7.46e-01	0	28	104	0	76	32997
2026-01-14 03:27:20.70	261.18	36.47	-54.2	-73.4	3.8	7.46e-01	0	28	104	0	76	34367
2026-01-14 03:27:21.71	260.85	36.26	-54.4	-73.6	3.8	7.50e-01	0	28	104	0	76	35150
2026-01-14 03:27:22.72	260.52	36.05	-54.4	-73.8	3.8	7.49e-01	0	27	104	0	76	35761
2026-01-14 03:27:23.73	260.20	35.84	-54.4	-73.7	3.8	7.48e-01	0	27	104	0	76	35676
2026-01-14 03:27:24.74	259.88	35.63	-54.4	-73.7	3.8	7.48e-01	0	28	104	0	76	35525
2026-01-14 03:27:25.75	259.57	35.42	-54.4	-73.8	3.8	7.44e-01	0	28	104	0	76	35917
2026-01-14 03:27:26.76	259.26	35.22	-54.4	-73.8	3.8	7.46e-01	0	28	104	0	76	35845
2026-01-14 03:27:27.77	258.95	35.01	-54.4	-73.8	3.8	7.49e-01	0	28	104	0	76	35821
2026-01-14 03:27:28.77	258.65	34.80	-54.4	-73.8	3.8	7.45e-01	0	27	104	0	76	35828
2026-01-14 03:27:29.78	258.35	34.60	-54.4	-73.8	3.8	7.48e-01	0	27	104	0	76	35911
2026-01-14 03:27:30.79	258.06	34.39	-54.5	-73.8	3.8	7.45e-01	0	27	104	0	76	35984
2026-01-14 03:27:31.80	257.77	34.19	-54.4	-73.8	3.8	7.45e-01	0	28	104	0	76	35924
2026-01-14 03:27:32.81	257.48	33.99	-54.5	-73.8	3.8	7.43e-01	0	28	104	0	76	36062
2026-01-14 03:27:33.82	257.19	33.78	-54.4	-73.8	3.8	7.46e-01	0	28	104	0	76	36038
2026-01-14 03:27:34.83	256.92	33.58	-54.4	-73.8	3.8	7.49e-01	0	27	104	0	76	35830
2026-01-14 03:27:35.83	256.64	33.38	-54.4	-73.8	3.8	7.47e-01	0	27	104	0	76	36027
2026-01-14 03:27:36.84	256.37	33.18	-54.4	-73.8	3.8	7.46e-01	0	27	104	0	76	35922
2026-01-14 03:27:37.85	256.10	32.98	-54.4	-73.8	3.8	7.47e-01	0	27	104	0	76	35909
2026-01-14 03:27:38.86	255.83	32.78	-54.4	-73.8	3.8	7.50e-01	0	27	104	0	76	35899
2026-01-14 03:27:39.87	255.57	32.58	-54.4	-73.8	3.8	7.49e-01	0	27	104	0	76	35798
2026-01-14 03:27:40.88	255.31	32.38	-54.4	-73.8	3.8	7.47e-01	0	27	104	0	76	35900
2026-01-14 03:27:41.89	255.06	32.18	-54.4	-73.8	3.8	7.45e-01	0	28	104	0	76	35856
2026-01-14 03:27:42.89	254.81	31.99	-54.4	-73.8	3.8	7.46e-01	0	28	104	0	76	35962
2026-01-14 03:27:43.90	254.56	31.79	-54.4	-73.8	3.8	7.45e-01	0	28	104	0	76	35979
2026-01-14 03:27:44.91	254.31	31.59	-54.5	-73.8	3.8	7.46e-01	0	27	104	0	76	36001
2026-01-14 03:27:45.92	254.07	31.40	-54.4	-73.8	3.8	7.47e-01	0	27	104	0	76	35986
2026-01-14 03:27:46.93	253.83	31.21	-54.4	-73.8	3.8	7.47e-01	0	27	104	0	76	35877
2026-01-14 03:27:47.94	253.59	31.01	-54.4	-73.8	3.8	7.47e-01	0	28	104	0	76	35914
2026-01-14 03:27:48.95	253.35	30.82	-54.4	-73.8	3.8	7.48e-01	0	28	104	0	76	35935
2026-01-14 03:27:49.96	253.12	30.63	-54.4	-73.8	3.8	7.46e-01	0	27	104	0	76	35952
2026-01-14 03:27:50.96	252.90	30.44	-54.4	-73.8	3.8	7.46e-01	0	28	104	0	76	35978
2026-01-14 03:27:51.97	252.67	30.25	-54.4	-73.8	3.8	7.48e-01	0	27	104	0	76	35922
2026-01-14 03:27:52.98	252.45	30.06	-54.4	-73.8	3.8	7.49e-01	0	27	104	0	76	35954
2026-01-14 03:27:53.98	252.23	29.88	-54.4	-73.8	3.8	7.46e-01	0	27	104	0	76	35950
2026-01-14 03:27:54.99	252.01	29.69	-54.4	-73.8	3.8	7.45e-01	0	27	104	0	76	35957
2026-01-14 03:27:55.99	251.80	29.50	-54.4	-73.8	3.8	7.45e-01	0	28	104	0	76	35844
2026-01-14 03:27:57.01	251.58	29.32	-54.4	-73.8	3.8	7.48e-01	0	27	104	0	76	35979
2026-01-14 03:27:58.01	251.37	29.13	-54.4	-73.8	3.8	7.49e-01	0	27	104	0	76	35866
2026-01-14 03:27:59.02	251.17	28.95	-54.4	-73.8	3.8	7.46e-01	0	27	104	0	76	35943
2026-01-14 03:28:00.03	250.96	28.77	-54.4	-73.8	3.8	7.48e-01	0	27	104	0	76	35946
2026-01-14 03:28:01.04	250.76	28.59	-54.4	-73.8	3.8	7.45e-01	0	27	104	0	76	35906
2026-01-14 03:28:02.05	250.56	28.41	-54.4	-73.8	3.8	7.43e-01	0	27	104	0	76	35947
2026-01-14 03:28:03.06	250.36	28.22	-54.4	-73.8	3.8	7.47e-01	0	28	104	0	76	35954
2026-01-14 03:28:04.07	250.17	28.05	-54.4	-73.8	3.8	7.46e-01	0	27	104	0	76	35944
2026-01-14 03:28:05.08	249.97	27.87	-54.4	-73.8	3.8	7.47e-01	0	27	104	0	76	35841
2026-01-14 03:28:06.09	249.78	27.69	-54.4	-73.8	3.8	7.47e-01	0	27	104	0	76	36050
2026-01-14 03:28:07.09	249.59	27.51	-54.4	-73.8	3.8	7.48e-01	0	27	104	0	76	35876
2026-01-14 03:28:08.10	249.41	27.34	-54.4	-73.8	3.8	7.48e-01	0	27	104	0	76	35919
2026-01-14 03:28:09.11	249.22	27.16	-54.4	-73.8	3.8	7.49e-01	0	27	104	0	76	35972
2026-01-14 03:28:10.12	249.04	26.99	-54.5	-73.8	3.8	7.47e-01	0	27	104	0	76	35967
2026-01-14 03:28:11.13	248.86	26.82	-54.4	-73.8	3.8	7.46e-01	0	27	104	0	76	35918
2026-01-14 03:28:12.13	248.68	26.65	-54.4	-73.8	3.8	7.44e-01	0	27	104	0	76	35908
2026-01-14 03:28:13.14	248.51	26.47	-54.4	-73.8	3.8	7.44e-01	0	27	104	0	76	35929
2026-01-14 03:28:14.15	248.33	26.30	-54.4	-73.8	3.8	7.48e-01	0	27	104	0	76	36039
2026-01-14 03:28:15.16	248.16	26.13	-54.4	-73.8	3.8	7.45e-01	0	27	104	0	76	35990
2026-01-14 03:28:16.17	247.99	25.97	-54.4	-73.8	3.8	7.46e-01	0	28	104	0	76	35990
2026-01-14 03:28:17.18	247.82	25.80	-54.4	-73.8	3.8	7.47e-01	0	28	104	0	76	35951
2026-01-14 03:28:18.19	247.65	25.63	-54.4	-73.8	3.8	7.46e-01	0	27	104	0	76	36057
2026-01-14 03:28:19.19	247.49	25.47	-54.4	-73.8	3.8	7.44e-01	0	27	104	0	76	35951
2026-01-14 03:28:20.20	247.33	25.30	-54.4	-73.8	3.8	7.46e-01	0	27	104	0	76	35974
2026-01-14 03:28:21.21	247.17	25.14	-54.4	-73.8	3.8	7.46e-01	0	27	104	0	76	35902
2026-01-14 03:28:22.21	247.01	24.97	-54.4	-73.8	3.8	7.44e-01	0	27	104	0	76	36007
2026-01-14 03:28:23.22	246.85	24.81	-54.4	-73.8	3.8	7.48e-01	0	28	104	0	76	35931
2026-01-14 03:28:24.23	246.69	24.65	-54.4	-73.8	3.8	7.46e-01	0	27	104	0	76	35969
2026-01-14 03:28:25.24	246.54	24.49	-54.4	-73.8	3.8	7.48e-01	0	28	104	0	76	35923
2026-01-14 03:28:26.25	246.39	24.33	-54.4	-73.8	3.8	7.49e-01	0	27	104	0	76	36053
2026-01-14 03:28:27.26	246.24	24.17	-54.4	-73.8	3.8	7.47e-01	0	27	104	0	76	36015
2026-01-14 03:28:28.27	246.09	24.01	-54.5	-73.8	3.8	7.46e-01	0	27	104	0	76	36075
2026-01-14 03:28:29.28	245.94	23.85	-54.4	-73.8	3.8	7.49e-01	0	28	104	0	76	36079
2026-01-14 03:28:30.29	245.79	23.70	-54.4	-73.8	3.8	7.43e-01	0	28	104	0	76	35979
2026-01-14 03:28:31.30	245.65	23.54	-54.4	-73.8	3.8	7.49e-01	0	28	104	0	76	35905
2026-01-14 03:28:32.30	245.51	23.39	-54.4	-73.8	3.8	7.45e-01	0	27	104	0	76	35950
2026-01-14 03:28:33.31	245.36	23.23	-54.4	-73.8	3.8	7.44e-01	0	27	104	0	76	36058
2026-01-14 03:28:34.32	245.22	23.08	-54.4	-73.8	3.8	7.45e-01	0	27	104	0	76	35908
2026-01-14 03:28:35.33	245.08	22.93	-54.4	-73.8	3.8	7.47e-01	0	28	104	0	76	36018
2026-01-14 03:28:36.34	244.95	22.77	-54.4	-73.8	3.8	7.47e-01	0	27	104	0	76	35962
2026-01-14 03:28:37.35	244.81	22.62	-54.4	-73.8	3.8	7.48e-01	0	27	104	0	76	35847
2026-01-14 03:28:38.35	244.68	22.47	-54.4	-73.8	3.8	7.49e-01	0	27	104	0	76	35932
2026-01-14 03:28:39.37	244.54	22.32	-54.4	-73.8	3.8	7.50e-01	0	28	104	0	76	35953
2026-01-14 03:28:40.38	244.41	22.17	-54.4	-73.8	3.8	7.50e-01	0	27	104	0	76	35879
2026-01-14 03:28:41.39	244.28	22.03	-54.4	-73.8	3.8	7.49e-01	0	27	104	0	76	35927
2026-01-14 03:28:42.40	244.15	21.88	-54.4	-73.8	3.8	7.46e-01	0	27	104	0	76	35982
2026-01-14 03:28:43.41	244.02	21.73	-54.4	-73.8	3.8	7.42e-01	0	27	104	0	76	35960
2026-01-14 03:28:44.41	243.90	21.59	-54.4	-73.8	3.8	7.50e-01	0	27	104	0	76	35974
2026-01-14 03:28:45.42	243.77	21.44	-54.4	-73.8	3.8	7.42e-01	0	27	104	0	76	35919
2026-01-14 03:28:46.42	243.65	21.30	-54.4	-73.8	3.8	7.47e-01	0	27	104	0	76	36018
2026-01-14 03:28:47.43	243.53	21.16	-54.4	-73.8	3.8	7.46e-01	0	27	104	0	76	35902
2026-01-14 03:28:48.44	243.41	21.01	-54.4	-73.8	3.8	7.47e-01	0	27	104	0	76	35849
2026-01-14 03:28:49.45	243.29	20.87	-54.4	-73.8	3.8	7.50e-01	0	27	104	0	76	35962
2026-01-14 03:28:50.46	243.17	20.73	-54.4	-73.8	3.8	7.46e-01	0	27	104	0	76	36022
2026-01-14 03:28:51.46	243.05	20.59	-54.4	-73.8	3.8	7.43e-01	0	27	104	0	76	35894
2026-01-14 03:28:52.47	242.93	20.45	-54.4	-73.8	3.8	7.49e-01	0	28	104	0	76	35867
2026-01-14 03:28:53.48	242.82	20.31	-54.4	-73.8	3.8	7.46e-01	0	27	104	0	76	35950
2026-01-14 03:28:54.49	242.70	20.17	-54.4	-73.8	3.8	7.43e-01	0	27	104	0	76	35978
2026-01-14 03:28:55.50	242.59	20.04	-54.4	-73.8	3.8	7.45e-01	0	27	104	0	76	35934
2026-01-14 03:28:56.51	242.48	19.90	-54.4	-73.8	3.8	7.47e-01	0	28	104	0	76	36002
2026-01-14 03:28:57.51	242.37	19.76	-54.4	-73.8	3.8	7.50e-01	0	28	104	0	76	35911
2026-01-14 03:28:58.53	242.26	19.63	-54.4	-73.8	3.8	7.45e-01	0	27	104	0	76	35913
2026-01-14 03:28:59.54	242.15	19.49	-54.4	-73.8	3.8	7.44e-01	0	28	104	0	76	35980
2026-01-14 03:29:00.54	242.04	19.36	-54.4	-73.8	3.8	7.44e-01	0	28	104	0	76	35916
2026-01-14 03:29:01.55	241.93	19.23	-54.4	-73.8	3.8	7.48e-01	0	27	104	0	76	35933
2026-01-14 03:29:02.56	241.83	19.09	-54.4	-73.8	3.8	7.46e-01	0	27	104	0	76	35935
2026-01-14 03:29:03.57	241.72	18.96	-54.4	-73.8	3.8	7.49e-01	0	27	104	0	76	35897
2026-01-14 03:29:04.58	241.62	18.83	-54.4	-73.8	3.8	7.45e-01	0	27	104	0	76	35905
2026-01-14 03:29:05.59	241.51	18.70	-54.4	-73.8	3.8	7.46e-01	0	28	104	0	76	35878
2026-01-14 03:29:06.59	241.41	18.57	-54.4	-73.8	3.8	7.49e-01	0	27	104	0	76	35904
2026-01-14 03:29:07.60	241.31	18.44	-54.4	-73.8	3.8	7.45e-01	0	28	104	0	76	35950
2026-01-14 03:29:08.61	241.21	18.31	-54.4	-73.8	3.8	7.51e-01	0	27	104	0	76	36029
2026-01-14 03:29:09.62	241.11	18.18	-54.4	-73.8	3.8	7.41e-01	0	28	104	0	76	35981
2026-01-14 03:29:10.63	241.01	18.06	-54.4	-73.8	3.8	7.46e-01	0	27	104	0	76	35986
2026-01-14 03:29:11.64	240.91	17.93	-54.4	-73.8	3.8	7.44e-01	0	27	104	0	76	35932
2026-01-14 03:29:12.64	240.82	17.80	-54.4	-73.8	3.8	7.50e-01	0	28	104	0	76	35951
2026-01-14 03:29:13.65	240.72	17.68	-54.4	-73.8	3.8	7.43e-01	0	28	104	0	76	36025
2026-01-14 03:29:14.66	240.63	17.55	-54.4	-73.8	3.8	7.45e-01	0	28	104	0	76	35977
2026-01-14 03:29:15.67	240.53	17.43	-54.4	-73.8	3.8	7.45e-01	0	27	104	0	76	35971
2026-01-14 03:29:16.68	240.44	17.31	-54.4	-73.8	3.8	7.47e-01	0	27	104	0	76	35911
2026-01-14 03:29:17.68	240.35	17.18	-54.4	-73.8	3.8	7.47e-01	0	28	104	0	76	35890
2026-01-14 03:29:18.69	240.26	17.06	-54.4	-73.8	3.8	7.46e-01	0	27	104	0	76	35961
2026-01-14 03:29:19.70	240.17	16.94	-54.4	-73.8	3.8	7.47e-01	0	28	104	0	76	35931
2026-01-14 03:29:20.71	240.08	16.82	-54.4	-73.8	3.8	7.44e-01	0	28	104	0	76	35868
2026-01-14 03:29:21.72	239.99	16.70	-54.4	-73.8	3.8	7.48e-01	0	28	104	0	76	35880
2026-01-14 03:29:22.73	239.90	16.58	-54.4	-73.8	3.8	7.46e-01	0	27	104	0	76	35943
2026-01-14 03:29:23.74	239.81	16.46	-54.4	-73.8	3.8	7.46e-01	0	28	104	0	76	35973
2026-01-14 03:29:24.75	239.72	16.34	-54.4	-73.8	3.8	7.49e-01	0	28	104	0	76	35912
2026-01-14 03:29:25.76	239.64	16.22	-54.4	-73.8	3.8	7.45e-01	0	28	104	0	76	35824
2026-01-14 03:29:26.77	239.55	16.10	-54.4	-73.8	3.8	7.45e-01	0	28	104	0	76	36020
2026-01-14 03:29:27.78	239.47	15.98	-54.4	-73.8	3.8	7.45e-01	0	28	104	0	76	35967
2026-01-14 03:29:28.79	239.38	15.87	-54.4	-73.8	3.8	7.44e-01	0	28	104	0	76	35932
2026-01-14 03:29:29.80	239.30	15.75	-54.4	-73.8	3.8	7.46e-01	0	28	104	0	76	35952
2026-01-14 03:29:30.81	239.22	15.64	-54.4	-73.8	3.8	7.48e-01	0	28	104	0	76	35795
2026-01-14 03:29:31.82	239.13	15.52	-54.4	-73.8	3.8	7.43e-01	0	27	104	0	76	35882
2026-01-14 03:29:32.82	239.05	15.41	-54.4	-73.8	3.8	7.44e-01	0	28	104	0	76	35872
2026-01-14 03:29:33.83	238.97	15.29	-54.4	-73.8	3.8	7.48e-01	0	27	104	0	76	35901
2026-01-14 03:29:34.84	238.89	15.18	-54.4	-73.8	3.8	7.47e-01	0	28	104	0	76	35990
2026-01-14 03:29:35.85	238.81	15.07	-54.4	-73.8	3.8	7.43e-01	0	28	104	0	76	35939
2026-01-14 03:29:36.86	238.74	14.95	-54.4	-73.8	3.8	7.45e-01	0	28	104	0	76	35865
2026-01-14 03:29:37.86	238.66	14.84	-54.4	-73.8	3.8	7.48e-01	0	27	104	0	76	35905
2026-01-14 03:29:38.87	238.58	14.73	-54.4	-73.8	3.8	7.46e-01	0	28	104	0	76	35858
2026-01-14 03:29:39.88	238.50	14.62	-54.4	-73.8	3.8	7.48e-01	0	27	104	0	76	35874
2026-01-14 03:29:40.89	238.43	14.51	-54.4	-73.8	3.8	7.46e-01	0	27	104	0	76	35861
2026-01-14 03:29:41.91	238.35	14.40	-54.4	-73.8	3.8	7.44e-01	0	27	104	0	76	35870
2026-01-14 03:29:42.91	238.28	14.29	-54.4	-73.8	3.8	7.48e-01	0	28	104	0	76	35872
2026-01-14 03:29:43.93	238.20	14.18	-54.4	-73.8	3.8	7.45e-01	0	27	104	0	76	35780
2026-01-14 03:29:44.93	238.13	14.07	-54.4	-73.8	3.8	7.47e-01	0	27	104	0	76	35898
2026-01-14 03:29:45.94	238.06	13.97	-54.4	-73.8	3.8	7.46e-01	0	28	104	0	76	35779
2026-01-14 03:29:46.95	237.99	13.86	-54.4	-73.8	3.8	7.46e-01	0	28	104	0	76	35766
2026-01-14 03:29:47.96	237.91	13.75	-54.4	-73.8	3.8	7.46e-01	0	28	104	0	76	35782
2026-01-14 03:29:48.98	237.84	13.64	-54.4	-73.8	3.8	7.48e-01	0	28	104	0	76	35802
2026-01-14 03:29:49.98	237.77	13.54	-54.4	-73.8	3.8	7.44e-01	0	28	104	0	76	35902
2026-01-14 03:29:50.99	237.70	13.43	-54.4	-73.8	3.8	7.48e-01	0	28	104	0	76	35866
2026-01-14 03:29:52.00	237.63	13.33	-54.4	-73.8	3.8	7.49e-01	0	28	104	0	76	35827
2026-01-14 03:29:53.01	237.56	13.22	-54.4	-73.8	3.8	7.50e-01	0	28	104	0	76	35907
2026-01-14 03:29:54.02	237.50	13.12	-54.4	-73.8	3.8	7.46e-01	0	28	104	0	76	35800
2026-01-14 03:29:55.03	237.43	13.02	-54.4	-73.8	3.8	7.44e-01	0	27	104	0	76	35856
2026-01-14 03:29:56.04	237.36	12.91	-54.4	-73.8	3.8	7.48e-01	0	28	104	0	76	35875
2026-01-14 03:29:57.05	237.29	12.81	-54.4	-73.8	3.8	7.45e-01	0	28	104	0	76	35884
2026-01-14 03:29:58.06	237.23	12.71	-54.4	-73.8	3.8	7.45e-01	0	28	104	0	76	35887
2026-01-14 03:29:59.07	237.16	12.60	-54.4	-73.8	3.8	7.46e-01	0	28	104	0	76	35953
2026-01-14 03:30:00.08	237.10	12.50	-54.4	-73.8	3.8	7.47e-01	0	28	104	0	76	35832
2026-01-14 03:30:01.09	237.03	12.40	-54.4	-73.8	3.8	7.45e-01	0	28	104	0	76	35896
2026-01-14 03:30:02.10	236.97	12.30	-54.4	-73.8	3.8	7.48e-01	0	28	104	0	76	35940
2026-01-14 03:30:03.11	236.90	12.20	-54.4	-73.8	3.8	7.46e-01	0	28	104	0	76	35910
2026-01-14 03:30:04.12	236.84	12.10	-54.4	-73.8	3.8	7.44e-01	0	28	104	0	76	35896
2026-01-14 03:30:05.13	236.78	12.00	-54.4	-73.8	3.8	7.48e-01	0	28	104	0	76	35935
2026-01-14 03:30:06.13	236.72	11.90	-54.4	-73.8	3.8	7.47e-01	0	28	104	0	76	35841
2026-01-14 03:30:07.14	236.65	11.81	-54.4	-73.8	3.8	7.48e-01	0	27	104	0	76	35877
2026-01-14 03:30:08.15	236.59	11.71	-54.4	-73.8	3.8	7.47e-01	0	28	104	0	76	35948
2026-01-14 03:30:09.16	236.53	11.61	-54.4	-73.8	3.8	7.47e-01	0	28	104	0	76	35926
2026-01-14 03:30:10.17	236.47	11.51	-54.4	-73.8	3.8	7.47e-01	0	28	104	0	76	35890
2026-01-14 03:30:11.17	236.41	11.42	-54.4	-73.8	3.8	7.47e-01	0	28	104	0	76	36071
2026-01-14 03:30:12.18	236.35	11.32	-54.4	-73.8	3.8	7.48e-01	0	28	104	0	76	35908
2026-01-14 03:30:13.19	236.29	11.22	-54.4	-73.8	3.8	7.47e-01	0	27	104	0	76	35866
2026-01-14 03:30:14.20	236.23	11.13	-54.4	-73.8	3.8	7.47e-01	0	27	104	0	76	35871
2026-01-14 03:30:15.21	236.18	11.03	-54.4	-73.8	3.8	7.49e-01	0	27	104	0	76	35887
2026-01-14 03:30:16.21	236.12	10.94	-54.4	-73.8	3.8	7.45e-01	0	27	104	0	76	35944
2026-01-14 03:30:17.22	236.06	10.84	-54.4	-73.8	3.8	7.46e-01	0	27	104	0	76	35919
2026-01-14 03:30:18.23	236.00	10.75	-54.4	-73.8	3.8	7.49e-01	0	27	104	0	76	35985
2026-01-14 03:30:19.24	235.95	10.65	-54.4	-73.8	3.8	7.44e-01	0	27	104	0	76	35962
2026-01-14 03:30:20.25	235.89	10.56	-54.4	-73.8	3.8	7.45e-01	0	28	104	0	76	35851
2026-01-14 03:30:21.26	235.84	10.47	-54.4	-73.8	3.8	7.48e-01	0	28	104	0	76	35797
2026-01-14 03:30:22.26	235.78	10.38	-54.4	-73.8	3.8	7.47e-01	0	28	104	0	76	35939
2026-01-14 03:30:23.27	235.73	10.28	-54.4	-73.8	3.8	7.47e-01	0	27	104	0	76	35752
2026-01-14 03:30:24.28	235.67	10.19	-54.4	-73.8	3.8	7.46e-01	0	28	104	0	76	35831
2026-01-14 03:30:25.29	235.62	10.10	-54.4	-73.8	3.8	7.49e-01	0	28	104	0	76	35875
2026-01-14 03:30:26.30	235.56	10.01	-54.4	-73.8	3.8	7.45e-01	0	27	104	0	76	35828
2026-01-14 03:30:27.30	235.51	9.92	-54.4	-73.8	3.8	7.46e-01	0	28	104	0	76	35797
2026-01-14 03:30:28.32	235.46	9.83	-54.4	-73.8	3.8	7.48e-01	0	28	104	0	76	35859
2026-01-14 03:30:29.33	235.40	9.74	-54.4	-73.8	3.8	7.47e-01	0	27	104	0	76	35865
2026-01-14 03:30:30.34	235.35	9.65	-54.4	-73.8	3.8	7.47e-01	0	27	104	0	76	35821
2026-01-14 03:30:31.34	235.30	9.56	-54.4	-73.8	3.8	7.48e-01	0	27	104	0	76	35881
2026-01-14 03:30:32.35	235.25	9.47	-54.4	-73.8	3.8	7.47e-01	0	27	104	0	76	35787
2026-01-14 03:30:33.36	235.20	9.38	-54.4	-73.8	3.8	7.46e-01	0	28	104	0	76	35994
2026-01-14 03:30:34.37	235.15	9.29	-54.4	-73.8	3.8	7.45e-01	0	27	104	0	76	35828
2026-01-14 03:30:35.38	235.10	9.20	-54.4	-73.8	3.8	7.51e-01	0	28	104	0	76	35913
2026-01-14 03:30:36.39	235.05	9.11	-54.4	-73.8	3.8	7.49e-01	0	28	104	0	76	35948
2026-01-14 03:30:37.40	235.00	9.03	-54.4	-73.8	3.9	7.46e-01	0	28	104	0	76	35898
2026-01-14 03:30:38.41	234.95	8.94	-54.4	-73.8	3.8	7.47e-01	0	27	104	0	76	35841
2026-01-14 03:30:39.42	234.90	8.85	-54.4	-73.8	3.8	7.47e-01	0	27	104	0	76	35879
2026-01-14 03:30:40.43	234.85	8.76	-54.4	-73.8	3.8	7.49e-01	0	27	104	0	76	35898
2026-01-14 03:30:41.44	234.80	8.68	-54.4	-73.8	3.8	7.46e-01	0	27	104	0	76	35942
2026-01-14 03:30:42.45	234.75	8.59	-54.4	-73.8	3.8	7.46e-01	0	28	104	0	76	35908
2026-01-14 03:30:43.46	234.71	8.51	-54.4	-73.8	3.8	7.45e-01	0	27	104	0	76	35839
2026-01-14 03:30:44.47	234.66	8.42	-54.4	-73.8	3.8	7.42e-01	0	27	104	0	76	35946
2026-01-14 03:30:45.48	234.61	8.34	-54.4	-73.8	3.8	7.49e-01	0	28	104	0	76	35844
2026-01-14 03:30:46.49	234.56	8.25	-54.4	-73.8	3.8	7.45e-01	0	28	104	0	76	35770
2026-01-14 03:30:47.49	234.52	8.17	-54.4	-73.8	3.8	7.48e-01	0	28	104	0	76	35882
2026-01-14 03:30:48.50	234.47	8.08	-54.4	-73.8	3.8	7.48e-01	0	28	104	0	76	35831
2026-01-14 03:30:49.51	234.43	8.00	-54.4	-73.8	3.8	7.47e-01	0	28	104	0	76	35952
2026-01-14 03:30:50.52	234.38	7.92	-54.4	-73.8	3.8	7.47e-01	0	28	104	0	76	35999
2026-01-14 03:30:51.53	234.33	7.83	-54.4	-73.8	3.8	7.49e-01	0	27	104	0	76	35959
2026-01-14 03:30:52.54	234.29	7.75	-54.4	-73.8	3.8	7.49e-01	0	27	104	0	76	35973
2026-01-14 03:30:53.55	234.25	7.67	-54.4	-73.8	3.8	7.46e-01	0	28	104	0	76	35886
2026-01-14 03:30:54.55	234.20	7.58	-54.4	-73.8	3.8	7.47e-01	0	27	104	0	76	35905
2026-01-14 03:30:55.56	234.16	7.50	-54.4	-73.8	3.8	7.46e-01	0	28	104	0	76	35953
2026-01-14 03:30:56.57	234.11	7.42	-54.4	-73.8	3.8	7.47e-01	0	28	104	0	76	35934
2026-01-14 03:30:57.57	234.07	7.34	-54.4	-73.8	3.8	7.47e-01	0	27	104	0	76	35847
2026-01-14 03:30:58.58	234.03	7.26	-54.4	-73.8	3.8	7.46e-01	0	28	104	0	76	35929
2026-01-14 03:30:59.59	233.98	7.18	-54.4	-73.8	3.8	7.47e-01	0	28	104	0	76	35946
2026-01-14 03:31:00.60	233.94	7.10	-54.4	-73.8	3.8	7.48e-01	0	28	104	0	76	35813
2026-01-14 03:31:01.61	233.90	7.01	-54.4	-73.8	3.8	7.47e-01	0	27	104	0	76	35850
2026-01-14 03:31:02.61	233.86	6.93	-54.4	-73.8	3.8	7.45e-01	0	28	104	0	76	35896
2026-01-14 03:31:03.62	233.82	6.85	-54.4	-73.8	3.8	7.47e-01	0	28	104	0	76	35713
2026-01-14 03:31:04.63	233.77	6.77	-54.4	-73.8	3.8	7.43e-01	0	28	104	0	76	35851
2026-01-14 03:31:05.64	233.73	6.70	-54.4	-73.8	3.8	7.48e-01	0	28	104	0	76	35835
2026-01-14 03:31:06.65	233.69	6.62	-54.4	-73.8	3.8	7.45e-01	0	28	104	0	76	35880
2026-01-14 03:31:07.66	233.65	6.54	-54.4	-73.8	3.8	7.45e-01	0	27	104	0	76	35822
2026-01-14 03:31:08.67	233.61	6.46	-54.4	-73.8	3.8	7.44e-01	0	28	104	0	76	35814
2026-01-14 03:31:09.68	233.57	6.38	-54.4	-73.8	3.8	7.45e-01	0	27	104	0	76	35872
2026-01-14 03:31:10.69	233.53	6.30	-54.4	-73.8	3.8	7.48e-01	0	27	104	0	76	35804
2026-01-14 03:31:11.70	233.49	6.22	-54.4	-73.8	3.8	7.45e-01	0	27	104	0	76	35775
2026-01-14 03:31:12.71	233.45	6.15	-54.4	-73.8	3.8	7.48e-01	0	28	104	0	76	35855
2026-01-14 03:31:13.71	233.41	6.07	-54.4	-73.8	3.8	7.46e-01	0	27	104	0	76	35777
2026-01-14 03:31:14.72	233.37	5.99	-54.4	-73.8	3.8	7.46e-01	0	28	104	0	76	35804
2026-01-14 03:31:15.73	233.33	5.91	-54.4	-73.8	3.8	7.45e-01	0	28	104	0	76	35786
2026-01-14 03:31:16.74	233.30	5.84	-54.4	-73.8	3.8	7.47e-01	0	28	104	0	76	35825
2026-01-14 03:31:17.75	233.26	5.76	-54.4	-73.8	3.8	7.45e-01	0	27	104	0	76	35753
2026-01-14 03:31:18.76	233.22	5.68	-54.4	-73.8	3.8	7.49e-01	0	27	104	0	76	35723
2026-01-14 03:31:19.76	233.18	5.61	-54.4	-73.8	3.8	7.47e-01	0	27	104	0	76	35794
2026-01-14 03:31:20.77	233.14	5.53	-54.4	-73.8	3.8	7.50e-01	0	28	104	0	76	35830
2026-01-14 03:31:21.78	233.11	5.46	-54.4	-73.8	3.8	7.44e-01	0	27	104	0	76	35830
2026-01-14 03:31:22.79	233.07	5.38	-54.4	-73.8	3.8	7.49e-01	0	28	104	0	76	35766
2026-01-14 03:31:23.80	233.03	5.31	-54.4	-73.8	3.8	7.47e-01	0	27	104	0	76	35754
2026-01-14 03:31:24.81	233.00	5.23	-54.4	-73.8	3.8	7.44e-01	0	27	104	0	76	35849
2026-01-14 03:31:25.82	232.96	5.16	-54.4	-73.7	3.8	7.48e-01	0	27	104	0	76	35660
2026-01-14 03:31:26.82	232.92	5.08	-54.4	-73.8	3.8	7.47e-01	0	27	104	0	76	35771
2026-01-14 03:31:27.83	232.89	5.01	-54.4	-73.8	3.8	7.48e-01	0	28	104	0	76	35807
2026-01-14 03:31:28.84	232.85	4.93	-54.4	-73.8	3.8	7.46e-01	0	27	104	0	76	35806
2026-01-14 03:31:29.85	232.82	4.86	-54.4	-73.8	3.8	7.46e-01	0	27	104	0	76	35939
2026-01-14 03:31:30.86	232.78	4.79	-54.4	-73.8	3.8	7.45e-01	0	27	104	0	76	35868
2026-01-14 03:31:31.87	232.75	4.71	-54.4	-73.8	3.8	7.43e-01	0	28	104	0	76	35899
2026-01-14 03:31:32.88	232.71	4.64	-54.4	-73.8	3.8	7.46e-01	0	28	104	0	76	35923
2026-01-14 03:31:33.89	232.68	4.57	-54.4	-73.8	3.8	7.49e-01	0	28	104	0	76	35828
2026-01-14 03:31:34.90	232.64	4.49	-54.4	-73.8	3.8	7.46e-01	0	28	104	0	76	35851
2026-01-14 03:31:35.91	232.61	4.42	-54.4	-73.8	3.8	7.45e-01	0	27	104	0	76	35852
2026-01-14 03:31:36.92	232.57	4.35	-54.4	-73.8	3.8	7.44e-01	0	28	104	0	76	35888
2026-01-14 03:31:37.93	232.54	4.28	-54.4	-73.8	3.8	7.45e-01	0	27	104	0	76	35899
2026-01-14 03:31:38.93	232.51	4.21	-54.4	-73.8	3.9	7.51e-01	0	28	104	0	76	35824
2026-01-14 03:31:39.95	232.47	4.13	-54.4	-73.8	3.8	7.42e-01	0	27	104	0	76	35875
2026-01-14 03:31:40.96	232.44	4.06	-54.4	-73.8	3.8	7.45e-01	0	27	104	0	76	35859
2026-01-14 03:31:41.97	232.41	3.99	-54.4	-73.8	3.8	7.50e-01	0	27	104	0	76	35778
2026-01-14 03:31:42.98	232.37	3.92	-54.4	-73.8	3.8	7.47e-01	0	28	104	0	76	35792
2026-01-14 03:31:43.99	232.34	3.85	-54.4	-73.8	3.8	7.44e-01	0	28	104	0	76	35808
2026-01-14 03:31:45.00	232.31	3.78	-54.4	-73.8	3.8	7.44e-01	0	28	104	0	76	35874
2026-01-14 03:31:46.01	232.27	3.71	-54.4	-73.8	3.8	7.47e-01	0	28	104	0	76	35907
2026-01-14 03:31:47.02	232.24	3.64	-54.4	-73.8	3.8	7.48e-01	0	27	104	0	76	35890
2026-01-14 03:31:48.03	232.21	3.57	-54.4	-73.8	3.8	7.42e-01	0	28	104	0	76	35794
2026-01-14 03:31:49.03	232.18	3.50	-54.4	-73.8	3.9	7.47e-01	0	27	104	0	76	35885
2026-01-14 03:31:50.04	232.15	3.43	-54.4	-73.8	3.8	7.45e-01	0	27	104	0	76	35842
2026-01-14 03:31:51.05	232.12	3.36	-54.4	-73.8	3.8	7.48e-01	0	28	104	0	76	35932
2026-01-14 03:31:52.06	232.08	3.29	-54.4	-73.8	3.8	7.47e-01	0	27	104	0	76	35869
2026-01-14 03:31:53.06	232.05	3.22	-54.4	-73.8	3.8	7.47e-01	0	28	104	0	76	35765
2026-01-14 03:31:54.07	232.02	3.15	-54.4	-73.8	3.8	7.47e-01	0	28	104	0	76	35781
2026-01-14 03:31:55.07	231.99	3.08	-54.4	-73.8	3.8	7.44e-01	0	28	104	0	76	35765
2026-01-14 03:31:56.08	231.96	3.01	-54.4	-73.8	3.8	7.46e-01	0	28	104	0	76	35803
2026-01-14 03:31:57.09	231.93	2.94	-54.4	-73.8	3.8	7.43e-01	0	27	104	0	76	35942
2026-01-14 03:31:58.10	231.90	2.88	-54.4	-73.8	3.8	7.47e-01	0	28	104	0	76	35785
2026-01-14 03:31:59.11	231.87	2.81	-54.4	-73.8	3.8	7.46e-01	0	27	104	0	76	35791
2026-01-14 03:32:00.12	231.84	2.74	-54.4	-73.8	3.8	7.45e-01	0	28	104	0	76	35946
2026-01-14 03:32:01.13	231.81	2.67	-54.4	-73.8	3.8	7.46e-01	0	27	104	0	76	35815
2026-01-14 03:32:02.14	231.78	2.60	-54.4	-73.8	3.8	7.46e-01	0	27	104	0	76	35854
2026-01-14 03:32:03.15	231.75	2.54	-54.4	-73.8	3.8	7.42e-01	0	27	104	0	76	35835
2026-01-14 03:32:04.15	231.72	2.47	-54.4	-73.8	3.8	7.47e-01	0	27	104	0	76	35875
2026-01-14 03:32:05.16	231.69	2.40	-54.4	-73.8	3.8	7.47e-01	0	27	104	0	76	35832
