passes_logs/2026/01/14/R3.2S_Murmansk/R3.2S_Murmansk__20260114_010037_NOAA_21_JPSS-2_rec.log

#Pass ID: 20260114_010037_NOAA 21 (JPSS-2)
#Satellite: NOAA 21 (JPSS-2)
#Configuration: NOAA-21
#almurnet v.1.7.20251203
#Start time: 2026-01-14 01:00:39

#Version: 2.2.20231116
#Station: R3.2S_Murmansk
#Location: 33.079688 lon 68.888172 lat
#TLE: 1 54234U 22150A   26013.60300550  .00000047  00000+0  43143-4 0  9998
#TLE: 2 54234  98.7496 314.5197 0000681 301.0337  59.0772 14.19534502164617

#Time	Az	El	Level	Level2	SNR	BER	BlckErr	Temp	State	Recorded	gain1	gain2
2026-01-14 01:00:39.28	25.78	2.08	-57.8	-71.6	3.8	1.49e+00	0	25	0	0	82	16956
2026-01-14 01:00:40.29	25.77	2.15	-57.8	-71.6	3.8	1.49e+00	0	26	104	0	80	18974
2026-01-14 01:00:41.30	25.77	2.21	-57.8	-71.6	3.8	1.49e+00	0	26	104	0	80	18954
2026-01-14 01:00:42.31	25.76	2.28	-57.8	-71.6	3.8	1.49e+00	0	26	104	0	80	18962
2026-01-14 01:00:43.32	25.76	2.34	-57.8	-71.5	3.8	1.49e+00	0	26	104	0	80	18945
2026-01-14 01:00:44.33	25.75	2.41	-57.8	-71.6	3.8	1.49e+00	0	26	104	0	80	18971
2026-01-14 01:00:45.34	25.75	2.47	-57.8	-71.6	3.8	1.49e+00	0	26	104	0	80	18958
2026-01-14 01:00:46.35	25.74	2.54	-57.8	-71.6	3.8	1.49e+00	0	26	104	0	80	18959
2026-01-14 01:00:47.36	25.74	2.60	-57.8	-71.5	3.8	1.49e+00	0	26	104	0	80	18940
2026-01-14 01:00:48.37	25.73	2.67	-57.8	-71.6	3.8	1.49e+00	0	26	104	0	80	18957
2026-01-14 01:00:49.38	25.73	2.74	-57.8	-71.5	3.8	1.49e+00	0	26	104	0	80	18908
2026-01-14 01:00:50.39	25.72	2.80	-57.8	-71.5	3.8	1.49e+00	0	26	104	0	80	18892
2026-01-14 01:00:51.39	25.72	2.87	-57.8	-71.5	3.9	1.49e+00	0	26	104	0	80	18891
2026-01-14 01:00:52.40	25.71	2.93	-57.8	-71.5	3.8	1.49e+00	0	26	104	0	80	18887
2026-01-14 01:00:53.41	25.70	3.00	-57.8	-71.5	3.8	1.49e+00	0	26	104	0	80	18931
2026-01-14 01:00:54.42	25.70	3.07	-57.8	-71.5	3.8	1.49e+00	0	26	104	0	80	18801
2026-01-14 01:00:55.43	25.69	3.14	-57.8	-71.4	3.9	1.49e+00	0	26	104	0	80	18702
2026-01-14 01:00:56.44	25.69	3.20	-57.8	-71.4	3.8	1.49e+00	0	26	104	0	80	18591
2026-01-14 01:00:57.45	25.68	3.27	-57.8	-71.3	3.8	1.49e+00	0	26	104	0	80	18401
2026-01-14 01:00:58.46	25.68	3.34	-57.8	-71.2	3.8	1.49e+00	0	26	104	0	80	18219
2026-01-14 01:00:59.47	25.67	3.40	-57.8	-71.1	3.8	1.49e+00	0	26	104	0	80	17967
2026-01-14 01:01:00.48	25.67	3.47	-57.8	-71.1	3.8	1.49e+00	0	26	104	0	80	17943
2026-01-14 01:01:01.49	25.66	3.54	-57.8	-71.0	3.8	1.49e+00	0	26	104	0	80	17815
2026-01-14 01:01:02.50	25.65	3.61	-57.7	-70.7	3.8	1.49e+00	0	26	104	0	80	17100
2026-01-14 01:01:03.51	25.65	3.68	-57.7	-69.9	3.8	1.49e+00	0	26	104	0	80	15587
2026-01-14 01:01:04.51	25.64	3.74	-57.5	-67.8	4.3	1.47e+00	0	26	104	0	80	12259
2026-01-14 01:01:05.52	25.64	3.81	-57.3	-66.9	4.0	1.25e+00	2	26	104	0	80	11136
2026-01-14 01:01:06.53	25.63	3.88	-57.1	-64.9	5.5	5.34e-01	0	26	0	1048576	80	8837
2026-01-14 01:01:07.54	25.62	3.95	-56.8	-63.3	6.7	1.88e-01	0	26	0	4194304	80	7288
2026-01-14 01:01:08.55	25.62	4.02	-56.7	-63.0	6.9	1.21e-01	0	26	0	7340032	80	7075
2026-01-14 01:01:09.56	25.61	4.09	-56.5	-62.3	7.5	7.70e-02	0	26	0	10485760	79	6890
2026-01-14 01:01:10.57	25.60	4.16	-56.3	-61.7	8.0	3.74e-02	0	26	0	13631488	79	6461
2026-01-14 01:01:11.57	25.60	4.23	-56.3	-61.7	8.1	3.91e-02	0	26	0	16777216	79	6439
2026-01-14 01:01:12.58	25.59	4.30	-56.4	-61.8	7.9	3.59e-02	0	26	0	19922944	79	6568
2026-01-14 01:01:13.59	25.59	4.37	-56.5	-62.1	7.6	6.29e-02	0	27	0	23068672	79	6754
2026-01-14 01:01:14.60	25.58	4.44	-56.3	-61.8	8.0	4.83e-02	0	27	0	26214400	79	6495
2026-01-14 01:01:15.61	25.57	4.51	-56.3	-61.7	8.0	3.66e-02	0	26	0	29360128	79	6445
2026-01-14 01:01:16.62	25.57	4.58	-56.3	-61.5	8.2	3.41e-02	0	26	0	32505856	79	6321
2026-01-14 01:01:17.63	25.56	4.65	-56.4	-61.9	7.8	4.48e-02	0	26	0	35651584	79	6628
2026-01-14 01:01:18.64	25.55	4.72	-56.6	-62.5	7.3	6.38e-02	0	27	0	38797312	79	7056
2026-01-14 01:01:19.65	25.55	4.79	-56.6	-62.7	7.1	8.10e-02	0	26	0	41943040	79	7265
2026-01-14 01:01:20.66	25.54	4.86	-56.8	-63.2	6.7	1.43e-01	0	27	0	45088768	79	7685
2026-01-14 01:01:21.67	25.53	4.93	-56.8	-63.2	6.7	1.47e-01	0	27	0	48234496	79	7643
2026-01-14 01:01:22.68	25.52	5.01	-56.9	-63.7	6.3	1.76e-01	0	27	0	51380224	79	8113
2026-01-14 01:01:23.69	25.52	5.08	-57.2	-64.1	6.3	1.40e-01	0	27	0	54525952	79	8540
2026-01-14 01:01:24.70	25.51	5.15	-56.8	-62.4	7.7	1.08e-01	0	27	0	57671680	80	6598
2026-01-14 01:01:25.71	25.50	5.22	-57.4	-67.2	4.5	5.66e-02	2	27	0	60817408	79	12124
2026-01-14 01:01:26.72	25.50	5.29	-55.7	-59.6	9.8	1.05e+00	0	27	104	60817408	78	5382
2026-01-14 01:01:27.72	25.49	5.37	-57.2	-63.7	6.7	9.80e-03	0	27	0	62914560	79	8123
2026-01-14 01:01:28.73	25.48	5.44	-54.9	-58.0	11.2	4.53e-02	0	27	0	67108864	76	5012
2026-01-14 01:01:29.74	25.47	5.51	-53.6	-56.1	12.5	7.00e-07	0	27	0	70254592	73	4768
2026-01-14 01:01:30.75	25.47	5.59	-53.3	-55.5	12.8	0.00e+00	0	27	0	73400320	73	4481
2026-01-14 01:01:31.76	25.46	5.66	-53.0	-55.2	12.9	0.00e+00	0	27	0	76546048	72	4570
2026-01-14 01:01:32.77	25.45	5.73	-53.1	-55.3	12.9	0.00e+00	0	27	0	79691776	72	4623
2026-01-14 01:01:33.78	25.44	5.81	-52.8	-54.9	13.1	0.00e+00	0	27	0	82837504	72	4436
2026-01-14 01:01:34.79	25.44	5.88	-52.5	-54.5	13.3	0.00e+00	0	27	0	85983232	71	4471
2026-01-14 01:01:35.79	25.43	5.95	-52.3	-54.2	13.5	0.00e+00	0	27	0	89128960	71	4316
2026-01-14 01:01:36.80	25.42	6.03	-52.1	-53.9	13.5	0.00e+00	0	27	0	92274688	70	4416
2026-01-14 01:01:37.81	25.41	6.10	-51.9	-53.7	13.6	0.00e+00	0	27	0	95420416	70	4328
2026-01-14 01:01:38.82	25.41	6.18	-52.0	-53.9	13.6	0.00e+00	0	27	0	98566144	70	4394
2026-01-14 01:01:39.82	25.40	6.25	-51.8	-53.6	13.7	0.00e+00	0	27	0	101711872	70	4281
2026-01-14 01:01:40.83	25.39	6.33	-51.9	-53.7	13.7	0.00e+00	0	27	0	104857600	70	4294
2026-01-14 01:01:41.85	25.38	6.40	-52.0	-53.8	13.6	0.00e+00	0	27	0	108003328	70	4354
2026-01-14 01:01:42.85	25.37	6.48	-51.9	-53.7	13.7	0.00e+00	0	27	0	111149056	70	4312
2026-01-14 01:01:43.86	25.37	6.55	-51.9	-53.6	13.7	0.00e+00	0	27	0	114294784	70	4283
2026-01-14 01:01:44.87	25.36	6.63	-51.9	-53.6	13.7	0.00e+00	0	27	0	117440512	70	4280
2026-01-14 01:01:45.88	25.35	6.71	-51.8	-53.5	13.8	0.00e+00	0	27	0	120586240	70	4242
2026-01-14 01:01:46.89	25.34	6.78	-51.8	-53.5	13.8	0.00e+00	0	27	0	123731968	70	4219
2026-01-14 01:01:47.90	25.33	6.86	-51.9	-53.7	13.7	0.00e+00	0	27	0	126877696	70	4298
2026-01-14 01:01:48.91	25.32	6.94	-51.7	-53.5	13.8	0.00e+00	0	27	0	130023424	70	4195
2026-01-14 01:01:49.92	25.31	7.02	-51.7	-53.4	13.9	0.00e+00	0	27	0	133169152	70	4156
2026-01-14 01:01:50.93	25.31	7.09	-51.7	-53.5	13.7	0.00e+00	0	27	0	136314880	69	4454
2026-01-14 01:01:51.94	25.30	7.17	-51.5	-53.2	13.9	0.00e+00	0	27	0	139460608	69	4315
2026-01-14 01:01:52.94	25.29	7.25	-51.6	-53.3	13.8	0.00e+00	0	27	0	142606336	69	4386
2026-01-14 01:01:53.95	25.28	7.33	-51.7	-53.4	13.8	0.00e+00	0	27	0	145752064	69	4398
2026-01-14 01:01:54.96	25.27	7.41	-51.6	-53.3	13.8	0.00e+00	0	27	0	148897792	69	4386
2026-01-14 01:01:55.97	25.26	7.48	-51.6	-53.3	13.8	0.00e+00	0	27	0	152043520	69	4353
2026-01-14 01:01:56.97	25.25	7.56	-51.6	-53.2	13.9	0.00e+00	0	27	0	155189248	69	4338
2026-01-14 01:01:57.98	25.24	7.64	-51.6	-53.3	13.9	0.00e+00	0	27	0	158334976	69	4344
2026-01-14 01:01:58.99	25.23	7.72	-51.4	-53.1	13.9	0.00e+00	0	27	0	161480704	69	4255
2026-01-14 01:02:00.00	25.22	7.80	-51.4	-53.1	13.9	0.00e+00	0	27	0	164626432	69	4258
2026-01-14 01:02:01.00	25.21	7.88	-51.4	-53.1	13.9	0.00e+00	0	27	0	167772160	69	4248
2026-01-14 01:02:02.01	25.21	7.96	-51.4	-53.0	14.0	0.00e+00	0	27	0	170917888	69	4212
2026-01-14 01:02:03.02	25.20	8.04	-51.3	-52.9	14.0	0.00e+00	0	27	0	174063616	69	4189
2026-01-14 01:02:04.03	25.19	8.12	-51.4	-53.0	14.0	0.00e+00	0	27	0	177209344	69	4201
2026-01-14 01:02:05.04	25.18	8.20	-51.4	-53.0	14.0	0.00e+00	0	27	0	180355072	69	4208
2026-01-14 01:02:06.05	25.17	8.28	-51.4	-53.0	14.0	0.00e+00	0	27	0	183500800	69	4235
2026-01-14 01:02:07.06	25.16	8.37	-51.3	-52.9	14.0	0.00e+00	0	27	0	186646528	69	4193
2026-01-14 01:02:08.07	25.15	8.45	-51.3	-53.0	14.0	0.00e+00	0	27	0	189792256	69	4198
2026-01-14 01:02:09.08	25.14	8.53	-51.3	-53.0	14.0	0.00e+00	0	27	0	192937984	69	4198
2026-01-14 01:02:10.08	25.13	8.61	-51.2	-52.8	14.1	0.00e+00	0	27	0	196083712	69	4116
2026-01-14 01:02:11.09	25.12	8.69	-51.1	-52.7	14.1	0.00e+00	0	27	0	199229440	68	4305
2026-01-14 01:02:12.10	25.11	8.78	-51.2	-52.8	14.0	0.00e+00	0	27	0	202375168	68	4348
2026-01-14 01:02:13.11	25.10	8.86	-51.3	-52.9	13.9	0.00e+00	0	27	0	205520896	68	4413
2026-01-14 01:02:14.12	25.09	8.94	-51.0	-52.6	14.1	0.00e+00	0	27	0	208666624	68	4267
2026-01-14 01:02:15.13	25.07	9.03	-51.0	-52.6	14.1	0.00e+00	0	27	0	211812352	68	4261
2026-01-14 01:02:16.14	25.06	9.11	-51.2	-52.7	14.0	0.00e+00	0	27	0	214958080	68	4340
2026-01-14 01:02:17.15	25.05	9.20	-51.1	-52.7	14.1	0.00e+00	0	27	0	218103808	68	4314
2026-01-14 01:02:18.16	25.04	9.28	-51.2	-52.8	14.0	0.00e+00	0	27	0	221249536	68	4343
2026-01-14 01:02:19.16	25.03	9.36	-51.0	-52.6	14.1	0.00e+00	0	27	0	224395264	68	4263
2026-01-14 01:02:20.17	25.02	9.45	-51.0	-52.5	14.2	0.00e+00	0	27	0	227540992	68	4214
2026-01-14 01:02:21.18	25.01	9.53	-50.8	-52.3	14.2	0.00e+00	0	27	0	230686720	68	4129
2026-01-14 01:02:22.19	25.00	9.62	-50.8	-52.3	14.3	0.00e+00	0	27	0	233832448	68	4120
2026-01-14 01:02:23.20	24.99	9.71	-50.8	-52.3	14.2	0.00e+00	0	27	0	236978176	68	4137
2026-01-14 01:02:24.20	24.98	9.79	-50.8	-52.3	14.3	0.00e+00	0	27	0	240123904	68	4117
2026-01-14 01:02:25.21	24.96	9.88	-50.8	-52.3	14.3	0.00e+00	0	27	0	243269632	68	4115
2026-01-14 01:02:26.22	24.95	9.96	-50.7	-52.2	14.3	0.00e+00	0	27	0	246415360	68	4087
2026-01-14 01:02:27.23	24.94	10.05	-50.7	-52.2	14.3	0.00e+00	0	27	0	249561088	68	4068
2026-01-14 01:02:28.24	24.93	10.14	-50.5	-52.0	14.2	0.00e+00	0	27	0	252706816	67	4218
2026-01-14 01:02:29.25	24.92	10.23	-50.5	-52.0	14.3	0.00e+00	0	27	0	255852544	67	4224
2026-01-14 01:02:30.26	24.91	10.32	-50.5	-51.9	14.3	0.00e+00	0	27	0	258998272	67	4184
2026-01-14 01:02:31.27	24.89	10.40	-50.6	-52.0	14.3	0.00e+00	0	27	0	262144000	67	4233
2026-01-14 01:02:32.28	24.88	10.49	-50.5	-51.9	14.3	0.00e+00	0	27	0	265289728	67	4179
2026-01-14 01:02:33.29	24.87	10.58	-50.3	-51.8	14.4	0.00e+00	0	27	0	268435456	67	4114
2026-01-14 01:02:34.30	24.86	10.67	-50.4	-51.8	14.3	0.00e+00	0	27	0	271581184	67	4132
2026-01-14 01:02:35.31	24.85	10.76	-50.4	-51.9	14.3	0.00e+00	0	27	0	274726912	67	4159
2026-01-14 01:02:36.32	24.83	10.85	-50.3	-51.7	14.4	0.00e+00	0	27	0	277872640	67	4094
2026-01-14 01:02:37.33	24.82	10.94	-50.3	-51.7	14.4	0.00e+00	0	27	0	281018368	67	4089
2026-01-14 01:02:38.34	24.81	11.03	-50.3	-51.8	14.4	0.00e+00	0	27	0	284164096	67	4109
2026-01-14 01:02:39.34	24.79	11.12	-50.3	-51.7	14.4	0.00e+00	0	27	0	287309824	67	4063
2026-01-14 01:02:40.35	24.78	11.21	-50.3	-51.7	14.4	0.00e+00	0	27	0	290455552	67	4082
2026-01-14 01:02:41.36	24.77	11.31	-50.3	-51.7	14.4	0.00e+00	0	27	0	293601280	67	4083
2026-01-14 01:02:42.37	24.76	11.40	-50.3	-51.7	14.4	0.00e+00	0	27	0	296747008	67	4070
2026-01-14 01:02:43.38	24.74	11.49	-50.3	-51.7	14.4	0.00e+00	0	27	0	299892736	67	4092
2026-01-14 01:02:44.39	24.73	11.58	-50.3	-51.7	14.4	0.00e+00	0	27	0	303038464	67	4087
2026-01-14 01:02:45.40	24.72	11.68	-50.3	-51.7	14.4	0.00e+00	0	27	0	306184192	67	4064
2026-01-14 01:02:46.41	24.70	11.77	-50.1	-51.5	14.4	0.00e+00	0	27	0	309329920	66	4224
2026-01-14 01:02:47.41	24.69	11.86	-50.1	-51.5	14.4	0.00e+00	0	27	0	312475648	66	4218
2026-01-14 01:02:48.42	24.67	11.96	-50.1	-51.5	14.4	0.00e+00	0	27	0	315621376	66	4215
2026-01-14 01:02:49.43	24.66	12.05	-50.0	-51.4	14.4	0.00e+00	0	27	0	318767104	66	4154
2026-01-14 01:02:50.44	24.65	12.15	-50.1	-51.5	14.4	0.00e+00	0	27	0	321912832	66	4203
2026-01-14 01:02:51.45	24.63	12.24	-50.1	-51.5	14.4	0.00e+00	0	27	0	325058560	66	4198
2026-01-14 01:02:52.45	24.62	12.34	-50.0	-51.4	14.4	0.00e+00	0	27	0	328204288	66	4184
2026-01-14 01:02:53.46	24.60	12.43	-50.0	-51.4	14.5	0.00e+00	0	27	0	331350016	66	4168
2026-01-14 01:02:54.47	24.59	12.53	-50.0	-51.3	14.5	0.00e+00	0	27	0	334495744	66	4126
2026-01-14 01:02:55.48	24.57	12.62	-49.9	-51.3	14.5	0.00e+00	0	28	0	337641472	66	4116
2026-01-14 01:02:56.49	24.56	12.72	-50.0	-51.3	14.5	0.00e+00	0	27	0	340787200	66	4145
2026-01-14 01:02:57.50	24.55	12.82	-49.9	-51.3	14.5	0.00e+00	0	27	0	343932928	66	4113
2026-01-14 01:02:58.51	24.53	12.92	-50.0	-51.3	14.5	0.00e+00	0	27	0	347078656	66	4141
2026-01-14 01:02:59.51	24.52	13.01	-49.9	-51.3	14.5	0.00e+00	0	27	0	350224384	66	4101
2026-01-14 01:03:00.53	24.50	13.11	-49.8	-51.2	14.5	0.00e+00	0	27	0	353370112	66	4069
2026-01-14 01:03:01.54	24.48	13.21	-49.8	-51.2	14.5	0.00e+00	0	27	0	356515840	66	4068
2026-01-14 01:03:02.55	24.47	13.31	-49.9	-51.2	14.5	0.00e+00	0	27	0	359661568	66	4068
2026-01-14 01:03:03.55	24.45	13.41	-50.0	-51.4	14.5	0.00e+00	0	27	0	362807296	66	4149
2026-01-14 01:03:04.56	24.44	13.51	-49.8	-51.2	14.6	0.00e+00	0	27	0	365953024	66	4053
2026-01-14 01:03:05.57	24.42	13.61	-49.7	-51.1	14.6	0.00e+00	0	27	0	369098752	66	4008
2026-01-14 01:03:06.57	24.41	13.71	-49.8	-51.1	14.6	0.00e+00	0	27	0	372244480	66	4026
2026-01-14 01:03:07.58	24.39	13.81	-49.8	-51.1	14.6	0.00e+00	0	27	0	375390208	66	4034
2026-01-14 01:03:08.59	24.37	13.92	-49.7	-51.0	14.6	0.00e+00	0	27	0	378535936	66	3987
2026-01-14 01:03:09.60	24.36	14.02	-49.8	-51.1	14.6	0.00e+00	0	27	0	381681664	66	4022
2026-01-14 01:03:10.60	24.34	14.12	-49.7	-51.0	14.6	0.00e+00	0	27	0	384827392	66	3999
2026-01-14 01:03:11.61	24.32	14.22	-49.6	-50.9	14.5	0.00e+00	0	27	0	387973120	65	4193
2026-01-14 01:03:12.62	24.31	14.33	-49.7	-51.0	14.5	0.00e+00	0	27	0	391118848	65	4217
2026-01-14 01:03:13.63	24.29	14.43	-49.8	-51.1	14.5	0.00e+00	0	27	0	394264576	65	4263
2026-01-14 01:03:14.64	24.27	14.54	-49.7	-51.1	14.5	0.00e+00	0	27	0	397410304	65	4244
2026-01-14 01:03:15.65	24.25	14.64	-49.7	-51.0	14.5	0.00e+00	0	27	0	400556032	65	4228
2026-01-14 01:03:16.66	24.24	14.75	-49.6	-50.9	14.6	0.00e+00	0	27	0	403701760	65	4157
2026-01-14 01:03:17.66	24.22	14.85	-49.6	-51.0	14.5	0.00e+00	0	27	0	406847488	65	4194
2026-01-14 01:03:18.67	24.20	14.96	-49.6	-50.9	14.6	0.00e+00	0	27	0	409993216	65	4180
2026-01-14 01:03:19.68	24.18	15.07	-49.7	-51.0	14.5	0.00e+00	0	27	0	413138944	65	4224
2026-01-14 01:03:20.69	24.17	15.17	-49.7	-51.0	14.5	0.00e+00	0	27	0	416284672	65	4233
2026-01-14 01:03:21.70	24.15	15.28	-49.6	-50.9	14.5	0.00e+00	0	27	0	419430400	65	4179
2026-01-14 01:03:22.71	24.13	15.39	-49.5	-50.8	14.6	0.00e+00	0	27	0	422576128	65	4136
2026-01-14 01:03:23.72	24.11	15.50	-49.6	-50.9	14.5	0.00e+00	0	27	0	425721856	65	4184
2026-01-14 01:03:24.73	24.09	15.61	-49.6	-50.8	14.6	0.00e+00	0	27	0	428867584	65	4141
2026-01-14 01:03:25.73	24.07	15.72	-49.6	-50.9	14.6	0.00e+00	0	27	0	432013312	65	4169
2026-01-14 01:03:26.74	24.05	15.83	-49.7	-51.0	14.5	0.00e+00	0	27	0	435159040	65	4214
2026-01-14 01:03:27.76	24.03	15.94	-49.7	-51.0	14.5	0.00e+00	0	27	0	438304768	65	4215
2026-01-14 01:03:28.76	24.01	16.05	-49.6	-50.9	14.6	0.00e+00	0	27	0	441450496	65	4173
2026-01-14 01:03:29.77	23.99	16.16	-49.7	-51.0	14.5	0.00e+00	0	27	0	444596224	65	4199
2026-01-14 01:03:30.79	23.97	16.27	-49.8	-51.1	14.5	0.00e+00	0	27	0	447741952	65	4259
2026-01-14 01:03:31.79	23.95	16.38	-49.8	-51.1	14.5	0.00e+00	0	27	0	450887680	65	4255
2026-01-14 01:03:32.80	23.93	16.50	-49.7	-51.0	14.5	0.00e+00	0	27	0	454033408	65	4222
2026-01-14 01:03:33.81	23.91	16.61	-49.8	-51.1	14.5	0.00e+00	0	28	0	457179136	65	4273
2026-01-14 01:03:34.82	23.89	16.73	-49.8	-51.2	14.4	0.00e+00	0	27	0	460324864	65	4304
2026-01-14 01:03:35.83	23.87	16.84	-49.9	-51.2	14.4	0.00e+00	0	27	0	463470592	65	4316
2026-01-14 01:03:36.84	23.85	16.96	-49.9	-51.3	14.4	0.00e+00	0	27	0	466616320	65	4362
2026-01-14 01:03:37.84	23.83	17.07	-50.0	-51.3	14.4	0.00e+00	0	27	0	469762048	65	4383
2026-01-14 01:03:38.85	23.81	17.19	-49.9	-51.3	14.4	0.00e+00	0	27	0	472907776	65	4351
2026-01-14 01:03:39.86	23.79	17.30	-49.9	-51.3	14.4	0.00e+00	0	27	0	476053504	65	4352
2026-01-14 01:03:40.86	23.77	17.42	-50.0	-51.3	14.4	0.00e+00	0	27	0	479199232	65	4390
2026-01-14 01:03:41.87	23.74	17.54	-50.0	-51.3	14.4	0.00e+00	0	27	0	482344960	65	4383
2026-01-14 01:03:42.88	23.72	17.66	-50.0	-51.4	14.4	0.00e+00	0	27	0	485490688	65	4399
2026-01-14 01:03:43.89	23.70	17.78	-50.0	-51.3	14.4	0.00e+00	0	27	0	488636416	65	4379
2026-01-14 01:03:44.90	23.68	17.90	-50.0	-51.4	14.4	0.00e+00	0	27	0	491782144	65	4397
2026-01-14 01:03:45.91	23.65	18.02	-50.0	-51.4	14.4	0.00e+00	0	27	0	494927872	65	4405
2026-01-14 01:03:46.92	23.63	18.14	-50.1	-51.4	14.4	0.00e+00	0	27	0	498073600	65	4426
2026-01-14 01:03:47.93	23.61	18.26	-50.0	-51.4	14.4	0.00e+00	0	27	0	501219328	65	4407
2026-01-14 01:03:48.94	23.58	18.38	-50.1	-51.5	14.3	0.00e+00	0	27	0	504365056	65	4460
2026-01-14 01:03:49.94	23.56	18.50	-50.0	-51.4	14.4	0.00e+00	0	27	0	507510784	65	4393
2026-01-14 01:03:50.95	23.54	18.63	-50.0	-51.4	14.4	0.00e+00	0	27	0	510656512	65	4399
2026-01-14 01:03:51.96	23.51	18.75	-50.0	-51.4	14.4	0.00e+00	0	27	0	513802240	65	4399
2026-01-14 01:03:52.96	23.49	18.87	-49.9	-51.3	14.4	0.00e+00	0	27	0	516947968	65	4356
2026-01-14 01:03:53.97	23.46	19.00	-49.9	-51.3	14.4	0.00e+00	0	28	0	520093696	65	4359
2026-01-14 01:03:54.98	23.44	19.13	-50.0	-51.3	14.4	0.00e+00	0	27	0	523239424	65	4386
2026-01-14 01:03:55.98	23.41	19.25	-49.9	-51.2	14.5	0.00e+00	0	27	0	526385152	65	4324
2026-01-14 01:03:56.99	23.39	19.38	-49.9	-51.2	14.4	0.00e+00	0	27	0	529530880	65	4332
2026-01-14 01:03:58.00	23.36	19.51	-49.8	-51.1	14.5	0.00e+00	0	27	0	532676608	65	4282
2026-01-14 01:03:59.01	23.34	19.63	-49.9	-51.2	14.5	0.00e+00	0	27	0	535822336	65	4316
2026-01-14 01:04:00.02	23.31	19.76	-49.7	-51.0	14.5	0.00e+00	0	27	0	538968064	65	4217
2026-01-14 01:04:01.03	23.28	19.89	-49.7	-51.0	14.5	0.00e+00	0	27	0	542113792	65	4217
2026-01-14 01:04:02.04	23.26	20.02	-49.7	-51.0	14.5	0.00e+00	0	27	0	545259520	65	4241
2026-01-14 01:04:03.05	23.23	20.16	-49.7	-51.1	14.5	0.00e+00	0	27	0	548405248	65	4246
2026-01-14 01:04:04.06	23.20	20.29	-49.5	-50.8	14.6	0.00e+00	0	27	0	551550976	65	4137
2026-01-14 01:04:05.07	23.18	20.42	-49.5	-50.8	14.6	0.00e+00	0	27	0	554696704	65	4123
2026-01-14 01:04:06.08	23.15	20.55	-49.4	-50.7	14.7	0.00e+00	0	27	0	558891008	65	4077
2026-01-14 01:04:07.09	23.12	20.69	-49.3	-50.6	14.7	0.00e+00	0	27	0	562036736	65	4025
2026-01-14 01:04:08.10	23.09	20.82	-49.3	-50.5	14.7	0.00e+00	0	27	0	564133888	65	3991
2026-01-14 01:04:09.11	23.06	20.96	-49.3	-50.5	14.7	0.00e+00	0	27	0	567279616	65	3978
2026-01-14 01:04:10.12	23.04	21.09	-49.2	-50.5	14.8	0.00e+00	0	27	0	570425344	65	3969
2026-01-14 01:04:11.13	23.01	21.23	-49.2	-50.4	14.7	0.00e+00	0	28	0	573571072	64	4167
2026-01-14 01:04:12.13	22.98	21.37	-49.1	-50.3	14.7	0.00e+00	0	28	0	577765376	64	4121
2026-01-14 01:04:13.14	22.95	21.50	-49.0	-50.2	14.7	0.00e+00	0	27	0	580911104	64	4076
2026-01-14 01:04:14.15	22.92	21.64	-48.9	-50.1	14.7	0.00e+00	0	28	0	584056832	64	4044
2026-01-14 01:04:15.16	22.89	21.78	-48.9	-50.1	14.8	0.00e+00	0	28	0	587202560	64	4021
2026-01-14 01:04:16.17	22.86	21.92	-48.9	-50.1	14.8	0.00e+00	0	28	0	589299712	64	4045
2026-01-14 01:04:17.18	22.83	22.06	-48.8	-50.0	14.8	0.00e+00	0	27	0	593494016	64	3974
2026-01-14 01:04:18.19	22.79	22.21	-48.6	-49.8	14.8	0.00e+00	0	27	0	596639744	63	4125
2026-01-14 01:04:19.20	22.76	22.35	-48.6	-49.8	14.8	0.00e+00	0	27	0	599785472	63	4099
2026-01-14 01:04:20.21	22.73	22.49	-48.6	-49.8	14.8	0.00e+00	0	27	0	602931200	63	4127
2026-01-14 01:04:21.21	22.70	22.64	-48.6	-49.8	14.7	0.00e+00	0	27	0	606076928	63	4127
2026-01-14 01:04:22.22	22.67	22.78	-48.6	-49.7	14.8	0.00e+00	0	27	0	609222656	63	4090
2026-01-14 01:04:23.23	22.63	22.93	-48.5	-49.7	14.8	0.00e+00	0	27	0	612368384	63	4079
2026-01-14 01:04:24.24	22.60	23.07	-48.5	-49.6	14.8	0.00e+00	0	27	0	615514112	63	4034
2026-01-14 01:04:25.24	22.57	23.22	-48.3	-49.5	14.9	0.00e+00	0	28	0	618659840	63	3979
2026-01-14 01:04:26.25	22.53	23.37	-48.5	-49.7	14.8	0.00e+00	0	27	0	621805568	63	4061
2026-01-14 01:04:27.26	22.50	23.52	-48.5	-49.6	14.8	0.00e+00	0	27	0	624951296	63	4039
2026-01-14 01:04:28.27	22.46	23.67	-48.3	-49.5	14.9	0.00e+00	0	28	0	628097024	63	3976
2026-01-14 01:04:29.28	22.43	23.82	-48.4	-49.6	14.8	0.00e+00	0	28	0	631242752	63	4021
2026-01-14 01:04:30.29	22.39	23.97	-48.5	-49.6	14.8	0.00e+00	0	27	0	634388480	63	4042
2026-01-14 01:04:31.29	22.36	24.12	-48.5	-49.6	14.8	0.00e+00	0	28	0	637534208	63	4044
2026-01-14 01:04:32.31	22.32	24.28	-48.5	-49.7	14.8	0.00e+00	0	27	0	640679936	63	4065
2026-01-14 01:04:33.31	22.29	24.43	-48.5	-49.6	14.8	0.00e+00	0	28	0	643825664	63	4042
2026-01-14 01:04:34.33	22.25	24.59	-48.6	-49.8	14.8	0.00e+00	0	27	0	646971392	63	4115
2026-01-14 01:04:35.33	22.21	24.74	-48.6	-49.8	14.8	0.00e+00	0	27	0	650117120	63	4133
2026-01-14 01:04:36.34	22.17	24.90	-48.7	-49.9	14.8	0.00e+00	0	27	0	653262848	63	4159
2026-01-14 01:04:37.35	22.13	25.06	-48.8	-50.0	14.7	0.00e+00	0	27	0	656408576	63	4200
2026-01-14 01:04:38.35	22.10	25.22	-48.8	-50.0	14.7	0.00e+00	0	27	0	659554304	63	4227
2026-01-14 01:04:39.37	22.06	25.38	-48.9	-50.1	14.7	0.00e+00	0	27	0	662700032	63	4289
2026-01-14 01:04:40.38	22.02	25.54	-49.1	-50.3	14.6	0.00e+00	0	27	0	665845760	63	4364
2026-01-14 01:04:41.38	21.98	25.70	-49.1	-50.3	14.6	0.00e+00	0	27	0	668991488	63	4376
2026-01-14 01:04:42.38	21.94	25.86	-49.2	-50.4	14.6	0.00e+00	0	28	0	672137216	63	4422
2026-01-14 01:04:43.39	21.90	26.03	-49.4	-50.6	14.5	0.00e+00	0	27	0	675282944	63	4536
2026-01-14 01:04:44.40	21.86	26.19	-49.5	-50.7	14.6	0.00e+00	0	28	0	678428672	64	4332
2026-01-14 01:04:45.41	21.81	26.36	-49.6	-50.9	14.5	0.00e+00	0	28	0	681574400	64	4413
2026-01-14 01:04:46.42	21.77	26.53	-49.7	-51.0	14.5	0.00e+00	0	28	0	684720128	64	4465
2026-01-14 01:04:47.43	21.73	26.69	-49.8	-51.1	14.4	0.00e+00	0	27	0	687865856	64	4537
2026-01-14 01:04:48.44	21.69	26.86	-49.8	-51.1	14.4	0.00e+00	0	27	0	691011584	64	4537
2026-01-14 01:04:49.44	21.64	27.03	-49.9	-51.3	14.5	0.00e+00	0	28	0	694157312	65	4346
2026-01-14 01:04:50.45	21.60	27.20	-49.9	-51.2	14.5	0.00e+00	0	28	0	697303040	65	4324
2026-01-14 01:04:51.46	21.55	27.37	-50.0	-51.3	14.4	0.00e+00	0	28	0	700448768	65	4382
2026-01-14 01:04:52.47	21.51	27.55	-50.1	-51.4	14.4	0.00e+00	0	28	0	703594496	65	4409
2026-01-14 01:04:53.47	21.46	27.72	-50.1	-51.4	14.4	0.00e+00	0	27	0	706740224	65	4411
2026-01-14 01:04:54.49	21.41	27.90	-50.1	-51.4	14.4	0.00e+00	0	27	0	709885952	65	4426
2026-01-14 01:04:55.50	21.37	28.07	-50.1	-51.4	14.4	0.00e+00	0	27	0	713031680	65	4434
2026-01-14 01:04:56.50	21.32	28.25	-50.1	-51.4	14.4	0.00e+00	0	28	0	716177408	65	4417
2026-01-14 01:04:57.51	21.27	28.43	-50.2	-51.5	14.4	0.00e+00	0	27	0	719323136	65	4471
2026-01-14 01:04:58.51	21.22	28.61	-50.1	-51.5	14.4	0.00e+00	0	27	0	722468864	65	4453
2026-01-14 01:04:59.52	21.17	28.79	-50.2	-51.5	14.3	0.00e+00	0	28	0	725614592	65	4479
2026-01-14 01:05:00.53	21.12	28.97	-50.2	-51.6	14.3	0.00e+00	0	27	0	728760320	65	4514
2026-01-14 01:05:01.54	21.07	29.15	-50.2	-51.5	14.3	0.00e+00	0	27	0	731906048	65	4478
2026-01-14 01:05:02.55	21.02	29.34	-50.0	-51.4	14.4	0.00e+00	0	27	0	735051776	65	4408
2026-01-14 01:05:03.56	20.97	29.53	-50.1	-51.4	14.4	0.00e+00	0	28	0	738197504	65	4428
2026-01-14 01:05:04.56	20.92	29.71	-50.0	-51.3	14.4	0.00e+00	0	27	0	741343232	65	4363
2026-01-14 01:05:05.57	20.87	29.90	-50.0	-51.4	14.4	0.00e+00	0	28	0	744488960	65	4403
2026-01-14 01:05:06.58	20.81	30.09	-49.8	-51.2	14.5	0.00e+00	0	27	0	747634688	65	4300
2026-01-14 01:05:07.59	20.76	30.28	-49.7	-51.0	14.5	0.00e+00	0	28	0	750780416	65	4239
2026-01-14 01:05:08.60	20.70	30.47	-49.7	-51.0	14.5	0.00e+00	0	27	0	753926144	65	4224
2026-01-14 01:05:09.61	20.65	30.66	-49.7	-50.9	14.6	0.00e+00	0	28	0	757071872	65	4191
2026-01-14 01:05:10.62	20.59	30.86	-49.6	-50.9	14.6	0.00e+00	0	28	0	760217600	65	4171
2026-01-14 01:05:11.62	20.53	31.05	-49.5	-50.8	14.6	0.00e+00	0	27	0	763363328	65	4108
2026-01-14 01:05:12.62	20.48	31.25	-49.5	-50.8	14.6	0.00e+00	0	27	0	766509056	65	4122
2026-01-14 01:05:13.63	20.42	31.45	-49.5	-50.8	14.6	0.00e+00	0	27	0	769654784	65	4125
2026-01-14 01:05:14.64	20.36	31.64	-49.4	-50.7	14.7	0.00e+00	0	28	0	772800512	65	4054
2026-01-14 01:05:15.64	20.30	31.84	-49.3	-50.5	14.8	0.00e+00	0	28	0	775946240	65	3979
2026-01-14 01:05:16.65	20.24	32.05	-49.4	-50.6	14.7	0.00e+00	0	27	0	779091968	65	4026
2026-01-14 01:05:17.66	20.17	32.25	-49.3	-50.6	14.7	0.00e+00	0	28	0	782237696	65	4024
2026-01-14 01:05:18.67	20.11	32.45	-49.2	-50.4	14.8	0.00e+00	0	28	0	785383424	65	3946
2026-01-14 01:05:19.68	20.05	32.66	-49.3	-50.6	14.7	0.00e+00	0	27	0	788529152	65	4005
2026-01-14 01:05:20.68	19.98	32.87	-49.4	-50.7	14.7	0.00e+00	0	28	0	791674880	65	4066
2026-01-14 01:05:21.69	19.92	33.08	-49.6	-50.9	14.6	0.00e+00	0	28	0	794820608	65	4165
2026-01-14 01:05:22.70	19.85	33.29	-49.7	-51.0	14.6	0.00e+00	0	27	0	797966336	65	4210
2026-01-14 01:05:23.71	19.78	33.50	-49.9	-51.2	14.5	0.00e+00	0	27	0	801112064	65	4292
2026-01-14 01:05:24.72	19.72	33.71	-50.0	-51.3	14.5	0.00e+00	0	27	0	804257792	65	4370
2026-01-14 01:05:25.73	19.65	33.93	-50.0	-51.4	14.4	0.00e+00	0	28	0	807403520	65	4392
2026-01-14 01:05:26.74	19.58	34.14	-50.1	-51.4	14.4	0.00e+00	0	28	0	810549248	65	4425
2026-01-14 01:05:27.75	19.50	34.36	-50.1	-51.4	14.4	0.00e+00	0	27	0	813694976	65	4424
2026-01-14 01:05:28.76	19.43	34.58	-50.0	-51.3	14.5	0.00e+00	0	28	0	816840704	65	4386
2026-01-14 01:05:29.76	19.36	34.80	-50.2	-51.5	14.5	0.00e+00	0	27	0	819986432	66	4219
2026-01-14 01:05:30.78	19.29	35.02	-50.1	-51.5	14.5	0.00e+00	0	27	0	823132160	66	4203
2026-01-14 01:05:31.78	19.21	35.24	-50.2	-51.5	14.5	0.00e+00	0	28	0	826277888	66	4221
2026-01-14 01:05:32.80	19.13	35.47	-50.3	-51.7	14.4	0.00e+00	0	28	0	829423616	66	4303
2026-01-14 01:05:33.80	19.06	35.70	-50.4	-51.8	14.4	0.00e+00	0	27	0	832569344	66	4345
2026-01-14 01:05:34.81	18.98	35.92	-50.5	-51.9	14.4	0.00e+00	0	27	0	835715072	66	4393
2026-01-14 01:05:35.81	18.90	36.15	-50.6	-52.0	14.3	0.00e+00	0	27	0	838860800	66	4454
2026-01-14 01:05:36.82	18.82	36.38	-50.7	-52.1	14.3	0.00e+00	0	27	0	842006528	66	4517
2026-01-14 01:05:37.83	18.74	36.62	-50.7	-52.1	14.3	0.00e+00	0	28	0	845152256	66	4530
2026-01-14 01:05:38.84	18.65	36.85	-50.8	-52.1	14.3	0.00e+00	0	27	0	848297984	66	4540
2026-01-14 01:05:39.85	18.57	37.09	-50.8	-52.1	14.3	0.00e+00	0	28	0	851443712	66	4526
2026-01-14 01:05:40.86	18.48	37.32	-50.9	-52.2	14.2	0.00e+00	0	28	0	854589440	66	4592
2026-01-14 01:05:41.87	18.39	37.56	-50.9	-52.3	14.3	0.00e+00	0	28	0	857735168	67	4368
2026-01-14 01:05:42.88	18.30	37.81	-50.8	-52.1	14.3	0.00e+00	0	28	0	860880896	67	4282
2026-01-14 01:05:43.89	18.21	38.05	-50.9	-52.2	14.3	0.00e+00	0	28	0	864026624	67	4331
2026-01-14 01:05:44.90	18.12	38.29	-51.0	-52.4	14.2	0.00e+00	0	28	0	867172352	67	4397
2026-01-14 01:05:45.91	18.03	38.54	-51.2	-52.6	14.2	0.00e+00	0	27	0	870318080	67	4513
2026-01-14 01:05:46.92	17.94	38.79	-51.2	-52.6	14.1	0.00e+00	0	28	0	873463808	67	4530
2026-01-14 01:05:47.93	17.84	39.04	-51.2	-52.6	14.2	0.00e+00	0	28	0	876609536	67	4527
2026-01-14 01:05:48.94	17.74	39.29	-51.2	-52.6	14.2	0.00e+00	0	28	0	879755264	67	4540
2026-01-14 01:05:49.95	17.64	39.54	-51.1	-52.5	14.2	0.00e+00	0	27	0	882900992	67	4468
2026-01-14 01:05:50.96	17.54	39.80	-50.9	-52.3	14.3	0.00e+00	0	28	0	886046720	67	4374
2026-01-14 01:05:51.97	17.44	40.05	-50.8	-52.1	14.4	0.00e+00	0	28	0	889192448	67	4270
2026-01-14 01:05:52.97	17.34	40.31	-50.8	-52.2	14.4	0.00e+00	0	28	0	892338176	67	4294
2026-01-14 01:05:53.98	17.23	40.57	-50.9	-52.2	14.3	0.00e+00	0	27	0	895483904	67	4337
2026-01-14 01:05:54.99	17.12	40.83	-50.9	-52.3	14.3	0.00e+00	0	28	0	898629632	67	4366
2026-01-14 01:05:56.00	17.01	41.09	-51.0	-52.4	14.3	0.00e+00	0	27	0	901775360	67	4393
2026-01-14 01:05:57.00	16.90	41.36	-51.3	-52.7	14.1	0.00e+00	0	27	0	904921088	67	4576
2026-01-14 01:05:58.01	16.79	41.63	-51.7	-53.2	14.1	0.00e+00	0	27	0	908066816	68	4570
2026-01-14 01:05:59.02	16.67	41.89	-51.8	-53.3	14.0	0.00e+00	0	28	0	911212544	68	4628
2026-01-14 01:06:00.03	16.56	42.17	-51.8	-53.4	14.0	0.00e+00	0	27	0	914358272	68	4652
2026-01-14 01:06:01.04	16.44	42.44	-52.0	-53.5	14.0	0.00e+00	0	27	0	917504000	69	4491
2026-01-14 01:06:02.05	16.32	42.71	-52.0	-53.5	14.1	0.00e+00	0	27	0	920649728	69	4462
2026-01-14 01:06:03.05	16.19	42.99	-51.9	-53.5	14.1	0.00e+00	0	27	0	923795456	69	4448
2026-01-14 01:06:04.06	16.07	43.27	-51.9	-53.5	14.1	0.00e+00	0	28	0	926941184	69	4453
2026-01-14 01:06:05.07	15.94	43.55	-52.1	-53.6	14.0	0.00e+00	0	28	0	930086912	69	4515
2026-01-14 01:06:06.08	15.81	43.83	-52.2	-53.8	13.9	0.00e+00	0	27	0	933232640	69	4626
2026-01-14 01:06:07.09	15.68	44.11	-52.2	-53.8	13.9	0.00e+00	0	27	0	936378368	69	4613
2026-01-14 01:06:08.10	15.54	44.40	-52.4	-54.0	13.8	0.00e+00	0	27	0	939524096	69	4735
2026-01-14 01:06:09.11	15.40	44.69	-52.5	-54.1	13.9	0.00e+00	0	28	0	942669824	70	4542
2026-01-14 01:06:10.12	15.26	44.98	-52.5	-54.2	13.8	0.00e+00	0	28	0	945815552	70	4587
2026-01-14 01:06:11.13	15.12	45.27	-52.9	-54.6	13.6	0.00e+00	0	28	0	948961280	70	4780
2026-01-14 01:06:12.13	14.98	45.56	-52.9	-54.6	13.6	0.00e+00	0	28	0	952107008	70	4801
2026-01-14 01:06:13.14	14.83	45.86	-53.1	-54.8	13.6	0.00e+00	0	27	0	955252736	71	4647
2026-01-14 01:06:14.15	14.68	46.15	-53.0	-54.8	13.6	0.00e+00	0	27	0	958398464	71	4629
2026-01-14 01:06:15.15	14.52	46.45	-52.7	-54.4	13.8	0.00e+00	0	27	0	961544192	71	4440
2026-01-14 01:06:16.16	14.37	46.75	-52.4	-54.0	14.0	0.00e+00	0	28	0	964689920	71	4205
2026-01-14 01:06:17.16	14.21	47.05	-52.0	-53.5	14.1	0.00e+00	0	28	0	967835648	70	4216
2026-01-14 01:06:18.17	14.04	47.36	-52.0	-53.5	14.2	0.00e+00	0	28	0	970981376	70	4219
2026-01-14 01:06:19.18	13.88	47.67	-51.9	-53.5	14.1	0.00e+00	0	28	0	974127104	70	4210
2026-01-14 01:06:20.19	13.71	47.98	-51.8	-53.3	14.3	0.00e+00	0	27	0	977272832	70	4122
2026-01-14 01:06:21.20	13.53	48.29	-51.9	-53.4	14.2	0.00e+00	0	27	0	980418560	70	4191
2026-01-14 01:06:22.21	13.35	48.60	-52.0	-53.5	14.2	0.00e+00	0	28	0	983564288	70	4211
2026-01-14 01:06:23.22	13.17	48.92	-51.8	-53.3	14.3	0.00e+00	0	28	0	986710016	70	4129
2026-01-14 01:06:24.22	12.99	49.23	-51.9	-53.4	14.2	0.00e+00	0	27	0	989855744	70	4192
2026-01-14 01:06:25.23	12.80	49.55	-51.8	-53.3	14.3	0.00e+00	0	28	0	993001472	70	4105
2026-01-14 01:06:26.24	12.61	49.87	-51.5	-52.9	14.3	0.00e+00	0	28	0	996147200	69	4186
2026-01-14 01:06:27.25	12.41	50.19	-51.5	-52.9	14.3	0.00e+00	0	28	0	999292928	69	4173
2026-01-14 01:06:28.26	12.21	50.52	-51.3	-52.7	14.4	0.00e+00	0	27	0	1002438656	69	4098
2026-01-14 01:06:29.27	12.00	50.84	-51.3	-52.8	14.4	0.00e+00	0	28	0	1005584384	69	4099
2026-01-14 01:06:30.28	11.79	51.17	-51.5	-52.9	14.3	0.00e+00	0	27	0	1008730112	69	4181
2026-01-14 01:06:31.29	11.57	51.50	-51.4	-52.9	14.3	0.00e+00	0	28	0	1011875840	69	4160
2026-01-14 01:06:32.30	11.35	51.84	-51.5	-52.9	14.3	0.00e+00	0	27	0	1015021568	69	4175
2026-01-14 01:06:33.31	11.13	52.17	-51.3	-52.7	14.4	0.00e+00	0	28	0	1018167296	69	4095
2026-01-14 01:06:34.31	10.90	52.50	-51.2	-52.6	14.5	0.00e+00	0	28	0	1021313024	69	4026
2026-01-14 01:06:35.32	10.66	52.84	-51.1	-52.4	14.4	0.00e+00	0	28	0	1024458752	68	4190
2026-01-14 01:06:36.33	10.42	53.18	-50.9	-52.2	14.5	0.00e+00	0	28	0	1027604480	68	4094
2026-01-14 01:06:37.34	10.17	53.52	-50.8	-52.1	14.6	0.00e+00	0	28	0	1030750208	68	4019
2026-01-14 01:06:38.35	9.92	53.87	-50.4	-51.7	14.6	0.00e+00	0	28	0	1033895936	67	4073
2026-01-14 01:06:39.36	9.66	54.21	-50.5	-51.8	14.6	0.00e+00	0	28	0	1037041664	67	4104
2026-01-14 01:06:40.37	9.39	54.56	-50.4	-51.7	14.6	0.00e+00	0	27	0	1040187392	67	4072
2026-01-14 01:06:41.37	9.12	54.90	-50.5	-51.8	14.5	0.00e+00	0	28	0	1043333120	67	4134
2026-01-14 01:06:42.38	8.84	55.25	-50.5	-51.8	14.5	0.00e+00	0	28	0	1046478848	67	4130
2026-01-14 01:06:43.39	8.55	55.60	-50.3	-51.6	14.6	0.00e+00	0	28	0	1049624576	67	4042
2026-01-14 01:06:44.40	8.26	55.96	-50.1	-51.4	14.6	0.00e+00	0	28	0	1052770304	66	4183
2026-01-14 01:06:45.41	7.96	56.31	-49.6	-50.8	14.8	0.00e+00	0	28	0	1055916032	65	4129
2026-01-14 01:06:46.41	7.65	56.66	-49.2	-50.4	14.9	0.00e+00	0	28	0	1059061760	65	3922
2026-01-14 01:06:47.42	7.33	57.02	-49.2	-50.4	14.9	0.00e+00	0	28	0	1062207488	65	3923
2026-01-14 01:06:48.43	7.01	57.38	-49.3	-50.5	14.7	0.00e+00	0	28	0	1065353216	64	4225
2026-01-14 01:06:49.44	6.67	57.74	-49.4	-50.7	14.6	0.00e+00	0	28	0	1068498944	64	4298
2026-01-14 01:06:50.45	6.33	58.10	-49.5	-50.8	14.6	0.00e+00	0	28	0	1071644672	64	4354
2026-01-14 01:06:51.46	5.97	58.47	-49.2	-50.5	14.7	0.00e+00	0	27	0	1074790400	64	4194
2026-01-14 01:06:52.47	5.61	58.83	-49.2	-50.4	14.7	0.00e+00	0	27	0	1077936128	64	4157
2026-01-14 01:06:53.48	5.23	59.20	-49.2	-50.4	14.8	0.00e+00	0	28	0	1081081856	64	4153
2026-01-14 01:06:54.48	4.85	59.56	-48.9	-50.1	14.9	0.00e+00	0	28	0	1084227584	64	4017
2026-01-14 01:06:55.48	4.46	59.92	-49.0	-50.2	14.8	0.00e+00	0	28	0	1087373312	64	4060
2026-01-14 01:06:56.49	4.05	60.29	-49.1	-50.3	14.8	0.00e+00	0	28	0	1090519040	64	4126
2026-01-14 01:06:57.50	3.63	60.66	-49.5	-50.7	14.6	0.00e+00	0	28	0	1093664768	64	4306
2026-01-14 01:06:58.51	3.20	61.03	-49.2	-50.4	14.7	0.00e+00	0	28	0	1096810496	64	4184
2026-01-14 01:06:59.52	2.75	61.40	-49.2	-50.4	14.7	0.00e+00	0	28	0	1099956224	64	4180
2026-01-14 01:07:00.52	2.30	61.76	-49.0	-50.1	14.8	0.00e+00	0	28	0	1103101952	64	4046
2026-01-14 01:07:01.53	1.82	62.14	-48.7	-49.8	14.9	0.00e+00	0	27	0	1106247680	64	3910
2026-01-14 01:07:02.54	1.34	62.51	-48.7	-49.8	14.8	0.00e+00	0	27	0	1109393408	63	4132
2026-01-14 01:07:03.55	0.83	62.88	-48.6	-49.8	14.8	0.00e+00	0	27	0	1112539136	63	4099
2026-01-14 01:07:04.56	0.31	63.25	-48.6	-49.7	14.8	0.00e+00	0	28	0	1115684864	63	4087
2026-01-14 01:07:05.57	359.78	63.62	-48.7	-49.9	14.8	0.00e+00	0	28	0	1118830592	63	4147
2026-01-14 01:07:06.58	359.22	63.99	-48.7	-49.9	14.8	0.00e+00	0	28	0	1121976320	63	4166
2026-01-14 01:07:07.59	358.65	64.36	-48.8	-49.9	14.8	0.00e+00	0	28	0	1125122048	63	4189
2026-01-14 01:07:08.60	358.06	64.73	-48.8	-49.9	14.8	0.00e+00	0	28	0	1128267776	63	4189
2026-01-14 01:07:09.61	357.45	65.10	-48.8	-50.0	14.8	0.00e+00	0	28	0	1131413504	63	4203
2026-01-14 01:07:10.62	356.82	65.47	-48.7	-49.9	14.8	0.00e+00	0	28	0	1134559232	63	4173
2026-01-14 01:07:11.63	356.17	65.84	-48.8	-50.0	14.8	0.00e+00	0	28	0	1138753536	63	4198
2026-01-14 01:07:12.63	355.50	66.20	-48.7	-49.8	14.8	0.00e+00	0	28	0	1141899264	63	4129
2026-01-14 01:07:13.64	354.81	66.57	-48.6	-49.7	14.9	0.00e+00	0	28	0	1143996416	63	4069
2026-01-14 01:07:14.65	354.08	66.93	-48.4	-49.5	14.9	0.00e+00	0	28	0	1147142144	63	3967
2026-01-14 01:07:15.66	353.34	67.29	-48.4	-49.6	14.9	0.00e+00	0	28	0	1150287872	63	4005
2026-01-14 01:07:16.67	352.56	67.65	-48.2	-49.3	15.0	0.00e+00	0	28	0	1153433600	63	3890
2026-01-14 01:07:17.68	351.76	68.01	-47.8	-48.8	15.0	0.00e+00	0	28	0	1157627904	62	3911
2026-01-14 01:07:18.69	350.93	68.36	-47.9	-48.9	15.0	0.00e+00	0	28	0	1160773632	62	3950
2026-01-14 01:07:19.70	350.07	68.71	-48.2	-49.3	14.9	0.00e+00	0	27	0	1163919360	62	4121
2026-01-14 01:07:20.71	349.18	69.06	-48.1	-49.2	14.9	0.00e+00	0	28	0	1166016512	62	4098
2026-01-14 01:07:21.71	348.27	69.40	-48.0	-49.1	14.9	0.00e+00	0	27	0	1169162240	62	4046
2026-01-14 01:07:22.72	347.31	69.74	-48.1	-49.2	14.9	0.00e+00	0	28	0	1172307968	62	4074
2026-01-14 01:07:23.73	346.32	70.08	-48.5	-49.6	14.8	0.00e+00	0	28	0	1176502272	62	4291
2026-01-14 01:07:24.74	345.29	70.41	-48.5	-49.7	14.8	0.00e+00	0	28	0	1179648000	62	4307
2026-01-14 01:07:25.75	344.22	70.73	-48.4	-49.6	14.8	0.00e+00	0	28	0	1182793728	62	4247
2026-01-14 01:07:26.75	343.13	71.05	-48.3	-49.5	14.8	0.00e+00	0	27	0	1185939456	62	4195
2026-01-14 01:07:27.76	341.98	71.37	-48.0	-49.1	14.9	0.00e+00	0	28	0	1189085184	62	4013
2026-01-14 01:07:28.77	340.80	71.68	-48.2	-49.3	14.9	0.00e+00	0	27	0	1191182336	62	4122
2026-01-14 01:07:29.78	339.57	71.98	-48.4	-49.5	14.8	0.00e+00	0	27	0	1195376640	62	4222
2026-01-14 01:07:30.79	338.30	72.27	-48.5	-49.6	14.8	0.00e+00	0	27	0	1198522368	62	4291
2026-01-14 01:07:31.80	336.98	72.56	-48.4	-49.5	14.8	0.00e+00	0	28	0	1201668096	62	4239
2026-01-14 01:07:32.81	335.61	72.84	-48.3	-49.4	14.9	0.00e+00	0	28	0	1204813824	62	4159
2026-01-14 01:07:33.82	334.20	73.11	-48.3	-49.4	14.9	0.00e+00	0	28	0	1207959552	62	4177
2026-01-14 01:07:34.82	332.76	73.36	-48.8	-50.0	14.7	0.00e+00	0	28	0	1211105280	62	4446
2026-01-14 01:07:35.83	331.26	73.61	-48.9	-50.1	14.7	0.00e+00	0	27	0	1214251008	63	4258
2026-01-14 01:07:36.84	329.70	73.85	-48.9	-50.1	14.7	0.00e+00	0	28	0	1217396736	63	4256
2026-01-14 01:07:37.85	328.10	74.08	-48.7	-49.9	14.8	0.00e+00	0	28	0	1220542464	63	4168
2026-01-14 01:07:38.86	326.45	74.29	-48.4	-49.5	14.9	0.00e+00	0	27	0	1223688192	63	3989
2026-01-14 01:07:39.86	324.78	74.50	-48.3	-49.4	15.0	0.00e+00	0	28	0	1226833920	63	3949
2026-01-14 01:07:40.87	323.04	74.69	-48.6	-49.7	14.9	0.00e+00	0	28	0	1229979648	63	4091
2026-01-14 01:07:41.88	321.25	74.86	-48.8	-50.0	14.8	0.00e+00	0	27	0	1233125376	63	4215
2026-01-14 01:07:42.89	319.43	75.03	-48.8	-49.9	14.8	0.00e+00	0	28	0	1236271104	63	4177
2026-01-14 01:07:43.90	317.56	75.17	-48.7	-49.9	14.8	0.00e+00	0	28	0	1239416832	63	4166
2026-01-14 01:07:44.91	315.66	75.31	-48.8	-50.0	14.8	0.00e+00	0	27	0	1242562560	63	4199
2026-01-14 01:07:45.92	313.72	75.42	-49.0	-50.2	14.7	0.00e+00	0	28	0	1245708288	63	4292
2026-01-14 01:07:46.93	311.76	75.52	-48.9	-50.0	14.8	0.00e+00	0	28	0	1248854016	63	4241
2026-01-14 01:07:47.94	309.77	75.60	-48.6	-49.7	14.9	0.00e+00	0	27	0	1251999744	63	4083
2026-01-14 01:07:48.95	307.75	75.67	-48.7	-49.8	14.8	0.00e+00	0	27	0	1255145472	63	4140
2026-01-14 01:07:49.96	305.72	75.72	-48.8	-49.9	14.8	0.00e+00	0	28	0	1258291200	63	4180
2026-01-14 01:07:50.97	303.68	75.75	-48.8	-50.0	14.8	0.00e+00	0	28	0	1261436928	63	4227
2026-01-14 01:07:51.97	301.65	75.77	-48.8	-50.0	14.8	0.00e+00	0	27	0	1264582656	63	4197
2026-01-14 01:07:52.97	299.62	75.76	-49.3	-50.5	14.6	0.00e+00	0	28	0	1267728384	63	4489
2026-01-14 01:07:53.98	297.57	75.74	-49.7	-50.9	14.6	0.00e+00	0	28	0	1270874112	64	4437
2026-01-14 01:07:54.99	295.53	75.70	-49.5	-50.7	14.7	0.00e+00	0	28	0	1274019840	64	4318
2026-01-14 01:07:56.00	293.51	75.65	-49.1	-50.3	14.8	0.00e+00	0	28	0	1277165568	64	4132
2026-01-14 01:07:57.02	291.48	75.57	-49.1	-50.3	14.8	0.00e+00	0	28	0	1280311296	64	4136
2026-01-14 01:07:58.02	289.52	75.48	-49.1	-50.2	14.8	0.00e+00	0	28	0	1283457024	64	4096
2026-01-14 01:07:59.03	287.56	75.38	-49.0	-50.2	14.8	0.00e+00	0	28	0	1286602752	64	4086
2026-01-14 01:08:00.04	285.64	75.25	-49.0	-50.1	14.8	0.00e+00	0	28	0	1289748480	64	4050
2026-01-14 01:08:01.04	283.77	75.12	-48.8	-49.9	14.9	0.00e+00	0	28	0	1292894208	64	3958
2026-01-14 01:08:02.05	281.92	74.96	-48.5	-49.6	14.9	0.00e+00	0	28	0	1296039936	63	4016
2026-01-14 01:08:03.05	280.13	74.80	-48.5	-49.6	14.9	0.00e+00	0	28	0	1299185664	63	4035
2026-01-14 01:08:04.06	278.36	74.61	-48.9	-50.1	14.7	0.00e+00	0	28	0	1302331392	63	4247
2026-01-14 01:08:05.07	276.64	74.42	-48.8	-50.0	14.8	0.00e+00	0	27	0	1305477120	63	4202
2026-01-14 01:08:06.08	274.96	74.21	-48.8	-49.9	14.8	0.00e+00	0	28	0	1308622848	63	4176
2026-01-14 01:08:07.09	273.33	73.99	-49.1	-50.3	14.7	0.00e+00	0	28	0	1311768576	63	4344
2026-01-14 01:08:08.10	271.75	73.76	-49.0	-50.2	14.7	0.00e+00	0	28	0	1314914304	63	4299
2026-01-14 01:08:09.11	270.21	73.51	-48.9	-50.0	14.8	0.00e+00	0	28	0	1318060032	63	4221
2026-01-14 01:08:10.12	268.72	73.26	-48.4	-49.5	14.9	0.00e+00	0	27	0	1321205760	63	4003
2026-01-14 01:08:11.13	267.28	73.00	-48.9	-50.1	14.8	0.00e+00	0	28	0	1324351488	63	4259
2026-01-14 01:08:12.14	265.89	72.72	-48.9	-50.1	14.8	0.00e+00	0	28	0	1327497216	63	4254
2026-01-14 01:08:13.14	264.56	72.44	-48.2	-49.3	15.0	0.00e+00	0	27	0	1330642944	63	3869
2026-01-14 01:08:14.16	263.25	72.15	-48.0	-49.0	15.0	0.00e+00	0	27	0	1333788672	62	3998
2026-01-14 01:08:15.17	261.99	71.85	-48.0	-49.1	15.0	0.00e+00	0	28	0	1336934400	62	4018
2026-01-14 01:08:16.17	260.79	71.55	-48.3	-49.5	14.8	0.00e+00	0	27	0	1340080128	62	4194
2026-01-14 01:08:17.18	259.62	71.24	-48.1	-49.2	14.9	0.00e+00	0	28	0	1343225856	62	4092
2026-01-14 01:08:18.19	258.49	70.92	-48.5	-49.6	14.8	0.00e+00	0	27	0	1346371584	62	4259
2026-01-14 01:08:19.19	257.41	70.60	-49.2	-50.4	14.7	0.00e+00	0	27	0	1349517312	63	4400
2026-01-14 01:08:20.20	256.36	70.27	-49.2	-50.4	14.8	0.00e+00	0	27	0	1352663040	64	4172
2026-01-14 01:08:21.21	255.34	69.94	-48.4	-49.5	14.9	0.00e+00	0	27	0	1355808768	63	3984
2026-01-14 01:08:22.23	254.36	69.60	-48.2	-49.3	14.9	0.00e+00	0	27	0	1358954496	62	4141
2026-01-14 01:08:23.23	253.42	69.26	-48.7	-49.9	14.7	0.00e+00	0	27	0	1362100224	62	4422
2026-01-14 01:08:24.24	252.51	68.91	-48.8	-50.0	14.8	0.00e+00	0	28	0	1365245952	63	4198
2026-01-14 01:08:25.25	251.63	68.56	-48.6	-49.8	14.9	0.00e+00	0	28	0	1368391680	63	4100
2026-01-14 01:08:26.26	250.78	68.21	-48.7	-49.8	14.8	0.00e+00	0	28	0	1371537408	63	4137
2026-01-14 01:08:27.27	249.96	67.85	-48.6	-49.7	14.9	0.00e+00	0	28	0	1374683136	63	4088
2026-01-14 01:08:28.27	249.18	67.50	-48.5	-49.6	14.9	0.00e+00	0	28	0	1377828864	63	4014
2026-01-14 01:08:29.28	248.42	67.14	-48.3	-49.4	15.0	0.00e+00	0	27	0	1380974592	63	3921
2026-01-14 01:08:30.29	247.68	66.78	-48.0	-49.0	15.0	0.00e+00	0	27	0	1384120320	62	3998
2026-01-14 01:08:31.31	246.96	66.41	-49.1	-50.3	14.7	0.00e+00	0	28	0	1387266048	63	4372
2026-01-14 01:08:32.32	246.27	66.04	-50.0	-51.2	14.6	0.00e+00	0	27	0	1390411776	65	4335
2026-01-14 01:08:33.32	245.61	65.68	-49.7	-51.0	14.6	0.00e+00	0	28	0	1393557504	65	4215
2026-01-14 01:08:34.34	244.96	65.31	-49.3	-50.5	14.8	0.00e+00	0	27	0	1396703232	65	3976
2026-01-14 01:08:35.35	244.34	64.94	-49.0	-50.1	14.8	0.00e+00	0	28	0	1399848960	64	4036
2026-01-14 01:08:36.35	243.74	64.57	-48.8	-49.9	14.9	0.00e+00	0	28	0	1402994688	64	3926
2026-01-14 01:08:37.36	243.16	64.20	-48.8	-50.0	14.8	0.00e+00	0	27	0	1406140416	63	4206
2026-01-14 01:08:38.37	242.60	63.83	-49.3	-50.5	14.6	0.00e+00	0	28	0	1409286144	63	4463
2026-01-14 01:08:39.37	242.06	63.46	-49.2	-50.4	14.7	0.00e+00	0	27	0	1412431872	64	4172
2026-01-14 01:08:40.38	241.53	63.09	-48.9	-50.1	14.8	0.00e+00	0	28	0	1415577600	64	4026
2026-01-14 01:08:41.39	241.01	62.71	-48.6	-49.7	14.8	0.00e+00	0	27	0	1418723328	63	4082
2026-01-14 01:08:42.40	240.52	62.34	-48.1	-49.1	14.9	0.00e+00	0	28	0	1421869056	62	4039
2026-01-14 01:08:43.41	240.03	61.97	-48.1	-49.2	14.9	0.00e+00	0	28	0	1425014784	62	4056
2026-01-14 01:08:44.42	239.57	61.60	-47.9	-48.9	15.0	0.00e+00	0	28	0	1428160512	62	3939
2026-01-14 01:08:45.43	239.11	61.23	-48.2	-49.2	14.9	0.00e+00	0	28	0	1431306240	62	4090
2026-01-14 01:08:46.43	238.68	60.86	-49.0	-50.1	14.7	0.00e+00	0	27	0	1434451968	63	4288
2026-01-14 01:08:47.44	238.25	60.49	-50.0	-51.3	14.4	0.00e+00	0	28	0	1437597696	65	4358
2026-01-14 01:08:48.45	237.83	60.12	-50.6	-52.0	14.2	0.00e+00	0	28	0	1440743424	66	4447
2026-01-14 01:08:49.46	237.43	59.75	-49.7	-51.0	14.6	0.00e+00	0	27	0	1443889152	66	3961
2026-01-14 01:08:50.47	237.04	59.39	-48.9	-50.1	14.7	0.00e+00	0	28	0	1447034880	64	4022
2026-01-14 01:08:51.48	236.66	59.02	-48.7	-49.9	14.9	0.00e+00	0	27	0	1450180608	64	3923
2026-01-14 01:08:52.49	236.28	58.65	-48.8	-49.9	14.7	0.00e+00	0	27	0	1453326336	63	4182
2026-01-14 01:08:53.50	235.92	58.29	-49.0	-50.2	14.7	0.00e+00	0	28	0	1456472064	63	4315
2026-01-14 01:08:54.51	235.57	57.93	-49.8	-51.1	14.5	0.00e+00	0	28	0	1459617792	64	4514
2026-01-14 01:08:55.52	235.23	57.56	-50.5	-51.8	14.4	0.00e+00	0	28	0	1462763520	66	4381
2026-01-14 01:08:56.52	234.90	57.21	-50.4	-51.7	14.5	0.00e+00	0	28	0	1465909248	66	4315
2026-01-14 01:08:57.52	234.58	56.85	-50.3	-51.6	14.5	0.00e+00	0	28	0	1469054976	66	4272
2026-01-14 01:08:58.53	234.27	56.49	-50.0	-51.3	14.6	0.00e+00	0	28	0	1472200704	66	4124
2026-01-14 01:08:59.54	233.96	56.14	-49.7	-50.9	14.8	0.00e+00	0	27	0	1475346432	66	3929
2026-01-14 01:09:00.55	233.66	55.78	-49.4	-50.6	14.8	0.00e+00	0	27	0	1478492160	65	4034
2026-01-14 01:09:01.56	233.37	55.43	-49.3	-50.5	14.8	0.00e+00	0	28	0	1481637888	65	3982
2026-01-14 01:09:02.57	233.08	55.08	-49.3	-50.5	14.8	0.00e+00	0	27	0	1484783616	65	3963
2026-01-14 01:09:03.58	232.81	54.73	-50.2	-51.4	14.5	0.00e+00	0	28	0	1487929344	65	4432
2026-01-14 01:09:04.59	232.54	54.38	-51.7	-53.2	14.2	0.00e+00	0	28	0	1491075072	68	4547
2026-01-14 01:09:05.60	232.27	54.03	-52.8	-54.5	13.7	0.00e+00	0	28	0	1494220800	70	4741
2026-01-14 01:09:06.61	232.01	53.69	-52.1	-53.6	14.1	0.00e+00	0	28	0	1497366528	70	4288
2026-01-14 01:09:07.62	231.76	53.34	-51.1	-52.4	14.4	0.00e+00	0	28	0	1500512256	68	4188
2026-01-14 01:09:08.63	231.52	53.00	-50.7	-52.0	14.6	0.00e+00	0	27	0	1503657984	68	3988
2026-01-14 01:09:09.64	231.28	52.66	-50.5	-51.8	14.5	0.00e+00	0	28	0	1506803712	67	4142
2026-01-14 01:09:10.65	231.04	52.32	-50.2	-51.4	14.7	0.00e+00	0	27	0	1509949440	67	3955
2026-01-14 01:09:11.65	230.82	51.99	-49.7	-50.9	14.8	0.00e+00	0	28	0	1513095168	66	3924
2026-01-14 01:09:12.66	230.59	51.66	-49.4	-50.6	14.8	0.00e+00	0	28	0	1516240896	65	4005
2026-01-14 01:09:13.67	230.37	51.32	-49.6	-50.8	14.7	0.00e+00	0	28	0	1519386624	65	4121
2026-01-14 01:09:14.68	230.16	50.99	-50.6	-52.0	14.4	0.00e+00	0	28	0	1522532352	66	4447
2026-01-14 01:09:15.69	229.95	50.67	-52.4	-54.0	13.9	0.00e+00	0	28	0	1525678080	69	4743
2026-01-14 01:09:16.69	229.75	50.34	-53.5	-55.5	13.4	0.00e+00	0	28	0	1528823808	72	4723
2026-01-14 01:09:17.70	229.55	50.02	-53.5	-55.5	13.4	0.00e+00	0	28	0	1531969536	72	4731
2026-01-14 01:09:18.71	229.35	49.69	-52.8	-54.5	13.8	0.00e+00	0	28	0	1535115264	72	4202
2026-01-14 01:09:19.72	229.16	49.37	-52.3	-53.9	13.9	0.00e+00	0	28	0	1538260992	71	4152
2026-01-14 01:09:20.73	228.97	49.05	-52.0	-53.5	14.1	0.00e+00	0	28	0	1541406720	70	4220
2026-01-14 01:09:21.74	228.79	48.74	-52.0	-53.5	14.2	0.00e+00	0	28	0	1544552448	70	4222
2026-01-14 01:09:22.75	228.61	48.42	-51.6	-53.0	14.3	0.00e+00	0	28	0	1547698176	69	4215
2026-01-14 01:09:23.76	228.43	48.11	-51.4	-52.8	14.4	0.00e+00	0	28	0	1550843904	69	4130
2026-01-14 01:09:24.77	228.26	47.80	-51.3	-52.7	14.4	0.00e+00	0	28	0	1553989632	69	4085
2026-01-14 01:09:25.77	228.09	47.49	-51.4	-52.8	14.4	0.00e+00	0	28	0	1557135360	69	4113
2026-01-14 01:09:26.78	227.92	47.18	-51.4	-52.8	14.4	0.00e+00	0	28	0	1560281088	69	4122
2026-01-14 01:09:27.79	227.76	46.88	-51.6	-53.1	14.3	0.00e+00	0	28	0	1563426816	69	4247
2026-01-14 01:09:28.80	227.60	46.57	-52.2	-53.7	14.0	0.00e+00	0	28	0	1566572544	69	4578
2026-01-14 01:09:29.81	227.45	46.27	-52.7	-54.4	13.8	0.00e+00	0	28	0	1569718272	70	4672
2026-01-14 01:09:30.82	227.29	45.97	-53.3	-55.2	13.5	0.00e+00	0	27	0	1572864000	71	4838
2026-01-14 01:09:31.83	227.14	45.67	-53.5	-55.4	13.4	0.00e+00	0	28	0	1576009728	72	4670
2026-01-14 01:09:32.84	226.99	45.38	-53.0	-54.8	13.7	0.00e+00	0	27	0	1579155456	72	4345
2026-01-14 01:09:33.85	226.85	45.08	-52.2	-53.8	14.1	0.00e+00	0	27	0	1582301184	71	4111
2026-01-14 01:09:34.86	226.71	44.79	-51.8	-53.2	14.2	0.00e+00	0	28	0	1585446912	70	4084
2026-01-14 01:09:35.87	226.57	44.50	-51.5	-52.9	14.3	0.00e+00	0	28	0	1588592640	69	4157
2026-01-14 01:09:36.88	226.43	44.22	-51.6	-53.0	14.3	0.00e+00	0	28	0	1591738368	69	4229
2026-01-14 01:09:37.89	226.30	43.93	-52.2	-53.7	14.0	0.00e+00	0	28	0	1594884096	69	4585
2026-01-14 01:09:38.90	226.16	43.64	-52.4	-54.0	13.8	0.00e+00	0	28	0	1598029824	69	4737
2026-01-14 01:09:39.91	226.03	43.36	-52.3	-53.9	14.0	0.00e+00	0	28	0	1601175552	70	4410
2026-01-14 01:09:40.92	225.91	43.08	-52.2	-53.8	14.0	0.00e+00	0	28	0	1604321280	70	4361
2026-01-14 01:09:41.93	225.78	42.80	-52.0	-53.6	14.2	0.00e+00	0	28	0	1607467008	70	4246
2026-01-14 01:09:42.94	225.66	42.53	-51.8	-53.3	14.3	0.00e+00	0	28	0	1610612736	70	4119
2026-01-14 01:09:43.94	225.54	42.26	-51.8	-53.2	14.3	0.00e+00	0	28	0	1613758464	70	4091
2026-01-14 01:09:44.95	225.42	41.98	-51.9	-53.4	14.2	0.00e+00	0	28	0	1616904192	70	4186
2026-01-14 01:09:45.96	225.31	41.71	-52.4	-54.0	13.9	0.00e+00	0	28	0	1620049920	70	4454
2026-01-14 01:09:46.97	225.19	41.44	-52.7	-54.5	13.7	0.00e+00	0	28	0	1623195648	70	4709
2026-01-14 01:09:47.98	225.08	41.17	-52.9	-54.7	13.6	0.00e+00	0	28	0	1626341376	70	4824
2026-01-14 01:09:48.99	224.97	40.91	-52.9	-54.7	13.7	0.00e+00	0	28	0	1629487104	71	4573
2026-01-14 01:09:49.99	224.86	40.65	-52.9	-54.6	13.7	0.00e+00	0	27	0	1632632832	71	4545
2026-01-14 01:09:51.01	224.75	40.38	-52.6	-54.3	13.9	0.00e+00	0	28	0	1635778560	71	4356
2026-01-14 01:09:52.01	224.65	40.13	-52.4	-54.0	14.0	0.00e+00	0	28	0	1638924288	71	4226
2026-01-14 01:09:53.02	224.54	39.87	-52.1	-53.6	14.0	0.00e+00	0	28	0	1642070016	70	4289
2026-01-14 01:09:54.03	224.44	39.61	-51.9	-53.4	14.2	0.00e+00	0	28	0	1646264320	70	4152
2026-01-14 01:09:55.04	224.34	39.36	-52.0	-53.5	14.1	0.00e+00	0	28	0	1648361472	70	4210
2026-01-14 01:09:56.04	224.24	39.11	-52.1	-53.6	14.1	0.00e+00	0	28	0	1651507200	70	4271
2026-01-14 01:09:57.05	224.15	38.86	-52.2	-53.7	14.0	0.00e+00	0	28	0	1654652928	70	4329
2026-01-14 01:09:58.06	224.05	38.61	-52.3	-53.8	14.0	0.00e+00	0	28	0	1657798656	70	4391
2026-01-14 01:09:59.07	223.96	38.36	-52.4	-54.0	13.9	0.00e+00	0	28	0	1660944384	70	4470
2026-01-14 01:10:00.08	223.86	38.11	-52.4	-54.1	13.9	0.00e+00	0	28	0	1665138688	70	4494
2026-01-14 01:10:01.09	223.77	37.87	-52.3	-54.0	13.9	0.00e+00	0	28	0	1668284416	70	4450
2026-01-14 01:10:02.10	223.68	37.62	-52.2	-53.8	14.0	0.00e+00	0	28	0	1670381568	70	4346
2026-01-14 01:10:03.11	223.59	37.38	-51.4	-52.9	14.3	0.00e+00	0	28	0	1673527296	69	4158
2026-01-14 01:10:04.12	223.51	37.14	-51.2	-52.6	14.4	0.00e+00	0	28	0	1676673024	69	4020
2026-01-14 01:10:05.13	223.42	36.91	-51.1	-52.4	14.4	0.00e+00	0	28	0	1680867328	68	4187
2026-01-14 01:10:06.14	223.34	36.67	-50.7	-52.0	14.6	0.00e+00	0	28	0	1684013056	68	3990
2026-01-14 01:10:07.15	223.25	36.44	-50.2	-51.5	14.7	0.00e+00	0	28	0	1687158784	67	3974
2026-01-14 01:10:08.16	223.17	36.20	-50.3	-51.5	14.6	0.00e+00	0	28	0	1690304512	67	4003
2026-01-14 01:10:09.16	223.09	35.97	-50.5	-51.8	14.5	0.00e+00	0	28	0	1693450240	67	4122
2026-01-14 01:10:10.16	223.01	35.75	-50.8	-52.2	14.4	0.00e+00	0	28	0	1695547392	67	4304
2026-01-14 01:10:11.17	222.93	35.52	-50.8	-52.2	14.4	0.00e+00	0	28	0	1698693120	67	4318
2026-01-14 01:10:12.18	222.86	35.29	-50.9	-52.2	14.3	0.00e+00	0	28	0	1702887424	67	4338
2026-01-14 01:10:13.20	222.78	35.06	-50.8	-52.2	14.4	0.00e+00	0	28	0	1706033152	67	4310
2026-01-14 01:10:14.20	222.71	34.84	-50.8	-52.2	14.4	0.00e+00	0	28	0	1709178880	67	4300
2026-01-14 01:10:15.21	222.63	34.62	-50.8	-52.2	14.4	0.00e+00	0	28	0	1712324608	67	4308
2026-01-14 01:10:16.22	222.56	34.40	-50.9	-52.3	14.3	0.00e+00	0	28	0	1715470336	67	4341
2026-01-14 01:10:17.23	222.49	34.18	-50.8	-52.1	14.4	0.00e+00	0	28	0	1718616064	67	4268
2026-01-14 01:10:18.24	222.42	33.96	-50.7	-52.1	14.4	0.00e+00	0	28	0	1721761792	67	4253
2026-01-14 01:10:19.25	222.35	33.75	-50.6	-51.9	14.5	0.00e+00	0	28	0	1724907520	67	4160
2026-01-14 01:10:20.26	222.28	33.53	-50.6	-51.9	14.5	0.00e+00	0	28	0	1728053248	67	4164
2026-01-14 01:10:21.27	222.21	33.32	-50.7	-52.1	14.4	0.00e+00	0	28	0	1731198976	67	4261
2026-01-14 01:10:22.28	222.14	33.11	-50.8	-52.2	14.4	0.00e+00	0	28	0	1734344704	67	4310
2026-01-14 01:10:23.29	222.08	32.90	-50.8	-52.2	14.4	0.00e+00	0	28	0	1737490432	67	4331
2026-01-14 01:10:24.30	222.01	32.69	-50.8	-52.2	14.3	0.00e+00	0	28	0	1740636160	67	4326
2026-01-14 01:10:25.31	221.95	32.48	-50.8	-52.2	14.3	0.00e+00	0	28	0	1743781888	67	4336
2026-01-14 01:10:26.32	221.88	32.27	-50.9	-52.3	14.3	0.00e+00	0	28	0	1746927616	67	4364
2026-01-14 01:10:27.33	221.82	32.07	-50.8	-52.2	14.3	0.00e+00	0	28	0	1750073344	67	4326
2026-01-14 01:10:28.33	221.76	31.87	-50.8	-52.2	14.3	0.00e+00	0	27	0	1753219072	67	4327
2026-01-14 01:10:29.34	221.70	31.67	-50.8	-52.2	14.4	0.00e+00	0	28	0	1756364800	67	4308
2026-01-14 01:10:30.35	221.64	31.47	-50.8	-52.2	14.3	0.00e+00	0	28	0	1759510528	67	4337
2026-01-14 01:10:31.36	221.58	31.27	-50.9	-52.3	14.3	0.00e+00	0	28	0	1762656256	67	4346
2026-01-14 01:10:32.37	221.52	31.07	-50.4	-51.7	14.6	0.00e+00	0	28	0	1765801984	67	4076
2026-01-14 01:10:33.38	221.46	30.87	-50.1	-51.4	14.6	0.00e+00	0	28	0	1768947712	66	4172
2026-01-14 01:10:34.39	221.40	30.68	-50.1	-51.4	14.5	0.00e+00	0	28	0	1772093440	66	4155
2026-01-14 01:10:35.40	221.35	30.48	-50.0	-51.2	14.6	0.00e+00	0	28	0	1775239168	66	4084
2026-01-14 01:10:36.41	221.29	30.29	-49.6	-50.8	14.6	0.00e+00	0	28	0	1778384896	65	4144
2026-01-14 01:10:37.42	221.23	30.10	-49.1	-50.3	14.7	0.00e+00	0	28	0	1781530624	64	4115
2026-01-14 01:10:38.43	221.18	29.91	-48.9	-50.0	14.8	0.00e+00	0	28	0	1784676352	64	3988
2026-01-14 01:10:39.44	221.13	29.72	-48.9	-50.0	14.8	0.00e+00	0	28	0	1787822080	64	4002
2026-01-14 01:10:40.45	221.07	29.53	-48.9	-50.0	14.8	0.00e+00	0	28	0	1790967808	64	3991
2026-01-14 01:10:41.45	221.02	29.34	-48.9	-50.1	14.8	0.00e+00	0	28	0	1794113536	64	4021
2026-01-14 01:10:42.47	220.97	29.16	-48.9	-50.0	14.8	0.00e+00	0	28	0	1797259264	64	4003
2026-01-14 01:10:43.48	220.92	28.97	-49.0	-50.2	14.8	0.00e+00	0	28	0	1800404992	64	4073
2026-01-14 01:10:44.49	220.87	28.79	-49.1	-50.3	14.7	0.00e+00	0	28	0	1803550720	64	4111
2026-01-14 01:10:45.49	220.82	28.61	-49.1	-50.3	14.7	0.00e+00	0	28	0	1806696448	64	4115
2026-01-14 01:10:46.49	220.77	28.43	-49.3	-50.5	14.7	0.00e+00	0	28	0	1809842176	64	4209
2026-01-14 01:10:47.50	220.72	28.25	-49.3	-50.5	14.6	0.00e+00	0	28	0	1812987904	64	4238
2026-01-14 01:10:48.51	220.67	28.07	-49.4	-50.6	14.6	0.00e+00	0	28	0	1816133632	64	4251
2026-01-14 01:10:49.52	220.62	27.89	-49.4	-50.6	14.6	0.00e+00	0	28	0	1819279360	64	4269
2026-01-14 01:10:50.53	220.58	27.72	-49.5	-50.7	14.6	0.00e+00	0	28	0	1822425088	64	4329
2026-01-14 01:10:51.54	220.53	27.54	-49.4	-50.6	14.6	0.00e+00	0	28	0	1825570816	64	4285
2026-01-14 01:10:52.55	220.48	27.37	-49.3	-50.5	14.6	0.00e+00	0	28	0	1828716544	64	4242
2026-01-14 01:10:53.56	220.44	27.19	-49.4	-50.6	14.6	0.00e+00	0	28	0	1831862272	64	4278
2026-01-14 01:10:54.57	220.39	27.02	-49.5	-50.7	14.6	0.00e+00	0	28	0	1835008000	64	4336
2026-01-14 01:10:55.58	220.35	26.85	-49.4	-50.6	14.6	0.00e+00	0	28	0	1838153728	64	4259
2026-01-14 01:10:56.59	220.30	26.68	-49.4	-50.6	14.6	0.00e+00	0	28	0	1841299456	64	4269
2026-01-14 01:10:57.59	220.26	26.51	-49.2	-50.4	14.7	0.00e+00	0	28	0	1844445184	64	4173
2026-01-14 01:10:58.60	220.22	26.34	-49.2	-50.4	14.7	0.00e+00	0	28	0	1847590912	64	4182
2026-01-14 01:10:59.61	220.18	26.18	-49.2	-50.4	14.7	0.00e+00	0	28	0	1850736640	64	4184
2026-01-14 01:11:00.61	220.13	26.01	-49.3	-50.5	14.7	0.00e+00	0	28	0	1853882368	64	4235
2026-01-14 01:11:01.62	220.09	25.85	-49.3	-50.5	14.7	0.00e+00	0	28	0	1857028096	64	4221
2026-01-14 01:11:02.63	220.05	25.68	-49.4	-50.6	14.6	0.00e+00	0	28	0	1860173824	64	4268
2026-01-14 01:11:03.64	220.01	25.52	-49.4	-50.6	14.6	0.00e+00	0	28	0	1863319552	64	4274
2026-01-14 01:11:04.64	219.97	25.36	-49.4	-50.6	14.6	0.00e+00	0	28	0	1866465280	64	4286
2026-01-14 01:11:05.65	219.93	25.20	-49.5	-50.7	14.6	0.00e+00	0	28	0	1869611008	64	4319
2026-01-14 01:11:06.66	219.89	25.04	-49.5	-50.8	14.5	0.00e+00	0	28	0	1872756736	64	4372
2026-01-14 01:11:07.67	219.85	24.88	-49.5	-50.8	14.6	0.00e+00	0	28	0	1875902464	64	4378
2026-01-14 01:11:08.68	219.82	24.72	-49.6	-50.9	14.5	0.00e+00	0	28	0	1879048192	64	4414
2026-01-14 01:11:09.69	219.78	24.56	-49.7	-51.0	14.5	0.00e+00	0	28	0	1882193920	64	4449
2026-01-14 01:11:10.70	219.74	24.41	-49.7	-51.0	14.5	0.00e+00	0	28	0	1885339648	64	4454
2026-01-14 01:11:11.71	219.70	24.25	-49.7	-51.0	14.5	0.00e+00	0	28	0	1888485376	64	4447
2026-01-14 01:11:12.72	219.67	24.10	-49.7	-51.0	14.5	0.00e+00	0	28	0	1891631104	64	4468
2026-01-14 01:11:13.73	219.63	23.94	-49.7	-51.0	14.5	0.00e+00	0	28	0	1894776832	64	4471
2026-01-14 01:11:14.73	219.59	23.79	-49.6	-50.9	14.5	0.00e+00	0	28	0	1897922560	64	4429
2026-01-14 01:11:15.74	219.56	23.64	-49.7	-51.0	14.5	0.00e+00	0	27	0	1901068288	64	4459
2026-01-14 01:11:16.75	219.52	23.49	-49.8	-51.1	14.5	0.00e+00	0	28	0	1904214016	64	4497
2026-01-14 01:11:17.76	219.49	23.34	-49.6	-50.9	14.5	0.00e+00	0	28	0	1907359744	64	4431
2026-01-14 01:11:18.76	219.45	23.19	-49.6	-50.9	14.5	0.00e+00	0	28	0	1910505472	64	4392
2026-01-14 01:11:19.78	219.42	23.04	-49.8	-51.1	14.5	0.00e+00	0	28	0	1913651200	64	4504
2026-01-14 01:11:20.78	219.39	22.90	-49.7	-50.9	14.5	0.00e+00	0	28	0	1916796928	64	4436
2026-01-14 01:11:21.79	219.35	22.75	-49.6	-50.9	14.5	0.00e+00	0	28	0	1919942656	64	4405
2026-01-14 01:11:22.80	219.32	22.60	-49.5	-50.7	14.6	0.00e+00	0	28	0	1923088384	64	4337
2026-01-14 01:11:23.81	219.29	22.46	-49.3	-50.6	14.6	0.00e+00	0	28	0	1926234112	64	4260
2026-01-14 01:11:24.81	219.25	22.31	-49.2	-50.5	14.6	0.00e+00	0	28	0	1929379840	64	4199
2026-01-14 01:11:25.82	219.22	22.17	-49.2	-50.4	14.7	0.00e+00	0	27	0	1932525568	64	4163
2026-01-14 01:11:26.82	219.19	22.03	-49.2	-50.4	14.7	0.00e+00	0	28	0	1935671296	64	4187
2026-01-14 01:11:27.84	219.16	21.89	-49.1	-50.3	14.7	0.00e+00	0	28	0	1938817024	64	4131
2026-01-14 01:11:28.84	219.13	21.75	-49.1	-50.3	14.7	0.00e+00	0	28	0	1941962752	64	4126
2026-01-14 01:11:29.85	219.10	21.61	-49.1	-50.3	14.7	0.00e+00	0	27	0	1945108480	64	4113
2026-01-14 01:11:30.86	219.07	21.47	-49.1	-50.3	14.7	0.00e+00	0	28	0	1948254208	64	4129
2026-01-14 01:11:31.87	219.04	21.33	-49.0	-50.3	14.7	0.00e+00	0	28	0	1951399936	64	4100
2026-01-14 01:11:32.87	219.01	21.19	-49.0	-50.2	14.7	0.00e+00	0	28	0	1954545664	64	4059
2026-01-14 01:11:33.88	218.98	21.05	-49.0	-50.3	14.7	0.00e+00	0	28	0	1957691392	64	4105
2026-01-14 01:11:34.89	218.95	20.92	-49.0	-50.2	14.7	0.00e+00	0	28	0	1960837120	64	4080
2026-01-14 01:11:35.90	218.92	20.78	-49.0	-50.2	14.7	0.00e+00	0	28	0	1963982848	64	4075
2026-01-14 01:11:36.91	218.89	20.64	-49.1	-50.3	14.7	0.00e+00	0	28	0	1967128576	64	4111
2026-01-14 01:11:37.92	218.86	20.51	-49.0	-50.2	14.7	0.00e+00	0	28	0	1970274304	64	4080
2026-01-14 01:11:38.94	218.83	20.38	-49.0	-50.2	14.7	0.00e+00	0	28	0	1973420032	64	4057
2026-01-14 01:11:39.95	218.80	20.24	-49.0	-50.2	14.8	0.00e+00	0	28	0	1976565760	64	4055
2026-01-14 01:11:40.96	218.78	20.11	-48.9	-50.2	14.7	0.00e+00	0	28	0	1979711488	64	4053
2026-01-14 01:11:41.96	218.75	19.98	-48.9	-50.1	14.8	0.00e+00	0	28	0	1982857216	64	4019
2026-01-14 01:11:42.97	218.72	19.85	-49.0	-50.2	14.7	0.00e+00	0	28	0	1986002944	64	4062
2026-01-14 01:11:43.98	218.70	19.72	-48.9	-50.1	14.8	0.00e+00	0	28	0	1989148672	64	4036
2026-01-14 01:11:44.99	218.67	19.59	-49.0	-50.2	14.7	0.00e+00	0	28	0	1992294400	64	4075
2026-01-14 01:11:45.99	218.64	19.46	-49.1	-50.3	14.7	0.00e+00	0	28	0	1995440128	64	4119
2026-01-14 01:11:47.00	218.62	19.33	-49.0	-50.2	14.7	0.00e+00	0	28	0	1998585856	64	4074
2026-01-14 01:11:48.01	218.59	19.20	-49.0	-50.2	14.7	0.00e+00	0	28	0	2001731584	64	4074
2026-01-14 01:11:49.02	218.57	19.08	-49.1	-50.3	14.7	0.00e+00	0	28	0	2004877312	64	4104
2026-01-14 01:11:50.03	218.54	18.95	-49.0	-50.2	14.7	0.00e+00	0	28	0	2008023040	64	4097
2026-01-14 01:11:51.04	218.51	18.82	-49.0	-50.3	14.7	0.00e+00	0	28	0	2011168768	64	4100
2026-01-14 01:11:52.05	218.49	18.70	-49.0	-50.2	14.7	0.00e+00	0	28	0	2014314496	64	4083
2026-01-14 01:11:53.05	218.47	18.58	-49.1	-50.3	14.7	0.00e+00	0	28	0	2017460224	64	4110
2026-01-14 01:11:54.07	218.44	18.45	-49.1	-50.3	14.7	0.00e+00	0	28	0	2020605952	64	4111
2026-01-14 01:11:55.07	218.42	18.33	-49.2	-50.4	14.7	0.00e+00	0	28	0	2023751680	64	4167
2026-01-14 01:11:56.08	218.39	18.21	-49.1	-50.3	14.7	0.00e+00	0	28	0	2026897408	64	4106
2026-01-14 01:11:57.08	218.37	18.08	-49.1	-50.3	14.7	0.00e+00	0	28	0	2030043136	64	4144
2026-01-14 01:11:58.09	218.35	17.96	-49.1	-50.3	14.7	0.00e+00	0	28	0	2033188864	64	4136
2026-01-14 01:11:59.10	218.32	17.84	-49.2	-50.4	14.7	0.00e+00	0	27	0	2036334592	64	4168
2026-01-14 01:12:00.11	218.30	17.72	-49.1	-50.3	14.7	0.00e+00	0	28	0	2039480320	64	4129
2026-01-14 01:12:01.12	218.28	17.60	-49.2	-50.5	14.6	0.00e+00	0	28	0	2042626048	64	4199
2026-01-14 01:12:02.12	218.25	17.48	-49.2	-50.5	14.6	0.00e+00	0	28	0	2045771776	64	4203
2026-01-14 01:12:03.13	218.23	17.37	-49.3	-50.5	14.6	0.00e+00	0	28	0	2048917504	64	4241
2026-01-14 01:12:04.14	218.21	17.25	-49.4	-50.6	14.6	0.00e+00	0	28	0	2052063232	64	4273
2026-01-14 01:12:05.15	218.19	17.13	-49.4	-50.7	14.6	0.00e+00	0	28	0	2055208960	64	4302
2026-01-14 01:12:06.16	218.16	17.01	-49.5	-50.8	14.5	0.00e+00	0	27	0	2058354688	64	4351
2026-01-14 01:12:07.17	218.14	16.90	-49.6	-50.8	14.5	0.00e+00	0	27	0	2061500416	64	4387
2026-01-14 01:12:08.18	218.12	16.78	-49.6	-50.8	14.5	0.00e+00	0	28	0	2064646144	64	4378
2026-01-14 01:12:09.19	218.10	16.67	-49.6	-50.9	14.5	0.00e+00	0	27	0	2067791872	64	4405
2026-01-14 01:12:10.20	218.08	16.55	-49.7	-51.0	14.4	0.00e+00	0	28	0	2070937600	64	4478
2026-01-14 01:12:11.21	218.06	16.44	-49.8	-51.1	14.4	0.00e+00	0	28	0	2074083328	64	4505
2026-01-14 01:12:12.22	218.04	16.32	-49.7	-51.1	14.4	0.00e+00	0	28	0	2077229056	64	4495
