passes_logs/2026/01/14/R3.2S_Murmansk/R3.2S_Murmansk__20260114_064856_NOAA_20_JPSS-1_rec.log

#Pass ID: 20260114_064856_NOAA 20 (JPSS-1)
#Satellite: NOAA 20 (JPSS-1)
#Configuration: NOAA 20
#almurnet v.1.7.20251203
#Start time: 2026-01-14 06:48:57

#Version: 2.2.20231116
#Station: R3.2S_Murmansk
#Location: 33.079688 lon 68.888172 lat
#TLE: 1 43013U 17073A   26013.84982170  .00000053  00000+0  46215-4 0  9999
#TLE: 2 43013  98.7633 314.8013 0001544  40.9009 319.2282 14.19535753422575

#Time	Az	El	Level	Level2	SNR	BER	BlckErr	Temp	State	Recorded	gain1	gain2
2026-01-14 06:48:57.59	91.20	2.04	-54.3	-70.3	3.8	1.49e+00	0	25	0	0	73	24481
2026-01-14 06:48:58.60	91.14	2.10	-54.3	-70.3	3.8	1.49e+00	0	25	104	0	73	24573
2026-01-14 06:48:59.61	91.09	2.16	-54.3	-70.3	3.8	1.49e+00	0	25	104	0	73	24514
2026-01-14 06:49:00.62	91.04	2.22	-54.3	-70.3	3.8	1.49e+00	0	25	104	0	73	24564
2026-01-14 06:49:01.62	90.98	2.28	-54.3	-70.3	3.8	1.49e+00	0	25	104	0	73	24604
2026-01-14 06:49:02.63	90.93	2.34	-54.3	-70.3	3.8	1.49e+00	0	25	104	0	73	24468
2026-01-14 06:49:03.64	90.87	2.40	-54.3	-70.3	3.8	1.49e+00	0	25	104	0	73	24550
2026-01-14 06:49:04.65	90.82	2.46	-54.3	-70.3	3.8	1.49e+00	0	26	104	0	73	24578
2026-01-14 06:49:05.66	90.76	2.52	-54.3	-70.3	3.8	1.49e+00	0	25	104	0	73	24540
2026-01-14 06:49:06.67	90.71	2.58	-54.3	-70.3	3.8	1.49e+00	0	25	104	0	73	24585
2026-01-14 06:49:07.68	90.65	2.64	-54.3	-70.3	3.9	1.49e+00	0	25	104	0	73	24540
2026-01-14 06:49:08.69	90.59	2.70	-54.3	-70.3	3.8	1.49e+00	0	26	104	0	73	24572
2026-01-14 06:49:09.70	90.54	2.76	-54.3	-70.3	3.8	1.49e+00	0	26	104	0	73	24627
2026-01-14 06:49:10.71	90.48	2.82	-54.4	-70.3	3.8	1.49e+00	0	25	104	0	73	24618
2026-01-14 06:49:11.71	90.42	2.88	-54.3	-70.3	3.8	1.49e+00	0	25	104	0	73	24558
2026-01-14 06:49:12.72	90.37	2.94	-54.3	-70.3	3.8	1.49e+00	0	26	104	0	73	24598
2026-01-14 06:49:13.74	90.31	3.01	-54.3	-70.3	3.8	1.49e+00	0	26	104	0	73	24650
2026-01-14 06:49:14.75	90.25	3.07	-54.3	-70.3	3.8	1.49e+00	0	26	104	0	73	24640
2026-01-14 06:49:15.75	90.19	3.13	-54.4	-70.3	3.8	1.49e+00	0	26	104	0	73	24649
2026-01-14 06:49:16.76	90.13	3.19	-54.4	-70.3	3.8	1.49e+00	0	26	104	0	73	24689
2026-01-14 06:49:17.76	90.08	3.25	-54.4	-70.3	3.8	1.49e+00	0	26	104	0	73	24636
2026-01-14 06:49:18.77	90.02	3.31	-54.4	-70.3	3.8	1.49e+00	0	26	104	0	73	24636
2026-01-14 06:49:19.78	89.96	3.38	-54.3	-70.3	3.8	1.49e+00	0	26	104	0	73	24558
2026-01-14 06:49:20.79	89.90	3.44	-54.4	-70.4	3.8	1.49e+00	0	26	104	0	73	24729
2026-01-14 06:49:21.80	89.84	3.50	-54.4	-70.3	3.8	1.49e+00	0	26	104	0	73	24637
2026-01-14 06:49:22.81	89.78	3.56	-54.4	-70.4	3.8	1.49e+00	0	26	104	0	73	24701
2026-01-14 06:49:23.82	89.72	3.62	-54.4	-70.4	3.8	1.49e+00	0	26	104	0	73	24729
2026-01-14 06:49:24.83	89.66	3.69	-54.4	-70.3	3.8	1.49e+00	0	26	104	0	73	24681
2026-01-14 06:49:25.84	89.60	3.75	-54.4	-70.3	3.8	1.49e+00	0	26	104	0	73	24681
2026-01-14 06:49:26.84	89.54	3.81	-54.4	-70.3	3.8	1.49e+00	0	26	104	0	73	24682
2026-01-14 06:49:27.85	89.48	3.87	-54.4	-70.3	3.8	1.49e+00	0	26	104	0	73	24685
2026-01-14 06:49:28.86	89.42	3.94	-54.4	-70.3	3.8	1.49e+00	0	26	104	0	73	24646
2026-01-14 06:49:29.87	89.35	4.00	-54.4	-70.4	3.8	1.49e+00	0	26	104	0	73	24705
2026-01-14 06:49:30.88	89.29	4.06	-54.4	-70.3	3.8	1.49e+00	0	26	104	0	73	24643
2026-01-14 06:49:31.89	89.23	4.13	-54.4	-70.3	3.8	1.49e+00	0	26	104	0	73	24665
2026-01-14 06:49:32.89	89.17	4.19	-54.4	-70.4	3.8	1.49e+00	0	26	104	0	73	24694
2026-01-14 06:49:33.90	89.11	4.25	-54.4	-70.3	3.8	1.49e+00	0	26	104	0	73	24673
2026-01-14 06:49:34.91	89.04	4.32	-54.4	-70.4	3.8	1.49e+00	0	26	104	0	73	24736
2026-01-14 06:49:35.92	88.98	4.38	-54.4	-70.4	3.8	1.49e+00	0	26	104	0	73	24731
2026-01-14 06:49:36.93	88.92	4.45	-54.4	-70.3	3.8	1.49e+00	0	26	104	0	73	24643
2026-01-14 06:49:37.94	88.85	4.51	-54.4	-70.4	3.8	1.49e+00	0	26	104	0	73	24706
2026-01-14 06:49:38.95	88.79	4.57	-54.4	-70.3	3.8	1.49e+00	0	26	104	0	73	24653
2026-01-14 06:49:39.96	88.72	4.64	-54.4	-70.4	3.8	1.49e+00	0	26	104	0	73	24710
2026-01-14 06:49:40.97	88.66	4.70	-54.4	-70.3	3.8	1.49e+00	0	26	104	0	73	24686
2026-01-14 06:49:41.98	88.59	4.77	-54.4	-70.4	3.8	1.49e+00	0	26	104	0	73	24724
2026-01-14 06:49:42.99	88.53	4.83	-54.4	-70.4	3.8	1.49e+00	0	26	104	0	73	24777
2026-01-14 06:49:43.99	88.46	4.90	-54.4	-70.4	3.8	1.49e+00	0	26	104	0	73	24770
2026-01-14 06:49:45.00	88.40	4.96	-54.4	-70.4	3.8	1.49e+00	0	26	104	0	73	24700
2026-01-14 06:49:46.01	88.33	5.03	-54.4	-70.4	3.8	1.49e+00	0	26	104	0	73	24784
2026-01-14 06:49:47.02	88.26	5.09	-54.4	-70.4	3.8	1.49e+00	0	26	104	0	73	24717
2026-01-14 06:49:48.03	88.20	5.16	-54.4	-70.4	3.8	1.49e+00	0	26	104	0	73	24740
2026-01-14 06:49:49.04	88.13	5.22	-54.4	-70.4	3.8	1.49e+00	0	26	104	0	73	24792
2026-01-14 06:49:50.05	88.06	5.29	-54.4	-70.4	3.8	1.49e+00	0	26	104	0	73	24723
2026-01-14 06:49:51.06	87.99	5.35	-54.4	-70.4	3.8	1.49e+00	0	26	104	0	73	24758
2026-01-14 06:49:52.07	87.92	5.42	-54.4	-70.4	3.8	1.49e+00	0	26	104	0	73	24730
2026-01-14 06:49:53.08	87.86	5.48	-54.4	-70.4	3.8	1.49e+00	0	26	104	0	73	24744
2026-01-14 06:49:54.09	87.79	5.55	-54.4	-70.4	3.8	1.49e+00	0	26	104	0	73	24754
2026-01-14 06:49:55.09	87.72	5.62	-54.4	-70.4	3.8	1.49e+00	0	26	104	0	73	24747
2026-01-14 06:49:56.10	87.65	5.68	-54.4	-70.4	3.8	1.49e+00	0	26	104	0	73	24800
2026-01-14 06:49:57.11	87.58	5.75	-54.4	-70.4	3.8	1.49e+00	0	26	104	0	73	24789
2026-01-14 06:49:58.12	87.51	5.81	-54.4	-70.4	3.8	1.49e+00	0	26	104	0	73	24791
2026-01-14 06:49:59.13	87.44	5.88	-54.4	-70.4	3.8	1.49e+00	0	26	104	0	73	24744
2026-01-14 06:50:00.14	87.37	5.95	-54.4	-70.4	3.8	1.49e+00	0	26	104	0	73	24737
2026-01-14 06:50:01.15	87.29	6.01	-54.4	-70.4	3.8	1.49e+00	0	26	104	0	73	24783
2026-01-14 06:50:02.15	87.22	6.08	-54.4	-70.4	3.8	1.49e+00	0	26	104	0	73	24789
2026-01-14 06:50:03.16	87.15	6.15	-54.4	-70.4	3.8	1.49e+00	0	26	104	0	74	23540
2026-01-14 06:50:04.17	87.08	6.22	-54.4	-70.4	3.8	1.49e+00	0	26	104	0	74	23476
2026-01-14 06:50:05.18	87.01	6.28	-54.4	-70.4	3.8	1.49e+00	0	26	104	0	74	23495
2026-01-14 06:50:06.20	86.93	6.35	-54.4	-70.4	3.8	1.49e+00	0	26	104	0	74	23407
2026-01-14 06:50:07.20	86.86	6.42	-54.4	-70.4	3.8	1.49e+00	0	26	104	0	74	23474
2026-01-14 06:50:08.21	86.79	6.49	-54.4	-70.4	3.8	1.49e+00	0	27	104	0	74	23521
2026-01-14 06:50:09.23	86.71	6.55	-54.5	-70.4	3.8	1.49e+00	0	27	104	0	74	23468
2026-01-14 06:50:10.24	86.64	6.62	-54.4	-70.4	3.8	1.49e+00	0	27	104	0	74	23489
2026-01-14 06:50:11.24	86.56	6.69	-54.4	-70.4	3.8	1.49e+00	0	27	104	0	74	23463
2026-01-14 06:50:12.25	86.49	6.76	-54.5	-70.4	3.8	1.49e+00	0	27	104	0	74	23474
2026-01-14 06:50:13.26	86.41	6.83	-54.4	-70.4	3.8	1.49e+00	0	27	104	0	74	23481
2026-01-14 06:50:14.27	86.34	6.89	-54.5	-70.4	3.8	1.49e+00	0	26	104	0	74	23548
2026-01-14 06:50:15.28	86.26	6.96	-54.5	-70.4	3.8	1.49e+00	0	27	104	0	74	23539
2026-01-14 06:50:16.29	86.18	7.03	-54.5	-70.4	3.8	1.49e+00	0	27	104	0	74	23551
2026-01-14 06:50:17.30	86.11	7.10	-54.4	-70.4	3.8	1.49e+00	0	26	104	0	74	23503
2026-01-14 06:50:18.31	86.03	7.17	-54.4	-70.4	3.8	1.49e+00	0	27	104	0	74	23469
2026-01-14 06:50:19.32	85.95	7.24	-54.5	-70.4	3.8	1.49e+00	0	27	104	0	74	23526
2026-01-14 06:50:20.33	85.87	7.31	-54.5	-70.4	3.8	1.49e+00	0	27	104	0	74	23485
2026-01-14 06:50:21.34	85.79	7.38	-54.5	-70.4	3.8	1.49e+00	0	27	104	0	74	23471
2026-01-14 06:50:22.35	85.71	7.45	-54.5	-70.4	3.8	1.49e+00	0	27	104	0	74	23509
2026-01-14 06:50:23.36	85.64	7.52	-54.4	-70.4	3.8	1.49e+00	0	27	104	0	74	23541
2026-01-14 06:50:24.37	85.56	7.59	-54.5	-70.4	3.8	1.49e+00	0	27	104	0	74	23502
2026-01-14 06:50:25.38	85.48	7.66	-54.4	-70.4	3.8	1.49e+00	0	27	104	0	74	23430
2026-01-14 06:50:26.38	85.40	7.73	-54.4	-70.4	3.8	1.49e+00	0	27	104	0	74	23394
2026-01-14 06:50:27.39	85.31	7.80	-54.4	-70.4	3.8	1.49e+00	0	27	104	0	74	23539
2026-01-14 06:50:28.40	85.23	7.87	-54.5	-70.4	3.8	1.49e+00	0	27	104	0	74	23553
2026-01-14 06:50:29.41	85.15	7.94	-54.4	-70.4	3.8	1.49e+00	0	27	104	0	74	23502
2026-01-14 06:50:30.42	85.07	8.01	-54.4	-70.4	3.8	1.49e+00	0	27	104	0	74	23475
2026-01-14 06:50:31.43	84.99	8.08	-54.5	-70.4	3.8	1.49e+00	0	27	104	0	74	23472
2026-01-14 06:50:32.44	84.90	8.15	-54.5	-70.4	3.8	1.49e+00	0	27	104	0	74	23491
2026-01-14 06:50:33.45	84.82	8.22	-54.4	-70.4	3.8	1.49e+00	0	27	104	0	74	23543
2026-01-14 06:50:34.46	84.74	8.29	-54.5	-70.4	3.8	1.49e+00	0	27	104	0	74	23466
2026-01-14 06:50:35.47	84.65	8.37	-54.5	-70.4	3.8	1.49e+00	0	27	104	0	74	23489
2026-01-14 06:50:36.48	84.57	8.44	-54.4	-70.4	3.8	1.49e+00	0	27	104	0	74	23560
2026-01-14 06:50:37.48	84.48	8.51	-54.5	-70.4	3.8	1.49e+00	0	27	104	0	74	23568
2026-01-14 06:50:38.49	84.40	8.58	-54.4	-70.4	3.8	1.49e+00	0	27	104	0	74	23541
2026-01-14 06:50:39.50	84.31	8.65	-54.5	-70.4	3.8	1.49e+00	0	27	104	0	74	23459
2026-01-14 06:50:40.51	84.22	8.72	-54.5	-70.4	3.8	1.49e+00	0	27	104	0	74	23534
2026-01-14 06:50:41.52	84.14	8.80	-54.5	-70.4	3.8	1.49e+00	0	27	104	0	74	23554
2026-01-14 06:50:42.53	84.05	8.87	-54.5	-70.4	3.8	1.49e+00	0	27	104	0	74	23540
2026-01-14 06:50:43.53	83.96	8.94	-54.5	-70.4	3.8	1.49e+00	0	27	104	0	74	23563
2026-01-14 06:50:44.54	83.87	9.01	-54.5	-70.4	3.8	1.49e+00	0	27	104	0	74	23561
2026-01-14 06:50:45.55	83.79	9.09	-54.5	-70.4	3.8	1.49e+00	0	27	104	0	74	23551
2026-01-14 06:50:46.56	83.70	9.16	-54.5	-70.4	3.8	1.49e+00	0	27	104	0	74	23558
2026-01-14 06:50:47.56	83.61	9.23	-54.5	-70.4	3.8	1.49e+00	0	27	104	0	74	23577
2026-01-14 06:50:48.57	83.52	9.31	-54.5	-70.4	3.8	1.49e+00	0	27	104	0	74	23568
2026-01-14 06:50:49.58	83.43	9.38	-54.5	-70.5	3.8	1.49e+00	0	27	104	0	74	23588
2026-01-14 06:50:50.59	83.34	9.45	-54.5	-70.4	3.8	1.49e+00	0	27	104	0	74	23508
2026-01-14 06:50:51.60	83.24	9.53	-54.5	-70.4	3.8	1.49e+00	0	27	104	0	74	23558
2026-01-14 06:50:52.61	83.15	9.60	-54.5	-70.4	3.8	1.49e+00	0	27	104	0	74	23514
2026-01-14 06:50:53.62	83.06	9.67	-54.5	-70.4	3.8	1.49e+00	0	27	104	0	74	23492
2026-01-14 06:50:54.68	82.96	9.75	-54.5	-70.4	3.8	1.49e+00	0	27	104	0	74	23523
2026-01-14 06:50:55.55	82.88	9.82	-54.5	-70.4	3.8	1.49e+00	0	27	104	0	74	23565
2026-01-14 06:50:56.70	82.77	9.90	-54.5	-70.4	3.8	1.49e+00	0	27	104	0	74	23552
2026-01-14 06:50:57.57	82.69	9.97	-54.5	-70.4	3.8	1.49e+00	0	27	104	0	74	23537
2026-01-14 06:50:58.72	82.59	10.05	-54.5	-70.4	3.8	1.49e+00	0	27	104	0	74	23522
2026-01-14 06:50:59.59	82.50	10.11	-54.5	-70.4	3.8	1.49e+00	0	27	104	0	74	23525
2026-01-14 06:51:00.74	82.39	10.20	-54.5	-70.4	3.8	1.49e+00	0	27	104	0	74	23533
2026-01-14 06:51:01.60	82.31	10.26	-54.5	-70.5	3.8	1.49e+00	0	27	104	0	74	23612
2026-01-14 06:51:02.75	82.20	10.35	-54.5	-70.4	3.8	1.49e+00	0	27	104	0	74	23565
2026-01-14 06:51:03.61	82.12	10.41	-54.5	-70.5	3.8	1.49e+00	0	27	104	0	74	23619
2026-01-14 06:51:04.76	82.01	10.50	-54.5	-70.5	3.8	1.49e+00	0	27	104	0	74	23628
2026-01-14 06:51:05.62	81.92	10.57	-54.5	-70.4	3.8	1.49e+00	0	27	104	0	74	23580
2026-01-14 06:51:06.77	81.81	10.65	-54.5	-70.4	3.8	1.49e+00	0	27	104	0	74	23557
2026-01-14 06:51:07.63	81.72	10.72	-54.5	-70.5	3.8	1.49e+00	0	27	104	0	74	23599
2026-01-14 06:51:08.78	81.61	10.80	-54.5	-70.4	3.8	1.49e+00	0	27	104	0	74	23558
2026-01-14 06:51:09.65	81.52	10.87	-54.5	-70.4	3.8	1.49e+00	0	27	104	0	74	23548
2026-01-14 06:51:10.80	81.41	10.96	-54.5	-70.5	3.8	1.49e+00	0	27	104	0	74	23591
2026-01-14 06:51:11.66	81.32	11.02	-54.5	-70.4	3.8	1.49e+00	0	27	104	0	74	23570
2026-01-14 06:51:12.80	81.21	11.11	-54.5	-70.5	3.8	1.49e+00	0	27	104	0	74	23585
2026-01-14 06:51:13.66	81.12	11.17	-54.5	-70.5	3.8	1.49e+00	0	27	104	0	74	23606
2026-01-14 06:51:14.80	81.00	11.26	-54.5	-70.5	3.8	1.49e+00	0	27	104	0	74	23614
2026-01-14 06:51:15.67	80.91	11.33	-54.5	-70.4	3.8	1.49e+00	0	27	104	0	74	23490
2026-01-14 06:51:16.82	80.79	11.42	-54.5	-70.4	3.8	1.49e+00	0	27	104	0	74	23563
2026-01-14 06:51:17.67	80.71	11.48	-54.5	-70.5	3.8	1.49e+00	0	27	104	0	74	23596
2026-01-14 06:51:18.82	80.58	11.57	-54.5	-70.5	3.8	1.49e+00	0	27	104	0	74	23594
2026-01-14 06:51:19.68	80.49	11.64	-54.5	-70.4	3.8	1.49e+00	0	27	104	0	74	23567
2026-01-14 06:51:20.81	80.37	11.72	-54.5	-70.5	3.8	1.49e+00	0	27	104	0	74	23591
2026-01-14 06:51:21.66	80.28	11.79	-54.5	-70.5	3.8	1.49e+00	0	27	104	0	74	23638
2026-01-14 06:51:22.80	80.16	11.88	-54.5	-70.5	3.8	1.49e+00	0	27	104	0	74	23592
2026-01-14 06:51:23.66	80.07	11.94	-54.5	-70.4	3.8	1.49e+00	0	27	104	0	74	23550
2026-01-14 06:51:24.80	79.95	12.03	-54.5	-70.5	3.8	1.49e+00	0	27	104	0	74	23582
2026-01-14 06:51:25.66	79.85	12.10	-54.5	-70.5	3.8	1.49e+00	0	27	104	0	74	23600
2026-01-14 06:51:26.80	79.73	12.19	-54.5	-70.4	3.8	1.49e+00	0	27	104	0	74	23570
2026-01-14 06:51:27.67	79.63	12.26	-54.5	-70.4	3.8	1.49e+00	0	27	104	0	74	23573
2026-01-14 06:51:28.81	79.51	12.35	-54.5	-70.5	3.8	1.49e+00	0	27	104	0	74	23592
2026-01-14 06:51:29.67	79.41	12.41	-54.5	-70.5	3.8	1.49e+00	0	27	104	0	74	23603
2026-01-14 06:51:30.82	79.28	12.50	-54.5	-70.5	3.8	1.49e+00	0	27	104	0	74	23608
2026-01-14 06:51:31.68	79.19	12.57	-54.5	-70.5	3.8	1.49e+00	0	27	104	0	74	23605
2026-01-14 06:51:32.82	79.06	12.66	-54.5	-70.5	3.8	1.49e+00	0	27	104	0	74	23642
2026-01-14 06:51:33.67	78.96	12.73	-54.5	-70.5	3.8	1.49e+00	0	27	104	0	74	23589
2026-01-14 06:51:34.81	78.83	12.82	-54.5	-70.5	3.8	1.49e+00	0	27	104	0	74	23611
2026-01-14 06:51:35.67	78.73	12.89	-54.5	-70.5	3.8	1.49e+00	0	27	104	0	74	23609
2026-01-14 06:51:36.82	78.60	12.98	-54.5	-70.5	3.8	1.49e+00	0	27	104	0	74	23601
2026-01-14 06:51:37.69	78.50	13.05	-54.5	-70.4	3.8	1.49e+00	0	27	104	0	74	23561
2026-01-14 06:51:38.84	78.36	13.14	-54.5	-70.5	3.8	1.49e+00	0	27	104	0	74	23663
2026-01-14 06:51:39.70	78.26	13.21	-54.5	-70.5	3.8	1.49e+00	0	27	104	0	74	23662
2026-01-14 06:51:40.85	78.13	13.30	-54.5	-70.5	3.8	1.49e+00	0	27	104	0	74	23649
2026-01-14 06:51:41.72	78.02	13.37	-54.5	-70.5	3.8	1.49e+00	0	27	104	0	74	23617
2026-01-14 06:51:42.87	77.89	13.46	-54.5	-70.5	3.8	1.49e+00	0	27	104	0	74	23622
2026-01-14 06:51:43.73	77.78	13.53	-54.5	-70.5	3.8	1.49e+00	0	27	104	0	74	23634
2026-01-14 06:51:44.88	77.65	13.63	-54.5	-70.5	3.8	1.49e+00	0	27	104	0	74	23619
2026-01-14 06:51:45.74	77.54	13.70	-54.5	-70.5	3.8	1.49e+00	0	27	104	0	74	23645
2026-01-14 06:51:46.90	77.40	13.79	-54.5	-70.5	3.8	1.49e+00	0	27	104	0	74	23634
2026-01-14 06:51:47.76	77.29	13.86	-54.5	-70.5	3.8	1.49e+00	0	27	104	0	74	23614
2026-01-14 06:51:48.91	77.15	13.95	-54.5	-70.5	3.8	1.49e+00	0	27	104	0	74	23680
2026-01-14 06:51:49.76	77.05	14.02	-54.5	-70.5	3.8	1.49e+00	0	27	104	0	74	23679
2026-01-14 06:51:50.91	76.90	14.12	-54.5	-70.5	3.8	1.49e+00	0	27	104	0	74	23632
2026-01-14 06:51:51.78	76.79	14.19	-54.5	-70.5	3.8	1.49e+00	0	27	104	0	74	23655
2026-01-14 06:51:52.93	76.65	14.28	-54.5	-70.5	3.8	1.49e+00	0	27	104	0	74	23670
2026-01-14 06:51:53.80	76.54	14.35	-54.5	-70.5	3.8	1.49e+00	0	27	104	0	74	23673
2026-01-14 06:51:54.95	76.39	14.45	-54.5	-70.5	3.8	1.49e+00	0	27	104	0	74	23623
2026-01-14 06:51:55.82	76.28	14.52	-54.5	-70.4	3.8	1.49e+00	0	27	104	0	74	23581
2026-01-14 06:51:56.97	76.13	14.61	-54.5	-70.5	3.8	1.49e+00	0	27	104	0	74	23615
2026-01-14 06:51:57.83	76.02	14.68	-54.5	-70.5	3.8	1.49e+00	0	27	104	0	74	23636
2026-01-14 06:51:58.98	75.87	14.78	-54.5	-70.5	3.8	1.49e+00	0	27	104	0	74	23678
2026-01-14 06:51:59.83	75.76	14.85	-54.5	-70.5	3.8	1.49e+00	0	27	104	0	74	23639
2026-01-14 06:52:00.98	75.60	14.95	-54.5	-70.5	3.8	1.49e+00	0	27	104	0	74	23623
2026-01-14 06:52:01.85	75.49	15.02	-54.5	-70.5	3.8	1.49e+00	0	27	104	0	74	23610
2026-01-14 06:52:03.00	75.34	15.11	-54.5	-70.5	3.8	1.49e+00	0	27	104	0	74	23658
2026-01-14 06:52:03.86	75.22	15.18	-54.5	-70.5	3.8	1.49e+00	0	27	104	0	74	23646
2026-01-14 06:52:05.00	75.07	15.28	-54.5	-70.5	3.8	1.49e+00	0	27	104	0	74	23638
2026-01-14 06:52:05.86	74.95	15.35	-54.5	-70.5	3.8	1.49e+00	0	27	104	0	74	23622
2026-01-14 06:52:07.00	74.79	15.45	-54.5	-70.5	3.8	1.49e+00	0	27	104	0	74	23679
2026-01-14 06:52:07.86	74.67	15.52	-54.5	-70.5	3.8	1.49e+00	0	27	104	0	74	23635
2026-01-14 06:52:09.01	74.52	15.62	-54.5	-70.5	3.8	1.49e+00	0	27	104	0	74	23705
2026-01-14 06:52:09.88	74.39	15.69	-54.5	-70.5	3.8	1.49e+00	0	27	104	0	74	23714
2026-01-14 06:52:11.03	74.23	15.78	-54.5	-70.5	3.8	1.49e+00	0	27	104	0	74	23641
2026-01-14 06:52:11.89	74.11	15.86	-54.5	-70.5	3.8	1.49e+00	0	27	104	0	74	23669
2026-01-14 06:52:13.04	73.95	15.95	-54.5	-70.5	3.8	1.49e+00	0	27	104	0	74	23632
2026-01-14 06:52:13.91	73.83	16.03	-54.5	-70.5	3.8	1.49e+00	0	27	104	0	74	23666
2026-01-14 06:52:15.06	73.66	16.12	-54.5	-70.5	3.8	1.49e+00	0	27	104	0	74	23620
2026-01-14 06:52:15.93	73.54	16.20	-54.5	-70.5	3.8	1.49e+00	0	27	104	0	74	23670
2026-01-14 06:52:17.07	73.37	16.30	-54.5	-70.5	3.8	1.49e+00	0	27	104	0	74	23653
2026-01-14 06:52:17.94	73.24	16.37	-54.5	-70.5	3.8	1.49e+00	0	27	104	0	74	23675
2026-01-14 06:52:19.08	73.08	16.47	-54.5	-70.5	3.8	1.49e+00	0	27	104	0	74	23674
2026-01-14 06:52:19.93	72.95	16.54	-54.5	-70.5	3.8	1.49e+00	0	27	104	0	74	23657
2026-01-14 06:52:21.07	72.78	16.64	-54.5	-70.5	3.8	1.49e+00	0	27	104	0	74	23699
2026-01-14 06:52:21.93	72.65	16.71	-54.5	-70.5	3.8	1.49e+00	0	27	104	0	74	23737
2026-01-14 06:52:23.08	72.48	16.81	-54.5	-70.5	3.8	1.49e+00	0	27	104	0	74	23694
2026-01-14 06:52:23.94	72.35	16.88	-54.5	-70.5	3.8	1.49e+00	0	27	104	0	74	23678
2026-01-14 06:52:25.09	72.18	16.98	-54.5	-70.5	3.8	1.49e+00	0	27	104	0	74	23644
2026-01-14 06:52:25.93	72.05	17.05	-54.5	-70.5	3.8	1.49e+00	0	27	104	0	74	23755
2026-01-14 06:52:27.07	71.87	17.15	-54.5	-70.5	3.8	1.49e+00	0	27	104	0	74	23702
2026-01-14 06:52:27.93	71.74	17.22	-54.5	-70.5	3.8	1.49e+00	0	27	104	0	74	23667
2026-01-14 06:52:29.07	71.56	17.32	-54.5	-70.5	3.8	1.49e+00	0	27	104	0	74	23723
2026-01-14 06:52:29.93	71.43	17.39	-54.5	-70.5	3.8	1.49e+00	0	27	104	0	74	23726
2026-01-14 06:52:31.07	71.25	17.49	-54.5	-70.5	3.8	1.49e+00	0	27	104	0	74	23638
2026-01-14 06:52:31.92	71.12	17.56	-54.5	-70.5	3.8	1.49e+00	0	27	104	0	74	23699
2026-01-14 06:52:33.07	70.93	17.66	-54.5	-70.5	3.8	1.49e+00	0	27	104	0	74	23650
2026-01-14 06:52:33.93	70.80	17.74	-54.5	-70.5	3.8	1.49e+00	0	27	104	0	74	23665
2026-01-14 06:52:35.09	70.61	17.84	-54.5	-70.5	3.8	1.49e+00	0	27	104	0	74	23621
2026-01-14 06:52:35.94	70.47	17.91	-54.5	-70.5	3.8	1.49e+00	0	27	104	0	74	23671
2026-01-14 06:52:37.07	70.29	18.01	-54.5	-70.5	3.8	1.49e+00	0	27	104	0	74	23628
2026-01-14 06:52:37.94	70.15	18.08	-54.5	-70.5	3.8	1.49e+00	0	27	104	0	74	23639
2026-01-14 06:52:39.09	69.96	18.18	-54.5	-70.5	3.8	1.49e+00	0	27	104	0	74	23603
2026-01-14 06:52:39.96	69.81	18.26	-54.5	-70.5	3.8	1.49e+00	0	27	104	0	74	23703
2026-01-14 06:52:41.11	69.62	18.36	-54.5	-70.5	3.8	1.49e+00	0	27	104	0	74	23590
2026-01-14 06:52:41.97	69.48	18.43	-54.5	-70.5	3.8	1.49e+00	0	27	104	0	74	23656
2026-01-14 06:52:43.13	69.28	18.53	-54.5	-70.5	3.8	1.49e+00	0	27	104	0	74	23690
2026-01-14 06:52:43.99	69.14	18.61	-54.5	-70.5	3.8	1.49e+00	0	27	104	0	74	23698
2026-01-14 06:52:45.14	68.94	18.71	-54.5	-70.5	3.8	1.49e+00	0	27	104	0	74	23775
2026-01-14 06:52:46.01	68.79	18.78	-54.5	-70.5	3.8	1.49e+00	0	27	104	0	74	23662
2026-01-14 06:52:47.16	68.59	18.88	-54.5	-70.5	3.8	1.49e+00	0	27	104	0	74	23702
2026-01-14 06:52:48.03	68.44	18.96	-54.5	-70.5	3.8	1.49e+00	0	27	104	0	74	23658
2026-01-14 06:52:49.18	68.24	19.06	-54.5	-70.5	3.8	1.49e+00	0	27	104	0	74	23740
2026-01-14 06:52:50.04	68.09	19.13	-54.5	-70.5	3.8	1.49e+00	0	27	104	0	74	23698
2026-01-14 06:52:51.19	67.89	19.23	-54.5	-70.5	3.8	1.49e+00	0	27	104	0	74	23737
2026-01-14 06:52:52.06	67.73	19.31	-54.5	-70.5	3.8	1.49e+00	0	27	104	0	74	23647
2026-01-14 06:52:53.21	67.53	19.41	-54.5	-70.5	3.8	1.49e+00	0	27	104	0	74	23680
2026-01-14 06:52:54.08	67.37	19.49	-54.5	-70.5	3.8	1.49e+00	0	27	104	0	74	23755
2026-01-14 06:52:55.23	67.16	19.59	-54.5	-70.5	3.8	1.49e+00	0	27	104	0	74	23739
2026-01-14 06:52:56.09	67.01	19.66	-54.5	-70.5	3.8	1.49e+00	0	27	104	0	74	23742
2026-01-14 06:52:57.25	66.80	19.76	-54.5	-70.5	3.8	1.49e+00	0	27	104	0	74	23714
2026-01-14 06:52:58.11	66.64	19.84	-54.5	-70.5	3.8	1.49e+00	0	27	104	0	74	23739
2026-01-14 06:52:59.27	66.42	19.94	-54.5	-70.5	3.8	1.49e+00	0	27	104	0	74	23668
2026-01-14 06:53:00.13	66.26	20.01	-54.5	-70.5	3.8	1.49e+00	0	27	104	0	74	23642
2026-01-14 06:53:01.28	66.05	20.11	-54.5	-70.5	3.8	1.49e+00	0	27	104	0	74	23718
2026-01-14 06:53:02.15	65.88	20.19	-54.5	-70.5	3.8	1.49e+00	0	27	104	0	74	23650
2026-01-14 06:53:03.30	65.67	20.29	-54.5	-70.5	3.8	1.49e+00	0	27	104	0	74	23636
2026-01-14 06:53:04.16	65.50	20.36	-54.5	-70.5	3.8	1.49e+00	0	27	104	0	74	23655
2026-01-14 06:53:05.32	65.28	20.46	-54.5	-70.4	3.8	1.49e+00	0	27	104	0	74	23580
2026-01-14 06:53:06.18	65.12	20.54	-54.5	-70.5	3.8	1.49e+00	0	27	104	0	74	23640
2026-01-14 06:53:07.32	64.89	20.64	-54.5	-70.5	3.8	1.49e+00	0	27	104	0	74	23626
2026-01-14 06:53:08.18	64.73	20.71	-54.5	-70.5	3.8	1.49e+00	0	27	104	0	74	23644
2026-01-14 06:53:09.32	64.50	20.81	-54.5	-70.5	3.8	1.49e+00	0	27	104	0	74	23664
2026-01-14 06:53:10.17	64.34	20.89	-54.5	-70.5	3.8	1.49e+00	0	27	104	0	74	23712
2026-01-14 06:53:11.31	64.11	20.98	-54.5	-70.5	3.8	1.49e+00	0	27	104	0	74	23680
2026-01-14 06:53:12.16	63.94	21.06	-54.5	-70.5	3.8	1.49e+00	0	27	104	0	74	23664
2026-01-14 06:53:13.30	63.71	21.16	-54.5	-70.5	3.8	1.49e+00	0	27	104	0	74	23678
2026-01-14 06:53:14.16	63.54	21.23	-54.5	-70.5	3.8	1.49e+00	0	27	104	0	74	23634
2026-01-14 06:53:15.31	63.31	21.33	-54.5	-70.5	3.8	1.49e+00	0	27	104	0	74	23648
2026-01-14 06:53:16.17	63.13	21.40	-54.5	-70.5	3.8	1.49e+00	0	27	104	0	74	23650
2026-01-14 06:53:17.32	62.90	21.50	-54.5	-70.5	3.8	1.49e+00	0	27	104	0	74	23669
2026-01-14 06:53:18.18	62.72	21.58	-54.5	-70.5	3.8	1.49e+00	0	27	104	0	74	23646
2026-01-14 06:53:19.32	62.48	21.67	-54.5	-70.5	3.8	1.49e+00	0	27	104	0	74	23702
2026-01-14 06:53:20.18	62.30	21.75	-54.5	-70.5	3.8	1.49e+00	0	27	104	0	74	23655
2026-01-14 06:53:21.33	62.06	21.85	-54.5	-70.5	3.8	1.49e+00	0	27	104	0	74	23644
2026-01-14 06:53:22.19	61.88	21.92	-54.5	-70.5	3.9	1.49e+00	0	27	104	0	74	23710
2026-01-14 06:53:23.34	61.64	22.02	-54.5	-70.5	3.8	1.49e+00	0	27	104	0	74	23698
2026-01-14 06:53:24.20	61.45	22.09	-54.5	-70.5	3.8	1.49e+00	0	27	104	0	74	23637
2026-01-14 06:53:25.34	61.21	22.19	-54.5	-70.5	3.8	1.49e+00	0	27	104	0	74	23638
2026-01-14 06:53:26.21	61.02	22.26	-54.5	-70.5	3.8	1.49e+00	0	27	104	0	74	23743
2026-01-14 06:53:27.36	60.77	22.36	-54.5	-70.5	3.8	1.49e+00	0	27	104	0	74	23722
2026-01-14 06:53:28.22	60.59	22.43	-54.5	-70.5	3.8	1.49e+00	0	27	104	0	74	23582
2026-01-14 06:53:29.37	60.33	22.53	-54.5	-70.5	3.8	1.49e+00	0	27	104	0	74	23764
2026-01-14 06:53:30.23	60.14	22.60	-54.5	-70.5	3.8	1.49e+00	0	27	104	0	74	23727
2026-01-14 06:53:31.37	59.89	22.70	-54.5	-70.5	3.8	1.49e+00	0	27	104	0	74	23773
2026-01-14 06:53:32.23	59.70	22.77	-54.5	-70.5	3.8	1.49e+00	0	27	104	0	74	23751
2026-01-14 06:53:33.37	59.45	22.87	-54.5	-70.5	3.8	1.49e+00	0	27	104	0	74	23675
2026-01-14 06:53:34.22	59.25	22.94	-54.5	-70.5	3.8	1.49e+00	0	27	104	0	74	23718
2026-01-14 06:53:35.37	58.99	23.03	-54.5	-70.5	3.8	1.49e+00	0	27	104	0	74	23751
2026-01-14 06:53:36.23	58.80	23.10	-54.5	-70.5	3.8	1.49e+00	0	27	104	0	74	23704
2026-01-14 06:53:37.38	58.53	23.20	-54.5	-70.5	3.8	1.49e+00	0	27	104	0	74	23750
2026-01-14 06:53:38.24	58.34	23.27	-54.5	-70.5	3.8	1.49e+00	0	27	104	0	74	23686
2026-01-14 06:53:39.38	58.07	23.36	-54.5	-70.5	3.8	1.49e+00	0	27	104	0	74	23719
2026-01-14 06:53:40.24	57.87	23.43	-54.5	-70.5	3.8	1.49e+00	0	27	104	0	74	23747
2026-01-14 06:53:41.39	57.60	23.53	-54.5	-70.5	3.8	1.49e+00	0	27	104	0	74	23761
2026-01-14 06:53:42.25	57.40	23.60	-54.5	-70.5	3.8	1.49e+00	0	27	104	0	74	23702
2026-01-14 06:53:43.40	57.13	23.69	-54.5	-70.5	3.8	1.49e+00	0	27	104	0	74	23768
2026-01-14 06:53:44.26	56.93	23.76	-54.5	-70.5	3.8	1.49e+00	0	27	104	0	74	23682
2026-01-14 06:53:45.40	56.65	23.85	-54.5	-70.5	3.8	1.49e+00	0	27	104	0	74	23640
2026-01-14 06:53:46.26	56.45	23.92	-54.5	-70.5	3.8	1.49e+00	0	27	104	0	74	23700
2026-01-14 06:53:47.41	56.17	24.02	-54.5	-70.5	3.8	1.49e+00	0	27	104	0	74	23732
2026-01-14 06:53:48.27	55.96	24.08	-54.5	-70.5	3.8	1.49e+00	0	27	104	0	74	23717
2026-01-14 06:53:49.42	55.68	24.18	-54.5	-70.5	3.8	1.49e+00	0	27	104	0	74	23766
2026-01-14 06:53:50.28	55.47	24.24	-54.5	-70.5	3.8	1.49e+00	0	27	104	0	74	23727
2026-01-14 06:53:51.43	55.19	24.33	-54.5	-70.5	3.8	1.49e+00	0	27	104	0	74	23718
2026-01-14 06:53:52.30	54.97	24.40	-54.5	-70.5	3.8	1.49e+00	0	27	104	0	74	23679
2026-01-14 06:53:53.44	54.69	24.49	-54.5	-70.5	3.8	1.49e+00	0	27	104	0	74	23705
2026-01-14 06:53:54.30	54.47	24.56	-54.5	-70.5	3.8	1.49e+00	0	27	104	0	74	23650
2026-01-14 06:53:55.44	54.19	24.65	-54.5	-70.5	3.8	1.49e+00	0	27	104	0	74	23677
2026-01-14 06:53:56.31	53.97	24.71	-54.5	-70.5	3.8	1.49e+00	0	27	104	0	74	23716
2026-01-14 06:53:57.46	53.68	24.80	-54.5	-70.5	3.8	1.49e+00	0	27	104	0	74	23670
2026-01-14 06:53:58.31	53.46	24.87	-54.5	-70.5	3.8	1.49e+00	0	27	104	0	74	23741
2026-01-14 06:53:59.46	53.17	24.95	-54.5	-70.5	3.8	1.49e+00	0	27	104	0	74	23666
2026-01-14 06:54:00.33	52.94	25.02	-54.5	-70.5	3.8	1.49e+00	0	27	104	0	74	23746
2026-01-14 06:54:01.48	52.64	25.11	-54.5	-70.5	3.8	1.49e+00	0	27	104	0	74	23682
2026-01-14 06:54:02.34	52.42	25.17	-54.5	-70.5	3.8	1.49e+00	0	27	104	0	74	23658
2026-01-14 06:54:03.50	52.12	25.26	-54.5	-70.5	3.8	1.49e+00	0	27	104	0	74	23727
2026-01-14 06:54:04.36	51.89	25.32	-54.5	-70.5	3.8	1.49e+00	0	27	104	0	74	23680
2026-01-14 06:54:05.51	51.59	25.40	-54.5	-70.5	3.8	1.49e+00	0	27	104	0	74	23650
2026-01-14 06:54:06.37	51.36	25.47	-54.5	-70.5	3.8	1.49e+00	0	27	104	0	74	23719
2026-01-14 06:54:07.52	51.05	25.55	-54.5	-70.5	3.8	1.49e+00	0	27	104	0	74	23684
2026-01-14 06:54:08.38	50.82	25.61	-54.5	-70.5	3.8	1.49e+00	0	27	104	0	74	23651
2026-01-14 06:54:09.53	50.52	25.69	-54.5	-70.5	3.8	1.49e+00	0	27	104	0	74	23624
2026-01-14 06:54:10.39	50.28	25.75	-54.5	-70.5	3.8	1.49e+00	0	27	104	0	74	23702
2026-01-14 06:54:11.54	49.97	25.83	-54.5	-70.5	3.8	1.49e+00	0	27	104	0	74	23682
2026-01-14 06:54:12.40	49.74	25.89	-54.5	-70.5	3.8	1.49e+00	0	27	104	0	74	23757
2026-01-14 06:54:13.55	49.42	25.97	-54.5	-70.5	3.8	1.49e+00	0	27	104	0	74	23672
2026-01-14 06:54:14.41	49.19	26.03	-54.5	-70.5	3.8	1.49e+00	0	27	104	0	74	23647
2026-01-14 06:54:15.56	48.87	26.11	-54.5	-70.5	3.8	1.49e+00	0	27	104	0	74	23677
2026-01-14 06:54:16.43	48.63	26.17	-54.5	-70.5	3.8	1.49e+00	0	27	104	0	74	23700
2026-01-14 06:54:17.58	48.31	26.25	-54.5	-70.5	3.8	1.49e+00	0	27	104	0	74	23696
2026-01-14 06:54:18.44	48.07	26.30	-54.5	-70.5	3.8	1.49e+00	0	27	104	0	74	23720
2026-01-14 06:54:19.59	47.75	26.38	-54.5	-70.5	3.8	1.49e+00	0	27	104	0	74	23769
2026-01-14 06:54:20.45	47.50	26.43	-54.5	-70.5	3.8	1.49e+00	0	27	104	0	74	23751
2026-01-14 06:54:21.59	47.18	26.51	-54.5	-70.5	3.8	1.49e+00	0	27	104	0	74	23690
2026-01-14 06:54:22.45	46.94	26.56	-54.5	-70.5	3.8	1.49e+00	0	27	104	0	74	23713
2026-01-14 06:54:23.59	46.61	26.63	-54.5	-70.5	3.8	1.49e+00	0	27	104	0	74	23706
2026-01-14 06:54:24.45	46.37	26.69	-54.5	-70.5	3.8	1.49e+00	0	27	104	0	74	23771
2026-01-14 06:54:25.59	46.04	26.76	-54.5	-70.5	3.8	1.49e+00	0	27	104	0	74	23769
2026-01-14 06:54:26.45	45.79	26.81	-54.5	-70.5	3.8	1.49e+00	0	27	104	0	74	23677
2026-01-14 06:54:27.59	45.46	26.88	-54.5	-70.5	3.8	1.49e+00	0	27	104	0	74	23688
2026-01-14 06:54:28.45	45.21	26.93	-54.5	-70.5	3.8	1.49e+00	0	27	104	0	74	23689
2026-01-14 06:54:29.60	44.87	27.00	-54.5	-70.5	3.8	1.49e+00	0	27	104	0	74	23727
2026-01-14 06:54:30.45	44.63	27.05	-54.5	-70.5	3.8	1.49e+00	0	27	104	0	74	23714
2026-01-14 06:54:31.60	44.29	27.12	-54.5	-70.5	3.8	1.49e+00	0	27	104	0	74	23687
2026-01-14 06:54:32.46	44.03	27.17	-54.5	-70.5	3.8	1.49e+00	0	27	104	0	74	23769
2026-01-14 06:54:33.60	43.70	27.23	-54.5	-70.5	3.8	1.49e+00	0	27	104	0	74	23712
2026-01-14 06:54:34.46	43.44	27.28	-54.5	-70.5	3.8	1.49e+00	0	27	104	0	74	23709
2026-01-14 06:54:35.61	43.10	27.34	-54.5	-70.5	3.8	1.49e+00	0	27	104	0	74	23688
2026-01-14 06:54:36.47	42.84	27.39	-54.5	-70.5	3.8	1.49e+00	0	27	104	0	74	23652
2026-01-14 06:54:37.61	42.50	27.45	-54.5	-70.5	3.8	1.49e+00	0	27	104	0	74	23714
2026-01-14 06:54:38.47	42.24	27.49	-54.5	-70.5	3.8	1.49e+00	0	27	104	0	74	23704
2026-01-14 06:54:39.62	41.89	27.55	-54.5	-70.5	3.8	1.49e+00	0	27	104	0	74	23714
2026-01-14 06:54:40.48	41.63	27.60	-54.5	-70.5	3.8	1.49e+00	0	27	104	0	74	23732
2026-01-14 06:54:41.63	41.28	27.65	-54.5	-70.5	3.8	1.49e+00	0	27	104	0	74	23677
2026-01-14 06:54:42.49	41.02	27.70	-54.5	-70.5	3.8	1.49e+00	0	27	104	0	74	23725
2026-01-14 06:54:43.64	40.67	27.75	-54.5	-70.5	3.8	1.49e+00	0	27	104	0	74	23687
2026-01-14 06:54:44.51	40.40	27.79	-54.5	-70.5	3.8	1.49e+00	0	27	104	0	74	23646
2026-01-14 06:54:45.66	40.04	27.85	-54.5	-70.5	3.8	1.49e+00	0	27	104	0	74	23708
2026-01-14 06:54:46.52	39.78	27.89	-54.5	-70.5	3.8	1.49e+00	0	27	104	0	74	23726
2026-01-14 06:54:47.68	39.42	27.94	-54.5	-70.5	3.9	1.49e+00	0	27	104	0	74	23733
2026-01-14 06:54:48.54	39.15	27.98	-54.5	-70.5	3.8	1.49e+00	0	27	104	0	74	23684
2026-01-14 06:54:49.70	38.79	28.03	-54.5	-70.5	3.8	1.49e+00	0	27	104	0	74	23730
2026-01-14 06:54:50.56	38.52	28.07	-54.5	-70.5	3.8	1.49e+00	0	27	104	0	74	23664
2026-01-14 06:54:51.71	38.16	28.11	-54.5	-70.5	3.8	1.49e+00	0	27	104	0	74	23614
2026-01-14 06:54:52.58	37.89	28.15	-54.5	-70.5	3.8	1.49e+00	0	27	104	0	74	23696
2026-01-14 06:54:53.73	37.53	28.19	-54.5	-70.5	3.8	1.49e+00	0	27	104	0	74	23736
2026-01-14 06:54:54.58	37.26	28.23	-54.5	-70.5	3.8	1.49e+00	0	27	104	0	74	23688
2026-01-14 06:54:55.73	36.89	28.27	-54.5	-70.5	3.8	1.49e+00	0	27	104	0	74	23673
2026-01-14 06:54:56.59	36.62	28.30	-54.5	-70.5	3.8	1.49e+00	0	27	104	0	74	23717
2026-01-14 06:54:57.73	36.26	28.34	-54.5	-70.5	3.8	1.49e+00	0	27	104	0	74	23694
2026-01-14 06:54:58.59	35.99	28.37	-54.5	-70.5	3.8	1.49e+00	0	27	104	0	74	23694
2026-01-14 06:54:59.74	35.62	28.41	-54.5	-70.5	3.8	1.49e+00	0	27	104	0	74	23716
2026-01-14 06:55:00.60	35.34	28.44	-54.5	-70.5	3.8	1.49e+00	0	27	104	0	74	23696
2026-01-14 06:55:01.75	34.97	28.48	-54.5	-70.5	3.8	1.49e+00	0	27	104	0	74	23734
2026-01-14 06:55:02.61	34.70	28.51	-54.5	-70.5	3.8	1.49e+00	0	27	104	0	74	23765
2026-01-14 06:55:03.75	34.33	28.54	-54.5	-70.5	3.8	1.49e+00	0	27	104	0	74	23703
2026-01-14 06:55:04.61	34.05	28.57	-54.5	-70.5	3.8	1.49e+00	0	27	104	0	74	23749
2026-01-14 06:55:05.75	33.69	28.60	-54.5	-70.5	3.8	1.49e+00	0	27	104	0	74	23685
2026-01-14 06:55:06.61	33.41	28.62	-54.5	-70.5	3.8	1.49e+00	0	27	104	0	74	23645
2026-01-14 06:55:07.75	33.04	28.65	-54.5	-70.5	3.9	1.49e+00	0	27	104	0	74	23685
2026-01-14 06:55:08.60	32.76	28.67	-54.5	-70.5	3.8	1.49e+00	0	27	104	0	74	23712
2026-01-14 06:55:09.74	32.39	28.70	-54.5	-70.5	3.8	1.49e+00	0	27	104	0	74	23666
2026-01-14 06:55:10.61	32.11	28.72	-54.5	-70.5	3.8	1.49e+00	0	27	104	0	74	23755
2026-01-14 06:55:11.75	31.74	28.75	-54.5	-70.5	3.8	1.49e+00	0	27	104	0	74	23756
2026-01-14 06:55:12.61	31.46	28.77	-54.5	-70.5	3.8	1.49e+00	0	27	104	0	74	23728
2026-01-14 06:55:13.76	31.08	28.79	-54.5	-70.5	3.8	1.49e+00	0	27	104	0	74	23750
2026-01-14 06:55:14.62	30.80	28.81	-54.5	-70.5	3.8	1.49e+00	0	27	104	0	74	23691
2026-01-14 06:55:15.76	30.42	28.83	-54.5	-70.5	3.8	1.49e+00	0	27	104	0	74	23701
2026-01-14 06:55:16.62	30.14	28.84	-54.5	-70.5	3.8	1.49e+00	0	27	104	0	74	23734
2026-01-14 06:55:17.76	29.77	28.86	-54.5	-70.5	3.8	1.49e+00	0	27	104	0	74	23692
2026-01-14 06:55:18.63	29.48	28.87	-54.5	-70.5	3.8	1.49e+00	0	27	104	0	74	23688
2026-01-14 06:55:19.77	29.11	28.89	-54.5	-70.5	3.8	1.49e+00	0	27	104	0	74	23747
2026-01-14 06:55:20.63	28.82	28.90	-54.5	-70.5	3.8	1.49e+00	0	27	104	0	74	23696
2026-01-14 06:55:21.78	28.44	28.91	-54.5	-70.5	3.8	1.49e+00	0	27	104	0	74	23709
2026-01-14 06:55:22.64	28.16	28.92	-54.5	-70.5	3.8	1.49e+00	0	27	104	0	74	23746
2026-01-14 06:55:23.79	27.78	28.93	-54.5	-70.5	3.8	1.49e+00	0	27	104	0	74	23669
2026-01-14 06:55:24.65	27.50	28.94	-54.5	-70.5	3.8	1.49e+00	0	27	104	0	74	23715
2026-01-14 06:55:25.81	27.11	28.95	-54.5	-70.5	3.8	1.49e+00	0	27	104	0	74	23722
2026-01-14 06:55:26.67	26.83	28.96	-54.5	-70.5	3.8	1.49e+00	0	27	104	0	74	23722
2026-01-14 06:55:27.82	26.45	28.96	-54.5	-70.5	3.8	1.49e+00	0	27	104	0	74	23687
2026-01-14 06:55:28.69	26.16	28.97	-54.5	-70.5	3.8	1.49e+00	0	27	104	0	74	23759
2026-01-14 06:55:29.82	25.79	28.97	-54.5	-70.5	3.8	1.49e+00	0	27	104	0	74	23696
2026-01-14 06:55:30.69	25.50	28.97	-54.5	-70.5	3.8	1.49e+00	0	27	104	0	74	23733
2026-01-14 06:55:31.84	25.12	28.97	-54.5	-70.5	3.8	1.49e+00	0	27	104	0	74	23707
2026-01-14 06:55:32.69	24.84	28.97	-54.5	-70.5	3.8	1.49e+00	0	27	104	0	74	23711
2026-01-14 06:55:33.85	24.45	28.97	-54.5	-70.5	3.8	1.49e+00	0	27	104	0	74	23682
2026-01-14 06:55:34.71	24.17	28.97	-54.5	-70.5	3.8	1.49e+00	0	27	104	0	74	23751
2026-01-14 06:55:35.86	23.79	28.97	-54.5	-70.5	3.8	1.49e+00	0	27	104	0	74	23758
2026-01-14 06:55:36.72	23.51	28.96	-54.5	-70.5	3.8	1.49e+00	0	27	104	0	74	23785
2026-01-14 06:55:37.87	23.13	28.96	-54.5	-70.5	3.8	1.49e+00	0	27	104	0	74	23731
2026-01-14 06:55:38.73	22.84	28.95	-54.5	-70.5	3.8	1.49e+00	0	27	104	0	74	23707
2026-01-14 06:55:39.87	22.46	28.94	-54.5	-70.5	3.8	1.49e+00	0	27	104	0	74	23772
2026-01-14 06:55:40.74	22.18	28.94	-54.5	-70.5	3.8	1.49e+00	0	27	104	0	74	23757
2026-01-14 06:55:41.88	21.80	28.92	-54.5	-70.5	3.8	1.49e+00	0	27	104	0	74	23754
2026-01-14 06:55:42.74	21.52	28.92	-54.5	-70.5	3.8	1.49e+00	0	27	104	0	74	23793
2026-01-14 06:55:43.88	21.14	28.90	-54.5	-70.5	3.8	1.49e+00	0	27	104	0	74	23771
2026-01-14 06:55:44.74	20.86	28.89	-54.5	-70.5	3.8	1.49e+00	0	27	104	0	74	23724
2026-01-14 06:55:45.89	20.48	28.88	-54.5	-70.5	3.8	1.49e+00	0	27	104	0	74	23708
2026-01-14 06:55:46.74	20.20	28.86	-54.5	-70.5	3.8	1.49e+00	0	27	104	0	74	23729
2026-01-14 06:55:47.89	19.82	28.84	-54.5	-70.5	3.8	1.49e+00	0	27	104	0	74	23788
2026-01-14 06:55:48.75	19.54	28.83	-54.5	-70.5	3.8	1.49e+00	0	27	104	0	74	23701
2026-01-14 06:55:49.90	19.16	28.81	-54.5	-70.5	3.8	1.49e+00	0	27	104	0	74	23630
2026-01-14 06:55:50.75	18.89	28.79	-54.5	-70.5	3.8	1.49e+00	0	27	104	0	74	23757
2026-01-14 06:55:51.90	18.51	28.77	-54.5	-70.5	3.8	1.49e+00	0	27	104	0	74	23775
2026-01-14 06:55:52.76	18.23	28.75	-54.5	-70.5	3.8	1.49e+00	0	27	104	0	74	23720
2026-01-14 06:55:53.92	17.85	28.73	-54.5	-70.5	3.8	1.49e+00	0	27	104	0	74	23743
2026-01-14 06:55:54.79	17.57	28.71	-54.5	-70.5	3.8	1.49e+00	0	27	104	0	74	23669
2026-01-14 06:55:55.94	17.19	28.68	-54.5	-70.5	3.8	1.49e+00	0	27	104	0	74	23636
2026-01-14 06:55:56.80	16.91	28.66	-54.5	-70.5	3.8	1.49e+00	0	27	104	0	74	23679
2026-01-14 06:55:57.95	16.54	28.63	-54.5	-70.5	3.8	1.49e+00	0	27	104	0	74	23774
2026-01-14 06:55:58.80	16.27	28.60	-54.5	-70.5	3.8	1.49e+00	0	27	104	0	74	23700
2026-01-14 06:55:59.95	15.90	28.57	-54.5	-70.5	3.8	1.49e+00	0	27	104	0	74	23719
2026-01-14 06:56:00.82	15.61	28.55	-54.5	-70.5	3.8	1.49e+00	0	27	104	0	74	23702
2026-01-14 06:56:01.97	15.24	28.51	-54.5	-70.5	3.8	1.49e+00	0	27	104	0	74	23763
2026-01-14 06:56:02.82	14.97	28.49	-54.5	-70.5	3.8	1.49e+00	0	27	104	0	74	23691
2026-01-14 06:56:03.97	14.60	28.45	-54.5	-70.5	3.8	1.49e+00	0	27	104	0	74	23784
2026-01-14 06:56:04.83	14.33	28.42	-54.5	-70.5	3.8	1.49e+00	0	27	104	0	74	23729
2026-01-14 06:56:05.97	13.96	28.38	-54.5	-70.5	3.8	1.49e+00	0	27	104	0	74	23748
2026-01-14 06:56:06.82	13.69	28.35	-54.5	-70.5	3.9	1.49e+00	0	27	104	0	74	23746
2026-01-14 06:56:07.97	13.33	28.31	-54.6	-70.5	3.8	1.49e+00	0	27	104	0	74	23755
2026-01-14 06:56:08.83	13.06	28.28	-54.5	-70.5	3.8	1.49e+00	0	27	104	0	74	23761
2026-01-14 06:56:09.98	12.69	28.24	-54.6	-70.5	3.8	1.49e+00	0	27	104	0	74	23772
2026-01-14 06:56:10.83	12.42	28.20	-54.5	-70.5	3.8	1.49e+00	0	27	104	0	74	23767
2026-01-14 06:56:11.98	12.06	28.16	-54.5	-70.5	3.8	1.49e+00	0	27	104	0	74	23802
2026-01-14 06:56:12.84	11.79	28.12	-54.5	-70.5	3.8	1.49e+00	0	27	104	0	74	23796
2026-01-14 06:56:13.99	11.43	28.08	-54.5	-70.5	3.8	1.49e+00	0	27	104	0	74	23739
2026-01-14 06:56:14.84	11.17	28.04	-54.5	-70.5	3.8	1.49e+00	0	28	104	0	74	23732
2026-01-14 06:56:15.99	10.81	27.99	-54.5	-70.5	3.8	1.49e+00	0	27	104	0	74	23716
2026-01-14 06:56:16.85	10.54	27.95	-54.5	-70.5	3.8	1.49e+00	0	27	104	0	74	23740
2026-01-14 06:56:17.99	10.19	27.90	-54.5	-70.5	3.8	1.49e+00	0	27	104	0	74	23722
2026-01-14 06:56:18.85	9.92	27.86	-54.5	-70.5	3.8	1.49e+00	0	27	104	0	74	23716
2026-01-14 06:56:19.99	9.57	27.81	-54.5	-70.5	3.8	1.49e+00	0	27	104	0	74	23685
2026-01-14 06:56:20.86	9.30	27.77	-54.5	-70.5	3.8	1.49e+00	0	27	104	0	74	23688
2026-01-14 06:56:22.01	8.95	27.71	-54.5	-70.5	3.8	1.49e+00	0	27	104	0	74	23730
2026-01-14 06:56:22.87	8.69	27.67	-54.5	-70.5	3.8	1.49e+00	0	27	104	0	74	23668
2026-01-14 06:56:24.03	8.34	27.61	-54.5	-70.5	3.8	1.49e+00	0	27	104	0	74	23688
2026-01-14 06:56:24.89	8.08	27.57	-54.5	-70.5	3.8	1.49e+00	0	27	104	0	74	23743
2026-01-14 06:56:26.04	7.73	27.51	-54.5	-70.5	3.8	1.49e+00	0	27	104	0	74	23708
2026-01-14 06:56:26.90	7.47	27.46	-54.5	-70.5	3.8	1.49e+00	0	27	104	0	74	23719
2026-01-14 06:56:28.04	7.13	27.40	-54.5	-70.5	3.8	1.49e+00	0	27	104	0	74	23678
2026-01-14 06:56:28.91	6.87	27.36	-54.5	-70.5	3.8	1.49e+00	0	27	104	0	74	23755
2026-01-14 06:56:30.06	6.52	27.29	-54.5	-70.5	3.8	1.49e+00	0	27	104	0	74	23636
2026-01-14 06:56:30.93	6.27	27.25	-54.5	-70.5	3.8	1.49e+00	0	27	104	0	74	23714
2026-01-14 06:56:32.08	5.93	27.18	-54.5	-70.5	3.8	1.49e+00	0	27	104	0	74	23719
2026-01-14 06:56:32.94	5.67	27.13	-54.5	-70.5	3.8	1.49e+00	0	27	104	0	74	23777
2026-01-14 06:56:34.09	5.33	27.07	-54.5	-70.5	3.8	1.49e+00	0	27	104	0	74	23730
2026-01-14 06:56:34.95	5.08	27.02	-54.5	-70.5	3.8	1.49e+00	0	27	104	0	74	23738
2026-01-14 06:56:36.09	4.75	26.95	-54.5	-70.5	3.8	1.49e+00	0	27	104	0	74	23680
2026-01-14 06:56:36.94	4.50	26.90	-54.5	-70.5	3.8	1.49e+00	0	27	104	0	74	23686
2026-01-14 06:56:38.09	4.17	26.83	-54.5	-70.5	3.8	1.49e+00	0	27	104	0	74	23782
2026-01-14 06:56:38.95	3.92	26.78	-54.6	-70.5	3.8	1.49e+00	0	27	104	0	74	23781
2026-01-14 06:56:40.10	3.59	26.70	-54.5	-70.5	3.8	1.49e+00	0	27	104	0	74	23741
2026-01-14 06:56:40.96	3.34	26.65	-54.5	-70.5	3.8	1.49e+00	0	27	104	0	74	23732
2026-01-14 06:56:42.11	3.02	26.58	-54.5	-70.5	3.8	1.49e+00	0	27	104	0	74	23692
2026-01-14 06:56:42.97	2.77	26.52	-54.5	-70.5	3.8	1.49e+00	0	27	104	0	74	23683
2026-01-14 06:56:44.11	2.45	26.45	-54.5	-70.5	3.8	1.49e+00	0	27	104	0	74	23722
2026-01-14 06:56:44.97	2.21	26.40	-54.5	-70.5	3.8	1.49e+00	0	27	104	0	74	23700
2026-01-14 06:56:46.11	1.89	26.32	-54.5	-70.5	3.8	1.49e+00	0	27	104	0	74	23694
2026-01-14 06:56:46.97	1.65	26.26	-54.5	-70.5	3.8	1.49e+00	0	27	104	0	74	23723
2026-01-14 06:56:48.11	1.33	26.19	-54.6	-70.5	3.8	1.49e+00	0	27	104	0	74	23707
2026-01-14 06:56:48.97	1.09	26.13	-54.6	-70.5	3.8	1.49e+00	0	27	104	0	74	23744
2026-01-14 06:56:50.12	0.78	26.05	-54.5	-70.5	3.8	1.49e+00	0	27	104	0	74	23807
2026-01-14 06:56:50.97	0.54	25.99	-54.5	-70.5	3.8	1.49e+00	0	27	104	0	74	23795
2026-01-14 06:56:52.13	0.23	25.91	-54.5	-70.5	3.8	1.49e+00	0	27	104	0	74	23830
2026-01-14 06:56:52.99	359.99	25.85	-54.5	-70.5	3.8	1.49e+00	0	27	104	0	74	23778
2026-01-14 06:56:54.14	359.68	25.77	-54.5	-70.5	3.8	1.49e+00	0	27	104	0	74	23750
2026-01-14 06:56:55.01	359.45	25.71	-54.6	-70.5	3.8	1.49e+00	0	27	104	0	74	23780
2026-01-14 06:56:56.15	359.14	25.63	-54.5	-70.5	3.8	1.49e+00	0	27	104	0	74	23738
2026-01-14 06:56:57.00	358.91	25.57	-54.5	-70.5	3.8	1.49e+00	0	27	104	0	74	23714
2026-01-14 06:56:58.15	358.61	25.49	-54.6	-70.5	3.8	1.49e+00	0	27	104	0	74	23836
2026-01-14 06:56:59.02	358.38	25.42	-54.5	-70.5	3.8	1.49e+00	0	27	104	0	74	23782
2026-01-14 06:57:00.17	358.07	25.34	-54.6	-70.5	3.8	1.49e+00	0	27	104	0	74	23766
2026-01-14 06:57:01.03	357.85	25.28	-54.5	-70.5	3.8	1.49e+00	0	27	104	0	74	23834
2026-01-14 06:57:02.18	357.55	25.19	-54.6	-70.5	3.8	1.49e+00	0	27	104	0	74	23789
2026-01-14 06:57:03.05	357.32	25.13	-54.5	-70.5	3.8	1.49e+00	0	27	104	0	74	23785
2026-01-14 06:57:04.19	357.03	25.04	-54.5	-70.5	3.8	1.49e+00	0	27	104	0	74	23717
2026-01-14 06:57:05.05	356.81	24.98	-54.6	-70.5	3.8	1.49e+00	0	27	104	0	74	23762
2026-01-14 06:57:06.20	356.51	24.89	-54.6	-70.5	3.8	1.49e+00	0	27	104	0	74	23763
2026-01-14 06:57:07.05	356.29	24.83	-54.6	-70.5	3.8	1.49e+00	0	27	104	0	74	23706
2026-01-14 06:57:08.20	356.00	24.74	-54.5	-70.5	3.8	1.49e+00	0	27	104	0	74	23763
2026-01-14 06:57:09.06	355.79	24.67	-54.5	-70.5	3.8	1.49e+00	0	27	104	0	74	23812
2026-01-14 06:57:10.21	355.50	24.58	-54.5	-70.5	3.8	1.49e+00	0	27	104	0	74	23723
2026-01-14 06:57:11.07	355.28	24.52	-54.5	-70.5	3.8	1.49e+00	0	27	104	0	74	23795
2026-01-14 06:57:12.22	355.00	24.43	-54.6	-70.5	3.9	1.49e+00	0	27	104	0	74	23776
2026-01-14 06:57:13.08	354.78	24.36	-54.5	-70.5	3.8	1.49e+00	0	27	104	0	74	23753
2026-01-14 06:57:14.23	354.50	24.27	-54.6	-70.5	3.8	1.49e+00	0	27	104	0	74	23778
2026-01-14 06:57:15.10	354.29	24.20	-54.5	-70.5	3.8	1.49e+00	0	27	104	0	74	23753
2026-01-14 06:57:16.25	354.01	24.11	-54.5	-70.5	3.8	1.49e+00	0	27	104	0	74	23737
2026-01-14 06:57:17.11	353.80	24.04	-54.6	-70.5	3.8	1.49e+00	0	27	104	0	74	23821
2026-01-14 06:57:18.26	353.52	23.95	-54.5	-70.5	3.8	1.49e+00	0	27	104	0	74	23733
2026-01-14 06:57:19.12	353.32	23.88	-54.6	-70.5	3.8	1.49e+00	0	27	104	0	74	23705
2026-01-14 06:57:20.27	353.04	23.79	-54.5	-70.5	3.8	1.49e+00	0	27	104	0	74	23775
2026-01-14 06:57:21.13	352.84	23.72	-54.5	-70.5	3.8	1.49e+00	0	27	104	0	74	23734
2026-01-14 06:57:22.28	352.57	23.63	-54.6	-70.5	3.8	1.49e+00	0	27	104	0	74	23800
2026-01-14 06:57:23.15	352.36	23.56	-54.6	-70.5	3.8	1.49e+00	0	27	104	0	74	23770
2026-01-14 06:57:24.29	352.10	23.46	-54.6	-70.5	3.8	1.49e+00	0	27	104	0	74	23773
2026-01-14 06:57:25.15	351.90	23.39	-54.5	-70.5	3.8	1.49e+00	0	27	104	0	74	23729
2026-01-14 06:57:26.30	351.63	23.30	-54.6	-70.5	3.8	1.49e+00	0	27	104	0	74	23750
2026-01-14 06:57:27.16	351.43	23.23	-54.6	-70.5	3.8	1.49e+00	0	27	104	0	74	23781
2026-01-14 06:57:28.32	351.17	23.13	-54.6	-70.5	3.8	1.49e+00	0	27	104	0	74	23733
2026-01-14 06:57:29.18	350.97	23.06	-54.6	-70.5	3.8	1.49e+00	0	27	104	0	74	23715
2026-01-14 06:57:30.33	350.71	22.96	-54.5	-70.5	3.8	1.49e+00	0	27	104	0	74	23759
2026-01-14 06:57:31.19	350.52	22.89	-54.5	-70.5	3.8	1.49e+00	0	27	104	0	74	23731
2026-01-14 06:57:32.33	350.26	22.80	-54.5	-70.5	3.8	1.49e+00	0	27	104	0	74	23737
2026-01-14 06:57:33.18	350.07	22.73	-54.5	-70.5	3.8	1.49e+00	0	27	104	0	74	23685
2026-01-14 06:57:34.32	349.82	22.63	-54.5	-70.5	3.8	1.49e+00	0	27	104	0	74	23700
2026-01-14 06:57:35.18	349.63	22.56	-54.5	-70.5	3.8	1.49e+00	0	27	104	0	74	23714
2026-01-14 06:57:36.32	349.38	22.46	-54.5	-70.5	3.8	1.49e+00	0	27	104	0	74	23731
2026-01-14 06:57:37.18	349.20	22.39	-54.5	-70.5	3.8	1.49e+00	0	27	104	0	74	23744
2026-01-14 06:57:38.33	348.95	22.29	-54.5	-70.5	3.8	1.49e+00	0	27	104	0	74	23761
2026-01-14 06:57:39.19	348.76	22.22	-54.5	-70.5	3.8	1.49e+00	0	27	104	0	74	23754
2026-01-14 06:57:40.34	348.51	22.12	-54.5	-70.5	3.8	1.49e+00	0	27	104	0	74	23719
2026-01-14 06:57:41.20	348.33	22.05	-54.5	-70.5	3.8	1.49e+00	0	27	104	0	74	23758
2026-01-14 06:57:42.35	348.09	21.95	-54.6	-70.5	3.8	1.49e+00	0	27	104	0	74	23774
2026-01-14 06:57:43.21	347.91	21.88	-54.5	-70.5	3.8	1.49e+00	0	27	104	0	74	23711
2026-01-14 06:57:44.35	347.67	21.78	-54.6	-70.5	3.8	1.49e+00	0	27	104	0	74	23720
2026-01-14 06:57:45.21	347.49	21.71	-54.5	-70.5	3.8	1.49e+00	0	27	104	0	74	23768
2026-01-14 06:57:46.36	347.25	21.61	-54.5	-70.5	3.8	1.49e+00	0	27	104	0	74	23748
2026-01-14 06:57:47.21	347.08	21.54	-54.6	-70.5	3.8	1.49e+00	0	27	104	0	74	23766
2026-01-14 06:57:48.35	346.84	21.44	-54.5	-70.5	3.8	1.49e+00	0	27	104	0	74	23757
2026-01-14 06:57:49.22	346.67	21.36	-54.5	-70.5	3.8	1.49e+00	0	27	104	0	74	23821
2026-01-14 06:57:50.36	346.43	21.26	-54.5	-70.5	3.8	1.49e+00	0	27	104	0	74	23730
2026-01-14 06:57:51.21	346.26	21.19	-54.5	-70.5	3.8	1.49e+00	0	27	104	0	74	23753
2026-01-14 06:57:52.36	346.03	21.09	-54.5	-70.5	3.8	1.49e+00	0	27	104	0	74	23703
2026-01-14 06:57:53.23	345.86	21.02	-54.6	-70.5	3.8	1.49e+00	0	27	104	0	74	23690
2026-01-14 06:57:54.37	345.63	20.92	-54.5	-70.5	3.8	1.49e+00	0	27	104	0	74	23726
2026-01-14 06:57:55.23	345.47	20.84	-54.5	-70.5	3.9	1.49e+00	0	27	104	0	74	23715
2026-01-14 06:57:56.37	345.24	20.75	-54.5	-70.5	3.8	1.49e+00	0	27	104	0	74	23745
2026-01-14 06:57:57.24	345.07	20.67	-54.6	-70.5	3.8	1.49e+00	0	27	104	0	74	23788
2026-01-14 06:57:58.39	344.85	20.57	-54.5	-70.5	3.8	1.49e+00	0	27	104	0	74	23784
2026-01-14 06:57:59.25	344.69	20.50	-54.6	-70.5	3.8	1.49e+00	0	27	104	0	74	23732
2026-01-14 06:58:00.39	344.47	20.40	-54.6	-70.5	3.8	1.49e+00	0	27	104	0	74	23705
2026-01-14 06:58:01.26	344.30	20.32	-54.6	-70.5	3.8	1.49e+00	0	27	104	0	74	23804
2026-01-14 06:58:02.41	344.08	20.22	-54.5	-70.5	3.8	1.49e+00	0	27	104	0	74	23743
2026-01-14 06:58:03.27	343.92	20.15	-54.5	-70.5	3.8	1.49e+00	0	27	104	0	74	23709
2026-01-14 06:58:04.42	343.71	20.05	-54.5	-70.5	3.8	1.49e+00	0	27	104	0	74	23725
2026-01-14 06:58:05.29	343.55	19.97	-54.5	-70.5	3.8	1.49e+00	0	27	104	0	74	23699
2026-01-14 06:58:06.43	343.34	19.87	-54.6	-70.5	3.8	1.49e+00	0	27	104	0	74	23753
2026-01-14 06:58:07.30	343.18	19.80	-54.5	-70.5	3.8	1.49e+00	0	27	104	0	74	23714
2026-01-14 06:58:08.45	342.97	19.70	-54.5	-70.5	3.8	1.49e+00	0	27	104	0	74	23730
2026-01-14 06:58:09.31	342.81	19.62	-54.5	-70.5	3.8	1.49e+00	0	27	104	0	74	23750
2026-01-14 06:58:10.46	342.60	19.52	-54.5	-70.5	3.8	1.49e+00	0	27	104	0	74	23711
2026-01-14 06:58:11.33	342.45	19.45	-54.6	-70.5	3.8	1.49e+00	0	27	104	0	74	23771
2026-01-14 06:58:12.48	342.24	19.35	-54.5	-70.5	3.8	1.49e+00	0	27	104	0	74	23701
2026-01-14 06:58:13.34	342.09	19.27	-54.5	-70.5	3.8	1.49e+00	0	27	104	0	74	23749
2026-01-14 06:58:14.50	341.88	19.17	-54.5	-70.5	3.8	1.49e+00	0	27	104	0	74	23799
2026-01-14 06:58:15.36	341.73	19.10	-54.5	-70.5	3.8	1.49e+00	0	27	104	0	74	23744
2026-01-14 06:58:16.52	341.53	19.00	-54.5	-70.5	3.8	1.49e+00	0	27	104	0	74	23785
2026-01-14 06:58:17.38	341.38	18.92	-54.5	-70.5	3.8	1.49e+00	0	27	104	0	74	23742
2026-01-14 06:58:18.54	341.18	18.82	-54.6	-70.5	3.8	1.49e+00	0	27	104	0	74	23816
2026-01-14 06:58:19.40	341.04	18.75	-54.5	-70.5	3.8	1.49e+00	0	27	104	0	74	23730
2026-01-14 06:58:20.56	340.84	18.65	-54.5	-70.5	3.8	1.49e+00	0	27	104	0	74	23648
2026-01-14 06:58:21.42	340.69	18.57	-54.5	-70.5	3.8	1.49e+00	0	27	104	0	74	23681
2026-01-14 06:58:22.57	340.50	18.47	-54.5	-70.5	3.8	1.49e+00	0	27	104	0	74	23799
2026-01-14 06:58:23.44	340.35	18.40	-54.5	-70.5	3.8	1.49e+00	0	27	104	0	74	23667
2026-01-14 06:58:24.59	340.16	18.30	-54.5	-70.5	3.8	1.49e+00	0	27	104	0	74	23689
2026-01-14 06:58:25.45	340.02	18.22	-54.5	-70.5	3.8	1.49e+00	0	27	104	0	74	23795
2026-01-14 06:58:26.60	339.83	18.12	-54.6	-70.5	3.8	1.49e+00	0	27	104	0	74	23754
2026-01-14 06:58:27.46	339.69	18.05	-54.6	-70.5	3.8	1.49e+00	0	27	104	0	74	23814
2026-01-14 06:58:28.61	339.50	17.95	-54.6	-70.5	3.8	1.49e+00	0	27	104	0	74	23791
2026-01-14 06:58:29.48	339.36	17.88	-54.6	-70.5	3.8	1.49e+00	0	27	104	0	74	23720
2026-01-14 06:58:30.63	339.18	17.78	-54.5	-70.5	3.8	1.49e+00	0	27	104	0	74	23728
2026-01-14 06:58:31.49	339.04	17.70	-54.5	-70.5	3.8	1.49e+00	0	27	104	0	74	23749
2026-01-14 06:58:32.64	338.86	17.60	-54.5	-70.5	3.8	1.49e+00	0	27	104	0	74	23741
2026-01-14 06:58:33.50	338.72	17.53	-54.5	-70.5	3.8	1.49e+00	0	27	104	0	74	23738
2026-01-14 06:58:34.65	338.54	17.43	-54.5	-70.5	3.8	1.49e+00	0	27	104	0	74	23679
2026-01-14 06:58:35.51	338.41	17.36	-54.5	-70.5	3.8	1.49e+00	0	27	104	0	74	23729
2026-01-14 06:58:36.66	338.23	17.26	-54.5	-70.5	3.8	1.49e+00	0	27	104	0	74	23713
2026-01-14 06:58:37.52	338.10	17.19	-54.5	-70.5	3.8	1.49e+00	0	27	104	0	74	23721
2026-01-14 06:58:38.67	337.92	17.09	-54.5	-70.5	3.8	1.49e+00	0	27	104	0	74	23733
2026-01-14 06:58:39.54	337.79	17.01	-54.5	-70.5	3.8	1.49e+00	0	27	104	0	74	23720
2026-01-14 06:58:40.67	337.62	16.92	-54.5	-70.5	3.8	1.49e+00	0	27	104	0	74	23747
2026-01-14 06:58:41.54	337.49	16.84	-54.5	-70.5	3.8	1.49e+00	0	27	104	0	74	23779
2026-01-14 06:58:42.69	337.32	16.74	-55.0	-71.0	3.8	1.49e+00	0	27	104	0	75	23800
2026-01-14 06:58:43.56	337.19	16.67	-55.0	-71.0	3.8	1.49e+00	0	27	104	0	75	23753
2026-01-14 06:58:44.70	337.02	16.57	-55.0	-71.0	3.8	1.49e+00	0	27	104	0	75	23739
2026-01-14 06:58:45.57	336.89	16.50	-55.0	-71.0	3.8	1.49e+00	0	27	104	0	75	23762
2026-01-14 06:58:46.72	336.72	16.40	-55.0	-71.0	3.8	1.49e+00	0	27	104	0	75	23709
2026-01-14 06:58:47.58	336.60	16.33	-55.0	-71.0	3.8	1.49e+00	0	27	104	0	75	23723
2026-01-14 06:58:48.73	336.43	16.23	-55.0	-71.0	3.8	1.49e+00	0	27	104	0	75	23754
2026-01-14 06:58:49.58	336.31	16.16	-55.0	-71.0	3.8	1.49e+00	0	27	104	0	75	23732
2026-01-14 06:58:50.73	336.14	16.06	-55.0	-71.0	3.8	1.49e+00	0	27	104	0	75	23630
2026-01-14 06:58:51.60	336.02	15.99	-55.0	-71.0	3.8	1.49e+00	0	27	104	0	75	23687
2026-01-14 06:58:52.74	335.86	15.89	-55.0	-71.0	3.8	1.49e+00	0	27	104	0	75	23711
2026-01-14 06:58:53.60	335.74	15.82	-55.0	-71.0	3.8	1.49e+00	0	27	104	0	75	23706
2026-01-14 06:58:54.74	335.58	15.73	-55.0	-71.0	3.8	1.49e+00	0	27	104	0	75	23721
2026-01-14 06:58:55.60	335.46	15.65	-55.0	-71.0	3.8	1.49e+00	0	27	104	0	75	23670
2026-01-14 06:58:56.75	335.30	15.56	-55.0	-71.0	3.8	1.49e+00	0	27	104	0	75	23775
2026-01-14 06:58:57.61	335.18	15.49	-55.0	-71.0	3.9	1.49e+00	0	27	104	0	75	23751
2026-01-14 06:58:58.76	335.03	15.39	-55.0	-71.0	3.8	1.49e+00	0	27	104	0	75	23730
2026-01-14 06:58:59.62	334.91	15.32	-55.0	-71.0	3.8	1.49e+00	0	27	104	0	75	23731
2026-01-14 06:59:00.77	334.75	15.22	-55.0	-71.0	3.8	1.49e+00	0	27	104	0	75	23735
2026-01-14 06:59:01.63	334.64	15.15	-55.0	-71.0	3.8	1.49e+00	0	27	104	0	75	23672
2026-01-14 06:59:02.78	334.48	15.06	-54.4	-70.4	3.8	1.49e+00	0	27	104	0	75	22134
2026-01-14 06:59:03.65	334.37	14.98	-54.6	-70.5	3.8	1.49e+00	0	27	104	0	75	22382
2026-01-14 06:59:04.80	334.22	14.89	-54.7	-70.7	3.8	1.49e+00	0	27	104	0	75	22796
2026-01-14 06:59:05.66	334.10	14.82	-54.7	-70.6	3.8	1.49e+00	0	27	104	0	75	22738
2026-01-14 06:59:06.81	333.95	14.72	-54.7	-70.7	3.8	1.49e+00	0	27	104	0	75	22798
2026-01-14 06:59:07.67	333.84	14.65	-54.7	-70.6	3.8	1.49e+00	0	27	104	0	75	22712
2026-01-14 06:59:08.82	333.70	14.56	-54.7	-70.6	3.8	1.49e+00	0	27	104	0	75	22695
2026-01-14 06:59:09.68	333.59	14.49	-54.7	-70.7	3.8	1.49e+00	0	27	104	0	75	22782
2026-01-14 06:59:10.83	333.44	14.39	-54.7	-70.6	3.8	1.49e+00	0	27	104	0	75	22678
2026-01-14 06:59:11.70	333.33	14.32	-54.7	-70.7	3.8	1.49e+00	0	27	104	0	75	22807
2026-01-14 06:59:12.85	333.18	14.23	-54.7	-70.7	3.8	1.49e+00	0	27	104	0	75	22796
2026-01-14 06:59:13.71	333.08	14.16	-54.7	-70.6	3.8	1.49e+00	0	27	104	0	75	22728
2026-01-14 06:59:14.86	332.93	14.06	-54.7	-70.6	3.8	1.49e+00	0	27	104	0	75	22737
2026-01-14 06:59:15.72	332.83	13.99	-54.7	-70.6	3.8	1.49e+00	0	28	104	0	75	22760
2026-01-14 06:59:16.87	332.68	13.90	-54.7	-70.6	3.8	1.49e+00	0	27	104	0	75	22735
2026-01-14 06:59:17.73	332.58	13.83	-54.7	-70.6	3.8	1.49e+00	0	27	104	0	75	22779
2026-01-14 06:59:18.88	332.44	13.74	-54.7	-70.6	3.8	1.49e+00	0	27	104	0	75	22761
2026-01-14 06:59:19.74	332.33	13.67	-54.7	-70.7	3.8	1.49e+00	0	27	104	0	75	22795
2026-01-14 06:59:20.89	332.20	13.58	-54.7	-70.7	3.8	1.49e+00	0	27	104	0	75	22791
2026-01-14 06:59:21.76	332.09	13.51	-54.7	-70.6	3.8	1.49e+00	0	27	104	0	75	22721
2026-01-14 06:59:22.91	331.96	13.41	-54.7	-70.6	3.8	1.49e+00	0	27	104	0	75	22740
2026-01-14 06:59:23.76	331.85	13.35	-54.7	-70.6	3.8	1.49e+00	0	27	104	0	75	22760
2026-01-14 06:59:24.91	331.72	13.25	-54.7	-70.6	3.8	1.49e+00	0	27	104	0	75	22768
2026-01-14 06:59:25.77	331.62	13.18	-54.7	-70.6	3.8	1.49e+00	0	27	104	0	75	22739
2026-01-14 06:59:26.91	331.49	13.09	-54.7	-70.7	3.8	1.49e+00	0	27	104	0	75	22796
2026-01-14 06:59:27.77	331.39	13.03	-54.7	-70.6	3.8	1.49e+00	0	27	104	0	75	22727
2026-01-14 06:59:28.91	331.25	12.93	-54.7	-70.6	3.8	1.49e+00	0	27	104	0	75	22753
2026-01-14 06:59:29.77	331.16	12.87	-54.7	-70.6	3.8	1.49e+00	0	28	104	0	75	22744
2026-01-14 06:59:30.91	331.03	12.78	-54.7	-70.6	3.9	1.49e+00	0	27	104	0	75	22704
2026-01-14 06:59:31.77	330.93	12.71	-54.7	-70.6	3.8	1.49e+00	0	27	104	0	75	22677
2026-01-14 06:59:32.91	330.80	12.62	-54.7	-70.6	3.8	1.49e+00	0	28	104	0	75	22737
2026-01-14 06:59:33.76	330.71	12.55	-54.7	-70.6	3.8	1.49e+00	0	27	104	0	75	22734
2026-01-14 06:59:34.90	330.58	12.46	-54.7	-70.7	3.8	1.49e+00	0	27	104	0	75	22808
2026-01-14 06:59:35.75	330.48	12.40	-54.7	-70.6	3.8	1.49e+00	0	27	104	0	75	22685
2026-01-14 06:59:36.89	330.36	12.31	-54.7	-70.6	3.8	1.49e+00	0	27	104	0	75	22724
2026-01-14 06:59:37.74	330.27	12.24	-54.7	-70.6	3.8	1.49e+00	0	27	104	0	75	22733
2026-01-14 06:59:38.88	330.14	12.15	-54.7	-70.7	3.8	1.49e+00	0	27	104	0	75	22800
2026-01-14 06:59:39.74	330.05	12.08	-54.7	-70.6	3.8	1.49e+00	0	27	104	0	75	22749
2026-01-14 06:59:40.88	329.92	11.99	-54.7	-70.6	3.8	1.49e+00	0	28	104	0	75	22754
2026-01-14 06:59:41.73	329.83	11.93	-54.7	-70.6	3.8	1.49e+00	0	27	104	0	75	22726
2026-01-14 06:59:42.87	329.71	11.84	-54.7	-70.6	3.8	1.49e+00	0	27	104	0	75	22748
2026-01-14 06:59:43.73	329.62	11.77	-54.7	-70.6	3.8	1.49e+00	0	27	104	0	75	22711
2026-01-14 06:59:44.87	329.50	11.69	-54.7	-70.6	3.8	1.49e+00	0	27	104	0	75	22740
2026-01-14 06:59:45.72	329.41	11.62	-54.7	-70.6	3.8	1.49e+00	0	27	104	0	75	22725
2026-01-14 06:59:46.87	329.29	11.53	-54.7	-70.6	3.8	1.49e+00	0	27	104	0	75	22711
2026-01-14 06:59:47.72	329.20	11.47	-54.7	-70.6	3.8	1.49e+00	0	28	104	0	75	22738
2026-01-14 06:59:48.87	329.08	11.38	-54.7	-70.6	3.8	1.49e+00	0	27	104	0	75	22748
2026-01-14 06:59:49.72	329.00	11.31	-54.7	-70.6	3.8	1.49e+00	0	27	104	0	75	22707
2026-01-14 06:59:50.87	328.88	11.23	-54.7	-70.6	3.8	1.49e+00	0	27	104	0	75	22715
2026-01-14 06:59:51.72	328.79	11.16	-55.0	-71.0	3.8	1.49e+00	0	27	104	0	75	23587
2026-01-14 06:59:52.86	328.68	11.08	-58.1	-74.1	3.8	1.49e+00	0	27	104	0	81	23935
2026-01-14 06:59:53.72	328.59	11.01	-58.3	-74.3	3.8	1.49e+00	0	27	104	0	81	24471
2026-01-14 06:59:54.87	328.48	10.92	-58.3	-74.3	3.8	1.49e+00	0	27	104	0	81	24584
2026-01-14 06:59:55.72	328.39	10.86	-58.7	-74.8	3.8	1.49e+00	0	28	104	0	82	24411
2026-01-14 06:59:56.86	328.28	10.77	-59.1	-75.1	3.8	1.49e+00	0	27	104	0	83	24105
2026-01-14 06:59:57.71	328.20	10.71	-59.3	-75.3	3.8	1.49e+00	0	27	104	0	83	24662
2026-01-14 06:59:58.85	328.08	10.62	-59.6	-75.7	3.8	1.49e+00	0	28	104	0	84	24285
2026-01-14 06:59:59.71	328.00	10.56	-59.8	-75.8	3.8	1.49e+00	0	27	104	0	84	24574
2026-01-14 07:00:00.84	327.89	10.47	-59.8	-75.9	3.8	1.49e+00	0	28	104	0	84	24828
2026-01-14 07:00:01.69	327.81	10.41	-59.9	-76.0	3.9	1.49e+00	0	27	104	0	84	25028
2026-01-14 07:00:02.83	327.70	10.33	-60.0	-76.1	3.9	1.49e+00	0	27	104	0	85	23927
2026-01-14 07:00:03.69	327.62	10.26	-60.1	-76.1	3.8	1.49e+00	0	27	104	0	85	24091
2026-01-14 07:00:04.83	327.51	10.18	-60.1	-76.2	3.8	1.49e+00	0	27	104	0	85	24218
2026-01-14 07:00:05.68	327.43	10.11	-60.2	-76.2	3.8	1.49e+00	0	27	104	0	85	24361
2026-01-14 07:00:06.82	327.32	10.03	-60.2	-76.2	3.8	1.49e+00	0	27	104	0	85	24402
2026-01-14 07:00:07.68	327.24	9.97	-60.1	-76.2	3.8	1.49e+00	0	27	104	0	85	24258
2026-01-14 07:00:08.82	327.14	9.88	-60.1	-76.2	3.8	1.49e+00	0	27	104	0	85	24324
2026-01-14 07:00:09.67	327.06	9.82	-60.1	-76.2	3.8	1.49e+00	0	27	104	0	85	24243
2026-01-14 07:00:10.81	326.95	9.74	-60.1	-76.2	3.8	1.49e+00	0	27	104	0	85	24209
2026-01-14 07:00:11.67	326.87	9.67	-60.2	-76.2	3.8	1.49e+00	0	27	104	0	85	24359
2026-01-14 07:00:12.82	326.77	9.59	-60.2	-76.3	3.8	1.49e+00	0	28	104	0	85	24512
2026-01-14 07:00:13.66	326.69	9.53	-60.2	-76.3	3.8	1.49e+00	0	27	104	0	85	24559
2026-01-14 07:00:14.81	326.59	9.44	-60.3	-76.3	3.8	1.49e+00	0	27	104	0	85	24666
2026-01-14 07:00:15.67	326.51	9.38	-60.3	-76.4	3.8	1.49e+00	0	27	104	0	85	24733
2026-01-14 07:00:16.82	326.41	9.30	-60.3	-76.4	3.8	1.49e+00	0	27	104	0	85	24875
2026-01-14 07:00:17.68	326.33	9.24	-60.3	-76.4	3.8	1.49e+00	0	27	104	0	85	24913
2026-01-14 07:00:18.82	326.23	9.15	-60.4	-76.5	3.8	1.49e+00	0	27	104	0	85	25009
2026-01-14 07:00:19.67	326.16	9.09	-60.4	-76.5	3.8	1.49e+00	0	27	104	0	85	25035
2026-01-14 07:00:20.82	326.06	9.01	-60.4	-76.5	3.8	1.49e+00	0	27	104	0	85	25015
2026-01-14 07:00:21.67	325.99	8.95	-60.4	-76.5	3.8	1.49e+00	0	27	104	0	85	25078
2026-01-14 07:00:22.81	325.89	8.87	-60.5	-76.5	3.8	1.49e+00	0	27	104	0	86	23842
2026-01-14 07:00:23.67	325.81	8.80	-60.5	-76.5	3.8	1.49e+00	0	27	104	0	86	23793
2026-01-14 07:00:24.82	325.71	8.72	-60.4	-76.5	3.8	1.49e+00	0	27	104	0	86	23658
2026-01-14 07:00:25.67	325.64	8.66	-60.4	-76.5	3.8	1.49e+00	0	27	104	0	86	23621
2026-01-14 07:00:26.82	325.55	8.58	-60.4	-76.5	3.8	1.49e+00	0	28	104	0	86	23603
2026-01-14 07:00:27.68	325.47	8.52	-60.4	-76.4	3.8	1.49e+00	0	27	104	0	86	23531
2026-01-14 07:00:28.83	325.38	8.44	-60.4	-76.4	3.8	1.49e+00	0	27	104	0	86	23552
2026-01-14 07:00:29.68	325.31	8.38	-60.4	-76.5	3.8	1.49e+00	0	27	104	0	86	23744
2026-01-14 07:00:30.83	325.21	8.30	-60.5	-76.5	3.8	1.49e+00	0	27	104	0	86	23801
2026-01-14 07:00:31.68	325.14	8.24	-60.4	-76.5	3.8	1.49e+00	0	27	104	0	86	23713
2026-01-14 07:00:32.82	325.05	8.16	-60.4	-76.4	3.8	1.49e+00	0	27	104	0	86	23568
2026-01-14 07:00:33.68	324.98	8.10	-60.3	-76.4	3.8	1.49e+00	0	27	104	0	86	23476
2026-01-14 07:00:34.82	324.88	8.02	-60.3	-76.4	3.8	1.49e+00	0	27	104	0	86	23434
2026-01-14 07:00:35.68	324.81	7.96	-60.3	-76.4	3.8	1.49e+00	0	27	104	0	86	23409
2026-01-14 07:00:36.82	324.72	7.88	-60.3	-76.4	3.8	1.49e+00	0	27	104	0	86	23446
2026-01-14 07:00:37.68	324.65	7.82	-60.3	-76.4	3.8	1.49e+00	0	27	104	0	86	23459
2026-01-14 07:00:38.83	324.56	7.74	-60.3	-76.4	3.8	1.49e+00	0	27	104	0	86	23397
2026-01-14 07:00:39.68	324.49	7.68	-60.3	-76.4	3.8	1.49e+00	0	27	104	0	86	23328
2026-01-14 07:00:40.83	324.40	7.60	-60.3	-76.4	3.8	1.49e+00	0	27	104	0	86	23324
2026-01-14 07:00:41.69	324.34	7.54	-60.3	-76.3	3.8	1.49e+00	0	27	104	0	86	23279
2026-01-14 07:00:42.83	324.25	7.46	-60.2	-76.3	3.8	1.49e+00	0	27	104	0	86	23224
2026-01-14 07:00:43.68	324.18	7.40	-60.2	-76.3	3.8	1.49e+00	0	27	104	0	86	23213
2026-01-14 07:00:44.82	324.09	7.32	-60.2	-76.3	3.8	1.49e+00	0	27	104	0	86	23098
2026-01-14 07:00:45.68	324.03	7.26	-60.2	-76.3	3.8	1.49e+00	0	27	104	0	86	23095
2026-01-14 07:00:46.82	323.94	7.19	-60.2	-76.3	3.8	1.49e+00	0	27	104	0	86	23124
2026-01-14 07:00:47.68	323.87	7.13	-60.2	-76.3	3.8	1.49e+00	0	27	104	0	86	23075
2026-01-14 07:00:48.82	323.79	7.05	-60.2	-76.3	3.8	1.49e+00	0	27	104	0	86	23064
2026-01-14 07:00:49.68	323.72	6.99	-60.2	-76.3	3.8	1.49e+00	0	27	104	0	86	23056
2026-01-14 07:00:50.83	323.64	6.91	-60.2	-76.2	3.8	1.49e+00	0	27	104	0	86	23011
2026-01-14 07:00:51.69	323.57	6.86	-60.2	-76.2	3.8	1.49e+00	0	27	104	0	86	23038
2026-01-14 07:00:52.83	323.49	6.78	-60.2	-76.2	3.8	1.49e+00	0	27	104	0	86	23033
2026-01-14 07:00:53.69	323.42	6.72	-60.2	-76.2	3.8	1.49e+00	0	27	104	0	86	22997
2026-01-14 07:00:54.84	323.34	6.64	-60.2	-76.2	3.8	1.49e+00	0	28	104	0	86	22994
2026-01-14 07:00:55.69	323.28	6.59	-60.2	-76.2	3.8	1.49e+00	0	27	104	0	86	22962
2026-01-14 07:00:56.84	323.19	6.51	-60.1	-76.2	3.8	1.49e+00	0	27	104	0	86	22998
2026-01-14 07:00:57.69	323.13	6.45	-60.1	-76.2	3.8	1.49e+00	0	27	104	0	86	22988
2026-01-14 07:00:58.82	323.05	6.38	-60.2	-76.2	3.8	1.49e+00	0	27	104	0	86	22967
2026-01-14 07:00:59.68	322.99	6.32	-60.1	-76.3	3.8	1.49e+00	0	27	104	0	86	23051
2026-01-14 07:01:00.83	322.91	6.24	-60.1	-76.2	3.8	1.49e+00	0	27	104	0	86	22943
2026-01-14 07:01:01.68	322.84	6.19	-60.2	-76.2	3.8	1.49e+00	0	27	104	0	86	22984
2026-01-14 07:01:02.81	322.76	6.11	-60.1	-76.2	3.8	1.49e+00	0	27	104	0	86	22982
2026-01-14 07:01:03.66	322.70	6.05	-60.2	-76.2	3.8	1.49e+00	0	27	104	0	86	22923
2026-01-14 07:01:04.80	322.62	5.98	-60.2	-76.2	3.8	1.49e+00	0	27	104	0	86	22990
2026-01-14 07:01:05.66	322.56	5.92	-60.1	-76.2	3.8	1.49e+00	0	27	104	0	86	22946
2026-01-14 07:01:06.81	322.48	5.85	-60.2	-76.2	3.8	1.49e+00	0	27	104	0	86	22946
2026-01-14 07:01:07.67	322.43	5.79	-60.1	-76.2	3.8	1.49e+00	0	27	104	0	86	22938
2026-01-14 07:01:08.81	322.35	5.72	-60.1	-76.2	3.8	1.49e+00	0	28	104	0	86	22948
2026-01-14 07:01:09.67	322.29	5.66	-60.1	-76.2	3.8	1.49e+00	0	27	104	0	86	22935
2026-01-14 07:01:10.81	322.21	5.58	-60.1	-76.2	3.8	1.49e+00	0	27	104	0	86	22944
2026-01-14 07:01:11.66	322.15	5.53	-60.1	-76.2	3.8	1.49e+00	0	27	104	0	86	22998
2026-01-14 07:01:12.81	322.07	5.45	-60.1	-76.2	3.8	1.49e+00	0	27	104	0	86	22932
2026-01-14 07:01:13.66	322.02	5.40	-60.1	-76.2	3.8	1.49e+00	0	28	104	0	86	22939
2026-01-14 07:01:14.80	321.94	5.33	-60.1	-76.2	3.8	1.49e+00	0	27	104	0	86	22905
2026-01-14 07:01:15.66	321.88	5.27	-60.1	-76.2	3.8	1.49e+00	0	27	104	0	86	22943
2026-01-14 07:01:16.80	321.81	5.20	-60.1	-76.2	3.8	1.49e+00	0	27	104	0	86	22934
2026-01-14 07:01:17.65	321.75	5.14	-60.1	-76.2	3.8	1.49e+00	0	27	104	0	86	22873
2026-01-14 07:01:18.80	321.68	5.07	-60.1	-76.2	3.8	1.49e+00	0	27	104	0	86	22950
2026-01-14 07:01:19.66	321.62	5.01	-60.1	-76.2	3.8	1.49e+00	0	27	104	0	86	22925
2026-01-14 07:01:20.80	321.55	4.94	-60.1	-76.2	3.8	1.49e+00	0	27	104	0	86	22896
2026-01-14 07:01:21.67	321.49	4.88	-60.1	-76.2	3.8	1.49e+00	0	27	104	0	86	22921
2026-01-14 07:01:22.81	321.42	4.81	-60.1	-76.2	3.8	1.49e+00	0	27	104	0	86	22830
