passes_logs/2026/01/14/R3.2S_Murmansk/R3.2S_Murmansk__20260114_054936_FENGYUN_3D_rec.log

#Pass ID: 20260114_054936_FENGYUN 3D
#Satellite: FENGYUN 3D
#Configuration: FENGYUN 3D
#almurnet v.1.7.20251203
#Start time: 2026-01-14 05:49:36

#Version: 2.2.20231116
#Station: R3.2S_Murmansk
#Location: 33.079688 lon 68.888172 lat
#TLE: 1 43010U 17072A   26013.59402220  .00000029  00000+0  35477-4 0  9991
#TLE: 2 43010  98.9934 345.3884 0002280 110.7757 249.3663 14.19695359423056

#Time	Az	El	Level	Level2	SNR	BER	BlckErr	Temp	State	Recorded	gain1	gain2
2026-01-14 05:49:36.41	45.21	1.99	-54.4	-67.4	3.8	8.46e-01	0	25	0	0	73	17493
2026-01-14 05:49:37.41	45.16	2.05	-54.4	-67.4	3.8	8.45e-01	0	25	104	0	73	17534
2026-01-14 05:49:38.42	45.10	2.11	-54.4	-67.4	3.8	8.45e-01	0	25	104	0	73	17577
2026-01-14 05:49:39.43	45.05	2.17	-54.4	-67.4	3.8	8.45e-01	0	25	104	0	73	17549
2026-01-14 05:49:40.44	44.99	2.23	-54.4	-67.4	3.8	8.46e-01	0	25	104	0	73	17594
2026-01-14 05:49:41.44	44.93	2.28	-54.4	-67.4	3.8	8.45e-01	0	25	104	0	73	17624
2026-01-14 05:49:42.45	44.88	2.34	-54.4	-67.4	3.8	8.46e-01	0	25	104	0	73	17552
2026-01-14 05:49:43.45	44.82	2.40	-54.4	-67.4	3.8	8.45e-01	0	25	104	0	73	17635
2026-01-14 05:49:44.46	44.76	2.46	-54.4	-67.4	3.8	8.46e-01	0	25	104	0	73	17604
2026-01-14 05:49:45.47	44.70	2.52	-54.4	-67.4	3.8	8.46e-01	0	26	104	0	73	17641
2026-01-14 05:49:46.48	44.65	2.58	-54.4	-67.4	3.8	8.45e-01	0	25	104	0	73	17589
2026-01-14 05:49:47.49	44.59	2.64	-54.4	-67.4	3.8	8.46e-01	0	25	104	0	73	17605
2026-01-14 05:49:48.50	44.53	2.70	-54.4	-67.4	3.8	8.44e-01	0	26	104	0	73	17643
2026-01-14 05:49:49.51	44.47	2.76	-54.4	-67.4	3.8	8.45e-01	0	26	104	0	73	17600
2026-01-14 05:49:50.52	44.41	2.82	-54.4	-67.5	3.8	8.45e-01	0	26	104	0	73	17687
2026-01-14 05:49:51.53	44.35	2.88	-54.4	-67.4	3.8	8.45e-01	0	26	104	0	73	17588
2026-01-14 05:49:52.54	44.29	2.94	-54.4	-67.4	3.8	8.45e-01	0	26	104	0	73	17586
2026-01-14 05:49:53.54	44.23	3.00	-54.4	-67.4	3.8	8.46e-01	0	26	104	0	73	17638
2026-01-14 05:49:54.56	44.17	3.07	-54.4	-67.4	3.8	8.45e-01	0	26	104	0	73	17599
2026-01-14 05:49:55.57	44.11	3.13	-54.5	-67.5	3.8	8.46e-01	0	26	104	0	74	16736
2026-01-14 05:49:56.57	44.05	3.19	-54.5	-67.5	3.8	8.46e-01	0	26	104	0	74	16726
2026-01-14 05:49:57.59	43.99	3.25	-54.5	-67.5	3.8	8.44e-01	0	26	104	0	74	16732
2026-01-14 05:49:58.59	43.93	3.31	-54.5	-67.5	3.8	8.45e-01	0	26	104	0	74	16728
2026-01-14 05:49:59.60	43.86	3.37	-54.5	-67.5	3.8	8.47e-01	0	26	104	0	74	16736
2026-01-14 05:50:00.61	43.80	3.43	-54.5	-67.5	3.8	8.46e-01	0	26	104	0	74	16710
2026-01-14 05:50:01.62	43.74	3.49	-54.5	-67.5	3.8	8.46e-01	0	26	104	0	74	16749
2026-01-14 05:50:02.63	43.68	3.55	-54.5	-67.4	3.8	8.45e-01	0	26	104	0	74	16690
2026-01-14 05:50:03.64	43.62	3.62	-54.5	-67.5	3.8	8.45e-01	0	26	104	0	74	16696
2026-01-14 05:50:04.65	43.55	3.68	-54.5	-67.5	3.8	8.45e-01	0	26	104	0	74	16750
2026-01-14 05:50:05.65	43.49	3.74	-54.5	-67.5	3.8	8.45e-01	0	26	104	0	74	16736
2026-01-14 05:50:06.66	43.43	3.80	-54.5	-67.5	3.8	8.45e-01	0	26	104	0	74	16736
2026-01-14 05:50:07.67	43.36	3.86	-54.5	-67.5	3.8	8.45e-01	0	26	104	0	74	16744
2026-01-14 05:50:08.68	43.30	3.92	-54.4	-67.5	3.8	8.46e-01	0	26	104	0	74	16716
2026-01-14 05:50:09.69	43.23	3.99	-54.5	-67.5	3.8	8.45e-01	0	26	104	0	74	16757
2026-01-14 05:50:10.70	43.17	4.05	-54.5	-67.5	3.8	8.46e-01	0	26	104	0	74	16711
2026-01-14 05:50:11.70	43.10	4.11	-54.5	-67.5	3.8	8.44e-01	0	26	104	0	74	16757
2026-01-14 05:50:12.71	43.04	4.17	-54.5	-67.5	3.8	8.46e-01	0	26	104	0	74	16732
2026-01-14 05:50:13.72	42.97	4.24	-54.5	-67.5	3.8	8.46e-01	0	26	104	0	74	16778
2026-01-14 05:50:14.73	42.91	4.30	-54.5	-67.5	3.8	8.47e-01	0	26	104	0	74	16714
2026-01-14 05:50:15.74	42.84	4.36	-54.5	-67.5	3.8	8.45e-01	0	26	104	0	74	16764
2026-01-14 05:50:16.74	42.77	4.42	-54.5	-67.5	3.8	8.45e-01	0	26	104	0	74	16740
2026-01-14 05:50:17.76	42.71	4.49	-54.5	-67.5	3.8	8.46e-01	0	26	104	0	74	16729
2026-01-14 05:50:18.77	42.64	4.55	-54.5	-67.5	3.8	8.44e-01	0	26	104	0	74	16701
2026-01-14 05:50:19.78	42.57	4.61	-54.5	-67.5	3.8	8.46e-01	0	26	104	0	74	16738
2026-01-14 05:50:20.78	42.51	4.68	-54.5	-67.5	3.8	8.45e-01	0	26	104	0	74	16764
2026-01-14 05:50:21.79	42.44	4.74	-54.5	-67.5	3.8	8.45e-01	0	26	104	0	74	16769
2026-01-14 05:50:22.80	42.37	4.80	-54.5	-67.5	3.8	8.45e-01	0	26	104	0	74	16796
2026-01-14 05:50:23.81	42.30	4.87	-54.5	-67.5	3.8	8.45e-01	0	26	104	0	74	16734
2026-01-14 05:50:24.82	42.23	4.93	-54.5	-67.5	3.8	8.46e-01	0	26	104	0	74	16740
2026-01-14 05:50:25.83	42.16	5.00	-54.5	-67.5	3.8	8.47e-01	0	26	104	0	74	16810
2026-01-14 05:50:26.84	42.09	5.06	-54.5	-67.5	3.8	8.47e-01	0	26	104	0	74	16765
2026-01-14 05:50:27.85	42.02	5.12	-54.5	-67.5	3.8	8.46e-01	0	26	104	0	74	16810
2026-01-14 05:50:28.86	41.95	5.19	-54.5	-67.5	3.8	8.46e-01	0	26	104	0	74	16753
2026-01-14 05:50:29.86	41.88	5.25	-54.5	-67.5	3.8	8.44e-01	0	26	104	0	74	16751
2026-01-14 05:50:30.87	41.81	5.32	-54.5	-67.5	3.8	8.46e-01	0	26	104	0	74	16738
2026-01-14 05:50:31.87	41.74	5.38	-54.5	-67.5	3.8	8.46e-01	0	26	104	0	74	16716
2026-01-14 05:50:32.88	41.67	5.45	-54.5	-67.5	3.8	8.45e-01	0	26	104	0	74	16749
2026-01-14 05:50:33.89	41.60	5.51	-54.5	-67.5	3.8	8.46e-01	0	26	104	0	74	16825
2026-01-14 05:50:34.90	41.52	5.58	-54.5	-67.5	3.8	8.45e-01	0	26	104	0	74	16788
2026-01-14 05:50:35.91	41.45	5.64	-54.5	-67.5	3.8	8.46e-01	0	26	104	0	74	16791
2026-01-14 05:50:36.91	41.38	5.71	-54.5	-67.5	3.8	8.45e-01	0	27	104	0	74	16814
2026-01-14 05:50:37.93	41.31	5.77	-54.5	-67.5	3.8	8.46e-01	0	26	104	0	74	16753
2026-01-14 05:50:38.93	41.23	5.84	-54.5	-67.5	3.8	8.45e-01	0	26	104	0	74	16787
2026-01-14 05:50:39.94	41.16	5.90	-54.5	-67.5	3.8	8.47e-01	0	27	104	0	74	16771
2026-01-14 05:50:40.95	41.08	5.97	-54.5	-67.5	3.8	8.47e-01	0	26	104	0	74	16744
2026-01-14 05:50:41.96	41.01	6.03	-54.5	-67.5	3.8	8.46e-01	0	27	104	0	74	16788
2026-01-14 05:50:42.97	40.93	6.10	-54.5	-67.5	3.8	8.46e-01	0	27	104	0	74	16822
2026-01-14 05:50:43.98	40.86	6.17	-54.5	-67.5	3.8	8.45e-01	0	27	104	0	74	16806
2026-01-14 05:50:44.99	40.78	6.23	-54.5	-67.5	3.8	8.45e-01	0	27	104	0	74	16831
2026-01-14 05:50:46.00	40.71	6.30	-54.5	-67.5	3.8	8.45e-01	0	26	104	0	74	16792
2026-01-14 05:50:47.01	40.63	6.36	-54.5	-67.5	3.8	8.46e-01	0	27	104	0	74	16800
2026-01-14 05:50:48.01	40.55	6.43	-54.5	-67.5	3.8	8.46e-01	0	27	104	0	74	16775
2026-01-14 05:50:48.74	40.50	6.48	-54.5	-67.5	3.8	8.45e-01	0	27	104	0	74	16788
2026-01-14 05:50:50.04	40.40	6.57	-54.5	-67.5	3.8	8.46e-01	0	27	104	0	74	16801
2026-01-14 05:50:50.76	40.34	6.61	-54.5	-67.5	3.8	8.45e-01	0	27	104	0	74	16778
2026-01-14 05:50:52.05	40.24	6.70	-54.5	-67.5	3.8	8.46e-01	0	27	104	0	74	16810
2026-01-14 05:50:52.77	40.19	6.75	-54.5	-67.5	3.8	8.46e-01	0	27	104	0	74	16805
2026-01-14 05:50:54.07	40.08	6.83	-54.5	-67.5	3.8	8.46e-01	0	27	104	0	74	16813
2026-01-14 05:50:54.79	40.03	6.88	-54.5	-67.5	3.8	8.45e-01	0	27	104	0	74	16807
2026-01-14 05:50:56.09	39.93	6.97	-54.5	-67.5	3.8	8.46e-01	0	27	104	0	74	16749
2026-01-14 05:50:56.81	39.87	7.02	-54.5	-67.5	3.8	8.45e-01	0	27	104	0	74	16798
2026-01-14 05:50:58.10	39.77	7.10	-54.5	-67.5	3.8	8.47e-01	0	27	104	0	74	16832
2026-01-14 05:50:58.82	39.71	7.15	-54.5	-67.5	3.8	8.46e-01	0	27	104	0	74	16847
2026-01-14 05:51:00.12	39.60	7.24	-54.5	-67.5	3.8	8.44e-01	0	27	104	0	74	16803
2026-01-14 05:51:00.84	39.54	7.29	-54.5	-67.5	3.8	8.46e-01	0	27	104	0	74	16799
2026-01-14 05:51:02.14	39.44	7.37	-54.5	-67.5	3.8	8.46e-01	0	27	104	0	74	16847
2026-01-14 05:51:02.86	39.38	7.42	-54.5	-67.5	3.8	8.46e-01	0	27	104	0	74	16857
2026-01-14 05:51:04.16	39.27	7.51	-54.5	-67.5	3.8	8.45e-01	0	27	104	0	74	16799
2026-01-14 05:51:04.88	39.21	7.56	-54.5	-67.5	3.8	8.45e-01	0	27	104	0	74	16838
2026-01-14 05:51:06.17	39.11	7.65	-54.5	-67.5	3.8	8.45e-01	0	27	104	0	74	16838
2026-01-14 05:51:06.89	39.05	7.70	-54.5	-67.5	3.8	8.46e-01	0	27	104	0	74	16780
2026-01-14 05:51:08.19	38.94	7.79	-54.5	-67.5	3.8	8.46e-01	0	27	104	0	74	16773
2026-01-14 05:51:08.91	38.88	7.84	-54.5	-67.5	3.8	8.47e-01	0	27	104	0	74	16803
2026-01-14 05:51:10.21	38.77	7.93	-54.5	-67.5	3.8	8.45e-01	0	27	104	0	74	16826
2026-01-14 05:51:10.93	38.70	7.97	-54.5	-67.5	3.8	8.45e-01	0	27	104	0	74	16857
2026-01-14 05:51:12.23	38.59	8.06	-54.5	-67.5	3.8	8.46e-01	0	27	104	0	74	16825
2026-01-14 05:51:12.95	38.53	8.11	-54.5	-67.5	3.8	8.46e-01	0	27	104	0	74	16851
2026-01-14 05:51:14.24	38.42	8.20	-54.5	-67.5	3.8	8.46e-01	0	27	104	0	74	16802
2026-01-14 05:51:14.96	38.36	8.25	-54.5	-67.5	3.8	8.45e-01	0	27	104	0	74	16872
2026-01-14 05:51:16.26	38.24	8.34	-54.5	-67.5	3.8	8.45e-01	0	27	104	0	74	16825
2026-01-14 05:51:16.98	38.18	8.39	-54.5	-67.5	3.8	8.45e-01	0	27	104	0	74	16871
2026-01-14 05:51:18.27	38.07	8.48	-54.5	-67.5	3.8	8.45e-01	0	27	104	0	74	16856
2026-01-14 05:51:18.99	38.00	8.53	-54.5	-67.5	3.8	8.45e-01	0	27	104	0	74	16848
2026-01-14 05:51:20.29	37.89	8.62	-54.5	-67.5	3.8	8.46e-01	0	27	104	0	74	16873
2026-01-14 05:51:21.01	37.82	8.67	-54.5	-67.6	3.8	8.45e-01	0	27	104	0	74	16890
2026-01-14 05:51:22.31	37.71	8.77	-54.5	-67.5	3.8	8.46e-01	0	27	104	0	74	16842
2026-01-14 05:51:23.03	37.64	8.82	-54.5	-67.5	3.8	8.46e-01	0	27	104	0	74	16887
2026-01-14 05:51:24.33	37.52	8.91	-54.5	-67.6	3.8	8.44e-01	0	27	104	0	74	16889
2026-01-14 05:51:25.05	37.46	8.96	-54.5	-67.6	3.8	8.46e-01	0	27	104	0	74	16907
2026-01-14 05:51:26.34	37.34	9.05	-54.5	-67.5	3.8	8.45e-01	0	27	104	0	74	16845
2026-01-14 05:51:27.06	37.27	9.10	-54.5	-67.5	3.8	8.45e-01	0	27	104	0	74	16877
2026-01-14 05:51:28.36	37.15	9.19	-54.5	-67.6	3.8	8.45e-01	0	27	104	0	74	16915
2026-01-14 05:51:29.08	37.09	9.24	-54.5	-67.6	3.8	8.46e-01	0	27	104	0	74	16894
2026-01-14 05:51:30.37	36.96	9.33	-54.5	-67.6	3.8	8.45e-01	0	27	104	0	74	16912
2026-01-14 05:51:31.09	36.90	9.39	-54.5	-67.5	3.8	8.46e-01	0	27	104	0	74	16840
2026-01-14 05:51:32.39	36.77	9.48	-54.5	-67.5	3.8	8.45e-01	0	27	104	0	74	16861
2026-01-14 05:51:33.11	36.71	9.53	-54.5	-67.5	3.8	8.47e-01	0	27	104	0	74	16848
2026-01-14 05:51:34.41	36.58	9.62	-54.5	-67.5	3.8	8.45e-01	0	27	104	0	74	16861
2026-01-14 05:51:35.13	36.51	9.68	-54.5	-67.5	3.8	8.45e-01	0	27	104	0	74	16860
2026-01-14 05:51:36.42	36.39	9.77	-54.5	-67.5	3.8	8.45e-01	0	27	104	0	74	16820
2026-01-14 05:51:37.15	36.32	9.82	-54.5	-67.5	3.8	8.45e-01	0	27	104	0	74	16839
2026-01-14 05:51:38.44	36.19	9.91	-54.5	-67.5	3.8	8.45e-01	0	27	104	0	74	16881
2026-01-14 05:51:39.16	36.12	9.97	-54.5	-67.6	3.8	8.45e-01	0	27	104	0	74	16906
2026-01-14 05:51:40.46	35.99	10.06	-54.5	-67.5	3.8	8.45e-01	0	27	104	0	74	16858
2026-01-14 05:51:41.18	35.92	10.11	-54.5	-67.5	3.8	8.46e-01	0	27	104	0	74	16847
2026-01-14 05:51:42.48	35.79	10.21	-54.5	-67.5	3.8	8.46e-01	0	27	104	0	74	16861
2026-01-14 05:51:43.20	35.72	10.26	-54.5	-67.5	3.8	8.46e-01	0	27	104	0	74	16853
2026-01-14 05:51:44.49	35.59	10.35	-54.5	-67.5	3.8	8.44e-01	0	27	104	0	74	16840
2026-01-14 05:51:45.21	35.52	10.41	-54.5	-67.5	3.8	8.44e-01	0	27	104	0	74	16873
2026-01-14 05:51:46.51	35.38	10.50	-54.5	-67.5	3.8	8.46e-01	0	27	104	0	74	16877
2026-01-14 05:51:47.23	35.31	10.55	-54.6	-67.5	3.8	8.45e-01	0	27	104	0	74	16865
2026-01-14 05:51:48.52	35.18	10.65	-54.6	-67.6	3.8	8.46e-01	0	27	104	0	74	16899
2026-01-14 05:51:49.24	35.10	10.70	-54.5	-67.5	3.8	8.45e-01	0	27	104	0	74	16879
2026-01-14 05:51:50.54	34.97	10.80	-54.5	-67.6	3.8	8.45e-01	0	27	104	0	74	16898
2026-01-14 05:51:51.26	34.89	10.85	-54.5	-67.6	3.8	8.45e-01	0	27	104	0	74	16893
2026-01-14 05:51:52.56	34.76	10.95	-54.5	-67.5	3.8	8.45e-01	0	27	104	0	74	16880
2026-01-14 05:51:53.28	34.68	11.00	-54.6	-67.6	3.8	8.45e-01	0	27	104	0	74	16906
2026-01-14 05:51:54.57	34.54	11.10	-54.5	-67.5	3.8	8.46e-01	0	27	104	0	74	16867
2026-01-14 05:51:55.29	34.47	11.15	-54.5	-67.6	3.8	8.45e-01	0	27	104	0	74	16906
2026-01-14 05:51:56.58	34.33	11.24	-54.5	-67.5	3.8	8.44e-01	0	27	104	0	74	16873
2026-01-14 05:51:57.30	34.25	11.30	-54.5	-67.5	3.8	8.45e-01	0	27	104	0	74	16846
2026-01-14 05:51:58.60	34.11	11.40	-54.5	-67.6	3.8	8.46e-01	0	27	104	0	74	16889
2026-01-14 05:51:59.32	34.03	11.45	-54.5	-67.5	3.8	8.46e-01	0	27	104	0	74	16840
2026-01-14 05:52:00.62	33.89	11.55	-54.5	-67.5	3.8	8.46e-01	0	27	104	0	74	16861
2026-01-14 05:52:01.34	33.81	11.60	-54.5	-67.5	3.8	8.45e-01	0	27	104	0	74	16863
2026-01-14 05:52:02.63	33.67	11.70	-54.5	-67.5	3.8	8.46e-01	0	27	104	0	74	16873
2026-01-14 05:52:03.35	33.59	11.75	-54.5	-67.5	3.8	8.45e-01	0	27	104	0	74	16852
2026-01-14 05:52:04.65	33.44	11.85	-54.5	-67.5	3.8	8.45e-01	0	27	104	0	74	16853
2026-01-14 05:52:05.37	33.36	11.90	-54.5	-67.5	3.8	8.46e-01	0	27	104	0	74	16787
2026-01-14 05:52:06.67	33.21	12.00	-54.5	-67.6	3.8	8.46e-01	0	27	104	0	74	16920
2026-01-14 05:52:07.40	33.13	12.06	-54.5	-67.6	3.8	8.45e-01	0	27	104	0	74	16912
2026-01-14 05:52:08.69	32.98	12.16	-54.5	-67.5	3.8	8.45e-01	0	27	104	0	74	16879
2026-01-14 05:52:09.41	32.90	12.21	-54.5	-67.6	3.8	8.45e-01	0	27	104	0	74	16928
2026-01-14 05:52:10.70	32.75	12.31	-54.6	-67.5	3.8	8.46e-01	0	27	104	0	74	16883
2026-01-14 05:52:11.43	32.67	12.37	-54.5	-67.5	3.8	8.46e-01	0	27	104	0	74	16828
2026-01-14 05:52:12.72	32.52	12.46	-54.5	-67.6	3.8	8.45e-01	0	27	104	0	74	16954
2026-01-14 05:52:13.45	32.43	12.52	-54.5	-67.6	3.8	8.45e-01	0	27	104	0	74	16901
2026-01-14 05:52:14.74	32.28	12.62	-54.5	-67.6	3.8	8.47e-01	0	27	104	0	74	16920
2026-01-14 05:52:15.46	32.19	12.67	-54.6	-67.6	3.8	8.46e-01	0	27	104	0	74	16920
2026-01-14 05:52:16.76	32.04	12.77	-54.5	-67.5	3.8	8.44e-01	0	27	104	0	74	16886
2026-01-14 05:52:17.48	31.95	12.83	-54.5	-67.5	3.8	8.46e-01	0	27	104	0	74	16879
2026-01-14 05:52:18.78	31.80	12.93	-54.5	-67.6	3.8	8.44e-01	0	27	104	0	74	16901
2026-01-14 05:52:19.50	31.71	12.99	-54.5	-67.5	3.8	8.46e-01	0	27	104	0	74	16859
2026-01-14 05:52:20.80	31.55	13.09	-54.5	-67.6	3.8	8.45e-01	0	27	104	0	74	16950
2026-01-14 05:52:21.52	31.46	13.14	-54.6	-67.6	3.8	8.44e-01	0	27	104	0	74	16901
2026-01-14 05:52:22.81	31.30	13.24	-54.5	-67.5	3.8	8.45e-01	0	27	104	0	74	16863
2026-01-14 05:52:23.53	31.21	13.30	-54.5	-67.5	3.8	8.46e-01	0	27	104	0	74	16870
2026-01-14 05:52:24.83	31.05	13.40	-54.5	-67.5	3.8	8.45e-01	0	27	104	0	74	16845
2026-01-14 05:52:25.55	30.96	13.46	-54.5	-67.5	3.8	8.46e-01	0	27	104	0	74	16822
2026-01-14 05:52:26.84	30.80	13.56	-54.5	-67.5	3.8	8.45e-01	0	27	104	0	74	16864
2026-01-14 05:52:27.57	30.71	13.61	-54.5	-67.5	3.8	8.48e-01	0	27	104	0	74	16836
2026-01-14 05:52:28.87	30.54	13.72	-54.6	-67.6	3.8	8.46e-01	0	27	104	0	74	16902
2026-01-14 05:52:29.58	30.45	13.77	-54.5	-67.5	3.8	8.45e-01	0	27	104	0	74	16879
2026-01-14 05:52:30.88	30.28	13.87	-54.5	-67.6	3.8	8.46e-01	0	27	104	0	74	16889
2026-01-14 05:52:31.60	30.19	13.93	-54.5	-67.5	3.8	8.45e-01	0	27	104	0	74	16866
2026-01-14 05:52:32.89	30.02	14.03	-54.6	-67.6	3.8	8.45e-01	0	27	104	0	74	16907
2026-01-14 05:52:33.61	29.93	14.09	-54.6	-67.5	3.8	8.46e-01	0	27	104	0	74	16884
2026-01-14 05:52:34.91	29.76	14.19	-54.6	-67.6	3.8	8.45e-01	0	27	104	0	74	16916
2026-01-14 05:52:35.63	29.66	14.25	-54.6	-67.5	3.8	8.45e-01	0	27	104	0	74	16872
2026-01-14 05:52:36.92	29.49	14.35	-54.6	-67.6	3.8	8.45e-01	0	27	104	0	74	16930
2026-01-14 05:52:37.64	29.39	14.41	-54.6	-67.6	3.8	8.45e-01	0	27	104	0	74	16899
2026-01-14 05:52:38.94	29.22	14.51	-54.6	-67.6	3.8	8.46e-01	0	27	104	0	74	16942
2026-01-14 05:52:39.66	29.12	14.57	-54.6	-67.6	3.8	8.45e-01	0	27	104	0	74	16958
2026-01-14 05:52:40.96	28.94	14.67	-54.6	-67.5	3.8	8.46e-01	0	27	104	0	74	16880
2026-01-14 05:52:41.68	28.84	14.73	-54.6	-67.6	3.8	8.46e-01	0	27	104	0	74	16931
2026-01-14 05:52:42.98	28.67	14.83	-54.6	-67.6	3.8	8.44e-01	0	27	104	0	74	16919
2026-01-14 05:52:43.70	28.57	14.89	-54.5	-67.6	3.8	8.45e-01	0	27	104	0	74	16950
2026-01-14 05:52:44.99	28.39	14.99	-54.6	-67.6	3.8	8.45e-01	0	27	104	0	74	16930
2026-01-14 05:52:45.72	28.28	15.05	-54.6	-67.6	3.8	8.45e-01	0	27	104	0	74	16942
2026-01-14 05:52:47.01	28.10	15.15	-54.6	-67.6	3.8	8.45e-01	0	27	104	0	74	16919
2026-01-14 05:52:47.73	28.00	15.21	-54.6	-67.6	3.8	8.45e-01	0	27	104	0	74	16940
2026-01-14 05:52:49.03	27.82	15.32	-54.5	-67.6	3.8	8.45e-01	0	27	104	0	74	16909
2026-01-14 05:52:49.75	27.71	15.37	-54.6	-67.6	3.8	8.45e-01	0	27	104	0	74	16911
2026-01-14 05:52:51.04	27.53	15.48	-54.6	-67.6	3.8	8.46e-01	0	27	104	0	74	16939
2026-01-14 05:52:51.77	27.42	15.54	-54.6	-67.6	3.8	8.45e-01	0	27	104	0	74	16910
2026-01-14 05:52:53.06	27.24	15.64	-54.6	-67.6	3.8	8.45e-01	0	27	104	0	74	16928
2026-01-14 05:52:53.78	27.13	15.70	-54.6	-67.6	3.8	8.45e-01	0	27	104	0	74	16926
2026-01-14 05:52:55.08	26.94	15.80	-54.6	-67.6	3.8	8.45e-01	0	27	104	0	74	16925
2026-01-14 05:52:55.80	26.83	15.86	-54.6	-67.6	3.8	8.46e-01	0	27	104	0	74	16917
2026-01-14 05:52:57.10	26.64	15.97	-54.6	-67.5	3.8	8.45e-01	0	27	104	0	74	16871
2026-01-14 05:52:57.82	26.53	16.02	-54.6	-67.6	3.8	8.45e-01	0	27	104	0	74	16917
2026-01-14 05:52:59.12	26.34	16.13	-54.6	-67.6	3.8	8.45e-01	0	27	104	0	74	16924
2026-01-14 05:52:59.83	26.23	16.19	-54.6	-67.6	3.8	8.46e-01	0	27	104	0	74	16930
2026-01-14 05:53:01.13	26.03	16.29	-54.6	-67.6	3.8	8.45e-01	0	27	104	0	74	16905
2026-01-14 05:53:01.85	25.92	16.35	-54.6	-67.6	3.8	8.46e-01	0	27	104	0	74	16914
2026-01-14 05:53:03.15	25.72	16.46	-54.6	-67.5	3.8	8.45e-01	0	27	104	0	74	16887
2026-01-14 05:53:03.87	25.61	16.52	-54.6	-67.6	3.8	8.45e-01	0	27	104	0	74	16945
2026-01-14 05:53:05.17	25.41	16.62	-54.6	-67.6	3.8	8.47e-01	0	27	104	0	74	16899
2026-01-14 05:53:05.90	25.29	16.68	-54.6	-67.6	3.8	8.45e-01	0	27	104	0	74	16889
2026-01-14 05:53:07.19	25.09	16.79	-54.6	-67.6	3.8	8.44e-01	0	27	104	0	74	16893
2026-01-14 05:53:07.91	24.98	16.84	-54.6	-67.6	3.8	8.46e-01	0	27	104	0	74	16914
2026-01-14 05:53:09.21	24.77	16.95	-54.6	-67.5	3.8	8.45e-01	0	27	104	0	74	16876
2026-01-14 05:53:09.93	24.66	17.01	-54.6	-67.6	3.8	8.46e-01	0	27	104	0	74	16932
2026-01-14 05:53:11.23	24.45	17.12	-54.6	-67.6	3.8	8.46e-01	0	27	104	0	74	16906
2026-01-14 05:53:11.95	24.33	17.17	-54.6	-67.5	3.8	8.45e-01	0	27	104	0	74	16872
2026-01-14 05:53:13.24	24.12	17.28	-54.6	-67.6	3.8	8.45e-01	0	27	104	0	74	16925
2026-01-14 05:53:13.96	24.00	17.34	-54.6	-67.6	3.8	8.46e-01	0	27	104	0	74	16915
2026-01-14 05:53:15.25	23.79	17.44	-54.6	-67.6	3.8	8.46e-01	0	27	104	0	74	16900
2026-01-14 05:53:15.97	23.67	17.50	-54.6	-67.5	3.8	8.45e-01	0	27	104	0	74	16886
2026-01-14 05:53:17.27	23.46	17.61	-54.6	-67.6	3.8	8.46e-01	0	27	104	0	74	16916
2026-01-14 05:53:17.99	23.34	17.67	-54.6	-67.6	3.8	8.46e-01	0	27	104	0	74	16898
2026-01-14 05:53:19.29	23.12	17.78	-54.6	-67.6	3.8	8.45e-01	0	27	104	0	74	16930
2026-01-14 05:53:20.01	23.00	17.83	-54.6	-67.6	3.8	8.45e-01	0	27	104	0	74	16942
2026-01-14 05:53:21.31	22.77	17.94	-54.6	-67.6	3.8	8.47e-01	0	27	104	0	74	16896
2026-01-14 05:53:22.03	22.65	18.00	-54.6	-67.6	3.8	8.46e-01	0	27	104	0	74	16925
2026-01-14 05:53:23.33	22.43	18.11	-54.6	-67.5	3.8	8.45e-01	0	27	104	0	74	16872
2026-01-14 05:53:24.05	22.30	18.17	-54.6	-67.6	3.8	8.45e-01	0	27	104	0	74	16907
2026-01-14 05:53:25.35	22.08	18.27	-54.6	-67.6	3.8	8.45e-01	0	27	104	0	74	16960
2026-01-14 05:53:26.07	21.95	18.33	-54.6	-67.6	3.8	8.45e-01	0	27	104	0	74	16891
2026-01-14 05:53:27.37	21.72	18.44	-54.6	-67.6	3.8	8.46e-01	0	27	104	0	74	16979
2026-01-14 05:53:28.09	21.60	18.50	-54.6	-67.6	3.8	8.46e-01	0	27	104	0	74	16975
2026-01-14 05:53:29.38	21.37	18.60	-54.6	-67.6	3.8	8.46e-01	0	27	104	0	74	16939
2026-01-14 05:53:30.11	21.24	18.66	-54.6	-67.6	3.8	8.45e-01	0	27	104	0	74	16922
2026-01-14 05:53:31.40	21.01	18.77	-54.6	-67.6	3.8	8.45e-01	0	27	104	0	74	16917
2026-01-14 05:53:32.12	20.88	18.83	-54.6	-67.5	3.8	8.46e-01	0	27	104	0	74	16863
2026-01-14 05:53:33.41	20.64	18.93	-54.6	-67.6	3.8	8.45e-01	0	27	104	0	74	16916
2026-01-14 05:53:34.13	20.51	18.99	-54.6	-67.6	3.8	8.45e-01	0	27	104	0	74	16906
2026-01-14 05:53:35.43	20.27	19.10	-54.6	-67.6	3.8	8.45e-01	0	27	104	0	74	16941
2026-01-14 05:53:36.15	20.14	19.16	-54.6	-67.6	3.8	8.46e-01	0	27	104	0	74	16942
2026-01-14 05:53:37.45	19.90	19.26	-54.6	-67.6	3.8	8.46e-01	0	27	104	0	74	16896
2026-01-14 05:53:38.17	19.76	19.32	-54.6	-67.5	3.8	8.46e-01	0	27	104	0	74	16882
2026-01-14 05:53:39.46	19.52	19.43	-54.6	-67.5	3.8	8.46e-01	0	27	104	0	74	16883
2026-01-14 05:53:40.19	19.38	19.49	-54.6	-67.6	3.8	8.44e-01	0	27	104	0	74	16930
2026-01-14 05:53:41.49	19.14	19.59	-54.6	-67.6	3.8	8.47e-01	0	27	104	0	74	16905
2026-01-14 05:53:42.21	19.00	19.65	-54.5	-67.6	3.8	8.45e-01	0	27	104	0	74	16943
2026-01-14 05:53:43.51	18.75	19.76	-54.6	-67.6	3.8	8.45e-01	0	27	104	0	74	16949
2026-01-14 05:53:44.23	18.61	19.81	-54.5	-67.6	3.8	8.46e-01	0	28	104	0	74	16946
2026-01-14 05:53:45.52	18.36	19.92	-54.6	-67.6	3.8	8.46e-01	0	27	104	0	74	16915
2026-01-14 05:53:46.24	18.22	19.98	-54.5	-67.5	3.8	8.44e-01	0	27	104	0	74	16878
2026-01-14 05:53:47.54	17.96	20.08	-54.5	-67.6	3.8	8.46e-01	0	27	104	0	74	16913
2026-01-14 05:53:48.26	17.82	20.14	-54.6	-67.6	3.8	8.46e-01	0	27	104	0	74	16940
2026-01-14 05:53:49.56	17.57	20.25	-54.6	-67.6	3.8	8.44e-01	0	27	104	0	74	16952
2026-01-14 05:53:50.28	17.42	20.30	-54.5	-67.6	3.8	8.45e-01	0	27	104	0	74	16921
2026-01-14 05:53:51.58	17.16	20.41	-54.5	-67.6	3.8	8.47e-01	0	27	104	0	74	16894
2026-01-14 05:53:52.30	17.02	20.47	-54.6	-67.6	3.8	8.46e-01	0	27	104	0	74	16925
2026-01-14 05:53:53.60	16.75	20.57	-54.6	-67.6	3.8	8.45e-01	0	27	104	0	74	16904
2026-01-14 05:53:54.32	16.61	20.63	-54.6	-67.6	3.8	8.47e-01	0	27	104	0	74	16927
2026-01-14 05:53:55.61	16.34	20.73	-54.6	-67.6	3.8	8.44e-01	0	27	104	0	74	16959
2026-01-14 05:53:56.33	16.19	20.79	-54.6	-67.6	3.8	8.46e-01	0	27	104	0	74	16933
2026-01-14 05:53:57.63	15.93	20.89	-54.6	-67.6	3.8	8.46e-01	0	27	104	0	74	16952
2026-01-14 05:53:58.35	15.78	20.95	-54.6	-67.6	3.8	8.45e-01	0	27	104	0	74	16989
2026-01-14 05:53:59.65	15.50	21.05	-54.6	-67.6	3.8	8.46e-01	0	27	104	0	74	16943
2026-01-14 05:54:00.37	15.35	21.11	-54.6	-67.6	3.8	8.45e-01	0	27	104	0	74	16888
2026-01-14 05:54:01.67	15.08	21.21	-54.6	-67.6	3.8	8.46e-01	0	27	104	0	74	16907
2026-01-14 05:54:02.38	14.93	21.27	-54.6	-67.6	3.8	8.46e-01	0	27	104	0	74	16895
2026-01-14 05:54:03.68	14.65	21.37	-54.6	-67.6	3.8	8.45e-01	0	27	104	0	74	16963
2026-01-14 05:54:04.40	14.50	21.43	-54.6	-67.6	3.8	8.44e-01	0	27	104	0	74	16941
2026-01-14 05:54:05.70	14.22	21.53	-54.6	-67.6	3.8	8.46e-01	0	27	104	0	74	16960
2026-01-14 05:54:06.42	14.06	21.59	-54.6	-67.6	3.8	8.45e-01	0	27	104	0	74	16952
2026-01-14 05:54:07.71	13.78	21.69	-54.6	-67.6	3.8	8.45e-01	0	27	104	0	74	16906
2026-01-14 05:54:08.44	13.62	21.74	-54.6	-67.6	3.8	8.45e-01	0	27	104	0	74	16914
2026-01-14 05:54:09.74	13.33	21.84	-54.6	-67.6	3.8	8.47e-01	0	27	104	0	74	16936
2026-01-14 05:54:10.45	13.18	21.90	-54.6	-67.6	3.8	8.45e-01	0	27	104	0	74	16927
2026-01-14 05:54:11.75	12.89	22.00	-54.6	-67.6	3.8	8.45e-01	0	27	104	0	74	16929
2026-01-14 05:54:12.47	12.73	22.05	-54.6	-67.6	3.8	8.45e-01	0	27	104	0	74	16911
2026-01-14 05:54:13.77	12.43	22.15	-54.6	-67.6	3.8	8.46e-01	0	27	104	0	74	16923
2026-01-14 05:54:14.49	12.27	22.21	-54.6	-67.6	3.8	8.46e-01	0	27	104	0	74	16921
2026-01-14 05:54:15.78	11.98	22.31	-54.6	-67.6	3.8	8.46e-01	0	27	104	0	74	16929
2026-01-14 05:54:16.49	11.82	22.36	-54.6	-67.5	3.8	8.46e-01	0	27	104	0	74	16886
2026-01-14 05:54:17.79	11.52	22.46	-54.6	-67.6	3.8	8.45e-01	0	27	104	0	74	16912
2026-01-14 05:54:18.51	11.35	22.51	-54.6	-67.6	3.8	8.46e-01	0	28	104	0	74	16960
2026-01-14 05:54:19.81	11.05	22.61	-54.6	-67.6	3.8	8.46e-01	0	27	104	0	74	16893
2026-01-14 05:54:20.53	10.88	22.67	-54.6	-67.6	3.8	8.45e-01	0	27	104	0	74	16928
2026-01-14 05:54:21.83	10.58	22.76	-54.6	-67.6	3.8	8.45e-01	0	27	104	0	74	16942
2026-01-14 05:54:22.55	10.41	22.82	-54.6	-67.6	3.8	8.44e-01	0	27	104	0	74	16890
2026-01-14 05:54:23.85	10.10	22.91	-54.6	-67.6	3.8	8.45e-01	0	27	104	0	74	16922
2026-01-14 05:54:24.57	9.93	22.96	-54.6	-67.5	3.8	8.45e-01	0	27	104	0	74	16872
2026-01-14 05:54:25.86	9.63	23.06	-54.6	-67.6	3.8	8.46e-01	0	27	104	0	74	16968
2026-01-14 05:54:26.58	9.45	23.11	-54.6	-67.6	3.8	8.46e-01	0	27	104	0	74	16951
2026-01-14 05:54:27.88	9.14	23.21	-54.6	-67.6	3.8	8.46e-01	0	27	104	0	74	16948
2026-01-14 05:54:28.60	8.97	23.26	-54.6	-67.6	3.8	8.45e-01	0	27	104	0	74	16940
2026-01-14 05:54:29.89	8.65	23.35	-54.6	-67.6	3.8	8.45e-01	0	27	104	0	74	16972
2026-01-14 05:54:30.62	8.47	23.40	-54.6	-67.6	3.8	8.45e-01	0	27	104	0	74	16925
2026-01-14 05:54:31.91	8.16	23.49	-54.6	-67.6	3.8	8.45e-01	0	27	104	0	74	16905
2026-01-14 05:54:32.63	7.98	23.55	-54.6	-67.6	3.8	8.45e-01	0	27	104	0	74	16918
2026-01-14 05:54:33.93	7.66	23.64	-54.6	-67.6	3.8	8.44e-01	0	27	104	0	74	16909
2026-01-14 05:54:34.65	7.48	23.69	-54.6	-67.6	3.8	8.46e-01	0	27	104	0	74	16912
2026-01-14 05:54:35.95	7.16	23.78	-54.6	-67.6	3.8	8.46e-01	0	27	104	0	74	16961
2026-01-14 05:54:36.66	6.98	23.83	-54.6	-67.6	3.8	8.45e-01	0	28	104	0	74	16897
2026-01-14 05:54:37.96	6.65	23.92	-54.6	-67.6	3.8	8.45e-01	0	27	104	0	74	16894
2026-01-14 05:54:38.68	6.47	23.96	-54.6	-67.6	3.8	8.45e-01	0	27	104	0	74	16932
2026-01-14 05:54:39.98	6.14	24.05	-54.6	-67.6	3.8	8.45e-01	0	27	104	0	74	16900
2026-01-14 05:54:40.70	5.95	24.10	-54.6	-67.6	3.8	8.45e-01	0	27	104	0	74	16912
2026-01-14 05:54:42.00	5.62	24.19	-54.6	-67.5	3.8	8.45e-01	0	27	104	0	74	16880
2026-01-14 05:54:42.72	5.44	24.24	-54.6	-67.6	3.8	8.45e-01	0	27	104	0	74	16895
2026-01-14 05:54:44.02	5.10	24.32	-54.6	-67.6	3.8	8.46e-01	0	27	104	0	74	16931
2026-01-14 05:54:44.74	4.91	24.37	-54.6	-67.6	3.8	8.46e-01	0	28	104	0	74	16922
2026-01-14 05:54:46.03	4.58	24.45	-54.6	-67.6	3.8	8.45e-01	0	27	104	0	74	16889
2026-01-14 05:54:46.76	4.38	24.50	-54.6	-67.6	3.8	8.45e-01	0	27	104	0	74	16916
2026-01-14 05:54:48.06	4.04	24.58	-54.6	-67.6	3.8	8.46e-01	0	28	104	0	74	16953
2026-01-14 05:54:48.78	3.85	24.63	-54.6	-67.6	3.8	8.44e-01	0	27	104	0	74	16929
2026-01-14 05:54:50.08	3.51	24.71	-54.6	-67.6	3.8	8.46e-01	0	27	104	0	74	16900
2026-01-14 05:54:50.80	3.32	24.76	-54.6	-67.6	3.8	8.44e-01	0	27	104	0	74	16893
2026-01-14 05:54:52.10	2.97	24.84	-54.6	-67.6	3.8	8.46e-01	0	27	104	0	74	16979
2026-01-14 05:54:52.82	2.77	24.88	-54.6	-67.6	3.8	8.45e-01	0	27	104	0	74	16973
2026-01-14 05:54:54.12	2.42	24.96	-54.6	-67.6	3.8	8.46e-01	0	27	104	0	74	16960
2026-01-14 05:54:54.84	2.23	25.00	-54.6	-67.6	3.8	8.45e-01	0	28	104	0	74	16942
2026-01-14 05:54:56.13	1.88	25.08	-54.6	-67.6	3.8	8.45e-01	0	28	104	0	74	16920
2026-01-14 05:54:56.86	1.68	25.12	-54.6	-67.6	3.8	8.45e-01	0	27	104	0	74	16946
2026-01-14 05:54:58.15	1.33	25.20	-54.6	-67.6	3.8	8.46e-01	0	27	104	0	74	16908
2026-01-14 05:54:58.87	1.13	25.24	-54.6	-67.6	3.8	8.45e-01	0	27	104	0	74	16933
2026-01-14 05:55:00.17	0.77	25.31	-54.6	-67.6	3.8	8.45e-01	0	28	104	0	74	16950
2026-01-14 05:55:00.89	0.57	25.36	-54.6	-67.5	3.8	8.47e-01	0	28	104	0	74	16850
2026-01-14 05:55:02.18	0.21	25.43	-54.6	-67.6	3.8	8.47e-01	0	28	104	0	74	16895
2026-01-14 05:55:02.90	0.01	25.47	-54.6	-67.6	3.8	8.44e-01	0	27	104	0	74	16918
2026-01-14 05:55:04.20	359.65	25.54	-54.6	-67.6	3.8	8.46e-01	0	28	104	0	74	16915
2026-01-14 05:55:04.92	359.45	25.58	-54.6	-67.6	3.8	8.45e-01	0	28	104	0	74	16943
2026-01-14 05:55:06.21	359.08	25.65	-54.6	-67.6	3.8	8.46e-01	0	27	104	0	74	16978
2026-01-14 05:55:06.93	358.88	25.69	-54.6	-67.6	3.8	8.46e-01	0	27	104	0	74	16931
2026-01-14 05:55:08.23	358.51	25.75	-54.6	-67.6	3.8	8.45e-01	0	27	104	0	74	16931
2026-01-14 05:55:08.95	358.31	25.79	-54.6	-67.6	3.8	8.44e-01	0	27	104	0	74	16922
2026-01-14 05:55:10.25	357.93	25.86	-54.6	-67.6	3.8	8.44e-01	0	27	104	0	74	16960
2026-01-14 05:55:10.97	357.73	25.89	-54.6	-67.6	3.8	8.45e-01	0	28	104	0	74	16946
2026-01-14 05:55:12.26	357.36	25.96	-54.6	-67.6	3.8	8.46e-01	0	27	104	0	74	16939
2026-01-14 05:55:12.99	357.15	25.99	-54.6	-67.6	3.8	8.46e-01	0	27	104	0	74	16903
2026-01-14 05:55:14.28	356.77	26.05	-54.6	-67.6	3.8	8.44e-01	0	27	104	0	74	16955
2026-01-14 05:55:15.00	356.56	26.09	-54.6	-67.6	3.8	8.44e-01	0	28	104	0	74	16987
2026-01-14 05:55:16.30	356.19	26.15	-54.6	-67.6	3.8	8.45e-01	0	27	104	0	74	16970
2026-01-14 05:55:17.02	355.98	26.18	-54.6	-67.6	3.8	8.44e-01	0	28	104	0	74	16931
2026-01-14 05:55:18.31	355.60	26.24	-54.6	-67.6	3.8	8.47e-01	0	27	104	0	74	16976
2026-01-14 05:55:19.03	355.39	26.27	-54.6	-67.6	3.8	8.47e-01	0	27	104	0	74	16888
2026-01-14 05:55:20.33	355.00	26.33	-54.6	-67.6	3.8	8.45e-01	0	28	104	0	74	16932
2026-01-14 05:55:21.05	354.79	26.36	-54.6	-67.6	3.8	8.46e-01	0	27	104	0	74	16918
2026-01-14 05:55:22.35	354.41	26.41	-54.6	-67.6	3.8	8.45e-01	0	27	104	0	74	17010
2026-01-14 05:55:23.07	354.19	26.44	-54.6	-67.6	3.8	8.46e-01	0	27	104	0	74	16898
2026-01-14 05:55:24.37	353.81	26.49	-54.6	-67.6	3.8	8.46e-01	0	27	104	0	74	16954
2026-01-14 05:55:25.09	353.59	26.52	-54.6	-67.6	3.8	8.44e-01	0	28	104	0	74	16941
2026-01-14 05:55:26.38	353.21	26.57	-54.6	-67.6	3.8	8.46e-01	0	28	104	0	74	16905
2026-01-14 05:55:27.11	352.99	26.60	-54.6	-67.6	3.8	8.46e-01	0	27	104	0	74	16977
2026-01-14 05:55:28.40	352.60	26.65	-54.6	-67.6	3.8	8.46e-01	0	27	104	0	74	16966
2026-01-14 05:55:29.12	352.38	26.67	-54.6	-67.6	3.8	8.45e-01	0	28	104	0	74	16933
2026-01-14 05:55:30.42	351.99	26.72	-54.6	-67.6	3.8	8.46e-01	0	28	104	0	74	17020
2026-01-14 05:55:31.14	351.77	26.75	-54.6	-67.6	3.8	8.45e-01	0	27	104	0	74	16959
2026-01-14 05:55:32.44	351.38	26.79	-54.6	-67.6	3.8	8.46e-01	0	28	104	0	74	16983
2026-01-14 05:55:33.16	351.16	26.81	-54.6	-67.6	3.8	8.46e-01	0	27	104	0	74	16978
2026-01-14 05:55:34.45	350.77	26.85	-54.6	-67.6	3.8	8.45e-01	0	27	104	0	74	16969
2026-01-14 05:55:35.17	350.55	26.88	-54.6	-67.6	3.8	8.45e-01	0	27	104	0	74	16961
2026-01-14 05:55:36.47	350.15	26.92	-54.6	-67.6	3.8	8.46e-01	0	27	104	0	74	16935
2026-01-14 05:55:37.19	349.93	26.94	-54.6	-67.6	3.8	8.47e-01	0	27	104	0	74	16964
2026-01-14 05:55:38.48	349.53	26.97	-54.6	-67.6	3.8	8.45e-01	0	27	104	0	74	16934
2026-01-14 05:55:39.21	349.31	26.99	-54.6	-67.6	3.8	8.45e-01	0	27	104	0	74	16912
2026-01-14 05:55:40.50	348.91	27.03	-54.6	-67.6	3.8	8.46e-01	0	27	104	0	74	16897
2026-01-14 05:55:41.23	348.69	27.05	-54.6	-67.6	3.8	8.46e-01	0	27	104	0	74	16989
2026-01-14 05:55:42.52	348.29	27.08	-54.6	-67.6	3.8	8.46e-01	0	27	104	0	74	16935
2026-01-14 05:55:43.24	348.06	27.10	-54.6	-67.6	3.8	8.44e-01	0	27	104	0	74	16964
2026-01-14 05:55:44.54	347.66	27.13	-54.6	-67.6	3.8	8.46e-01	0	28	104	0	74	16916
2026-01-14 05:55:45.26	347.44	27.14	-54.6	-67.6	3.8	8.47e-01	0	28	104	0	74	16946
2026-01-14 05:55:46.56	347.03	27.17	-54.6	-67.6	3.8	8.46e-01	0	27	104	0	74	16981
2026-01-14 05:55:47.28	346.81	27.19	-54.6	-67.6	3.8	8.45e-01	0	28	104	0	74	17000
2026-01-14 05:55:48.57	346.41	27.21	-54.6	-67.6	3.8	8.45e-01	0	28	104	0	74	16973
2026-01-14 05:55:49.30	346.18	27.22	-54.6	-67.6	3.8	8.46e-01	0	27	104	0	74	16993
2026-01-14 05:55:50.59	345.78	27.25	-54.6	-67.6	3.8	8.46e-01	0	28	104	0	74	16993
2026-01-14 05:55:51.31	345.55	27.26	-54.6	-67.6	3.8	8.46e-01	0	27	104	0	74	16992
2026-01-14 05:55:52.61	345.15	27.28	-54.6	-67.6	3.8	8.45e-01	0	27	104	0	74	16977
2026-01-14 05:55:53.33	344.92	27.29	-54.6	-67.6	3.8	8.45e-01	0	27	104	0	74	16985
2026-01-14 05:55:54.63	344.51	27.31	-54.6	-67.6	3.8	8.46e-01	0	28	104	0	74	16973
2026-01-14 05:55:55.35	344.29	27.32	-54.6	-67.6	3.8	8.45e-01	0	27	104	0	74	16981
2026-01-14 05:55:56.65	343.88	27.33	-54.6	-67.6	3.8	8.47e-01	0	28	104	0	74	16965
2026-01-14 05:55:57.37	343.65	27.34	-54.6	-67.6	3.8	8.46e-01	0	27	104	0	74	16976
2026-01-14 05:55:58.67	343.24	27.35	-54.6	-67.6	3.8	8.45e-01	0	27	104	0	74	16954
2026-01-14 05:55:59.39	343.02	27.36	-54.6	-67.6	3.8	8.45e-01	0	28	104	0	74	16944
2026-01-14 05:56:00.69	342.61	27.37	-54.6	-67.6	3.8	8.46e-01	0	28	104	0	74	16936
2026-01-14 05:56:01.41	342.38	27.37	-54.6	-67.6	3.8	8.45e-01	0	28	104	0	74	16986
2026-01-14 05:56:02.70	341.97	27.38	-54.6	-67.6	3.8	8.45e-01	0	27	104	0	74	17060
2026-01-14 05:56:03.42	341.75	27.39	-54.6	-67.6	3.8	8.45e-01	0	27	104	0	74	16964
2026-01-14 05:56:04.72	341.34	27.39	-54.6	-67.6	3.8	8.46e-01	0	28	104	0	74	17037
2026-01-14 05:56:05.45	341.10	27.39	-54.6	-67.6	3.8	8.46e-01	0	27	104	0	74	16972
2026-01-14 05:56:06.74	340.70	27.40	-54.6	-67.6	3.8	8.46e-01	0	28	104	0	74	17005
2026-01-14 05:56:07.46	340.47	27.40	-54.6	-67.6	3.8	8.45e-01	0	28	104	0	74	17058
2026-01-14 05:56:08.76	340.06	27.40	-54.6	-67.6	3.8	8.46e-01	0	28	104	0	74	16976
2026-01-14 05:56:09.48	339.83	27.40	-54.6	-67.6	3.8	8.44e-01	0	28	104	0	74	16962
2026-01-14 05:56:10.78	339.42	27.39	-54.6	-67.6	3.8	8.46e-01	0	27	104	0	74	16933
2026-01-14 05:56:11.50	339.20	27.39	-54.6	-67.6	3.8	8.47e-01	0	27	104	0	74	16957
2026-01-14 05:56:12.79	338.79	27.39	-54.6	-67.6	3.8	8.46e-01	0	28	104	0	74	16976
2026-01-14 05:56:13.51	338.56	27.38	-54.6	-67.6	3.8	8.47e-01	0	27	104	0	74	16995
2026-01-14 05:56:14.81	338.15	27.38	-54.6	-67.6	3.8	8.45e-01	0	28	104	0	74	16991
2026-01-14 05:56:15.53	337.92	27.37	-54.6	-67.6	3.8	8.46e-01	0	28	104	0	74	16983
2026-01-14 05:56:16.83	337.51	27.36	-54.6	-67.6	3.8	8.45e-01	0	28	104	0	74	16956
2026-01-14 05:56:17.55	337.29	27.36	-54.6	-67.6	3.8	8.45e-01	0	28	104	0	74	17016
2026-01-14 05:56:18.85	336.88	27.34	-54.6	-67.6	3.8	8.46e-01	0	28	104	0	74	16949
2026-01-14 05:56:19.57	336.65	27.34	-54.6	-67.6	3.8	8.45e-01	0	27	104	0	74	16955
2026-01-14 05:56:20.86	336.25	27.32	-54.6	-67.6	3.8	8.45e-01	0	28	104	0	74	16960
2026-01-14 05:56:21.58	336.02	27.31	-54.6	-67.6	3.8	8.45e-01	0	27	104	0	74	16915
2026-01-14 05:56:22.88	335.61	27.30	-54.6	-67.6	3.8	8.45e-01	0	28	104	0	74	16991
2026-01-14 05:56:23.60	335.39	27.29	-54.6	-67.6	3.8	8.47e-01	0	28	104	0	74	16945
2026-01-14 05:56:24.90	334.98	27.27	-54.6	-67.6	3.8	8.46e-01	0	28	104	0	74	16961
2026-01-14 05:56:25.62	334.75	27.25	-54.6	-67.6	3.8	8.46e-01	0	28	104	0	74	16951
2026-01-14 05:56:26.92	334.35	27.23	-54.6	-67.6	3.8	8.47e-01	0	28	104	0	74	16981
2026-01-14 05:56:27.64	334.12	27.22	-54.6	-67.6	3.8	8.45e-01	0	28	104	0	74	16973
2026-01-14 05:56:28.94	333.72	27.19	-54.6	-67.6	3.8	8.45e-01	0	28	104	0	74	16943
2026-01-14 05:56:29.66	333.49	27.18	-54.6	-67.6	3.8	8.45e-01	0	28	104	0	74	16996
2026-01-14 05:56:30.96	333.09	27.15	-54.6	-67.6	3.8	8.45e-01	0	27	104	0	74	16960
2026-01-14 05:56:31.68	332.87	27.14	-54.6	-67.6	3.8	8.46e-01	0	28	104	0	74	16978
2026-01-14 05:56:32.97	332.46	27.11	-54.6	-67.6	3.8	8.45e-01	0	28	104	0	74	16937
2026-01-14 05:56:33.69	332.24	27.09	-54.6	-67.6	3.8	8.45e-01	0	28	104	0	74	16995
2026-01-14 05:56:34.99	331.84	27.06	-54.6	-67.6	3.8	8.45e-01	0	28	104	0	74	16991
2026-01-14 05:56:35.71	331.62	27.04	-54.6	-67.6	3.8	8.45e-01	0	28	104	0	74	17008
2026-01-14 05:56:37.01	331.22	27.01	-54.6	-67.6	3.8	8.45e-01	0	28	104	0	74	16980
2026-01-14 05:56:37.73	330.99	26.99	-54.6	-67.6	3.8	8.46e-01	0	28	104	0	74	17012
2026-01-14 05:56:39.03	330.60	26.95	-54.6	-67.6	3.8	8.45e-01	0	28	104	0	74	17025
2026-01-14 05:56:39.75	330.37	26.93	-54.6	-67.6	3.8	8.46e-01	0	27	104	0	74	17032
2026-01-14 05:56:41.05	329.98	26.89	-54.6	-67.6	3.8	8.46e-01	0	28	104	0	74	16987
2026-01-14 05:56:41.76	329.76	26.87	-54.6	-67.6	3.8	8.45e-01	0	28	104	0	74	16982
2026-01-14 05:56:43.06	329.36	26.83	-54.6	-67.6	3.8	8.45e-01	0	28	104	0	74	16993
2026-01-14 05:56:43.78	329.14	26.80	-54.6	-67.6	3.8	8.45e-01	0	28	104	0	74	16982
2026-01-14 05:56:45.08	328.75	26.76	-54.6	-67.6	3.8	8.46e-01	0	27	104	0	74	16994
2026-01-14 05:56:45.80	328.53	26.73	-54.6	-67.6	3.8	8.46e-01	0	27	104	0	74	16960
2026-01-14 05:56:47.09	328.14	26.69	-54.6	-67.6	3.8	8.46e-01	0	28	104	0	74	16942
2026-01-14 05:56:47.81	327.92	26.66	-54.6	-67.6	3.8	8.47e-01	0	28	104	0	74	16964
2026-01-14 05:56:49.11	327.53	26.62	-54.6	-67.6	3.8	8.45e-01	0	28	104	0	74	16967
2026-01-14 05:56:49.83	327.32	26.59	-54.6	-67.6	3.8	8.47e-01	0	28	104	0	74	16963
2026-01-14 05:56:51.14	326.92	26.54	-54.6	-67.6	3.8	8.46e-01	0	28	104	0	74	17005
2026-01-14 05:56:51.85	326.71	26.51	-54.6	-67.6	3.8	8.46e-01	0	27	104	0	74	17039
2026-01-14 05:56:53.15	326.32	26.46	-54.6	-67.6	3.8	8.46e-01	0	28	104	0	74	16965
2026-01-14 05:56:53.87	326.11	26.43	-54.6	-67.6	3.8	8.46e-01	0	28	104	0	74	17007
2026-01-14 05:56:55.17	325.72	26.37	-54.6	-67.6	3.8	8.45e-01	0	27	104	0	74	16948
2026-01-14 05:56:55.89	325.51	26.34	-54.6	-67.6	3.8	8.44e-01	0	28	104	0	74	17009
2026-01-14 05:56:57.18	325.13	26.29	-54.6	-67.6	3.9	8.46e-01	0	28	104	0	74	16966
2026-01-14 05:56:57.90	324.92	26.26	-54.6	-67.6	3.8	8.46e-01	0	28	104	0	74	16976
2026-01-14 05:56:59.20	324.54	26.20	-54.6	-67.6	3.8	8.47e-01	0	28	104	0	74	17028
2026-01-14 05:56:59.92	324.33	26.17	-54.6	-67.6	3.8	8.43e-01	0	28	104	0	74	16979
2026-01-14 05:57:01.22	323.95	26.11	-54.6	-67.6	3.8	8.45e-01	0	27	104	0	74	16945
2026-01-14 05:57:01.94	323.74	26.07	-54.6	-67.6	3.8	8.46e-01	0	28	104	0	74	16957
2026-01-14 05:57:03.23	323.37	26.01	-54.6	-67.6	3.8	8.47e-01	0	28	104	0	74	16981
2026-01-14 05:57:03.96	323.15	25.97	-54.6	-67.6	3.8	8.45e-01	0	28	104	0	74	17016
2026-01-14 05:57:05.25	322.78	25.91	-54.6	-67.6	3.8	8.46e-01	0	28	104	0	74	17051
2026-01-14 05:57:05.98	322.57	25.87	-54.6	-67.6	3.8	8.45e-01	0	28	104	0	74	16979
2026-01-14 05:57:07.28	322.20	25.81	-54.6	-67.6	3.8	8.44e-01	0	28	104	0	74	16979
2026-01-14 05:57:08.00	322.00	25.77	-54.6	-67.6	3.8	8.46e-01	0	28	104	0	74	16982
2026-01-14 05:57:09.30	321.63	25.70	-54.6	-67.6	3.8	8.46e-01	0	28	104	0	74	17021
2026-01-14 05:57:10.02	321.42	25.67	-54.6	-67.6	3.8	8.45e-01	0	28	104	0	74	16976
2026-01-14 05:57:11.32	321.06	25.60	-54.6	-67.6	3.8	8.46e-01	0	28	104	0	74	16985
2026-01-14 05:57:12.04	320.85	25.56	-54.6	-67.6	3.8	8.45e-01	0	28	104	0	74	17016
2026-01-14 05:57:13.33	320.49	25.49	-54.6	-67.6	3.8	8.46e-01	0	28	104	0	74	16995
2026-01-14 05:57:14.06	320.29	25.45	-54.6	-67.6	3.8	8.44e-01	0	28	104	0	74	17007
2026-01-14 05:57:15.35	319.93	25.38	-54.6	-67.6	3.8	8.45e-01	0	27	104	0	74	17011
2026-01-14 05:57:16.07	319.73	25.33	-54.6	-67.6	3.8	8.45e-01	0	27	104	0	74	17016
2026-01-14 05:57:17.37	319.37	25.26	-54.6	-67.6	3.8	8.45e-01	0	28	104	0	74	16960
2026-01-14 05:57:18.09	319.17	25.22	-54.6	-67.6	3.8	8.45e-01	0	28	104	0	74	16991
2026-01-14 05:57:19.38	318.82	25.14	-54.6	-67.6	3.8	8.45e-01	0	27	104	0	74	16984
2026-01-14 05:57:20.11	318.62	25.10	-54.6	-67.6	3.8	8.45e-01	0	28	104	0	74	17030
2026-01-14 05:57:21.40	318.27	25.02	-54.6	-67.6	3.8	8.45e-01	0	28	104	0	74	16999
2026-01-14 05:57:22.12	318.07	24.98	-54.6	-67.6	3.8	8.45e-01	0	28	104	0	74	16982
2026-01-14 05:57:23.42	317.72	24.90	-54.6	-67.6	3.8	8.44e-01	0	28	104	0	74	16985
2026-01-14 05:57:24.14	317.53	24.86	-54.6	-67.6	3.8	8.45e-01	0	28	104	0	74	17052
2026-01-14 05:57:25.44	317.18	24.78	-54.6	-67.6	3.8	8.46e-01	0	28	104	0	74	16999
2026-01-14 05:57:26.16	316.98	24.73	-54.6	-67.6	3.8	8.45e-01	0	28	104	0	74	17035
2026-01-14 05:57:27.46	316.64	24.65	-54.6	-67.6	3.8	8.46e-01	0	28	104	0	74	17011
2026-01-14 05:57:28.18	316.45	24.61	-54.6	-67.6	3.8	8.46e-01	0	27	104	0	74	17038
2026-01-14 05:57:29.48	316.11	24.52	-54.6	-67.6	3.8	8.45e-01	0	28	104	0	74	17021
2026-01-14 05:57:30.20	315.92	24.48	-54.6	-67.6	3.8	8.45e-01	0	28	104	0	74	17055
2026-01-14 05:57:31.49	315.58	24.39	-54.6	-67.6	3.8	8.46e-01	0	28	104	0	74	17043
2026-01-14 05:57:32.21	315.39	24.34	-54.6	-67.6	3.8	8.46e-01	0	28	104	0	74	17050
2026-01-14 05:57:33.51	315.05	24.26	-54.6	-67.6	3.8	8.45e-01	0	28	104	0	74	17002
2026-01-14 05:57:34.23	314.87	24.21	-54.6	-67.6	3.8	8.47e-01	0	28	104	0	74	17035
2026-01-14 05:57:35.53	314.53	24.12	-54.6	-67.6	3.8	8.45e-01	0	28	104	0	74	17061
2026-01-14 05:57:36.25	314.35	24.08	-54.6	-67.6	3.8	8.46e-01	0	27	104	0	74	17056
2026-01-14 05:57:37.54	314.02	23.99	-54.6	-67.6	3.8	8.46e-01	0	28	104	0	74	17057
2026-01-14 05:57:38.26	313.84	23.94	-54.6	-67.6	3.8	8.47e-01	0	28	104	0	74	17005
2026-01-14 05:57:39.56	313.51	23.85	-54.6	-67.6	3.8	8.45e-01	0	28	104	0	74	17076
2026-01-14 05:57:40.28	313.33	23.80	-54.6	-67.6	3.8	8.46e-01	0	28	104	0	74	17030
2026-01-14 05:57:41.57	313.01	23.71	-54.6	-67.6	3.8	8.45e-01	0	28	104	0	74	17057
2026-01-14 05:57:42.29	312.83	23.66	-54.6	-67.6	3.8	8.45e-01	0	28	104	0	74	17022
2026-01-14 05:57:43.59	312.50	23.57	-54.6	-67.6	3.8	8.45e-01	0	28	104	0	74	17013
2026-01-14 05:57:44.31	312.32	23.52	-54.6	-67.6	3.8	8.46e-01	0	28	104	0	74	17039
2026-01-14 05:57:45.61	312.01	23.43	-54.6	-67.6	3.8	8.46e-01	0	28	104	0	74	17033
2026-01-14 05:57:46.33	311.83	23.37	-54.6	-67.6	3.8	8.47e-01	0	27	104	0	74	16996
2026-01-14 05:57:47.62	311.51	23.28	-54.6	-67.6	3.8	8.45e-01	0	28	104	0	74	17015
2026-01-14 05:57:48.34	311.34	23.23	-54.6	-67.6	3.8	8.45e-01	0	28	104	0	74	17035
2026-01-14 05:57:49.64	311.03	23.14	-54.6	-67.6	3.8	8.45e-01	0	28	104	0	74	16996
2026-01-14 05:57:50.36	310.85	23.08	-54.6	-67.6	3.8	8.45e-01	0	28	104	0	74	17026
2026-01-14 05:57:51.66	310.54	22.99	-54.6	-67.6	3.8	8.45e-01	0	27	104	0	74	17004
2026-01-14 05:57:52.38	310.37	22.94	-54.6	-67.6	3.8	8.45e-01	0	28	104	0	74	16973
2026-01-14 05:57:53.68	310.06	22.84	-54.6	-67.6	3.8	8.44e-01	0	28	104	0	74	17063
2026-01-14 05:57:54.40	309.89	22.79	-54.6	-67.6	3.8	8.46e-01	0	28	104	0	74	17016
2026-01-14 05:57:55.69	309.59	22.69	-54.6	-67.6	3.8	8.47e-01	0	28	104	0	74	17026
2026-01-14 05:57:56.42	309.42	22.64	-54.6	-67.6	3.8	8.46e-01	0	28	104	0	74	16973
2026-01-14 05:57:57.71	309.12	22.54	-54.6	-67.6	3.8	8.46e-01	0	28	104	0	74	17033
2026-01-14 05:57:58.43	308.95	22.48	-54.6	-67.6	3.8	8.46e-01	0	28	104	0	74	17007
2026-01-14 05:57:59.73	308.66	22.39	-54.6	-67.6	3.8	8.45e-01	0	28	104	0	74	16977
2026-01-14 05:58:00.45	308.49	22.33	-54.6	-67.6	3.8	8.46e-01	0	28	104	0	74	16974
2026-01-14 05:58:01.75	308.19	22.23	-54.6	-67.6	3.8	8.46e-01	0	28	104	0	74	16963
2026-01-14 05:58:02.47	308.03	22.18	-54.6	-67.6	3.8	8.46e-01	0	27	104	0	74	17009
2026-01-14 05:58:03.76	307.74	22.08	-54.6	-67.6	3.8	8.46e-01	0	28	104	0	74	17026
2026-01-14 05:58:04.48	307.58	22.02	-54.6	-67.6	3.8	8.46e-01	0	28	104	0	74	17000
2026-01-14 05:58:05.78	307.29	21.92	-54.6	-67.6	3.8	8.47e-01	0	28	104	0	74	16961
2026-01-14 05:58:06.50	307.13	21.87	-54.6	-67.6	3.8	8.46e-01	0	28	104	0	74	17005
2026-01-14 05:58:07.79	306.84	21.77	-54.6	-67.6	3.8	8.45e-01	0	28	104	0	74	17019
2026-01-14 05:58:08.51	306.69	21.71	-54.6	-67.6	3.8	8.45e-01	0	28	104	0	74	17009
2026-01-14 05:58:09.81	306.40	21.61	-54.6	-67.6	3.8	8.45e-01	0	28	104	0	74	17039
2026-01-14 05:58:10.53	306.25	21.55	-54.6	-67.6	3.8	8.44e-01	0	28	104	0	74	17010
2026-01-14 05:58:11.83	305.96	21.45	-54.6	-67.6	3.8	8.46e-01	0	28	104	0	74	17019
2026-01-14 05:58:12.55	305.81	21.39	-54.6	-67.6	3.8	8.45e-01	0	28	104	0	74	16986
2026-01-14 05:58:13.85	305.53	21.29	-54.6	-67.6	3.8	8.45e-01	0	28	104	0	74	17019
2026-01-14 05:58:14.57	305.38	21.24	-54.6	-67.6	3.8	8.45e-01	0	27	104	0	74	17022
2026-01-14 05:58:15.87	305.10	21.13	-54.6	-67.6	3.8	8.46e-01	0	28	104	0	74	17045
2026-01-14 05:58:16.59	304.95	21.08	-54.6	-67.6	3.8	8.46e-01	0	28	104	0	74	17012
2026-01-14 05:58:17.88	304.68	20.97	-54.6	-67.6	3.8	8.46e-01	0	28	104	0	74	17003
2026-01-14 05:58:18.60	304.53	20.92	-54.6	-67.6	3.8	8.44e-01	0	28	104	0	74	17030
2026-01-14 05:58:19.90	304.26	20.81	-54.6	-67.6	3.8	8.46e-01	0	28	104	0	74	17010
2026-01-14 05:58:20.62	304.11	20.75	-54.6	-67.6	3.8	8.46e-01	0	28	104	0	74	17013
2026-01-14 05:58:21.92	303.84	20.65	-54.6	-67.6	3.8	8.45e-01	0	28	104	0	74	16997
2026-01-14 05:58:22.64	303.70	20.59	-54.6	-67.6	3.8	8.46e-01	0	28	104	0	74	16984
2026-01-14 05:58:23.93	303.43	20.49	-54.6	-67.6	3.8	8.45e-01	0	28	104	0	74	17001
2026-01-14 05:58:24.65	303.29	20.43	-54.6	-67.6	3.8	8.46e-01	0	28	104	0	74	17038
2026-01-14 05:58:25.95	303.03	20.33	-54.6	-67.6	3.8	8.45e-01	0	28	104	0	74	17051
2026-01-14 05:58:26.67	302.88	20.27	-54.6	-67.6	3.8	8.46e-01	0	28	104	0	74	17013
2026-01-14 05:58:27.97	302.62	20.16	-54.6	-67.6	3.8	8.44e-01	0	28	104	0	74	16989
2026-01-14 05:58:28.69	302.48	20.10	-54.6	-67.6	3.8	8.45e-01	0	28	104	0	74	16957
2026-01-14 05:58:29.99	302.23	20.00	-54.6	-67.6	3.8	8.46e-01	0	28	104	0	74	17022
2026-01-14 05:58:30.70	302.09	19.94	-54.6	-67.6	3.8	8.46e-01	0	28	104	0	74	17016
2026-01-14 05:58:32.00	301.83	19.84	-54.6	-67.6	3.8	8.46e-01	0	28	104	0	74	17035
2026-01-14 05:58:32.72	301.69	19.78	-54.6	-67.6	3.8	8.45e-01	0	28	104	0	74	17014
2026-01-14 05:58:34.02	301.44	19.67	-54.6	-67.6	3.8	8.47e-01	0	28	104	0	74	17037
2026-01-14 05:58:34.74	301.31	19.61	-54.6	-67.6	3.8	8.46e-01	0	28	104	0	74	16968
2026-01-14 05:58:36.03	301.06	19.51	-54.6	-67.6	3.8	8.46e-01	0	28	104	0	74	16998
2026-01-14 05:58:36.75	300.92	19.45	-54.6	-67.6	3.8	8.47e-01	0	28	104	0	74	17066
2026-01-14 05:58:38.05	300.68	19.34	-54.6	-67.6	3.8	8.45e-01	0	27	104	0	74	17066
2026-01-14 05:58:38.77	300.54	19.28	-54.6	-67.6	3.8	8.45e-01	0	28	104	0	74	16953
2026-01-14 05:58:40.07	300.30	19.18	-54.6	-67.6	3.8	8.44e-01	0	28	104	0	74	17041
2026-01-14 05:58:40.79	300.17	19.12	-54.6	-67.6	3.8	8.45e-01	0	28	104	0	74	16979
2026-01-14 05:58:42.08	299.93	19.01	-54.6	-67.6	3.8	8.45e-01	0	28	104	0	74	17012
2026-01-14 05:58:42.80	299.80	18.95	-54.6	-67.6	3.8	8.45e-01	0	28	104	0	74	16988
2026-01-14 05:58:44.10	299.56	18.85	-54.6	-67.6	3.8	8.46e-01	0	28	104	0	74	16946
2026-01-14 05:58:44.82	299.43	18.79	-54.6	-67.6	3.8	8.46e-01	0	28	104	0	74	17008
2026-01-14 05:58:46.12	299.20	18.68	-54.6	-67.6	3.8	8.46e-01	0	28	104	0	74	17014
2026-01-14 05:58:46.84	299.07	18.62	-54.6	-67.6	3.8	8.44e-01	0	28	104	0	74	16991
2026-01-14 05:58:48.14	298.84	18.52	-54.6	-67.6	3.8	8.45e-01	0	28	104	0	74	16984
2026-01-14 05:58:48.85	298.71	18.46	-54.6	-67.6	3.8	8.45e-01	0	28	104	0	74	17013
2026-01-14 05:58:50.15	298.48	18.35	-54.6	-67.6	3.8	8.45e-01	0	28	104	0	74	17005
2026-01-14 05:58:50.87	298.35	18.29	-54.6	-67.6	3.8	8.46e-01	0	27	104	0	74	17015
2026-01-14 05:58:52.17	298.13	18.19	-54.6	-67.6	3.8	8.45e-01	0	28	104	0	74	16998
2026-01-14 05:58:52.89	298.00	18.13	-54.6	-67.6	3.8	8.47e-01	0	28	104	0	74	17011
2026-01-14 05:58:54.19	297.78	18.02	-54.6	-67.6	3.8	8.46e-01	0	28	104	0	74	17035
2026-01-14 05:58:54.90	297.66	17.96	-54.6	-67.6	3.8	8.46e-01	0	28	104	0	74	17005
2026-01-14 05:58:56.20	297.43	17.86	-54.6	-67.6	3.8	8.45e-01	0	28	104	0	74	16975
2026-01-14 05:58:56.91	297.31	17.80	-54.6	-67.6	3.8	8.46e-01	0	28	104	0	74	17014
2026-01-14 05:58:58.21	297.10	17.69	-54.6	-67.6	3.8	8.46e-01	0	28	104	0	74	17015
2026-01-14 05:58:58.93	296.97	17.63	-54.6	-67.6	3.8	8.44e-01	0	28	104	0	74	17001
2026-01-14 05:59:00.23	296.76	17.52	-54.6	-67.6	3.8	8.46e-01	0	28	104	0	74	17002
2026-01-14 05:59:00.95	296.64	17.47	-54.6	-67.6	3.8	8.46e-01	0	28	104	0	74	16965
2026-01-14 05:59:02.24	296.42	17.36	-54.6	-67.6	3.8	8.45e-01	0	28	104	0	74	16954
2026-01-14 05:59:02.97	296.31	17.30	-54.6	-67.6	3.8	8.47e-01	0	28	104	0	74	16987
2026-01-14 05:59:04.26	296.09	17.19	-54.6	-67.6	3.8	8.44e-01	0	28	104	0	74	16969
2026-01-14 05:59:04.98	295.98	17.14	-54.6	-67.6	3.8	8.44e-01	0	28	104	0	74	16907
2026-01-14 05:59:06.28	295.77	17.03	-54.6	-67.6	3.8	8.46e-01	0	28	104	0	74	16997
2026-01-14 05:59:07.00	295.65	16.97	-54.6	-67.6	3.8	8.47e-01	0	27	104	0	74	17027
2026-01-14 05:59:08.30	295.44	16.86	-54.6	-67.6	3.8	8.46e-01	0	28	104	0	74	17031
2026-01-14 05:59:09.02	295.33	16.81	-54.6	-67.6	3.8	8.44e-01	0	27	104	0	74	17021
2026-01-14 05:59:10.32	295.13	16.70	-54.6	-67.6	3.8	8.46e-01	0	28	104	0	74	16962
2026-01-14 05:59:11.05	295.01	16.64	-54.6	-67.6	3.8	8.46e-01	0	28	104	0	74	17026
2026-01-14 05:59:12.34	294.81	16.53	-54.6	-67.6	3.8	8.46e-01	0	28	104	0	74	17053
2026-01-14 05:59:13.06	294.70	16.48	-54.6	-67.6	3.8	8.46e-01	0	28	104	0	74	16978
2026-01-14 05:59:14.36	294.50	16.37	-54.6	-67.6	3.8	8.45e-01	0	28	104	0	74	17017
2026-01-14 05:59:15.09	294.38	16.31	-54.6	-67.6	3.8	8.47e-01	0	28	104	0	74	17029
2026-01-14 05:59:16.38	294.19	16.21	-54.6	-67.6	3.8	8.45e-01	0	28	104	0	74	16995
2026-01-14 05:59:17.10	294.08	16.15	-54.6	-67.6	3.8	8.45e-01	0	28	104	0	74	16946
2026-01-14 05:59:18.39	293.88	16.04	-54.6	-67.6	3.8	8.46e-01	0	28	104	0	74	16969
2026-01-14 05:59:19.11	293.78	15.98	-54.6	-67.6	3.8	8.45e-01	0	28	104	0	74	16956
2026-01-14 05:59:20.41	293.58	15.88	-54.6	-67.6	3.8	8.44e-01	0	28	104	0	74	16990
2026-01-14 05:59:21.13	293.47	15.82	-54.6	-67.6	3.8	8.45e-01	0	28	104	0	74	16981
2026-01-14 05:59:22.43	293.28	15.71	-54.6	-67.6	3.8	8.46e-01	0	28	104	0	74	16945
2026-01-14 05:59:23.15	293.18	15.66	-54.6	-67.6	3.8	8.44e-01	0	28	104	0	74	16988
2026-01-14 05:59:24.45	292.99	15.55	-54.6	-67.6	3.8	8.44e-01	0	28	104	0	74	16954
2026-01-14 05:59:25.17	292.88	15.49	-54.6	-67.6	3.8	8.45e-01	0	28	104	0	74	16995
2026-01-14 05:59:26.47	292.69	15.39	-54.6	-67.6	3.8	8.45e-01	0	27	104	0	74	17000
2026-01-14 05:59:27.19	292.59	15.33	-54.6	-67.6	3.8	8.46e-01	0	27	104	0	74	17058
2026-01-14 05:59:28.48	292.41	15.23	-54.6	-67.6	3.8	8.45e-01	0	28	104	0	74	17012
2026-01-14 05:59:29.20	292.30	15.17	-54.6	-67.6	3.8	8.46e-01	0	28	104	0	74	17008
2026-01-14 05:59:30.50	292.12	15.06	-54.6	-67.6	3.8	8.45e-01	0	28	104	0	74	17016
2026-01-14 05:59:31.22	292.02	15.01	-54.6	-67.6	3.8	8.46e-01	0	28	104	0	74	16937
2026-01-14 05:59:32.52	291.84	14.90	-54.6	-67.6	3.8	8.44e-01	0	28	104	0	74	17010
2026-01-14 05:59:33.24	291.74	14.85	-54.6	-67.6	3.8	8.44e-01	0	28	104	0	74	16957
2026-01-14 05:59:34.53	291.56	14.74	-54.6	-67.6	3.8	8.46e-01	0	28	104	0	74	17025
2026-01-14 05:59:35.25	291.46	14.68	-54.6	-67.6	3.8	8.45e-01	0	28	104	0	74	17045
2026-01-14 05:59:36.54	291.28	14.58	-54.6	-67.6	3.8	8.46e-01	0	28	104	0	74	17015
2026-01-14 05:59:37.27	291.19	14.52	-54.6	-67.6	3.8	8.44e-01	0	28	104	0	74	17026
2026-01-14 05:59:38.56	291.01	14.42	-54.6	-67.6	3.8	8.45e-01	0	28	104	0	74	16987
2026-01-14 05:59:39.29	290.91	14.36	-54.6	-67.6	3.8	8.45e-01	0	28	104	0	74	16960
2026-01-14 05:59:40.58	290.74	14.26	-54.6	-67.6	3.8	8.45e-01	0	28	104	0	74	17008
2026-01-14 05:59:41.30	290.65	14.20	-54.6	-67.6	3.8	8.45e-01	0	28	104	0	74	16981
2026-01-14 05:59:42.60	290.47	14.10	-54.6	-67.6	3.8	8.46e-01	0	28	104	0	74	16995
2026-01-14 05:59:43.32	290.38	14.04	-54.6	-67.6	3.8	8.46e-01	0	27	104	0	74	17004
2026-01-14 05:59:44.62	290.21	13.94	-54.6	-67.6	3.8	8.46e-01	0	28	104	0	74	16995
2026-01-14 05:59:45.34	290.11	13.89	-54.6	-67.6	3.8	8.46e-01	0	27	104	0	74	17029
2026-01-14 05:59:46.63	289.95	13.78	-54.6	-67.6	3.8	8.45e-01	0	28	104	0	74	17020
2026-01-14 05:59:47.36	289.85	13.73	-54.6	-67.6	3.8	8.46e-01	0	28	104	0	74	17047
2026-01-14 05:59:48.66	289.69	13.62	-54.6	-67.6	3.8	8.45e-01	0	28	104	0	74	16996
2026-01-14 05:59:49.37	289.60	13.57	-54.6	-67.6	3.8	8.45e-01	0	28	104	0	74	17041
2026-01-14 05:59:50.67	289.43	13.47	-54.6	-67.6	3.8	8.46e-01	0	28	104	0	74	16977
2026-01-14 05:59:51.39	289.34	13.41	-54.6	-67.6	3.8	8.46e-01	0	28	104	0	74	16975
2026-01-14 05:59:52.69	289.18	13.31	-54.6	-67.6	3.8	8.46e-01	0	28	104	0	74	16964
2026-01-14 05:59:53.41	289.09	13.25	-54.6	-67.6	3.8	8.45e-01	0	28	104	0	74	16970
2026-01-14 05:59:54.71	288.93	13.15	-54.6	-67.6	3.8	8.46e-01	0	28	104	0	74	16965
2026-01-14 05:59:55.43	288.84	13.10	-54.6	-67.6	3.8	8.46e-01	0	28	104	0	74	16978
2026-01-14 05:59:56.72	288.68	13.00	-54.6	-67.6	3.8	8.45e-01	0	28	104	0	74	16980
2026-01-14 05:59:57.44	288.59	12.94	-54.6	-67.6	3.8	8.44e-01	0	28	104	0	74	16969
2026-01-14 05:59:58.74	288.44	12.84	-54.6	-67.6	3.8	8.46e-01	0	27	104	0	74	16992
2026-01-14 05:59:59.46	288.35	12.78	-54.6	-67.6	3.8	8.45e-01	0	27	104	0	74	16998
2026-01-14 06:00:00.76	288.19	12.68	-54.6	-67.6	3.8	8.45e-01	0	28	104	0	74	17026
2026-01-14 06:00:01.48	288.11	12.63	-54.6	-67.6	3.8	8.46e-01	0	27	104	0	74	16926
2026-01-14 06:00:02.78	287.95	12.53	-54.6	-67.6	3.8	8.45e-01	0	28	104	0	74	16963
2026-01-14 06:00:03.50	287.87	12.47	-54.6	-67.6	3.8	8.45e-01	0	28	104	0	74	16970
2026-01-14 06:00:04.79	287.72	12.37	-54.6	-67.6	3.8	8.44e-01	0	28	104	0	74	16987
2026-01-14 06:00:05.51	287.63	12.32	-54.6	-67.6	3.8	8.45e-01	0	28	104	0	74	16967
2026-01-14 06:00:06.81	287.48	12.22	-54.6	-67.6	3.8	8.46e-01	0	27	104	0	74	16960
2026-01-14 06:00:07.53	287.40	12.17	-54.6	-67.6	3.8	8.46e-01	0	27	104	0	74	17002
2026-01-14 06:00:08.83	287.25	12.07	-54.6	-67.6	3.8	8.46e-01	0	28	104	0	74	16971
2026-01-14 06:00:09.56	287.17	12.01	-54.6	-67.6	3.8	8.46e-01	0	28	104	0	74	17022
2026-01-14 06:00:10.85	287.02	11.91	-54.6	-67.6	3.8	8.45e-01	0	28	104	0	74	17021
2026-01-14 06:00:11.57	286.94	11.86	-54.6	-67.6	3.8	8.45e-01	0	28	104	0	74	17025
2026-01-14 06:00:12.87	286.79	11.76	-54.6	-67.6	3.8	8.45e-01	0	28	104	0	74	16950
2026-01-14 06:00:13.59	286.71	11.71	-54.6	-67.6	3.8	8.46e-01	0	27	104	0	74	16991
2026-01-14 06:00:14.89	286.57	11.61	-54.6	-67.6	3.8	8.46e-01	0	27	104	0	74	16990
2026-01-14 06:00:15.61	286.49	11.55	-54.6	-67.6	3.8	8.46e-01	0	28	104	0	74	16993
2026-01-14 06:00:16.91	286.35	11.46	-54.6	-67.6	3.8	8.45e-01	0	28	104	0	74	16995
2026-01-14 06:00:17.63	286.27	11.40	-54.6	-67.6	3.8	8.45e-01	0	28	104	0	74	16955
2026-01-14 06:00:18.93	286.13	11.30	-54.6	-67.6	3.8	8.44e-01	0	28	104	0	74	17006
2026-01-14 06:00:19.64	286.05	11.25	-54.6	-67.6	3.8	8.46e-01	0	28	104	0	74	16990
2026-01-14 06:00:20.94	285.91	11.15	-54.6	-67.6	3.8	8.46e-01	0	28	104	0	74	16957
2026-01-14 06:00:21.66	285.83	11.10	-54.6	-67.6	3.8	8.45e-01	0	28	104	0	74	17027
2026-01-14 06:00:22.96	285.69	11.00	-54.6	-67.6	3.8	8.45e-01	0	28	104	0	74	16980
2026-01-14 06:00:23.68	285.62	10.95	-54.6	-67.6	3.8	8.44e-01	0	28	104	0	74	17021
2026-01-14 06:00:24.98	285.48	10.85	-54.6	-67.6	3.8	8.46e-01	0	28	104	0	74	16971
2026-01-14 06:00:25.70	285.40	10.80	-54.6	-67.6	3.8	8.44e-01	0	28	104	0	74	16963
2026-01-14 06:00:27.00	285.27	10.71	-54.6	-67.6	3.8	8.46e-01	0	28	104	0	74	16944
2026-01-14 06:00:27.72	285.19	10.65	-54.6	-67.6	3.8	8.46e-01	0	28	104	0	74	17031
2026-01-14 06:00:29.02	285.06	10.56	-54.6	-67.6	3.8	8.46e-01	0	28	104	0	74	17010
2026-01-14 06:00:29.74	284.99	10.50	-54.6	-67.6	3.8	8.45e-01	0	27	104	0	74	16959
2026-01-14 06:00:31.03	284.85	10.41	-54.6	-67.6	3.8	8.45e-01	0	28	104	0	74	17008
2026-01-14 06:00:31.75	284.78	10.36	-54.6	-67.6	3.8	8.46e-01	0	27	104	0	74	16965
2026-01-14 06:00:33.05	284.65	10.26	-54.6	-67.6	3.8	8.46e-01	0	28	104	0	74	16980
2026-01-14 06:00:33.77	284.58	10.21	-54.6	-67.6	3.8	8.46e-01	0	28	104	0	74	17040
2026-01-14 06:00:35.07	284.45	10.11	-54.6	-67.6	3.8	8.45e-01	0	28	104	0	74	16975
2026-01-14 06:00:35.79	284.37	10.06	-54.6	-67.6	3.8	8.46e-01	0	28	104	0	74	16923
2026-01-14 06:00:37.08	284.25	9.97	-54.6	-67.6	3.8	8.46e-01	0	27	104	0	74	16974
2026-01-14 06:00:37.80	284.18	9.92	-54.6	-67.6	3.8	8.44e-01	0	28	104	0	74	16979
2026-01-14 06:00:39.10	284.05	9.82	-54.6	-67.6	3.8	8.46e-01	0	28	104	0	74	16970
2026-01-14 06:00:39.82	283.98	9.77	-54.6	-67.6	3.8	8.45e-01	0	27	104	0	74	16991
2026-01-14 06:00:41.12	283.85	9.68	-54.6	-67.6	3.8	8.45e-01	0	28	104	0	74	16976
2026-01-14 06:00:41.84	283.78	9.62	-54.6	-67.6	3.8	8.45e-01	0	27	104	0	74	16990
2026-01-14 06:00:43.14	283.66	9.53	-54.6	-67.6	3.8	8.45e-01	0	28	104	0	74	16906
2026-01-14 06:00:43.86	283.59	9.48	-54.6	-67.6	3.8	8.46e-01	0	27	104	0	74	16922
2026-01-14 06:00:45.15	283.47	9.39	-54.6	-67.6	3.8	8.45e-01	0	28	104	0	74	16937
2026-01-14 06:00:45.87	283.40	9.34	-54.6	-67.6	3.8	8.46e-01	0	28	104	0	74	17030
2026-01-14 06:00:47.17	283.28	9.24	-54.6	-67.6	3.8	8.46e-01	0	27	104	0	74	17046
2026-01-14 06:00:47.89	283.21	9.19	-54.6	-67.6	3.8	8.45e-01	0	28	104	0	74	17012
2026-01-14 06:00:49.19	283.09	9.10	-54.6	-67.6	3.8	8.44e-01	0	28	104	0	74	16972
2026-01-14 06:00:49.91	283.02	9.05	-54.6	-67.6	3.8	8.45e-01	0	28	104	0	74	16977
2026-01-14 06:00:51.20	282.90	8.96	-54.6	-67.6	3.8	8.44e-01	0	28	104	0	74	16986
2026-01-14 06:00:51.92	282.83	8.91	-54.6	-67.6	3.8	8.46e-01	0	28	104	0	74	16984
2026-01-14 06:00:53.22	282.72	8.82	-54.6	-67.6	3.8	8.46e-01	0	28	104	0	74	17015
2026-01-14 06:00:53.95	282.65	8.76	-54.6	-67.6	3.8	8.45e-01	0	28	104	0	74	16946
2026-01-14 06:00:55.25	282.53	8.67	-54.6	-67.6	3.8	8.44e-01	0	27	104	0	74	16975
2026-01-14 06:00:55.97	282.47	8.62	-54.6	-67.6	3.8	8.45e-01	0	28	104	0	74	16981
2026-01-14 06:00:57.26	282.35	8.53	-54.6	-67.6	3.8	8.45e-01	0	28	104	0	74	16964
2026-01-14 06:00:57.98	282.29	8.48	-54.6	-67.6	3.8	8.46e-01	0	28	104	0	74	16914
2026-01-14 06:00:59.28	282.17	8.39	-54.6	-67.6	3.8	8.45e-01	0	28	104	0	74	16978
2026-01-14 06:01:00.00	282.11	8.34	-54.6	-67.6	3.8	8.45e-01	0	28	104	0	74	17004
2026-01-14 06:01:01.30	282.00	8.25	-54.6	-67.6	3.8	8.44e-01	0	28	104	0	74	16945
2026-01-14 06:01:02.02	281.93	8.20	-54.6	-67.6	3.8	8.45e-01	0	28	104	0	74	16983
2026-01-14 06:01:03.32	281.82	8.11	-54.6	-67.6	3.8	8.45e-01	0	28	104	0	74	16993
2026-01-14 06:01:04.04	281.76	8.06	-54.6	-67.6	3.8	8.45e-01	0	28	104	0	74	16997
2026-01-14 06:01:05.33	281.65	7.97	-54.6	-67.6	3.8	8.46e-01	0	28	104	0	74	17036
2026-01-14 06:01:06.05	281.58	7.92	-54.6	-67.6	3.8	8.45e-01	0	28	104	0	74	16990
2026-01-14 06:01:07.35	281.47	7.83	-54.6	-67.6	3.8	8.46e-01	0	28	104	0	74	16999
2026-01-14 06:01:08.07	281.41	7.78	-54.6	-67.6	3.8	8.46e-01	0	28	104	0	74	17012
2026-01-14 06:01:09.37	281.30	7.69	-54.6	-67.6	3.8	8.46e-01	0	28	104	0	74	17007
2026-01-14 06:01:10.09	281.24	7.65	-54.6	-67.6	3.8	8.44e-01	0	28	104	0	74	16932
2026-01-14 06:01:11.39	281.13	7.56	-54.6	-67.6	3.8	8.45e-01	0	28	104	0	74	17050
2026-01-14 06:01:12.11	281.07	7.51	-54.6	-67.6	3.8	8.46e-01	0	28	104	0	74	16977
2026-01-14 06:01:13.41	280.97	7.42	-54.6	-67.6	3.8	8.46e-01	0	28	104	0	74	16975
2026-01-14 06:01:14.13	280.91	7.37	-54.6	-67.6	3.8	8.45e-01	0	28	104	0	74	16991
2026-01-14 06:01:15.43	280.80	7.28	-54.6	-67.6	3.8	8.45e-01	0	28	104	0	74	17000
2026-01-14 06:01:16.15	280.74	7.23	-54.6	-67.6	3.8	8.45e-01	0	28	104	0	74	16997
2026-01-14 06:01:17.44	280.64	7.15	-54.6	-67.6	3.8	8.45e-01	0	28	104	0	74	16956
2026-01-14 06:01:18.16	280.58	7.10	-54.6	-67.6	3.8	8.45e-01	0	28	104	0	74	16958
2026-01-14 06:01:19.46	280.48	7.01	-54.6	-67.6	3.8	8.46e-01	0	28	104	0	74	16972
2026-01-14 06:01:20.18	280.42	6.96	-54.6	-67.6	3.8	8.45e-01	0	28	104	0	74	16951
2026-01-14 06:01:21.48	280.31	6.88	-54.6	-67.6	3.8	8.46e-01	0	28	104	0	74	16972
2026-01-14 06:01:22.20	280.26	6.83	-54.6	-67.6	3.8	8.46e-01	0	28	104	0	74	16970
2026-01-14 06:01:23.50	280.16	6.74	-54.6	-67.6	3.8	8.47e-01	0	28	104	0	74	16998
2026-01-14 06:01:24.22	280.10	6.69	-54.6	-67.6	3.8	8.45e-01	0	28	104	0	74	16973
2026-01-14 06:01:25.51	280.00	6.61	-54.6	-67.6	3.8	8.46e-01	0	28	104	0	74	16992
2026-01-14 06:01:26.24	279.94	6.56	-54.6	-67.6	3.8	8.45e-01	0	28	104	0	74	16964
2026-01-14 06:01:27.53	279.84	6.47	-54.6	-67.6	3.8	8.46e-01	0	28	104	0	74	16968
2026-01-14 06:01:28.25	279.79	6.43	-54.6	-67.6	3.8	8.46e-01	0	28	104	0	74	17006
2026-01-14 06:01:29.55	279.69	6.34	-54.6	-67.6	3.8	8.45e-01	0	28	104	0	74	17017
2026-01-14 06:01:30.27	279.63	6.29	-54.6	-67.6	3.8	8.46e-01	0	28	104	0	74	16995
2026-01-14 06:01:31.57	279.53	6.21	-54.6	-67.6	3.8	8.47e-01	0	28	104	0	74	17003
2026-01-14 06:01:32.29	279.48	6.16	-54.6	-67.6	3.8	8.45e-01	0	28	104	0	74	16961
2026-01-14 06:01:33.59	279.38	6.07	-54.6	-67.6	3.8	8.46e-01	0	28	104	0	74	16963
2026-01-14 06:01:34.31	279.33	6.03	-54.6	-67.6	3.8	8.46e-01	0	28	104	0	74	17011
2026-01-14 06:01:35.60	279.23	5.94	-54.6	-67.6	3.8	8.44e-01	0	28	104	0	74	16962
2026-01-14 06:01:36.32	279.18	5.90	-54.6	-67.6	3.8	8.44e-01	0	28	104	0	74	17019
2026-01-14 06:01:37.61	279.08	5.81	-54.6	-67.6	3.8	8.45e-01	0	28	104	0	74	16993
2026-01-14 06:01:38.33	279.03	5.76	-54.6	-67.6	3.8	8.45e-01	0	28	104	0	74	16918
2026-01-14 06:01:39.63	278.94	5.68	-54.6	-67.6	3.8	8.45e-01	0	28	104	0	74	16970
2026-01-14 06:01:40.35	278.88	5.63	-54.6	-67.6	3.8	8.45e-01	0	28	104	0	74	16949
2026-01-14 06:01:41.65	278.79	5.55	-54.6	-67.6	3.8	8.46e-01	0	28	104	0	74	17037
2026-01-14 06:01:42.36	278.74	5.50	-54.6	-67.6	3.8	8.46e-01	0	28	104	0	74	16977
2026-01-14 06:01:43.66	278.65	5.42	-54.6	-67.6	3.8	8.45e-01	0	28	104	0	74	16986
2026-01-14 06:01:44.38	278.59	5.37	-54.6	-67.6	3.8	8.46e-01	0	28	104	0	74	16960
2026-01-14 06:01:45.67	278.50	5.29	-54.6	-67.6	3.8	8.46e-01	0	28	104	0	74	17010
2026-01-14 06:01:46.40	278.45	5.24	-54.6	-67.6	3.8	8.44e-01	0	28	104	0	74	16990
2026-01-14 06:01:47.69	278.36	5.16	-54.6	-67.6	3.8	8.46e-01	0	28	104	0	74	16955
2026-01-14 06:01:48.41	278.31	5.12	-54.6	-67.6	3.9	8.45e-01	0	27	104	0	74	17012
2026-01-14 06:01:49.71	278.22	5.03	-54.6	-67.6	3.8	8.45e-01	0	28	104	0	74	16974
2026-01-14 06:01:50.43	278.17	4.99	-54.6	-67.6	3.8	8.46e-01	0	28	104	0	74	17003
2026-01-14 06:01:51.73	278.08	4.91	-54.6	-67.6	3.8	8.47e-01	0	28	104	0	74	16936
2026-01-14 06:01:52.44	278.03	4.86	-54.6	-67.6	3.8	8.44e-01	0	28	104	0	74	17008
2026-01-14 06:01:53.74	277.94	4.78	-54.6	-67.6	3.8	8.46e-01	0	28	104	0	74	16966
2026-01-14 06:01:54.46	277.89	4.73	-54.6	-67.6	3.8	8.45e-01	0	28	104	0	74	17018
2026-01-14 06:01:55.76	277.80	4.65	-54.6	-67.6	3.8	8.45e-01	0	28	104	0	74	16997
2026-01-14 06:01:56.48	277.76	4.61	-54.6	-67.6	3.8	8.46e-01	0	28	104	0	74	16965
2026-01-14 06:01:57.78	277.67	4.52	-54.6	-67.6	3.8	8.46e-01	0	28	104	0	74	16919
2026-01-14 06:01:58.49	277.62	4.48	-54.6	-67.6	3.8	8.45e-01	0	28	104	0	74	16970
2026-01-14 06:01:59.79	277.53	4.40	-54.6	-67.6	3.8	8.46e-01	0	28	104	0	74	16993
2026-01-14 06:02:00.51	277.49	4.35	-54.6	-67.6	3.8	8.45e-01	0	28	104	0	74	17019
2026-01-14 06:02:01.81	277.40	4.27	-54.6	-67.6	3.8	8.45e-01	0	28	104	0	74	16973
2026-01-14 06:02:02.53	277.35	4.23	-54.6	-67.6	3.8	8.46e-01	0	28	104	0	74	16984
2026-01-14 06:02:03.83	277.27	4.15	-54.6	-67.6	3.8	8.44e-01	0	28	104	0	74	16933
