passes_logs/2026/01/14/R3.2S_Murmansk/R3.2S_Murmansk__20260114_022929_FENGYUN_3D_rec.log

#Pass ID: 20260114_022929_FENGYUN 3D
#Satellite: FENGYUN 3D
#Configuration: FENGYUN 3D
#almurnet v.1.7.20251203
#Start time: 2026-01-14 02:29:29

#Version: 2.2.20231116
#Station: R3.2S_Murmansk
#Location: 33.079688 lon 68.888172 lat
#TLE: 1 43010U 17072A   26013.59402220  .00000029  00000+0  35477-4 0  9991
#TLE: 2 43010  98.9934 345.3884 0002280 110.7757 249.3663 14.19695359423056

#Time	Az	El	Level	Level2	SNR	BER	BlckErr	Temp	State	Recorded	gain1	gain2
2026-01-14 02:29:29.80	24.12	2.03	-57.9	-70.8	3.8	8.45e-01	0	25	0	0	82	15410
2026-01-14 02:29:30.80	24.14	2.09	-57.8	-70.8	3.8	8.46e-01	0	25	104	0	80	17294
2026-01-14 02:29:31.80	24.15	2.16	-57.8	-70.7	3.8	8.46e-01	0	25	104	0	80	17204
2026-01-14 02:29:32.81	24.16	2.22	-57.8	-70.6	3.8	8.45e-01	0	25	104	0	80	17054
2026-01-14 02:29:33.82	24.17	2.29	-57.8	-70.5	3.8	8.46e-01	0	25	104	0	80	16823
2026-01-14 02:29:34.83	24.18	2.35	-57.8	-70.4	3.8	8.45e-01	0	26	104	0	80	16507
2026-01-14 02:29:35.84	24.20	2.42	-57.8	-70.1	3.8	8.44e-01	0	25	104	0	80	16122
2026-01-14 02:29:36.85	24.21	2.48	-57.8	-69.9	3.8	8.45e-01	0	25	104	0	80	15724
2026-01-14 02:29:37.86	24.22	2.55	-57.7	-69.7	3.8	8.45e-01	0	25	104	0	80	15279
2026-01-14 02:29:38.87	24.23	2.61	-57.8	-69.7	3.8	8.47e-01	0	26	104	0	80	15378
2026-01-14 02:29:39.87	24.24	2.68	-57.7	-69.5	3.8	8.45e-01	0	26	104	0	80	14913
2026-01-14 02:29:40.88	24.26	2.74	-57.7	-68.9	3.8	8.46e-01	0	26	104	0	80	13918
2026-01-14 02:29:41.90	24.27	2.81	-57.7	-68.9	3.8	8.44e-01	0	25	104	0	80	13901
2026-01-14 02:29:42.91	24.28	2.88	-57.6	-67.7	4.1	8.42e-01	0	26	0	0	80	12195
2026-01-14 02:29:43.92	24.29	2.94	-57.5	-67.2	4.2	8.38e-01	0	26	0	0	80	11500
2026-01-14 02:29:44.93	24.31	3.01	-57.4	-66.4	4.5	8.26e-01	0	26	0	0	80	10515
2026-01-14 02:29:45.94	24.32	3.07	-57.3	-65.7	4.8	8.14e-01	0	26	0	0	80	9647
2026-01-14 02:29:46.95	24.33	3.14	-57.2	-64.9	5.2	7.52e-01	0	26	0	0	80	8823
2026-01-14 02:29:47.96	24.34	3.21	-56.9	-63.4	6.1	3.75e-01	0	26	0	2097152	80	7386
2026-01-14 02:29:48.96	24.35	3.27	-56.4	-61.7	7.4	2.00e-01	0	26	0	7340032	79	6480
2026-01-14 02:29:49.97	24.37	3.34	-56.0	-60.9	8.1	5.35e-02	0	26	0	13631488	78	6217
2026-01-14 02:29:50.98	24.38	3.41	-55.4	-59.3	9.4	1.18e-02	0	26	0	18874368	77	5517
2026-01-14 02:29:51.98	24.39	3.48	-55.1	-58.8	9.8	2.88e-03	0	26	0	25165824	76	5485
2026-01-14 02:29:52.99	24.40	3.54	-54.3	-57.4	10.9	3.75e-04	0	26	0	30408704	75	4962
2026-01-14 02:29:54.01	24.42	3.61	-53.7	-56.4	11.5	2.74e-05	0	26	0	36700160	73	4953
2026-01-14 02:29:55.01	24.43	3.68	-53.1	-55.5	12.1	5.70e-06	0	26	0	41943040	72	4755
2026-01-14 02:29:56.02	24.44	3.75	-52.5	-54.7	12.6	0.00e+00	0	26	0	47185920	71	4562
2026-01-14 02:29:57.03	24.46	3.82	-52.8	-55.1	12.3	0.00e+00	0	26	0	53477376	71	4791
2026-01-14 02:29:58.05	24.47	3.89	-51.9	-53.9	13.1	0.00e+00	0	26	0	58720256	70	4407
2026-01-14 02:29:59.05	24.48	3.95	-51.6	-53.5	13.2	0.00e+00	0	26	0	65011712	69	4493
2026-01-14 02:30:00.06	24.49	4.02	-51.2	-53.1	13.5	0.00e+00	0	26	0	70254592	69	4246
2026-01-14 02:30:01.07	24.51	4.09	-50.9	-52.7	13.6	0.00e+00	0	26	0	75497472	68	4297
2026-01-14 02:30:02.08	24.52	4.16	-51.4	-53.3	13.3	0.00e+00	0	26	0	81788928	68	4605
2026-01-14 02:30:03.09	24.53	4.23	-51.1	-53.0	13.4	0.00e+00	0	26	0	87031808	68	4446
2026-01-14 02:30:04.10	24.55	4.30	-51.1	-52.9	13.5	0.00e+00	0	26	0	92274688	68	4410
2026-01-14 02:30:05.11	24.56	4.37	-51.8	-53.8	12.9	0.00e+00	0	26	0	98566144	68	4910
2026-01-14 02:30:06.12	24.57	4.44	-52.0	-54.1	12.8	0.00e+00	0	26	0	103809024	69	4783
2026-01-14 02:30:07.13	24.59	4.51	-52.5	-54.7	12.5	0.00e+00	0	26	0	110100480	70	4868
2026-01-14 02:30:08.14	24.60	4.58	-53.0	-55.4	12.1	0.00e+00	0	26	0	115343360	71	4957
2026-01-14 02:30:09.15	24.61	4.65	-53.2	-55.7	11.9	1.10e-06	0	26	0	121634816	71	5144
2026-01-14 02:30:10.16	24.62	4.72	-54.2	-57.2	10.9	8.01e-05	0	26	0	126877696	73	5439
2026-01-14 02:30:11.17	24.64	4.79	-54.4	-57.5	10.6	2.77e-04	0	26	0	133169152	73	5649
2026-01-14 02:30:12.18	24.65	4.86	-54.8	-58.4	10.0	1.24e-03	0	26	0	138412032	74	5917
2026-01-14 02:30:13.19	24.67	4.94	-55.3	-59.3	9.3	3.47e-03	0	26	0	143654912	75	6158
2026-01-14 02:30:14.19	24.68	5.01	-55.7	-60.1	8.7	1.65e-02	0	26	0	149946368	76	6416
2026-01-14 02:30:15.20	24.69	5.08	-55.7	-60.1	8.7	2.61e-02	0	26	0	155189248	76	6383
2026-01-14 02:30:16.21	24.71	5.15	-52.0	-54.0	13.0	0.00e+00	0	26	0	161480704	69	4728
2026-01-14 02:30:17.22	24.72	5.22	-56.6	-62.5	6.7	2.09e-01	0	26	0	166723584	78	7495
2026-01-14 02:30:18.23	24.73	5.30	-56.1	-60.8	8.3	4.81e-02	0	26	0	171966464	78	6174
2026-01-14 02:30:19.24	24.75	5.37	-54.0	-56.8	11.4	1.02e-05	0	26	0	178257920	73	5186
2026-01-14 02:30:20.25	24.76	5.44	-57.5	-67.0	4.0	6.81e-01	0	26	104	181403648	80	11187
2026-01-14 02:30:21.26	24.77	5.51	-53.5	-55.9	12.1	1.48e-05	0	26	0	184549376	73	4668
2026-01-14 02:30:22.27	24.79	5.59	-53.1	-55.3	12.5	0.00e+00	0	26	0	190840832	72	4626
2026-01-14 02:30:23.28	24.80	5.66	-52.3	-54.2	13.1	0.00e+00	0	26	0	196083712	71	4340
2026-01-14 02:30:24.29	24.82	5.73	-51.7	-53.6	13.5	0.00e+00	0	27	0	201326592	70	4248
2026-01-14 02:30:25.30	24.83	5.81	-51.1	-52.8	13.7	0.00e+00	0	26	0	207618048	68	4358
2026-01-14 02:30:26.31	24.84	5.88	-50.8	-52.5	13.9	0.00e+00	0	26	0	212860928	68	4210
2026-01-14 02:30:27.32	24.86	5.96	-50.8	-52.4	13.9	0.00e+00	0	26	0	219152384	68	4172
2026-01-14 02:30:28.32	24.87	6.03	-50.5	-52.1	13.9	0.00e+00	0	26	0	224395264	67	4267
2026-01-14 02:30:29.33	24.89	6.10	-50.5	-52.1	13.9	0.00e+00	0	26	0	229638144	67	4285
2026-01-14 02:30:30.34	24.90	6.18	-50.3	-51.9	14.0	0.00e+00	0	27	0	235929600	67	4169
2026-01-14 02:30:31.35	24.91	6.25	-49.7	-51.2	14.3	0.00e+00	0	27	0	241172480	66	4068
2026-01-14 02:30:32.36	24.93	6.33	-49.5	-50.9	14.3	0.00e+00	0	26	0	247463936	65	4178
2026-01-14 02:30:33.37	24.94	6.40	-49.5	-50.9	14.3	0.00e+00	0	27	0	252706816	65	4192
2026-01-14 02:30:34.38	24.96	6.48	-49.4	-50.8	14.4	0.00e+00	0	26	0	257949696	65	4114
2026-01-14 02:30:35.39	24.97	6.56	-49.5	-50.9	14.3	0.00e+00	0	26	0	264241152	65	4175
2026-01-14 02:30:36.40	24.99	6.63	-49.4	-50.8	14.4	0.00e+00	0	26	0	269484032	65	4133
2026-01-14 02:30:37.41	25.00	6.71	-49.6	-51.1	14.3	0.00e+00	0	27	0	275775488	65	4248
2026-01-14 02:30:38.41	25.01	6.78	-49.5	-50.9	14.4	0.00e+00	0	27	0	281018368	65	4169
2026-01-14 02:30:39.42	25.03	6.86	-49.5	-51.0	14.3	0.00e+00	0	27	0	287309824	65	4202
2026-01-14 02:30:40.43	25.04	6.94	-49.6	-51.0	14.3	0.00e+00	0	26	0	292552704	65	4218
2026-01-14 02:30:41.43	25.06	7.01	-49.3	-50.7	14.5	0.00e+00	0	26	0	297795584	65	4069
2026-01-14 02:30:42.44	25.07	7.09	-49.3	-50.8	14.4	0.00e+00	0	26	0	304087040	65	4103
2026-01-14 02:30:43.45	25.09	7.17	-49.4	-50.8	14.4	0.00e+00	0	26	0	309329920	65	4144
2026-01-14 02:30:44.46	25.10	7.25	-49.3	-50.7	14.5	0.00e+00	0	27	0	315621376	65	4066
2026-01-14 02:30:45.46	25.12	7.32	-49.4	-50.8	14.4	0.00e+00	0	26	0	320864256	65	4112
2026-01-14 02:30:46.47	25.13	7.40	-49.3	-50.7	14.5	0.00e+00	0	27	0	326107136	65	4067
2026-01-14 02:30:47.48	25.15	7.48	-49.1	-50.5	14.4	0.00e+00	0	26	0	332398592	64	4217
2026-01-14 02:30:48.49	25.16	7.56	-49.0	-50.4	14.5	0.00e+00	0	27	0	337641472	64	4160
2026-01-14 02:30:49.49	25.18	7.64	-49.1	-50.5	14.5	0.00e+00	0	27	0	342884352	64	4210
2026-01-14 02:30:50.51	25.19	7.72	-48.9	-50.3	14.6	0.00e+00	0	27	0	349175808	64	4113
2026-01-14 02:30:51.51	25.21	7.80	-49.0	-50.4	14.5	0.00e+00	0	27	0	354418688	64	4160
2026-01-14 02:30:52.52	25.22	7.88	-49.0	-50.4	14.5	0.00e+00	0	27	0	360710144	64	4152
2026-01-14 02:30:53.53	25.24	7.96	-49.0	-50.3	14.5	0.00e+00	0	27	0	365953024	64	4135
2026-01-14 02:30:54.54	25.25	8.04	-48.9	-50.2	14.6	0.00e+00	0	27	0	372244480	64	4098
2026-01-14 02:30:55.55	25.27	8.12	-48.9	-50.2	14.6	0.00e+00	0	27	0	377487360	64	4069
2026-01-14 02:30:56.56	25.29	8.20	-49.0	-50.3	14.6	0.00e+00	0	27	0	383778816	64	4130
2026-01-14 02:30:57.57	25.30	8.28	-49.0	-50.3	14.6	0.00e+00	0	27	0	389021696	64	4116
2026-01-14 02:30:58.58	25.32	8.36	-48.8	-50.1	14.5	0.00e+00	0	27	0	394264576	63	4267
2026-01-14 02:30:59.59	25.33	8.44	-48.7	-50.0	14.6	0.00e+00	0	27	0	400556032	63	4224
2026-01-14 02:31:00.59	25.35	8.52	-48.8	-50.1	14.5	0.00e+00	0	27	0	405798912	63	4262
2026-01-14 02:31:01.61	25.36	8.61	-48.7	-50.0	14.6	0.00e+00	0	27	0	412090368	63	4222
2026-01-14 02:31:02.61	25.38	8.69	-48.7	-50.0	14.6	0.00e+00	0	27	0	417333248	63	4242
2026-01-14 02:31:03.62	25.40	8.77	-48.8	-50.1	14.5	0.00e+00	0	27	0	422576128	63	4258
2026-01-14 02:31:04.63	25.41	8.86	-48.7	-50.0	14.6	0.00e+00	0	27	0	428867584	63	4228
2026-01-14 02:31:05.64	25.43	8.94	-48.7	-50.0	14.6	0.00e+00	0	27	0	434110464	63	4225
2026-01-14 02:31:06.65	25.45	9.02	-48.7	-50.1	14.6	0.00e+00	0	27	0	439353344	63	4249
2026-01-14 02:31:07.66	25.46	9.11	-48.6	-49.9	14.6	0.00e+00	0	27	0	445644800	63	4186
2026-01-14 02:31:08.67	25.48	9.19	-48.8	-50.1	14.5	0.00e+00	0	27	0	450887680	63	4258
2026-01-14 02:31:09.68	25.49	9.27	-48.6	-49.9	14.6	0.00e+00	0	27	0	457179136	63	4179
2026-01-14 02:31:10.69	25.51	9.36	-48.7	-50.0	14.6	0.00e+00	0	27	0	462422016	63	4208
2026-01-14 02:31:11.70	25.53	9.44	-48.6	-49.9	14.6	0.00e+00	0	27	0	468713472	63	4176
2026-01-14 02:31:12.71	25.54	9.53	-48.6	-50.0	14.6	0.00e+00	0	27	0	473956352	63	4194
2026-01-14 02:31:13.72	25.56	9.62	-48.6	-49.9	14.6	0.00e+00	0	27	0	480247808	63	4182
2026-01-14 02:31:14.72	25.58	9.70	-48.7	-50.0	14.6	0.00e+00	0	27	0	485490688	63	4194
2026-01-14 02:31:15.73	25.59	9.79	-48.6	-49.9	14.7	0.00e+00	0	27	0	490733568	63	4162
2026-01-14 02:31:16.74	25.61	9.87	-48.5	-49.8	14.7	0.00e+00	0	27	0	497025024	63	4130
2026-01-14 02:31:17.74	25.63	9.96	-48.5	-49.8	14.7	0.00e+00	0	27	0	502267904	63	4113
2026-01-14 02:31:18.74	25.65	10.05	-48.6	-49.9	14.6	0.00e+00	0	27	0	507510784	63	4167
2026-01-14 02:31:19.75	25.66	10.13	-48.5	-49.8	14.7	0.00e+00	0	27	0	513802240	63	4112
2026-01-14 02:31:20.76	25.68	10.22	-48.5	-49.8	14.7	0.00e+00	0	27	0	519045120	63	4118
2026-01-14 02:31:21.77	25.70	10.31	-48.5	-49.8	14.7	0.00e+00	0	27	0	525336576	63	4130
2026-01-14 02:31:22.78	25.71	10.40	-48.5	-49.7	14.7	0.00e+00	0	27	0	530579456	63	4097
2026-01-14 02:31:23.79	25.73	10.49	-48.5	-49.8	14.7	0.00e+00	0	27	0	535822336	63	4117
2026-01-14 02:31:24.80	25.75	10.57	-48.5	-49.8	14.7	0.00e+00	0	27	0	542113792	63	4118
2026-01-14 02:31:25.81	25.77	10.66	-48.6	-49.9	14.7	0.00e+00	0	27	0	547356672	63	4158
2026-01-14 02:31:26.82	25.78	10.75	-48.4	-49.6	14.8	0.00e+00	0	27	0	553648128	63	4048
2026-01-14 02:31:27.83	25.80	10.84	-48.5	-49.8	14.7	0.00e+00	0	27	0	558891008	63	4123
2026-01-14 02:31:28.84	25.82	10.93	-48.4	-49.6	14.8	0.00e+00	0	27	0	565182464	63	4039
2026-01-14 02:31:29.84	25.84	11.02	-48.4	-49.7	14.8	0.00e+00	0	27	0	570425344	63	4052
2026-01-14 02:31:30.85	25.86	11.11	-48.4	-49.7	14.8	0.00e+00	0	27	0	575668224	63	4052
2026-01-14 02:31:31.86	25.87	11.21	-48.3	-49.6	14.8	0.00e+00	0	27	0	581959680	63	4018
2026-01-14 02:31:32.86	25.89	11.30	-48.4	-49.7	14.7	0.00e+00	0	27	0	587202560	63	4072
2026-01-14 02:31:33.88	25.91	11.39	-48.5	-49.8	14.7	0.00e+00	0	27	0	593494016	63	4104
2026-01-14 02:31:34.88	25.93	11.48	-48.3	-49.5	14.8	0.00e+00	0	27	0	598736896	63	3993
2026-01-14 02:31:35.89	25.95	11.57	-48.3	-49.5	14.8	0.00e+00	0	27	0	603979776	63	4004
2026-01-14 02:31:36.90	25.97	11.67	-48.3	-49.5	14.8	0.00e+00	0	27	0	610271232	63	3998
2026-01-14 02:31:37.91	25.99	11.76	-48.3	-49.6	14.8	0.00e+00	0	27	0	615514112	63	4010
2026-01-14 02:31:38.92	26.00	11.85	-48.4	-49.6	14.8	0.00e+00	0	27	0	621805568	63	4039
2026-01-14 02:31:39.93	26.02	11.95	-48.5	-49.7	14.7	0.00e+00	0	27	0	627048448	63	4085
2026-01-14 02:31:40.93	26.04	12.04	-48.4	-49.6	14.8	0.00e+00	0	27	0	632291328	63	4045
2026-01-14 02:31:41.94	26.06	12.14	-48.3	-49.6	14.8	0.00e+00	0	27	0	638582784	63	4006
2026-01-14 02:31:42.94	26.08	12.23	-48.3	-49.6	14.8	0.00e+00	0	27	0	643825664	63	4010
2026-01-14 02:31:43.94	26.10	12.32	-48.3	-49.5	14.8	0.00e+00	0	27	0	650117120	63	3997
2026-01-14 02:31:44.95	26.12	12.42	-48.3	-49.5	14.8	0.00e+00	0	27	0	655360000	63	3990
2026-01-14 02:31:45.96	26.14	12.52	-48.4	-49.6	14.8	0.00e+00	0	27	0	661651456	63	4051
2026-01-14 02:31:46.97	26.16	12.61	-48.3	-49.5	14.8	0.00e+00	0	27	0	666894336	63	4002
2026-01-14 02:31:47.98	26.18	12.71	-48.3	-49.6	14.8	0.00e+00	0	27	0	672137216	63	4009
2026-01-14 02:31:48.99	26.20	12.81	-48.3	-49.5	14.8	0.00e+00	0	27	0	678428672	63	3978
2026-01-14 02:31:50.00	26.22	12.91	-48.3	-49.6	14.8	0.00e+00	0	27	0	683671552	63	4028
2026-01-14 02:31:51.01	26.24	13.00	-48.2	-49.5	14.9	0.00e+00	0	27	0	689963008	63	3965
2026-01-14 02:31:52.02	26.26	13.10	-48.2	-49.4	14.9	0.00e+00	0	27	0	695205888	63	3958
2026-01-14 02:31:53.02	26.28	13.20	-48.2	-49.5	14.9	0.00e+00	0	27	0	700448768	63	3963
2026-01-14 02:31:54.03	26.30	13.30	-48.1	-49.4	14.8	0.00e+00	0	27	0	706740224	62	4153
2026-01-14 02:31:55.04	26.32	13.40	-48.1	-49.4	14.8	0.00e+00	0	27	0	711983104	62	4146
2026-01-14 02:31:56.05	26.34	13.50	-48.2	-49.4	14.8	0.00e+00	0	27	0	718274560	62	4173
2026-01-14 02:31:57.06	26.36	13.60	-48.1	-49.3	14.8	0.00e+00	0	27	0	723517440	62	4122
2026-01-14 02:31:58.07	26.38	13.70	-48.0	-49.2	14.8	0.00e+00	0	27	0	728760320	62	4089
2026-01-14 02:31:59.08	26.40	13.80	-48.0	-49.3	14.8	0.00e+00	0	27	0	735051776	62	4104
2026-01-14 02:32:00.09	26.42	13.90	-47.9	-49.1	14.9	0.00e+00	0	27	0	740294656	62	4034
2026-01-14 02:32:01.10	26.44	14.01	-47.9	-49.1	14.9	0.00e+00	0	27	0	746586112	62	4041
2026-01-14 02:32:02.11	26.46	14.11	-47.9	-49.1	14.9	0.00e+00	0	27	0	751828992	62	4008
2026-01-14 02:32:03.11	26.48	14.21	-48.0	-49.2	14.8	0.00e+00	0	27	0	758120448	62	4075
2026-01-14 02:32:04.12	26.50	14.32	-47.8	-49.0	14.9	0.00e+00	0	27	0	763363328	62	4004
2026-01-14 02:32:05.13	26.53	14.42	-47.6	-48.8	14.9	0.00e+00	0	27	0	768606208	61	4115
2026-01-14 02:32:06.14	26.55	14.52	-47.7	-48.9	14.8	0.00e+00	0	27	0	774897664	61	4155
2026-01-14 02:32:07.15	26.57	14.63	-47.5	-48.7	14.9	0.00e+00	0	27	0	780140544	61	4085
2026-01-14 02:32:08.16	26.59	14.73	-47.6	-48.7	14.9	0.00e+00	0	27	0	786432000	61	4092
2026-01-14 02:32:09.17	26.61	14.84	-47.5	-48.6	14.9	0.00e+00	0	27	0	791674880	61	4043
2026-01-14 02:32:10.18	26.63	14.95	-47.4	-48.6	14.9	0.00e+00	0	27	0	796917760	61	4039
2026-01-14 02:32:11.19	26.66	15.05	-47.5	-48.7	14.9	0.00e+00	0	27	0	803209216	61	4070
2026-01-14 02:32:12.20	26.68	15.16	-47.5	-48.7	14.9	0.00e+00	0	27	0	808452096	61	4076
2026-01-14 02:32:13.20	26.70	15.27	-47.3	-48.5	15.0	0.00e+00	0	27	0	814743552	61	3968
2026-01-14 02:32:14.21	26.72	15.38	-47.2	-48.4	15.0	0.00e+00	0	27	0	819986432	61	3919
2026-01-14 02:32:15.22	26.75	15.48	-47.2	-48.3	15.1	0.00e+00	0	27	0	825229312	61	3901
2026-01-14 02:32:16.23	26.77	15.59	-47.1	-48.2	15.0	0.00e+00	0	27	0	831520768	60	4092
2026-01-14 02:32:17.24	26.79	15.70	-47.1	-48.2	15.0	0.00e+00	0	27	0	836763648	60	4093
2026-01-14 02:32:18.25	26.82	15.81	-47.0	-48.2	15.0	0.00e+00	0	27	0	843055104	60	4075
2026-01-14 02:32:19.26	26.84	15.92	-47.0	-48.2	15.0	0.00e+00	0	27	0	848297984	60	4059
2026-01-14 02:32:20.26	26.86	16.03	-47.0	-48.1	15.0	0.00e+00	0	27	0	854589440	60	4041
2026-01-14 02:32:21.27	26.89	16.15	-46.9	-48.0	15.1	0.00e+00	0	27	0	859832320	60	3997
2026-01-14 02:32:22.28	26.91	16.26	-46.7	-47.8	15.1	0.00e+00	0	27	0	865075200	60	3913
2026-01-14 02:32:23.29	26.93	16.37	-46.7	-47.8	15.1	0.00e+00	0	27	0	871366656	60	3903
2026-01-14 02:32:24.30	26.96	16.48	-46.7	-47.8	15.1	0.00e+00	0	27	0	876609536	60	3898
2026-01-14 02:32:25.31	26.98	16.60	-47.1	-48.2	14.9	0.00e+00	0	27	0	882900992	59	4325
2026-01-14 02:32:26.32	27.01	16.71	-47.1	-48.3	14.9	0.00e+00	0	27	0	888143872	59	4349
2026-01-14 02:32:27.33	27.03	16.83	-47.0	-48.2	14.9	0.00e+00	0	27	0	893386752	59	4302
2026-01-14 02:32:28.34	27.05	16.94	-47.1	-48.2	14.9	0.00e+00	0	27	0	899678208	59	4331
2026-01-14 02:32:29.35	27.08	17.06	-47.0	-48.1	14.9	0.00e+00	0	27	0	904921088	59	4281
2026-01-14 02:32:30.36	27.10	17.17	-47.0	-48.1	14.9	0.00e+00	0	27	0	911212544	59	4280
2026-01-14 02:32:31.37	27.13	17.29	-47.0	-48.1	14.9	0.00e+00	0	27	0	916455424	59	4271
2026-01-14 02:32:32.38	27.15	17.41	-46.8	-48.0	15.0	0.00e+00	0	27	0	921698304	59	4206
2026-01-14 02:32:33.38	27.18	17.53	-46.8	-48.0	15.0	0.00e+00	0	27	0	927989760	59	4204
2026-01-14 02:32:34.39	27.21	17.64	-46.8	-48.0	15.0	0.00e+00	0	27	0	933232640	59	4201
2026-01-14 02:32:35.40	27.23	17.76	-46.8	-48.0	15.0	0.00e+00	0	27	0	939524096	59	4204
2026-01-14 02:32:36.41	27.26	17.88	-46.8	-47.9	15.0	0.00e+00	0	27	0	944766976	59	4181
2026-01-14 02:32:37.42	27.28	18.00	-46.7	-47.8	15.0	0.00e+00	0	27	0	951058432	59	4125
2026-01-14 02:32:38.43	27.31	18.13	-46.7	-47.8	15.0	0.00e+00	0	27	0	956301312	59	4114
2026-01-14 02:32:39.44	27.34	18.25	-46.7	-47.8	15.0	0.00e+00	0	27	0	961544192	59	4139
2026-01-14 02:32:40.45	27.36	18.37	-46.7	-47.8	15.0	0.00e+00	0	27	0	967835648	59	4143
2026-01-14 02:32:41.46	27.39	18.49	-46.7	-47.8	15.0	0.00e+00	0	27	0	973078528	59	4113
2026-01-14 02:32:42.47	27.42	18.62	-46.7	-47.8	15.0	0.00e+00	0	27	0	979369984	59	4116
2026-01-14 02:32:43.47	27.44	18.74	-46.7	-47.8	15.0	0.00e+00	0	27	0	984612864	59	4113
2026-01-14 02:32:44.48	27.47	18.86	-46.8	-47.9	15.0	0.00e+00	0	27	0	989855744	59	4159
2026-01-14 02:32:45.49	27.50	18.99	-46.6	-47.7	15.0	0.00e+00	0	27	0	996147200	59	4086
2026-01-14 02:32:46.50	27.53	19.11	-46.6	-47.7	15.0	0.00e+00	0	27	0	1001390080	59	4090
2026-01-14 02:32:47.51	27.55	19.24	-46.6	-47.7	15.1	0.00e+00	0	27	0	1007681536	59	4086
2026-01-14 02:32:48.51	27.58	19.37	-46.6	-47.7	15.0	0.00e+00	0	27	0	1012924416	59	4092
2026-01-14 02:32:49.52	27.61	19.49	-46.6	-47.7	15.1	0.00e+00	0	27	0	1019215872	59	4058
2026-01-14 02:32:50.53	27.64	19.62	-46.6	-47.7	15.0	0.00e+00	0	27	0	1024458752	59	4092
2026-01-14 02:32:51.54	27.67	19.75	-46.6	-47.7	15.1	0.00e+00	0	27	0	1029701632	59	4064
2026-01-14 02:32:52.55	27.70	19.88	-46.6	-47.7	15.0	0.00e+00	0	27	0	1035993088	59	4076
2026-01-14 02:32:53.56	27.72	20.01	-46.3	-47.4	15.2	0.00e+00	0	27	0	1041235968	59	3956
2026-01-14 02:32:54.57	27.75	20.14	-46.3	-47.4	15.2	0.00e+00	0	27	0	1047527424	59	3936
2026-01-14 02:32:55.58	27.78	20.28	-46.3	-47.4	15.2	0.00e+00	0	27	0	1052770304	59	3928
2026-01-14 02:32:56.59	27.81	20.41	-46.4	-47.5	15.1	0.00e+00	0	27	0	1058013184	59	3988
2026-01-14 02:32:57.59	27.84	20.54	-46.2	-47.3	15.2	0.00e+00	0	27	0	1064304640	59	3877
2026-01-14 02:32:58.60	27.87	20.67	-46.2	-47.3	15.2	0.00e+00	0	27	0	1069547520	59	3899
2026-01-14 02:32:59.61	27.90	20.81	-46.2	-47.3	15.2	0.00e+00	0	27	0	1075838976	59	3889
2026-01-14 02:33:00.62	27.93	20.95	-46.1	-47.2	15.1	0.00e+00	0	27	0	1081081856	58	4080
2026-01-14 02:33:01.63	27.96	21.08	-46.2	-47.2	15.1	0.00e+00	0	27	0	1086324736	58	4097
2026-01-14 02:33:02.64	28.00	21.22	-46.2	-47.2	15.1	0.00e+00	0	27	0	1092616192	58	4096
2026-01-14 02:33:03.65	28.03	21.36	-46.2	-47.2	15.1	0.00e+00	0	27	0	1097859072	58	4098
2026-01-14 02:33:04.66	28.06	21.49	-46.2	-47.3	15.0	0.00e+00	0	27	0	1104150528	58	4108
2026-01-14 02:33:05.66	28.09	21.63	-46.2	-47.3	15.1	0.00e+00	0	27	0	1109393408	58	4116
2026-01-14 02:33:06.67	28.12	21.77	-46.1	-47.2	15.1	0.00e+00	0	27	0	1115684864	58	4079
2026-01-14 02:33:07.68	28.15	21.91	-46.2	-47.3	15.1	0.00e+00	0	27	0	1120927744	58	4129
2026-01-14 02:33:08.69	28.19	22.05	-46.2	-47.2	15.1	0.00e+00	0	27	0	1126170624	58	4097
2026-01-14 02:33:09.70	28.22	22.20	-46.1	-47.2	15.1	0.00e+00	0	27	0	1132462080	58	4053
2026-01-14 02:33:10.70	28.25	22.34	-46.1	-47.2	15.1	0.00e+00	0	27	0	1137704960	58	4068
2026-01-14 02:33:11.71	28.29	22.48	-46.1	-47.2	15.1	0.00e+00	0	27	0	1143996416	58	4076
2026-01-14 02:33:12.72	28.32	22.63	-46.1	-47.2	15.1	0.00e+00	0	27	0	1149239296	58	4078
2026-01-14 02:33:13.73	28.35	22.77	-46.1	-47.1	15.1	0.00e+00	0	27	0	1154482176	58	4050
2026-01-14 02:33:14.74	28.39	22.92	-46.1	-47.2	15.1	0.00e+00	0	27	0	1160773632	58	4089
2026-01-14 02:33:15.75	28.42	23.07	-46.1	-47.2	15.1	0.00e+00	0	27	0	1166016512	58	4081
2026-01-14 02:33:16.76	28.46	23.21	-46.0	-47.1	15.1	0.00e+00	0	27	0	1172307968	58	4033
2026-01-14 02:33:17.77	28.49	23.36	-45.9	-47.0	15.2	0.00e+00	0	27	0	1177550848	58	3961
2026-01-14 02:33:18.77	28.53	23.51	-45.8	-46.9	15.2	0.00e+00	0	27	0	1182793728	58	3930
2026-01-14 02:33:19.78	28.56	23.66	-45.9	-47.0	15.2	0.00e+00	0	27	0	1189085184	58	3969
2026-01-14 02:33:20.78	28.60	23.81	-45.7	-46.7	15.3	0.00e+00	0	27	0	1194328064	58	3864
2026-01-14 02:33:21.79	28.63	23.96	-45.7	-46.7	15.1	0.00e+00	0	27	0	1200619520	57	4088
2026-01-14 02:33:22.80	28.67	24.12	-45.6	-46.6	15.1	0.00e+00	0	27	0	1205862400	57	4046
2026-01-14 02:33:23.81	28.71	24.27	-45.5	-46.6	15.2	0.00e+00	0	27	0	1212153856	57	4023
2026-01-14 02:33:24.82	28.75	24.43	-45.6	-46.6	15.1	0.00e+00	0	27	0	1217396736	57	4043
2026-01-14 02:33:25.83	28.78	24.58	-45.5	-46.6	15.2	0.00e+00	0	27	0	1222639616	57	4018
2026-01-14 02:33:26.84	28.82	24.74	-45.6	-46.6	15.1	0.00e+00	0	27	0	1228931072	57	4045
2026-01-14 02:33:27.85	28.86	24.90	-45.5	-46.6	15.2	0.00e+00	0	27	0	1234173952	57	4006
2026-01-14 02:33:28.86	28.90	25.06	-45.5	-46.5	15.2	0.00e+00	0	27	0	1240465408	57	3995
2026-01-14 02:33:29.87	28.94	25.21	-45.5	-46.5	15.2	0.00e+00	0	27	0	1245708288	57	3990
2026-01-14 02:33:30.88	28.98	25.38	-45.4	-46.5	15.2	0.00e+00	0	27	0	1250951168	57	3967
2026-01-14 02:33:31.89	29.02	25.54	-45.4	-46.4	15.2	0.00e+00	0	27	0	1257242624	57	3947
2026-01-14 02:33:32.90	29.06	25.70	-45.4	-46.4	15.2	0.00e+00	0	27	0	1262485504	57	3950
2026-01-14 02:33:33.91	29.10	25.86	-45.4	-46.5	15.2	0.00e+00	0	27	0	1268776960	57	3965
2026-01-14 02:33:34.92	29.14	26.03	-45.5	-46.6	15.2	0.00e+00	0	27	0	1274019840	57	4009
2026-01-14 02:33:35.92	29.18	26.19	-45.5	-46.6	15.2	0.00e+00	0	27	0	1279262720	57	4032
2026-01-14 02:33:36.93	29.22	26.36	-45.7	-46.8	15.1	0.00e+00	0	27	0	1285554176	57	4108
2026-01-14 02:33:37.95	29.26	26.53	-45.7	-46.7	15.1	0.00e+00	0	27	0	1290797056	57	4090
2026-01-14 02:33:38.95	29.30	26.69	-45.8	-46.8	15.1	0.00e+00	0	27	0	1297088512	57	4145
2026-01-14 02:33:39.96	29.35	26.86	-45.9	-47.0	15.1	0.00e+00	0	27	0	1302331392	57	4196
2026-01-14 02:33:40.97	29.39	27.03	-45.9	-47.0	15.1	0.00e+00	0	27	0	1308622848	57	4194
2026-01-14 02:33:41.98	29.43	27.21	-45.8	-46.8	15.1	0.00e+00	0	27	0	1313865728	57	4140
2026-01-14 02:33:42.98	29.48	27.38	-45.7	-46.7	15.1	0.00e+00	0	27	0	1319108608	57	4096
2026-01-14 02:33:43.98	29.52	27.55	-45.6	-46.7	15.1	0.00e+00	0	27	0	1325400064	57	4071
2026-01-14 02:33:44.99	29.56	27.73	-45.7	-46.7	15.1	0.00e+00	0	27	0	1330642944	57	4083
2026-01-14 02:33:46.00	29.61	27.90	-45.7	-46.7	15.1	0.00e+00	0	27	0	1336934400	57	4089
2026-01-14 02:33:47.01	29.65	28.08	-45.6	-46.7	15.1	0.00e+00	0	27	0	1342177280	57	4076
2026-01-14 02:33:48.02	29.70	28.26	-45.6	-46.7	15.1	0.00e+00	0	27	0	1347420160	57	4054
2026-01-14 02:33:49.03	29.75	28.44	-45.5	-46.5	15.2	0.00e+00	0	27	0	1353711616	57	4002
2026-01-14 02:33:50.04	29.79	28.62	-45.4	-46.4	15.2	0.00e+00	0	27	0	1358954496	57	3954
2026-01-14 02:33:51.05	29.84	28.80	-45.4	-46.4	15.2	0.00e+00	0	27	0	1364197376	57	3943
2026-01-14 02:33:52.06	29.89	28.98	-45.3	-46.3	15.3	0.00e+00	0	27	0	1370488832	57	3912
2026-01-14 02:33:53.07	29.94	29.17	-45.3	-46.4	15.3	0.00e+00	0	27	0	1375731712	57	3920
2026-01-14 02:33:54.08	29.99	29.35	-45.3	-46.4	15.3	0.00e+00	0	27	0	1382023168	57	3933
2026-01-14 02:33:55.09	30.04	29.54	-45.5	-46.6	15.2	0.00e+00	0	27	0	1387266048	57	4022
2026-01-14 02:33:56.10	30.09	29.73	-45.6	-46.7	15.2	0.00e+00	0	27	0	1393557504	57	4067
2026-01-14 02:33:57.11	30.14	29.92	-45.7	-46.8	15.1	0.00e+00	0	27	0	1398800384	57	4109
2026-01-14 02:33:58.12	30.19	30.11	-45.7	-46.8	15.1	0.00e+00	0	27	0	1405091840	57	4107
2026-01-14 02:33:59.13	30.24	30.30	-45.8	-46.9	15.1	0.00e+00	0	27	0	1410334720	57	4147
2026-01-14 02:34:00.14	30.29	30.49	-45.8	-46.8	15.1	0.00e+00	0	27	0	1415577600	57	4138
2026-01-14 02:34:01.14	30.35	30.68	-45.7	-46.8	15.1	0.00e+00	0	27	0	1421869056	57	4124
2026-01-14 02:34:02.15	30.40	30.88	-45.8	-46.8	15.1	0.00e+00	0	27	0	1427111936	57	4134
2026-01-14 02:34:03.16	30.45	31.07	-45.6	-46.7	15.1	0.00e+00	0	27	0	1433403392	57	4083
2026-01-14 02:34:04.17	30.51	31.27	-45.4	-46.5	15.2	0.00e+00	0	27	0	1438646272	57	3978
2026-01-14 02:34:05.17	30.56	31.47	-45.5	-46.5	15.2	0.00e+00	0	27	0	1443889152	57	4004
2026-01-14 02:34:06.18	30.62	31.67	-45.3	-46.3	15.3	0.00e+00	0	27	0	1450180608	57	3904
2026-01-14 02:34:07.19	30.68	31.87	-45.4	-46.4	15.2	0.00e+00	0	27	0	1455423488	57	3958
2026-01-14 02:34:08.20	30.73	32.08	-45.4	-46.5	15.2	0.00e+00	0	27	0	1461714944	57	3969
2026-01-14 02:34:09.21	30.79	32.28	-45.4	-46.5	15.2	0.00e+00	0	27	0	1466957824	57	3979
2026-01-14 02:34:10.22	30.85	32.49	-45.5	-46.6	15.2	0.00e+00	0	27	0	1472200704	57	4025
2026-01-14 02:34:11.23	30.91	32.69	-45.7	-46.7	15.1	0.00e+00	0	27	0	1478492160	57	4092
2026-01-14 02:34:12.24	30.97	32.90	-45.6	-46.7	15.2	0.00e+00	0	27	0	1483735040	57	4082
2026-01-14 02:34:13.25	31.03	33.11	-45.7	-46.8	15.1	0.00e+00	0	27	0	1490026496	57	4104
2026-01-14 02:34:14.26	31.09	33.33	-45.8	-46.9	15.1	0.00e+00	0	27	0	1495269376	57	4150
2026-01-14 02:34:15.27	31.15	33.54	-45.7	-46.8	15.1	0.00e+00	0	27	0	1501560832	57	4117
2026-01-14 02:34:16.28	31.22	33.75	-45.7	-46.8	15.1	0.00e+00	0	27	0	1506803712	57	4122
2026-01-14 02:34:17.29	31.28	33.97	-45.6	-46.7	15.2	0.00e+00	0	27	0	1512046592	57	4076
2026-01-14 02:34:18.30	31.34	34.19	-45.6	-46.7	15.1	0.00e+00	0	27	0	1518338048	57	4080
2026-01-14 02:34:19.31	31.41	34.41	-45.5	-46.5	15.2	0.00e+00	0	27	0	1523580928	57	3982
2026-01-14 02:34:20.32	31.48	34.63	-45.2	-46.2	15.3	0.00e+00	0	27	0	1529872384	57	3863
2026-01-14 02:34:21.33	31.54	34.85	-45.2	-46.3	15.3	0.00e+00	0	27	0	1535115264	57	3876
2026-01-14 02:34:22.34	31.61	35.07	-45.2	-46.3	15.1	0.00e+00	0	27	0	1540358144	56	4117
2026-01-14 02:34:23.35	31.68	35.30	-45.2	-46.2	15.2	0.00e+00	0	27	0	1546649600	56	4087
2026-01-14 02:34:24.36	31.75	35.53	-45.1	-46.2	15.2	0.00e+00	0	27	0	1551892480	56	4061
2026-01-14 02:34:25.37	31.82	35.76	-45.1	-46.1	15.2	0.00e+00	0	27	0	1558183936	56	4046
2026-01-14 02:34:26.37	31.89	35.98	-45.1	-46.2	15.2	0.00e+00	0	27	0	1563426816	56	4070
2026-01-14 02:34:27.38	31.96	36.22	-45.2	-46.3	15.2	0.00e+00	0	27	0	1568669696	56	4120
2026-01-14 02:34:28.39	32.04	36.45	-45.2	-46.3	15.2	0.00e+00	0	27	0	1574961152	56	4117
2026-01-14 02:34:29.40	32.11	36.68	-45.2	-46.2	15.2	0.00e+00	0	27	0	1580204032	56	4095
2026-01-14 02:34:30.41	32.19	36.92	-45.0	-46.1	15.2	0.00e+00	0	27	0	1586495488	56	4010
2026-01-14 02:34:31.42	32.26	37.16	-44.9	-45.9	15.3	0.00e+00	0	27	0	1591738368	56	3958
2026-01-14 02:34:32.43	32.34	37.40	-44.7	-45.8	15.3	0.00e+00	0	27	0	1598029824	56	3869
2026-01-14 02:34:33.44	32.42	37.64	-44.5	-45.6	15.2	0.00e+00	0	27	0	1603272704	55	4005
2026-01-14 02:34:34.44	32.50	37.88	-44.5	-45.5	15.2	0.00e+00	0	27	0	1608515584	55	3994
2026-01-14 02:34:35.45	32.58	38.13	-44.7	-45.7	15.2	0.00e+00	0	27	0	1614807040	55	4067
2026-01-14 02:34:36.46	32.66	38.38	-44.8	-45.8	15.2	0.00e+00	0	27	0	1620049920	55	4130
2026-01-14 02:34:37.47	32.75	38.62	-44.8	-45.8	15.2	0.00e+00	0	27	0	1626341376	55	4114
2026-01-14 02:34:38.48	32.83	38.87	-44.7	-45.7	15.2	0.00e+00	0	27	0	1631584256	55	4090
2026-01-14 02:34:39.49	32.92	39.13	-44.8	-45.8	15.2	0.00e+00	0	27	0	1636827136	55	4139
2026-01-14 02:34:40.50	33.00	39.38	-44.8	-45.8	15.2	0.00e+00	0	27	0	1643118592	55	4131
2026-01-14 02:34:41.50	33.09	39.63	-44.8	-45.8	15.2	0.00e+00	0	27	0	1648361472	55	4130
2026-01-14 02:34:42.51	33.18	39.89	-44.8	-45.8	15.2	0.00e+00	0	27	0	1654652928	55	4145
2026-01-14 02:34:43.52	33.27	40.15	-44.7	-45.7	15.2	0.00e+00	0	27	0	1659895808	55	4069
2026-01-14 02:34:44.53	33.36	40.41	-44.7	-45.7	15.2	0.00e+00	0	27	0	1665138688	55	4093
2026-01-14 02:34:45.53	33.46	40.67	-44.8	-45.9	15.1	0.00e+00	0	27	0	1671430144	55	4157
2026-01-14 02:34:46.54	33.55	40.94	-45.0	-46.0	15.1	0.00e+00	0	27	0	1676673024	55	4235
2026-01-14 02:34:47.55	33.65	41.21	-45.1	-46.1	15.1	0.00e+00	0	27	0	1682964480	55	4275
2026-01-14 02:34:48.57	33.75	41.48	-45.2	-46.2	15.1	0.00e+00	0	27	0	1688207360	55	4328
2026-01-14 02:34:49.57	33.85	41.75	-45.2	-46.2	15.1	0.00e+00	0	27	0	1694498816	55	4340
2026-01-14 02:34:50.57	33.95	42.02	-45.2	-46.2	15.1	0.00e+00	0	27	0	1699741696	55	4338
2026-01-14 02:34:51.58	34.05	42.29	-45.1	-46.2	15.1	0.00e+00	0	27	0	1704984576	55	4323
2026-01-14 02:34:52.59	34.16	42.57	-45.2	-46.2	15.1	0.00e+00	0	27	0	1711276032	55	4340
2026-01-14 02:34:53.60	34.26	42.85	-45.2	-46.2	15.1	0.00e+00	0	27	0	1716518912	55	4324
2026-01-14 02:34:54.61	34.37	43.13	-45.2	-46.2	15.1	0.00e+00	0	27	0	1722810368	55	4314
2026-01-14 02:34:55.62	34.48	43.41	-45.2	-46.2	15.1	0.00e+00	0	27	0	1728053248	55	4338
2026-01-14 02:34:56.64	34.60	43.70	-45.4	-46.4	15.0	0.00e+00	0	27	0	1733296128	55	4439
2026-01-14 02:34:57.65	34.71	43.99	-45.8	-46.8	15.0	0.00e+00	0	27	0	1739587584	56	4384
2026-01-14 02:34:58.66	34.83	44.27	-45.9	-47.0	15.0	0.00e+00	0	27	0	1744830464	57	4234
2026-01-14 02:34:59.67	34.95	44.57	-46.0	-47.1	15.1	0.00e+00	0	27	0	1751121920	57	4251
2026-01-14 02:35:00.68	35.07	44.86	-45.9	-47.0	15.1	0.00e+00	0	27	0	1756364800	57	4207
2026-01-14 02:35:01.68	35.19	45.15	-45.9	-46.9	15.1	0.00e+00	0	28	0	1761607680	57	4193
2026-01-14 02:35:02.69	35.31	45.45	-45.7	-46.8	15.1	0.00e+00	0	27	0	1767899136	57	4116
2026-01-14 02:35:03.70	35.44	45.75	-45.7	-46.8	15.1	0.00e+00	0	27	0	1773142016	57	4114
2026-01-14 02:35:04.71	35.57	46.05	-45.7	-46.8	15.1	0.00e+00	0	27	0	1779433472	57	4115
2026-01-14 02:35:05.71	35.70	46.35	-45.4	-46.5	15.2	0.00e+00	0	27	0	1784676352	57	3961
2026-01-14 02:35:06.72	35.83	46.65	-45.4	-46.5	15.2	0.00e+00	0	27	0	1790967808	57	3966
2026-01-14 02:35:07.73	35.97	46.96	-45.5	-46.6	15.2	0.00e+00	0	27	0	1796210688	57	4025
2026-01-14 02:35:08.74	36.11	47.27	-45.7	-46.8	15.1	0.00e+00	0	27	0	1801453568	57	4103
2026-01-14 02:35:09.75	36.25	47.58	-45.9	-47.0	15.1	0.00e+00	0	27	0	1807745024	57	4209
2026-01-14 02:35:10.76	36.40	47.89	-45.9	-47.0	15.1	0.00e+00	0	27	0	1812987904	57	4216
2026-01-14 02:35:11.77	36.55	48.21	-45.9	-46.9	15.1	0.00e+00	0	27	0	1819279360	57	4190
2026-01-14 02:35:12.78	36.70	48.53	-45.7	-46.7	15.1	0.00e+00	0	27	0	1824522240	57	4079
2026-01-14 02:35:13.79	36.85	48.85	-45.5	-46.5	15.2	0.00e+00	0	27	0	1829765120	57	3978
2026-01-14 02:35:14.80	37.01	49.17	-45.5	-46.5	15.2	0.00e+00	0	27	0	1836056576	57	3982
2026-01-14 02:35:15.80	37.17	49.49	-45.7	-46.7	15.1	0.00e+00	0	27	0	1841299456	57	4088
2026-01-14 02:35:16.81	37.33	49.82	-45.9	-47.0	15.1	0.00e+00	0	27	0	1847590912	57	4216
2026-01-14 02:35:17.82	37.50	50.15	-46.0	-47.0	15.1	0.00e+00	0	27	0	1852833792	57	4225
2026-01-14 02:35:18.84	37.67	50.48	-46.1	-47.2	15.0	0.00e+00	0	27	0	1858076672	57	4297
2026-01-14 02:35:19.84	37.85	50.81	-46.2	-47.3	15.0	0.00e+00	0	27	0	1864368128	57	4363
2026-01-14 02:35:20.85	38.02	51.15	-46.2	-47.3	15.0	0.00e+00	0	27	0	1869611008	57	4352
2026-01-14 02:35:21.86	38.21	51.48	-46.1	-47.2	15.0	0.00e+00	0	27	0	1875902464	57	4302
2026-01-14 02:35:22.87	38.39	51.82	-46.2	-47.2	15.0	0.00e+00	0	27	0	1881145344	57	4332
2026-01-14 02:35:23.88	38.58	52.16	-46.0	-47.1	15.1	0.00e+00	0	27	0	1887436800	57	4247
2026-01-14 02:35:24.88	38.78	52.50	-45.8	-46.9	15.1	0.00e+00	0	27	0	1892679680	57	4175
2026-01-14 02:35:25.89	38.98	52.85	-46.0	-47.1	15.1	0.00e+00	0	27	0	1897922560	57	4266
2026-01-14 02:35:26.90	39.18	53.20	-46.6	-47.7	15.0	0.00e+00	0	27	0	1904214016	58	4326
2026-01-14 02:35:27.91	39.39	53.55	-47.0	-48.2	15.0	0.00e+00	0	27	0	1909456896	59	4310
2026-01-14 02:35:28.92	39.60	53.90	-46.9	-48.0	15.0	0.00e+00	0	27	0	1915748352	59	4218
2026-01-14 02:35:29.92	39.82	54.25	-46.8	-47.9	15.0	0.00e+00	0	27	0	1920991232	59	4175
2026-01-14 02:35:30.93	40.05	54.60	-47.1	-48.2	14.9	0.00e+00	0	27	0	1926234112	59	4326
2026-01-14 02:35:31.94	40.28	54.96	-47.2	-48.3	15.0	0.00e+00	0	27	0	1932525568	60	4133
2026-01-14 02:35:32.95	40.51	55.32	-46.8	-47.9	15.1	0.00e+00	0	27	0	1937768448	60	3953
2026-01-14 02:35:33.96	40.75	55.68	-46.7	-47.8	15.1	0.00e+00	0	27	0	1944059904	59	4121
2026-01-14 02:35:34.97	41.00	56.05	-46.6	-47.7	15.1	0.00e+00	0	27	0	1949302784	59	4070
2026-01-14 02:35:35.97	41.25	56.41	-47.0	-48.1	15.0	0.00e+00	0	27	0	1954545664	59	4291
2026-01-14 02:35:36.98	41.52	56.78	-47.0	-48.2	15.0	0.00e+00	0	27	0	1960837120	59	4297
2026-01-14 02:35:37.99	41.78	57.15	-47.0	-48.1	15.0	0.00e+00	0	27	0	1966080000	59	4268
2026-01-14 02:35:39.00	42.06	57.52	-46.7	-47.8	15.0	0.00e+00	0	27	0	1972371456	59	4139
2026-01-14 02:35:40.01	42.34	57.89	-46.7	-47.8	15.1	0.00e+00	0	27	0	1977614336	59	4113
2026-01-14 02:35:41.02	42.63	58.27	-46.5	-47.6	15.1	0.00e+00	0	27	0	1983905792	59	4032
2026-01-14 02:35:42.03	42.93	58.64	-46.1	-47.1	15.1	0.00e+00	0	27	0	1989148672	58	4039
2026-01-14 02:35:43.04	43.24	59.02	-46.1	-47.1	15.1	0.00e+00	0	27	0	1994391552	58	4039
2026-01-14 02:35:44.05	43.56	59.40	-46.5	-47.6	15.0	0.00e+00	0	27	0	2000683008	58	4258
2026-01-14 02:35:45.06	43.88	59.78	-46.5	-47.6	15.0	0.00e+00	0	27	0	2005925888	58	4279
2026-01-14 02:35:46.07	44.22	60.16	-45.8	-46.9	15.3	0.00e+00	0	27	0	2012217344	58	3915
2026-01-14 02:35:47.08	44.57	60.55	-45.6	-46.6	15.2	0.00e+00	0	27	0	2017460224	57	4027
2026-01-14 02:35:48.09	44.92	60.93	-45.5	-46.6	15.2	0.00e+00	0	27	0	2022703104	57	4020
2026-01-14 02:35:49.09	45.28	61.32	-45.5	-46.6	15.2	0.00e+00	0	27	0	2028994560	57	4025
2026-01-14 02:35:50.10	45.66	61.71	-45.5	-46.5	15.2	0.00e+00	0	27	0	2034237440	57	3994
2026-01-14 02:35:51.10	46.05	62.09	-45.2	-46.3	15.3	0.00e+00	0	27	0	2040528896	57	3869
2026-01-14 02:35:52.11	46.45	62.48	-45.2	-46.2	15.2	0.00e+00	0	27	0	2045771776	56	4070
2026-01-14 02:35:53.12	46.87	62.87	-45.0	-46.0	15.2	0.00e+00	0	27	0	2051014656	56	3996
2026-01-14 02:35:54.13	47.30	63.27	-45.2	-46.2	15.2	0.00e+00	0	27	0	2057306112	56	4090
2026-01-14 02:35:55.14	47.74	63.66	-45.0	-46.0	15.2	0.00e+00	0	27	0	2062548992	56	3995
2026-01-14 02:35:56.15	48.20	64.05	-44.9	-45.9	15.3	0.00e+00	0	27	0	2068840448	56	3948
2026-01-14 02:35:57.16	48.68	64.45	-44.9	-45.9	15.3	0.00e+00	0	27	0	2074083328	56	3937
2026-01-14 02:35:58.17	49.17	64.84	-44.8	-45.8	15.3	0.00e+00	0	27	0	2080374784	56	3890
2026-01-14 02:35:59.17	49.67	65.24	-44.9	-45.9	15.3	0.00e+00	0	27	0	2085617664	56	3933
2026-01-14 02:36:00.18	50.20	65.63	-44.9	-46.0	15.2	0.00e+00	0	27	0	2090860544	56	3961
2026-01-14 02:36:01.19	50.74	66.03	-44.9	-45.9	15.3	0.00e+00	0	27	0	2097152000	56	3933
2026-01-14 02:36:02.20	51.31	66.42	-45.0	-46.0	15.2	0.00e+00	0	27	0	2102394880	56	3985
2026-01-14 02:36:03.21	51.90	66.82	-44.8	-45.8	15.3	0.00e+00	0	27	0	2108686336	56	3903
2026-01-14 02:36:04.22	52.51	67.21	-44.9	-45.9	15.3	0.00e+00	0	28	0	2113929216	56	3950
2026-01-14 02:36:05.23	53.14	67.61	-45.2	-46.3	15.2	0.00e+00	0	27	0	2119172096	56	4104
2026-01-14 02:36:06.23	53.79	68.00	-45.1	-46.2	15.2	0.00e+00	0	27	0	2125463552	56	4053
2026-01-14 02:36:07.24	54.47	68.39	-45.0	-46.0	15.2	0.00e+00	0	27	0	2130706432	56	4004
2026-01-14 02:36:08.25	55.19	68.78	-45.0	-46.0	15.2	0.00e+00	0	27	0	2135949312	56	3990
2026-01-14 02:36:09.26	55.92	69.18	-45.0	-46.0	15.2	0.00e+00	0	27	0	2142240768	56	4004
2026-01-14 02:36:10.27	56.69	69.56	-45.0	-46.0	15.2	0.00e+00	0	27	0	2147483648	56	3975
2026-01-14 02:36:11.27	57.49	69.95	-45.0	-46.0	15.2	0.00e+00	0	27	0	2153775104	56	3986
2026-01-14 02:36:12.28	58.32	70.33	-44.7	-45.7	15.3	0.00e+00	0	27	0	2159017984	56	3863
2026-01-14 02:36:13.30	59.20	70.72	-44.3	-45.3	15.3	0.00e+00	0	27	0	2165309440	55	3884
2026-01-14 02:36:14.31	60.11	71.10	-44.5	-45.5	15.2	0.00e+00	0	27	0	2170552320	55	3988
2026-01-14 02:36:15.31	61.04	71.47	-44.4	-45.4	15.3	0.00e+00	0	27	0	2176843776	55	3943
2026-01-14 02:36:16.32	62.03	71.84	-44.1	-45.0	15.2	0.00e+00	0	28	0	2182086656	54	4003
2026-01-14 02:36:17.33	63.06	72.21	-44.1	-45.1	15.2	0.00e+00	0	27	0	2187329536	54	4021
2026-01-14 02:36:18.34	64.14	72.57	-44.3	-45.3	15.2	0.00e+00	0	27	0	2193620992	54	4134
2026-01-14 02:36:19.35	65.26	72.93	-44.0	-45.0	15.3	0.00e+00	0	27	0	2198863872	54	3996
2026-01-14 02:36:20.35	66.42	73.28	-43.9	-44.9	15.3	0.00e+00	0	27	0	2205155328	54	3920
2026-01-14 02:36:21.36	67.65	73.63	-44.0	-45.0	15.3	0.00e+00	0	27	0	2210398208	54	3984
2026-01-14 02:36:22.37	68.93	73.97	-43.9	-45.0	15.3	0.00e+00	0	27	0	2215641088	54	3969
2026-01-14 02:36:23.38	70.27	74.31	-43.6	-44.6	15.3	0.00e+00	0	27	0	2221932544	53	4017
2026-01-14 02:36:24.39	71.67	74.64	-43.6	-44.6	15.2	0.00e+00	0	27	0	2227175424	53	4042
2026-01-14 02:36:25.39	73.12	74.95	-43.9	-44.9	15.2	0.00e+00	0	27	0	2232418304	53	4171
2026-01-14 02:36:26.40	74.65	75.26	-43.6	-44.6	15.3	0.00e+00	0	27	0	2238709760	53	4011
2026-01-14 02:36:27.41	76.24	75.56	-43.4	-44.4	15.3	0.00e+00	0	27	0	2243952640	53	3925
2026-01-14 02:36:28.42	77.90	75.85	-43.3	-44.3	15.3	0.00e+00	0	27	0	2250244096	53	3884
2026-01-14 02:36:29.43	79.63	76.13	-43.5	-44.5	15.3	0.00e+00	0	27	0	2255486976	53	3976
2026-01-14 02:36:30.44	81.44	76.40	-43.5	-44.5	15.3	0.00e+00	0	27	0	2261778432	53	3998
2026-01-14 02:36:31.45	83.31	76.65	-43.5	-44.6	15.3	0.00e+00	0	27	0	2267021312	53	4005
2026-01-14 02:36:32.46	85.26	76.89	-43.6	-44.6	15.3	0.00e+00	0	27	0	2273312768	53	4016
2026-01-14 02:36:33.47	87.28	77.11	-43.5	-44.5	15.3	0.00e+00	0	27	0	2278555648	53	3983
2026-01-14 02:36:34.48	89.37	77.32	-43.2	-44.2	15.4	0.00e+00	0	27	0	2283798528	53	3850
2026-01-14 02:36:35.48	91.51	77.51	-43.2	-44.2	15.2	0.00e+00	0	27	0	2290089984	52	4076
2026-01-14 02:36:36.49	93.73	77.68	-43.4	-44.4	15.2	0.00e+00	0	27	0	2295332864	52	4150
2026-01-14 02:36:37.50	96.02	77.84	-43.2	-44.1	15.2	0.00e+00	0	28	0	2301624320	52	4047
2026-01-14 02:36:38.51	98.36	77.98	-43.3	-44.3	15.2	0.00e+00	0	27	0	2306867200	52	4100
2026-01-14 02:36:39.52	100.76	78.09	-43.7	-44.7	15.2	0.00e+00	0	27	0	2312110080	52	4334
2026-01-14 02:36:40.53	103.20	78.19	-43.7	-44.8	15.2	0.00e+00	0	27	0	2318401536	52	4355
2026-01-14 02:36:41.54	105.67	78.27	-43.6	-44.6	15.2	0.00e+00	0	27	0	2323644416	52	4283
2026-01-14 02:36:42.55	108.18	78.32	-43.3	-44.3	15.2	0.00e+00	0	27	0	2328887296	52	4099
2026-01-14 02:36:43.56	110.70	78.35	-43.3	-44.3	15.2	0.00e+00	0	27	0	2335178752	52	4126
2026-01-14 02:36:44.56	113.21	78.36	-43.4	-44.4	15.2	0.00e+00	0	27	0	2340421632	52	4151
2026-01-14 02:36:45.57	115.74	78.35	-43.3	-44.3	15.2	0.00e+00	0	27	0	2346713088	52	4113
2026-01-14 02:36:46.58	118.26	78.31	-43.1	-44.1	15.3	0.00e+00	0	27	0	2351955968	52	4027
2026-01-14 02:36:47.59	120.77	78.26	-43.3	-44.3	15.2	0.00e+00	0	27	0	2358247424	52	4124
2026-01-14 02:36:48.59	123.21	78.18	-43.4	-44.4	15.2	0.00e+00	0	27	0	2363490304	52	4166
2026-01-14 02:36:49.60	125.65	78.08	-43.2	-44.2	15.2	0.00e+00	0	27	0	2369781760	52	4086
2026-01-14 02:36:50.61	128.04	77.96	-43.3	-44.3	15.2	0.00e+00	0	27	0	2375024640	52	4111
2026-01-14 02:36:51.62	130.38	77.83	-43.3	-44.3	15.2	0.00e+00	0	27	0	2380267520	52	4112
2026-01-14 02:36:52.63	132.66	77.67	-43.3	-44.3	15.2	0.00e+00	0	27	0	2386558976	52	4137
2026-01-14 02:36:53.64	134.88	77.49	-43.3	-44.2	15.2	0.00e+00	0	27	0	2391801856	52	4097
2026-01-14 02:36:54.64	137.01	77.30	-43.3	-44.3	15.2	0.00e+00	0	28	0	2397044736	52	4129
2026-01-14 02:36:55.65	139.10	77.09	-43.4	-44.4	15.2	0.00e+00	0	27	0	2403336192	52	4175
2026-01-14 02:36:56.66	141.11	76.86	-43.2	-44.2	15.2	0.00e+00	0	27	0	2408579072	52	4071
2026-01-14 02:36:57.67	143.05	76.62	-43.2	-44.1	15.2	0.00e+00	0	27	0	2414870528	52	4037
2026-01-14 02:36:58.68	144.92	76.37	-43.2	-44.2	15.2	0.00e+00	0	27	0	2420113408	52	4073
2026-01-14 02:36:59.69	146.72	76.10	-43.4	-44.3	15.2	0.00e+00	0	27	0	2425356288	52	4142
2026-01-14 02:37:00.66	148.38	75.83	-43.5	-44.5	15.2	0.00e+00	0	27	0	2431647744	52	4201
2026-01-14 02:37:01.67	150.04	75.54	-43.5	-44.5	15.2	0.00e+00	0	27	0	2436890624	52	4210
2026-01-14 02:37:02.68	151.63	75.24	-43.5	-44.5	15.2	0.00e+00	0	27	0	2443182080	52	4206
2026-01-14 02:37:03.69	153.15	74.93	-43.8	-44.9	15.2	0.00e+00	0	27	0	2448424960	52	4406
2026-01-14 02:37:04.70	154.61	74.61	-44.0	-45.0	15.2	0.00e+00	0	28	0	2453667840	53	4242
2026-01-14 02:37:05.71	156.00	74.28	-43.9	-44.9	15.2	0.00e+00	0	27	0	2459959296	53	4172
2026-01-14 02:37:06.72	157.34	73.95	-44.2	-45.2	15.1	0.00e+00	0	27	0	2465202176	53	4302
2026-01-14 02:37:07.73	158.62	73.60	-44.3	-45.3	15.1	0.00e+00	0	27	0	2471493632	53	4378
2026-01-14 02:37:08.74	159.84	73.26	-44.2	-45.3	15.1	0.00e+00	0	27	0	2476736512	53	4347
2026-01-14 02:37:09.75	161.01	72.90	-44.5	-45.5	15.2	0.00e+00	0	27	0	2481979392	54	4222
2026-01-14 02:37:10.75	162.12	72.54	-44.5	-45.5	15.2	0.00e+00	0	27	0	2488270848	54	4229
2026-01-14 02:37:11.76	163.20	72.18	-44.7	-45.7	15.1	0.00e+00	0	27	0	2493513728	54	4318
2026-01-14 02:37:12.77	164.22	71.81	-44.9	-46.0	15.1	0.00e+00	0	27	0	2499805184	55	4214
2026-01-14 02:37:13.78	165.21	71.44	-44.8	-45.8	15.2	0.00e+00	0	27	0	2505048064	55	4130
2026-01-14 02:37:14.78	166.14	71.06	-44.7	-45.8	15.2	0.00e+00	0	27	0	2510290944	55	4099
2026-01-14 02:37:15.79	167.05	70.68	-44.8	-45.9	15.2	0.00e+00	0	27	0	2516582400	55	4168
2026-01-14 02:37:16.80	167.92	70.30	-44.7	-45.8	15.2	0.00e+00	0	27	0	2521825280	55	4108
2026-01-14 02:37:17.81	168.75	69.91	-44.5	-45.5	15.2	0.00e+00	0	27	0	2528116736	55	3973
2026-01-14 02:37:18.83	169.56	69.52	-44.6	-45.7	15.2	0.00e+00	0	27	0	2533359616	55	4056
2026-01-14 02:37:19.84	170.32	69.13	-44.9	-46.0	15.2	0.00e+00	0	27	0	2539651072	55	4195
2026-01-14 02:37:20.84	171.05	68.75	-45.0	-46.0	15.1	0.00e+00	0	27	0	2544893952	55	4238
2026-01-14 02:37:21.86	171.77	68.35	-45.0	-46.1	15.1	0.00e+00	0	27	0	2551185408	55	4252
2026-01-14 02:37:22.86	172.44	67.96	-44.7	-45.8	15.2	0.00e+00	0	27	0	2556428288	55	4100
2026-01-14 02:37:23.87	173.10	67.56	-44.7	-45.7	15.2	0.00e+00	0	27	0	2561671168	55	4077
2026-01-14 02:37:24.88	173.73	67.17	-44.7	-45.7	15.2	0.00e+00	0	27	0	2567962624	55	4088
2026-01-14 02:37:25.90	174.34	66.77	-44.7	-45.7	15.2	0.00e+00	0	27	0	2573205504	55	4087
2026-01-14 02:37:26.91	174.93	66.37	-44.7	-45.7	15.2	0.00e+00	0	27	0	2579496960	55	4091
2026-01-14 02:37:27.91	175.49	65.98	-44.8	-45.8	15.2	0.00e+00	0	27	0	2584739840	55	4120
2026-01-14 02:37:28.92	176.03	65.58	-44.5	-45.5	15.2	0.00e+00	0	27	0	2589982720	55	3992
2026-01-14 02:37:29.93	176.56	65.19	-44.6	-45.6	15.2	0.00e+00	0	27	0	2596274176	55	4011
2026-01-14 02:37:30.94	177.07	64.79	-44.5	-45.5	15.2	0.00e+00	0	27	0	2601517056	55	3982
2026-01-14 02:37:31.95	177.56	64.39	-44.6	-45.6	15.2	0.00e+00	0	27	0	2607808512	55	4014
2026-01-14 02:37:32.96	178.03	64.00	-44.6	-45.6	15.2	0.00e+00	0	27	0	2613051392	55	4050
2026-01-14 02:37:33.98	178.49	63.60	-44.6	-45.6	15.2	0.00e+00	0	27	0	2618294272	55	4015
2026-01-14 02:37:34.99	178.93	63.21	-44.7	-45.7	15.2	0.00e+00	0	27	0	2624585728	55	4092
2026-01-14 02:37:35.99	179.36	62.82	-44.8	-45.9	15.2	0.00e+00	0	27	0	2629828608	55	4156
2026-01-14 02:37:37.00	179.77	62.42	-44.9	-46.0	15.2	0.00e+00	0	27	0	2636120064	55	4202
2026-01-14 02:37:38.01	180.17	62.03	-45.1	-46.1	15.1	0.00e+00	0	27	0	2641362944	55	4291
2026-01-14 02:37:39.02	180.56	61.64	-45.1	-46.2	15.1	0.00e+00	0	27	0	2647654400	55	4298
2026-01-14 02:37:40.03	180.94	61.25	-45.3	-46.3	15.1	0.00e+00	0	27	0	2652897280	55	4378
2026-01-14 02:37:41.04	181.31	60.86	-45.6	-46.7	15.1	0.00e+00	0	28	0	2658140160	56	4296
2026-01-14 02:37:42.05	181.66	60.48	-45.8	-46.9	15.0	0.00e+00	0	27	0	2664431616	56	4412
2026-01-14 02:37:43.06	182.01	60.09	-46.0	-47.0	15.1	0.00e+00	0	27	0	2669674496	57	4238
2026-01-14 02:37:44.06	182.34	59.71	-46.0	-47.1	15.0	0.00e+00	0	27	0	2675965952	57	4281
2026-01-14 02:37:45.07	182.66	59.33	-46.1	-47.2	15.0	0.00e+00	0	27	0	2681208832	57	4298
2026-01-14 02:37:46.08	182.98	58.95	-46.3	-47.4	15.0	0.00e+00	0	27	0	2686451712	57	4401
2026-01-14 02:37:47.09	183.29	58.57	-46.3	-47.4	15.0	0.00e+00	0	27	0	2692743168	57	4406
2026-01-14 02:37:48.10	183.58	58.19	-46.3	-47.4	15.0	0.00e+00	0	27	0	2697986048	57	4411
2026-01-14 02:37:49.11	183.87	57.82	-46.1	-47.2	15.0	0.00e+00	0	27	0	2704277504	57	4310
2026-01-14 02:37:50.12	184.16	57.45	-45.9	-47.0	15.1	0.00e+00	0	27	0	2709520384	57	4204
2026-01-14 02:37:51.13	184.43	57.07	-46.1	-47.2	15.0	0.00e+00	0	27	0	2714763264	57	4294
2026-01-14 02:37:52.14	184.70	56.70	-46.3	-47.4	15.0	0.00e+00	0	27	0	2721054720	57	4439
2026-01-14 02:37:53.14	184.96	56.34	-46.4	-47.5	15.0	0.00e+00	0	27	0	2726297600	58	4238
2026-01-14 02:37:54.15	185.21	55.97	-46.4	-47.5	15.1	0.00e+00	0	27	0	2732589056	58	4217
2026-01-14 02:37:55.16	185.46	55.61	-46.5	-47.5	15.0	0.00e+00	0	27	0	2737831936	58	4229
2026-01-14 02:37:56.17	185.70	55.25	-46.3	-47.4	15.1	0.00e+00	0	27	0	2744123392	58	4169
2026-01-14 02:37:57.18	185.94	54.88	-46.2	-47.3	15.1	0.00e+00	0	27	0	2749366272	58	4125
2026-01-14 02:37:58.19	186.17	54.53	-46.3	-47.4	15.1	0.00e+00	0	27	0	2754609152	58	4178
2026-01-14 02:37:59.20	186.39	54.17	-46.5	-47.6	15.0	0.00e+00	0	27	0	2760900608	58	4254
2026-01-14 02:38:00.21	186.61	53.82	-46.3	-47.4	15.1	0.00e+00	0	27	0	2766143488	58	4166
2026-01-14 02:38:01.21	186.82	53.47	-46.2	-47.2	15.1	0.00e+00	0	27	0	2772434944	58	4079
2026-01-14 02:38:02.22	187.03	53.12	-46.3	-47.3	15.1	0.00e+00	0	27	0	2777677824	58	4143
2026-01-14 02:38:03.23	187.23	52.77	-46.3	-47.4	15.1	0.00e+00	0	27	0	2782920704	58	4180
2026-01-14 02:38:04.24	187.43	52.42	-46.4	-47.5	15.0	0.00e+00	0	27	0	2789212160	58	4234
2026-01-14 02:38:05.25	187.63	52.08	-46.3	-47.3	15.1	0.00e+00	0	27	0	2794455040	58	4139
2026-01-14 02:38:06.26	187.82	51.73	-46.0	-47.0	15.2	0.00e+00	0	27	0	2800746496	58	3997
2026-01-14 02:38:07.27	188.00	51.39	-45.9	-46.9	15.2	0.00e+00	0	27	0	2805989376	58	3951
2026-01-14 02:38:08.28	188.18	51.06	-45.9	-47.0	15.2	0.00e+00	0	27	0	2811232256	58	3963
2026-01-14 02:38:09.29	188.36	50.72	-46.2	-47.2	15.1	0.00e+00	0	27	0	2817523712	58	4087
2026-01-14 02:38:10.30	188.54	50.39	-46.3	-47.4	15.1	0.00e+00	0	27	0	2822766592	58	4162
2026-01-14 02:38:11.30	188.70	50.06	-46.4	-47.5	15.1	0.00e+00	0	27	0	2829058048	58	4226
2026-01-14 02:38:12.31	188.87	49.73	-46.3	-47.4	15.1	0.00e+00	0	27	0	2834300928	58	4161
2026-01-14 02:38:13.32	189.03	49.40	-46.0	-47.1	15.2	0.00e+00	0	27	0	2840592384	58	4020
2026-01-14 02:38:14.33	189.19	49.08	-45.8	-46.8	15.3	0.00e+00	0	27	0	2845835264	58	3901
2026-01-14 02:38:15.34	189.35	48.76	-45.8	-46.9	15.2	0.00e+00	0	27	0	2851078144	58	3923
2026-01-14 02:38:16.35	189.50	48.43	-45.6	-46.6	15.2	0.00e+00	0	27	0	2857369600	57	4047
2026-01-14 02:38:17.36	189.66	48.12	-45.4	-46.4	15.3	0.00e+00	0	27	0	2862612480	57	3938
2026-01-14 02:38:18.36	189.80	47.80	-45.4	-46.5	15.2	0.00e+00	0	27	0	2868903936	57	3968
2026-01-14 02:38:19.38	189.95	47.49	-45.5	-46.6	15.2	0.00e+00	0	27	0	2874146816	57	4016
2026-01-14 02:38:20.38	190.09	47.18	-45.6	-46.6	15.2	0.00e+00	0	27	0	2879389696	57	4030
2026-01-14 02:38:21.39	190.23	46.87	-45.4	-46.5	15.2	0.00e+00	0	27	0	2885681152	57	3959
2026-01-14 02:38:22.39	190.36	46.56	-45.3	-46.3	15.3	0.00e+00	0	27	0	2890924032	57	3902
2026-01-14 02:38:23.40	190.50	46.25	-45.3	-46.4	15.2	0.00e+00	0	27	0	2897215488	57	3919
2026-01-14 02:38:24.41	190.63	45.95	-45.3	-46.3	15.3	0.00e+00	0	27	0	2902458368	57	3908
2026-01-14 02:38:25.41	190.76	45.65	-45.3	-46.2	15.3	0.00e+00	0	27	0	2907701248	57	3863
2026-01-14 02:38:26.42	190.88	45.35	-45.3	-46.3	15.3	0.00e+00	0	27	0	2913992704	57	3907
2026-01-14 02:38:27.43	191.01	45.05	-45.4	-46.5	15.2	0.00e+00	0	27	0	2919235584	57	3964
2026-01-14 02:38:28.44	191.13	44.76	-45.5	-46.6	15.2	0.00e+00	0	28	0	2925527040	57	4009
2026-01-14 02:38:29.45	191.25	44.47	-45.5	-46.6	15.2	0.00e+00	0	27	0	2930769920	57	4016
2026-01-14 02:38:30.47	191.37	44.17	-45.4	-46.5	15.2	0.00e+00	0	27	0	2937061376	57	3970
2026-01-14 02:38:31.48	191.49	43.88	-45.5	-46.6	15.2	0.00e+00	0	27	0	2942304256	57	4013
2026-01-14 02:38:32.49	191.60	43.59	-45.4	-46.4	15.2	0.00e+00	0	27	0	2947547136	57	3938
2026-01-14 02:38:33.49	191.71	43.31	-45.3	-46.3	15.3	0.00e+00	0	27	0	2953838592	57	3883
2026-01-14 02:38:34.50	191.82	43.03	-45.3	-46.4	15.3	0.00e+00	0	27	0	2959081472	57	3930
2026-01-14 02:38:35.51	191.93	42.75	-45.4	-46.5	15.2	0.00e+00	0	27	0	2965372928	57	3972
2026-01-14 02:38:36.52	192.04	42.47	-45.4	-46.4	15.3	0.00e+00	0	27	0	2970615808	57	3934
2026-01-14 02:38:37.53	192.14	42.19	-45.4	-46.5	15.2	0.00e+00	0	27	0	2975858688	57	3960
2026-01-14 02:38:38.54	192.24	41.92	-45.3	-46.4	15.3	0.00e+00	0	28	0	2982150144	57	3922
2026-01-14 02:38:39.55	192.34	41.64	-45.3	-46.4	15.3	0.00e+00	0	27	0	2987393024	57	3920
2026-01-14 02:38:40.55	192.44	41.37	-45.3	-46.3	15.3	0.00e+00	0	27	0	2993684480	57	3881
2026-01-14 02:38:41.56	192.54	41.10	-45.3	-46.3	15.3	0.00e+00	0	27	0	2998927360	57	3888
2026-01-14 02:38:42.57	192.64	40.84	-45.2	-46.2	15.2	0.00e+00	0	28	0	3004170240	56	4070
2026-01-14 02:38:43.58	192.73	40.57	-45.1	-46.2	15.2	0.00e+00	0	27	0	3010461696	56	4053
2026-01-14 02:38:44.59	192.83	40.31	-45.1	-46.1	15.2	0.00e+00	0	27	0	3015704576	56	4036
2026-01-14 02:38:45.60	192.92	40.04	-45.1	-46.1	15.2	0.00e+00	0	27	0	3021996032	56	4035
2026-01-14 02:38:46.61	193.01	39.78	-45.1	-46.1	15.2	0.00e+00	0	27	0	3027238912	56	4033
2026-01-14 02:38:47.62	193.10	39.53	-45.1	-46.1	15.2	0.00e+00	0	27	0	3033530368	56	4045
2026-01-14 02:38:48.63	193.19	39.27	-45.0	-46.1	15.2	0.00e+00	0	27	0	3038773248	56	4006
2026-01-14 02:38:49.64	193.27	39.01	-45.0	-46.0	15.2	0.00e+00	0	27	0	3044016128	56	3984
2026-01-14 02:38:50.65	193.36	38.76	-45.0	-46.0	15.2	0.00e+00	0	27	0	3050307584	56	3975
2026-01-14 02:38:51.65	193.44	38.51	-44.9	-46.0	15.2	0.00e+00	0	27	0	3055550464	56	3969
2026-01-14 02:38:52.67	193.53	38.26	-44.9	-45.9	15.3	0.00e+00	0	27	0	3061841920	56	3924
2026-01-14 02:38:53.68	193.61	38.01	-44.8	-45.8	15.3	0.00e+00	0	27	0	3067084800	56	3886
2026-01-14 02:38:54.68	193.69	37.77	-44.8	-45.9	15.3	0.00e+00	0	27	0	3072327680	56	3919
2026-01-14 02:38:55.68	193.77	37.53	-45.0	-46.0	15.3	0.00e+00	0	27	0	3078619136	56	3978
2026-01-14 02:38:56.69	193.84	37.29	-44.8	-45.9	15.3	0.00e+00	0	27	0	3083862016	56	3922
2026-01-14 02:38:57.70	193.92	37.05	-44.9	-45.9	15.3	0.00e+00	0	27	0	3090153472	56	3928
2026-01-14 02:38:58.71	194.00	36.81	-44.8	-45.8	15.3	0.00e+00	0	27	0	3095396352	56	3901
2026-01-14 02:38:59.72	194.07	36.57	-44.8	-45.8	15.3	0.00e+00	0	27	0	3100639232	56	3886
2026-01-14 02:39:00.73	194.15	36.33	-45.0	-45.9	15.2	0.00e+00	0	27	0	3106930688	56	3958
2026-01-14 02:39:01.73	194.22	36.10	-44.9	-45.9	15.2	0.00e+00	0	27	0	3112173568	56	3941
2026-01-14 02:39:02.74	194.29	35.87	-44.9	-45.9	15.3	0.00e+00	0	27	0	3117416448	56	3951
2026-01-14 02:39:03.75	194.36	35.64	-45.0	-46.1	15.2	0.00e+00	0	27	0	3123707904	56	4009
2026-01-14 02:39:04.76	194.43	35.41	-45.1	-46.2	15.2	0.00e+00	0	27	0	3128950784	56	4067
2026-01-14 02:39:05.78	194.50	35.18	-45.2	-46.3	15.2	0.00e+00	0	27	0	3135242240	56	4125
2026-01-14 02:39:06.78	194.57	34.96	-45.4	-46.4	15.1	0.00e+00	0	27	0	3140485120	56	4190
2026-01-14 02:39:07.80	194.64	34.73	-45.3	-46.4	15.1	0.00e+00	0	27	0	3146776576	56	4183
2026-01-14 02:39:08.80	194.71	34.51	-45.4	-46.4	15.1	0.00e+00	0	27	0	3152019456	56	4191
2026-01-14 02:39:09.82	194.77	34.29	-45.3	-46.3	15.2	0.00e+00	0	27	0	3158310912	56	4144
2026-01-14 02:39:10.83	194.84	34.07	-45.2	-46.3	15.2	0.00e+00	0	28	0	3163553792	56	4116
2026-01-14 02:39:11.83	194.90	33.85	-45.3	-46.3	15.1	0.00e+00	0	27	0	3168796672	56	4118
2026-01-14 02:39:12.84	194.96	33.63	-45.3	-46.3	15.1	0.00e+00	0	27	0	3175088128	56	4126
2026-01-14 02:39:13.85	195.03	33.42	-45.1	-46.1	15.2	0.00e+00	0	27	0	3180331008	56	4041
2026-01-14 02:39:14.85	195.09	33.21	-45.1	-46.1	15.2	0.00e+00	0	27	0	3186622464	56	4033
2026-01-14 02:39:15.86	195.15	32.99	-45.2	-46.2	15.1	0.00e+00	0	27	0	3191865344	56	4080
2026-01-14 02:39:16.87	195.21	32.78	-45.1	-46.1	15.2	0.00e+00	0	28	0	3197108224	56	4038
2026-01-14 02:39:17.88	195.27	32.57	-45.0	-46.0	15.2	0.00e+00	0	27	0	3203399680	56	3987
2026-01-14 02:39:18.89	195.33	32.37	-45.1	-46.1	15.2	0.00e+00	0	28	0	3208642560	56	4027
2026-01-14 02:39:19.90	195.39	32.16	-45.1	-46.1	15.2	0.00e+00	0	27	0	3214934016	56	4051
2026-01-14 02:39:20.91	195.44	31.95	-45.2	-46.2	15.2	0.00e+00	0	27	0	3220176896	56	4073
2026-01-14 02:39:21.92	195.50	31.75	-45.3	-46.3	15.1	0.00e+00	0	27	0	3225419776	56	4145
2026-01-14 02:39:22.93	195.56	31.55	-45.3	-46.3	15.1	0.00e+00	0	27	0	3231711232	56	4129
2026-01-14 02:39:23.94	195.61	31.35	-45.4	-46.5	15.1	0.00e+00	0	27	0	3236954112	56	4199
2026-01-14 02:39:24.95	195.67	31.15	-45.5	-46.5	15.1	0.00e+00	0	27	0	3243245568	56	4229
2026-01-14 02:39:25.96	195.72	30.95	-45.4	-46.5	15.1	0.00e+00	0	27	0	3248488448	56	4219
2026-01-14 02:39:26.96	195.78	30.75	-45.5	-46.6	15.1	0.00e+00	0	27	0	3254779904	56	4254
2026-01-14 02:39:27.97	195.83	30.56	-45.5	-46.5	15.1	0.00e+00	0	27	0	3260022784	56	4231
2026-01-14 02:39:28.99	195.88	30.36	-45.5	-46.5	15.1	0.00e+00	0	27	0	3265265664	56	4238
2026-01-14 02:39:30.00	195.93	30.17	-45.5	-46.6	15.1	0.00e+00	0	27	0	3271557120	56	4250
2026-01-14 02:39:31.00	195.98	29.98	-45.5	-46.5	15.1	0.00e+00	0	27	0	3276800000	56	4241
2026-01-14 02:39:32.01	196.04	29.79	-45.5	-46.5	15.1	0.00e+00	0	27	0	3283091456	56	4241
2026-01-14 02:39:33.03	196.09	29.60	-45.4	-46.5	15.1	0.00e+00	0	27	0	3288334336	56	4213
2026-01-14 02:39:34.04	196.14	29.41	-45.5	-46.6	15.1	0.00e+00	0	27	0	3293577216	56	4248
2026-01-14 02:39:35.05	196.19	29.22	-45.5	-46.5	15.1	0.00e+00	0	27	0	3299868672	56	4211
2026-01-14 02:39:36.05	196.23	29.04	-45.5	-46.6	15.1	0.00e+00	0	27	0	3305111552	56	4247
2026-01-14 02:39:37.05	196.28	28.85	-45.4	-46.5	15.1	0.00e+00	0	27	0	3311403008	56	4208
2026-01-14 02:39:38.06	196.33	28.67	-45.5	-46.6	15.1	0.00e+00	0	27	0	3316645888	56	4268
2026-01-14 02:39:39.07	196.38	28.49	-45.5	-46.6	15.1	0.00e+00	0	27	0	3321888768	56	4265
2026-01-14 02:39:40.08	196.42	28.31	-45.6	-46.7	15.0	0.00e+00	0	27	0	3328180224	56	4306
2026-01-14 02:39:41.09	196.47	28.13	-45.5	-46.6	15.1	0.00e+00	0	27	0	3333423104	56	4260
2026-01-14 02:39:42.10	196.51	27.95	-45.6	-46.7	15.1	0.00e+00	0	27	0	3339714560	56	4294
2026-01-14 02:39:43.11	196.56	27.77	-45.4	-46.5	15.1	0.00e+00	0	27	0	3344957440	56	4225
2026-01-14 02:39:44.11	196.60	27.60	-45.4	-46.5	15.1	0.00e+00	0	27	0	3351248896	56	4229
2026-01-14 02:39:45.12	196.65	27.42	-45.6	-46.7	15.1	0.00e+00	0	27	0	3356491776	56	4301
2026-01-14 02:39:46.13	196.69	27.25	-45.5	-46.5	15.1	0.00e+00	0	27	0	3361734656	56	4227
2026-01-14 02:39:47.14	196.74	27.07	-45.5	-46.6	15.1	0.00e+00	0	27	0	3368026112	56	4250
2026-01-14 02:39:48.15	196.78	26.90	-45.4	-46.4	15.1	0.00e+00	0	27	0	3373268992	56	4174
2026-01-14 02:39:49.16	196.82	26.73	-45.3	-46.4	15.1	0.00e+00	0	27	0	3379560448	56	4153
2026-01-14 02:39:50.17	196.86	26.56	-45.3	-46.3	15.1	0.00e+00	0	27	0	3384803328	56	4133
2026-01-14 02:39:51.18	196.91	26.39	-45.3	-46.3	15.1	0.00e+00	0	27	0	3390046208	56	4117
2026-01-14 02:39:52.18	196.95	26.22	-45.3	-46.4	15.1	0.00e+00	0	27	0	3396337664	56	4146
2026-01-14 02:39:53.19	196.99	26.06	-45.3	-46.3	15.1	0.00e+00	0	27	0	3401580544	56	4128
2026-01-14 02:39:54.20	197.03	25.89	-45.3	-46.3	15.1	0.00e+00	0	27	0	3407872000	56	4130
2026-01-14 02:39:55.21	197.07	25.73	-45.3	-46.4	15.1	0.00e+00	0	27	0	3413114880	56	4150
2026-01-14 02:39:56.22	197.11	25.56	-45.3	-46.4	15.1	0.00e+00	0	27	0	3418357760	56	4156
2026-01-14 02:39:57.23	197.15	25.40	-45.4	-46.5	15.1	0.00e+00	0	27	0	3424649216	56	4215
2026-01-14 02:39:58.24	197.19	25.24	-45.5	-46.6	15.1	0.00e+00	0	27	0	3429892096	56	4257
2026-01-14 02:39:59.26	197.23	25.08	-45.5	-46.6	15.1	0.00e+00	0	27	0	3436183552	56	4268
2026-01-14 02:40:00.26	197.27	24.92	-45.6	-46.7	15.1	0.00e+00	0	27	0	3441426432	56	4300
2026-01-14 02:40:01.27	197.30	24.76	-45.7	-46.8	15.0	0.00e+00	0	27	0	3447717888	56	4353
2026-01-14 02:40:02.28	197.34	24.60	-45.8	-46.9	15.0	0.00e+00	0	27	0	3452960768	56	4397
2026-01-14 02:40:03.29	197.38	24.44	-45.9	-47.0	15.0	0.00e+00	0	27	0	3458203648	56	4449
2026-01-14 02:40:04.30	197.42	24.29	-45.9	-47.0	15.0	0.00e+00	0	27	0	3464495104	56	4469
2026-01-14 02:40:05.31	197.45	24.13	-45.9	-47.0	15.1	0.00e+00	0	27	0	3469737984	57	4225
2026-01-14 02:40:06.33	197.49	23.98	-46.0	-47.1	15.0	0.00e+00	0	27	0	3476029440	57	4246
2026-01-14 02:40:07.33	197.53	23.82	-46.0	-47.1	15.0	0.00e+00	0	27	0	3481272320	57	4262
2026-01-14 02:40:08.34	197.56	23.67	-46.0	-47.1	15.0	0.00e+00	0	27	0	3486515200	57	4286
2026-01-14 02:40:09.35	197.60	23.52	-46.0	-47.1	15.0	0.00e+00	0	27	0	3492806656	57	4281
2026-01-14 02:40:10.36	197.63	23.37	-46.2	-47.3	15.0	0.00e+00	0	28	0	3498049536	57	4351
2026-01-14 02:40:11.37	197.67	23.22	-46.1	-47.2	15.0	0.00e+00	0	27	0	3504340992	57	4327
2026-01-14 02:40:12.38	197.70	23.07	-46.0	-47.1	15.0	0.00e+00	0	27	0	3509583872	57	4291
2026-01-14 02:40:13.39	197.74	22.92	-46.0	-47.1	15.0	0.00e+00	0	27	0	3514826752	57	4281
2026-01-14 02:40:14.40	197.77	22.77	-46.1	-47.1	15.0	0.00e+00	0	27	0	3521118208	57	4288
2026-01-14 02:40:15.41	197.80	22.63	-46.2	-47.3	15.0	0.00e+00	0	28	0	3526361088	57	4348
2026-01-14 02:40:16.42	197.84	22.48	-46.2	-47.3	15.0	0.00e+00	0	27	0	3532652544	57	4379
2026-01-14 02:40:17.43	197.87	22.34	-46.1	-47.2	15.0	0.00e+00	0	27	0	3537895424	57	4318
2026-01-14 02:40:18.44	197.90	22.19	-46.1	-47.2	15.0	0.00e+00	0	27	0	3544186880	57	4296
2026-01-14 02:40:19.45	197.94	22.05	-46.0	-47.1	15.0	0.00e+00	0	27	0	3549429760	57	4271
2026-01-14 02:40:20.46	197.97	21.91	-46.1	-47.2	15.0	0.00e+00	0	27	0	3555721216	57	4312
2026-01-14 02:40:21.47	198.00	21.77	-46.1	-47.2	15.0	0.00e+00	0	27	0	3560964096	57	4329
2026-01-14 02:40:22.48	198.03	21.63	-46.1	-47.2	15.0	0.00e+00	0	27	0	3566206976	57	4309
2026-01-14 02:40:23.49	198.06	21.48	-46.1	-47.2	15.0	0.00e+00	0	27	0	3572498432	57	4333
2026-01-14 02:40:24.50	198.10	21.35	-46.1	-47.2	15.0	0.00e+00	0	27	0	3577741312	57	4331
2026-01-14 02:40:25.50	198.13	21.21	-46.2	-47.3	15.0	0.00e+00	0	27	0	3584032768	57	4345
2026-01-14 02:40:26.52	198.16	21.07	-46.2	-47.3	15.0	0.00e+00	0	27	0	3589275648	57	4381
2026-01-14 02:40:27.53	198.19	20.93	-46.2	-47.3	15.0	0.00e+00	0	27	0	3594518528	57	4362
2026-01-14 02:40:28.54	198.22	20.80	-46.3	-47.4	15.0	0.00e+00	0	27	0	3600809984	57	4398
2026-01-14 02:40:29.55	198.25	20.66	-46.4	-47.5	14.9	0.00e+00	0	27	0	3606052864	57	4462
2026-01-14 02:40:30.56	198.28	20.52	-46.5	-47.6	15.0	0.00e+00	0	27	0	3612344320	58	4262
2026-01-14 02:40:31.57	198.31	20.39	-46.5	-47.6	15.0	0.00e+00	0	27	0	3617587200	58	4289
2026-01-14 02:40:32.58	198.34	20.26	-46.5	-47.6	15.0	0.00e+00	0	27	0	3622830080	58	4251
2026-01-14 02:40:33.59	198.37	20.12	-46.5	-47.6	15.0	0.00e+00	0	27	0	3629121536	58	4285
2026-01-14 02:40:34.60	198.40	19.99	-46.4	-47.5	15.0	0.00e+00	0	27	0	3634364416	58	4238
2026-01-14 02:40:35.61	198.42	19.86	-46.5	-47.6	15.0	0.00e+00	0	27	0	3640655872	58	4247
2026-01-14 02:40:36.62	198.45	19.73	-46.5	-47.6	15.0	0.00e+00	0	27	0	3645898752	58	4290
2026-01-14 02:40:37.63	198.48	19.60	-46.6	-47.7	14.9	0.00e+00	0	27	0	3652190208	58	4333
2026-01-14 02:40:38.64	198.51	19.47	-46.6	-47.7	14.9	0.00e+00	0	27	0	3657433088	58	4329
2026-01-14 02:40:39.64	198.54	19.34	-46.6	-47.7	15.0	0.00e+00	0	28	0	3662675968	58	4324
2026-01-14 02:40:40.65	198.57	19.22	-46.6	-47.7	14.9	0.00e+00	0	27	0	3668967424	58	4339
2026-01-14 02:40:41.66	198.59	19.09	-46.6	-47.8	14.9	0.00e+00	0	27	0	3674210304	58	4349
2026-01-14 02:40:42.67	198.62	18.96	-46.8	-47.9	14.9	0.00e+00	0	28	0	3680501760	58	4429
2026-01-14 02:40:43.68	198.65	18.83	-46.8	-47.9	14.9	0.00e+00	0	27	0	3685744640	58	4430
2026-01-14 02:40:44.69	198.67	18.71	-46.8	-48.0	14.9	0.00e+00	0	27	0	3690987520	58	4457
2026-01-14 02:40:45.69	198.70	18.59	-46.9	-48.0	14.9	0.00e+00	0	27	0	3697278976	58	4471
2026-01-14 02:40:46.70	198.73	18.46	-47.0	-48.1	14.9	0.00e+00	0	27	0	3702521856	59	4270
2026-01-14 02:40:47.71	198.75	18.34	-47.0	-48.1	14.9	0.00e+00	0	27	0	3708813312	59	4290
2026-01-14 02:40:48.72	198.78	18.21	-47.0	-48.2	14.9	0.00e+00	0	27	0	3714056192	59	4301
2026-01-14 02:40:49.73	198.81	18.09	-47.1	-48.3	14.9	0.00e+00	0	27	0	3719299072	59	4353
2026-01-14 02:40:50.73	198.83	17.97	-47.1	-48.2	14.9	0.00e+00	0	27	0	3725590528	59	4325
2026-01-14 02:40:51.74	198.86	17.85	-47.1	-48.3	14.9	0.00e+00	0	28	0	3730833408	59	4366
2026-01-14 02:40:52.75	198.88	17.73	-47.2	-48.3	14.9	0.00e+00	0	28	0	3737124864	59	4382
2026-01-14 02:40:53.75	198.91	17.61	-47.2	-48.4	14.8	0.00e+00	0	27	0	3742367744	59	4412
2026-01-14 02:40:54.76	198.93	17.49	-47.3	-48.5	14.8	0.00e+00	0	27	0	3748659200	59	4467
2026-01-14 02:40:55.77	198.96	17.37	-47.3	-48.5	14.8	0.00e+00	0	27	0	3753902080	59	4473
2026-01-14 02:40:56.78	198.98	17.25	-47.3	-48.5	14.8	0.00e+00	0	27	0	3759144960	59	4477
2026-01-14 02:40:57.79	199.01	17.14	-47.4	-48.6	14.8	0.00e+00	0	27	0	3765436416	59	4517
2026-01-14 02:40:58.80	199.03	17.02	-47.1	-48.3	14.9	0.00e+00	0	27	0	3770679296	60	4123
2026-01-14 02:40:59.81	199.06	16.90	-47.1	-48.3	14.9	0.00e+00	0	27	0	3776970752	60	4115
2026-01-14 02:41:00.82	199.08	16.79	-47.2	-48.3	14.9	0.00e+00	0	27	0	3782213632	60	4131
