passes_logs/2026/01/14/R3.2S_Murmansk/R3.2S_Murmansk__20260114_144122_AQUA_rec.log

#Pass ID: 20260114_144122_AQUA
#Satellite: AQUA
#Configuration: AQUA
#almurnet v.1.7.20251203
#Start time: 2026-01-14 14:41:22

#Version: 2.2.20231116
#Station: R3.2S_Murmansk
#Location: 33.079688 lon 68.888172 lat
#TLE: 1 27424U 02022A   26013.85306262  .00000759  00000+0  16188-3 0  9996
#TLE: 2 27424  98.4079 340.2612 0002043  79.8220 301.8652 14.61819210260728

#Time	Az	El	Level	Level2	SNR	BER	BlckErr	Temp	State	Recorded	gain1	gain2
2026-01-14 14:41:22.48	246.80	2.00	-58.1	-77.4	3.8	7.49e-01	0	25	0	0	85	32483
2026-01-14 14:41:23.49	246.92	2.04	-57.9	-77.2	3.8	7.47e-01	0	25	104	0	83	35636
2026-01-14 14:41:24.50	247.04	2.09	-57.9	-77.2	3.8	7.49e-01	0	25	104	0	83	35618
2026-01-14 14:41:25.51	247.16	2.13	-57.9	-77.2	3.8	7.47e-01	0	25	104	0	83	35665
2026-01-14 14:41:26.52	247.28	2.18	-57.9	-77.2	3.8	7.44e-01	0	25	104	0	83	35458
2026-01-14 14:41:27.52	247.39	2.22	-57.9	-77.2	3.8	7.46e-01	0	25	104	0	83	35473
2026-01-14 14:41:28.53	247.51	2.26	-57.9	-77.2	3.8	7.45e-01	0	26	104	0	83	35499
2026-01-14 14:41:29.54	247.63	2.31	-57.9	-77.2	3.8	7.46e-01	0	25	104	0	83	35561
2026-01-14 14:41:30.54	247.75	2.35	-57.9	-77.2	3.8	7.49e-01	0	25	104	0	83	35620
2026-01-14 14:41:31.55	247.87	2.39	-57.9	-77.2	3.8	7.44e-01	0	26	104	0	83	35516
2026-01-14 14:41:32.56	247.99	2.44	-57.8	-77.2	3.8	7.47e-01	0	25	104	0	83	35648
2026-01-14 14:41:33.57	248.12	2.48	-57.9	-77.2	3.8	7.46e-01	0	25	104	0	83	35596
2026-01-14 14:41:34.57	248.24	2.52	-57.9	-77.2	3.8	7.45e-01	0	26	104	0	83	35567
2026-01-14 14:41:35.58	248.36	2.57	-57.9	-77.2	3.8	7.47e-01	0	25	104	0	83	35486
2026-01-14 14:41:36.59	248.48	2.61	-57.9	-77.2	3.8	7.49e-01	0	26	104	0	83	35547
2026-01-14 14:41:37.60	248.61	2.65	-57.9	-77.2	3.8	7.45e-01	0	25	104	0	83	35560
2026-01-14 14:41:38.61	248.73	2.70	-57.9	-77.2	3.8	7.46e-01	0	25	104	0	83	35474
2026-01-14 14:41:39.62	248.85	2.74	-57.9	-77.2	3.8	7.45e-01	0	26	104	0	83	35464
2026-01-14 14:41:40.63	248.98	2.78	-57.9	-77.2	3.8	7.45e-01	0	26	104	0	83	35356
2026-01-14 14:41:41.64	249.10	2.83	-57.9	-77.2	3.8	7.48e-01	0	26	104	0	83	35507
2026-01-14 14:41:42.65	249.23	2.87	-57.9	-77.2	3.8	7.47e-01	0	26	104	0	83	35639
2026-01-14 14:41:43.65	249.35	2.91	-57.9	-77.2	3.8	7.48e-01	0	26	104	0	83	35689
2026-01-14 14:41:44.66	249.48	2.96	-57.9	-77.2	3.9	7.44e-01	0	26	104	0	83	35653
2026-01-14 14:41:45.67	249.60	3.00	-57.9	-77.2	3.8	7.46e-01	0	26	104	0	83	35609
2026-01-14 14:41:46.67	249.73	3.04	-57.9	-77.3	3.8	7.48e-01	0	26	104	0	83	35704
2026-01-14 14:41:47.69	249.86	3.08	-57.9	-77.2	3.8	7.46e-01	0	26	104	0	83	35422
2026-01-14 14:41:48.70	249.98	3.13	-57.9	-77.1	3.8	7.47e-01	0	26	104	0	83	35085
2026-01-14 14:41:49.70	250.11	3.17	-57.9	-77.1	3.8	7.48e-01	0	26	104	0	83	35277
2026-01-14 14:41:50.71	250.24	3.21	-57.9	-77.2	3.8	7.48e-01	0	26	104	0	83	35316
2026-01-14 14:41:51.72	250.37	3.26	-57.9	-77.2	3.8	7.48e-01	0	26	104	0	83	35308
2026-01-14 14:41:52.73	250.49	3.30	-57.9	-77.2	3.8	7.46e-01	0	26	104	0	83	35600
2026-01-14 14:41:53.74	250.62	3.34	-57.9	-77.3	3.8	7.47e-01	0	26	104	0	83	35723
2026-01-14 14:41:54.74	250.75	3.38	-57.9	-77.3	3.8	7.47e-01	0	26	104	0	83	35822
2026-01-14 14:41:55.75	250.88	3.43	-57.9	-77.3	3.8	7.44e-01	0	26	104	0	83	35772
2026-01-14 14:41:56.76	251.01	3.47	-57.9	-77.2	3.8	7.42e-01	0	26	104	0	83	35478
2026-01-14 14:41:57.77	251.14	3.51	-57.9	-77.1	3.8	7.49e-01	0	26	104	0	83	34974
2026-01-14 14:41:58.78	251.28	3.56	-57.9	-76.9	3.8	7.46e-01	0	26	104	0	83	34221
2026-01-14 14:41:59.78	251.41	3.60	-57.9	-76.6	3.8	7.46e-01	0	26	104	0	83	33025
2026-01-14 14:42:00.76	251.53	3.64	-57.9	-76.3	3.8	7.46e-01	0	26	104	0	83	31909
2026-01-14 14:42:01.77	251.67	3.68	-57.9	-76.4	3.8	7.43e-01	0	26	104	0	83	32369
2026-01-14 14:42:02.77	251.80	3.72	-57.9	-76.3	3.8	7.43e-01	0	26	104	0	83	32171
2026-01-14 14:42:03.78	251.93	3.77	-57.9	-76.6	3.8	7.47e-01	0	26	104	0	83	33063
2026-01-14 14:42:04.79	252.06	3.81	-57.9	-76.5	3.8	7.49e-01	0	26	104	0	83	32804
2026-01-14 14:42:05.80	252.20	3.85	-57.9	-77.0	3.8	7.50e-01	0	26	104	0	83	34552
2026-01-14 14:42:06.81	252.33	3.89	-57.9	-77.2	3.8	7.49e-01	0	26	104	0	83	35366
2026-01-14 14:42:07.81	252.47	3.94	-57.9	-77.2	3.8	7.48e-01	0	26	104	0	83	35419
2026-01-14 14:42:08.82	252.60	3.98	-57.9	-77.0	3.8	7.45e-01	0	26	104	0	83	34785
2026-01-14 14:42:09.83	252.74	4.02	-57.9	-76.5	3.8	7.48e-01	0	26	104	0	83	32901
2026-01-14 14:42:10.84	252.87	4.06	-57.9	-76.2	3.8	7.48e-01	0	26	104	0	83	31591
2026-01-14 14:42:11.85	253.01	4.10	-57.9	-76.4	3.8	7.46e-01	0	26	104	0	83	32402
2026-01-14 14:42:12.86	253.15	4.15	-57.9	-76.7	3.8	7.46e-01	0	26	104	0	83	33480
2026-01-14 14:42:13.87	253.28	4.19	-57.9	-77.0	3.8	7.44e-01	0	26	104	0	83	34616
2026-01-14 14:42:14.88	253.42	4.23	-57.9	-77.1	3.8	7.45e-01	0	26	104	0	83	35155
2026-01-14 14:42:15.89	253.56	4.27	-57.9	-77.2	3.8	7.48e-01	0	26	104	0	83	35449
2026-01-14 14:42:16.90	253.70	4.31	-57.9	-77.2	3.8	7.45e-01	0	26	104	0	83	35580
2026-01-14 14:42:17.91	253.84	4.36	-57.9	-77.0	3.8	7.46e-01	0	26	104	0	83	34730
2026-01-14 14:42:18.92	253.98	4.40	-57.9	-76.6	3.8	7.45e-01	0	26	104	0	83	33285
2026-01-14 14:42:19.92	254.12	4.44	-57.9	-76.3	3.8	7.46e-01	0	27	104	0	83	31826
2026-01-14 14:42:20.93	254.26	4.48	-57.9	-76.0	3.8	7.43e-01	0	26	104	0	83	31056
2026-01-14 14:42:21.94	254.40	4.52	-57.9	-75.3	3.9	7.48e-01	0	27	104	0	83	28588
2026-01-14 14:42:22.95	254.54	4.56	-57.9	-74.7	4.0	7.42e-01	0	27	104	0	83	26467
2026-01-14 14:42:23.96	254.68	4.60	-57.8	-74.5	4.0	7.39e-01	0	27	104	0	83	26076
2026-01-14 14:42:24.96	254.82	4.65	-57.9	-76.0	3.8	7.45e-01	0	27	104	0	83	30789
2026-01-14 14:42:25.96	254.96	4.69	-57.9	-77.0	3.8	7.45e-01	0	27	104	0	83	34764
2026-01-14 14:42:26.97	255.10	4.73	-57.8	-74.3	4.1	7.41e-01	0	27	104	0	83	25518
2026-01-14 14:42:27.98	255.25	4.77	-57.7	-70.3	5.7	6.89e-01	92	27	0	0	83	15980
2026-01-14 14:42:28.99	255.39	4.81	-57.4	-67.6	7.6	6.46e-01	62	27	0	1572864	83	11811
2026-01-14 14:42:30.00	255.54	4.85	-57.3	-66.6	8.6	6.32e-01	0	27	0	3670016	83	10423
2026-01-14 14:42:31.00	255.68	4.89	-57.1	-65.3	9.7	6.22e-01	0	27	0	5242880	83	8988
2026-01-14 14:42:32.01	255.82	4.93	-56.8	-64.0	10.8	6.14e-01	0	27	0	7340032	82	8217
2026-01-14 14:42:33.02	255.97	4.97	-56.0	-61.2	12.6	6.10e-01	0	27	0	9437184	81	6302
2026-01-14 14:42:34.03	256.11	5.01	-54.7	-58.4	14.0	6.06e-01	0	27	0	11010048	78	5422
2026-01-14 14:42:35.04	256.26	5.05	-54.2	-57.6	14.3	6.06e-01	0	27	0	13107200	77	5242
2026-01-14 14:42:36.05	256.41	5.09	-57.1	-65.3	9.7	6.20e-01	0	27	0	15204352	81	10117
2026-01-14 14:42:37.05	256.55	5.13	-52.6	-55.2	14.9	6.08e-01	0	27	0	16777216	74	4709
2026-01-14 14:42:38.06	256.70	5.18	-57.1	-65.9	9.0	6.30e-01	0	27	0	18874368	81	10860
2026-01-14 14:42:39.07	256.85	5.22	-53.6	-56.5	14.4	6.11e-01	0	27	0	20447232	74	5518
2026-01-14 14:42:40.08	257.00	5.26	-52.1	-54.4	15.1	6.07e-01	0	27	0	22544384	73	4563
2026-01-14 14:42:41.09	257.15	5.30	-51.8	-54.1	15.2	6.05e-01	0	27	0	24641536	72	4669
2026-01-14 14:42:42.10	257.29	5.34	-51.6	-53.8	15.2	6.06e-01	0	27	0	26214400	72	4505
2026-01-14 14:42:43.11	257.44	5.38	-51.6	-53.8	15.2	6.06e-01	0	27	0	28311552	72	4498
2026-01-14 14:42:44.11	257.59	5.42	-51.5	-53.7	15.2	6.04e-01	0	27	0	29884416	72	4472
2026-01-14 14:42:45.12	257.74	5.46	-51.8	-54.1	15.1	6.07e-01	0	27	0	31981568	72	4676
2026-01-14 14:42:46.13	257.89	5.49	-51.8	-54.1	15.0	6.05e-01	0	27	0	34078720	72	4684
2026-01-14 14:42:47.14	258.05	5.53	-51.9	-54.2	15.0	6.06e-01	0	27	0	35651584	72	4732
2026-01-14 14:42:48.15	258.20	5.57	-51.8	-54.1	15.1	6.06e-01	0	26	0	37748736	72	4666
2026-01-14 14:42:49.16	258.35	5.61	-51.6	-53.7	15.2	6.05e-01	0	27	0	39321600	72	4484
2026-01-14 14:42:50.16	258.50	5.65	-51.8	-54.0	15.1	6.09e-01	0	27	0	41418752	72	4640
2026-01-14 14:42:51.17	258.65	5.69	-51.6	-53.8	15.2	6.07e-01	0	27	0	43515904	72	4531
2026-01-14 14:42:52.18	258.81	5.73	-51.6	-53.8	15.1	6.07e-01	0	27	0	45088768	72	4545
2026-01-14 14:42:53.19	258.96	5.77	-51.5	-53.7	15.2	6.07e-01	0	27	0	47185920	72	4475
2026-01-14 14:42:54.19	259.11	5.81	-51.6	-53.8	15.2	6.06e-01	0	27	0	48758784	72	4499
2026-01-14 14:42:55.20	259.27	5.85	-51.7	-53.9	15.1	6.06e-01	0	27	0	50855936	72	4549
2026-01-14 14:42:56.21	259.42	5.89	-51.7	-53.9	15.1	6.05e-01	0	27	0	52953088	72	4559
2026-01-14 14:42:57.22	259.58	5.93	-51.6	-53.8	15.1	6.06e-01	0	27	0	54525952	72	4513
2026-01-14 14:42:58.23	259.74	5.96	-51.9	-54.1	15.1	6.06e-01	0	27	0	56623104	72	4691
2026-01-14 14:42:59.24	259.89	6.00	-51.8	-54.1	15.1	6.06e-01	0	27	0	58195968	72	4660
2026-01-14 14:43:00.24	260.05	6.04	-51.5	-53.6	15.2	6.06e-01	0	27	0	60293120	72	4439
2026-01-14 14:43:01.25	260.21	6.08	-51.6	-53.7	15.2	6.07e-01	0	27	0	62390272	72	4492
2026-01-14 14:43:02.26	260.36	6.12	-51.5	-53.6	15.2	6.07e-01	0	27	0	63963136	72	4432
2026-01-14 14:43:03.27	260.52	6.15	-51.5	-53.7	15.2	6.06e-01	0	27	0	66060288	72	4444
2026-01-14 14:43:04.28	260.68	6.19	-51.6	-53.7	15.2	6.09e-01	0	27	0	68157440	72	4490
2026-01-14 14:43:05.29	260.84	6.23	-51.5	-53.7	15.2	6.05e-01	0	27	0	69730304	72	4446
2026-01-14 14:43:06.29	261.00	6.27	-51.5	-53.6	15.2	6.05e-01	0	27	0	71827456	72	4429
2026-01-14 14:43:07.30	261.16	6.31	-51.6	-53.7	15.2	6.07e-01	0	27	0	73400320	72	4472
2026-01-14 14:43:08.30	261.32	6.34	-51.6	-53.7	15.2	6.05e-01	0	27	0	75497472	72	4491
2026-01-14 14:43:09.31	261.48	6.38	-51.5	-53.6	15.2	6.09e-01	0	27	0	77070336	72	4423
2026-01-14 14:43:10.32	261.64	6.42	-51.3	-53.4	15.1	6.08e-01	0	27	0	79167488	71	4587
2026-01-14 14:43:11.32	261.80	6.45	-51.4	-53.4	15.2	6.06e-01	0	27	0	81264640	71	4596
2026-01-14 14:43:12.33	261.96	6.49	-51.4	-53.5	15.1	6.08e-01	0	27	0	82837504	71	4617
2026-01-14 14:43:13.34	262.12	6.53	-51.2	-53.3	15.2	6.07e-01	0	27	0	84934656	71	4515
2026-01-14 14:43:14.34	262.28	6.56	-51.3	-53.4	15.2	6.07e-01	0	27	0	86507520	71	4552
2026-01-14 14:43:15.35	262.45	6.60	-51.4	-53.5	15.1	6.06e-01	0	27	0	88604672	71	4645
2026-01-14 14:43:16.36	262.61	6.64	-51.3	-53.4	15.1	6.07e-01	0	27	0	90701824	71	4591
2026-01-14 14:43:17.37	262.78	6.67	-51.3	-53.4	15.1	6.06e-01	0	27	0	92274688	71	4574
2026-01-14 14:43:18.38	262.94	6.71	-51.2	-53.3	15.2	6.04e-01	0	27	0	94371840	71	4516
2026-01-14 14:43:19.39	263.11	6.75	-51.3	-53.4	15.2	6.07e-01	0	27	0	96468992	71	4589
2026-01-14 14:43:20.39	263.27	6.78	-51.3	-53.4	15.2	6.07e-01	0	27	0	98041856	71	4556
2026-01-14 14:43:21.40	263.44	6.82	-51.3	-53.4	15.2	6.06e-01	0	27	0	100139008	71	4569
2026-01-14 14:43:22.41	263.60	6.85	-51.4	-53.5	15.1	6.06e-01	0	27	0	101711872	71	4613
2026-01-14 14:43:23.42	263.77	6.89	-51.5	-53.6	15.1	6.03e-01	0	27	0	103809024	71	4681
2026-01-14 14:43:24.43	263.94	6.92	-51.3	-53.4	15.2	6.07e-01	0	27	0	105906176	71	4561
2026-01-14 14:43:25.44	264.10	6.96	-51.3	-53.3	15.2	6.05e-01	0	27	0	107479040	71	4545
2026-01-14 14:43:26.44	264.27	6.99	-51.3	-53.4	15.2	6.06e-01	0	27	0	109576192	71	4559
2026-01-14 14:43:27.45	264.44	7.03	-51.3	-53.4	15.2	6.06e-01	0	27	0	111149056	71	4565
2026-01-14 14:43:28.46	264.61	7.06	-51.3	-53.4	15.2	6.08e-01	0	27	0	113246208	71	4577
2026-01-14 14:43:29.47	264.78	7.10	-51.3	-53.3	15.2	6.05e-01	0	27	0	114819072	71	4534
2026-01-14 14:43:30.47	264.95	7.13	-51.2	-53.3	15.2	6.06e-01	0	27	0	116916224	71	4526
2026-01-14 14:43:31.48	265.12	7.17	-51.2	-53.2	15.2	6.06e-01	0	27	0	119013376	71	4478
2026-01-14 14:43:32.49	265.29	7.20	-51.3	-53.4	15.2	6.06e-01	0	27	0	120586240	71	4547
2026-01-14 14:43:33.50	265.46	7.24	-51.4	-53.5	15.1	6.05e-01	0	27	0	122683392	71	4603
2026-01-14 14:43:34.51	265.63	7.27	-51.3	-53.4	15.2	6.05e-01	0	27	0	124780544	71	4560
2026-01-14 14:43:35.51	265.80	7.30	-51.4	-53.5	15.1	6.06e-01	0	27	0	126353408	71	4605
2026-01-14 14:43:36.52	265.97	7.34	-51.4	-53.5	15.1	6.07e-01	0	27	0	128450560	71	4623
2026-01-14 14:43:37.53	266.14	7.37	-51.2	-53.2	15.2	6.08e-01	0	27	0	130023424	71	4492
2026-01-14 14:43:38.54	266.32	7.40	-51.0	-53.0	15.3	6.07e-01	0	27	0	132120576	71	4352
2026-01-14 14:43:39.54	266.49	7.44	-51.0	-53.0	15.3	6.06e-01	0	27	0	134217728	71	4367
2026-01-14 14:43:40.55	266.66	7.47	-51.0	-53.1	15.3	6.09e-01	0	27	0	135790592	71	4395
2026-01-14 14:43:41.56	266.84	7.50	-51.1	-53.1	15.2	6.05e-01	0	27	0	137887744	71	4429
2026-01-14 14:43:42.57	267.01	7.54	-51.1	-53.2	15.2	6.04e-01	0	27	0	139460608	71	4461
2026-01-14 14:43:43.58	267.19	7.57	-51.2	-53.3	15.2	6.07e-01	0	27	0	141557760	71	4543
2026-01-14 14:43:44.58	267.36	7.60	-51.6	-53.9	15.0	6.09e-01	0	27	0	143654912	71	4842
2026-01-14 14:43:45.60	267.54	7.63	-52.2	-54.8	14.8	6.06e-01	0	27	0	145227776	72	5055
2026-01-14 14:43:46.60	267.71	7.66	-52.8	-55.7	14.5	6.07e-01	0	27	0	147324928	73	5330
2026-01-14 14:43:47.61	267.89	7.70	-53.6	-57.1	14.0	6.06e-01	0	27	0	148897792	74	5867
2026-01-14 14:43:48.62	268.07	7.73	-54.0	-57.8	13.8	6.07e-01	0	27	0	150994944	75	6017
2026-01-14 14:43:49.63	268.25	7.76	-54.4	-58.6	13.4	6.09e-01	0	27	0	153092096	76	6240
2026-01-14 14:43:50.64	268.42	7.79	-54.7	-59.3	13.2	6.06e-01	0	27	0	154664960	77	6358
2026-01-14 14:43:51.64	268.60	7.82	-54.9	-60.0	12.7	6.08e-01	0	27	0	156762112	77	6924
2026-01-14 14:43:52.64	268.78	7.85	-55.3	-61.1	12.0	6.08e-01	0	27	0	158334976	78	7397
2026-01-14 14:43:53.65	268.96	7.88	-55.3	-61.2	12.0	6.09e-01	0	27	0	160432128	78	7476
2026-01-14 14:43:54.66	269.14	7.91	-55.5	-61.6	11.7	6.11e-01	0	27	0	162529280	78	7860
2026-01-14 14:43:55.67	269.32	7.94	-55.2	-60.7	12.3	6.08e-01	0	27	0	164102144	78	7098
2026-01-14 14:43:56.68	269.50	7.97	-55.0	-59.9	12.9	6.08e-01	0	27	0	166199296	78	6449
2026-01-14 14:43:57.69	269.68	8.00	-54.7	-59.0	13.5	6.07e-01	0	27	0	168296448	78	5799
2026-01-14 14:43:58.69	269.86	8.03	-54.4	-58.3	13.9	6.07e-01	0	27	0	169869312	78	5358
2026-01-14 14:43:59.70	270.04	8.06	-54.2	-57.8	14.1	6.06e-01	0	27	0	171966464	77	5365
2026-01-14 14:44:00.70	270.22	8.09	-54.2	-57.7	14.2	6.06e-01	0	27	0	173539328	77	5317
2026-01-14 14:44:01.71	270.40	8.12	-54.1	-57.4	14.4	6.07e-01	0	27	0	175636480	77	5111
2026-01-14 14:44:02.72	270.58	8.15	-53.9	-57.1	14.5	6.09e-01	0	27	0	177209344	77	4943
2026-01-14 14:44:03.72	270.77	8.18	-53.6	-56.5	14.6	6.06e-01	0	27	0	179306496	76	4913
2026-01-14 14:44:04.73	270.95	8.21	-52.7	-55.2	14.9	6.08e-01	0	27	0	181403648	74	4749
2026-01-14 14:44:05.74	271.13	8.24	-52.0	-54.3	15.1	6.06e-01	0	27	0	182976512	73	4513
2026-01-14 14:44:06.74	271.32	8.26	-51.5	-53.7	15.2	6.06e-01	0	27	0	185073664	72	4450
2026-01-14 14:44:07.75	271.50	8.29	-51.3	-53.3	15.2	6.07e-01	0	27	0	186646528	71	4542
2026-01-14 14:44:08.76	271.69	8.32	-51.2	-53.2	15.2	6.05e-01	0	27	0	188743680	71	4456
2026-01-14 14:44:09.77	271.87	8.35	-51.1	-53.1	15.3	6.06e-01	0	27	0	190840832	71	4400
2026-01-14 14:44:10.78	272.06	8.37	-50.9	-52.8	15.2	6.08e-01	0	27	0	192413696	70	4518
2026-01-14 14:44:11.78	272.24	8.40	-50.9	-52.8	15.2	6.06e-01	0	27	0	194510848	70	4535
2026-01-14 14:44:12.79	272.43	8.43	-50.9	-52.8	15.2	6.08e-01	0	27	0	196608000	70	4533
2026-01-14 14:44:13.80	272.61	8.45	-50.9	-52.8	15.2	6.07e-01	0	27	0	198180864	70	4536
2026-01-14 14:44:14.81	272.80	8.48	-50.8	-52.8	15.2	6.07e-01	0	27	0	200278016	70	4500
2026-01-14 14:44:15.82	272.99	8.51	-51.0	-52.9	15.2	6.08e-01	0	27	0	201850880	70	4579
2026-01-14 14:44:16.83	273.18	8.53	-51.0	-52.9	15.2	6.07e-01	0	27	0	203948032	70	4596
2026-01-14 14:44:17.84	273.36	8.56	-50.9	-52.9	15.2	6.09e-01	0	27	0	206045184	70	4578
2026-01-14 14:44:18.85	273.55	8.58	-51.0	-52.9	15.2	6.06e-01	0	27	0	207618048	70	4595
2026-01-14 14:44:19.85	273.74	8.61	-50.8	-52.8	15.2	6.04e-01	0	27	0	209715200	70	4517
2026-01-14 14:44:20.86	273.93	8.63	-50.8	-52.8	15.3	6.07e-01	0	27	0	211288064	70	4498
2026-01-14 14:44:21.87	274.12	8.66	-50.8	-52.7	15.3	6.06e-01	0	27	0	213385216	70	4480
2026-01-14 14:44:22.88	274.31	8.68	-50.9	-52.8	15.2	6.06e-01	0	27	0	215482368	70	4524
2026-01-14 14:44:23.89	274.50	8.71	-50.9	-52.8	15.2	6.06e-01	0	27	0	217055232	70	4532
2026-01-14 14:44:24.90	274.69	8.73	-50.9	-52.8	15.2	6.06e-01	0	27	0	219152384	70	4534
2026-01-14 14:44:25.91	274.88	8.76	-50.8	-52.7	15.2	6.07e-01	0	27	0	220725248	70	4487
2026-01-14 14:44:26.91	275.07	8.78	-50.8	-52.7	15.3	6.08e-01	0	27	0	222822400	70	4485
2026-01-14 14:44:27.92	275.26	8.80	-50.8	-52.8	15.2	6.02e-01	0	27	0	224919552	70	4507
2026-01-14 14:44:28.93	275.45	8.83	-50.8	-52.7	15.3	6.06e-01	0	27	0	226492416	70	4488
2026-01-14 14:44:29.94	275.65	8.85	-50.8	-52.7	15.3	6.07e-01	0	27	0	228589568	70	4451
2026-01-14 14:44:30.95	275.84	8.87	-50.8	-52.7	15.3	6.06e-01	0	27	0	230162432	70	4462
2026-01-14 14:44:31.96	276.03	8.90	-50.8	-52.8	15.2	6.06e-01	0	27	0	232259584	70	4498
2026-01-14 14:44:32.96	276.22	8.92	-50.9	-52.8	15.2	6.06e-01	0	27	0	234356736	70	4531
2026-01-14 14:44:33.97	276.42	8.94	-50.9	-52.9	15.2	6.06e-01	0	27	0	235929600	70	4562
2026-01-14 14:44:34.98	276.61	8.96	-50.7	-52.6	15.3	6.06e-01	0	27	0	238026752	70	4433
2026-01-14 14:44:35.99	276.80	8.98	-50.8	-52.8	15.2	6.05e-01	0	27	0	239599616	70	4498
2026-01-14 14:44:37.00	277.00	9.01	-50.8	-52.7	15.3	6.07e-01	0	27	0	241696768	70	4463
2026-01-14 14:44:38.00	277.19	9.03	-50.8	-52.8	15.2	6.07e-01	0	27	0	243793920	70	4509
2026-01-14 14:44:39.01	277.38	9.05	-51.0	-52.9	15.2	6.05e-01	0	27	0	245366784	70	4572
2026-01-14 14:44:40.02	277.58	9.07	-51.0	-52.9	15.2	6.05e-01	0	27	0	247463936	70	4573
2026-01-14 14:44:41.03	277.78	9.09	-50.9	-52.8	15.2	6.04e-01	0	27	0	249561088	70	4523
2026-01-14 14:44:42.04	277.97	9.11	-50.8	-52.7	15.2	6.06e-01	0	27	0	251133952	70	4483
2026-01-14 14:44:43.05	278.17	9.13	-50.8	-52.7	15.3	6.06e-01	0	27	0	253231104	70	4487
2026-01-14 14:44:44.05	278.36	9.15	-50.8	-52.7	15.3	6.05e-01	0	27	0	254803968	70	4468
2026-01-14 14:44:45.06	278.56	9.17	-50.8	-52.8	15.2	6.08e-01	0	27	0	256901120	70	4502
2026-01-14 14:44:46.07	278.76	9.19	-50.9	-52.8	15.2	6.07e-01	0	27	0	258473984	70	4519
2026-01-14 14:44:47.08	278.95	9.20	-50.9	-52.9	15.2	6.05e-01	0	27	0	260571136	70	4562
2026-01-14 14:44:48.08	279.15	9.22	-51.0	-52.9	15.2	6.07e-01	0	27	0	262668288	70	4597
2026-01-14 14:44:49.09	279.35	9.24	-51.0	-53.0	15.2	6.04e-01	0	27	0	264241152	70	4604
2026-01-14 14:44:50.10	279.54	9.26	-50.9	-52.8	15.3	6.08e-01	0	27	0	266338304	70	4507
2026-01-14 14:44:51.11	279.74	9.28	-51.0	-52.9	15.2	6.06e-01	0	27	0	267911168	70	4586
2026-01-14 14:44:52.12	279.94	9.29	-51.0	-52.9	15.2	6.05e-01	0	27	0	270008320	70	4565
2026-01-14 14:44:53.13	280.14	9.31	-50.8	-52.7	15.3	6.06e-01	0	27	0	272105472	70	4467
2026-01-14 14:44:54.14	280.34	9.33	-50.8	-52.6	15.3	6.05e-01	0	27	0	273678336	70	4440
2026-01-14 14:44:55.15	280.54	9.34	-50.9	-52.9	15.2	6.07e-01	0	27	0	275775488	70	4548
2026-01-14 14:44:56.15	280.73	9.36	-50.8	-52.7	15.3	6.06e-01	0	27	0	277872640	70	4473
2026-01-14 14:44:57.16	280.93	9.38	-50.8	-52.6	15.3	6.05e-01	0	27	0	279445504	70	4438
2026-01-14 14:44:58.17	281.13	9.39	-50.8	-52.7	15.3	6.05e-01	0	27	0	281542656	70	4462
2026-01-14 14:44:59.18	281.33	9.41	-50.9	-52.8	15.2	6.03e-01	0	27	0	283115520	70	4543
2026-01-14 14:45:00.18	281.53	9.42	-50.8	-52.7	15.3	6.06e-01	0	27	0	285212672	70	4451
2026-01-14 14:45:01.19	281.73	9.44	-50.8	-52.7	15.3	6.06e-01	0	27	0	287309824	70	4474
2026-01-14 14:45:02.20	281.93	9.45	-50.9	-52.8	15.3	6.03e-01	0	27	0	288882688	70	4506
2026-01-14 14:45:03.21	282.13	9.47	-50.9	-52.8	15.2	6.07e-01	0	27	0	290979840	70	4510
2026-01-14 14:45:04.22	282.33	9.48	-50.8	-52.7	15.3	6.06e-01	0	27	0	292552704	70	4483
2026-01-14 14:45:05.23	282.54	9.50	-50.8	-52.7	15.3	6.07e-01	0	27	0	294649856	70	4463
2026-01-14 14:45:06.24	282.74	9.51	-50.9	-52.8	15.3	6.06e-01	0	27	0	296747008	70	4499
2026-01-14 14:45:07.24	282.94	9.52	-51.0	-52.9	15.2	6.06e-01	0	27	0	298319872	70	4558
2026-01-14 14:45:08.26	283.14	9.54	-51.0	-52.9	15.2	6.07e-01	0	27	0	300417024	70	4578
2026-01-14 14:45:09.27	283.34	9.55	-50.9	-52.8	15.2	6.06e-01	0	27	0	301989888	70	4520
2026-01-14 14:45:10.28	283.55	9.56	-50.8	-52.7	15.3	6.05e-01	0	27	0	304087040	70	4482
2026-01-14 14:45:11.28	283.75	9.57	-50.9	-52.8	15.3	6.07e-01	0	27	0	306184192	70	4495
2026-01-14 14:45:12.29	283.95	9.58	-51.0	-52.9	15.2	6.07e-01	0	27	0	307757056	70	4564
2026-01-14 14:45:13.30	284.15	9.60	-51.1	-53.0	15.2	6.06e-01	0	27	0	309854208	70	4635
2026-01-14 14:45:14.31	284.35	9.61	-51.0	-52.9	15.2	6.06e-01	0	27	0	311427072	70	4549
2026-01-14 14:45:15.32	284.56	9.62	-51.0	-52.9	15.2	6.06e-01	0	27	0	313524224	70	4583
2026-01-14 14:45:16.32	284.76	9.63	-50.9	-52.8	15.2	6.06e-01	0	27	0	315621376	70	4521
2026-01-14 14:45:17.33	284.96	9.64	-50.9	-52.8	15.2	6.08e-01	0	27	0	317194240	70	4495
2026-01-14 14:45:18.34	285.16	9.65	-50.8	-52.7	15.3	6.05e-01	0	27	0	319291392	70	4463
2026-01-14 14:45:19.35	285.37	9.66	-50.9	-52.8	15.2	6.06e-01	0	27	0	321388544	70	4521
2026-01-14 14:45:20.36	285.57	9.67	-51.0	-52.9	15.2	6.07e-01	0	27	0	322961408	70	4583
2026-01-14 14:45:21.37	285.78	9.68	-51.0	-52.9	15.2	6.08e-01	0	27	0	325058560	70	4581
2026-01-14 14:45:22.37	285.98	9.69	-51.0	-52.9	15.2	6.06e-01	0	27	0	326631424	70	4569
2026-01-14 14:45:23.38	286.18	9.70	-50.9	-52.8	15.3	6.07e-01	0	27	0	328728576	70	4524
2026-01-14 14:45:24.39	286.39	9.70	-50.9	-52.8	15.3	6.07e-01	0	27	0	330825728	70	4529
2026-01-14 14:45:25.39	286.59	9.71	-51.0	-52.9	15.2	6.07e-01	0	27	0	332398592	70	4568
2026-01-14 14:45:26.40	286.79	9.72	-51.0	-52.9	15.2	6.09e-01	0	27	0	334495744	70	4564
2026-01-14 14:45:27.41	287.00	9.73	-51.1	-53.0	15.2	6.06e-01	0	27	0	336068608	70	4625
2026-01-14 14:45:28.42	287.20	9.73	-51.1	-53.0	15.2	6.06e-01	0	27	0	338165760	70	4628
2026-01-14 14:45:29.43	287.41	9.74	-51.1	-53.0	15.2	6.07e-01	0	27	0	340262912	70	4613
2026-01-14 14:45:30.43	287.61	9.75	-50.9	-52.8	15.2	6.05e-01	0	27	0	341835776	70	4525
2026-01-14 14:45:31.44	287.82	9.75	-50.9	-52.8	15.3	6.00e-01	0	27	0	343932928	70	4506
2026-01-14 14:45:32.45	288.02	9.76	-51.0	-52.9	15.2	6.02e-01	0	27	0	345505792	70	4582
2026-01-14 14:45:33.46	288.23	9.77	-51.0	-52.9	15.2	6.01e-01	0	27	0	347602944	70	4590
2026-01-14 14:45:34.47	288.43	9.77	-51.0	-52.9	15.2	6.01e-01	0	27	0	349700096	70	4584
2026-01-14 14:45:35.47	288.63	9.78	-51.0	-52.9	15.2	6.01e-01	0	27	0	351272960	70	4580
2026-01-14 14:45:36.48	288.84	9.78	-51.1	-53.0	15.2	6.00e-01	0	27	0	353370112	70	4621
2026-01-14 14:45:37.48	289.04	9.78	-51.2	-53.1	15.2	6.03e-01	0	27	0	354942976	70	4694
2026-01-14 14:45:38.49	289.25	9.79	-51.1	-53.1	15.2	6.02e-01	0	27	0	357040128	70	4659
2026-01-14 14:45:39.50	289.45	9.79	-51.0	-52.9	15.2	6.00e-01	0	27	0	359137280	70	4586
2026-01-14 14:45:40.51	289.66	9.80	-51.0	-52.9	15.2	6.06e-01	0	27	0	360710144	70	4572
2026-01-14 14:45:41.52	289.87	9.80	-51.1	-53.0	15.2	6.02e-01	0	27	0	362807296	70	4649
2026-01-14 14:45:42.52	290.07	9.80	-51.2	-53.1	15.1	6.00e-01	0	27	0	364380160	70	4681
2026-01-14 14:45:43.53	290.27	9.80	-51.1	-53.0	15.2	6.00e-01	0	27	0	366477312	70	4631
2026-01-14 14:45:44.54	290.48	9.81	-51.0	-52.9	15.2	6.02e-01	0	27	0	368574464	70	4571
2026-01-14 14:45:45.55	290.69	9.81	-50.9	-52.8	15.2	6.00e-01	0	27	0	370147328	70	4509
2026-01-14 14:45:46.55	290.89	9.81	-50.9	-52.8	15.3	6.03e-01	0	27	0	372244480	70	4512
2026-01-14 14:45:47.56	291.10	9.81	-50.9	-52.8	15.3	6.01e-01	0	27	0	373817344	70	4514
2026-01-14 14:45:48.57	291.30	9.81	-51.1	-53.0	15.2	6.02e-01	0	27	0	375914496	70	4608
2026-01-14 14:45:49.58	291.51	9.81	-51.0	-52.9	15.2	6.02e-01	0	27	0	378011648	70	4595
2026-01-14 14:45:50.59	291.71	9.81	-51.1	-53.0	15.2	6.00e-01	0	27	0	379584512	70	4606
2026-01-14 14:45:51.60	291.92	9.81	-51.1	-53.0	15.2	6.01e-01	0	27	0	381681664	70	4620
2026-01-14 14:45:52.61	292.13	9.81	-51.1	-53.1	15.2	6.04e-01	0	27	0	383254528	70	4656
2026-01-14 14:45:53.62	292.33	9.81	-51.0	-52.9	15.2	6.03e-01	0	27	0	385351680	70	4580
2026-01-14 14:45:54.62	292.54	9.81	-51.1	-52.9	15.2	6.01e-01	0	27	0	387448832	70	4598
2026-01-14 14:45:55.63	292.74	9.81	-50.9	-52.8	15.3	6.01e-01	0	27	0	389021696	70	4495
2026-01-14 14:45:56.64	292.95	9.81	-50.9	-52.8	15.2	6.04e-01	0	27	0	391118848	70	4496
2026-01-14 14:45:57.65	293.15	9.81	-50.9	-52.8	15.3	6.04e-01	0	27	0	392691712	70	4509
2026-01-14 14:45:58.66	293.36	9.81	-50.9	-52.8	15.2	5.97e-01	0	27	0	394788864	70	4537
2026-01-14 14:45:59.67	293.56	9.80	-51.0	-52.9	15.2	6.05e-01	0	27	0	396886016	70	4562
2026-01-14 14:46:00.68	293.77	9.80	-51.1	-53.0	15.2	6.04e-01	0	27	0	398458880	70	4632
2026-01-14 14:46:01.69	293.98	9.80	-51.1	-53.0	15.2	6.03e-01	0	27	0	400556032	70	4613
2026-01-14 14:46:02.69	294.18	9.80	-51.0	-52.9	15.2	6.01e-01	0	27	0	402653184	70	4572
2026-01-14 14:46:03.70	294.38	9.79	-51.0	-52.9	15.2	6.02e-01	0	27	0	404226048	70	4568
2026-01-14 14:46:04.71	294.59	9.79	-51.0	-52.9	15.2	6.01e-01	0	27	0	406323200	70	4572
2026-01-14 14:46:05.72	294.80	9.78	-51.0	-52.9	15.2	6.03e-01	0	27	0	407896064	70	4591
2026-01-14 14:46:06.73	295.00	9.78	-50.9	-52.8	15.2	6.00e-01	0	27	0	409993216	70	4523
2026-01-14 14:46:07.74	295.21	9.78	-50.9	-52.8	15.2	6.01e-01	0	27	0	412090368	70	4512
2026-01-14 14:46:08.75	295.41	9.77	-51.0	-52.9	15.2	6.02e-01	0	27	0	413663232	70	4554
2026-01-14 14:46:09.75	295.61	9.76	-51.0	-52.9	15.2	6.00e-01	0	27	0	415760384	70	4555
2026-01-14 14:46:10.76	295.82	9.76	-50.9	-52.8	15.3	6.02e-01	0	27	0	417333248	70	4506
2026-01-14 14:46:11.77	296.02	9.75	-50.9	-52.7	15.3	5.98e-01	0	27	0	419430400	70	4483
2026-01-14 14:46:12.78	296.23	9.75	-51.0	-52.9	15.2	6.03e-01	0	27	0	421527552	70	4546
2026-01-14 14:46:13.79	296.43	9.74	-50.9	-52.8	15.2	6.03e-01	0	27	0	423100416	70	4532
2026-01-14 14:46:14.79	296.64	9.73	-50.9	-52.8	15.3	6.01e-01	0	27	0	425197568	70	4498
2026-01-14 14:46:15.81	296.84	9.73	-50.9	-52.8	15.2	6.02e-01	0	27	0	426770432	70	4533
2026-01-14 14:46:16.81	297.05	9.72	-51.0	-52.9	15.2	5.99e-01	0	27	0	428867584	70	4560
2026-01-14 14:46:17.82	297.25	9.71	-50.9	-52.8	15.2	6.03e-01	0	27	0	430964736	70	4507
2026-01-14 14:46:18.83	297.45	9.70	-51.0	-52.9	15.2	6.01e-01	0	27	0	432537600	70	4591
2026-01-14 14:46:19.84	297.66	9.69	-51.0	-52.9	15.2	5.96e-01	0	27	0	434634752	70	4570
2026-01-14 14:46:20.85	297.86	9.69	-50.9	-52.8	15.2	6.01e-01	0	27	0	436207616	70	4543
2026-01-14 14:46:21.86	298.07	9.68	-50.9	-52.8	15.2	6.02e-01	0	27	0	438304768	70	4495
2026-01-14 14:46:22.87	298.27	9.67	-50.9	-52.8	15.2	6.02e-01	0	27	0	440401920	70	4511
2026-01-14 14:46:23.87	298.47	9.66	-50.9	-52.8	15.2	6.00e-01	0	27	0	441974784	70	4537
2026-01-14 14:46:24.88	298.67	9.65	-50.8	-52.7	15.3	6.03e-01	0	27	0	444071936	70	4463
2026-01-14 14:46:25.89	298.88	9.64	-50.9	-52.8	15.3	6.02e-01	0	27	0	446169088	70	4527
2026-01-14 14:46:26.90	299.08	9.63	-50.9	-52.8	15.2	6.04e-01	0	27	0	447741952	70	4535
2026-01-14 14:46:27.90	299.28	9.62	-50.8	-52.7	15.3	6.01e-01	0	27	0	449839104	70	4479
2026-01-14 14:46:28.91	299.48	9.61	-50.8	-52.7	15.3	6.01e-01	0	27	0	451411968	70	4486
2026-01-14 14:46:29.92	299.69	9.59	-50.8	-52.7	15.3	6.04e-01	0	27	0	453509120	70	4470
2026-01-14 14:46:30.93	299.89	9.58	-50.8	-52.7	15.3	6.03e-01	0	27	0	455606272	70	4459
2026-01-14 14:46:31.94	300.09	9.57	-50.9	-52.8	15.2	6.01e-01	0	27	0	457179136	70	4522
2026-01-14 14:46:32.95	300.29	9.56	-50.8	-52.7	15.2	6.01e-01	0	27	0	459276288	70	4475
2026-01-14 14:46:33.95	300.49	9.55	-50.8	-52.7	15.3	6.04e-01	0	27	0	460849152	70	4473
2026-01-14 14:46:34.96	300.69	9.53	-50.9	-52.9	15.2	6.01e-01	0	27	0	462946304	70	4550
2026-01-14 14:46:35.96	300.89	9.52	-50.9	-52.8	15.2	5.99e-01	0	27	0	464519168	70	4532
2026-01-14 14:46:36.97	301.10	9.51	-51.0	-53.0	15.2	6.01e-01	0	27	0	466616320	70	4618
2026-01-14 14:46:37.98	301.30	9.49	-51.0	-53.0	15.2	6.01e-01	0	27	0	468713472	70	4608
2026-01-14 14:46:38.99	301.50	9.48	-51.2	-53.1	15.1	6.02e-01	0	27	0	470286336	70	4695
2026-01-14 14:46:39.99	301.70	9.47	-50.9	-52.8	15.2	6.02e-01	0	27	0	472383488	70	4501
2026-01-14 14:46:41.00	301.90	9.45	-50.8	-52.7	15.3	6.02e-01	0	27	0	474480640	70	4467
2026-01-14 14:46:42.01	302.10	9.44	-50.7	-52.6	15.3	6.00e-01	0	27	0	476053504	70	4428
2026-01-14 14:46:43.02	302.30	9.42	-50.8	-52.7	15.3	6.01e-01	0	27	0	478150656	70	4452
2026-01-14 14:46:44.03	302.50	9.41	-50.8	-52.7	15.3	6.02e-01	0	27	0	479723520	70	4474
2026-01-14 14:46:45.04	302.70	9.39	-50.8	-52.7	15.3	6.00e-01	0	27	0	481820672	70	4464
2026-01-14 14:46:46.04	302.89	9.38	-50.9	-52.8	15.3	6.00e-01	0	27	0	483917824	70	4496
2026-01-14 14:46:47.04	303.09	9.36	-51.0	-52.9	15.2	5.98e-01	0	27	0	485490688	70	4571
2026-01-14 14:46:48.05	303.29	9.34	-50.9	-52.9	15.2	6.05e-01	0	27	0	487587840	70	4548
2026-01-14 14:46:49.06	303.49	9.33	-50.9	-52.8	15.2	6.03e-01	0	27	0	489160704	70	4529
2026-01-14 14:46:50.07	303.69	9.31	-50.9	-52.8	15.2	6.01e-01	0	27	0	491257856	70	4524
2026-01-14 14:46:51.08	303.89	9.29	-50.9	-52.8	15.2	6.02e-01	0	27	0	493355008	70	4538
2026-01-14 14:46:52.08	304.08	9.28	-50.9	-52.8	15.3	6.01e-01	0	27	0	494927872	70	4512
2026-01-14 14:46:53.08	304.28	9.26	-50.8	-52.7	15.3	6.00e-01	0	27	0	497025024	70	4473
2026-01-14 14:46:54.09	304.47	9.24	-50.9	-52.8	15.3	6.02e-01	0	27	0	498597888	70	4507
2026-01-14 14:46:55.10	304.67	9.22	-50.8	-52.7	15.3	6.01e-01	0	27	0	500695040	70	4478
2026-01-14 14:46:56.11	304.87	9.20	-50.7	-52.6	15.3	6.02e-01	0	27	0	502792192	70	4434
2026-01-14 14:46:57.12	305.07	9.18	-50.8	-52.8	15.3	6.06e-01	0	27	0	504365056	70	4498
2026-01-14 14:46:58.12	305.26	9.17	-50.9	-52.8	15.2	6.02e-01	0	27	0	506462208	70	4521
2026-01-14 14:46:59.13	305.46	9.15	-50.9	-52.9	15.2	6.03e-01	0	27	0	508035072	70	4546
2026-01-14 14:47:00.14	305.65	9.13	-50.9	-52.8	15.2	6.03e-01	0	27	0	510132224	70	4526
2026-01-14 14:47:01.14	305.85	9.11	-50.8	-52.8	15.2	6.04e-01	0	27	0	512229376	70	4499
2026-01-14 14:47:02.15	306.04	9.09	-50.9	-52.8	15.2	6.01e-01	0	27	0	513802240	70	4498
2026-01-14 14:47:03.16	306.24	9.07	-50.7	-52.6	15.3	6.05e-01	0	27	0	515899392	70	4432
2026-01-14 14:47:04.17	306.43	9.05	-50.8	-52.7	15.3	6.01e-01	0	27	0	517472256	70	4483
2026-01-14 14:47:05.18	306.62	9.03	-50.8	-52.7	15.3	6.00e-01	0	27	0	519569408	70	4459
2026-01-14 14:47:06.19	306.82	9.00	-50.8	-52.8	15.2	6.00e-01	0	27	0	521666560	70	4506
2026-01-14 14:47:07.20	307.01	8.98	-50.9	-52.8	15.2	6.03e-01	0	27	0	523239424	70	4529
2026-01-14 14:47:08.21	307.21	8.96	-51.0	-52.9	15.2	6.00e-01	0	27	0	525336576	70	4571
2026-01-14 14:47:09.22	307.40	8.94	-50.9	-52.8	15.2	6.01e-01	0	27	0	526909440	70	4536
2026-01-14 14:47:10.23	307.59	8.92	-50.8	-52.7	15.2	6.00e-01	0	27	0	529006592	70	4492
2026-01-14 14:47:11.23	307.78	8.90	-50.8	-52.7	15.3	6.00e-01	0	27	0	531103744	70	4463
2026-01-14 14:47:12.24	307.97	8.87	-50.8	-52.7	15.3	6.01e-01	0	27	0	532676608	70	4461
2026-01-14 14:47:13.25	308.17	8.85	-50.8	-52.7	15.2	6.00e-01	0	27	0	534773760	70	4482
2026-01-14 14:47:14.26	308.36	8.83	-50.9	-52.8	15.2	6.02e-01	0	27	0	536346624	70	4538
2026-01-14 14:47:15.27	308.55	8.80	-50.8	-52.7	15.3	6.06e-01	0	27	0	538443776	70	4465
2026-01-14 14:47:16.28	308.74	8.78	-50.8	-52.7	15.3	6.01e-01	0	27	0	540540928	70	4478
2026-01-14 14:47:17.29	308.93	8.76	-50.8	-52.8	15.3	6.01e-01	0	27	0	542113792	70	4499
2026-01-14 14:47:18.29	309.12	8.73	-50.9	-52.8	15.2	6.00e-01	0	27	0	544210944	70	4541
2026-01-14 14:47:19.30	309.31	8.71	-51.0	-52.9	15.2	6.01e-01	0	27	0	545783808	70	4598
2026-01-14 14:47:20.31	309.50	8.69	-50.9	-52.8	15.2	6.03e-01	0	27	0	547880960	70	4542
2026-01-14 14:47:21.32	309.69	8.66	-50.9	-52.8	15.2	6.00e-01	0	27	0	549978112	70	4537
2026-01-14 14:47:22.33	309.88	8.64	-50.9	-52.8	15.2	6.02e-01	0	27	0	551550976	70	4526
2026-01-14 14:47:23.33	310.06	8.61	-50.9	-52.9	15.2	6.01e-01	0	27	0	553648128	70	4549
2026-01-14 14:47:24.34	310.25	8.59	-50.8	-52.7	15.3	6.01e-01	0	27	0	555745280	70	4487
2026-01-14 14:47:25.35	310.44	8.56	-50.8	-52.7	15.3	6.03e-01	0	27	0	557318144	70	4455
2026-01-14 14:47:26.35	310.63	8.53	-50.9	-52.8	15.2	6.02e-01	0	27	0	559415296	70	4529
2026-01-14 14:47:27.36	310.81	8.51	-50.8	-52.8	15.2	6.02e-01	0	27	0	560988160	70	4513
2026-01-14 14:47:28.37	311.00	8.48	-50.8	-52.8	15.2	6.04e-01	0	27	0	563085312	70	4499
2026-01-14 14:47:29.37	311.19	8.46	-50.9	-52.8	15.2	6.02e-01	0	27	0	564658176	70	4524
2026-01-14 14:47:30.38	311.37	8.43	-51.0	-53.0	15.2	6.02e-01	0	27	0	566755328	70	4604
2026-01-14 14:47:31.39	311.56	8.40	-50.9	-52.8	15.2	6.03e-01	0	27	0	568852480	70	4544
2026-01-14 14:47:32.40	311.74	8.38	-50.9	-52.9	15.2	6.02e-01	0	27	0	570425344	70	4547
2026-01-14 14:47:33.40	311.93	8.35	-50.9	-52.9	15.2	6.00e-01	0	27	0	572522496	70	4552
2026-01-14 14:47:34.41	312.11	8.32	-51.0	-53.0	15.2	6.03e-01	0	27	0	574095360	70	4622
2026-01-14 14:47:35.42	312.29	8.29	-51.0	-53.0	15.2	6.01e-01	0	27	0	576192512	70	4607
2026-01-14 14:47:36.43	312.48	8.27	-51.1	-53.1	15.1	6.00e-01	0	27	0	578289664	70	4664
2026-01-14 14:47:37.43	312.66	8.24	-51.0	-52.9	15.2	6.03e-01	0	27	0	579862528	70	4590
2026-01-14 14:47:38.44	312.84	8.21	-50.9	-52.9	15.2	6.02e-01	0	27	0	581959680	70	4565
2026-01-14 14:47:39.45	313.03	8.18	-50.8	-52.8	15.2	6.04e-01	0	27	0	584056832	70	4499
2026-01-14 14:47:40.46	313.21	8.15	-50.9	-52.9	15.2	6.04e-01	0	27	0	585629696	70	4553
2026-01-14 14:47:41.47	313.39	8.12	-51.1	-53.1	15.1	6.02e-01	0	27	0	587726848	70	4653
2026-01-14 14:47:42.48	313.57	8.09	-51.1	-53.1	15.1	6.02e-01	0	27	0	589299712	70	4684
2026-01-14 14:47:43.49	313.75	8.07	-51.2	-53.2	15.1	6.03e-01	0	27	0	591396864	70	4734
2026-01-14 14:47:44.50	313.94	8.04	-51.2	-53.3	15.1	6.02e-01	0	27	0	593494016	70	4773
2026-01-14 14:47:45.50	314.11	8.01	-51.0	-53.0	15.2	6.00e-01	0	27	0	595066880	70	4620
2026-01-14 14:47:46.51	314.29	7.98	-51.0	-53.0	15.2	6.03e-01	0	27	0	597164032	70	4599
2026-01-14 14:47:47.53	314.48	7.95	-50.9	-52.9	15.2	6.01e-01	0	27	0	599261184	70	4578
2026-01-14 14:47:48.53	314.65	7.92	-50.9	-52.9	15.2	5.98e-01	0	27	0	600834048	70	4574
2026-01-14 14:47:49.54	314.83	7.89	-50.9	-52.9	15.2	6.04e-01	0	27	0	602931200	70	4557
2026-01-14 14:47:50.55	315.01	7.86	-50.9	-52.9	15.2	6.02e-01	0	27	0	604504064	70	4552
2026-01-14 14:47:51.56	315.19	7.83	-51.0	-53.0	15.2	6.04e-01	0	27	0	606601216	70	4600
2026-01-14 14:47:52.57	315.37	7.79	-50.9	-52.9	15.2	6.03e-01	0	27	0	608174080	70	4570
2026-01-14 14:47:53.57	315.54	7.76	-51.0	-53.0	15.2	6.00e-01	0	27	0	610271232	70	4610
2026-01-14 14:47:54.58	315.72	7.73	-51.0	-53.0	15.1	6.01e-01	0	27	0	612368384	70	4637
2026-01-14 14:47:55.59	315.90	7.70	-51.0	-53.0	15.2	5.99e-01	0	27	0	613941248	70	4602
2026-01-14 14:47:56.60	316.07	7.67	-51.0	-53.1	15.1	6.00e-01	0	27	0	616038400	70	4656
2026-01-14 14:47:57.61	316.25	7.64	-51.1	-53.1	15.1	6.05e-01	0	27	0	617611264	70	4682
2026-01-14 14:47:58.61	316.42	7.61	-51.0	-53.0	15.1	6.01e-01	0	27	0	619708416	70	4636
2026-01-14 14:47:59.62	316.60	7.57	-50.9	-52.9	15.2	6.03e-01	0	27	0	621805568	70	4573
2026-01-14 14:48:00.62	316.77	7.54	-51.0	-53.0	15.2	6.01e-01	0	27	0	623378432	70	4629
2026-01-14 14:48:01.63	316.94	7.51	-51.0	-53.0	15.2	6.02e-01	0	27	0	625475584	70	4607
2026-01-14 14:48:02.64	317.12	7.48	-51.1	-53.1	15.1	6.01e-01	0	27	0	627572736	70	4684
2026-01-14 14:48:03.65	317.29	7.44	-51.1	-53.2	15.1	6.03e-01	0	27	0	629145600	70	4712
2026-01-14 14:48:04.66	317.46	7.41	-51.0	-53.0	15.1	6.01e-01	0	27	0	631242752	70	4650
2026-01-14 14:48:05.67	317.64	7.38	-51.0	-53.1	15.1	6.03e-01	0	27	0	632815616	70	4677
2026-01-14 14:48:06.68	317.81	7.34	-51.0	-53.1	15.1	5.98e-01	0	27	0	634912768	70	4680
2026-01-14 14:48:07.69	317.98	7.31	-51.0	-53.1	15.1	6.03e-01	0	27	0	637009920	70	4685
2026-01-14 14:48:08.70	318.15	7.28	-51.0	-53.1	15.1	6.02e-01	0	27	0	638582784	70	4659
2026-01-14 14:48:09.71	318.32	7.24	-51.1	-53.3	15.0	6.01e-01	0	27	0	640679936	70	4779
2026-01-14 14:48:10.72	318.49	7.21	-51.0	-53.2	15.0	6.03e-01	0	27	0	642252800	70	4723
2026-01-14 14:48:11.71	318.66	7.18	-51.1	-53.3	15.0	6.00e-01	0	27	0	644349952	70	4760
2026-01-14 14:48:12.72	318.83	7.14	-51.1	-53.2	15.0	6.05e-01	0	27	0	645922816	70	4738
2026-01-14 14:48:13.72	319.00	7.11	-51.1	-53.3	15.0	6.00e-01	0	27	0	648019968	70	4773
2026-01-14 14:48:14.73	319.16	7.07	-51.2	-53.3	15.0	6.02e-01	0	27	0	650117120	70	4796
2026-01-14 14:48:15.74	319.33	7.04	-51.1	-53.2	15.1	6.02e-01	0	27	0	651689984	70	4741
2026-01-14 14:48:16.75	319.50	7.00	-51.2	-53.2	15.1	5.99e-01	0	27	0	653787136	70	4752
2026-01-14 14:48:17.76	319.67	6.97	-51.1	-53.1	15.1	6.03e-01	0	27	0	655884288	70	4695
2026-01-14 14:48:18.77	319.84	6.93	-51.0	-53.0	15.1	6.04e-01	0	27	0	657457152	70	4641
2026-01-14 14:48:19.78	320.00	6.90	-51.0	-53.0	15.1	6.02e-01	0	27	0	659554304	70	4642
2026-01-14 14:48:20.78	320.17	6.86	-51.0	-53.1	15.1	6.04e-01	0	27	0	661127168	70	4672
2026-01-14 14:48:21.79	320.33	6.83	-51.0	-53.1	15.1	6.01e-01	0	27	0	663224320	70	4664
2026-01-14 14:48:22.80	320.50	6.79	-51.0	-53.1	15.1	6.02e-01	0	27	0	665321472	70	4673
2026-01-14 14:48:23.81	320.66	6.76	-51.1	-53.2	15.1	5.98e-01	0	27	0	666894336	70	4747
2026-01-14 14:48:24.82	320.83	6.72	-51.2	-53.3	15.0	6.01e-01	0	27	0	668991488	70	4811
2026-01-14 14:48:25.83	320.99	6.69	-51.3	-53.4	15.0	6.05e-01	0	27	0	670564352	70	4839
2026-01-14 14:48:26.84	321.15	6.65	-51.3	-53.5	14.9	6.01e-01	0	27	0	672661504	70	4887
2026-01-14 14:48:27.84	321.32	6.61	-51.3	-53.4	15.0	5.99e-01	0	27	0	674758656	70	4844
2026-01-14 14:48:28.85	321.48	6.58	-51.3	-53.5	15.0	6.02e-01	0	27	0	676331520	70	4881
2026-01-14 14:48:29.86	321.64	6.54	-51.4	-53.5	14.9	6.00e-01	0	27	0	678428672	70	4918
2026-01-14 14:48:30.87	321.80	6.50	-51.4	-53.5	14.9	5.99e-01	0	27	0	680001536	70	4925
2026-01-14 14:48:31.88	321.96	6.47	-51.2	-53.4	15.0	6.01e-01	0	27	0	682098688	70	4821
2026-01-14 14:48:32.89	322.13	6.43	-51.4	-53.5	15.0	5.99e-01	0	27	0	684195840	70	4913
2026-01-14 14:48:33.89	322.28	6.39	-51.2	-53.4	15.0	6.02e-01	0	27	0	685768704	70	4820
2026-01-14 14:48:34.90	322.44	6.36	-51.1	-53.2	15.1	6.03e-01	0	27	0	687865856	70	4742
2026-01-14 14:48:35.91	322.60	6.32	-51.2	-53.3	15.0	5.99e-01	0	27	0	689438720	70	4789
2026-01-14 14:48:36.92	322.76	6.28	-51.2	-53.3	15.1	6.03e-01	0	27	0	691535872	70	4769
2026-01-14 14:48:37.92	322.92	6.24	-51.2	-53.3	15.0	6.02e-01	0	27	0	693633024	70	4765
2026-01-14 14:48:38.93	323.08	6.21	-51.3	-53.5	14.9	6.02e-01	0	27	0	695205888	70	4887
2026-01-14 14:48:39.94	323.24	6.17	-51.4	-53.6	14.9	6.02e-01	0	27	0	697303040	70	4930
2026-01-14 14:48:40.95	323.40	6.13	-51.5	-53.7	14.8	6.01e-01	0	27	0	698875904	70	5012
2026-01-14 14:48:41.95	323.55	6.09	-51.5	-53.8	14.9	6.03e-01	0	27	0	700973056	70	5043
2026-01-14 14:48:42.96	323.71	6.06	-51.5	-53.8	14.8	6.05e-01	0	27	0	703070208	70	5063
2026-01-14 14:48:43.97	323.86	6.02	-51.4	-53.7	14.8	6.02e-01	0	27	0	704643072	70	5009
2026-01-14 14:48:44.97	324.02	5.98	-51.3	-53.5	14.8	6.03e-01	0	27	0	706740224	70	4904
2026-01-14 14:48:45.98	324.17	5.94	-51.3	-53.6	14.8	6.00e-01	0	27	0	708837376	70	4927
2026-01-14 14:48:46.99	324.33	5.90	-51.4	-53.7	14.8	6.02e-01	0	27	0	710410240	70	4991
2026-01-14 14:48:48.00	324.48	5.86	-51.4	-53.5	14.9	6.04e-01	0	27	0	712507392	70	4916
2026-01-14 14:48:49.01	324.64	5.83	-51.2	-53.3	15.0	6.04e-01	0	27	0	714080256	70	4807
2026-01-14 14:48:50.02	324.79	5.79	-51.5	-53.7	14.9	6.02e-01	0	27	0	716177408	70	4992
2026-01-14 14:48:51.03	324.94	5.75	-51.4	-53.6	14.9	6.03e-01	0	27	0	718274560	70	4957
2026-01-14 14:48:52.04	325.10	5.71	-51.6	-53.8	14.9	5.99e-01	0	27	0	719847424	70	5064
2026-01-14 14:48:53.04	325.25	5.67	-51.4	-53.5	14.9	6.02e-01	0	27	0	721944576	70	4926
2026-01-14 14:48:54.05	325.40	5.63	-51.6	-53.8	14.9	6.05e-01	0	27	0	723517440	70	5068
2026-01-14 14:48:55.06	325.55	5.59	-51.6	-53.8	14.9	6.01e-01	0	27	0	725614592	70	5087
2026-01-14 14:48:56.06	325.70	5.55	-51.5	-53.8	15.0	6.05e-01	0	27	0	727187456	71	4767
2026-01-14 14:48:57.08	325.85	5.51	-51.5	-53.7	15.0	5.99e-01	0	27	0	729284608	71	4730
2026-01-14 14:48:58.09	326.00	5.47	-51.5	-53.7	15.0	6.03e-01	0	27	0	731381760	71	4739
2026-01-14 14:48:59.09	326.15	5.44	-51.6	-53.9	15.0	6.02e-01	0	27	0	732954624	71	4817
2026-01-14 14:49:00.10	326.30	5.40	-51.5	-53.7	15.0	6.02e-01	0	27	0	735051776	71	4740
2026-01-14 14:49:01.11	326.45	5.36	-51.6	-53.9	15.0	6.03e-01	0	27	0	737148928	71	4844
2026-01-14 14:49:02.11	326.60	5.32	-51.5	-53.7	15.0	6.03e-01	0	27	0	738721792	71	4713
2026-01-14 14:49:03.12	326.75	5.28	-51.6	-53.8	15.0	6.02e-01	0	27	0	740818944	71	4806
2026-01-14 14:49:04.13	326.89	5.24	-51.6	-53.9	15.0	6.01e-01	0	27	0	742391808	71	4852
2026-01-14 14:49:05.14	327.04	5.20	-51.5	-53.7	15.0	6.03e-01	0	27	0	744488960	71	4739
2026-01-14 14:49:06.15	327.19	5.16	-51.5	-53.8	15.0	6.00e-01	0	27	0	746586112	71	4767
2026-01-14 14:49:07.16	327.33	5.12	-51.5	-53.8	15.0	6.04e-01	0	27	0	748158976	71	4782
2026-01-14 14:49:08.16	327.48	5.08	-51.5	-53.8	15.0	6.00e-01	0	27	0	750256128	71	4776
2026-01-14 14:49:09.17	327.62	5.04	-51.5	-53.7	15.0	6.01e-01	0	27	0	751828992	71	4714
2026-01-14 14:49:10.18	327.77	5.00	-51.5	-53.8	15.0	6.00e-01	0	27	0	753926144	71	4784
2026-01-14 14:49:11.19	327.91	4.96	-57.9	-70.2	5.6	6.81e-01	43	27	0	755499008	83	15778
2026-01-14 14:49:12.20	328.06	4.92	-58.7	-77.9	3.8	7.46e-01	0	27	104	756023296	85	34090
2026-01-14 14:49:13.21	328.20	4.87	-59.0	-78.3	3.8	7.49e-01	0	27	104	756023296	85	36099
2026-01-14 14:49:14.22	328.35	4.83	-59.2	-78.6	3.8	7.46e-01	0	27	104	756023296	86	35072
2026-01-14 14:49:15.23	328.49	4.79	-59.4	-78.8	3.8	7.42e-01	0	27	104	756023296	86	35882
2026-01-14 14:49:16.24	328.63	4.75	-59.6	-79.0	3.8	7.43e-01	0	27	104	756023296	86	36549
2026-01-14 14:49:17.25	328.77	4.71	-59.7	-79.1	3.8	7.45e-01	0	27	104	756023296	87	34886
2026-01-14 14:49:18.25	328.92	4.67	-59.8	-79.1	3.8	7.48e-01	0	27	104	756023296	87	35154
2026-01-14 14:49:19.26	329.06	4.63	-59.8	-79.2	3.8	7.48e-01	0	27	104	756023296	87	35542
2026-01-14 14:49:20.27	329.20	4.59	-59.9	-79.3	3.8	7.46e-01	0	27	104	756023296	87	35723
2026-01-14 14:49:21.28	329.34	4.55	-59.9	-79.3	3.8	7.48e-01	0	28	104	756023296	87	35829
2026-01-14 14:49:22.29	329.48	4.51	-60.0	-79.3	3.8	7.48e-01	0	27	104	756023296	87	36092
2026-01-14 14:49:23.30	329.62	4.47	-60.0	-79.4	3.8	7.46e-01	0	27	104	756023296	87	36200
2026-01-14 14:49:24.30	329.76	4.42	-60.0	-79.4	3.8	7.45e-01	0	28	104	756023296	87	36241
2026-01-14 14:49:25.31	329.89	4.38	-60.0	-79.4	3.8	7.49e-01	0	27	104	756023296	87	36393
2026-01-14 14:49:26.32	330.03	4.34	-60.0	-79.4	3.8	7.46e-01	0	27	104	756023296	87	36428
2026-01-14 14:49:27.33	330.17	4.30	-60.1	-79.4	3.8	7.46e-01	0	28	104	756023296	87	36510
2026-01-14 14:49:28.34	330.31	4.26	-60.1	-79.5	3.8	7.48e-01	0	27	104	756023296	87	36562
2026-01-14 14:49:29.35	330.45	4.22	-60.0	-79.4	3.8	7.47e-01	0	28	104	756023296	87	36472
2026-01-14 14:49:30.35	330.58	4.18	-60.1	-79.5	3.8	7.47e-01	0	27	104	756023296	87	36643
2026-01-14 14:49:31.37	330.72	4.13	-60.1	-79.5	3.8	7.48e-01	0	27	104	756023296	87	36704
2026-01-14 14:49:32.37	330.85	4.09	-60.1	-79.5	3.8	7.48e-01	0	27	104	756023296	87	36721
2026-01-14 14:49:33.38	330.99	4.05	-60.0	-79.4	3.8	7.50e-01	0	27	104	756023296	87	36381
2026-01-14 14:49:34.38	331.12	4.01	-60.0	-79.4	3.8	7.46e-01	0	28	104	756023296	87	36246
2026-01-14 14:49:35.39	331.26	3.97	-60.0	-79.4	3.8	7.45e-01	0	28	104	756023296	87	36173
2026-01-14 14:49:36.40	331.39	3.93	-60.0	-79.4	3.8	7.45e-01	0	27	104	756023296	87	36149
2026-01-14 14:49:37.41	331.53	3.88	-59.9	-79.4	3.8	7.49e-01	0	27	104	756023296	87	36108
2026-01-14 14:49:38.42	331.66	3.84	-59.9	-79.3	3.8	7.44e-01	0	27	104	756023296	87	36060
2026-01-14 14:49:39.43	331.79	3.80	-59.9	-79.3	3.8	7.46e-01	0	27	104	756023296	87	36009
2026-01-14 14:49:40.43	331.93	3.76	-59.9	-79.3	3.8	7.48e-01	0	27	104	756023296	87	35972
2026-01-14 14:49:41.44	332.06	3.72	-59.9	-79.3	3.8	7.47e-01	0	27	104	756023296	87	35821
2026-01-14 14:49:42.45	332.19	3.67	-59.9	-79.3	3.8	7.45e-01	0	28	104	756023296	87	35887
2026-01-14 14:49:43.46	332.32	3.63	-59.9	-79.3	3.8	7.43e-01	0	27	104	756023296	87	35865
2026-01-14 14:49:44.47	332.45	3.59	-59.9	-79.3	3.8	7.44e-01	0	28	104	756023296	87	35854
2026-01-14 14:49:45.48	332.58	3.55	-59.9	-79.3	3.8	7.45e-01	0	28	104	756023296	87	35763
2026-01-14 14:49:46.49	332.71	3.50	-59.9	-79.2	3.8	7.46e-01	0	27	104	756023296	87	35676
2026-01-14 14:49:47.50	332.84	3.46	-59.9	-79.3	3.8	7.49e-01	0	27	104	756023296	87	35809
2026-01-14 14:49:48.51	332.97	3.42	-59.9	-79.2	3.8	7.43e-01	0	27	104	756023296	87	35686
2026-01-14 14:49:49.52	333.10	3.38	-59.8	-79.2	3.8	7.47e-01	0	28	104	756023296	87	35687
2026-01-14 14:49:50.53	333.23	3.33	-59.8	-79.2	3.8	7.46e-01	0	28	104	756023296	87	35626
2026-01-14 14:49:51.53	333.36	3.29	-59.8	-79.2	3.8	7.48e-01	0	28	104	756023296	87	35624
2026-01-14 14:49:52.55	333.49	3.25	-59.8	-79.2	3.8	7.46e-01	0	28	104	756023296	87	35555
2026-01-14 14:49:53.55	333.61	3.21	-59.8	-79.2	3.8	7.48e-01	0	28	104	756023296	87	35562
2026-01-14 14:49:54.55	333.74	3.16	-59.8	-79.2	3.8	7.47e-01	0	28	104	756023296	87	35547
2026-01-14 14:49:55.56	333.87	3.12	-59.8	-79.2	3.8	7.44e-01	0	28	104	756023296	87	35636
2026-01-14 14:49:56.57	333.99	3.08	-59.8	-79.2	3.8	7.45e-01	0	28	104	756023296	87	35577
2026-01-14 14:49:57.58	334.12	3.04	-59.8	-79.2	3.8	7.44e-01	0	28	104	756023296	87	35484
2026-01-14 14:49:58.59	334.25	2.99	-59.8	-79.2	3.8	7.48e-01	0	27	104	756023296	87	35593
2026-01-14 14:49:59.60	334.37	2.95	-59.8	-79.2	3.8	7.47e-01	0	28	104	756023296	87	35506
2026-01-14 14:50:00.61	334.50	2.91	-59.8	-79.2	3.8	7.47e-01	0	28	104	756023296	87	35444
2026-01-14 14:50:01.62	334.62	2.86	-59.8	-79.2	3.8	7.45e-01	0	27	104	756023296	87	35465
2026-01-14 14:50:02.63	334.74	2.82	-59.8	-79.2	3.8	7.48e-01	0	28	104	756023296	87	35428
2026-01-14 14:50:03.64	334.87	2.78	-59.8	-79.2	3.8	7.47e-01	0	27	104	756023296	87	35397
2026-01-14 14:50:04.65	334.99	2.74	-59.8	-79.2	3.8	7.45e-01	0	28	104	756023296	87	35433
2026-01-14 14:50:05.66	335.11	2.69	-59.8	-79.2	3.8	7.47e-01	0	27	104	756023296	87	35398
2026-01-14 14:50:06.67	335.24	2.65	-59.8	-79.2	3.8	7.43e-01	0	28	104	756023296	87	35399
2026-01-14 14:50:07.67	335.36	2.61	-59.8	-79.2	3.8	7.47e-01	0	28	104	756023296	87	35364
2026-01-14 14:50:08.68	335.48	2.56	-59.8	-79.2	3.8	7.46e-01	0	27	104	756023296	87	35398
2026-01-14 14:50:09.69	335.60	2.52	-59.8	-79.2	3.8	7.45e-01	0	28	104	756023296	87	35359
2026-01-14 14:50:10.70	335.72	2.48	-59.8	-79.2	3.8	7.49e-01	0	28	104	756023296	87	35408
2026-01-14 14:50:11.71	335.84	2.44	-59.8	-79.2	3.8	7.47e-01	0	28	104	756023296	87	35383
2026-01-14 14:50:12.72	335.96	2.39	-59.8	-79.2	3.8	7.45e-01	0	28	104	756023296	87	35457
2026-01-14 14:50:13.73	336.08	2.35	-59.8	-79.2	3.8	7.45e-01	0	28	104	756023296	87	35297
2026-01-14 14:50:14.74	336.20	2.31	-59.8	-79.2	3.8	7.46e-01	0	28	104	756023296	87	35310
2026-01-14 14:50:15.75	336.32	2.26	-59.8	-79.2	3.8	7.43e-01	0	28	104	756023296	87	35357
2026-01-14 14:50:16.76	336.44	2.22	-59.8	-79.2	3.8	7.46e-01	0	28	104	756023296	87	35318
2026-01-14 14:50:17.77	336.56	2.18	-59.8	-79.1	3.8	7.47e-01	0	28	104	756023296	87	35250
2026-01-14 14:50:18.78	336.68	2.13	-59.7	-79.2	3.8	7.45e-01	0	28	104	756023296	87	35287
2026-01-14 14:50:19.79	336.80	2.09	-59.7	-79.1	3.8	7.44e-01	0	28	104	756023296	87	35265
2026-01-14 14:50:20.80	336.92	2.05	-59.7	-79.2	3.8	7.47e-01	0	27	104	756023296	87	35299
2026-01-14 14:50:21.81	337.03	2.00	-59.8	-79.1	3.8	7.47e-01	0	28	104	756023296	87	35248
2026-01-14 14:50:22.82	337.15	1.96	-59.7	-79.1	3.8	7.43e-01	0	28	104	756023296	87	35241
2026-01-14 14:50:23.83	337.27	1.92	-59.7	-79.1	3.8	7.49e-01	0	28	104	756023296	87	35267

#Closed at: 2026-01-14 14:50:24
#Recorded file [756 MB]: D:/lorett/data/31004_260114_174122.dat