passes_logs/2026/01/14/R3.2S_Murmansk/R3.2S_Murmansk__20260114_130049_AQUA_rec.log

#Pass ID: 20260114_130049_AQUA
#Satellite: AQUA
#Configuration: AQUA
#almurnet v.1.7.20251203
#Start time: 2026-01-14 13:00:51

#Version: 2.2.20231116
#Station: R3.2S_Murmansk
#Location: 33.079688 lon 68.888172 lat
#TLE: 1 27424U 02022A   26013.85306262  .00000759  00000+0  16188-3 0  9996
#TLE: 2 27424  98.4079 340.2612 0002043  79.8220 301.8652 14.61819210260728

#Time	Az	El	Level	Level2	SNR	BER	BlckErr	Temp	State	Recorded	gain1	gain2
2026-01-14 13:00:51.03	197.75	2.12	-58.0	-77.1	3.8	7.43e-01	0	25	0	0	85	31406
2026-01-14 13:00:52.04	197.81	2.18	-57.8	-76.9	3.8	7.49e-01	0	25	104	0	83	34092
2026-01-14 13:00:53.05	197.88	2.25	-57.8	-76.8	3.8	7.49e-01	0	25	104	0	83	33784
2026-01-14 13:00:54.06	197.94	2.31	-57.8	-76.9	3.8	7.46e-01	0	26	104	0	83	34368
2026-01-14 13:00:55.07	198.01	2.37	-57.8	-76.8	3.8	7.45e-01	0	26	104	0	83	34014
2026-01-14 13:00:56.07	198.07	2.43	-57.8	-77.0	3.8	7.43e-01	0	26	104	0	83	34742
2026-01-14 13:00:57.08	198.13	2.50	-57.8	-77.0	3.8	7.45e-01	0	26	104	0	83	34781
2026-01-14 13:00:58.09	198.20	2.56	-57.8	-77.1	3.8	7.50e-01	0	26	104	0	83	35034
2026-01-14 13:00:59.10	198.26	2.62	-57.8	-77.1	3.8	7.50e-01	0	26	104	0	83	35113
2026-01-14 13:01:00.11	198.33	2.68	-57.8	-77.0	3.8	7.46e-01	0	26	104	0	83	34795
2026-01-14 13:01:01.12	198.39	2.75	-57.8	-77.0	3.8	7.46e-01	0	26	104	0	83	34833
2026-01-14 13:01:02.13	198.46	2.81	-57.8	-76.8	3.8	7.49e-01	0	26	104	0	83	34022
2026-01-14 13:01:03.14	198.53	2.87	-57.8	-77.0	3.8	7.49e-01	0	26	104	0	83	34505
2026-01-14 13:01:04.15	198.59	2.94	-57.8	-76.9	3.8	7.44e-01	0	26	104	0	83	34254
2026-01-14 13:01:05.15	198.66	3.00	-57.8	-76.9	3.8	7.44e-01	0	26	104	0	83	34422
2026-01-14 13:01:06.16	198.72	3.06	-57.8	-76.9	3.8	7.49e-01	0	26	104	0	83	34360
2026-01-14 13:01:07.17	198.79	3.13	-57.8	-77.0	3.8	7.46e-01	0	26	104	0	83	34660
2026-01-14 13:01:08.19	198.86	3.19	-57.8	-76.8	3.8	7.43e-01	0	26	104	0	83	33982
2026-01-14 13:01:09.19	198.93	3.26	-57.7	-76.7	3.8	7.44e-01	0	26	104	0	83	33610
2026-01-14 13:01:10.20	199.00	3.32	-57.8	-76.5	3.8	7.47e-01	0	26	104	0	83	32850
2026-01-14 13:01:11.21	199.06	3.38	-57.7	-76.3	3.8	7.46e-01	0	26	104	0	83	32130
2026-01-14 13:01:12.22	199.13	3.45	-57.7	-76.0	3.8	7.44e-01	0	26	104	0	83	30777
2026-01-14 13:01:13.23	199.20	3.51	-57.7	-75.5	3.9	7.43e-01	0	26	104	0	83	29341
2026-01-14 13:01:14.23	199.27	3.58	-57.7	-75.0	3.9	7.44e-01	0	26	104	0	83	27510
2026-01-14 13:01:15.24	199.34	3.64	-57.7	-74.5	4.0	7.40e-01	0	26	104	0	83	26063
2026-01-14 13:01:16.25	199.41	3.71	-57.7	-74.6	3.9	7.42e-01	0	26	104	0	83	26236
2026-01-14 13:01:17.26	199.48	3.77	-57.7	-74.8	4.0	7.44e-01	0	26	104	0	83	26973
2026-01-14 13:01:18.27	199.55	3.84	-57.7	-75.7	3.8	7.47e-01	0	26	104	0	83	29950
2026-01-14 13:01:19.27	199.62	3.90	-57.8	-76.5	3.8	7.44e-01	0	26	104	0	83	32734
2026-01-14 13:01:20.28	199.69	3.97	-57.8	-77.0	3.8	7.46e-01	0	26	104	0	83	34813
2026-01-14 13:01:21.29	199.77	4.03	-57.8	-76.1	3.8	7.45e-01	0	26	104	0	83	31191
2026-01-14 13:01:22.30	199.84	4.10	-57.7	-73.6	4.0	7.36e-01	0	26	104	0	83	23520
2026-01-14 13:01:23.31	199.91	4.17	-57.6	-71.4	4.9	7.10e-01	0	26	104	0	83	18226
2026-01-14 13:01:24.32	199.98	4.23	-57.5	-69.1	6.4	6.73e-01	92	26	0	1048576	83	13943
2026-01-14 13:01:25.33	200.06	4.30	-57.4	-68.4	7.0	6.58e-01	90	26	0	3145728	83	12888
2026-01-14 13:01:26.34	200.13	4.37	-57.3	-67.5	7.7	6.44e-01	45	26	0	4718592	83	11668
2026-01-14 13:01:27.35	200.20	4.43	-57.3	-67.1	8.0	6.39e-01	7	26	0	6815744	83	11151
2026-01-14 13:01:28.36	200.28	4.50	-57.2	-66.2	8.8	6.32e-01	0	26	0	8388608	83	10011
2026-01-14 13:01:29.36	200.35	4.57	-57.3	-67.3	7.9	6.46e-01	10	26	0	10485760	83	11299
2026-01-14 13:01:30.37	200.43	4.63	-57.2	-66.6	8.5	6.34e-01	0	26	0	12582912	83	10472
2026-01-14 13:01:31.38	200.50	4.70	-57.0	-65.3	9.6	6.23e-01	0	26	0	14155776	83	9023
2026-01-14 13:01:32.39	200.58	4.77	-56.7	-64.1	10.6	6.14e-01	0	26	0	16252928	82	8329
2026-01-14 13:01:33.39	200.65	4.83	-56.5	-62.9	11.5	6.11e-01	0	26	0	17825792	82	7225
2026-01-14 13:01:34.41	200.73	4.90	-56.3	-62.3	11.8	6.08e-01	0	26	0	19922944	81	7141
2026-01-14 13:01:35.41	200.81	4.97	-55.8	-61.1	12.6	6.10e-01	0	26	0	22020096	80	6605
2026-01-14 13:01:36.42	200.88	5.04	-55.9	-61.3	12.5	6.08e-01	0	26	0	23592960	80	6759
2026-01-14 13:01:37.43	200.96	5.11	-56.3	-62.2	11.9	6.09e-01	0	26	0	25690112	80	7522
2026-01-14 13:01:38.44	201.04	5.17	-56.0	-61.5	12.4	6.10e-01	0	26	0	27787264	81	6522
2026-01-14 13:01:39.44	201.11	5.24	-57.4	-68.9	7.2	6.61e-01	92	26	0	29360128	82	14376
2026-01-14 13:01:40.45	201.19	5.31	-56.9	-64.7	7.4	6.26e-01	1	27	104	29360128	82	8910
2026-01-14 13:01:41.46	201.27	5.38	-52.0	-54.4	15.0	6.06e-01	0	27	0	30408704	73	4552
2026-01-14 13:01:42.47	201.35	5.45	-51.8	-54.1	15.0	6.06e-01	0	27	0	32505856	72	4660
2026-01-14 13:01:43.47	201.43	5.52	-51.9	-54.1	15.0	6.07e-01	0	26	0	34078720	72	4691
2026-01-14 13:01:44.48	201.51	5.59	-52.0	-54.3	15.0	6.06e-01	0	26	0	36175872	72	4796
2026-01-14 13:01:45.49	201.59	5.66	-51.9	-54.2	15.0	6.06e-01	0	26	0	38273024	72	4752
2026-01-14 13:01:46.50	201.67	5.73	-52.1	-54.4	14.9	6.06e-01	0	27	0	39845888	72	4847
2026-01-14 13:01:47.50	201.75	5.79	-51.7	-53.9	15.1	6.05e-01	0	27	0	41943040	72	4588
2026-01-14 13:01:48.52	201.83	5.87	-51.6	-53.7	15.2	6.06e-01	0	26	0	44040192	72	4482
2026-01-14 13:01:49.52	201.92	5.94	-52.0	-54.3	15.0	6.05e-01	0	27	0	45613056	72	4776
2026-01-14 13:01:50.53	202.00	6.01	-52.0	-54.3	15.0	6.07e-01	0	26	0	47710208	72	4783
2026-01-14 13:01:51.54	202.08	6.08	-51.9	-54.1	15.0	6.09e-01	0	27	0	49283072	72	4693
2026-01-14 13:01:52.55	202.16	6.15	-51.8	-54.1	15.1	6.05e-01	0	27	0	51380224	72	4661
2026-01-14 13:01:53.55	202.25	6.22	-51.8	-54.1	15.1	6.06e-01	0	27	0	53477376	72	4654
2026-01-14 13:01:54.56	202.33	6.29	-52.0	-54.3	15.0	6.06e-01	0	27	0	55050240	72	4764
2026-01-14 13:01:55.57	202.42	6.36	-51.7	-53.8	15.2	6.09e-01	0	26	0	57147392	72	4543
2026-01-14 13:01:56.57	202.50	6.43	-51.8	-54.0	15.1	6.05e-01	0	27	0	58720256	72	4609
2026-01-14 13:01:57.58	202.59	6.50	-51.7	-53.9	15.1	6.08e-01	0	27	0	60817408	72	4559
2026-01-14 13:01:58.58	202.67	6.57	-51.5	-53.6	15.3	6.06e-01	0	27	0	62914560	72	4393
2026-01-14 13:01:59.59	202.76	6.64	-51.6	-53.7	15.2	6.07e-01	0	27	0	64487424	72	4462
2026-01-14 13:02:00.60	202.84	6.72	-51.5	-53.7	15.1	6.09e-01	0	27	0	66584576	71	4728
2026-01-14 13:02:01.60	202.93	6.79	-51.6	-53.8	15.1	6.06e-01	0	27	0	68157440	71	4774
2026-01-14 13:02:02.61	203.02	6.86	-51.4	-53.5	15.1	6.06e-01	0	27	0	70254592	71	4626
2026-01-14 13:02:03.62	203.11	6.93	-51.7	-53.9	15.0	6.03e-01	0	27	0	72351744	71	4825
2026-01-14 13:02:04.62	203.19	7.00	-51.5	-53.7	15.1	6.05e-01	0	27	0	73924608	71	4722
2026-01-14 13:02:05.63	203.28	7.08	-51.5	-53.6	15.1	6.07e-01	0	27	0	76021760	71	4694
2026-01-14 13:02:06.63	203.37	7.15	-51.6	-53.8	15.1	6.07e-01	0	27	0	77594624	71	4768
2026-01-14 13:02:07.64	203.46	7.22	-51.5	-53.7	15.1	6.06e-01	0	27	0	79691776	71	4713
2026-01-14 13:02:08.65	203.55	7.30	-51.3	-53.3	15.2	6.08e-01	0	27	0	81788928	71	4543
2026-01-14 13:02:09.66	203.64	7.37	-51.4	-53.5	15.1	6.05e-01	0	27	0	83361792	71	4620
2026-01-14 13:02:10.67	203.73	7.44	-51.5	-53.5	15.1	6.07e-01	0	27	0	85458944	71	4647
2026-01-14 13:02:11.68	203.83	7.52	-51.4	-53.4	15.2	6.06e-01	0	27	0	87556096	71	4584
2026-01-14 13:02:12.69	203.92	7.59	-51.3	-53.4	15.2	6.07e-01	0	27	0	89128960	71	4551
2026-01-14 13:02:13.69	204.01	7.67	-51.3	-53.3	15.2	6.06e-01	0	27	0	91226112	71	4529
2026-01-14 13:02:14.71	204.10	7.74	-51.4	-53.4	15.2	6.04e-01	0	27	0	92798976	71	4580
2026-01-14 13:02:15.71	204.20	7.81	-51.3	-53.4	15.2	6.06e-01	0	27	0	94896128	71	4566
2026-01-14 13:02:16.72	204.29	7.89	-51.4	-53.4	15.2	6.07e-01	0	27	0	96468992	71	4596
2026-01-14 13:02:17.72	204.39	7.96	-51.4	-53.4	15.2	6.05e-01	0	27	0	98566144	71	4595
2026-01-14 13:02:18.73	204.48	8.04	-51.3	-53.4	15.2	6.04e-01	0	27	0	100663296	71	4547
2026-01-14 13:02:19.73	204.58	8.11	-51.3	-53.4	15.2	6.04e-01	0	27	0	102236160	71	4563
2026-01-14 13:02:20.74	204.67	8.19	-51.3	-53.4	15.2	6.08e-01	0	27	0	104333312	71	4558
2026-01-14 13:02:21.75	204.77	8.26	-51.1	-53.1	15.3	6.06e-01	0	27	0	105906176	71	4416
2026-01-14 13:02:22.76	204.87	8.34	-51.3	-53.3	15.2	6.03e-01	0	27	0	108003328	71	4515
2026-01-14 13:02:23.76	204.96	8.42	-51.2	-53.1	15.3	6.07e-01	0	27	0	110100480	71	4437
2026-01-14 13:02:24.77	205.06	8.49	-51.2	-53.2	15.2	6.06e-01	0	27	0	111673344	71	4479
2026-01-14 13:02:25.78	205.16	8.57	-51.0	-52.9	15.3	6.07e-01	0	27	0	113770496	71	4325
2026-01-14 13:02:26.79	205.26	8.65	-51.1	-53.0	15.3	6.07e-01	0	27	0	115867648	71	4382
2026-01-14 13:02:27.79	205.36	8.72	-51.0	-52.9	15.4	6.06e-01	0	27	0	117440512	71	4318
2026-01-14 13:02:28.80	205.46	8.80	-50.9	-52.8	15.4	6.05e-01	0	27	0	119537664	71	4270
2026-01-14 13:02:29.81	205.56	8.88	-51.0	-52.9	15.3	6.05e-01	0	27	0	121110528	71	4333
2026-01-14 13:02:30.82	205.66	8.95	-50.9	-52.9	15.4	6.05e-01	0	27	0	123207680	71	4293
2026-01-14 13:02:31.83	205.77	9.03	-51.0	-53.0	15.3	6.08e-01	0	27	0	125304832	71	4355
2026-01-14 13:02:32.84	205.87	9.11	-51.0	-53.0	15.3	6.06e-01	0	27	0	126877696	71	4344
2026-01-14 13:02:33.85	205.97	9.19	-51.0	-53.0	15.3	6.06e-01	0	27	0	128974848	71	4341
2026-01-14 13:02:34.86	206.08	9.27	-51.0	-52.9	15.3	6.06e-01	0	27	0	130547712	71	4317
2026-01-14 13:02:35.87	206.18	9.35	-51.0	-53.0	15.3	6.06e-01	0	27	0	132644864	71	4350
2026-01-14 13:02:36.88	206.29	9.42	-51.0	-53.0	15.3	6.05e-01	0	27	0	134742016	71	4353
2026-01-14 13:02:37.88	206.39	9.50	-50.9	-52.9	15.4	6.06e-01	0	27	0	136314880	71	4293
2026-01-14 13:02:38.89	206.50	9.58	-50.9	-52.8	15.2	6.07e-01	0	27	0	138412032	70	4521
2026-01-14 13:02:39.90	206.60	9.66	-50.8	-52.8	15.2	6.06e-01	0	27	0	139984896	70	4501
2026-01-14 13:02:40.90	206.71	9.74	-50.8	-52.7	15.3	6.06e-01	0	27	0	142082048	70	4460
2026-01-14 13:02:41.91	206.82	9.82	-50.8	-52.7	15.3	6.04e-01	0	27	0	144179200	70	4460
2026-01-14 13:02:42.92	206.93	9.90	-50.9	-52.7	15.3	6.08e-01	0	27	0	145752064	70	4493
2026-01-14 13:02:43.93	207.04	9.98	-50.8	-52.6	15.3	6.05e-01	0	27	0	147849216	70	4430
2026-01-14 13:02:44.94	207.15	10.06	-50.7	-52.6	15.3	6.08e-01	0	27	0	149422080	70	4427
2026-01-14 13:02:45.94	207.26	10.14	-50.8	-52.7	15.3	6.06e-01	0	27	0	151519232	70	4463
2026-01-14 13:02:46.95	207.37	10.22	-50.8	-52.7	15.3	6.04e-01	0	27	0	153616384	70	4484
2026-01-14 13:02:47.96	207.48	10.30	-50.8	-52.7	15.3	6.04e-01	0	27	0	155189248	70	4474
2026-01-14 13:02:48.97	207.59	10.38	-50.7	-52.5	15.3	6.06e-01	0	27	0	157286400	70	4371
2026-01-14 13:02:49.98	207.70	10.46	-50.7	-52.5	15.3	6.07e-01	0	27	0	158859264	70	4384
2026-01-14 13:02:50.99	207.82	10.55	-50.7	-52.5	15.3	6.05e-01	0	27	0	160956416	70	4385
2026-01-14 13:02:52.00	207.93	10.63	-50.7	-52.6	15.3	6.05e-01	0	27	0	163053568	70	4399
2026-01-14 13:02:53.01	208.05	10.71	-50.6	-52.4	15.4	6.05e-01	0	27	0	164626432	70	4327
2026-01-14 13:02:54.02	208.16	10.79	-50.5	-52.3	15.4	6.07e-01	0	27	0	166723584	70	4291
2026-01-14 13:02:55.03	208.28	10.87	-50.6	-52.5	15.4	6.06e-01	0	27	0	168820736	70	4351
2026-01-14 13:02:56.03	208.40	10.96	-50.5	-52.3	15.4	6.06e-01	0	27	0	170393600	70	4281
2026-01-14 13:02:57.04	208.51	11.04	-50.5	-52.3	15.4	6.07e-01	0	27	0	172490752	70	4261
2026-01-14 13:02:58.05	208.63	11.12	-50.6	-52.4	15.4	6.05e-01	0	27	0	174063616	70	4323
2026-01-14 13:02:59.06	208.75	11.21	-50.5	-52.3	15.4	6.06e-01	0	27	0	176160768	70	4283
2026-01-14 13:03:00.06	208.87	11.29	-50.5	-52.3	15.4	6.05e-01	0	27	0	177733632	70	4286
2026-01-14 13:03:01.07	208.99	11.37	-50.5	-52.3	15.4	6.07e-01	0	27	0	179830784	70	4261
2026-01-14 13:03:02.08	209.11	11.46	-50.6	-52.4	15.4	6.07e-01	0	27	0	181927936	70	4303
2026-01-14 13:03:03.09	209.24	11.54	-50.5	-52.3	15.4	6.08e-01	0	27	0	183500800	70	4269
2026-01-14 13:03:04.09	209.36	11.62	-50.5	-52.3	15.4	6.09e-01	0	27	0	185597952	70	4248
2026-01-14 13:03:05.10	209.48	11.71	-50.5	-52.3	15.4	6.05e-01	0	27	0	187170816	70	4245
2026-01-14 13:03:06.10	209.60	11.79	-50.4	-52.1	15.5	6.07e-01	0	27	0	189267968	70	4192
2026-01-14 13:03:07.11	209.73	11.88	-50.4	-52.2	15.3	6.08e-01	0	27	0	191365120	69	4453
2026-01-14 13:03:08.12	209.85	11.96	-50.4	-52.2	15.3	6.05e-01	0	27	0	192937984	69	4469
2026-01-14 13:03:09.13	209.98	12.05	-50.3	-52.1	15.3	6.07e-01	0	27	0	195035136	69	4409
2026-01-14 13:03:10.14	210.11	12.13	-50.3	-52.0	15.4	6.06e-01	0	27	0	197132288	69	4381
2026-01-14 13:03:11.15	210.24	12.22	-50.3	-52.1	15.3	6.06e-01	0	27	0	198705152	69	4404
2026-01-14 13:03:12.15	210.36	12.30	-50.3	-52.1	15.3	6.09e-01	0	27	0	200802304	69	4410
2026-01-14 13:03:13.16	210.49	12.39	-50.3	-52.0	15.4	6.07e-01	0	27	0	202375168	69	4383
2026-01-14 13:03:14.17	210.62	12.48	-50.2	-52.0	15.4	6.07e-01	0	27	0	204472320	69	4360
2026-01-14 13:03:15.18	210.76	12.56	-50.2	-51.9	15.4	6.06e-01	0	27	0	206569472	69	4337
2026-01-14 13:03:16.19	210.89	12.65	-50.2	-51.9	15.4	6.05e-01	0	27	0	208142336	69	4310
2026-01-14 13:03:17.20	211.02	12.74	-50.2	-52.0	15.4	6.07e-01	0	27	0	210239488	69	4343
2026-01-14 13:03:18.20	211.15	12.82	-50.2	-51.9	15.4	6.07e-01	0	27	0	211812352	69	4311
2026-01-14 13:03:19.21	211.29	12.91	-50.2	-52.0	15.4	6.08e-01	0	27	0	213909504	69	4362
2026-01-14 13:03:20.22	211.42	13.00	-50.3	-52.0	15.4	6.06e-01	0	27	0	215482368	69	4377
2026-01-14 13:03:21.22	211.56	13.09	-50.3	-52.0	15.4	6.06e-01	0	27	0	217579520	69	4385
2026-01-14 13:03:22.23	211.70	13.17	-50.2	-52.0	15.4	6.08e-01	0	27	0	219676672	69	4347
2026-01-14 13:03:23.24	211.83	13.26	-50.2	-51.9	15.4	6.07e-01	0	27	0	221249536	69	4325
2026-01-14 13:03:24.25	211.97	13.35	-50.1	-51.9	15.4	6.07e-01	0	27	0	223346688	69	4305
2026-01-14 13:03:25.26	212.11	13.44	-50.2	-51.9	15.4	6.06e-01	0	27	0	225443840	69	4319
2026-01-14 13:03:26.27	212.25	13.53	-50.1	-51.8	15.4	6.08e-01	0	27	0	227016704	69	4271
2026-01-14 13:03:27.28	212.39	13.62	-50.1	-51.9	15.4	6.06e-01	0	27	0	229113856	69	4296
2026-01-14 13:03:28.29	212.54	13.71	-50.1	-51.8	15.4	6.07e-01	0	27	0	230686720	69	4258
2026-01-14 13:03:29.30	212.68	13.80	-50.1	-51.8	15.4	6.06e-01	0	27	0	232783872	69	4268
2026-01-14 13:03:30.31	212.82	13.89	-50.2	-51.9	15.4	6.05e-01	0	27	0	234881024	69	4326
2026-01-14 13:03:31.32	212.97	13.98	-50.0	-51.7	15.4	6.06e-01	0	27	0	236453888	69	4240
2026-01-14 13:03:32.33	213.11	14.07	-50.0	-51.7	15.5	6.06e-01	0	27	0	238551040	69	4217
2026-01-14 13:03:33.34	213.26	14.16	-50.0	-51.7	15.4	6.07e-01	0	27	0	240648192	69	4240
2026-01-14 13:03:34.35	213.41	14.25	-50.1	-51.8	15.4	6.08e-01	0	27	0	242221056	69	4253
2026-01-14 13:03:35.35	213.55	14.34	-50.1	-51.8	15.4	6.07e-01	0	27	0	244318208	69	4249
2026-01-14 13:03:36.36	213.70	14.43	-50.0	-51.7	15.4	6.05e-01	0	27	0	245891072	69	4231
2026-01-14 13:03:37.37	213.86	14.52	-50.0	-51.7	15.4	6.05e-01	0	27	0	247988224	69	4242
2026-01-14 13:03:38.37	214.01	14.61	-50.0	-51.7	15.5	6.07e-01	0	27	0	250085376	69	4213
2026-01-14 13:03:39.38	214.16	14.71	-50.0	-51.7	15.5	6.06e-01	0	27	0	251658240	69	4195
2026-01-14 13:03:40.39	214.31	14.80	-50.0	-51.7	15.4	6.06e-01	0	27	0	253755392	69	4230
2026-01-14 13:03:41.40	214.47	14.89	-50.0	-51.8	15.4	6.06e-01	0	27	0	255328256	69	4244
2026-01-14 13:03:42.41	214.62	14.98	-50.0	-51.7	15.4	6.07e-01	0	27	0	257425408	69	4229
2026-01-14 13:03:43.42	214.78	15.07	-50.1	-51.8	15.4	6.07e-01	0	27	0	258998272	69	4250
2026-01-14 13:03:44.43	214.93	15.17	-50.1	-51.8	15.4	6.07e-01	0	27	0	261095424	69	4266
2026-01-14 13:03:45.43	215.09	15.26	-50.1	-51.8	15.4	6.07e-01	0	27	0	263192576	69	4265
2026-01-14 13:03:46.44	215.25	15.35	-50.1	-51.8	15.4	6.07e-01	0	27	0	264765440	69	4253
2026-01-14 13:03:47.45	215.41	15.45	-50.0	-51.7	15.5	6.07e-01	0	27	0	266862592	69	4209
2026-01-14 13:03:48.46	215.57	15.54	-49.9	-51.6	15.5	6.07e-01	0	27	0	268959744	69	4158
2026-01-14 13:03:49.47	215.74	15.63	-49.9	-51.6	15.5	6.07e-01	0	27	0	270532608	69	4167
2026-01-14 13:03:50.48	215.90	15.73	-50.0	-51.6	15.5	6.06e-01	0	27	0	272629760	69	4193
2026-01-14 13:03:51.49	216.06	15.82	-49.9	-51.6	15.4	6.07e-01	0	27	0	274202624	68	4393
2026-01-14 13:03:52.50	216.23	15.92	-49.9	-51.6	15.3	6.06e-01	0	27	0	276299776	68	4433
2026-01-14 13:03:53.51	216.40	16.01	-49.9	-51.6	15.3	6.05e-01	0	27	0	278396928	68	4422
2026-01-14 13:03:54.52	216.56	16.11	-49.9	-51.6	15.3	6.05e-01	0	27	0	279969792	68	4426
2026-01-14 13:03:55.53	216.73	16.20	-49.9	-51.6	15.3	6.05e-01	0	27	0	282066944	68	4436
2026-01-14 13:03:56.53	216.90	16.29	-49.9	-51.6	15.3	6.06e-01	0	27	0	283639808	68	4427
2026-01-14 13:03:57.54	217.07	16.39	-49.9	-51.6	15.3	6.06e-01	0	27	0	285736960	68	4405
2026-01-14 13:03:58.54	217.24	16.48	-49.8	-51.5	15.4	6.05e-01	0	27	0	287834112	68	4370
2026-01-14 13:03:59.55	217.42	16.58	-49.8	-51.5	15.4	6.05e-01	0	27	0	289406976	68	4384
2026-01-14 13:04:00.56	217.59	16.68	-49.8	-51.4	15.4	6.06e-01	0	27	0	291504128	68	4330
2026-01-14 13:04:01.57	217.77	16.77	-49.8	-51.4	15.4	6.07e-01	0	27	0	293076992	68	4339
2026-01-14 13:04:02.58	217.94	16.87	-49.8	-51.5	15.4	6.07e-01	0	27	0	295174144	68	4369
2026-01-14 13:04:03.59	218.12	16.96	-49.8	-51.5	15.4	6.07e-01	0	27	0	297271296	68	4381
2026-01-14 13:04:04.60	218.30	17.06	-49.8	-51.5	15.4	6.08e-01	0	27	0	298844160	68	4363
2026-01-14 13:04:05.61	218.48	17.16	-49.8	-51.4	15.4	6.06e-01	0	27	0	300941312	68	4334
2026-01-14 13:04:06.60	218.66	17.25	-49.8	-51.4	15.4	6.04e-01	0	27	0	302514176	68	4340
2026-01-14 13:04:07.61	218.84	17.35	-49.9	-51.6	15.3	6.07e-01	0	27	0	304611328	68	4407
2026-01-14 13:04:08.62	219.03	17.45	-49.8	-51.5	15.4	6.06e-01	0	27	0	306708480	68	4381
2026-01-14 13:04:09.62	219.21	17.54	-49.8	-51.5	15.4	6.07e-01	0	27	0	308281344	68	4375
2026-01-14 13:04:10.63	219.40	17.64	-49.7	-51.4	15.4	6.06e-01	0	27	0	310378496	68	4316
2026-01-14 13:04:11.64	219.58	17.74	-49.7	-51.4	15.4	6.05e-01	0	27	0	311951360	68	4298
2026-01-14 13:04:12.65	219.77	17.84	-49.7	-51.3	15.4	6.04e-01	0	27	0	314048512	68	4261
2026-01-14 13:04:13.66	219.96	17.93	-49.7	-51.4	15.4	6.09e-01	0	27	0	316145664	68	4304
2026-01-14 13:04:14.67	220.16	18.03	-49.7	-51.4	15.4	6.06e-01	0	27	0	317718528	68	4295
2026-01-14 13:04:15.67	220.35	18.13	-49.8	-51.5	15.4	6.06e-01	0	27	0	319815680	68	4353
2026-01-14 13:04:16.68	220.54	18.23	-49.7	-51.3	15.4	6.05e-01	0	27	0	321912832	68	4279
2026-01-14 13:04:17.69	220.74	18.33	-49.8	-51.4	15.4	6.06e-01	0	27	0	323485696	68	4323
2026-01-14 13:04:18.70	220.93	18.43	-49.8	-51.4	15.4	6.07e-01	0	27	0	325582848	68	4336
2026-01-14 13:04:19.71	221.13	18.52	-49.7	-51.4	15.4	6.08e-01	0	27	0	327155712	68	4309
2026-01-14 13:04:20.72	221.33	18.62	-49.7	-51.4	15.4	6.04e-01	0	27	0	329252864	68	4300
2026-01-14 13:04:21.73	221.53	18.72	-49.8	-51.4	15.4	6.08e-01	0	27	0	331350016	68	4335
2026-01-14 13:04:22.74	221.73	18.82	-49.8	-51.5	15.4	6.06e-01	0	27	0	332922880	68	4347
2026-01-14 13:04:23.75	221.94	18.92	-49.7	-51.4	15.4	6.06e-01	0	27	0	335020032	68	4307
2026-01-14 13:04:24.76	222.14	19.02	-49.7	-51.4	15.4	6.06e-01	0	27	0	336592896	68	4307
2026-01-14 13:04:25.77	222.35	19.12	-49.8	-51.4	15.4	6.06e-01	0	27	0	338690048	68	4339
2026-01-14 13:04:26.77	222.55	19.22	-49.7	-51.3	15.4	6.07e-01	0	27	0	340262912	68	4289
2026-01-14 13:04:27.78	222.76	19.32	-49.7	-51.4	15.4	6.06e-01	0	27	0	342360064	68	4309
2026-01-14 13:04:28.79	222.97	19.42	-49.8	-51.5	15.4	6.05e-01	0	27	0	344457216	68	4359
2026-01-14 13:04:29.80	223.18	19.52	-49.9	-51.6	15.4	6.07e-01	0	27	0	346030080	68	4392
2026-01-14 13:04:30.81	223.40	19.61	-49.8	-51.4	15.4	6.06e-01	0	27	0	348127232	68	4339
2026-01-14 13:04:31.82	223.61	19.71	-49.8	-51.4	15.4	6.07e-01	0	27	0	350224384	68	4327
2026-01-14 13:04:32.83	223.83	19.81	-49.8	-51.5	15.4	6.06e-01	0	27	0	351797248	68	4344
2026-01-14 13:04:33.83	224.04	19.91	-49.8	-51.4	15.4	6.05e-01	0	27	0	353894400	68	4309
2026-01-14 13:04:34.84	224.26	20.01	-49.8	-51.5	15.4	6.08e-01	0	27	0	355467264	68	4366
2026-01-14 13:04:35.84	224.48	20.11	-49.9	-51.5	15.4	6.08e-01	0	27	0	357564416	68	4376
2026-01-14 13:04:36.85	224.70	20.21	-49.8	-51.5	15.4	6.06e-01	0	27	0	359661568	68	4344
2026-01-14 13:04:37.85	224.92	20.31	-49.8	-51.5	15.4	6.07e-01	0	27	0	361234432	68	4353
2026-01-14 13:04:38.86	225.15	20.41	-49.9	-51.6	15.3	6.06e-01	0	27	0	363331584	68	4415
2026-01-14 13:04:39.87	225.37	20.51	-50.0	-51.6	15.3	6.02e-01	0	27	0	364904448	68	4437
2026-01-14 13:04:40.87	225.60	20.61	-50.0	-51.7	15.3	6.05e-01	0	27	0	367001600	68	4443
2026-01-14 13:04:41.88	225.83	20.71	-49.8	-51.5	15.4	6.07e-01	0	27	0	369098752	68	4352
2026-01-14 13:04:42.89	226.06	20.81	-49.8	-51.4	15.4	6.06e-01	0	27	0	370671616	68	4314
2026-01-14 13:04:43.90	226.29	20.91	-49.8	-51.5	15.4	6.07e-01	0	27	0	372768768	68	4344
2026-01-14 13:04:44.91	226.53	21.01	-49.9	-51.6	15.3	6.09e-01	0	27	0	374341632	68	4407
2026-01-14 13:04:45.92	226.76	21.11	-50.0	-51.7	15.3	6.07e-01	0	27	0	376438784	68	4460
2026-01-14 13:04:46.92	227.00	21.21	-49.9	-51.6	15.3	6.06e-01	0	27	0	378535936	68	4411
2026-01-14 13:04:47.93	227.24	21.31	-50.0	-51.7	15.3	6.06e-01	0	27	0	380108800	68	4466
2026-01-14 13:04:48.94	227.48	21.41	-50.2	-51.9	15.3	6.07e-01	0	27	0	382205952	68	4556
2026-01-14 13:04:49.95	227.72	21.51	-49.9	-51.6	15.3	6.09e-01	0	27	0	383778816	68	4419
2026-01-14 13:04:50.96	227.96	21.61	-49.9	-51.6	15.4	6.06e-01	0	27	0	385875968	68	4408
2026-01-14 13:04:51.97	228.21	21.71	-49.9	-51.6	15.3	6.07e-01	0	27	0	387973120	68	4422
2026-01-14 13:04:52.97	228.45	21.81	-49.9	-51.5	15.4	6.07e-01	0	27	0	389545984	68	4382
2026-01-14 13:04:53.98	228.70	21.91	-49.9	-51.5	15.4	6.06e-01	0	27	0	391643136	68	4378
2026-01-14 13:04:54.99	228.95	22.01	-49.9	-51.6	15.4	6.05e-01	0	27	0	393740288	68	4392
2026-01-14 13:04:56.00	229.20	22.11	-50.1	-51.8	15.3	6.08e-01	0	27	0	395313152	68	4545
2026-01-14 13:04:57.00	229.45	22.20	-50.1	-51.8	15.3	6.06e-01	0	27	0	397410304	68	4517
2026-01-14 13:04:58.02	229.71	22.30	-50.1	-51.8	15.3	6.06e-01	0	27	0	398983168	68	4509
2026-01-14 13:04:59.02	229.96	22.40	-50.2	-51.9	15.2	6.07e-01	0	27	0	401080320	68	4592
2026-01-14 13:05:00.03	230.22	22.50	-50.2	-51.8	15.3	6.07e-01	0	27	0	403177472	68	4545
2026-01-14 13:05:01.04	230.48	22.60	-50.1	-51.8	15.3	6.08e-01	0	27	0	404750336	68	4511
2026-01-14 13:05:02.05	230.74	22.70	-50.1	-51.8	15.3	6.07e-01	0	27	0	406847488	68	4511
2026-01-14 13:05:03.06	231.01	22.80	-50.0	-51.7	15.3	6.06e-01	0	27	0	408420352	68	4475
2026-01-14 13:05:04.07	231.27	22.89	-50.1	-51.8	15.3	6.07e-01	0	27	0	410517504	68	4496
2026-01-14 13:05:05.09	231.54	22.99	-50.1	-51.8	15.3	6.05e-01	0	27	0	412614656	68	4526
2026-01-14 13:05:06.09	231.81	23.09	-50.1	-51.8	15.3	6.07e-01	0	27	0	414187520	68	4495
2026-01-14 13:05:07.10	232.08	23.19	-50.1	-51.8	15.3	6.05e-01	0	27	0	416284672	68	4503
2026-01-14 13:05:08.11	232.35	23.28	-50.1	-51.8	15.3	6.04e-01	0	27	0	417857536	68	4532
2026-01-14 13:05:09.11	232.62	23.38	-50.1	-51.8	15.3	6.07e-01	0	27	0	419954688	68	4525
2026-01-14 13:05:10.12	232.89	23.48	-50.1	-51.8	15.3	6.07e-01	0	27	0	422051840	68	4540
2026-01-14 13:05:11.13	233.17	23.57	-50.1	-51.8	15.3	6.06e-01	0	27	0	423624704	68	4523
2026-01-14 13:05:12.14	233.45	23.67	-50.1	-51.8	15.3	6.09e-01	0	27	0	425721856	68	4516
2026-01-14 13:05:13.14	233.73	23.76	-50.1	-51.7	15.3	6.06e-01	0	27	0	427294720	68	4485
2026-01-14 13:05:14.15	234.01	23.86	-50.1	-51.8	15.3	6.07e-01	0	27	0	429391872	68	4539
2026-01-14 13:05:15.16	234.29	23.95	-50.2	-51.9	15.2	6.05e-01	0	27	0	431489024	68	4584
2026-01-14 13:05:16.17	234.58	24.05	-50.1	-51.8	15.3	6.07e-01	0	27	0	433061888	68	4516
2026-01-14 13:05:17.18	234.87	24.14	-50.1	-51.8	15.3	6.06e-01	0	27	0	435159040	68	4511
2026-01-14 13:05:18.19	235.16	24.24	-50.1	-51.8	15.3	6.08e-01	0	27	0	436731904	68	4530
2026-01-14 13:05:19.19	235.44	24.33	-50.2	-51.9	15.3	6.06e-01	0	27	0	438829056	68	4560
2026-01-14 13:05:20.20	235.74	24.42	-50.2	-51.9	15.3	6.08e-01	0	27	0	440926208	68	4576
2026-01-14 13:05:21.21	236.03	24.52	-50.2	-51.9	15.3	6.06e-01	0	27	0	442499072	68	4566
2026-01-14 13:05:22.22	236.33	24.61	-50.2	-51.9	15.3	6.04e-01	0	27	0	444596224	68	4590
2026-01-14 13:05:23.22	236.62	24.70	-50.3	-52.0	15.3	6.10e-01	0	27	0	446169088	68	4608
2026-01-14 13:05:24.23	236.92	24.79	-50.2	-51.9	15.3	6.05e-01	0	27	0	448266240	68	4581
2026-01-14 13:05:25.24	237.23	24.89	-50.2	-51.9	15.3	6.09e-01	0	27	0	450363392	68	4593
2026-01-14 13:05:26.25	237.53	24.98	-50.2	-51.9	15.3	6.04e-01	0	27	0	451936256	68	4564
2026-01-14 13:05:27.26	237.83	25.07	-50.2	-51.9	15.3	6.06e-01	0	27	0	454033408	68	4585
2026-01-14 13:05:28.26	238.14	25.16	-50.3	-52.0	15.2	6.06e-01	0	27	0	455606272	68	4624
2026-01-14 13:05:29.27	238.45	25.25	-50.2	-51.9	15.2	6.02e-01	0	27	0	457703424	68	4592
2026-01-14 13:05:30.28	238.76	25.33	-50.3	-52.0	15.2	6.06e-01	0	27	0	459800576	68	4603
2026-01-14 13:05:31.29	239.07	25.42	-50.2	-51.9	15.3	6.06e-01	0	27	0	461373440	68	4571
2026-01-14 13:05:32.30	239.38	25.51	-50.2	-51.9	15.3	6.06e-01	0	27	0	463470592	68	4581
2026-01-14 13:05:33.31	239.70	25.60	-50.2	-51.9	15.3	6.06e-01	0	27	0	465043456	68	4565
2026-01-14 13:05:34.31	240.02	25.68	-50.3	-52.0	15.2	6.07e-01	0	27	0	467140608	68	4607
2026-01-14 13:05:35.32	240.34	25.77	-50.3	-52.0	15.2	6.06e-01	0	27	0	469237760	68	4606
2026-01-14 13:05:36.33	240.66	25.86	-50.2	-51.8	15.3	6.06e-01	0	27	0	470810624	68	4545
2026-01-14 13:05:37.34	240.98	25.94	-50.1	-51.8	15.3	6.05e-01	0	27	0	472907776	68	4531
2026-01-14 13:05:38.35	241.30	26.02	-50.3	-52.0	15.2	6.05e-01	0	27	0	475004928	68	4618
2026-01-14 13:05:39.35	241.63	26.11	-50.3	-52.0	15.2	6.05e-01	0	27	0	476577792	68	4616
2026-01-14 13:05:40.36	241.96	26.19	-50.2	-51.9	15.3	6.06e-01	0	27	0	478674944	68	4557
2026-01-14 13:05:41.37	242.29	26.27	-50.2	-51.8	15.3	6.07e-01	0	27	0	480247808	68	4541
2026-01-14 13:05:42.38	242.62	26.35	-50.1	-51.8	15.3	6.07e-01	0	27	0	482344960	68	4521
2026-01-14 13:05:43.38	242.95	26.43	-50.2	-51.9	15.3	6.06e-01	0	27	0	484442112	68	4571
2026-01-14 13:05:44.39	243.28	26.51	-50.3	-52.0	15.3	6.05e-01	0	27	0	486014976	68	4606
2026-01-14 13:05:45.40	243.62	26.59	-50.2	-51.9	15.3	6.06e-01	0	27	0	488112128	68	4550
2026-01-14 13:05:46.41	243.96	26.67	-50.3	-52.1	15.2	6.05e-01	0	27	0	489684992	68	4653
2026-01-14 13:05:47.42	244.30	26.75	-50.1	-51.8	15.3	6.05e-01	0	27	0	491782144	68	4524
2026-01-14 13:05:48.43	244.64	26.83	-50.1	-51.8	15.3	6.05e-01	0	27	0	493879296	68	4501
2026-01-14 13:05:49.43	244.98	26.90	-50.3	-52.0	15.2	6.05e-01	0	27	0	495452160	68	4632
2026-01-14 13:05:50.44	245.33	26.98	-50.3	-52.1	15.2	6.06e-01	0	27	0	497549312	68	4661
2026-01-14 13:05:51.45	245.67	27.05	-50.3	-52.0	15.2	6.06e-01	0	27	0	499122176	68	4611
2026-01-14 13:05:52.45	246.02	27.13	-50.3	-51.9	15.2	6.06e-01	0	27	0	501219328	68	4597
2026-01-14 13:05:53.46	246.37	27.20	-50.2	-51.9	15.2	6.06e-01	0	27	0	503316480	68	4586
2026-01-14 13:05:54.47	246.72	27.27	-50.1	-51.8	15.3	6.05e-01	0	27	0	504889344	68	4541
2026-01-14 13:05:55.48	247.08	27.34	-50.1	-51.7	15.3	6.08e-01	0	27	0	506986496	68	4492
2026-01-14 13:05:56.49	247.43	27.41	-50.2	-51.8	15.3	6.07e-01	0	27	0	508559360	68	4537
2026-01-14 13:05:57.49	247.78	27.48	-50.3	-52.0	15.2	6.07e-01	0	27	0	510656512	68	4624
2026-01-14 13:05:58.50	248.14	27.55	-50.2	-51.9	15.3	6.06e-01	0	27	0	512753664	68	4563
2026-01-14 13:05:59.51	248.50	27.61	-50.2	-51.8	15.3	6.07e-01	0	27	0	514326528	68	4537
2026-01-14 13:06:00.52	248.86	27.68	-50.2	-51.9	15.3	6.09e-01	0	27	0	516423680	68	4550
2026-01-14 13:06:01.53	249.23	27.75	-50.2	-51.9	15.3	6.05e-01	0	27	0	518520832	68	4563
2026-01-14 13:06:02.54	249.59	27.81	-50.0	-51.7	15.3	6.06e-01	0	27	0	520093696	68	4470
2026-01-14 13:06:03.55	249.96	27.87	-50.1	-51.8	15.3	6.06e-01	0	27	0	522190848	68	4511
2026-01-14 13:06:04.55	250.32	27.93	-50.1	-51.8	15.3	6.06e-01	0	27	0	523763712	68	4500
2026-01-14 13:06:05.56	250.69	28.00	-49.9	-51.5	15.4	6.06e-01	0	27	0	525860864	68	4388
2026-01-14 13:06:06.57	251.06	28.06	-50.1	-51.7	15.3	6.05e-01	0	27	0	527433728	68	4482
2026-01-14 13:06:07.58	251.43	28.11	-50.1	-51.8	15.3	6.06e-01	0	27	0	529530880	68	4503
2026-01-14 13:06:08.59	251.80	28.17	-50.0	-51.7	15.3	6.06e-01	0	27	0	531628032	68	4463
2026-01-14 13:06:09.59	252.17	28.23	-50.0	-51.7	15.3	6.05e-01	0	27	0	533200896	68	4472
2026-01-14 13:06:10.60	252.55	28.28	-49.9	-51.6	15.3	6.06e-01	0	27	0	535298048	68	4404
2026-01-14 13:06:11.60	252.92	28.34	-49.9	-51.5	15.4	6.07e-01	0	27	0	536870912	68	4374
2026-01-14 13:06:12.60	253.30	28.39	-50.0	-51.6	15.3	6.07e-01	0	27	0	538968064	68	4427
2026-01-14 13:06:13.61	253.67	28.44	-50.0	-51.7	15.3	6.05e-01	0	27	0	541065216	68	4475
2026-01-14 13:06:14.62	254.05	28.49	-50.1	-51.8	15.2	6.06e-01	0	27	0	542638080	68	4511
2026-01-14 13:06:15.63	254.44	28.54	-50.0	-51.6	15.4	6.06e-01	0	27	0	544735232	68	4431
2026-01-14 13:06:16.63	254.82	28.59	-49.9	-51.5	15.4	6.08e-01	0	27	0	546832384	68	4368
2026-01-14 13:06:17.64	255.20	28.64	-50.0	-51.6	15.3	6.05e-01	0	27	0	548405248	68	4420
2026-01-14 13:06:18.65	255.58	28.68	-49.9	-51.5	15.4	6.06e-01	0	27	0	550502400	68	4371
2026-01-14 13:06:19.65	255.97	28.73	-49.9	-51.6	15.4	6.05e-01	0	27	0	552075264	68	4400
2026-01-14 13:06:20.66	256.35	28.77	-49.9	-51.6	15.4	6.06e-01	0	27	0	554172416	68	4402
2026-01-14 13:06:21.67	256.74	28.81	-50.0	-51.6	15.3	6.07e-01	0	27	0	555745280	68	4436
2026-01-14 13:06:22.68	257.13	28.85	-49.8	-51.4	15.4	6.06e-01	0	27	0	557842432	68	4331
2026-01-14 13:06:23.69	257.52	28.89	-49.8	-51.5	15.4	6.05e-01	0	27	0	559939584	68	4345
2026-01-14 13:06:24.69	257.91	28.93	-49.9	-51.5	15.4	6.05e-01	0	27	0	561512448	68	4370
2026-01-14 13:06:25.71	258.31	28.96	-49.9	-51.6	15.3	6.06e-01	0	27	0	563609600	68	4408
2026-01-14 13:06:26.72	258.70	29.00	-49.9	-51.5	15.4	6.07e-01	0	27	0	565182464	68	4365
2026-01-14 13:06:27.72	259.09	29.03	-49.8	-51.4	15.4	6.03e-01	0	27	0	567279616	68	4325
2026-01-14 13:06:28.73	259.48	29.07	-49.7	-51.3	15.4	6.05e-01	0	27	0	569376768	68	4262
2026-01-14 13:06:29.73	259.88	29.10	-49.8	-51.5	15.4	6.06e-01	0	27	0	570949632	68	4356
2026-01-14 13:06:30.74	260.27	29.13	-49.8	-51.4	15.1	6.08e-01	0	27	0	573046784	68	4319
2026-01-14 13:06:31.75	260.67	29.15	-49.8	-51.4	15.4	6.06e-01	0	27	0	575143936	68	4332
2026-01-14 13:06:32.76	261.07	29.18	-49.8	-51.4	15.4	6.08e-01	0	27	0	576716800	68	4306
2026-01-14 13:06:33.77	261.46	29.21	-49.8	-51.4	15.4	6.06e-01	0	27	0	578813952	68	4309
2026-01-14 13:06:34.78	261.86	29.23	-49.8	-51.4	15.4	6.06e-01	0	27	0	580386816	68	4332
2026-01-14 13:06:35.78	262.26	29.25	-49.7	-51.4	15.4	6.04e-01	0	27	0	582483968	68	4298
2026-01-14 13:06:36.79	262.66	29.27	-49.6	-51.1	15.5	6.04e-01	0	27	0	584581120	68	4193
2026-01-14 13:06:37.80	263.06	29.29	-49.7	-51.3	15.4	6.07e-01	0	27	0	586153984	68	4245
2026-01-14 13:06:38.81	263.46	29.31	-49.8	-51.4	15.4	6.06e-01	0	27	0	588251136	68	4331
2026-01-14 13:06:39.82	263.86	29.33	-49.6	-51.2	15.5	6.07e-01	0	27	0	589824000	68	4224
2026-01-14 13:06:40.82	264.26	29.35	-49.6	-51.1	15.5	6.05e-01	0	27	0	591921152	68	4193
2026-01-14 13:06:41.83	264.66	29.36	-49.7	-51.3	15.4	6.08e-01	0	27	0	594018304	68	4261
2026-01-14 13:06:42.84	265.06	29.37	-49.7	-51.3	15.4	6.06e-01	0	27	0	595591168	68	4276
2026-01-14 13:06:43.84	265.46	29.38	-49.7	-51.3	15.4	6.06e-01	0	27	0	597688320	68	4245
2026-01-14 13:06:44.85	265.87	29.39	-49.7	-51.3	15.4	6.05e-01	0	27	0	599261184	68	4263
2026-01-14 13:06:45.86	266.27	29.40	-49.6	-51.1	15.5	6.05e-01	0	27	0	601358336	68	4193
2026-01-14 13:06:46.87	266.67	29.41	-49.7	-51.3	15.4	6.05e-01	0	27	0	603455488	68	4247
2026-01-14 13:06:47.88	267.08	29.41	-49.7	-51.3	15.4	6.06e-01	0	27	0	605028352	68	4259
2026-01-14 13:06:48.88	267.48	29.42	-49.8	-51.4	15.4	6.08e-01	0	27	0	607125504	68	4328
2026-01-14 13:06:49.89	267.88	29.42	-49.6	-51.2	15.4	6.06e-01	0	27	0	608698368	68	4207
2026-01-14 13:06:50.90	268.28	29.42	-49.5	-51.0	15.5	6.06e-01	0	27	0	610795520	68	4128
2026-01-14 13:06:51.91	268.69	29.42	-49.5	-51.1	15.5	6.06e-01	0	27	0	612892672	68	4174
2026-01-14 13:06:52.91	269.09	29.41	-49.5	-51.1	15.5	6.06e-01	0	27	0	614465536	68	4176
2026-01-14 13:06:53.92	269.49	29.41	-49.5	-51.1	15.5	6.06e-01	0	27	0	616562688	68	4181
2026-01-14 13:06:54.93	269.90	29.41	-49.5	-51.1	15.5	6.04e-01	0	27	0	618135552	68	4166
2026-01-14 13:06:55.94	270.30	29.40	-49.5	-51.1	15.5	6.06e-01	0	27	0	620232704	68	4158
2026-01-14 13:06:56.94	270.70	29.39	-49.4	-51.0	15.5	6.08e-01	0	27	0	622329856	68	4112
2026-01-14 13:06:57.95	271.10	29.38	-49.6	-51.1	15.5	6.02e-01	0	27	0	623902720	68	4189
2026-01-14 13:06:58.96	271.50	29.37	-49.8	-51.4	15.4	6.00e-01	0	27	0	625999872	68	4308
2026-01-14 13:06:59.96	271.90	29.36	-49.5	-51.1	15.5	6.01e-01	0	27	0	627572736	68	4166
2026-01-14 13:07:00.96	272.30	29.34	-49.5	-51.1	15.5	6.02e-01	0	27	0	629669888	68	4181
2026-01-14 13:07:01.97	272.70	29.33	-49.6	-51.1	15.5	6.03e-01	0	27	0	631767040	68	4185
2026-01-14 13:07:02.98	273.10	29.31	-49.6	-51.2	15.4	6.03e-01	0	27	0	633339904	68	4234
2026-01-14 13:07:03.99	273.50	29.29	-49.5	-51.1	15.5	6.06e-01	0	27	0	635437056	68	4176
2026-01-14 13:07:05.00	273.90	29.27	-49.4	-50.9	15.5	6.02e-01	0	27	0	637009920	68	4089
2026-01-14 13:07:06.01	274.30	29.25	-49.5	-51.1	15.5	6.02e-01	0	27	0	639107072	68	4149
2026-01-14 13:07:07.01	274.70	29.23	-49.6	-51.1	15.5	6.02e-01	0	27	0	641204224	68	4187
2026-01-14 13:07:08.02	275.10	29.20	-49.4	-51.0	15.5	6.02e-01	0	27	0	642777088	68	4107
2026-01-14 13:07:09.03	275.49	29.18	-49.4	-51.0	15.5	6.01e-01	0	27	0	644874240	68	4124
2026-01-14 13:07:10.03	275.89	29.15	-49.5	-51.1	15.5	6.03e-01	0	27	0	646447104	68	4161
2026-01-14 13:07:11.04	276.28	29.12	-49.5	-51.1	15.5	6.00e-01	0	27	0	648544256	68	4178
2026-01-14 13:07:12.05	276.68	29.09	-49.6	-51.2	15.5	6.01e-01	0	27	0	650641408	68	4206
2026-01-14 13:07:13.06	277.08	29.06	-49.6	-51.2	15.4	6.02e-01	0	27	0	652214272	68	4205
2026-01-14 13:07:14.06	277.47	29.03	-49.5	-51.1	15.5	6.02e-01	0	27	0	654311424	68	4158
2026-01-14 13:07:15.07	277.86	29.00	-49.3	-50.8	15.4	6.04e-01	0	27	0	655884288	67	4274
2026-01-14 13:07:16.08	278.25	28.96	-49.5	-51.1	15.4	6.00e-01	0	27	0	657981440	67	4393
2026-01-14 13:07:17.10	278.65	28.92	-49.6	-51.2	15.3	6.02e-01	0	27	0	660078592	67	4474
2026-01-14 13:07:18.10	279.03	28.89	-49.6	-51.2	15.3	6.02e-01	0	27	0	661651456	67	4486
2026-01-14 13:07:19.11	279.42	28.85	-49.4	-51.0	15.4	6.01e-01	0	27	0	663748608	67	4380
2026-01-14 13:07:20.11	279.81	28.81	-49.3	-50.8	15.4	6.00e-01	0	27	0	665321472	67	4277
2026-01-14 13:07:21.12	280.20	28.77	-49.3	-50.8	15.4	6.01e-01	0	27	0	667418624	67	4278
2026-01-14 13:07:22.13	280.58	28.72	-49.5	-51.1	15.4	6.03e-01	0	27	0	669515776	67	4394
2026-01-14 13:07:23.14	280.97	28.68	-49.4	-51.0	15.4	6.03e-01	0	27	0	671088640	67	4358
2026-01-14 13:07:24.15	281.35	28.63	-49.4	-51.0	15.4	6.01e-01	0	27	0	673185792	67	4349
2026-01-14 13:07:25.15	281.73	28.59	-49.4	-51.0	15.4	6.01e-01	0	27	0	674758656	67	4355
2026-01-14 13:07:26.16	282.11	28.54	-49.4	-51.0	15.4	6.00e-01	0	27	0	676855808	67	4359
2026-01-14 13:07:27.17	282.49	28.49	-49.5	-51.0	15.4	6.00e-01	0	27	0	678952960	67	4390
2026-01-14 13:07:28.18	282.87	28.44	-49.3	-50.8	15.4	6.03e-01	0	27	0	680525824	67	4288
2026-01-14 13:07:29.19	283.25	28.39	-49.4	-50.9	15.4	6.03e-01	0	27	0	682622976	67	4335
2026-01-14 13:07:30.19	283.63	28.33	-49.4	-51.0	15.4	6.03e-01	0	27	0	684720128	67	4360
2026-01-14 13:07:31.20	284.00	28.28	-49.4	-51.0	15.4	5.99e-01	0	27	0	686292992	67	4362
2026-01-14 13:07:32.21	284.38	28.22	-49.4	-51.0	15.4	6.05e-01	0	27	0	688390144	67	4353
2026-01-14 13:07:33.22	284.75	28.17	-49.2	-50.8	15.4	6.02e-01	0	27	0	689963008	67	4262
2026-01-14 13:07:34.22	285.12	28.11	-49.4	-50.9	15.4	6.00e-01	0	27	0	692060160	67	4336
2026-01-14 13:07:35.23	285.49	28.05	-49.6	-51.2	15.3	6.03e-01	0	27	0	694157312	67	4471
2026-01-14 13:07:36.24	285.86	27.99	-49.6	-51.2	15.3	6.01e-01	0	27	0	695730176	67	4470
2026-01-14 13:07:37.26	286.23	27.93	-49.6	-51.2	15.3	6.02e-01	0	27	0	697827328	67	4480
2026-01-14 13:07:38.26	286.59	27.87	-49.5	-51.1	15.4	6.02e-01	0	27	0	699400192	67	4398
2026-01-14 13:07:39.27	286.96	27.81	-49.7	-51.3	15.3	6.05e-01	0	27	0	701497344	67	4507
2026-01-14 13:07:40.28	287.32	27.74	-49.6	-51.2	15.3	6.01e-01	0	27	0	703594496	67	4473
2026-01-14 13:07:41.29	287.68	27.68	-49.6	-51.2	15.3	6.03e-01	0	27	0	705167360	67	4457
2026-01-14 13:07:42.29	288.04	27.61	-49.5	-51.1	15.3	6.01e-01	0	27	0	707264512	67	4413
2026-01-14 13:07:43.30	288.40	27.54	-49.6	-51.2	15.3	6.03e-01	0	27	0	708837376	67	4462
2026-01-14 13:07:44.31	288.75	27.48	-49.6	-51.2	15.3	6.02e-01	0	27	0	710934528	67	4460
2026-01-14 13:07:45.31	289.11	27.41	-49.5	-51.1	15.3	6.03e-01	0	27	0	713031680	67	4419
2026-01-14 13:07:46.32	289.46	27.34	-49.6	-51.2	15.3	6.02e-01	0	27	0	714604544	67	4447
2026-01-14 13:07:47.33	289.81	27.27	-49.5	-51.1	15.4	6.00e-01	0	27	0	716701696	67	4401
2026-01-14 13:07:48.34	290.16	27.20	-49.3	-50.9	15.4	6.03e-01	0	27	0	718274560	67	4298
2026-01-14 13:07:49.35	290.51	27.12	-49.4	-51.0	15.4	6.01e-01	0	27	0	720371712	67	4344
2026-01-14 13:07:50.35	290.86	27.05	-49.5	-51.1	15.4	6.02e-01	0	27	0	722468864	67	4406
2026-01-14 13:07:51.36	291.20	26.98	-49.6	-51.2	15.3	6.05e-01	0	27	0	724041728	67	4445
2026-01-14 13:07:52.37	291.55	26.90	-49.5	-51.1	15.4	6.03e-01	0	27	0	726138880	67	4409
2026-01-14 13:07:53.38	291.89	26.82	-49.5	-51.1	15.4	6.01e-01	0	27	0	728236032	67	4428
2026-01-14 13:07:54.39	292.23	26.75	-49.5	-51.1	15.4	6.04e-01	0	27	0	729808896	67	4412
2026-01-14 13:07:55.40	292.57	26.67	-49.5	-51.1	15.4	6.00e-01	0	27	0	731906048	67	4396
2026-01-14 13:07:56.41	292.91	26.59	-49.6	-51.2	15.3	6.02e-01	0	27	0	733478912	67	4449
2026-01-14 13:07:57.41	293.24	26.51	-49.7	-51.3	15.3	6.03e-01	0	27	0	735576064	67	4506
2026-01-14 13:07:58.42	293.57	26.43	-49.7	-51.3	15.3	6.03e-01	0	27	0	737148928	67	4506
2026-01-14 13:07:59.43	293.91	26.35	-49.7	-51.3	15.3	6.03e-01	0	27	0	739246080	67	4509
2026-01-14 13:08:00.44	294.24	26.27	-49.7	-51.3	15.3	6.04e-01	0	27	0	741343232	67	4509
2026-01-14 13:08:01.44	294.56	26.19	-49.6	-51.2	15.3	6.04e-01	0	27	0	742916096	67	4457
2026-01-14 13:08:02.45	294.89	26.11	-49.6	-51.2	15.3	6.01e-01	0	27	0	745013248	67	4456
2026-01-14 13:08:03.46	295.21	26.02	-49.6	-51.2	15.3	6.00e-01	0	27	0	746586112	67	4464
2026-01-14 13:08:04.47	295.54	25.94	-49.7	-51.3	15.3	6.02e-01	0	27	0	748683264	67	4528
2026-01-14 13:08:05.48	295.86	25.86	-49.8	-51.4	15.3	6.02e-01	0	27	0	750780416	67	4587
2026-01-14 13:08:06.49	296.18	25.77	-49.8	-51.4	15.2	6.03e-01	0	27	0	752353280	67	4577
2026-01-14 13:08:07.50	296.50	25.69	-49.8	-51.4	15.3	6.02e-01	0	27	0	754450432	67	4580
2026-01-14 13:08:08.50	296.81	25.60	-49.7	-51.3	15.3	6.00e-01	0	27	0	756547584	67	4518
2026-01-14 13:08:09.51	297.13	25.51	-49.6	-51.2	15.3	6.01e-01	0	27	0	758120448	67	4477
2026-01-14 13:08:10.52	297.44	25.43	-49.7	-51.3	15.3	6.03e-01	0	27	0	760217600	67	4497
2026-01-14 13:08:11.53	297.75	25.34	-49.7	-51.4	15.3	6.01e-01	0	27	0	761790464	67	4551
2026-01-14 13:08:12.54	298.06	25.25	-49.7	-51.3	15.3	6.03e-01	0	27	0	763887616	67	4529
2026-01-14 13:08:13.54	298.37	25.16	-49.7	-51.3	15.3	6.02e-01	0	27	0	765984768	67	4538
2026-01-14 13:08:14.55	298.67	25.07	-49.6	-51.2	15.3	6.02e-01	0	27	0	767557632	67	4461
2026-01-14 13:08:15.55	298.97	24.98	-49.5	-51.1	15.3	6.03e-01	0	27	0	769654784	67	4434
2026-01-14 13:08:16.56	299.28	24.89	-49.6	-51.2	15.3	6.02e-01	0	27	0	771227648	67	4444
2026-01-14 13:08:17.56	299.57	24.80	-49.5	-51.1	15.4	6.00e-01	0	27	0	773324800	67	4420
2026-01-14 13:08:18.57	299.87	24.71	-49.7	-51.3	15.3	6.03e-01	0	27	0	774897664	67	4511
2026-01-14 13:08:19.58	300.17	24.62	-49.6	-51.2	15.3	6.04e-01	0	27	0	776994816	67	4485
2026-01-14 13:08:20.59	300.46	24.53	-49.6	-51.2	15.3	6.01e-01	0	27	0	779091968	67	4479
2026-01-14 13:08:21.60	300.76	24.43	-49.7	-51.3	15.3	6.02e-01	0	27	0	780664832	67	4540
2026-01-14 13:08:22.61	301.05	24.34	-49.7	-51.4	15.3	6.01e-01	0	27	0	782761984	67	4546
2026-01-14 13:08:23.62	301.34	24.25	-49.8	-51.5	15.3	6.01e-01	0	27	0	784859136	67	4602
2026-01-14 13:08:24.63	301.63	24.15	-49.8	-51.5	15.2	6.02e-01	0	27	0	786432000	67	4606
2026-01-14 13:08:25.64	301.91	24.06	-49.6	-51.2	15.3	6.01e-01	0	27	0	788529152	67	4470
2026-01-14 13:08:26.65	302.20	23.96	-49.6	-51.2	15.3	6.02e-01	0	27	0	790102016	67	4487
2026-01-14 13:08:27.66	302.48	23.87	-49.8	-51.4	15.3	6.02e-01	0	27	0	792199168	67	4558
2026-01-14 13:08:28.66	302.76	23.78	-49.5	-51.1	15.3	6.02e-01	0	27	0	794296320	67	4437
2026-01-14 13:08:29.67	303.04	23.68	-49.7	-51.3	15.3	6.05e-01	0	27	0	795869184	67	4513
2026-01-14 13:08:30.68	303.32	23.58	-49.7	-51.3	15.3	6.02e-01	0	27	0	797966336	67	4544
2026-01-14 13:08:31.69	303.59	23.49	-49.8	-51.5	15.3	6.00e-01	0	27	0	799539200	67	4613
2026-01-14 13:08:32.70	303.87	23.39	-49.9	-51.5	15.3	6.02e-01	0	27	0	801636352	67	4635
2026-01-14 13:08:33.70	304.14	23.30	-49.8	-51.4	15.3	6.02e-01	0	27	0	803733504	67	4585
2026-01-14 13:08:34.71	304.41	23.20	-49.5	-51.1	15.3	6.02e-01	0	27	0	805306368	67	4424
2026-01-14 13:08:35.71	304.67	23.10	-49.5	-51.1	15.3	6.02e-01	0	27	0	807403520	67	4396
2026-01-14 13:08:36.72	304.94	23.01	-49.5	-51.0	15.3	6.03e-01	0	27	0	808976384	67	4391
2026-01-14 13:08:37.73	305.21	22.91	-49.7	-51.3	15.3	6.04e-01	0	27	0	811073536	67	4505
2026-01-14 13:08:38.74	305.47	22.81	-49.7	-51.3	15.3	6.02e-01	0	27	0	813170688	67	4534
2026-01-14 13:08:39.75	305.73	22.71	-49.7	-51.3	15.3	6.00e-01	0	27	0	814743552	67	4512
2026-01-14 13:08:40.76	305.99	22.62	-49.8	-51.4	15.3	6.02e-01	0	27	0	816840704	67	4582
2026-01-14 13:08:41.77	306.25	22.52	-49.6	-51.2	15.3	6.00e-01	0	27	0	818413568	67	4468
2026-01-14 13:08:42.78	306.51	22.42	-49.5	-51.1	15.3	6.02e-01	0	27	0	820510720	67	4438
2026-01-14 13:08:43.78	306.76	22.32	-49.6	-51.2	15.3	6.00e-01	0	27	0	822607872	67	4491
2026-01-14 13:08:44.79	307.02	22.22	-49.6	-51.2	15.3	6.00e-01	0	27	0	824180736	67	4491
2026-01-14 13:08:45.80	307.27	22.13	-49.6	-51.2	15.3	6.00e-01	0	27	0	826277888	67	4449
2026-01-14 13:08:46.81	307.52	22.03	-49.6	-51.2	15.3	6.00e-01	0	27	0	827850752	67	4490
2026-01-14 13:08:47.81	307.77	21.93	-49.5	-51.2	15.3	6.03e-01	0	27	0	829947904	67	4444
2026-01-14 13:08:48.82	308.01	21.83	-49.5	-51.1	15.3	6.03e-01	0	27	0	832045056	67	4405
2026-01-14 13:08:49.83	308.26	21.73	-49.5	-51.1	15.3	5.99e-01	0	27	0	833617920	67	4425
2026-01-14 13:08:50.84	308.50	21.63	-49.5	-51.1	15.3	6.00e-01	0	27	0	835715072	67	4421
2026-01-14 13:08:51.85	308.75	21.53	-49.5	-51.1	15.3	6.01e-01	0	27	0	837812224	67	4437
2026-01-14 13:08:52.86	308.99	21.43	-49.6	-51.3	15.3	6.02e-01	0	27	0	839385088	67	4495
2026-01-14 13:08:53.86	309.22	21.34	-49.7	-51.4	15.3	6.01e-01	0	27	0	841482240	67	4550
2026-01-14 13:08:54.87	309.46	21.24	-49.6	-51.2	15.3	6.00e-01	0	27	0	843055104	67	4471
2026-01-14 13:08:55.88	309.70	21.14	-49.5	-51.1	15.4	6.01e-01	0	27	0	845152256	67	4410
2026-01-14 13:08:56.89	309.93	21.04	-49.6	-51.2	15.3	6.01e-01	0	27	0	847249408	67	4474
2026-01-14 13:08:57.90	310.17	20.94	-49.4	-51.0	15.3	6.04e-01	0	27	0	848822272	67	4389
2026-01-14 13:08:58.90	310.40	20.84	-49.4	-51.0	15.4	6.02e-01	0	27	0	850919424	67	4371
2026-01-14 13:08:59.91	310.63	20.74	-49.5	-51.2	15.3	6.00e-01	0	27	0	852492288	67	4442
2026-01-14 13:09:00.92	310.85	20.64	-49.5	-51.1	15.3	6.00e-01	0	27	0	854589440	67	4415
2026-01-14 13:09:01.93	311.08	20.54	-49.5	-51.1	15.4	6.02e-01	0	27	0	856686592	67	4419
2026-01-14 13:09:02.94	311.31	20.44	-49.5	-51.2	15.3	6.02e-01	0	27	0	858259456	67	4442
2026-01-14 13:09:03.95	311.53	20.34	-49.5	-51.1	15.3	6.03e-01	0	27	0	860356608	67	4420
2026-01-14 13:09:04.96	311.75	20.24	-49.5	-51.1	15.4	6.02e-01	0	27	0	861929472	67	4404
2026-01-14 13:09:05.97	311.97	20.14	-49.6	-51.2	15.3	6.00e-01	0	27	0	864026624	67	4466
2026-01-14 13:09:06.97	312.19	20.05	-49.5	-51.1	15.3	5.98e-01	0	27	0	866123776	67	4415
2026-01-14 13:09:07.98	312.41	19.95	-49.4	-51.0	15.4	6.00e-01	0	27	0	867696640	67	4389
2026-01-14 13:09:08.99	312.63	19.85	-49.5	-51.1	15.4	6.03e-01	0	27	0	869793792	67	4398
2026-01-14 13:09:10.00	312.84	19.75	-49.4	-51.0	15.4	6.03e-01	0	27	0	871366656	67	4369
2026-01-14 13:09:11.00	313.05	19.65	-49.5	-51.0	15.4	6.03e-01	0	27	0	873463808	67	4391
2026-01-14 13:09:12.01	313.27	19.55	-49.4	-51.0	15.4	6.01e-01	0	27	0	875560960	67	4382
2026-01-14 13:09:13.02	313.48	19.45	-49.5	-51.1	15.3	6.02e-01	0	27	0	877133824	67	4404
2026-01-14 13:09:14.03	313.69	19.35	-49.4	-51.0	15.4	6.03e-01	0	27	0	879230976	67	4383
2026-01-14 13:09:15.04	313.89	19.25	-49.4	-51.0	15.4	6.03e-01	0	27	0	881328128	67	4341
2026-01-14 13:09:16.05	314.10	19.16	-49.4	-51.0	15.4	6.01e-01	0	27	0	882900992	67	4388
2026-01-14 13:09:17.06	314.31	19.06	-49.4	-51.0	15.4	6.03e-01	0	27	0	884998144	67	4386
2026-01-14 13:09:18.07	314.51	18.96	-49.6	-51.2	15.3	6.04e-01	0	27	0	886571008	67	4474
2026-01-14 13:09:19.07	314.71	18.86	-49.5	-51.2	15.3	5.99e-01	0	27	0	888668160	67	4447
2026-01-14 13:09:20.09	314.91	18.76	-49.4	-51.0	15.4	6.03e-01	0	27	0	890765312	67	4356
2026-01-14 13:09:21.09	315.11	18.66	-49.5	-51.1	15.4	6.00e-01	0	27	0	892338176	67	4405
2026-01-14 13:09:22.10	315.31	18.57	-49.4	-51.0	15.4	6.02e-01	0	27	0	894435328	67	4355
2026-01-14 13:09:23.10	315.51	18.47	-49.4	-51.0	15.4	6.04e-01	0	27	0	896008192	67	4387
2026-01-14 13:09:24.10	315.70	18.37	-49.4	-51.0	15.4	6.00e-01	0	27	0	898105344	67	4353
2026-01-14 13:09:25.12	315.90	18.27	-49.3	-50.9	15.4	6.02e-01	0	27	0	899678208	67	4300
2026-01-14 13:09:26.12	316.09	18.18	-49.3	-50.9	15.4	6.02e-01	0	27	0	901775360	67	4331
2026-01-14 13:09:27.13	316.28	18.08	-49.4	-51.0	15.3	6.03e-01	0	27	0	903872512	67	4358
2026-01-14 13:09:28.13	316.47	17.98	-49.4	-51.0	15.4	6.02e-01	0	27	0	905445376	67	4363
2026-01-14 13:09:29.14	316.66	17.88	-49.5	-51.1	15.3	6.01e-01	0	27	0	907542528	67	4400
2026-01-14 13:09:30.15	316.85	17.79	-49.5	-51.1	15.4	6.00e-01	0	27	0	909639680	67	4400
2026-01-14 13:09:31.16	317.04	17.69	-49.3	-50.9	15.4	6.03e-01	0	27	0	911212544	67	4309
2026-01-14 13:09:32.16	317.22	17.59	-49.2	-50.8	15.4	6.01e-01	0	27	0	913309696	67	4268
2026-01-14 13:09:33.17	317.40	17.50	-49.3	-50.9	15.4	6.01e-01	0	27	0	914882560	67	4334
2026-01-14 13:09:34.18	317.59	17.40	-49.4	-51.0	15.4	6.03e-01	0	27	0	916979712	67	4351
2026-01-14 13:09:35.19	317.77	17.31	-49.3	-50.9	15.4	6.03e-01	0	27	0	919076864	67	4335
2026-01-14 13:09:36.19	317.95	17.21	-49.3	-50.9	15.4	6.03e-01	0	27	0	920649728	67	4339
2026-01-14 13:09:37.21	318.13	17.11	-49.4	-51.0	15.4	6.03e-01	0	27	0	922746880	67	4348
2026-01-14 13:09:38.21	318.31	17.02	-49.3	-50.9	15.4	6.00e-01	0	27	0	924319744	67	4312
2026-01-14 13:09:39.22	318.49	16.92	-49.4	-51.0	15.4	6.02e-01	0	27	0	926416896	67	4379
2026-01-14 13:09:40.23	318.66	16.83	-49.4	-51.0	15.4	6.04e-01	0	27	0	928514048	67	4357
2026-01-14 13:09:41.24	318.84	16.73	-49.4	-51.0	15.4	6.02e-01	0	27	0	930086912	67	4379
2026-01-14 13:09:42.25	319.01	16.64	-49.4	-51.0	15.4	6.02e-01	0	27	0	932184064	67	4386
2026-01-14 13:09:43.25	319.18	16.54	-49.3	-50.9	15.4	6.02e-01	0	27	0	933756928	67	4337
2026-01-14 13:09:44.26	319.36	16.45	-49.4	-51.0	15.4	6.00e-01	0	27	0	935854080	67	4372
2026-01-14 13:09:45.26	319.52	16.35	-49.4	-51.1	15.3	6.02e-01	0	27	0	937951232	67	4404
2026-01-14 13:09:46.27	319.69	16.26	-49.5	-51.1	15.3	6.03e-01	0	27	0	939524096	67	4428
2026-01-14 13:09:47.28	319.86	16.16	-49.5	-51.1	15.3	6.00e-01	0	27	0	941621248	67	4417
2026-01-14 13:09:48.29	320.03	16.07	-49.5	-51.1	15.3	6.03e-01	0	27	0	943194112	67	4418
2026-01-14 13:09:49.30	320.20	15.98	-49.4	-51.0	15.4	6.04e-01	0	27	0	945291264	67	4348
2026-01-14 13:09:50.31	320.36	15.88	-49.2	-50.8	15.4	6.01e-01	0	27	0	947388416	67	4281
2026-01-14 13:09:51.32	320.53	15.79	-49.2	-50.8	15.4	6.02e-01	0	27	0	948961280	67	4264
2026-01-14 13:09:52.33	320.69	15.70	-49.3	-50.9	15.4	6.01e-01	0	27	0	951058432	67	4299
2026-01-14 13:09:53.34	320.85	15.60	-49.2	-50.7	15.5	6.04e-01	0	27	0	952631296	67	4227
2026-01-14 13:09:54.35	321.01	15.51	-49.3	-50.9	15.4	6.03e-01	0	27	0	954728448	67	4322
2026-01-14 13:09:55.35	321.17	15.42	-49.3	-51.0	15.4	6.02e-01	0	27	0	956825600	67	4341
2026-01-14 13:09:56.36	321.33	15.32	-49.3	-51.0	15.4	6.04e-01	0	27	0	958398464	67	4342
2026-01-14 13:09:57.37	321.49	15.23	-49.4	-51.0	15.4	6.04e-01	0	27	0	960495616	67	4372
2026-01-14 13:09:58.38	321.65	15.14	-49.4	-51.1	15.4	6.02e-01	0	27	0	962592768	67	4395
2026-01-14 13:09:59.39	321.80	15.05	-49.4	-51.0	15.4	6.04e-01	0	27	0	964165632	67	4360
2026-01-14 13:10:00.39	321.95	14.96	-49.4	-51.0	15.4	5.99e-01	0	27	0	966262784	67	4383
2026-01-14 13:10:01.40	322.11	14.87	-49.4	-51.0	15.4	6.01e-01	0	27	0	967835648	67	4384
2026-01-14 13:10:02.40	322.26	14.77	-49.4	-51.1	15.4	6.02e-01	0	27	0	969932800	67	4398
2026-01-14 13:10:03.41	322.41	14.68	-49.5	-51.1	15.3	6.01e-01	0	28	0	971505664	67	4413
2026-01-14 13:10:04.42	322.56	14.59	-49.5	-51.1	15.3	6.02e-01	0	27	0	973602816	67	4422
2026-01-14 13:10:05.43	322.71	14.50	-49.3	-50.9	15.4	6.03e-01	0	27	0	975699968	67	4338
2026-01-14 13:10:06.44	322.86	14.41	-49.4	-51.0	15.4	5.99e-01	0	27	0	977272832	67	4351
2026-01-14 13:10:07.45	323.01	14.32	-49.4	-51.1	15.3	6.01e-01	0	27	0	979369984	67	4394
2026-01-14 13:10:08.46	323.16	14.23	-49.5	-51.2	15.3	6.03e-01	0	27	0	980942848	67	4452
2026-01-14 13:10:09.46	323.30	14.14	-49.6	-51.2	15.3	6.02e-01	0	27	0	983040000	67	4479
2026-01-14 13:10:10.47	323.45	14.05	-49.5	-51.1	15.3	6.03e-01	0	27	0	985137152	67	4411
2026-01-14 13:10:11.48	323.59	13.96	-49.5	-51.1	15.3	6.02e-01	0	27	0	986710016	67	4430
2026-01-14 13:10:12.49	323.74	13.87	-49.5	-51.2	15.3	6.05e-01	0	27	0	988807168	67	4451
2026-01-14 13:10:13.50	323.88	13.78	-49.6	-51.2	15.3	6.04e-01	0	27	0	990904320	67	4488
2026-01-14 13:10:14.51	324.02	13.69	-49.6	-51.3	15.3	6.03e-01	0	27	0	992477184	67	4495
2026-01-14 13:10:15.51	324.16	13.61	-49.6	-51.2	15.3	6.02e-01	0	27	0	994574336	67	4475
2026-01-14 13:10:16.52	324.30	13.52	-49.6	-51.3	15.3	6.04e-01	0	27	0	996147200	67	4538
2026-01-14 13:10:17.53	324.44	13.43	-49.5	-51.2	15.3	6.01e-01	0	27	0	998244352	67	4489
2026-01-14 13:10:18.54	324.58	13.34	-49.5	-51.2	15.3	6.04e-01	0	27	0	1000341504	67	4475
2026-01-14 13:10:19.54	324.72	13.25	-49.5	-51.2	15.3	5.99e-01	0	27	0	1001914368	67	4482
2026-01-14 13:10:20.55	324.85	13.17	-49.5	-51.2	15.3	6.02e-01	0	27	0	1004011520	67	4449
2026-01-14 13:10:21.56	324.99	13.08	-49.5	-51.2	15.3	6.03e-01	0	27	0	1005584384	67	4475
2026-01-14 13:10:22.57	325.13	12.99	-49.6	-51.3	15.3	6.01e-01	0	27	0	1007681536	67	4503
2026-01-14 13:10:23.58	325.26	12.91	-49.6	-51.3	15.3	6.03e-01	0	27	0	1009778688	67	4523
2026-01-14 13:10:24.59	325.39	12.82	-49.6	-51.3	15.3	6.01e-01	0	27	0	1011351552	67	4524
2026-01-14 13:10:25.59	325.53	12.73	-49.6	-51.3	15.3	6.05e-01	0	27	0	1013448704	67	4545
2026-01-14 13:10:26.60	325.66	12.65	-49.5	-51.2	15.3	6.04e-01	0	27	0	1015021568	67	4482
2026-01-14 13:10:27.61	325.79	12.56	-49.7	-51.4	15.3	6.02e-01	0	27	0	1017118720	67	4550
2026-01-14 13:10:28.62	325.92	12.47	-49.7	-51.4	15.2	6.02e-01	0	27	0	1019215872	67	4590
2026-01-14 13:10:29.62	326.05	12.39	-49.6	-51.3	15.3	6.02e-01	0	27	0	1020788736	67	4520
2026-01-14 13:10:30.63	326.18	12.30	-49.6	-51.3	15.3	6.03e-01	0	27	0	1022885888	67	4532
2026-01-14 13:10:31.64	326.30	12.22	-49.7	-51.4	15.2	6.02e-01	0	27	0	1024458752	67	4559
2026-01-14 13:10:32.65	326.43	12.13	-49.6	-51.4	15.2	6.04e-01	0	27	0	1026555904	67	4552
2026-01-14 13:10:33.66	326.56	12.05	-49.7	-51.4	15.2	6.02e-01	0	27	0	1028653056	67	4578
2026-01-14 13:10:34.67	326.68	11.96	-49.7	-51.4	15.2	6.00e-01	0	27	0	1030225920	67	4586
2026-01-14 13:10:35.68	326.81	11.88	-49.9	-51.6	15.2	6.01e-01	0	27	0	1032323072	67	4692
2026-01-14 13:10:36.69	326.93	11.80	-49.9	-51.6	15.2	6.02e-01	0	27	0	1034420224	67	4688
2026-01-14 13:10:37.70	327.06	11.71	-49.9	-51.7	15.2	6.02e-01	0	27	0	1035993088	67	4731
2026-01-14 13:10:38.70	327.18	11.63	-49.8	-51.6	15.2	6.04e-01	0	27	0	1038090240	67	4663
2026-01-14 13:10:39.71	327.30	11.54	-49.9	-51.6	15.2	6.02e-01	0	27	0	1039663104	67	4674
2026-01-14 13:10:40.72	327.42	11.46	-49.9	-51.6	15.2	6.02e-01	0	27	0	1041760256	67	4704
2026-01-14 13:10:41.73	327.54	11.38	-49.9	-51.6	15.2	6.02e-01	0	27	0	1043857408	67	4671
2026-01-14 13:10:42.74	327.66	11.29	-49.8	-51.6	15.2	6.04e-01	0	27	0	1045430272	67	4654
2026-01-14 13:10:43.74	327.78	11.21	-49.8	-51.5	15.2	6.00e-01	0	27	0	1047527424	67	4609
2026-01-14 13:10:44.74	327.90	11.13	-49.8	-51.6	15.2	6.04e-01	0	27	0	1049100288	67	4656
2026-01-14 13:10:45.75	328.02	11.05	-49.8	-51.5	15.2	6.01e-01	0	27	0	1051197440	67	4641
2026-01-14 13:10:46.76	328.13	10.97	-49.9	-51.6	15.2	6.01e-01	0	27	0	1052770304	67	4673
2026-01-14 13:10:47.77	328.25	10.88	-49.9	-51.6	15.2	6.00e-01	0	27	0	1054867456	67	4688
2026-01-14 13:10:48.78	328.37	10.80	-49.9	-51.6	15.2	6.03e-01	0	27	0	1056964608	67	4704
2026-01-14 13:10:49.79	328.48	10.72	-49.9	-51.7	15.2	6.02e-01	0	27	0	1058537472	67	4719
2026-01-14 13:10:50.80	328.60	10.64	-49.9	-51.6	15.2	6.01e-01	0	27	0	1060634624	67	4692
2026-01-14 13:10:51.80	328.71	10.56	-49.9	-51.6	15.2	5.99e-01	0	27	0	1062731776	67	4702
2026-01-14 13:10:52.81	328.82	10.48	-49.9	-51.7	15.2	6.01e-01	0	27	0	1064304640	67	4728
2026-01-14 13:10:53.82	328.93	10.40	-49.9	-51.6	15.2	6.00e-01	0	27	0	1066401792	67	4687
2026-01-14 13:10:54.82	329.04	10.32	-50.0	-51.7	15.2	6.01e-01	0	27	0	1067974656	67	4754
2026-01-14 13:10:55.83	329.16	10.24	-50.0	-51.8	15.2	5.99e-01	0	27	0	1070071808	67	4761
2026-01-14 13:10:56.84	329.27	10.16	-50.0	-51.8	15.2	6.02e-01	0	27	0	1072168960	67	4764
2026-01-14 13:10:57.85	329.38	10.08	-50.0	-51.8	15.2	6.01e-01	0	27	0	1073741824	67	4801
2026-01-14 13:10:58.86	329.49	10.00	-50.2	-52.0	15.2	6.01e-01	0	27	0	1075838976	68	4615
2026-01-14 13:10:59.86	329.59	9.92	-50.2	-52.1	15.2	6.02e-01	0	27	0	1077411840	68	4653
2026-01-14 13:11:00.87	329.70	9.84	-50.3	-52.1	15.2	6.02e-01	0	27	0	1079508992	68	4678
2026-01-14 13:11:01.88	329.81	9.76	-50.3	-52.1	15.2	6.04e-01	0	27	0	1081606144	68	4689
2026-01-14 13:11:02.89	329.92	9.68	-50.3	-52.1	15.2	6.02e-01	0	27	0	1083179008	68	4669
2026-01-14 13:11:03.89	330.02	9.60	-50.3	-52.2	15.2	6.02e-01	0	27	0	1085276160	68	4706
2026-01-14 13:11:04.90	330.13	9.53	-50.3	-52.2	15.1	6.02e-01	0	27	0	1086849024	68	4714
2026-01-14 13:11:05.91	330.23	9.45	-50.4	-52.2	15.1	6.01e-01	0	27	0	1088946176	68	4739
2026-01-14 13:11:06.91	330.34	9.37	-50.4	-52.2	15.1	6.03e-01	0	27	0	1091043328	68	4735
2026-01-14 13:11:07.92	330.44	9.29	-50.4	-52.2	15.1	6.02e-01	0	27	0	1092616192	68	4739
2026-01-14 13:11:08.93	330.55	9.21	-50.4	-52.3	15.1	6.05e-01	0	27	0	1094713344	68	4789
2026-01-14 13:11:09.94	330.65	9.14	-50.4	-52.2	15.1	6.04e-01	0	27	0	1096286208	68	4745
2026-01-14 13:11:10.95	330.75	9.06	-50.5	-52.4	15.1	6.02e-01	0	27	0	1098383360	68	4816
2026-01-14 13:11:11.96	330.85	8.98	-50.5	-52.4	15.1	6.03e-01	0	27	0	1100480512	68	4856
2026-01-14 13:11:12.97	330.95	8.91	-50.5	-52.4	15.1	6.01e-01	0	27	0	1102053376	68	4839
2026-01-14 13:11:13.98	331.05	8.83	-50.6	-52.5	15.2	6.02e-01	0	27	0	1104150528	69	4640
2026-01-14 13:11:14.98	331.15	8.75	-50.6	-52.5	15.2	6.02e-01	0	27	0	1105723392	69	4599
2026-01-14 13:11:15.99	331.25	8.68	-50.7	-52.6	15.2	5.99e-01	0	27	0	1107820544	69	4652
2026-01-14 13:11:17.00	331.35	8.60	-50.5	-52.3	15.2	6.01e-01	0	27	0	1109917696	69	4533
2026-01-14 13:11:18.01	331.45	8.52	-50.5	-52.4	15.2	6.02e-01	0	27	0	1111490560	69	4570
2026-01-14 13:11:19.02	331.55	8.45	-50.5	-52.4	15.2	6.00e-01	0	27	0	1113587712	69	4557
2026-01-14 13:11:20.03	331.65	8.37	-50.6	-52.5	15.2	6.01e-01	0	27	0	1115684864	69	4617
2026-01-14 13:11:21.04	331.74	8.30	-50.6	-52.5	15.2	6.01e-01	0	27	0	1117257728	69	4645
2026-01-14 13:11:22.05	331.84	8.22	-50.5	-52.4	15.2	6.01e-01	0	27	0	1119354880	69	4581
2026-01-14 13:11:23.05	331.94	8.15	-50.6	-52.5	15.2	6.04e-01	0	27	0	1120927744	69	4611
2026-01-14 13:11:24.06	332.03	8.07	-50.5	-52.4	15.2	6.03e-01	0	27	0	1123024896	69	4576
2026-01-14 13:11:25.07	332.13	8.00	-50.7	-52.6	15.1	6.06e-01	0	27	0	1124597760	69	4695
2026-01-14 13:11:26.07	332.22	7.93	-50.7	-52.6	15.1	6.02e-01	0	27	0	1126694912	69	4670
2026-01-14 13:11:27.08	332.31	7.85	-50.6	-52.5	15.2	6.00e-01	0	27	0	1128792064	69	4629
2026-01-14 13:11:28.09	332.41	7.78	-50.8	-52.7	15.1	6.01e-01	0	27	0	1130364928	69	4747
2026-01-14 13:11:29.10	332.50	7.70	-50.5	-52.4	15.2	6.02e-01	0	27	0	1132462080	69	4594
2026-01-14 13:11:30.10	332.59	7.63	-50.7	-52.7	15.1	6.03e-01	0	27	0	1134034944	69	4714
2026-01-14 13:11:31.11	332.68	7.56	-50.7	-52.6	15.2	6.03e-01	0	27	0	1136132096	69	4676
2026-01-14 13:11:32.12	332.78	7.48	-50.7	-52.6	15.2	6.03e-01	0	27	0	1138229248	69	4678
2026-01-14 13:11:33.13	332.87	7.41	-50.8	-52.7	15.1	6.03e-01	0	27	0	1139802112	69	4749
2026-01-14 13:11:34.14	332.96	7.34	-50.7	-52.6	15.1	6.03e-01	0	27	0	1141899264	69	4703
2026-01-14 13:11:35.15	333.05	7.26	-50.8	-52.7	15.1	6.02e-01	0	27	0	1143996416	69	4740
2026-01-14 13:11:36.16	333.14	7.19	-50.7	-52.6	15.1	6.01e-01	0	27	0	1145569280	69	4680
2026-01-14 13:11:37.16	333.23	7.12	-50.7	-52.6	15.1	6.03e-01	0	27	0	1147666432	69	4703
2026-01-14 13:11:38.18	333.32	7.05	-50.8	-52.8	15.1	6.06e-01	0	27	0	1149239296	69	4773
2026-01-14 13:11:39.19	333.40	6.97	-50.8	-52.8	15.1	6.01e-01	0	27	0	1151336448	69	4768
2026-01-14 13:11:40.19	333.49	6.90	-50.8	-52.8	15.1	6.03e-01	0	27	0	1153433600	69	4786
2026-01-14 13:11:41.20	333.58	6.83	-50.7	-52.7	15.1	6.02e-01	0	27	0	1155006464	69	4717
2026-01-14 13:11:42.21	333.67	6.76	-50.9	-52.9	15.1	6.01e-01	0	27	0	1157103616	69	4832
2026-01-14 13:11:43.21	333.75	6.69	-51.0	-53.0	15.0	6.03e-01	0	27	0	1158676480	69	4926
2026-01-14 13:11:44.22	333.84	6.62	-50.9	-53.0	15.0	6.03e-01	0	27	0	1160773632	69	4878
2026-01-14 13:11:45.22	333.92	6.55	-50.9	-52.9	15.0	6.01e-01	0	27	0	1162870784	69	4868
2026-01-14 13:11:46.23	334.01	6.48	-50.9	-53.0	15.0	6.01e-01	0	27	0	1164443648	69	4879
2026-01-14 13:11:47.24	334.09	6.41	-50.9	-53.0	15.0	6.02e-01	0	27	0	1166540800	69	4873
2026-01-14 13:11:48.25	334.18	6.34	-51.0	-53.1	15.1	5.99e-01	0	27	0	1168113664	70	4656
2026-01-14 13:11:49.26	334.26	6.26	-50.9	-53.0	15.1	6.02e-01	0	27	0	1170210816	70	4603
2026-01-14 13:11:50.26	334.35	6.20	-50.8	-52.7	15.2	6.02e-01	0	27	0	1172307968	70	4485
2026-01-14 13:11:51.27	334.43	6.13	-51.0	-53.0	15.1	6.02e-01	0	27	0	1173880832	70	4620
2026-01-14 13:11:52.28	334.51	6.06	-51.1	-53.2	15.1	6.03e-01	0	27	0	1175977984	70	4710
2026-01-14 13:11:53.29	334.59	5.99	-51.4	-53.5	15.0	6.02e-01	0	27	0	1177550848	70	4891
2026-01-14 13:11:54.30	334.68	5.92	-51.2	-53.2	15.0	6.01e-01	0	27	0	1179648000	70	4746
2026-01-14 13:11:55.30	334.76	5.85	-51.2	-53.4	15.0	6.04e-01	0	27	0	1181745152	70	4823
2026-01-14 13:11:56.31	334.84	5.78	-51.3	-53.5	15.0	6.00e-01	0	27	0	1183318016	70	4911
2026-01-14 13:11:57.32	334.92	5.71	-51.3	-53.5	15.0	6.02e-01	0	27	0	1185415168	70	4874
2026-01-14 13:11:58.33	335.00	5.64	-51.5	-53.7	14.9	6.04e-01	0	27	0	1187512320	70	4999
2026-01-14 13:11:59.34	335.08	5.57	-51.3	-53.5	15.1	6.02e-01	0	27	0	1189085184	71	4633
2026-01-14 13:12:00.34	335.16	5.50	-51.2	-53.3	15.2	6.03e-01	0	27	0	1191182336	71	4509
2026-01-14 13:12:01.35	335.24	5.43	-51.6	-53.9	14.9	6.00e-01	0	27	0	1192755200	71	4836
2026-01-14 13:12:02.36	335.32	5.37	-51.4	-53.6	15.0	6.05e-01	0	27	0	1194852352	71	4672
2026-01-14 13:12:03.37	335.39	5.30	-51.5	-53.7	15.0	6.01e-01	0	27	0	1196425216	71	4729
2026-01-14 13:12:04.38	335.47	5.23	-51.6	-53.9	14.9	6.02e-01	0	27	0	1198522368	71	4834
2026-01-14 13:12:05.39	335.55	5.16	-51.2	-53.3	15.1	5.99e-01	0	27	0	1200619520	71	4540
2026-01-14 13:12:06.40	335.63	5.09	-51.3	-53.5	14.9	6.01e-01	0	27	0	1202192384	71	4632
2026-01-14 13:12:07.40	335.70	5.03	-52.0	-54.4	14.9	6.04e-01	0	27	0	1204289536	71	5130
2026-01-14 13:12:08.41	335.78	4.96	-58.5	-76.6	3.8	7.49e-01	0	27	104	1205862400	84	31143
2026-01-14 13:12:09.42	335.86	4.89	-58.9	-78.2	3.8	7.44e-01	0	27	104	1205862400	85	35426
2026-01-14 13:12:10.43	335.93	4.83	-59.2	-78.6	3.8	7.47e-01	0	27	104	1205862400	86	34896
2026-01-14 13:12:11.44	336.01	4.76	-59.4	-78.8	3.8	7.46e-01	0	27	104	1205862400	86	35809
2026-01-14 13:12:12.45	336.08	4.69	-59.5	-78.9	3.8	7.45e-01	0	27	104	1205862400	86	36449
2026-01-14 13:12:13.46	336.16	4.63	-59.7	-79.1	3.8	7.50e-01	0	27	104	1205862400	87	34973
2026-01-14 13:12:14.47	336.23	4.56	-59.8	-79.1	3.8	7.47e-01	0	27	104	1205862400	87	35172
2026-01-14 13:12:15.47	336.31	4.49	-59.9	-79.2	3.8	7.45e-01	0	27	104	1205862400	87	35621
2026-01-14 13:12:16.47	336.38	4.43	-59.9	-79.3	3.8	7.50e-01	0	28	104	1205862400	87	35897
2026-01-14 13:12:17.48	336.45	4.36	-60.0	-79.3	3.8	7.45e-01	0	27	104	1205862400	87	36091
2026-01-14 13:12:18.49	336.53	4.30	-60.0	-79.4	3.8	7.45e-01	0	27	104	1205862400	87	36272
2026-01-14 13:12:19.50	336.60	4.23	-60.0	-79.4	3.8	7.48e-01	0	27	104	1205862400	87	36409
2026-01-14 13:12:20.50	336.67	4.17	-60.1	-79.5	3.8	7.46e-01	0	27	104	1205862400	87	36570
2026-01-14 13:12:21.51	336.74	4.10	-60.1	-79.5	3.8	7.50e-01	0	27	104	1205862400	87	36705
2026-01-14 13:12:22.52	336.82	4.03	-60.1	-79.5	3.8	7.46e-01	0	27	104	1205862400	88	34790
