passes_logs/2026/01/14/R3.2S_Murmansk/R3.2S_Murmansk__20260114_040947_FENGYUN_3D_rec.log

#Pass ID: 20260114_040947_FENGYUN 3D
#Satellite: FENGYUN 3D
#Configuration: FENGYUN 3D
#almurnet v.1.7.20251203
#Start time: 2026-01-14 04:09:47

#Version: 2.2.20231116
#Station: R3.2S_Murmansk
#Location: 33.079688 lon 68.888172 lat
#TLE: 1 43010U 17072A   26013.59402220  .00000029  00000+0  35477-4 0  9991
#TLE: 2 43010  98.9934 345.3884 0002280 110.7757 249.3663 14.19695359423056

#Time	Az	El	Level	Level2	SNR	BER	BlckErr	Temp	State	Recorded	gain1	gain2
2026-01-14 04:09:47.36	31.89	2.02	-54.5	-67.5	3.8	8.45e-01	0	25	0	0	74	16719
2026-01-14 04:09:48.36	31.86	2.08	-54.5	-67.4	3.8	8.46e-01	0	25	104	0	74	16688
2026-01-14 04:09:49.37	31.83	2.15	-54.5	-67.5	3.8	8.46e-01	0	25	104	0	74	16750
2026-01-14 04:09:50.38	31.80	2.21	-54.5	-67.5	3.8	8.46e-01	0	25	104	0	74	16803
2026-01-14 04:09:51.39	31.77	2.27	-54.5	-67.5	3.8	8.46e-01	0	25	104	0	74	16779
2026-01-14 04:09:52.40	31.74	2.34	-54.5	-67.5	3.8	8.46e-01	0	25	104	0	74	16759
2026-01-14 04:09:53.41	31.71	2.40	-54.5	-67.5	3.8	8.45e-01	0	25	104	0	74	16775
2026-01-14 04:09:54.42	31.68	2.46	-54.5	-67.5	3.8	8.45e-01	0	26	104	0	74	16768
2026-01-14 04:09:55.42	31.65	2.53	-54.5	-67.5	3.8	8.45e-01	0	25	104	0	74	16808
2026-01-14 04:09:56.43	31.62	2.59	-54.5	-67.5	3.8	8.45e-01	0	26	104	0	74	16767
2026-01-14 04:09:57.44	31.58	2.66	-54.5	-67.5	3.8	8.45e-01	0	26	104	0	74	16788
2026-01-14 04:09:58.45	31.55	2.72	-54.5	-67.5	3.8	8.46e-01	0	25	104	0	74	16816
2026-01-14 04:09:59.46	31.52	2.79	-54.5	-67.5	3.8	8.46e-01	0	26	104	0	74	16832
2026-01-14 04:10:00.47	31.49	2.85	-54.5	-67.5	3.8	8.45e-01	0	26	104	0	74	16810
2026-01-14 04:10:01.48	31.46	2.92	-54.5	-67.5	3.8	8.44e-01	0	26	104	0	74	16793
2026-01-14 04:10:02.49	31.43	2.98	-54.5	-67.5	3.8	8.44e-01	0	26	104	0	74	16755
2026-01-14 04:10:03.50	31.40	3.05	-54.5	-67.5	3.8	8.44e-01	0	26	104	0	74	16787
2026-01-14 04:10:04.51	31.36	3.11	-54.5	-67.5	3.8	8.45e-01	0	26	104	0	74	16829
2026-01-14 04:10:05.52	31.33	3.18	-54.5	-67.5	3.8	8.45e-01	0	26	104	0	74	16841
2026-01-14 04:10:06.53	31.30	3.24	-54.5	-67.5	3.8	8.46e-01	0	26	104	0	74	16838
2026-01-14 04:10:07.54	31.27	3.31	-54.5	-67.5	3.8	8.45e-01	0	26	104	0	74	16833
2026-01-14 04:10:08.55	31.24	3.37	-54.5	-67.5	3.8	8.45e-01	0	26	104	0	74	16867
2026-01-14 04:10:09.55	31.20	3.44	-54.5	-67.5	3.8	8.46e-01	0	26	104	0	74	16828
2026-01-14 04:10:10.56	31.17	3.51	-54.5	-67.6	3.8	8.45e-01	0	26	104	0	74	16900
2026-01-14 04:10:11.57	31.14	3.57	-54.5	-67.5	3.8	8.46e-01	0	26	104	0	74	16808
2026-01-14 04:10:12.58	31.10	3.64	-54.5	-67.5	3.8	8.45e-01	0	26	104	0	74	16871
2026-01-14 04:10:13.59	31.07	3.70	-54.5	-67.5	3.8	8.45e-01	0	26	104	0	74	16877
2026-01-14 04:10:14.60	31.04	3.77	-54.5	-67.5	3.9	8.45e-01	0	26	104	0	74	16858
2026-01-14 04:10:15.60	31.00	3.84	-54.5	-67.5	3.8	8.46e-01	0	26	104	0	74	16849
2026-01-14 04:10:16.61	30.97	3.90	-54.5	-67.6	3.8	8.45e-01	0	26	104	0	74	16918
2026-01-14 04:10:17.62	30.94	3.97	-54.5	-67.5	3.8	8.45e-01	0	26	104	0	74	16860
2026-01-14 04:10:18.63	30.90	4.04	-54.5	-67.6	3.8	8.45e-01	0	26	104	0	74	16904
2026-01-14 04:10:19.64	30.87	4.11	-54.5	-67.5	3.8	8.46e-01	0	26	104	0	74	16858
2026-01-14 04:10:20.65	30.83	4.17	-54.5	-67.5	3.8	8.47e-01	0	26	104	0	74	16878
2026-01-14 04:10:21.66	30.80	4.24	-54.5	-67.6	3.8	8.45e-01	0	26	104	0	74	16899
2026-01-14 04:10:22.67	30.76	4.31	-54.5	-67.5	3.8	8.44e-01	0	26	104	0	74	16855
2026-01-14 04:10:23.68	30.73	4.38	-54.5	-67.5	3.8	8.46e-01	0	26	104	0	74	16839
2026-01-14 04:10:24.69	30.69	4.45	-54.5	-67.5	3.8	8.45e-01	0	26	104	0	74	16879
2026-01-14 04:10:25.70	30.66	4.52	-54.5	-67.6	3.8	8.46e-01	0	26	104	0	74	16905
2026-01-14 04:10:26.70	30.62	4.58	-54.6	-67.6	3.8	8.46e-01	0	26	104	0	74	16900
2026-01-14 04:10:27.71	30.58	4.65	-54.5	-67.5	3.8	8.45e-01	0	26	104	0	74	16864
2026-01-14 04:10:28.72	30.55	4.72	-54.6	-67.5	3.8	8.45e-01	0	26	104	0	74	16884
2026-01-14 04:10:29.73	30.51	4.79	-54.6	-67.6	3.8	8.46e-01	0	26	104	0	74	16933
2026-01-14 04:10:30.74	30.48	4.86	-54.6	-67.5	3.8	8.46e-01	0	26	104	0	74	16851
2026-01-14 04:10:31.75	30.44	4.93	-54.6	-67.6	3.8	8.46e-01	0	26	104	0	74	16891
2026-01-14 04:10:32.76	30.40	5.00	-54.6	-67.5	3.8	8.46e-01	0	26	104	0	74	16885
2026-01-14 04:10:33.77	30.37	5.07	-54.6	-67.6	3.8	8.44e-01	0	26	104	0	74	16917
2026-01-14 04:10:34.78	30.33	5.14	-54.6	-67.6	3.8	8.46e-01	0	26	104	0	74	16927
2026-01-14 04:10:35.78	30.29	5.21	-54.6	-67.5	3.8	8.45e-01	0	26	104	0	74	16879
2026-01-14 04:10:36.79	30.25	5.28	-54.5	-67.6	3.8	8.44e-01	0	26	104	0	74	16923
2026-01-14 04:10:37.80	30.22	5.35	-54.5	-67.5	3.8	8.45e-01	0	26	104	0	74	16865
2026-01-14 04:10:38.81	30.18	5.42	-54.6	-67.5	3.8	8.46e-01	0	26	104	0	74	16868
2026-01-14 04:10:39.82	30.14	5.49	-54.6	-67.6	3.8	8.45e-01	0	26	104	0	74	16925
2026-01-14 04:10:40.83	30.10	5.56	-54.5	-67.6	3.8	8.46e-01	0	26	104	0	74	16897
2026-01-14 04:10:41.84	30.06	5.63	-54.6	-67.6	3.8	8.45e-01	0	27	104	0	74	16915
2026-01-14 04:10:42.85	30.02	5.71	-54.6	-67.6	3.8	8.45e-01	0	26	104	0	74	16960
2026-01-14 04:10:43.86	29.98	5.78	-54.6	-67.6	3.8	8.45e-01	0	26	104	0	74	16951
2026-01-14 04:10:44.87	29.94	5.85	-54.6	-67.6	3.8	8.45e-01	0	26	104	0	74	16940
2026-01-14 04:10:45.88	29.90	5.92	-54.6	-67.6	3.8	8.45e-01	0	27	104	0	74	16895
2026-01-14 04:10:46.89	29.86	5.99	-54.5	-67.6	3.8	8.46e-01	0	27	104	0	74	16906
2026-01-14 04:10:47.90	29.82	6.07	-54.6	-67.6	3.8	8.45e-01	0	26	104	0	74	16909
2026-01-14 04:10:48.91	29.78	6.14	-54.6	-67.6	3.8	8.45e-01	0	27	104	0	74	16928
2026-01-14 04:10:49.91	29.74	6.21	-54.6	-67.6	3.8	8.45e-01	0	27	104	0	74	16954
2026-01-14 04:10:50.92	29.70	6.28	-54.6	-67.6	3.8	8.46e-01	0	27	104	0	74	16931
2026-01-14 04:10:51.93	29.66	6.36	-54.6	-67.6	3.8	8.45e-01	0	27	104	0	74	16944
2026-01-14 04:10:52.94	29.62	6.43	-54.6	-67.6	3.8	8.46e-01	0	27	104	0	74	16970
2026-01-14 04:10:53.95	29.58	6.50	-54.6	-67.6	3.8	8.45e-01	0	27	104	0	74	16943
2026-01-14 04:10:54.96	29.54	6.58	-54.6	-67.6	3.8	8.46e-01	0	27	104	0	74	16953
2026-01-14 04:10:55.97	29.50	6.65	-54.6	-67.6	3.8	8.46e-01	0	27	104	0	74	16943
2026-01-14 04:10:56.98	29.46	6.72	-54.6	-67.6	3.8	8.46e-01	0	27	104	0	74	16960
2026-01-14 04:10:57.99	29.41	6.80	-54.6	-67.6	3.8	8.46e-01	0	27	104	0	74	16924
2026-01-14 04:10:59.00	29.37	6.87	-54.6	-67.6	3.8	8.45e-01	0	27	104	0	74	17010
2026-01-14 04:11:00.01	29.33	6.95	-54.6	-67.6	3.8	8.46e-01	0	27	104	0	74	16987
2026-01-14 04:11:01.02	29.28	7.02	-54.6	-67.6	3.8	8.45e-01	0	27	104	0	74	16960
2026-01-14 04:11:02.02	29.24	7.10	-54.6	-67.6	3.8	8.46e-01	0	27	104	0	74	16946
2026-01-14 04:11:03.04	29.20	7.17	-54.6	-67.6	3.8	8.46e-01	0	27	104	0	74	16954
2026-01-14 04:11:04.04	29.15	7.25	-54.6	-67.6	3.8	8.45e-01	0	27	104	0	74	16975
2026-01-14 04:11:05.05	29.11	7.32	-54.6	-67.6	3.8	8.45e-01	0	27	104	0	74	16956
2026-01-14 04:11:06.06	29.07	7.40	-54.6	-67.6	3.8	8.45e-01	0	27	104	0	74	16963
2026-01-14 04:11:07.07	29.02	7.48	-54.6	-67.6	3.9	8.46e-01	0	27	104	0	74	16981
2026-01-14 04:11:08.08	28.98	7.55	-54.6	-67.6	3.9	8.46e-01	0	27	104	0	74	16980
2026-01-14 04:11:09.09	28.93	7.63	-54.6	-67.6	3.8	8.47e-01	0	27	104	0	74	16945
2026-01-14 04:11:10.10	28.89	7.70	-54.6	-67.6	3.8	8.46e-01	0	27	104	0	74	16912
2026-01-14 04:11:11.11	28.84	7.78	-54.6	-67.6	3.8	8.44e-01	0	27	104	0	74	16918
2026-01-14 04:11:12.12	28.80	7.86	-54.6	-67.6	3.8	8.46e-01	0	27	104	0	74	16922
2026-01-14 04:11:13.13	28.75	7.94	-54.6	-67.6	3.8	8.45e-01	0	27	104	0	74	16913
2026-01-14 04:11:14.13	28.70	8.01	-54.6	-67.6	3.8	8.46e-01	0	27	104	0	74	17024
2026-01-14 04:11:15.14	28.66	8.09	-54.6	-67.6	3.8	8.45e-01	0	27	104	0	74	16995
2026-01-14 04:11:16.15	28.61	8.17	-54.6	-67.5	3.8	8.46e-01	0	27	104	0	74	16858
2026-01-14 04:11:17.16	28.56	8.25	-54.6	-67.6	3.8	8.45e-01	0	27	104	0	74	16962
2026-01-14 04:11:18.16	28.52	8.32	-54.6	-67.6	3.8	8.46e-01	0	27	104	0	74	17029
2026-01-14 04:11:19.18	28.47	8.40	-54.6	-67.6	3.8	8.46e-01	0	27	104	0	74	16983
2026-01-14 04:11:20.18	28.42	8.48	-54.6	-67.6	3.8	8.46e-01	0	27	104	0	74	16961
2026-01-14 04:11:21.19	28.37	8.56	-54.6	-67.6	3.8	8.45e-01	0	27	104	0	74	16974
2026-01-14 04:11:22.20	28.32	8.64	-54.6	-67.6	3.8	8.45e-01	0	27	104	0	74	17019
2026-01-14 04:11:23.21	28.28	8.72	-54.6	-67.6	3.8	8.46e-01	0	27	104	0	74	17005
2026-01-14 04:11:24.22	28.23	8.80	-54.6	-67.6	3.8	8.46e-01	0	27	104	0	74	17010
2026-01-14 04:11:25.23	28.18	8.88	-54.6	-67.6	3.8	8.45e-01	0	27	104	0	74	16992
2026-01-14 04:11:26.24	28.13	8.96	-54.6	-67.6	3.8	8.44e-01	0	27	104	0	74	16974
2026-01-14 04:11:27.24	28.08	9.04	-54.6	-67.6	3.8	8.45e-01	0	27	104	0	74	16991
2026-01-14 04:11:28.25	28.03	9.12	-54.6	-67.6	3.8	8.45e-01	0	27	104	0	74	17000
2026-01-14 04:11:29.26	27.98	9.20	-54.6	-67.6	3.8	8.45e-01	0	27	104	0	74	16922
2026-01-14 04:11:30.27	27.93	9.28	-54.6	-67.6	3.8	8.45e-01	0	27	104	0	74	17022
2026-01-14 04:11:31.28	27.87	9.37	-54.6	-67.6	3.8	8.46e-01	0	27	104	0	74	16978
2026-01-14 04:11:32.29	27.82	9.45	-54.6	-67.6	3.8	8.46e-01	0	27	104	0	74	16934
2026-01-14 04:11:33.30	27.77	9.53	-54.6	-67.6	3.8	8.45e-01	0	27	104	0	74	16951
2026-01-14 04:11:34.31	27.72	9.61	-54.6	-67.6	3.8	8.45e-01	0	27	104	0	74	17023
2026-01-14 04:11:35.32	27.67	9.69	-54.6	-67.6	3.8	8.46e-01	0	27	104	0	74	17002
2026-01-14 04:11:36.32	27.61	9.78	-54.6	-67.6	3.8	8.45e-01	0	27	104	0	74	16957
2026-01-14 04:11:37.33	27.56	9.86	-54.6	-67.6	3.8	8.45e-01	0	27	104	0	74	17018
2026-01-14 04:11:38.34	27.51	9.94	-54.6	-67.6	3.8	8.46e-01	0	27	104	0	74	17027
2026-01-14 04:11:39.35	27.45	10.03	-54.6	-67.6	3.8	8.46e-01	0	27	104	0	74	16969
2026-01-14 04:11:40.36	27.40	10.11	-54.6	-67.6	3.8	8.45e-01	0	27	104	0	74	17007
2026-01-14 04:11:41.37	27.35	10.19	-54.6	-67.6	3.8	8.46e-01	0	27	104	0	74	17010
2026-01-14 04:11:42.38	27.29	10.28	-54.6	-67.6	3.8	8.45e-01	0	27	104	0	74	17005
2026-01-14 04:11:43.38	27.24	10.36	-54.6	-67.6	3.8	8.45e-01	0	27	104	0	74	16948
2026-01-14 04:11:44.40	27.18	10.45	-54.6	-67.6	3.8	8.45e-01	0	27	104	0	74	17022
2026-01-14 04:11:45.40	27.13	10.53	-54.6	-67.6	3.8	8.45e-01	0	27	104	0	74	16966
2026-01-14 04:11:46.41	27.07	10.62	-54.6	-67.6	3.8	8.45e-01	0	27	104	0	74	16997
2026-01-14 04:11:47.41	27.01	10.70	-54.6	-67.6	3.8	8.46e-01	0	27	104	0	74	16998
2026-01-14 04:11:48.42	26.96	10.79	-54.6	-67.6	3.8	8.46e-01	0	27	104	0	74	17068
2026-01-14 04:11:49.42	26.90	10.87	-54.6	-67.6	3.8	8.46e-01	0	27	104	0	74	17019
2026-01-14 04:11:50.43	26.84	10.96	-54.6	-67.6	3.8	8.46e-01	0	27	104	0	74	17059
2026-01-14 04:11:51.44	26.78	11.04	-54.6	-67.6	3.8	8.45e-01	0	27	104	0	74	17033
2026-01-14 04:11:52.45	26.73	11.13	-54.6	-67.6	3.8	8.46e-01	0	27	104	0	74	17029
2026-01-14 04:11:53.46	26.67	11.22	-54.6	-67.6	3.8	8.45e-01	0	27	104	0	74	16997
2026-01-14 04:11:54.47	26.61	11.31	-54.6	-67.6	3.8	8.45e-01	0	27	104	0	74	17000
2026-01-14 04:11:55.48	26.55	11.39	-54.6	-67.7	3.8	8.46e-01	0	27	104	0	74	17097
2026-01-14 04:11:56.49	26.49	11.48	-54.6	-67.6	3.8	8.46e-01	0	27	104	0	74	17008
2026-01-14 04:11:57.49	26.43	11.57	-54.6	-67.6	3.8	8.45e-01	0	27	104	0	74	17061
2026-01-14 04:11:58.50	26.37	11.66	-54.6	-67.6	3.8	8.45e-01	0	27	104	0	74	17007
2026-01-14 04:11:59.51	26.31	11.75	-54.6	-67.6	3.8	8.46e-01	0	27	104	0	74	17021
2026-01-14 04:12:00.52	26.25	11.84	-54.6	-67.6	3.8	8.45e-01	0	27	104	0	74	17040
2026-01-14 04:12:01.53	26.19	11.93	-54.6	-67.6	3.8	8.46e-01	0	27	104	0	74	17019
2026-01-14 04:12:02.54	26.12	12.02	-54.6	-67.6	3.8	8.45e-01	0	27	104	0	74	17067
2026-01-14 04:12:03.55	26.06	12.11	-54.6	-67.6	3.8	8.46e-01	0	27	104	0	74	17064
2026-01-14 04:12:04.55	26.00	12.20	-54.6	-67.6	3.8	8.45e-01	0	27	104	0	74	17034
2026-01-14 04:12:05.56	25.94	12.29	-54.6	-67.6	3.8	8.46e-01	0	27	104	0	74	17038
2026-01-14 04:12:06.57	25.87	12.38	-54.6	-67.6	3.8	8.46e-01	0	27	104	0	74	17061
2026-01-14 04:12:07.58	25.81	12.47	-54.6	-67.6	3.8	8.44e-01	0	27	104	0	74	17032
2026-01-14 04:12:08.59	25.74	12.56	-54.6	-67.6	3.8	8.46e-01	0	27	104	0	74	17045
2026-01-14 04:12:09.60	25.68	12.65	-54.6	-67.6	3.8	8.44e-01	0	27	104	0	74	17032
2026-01-14 04:12:10.61	25.61	12.74	-54.6	-67.7	3.8	8.46e-01	0	27	104	0	74	17099
2026-01-14 04:12:11.62	25.55	12.84	-54.6	-67.6	3.8	8.44e-01	0	27	104	0	74	17040
2026-01-14 04:12:12.63	25.48	12.93	-54.6	-67.6	3.8	8.46e-01	0	27	104	0	74	17036
2026-01-14 04:12:13.64	25.41	13.02	-54.6	-67.6	3.8	8.45e-01	0	27	104	0	74	17027
2026-01-14 04:12:14.65	25.35	13.12	-54.6	-67.6	3.8	8.46e-01	0	27	104	0	74	17012
2026-01-14 04:12:15.66	25.28	13.21	-54.6	-67.6	3.8	8.46e-01	0	27	104	0	74	17030
2026-01-14 04:12:16.67	25.21	13.30	-54.6	-67.6	3.8	8.45e-01	0	27	104	0	74	17047
2026-01-14 04:12:17.67	25.14	13.40	-54.6	-67.6	3.8	8.45e-01	0	27	104	0	74	17049
2026-01-14 04:12:18.68	25.07	13.49	-54.6	-67.6	3.8	8.44e-01	0	27	104	0	74	17072
2026-01-14 04:12:19.69	25.00	13.59	-54.6	-67.6	3.8	8.45e-01	0	27	104	0	74	17038
2026-01-14 04:12:20.70	24.93	13.68	-54.6	-67.6	3.8	8.45e-01	0	27	104	0	74	17047
2026-01-14 04:12:21.71	24.86	13.78	-54.6	-67.6	3.8	8.46e-01	0	27	104	0	74	17053
2026-01-14 04:12:22.72	24.79	13.87	-54.6	-67.6	3.8	8.45e-01	0	27	104	0	74	17064
2026-01-14 04:12:23.73	24.72	13.97	-54.6	-67.6	3.8	8.47e-01	0	27	104	0	74	17025
2026-01-14 04:12:24.73	24.65	14.07	-54.6	-67.6	3.8	8.46e-01	0	27	104	0	74	17080
2026-01-14 04:12:25.74	24.58	14.16	-54.6	-67.6	3.8	8.46e-01	0	27	104	0	74	17014
2026-01-14 04:12:26.75	24.50	14.26	-54.6	-67.6	3.8	8.46e-01	0	27	104	0	74	17038
2026-01-14 04:12:27.76	24.43	14.36	-54.6	-67.6	3.8	8.46e-01	0	27	104	0	74	17064
2026-01-14 04:12:28.77	24.36	14.46	-54.6	-67.6	3.8	8.47e-01	0	27	104	0	74	17054
2026-01-14 04:12:29.78	24.28	14.56	-54.6	-67.6	3.8	8.46e-01	0	27	104	0	74	17023
2026-01-14 04:12:30.78	24.21	14.65	-54.6	-67.6	3.8	8.46e-01	0	27	104	0	74	17061
2026-01-14 04:12:31.79	24.13	14.75	-54.6	-67.6	3.8	8.46e-01	0	27	104	0	74	16985
2026-01-14 04:12:32.79	24.06	14.85	-54.6	-67.6	3.8	8.45e-01	0	27	104	0	74	17051
2026-01-14 04:12:33.80	23.98	14.95	-54.6	-67.6	3.8	8.45e-01	0	27	104	0	74	17032
2026-01-14 04:12:34.81	23.90	15.05	-54.6	-67.6	3.8	8.45e-01	0	27	104	0	74	17037
2026-01-14 04:12:35.82	23.83	15.15	-54.6	-67.6	3.8	8.46e-01	0	27	104	0	74	17054
2026-01-14 04:12:36.83	23.75	15.25	-54.6	-67.6	3.8	8.46e-01	0	27	104	0	74	17067
2026-01-14 04:12:37.84	23.67	15.35	-54.6	-67.6	3.8	8.46e-01	0	27	104	0	74	17049
2026-01-14 04:12:38.84	23.59	15.45	-54.6	-67.7	3.8	8.45e-01	0	27	104	0	74	17120
2026-01-14 04:12:39.85	23.51	15.56	-54.6	-67.6	3.8	8.46e-01	0	27	104	0	74	17010
2026-01-14 04:12:40.86	23.43	15.66	-54.6	-67.6	3.8	8.46e-01	0	27	104	0	74	17044
2026-01-14 04:12:41.87	23.35	15.76	-54.6	-67.6	3.8	8.46e-01	0	27	104	0	74	17001
2026-01-14 04:12:42.88	23.27	15.86	-54.6	-67.6	3.8	8.46e-01	0	27	104	0	74	17042
2026-01-14 04:12:43.89	23.19	15.97	-54.6	-67.6	3.8	8.45e-01	0	27	104	0	74	17067
2026-01-14 04:12:44.90	23.10	16.07	-54.6	-67.6	3.8	8.45e-01	0	27	104	0	74	17073
2026-01-14 04:12:45.91	23.02	16.18	-54.6	-67.6	3.8	8.45e-01	0	27	104	0	74	17000
2026-01-14 04:12:46.92	22.94	16.28	-54.6	-67.6	3.8	8.46e-01	0	27	104	0	74	17069
2026-01-14 04:12:47.93	22.85	16.39	-54.6	-67.6	3.8	8.46e-01	0	27	104	0	74	17072
2026-01-14 04:12:48.94	22.77	16.49	-54.6	-67.7	3.8	8.47e-01	0	27	104	0	74	17097
2026-01-14 04:12:49.95	22.68	16.60	-54.6	-67.6	3.8	8.44e-01	0	27	104	0	74	17072
2026-01-14 04:12:50.96	22.59	16.70	-54.6	-67.6	3.8	8.45e-01	0	27	104	0	74	17053
2026-01-14 04:12:51.97	22.51	16.81	-54.6	-67.6	3.8	8.44e-01	0	27	104	0	74	17003
2026-01-14 04:12:52.98	22.42	16.92	-54.6	-67.7	3.8	8.45e-01	0	27	104	0	74	17085
2026-01-14 04:12:53.99	22.33	17.02	-54.6	-67.6	3.8	8.46e-01	0	27	104	0	74	17036
2026-01-14 04:12:55.00	22.24	17.13	-54.6	-67.6	3.8	8.45e-01	0	27	104	0	74	17069
2026-01-14 04:12:56.01	22.15	17.24	-54.6	-67.6	3.8	8.45e-01	0	27	104	0	74	17037
2026-01-14 04:12:57.02	22.06	17.35	-54.6	-67.6	3.8	8.45e-01	0	27	104	0	74	17069
2026-01-14 04:12:58.02	21.97	17.46	-54.6	-67.6	3.8	8.46e-01	0	27	104	0	74	17058
2026-01-14 04:12:59.03	21.88	17.57	-54.6	-67.7	3.8	8.45e-01	0	27	104	0	74	17084
2026-01-14 04:13:00.04	21.79	17.68	-54.6	-67.6	3.8	8.45e-01	0	27	104	0	74	17004
2026-01-14 04:13:01.05	21.69	17.79	-54.6	-67.7	3.8	8.45e-01	0	27	104	0	74	17092
2026-01-14 04:13:02.06	21.60	17.90	-54.6	-67.6	3.8	8.45e-01	0	27	104	0	74	17067
2026-01-14 04:13:03.07	21.50	18.01	-54.6	-67.7	3.8	8.45e-01	0	27	104	0	74	17116
2026-01-14 04:13:04.08	21.41	18.12	-54.6	-67.6	3.8	8.45e-01	0	27	104	0	74	17051
2026-01-14 04:13:05.08	21.31	18.23	-54.6	-67.6	3.8	8.45e-01	0	27	104	0	74	17078
2026-01-14 04:13:06.09	21.22	18.34	-54.6	-67.6	3.8	8.45e-01	0	27	104	0	74	17068
2026-01-14 04:13:07.11	21.12	18.46	-54.6	-67.6	3.8	8.46e-01	0	27	104	0	74	17078
2026-01-14 04:13:08.12	21.02	18.57	-54.6	-67.6	3.8	8.45e-01	0	27	104	0	74	17059
2026-01-14 04:13:09.12	20.92	18.68	-54.6	-67.6	3.8	8.46e-01	0	27	104	0	74	17068
2026-01-14 04:13:10.13	20.82	18.80	-54.6	-67.6	3.8	8.45e-01	0	27	104	0	74	17070
2026-01-14 04:13:11.14	20.72	18.91	-54.7	-67.7	3.8	8.46e-01	0	27	104	0	74	17109
2026-01-14 04:13:12.15	20.62	19.03	-54.6	-67.6	3.8	8.47e-01	0	27	104	0	74	17040
2026-01-14 04:13:13.16	20.52	19.14	-54.6	-67.6	3.8	8.46e-01	0	27	104	0	74	17064
2026-01-14 04:13:14.17	20.41	19.26	-54.6	-67.7	3.8	8.45e-01	0	27	104	0	74	17090
2026-01-14 04:13:15.18	20.31	19.37	-54.6	-67.6	3.8	8.46e-01	0	27	104	0	74	17062
2026-01-14 04:13:16.19	20.21	19.49	-54.6	-67.6	3.8	8.46e-01	0	28	104	0	74	17030
2026-01-14 04:13:17.19	20.10	19.61	-54.6	-67.6	3.8	8.46e-01	0	27	104	0	74	17054
2026-01-14 04:13:18.20	20.00	19.72	-54.6	-67.7	3.8	8.45e-01	0	27	104	0	74	17087
2026-01-14 04:13:19.21	19.89	19.84	-54.6	-67.6	3.8	8.46e-01	0	28	104	0	74	17047
2026-01-14 04:13:20.22	19.78	19.96	-54.6	-67.7	3.8	8.46e-01	0	27	104	0	74	17093
2026-01-14 04:13:21.23	19.67	20.08	-54.6	-67.7	3.8	8.46e-01	0	27	104	0	74	17084
2026-01-14 04:13:22.24	19.56	20.20	-54.7	-67.7	3.8	8.45e-01	0	27	104	0	74	17096
2026-01-14 04:13:23.25	19.45	20.32	-54.7	-67.6	3.8	8.45e-01	0	27	104	0	74	17080
2026-01-14 04:13:24.26	19.34	20.44	-54.6	-67.7	3.8	8.46e-01	0	27	104	0	74	17094
2026-01-14 04:13:25.27	19.23	20.56	-54.7	-67.7	3.8	8.46e-01	0	27	104	0	74	17103
2026-01-14 04:13:26.27	19.11	20.68	-54.6	-67.6	3.8	8.44e-01	0	27	104	0	74	17078
2026-01-14 04:13:27.28	19.00	20.80	-54.6	-67.6	3.8	8.46e-01	0	27	104	0	74	17032
2026-01-14 04:13:28.29	18.88	20.92	-54.6	-67.6	3.8	8.47e-01	0	27	104	0	74	17081
2026-01-14 04:13:29.30	18.77	21.04	-54.6	-67.7	3.8	8.45e-01	0	27	104	0	74	17096
2026-01-14 04:13:30.31	18.65	21.17	-54.7	-67.6	3.8	8.47e-01	0	27	104	0	74	17054
2026-01-14 04:13:31.32	18.53	21.29	-54.7	-67.6	3.8	8.46e-01	0	27	104	0	74	17073
2026-01-14 04:13:32.33	18.41	21.42	-54.6	-67.7	3.8	8.46e-01	0	27	104	0	74	17101
2026-01-14 04:13:33.34	18.29	21.54	-54.6	-67.6	3.8	8.45e-01	0	27	104	0	74	17067
2026-01-14 04:13:34.35	18.17	21.66	-54.6	-67.6	3.8	8.46e-01	0	27	104	0	74	17056
2026-01-14 04:13:35.36	18.05	21.79	-54.7	-67.7	3.8	8.45e-01	0	27	104	0	74	17110
2026-01-14 04:13:36.37	17.93	21.92	-54.6	-67.6	3.8	8.47e-01	0	27	104	0	74	17065
2026-01-14 04:13:37.38	17.80	22.04	-54.6	-67.6	3.8	8.46e-01	0	27	104	0	74	17041
2026-01-14 04:13:38.38	17.68	22.17	-54.6	-67.6	3.8	8.46e-01	0	27	104	0	74	17067
2026-01-14 04:13:39.39	17.55	22.30	-54.6	-67.7	3.8	8.44e-01	0	27	104	0	74	17108
2026-01-14 04:13:40.40	17.43	22.42	-54.6	-67.6	3.8	8.45e-01	0	27	104	0	74	17021
2026-01-14 04:13:41.41	17.30	22.55	-54.6	-67.6	3.8	8.46e-01	0	27	104	0	74	17037
2026-01-14 04:13:42.42	17.17	22.68	-54.6	-67.7	3.8	8.47e-01	0	27	104	0	74	17104
2026-01-14 04:13:43.42	17.04	22.81	-54.6	-67.6	3.8	8.45e-01	0	27	104	0	74	17032
2026-01-14 04:13:44.44	16.91	22.94	-54.6	-67.6	3.8	8.46e-01	0	27	104	0	74	17057
2026-01-14 04:13:45.45	16.77	23.07	-54.6	-67.6	3.8	8.46e-01	0	27	104	0	74	17041
2026-01-14 04:13:46.45	16.64	23.20	-54.6	-67.6	3.8	8.46e-01	0	27	104	0	74	17063
2026-01-14 04:13:47.46	16.50	23.33	-54.6	-67.6	3.8	8.45e-01	0	27	104	0	74	17052
2026-01-14 04:13:48.47	16.37	23.46	-54.6	-67.6	3.8	8.45e-01	0	27	104	0	74	17083
2026-01-14 04:13:49.48	16.23	23.59	-54.6	-67.6	3.8	8.46e-01	0	27	104	0	74	17076
2026-01-14 04:13:50.49	16.09	23.73	-54.7	-67.7	3.8	8.44e-01	0	27	104	0	74	17098
2026-01-14 04:13:51.50	15.95	23.86	-54.7	-67.7	3.8	8.45e-01	0	27	104	0	74	17128
2026-01-14 04:13:52.51	15.81	23.99	-54.6	-67.7	3.8	8.45e-01	0	27	104	0	74	17100
2026-01-14 04:13:53.52	15.67	24.13	-54.7	-67.7	3.8	8.45e-01	0	27	104	0	74	17091
2026-01-14 04:13:54.53	15.52	24.26	-54.7	-67.7	3.8	8.47e-01	0	27	104	0	74	17102
2026-01-14 04:13:55.54	15.38	24.40	-54.6	-67.7	3.8	8.46e-01	0	27	104	0	74	17116
2026-01-14 04:13:56.54	15.24	24.53	-54.6	-67.7	3.8	8.45e-01	0	27	104	0	74	17124
2026-01-14 04:13:57.56	15.09	24.67	-54.7	-67.7	3.8	8.45e-01	0	27	104	0	74	17137
2026-01-14 04:13:58.56	14.94	24.81	-54.6	-67.7	3.8	8.44e-01	0	27	104	0	74	17095
2026-01-14 04:13:59.57	14.79	24.94	-54.6	-67.7	3.8	8.45e-01	0	27	104	0	74	17090
2026-01-14 04:14:00.58	14.64	25.08	-54.6	-67.6	3.8	8.46e-01	0	28	104	0	74	17070
2026-01-14 04:14:01.59	14.48	25.22	-54.7	-67.7	3.8	8.46e-01	0	27	104	0	74	17113
2026-01-14 04:14:02.60	14.33	25.36	-54.6	-67.7	3.8	8.45e-01	0	27	104	0	74	17158
2026-01-14 04:14:03.60	14.18	25.50	-54.6	-67.7	3.8	8.46e-01	0	27	104	0	74	17110
2026-01-14 04:14:04.61	14.02	25.63	-54.6	-67.7	3.8	8.46e-01	0	27	104	0	74	17094
2026-01-14 04:14:05.62	13.86	25.77	-54.6	-67.7	3.8	8.47e-01	0	27	104	0	74	17109
2026-01-14 04:14:06.63	13.70	25.92	-54.6	-67.7	3.8	8.45e-01	0	27	104	0	74	17089
2026-01-14 04:14:07.64	13.54	26.06	-54.6	-67.6	3.8	8.45e-01	0	27	104	0	74	17043
2026-01-14 04:14:08.65	13.38	26.20	-54.7	-67.7	3.8	8.46e-01	0	27	104	0	74	17129
2026-01-14 04:14:09.66	13.21	26.34	-54.6	-67.6	3.8	8.46e-01	0	28	104	0	74	17024
2026-01-14 04:14:10.67	13.05	26.48	-54.6	-67.6	3.8	8.45e-01	0	27	104	0	74	17075
2026-01-14 04:14:11.68	12.88	26.63	-54.7	-67.6	3.8	8.45e-01	0	27	104	0	74	17066
2026-01-14 04:14:12.69	12.71	26.77	-54.6	-67.7	3.8	8.46e-01	0	28	104	0	74	17088
2026-01-14 04:14:13.70	12.54	26.91	-54.6	-67.6	3.8	8.46e-01	0	27	104	0	74	17077
2026-01-14 04:14:14.71	12.37	27.06	-54.7	-67.6	3.8	8.46e-01	0	27	104	0	74	17009
2026-01-14 04:14:15.72	12.19	27.20	-54.6	-67.7	3.8	8.46e-01	0	27	104	0	74	17092
2026-01-14 04:14:16.72	12.02	27.35	-54.6	-67.6	3.8	8.45e-01	0	27	104	0	74	17044
2026-01-14 04:14:17.73	11.84	27.49	-54.7	-67.7	3.8	8.46e-01	0	27	104	0	74	17093
2026-01-14 04:14:18.74	11.67	27.64	-54.7	-67.7	3.8	8.45e-01	0	27	104	0	74	17103
2026-01-14 04:14:19.75	11.49	27.79	-54.6	-67.6	3.8	8.46e-01	0	28	104	0	74	17059
2026-01-14 04:14:20.76	11.30	27.93	-54.7	-67.7	3.8	8.45e-01	0	27	104	0	74	17105
2026-01-14 04:14:21.77	11.12	28.08	-54.7	-67.7	3.8	8.44e-01	0	27	104	0	74	17126
2026-01-14 04:14:22.78	10.93	28.23	-54.7	-67.6	3.8	8.45e-01	0	27	104	0	74	17076
2026-01-14 04:14:23.79	10.75	28.38	-54.7	-67.7	3.8	8.47e-01	0	27	104	0	74	17143
2026-01-14 04:14:24.79	10.56	28.53	-54.7	-67.6	3.8	8.46e-01	0	27	104	0	74	17078
2026-01-14 04:14:25.80	10.37	28.68	-54.7	-67.7	3.8	8.46e-01	0	27	104	0	74	17129
2026-01-14 04:14:26.81	10.18	28.83	-54.7	-67.7	3.8	8.44e-01	0	27	104	0	74	17183
2026-01-14 04:14:27.82	9.98	28.98	-54.7	-67.7	3.8	8.46e-01	0	27	104	0	74	17130
2026-01-14 04:14:28.83	9.79	29.13	-54.7	-67.7	3.8	8.46e-01	0	28	104	0	74	17140
2026-01-14 04:14:29.84	9.59	29.28	-54.7	-67.7	3.8	8.45e-01	0	28	104	0	74	17088
2026-01-14 04:14:30.85	9.39	29.43	-54.7	-67.7	3.8	8.44e-01	0	27	104	0	74	17110
2026-01-14 04:14:31.86	9.19	29.58	-54.7	-67.6	3.8	8.44e-01	0	27	104	0	74	17083
2026-01-14 04:14:32.87	8.98	29.74	-54.7	-67.7	3.8	8.45e-01	0	27	104	0	74	17136
2026-01-14 04:14:33.88	8.78	29.89	-54.7	-67.7	3.8	8.45e-01	0	28	104	0	74	17175
2026-01-14 04:14:34.89	8.57	30.04	-54.7	-67.7	3.8	8.46e-01	0	28	104	0	74	17110
2026-01-14 04:14:35.89	8.36	30.19	-54.7	-67.7	3.8	8.45e-01	0	27	104	0	74	17102
2026-01-14 04:14:36.91	8.15	30.35	-54.7	-67.7	3.8	8.45e-01	0	28	104	0	74	17129
2026-01-14 04:14:37.91	7.94	30.50	-54.7	-67.7	3.8	8.45e-01	0	28	104	0	74	17121
2026-01-14 04:14:38.92	7.72	30.66	-54.7	-67.7	3.8	8.47e-01	0	27	104	0	74	17180
2026-01-14 04:14:39.93	7.50	30.81	-54.7	-67.7	3.8	8.45e-01	0	27	104	0	74	17086
2026-01-14 04:14:40.93	7.28	30.97	-54.7	-67.7	3.8	8.46e-01	0	28	104	0	74	17170
2026-01-14 04:14:41.95	7.06	31.12	-54.7	-67.7	3.8	8.45e-01	0	27	104	0	74	17123
2026-01-14 04:14:42.96	6.83	31.28	-54.7	-67.7	3.8	8.46e-01	0	27	104	0	74	17114
2026-01-14 04:14:43.96	6.61	31.44	-54.7	-67.7	3.8	8.46e-01	0	27	104	0	74	17177
2026-01-14 04:14:44.97	6.38	31.59	-54.7	-67.7	3.8	8.46e-01	0	28	104	0	74	17148
2026-01-14 04:14:45.98	6.15	31.75	-54.7	-67.7	3.8	8.46e-01	0	27	104	0	74	17183
2026-01-14 04:14:46.99	5.91	31.91	-54.7	-67.6	3.8	8.47e-01	0	27	104	0	74	17042
2026-01-14 04:14:48.00	5.68	32.07	-54.7	-67.7	3.8	8.44e-01	0	27	104	0	74	17085
2026-01-14 04:14:49.00	5.44	32.22	-54.7	-67.7	3.8	8.45e-01	0	27	104	0	74	17155
2026-01-14 04:14:50.01	5.20	32.38	-54.7	-67.7	3.8	8.45e-01	0	27	104	0	74	17090
2026-01-14 04:14:51.02	4.96	32.54	-54.7	-67.7	3.8	8.45e-01	0	27	104	0	74	17179
2026-01-14 04:14:52.03	4.71	32.70	-54.7	-67.7	3.8	8.45e-01	0	28	104	0	74	17093
2026-01-14 04:14:53.05	4.46	32.86	-54.7	-67.7	3.8	8.46e-01	0	27	104	0	74	17139
2026-01-14 04:14:54.06	4.21	33.02	-54.7	-67.7	3.8	8.46e-01	0	27	104	0	74	17124
2026-01-14 04:14:55.06	3.96	33.18	-54.7	-67.7	3.8	8.46e-01	0	27	104	0	74	17136
2026-01-14 04:14:56.08	3.70	33.34	-54.7	-67.7	3.8	8.45e-01	0	27	104	0	74	17118
2026-01-14 04:14:57.08	3.45	33.50	-54.7	-67.7	3.8	8.46e-01	0	28	104	0	74	17156
2026-01-14 04:14:58.09	3.19	33.66	-54.7	-67.7	3.8	8.47e-01	0	27	104	0	74	17140
2026-01-14 04:14:59.10	2.93	33.82	-54.7	-67.7	3.8	8.46e-01	0	27	104	0	74	17117
2026-01-14 04:15:00.11	2.66	33.98	-54.7	-67.7	3.8	8.45e-01	0	27	104	0	74	17088
2026-01-14 04:15:01.12	2.39	34.14	-54.7	-67.7	3.8	8.46e-01	0	28	104	0	74	17116
2026-01-14 04:15:02.13	2.12	34.30	-54.7	-67.7	3.8	8.46e-01	0	27	104	0	74	17095
2026-01-14 04:15:03.14	1.85	34.46	-54.7	-67.7	3.8	8.45e-01	0	27	104	0	74	17092
2026-01-14 04:15:04.15	1.57	34.62	-54.7	-67.6	3.8	8.45e-01	0	27	104	0	74	17075
2026-01-14 04:15:05.16	1.29	34.78	-54.7	-67.7	3.8	8.46e-01	0	27	104	0	74	17131
2026-01-14 04:15:06.16	1.01	34.94	-54.6	-67.7	3.8	8.46e-01	0	27	104	0	74	17115
2026-01-14 04:15:07.18	0.72	35.10	-54.6	-67.6	3.8	8.45e-01	0	27	104	0	74	17075
2026-01-14 04:15:08.19	0.43	35.26	-54.7	-67.7	3.8	8.45e-01	0	27	104	0	74	17089
2026-01-14 04:15:09.19	0.15	35.42	-54.6	-67.7	3.8	8.45e-01	0	28	104	0	74	17099
2026-01-14 04:15:10.20	359.85	35.58	-54.6	-67.6	3.8	8.46e-01	0	28	104	0	74	17072
2026-01-14 04:15:11.21	359.56	35.74	-54.7	-67.7	3.8	8.46e-01	0	27	104	0	74	17095
2026-01-14 04:15:12.22	359.26	35.90	-54.7	-67.7	3.8	8.47e-01	0	28	104	0	74	17109
2026-01-14 04:15:13.23	358.95	36.07	-54.7	-67.7	3.8	8.46e-01	0	28	104	0	74	17095
2026-01-14 04:15:14.24	358.65	36.23	-54.7	-67.7	3.8	8.46e-01	0	27	104	0	74	17120
2026-01-14 04:15:15.25	358.34	36.39	-54.7	-67.7	3.8	8.45e-01	0	27	104	0	74	17159
2026-01-14 04:15:16.26	358.03	36.55	-54.7	-67.7	3.8	8.45e-01	0	27	104	0	74	17109
2026-01-14 04:15:17.27	357.71	36.71	-54.7	-67.6	3.8	8.45e-01	0	27	104	0	74	17064
2026-01-14 04:15:18.28	357.40	36.87	-54.7	-67.7	3.8	8.44e-01	0	27	104	0	74	17155
2026-01-14 04:15:19.29	357.07	37.03	-54.7	-67.6	3.8	8.45e-01	0	27	104	0	74	17060
2026-01-14 04:15:20.30	356.75	37.18	-54.6	-67.6	3.8	8.47e-01	0	28	104	0	74	17072
2026-01-14 04:15:21.30	356.43	37.34	-54.7	-67.7	3.8	8.45e-01	0	27	104	0	74	17094
2026-01-14 04:15:22.31	356.09	37.50	-54.7	-67.7	3.8	8.44e-01	0	27	104	0	74	17133
2026-01-14 04:15:23.32	355.76	37.66	-54.7	-67.6	3.8	8.46e-01	0	27	104	0	74	17071
2026-01-14 04:15:24.33	355.42	37.82	-54.7	-67.7	3.8	8.45e-01	0	28	104	0	74	17144
2026-01-14 04:15:25.34	355.08	37.97	-54.7	-67.7	3.8	8.45e-01	0	28	104	0	74	17100
2026-01-14 04:15:26.35	354.74	38.13	-54.7	-67.7	3.8	8.46e-01	0	27	104	0	74	17150
2026-01-14 04:15:27.36	354.39	38.29	-54.7	-67.6	3.8	8.46e-01	0	28	104	0	74	17064
2026-01-14 04:15:28.37	354.04	38.44	-54.7	-67.7	3.8	8.46e-01	0	27	104	0	74	17095
2026-01-14 04:15:29.38	353.69	38.60	-54.7	-67.7	3.8	8.45e-01	0	27	104	0	74	17096
2026-01-14 04:15:30.39	353.33	38.76	-54.6	-67.6	3.8	8.45e-01	0	28	104	0	74	17072
2026-01-14 04:15:31.40	352.97	38.91	-54.7	-67.7	3.8	8.45e-01	0	27	104	0	74	17116
2026-01-14 04:15:32.41	352.60	39.06	-54.7	-67.7	3.8	8.45e-01	0	27	104	0	74	17137
2026-01-14 04:15:33.42	352.24	39.22	-54.7	-67.7	3.8	8.45e-01	0	28	104	0	74	17086
2026-01-14 04:15:34.42	351.87	39.37	-54.7	-67.7	3.8	8.47e-01	0	27	104	0	74	17091
2026-01-14 04:15:35.43	351.49	39.52	-54.7	-67.7	3.8	8.46e-01	0	28	104	0	74	17158
2026-01-14 04:15:36.44	351.11	39.67	-54.7	-67.7	3.8	8.45e-01	0	28	104	0	74	17136
2026-01-14 04:15:37.45	350.73	39.82	-54.7	-67.6	3.8	8.46e-01	0	28	104	0	74	17083
2026-01-14 04:15:38.46	350.35	39.97	-54.7	-67.6	3.8	8.45e-01	0	27	104	0	74	17062
2026-01-14 04:15:39.47	349.96	40.12	-54.7	-67.7	3.8	8.46e-01	0	28	104	0	74	17120
2026-01-14 04:15:40.48	349.56	40.27	-54.7	-67.7	3.8	8.45e-01	0	28	104	0	74	17135
2026-01-14 04:15:41.48	349.17	40.41	-54.7	-67.7	3.8	8.45e-01	0	28	104	0	74	17133
2026-01-14 04:15:42.49	348.77	40.56	-54.7	-67.7	3.8	8.46e-01	0	27	104	0	74	17118
2026-01-14 04:15:43.51	348.36	40.70	-54.7	-67.6	3.8	8.45e-01	0	27	104	0	74	17040
2026-01-14 04:15:44.51	347.96	40.85	-54.6	-67.7	3.8	8.46e-01	0	28	104	0	74	17117
2026-01-14 04:15:45.52	347.55	40.99	-54.7	-67.7	3.8	8.46e-01	0	28	104	0	74	17087
2026-01-14 04:15:46.53	347.14	41.13	-54.7	-67.7	3.8	8.46e-01	0	27	104	0	74	17087
2026-01-14 04:15:47.54	346.72	41.27	-54.7	-67.7	3.8	8.45e-01	0	27	104	0	74	17144
2026-01-14 04:15:48.55	346.30	41.41	-54.7	-67.7	3.8	8.47e-01	0	28	104	0	74	17151
2026-01-14 04:15:49.56	345.87	41.55	-54.7	-67.7	3.8	8.46e-01	0	27	104	0	74	17148
2026-01-14 04:15:50.57	345.44	41.68	-54.7	-67.6	3.8	8.45e-01	0	27	104	0	74	17066
2026-01-14 04:15:51.58	345.01	41.82	-54.7	-67.6	3.8	8.45e-01	0	27	104	0	74	17053
2026-01-14 04:15:52.59	344.57	41.95	-54.7	-67.7	3.8	8.45e-01	0	27	104	0	74	17087
2026-01-14 04:15:53.60	344.13	42.08	-54.6	-67.7	3.8	8.46e-01	0	28	104	0	74	17087
2026-01-14 04:15:54.61	343.69	42.22	-54.6	-67.7	3.8	8.44e-01	0	28	104	0	74	17117
2026-01-14 04:15:55.62	343.24	42.35	-54.6	-67.7	3.8	8.45e-01	0	27	104	0	74	17127
2026-01-14 04:15:56.63	342.79	42.47	-54.7	-67.7	3.8	8.46e-01	0	27	104	0	74	17130
2026-01-14 04:15:57.64	342.33	42.60	-54.7	-67.7	3.8	8.46e-01	0	28	104	0	74	17164
2026-01-14 04:15:58.65	341.88	42.72	-54.6	-67.7	3.8	8.45e-01	0	28	104	0	74	17104
2026-01-14 04:15:59.65	341.42	42.85	-54.7	-67.7	3.8	8.45e-01	0	28	104	0	74	17099
2026-01-14 04:16:00.66	340.95	42.97	-54.7	-67.7	3.8	8.46e-01	0	27	104	0	74	17105
2026-01-14 04:16:01.67	340.48	43.09	-54.6	-67.7	3.8	8.46e-01	0	27	104	0	74	17130
2026-01-14 04:16:02.68	340.01	43.20	-54.7	-67.7	3.8	8.45e-01	0	27	104	0	74	17116
2026-01-14 04:16:03.69	339.54	43.32	-54.6	-67.7	3.8	8.46e-01	0	27	104	0	74	17116
2026-01-14 04:16:04.70	339.06	43.43	-54.7	-67.7	3.8	8.46e-01	0	28	104	0	74	17155
2026-01-14 04:16:05.71	338.57	43.55	-54.7	-67.7	3.8	8.45e-01	0	28	104	0	74	17157
2026-01-14 04:16:06.71	338.09	43.66	-54.7	-67.6	3.8	8.45e-01	0	28	104	0	74	17082
2026-01-14 04:16:07.72	337.60	43.76	-54.7	-67.7	3.8	8.45e-01	0	27	104	0	74	17122
2026-01-14 04:16:08.73	337.11	43.87	-54.7	-67.7	3.8	8.45e-01	0	27	104	0	74	17122
2026-01-14 04:16:09.74	336.61	43.97	-54.7	-67.7	3.8	8.44e-01	0	27	104	0	74	17087
2026-01-14 04:16:10.74	336.12	44.07	-54.7	-67.7	3.8	8.45e-01	0	27	104	0	74	17088
2026-01-14 04:16:11.75	335.62	44.17	-54.7	-67.7	3.8	8.45e-01	0	27	104	0	74	17110
2026-01-14 04:16:12.76	335.11	44.27	-54.7	-67.6	3.8	8.46e-01	0	27	104	0	74	17058
2026-01-14 04:16:13.77	334.60	44.37	-54.7	-67.6	3.8	8.44e-01	0	28	104	0	74	17080
2026-01-14 04:16:14.78	334.09	44.46	-54.6	-67.7	3.8	8.46e-01	0	28	104	0	74	17131
2026-01-14 04:16:15.79	333.58	44.55	-54.6	-67.7	3.8	8.47e-01	0	28	104	0	74	17098
2026-01-14 04:16:16.80	333.06	44.64	-54.6	-67.7	3.8	8.45e-01	0	28	104	0	74	17089
2026-01-14 04:16:17.81	332.54	44.72	-54.7	-67.7	3.8	8.46e-01	0	28	104	0	74	17091
2026-01-14 04:16:18.81	332.02	44.81	-54.7	-67.7	3.8	8.46e-01	0	27	104	0	74	17115
2026-01-14 04:16:19.82	331.49	44.89	-54.6	-67.7	3.8	8.46e-01	0	28	104	0	74	17095
2026-01-14 04:16:20.83	330.97	44.96	-54.7	-67.7	3.8	8.46e-01	0	28	104	0	74	17198
2026-01-14 04:16:21.84	330.43	45.04	-54.7	-67.7	3.8	8.45e-01	0	28	104	0	74	17141
2026-01-14 04:16:22.85	329.90	45.11	-54.7	-67.7	3.8	8.46e-01	0	27	104	0	74	17130
2026-01-14 04:16:23.86	329.36	45.18	-54.7	-67.7	3.8	8.45e-01	0	27	104	0	74	17130
2026-01-14 04:16:24.87	328.83	45.25	-54.7	-67.7	3.8	8.45e-01	0	28	104	0	74	17161
2026-01-14 04:16:25.88	328.28	45.31	-54.7	-67.7	3.8	8.45e-01	0	28	104	0	74	17128
2026-01-14 04:16:26.89	327.74	45.38	-54.7	-67.7	3.8	8.44e-01	0	28	104	0	74	17114
2026-01-14 04:16:27.90	327.20	45.44	-54.7	-67.7	3.8	8.47e-01	0	28	104	0	74	17142
2026-01-14 04:16:28.91	326.65	45.49	-54.7	-67.7	3.8	8.47e-01	0	27	104	0	74	17088
2026-01-14 04:16:29.92	326.10	45.55	-54.7	-67.7	3.8	8.46e-01	0	28	104	0	74	17085
2026-01-14 04:16:30.92	325.56	45.60	-54.7	-67.7	3.8	8.46e-01	0	27	104	0	74	17091
2026-01-14 04:16:31.93	325.00	45.64	-54.7	-67.7	3.8	8.44e-01	0	28	104	0	74	17126
2026-01-14 04:16:32.94	324.45	45.69	-54.7	-67.6	3.8	8.45e-01	0	28	104	0	74	17081
2026-01-14 04:16:33.95	323.89	45.73	-54.7	-67.7	3.8	8.46e-01	0	28	104	0	74	17099
2026-01-14 04:16:34.96	323.34	45.77	-54.7	-67.7	3.8	8.45e-01	0	28	104	0	74	17121
2026-01-14 04:16:35.97	322.78	45.81	-54.7	-67.7	3.8	8.44e-01	0	28	104	0	74	17111
2026-01-14 04:16:36.98	322.22	45.84	-54.7	-67.7	3.8	8.45e-01	0	27	104	0	74	17170
2026-01-14 04:16:37.99	321.66	45.87	-54.7	-67.7	3.8	8.43e-01	0	28	104	0	74	17111
2026-01-14 04:16:39.00	321.09	45.90	-54.6	-67.7	3.8	8.46e-01	0	27	104	0	74	17111
2026-01-14 04:16:40.00	320.54	45.92	-54.6	-67.6	3.8	8.45e-01	0	28	104	0	74	17074
2026-01-14 04:16:41.01	319.97	45.94	-54.6	-67.6	3.8	8.45e-01	0	28	104	0	74	17079
2026-01-14 04:16:42.02	319.41	45.96	-54.7	-67.7	3.8	8.44e-01	0	28	104	0	74	17084
2026-01-14 04:16:43.03	318.84	45.98	-54.7	-67.7	3.8	8.46e-01	0	28	104	0	74	17124
2026-01-14 04:16:44.04	318.28	45.99	-54.7	-67.7	3.8	8.45e-01	0	28	104	0	74	17120
2026-01-14 04:16:45.05	317.71	46.00	-54.7	-67.7	3.8	8.45e-01	0	28	104	0	74	17104
2026-01-14 04:16:46.06	317.15	46.00	-54.7	-67.7	3.8	8.45e-01	0	28	104	0	74	17142
2026-01-14 04:16:47.06	316.59	46.00	-54.7	-67.6	3.8	8.46e-01	0	28	104	0	74	17070
2026-01-14 04:16:48.07	316.02	46.00	-54.7	-67.7	3.8	8.45e-01	0	27	104	0	74	17129
2026-01-14 04:16:49.08	315.45	46.00	-54.7	-67.7	3.8	8.45e-01	0	28	104	0	74	17162
2026-01-14 04:16:50.08	314.89	45.99	-54.6	-67.7	3.8	8.45e-01	0	28	104	0	74	17111
2026-01-14 04:16:51.09	314.33	45.98	-54.6	-67.7	3.8	8.46e-01	0	28	104	0	74	17093
2026-01-14 04:16:52.10	313.76	45.97	-54.7	-67.7	3.8	8.45e-01	0	28	104	0	74	17112
2026-01-14 04:16:53.11	313.20	45.96	-54.7	-67.7	3.8	8.46e-01	0	28	104	0	74	17139
2026-01-14 04:16:54.13	312.63	45.94	-54.7	-67.7	3.8	8.46e-01	0	28	104	0	74	17141
2026-01-14 04:16:55.13	312.07	45.91	-54.7	-67.7	3.8	8.46e-01	0	28	104	0	74	17128
2026-01-14 04:16:56.14	311.50	45.89	-54.7	-67.7	3.8	8.44e-01	0	28	104	0	74	17130
2026-01-14 04:16:57.15	310.94	45.86	-54.7	-67.7	3.8	8.45e-01	0	28	104	0	74	17138
2026-01-14 04:16:58.16	310.38	45.83	-54.7	-67.7	3.8	8.46e-01	0	28	104	0	74	17185
2026-01-14 04:16:59.16	309.83	45.80	-54.7	-67.7	3.8	8.46e-01	0	28	104	0	74	17120
2026-01-14 04:17:00.17	309.27	45.76	-54.6	-67.7	3.8	8.46e-01	0	28	104	0	74	17106
2026-01-14 04:17:01.18	308.71	45.72	-54.7	-67.6	3.8	8.44e-01	0	27	104	0	74	17080
2026-01-14 04:17:02.19	308.16	45.68	-54.7	-67.7	3.8	8.46e-01	0	28	104	0	74	17113
2026-01-14 04:17:03.19	307.61	45.63	-54.7	-67.7	3.8	8.46e-01	0	27	104	0	74	17163
2026-01-14 04:17:04.21	307.05	45.58	-54.7	-67.7	3.8	8.44e-01	0	28	104	0	74	17150
2026-01-14 04:17:05.20	306.51	45.53	-54.7	-67.7	3.8	8.46e-01	0	28	104	0	74	17124
2026-01-14 04:17:06.21	305.96	45.48	-54.7	-67.7	3.8	8.46e-01	0	28	104	0	74	17098
2026-01-14 04:17:07.22	305.42	45.42	-54.7	-67.7	3.8	8.45e-01	0	27	104	0	74	17132
2026-01-14 04:17:08.23	304.87	45.36	-54.6	-67.7	3.8	8.45e-01	0	28	104	0	74	17152
2026-01-14 04:17:09.24	304.33	45.30	-54.6	-67.7	3.8	8.45e-01	0	28	104	0	74	17146
2026-01-14 04:17:10.25	303.79	45.23	-54.7	-67.7	3.8	8.45e-01	0	28	104	0	74	17153
2026-01-14 04:17:11.26	303.25	45.16	-54.7	-67.7	3.8	8.45e-01	0	28	104	0	74	17095
2026-01-14 04:17:12.27	302.71	45.09	-54.7	-67.7	3.8	8.46e-01	0	27	104	0	74	17112
2026-01-14 04:17:13.28	302.18	45.02	-54.6	-67.6	3.8	8.47e-01	0	28	104	0	74	17060
2026-01-14 04:17:14.29	301.65	44.94	-54.7	-67.7	3.8	8.46e-01	0	28	104	0	74	17113
2026-01-14 04:17:15.30	301.12	44.86	-54.7	-67.7	3.8	8.45e-01	0	28	104	0	74	17125
2026-01-14 04:17:16.31	300.59	44.78	-54.7	-67.6	3.8	8.46e-01	0	28	104	0	74	17078
2026-01-14 04:17:17.32	300.07	44.70	-54.6	-67.6	3.8	8.46e-01	0	28	104	0	74	17052
2026-01-14 04:17:18.33	299.55	44.61	-54.7	-67.6	3.8	8.46e-01	0	28	104	0	74	17042
2026-01-14 04:17:19.34	299.03	44.52	-54.7	-67.7	3.8	8.45e-01	0	28	104	0	74	17084
2026-01-14 04:17:20.35	298.52	44.43	-54.7	-67.7	3.8	8.45e-01	0	27	104	0	74	17131
2026-01-14 04:17:21.35	298.01	44.34	-54.7	-67.6	3.8	8.45e-01	0	28	104	0	74	17044
2026-01-14 04:17:22.36	297.51	44.24	-54.7	-67.7	3.8	8.46e-01	0	27	104	0	74	17119
2026-01-14 04:17:23.38	297.00	44.14	-54.7	-67.7	3.8	8.45e-01	0	27	104	0	74	17128
2026-01-14 04:17:24.39	296.49	44.04	-54.7	-67.7	3.8	8.44e-01	0	28	104	0	74	17139
2026-01-14 04:17:25.39	296.00	43.94	-54.7	-67.7	3.8	8.46e-01	0	28	104	0	74	17146
2026-01-14 04:17:26.40	295.50	43.84	-54.7	-67.6	3.8	8.45e-01	0	28	104	0	74	17075
2026-01-14 04:17:27.41	295.01	43.73	-54.7	-67.7	3.8	8.46e-01	0	28	104	0	74	17157
2026-01-14 04:17:28.42	294.52	43.62	-54.7	-67.7	3.8	8.45e-01	0	28	104	0	74	17113
2026-01-14 04:17:29.43	294.04	43.51	-54.7	-67.7	3.8	8.46e-01	0	28	104	0	74	17144
2026-01-14 04:17:30.44	293.55	43.40	-54.7	-67.7	3.8	8.46e-01	0	28	104	0	74	17146
2026-01-14 04:17:31.45	293.08	43.28	-54.7	-67.7	3.8	8.46e-01	0	28	104	0	74	17114
2026-01-14 04:17:32.46	292.60	43.16	-54.7	-67.7	3.8	8.45e-01	0	27	104	0	74	17145
2026-01-14 04:17:33.47	292.13	43.05	-54.7	-67.6	3.8	8.46e-01	0	28	104	0	74	17075
2026-01-14 04:17:34.47	291.66	42.93	-54.7	-67.7	3.8	8.46e-01	0	28	104	0	74	17103
2026-01-14 04:17:35.47	291.20	42.81	-54.7	-67.7	3.8	8.45e-01	0	28	104	0	74	17156
2026-01-14 04:17:36.48	290.74	42.68	-54.7	-67.7	3.8	8.46e-01	0	27	104	0	74	17090
2026-01-14 04:17:37.49	290.28	42.56	-54.7	-67.7	3.8	8.45e-01	0	28	104	0	74	17134
2026-01-14 04:17:38.50	289.83	42.43	-54.7	-67.7	3.8	8.46e-01	0	28	104	0	74	17181
2026-01-14 04:17:39.51	289.38	42.30	-54.7	-67.7	3.8	8.46e-01	0	28	104	0	74	17144
2026-01-14 04:17:40.52	288.93	42.17	-54.7	-67.7	3.8	8.47e-01	0	27	104	0	74	17102
2026-01-14 04:17:41.53	288.49	42.04	-54.6	-67.7	3.8	8.45e-01	0	28	104	0	74	17133
2026-01-14 04:17:42.54	288.05	41.91	-54.7	-67.7	3.8	8.47e-01	0	27	104	0	74	17169
2026-01-14 04:17:43.55	287.61	41.77	-54.7	-67.7	3.8	8.45e-01	0	28	104	0	74	17190
2026-01-14 04:17:44.55	287.18	41.64	-54.7	-67.7	3.8	8.45e-01	0	28	104	0	74	17107
2026-01-14 04:17:45.56	286.76	41.50	-54.6	-67.7	3.8	8.45e-01	0	28	104	0	74	17107
2026-01-14 04:17:46.57	286.33	41.36	-54.7	-67.7	3.8	8.45e-01	0	27	104	0	74	17106
2026-01-14 04:17:47.58	285.91	41.22	-54.7	-67.7	3.8	8.45e-01	0	27	104	0	74	17146
2026-01-14 04:17:48.58	285.50	41.08	-54.7	-67.7	3.8	8.46e-01	0	28	104	0	74	17138
2026-01-14 04:17:49.59	285.08	40.94	-54.7	-67.7	3.8	8.46e-01	0	28	104	0	74	17133
2026-01-14 04:17:50.60	284.67	40.80	-54.7	-67.7	3.8	8.45e-01	0	28	104	0	74	17178
2026-01-14 04:17:51.61	284.26	40.65	-54.7	-67.7	3.8	8.46e-01	0	28	104	0	74	17150
2026-01-14 04:17:52.62	283.86	40.51	-54.7	-67.7	3.8	8.45e-01	0	28	104	0	74	17157
2026-01-14 04:17:53.63	283.46	40.36	-54.7	-67.7	3.8	8.46e-01	0	28	104	0	74	17087
2026-01-14 04:17:54.64	283.06	40.21	-54.7	-67.7	3.8	8.45e-01	0	28	104	0	74	17123
2026-01-14 04:17:55.65	282.67	40.07	-54.6	-67.7	3.8	8.46e-01	0	28	104	0	74	17101
2026-01-14 04:17:56.66	282.28	39.92	-54.7	-67.7	3.8	8.44e-01	0	28	104	0	74	17136
2026-01-14 04:17:57.67	281.90	39.77	-54.7	-67.7	3.8	8.47e-01	0	28	104	0	74	17106
2026-01-14 04:17:58.68	281.52	39.62	-54.7	-67.6	3.8	8.46e-01	0	28	104	0	74	17082
2026-01-14 04:17:59.69	281.14	39.46	-54.6	-67.6	3.8	8.46e-01	0	28	104	0	74	17054
2026-01-14 04:18:00.70	280.76	39.31	-54.7	-67.7	3.8	8.45e-01	0	27	104	0	74	17106
2026-01-14 04:18:01.71	280.39	39.16	-54.7	-67.7	3.8	8.45e-01	0	27	104	0	74	17141
2026-01-14 04:18:02.71	280.03	39.01	-54.7	-67.7	3.8	8.46e-01	0	28	104	0	74	17146
2026-01-14 04:18:03.73	279.66	38.85	-54.6	-67.7	3.8	8.45e-01	0	28	104	0	74	17093
2026-01-14 04:18:04.74	279.30	38.69	-54.6	-67.6	3.8	8.45e-01	0	27	104	0	74	17083
2026-01-14 04:18:05.74	278.95	38.54	-54.7	-67.7	3.8	8.46e-01	0	28	104	0	74	17097
2026-01-14 04:18:06.75	278.59	38.38	-54.7	-67.7	3.8	8.45e-01	0	27	104	0	74	17130
2026-01-14 04:18:07.77	278.24	38.23	-54.7	-67.7	3.8	8.46e-01	0	28	104	0	74	17096
2026-01-14 04:18:08.78	277.89	38.07	-54.7	-67.7	3.8	8.45e-01	0	27	104	0	74	17108
2026-01-14 04:18:09.79	277.55	37.91	-54.7	-67.7	3.8	8.45e-01	0	28	104	0	74	17089
2026-01-14 04:18:10.80	277.21	37.75	-54.7	-67.6	3.8	8.44e-01	0	28	104	0	74	17051
2026-01-14 04:18:11.81	276.87	37.60	-54.7	-67.7	3.8	8.45e-01	0	28	104	0	74	17120
2026-01-14 04:18:12.82	276.54	37.44	-54.7	-67.7	3.8	8.45e-01	0	27	104	0	74	17090
2026-01-14 04:18:13.83	276.21	37.28	-54.7	-67.7	3.8	8.46e-01	0	27	104	0	74	17128
2026-01-14 04:18:14.84	275.88	37.12	-54.7	-67.7	3.8	8.46e-01	0	28	104	0	74	17106
2026-01-14 04:18:15.85	275.56	36.96	-54.7	-67.7	3.8	8.46e-01	0	28	104	0	74	17104
2026-01-14 04:18:16.86	275.24	36.80	-54.7	-67.7	3.8	8.45e-01	0	28	104	0	74	17104
2026-01-14 04:18:17.87	274.92	36.64	-54.7	-67.7	3.8	8.46e-01	0	28	104	0	74	17128
2026-01-14 04:18:18.88	274.60	36.48	-54.7	-67.7	3.8	8.45e-01	0	27	104	0	74	17089
2026-01-14 04:18:19.88	274.29	36.32	-54.7	-67.7	3.8	8.47e-01	0	28	104	0	74	17096
2026-01-14 04:18:20.88	273.99	36.16	-54.7	-67.7	3.8	8.45e-01	0	27	104	0	74	17138
2026-01-14 04:18:21.89	273.68	36.00	-54.7	-67.6	3.8	8.45e-01	0	28	104	0	74	17078
2026-01-14 04:18:22.90	273.38	35.84	-54.7	-67.7	3.8	8.45e-01	0	28	104	0	74	17134
2026-01-14 04:18:23.91	273.08	35.68	-54.7	-67.7	3.8	8.45e-01	0	28	104	0	74	17112
2026-01-14 04:18:24.92	272.79	35.51	-54.7	-67.7	3.8	8.44e-01	0	28	104	0	74	17142
2026-01-14 04:18:25.93	272.49	35.35	-54.7	-67.7	3.8	8.45e-01	0	28	104	0	74	17194
2026-01-14 04:18:26.94	272.20	35.19	-54.7	-67.7	3.8	8.45e-01	0	28	104	0	74	17139
2026-01-14 04:18:27.95	271.91	35.03	-54.7	-67.7	3.8	8.46e-01	0	27	104	0	74	17128
2026-01-14 04:18:28.96	271.63	34.87	-54.7	-67.7	3.8	8.46e-01	0	28	104	0	74	17164
2026-01-14 04:18:29.97	271.35	34.71	-54.7	-67.7	3.8	8.45e-01	0	28	104	0	74	17201
2026-01-14 04:18:30.97	271.07	34.55	-54.7	-67.7	3.8	8.45e-01	0	27	104	0	74	17088
2026-01-14 04:18:31.98	270.80	34.39	-54.7	-67.7	3.8	8.45e-01	0	28	104	0	74	17102
2026-01-14 04:18:32.99	270.52	34.23	-54.7	-67.7	3.8	8.45e-01	0	28	104	0	74	17129
2026-01-14 04:18:34.00	270.25	34.06	-54.6	-67.6	3.8	8.46e-01	0	28	104	0	74	17079
2026-01-14 04:18:35.01	269.98	33.90	-54.7	-67.7	3.8	8.45e-01	0	28	104	0	74	17086
2026-01-14 04:18:36.01	269.72	33.74	-54.7	-67.7	3.8	8.45e-01	0	28	104	0	74	17098
2026-01-14 04:18:37.03	269.45	33.58	-54.7	-67.7	3.8	8.46e-01	0	28	104	0	74	17147
2026-01-14 04:18:38.03	269.20	33.42	-54.7	-67.7	3.8	8.45e-01	0	28	104	0	74	17152
2026-01-14 04:18:39.04	268.94	33.26	-54.7	-67.7	3.8	8.44e-01	0	27	104	0	74	17175
2026-01-14 04:18:40.05	268.68	33.10	-54.7	-67.7	3.8	8.46e-01	0	28	104	0	74	17095
2026-01-14 04:18:41.06	268.43	32.94	-54.7	-67.7	3.8	8.46e-01	0	28	104	0	74	17107
2026-01-14 04:18:42.06	268.18	32.78	-54.7	-67.7	3.8	8.45e-01	0	28	104	0	74	17177
2026-01-14 04:18:43.08	267.93	32.62	-54.7	-67.7	3.8	8.47e-01	0	27	104	0	74	17122
2026-01-14 04:18:44.09	267.69	32.46	-54.7	-67.7	3.8	8.46e-01	0	28	104	0	74	17150
2026-01-14 04:18:45.10	267.44	32.31	-54.7	-67.7	3.8	8.45e-01	0	28	104	0	74	17100
2026-01-14 04:18:46.10	267.21	32.15	-54.7	-67.7	3.8	8.45e-01	0	28	104	0	74	17131
2026-01-14 04:18:47.11	266.97	31.99	-54.7	-67.7	3.8	8.45e-01	0	28	104	0	74	17116
2026-01-14 04:18:48.12	266.73	31.83	-54.7	-67.7	3.8	8.45e-01	0	27	104	0	74	17098
2026-01-14 04:18:49.13	266.50	31.67	-54.7	-67.7	3.8	8.44e-01	0	28	104	0	74	17127
2026-01-14 04:18:50.14	266.27	31.52	-54.7	-67.7	3.8	8.47e-01	0	28	104	0	74	17135
2026-01-14 04:18:51.14	266.04	31.36	-54.7	-67.6	3.8	8.45e-01	0	28	104	0	74	17043
2026-01-14 04:18:52.16	265.81	31.20	-54.7	-67.7	3.8	8.45e-01	0	28	104	0	74	17106
2026-01-14 04:18:53.16	265.59	31.05	-54.7	-67.7	3.8	8.45e-01	0	28	104	0	74	17140
2026-01-14 04:18:54.17	265.37	30.89	-54.6	-67.7	3.8	8.45e-01	0	28	104	0	74	17117
2026-01-14 04:18:55.18	265.15	30.73	-54.7	-67.7	3.8	8.45e-01	0	27	104	0	74	17100
2026-01-14 04:18:56.19	264.93	30.58	-54.7	-67.6	3.8	8.46e-01	0	28	104	0	74	17078
2026-01-14 04:18:57.20	264.71	30.42	-54.7	-67.6	3.8	8.45e-01	0	28	104	0	74	17072
2026-01-14 04:18:58.21	264.50	30.27	-54.7	-67.7	3.8	8.46e-01	0	28	104	0	74	17108
2026-01-14 04:18:59.22	264.29	30.11	-54.7	-67.7	3.8	8.46e-01	0	28	104	0	74	17143
2026-01-14 04:19:00.23	264.08	29.96	-54.7	-67.7	3.8	8.46e-01	0	28	104	0	74	17159
2026-01-14 04:19:01.24	263.87	29.81	-54.7	-67.7	3.8	8.46e-01	0	28	104	0	74	17099
2026-01-14 04:19:02.24	263.67	29.65	-54.7	-67.7	3.8	8.45e-01	0	28	104	0	74	17118
2026-01-14 04:19:03.26	263.46	29.50	-54.7	-67.7	3.8	8.48e-01	0	28	104	0	74	17141
2026-01-14 04:19:04.27	263.26	29.35	-54.7	-67.6	3.8	8.44e-01	0	28	104	0	74	17057
2026-01-14 04:19:05.27	263.06	29.20	-54.7	-67.7	3.8	8.47e-01	0	28	104	0	74	17134
2026-01-14 04:19:06.28	262.86	29.05	-54.7	-67.6	3.8	8.45e-01	0	27	104	0	74	17082
2026-01-14 04:19:07.29	262.67	28.89	-54.7	-67.6	3.8	8.47e-01	0	27	104	0	74	17060
2026-01-14 04:19:08.30	262.47	28.74	-54.7	-67.7	3.8	8.45e-01	0	28	104	0	74	17117
2026-01-14 04:19:09.31	262.28	28.59	-54.7	-67.7	3.8	8.45e-01	0	28	104	0	74	17094
2026-01-14 04:19:10.32	262.09	28.44	-54.7	-67.7	3.8	8.44e-01	0	28	104	0	74	17123
2026-01-14 04:19:11.33	261.90	28.29	-54.7	-67.7	3.8	8.45e-01	0	27	104	0	74	17130
2026-01-14 04:19:12.34	261.71	28.14	-54.7	-67.7	3.8	8.45e-01	0	28	104	0	74	17133
2026-01-14 04:19:13.35	261.53	28.00	-54.7	-67.7	3.8	8.45e-01	0	28	104	0	74	17131
2026-01-14 04:19:14.36	261.34	27.85	-54.7	-67.7	3.8	8.45e-01	0	28	104	0	74	17099
2026-01-14 04:19:15.37	261.16	27.70	-54.7	-67.7	3.8	8.45e-01	0	28	104	0	74	17085
2026-01-14 04:19:16.37	260.98	27.55	-54.7	-67.7	3.8	8.45e-01	0	28	104	0	74	17102
2026-01-14 04:19:17.38	260.80	27.41	-54.7	-67.7	3.8	8.45e-01	0	28	104	0	74	17113
2026-01-14 04:19:18.39	260.63	27.26	-54.7	-67.7	3.8	8.46e-01	0	28	104	0	74	17135
2026-01-14 04:19:19.40	260.45	27.12	-54.7	-67.7	3.8	8.45e-01	0	28	104	0	74	17115
2026-01-14 04:19:20.41	260.28	26.97	-54.7	-67.7	3.8	8.44e-01	0	28	104	0	74	17128
2026-01-14 04:19:21.41	260.11	26.83	-54.7	-67.7	3.8	8.45e-01	0	27	104	0	74	17118
2026-01-14 04:19:22.42	259.94	26.68	-54.7	-67.7	3.8	8.46e-01	0	28	104	0	74	17139
2026-01-14 04:19:23.44	259.77	26.54	-54.7	-67.6	3.8	8.45e-01	0	28	104	0	74	17079
2026-01-14 04:19:24.45	259.60	26.39	-54.7	-67.7	3.8	8.45e-01	0	28	104	0	74	17126
2026-01-14 04:19:25.46	259.43	26.25	-54.7	-67.7	3.8	8.45e-01	0	28	104	0	74	17106
2026-01-14 04:19:26.46	259.27	26.11	-54.7	-67.7	3.8	8.45e-01	0	28	104	0	74	17105
2026-01-14 04:19:27.48	259.11	25.97	-54.7	-67.7	3.8	8.45e-01	0	28	104	0	74	17100
2026-01-14 04:19:28.48	258.95	25.83	-54.7	-67.7	3.8	8.46e-01	0	28	104	0	74	17116
2026-01-14 04:19:29.49	258.79	25.69	-54.7	-67.7	3.8	8.45e-01	0	28	104	0	74	17167
2026-01-14 04:19:30.49	258.63	25.55	-54.7	-67.7	3.8	8.45e-01	0	28	104	0	74	17122
2026-01-14 04:19:31.50	258.47	25.41	-54.7	-67.7	3.8	8.46e-01	0	28	104	0	74	17100
2026-01-14 04:19:32.51	258.32	25.27	-54.7	-67.7	3.8	8.45e-01	0	27	104	0	74	17114
2026-01-14 04:19:33.52	258.16	25.13	-54.7	-67.7	3.8	8.44e-01	0	27	104	0	74	17114
2026-01-14 04:19:34.53	258.01	24.99	-54.7	-67.7	3.8	8.44e-01	0	27	104	0	74	17105
2026-01-14 04:19:35.53	257.86	24.85	-54.7	-67.7	3.8	8.47e-01	0	28	104	0	74	17154
2026-01-14 04:19:36.54	257.71	24.72	-54.7	-67.7	3.8	8.44e-01	0	28	104	0	74	17093
2026-01-14 04:19:37.55	257.56	24.58	-54.7	-67.7	3.8	8.45e-01	0	27	104	0	74	17126
2026-01-14 04:19:38.56	257.41	24.44	-54.7	-67.7	3.8	8.46e-01	0	28	104	0	74	17130
2026-01-14 04:19:39.57	257.27	24.31	-54.7	-67.7	3.8	8.46e-01	0	28	104	0	74	17128
2026-01-14 04:19:40.57	257.12	24.17	-54.7	-67.7	3.8	8.45e-01	0	28	104	0	74	17153
2026-01-14 04:19:41.58	256.98	24.04	-54.7	-67.7	3.8	8.45e-01	0	28	104	0	74	17144
2026-01-14 04:19:42.59	256.84	23.90	-54.7	-67.7	3.8	8.45e-01	0	28	104	0	74	17158
2026-01-14 04:19:43.60	256.70	23.77	-54.7	-67.7	3.8	8.46e-01	0	28	104	0	74	17123
2026-01-14 04:19:44.61	256.56	23.64	-54.7	-67.7	3.8	8.46e-01	0	28	104	0	74	17134
2026-01-14 04:19:45.62	256.42	23.50	-54.7	-67.6	3.8	8.46e-01	0	27	104	0	74	17079
2026-01-14 04:19:46.63	256.28	23.37	-54.7	-67.7	3.8	8.45e-01	0	28	104	0	74	17095
2026-01-14 04:19:47.64	256.14	23.24	-54.7	-67.6	3.8	8.46e-01	0	28	104	0	74	17078
2026-01-14 04:19:48.65	256.01	23.11	-54.7	-67.7	3.8	8.45e-01	0	28	104	0	74	17197
2026-01-14 04:19:49.66	255.87	22.98	-54.7	-67.7	3.8	8.46e-01	0	28	104	0	74	17095
2026-01-14 04:19:50.67	255.74	22.85	-54.7	-67.7	3.8	8.46e-01	0	28	104	0	74	17164
2026-01-14 04:19:51.67	255.61	22.72	-54.7	-67.7	3.8	8.45e-01	0	28	104	0	74	17132
2026-01-14 04:19:52.67	255.48	22.59	-54.7	-67.7	3.8	8.46e-01	0	28	104	0	74	17097
2026-01-14 04:19:53.68	255.35	22.46	-54.7	-67.7	3.8	8.45e-01	0	28	104	0	74	17137
2026-01-14 04:19:54.69	255.22	22.33	-54.7	-67.7	3.8	8.45e-01	0	27	104	0	74	17171
2026-01-14 04:19:55.70	255.09	22.20	-54.7	-67.7	3.8	8.44e-01	0	28	104	0	74	17161
2026-01-14 04:19:56.71	254.97	22.08	-54.7	-67.7	3.8	8.45e-01	0	27	104	0	74	17096
2026-01-14 04:19:57.72	254.84	21.95	-54.7	-67.7	3.8	8.47e-01	0	28	104	0	74	17107
2026-01-14 04:19:58.72	254.72	21.82	-54.7	-67.7	3.8	8.45e-01	0	28	104	0	74	17085
2026-01-14 04:19:59.73	254.60	21.70	-54.7	-67.7	3.8	8.46e-01	0	28	104	0	74	17143
2026-01-14 04:20:00.74	254.47	21.57	-54.7	-67.7	3.8	8.45e-01	0	28	104	0	74	17091
2026-01-14 04:20:01.75	254.35	21.45	-54.6	-67.6	3.8	8.45e-01	0	27	104	0	74	17057
2026-01-14 04:20:02.76	254.23	21.32	-54.7	-67.7	3.8	8.46e-01	0	28	104	0	74	17095
2026-01-14 04:20:03.77	254.11	21.20	-54.7	-67.6	3.8	8.45e-01	0	27	104	0	74	17053
2026-01-14 04:20:04.78	253.99	21.07	-54.7	-67.6	3.8	8.45e-01	0	28	104	0	74	17050
2026-01-14 04:20:05.79	253.88	20.95	-54.7	-67.6	3.8	8.45e-01	0	28	104	0	74	17075
2026-01-14 04:20:06.79	253.76	20.83	-54.7	-67.7	3.8	8.45e-01	0	27	104	0	74	17148
2026-01-14 04:20:07.80	253.65	20.71	-54.7	-67.7	3.8	8.44e-01	0	28	104	0	74	17180
2026-01-14 04:20:08.81	253.53	20.59	-54.7	-67.7	3.8	8.46e-01	0	28	104	0	74	17140
2026-01-14 04:20:09.82	253.42	20.46	-54.7	-67.7	3.8	8.46e-01	0	28	104	0	74	17102
2026-01-14 04:20:10.83	253.31	20.34	-54.7	-67.7	3.8	8.45e-01	0	28	104	0	74	17127
2026-01-14 04:20:11.84	253.19	20.22	-54.7	-67.7	3.8	8.46e-01	0	28	104	0	74	17124
2026-01-14 04:20:12.84	253.08	20.10	-54.7	-67.7	3.8	8.47e-01	0	28	104	0	74	17104
2026-01-14 04:20:13.85	252.97	19.98	-54.7	-67.7	3.8	8.46e-01	0	28	104	0	74	17097
2026-01-14 04:20:14.87	252.86	19.86	-54.7	-67.7	3.8	8.45e-01	0	28	104	0	74	17119
2026-01-14 04:20:15.87	252.76	19.75	-54.7	-67.7	3.8	8.46e-01	0	27	104	0	74	17134
2026-01-14 04:20:16.87	252.65	19.63	-54.7	-67.7	3.8	8.44e-01	0	28	104	0	74	17121
2026-01-14 04:20:17.88	252.54	19.51	-54.7	-67.6	3.9	8.44e-01	0	28	104	0	74	17079
2026-01-14 04:20:18.89	252.44	19.40	-54.7	-67.7	3.8	8.46e-01	0	28	104	0	74	17119
2026-01-14 04:20:19.90	252.33	19.28	-54.7	-67.6	3.8	8.46e-01	0	28	104	0	74	17079
2026-01-14 04:20:20.91	252.23	19.16	-54.7	-67.7	3.8	8.44e-01	0	28	104	0	74	17104
2026-01-14 04:20:21.92	252.13	19.05	-54.7	-67.7	3.8	8.46e-01	0	28	104	0	74	17168
2026-01-14 04:20:22.93	252.02	18.93	-54.7	-67.7	3.8	8.47e-01	0	28	104	0	74	17156
2026-01-14 04:20:23.94	251.92	18.82	-54.7	-67.7	3.8	8.46e-01	0	28	104	0	74	17131
2026-01-14 04:20:24.95	251.82	18.70	-54.7	-67.7	3.8	8.45e-01	0	28	104	0	74	17166
2026-01-14 04:20:25.95	251.72	18.59	-54.7	-67.6	3.8	8.45e-01	0	28	104	0	74	17044
2026-01-14 04:20:26.96	251.62	18.47	-54.7	-67.6	3.8	8.46e-01	0	28	104	0	74	17080
2026-01-14 04:20:27.97	251.52	18.36	-54.7	-67.6	3.8	8.46e-01	0	28	104	0	74	17078
2026-01-14 04:20:28.98	251.43	18.25	-54.7	-67.7	3.8	8.46e-01	0	28	104	0	74	17092
2026-01-14 04:20:29.99	251.33	18.14	-54.7	-67.7	3.8	8.45e-01	0	28	104	0	74	17087
2026-01-14 04:20:31.00	251.23	18.02	-54.7	-67.7	3.8	8.46e-01	0	28	104	0	74	17181
2026-01-14 04:20:32.01	251.14	17.91	-54.7	-67.7	3.8	8.45e-01	0	28	104	0	74	17144
2026-01-14 04:20:33.02	251.04	17.80	-54.7	-67.7	3.8	8.44e-01	0	28	104	0	74	17118
2026-01-14 04:20:34.03	250.95	17.69	-54.7	-67.7	3.8	8.46e-01	0	28	104	0	74	17140
2026-01-14 04:20:35.03	250.86	17.58	-54.7	-67.7	3.8	8.46e-01	0	28	104	0	74	17130
2026-01-14 04:20:36.03	250.76	17.47	-54.7	-67.7	3.8	8.45e-01	0	28	104	0	74	17111
2026-01-14 04:20:37.03	250.67	17.36	-54.7	-67.7	3.8	8.45e-01	0	28	104	0	74	17129
2026-01-14 04:20:38.05	250.58	17.25	-54.7	-67.7	3.8	8.46e-01	0	27	104	0	74	17097
2026-01-14 04:20:39.06	250.49	17.14	-54.6	-67.7	3.8	8.46e-01	0	28	104	0	74	17148
2026-01-14 04:20:40.06	250.40	17.04	-54.7	-67.7	3.8	8.47e-01	0	28	104	0	74	17106
2026-01-14 04:20:41.04	250.31	16.93	-54.7	-67.7	3.8	8.45e-01	0	28	104	0	74	17185
2026-01-14 04:20:42.04	250.23	16.83	-54.7	-67.7	3.8	8.45e-01	0	28	104	0	74	17132
2026-01-14 04:20:43.05	250.14	16.72	-54.6	-67.7	3.8	8.46e-01	0	28	104	0	74	17154
2026-01-14 04:20:44.06	250.05	16.61	-54.7	-67.7	3.8	8.45e-01	0	27	104	0	74	17122
2026-01-14 04:20:45.07	249.96	16.51	-54.7	-67.7	3.8	8.45e-01	0	27	104	0	74	17136
2026-01-14 04:20:46.08	249.88	16.40	-54.7	-67.7	3.8	8.46e-01	0	28	104	0	74	17129
2026-01-14 04:20:47.09	249.79	16.29	-54.7	-67.7	3.8	8.47e-01	0	28	104	0	74	17158
2026-01-14 04:20:48.09	249.71	16.19	-54.7	-67.7	3.8	8.45e-01	0	27	104	0	74	17103
2026-01-14 04:20:49.10	249.62	16.09	-54.7	-67.6	3.8	8.47e-01	0	28	104	0	74	17074
2026-01-14 04:20:50.11	249.54	15.98	-54.7	-67.7	3.8	8.47e-01	0	28	104	0	74	17127
2026-01-14 04:20:51.12	249.46	15.88	-54.7	-67.7	3.8	8.46e-01	0	27	104	0	74	17144
2026-01-14 04:20:52.12	249.37	15.77	-54.7	-67.7	3.8	8.45e-01	0	27	104	0	74	17152
2026-01-14 04:20:53.13	249.29	15.67	-54.7	-67.7	3.8	8.46e-01	0	28	104	0	74	17097
2026-01-14 04:20:54.15	249.21	15.57	-54.7	-67.7	3.8	8.45e-01	0	28	104	0	74	17087
2026-01-14 04:20:55.16	249.13	15.46	-54.7	-67.7	3.8	8.44e-01	0	28	104	0	74	17135
2026-01-14 04:20:56.16	249.05	15.36	-54.7	-67.7	3.8	8.45e-01	0	28	104	0	74	17118
2026-01-14 04:20:57.17	248.97	15.26	-54.7	-67.7	3.8	8.45e-01	0	28	104	0	74	17127
2026-01-14 04:20:58.18	248.89	15.16	-54.7	-67.7	3.8	8.46e-01	0	27	104	0	74	17179
2026-01-14 04:20:59.19	248.81	15.06	-54.7	-67.7	3.8	8.46e-01	0	28	104	0	74	17152
2026-01-14 04:21:00.20	248.73	14.96	-54.7	-67.7	3.8	8.46e-01	0	28	104	0	74	17149
2026-01-14 04:21:01.21	248.66	14.86	-54.7	-67.7	3.8	8.46e-01	0	28	104	0	74	17109
2026-01-14 04:21:02.22	248.58	14.76	-54.7	-67.7	3.8	8.46e-01	0	27	104	0	74	17175
2026-01-14 04:21:03.22	248.50	14.66	-54.7	-67.7	3.8	8.45e-01	0	28	104	0	74	17102
2026-01-14 04:21:04.24	248.43	14.56	-54.7	-67.7	3.8	8.46e-01	0	28	104	0	74	17126
2026-01-14 04:21:05.25	248.35	14.46	-54.7	-67.7	3.8	8.46e-01	0	28	104	0	74	17089
2026-01-14 04:21:06.25	248.28	14.36	-54.7	-67.7	3.8	8.45e-01	0	27	104	0	74	17095
2026-01-14 04:21:07.26	248.20	14.26	-54.7	-67.7	3.8	8.46e-01	0	28	104	0	74	17112
2026-01-14 04:21:08.27	248.13	14.17	-54.7	-67.7	3.8	8.45e-01	0	28	104	0	74	17098
2026-01-14 04:21:09.28	248.06	14.07	-54.7	-67.7	3.8	8.45e-01	0	28	104	0	74	17104
2026-01-14 04:21:10.29	247.98	13.97	-54.7	-67.7	3.8	8.45e-01	0	28	104	0	74	17092
2026-01-14 04:21:11.30	247.91	13.87	-54.7	-67.7	3.8	8.47e-01	0	28	104	0	74	17098
2026-01-14 04:21:12.31	247.84	13.78	-54.7	-67.7	3.8	8.46e-01	0	28	104	0	74	17128
2026-01-14 04:21:13.32	247.77	13.68	-54.7	-67.7	3.8	8.45e-01	0	28	104	0	74	17173
2026-01-14 04:21:14.33	247.70	13.59	-54.7	-67.7	3.8	8.44e-01	0	28	104	0	74	17122
2026-01-14 04:21:15.34	247.63	13.49	-54.7	-67.7	3.8	8.45e-01	0	28	104	0	74	17171
2026-01-14 04:21:16.35	247.56	13.40	-54.7	-67.7	3.8	8.45e-01	0	28	104	0	74	17180
2026-01-14 04:21:17.36	247.49	13.30	-54.7	-67.7	3.8	8.46e-01	0	28	104	0	74	17125
2026-01-14 04:21:18.37	247.42	13.21	-54.7	-67.7	3.8	8.45e-01	0	28	104	0	74	17121
2026-01-14 04:21:19.38	247.35	13.11	-54.7	-67.7	3.8	8.46e-01	0	28	104	0	74	17102
2026-01-14 04:21:20.39	247.28	13.02	-54.7	-67.7	3.8	8.46e-01	0	28	104	0	74	17156
2026-01-14 04:21:21.40	247.21	12.92	-54.7	-67.7	3.8	8.46e-01	0	28	104	0	74	17191
2026-01-14 04:21:22.40	247.15	12.83	-54.7	-67.7	3.8	8.45e-01	0	28	104	0	74	17149
2026-01-14 04:21:23.41	247.08	12.74	-54.7	-67.6	3.8	8.45e-01	0	28	104	0	74	17066
2026-01-14 04:21:24.42	247.02	12.65	-54.7	-67.7	3.8	8.45e-01	0	28	104	0	74	17151
2026-01-14 04:21:25.43	246.95	12.55	-54.6	-67.7	3.8	8.46e-01	0	28	104	0	74	17135
2026-01-14 04:21:26.44	246.88	12.46	-54.6	-67.7	3.8	8.46e-01	0	28	104	0	74	17126
2026-01-14 04:21:27.45	246.82	12.37	-54.6	-67.7	3.8	8.45e-01	0	28	104	0	74	17113
2026-01-14 04:21:28.46	246.75	12.28	-54.7	-67.6	3.8	8.45e-01	0	28	104	0	74	17065
2026-01-14 04:21:29.47	246.69	12.19	-54.7	-67.7	3.8	8.46e-01	0	28	104	0	74	17105
2026-01-14 04:21:30.48	246.63	12.10	-54.7	-67.7	3.8	8.45e-01	0	28	104	0	74	17112
2026-01-14 04:21:31.49	246.56	12.01	-54.7	-67.7	3.8	8.46e-01	0	28	104	0	74	17137
2026-01-14 04:21:32.50	246.50	11.92	-54.7	-67.7	3.8	8.46e-01	0	28	104	0	74	17135
2026-01-14 04:21:33.51	246.44	11.83	-54.7	-67.7	3.8	8.46e-01	0	28	104	0	74	17144
2026-01-14 04:21:34.52	246.38	11.74	-54.7	-67.7	3.8	8.46e-01	0	28	104	0	74	17165
2026-01-14 04:21:35.52	246.31	11.65	-54.7	-67.7	3.8	8.45e-01	0	28	104	0	74	17129
2026-01-14 04:21:36.53	246.25	11.56	-54.7	-67.7	3.8	8.47e-01	0	28	104	0	74	17135
2026-01-14 04:21:37.54	246.19	11.47	-54.7	-67.7	3.8	8.46e-01	0	28	104	0	74	17184
2026-01-14 04:21:38.55	246.13	11.38	-54.7	-67.7	3.8	8.46e-01	0	28	104	0	74	17128
2026-01-14 04:21:39.56	246.07	11.29	-54.7	-67.7	3.8	8.46e-01	0	28	104	0	74	17122
2026-01-14 04:21:40.57	246.01	11.21	-54.7	-67.7	3.8	8.46e-01	0	28	104	0	74	17159
2026-01-14 04:21:41.57	245.95	11.12	-54.7	-67.7	3.8	8.46e-01	0	28	104	0	74	17116
2026-01-14 04:21:42.58	245.89	11.03	-54.7	-67.7	3.8	8.46e-01	0	28	104	0	74	17116
2026-01-14 04:21:43.59	245.84	10.95	-54.6	-67.7	3.8	8.45e-01	0	28	104	0	74	17170
2026-01-14 04:21:44.59	245.78	10.86	-54.7	-67.7	3.8	8.44e-01	0	28	104	0	74	17112
2026-01-14 04:21:45.60	245.72	10.77	-54.7	-67.6	3.8	8.45e-01	0	27	104	0	74	17048
2026-01-14 04:21:46.60	245.66	10.69	-54.6	-67.7	3.8	8.45e-01	0	28	104	0	74	17096
2026-01-14 04:21:47.61	245.61	10.60	-54.7	-67.7	3.8	8.46e-01	0	28	104	0	74	17170
2026-01-14 04:21:48.61	245.55	10.52	-54.7	-67.7	3.8	8.46e-01	0	28	104	0	74	17095
2026-01-14 04:21:49.62	245.49	10.43	-54.7	-67.7	3.8	8.46e-01	0	28	104	0	74	17162
2026-01-14 04:21:50.63	245.44	10.35	-54.6	-67.6	3.8	8.45e-01	0	27	104	0	74	17071
2026-01-14 04:21:51.64	245.38	10.26	-54.7	-67.7	3.8	8.45e-01	0	28	104	0	74	17149
2026-01-14 04:21:52.65	245.33	10.18	-54.7	-67.6	3.8	8.45e-01	0	28	104	0	74	17082
2026-01-14 04:21:53.66	245.27	10.09	-54.7	-67.6	3.8	8.46e-01	0	28	104	0	74	17064
2026-01-14 04:21:54.66	245.22	10.01	-54.7	-67.7	3.8	8.45e-01	0	27	104	0	74	17103
2026-01-14 04:21:55.68	245.16	9.92	-54.6	-67.7	3.8	8.47e-01	0	28	104	0	74	17098
2026-01-14 04:21:56.68	245.11	9.84	-54.7	-67.7	3.8	8.45e-01	0	27	104	0	74	17095
2026-01-14 04:21:57.69	245.05	9.76	-54.7	-67.7	3.8	8.46e-01	0	28	104	0	74	17109
2026-01-14 04:21:58.70	245.00	9.68	-54.7	-67.7	3.8	8.45e-01	0	28	104	0	74	17168
2026-01-14 04:21:59.71	244.95	9.59	-54.7	-67.7	3.8	8.46e-01	0	28	104	0	74	17102
2026-01-14 04:22:00.72	244.89	9.51	-54.6	-67.7	3.8	8.46e-01	0	28	104	0	74	17103
2026-01-14 04:22:01.73	244.84	9.43	-54.7	-67.7	3.8	8.45e-01	0	28	104	0	74	17101
2026-01-14 04:22:02.74	244.79	9.35	-54.7	-67.7	3.8	8.45e-01	0	27	104	0	74	17111
2026-01-14 04:22:03.75	244.74	9.26	-54.7	-67.7	3.8	8.46e-01	0	28	104	0	74	17124
2026-01-14 04:22:04.76	244.69	9.18	-54.7	-67.7	3.8	8.46e-01	0	28	104	0	74	17161
2026-01-14 04:22:05.77	244.63	9.10	-54.7	-67.7	3.8	8.45e-01	0	27	104	0	74	17147
2026-01-14 04:22:06.78	244.58	9.02	-54.7	-67.7	3.8	8.45e-01	0	28	104	0	74	17106
2026-01-14 04:22:07.78	244.53	8.94	-54.7	-67.7	3.9	8.46e-01	0	28	104	0	74	17124
2026-01-14 04:22:08.79	244.48	8.86	-54.7	-67.7	3.8	8.46e-01	0	28	104	0	74	17139
2026-01-14 04:22:09.80	244.43	8.78	-54.7	-67.7	3.8	8.45e-01	0	28	104	0	74	17160
2026-01-14 04:22:10.82	244.38	8.70	-54.7	-67.7	3.8	8.45e-01	0	28	104	0	74	17088
2026-01-14 04:22:11.83	244.33	8.62	-54.7	-67.7	3.8	8.47e-01	0	28	104	0	74	17155
2026-01-14 04:22:12.84	244.28	8.54	-54.7	-67.7	3.8	8.46e-01	0	28	104	0	74	17147
2026-01-14 04:22:13.85	244.23	8.46	-54.7	-67.7	3.8	8.45e-01	0	28	104	0	74	17131
