passes_logs/2026/01/14/R3.2S_Murmansk/R3.2S_Murmansk__20260114_221059_KANOPUS-V_5_rec.log

#Pass ID: 20260114_221059_KANOPUS-V 5
#Satellite: KANOPUS-V 5
#Configuration: KANOPUS-V_8320
#almurnet v.1.7.20251203
#Start time: 2026-01-14 22:10:59

#Version: 2.2.20231116
#Station: R3.2S_Murmansk
#Location: 33.079688 lon 68.888172 lat
#TLE: 1 43876U 18111A   26014.64517351  .00002226  00000+0  96418-4 0  9998
#TLE: 2 43876  97.3685 283.1659 0001742  85.8061 274.3376 15.23434183391418

#Time	Az	El	Level	Level2	SNR	BER	BlckErr	Temp	State	Recorded	gain1	gain2
2026-01-14 22:10:59.01	20.72	1.96	-59.4	-69.1	3.8	7.46e-01	0	27	0	0	83	10741
2026-01-14 22:11:00.01	20.73	2.03	-59.4	-69.1	3.8	7.47e-01	0	27	104	0	83	10743
2026-01-14 22:11:01.00	20.74	2.10	-59.4	-69.1	3.8	7.44e-01	0	27	104	0	83	10753
2026-01-14 22:11:02.00	20.75	2.17	-59.4	-69.1	3.8	7.46e-01	0	27	104	0	83	10745
2026-01-14 22:11:03.00	20.75	2.24	-59.4	-69.2	3.8	7.44e-01	0	27	104	0	83	10795
2026-01-14 22:11:04.01	20.76	2.31	-59.4	-69.1	3.8	7.45e-01	0	27	104	0	83	10767
2026-01-14 22:11:05.01	20.77	2.38	-59.4	-69.2	3.8	7.44e-01	0	27	104	0	83	10788
2026-01-14 22:11:06.01	20.78	2.45	-59.4	-69.1	3.8	7.44e-01	0	27	104	0	83	10732
2026-01-14 22:11:07.00	20.79	2.52	-59.4	-69.1	3.8	7.46e-01	0	27	104	0	83	10761
2026-01-14 22:11:08.01	20.80	2.59	-59.4	-69.1	3.8	7.47e-01	0	27	104	0	83	10748
2026-01-14 22:11:09.00	20.81	2.67	-59.4	-69.1	3.8	7.45e-01	0	27	104	0	83	10762
2026-01-14 22:11:10.00	20.82	2.74	-59.4	-69.1	3.8	7.46e-01	0	27	104	0	83	10777
2026-01-14 22:11:11.01	20.82	2.81	-59.4	-69.1	3.8	7.46e-01	0	27	104	0	83	10755
2026-01-14 22:11:12.01	20.83	2.88	-59.4	-69.1	3.8	7.45e-01	0	27	104	0	83	10762
2026-01-14 22:11:13.01	20.84	2.96	-59.4	-69.1	3.8	7.47e-01	0	27	104	0	83	10718
2026-01-14 22:11:14.02	20.85	3.03	-59.4	-69.2	3.8	7.46e-01	0	27	104	0	83	10813
2026-01-14 22:11:15.01	20.86	3.10	-59.4	-69.2	3.8	7.45e-01	0	28	104	0	83	10814
2026-01-14 22:11:16.02	20.87	3.18	-59.4	-69.2	3.8	7.46e-01	0	27	104	0	83	10780
2026-01-14 22:11:17.02	20.88	3.25	-59.4	-69.1	3.8	7.46e-01	0	28	104	0	83	10763
2026-01-14 22:11:18.02	20.89	3.32	-59.4	-69.2	3.8	7.46e-01	0	28	104	0	83	10822
2026-01-14 22:11:19.02	20.90	3.40	-59.4	-69.2	3.8	7.45e-01	0	27	104	0	83	10784
2026-01-14 22:11:20.02	20.90	3.47	-59.4	-69.2	3.8	7.44e-01	0	27	104	0	83	10809
2026-01-14 22:11:21.02	20.91	3.55	-59.4	-69.1	3.8	7.45e-01	0	28	104	0	83	10777
2026-01-14 22:11:22.01	20.92	3.62	-59.4	-69.2	3.8	7.46e-01	0	28	104	0	83	10824
2026-01-14 22:11:23.01	20.93	3.70	-59.4	-69.1	3.8	7.46e-01	0	28	104	0	83	10772
2026-01-14 22:11:24.01	20.94	3.77	-59.4	-69.2	3.8	7.47e-01	0	28	104	0	83	10817
2026-01-14 22:11:25.01	20.95	3.85	-59.4	-69.2	3.8	7.46e-01	0	28	104	0	83	10813
2026-01-14 22:11:26.02	20.96	3.93	-59.4	-69.2	3.8	7.45e-01	0	28	104	0	83	10831
2026-01-14 22:11:27.02	20.97	4.00	-59.4	-69.2	3.8	7.45e-01	0	28	104	0	83	10806
2026-01-14 22:11:28.01	20.98	4.08	-59.4	-69.2	3.8	7.47e-01	0	28	104	0	83	10795
2026-01-14 22:11:29.02	20.99	4.16	-59.4	-69.1	3.8	7.44e-01	0	28	104	0	83	10763
2026-01-14 22:11:30.02	21.00	4.23	-59.4	-69.1	3.8	7.45e-01	0	28	104	0	83	10778
2026-01-14 22:11:31.01	21.01	4.31	-59.4	-69.1	3.8	7.45e-01	0	28	104	0	83	10760
2026-01-14 22:11:32.01	21.02	4.39	-59.4	-69.2	3.8	7.45e-01	0	28	104	0	83	10814
2026-01-14 22:11:33.02	21.03	4.47	-59.4	-69.2	3.8	7.48e-01	0	28	104	0	83	10811
2026-01-14 22:11:34.02	21.04	4.55	-59.4	-69.2	3.8	7.46e-01	0	28	104	0	83	10823
2026-01-14 22:11:35.01	21.04	4.62	-59.4	-69.2	3.8	7.45e-01	0	28	104	0	83	10802
2026-01-14 22:11:36.01	21.05	4.70	-59.4	-69.2	3.8	7.47e-01	0	28	104	0	83	10815
2026-01-14 22:11:37.01	21.06	4.78	-59.4	-69.2	3.8	7.47e-01	0	28	104	0	83	10793
2026-01-14 22:11:38.01	21.07	4.86	-59.4	-69.2	3.8	7.45e-01	0	28	104	0	83	10828
2026-01-14 22:11:39.01	21.08	4.94	-59.4	-69.2	3.8	7.45e-01	0	28	104	0	83	10831
2026-01-14 22:11:40.00	21.09	5.02	-59.4	-69.2	3.8	7.47e-01	0	28	104	0	83	10853
2026-01-14 22:11:41.00	21.10	5.10	-59.5	-69.3	3.8	7.45e-01	0	28	104	0	83	10964
2026-01-14 22:11:42.00	21.11	5.18	-59.6	-69.3	3.8	7.47e-01	0	28	104	0	83	11015
2026-01-14 22:11:43.00	21.12	5.27	-59.4	-69.1	3.8	7.47e-01	0	28	104	0	83	10731
2026-01-14 22:11:44.00	21.13	5.35	-59.5	-69.2	3.8	7.45e-01	0	28	104	0	83	10903
2026-01-14 22:11:45.00	21.14	5.43	-59.6	-69.3	3.8	7.45e-01	0	28	104	0	83	10960
2026-01-14 22:11:46.00	21.15	5.51	-59.7	-69.4	3.8	7.45e-01	0	28	104	0	83	11133
2026-01-14 22:11:46.98	21.16	5.59	-59.4	-69.2	3.8	7.46e-01	0	28	104	0	83	10871
2026-01-14 22:11:47.97	21.17	5.68	-59.6	-69.3	3.8	7.46e-01	0	28	104	0	83	10966
2026-01-14 22:11:48.97	21.18	5.76	-59.6	-69.4	3.8	7.46e-01	0	28	104	0	83	11040
2026-01-14 22:11:49.97	21.19	5.84	-59.7	-69.5	3.8	7.44e-01	0	28	104	0	83	11169
2026-01-14 22:11:50.97	21.20	5.93	-59.5	-69.3	3.8	7.44e-01	0	28	104	0	83	10912
2026-01-14 22:11:51.96	21.21	6.01	-59.6	-69.4	3.8	7.45e-01	0	28	104	0	83	11059
2026-01-14 22:11:52.95	21.22	6.10	-59.6	-69.4	3.8	7.47e-01	0	28	104	0	83	11136
2026-01-14 22:11:53.95	21.23	6.18	-59.8	-69.5	3.8	7.45e-01	0	28	104	0	83	11216
2026-01-14 22:11:54.95	21.24	6.27	-59.6	-69.3	3.8	7.46e-01	0	28	104	0	83	11006
2026-01-14 22:11:55.95	21.25	6.35	-59.6	-69.4	3.8	7.44e-01	0	28	104	0	83	11062
2026-01-14 22:11:56.95	21.26	6.44	-59.7	-69.4	3.8	7.45e-01	0	28	104	0	83	11132
2026-01-14 22:11:57.95	21.28	6.53	-59.8	-69.6	3.8	7.45e-01	0	28	104	0	83	11315
2026-01-14 22:11:58.95	21.29	6.61	-59.6	-69.4	3.8	7.44e-01	0	28	104	0	83	11040
2026-01-14 22:11:59.95	21.30	6.70	-59.7	-69.4	3.8	7.47e-01	0	28	104	0	83	11153
2026-01-14 22:12:00.95	21.31	6.79	-59.7	-69.5	3.8	7.46e-01	0	28	104	0	83	11204
2026-01-14 22:12:01.95	21.32	6.88	-59.8	-69.6	3.8	7.45e-01	0	28	104	0	83	11323
2026-01-14 22:12:02.94	21.33	6.97	-59.7	-69.4	3.8	7.44e-01	0	28	104	0	83	11079
2026-01-14 22:12:03.93	21.34	7.06	-59.7	-69.5	3.8	7.46e-01	0	28	104	0	83	11163
2026-01-14 22:12:04.93	21.35	7.14	-59.8	-69.5	3.8	7.47e-01	0	28	104	0	83	11252
2026-01-14 22:12:05.92	21.36	7.23	-59.9	-69.6	3.8	7.47e-01	0	28	104	0	83	11371
2026-01-14 22:12:06.92	21.37	7.32	-59.7	-69.4	3.8	7.45e-01	0	28	104	0	83	11151
2026-01-14 22:12:07.92	21.38	7.42	-59.8	-69.5	3.8	7.47e-01	0	28	104	0	83	11270
2026-01-14 22:12:08.91	21.39	7.51	-59.8	-69.5	3.8	7.43e-01	0	28	104	0	83	11271
2026-01-14 22:12:09.91	21.40	7.60	-59.9	-69.7	3.8	7.47e-01	0	28	104	0	83	11449
2026-01-14 22:12:10.91	21.42	7.69	-59.8	-69.5	3.8	7.46e-01	0	28	104	0	83	11196
2026-01-14 22:12:11.91	21.43	7.78	-59.8	-69.6	3.8	7.47e-01	0	28	104	0	83	11315
2026-01-14 22:12:12.90	21.44	7.88	-59.9	-69.6	3.8	7.45e-01	0	28	104	0	83	11381
2026-01-14 22:12:13.89	21.45	7.97	-60.0	-69.7	3.8	7.44e-01	0	28	104	0	83	11470
2026-01-14 22:12:14.89	21.46	8.06	-59.8	-69.6	3.8	7.46e-01	0	28	104	0	83	11302
2026-01-14 22:12:15.89	21.47	8.16	-59.9	-69.6	3.8	7.46e-01	0	28	104	0	83	11399
2026-01-14 22:12:16.88	21.48	8.25	-59.9	-69.6	3.8	7.46e-01	0	28	104	0	83	11382
2026-01-14 22:12:17.88	21.50	8.35	-60.0	-69.7	3.8	7.47e-01	0	28	104	0	83	11458
2026-01-14 22:12:18.87	21.51	8.44	-59.9	-69.6	3.8	7.45e-01	0	28	104	0	83	11356
2026-01-14 22:12:19.87	21.52	8.54	-59.9	-69.6	3.8	7.45e-01	0	28	104	0	83	11412
2026-01-14 22:12:20.86	21.53	8.64	-59.9	-69.7	3.8	7.47e-01	0	28	104	0	83	11457
2026-01-14 22:12:21.86	21.54	8.73	-60.0	-69.8	3.8	7.46e-01	0	28	104	0	83	11559
2026-01-14 22:12:22.85	21.55	8.83	-59.9	-69.6	3.8	7.46e-01	0	29	104	0	83	11332
2026-01-14 22:12:23.85	21.57	8.93	-59.9	-69.7	3.8	7.46e-01	0	28	104	0	83	11468
2026-01-14 22:12:24.85	21.58	9.03	-60.0	-69.7	3.8	7.46e-01	0	28	104	0	83	11491
2026-01-14 22:12:25.85	21.59	9.13	-60.0	-69.8	3.8	7.46e-01	0	28	104	0	83	11634
2026-01-14 22:12:26.85	21.60	9.23	-59.9	-69.7	3.8	7.46e-01	0	29	104	0	83	11465
2026-01-14 22:12:27.85	21.61	9.33	-60.0	-69.7	3.8	7.44e-01	0	29	104	0	83	11481
2026-01-14 22:12:28.84	21.63	9.43	-60.0	-69.7	3.8	7.45e-01	0	28	104	0	83	11514
2026-01-14 22:12:29.84	21.64	9.53	-60.0	-69.8	3.8	7.47e-01	0	28	104	0	83	11611
2026-01-14 22:12:30.84	21.65	9.63	-60.0	-69.7	3.8	7.44e-01	0	29	104	0	83	11423
2026-01-14 22:12:31.84	21.66	9.74	-60.0	-69.7	3.8	7.46e-01	0	29	104	0	83	11498
2026-01-14 22:12:32.84	21.68	9.84	-60.0	-69.7	3.8	7.45e-01	0	29	104	0	83	11517
2026-01-14 22:12:33.83	21.69	9.94	-60.1	-69.9	3.8	7.46e-01	0	29	104	0	83	11684
2026-01-14 22:12:34.83	21.70	10.05	-60.0	-69.7	3.8	7.43e-01	0	29	104	0	83	11516
2026-01-14 22:12:35.83	21.71	10.15	-60.0	-69.7	3.8	7.46e-01	0	29	104	0	83	11546
2026-01-14 22:12:36.83	21.73	10.26	-60.1	-69.8	3.8	7.45e-01	0	28	104	0	83	11625
2026-01-14 22:12:37.82	21.74	10.37	-60.1	-69.9	3.8	7.44e-01	0	29	104	0	83	11690
2026-01-14 22:12:38.82	21.75	10.47	-60.0	-69.8	3.8	7.45e-01	0	29	104	0	83	11575
2026-01-14 22:12:39.82	21.77	10.58	-60.1	-69.8	3.8	7.46e-01	0	29	104	0	83	11611
2026-01-14 22:12:40.80	21.78	10.69	-60.1	-69.8	3.8	7.46e-01	0	29	104	0	83	11618
2026-01-14 22:12:41.80	21.79	10.80	-60.1	-69.9	3.8	7.46e-01	0	29	104	0	83	11713
2026-01-14 22:12:42.79	21.80	10.90	-60.0	-69.8	3.8	7.46e-01	0	28	104	0	83	11585
2026-01-14 22:12:43.79	21.82	11.02	-60.1	-69.8	3.8	7.45e-01	0	29	104	0	83	11633
2026-01-14 22:12:44.79	21.83	11.13	-60.1	-69.9	3.8	7.45e-01	0	29	104	0	83	11684
2026-01-14 22:12:45.79	21.84	11.24	-60.2	-69.9	3.8	7.45e-01	0	29	104	0	83	11776
2026-01-14 22:12:46.78	21.86	11.35	-60.1	-69.8	3.8	7.45e-01	0	29	104	0	83	11650
2026-01-14 22:12:47.77	21.87	11.46	-60.1	-69.9	3.8	7.45e-01	0	29	104	0	83	11687
2026-01-14 22:12:48.77	21.89	11.58	-60.1	-69.8	3.8	7.45e-01	0	29	104	0	83	11678
2026-01-14 22:12:49.78	21.90	11.69	-60.2	-69.9	3.8	7.46e-01	0	29	104	0	83	11765
2026-01-14 22:12:50.77	21.91	11.80	-60.1	-69.9	3.8	7.45e-01	0	29	104	0	83	11715
2026-01-14 22:12:51.78	21.93	11.92	-60.1	-69.9	3.8	7.45e-01	0	28	104	0	83	11692
2026-01-14 22:12:52.78	21.94	12.04	-60.1	-69.9	3.8	7.44e-01	0	29	104	0	83	11740
2026-01-14 22:12:53.78	21.96	12.16	-60.2	-69.9	3.8	7.46e-01	0	29	104	0	83	11811
2026-01-14 22:12:54.78	21.97	12.27	-60.1	-69.9	3.8	7.44e-01	0	29	104	0	83	11726
2026-01-14 22:12:55.79	21.99	12.39	-60.2	-69.9	3.8	7.46e-01	0	29	104	0	83	11706
2026-01-14 22:12:56.79	22.00	12.51	-60.2	-69.9	3.8	7.45e-01	0	29	104	0	83	11811
2026-01-14 22:12:57.79	22.01	12.64	-60.2	-70.0	3.8	7.45e-01	0	29	104	0	83	11887
2026-01-14 22:12:58.78	22.03	12.76	-60.2	-69.9	3.8	7.45e-01	0	29	104	0	83	11793
2026-01-14 22:12:59.78	22.04	12.88	-60.2	-69.9	3.8	7.46e-01	0	29	104	0	83	11802
2026-01-14 22:13:00.77	22.06	13.00	-60.2	-70.0	3.8	7.46e-01	0	29	104	0	83	11843
2026-01-14 22:13:01.78	22.07	13.12	-60.3	-70.0	3.8	7.45e-01	0	29	104	0	83	11899
2026-01-14 22:13:02.77	22.09	13.25	-60.2	-70.0	3.8	7.47e-01	0	29	104	0	83	11830
2026-01-14 22:13:03.77	22.10	13.37	-60.2	-70.0	3.8	7.48e-01	0	29	104	0	83	11852
2026-01-14 22:13:04.78	22.12	13.50	-60.2	-70.0	3.8	7.44e-01	0	29	104	0	83	11908
2026-01-14 22:13:05.77	22.14	13.63	-60.3	-70.1	3.8	7.46e-01	0	29	104	0	83	11959
2026-01-14 22:13:06.77	22.15	13.75	-60.2	-70.0	3.8	7.45e-01	0	29	104	0	83	11881
2026-01-14 22:13:07.77	22.17	13.88	-60.2	-70.0	3.8	7.47e-01	0	28	104	0	83	11859
2026-01-14 22:13:08.76	22.18	14.01	-60.3	-70.0	3.8	7.44e-01	0	28	104	0	83	11935
2026-01-14 22:13:09.75	22.20	14.14	-60.3	-70.0	3.8	7.46e-01	0	29	104	0	83	11932
2026-01-14 22:13:10.75	22.22	14.27	-60.3	-70.0	3.8	7.47e-01	0	29	104	0	83	11915
2026-01-14 22:13:11.75	22.23	14.41	-60.3	-70.0	3.8	7.46e-01	0	29	104	0	83	11946
2026-01-14 22:13:12.75	22.25	14.54	-60.3	-70.1	3.8	7.45e-01	0	29	104	0	83	11966
2026-01-14 22:13:13.75	22.26	14.67	-60.4	-70.1	3.8	7.46e-01	0	29	104	0	83	12006
2026-01-14 22:13:14.75	22.28	14.81	-60.3	-70.1	3.8	7.47e-01	0	29	104	0	83	11999
2026-01-14 22:13:15.75	22.30	14.95	-60.3	-70.0	3.8	7.48e-01	0	29	104	0	83	11899
2026-01-14 22:13:16.75	22.32	15.08	-60.3	-70.1	3.8	7.46e-01	0	29	104	0	83	11980
2026-01-14 22:13:17.76	22.33	15.22	-60.4	-70.1	3.8	7.46e-01	0	29	104	0	83	12061
2026-01-14 22:13:18.75	22.35	15.36	-60.3	-70.1	3.8	7.45e-01	0	28	104	0	83	12011
2026-01-14 22:13:19.74	22.37	15.50	-60.3	-70.1	3.8	7.45e-01	0	29	104	0	83	12013
2026-01-14 22:13:20.75	22.38	15.64	-60.3	-70.1	3.8	7.45e-01	0	29	104	0	83	11992
2026-01-14 22:13:21.74	22.40	15.79	-60.4	-70.1	3.8	7.45e-01	0	29	104	0	83	12082
2026-01-14 22:13:22.74	22.42	15.93	-60.3	-70.1	3.8	7.46e-01	0	29	104	0	83	12006
2026-01-14 22:13:23.73	22.44	16.07	-60.3	-70.1	3.8	7.45e-01	0	29	104	0	83	12017
2026-01-14 22:13:24.73	22.46	16.22	-60.3	-70.1	3.8	7.46e-01	0	29	104	0	83	11958
2026-01-14 22:13:25.73	22.47	16.37	-60.4	-70.2	3.8	7.45e-01	0	29	104	0	83	12104
2026-01-14 22:13:26.72	22.49	16.51	-60.4	-70.1	3.8	7.46e-01	0	29	104	0	83	12036
2026-01-14 22:13:27.72	22.51	16.66	-60.4	-70.1	3.8	7.45e-01	0	29	104	0	83	12047
2026-01-14 22:13:28.71	22.53	16.81	-60.4	-70.1	3.8	7.46e-01	0	29	104	0	83	12078
2026-01-14 22:13:29.71	22.55	16.97	-60.6	-70.4	3.8	7.46e-01	0	29	104	0	84	11705
2026-01-14 22:13:30.71	22.57	17.12	-60.5	-70.3	3.8	7.45e-01	0	29	104	0	84	11570
2026-01-14 22:13:31.70	22.59	17.27	-60.5	-70.3	3.8	7.46e-01	0	29	104	0	84	11583
2026-01-14 22:13:32.71	22.61	17.43	-60.6	-70.3	3.8	7.46e-01	0	29	104	0	84	11618
2026-01-14 22:13:33.70	22.63	17.58	-60.6	-70.4	3.8	7.45e-01	0	29	104	0	84	11687
2026-01-14 22:13:34.70	22.65	17.74	-60.6	-70.3	3.8	7.46e-01	0	29	104	0	84	11663
2026-01-14 22:13:35.70	22.67	17.90	-60.6	-70.3	3.8	7.46e-01	0	29	104	0	84	11646
2026-01-14 22:13:36.70	22.69	18.06	-60.6	-70.3	3.8	7.47e-01	0	29	104	0	84	11677
2026-01-14 22:13:37.70	22.71	18.23	-60.6	-70.4	3.8	7.47e-01	0	29	104	0	84	11734
2026-01-14 22:13:38.69	22.73	18.39	-60.6	-70.3	3.8	7.46e-01	0	29	104	0	84	11654
2026-01-14 22:13:39.68	22.75	18.55	-60.6	-70.3	3.8	7.44e-01	0	29	104	0	84	11673
2026-01-14 22:13:40.68	22.77	18.72	-60.6	-70.3	3.8	7.47e-01	0	29	104	0	84	11625
2026-01-14 22:13:41.68	22.79	18.89	-60.6	-70.4	3.8	7.46e-01	0	29	104	0	84	11737
2026-01-14 22:13:42.69	22.81	19.06	-60.6	-70.4	3.8	7.46e-01	0	29	104	0	84	11729
2026-01-14 22:13:43.69	22.84	19.23	-60.6	-70.3	3.8	7.44e-01	0	29	104	0	84	11642
2026-01-14 22:13:44.68	22.86	19.40	-60.6	-70.4	3.8	7.47e-01	0	29	104	0	84	11696
2026-01-14 22:13:45.68	22.88	19.57	-60.7	-70.4	3.8	7.45e-01	0	29	104	0	84	11778
2026-01-14 22:13:46.68	22.90	19.75	-60.6	-70.4	3.8	7.47e-01	0	29	104	0	84	11725
2026-01-14 22:13:47.68	22.92	19.93	-60.6	-70.4	3.8	7.45e-01	0	29	104	0	84	11774
2026-01-14 22:13:48.67	22.95	20.10	-60.7	-70.4	3.8	7.46e-01	0	29	104	0	84	11783
2026-01-14 22:13:49.67	22.97	20.28	-60.7	-70.5	3.8	7.45e-01	0	29	104	0	84	11842
2026-01-14 22:13:50.68	22.99	20.47	-60.7	-70.4	3.8	7.46e-01	0	29	104	0	84	11740
2026-01-14 22:13:51.68	23.02	20.65	-60.7	-70.4	3.8	7.44e-01	0	29	104	0	84	11726
2026-01-14 22:13:52.68	23.04	20.84	-60.7	-70.4	3.8	7.46e-01	0	29	104	0	84	11782
2026-01-14 22:13:53.68	23.07	21.02	-60.7	-70.4	3.8	7.45e-01	0	29	104	0	84	11805
2026-01-14 22:13:54.67	23.09	21.21	-60.7	-70.4	3.8	7.46e-01	0	29	104	0	84	11759
2026-01-14 22:13:55.66	23.12	21.40	-60.7	-70.4	3.8	7.45e-01	0	29	104	0	84	11802
2026-01-14 22:13:56.66	23.14	21.59	-60.7	-70.4	3.8	7.44e-01	0	29	104	0	84	11816
2026-01-14 22:13:57.67	23.17	21.79	-60.8	-70.5	3.8	7.44e-01	0	29	104	0	84	11892
2026-01-14 22:13:58.66	23.19	21.98	-60.7	-70.5	3.8	7.46e-01	0	29	104	0	84	11872
2026-01-14 22:13:59.67	23.22	22.18	-60.7	-70.5	3.8	7.44e-01	0	29	104	0	84	11839
2026-01-14 22:14:00.67	23.24	22.38	-60.7	-70.5	3.8	7.46e-01	0	29	104	0	84	11848
2026-01-14 22:14:01.67	23.27	22.59	-60.8	-70.5	3.8	7.45e-01	0	29	104	0	84	11904
2026-01-14 22:14:02.67	23.30	22.79	-60.7	-70.5	3.8	7.46e-01	0	29	104	0	84	11856
2026-01-14 22:14:03.67	23.33	23.00	-60.7	-70.5	3.8	7.45e-01	0	29	104	0	84	11853
2026-01-14 22:14:04.67	23.35	23.20	-60.8	-70.5	3.8	7.45e-01	0	29	104	0	84	11896
2026-01-14 22:14:05.67	23.38	23.41	-60.8	-70.5	3.8	7.46e-01	0	29	104	0	84	11905
2026-01-14 22:14:06.68	23.41	23.63	-60.8	-70.5	3.8	7.45e-01	0	29	104	0	84	11878
2026-01-14 22:14:07.67	23.44	23.84	-60.7	-70.5	3.8	7.47e-01	0	29	104	0	84	11907
2026-01-14 22:14:08.68	23.47	24.06	-60.8	-70.5	3.8	7.47e-01	0	29	104	0	84	11877
2026-01-14 22:14:09.68	23.50	24.28	-60.8	-70.5	3.8	7.45e-01	0	29	104	0	84	11916
2026-01-14 22:14:10.68	23.53	24.50	-60.8	-70.5	3.8	7.46e-01	0	29	104	0	84	11932
2026-01-14 22:14:11.68	23.56	24.73	-60.8	-70.5	3.8	7.45e-01	0	29	104	0	84	11925
2026-01-14 22:14:12.68	23.59	24.95	-60.8	-70.6	3.8	7.45e-01	0	29	104	0	84	11980
2026-01-14 22:14:13.67	23.62	25.18	-60.8	-70.6	3.8	7.45e-01	0	29	104	0	84	12000
2026-01-14 22:14:14.68	23.65	25.41	-60.8	-70.6	3.8	7.44e-01	0	29	104	0	84	11990
2026-01-14 22:14:15.67	23.69	25.64	-60.8	-70.5	3.8	7.45e-01	0	29	104	0	84	11926
2026-01-14 22:14:16.67	23.72	25.88	-60.8	-70.6	3.8	7.45e-01	0	29	104	0	84	11981
2026-01-14 22:14:17.66	23.75	26.11	-60.9	-70.6	3.8	7.44e-01	0	29	104	0	84	12052
2026-01-14 22:14:18.66	23.78	26.35	-60.8	-70.6	3.8	7.45e-01	0	29	104	0	84	11986
2026-01-14 22:14:19.65	23.82	26.60	-60.8	-70.6	3.8	7.45e-01	0	29	104	0	84	12002
2026-01-14 22:14:20.65	23.85	26.84	-60.8	-70.6	3.8	7.44e-01	0	29	104	0	84	12041
2026-01-14 22:14:21.64	23.89	27.09	-60.9	-70.6	3.8	7.47e-01	0	29	104	0	84	12048
2026-01-14 22:14:22.63	23.92	27.34	-60.9	-70.6	3.8	7.46e-01	0	29	104	0	84	11997
2026-01-14 22:14:23.63	23.96	27.59	-60.9	-70.6	3.8	7.47e-01	0	29	104	0	84	12024
2026-01-14 22:14:24.62	24.00	27.85	-60.9	-70.6	3.8	7.45e-01	0	29	104	0	84	12060
2026-01-14 22:14:25.62	24.03	28.11	-60.9	-70.7	3.8	7.46e-01	0	29	104	0	85	11460
2026-01-14 22:14:26.61	24.07	28.37	-60.9	-70.7	3.8	7.46e-01	0	29	104	0	85	11456
2026-01-14 22:14:27.61	24.11	28.64	-60.9	-70.6	3.8	7.45e-01	0	29	104	0	85	11390
2026-01-14 22:14:28.62	24.15	28.91	-60.9	-70.6	3.8	7.46e-01	0	29	104	0	85	11408
2026-01-14 22:14:29.61	24.19	29.18	-60.9	-70.7	3.8	7.46e-01	0	29	104	0	85	11464
2026-01-14 22:14:30.62	24.23	29.46	-60.9	-70.7	3.8	7.45e-01	0	29	104	0	85	11440
2026-01-14 22:14:31.63	24.27	29.74	-60.9	-70.6	3.8	7.46e-01	0	29	104	0	85	11401
2026-01-14 22:14:32.62	24.31	30.02	-60.9	-70.7	3.8	7.47e-01	0	29	104	0	85	11425
2026-01-14 22:14:33.62	24.36	30.30	-61.0	-70.7	3.8	7.47e-01	0	29	104	0	85	11488
2026-01-14 22:14:34.63	24.40	30.60	-60.9	-70.7	3.8	7.45e-01	0	29	104	0	85	11462
2026-01-14 22:14:35.62	24.44	30.89	-60.9	-70.7	3.8	7.45e-01	0	29	104	0	85	11464
2026-01-14 22:14:36.62	24.49	31.18	-61.0	-70.7	3.8	7.46e-01	0	29	104	0	85	11518
2026-01-14 22:14:37.62	24.54	31.48	-61.0	-70.7	3.8	7.45e-01	0	29	104	0	85	11521
2026-01-14 22:14:38.63	24.58	31.79	-61.0	-70.7	3.8	7.46e-01	0	29	104	0	85	11493
2026-01-14 22:14:39.63	24.63	32.10	-61.0	-70.7	3.8	7.45e-01	0	29	104	0	85	11514
2026-01-14 22:14:40.63	24.68	32.41	-61.0	-70.8	3.8	7.48e-01	0	29	104	0	85	11550
2026-01-14 22:14:41.63	24.73	32.72	-61.0	-70.8	3.8	7.46e-01	0	29	104	0	85	11589
2026-01-14 22:14:42.62	24.78	33.04	-61.0	-70.7	3.8	7.45e-01	0	29	104	0	85	11509
2026-01-14 22:14:43.63	24.83	33.36	-61.0	-70.7	3.8	7.46e-01	0	29	104	0	85	11508
2026-01-14 22:14:44.62	24.88	33.69	-61.0	-70.8	3.8	7.45e-01	0	29	104	0	85	11573
2026-01-14 22:14:45.62	24.94	34.02	-61.0	-70.8	3.8	7.46e-01	0	29	104	0	85	11580
2026-01-14 22:14:46.62	24.99	34.35	-61.0	-70.8	3.8	7.45e-01	0	29	104	0	85	11593
2026-01-14 22:14:47.62	25.05	34.69	-61.0	-70.7	3.8	7.45e-01	0	29	104	0	85	11543
2026-01-14 22:14:48.62	25.10	35.03	-61.0	-70.8	3.8	7.46e-01	0	29	104	0	85	11592
2026-01-14 22:14:49.62	25.16	35.38	-61.1	-70.8	3.8	7.45e-01	0	29	104	0	85	11648
2026-01-14 22:14:50.63	25.22	35.74	-61.0	-70.8	3.8	7.47e-01	0	29	104	0	85	11602
2026-01-14 22:14:51.62	25.28	36.09	-61.0	-70.8	3.8	7.49e-01	0	29	104	0	85	11575
2026-01-14 22:14:52.62	25.34	36.45	-61.1	-70.8	3.8	7.44e-01	0	29	104	0	85	11615
2026-01-14 22:14:53.62	25.41	36.82	-61.1	-70.8	3.8	7.46e-01	0	29	104	0	85	11666
2026-01-14 22:14:54.61	25.47	37.19	-61.1	-70.8	3.8	7.46e-01	0	29	104	0	85	11634
2026-01-14 22:14:55.61	25.54	37.56	-61.1	-70.8	3.8	7.46e-01	0	29	104	0	85	11578
2026-01-14 22:14:56.61	25.60	37.94	-61.1	-70.8	3.8	7.47e-01	0	29	104	0	85	11661
2026-01-14 22:14:57.61	25.67	38.33	-61.1	-70.8	3.8	7.45e-01	0	29	104	0	85	11676
2026-01-14 22:14:58.60	25.74	38.72	-61.1	-70.8	3.8	7.46e-01	0	29	104	0	85	11670
2026-01-14 22:14:59.59	25.82	39.11	-61.1	-70.8	3.8	7.44e-01	0	29	104	0	85	11676
2026-01-14 22:15:00.59	25.89	39.51	-61.1	-70.8	3.8	7.44e-01	0	29	104	0	85	11671
2026-01-14 22:15:01.60	25.97	39.92	-61.1	-70.9	3.8	7.47e-01	0	29	104	0	85	11738
2026-01-14 22:15:02.61	26.05	40.34	-61.1	-70.8	3.8	7.45e-01	0	29	104	0	85	11641
2026-01-14 22:15:03.62	26.13	40.76	-61.1	-70.8	3.8	7.45e-01	0	29	104	0	85	11644
2026-01-14 22:15:04.62	26.21	41.18	-61.1	-70.9	3.8	7.44e-01	0	29	104	0	85	11726
2026-01-14 22:15:05.62	26.29	41.61	-61.2	-70.9	3.8	7.45e-01	0	29	104	0	85	11776
2026-01-14 22:15:06.61	26.38	42.04	-61.1	-70.9	3.8	7.47e-01	0	29	104	0	85	11691
2026-01-14 22:15:07.61	26.47	42.48	-61.1	-70.9	3.8	7.47e-01	0	29	104	0	85	11695
2026-01-14 22:15:08.61	26.56	42.93	-61.2	-70.9	3.8	7.46e-01	0	29	104	0	85	11744
2026-01-14 22:15:09.60	26.66	43.37	-61.2	-70.9	3.8	7.46e-01	0	29	104	0	85	11788
2026-01-14 22:15:10.60	26.75	43.83	-61.1	-70.9	3.8	7.45e-01	0	29	104	0	85	11685
2026-01-14 22:15:11.60	26.85	44.30	-61.1	-70.9	3.8	7.46e-01	0	29	104	0	85	11771
2026-01-14 22:15:12.60	26.96	44.77	-61.2	-70.9	3.8	7.46e-01	0	29	104	0	85	11714
2026-01-14 22:15:13.60	27.06	45.24	-61.2	-71.0	3.8	7.46e-01	0	29	104	0	85	11832
2026-01-14 22:15:14.60	27.17	45.73	-61.2	-70.9	3.8	7.47e-01	0	29	104	0	85	11795
2026-01-14 22:15:15.60	27.28	46.22	-61.2	-70.9	3.8	7.45e-01	0	29	104	0	85	11742
2026-01-14 22:15:16.60	27.40	46.71	-61.2	-70.9	3.8	7.45e-01	0	29	104	0	85	11802
2026-01-14 22:15:17.59	27.52	47.21	-61.2	-71.0	3.8	7.47e-01	0	29	104	0	85	11853
2026-01-14 22:15:18.59	27.64	47.72	-61.2	-71.0	3.8	7.44e-01	0	29	104	0	85	11820
2026-01-14 22:15:19.59	27.77	48.23	-61.2	-70.9	3.8	7.46e-01	0	29	104	0	85	11790
2026-01-14 22:15:20.58	27.90	48.75	-61.2	-70.9	3.8	7.47e-01	0	29	104	0	85	11795
2026-01-14 22:15:21.59	28.04	49.29	-61.2	-71.0	3.8	7.46e-01	0	29	104	0	85	11867
2026-01-14 22:15:22.58	28.18	49.82	-61.2	-71.0	3.8	7.45e-01	0	29	104	0	85	11824
2026-01-14 22:15:23.58	28.33	50.36	-61.2	-71.0	3.8	7.45e-01	0	29	104	0	85	11877
2026-01-14 22:15:24.58	28.48	50.91	-61.2	-71.0	3.8	7.45e-01	0	29	104	0	85	11850
2026-01-14 22:15:25.58	28.64	51.47	-61.2	-71.0	3.8	7.45e-01	0	29	104	0	85	11880
2026-01-14 22:15:26.58	28.80	52.04	-61.2	-71.0	3.8	7.46e-01	0	29	104	0	85	11855
2026-01-14 22:15:27.58	28.97	52.61	-61.2	-71.0	3.8	7.46e-01	0	29	104	0	85	11820
2026-01-14 22:15:28.58	29.15	53.19	-61.3	-71.0	3.8	7.45e-01	0	29	104	0	85	11867
2026-01-14 22:15:29.58	29.33	53.77	-61.3	-71.0	3.8	7.45e-01	0	29	104	0	85	11917
2026-01-14 22:15:30.57	29.52	54.36	-61.2	-71.0	3.8	7.45e-01	0	29	104	0	85	11875
2026-01-14 22:15:31.57	29.72	54.96	-61.3	-71.0	3.8	7.46e-01	0	29	104	0	85	11863
2026-01-14 22:15:32.57	29.93	55.57	-61.3	-71.0	3.8	7.44e-01	0	29	104	0	85	11921
2026-01-14 22:15:33.57	30.15	56.18	-61.3	-71.0	3.8	7.47e-01	0	29	104	0	85	11946
2026-01-14 22:15:34.57	30.38	56.81	-61.3	-71.0	3.8	7.46e-01	0	29	104	0	85	11861
2026-01-14 22:15:35.57	30.62	57.44	-61.3	-71.0	3.8	7.46e-01	0	29	104	0	85	11892
2026-01-14 22:15:36.57	30.87	58.07	-61.3	-71.0	3.8	7.46e-01	0	29	104	0	85	11948
2026-01-14 22:15:37.57	31.13	58.72	-61.3	-71.1	3.8	7.44e-01	0	29	104	0	85	11969
2026-01-14 22:15:38.58	31.41	59.38	-61.3	-71.1	3.8	7.46e-01	0	29	104	0	85	11979
2026-01-14 22:15:39.58	31.70	60.04	-61.3	-71.1	3.8	7.46e-01	0	29	104	0	85	12002
2026-01-14 22:15:40.59	32.01	60.71	-61.3	-71.1	3.8	7.45e-01	0	29	104	0	85	12010
2026-01-14 22:15:41.59	32.33	61.38	-61.3	-71.1	3.8	7.44e-01	0	29	104	0	85	12037
2026-01-14 22:15:42.59	32.67	62.06	-61.3	-71.1	3.8	7.46e-01	0	29	104	0	85	11982
2026-01-14 22:15:43.59	33.03	62.75	-61.3	-71.1	3.8	7.45e-01	0	29	104	0	85	12057
2026-01-14 22:15:44.58	33.40	63.43	-61.4	-71.1	3.8	7.45e-01	0	29	104	0	85	12004
2026-01-14 22:15:45.58	33.81	64.13	-61.4	-71.1	3.8	7.45e-01	0	29	104	0	85	12044
2026-01-14 22:15:46.57	34.23	64.83	-61.3	-71.1	3.8	7.46e-01	0	29	104	0	85	12029
2026-01-14 22:15:47.57	34.69	65.54	-61.4	-71.1	3.8	7.47e-01	0	29	104	0	85	12015
2026-01-14 22:15:48.57	35.17	66.25	-61.4	-71.1	3.8	7.46e-01	0	29	104	0	85	12058
2026-01-14 22:15:49.56	35.69	66.97	-61.4	-71.1	3.8	7.47e-01	0	29	104	0	85	12028
2026-01-14 22:15:50.56	36.25	67.69	-61.4	-71.1	3.8	7.46e-01	0	29	104	0	85	12009
2026-01-14 22:15:51.56	36.84	68.42	-61.4	-71.1	3.8	7.45e-01	0	29	104	0	85	12038
2026-01-14 22:15:52.56	37.49	69.16	-61.4	-71.2	3.8	7.47e-01	0	29	104	0	85	12109
2026-01-14 22:15:53.55	38.18	69.89	-61.4	-71.2	3.8	7.43e-01	0	29	104	0	85	12095
2026-01-14 22:15:54.55	38.93	70.63	-61.4	-71.2	3.8	7.45e-01	0	29	104	0	85	12104
2026-01-14 22:15:55.55	39.74	71.38	-61.4	-71.1	3.8	7.46e-01	0	29	104	0	85	12086
2026-01-14 22:15:56.55	40.63	72.13	-61.4	-71.1	3.8	7.46e-01	0	29	104	0	85	12061
2026-01-14 22:15:57.54	41.59	72.87	-61.4	-71.2	3.8	7.46e-01	0	29	104	0	85	12135
2026-01-14 22:15:58.54	42.65	73.61	-61.4	-71.2	3.8	7.45e-01	0	29	104	0	86	11436
2026-01-14 22:15:59.55	43.83	74.37	-61.4	-71.2	3.8	7.45e-01	0	29	104	0	86	11481
2026-01-14 22:16:00.54	45.11	75.11	-61.5	-71.2	3.8	7.45e-01	0	29	104	0	86	11482
2026-01-14 22:16:01.54	46.54	75.85	-61.4	-71.2	3.8	7.46e-01	0	29	104	0	86	11449
2026-01-14 22:16:02.54	48.14	76.59	-61.4	-71.2	3.8	7.45e-01	0	29	104	0	86	11427
2026-01-14 22:16:03.55	49.94	77.32	-61.4	-71.2	3.8	7.45e-01	0	29	104	0	86	11486
2026-01-14 22:16:04.55	51.96	78.04	-61.4	-71.2	3.8	7.45e-01	0	29	104	0	86	11493
2026-01-14 22:16:05.54	54.21	78.75	-61.5	-71.2	3.8	7.46e-01	0	29	104	0	86	11472
2026-01-14 22:16:06.54	56.78	79.44	-61.4	-71.1	3.8	7.46e-01	0	29	104	0	86	11416
2026-01-14 22:16:07.54	59.73	80.11	-61.4	-71.2	3.8	7.45e-01	0	29	104	0	86	11478
2026-01-14 22:16:08.54	63.09	80.75	-61.5	-71.2	3.8	7.46e-01	0	29	104	0	86	11491
2026-01-14 22:16:09.54	66.96	81.36	-61.5	-71.2	3.8	7.45e-01	0	29	104	0	86	11528
2026-01-14 22:16:10.53	71.34	81.92	-61.4	-71.2	3.8	7.45e-01	0	29	104	0	86	11490
2026-01-14 22:16:11.53	76.41	82.43	-61.5	-71.2	3.8	7.46e-01	0	29	104	0	86	11514
2026-01-14 22:16:12.53	82.17	82.88	-61.5	-71.2	3.8	7.47e-01	0	29	104	0	86	11524
2026-01-14 22:16:13.53	88.64	83.25	-61.5	-71.2	3.8	7.44e-01	0	29	104	0	86	11513
2026-01-14 22:16:14.52	95.68	83.52	-61.5	-71.2	3.8	7.46e-01	0	29	104	0	86	11477
2026-01-14 22:16:15.52	103.29	83.69	-61.5	-71.2	3.8	7.46e-01	0	29	104	0	86	11516
2026-01-14 22:16:16.51	111.10	83.74	-61.5	-71.2	3.8	7.46e-01	0	29	104	0	86	11542
2026-01-14 22:16:17.52	119.05	83.67	-61.5	-71.3	3.8	7.46e-01	0	29	104	0	86	11605
2026-01-14 22:16:18.52	126.62	83.49	-61.5	-71.2	3.8	7.46e-01	0	29	104	0	86	11515
2026-01-14 22:16:19.52	133.66	83.21	-61.5	-71.2	3.8	7.46e-01	0	29	104	0	86	11545
2026-01-14 22:16:20.52	140.05	82.83	-61.5	-71.3	3.8	7.47e-01	0	29	104	0	86	11562
2026-01-14 22:16:21.50	145.62	82.38	-61.5	-71.2	3.8	7.47e-01	0	29	104	0	86	11528
2026-01-14 22:16:22.50	150.62	81.86	-61.5	-71.2	3.8	7.44e-01	0	29	104	0	86	11520
2026-01-14 22:16:23.49	154.95	81.30	-61.5	-71.2	3.8	7.46e-01	0	29	104	0	86	11536
2026-01-14 22:16:24.49	158.76	80.69	-61.5	-71.3	3.8	7.44e-01	0	29	104	0	86	11577
2026-01-14 22:16:25.49	162.09	80.04	-61.5	-71.3	3.8	7.46e-01	0	29	104	0	86	11554
2026-01-14 22:16:26.49	164.99	79.37	-61.5	-71.2	3.8	7.45e-01	0	29	104	0	86	11505
2026-01-14 22:16:27.48	167.52	78.68	-61.5	-71.2	3.8	7.47e-01	0	29	104	0	86	11545
2026-01-14 22:16:28.48	169.76	77.97	-61.5	-71.2	3.8	7.47e-01	0	29	104	0	86	11528
2026-01-14 22:16:29.49	171.77	77.24	-61.5	-71.3	3.8	7.46e-01	0	29	104	0	86	11578
2026-01-14 22:16:30.49	173.54	76.51	-61.5	-71.2	3.8	7.46e-01	0	29	104	0	86	11515
2026-01-14 22:16:31.49	175.12	75.77	-61.5	-71.2	3.8	7.45e-01	0	29	104	0	86	11540
2026-01-14 22:16:32.49	176.54	75.03	-61.5	-71.2	3.8	7.46e-01	0	29	104	0	86	11506
2026-01-14 22:16:33.49	177.81	74.28	-61.5	-71.2	3.8	7.46e-01	0	29	104	0	86	11513
2026-01-14 22:16:34.49	178.97	73.53	-61.5	-71.2	3.8	7.46e-01	0	29	104	0	86	11529
2026-01-14 22:16:35.49	180.02	72.78	-61.5	-71.2	3.8	7.46e-01	0	29	104	0	86	11544
2026-01-14 22:16:36.49	180.98	72.03	-61.5	-71.3	3.8	7.45e-01	0	29	104	0	86	11556
2026-01-14 22:16:37.49	181.86	71.29	-61.5	-71.2	3.8	7.46e-01	0	29	104	0	86	11525
2026-01-14 22:16:38.49	182.67	70.54	-61.5	-71.2	3.8	7.46e-01	0	29	104	0	86	11484
2026-01-14 22:16:39.49	183.42	69.80	-61.5	-71.2	3.8	7.43e-01	0	29	104	0	86	11523
2026-01-14 22:16:40.49	184.10	69.06	-61.5	-71.3	3.8	7.45e-01	0	29	104	0	86	11560
2026-01-14 22:16:41.48	184.74	68.33	-61.5	-71.3	3.8	7.46e-01	0	29	104	0	86	11566
2026-01-14 22:16:42.48	185.33	67.60	-61.5	-71.2	3.8	7.45e-01	0	29	104	0	86	11486
2026-01-14 22:16:43.49	185.89	66.86	-61.5	-71.2	3.8	7.46e-01	0	29	104	0	86	11498
2026-01-14 22:16:44.48	186.40	66.15	-61.5	-71.2	3.8	7.46e-01	0	29	104	0	86	11537
2026-01-14 22:16:45.48	186.88	65.43	-61.5	-71.2	3.8	7.45e-01	0	29	104	0	86	11528
2026-01-14 22:16:46.47	187.33	64.73	-61.5	-71.2	3.8	7.46e-01	0	29	104	0	86	11478
2026-01-14 22:16:47.48	187.76	64.01	-61.5	-71.2	3.8	7.45e-01	0	29	104	0	86	11503
2026-01-14 22:16:48.47	188.16	63.32	-61.5	-71.2	3.8	7.47e-01	0	29	104	0	86	11532
2026-01-14 22:16:49.47	188.53	62.63	-61.5	-71.2	3.8	7.47e-01	0	29	104	0	86	11528
2026-01-14 22:16:50.46	188.89	61.95	-61.4	-71.2	3.8	7.45e-01	0	29	104	0	86	11446
2026-01-14 22:16:51.47	189.23	61.26	-61.4	-71.2	3.8	7.45e-01	0	29	104	0	86	11448
2026-01-14 22:16:52.47	189.55	60.59	-61.5	-71.2	3.8	7.47e-01	0	29	104	0	86	11445
2026-01-14 22:16:53.46	189.85	59.93	-61.5	-71.2	3.8	7.45e-01	0	29	104	0	86	11491
2026-01-14 22:16:54.46	190.14	59.27	-61.4	-71.2	3.8	7.47e-01	0	29	104	0	86	11420
2026-01-14 22:16:55.46	190.41	58.62	-61.4	-71.2	3.8	7.45e-01	0	29	104	0	86	11432
2026-01-14 22:16:56.46	190.67	57.97	-61.4	-71.2	3.8	7.45e-01	0	29	104	0	86	11448
2026-01-14 22:16:57.46	190.92	57.34	-61.5	-71.2	3.8	7.46e-01	0	29	104	0	86	11490
2026-01-14 22:16:58.45	191.16	56.71	-61.4	-71.2	3.8	7.47e-01	0	29	104	0	86	11453
2026-01-14 22:16:59.45	191.38	56.09	-61.4	-71.1	3.8	7.46e-01	0	29	104	0	86	11345
2026-01-14 22:17:00.45	191.60	55.47	-61.4	-71.2	3.8	7.47e-01	0	29	104	0	86	11421
2026-01-14 22:17:01.45	191.81	54.86	-61.4	-71.2	3.8	7.44e-01	0	29	104	0	86	11474
2026-01-14 22:17:02.45	192.01	54.26	-61.4	-71.1	3.8	7.47e-01	0	29	104	0	86	11395
2026-01-14 22:17:03.46	192.20	53.66	-61.4	-71.1	3.8	7.45e-01	0	29	104	0	86	11373
2026-01-14 22:17:04.46	192.38	53.07	-61.4	-71.1	3.8	7.46e-01	0	29	104	0	86	11384
2026-01-14 22:17:05.46	192.56	52.49	-61.4	-71.2	3.8	7.46e-01	0	29	104	0	86	11428
2026-01-14 22:17:06.47	192.73	51.92	-61.4	-71.1	3.8	7.47e-01	0	29	104	0	86	11367
2026-01-14 22:17:07.47	192.90	51.35	-61.4	-71.1	3.8	7.46e-01	0	29	104	0	86	11340
2026-01-14 22:17:08.47	193.05	50.79	-61.4	-71.2	3.8	7.45e-01	0	29	104	0	86	11434
2026-01-14 22:17:09.47	193.20	50.24	-61.4	-71.1	3.8	7.46e-01	0	29	104	0	86	11364
2026-01-14 22:17:10.47	193.35	49.70	-61.4	-71.2	3.8	7.46e-01	0	29	104	0	86	11423
2026-01-14 22:17:11.46	193.49	49.17	-61.4	-71.1	3.8	7.46e-01	0	29	104	0	86	11313
2026-01-14 22:17:12.46	193.63	48.64	-61.4	-71.1	3.8	7.45e-01	0	29	104	0	86	11391
2026-01-14 22:17:13.46	193.76	48.11	-61.4	-71.2	3.8	7.45e-01	0	29	104	0	86	11426
2026-01-14 22:17:14.46	193.88	47.60	-61.4	-71.1	3.8	7.47e-01	0	29	104	0	86	11388
2026-01-14 22:17:15.46	194.01	47.09	-61.4	-71.1	3.8	7.45e-01	0	29	104	0	86	11369
2026-01-14 22:17:16.46	194.13	46.58	-61.4	-71.1	3.8	7.47e-01	0	29	104	0	86	11346
2026-01-14 22:17:17.46	194.24	46.09	-61.4	-71.1	3.8	7.47e-01	0	29	104	0	86	11376
2026-01-14 22:17:18.45	194.35	45.60	-61.4	-71.1	3.8	7.46e-01	0	29	104	0	86	11368
2026-01-14 22:17:19.45	194.46	45.12	-61.3	-71.1	3.8	7.46e-01	0	29	104	0	86	11322
2026-01-14 22:17:20.44	194.57	44.64	-61.3	-71.1	3.8	7.46e-01	0	29	104	0	86	11338
2026-01-14 22:17:21.43	194.67	44.18	-61.3	-71.1	3.8	7.45e-01	0	29	104	0	86	11303
2026-01-14 22:17:22.42	194.77	43.72	-61.3	-71.1	3.8	7.46e-01	0	29	104	0	86	11304
2026-01-14 22:17:23.42	194.86	43.26	-61.3	-71.0	3.8	7.47e-01	0	29	104	0	86	11251
2026-01-14 22:17:24.42	194.96	42.81	-61.3	-71.1	3.8	7.47e-01	0	29	104	0	86	11326
2026-01-14 22:17:25.42	195.05	42.36	-61.3	-71.0	3.8	7.47e-01	0	29	104	0	86	11283
2026-01-14 22:17:26.41	195.14	41.92	-61.3	-71.0	3.8	7.46e-01	0	29	104	0	86	11264
2026-01-14 22:17:27.41	195.22	41.49	-61.3	-71.0	3.8	7.46e-01	0	29	104	0	86	11284
2026-01-14 22:17:28.40	195.31	41.06	-61.3	-71.0	3.8	7.45e-01	0	29	104	0	86	11281
2026-01-14 22:17:29.40	195.39	40.64	-61.3	-71.1	3.8	7.45e-01	0	29	104	0	86	11292
2026-01-14 22:17:30.40	195.47	40.22	-61.3	-71.0	3.8	7.45e-01	0	29	104	0	86	11221
2026-01-14 22:17:31.40	195.55	39.81	-61.2	-71.0	3.8	7.45e-01	0	29	104	0	86	11200
2026-01-14 22:17:32.40	195.62	39.40	-61.3	-71.0	3.8	7.45e-01	0	29	104	0	86	11197
2026-01-14 22:17:33.40	195.70	39.00	-61.2	-71.0	3.8	7.46e-01	0	29	104	0	86	11197
2026-01-14 22:17:34.40	195.77	38.60	-61.2	-71.0	3.8	7.46e-01	0	29	104	0	86	11160
2026-01-14 22:17:35.40	195.84	38.21	-61.2	-71.0	3.8	7.45e-01	0	29	104	0	86	11191
2026-01-14 22:17:36.39	195.91	37.83	-61.2	-71.0	3.8	7.45e-01	0	29	104	0	86	11165
2026-01-14 22:17:37.39	195.98	37.45	-61.2	-71.0	3.8	7.46e-01	0	29	104	0	86	11170
2026-01-14 22:17:38.38	196.04	37.08	-61.2	-70.9	3.8	7.45e-01	0	29	104	0	86	11151
2026-01-14 22:17:39.38	196.11	36.70	-61.2	-70.9	3.8	7.46e-01	0	29	104	0	86	11111
2026-01-14 22:17:40.38	196.17	36.34	-61.2	-71.0	3.8	7.47e-01	0	29	104	0	86	11171
2026-01-14 22:17:41.39	196.23	35.97	-61.2	-70.9	3.8	7.46e-01	0	29	104	0	86	11116
2026-01-14 22:17:42.38	196.29	35.62	-61.2	-70.9	3.8	7.45e-01	0	29	104	0	86	11142
2026-01-14 22:17:43.39	196.35	35.26	-61.2	-70.9	3.8	7.46e-01	0	29	104	0	86	11137
2026-01-14 22:17:44.39	196.41	34.91	-61.2	-70.9	3.8	7.47e-01	0	29	104	0	86	11104
2026-01-14 22:17:45.39	196.47	34.57	-61.2	-70.9	3.8	7.45e-01	0	29	104	0	86	11140
2026-01-14 22:17:46.38	196.52	34.23	-61.2	-70.9	3.8	7.45e-01	0	29	104	0	86	11099
2026-01-14 22:17:47.37	196.58	33.90	-61.1	-70.9	3.8	7.46e-01	0	29	104	0	86	11072
2026-01-14 22:17:48.37	196.63	33.57	-61.1	-70.9	3.8	7.45e-01	0	29	104	0	86	11042
2026-01-14 22:17:49.37	196.68	33.24	-61.1	-70.9	3.8	7.46e-01	0	29	104	0	86	11054
2026-01-14 22:17:50.37	196.73	32.92	-61.1	-70.9	3.8	7.45e-01	0	29	104	0	86	11036
2026-01-14 22:17:51.37	196.78	32.60	-61.1	-70.9	3.8	7.45e-01	0	29	104	0	86	11035
2026-01-14 22:17:52.36	196.83	32.29	-61.1	-70.9	3.8	7.45e-01	0	29	104	0	86	11050
2026-01-14 22:17:53.36	196.88	31.98	-61.1	-70.8	3.8	7.44e-01	0	29	104	0	86	11008
2026-01-14 22:17:54.35	196.93	31.67	-61.1	-70.8	3.8	7.45e-01	0	29	104	0	86	11021
2026-01-14 22:17:55.34	196.97	31.37	-61.1	-70.8	3.8	7.46e-01	0	29	104	0	86	11006
2026-01-14 22:17:56.34	197.02	31.07	-61.1	-70.8	3.8	7.43e-01	0	29	104	0	86	10948
2026-01-14 22:17:57.33	197.06	30.78	-61.1	-70.8	3.8	7.46e-01	0	29	104	0	86	11023
2026-01-14 22:17:58.33	197.11	30.48	-61.1	-70.8	3.8	7.45e-01	0	29	104	0	86	11028
2026-01-14 22:17:59.33	197.15	30.19	-61.1	-70.8	3.8	7.45e-01	0	29	104	0	86	10964
2026-01-14 22:18:00.33	197.19	29.91	-61.1	-70.8	3.8	7.45e-01	0	29	104	0	86	10978
2026-01-14 22:18:01.33	197.23	29.62	-61.1	-70.8	3.8	7.45e-01	0	29	104	0	86	10977
2026-01-14 22:18:02.33	197.27	29.34	-61.1	-70.8	3.8	7.46e-01	0	29	104	0	86	10988
2026-01-14 22:18:03.32	197.31	29.07	-61.0	-70.8	3.8	7.47e-01	0	29	104	0	86	10941
2026-01-14 22:18:04.32	197.35	28.80	-61.0	-70.7	3.8	7.47e-01	0	29	104	0	86	10902
2026-01-14 22:18:05.32	197.39	28.53	-61.0	-70.8	3.8	7.46e-01	0	29	104	0	86	10921
2026-01-14 22:18:06.32	197.43	28.26	-61.0	-70.8	3.8	7.45e-01	0	29	104	0	86	10921
2026-01-14 22:18:07.31	197.47	28.00	-61.0	-70.7	3.8	7.46e-01	0	29	104	0	86	10863
2026-01-14 22:18:08.30	197.51	27.74	-61.0	-70.8	3.8	7.46e-01	0	29	104	0	86	10945
2026-01-14 22:18:09.30	197.54	27.48	-61.0	-70.8	3.8	7.46e-01	0	29	104	0	86	10929
2026-01-14 22:18:10.29	197.58	27.23	-61.0	-70.7	3.8	7.44e-01	0	29	104	0	86	10864
2026-01-14 22:18:11.29	197.61	26.98	-61.0	-70.7	3.8	7.46e-01	0	29	104	0	86	10861
2026-01-14 22:18:12.29	197.65	26.73	-61.0	-70.8	3.8	7.44e-01	0	29	104	0	86	10904
2026-01-14 22:18:13.28	197.68	26.48	-61.0	-70.7	3.8	7.46e-01	0	29	104	0	86	10864
2026-01-14 22:18:14.29	197.72	26.24	-61.0	-70.7	3.8	7.46e-01	0	29	104	0	86	10857
2026-01-14 22:18:15.29	197.75	25.99	-61.0	-70.7	3.8	7.47e-01	0	29	104	0	86	10872
2026-01-14 22:18:16.28	197.78	25.76	-61.0	-70.7	3.8	7.44e-01	0	29	104	0	86	10826
2026-01-14 22:18:17.27	197.82	25.52	-61.0	-70.7	3.8	7.46e-01	0	29	104	0	86	10833
2026-01-14 22:18:18.27	197.85	25.29	-61.0	-70.7	3.8	7.44e-01	0	29	104	0	86	10858
2026-01-14 22:18:19.27	197.88	25.06	-61.0	-70.7	3.8	7.46e-01	0	29	104	0	86	10850
2026-01-14 22:18:20.26	197.91	24.83	-60.9	-70.7	3.8	7.45e-01	0	29	104	0	86	10793
2026-01-14 22:18:21.26	197.94	24.61	-60.9	-70.7	3.8	7.47e-01	0	29	104	0	86	10805
2026-01-14 22:18:22.25	197.97	24.38	-60.9	-70.7	3.8	7.46e-01	0	29	104	0	86	10807
2026-01-14 22:18:23.25	198.00	24.16	-60.9	-70.7	3.8	7.46e-01	0	29	104	0	86	10791
2026-01-14 22:18:24.25	198.03	23.94	-60.9	-70.7	3.8	7.46e-01	0	29	104	0	86	10793
2026-01-14 22:18:25.24	198.06	23.73	-60.9	-70.6	3.8	7.47e-01	0	29	104	0	86	10760
2026-01-14 22:18:26.24	198.09	23.51	-60.9	-70.6	3.8	7.46e-01	0	29	104	0	86	10760
2026-01-14 22:18:27.23	198.12	23.30	-60.9	-70.6	3.8	7.45e-01	0	29	104	0	86	10764
2026-01-14 22:18:28.23	198.14	23.09	-60.9	-70.6	3.8	7.45e-01	0	29	104	0	86	10684
2026-01-14 22:18:29.23	198.17	22.88	-60.9	-70.6	3.8	7.47e-01	0	29	104	0	86	10767
2026-01-14 22:18:30.22	198.20	22.68	-60.9	-70.6	3.8	7.45e-01	0	29	104	0	86	10722
2026-01-14 22:18:31.22	198.22	22.47	-60.9	-70.6	3.8	7.46e-01	0	29	104	0	86	10742
2026-01-14 22:18:32.21	198.25	22.27	-60.9	-70.6	3.8	7.46e-01	0	29	104	0	86	10700
2026-01-14 22:18:33.21	198.28	22.07	-60.9	-70.6	3.8	7.46e-01	0	29	104	0	86	10726
2026-01-14 22:18:34.21	198.30	21.87	-60.8	-70.6	3.8	7.46e-01	0	29	104	0	86	10680
2026-01-14 22:18:35.20	198.33	21.68	-60.8	-70.6	3.8	7.48e-01	0	29	104	0	86	10706
2026-01-14 22:18:36.20	198.35	21.48	-60.8	-70.6	3.8	7.44e-01	0	29	104	0	86	10664
2026-01-14 22:18:37.20	198.38	21.29	-60.8	-70.5	3.8	7.45e-01	0	29	104	0	86	10645
2026-01-14 22:18:38.21	198.40	21.10	-60.8	-70.6	3.8	7.45e-01	0	29	104	0	86	10676
2026-01-14 22:18:39.20	198.43	20.91	-60.8	-70.6	3.8	7.45e-01	0	29	104	0	86	10662
2026-01-14 22:18:40.19	198.45	20.72	-60.8	-70.5	3.8	7.45e-01	0	29	104	0	86	10633
2026-01-14 22:18:41.19	198.47	20.54	-60.8	-70.6	3.8	7.45e-01	0	29	104	0	86	10662
2026-01-14 22:18:42.19	198.50	20.35	-60.8	-70.6	3.8	7.46e-01	0	29	104	0	86	10673
2026-01-14 22:18:43.19	198.52	20.17	-60.8	-70.5	3.8	7.46e-01	0	29	104	0	86	10646
2026-01-14 22:18:44.19	198.54	19.99	-60.8	-70.5	3.8	7.45e-01	0	29	104	0	86	10634
2026-01-14 22:18:45.19	198.57	19.81	-60.8	-70.5	3.8	7.45e-01	0	29	104	0	86	10634
2026-01-14 22:18:46.19	198.59	19.63	-60.8	-70.5	3.8	7.45e-01	0	29	104	0	86	10622
2026-01-14 22:18:47.18	198.61	19.46	-60.8	-70.5	3.8	7.45e-01	0	29	104	0	86	10586
2026-01-14 22:18:48.18	198.63	19.28	-60.8	-70.5	3.8	7.47e-01	0	29	104	0	86	10604
2026-01-14 22:18:49.18	198.66	19.11	-60.8	-70.5	3.8	7.46e-01	0	29	104	0	86	10627
2026-01-14 22:18:50.17	198.68	18.94	-60.8	-70.5	3.8	7.47e-01	0	29	104	0	86	10588
2026-01-14 22:18:51.16	198.70	18.77	-60.8	-70.5	3.8	7.46e-01	0	29	104	0	86	10568
2026-01-14 22:18:52.16	198.72	18.60	-60.7	-70.5	3.8	7.46e-01	0	29	104	0	86	10555
2026-01-14 22:18:53.16	198.74	18.44	-60.8	-70.5	3.8	7.46e-01	0	29	104	0	86	10573
2026-01-14 22:18:54.16	198.76	18.27	-60.7	-70.5	3.8	7.46e-01	0	29	104	0	86	10562
2026-01-14 22:18:55.15	198.78	18.11	-60.7	-70.5	3.8	7.45e-01	0	29	104	0	86	10540
2026-01-14 22:18:56.16	198.80	17.94	-60.7	-70.4	3.8	7.45e-01	0	29	104	0	86	10471
2026-01-14 22:18:57.16	198.82	17.78	-60.7	-70.4	3.8	7.46e-01	0	29	104	0	86	10531
2026-01-14 22:18:58.16	198.84	17.62	-60.7	-70.4	3.8	7.47e-01	0	29	104	0	86	10460
2026-01-14 22:18:59.16	198.86	17.46	-60.7	-70.5	3.8	7.46e-01	0	29	104	0	86	10538
2026-01-14 22:19:00.16	198.88	17.31	-60.7	-70.4	3.8	7.44e-01	0	29	104	0	86	10494
2026-01-14 22:19:01.15	198.90	17.15	-60.7	-70.4	3.8	7.46e-01	0	29	104	0	85	11065
2026-01-14 22:19:02.15	198.92	17.00	-60.6	-70.4	3.8	7.44e-01	0	29	104	0	85	11053
2026-01-14 22:19:03.14	198.94	16.85	-60.7	-70.4	3.8	7.44e-01	0	29	104	0	85	11068
2026-01-14 22:19:04.14	198.96	16.69	-60.6	-70.4	3.8	7.45e-01	0	29	104	0	85	11045
2026-01-14 22:19:05.14	198.97	16.54	-60.6	-70.3	3.8	7.47e-01	0	29	104	0	85	10994
2026-01-14 22:19:06.14	198.99	16.39	-60.6	-70.3	3.8	7.45e-01	0	29	104	0	85	10996
2026-01-14 22:19:07.13	199.01	16.24	-60.6	-70.4	3.8	7.46e-01	0	29	104	0	85	11059
2026-01-14 22:19:08.13	199.03	16.10	-60.6	-70.3	3.8	7.44e-01	0	29	104	0	85	10983
2026-01-14 22:19:09.12	199.05	15.95	-60.6	-70.3	3.8	7.46e-01	0	29	104	0	85	10996
2026-01-14 22:19:10.13	199.06	15.81	-60.6	-70.3	3.8	7.47e-01	0	29	104	0	85	11004
2026-01-14 22:19:11.13	199.08	15.66	-60.6	-70.3	3.8	7.44e-01	0	29	104	0	85	10997
2026-01-14 22:19:12.12	199.10	15.52	-60.5	-70.3	3.8	7.46e-01	0	29	104	0	85	10947
2026-01-14 22:19:13.12	199.12	15.38	-60.6	-70.3	3.8	7.45e-01	0	29	104	0	85	10952
2026-01-14 22:19:14.12	199.13	15.24	-60.6	-70.3	3.8	7.46e-01	0	29	104	0	85	10948
2026-01-14 22:19:15.12	199.15	15.10	-60.6	-70.3	3.8	7.46e-01	0	29	104	0	85	11003
2026-01-14 22:19:16.11	199.17	14.96	-60.5	-70.3	3.8	7.47e-01	0	29	104	0	85	10954
2026-01-14 22:19:17.11	199.18	14.82	-60.5	-70.3	3.8	7.46e-01	0	29	104	0	85	10975
2026-01-14 22:19:18.10	199.20	14.69	-60.5	-70.3	3.8	7.46e-01	0	29	104	0	85	10910
2026-01-14 22:19:19.10	199.22	14.55	-60.5	-70.3	3.8	7.46e-01	0	29	104	0	85	10970
2026-01-14 22:19:20.09	199.23	14.42	-60.5	-70.3	3.8	7.47e-01	0	29	104	0	85	10954
2026-01-14 22:19:21.10	199.25	14.28	-60.5	-70.3	3.8	7.46e-01	0	29	104	0	85	10916
2026-01-14 22:19:22.09	199.26	14.15	-60.5	-70.2	3.8	7.47e-01	0	29	104	0	85	10825
2026-01-14 22:19:23.09	199.28	14.02	-60.5	-70.2	3.8	7.45e-01	0	29	104	0	85	10879
2026-01-14 22:19:24.08	199.29	13.89	-60.5	-70.2	3.8	7.44e-01	0	29	104	0	85	10869
2026-01-14 22:19:25.08	199.31	13.76	-60.5	-70.2	3.8	7.47e-01	0	29	104	0	85	10891
2026-01-14 22:19:26.07	199.33	13.63	-60.5	-70.2	3.8	7.44e-01	0	29	104	0	85	10827
2026-01-14 22:19:27.07	199.34	13.50	-60.5	-70.2	3.8	7.46e-01	0	29	104	0	85	10877
2026-01-14 22:19:28.06	199.36	13.37	-60.5	-70.2	3.8	7.44e-01	0	29	104	0	85	10859
2026-01-14 22:19:29.06	199.37	13.25	-60.5	-70.2	3.8	7.45e-01	0	29	104	0	85	10861
2026-01-14 22:19:30.06	199.39	13.12	-60.5	-70.1	3.8	7.46e-01	0	29	104	0	85	10777
2026-01-14 22:19:31.06	199.40	13.00	-60.5	-70.2	3.8	7.45e-01	0	29	104	0	85	10873
2026-01-14 22:19:32.06	199.42	12.87	-60.4	-70.2	3.8	7.45e-01	0	29	104	0	85	10815
2026-01-14 22:19:33.06	199.43	12.75	-60.4	-70.2	3.8	7.45e-01	0	29	104	0	85	10826
2026-01-14 22:19:34.05	199.44	12.63	-60.4	-70.1	3.8	7.46e-01	0	29	104	0	85	10777
2026-01-14 22:19:35.05	199.46	12.51	-60.4	-70.2	3.8	7.47e-01	0	29	104	0	85	10807
2026-01-14 22:19:36.05	199.47	12.39	-60.4	-70.1	3.8	7.46e-01	0	29	104	0	85	10741
2026-01-14 22:19:37.05	199.49	12.27	-60.4	-70.2	3.8	7.47e-01	0	29	104	0	85	10789
2026-01-14 22:19:38.05	199.50	12.15	-60.4	-70.1	3.8	7.45e-01	0	29	104	0	85	10739
2026-01-14 22:19:39.05	199.52	12.03	-60.4	-70.2	3.8	7.45e-01	0	29	104	0	85	10784
2026-01-14 22:19:40.05	199.53	11.91	-60.4	-70.1	3.8	7.47e-01	0	29	104	0	85	10731
2026-01-14 22:19:41.04	199.54	11.80	-60.4	-70.1	3.8	7.45e-01	0	29	104	0	85	10719
2026-01-14 22:19:42.04	199.56	11.68	-60.3	-70.1	3.8	7.45e-01	0	29	104	0	85	10718
2026-01-14 22:19:43.03	199.57	11.56	-60.4	-70.1	3.8	7.46e-01	0	29	104	0	85	10727
2026-01-14 22:19:44.03	199.58	11.45	-60.3	-70.1	3.8	7.46e-01	0	29	104	0	85	10689
2026-01-14 22:19:45.03	199.60	11.34	-60.3	-70.1	3.8	7.47e-01	0	29	104	0	85	10680
2026-01-14 22:19:46.02	199.61	11.22	-60.3	-70.0	3.8	7.46e-01	0	29	104	0	85	10652
2026-01-14 22:19:47.02	199.62	11.11	-60.4	-70.1	3.8	7.45e-01	0	29	104	0	85	10694
2026-01-14 22:19:48.03	199.64	11.00	-60.3	-70.0	3.8	7.45e-01	0	29	104	0	85	10651
2026-01-14 22:19:49.02	199.65	10.89	-60.3	-70.0	3.8	7.46e-01	0	29	104	0	85	10644
2026-01-14 22:19:50.02	199.66	10.78	-60.3	-70.0	3.8	7.45e-01	0	29	104	0	85	10629
2026-01-14 22:19:51.02	199.68	10.67	-60.3	-70.1	3.8	7.46e-01	0	29	104	0	85	10697
2026-01-14 22:19:52.02	199.69	10.56	-60.3	-70.0	3.8	7.44e-01	0	29	104	0	85	10601
2026-01-14 22:19:53.02	199.70	10.45	-60.3	-70.0	3.8	7.45e-01	0	29	104	0	85	10599
2026-01-14 22:19:54.02	199.71	10.34	-60.3	-70.0	3.8	7.46e-01	0	29	104	0	85	10586
2026-01-14 22:19:55.02	199.73	10.23	-60.3	-70.1	3.8	7.47e-01	0	29	104	0	85	10694
2026-01-14 22:19:56.02	199.74	10.13	-60.3	-70.0	3.8	7.46e-01	0	29	104	0	85	10557
2026-01-14 22:19:57.01	199.75	10.02	-60.3	-70.0	3.8	7.45e-01	0	29	104	0	85	10573
2026-01-14 22:19:58.01	199.76	9.92	-60.2	-69.9	3.8	7.45e-01	0	29	104	0	85	10511
2026-01-14 22:19:59.01	199.78	9.81	-60.3	-70.0	3.8	7.45e-01	0	29	104	0	85	10608
2026-01-14 22:20:00.01	199.79	9.71	-60.2	-70.0	3.8	7.46e-01	0	29	104	0	85	10563
2026-01-14 22:20:01.01	199.80	9.60	-60.2	-70.0	3.8	7.44e-01	0	29	104	0	85	10556
2026-01-14 22:20:02.01	199.81	9.50	-60.2	-69.9	3.8	7.44e-01	0	29	104	0	85	10508
2026-01-14 22:20:03.00	199.82	9.40	-60.3	-70.0	3.8	7.45e-01	0	29	104	0	85	10562
2026-01-14 22:20:04.01	199.84	9.29	-60.2	-69.9	3.8	7.45e-01	0	29	104	0	85	10518
2026-01-14 22:20:05.00	199.85	9.19	-60.2	-69.9	3.8	7.45e-01	0	29	104	0	85	10503
2026-01-14 22:20:06.01	199.86	9.09	-60.2	-69.9	3.8	7.46e-01	0	29	104	0	84	11078
2026-01-14 22:20:07.01	199.87	8.99	-60.2	-70.0	3.8	7.47e-01	0	29	104	0	84	11160
2026-01-14 22:20:08.00	199.88	8.89	-60.1	-69.9	3.8	7.46e-01	0	29	104	0	84	11048
2026-01-14 22:20:09.00	199.89	8.79	-60.1	-69.9	3.8	7.47e-01	0	29	104	0	84	11114
2026-01-14 22:20:10.00	199.90	8.69	-60.1	-69.9	3.8	7.48e-01	0	29	104	0	84	11048
2026-01-14 22:20:11.00	199.92	8.60	-60.2	-69.9	3.8	7.46e-01	0	29	104	0	84	11133
2026-01-14 22:20:12.00	199.93	8.50	-60.1	-69.9	3.8	7.44e-01	0	29	104	0	84	11065
2026-01-14 22:20:12.99	199.94	8.40	-60.1	-69.9	3.8	7.45e-01	0	29	104	0	84	11062
2026-01-14 22:20:13.99	199.95	8.30	-60.1	-69.8	3.8	7.47e-01	0	29	104	0	84	10955
2026-01-14 22:20:14.99	199.96	8.21	-60.2	-69.9	3.8	7.46e-01	0	29	104	0	84	11089
2026-01-14 22:20:15.98	199.97	8.11	-60.1	-69.8	3.8	7.47e-01	0	29	104	0	84	10942
2026-01-14 22:20:16.98	199.98	8.02	-60.1	-69.8	3.8	7.45e-01	0	29	104	0	84	10974
2026-01-14 22:20:17.98	199.99	7.92	-60.0	-69.8	3.8	7.46e-01	0	29	104	0	84	10962
2026-01-14 22:20:18.98	200.00	7.83	-60.1	-69.9	3.8	7.45e-01	0	29	104	0	84	11065
2026-01-14 22:20:19.99	200.02	7.73	-60.1	-69.8	3.8	7.44e-01	0	29	104	0	84	10964
2026-01-14 22:20:20.98	200.03	7.64	-60.1	-69.8	3.8	7.44e-01	0	29	104	0	84	10967
2026-01-14 22:20:21.98	200.04	7.55	-60.0	-69.7	3.8	7.46e-01	0	29	104	0	84	10894
2026-01-14 22:20:22.97	200.05	7.46	-60.1	-69.8	3.8	7.45e-01	0	29	104	0	84	10984
2026-01-14 22:20:23.96	200.06	7.37	-60.0	-69.7	3.8	7.45e-01	0	29	104	0	84	10892
2026-01-14 22:20:24.95	200.07	7.28	-60.0	-69.7	3.8	7.44e-01	0	29	104	0	84	10872
2026-01-14 22:20:25.95	200.08	7.18	-60.0	-69.7	3.8	7.46e-01	0	29	104	0	84	10827
2026-01-14 22:20:26.95	200.09	7.09	-60.1	-69.8	3.8	7.45e-01	0	29	104	0	84	10952
2026-01-14 22:20:27.95	200.10	7.00	-60.0	-69.7	3.8	7.46e-01	0	29	104	0	84	10831
2026-01-14 22:20:28.95	200.11	6.91	-60.0	-69.7	3.8	7.46e-01	0	29	104	0	84	10835
2026-01-14 22:20:29.94	200.12	6.82	-59.9	-69.6	3.8	7.45e-01	0	29	104	0	84	10743
2026-01-14 22:20:30.93	200.13	6.74	-60.0	-69.7	3.8	7.46e-01	0	29	104	0	84	10864
2026-01-14 22:20:31.92	200.14	6.65	-59.9	-69.6	3.8	7.45e-01	0	29	104	0	84	10766
2026-01-14 22:20:32.92	200.15	6.56	-59.9	-69.7	3.8	7.45e-01	0	29	104	0	84	10831
2026-01-14 22:20:33.91	200.16	6.47	-59.8	-69.6	3.8	7.45e-01	0	29	104	0	84	10674
2026-01-14 22:20:34.91	200.17	6.39	-60.0	-69.7	3.8	7.45e-01	0	29	104	0	84	10866
2026-01-14 22:20:35.91	200.18	6.30	-59.9	-69.6	3.8	7.47e-01	0	29	104	0	84	10731
2026-01-14 22:20:36.91	200.19	6.21	-59.9	-69.6	3.8	7.45e-01	0	29	104	0	84	10715
2026-01-14 22:20:37.91	200.20	6.13	-59.8	-69.6	3.8	7.45e-01	0	29	104	0	84	10656
2026-01-14 22:20:38.90	200.21	6.04	-59.9	-69.7	3.8	7.46e-01	0	29	104	0	84	10843
2026-01-14 22:20:39.90	200.22	5.95	-59.8	-69.5	3.8	7.46e-01	0	29	104	0	84	10651
2026-01-14 22:20:40.89	200.23	5.87	-59.8	-69.5	3.8	7.46e-01	0	29	104	0	84	10624
2026-01-14 22:20:41.90	200.24	5.79	-59.7	-69.5	3.8	7.46e-01	0	30	104	0	84	10554
2026-01-14 22:20:42.90	200.25	5.70	-59.9	-69.6	3.8	7.47e-01	0	29	104	0	84	10745
2026-01-14 22:20:43.91	200.26	5.62	-59.8	-69.5	3.8	7.47e-01	0	30	104	0	84	10576
2026-01-14 22:20:44.90	200.27	5.53	-59.8	-69.5	3.8	7.46e-01	0	29	104	0	84	10647
2026-01-14 22:20:45.91	200.28	5.45	-59.5	-69.3	3.8	7.46e-01	0	29	104	0	83	10908
2026-01-14 22:20:46.92	200.29	5.36	-59.7	-69.4	3.8	7.45e-01	0	29	104	0	83	11116
2026-01-14 22:20:47.91	200.30	5.28	-59.5	-69.3	3.8	7.46e-01	0	29	104	0	83	10908
2026-01-14 22:20:48.91	200.31	5.20	-59.6	-69.3	3.8	7.45e-01	0	29	104	0	83	10981
2026-01-14 22:20:49.91	200.31	5.12	-59.4	-69.2	3.8	7.44e-01	0	29	104	0	83	10811
2026-01-14 22:20:50.91	200.32	5.04	-59.6	-69.4	3.8	7.46e-01	0	29	104	0	83	11083
2026-01-14 22:20:51.91	200.33	4.96	-59.8	-69.6	3.8	7.46e-01	0	29	104	0	83	11302
2026-01-14 22:20:52.91	200.34	4.88	-60.2	-69.9	3.8	7.46e-01	0	29	104	0	83	11792
2026-01-14 22:20:53.91	200.35	4.79	-60.6	-70.3	3.8	7.47e-01	0	29	104	0	84	11668
2026-01-14 22:20:54.91	200.36	4.71	-60.8	-70.5	3.8	7.46e-01	0	29	104	0	84	11903
2026-01-14 22:20:55.91	200.37	4.63	-60.9	-70.7	3.8	7.46e-01	0	29	104	0	84	12110
2026-01-14 22:20:56.90	200.38	4.56	-61.0	-70.8	3.8	7.47e-01	0	29	104	0	85	11580
2026-01-14 22:20:57.90	200.39	4.48	-61.1	-70.9	3.8	7.46e-01	0	29	104	0	85	11719
2026-01-14 22:20:58.90	200.40	4.40	-61.2	-71.0	3.8	7.46e-01	0	29	104	0	85	11853
2026-01-14 22:20:59.90	200.41	4.32	-61.3	-71.0	3.8	7.46e-01	0	29	104	0	85	11944
2026-01-14 22:21:00.90	200.41	4.24	-61.4	-71.1	3.8	7.46e-01	0	29	104	0	85	12029
2026-01-14 22:21:01.89	200.42	4.16	-61.4	-71.1	3.8	7.45e-01	0	30	104	0	85	12069
2026-01-14 22:21:02.89	200.43	4.09	-61.5	-71.2	3.8	7.45e-01	0	29	104	0	86	11458
2026-01-14 22:21:03.89	200.44	4.01	-61.4	-71.2	3.8	7.46e-01	0	29	104	0	86	11473
2026-01-14 22:21:04.89	200.45	3.93	-61.4	-71.1	3.8	7.43e-01	0	29	104	0	86	11396
2026-01-14 22:21:05.90	200.46	3.85	-61.4	-71.1	3.8	7.44e-01	0	29	104	0	86	11409
2026-01-14 22:21:06.91	200.47	3.78	-61.4	-71.1	3.8	7.46e-01	0	29	104	0	86	11366
2026-01-14 22:21:07.92	200.48	3.70	-61.4	-71.1	3.8	7.45e-01	0	29	104	0	86	11404
2026-01-14 22:21:08.92	200.48	3.62	-61.5	-71.2	3.8	7.47e-01	0	29	104	0	86	11522
2026-01-14 22:21:09.93	200.49	3.55	-61.5	-71.2	3.8	7.47e-01	0	29	104	0	86	11472
2026-01-14 22:21:10.93	200.50	3.47	-61.5	-71.2	3.8	7.45e-01	0	29	104	0	86	11540
2026-01-14 22:21:11.93	200.51	3.40	-61.5	-71.3	3.8	7.45e-01	0	29	104	0	86	11580
2026-01-14 22:21:12.92	200.52	3.32	-61.5	-71.2	3.8	7.45e-01	0	29	104	0	86	11535
2026-01-14 22:21:13.92	200.53	3.25	-61.6	-71.3	3.8	7.46e-01	0	29	104	0	86	11683
2026-01-14 22:21:14.92	200.54	3.17	-61.6	-71.4	3.8	7.46e-01	0	29	104	0	86	11728
2026-01-14 22:21:15.91	200.54	3.10	-61.7	-71.4	3.8	7.47e-01	0	29	104	0	86	11703
2026-01-14 22:21:16.90	200.55	3.03	-61.7	-71.4	3.8	7.44e-01	0	29	104	0	86	11739
2026-01-14 22:21:17.90	200.56	2.95	-61.7	-71.4	3.8	7.47e-01	0	29	104	0	86	11770
2026-01-14 22:21:18.90	200.57	2.88	-61.7	-71.4	3.8	7.45e-01	0	29	104	0	86	11817
2026-01-14 22:21:19.90	200.58	2.81	-61.7	-71.5	3.8	7.44e-01	0	29	104	0	86	11848
2026-01-14 22:21:20.90	200.59	2.73	-61.7	-71.5	3.8	7.47e-01	0	29	104	0	86	11846
2026-01-14 22:21:21.90	200.59	2.66	-61.7	-71.4	3.8	7.45e-01	0	29	104	0	86	11737
2026-01-14 22:21:22.90	200.60	2.59	-61.7	-71.4	3.8	7.45e-01	0	29	104	0	86	11781
2026-01-14 22:21:23.89	200.61	2.52	-61.6	-71.4	3.8	7.45e-01	0	29	104	0	86	11756
2026-01-14 22:21:24.89	200.62	2.44	-61.6	-71.4	3.8	7.47e-01	0	29	104	0	86	11753
2026-01-14 22:21:25.89	200.63	2.37	-61.7	-71.4	3.8	7.47e-01	0	29	104	0	86	11809
2026-01-14 22:21:26.88	200.63	2.30	-61.7	-71.5	3.8	7.45e-01	0	29	104	0	86	11855
2026-01-14 22:21:27.86	200.64	2.23	-61.7	-71.4	3.8	7.44e-01	0	29	104	0	86	11802
2026-01-14 22:21:28.86	200.65	2.16	-61.6	-71.4	3.8	7.47e-01	0	29	104	0	86	11703
2026-01-14 22:21:29.86	200.66	2.09	-61.6	-71.4	3.8	7.45e-01	0	29	104	0	86	11706
2026-01-14 22:21:30.86	200.67	2.02	-61.6	-71.3	3.8	7.46e-01	0	29	104	0	86	11658
2026-01-14 22:21:31.87	200.67	1.95	-61.6	-71.4	3.8	7.46e-01	0	29	104	0	86	11684
2026-01-14 22:21:32.87	200.68	1.88	-61.6	-71.4	3.8	7.46e-01	0	29	104	0	86	11686

#Closed at: 2026-01-14 22:21:33
#Recorded file [0 MB]: D:/lorett/data/31004_260115_011058.dat