passes_logs/2026/01/14/R3.2S_Murmansk/R3.2S_Murmansk__20260114_092355_KANOPUS-V_5_rec.log

#Pass ID: 20260114_092355_KANOPUS-V 5
#Satellite: KANOPUS-V 5
#Configuration: KANOPUS-V_8320
#almurnet v.1.7.20251203
#Start time: 2026-01-14 09:23:56

#Version: 2.2.20231116
#Station: R3.2S_Murmansk
#Location: 33.079688 lon 68.888172 lat
#TLE: 1 43876U 18111A   26013.92265638  .00002186  00000+0  94740-4 0  9997
#TLE: 2 43876  97.3685 282.4563 0001771  87.3823 272.7617 15.23432279391301

#Time	Az	El	Level	Level2	SNR	BER	BlckErr	Temp	State	Recorded	gain1	gain2
2026-01-14 09:23:56.11	206.64	2.07	-59.5	-69.2	3.8	7.45e-01	0	26	0	0	83	10801
2026-01-14 09:23:57.11	206.73	2.13	-59.5	-69.2	3.8	7.45e-01	0	26	104	0	83	10784
2026-01-14 09:23:58.10	206.82	2.19	-59.4	-69.2	3.8	7.45e-01	0	26	104	0	83	10823
2026-01-14 09:23:59.10	206.91	2.26	-59.5	-69.2	3.8	7.46e-01	0	26	104	0	83	10792
2026-01-14 09:24:00.09	207.00	2.32	-59.5	-69.2	3.8	7.47e-01	0	26	104	0	83	10808
2026-01-14 09:24:01.08	207.09	2.38	-59.5	-69.2	3.8	7.46e-01	0	26	104	0	83	10805
2026-01-14 09:24:02.07	207.18	2.44	-59.4	-69.2	3.8	7.43e-01	0	26	104	0	83	10787
2026-01-14 09:24:03.06	207.27	2.51	-59.4	-69.2	3.8	7.45e-01	0	26	104	0	83	10797
2026-01-14 09:24:04.05	207.36	2.57	-59.5	-69.1	3.8	7.47e-01	0	26	104	0	83	10718
2026-01-14 09:24:05.05	207.45	2.63	-59.4	-69.2	3.8	7.44e-01	0	26	104	0	83	10836
2026-01-14 09:24:06.04	207.55	2.69	-59.5	-69.2	3.8	7.45e-01	0	27	104	0	83	10839
2026-01-14 09:24:07.04	207.64	2.76	-59.5	-69.2	3.8	7.45e-01	0	27	104	0	83	10845
2026-01-14 09:24:08.02	207.73	2.82	-59.5	-69.2	3.8	7.45e-01	0	27	104	0	83	10837
2026-01-14 09:24:09.01	207.83	2.88	-59.5	-69.2	3.8	7.45e-01	0	27	104	0	83	10825
2026-01-14 09:24:10.00	207.92	2.95	-59.5	-69.2	3.8	7.46e-01	0	27	104	0	83	10817
2026-01-14 09:24:11.00	208.02	3.01	-59.5	-69.1	3.8	7.45e-01	0	26	104	0	83	10761
2026-01-14 09:24:11.99	208.11	3.07	-59.4	-69.2	3.8	7.46e-01	0	27	104	0	83	10811
2026-01-14 09:24:12.99	208.21	3.14	-59.4	-69.1	3.8	7.45e-01	0	27	104	0	83	10757
2026-01-14 09:24:13.98	208.30	3.20	-59.5	-69.2	3.8	7.44e-01	0	27	104	0	83	10815
2026-01-14 09:24:14.97	208.40	3.27	-59.5	-69.2	3.8	7.46e-01	0	27	104	0	83	10800
2026-01-14 09:24:15.97	208.50	3.33	-59.4	-69.2	3.8	7.48e-01	0	27	104	0	83	10801
2026-01-14 09:24:16.97	208.60	3.40	-59.5	-69.2	3.8	7.45e-01	0	27	104	0	83	10807
2026-01-14 09:24:17.97	208.70	3.46	-59.5	-69.2	3.8	7.46e-01	0	27	104	0	83	10858
2026-01-14 09:24:18.97	208.80	3.53	-59.5	-69.2	3.8	7.46e-01	0	27	104	0	83	10812
2026-01-14 09:24:19.97	208.90	3.59	-59.4	-69.1	3.8	7.46e-01	0	27	104	0	83	10760
2026-01-14 09:24:20.97	209.00	3.66	-59.5	-69.1	3.8	7.44e-01	0	27	104	0	83	10776
2026-01-14 09:24:21.97	209.10	3.72	-59.4	-69.1	3.8	7.46e-01	0	27	104	0	83	10695
2026-01-14 09:24:22.96	209.20	3.79	-59.4	-69.1	3.8	7.46e-01	0	27	104	0	83	10670
2026-01-14 09:24:23.95	209.30	3.85	-59.4	-69.0	3.8	7.48e-01	0	27	104	0	83	10577
2026-01-14 09:24:24.95	209.41	3.92	-59.4	-69.0	3.8	7.46e-01	0	27	104	0	83	10549
2026-01-14 09:24:25.94	209.51	3.99	-59.4	-68.9	3.8	7.46e-01	0	27	104	0	83	10466
2026-01-14 09:24:26.94	209.61	4.05	-59.4	-68.9	3.8	7.44e-01	0	27	104	0	83	10481
2026-01-14 09:24:27.93	209.72	4.12	-59.4	-68.9	3.8	7.46e-01	0	27	104	0	83	10478
2026-01-14 09:24:28.92	209.82	4.18	-59.4	-69.1	3.8	7.46e-01	0	27	104	0	83	10706
2026-01-14 09:24:29.91	209.93	4.25	-59.5	-69.1	3.8	7.45e-01	0	27	104	0	83	10764
2026-01-14 09:24:30.90	210.03	4.32	-59.4	-69.0	3.8	7.46e-01	0	27	104	0	83	10639
2026-01-14 09:24:31.89	210.14	4.38	-59.3	-68.5	3.8	7.47e-01	0	27	104	0	83	9979
2026-01-14 09:24:32.87	210.25	4.45	-59.2	-68.2	3.8	7.47e-01	0	27	104	0	83	9610
2026-01-14 09:24:33.87	210.35	4.52	-59.0	-67.4	3.8	7.45e-01	0	27	104	0	82	9317
2026-01-14 09:24:34.86	210.46	4.58	-59.0	-67.2	3.8	7.44e-01	0	27	104	0	82	9089
2026-01-14 09:24:35.86	210.57	4.65	-59.1	-67.7	3.8	7.44e-01	0	27	104	0	82	9673
2026-01-14 09:24:36.86	210.68	4.72	-59.1	-67.6	3.8	7.45e-01	0	27	104	0	82	9560
2026-01-14 09:24:37.86	210.79	4.79	-58.8	-66.7	3.8	7.43e-01	0	27	104	0	82	8647
2026-01-14 09:24:38.85	210.90	4.86	-58.4	-65.4	4.2	7.33e-01	0	27	104	0	81	7820
2026-01-14 09:24:39.85	211.02	4.92	-57.8	-63.8	4.8	7.10e-01	0	27	0	10485760	80	6929
2026-01-14 09:24:40.84	211.13	4.99	-57.3	-62.6	5.5	6.87e-01	0	27	0	25165824	79	6417
2026-01-14 09:24:41.84	211.24	5.06	-59.7	-68.9	3.8	7.45e-01	0	27	104	37748736	82	11119
2026-01-14 09:24:42.84	211.36	5.13	-58.3	-64.9	4.4	7.23e-01	0	27	104	37748736	79	8309
2026-01-14 09:24:43.84	211.47	5.20	-57.2	-62.5	5.6	6.79e-01	0	27	0	39845888	78	6655
2026-01-14 09:24:44.83	211.59	5.27	-59.2	-68.2	3.8	7.46e-01	0	27	104	50331648	81	10883
2026-01-14 09:24:45.84	211.70	5.34	-53.0	-56.1	10.2	6.06e-01	0	27	104	50331648	70	5070
2026-01-14 09:24:46.83	211.82	5.41	-52.5	-55.5	10.8	6.05e-01	0	27	0	62914560	69	5022
2026-01-14 09:24:47.83	211.94	5.48	-52.7	-55.7	10.6	6.04e-01	0	27	0	79691776	69	5140
2026-01-14 09:24:48.82	212.05	5.55	-52.6	-55.6	10.7	6.04e-01	0	27	0	94371840	69	5065
2026-01-14 09:24:49.81	212.17	5.62	-52.4	-55.3	10.9	6.03e-01	0	27	0	109051904	69	4878
2026-01-14 09:24:50.81	212.29	5.69	-52.5	-55.4	10.9	6.04e-01	0	27	0	123731968	69	4939
2026-01-14 09:24:51.81	212.41	5.76	-52.4	-55.3	10.9	6.05e-01	0	27	0	140509184	69	4878
2026-01-14 09:24:52.80	212.53	5.83	-52.6	-55.5	10.8	6.05e-01	0	27	0	155189248	69	4994
2026-01-14 09:24:53.80	212.65	5.90	-52.1	-54.9	11.2	6.00e-01	0	27	0	169869312	68	4935
2026-01-14 09:24:54.79	212.77	5.97	-52.0	-54.8	11.3	6.02e-01	0	27	0	186646528	68	4885
2026-01-14 09:24:55.79	212.90	6.04	-52.3	-55.1	11.0	6.03e-01	0	27	0	201326592	68	5064
2026-01-14 09:24:56.77	213.02	6.11	-52.2	-55.0	11.1	6.01e-01	0	27	0	216006656	68	5011
2026-01-14 09:24:57.77	213.14	6.18	-52.1	-54.8	11.3	6.05e-01	0	27	0	232783872	68	4901
2026-01-14 09:24:58.76	213.27	6.25	-52.2	-55.0	11.2	6.03e-01	0	27	0	247463936	68	4985
2026-01-14 09:24:59.76	213.40	6.32	-52.0	-54.7	11.3	6.01e-01	0	27	0	262144000	68	4870
2026-01-14 09:25:00.75	213.52	6.39	-52.2	-55.0	11.1	6.02e-01	0	27	0	276824064	68	5032
2026-01-14 09:25:01.74	213.65	6.47	-52.4	-55.2	11.0	6.03e-01	0	27	0	293601280	68	5123
2026-01-14 09:25:02.74	213.78	6.54	-52.5	-55.3	10.9	6.08e-01	0	27	0	308281344	68	5202
2026-01-14 09:25:03.73	213.90	6.61	-52.4	-55.2	11.0	6.03e-01	0	27	0	322961408	68	5151
2026-01-14 09:25:04.71	214.03	6.68	-52.0	-54.7	11.4	6.04e-01	0	27	0	337641472	68	4845
2026-01-14 09:25:05.71	214.16	6.75	-52.0	-54.8	11.3	6.08e-01	0	27	0	352321536	68	4873
2026-01-14 09:25:06.71	214.29	6.83	-51.7	-54.4	11.6	6.04e-01	0	27	0	369098752	68	4667
2026-01-14 09:25:07.71	214.43	6.90	-52.1	-54.9	11.3	6.04e-01	0	27	0	383778816	68	4954
2026-01-14 09:25:08.70	214.56	6.97	-51.6	-54.3	11.7	6.03e-01	0	28	0	398458880	67	4896
2026-01-14 09:25:09.71	214.69	7.05	-52.0	-54.7	11.3	6.03e-01	0	27	0	415236096	67	5151
2026-01-14 09:25:10.70	214.83	7.12	-51.8	-54.6	11.5	6.05e-01	0	27	0	429916160	67	5044
2026-01-14 09:25:11.69	214.96	7.19	-52.0	-54.8	11.3	6.00e-01	0	27	0	444596224	67	5176
2026-01-14 09:25:12.69	215.10	7.27	-52.0	-54.8	11.3	6.07e-01	0	27	0	461373440	67	5172
2026-01-14 09:25:13.68	215.24	7.34	-51.9	-54.6	11.4	6.05e-01	0	27	0	476053504	67	5092
2026-01-14 09:25:14.68	215.37	7.42	-51.7	-54.4	11.6	6.05e-01	0	27	0	490733568	67	4956
2026-01-14 09:25:15.67	215.51	7.49	-51.6	-54.4	11.7	6.04e-01	0	27	0	507510784	67	4952
2026-01-14 09:25:16.66	215.65	7.56	-51.5	-54.3	11.7	6.03e-01	0	27	0	522190848	67	4887
2026-01-14 09:25:17.66	215.79	7.64	-51.6	-54.4	11.6	5.97e-01	0	27	0	536870912	67	4966
2026-01-14 09:25:18.66	215.93	7.71	-51.7	-54.5	11.6	6.05e-01	0	27	0	551550976	67	5007
2026-01-14 09:25:19.65	216.07	7.79	-51.4	-54.2	11.8	6.04e-01	0	27	0	568328192	67	4832
2026-01-14 09:25:20.64	216.22	7.86	-51.5	-54.4	11.7	6.02e-01	0	28	0	583008256	67	4931
2026-01-14 09:25:21.64	216.36	7.94	-51.5	-54.4	11.7	6.01e-01	0	27	0	597688320	67	4936
2026-01-14 09:25:22.64	216.51	8.01	-51.5	-54.3	11.7	6.04e-01	0	27	0	614465536	67	4924
2026-01-14 09:25:23.63	216.65	8.09	-51.4	-54.2	11.8	6.04e-01	0	28	0	629145600	67	4857
2026-01-14 09:25:24.63	216.80	8.17	-51.5	-54.3	11.8	5.99e-01	0	28	0	643825664	67	4908
2026-01-14 09:25:25.63	216.95	8.24	-51.4	-54.2	11.8	6.05e-01	0	28	0	660602880	67	4855
2026-01-14 09:25:26.61	217.09	8.32	-51.3	-54.1	11.9	6.06e-01	0	27	0	675282944	67	4762
2026-01-14 09:25:27.62	217.24	8.39	-51.2	-54.1	11.9	6.04e-01	0	27	0	689963008	66	5050
2026-01-14 09:25:28.61	217.39	8.47	-51.2	-54.0	11.9	6.01e-01	0	27	0	704643072	66	5015
2026-01-14 09:25:29.60	217.54	8.55	-51.2	-54.1	11.9	6.06e-01	0	28	0	721420288	66	5073
2026-01-14 09:25:30.59	217.70	8.62	-51.1	-54.0	12.0	6.03e-01	0	28	0	736100352	66	4991
2026-01-14 09:25:31.59	217.85	8.70	-51.2	-54.0	11.9	6.04e-01	0	28	0	750780416	66	5024
2026-01-14 09:25:32.59	218.00	8.78	-51.2	-54.0	11.9	6.02e-01	0	28	0	765460480	66	5036
2026-01-14 09:25:33.58	218.16	8.85	-51.1	-53.9	12.0	6.02e-01	0	27	0	782237696	66	4949
2026-01-14 09:25:34.58	218.32	8.93	-51.0	-53.7	12.1	6.03e-01	0	28	0	796917760	66	4856
2026-01-14 09:25:35.57	218.47	9.01	-51.0	-53.7	12.1	6.01e-01	0	28	0	811597824	66	4841
2026-01-14 09:25:36.57	218.63	9.09	-50.9	-53.7	12.1	6.02e-01	0	28	0	828375040	66	4835
2026-01-14 09:25:37.56	218.79	9.16	-50.9	-53.6	12.2	6.04e-01	0	27	0	843055104	66	4814
2026-01-14 09:25:38.55	218.95	9.24	-50.7	-53.4	12.3	6.08e-01	0	28	0	857735168	66	4683
2026-01-14 09:25:39.55	219.11	9.32	-50.6	-53.4	12.3	6.08e-01	0	28	0	872415232	65	4936
2026-01-14 09:25:40.54	219.27	9.40	-50.7	-53.4	12.2	6.06e-01	0	28	0	889192448	65	4980
2026-01-14 09:25:41.52	219.43	9.48	-50.7	-53.5	12.2	6.06e-01	0	28	0	903872512	65	5026
2026-01-14 09:25:42.51	219.60	9.55	-50.6	-53.4	12.3	6.10e-01	0	28	0	918552576	65	4956
2026-01-14 09:25:43.50	219.76	9.63	-50.6	-53.3	12.3	6.10e-01	0	28	0	933232640	65	4919
2026-01-14 09:25:44.50	219.93	9.71	-50.5	-53.3	12.4	6.07e-01	0	28	0	950009856	65	4883
2026-01-14 09:25:45.48	220.09	9.79	-50.5	-53.2	12.4	6.07e-01	0	28	0	964689920	65	4861
2026-01-14 09:25:46.47	220.26	9.87	-50.5	-53.3	12.4	6.07e-01	0	28	0	979369984	65	4872
2026-01-14 09:25:47.47	220.43	9.95	-50.5	-53.2	12.4	6.04e-01	0	28	0	996147200	65	4866
2026-01-14 09:25:48.47	220.60	10.03	-50.6	-53.3	12.3	5.98e-01	0	27	0	1010827264	65	4886
2026-01-14 09:25:49.45	220.77	10.11	-50.4	-53.2	12.5	6.07e-01	0	28	0	1025507328	65	4820
2026-01-14 09:25:50.45	220.95	10.19	-50.6	-53.3	12.4	6.00e-01	0	28	0	1040187392	65	4912
2026-01-14 09:25:51.45	221.12	10.27	-50.5	-53.3	12.4	6.03e-01	0	28	0	1056964608	65	4874
2026-01-14 09:25:52.44	221.30	10.35	-50.6	-53.4	12.3	6.03e-01	0	28	0	1071644672	65	4958
2026-01-14 09:25:53.44	221.47	10.43	-50.6	-53.4	12.3	6.01e-01	0	28	0	1086324736	65	4934
2026-01-14 09:25:54.43	221.65	10.51	-50.6	-53.4	12.3	6.04e-01	0	28	0	1103101952	65	4948
2026-01-14 09:25:55.43	221.83	10.59	-50.5	-53.2	12.4	6.05e-01	0	28	0	1117782016	65	4832
2026-01-14 09:25:56.43	222.01	10.67	-50.5	-53.1	12.5	6.04e-01	0	28	0	1132462080	65	4810
2026-01-14 09:25:57.42	222.19	10.75	-50.3	-52.9	12.6	6.02e-01	0	28	0	1147142144	65	4694
2026-01-14 09:25:58.40	222.37	10.83	-50.3	-52.9	12.6	6.01e-01	0	28	0	1161822208	65	4665
2026-01-14 09:25:59.39	222.55	10.91	-50.2	-52.8	12.7	6.00e-01	0	28	0	1178599424	65	4633
2026-01-14 09:26:00.39	222.74	11.00	-50.0	-52.6	12.7	6.06e-01	0	28	0	1193279488	64	4790
2026-01-14 09:26:01.38	222.92	11.08	-50.1	-52.7	12.7	6.00e-01	0	28	0	1207959552	64	4825
2026-01-14 09:26:02.38	223.11	11.16	-50.0	-52.6	12.7	6.04e-01	0	28	0	1224736768	64	4801
2026-01-14 09:26:03.37	223.30	11.24	-50.1	-52.7	12.7	6.02e-01	0	28	0	1239416832	64	4861
2026-01-14 09:26:04.37	223.49	11.32	-50.0	-52.6	12.7	6.02e-01	0	28	0	1254096896	64	4798
2026-01-14 09:26:05.36	223.68	11.40	-50.0	-52.6	12.7	5.99e-01	0	28	0	1268776960	64	4799
2026-01-14 09:26:06.34	223.87	11.48	-50.1	-52.6	12.7	6.01e-01	0	28	0	1285554176	64	4807
2026-01-14 09:26:07.35	224.07	11.57	-50.1	-52.6	12.7	6.00e-01	0	28	0	1300234240	64	4789
2026-01-14 09:26:08.34	224.26	11.65	-49.9	-52.4	12.9	6.00e-01	0	28	0	1314914304	64	4684
2026-01-14 09:26:09.35	224.46	11.73	-49.8	-52.3	12.9	6.03e-01	0	28	0	1331691520	64	4603
2026-01-14 09:26:10.35	224.66	11.82	-49.8	-52.4	12.9	6.02e-01	0	28	0	1346371584	64	4653
2026-01-14 09:26:11.35	224.86	11.90	-49.8	-52.3	12.9	6.00e-01	0	28	0	1361051648	64	4642
2026-01-14 09:26:12.35	225.06	11.98	-49.8	-52.4	12.9	6.03e-01	0	28	0	1377828864	64	4671
2026-01-14 09:26:13.34	225.26	12.07	-49.8	-52.4	12.8	6.05e-01	0	28	0	1392508928	64	4678
2026-01-14 09:26:14.34	225.46	12.15	-49.7	-52.3	12.9	6.04e-01	0	28	0	1407188992	64	4615
2026-01-14 09:26:15.34	225.67	12.23	-49.7	-52.3	12.9	6.03e-01	0	28	0	1423966208	64	4632
2026-01-14 09:26:16.33	225.87	12.31	-49.7	-52.4	12.9	6.04e-01	0	28	0	1438646272	64	4654
2026-01-14 09:26:17.33	226.08	12.40	-49.7	-52.3	12.9	6.03e-01	0	28	0	1453326336	63	4875
2026-01-14 09:26:18.33	226.29	12.48	-49.7	-52.3	12.8	6.03e-01	0	28	0	1470103552	63	4919
2026-01-14 09:26:19.33	226.50	12.57	-49.7	-52.3	12.8	6.02e-01	0	28	0	1484783616	63	4917
2026-01-14 09:26:20.32	226.71	12.65	-49.7	-52.4	12.9	6.02e-01	0	28	0	1499463680	63	4933
2026-01-14 09:26:21.32	226.92	12.73	-49.8	-52.5	12.8	6.03e-01	0	28	0	1516240896	63	5008
2026-01-14 09:26:22.32	227.14	12.82	-49.9	-52.5	12.7	6.04e-01	0	28	0	1530920960	63	5040
2026-01-14 09:26:23.30	227.35	12.90	-49.7	-52.3	12.9	5.99e-01	0	28	0	1545601024	63	4921
2026-01-14 09:26:24.30	227.57	12.98	-49.6	-52.3	12.9	6.01e-01	0	28	0	1560281088	63	4904
2026-01-14 09:26:25.29	227.79	13.07	-49.7	-52.3	12.9	6.04e-01	0	28	0	1574961152	63	4893
2026-01-14 09:26:26.28	228.01	13.15	-49.7	-52.3	12.9	6.03e-01	0	28	0	1591738368	63	4885
2026-01-14 09:26:27.28	228.23	13.23	-49.5	-52.1	13.0	6.04e-01	0	28	0	1606418432	63	4783
2026-01-14 09:26:28.27	228.45	13.32	-49.5	-52.1	13.0	6.03e-01	0	28	0	1621098496	63	4773
2026-01-14 09:26:29.26	228.67	13.40	-49.7	-52.3	12.9	6.02e-01	0	28	0	1635778560	63	4902
2026-01-14 09:26:30.26	228.90	13.49	-49.6	-52.3	12.9	6.00e-01	0	28	0	1652555776	63	4917
2026-01-14 09:26:31.25	229.13	13.57	-49.6	-52.3	12.9	5.99e-01	0	28	0	1667235840	63	4921
2026-01-14 09:26:32.25	229.36	13.65	-49.6	-52.4	12.9	5.99e-01	0	28	0	1681915904	63	4946
2026-01-14 09:26:33.24	229.58	13.74	-49.6	-52.4	12.9	6.01e-01	0	28	0	1698693120	63	4955
2026-01-14 09:26:34.24	229.82	13.82	-49.6	-52.4	12.8	6.02e-01	0	28	0	1713373184	63	4974
2026-01-14 09:26:35.23	230.05	13.91	-49.5	-52.2	13.0	6.02e-01	0	28	0	1728053248	63	4868
2026-01-14 09:26:36.22	230.28	13.99	-49.4	-52.2	13.0	6.02e-01	0	28	0	1744830464	63	4829
2026-01-14 09:26:37.21	230.52	14.07	-49.4	-52.2	13.0	6.02e-01	0	28	0	1759510528	63	4855
2026-01-14 09:26:38.21	230.76	14.16	-49.3	-52.2	13.0	6.00e-01	0	28	0	1774190592	63	4853
2026-01-14 09:26:39.20	231.00	14.24	-49.3	-52.2	13.0	6.00e-01	0	28	0	1788870656	63	4826
2026-01-14 09:26:40.19	231.24	14.32	-49.3	-52.1	13.1	6.01e-01	0	28	0	1805647872	63	4782
2026-01-14 09:26:41.19	231.48	14.41	-49.2	-51.9	13.2	6.02e-01	0	28	0	1820327936	63	4686
2026-01-14 09:26:42.18	231.72	14.49	-49.2	-51.8	13.1	6.03e-01	0	28	0	1835008000	62	4922
2026-01-14 09:26:43.17	231.97	14.58	-49.2	-51.9	13.1	6.02e-01	0	28	0	1851785216	62	4941
2026-01-14 09:26:44.16	232.21	14.66	-49.2	-51.9	13.0	6.03e-01	0	28	0	1866465280	62	4972
2026-01-14 09:26:45.15	232.46	14.74	-49.2	-51.8	13.1	6.02e-01	0	28	0	1881145344	62	4911
2026-01-14 09:26:46.15	232.71	14.83	-49.1	-51.7	13.2	6.01e-01	0	28	0	1895825408	62	4833
2026-01-14 09:26:47.14	232.97	14.91	-49.2	-51.7	13.1	6.03e-01	0	28	0	1910505472	62	4843
2026-01-14 09:26:48.15	233.22	14.99	-49.0	-51.5	13.2	6.03e-01	0	28	0	1927282688	62	4723
2026-01-14 09:26:49.15	233.48	15.08	-48.9	-51.5	13.3	6.02e-01	0	28	0	1941962752	62	4708
2026-01-14 09:26:50.14	233.74	15.16	-48.8	-51.3	13.4	6.02e-01	0	28	0	1956642816	62	4642
2026-01-14 09:26:51.14	234.00	15.25	-48.8	-51.3	13.4	6.00e-01	0	28	0	1973420032	62	4617
2026-01-14 09:26:52.14	234.26	15.33	-48.8	-51.3	13.4	6.04e-01	0	28	0	1988100096	62	4601
2026-01-14 09:26:53.14	234.52	15.41	-48.8	-51.3	13.4	6.02e-01	0	28	0	2002780160	62	4628
2026-01-14 09:26:54.13	234.79	15.49	-48.9	-51.4	13.4	6.00e-01	0	28	0	2019557376	62	4665
2026-01-14 09:26:55.13	235.05	15.58	-48.8	-51.3	13.4	6.02e-01	0	28	0	2034237440	62	4649
2026-01-14 09:26:56.12	235.32	15.66	-48.8	-51.3	13.4	6.02e-01	0	28	0	2048917504	62	4627
2026-01-14 09:26:57.12	235.59	15.74	-48.8	-51.4	13.4	6.02e-01	0	28	0	2065694720	62	4657
2026-01-14 09:26:58.11	235.86	15.82	-48.9	-51.5	13.3	6.01e-01	0	28	0	2080374784	62	4737
2026-01-14 09:26:59.10	236.13	15.91	-49.0	-51.7	13.2	6.02e-01	0	28	0	2095054848	62	4819
2026-01-14 09:27:00.10	236.41	15.99	-49.1	-51.8	13.1	6.02e-01	0	28	0	2109734912	62	4911
2026-01-14 09:27:01.10	236.68	16.07	-49.1	-52.0	13.1	6.02e-01	0	28	0	2126512128	62	4987
2026-01-14 09:27:02.09	236.96	16.15	-49.2	-52.0	13.0	6.03e-01	0	28	0	2141192192	62	5033
2026-01-14 09:27:03.08	237.24	16.23	-49.3	-52.2	13.0	6.04e-01	0	28	0	2155872256	62	5149
2026-01-14 09:27:04.07	237.52	16.31	-49.3	-52.2	12.9	6.01e-01	0	28	0	2172649472	62	5152
2026-01-14 09:27:05.07	237.80	16.39	-49.3	-52.2	12.9	6.05e-01	0	28	0	2187329536	62	5142
2026-01-14 09:27:06.07	238.09	16.47	-49.3	-52.2	13.0	6.02e-01	0	28	0	2202009600	62	5103
2026-01-14 09:27:07.06	238.37	16.55	-49.4	-52.1	13.0	6.03e-01	0	28	0	2216689664	62	5068
2026-01-14 09:27:08.05	238.66	16.63	-49.3	-51.9	13.1	6.02e-01	0	28	0	2233466880	62	4976
2026-01-14 09:27:09.04	238.95	16.71	-49.0	-51.6	13.3	6.03e-01	0	28	0	2248146944	62	4793
2026-01-14 09:27:10.03	239.24	16.79	-48.7	-51.3	13.4	6.03e-01	0	28	0	2262827008	62	4630
2026-01-14 09:27:11.03	239.54	16.87	-48.6	-51.1	13.4	6.03e-01	0	28	0	2279604224	61	4807
2026-01-14 09:27:12.02	239.83	16.95	-48.7	-51.3	13.3	6.03e-01	0	28	0	2294284288	61	4886
2026-01-14 09:27:13.01	240.13	17.03	-48.7	-51.4	13.3	6.03e-01	0	28	0	2308964352	61	4928
2026-01-14 09:27:14.01	240.43	17.11	-48.8	-51.6	13.2	6.03e-01	0	28	0	2323644416	61	5043
2026-01-14 09:27:15.01	240.73	17.19	-48.8	-51.7	13.2	6.03e-01	0	28	0	2338324480	61	5101
2026-01-14 09:27:16.00	241.03	17.26	-48.8	-51.6	13.2	6.06e-01	0	28	0	2355101696	61	5084
2026-01-14 09:27:16.99	241.33	17.34	-48.8	-51.6	13.2	6.03e-01	0	28	0	2369781760	61	5095
2026-01-14 09:27:17.99	241.64	17.42	-49.0	-51.7	13.1	6.06e-01	0	28	0	2384461824	61	5121
2026-01-14 09:27:18.98	241.95	17.49	-49.1	-51.8	13.1	5.96e-01	0	28	0	2401239040	61	5171
2026-01-14 09:27:19.97	242.25	17.57	-48.9	-51.4	13.2	6.05e-01	0	28	0	2415919104	61	4979
2026-01-14 09:27:20.97	242.57	17.64	-48.7	-51.2	13.3	6.03e-01	0	28	0	2430599168	61	4857
2026-01-14 09:27:21.96	242.88	17.72	-48.6	-51.1	13.4	6.04e-01	0	28	0	2445279232	61	4767
2026-01-14 09:27:22.95	243.19	17.79	-48.5	-51.0	13.5	6.02e-01	0	28	0	2462056448	61	4738
2026-01-14 09:27:23.95	243.51	17.87	-48.4	-50.9	13.5	6.02e-01	0	28	0	2476736512	61	4680
2026-01-14 09:27:24.95	243.83	17.94	-48.5	-51.0	13.5	6.03e-01	0	28	0	2491416576	61	4723
2026-01-14 09:27:25.94	244.15	18.01	-48.5	-51.1	13.4	6.02e-01	0	28	0	2508193792	61	4792
2026-01-14 09:27:26.93	244.47	18.09	-48.6	-51.2	13.4	6.02e-01	0	28	0	2522873856	61	4842
2026-01-14 09:27:27.93	244.80	18.16	-48.6	-51.2	13.4	6.03e-01	0	28	0	2537553920	61	4853
2026-01-14 09:27:28.93	245.12	18.23	-48.5	-51.1	13.4	6.04e-01	0	28	0	2554331136	61	4797
2026-01-14 09:27:29.92	245.45	18.30	-48.6	-51.2	13.4	6.05e-01	0	28	0	2569011200	61	4853
2026-01-14 09:27:30.91	245.78	18.37	-48.6	-51.4	13.3	6.05e-01	0	28	0	2583691264	61	4932
2026-01-14 09:27:31.90	246.10	18.44	-48.7	-51.5	13.2	6.04e-01	0	28	0	2598371328	61	5030
2026-01-14 09:27:32.90	246.44	18.51	-48.8	-51.7	13.1	6.04e-01	0	28	0	2615148544	61	5134
2026-01-14 09:27:33.89	246.77	18.58	-48.9	-51.9	13.1	6.04e-01	0	28	0	2629828608	61	5242
2026-01-14 09:27:34.88	247.10	18.65	-49.0	-52.0	13.0	6.04e-01	0	28	0	2644508672	61	5289
2026-01-14 09:27:35.88	247.44	18.71	-49.0	-52.0	13.0	6.03e-01	0	28	0	2661285888	61	5302
2026-01-14 09:27:36.87	247.78	18.78	-49.1	-52.0	13.0	6.05e-01	0	28	0	2675965952	61	5304
2026-01-14 09:27:37.86	248.12	18.85	-49.0	-51.9	13.0	6.04e-01	0	28	0	2690646016	61	5265
2026-01-14 09:27:38.85	248.46	18.91	-48.7	-51.7	13.2	6.04e-01	0	28	0	2705326080	61	5137
2026-01-14 09:27:39.84	248.80	18.98	-48.6	-51.5	13.3	6.04e-01	0	28	0	2720006144	61	5030
2026-01-14 09:27:40.83	249.15	19.04	-48.6	-51.4	13.4	6.02e-01	0	28	0	2736783360	61	4981
2026-01-14 09:27:41.82	249.49	19.10	-48.6	-51.4	13.4	6.06e-01	0	28	0	2751463424	61	4932
2026-01-14 09:27:42.82	249.84	19.17	-48.6	-51.4	13.3	6.04e-01	0	28	0	2766143488	61	4980
2026-01-14 09:27:43.82	250.20	19.23	-48.6	-51.4	13.3	6.04e-01	0	28	0	2782920704	61	4956
2026-01-14 09:27:44.82	250.55	19.29	-48.5	-51.4	13.4	6.05e-01	0	28	0	2797600768	61	4937
2026-01-14 09:27:45.80	250.90	19.35	-48.5	-51.4	13.4	6.05e-01	0	28	0	2812280832	61	4933
2026-01-14 09:27:46.79	251.25	19.41	-48.4	-51.3	13.4	6.04e-01	0	28	0	2826960896	61	4892
2026-01-14 09:27:47.79	251.61	19.47	-48.5	-51.4	13.4	6.03e-01	0	28	0	2843738112	61	4930
2026-01-14 09:27:48.79	251.97	19.53	-48.4	-51.2	13.4	6.05e-01	0	28	0	2858418176	61	4852
2026-01-14 09:27:49.79	252.33	19.58	-48.4	-51.2	13.4	6.03e-01	0	28	0	2873098240	61	4858
2026-01-14 09:27:50.78	252.69	19.64	-48.4	-51.2	13.4	6.04e-01	0	28	0	2889875456	61	4850
2026-01-14 09:27:51.78	253.06	19.70	-48.4	-51.3	13.4	6.02e-01	0	28	0	2904555520	61	4886
2026-01-14 09:27:52.77	253.42	19.75	-48.5	-51.4	13.4	6.02e-01	0	28	0	2919235584	61	4938
2026-01-14 09:27:53.77	253.79	19.80	-48.6	-51.3	13.3	6.04e-01	0	28	0	2936012800	61	4912
2026-01-14 09:27:54.76	254.16	19.86	-48.6	-51.3	13.4	6.05e-01	0	28	0	2950692864	61	4905
2026-01-14 09:27:55.76	254.53	19.91	-48.7	-51.3	13.4	6.04e-01	0	28	0	2965372928	61	4912
2026-01-14 09:27:56.76	254.90	19.96	-48.6	-51.2	13.4	6.03e-01	0	28	0	2980052992	61	4856
2026-01-14 09:27:57.77	255.28	20.01	-48.7	-51.3	13.4	6.04e-01	0	28	0	2996830208	61	4881
2026-01-14 09:27:58.76	255.65	20.06	-48.5	-51.1	13.5	6.04e-01	0	28	0	3011510272	61	4772
2026-01-14 09:27:59.76	256.02	20.11	-48.5	-51.1	13.5	6.04e-01	0	28	0	3026190336	61	4771
2026-01-14 09:28:00.74	256.39	20.15	-48.3	-51.0	13.5	6.03e-01	0	28	0	3042967552	61	4712
2026-01-14 09:28:01.74	256.77	20.20	-48.3	-51.0	13.6	6.04e-01	0	28	0	3057647616	61	4712
2026-01-14 09:28:02.73	257.15	20.25	-48.2	-50.9	13.6	6.02e-01	0	28	0	3072327680	61	4690
2026-01-14 09:28:03.73	257.53	20.29	-48.3	-51.0	13.5	6.03e-01	0	28	0	3089104896	61	4753
2026-01-14 09:28:04.72	257.91	20.33	-48.2	-51.0	13.6	6.03e-01	0	28	0	3103784960	61	4738
2026-01-14 09:28:05.71	258.29	20.37	-48.3	-51.1	13.5	6.05e-01	0	28	0	3118465024	61	4812
2026-01-14 09:28:06.71	258.67	20.42	-48.4	-51.2	13.5	6.04e-01	0	28	0	3133145088	61	4838
2026-01-14 09:28:07.71	259.06	20.46	-48.5	-51.2	13.4	6.06e-01	0	28	0	3147825152	61	4837
2026-01-14 09:28:08.71	259.44	20.49	-48.5	-51.2	13.4	6.03e-01	0	28	0	3164602368	61	4850
2026-01-14 09:28:09.71	259.83	20.53	-48.5	-51.3	13.4	6.03e-01	0	28	0	3179282432	61	4874
2026-01-14 09:28:10.70	260.22	20.57	-48.6	-51.5	13.3	6.03e-01	0	28	0	3193962496	61	4996
2026-01-14 09:28:11.70	260.61	20.60	-48.6	-51.6	13.3	6.05e-01	0	28	0	3210739712	61	5042
2026-01-14 09:28:12.70	261.00	20.64	-48.6	-51.5	13.3	6.03e-01	0	28	0	3225419776	61	5012
2026-01-14 09:28:13.69	261.39	20.67	-48.6	-51.5	13.3	6.03e-01	0	28	0	3240099840	61	4991
2026-01-14 09:28:14.68	261.78	20.70	-48.7	-51.5	13.2	6.03e-01	0	28	0	3256877056	61	4993
2026-01-14 09:28:15.68	262.17	20.74	-48.6	-51.4	13.3	6.03e-01	0	28	0	3271557120	61	4941
2026-01-14 09:28:16.68	262.57	20.77	-48.7	-51.5	13.3	6.02e-01	0	28	0	3286237184	61	5026
2026-01-14 09:28:17.67	262.96	20.79	-48.7	-51.6	13.3	6.02e-01	0	28	0	3303014400	61	5057
2026-01-14 09:28:18.67	263.35	20.82	-48.8	-51.7	13.2	6.06e-01	0	28	0	3317694464	61	5115
2026-01-14 09:28:19.66	263.75	20.85	-48.6	-51.5	13.3	6.07e-01	0	28	0	3332374528	61	5012
2026-01-14 09:28:20.66	264.14	20.87	-48.7	-51.5	13.3	6.08e-01	0	28	0	3347054592	61	5019
2026-01-14 09:28:21.65	264.54	20.90	-48.6	-51.4	13.4	6.03e-01	0	28	0	3363831808	61	4936
2026-01-14 09:28:22.65	264.94	20.92	-48.5	-51.3	13.4	6.06e-01	0	28	0	3378511872	61	4878
2026-01-14 09:28:23.65	265.34	20.94	-48.4	-51.1	13.5	6.07e-01	0	28	0	3393191936	61	4808
2026-01-14 09:28:24.64	265.73	20.96	-48.4	-51.2	13.5	6.05e-01	0	28	0	3409969152	61	4849
2026-01-14 09:28:25.63	266.13	20.98	-48.5	-51.3	13.4	5.76e-01	0	28	0	3424649216	61	4922
2026-01-14 09:28:26.62	266.53	21.00	-48.6	-51.5	13.3	5.77e-01	0	28	0	3439329280	61	5004
2026-01-14 09:28:27.62	266.93	21.01	-48.5	-51.5	13.4	5.75e-01	0	28	0	3456106496	61	4994
2026-01-14 09:28:28.62	267.33	21.03	-48.6	-51.5	13.3	5.76e-01	0	28	0	3470786560	61	5020
2026-01-14 09:28:29.61	267.73	21.04	-48.5	-51.4	13.3	5.76e-01	0	28	0	3485466624	61	4949
2026-01-14 09:28:30.60	268.13	21.05	-48.6	-51.4	13.3	5.77e-01	0	28	0	3500146688	61	4980
2026-01-14 09:28:31.59	268.53	21.06	-48.6	-51.5	13.3	5.77e-01	0	28	0	3516923904	61	4990
2026-01-14 09:28:32.60	268.94	21.07	-48.8	-51.7	13.2	5.77e-01	0	28	0	3531603968	61	5114
2026-01-14 09:28:33.59	269.34	21.08	-49.0	-51.9	13.1	5.77e-01	0	28	0	3546284032	61	5246
2026-01-14 09:28:34.58	269.74	21.09	-48.8	-51.7	13.2	5.78e-01	0	28	0	3560964096	61	5155
2026-01-14 09:28:35.57	270.14	21.10	-50.4	-51.7	13.0	5.76e-01	0	28	0	3577741312	63	4564
2026-01-14 09:28:36.57	270.54	21.10	-50.5	-51.8	13.0	5.75e-01	0	28	0	3592421376	64	4349
2026-01-14 09:28:37.57	270.95	21.11	-60.6	-70.4	3.8	7.45e-01	0	28	104	3596615680	84	11749
2026-01-14 09:28:38.56	271.35	21.11	-60.6	-70.4	3.8	7.44e-01	0	28	104	3596615680	84	11734
2026-01-14 09:28:39.55	271.75	21.11	-60.6	-70.4	3.8	7.45e-01	0	28	104	3596615680	84	11712
2026-01-14 09:28:40.56	272.16	21.11	-60.7	-70.4	3.8	7.46e-01	0	28	104	3596615680	84	11795
2026-01-14 09:28:41.55	272.56	21.11	-60.6	-70.4	3.8	7.46e-01	0	28	104	3596615680	84	11736
2026-01-14 09:28:42.56	272.97	21.10	-60.7	-70.4	3.8	7.46e-01	0	28	104	3596615680	84	11773
2026-01-14 09:28:43.56	273.37	21.10	-60.7	-70.4	3.8	7.47e-01	0	28	104	3596615680	84	11753
2026-01-14 09:28:44.57	273.78	21.09	-60.7	-70.4	3.8	7.46e-01	0	28	104	3596615680	84	11781
2026-01-14 09:28:45.56	274.18	21.09	-60.6	-70.4	3.8	7.45e-01	0	28	104	3596615680	84	11687
2026-01-14 09:28:46.56	274.59	21.08	-60.7	-70.4	3.8	7.45e-01	0	28	104	3596615680	84	11787
2026-01-14 09:28:47.57	274.99	21.07	-60.7	-70.4	3.8	7.45e-01	0	28	104	3596615680	84	11766
2026-01-14 09:28:48.57	275.40	21.06	-60.7	-70.4	3.8	7.45e-01	0	28	104	3596615680	84	11770
2026-01-14 09:28:49.57	275.80	21.05	-60.6	-70.4	3.8	7.46e-01	0	28	104	3596615680	84	11694
2026-01-14 09:28:50.57	276.20	21.03	-60.7	-70.5	3.8	7.46e-01	0	28	104	3596615680	84	11826
2026-01-14 09:28:51.57	276.61	21.02	-60.8	-70.5	3.8	7.46e-01	0	28	104	3596615680	84	11893
2026-01-14 09:28:52.57	277.01	21.00	-60.8	-70.6	3.8	7.45e-01	0	28	104	3596615680	84	11966
2026-01-14 09:28:53.56	277.41	20.99	-60.8	-70.5	3.8	7.46e-01	0	28	104	3596615680	84	11890
2026-01-14 09:28:54.57	277.81	20.97	-60.8	-70.5	3.8	7.46e-01	0	28	104	3596615680	84	11870
2026-01-14 09:28:55.57	278.21	20.95	-60.7	-70.4	3.8	7.46e-01	0	28	104	3596615680	84	11789
2026-01-14 09:28:56.57	278.61	20.93	-60.7	-70.5	3.8	7.46e-01	0	28	104	3596615680	84	11861
2026-01-14 09:28:57.57	279.01	20.91	-60.7	-70.4	3.8	7.43e-01	0	28	104	3596615680	84	11787
2026-01-14 09:28:58.57	279.41	20.88	-60.8	-70.5	3.8	7.44e-01	0	28	104	3596615680	84	11884
2026-01-14 09:28:59.57	279.80	20.86	-60.7	-70.4	3.8	7.46e-01	0	28	104	3596615680	84	11790
2026-01-14 09:29:00.57	280.20	20.83	-60.7	-70.5	3.8	7.47e-01	0	28	104	3596615680	84	11829
2026-01-14 09:29:01.57	280.60	20.81	-60.7	-70.4	3.8	7.45e-01	0	28	104	3596615680	84	11794
2026-01-14 09:29:02.57	280.99	20.78	-60.7	-70.5	3.8	7.44e-01	0	28	104	3596615680	84	11880
2026-01-14 09:29:03.57	281.39	20.75	-60.7	-70.5	3.8	7.44e-01	0	28	104	3596615680	84	11852
2026-01-14 09:29:04.57	281.78	20.72	-60.8	-70.5	3.8	7.46e-01	0	28	104	3596615680	84	11882
2026-01-14 09:29:05.57	282.17	20.69	-60.7	-70.4	3.8	7.46e-01	0	28	104	3596615680	84	11751
2026-01-14 09:29:06.58	282.57	20.65	-60.8	-70.5	3.8	7.45e-01	0	28	104	3596615680	84	11891
2026-01-14 09:29:07.58	282.96	20.62	-60.8	-70.5	3.8	7.47e-01	0	28	104	3596615680	84	11859
2026-01-14 09:29:08.58	283.35	20.58	-60.8	-70.5	3.8	7.46e-01	0	28	104	3596615680	84	11891
2026-01-14 09:29:09.57	283.74	20.55	-60.7	-70.4	3.8	7.46e-01	0	28	104	3596615680	84	11790
2026-01-14 09:29:10.58	284.13	20.51	-60.8	-70.5	3.8	7.48e-01	0	28	104	3596615680	84	11938
2026-01-14 09:29:11.58	284.51	20.47	-60.8	-70.5	3.8	7.44e-01	0	28	104	3596615680	84	11912
2026-01-14 09:29:12.58	284.90	20.43	-60.8	-70.5	3.8	7.45e-01	0	28	104	3596615680	84	11871
2026-01-14 09:29:13.57	285.28	20.39	-60.7	-70.5	3.8	7.46e-01	0	28	104	3596615680	84	11845
2026-01-14 09:29:14.57	285.66	20.35	-60.8	-70.5	3.8	7.46e-01	0	28	104	3596615680	84	11943
2026-01-14 09:29:15.57	286.04	20.31	-60.8	-70.5	3.8	7.47e-01	0	28	104	3596615680	84	11938
2026-01-14 09:29:16.57	286.43	20.26	-60.8	-70.5	3.8	7.46e-01	0	28	104	3596615680	84	11950
2026-01-14 09:29:17.56	286.80	20.22	-60.8	-70.5	3.8	7.46e-01	0	28	104	3596615680	84	11846
2026-01-14 09:29:18.56	287.18	20.17	-60.8	-70.5	3.8	7.46e-01	0	28	104	3596615680	84	11947
2026-01-14 09:29:19.57	287.56	20.13	-60.8	-70.5	3.8	7.46e-01	0	28	104	3596615680	84	11926
2026-01-14 09:29:20.57	287.94	20.08	-60.8	-70.6	3.8	7.45e-01	0	28	104	3596615680	84	11957
2026-01-14 09:29:21.57	288.31	20.03	-60.8	-70.5	3.8	7.46e-01	0	28	104	3596615680	84	11884
2026-01-14 09:29:22.57	288.68	19.98	-60.8	-70.5	3.8	7.44e-01	0	28	104	3596615680	84	11907
2026-01-14 09:29:23.57	289.05	19.93	-60.8	-70.6	3.8	7.47e-01	0	28	104	3596615680	84	11980
2026-01-14 09:29:24.56	289.42	19.88	-60.8	-70.6	3.8	7.45e-01	0	28	104	3596615680	84	11976
2026-01-14 09:29:25.55	289.79	19.83	-60.8	-70.5	3.8	7.44e-01	0	28	104	3596615680	84	11932
2026-01-14 09:29:26.54	290.15	19.77	-60.8	-70.6	3.8	7.45e-01	0	28	104	3596615680	84	11957
2026-01-14 09:29:27.54	290.52	19.72	-60.8	-70.6	3.8	7.47e-01	0	28	104	3596615680	84	11989
2026-01-14 09:29:28.54	290.88	19.66	-60.8	-70.6	3.8	7.44e-01	0	28	104	3596615680	84	12053
2026-01-14 09:29:29.54	291.24	19.61	-60.8	-70.5	3.8	7.45e-01	0	28	104	3596615680	84	11914
2026-01-14 09:29:30.54	291.60	19.55	-60.8	-70.6	3.8	7.47e-01	0	28	104	3596615680	84	11967
2026-01-14 09:29:31.54	291.96	19.49	-60.8	-70.6	3.8	7.45e-01	0	28	104	3596615680	84	11997
2026-01-14 09:29:32.54	292.32	19.43	-60.8	-70.6	3.8	7.46e-01	0	28	104	3596615680	84	11975
2026-01-14 09:29:33.53	292.67	19.38	-60.8	-70.5	3.8	7.46e-01	0	28	104	3596615680	84	11918
2026-01-14 09:29:34.53	293.03	19.32	-60.8	-70.5	3.8	7.45e-01	0	28	104	3596615680	84	11945
2026-01-14 09:29:35.53	293.38	19.25	-60.8	-70.6	3.8	7.45e-01	0	28	104	3596615680	84	11988
2026-01-14 09:29:36.54	293.74	19.19	-60.8	-70.6	3.8	7.47e-01	0	28	104	3596615680	84	11962
2026-01-14 09:29:37.54	294.09	19.13	-60.8	-70.6	3.8	7.45e-01	0	28	104	3596615680	84	11982
2026-01-14 09:29:38.54	294.44	19.07	-60.8	-70.6	3.8	7.45e-01	0	28	104	3596615680	84	11964
2026-01-14 09:29:39.54	294.78	19.00	-60.8	-70.5	3.8	7.45e-01	0	28	104	3596615680	84	11941
2026-01-14 09:29:40.54	295.13	18.94	-60.8	-70.5	3.8	7.46e-01	0	28	104	3596615680	84	11954
2026-01-14 09:29:41.53	295.47	18.87	-60.8	-70.6	3.8	7.44e-01	0	28	104	3596615680	84	11962
2026-01-14 09:29:42.52	295.81	18.81	-60.8	-70.5	3.8	7.46e-01	0	28	104	3596615680	84	11912
2026-01-14 09:29:43.52	296.15	18.74	-60.8	-70.5	3.8	7.45e-01	0	28	104	3596615680	84	11941
2026-01-14 09:29:44.52	296.49	18.67	-60.8	-70.6	3.8	7.44e-01	0	28	104	3596615680	84	11983
2026-01-14 09:29:45.51	296.82	18.61	-60.8	-70.5	3.8	7.44e-01	0	28	104	3596615680	84	11906
2026-01-14 09:29:46.50	297.15	18.54	-60.8	-70.5	3.8	7.45e-01	0	28	104	3596615680	84	11916
2026-01-14 09:29:47.50	297.48	18.47	-60.8	-70.5	3.8	7.46e-01	0	28	104	3596615680	84	11924
2026-01-14 09:29:48.49	297.81	18.40	-60.8	-70.5	3.8	7.44e-01	0	28	104	3596615680	84	11865
2026-01-14 09:29:49.48	298.14	18.33	-60.7	-70.5	3.8	7.46e-01	0	28	104	3596615680	84	11846
2026-01-14 09:29:50.48	298.47	18.26	-60.7	-70.5	3.8	7.45e-01	0	28	104	3596615680	84	11869
2026-01-14 09:29:51.47	298.79	18.19	-60.8	-70.6	3.8	7.45e-01	0	28	104	3596615680	84	11985
2026-01-14 09:29:52.47	299.12	18.12	-60.8	-70.5	3.8	7.45e-01	0	28	104	3596615680	84	11826
2026-01-14 09:29:53.47	299.44	18.05	-60.7	-70.5	3.8	7.44e-01	0	28	104	3596615680	84	11843
2026-01-14 09:29:54.45	299.75	17.97	-60.7	-70.4	3.8	7.46e-01	0	28	104	3596615680	84	11810
2026-01-14 09:29:55.46	300.08	17.90	-60.7	-70.5	3.8	7.46e-01	0	28	104	3596615680	84	11820
2026-01-14 09:29:56.45	300.39	17.83	-60.7	-70.5	3.8	7.45e-01	0	28	104	3596615680	84	11845
2026-01-14 09:29:57.45	300.71	17.75	-60.7	-70.4	3.8	7.46e-01	0	28	104	3596615680	84	11734
2026-01-14 09:29:58.44	301.02	17.68	-60.7	-70.4	3.8	7.45e-01	0	28	104	3596615680	84	11788
2026-01-14 09:29:59.43	301.33	17.60	-60.7	-70.5	3.8	7.46e-01	0	28	104	3596615680	84	11835
2026-01-14 09:30:00.43	301.64	17.53	-60.7	-70.4	3.8	7.45e-01	0	28	104	3596615680	84	11779
2026-01-14 09:30:01.42	301.94	17.45	-60.6	-70.4	3.8	7.46e-01	0	28	104	3596615680	84	11742
2026-01-14 09:30:02.42	302.25	17.38	-60.6	-70.4	3.8	7.44e-01	0	28	104	3596615680	84	11722
2026-01-14 09:30:03.42	302.55	17.30	-60.7	-70.4	3.8	7.44e-01	0	28	104	3596615680	84	11814
2026-01-14 09:30:04.40	302.85	17.22	-60.7	-70.4	3.8	7.46e-01	0	28	104	3596615680	84	11787
2026-01-14 09:30:05.39	303.15	17.15	-60.6	-70.4	3.8	7.46e-01	0	28	104	3596615680	84	11697
2026-01-14 09:30:06.38	303.45	17.07	-60.6	-70.4	3.8	7.45e-01	0	28	104	3596615680	84	11692
2026-01-14 09:30:07.38	303.74	16.99	-60.6	-70.4	3.8	7.46e-01	0	28	104	3596615680	84	11696
2026-01-14 09:30:08.38	304.04	16.91	-60.6	-70.4	3.8	7.46e-01	0	28	104	3596615680	84	11707
2026-01-14 09:30:09.37	304.33	16.83	-60.6	-70.3	3.8	7.45e-01	0	28	104	3596615680	84	11636
2026-01-14 09:30:10.37	304.62	16.76	-60.6	-70.4	3.8	7.48e-01	0	28	104	3596615680	84	11684
2026-01-14 09:30:11.37	304.91	16.68	-60.6	-70.4	3.8	7.46e-01	0	28	104	3596615680	84	11700
2026-01-14 09:30:12.37	305.20	16.60	-60.6	-70.3	3.8	7.45e-01	0	28	104	3596615680	84	11659
2026-01-14 09:30:13.36	305.49	16.52	-60.6	-70.3	3.8	7.46e-01	0	28	104	3596615680	84	11617
2026-01-14 09:30:14.36	305.77	16.44	-60.6	-70.3	3.8	7.47e-01	0	28	104	3596615680	84	11632
2026-01-14 09:30:15.36	306.06	16.36	-60.6	-70.3	3.8	7.46e-01	0	28	104	3596615680	84	11680
2026-01-14 09:30:16.36	306.34	16.28	-60.6	-70.3	3.8	7.45e-01	0	28	104	3596615680	84	11665
2026-01-14 09:30:17.35	306.62	16.19	-60.6	-70.3	3.8	7.46e-01	0	28	104	3596615680	84	11570
2026-01-14 09:30:18.35	306.90	16.11	-60.6	-70.3	3.8	7.46e-01	0	28	104	3596615680	84	11554
2026-01-14 09:30:19.34	307.17	16.03	-60.6	-70.3	3.8	7.45e-01	0	28	104	3596615680	84	11613
2026-01-14 09:30:20.34	307.44	15.95	-60.5	-70.3	3.8	7.45e-01	0	28	104	3596615680	84	11580
2026-01-14 09:30:21.34	307.72	15.87	-60.5	-70.2	3.8	7.47e-01	0	28	104	3596615680	84	11539
2026-01-14 09:30:22.33	307.99	15.79	-60.5	-70.2	3.8	7.46e-01	0	28	104	3596615680	84	11545
2026-01-14 09:30:23.33	308.26	15.71	-60.5	-70.2	3.8	7.46e-01	0	28	104	3596615680	84	11548
2026-01-14 09:30:24.32	308.52	15.62	-60.5	-70.3	3.8	7.45e-01	0	28	104	3596615680	84	11588
2026-01-14 09:30:25.32	308.79	15.54	-60.5	-70.2	3.8	7.46e-01	0	28	104	3596615680	84	11527
2026-01-14 09:30:26.31	309.05	15.46	-60.5	-70.2	3.8	7.46e-01	0	28	104	3596615680	84	11519
2026-01-14 09:30:27.31	309.31	15.38	-60.5	-70.3	3.8	7.45e-01	0	28	104	3596615680	84	11590
2026-01-14 09:30:28.31	309.57	15.29	-60.5	-70.2	3.8	7.44e-01	0	28	104	3596615680	84	11521
2026-01-14 09:30:29.30	309.83	15.21	-60.5	-70.2	3.8	7.46e-01	0	28	104	3596615680	84	11502
2026-01-14 09:30:30.30	310.09	15.13	-60.5	-70.2	3.8	7.45e-01	0	28	104	3596615680	84	11464
2026-01-14 09:30:31.30	310.35	15.05	-60.5	-70.2	3.8	7.45e-01	0	28	104	3596615680	84	11513
2026-01-14 09:30:32.30	310.60	14.96	-60.5	-70.2	3.8	7.45e-01	0	28	104	3596615680	84	11463
2026-01-14 09:30:33.29	310.85	14.88	-60.5	-70.2	3.8	7.46e-01	0	28	104	3596615680	84	11465
2026-01-14 09:30:34.29	311.10	14.80	-60.5	-70.2	3.8	7.46e-01	0	28	104	3596615680	84	11449
2026-01-14 09:30:35.29	311.35	14.71	-60.5	-70.2	3.8	7.45e-01	0	28	104	3596615680	84	11526
2026-01-14 09:30:36.29	311.60	14.63	-60.5	-70.2	3.8	7.46e-01	0	28	104	3596615680	84	11456
2026-01-14 09:30:37.28	311.84	14.55	-60.4	-70.2	3.8	7.47e-01	0	28	104	3596615680	84	11467
2026-01-14 09:30:38.27	312.09	14.46	-60.4	-70.2	3.8	7.46e-01	0	28	104	3596615680	84	11434
2026-01-14 09:30:39.26	312.33	14.38	-60.5	-70.2	3.8	7.47e-01	0	28	104	3596615680	84	11520
2026-01-14 09:30:40.26	312.57	14.30	-60.4	-70.2	3.8	7.46e-01	0	28	104	3596615680	84	11447
2026-01-14 09:30:41.25	312.81	14.21	-60.4	-70.2	3.8	7.45e-01	0	28	104	3596615680	84	11429
2026-01-14 09:30:42.25	313.05	14.13	-60.4	-70.1	3.8	7.44e-01	0	28	104	3596615680	84	11407
2026-01-14 09:30:43.24	313.28	14.05	-60.4	-70.2	3.8	7.46e-01	0	28	104	3596615680	84	11450
2026-01-14 09:30:44.23	313.51	13.96	-60.4	-70.2	3.8	7.44e-01	0	28	104	3596615680	84	11433
2026-01-14 09:30:45.22	313.74	13.88	-60.3	-70.1	3.8	7.45e-01	0	28	104	3596615680	84	11326
2026-01-14 09:30:46.22	313.98	13.80	-60.4	-70.1	3.8	7.44e-01	0	28	104	3596615680	84	11346
2026-01-14 09:30:47.22	314.21	13.71	-60.4	-70.1	3.8	7.46e-01	0	28	104	3596615680	84	11380
2026-01-14 09:30:48.21	314.43	13.63	-60.4	-70.1	3.8	7.46e-01	0	28	104	3596615680	84	11337
2026-01-14 09:30:49.20	314.66	13.55	-60.3	-70.0	3.8	7.46e-01	0	28	104	3596615680	84	11265
2026-01-14 09:30:50.20	314.89	13.46	-60.3	-70.0	3.8	7.46e-01	0	28	104	3596615680	84	11255
2026-01-14 09:30:51.20	315.11	13.38	-60.4	-70.1	3.8	7.45e-01	0	28	104	3596615680	84	11355
2026-01-14 09:30:52.19	315.33	13.30	-60.4	-70.1	3.8	7.45e-01	0	28	104	3596615680	84	11371
2026-01-14 09:30:53.18	315.55	13.21	-60.3	-70.1	3.8	7.46e-01	0	28	104	3596615680	84	11312
2026-01-14 09:30:54.18	315.77	13.13	-60.3	-70.0	3.8	7.46e-01	0	28	104	3596615680	84	11266
2026-01-14 09:30:55.18	315.99	13.05	-60.4	-70.1	3.8	7.45e-01	0	28	104	3596615680	84	11371
2026-01-14 09:30:56.17	316.21	12.96	-60.3	-70.1	3.8	7.44e-01	0	28	104	3596615680	84	11306
2026-01-14 09:30:57.17	316.42	12.88	-60.3	-70.0	3.8	7.45e-01	0	28	104	3596615680	84	11254
2026-01-14 09:30:58.17	316.64	12.80	-60.3	-70.0	3.8	7.45e-01	0	28	104	3596615680	84	11255
2026-01-14 09:30:59.16	316.85	12.71	-60.4	-70.1	3.8	7.44e-01	0	28	104	3596615680	84	11338
2026-01-14 09:31:00.16	317.06	12.63	-60.3	-70.0	3.8	7.45e-01	0	28	104	3596615680	84	11228
2026-01-14 09:31:01.15	317.27	12.55	-60.3	-70.0	3.8	7.45e-01	0	28	104	3596615680	84	11230
2026-01-14 09:31:02.15	317.48	12.47	-60.3	-70.0	3.8	7.46e-01	0	28	104	3596615680	84	11223
2026-01-14 09:31:03.15	317.68	12.38	-60.3	-70.1	3.8	7.46e-01	0	28	104	3596615680	84	11346
2026-01-14 09:31:04.14	317.89	12.30	-60.3	-70.0	3.8	7.44e-01	0	28	104	3596615680	84	11252
2026-01-14 09:31:05.14	318.09	12.22	-60.2	-70.0	3.8	7.45e-01	0	28	104	3596615680	84	11191
2026-01-14 09:31:06.13	318.29	12.14	-60.2	-70.0	3.8	7.45e-01	0	28	104	3596615680	84	11206
2026-01-14 09:31:07.13	318.50	12.05	-60.3	-70.0	3.8	7.45e-01	0	28	104	3596615680	84	11272
2026-01-14 09:31:08.13	318.70	11.97	-60.2	-70.0	3.8	7.47e-01	0	28	104	3596615680	84	11220
2026-01-14 09:31:09.13	318.90	11.89	-60.2	-69.9	3.8	7.45e-01	0	28	104	3596615680	84	11144
2026-01-14 09:31:10.13	319.09	11.81	-60.2	-70.0	3.8	7.46e-01	0	28	104	3596615680	84	11170
2026-01-14 09:31:11.12	319.29	11.72	-60.3	-70.0	3.8	7.42e-01	0	28	104	3596615680	84	11278
2026-01-14 09:31:12.12	319.48	11.64	-60.2	-70.0	3.8	7.47e-01	0	28	104	3596615680	84	11193
2026-01-14 09:31:13.11	319.68	11.56	-60.2	-69.9	3.8	7.45e-01	0	28	104	3596615680	84	11132
2026-01-14 09:31:14.11	319.87	11.48	-60.2	-69.9	3.8	7.46e-01	0	28	104	3596615680	84	11148
2026-01-14 09:31:15.11	320.06	11.40	-60.3	-70.0	3.8	7.45e-01	0	28	104	3596615680	84	11201
2026-01-14 09:31:16.10	320.25	11.32	-60.2	-69.9	3.8	7.45e-01	0	28	104	3596615680	84	11123
2026-01-14 09:31:17.10	320.44	11.23	-60.2	-69.9	3.8	7.46e-01	0	28	104	3596615680	84	11132
2026-01-14 09:31:18.09	320.62	11.15	-60.2	-69.9	3.8	7.46e-01	0	28	104	3596615680	84	11063
2026-01-14 09:31:19.09	320.81	11.07	-60.3	-70.0	3.8	7.46e-01	0	28	104	3596615680	84	11199
2026-01-14 09:31:20.09	321.00	10.99	-60.2	-69.9	3.8	7.46e-01	0	28	104	3596615680	84	11078
2026-01-14 09:31:21.09	321.18	10.91	-60.1	-69.9	3.8	7.46e-01	0	28	104	3596615680	84	11059
2026-01-14 09:31:22.08	321.36	10.83	-60.1	-69.8	3.8	7.46e-01	0	28	104	3596615680	84	11025
2026-01-14 09:31:23.08	321.54	10.75	-60.2	-69.9	3.8	7.45e-01	0	28	104	3596615680	84	11133
2026-01-14 09:31:24.08	321.72	10.67	-60.1	-69.8	3.8	7.45e-01	0	28	104	3596615680	84	11020
2026-01-14 09:31:25.07	321.90	10.59	-60.1	-69.8	3.8	7.46e-01	0	28	104	3596615680	84	11023
2026-01-14 09:31:26.06	322.08	10.51	-60.1	-69.8	3.8	7.46e-01	0	28	104	3596615680	84	10988
2026-01-14 09:31:27.05	322.25	10.43	-60.2	-69.9	3.8	7.46e-01	0	28	104	3596615680	84	11100
2026-01-14 09:31:28.05	322.43	10.35	-60.1	-69.8	3.8	7.47e-01	0	28	104	3596615680	84	11014
2026-01-14 09:31:29.04	322.60	10.27	-60.1	-69.8	3.8	7.45e-01	0	28	104	3596615680	84	11003
2026-01-14 09:31:30.04	322.77	10.19	-60.0	-69.8	3.8	7.46e-01	0	28	104	3596615680	84	10934
2026-01-14 09:31:31.03	322.95	10.11	-60.1	-69.9	3.8	7.47e-01	0	28	104	3596615680	84	11066
2026-01-14 09:31:32.03	323.12	10.03	-60.1	-69.8	3.8	7.44e-01	0	28	104	3596615680	84	10963
2026-01-14 09:31:33.02	323.29	9.95	-60.1	-69.8	3.8	7.46e-01	0	28	104	3596615680	84	10985
2026-01-14 09:31:34.01	323.45	9.87	-60.0	-69.8	3.8	7.46e-01	0	28	104	3596615680	84	10948
2026-01-14 09:31:35.00	323.62	9.80	-60.1	-69.8	3.8	7.46e-01	0	28	104	3596615680	84	11027
2026-01-14 09:31:36.00	323.79	9.72	-60.0	-69.8	3.8	7.45e-01	0	28	104	3596615680	84	10915
2026-01-14 09:31:36.99	323.95	9.64	-60.0	-69.8	3.8	7.47e-01	0	28	104	3596615680	84	10919
2026-01-14 09:31:37.98	324.11	9.56	-60.0	-69.8	3.8	7.46e-01	0	28	104	3596615680	84	10906
2026-01-14 09:31:38.97	324.28	9.48	-60.1	-69.8	3.8	7.45e-01	0	28	104	3596615680	84	11007
2026-01-14 09:31:39.97	324.44	9.41	-60.0	-69.7	3.8	7.46e-01	0	28	104	3596615680	84	10875
2026-01-14 09:31:40.96	324.60	9.33	-60.0	-69.7	3.8	7.46e-01	0	28	104	3596615680	84	10888
2026-01-14 09:31:41.95	324.76	9.25	-60.0	-69.7	3.8	7.45e-01	0	28	104	3596615680	84	10819
2026-01-14 09:31:42.95	324.92	9.17	-60.1	-69.8	3.8	7.44e-01	0	28	104	3596615680	84	10932
2026-01-14 09:31:43.94	325.07	9.10	-60.0	-69.7	3.8	7.45e-01	0	28	104	3596615680	84	10866
2026-01-14 09:31:44.93	325.23	9.02	-60.0	-69.7	3.8	7.46e-01	0	28	104	3596615680	84	10831
2026-01-14 09:31:45.93	325.39	8.94	-59.9	-69.7	3.8	7.45e-01	0	28	104	3596615680	84	10807
2026-01-14 09:31:46.92	325.54	8.87	-60.0	-69.8	3.8	7.46e-01	0	28	104	3596615680	84	10948
2026-01-14 09:31:47.91	325.69	8.79	-59.9	-69.7	3.8	7.45e-01	0	28	104	3596615680	84	10782
2026-01-14 09:31:48.91	325.85	8.71	-59.9	-69.7	3.8	7.47e-01	0	28	104	3596615680	84	10807
2026-01-14 09:31:49.90	326.00	8.64	-59.9	-69.6	3.8	7.45e-01	0	28	104	3596615680	84	10711
2026-01-14 09:31:50.90	326.15	8.56	-60.0	-69.8	3.8	7.45e-01	0	28	104	3596615680	84	10912
2026-01-14 09:31:51.90	326.30	8.48	-59.9	-69.7	3.8	7.45e-01	0	28	104	3596615680	84	10781
2026-01-14 09:31:52.89	326.45	8.41	-59.9	-69.7	3.8	7.45e-01	0	28	104	3596615680	84	10785
2026-01-14 09:31:53.89	326.60	8.33	-59.9	-69.6	3.8	7.46e-01	0	28	104	3596615680	84	10684
2026-01-14 09:31:54.89	326.75	8.26	-60.0	-69.7	3.8	7.47e-01	0	28	104	3596615680	84	10862
2026-01-14 09:31:55.89	326.89	8.18	-59.9	-69.6	3.8	7.46e-01	0	28	104	3596615680	84	10693
2026-01-14 09:31:56.88	327.04	8.11	-59.9	-69.6	3.8	7.47e-01	0	28	104	3596615680	84	10764
2026-01-14 09:31:57.88	327.18	8.03	-59.8	-69.6	3.8	7.45e-01	0	28	104	3596615680	84	10663
2026-01-14 09:31:58.88	327.33	7.96	-59.9	-69.7	3.8	7.46e-01	0	28	104	3596615680	84	10816
2026-01-14 09:31:59.88	327.47	7.88	-59.8	-69.5	3.8	7.46e-01	0	28	104	3596615680	84	10641
2026-01-14 09:32:00.88	327.61	7.81	-59.8	-69.5	3.8	7.46e-01	0	28	104	3596615680	84	10640
2026-01-14 09:32:01.87	327.75	7.73	-59.8	-69.5	3.8	7.45e-01	0	28	104	3596615680	84	10588
2026-01-14 09:32:02.87	327.90	7.66	-59.9	-69.6	3.8	7.45e-01	0	28	104	3596615680	84	10748
2026-01-14 09:32:03.86	328.03	7.59	-59.8	-69.5	3.8	7.48e-01	0	28	104	3596615680	84	10620
2026-01-14 09:32:04.86	328.17	7.51	-59.8	-69.6	3.8	7.46e-01	0	28	104	3596615680	84	10671
2026-01-14 09:32:05.86	328.31	7.44	-59.8	-69.5	3.8	7.46e-01	0	28	104	3596615680	84	10629
2026-01-14 09:32:06.86	328.45	7.36	-59.9	-69.6	3.8	7.46e-01	0	28	104	3596615680	84	10721
2026-01-14 09:32:07.85	328.58	7.29	-59.8	-69.5	3.8	7.46e-01	0	28	104	3596615680	84	10573
2026-01-14 09:32:08.85	328.72	7.22	-59.8	-69.5	3.8	7.47e-01	0	28	104	3596615680	84	10610
2026-01-14 09:32:09.85	328.85	7.14	-59.7	-69.4	3.8	7.46e-01	0	28	104	3596615680	84	10485
2026-01-14 09:32:10.85	328.99	7.07	-59.8	-69.6	3.8	7.46e-01	0	28	104	3596615680	84	10664
2026-01-14 09:32:11.85	329.12	7.00	-59.7	-69.5	3.8	7.46e-01	0	28	104	3596615680	84	10544
2026-01-14 09:32:12.84	329.25	6.93	-59.8	-69.5	3.8	7.45e-01	0	28	104	3596615680	84	10565
2026-01-14 09:32:13.85	329.39	6.85	-59.7	-69.4	3.8	7.46e-01	0	28	104	3596615680	84	10472
2026-01-14 09:32:14.84	329.52	6.78	-59.8	-69.6	3.8	7.46e-01	0	28	104	3596615680	84	10662
2026-01-14 09:32:15.84	329.65	6.71	-59.7	-69.5	3.8	7.43e-01	0	28	104	3596615680	84	10546
2026-01-14 09:32:16.83	329.77	6.64	-59.7	-69.5	3.8	7.45e-01	0	28	104	3596615680	84	10564
2026-01-14 09:32:17.83	329.90	6.57	-59.5	-69.2	3.8	7.45e-01	0	28	104	3596615680	83	10829
2026-01-14 09:32:18.83	330.03	6.49	-59.6	-69.3	3.8	7.45e-01	0	28	104	3596615680	83	11004
2026-01-14 09:32:19.82	330.16	6.42	-59.5	-69.2	3.8	7.45e-01	0	28	104	3596615680	83	10870
2026-01-14 09:32:20.81	330.28	6.35	-59.5	-69.2	3.8	7.45e-01	0	28	104	3596615680	83	10903
2026-01-14 09:32:21.81	330.41	6.28	-59.4	-69.2	3.8	7.46e-01	0	28	104	3596615680	83	10880
2026-01-14 09:32:22.81	330.53	6.21	-59.6	-69.3	3.8	7.45e-01	0	28	104	3596615680	83	10987
2026-01-14 09:32:23.80	330.65	6.14	-59.5	-69.2	3.8	7.45e-01	0	28	104	3596615680	83	10855
2026-01-14 09:32:24.79	330.78	6.07	-59.5	-69.2	3.8	7.46e-01	0	28	104	3596615680	83	10880
2026-01-14 09:32:25.79	330.90	6.00	-59.4	-69.1	3.8	7.46e-01	0	28	104	3596615680	83	10752
2026-01-14 09:32:26.79	331.02	5.93	-59.5	-69.2	3.8	7.46e-01	0	28	104	3596615680	83	10895
2026-01-14 09:32:27.79	331.14	5.86	-59.4	-69.1	3.8	7.45e-01	0	28	104	3596615680	83	10772
2026-01-14 09:32:28.79	331.26	5.79	-59.4	-69.2	3.8	7.44e-01	0	28	104	3596615680	83	10848
2026-01-14 09:32:29.78	331.38	5.72	-59.3	-69.0	3.8	7.45e-01	0	28	104	3596615680	83	10655
2026-01-14 09:32:30.78	331.50	5.65	-59.5	-69.2	3.8	7.45e-01	0	28	104	3596615680	83	10834
2026-01-14 09:32:31.78	331.62	5.58	-59.4	-69.1	3.8	7.45e-01	0	28	104	3596615680	83	10682
2026-01-14 09:32:32.77	331.73	5.51	-59.4	-69.1	3.8	7.46e-01	0	28	104	3596615680	83	10767
2026-01-14 09:32:33.76	331.85	5.44	-59.3	-69.0	3.8	7.45e-01	0	28	104	3596615680	83	10605
2026-01-14 09:32:34.77	331.97	5.37	-59.4	-69.2	3.8	7.46e-01	0	28	104	3596615680	83	10785
2026-01-14 09:32:35.76	332.08	5.30	-59.3	-69.1	3.8	7.48e-01	0	28	104	3596615680	83	10668
2026-01-14 09:32:36.75	332.20	5.24	-59.3	-69.1	3.8	7.45e-01	0	28	104	3596615680	83	10693
2026-01-14 09:32:37.74	332.31	5.17	-59.2	-68.9	3.8	7.45e-01	0	28	104	3596615680	83	10512
2026-01-14 09:32:38.74	332.42	5.10	-59.4	-69.1	3.8	7.46e-01	0	28	104	3596615680	83	10776
2026-01-14 09:32:39.74	332.54	5.03	-59.3	-69.0	3.8	7.47e-01	0	28	104	3596615680	83	10572
2026-01-14 09:32:40.73	332.65	4.96	-59.4	-69.1	3.8	7.47e-01	0	28	104	3596615680	83	10708
2026-01-14 09:32:41.74	332.76	4.90	-59.9	-69.6	3.8	7.45e-01	0	28	104	3596615680	83	11335
2026-01-14 09:32:42.75	332.87	4.83	-60.2	-70.0	3.8	7.45e-01	0	28	104	3596615680	83	11863
2026-01-14 09:32:43.75	332.98	4.76	-60.6	-70.4	3.8	7.45e-01	0	28	104	3596615680	84	11746
2026-01-14 09:32:44.76	333.09	4.69	-60.8	-70.5	3.8	7.46e-01	0	28	104	3596615680	84	11919
2026-01-14 09:32:45.77	333.20	4.62	-61.0	-70.8	3.8	7.46e-01	0	28	104	3596615680	85	11553
2026-01-14 09:32:46.77	333.31	4.56	-61.1	-70.8	3.8	7.45e-01	0	28	104	3596615680	85	11679
2026-01-14 09:32:47.78	333.42	4.49	-61.2	-71.0	3.8	7.44e-01	0	28	104	3596615680	85	11849
2026-01-14 09:32:48.78	333.53	4.42	-61.3	-71.0	3.8	7.44e-01	0	28	104	3596615680	85	11902
2026-01-14 09:32:49.78	333.64	4.36	-61.4	-71.1	3.8	7.46e-01	0	28	104	3596615680	85	12010
2026-01-14 09:32:50.79	333.74	4.29	-61.4	-71.1	3.8	7.46e-01	0	28	104	3596615680	85	12076
2026-01-14 09:32:51.80	333.85	4.22	-61.5	-71.2	3.8	7.45e-01	0	28	104	3596615680	86	11496
2026-01-14 09:32:52.80	333.96	4.16	-61.5	-71.3	3.8	7.45e-01	0	28	104	3596615680	86	11563
2026-01-14 09:32:53.81	334.06	4.09	-61.6	-71.3	3.8	7.46e-01	0	28	104	3596615680	86	11643
2026-01-14 09:32:54.81	334.17	4.02	-61.6	-71.3	3.8	7.45e-01	0	28	104	3596615680	86	11619
2026-01-14 09:32:55.82	334.27	3.96	-61.6	-71.3	3.8	7.46e-01	0	28	104	3596615680	86	11633
2026-01-14 09:32:56.82	334.37	3.89	-61.5	-71.3	3.8	7.45e-01	0	28	104	3596615680	86	11604
2026-01-14 09:32:57.83	334.48	3.82	-61.6	-71.4	3.8	7.45e-01	0	28	104	3596615680	86	11728
2026-01-14 09:32:58.83	334.58	3.76	-61.7	-71.4	3.8	7.45e-01	0	28	104	3596615680	86	11763
2026-01-14 09:32:59.83	334.68	3.69	-61.7	-71.4	3.8	7.47e-01	0	28	104	3596615680	86	11741
2026-01-14 09:33:00.83	334.78	3.63	-61.7	-71.4	3.8	7.45e-01	0	28	104	3596615680	86	11775
2026-01-14 09:33:01.84	334.88	3.56	-61.7	-71.4	3.8	7.45e-01	0	28	104	3596615680	86	11795
2026-01-14 09:33:02.85	334.98	3.50	-61.7	-71.4	3.8	7.45e-01	0	28	104	3596615680	86	11761
2026-01-14 09:33:03.84	335.08	3.43	-61.6	-71.4	3.8	7.44e-01	0	28	104	3596615680	86	11716
2026-01-14 09:33:04.84	335.18	3.37	-61.6	-71.4	3.8	7.46e-01	0	28	104	3596615680	86	11697
2026-01-14 09:33:05.83	335.27	3.31	-61.6	-71.3	3.8	7.46e-01	0	28	104	3596615680	86	11670
2026-01-14 09:33:06.82	335.37	3.24	-61.6	-71.4	3.8	7.47e-01	0	28	104	3596615680	86	11691
2026-01-14 09:33:07.81	335.47	3.18	-61.6	-71.3	3.8	7.46e-01	0	28	104	3596615680	86	11648
2026-01-14 09:33:08.80	335.56	3.12	-61.5	-71.3	3.8	7.47e-01	0	28	104	3596615680	86	11569
2026-01-14 09:33:09.79	335.66	3.05	-61.5	-71.3	3.8	7.46e-01	0	28	104	3596615680	86	11591
2026-01-14 09:33:10.79	335.75	2.99	-61.5	-71.3	3.8	7.44e-01	0	28	104	3596615680	86	11569
2026-01-14 09:33:11.78	335.85	2.93	-61.5	-71.3	3.8	7.45e-01	0	28	104	3596615680	86	11570
2026-01-14 09:33:12.77	335.94	2.86	-61.5	-71.3	3.8	7.46e-01	0	28	104	3596615680	86	11554
2026-01-14 09:33:13.77	336.03	2.80	-61.5	-71.3	3.8	7.45e-01	0	28	104	3596615680	86	11575
2026-01-14 09:33:14.77	336.13	2.74	-61.5	-71.3	3.8	7.46e-01	0	28	104	3596615680	86	11577
2026-01-14 09:33:15.76	336.22	2.68	-61.5	-71.2	3.8	7.46e-01	0	28	104	3596615680	86	11523
2026-01-14 09:33:16.75	336.31	2.61	-61.5	-71.2	3.8	7.44e-01	0	28	104	3596615680	86	11528
2026-01-14 09:33:17.75	336.40	2.55	-61.5	-71.2	3.8	7.46e-01	0	28	104	3596615680	86	11521
2026-01-14 09:33:18.74	336.49	2.49	-61.5	-71.2	3.8	7.45e-01	0	28	104	3596615680	86	11522
2026-01-14 09:33:19.73	336.58	2.43	-61.5	-71.2	3.8	7.46e-01	0	28	104	3596615680	86	11534
2026-01-14 09:33:20.72	336.67	2.37	-61.5	-71.2	3.8	7.47e-01	0	28	104	3596615680	86	11486
2026-01-14 09:33:21.72	336.76	2.30	-61.5	-71.2	3.8	7.46e-01	0	28	104	3596615680	86	11520
2026-01-14 09:33:22.71	336.85	2.24	-61.5	-71.2	3.8	7.46e-01	0	28	104	3596615680	86	11444
2026-01-14 09:33:23.71	336.94	2.18	-61.5	-71.2	3.8	7.46e-01	0	28	104	3596615680	86	11470
2026-01-14 09:33:24.70	337.03	2.12	-61.5	-71.2	3.8	7.46e-01	0	28	104	3596615680	86	11478
2026-01-14 09:33:25.70	337.12	2.06	-61.4	-71.2	3.8	7.47e-01	0	28	104	3596615680	86	11470
2026-01-14 09:33:26.70	337.20	2.00	-61.4	-71.2	3.8	7.46e-01	0	28	104	3596615680	86	11480
2026-01-14 09:33:27.69	337.29	1.94	-61.4	-71.2	3.8	7.45e-01	0	28	104	3596615680	86	11476

#Closed at: 2026-01-14 09:33:27
#Recorded file [3596 MB]: D:/lorett/data/31004_260114_122355.dat