passes_logs/2026/01/14/R3.2S_Murmansk/R3.2S_Murmansk__20260114_072846_FENGYUN_3D_rec.log

#Pass ID: 20260114_072846_FENGYUN 3D
#Satellite: FENGYUN 3D
#Configuration: FENGYUN 3D
#almurnet v.1.7.20251203
#Start time: 2026-01-14 07:28:48

#Version: 2.2.20231116
#Station: R3.2S_Murmansk
#Location: 33.079688 lon 68.888172 lat
#TLE: 1 43010U 17072A   26013.94640698 -.00000044  00000+0  88349-6 0  9999
#TLE: 2 43010  98.9934 345.7464 0002313 110.9627 249.1796 14.19695403423100

#Time	Az	El	Level	Level2	SNR	BER	BlckErr	Temp	State	Recorded	gain1	gain2
2026-01-14 07:28:48.19	66.55	2.10	-57.9	-70.9	3.8	8.45e-01	0	25	0	0	82	15741
2026-01-14 07:28:49.20	66.48	2.16	-57.9	-70.9	3.8	8.46e-01	0	25	104	0	80	17554
2026-01-14 07:28:50.19	66.42	2.22	-57.9	-70.8	3.8	8.46e-01	0	25	104	0	80	17478
2026-01-14 07:28:51.20	66.36	2.28	-57.9	-70.8	3.8	8.45e-01	0	26	104	0	80	17441
2026-01-14 07:28:52.20	66.29	2.33	-57.9	-70.9	3.8	8.45e-01	0	25	104	0	80	17505
2026-01-14 07:28:53.21	66.23	2.39	-57.9	-70.9	3.8	8.46e-01	0	26	104	0	80	17493
2026-01-14 07:28:54.21	66.16	2.45	-57.9	-70.8	3.8	8.46e-01	0	26	104	0	80	17404
2026-01-14 07:28:55.20	66.10	2.51	-57.9	-70.8	3.8	8.45e-01	0	25	104	0	80	17442
2026-01-14 07:28:56.21	66.03	2.56	-57.9	-70.8	3.8	8.45e-01	0	25	104	0	80	17453
2026-01-14 07:28:57.20	65.97	2.62	-57.9	-70.8	3.8	8.45e-01	0	25	104	0	80	17391
2026-01-14 07:28:58.21	65.90	2.68	-57.9	-70.8	3.8	8.45e-01	0	26	104	0	80	17470
2026-01-14 07:28:59.21	65.84	2.74	-57.9	-70.8	3.8	8.46e-01	0	26	104	0	80	17443
2026-01-14 07:29:00.20	65.77	2.80	-57.9	-70.9	3.8	8.47e-01	0	26	104	0	80	17544
2026-01-14 07:29:01.21	65.71	2.85	-57.9	-70.9	3.8	8.45e-01	0	26	104	0	80	17500
2026-01-14 07:29:02.21	65.64	2.91	-57.9	-70.9	3.8	8.46e-01	0	26	104	0	80	17571
2026-01-14 07:29:03.21	65.57	2.97	-57.9	-70.9	3.8	8.46e-01	0	26	104	0	80	17546
2026-01-14 07:29:04.22	65.51	3.03	-57.9	-70.9	3.8	8.46e-01	0	26	104	0	80	17620
2026-01-14 07:29:05.22	65.44	3.09	-57.9	-70.9	3.8	8.47e-01	0	26	104	0	80	17619
2026-01-14 07:29:06.23	65.37	3.15	-57.9	-70.9	3.8	8.44e-01	0	26	104	0	80	17597
2026-01-14 07:29:07.23	65.30	3.21	-57.9	-70.9	3.8	8.46e-01	0	26	104	0	80	17682
2026-01-14 07:29:08.23	65.23	3.27	-57.9	-70.9	3.8	8.46e-01	0	26	104	0	80	17576
2026-01-14 07:29:09.23	65.17	3.32	-57.9	-70.8	3.8	8.44e-01	0	26	104	0	80	17436
2026-01-14 07:29:10.23	65.10	3.38	-57.9	-70.8	3.8	8.46e-01	0	26	104	0	80	17318
2026-01-14 07:29:11.23	65.03	3.44	-57.9	-70.7	3.8	8.44e-01	0	26	104	0	80	17241
2026-01-14 07:29:12.23	64.96	3.50	-57.9	-70.8	3.8	8.44e-01	0	26	104	0	80	17282
2026-01-14 07:29:13.23	64.89	3.56	-57.9	-70.8	3.8	8.45e-01	0	26	104	0	80	17336
2026-01-14 07:29:14.23	64.82	3.62	-57.9	-70.8	3.8	8.45e-01	0	26	104	0	80	17479
2026-01-14 07:29:15.24	64.75	3.68	-57.9	-70.9	3.8	8.46e-01	0	26	104	0	80	17564
2026-01-14 07:29:16.25	64.68	3.74	-57.9	-70.9	3.8	8.45e-01	0	26	104	0	80	17565
2026-01-14 07:29:17.25	64.61	3.80	-57.9	-70.9	3.8	8.46e-01	0	26	104	0	80	17548
2026-01-14 07:29:18.26	64.53	3.86	-57.9	-70.8	3.8	8.46e-01	0	26	104	0	80	17354
2026-01-14 07:29:19.25	64.46	3.92	-57.9	-70.7	3.8	8.45e-01	0	26	104	0	80	17237
2026-01-14 07:29:20.26	64.39	3.98	-57.9	-70.7	3.8	8.47e-01	0	26	104	0	80	17136
2026-01-14 07:29:21.27	64.32	4.04	-57.9	-70.7	3.8	8.45e-01	0	26	104	0	80	17277
2026-01-14 07:29:22.26	64.25	4.10	-57.9	-70.9	3.8	8.45e-01	0	26	104	0	80	17495
2026-01-14 07:29:23.27	64.17	4.16	-57.9	-70.9	3.8	8.45e-01	0	26	104	0	81	16629
2026-01-14 07:29:24.26	64.10	4.22	-57.9	-70.8	3.8	8.46e-01	0	26	104	0	81	16461
2026-01-14 07:29:25.26	64.03	4.28	-57.9	-70.6	3.9	8.46e-01	0	26	104	0	81	16083
2026-01-14 07:29:26.27	63.95	4.34	-57.8	-69.6	3.8	8.47e-01	0	26	104	0	81	14340
2026-01-14 07:29:27.27	63.88	4.40	-57.7	-68.7	3.8	8.43e-01	0	26	104	0	81	12929
2026-01-14 07:29:28.27	63.81	4.46	-57.7	-67.9	4.1	8.41e-01	0	26	0	0	81	11699
2026-01-14 07:29:29.27	63.73	4.52	-57.6	-67.0	4.3	8.36e-01	0	26	0	0	81	10590
2026-01-14 07:29:30.26	63.66	4.58	-57.4	-65.9	4.7	8.05e-01	0	26	0	0	81	9287
2026-01-14 07:29:31.26	63.58	4.64	-57.2	-64.6	5.3	7.52e-01	0	26	0	0	81	8078
2026-01-14 07:29:32.26	63.51	4.70	-57.0	-63.6	6.0	3.66e-01	0	26	0	4194304	80	7623
2026-01-14 07:29:33.26	63.43	4.76	-56.5	-62.0	7.2	1.92e-01	0	26	0	9437184	79	6665
2026-01-14 07:29:34.26	63.36	4.83	-56.3	-61.5	7.6	7.67e-02	0	26	0	14680064	79	6282
2026-01-14 07:29:35.26	63.28	4.89	-55.6	-59.7	9.1	1.67e-02	0	26	0	20971520	77	5741
2026-01-14 07:29:36.27	63.20	4.95	-55.1	-58.7	9.9	3.01e-03	0	26	0	26214400	76	5462
2026-01-14 07:29:37.26	63.13	5.01	-54.9	-58.4	10.2	1.57e-03	0	26	0	32505856	76	5253
2026-01-14 07:29:38.26	63.05	5.07	-54.7	-57.9	10.6	8.08e-04	0	26	0	37748736	76	4981
2026-01-14 07:29:39.26	62.97	5.13	-55.6	-59.6	9.3	2.78e-03	0	26	0	42991616	76	6031
2026-01-14 07:29:40.26	62.89	5.19	-55.7	-59.8	9.0	1.27e-01	0	26	0	49283072	78	5510
2026-01-14 07:29:41.27	62.81	5.26	-54.6	-57.9	10.4	8.62e-04	0	26	0	54525952	75	5267
2026-01-14 07:29:42.28	62.73	5.32	-51.7	-53.6	13.1	0.00e+00	0	26	0	59768832	68	4806
2026-01-14 07:29:43.28	62.65	5.38	-56.5	-62.1	7.0	2.03e-01	0	27	0	66060288	79	6734
2026-01-14 07:29:44.28	62.57	5.44	-50.8	-52.5	13.8	0.00e+00	0	26	0	71303168	68	4200
2026-01-14 07:29:45.29	62.49	5.50	-50.7	-52.4	13.9	0.00e+00	0	26	0	77594624	68	4168
2026-01-14 07:29:46.30	62.41	5.57	-50.5	-52.1	13.9	0.00e+00	0	26	0	82837504	67	4260
2026-01-14 07:29:47.31	62.33	5.63	-50.1	-51.7	14.0	0.00e+00	0	27	0	88080384	66	4292
2026-01-14 07:29:48.31	62.25	5.69	-50.2	-51.7	14.0	0.00e+00	0	27	0	94371840	66	4337
2026-01-14 07:29:49.31	62.17	5.76	-50.0	-51.5	14.1	0.00e+00	0	27	0	99614720	66	4225
2026-01-14 07:29:50.31	62.09	5.82	-50.0	-51.6	14.0	0.00e+00	0	26	0	105906176	66	4256
2026-01-14 07:29:51.31	62.01	5.88	-50.0	-51.5	14.1	0.00e+00	0	26	0	111149056	66	4224
2026-01-14 07:29:52.32	61.92	5.94	-49.9	-51.4	14.1	0.00e+00	0	27	0	116391936	66	4184
2026-01-14 07:29:53.31	61.84	6.01	-49.3	-50.7	14.4	0.00e+00	0	26	0	122683392	65	4079
2026-01-14 07:29:54.32	61.76	6.07	-50.6	-52.3	13.7	0.00e+00	0	27	0	127926272	66	4623
2026-01-14 07:29:55.31	61.67	6.13	-50.1	-51.7	14.0	0.00e+00	0	27	0	133169152	66	4318
2026-01-14 07:29:56.31	61.59	6.20	-49.7	-51.2	14.3	0.00e+00	0	27	0	139460608	66	4086
2026-01-14 07:29:57.31	61.51	6.26	-49.8	-51.3	14.2	0.00e+00	0	27	0	144703488	66	4104
2026-01-14 07:29:58.31	61.42	6.32	-49.8	-51.3	14.1	0.00e+00	0	26	0	149946368	65	4385
2026-01-14 07:29:59.30	61.34	6.38	-49.7	-51.2	14.1	0.00e+00	0	26	0	156237824	65	4338
2026-01-14 07:30:00.30	61.25	6.45	-49.9	-51.4	14.0	0.00e+00	0	27	0	161480704	65	4439
2026-01-14 07:30:01.30	61.17	6.51	-49.7	-51.2	14.2	0.00e+00	0	27	0	167772160	65	4297
2026-01-14 07:30:02.29	61.08	6.57	-49.7	-51.2	14.1	0.00e+00	0	27	0	173015040	65	4333
2026-01-14 07:30:03.29	60.99	6.64	-49.6	-51.1	14.2	0.00e+00	0	27	0	178257920	65	4265
2026-01-14 07:30:04.28	60.91	6.70	-49.7	-51.2	14.2	0.00e+00	0	27	0	183500800	65	4306
2026-01-14 07:30:05.27	60.82	6.76	-49.7	-51.2	14.2	0.00e+00	0	27	0	189792256	65	4312
2026-01-14 07:30:06.27	60.73	6.83	-49.7	-51.2	14.2	0.00e+00	0	27	0	195035136	65	4312
2026-01-14 07:30:07.26	60.65	6.89	-49.6	-51.1	14.2	0.00e+00	0	27	0	200278016	65	4261
2026-01-14 07:30:08.27	60.56	6.96	-49.7	-51.2	14.2	0.00e+00	0	27	0	206569472	65	4300
2026-01-14 07:30:09.26	60.47	7.02	-49.6	-51.1	14.2	0.00e+00	0	27	0	211812352	65	4262
2026-01-14 07:30:10.25	60.38	7.08	-49.8	-51.3	14.1	0.00e+00	0	27	0	218103808	65	4387
2026-01-14 07:30:11.24	60.29	7.15	-49.8	-51.3	14.1	0.00e+00	0	27	0	223346688	65	4341
2026-01-14 07:30:12.23	60.20	7.21	-49.7	-51.1	14.2	0.00e+00	0	27	0	228589568	65	4284
2026-01-14 07:30:13.23	60.11	7.28	-49.5	-50.9	14.3	0.00e+00	0	27	0	233832448	65	4180
2026-01-14 07:30:14.23	60.02	7.34	-49.6	-51.1	14.2	0.00e+00	0	27	0	240123904	65	4259
2026-01-14 07:30:15.23	59.93	7.41	-49.6	-51.1	14.2	0.00e+00	0	27	0	245366784	65	4271
2026-01-14 07:30:16.23	59.84	7.47	-49.5	-50.9	14.3	0.00e+00	0	27	0	250609664	65	4193
2026-01-14 07:30:17.22	59.74	7.54	-49.5	-50.9	14.3	0.00e+00	0	27	0	256901120	65	4186
2026-01-14 07:30:18.22	59.65	7.60	-49.7	-51.1	14.2	0.00e+00	0	27	0	262144000	65	4281
2026-01-14 07:30:19.22	59.56	7.67	-49.5	-50.9	14.3	0.00e+00	0	27	0	268435456	65	4172
2026-01-14 07:30:20.22	59.47	7.73	-49.5	-50.9	14.3	0.00e+00	0	27	0	273678336	65	4178
2026-01-14 07:30:21.22	59.37	7.80	-49.5	-50.9	14.3	0.00e+00	0	27	0	278921216	65	4165
2026-01-14 07:30:22.21	59.28	7.86	-49.4	-50.8	14.4	0.00e+00	0	27	0	285212672	65	4112
2026-01-14 07:30:23.21	59.18	7.93	-49.1	-50.5	14.4	0.00e+00	0	27	0	290455552	64	4216
2026-01-14 07:30:24.20	59.09	7.99	-49.3	-50.7	14.3	0.00e+00	0	27	0	295698432	64	4316
2026-01-14 07:30:25.19	58.99	8.06	-49.3	-50.7	14.3	0.00e+00	0	27	0	301989888	64	4313
2026-01-14 07:30:26.20	58.90	8.12	-49.3	-50.6	14.3	0.00e+00	0	27	0	307232768	64	4284
2026-01-14 07:30:27.20	58.80	8.19	-49.4	-50.8	14.3	0.00e+00	0	27	0	313524224	64	4362
2026-01-14 07:30:28.21	58.70	8.26	-49.1	-50.5	14.4	0.00e+00	0	27	0	318767104	64	4207
2026-01-14 07:30:29.19	58.61	8.32	-49.0	-50.4	14.5	0.00e+00	0	27	0	324009984	64	4149
2026-01-14 07:30:30.19	58.51	8.39	-49.0	-50.4	14.5	0.00e+00	0	27	0	330301440	64	4146
2026-01-14 07:30:31.18	58.41	8.45	-49.1	-50.4	14.5	0.00e+00	0	27	0	335544320	64	4175
2026-01-14 07:30:32.18	58.31	8.52	-49.1	-50.4	14.5	0.00e+00	0	27	0	340787200	64	4176
2026-01-14 07:30:33.17	58.21	8.59	-49.0	-50.3	14.5	0.00e+00	0	27	0	346030080	64	4125
2026-01-14 07:30:34.16	58.11	8.65	-49.1	-50.4	14.5	0.00e+00	0	27	0	352321536	64	4188
2026-01-14 07:30:35.15	58.01	8.72	-49.1	-50.4	14.5	0.00e+00	0	27	0	357564416	64	4192
2026-01-14 07:30:36.15	57.91	8.78	-49.1	-50.5	14.4	0.00e+00	0	27	0	363855872	64	4211
2026-01-14 07:30:37.14	57.81	8.85	-49.1	-50.4	14.5	0.00e+00	0	27	0	369098752	64	4183
2026-01-14 07:30:38.14	57.71	8.92	-49.1	-50.5	14.4	0.00e+00	0	27	0	374341632	64	4219
2026-01-14 07:30:39.13	57.61	8.98	-49.1	-50.5	14.4	0.00e+00	0	27	0	379584512	64	4220
2026-01-14 07:30:40.13	57.51	9.05	-49.1	-50.5	14.5	0.00e+00	0	27	0	385875968	64	4196
2026-01-14 07:30:41.13	57.40	9.12	-49.1	-50.5	14.5	0.00e+00	0	27	0	391118848	64	4197
2026-01-14 07:30:42.12	57.30	9.19	-49.1	-50.4	14.5	0.00e+00	0	27	0	396361728	64	4193
2026-01-14 07:30:43.12	57.20	9.25	-49.0	-50.4	14.5	0.00e+00	0	27	0	402653184	64	4147
2026-01-14 07:30:44.11	57.09	9.32	-49.0	-50.3	14.5	0.00e+00	0	27	0	407896064	64	4119
2026-01-14 07:30:45.10	56.99	9.39	-49.0	-50.3	14.5	0.00e+00	0	27	0	414187520	64	4141
2026-01-14 07:30:46.09	56.88	9.45	-48.9	-50.3	14.5	0.00e+00	0	27	0	419430400	64	4106
2026-01-14 07:30:47.09	56.78	9.52	-49.0	-50.4	14.5	0.00e+00	0	27	0	424673280	64	4155
2026-01-14 07:30:48.08	56.67	9.59	-48.9	-50.3	14.6	0.00e+00	0	27	0	429916160	64	4103
2026-01-14 07:30:49.08	56.56	9.66	-49.0	-50.4	14.5	0.00e+00	0	27	0	436207616	64	4164
2026-01-14 07:30:50.07	56.46	9.72	-49.0	-50.3	14.5	0.00e+00	0	27	0	441450496	64	4139
2026-01-14 07:30:51.06	56.35	9.79	-49.0	-50.4	14.5	0.00e+00	0	27	0	446693376	64	4148
2026-01-14 07:30:52.06	56.24	9.86	-49.1	-50.5	14.5	0.00e+00	0	27	0	452984832	64	4208
2026-01-14 07:30:53.05	56.13	9.93	-49.0	-50.4	14.5	0.00e+00	0	27	0	458227712	64	4147
2026-01-14 07:30:54.05	56.02	10.00	-49.1	-50.4	14.5	0.00e+00	0	27	0	464519168	64	4183
2026-01-14 07:30:55.05	55.91	10.06	-49.0	-50.4	14.5	0.00e+00	0	27	0	469762048	64	4162
2026-01-14 07:30:56.04	55.80	10.13	-49.0	-50.4	14.5	0.00e+00	0	27	0	475004928	64	4147
2026-01-14 07:30:57.03	55.69	10.20	-49.0	-50.3	14.5	0.00e+00	0	27	0	480247808	64	4135
2026-01-14 07:30:58.03	55.58	10.27	-48.8	-50.1	14.6	0.00e+00	0	27	0	486539264	64	4040
2026-01-14 07:30:59.03	55.47	10.34	-48.9	-50.2	14.6	0.00e+00	0	27	0	491782144	64	4067
2026-01-14 07:31:00.02	55.36	10.41	-48.8	-50.1	14.6	0.00e+00	0	27	0	497025024	64	4051
2026-01-14 07:31:01.02	55.24	10.48	-48.8	-50.1	14.7	0.00e+00	0	27	0	503316480	64	4013
2026-01-14 07:31:02.03	55.13	10.55	-48.7	-50.0	14.7	0.00e+00	0	27	0	508559360	64	4002
2026-01-14 07:31:03.03	55.01	10.61	-48.7	-50.0	14.6	0.00e+00	0	27	0	514850816	63	4208
2026-01-14 07:31:04.02	54.90	10.68	-48.5	-49.8	14.7	0.00e+00	0	27	0	520093696	63	4122
2026-01-14 07:31:05.02	54.78	10.75	-48.6	-49.8	14.7	0.00e+00	0	27	0	525336576	63	4141
2026-01-14 07:31:06.01	54.67	10.82	-48.5	-49.8	14.7	0.00e+00	0	27	0	531628032	63	4105
2026-01-14 07:31:07.01	54.55	10.89	-48.7	-50.0	14.6	0.00e+00	0	27	0	536870912	63	4198
2026-01-14 07:31:08.00	54.43	10.96	-48.6	-49.9	14.6	0.00e+00	0	27	0	542113792	63	4193
2026-01-14 07:31:08.99	54.32	11.03	-48.6	-49.9	14.6	0.00e+00	0	27	0	548405248	63	4177
2026-01-14 07:31:09.99	54.20	11.10	-48.6	-49.9	14.6	0.00e+00	0	27	0	553648128	63	4181
2026-01-14 07:31:10.98	54.08	11.17	-48.6	-50.0	14.6	0.00e+00	0	27	0	558891008	63	4197
2026-01-14 07:31:11.97	53.96	11.24	-48.5	-49.8	14.7	0.00e+00	0	27	0	565182464	63	4103
2026-01-14 07:31:12.96	53.84	11.31	-48.5	-49.8	14.7	0.00e+00	0	27	0	570425344	63	4104
2026-01-14 07:31:13.96	53.72	11.38	-48.5	-49.7	14.7	0.00e+00	0	27	0	575668224	63	4094
2026-01-14 07:31:14.95	53.60	11.44	-48.4	-49.7	14.7	0.00e+00	0	27	0	581959680	63	4086
2026-01-14 07:31:15.95	53.48	11.51	-48.5	-49.8	14.7	0.00e+00	0	27	0	587202560	63	4104
2026-01-14 07:31:16.95	53.36	11.58	-48.5	-49.7	14.7	0.00e+00	0	27	0	592445440	63	4095
2026-01-14 07:31:17.94	53.23	11.65	-48.3	-49.6	14.8	0.00e+00	0	27	0	598736896	63	4008
2026-01-14 07:31:18.94	53.11	11.72	-48.3	-49.5	14.8	0.00e+00	0	27	0	603979776	63	3997
2026-01-14 07:31:19.93	52.99	11.79	-48.2	-49.5	14.8	0.00e+00	0	27	0	609222656	63	3960
2026-01-14 07:31:20.92	52.86	11.86	-48.3	-49.5	14.8	0.00e+00	0	27	0	615514112	63	3979
2026-01-14 07:31:21.92	52.74	11.93	-48.3	-49.6	14.8	0.00e+00	0	27	0	620756992	63	4017
2026-01-14 07:31:22.91	52.61	12.00	-48.4	-49.7	14.8	0.00e+00	0	27	0	625999872	63	4054
2026-01-14 07:31:23.91	52.48	12.08	-48.3	-49.6	14.8	0.00e+00	0	27	0	632291328	63	4031
2026-01-14 07:31:24.90	52.36	12.15	-48.4	-49.6	14.8	0.00e+00	0	27	0	637534208	63	4033
2026-01-14 07:31:25.90	52.23	12.22	-48.2	-49.5	14.8	0.00e+00	0	27	0	642777088	63	3973
2026-01-14 07:31:26.90	52.10	12.29	-48.2	-49.4	14.7	0.00e+00	0	27	0	649068544	62	4182
2026-01-14 07:31:27.89	51.97	12.36	-48.3	-49.6	14.7	0.00e+00	0	27	0	654311424	62	4258
2026-01-14 07:31:28.88	51.84	12.43	-48.2	-49.5	14.7	0.00e+00	0	27	0	659554304	62	4220
2026-01-14 07:31:29.88	51.71	12.50	-48.2	-49.4	14.7	0.00e+00	0	27	0	665845760	62	4179
2026-01-14 07:31:30.88	51.58	12.57	-48.1	-49.4	14.7	0.00e+00	0	27	0	671088640	62	4154
2026-01-14 07:31:31.87	51.45	12.64	-48.1	-49.4	14.7	0.00e+00	0	27	0	676331520	62	4151
2026-01-14 07:31:32.87	51.32	12.71	-48.1	-49.3	14.8	0.00e+00	0	27	0	682622976	62	4119
2026-01-14 07:31:33.86	51.19	12.78	-48.1	-49.4	14.7	0.00e+00	0	27	0	687865856	62	4160
2026-01-14 07:31:34.86	51.05	12.85	-48.2	-49.4	14.7	0.00e+00	0	27	0	693108736	62	4178
2026-01-14 07:31:35.85	50.92	12.92	-48.1	-49.3	14.8	0.00e+00	0	27	0	699400192	62	4133
2026-01-14 07:31:36.85	50.78	13.00	-48.0	-49.2	14.8	0.00e+00	0	27	0	704643072	62	4071
2026-01-14 07:31:37.84	50.65	13.07	-48.0	-49.2	14.8	0.00e+00	0	27	0	710934528	62	4065
2026-01-14 07:31:38.85	50.51	13.14	-47.9	-49.1	14.9	0.00e+00	0	27	0	716177408	62	4020
2026-01-14 07:31:39.84	50.37	13.21	-47.7	-48.9	14.9	0.00e+00	0	27	0	721420288	62	3954
2026-01-14 07:31:40.83	50.24	13.28	-47.7	-48.9	14.9	0.00e+00	0	27	0	726663168	62	3949
2026-01-14 07:31:41.83	50.10	13.35	-47.7	-48.9	14.9	0.00e+00	0	27	0	732954624	62	3950
2026-01-14 07:31:42.82	49.96	13.42	-47.7	-49.0	14.9	0.00e+00	0	27	0	738197504	62	3961
2026-01-14 07:31:43.82	49.82	13.49	-47.8	-49.0	14.9	0.00e+00	0	27	0	743440384	62	3960
2026-01-14 07:31:44.81	49.68	13.57	-47.8	-49.0	14.9	0.00e+00	0	27	0	749731840	62	3965
2026-01-14 07:31:45.81	49.54	13.64	-47.6	-48.8	14.9	0.00e+00	0	27	0	754974720	61	4111
2026-01-14 07:31:46.80	49.40	13.71	-47.6	-48.8	14.8	0.00e+00	0	27	0	761266176	61	4142
2026-01-14 07:31:47.80	49.25	13.78	-47.7	-48.9	14.8	0.00e+00	0	27	0	766509056	61	4149
2026-01-14 07:31:48.79	49.11	13.85	-47.7	-48.9	14.8	0.00e+00	0	27	0	771751936	61	4187
2026-01-14 07:31:49.78	48.97	13.92	-47.7	-49.0	14.8	0.00e+00	0	27	0	776994816	61	4200
2026-01-14 07:31:50.78	48.82	13.99	-47.7	-49.0	14.8	0.00e+00	0	27	0	783286272	61	4200
2026-01-14 07:31:51.78	48.68	14.07	-47.7	-48.9	14.8	0.00e+00	0	27	0	788529152	61	4187
2026-01-14 07:31:52.77	48.53	14.14	-47.6	-48.8	14.8	0.00e+00	0	27	0	793772032	61	4124
2026-01-14 07:31:53.75	48.39	14.21	-47.6	-48.7	14.9	0.00e+00	0	27	0	800063488	61	4095
2026-01-14 07:31:54.74	48.24	14.28	-47.6	-48.8	14.9	0.00e+00	0	27	0	805306368	61	4112
2026-01-14 07:31:55.74	48.09	14.35	-47.6	-48.9	14.8	0.00e+00	0	27	0	811597824	61	4148
2026-01-14 07:31:56.72	47.95	14.42	-47.6	-48.7	14.9	0.00e+00	0	27	0	816840704	61	4085
2026-01-14 07:31:57.73	47.80	14.50	-47.5	-48.7	14.9	0.00e+00	0	27	0	822083584	61	4087
2026-01-14 07:31:58.72	47.65	14.57	-47.6	-48.8	14.9	0.00e+00	0	27	0	827326464	61	4109
2026-01-14 07:31:59.71	47.50	14.64	-47.6	-48.8	14.9	0.00e+00	0	27	0	833617920	61	4111
2026-01-14 07:32:00.70	47.34	14.71	-47.5	-48.7	14.9	0.00e+00	0	27	0	838860800	61	4071
2026-01-14 07:32:01.70	47.19	14.78	-47.5	-48.7	14.9	0.00e+00	0	27	0	844103680	61	4084
2026-01-14 07:32:02.70	47.04	14.85	-47.4	-48.6	14.9	0.00e+00	0	27	0	850395136	61	4028
2026-01-14 07:32:03.69	46.88	14.93	-47.3	-48.5	15.0	0.00e+00	0	27	0	855638016	61	3972
2026-01-14 07:32:04.69	46.73	15.00	-47.2	-48.4	15.0	0.00e+00	0	27	0	860880896	61	3926
2026-01-14 07:32:05.68	46.57	15.07	-47.2	-48.3	15.1	0.00e+00	0	27	0	867172352	61	3905
2026-01-14 07:32:06.67	46.42	15.14	-47.2	-48.3	14.9	0.00e+00	0	27	0	872415232	60	4132
2026-01-14 07:32:07.67	46.26	15.21	-47.1	-48.3	14.9	0.00e+00	0	27	0	877658112	60	4124
2026-01-14 07:32:08.66	46.10	15.28	-47.2	-48.4	14.9	0.00e+00	0	27	0	883949568	60	4178
2026-01-14 07:32:09.65	45.95	15.36	-47.2	-48.4	14.9	0.00e+00	0	27	0	889192448	60	4168
2026-01-14 07:32:10.65	45.79	15.43	-47.3	-48.5	14.9	0.00e+00	0	27	0	894435328	60	4203
2026-01-14 07:32:11.63	45.63	15.50	-47.2	-48.4	14.9	0.00e+00	0	27	0	900726784	60	4182
2026-01-14 07:32:12.64	45.47	15.57	-47.2	-48.4	14.9	0.00e+00	0	27	0	905969664	60	4156
2026-01-14 07:32:13.64	45.30	15.64	-47.2	-48.4	14.9	0.00e+00	0	27	0	911212544	60	4178
2026-01-14 07:32:14.63	45.14	15.71	-47.2	-48.4	14.9	0.00e+00	0	27	0	917504000	60	4178
2026-01-14 07:32:15.63	44.98	15.79	-47.3	-48.5	14.9	0.00e+00	0	27	0	922746880	60	4199
2026-01-14 07:32:16.62	44.81	15.86	-47.2	-48.4	14.9	0.00e+00	0	27	0	927989760	60	4150
2026-01-14 07:32:17.62	44.65	15.93	-47.2	-48.4	14.9	0.00e+00	0	27	0	934281216	60	4173
2026-01-14 07:32:18.61	44.48	16.00	-47.3	-48.5	14.8	0.00e+00	0	27	0	939524096	60	4224
2026-01-14 07:32:19.61	44.32	16.07	-47.3	-48.5	14.9	0.00e+00	0	27	0	944766976	60	4204
2026-01-14 07:32:20.60	44.15	16.14	-47.2	-48.4	14.9	0.00e+00	0	27	0	951058432	60	4153
2026-01-14 07:32:21.59	43.98	16.21	-47.1	-48.2	15.0	0.00e+00	0	27	0	956301312	60	4089
2026-01-14 07:32:22.59	43.81	16.29	-47.1	-48.3	14.9	0.00e+00	0	27	0	962592768	60	4115
2026-01-14 07:32:23.58	43.64	16.36	-47.1	-48.3	14.9	0.00e+00	0	27	0	967835648	60	4109
2026-01-14 07:32:24.58	43.47	16.43	-47.1	-48.2	15.0	0.00e+00	0	27	0	973078528	60	4080
2026-01-14 07:32:25.57	43.30	16.50	-47.1	-48.3	14.9	0.00e+00	0	27	0	978321408	60	4106
2026-01-14 07:32:26.57	43.13	16.57	-47.2	-48.3	14.9	0.00e+00	0	27	0	984612864	60	4136
2026-01-14 07:32:27.57	42.96	16.64	-47.1	-48.3	15.0	0.00e+00	0	27	0	989855744	60	4106
2026-01-14 07:32:28.57	42.78	16.71	-47.1	-48.3	14.9	0.00e+00	0	27	0	995098624	60	4130
2026-01-14 07:32:29.56	42.61	16.78	-47.1	-48.2	15.0	0.00e+00	0	27	0	1001390080	60	4094
2026-01-14 07:32:30.55	42.43	16.86	-47.1	-48.2	15.0	0.00e+00	0	27	0	1006632960	60	4084
2026-01-14 07:32:31.53	42.26	16.93	-47.1	-48.2	14.9	0.00e+00	0	27	0	1011875840	60	4090
2026-01-14 07:32:32.52	42.08	17.00	-47.1	-48.2	15.0	0.00e+00	0	27	0	1018167296	60	4085
2026-01-14 07:32:33.51	41.91	17.07	-47.1	-48.2	14.9	0.00e+00	0	27	0	1023410176	60	4094
2026-01-14 07:32:34.51	41.73	17.14	-47.2	-48.4	14.9	0.00e+00	0	27	0	1028653056	60	4176
2026-01-14 07:32:35.51	41.54	17.21	-46.9	-48.1	15.0	0.00e+00	0	27	0	1034944512	60	4013
2026-01-14 07:32:36.50	41.37	17.28	-46.8	-48.0	15.1	0.00e+00	0	27	0	1040187392	60	3964
2026-01-14 07:32:37.49	41.18	17.35	-46.8	-48.0	15.1	0.00e+00	0	27	0	1046478848	60	3963
2026-01-14 07:32:38.49	41.00	17.42	-46.8	-48.0	15.1	0.00e+00	0	27	0	1051721728	60	3961
2026-01-14 07:32:39.48	40.82	17.49	-46.9	-48.0	15.0	0.00e+00	0	27	0	1056964608	60	3992
2026-01-14 07:32:40.47	40.64	17.56	-46.8	-48.0	15.1	0.00e+00	0	27	0	1062207488	60	3967
2026-01-14 07:32:41.46	40.45	17.63	-46.7	-47.8	15.1	0.00e+00	0	27	0	1068498944	60	3905
2026-01-14 07:32:42.45	40.27	17.70	-46.7	-47.8	15.1	0.00e+00	0	27	0	1073741824	60	3894
2026-01-14 07:32:43.45	40.08	17.77	-47.0	-48.2	14.9	0.00e+00	0	27	0	1078984704	59	4308
2026-01-14 07:32:44.44	39.89	17.84	-47.1	-48.2	14.9	0.00e+00	0	27	0	1085276160	59	4322
2026-01-14 07:32:45.44	39.70	17.91	-47.0	-48.2	14.9	0.00e+00	0	27	0	1090519040	59	4323
2026-01-14 07:32:46.43	39.52	17.97	-46.9	-48.1	14.9	0.00e+00	0	27	0	1095761920	59	4244
2026-01-14 07:32:47.42	39.33	18.04	-46.8	-48.0	15.0	0.00e+00	0	27	0	1102053376	59	4206
2026-01-14 07:32:48.40	39.14	18.11	-46.9	-48.0	14.9	0.00e+00	0	27	0	1107296256	59	4230
2026-01-14 07:32:49.38	38.95	18.18	-46.9	-48.0	14.9	0.00e+00	0	27	0	1112539136	59	4240
2026-01-14 07:32:50.37	38.76	18.25	-46.8	-47.9	15.0	0.00e+00	0	27	0	1117782016	59	4173
2026-01-14 07:32:51.37	38.56	18.32	-46.8	-48.0	15.0	0.00e+00	0	27	0	1124073472	59	4195
2026-01-14 07:32:52.36	38.37	18.39	-46.7	-47.8	15.0	0.00e+00	0	27	0	1129316352	59	4145
2026-01-14 07:32:53.36	38.17	18.45	-46.6	-47.7	15.0	0.00e+00	0	27	0	1135607808	59	4096
2026-01-14 07:32:54.35	37.98	18.52	-46.5	-47.6	15.1	0.00e+00	0	27	0	1140850688	59	4037
2026-01-14 07:32:55.36	37.78	18.59	-46.5	-47.6	15.1	0.00e+00	0	27	0	1146093568	59	4035
2026-01-14 07:32:56.35	37.58	18.66	-46.4	-47.5	15.1	0.00e+00	0	27	0	1152385024	59	3989
2026-01-14 07:32:57.34	37.38	18.73	-46.5	-47.6	15.1	0.00e+00	0	27	0	1157627904	59	4010
2026-01-14 07:32:58.33	37.18	18.79	-46.5	-47.6	15.1	0.00e+00	0	27	0	1162870784	59	4010
2026-01-14 07:32:59.32	36.98	18.86	-46.6	-47.7	15.0	0.00e+00	0	27	0	1168113664	59	4080
2026-01-14 07:33:00.32	36.78	18.93	-46.7	-47.8	15.0	0.00e+00	0	27	0	1174405120	59	4134
2026-01-14 07:33:01.30	36.58	18.99	-46.7	-47.8	15.0	0.00e+00	0	27	0	1179648000	59	4118
2026-01-14 07:33:02.29	36.38	19.06	-46.6	-47.7	15.0	0.00e+00	0	27	0	1185939456	59	4083
2026-01-14 07:33:03.29	36.17	19.13	-46.6	-47.8	15.0	0.00e+00	0	27	0	1191182336	59	4113
2026-01-14 07:33:04.28	35.97	19.19	-46.5	-47.7	15.1	0.00e+00	0	27	0	1196425216	59	4055
2026-01-14 07:33:05.28	35.76	19.26	-46.5	-47.6	15.1	0.00e+00	0	27	0	1201668096	59	4029
2026-01-14 07:33:06.28	35.55	19.32	-46.5	-47.6	15.1	0.00e+00	0	27	0	1207959552	59	4036
2026-01-14 07:33:07.27	35.35	19.39	-46.5	-47.7	15.1	0.00e+00	0	27	0	1213202432	59	4057
2026-01-14 07:33:08.27	35.14	19.46	-46.5	-47.7	15.1	0.00e+00	0	27	0	1218445312	59	4057
2026-01-14 07:33:09.28	34.92	19.52	-46.6	-47.8	15.0	0.00e+00	0	27	0	1224736768	59	4100
2026-01-14 07:33:10.26	34.72	19.59	-46.5	-47.6	15.1	0.00e+00	0	27	0	1229979648	59	4047
2026-01-14 07:33:11.26	34.50	19.65	-46.5	-47.6	15.1	0.00e+00	0	27	0	1236271104	59	4051
2026-01-14 07:33:12.25	34.29	19.72	-46.4	-47.5	15.1	0.00e+00	0	27	0	1241513984	59	3985
2026-01-14 07:33:13.25	34.08	19.78	-46.4	-47.5	15.1	0.00e+00	0	27	0	1246756864	59	4001
2026-01-14 07:33:14.24	33.87	19.84	-46.4	-47.5	15.1	0.00e+00	0	27	0	1253048320	59	3990
2026-01-14 07:33:15.23	33.65	19.91	-46.5	-47.6	15.1	0.00e+00	0	27	0	1258291200	59	4051
2026-01-14 07:33:16.23	33.43	19.97	-46.5	-47.6	15.1	0.00e+00	0	27	0	1263534080	59	4046
2026-01-14 07:33:17.22	33.22	20.03	-46.5	-47.6	15.1	0.00e+00	0	27	0	1268776960	59	4047
2026-01-14 07:33:18.22	33.00	20.10	-46.4	-47.5	15.1	0.00e+00	0	27	0	1275068416	59	4000
2026-01-14 07:33:19.21	32.78	20.16	-46.4	-47.5	15.1	0.00e+00	0	27	0	1280311296	59	3971
2026-01-14 07:33:20.20	32.56	20.22	-46.4	-47.5	15.1	0.00e+00	0	27	0	1286602752	59	4002
2026-01-14 07:33:21.19	32.34	20.28	-46.2	-47.3	15.2	0.00e+00	0	27	0	1291845632	59	3909
2026-01-14 07:33:22.19	32.12	20.35	-46.3	-47.4	15.2	0.00e+00	0	27	0	1297088512	59	3945
2026-01-14 07:33:23.18	31.90	20.41	-46.3	-47.4	15.2	0.00e+00	0	27	0	1302331392	59	3950
2026-01-14 07:33:24.18	31.68	20.47	-46.4	-47.5	15.1	0.00e+00	0	27	0	1308622848	59	3974
2026-01-14 07:33:25.17	31.45	20.53	-46.5	-47.6	15.1	0.00e+00	0	27	0	1313865728	59	4040
2026-01-14 07:33:26.16	31.23	20.59	-46.6	-47.7	15.1	0.00e+00	0	27	0	1319108608	59	4057
2026-01-14 07:33:27.15	31.00	20.65	-46.7	-47.8	15.0	0.00e+00	0	27	0	1325400064	59	4123
2026-01-14 07:33:28.14	30.78	20.71	-46.7	-47.9	15.0	0.00e+00	0	27	0	1330642944	59	4159
2026-01-14 07:33:29.14	30.55	20.77	-46.7	-47.8	15.0	0.00e+00	0	27	0	1336934400	59	4145
2026-01-14 07:33:30.14	30.32	20.83	-46.7	-47.8	15.0	0.00e+00	0	27	0	1342177280	59	4124
2026-01-14 07:33:31.14	30.09	20.89	-46.5	-47.6	15.1	0.00e+00	0	27	0	1347420160	59	4030
2026-01-14 07:33:32.13	29.86	20.94	-46.4	-47.5	15.1	0.00e+00	0	27	0	1352663040	59	3961
2026-01-14 07:33:33.12	29.63	21.00	-46.3	-47.4	15.2	0.00e+00	0	27	0	1358954496	59	3937
2026-01-14 07:33:34.12	29.40	21.06	-46.2	-47.3	15.2	0.00e+00	0	27	0	1364197376	59	3871
2026-01-14 07:33:35.12	29.16	21.12	-46.2	-47.3	15.1	0.00e+00	0	27	0	1369440256	58	4116
2026-01-14 07:33:36.10	28.93	21.17	-46.2	-47.3	15.1	0.00e+00	0	27	0	1375731712	58	4131
2026-01-14 07:33:37.10	28.69	21.23	-46.2	-47.3	15.1	0.00e+00	0	27	0	1380974592	58	4114
2026-01-14 07:33:38.10	28.46	21.29	-46.2	-47.3	15.1	0.00e+00	0	27	0	1387266048	58	4113
2026-01-14 07:33:39.09	28.22	21.34	-46.1	-47.2	15.1	0.00e+00	0	27	0	1392508928	58	4092
2026-01-14 07:33:40.09	27.98	21.40	-46.2	-47.3	15.1	0.00e+00	0	27	0	1397751808	58	4101
2026-01-14 07:33:41.08	27.75	21.45	-46.2	-47.3	15.1	0.00e+00	0	27	0	1402994688	58	4128
2026-01-14 07:33:42.07	27.51	21.51	-46.3	-47.4	15.1	0.00e+00	0	27	0	1409286144	58	4152
2026-01-14 07:33:43.06	27.27	21.56	-46.2	-47.4	15.1	0.00e+00	0	27	0	1414529024	58	4149
2026-01-14 07:33:44.06	27.03	21.62	-46.2	-47.3	15.1	0.00e+00	0	27	0	1420820480	58	4140
2026-01-14 07:33:45.05	26.79	21.67	-46.2	-47.3	15.1	0.00e+00	0	27	0	1426063360	58	4115
2026-01-14 07:33:46.04	26.55	21.72	-46.2	-47.3	15.1	0.00e+00	0	27	0	1431306240	58	4133
2026-01-14 07:33:47.03	26.30	21.77	-46.1	-47.2	15.1	0.00e+00	0	27	0	1436549120	58	4079
2026-01-14 07:33:48.04	26.06	21.83	-46.1	-47.2	15.1	0.00e+00	0	27	0	1442840576	58	4076
2026-01-14 07:33:49.03	25.81	21.88	-46.2	-47.3	15.1	0.00e+00	0	27	0	1448083456	58	4112
2026-01-14 07:33:50.03	25.57	21.93	-46.3	-47.4	15.1	0.00e+00	0	27	0	1453326336	58	4158
2026-01-14 07:33:51.02	25.32	21.98	-46.2	-47.3	15.1	0.00e+00	0	27	0	1459617792	58	4114
2026-01-14 07:33:52.01	25.07	22.03	-46.3	-47.4	15.1	0.00e+00	0	27	0	1464860672	58	4157
2026-01-14 07:33:53.01	24.82	22.08	-46.2	-47.3	15.1	0.00e+00	0	27	0	1471152128	58	4121
2026-01-14 07:33:54.00	24.58	22.13	-46.1	-47.2	15.1	0.00e+00	0	27	0	1476395008	58	4091
2026-01-14 07:33:54.98	24.33	22.18	-46.1	-47.2	15.1	0.00e+00	0	27	0	1481637888	58	4087
2026-01-14 07:33:55.98	24.08	22.23	-46.0	-47.1	15.1	0.00e+00	0	27	0	1486880768	58	4013
2026-01-14 07:33:56.97	23.83	22.27	-45.9	-47.0	15.2	0.00e+00	0	27	0	1493172224	58	3963
2026-01-14 07:33:57.96	23.58	22.32	-45.9	-46.9	15.2	0.00e+00	0	27	0	1498415104	58	3958
2026-01-14 07:33:58.96	23.32	22.37	-45.8	-46.9	15.2	0.00e+00	0	27	0	1503657984	58	3932
2026-01-14 07:33:59.95	23.07	22.41	-45.8	-46.9	15.2	0.00e+00	0	27	0	1509949440	58	3940
2026-01-14 07:34:00.95	22.81	22.46	-45.9	-47.0	15.2	0.00e+00	0	27	0	1515192320	58	3966
2026-01-14 07:34:01.95	22.56	22.50	-45.9	-47.0	15.2	0.00e+00	0	27	0	1521483776	58	3965
2026-01-14 07:34:02.95	22.30	22.55	-45.9	-47.0	15.2	0.00e+00	0	27	0	1526726656	58	3968
2026-01-14 07:34:03.94	22.05	22.59	-45.9	-47.0	15.2	0.00e+00	0	27	0	1531969536	58	3988
2026-01-14 07:34:04.94	21.79	22.64	-45.9	-46.9	15.2	0.00e+00	0	27	0	1537212416	58	3957
2026-01-14 07:34:05.93	21.53	22.68	-45.9	-46.9	15.2	0.00e+00	0	27	0	1543503872	58	3952
2026-01-14 07:34:06.93	21.27	22.72	-45.9	-46.9	15.2	0.00e+00	0	27	0	1548746752	58	3957
2026-01-14 07:34:07.92	21.01	22.76	-45.9	-47.0	15.2	0.00e+00	0	27	0	1553989632	58	3967
2026-01-14 07:34:08.92	20.75	22.81	-45.9	-47.0	15.2	0.00e+00	0	27	0	1560281088	58	3981
2026-01-14 07:34:09.92	20.49	22.85	-45.8	-46.9	15.2	0.00e+00	0	27	0	1565523968	58	3945
2026-01-14 07:34:10.92	20.22	22.89	-45.8	-46.9	15.2	0.00e+00	0	27	0	1571815424	58	3939
2026-01-14 07:34:11.91	19.96	22.93	-45.8	-46.9	15.2	0.00e+00	0	27	0	1577058304	58	3939
2026-01-14 07:34:12.91	19.70	22.97	-45.7	-46.7	15.3	0.00e+00	0	27	0	1582301184	58	3861
2026-01-14 07:34:13.90	19.44	23.00	-45.6	-46.7	15.1	0.00e+00	0	27	0	1588592640	57	4058
2026-01-14 07:34:14.89	19.17	23.04	-45.7	-46.7	15.1	0.00e+00	0	27	0	1593835520	57	4096
2026-01-14 07:34:15.89	18.91	23.08	-45.7	-46.8	15.1	0.00e+00	0	27	0	1599078400	57	4101
2026-01-14 07:34:16.89	18.64	23.12	-45.8	-46.9	15.1	0.00e+00	0	27	0	1605369856	57	4160
2026-01-14 07:34:17.88	18.38	23.15	-45.9	-47.0	15.1	0.00e+00	0	27	0	1610612736	57	4194
2026-01-14 07:34:18.87	18.11	23.19	-45.9	-47.0	15.1	0.00e+00	0	27	0	1615855616	57	4194
2026-01-14 07:34:19.87	17.84	23.22	-45.8	-46.9	15.1	0.00e+00	0	27	0	1622147072	57	4184
2026-01-14 07:34:20.86	17.57	23.26	-45.8	-46.9	15.1	0.00e+00	0	27	0	1627389952	57	4183
2026-01-14 07:34:21.87	17.30	23.29	-45.9	-47.0	15.1	0.00e+00	0	27	0	1632632832	57	4199
2026-01-14 07:34:22.88	17.03	23.32	-45.9	-47.0	15.1	0.00e+00	0	27	0	1638924288	57	4205
2026-01-14 07:34:23.87	16.76	23.35	-46.0	-47.1	15.0	0.00e+00	0	27	0	1644167168	57	4259
2026-01-14 07:34:24.86	16.49	23.39	-45.8	-46.9	15.1	0.00e+00	0	27	0	1649410048	57	4164
2026-01-14 07:34:25.85	16.22	23.42	-45.8	-46.8	15.1	0.00e+00	0	27	0	1655701504	57	4142
2026-01-14 07:34:26.85	15.95	23.45	-45.7	-46.8	15.1	0.00e+00	0	27	0	1660944384	57	4119
2026-01-14 07:34:27.84	15.68	23.48	-45.7	-46.8	15.1	0.00e+00	0	27	0	1666187264	57	4121
2026-01-14 07:34:28.83	15.41	23.51	-45.7	-46.8	15.1	0.00e+00	0	27	0	1672478720	57	4116
2026-01-14 07:34:29.82	15.14	23.53	-45.5	-46.6	15.2	0.00e+00	0	27	0	1677721600	57	4035
2026-01-14 07:34:30.82	14.86	23.56	-45.5	-46.6	15.2	0.00e+00	0	27	0	1682964480	57	4031
2026-01-14 07:34:31.80	14.59	23.59	-45.5	-46.6	15.2	0.00e+00	0	27	0	1689255936	57	4039
2026-01-14 07:34:32.80	14.32	23.61	-45.6	-46.7	15.2	0.00e+00	0	27	0	1694498816	57	4060
2026-01-14 07:34:33.78	14.05	23.64	-45.3	-46.4	15.2	0.00e+00	0	27	0	1699741696	57	3927
2026-01-14 07:34:34.79	13.77	23.66	-45.3	-46.3	15.3	0.00e+00	0	27	0	1704984576	57	3886
2026-01-14 07:34:35.78	13.49	23.69	-45.3	-46.4	15.2	0.00e+00	0	27	0	1711276032	57	3921
2026-01-14 07:34:36.77	13.22	23.71	-45.1	-46.2	15.2	0.00e+00	0	27	0	1716518912	56	4062
2026-01-14 07:34:37.77	12.94	23.73	-45.1	-46.2	15.2	0.00e+00	0	27	0	1722810368	56	4062
2026-01-14 07:34:38.77	12.66	23.76	-45.3	-46.3	15.1	0.00e+00	0	27	0	1728053248	56	4131
2026-01-14 07:34:39.76	12.38	23.78	-45.4	-46.5	15.1	0.00e+00	0	27	0	1733296128	56	4198
2026-01-14 07:34:40.76	12.11	23.80	-45.5	-46.6	15.1	0.00e+00	0	27	0	1739587584	56	4259
2026-01-14 07:34:41.75	11.83	23.82	-45.5	-46.5	15.1	0.00e+00	0	27	0	1744830464	56	4234
2026-01-14 07:34:42.75	11.55	23.84	-45.6	-46.7	15.0	0.00e+00	0	27	0	1750073344	56	4294
2026-01-14 07:34:43.74	11.27	23.86	-45.7	-46.8	15.0	0.00e+00	0	27	0	1756364800	56	4342
2026-01-14 07:34:44.73	10.99	23.87	-45.6	-46.7	15.0	0.00e+00	0	27	0	1761607680	56	4325
2026-01-14 07:34:45.73	10.71	23.89	-45.7	-46.8	15.0	0.00e+00	0	27	0	1766850560	56	4344
2026-01-14 07:34:46.71	10.44	23.91	-45.5	-46.6	15.1	0.00e+00	0	27	0	1773142016	56	4276
2026-01-14 07:34:47.71	10.16	23.92	-45.5	-46.5	15.1	0.00e+00	0	27	0	1778384896	56	4226
2026-01-14 07:34:48.71	9.87	23.94	-45.5	-46.6	15.1	0.00e+00	0	27	0	1783627776	56	4246
2026-01-14 07:34:49.70	9.60	23.95	-45.4	-46.5	15.1	0.00e+00	0	27	0	1789919232	56	4203
2026-01-14 07:34:50.70	9.31	23.96	-45.3	-46.4	15.1	0.00e+00	0	27	0	1795162112	56	4168
2026-01-14 07:34:51.69	9.03	23.98	-45.4	-46.4	15.1	0.00e+00	0	27	0	1800404992	56	4184
2026-01-14 07:34:52.68	8.75	23.99	-45.3	-46.4	15.1	0.00e+00	0	27	0	1806696448	56	4147
2026-01-14 07:34:53.67	8.47	24.00	-45.3	-46.3	15.1	0.00e+00	0	27	0	1811939328	56	4138
2026-01-14 07:34:54.66	8.19	24.01	-45.3	-46.3	15.1	0.00e+00	0	27	0	1817182208	56	4137
2026-01-14 07:34:55.66	7.91	24.02	-45.2	-46.3	15.1	0.00e+00	0	27	0	1823473664	56	4127
2026-01-14 07:34:56.65	7.63	24.03	-45.3	-46.4	15.1	0.00e+00	0	27	0	1828716544	56	4147
2026-01-14 07:34:57.64	7.35	24.04	-45.3	-46.3	15.1	0.00e+00	0	27	0	1833959424	56	4122
2026-01-14 07:34:58.63	7.07	24.04	-45.3	-46.4	15.1	0.00e+00	0	27	0	1839202304	56	4151
2026-01-14 07:34:59.63	6.79	24.05	-45.3	-46.4	15.1	0.00e+00	0	27	0	1845493760	56	4152
2026-01-14 07:35:00.62	6.50	24.06	-45.3	-46.4	15.1	0.00e+00	0	27	0	1850736640	56	4149
2026-01-14 07:35:01.62	6.22	24.06	-45.3	-46.3	15.1	0.00e+00	0	27	0	1857028096	56	4129
2026-01-14 07:35:02.61	5.94	24.07	-45.3	-46.3	15.1	0.00e+00	0	27	0	1862270976	56	4132
2026-01-14 07:35:03.60	5.66	24.07	-45.2	-46.3	15.1	0.00e+00	0	27	0	1867513856	56	4125
2026-01-14 07:35:04.59	5.38	24.07	-45.3	-46.4	15.1	0.00e+00	0	27	0	1873805312	56	4158
2026-01-14 07:35:05.58	5.10	24.07	-45.5	-46.5	15.1	0.00e+00	0	27	0	1879048192	56	4238
2026-01-14 07:35:06.57	4.81	24.08	-45.4	-46.5	15.1	0.00e+00	0	27	0	1884291072	56	4211
2026-01-14 07:35:07.57	4.53	24.08	-45.4	-46.4	15.1	0.00e+00	0	27	0	1889533952	56	4184
2026-01-14 07:35:08.57	4.24	24.08	-45.3	-46.4	15.1	0.00e+00	0	27	0	1895825408	56	4173
2026-01-14 07:35:09.57	3.96	24.08	-45.3	-46.4	15.1	0.00e+00	0	27	0	1901068288	56	4152
2026-01-14 07:35:10.56	3.68	24.07	-45.2	-46.2	15.1	0.00e+00	0	27	0	1907359744	56	4097
2026-01-14 07:35:11.56	3.40	24.07	-45.3	-46.3	15.1	0.00e+00	0	27	0	1912602624	56	4135
2026-01-14 07:35:12.55	3.11	24.07	-45.2	-46.3	15.2	0.00e+00	0	27	0	1917845504	56	4099
2026-01-14 07:35:13.55	2.83	24.06	-45.2	-46.3	15.1	0.00e+00	0	27	0	1924136960	56	4116
2026-01-14 07:35:14.55	2.55	24.06	-45.3	-46.3	15.1	0.00e+00	0	27	0	1929379840	56	4143
2026-01-14 07:35:15.54	2.26	24.05	-45.2	-46.3	15.1	0.00e+00	0	28	0	1934622720	56	4116
2026-01-14 07:35:16.53	1.98	24.05	-45.3	-46.4	15.1	0.00e+00	0	27	0	1939865600	56	4154
2026-01-14 07:35:17.53	1.70	24.04	-45.4	-46.4	15.1	0.00e+00	0	27	0	1946157056	56	4189
2026-01-14 07:35:18.53	1.42	24.03	-45.5	-46.6	15.1	0.00e+00	0	27	0	1951399936	56	4267
2026-01-14 07:35:19.52	1.14	24.02	-45.3	-46.4	15.1	0.00e+00	0	28	0	1957691392	56	4159
2026-01-14 07:35:20.52	0.85	24.01	-45.4	-46.5	15.1	0.00e+00	0	27	0	1962934272	56	4201
2026-01-14 07:35:21.52	0.57	24.00	-45.3	-46.3	15.1	0.00e+00	0	28	0	1968177152	56	4134
2026-01-14 07:35:22.51	0.29	23.99	-45.4	-46.4	15.1	0.00e+00	0	27	0	1974468608	56	4181
2026-01-14 07:35:23.51	0.01	23.98	-45.4	-46.4	15.1	0.00e+00	0	27	0	1979711488	56	4173
2026-01-14 07:35:24.50	359.73	23.97	-45.3	-46.4	15.1	0.00e+00	0	27	0	1984954368	56	4165
2026-01-14 07:35:25.50	359.44	23.96	-45.3	-46.3	15.1	0.00e+00	0	27	0	1991245824	56	4133
2026-01-14 07:35:26.49	359.17	23.94	-45.3	-46.4	15.1	0.00e+00	0	27	0	1996488704	56	4165
2026-01-14 07:35:27.48	358.89	23.93	-45.4	-46.4	15.1	0.00e+00	0	27	0	2001731584	56	4188
2026-01-14 07:35:28.47	358.61	23.91	-45.3	-46.3	15.1	0.00e+00	0	27	0	2008023040	56	4136
2026-01-14 07:35:29.46	358.33	23.90	-45.2	-46.3	15.1	0.00e+00	0	27	0	2013265920	56	4124
2026-01-14 07:35:30.47	358.05	23.88	-45.3	-46.3	15.1	0.00e+00	0	27	0	2018508800	56	4129
2026-01-14 07:35:31.45	357.77	23.86	-45.3	-46.3	15.1	0.00e+00	0	27	0	2024800256	56	4144
2026-01-14 07:35:32.45	357.49	23.85	-45.1	-46.2	15.2	0.00e+00	0	27	0	2030043136	56	4070
2026-01-14 07:35:33.44	357.21	23.83	-45.3	-46.4	15.1	0.00e+00	0	27	0	2035286016	56	4165
2026-01-14 07:35:34.43	356.94	23.81	-45.3	-46.4	15.1	0.00e+00	0	27	0	2040528896	56	4161
2026-01-14 07:35:35.42	356.66	23.79	-45.3	-46.4	15.1	0.00e+00	0	27	0	2046820352	56	4158
2026-01-14 07:35:36.42	356.38	23.77	-45.3	-46.4	15.1	0.00e+00	0	27	0	2052063232	56	4176
2026-01-14 07:35:37.40	356.11	23.75	-45.3	-46.3	15.1	0.00e+00	0	27	0	2058354688	56	4133
2026-01-14 07:35:38.40	355.83	23.72	-45.3	-46.4	15.1	0.00e+00	0	27	0	2063597568	56	4148
2026-01-14 07:35:39.39	355.56	23.70	-45.1	-46.2	15.1	0.00e+00	0	27	0	2068840448	56	4073
2026-01-14 07:35:40.39	355.28	23.68	-45.2	-46.2	15.2	0.00e+00	0	27	0	2074083328	56	4076
2026-01-14 07:35:41.38	355.00	23.65	-45.2	-46.3	15.1	0.00e+00	0	27	0	2080374784	56	4117
2026-01-14 07:35:42.37	354.73	23.63	-45.3	-46.4	15.1	0.00e+00	0	27	0	2085617664	56	4156
2026-01-14 07:35:43.37	354.45	23.60	-45.3	-46.3	15.1	0.00e+00	0	27	0	2090860544	56	4145
2026-01-14 07:35:44.36	354.18	23.57	-45.4	-46.4	15.1	0.00e+00	0	27	0	2097152000	56	4174
2026-01-14 07:35:45.36	353.91	23.55	-45.3	-46.4	15.1	0.00e+00	0	27	0	2102394880	56	4163
2026-01-14 07:35:46.34	353.64	23.52	-45.3	-46.3	15.1	0.00e+00	0	27	0	2108686336	56	4141
2026-01-14 07:35:47.34	353.36	23.49	-45.3	-46.3	15.1	0.00e+00	0	28	0	2113929216	56	4138
2026-01-14 07:35:48.33	353.09	23.46	-45.3	-46.4	15.1	0.00e+00	0	27	0	2119172096	56	4173
2026-01-14 07:35:49.32	352.82	23.43	-45.4	-46.5	15.1	0.00e+00	0	27	0	2124414976	56	4197
2026-01-14 07:35:50.31	352.55	23.40	-45.5	-46.6	15.1	0.00e+00	0	27	0	2130706432	56	4248
2026-01-14 07:35:51.29	352.29	23.37	-45.5	-46.6	15.1	0.00e+00	0	27	0	2135949312	56	4255
2026-01-14 07:35:52.28	352.02	23.34	-45.4	-46.5	15.1	0.00e+00	0	27	0	2141192192	56	4214
2026-01-14 07:35:53.27	351.75	23.31	-45.4	-46.5	15.1	0.00e+00	0	27	0	2147483648	56	4207
2026-01-14 07:35:54.27	351.48	23.27	-45.5	-46.5	15.1	0.00e+00	0	27	0	2152726528	56	4239
2026-01-14 07:35:55.27	351.21	23.24	-45.4	-46.5	15.1	0.00e+00	0	27	0	2157969408	56	4198
2026-01-14 07:35:56.26	350.94	23.21	-45.5	-46.6	15.1	0.00e+00	0	27	0	2164260864	56	4247
2026-01-14 07:35:57.25	350.68	23.17	-45.5	-46.5	15.1	0.00e+00	0	27	0	2169503744	56	4242
2026-01-14 07:35:58.24	350.41	23.14	-45.3	-46.3	15.1	0.00e+00	0	27	0	2174746624	56	4141
2026-01-14 07:35:59.23	350.15	23.10	-45.2	-46.3	15.1	0.00e+00	0	27	0	2181038080	56	4119
2026-01-14 07:36:00.23	349.88	23.06	-45.2	-46.3	15.1	0.00e+00	0	27	0	2186280960	56	4120
2026-01-14 07:36:01.22	349.62	23.02	-45.2	-46.3	15.1	0.00e+00	0	27	0	2191523840	56	4112
2026-01-14 07:36:02.22	349.35	22.99	-45.3	-46.4	15.1	0.00e+00	0	27	0	2197815296	56	4164
2026-01-14 07:36:03.22	349.09	22.95	-45.4	-46.5	15.1	0.00e+00	0	27	0	2203058176	56	4203
2026-01-14 07:36:04.21	348.83	22.91	-45.4	-46.5	15.1	0.00e+00	0	27	0	2208301056	56	4224
2026-01-14 07:36:05.21	348.56	22.87	-45.5	-46.6	15.1	0.00e+00	0	27	0	2214592512	56	4261
2026-01-14 07:36:06.19	348.31	22.83	-45.5	-46.6	15.1	0.00e+00	0	27	0	2219835392	56	4244
2026-01-14 07:36:07.19	348.04	22.79	-45.5	-46.5	15.1	0.00e+00	0	27	0	2225078272	56	4226
2026-01-14 07:36:08.18	347.78	22.75	-45.4	-46.4	15.1	0.00e+00	0	27	0	2231369728	56	4176
2026-01-14 07:36:09.17	347.53	22.70	-45.3	-46.4	15.1	0.00e+00	0	27	0	2236612608	56	4153
2026-01-14 07:36:10.17	347.27	22.66	-45.3	-46.4	15.1	0.00e+00	0	27	0	2241855488	56	4150
2026-01-14 07:36:11.17	347.01	22.62	-45.3	-46.3	15.1	0.00e+00	0	27	0	2248146944	56	4139
2026-01-14 07:36:12.17	346.75	22.57	-45.3	-46.4	15.1	0.00e+00	0	27	0	2253389824	56	4153
2026-01-14 07:36:13.16	346.49	22.53	-45.4	-46.5	15.1	0.00e+00	0	27	0	2258632704	56	4207
2026-01-14 07:36:14.15	346.24	22.48	-45.4	-46.5	15.1	0.00e+00	0	27	0	2264924160	56	4195
2026-01-14 07:36:15.15	345.98	22.44	-45.3	-46.4	15.1	0.00e+00	0	27	0	2270167040	56	4165
2026-01-14 07:36:16.15	345.73	22.39	-45.4	-46.5	15.1	0.00e+00	0	27	0	2275409920	56	4199
2026-01-14 07:36:17.14	345.48	22.35	-45.4	-46.4	15.1	0.00e+00	0	27	0	2281701376	56	4192
2026-01-14 07:36:18.14	345.22	22.30	-45.5	-46.6	15.1	0.00e+00	0	27	0	2286944256	56	4269
2026-01-14 07:36:19.12	344.97	22.25	-45.5	-46.6	15.0	0.00e+00	0	27	0	2292187136	56	4279
2026-01-14 07:36:20.12	344.72	22.20	-45.5	-46.6	15.1	0.00e+00	0	27	0	2298478592	56	4262
2026-01-14 07:36:21.12	344.47	22.16	-45.6	-46.6	15.0	0.00e+00	0	27	0	2303721472	56	4287
2026-01-14 07:36:22.11	344.22	22.11	-45.5	-46.5	15.1	0.00e+00	0	27	0	2308964352	56	4230
2026-01-14 07:36:23.11	343.97	22.06	-45.6	-46.7	15.0	0.00e+00	0	27	0	2315255808	56	4330
2026-01-14 07:36:24.10	343.73	22.01	-45.7	-46.7	15.0	0.00e+00	0	27	0	2320498688	56	4338
2026-01-14 07:36:25.10	343.48	21.96	-45.7	-46.9	15.0	0.00e+00	0	27	0	2325741568	56	4393
2026-01-14 07:36:26.10	343.23	21.91	-45.6	-46.6	15.0	0.00e+00	0	27	0	2332033024	56	4284
2026-01-14 07:36:27.10	342.98	21.85	-45.5	-46.6	15.1	0.00e+00	0	27	0	2337275904	56	4262
2026-01-14 07:36:28.09	342.74	21.80	-45.6	-46.7	15.0	0.00e+00	0	27	0	2343567360	56	4306
2026-01-14 07:36:29.09	342.49	21.75	-45.6	-46.6	15.0	0.00e+00	0	27	0	2348810240	56	4288
2026-01-14 07:36:30.07	342.26	21.70	-45.6	-46.7	15.1	0.00e+00	0	27	0	2354053120	56	4325
2026-01-14 07:36:31.08	342.01	21.64	-45.8	-46.9	15.0	0.00e+00	0	27	0	2359296000	56	4400
2026-01-14 07:36:32.07	341.77	21.59	-45.7	-46.8	15.0	0.00e+00	0	27	0	2365587456	56	4369
2026-01-14 07:36:33.06	341.53	21.54	-45.7	-46.8	15.0	0.00e+00	0	27	0	2370830336	56	4385
2026-01-14 07:36:34.05	341.29	21.48	-45.7	-46.8	15.0	0.00e+00	0	27	0	2376073216	56	4344
2026-01-14 07:36:35.05	341.05	21.43	-45.5	-46.5	15.1	0.00e+00	0	27	0	2382364672	56	4239
2026-01-14 07:36:36.04	340.82	21.37	-45.5	-46.6	15.0	0.00e+00	0	27	0	2387607552	56	4272
2026-01-14 07:36:37.04	340.58	21.32	-45.6	-46.7	15.0	0.00e+00	0	27	0	2392850432	56	4320
2026-01-14 07:36:38.03	340.34	21.26	-45.6	-46.7	15.0	0.00e+00	0	27	0	2399141888	56	4302
2026-01-14 07:36:39.03	340.11	21.21	-45.5	-46.5	15.1	0.00e+00	0	27	0	2404384768	56	4242
2026-01-14 07:36:40.03	339.87	21.15	-45.6	-46.6	15.1	0.00e+00	0	27	0	2409627648	56	4277
2026-01-14 07:36:41.01	339.64	21.09	-45.6	-46.7	15.0	0.00e+00	0	27	0	2415919104	56	4306
2026-01-14 07:36:42.00	339.41	21.03	-45.7	-46.8	15.0	0.00e+00	0	28	0	2421161984	56	4343
2026-01-14 07:36:42.99	339.18	20.98	-45.7	-46.8	15.0	0.00e+00	0	27	0	2426404864	56	4352
2026-01-14 07:36:43.98	338.95	20.92	-45.7	-46.7	15.0	0.00e+00	0	27	0	2432696320	56	4334
2026-01-14 07:36:44.98	338.72	20.86	-45.7	-46.8	15.0	0.00e+00	0	27	0	2437939200	56	4350
2026-01-14 07:36:45.97	338.49	20.80	-45.8	-46.8	15.0	0.00e+00	0	27	0	2443182080	56	4385
2026-01-14 07:36:46.96	338.26	20.74	-45.9	-47.0	15.0	0.00e+00	0	28	0	2449473536	56	4461
2026-01-14 07:36:47.96	338.03	20.68	-46.0	-47.1	15.0	0.00e+00	0	27	0	2454716416	57	4243
2026-01-14 07:36:48.96	337.81	20.62	-46.0	-47.2	15.0	0.00e+00	0	27	0	2459959296	57	4294
2026-01-14 07:36:49.96	337.58	20.56	-46.1	-47.2	15.0	0.00e+00	0	27	0	2466250752	57	4317
2026-01-14 07:36:50.96	337.35	20.50	-46.1	-47.2	15.0	0.00e+00	0	27	0	2471493632	57	4335
2026-01-14 07:36:51.94	337.13	20.44	-46.1	-47.2	15.0	0.00e+00	0	27	0	2476736512	57	4306
2026-01-14 07:36:52.94	336.91	20.38	-46.1	-47.2	15.0	0.00e+00	0	27	0	2483027968	57	4304
2026-01-14 07:36:53.93	336.69	20.32	-46.1	-47.2	15.0	0.00e+00	0	27	0	2488270848	57	4327
2026-01-14 07:36:54.92	336.47	20.26	-46.1	-47.2	15.0	0.00e+00	0	27	0	2493513728	57	4328
2026-01-14 07:36:55.91	336.25	20.19	-46.0	-47.1	15.0	0.00e+00	0	27	0	2499805184	57	4260
2026-01-14 07:36:56.91	336.03	20.13	-46.1	-47.2	15.0	0.00e+00	0	27	0	2505048064	57	4303
2026-01-14 07:36:57.90	335.81	20.07	-45.9	-47.0	15.0	0.00e+00	0	27	0	2510290944	57	4222
2026-01-14 07:36:58.89	335.59	20.01	-46.0	-47.1	15.0	0.00e+00	0	27	0	2515533824	57	4261
2026-01-14 07:36:59.89	335.38	19.94	-46.0	-47.1	15.0	0.00e+00	0	27	0	2521825280	57	4286
2026-01-14 07:37:00.88	335.16	19.88	-46.1	-47.2	15.0	0.00e+00	0	27	0	2527068160	57	4334
2026-01-14 07:37:01.88	334.95	19.81	-46.2	-47.4	15.0	0.00e+00	0	27	0	2533359616	57	4396
2026-01-14 07:37:02.87	334.73	19.75	-46.3	-47.4	15.0	0.00e+00	0	27	0	2538602496	57	4425
2026-01-14 07:37:03.87	334.52	19.69	-46.4	-47.5	15.0	0.00e+00	0	27	0	2543845376	58	4235
2026-01-14 07:37:04.86	334.31	19.62	-46.4	-47.5	15.0	0.00e+00	0	27	0	2550136832	58	4239
2026-01-14 07:37:05.85	334.10	19.56	-46.4	-47.5	15.0	0.00e+00	0	27	0	2555379712	58	4222
2026-01-14 07:37:06.84	333.89	19.49	-46.5	-47.6	15.0	0.00e+00	0	27	0	2560622592	58	4272
2026-01-14 07:37:07.83	333.68	19.43	-46.6	-47.7	14.9	0.00e+00	0	27	0	2565865472	58	4311
2026-01-14 07:37:08.82	333.47	19.36	-46.7	-47.8	14.9	0.00e+00	0	27	0	2572156928	58	4384
2026-01-14 07:37:09.82	333.27	19.30	-46.6	-47.7	15.0	0.00e+00	0	28	0	2577399808	58	4307
2026-01-14 07:37:10.82	333.06	19.23	-46.6	-47.8	14.9	0.00e+00	0	27	0	2583691264	58	4347
2026-01-14 07:37:11.82	332.85	19.16	-46.5	-47.6	15.0	0.00e+00	0	27	0	2588934144	58	4258
2026-01-14 07:37:12.81	332.65	19.10	-46.5	-47.7	15.0	0.00e+00	0	27	0	2594177024	58	4297
2026-01-14 07:37:13.80	332.44	19.03	-46.6	-47.8	14.9	0.00e+00	0	27	0	2600468480	58	4356
2026-01-14 07:37:14.80	332.24	18.96	-46.6	-47.8	14.9	0.00e+00	0	27	0	2605711360	58	4371
2026-01-14 07:37:15.79	332.04	18.90	-46.6	-47.8	14.9	0.00e+00	0	27	0	2610954240	58	4367
2026-01-14 07:37:16.78	331.84	18.83	-46.7	-47.8	14.9	0.00e+00	0	27	0	2617245696	58	4385
2026-01-14 07:37:17.77	331.64	18.76	-46.7	-47.8	14.9	0.00e+00	0	27	0	2622488576	58	4377
2026-01-14 07:37:18.77	331.44	18.70	-46.5	-47.6	15.0	0.00e+00	0	27	0	2627731456	58	4266
2026-01-14 07:37:19.76	331.24	18.63	-46.4	-47.5	15.0	0.00e+00	0	27	0	2634022912	58	4230
2026-01-14 07:37:20.76	331.04	18.56	-46.4	-47.5	15.0	0.00e+00	0	27	0	2639265792	58	4206
2026-01-14 07:37:21.75	330.85	18.49	-46.5	-47.6	15.0	0.00e+00	0	27	0	2644508672	58	4269
2026-01-14 07:37:22.74	330.65	18.42	-46.5	-47.7	14.9	0.00e+00	0	27	0	2649751552	58	4308
2026-01-14 07:37:23.72	330.46	18.36	-46.6	-47.7	14.9	0.00e+00	0	27	0	2656043008	58	4308
2026-01-14 07:37:24.71	330.27	18.29	-46.5	-47.7	14.9	0.00e+00	0	27	0	2661285888	58	4313
2026-01-14 07:37:25.71	330.07	18.22	-46.7	-47.8	14.9	0.00e+00	0	28	0	2667577344	58	4371
2026-01-14 07:37:26.69	329.88	18.15	-46.6	-47.7	14.9	0.00e+00	0	27	0	2672820224	58	4328
2026-01-14 07:37:27.68	329.69	18.08	-46.5	-47.6	15.0	0.00e+00	0	27	0	2678063104	58	4269
2026-01-14 07:37:28.68	329.50	18.01	-46.5	-47.7	15.0	0.00e+00	0	27	0	2683305984	58	4306
2026-01-14 07:37:29.67	329.31	17.94	-46.7	-47.8	14.9	0.00e+00	0	27	0	2689597440	58	4389
2026-01-14 07:37:30.67	329.12	17.88	-46.7	-47.8	14.9	0.00e+00	0	27	0	2694840320	58	4377
2026-01-14 07:37:31.67	328.93	17.81	-46.6	-47.8	14.9	0.00e+00	0	27	0	2700083200	58	4357
2026-01-14 07:37:32.66	328.75	17.74	-46.6	-47.7	14.9	0.00e+00	0	27	0	2706374656	58	4317
2026-01-14 07:37:33.65	328.56	17.67	-46.5	-47.6	15.0	0.00e+00	0	27	0	2711617536	58	4283
2026-01-14 07:37:34.66	328.37	17.60	-46.5	-47.7	14.9	0.00e+00	0	27	0	2717908992	58	4293
2026-01-14 07:37:35.65	328.19	17.53	-46.5	-47.7	14.9	0.00e+00	0	27	0	2723151872	58	4299
2026-01-14 07:37:36.64	328.01	17.46	-46.6	-47.8	14.9	0.00e+00	0	27	0	2728394752	58	4357
2026-01-14 07:37:37.63	327.83	17.39	-46.6	-47.8	14.9	0.00e+00	0	27	0	2733637632	58	4343
2026-01-14 07:37:38.62	327.65	17.32	-46.6	-47.7	14.9	0.00e+00	0	27	0	2739929088	58	4307
2026-01-14 07:37:39.62	327.46	17.25	-46.6	-47.7	14.9	0.00e+00	0	27	0	2745171968	58	4308
2026-01-14 07:37:40.62	327.28	17.18	-46.6	-47.7	14.9	0.00e+00	0	27	0	2750414848	58	4319
2026-01-14 07:37:41.61	327.10	17.10	-46.6	-47.7	14.9	0.00e+00	0	27	0	2756706304	58	4314
2026-01-14 07:37:42.59	326.93	17.04	-46.6	-47.7	14.9	0.00e+00	0	27	0	2761949184	58	4314
2026-01-14 07:37:43.60	326.75	16.96	-46.6	-47.7	14.9	0.00e+00	0	27	0	2768240640	58	4324
2026-01-14 07:37:44.60	326.57	16.89	-46.6	-47.7	14.9	0.00e+00	0	27	0	2773483520	58	4312
2026-01-14 07:37:45.59	326.40	16.82	-46.6	-47.8	14.9	0.00e+00	0	27	0	2778726400	58	4352
2026-01-14 07:37:46.58	326.22	16.75	-46.6	-47.8	14.9	0.00e+00	0	27	0	2783969280	58	4351
2026-01-14 07:37:47.57	326.05	16.68	-46.7	-47.8	14.9	0.00e+00	0	27	0	2790260736	58	4377
2026-01-14 07:37:48.57	325.87	16.61	-46.8	-47.9	14.9	0.00e+00	0	27	0	2795503616	58	4432
2026-01-14 07:37:49.56	325.70	16.54	-46.8	-48.0	14.9	0.00e+00	0	27	0	2800746496	58	4450
2026-01-14 07:37:50.56	325.53	16.47	-46.9	-48.1	14.9	0.00e+00	0	27	0	2807037952	58	4495
2026-01-14 07:37:51.55	325.36	16.40	-47.0	-48.1	14.9	0.00e+00	0	28	0	2812280832	59	4274
2026-01-14 07:37:52.55	325.19	16.32	-47.0	-48.2	14.9	0.00e+00	0	27	0	2818572288	59	4327
2026-01-14 07:37:53.54	325.02	16.25	-47.1	-48.3	14.8	0.00e+00	0	27	0	2823815168	59	4383
2026-01-14 07:37:54.53	324.85	16.18	-47.1	-48.3	14.9	0.00e+00	0	27	0	2829058048	59	4356
2026-01-14 07:37:55.52	324.69	16.11	-47.2	-48.4	14.8	0.00e+00	0	27	0	2834300928	59	4394
2026-01-14 07:37:56.51	324.52	16.04	-47.1	-48.3	14.8	0.00e+00	0	27	0	2840592384	59	4351
2026-01-14 07:37:57.50	324.35	15.97	-47.1	-48.3	14.8	0.00e+00	0	27	0	2845835264	59	4365
2026-01-14 07:37:58.48	324.19	15.90	-47.2	-48.3	14.9	0.00e+00	0	27	0	2851078144	59	4384
2026-01-14 07:37:59.47	324.03	15.83	-47.1	-48.3	14.8	0.00e+00	0	28	0	2857369600	59	4363
2026-01-14 07:38:00.47	323.86	15.76	-47.2	-48.3	14.8	0.00e+00	0	27	0	2862612480	59	4385
2026-01-14 07:38:01.48	323.70	15.68	-47.2	-48.3	14.8	0.00e+00	0	27	0	2867855360	59	4385
2026-01-14 07:38:02.48	323.53	15.61	-47.1	-48.3	14.8	0.00e+00	0	27	0	2874146816	59	4368
2026-01-14 07:38:03.47	323.37	15.54	-47.2	-48.4	14.8	0.00e+00	0	27	0	2879389696	59	4403
2026-01-14 07:38:04.47	323.21	15.47	-47.0	-48.2	14.9	0.00e+00	0	27	0	2884632576	59	4314
2026-01-14 07:38:05.46	323.05	15.40	-47.1	-48.2	14.9	0.00e+00	0	27	0	2890924032	59	4318
2026-01-14 07:38:06.45	322.90	15.32	-47.0	-48.2	14.9	0.00e+00	0	27	0	2896166912	59	4322
2026-01-14 07:38:07.44	322.74	15.25	-47.1	-48.2	14.9	0.00e+00	0	28	0	2901409792	59	4323
2026-01-14 07:38:08.43	322.58	15.18	-47.1	-48.3	14.9	0.00e+00	0	27	0	2907701248	59	4346
2026-01-14 07:38:09.42	322.43	15.11	-47.2	-48.3	14.8	0.00e+00	0	27	0	2912944128	59	4381
2026-01-14 07:38:10.41	322.27	15.04	-47.2	-48.3	14.8	0.00e+00	0	27	0	2918187008	59	4380
2026-01-14 07:38:11.40	322.12	14.97	-47.2	-48.4	14.8	0.00e+00	0	27	0	2924478464	59	4428
2026-01-14 07:38:12.40	321.96	14.89	-47.3	-48.5	14.8	0.00e+00	0	27	0	2929721344	59	4470
2026-01-14 07:38:13.39	321.81	14.82	-47.3	-48.5	14.8	0.00e+00	0	28	0	2934964224	59	4465
2026-01-14 07:38:14.39	321.66	14.75	-47.4	-48.6	14.8	0.00e+00	0	27	0	2940207104	59	4500
2026-01-14 07:38:15.38	321.50	14.68	-47.1	-48.3	14.9	0.00e+00	0	27	0	2946498560	60	4109
2026-01-14 07:38:16.38	321.35	14.61	-47.1	-48.3	14.9	0.00e+00	0	28	0	2951741440	60	4115
2026-01-14 07:38:17.37	321.20	14.54	-47.1	-48.3	14.9	0.00e+00	0	27	0	2958032896	60	4104
2026-01-14 07:38:18.37	321.05	14.46	-47.1	-48.2	14.9	0.00e+00	0	27	0	2963275776	60	4085
2026-01-14 07:38:19.37	320.90	14.39	-47.1	-48.3	14.9	0.00e+00	0	27	0	2968518656	60	4102
2026-01-14 07:38:20.36	320.75	14.32	-47.1	-48.2	14.9	0.00e+00	0	27	0	2974810112	60	4090
2026-01-14 07:38:21.36	320.61	14.25	-47.0	-48.1	15.0	0.00e+00	0	27	0	2980052992	60	4048
2026-01-14 07:38:22.35	320.46	14.18	-47.0	-48.2	14.9	0.00e+00	0	27	0	2985295872	60	4071
2026-01-14 07:38:23.35	320.31	14.11	-47.1	-48.3	14.9	0.00e+00	0	27	0	2991587328	60	4112
2026-01-14 07:38:24.34	320.17	14.03	-47.2	-48.4	14.9	0.00e+00	0	27	0	2996830208	60	4153
2026-01-14 07:38:25.34	320.02	13.96	-47.2	-48.4	14.9	0.00e+00	0	27	0	3002073088	60	4165
2026-01-14 07:38:26.33	319.88	13.89	-47.1	-48.3	14.9	0.00e+00	0	27	0	3008364544	60	4099
2026-01-14 07:38:27.33	319.73	13.82	-47.2	-48.4	14.9	0.00e+00	0	27	0	3013607424	60	4151
2026-01-14 07:38:28.33	319.59	13.75	-47.3	-48.4	14.8	0.00e+00	0	27	0	3018850304	60	4174
2026-01-14 07:38:29.31	319.45	13.68	-47.1	-48.3	14.9	0.00e+00	0	27	0	3025141760	60	4114
2026-01-14 07:38:30.31	319.31	13.60	-47.3	-48.4	14.9	0.00e+00	0	27	0	3030384640	60	4176
2026-01-14 07:38:31.31	319.17	13.53	-47.3	-48.4	14.9	0.00e+00	0	27	0	3035627520	60	4180
2026-01-14 07:38:32.30	319.03	13.46	-47.4	-48.5	14.8	0.00e+00	0	27	0	3041918976	60	4238
2026-01-14 07:38:33.29	318.89	13.39	-47.4	-48.6	14.8	0.00e+00	0	27	0	3047161856	60	4276
2026-01-14 07:38:34.28	318.75	13.32	-47.4	-48.6	14.8	0.00e+00	0	27	0	3052404736	60	4281
2026-01-14 07:38:35.28	318.61	13.25	-47.5	-48.7	14.8	0.00e+00	0	27	0	3058696192	60	4333
2026-01-14 07:38:36.27	318.48	13.18	-47.5	-48.8	14.7	0.00e+00	0	27	0	3063939072	60	4342
2026-01-14 07:38:37.26	318.34	13.11	-47.5	-48.7	14.8	0.00e+00	0	27	0	3069181952	60	4293
2026-01-14 07:38:38.25	318.21	13.04	-47.6	-48.8	14.7	0.00e+00	0	27	0	3075473408	60	4350
2026-01-14 07:38:39.25	318.07	12.96	-47.5	-48.7	14.7	0.00e+00	0	27	0	3080716288	60	4324
2026-01-14 07:38:40.25	317.94	12.89	-47.4	-48.6	14.8	0.00e+00	0	27	0	3085959168	60	4275
2026-01-14 07:38:41.24	317.80	12.82	-47.3	-48.5	14.8	0.00e+00	0	27	0	3092250624	60	4222
2026-01-14 07:38:42.23	317.67	12.75	-47.4	-48.6	14.8	0.00e+00	0	27	0	3097493504	60	4247
2026-01-14 07:38:43.23	317.54	12.68	-47.4	-48.6	14.8	0.00e+00	0	27	0	3102736384	60	4269
2026-01-14 07:38:44.22	317.41	12.61	-47.5	-48.7	14.8	0.00e+00	0	27	0	3109027840	60	4293
2026-01-14 07:38:45.21	317.28	12.54	-47.6	-48.8	14.7	0.00e+00	0	27	0	3114270720	60	4348
2026-01-14 07:38:46.20	317.15	12.47	-47.6	-48.8	14.7	0.00e+00	0	27	0	3119513600	60	4370
2026-01-14 07:38:47.19	317.02	12.40	-47.6	-48.8	14.7	0.00e+00	0	27	0	3125805056	60	4364
2026-01-14 07:38:48.19	316.89	12.33	-47.6	-48.8	14.7	0.00e+00	0	27	0	3131047936	60	4363
2026-01-14 07:38:49.19	316.76	12.26	-47.7	-48.9	14.7	0.00e+00	0	27	0	3136290816	60	4421
2026-01-14 07:38:50.18	316.63	12.19	-47.7	-48.9	14.7	0.00e+00	0	28	0	3142582272	60	4437
2026-01-14 07:38:51.18	316.50	12.12	-47.8	-49.0	14.6	0.00e+00	0	27	0	3147825152	60	4469
2026-01-14 07:38:52.17	316.38	12.05	-47.7	-49.0	14.7	0.00e+00	0	27	0	3153068032	60	4454
2026-01-14 07:38:53.16	316.25	11.98	-47.7	-48.9	14.6	0.00e+00	0	27	0	3159359488	60	4440
2026-01-14 07:38:54.15	316.13	11.91	-47.8	-49.0	14.6	0.00e+00	0	27	0	3164602368	60	4449
2026-01-14 07:38:55.14	316.00	11.84	-47.9	-49.1	14.6	0.00e+00	0	27	0	3169845248	60	4530
2026-01-14 07:38:56.13	315.88	11.77	-47.8	-49.1	14.6	0.00e+00	0	27	0	3175088128	60	4502
2026-01-14 07:38:57.13	315.75	11.70	-47.8	-49.0	14.6	0.00e+00	0	28	0	3181379584	60	4482
2026-01-14 07:38:58.13	315.63	11.63	-47.8	-49.1	14.6	0.00e+00	0	27	0	3186622464	60	4500
2026-01-14 07:38:59.12	315.51	11.56	-47.9	-49.1	14.6	0.00e+00	0	27	0	3192913920	60	4515
2026-01-14 07:39:00.11	315.39	11.49	-47.8	-49.0	14.6	0.00e+00	0	27	0	3198156800	60	4465
2026-01-14 07:39:01.07	315.27	11.42	-47.8	-49.0	14.6	0.00e+00	0	27	0	3203399680	60	4484
2026-01-14 07:39:02.07	315.15	11.35	-47.8	-49.0	14.6	0.00e+00	0	27	0	3208642560	60	4465
2026-01-14 07:39:03.06	315.03	11.28	-47.9	-49.1	14.6	0.00e+00	0	28	0	3214934016	60	4536
2026-01-14 07:39:04.04	314.91	11.21	-48.0	-49.2	14.7	0.00e+00	0	27	0	3220176896	61	4322
2026-01-14 07:39:05.04	314.79	11.14	-48.0	-49.3	14.6	0.00e+00	0	28	0	3225419776	61	4353
2026-01-14 07:39:06.04	314.67	11.07	-48.1	-49.3	14.6	0.00e+00	0	28	0	3231711232	61	4376
2026-01-14 07:39:07.03	314.55	11.00	-48.1	-49.4	14.6	0.00e+00	0	27	0	3236954112	61	4415
2026-01-14 07:39:08.03	314.44	10.93	-48.3	-49.5	14.5	0.00e+00	0	28	0	3242196992	61	4484
2026-01-14 07:39:09.03	314.32	10.86	-48.3	-49.6	14.5	0.00e+00	0	27	0	3248488448	61	4534
2026-01-14 07:39:10.03	314.20	10.79	-48.3	-49.5	14.5	0.00e+00	0	27	0	3253731328	61	4485
2026-01-14 07:39:11.01	314.09	10.73	-48.2	-49.5	14.5	0.00e+00	0	27	0	3258974208	61	4462
2026-01-14 07:39:12.00	313.97	10.66	-48.3	-49.5	14.5	0.00e+00	0	27	0	3265265664	61	4480
2026-01-14 07:39:13.00	313.86	10.59	-48.3	-49.6	14.5	0.00e+00	0	27	0	3270508544	61	4511
2026-01-14 07:39:14.00	313.74	10.52	-48.3	-49.6	14.5	0.00e+00	0	28	0	3275751424	61	4504
2026-01-14 07:39:14.99	313.63	10.45	-48.2	-49.5	14.5	0.00e+00	0	27	0	3282042880	61	4458
2026-01-14 07:39:15.99	313.52	10.38	-48.3	-49.6	14.5	0.00e+00	0	27	0	3287285760	61	4498
2026-01-14 07:39:16.98	313.41	10.31	-48.4	-49.7	14.5	0.00e+00	0	27	0	3292528640	61	4556
2026-01-14 07:39:17.99	313.29	10.25	-48.4	-49.7	14.6	0.00e+00	0	27	0	3298820096	62	4301
2026-01-14 07:39:19.00	313.18	10.18	-48.2	-49.5	14.7	0.00e+00	0	28	0	3304062976	62	4209
2026-01-14 07:39:19.99	313.07	10.11	-48.3	-49.6	14.6	0.00e+00	0	27	0	3310354432	62	4273
2026-01-14 07:39:20.99	312.96	10.04	-48.2	-49.5	14.7	0.00e+00	0	27	0	3315597312	62	4221
2026-01-14 07:39:21.98	312.85	9.97	-48.2	-49.5	14.6	0.00e+00	0	27	0	3320840192	62	4204
2026-01-14 07:39:22.97	312.74	9.90	-48.3	-49.5	14.6	0.00e+00	0	27	0	3326083072	62	4231
2026-01-14 07:39:23.97	312.63	9.84	-48.2	-49.5	14.6	0.00e+00	0	27	0	3332374528	62	4221
2026-01-14 07:39:24.96	312.52	9.77	-48.3	-49.6	14.6	0.00e+00	0	27	0	3337617408	62	4278
2026-01-14 07:39:25.96	312.42	9.70	-48.3	-49.6	14.6	0.00e+00	0	27	0	3343908864	62	4265
2026-01-14 07:39:26.95	312.31	9.63	-48.3	-49.6	14.6	0.00e+00	0	27	0	3349151744	62	4269
2026-01-14 07:39:27.95	312.20	9.56	-48.4	-49.7	14.5	0.00e+00	0	27	0	3354394624	62	4337
2026-01-14 07:39:28.94	312.10	9.50	-48.5	-49.8	14.5	0.00e+00	0	27	0	3360686080	62	4380
2026-01-14 07:39:29.93	311.99	9.43	-48.6	-49.9	14.5	0.00e+00	0	27	0	3365928960	62	4403
2026-01-14 07:39:30.92	311.89	9.36	-48.7	-50.0	14.4	0.00e+00	0	27	0	3371171840	62	4455
2026-01-14 07:39:31.91	311.78	9.30	-48.7	-50.0	14.4	0.00e+00	0	27	0	3376414720	62	4461
2026-01-14 07:39:32.91	311.68	9.23	-48.7	-50.1	14.4	0.00e+00	0	27	0	3382706176	62	4494
2026-01-14 07:39:33.91	311.58	9.16	-48.6	-49.9	14.5	0.00e+00	0	27	0	3387949056	62	4401
2026-01-14 07:39:34.90	311.47	9.09	-48.8	-50.1	14.4	0.00e+00	0	27	0	3394240512	62	4535
2026-01-14 07:39:35.89	311.37	9.03	-48.9	-50.3	14.3	0.00e+00	0	27	0	3399483392	62	4599
2026-01-14 07:39:36.89	311.27	8.96	-48.8	-50.1	14.5	0.00e+00	0	27	0	3404726272	63	4259
2026-01-14 07:39:37.88	311.17	8.89	-48.6	-49.9	14.6	0.00e+00	0	27	0	3409969152	63	4166
2026-01-14 07:39:38.87	311.07	8.83	-48.5	-49.8	14.6	0.00e+00	0	27	0	3416260608	63	4118
2026-01-14 07:39:39.87	310.97	8.76	-48.6	-49.9	14.6	0.00e+00	0	27	0	3421503488	63	4192
2026-01-14 07:39:40.86	310.87	8.70	-48.6	-49.9	14.6	0.00e+00	0	27	0	3427794944	63	4160
2026-01-14 07:39:41.85	310.77	8.63	-48.7	-50.0	14.5	0.00e+00	0	27	0	3433037824	63	4208
2026-01-14 07:39:42.85	310.67	8.56	-48.7	-50.0	14.5	0.00e+00	0	27	0	3438280704	63	4219
2026-01-14 07:39:43.84	310.57	8.50	-48.8	-50.1	14.5	0.00e+00	0	27	0	3444572160	63	4277
2026-01-14 07:39:44.83	310.47	8.43	-48.8	-50.2	14.4	0.00e+00	0	27	0	3449815040	63	4308
2026-01-14 07:39:45.81	310.37	8.37	-48.9	-50.2	14.4	0.00e+00	0	27	0	3455057920	63	4331
2026-01-14 07:39:46.81	310.28	8.30	-48.8	-50.1	14.5	0.00e+00	0	27	0	3460300800	63	4285
2026-01-14 07:39:47.80	310.18	8.23	-48.7	-50.1	14.5	0.00e+00	0	27	0	3466592256	63	4256
2026-01-14 07:39:48.79	310.08	8.17	-48.8	-50.1	14.4	0.00e+00	0	27	0	3471835136	63	4288
2026-01-14 07:39:49.78	309.99	8.10	-48.7	-50.1	14.5	0.00e+00	0	27	0	3477078016	63	4264
2026-01-14 07:39:50.77	309.89	8.04	-48.7	-50.1	14.5	0.00e+00	0	28	0	3483369472	63	4250
2026-01-14 07:39:51.77	309.80	7.97	-48.7	-50.0	14.5	0.00e+00	0	27	0	3488612352	63	4220
2026-01-14 07:39:52.75	309.70	7.91	-48.7	-50.1	14.5	0.00e+00	0	27	0	3493855232	63	4259
2026-01-14 07:39:53.75	309.61	7.84	-48.8	-50.1	14.4	0.00e+00	0	27	0	3500146688	63	4287
2026-01-14 07:39:54.74	309.52	7.78	-49.0	-50.4	14.3	0.00e+00	0	27	0	3505389568	63	4427
2026-01-14 07:39:55.73	309.42	7.71	-49.0	-50.4	14.4	0.00e+00	0	27	0	3510632448	63	4397
2026-01-14 07:39:56.72	309.33	7.65	-49.0	-50.3	14.4	0.00e+00	0	27	0	3516923904	63	4380
2026-01-14 07:39:57.71	309.24	7.58	-48.9	-50.3	14.4	0.00e+00	0	28	0	3522166784	63	4374
2026-01-14 07:39:58.71	309.15	7.52	-49.1	-50.5	14.3	0.00e+00	0	28	0	3527409664	63	4465
2026-01-14 07:39:59.71	309.05	7.45	-49.1	-50.5	14.3	0.00e+00	0	28	0	3533701120	63	4493
2026-01-14 07:40:00.70	308.96	7.39	-49.2	-50.7	14.2	0.00e+00	0	28	0	3538944000	63	4552
2026-01-14 07:40:01.69	308.87	7.33	-49.3	-50.7	14.2	0.00e+00	0	27	0	3544186880	63	4573
2026-01-14 07:40:02.69	308.78	7.26	-49.3	-50.7	14.2	0.00e+00	0	27	0	3550478336	63	4598
2026-01-14 07:40:03.69	308.69	7.20	-49.2	-50.7	14.2	0.00e+00	0	28	0	3555721216	63	4546
2026-01-14 07:40:04.68	308.60	7.13	-49.2	-50.7	14.2	0.00e+00	0	27	0	3560964096	63	4547
2026-01-14 07:40:05.68	308.51	7.07	-49.3	-50.7	14.2	0.00e+00	0	27	0	3567255552	63	4555
2026-01-14 07:40:06.68	308.42	7.00	-49.3	-50.7	14.2	0.00e+00	0	27	0	3572498432	63	4579
2026-01-14 07:40:07.67	308.34	6.94	-49.2	-50.6	14.2	0.00e+00	0	27	0	3577741312	63	4523
2026-01-14 07:40:08.67	308.25	6.88	-49.4	-50.8	14.1	0.00e+00	0	27	0	3584032768	63	4629
2026-01-14 07:40:09.67	308.16	6.81	-49.3	-50.7	14.2	0.00e+00	0	28	0	3589275648	63	4566
2026-01-14 07:40:10.67	308.07	6.75	-49.2	-50.6	14.2	0.00e+00	0	28	0	3594518528	63	4506
2026-01-14 07:40:11.66	307.99	6.68	-49.3	-50.8	14.2	0.00e+00	0	28	0	3600809984	63	4607
2026-01-14 07:40:12.66	307.90	6.62	-49.3	-50.7	14.3	0.00e+00	0	27	0	3606052864	64	4303
