passes_logs/2026/01/14/R3.2S_Murmansk/R3.2S_Murmansk__20260114_074911_KANOPUS-V_5_rec.log

#Pass ID: 20260114_074911_KANOPUS-V 5
#Satellite: KANOPUS-V 5
#Configuration: KANOPUS-V_8320
#almurnet v.1.7.20251203
#Start time: 2026-01-14 07:49:11

#Version: 2.2.20231116
#Station: R3.2S_Murmansk
#Location: 33.079688 lon 68.888172 lat
#TLE: 1 43876U 18111A   26013.92265638  .00002186  00000+0  94740-4 0  9997
#TLE: 2 43876  97.3685 282.4563 0001771  87.3823 272.7617 15.23432279391301

#Time	Az	El	Level	Level2	SNR	BER	BlckErr	Temp	State	Recorded	gain1	gain2
2026-01-14 07:49:11.37	160.68	2.00	-59.1	-68.9	3.8	7.46e-01	0	26	0	0	82	11047
2026-01-14 07:49:12.36	160.69	2.07	-59.1	-68.9	3.8	7.45e-01	0	26	104	0	82	11044
2026-01-14 07:49:13.35	160.70	2.14	-59.1	-68.8	3.8	7.46e-01	0	26	104	0	82	11017
2026-01-14 07:49:14.34	160.71	2.21	-59.1	-68.8	3.8	7.45e-01	0	26	104	0	82	11010
2026-01-14 07:49:15.33	160.72	2.28	-59.1	-68.8	3.8	7.46e-01	0	26	104	0	82	10986
2026-01-14 07:49:16.33	160.73	2.35	-59.1	-68.7	3.8	7.44e-01	0	26	104	0	82	10897
2026-01-14 07:49:17.32	160.74	2.43	-59.1	-68.8	3.8	7.46e-01	0	26	104	0	82	10958
2026-01-14 07:49:18.31	160.75	2.50	-59.1	-68.6	3.8	7.47e-01	0	26	104	0	82	10740
2026-01-14 07:49:19.31	160.76	2.57	-59.1	-68.7	3.8	7.45e-01	0	26	104	0	82	10875
2026-01-14 07:49:20.30	160.77	2.64	-59.1	-68.6	3.8	7.44e-01	0	26	104	0	82	10720
2026-01-14 07:49:21.29	160.78	2.71	-59.1	-68.6	3.8	7.46e-01	0	26	104	0	82	10765
2026-01-14 07:49:22.28	160.79	2.78	-59.1	-68.7	3.8	7.45e-01	0	26	104	0	82	10835
2026-01-14 07:49:23.27	160.80	2.86	-59.1	-68.7	3.8	7.46e-01	0	26	104	0	82	10865
2026-01-14 07:49:24.26	160.81	2.93	-59.1	-68.8	3.8	7.47e-01	0	26	104	0	82	10918
2026-01-14 07:49:25.25	160.82	3.00	-59.1	-68.8	3.8	7.44e-01	0	26	104	0	82	10916
2026-01-14 07:49:26.25	160.84	3.07	-59.1	-68.8	3.8	7.46e-01	0	26	104	0	82	11012
2026-01-14 07:49:27.24	160.85	3.15	-59.1	-68.9	3.8	7.46e-01	0	26	104	0	82	11109
2026-01-14 07:49:28.23	160.86	3.22	-59.1	-68.8	3.8	7.46e-01	0	26	104	0	82	11029
2026-01-14 07:49:29.22	160.87	3.30	-59.1	-68.7	3.8	7.46e-01	0	26	104	0	82	10843
2026-01-14 07:49:30.21	160.88	3.37	-59.0	-68.2	3.8	7.45e-01	0	26	104	0	82	10203
2026-01-14 07:49:31.20	160.89	3.44	-58.9	-68.0	3.8	7.45e-01	0	26	104	0	82	10002
2026-01-14 07:49:32.19	160.90	3.52	-58.7	-67.1	3.8	7.46e-01	0	26	104	0	82	9011
2026-01-14 07:49:33.19	160.91	3.59	-58.6	-66.6	3.8	7.43e-01	0	26	104	0	81	9065
2026-01-14 07:49:34.18	160.92	3.67	-58.5	-66.4	3.8	7.45e-01	0	26	104	0	81	8799
2026-01-14 07:49:35.17	160.93	3.74	-58.1	-65.0	4.0	7.42e-01	0	26	104	0	80	7914
2026-01-14 07:49:36.17	160.95	3.82	-58.0	-64.8	4.0	7.39e-01	0	26	104	0	80	7738
2026-01-14 07:49:37.17	160.96	3.90	-58.0	-64.7	4.3	7.26e-01	0	26	0	2097152	80	7648
2026-01-14 07:49:38.16	160.97	3.97	-57.7	-63.8	4.7	7.09e-01	0	26	0	16777216	79	7329
2026-01-14 07:49:39.16	160.98	4.05	-57.1	-62.3	5.6	6.70e-01	0	26	0	31457280	78	6506
2026-01-14 07:49:40.15	160.99	4.13	-57.2	-62.7	5.3	6.79e-01	0	26	0	48234496	78	6858
2026-01-14 07:49:41.14	161.00	4.21	-56.6	-61.4	6.2	6.52e-01	0	26	0	62914560	77	6271
2026-01-14 07:49:42.14	161.02	4.28	-56.4	-61.0	6.5	6.44e-01	0	26	0	77594624	77	5982
2026-01-14 07:49:43.14	161.03	4.36	-55.8	-60.1	7.3	5.97e-01	0	27	0	92274688	76	5661
2026-01-14 07:49:44.13	161.04	4.44	-55.7	-59.9	7.4	6.06e-01	0	26	0	109051904	76	5547
2026-01-14 07:49:45.13	161.05	4.52	-55.6	-59.8	7.4	6.01e-01	0	26	0	123731968	75	5820
2026-01-14 07:49:46.13	161.06	4.60	-55.0	-58.8	8.1	6.13e-01	0	26	0	138412032	74	5523
2026-01-14 07:49:47.12	161.07	4.68	-55.3	-59.4	7.7	6.04e-01	0	26	0	153092096	74	5857
2026-01-14 07:49:48.11	161.09	4.76	-55.0	-58.9	8.1	6.11e-01	0	27	0	169869312	74	5589
2026-01-14 07:49:49.11	161.10	4.84	-55.3	-59.3	7.7	6.00e-01	0	27	0	184549376	74	5854
2026-01-14 07:49:50.10	161.11	4.92	-55.8	-60.2	7.0	6.23e-01	0	27	0	199229440	74	6475
2026-01-14 07:49:51.10	161.12	5.00	-56.3	-61.0	6.4	6.44e-01	0	27	0	216006656	75	6697
2026-01-14 07:49:52.09	161.14	5.08	-56.5	-61.4	6.2	6.52e-01	0	26	0	230686720	76	6616
2026-01-14 07:49:53.09	161.15	5.16	-55.4	-59.4	7.8	6.10e-01	0	27	0	245366784	74	5893
2026-01-14 07:49:54.08	161.16	5.24	-59.0	-68.5	3.8	7.44e-01	0	27	104	255852544	81	11215
2026-01-14 07:49:55.09	161.17	5.32	-54.6	-58.2	8.4	6.20e-01	0	27	104	255852544	73	5412
2026-01-14 07:49:56.08	161.18	5.41	-53.7	-56.9	9.5	6.08e-01	0	27	0	270532608	70	5566
2026-01-14 07:49:57.08	161.20	5.49	-57.8	-64.2	4.5	7.22e-01	0	27	0	285212672	78	8161
2026-01-14 07:49:58.08	161.21	5.57	-53.0	-56.1	10.2	6.05e-01	0	27	0	299892736	70	5067
2026-01-14 07:49:59.08	161.22	5.66	-52.9	-56.0	10.3	6.04e-01	0	26	0	316669952	70	5022
2026-01-14 07:50:00.06	161.24	5.74	-53.1	-56.3	10.0	6.07e-01	0	27	0	331350016	70	5164
2026-01-14 07:50:01.06	161.25	5.82	-53.2	-56.4	10.0	6.09e-01	0	27	0	346030080	70	5232
2026-01-14 07:50:02.05	161.26	5.91	-52.9	-56.0	10.3	6.03e-01	0	27	0	360710144	70	5034
2026-01-14 07:50:03.05	161.27	5.99	-53.1	-56.2	10.2	6.10e-01	0	27	0	377487360	70	5122
2026-01-14 07:50:04.05	161.29	6.08	-53.2	-56.3	10.1	6.02e-01	0	27	0	392167424	70	5171
2026-01-14 07:50:05.05	161.30	6.16	-53.2	-56.3	10.0	6.07e-01	0	27	0	406847488	70	5214
2026-01-14 07:50:06.03	161.31	6.25	-52.8	-55.8	10.4	6.06e-01	0	27	0	423624704	70	4898
2026-01-14 07:50:07.03	161.33	6.34	-53.1	-56.1	10.2	6.10e-01	0	27	0	438304768	70	5095
2026-01-14 07:50:08.01	161.34	6.42	-52.8	-55.8	10.5	6.07e-01	0	27	0	452984832	70	4901
2026-01-14 07:50:09.00	161.35	6.51	-52.7	-55.8	10.5	6.07e-01	0	27	0	467664896	69	5160
2026-01-14 07:50:10.00	161.37	6.60	-52.5	-55.5	10.7	6.05e-01	0	27	0	484442112	69	5018
2026-01-14 07:50:10.99	161.38	6.68	-52.6	-55.5	10.7	6.06e-01	0	27	0	499122176	69	5037
2026-01-14 07:50:11.98	161.39	6.77	-52.5	-55.4	10.8	6.06e-01	0	27	0	513802240	69	4960
2026-01-14 07:50:12.98	161.41	6.86	-52.6	-55.5	10.7	6.00e-01	0	27	0	530579456	69	5030
2026-01-14 07:50:13.96	161.42	6.95	-52.5	-55.5	10.8	6.05e-01	0	27	0	545259520	69	5000
2026-01-14 07:50:14.95	161.44	7.04	-52.3	-55.2	10.9	6.05e-01	0	27	0	559939584	69	4852
2026-01-14 07:50:15.95	161.45	7.13	-52.3	-55.2	11.0	5.97e-01	0	27	0	574619648	69	4829
2026-01-14 07:50:16.95	161.46	7.22	-52.3	-55.2	11.0	6.03e-01	0	27	0	589299712	69	4816
2026-01-14 07:50:17.94	161.48	7.31	-52.4	-55.3	10.9	6.05e-01	0	27	0	606076928	69	4921
2026-01-14 07:50:18.94	161.49	7.40	-52.4	-55.4	10.8	6.07e-01	0	27	0	620756992	69	4956
2026-01-14 07:50:19.92	161.51	7.49	-52.3	-55.2	11.0	6.04e-01	0	27	0	635437056	69	4859
2026-01-14 07:50:20.91	161.52	7.58	-52.2	-55.1	11.0	5.99e-01	0	27	0	650117120	68	5045
2026-01-14 07:50:21.90	161.53	7.68	-52.0	-54.9	11.2	6.01e-01	0	27	0	666894336	68	4951
2026-01-14 07:50:22.90	161.55	7.77	-52.0	-54.8	11.2	6.01e-01	0	27	0	681574400	68	4919
2026-01-14 07:50:23.89	161.56	7.86	-52.1	-54.9	11.2	6.00e-01	0	27	0	696254464	68	4966
2026-01-14 07:50:24.89	161.58	7.96	-52.0	-54.9	11.2	6.01e-01	0	27	0	713031680	68	4942
2026-01-14 07:50:25.89	161.59	8.05	-52.0	-54.8	11.2	6.01e-01	0	27	0	727711744	68	4908
2026-01-14 07:50:26.88	161.61	8.15	-52.0	-54.8	11.2	6.00e-01	0	27	0	742391808	68	4906
2026-01-14 07:50:27.88	161.62	8.24	-51.9	-54.7	11.3	6.00e-01	0	27	0	759169024	68	4846
2026-01-14 07:50:28.87	161.64	8.34	-52.0	-54.8	11.2	6.07e-01	0	27	0	773849088	68	4917
2026-01-14 07:50:29.86	161.65	8.43	-51.8	-54.6	11.4	6.01e-01	0	27	0	788529152	68	4799
2026-01-14 07:50:30.86	161.67	8.53	-51.8	-54.5	11.5	6.01e-01	0	27	0	803209216	68	4758
2026-01-14 07:50:31.85	161.68	8.63	-51.7	-54.5	11.5	6.05e-01	0	27	0	819986432	68	4736
2026-01-14 07:50:32.84	161.70	8.73	-51.8	-54.5	11.5	5.99e-01	0	27	0	834666496	68	4759
2026-01-14 07:50:33.83	161.71	8.82	-51.7	-54.5	11.5	6.01e-01	0	27	0	849346560	68	4737
2026-01-14 07:50:34.83	161.73	8.92	-51.7	-54.5	11.5	6.01e-01	0	27	0	866123776	67	5022
2026-01-14 07:50:35.82	161.75	9.02	-51.7	-54.5	11.5	6.03e-01	0	27	0	880803840	67	5001
2026-01-14 07:50:36.81	161.76	9.12	-51.7	-54.5	11.4	6.02e-01	0	27	0	895483904	67	5040
2026-01-14 07:50:37.81	161.78	9.22	-51.6	-54.4	11.6	6.01e-01	0	27	0	910163968	67	4963
2026-01-14 07:50:38.80	161.79	9.32	-51.7	-54.5	11.5	6.02e-01	0	27	0	926941184	67	5009
2026-01-14 07:50:39.80	161.81	9.43	-51.5	-54.2	11.7	6.03e-01	0	27	0	941621248	67	4867
2026-01-14 07:50:40.80	161.83	9.53	-51.7	-54.5	11.5	6.04e-01	0	27	0	956301312	67	4990
2026-01-14 07:50:41.79	161.84	9.63	-51.5	-54.2	11.7	6.07e-01	0	27	0	970981376	67	4863
2026-01-14 07:50:42.79	161.86	9.73	-51.4	-54.2	11.8	6.02e-01	0	27	0	987758592	67	4837
2026-01-14 07:50:43.78	161.88	9.84	-51.4	-54.2	11.8	6.04e-01	0	27	0	1002438656	67	4829
2026-01-14 07:50:44.77	161.89	9.94	-51.3	-54.0	11.8	6.04e-01	0	27	0	1017118720	67	4751
2026-01-14 07:50:45.76	161.91	10.05	-51.2	-53.9	11.9	6.03e-01	0	27	0	1031798784	67	4696
2026-01-14 07:50:46.76	161.93	10.15	-51.1	-53.8	12.0	6.01e-01	0	27	0	1048576000	66	4895
2026-01-14 07:50:47.75	161.94	10.26	-51.2	-53.9	11.8	6.03e-01	0	27	0	1063256064	66	4979
2026-01-14 07:50:48.74	161.96	10.36	-51.2	-53.8	11.9	6.04e-01	0	27	0	1077936128	66	4922
2026-01-14 07:50:49.73	161.98	10.47	-50.9	-53.6	12.1	6.02e-01	0	27	0	1094713344	66	4768
2026-01-14 07:50:50.73	162.00	10.58	-51.0	-53.6	12.1	6.03e-01	0	27	0	1109393408	66	4796
2026-01-14 07:50:51.72	162.01	10.69	-51.0	-53.7	12.1	6.04e-01	0	27	0	1124073472	66	4830
2026-01-14 07:50:52.71	162.03	10.80	-51.0	-53.6	12.1	6.06e-01	0	27	0	1138753536	66	4779
2026-01-14 07:50:53.71	162.05	10.91	-50.9	-53.6	12.1	6.05e-01	0	27	0	1155530752	66	4777
2026-01-14 07:50:54.70	162.07	11.02	-50.8	-53.4	12.2	6.03e-01	0	27	0	1170210816	66	4688
2026-01-14 07:50:55.69	162.08	11.13	-50.8	-53.4	12.2	6.04e-01	0	27	0	1184890880	66	4698
2026-01-14 07:50:56.69	162.10	11.24	-50.8	-53.4	12.3	6.02e-01	0	27	0	1201668096	66	4680
2026-01-14 07:50:57.69	162.12	11.36	-50.8	-53.4	12.3	6.00e-01	0	27	0	1216348160	66	4663
2026-01-14 07:50:58.69	162.14	11.47	-50.5	-53.1	12.4	6.03e-01	0	27	0	1231028224	65	4792
2026-01-14 07:50:59.68	162.16	11.58	-50.5	-53.1	12.3	6.03e-01	0	27	0	1247805440	65	4798
2026-01-14 07:51:00.68	162.18	11.70	-50.4	-53.0	12.4	6.01e-01	0	27	0	1262485504	65	4727
2026-01-14 07:51:01.67	162.20	11.81	-50.4	-53.0	12.4	6.01e-01	0	27	0	1277165568	65	4730
2026-01-14 07:51:02.66	162.22	11.93	-50.4	-53.0	12.4	6.02e-01	0	27	0	1291845632	65	4723
2026-01-14 07:51:03.65	162.23	12.05	-50.5	-53.1	12.3	6.03e-01	0	27	0	1308622848	65	4806
2026-01-14 07:51:04.64	162.25	12.16	-50.3	-52.9	12.5	6.03e-01	0	27	0	1323302912	65	4688
2026-01-14 07:51:05.64	162.27	12.28	-50.4	-52.9	12.5	6.06e-01	0	27	0	1337982976	65	4704
2026-01-14 07:51:06.63	162.29	12.40	-50.3	-52.9	12.5	5.99e-01	0	27	0	1352663040	65	4672
2026-01-14 07:51:07.63	162.31	12.52	-50.3	-52.9	12.6	5.99e-01	0	27	0	1369440256	65	4652
2026-01-14 07:51:08.62	162.33	12.64	-50.2	-52.7	12.7	5.99e-01	0	27	0	1384120320	65	4586
2026-01-14 07:51:09.62	162.35	12.77	-50.1	-52.7	12.6	6.01e-01	0	27	0	1398800384	64	4838
2026-01-14 07:51:10.61	162.37	12.89	-50.1	-52.7	12.6	6.00e-01	0	27	0	1413480448	64	4817
2026-01-14 07:51:11.60	162.39	13.01	-50.0	-52.6	12.6	6.00e-01	0	27	0	1430257664	64	4783
2026-01-14 07:51:12.60	162.42	13.14	-50.0	-52.6	12.7	6.00e-01	0	27	0	1444937728	64	4761
2026-01-14 07:51:13.59	162.44	13.26	-50.0	-52.5	12.7	6.00e-01	0	27	0	1459617792	64	4757
2026-01-14 07:51:14.58	162.46	13.38	-49.9	-52.5	12.8	6.00e-01	0	27	0	1474297856	64	4709
2026-01-14 07:51:15.57	162.48	13.51	-49.9	-52.5	12.7	6.01e-01	0	27	0	1491075072	64	4710
2026-01-14 07:51:16.56	162.50	13.64	-50.0	-52.5	12.7	6.00e-01	0	27	0	1505755136	64	4757
2026-01-14 07:51:17.55	162.52	13.77	-49.9	-52.4	12.8	5.98e-01	0	27	0	1520435200	64	4692
2026-01-14 07:51:18.55	162.54	13.90	-49.7	-52.2	12.9	6.01e-01	0	27	0	1537212416	64	4595
2026-01-14 07:51:19.55	162.56	14.03	-49.7	-52.3	12.8	6.01e-01	0	27	0	1551892480	63	4885
2026-01-14 07:51:20.54	162.59	14.16	-49.7	-52.2	12.8	5.99e-01	0	27	0	1566572544	63	4840
2026-01-14 07:51:21.53	162.61	14.29	-49.7	-52.2	12.9	6.00e-01	0	27	0	1583349760	63	4854
2026-01-14 07:51:22.52	162.63	14.42	-49.6	-52.1	12.9	6.01e-01	0	27	0	1598029824	63	4773
2026-01-14 07:51:23.52	162.65	14.56	-49.5	-52.0	13.0	6.00e-01	0	27	0	1612709888	63	4731
2026-01-14 07:51:24.52	162.68	14.69	-49.5	-52.0	13.0	5.97e-01	0	27	0	1627389952	63	4750
2026-01-14 07:51:25.51	162.70	14.83	-49.5	-52.0	13.0	6.00e-01	0	27	0	1644167168	63	4726
2026-01-14 07:51:26.50	162.72	14.96	-49.5	-52.0	13.0	6.00e-01	0	27	0	1658847232	63	4722
2026-01-14 07:51:27.49	162.75	15.10	-49.3	-51.8	13.1	5.99e-01	0	27	0	1673527296	63	4608
2026-01-14 07:51:28.48	162.77	15.24	-49.3	-51.7	13.2	6.00e-01	0	28	0	1690304512	63	4546
2026-01-14 07:51:29.48	162.80	15.38	-49.3	-51.7	13.1	6.01e-01	0	27	0	1704984576	63	4583
2026-01-14 07:51:30.48	162.82	15.52	-49.3	-51.7	13.2	6.01e-01	0	27	0	1719664640	63	4565
2026-01-14 07:51:31.48	162.84	15.67	-49.0	-51.3	13.3	6.02e-01	0	27	0	1734344704	62	4628
2026-01-14 07:51:32.47	162.87	15.81	-49.0	-51.3	13.3	6.02e-01	0	27	0	1749024768	62	4615
2026-01-14 07:51:33.47	162.89	15.95	-49.0	-51.3	13.3	6.00e-01	0	27	0	1765801984	62	4630
2026-01-14 07:51:34.46	162.92	16.10	-49.0	-51.3	13.3	6.00e-01	0	27	0	1780482048	62	4641
2026-01-14 07:51:35.45	162.94	16.24	-48.8	-51.1	13.4	5.98e-01	0	27	0	1795162112	62	4526
2026-01-14 07:51:36.45	162.97	16.39	-48.8	-51.1	13.4	6.00e-01	0	27	0	1811939328	62	4519
2026-01-14 07:51:37.44	163.00	16.54	-48.9	-51.2	13.3	5.94e-01	0	27	0	1826619392	62	4574
2026-01-14 07:51:38.43	163.02	16.69	-48.7	-51.0	13.5	6.00e-01	0	27	0	1841299456	62	4445
2026-01-14 07:51:39.43	163.05	16.84	-48.6	-50.8	13.4	5.96e-01	0	27	0	1858076672	61	4612
2026-01-14 07:51:40.43	163.08	17.00	-48.4	-50.6	13.6	6.00e-01	0	27	0	1872756736	61	4519
2026-01-14 07:51:41.42	163.10	17.15	-48.4	-50.6	13.5	6.00e-01	0	27	0	1887436800	61	4535
2026-01-14 07:51:42.42	163.13	17.31	-48.3	-50.5	13.6	6.04e-01	0	27	0	1902116864	61	4466
2026-01-14 07:51:43.41	163.16	17.46	-48.3	-50.5	13.6	6.00e-01	0	27	0	1918894080	61	4483
2026-01-14 07:51:44.41	163.19	17.62	-48.4	-50.5	13.6	6.04e-01	0	27	0	1933574144	61	4479
2026-01-14 07:51:45.40	163.21	17.78	-48.2	-50.4	13.7	5.98e-01	0	27	0	1948254208	61	4401
2026-01-14 07:51:46.40	163.24	17.94	-48.0	-50.2	13.7	6.01e-01	0	27	0	1965031424	60	4569
2026-01-14 07:51:47.39	163.27	18.10	-48.1	-50.3	13.6	5.98e-01	0	27	0	1979711488	60	4609
2026-01-14 07:51:48.38	163.30	18.26	-48.1	-50.3	13.6	6.03e-01	0	27	0	1994391552	60	4606
2026-01-14 07:51:49.38	163.33	18.43	-48.0	-50.1	13.7	5.99e-01	0	27	0	2011168768	60	4545
2026-01-14 07:51:50.38	163.36	18.59	-47.9	-50.0	13.7	6.04e-01	0	27	0	2025848832	60	4467
2026-01-14 07:51:51.36	163.39	18.76	-47.8	-49.9	13.8	6.01e-01	0	27	0	2040528896	60	4437
2026-01-14 07:51:52.36	163.42	18.93	-47.7	-49.9	13.8	6.01e-01	0	28	0	2055208960	60	4421
2026-01-14 07:51:53.35	163.45	19.10	-47.7	-49.9	13.8	5.99e-01	0	27	0	2071986176	60	4404
2026-01-14 07:51:54.35	163.48	19.27	-47.8	-50.0	13.7	5.99e-01	0	28	0	2086666240	59	4714
2026-01-14 07:51:55.35	163.52	19.44	-47.7	-49.9	13.7	6.03e-01	0	28	0	2101346304	59	4673
2026-01-14 07:51:56.35	163.55	19.62	-47.7	-49.9	13.7	5.98e-01	0	27	0	2118123520	59	4674
2026-01-14 07:51:57.34	163.58	19.80	-47.6	-49.8	13.8	6.02e-01	0	27	0	2132803584	59	4634
2026-01-14 07:51:58.33	163.61	19.97	-47.6	-49.8	13.8	5.93e-01	0	27	0	2147483648	59	4635
2026-01-14 07:51:59.33	163.65	20.15	-47.6	-49.8	13.8	6.02e-01	0	27	0	2162163712	59	4638
2026-01-14 07:52:00.32	163.68	20.33	-47.5	-49.8	13.8	6.02e-01	0	27	0	2176843776	59	4602
2026-01-14 07:52:01.31	163.71	20.51	-47.4	-49.7	13.9	5.99e-01	0	27	0	2193620992	59	4555
2026-01-14 07:52:02.30	163.75	20.70	-47.4	-49.6	13.9	5.96e-01	0	27	0	2208301056	59	4514
2026-01-14 07:52:03.28	163.78	20.88	-47.3	-49.5	13.9	5.98e-01	0	27	0	2222981120	59	4484
2026-01-14 07:52:04.29	163.82	21.07	-47.2	-49.5	14.0	5.98e-01	0	28	0	2239758336	59	4442
2026-01-14 07:52:05.27	163.85	21.26	-47.2	-49.4	14.0	5.98e-01	0	28	0	2254438400	59	4441
2026-01-14 07:52:06.27	163.89	21.45	-47.1	-49.4	13.9	5.96e-01	0	28	0	2269118464	58	4664
2026-01-14 07:52:07.26	163.92	21.64	-47.2	-49.4	13.9	6.01e-01	0	28	0	2283798528	58	4661
2026-01-14 07:52:08.27	163.96	21.84	-47.0	-49.2	14.0	6.03e-01	0	27	0	2300575744	58	4559
2026-01-14 07:52:09.26	164.00	22.04	-46.9	-49.1	14.0	6.01e-01	0	27	0	2315255808	58	4510
2026-01-14 07:52:10.25	164.04	22.24	-46.9	-49.1	14.0	5.96e-01	0	27	0	2329935872	58	4534
2026-01-14 07:52:11.24	164.07	22.44	-46.9	-49.1	14.1	5.99e-01	0	27	0	2346713088	58	4510
2026-01-14 07:52:12.24	164.11	22.64	-46.8	-49.0	14.1	5.91e-01	0	28	0	2361393152	58	4450
2026-01-14 07:52:13.24	164.15	22.85	-46.9	-49.1	14.0	5.97e-01	0	27	0	2376073216	58	4500
2026-01-14 07:52:14.23	164.19	23.05	-46.7	-48.9	14.1	5.97e-01	0	27	0	2390753280	58	4425
2026-01-14 07:52:15.23	164.23	23.26	-46.7	-48.8	14.2	5.98e-01	0	27	0	2407530496	58	4389
2026-01-14 07:52:16.22	164.27	23.47	-46.7	-48.9	14.0	5.96e-01	0	27	0	2422210560	57	4668
2026-01-14 07:52:17.22	164.32	23.69	-46.6	-48.8	14.1	5.84e-01	0	27	0	2436890624	57	4611
2026-01-14 07:52:18.20	164.36	23.90	-46.6	-48.8	14.1	5.99e-01	0	27	0	2453667840	57	4617
2026-01-14 07:52:19.20	164.40	24.12	-46.5	-48.8	14.1	5.95e-01	0	28	0	2468347904	57	4601
2026-01-14 07:52:20.20	164.44	24.34	-46.6	-48.8	14.1	5.95e-01	0	28	0	2483027968	57	4635
2026-01-14 07:52:21.19	164.49	24.56	-46.5	-48.8	14.1	5.99e-01	0	28	0	2499805184	57	4619
2026-01-14 07:52:22.19	164.53	24.78	-46.5	-48.7	14.1	6.00e-01	0	28	0	2514485248	57	4598
2026-01-14 07:52:23.18	164.58	25.01	-46.4	-48.7	14.1	5.93e-01	0	28	0	2529165312	57	4565
2026-01-14 07:52:24.18	164.62	25.24	-46.3	-48.6	14.2	5.93e-01	0	28	0	2543845376	57	4531
2026-01-14 07:52:25.17	164.67	25.47	-46.2	-48.5	14.3	5.96e-01	0	28	0	2558525440	57	4459
2026-01-14 07:52:26.16	164.72	25.70	-46.0	-48.3	14.2	5.93e-01	0	27	0	2575302656	56	4624
2026-01-14 07:52:27.15	164.77	25.94	-45.9	-48.1	14.3	5.97e-01	0	27	0	2589982720	56	4524
2026-01-14 07:52:28.15	164.82	26.18	-45.9	-48.1	14.3	5.99e-01	0	27	0	2604662784	56	4534
2026-01-14 07:52:29.15	164.86	26.42	-45.8	-48.0	14.3	5.98e-01	0	27	0	2621440000	56	4486
2026-01-14 07:52:30.14	164.92	26.66	-45.8	-48.0	14.4	5.99e-01	0	28	0	2636120064	56	4444
2026-01-14 07:52:31.13	164.97	26.91	-45.8	-47.9	14.3	5.98e-01	0	27	0	2650800128	56	4426
2026-01-14 07:52:32.13	165.02	27.16	-45.7	-47.9	14.4	5.96e-01	0	27	0	2667577344	56	4416
2026-01-14 07:52:33.13	165.07	27.42	-45.8	-48.0	14.4	5.96e-01	0	28	0	2682257408	56	4446
2026-01-14 07:52:34.13	165.13	27.67	-45.9	-48.0	14.3	5.99e-01	0	27	0	2696937472	56	4473
2026-01-14 07:52:35.12	165.18	27.93	-45.8	-47.9	14.4	5.98e-01	0	28	0	2711617536	56	4400
2026-01-14 07:52:36.11	165.24	28.19	-45.8	-47.9	14.4	5.97e-01	0	27	0	2728394752	56	4428
2026-01-14 07:52:37.10	165.29	28.45	-45.8	-47.9	14.3	5.97e-01	0	28	0	2743074816	56	4411
2026-01-14 07:52:38.11	165.35	28.72	-45.8	-47.9	14.3	5.95e-01	0	27	0	2757754880	56	4398
2026-01-14 07:52:39.10	165.41	28.99	-45.8	-47.8	14.3	5.94e-01	0	28	0	2774532096	56	4381
2026-01-14 07:52:40.09	165.47	29.26	-45.8	-47.8	14.4	5.94e-01	0	27	0	2789212160	56	4362
2026-01-14 07:52:41.09	165.53	29.54	-45.8	-47.8	14.3	6.01e-01	0	28	0	2803892224	56	4381
2026-01-14 07:52:42.08	165.59	29.82	-45.8	-47.8	14.3	5.95e-01	0	28	0	2818572288	56	4357
2026-01-14 07:52:43.08	165.65	30.10	-45.9	-47.8	14.3	5.94e-01	0	28	0	2835349504	56	4378
2026-01-14 07:52:44.08	165.72	30.39	-45.8	-47.8	14.4	5.96e-01	0	28	0	2850029568	56	4352
2026-01-14 07:52:45.07	165.78	30.68	-45.8	-47.8	14.4	5.96e-01	0	28	0	2864709632	56	4354
2026-01-14 07:52:46.06	165.85	30.97	-45.9	-47.8	14.4	5.97e-01	0	28	0	2881486848	56	4385
2026-01-14 07:52:47.06	165.91	31.27	-45.8	-47.8	14.4	5.93e-01	0	27	0	2896166912	56	4355
2026-01-14 07:52:48.05	165.98	31.57	-45.9	-47.9	14.3	5.95e-01	0	28	0	2910846976	56	4413
2026-01-14 07:52:49.04	166.05	31.87	-45.9	-47.9	14.3	5.99e-01	0	28	0	2927624192	56	4395
2026-01-14 07:52:50.04	166.12	32.18	-45.9	-47.8	14.3	5.98e-01	0	27	0	2942304256	56	4376
2026-01-14 07:52:51.03	166.20	32.49	-46.0	-47.8	14.3	5.99e-01	0	27	0	2956984320	56	4380
2026-01-14 07:52:52.03	166.27	32.81	-45.9	-47.8	14.3	5.98e-01	0	28	0	2971664384	56	4365
2026-01-14 07:52:53.03	166.35	33.13	-45.9	-47.8	14.3	6.01e-01	0	27	0	2986344448	56	4351
2026-01-14 07:52:54.02	166.42	33.45	-45.9	-47.8	14.3	5.89e-01	0	27	0	3003121664	56	4350
2026-01-14 07:52:55.02	166.50	33.78	-46.0	-47.8	14.3	5.89e-01	0	27	0	3017801728	56	4382
2026-01-14 07:52:56.00	166.58	34.10	-45.9	-47.9	14.3	5.89e-01	0	28	0	3032481792	56	4400
2026-01-14 07:52:57.00	166.66	34.44	-45.9	-47.9	14.3	5.89e-01	0	28	0	3049259008	56	4394
2026-01-14 07:52:57.99	166.75	34.78	-46.0	-48.0	14.3	5.88e-01	0	28	0	3063939072	56	4445
2026-01-14 07:52:58.99	166.83	35.12	-46.0	-47.9	14.3	5.88e-01	0	27	0	3078619136	56	4404
2026-01-14 07:52:59.98	166.92	35.47	-46.0	-47.9	14.3	5.88e-01	0	28	0	3093299200	56	4434
2026-01-14 07:53:00.97	167.01	35.82	-46.1	-48.0	14.2	5.89e-01	0	27	0	3110076416	56	4468
2026-01-14 07:53:01.96	167.10	36.17	-46.2	-48.2	14.2	5.89e-01	0	27	0	3124756480	56	4564
2026-01-14 07:53:02.95	167.19	36.53	-46.1	-48.1	14.3	5.89e-01	0	27	0	3139436544	56	4521
2026-01-14 07:53:03.95	167.29	36.90	-46.8	-47.9	13.9	5.89e-01	0	27	0	3156213760	56	4412
2026-01-14 07:53:04.95	167.39	37.27	-46.9	-48.0	13.9	5.89e-01	0	28	0	3170893824	56	4456
2026-01-14 07:53:05.94	167.49	37.64	-46.9	-47.9	13.9	5.90e-01	0	28	0	3185573888	56	4438
2026-01-14 07:53:06.93	167.59	38.02	-60.7	-70.5	3.8	7.45e-01	0	27	104	3187671040	84	11867
2026-01-14 07:53:07.92	167.69	38.40	-60.7	-70.5	3.8	7.45e-01	0	27	104	3187671040	84	11854
2026-01-14 07:53:08.91	167.80	38.79	-60.7	-70.5	3.8	7.47e-01	0	28	104	3187671040	84	11924
2026-01-14 07:53:09.92	167.91	39.19	-60.7	-70.5	3.8	7.45e-01	0	27	104	3187671040	84	11847
2026-01-14 07:53:10.92	168.02	39.59	-60.7	-70.5	3.8	7.46e-01	0	27	104	3187671040	84	11847
2026-01-14 07:53:11.92	168.14	40.00	-60.7	-70.5	3.8	7.44e-01	0	28	104	3187671040	84	11889
2026-01-14 07:53:12.93	168.26	40.42	-60.7	-70.4	3.8	7.45e-01	0	27	104	3187671040	84	11800
2026-01-14 07:53:13.92	168.38	40.83	-60.7	-70.5	3.8	7.47e-01	0	27	104	3187671040	84	11841
2026-01-14 07:53:14.92	168.51	41.25	-60.8	-70.5	3.8	7.47e-01	0	28	104	3187671040	84	11872
2026-01-14 07:53:15.93	168.64	41.69	-60.8	-70.5	3.8	7.43e-01	0	27	104	3187671040	84	11929
2026-01-14 07:53:16.93	168.77	42.12	-60.7	-70.5	3.8	7.46e-01	0	27	104	3187671040	84	11844
2026-01-14 07:53:17.93	168.91	42.56	-60.7	-70.5	3.8	7.45e-01	0	28	104	3187671040	84	11821
2026-01-14 07:53:18.93	169.05	43.01	-60.7	-70.5	3.8	7.46e-01	0	27	104	3187671040	84	11864
2026-01-14 07:53:19.93	169.19	43.46	-60.8	-70.5	3.8	7.45e-01	0	28	104	3187671040	84	11906
2026-01-14 07:53:20.94	169.34	43.92	-60.7	-70.5	3.8	7.44e-01	0	27	104	3187671040	84	11841
2026-01-14 07:53:21.93	169.49	44.38	-60.8	-70.5	3.8	7.46e-01	0	27	104	3187671040	84	11899
2026-01-14 07:53:22.94	169.65	44.85	-60.8	-70.5	3.8	7.46e-01	0	27	104	3187671040	84	11936
2026-01-14 07:53:23.94	169.81	45.33	-60.8	-70.5	3.8	7.47e-01	0	27	104	3187671040	84	11952
2026-01-14 07:53:24.93	169.98	45.81	-60.8	-70.5	3.8	7.45e-01	0	27	104	3187671040	84	11924
2026-01-14 07:53:25.93	170.15	46.30	-60.8	-70.5	3.8	7.44e-01	0	27	104	3187671040	84	11927
2026-01-14 07:53:26.93	170.33	46.79	-60.8	-70.6	3.8	7.44e-01	0	27	104	3187671040	84	11972
2026-01-14 07:53:27.94	170.51	47.30	-60.8	-70.6	3.8	7.45e-01	0	28	104	3187671040	84	12008
2026-01-14 07:53:28.93	170.70	47.80	-60.8	-70.6	3.8	7.48e-01	0	27	104	3187671040	84	11964
2026-01-14 07:53:29.94	170.90	48.32	-60.8	-70.5	3.8	7.45e-01	0	28	104	3187671040	84	11909
2026-01-14 07:53:30.94	171.10	48.84	-60.8	-70.5	3.8	7.45e-01	0	28	104	3187671040	84	11947
2026-01-14 07:53:31.95	171.31	49.37	-60.8	-70.6	3.8	7.45e-01	0	27	104	3187671040	84	11991
2026-01-14 07:53:32.95	171.53	49.90	-60.8	-70.5	3.8	7.46e-01	0	27	104	3187671040	84	11929
2026-01-14 07:53:33.95	171.76	50.44	-60.8	-70.5	3.8	7.45e-01	0	27	104	3187671040	84	11935
2026-01-14 07:53:34.96	171.99	50.99	-60.8	-70.6	3.8	7.45e-01	0	27	104	3187671040	84	11967
2026-01-14 07:53:35.96	172.24	51.55	-60.8	-70.6	3.8	7.45e-01	0	28	104	3187671040	84	11985
2026-01-14 07:53:36.96	172.49	52.11	-60.8	-70.6	3.8	7.46e-01	0	28	104	3187671040	84	11981
2026-01-14 07:53:37.97	172.75	52.68	-60.8	-70.6	3.8	7.46e-01	0	28	104	3187671040	84	11992
2026-01-14 07:53:38.97	173.02	53.25	-60.9	-70.6	3.8	7.46e-01	0	28	104	3187671040	84	12045
2026-01-14 07:53:39.98	173.31	53.84	-60.9	-70.7	3.8	7.46e-01	0	28	104	3187671040	84	12100
2026-01-14 07:53:40.97	173.60	54.42	-60.8	-70.6	3.8	7.46e-01	0	28	104	3187671040	84	12017
2026-01-14 07:53:41.98	173.91	55.02	-60.9	-70.6	3.8	7.44e-01	0	28	104	3187671040	84	12053
2026-01-14 07:53:42.98	174.23	55.62	-60.9	-70.6	3.8	7.45e-01	0	28	104	3187671040	84	12062
2026-01-14 07:53:43.99	174.57	56.23	-60.9	-70.6	3.8	7.47e-01	0	28	104	3187671040	84	12091
2026-01-14 07:53:44.99	174.92	56.84	-60.9	-70.6	3.8	7.45e-01	0	28	104	3187671040	84	12015
2026-01-14 07:53:45.99	175.29	57.46	-60.9	-70.6	3.8	7.45e-01	0	28	104	3187671040	84	12058
2026-01-14 07:53:46.99	175.67	58.08	-60.9	-70.7	3.8	7.47e-01	0	28	104	3187671040	84	12125
2026-01-14 07:53:47.99	176.07	58.72	-61.0	-70.7	3.8	7.47e-01	0	27	104	3187671040	85	11507
2026-01-14 07:53:48.99	176.49	59.35	-60.9	-70.7	3.8	7.45e-01	0	28	104	3187671040	85	11429
2026-01-14 07:53:50.00	176.94	60.00	-60.9	-70.7	3.8	7.46e-01	0	28	104	3187671040	85	11464
2026-01-14 07:53:51.00	177.41	60.65	-61.0	-70.7	3.8	7.46e-01	0	28	104	3187671040	85	11500
2026-01-14 07:53:52.00	177.90	61.31	-61.0	-70.7	3.8	7.45e-01	0	28	104	3187671040	85	11523
2026-01-14 07:53:52.99	178.41	61.96	-60.9	-70.7	3.8	7.46e-01	0	28	104	3187671040	85	11444
2026-01-14 07:53:53.98	178.95	62.62	-61.0	-70.7	3.8	7.45e-01	0	28	104	3187671040	85	11511
2026-01-14 07:53:54.99	179.53	63.29	-61.0	-70.7	3.8	7.45e-01	0	28	104	3187671040	85	11528
2026-01-14 07:53:56.00	180.15	63.97	-61.0	-70.8	3.8	7.46e-01	0	27	104	3187671040	85	11553
2026-01-14 07:53:57.00	180.80	64.65	-61.0	-70.7	3.8	7.44e-01	0	28	104	3187671040	85	11474
2026-01-14 07:53:58.00	181.49	65.33	-61.0	-70.7	3.8	7.45e-01	0	27	104	3187671040	85	11546
2026-01-14 07:53:59.00	182.22	66.01	-61.0	-70.8	3.8	7.45e-01	0	28	104	3187671040	85	11552
2026-01-14 07:54:00.01	183.00	66.71	-61.0	-70.8	3.8	7.45e-01	0	28	104	3187671040	85	11566
2026-01-14 07:54:01.00	183.83	67.39	-61.0	-70.7	3.8	7.43e-01	0	27	104	3187671040	85	11538
2026-01-14 07:54:02.00	184.72	68.08	-61.0	-70.8	3.8	7.47e-01	0	28	104	3187671040	85	11563
2026-01-14 07:54:03.01	185.68	68.78	-61.0	-70.8	3.8	7.45e-01	0	28	104	3187671040	85	11584
2026-01-14 07:54:04.01	186.70	69.47	-61.1	-70.8	3.8	7.47e-01	0	28	104	3187671040	85	11653
2026-01-14 07:54:05.00	187.79	70.15	-61.0	-70.8	3.8	7.45e-01	0	28	104	3187671040	85	11613
2026-01-14 07:54:06.01	188.98	70.85	-61.1	-70.8	3.8	7.47e-01	0	27	104	3187671040	85	11624
2026-01-14 07:54:07.01	190.26	71.53	-61.1	-70.8	3.8	7.46e-01	0	27	104	3187671040	85	11656
2026-01-14 07:54:08.01	191.64	72.21	-61.1	-70.8	3.8	7.46e-01	0	28	104	3187671040	85	11663
2026-01-14 07:54:09.00	193.12	72.88	-61.1	-70.8	3.8	7.46e-01	0	28	104	3187671040	85	11627
2026-01-14 07:54:10.01	194.76	73.55	-61.1	-70.8	3.8	7.45e-01	0	28	104	3187671040	85	11664
2026-01-14 07:54:11.01	196.53	74.21	-61.1	-70.9	3.8	7.46e-01	0	28	104	3187671040	85	11704
2026-01-14 07:54:12.02	198.48	74.86	-61.1	-70.9	3.8	7.46e-01	0	28	104	3187671040	85	11759
2026-01-14 07:54:13.02	200.59	75.49	-61.1	-70.8	3.8	7.46e-01	0	28	104	3187671040	85	11680
2026-01-14 07:54:14.01	202.87	76.10	-61.1	-70.9	3.8	7.46e-01	0	28	104	3187671040	85	11762
2026-01-14 07:54:15.02	205.41	76.70	-61.1	-70.9	3.8	7.45e-01	0	27	104	3187671040	85	11778
2026-01-14 07:54:16.02	208.17	77.26	-61.1	-70.9	3.8	7.45e-01	0	28	104	3187671040	85	11749
2026-01-14 07:54:17.02	211.18	77.80	-61.1	-70.8	3.8	7.47e-01	0	27	104	3187671040	85	11642
2026-01-14 07:54:18.01	214.43	78.30	-61.1	-70.9	3.8	7.45e-01	0	28	104	3187671040	85	11745
2026-01-14 07:54:19.02	218.05	78.77	-61.1	-70.9	3.8	7.47e-01	0	27	104	3187671040	85	11776
2026-01-14 07:54:20.02	221.93	79.19	-61.2	-70.9	3.8	7.45e-01	0	28	104	3187671040	85	11790
2026-01-14 07:54:21.02	226.11	79.56	-61.1	-70.9	3.8	7.47e-01	0	28	104	3187671040	85	11695
2026-01-14 07:54:22.02	230.57	79.87	-61.1	-70.9	3.8	7.46e-01	0	28	104	3187671040	85	11760
2026-01-14 07:54:23.02	235.29	80.12	-61.1	-70.9	3.8	7.47e-01	0	28	104	3187671040	85	11772
2026-01-14 07:54:24.02	240.23	80.30	-61.2	-70.9	3.8	7.45e-01	0	28	104	3187671040	85	11770
2026-01-14 07:54:25.02	245.31	80.40	-61.1	-70.9	3.8	7.46e-01	0	28	104	3187671040	85	11736
2026-01-14 07:54:26.01	250.41	80.43	-61.2	-70.9	3.8	7.46e-01	0	28	104	3187671040	85	11766
2026-01-14 07:54:27.01	255.56	80.39	-61.1	-70.9	3.8	7.47e-01	0	27	104	3187671040	85	11770
2026-01-14 07:54:28.02	260.67	80.26	-61.2	-70.9	3.8	7.46e-01	0	28	104	3187671040	85	11794
2026-01-14 07:54:29.02	265.56	80.07	-61.1	-70.9	3.8	7.45e-01	0	28	104	3187671040	85	11753
2026-01-14 07:54:30.02	270.23	79.81	-61.2	-70.9	3.8	7.45e-01	0	28	104	3187671040	85	11814
2026-01-14 07:54:31.02	274.64	79.49	-61.2	-70.9	3.8	7.46e-01	0	28	104	3187671040	85	11798
2026-01-14 07:54:32.02	278.75	79.11	-61.2	-70.9	3.8	7.44e-01	0	28	104	3187671040	85	11805
2026-01-14 07:54:33.02	282.57	78.68	-61.1	-70.9	3.8	7.46e-01	0	28	104	3187671040	85	11686
2026-01-14 07:54:34.01	286.05	78.21	-61.2	-70.9	3.8	7.46e-01	0	28	104	3187671040	85	11772
2026-01-14 07:54:35.02	289.31	77.69	-61.2	-70.9	3.8	7.46e-01	0	28	104	3187671040	85	11795
2026-01-14 07:54:36.02	292.27	77.15	-61.2	-71.0	3.8	7.46e-01	0	28	104	3187671040	85	11861
2026-01-14 07:54:37.02	294.97	76.58	-61.2	-70.9	3.8	7.47e-01	0	28	104	3187671040	85	11796
2026-01-14 07:54:38.02	297.44	75.98	-61.2	-71.0	3.8	7.47e-01	0	28	104	3187671040	85	11845
2026-01-14 07:54:39.02	299.70	75.37	-61.2	-71.0	3.8	7.46e-01	0	28	104	3187671040	85	11859
2026-01-14 07:54:40.02	301.77	74.73	-61.2	-71.0	3.8	7.46e-01	0	28	104	3187671040	85	11864
2026-01-14 07:54:41.02	303.66	74.09	-61.2	-70.9	3.8	7.45e-01	0	28	104	3187671040	85	11799
2026-01-14 07:54:42.02	305.40	73.43	-61.2	-71.0	3.8	7.45e-01	0	28	104	3187671040	85	11875
2026-01-14 07:54:43.02	307.00	72.76	-61.2	-71.0	3.8	7.46e-01	0	28	104	3187671040	85	11862
2026-01-14 07:54:44.01	308.46	72.09	-61.2	-71.0	3.8	7.46e-01	0	28	104	3187671040	85	11902
2026-01-14 07:54:45.01	309.82	71.41	-61.2	-71.0	3.8	7.46e-01	0	28	104	3187671040	85	11829
2026-01-14 07:54:46.00	311.07	70.74	-61.2	-71.0	3.8	7.45e-01	0	28	104	3187671040	85	11820
2026-01-14 07:54:47.01	312.24	70.04	-61.2	-71.0	3.8	7.46e-01	0	28	104	3187671040	85	11905
2026-01-14 07:54:48.01	313.33	69.35	-61.2	-71.0	3.8	7.47e-01	0	28	104	3187671040	85	11898
2026-01-14 07:54:49.01	314.34	68.66	-61.2	-70.9	3.8	7.46e-01	0	28	104	3187671040	85	11794
2026-01-14 07:54:50.02	315.28	67.97	-61.2	-71.0	3.8	7.45e-01	0	28	104	3187671040	85	11845
2026-01-14 07:54:51.02	316.16	67.28	-61.2	-71.0	3.8	7.47e-01	0	28	104	3187671040	85	11865
2026-01-14 07:54:52.02	316.98	66.59	-61.2	-71.0	3.8	7.44e-01	0	28	104	3187671040	85	11824
2026-01-14 07:54:53.01	317.74	65.91	-61.2	-70.9	3.8	7.45e-01	0	28	104	3187671040	85	11765
2026-01-14 07:54:54.01	318.47	65.23	-61.2	-71.0	3.8	7.47e-01	0	28	104	3187671040	85	11834
2026-01-14 07:54:55.02	319.15	64.54	-61.2	-71.0	3.8	7.46e-01	0	28	104	3187671040	85	11851
2026-01-14 07:54:56.03	319.80	63.86	-61.2	-71.0	3.8	7.46e-01	0	28	104	3187671040	85	11857
2026-01-14 07:54:57.03	320.41	63.19	-61.2	-70.9	3.8	7.45e-01	0	28	104	3187671040	85	11756
2026-01-14 07:54:58.03	320.98	62.52	-61.2	-71.0	3.8	7.43e-01	0	28	104	3187671040	85	11841
2026-01-14 07:54:59.02	321.51	61.87	-61.2	-71.0	3.8	7.46e-01	0	28	104	3187671040	85	11840
2026-01-14 07:55:00.03	322.03	61.20	-61.2	-70.9	3.8	7.45e-01	0	28	104	3187671040	85	11810
2026-01-14 07:55:01.02	322.51	60.56	-61.2	-70.9	3.8	7.44e-01	0	28	104	3187671040	85	11786
2026-01-14 07:55:02.02	322.97	59.91	-61.2	-71.0	3.8	7.44e-01	0	28	104	3187671040	85	11825
2026-01-14 07:55:03.02	323.41	59.27	-61.2	-70.9	3.8	7.46e-01	0	28	104	3187671040	85	11791
2026-01-14 07:55:04.02	323.83	58.64	-61.2	-70.9	3.8	7.45e-01	0	28	104	3187671040	85	11803
2026-01-14 07:55:05.01	324.22	58.01	-61.2	-70.9	3.8	7.46e-01	0	28	104	3187671040	85	11790
2026-01-14 07:55:06.01	324.60	57.39	-61.2	-70.9	3.8	7.47e-01	0	28	104	3187671040	85	11810
2026-01-14 07:55:07.01	324.97	56.78	-61.2	-71.0	3.8	7.47e-01	0	28	104	3187671040	85	11868
2026-01-14 07:55:08.02	325.32	56.16	-61.2	-70.9	3.8	7.45e-01	0	28	104	3187671040	85	11810
2026-01-14 07:55:09.01	325.65	55.56	-61.2	-70.9	3.8	7.45e-01	0	28	104	3187671040	85	11779
2026-01-14 07:55:10.00	325.96	54.97	-61.2	-70.9	3.8	7.46e-01	0	28	104	3187671040	85	11770
2026-01-14 07:55:11.00	326.27	54.38	-61.2	-70.9	3.8	7.46e-01	0	28	104	3187671040	85	11792
2026-01-14 07:55:12.00	326.56	53.80	-61.2	-70.9	3.8	7.44e-01	0	28	104	3187671040	85	11788
2026-01-14 07:55:12.99	326.84	53.23	-61.1	-70.9	3.8	7.44e-01	0	28	104	3187671040	85	11738
2026-01-14 07:55:13.99	327.11	52.65	-61.1	-70.9	3.8	7.45e-01	0	28	104	3187671040	85	11758
2026-01-14 07:55:15.00	327.37	52.08	-61.2	-70.9	3.8	7.45e-01	0	28	104	3187671040	85	11777
2026-01-14 07:55:15.99	327.62	51.53	-61.2	-70.9	3.8	7.45e-01	0	28	104	3187671040	85	11772
2026-01-14 07:55:16.99	327.86	50.98	-61.1	-70.9	3.8	7.47e-01	0	28	104	3187671040	85	11692
2026-01-14 07:55:17.99	328.09	50.44	-61.1	-70.9	3.8	7.46e-01	0	28	104	3187671040	85	11729
2026-01-14 07:55:18.99	328.32	49.90	-61.2	-70.9	3.8	7.46e-01	0	28	104	3187671040	85	11743
2026-01-14 07:55:19.99	328.54	49.37	-61.2	-70.9	3.8	7.46e-01	0	28	104	3187671040	85	11759
2026-01-14 07:55:20.99	328.74	48.84	-61.1	-70.9	3.8	7.47e-01	0	28	104	3187671040	85	11691
2026-01-14 07:55:21.99	328.95	48.33	-61.1	-70.9	3.8	7.46e-01	0	28	104	3187671040	85	11724
2026-01-14 07:55:22.99	329.14	47.81	-61.1	-70.8	3.8	7.45e-01	0	28	104	3187671040	85	11670
2026-01-14 07:55:23.99	329.33	47.31	-61.1	-70.9	3.8	7.46e-01	0	28	104	3187671040	85	11699
2026-01-14 07:55:24.98	329.51	46.82	-61.1	-70.9	3.8	7.46e-01	0	28	104	3187671040	85	11685
2026-01-14 07:55:25.98	329.69	46.32	-61.1	-70.8	3.8	7.45e-01	0	28	104	3187671040	85	11656
2026-01-14 07:55:26.99	329.86	45.83	-61.1	-70.9	3.8	7.45e-01	0	28	104	3187671040	85	11694
2026-01-14 07:55:27.99	330.03	45.35	-61.1	-70.8	3.8	7.46e-01	0	28	104	3187671040	85	11652
2026-01-14 07:55:28.98	330.19	44.88	-61.1	-70.8	3.8	7.46e-01	0	28	104	3187671040	85	11664
2026-01-14 07:55:29.98	330.35	44.41	-61.1	-70.8	3.8	7.45e-01	0	28	104	3187671040	85	11665
2026-01-14 07:55:30.98	330.50	43.95	-61.1	-70.8	3.8	7.45e-01	0	28	104	3187671040	85	11660
2026-01-14 07:55:31.98	330.65	43.50	-61.1	-70.8	3.8	7.45e-01	0	28	104	3187671040	85	11599
2026-01-14 07:55:32.97	330.79	43.05	-61.0	-70.8	3.8	7.45e-01	0	28	104	3187671040	85	11594
2026-01-14 07:55:33.97	330.93	42.61	-61.1	-70.8	3.8	7.47e-01	0	27	104	3187671040	85	11602
2026-01-14 07:55:34.97	331.07	42.17	-61.1	-70.8	3.8	7.46e-01	0	28	104	3187671040	85	11662
2026-01-14 07:55:35.96	331.20	41.74	-61.1	-70.8	3.8	7.43e-01	0	28	104	3187671040	85	11599
2026-01-14 07:55:36.97	331.33	41.31	-61.0	-70.8	3.8	7.44e-01	0	28	104	3187671040	85	11610
2026-01-14 07:55:37.96	331.45	40.89	-61.0	-70.8	3.8	7.44e-01	0	28	104	3187671040	85	11616
2026-01-14 07:55:38.96	331.58	40.47	-61.1	-70.8	3.8	7.47e-01	0	28	104	3187671040	85	11643
2026-01-14 07:55:39.96	331.69	40.06	-61.0	-70.8	3.8	7.46e-01	0	28	104	3187671040	85	11602
2026-01-14 07:55:40.94	331.81	39.67	-61.0	-70.8	3.8	7.44e-01	0	27	104	3187671040	85	11566
2026-01-14 07:55:41.94	331.92	39.27	-61.0	-70.8	3.8	7.46e-01	0	28	104	3187671040	85	11576
2026-01-14 07:55:42.94	332.03	38.87	-61.0	-70.8	3.8	7.46e-01	0	28	104	3187671040	85	11570
2026-01-14 07:55:43.94	332.14	38.48	-61.0	-70.7	3.8	7.45e-01	0	28	104	3187671040	85	11531
2026-01-14 07:55:44.93	332.24	38.10	-61.0	-70.7	3.8	7.46e-01	0	28	104	3187671040	85	11543
2026-01-14 07:55:45.92	332.35	37.72	-61.0	-70.7	3.8	7.46e-01	0	28	104	3187671040	85	11488
2026-01-14 07:55:46.92	332.45	37.35	-61.0	-70.8	3.8	7.46e-01	0	28	104	3187671040	85	11557
2026-01-14 07:55:47.92	332.55	36.97	-61.0	-70.7	3.8	7.46e-01	0	28	104	3187671040	85	11526
2026-01-14 07:55:48.92	332.64	36.61	-61.0	-70.7	3.8	7.45e-01	0	28	104	3187671040	85	11458
2026-01-14 07:55:49.91	332.73	36.25	-61.0	-70.7	3.8	7.45e-01	0	28	104	3187671040	85	11498
2026-01-14 07:55:50.90	332.83	35.90	-61.0	-70.7	3.8	7.46e-01	0	28	104	3187671040	85	11499
2026-01-14 07:55:51.90	332.91	35.54	-61.0	-70.7	3.8	7.46e-01	0	28	104	3187671040	85	11474
2026-01-14 07:55:52.89	333.00	35.20	-60.9	-70.7	3.8	7.44e-01	0	28	104	3187671040	85	11472
2026-01-14 07:55:53.88	333.09	34.86	-60.9	-70.7	3.8	7.44e-01	0	28	104	3187671040	85	11441
2026-01-14 07:55:54.88	333.17	34.52	-60.9	-70.7	3.8	7.45e-01	0	28	104	3187671040	85	11464
2026-01-14 07:55:55.88	333.25	34.18	-60.9	-70.6	3.8	7.46e-01	0	28	104	3187671040	85	11406
2026-01-14 07:55:56.88	333.33	33.85	-60.9	-70.7	3.8	7.46e-01	0	28	104	3187671040	85	11447
2026-01-14 07:55:57.87	333.41	33.53	-60.9	-70.6	3.8	7.45e-01	0	28	104	3187671040	85	11349
2026-01-14 07:55:58.86	333.49	33.21	-60.9	-70.7	3.8	7.45e-01	0	27	104	3187671040	85	11420
2026-01-14 07:55:59.86	333.57	32.89	-60.9	-70.6	3.8	7.46e-01	0	28	104	3187671040	85	11392
2026-01-14 07:56:00.85	333.64	32.58	-60.9	-70.6	3.8	7.45e-01	0	28	104	3187671040	85	11366
2026-01-14 07:56:01.85	333.71	32.26	-60.8	-70.6	3.8	7.46e-01	0	28	104	3187671040	85	11300
2026-01-14 07:56:02.84	333.78	31.96	-60.9	-70.6	3.8	7.47e-01	0	28	104	3187671040	85	11400
2026-01-14 07:56:03.84	333.85	31.65	-60.8	-70.6	3.8	7.46e-01	0	28	104	3187671040	85	11315
2026-01-14 07:56:04.84	333.92	31.35	-60.8	-70.6	3.8	7.47e-01	0	28	104	3187671040	85	11293
2026-01-14 07:56:05.83	333.99	31.06	-60.8	-70.6	3.8	7.46e-01	0	28	104	3187671040	85	11294
2026-01-14 07:56:06.82	334.06	30.77	-60.8	-70.6	3.8	7.44e-01	0	28	104	3187671040	85	11334
2026-01-14 07:56:07.83	334.12	30.48	-60.8	-70.6	3.8	7.46e-01	0	28	104	3187671040	85	11318
2026-01-14 07:56:08.83	334.19	30.19	-60.8	-70.6	3.8	7.45e-01	0	28	104	3187671040	85	11345
2026-01-14 07:56:09.84	334.25	29.90	-60.8	-70.5	3.8	7.44e-01	0	28	104	3187671040	85	11247
2026-01-14 07:56:10.84	334.31	29.62	-60.8	-70.6	3.8	7.48e-01	0	28	104	3187671040	85	11340
2026-01-14 07:56:11.84	334.37	29.35	-60.8	-70.5	3.8	7.46e-01	0	28	104	3187671040	85	11259
2026-01-14 07:56:12.84	334.43	29.07	-60.8	-70.6	3.8	7.44e-01	0	28	104	3187671040	85	11289
2026-01-14 07:56:13.84	334.49	28.80	-60.8	-70.5	3.8	7.46e-01	0	28	104	3187671040	85	11215
2026-01-14 07:56:14.84	334.55	28.53	-60.8	-70.5	3.8	7.45e-01	0	28	104	3187671040	85	11286
2026-01-14 07:56:15.82	334.61	28.28	-60.8	-70.5	3.8	7.44e-01	0	28	104	3187671040	85	11281
2026-01-14 07:56:16.82	334.66	28.01	-60.8	-70.5	3.8	7.46e-01	0	28	104	3187671040	85	11263
2026-01-14 07:56:17.82	334.72	27.75	-60.7	-70.5	3.8	7.47e-01	0	28	104	3187671040	85	11211
2026-01-14 07:56:18.80	334.77	27.50	-60.8	-70.5	3.8	7.46e-01	0	28	104	3187671040	85	11233
2026-01-14 07:56:19.80	334.82	27.25	-60.7	-70.5	3.8	7.45e-01	0	28	104	3187671040	85	11245
2026-01-14 07:56:20.79	334.87	27.00	-60.7	-70.5	3.8	7.46e-01	0	28	104	3187671040	85	11226
2026-01-14 07:56:21.79	334.93	26.76	-60.7	-70.5	3.8	7.45e-01	0	28	104	3187671040	85	11158
2026-01-14 07:56:22.78	334.98	26.51	-60.7	-70.5	3.8	7.46e-01	0	28	104	3187671040	85	11195
2026-01-14 07:56:23.77	335.03	26.27	-60.7	-70.5	3.8	7.45e-01	0	28	104	3187671040	85	11208
2026-01-14 07:56:24.77	335.08	26.03	-60.7	-70.4	3.8	7.47e-01	0	28	104	3187671040	85	11152
2026-01-14 07:56:25.76	335.12	25.80	-60.7	-70.4	3.8	7.47e-01	0	28	104	3187671040	85	11114
2026-01-14 07:56:26.75	335.17	25.57	-60.7	-70.5	3.8	7.46e-01	0	28	104	3187671040	85	11171
2026-01-14 07:56:27.75	335.22	25.34	-60.7	-70.4	3.8	7.47e-01	0	28	104	3187671040	85	11138
2026-01-14 07:56:28.74	335.26	25.11	-60.7	-70.4	3.8	7.47e-01	0	28	104	3187671040	85	11154
2026-01-14 07:56:29.73	335.31	24.88	-60.7	-70.4	3.8	7.46e-01	0	27	104	3187671040	85	11094
2026-01-14 07:56:30.72	335.35	24.66	-60.7	-70.4	3.8	7.45e-01	0	28	104	3187671040	85	11098
2026-01-14 07:56:31.72	335.40	24.44	-60.7	-70.4	3.8	7.45e-01	0	28	104	3187671040	85	11077
2026-01-14 07:56:32.72	335.44	24.22	-60.7	-70.4	3.8	7.46e-01	0	28	104	3187671040	85	11132
2026-01-14 07:56:33.71	335.49	24.00	-60.6	-70.3	3.8	7.48e-01	0	28	104	3187671040	85	11014
2026-01-14 07:56:34.70	335.53	23.79	-60.6	-70.4	3.8	7.45e-01	0	28	104	3187671040	85	11091
2026-01-14 07:56:35.69	335.57	23.58	-60.6	-70.4	3.8	7.46e-01	0	28	104	3187671040	85	11077
2026-01-14 07:56:36.69	335.61	23.37	-60.6	-70.4	3.8	7.45e-01	0	28	104	3187671040	85	11108
2026-01-14 07:56:37.67	335.65	23.16	-60.6	-70.3	3.8	7.45e-01	0	27	104	3187671040	85	11004
2026-01-14 07:56:38.67	335.69	22.95	-60.6	-70.3	3.8	7.46e-01	0	28	104	3187671040	85	11005
2026-01-14 07:56:39.66	335.73	22.75	-60.6	-70.4	3.8	7.45e-01	0	28	104	3187671040	85	11031
2026-01-14 07:56:40.66	335.77	22.55	-60.6	-70.3	3.8	7.45e-01	0	28	104	3187671040	85	11028
2026-01-14 07:56:41.65	335.81	22.35	-60.6	-70.3	3.8	7.45e-01	0	28	104	3187671040	85	11021
2026-01-14 07:56:42.65	335.85	22.15	-60.6	-70.3	3.8	7.45e-01	0	28	104	3187671040	85	11007
2026-01-14 07:56:43.65	335.88	21.95	-60.6	-70.3	3.8	7.47e-01	0	28	104	3187671040	85	11001
2026-01-14 07:56:44.65	335.92	21.75	-60.6	-70.3	3.8	7.45e-01	0	28	104	3187671040	85	11025
2026-01-14 07:56:45.65	335.96	21.56	-60.5	-70.3	3.8	7.46e-01	0	28	104	3187671040	85	10929
2026-01-14 07:56:46.64	335.99	21.37	-60.6	-70.3	3.8	7.45e-01	0	28	104	3187671040	85	10967
2026-01-14 07:56:47.64	336.03	21.18	-60.6	-70.3	3.8	7.46e-01	0	28	104	3187671040	85	10975
2026-01-14 07:56:48.64	336.07	20.99	-60.6	-70.3	3.8	7.47e-01	0	28	104	3187671040	85	10943
2026-01-14 07:56:49.64	336.10	20.81	-60.5	-70.3	3.8	7.46e-01	0	28	104	3187671040	85	10921
2026-01-14 07:56:50.64	336.14	20.62	-60.5	-70.3	3.8	7.47e-01	0	28	104	3187671040	85	10920
2026-01-14 07:56:51.64	336.17	20.44	-60.5	-70.3	3.8	7.45e-01	0	28	104	3187671040	85	10911
2026-01-14 07:56:52.64	336.20	20.26	-60.5	-70.3	3.8	7.45e-01	0	28	104	3187671040	85	10921
2026-01-14 07:56:53.65	336.24	20.08	-60.5	-70.2	3.8	7.47e-01	0	28	104	3187671040	85	10874
2026-01-14 07:56:54.64	336.27	19.90	-60.5	-70.2	3.8	7.46e-01	0	28	104	3187671040	85	10875
2026-01-14 07:56:55.64	336.30	19.72	-60.5	-70.2	3.8	7.45e-01	0	28	104	3187671040	85	10854
2026-01-14 07:56:56.64	336.34	19.55	-60.5	-70.2	3.8	7.46e-01	0	28	104	3187671040	85	10893
2026-01-14 07:56:57.65	336.37	19.37	-60.5	-70.2	3.8	7.46e-01	0	28	104	3187671040	85	10833
2026-01-14 07:56:58.66	336.40	19.20	-60.5	-70.2	3.8	7.44e-01	0	28	104	3187671040	85	10854
2026-01-14 07:56:59.66	336.43	19.03	-60.5	-70.2	3.8	7.47e-01	0	28	104	3187671040	85	10829
2026-01-14 07:57:00.66	336.46	18.86	-60.5	-70.2	3.8	7.48e-01	0	28	104	3187671040	85	10809
2026-01-14 07:57:01.67	336.49	18.69	-60.4	-70.1	3.8	7.45e-01	0	28	104	3187671040	85	10772
2026-01-14 07:57:02.67	336.52	18.52	-60.4	-70.2	3.8	7.46e-01	0	28	104	3187671040	85	10820
2026-01-14 07:57:03.68	336.55	18.36	-60.4	-70.2	3.8	7.46e-01	0	28	104	3187671040	85	10797
2026-01-14 07:57:04.68	336.58	18.19	-60.4	-70.2	3.8	7.44e-01	0	28	104	3187671040	85	10807
2026-01-14 07:57:05.68	336.61	18.03	-60.4	-70.1	3.8	7.45e-01	0	27	104	3187671040	85	10754
2026-01-14 07:57:06.69	336.64	17.87	-60.4	-70.1	3.8	7.47e-01	0	28	104	3187671040	85	10777
2026-01-14 07:57:07.70	336.67	17.71	-60.4	-70.2	3.8	7.45e-01	0	28	104	3187671040	85	10799
2026-01-14 07:57:08.70	336.70	17.55	-60.4	-70.2	3.8	7.46e-01	0	28	104	3187671040	85	10821
2026-01-14 07:57:09.70	336.73	17.39	-60.4	-70.1	3.8	7.46e-01	0	28	104	3187671040	85	10723
2026-01-14 07:57:10.71	336.76	17.24	-60.4	-70.1	3.8	7.44e-01	0	28	104	3187671040	85	10717
2026-01-14 07:57:11.71	336.78	17.08	-60.4	-70.2	3.8	7.45e-01	0	28	104	3187671040	85	10790
2026-01-14 07:57:12.72	336.81	16.93	-60.4	-70.1	3.8	7.47e-01	0	28	104	3187671040	85	10746
2026-01-14 07:57:13.73	336.84	16.78	-60.4	-70.1	3.8	7.43e-01	0	28	104	3187671040	85	10736
2026-01-14 07:57:14.73	336.86	16.63	-60.4	-70.1	3.8	7.44e-01	0	28	104	3187671040	85	10719
2026-01-14 07:57:15.74	336.89	16.48	-60.4	-70.1	3.8	7.45e-01	0	28	104	3187671040	85	10736
2026-01-14 07:57:16.74	336.92	16.33	-60.4	-70.1	3.8	7.47e-01	0	28	104	3187671040	85	10728
2026-01-14 07:57:17.75	336.94	16.18	-60.3	-70.0	3.8	7.46e-01	0	28	104	3187671040	85	10648
2026-01-14 07:57:18.76	336.97	16.03	-60.3	-70.1	3.8	7.45e-01	0	28	104	3187671040	85	10680
2026-01-14 07:57:19.76	336.99	15.89	-60.3	-70.0	3.8	7.45e-01	0	28	104	3187671040	85	10639
2026-01-14 07:57:20.76	337.02	15.74	-60.3	-70.1	3.8	7.46e-01	0	28	104	3187671040	85	10668
2026-01-14 07:57:21.77	337.04	15.60	-60.3	-70.0	3.8	7.44e-01	0	28	104	3187671040	85	10620
2026-01-14 07:57:22.78	337.07	15.46	-60.3	-70.0	3.8	7.45e-01	0	28	104	3187671040	85	10639
2026-01-14 07:57:23.79	337.09	15.32	-60.3	-70.0	3.8	7.44e-01	0	28	104	3187671040	85	10635
2026-01-14 07:57:24.79	337.12	15.18	-60.3	-70.1	3.8	7.47e-01	0	28	104	3187671040	85	10674
2026-01-14 07:57:25.80	337.14	15.04	-60.3	-70.0	3.8	7.46e-01	0	28	104	3187671040	85	10636
2026-01-14 07:57:26.80	337.17	14.90	-60.3	-70.0	3.8	7.45e-01	0	28	104	3187671040	85	10642
2026-01-14 07:57:27.81	337.19	14.76	-60.3	-70.0	3.8	7.47e-01	0	28	104	3187671040	85	10569
2026-01-14 07:57:28.82	337.21	14.63	-60.3	-70.1	3.8	7.45e-01	0	28	104	3187671040	85	10659
2026-01-14 07:57:29.82	337.24	14.49	-60.3	-70.0	3.8	7.46e-01	0	28	104	3187671040	85	10570
2026-01-14 07:57:30.82	337.26	14.36	-60.3	-70.0	3.8	7.47e-01	0	28	104	3187671040	85	10619
2026-01-14 07:57:31.83	337.28	14.23	-60.2	-70.0	3.8	7.46e-01	0	28	104	3187671040	85	10566
2026-01-14 07:57:32.84	337.31	14.09	-60.3	-70.0	3.8	7.45e-01	0	28	104	3187671040	85	10615
2026-01-14 07:57:33.84	337.33	13.96	-60.2	-69.9	3.8	7.46e-01	0	28	104	3187671040	85	10506
2026-01-14 07:57:34.85	337.35	13.83	-60.2	-70.0	3.8	7.46e-01	0	28	104	3187671040	85	10538
2026-01-14 07:57:35.85	337.37	13.70	-60.2	-69.9	3.8	7.45e-01	0	28	104	3187671040	85	10493
2026-01-14 07:57:36.84	337.39	13.58	-60.2	-70.0	3.8	7.44e-01	0	28	104	3187671040	85	10574
2026-01-14 07:57:37.85	337.42	13.45	-60.2	-69.9	3.8	7.45e-01	0	28	104	3187671040	85	10465
2026-01-14 07:57:38.85	337.44	13.32	-60.2	-69.9	3.8	7.45e-01	0	28	104	3187671040	84	11100
2026-01-14 07:57:39.86	337.46	13.20	-60.1	-69.9	3.8	7.47e-01	0	28	104	3187671040	84	11088
2026-01-14 07:57:40.87	337.48	13.07	-60.2	-69.9	3.8	7.47e-01	0	28	104	3187671040	84	11072
2026-01-14 07:57:41.87	337.50	12.95	-60.1	-69.9	3.8	7.44e-01	0	28	104	3187671040	84	11055
2026-01-14 07:57:42.88	337.52	12.83	-60.1	-69.8	3.8	7.44e-01	0	28	104	3187671040	84	11026
2026-01-14 07:57:43.88	337.54	12.70	-60.1	-69.9	3.8	7.46e-01	0	28	104	3187671040	84	11058
2026-01-14 07:57:44.89	337.56	12.58	-60.1	-69.9	3.8	7.46e-01	0	27	104	3187671040	84	11065
2026-01-14 07:57:45.90	337.58	12.46	-60.1	-69.8	3.8	7.47e-01	0	28	104	3187671040	84	10996
2026-01-14 07:57:46.90	337.60	12.34	-60.1	-69.9	3.8	7.45e-01	0	28	104	3187671040	84	11037
2026-01-14 07:57:47.90	337.62	12.22	-60.1	-69.8	3.8	7.47e-01	0	28	104	3187671040	84	10969
2026-01-14 07:57:48.90	337.64	12.11	-60.1	-69.9	3.8	7.46e-01	0	28	104	3187671040	84	11068
2026-01-14 07:57:49.91	337.66	11.99	-60.0	-69.8	3.8	7.45e-01	0	28	104	3187671040	84	10926
2026-01-14 07:57:50.92	337.68	11.87	-60.1	-69.8	3.8	7.44e-01	0	28	104	3187671040	84	10987
2026-01-14 07:57:51.92	337.70	11.75	-60.1	-69.8	3.8	7.47e-01	0	28	104	3187671040	84	10960
2026-01-14 07:57:52.93	337.72	11.64	-60.1	-69.8	3.8	7.46e-01	0	28	104	3187671040	84	10998
2026-01-14 07:57:53.93	337.74	11.52	-60.0	-69.7	3.8	7.44e-01	0	28	104	3187671040	84	10890
2026-01-14 07:57:54.93	337.76	11.41	-60.0	-69.8	3.8	7.46e-01	0	28	104	3187671040	84	10911
2026-01-14 07:57:55.93	337.78	11.30	-60.0	-69.7	3.8	7.48e-01	0	28	104	3187671040	84	10880
2026-01-14 07:57:56.93	337.80	11.19	-60.0	-69.8	3.8	7.47e-01	0	28	104	3187671040	84	10964
2026-01-14 07:57:57.93	337.82	11.07	-60.0	-69.7	3.8	7.46e-01	0	28	104	3187671040	84	10861
2026-01-14 07:57:58.93	337.84	10.96	-60.0	-69.7	3.8	7.45e-01	0	28	104	3187671040	84	10899
2026-01-14 07:57:59.94	337.85	10.85	-60.0	-69.7	3.8	7.44e-01	0	28	104	3187671040	84	10842
2026-01-14 07:58:00.94	337.87	10.74	-60.0	-69.7	3.8	7.47e-01	0	28	104	3187671040	84	10890
2026-01-14 07:58:01.95	337.89	10.63	-59.9	-69.7	3.8	7.44e-01	0	28	104	3187671040	84	10796
2026-01-14 07:58:02.95	337.91	10.53	-60.0	-69.7	3.8	7.47e-01	0	28	104	3187671040	84	10836
2026-01-14 07:58:03.95	337.93	10.42	-59.9	-69.7	3.8	7.45e-01	0	28	104	3187671040	84	10781
2026-01-14 07:58:04.95	337.94	10.31	-60.0	-69.7	3.8	7.46e-01	0	28	104	3187671040	84	10862
2026-01-14 07:58:05.96	337.96	10.20	-59.9	-69.6	3.8	7.45e-01	0	28	104	3187671040	84	10742
2026-01-14 07:58:06.97	337.98	10.10	-59.9	-69.7	3.8	7.46e-01	0	28	104	3187671040	84	10788
2026-01-14 07:58:07.97	338.00	9.99	-59.9	-69.6	3.8	7.46e-01	0	28	104	3187671040	84	10771
2026-01-14 07:58:08.97	338.01	9.89	-60.0	-69.7	3.8	7.45e-01	0	28	104	3187671040	84	10849
2026-01-14 07:58:09.98	338.03	9.78	-59.9	-69.6	3.8	7.46e-01	0	28	104	3187671040	84	10713
2026-01-14 07:58:10.98	338.05	9.68	-59.9	-69.6	3.8	7.47e-01	0	28	104	3187671040	84	10752
2026-01-14 07:58:11.98	338.06	9.58	-59.8	-69.6	3.8	7.46e-01	0	28	104	3187671040	84	10708
2026-01-14 07:58:12.99	338.08	9.47	-59.9	-69.7	3.8	7.44e-01	0	28	104	3187671040	84	10822
2026-01-14 07:58:14.00	338.10	9.37	-59.8	-69.6	3.8	7.43e-01	0	28	104	3187671040	84	10728
2026-01-14 07:58:15.00	338.12	9.27	-59.9	-69.6	3.8	7.46e-01	0	28	104	3187671040	84	10756
2026-01-14 07:58:15.99	338.13	9.17	-59.8	-69.6	3.8	7.46e-01	0	28	104	3187671040	84	10659
2026-01-14 07:58:16.99	338.15	9.07	-59.9	-69.6	3.8	7.43e-01	0	28	104	3187671040	84	10766
2026-01-14 07:58:18.00	338.16	8.97	-59.8	-69.5	3.8	7.44e-01	0	28	104	3187671040	84	10653
2026-01-14 07:58:19.00	338.18	8.87	-59.8	-69.5	3.8	7.46e-01	0	28	104	3187671040	84	10622
2026-01-14 07:58:20.00	338.20	8.77	-59.8	-69.5	3.8	7.46e-01	0	28	104	3187671040	84	10627
2026-01-14 07:58:21.00	338.21	8.68	-59.9	-69.6	3.8	7.43e-01	0	28	104	3187671040	84	10670
2026-01-14 07:58:22.01	338.23	8.58	-59.8	-69.5	3.8	7.46e-01	0	28	104	3187671040	84	10624
2026-01-14 07:58:23.01	338.24	8.48	-59.8	-69.5	3.8	7.43e-01	0	28	104	3187671040	84	10583
2026-01-14 07:58:24.02	338.26	8.38	-59.7	-69.5	3.8	7.47e-01	0	28	104	3187671040	84	10551
2026-01-14 07:58:25.03	338.28	8.29	-59.8	-69.5	3.8	7.45e-01	0	28	104	3187671040	84	10627
2026-01-14 07:58:26.03	338.29	8.19	-59.7	-69.5	3.8	7.47e-01	0	28	104	3187671040	84	10557
2026-01-14 07:58:27.04	338.31	8.10	-59.7	-69.5	3.8	7.46e-01	0	28	104	3187671040	84	10596
2026-01-14 07:58:28.04	338.32	8.00	-59.5	-69.2	3.8	7.46e-01	0	28	104	3187671040	83	10882
2026-01-14 07:58:29.05	338.34	7.91	-59.6	-69.3	3.8	7.46e-01	0	28	104	3187671040	83	11028
2026-01-14 07:58:30.06	338.35	7.81	-59.5	-69.3	3.8	7.46e-01	0	28	104	3187671040	83	10932
2026-01-14 07:58:31.06	338.37	7.72	-59.5	-69.3	3.8	7.46e-01	0	28	104	3187671040	83	10939
2026-01-14 07:58:32.06	338.38	7.63	-59.5	-69.2	3.8	7.45e-01	0	28	104	3187671040	83	10834
2026-01-14 07:58:33.06	338.40	7.54	-59.6	-69.3	3.8	7.46e-01	0	28	104	3187671040	83	11015
2026-01-14 07:58:34.06	338.41	7.44	-59.5	-69.2	3.8	7.44e-01	0	28	104	3187671040	83	10873
2026-01-14 07:58:35.06	338.43	7.35	-59.5	-69.2	3.8	7.44e-01	0	28	104	3187671040	83	10903
2026-01-14 07:58:36.07	338.44	7.26	-59.4	-69.2	3.8	7.46e-01	0	28	104	3187671040	83	10779
2026-01-14 07:58:37.08	338.46	7.17	-59.6	-69.3	3.8	7.46e-01	0	28	104	3187671040	83	10957
2026-01-14 07:58:38.08	338.47	7.08	-59.5	-69.2	3.8	7.45e-01	0	28	104	3187671040	83	10829
2026-01-14 07:58:39.08	338.48	6.99	-59.5	-69.2	3.8	7.45e-01	0	28	104	3187671040	83	10815
2026-01-14 07:58:40.08	338.50	6.90	-59.4	-69.1	3.8	7.46e-01	0	28	104	3187671040	83	10723
2026-01-14 07:58:41.09	338.51	6.81	-59.5	-69.3	3.8	7.44e-01	0	28	104	3187671040	83	10909
2026-01-14 07:58:42.09	338.53	6.72	-59.4	-69.1	3.8	7.46e-01	0	28	104	3187671040	83	10760
2026-01-14 07:58:43.09	338.54	6.64	-59.4	-69.1	3.8	7.46e-01	0	28	104	3187671040	83	10737
2026-01-14 07:58:44.10	338.56	6.55	-59.3	-69.1	3.8	7.45e-01	0	28	104	3187671040	83	10680
2026-01-14 07:58:45.10	338.57	6.46	-59.5	-69.2	3.8	7.45e-01	0	28	104	3187671040	83	10886
2026-01-14 07:58:46.11	338.58	6.37	-59.3	-69.1	3.8	7.46e-01	0	28	104	3187671040	83	10749
2026-01-14 07:58:47.11	338.60	6.29	-59.4	-69.1	3.8	7.45e-01	0	28	104	3187671040	83	10723
2026-01-14 07:58:48.12	338.61	6.20	-59.3	-69.0	3.8	7.45e-01	0	28	104	3187671040	83	10629
2026-01-14 07:58:49.12	338.63	6.12	-59.4	-69.2	3.8	7.46e-01	0	28	104	3187671040	83	10779
2026-01-14 07:58:50.12	338.64	6.03	-59.3	-69.0	3.8	7.46e-01	0	28	104	3187671040	83	10643
2026-01-14 07:58:51.13	338.65	5.95	-59.3	-69.1	3.8	7.46e-01	0	28	104	3187671040	83	10676
2026-01-14 07:58:52.14	338.67	5.86	-59.2	-69.0	3.8	7.46e-01	0	28	104	3187671040	83	10563
2026-01-14 07:58:53.14	338.68	5.78	-59.4	-69.1	3.8	7.47e-01	0	28	104	3187671040	83	10778
2026-01-14 07:58:54.14	338.69	5.69	-59.3	-69.0	3.8	7.46e-01	0	28	104	3187671040	83	10575
2026-01-14 07:58:55.15	338.71	5.61	-59.3	-69.0	3.8	7.46e-01	0	28	104	3187671040	83	10599
2026-01-14 07:58:56.15	338.72	5.53	-59.1	-68.9	3.8	7.48e-01	0	28	104	3187671040	82	11123
2026-01-14 07:58:57.16	338.73	5.44	-59.3	-69.0	3.8	7.45e-01	0	28	104	3187671040	82	11281
2026-01-14 07:58:58.16	338.75	5.36	-59.2	-68.9	3.8	7.47e-01	0	28	104	3187671040	82	11137
2026-01-14 07:58:59.17	338.76	5.28	-59.2	-69.0	3.8	7.46e-01	0	28	104	3187671040	82	11164
2026-01-14 07:59:00.17	338.77	5.20	-59.1	-68.8	3.8	7.46e-01	0	28	104	3187671040	82	10970
2026-01-14 07:59:01.17	338.78	5.12	-59.3	-69.0	3.8	7.45e-01	0	28	104	3187671040	82	11242
2026-01-14 07:59:02.18	338.80	5.03	-59.1	-68.9	3.8	7.43e-01	0	28	104	3187671040	82	11048
2026-01-14 07:59:03.18	338.81	4.95	-59.5	-69.2	3.8	7.45e-01	0	28	104	3187671040	82	11476
2026-01-14 07:59:04.18	338.82	4.87	-59.9	-69.7	3.8	7.45e-01	0	28	104	3187671040	82	12095
2026-01-14 07:59:05.17	338.84	4.79	-60.2	-69.9	3.8	7.46e-01	0	28	104	3187671040	83	11812
2026-01-14 07:59:06.17	338.85	4.71	-60.4	-70.1	3.8	7.45e-01	0	28	104	3187671040	83	12080
2026-01-14 07:59:07.18	338.86	4.63	-60.8	-70.5	3.8	7.47e-01	0	28	104	3187671040	84	11902
2026-01-14 07:59:08.18	338.87	4.56	-60.9	-70.6	3.8	7.46e-01	0	28	104	3187671040	84	12067
2026-01-14 07:59:09.18	338.89	4.48	-61.0	-70.8	3.8	7.46e-01	0	28	104	3187671040	85	11593
2026-01-14 07:59:10.18	338.90	4.40	-61.1	-70.9	3.8	7.46e-01	0	28	104	3187671040	85	11788
2026-01-14 07:59:11.17	338.91	4.32	-61.2	-71.0	3.8	7.43e-01	0	28	104	3187671040	85	11865
2026-01-14 07:59:12.18	338.92	4.24	-61.3	-71.1	3.8	7.47e-01	0	28	104	3187671040	85	11958
2026-01-14 07:59:13.19	338.93	4.17	-61.3	-71.1	3.8	7.47e-01	0	28	104	3187671040	85	12034
2026-01-14 07:59:14.19	338.95	4.09	-61.4	-71.1	3.8	7.45e-01	0	28	104	3187671040	85	12034
2026-01-14 07:59:15.19	338.96	4.01	-61.4	-71.2	3.8	7.46e-01	0	28	104	3187671040	85	12108
2026-01-14 07:59:16.19	338.97	3.94	-61.5	-71.2	3.8	7.45e-01	0	28	104	3187671040	86	11505
2026-01-14 07:59:17.18	338.98	3.86	-61.5	-71.3	3.8	7.44e-01	0	28	104	3187671040	86	11557
2026-01-14 07:59:18.19	338.99	3.78	-61.5	-71.3	3.8	7.45e-01	0	28	104	3187671040	86	11622
2026-01-14 07:59:19.19	339.01	3.71	-61.5	-71.3	3.8	7.46e-01	0	28	104	3187671040	86	11581
2026-01-14 07:59:20.18	339.02	3.63	-61.6	-71.3	3.8	7.46e-01	0	28	104	3187671040	86	11679
2026-01-14 07:59:21.18	339.03	3.56	-61.6	-71.4	3.8	7.45e-01	0	28	104	3187671040	86	11699
2026-01-14 07:59:22.18	339.04	3.48	-61.6	-71.3	3.8	7.46e-01	0	28	104	3187671040	86	11628
2026-01-14 07:59:23.18	339.05	3.41	-61.6	-71.3	3.8	7.45e-01	0	28	104	3187671040	86	11664
2026-01-14 07:59:24.18	339.06	3.33	-61.6	-71.4	3.8	7.46e-01	0	28	104	3187671040	86	11703
2026-01-14 07:59:25.19	339.08	3.26	-61.6	-71.3	3.8	7.44e-01	0	28	104	3187671040	86	11643
2026-01-14 07:59:26.19	339.09	3.19	-61.6	-71.3	3.8	7.46e-01	0	28	104	3187671040	86	11574
2026-01-14 07:59:27.20	339.10	3.11	-61.5	-71.3	3.8	7.45e-01	0	28	104	3187671040	86	11599
2026-01-14 07:59:28.20	339.11	3.04	-61.5	-71.2	3.8	7.46e-01	0	28	104	3187671040	86	11541
2026-01-14 07:59:29.20	339.12	2.97	-61.5	-71.3	3.8	7.45e-01	0	28	104	3187671040	86	11553
2026-01-14 07:59:30.20	339.13	2.89	-61.5	-71.3	3.8	7.47e-01	0	28	104	3187671040	86	11552
2026-01-14 07:59:31.20	339.15	2.82	-61.5	-71.2	3.8	7.47e-01	0	28	104	3187671040	86	11488
2026-01-14 07:59:32.21	339.16	2.75	-61.5	-71.2	3.8	7.47e-01	0	28	104	3187671040	86	11517
2026-01-14 07:59:33.21	339.17	2.68	-61.5	-71.2	3.8	7.46e-01	0	28	104	3187671040	86	11482
2026-01-14 07:59:34.21	339.18	2.60	-61.5	-71.2	3.8	7.47e-01	0	28	104	3187671040	86	11493
2026-01-14 07:59:35.21	339.19	2.53	-61.4	-71.2	3.8	7.47e-01	0	28	104	3187671040	86	11485
2026-01-14 07:59:36.20	339.20	2.46	-61.4	-71.2	3.8	7.44e-01	0	28	104	3187671040	86	11428
2026-01-14 07:59:37.21	339.21	2.39	-61.4	-71.2	3.8	7.45e-01	0	28	104	3187671040	86	11492
2026-01-14 07:59:38.21	339.22	2.32	-61.4	-71.2	3.8	7.44e-01	0	28	104	3187671040	86	11422
2026-01-14 07:59:39.21	339.23	2.25	-61.4	-71.2	3.8	7.46e-01	0	28	104	3187671040	86	11434
2026-01-14 07:59:40.22	339.25	2.18	-61.4	-71.1	3.8	7.46e-01	0	28	104	3187671040	86	11404
2026-01-14 07:59:41.21	339.26	2.11	-61.4	-71.1	3.8	7.45e-01	0	28	104	3187671040	86	11413
2026-01-14 07:59:42.21	339.27	2.04	-61.4	-71.1	3.8	7.45e-01	0	28	104	3187671040	86	11375

#Closed at: 2026-01-14 07:59:43
#Recorded file [3187 MB]: D:/lorett/data/31004_260114_104911.dat