passes_logs/2026/01/14/R3.2S_Murmansk/R3.2S_Murmansk__20260114_051010_NOAA_20_JPSS-1_rec.log

#Pass ID: 20260114_051010_NOAA 20 (JPSS-1)
#Satellite: NOAA 20 (JPSS-1)
#Configuration: NOAA 20
#almurnet v.1.7.20251203
#Start time: 2026-01-14 05:10:11

#Version: 2.2.20231116
#Station: R3.2S_Murmansk
#Location: 33.079688 lon 68.888172 lat
#TLE: 1 43013U 17073A   26013.56788096  .00000060  00000+0  49292-4 0  9995
#TLE: 2 43013  98.7633 314.5224 0001558  41.3934 318.7360 14.19535692422532

#Time	Az	El	Level	Level2	SNR	BER	BlckErr	Temp	State	Recorded	gain1	gain2
2026-01-14 05:10:11.32	62.18	2.05	-54.6	-70.6	3.8	1.49e+00	0	27	0	0	74	23938
2026-01-14 05:10:12.32	62.12	2.11	-54.6	-70.6	3.8	1.49e+00	0	26	104	0	74	24035
2026-01-14 05:10:13.33	62.05	2.16	-54.6	-70.6	3.8	1.49e+00	0	27	104	0	74	23886
2026-01-14 05:10:14.34	61.99	2.22	-54.6	-70.6	3.8	1.49e+00	0	27	104	0	74	23949
2026-01-14 05:10:15.35	61.92	2.28	-54.6	-70.6	3.8	1.49e+00	0	27	104	0	74	23935
2026-01-14 05:10:16.36	61.85	2.34	-54.6	-70.6	3.8	1.49e+00	0	27	104	0	74	24002
2026-01-14 05:10:17.37	61.79	2.39	-54.6	-70.6	3.8	1.49e+00	0	27	104	0	74	24019
2026-01-14 05:10:18.37	61.72	2.45	-54.6	-70.6	3.8	1.49e+00	0	26	104	0	74	24047
2026-01-14 05:10:19.39	61.66	2.51	-54.6	-70.6	3.8	1.49e+00	0	27	104	0	74	24072
2026-01-14 05:10:20.39	61.59	2.57	-54.6	-70.6	3.8	1.49e+00	0	27	104	0	74	23993
2026-01-14 05:10:21.40	61.52	2.63	-54.6	-70.6	3.8	1.49e+00	0	27	104	0	74	24039
2026-01-14 05:10:22.41	61.45	2.68	-54.6	-70.6	3.8	1.49e+00	0	27	104	0	74	24011
2026-01-14 05:10:23.42	61.39	2.74	-54.6	-70.6	3.8	1.49e+00	0	27	104	0	74	24098
2026-01-14 05:10:24.43	61.32	2.80	-54.6	-70.6	3.8	1.49e+00	0	27	104	0	74	24041
2026-01-14 05:10:25.44	61.25	2.86	-54.6	-70.6	3.8	1.49e+00	0	27	104	0	74	24028
2026-01-14 05:10:26.44	61.18	2.92	-54.6	-70.6	3.8	1.49e+00	0	27	104	0	74	24061
2026-01-14 05:10:27.45	61.11	2.97	-54.6	-70.6	3.8	1.49e+00	0	27	104	0	74	24070
2026-01-14 05:10:28.46	61.04	3.03	-54.6	-70.6	3.8	1.49e+00	0	27	104	0	74	23984
2026-01-14 05:10:29.47	60.97	3.09	-54.6	-70.6	3.8	1.49e+00	0	27	104	0	74	24088
2026-01-14 05:10:30.47	60.91	3.15	-54.6	-70.6	3.8	1.49e+00	0	27	104	0	74	24057
2026-01-14 05:10:31.48	60.84	3.21	-54.6	-70.6	3.8	1.49e+00	0	27	104	0	74	24025
2026-01-14 05:10:32.49	60.77	3.27	-54.6	-70.6	3.8	1.49e+00	0	27	104	0	74	24044
2026-01-14 05:10:33.50	60.69	3.33	-54.6	-70.6	3.8	1.49e+00	0	27	104	0	74	24040
2026-01-14 05:10:34.51	60.62	3.39	-54.6	-70.6	3.8	1.49e+00	0	27	104	0	74	24025
2026-01-14 05:10:35.52	60.55	3.44	-54.6	-70.6	3.8	1.49e+00	0	27	104	0	74	23994
2026-01-14 05:10:36.52	60.48	3.50	-54.6	-70.6	3.8	1.49e+00	0	27	104	0	74	24061
2026-01-14 05:10:37.53	60.41	3.56	-54.6	-70.6	3.8	1.49e+00	0	27	104	0	74	24052
2026-01-14 05:10:38.54	60.34	3.62	-54.6	-70.6	3.8	1.49e+00	0	27	104	0	74	23995
2026-01-14 05:10:39.55	60.26	3.68	-54.6	-70.6	3.8	1.49e+00	0	27	104	0	74	24060
2026-01-14 05:10:40.56	60.19	3.74	-54.6	-70.6	3.8	1.49e+00	0	27	104	0	74	24071
2026-01-14 05:10:41.56	60.12	3.80	-54.6	-70.6	3.8	1.49e+00	0	27	104	0	74	24094
2026-01-14 05:10:42.57	60.05	3.86	-54.6	-70.6	3.8	1.49e+00	0	27	104	0	74	24051
2026-01-14 05:10:43.58	59.97	3.92	-54.6	-70.6	3.8	1.49e+00	0	27	104	0	74	24114
2026-01-14 05:10:44.59	59.90	3.98	-54.6	-70.6	3.8	1.49e+00	0	27	104	0	74	24078
2026-01-14 05:10:45.60	59.82	4.04	-54.6	-70.6	3.8	1.49e+00	0	27	104	0	74	24069
2026-01-14 05:10:46.61	59.75	4.10	-54.6	-70.6	3.8	1.49e+00	0	27	104	0	74	24000
2026-01-14 05:10:47.62	59.67	4.16	-54.7	-70.6	3.8	1.49e+00	0	27	104	0	74	24122
2026-01-14 05:10:48.63	59.60	4.22	-54.6	-70.6	3.8	1.49e+00	0	27	104	0	74	24022
2026-01-14 05:10:49.64	59.52	4.28	-54.6	-70.6	3.8	1.49e+00	0	27	104	0	74	24023
2026-01-14 05:10:50.65	59.45	4.34	-54.6	-70.6	3.8	1.49e+00	0	27	104	0	74	24062
2026-01-14 05:10:51.66	59.37	4.40	-54.6	-70.6	3.8	1.49e+00	0	27	104	0	74	24103
2026-01-14 05:10:52.67	59.29	4.46	-54.6	-70.6	3.8	1.49e+00	0	27	104	0	74	24065
2026-01-14 05:10:53.68	59.22	4.52	-54.6	-70.6	3.8	1.49e+00	0	27	104	0	74	24062
2026-01-14 05:10:54.68	59.14	4.58	-54.6	-70.6	3.8	1.49e+00	0	27	104	0	74	24118
2026-01-14 05:10:55.70	59.06	4.64	-54.6	-70.6	3.8	1.49e+00	0	27	104	0	74	23998
2026-01-14 05:10:56.70	58.99	4.70	-54.6	-70.6	3.8	1.49e+00	0	27	104	0	74	24083
2026-01-14 05:10:57.71	58.91	4.77	-54.6	-70.6	3.8	1.49e+00	0	27	104	0	74	24025
2026-01-14 05:10:58.72	58.83	4.83	-54.6	-70.6	3.8	1.49e+00	0	27	104	0	74	24083
2026-01-14 05:10:59.73	58.75	4.89	-54.7	-70.6	3.8	1.49e+00	0	27	104	0	74	24079
2026-01-14 05:11:00.74	58.67	4.95	-54.6	-70.6	3.8	1.49e+00	0	27	104	0	74	24068
2026-01-14 05:11:01.75	58.59	5.01	-54.6	-70.6	3.8	1.49e+00	0	27	104	0	74	24084
2026-01-14 05:11:02.76	58.51	5.07	-54.6	-70.6	3.8	1.49e+00	0	27	104	0	74	24037
2026-01-14 05:11:03.77	58.43	5.13	-54.6	-70.6	3.8	1.49e+00	0	27	104	0	74	24072
2026-01-14 05:11:04.77	58.35	5.19	-54.6	-70.6	3.8	1.49e+00	0	27	104	0	74	24045
2026-01-14 05:11:05.78	58.27	5.26	-54.6	-70.6	3.8	1.49e+00	0	27	104	0	74	24053
2026-01-14 05:11:06.79	58.19	5.32	-54.6	-70.6	3.8	1.49e+00	0	27	104	0	74	24005
2026-01-14 05:11:07.80	58.11	5.38	-54.6	-70.6	3.8	1.49e+00	0	27	104	0	74	24049
2026-01-14 05:11:08.80	58.02	5.44	-54.6	-70.6	3.8	1.49e+00	0	27	104	0	74	24018
2026-01-14 05:11:09.81	57.94	5.50	-54.6	-70.6	3.8	1.49e+00	0	27	104	0	74	24083
2026-01-14 05:11:10.81	57.86	5.56	-54.6	-70.6	3.8	1.49e+00	0	27	104	0	74	24049
2026-01-14 05:11:11.82	57.78	5.63	-54.6	-70.6	3.8	1.49e+00	0	27	104	0	74	24125
2026-01-14 05:11:12.83	57.69	5.69	-54.6	-70.7	3.8	1.49e+00	0	27	104	0	74	24144
2026-01-14 05:11:13.85	57.61	5.75	-54.6	-70.6	3.8	1.49e+00	0	27	104	0	74	24068
2026-01-14 05:11:14.86	57.52	5.81	-54.7	-70.6	3.8	1.49e+00	0	27	104	0	74	24102
2026-01-14 05:11:15.87	57.44	5.88	-54.6	-70.6	3.8	1.49e+00	0	27	104	0	74	24044
2026-01-14 05:11:16.88	57.35	5.94	-54.6	-70.6	3.8	1.49e+00	0	27	104	0	74	24099
2026-01-14 05:11:17.89	57.27	6.00	-54.7	-70.6	3.8	1.49e+00	0	27	104	0	74	24102
2026-01-14 05:11:18.90	57.18	6.07	-54.6	-70.6	3.8	1.49e+00	0	27	104	0	74	24064
2026-01-14 05:11:19.91	57.10	6.13	-54.7	-70.6	3.8	1.49e+00	0	27	104	0	74	24115
2026-01-14 05:11:20.92	57.01	6.19	-54.7	-70.6	3.8	1.49e+00	0	27	104	0	74	24090
2026-01-14 05:11:21.93	56.92	6.25	-54.6	-70.6	3.8	1.49e+00	0	27	104	0	74	24104
2026-01-14 05:11:22.94	56.83	6.32	-54.7	-70.6	3.8	1.49e+00	0	27	104	0	74	24086
2026-01-14 05:11:23.94	56.75	6.38	-54.6	-70.6	3.8	1.49e+00	0	27	104	0	74	24125
2026-01-14 05:11:24.95	56.66	6.44	-54.6	-70.6	3.8	1.49e+00	0	27	104	0	74	24083
2026-01-14 05:11:25.96	56.57	6.51	-54.7	-70.6	3.8	1.49e+00	0	27	104	0	74	24130
2026-01-14 05:11:26.97	56.48	6.57	-54.6	-70.7	3.8	1.49e+00	0	27	104	0	74	24171
2026-01-14 05:11:27.98	56.39	6.64	-54.6	-70.6	3.8	1.49e+00	0	27	104	0	74	24130
2026-01-14 05:11:28.99	56.30	6.70	-54.7	-70.6	3.8	1.49e+00	0	27	104	0	74	24097
2026-01-14 05:11:30.00	56.21	6.76	-54.7	-70.7	3.8	1.49e+00	0	27	104	0	74	24158
2026-01-14 05:11:31.01	56.12	6.83	-54.7	-70.6	3.8	1.49e+00	0	27	104	0	74	24079
2026-01-14 05:11:32.02	56.03	6.89	-54.7	-70.6	3.8	1.49e+00	0	27	104	0	74	24075
2026-01-14 05:11:33.03	55.94	6.95	-54.6	-70.6	3.8	1.49e+00	0	27	104	0	74	24100
2026-01-14 05:11:34.04	55.85	7.02	-54.7	-70.6	3.8	1.49e+00	0	27	104	0	74	24051
2026-01-14 05:11:35.05	55.75	7.08	-54.7	-70.6	3.8	1.49e+00	0	27	104	0	74	24091
2026-01-14 05:11:36.05	55.66	7.15	-54.7	-70.7	3.8	1.49e+00	0	27	104	0	74	24179
2026-01-14 05:11:37.06	55.57	7.21	-54.6	-70.6	3.8	1.49e+00	0	27	104	0	74	24109
2026-01-14 05:11:38.07	55.48	7.28	-54.6	-70.6	3.8	1.49e+00	0	27	104	0	74	24085
2026-01-14 05:11:39.08	55.38	7.34	-54.7	-70.6	3.8	1.49e+00	0	27	104	0	74	24119
2026-01-14 05:11:40.09	55.29	7.41	-54.7	-70.7	3.8	1.49e+00	0	27	104	0	74	24180
2026-01-14 05:11:41.09	55.19	7.47	-54.7	-70.7	3.8	1.49e+00	0	27	104	0	74	24179
2026-01-14 05:11:42.10	55.10	7.53	-54.7	-70.7	3.8	1.49e+00	0	27	104	0	74	24217
2026-01-14 05:11:43.11	55.00	7.60	-54.7	-70.6	3.8	1.49e+00	0	27	104	0	74	24096
2026-01-14 05:11:44.12	54.91	7.66	-54.7	-70.7	3.8	1.49e+00	0	27	104	0	74	24144
2026-01-14 05:11:45.13	54.81	7.73	-54.7	-70.7	3.8	1.49e+00	0	28	104	0	74	24197
2026-01-14 05:11:46.13	54.71	7.79	-54.6	-70.6	3.8	1.49e+00	0	27	104	0	74	24103
2026-01-14 05:11:47.14	54.62	7.86	-54.6	-70.6	3.8	1.49e+00	0	27	104	0	74	24120
2026-01-14 05:11:48.15	54.52	7.93	-54.7	-70.7	3.8	1.49e+00	0	27	104	0	74	24164
2026-01-14 05:11:49.16	54.42	7.99	-54.7	-70.6	3.8	1.49e+00	0	27	104	0	74	24073
2026-01-14 05:11:50.16	54.32	8.06	-54.7	-70.6	3.8	1.49e+00	0	27	104	0	74	24124
2026-01-14 05:11:51.17	54.22	8.12	-54.7	-70.7	3.8	1.49e+00	0	27	104	0	74	24135
2026-01-14 05:11:52.18	54.12	8.19	-54.7	-70.6	3.8	1.49e+00	0	27	104	0	74	24111
2026-01-14 05:11:53.18	54.02	8.25	-54.7	-70.7	3.8	1.49e+00	0	27	104	0	74	24144
2026-01-14 05:11:54.19	53.92	8.32	-54.7	-70.6	3.8	1.49e+00	0	27	104	0	74	24125
2026-01-14 05:11:55.20	53.82	8.38	-54.6	-70.6	3.8	1.49e+00	0	27	104	0	74	24054
2026-01-14 05:11:56.21	53.72	8.45	-54.7	-70.7	3.8	1.49e+00	0	27	104	0	74	24139
2026-01-14 05:11:57.22	53.62	8.52	-54.7	-70.6	3.9	1.49e+00	0	27	104	0	74	24128
2026-01-14 05:11:58.23	53.51	8.58	-54.6	-70.7	3.8	1.49e+00	0	27	104	0	74	24139
2026-01-14 05:11:59.24	53.41	8.65	-54.7	-70.7	3.8	1.49e+00	0	27	104	0	74	24179
2026-01-14 05:12:00.25	53.31	8.72	-54.7	-70.6	3.8	1.49e+00	0	28	104	0	74	24116
2026-01-14 05:12:01.26	53.20	8.78	-54.7	-70.7	3.8	1.49e+00	0	27	104	0	74	24141
2026-01-14 05:12:02.26	53.10	8.85	-54.7	-70.7	3.8	1.49e+00	0	27	104	0	74	24144
2026-01-14 05:12:03.27	52.99	8.92	-54.7	-70.7	3.8	1.49e+00	0	27	104	0	74	24189
2026-01-14 05:12:04.28	52.89	8.98	-54.7	-70.7	3.8	1.49e+00	0	27	104	0	74	24167
2026-01-14 05:12:05.29	52.78	9.05	-54.7	-70.7	3.8	1.49e+00	0	27	104	0	74	24176
2026-01-14 05:12:06.30	52.68	9.12	-54.7	-70.6	3.8	1.49e+00	0	27	104	0	74	24119
2026-01-14 05:12:07.31	52.57	9.18	-54.7	-70.7	3.8	1.49e+00	0	27	104	0	74	24169
2026-01-14 05:12:08.32	52.46	9.25	-54.7	-70.6	3.8	1.49e+00	0	27	104	0	74	24104
2026-01-14 05:12:09.33	52.35	9.32	-54.7	-70.7	3.8	1.49e+00	0	27	104	0	74	24185
2026-01-14 05:12:10.33	52.24	9.38	-54.7	-70.7	3.8	1.49e+00	0	27	104	0	74	24157
2026-01-14 05:12:11.34	52.14	9.45	-54.7	-70.7	3.8	1.49e+00	0	27	104	0	74	24190
2026-01-14 05:12:12.35	52.03	9.52	-54.7	-70.6	3.8	1.49e+00	0	27	104	0	74	24129
2026-01-14 05:12:13.36	51.92	9.59	-54.7	-70.7	3.8	1.49e+00	0	27	104	0	74	24147
2026-01-14 05:12:14.37	51.80	9.65	-54.7	-70.7	3.8	1.49e+00	0	27	104	0	74	24258
2026-01-14 05:12:15.38	51.69	9.72	-54.7	-70.6	3.8	1.49e+00	0	27	104	0	74	24130
2026-01-14 05:12:16.39	51.58	9.79	-54.7	-70.7	3.8	1.49e+00	0	27	104	0	74	24140
2026-01-14 05:12:17.40	51.47	9.86	-54.7	-70.7	3.8	1.49e+00	0	27	104	0	74	24138
2026-01-14 05:12:18.40	51.36	9.93	-54.7	-70.7	3.8	1.49e+00	0	27	104	0	74	24188
2026-01-14 05:12:19.41	51.24	9.99	-54.7	-70.7	3.8	1.49e+00	0	27	104	0	74	24172
2026-01-14 05:12:20.43	51.13	10.06	-54.7	-70.7	3.8	1.49e+00	0	27	104	0	74	24196
2026-01-14 05:12:21.44	51.01	10.13	-54.7	-70.7	3.8	1.49e+00	0	27	104	0	74	24168
2026-01-14 05:12:22.44	50.90	10.20	-54.7	-70.7	3.8	1.49e+00	0	28	104	0	74	24213
2026-01-14 05:12:23.45	50.78	10.27	-54.7	-70.7	3.8	1.49e+00	0	27	104	0	74	24142
2026-01-14 05:12:24.46	50.67	10.33	-54.7	-70.7	3.8	1.49e+00	0	27	104	0	74	24155
2026-01-14 05:12:25.47	50.55	10.40	-54.7	-70.6	3.8	1.49e+00	0	27	104	0	74	24127
2026-01-14 05:12:26.48	50.43	10.47	-54.6	-70.6	3.8	1.49e+00	0	27	104	0	74	24113
2026-01-14 05:12:27.49	50.32	10.54	-54.7	-70.7	3.8	1.49e+00	0	27	104	0	74	24176
2026-01-14 05:12:28.50	50.20	10.61	-54.6	-70.6	3.8	1.49e+00	0	27	104	0	74	24089
2026-01-14 05:12:29.51	50.08	10.68	-54.7	-70.7	3.8	1.49e+00	0	28	104	0	74	24205
2026-01-14 05:12:30.52	49.96	10.75	-54.7	-70.7	3.8	1.49e+00	0	27	104	0	74	24160
2026-01-14 05:12:31.53	49.84	10.82	-54.7	-70.7	3.8	1.49e+00	0	27	104	0	74	24159
2026-01-14 05:12:32.53	49.72	10.88	-54.7	-70.7	3.8	1.49e+00	0	27	104	0	74	24203
2026-01-14 05:12:33.54	49.60	10.95	-54.7	-70.7	3.8	1.49e+00	0	27	104	0	74	24208
2026-01-14 05:12:34.55	49.48	11.02	-54.7	-70.7	3.8	1.49e+00	0	27	104	0	74	24133
2026-01-14 05:12:35.56	49.35	11.09	-54.7	-70.7	3.8	1.49e+00	0	28	104	0	74	24194
2026-01-14 05:12:36.57	49.23	11.16	-54.7	-70.7	3.8	1.49e+00	0	28	104	0	74	24182
2026-01-14 05:12:37.57	49.11	11.23	-54.7	-70.7	3.8	1.49e+00	0	27	104	0	74	24221
2026-01-14 05:12:38.58	48.98	11.30	-54.7	-70.7	3.8	1.49e+00	0	27	104	0	74	24193
2026-01-14 05:12:39.59	48.86	11.37	-54.7	-70.7	3.8	1.49e+00	0	27	104	0	74	24162
2026-01-14 05:12:40.60	48.73	11.44	-54.7	-70.7	3.8	1.49e+00	0	27	104	0	74	24238
2026-01-14 05:12:41.61	48.61	11.51	-54.7	-70.7	3.8	1.49e+00	0	28	104	0	74	24147
2026-01-14 05:12:42.62	48.48	11.58	-54.7	-70.7	3.8	1.49e+00	0	28	104	0	74	24180
2026-01-14 05:12:43.63	48.35	11.65	-54.7	-70.7	3.8	1.49e+00	0	28	104	0	74	24172
2026-01-14 05:12:44.64	48.22	11.72	-54.7	-70.7	3.8	1.49e+00	0	28	104	0	74	24229
2026-01-14 05:12:45.65	48.10	11.79	-54.7	-70.7	3.8	1.49e+00	0	27	104	0	74	24177
2026-01-14 05:12:46.66	47.97	11.86	-54.7	-70.7	3.8	1.49e+00	0	28	104	0	74	24192
2026-01-14 05:12:47.66	47.84	11.92	-54.7	-70.6	3.8	1.49e+00	0	28	104	0	74	24102
2026-01-14 05:12:48.67	47.71	11.99	-54.7	-70.7	3.8	1.49e+00	0	28	104	0	74	24235
2026-01-14 05:12:49.68	47.58	12.06	-54.7	-70.7	3.8	1.49e+00	0	28	104	0	74	24224
2026-01-14 05:12:50.69	47.45	12.13	-54.7	-70.7	3.8	1.49e+00	0	27	104	0	74	24210
2026-01-14 05:12:51.70	47.31	12.20	-54.7	-70.7	3.8	1.49e+00	0	28	104	0	74	24151
2026-01-14 05:12:52.70	47.18	12.27	-54.7	-70.6	3.8	1.49e+00	0	27	104	0	74	24097
2026-01-14 05:12:53.71	47.05	12.34	-54.7	-70.7	3.8	1.49e+00	0	28	104	0	74	24147
2026-01-14 05:12:54.71	46.91	12.41	-54.7	-70.7	3.8	1.49e+00	0	28	104	0	74	24188
2026-01-14 05:12:55.72	46.78	12.48	-54.7	-70.7	3.8	1.49e+00	0	27	104	0	74	24241
2026-01-14 05:12:56.73	46.64	12.55	-54.7	-70.7	3.8	1.49e+00	0	28	104	0	74	24180
2026-01-14 05:12:57.74	46.51	12.62	-54.7	-70.7	3.8	1.49e+00	0	28	104	0	74	24203
2026-01-14 05:12:58.75	46.37	12.69	-54.7	-70.7	3.8	1.49e+00	0	28	104	0	74	24196
2026-01-14 05:12:59.77	46.23	12.77	-54.7	-70.6	3.8	1.49e+00	0	28	104	0	74	24129
2026-01-14 05:13:00.77	46.09	12.84	-54.7	-70.7	3.8	1.49e+00	0	28	104	0	74	24226
2026-01-14 05:13:01.78	45.96	12.91	-54.7	-70.7	3.8	1.49e+00	0	28	104	0	74	24219
2026-01-14 05:13:02.79	45.82	12.98	-54.7	-70.7	3.8	1.49e+00	0	28	104	0	74	24176
2026-01-14 05:13:03.80	45.68	13.05	-54.7	-70.7	3.8	1.49e+00	0	28	104	0	74	24140
2026-01-14 05:13:04.81	45.53	13.12	-54.7	-70.7	3.8	1.49e+00	0	28	104	0	74	24183
2026-01-14 05:13:05.82	45.39	13.19	-54.7	-70.7	3.8	1.49e+00	0	28	104	0	74	24159
2026-01-14 05:13:06.83	45.25	13.26	-54.7	-70.7	3.8	1.49e+00	0	28	104	0	74	24186
2026-01-14 05:13:07.83	45.11	13.33	-54.7	-70.6	3.8	1.49e+00	0	28	104	0	74	24122
2026-01-14 05:13:08.84	44.96	13.40	-54.7	-70.6	3.8	1.49e+00	0	27	104	0	74	24128
2026-01-14 05:13:09.85	44.82	13.47	-54.7	-70.7	3.8	1.49e+00	0	28	104	0	74	24174
2026-01-14 05:13:10.86	44.67	13.54	-54.7	-70.7	3.8	1.49e+00	0	27	104	0	74	24186
2026-01-14 05:13:11.87	44.53	13.61	-54.6	-70.6	3.8	1.49e+00	0	27	104	0	74	24112
2026-01-14 05:13:12.88	44.38	13.68	-54.7	-70.7	3.8	1.49e+00	0	27	104	0	74	24191
2026-01-14 05:13:13.89	44.23	13.75	-54.7	-70.7	3.8	1.49e+00	0	28	104	0	74	24254
2026-01-14 05:13:14.90	44.09	13.82	-54.7	-70.7	3.8	1.49e+00	0	28	104	0	74	24212
2026-01-14 05:13:15.91	43.94	13.89	-54.7	-70.7	3.8	1.49e+00	0	28	104	0	74	24193
2026-01-14 05:13:16.92	43.79	13.97	-54.7	-70.7	3.8	1.49e+00	0	27	104	0	74	24184
2026-01-14 05:13:17.93	43.64	14.04	-54.7	-70.7	3.8	1.49e+00	0	28	104	0	74	24132
2026-01-14 05:13:18.93	43.49	14.11	-54.7	-70.6	3.8	1.49e+00	0	27	104	0	74	24118
2026-01-14 05:13:19.94	43.34	14.18	-54.7	-70.7	3.8	1.49e+00	0	28	104	0	74	24146
2026-01-14 05:13:20.95	43.18	14.25	-54.7	-70.7	3.8	1.49e+00	0	28	104	0	74	24152
2026-01-14 05:13:21.96	43.03	14.32	-54.7	-70.7	3.8	1.49e+00	0	28	104	0	74	24158
2026-01-14 05:13:22.96	42.88	14.39	-54.7	-70.7	3.8	1.49e+00	0	28	104	0	74	24176
2026-01-14 05:13:23.97	42.72	14.46	-54.7	-70.7	3.8	1.49e+00	0	28	104	0	74	24157
2026-01-14 05:13:24.98	42.57	14.53	-54.7	-70.7	3.8	1.49e+00	0	28	104	0	74	24216
2026-01-14 05:13:25.99	42.41	14.60	-54.7	-70.7	3.8	1.49e+00	0	28	104	0	74	24235
2026-01-14 05:13:27.00	42.26	14.67	-54.7	-70.7	3.8	1.49e+00	0	28	104	0	74	24198
2026-01-14 05:13:28.01	42.10	14.74	-54.7	-70.7	3.8	1.49e+00	0	28	104	0	74	24224
2026-01-14 05:13:29.02	41.94	14.81	-54.7	-70.7	3.8	1.49e+00	0	27	104	0	74	24212
2026-01-14 05:13:30.03	41.78	14.89	-54.7	-70.7	3.8	1.49e+00	0	27	104	0	74	24162
2026-01-14 05:13:31.04	41.62	14.96	-54.7	-70.7	3.8	1.49e+00	0	28	104	0	74	24188
2026-01-14 05:13:32.05	41.46	15.03	-54.7	-70.7	3.8	1.49e+00	0	28	104	0	74	24184
2026-01-14 05:13:33.06	41.30	15.10	-54.7	-70.6	3.8	1.49e+00	0	28	104	0	74	24125
2026-01-14 05:13:34.07	41.13	15.17	-54.7	-70.7	3.8	1.49e+00	0	28	104	0	74	24238
2026-01-14 05:13:35.08	40.97	15.24	-54.7	-70.7	3.8	1.49e+00	0	28	104	0	74	24198
2026-01-14 05:13:36.08	40.81	15.31	-54.7	-70.7	3.8	1.49e+00	0	27	104	0	74	24197
2026-01-14 05:13:37.09	40.64	15.38	-54.7	-70.7	3.8	1.49e+00	0	27	104	0	74	24172
2026-01-14 05:13:38.10	40.48	15.45	-54.7	-70.7	3.8	1.49e+00	0	28	104	0	74	24137
2026-01-14 05:13:39.11	40.31	15.52	-54.7	-70.7	3.8	1.49e+00	0	27	104	0	74	24198
2026-01-14 05:13:40.12	40.15	15.59	-54.7	-70.7	3.8	1.49e+00	0	28	104	0	74	24180
2026-01-14 05:13:41.13	39.98	15.66	-54.7	-70.6	3.8	1.49e+00	0	27	104	0	74	24107
2026-01-14 05:13:42.14	39.81	15.73	-54.7	-70.7	3.8	1.49e+00	0	28	104	0	74	24173
2026-01-14 05:13:43.15	39.64	15.80	-54.7	-70.7	3.8	1.49e+00	0	27	104	0	74	24193
2026-01-14 05:13:44.16	39.47	15.87	-54.7	-70.7	3.8	1.49e+00	0	28	104	0	74	24137
2026-01-14 05:13:45.17	39.30	15.94	-54.7	-70.7	3.8	1.49e+00	0	28	104	0	74	24141
2026-01-14 05:13:46.18	39.13	16.01	-54.7	-70.7	3.8	1.49e+00	0	27	104	0	74	24154
2026-01-14 05:13:47.19	38.95	16.08	-54.7	-70.7	3.8	1.49e+00	0	28	104	0	74	24155
2026-01-14 05:13:48.19	38.78	16.15	-54.7	-70.6	3.8	1.49e+00	0	28	104	0	74	24116
2026-01-14 05:13:49.20	38.61	16.22	-54.7	-70.7	3.8	1.49e+00	0	28	104	0	74	24188
2026-01-14 05:13:50.21	38.43	16.29	-54.7	-70.7	3.8	1.49e+00	0	28	104	0	74	24134
2026-01-14 05:13:51.22	38.26	16.36	-54.7	-70.7	3.8	1.49e+00	0	28	104	0	74	24159
2026-01-14 05:13:52.23	38.08	16.43	-54.7	-70.7	3.9	1.49e+00	0	28	104	0	74	24176
2026-01-14 05:13:53.23	37.90	16.50	-54.7	-70.7	3.8	1.49e+00	0	28	104	0	74	24151
2026-01-14 05:13:54.24	37.72	16.57	-54.7	-70.7	3.8	1.49e+00	0	28	104	0	74	24220
2026-01-14 05:13:55.25	37.54	16.64	-54.7	-70.7	3.8	1.49e+00	0	28	104	0	74	24210
2026-01-14 05:13:56.26	37.36	16.71	-54.7	-70.7	3.8	1.49e+00	0	28	104	0	74	24166
2026-01-14 05:13:57.27	37.18	16.78	-54.7	-70.7	3.8	1.49e+00	0	28	104	0	74	24211
2026-01-14 05:13:58.28	37.00	16.85	-54.7	-70.6	3.8	1.49e+00	0	28	104	0	74	24115
2026-01-14 05:13:59.29	36.82	16.92	-54.7	-70.7	3.8	1.49e+00	0	27	104	0	74	24193
2026-01-14 05:14:00.30	36.63	16.98	-54.7	-70.7	3.8	1.49e+00	0	27	104	0	74	24168
2026-01-14 05:14:01.31	36.45	17.05	-54.7	-70.7	3.8	1.49e+00	0	27	104	0	74	24165
2026-01-14 05:14:02.32	36.26	17.12	-54.7	-70.7	3.8	1.49e+00	0	27	104	0	74	24221
2026-01-14 05:14:03.33	36.08	17.19	-54.7	-70.7	3.8	1.49e+00	0	27	104	0	74	24251
2026-01-14 05:14:04.34	35.89	17.26	-54.7	-70.7	3.8	1.49e+00	0	28	104	0	74	24226
2026-01-14 05:14:05.35	35.70	17.33	-54.7	-70.7	3.8	1.49e+00	0	28	104	0	74	24215
2026-01-14 05:14:06.36	35.51	17.40	-54.7	-70.7	3.8	1.49e+00	0	28	104	0	74	24197
2026-01-14 05:14:07.36	35.33	17.46	-54.7	-70.7	3.8	1.49e+00	0	28	104	0	74	24177
2026-01-14 05:14:08.37	35.14	17.53	-54.7	-70.7	3.8	1.49e+00	0	28	104	0	74	24189
2026-01-14 05:14:09.38	34.95	17.60	-54.7	-70.7	3.8	1.49e+00	0	27	104	0	74	24182
2026-01-14 05:14:10.39	34.75	17.67	-54.7	-70.6	3.8	1.49e+00	0	28	104	0	74	24127
2026-01-14 05:14:11.40	34.56	17.73	-54.7	-70.7	3.8	1.49e+00	0	28	104	0	74	24203
2026-01-14 05:14:12.40	34.37	17.80	-54.7	-70.6	3.8	1.49e+00	0	28	104	0	74	24096
2026-01-14 05:14:13.41	34.17	17.87	-54.7	-70.7	3.8	1.49e+00	0	28	104	0	74	24196
2026-01-14 05:14:14.42	33.98	17.93	-54.7	-70.7	3.8	1.49e+00	0	27	104	0	74	24162
2026-01-14 05:14:15.43	33.78	18.00	-54.7	-70.7	3.8	1.49e+00	0	28	104	0	74	24151
2026-01-14 05:14:16.44	33.58	18.07	-54.7	-70.6	3.8	1.49e+00	0	27	104	0	74	24107
2026-01-14 05:14:17.45	33.38	18.13	-54.7	-70.6	3.8	1.49e+00	0	28	104	0	74	24105
2026-01-14 05:14:18.46	33.19	18.20	-54.7	-70.7	3.8	1.49e+00	0	28	104	0	74	24163
2026-01-14 05:14:19.47	32.99	18.27	-54.7	-70.6	3.8	1.49e+00	0	28	104	0	74	24127
2026-01-14 05:14:20.48	32.78	18.33	-54.7	-70.7	3.8	1.49e+00	0	28	104	0	74	24212
2026-01-14 05:14:21.49	32.58	18.40	-54.7	-70.7	3.8	1.49e+00	0	28	104	0	74	24211
2026-01-14 05:14:22.50	32.38	18.46	-54.7	-70.7	3.8	1.49e+00	0	28	104	0	74	24167
2026-01-14 05:14:23.51	32.18	18.53	-54.7	-70.7	3.8	1.49e+00	0	28	104	0	74	24145
2026-01-14 05:14:24.52	31.97	18.60	-54.7	-70.7	3.8	1.49e+00	0	28	104	0	74	24171
2026-01-14 05:14:25.52	31.77	18.66	-54.7	-70.7	3.8	1.49e+00	0	27	104	0	74	24177
2026-01-14 05:14:26.53	31.56	18.72	-54.7	-70.7	3.8	1.49e+00	0	28	104	0	74	24205
2026-01-14 05:14:27.54	31.35	18.79	-54.7	-70.7	3.8	1.49e+00	0	28	104	0	74	24171
2026-01-14 05:14:28.55	31.15	18.85	-54.7	-70.7	3.8	1.49e+00	0	28	104	0	74	24149
2026-01-14 05:14:29.57	30.93	18.92	-54.7	-70.7	3.8	1.49e+00	0	28	104	0	74	24139
2026-01-14 05:14:30.57	30.73	18.98	-54.7	-70.7	3.8	1.49e+00	0	28	104	0	74	24253
2026-01-14 05:14:31.58	30.52	19.04	-54.7	-70.7	3.8	1.49e+00	0	28	104	0	74	24179
2026-01-14 05:14:32.59	30.30	19.11	-54.7	-70.7	3.8	1.49e+00	0	27	104	0	74	24221
2026-01-14 05:14:33.60	30.09	19.17	-54.7	-70.7	3.8	1.49e+00	0	27	104	0	74	24145
2026-01-14 05:14:34.61	29.88	19.23	-54.7	-70.7	3.8	1.49e+00	0	27	104	0	74	24158
2026-01-14 05:14:35.61	29.67	19.30	-54.7	-70.7	3.8	1.49e+00	0	28	104	0	74	24205
2026-01-14 05:14:36.61	29.45	19.36	-54.7	-70.7	3.8	1.49e+00	0	28	104	0	74	24215
2026-01-14 05:14:37.62	29.24	19.42	-54.7	-70.7	3.8	1.49e+00	0	28	104	0	74	24197
2026-01-14 05:14:38.63	29.02	19.48	-54.7	-70.7	3.8	1.49e+00	0	28	104	0	74	24197
2026-01-14 05:14:39.64	28.80	19.54	-54.7	-70.7	3.8	1.49e+00	0	28	104	0	74	24153
2026-01-14 05:14:40.65	28.58	19.60	-54.7	-70.7	3.8	1.49e+00	0	28	104	0	74	24198
2026-01-14 05:14:41.66	28.36	19.66	-54.7	-70.7	3.8	1.49e+00	0	28	104	0	74	24152
2026-01-14 05:14:42.67	28.14	19.73	-54.7	-70.7	3.8	1.49e+00	0	27	104	0	74	24151
2026-01-14 05:14:43.69	27.92	19.79	-54.7	-70.7	3.8	1.49e+00	0	28	104	0	74	24217
2026-01-14 05:14:44.70	27.70	19.85	-54.7	-70.7	3.8	1.49e+00	0	28	104	0	74	24201
2026-01-14 05:14:45.71	27.47	19.91	-54.7	-70.7	3.8	1.49e+00	0	28	104	0	74	24195
2026-01-14 05:14:46.71	27.25	19.96	-54.7	-70.7	3.8	1.49e+00	0	28	104	0	74	24147
2026-01-14 05:14:47.72	27.03	20.02	-54.7	-70.7	3.8	1.49e+00	0	27	104	0	74	24160
2026-01-14 05:14:48.73	26.80	20.08	-54.7	-70.7	3.8	1.49e+00	0	28	104	0	74	24221
2026-01-14 05:14:49.74	26.57	20.14	-54.7	-70.7	3.8	1.49e+00	0	28	104	0	74	24159
2026-01-14 05:14:50.75	26.35	20.20	-54.7	-70.7	3.8	1.49e+00	0	28	104	0	74	24155
2026-01-14 05:14:51.76	26.12	20.26	-54.7	-70.7	3.8	1.49e+00	0	28	104	0	74	24189
2026-01-14 05:14:52.77	25.89	20.31	-54.7	-70.6	3.8	1.49e+00	0	28	104	0	74	24130
2026-01-14 05:14:53.78	25.66	20.37	-54.7	-70.6	3.8	1.49e+00	0	28	104	0	74	24093
2026-01-14 05:14:54.79	25.43	20.43	-54.7	-70.7	3.8	1.49e+00	0	28	104	0	74	24168
2026-01-14 05:14:55.80	25.20	20.48	-54.6	-70.6	3.8	1.49e+00	0	28	104	0	74	24098
2026-01-14 05:14:56.81	24.96	20.54	-54.7	-70.7	3.8	1.49e+00	0	27	104	0	74	24150
2026-01-14 05:14:57.82	24.73	20.59	-54.7	-70.7	3.8	1.49e+00	0	28	104	0	74	24178
2026-01-14 05:14:58.83	24.50	20.65	-54.7	-70.7	3.8	1.49e+00	0	28	104	0	74	24178
2026-01-14 05:14:59.84	24.26	20.70	-54.7	-70.7	3.8	1.49e+00	0	28	104	0	74	24230
2026-01-14 05:15:00.85	24.02	20.76	-54.7	-70.7	3.8	1.49e+00	0	28	104	0	74	24167
2026-01-14 05:15:01.86	23.79	20.81	-54.7	-70.6	3.8	1.49e+00	0	27	104	0	74	24113
2026-01-14 05:15:02.87	23.55	20.87	-54.7	-70.7	3.8	1.49e+00	0	27	104	0	74	24171
2026-01-14 05:15:03.88	23.31	20.92	-54.7	-70.7	3.8	1.49e+00	0	27	104	0	74	24192
2026-01-14 05:15:04.89	23.07	20.97	-54.7	-70.7	3.8	1.49e+00	0	28	104	0	74	24142
2026-01-14 05:15:05.90	22.83	21.02	-54.7	-70.7	3.8	1.49e+00	0	27	104	0	74	24208
2026-01-14 05:15:06.91	22.59	21.08	-54.7	-70.7	3.8	1.49e+00	0	28	104	0	74	24200
2026-01-14 05:15:07.92	22.35	21.13	-54.7	-70.7	3.8	1.49e+00	0	28	104	0	74	24220
2026-01-14 05:15:08.92	22.11	21.18	-54.7	-70.6	3.8	1.49e+00	0	27	104	0	74	24111
2026-01-14 05:15:09.93	21.86	21.23	-54.7	-70.7	3.8	1.49e+00	0	28	104	0	74	24181
2026-01-14 05:15:10.94	21.62	21.28	-54.7	-70.7	3.8	1.49e+00	0	27	104	0	74	24185
2026-01-14 05:15:11.95	21.38	21.33	-54.7	-70.7	3.8	1.49e+00	0	28	104	0	74	24136
2026-01-14 05:15:12.95	21.13	21.38	-54.7	-70.7	3.8	1.49e+00	0	28	104	0	74	24157
2026-01-14 05:15:13.96	20.89	21.43	-54.7	-70.7	3.8	1.49e+00	0	28	104	0	74	24213
2026-01-14 05:15:14.97	20.64	21.47	-54.7	-70.7	3.8	1.49e+00	0	28	104	0	74	24232
2026-01-14 05:15:15.98	20.39	21.52	-54.7	-70.7	3.8	1.49e+00	0	28	104	0	74	24205
2026-01-14 05:15:16.99	20.14	21.57	-54.7	-70.7	3.8	1.49e+00	0	27	104	0	74	24208
2026-01-14 05:15:18.00	19.89	21.62	-54.7	-70.7	3.8	1.49e+00	0	27	104	0	74	24181
2026-01-14 05:15:19.00	19.64	21.66	-54.7	-70.7	3.8	1.49e+00	0	27	104	0	74	24177
2026-01-14 05:15:20.01	19.39	21.71	-54.7	-70.6	3.8	1.49e+00	0	27	104	0	74	24100
2026-01-14 05:15:21.02	19.14	21.75	-54.7	-70.7	3.8	1.49e+00	0	28	104	0	74	24159
2026-01-14 05:15:22.03	18.89	21.80	-54.7	-70.7	3.8	1.49e+00	0	28	104	0	74	24131
2026-01-14 05:15:23.04	18.63	21.84	-54.7	-70.6	3.8	1.49e+00	0	28	104	0	74	24109
2026-01-14 05:15:24.04	18.38	21.88	-54.7	-70.7	3.8	1.49e+00	0	28	104	0	74	24251
2026-01-14 05:15:25.05	18.13	21.93	-54.7	-70.7	3.8	1.49e+00	0	28	104	0	74	24134
2026-01-14 05:15:26.06	17.87	21.97	-54.7	-70.6	3.8	1.49e+00	0	28	104	0	74	24120
2026-01-14 05:15:27.07	17.61	22.01	-54.7	-70.7	3.8	1.49e+00	0	27	104	0	74	24139
2026-01-14 05:15:28.08	17.36	22.05	-54.7	-70.6	3.8	1.49e+00	0	28	104	0	74	24112
2026-01-14 05:15:29.09	17.10	22.09	-54.7	-70.7	3.8	1.49e+00	0	28	104	0	74	24182
2026-01-14 05:15:30.10	16.84	22.13	-54.7	-70.6	3.8	1.49e+00	0	27	104	0	74	24116
2026-01-14 05:15:31.11	16.58	22.17	-54.7	-70.6	3.8	1.49e+00	0	27	104	0	74	24123
2026-01-14 05:15:32.12	16.32	22.21	-54.7	-70.6	3.8	1.49e+00	0	28	104	0	74	24130
2026-01-14 05:15:33.13	16.06	22.25	-54.7	-70.7	3.8	1.49e+00	0	28	104	0	74	24136
2026-01-14 05:15:34.14	15.80	22.29	-54.7	-70.6	3.8	1.49e+00	0	27	104	0	74	24119
2026-01-14 05:15:35.15	15.54	22.33	-54.7	-70.6	3.8	1.49e+00	0	28	104	0	74	24106
2026-01-14 05:15:36.16	15.28	22.37	-54.7	-70.6	3.8	1.49e+00	0	28	104	0	74	24116
2026-01-14 05:15:37.16	15.02	22.40	-54.7	-70.7	3.8	1.49e+00	0	27	104	0	74	24177
2026-01-14 05:15:38.17	14.75	22.44	-54.7	-70.7	3.8	1.49e+00	0	28	104	0	74	24171
2026-01-14 05:15:39.18	14.49	22.47	-54.7	-70.6	3.8	1.49e+00	0	28	104	0	74	24123
2026-01-14 05:15:40.19	14.22	22.51	-54.7	-70.7	3.8	1.49e+00	0	27	104	0	74	24204
2026-01-14 05:15:41.20	13.96	22.54	-54.7	-70.7	3.8	1.49e+00	0	27	104	0	74	24211
2026-01-14 05:15:42.21	13.69	22.57	-54.7	-70.7	3.8	1.49e+00	0	27	104	0	74	24173
2026-01-14 05:15:43.22	13.43	22.61	-54.7	-70.7	3.8	1.49e+00	0	28	104	0	74	24213
2026-01-14 05:15:44.23	13.16	22.64	-54.7	-70.6	3.8	1.49e+00	0	27	104	0	74	24108
2026-01-14 05:15:45.24	12.89	22.67	-54.7	-70.7	3.8	1.49e+00	0	28	104	0	74	24214
2026-01-14 05:15:46.25	12.62	22.70	-54.7	-70.7	3.8	1.49e+00	0	28	104	0	74	24149
2026-01-14 05:15:47.26	12.36	22.73	-54.7	-70.7	3.8	1.49e+00	0	28	104	0	74	24199
2026-01-14 05:15:48.27	12.09	22.76	-54.7	-70.6	3.8	1.49e+00	0	28	104	0	74	24108
2026-01-14 05:15:49.27	11.82	22.79	-54.6	-70.7	3.8	1.49e+00	0	28	104	0	74	24149
2026-01-14 05:15:50.28	11.55	22.82	-54.7	-70.7	3.8	1.49e+00	0	28	104	0	74	24138
2026-01-14 05:15:51.29	11.28	22.84	-54.7	-70.7	3.8	1.49e+00	0	28	104	0	74	24158
2026-01-14 05:15:52.30	11.01	22.87	-54.7	-70.6	3.8	1.49e+00	0	27	104	0	74	24093
2026-01-14 05:15:53.31	10.74	22.90	-54.7	-70.7	3.8	1.49e+00	0	27	104	0	74	24194
2026-01-14 05:15:54.31	10.47	22.92	-54.7	-70.7	3.8	1.49e+00	0	27	104	0	74	24183
2026-01-14 05:15:55.32	10.19	22.95	-54.7	-70.7	3.8	1.49e+00	0	28	104	0	74	24178
2026-01-14 05:15:56.32	9.92	22.97	-54.7	-70.7	3.8	1.49e+00	0	28	104	0	74	24243
2026-01-14 05:15:57.33	9.65	23.00	-54.7	-70.7	3.8	1.49e+00	0	28	104	0	74	24146
2026-01-14 05:15:58.34	9.38	23.02	-54.7	-70.7	3.8	1.49e+00	0	27	104	0	74	24221
2026-01-14 05:15:59.35	9.10	23.04	-54.7	-70.7	3.8	1.49e+00	0	28	104	0	74	24177
2026-01-14 05:16:00.36	8.83	23.06	-54.7	-70.7	3.8	1.49e+00	0	27	104	0	74	24148
2026-01-14 05:16:01.37	8.55	23.08	-54.7	-70.7	3.8	1.49e+00	0	28	104	0	74	24265
2026-01-14 05:16:02.37	8.28	23.10	-54.7	-70.7	3.8	1.49e+00	0	28	104	0	74	24230
2026-01-14 05:16:03.38	8.00	23.12	-54.7	-70.7	3.8	1.49e+00	0	28	104	0	74	24200
2026-01-14 05:16:04.39	7.73	23.14	-54.7	-70.7	3.8	1.49e+00	0	28	104	0	74	24150
2026-01-14 05:16:05.41	7.45	23.16	-54.7	-70.7	3.8	1.49e+00	0	28	104	0	74	24136
2026-01-14 05:16:06.41	7.18	23.18	-54.7	-70.7	3.8	1.49e+00	0	28	104	0	74	24147
2026-01-14 05:16:07.42	6.90	23.19	-54.7	-70.7	3.8	1.49e+00	0	28	104	0	74	24149
2026-01-14 05:16:08.43	6.62	23.21	-54.7	-70.7	3.8	1.49e+00	0	27	104	0	74	24137
2026-01-14 05:16:09.43	6.35	23.22	-54.7	-70.7	3.8	1.49e+00	0	28	104	0	74	24150
2026-01-14 05:16:10.44	6.07	23.24	-54.7	-70.7	3.8	1.49e+00	0	27	104	0	74	24216
2026-01-14 05:16:11.45	5.79	23.25	-54.7	-70.7	3.8	1.49e+00	0	27	104	0	74	24180
2026-01-14 05:16:12.46	5.51	23.26	-54.7	-70.7	3.8	1.49e+00	0	27	104	0	74	24143
2026-01-14 05:16:13.47	5.23	23.28	-54.7	-70.7	3.8	1.49e+00	0	28	104	0	74	24171
2026-01-14 05:16:14.48	4.96	23.29	-54.7	-70.7	3.8	1.49e+00	0	28	104	0	74	24224
2026-01-14 05:16:15.49	4.68	23.30	-54.7	-70.7	3.8	1.49e+00	0	28	104	0	74	24228
2026-01-14 05:16:16.50	4.40	23.31	-54.7	-70.7	3.8	1.49e+00	0	28	104	0	74	24202
2026-01-14 05:16:17.51	4.12	23.32	-54.7	-70.7	3.8	1.49e+00	0	28	104	0	74	24172
2026-01-14 05:16:18.52	3.84	23.33	-54.7	-70.7	3.8	1.49e+00	0	28	104	0	74	24215
2026-01-14 05:16:19.53	3.56	23.34	-54.7	-70.6	3.8	1.49e+00	0	28	104	0	74	24126
2026-01-14 05:16:20.54	3.28	23.34	-54.7	-70.7	3.8	1.49e+00	0	27	104	0	74	24204
2026-01-14 05:16:21.55	3.00	23.35	-54.7	-70.7	3.8	1.49e+00	0	28	104	0	74	24140
2026-01-14 05:16:22.55	2.72	23.35	-54.7	-70.7	3.8	1.49e+00	0	28	104	0	74	24162
2026-01-14 05:16:23.57	2.44	23.36	-54.7	-70.7	3.8	1.49e+00	0	28	104	0	74	24141
2026-01-14 05:16:24.57	2.16	23.36	-54.7	-70.7	3.8	1.49e+00	0	28	104	0	74	24223
2026-01-14 05:16:25.58	1.88	23.37	-54.7	-70.6	3.8	1.49e+00	0	27	104	0	74	24126
2026-01-14 05:16:26.59	1.60	23.37	-54.7	-70.7	3.8	1.49e+00	0	27	104	0	74	24158
2026-01-14 05:16:27.60	1.32	23.37	-54.7	-70.6	3.8	1.49e+00	0	28	104	0	74	24112
2026-01-14 05:16:28.61	1.04	23.37	-54.7	-70.7	3.8	1.49e+00	0	27	104	0	74	24166
2026-01-14 05:16:29.62	0.76	23.37	-54.7	-70.6	3.8	1.49e+00	0	27	104	0	74	24128
2026-01-14 05:16:30.63	0.48	23.37	-54.7	-70.7	3.8	1.49e+00	0	27	104	0	74	24148
2026-01-14 05:16:31.64	0.20	23.37	-54.7	-70.7	3.8	1.49e+00	0	28	104	0	74	24146
2026-01-14 05:16:32.64	359.92	23.37	-54.7	-70.7	3.8	1.49e+00	0	27	104	0	74	24214
2026-01-14 05:16:33.65	359.64	23.37	-54.7	-70.7	3.8	1.49e+00	0	27	104	0	74	24228
2026-01-14 05:16:34.66	359.36	23.37	-54.7	-70.7	3.8	1.49e+00	0	28	104	0	74	24238
2026-01-14 05:16:35.67	359.08	23.36	-54.7	-70.7	3.8	1.49e+00	0	28	104	0	74	24171
2026-01-14 05:16:36.68	358.80	23.36	-54.7	-70.7	3.8	1.49e+00	0	28	104	0	74	24244
2026-01-14 05:16:37.69	358.52	23.35	-54.7	-70.7	3.8	1.49e+00	0	28	104	0	74	24173
2026-01-14 05:16:38.70	358.24	23.35	-54.7	-70.7	3.8	1.49e+00	0	28	104	0	74	24201
2026-01-14 05:16:39.70	357.97	23.34	-54.7	-70.7	3.8	1.49e+00	0	28	104	0	74	24150
2026-01-14 05:16:40.72	357.68	23.33	-54.7	-70.7	3.8	1.49e+00	0	28	104	0	74	24179
2026-01-14 05:16:41.72	357.41	23.32	-54.7	-70.7	3.8	1.49e+00	0	28	104	0	74	24146
2026-01-14 05:16:42.73	357.13	23.31	-54.7	-70.7	3.8	1.49e+00	0	27	104	0	74	24178
2026-01-14 05:16:43.74	356.85	23.30	-54.7	-70.7	3.8	1.49e+00	0	27	104	0	74	24133
2026-01-14 05:16:44.75	356.57	23.29	-54.7	-70.7	3.8	1.49e+00	0	28	104	0	74	24159
2026-01-14 05:16:45.76	356.29	23.28	-54.7	-70.7	3.8	1.49e+00	0	27	104	0	74	24133
2026-01-14 05:16:46.77	356.01	23.27	-54.7	-70.7	3.8	1.49e+00	0	27	104	0	74	24236
2026-01-14 05:16:47.78	355.74	23.26	-54.7	-70.7	3.8	1.49e+00	0	28	104	0	74	24247
2026-01-14 05:16:48.79	355.46	23.24	-54.7	-70.7	3.8	1.49e+00	0	27	104	0	74	24185
2026-01-14 05:16:49.80	355.18	23.23	-54.7	-70.7	3.8	1.49e+00	0	28	104	0	74	24232
2026-01-14 05:16:50.81	354.90	23.21	-54.7	-70.7	3.8	1.49e+00	0	28	104	0	74	24206
2026-01-14 05:16:51.82	354.62	23.20	-54.7	-70.7	3.8	1.49e+00	0	28	104	0	74	24327
2026-01-14 05:16:52.83	354.35	23.18	-54.7	-70.7	3.8	1.49e+00	0	28	104	0	74	24208
2026-01-14 05:16:53.84	354.07	23.17	-54.7	-70.7	3.8	1.49e+00	0	28	104	0	74	24181
2026-01-14 05:16:54.84	353.80	23.15	-54.7	-70.7	3.8	1.49e+00	0	27	104	0	74	24207
2026-01-14 05:16:55.85	353.52	23.13	-54.7	-70.7	3.8	1.49e+00	0	27	104	0	74	24140
2026-01-14 05:16:56.86	353.25	23.11	-54.7	-70.6	3.8	1.49e+00	0	28	104	0	74	24123
2026-01-14 05:16:57.87	352.97	23.09	-54.7	-70.7	3.8	1.49e+00	0	28	104	0	74	24209
2026-01-14 05:16:58.88	352.69	23.07	-54.7	-70.7	3.8	1.49e+00	0	28	104	0	74	24207
2026-01-14 05:16:59.89	352.42	23.05	-54.7	-70.7	3.8	1.49e+00	0	27	104	0	74	24227
2026-01-14 05:17:00.90	352.15	23.03	-54.7	-70.7	3.8	1.49e+00	0	28	104	0	74	24210
2026-01-14 05:17:01.91	351.87	23.00	-54.7	-70.7	3.8	1.49e+00	0	28	104	0	74	24193
2026-01-14 05:17:02.92	351.60	22.98	-54.7	-70.7	3.8	1.49e+00	0	28	104	0	74	24191
2026-01-14 05:17:03.93	351.33	22.96	-54.7	-70.7	3.8	1.49e+00	0	28	104	0	74	24144
2026-01-14 05:17:04.93	351.06	22.93	-54.7	-70.6	3.8	1.49e+00	0	28	104	0	74	24111
2026-01-14 05:17:05.94	350.78	22.91	-54.7	-70.7	3.8	1.49e+00	0	28	104	0	74	24180
2026-01-14 05:17:06.95	350.51	22.88	-54.7	-70.7	3.8	1.49e+00	0	28	104	0	74	24152
2026-01-14 05:17:07.96	350.24	22.86	-54.7	-70.7	3.8	1.49e+00	0	28	104	0	74	24218
2026-01-14 05:17:08.97	349.97	22.83	-54.7	-70.7	3.8	1.49e+00	0	27	104	0	74	24166
2026-01-14 05:17:09.98	349.70	22.80	-54.7	-70.7	3.8	1.49e+00	0	27	104	0	74	24145
2026-01-14 05:17:10.99	349.43	22.77	-54.7	-70.7	3.8	1.49e+00	0	28	104	0	74	24184
2026-01-14 05:17:12.00	349.16	22.74	-54.7	-70.7	3.8	1.49e+00	0	28	104	0	74	24165
2026-01-14 05:17:13.01	348.89	22.71	-54.7	-70.7	3.8	1.49e+00	0	27	104	0	74	24179
2026-01-14 05:17:14.01	348.63	22.68	-54.7	-70.7	3.8	1.49e+00	0	27	104	0	74	24206
2026-01-14 05:17:15.02	348.36	22.65	-54.7	-70.7	3.8	1.49e+00	0	28	104	0	74	24192
2026-01-14 05:17:16.03	348.09	22.62	-54.7	-70.7	3.8	1.49e+00	0	28	104	0	74	24139
2026-01-14 05:17:17.04	347.82	22.59	-54.7	-70.7	3.8	1.49e+00	0	28	104	0	74	24162
2026-01-14 05:17:18.05	347.56	22.55	-54.7	-70.7	3.8	1.49e+00	0	28	104	0	74	24163
2026-01-14 05:17:19.06	347.29	22.52	-54.7	-70.6	3.8	1.49e+00	0	28	104	0	74	24123
2026-01-14 05:17:20.07	347.03	22.49	-54.7	-70.7	3.8	1.49e+00	0	27	104	0	74	24181
2026-01-14 05:17:21.07	346.77	22.45	-54.7	-70.7	3.8	1.49e+00	0	28	104	0	74	24156
2026-01-14 05:17:22.08	346.50	22.42	-54.7	-70.6	3.8	1.49e+00	0	27	104	0	74	24098
2026-01-14 05:17:23.09	346.24	22.38	-54.7	-70.7	3.8	1.49e+00	0	27	104	0	74	24237
2026-01-14 05:17:24.10	345.98	22.34	-54.7	-70.7	3.8	1.49e+00	0	28	104	0	74	24155
2026-01-14 05:17:25.11	345.71	22.31	-54.7	-70.7	3.8	1.49e+00	0	27	104	0	74	24169
2026-01-14 05:17:26.12	345.45	22.27	-54.7	-70.7	3.8	1.49e+00	0	27	104	0	74	24225
2026-01-14 05:17:27.13	345.19	22.23	-54.7	-70.7	3.8	1.49e+00	0	28	104	0	74	24228
2026-01-14 05:17:28.14	344.93	22.19	-54.7	-70.7	3.8	1.49e+00	0	28	104	0	74	24210
2026-01-14 05:17:29.15	344.67	22.15	-54.7	-70.6	3.8	1.49e+00	0	28	104	0	74	24116
2026-01-14 05:17:30.16	344.41	22.11	-54.7	-70.7	3.8	1.49e+00	0	28	104	0	74	24181
2026-01-14 05:17:31.17	344.16	22.07	-54.7	-70.7	3.8	1.49e+00	0	28	104	0	74	24163
2026-01-14 05:17:32.18	343.90	22.03	-54.7	-70.7	3.8	1.49e+00	0	27	104	0	74	24185
2026-01-14 05:17:33.18	343.65	21.99	-54.7	-70.7	3.8	1.49e+00	0	28	104	0	74	24150
2026-01-14 05:17:34.19	343.39	21.94	-54.7	-70.7	3.8	1.49e+00	0	28	104	0	74	24174
2026-01-14 05:17:35.20	343.13	21.90	-54.6	-70.7	3.8	1.49e+00	0	27	104	0	74	24149
2026-01-14 05:17:36.21	342.88	21.86	-54.6	-70.7	3.8	1.49e+00	0	27	104	0	74	24137
2026-01-14 05:17:37.22	342.63	21.81	-54.6	-70.6	3.8	1.49e+00	0	28	104	0	74	24098
2026-01-14 05:17:38.23	342.37	21.77	-54.7	-70.6	3.8	1.49e+00	0	28	104	0	74	24068
2026-01-14 05:17:39.24	342.12	21.72	-54.7	-70.6	3.8	1.49e+00	0	27	104	0	74	24113
2026-01-14 05:17:40.25	341.87	21.68	-54.7	-70.6	3.8	1.49e+00	0	27	104	0	74	24094
2026-01-14 05:17:41.26	341.62	21.63	-54.7	-70.7	3.8	1.49e+00	0	27	104	0	74	24141
2026-01-14 05:17:42.27	341.37	21.59	-54.7	-70.7	3.8	1.49e+00	0	28	104	0	74	24139
2026-01-14 05:17:43.27	341.12	21.54	-54.7	-70.7	3.8	1.49e+00	0	28	104	0	74	24158
2026-01-14 05:17:44.28	340.87	21.49	-54.7	-70.6	3.8	1.49e+00	0	28	104	0	74	24120
2026-01-14 05:17:45.29	340.63	21.44	-54.7	-70.7	3.8	1.49e+00	0	28	104	0	74	24144
2026-01-14 05:17:46.30	340.38	21.40	-54.7	-70.7	3.8	1.49e+00	0	28	104	0	74	24183
2026-01-14 05:17:47.32	340.13	21.35	-54.7	-70.7	3.8	1.49e+00	0	28	104	0	74	24225
2026-01-14 05:17:48.32	339.89	21.30	-54.7	-70.7	3.8	1.49e+00	0	28	104	0	74	24166
2026-01-14 05:17:49.33	339.64	21.25	-54.7	-70.7	3.8	1.49e+00	0	27	104	0	74	24159
2026-01-14 05:17:50.34	339.40	21.20	-54.7	-70.7	3.8	1.49e+00	0	27	104	0	74	24135
2026-01-14 05:17:51.35	339.16	21.15	-54.7	-70.6	3.8	1.49e+00	0	27	104	0	74	24075
2026-01-14 05:17:52.36	338.91	21.10	-54.7	-70.6	3.8	1.49e+00	0	27	104	0	74	24109
2026-01-14 05:17:53.37	338.67	21.04	-54.7	-70.7	3.8	1.49e+00	0	27	104	0	74	24151
2026-01-14 05:17:54.37	338.44	20.99	-54.7	-70.7	3.8	1.49e+00	0	28	104	0	74	24216
2026-01-14 05:17:55.38	338.20	20.94	-54.7	-70.6	3.8	1.49e+00	0	28	104	0	74	24126
2026-01-14 05:17:56.39	337.96	20.89	-54.6	-70.6	3.8	1.49e+00	0	27	104	0	74	24066
2026-01-14 05:17:57.40	337.72	20.83	-54.7	-70.6	3.8	1.49e+00	0	28	104	0	74	24088
2026-01-14 05:17:58.41	337.48	20.78	-54.7	-70.7	3.8	1.49e+00	0	28	104	0	74	24133
2026-01-14 05:17:59.42	337.25	20.73	-54.7	-70.6	3.8	1.49e+00	0	27	104	0	74	24079
2026-01-14 05:18:00.43	337.01	20.67	-54.7	-70.6	3.8	1.49e+00	0	28	104	0	74	24116
2026-01-14 05:18:01.44	336.78	20.62	-54.7	-70.6	3.8	1.49e+00	0	28	104	0	74	24071
2026-01-14 05:18:02.45	336.54	20.56	-54.7	-70.7	3.8	1.49e+00	0	28	104	0	74	24165
2026-01-14 05:18:03.45	336.31	20.51	-54.7	-70.7	3.8	1.49e+00	0	28	104	0	74	24201
2026-01-14 05:18:04.47	336.08	20.45	-54.7	-70.7	3.8	1.49e+00	0	28	104	0	74	24211
2026-01-14 05:18:05.47	335.85	20.39	-54.7	-70.7	3.8	1.49e+00	0	28	104	0	74	24156
2026-01-14 05:18:06.48	335.62	20.34	-54.7	-70.6	3.8	1.49e+00	0	28	104	0	74	24094
2026-01-14 05:18:07.49	335.39	20.28	-54.7	-70.6	3.8	1.49e+00	0	28	104	0	74	24125
2026-01-14 05:18:08.50	335.16	20.22	-54.7	-70.6	3.8	1.49e+00	0	28	104	0	74	24125
2026-01-14 05:18:09.51	334.93	20.16	-54.7	-70.6	3.8	1.49e+00	0	28	104	0	74	24117
2026-01-14 05:18:10.52	334.70	20.11	-54.7	-70.7	3.8	1.49e+00	0	28	104	0	74	24159
2026-01-14 05:18:11.53	334.48	20.05	-54.7	-70.6	3.8	1.49e+00	0	28	104	0	74	24129
2026-01-14 05:18:12.54	334.25	19.99	-54.7	-70.7	3.8	1.49e+00	0	28	104	0	74	24136
2026-01-14 05:18:13.54	334.03	19.93	-54.7	-70.7	3.8	1.49e+00	0	28	104	0	74	24178
2026-01-14 05:18:14.55	333.81	19.87	-54.7	-70.7	3.8	1.49e+00	0	28	104	0	74	24154
2026-01-14 05:18:15.55	333.59	19.81	-54.7	-70.7	3.8	1.49e+00	0	28	104	0	74	24146
2026-01-14 05:18:16.57	333.36	19.75	-54.7	-70.6	3.8	1.49e+00	0	28	104	0	74	24109
2026-01-14 05:18:17.57	333.14	19.69	-54.7	-70.7	3.8	1.49e+00	0	28	104	0	74	24153
2026-01-14 05:18:18.58	332.92	19.63	-54.7	-70.7	3.8	1.49e+00	0	27	104	0	74	24168
2026-01-14 05:18:19.59	332.71	19.57	-54.7	-70.7	3.8	1.49e+00	0	28	104	0	74	24208
2026-01-14 05:18:20.60	332.49	19.51	-54.7	-70.7	3.8	1.49e+00	0	27	104	0	74	24180
2026-01-14 05:18:21.61	332.27	19.45	-54.7	-70.7	3.8	1.49e+00	0	28	104	0	74	24184
2026-01-14 05:18:22.62	332.05	19.38	-54.7	-70.7	3.8	1.49e+00	0	28	104	0	74	24155
2026-01-14 05:18:23.63	331.84	19.32	-54.7	-70.6	3.8	1.49e+00	0	28	104	0	74	24127
2026-01-14 05:18:24.64	331.62	19.26	-54.7	-70.7	3.8	1.49e+00	0	27	104	0	74	24149
2026-01-14 05:18:25.64	331.41	19.20	-54.7	-70.6	3.8	1.49e+00	0	28	104	0	74	24109
2026-01-14 05:18:26.65	331.20	19.13	-54.6	-70.7	3.8	1.49e+00	0	28	104	0	74	24195
2026-01-14 05:18:27.66	330.99	19.07	-54.7	-70.6	3.8	1.49e+00	0	28	104	0	74	24095
2026-01-14 05:18:28.67	330.78	19.01	-54.7	-70.7	3.8	1.49e+00	0	28	104	0	74	24155
2026-01-14 05:18:29.68	330.57	18.94	-54.7	-70.7	3.8	1.49e+00	0	27	104	0	74	24149
2026-01-14 05:18:30.69	330.36	18.88	-54.7	-70.6	3.8	1.49e+00	0	28	104	0	74	24081
2026-01-14 05:18:31.70	330.15	18.82	-54.7	-70.7	3.8	1.49e+00	0	28	104	0	74	24159
2026-01-14 05:18:32.71	329.94	18.75	-54.7	-70.7	3.8	1.49e+00	0	28	104	0	74	24158
2026-01-14 05:18:33.72	329.73	18.69	-54.7	-70.7	3.8	1.49e+00	0	27	104	0	74	24160
2026-01-14 05:18:34.73	329.53	18.62	-54.7	-70.7	3.8	1.49e+00	0	28	104	0	74	24186
2026-01-14 05:18:35.74	329.32	18.56	-54.7	-70.7	3.8	1.49e+00	0	28	104	0	74	24201
2026-01-14 05:18:36.75	329.12	18.49	-54.7	-70.7	3.8	1.49e+00	0	28	104	0	74	24202
2026-01-14 05:18:37.76	328.92	18.43	-54.7	-70.7	3.8	1.49e+00	0	27	104	0	74	24132
2026-01-14 05:18:38.77	328.71	18.36	-54.7	-70.7	3.8	1.49e+00	0	28	104	0	74	24217
2026-01-14 05:18:39.78	328.51	18.29	-54.7	-70.7	3.8	1.49e+00	0	27	104	0	74	24231
2026-01-14 05:18:40.78	328.31	18.23	-54.7	-70.7	3.8	1.49e+00	0	27	104	0	74	24168
2026-01-14 05:18:41.79	328.11	18.16	-54.7	-70.7	3.8	1.49e+00	0	28	104	0	74	24194
2026-01-14 05:18:42.80	327.92	18.10	-54.7	-70.7	3.8	1.49e+00	0	28	104	0	74	24201
2026-01-14 05:18:43.81	327.72	18.03	-54.7	-70.6	3.8	1.49e+00	0	28	104	0	74	24108
2026-01-14 05:18:44.82	327.52	17.96	-54.7	-70.7	3.8	1.49e+00	0	27	104	0	74	24136
2026-01-14 05:18:45.83	327.33	17.90	-54.7	-70.7	3.8	1.49e+00	0	28	104	0	74	24178
2026-01-14 05:18:46.83	327.13	17.83	-54.7	-70.7	3.8	1.49e+00	0	28	104	0	74	24175
2026-01-14 05:18:47.84	326.94	17.76	-54.7	-70.7	3.8	1.49e+00	0	28	104	0	74	24138
2026-01-14 05:18:48.85	326.74	17.70	-54.7	-70.7	3.8	1.49e+00	0	27	104	0	74	24157
2026-01-14 05:18:49.86	326.55	17.63	-54.7	-70.7	3.8	1.49e+00	0	28	104	0	74	24206
2026-01-14 05:18:50.87	326.36	17.56	-54.7	-70.7	3.8	1.49e+00	0	27	104	0	74	24173
2026-01-14 05:18:51.88	326.17	17.49	-54.7	-70.7	3.8	1.49e+00	0	28	104	0	74	24204
2026-01-14 05:18:52.89	325.98	17.42	-54.7	-70.7	3.8	1.49e+00	0	27	104	0	74	24179
2026-01-14 05:18:53.89	325.79	17.36	-54.7	-70.7	3.8	1.49e+00	0	28	104	0	74	24258
2026-01-14 05:18:54.91	325.60	17.29	-54.7	-70.7	3.8	1.49e+00	0	28	104	0	74	24193
2026-01-14 05:18:55.91	325.42	17.22	-54.7	-70.6	3.8	1.49e+00	0	28	104	0	74	24123
2026-01-14 05:18:56.92	325.23	17.15	-54.7	-70.6	3.8	1.49e+00	0	28	104	0	74	24122
2026-01-14 05:18:57.93	325.04	17.08	-54.7	-70.7	3.8	1.49e+00	0	28	104	0	74	24161
2026-01-14 05:18:58.93	324.86	17.01	-54.7	-70.7	3.8	1.49e+00	0	28	104	0	74	24197
2026-01-14 05:18:59.94	324.68	16.95	-54.7	-70.7	3.8	1.49e+00	0	28	104	0	74	24175
2026-01-14 05:19:00.95	324.49	16.88	-54.7	-70.7	3.8	1.49e+00	0	28	104	0	74	24197
2026-01-14 05:19:01.95	324.31	16.81	-54.7	-70.7	3.8	1.49e+00	0	28	104	0	74	24192
2026-01-14 05:19:02.96	324.13	16.74	-54.7	-70.7	3.8	1.49e+00	0	27	104	0	74	24185
2026-01-14 05:19:03.98	323.95	16.67	-54.7	-70.7	3.8	1.49e+00	0	28	104	0	74	24186
2026-01-14 05:19:04.98	323.77	16.60	-54.7	-70.6	3.8	1.49e+00	0	27	104	0	74	24114
2026-01-14 05:19:05.99	323.59	16.53	-54.7	-70.6	3.8	1.49e+00	0	28	104	0	74	24121
2026-01-14 05:19:07.00	323.42	16.46	-54.7	-70.6	3.8	1.49e+00	0	28	104	0	74	24091
2026-01-14 05:19:08.01	323.24	16.39	-54.6	-70.7	3.8	1.49e+00	0	28	104	0	74	24142
2026-01-14 05:19:09.02	323.06	16.32	-54.7	-70.6	3.8	1.49e+00	0	28	104	0	74	24100
2026-01-14 05:19:10.03	322.89	16.25	-54.7	-70.7	3.8	1.49e+00	0	28	104	0	74	24158
2026-01-14 05:19:11.04	322.71	16.18	-54.7	-70.6	3.8	1.49e+00	0	28	104	0	74	24113
2026-01-14 05:19:12.04	322.54	16.11	-54.7	-70.7	3.8	1.49e+00	0	27	104	0	74	24137
2026-01-14 05:19:13.05	322.37	16.04	-54.7	-70.6	3.8	1.49e+00	0	28	104	0	74	24115
2026-01-14 05:19:14.06	322.19	15.97	-54.7	-70.7	3.8	1.49e+00	0	27	104	0	74	24135
2026-01-14 05:19:15.07	322.02	15.90	-54.7	-70.7	3.8	1.49e+00	0	28	104	0	74	24181
2026-01-14 05:19:16.08	321.85	15.83	-54.7	-70.7	3.8	1.49e+00	0	27	104	0	74	24159
2026-01-14 05:19:17.09	321.68	15.76	-54.7	-70.6	3.8	1.49e+00	0	27	104	0	74	24130
2026-01-14 05:19:18.10	321.51	15.69	-54.7	-70.7	3.8	1.49e+00	0	28	104	0	74	24136
2026-01-14 05:19:19.11	321.35	15.62	-54.7	-70.7	3.8	1.49e+00	0	28	104	0	74	24139
2026-01-14 05:19:20.12	321.18	15.55	-54.7	-70.7	3.8	1.49e+00	0	28	104	0	74	24245
2026-01-14 05:19:21.12	321.01	15.48	-54.7	-70.7	3.8	1.49e+00	0	27	104	0	74	24185
2026-01-14 05:19:22.13	320.85	15.41	-54.7	-70.7	3.8	1.49e+00	0	28	104	0	74	24169
2026-01-14 05:19:23.14	320.68	15.34	-54.7	-70.7	3.8	1.49e+00	0	27	104	0	74	24159
2026-01-14 05:19:24.15	320.52	15.27	-54.7	-70.7	3.8	1.49e+00	0	28	104	0	74	24213
2026-01-14 05:19:25.16	320.36	15.20	-54.7	-70.7	3.8	1.49e+00	0	28	104	0	74	24203
2026-01-14 05:19:26.16	320.19	15.13	-54.7	-70.7	3.8	1.49e+00	0	28	104	0	74	24159
2026-01-14 05:19:27.17	320.03	15.06	-54.7	-70.7	3.8	1.49e+00	0	28	104	0	74	24198
2026-01-14 05:19:28.18	319.87	14.99	-54.7	-70.7	3.8	1.49e+00	0	27	104	0	74	24192
2026-01-14 05:19:29.19	319.71	14.92	-54.7	-70.7	3.8	1.49e+00	0	28	104	0	74	24197
2026-01-14 05:19:30.20	319.55	14.85	-54.7	-70.7	3.8	1.49e+00	0	28	104	0	74	24171
2026-01-14 05:19:31.21	319.39	14.78	-54.7	-70.7	3.8	1.49e+00	0	28	104	0	74	24149
2026-01-14 05:19:32.21	319.24	14.71	-54.7	-70.7	3.8	1.49e+00	0	28	104	0	74	24179
2026-01-14 05:19:33.22	319.08	14.64	-54.7	-70.7	3.8	1.49e+00	0	28	104	0	74	24164
2026-01-14 05:19:34.23	318.92	14.57	-54.7	-70.7	3.8	1.49e+00	0	28	104	0	74	24160
2026-01-14 05:19:35.25	318.77	14.49	-54.7	-70.7	3.8	1.49e+00	0	28	104	0	74	24257
2026-01-14 05:19:36.25	318.61	14.42	-54.7	-70.7	3.8	1.49e+00	0	27	104	0	74	24162
2026-01-14 05:19:37.26	318.46	14.35	-54.7	-70.7	3.8	1.49e+00	0	28	104	0	74	24177
2026-01-14 05:19:38.27	318.30	14.28	-54.7	-70.7	3.8	1.49e+00	0	28	104	0	74	24247
2026-01-14 05:19:39.28	318.15	14.21	-54.7	-70.7	3.8	1.49e+00	0	28	104	0	74	24212
2026-01-14 05:19:40.29	318.00	14.14	-54.7	-70.6	3.8	1.49e+00	0	28	104	0	74	24104
2026-01-14 05:19:41.30	317.85	14.07	-54.7	-70.7	3.8	1.49e+00	0	27	104	0	74	24257
2026-01-14 05:19:42.31	317.70	14.00	-54.7	-70.7	3.8	1.49e+00	0	28	104	0	74	24221
2026-01-14 05:19:43.31	317.55	13.93	-54.7	-70.7	3.8	1.49e+00	0	28	104	0	74	24144
2026-01-14 05:19:44.33	317.40	13.86	-54.7	-70.7	3.8	1.49e+00	0	28	104	0	74	24160
2026-01-14 05:19:45.34	317.25	13.79	-54.7	-70.7	3.8	1.49e+00	0	28	104	0	74	24156
2026-01-14 05:19:46.35	317.10	13.72	-54.7	-70.7	3.8	1.49e+00	0	28	104	0	74	24215
2026-01-14 05:19:47.36	316.96	13.64	-54.7	-70.7	3.8	1.49e+00	0	28	104	0	74	24212
2026-01-14 05:19:48.36	316.81	13.57	-54.7	-70.7	3.8	1.49e+00	0	28	104	0	74	24165
2026-01-14 05:19:49.37	316.67	13.50	-54.7	-70.7	3.8	1.49e+00	0	28	104	0	74	24157
2026-01-14 05:19:50.38	316.52	13.43	-54.7	-70.7	3.8	1.49e+00	0	28	104	0	74	24168
2026-01-14 05:19:51.39	316.38	13.36	-54.7	-70.7	3.8	1.49e+00	0	28	104	0	74	24200
2026-01-14 05:19:52.40	316.23	13.29	-54.7	-70.7	3.8	1.49e+00	0	28	104	0	74	24142
2026-01-14 05:19:53.41	316.09	13.22	-54.7	-70.7	3.9	1.49e+00	0	27	104	0	74	24149
2026-01-14 05:19:54.42	315.95	13.15	-54.7	-70.7	3.8	1.49e+00	0	28	104	0	74	24170
2026-01-14 05:19:55.43	315.81	13.08	-54.7	-70.6	3.8	1.49e+00	0	28	104	0	74	24127
2026-01-14 05:19:56.44	315.67	13.01	-54.7	-70.7	3.8	1.49e+00	0	28	104	0	74	24161
2026-01-14 05:19:57.45	315.53	12.94	-54.7	-70.7	3.8	1.49e+00	0	28	104	0	74	24182
2026-01-14 05:19:58.46	315.39	12.87	-54.7	-70.7	3.8	1.49e+00	0	28	104	0	74	24136
2026-01-14 05:19:59.47	315.25	12.80	-54.7	-70.7	3.8	1.49e+00	0	28	104	0	74	24220
2026-01-14 05:20:00.47	315.11	12.73	-54.7	-70.7	3.8	1.49e+00	0	27	104	0	74	24216
2026-01-14 05:20:01.49	314.97	12.66	-54.7	-70.7	3.8	1.49e+00	0	28	104	0	74	24231
2026-01-14 05:20:02.49	314.84	12.59	-54.7	-70.7	3.9	1.49e+00	0	28	104	0	74	24133
2026-01-14 05:20:03.50	314.70	12.52	-54.7	-70.7	3.8	1.49e+00	0	28	104	0	74	24212
2026-01-14 05:20:04.51	314.57	12.45	-54.7	-70.7	3.8	1.49e+00	0	28	104	0	74	24197
2026-01-14 05:20:05.52	314.43	12.38	-54.7	-70.7	3.8	1.49e+00	0	28	104	0	74	24169
2026-01-14 05:20:06.52	314.30	12.31	-54.7	-70.7	3.8	1.49e+00	0	27	104	0	74	24150
2026-01-14 05:20:07.53	314.17	12.24	-54.7	-70.7	3.8	1.49e+00	0	28	104	0	74	24149
2026-01-14 05:20:08.54	314.04	12.17	-54.7	-70.7	3.8	1.49e+00	0	28	104	0	74	24226
2026-01-14 05:20:09.55	313.90	12.10	-54.7	-70.7	3.8	1.49e+00	0	28	104	0	74	24206
2026-01-14 05:20:10.56	313.77	12.03	-54.7	-70.7	3.8	1.49e+00	0	28	104	0	74	24233
2026-01-14 05:20:11.56	313.64	11.96	-54.7	-70.7	3.8	1.49e+00	0	28	104	0	74	24160
2026-01-14 05:20:12.57	313.51	11.89	-54.7	-70.7	3.8	1.49e+00	0	28	104	0	74	24164
2026-01-14 05:20:13.58	313.38	11.82	-54.7	-70.7	3.8	1.49e+00	0	28	104	0	74	24200
2026-01-14 05:20:14.59	313.25	11.75	-54.7	-70.7	3.8	1.49e+00	0	28	104	0	74	24255
2026-01-14 05:20:15.60	313.13	11.68	-54.7	-70.7	3.8	1.49e+00	0	28	104	0	74	24200
2026-01-14 05:20:16.61	313.00	11.61	-54.7	-70.7	3.8	1.49e+00	0	28	104	0	74	24155
2026-01-14 05:20:17.62	312.87	11.54	-54.7	-70.7	3.8	1.49e+00	0	28	104	0	74	24189
2026-01-14 05:20:18.63	312.75	11.47	-54.7	-70.7	3.8	1.49e+00	0	28	104	0	74	24204
2026-01-14 05:20:19.64	312.62	11.40	-54.7	-70.7	3.8	1.49e+00	0	28	104	0	74	24149
2026-01-14 05:20:20.65	312.49	11.33	-54.7	-70.7	3.8	1.49e+00	0	28	104	0	74	24205
2026-01-14 05:20:21.66	312.37	11.26	-54.7	-70.7	3.8	1.49e+00	0	28	104	0	74	24233
2026-01-14 05:20:22.66	312.25	11.19	-54.7	-70.7	3.8	1.49e+00	0	28	104	0	74	24227
2026-01-14 05:20:23.67	312.12	11.12	-54.7	-70.7	3.8	1.49e+00	0	28	104	0	74	24218
2026-01-14 05:20:24.68	312.00	11.06	-54.7	-70.7	3.8	1.49e+00	0	28	104	0	74	24248
2026-01-14 05:20:25.69	311.88	10.99	-54.7	-70.7	3.8	1.49e+00	0	28	104	0	74	24163
2026-01-14 05:20:26.70	311.76	10.92	-54.7	-70.7	3.8	1.49e+00	0	28	104	0	74	24146
2026-01-14 05:20:27.70	311.64	10.85	-54.7	-70.7	3.8	1.49e+00	0	28	104	0	74	24146
2026-01-14 05:20:28.71	311.52	10.78	-54.7	-70.7	3.8	1.49e+00	0	28	104	0	74	24225
2026-01-14 05:20:29.72	311.40	10.71	-54.7	-70.6	3.8	1.49e+00	0	27	104	0	74	24126
2026-01-14 05:20:30.73	311.28	10.64	-54.7	-70.7	3.8	1.49e+00	0	27	104	0	74	24179
2026-01-14 05:20:31.74	311.16	10.57	-54.7	-70.7	3.8	1.49e+00	0	28	104	0	74	24160
2026-01-14 05:20:32.75	311.04	10.51	-54.7	-70.6	3.8	1.49e+00	0	28	104	0	74	24107
2026-01-14 05:20:33.76	310.92	10.44	-54.7	-70.6	3.8	1.49e+00	0	28	104	0	74	24110
2026-01-14 05:20:34.77	310.81	10.37	-54.7	-70.7	3.8	1.49e+00	0	27	104	0	74	24146
2026-01-14 05:20:35.78	310.69	10.30	-54.7	-70.7	3.8	1.49e+00	0	28	104	0	74	24244
2026-01-14 05:20:36.79	310.58	10.23	-54.7	-70.7	3.8	1.49e+00	0	28	104	0	74	24145
2026-01-14 05:20:37.80	310.46	10.16	-54.7	-70.7	3.8	1.49e+00	0	27	104	0	74	24216
2026-01-14 05:20:38.81	310.35	10.10	-54.7	-70.7	3.8	1.49e+00	0	28	104	0	74	24217
2026-01-14 05:20:39.82	310.23	10.03	-54.7	-70.7	3.8	1.49e+00	0	27	104	0	74	24215
2026-01-14 05:20:40.83	310.12	9.96	-54.7	-70.7	3.8	1.49e+00	0	28	104	0	74	24204
2026-01-14 05:20:42.05	309.98	9.88	-54.7	-70.7	3.8	1.49e+00	0	28	104	0	74	24237
2026-01-14 05:20:42.91	309.89	9.82	-54.7	-70.7	3.8	1.49e+00	0	27	104	0	74	24311
2026-01-14 05:20:44.07	309.76	9.74	-54.7	-70.7	3.8	1.49e+00	0	27	104	0	74	24261
2026-01-14 05:20:44.93	309.66	9.68	-54.7	-70.7	3.8	1.49e+00	0	28	104	0	74	24212
2026-01-14 05:20:46.09	309.53	9.61	-54.7	-70.7	3.8	1.49e+00	0	28	104	0	74	24190
2026-01-14 05:20:46.95	309.44	9.55	-54.7	-70.7	3.8	1.49e+00	0	28	104	0	74	24188
2026-01-14 05:20:48.11	309.31	9.47	-54.7	-70.7	3.8	1.49e+00	0	28	104	0	74	24248
2026-01-14 05:20:48.97	309.22	9.41	-54.7	-70.7	3.8	1.49e+00	0	28	104	0	74	24192
2026-01-14 05:20:50.13	309.10	9.34	-54.7	-70.7	3.8	1.49e+00	0	28	104	0	74	24212
2026-01-14 05:20:51.00	309.00	9.28	-54.7	-70.7	3.8	1.49e+00	0	28	104	0	74	24206
2026-01-14 05:20:52.15	308.88	9.20	-54.7	-70.7	3.8	1.49e+00	0	28	104	0	74	24186
2026-01-14 05:20:53.02	308.79	9.14	-54.7	-70.7	3.8	1.49e+00	0	27	104	0	74	24179
2026-01-14 05:20:54.17	308.67	9.07	-54.7	-70.7	3.8	1.49e+00	0	28	104	0	74	24184
2026-01-14 05:20:55.03	308.58	9.01	-54.7	-70.7	3.8	1.49e+00	0	27	104	0	74	24160
2026-01-14 05:20:56.19	308.45	8.93	-54.7	-70.7	3.8	1.49e+00	0	28	104	0	74	24171
2026-01-14 05:20:57.05	308.36	8.88	-54.7	-70.7	3.8	1.49e+00	0	28	104	0	74	24186
2026-01-14 05:20:58.21	308.24	8.80	-54.7	-70.7	3.8	1.49e+00	0	27	104	0	74	24201
2026-01-14 05:20:59.07	308.16	8.74	-54.7	-70.7	3.8	1.49e+00	0	27	104	0	74	24192
2026-01-14 05:21:00.23	308.04	8.67	-54.7	-70.7	3.8	1.49e+00	0	28	104	0	74	24157
2026-01-14 05:21:01.10	307.95	8.61	-54.7	-70.7	3.8	1.49e+00	0	28	104	0	74	24156
2026-01-14 05:21:02.25	307.83	8.54	-54.7	-70.7	3.8	1.49e+00	0	28	104	0	74	24210
2026-01-14 05:21:03.12	307.74	8.48	-54.7	-70.7	3.8	1.49e+00	0	28	104	0	74	24221
2026-01-14 05:21:04.27	307.63	8.40	-54.7	-70.7	3.8	1.49e+00	0	28	104	0	74	24218
2026-01-14 05:21:05.14	307.54	8.35	-54.7	-70.7	3.8	1.49e+00	0	28	104	0	74	24230
2026-01-14 05:21:06.29	307.42	8.27	-54.7	-70.7	3.8	1.49e+00	0	28	104	0	74	24219
2026-01-14 05:21:07.16	307.34	8.21	-54.7	-70.7	3.8	1.49e+00	0	27	104	0	74	24209
2026-01-14 05:21:08.31	307.22	8.14	-54.7	-70.7	3.8	1.49e+00	0	28	104	0	74	24236
2026-01-14 05:21:09.17	307.14	8.08	-54.7	-70.7	3.8	1.49e+00	0	28	104	0	74	24234
2026-01-14 05:21:10.33	307.03	8.01	-54.7	-70.7	3.8	1.49e+00	0	28	104	0	74	24250
2026-01-14 05:21:11.19	306.94	7.95	-54.7	-70.7	3.8	1.49e+00	0	27	104	0	74	24210
2026-01-14 05:21:12.34	306.83	7.88	-54.7	-70.7	3.8	1.49e+00	0	28	104	0	74	24205
2026-01-14 05:21:13.21	306.75	7.82	-54.7	-70.7	3.8	1.49e+00	0	27	104	0	74	24236
2026-01-14 05:21:14.36	306.64	7.75	-54.7	-70.7	3.8	1.49e+00	0	28	104	0	74	24147
2026-01-14 05:21:15.22	306.55	7.69	-54.7	-70.7	3.8	1.49e+00	0	27	104	0	74	24159
2026-01-14 05:21:16.37	306.44	7.62	-54.7	-70.7	3.8	1.49e+00	0	28	104	0	74	24219
2026-01-14 05:21:17.24	306.36	7.56	-54.7	-70.6	3.8	1.49e+00	0	28	104	0	74	24117
2026-01-14 05:21:18.39	306.25	7.49	-54.7	-70.7	3.8	1.49e+00	0	28	104	0	74	24168
2026-01-14 05:21:19.26	306.17	7.43	-54.7	-70.7	3.8	1.49e+00	0	27	104	0	74	24139
2026-01-14 05:21:20.41	306.06	7.36	-54.7	-70.7	3.8	1.49e+00	0	28	104	0	74	24231
2026-01-14 05:21:21.27	305.98	7.30	-54.7	-70.7	3.8	1.49e+00	0	28	104	0	74	24182
2026-01-14 05:21:22.42	305.88	7.23	-54.7	-70.7	3.8	1.49e+00	0	28	104	0	74	24217
2026-01-14 05:21:23.29	305.80	7.17	-54.7	-70.7	3.8	1.49e+00	0	28	104	0	74	24240
2026-01-14 05:21:24.44	305.69	7.10	-54.7	-70.7	3.8	1.49e+00	0	28	104	0	74	24203
2026-01-14 05:21:25.31	305.61	7.05	-54.7	-70.7	3.8	1.49e+00	0	28	104	0	74	24164
2026-01-14 05:21:26.46	305.51	6.97	-54.7	-70.7	3.8	1.49e+00	0	28	104	0	74	24208
2026-01-14 05:21:27.33	305.43	6.92	-54.7	-70.7	3.8	1.49e+00	0	28	104	0	74	24235
2026-01-14 05:21:28.48	305.32	6.84	-54.7	-70.7	3.8	1.49e+00	0	28	104	0	74	24156
2026-01-14 05:21:29.34	305.25	6.79	-54.7	-70.7	3.8	1.49e+00	0	28	104	0	74	24143
2026-01-14 05:21:30.50	305.14	6.72	-54.7	-70.7	3.8	1.49e+00	0	28	104	0	74	24154
2026-01-14 05:21:31.36	305.06	6.66	-54.7	-70.7	3.8	1.49e+00	0	27	104	0	74	24220
2026-01-14 05:21:32.52	304.96	6.59	-54.7	-70.7	3.8	1.49e+00	0	27	104	0	74	24205
2026-01-14 05:21:33.38	304.89	6.53	-54.7	-70.6	3.8	1.49e+00	0	27	104	0	74	24121
2026-01-14 05:21:34.54	304.78	6.46	-54.7	-70.7	3.8	1.49e+00	0	27	104	0	74	24191
2026-01-14 05:21:35.40	304.71	6.41	-54.7	-70.7	3.8	1.49e+00	0	27	104	0	74	24169
2026-01-14 05:21:36.55	304.61	6.34	-54.7	-70.7	3.8	1.49e+00	0	28	104	0	74	24180
2026-01-14 05:21:37.42	304.53	6.28	-54.7	-70.7	3.8	1.49e+00	0	27	104	0	74	24164
2026-01-14 05:21:38.57	304.43	6.21	-54.7	-70.7	3.8	1.49e+00	0	28	104	0	74	24168
2026-01-14 05:21:39.43	304.36	6.16	-54.7	-70.7	3.8	1.49e+00	0	27	104	0	74	24190
2026-01-14 05:21:40.59	304.26	6.08	-54.7	-70.7	3.8	1.49e+00	0	28	104	0	74	24288
2026-01-14 05:21:41.45	304.19	6.03	-54.7	-70.7	3.8	1.49e+00	0	28	104	0	74	24278
2026-01-14 05:21:42.60	304.09	5.96	-54.7	-70.7	3.8	1.49e+00	0	28	104	0	74	24192
2026-01-14 05:21:43.46	304.02	5.90	-54.7	-70.7	3.8	1.49e+00	0	28	104	0	74	24163
2026-01-14 05:21:44.62	303.92	5.83	-54.7	-70.7	3.8	1.49e+00	0	27	104	0	74	24207
2026-01-14 05:21:45.48	303.85	5.78	-54.7	-70.7	3.8	1.49e+00	0	28	104	0	74	24221
2026-01-14 05:21:46.64	303.75	5.71	-54.7	-70.7	3.8	1.49e+00	0	27	104	0	74	24165
2026-01-14 05:21:47.50	303.68	5.65	-54.7	-70.7	3.8	1.49e+00	0	27	104	0	74	24184
2026-01-14 05:21:48.65	303.59	5.58	-54.7	-70.7	3.8	1.49e+00	0	27	104	0	74	24158
2026-01-14 05:21:49.52	303.51	5.53	-54.7	-70.7	3.8	1.49e+00	0	27	104	0	74	24236
2026-01-14 05:21:50.67	303.42	5.46	-54.7	-70.7	3.8	1.49e+00	0	27	104	0	74	24175
2026-01-14 05:21:51.54	303.35	5.41	-54.7	-70.7	3.8	1.49e+00	0	27	104	0	74	24132
2026-01-14 05:21:52.68	303.26	5.34	-54.7	-70.7	3.8	1.49e+00	0	28	104	0	74	24172
2026-01-14 05:21:53.55	303.19	5.28	-54.7	-70.6	3.8	1.49e+00	0	27	104	0	74	24127
2026-01-14 05:21:54.70	303.10	5.21	-54.7	-70.7	3.8	1.49e+00	0	28	104	0	74	24156
2026-01-14 05:21:55.57	303.03	5.16	-54.7	-70.7	3.8	1.49e+00	0	28	104	0	74	24170
2026-01-14 05:21:56.72	302.93	5.09	-54.7	-70.6	3.8	1.49e+00	0	27	104	0	74	24122
2026-01-14 05:21:57.58	302.87	5.04	-54.7	-70.7	3.8	1.49e+00	0	27	104	0	74	24198
2026-01-14 05:21:58.73	302.77	4.97	-54.7	-70.7	3.8	1.49e+00	0	27	104	0	74	24208
2026-01-14 05:21:59.60	302.71	4.91	-54.7	-70.7	3.9	1.49e+00	0	28	104	0	74	24167
2026-01-14 05:22:00.75	302.62	4.84	-54.7	-70.7	3.8	1.49e+00	0	28	104	0	74	24162
2026-01-14 05:22:01.62	302.55	4.79	-54.7	-70.7	3.8	1.49e+00	0	28	104	0	74	24164
2026-01-14 05:22:02.77	302.46	4.72	-54.7	-70.7	3.8	1.49e+00	0	27	104	0	74	24173
2026-01-14 05:22:03.64	302.39	4.67	-54.7	-70.7	3.8	1.49e+00	0	27	104	0	74	24207
2026-01-14 05:22:04.79	302.30	4.60	-54.7	-70.7	3.8	1.49e+00	0	28	104	0	74	24177
2026-01-14 05:22:05.65	302.24	4.55	-54.7	-70.7	3.8	1.49e+00	0	28	104	0	74	24178
2026-01-14 05:22:06.81	302.15	4.48	-54.7	-70.7	3.8	1.49e+00	0	28	104	0	74	24215
2026-01-14 05:22:07.67	302.08	4.43	-54.7	-70.7	3.8	1.49e+00	0	27	104	0	74	24171
2026-01-14 05:22:08.82	302.00	4.36	-54.7	-70.7	3.8	1.49e+00	0	27	104	0	74	24231
2026-01-14 05:22:09.69	301.93	4.31	-54.7	-70.7	3.8	1.49e+00	0	27	104	0	74	24219
2026-01-14 05:22:10.84	301.85	4.24	-54.7	-70.7	3.8	1.49e+00	0	28	104	0	74	24136
2026-01-14 05:22:11.71	301.78	4.19	-54.7	-70.7	3.8	1.49e+00	0	28	104	0	74	24219
2026-01-14 05:22:12.86	301.70	4.12	-54.7	-70.7	3.8	1.49e+00	0	28	104	0	74	24201
2026-01-14 05:22:13.72	301.63	4.07	-54.7	-70.7	3.8	1.49e+00	0	28	104	0	74	24164
2026-01-14 05:22:14.87	301.55	4.00	-54.7	-70.7	3.8	1.49e+00	0	28	104	0	74	24217
2026-01-14 05:22:15.74	301.48	3.95	-54.7	-70.7	3.8	1.49e+00	0	27	104	0	74	24210
2026-01-14 05:22:16.88	301.40	3.88	-54.7	-70.7	3.8	1.49e+00	0	28	104	0	74	24135
2026-01-14 05:22:17.75	301.34	3.83	-54.7	-70.7	3.8	1.49e+00	0	27	104	0	74	24177
2026-01-14 05:22:18.90	301.25	3.76	-54.7	-70.7	3.8	1.49e+00	0	28	104	0	74	24214
2026-01-14 05:22:19.77	301.19	3.71	-54.7	-70.7	3.8	1.49e+00	0	28	104	0	74	24179
2026-01-14 05:22:20.92	301.11	3.64	-54.7	-70.7	3.8	1.49e+00	0	28	104	0	74	24184
2026-01-14 05:22:21.79	301.05	3.59	-54.7	-70.7	3.8	1.49e+00	0	27	104	0	74	24172
2026-01-14 05:22:22.94	300.96	3.52	-54.7	-70.7	3.8	1.49e+00	0	27	104	0	74	24194
2026-01-14 05:22:23.80	300.90	3.47	-54.7	-70.7	3.8	1.49e+00	0	27	104	0	74	24161
2026-01-14 05:22:24.96	300.82	3.40	-54.7	-70.7	3.8	1.49e+00	0	28	104	0	74	24268
2026-01-14 05:22:25.82	300.76	3.35	-54.7	-70.7	3.8	1.49e+00	0	27	104	0	74	24173
2026-01-14 05:22:26.98	300.68	3.29	-54.7	-70.7	3.8	1.49e+00	0	28	104	0	74	24235
2026-01-14 05:22:27.84	300.62	3.24	-54.7	-70.7	3.8	1.49e+00	0	27	104	0	74	24153
2026-01-14 05:22:28.99	300.54	3.17	-54.7	-70.7	3.8	1.49e+00	0	27	104	0	74	24181
2026-01-14 05:22:29.85	300.48	3.12	-54.7	-70.7	3.8	1.49e+00	0	27	104	0	74	24177
2026-01-14 05:22:31.01	300.40	3.05	-54.7	-70.7	3.8	1.49e+00	0	27	104	0	74	24189
2026-01-14 05:22:31.88	300.34	3.00	-54.7	-70.7	3.8	1.49e+00	0	27	104	0	74	24196
2026-01-14 05:22:33.03	300.26	2.93	-54.7	-70.7	3.8	1.49e+00	0	28	104	0	74	24205
2026-01-14 05:22:33.90	300.20	2.88	-54.7	-70.7	3.8	1.49e+00	0	28	104	0	74	24161
2026-01-14 05:22:35.05	300.13	2.82	-54.7	-70.7	3.8	1.49e+00	0	28	104	0	74	24194
2026-01-14 05:22:35.91	300.07	2.77	-54.7	-70.7	3.8	1.49e+00	0	27	104	0	74	24165
2026-01-14 05:22:37.07	299.99	2.70	-54.7	-70.7	3.8	1.49e+00	0	28	104	0	74	24151
2026-01-14 05:22:37.93	299.93	2.65	-54.7	-70.7	3.8	1.49e+00	0	28	104	0	74	24181
2026-01-14 05:22:39.09	299.85	2.59	-54.7	-70.7	3.8	1.49e+00	0	28	104	0	74	24190
2026-01-14 05:22:39.95	299.80	2.54	-54.7	-70.7	3.8	1.49e+00	0	28	104	0	74	24136
