passes_logs/2026/01/14/R3.2S_Murmansk/R3.2S_Murmansk__20260114_234445_KANOPUS-V_5_rec.log

#Pass ID: 20260114_234445_KANOPUS-V 5
#Satellite: KANOPUS-V 5
#Configuration: KANOPUS-V_8320
#almurnet v.1.7.20251203
#Start time: 2026-01-14 23:44:47

#Version: 2.2.20231116
#Station: R3.2S_Murmansk
#Location: 33.079688 lon 68.888172 lat
#TLE: 1 43876U 18111A   26014.64517351  .00002226  00000+0  96418-4 0  9998
#TLE: 2 43876  97.3685 283.1659 0001742  85.8061 274.3376 15.23434183391418

#Time	Az	El	Level	Level2	SNR	BER	BlckErr	Temp	State	Recorded	gain1	gain2
2026-01-14 23:44:47.53	22.43	2.15	-59.3	-69.0	3.8	7.46e-01	0	26	0	0	82	11238
2026-01-14 23:44:48.54	22.37	2.22	-59.3	-69.0	3.8	7.46e-01	0	26	104	0	83	10648
2026-01-14 23:44:49.54	22.31	2.29	-59.3	-69.1	3.8	7.45e-01	0	26	104	0	83	10663
2026-01-14 23:44:50.54	22.25	2.36	-59.3	-69.0	3.8	7.47e-01	0	26	104	0	83	10647
2026-01-14 23:44:51.54	22.18	2.42	-59.3	-69.0	3.8	7.45e-01	0	26	104	0	83	10646
2026-01-14 23:44:52.54	22.12	2.49	-59.3	-69.0	3.8	7.45e-01	0	26	104	0	83	10612
2026-01-14 23:44:53.54	22.06	2.56	-59.3	-69.0	3.8	7.45e-01	0	26	104	0	83	10649
2026-01-14 23:44:54.55	22.00	2.63	-59.3	-69.1	3.8	7.46e-01	0	26	104	0	83	10658
2026-01-14 23:44:55.55	21.94	2.69	-59.3	-69.0	3.8	7.46e-01	0	26	104	0	83	10641
2026-01-14 23:44:56.56	21.87	2.76	-59.3	-69.0	3.8	7.46e-01	0	26	104	0	83	10643
2026-01-14 23:44:57.56	21.81	2.83	-59.3	-69.1	3.8	7.46e-01	0	26	104	0	83	10671
2026-01-14 23:44:58.56	21.74	2.90	-59.3	-69.1	3.8	7.45e-01	0	26	104	0	83	10664
2026-01-14 23:44:59.55	21.68	2.97	-59.3	-69.0	3.8	7.45e-01	0	26	104	0	83	10655
2026-01-14 23:45:00.52	21.62	3.03	-59.3	-69.1	3.8	7.44e-01	0	26	104	0	83	10714
2026-01-14 23:45:01.52	21.55	3.10	-59.3	-69.1	3.8	7.44e-01	0	26	104	0	83	10671
2026-01-14 23:45:02.52	21.49	3.17	-59.3	-69.1	3.8	7.48e-01	0	26	104	0	83	10696
2026-01-14 23:45:03.52	21.42	3.24	-59.3	-69.0	3.8	7.47e-01	0	26	104	0	83	10643
2026-01-14 23:45:04.52	21.35	3.31	-59.3	-69.0	3.8	7.44e-01	0	26	104	0	83	10645
2026-01-14 23:45:05.52	21.29	3.38	-59.3	-69.1	3.8	7.44e-01	0	27	104	0	83	10669
2026-01-14 23:45:06.53	21.22	3.45	-59.3	-69.0	3.8	7.45e-01	0	27	104	0	83	10647
2026-01-14 23:45:07.52	21.15	3.52	-59.3	-69.0	3.8	7.45e-01	0	26	104	0	83	10654
2026-01-14 23:45:08.52	21.08	3.59	-59.3	-69.1	3.8	7.47e-01	0	27	104	0	83	10669
2026-01-14 23:45:09.52	21.01	3.66	-59.3	-69.1	3.8	7.43e-01	0	27	104	0	83	10673
2026-01-14 23:45:10.52	20.95	3.73	-59.3	-69.1	3.8	7.45e-01	0	26	104	0	83	10702
2026-01-14 23:45:11.53	20.87	3.81	-59.3	-69.1	3.8	7.45e-01	0	27	104	0	83	10686
2026-01-14 23:45:12.53	20.80	3.88	-59.3	-69.1	3.8	7.47e-01	0	27	104	0	83	10658
2026-01-14 23:45:13.52	20.74	3.95	-59.3	-69.0	3.8	7.46e-01	0	27	104	0	83	10640
2026-01-14 23:45:14.52	20.66	4.02	-59.3	-69.0	3.8	7.46e-01	0	27	104	0	83	10641
2026-01-14 23:45:15.53	20.59	4.09	-59.3	-69.0	3.8	7.47e-01	0	27	104	0	83	10637
2026-01-14 23:45:16.53	20.52	4.16	-59.3	-69.1	3.8	7.46e-01	0	27	104	0	83	10675
2026-01-14 23:45:17.53	20.45	4.24	-59.3	-69.1	3.8	7.46e-01	0	27	104	0	83	10688
2026-01-14 23:45:18.53	20.37	4.31	-59.3	-69.1	3.8	7.45e-01	0	27	104	0	83	10689
2026-01-14 23:45:19.53	20.30	4.38	-59.3	-69.1	3.8	7.45e-01	0	27	104	0	83	10712
2026-01-14 23:45:20.53	20.23	4.45	-59.3	-69.1	3.8	7.45e-01	0	27	104	0	83	10656
2026-01-14 23:45:21.52	20.15	4.53	-59.3	-69.1	3.8	7.46e-01	0	27	104	0	83	10701
2026-01-14 23:45:22.51	20.08	4.60	-59.3	-69.1	3.8	7.45e-01	0	27	104	0	83	10685
2026-01-14 23:45:23.51	20.00	4.67	-59.3	-69.1	3.8	7.46e-01	0	27	104	0	83	10668
2026-01-14 23:45:24.51	19.93	4.75	-59.3	-69.0	3.8	7.46e-01	0	27	104	0	83	10649
2026-01-14 23:45:25.51	19.85	4.82	-59.3	-69.1	3.8	7.44e-01	0	27	104	0	83	10706
2026-01-14 23:45:26.51	19.77	4.90	-59.3	-69.1	3.8	7.46e-01	0	27	104	0	83	10659
2026-01-14 23:45:27.50	19.70	4.97	-59.3	-69.1	3.8	7.45e-01	0	27	104	0	83	10687
2026-01-14 23:45:28.50	19.62	5.05	-59.3	-69.1	3.8	7.44e-01	0	27	104	0	83	10713
2026-01-14 23:45:29.50	19.54	5.12	-59.4	-69.2	3.8	7.46e-01	0	27	104	0	83	10795
2026-01-14 23:45:30.50	19.46	5.20	-59.4	-69.2	3.8	7.46e-01	0	27	104	0	83	10781
2026-01-14 23:45:31.49	19.38	5.27	-59.4	-69.2	3.8	7.47e-01	0	27	104	0	83	10824
2026-01-14 23:45:32.48	19.30	5.35	-59.4	-69.2	3.8	7.47e-01	0	27	104	0	83	10841
2026-01-14 23:45:33.47	19.22	5.42	-59.4	-69.1	3.8	7.47e-01	0	27	104	0	83	10740
2026-01-14 23:45:34.48	19.14	5.50	-59.4	-69.2	3.8	7.45e-01	0	27	104	0	83	10822
2026-01-14 23:45:35.47	19.06	5.57	-59.5	-69.2	3.8	7.45e-01	0	27	104	0	83	10849
2026-01-14 23:45:36.47	18.98	5.65	-59.5	-69.3	3.8	7.46e-01	0	27	104	0	83	10906
2026-01-14 23:45:37.47	18.90	5.73	-59.4	-69.1	3.8	7.45e-01	0	27	104	0	83	10758
2026-01-14 23:45:38.46	18.81	5.81	-59.5	-69.2	3.8	7.46e-01	0	27	104	0	83	10897
2026-01-14 23:45:39.46	18.73	5.88	-59.5	-69.2	3.8	7.45e-01	0	27	104	0	83	10844
2026-01-14 23:45:40.46	18.64	5.96	-59.5	-69.3	3.8	7.45e-01	0	27	104	0	83	10907
2026-01-14 23:45:41.46	18.56	6.04	-59.5	-69.2	3.8	7.46e-01	0	27	104	0	83	10850
2026-01-14 23:45:42.45	18.47	6.12	-59.5	-69.3	3.8	7.48e-01	0	27	104	0	83	10929
2026-01-14 23:45:43.46	18.39	6.20	-59.5	-69.3	3.8	7.46e-01	0	27	104	0	83	10964
2026-01-14 23:45:44.46	18.30	6.28	-59.6	-69.3	3.8	7.47e-01	0	27	104	0	83	10969
2026-01-14 23:45:45.45	18.21	6.35	-59.5	-69.3	3.8	7.46e-01	0	27	104	0	83	10933
2026-01-14 23:45:46.46	18.12	6.43	-59.6	-69.3	3.8	7.44e-01	0	27	104	0	83	11012
2026-01-14 23:45:47.46	18.03	6.51	-59.6	-69.3	3.8	7.45e-01	0	27	104	0	83	10964
2026-01-14 23:45:48.46	17.94	6.59	-59.6	-69.3	3.8	7.45e-01	0	27	104	0	83	11017
2026-01-14 23:45:49.47	17.85	6.68	-59.6	-69.3	3.8	7.44e-01	0	27	104	0	83	11020
2026-01-14 23:45:50.46	17.76	6.76	-59.6	-69.4	3.8	7.47e-01	0	27	104	0	83	11049
2026-01-14 23:45:51.47	17.67	6.84	-59.6	-69.4	3.8	7.45e-01	0	27	104	0	83	11048
2026-01-14 23:45:52.47	17.58	6.92	-59.6	-69.4	3.8	7.44e-01	0	27	104	0	83	11096
2026-01-14 23:45:53.47	17.48	7.00	-59.6	-69.4	3.8	7.46e-01	0	27	104	0	83	11033
2026-01-14 23:45:54.47	17.39	7.08	-59.7	-69.4	3.8	7.45e-01	0	27	104	0	83	11102
2026-01-14 23:45:55.46	17.30	7.16	-59.7	-69.4	3.8	7.46e-01	0	27	104	0	83	11090
2026-01-14 23:45:56.46	17.20	7.25	-59.7	-69.4	3.8	7.45e-01	0	27	104	0	83	11151
2026-01-14 23:45:57.46	17.10	7.33	-59.6	-69.4	3.8	7.45e-01	0	27	104	0	83	11096
2026-01-14 23:45:58.46	17.01	7.41	-59.7	-69.4	3.8	7.46e-01	0	28	104	0	83	11137
2026-01-14 23:45:59.46	16.91	7.49	-59.7	-69.4	3.8	7.46e-01	0	27	104	0	83	11115
2026-01-14 23:46:00.46	16.81	7.58	-59.7	-69.5	3.8	7.46e-01	0	27	104	0	83	11205
2026-01-14 23:46:01.46	16.71	7.66	-59.7	-69.5	3.8	7.47e-01	0	27	104	0	83	11161
2026-01-14 23:46:02.46	16.61	7.75	-59.7	-69.5	3.8	7.46e-01	0	27	104	0	83	11208
2026-01-14 23:46:03.45	16.51	7.83	-59.7	-69.5	3.8	7.46e-01	0	27	104	0	83	11221
2026-01-14 23:46:04.46	16.41	7.92	-59.8	-69.5	3.8	7.46e-01	0	27	104	0	83	11219
2026-01-14 23:46:05.46	16.31	8.00	-59.7	-69.5	3.8	7.47e-01	0	28	104	0	83	11186
2026-01-14 23:46:06.46	16.21	8.09	-59.8	-69.5	3.8	7.47e-01	0	27	104	0	83	11240
2026-01-14 23:46:07.45	16.11	8.17	-59.8	-69.5	3.8	7.46e-01	0	28	104	0	83	11248
2026-01-14 23:46:08.45	16.00	8.26	-59.8	-69.6	3.8	7.46e-01	0	27	104	0	83	11308
2026-01-14 23:46:09.45	15.90	8.34	-59.8	-69.5	3.8	7.45e-01	0	27	104	0	83	11268
2026-01-14 23:46:10.45	15.79	8.43	-59.8	-69.6	3.8	7.46e-01	0	28	104	0	83	11306
2026-01-14 23:46:11.45	15.68	8.52	-59.8	-69.5	3.8	7.46e-01	0	28	104	0	83	11270
2026-01-14 23:46:12.45	15.58	8.60	-59.8	-69.6	3.8	7.46e-01	0	28	104	0	83	11353
2026-01-14 23:46:13.45	15.47	8.69	-59.8	-69.6	3.8	7.46e-01	0	27	104	0	83	11305
2026-01-14 23:46:14.45	15.36	8.78	-59.8	-69.6	3.8	7.47e-01	0	28	104	0	83	11333
2026-01-14 23:46:15.44	15.25	8.87	-59.8	-69.5	3.8	7.44e-01	0	27	104	0	83	11281
2026-01-14 23:46:16.44	15.14	8.96	-59.9	-69.6	3.8	7.45e-01	0	28	104	0	83	11412
2026-01-14 23:46:17.44	15.03	9.05	-59.8	-69.6	3.8	7.45e-01	0	28	104	0	83	11326
2026-01-14 23:46:18.45	14.91	9.14	-59.9	-69.6	3.8	7.46e-01	0	28	104	0	83	11389
2026-01-14 23:46:19.44	14.80	9.22	-59.9	-69.6	3.8	7.46e-01	0	28	104	0	83	11404
2026-01-14 23:46:20.44	14.69	9.31	-59.9	-69.6	3.8	7.46e-01	0	28	104	0	83	11390
2026-01-14 23:46:21.44	14.57	9.40	-59.9	-69.6	3.8	7.45e-01	0	28	104	0	83	11408
2026-01-14 23:46:22.44	14.46	9.49	-59.9	-69.6	3.8	7.45e-01	0	28	104	0	83	11384
2026-01-14 23:46:23.44	14.34	9.59	-59.9	-69.7	3.8	7.44e-01	0	28	104	0	83	11419
2026-01-14 23:46:24.44	14.22	9.68	-59.9	-69.7	3.8	7.45e-01	0	28	104	0	83	11465
2026-01-14 23:46:25.44	14.10	9.77	-59.9	-69.7	3.8	7.45e-01	0	28	104	0	83	11454
2026-01-14 23:46:26.43	13.98	9.86	-59.9	-69.6	3.8	7.47e-01	0	28	104	0	83	11415
2026-01-14 23:46:27.43	13.86	9.95	-59.9	-69.7	3.8	7.45e-01	0	28	104	0	83	11428
2026-01-14 23:46:28.42	13.74	10.04	-60.0	-69.7	3.8	7.46e-01	0	28	104	0	83	11491
2026-01-14 23:46:29.42	13.62	10.14	-59.9	-69.7	3.8	7.45e-01	0	28	104	0	83	11480
2026-01-14 23:46:30.42	13.49	10.23	-60.0	-69.7	3.8	7.46e-01	0	28	104	0	83	11448
2026-01-14 23:46:31.42	13.37	10.32	-59.9	-69.7	3.8	7.45e-01	0	28	104	0	83	11498
2026-01-14 23:46:32.42	13.24	10.42	-60.0	-69.7	3.8	7.45e-01	0	28	104	0	83	11522
2026-01-14 23:46:33.41	13.12	10.51	-59.9	-69.7	3.8	7.46e-01	0	28	104	0	83	11453
2026-01-14 23:46:34.41	12.99	10.61	-60.0	-69.7	3.8	7.46e-01	0	27	104	0	83	11503
2026-01-14 23:46:35.41	12.86	10.70	-59.9	-69.7	3.8	7.47e-01	0	28	104	0	83	11446
2026-01-14 23:46:36.41	12.73	10.80	-60.0	-69.7	3.8	7.47e-01	0	28	104	0	83	11547
2026-01-14 23:46:37.40	12.60	10.89	-60.0	-69.8	3.8	7.45e-01	0	28	104	0	83	11579
2026-01-14 23:46:38.40	12.47	10.99	-60.0	-69.7	3.8	7.45e-01	0	28	104	0	83	11520
2026-01-14 23:46:39.40	12.34	11.09	-60.0	-69.7	3.8	7.46e-01	0	28	104	0	83	11527
2026-01-14 23:46:40.40	12.20	11.18	-60.0	-69.8	3.8	7.43e-01	0	28	104	0	83	11565
2026-01-14 23:46:41.39	12.07	11.28	-60.0	-69.7	3.8	7.45e-01	0	28	104	0	83	11515
2026-01-14 23:46:42.40	11.93	11.38	-60.0	-69.8	3.8	7.46e-01	0	28	104	0	83	11612
2026-01-14 23:46:43.41	11.79	11.48	-60.0	-69.8	3.8	7.46e-01	0	28	104	0	83	11555
2026-01-14 23:46:44.41	11.65	11.58	-60.1	-69.8	3.8	7.44e-01	0	28	104	0	83	11669
2026-01-14 23:46:45.40	11.51	11.68	-60.1	-69.8	3.8	7.45e-01	0	28	104	0	83	11615
2026-01-14 23:46:46.40	11.37	11.78	-60.1	-69.8	3.8	7.44e-01	0	28	104	0	83	11673
2026-01-14 23:46:47.40	11.23	11.88	-60.1	-69.8	3.8	7.45e-01	0	28	104	0	83	11647
2026-01-14 23:46:48.39	11.09	11.97	-60.1	-69.9	3.8	7.47e-01	0	28	104	0	83	11703
2026-01-14 23:46:49.39	10.94	12.08	-60.1	-69.8	3.8	7.45e-01	0	28	104	0	83	11623
2026-01-14 23:46:50.39	10.79	12.18	-60.1	-69.8	3.8	7.46e-01	0	28	104	0	83	11652
2026-01-14 23:46:51.39	10.65	12.28	-60.1	-69.8	3.8	7.46e-01	0	28	104	0	83	11660
2026-01-14 23:46:52.39	10.50	12.38	-60.1	-69.9	3.8	7.46e-01	0	28	104	0	83	11747
2026-01-14 23:46:53.38	10.35	12.48	-60.1	-69.8	3.8	7.45e-01	0	28	104	0	83	11676
2026-01-14 23:46:54.38	10.20	12.58	-60.1	-69.9	3.8	7.45e-01	0	28	104	0	83	11709
2026-01-14 23:46:55.38	10.05	12.69	-60.1	-69.8	3.8	7.45e-01	0	28	104	0	83	11670
2026-01-14 23:46:56.38	9.89	12.79	-60.2	-69.9	3.8	7.46e-01	0	28	104	0	83	11727
2026-01-14 23:46:57.38	9.74	12.89	-60.1	-69.9	3.8	7.45e-01	0	28	104	0	83	11776
2026-01-14 23:46:58.38	9.58	13.00	-60.2	-69.9	3.8	7.45e-01	0	28	104	0	83	11742
2026-01-14 23:46:59.38	9.42	13.10	-60.1	-69.9	3.8	7.45e-01	0	28	104	0	83	11742
2026-01-14 23:47:00.37	9.26	13.21	-60.2	-69.9	3.8	7.47e-01	0	28	104	0	83	11766
2026-01-14 23:47:01.36	9.10	13.31	-60.2	-69.9	3.8	7.45e-01	0	28	104	0	83	11775
2026-01-14 23:47:02.36	8.94	13.42	-60.2	-69.9	3.8	7.44e-01	0	28	104	0	83	11782
2026-01-14 23:47:03.36	8.78	13.52	-60.2	-69.9	3.8	7.45e-01	0	28	104	0	83	11758
2026-01-14 23:47:04.36	8.61	13.63	-60.2	-70.0	3.8	7.46e-01	0	28	104	0	83	11866
2026-01-14 23:47:05.35	8.45	13.74	-60.2	-70.0	3.8	7.46e-01	0	28	104	0	83	11836
2026-01-14 23:47:06.34	8.28	13.84	-60.2	-70.0	3.8	7.47e-01	0	28	104	0	83	11837
2026-01-14 23:47:07.34	8.11	13.95	-60.2	-70.0	3.8	7.45e-01	0	28	104	0	83	11829
2026-01-14 23:47:08.34	7.94	14.06	-60.2	-70.0	3.8	7.47e-01	0	28	104	0	83	11843
2026-01-14 23:47:09.34	7.77	14.17	-60.2	-70.0	3.8	7.46e-01	0	28	104	0	83	11822
2026-01-14 23:47:10.34	7.59	14.28	-60.2	-70.0	3.8	7.45e-01	0	28	104	0	83	11871
2026-01-14 23:47:11.34	7.42	14.39	-60.2	-69.9	3.8	7.47e-01	0	28	104	0	83	11798
2026-01-14 23:47:12.34	7.24	14.50	-60.3	-70.0	3.8	7.46e-01	0	28	104	0	83	11852
2026-01-14 23:47:13.34	7.06	14.61	-60.2	-70.0	3.8	7.46e-01	0	28	104	0	83	11839
2026-01-14 23:47:14.34	6.88	14.72	-60.2	-70.0	3.8	7.47e-01	0	28	104	0	83	11869
2026-01-14 23:47:15.32	6.70	14.83	-60.2	-70.0	3.8	7.45e-01	0	28	104	0	83	11830
2026-01-14 23:47:16.32	6.52	14.94	-60.3	-70.0	3.8	7.45e-01	0	28	104	0	83	11907
2026-01-14 23:47:17.32	6.33	15.05	-60.2	-70.0	3.8	7.45e-01	0	28	104	0	83	11885
2026-01-14 23:47:18.32	6.15	15.16	-60.3	-70.0	3.8	7.45e-01	0	28	104	0	83	11923
2026-01-14 23:47:19.31	5.96	15.27	-60.2	-70.0	3.8	7.47e-01	0	28	104	0	83	11898
2026-01-14 23:47:20.30	5.77	15.39	-60.3	-70.0	3.8	7.44e-01	0	28	104	0	83	11920
2026-01-14 23:47:21.30	5.58	15.50	-60.3	-70.0	3.8	7.46e-01	0	28	104	0	83	11903
2026-01-14 23:47:22.31	5.38	15.62	-60.3	-70.1	3.8	7.47e-01	0	28	104	0	83	11967
2026-01-14 23:47:23.31	5.19	15.73	-60.3	-70.0	3.8	7.46e-01	0	28	104	0	83	11917
2026-01-14 23:47:24.31	4.99	15.84	-60.3	-70.0	3.8	7.44e-01	0	28	104	0	83	11953
2026-01-14 23:47:25.30	4.79	15.96	-60.3	-70.0	3.8	7.45e-01	0	28	104	0	83	11921
2026-01-14 23:47:26.30	4.59	16.07	-60.3	-70.1	3.8	7.45e-01	0	28	104	0	83	11988
2026-01-14 23:47:27.30	4.38	16.19	-60.3	-70.1	3.8	7.47e-01	0	28	104	0	83	11965
2026-01-14 23:47:28.29	4.18	16.31	-60.3	-70.1	3.8	7.46e-01	0	28	104	0	83	12052
2026-01-14 23:47:29.29	3.97	16.42	-60.3	-70.1	3.8	7.45e-01	0	28	104	0	83	12018
2026-01-14 23:47:30.29	3.77	16.54	-60.3	-70.1	3.8	7.44e-01	0	28	104	0	83	11977
2026-01-14 23:47:31.28	3.56	16.66	-60.3	-70.1	3.8	7.47e-01	0	28	104	0	83	11957
2026-01-14 23:47:32.27	3.35	16.77	-60.4	-70.1	3.8	7.46e-01	0	28	104	0	83	12066
2026-01-14 23:47:33.27	3.13	16.89	-60.3	-70.1	3.8	7.46e-01	0	28	104	0	83	11999
2026-01-14 23:47:34.26	2.92	17.01	-60.4	-70.1	3.8	7.46e-01	0	28	104	0	83	12037
2026-01-14 23:47:35.26	2.70	17.13	-60.3	-70.1	3.8	7.46e-01	0	28	104	0	83	12011
2026-01-14 23:47:36.25	2.48	17.25	-60.4	-70.1	3.8	7.44e-01	0	28	104	0	83	12073
2026-01-14 23:47:37.24	2.26	17.37	-60.4	-70.1	3.8	7.47e-01	0	28	104	0	83	12028
2026-01-14 23:47:38.24	2.03	17.49	-60.4	-70.1	3.8	7.46e-01	0	28	104	0	83	12085
2026-01-14 23:47:39.24	1.80	17.61	-60.4	-70.1	3.8	7.45e-01	0	28	104	0	83	12057
2026-01-14 23:47:40.24	1.57	17.73	-60.4	-70.2	3.8	7.44e-01	0	28	104	0	83	12095
2026-01-14 23:47:41.23	1.34	17.85	-60.4	-70.1	3.8	7.45e-01	0	28	104	0	83	12058
2026-01-14 23:47:42.23	1.11	17.97	-60.4	-70.2	3.8	7.44e-01	0	28	104	0	83	12098
2026-01-14 23:47:43.24	0.87	18.09	-60.4	-70.1	3.8	7.46e-01	0	28	104	0	83	12051
2026-01-14 23:47:44.23	0.64	18.21	-60.6	-70.3	3.8	7.45e-01	0	28	104	0	84	11643
2026-01-14 23:47:45.23	0.40	18.34	-60.6	-70.3	3.8	7.46e-01	0	28	104	0	84	11608
2026-01-14 23:47:46.23	0.15	18.46	-60.6	-70.3	3.8	7.47e-01	0	28	104	0	84	11664
2026-01-14 23:47:47.22	359.91	18.58	-60.6	-70.3	3.8	7.44e-01	0	28	104	0	84	11619
2026-01-14 23:47:48.23	359.66	18.71	-60.6	-70.4	3.8	7.48e-01	0	28	104	0	84	11689
2026-01-14 23:47:49.23	359.41	18.83	-60.6	-70.3	3.8	7.45e-01	0	28	104	0	84	11640
2026-01-14 23:47:50.22	359.16	18.95	-60.6	-70.4	3.8	7.45e-01	0	28	104	0	84	11686
2026-01-14 23:47:51.23	358.90	19.08	-60.6	-70.3	3.8	7.44e-01	0	28	104	0	84	11654
2026-01-14 23:47:52.23	358.64	19.20	-60.6	-70.4	3.8	7.46e-01	0	28	104	0	84	11686
2026-01-14 23:47:53.23	358.38	19.33	-60.6	-70.3	3.8	7.46e-01	0	28	104	0	84	11655
2026-01-14 23:47:54.22	358.12	19.45	-60.6	-70.4	3.8	7.45e-01	0	28	104	0	84	11704
2026-01-14 23:47:55.22	357.86	19.58	-60.6	-70.4	3.8	7.46e-01	0	28	104	0	84	11686
2026-01-14 23:47:56.22	357.59	19.70	-60.6	-70.4	3.8	7.47e-01	0	28	104	0	84	11744
2026-01-14 23:47:57.22	357.32	19.83	-60.6	-70.3	3.8	7.45e-01	0	28	104	0	84	11668
2026-01-14 23:47:58.22	357.05	19.95	-60.6	-70.4	3.8	7.46e-01	0	28	104	0	84	11756
2026-01-14 23:47:59.22	356.78	20.08	-60.6	-70.3	3.8	7.45e-01	0	28	104	0	84	11669
2026-01-14 23:48:00.22	356.50	20.21	-60.7	-70.4	3.8	7.46e-01	0	28	104	0	84	11779
2026-01-14 23:48:01.22	356.22	20.33	-60.6	-70.4	3.8	7.46e-01	0	28	104	0	84	11719
2026-01-14 23:48:02.22	355.93	20.46	-60.7	-70.4	3.8	7.45e-01	0	28	104	0	84	11734
2026-01-14 23:48:03.22	355.65	20.59	-60.6	-70.4	3.8	7.46e-01	0	28	104	0	84	11726
2026-01-14 23:48:04.22	355.36	20.71	-60.7	-70.4	3.8	7.45e-01	0	28	104	0	84	11795
2026-01-14 23:48:05.21	355.07	20.84	-60.7	-70.4	3.8	7.46e-01	0	28	104	0	84	11776
2026-01-14 23:48:06.20	354.78	20.96	-60.7	-70.5	3.8	7.45e-01	0	28	104	0	84	11845
2026-01-14 23:48:07.20	354.48	21.09	-60.7	-70.4	3.8	7.46e-01	0	28	104	0	84	11789
2026-01-14 23:48:08.20	354.18	21.22	-60.7	-70.5	3.8	7.46e-01	0	28	104	0	84	11829
2026-01-14 23:48:09.20	353.88	21.35	-60.7	-70.4	3.8	7.45e-01	0	28	104	0	84	11762
2026-01-14 23:48:10.19	353.58	21.47	-60.7	-70.4	3.8	7.46e-01	0	28	104	0	84	11800
2026-01-14 23:48:11.19	353.27	21.60	-60.7	-70.4	3.8	7.45e-01	0	28	104	0	84	11802
2026-01-14 23:48:12.19	352.96	21.73	-60.7	-70.5	3.8	7.46e-01	0	28	104	0	84	11834
2026-01-14 23:48:13.19	352.64	21.85	-60.7	-70.5	3.8	7.46e-01	0	28	104	0	84	11843
2026-01-14 23:48:14.19	352.33	21.98	-60.7	-70.5	3.8	7.45e-01	0	28	104	0	84	11863
2026-01-14 23:48:15.19	352.01	22.11	-60.7	-70.5	3.8	7.46e-01	0	28	104	0	84	11876
2026-01-14 23:48:16.19	351.68	22.24	-60.8	-70.5	3.8	7.46e-01	0	28	104	0	84	11861
2026-01-14 23:48:17.19	351.36	22.36	-60.7	-70.5	3.8	7.45e-01	0	28	104	0	84	11863
2026-01-14 23:48:18.18	351.03	22.49	-60.8	-70.5	3.8	7.47e-01	0	28	104	0	84	11877
2026-01-14 23:48:19.18	350.70	22.62	-60.7	-70.5	3.8	7.47e-01	0	28	104	0	84	11835
2026-01-14 23:48:20.18	350.36	22.74	-60.8	-70.5	3.8	7.46e-01	0	28	104	0	84	11912
2026-01-14 23:48:21.18	350.03	22.87	-60.8	-70.5	3.8	7.44e-01	0	28	104	0	84	11871
2026-01-14 23:48:22.18	349.68	23.00	-60.8	-70.5	3.8	7.48e-01	0	28	104	0	84	11898
2026-01-14 23:48:23.17	349.34	23.12	-60.7	-70.5	3.8	7.44e-01	0	28	104	0	84	11863
2026-01-14 23:48:24.17	348.99	23.25	-60.8	-70.5	3.8	7.46e-01	0	29	104	0	84	11945
2026-01-14 23:48:25.17	348.64	23.37	-60.8	-70.5	3.8	7.44e-01	0	28	104	0	84	11892
2026-01-14 23:48:26.17	348.29	23.50	-60.8	-70.5	3.8	7.45e-01	0	28	104	0	84	11907
2026-01-14 23:48:27.16	347.94	23.62	-60.8	-70.5	3.8	7.46e-01	0	28	104	0	84	11871
2026-01-14 23:48:28.16	347.57	23.75	-60.8	-70.5	3.8	7.46e-01	0	28	104	0	84	11952
2026-01-14 23:48:29.15	347.21	23.87	-60.8	-70.5	3.8	7.47e-01	0	28	104	0	84	11914
2026-01-14 23:48:30.14	346.85	23.99	-60.8	-70.6	3.8	7.46e-01	0	28	104	0	84	12008
2026-01-14 23:48:31.14	346.48	24.12	-60.8	-70.5	3.8	7.47e-01	0	28	104	0	84	11947
2026-01-14 23:48:32.14	346.11	24.24	-60.8	-70.6	3.8	7.45e-01	0	28	104	0	84	12000
2026-01-14 23:48:33.14	345.73	24.36	-60.8	-70.6	3.8	7.46e-01	0	28	104	0	84	11971
2026-01-14 23:48:34.13	345.35	24.48	-60.8	-70.6	3.8	7.44e-01	0	28	104	0	84	11994
2026-01-14 23:48:35.13	344.97	24.60	-60.8	-70.6	3.8	7.44e-01	0	28	104	0	84	11989
2026-01-14 23:48:36.12	344.59	24.72	-60.9	-70.6	3.8	7.47e-01	0	28	104	0	84	12071
2026-01-14 23:48:37.12	344.20	24.84	-60.9	-70.6	3.8	7.47e-01	0	28	104	0	84	12025
2026-01-14 23:48:38.12	343.80	24.96	-60.9	-70.6	3.8	7.46e-01	0	28	104	0	84	12055
2026-01-14 23:48:39.12	343.40	25.08	-60.8	-70.6	3.8	7.46e-01	0	28	104	0	84	12050
2026-01-14 23:48:40.12	343.00	25.20	-60.9	-70.6	3.8	7.46e-01	0	28	104	0	84	12090
2026-01-14 23:48:41.11	342.60	25.31	-60.9	-70.6	3.8	7.45e-01	0	28	104	0	84	12061
2026-01-14 23:48:42.11	342.20	25.43	-60.9	-70.6	3.8	7.45e-01	0	28	104	0	84	12084
2026-01-14 23:48:43.10	341.79	25.54	-60.9	-70.6	3.8	7.46e-01	0	28	104	0	84	12066
2026-01-14 23:48:44.10	341.38	25.66	-60.9	-70.7	3.8	7.46e-01	0	28	104	0	85	11453
2026-01-14 23:48:45.10	340.96	25.77	-60.9	-70.7	3.8	7.46e-01	0	28	104	0	85	11429
2026-01-14 23:48:46.10	340.54	25.89	-60.9	-70.7	3.8	7.45e-01	0	28	104	0	85	11491
2026-01-14 23:48:47.11	340.11	26.00	-60.9	-70.7	3.8	7.44e-01	0	28	104	0	85	11435
2026-01-14 23:48:48.10	339.69	26.11	-61.0	-70.7	3.8	7.46e-01	0	28	104	0	85	11456
2026-01-14 23:48:49.10	339.26	26.22	-60.9	-70.7	3.8	7.47e-01	0	28	104	0	85	11431
2026-01-14 23:48:50.10	338.82	26.33	-61.0	-70.7	3.8	7.45e-01	0	28	104	0	85	11467
2026-01-14 23:48:51.10	338.39	26.43	-60.9	-70.7	3.8	7.46e-01	0	28	104	0	85	11442
2026-01-14 23:48:52.11	337.94	26.54	-61.0	-70.7	3.8	7.45e-01	0	28	104	0	85	11472
2026-01-14 23:48:53.11	337.50	26.65	-60.9	-70.7	3.8	7.46e-01	0	28	104	0	85	11420
2026-01-14 23:48:54.11	337.05	26.75	-61.0	-70.7	3.8	7.46e-01	0	28	104	0	85	11489
2026-01-14 23:48:55.11	336.60	26.85	-60.9	-70.6	3.8	7.47e-01	0	28	104	0	85	11417
2026-01-14 23:48:56.11	336.15	26.96	-61.0	-70.7	3.8	7.44e-01	0	28	104	0	85	11533
2026-01-14 23:48:57.11	335.69	27.05	-61.0	-70.7	3.8	7.43e-01	0	28	104	0	85	11524
2026-01-14 23:48:58.12	335.23	27.15	-61.0	-70.8	3.8	7.47e-01	0	28	104	0	85	11550
2026-01-14 23:48:59.12	334.76	27.25	-61.0	-70.7	3.8	7.46e-01	0	28	104	0	85	11537
2026-01-14 23:49:00.11	334.30	27.35	-61.0	-70.8	3.8	7.44e-01	0	28	104	0	85	11553
2026-01-14 23:49:01.12	333.83	27.44	-61.0	-70.7	3.8	7.46e-01	0	28	104	0	85	11547
2026-01-14 23:49:02.11	333.36	27.53	-61.0	-70.8	3.8	7.46e-01	0	28	104	0	85	11567
2026-01-14 23:49:03.11	332.89	27.62	-61.0	-70.7	3.8	7.46e-01	0	28	104	0	85	11500
2026-01-14 23:49:04.11	332.41	27.71	-61.0	-70.8	3.8	7.46e-01	0	28	104	0	85	11589
2026-01-14 23:49:05.10	331.93	27.80	-61.0	-70.7	3.8	7.45e-01	0	28	104	0	85	11539
2026-01-14 23:49:06.10	331.45	27.88	-61.0	-70.8	3.8	7.44e-01	0	28	104	0	85	11573
2026-01-14 23:49:07.10	330.96	27.97	-61.0	-70.7	3.8	7.46e-01	0	28	104	0	85	11523
2026-01-14 23:49:08.10	330.47	28.05	-61.0	-70.8	3.8	7.46e-01	0	28	104	0	85	11559
2026-01-14 23:49:09.10	329.98	28.13	-61.0	-70.8	3.8	7.44e-01	0	28	104	0	85	11604
2026-01-14 23:49:10.10	329.49	28.21	-61.0	-70.8	3.8	7.46e-01	0	28	104	0	85	11607
2026-01-14 23:49:11.10	328.99	28.28	-61.0	-70.8	3.8	7.45e-01	0	28	104	0	85	11622
2026-01-14 23:49:12.11	328.48	28.36	-61.0	-70.8	3.8	7.45e-01	0	28	104	0	85	11574
2026-01-14 23:49:13.11	327.98	28.43	-61.0	-70.8	3.8	7.46e-01	0	28	104	0	85	11576
2026-01-14 23:49:14.12	327.47	28.50	-61.1	-70.8	3.8	7.46e-01	0	28	104	0	85	11589
2026-01-14 23:49:15.12	326.96	28.57	-61.0	-70.8	3.8	7.47e-01	0	28	104	0	85	11617
2026-01-14 23:49:16.12	326.45	28.64	-61.1	-70.8	3.8	7.46e-01	0	28	104	0	85	11619
2026-01-14 23:49:17.11	325.95	28.70	-61.1	-70.8	3.8	7.47e-01	0	28	104	0	85	11638
2026-01-14 23:49:18.11	325.43	28.76	-61.1	-70.8	3.8	7.45e-01	0	28	104	0	85	11681
2026-01-14 23:49:19.12	324.91	28.82	-61.1	-70.8	3.8	7.46e-01	0	28	104	0	85	11600
2026-01-14 23:49:20.12	324.39	28.88	-61.1	-70.8	3.8	7.45e-01	0	28	104	0	85	11657
2026-01-14 23:49:21.12	323.87	28.93	-61.1	-70.8	3.8	7.45e-01	0	28	104	0	85	11640
2026-01-14 23:49:22.12	323.35	28.98	-61.1	-70.8	3.8	7.45e-01	0	28	104	0	85	11677
2026-01-14 23:49:23.13	322.82	29.03	-61.1	-70.8	3.8	7.45e-01	0	28	104	0	85	11586
2026-01-14 23:49:24.12	322.30	29.08	-61.1	-70.8	3.8	7.46e-01	0	28	104	0	85	11673
2026-01-14 23:49:25.11	321.77	29.13	-61.1	-70.8	3.8	7.45e-01	0	28	104	0	85	11681
2026-01-14 23:49:26.11	321.24	29.17	-61.1	-70.8	3.8	7.46e-01	0	28	104	0	85	11674
2026-01-14 23:49:27.10	320.72	29.21	-61.1	-70.9	3.8	7.45e-01	0	28	104	0	85	11690
2026-01-14 23:49:28.10	320.19	29.25	-61.1	-70.8	3.8	7.47e-01	0	28	104	0	85	11672
2026-01-14 23:49:29.09	319.66	29.28	-61.1	-70.8	3.8	7.45e-01	0	28	104	0	85	11657
2026-01-14 23:49:30.10	319.12	29.32	-61.1	-70.9	3.8	7.48e-01	0	28	104	0	85	11732
2026-01-14 23:49:31.10	318.58	29.35	-61.1	-70.9	3.8	7.44e-01	0	28	104	0	85	11686
2026-01-14 23:49:32.11	318.04	29.37	-61.1	-70.9	3.8	7.46e-01	0	28	104	0	85	11684
2026-01-14 23:49:33.12	317.50	29.40	-61.1	-70.8	3.8	7.46e-01	0	28	104	0	85	11633
2026-01-14 23:49:34.12	316.96	29.42	-61.1	-70.9	3.8	7.45e-01	0	28	104	0	85	11706
2026-01-14 23:49:35.13	316.41	29.44	-61.1	-70.9	3.8	7.46e-01	0	28	104	0	85	11707
2026-01-14 23:49:36.13	315.87	29.46	-61.1	-70.9	3.8	7.46e-01	0	28	104	0	85	11712
2026-01-14 23:49:37.12	315.34	29.47	-61.1	-70.9	3.8	7.46e-01	0	28	104	0	85	11734
2026-01-14 23:49:38.12	314.79	29.49	-61.2	-70.9	3.8	7.44e-01	0	28	104	0	85	11722
2026-01-14 23:49:39.12	314.25	29.49	-61.1	-70.9	3.8	7.45e-01	0	28	104	0	85	11705
2026-01-14 23:49:40.13	313.70	29.50	-61.1	-70.9	3.8	7.46e-01	0	28	104	0	85	11699
2026-01-14 23:49:41.13	313.16	29.51	-61.1	-70.9	3.8	7.44e-01	0	28	104	0	85	11692
2026-01-14 23:49:42.13	312.62	29.51	-61.1	-70.9	3.8	7.45e-01	0	28	104	0	85	11749
2026-01-14 23:49:43.13	312.08	29.51	-61.1	-70.8	3.8	7.46e-01	0	29	104	0	85	11683
2026-01-14 23:49:44.13	311.53	29.50	-61.2	-70.9	3.8	7.46e-01	0	28	104	0	85	11742
2026-01-14 23:49:45.14	310.99	29.49	-61.1	-70.9	3.8	7.47e-01	0	28	104	0	85	11752
2026-01-14 23:49:46.13	310.45	29.49	-61.2	-70.9	3.8	7.45e-01	0	28	104	0	85	11776
2026-01-14 23:49:47.13	309.91	29.47	-61.1	-70.9	3.8	7.46e-01	0	28	104	0	85	11710
2026-01-14 23:49:48.13	309.37	29.46	-61.2	-70.9	3.8	7.47e-01	0	28	104	0	85	11778
2026-01-14 23:49:49.13	308.83	29.44	-61.2	-70.9	3.8	7.47e-01	0	28	104	0	85	11717
2026-01-14 23:49:50.13	308.29	29.42	-61.2	-70.9	3.8	7.46e-01	0	28	104	0	85	11732
2026-01-14 23:49:51.13	307.75	29.40	-61.1	-70.9	3.8	7.47e-01	0	29	104	0	85	11770
2026-01-14 23:49:52.14	307.20	29.37	-61.2	-70.9	3.8	7.47e-01	0	28	104	0	85	11775
2026-01-14 23:49:53.14	306.66	29.35	-61.2	-70.9	3.8	7.45e-01	0	28	104	0	85	11767
2026-01-14 23:49:54.14	306.13	29.32	-61.1	-70.8	3.8	7.45e-01	0	28	104	0	85	11667
2026-01-14 23:49:55.15	305.59	29.28	-61.1	-70.8	3.8	7.46e-01	0	28	104	0	85	11591
2026-01-14 23:49:56.14	305.06	29.25	-61.1	-70.9	3.8	7.44e-01	0	28	104	0	85	11724
2026-01-14 23:49:57.14	304.53	29.21	-61.1	-70.9	3.8	7.46e-01	0	28	104	0	85	11720
2026-01-14 23:49:58.14	303.99	29.17	-61.2	-70.9	3.8	7.45e-01	0	28	104	0	85	11721
2026-01-14 23:49:59.14	303.46	29.13	-61.1	-70.9	3.8	7.45e-01	0	28	104	0	85	11733
2026-01-14 23:50:00.14	302.94	29.08	-61.2	-71.0	3.8	7.46e-01	0	28	104	0	85	11830
2026-01-14 23:50:01.14	302.41	29.03	-61.1	-70.9	3.8	7.46e-01	0	28	104	0	85	11712
2026-01-14 23:50:02.14	301.89	28.98	-61.2	-70.9	3.8	7.44e-01	0	28	104	0	85	11801
2026-01-14 23:50:03.15	301.36	28.93	-61.1	-70.9	3.8	7.45e-01	0	28	104	0	85	11692
2026-01-14 23:50:04.15	300.84	28.87	-61.2	-70.9	3.8	7.46e-01	0	28	104	0	85	11814
2026-01-14 23:50:05.15	300.32	28.82	-61.2	-70.9	3.8	7.46e-01	0	28	104	0	85	11785
2026-01-14 23:50:06.16	299.79	28.76	-61.2	-71.0	3.8	7.46e-01	0	28	104	0	85	11823
2026-01-14 23:50:07.16	299.28	28.70	-61.2	-70.9	3.8	7.45e-01	0	28	104	0	85	11799
2026-01-14 23:50:08.16	298.77	28.63	-61.2	-70.9	3.8	7.47e-01	0	28	104	0	85	11792
2026-01-14 23:50:09.15	298.26	28.57	-61.2	-70.9	3.8	7.44e-01	0	28	104	0	85	11781
2026-01-14 23:50:10.16	297.75	28.50	-61.2	-70.9	3.8	7.44e-01	0	28	104	0	85	11811
2026-01-14 23:50:11.16	297.24	28.43	-61.2	-70.9	3.8	7.44e-01	0	28	104	0	85	11807
2026-01-14 23:50:12.16	296.74	28.35	-61.2	-70.9	3.8	7.46e-01	0	28	104	0	85	11802
2026-01-14 23:50:13.16	296.24	28.28	-61.2	-71.0	3.8	7.46e-01	0	28	104	0	85	11823
2026-01-14 23:50:14.15	295.74	28.20	-61.2	-70.9	3.8	7.47e-01	0	28	104	0	85	11787
2026-01-14 23:50:15.16	295.24	28.12	-61.2	-70.9	3.8	7.44e-01	0	28	104	0	85	11787
2026-01-14 23:50:16.16	294.75	28.04	-61.2	-71.0	3.8	7.46e-01	0	28	104	0	85	11843
2026-01-14 23:50:17.16	294.26	27.96	-61.2	-71.0	3.8	7.45e-01	0	28	104	0	85	11846
2026-01-14 23:50:18.17	293.77	27.88	-61.2	-70.9	3.8	7.44e-01	0	28	104	0	85	11779
2026-01-14 23:50:19.16	293.29	27.79	-61.2	-70.9	3.8	7.46e-01	0	28	104	0	85	11766
2026-01-14 23:50:20.17	292.80	27.70	-61.2	-70.9	3.8	7.46e-01	0	28	104	0	85	11756
2026-01-14 23:50:21.18	292.32	27.61	-61.2	-70.9	3.8	7.45e-01	0	28	104	0	85	11762
2026-01-14 23:50:22.19	291.84	27.52	-61.1	-70.9	3.8	7.45e-01	0	28	104	0	85	11748
2026-01-14 23:50:23.18	291.37	27.43	-61.1	-70.9	3.8	7.46e-01	0	28	104	0	85	11711
2026-01-14 23:50:24.17	290.90	27.34	-61.1	-70.9	3.8	7.45e-01	0	28	104	0	85	11743
2026-01-14 23:50:25.18	290.43	27.24	-61.1	-70.9	3.8	7.47e-01	0	28	104	0	85	11702
2026-01-14 23:50:26.17	289.97	27.14	-61.1	-70.9	3.8	7.47e-01	0	28	104	0	85	11741
2026-01-14 23:50:27.18	289.51	27.04	-61.1	-70.8	3.8	7.46e-01	0	28	104	0	85	11657
2026-01-14 23:50:28.18	289.05	26.94	-61.1	-70.9	3.8	7.46e-01	0	29	104	0	85	11710
2026-01-14 23:50:29.17	288.60	26.84	-61.1	-70.8	3.8	7.46e-01	0	28	104	0	85	11671
2026-01-14 23:50:30.17	288.15	26.74	-61.1	-70.8	3.8	7.45e-01	0	28	104	0	85	11677
2026-01-14 23:50:31.17	287.70	26.64	-61.1	-70.8	3.8	7.46e-01	0	28	104	0	85	11673
2026-01-14 23:50:32.17	287.26	26.53	-61.1	-70.8	3.8	7.47e-01	0	29	104	0	85	11670
2026-01-14 23:50:33.17	286.82	26.42	-61.1	-70.8	3.8	7.46e-01	0	28	104	0	85	11605
2026-01-14 23:50:34.17	286.38	26.32	-61.1	-70.8	3.8	7.46e-01	0	28	104	0	85	11609
2026-01-14 23:50:35.17	285.95	26.21	-61.1	-70.8	3.8	7.46e-01	0	28	104	0	85	11619
2026-01-14 23:50:36.16	285.52	26.10	-61.1	-70.8	3.8	7.44e-01	0	28	104	0	85	11676
2026-01-14 23:50:37.16	285.09	25.99	-61.1	-70.8	3.8	7.45e-01	0	28	104	0	85	11632
2026-01-14 23:50:38.16	284.67	25.87	-61.1	-70.8	3.8	7.44e-01	0	28	104	0	85	11600
2026-01-14 23:50:39.16	284.24	25.76	-61.1	-70.8	3.8	7.47e-01	0	29	104	0	85	11587
2026-01-14 23:50:40.17	283.82	25.65	-61.1	-70.8	3.8	7.45e-01	0	28	104	0	85	11630
2026-01-14 23:50:41.16	283.41	25.53	-61.0	-70.8	3.8	7.45e-01	0	28	104	0	85	11613
2026-01-14 23:50:42.16	283.00	25.42	-61.0	-70.7	3.8	7.45e-01	0	28	104	0	85	11530
2026-01-14 23:50:43.16	282.59	25.30	-61.0	-70.8	3.8	7.46e-01	0	28	104	0	85	11591
2026-01-14 23:50:44.16	282.19	25.18	-61.0	-70.8	3.8	7.46e-01	0	28	104	0	85	11561
2026-01-14 23:50:45.17	281.78	25.06	-61.0	-70.8	3.8	7.48e-01	0	28	104	0	85	11562
2026-01-14 23:50:46.17	281.38	24.94	-61.0	-70.7	3.8	7.44e-01	0	28	104	0	85	11513
2026-01-14 23:50:47.17	280.99	24.82	-61.0	-70.8	3.8	7.44e-01	0	28	104	0	85	11579
2026-01-14 23:50:48.17	280.60	24.70	-61.0	-70.8	3.8	7.48e-01	0	28	104	0	85	11619
2026-01-14 23:50:49.17	280.21	24.58	-61.0	-70.8	3.8	7.45e-01	0	28	104	0	85	11572
2026-01-14 23:50:50.17	279.83	24.46	-61.0	-70.7	3.8	7.44e-01	0	28	104	0	85	11527
2026-01-14 23:50:51.17	279.44	24.34	-61.0	-70.7	3.8	7.45e-01	0	28	104	0	85	11524
2026-01-14 23:50:52.16	279.07	24.22	-61.0	-70.8	3.8	7.46e-01	0	29	104	0	85	11597
2026-01-14 23:50:53.16	278.70	24.09	-61.0	-70.7	3.8	7.44e-01	0	29	104	0	85	11510
2026-01-14 23:50:54.15	278.33	23.97	-61.0	-70.7	3.8	7.46e-01	0	28	104	0	85	11478
2026-01-14 23:50:55.16	277.96	23.84	-61.0	-70.8	3.8	7.45e-01	0	28	104	0	85	11570
2026-01-14 23:50:56.16	277.59	23.72	-61.0	-70.7	3.8	7.44e-01	0	28	104	0	85	11536
2026-01-14 23:50:57.16	277.23	23.59	-61.0	-70.7	3.8	7.44e-01	0	28	104	0	85	11492
2026-01-14 23:50:58.16	276.87	23.47	-61.0	-70.7	3.8	7.46e-01	0	28	104	0	85	11492
2026-01-14 23:50:59.16	276.52	23.34	-61.0	-70.7	3.8	7.46e-01	0	29	104	0	85	11520
2026-01-14 23:51:00.17	276.16	23.22	-61.0	-70.7	3.8	7.44e-01	0	28	104	0	85	11455
2026-01-14 23:51:01.18	275.81	23.09	-61.0	-70.7	3.8	7.47e-01	0	28	104	0	85	11468
2026-01-14 23:51:02.18	275.46	22.96	-61.0	-70.7	3.8	7.46e-01	0	28	104	0	85	11472
2026-01-14 23:51:03.18	275.12	22.83	-61.0	-70.7	3.8	7.44e-01	0	28	104	0	85	11452
2026-01-14 23:51:04.18	274.78	22.71	-61.0	-70.7	3.8	7.46e-01	0	28	104	0	85	11463
2026-01-14 23:51:05.18	274.45	22.58	-61.0	-70.7	3.8	7.46e-01	0	29	104	0	85	11479
2026-01-14 23:51:06.19	274.11	22.45	-61.0	-70.6	3.8	7.46e-01	0	28	104	0	85	11408
2026-01-14 23:51:07.19	273.78	22.32	-60.9	-70.6	3.8	7.45e-01	0	28	104	0	85	11404
2026-01-14 23:51:08.19	273.45	22.20	-60.9	-70.6	3.8	7.46e-01	0	28	104	0	85	11409
2026-01-14 23:51:09.19	273.13	22.07	-60.9	-70.7	3.8	7.44e-01	0	28	104	0	85	11444
2026-01-14 23:51:10.19	272.81	21.94	-60.9	-70.6	3.8	7.46e-01	0	28	104	0	85	11412
2026-01-14 23:51:11.18	272.49	21.81	-60.9	-70.7	3.8	7.45e-01	0	28	104	0	85	11425
2026-01-14 23:51:12.18	272.18	21.69	-60.9	-70.6	3.8	7.45e-01	0	28	104	0	85	11383
2026-01-14 23:51:13.19	271.87	21.56	-60.9	-70.7	3.8	7.44e-01	0	28	104	0	85	11425
2026-01-14 23:51:14.18	271.56	21.43	-60.9	-70.6	3.8	7.45e-01	0	28	104	0	85	11413
2026-01-14 23:51:15.18	271.25	21.30	-60.9	-70.6	3.8	7.45e-01	0	28	104	0	85	11405
2026-01-14 23:51:16.19	270.95	21.17	-60.9	-70.6	3.8	7.46e-01	0	29	104	0	85	11376
2026-01-14 23:51:17.19	270.65	21.05	-60.9	-70.7	3.8	7.47e-01	0	29	104	0	85	11464
2026-01-14 23:51:18.19	270.35	20.92	-60.9	-70.6	3.8	7.45e-01	0	29	104	0	85	11402
2026-01-14 23:51:19.19	270.06	20.79	-60.9	-70.6	3.8	7.46e-01	0	28	104	0	85	11378
2026-01-14 23:51:20.19	269.76	20.66	-60.9	-70.6	3.8	7.46e-01	0	28	104	0	85	11377
2026-01-14 23:51:21.19	269.47	20.54	-60.9	-70.6	3.8	7.44e-01	0	29	104	0	85	11351
2026-01-14 23:51:22.18	269.19	20.41	-60.9	-70.6	3.8	7.45e-01	0	28	104	0	85	11400
2026-01-14 23:51:23.18	268.91	20.28	-60.9	-70.6	3.8	7.46e-01	0	28	104	0	85	11371
2026-01-14 23:51:24.17	268.63	20.16	-60.9	-70.6	3.8	7.46e-01	0	28	104	0	85	11312
2026-01-14 23:51:25.18	268.35	20.03	-60.9	-70.6	3.8	7.46e-01	0	28	104	0	85	11323
2026-01-14 23:51:26.18	268.07	19.90	-60.9	-70.6	3.8	7.47e-01	0	28	104	0	85	11382
2026-01-14 23:51:27.19	267.80	19.77	-60.9	-70.6	3.8	7.46e-01	0	29	104	0	85	11355
2026-01-14 23:51:28.18	267.53	19.65	-60.9	-70.6	3.8	7.46e-01	0	28	104	0	85	11352
2026-01-14 23:51:29.18	267.26	19.52	-60.9	-70.6	3.8	7.47e-01	0	28	104	0	85	11355
2026-01-14 23:51:30.18	267.00	19.40	-60.8	-70.6	3.8	7.46e-01	0	28	104	0	85	11319
2026-01-14 23:51:31.18	266.73	19.27	-60.8	-70.6	3.8	7.45e-01	0	28	104	0	85	11365
2026-01-14 23:51:32.17	266.48	19.15	-60.8	-70.6	3.8	7.46e-01	0	28	104	0	85	11307
2026-01-14 23:51:33.17	266.22	19.02	-60.8	-70.5	3.8	7.45e-01	0	28	104	0	85	11274
2026-01-14 23:51:34.16	265.97	18.90	-60.8	-70.6	3.8	7.44e-01	0	28	104	0	85	11288
2026-01-14 23:51:35.16	265.71	18.77	-60.8	-70.5	3.8	7.46e-01	0	28	104	0	85	11275
2026-01-14 23:51:36.16	265.46	18.65	-60.8	-70.6	3.8	7.45e-01	0	28	104	0	85	11316
2026-01-14 23:51:37.16	265.21	18.53	-60.8	-70.5	3.8	7.46e-01	0	29	104	0	85	11239
2026-01-14 23:51:38.16	264.97	18.40	-60.8	-70.5	3.8	7.46e-01	0	29	104	0	85	11254
2026-01-14 23:51:39.17	264.72	18.28	-60.8	-70.5	3.8	7.47e-01	0	29	104	0	85	11190
2026-01-14 23:51:40.16	264.48	18.16	-60.8	-70.5	3.8	7.46e-01	0	29	104	0	85	11241
2026-01-14 23:51:41.16	264.24	18.03	-60.8	-70.5	3.8	7.46e-01	0	28	104	0	85	11235
2026-01-14 23:51:42.16	264.01	17.91	-60.8	-70.5	3.8	7.47e-01	0	28	104	0	85	11203
2026-01-14 23:51:43.16	263.77	17.79	-60.7	-70.5	3.8	7.48e-01	0	28	104	0	85	11200
2026-01-14 23:51:44.17	263.54	17.67	-60.7	-70.5	3.8	7.47e-01	0	28	104	0	85	11189
2026-01-14 23:51:45.17	263.31	17.55	-60.7	-70.5	3.8	7.46e-01	0	29	104	0	85	11197
2026-01-14 23:51:46.16	263.08	17.43	-60.8	-70.5	3.8	7.47e-01	0	29	104	0	85	11213
2026-01-14 23:51:47.16	262.86	17.31	-60.8	-70.5	3.8	7.46e-01	0	28	104	0	85	11207
2026-01-14 23:51:48.16	262.63	17.19	-60.8	-70.5	3.8	7.44e-01	0	28	104	0	85	11247
2026-01-14 23:51:49.16	262.41	17.07	-60.7	-70.5	3.8	7.45e-01	0	28	104	0	85	11237
2026-01-14 23:51:50.16	262.19	16.95	-60.7	-70.4	3.8	7.46e-01	0	28	104	0	85	11128
2026-01-14 23:51:51.16	261.98	16.83	-60.7	-70.5	3.8	7.46e-01	0	28	104	0	85	11205
2026-01-14 23:51:52.16	261.76	16.71	-60.7	-70.5	3.8	7.45e-01	0	28	104	0	85	11168
2026-01-14 23:51:53.17	261.54	16.59	-60.7	-70.5	3.8	7.45e-01	0	28	104	0	85	11196
2026-01-14 23:51:54.18	261.33	16.47	-60.7	-70.4	3.8	7.45e-01	0	28	104	0	85	11130
2026-01-14 23:51:55.18	261.12	16.35	-60.7	-70.5	3.8	7.45e-01	0	28	104	0	85	11162
2026-01-14 23:51:56.19	260.91	16.23	-60.7	-70.4	3.8	7.46e-01	0	28	104	0	85	11134
2026-01-14 23:51:57.19	260.71	16.12	-60.7	-70.4	3.8	7.45e-01	0	28	104	0	85	11095
2026-01-14 23:51:58.19	260.50	16.00	-60.7	-70.4	3.8	7.44e-01	0	28	104	0	85	11101
2026-01-14 23:51:59.18	260.30	15.89	-60.7	-70.4	3.8	7.45e-01	0	28	104	0	85	11124
2026-01-14 23:52:00.17	260.11	15.77	-60.7	-70.4	3.8	7.47e-01	0	28	104	0	85	11132
2026-01-14 23:52:01.17	259.91	15.66	-60.7	-70.4	3.8	7.46e-01	0	28	104	0	85	11103
2026-01-14 23:52:02.17	259.71	15.54	-60.7	-70.4	3.8	7.45e-01	0	28	104	0	85	11110
2026-01-14 23:52:03.18	259.51	15.43	-60.6	-70.4	3.8	7.45e-01	0	28	104	0	85	11071
2026-01-14 23:52:04.17	259.32	15.31	-60.7	-70.4	3.8	7.46e-01	0	28	104	0	85	11054
2026-01-14 23:52:05.17	259.13	15.20	-60.6	-70.4	3.8	7.45e-01	0	28	104	0	85	11065
2026-01-14 23:52:06.16	258.95	15.09	-60.6	-70.4	3.8	7.45e-01	0	28	104	0	85	11049
2026-01-14 23:52:07.17	258.76	14.97	-60.6	-70.3	3.8	7.46e-01	0	28	104	0	85	11007
2026-01-14 23:52:08.17	258.57	14.86	-60.6	-70.4	3.8	7.47e-01	0	29	104	0	85	11062
2026-01-14 23:52:09.16	258.39	14.75	-60.6	-70.4	3.8	7.47e-01	0	29	104	0	85	11038
2026-01-14 23:52:10.16	258.20	14.64	-60.6	-70.4	3.8	7.45e-01	0	29	104	0	85	11068
2026-01-14 23:52:11.16	258.02	14.53	-60.6	-70.4	3.8	7.45e-01	0	28	104	0	85	11050
2026-01-14 23:52:12.16	257.84	14.42	-60.6	-70.4	3.8	7.46e-01	0	28	104	0	85	11055
2026-01-14 23:52:13.16	257.67	14.31	-60.6	-70.4	3.8	7.46e-01	0	29	104	0	85	11047
2026-01-14 23:52:14.15	257.49	14.20	-60.6	-70.3	3.8	7.46e-01	0	28	104	0	85	10983
2026-01-14 23:52:15.16	257.32	14.09	-60.6	-70.3	3.8	7.45e-01	0	28	104	0	85	10998
2026-01-14 23:52:16.16	257.14	13.98	-60.6	-70.3	3.8	7.46e-01	0	28	104	0	85	10956
2026-01-14 23:52:17.15	256.97	13.87	-60.6	-70.3	3.8	7.46e-01	0	28	104	0	85	11021
2026-01-14 23:52:18.16	256.80	13.76	-60.6	-70.3	3.8	7.46e-01	0	28	104	0	85	10974
2026-01-14 23:52:19.16	256.63	13.65	-60.6	-70.3	3.8	7.46e-01	0	28	104	0	85	10956
2026-01-14 23:52:20.16	256.47	13.55	-60.6	-70.3	3.8	7.44e-01	0	29	104	0	85	10975
2026-01-14 23:52:21.16	256.30	13.44	-60.6	-70.3	3.8	7.45e-01	0	29	104	0	85	10963
2026-01-14 23:52:22.16	256.14	13.33	-60.6	-70.3	3.8	7.46e-01	0	28	104	0	85	10925
2026-01-14 23:52:23.16	255.98	13.23	-60.6	-70.3	3.8	7.46e-01	0	28	104	0	85	10940
2026-01-14 23:52:24.16	255.81	13.12	-60.6	-70.3	3.8	7.45e-01	0	28	104	0	85	10959
2026-01-14 23:52:25.16	255.65	13.02	-60.5	-70.3	3.8	7.45e-01	0	29	104	0	85	10949
2026-01-14 23:52:26.15	255.50	12.91	-60.5	-70.2	3.8	7.46e-01	0	28	104	0	85	10896
2026-01-14 23:52:27.15	255.34	12.81	-60.5	-70.3	3.8	7.45e-01	0	29	104	0	85	10953
2026-01-14 23:52:28.15	255.19	12.70	-60.5	-70.3	3.8	7.46e-01	0	28	104	0	85	10932
2026-01-14 23:52:29.15	255.03	12.60	-60.5	-70.2	3.8	7.46e-01	0	28	104	0	85	10900
2026-01-14 23:52:30.15	254.88	12.50	-60.5	-70.2	3.8	7.46e-01	0	28	104	0	85	10888
2026-01-14 23:52:31.15	254.73	12.39	-60.5	-70.2	3.8	7.45e-01	0	28	104	0	85	10898
2026-01-14 23:52:32.15	254.58	12.29	-60.5	-70.3	3.8	7.45e-01	0	28	104	0	85	10908
2026-01-14 23:52:33.15	254.43	12.19	-60.5	-70.2	3.8	7.46e-01	0	28	104	0	85	10888
2026-01-14 23:52:34.15	254.28	12.09	-60.5	-70.2	3.8	7.47e-01	0	29	104	0	85	10870
2026-01-14 23:52:35.15	254.13	11.99	-60.5	-70.2	3.8	7.46e-01	0	28	104	0	85	10871
2026-01-14 23:52:36.14	253.99	11.89	-60.5	-70.2	3.8	7.46e-01	0	29	104	0	85	10877
2026-01-14 23:52:37.14	253.84	11.79	-60.5	-70.2	3.8	7.45e-01	0	28	104	0	85	10855
2026-01-14 23:52:38.13	253.70	11.69	-60.5	-70.2	3.8	7.45e-01	0	29	104	0	85	10862
2026-01-14 23:52:39.13	253.56	11.59	-60.5	-70.2	3.8	7.46e-01	0	28	104	0	85	10888
2026-01-14 23:52:40.12	253.42	11.49	-60.5	-70.2	3.8	7.46e-01	0	28	104	0	85	10886
2026-01-14 23:52:41.12	253.28	11.39	-60.5	-70.2	3.8	7.46e-01	0	28	104	0	85	10828
2026-01-14 23:52:42.12	253.14	11.29	-60.5	-70.2	3.8	7.45e-01	0	28	104	0	85	10834
2026-01-14 23:52:43.12	253.01	11.19	-60.5	-70.2	3.8	7.45e-01	0	28	104	0	85	10872
2026-01-14 23:52:44.12	252.87	11.09	-60.5	-70.2	3.8	7.46e-01	0	28	104	0	85	10864
2026-01-14 23:52:45.11	252.74	11.00	-60.4	-70.1	3.8	7.44e-01	0	28	104	0	85	10776
2026-01-14 23:52:46.11	252.60	10.90	-60.4	-70.2	3.8	7.46e-01	0	29	104	0	85	10803
2026-01-14 23:52:47.11	252.47	10.80	-60.4	-70.2	3.8	7.48e-01	0	28	104	0	85	10785
2026-01-14 23:52:48.11	252.34	10.71	-60.5	-70.2	3.8	7.47e-01	0	28	104	0	85	10811
2026-01-14 23:52:49.11	252.21	10.61	-60.4	-70.1	3.8	7.44e-01	0	28	104	0	85	10776
2026-01-14 23:52:50.11	252.08	10.52	-60.4	-70.1	3.8	7.46e-01	0	29	104	0	85	10757
2026-01-14 23:52:51.11	251.95	10.42	-60.4	-70.1	3.8	7.47e-01	0	28	104	0	85	10761
2026-01-14 23:52:52.12	251.82	10.33	-60.4	-70.1	3.8	7.44e-01	0	28	104	0	85	10770
2026-01-14 23:52:53.12	251.70	10.23	-60.4	-70.1	3.8	7.46e-01	0	28	104	0	85	10722
2026-01-14 23:52:54.12	251.57	10.14	-60.4	-70.1	3.8	7.46e-01	0	28	104	0	85	10731
2026-01-14 23:52:55.13	251.45	10.04	-60.4	-70.1	3.8	7.46e-01	0	28	104	0	85	10727
2026-01-14 23:52:56.12	251.33	9.95	-60.4	-70.1	3.8	7.47e-01	0	28	104	0	85	10774
2026-01-14 23:52:57.13	251.20	9.86	-60.4	-70.1	3.8	7.45e-01	0	28	104	0	85	10740
2026-01-14 23:52:58.13	251.08	9.76	-60.4	-70.1	3.8	7.45e-01	0	28	104	0	85	10700
2026-01-14 23:52:59.13	250.96	9.67	-60.4	-70.1	3.8	7.48e-01	0	29	104	0	85	10696
2026-01-14 23:53:00.13	250.84	9.58	-60.4	-70.1	3.8	7.45e-01	0	28	104	0	85	10736
2026-01-14 23:53:01.13	250.72	9.49	-60.3	-70.0	3.8	7.44e-01	0	29	104	0	85	10597
2026-01-14 23:53:02.13	250.61	9.40	-60.3	-70.0	3.8	7.47e-01	0	28	104	0	85	10642
2026-01-14 23:53:03.13	250.49	9.31	-60.3	-70.1	3.8	7.45e-01	0	28	104	0	85	10689
2026-01-14 23:53:04.13	250.37	9.22	-60.3	-70.1	3.8	7.46e-01	0	28	104	0	85	10716
2026-01-14 23:53:05.13	250.26	9.13	-60.3	-70.0	3.8	7.45e-01	0	28	104	0	85	10601
2026-01-14 23:53:06.13	250.15	9.04	-60.3	-70.0	3.8	7.47e-01	0	28	104	0	85	10648
2026-01-14 23:53:07.13	250.03	8.95	-60.3	-70.0	3.8	7.46e-01	0	29	104	0	85	10641
2026-01-14 23:53:08.13	249.92	8.86	-60.3	-70.1	3.8	7.46e-01	0	28	104	0	85	10688
2026-01-14 23:53:09.13	249.81	8.77	-60.2	-70.0	3.8	7.46e-01	0	28	104	0	85	10567
2026-01-14 23:53:10.12	249.70	8.68	-60.3	-70.0	3.8	7.48e-01	0	28	104	0	85	10589
2026-01-14 23:53:11.12	249.59	8.59	-60.3	-70.0	3.8	7.46e-01	0	28	104	0	85	10601
2026-01-14 23:53:12.12	249.48	8.51	-60.3	-70.0	3.8	7.44e-01	0	28	104	0	85	10641
2026-01-14 23:53:13.12	249.37	8.42	-60.2	-69.9	3.8	7.46e-01	0	28	104	0	85	10529
2026-01-14 23:53:14.12	249.27	8.33	-60.2	-69.9	3.8	7.47e-01	0	29	104	0	85	10531
2026-01-14 23:53:15.12	249.16	8.24	-60.3	-70.0	3.8	7.46e-01	0	29	104	0	85	10545
2026-01-14 23:53:16.12	249.06	8.16	-60.3	-70.0	3.8	7.44e-01	0	28	104	0	85	10606
2026-01-14 23:53:17.13	248.95	8.07	-60.2	-69.9	3.8	7.46e-01	0	28	104	0	85	10515
2026-01-14 23:53:18.13	248.85	7.99	-60.2	-69.9	3.8	7.46e-01	0	29	104	0	85	10496
2026-01-14 23:53:19.13	248.74	7.90	-60.2	-69.9	3.8	7.45e-01	0	28	104	0	85	10529
2026-01-14 23:53:20.13	248.64	7.81	-60.2	-69.9	3.8	7.46e-01	0	28	104	0	85	10500
2026-01-14 23:53:21.14	248.54	7.73	-60.1	-69.9	3.8	7.47e-01	0	28	104	0	84	11051
2026-01-14 23:53:22.14	248.44	7.64	-60.1	-69.9	3.8	7.45e-01	0	28	104	0	84	11048
2026-01-14 23:53:23.14	248.34	7.56	-60.2	-69.9	3.8	7.44e-01	0	28	104	0	84	11139
2026-01-14 23:53:24.13	248.24	7.48	-60.2	-69.9	3.8	7.47e-01	0	28	104	0	84	11078
2026-01-14 23:53:25.13	248.14	7.39	-60.1	-69.8	3.8	7.47e-01	0	28	104	0	84	10998
2026-01-14 23:53:26.13	248.04	7.31	-60.1	-69.8	3.8	7.48e-01	0	28	104	0	84	11005
2026-01-14 23:53:27.13	247.95	7.23	-60.2	-69.9	3.8	7.45e-01	0	28	104	0	84	11107
2026-01-14 23:53:28.13	247.85	7.14	-60.1	-69.9	3.8	7.45e-01	0	28	104	0	84	11061
2026-01-14 23:53:29.12	247.76	7.06	-60.0	-69.8	3.8	7.45e-01	0	28	104	0	84	10953
2026-01-14 23:53:30.12	247.66	6.98	-60.1	-69.8	3.8	7.46e-01	0	28	104	0	84	10942
2026-01-14 23:53:31.12	247.57	6.90	-60.1	-69.8	3.8	7.45e-01	0	28	104	0	84	11002
2026-01-14 23:53:32.11	247.48	6.82	-60.1	-69.9	3.8	7.46e-01	0	28	104	0	84	11076
2026-01-14 23:53:33.12	247.38	6.74	-60.0	-69.7	3.8	7.46e-01	0	28	104	0	84	10894
2026-01-14 23:53:34.12	247.29	6.65	-60.0	-69.7	3.8	7.44e-01	0	28	104	0	84	10885
2026-01-14 23:53:35.11	247.20	6.57	-60.1	-69.8	3.8	7.45e-01	0	28	104	0	84	10938
2026-01-14 23:53:36.12	247.11	6.49	-60.1	-69.8	3.8	7.45e-01	0	28	104	0	84	10971
2026-01-14 23:53:37.12	247.02	6.41	-59.9	-69.7	3.8	7.46e-01	0	28	104	0	84	10845
2026-01-14 23:53:38.12	246.93	6.33	-60.0	-69.7	3.8	7.44e-01	0	28	104	0	84	10792
2026-01-14 23:53:39.12	246.84	6.25	-60.0	-69.8	3.8	7.47e-01	0	28	104	0	84	10923
2026-01-14 23:53:40.12	246.75	6.17	-60.0	-69.7	3.8	7.45e-01	0	28	104	0	84	10867
2026-01-14 23:53:41.12	246.66	6.09	-59.9	-69.6	3.8	7.46e-01	0	28	104	0	84	10709
2026-01-14 23:53:42.11	246.58	6.02	-59.9	-69.6	3.8	7.46e-01	0	28	104	0	84	10758
2026-01-14 23:53:43.10	246.49	5.94	-60.0	-69.7	3.8	7.46e-01	0	28	104	0	84	10842
2026-01-14 23:53:44.09	246.41	5.86	-60.0	-69.7	3.8	7.45e-01	0	28	104	0	84	10840
2026-01-14 23:53:45.09	246.32	5.78	-59.8	-69.6	3.8	7.46e-01	0	28	104	0	84	10694
2026-01-14 23:53:46.08	246.24	5.71	-59.8	-69.6	3.8	7.46e-01	0	28	104	0	84	10661
2026-01-14 23:53:47.09	246.15	5.63	-59.9	-69.6	3.8	7.46e-01	0	28	104	0	84	10744
2026-01-14 23:53:48.08	246.07	5.55	-59.9	-69.6	3.8	7.46e-01	0	28	104	0	84	10765
2026-01-14 23:53:49.08	245.99	5.47	-59.8	-69.5	3.8	7.46e-01	0	28	104	0	84	10630
2026-01-14 23:53:50.07	245.91	5.40	-59.8	-69.5	3.8	7.45e-01	0	28	104	0	84	10630
2026-01-14 23:53:51.07	245.82	5.32	-59.9	-69.6	3.8	7.46e-01	0	29	104	0	84	10703
2026-01-14 23:53:52.06	245.74	5.25	-59.9	-69.6	3.8	7.46e-01	0	29	104	0	84	10746
2026-01-14 23:53:53.07	245.66	5.17	-59.7	-69.5	3.8	7.47e-01	0	28	104	0	84	10578
2026-01-14 23:53:54.07	245.58	5.09	-59.7	-69.5	3.8	7.44e-01	0	28	104	0	84	10560
2026-01-14 23:53:55.07	245.50	5.02	-59.8	-69.6	3.8	7.46e-01	0	28	104	0	84	10692
2026-01-14 23:53:56.07	245.42	4.94	-60.1	-69.8	3.8	7.45e-01	0	28	104	0	84	10999
2026-01-14 23:53:57.07	245.35	4.87	-60.4	-70.2	3.8	7.46e-01	0	28	104	0	84	11438
2026-01-14 23:53:58.08	245.27	4.79	-60.7	-70.5	3.8	7.47e-01	0	28	104	0	84	11879
2026-01-14 23:53:59.07	245.19	4.72	-60.9	-70.6	3.8	7.47e-01	0	28	104	0	84	12073
2026-01-14 23:54:00.07	245.11	4.64	-61.0	-70.8	3.8	7.47e-01	0	28	104	0	85	11560
2026-01-14 23:54:01.08	245.04	4.57	-61.1	-70.9	3.8	7.46e-01	0	28	104	0	85	11716
2026-01-14 23:54:02.08	244.96	4.50	-61.2	-70.9	3.8	7.45e-01	0	28	104	0	85	11810
2026-01-14 23:54:03.08	244.89	4.42	-61.3	-71.0	3.8	7.46e-01	0	29	104	0	85	11889
2026-01-14 23:54:04.08	244.81	4.35	-61.3	-71.1	3.8	7.46e-01	0	28	104	0	85	11976
2026-01-14 23:54:05.08	244.74	4.28	-61.4	-71.1	3.8	7.46e-01	0	28	104	0	85	12046
2026-01-14 23:54:06.08	244.66	4.20	-61.5	-71.2	3.8	7.46e-01	0	28	104	0	86	11493
2026-01-14 23:54:07.08	244.59	4.13	-61.5	-71.3	3.8	7.46e-01	0	29	104	0	86	11564
2026-01-14 23:54:08.08	244.52	4.06	-61.5	-71.3	3.8	7.46e-01	0	28	104	0	86	11567
2026-01-14 23:54:09.07	244.44	3.99	-61.6	-71.3	3.8	7.45e-01	0	28	104	0	86	11663
2026-01-14 23:54:10.07	244.37	3.91	-61.6	-71.3	3.8	7.46e-01	0	28	104	0	86	11652
2026-01-14 23:54:11.07	244.30	3.84	-61.6	-71.4	3.8	7.45e-01	0	29	104	0	86	11688
2026-01-14 23:54:12.08	244.23	3.77	-61.6	-71.3	3.8	7.46e-01	0	28	104	0	86	11647
2026-01-14 23:54:13.08	244.16	3.70	-61.6	-71.4	3.8	7.46e-01	0	28	104	0	86	11684
2026-01-14 23:54:14.08	244.09	3.63	-61.6	-71.3	3.8	7.45e-01	0	28	104	0	86	11672
2026-01-14 23:54:15.08	244.02	3.56	-61.6	-71.4	3.8	7.47e-01	0	28	104	0	86	11733
2026-01-14 23:54:16.08	243.95	3.49	-61.6	-71.4	3.8	7.45e-01	0	28	104	0	86	11694
2026-01-14 23:54:17.07	243.88	3.42	-61.6	-71.4	3.8	7.44e-01	0	28	104	0	86	11740
2026-01-14 23:54:18.07	243.81	3.34	-61.6	-71.3	3.8	7.45e-01	0	28	104	0	86	11683
2026-01-14 23:54:19.07	243.75	3.27	-61.6	-71.3	3.8	7.44e-01	0	28	104	0	86	11672
2026-01-14 23:54:20.06	243.68	3.21	-61.5	-71.3	3.8	7.45e-01	0	28	104	0	86	11602
2026-01-14 23:54:21.07	243.61	3.14	-61.5	-71.3	3.8	7.45e-01	0	28	104	0	86	11591
2026-01-14 23:54:22.06	243.55	3.07	-61.5	-71.3	3.8	7.46e-01	0	28	104	0	86	11587
2026-01-14 23:54:23.06	243.48	3.00	-61.5	-71.3	3.8	7.47e-01	0	28	104	0	86	11561
2026-01-14 23:54:24.06	243.41	2.93	-61.5	-71.2	3.8	7.47e-01	0	28	104	0	86	11545
2026-01-14 23:54:25.06	243.35	2.86	-61.5	-71.2	3.8	7.45e-01	0	28	104	0	86	11535
2026-01-14 23:54:26.06	243.28	2.79	-61.5	-71.2	3.8	7.46e-01	0	28	104	0	86	11549
2026-01-14 23:54:27.06	243.22	2.72	-61.5	-71.2	3.8	7.45e-01	0	28	104	0	86	11505
2026-01-14 23:54:28.06	243.16	2.65	-61.5	-71.2	3.8	7.44e-01	0	28	104	0	86	11537
2026-01-14 23:54:29.06	243.09	2.59	-61.5	-71.2	3.8	7.47e-01	0	28	104	0	86	11495
2026-01-14 23:54:30.06	243.03	2.52	-61.4	-71.2	3.8	7.45e-01	0	28	104	0	86	11506
2026-01-14 23:54:31.07	242.97	2.45	-61.5	-71.2	3.8	7.45e-01	0	28	104	0	86	11487
2026-01-14 23:54:32.06	242.90	2.38	-61.5	-71.2	3.8	7.46e-01	0	29	104	0	86	11478
2026-01-14 23:54:33.06	242.84	2.31	-61.5	-71.2	3.8	7.46e-01	0	28	104	0	86	11453
2026-01-14 23:54:34.06	242.78	2.25	-61.4	-71.2	3.8	7.47e-01	0	28	104	0	86	11481
2026-01-14 23:54:35.06	242.72	2.18	-61.4	-71.1	3.8	7.45e-01	0	28	104	0	86	11404
2026-01-14 23:54:36.07	242.66	2.11	-61.4	-71.2	3.8	7.47e-01	0	28	104	0	86	11466
2026-01-14 23:54:37.07	242.60	2.05	-61.4	-71.2	3.8	7.45e-01	0	29	104	0	86	11443
2026-01-14 23:54:38.07	242.54	1.98	-61.4	-71.1	3.8	7.46e-01	0	28	104	0	86	11370
2026-01-14 23:54:39.07	242.48	1.91	-61.4	-71.1	3.8	7.46e-01	0	28	104	0	86	11410
2026-01-14 23:54:40.07	242.42	1.85	-61.4	-71.1	3.8	7.45e-01	0	28	104	0	86	11416

#Closed at: 2026-01-14 23:54:40
#Recorded file [0 MB]: D:/lorett/data/31004_260115_024447.dat