passes_logs/2026/01/14/R3.2S_Murmansk/R3.2S_Murmansk__20260114_080732_SUOMI_NPP_rec.log

#Pass ID: 20260114_080732_SUOMI NPP
#Satellite: SUOMI NPP
#Configuration: NPP
#almurnet v.1.7.20251203
#Start time: 2026-01-14 08:07:34

#Version: 2.2.20231116
#Station: R3.2S_Murmansk
#Location: 33.079688 lon 68.888172 lat
#TLE: 1 37849U 11061A   26013.83525404  .00000052  00000+0  45495-4 0  9990
#TLE: 2 37849  98.7808 315.8939 0002471  65.6575 294.4859 14.19524986736544

#Time	Az	El	Level	Level2	SNR	BER	BlckErr	Temp	State	Recorded	gain1	gain2
2026-01-14 08:07:34.41	117.45	2.13	-57.9	-74.0	3.8	1.49e+00	0	25	0	0	82	22303
2026-01-14 08:07:35.41	117.42	2.19	-57.9	-73.9	3.8	1.49e+00	0	25	104	0	80	24823
2026-01-14 08:07:36.41	117.38	2.25	-57.9	-73.9	3.8	1.49e+00	0	25	104	0	80	24858
2026-01-14 08:07:37.40	117.35	2.32	-57.9	-73.9	3.8	1.49e+00	0	25	104	0	80	24881
2026-01-14 08:07:38.39	117.32	2.38	-57.9	-73.9	3.8	1.49e+00	0	25	104	0	80	24829
2026-01-14 08:07:39.37	117.29	2.44	-57.9	-73.9	3.8	1.49e+00	0	26	104	0	80	24890
2026-01-14 08:07:40.36	117.25	2.50	-57.9	-73.9	3.8	1.49e+00	0	26	104	0	80	24879
2026-01-14 08:07:41.35	117.22	2.57	-57.9	-73.9	3.8	1.49e+00	0	26	104	0	80	24890
2026-01-14 08:07:42.34	117.19	2.63	-57.9	-73.9	3.8	1.49e+00	0	26	104	0	80	24810
2026-01-14 08:07:43.34	117.15	2.69	-57.9	-73.9	3.8	1.49e+00	0	26	104	0	80	24750
2026-01-14 08:07:44.33	117.12	2.76	-57.9	-73.9	3.8	1.49e+00	0	26	104	0	80	24753
2026-01-14 08:07:45.33	117.08	2.82	-57.9	-73.9	3.8	1.49e+00	0	26	104	0	80	24750
2026-01-14 08:07:46.33	117.05	2.89	-57.9	-73.9	3.8	1.49e+00	0	26	104	0	80	24770
2026-01-14 08:07:47.34	117.01	2.95	-57.9	-73.9	3.8	1.49e+00	0	26	104	0	80	24835
2026-01-14 08:07:48.33	116.98	3.01	-57.9	-73.9	3.8	1.49e+00	0	26	104	0	80	24713
2026-01-14 08:07:49.32	116.95	3.08	-57.9	-73.9	3.8	1.49e+00	0	26	104	0	81	23359
2026-01-14 08:07:50.33	116.91	3.14	-57.9	-73.8	3.8	1.49e+00	0	26	104	0	81	23273
2026-01-14 08:07:51.32	116.88	3.21	-57.9	-73.8	3.8	1.49e+00	0	26	104	0	81	23121
2026-01-14 08:07:52.31	116.84	3.27	-57.9	-73.8	3.8	1.49e+00	0	26	104	0	81	23059
2026-01-14 08:07:53.31	116.80	3.34	-57.9	-73.8	3.8	1.49e+00	0	26	104	0	81	23089
2026-01-14 08:07:54.30	116.77	3.40	-57.9	-73.8	3.8	1.49e+00	0	26	104	0	81	23059
2026-01-14 08:07:55.30	116.73	3.47	-57.9	-73.8	3.8	1.49e+00	0	26	104	0	81	23086
2026-01-14 08:07:56.30	116.70	3.53	-57.9	-73.8	3.8	1.49e+00	0	26	104	0	81	23187
2026-01-14 08:07:57.29	116.66	3.60	-57.9	-73.7	3.8	1.49e+00	0	26	104	0	81	23025
2026-01-14 08:07:58.28	116.62	3.66	-57.9	-73.7	3.8	1.49e+00	0	26	104	0	81	22876
2026-01-14 08:07:59.27	116.59	3.73	-57.9	-73.5	3.8	1.49e+00	0	26	104	0	81	22296
2026-01-14 08:08:00.27	116.55	3.79	-57.9	-73.0	3.8	1.49e+00	0	26	104	0	81	21038
2026-01-14 08:08:01.26	116.52	3.86	-57.9	-72.3	3.8	1.49e+00	0	26	104	0	81	19511
2026-01-14 08:08:02.25	116.48	3.93	-57.9	-71.7	4.0	1.49e+00	0	26	104	0	81	18227
2026-01-14 08:08:03.25	116.44	3.99	-57.8	-70.5	4.2	1.48e+00	0	26	104	0	81	15892
2026-01-14 08:08:04.24	116.40	4.06	-57.7	-69.7	4.4	1.24e+00	83	26	0	1048576	81	14517
2026-01-14 08:08:05.24	116.37	4.13	-57.6	-68.5	4.8	1.05e+00	0	26	0	3145728	81	12655
2026-01-14 08:08:06.23	116.33	4.19	-57.6	-68.0	5.1	6.03e-01	0	26	0	4194304	81	11938
2026-01-14 08:08:07.23	116.29	4.26	-57.4	-66.7	5.9	4.28e-01	0	26	0	6291456	81	10185
2026-01-14 08:08:08.22	116.25	4.33	-57.3	-65.9	6.4	3.14e-01	0	26	0	8388608	81	9304
2026-01-14 08:08:09.21	116.21	4.39	-57.1	-64.4	7.6	8.41e-02	0	26	0	10485760	80	8334
2026-01-14 08:08:10.20	116.18	4.46	-57.0	-64.0	8.0	3.91e-02	0	26	0	11534336	80	7931
2026-01-14 08:08:11.19	116.14	4.53	-56.8	-63.3	8.6	4.35e-02	0	26	0	13631488	80	7347
2026-01-14 08:08:12.19	116.10	4.59	-56.3	-61.5	10.1	2.83e-03	0	26	0	15728640	79	6337
2026-01-14 08:08:13.18	116.06	4.66	-56.1	-61.0	10.5	5.33e-04	0	26	0	17825792	78	6330
2026-01-14 08:08:14.18	116.02	4.73	-55.5	-59.7	11.5	7.70e-05	0	26	0	19922944	77	5724
2026-01-14 08:08:15.17	115.98	4.80	-55.1	-58.8	12.0	9.90e-06	0	26	0	20971520	76	5475
2026-01-14 08:08:16.15	115.94	4.87	-54.9	-58.6	12.2	7.00e-07	0	26	0	23068672	76	5344
2026-01-14 08:08:17.14	115.90	4.93	-54.4	-57.7	12.6	0.00e+00	0	26	0	25165824	75	5157
2026-01-14 08:08:18.13	115.86	5.00	-54.3	-57.6	12.8	0.00e+00	0	26	0	27262976	75	5044
2026-01-14 08:08:19.13	115.82	5.07	-53.9	-56.8	13.1	0.00e+00	0	26	0	28311552	74	4889
2026-01-14 08:08:20.13	115.78	5.14	-54.8	-58.3	12.3	7.00e-07	0	26	0	30408704	74	5789
2026-01-14 08:08:21.13	115.74	5.21	-55.9	-60.4	10.8	1.07e-04	0	26	0	32505856	77	6259
2026-01-14 08:08:22.13	115.70	5.28	-55.7	-60.1	11.0	0.00e+00	0	26	0	34603008	76	6398
2026-01-14 08:08:23.12	115.66	5.35	-56.4	-61.4	10.0	1.78e-03	0	26	0	36700160	78	6574
2026-01-14 08:08:24.13	115.62	5.42	-55.8	-60.1	10.9	5.30e-06	0	26	0	37748736	76	6418
2026-01-14 08:08:25.13	115.57	5.49	-54.5	-57.6	12.8	7.00e-07	0	26	0	39845888	75	5060
2026-01-14 08:08:26.12	115.53	5.56	-54.2	-57.1	13.1	0.00e+00	0	26	0	41943040	75	4788
2026-01-14 08:08:27.12	115.49	5.63	-54.1	-56.9	13.2	0.00e+00	0	26	0	44040192	74	4965
2026-01-14 08:08:28.11	115.45	5.70	-54.9	-58.3	12.4	0.00e+00	0	26	0	45088768	74	5814
2026-01-14 08:08:29.10	115.41	5.77	-54.3	-57.3	12.9	0.00e+00	0	26	0	47185920	74	5162
2026-01-14 08:08:30.10	115.36	5.84	-54.7	-58.1	12.4	0.00e+00	0	26	0	49283072	74	5667
2026-01-14 08:08:31.09	115.32	5.91	-54.8	-58.1	12.5	7.00e-07	0	26	0	51380224	75	5358
2026-01-14 08:08:32.08	115.28	5.98	-54.3	-57.3	13.1	0.00e+00	0	26	0	53477376	75	4873
2026-01-14 08:08:33.07	115.23	6.05	-54.8	-58.1	12.5	0.00e+00	0	26	0	54525952	75	5402
2026-01-14 08:08:34.07	115.19	6.12	-54.4	-57.4	13.0	0.00e+00	0	26	0	56623104	75	4973
2026-01-14 08:08:35.06	115.15	6.19	-54.0	-56.7	13.3	0.00e+00	0	26	0	58720256	74	4842
2026-01-14 08:08:36.06	115.10	6.27	-54.1	-56.9	13.2	0.00e+00	0	27	0	60817408	74	4934
2026-01-14 08:08:37.05	115.06	6.34	-54.1	-56.9	13.2	0.00e+00	0	26	0	61865984	74	4943
2026-01-14 08:08:38.05	115.01	6.41	-54.0	-56.8	13.3	0.00e+00	0	26	0	63963136	74	4884
2026-01-14 08:08:39.05	114.97	6.48	-53.9	-56.6	13.4	0.00e+00	0	26	0	66060288	74	4782
2026-01-14 08:08:40.03	114.93	6.55	-54.0	-56.8	13.3	0.00e+00	0	27	0	68157440	74	4875
2026-01-14 08:08:41.02	114.88	6.63	-53.9	-56.6	13.4	0.00e+00	0	26	0	70254592	74	4777
2026-01-14 08:08:42.01	114.84	6.70	-54.1	-56.8	13.3	0.00e+00	0	26	0	71303168	74	4904
2026-01-14 08:08:43.01	114.79	6.77	-53.9	-56.6	13.4	0.00e+00	0	27	0	73400320	74	4794
2026-01-14 08:08:44.01	114.74	6.85	-53.9	-56.6	13.4	0.00e+00	0	26	0	75497472	74	4783
2026-01-14 08:08:45.00	114.70	6.92	-54.0	-56.8	13.3	0.00e+00	0	27	0	77594624	74	4876
2026-01-14 08:08:45.99	114.65	6.99	-54.2	-57.1	13.1	0.00e+00	0	27	0	78643200	74	5060
2026-01-14 08:08:46.98	114.60	7.07	-54.0	-56.7	13.4	0.00e+00	0	26	0	80740352	74	4815
2026-01-14 08:08:47.97	114.56	7.14	-54.0	-56.7	13.4	0.00e+00	0	27	0	82837504	74	4861
2026-01-14 08:08:48.96	114.51	7.21	-54.0	-56.7	13.3	0.00e+00	0	26	0	84934656	74	4870
2026-01-14 08:08:49.96	114.46	7.29	-53.9	-56.5	13.5	0.00e+00	0	27	0	85983232	74	4741
2026-01-14 08:08:50.95	114.42	7.36	-53.9	-56.6	13.5	0.00e+00	0	27	0	88080384	74	4761
2026-01-14 08:08:51.95	114.37	7.44	-53.8	-56.4	13.6	0.00e+00	0	27	0	90177536	74	4668
2026-01-14 08:08:52.94	114.32	7.51	-53.8	-56.4	13.6	0.00e+00	0	26	0	92274688	74	4654
2026-01-14 08:08:53.94	114.27	7.59	-53.6	-56.0	13.7	0.00e+00	0	26	0	94371840	73	4755
2026-01-14 08:08:54.92	114.22	7.66	-53.7	-56.2	13.5	0.00e+00	0	26	0	95420416	73	4847
2026-01-14 08:08:55.92	114.17	7.74	-53.5	-55.9	13.7	0.00e+00	0	27	0	97517568	73	4695
2026-01-14 08:08:56.92	114.12	7.81	-53.5	-56.0	13.7	0.00e+00	0	27	0	99614720	73	4723
2026-01-14 08:08:57.92	114.07	7.89	-53.7	-56.3	13.5	0.00e+00	0	27	0	101711872	73	4891
2026-01-14 08:08:58.91	114.02	7.96	-53.7	-56.3	13.5	0.00e+00	0	27	0	102760448	73	4909
2026-01-14 08:08:59.91	113.97	8.04	-53.7	-56.2	13.6	0.00e+00	0	27	0	104857600	73	4857
2026-01-14 08:09:00.90	113.92	8.12	-53.7	-56.2	13.5	0.00e+00	0	27	0	106954752	73	4853
2026-01-14 08:09:01.89	113.87	8.19	-53.6	-56.1	13.6	0.00e+00	0	27	0	109051904	73	4788
2026-01-14 08:09:02.88	113.82	8.27	-53.5	-55.9	13.7	0.00e+00	0	27	0	111149056	73	4687
2026-01-14 08:09:03.87	113.77	8.35	-53.3	-55.6	13.9	0.00e+00	0	27	0	112197632	73	4510
2026-01-14 08:09:04.86	113.72	8.42	-53.3	-55.7	13.8	0.00e+00	0	27	0	114294784	73	4552
2026-01-14 08:09:05.85	113.67	8.50	-53.3	-55.6	13.9	0.00e+00	0	27	0	116391936	73	4538
2026-01-14 08:09:06.85	113.62	8.58	-53.2	-55.5	13.9	0.00e+00	0	27	0	118489088	73	4480
2026-01-14 08:09:07.84	113.57	8.66	-53.3	-55.7	13.9	0.00e+00	0	27	0	119537664	73	4552
2026-01-14 08:09:08.83	113.51	8.73	-53.3	-55.6	13.9	0.00e+00	0	27	0	121634816	73	4516
2026-01-14 08:09:09.82	113.46	8.81	-53.2	-55.5	14.0	0.00e+00	0	27	0	123731968	73	4478
2026-01-14 08:09:10.82	113.41	8.89	-53.4	-55.7	13.8	0.00e+00	0	27	0	125829120	73	4598
2026-01-14 08:09:11.81	113.35	8.97	-53.3	-55.6	13.9	0.00e+00	0	27	0	127926272	73	4505
2026-01-14 08:09:12.81	113.30	9.05	-53.3	-55.7	13.9	0.00e+00	0	27	0	128974848	73	4549
2026-01-14 08:09:13.81	113.24	9.13	-53.4	-55.7	13.9	0.00e+00	0	27	0	131072000	73	4568
2026-01-14 08:09:14.79	113.19	9.21	-53.4	-55.8	13.8	0.00e+00	0	27	0	133169152	73	4609
2026-01-14 08:09:15.78	113.14	9.29	-53.5	-55.9	13.8	0.00e+00	0	27	0	135266304	73	4683
2026-01-14 08:09:16.77	113.08	9.37	-53.3	-55.6	13.9	0.00e+00	0	27	0	136314880	73	4513
2026-01-14 08:09:17.77	113.03	9.45	-53.4	-55.7	13.9	0.00e+00	0	27	0	138412032	73	4578
2026-01-14 08:09:18.76	112.97	9.53	-53.3	-55.6	14.0	0.00e+00	0	27	0	140509184	73	4501
2026-01-14 08:09:19.75	112.91	9.61	-53.1	-55.3	14.0	0.00e+00	0	27	0	142606336	72	4627
2026-01-14 08:09:20.74	112.86	9.69	-53.2	-55.4	13.9	0.00e+00	0	27	0	144703488	72	4692
2026-01-14 08:09:21.73	112.80	9.77	-53.2	-55.5	13.9	0.00e+00	0	27	0	145752064	72	4707
2026-01-14 08:09:22.72	112.74	9.85	-53.2	-55.4	14.0	0.00e+00	0	27	0	147849216	72	4669
2026-01-14 08:09:23.72	112.69	9.93	-53.2	-55.4	13.9	0.00e+00	0	27	0	149946368	72	4690
2026-01-14 08:09:24.71	112.63	10.01	-53.2	-55.4	14.0	0.00e+00	0	27	0	152043520	72	4668
2026-01-14 08:09:25.71	112.57	10.10	-53.2	-55.4	14.0	0.00e+00	0	27	0	153092096	72	4670
2026-01-14 08:09:26.70	112.51	10.18	-53.3	-55.6	13.8	0.00e+00	0	27	0	155189248	72	4786
2026-01-14 08:09:27.69	112.45	10.26	-53.3	-55.6	13.8	0.00e+00	0	27	0	157286400	72	4799
2026-01-14 08:09:28.69	112.39	10.34	-53.5	-55.9	13.7	0.00e+00	0	27	0	159383552	72	4935
2026-01-14 08:09:29.68	112.34	10.43	-53.3	-55.5	13.9	0.00e+00	0	27	0	161480704	72	4742
2026-01-14 08:09:30.68	112.28	10.51	-53.5	-55.8	13.7	0.00e+00	0	27	0	162529280	72	4924
2026-01-14 08:09:31.67	112.22	10.59	-53.2	-55.4	13.9	0.00e+00	0	27	0	164626432	72	4700
2026-01-14 08:09:32.66	112.16	10.68	-53.2	-55.4	13.9	0.00e+00	0	27	0	166723584	72	4693
2026-01-14 08:09:33.64	112.10	10.76	-53.1	-55.3	14.0	0.00e+00	0	27	0	168820736	72	4606
2026-01-14 08:09:34.63	112.03	10.84	-53.3	-55.5	13.9	0.00e+00	0	27	0	169869312	72	4753
2026-01-14 08:09:35.63	111.97	10.93	-53.1	-55.3	14.0	0.00e+00	0	27	0	171966464	72	4639
2026-01-14 08:09:36.62	111.91	11.01	-52.9	-55.3	14.0	0.00e+00	0	27	0	174063616	72	4646
2026-01-14 08:09:37.62	111.85	11.10	-53.0	-55.4	14.0	0.00e+00	0	27	0	176160768	72	4705
2026-01-14 08:09:38.61	111.78	11.18	-52.9	-55.4	13.9	0.00e+00	0	27	0	177209344	72	4703
2026-01-14 08:09:39.61	111.72	11.27	-52.8	-55.2	14.1	0.00e+00	0	27	0	179306496	72	4568
2026-01-14 08:09:40.60	111.66	11.36	-52.9	-55.3	14.0	0.00e+00	0	27	0	181403648	72	4638
2026-01-14 08:09:41.60	111.59	11.44	-52.9	-55.3	14.0	0.00e+00	0	27	0	183500800	72	4649
2026-01-14 08:09:42.60	111.53	11.53	-52.8	-55.2	14.1	0.00e+00	0	27	0	185597952	72	4566
2026-01-14 08:09:43.59	111.46	11.62	-52.9	-55.3	14.0	0.00e+00	0	27	0	186646528	72	4611
2026-01-14 08:09:44.58	111.40	11.70	-52.8	-55.3	14.1	0.00e+00	0	27	0	188743680	72	4614
2026-01-14 08:09:45.58	111.33	11.79	-52.8	-55.2	14.1	0.00e+00	0	27	0	190840832	72	4588
2026-01-14 08:09:46.58	111.27	11.88	-52.8	-55.2	14.1	0.00e+00	0	27	0	192937984	72	4573
2026-01-14 08:09:47.57	111.20	11.97	-52.8	-55.1	14.1	0.00e+00	0	27	0	195035136	72	4528
2026-01-14 08:09:48.56	111.13	12.05	-52.9	-55.3	14.0	0.00e+00	0	27	0	196083712	72	4629
2026-01-14 08:09:49.55	111.07	12.14	-52.9	-55.3	14.0	0.00e+00	0	27	0	198180864	72	4644
2026-01-14 08:09:50.54	111.00	12.23	-52.8	-55.3	14.1	0.00e+00	0	27	0	200278016	72	4599
2026-01-14 08:09:51.54	110.93	12.32	-53.0	-55.4	14.0	0.00e+00	0	27	0	202375168	72	4670
2026-01-14 08:09:52.54	110.86	12.41	-53.1	-55.6	13.9	0.00e+00	0	27	0	203423744	72	4809
2026-01-14 08:09:53.53	110.79	12.50	-53.1	-55.5	13.9	0.00e+00	0	27	0	205520896	72	4745
2026-01-14 08:09:54.53	110.72	12.59	-53.3	-55.9	13.8	0.00e+00	0	27	0	207618048	72	4940
2026-01-14 08:09:55.52	110.65	12.68	-53.0	-55.5	14.0	0.00e+00	0	27	0	209715200	72	4716
2026-01-14 08:09:56.52	110.58	12.77	-52.9	-55.3	14.0	0.00e+00	0	27	0	211812352	72	4638
2026-01-14 08:09:57.51	110.51	12.86	-52.8	-55.2	14.1	0.00e+00	0	27	0	212860928	72	4563
2026-01-14 08:09:58.50	110.44	12.95	-52.8	-55.2	14.1	0.00e+00	0	27	0	214958080	72	4576
2026-01-14 08:09:59.48	110.37	13.04	-52.8	-55.2	14.1	0.00e+00	0	27	0	217055232	72	4557
2026-01-14 08:10:00.48	110.30	13.13	-52.6	-54.9	14.2	0.00e+00	0	27	0	219152384	71	4670
2026-01-14 08:10:01.48	110.23	13.22	-52.7	-55.0	14.1	0.00e+00	0	27	0	220200960	71	4747
2026-01-14 08:10:02.47	110.15	13.32	-53.0	-55.4	13.9	0.00e+00	0	27	0	222298112	71	4951
2026-01-14 08:10:03.46	110.08	13.41	-52.6	-54.8	14.1	0.00e+00	0	27	0	224395264	71	4651
2026-01-14 08:10:04.46	110.01	13.50	-52.6	-54.8	14.2	0.00e+00	0	27	0	226492416	71	4638
2026-01-14 08:10:05.45	109.93	13.59	-52.6	-54.9	14.1	0.00e+00	0	27	0	227540992	71	4689
2026-01-14 08:10:06.44	109.86	13.69	-52.6	-54.9	14.1	0.00e+00	0	27	0	229638144	71	4679
2026-01-14 08:10:07.44	109.78	13.78	-52.5	-54.7	14.2	0.00e+00	0	27	0	231735296	71	4587
2026-01-14 08:10:08.43	109.71	13.87	-52.4	-54.6	14.2	0.00e+00	0	27	0	233832448	71	4540
2026-01-14 08:10:09.43	109.63	13.97	-52.6	-54.9	14.2	0.00e+00	0	27	0	235929600	71	4668
2026-01-14 08:10:10.42	109.55	14.06	-52.9	-55.3	14.0	0.00e+00	0	27	0	236978176	71	4875
2026-01-14 08:10:11.42	109.47	14.16	-52.7	-54.9	14.1	0.00e+00	0	27	0	239075328	71	4687
2026-01-14 08:10:12.41	109.40	14.25	-52.7	-55.0	14.1	0.00e+00	0	27	0	241172480	71	4713
2026-01-14 08:10:13.41	109.32	14.35	-52.8	-55.1	14.0	0.00e+00	0	27	0	243269632	71	4781
2026-01-14 08:10:14.41	109.24	14.45	-52.7	-55.0	14.1	0.00e+00	0	27	0	244318208	71	4735
2026-01-14 08:10:15.40	109.16	14.54	-52.8	-55.1	14.0	0.00e+00	0	27	0	246415360	71	4797
2026-01-14 08:10:16.39	109.08	14.64	-52.9	-55.2	14.0	0.00e+00	0	27	0	248512512	71	4854
2026-01-14 08:10:17.38	109.00	14.73	-52.8	-55.1	14.1	0.00e+00	0	27	0	250609664	71	4774
2026-01-14 08:10:18.37	108.92	14.83	-53.1	-55.6	13.8	0.00e+00	0	27	0	252706816	71	5078
2026-01-14 08:10:19.37	108.84	14.93	-52.9	-55.4	13.9	0.00e+00	0	27	0	253755392	71	4933
2026-01-14 08:10:20.36	108.75	15.03	-52.9	-55.4	13.9	0.00e+00	0	27	0	255852544	71	4935
2026-01-14 08:10:21.36	108.67	15.13	-52.9	-55.4	13.9	0.00e+00	0	27	0	257949696	71	4948
2026-01-14 08:10:22.35	108.59	15.22	-52.9	-55.4	13.9	0.00e+00	0	27	0	260046848	71	4953
2026-01-14 08:10:23.35	108.50	15.32	-52.8	-55.3	14.0	0.00e+00	0	27	0	261095424	71	4880
2026-01-14 08:10:24.34	108.42	15.42	-53.0	-55.5	13.8	0.00e+00	0	27	0	263192576	71	5030
2026-01-14 08:10:25.33	108.33	15.52	-53.0	-55.5	13.8	0.00e+00	0	27	0	265289728	71	5032
2026-01-14 08:10:26.33	108.25	15.62	-53.2	-55.8	13.7	0.00e+00	0	27	0	267386880	71	5201
2026-01-14 08:10:27.31	108.16	15.72	-52.9	-55.4	13.9	0.00e+00	0	27	0	269484032	71	4970
2026-01-14 08:10:28.31	108.08	15.82	-53.0	-55.6	13.9	0.00e+00	0	27	0	270532608	71	5069
2026-01-14 08:10:29.30	107.99	15.92	-53.2	-55.8	13.7	0.00e+00	0	27	0	272629760	71	5184
2026-01-14 08:10:30.30	107.90	16.02	-53.1	-55.6	13.8	0.00e+00	0	27	0	274726912	71	5072
2026-01-14 08:10:31.29	107.81	16.12	-52.8	-55.3	14.0	0.00e+00	0	27	0	276824064	71	4873
2026-01-14 08:10:32.29	107.72	16.23	-52.7	-55.2	14.0	0.00e+00	0	27	0	277872640	71	4826
2026-01-14 08:10:33.29	107.63	16.33	-52.6	-55.0	14.1	0.00e+00	0	27	0	279969792	71	4715
2026-01-14 08:10:34.28	107.54	16.43	-52.6	-55.0	14.1	0.00e+00	0	27	0	282066944	71	4710
2026-01-14 08:10:35.27	107.45	16.53	-52.6	-55.0	14.1	0.00e+00	0	27	0	284164096	71	4722
2026-01-14 08:10:36.25	107.36	16.64	-52.7	-55.1	14.1	0.00e+00	0	27	0	286261248	71	4770
2026-01-14 08:10:37.25	107.27	16.74	-52.9	-55.3	14.0	0.00e+00	0	27	0	287309824	71	4921
2026-01-14 08:10:38.24	107.17	16.84	-52.8	-55.2	14.0	0.00e+00	0	27	0	289406976	71	4826
2026-01-14 08:10:39.24	107.08	16.95	-52.8	-55.3	13.9	0.00e+00	0	27	0	291504128	71	4880
2026-01-14 08:10:40.23	106.98	17.05	-52.8	-55.2	14.0	0.00e+00	0	27	0	293601280	71	4863
2026-01-14 08:10:41.22	106.89	17.16	-52.8	-55.2	14.0	0.00e+00	0	27	0	294649856	71	4819
2026-01-14 08:10:42.21	106.79	17.26	-52.8	-55.1	14.1	0.00e+00	0	27	0	296747008	71	4806
2026-01-14 08:10:43.20	106.70	17.37	-52.7	-54.9	14.1	0.00e+00	0	27	0	298844160	71	4694
2026-01-14 08:10:44.19	106.60	17.47	-52.5	-54.7	14.2	0.00e+00	0	27	0	300941312	71	4589
2026-01-14 08:10:45.19	106.50	17.58	-52.5	-54.7	14.2	0.00e+00	0	27	0	303038464	71	4586
2026-01-14 08:10:46.18	106.40	17.69	-52.5	-54.7	14.2	0.00e+00	0	27	0	304087040	71	4586
2026-01-14 08:10:47.17	106.30	17.79	-52.8	-55.0	14.1	0.00e+00	0	27	0	306184192	71	4746
2026-01-14 08:10:48.17	106.20	17.90	-52.8	-55.1	14.0	0.00e+00	0	27	0	308281344	71	4774
2026-01-14 08:10:49.16	106.10	18.01	-52.7	-54.9	14.2	0.00e+00	0	27	0	310378496	71	4671
2026-01-14 08:10:50.16	106.00	18.12	-52.8	-55.0	14.1	0.00e+00	0	27	0	311427072	71	4731
2026-01-14 08:10:51.15	105.90	18.23	-52.7	-54.9	14.1	0.00e+00	0	27	0	313524224	71	4679
2026-01-14 08:10:52.15	105.79	18.34	-52.7	-54.8	14.2	0.00e+00	0	27	0	315621376	71	4627
2026-01-14 08:10:53.15	105.69	18.45	-52.7	-54.9	14.1	0.00e+00	0	27	0	317718528	71	4672
2026-01-14 08:10:54.15	105.58	18.56	-52.8	-55.0	14.1	0.00e+00	0	27	0	319815680	71	4743
2026-01-14 08:10:55.13	105.48	18.67	-52.7	-54.9	14.2	0.00e+00	0	27	0	320864256	71	4685
2026-01-14 08:10:56.13	105.37	18.78	-52.8	-55.0	14.1	0.00e+00	0	27	0	322961408	71	4743
2026-01-14 08:10:57.12	105.27	18.89	-53.0	-55.3	14.0	0.00e+00	0	27	0	325058560	71	4883
2026-01-14 08:10:58.11	105.16	19.00	-52.9	-55.2	14.0	0.00e+00	0	27	0	327155712	71	4835
2026-01-14 08:10:59.10	105.05	19.11	-53.0	-55.3	14.0	0.00e+00	0	27	0	328204288	71	4875
2026-01-14 08:11:00.09	104.94	19.22	-53.0	-55.3	14.0	0.00e+00	0	27	0	330301440	71	4878
2026-01-14 08:11:01.08	104.83	19.34	-53.0	-55.4	13.9	0.00e+00	0	27	0	332398592	71	4937
2026-01-14 08:11:02.07	104.72	19.45	-52.8	-55.0	14.1	0.00e+00	0	27	0	334495744	71	4723
2026-01-14 08:11:03.07	104.61	19.56	-52.8	-54.9	14.2	0.00e+00	0	27	0	336592896	71	4671
2026-01-14 08:11:04.06	104.49	19.68	-52.6	-54.8	14.2	0.00e+00	0	27	0	337641472	71	4608
2026-01-14 08:11:05.06	104.38	19.79	-52.7	-54.8	14.2	0.00e+00	0	27	0	339738624	71	4606
2026-01-14 08:11:06.05	104.27	19.91	-52.7	-54.8	14.2	0.00e+00	0	27	0	341835776	71	4624
2026-01-14 08:11:07.04	104.15	20.02	-52.6	-54.7	14.3	0.00e+00	0	27	0	343932928	71	4557
2026-01-14 08:11:08.04	104.03	20.14	-52.6	-54.8	14.3	0.00e+00	0	27	0	344981504	71	4605
2026-01-14 08:11:09.03	103.92	20.25	-52.6	-54.8	14.2	0.00e+00	0	27	0	347078656	71	4626
2026-01-14 08:11:10.02	103.80	20.37	-52.4	-54.4	14.3	0.00e+00	0	27	0	349175808	71	4441
2026-01-14 08:11:11.01	103.68	20.48	-52.4	-54.4	14.4	0.00e+00	0	27	0	351272960	71	4430
2026-01-14 08:11:12.01	103.56	20.60	-52.4	-54.5	14.4	0.00e+00	0	27	0	352321536	71	4469
2026-01-14 08:11:13.01	103.44	20.72	-52.3	-54.4	14.4	0.00e+00	0	27	0	354418688	71	4411
2026-01-14 08:11:14.01	103.31	20.84	-52.3	-54.4	14.4	0.00e+00	0	27	0	356515840	71	4419
2026-01-14 08:11:15.00	103.19	20.96	-52.5	-54.7	14.3	0.00e+00	0	27	0	358612992	71	4563
2026-01-14 08:11:15.99	103.07	21.08	-52.7	-54.9	14.2	0.00e+00	0	27	0	360710144	71	4663
2026-01-14 08:11:16.98	102.94	21.19	-52.8	-55.0	14.2	0.00e+00	0	27	0	361758720	71	4727
2026-01-14 08:11:17.97	102.82	21.31	-53.0	-55.4	14.0	0.00e+00	0	27	0	363855872	71	4938
2026-01-14 08:11:18.97	102.69	21.43	-53.1	-55.5	13.9	0.00e+00	0	27	0	365953024	71	5008
2026-01-14 08:11:19.96	102.56	21.55	-53.0	-55.3	14.0	0.00e+00	0	27	0	368050176	71	4893
2026-01-14 08:11:20.96	102.43	21.68	-53.0	-55.4	14.0	0.00e+00	0	27	0	369098752	71	4935
2026-01-14 08:11:21.96	102.30	21.80	-53.1	-55.5	13.9	0.00e+00	0	27	0	371195904	71	5011
2026-01-14 08:11:22.96	102.17	21.92	-53.0	-55.3	14.0	0.00e+00	0	27	0	373293056	71	4890
2026-01-14 08:11:23.95	102.04	22.04	-53.1	-55.5	13.9	0.00e+00	0	27	0	375390208	71	5000
2026-01-14 08:11:24.94	101.91	22.16	-53.0	-55.4	13.9	0.00e+00	0	27	0	377487360	71	4975
2026-01-14 08:11:25.94	101.77	22.29	-53.1	-55.5	13.9	0.00e+00	0	27	0	378535936	71	5039
2026-01-14 08:11:26.93	101.64	22.41	-53.1	-55.5	13.9	0.00e+00	0	27	0	380633088	71	4995
2026-01-14 08:11:27.92	101.50	22.53	-52.8	-55.1	14.1	0.00e+00	0	27	0	382730240	71	4774
2026-01-14 08:11:28.92	101.36	22.66	-52.7	-55.0	14.1	0.00e+00	0	27	0	384827392	71	4730
2026-01-14 08:11:29.92	101.22	22.79	-52.7	-55.0	14.1	0.00e+00	0	27	0	386924544	71	4757
2026-01-14 08:11:30.91	101.08	22.91	-52.7	-55.0	14.1	0.00e+00	0	27	0	387973120	71	4752
2026-01-14 08:11:31.90	100.94	23.04	-52.7	-55.0	14.1	0.00e+00	0	27	0	390070272	71	4753
2026-01-14 08:11:32.89	100.80	23.16	-52.8	-55.2	14.0	0.00e+00	0	27	0	392167424	71	4827
2026-01-14 08:11:33.89	100.66	23.29	-53.1	-55.7	13.8	0.00e+00	0	27	0	394264576	71	5123
2026-01-14 08:11:34.88	100.51	23.41	-53.2	-55.8	13.8	0.00e+00	0	27	0	395313152	71	5162
2026-01-14 08:11:35.88	100.37	23.54	-53.1	-55.6	13.9	0.00e+00	0	27	0	397410304	71	5084
2026-01-14 08:11:36.87	100.22	23.67	-53.2	-55.8	13.8	0.00e+00	0	27	0	399507456	71	5182
2026-01-14 08:11:37.87	100.07	23.80	-53.0	-55.6	13.9	0.00e+00	0	27	0	401604608	71	5087
2026-01-14 08:11:38.86	99.92	23.93	-53.1	-55.7	13.8	0.00e+00	0	27	0	402653184	71	5141
2026-01-14 08:11:39.85	99.77	24.05	-53.0	-55.6	13.9	0.00e+00	0	27	0	404750336	71	5077
2026-01-14 08:11:40.85	99.62	24.18	-53.0	-55.6	13.9	0.00e+00	0	27	0	406847488	71	5047
2026-01-14 08:11:41.84	99.47	24.31	-53.1	-55.8	13.8	0.00e+00	0	27	0	408944640	71	5203
2026-01-14 08:11:42.83	99.31	24.44	-53.1	-55.7	13.8	0.00e+00	0	27	0	411041792	71	5144
2026-01-14 08:11:43.82	99.16	24.57	-52.8	-55.2	14.1	0.00e+00	0	27	0	412090368	71	4863
2026-01-14 08:11:44.81	99.00	24.70	-52.9	-55.4	14.0	0.00e+00	0	27	0	414187520	71	4979
2026-01-14 08:11:45.81	98.84	24.84	-52.8	-55.3	14.1	0.00e+00	0	27	0	416284672	71	4875
2026-01-14 08:11:46.80	98.68	24.97	-52.9	-55.4	14.0	0.00e+00	0	27	0	418381824	71	4930
2026-01-14 08:11:47.79	98.52	25.10	-52.8	-55.2	14.1	0.00e+00	0	27	0	419430400	71	4857
2026-01-14 08:11:48.78	98.36	25.23	-52.8	-55.3	14.1	0.00e+00	0	27	0	421527552	71	4896
2026-01-14 08:11:49.78	98.20	25.37	-53.0	-55.6	13.9	0.00e+00	0	27	0	423624704	71	5054
2026-01-14 08:11:50.77	98.03	25.50	-52.9	-55.4	14.0	0.00e+00	0	27	0	425721856	71	4962
2026-01-14 08:11:51.76	97.87	25.63	-52.8	-55.1	14.1	0.00e+00	0	27	0	427819008	71	4814
2026-01-14 08:11:52.75	97.70	25.77	-53.0	-55.4	13.9	0.00e+00	0	27	0	428867584	71	4964
2026-01-14 08:11:53.75	97.53	25.90	-53.1	-55.5	13.9	0.00e+00	0	27	0	430964736	71	5032
2026-01-14 08:11:54.75	97.36	26.04	-53.2	-55.7	13.8	0.00e+00	0	27	0	433061888	71	5159
2026-01-14 08:11:55.74	97.18	26.17	-53.1	-55.5	13.9	0.00e+00	0	27	0	435159040	71	5039
2026-01-14 08:11:56.73	97.01	26.31	-53.0	-55.4	13.9	0.00e+00	0	27	0	437256192	71	4983
2026-01-14 08:11:57.72	96.84	26.44	-53.0	-55.5	13.9	0.00e+00	0	27	0	438304768	71	4996
2026-01-14 08:11:58.71	96.66	26.58	-52.9	-55.4	14.0	0.00e+00	0	27	0	440401920	71	4933
2026-01-14 08:11:59.70	96.48	26.72	-52.8	-55.3	14.0	0.00e+00	0	27	0	442499072	71	4872
2026-01-14 08:12:00.69	96.30	26.85	-53.0	-55.7	13.8	0.00e+00	0	27	0	444596224	71	5104
2026-01-14 08:12:01.69	96.12	26.99	-53.0	-55.6	13.9	0.00e+00	0	27	0	445644800	71	5047
2026-01-14 08:12:02.68	95.94	27.13	-53.2	-55.9	13.8	0.00e+00	0	27	0	447741952	71	5261
2026-01-14 08:12:03.68	95.75	27.27	-53.3	-56.1	13.6	0.00e+00	0	27	0	449839104	71	5389
2026-01-14 08:12:04.67	95.56	27.41	-53.2	-56.0	13.7	0.00e+00	0	27	0	451936256	71	5283
2026-01-14 08:12:05.67	95.37	27.55	-53.3	-56.2	13.6	0.00e+00	0	27	0	452984832	71	5413
2026-01-14 08:12:06.66	95.18	27.68	-53.2	-56.1	13.6	0.00e+00	0	27	0	455081984	71	5374
2026-01-14 08:12:07.65	94.99	27.82	-53.1	-55.7	13.8	0.00e+00	0	27	0	457179136	71	5151
2026-01-14 08:12:08.65	94.80	27.97	-53.0	-55.6	13.9	0.00e+00	0	27	0	459276288	71	5075
2026-01-14 08:12:09.63	94.61	28.10	-53.1	-55.8	13.8	0.00e+00	0	27	0	461373440	71	5161
2026-01-14 08:12:10.63	94.41	28.25	-53.2	-55.8	13.8	0.00e+00	0	27	0	462422016	71	5196
2026-01-14 08:12:11.62	94.21	28.39	-53.2	-55.7	13.8	0.00e+00	0	27	0	464519168	71	5141
2026-01-14 08:12:12.61	94.01	28.53	-53.3	-55.8	13.8	0.00e+00	0	27	0	466616320	71	5206
2026-01-14 08:12:13.61	93.81	28.67	-53.5	-56.1	13.8	0.00e+00	0	27	0	468713472	72	5053
2026-01-14 08:12:14.60	93.60	28.81	-53.7	-56.4	13.6	0.00e+00	0	27	0	469762048	72	5234
2026-01-14 08:12:15.59	93.40	28.95	-53.5	-56.2	13.7	0.00e+00	0	27	0	471859200	72	5107
2026-01-14 08:12:16.59	93.19	29.10	-54.0	-57.0	13.4	0.00e+00	0	27	0	473956352	73	5311
2026-01-14 08:12:17.58	92.98	29.24	-54.1	-57.2	13.3	0.00e+00	0	27	0	476053504	73	5430
2026-01-14 08:12:18.58	92.77	29.38	-54.1	-57.3	13.2	0.00e+00	0	27	0	478150656	73	5470
2026-01-14 08:12:19.57	92.56	29.53	-53.9	-56.9	13.5	0.00e+00	0	27	0	479199232	73	5247
2026-01-14 08:12:20.56	92.34	29.67	-53.9	-57.0	13.4	0.00e+00	0	27	0	481296384	73	5281
2026-01-14 08:12:21.56	92.12	29.82	-54.3	-57.7	13.1	0.00e+00	0	27	0	483393536	74	5428
2026-01-14 08:12:22.56	91.90	29.96	-54.5	-58.0	12.9	0.00e+00	0	27	0	485490688	74	5599
2026-01-14 08:12:23.55	91.68	30.11	-54.6	-58.3	12.6	7.00e-07	0	27	0	486539264	74	5793
2026-01-14 08:12:24.54	91.46	30.25	-54.9	-58.8	12.5	0.00e+00	0	27	0	488636416	75	5849
2026-01-14 08:12:25.54	91.23	30.40	-54.8	-58.5	12.7	0.00e+00	0	27	0	490733568	75	5644
2026-01-14 08:12:26.53	91.01	30.54	-54.8	-58.5	12.7	0.00e+00	0	27	0	492830720	75	5616
2026-01-14 08:12:27.52	90.78	30.69	-54.4	-57.8	13.1	0.00e+00	0	27	0	494927872	75	5173
2026-01-14 08:12:28.52	90.54	30.83	-54.5	-58.0	13.1	0.00e+00	0	27	0	495976448	75	5293
2026-01-14 08:12:29.51	90.31	30.98	-54.5	-58.0	13.1	0.00e+00	0	27	0	498073600	75	5289
2026-01-14 08:12:30.51	90.07	31.13	-54.4	-57.8	13.1	0.00e+00	0	27	0	500170752	75	5201
2026-01-14 08:12:31.50	89.84	31.27	-54.6	-58.1	12.9	0.00e+00	0	27	0	502267904	75	5368
2026-01-14 08:12:32.49	89.60	31.42	-54.5	-58.0	13.0	0.00e+00	0	27	0	503316480	75	5292
2026-01-14 08:12:33.49	89.35	31.57	-54.7	-58.2	12.9	0.00e+00	0	27	0	505413632	75	5407
2026-01-14 08:12:34.48	89.11	31.71	-54.8	-58.4	12.8	0.00e+00	0	27	0	507510784	75	5533
2026-01-14 08:12:35.47	88.87	31.86	-54.4	-57.5	13.3	0.00e+00	0	27	0	509607936	75	5026
2026-01-14 08:12:36.46	88.62	32.00	-54.6	-57.6	13.2	0.00e+00	0	27	0	510656512	75	5074
2026-01-14 08:12:37.45	88.37	32.15	-54.4	-57.3	13.5	0.00e+00	0	27	0	512753664	75	4887
2026-01-14 08:12:38.44	88.11	32.30	-54.7	-57.8	13.2	0.00e+00	0	27	0	514850816	75	5211
2026-01-14 08:12:39.44	87.86	32.45	-55.0	-58.4	12.7	0.00e+00	0	27	0	516947968	75	5587
2026-01-14 08:12:40.43	87.60	32.59	-55.2	-58.8	12.6	0.00e+00	0	27	0	519045120	75	5804
2026-01-14 08:12:41.42	87.34	32.74	-55.4	-59.3	12.3	0.00e+00	0	27	0	520093696	76	5823
2026-01-14 08:12:42.40	87.08	32.89	-55.2	-58.8	12.6	0.00e+00	0	27	0	522190848	76	5494
2026-01-14 08:12:43.39	86.82	33.03	-55.0	-58.5	12.9	0.00e+00	0	27	0	524288000	76	5307
2026-01-14 08:12:44.39	86.55	33.18	-54.5	-57.7	13.2	0.00e+00	0	27	0	526385152	75	5117
2026-01-14 08:12:45.38	86.28	33.33	-54.1	-56.9	13.5	0.00e+00	0	27	0	527433728	74	4932
2026-01-14 08:12:46.38	86.00	33.48	-53.9	-56.6	13.7	0.00e+00	0	27	0	529530880	74	4774
2026-01-14 08:12:47.38	85.72	33.63	-53.4	-55.8	14.0	0.00e+00	0	27	0	531628032	73	4624
2026-01-14 08:12:48.36	85.45	33.77	-53.2	-55.6	14.0	0.00e+00	0	27	0	533725184	72	4809
2026-01-14 08:12:49.36	85.17	33.92	-52.8	-55.1	14.3	0.00e+00	0	27	0	535822336	72	4530
2026-01-14 08:12:50.35	84.89	34.07	-52.8	-55.2	14.2	0.00e+00	0	27	0	536870912	72	4563
2026-01-14 08:12:51.34	84.60	34.21	-53.1	-55.5	14.1	0.00e+00	0	27	0	538968064	72	4755
2026-01-14 08:12:52.34	84.31	34.36	-53.6	-56.3	13.7	0.00e+00	0	27	0	541065216	72	5169
2026-01-14 08:12:53.33	84.02	34.51	-53.6	-56.5	13.6	0.00e+00	0	27	0	543162368	72	5292
2026-01-14 08:12:54.32	83.73	34.65	-53.8	-56.6	13.5	0.00e+00	0	27	0	544210944	72	5361
2026-01-14 08:12:55.32	83.43	34.80	-53.5	-56.2	13.8	0.00e+00	0	27	0	546308096	72	5131
2026-01-14 08:12:56.32	83.13	34.95	-53.5	-56.1	13.8	0.00e+00	0	27	0	548405248	72	5070
2026-01-14 08:12:57.31	82.83	35.09	-53.6	-56.3	13.6	0.00e+00	0	27	0	550502400	72	5217
2026-01-14 08:12:58.31	82.52	35.24	-53.7	-56.5	13.5	0.00e+00	0	27	0	552599552	72	5312
2026-01-14 08:12:59.30	82.22	35.39	-53.6	-56.4	13.7	0.00e+00	0	27	0	553648128	72	5246
2026-01-14 08:13:00.29	81.91	35.53	-53.7	-56.6	13.5	0.00e+00	0	27	0	555745280	72	5401
2026-01-14 08:13:01.29	81.59	35.68	-53.7	-56.6	13.6	0.00e+00	0	27	0	557842432	72	5352
2026-01-14 08:13:02.29	81.28	35.82	-54.2	-57.2	13.3	0.00e+00	0	27	0	559939584	73	5451
2026-01-14 08:13:03.27	80.96	35.96	-54.2	-57.1	13.3	0.00e+00	0	27	0	562036736	73	5367
2026-01-14 08:13:04.27	80.64	36.11	-53.9	-56.7	13.5	0.00e+00	0	27	0	563085312	73	5136
2026-01-14 08:13:05.26	80.32	36.25	-53.9	-56.6	13.6	0.00e+00	0	27	0	565182464	73	5050
2026-01-14 08:13:06.25	79.99	36.39	-54.2	-57.2	13.3	0.00e+00	0	27	0	567279616	73	5422
2026-01-14 08:13:07.25	79.66	36.54	-54.6	-57.9	13.0	0.00e+00	0	27	0	569376768	74	5535
2026-01-14 08:13:08.23	79.33	36.68	-54.6	-57.9	12.9	0.00e+00	0	27	0	570425344	74	5557
2026-01-14 08:13:09.23	78.99	36.82	-54.7	-58.3	12.6	0.00e+00	0	27	0	572522496	74	5823
2026-01-14 08:13:10.23	78.65	36.96	-54.8	-58.5	12.7	0.00e+00	0	27	0	574619648	75	5645
2026-01-14 08:13:11.23	78.31	37.10	-54.9	-59.0	12.4	0.00e+00	0	27	0	576716800	75	5940
2026-01-14 08:13:12.22	77.97	37.24	-55.0	-59.3	12.1	2.20e-06	0	27	0	578813952	75	6184
2026-01-14 08:13:13.22	77.62	37.38	-54.9	-59.3	12.1	0.00e+00	0	27	0	579862528	75	6189
2026-01-14 08:13:14.22	77.26	37.52	-54.5	-58.4	12.6	0.00e+00	0	27	0	581959680	75	5573
2026-01-14 08:13:15.21	76.91	37.66	-54.6	-58.6	12.5	0.00e+00	0	27	0	584056832	75	5657
2026-01-14 08:13:16.21	76.55	37.80	-54.3	-58.0	12.9	0.00e+00	0	27	0	586153984	75	5304
2026-01-14 08:13:17.21	76.19	37.94	-54.0	-57.3	13.2	0.00e+00	0	27	0	587202560	74	5194
2026-01-14 08:13:18.20	75.83	38.07	-54.0	-57.2	13.4	0.00e+00	0	27	0	589299712	74	5124
2026-01-14 08:13:19.19	75.47	38.21	-53.8	-56.9	13.5	0.00e+00	0	27	0	591396864	74	4950
2026-01-14 08:13:20.18	75.10	38.34	-53.5	-56.3	13.6	0.00e+00	0	27	0	593494016	73	4903
2026-01-14 08:13:21.18	74.73	38.48	-53.3	-56.0	13.8	0.00e+00	0	27	0	595591168	73	4706
2026-01-14 08:13:22.17	74.35	38.61	-53.0	-55.5	14.1	0.00e+00	0	27	0	596639744	72	4716
2026-01-14 08:13:23.16	73.98	38.74	-53.1	-55.5	14.0	0.00e+00	0	27	0	598736896	72	4743
2026-01-14 08:13:24.15	73.60	38.87	-53.3	-55.9	13.8	0.00e+00	0	27	0	600834048	72	4941
2026-01-14 08:13:25.14	73.21	39.00	-53.9	-56.9	13.3	0.00e+00	0	27	0	602931200	72	5546
2026-01-14 08:13:26.14	72.82	39.13	-53.4	-56.1	13.7	0.00e+00	0	27	0	603979776	72	5064
2026-01-14 08:13:27.13	72.44	39.26	-53.2	-55.9	13.8	0.00e+00	0	27	0	606076928	72	4937
2026-01-14 08:13:28.13	72.04	39.38	-53.5	-56.3	13.6	0.00e+00	0	27	0	608174080	72	5186
2026-01-14 08:13:29.12	71.64	39.51	-53.4	-56.2	13.6	0.00e+00	0	27	0	610271232	72	5130
2026-01-14 08:13:30.12	71.24	39.63	-53.5	-56.4	13.5	0.00e+00	0	27	0	611319808	72	5228
2026-01-14 08:13:31.11	70.84	39.76	-53.2	-56.0	13.7	0.00e+00	0	27	0	613416960	72	5026
2026-01-14 08:13:32.11	70.43	39.88	-52.9	-55.5	14.0	0.00e+00	0	27	0	615514112	72	4721
2026-01-14 08:13:33.11	70.02	40.00	-52.6	-55.1	14.0	0.00e+00	0	27	0	617611264	71	4787
2026-01-14 08:13:34.10	69.61	40.12	-52.8	-55.4	14.0	0.00e+00	0	27	0	619708416	71	4948
2026-01-14 08:13:35.10	69.20	40.24	-52.6	-55.1	14.0	0.00e+00	0	27	0	620756992	71	4777
2026-01-14 08:13:36.10	68.77	40.36	-52.6	-55.2	14.0	0.00e+00	0	27	0	622854144	71	4857
2026-01-14 08:13:37.09	68.36	40.47	-52.2	-54.6	14.3	0.00e+00	0	27	0	624951296	71	4529
2026-01-14 08:13:38.08	67.93	40.59	-51.9	-54.2	14.4	0.00e+00	0	27	0	627048448	70	4593
2026-01-14 08:13:39.07	67.51	40.70	-52.0	-54.3	14.3	0.00e+00	0	27	0	629145600	70	4633
2026-01-14 08:13:40.06	67.08	40.81	-51.7	-53.9	14.4	0.00e+00	0	27	0	630194176	69	4696
2026-01-14 08:13:41.05	66.65	40.92	-52.1	-54.5	14.1	0.00e+00	0	27	0	632291328	69	5034
2026-01-14 08:13:42.04	66.22	41.03	-52.8	-55.5	13.7	0.00e+00	0	27	0	634388480	70	5332
2026-01-14 08:13:43.03	65.78	41.14	-53.2	-56.3	13.5	0.00e+00	0	27	0	636485632	71	5517
2026-01-14 08:13:44.02	65.34	41.24	-52.9	-55.9	13.6	0.00e+00	0	27	0	637534208	71	5262
2026-01-14 08:13:45.02	64.89	41.34	-52.3	-54.9	14.1	0.00e+00	0	27	0	639631360	71	4663
2026-01-14 08:13:46.00	64.45	41.44	-51.9	-54.3	14.3	0.00e+00	0	27	0	641728512	70	4629
2026-01-14 08:13:47.00	64.00	41.55	-51.9	-54.2	14.3	0.00e+00	0	27	0	643825664	69	4861
2026-01-14 08:13:48.00	63.54	41.64	-51.9	-54.2	14.2	0.00e+00	0	27	0	644874240	69	4869
2026-01-14 08:13:49.00	63.08	41.74	-51.4	-53.6	14.4	0.00e+00	0	27	0	646971392	69	4519
2026-01-14 08:13:49.99	62.63	41.84	-51.0	-53.0	14.6	0.00e+00	0	27	0	649068544	68	4463
2026-01-14 08:13:50.98	62.17	41.93	-51.1	-53.1	14.6	0.00e+00	0	27	0	651165696	68	4536
2026-01-14 08:13:51.98	61.70	42.02	-51.3	-53.3	14.5	0.00e+00	0	27	0	653262848	68	4651
2026-01-14 08:13:52.97	61.24	42.11	-51.3	-53.3	14.5	0.00e+00	0	27	0	654311424	68	4644
2026-01-14 08:13:53.97	60.77	42.20	-51.7	-53.9	14.3	0.00e+00	0	27	0	656408576	68	4930
2026-01-14 08:13:54.96	60.30	42.28	-52.2	-54.6	14.1	0.00e+00	0	27	0	658505728	69	5042
2026-01-14 08:13:55.95	59.82	42.37	-52.8	-55.4	13.8	0.00e+00	0	27	0	660602880	70	5264
2026-01-14 08:13:56.94	59.35	42.45	-53.6	-56.5	13.5	0.00e+00	0	27	0	661651456	72	5322
2026-01-14 08:13:57.93	58.87	42.53	-53.4	-56.3	13.6	0.00e+00	0	27	0	663748608	72	5182
2026-01-14 08:13:58.93	58.39	42.60	-52.9	-55.5	14.0	0.00e+00	0	27	0	665845760	72	4731
2026-01-14 08:13:59.92	57.91	42.68	-52.4	-54.7	14.3	0.00e+00	0	27	0	667942912	71	4556
2026-01-14 08:14:00.92	57.42	42.75	-52.8	-55.2	14.0	0.00e+00	0	27	0	670040064	71	4846
2026-01-14 08:14:01.92	56.93	42.82	-53.1	-55.6	13.9	0.00e+00	0	27	0	671088640	71	5081
2026-01-14 08:14:02.92	56.44	42.89	-53.3	-55.9	13.8	0.00e+00	0	27	0	673185792	72	4983
2026-01-14 08:14:03.91	55.95	42.96	-52.6	-54.8	14.2	0.00e+00	0	27	0	675282944	71	4649
2026-01-14 08:14:04.90	55.45	43.02	-52.6	-54.9	14.2	0.00e+00	0	27	0	677380096	71	4701
2026-01-14 08:14:05.89	54.96	43.08	-52.6	-54.8	14.2	0.00e+00	0	27	0	678428672	71	4629
2026-01-14 08:14:06.89	54.46	43.14	-52.9	-55.3	14.0	0.00e+00	0	27	0	680525824	71	4919
2026-01-14 08:14:07.88	53.96	43.20	-52.9	-55.4	13.9	0.00e+00	0	27	0	682622976	71	4929
2026-01-14 08:14:08.87	53.46	43.25	-53.1	-55.8	13.7	0.00e+00	0	27	0	684720128	71	5165
2026-01-14 08:14:09.86	52.96	43.30	-53.5	-56.5	13.5	0.00e+00	0	27	0	686817280	72	5328
2026-01-14 08:14:10.86	52.46	43.35	-53.7	-56.8	13.3	0.00e+00	0	27	0	687865856	72	5499
2026-01-14 08:14:11.85	51.95	43.40	-53.4	-56.2	13.7	0.00e+00	0	27	0	689963008	72	5139
2026-01-14 08:14:12.84	51.45	43.44	-52.4	-54.8	14.2	0.00e+00	0	27	0	692060160	71	4606
2026-01-14 08:14:13.84	50.93	43.49	-52.1	-54.3	14.3	0.00e+00	0	27	0	694157312	70	4629
2026-01-14 08:14:14.83	50.43	43.53	-52.2	-54.6	14.2	0.00e+00	0	27	0	695205888	70	4795
2026-01-14 08:14:15.83	49.91	43.56	-52.5	-55.0	14.0	0.00e+00	0	27	0	697303040	70	4994
2026-01-14 08:14:16.82	49.40	43.60	-52.6	-55.2	13.9	0.00e+00	0	27	0	699400192	70	5119
2026-01-14 08:14:17.82	48.88	43.63	-53.0	-55.7	13.8	0.00e+00	0	27	0	701497344	71	5127
2026-01-14 08:14:18.81	48.37	43.66	-53.2	-56.1	13.6	0.00e+00	0	27	0	703594496	71	5348
2026-01-14 08:14:19.81	47.85	43.69	-53.4	-56.4	13.5	0.00e+00	0	27	0	704643072	72	5274
2026-01-14 08:14:20.81	47.33	43.71	-53.5	-56.7	13.4	0.00e+00	0	27	0	706740224	72	5407
2026-01-14 08:14:21.80	46.82	43.73	-53.6	-56.7	13.3	0.00e+00	0	27	0	708837376	72	5461
2026-01-14 08:14:22.79	46.30	43.75	-53.6	-56.7	13.4	0.00e+00	0	27	0	710934528	72	5419
2026-01-14 08:14:23.78	45.79	43.77	-53.1	-55.9	13.8	0.00e+00	0	27	0	711983104	72	4958
2026-01-14 08:14:24.78	45.27	43.78	-52.8	-55.5	13.9	0.00e+00	0	27	0	714080256	72	4729
2026-01-14 08:14:25.77	44.75	43.80	-53.2	-56.1	13.7	0.00e+00	0	27	0	716177408	72	5086
2026-01-14 08:14:26.76	44.23	43.80	-53.7	-57.0	13.2	0.00e+00	0	27	0	718274560	72	5649
2026-01-14 08:14:27.76	43.71	43.81	-54.0	-57.5	13.0	0.00e+00	0	27	0	720371712	73	5624
2026-01-14 08:14:28.75	43.19	43.81	-53.7	-56.9	13.3	0.00e+00	0	27	0	721420288	73	5266
2026-01-14 08:14:29.75	42.67	43.81	-53.0	-55.7	13.8	0.00e+00	0	28	0	723517440	72	4852
2026-01-14 08:14:30.74	42.15	43.81	-52.7	-55.2	14.1	0.00e+00	0	27	0	725614592	72	4578
2026-01-14 08:14:31.73	41.63	43.81	-53.2	-56.1	13.6	0.00e+00	0	27	0	727711744	71	5350
2026-01-14 08:14:32.72	41.11	43.80	-53.7	-56.7	13.4	0.00e+00	0	27	0	728760320	72	5456
2026-01-14 08:14:33.72	40.59	43.79	-53.6	-56.6	13.4	0.00e+00	0	27	0	730857472	72	5378
2026-01-14 08:14:34.70	40.08	43.78	-54.0	-57.4	13.1	0.00e+00	0	27	0	732954624	73	5545
2026-01-14 08:14:35.70	39.56	43.76	-54.1	-57.8	12.9	0.00e+00	0	27	0	735051776	73	5792
2026-01-14 08:14:36.69	39.04	43.75	-54.2	-57.9	12.7	0.00e+00	0	27	0	737148928	73	5898
2026-01-14 08:14:37.68	38.53	43.73	-54.1	-57.7	12.8	0.00e+00	0	27	0	738197504	73	5783
2026-01-14 08:14:38.68	38.01	43.70	-54.3	-58.2	12.6	0.00e+00	0	27	0	740294656	73	6098
2026-01-14 08:14:39.67	37.49	43.68	-54.3	-58.1	12.7	0.00e+00	0	27	0	742391808	74	5680
2026-01-14 08:14:40.67	36.98	43.65	-54.5	-58.3	12.6	0.00e+00	0	27	0	744488960	74	5840
2026-01-14 08:14:41.66	36.46	43.62	-54.3	-57.9	12.9	0.00e+00	0	27	0	745537536	74	5567
2026-01-14 08:14:42.65	35.95	43.59	-54.2	-57.8	12.9	0.00e+00	0	27	0	747634688	74	5481
2026-01-14 08:14:43.65	35.44	43.55	-54.0	-57.3	13.2	0.00e+00	0	27	0	749731840	74	5191
2026-01-14 08:14:44.65	34.93	43.51	-53.9	-57.2	13.3	0.00e+00	0	27	0	751828992	74	5133
2026-01-14 08:14:45.64	34.42	43.47	-54.0	-57.5	13.1	0.00e+00	0	27	0	753926144	74	5291
2026-01-14 08:14:46.63	33.91	43.43	-54.4	-58.2	12.6	0.00e+00	0	27	0	754974720	74	5786
2026-01-14 08:14:47.63	33.40	43.38	-54.3	-58.1	12.7	0.00e+00	0	27	0	757071872	74	5664
2026-01-14 08:14:48.63	32.89	43.33	-54.3	-58.1	12.8	0.00e+00	0	27	0	759169024	74	5674
2026-01-14 08:14:49.61	32.40	43.28	-54.4	-58.2	12.7	0.00e+00	0	27	0	761266176	74	5767
2026-01-14 08:14:50.61	31.89	43.23	-54.5	-58.4	12.5	0.00e+00	0	27	0	762314752	74	5894
2026-01-14 08:14:51.60	31.39	43.17	-54.1	-57.7	12.9	0.00e+00	0	27	0	764411904	74	5439
2026-01-14 08:14:52.60	30.89	43.12	-53.8	-57.3	13.1	0.00e+00	0	27	0	766509056	74	5206
2026-01-14 08:14:53.59	30.40	43.06	-54.0	-57.8	12.9	0.00e+00	0	27	0	768606208	74	5470
2026-01-14 08:14:54.59	29.90	42.99	-54.7	-59.2	12.0	0.00e+00	0	27	0	770703360	74	6476
2026-01-14 08:14:55.59	29.41	42.93	-54.5	-58.6	12.5	0.00e+00	0	27	0	771751936	74	6037
2026-01-14 08:14:56.58	28.92	42.86	-53.9	-57.5	13.1	0.00e+00	0	27	0	773849088	74	5283
2026-01-14 08:14:57.57	28.43	42.79	-52.5	-55.2	14.0	0.00e+00	0	27	0	775946240	71	4825
2026-01-14 08:14:58.57	27.94	42.72	-52.2	-54.6	14.1	0.00e+00	0	27	0	778043392	70	4811
2026-01-14 08:14:59.56	27.46	42.65	-52.0	-54.4	14.3	0.00e+00	0	27	0	779091968	70	4669
2026-01-14 08:15:00.56	26.97	42.57	-52.6	-55.3	13.9	0.00e+00	0	27	0	781189120	70	5190
2026-01-14 08:15:01.56	26.49	42.49	-52.8	-55.5	13.8	0.00e+00	0	27	0	783286272	70	5305
2026-01-14 08:15:02.55	26.02	42.41	-52.6	-55.1	14.1	0.00e+00	0	27	0	785383424	71	4792
2026-01-14 08:15:03.55	25.54	42.33	-52.0	-54.2	14.3	0.00e+00	0	27	0	787480576	70	4588
2026-01-14 08:15:04.54	25.07	42.25	-51.4	-53.5	14.5	0.00e+00	0	27	0	788529152	69	4461
2026-01-14 08:15:05.53	24.60	42.16	-51.3	-53.4	14.6	0.00e+00	0	27	0	790626304	69	4423
2026-01-14 08:15:06.52	24.14	42.07	-51.9	-54.1	14.3	0.00e+00	0	27	0	792723456	69	4814
2026-01-14 08:15:07.52	23.67	41.98	-51.7	-53.9	14.3	0.00e+00	0	27	0	794820608	69	4677
2026-01-14 08:15:08.51	23.21	41.89	-51.6	-53.7	14.4	0.00e+00	0	27	0	795869184	69	4555
2026-01-14 08:15:09.51	22.75	41.80	-51.1	-53.1	14.6	0.00e+00	0	27	0	797966336	68	4510
2026-01-14 08:15:10.51	22.29	41.70	-51.0	-53.0	14.6	0.00e+00	0	27	0	800063488	68	4468
2026-01-14 08:15:11.50	21.83	41.61	-51.6	-53.8	14.2	0.00e+00	0	27	0	802160640	68	4876
2026-01-14 08:15:12.49	21.39	41.51	-52.1	-54.4	14.1	0.00e+00	0	27	0	804257792	69	4970
2026-01-14 08:15:13.49	20.93	41.41	-52.5	-55.1	13.9	0.00e+00	0	27	0	805306368	70	5087
2026-01-14 08:15:14.49	20.49	41.30	-52.8	-55.4	13.8	0.00e+00	0	27	0	807403520	70	5277
2026-01-14 08:15:15.48	20.05	41.20	-52.2	-54.5	14.2	0.00e+00	0	27	0	809500672	70	4749
2026-01-14 08:15:16.48	19.60	41.09	-51.5	-53.5	14.6	0.00e+00	0	27	0	811597824	69	4449
2026-01-14 08:15:17.47	19.17	40.99	-51.1	-53.0	14.6	0.00e+00	0	27	0	812646400	68	4457
2026-01-14 08:15:18.47	18.73	40.88	-50.8	-52.6	14.8	0.00e+00	0	27	0	814743552	68	4285
2026-01-14 08:15:19.47	18.30	40.76	-50.7	-52.4	14.8	0.00e+00	0	27	0	816840704	68	4178
2026-01-14 08:15:20.46	17.87	40.65	-50.5	-52.3	14.8	0.00e+00	0	27	0	818937856	67	4360
2026-01-14 08:15:21.46	17.44	40.54	-50.6	-52.5	14.7	0.00e+00	0	27	0	821035008	67	4442
2026-01-14 08:15:22.45	17.02	40.42	-50.9	-52.9	14.6	0.00e+00	0	27	0	822083584	67	4662
2026-01-14 08:15:23.45	16.60	40.31	-50.7	-52.5	14.7	0.00e+00	0	27	0	824180736	67	4461
2026-01-14 08:15:24.44	16.19	40.19	-50.4	-52.1	14.8	0.00e+00	0	27	0	826277888	67	4281
2026-01-14 08:15:25.43	15.78	40.07	-50.2	-51.9	14.8	0.00e+00	0	27	0	828375040	66	4417
2026-01-14 08:15:26.43	15.37	39.95	-50.3	-52.1	14.7	0.00e+00	0	27	0	829423616	66	4498
2026-01-14 08:15:27.42	14.96	39.83	-49.9	-51.5	14.9	0.00e+00	0	27	0	831520768	66	4225
2026-01-14 08:15:28.41	14.56	39.71	-49.6	-51.3	14.9	0.00e+00	0	27	0	833617920	65	4345
2026-01-14 08:15:29.41	14.16	39.58	-50.2	-51.9	14.7	0.00e+00	0	27	0	835715072	65	4665
2026-01-14 08:15:30.40	13.76	39.46	-51.2	-53.2	14.5	0.00e+00	0	27	0	837812224	67	4830
2026-01-14 08:15:31.40	13.36	39.33	-51.5	-53.5	14.4	0.00e+00	0	27	0	838860800	68	4742
2026-01-14 08:15:32.39	12.97	39.21	-50.8	-52.6	14.8	0.00e+00	0	27	0	840957952	68	4282
2026-01-14 08:15:33.39	12.58	39.08	-50.0	-51.6	14.9	0.00e+00	0	27	0	843055104	66	4283
2026-01-14 08:15:34.38	12.20	38.95	-50.2	-51.9	14.8	0.00e+00	0	27	0	845152256	66	4401
2026-01-14 08:15:35.37	11.82	38.82	-50.4	-52.1	14.7	0.00e+00	0	27	0	846200832	66	4512
2026-01-14 08:15:36.36	11.44	38.69	-50.3	-52.0	14.8	0.00e+00	0	27	0	848297984	66	4453
2026-01-14 08:15:37.35	11.07	38.56	-50.5	-52.2	14.7	0.00e+00	0	27	0	850395136	66	4597
2026-01-14 08:15:38.35	10.69	38.42	-51.1	-53.0	14.5	0.00e+00	0	27	0	852492288	67	4723
2026-01-14 08:15:39.34	10.32	38.29	-52.2	-54.3	14.3	0.00e+00	0	27	0	854589440	69	4874
2026-01-14 08:15:40.33	9.96	38.16	-52.3	-54.4	14.2	0.00e+00	0	27	0	855638016	69	4963
2026-01-14 08:15:41.33	9.59	38.02	-51.7	-53.6	14.6	0.00e+00	0	27	0	857735168	69	4500
2026-01-14 08:15:42.33	9.23	37.88	-51.4	-53.3	14.7	0.00e+00	0	27	0	859832320	69	4345
2026-01-14 08:15:43.32	8.87	37.75	-51.9	-53.8	14.5	0.00e+00	0	27	0	861929472	69	4648
2026-01-14 08:15:44.32	8.52	37.61	-52.7	-54.9	14.2	0.00e+00	0	27	0	862978048	70	4958
2026-01-14 08:15:45.31	8.17	37.47	-52.6	-54.8	14.2	0.00e+00	0	27	0	865075200	70	4898
2026-01-14 08:15:46.31	7.82	37.33	-52.4	-54.5	14.3	0.00e+00	0	27	0	867172352	70	4707
2026-01-14 08:15:47.30	7.47	37.19	-52.3	-54.4	14.4	0.00e+00	0	27	0	869269504	70	4672
2026-01-14 08:15:48.30	7.13	37.05	-52.7	-54.8	14.2	0.00e+00	0	27	0	871366656	70	4923
2026-01-14 08:15:49.29	6.79	36.91	-53.0	-55.2	14.1	0.00e+00	0	27	0	872415232	71	4839
2026-01-14 08:15:50.27	6.46	36.77	-52.4	-54.4	14.4	0.00e+00	0	27	0	874512384	71	4431
2026-01-14 08:15:51.27	6.12	36.63	-51.8	-53.6	14.6	0.00e+00	0	27	0	876609536	70	4285
2026-01-14 08:15:52.27	5.79	36.49	-51.6	-53.4	14.6	0.00e+00	0	27	0	878706688	69	4427
2026-01-14 08:15:53.27	5.46	36.35	-52.0	-53.9	14.4	0.00e+00	0	27	0	879755264	69	4670
2026-01-14 08:15:54.26	5.13	36.20	-52.4	-54.4	14.2	0.00e+00	0	27	0	881852416	70	4661
2026-01-14 08:15:55.24	4.82	36.06	-52.1	-53.9	14.6	0.00e+00	0	27	0	883949568	70	4427
2026-01-14 08:15:56.24	4.50	35.92	-52.1	-54.0	14.5	0.00e+00	0	27	0	886046720	70	4480
2026-01-14 08:15:57.24	4.18	35.77	-52.4	-54.3	14.4	0.00e+00	0	27	0	888143872	70	4628
2026-01-14 08:15:58.23	3.86	35.63	-52.3	-54.3	14.4	0.00e+00	0	27	0	889192448	70	4601
2026-01-14 08:15:59.22	3.56	35.48	-52.3	-54.3	14.4	0.00e+00	0	27	0	891289600	70	4602
2026-01-14 08:16:00.22	3.25	35.34	-51.9	-53.7	14.6	0.00e+00	0	27	0	893386752	70	4330
2026-01-14 08:16:01.22	2.94	35.19	-52.2	-54.1	14.4	0.00e+00	0	27	0	895483904	70	4506
2026-01-14 08:16:02.22	2.63	35.04	-52.9	-55.1	14.0	0.00e+00	0	27	0	896532480	70	5089
2026-01-14 08:16:03.21	2.34	34.90	-53.8	-56.3	13.6	0.00e+00	0	27	0	898629632	72	5197
2026-01-14 08:16:04.21	2.04	34.75	-53.4	-55.8	13.9	0.00e+00	0	27	0	900726784	72	4910
2026-01-14 08:16:05.20	1.74	34.61	-53.0	-55.2	14.2	0.00e+00	0	27	0	902823936	72	4552
2026-01-14 08:16:06.19	1.45	34.46	-52.4	-54.4	14.4	0.00e+00	0	27	0	904921088	71	4403
2026-01-14 08:16:07.18	1.16	34.31	-52.7	-54.7	14.3	0.00e+00	0	27	0	905969664	71	4595
2026-01-14 08:16:08.18	0.88	34.17	-52.9	-55.1	14.1	0.00e+00	0	27	0	908066816	71	4798
2026-01-14 08:16:09.18	0.59	34.02	-53.2	-55.6	13.9	0.00e+00	0	27	0	910163968	71	5049
2026-01-14 08:16:10.17	0.31	33.87	-53.3	-55.7	13.9	0.00e+00	0	27	0	912261120	71	5109
2026-01-14 08:16:11.16	0.03	33.73	-54.0	-56.7	13.5	0.00e+00	0	27	0	913309696	73	5134
2026-01-14 08:16:12.15	359.76	33.58	-54.9	-58.2	13.0	0.00e+00	0	27	0	915406848	75	5413
2026-01-14 08:16:13.14	359.49	33.43	-55.8	-59.7	12.2	0.00e+00	0	27	0	917504000	76	6098
2026-01-14 08:16:14.13	359.21	33.29	-55.7	-59.6	12.2	7.00e-07	0	27	0	919601152	77	5666
2026-01-14 08:16:15.13	358.94	33.14	-55.1	-58.4	13.0	0.00e+00	0	27	0	921698304	76	5241
2026-01-14 08:16:16.13	358.68	32.99	-54.3	-57.0	13.6	0.00e+00	0	27	0	922746880	75	4756
2026-01-14 08:16:17.11	358.42	32.85	-54.3	-57.0	13.6	0.00e+00	0	27	0	924844032	75	4746
2026-01-14 08:16:18.11	358.15	32.70	-54.8	-57.9	13.0	0.00e+00	0	27	0	926941184	74	5553
2026-01-14 08:16:19.11	357.89	32.55	-55.1	-58.4	12.7	0.00e+00	0	27	0	929038336	75	5587
2026-01-14 08:16:20.10	357.64	32.40	-55.6	-59.4	12.2	0.00e+00	0	27	0	930086912	76	5894
2026-01-14 08:16:21.10	357.38	32.26	-55.1	-58.4	12.8	0.00e+00	0	27	0	932184064	76	5270
2026-01-14 08:16:22.09	357.13	32.11	-54.8	-57.9	13.2	0.00e+00	0	27	0	934281216	76	4927
2026-01-14 08:16:23.08	356.88	31.96	-54.6	-57.5	13.3	0.00e+00	0	27	0	936378368	75	5027
2026-01-14 08:16:24.07	356.63	31.82	-54.4	-57.2	13.4	0.00e+00	0	27	0	938475520	75	4855
2026-01-14 08:16:25.07	356.39	31.67	-54.1	-56.8	13.6	0.00e+00	0	27	0	939524096	74	4897
2026-01-14 08:16:26.07	356.14	31.52	-53.9	-56.5	13.8	0.00e+00	0	27	0	941621248	74	4709
2026-01-14 08:16:27.05	355.91	31.38	-53.9	-56.4	13.8	0.00e+00	0	27	0	943718400	74	4680
2026-01-14 08:16:28.04	355.67	31.23	-54.1	-56.6	13.7	0.00e+00	0	27	0	945815552	74	4798
2026-01-14 08:16:29.04	355.43	31.09	-54.1	-56.8	13.6	0.00e+00	0	27	0	946864128	74	4882
2026-01-14 08:16:30.03	355.20	30.94	-54.4	-57.2	13.4	0.00e+00	0	27	0	948961280	74	5112
2026-01-14 08:16:31.03	354.96	30.79	-54.2	-56.8	13.6	0.00e+00	0	27	0	951058432	74	4913
2026-01-14 08:16:32.02	354.73	30.65	-53.8	-56.3	13.8	0.00e+00	0	27	0	953155584	73	4871
2026-01-14 08:16:33.01	354.51	30.50	-53.4	-55.7	14.1	0.00e+00	0	27	0	954204160	73	4570
2026-01-14 08:16:34.01	354.28	30.36	-53.0	-55.2	14.2	0.00e+00	0	27	0	956301312	72	4562
2026-01-14 08:16:35.00	354.06	30.21	-53.2	-55.5	14.1	0.00e+00	0	27	0	958398464	72	4718
2026-01-14 08:16:36.00	353.83	30.07	-53.6	-56.0	13.8	0.00e+00	0	27	0	960495616	72	5024
2026-01-14 08:16:37.00	353.61	29.92	-54.0	-56.6	13.6	0.00e+00	0	27	0	962592768	73	5089
2026-01-14 08:16:37.99	353.40	29.78	-54.4	-57.3	13.2	0.00e+00	0	27	0	963641344	73	5493
2026-01-14 08:16:38.98	353.18	29.64	-54.4	-57.3	13.3	0.00e+00	0	27	0	965738496	74	5188
2026-01-14 08:16:39.98	352.97	29.49	-53.8	-56.3	13.8	0.00e+00	0	27	0	967835648	74	4641
2026-01-14 08:16:40.98	352.75	29.35	-53.5	-55.9	13.9	0.00e+00	0	27	0	969932800	73	4671
2026-01-14 08:16:41.97	352.54	29.21	-53.5	-55.8	14.0	0.00e+00	0	27	0	972029952	73	4648
2026-01-14 08:16:42.96	352.34	29.06	-53.3	-55.7	14.0	0.00e+00	0	27	0	973078528	73	4572
2026-01-14 08:16:43.96	352.13	28.92	-53.4	-55.8	13.9	0.00e+00	0	27	0	975175680	72	4890
2026-01-14 08:16:44.95	351.93	28.78	-53.5	-55.9	13.8	0.00e+00	0	27	0	977272832	72	4962
2026-01-14 08:16:45.95	351.72	28.64	-53.4	-55.9	13.8	0.00e+00	0	27	0	979369984	72	4938
2026-01-14 08:16:46.94	351.52	28.50	-53.6	-56.1	13.8	0.00e+00	0	27	0	980418560	72	5073
2026-01-14 08:16:47.93	351.32	28.36	-53.3	-55.8	13.9	0.00e+00	0	27	0	982515712	72	4871
2026-01-14 08:16:48.92	351.13	28.22	-53.6	-56.1	13.7	0.00e+00	0	27	0	984612864	72	5083
2026-01-14 08:16:49.91	350.93	28.08	-53.6	-56.2	13.7	0.00e+00	0	27	0	986710016	72	5102
2026-01-14 08:16:50.90	350.74	27.94	-53.6	-56.0	13.8	0.00e+00	0	27	0	987758592	72	5040
2026-01-14 08:16:51.89	350.55	27.80	-53.5	-56.0	13.8	0.00e+00	0	27	0	989855744	72	5028
2026-01-14 08:16:52.89	350.36	27.66	-54.0	-56.8	13.5	0.00e+00	0	27	0	991952896	73	5164
2026-01-14 08:16:53.89	350.17	27.52	-53.8	-56.3	13.7	0.00e+00	0	27	0	994050048	73	4920
2026-01-14 08:16:54.87	349.98	27.38	-53.4	-55.8	14.0	0.00e+00	0	27	0	996147200	73	4633
2026-01-14 08:16:55.88	349.79	27.24	-53.7	-56.2	13.8	0.00e+00	0	27	0	997195776	73	4817
2026-01-14 08:16:56.87	349.61	27.10	-53.3	-55.6	14.1	0.00e+00	0	27	0	999292928	73	4542
2026-01-14 08:16:57.86	349.43	26.97	-53.0	-55.2	14.2	0.00e+00	0	27	0	1001390080	72	4594
2026-01-14 08:16:58.85	349.25	26.83	-52.7	-54.7	14.3	0.00e+00	0	27	0	1003487232	71	4583
2026-01-14 08:16:59.85	349.07	26.69	-52.7	-54.8	14.2	0.00e+00	0	27	0	1004535808	71	4643
2026-01-14 08:17:00.85	348.89	26.55	-52.9	-55.1	14.1	0.00e+00	0	27	0	1006632960	71	4778
2026-01-14 08:17:01.84	348.71	26.42	-53.1	-55.3	14.0	0.00e+00	0	27	0	1008730112	71	4908
2026-01-14 08:17:02.84	348.54	26.28	-53.1	-55.3	14.0	0.00e+00	0	27	0	1010827264	71	4902
2026-01-14 08:17:03.83	348.37	26.15	-53.5	-55.9	13.8	0.00e+00	0	27	0	1012924416	72	4971
2026-01-14 08:17:04.83	348.19	26.01	-53.4	-55.7	13.9	0.00e+00	0	27	0	1013972992	72	4834
2026-01-14 08:17:05.82	348.03	25.88	-53.5	-55.8	13.9	0.00e+00	0	27	0	1016070144	72	4915
2026-01-14 08:17:06.81	347.86	25.74	-53.7	-56.2	13.7	0.00e+00	0	27	0	1018167296	72	5143
2026-01-14 08:17:07.80	347.69	25.61	-53.3	-55.6	14.0	0.00e+00	0	27	0	1020264448	72	4768
2026-01-14 08:17:08.80	347.53	25.48	-53.0	-55.2	14.1	0.00e+00	0	27	0	1021313024	72	4556
2026-01-14 08:17:09.79	347.36	25.35	-52.6	-54.7	14.3	0.00e+00	0	27	0	1023410176	71	4547
2026-01-14 08:17:10.78	347.20	25.21	-52.4	-54.5	14.4	0.00e+00	0	27	0	1025507328	71	4457
2026-01-14 08:17:11.77	347.04	25.08	-52.2	-54.1	14.4	0.00e+00	0	27	0	1027604480	70	4532
2026-01-14 08:17:12.77	346.88	24.95	-52.6	-54.6	14.2	0.00e+00	0	27	0	1029701632	70	4808
2026-01-14 08:17:13.77	346.72	24.82	-52.7	-54.8	14.1	0.00e+00	0	27	0	1030750208	70	4913
2026-01-14 08:17:14.77	346.56	24.69	-52.8	-55.0	14.1	0.00e+00	0	27	0	1032847360	70	5000
2026-01-14 08:17:15.76	346.40	24.56	-53.2	-55.5	13.9	0.00e+00	0	27	0	1034944512	71	5011
2026-01-14 08:17:16.75	346.25	24.43	-53.4	-55.8	13.8	0.00e+00	0	27	0	1037041664	71	5213
2026-01-14 08:17:17.75	346.10	24.30	-53.6	-56.1	13.7	0.00e+00	0	27	0	1038090240	72	5097
2026-01-14 08:17:18.74	345.94	24.17	-53.5	-55.9	13.8	0.00e+00	0	27	0	1040187392	72	4966
2026-01-14 08:17:19.72	345.80	24.04	-53.5	-56.0	13.8	0.00e+00	0	27	0	1042284544	72	5024
2026-01-14 08:17:20.71	345.65	23.91	-53.4	-55.8	13.8	0.00e+00	0	27	0	1044381696	72	4895
2026-01-14 08:17:21.70	345.50	23.78	-53.5	-56.0	13.8	0.00e+00	0	27	0	1046478848	72	5002
2026-01-14 08:17:22.70	345.35	23.66	-53.6	-56.1	13.7	0.00e+00	0	27	0	1047527424	72	5089
2026-01-14 08:17:23.70	345.20	23.53	-54.1	-56.8	13.4	0.00e+00	0	27	0	1049624576	73	5174
2026-01-14 08:17:24.69	345.06	23.40	-54.4	-57.2	13.2	0.00e+00	0	27	0	1051721728	73	5462
2026-01-14 08:17:25.69	344.92	23.28	-54.3	-57.2	13.3	0.00e+00	0	27	0	1053818880	73	5421
2026-01-14 08:17:26.68	344.77	23.15	-54.2	-57.0	13.3	0.00e+00	0	27	0	1054867456	73	5334
2026-01-14 08:17:27.67	344.63	23.03	-54.1	-56.9	13.4	0.00e+00	0	27	0	1056964608	73	5245
2026-01-14 08:17:28.67	344.49	22.90	-54.0	-56.6	13.5	0.00e+00	0	27	0	1059061760	73	5062
2026-01-14 08:17:29.67	344.35	22.77	-53.4	-55.8	14.0	0.00e+00	0	27	0	1061158912	73	4635
2026-01-14 08:17:30.67	344.22	22.65	-53.2	-55.5	14.1	0.00e+00	0	27	0	1063256064	73	4480
2026-01-14 08:17:31.66	344.08	22.53	-53.1	-55.4	14.1	0.00e+00	0	27	0	1064304640	72	4660
2026-01-14 08:17:32.65	343.94	22.40	-52.8	-54.9	14.3	0.00e+00	0	27	0	1066401792	72	4401
2026-01-14 08:17:33.65	343.81	22.28	-52.8	-54.9	14.3	0.00e+00	0	27	0	1068498944	72	4433
2026-01-14 08:17:34.65	343.68	22.16	-52.8	-54.9	14.3	0.00e+00	0	27	0	1070596096	72	4407
2026-01-14 08:17:35.64	343.54	22.03	-52.8	-55.0	14.1	0.00e+00	0	27	0	1071644672	71	4722
2026-01-14 08:17:36.63	343.41	21.91	-52.8	-55.0	14.2	0.00e+00	0	27	0	1073741824	71	4715
2026-01-14 08:17:37.63	343.28	21.79	-52.8	-55.0	14.1	0.00e+00	0	27	0	1075838976	71	4727
2026-01-14 08:17:38.62	343.15	21.67	-52.9	-55.1	14.1	0.00e+00	0	27	0	1077936128	71	4783
2026-01-14 08:17:39.61	343.03	21.55	-52.9	-55.1	14.1	0.00e+00	0	27	0	1080033280	71	4800
2026-01-14 08:17:40.61	342.90	21.43	-53.0	-55.2	14.0	0.00e+00	0	27	0	1081081856	71	4845
2026-01-14 08:17:41.61	342.77	21.31	-52.9	-55.2	14.1	0.00e+00	0	27	0	1083179008	71	4816
2026-01-14 08:17:42.60	342.65	21.19	-53.1	-55.4	14.0	0.00e+00	0	27	0	1085276160	71	4930
2026-01-14 08:17:43.60	342.52	21.07	-53.1	-55.5	13.9	0.00e+00	0	27	0	1087373312	71	4987
2026-01-14 08:17:44.59	342.40	20.95	-53.1	-55.4	14.0	0.00e+00	0	27	0	1088421888	71	4944
2026-01-14 08:17:45.58	342.28	20.84	-53.0	-55.3	14.0	0.00e+00	0	27	0	1090519040	71	4917
2026-01-14 08:17:46.57	342.16	20.72	-53.0	-55.2	14.0	0.00e+00	0	27	0	1092616192	71	4852
2026-01-14 08:17:47.55	342.04	20.60	-52.8	-55.0	14.1	0.00e+00	0	27	0	1094713344	71	4750
2026-01-14 08:17:48.54	341.92	20.49	-52.8	-54.9	14.2	0.00e+00	0	27	0	1096810496	71	4685
2026-01-14 08:17:49.54	341.80	20.37	-52.6	-54.7	14.2	0.00e+00	0	27	0	1097859072	71	4576
2026-01-14 08:17:50.53	341.68	20.26	-52.7	-54.8	14.2	0.00e+00	0	27	0	1099956224	71	4610
2026-01-14 08:17:51.51	341.57	20.14	-52.7	-54.8	14.2	0.00e+00	0	27	0	1102053376	71	4636
2026-01-14 08:17:52.50	341.45	20.03	-52.9	-55.1	14.1	0.00e+00	0	27	0	1104150528	71	4806
2026-01-14 08:17:53.49	341.34	19.91	-53.1	-55.3	14.0	0.00e+00	0	27	0	1105199104	71	4918
2026-01-14 08:17:54.49	341.23	19.80	-53.4	-55.8	13.7	0.00e+00	0	27	0	1107296256	71	5185
2026-01-14 08:17:55.48	341.11	19.68	-53.7	-56.3	13.6	0.00e+00	0	27	0	1109393408	72	5190
2026-01-14 08:17:56.46	341.00	19.57	-54.0	-56.8	13.4	0.00e+00	0	27	0	1111490560	73	5184
2026-01-14 08:17:57.45	340.89	19.46	-54.2	-57.0	13.3	0.00e+00	0	27	0	1112539136	73	5338
2026-01-14 08:17:58.45	340.78	19.35	-54.3	-57.2	13.2	0.00e+00	0	27	0	1114636288	73	5454
2026-01-14 08:17:59.45	340.67	19.23	-54.5	-57.5	13.2	0.00e+00	0	27	0	1116733440	74	5287
2026-01-14 08:18:00.44	340.56	19.12	-54.4	-57.4	13.2	0.00e+00	0	27	0	1118830592	74	5271
2026-01-14 08:18:01.44	340.45	19.01	-54.4	-57.4	13.2	0.00e+00	0	27	0	1120927744	74	5249
2026-01-14 08:18:02.43	340.35	18.90	-54.3	-57.2	13.3	0.00e+00	0	27	0	1121976320	74	5137
2026-01-14 08:18:03.43	340.24	18.79	-54.1	-56.9	13.4	0.00e+00	0	27	0	1124073472	74	4966
2026-01-14 08:18:04.43	340.13	18.68	-54.1	-56.9	13.5	0.00e+00	0	27	0	1126170624	74	4950
2026-01-14 08:18:05.42	340.03	18.57	-53.8	-56.5	13.7	0.00e+00	0	27	0	1128267776	74	4710
2026-01-14 08:18:06.41	339.93	18.46	-53.8	-56.4	13.7	0.00e+00	0	27	0	1129316352	74	4672
2026-01-14 08:18:07.40	339.82	18.35	-53.6	-56.3	13.7	0.00e+00	0	27	0	1131413504	73	4872
2026-01-14 08:18:08.39	339.72	18.24	-53.4	-55.9	13.8	0.00e+00	0	27	0	1133510656	73	4701
2026-01-14 08:18:09.39	339.62	18.13	-53.3	-55.8	13.9	0.00e+00	0	27	0	1135607808	73	4600
2026-01-14 08:18:10.38	339.52	18.02	-53.4	-55.9	13.9	0.00e+00	0	27	0	1137704960	73	4652
2026-01-14 08:18:11.37	339.42	17.92	-53.3	-55.7	14.0	0.00e+00	0	27	0	1138753536	73	4547
2026-01-14 08:18:12.37	339.32	17.81	-53.2	-55.6	14.0	0.00e+00	0	27	0	1140850688	73	4509
2026-01-14 08:18:13.37	339.22	17.70	-53.1	-55.4	14.0	0.00e+00	0	27	0	1142947840	72	4693
2026-01-14 08:18:14.36	339.12	17.60	-53.0	-55.2	14.1	0.00e+00	0	27	0	1145044992	72	4596
2026-01-14 08:18:15.35	339.02	17.49	-53.0	-55.3	14.0	0.00e+00	0	27	0	1146093568	72	4646
2026-01-14 08:18:16.35	338.93	17.38	-53.1	-55.4	14.0	0.00e+00	0	27	0	1148190720	72	4684
2026-01-14 08:18:17.34	338.83	17.28	-53.3	-55.7	13.9	0.00e+00	0	27	0	1150287872	72	4825
2026-01-14 08:18:18.34	338.74	17.17	-53.4	-55.8	13.8	0.00e+00	0	27	0	1152385024	72	4898
2026-01-14 08:18:19.35	338.64	17.07	-53.4	-55.8	13.8	0.00e+00	0	27	0	1154482176	72	4901
2026-01-14 08:18:20.34	338.55	16.96	-53.4	-55.9	13.8	0.00e+00	0	27	0	1155530752	72	4934
2026-01-14 08:18:21.34	338.45	16.86	-53.3	-55.7	13.9	0.00e+00	0	27	0	1157627904	72	4817
2026-01-14 08:18:22.33	338.36	16.76	-53.5	-56.1	13.7	0.00e+00	0	27	0	1159725056	72	5051
2026-01-14 08:18:23.32	338.27	16.65	-53.5	-56.0	13.7	0.00e+00	0	27	0	1161822208	72	5006
2026-01-14 08:18:24.32	338.18	16.55	-53.3	-55.7	13.7	0.00e+00	0	27	0	1163919360	72	4829
2026-01-14 08:18:25.32	338.09	16.45	-53.3	-55.8	13.7	0.00e+00	0	27	0	1164967936	72	4883
2026-01-14 08:18:26.31	338.00	16.34	-53.2	-55.5	13.9	0.00e+00	0	27	0	1167065088	72	4751
2026-01-14 08:18:27.30	337.91	16.24	-53.2	-55.6	13.9	0.00e+00	0	27	0	1169162240	72	4795
2026-01-14 08:18:28.30	337.82	16.14	-53.3	-55.8	13.8	0.00e+00	0	27	0	1171259392	72	4877
2026-01-14 08:18:29.29	337.73	16.04	-53.3	-55.7	13.8	0.00e+00	0	27	0	1172307968	72	4866
2026-01-14 08:18:30.29	337.64	15.94	-53.2	-55.5	14.0	0.00e+00	0	27	0	1174405120	72	4732
2026-01-14 08:18:31.28	337.56	15.84	-53.2	-55.5	13.9	0.00e+00	0	27	0	1176502272	72	4756
2026-01-14 08:18:32.28	337.47	15.74	-53.4	-55.8	13.8	0.00e+00	0	27	0	1178599424	72	4905
2026-01-14 08:18:33.27	337.38	15.64	-53.4	-55.9	13.8	0.00e+00	0	27	0	1180696576	72	4949
2026-01-14 08:18:34.27	337.30	15.54	-53.6	-56.2	13.6	0.00e+00	0	27	0	1181745152	72	5133
2026-01-14 08:18:35.26	337.22	15.44	-53.7	-56.3	13.6	0.00e+00	0	27	0	1183842304	72	5165
2026-01-14 08:18:36.26	337.13	15.34	-53.7	-56.3	13.5	0.00e+00	0	27	0	1185939456	72	5198
2026-01-14 08:18:37.25	337.05	15.24	-53.9	-56.7	13.5	0.00e+00	0	27	0	1188036608	73	5119
2026-01-14 08:18:38.24	336.97	15.15	-54.1	-56.9	13.3	0.00e+00	0	27	0	1189085184	73	5220
2026-01-14 08:18:39.24	336.88	15.05	-54.2	-57.1	13.2	0.00e+00	0	27	0	1191182336	73	5381
2026-01-14 08:18:40.24	336.80	14.95	-54.3	-57.2	13.1	0.00e+00	0	27	0	1193279488	73	5433
2026-01-14 08:18:41.23	336.72	14.85	-54.3	-57.3	13.1	0.00e+00	0	27	0	1195376640	73	5500
2026-01-14 08:18:42.22	336.64	14.76	-54.2	-57.1	13.2	0.00e+00	0	27	0	1197473792	73	5380
2026-01-14 08:18:43.21	336.56	14.66	-54.2	-57.1	13.2	0.00e+00	0	27	0	1198522368	73	5345
2026-01-14 08:18:44.21	336.48	14.56	-54.2	-57.0	13.2	0.00e+00	0	27	0	1200619520	73	5334
2026-01-14 08:18:45.20	336.40	14.47	-54.0	-56.8	13.3	0.00e+00	0	28	0	1202716672	73	5175
2026-01-14 08:18:46.19	336.32	14.37	-53.9	-56.6	13.4	6.80e-06	0	27	0	1204813824	73	5086
2026-01-14 08:18:47.19	336.25	14.28	-53.9	-56.6	13.5	0.00e+00	0	27	0	1205862400	73	5075
2026-01-14 08:18:48.18	336.17	14.18	-53.7	-56.3	13.6	0.00e+00	0	27	0	1207959552	73	4892
2026-01-14 08:18:49.18	336.09	14.09	-53.6	-56.1	13.7	0.00e+00	0	27	0	1210056704	73	4767
2026-01-14 08:18:50.17	336.02	13.99	-53.6	-56.1	13.7	0.00e+00	0	27	0	1212153856	73	4807
2026-01-14 08:18:51.17	335.94	13.90	-53.4	-55.8	13.9	0.00e+00	0	27	0	1214251008	73	4634
2026-01-14 08:18:52.16	335.86	13.81	-53.2	-55.6	14.0	0.00e+00	0	27	0	1215299584	73	4521
2026-01-14 08:18:53.15	335.79	13.71	-53.2	-55.6	13.9	0.00e+00	0	27	0	1217396736	72	4778
2026-01-14 08:18:54.14	335.72	13.62	-53.2	-55.6	13.9	0.00e+00	0	27	0	1219493888	72	4791
2026-01-14 08:18:55.13	335.64	13.53	-53.2	-55.6	13.9	0.00e+00	0	27	0	1221591040	72	4791
2026-01-14 08:18:56.13	335.57	13.44	-53.2	-55.6	13.9	0.00e+00	0	27	0	1222639616	72	4787
2026-01-14 08:18:57.13	335.50	13.34	-53.3	-55.7	13.9	7.00e-07	0	27	0	1224736768	72	4838
2026-01-14 08:18:58.13	335.42	13.25	-53.1	-55.5	13.9	0.00e+00	0	27	0	1226833920	72	4720
2026-01-14 08:18:59.13	335.35	13.16	-53.3	-55.7	13.8	0.00e+00	0	28	0	1228931072	72	4831
