passes_logs/2026/01/14/R3.2S_Murmansk/R3.2S_Murmansk__20260114_061602_KANOPUS-V_5_rec.log

#Pass ID: 20260114_061602_KANOPUS-V 5
#Satellite: KANOPUS-V 5
#Configuration: KANOPUS-V_8320
#almurnet v.1.7.20251203
#Start time: 2026-01-14 06:16:04

#Version: 2.2.20231116
#Station: R3.2S_Murmansk
#Location: 33.079688 lon 68.888172 lat
#TLE: 1 43876U 18111A   26013.65992293  .00002361  00000+0  10210-3 0  9995
#TLE: 2 43876  97.3684 282.1984 0001772  87.0401 273.1039 15.23431305391261

#Time	Az	El	Level	Level2	SNR	BER	BlckErr	Temp	State	Recorded	gain1	gain2
2026-01-14 06:16:04.42	118.56	2.14	-55.3	-65.1	3.8	7.46e-01	0	26	0	0	73	12011
2026-01-14 06:16:05.42	118.50	2.21	-55.4	-65.2	3.8	7.44e-01	0	26	104	0	75	10801
2026-01-14 06:16:06.43	118.44	2.28	-55.4	-65.2	3.8	7.45e-01	0	26	104	0	75	10806
2026-01-14 06:16:07.44	118.38	2.35	-55.4	-65.2	3.8	7.47e-01	0	26	104	0	75	10799
2026-01-14 06:16:08.44	118.32	2.41	-55.4	-65.1	3.8	7.45e-01	0	26	104	0	75	10769
2026-01-14 06:16:09.45	118.26	2.48	-55.4	-65.1	3.8	7.45e-01	0	26	104	0	75	10755
2026-01-14 06:16:10.46	118.20	2.55	-55.4	-65.2	3.8	7.45e-01	0	26	104	0	75	10813
2026-01-14 06:16:11.47	118.14	2.62	-55.4	-65.2	3.8	7.45e-01	0	26	104	0	75	10808
2026-01-14 06:16:12.48	118.07	2.69	-55.4	-65.2	3.8	7.47e-01	0	26	104	0	75	10817
2026-01-14 06:16:13.49	118.01	2.76	-55.4	-65.1	3.8	7.46e-01	0	26	104	0	75	10777
2026-01-14 06:16:14.50	117.95	2.83	-55.4	-65.2	3.8	7.46e-01	0	26	104	0	75	10806
2026-01-14 06:16:15.51	117.88	2.90	-55.4	-65.2	3.8	7.46e-01	0	26	104	0	75	10791
2026-01-14 06:16:16.52	117.82	2.97	-55.4	-65.2	3.8	7.43e-01	0	26	104	0	75	10784
2026-01-14 06:16:17.53	117.76	3.04	-55.4	-65.2	3.8	7.45e-01	0	26	104	0	75	10831
2026-01-14 06:16:18.53	117.69	3.11	-55.4	-65.2	3.8	7.46e-01	0	26	104	0	75	10804
2026-01-14 06:16:19.54	117.63	3.18	-55.4	-65.2	3.8	7.46e-01	0	26	104	0	75	10842
2026-01-14 06:16:20.55	117.56	3.25	-55.5	-65.2	3.8	7.45e-01	0	26	104	0	75	10809
2026-01-14 06:16:21.56	117.49	3.32	-55.4	-65.2	3.8	7.45e-01	0	26	104	0	75	10793
2026-01-14 06:16:22.57	117.43	3.39	-55.4	-65.2	3.8	7.46e-01	0	26	104	0	75	10793
2026-01-14 06:16:23.58	117.36	3.46	-55.4	-65.2	3.8	7.46e-01	0	26	104	0	75	10849
2026-01-14 06:16:24.59	117.29	3.54	-55.4	-65.2	3.8	7.45e-01	0	26	104	0	75	10832
2026-01-14 06:16:25.59	117.22	3.61	-55.4	-65.2	3.8	7.45e-01	0	26	104	0	75	10796
2026-01-14 06:16:26.61	117.16	3.68	-55.5	-65.2	3.8	7.44e-01	0	26	104	0	75	10872
2026-01-14 06:16:27.62	117.09	3.75	-55.5	-65.2	3.8	7.46e-01	0	26	104	0	75	10843
2026-01-14 06:16:28.62	117.02	3.82	-55.4	-65.2	3.8	7.46e-01	0	26	104	0	75	10855
2026-01-14 06:16:29.63	116.95	3.90	-55.5	-65.2	3.8	7.47e-01	0	26	104	0	75	10866
2026-01-14 06:16:30.64	116.88	3.97	-55.5	-65.2	3.8	7.44e-01	0	26	104	0	75	10846
2026-01-14 06:16:31.65	116.81	4.04	-55.5	-65.2	3.8	7.46e-01	0	26	104	0	75	10879
2026-01-14 06:16:32.66	116.74	4.12	-55.5	-65.2	3.8	7.46e-01	0	26	104	0	75	10859
2026-01-14 06:16:33.67	116.66	4.19	-55.5	-65.2	3.8	7.46e-01	0	26	104	0	75	10836
2026-01-14 06:16:34.68	116.59	4.26	-55.5	-65.2	3.8	7.45e-01	0	27	104	0	75	10853
2026-01-14 06:16:35.68	116.52	4.34	-55.5	-65.2	3.8	7.45e-01	0	26	104	0	75	10838
2026-01-14 06:16:36.70	116.45	4.41	-55.5	-65.2	3.8	7.45e-01	0	26	104	0	75	10871
2026-01-14 06:16:37.70	116.37	4.49	-55.5	-65.2	3.8	7.46e-01	0	26	104	0	75	10827
2026-01-14 06:16:38.71	116.30	4.56	-55.5	-65.2	3.8	7.46e-01	0	26	104	0	75	10869
2026-01-14 06:16:39.72	116.22	4.64	-55.5	-65.2	3.8	7.46e-01	0	26	104	0	75	10845
2026-01-14 06:16:40.73	116.15	4.71	-55.5	-65.2	3.8	7.44e-01	0	26	104	0	75	10829
2026-01-14 06:16:41.74	116.07	4.79	-55.5	-65.2	3.8	7.44e-01	0	27	104	0	75	10887
2026-01-14 06:16:42.74	116.00	4.86	-55.5	-65.2	3.8	7.46e-01	0	26	104	0	75	10895
2026-01-14 06:16:43.75	115.92	4.94	-55.5	-65.2	3.8	7.45e-01	0	26	104	0	75	10880
2026-01-14 06:16:44.75	115.84	5.01	-55.5	-65.2	3.8	7.45e-01	0	26	104	0	75	10868
2026-01-14 06:16:45.76	115.77	5.09	-55.5	-65.2	3.8	7.45e-01	0	26	104	0	75	10850
2026-01-14 06:16:46.77	115.69	5.17	-55.5	-65.2	3.8	7.47e-01	0	27	104	0	75	10875
2026-01-14 06:16:47.78	115.61	5.25	-55.5	-65.3	3.8	7.46e-01	0	26	104	0	75	10916
2026-01-14 06:16:48.79	115.53	5.32	-55.5	-65.2	3.8	7.47e-01	0	26	104	0	75	10864
2026-01-14 06:16:49.80	115.45	5.40	-55.5	-65.2	3.8	7.46e-01	0	27	104	0	75	10859
2026-01-14 06:16:50.81	115.37	5.48	-55.5	-65.2	3.8	7.45e-01	0	26	104	0	75	10870
2026-01-14 06:16:51.82	115.29	5.56	-55.5	-65.2	3.8	7.46e-01	0	27	104	0	75	10830
2026-01-14 06:16:52.83	115.21	5.63	-55.5	-65.2	3.8	7.45e-01	0	27	104	0	75	10849
2026-01-14 06:16:53.83	115.12	5.71	-55.5	-65.2	3.8	7.45e-01	0	27	104	0	75	10860
2026-01-14 06:16:54.84	115.04	5.79	-55.5	-65.2	3.8	7.46e-01	0	27	104	0	75	10876
2026-01-14 06:16:55.85	114.96	5.87	-55.5	-65.2	3.8	7.46e-01	0	27	104	0	75	10898
2026-01-14 06:16:56.86	114.87	5.95	-55.5	-65.2	3.8	7.47e-01	0	27	104	0	75	10839
2026-01-14 06:16:57.87	114.79	6.03	-55.5	-65.2	3.8	7.45e-01	0	27	104	0	75	10897
2026-01-14 06:16:58.87	114.70	6.11	-55.5	-65.2	3.8	7.45e-01	0	27	104	0	75	10887
2026-01-14 06:16:59.88	114.62	6.19	-55.5	-65.2	3.8	7.45e-01	0	27	104	0	75	10855
2026-01-14 06:17:00.89	114.53	6.27	-55.5	-65.2	3.8	7.46e-01	0	27	104	0	75	10894
2026-01-14 06:17:01.90	114.44	6.35	-55.5	-65.2	3.8	7.46e-01	0	27	104	0	75	10860
2026-01-14 06:17:02.91	114.36	6.43	-55.5	-65.2	3.8	7.45e-01	0	27	104	0	75	10881
2026-01-14 06:17:03.92	114.27	6.51	-55.5	-65.2	3.8	7.45e-01	0	27	104	0	75	10853
2026-01-14 06:17:04.93	114.18	6.60	-55.5	-65.2	3.8	7.45e-01	0	27	104	0	75	10892
2026-01-14 06:17:05.93	114.09	6.68	-55.5	-65.2	3.8	7.46e-01	0	27	104	0	75	10893
2026-01-14 06:17:06.94	114.00	6.76	-55.5	-65.2	3.8	7.46e-01	0	27	104	0	75	10902
2026-01-14 06:17:07.95	113.91	6.84	-55.5	-65.2	3.8	7.44e-01	0	27	104	0	75	10875
2026-01-14 06:17:08.96	113.82	6.93	-55.5	-65.2	3.8	7.45e-01	0	27	104	0	75	10854
2026-01-14 06:17:09.97	113.72	7.01	-55.5	-65.2	3.8	7.46e-01	0	27	104	0	75	10875
2026-01-14 06:17:10.98	113.63	7.09	-55.5	-65.2	3.8	7.45e-01	0	27	104	0	75	10893
2026-01-14 06:17:11.99	113.54	7.18	-55.5	-65.3	3.8	7.46e-01	0	27	104	0	75	10932
2026-01-14 06:17:13.00	113.44	7.26	-55.5	-65.2	3.8	7.46e-01	0	27	104	0	75	10869
2026-01-14 06:17:14.00	113.35	7.35	-55.5	-65.3	3.8	7.45e-01	0	27	104	0	75	10937
2026-01-14 06:17:15.01	113.25	7.43	-55.5	-65.2	3.8	7.46e-01	0	27	104	0	75	10883
2026-01-14 06:17:16.02	113.15	7.52	-55.5	-65.2	3.8	7.46e-01	0	27	104	0	75	10883
2026-01-14 06:17:17.03	113.06	7.60	-55.5	-65.3	3.8	7.45e-01	0	27	104	0	75	10929
2026-01-14 06:17:18.04	112.96	7.69	-55.5	-65.2	3.8	7.47e-01	0	27	104	0	75	10894
2026-01-14 06:17:19.05	112.86	7.77	-55.5	-65.2	3.8	7.47e-01	0	27	104	0	75	10879
2026-01-14 06:17:20.06	112.76	7.86	-55.5	-65.3	3.8	7.46e-01	0	27	104	0	75	10918
2026-01-14 06:17:21.07	112.66	7.95	-55.5	-65.3	3.8	7.47e-01	0	27	104	0	75	10950
2026-01-14 06:17:22.08	112.56	8.03	-55.5	-65.2	3.8	7.47e-01	0	27	104	0	75	10862
2026-01-14 06:17:23.09	112.46	8.12	-55.5	-65.3	3.8	7.46e-01	0	27	104	0	75	10905
2026-01-14 06:17:24.10	112.35	8.21	-55.5	-65.3	3.8	7.45e-01	0	27	104	0	75	10911
2026-01-14 06:17:25.11	112.25	8.30	-55.5	-65.3	3.8	7.47e-01	0	27	104	0	75	10946
2026-01-14 06:17:26.12	112.15	8.39	-55.5	-65.3	3.8	7.46e-01	0	27	104	0	75	10926
2026-01-14 06:17:27.13	112.04	8.47	-55.5	-65.2	3.8	7.45e-01	0	27	104	0	75	10897
2026-01-14 06:17:28.14	111.93	8.56	-55.5	-65.2	3.8	7.46e-01	0	27	104	0	75	10889
2026-01-14 06:17:29.14	111.83	8.65	-55.5	-65.2	3.8	7.45e-01	0	27	104	0	75	10900
2026-01-14 06:17:30.15	111.72	8.74	-55.5	-65.3	3.8	7.46e-01	0	27	104	0	75	10909
2026-01-14 06:17:31.16	111.61	8.83	-55.5	-65.3	3.8	7.45e-01	0	27	104	0	75	10922
2026-01-14 06:17:32.18	111.50	8.92	-55.5	-65.2	3.8	7.46e-01	0	27	104	0	75	10901
2026-01-14 06:17:33.19	111.39	9.01	-55.5	-65.3	3.8	7.46e-01	0	27	104	0	75	10918
2026-01-14 06:17:34.20	111.28	9.11	-55.5	-65.2	3.8	7.44e-01	0	27	104	0	75	10875
2026-01-14 06:17:35.21	111.17	9.20	-55.5	-65.3	3.8	7.45e-01	0	27	104	0	75	10913
2026-01-14 06:17:36.22	111.05	9.29	-55.5	-65.3	3.8	7.46e-01	0	27	104	0	75	10920
2026-01-14 06:17:37.22	110.94	9.38	-55.5	-65.3	3.8	7.46e-01	0	27	104	0	75	10921
2026-01-14 06:17:38.23	110.83	9.47	-55.5	-65.2	3.8	7.46e-01	0	27	104	0	75	10884
2026-01-14 06:17:39.23	110.71	9.57	-55.5	-65.3	3.8	7.45e-01	0	27	104	0	75	10919
2026-01-14 06:17:40.24	110.59	9.66	-55.5	-65.3	3.8	7.44e-01	0	27	104	0	75	10946
2026-01-14 06:17:41.25	110.48	9.75	-55.5	-65.3	3.8	7.46e-01	0	27	104	0	75	10935
2026-01-14 06:17:42.26	110.36	9.85	-55.5	-65.2	3.8	7.46e-01	0	27	104	0	75	10881
2026-01-14 06:17:43.27	110.24	9.94	-55.5	-65.2	3.8	7.46e-01	0	27	104	0	75	10874
2026-01-14 06:17:44.27	110.12	10.04	-55.5	-65.2	3.8	7.45e-01	0	27	104	0	75	10873
2026-01-14 06:17:45.28	110.00	10.13	-55.5	-65.2	3.8	7.46e-01	0	27	104	0	75	10898
2026-01-14 06:17:46.29	109.87	10.23	-55.5	-65.3	3.8	7.46e-01	0	27	104	0	75	10922
2026-01-14 06:17:47.30	109.75	10.32	-55.5	-65.3	3.8	7.45e-01	0	27	104	0	75	10946
2026-01-14 06:17:48.31	109.63	10.42	-55.5	-65.3	3.8	7.45e-01	0	27	104	0	75	10924
2026-01-14 06:17:49.32	109.50	10.52	-55.5	-65.3	3.8	7.47e-01	0	27	104	0	75	10937
2026-01-14 06:17:50.33	109.37	10.61	-55.5	-65.3	3.8	7.46e-01	0	27	104	0	75	10924
2026-01-14 06:17:51.34	109.25	10.71	-55.5	-65.3	3.8	7.46e-01	0	27	104	0	75	10947
2026-01-14 06:17:52.35	109.12	10.81	-55.5	-65.3	3.8	7.45e-01	0	27	104	0	75	10920
2026-01-14 06:17:53.36	108.99	10.91	-55.5	-65.2	3.8	7.46e-01	0	27	104	0	75	10900
2026-01-14 06:17:54.37	108.86	11.01	-55.5	-65.3	3.8	7.47e-01	0	27	104	0	75	10918
2026-01-14 06:17:55.38	108.72	11.11	-55.5	-65.3	3.8	7.43e-01	0	27	104	0	75	10943
2026-01-14 06:17:56.39	108.59	11.21	-55.5	-65.3	3.8	7.45e-01	0	27	104	0	75	10936
2026-01-14 06:17:57.40	108.46	11.31	-55.5	-65.3	3.8	7.46e-01	0	27	104	0	75	10921
2026-01-14 06:17:58.41	108.32	11.41	-55.5	-65.3	3.8	7.44e-01	0	27	104	0	75	10973
2026-01-14 06:17:59.41	108.18	11.51	-55.5	-65.2	3.8	7.46e-01	0	27	104	0	75	10895
2026-01-14 06:18:00.42	108.05	11.61	-55.5	-65.2	3.8	7.45e-01	0	27	104	0	75	10901
2026-01-14 06:18:01.43	107.91	11.71	-55.5	-65.3	3.8	7.47e-01	0	27	104	0	75	10976
2026-01-14 06:18:02.44	107.77	11.81	-55.5	-65.3	3.8	7.46e-01	0	27	104	0	75	10930
2026-01-14 06:18:03.45	107.63	11.91	-55.5	-65.3	3.8	7.46e-01	0	27	104	0	75	10947
2026-01-14 06:18:04.46	107.48	12.02	-55.5	-65.3	3.8	7.46e-01	0	27	104	0	75	10947
2026-01-14 06:18:05.47	107.34	12.12	-55.5	-65.3	3.8	7.46e-01	0	27	104	0	75	10933
2026-01-14 06:18:06.48	107.19	12.23	-55.5	-65.3	3.8	7.47e-01	0	27	104	0	75	10939
2026-01-14 06:18:07.49	107.05	12.33	-55.5	-65.3	3.8	7.45e-01	0	27	104	0	75	10922
2026-01-14 06:18:08.50	106.90	12.43	-55.5	-65.3	3.8	7.48e-01	0	27	104	0	75	10919
2026-01-14 06:18:09.51	106.75	12.54	-55.5	-65.3	3.8	7.46e-01	0	27	104	0	75	10909
2026-01-14 06:18:10.51	106.60	12.64	-55.5	-65.3	3.8	7.46e-01	0	27	104	0	75	10915
2026-01-14 06:18:11.52	106.45	12.75	-55.5	-65.3	3.8	7.46e-01	0	27	104	0	75	10946
2026-01-14 06:18:12.53	106.30	12.86	-55.5	-65.3	3.8	7.45e-01	0	27	104	0	75	10937
2026-01-14 06:18:13.54	106.14	12.96	-55.5	-65.3	3.8	7.45e-01	0	27	104	0	75	10924
2026-01-14 06:18:14.54	105.99	13.07	-55.5	-65.3	3.8	7.45e-01	0	27	104	0	75	10956
2026-01-14 06:18:15.55	105.83	13.18	-55.5	-65.3	3.8	7.47e-01	0	27	104	0	75	10922
2026-01-14 06:18:16.56	105.67	13.29	-55.5	-65.3	3.8	7.45e-01	0	27	104	0	75	10936
2026-01-14 06:18:17.57	105.51	13.40	-55.5	-65.3	3.8	7.46e-01	0	27	104	0	75	10920
2026-01-14 06:18:18.58	105.35	13.50	-55.5	-65.3	3.8	7.47e-01	0	27	104	0	75	10981
2026-01-14 06:18:19.59	105.18	13.61	-55.5	-65.3	3.8	7.45e-01	0	27	104	0	75	10908
2026-01-14 06:18:20.60	105.02	13.72	-55.5	-65.3	3.8	7.46e-01	0	27	104	0	75	10962
2026-01-14 06:18:21.61	104.85	13.83	-55.5	-65.3	3.8	7.45e-01	0	27	104	0	75	10908
2026-01-14 06:18:22.62	104.69	13.95	-55.5	-65.3	3.8	7.46e-01	0	27	104	0	75	10935
2026-01-14 06:18:23.62	104.52	14.06	-55.5	-65.2	3.8	7.44e-01	0	27	104	0	75	10903
2026-01-14 06:18:24.63	104.35	14.17	-55.5	-65.3	3.8	7.46e-01	0	27	104	0	75	10947
2026-01-14 06:18:25.63	104.18	14.28	-55.5	-65.2	3.8	7.47e-01	0	28	104	0	75	10885
2026-01-14 06:18:26.64	104.00	14.39	-55.5	-65.3	3.8	7.46e-01	0	27	104	0	75	10941
2026-01-14 06:18:27.65	103.83	14.51	-55.5	-65.3	3.8	7.47e-01	0	28	104	0	75	10941
2026-01-14 06:18:28.66	103.65	14.62	-55.5	-65.3	3.8	7.46e-01	0	27	104	0	75	10942
2026-01-14 06:18:29.66	103.47	14.73	-55.5	-65.3	3.8	7.44e-01	0	27	104	0	75	10924
2026-01-14 06:18:30.68	103.29	14.85	-55.6	-65.3	3.8	7.46e-01	0	27	104	0	75	10971
2026-01-14 06:18:31.69	103.11	14.96	-55.5	-65.3	3.8	7.45e-01	0	27	104	0	75	10979
2026-01-14 06:18:32.69	102.93	15.08	-55.5	-65.3	3.8	7.47e-01	0	28	104	0	75	10968
2026-01-14 06:18:33.70	102.74	15.19	-55.5	-65.3	3.8	7.45e-01	0	27	104	0	75	10963
2026-01-14 06:18:34.71	102.56	15.31	-55.5	-65.3	3.8	7.45e-01	0	27	104	0	75	10941
2026-01-14 06:18:35.72	102.37	15.43	-55.5	-65.3	3.8	7.45e-01	0	28	104	0	75	10951
2026-01-14 06:18:36.73	102.18	15.54	-55.6	-65.3	3.8	7.45e-01	0	27	104	0	75	10952
2026-01-14 06:18:37.74	101.98	15.66	-55.5	-65.3	3.8	7.45e-01	0	28	104	0	75	10968
2026-01-14 06:18:38.75	101.79	15.78	-55.5	-65.3	3.8	7.45e-01	0	27	104	0	75	10968
2026-01-14 06:18:39.75	101.59	15.90	-55.5	-65.3	3.8	7.45e-01	0	28	104	0	75	10950
2026-01-14 06:18:40.76	101.40	16.02	-55.5	-65.3	3.8	7.46e-01	0	28	104	0	75	10928
2026-01-14 06:18:41.77	101.20	16.14	-55.5	-65.3	3.8	7.46e-01	0	27	104	0	75	10938
2026-01-14 06:18:42.78	100.99	16.26	-55.6	-65.3	3.8	7.46e-01	0	27	104	0	75	11001
2026-01-14 06:18:43.79	100.79	16.38	-55.6	-65.3	3.8	7.46e-01	0	27	104	0	75	10946
2026-01-14 06:18:44.79	100.59	16.50	-55.5	-65.3	3.8	7.44e-01	0	27	104	0	75	10917
2026-01-14 06:18:45.80	100.38	16.62	-55.5	-65.3	3.8	7.45e-01	0	27	104	0	75	10955
2026-01-14 06:18:46.80	100.17	16.74	-55.5	-65.3	3.8	7.46e-01	0	28	104	0	75	10937
2026-01-14 06:18:47.81	99.96	16.86	-55.5	-65.3	3.8	7.45e-01	0	27	104	0	75	10935
2026-01-14 06:18:48.82	99.75	16.98	-55.5	-65.3	3.8	7.46e-01	0	28	104	0	75	10922
2026-01-14 06:18:49.83	99.53	17.11	-55.5	-65.3	3.8	7.45e-01	0	28	104	0	75	10963
2026-01-14 06:18:50.85	99.31	17.23	-55.5	-65.3	3.8	7.45e-01	0	28	104	0	75	10944
2026-01-14 06:18:51.85	99.09	17.36	-55.5	-65.2	3.8	7.45e-01	0	28	104	0	75	10898
2026-01-14 06:18:52.86	98.87	17.48	-55.6	-65.3	3.8	7.46e-01	0	27	104	0	75	10948
2026-01-14 06:18:53.87	98.64	17.60	-55.6	-65.3	3.8	7.47e-01	0	28	104	0	75	10929
2026-01-14 06:18:54.88	98.42	17.73	-55.5	-65.3	3.8	7.46e-01	0	28	104	0	75	10952
2026-01-14 06:18:55.89	98.19	17.86	-55.5	-65.3	3.8	7.46e-01	0	28	104	0	75	10949
2026-01-14 06:18:56.90	97.96	17.98	-55.5	-65.3	3.8	7.46e-01	0	28	104	0	75	10940
2026-01-14 06:18:57.91	97.72	18.11	-55.5	-65.3	3.8	7.44e-01	0	28	104	0	75	10963
2026-01-14 06:18:58.92	97.49	18.23	-55.6	-65.3	3.8	7.44e-01	0	28	104	0	75	10989
2026-01-14 06:18:59.92	97.25	18.36	-55.6	-65.3	3.8	7.45e-01	0	28	104	0	75	10983
2026-01-14 06:19:00.93	97.01	18.49	-55.6	-65.3	3.8	7.47e-01	0	28	104	0	75	10956
2026-01-14 06:19:01.94	96.77	18.62	-55.5	-65.3	3.8	7.47e-01	0	27	104	0	75	10961
2026-01-14 06:19:02.95	96.52	18.74	-55.5	-65.3	3.8	7.46e-01	0	28	104	0	75	10947
2026-01-14 06:19:03.96	96.28	18.87	-55.5	-65.3	3.8	7.45e-01	0	28	104	0	75	10945
2026-01-14 06:19:04.97	96.03	19.00	-55.5	-65.3	3.8	7.45e-01	0	28	104	0	75	10914
2026-01-14 06:19:05.98	95.77	19.13	-55.5	-65.3	3.8	7.45e-01	0	28	104	0	75	10932
2026-01-14 06:19:06.99	95.52	19.26	-55.5	-65.3	3.8	7.44e-01	0	27	104	0	75	10932
2026-01-14 06:19:08.00	95.26	19.39	-55.5	-65.3	3.8	7.45e-01	0	28	104	0	75	10914
2026-01-14 06:19:09.01	95.00	19.52	-55.5	-65.3	3.8	7.44e-01	0	28	104	0	75	10972
2026-01-14 06:19:10.02	94.74	19.65	-55.6	-65.3	3.8	7.46e-01	0	27	104	0	75	10913
2026-01-14 06:19:11.03	94.47	19.78	-55.5	-65.3	3.8	7.47e-01	0	27	104	0	75	10959
2026-01-14 06:19:12.04	94.21	19.92	-55.5	-65.3	3.8	7.47e-01	0	27	104	0	75	10934
2026-01-14 06:19:13.05	93.94	20.05	-55.5	-65.3	3.8	7.45e-01	0	28	104	0	75	10947
2026-01-14 06:19:14.06	93.66	20.18	-55.6	-65.3	3.8	7.46e-01	0	28	104	0	75	10976
2026-01-14 06:19:15.07	93.39	20.31	-55.6	-65.3	3.8	7.45e-01	0	28	104	0	75	10929
2026-01-14 06:19:16.08	93.11	20.44	-55.6	-65.3	3.8	7.46e-01	0	28	104	0	75	10990
2026-01-14 06:19:17.09	92.83	20.58	-55.6	-65.3	3.8	7.44e-01	0	28	104	0	75	10968
2026-01-14 06:19:18.10	92.54	20.71	-55.6	-65.3	3.8	7.45e-01	0	28	104	0	75	10982
2026-01-14 06:19:19.10	92.26	20.84	-55.5	-65.3	3.8	7.45e-01	0	28	104	0	75	10956
2026-01-14 06:19:20.11	91.97	20.97	-55.5	-65.3	3.8	7.46e-01	0	28	104	0	75	10962
2026-01-14 06:19:21.12	91.67	21.11	-55.6	-65.3	3.8	7.46e-01	0	27	104	0	75	10989
2026-01-14 06:19:22.13	91.38	21.24	-55.6	-65.3	3.8	7.45e-01	0	27	104	0	75	10961
2026-01-14 06:19:23.14	91.08	21.38	-55.5	-65.3	3.8	7.45e-01	0	27	104	0	75	10955
2026-01-14 06:19:24.15	90.78	21.51	-55.6	-65.3	3.8	7.44e-01	0	28	104	0	75	10975
2026-01-14 06:19:25.16	90.47	21.64	-55.5	-65.3	3.8	7.44e-01	0	28	104	0	75	10951
2026-01-14 06:19:26.17	90.16	21.78	-55.5	-65.3	3.8	7.45e-01	0	27	104	0	75	10974
2026-01-14 06:19:27.18	89.85	21.91	-55.5	-65.3	3.8	7.45e-01	0	28	104	0	75	10971
2026-01-14 06:19:28.19	89.54	22.05	-55.6	-65.3	3.8	7.46e-01	0	27	104	0	75	10999
2026-01-14 06:19:29.20	89.22	22.18	-55.5	-65.3	3.8	7.44e-01	0	28	104	0	75	10938
2026-01-14 06:19:30.21	88.90	22.31	-55.5	-65.3	3.8	7.45e-01	0	27	104	0	75	10970
2026-01-14 06:19:31.21	88.58	22.45	-55.6	-65.3	3.8	7.44e-01	0	27	104	0	75	10965
2026-01-14 06:19:32.23	88.25	22.58	-55.5	-65.3	3.8	7.45e-01	0	27	104	0	75	10961
2026-01-14 06:19:33.23	87.93	22.72	-55.5	-65.3	3.8	7.45e-01	0	28	104	0	75	10972
2026-01-14 06:19:34.25	87.59	22.85	-55.5	-65.3	3.8	7.45e-01	0	28	104	0	75	10955
2026-01-14 06:19:35.26	87.25	22.99	-55.6	-65.3	3.8	7.47e-01	0	27	104	0	75	10955
2026-01-14 06:19:36.26	86.92	23.12	-55.5	-65.3	3.8	7.47e-01	0	27	104	0	75	10968
2026-01-14 06:19:37.27	86.57	23.25	-55.5	-65.3	3.8	7.45e-01	0	27	104	0	75	10987
2026-01-14 06:19:38.28	86.23	23.39	-55.5	-65.3	3.8	7.46e-01	0	28	104	0	75	10931
2026-01-14 06:19:39.30	85.88	23.52	-55.6	-65.3	3.8	7.44e-01	0	28	104	0	75	10971
2026-01-14 06:19:40.30	85.53	23.65	-55.6	-65.3	3.8	7.46e-01	0	27	104	0	75	10959
2026-01-14 06:19:41.32	85.17	23.79	-55.6	-65.3	3.8	7.45e-01	0	27	104	0	75	10945
2026-01-14 06:19:42.33	84.81	23.92	-55.5	-65.3	3.8	7.44e-01	0	28	104	0	75	10939
2026-01-14 06:19:43.34	84.44	24.05	-55.6	-65.3	3.8	7.44e-01	0	28	104	0	75	10942
2026-01-14 06:19:44.35	84.08	24.19	-55.5	-65.3	3.8	7.45e-01	0	28	104	0	75	10968
2026-01-14 06:19:45.35	83.71	24.32	-55.6	-65.3	3.8	7.46e-01	0	28	104	0	75	10965
2026-01-14 06:19:46.37	83.33	24.45	-55.6	-65.3	3.8	7.44e-01	0	28	104	0	75	10951
2026-01-14 06:19:47.37	82.96	24.58	-55.6	-65.3	3.8	7.45e-01	0	28	104	0	75	10958
2026-01-14 06:19:48.38	82.58	24.71	-55.6	-65.3	3.8	7.47e-01	0	28	104	0	75	10978
2026-01-14 06:19:49.39	82.19	24.84	-55.6	-65.3	3.8	7.45e-01	0	28	104	0	75	10958
2026-01-14 06:19:50.40	81.81	24.97	-55.6	-65.3	3.8	7.45e-01	0	28	104	0	75	10991
2026-01-14 06:19:51.41	81.42	25.10	-55.6	-65.3	3.8	7.47e-01	0	28	104	0	75	10973
2026-01-14 06:19:52.42	81.02	25.23	-55.6	-65.3	3.8	7.46e-01	0	27	104	0	75	10989
2026-01-14 06:19:53.43	80.62	25.36	-55.6	-65.3	3.8	7.45e-01	0	28	104	0	75	10979
2026-01-14 06:19:54.44	80.22	25.48	-55.6	-65.3	3.8	7.43e-01	0	28	104	0	75	10976
2026-01-14 06:19:55.45	79.81	25.61	-55.6	-65.3	3.8	7.45e-01	0	28	104	0	75	10974
2026-01-14 06:19:56.46	79.41	25.74	-55.6	-65.3	3.8	7.47e-01	0	28	104	0	75	10994
2026-01-14 06:19:57.47	78.99	25.86	-55.6	-65.3	3.8	7.45e-01	0	28	104	0	75	10997
2026-01-14 06:19:58.48	78.58	25.99	-55.6	-65.3	3.8	7.45e-01	0	28	104	0	75	11017
2026-01-14 06:19:59.49	78.16	26.11	-55.5	-65.3	3.8	7.44e-01	0	28	104	0	75	10977
2026-01-14 06:20:00.50	77.73	26.23	-55.6	-65.3	3.8	7.45e-01	0	28	104	0	75	10973
2026-01-14 06:20:01.51	77.30	26.35	-55.5	-65.3	3.8	7.47e-01	0	28	104	0	75	10928
2026-01-14 06:20:02.52	76.87	26.47	-55.6	-65.3	3.8	7.44e-01	0	28	104	0	75	10998
2026-01-14 06:20:03.53	76.44	26.59	-55.6	-65.3	3.8	7.45e-01	0	28	104	0	75	10961
2026-01-14 06:20:04.53	76.01	26.71	-55.6	-65.3	3.8	7.44e-01	0	28	104	0	75	10982
2026-01-14 06:20:05.54	75.56	26.83	-55.6	-65.3	3.8	7.45e-01	0	28	104	0	75	10945
2026-01-14 06:20:06.56	75.11	26.95	-55.6	-65.3	3.8	7.45e-01	0	28	104	0	75	11001
2026-01-14 06:20:07.57	74.66	27.06	-55.6	-65.3	3.8	7.44e-01	0	28	104	0	75	10950
2026-01-14 06:20:08.57	74.22	27.18	-55.6	-65.3	3.8	7.45e-01	0	28	104	0	75	10981
2026-01-14 06:20:09.58	73.76	27.29	-55.6	-65.3	3.8	7.46e-01	0	28	104	0	75	11029
2026-01-14 06:20:10.59	73.30	27.40	-55.6	-65.3	3.8	7.47e-01	0	28	104	0	75	10990
2026-01-14 06:20:11.60	72.84	27.51	-55.6	-65.3	3.8	7.44e-01	0	28	104	0	75	11008
2026-01-14 06:20:12.61	72.37	27.62	-55.6	-65.3	3.8	7.46e-01	0	28	104	0	75	10971
2026-01-14 06:20:13.62	71.90	27.73	-55.6	-65.3	3.8	7.45e-01	0	28	104	0	75	10979
2026-01-14 06:20:14.63	71.43	27.83	-55.6	-65.3	3.8	7.47e-01	0	28	104	0	75	10955
2026-01-14 06:20:15.64	70.95	27.94	-55.6	-65.3	3.8	7.49e-01	0	28	104	0	75	10936
2026-01-14 06:20:16.64	70.47	28.04	-55.6	-65.3	3.8	7.47e-01	0	28	104	0	75	10986
2026-01-14 06:20:17.65	69.99	28.14	-55.6	-65.3	3.8	7.46e-01	0	28	104	0	75	10998
2026-01-14 06:20:18.66	69.50	28.24	-55.5	-65.3	3.8	7.46e-01	0	27	104	0	75	10950
2026-01-14 06:20:19.67	69.01	28.34	-55.6	-65.3	3.8	7.46e-01	0	28	104	0	75	10964
2026-01-14 06:20:20.68	68.52	28.43	-55.6	-65.3	3.8	7.45e-01	0	28	104	0	75	10983
2026-01-14 06:20:21.69	68.02	28.53	-55.6	-65.3	3.8	7.46e-01	0	28	104	0	75	10998
2026-01-14 06:20:22.70	67.52	28.62	-55.6	-65.3	3.8	7.44e-01	0	27	104	0	75	11003
2026-01-14 06:20:23.71	67.02	28.71	-55.6	-65.3	3.8	7.45e-01	0	27	104	0	75	10937
2026-01-14 06:20:24.72	66.51	28.80	-55.5	-65.3	3.8	7.47e-01	0	27	104	0	75	10978
2026-01-14 06:20:25.73	66.00	28.89	-55.6	-65.3	3.8	7.46e-01	0	28	104	0	75	10944
2026-01-14 06:20:26.74	65.49	28.97	-55.5	-65.3	3.8	7.46e-01	0	28	104	0	75	10957
2026-01-14 06:20:27.74	64.98	29.05	-55.5	-65.3	3.8	7.45e-01	0	28	104	0	75	10992
2026-01-14 06:20:28.76	64.46	29.13	-55.6	-65.3	3.8	7.47e-01	0	28	104	0	75	10970
2026-01-14 06:20:29.77	63.94	29.21	-55.6	-65.3	3.8	7.45e-01	0	28	104	0	75	11017
2026-01-14 06:20:30.77	63.42	29.29	-55.6	-65.3	3.8	7.47e-01	0	28	104	0	75	10944
2026-01-14 06:20:31.78	62.89	29.36	-55.6	-65.3	3.8	7.47e-01	0	28	104	0	75	10951
2026-01-14 06:20:32.79	62.36	29.43	-55.6	-65.3	3.8	7.46e-01	0	28	104	0	75	10974
2026-01-14 06:20:33.80	61.83	29.50	-55.6	-65.3	3.8	7.46e-01	0	28	104	0	75	10964
2026-01-14 06:20:34.81	61.30	29.57	-55.6	-65.3	3.8	7.46e-01	0	27	104	0	75	10981
2026-01-14 06:20:35.82	60.76	29.63	-55.6	-65.3	3.8	7.45e-01	0	28	104	0	75	10964
2026-01-14 06:20:36.83	60.22	29.69	-55.6	-65.3	3.8	7.45e-01	0	27	104	0	75	10936
2026-01-14 06:20:37.84	59.68	29.75	-55.6	-65.3	3.8	7.45e-01	0	28	104	0	75	10968
2026-01-14 06:20:38.85	59.14	29.81	-55.5	-65.3	3.8	7.47e-01	0	28	104	0	75	10934
2026-01-14 06:20:39.86	58.60	29.86	-55.6	-65.3	3.8	7.45e-01	0	28	104	0	75	11002
2026-01-14 06:20:40.86	58.06	29.91	-55.6	-65.3	3.8	7.45e-01	0	28	104	0	75	10971
2026-01-14 06:20:41.87	57.51	29.96	-55.6	-65.3	3.8	7.45e-01	0	28	104	0	75	10985
2026-01-14 06:20:42.88	56.96	30.01	-55.6	-65.3	3.8	7.45e-01	0	27	104	0	75	10949
2026-01-14 06:20:43.89	56.41	30.05	-55.6	-65.3	3.8	7.46e-01	0	28	104	0	75	11013
2026-01-14 06:20:44.90	55.85	30.09	-55.6	-65.3	3.8	7.45e-01	0	28	104	0	75	10950
2026-01-14 06:20:45.91	55.30	30.13	-55.5	-65.3	3.8	7.46e-01	0	27	104	0	75	10963
2026-01-14 06:20:46.92	54.74	30.17	-55.5	-65.3	3.8	7.47e-01	0	28	104	0	75	10923
2026-01-14 06:20:47.93	54.18	30.20	-55.5	-65.3	3.8	7.45e-01	0	28	104	0	75	10950
2026-01-14 06:20:48.87	53.66	30.23	-55.6	-65.3	3.8	7.45e-01	0	28	104	0	75	10964
2026-01-14 06:20:49.88	53.10	30.25	-55.6	-65.3	3.8	7.45e-01	0	28	104	0	75	10951
2026-01-14 06:20:50.89	52.54	30.28	-55.6	-65.3	3.8	7.47e-01	0	28	104	0	75	10977
2026-01-14 06:20:51.90	51.98	30.30	-55.6	-65.3	3.8	7.46e-01	0	28	104	0	75	11023
2026-01-14 06:20:52.91	51.42	30.32	-55.6	-65.3	3.8	7.47e-01	0	28	104	0	75	11008
2026-01-14 06:20:53.92	50.86	30.33	-55.6	-65.3	3.8	7.45e-01	0	28	104	0	75	10961
2026-01-14 06:20:54.93	50.29	30.35	-55.6	-65.3	3.8	7.45e-01	0	28	104	0	75	11020
2026-01-14 06:20:55.93	49.74	30.36	-55.6	-65.3	3.8	7.45e-01	0	28	104	0	75	10997
2026-01-14 06:20:56.94	49.17	30.37	-55.6	-65.3	3.8	7.46e-01	0	28	104	0	75	10990
2026-01-14 06:20:57.95	48.61	30.37	-55.6	-65.3	3.8	7.48e-01	0	28	104	0	75	10977
2026-01-14 06:20:58.96	48.04	30.37	-55.6	-65.3	3.8	7.45e-01	0	28	104	0	75	10995
2026-01-14 06:20:59.97	47.48	30.37	-55.6	-65.4	3.8	7.45e-01	0	28	104	0	75	11039
2026-01-14 06:21:00.97	46.92	30.37	-55.6	-65.3	3.8	7.46e-01	0	28	104	0	75	10979
2026-01-14 06:21:01.98	46.36	30.36	-55.6	-65.3	3.8	7.45e-01	0	28	104	0	75	10987
2026-01-14 06:21:02.99	45.79	30.35	-55.6	-65.3	3.8	7.45e-01	0	28	104	0	75	10995
2026-01-14 06:21:04.00	45.23	30.33	-55.6	-65.3	3.8	7.47e-01	0	28	104	0	75	10962
2026-01-14 06:21:05.01	44.67	30.32	-55.6	-65.3	3.8	7.46e-01	0	28	104	0	75	10950
2026-01-14 06:21:06.02	44.10	30.30	-55.6	-65.3	3.8	7.45e-01	0	28	104	0	75	10967
2026-01-14 06:21:07.03	43.54	30.28	-55.6	-65.3	3.8	7.46e-01	0	28	104	0	75	11018
2026-01-14 06:21:08.04	42.98	30.25	-55.6	-65.3	3.8	7.46e-01	0	28	104	0	75	10975
2026-01-14 06:21:09.04	42.43	30.23	-55.6	-65.3	3.8	7.46e-01	0	28	104	0	75	10992
2026-01-14 06:21:10.04	41.88	30.20	-55.6	-65.3	3.8	7.45e-01	0	28	104	0	75	10982
2026-01-14 06:21:11.05	41.32	30.16	-55.6	-65.3	3.8	7.46e-01	0	27	104	0	75	10975
2026-01-14 06:21:12.06	40.76	30.13	-55.6	-65.3	3.8	7.46e-01	0	28	104	0	75	10997
2026-01-14 06:21:13.06	40.22	30.09	-55.6	-65.3	3.8	7.47e-01	0	28	104	0	75	11009
2026-01-14 06:21:14.07	39.66	30.05	-55.6	-65.3	3.8	7.46e-01	0	27	104	0	75	10953
2026-01-14 06:21:15.08	39.11	30.01	-55.6	-65.3	3.8	7.45e-01	0	28	104	0	75	10991
2026-01-14 06:21:16.09	38.56	29.96	-55.6	-65.3	3.8	7.45e-01	0	28	104	0	75	10975
2026-01-14 06:21:17.10	38.01	29.91	-55.6	-65.3	3.8	7.47e-01	0	28	104	0	75	10989
2026-01-14 06:21:18.11	37.47	29.86	-55.6	-65.3	3.8	7.44e-01	0	28	104	0	75	11007
2026-01-14 06:21:19.12	36.92	29.80	-55.6	-65.3	3.8	7.45e-01	0	28	104	0	75	11019
2026-01-14 06:21:20.13	36.38	29.75	-55.6	-65.3	3.8	7.44e-01	0	28	104	0	75	10969
2026-01-14 06:21:21.13	35.85	29.69	-55.6	-65.3	3.8	7.46e-01	0	28	104	0	75	11002
2026-01-14 06:21:22.14	35.31	29.63	-55.6	-65.3	3.8	7.45e-01	0	28	104	0	75	10993
2026-01-14 06:21:23.15	34.78	29.56	-55.6	-65.3	3.8	7.46e-01	0	28	104	0	75	10980
2026-01-14 06:21:24.16	34.24	29.50	-55.6	-65.3	3.8	7.46e-01	0	28	104	0	75	10977
2026-01-14 06:21:25.17	33.71	29.43	-55.6	-65.3	3.8	7.45e-01	0	28	104	0	75	10988
2026-01-14 06:21:26.17	33.19	29.36	-55.6	-65.3	3.8	7.45e-01	0	28	104	0	75	10998
2026-01-14 06:21:27.18	32.66	29.28	-55.6	-65.3	3.8	7.45e-01	0	28	104	0	75	11008
2026-01-14 06:21:28.19	32.14	29.21	-55.6	-65.3	3.8	7.46e-01	0	28	104	0	75	10981
2026-01-14 06:21:29.20	31.62	29.13	-55.6	-65.3	3.8	7.44e-01	0	28	104	0	75	10958
2026-01-14 06:21:30.21	31.11	29.05	-55.6	-65.3	3.8	7.45e-01	0	28	104	0	75	10982
2026-01-14 06:21:31.22	30.59	28.97	-55.6	-65.3	3.8	7.46e-01	0	28	104	0	75	10994
2026-01-14 06:21:32.23	30.08	28.88	-55.6	-65.3	3.8	7.45e-01	0	28	104	0	75	10992
2026-01-14 06:21:33.24	29.57	28.80	-55.6	-65.3	3.8	7.46e-01	0	28	104	0	75	10993
2026-01-14 06:21:34.25	29.07	28.71	-55.6	-65.4	3.8	7.47e-01	0	28	104	0	75	11053
2026-01-14 06:21:35.26	28.56	28.62	-55.6	-65.3	3.8	7.46e-01	0	28	104	0	75	11025
2026-01-14 06:21:36.26	28.07	28.53	-55.6	-65.3	3.8	7.46e-01	0	28	104	0	75	11015
2026-01-14 06:21:37.28	27.57	28.43	-55.6	-65.3	3.8	7.45e-01	0	28	104	0	75	10947
2026-01-14 06:21:38.28	27.08	28.34	-55.6	-65.4	3.8	7.45e-01	0	28	104	0	75	11037
2026-01-14 06:21:39.30	26.59	28.24	-55.6	-65.3	3.8	7.45e-01	0	28	104	0	75	11002
2026-01-14 06:21:40.31	26.10	28.14	-55.6	-65.3	3.8	7.45e-01	0	28	104	0	75	11013
2026-01-14 06:21:41.32	25.62	28.04	-55.6	-65.3	3.8	7.46e-01	0	28	104	0	75	11026
2026-01-14 06:21:42.32	25.15	27.93	-55.6	-65.3	3.8	7.47e-01	0	28	104	0	75	10998
2026-01-14 06:21:43.33	24.67	27.83	-55.6	-65.3	3.8	7.44e-01	0	28	104	0	75	10985
2026-01-14 06:21:44.34	24.20	27.72	-55.6	-65.3	3.8	7.45e-01	0	28	104	0	75	11006
2026-01-14 06:21:45.35	23.73	27.62	-55.6	-65.3	3.8	7.45e-01	0	28	104	0	75	10991
2026-01-14 06:21:46.35	23.27	27.51	-55.6	-65.3	3.8	7.45e-01	0	28	104	0	75	11005
2026-01-14 06:21:47.36	22.81	27.40	-55.6	-65.4	3.8	7.45e-01	0	28	104	0	75	11060
2026-01-14 06:21:48.37	22.35	27.29	-55.6	-65.3	3.8	7.46e-01	0	28	104	0	75	11011
2026-01-14 06:21:49.37	21.90	27.18	-55.6	-65.3	3.8	7.45e-01	0	28	104	0	75	10999
2026-01-14 06:21:50.38	21.45	27.06	-55.6	-65.4	3.8	7.45e-01	0	28	104	0	75	11047
2026-01-14 06:21:51.40	20.99	26.95	-55.6	-65.3	3.8	7.46e-01	0	28	104	0	75	10973
2026-01-14 06:21:52.41	20.55	26.83	-55.6	-65.3	3.8	7.44e-01	0	28	104	0	75	10981
2026-01-14 06:21:53.42	20.11	26.71	-55.6	-65.3	3.8	7.45e-01	0	28	104	0	75	10995
2026-01-14 06:21:54.43	19.67	26.59	-55.6	-65.3	3.8	7.46e-01	0	28	104	0	75	10967
2026-01-14 06:21:55.43	19.24	26.48	-55.6	-65.3	3.8	7.46e-01	0	28	104	0	75	11019
2026-01-14 06:21:56.44	18.81	26.36	-55.6	-65.3	3.8	7.44e-01	0	28	104	0	75	11006
2026-01-14 06:21:57.45	18.39	26.23	-55.6	-65.3	3.8	7.45e-01	0	28	104	0	75	11028
2026-01-14 06:21:58.46	17.96	26.11	-55.6	-65.3	3.8	7.45e-01	0	28	104	0	75	10989
2026-01-14 06:21:59.47	17.55	25.99	-55.6	-65.3	3.8	7.45e-01	0	28	104	0	75	11004
2026-01-14 06:22:00.48	17.13	25.87	-55.6	-65.3	3.8	7.45e-01	0	28	104	0	75	11005
2026-01-14 06:22:01.48	16.72	25.74	-55.6	-65.3	3.8	7.45e-01	0	28	104	0	75	11028
2026-01-14 06:22:02.49	16.31	25.62	-55.6	-65.3	3.8	7.45e-01	0	28	104	0	75	11019
2026-01-14 06:22:03.51	15.91	25.49	-55.6	-65.3	3.8	7.46e-01	0	28	104	0	75	10975
2026-01-14 06:22:04.51	15.51	25.36	-55.6	-65.3	3.8	7.45e-01	0	28	104	0	75	11011
2026-01-14 06:22:05.52	15.11	25.24	-55.6	-65.3	3.8	7.45e-01	0	28	104	0	75	11001
2026-01-14 06:22:06.53	14.72	25.11	-55.6	-65.4	3.8	7.44e-01	0	28	104	0	75	11054
2026-01-14 06:22:07.54	14.33	24.98	-55.6	-65.3	3.8	7.44e-01	0	28	104	0	75	11022
2026-01-14 06:22:08.55	13.94	24.85	-55.6	-65.3	3.8	7.44e-01	0	28	104	0	75	11029
2026-01-14 06:22:09.56	13.56	24.72	-55.6	-65.3	3.8	7.45e-01	0	28	104	0	75	11007
2026-01-14 06:22:10.56	13.18	24.59	-55.6	-65.4	3.8	7.46e-01	0	28	104	0	75	11034
2026-01-14 06:22:11.57	12.81	24.46	-55.6	-65.3	3.8	7.45e-01	0	28	104	0	75	11016
2026-01-14 06:22:12.58	12.44	24.33	-55.6	-65.3	3.8	7.44e-01	0	28	104	0	75	10987
2026-01-14 06:22:13.59	12.07	24.20	-55.6	-65.3	3.8	7.47e-01	0	28	104	0	75	11019
2026-01-14 06:22:14.60	11.70	24.06	-55.6	-65.3	3.8	7.46e-01	0	28	104	0	75	10995
2026-01-14 06:22:15.61	11.34	23.93	-55.6	-65.3	3.8	7.47e-01	0	28	104	0	75	11004
2026-01-14 06:22:16.62	10.98	23.80	-55.6	-65.3	3.8	7.46e-01	0	28	104	0	75	10967
2026-01-14 06:22:17.63	10.63	23.67	-55.6	-65.3	3.8	7.46e-01	0	28	104	0	75	11007
2026-01-14 06:22:18.64	10.27	23.53	-55.6	-65.3	3.8	7.47e-01	0	28	104	0	75	10968
2026-01-14 06:22:19.64	9.93	23.40	-55.6	-65.3	3.8	7.45e-01	0	28	104	0	75	11015
2026-01-14 06:22:20.65	9.58	23.27	-55.6	-65.3	3.8	7.47e-01	0	28	104	0	75	11013
2026-01-14 06:22:21.66	9.24	23.14	-55.6	-65.3	3.8	7.45e-01	0	28	104	0	75	10990
2026-01-14 06:22:22.67	8.90	23.00	-55.6	-65.3	3.8	7.46e-01	0	28	104	0	75	11001
2026-01-14 06:22:23.68	8.57	22.87	-55.6	-65.3	3.8	7.45e-01	0	28	104	0	75	10991
2026-01-14 06:22:24.69	8.24	22.74	-55.6	-65.3	3.8	7.46e-01	0	28	104	0	75	10997
2026-01-14 06:22:25.70	7.91	22.60	-55.6	-65.3	3.8	7.46e-01	0	28	104	0	75	11005
2026-01-14 06:22:26.71	7.58	22.47	-55.6	-65.3	3.8	7.45e-01	0	28	104	0	75	11004
2026-01-14 06:22:27.72	7.26	22.33	-55.6	-65.3	3.8	7.47e-01	0	28	104	0	75	11020
2026-01-14 06:22:28.73	6.94	22.20	-55.6	-65.4	3.8	7.46e-01	0	28	104	0	75	11030
2026-01-14 06:22:29.74	6.63	22.07	-55.6	-65.4	3.8	7.45e-01	0	28	104	0	75	11033
2026-01-14 06:22:30.75	6.31	21.93	-55.6	-65.4	3.8	7.47e-01	0	28	104	0	75	11060
2026-01-14 06:22:31.75	6.01	21.80	-55.6	-65.3	3.8	7.45e-01	0	28	104	0	75	11024
2026-01-14 06:22:32.76	5.70	21.67	-55.6	-65.3	3.8	7.45e-01	0	28	104	0	75	11028
2026-01-14 06:22:33.77	5.40	21.53	-55.6	-65.3	3.8	7.46e-01	0	27	104	0	75	11015
2026-01-14 06:22:34.78	5.10	21.40	-55.6	-65.3	3.8	7.46e-01	0	28	104	0	75	11019
2026-01-14 06:22:35.79	4.80	21.27	-55.6	-65.3	3.8	7.47e-01	0	28	104	0	75	11011
2026-01-14 06:22:36.80	4.50	21.13	-55.6	-65.3	3.8	7.44e-01	0	28	104	0	75	11016
2026-01-14 06:22:37.81	4.21	21.00	-55.6	-65.3	3.8	7.44e-01	0	28	104	0	75	11020
2026-01-14 06:22:38.82	3.92	20.87	-55.6	-65.3	3.8	7.45e-01	0	28	104	0	75	10991
2026-01-14 06:22:39.83	3.64	20.73	-55.6	-65.3	3.8	7.44e-01	0	28	104	0	75	10995
2026-01-14 06:22:40.84	3.35	20.60	-55.6	-65.3	3.8	7.46e-01	0	28	104	0	75	11001
2026-01-14 06:22:41.85	3.07	20.47	-55.6	-65.3	3.8	7.46e-01	0	28	104	0	75	11011
2026-01-14 06:22:42.86	2.79	20.34	-55.6	-65.3	3.8	7.46e-01	0	28	104	0	75	11023
2026-01-14 06:22:43.87	2.52	20.21	-55.6	-65.3	3.8	7.45e-01	0	28	104	0	75	11019
2026-01-14 06:22:44.88	2.25	20.08	-55.6	-65.3	3.8	7.46e-01	0	28	104	0	75	11023
2026-01-14 06:22:45.89	1.98	19.94	-55.6	-65.3	3.8	7.44e-01	0	28	104	0	75	10993
2026-01-14 06:22:46.89	1.71	19.81	-55.6	-65.3	3.8	7.47e-01	0	28	104	0	75	11005
2026-01-14 06:22:47.90	1.45	19.68	-55.6	-65.3	3.8	7.46e-01	0	28	104	0	75	11017
2026-01-14 06:22:48.91	1.19	19.55	-55.6	-65.3	3.8	7.45e-01	0	28	104	0	75	11010
2026-01-14 06:22:49.91	0.93	19.43	-55.6	-65.3	3.8	7.44e-01	0	28	104	0	75	11013
2026-01-14 06:22:50.93	0.67	19.29	-55.6	-65.4	3.8	7.45e-01	0	28	104	0	75	11031
2026-01-14 06:22:51.93	0.42	19.17	-55.6	-65.3	3.8	7.46e-01	0	28	104	0	75	10990
2026-01-14 06:22:52.95	0.17	19.04	-55.6	-65.3	3.8	7.47e-01	0	28	104	0	75	11017
2026-01-14 06:22:53.96	359.92	18.91	-55.6	-65.4	3.8	7.45e-01	0	28	104	0	75	11045
2026-01-14 06:22:54.97	359.67	18.78	-55.6	-65.4	3.8	7.45e-01	0	28	104	0	75	11036
2026-01-14 06:22:55.97	359.43	18.65	-55.6	-65.3	3.8	7.44e-01	0	28	104	0	75	11025
2026-01-14 06:22:56.98	359.19	18.53	-55.6	-65.3	3.8	7.46e-01	0	28	104	0	75	10994
2026-01-14 06:22:58.00	358.94	18.40	-55.6	-65.4	3.8	7.45e-01	0	28	104	0	75	11049
2026-01-14 06:22:59.00	358.71	18.27	-55.6	-65.4	3.8	7.45e-01	0	28	104	0	75	11039
2026-01-14 06:23:00.01	358.47	18.15	-55.6	-65.4	3.8	7.48e-01	0	28	104	0	75	11062
2026-01-14 06:23:01.02	358.24	18.02	-55.6	-65.3	3.8	7.47e-01	0	28	104	0	75	10990
2026-01-14 06:23:02.02	358.01	17.89	-55.6	-65.4	3.8	7.48e-01	0	28	104	0	75	11049
2026-01-14 06:23:03.03	357.79	17.77	-55.6	-65.3	3.8	7.45e-01	0	28	104	0	75	10996
2026-01-14 06:23:04.04	357.56	17.64	-55.6	-65.3	3.8	7.46e-01	0	28	104	0	75	10996
2026-01-14 06:23:05.05	357.34	17.52	-55.6	-65.3	3.8	7.46e-01	0	28	104	0	75	11026
2026-01-14 06:23:06.06	357.12	17.40	-55.6	-65.3	3.8	7.47e-01	0	28	104	0	75	11002
2026-01-14 06:23:07.07	356.90	17.27	-55.6	-65.4	3.8	7.47e-01	0	28	104	0	75	11035
2026-01-14 06:23:08.08	356.68	17.15	-55.6	-65.3	3.8	7.46e-01	0	28	104	0	75	11016
2026-01-14 06:23:09.09	356.46	17.03	-55.6	-65.4	3.8	7.45e-01	0	28	104	0	75	11036
2026-01-14 06:23:10.10	356.25	16.90	-55.6	-65.3	3.8	7.45e-01	0	28	104	0	75	10990
2026-01-14 06:23:11.11	356.04	16.78	-55.6	-65.3	3.8	7.46e-01	0	28	104	0	75	11016
2026-01-14 06:23:12.11	355.83	16.66	-55.6	-65.3	3.8	7.46e-01	0	28	104	0	75	11029
2026-01-14 06:23:13.12	355.63	16.54	-55.6	-65.3	3.8	7.44e-01	0	28	104	0	75	10996
2026-01-14 06:23:14.14	355.42	16.42	-55.6	-65.4	3.8	7.45e-01	0	28	104	0	75	11045
2026-01-14 06:23:15.14	355.22	16.30	-55.6	-65.4	3.8	7.46e-01	0	28	104	0	75	11039
2026-01-14 06:23:16.15	355.02	16.18	-55.6	-65.3	3.8	7.45e-01	0	28	104	0	75	10988
2026-01-14 06:23:17.16	354.82	16.06	-55.6	-65.4	3.8	7.45e-01	0	28	104	0	75	11031
2026-01-14 06:23:18.17	354.62	15.94	-55.6	-65.4	3.8	7.44e-01	0	28	104	0	75	11059
2026-01-14 06:23:19.17	354.43	15.83	-55.6	-65.3	3.8	7.46e-01	0	28	104	0	75	10991
2026-01-14 06:23:20.19	354.23	15.71	-55.6	-65.3	3.8	7.47e-01	0	28	104	0	75	10987
2026-01-14 06:23:21.19	354.04	15.59	-55.6	-65.4	3.8	7.46e-01	0	28	104	0	75	11059
2026-01-14 06:23:22.20	353.85	15.47	-55.6	-65.4	3.8	7.46e-01	0	28	104	0	75	11048
2026-01-14 06:23:23.21	353.66	15.36	-55.6	-65.3	3.8	7.44e-01	0	28	104	0	75	11022
2026-01-14 06:23:24.22	353.48	15.24	-55.6	-65.3	3.8	7.47e-01	0	28	104	0	75	10981
2026-01-14 06:23:25.23	353.29	15.13	-55.6	-65.3	3.8	7.45e-01	0	28	104	0	75	10999
2026-01-14 06:23:26.24	353.11	15.01	-55.6	-65.4	3.8	7.46e-01	0	28	104	0	75	11039
2026-01-14 06:23:27.24	352.93	14.90	-55.6	-65.3	3.8	7.45e-01	0	28	104	0	75	11015
2026-01-14 06:23:28.25	352.75	14.78	-55.6	-65.4	3.8	7.46e-01	0	28	104	0	75	11057
2026-01-14 06:23:29.26	352.57	14.67	-55.6	-65.4	3.8	7.45e-01	0	28	104	0	75	11049
2026-01-14 06:23:30.27	352.40	14.56	-55.6	-65.4	3.8	7.46e-01	0	28	104	0	75	11071
2026-01-14 06:23:31.28	352.22	14.44	-55.6	-65.4	3.8	7.46e-01	0	28	104	0	75	11072
2026-01-14 06:23:32.29	352.05	14.33	-55.6	-65.3	3.8	7.46e-01	0	28	104	0	75	11027
2026-01-14 06:23:33.30	351.88	14.22	-55.6	-65.3	3.8	7.46e-01	0	28	104	0	75	11009
2026-01-14 06:23:34.31	351.71	14.11	-55.6	-65.3	3.8	7.45e-01	0	28	104	0	75	11018
2026-01-14 06:23:35.31	351.54	14.00	-55.6	-65.4	3.8	7.45e-01	0	28	104	0	75	11063
2026-01-14 06:23:36.32	351.37	13.89	-55.6	-65.4	3.8	7.45e-01	0	28	104	0	75	11066
2026-01-14 06:23:37.33	351.21	13.78	-55.6	-65.3	3.8	7.46e-01	0	28	104	0	75	11013
2026-01-14 06:23:38.34	351.04	13.67	-55.6	-65.4	3.8	7.46e-01	0	28	104	0	75	11048
2026-01-14 06:23:39.35	350.88	13.56	-55.6	-65.3	3.8	7.45e-01	0	28	104	0	75	11021
2026-01-14 06:23:40.36	350.72	13.45	-55.6	-65.3	3.8	7.45e-01	0	28	104	0	75	11022
2026-01-14 06:23:41.37	350.56	13.34	-55.6	-65.3	3.8	7.47e-01	0	28	104	0	75	11011
2026-01-14 06:23:42.38	350.40	13.23	-55.6	-65.4	3.8	7.46e-01	0	28	104	0	75	11032
2026-01-14 06:23:43.39	350.25	13.13	-55.6	-65.4	3.8	7.47e-01	0	28	104	0	75	11055
2026-01-14 06:23:44.39	350.09	13.02	-55.6	-65.4	3.8	7.45e-01	0	28	104	0	75	11052
2026-01-14 06:23:45.41	349.94	12.91	-55.6	-65.4	3.8	7.46e-01	0	28	104	0	75	11051
2026-01-14 06:23:46.41	349.79	12.81	-55.6	-65.3	3.8	7.45e-01	0	28	104	0	75	11023
2026-01-14 06:23:47.42	349.63	12.70	-55.6	-65.4	3.8	7.45e-01	0	28	104	0	75	11036
2026-01-14 06:23:48.43	349.48	12.60	-55.6	-65.4	3.8	7.46e-01	0	28	104	0	75	11049
2026-01-14 06:23:49.44	349.34	12.49	-55.6	-65.3	3.8	7.46e-01	0	28	104	0	75	11023
2026-01-14 06:23:50.45	349.19	12.39	-55.6	-65.4	3.8	7.46e-01	0	28	104	0	75	11035
2026-01-14 06:23:51.46	349.04	12.28	-55.6	-65.3	3.8	7.45e-01	0	28	104	0	75	11025
2026-01-14 06:23:52.47	348.90	12.18	-55.6	-65.3	3.8	7.45e-01	0	28	104	0	75	10982
2026-01-14 06:23:53.48	348.75	12.08	-55.6	-65.3	3.8	7.47e-01	0	28	104	0	75	10973
2026-01-14 06:23:54.49	348.61	11.97	-55.6	-65.3	3.8	7.45e-01	0	28	104	0	75	10980
2026-01-14 06:23:55.49	348.47	11.87	-55.6	-65.3	3.8	7.46e-01	0	28	104	0	75	10999
2026-01-14 06:23:56.50	348.33	11.77	-55.6	-65.3	3.8	7.47e-01	0	28	104	0	75	10996
2026-01-14 06:23:57.51	348.20	11.67	-55.6	-65.3	3.8	7.46e-01	0	28	104	0	75	11021
2026-01-14 06:23:58.52	348.06	11.57	-55.6	-65.4	3.8	7.46e-01	0	28	104	0	75	11050
2026-01-14 06:23:59.53	347.92	11.47	-55.6	-65.4	3.8	7.45e-01	0	28	104	0	75	11081
2026-01-14 06:24:00.54	347.79	11.37	-55.6	-65.3	3.8	7.45e-01	0	28	104	0	75	11011
2026-01-14 06:24:01.55	347.65	11.27	-55.6	-65.4	3.8	7.45e-01	0	28	104	0	75	11066
2026-01-14 06:24:02.56	347.52	11.17	-55.6	-65.4	3.8	7.45e-01	0	28	104	0	75	11031
2026-01-14 06:24:03.57	347.39	11.07	-55.6	-65.4	3.8	7.46e-01	0	28	104	0	75	11064
2026-01-14 06:24:04.58	347.26	10.97	-55.6	-65.3	3.8	7.45e-01	0	28	104	0	75	11017
2026-01-14 06:24:05.58	347.13	10.87	-55.6	-65.4	3.8	7.45e-01	0	28	104	0	75	11051
2026-01-14 06:24:06.60	347.00	10.77	-55.6	-65.4	3.8	7.45e-01	0	28	104	0	75	11062
2026-01-14 06:24:07.61	346.87	10.68	-55.6	-65.4	3.8	7.46e-01	0	28	104	0	75	11030
2026-01-14 06:24:08.62	346.75	10.58	-55.6	-65.4	3.8	7.45e-01	0	28	104	0	75	11044
2026-01-14 06:24:09.63	346.62	10.48	-55.6	-65.3	3.8	7.45e-01	0	28	104	0	75	11013
2026-01-14 06:24:10.63	346.50	10.39	-55.6	-65.3	3.8	7.45e-01	0	28	104	0	75	11022
2026-01-14 06:24:11.65	346.38	10.29	-55.6	-65.3	3.8	7.47e-01	0	28	104	0	75	11020
2026-01-14 06:24:12.66	346.25	10.20	-55.6	-65.3	3.8	7.46e-01	0	28	104	0	75	10995
2026-01-14 06:24:13.66	346.13	10.10	-55.6	-65.4	3.8	7.45e-01	0	28	104	0	75	11067
2026-01-14 06:24:14.67	346.01	10.01	-55.6	-65.4	3.8	7.46e-01	0	28	104	0	75	11066
2026-01-14 06:24:15.68	345.89	9.91	-55.6	-65.4	3.8	7.45e-01	0	28	104	0	75	11058
2026-01-14 06:24:16.69	345.78	9.82	-55.6	-65.3	3.8	7.45e-01	0	28	104	0	75	11027
2026-01-14 06:24:17.70	345.66	9.72	-55.6	-65.4	3.8	7.49e-01	0	28	104	0	75	11045
2026-01-14 06:24:18.71	345.54	9.63	-55.6	-65.4	3.8	7.46e-01	0	28	104	0	75	11050
2026-01-14 06:24:19.72	345.43	9.54	-55.6	-65.4	3.8	7.45e-01	0	28	104	0	75	11061
2026-01-14 06:24:20.73	345.31	9.45	-55.6	-65.4	3.8	7.48e-01	0	28	104	0	75	11040
2026-01-14 06:24:21.74	345.20	9.35	-55.6	-65.4	3.8	7.47e-01	0	28	104	0	75	11058
2026-01-14 06:24:22.75	345.09	9.26	-55.6	-65.4	3.8	7.46e-01	0	28	104	0	75	11047
2026-01-14 06:24:23.76	344.98	9.17	-55.6	-65.4	3.8	7.45e-01	0	28	104	0	75	11076
2026-01-14 06:24:24.77	344.87	9.08	-55.6	-65.4	3.8	7.46e-01	0	28	104	0	75	11033
2026-01-14 06:24:25.77	344.76	8.99	-55.6	-65.4	3.8	7.44e-01	0	28	104	0	75	11036
2026-01-14 06:24:26.78	344.65	8.90	-55.6	-65.4	3.8	7.45e-01	0	28	104	0	75	11034
2026-01-14 06:24:27.79	344.54	8.81	-55.6	-65.4	3.8	7.45e-01	0	28	104	0	75	11047
2026-01-14 06:24:28.80	344.43	8.72	-55.6	-65.4	3.8	7.46e-01	0	28	104	0	75	11053
2026-01-14 06:24:29.81	344.33	8.63	-55.6	-65.3	3.8	7.46e-01	0	28	104	0	75	11002
2026-01-14 06:24:30.82	344.22	8.54	-55.6	-65.4	3.8	7.45e-01	0	28	104	0	75	11043
2026-01-14 06:24:31.82	344.12	8.45	-55.6	-65.4	3.8	7.46e-01	0	28	104	0	75	11074
2026-01-14 06:24:32.83	344.01	8.37	-55.6	-65.4	3.8	7.44e-01	0	28	104	0	75	11061
2026-01-14 06:24:33.84	343.91	8.28	-55.6	-65.4	3.8	7.46e-01	0	28	104	0	75	11040
2026-01-14 06:24:34.84	343.81	8.19	-55.6	-65.4	3.8	7.45e-01	0	28	104	0	75	11075
2026-01-14 06:24:35.85	343.71	8.10	-55.6	-65.4	3.8	7.45e-01	0	28	104	0	75	11057
2026-01-14 06:24:36.86	343.61	8.02	-55.6	-65.4	3.8	7.46e-01	0	28	104	0	75	11074
2026-01-14 06:24:37.86	343.51	7.93	-55.6	-65.4	3.8	7.47e-01	0	28	104	0	75	11060
2026-01-14 06:24:38.87	343.41	7.85	-55.6	-65.3	3.8	7.45e-01	0	28	104	0	75	11017
2026-01-14 06:24:39.88	343.31	7.76	-55.6	-65.4	3.8	7.46e-01	0	28	104	0	75	11036
2026-01-14 06:24:40.89	343.21	7.67	-55.6	-65.4	3.8	7.44e-01	0	28	104	0	75	11030
2026-01-14 06:24:41.90	343.12	7.59	-55.6	-65.4	3.8	7.46e-01	0	28	104	0	75	11047
2026-01-14 06:24:42.91	343.02	7.50	-55.6	-65.4	3.8	7.45e-01	0	28	104	0	75	11046
2026-01-14 06:24:43.92	342.92	7.42	-55.6	-65.4	3.8	7.47e-01	0	28	104	0	75	11038
2026-01-14 06:24:44.93	342.83	7.33	-55.6	-65.4	3.8	7.47e-01	0	28	104	0	75	11072
2026-01-14 06:24:45.94	342.74	7.25	-55.6	-65.4	3.8	7.46e-01	0	28	104	0	75	11037
2026-01-14 06:24:46.94	342.64	7.17	-55.6	-65.4	3.8	7.45e-01	0	28	104	0	75	11068
2026-01-14 06:24:47.95	342.55	7.08	-55.6	-65.4	3.8	7.46e-01	0	28	104	0	75	11032
2026-01-14 06:24:48.96	342.46	7.00	-55.6	-65.4	3.8	7.45e-01	0	28	104	0	75	11085
2026-01-14 06:24:49.96	342.37	6.92	-55.6	-65.4	3.8	7.45e-01	0	28	104	0	75	11042
2026-01-14 06:24:50.97	342.28	6.84	-55.6	-65.4	3.8	7.46e-01	0	28	104	0	75	11059
2026-01-14 06:24:51.98	342.19	6.75	-55.6	-65.4	3.8	7.44e-01	0	28	104	0	75	11044
2026-01-14 06:24:52.99	342.10	6.67	-55.6	-65.3	3.8	7.46e-01	0	28	104	0	75	11001
2026-01-14 06:24:54.00	342.01	6.59	-55.6	-65.4	3.8	7.46e-01	0	28	104	0	75	11032
2026-01-14 06:24:55.01	341.92	6.51	-55.6	-65.4	3.8	7.43e-01	0	28	104	0	75	11101
2026-01-14 06:24:56.02	341.83	6.43	-55.6	-65.4	3.8	7.44e-01	0	28	104	0	75	11046
2026-01-14 06:24:57.03	341.75	6.35	-55.6	-65.4	3.8	7.46e-01	0	28	104	0	75	11035
2026-01-14 06:24:58.04	341.66	6.27	-55.6	-65.3	3.8	7.44e-01	0	28	104	0	75	11012
2026-01-14 06:24:59.05	341.58	6.19	-55.6	-65.3	3.8	7.44e-01	0	28	104	0	75	11029
2026-01-14 06:25:00.06	341.49	6.11	-55.6	-65.4	3.8	7.45e-01	0	28	104	0	75	11044
2026-01-14 06:25:01.07	341.41	6.03	-55.6	-65.4	3.8	7.46e-01	0	28	104	0	75	11052
2026-01-14 06:25:02.08	341.32	5.95	-55.6	-65.4	3.8	7.47e-01	0	28	104	0	75	11048
2026-01-14 06:25:03.09	341.24	5.87	-55.6	-65.4	3.8	7.45e-01	0	28	104	0	75	11085
2026-01-14 06:25:04.10	341.16	5.79	-55.6	-65.3	3.8	7.44e-01	0	28	104	0	75	11009
2026-01-14 06:25:05.11	341.08	5.71	-55.6	-65.4	3.8	7.46e-01	0	28	104	0	75	11044
2026-01-14 06:25:06.12	341.00	5.63	-55.6	-65.3	3.8	7.44e-01	0	28	104	0	75	11010
2026-01-14 06:25:07.13	340.92	5.56	-55.6	-65.4	3.8	7.46e-01	0	28	104	0	75	11034
2026-01-14 06:25:08.14	340.84	5.48	-55.6	-65.4	3.8	7.45e-01	0	28	104	0	75	11041
2026-01-14 06:25:09.15	340.76	5.40	-55.6	-65.4	3.8	7.45e-01	0	28	104	0	75	11055
2026-01-14 06:25:10.16	340.68	5.32	-55.6	-65.4	3.8	7.47e-01	0	28	104	0	75	11033
2026-01-14 06:25:11.17	340.60	5.25	-55.6	-65.4	3.8	7.48e-01	0	28	104	0	75	11046
2026-01-14 06:25:12.18	340.52	5.17	-55.6	-65.3	3.8	7.45e-01	0	28	104	0	75	11029
2026-01-14 06:25:13.19	340.44	5.09	-55.6	-65.4	3.8	7.45e-01	0	28	104	0	75	11039
2026-01-14 06:25:14.19	340.37	5.02	-55.6	-65.3	3.8	7.44e-01	0	28	104	0	75	11028
2026-01-14 06:25:15.20	340.29	4.94	-55.6	-65.3	3.8	7.45e-01	0	28	104	0	75	11014
2026-01-14 06:25:16.21	340.22	4.87	-55.6	-65.4	3.8	7.46e-01	0	28	104	0	75	11094
2026-01-14 06:25:17.22	340.14	4.79	-55.6	-65.3	3.8	7.45e-01	0	28	104	0	75	11011
2026-01-14 06:25:18.23	340.07	4.72	-55.6	-65.3	3.8	7.47e-01	0	28	104	0	75	10991
2026-01-14 06:25:19.24	339.99	4.64	-55.6	-65.4	3.8	7.45e-01	0	28	104	0	75	11081
2026-01-14 06:25:20.25	339.92	4.57	-55.6	-65.3	3.8	7.46e-01	0	28	104	0	75	11014
2026-01-14 06:25:21.26	339.84	4.49	-55.6	-65.4	3.8	7.46e-01	0	28	104	0	75	11050
2026-01-14 06:25:22.27	339.77	4.42	-55.6	-65.4	3.8	7.46e-01	0	28	104	0	75	11034
2026-01-14 06:25:23.28	339.70	4.34	-55.6	-65.4	3.8	7.46e-01	0	28	104	0	75	11044
2026-01-14 06:25:24.29	339.63	4.27	-55.6	-65.3	3.8	7.47e-01	0	28	104	0	75	11027
2026-01-14 06:25:25.30	339.56	4.20	-55.6	-65.3	3.8	7.45e-01	0	28	104	0	75	11021
2026-01-14 06:25:26.30	339.49	4.12	-55.6	-65.4	3.8	7.43e-01	0	28	104	0	75	11047
2026-01-14 06:25:27.31	339.42	4.05	-55.6	-65.4	3.8	7.45e-01	0	28	104	0	75	11057
2026-01-14 06:25:28.32	339.35	3.98	-55.6	-65.3	3.8	7.46e-01	0	28	104	0	75	11012
2026-01-14 06:25:29.33	339.28	3.90	-55.6	-65.3	3.8	7.47e-01	0	28	104	0	75	11023
2026-01-14 06:25:30.33	339.21	3.83	-55.6	-65.4	3.8	7.45e-01	0	28	104	0	75	11048
2026-01-14 06:25:31.34	339.14	3.76	-55.6	-65.4	3.8	7.45e-01	0	28	104	0	75	11038
2026-01-14 06:25:32.35	339.07	3.69	-55.6	-65.4	3.8	7.45e-01	0	28	104	0	75	11048
2026-01-14 06:25:33.35	339.01	3.62	-55.6	-65.4	3.8	7.47e-01	0	28	104	0	75	11030
2026-01-14 06:25:34.36	338.94	3.55	-55.6	-65.4	3.8	7.44e-01	0	28	104	0	75	11057
2026-01-14 06:25:35.36	338.87	3.47	-55.6	-65.3	3.8	7.46e-01	0	28	104	0	75	10993
2026-01-14 06:25:36.37	338.81	3.40	-55.6	-65.3	3.8	7.45e-01	0	28	104	0	75	11008
2026-01-14 06:25:37.38	338.74	3.33	-55.6	-65.3	3.8	7.46e-01	0	28	104	0	75	11029
2026-01-14 06:25:38.39	338.68	3.26	-55.6	-65.3	3.8	7.46e-01	0	28	104	0	75	11013
2026-01-14 06:25:39.40	338.61	3.19	-55.6	-65.4	3.8	7.45e-01	0	28	104	0	75	11045
2026-01-14 06:25:40.40	338.55	3.12	-55.6	-65.4	3.8	7.46e-01	0	28	104	0	75	11082
2026-01-14 06:25:41.42	338.48	3.05	-55.6	-65.4	3.8	7.47e-01	0	28	104	0	75	11065
2026-01-14 06:25:42.42	338.42	2.98	-55.6	-65.4	3.8	7.46e-01	0	28	104	0	75	11061
2026-01-14 06:25:43.43	338.36	2.91	-55.6	-65.4	3.8	7.45e-01	0	28	104	0	75	11049
2026-01-14 06:25:44.44	338.30	2.84	-55.6	-65.4	3.8	7.46e-01	0	28	104	0	75	11055
2026-01-14 06:25:45.45	338.23	2.77	-55.6	-65.4	3.8	7.46e-01	0	28	104	0	75	11066
2026-01-14 06:25:46.46	338.17	2.70	-55.6	-65.3	3.8	7.44e-01	0	28	104	0	75	11025
2026-01-14 06:25:47.47	338.11	2.64	-55.6	-65.4	3.8	7.44e-01	0	28	104	0	75	11039
2026-01-14 06:25:48.47	338.05	2.57	-55.6	-65.4	3.8	7.45e-01	0	28	104	0	75	11054
2026-01-14 06:25:49.48	337.99	2.50	-55.6	-65.4	3.8	7.45e-01	0	28	104	0	75	11132
2026-01-14 06:25:50.49	337.93	2.43	-55.6	-65.4	3.8	7.45e-01	0	28	104	0	75	11086
2026-01-14 06:25:51.50	337.87	2.36	-55.6	-65.4	3.8	7.46e-01	0	28	104	0	75	11051
2026-01-14 06:25:52.51	337.81	2.30	-55.6	-65.4	3.8	7.44e-01	0	28	104	0	75	11087
2026-01-14 06:25:53.51	337.75	2.23	-55.6	-65.4	3.8	7.46e-01	0	28	104	0	75	11074
2026-01-14 06:25:54.52	337.69	2.16	-55.6	-65.4	3.8	7.46e-01	0	28	104	0	75	11043
2026-01-14 06:25:55.53	337.63	2.09	-55.6	-65.4	3.8	7.45e-01	0	28	104	0	75	11034
2026-01-14 06:25:56.53	337.57	2.03	-55.6	-65.3	3.8	7.44e-01	0	28	104	0	75	11025
2026-01-14 06:25:57.55	337.52	1.96	-55.6	-65.4	3.8	7.46e-01	0	28	104	0	75	11074

#Closed at: 2026-01-14 06:25:57
#Recorded file [0 MB]: D:/lorett/data/31004_260114_091604.dat