passes_logs/2026/01/14/R3.2S_Murmansk/R3.2S_Murmansk__20260114_105628_TY-42_rec.log

#Pass ID: 20260114_105628_TY-42
#Satellite: TY-42
#Configuration: TY-42_900M
#almurnet v.1.7.20251203
#Start time: 2026-01-14 10:56:29

#Version: 2.2.20231116
#Station: R3.2S_Murmansk
#Location: 33.079688 lon 68.888172 lat
#TLE: 1 64048U 25103A   26014.26833333  .00008011  00000-0  38191-3 0 09992
#TLE: 2 64048 097.4118 089.6996 0001685 091.1025 050.2393 15.19172418 36706

#Time	Az	El	Level	Level2	SNR	BER	BlckErr	Temp	State	Recorded	gain1	gain2
2026-01-14 10:56:29.76	23.07	2.07	-57.7	-61.0	6.1	0.00e+00	0	32	0	0	82	20666
2026-01-14 10:56:30.76	23.01	2.14	-57.8	-61.0	6.1	0.00e+00	0	32	104	0	82	20818
2026-01-14 10:56:31.77	22.95	2.21	-57.8	-61.0	6.2	0.00e+00	0	32	104	0	82	20823
2026-01-14 10:56:32.78	22.89	2.27	-57.8	-61.0	6.2	0.00e+00	0	32	104	0	82	20830
2026-01-14 10:56:33.79	22.82	2.34	-57.8	-61.0	6.1	0.00e+00	0	32	104	0	82	20775
2026-01-14 10:56:34.80	22.76	2.41	-57.8	-61.0	6.1	0.00e+00	0	32	104	0	82	20834
2026-01-14 10:56:35.81	22.70	2.48	-57.8	-61.0	6.2	0.00e+00	0	32	104	0	82	20755
2026-01-14 10:56:36.82	22.64	2.54	-57.8	-61.0	6.1	0.00e+00	0	32	104	0	82	20831
2026-01-14 10:56:37.83	22.57	2.61	-57.8	-61.0	6.2	0.00e+00	0	32	104	0	82	20846
2026-01-14 10:56:38.84	22.51	2.68	-57.8	-61.0	6.2	0.00e+00	0	32	104	0	82	20822
2026-01-14 10:56:39.84	22.45	2.75	-57.8	-61.0	6.1	0.00e+00	0	32	104	0	82	20864
2026-01-14 10:56:40.85	22.38	2.82	-57.8	-61.0	6.1	0.00e+00	0	33	104	0	82	20834
2026-01-14 10:56:41.86	22.32	2.88	-57.8	-61.0	6.2	0.00e+00	0	33	104	0	82	20857
2026-01-14 10:56:42.86	22.25	2.95	-57.8	-61.1	6.1	0.00e+00	0	33	104	0	82	20928
2026-01-14 10:56:43.87	22.19	3.02	-57.8	-61.1	6.2	0.00e+00	0	33	104	0	82	20875
2026-01-14 10:56:44.88	22.12	3.09	-57.8	-61.0	6.1	0.00e+00	0	33	104	0	82	20870
2026-01-14 10:56:45.88	22.05	3.16	-57.8	-61.1	6.1	0.00e+00	0	33	104	0	82	20907
2026-01-14 10:56:46.89	21.99	3.23	-57.8	-61.1	6.2	0.00e+00	0	33	104	0	82	20904
2026-01-14 10:56:47.90	21.92	3.30	-57.8	-61.1	6.2	0.00e+00	0	33	104	0	82	20897
2026-01-14 10:56:48.90	21.85	3.37	-57.8	-61.1	6.2	0.00e+00	0	33	104	0	82	20873
2026-01-14 10:56:49.91	21.78	3.44	-57.8	-61.0	6.2	0.00e+00	0	33	104	0	82	20867
2026-01-14 10:56:50.91	21.72	3.51	-57.8	-61.1	6.2	0.00e+00	0	33	104	0	82	20912
2026-01-14 10:56:51.91	21.65	3.58	-57.8	-61.1	6.1	0.00e+00	0	33	104	0	82	20877
2026-01-14 10:56:52.92	21.58	3.65	-57.8	-61.1	6.1	0.00e+00	0	33	104	0	82	20915
2026-01-14 10:56:53.93	21.51	3.72	-57.8	-61.1	6.2	0.00e+00	0	33	104	0	82	20965
2026-01-14 10:56:54.94	21.44	3.79	-57.8	-61.1	6.1	0.00e+00	0	33	104	0	82	20971
2026-01-14 10:56:55.95	21.36	3.86	-57.8	-61.1	6.2	0.00e+00	0	33	104	0	82	20886
2026-01-14 10:56:56.95	21.29	3.93	-57.8	-61.1	6.1	0.00e+00	0	33	104	0	82	20974
2026-01-14 10:56:57.96	21.22	4.00	-57.8	-61.1	6.2	0.00e+00	0	33	104	0	82	20932
2026-01-14 10:56:58.97	21.15	4.08	-57.8	-61.1	6.2	0.00e+00	0	33	104	0	82	20906
2026-01-14 10:56:59.98	21.08	4.15	-57.8	-61.1	6.2	0.00e+00	0	33	104	0	82	20942
2026-01-14 10:57:00.98	21.00	4.22	-57.8	-61.1	6.2	0.00e+00	0	33	104	0	82	20953
2026-01-14 10:57:01.99	20.93	4.29	-57.9	-61.1	6.2	0.00e+00	0	33	104	0	82	21010
2026-01-14 10:57:03.00	20.86	4.37	-57.8	-61.1	6.2	0.00e+00	0	33	104	0	82	21001
2026-01-14 10:57:04.01	20.78	4.44	-57.9	-61.1	6.2	0.00e+00	0	33	104	0	82	20998
2026-01-14 10:57:05.01	20.71	4.51	-57.9	-61.1	6.1	0.00e+00	0	34	104	0	82	21040
2026-01-14 10:57:06.02	20.63	4.59	-57.9	-61.1	6.2	0.00e+00	0	34	104	0	82	21069
2026-01-14 10:57:07.03	20.55	4.66	-57.9	-61.1	6.1	0.00e+00	0	34	104	0	82	21025
2026-01-14 10:57:08.04	20.48	4.73	-57.9	-61.1	6.2	0.00e+00	0	34	104	0	82	21046
2026-01-14 10:57:09.05	20.40	4.81	-57.9	-61.1	6.2	0.00e+00	0	34	104	0	82	21055
2026-01-14 10:57:10.06	20.32	4.88	-57.9	-61.1	6.1	0.00e+00	0	33	104	0	82	21083
2026-01-14 10:57:11.06	20.24	4.96	-57.9	-61.1	6.2	0.00e+00	0	34	104	0	82	21026
2026-01-14 10:57:12.06	20.17	5.03	-57.9	-61.1	6.1	0.00e+00	0	34	104	0	82	21029
2026-01-14 10:57:13.07	20.09	5.11	-58.0	-61.3	6.1	0.00e+00	0	34	104	0	82	21381
2026-01-14 10:57:14.08	20.01	5.18	-58.0	-61.3	6.2	0.00e+00	0	34	104	0	82	21364
2026-01-14 10:57:15.09	19.92	5.26	-57.9	-61.1	6.2	0.00e+00	0	34	104	0	82	21028
2026-01-14 10:57:16.09	19.84	5.33	-58.0	-61.2	6.2	0.00e+00	0	34	104	0	82	21357
2026-01-14 10:57:17.09	19.76	5.41	-57.9	-61.1	6.1	0.00e+00	0	34	104	0	82	21050
2026-01-14 10:57:18.10	19.68	5.48	-58.1	-61.3	6.2	0.00e+00	0	34	104	0	82	21525
2026-01-14 10:57:19.11	19.60	5.56	-57.9	-61.2	6.2	0.00e+00	0	34	104	0	82	21133
2026-01-14 10:57:20.11	19.52	5.64	-58.1	-61.3	6.2	0.00e+00	0	34	104	0	82	21477
2026-01-14 10:57:21.12	19.43	5.71	-57.9	-61.2	6.2	0.00e+00	0	34	104	0	82	21232
2026-01-14 10:57:22.13	19.35	5.79	-58.1	-61.4	6.1	0.00e+00	0	34	104	0	82	21620
2026-01-14 10:57:23.14	19.26	5.87	-58.0	-61.2	6.2	0.00e+00	0	34	104	0	82	21277
2026-01-14 10:57:24.14	19.18	5.95	-58.1	-61.3	6.2	0.00e+00	0	34	104	0	82	21551
2026-01-14 10:57:25.15	19.09	6.02	-58.0	-61.2	6.1	0.00e+00	0	34	104	0	82	21227
2026-01-14 10:57:26.14	19.00	6.10	-58.1	-61.4	6.1	0.00e+00	0	34	104	0	82	21646
2026-01-14 10:57:27.15	18.92	6.18	-58.0	-61.3	6.1	0.00e+00	0	34	104	0	82	21385
2026-01-14 10:57:28.15	18.83	6.26	-58.1	-61.4	6.2	0.00e+00	0	34	104	0	82	21610
2026-01-14 10:57:29.16	18.74	6.34	-58.0	-61.3	6.1	0.00e+00	0	34	104	0	82	21405
2026-01-14 10:57:30.16	18.65	6.42	-58.2	-61.4	6.2	0.00e+00	0	34	104	0	82	21739
2026-01-14 10:57:31.17	18.56	6.50	-58.0	-61.3	6.1	0.00e+00	0	34	104	0	82	21409
2026-01-14 10:57:32.18	18.47	6.58	-58.2	-61.4	6.1	0.00e+00	0	34	104	0	82	21755
2026-01-14 10:57:33.18	18.38	6.65	-58.1	-61.3	6.1	0.00e+00	0	34	104	0	82	21523
2026-01-14 10:57:34.18	18.29	6.73	-58.2	-61.4	6.1	0.00e+00	0	34	104	0	82	21849
2026-01-14 10:57:35.19	18.20	6.81	-58.1	-61.4	6.2	0.00e+00	0	34	104	0	82	21621
2026-01-14 10:57:36.19	18.10	6.90	-58.2	-61.4	6.2	0.00e+00	0	34	104	0	82	21791
2026-01-14 10:57:37.19	18.01	6.98	-58.1	-61.4	6.1	0.00e+00	0	34	104	0	82	21627
2026-01-14 10:57:38.20	17.92	7.06	-58.2	-61.5	6.2	0.00e+00	0	34	104	0	82	21885
2026-01-14 10:57:39.21	17.82	7.14	-58.1	-61.4	6.2	0.00e+00	0	34	104	0	82	21648
2026-01-14 10:57:40.21	17.73	7.22	-58.2	-61.4	6.2	0.00e+00	0	34	104	0	82	21855
2026-01-14 10:57:41.22	17.63	7.30	-58.2	-61.4	6.1	0.00e+00	0	35	104	0	82	21702
2026-01-14 10:57:42.23	17.53	7.39	-58.3	-61.5	6.1	0.00e+00	0	34	104	0	82	21940
2026-01-14 10:57:43.23	17.43	7.47	-58.2	-61.4	6.1	0.00e+00	0	35	104	0	82	21690
2026-01-14 10:57:44.23	17.34	7.55	-58.2	-61.5	6.1	0.00e+00	0	34	104	0	82	21956
2026-01-14 10:57:45.23	17.24	7.63	-58.2	-61.5	6.2	0.00e+00	0	34	104	0	82	21880
2026-01-14 10:57:46.23	17.14	7.72	-58.3	-61.5	6.2	0.00e+00	0	35	104	0	82	22054
2026-01-14 10:57:47.24	17.04	7.80	-58.2	-61.5	6.2	0.00e+00	0	35	104	0	82	21876
2026-01-14 10:57:48.25	16.93	7.88	-58.3	-61.5	6.2	0.00e+00	0	35	104	0	82	22086
2026-01-14 10:57:49.25	16.83	7.97	-58.2	-61.5	6.1	0.00e+00	0	35	104	0	82	21969
2026-01-14 10:57:50.25	16.73	8.05	-58.4	-61.6	6.1	0.00e+00	0	35	104	0	82	22213
2026-01-14 10:57:51.26	16.63	8.14	-58.2	-61.5	6.2	0.00e+00	0	35	104	0	82	21972
2026-01-14 10:57:52.26	16.52	8.22	-58.3	-61.5	6.1	0.00e+00	0	35	104	0	82	22087
2026-01-14 10:57:53.27	16.42	8.31	-58.3	-61.5	6.2	0.00e+00	0	35	104	0	82	22016
2026-01-14 10:57:54.27	16.31	8.39	-58.4	-61.6	6.2	0.00e+00	0	35	104	0	82	22223
2026-01-14 10:57:55.28	16.20	8.48	-58.3	-61.5	6.2	0.00e+00	0	35	104	0	82	22020
2026-01-14 10:57:56.29	16.10	8.57	-58.3	-61.6	6.2	0.00e+00	0	35	104	0	82	22179
2026-01-14 10:57:57.29	15.99	8.65	-58.3	-61.6	6.1	0.00e+00	0	35	104	0	82	22147
2026-01-14 10:57:58.30	15.88	8.74	-58.4	-61.6	6.2	0.00e+00	0	35	104	0	82	22285
2026-01-14 10:57:59.30	15.77	8.83	-58.3	-61.6	6.2	0.00e+00	0	35	104	0	82	22110
2026-01-14 10:58:00.31	15.66	8.92	-50.3	-51.5	8.7	0.00e+00	0	35	104	0	68	15479
2026-01-14 10:58:01.31	15.54	9.00	-48.8	-49.3	9.8	0.00e+00	5513	36	0	33554432	63	16169
2026-01-14 10:58:02.31	15.43	9.09	-47.8	-48.3	10.3	0.00e+00	1028	36	0	150994944	62	15194
2026-01-14 10:58:03.31	15.32	9.18	-47.2	-47.7	10.5	2.19e-01	8	36	0	268435456	61	14997
2026-01-14 10:58:04.32	15.20	9.27	-47.4	-47.8	10.5	2.19e-01	4	36	0	377487360	61	15281
2026-01-14 10:58:05.31	15.09	9.36	-46.6	-47.0	10.8	2.19e-01	0	36	0	486539264	59	15626
2026-01-14 10:58:06.32	14.97	9.45	-46.8	-47.3	10.7	1.52e-01	0	36	0	603979776	59	16149
2026-01-14 10:58:07.32	14.86	9.54	-45.5	-45.9	11.3	1.52e-01	0	36	0	713031680	58	14607
2026-01-14 10:58:08.33	14.74	9.63	-44.4	-44.7	11.7	9.71e-02	0	36	0	830472192	56	14263
2026-01-14 10:58:09.33	14.62	9.72	-43.5	-43.9	12.0	9.71e-02	0	37	0	939524096	54	14487
2026-01-14 10:58:10.33	14.50	9.81	-42.8	-43.1	12.1	9.71e-02	0	36	0	1048576000	52	14883
2026-01-14 10:58:11.34	14.38	9.90	-42.2	-42.6	12.3	9.71e-02	0	36	0	1166016512	51	14849
2026-01-14 10:58:12.34	14.26	9.99	-42.0	-42.3	12.4	1.81e-02	0	36	0	1275068416	51	14346
2026-01-14 10:58:13.34	14.14	10.08	-42.1	-42.4	12.3	1.81e-02	0	37	0	1392508928	51	14569
2026-01-14 10:58:14.35	14.01	10.18	-41.8	-42.1	12.4	1.81e-02	0	36	0	1501560832	50	14926
2026-01-14 10:58:15.35	13.89	10.27	-41.7	-42.0	12.4	6.36e-03	0	37	0	1610612736	50	14749
2026-01-14 10:58:16.35	13.76	10.36	-41.8	-42.1	12.4	6.36e-03	0	37	0	1728053248	50	14814
2026-01-14 10:58:17.35	13.64	10.45	-41.7	-42.0	12.4	6.36e-03	0	37	0	1837105152	50	14711
2026-01-14 10:58:18.36	13.51	10.55	-41.6	-41.9	12.5	5.58e-03	0	37	0	1954545664	50	14526
2026-01-14 10:58:19.37	13.38	10.64	-41.5	-41.8	12.5	5.58e-03	0	37	0	2071986176	50	14426
2026-01-14 10:58:20.37	13.25	10.74	-41.4	-41.7	12.5	5.58e-03	0	37	0	2181038080	50	14240
2026-01-14 10:58:21.39	13.12	10.83	-41.4	-41.7	12.4	4.57e-03	0	37	0	2298478592	49	15075
2026-01-14 10:58:22.39	12.98	10.93	-41.3	-41.7	12.5	4.57e-03	0	37	0	2407530496	49	14952
2026-01-14 10:58:23.39	12.85	11.02	-41.2	-41.5	12.5	4.57e-03	0	37	0	2516582400	49	14730
2026-01-14 10:58:24.40	12.72	11.12	-41.2	-41.5	12.5	4.23e-03	0	37	0	2634022912	49	14700
2026-01-14 10:58:25.40	12.58	11.21	-41.2	-41.5	12.6	4.23e-03	0	37	0	2743074816	49	14705
2026-01-14 10:58:26.41	12.45	11.31	-41.2	-41.5	12.6	3.57e-03	0	37	0	2860515328	49	14618
2026-01-14 10:58:27.41	12.31	11.41	-41.2	-41.5	12.6	3.57e-03	0	37	0	2977955840	49	14726
2026-01-14 10:58:28.41	12.17	11.50	-41.3	-41.6	12.5	3.57e-03	0	37	0	3087007744	49	14813
2026-01-14 10:58:29.40	12.03	11.60	-41.1	-41.4	12.6	3.57e-03	0	37	0	3196059648	49	14541
2026-01-14 10:58:30.41	11.89	11.70	-40.9	-41.2	12.7	3.52e-03	0	37	0	3313500160	49	14269
2026-01-14 10:58:31.41	11.75	11.80	-41.1	-41.4	12.6	3.52e-03	0	37	0	3422552064	49	14455
2026-01-14 10:58:32.41	11.61	11.90	-41.0	-41.3	12.6	3.52e-03	0	37	0	3539992576	49	14401
2026-01-14 10:58:33.42	11.46	12.00	-41.0	-41.3	12.7	2.89e-03	0	37	0	3649044480	49	14307
2026-01-14 10:58:34.42	11.32	12.09	-40.8	-41.1	12.6	2.89e-03	0	37	0	3766484992	48	14866
2026-01-14 10:58:35.43	11.17	12.19	-40.8	-41.1	12.6	2.89e-03	0	37	0	3875536896	48	14871
2026-01-14 10:58:36.44	11.02	12.30	-40.6	-41.0	12.7	2.67e-03	0	37	0	3984588800	48	14614
2026-01-14 10:58:37.44	10.87	12.40	-40.7	-41.0	12.7	2.67e-03	0	37	0	4102029312	48	14625
2026-01-14 10:58:38.45	10.72	12.50	-40.6	-40.9	12.7	1.94e-03	0	37	0	4211081216	48	14563
2026-01-14 10:58:39.45	10.57	12.60	-40.5	-40.8	12.8	1.94e-03	0	38	0	4328521728	48	14314
2026-01-14 10:58:40.45	10.42	12.70	-40.4	-40.7	12.8	1.67e-03	0	37	0	4437573632	48	14217
2026-01-14 10:58:41.46	10.26	12.80	-40.5	-40.7	12.8	1.67e-03	0	38	0	4555014144	48	14255
2026-01-14 10:58:42.45	10.11	12.90	-40.5	-40.7	12.8	1.67e-03	0	38	0	4664066048	48	14263
2026-01-14 10:58:43.46	9.95	13.01	-39.6	-39.9	12.7	1.47e-03	0	37	0	4781506560	46	14600
2026-01-14 10:58:44.47	9.79	13.11	-39.5	-39.8	12.7	1.47e-03	0	38	0	4890558464	46	14412
2026-01-14 10:58:45.47	9.63	13.21	-39.5	-39.8	12.8	2.24e-03	0	38	0	5007998976	46	14340
2026-01-14 10:58:46.48	9.47	13.32	-39.4	-39.7	12.8	2.24e-03	0	38	0	5117050880	46	14159
2026-01-14 10:58:47.48	9.31	13.42	-39.3	-39.6	12.7	2.24e-03	0	38	0	5234491392	45	14855
2026-01-14 10:58:48.49	9.14	13.53	-39.2	-39.5	12.7	2.06e-03	0	38	0	5343543296	45	14733
2026-01-14 10:58:49.49	8.98	13.63	-39.2	-39.5	12.7	2.06e-03	0	38	0	5452595200	45	14743
2026-01-14 10:58:50.48	8.81	13.74	-39.1	-39.4	12.8	2.06e-03	0	38	0	5570035712	45	14570
2026-01-14 10:58:51.49	8.64	13.84	-39.2	-39.5	12.8	1.77e-03	0	38	0	5679087616	45	14671
2026-01-14 10:58:52.50	8.47	13.95	-39.2	-39.5	12.8	1.77e-03	0	38	0	5796528128	45	14614
2026-01-14 10:58:53.50	8.30	14.05	-39.0	-39.3	12.8	1.35e-03	0	38	0	5905580032	45	14406
2026-01-14 10:58:54.50	8.13	14.16	-39.0	-39.3	12.9	1.35e-03	0	38	0	6023020544	45	14349
2026-01-14 10:58:55.50	7.96	14.27	-39.0	-39.3	12.9	1.35e-03	0	38	0	6132072448	45	14403
2026-01-14 10:58:56.51	7.78	14.38	-39.0	-39.3	12.9	1.34e-03	0	38	0	6249512960	45	14289
2026-01-14 10:58:57.51	7.61	14.48	-39.0	-39.3	12.9	1.34e-03	0	38	0	6358564864	45	14413
2026-01-14 10:58:58.50	7.43	14.59	-39.0	-39.3	12.9	1.25e-03	0	38	0	6467616768	45	14345
2026-01-14 10:58:59.51	7.25	14.70	-38.8	-39.1	12.8	1.25e-03	0	38	0	6585057280	44	14928
2026-01-14 10:59:00.51	7.07	14.81	-38.7	-39.0	12.9	1.25e-03	0	38	0	6702497792	44	14744
2026-01-14 10:59:01.52	6.88	14.92	-38.7	-39.0	12.9	1.26e-03	0	38	0	6811549696	44	14719
2026-01-14 10:59:02.52	6.70	15.03	-38.7	-39.0	12.9	1.26e-03	0	38	0	6928990208	44	14662
2026-01-14 10:59:03.53	6.51	15.14	-38.8	-39.0	12.9	1.26e-03	0	38	0	7038042112	44	14743
2026-01-14 10:59:04.53	6.32	15.25	-38.6	-38.9	13.0	9.54e-04	0	38	0	7147094016	44	14520
2026-01-14 10:59:05.53	6.13	15.36	-38.7	-39.0	13.0	9.54e-04	0	38	0	7264534528	44	14614
2026-01-14 10:59:06.54	5.94	15.47	-38.6	-38.8	13.0	9.54e-04	0	38	0	7373586432	44	14430
2026-01-14 10:59:07.54	5.75	15.58	-38.5	-38.8	13.0	6.77e-04	0	38	0	7491026944	44	14376
2026-01-14 10:59:08.55	5.55	15.70	-38.6	-38.9	13.0	6.77e-04	0	38	0	7600078848	44	14502
2026-01-14 10:59:09.56	5.35	15.81	-38.5	-38.8	13.0	6.77e-04	0	38	0	7717519360	44	14328
2026-01-14 10:59:10.56	5.15	15.92	-38.6	-38.9	13.0	5.63e-04	0	38	0	7826571264	44	14487
2026-01-14 10:59:11.57	4.95	16.04	-38.5	-38.8	13.1	5.63e-04	0	38	0	7944011776	44	14280
2026-01-14 10:59:12.57	4.75	16.15	-38.5	-38.8	13.0	5.63e-04	0	38	0	8053063680	44	14302
2026-01-14 10:59:13.58	4.54	16.27	-38.4	-38.7	13.1	5.58e-04	0	38	0	8170504192	44	14151
2026-01-14 10:59:14.58	4.34	16.38	-38.4	-38.7	13.1	5.58e-04	0	38	0	8279556096	44	14216
2026-01-14 10:59:15.59	4.13	16.49	-38.4	-38.7	13.1	5.58e-04	0	38	0	8396996608	44	14212
2026-01-14 10:59:16.59	3.92	16.61	-38.3	-38.5	13.1	4.24e-04	0	38	0	8506048512	43	14746
2026-01-14 10:59:17.60	3.71	16.73	-38.3	-38.5	13.1	4.24e-04	0	38	0	8615100416	43	14768
2026-01-14 10:59:18.60	3.49	16.84	-38.2	-38.5	13.1	3.58e-04	0	38	0	8732540928	43	14694
2026-01-14 10:59:19.60	3.28	16.96	-38.2	-38.5	13.1	3.58e-04	0	38	0	8841592832	43	14683
2026-01-14 10:59:20.61	3.06	17.07	-38.2	-38.5	13.1	3.58e-04	0	38	0	8959033344	43	14662
2026-01-14 10:59:21.62	2.84	17.19	-38.2	-38.5	13.1	3.58e-04	0	38	0	9076473856	43	14663
2026-01-14 10:59:22.63	2.62	17.31	-38.0	-38.3	13.1	3.58e-04	0	38	0	9185525760	43	14353
2026-01-14 10:59:23.63	2.39	17.43	-38.1	-38.3	13.1	3.58e-04	0	38	0	9294577664	43	14426
2026-01-14 10:59:24.64	2.17	17.54	-37.9	-38.2	13.2	2.91e-04	0	38	0	9412018176	43	14215
2026-01-14 10:59:25.64	1.94	17.66	-38.0	-38.2	13.2	2.91e-04	0	38	0	9521070080	43	14205
2026-01-14 10:59:26.65	1.71	17.78	-38.0	-38.3	13.1	2.91e-04	0	38	0	9638510592	43	14351
2026-01-14 10:59:27.65	1.48	17.90	-37.9	-38.2	13.2	2.67e-04	0	38	0	9747562496	43	14216
2026-01-14 10:59:28.66	1.24	18.02	-37.8	-38.1	13.1	2.67e-04	0	38	0	9865003008	42	14843
2026-01-14 10:59:29.67	1.00	18.14	-37.8	-38.1	13.1	2.67e-04	0	38	0	9982443520	42	14905
2026-01-14 10:59:30.67	0.76	18.26	-37.8	-38.1	13.1	2.67e-04	0	38	0	10091495424	42	14853
2026-01-14 10:59:31.68	0.52	18.38	-37.6	-37.9	13.2	2.67e-04	0	38	0	10200547328	42	14572
2026-01-14 10:59:32.68	0.28	18.50	-37.7	-37.9	13.2	2.62e-04	0	38	0	10317987840	42	14560
2026-01-14 10:59:33.69	0.03	18.62	-37.6	-37.9	13.2	2.62e-04	0	38	0	10427039744	42	14455
2026-01-14 10:59:34.70	359.78	18.74	-37.4	-37.7	13.2	2.00e-04	0	38	0	10544480256	42	14231
2026-01-14 10:59:35.70	359.53	18.86	-37.4	-37.7	13.3	2.00e-04	0	39	0	10653532160	42	14179
2026-01-14 10:59:36.70	359.28	18.98	-37.5	-37.7	13.3	2.00e-04	0	38	0	10762584064	42	14258
2026-01-14 10:59:37.71	359.03	19.10	-37.2	-37.5	13.2	2.00e-04	0	38	0	10880024576	41	14631
2026-01-14 10:59:38.71	358.77	19.22	-37.2	-37.4	13.2	9.53e-05	0	39	0	10997465088	41	14607
2026-01-14 10:59:39.72	358.51	19.35	-37.1	-37.4	13.2	9.53e-05	0	38	0	11106516992	41	14515
2026-01-14 10:59:40.73	358.25	19.47	-37.1	-37.4	13.2	5.72e-05	0	38	0	11223957504	41	14469
2026-01-14 10:59:41.73	357.98	19.59	-36.9	-37.2	13.3	5.72e-05	0	38	0	11333009408	41	14198
2026-01-14 10:59:42.73	357.72	19.71	-37.0	-37.3	13.3	5.72e-05	0	39	0	11450449920	41	14306
2026-01-14 10:59:43.73	357.45	19.83	-37.0	-37.2	13.3	1.24e-04	0	39	0	11559501824	41	14237
2026-01-14 10:59:44.73	357.18	19.96	-37.0	-37.3	13.2	1.24e-04	0	39	0	11668553728	41	14288
2026-01-14 10:59:45.73	356.91	20.08	-36.9	-37.2	13.2	1.24e-04	0	38	0	11785994240	40	14956
2026-01-14 10:59:46.74	356.63	20.20	-36.8	-37.1	13.2	1.24e-04	0	39	0	11895046144	40	14826
2026-01-14 10:59:47.75	356.35	20.33	-36.8	-37.1	13.2	1.10e-04	0	38	0	12012486656	40	14867
2026-01-14 10:59:48.76	356.06	20.45	-36.8	-37.1	13.2	1.10e-04	0	39	0	12121538560	40	14814
2026-01-14 10:59:49.76	355.78	20.57	-36.7	-37.0	13.3	1.10e-04	0	38	0	12238979072	40	14612
2026-01-14 10:59:50.76	355.49	20.69	-36.7	-36.9	13.3	7.62e-05	0	39	0	12356419584	40	14544
2026-01-14 10:59:51.77	355.20	20.82	-36.7	-36.9	13.3	7.62e-05	0	39	0	12465471488	40	14567
2026-01-14 10:59:52.77	354.91	20.94	-36.6	-36.9	13.3	7.62e-05	0	39	0	12574523392	40	14441
2026-01-14 10:59:53.77	354.62	21.06	-36.5	-36.8	13.3	6.67e-05	0	39	0	12691963904	40	14288
2026-01-14 10:59:54.77	354.32	21.19	-36.5	-36.7	13.3	6.67e-05	0	38	0	12801015808	40	14213
2026-01-14 10:59:55.78	354.02	21.31	-36.6	-36.9	13.3	6.67e-05	0	39	0	12918456320	40	14447
2026-01-14 10:59:56.78	353.71	21.43	-36.5	-36.8	13.3	3.81e-05	0	39	0	13027508224	40	14328
2026-01-14 10:59:57.79	353.41	21.56	-36.6	-36.8	13.3	3.81e-05	0	39	0	13136560128	40	14425
2026-01-14 10:59:58.80	353.10	21.68	-36.3	-36.6	13.3	3.81e-05	0	39	0	13254000640	39	14865
2026-01-14 10:59:59.80	352.78	21.80	-36.3	-36.6	13.3	2.86e-05	0	38	0	13363052544	39	14808
2026-01-14 11:00:00.80	352.47	21.93	-36.3	-36.6	13.3	2.86e-05	0	39	0	13480493056	39	14850
2026-01-14 11:00:01.80	352.16	22.05	-36.3	-36.5	13.3	2.86e-05	0	39	0	13589544960	39	14765
2026-01-14 11:00:02.80	351.84	22.17	-36.2	-36.4	13.3	3.33e-05	0	39	0	13706985472	39	14559
2026-01-14 11:00:03.81	351.51	22.30	-36.1	-36.3	13.4	3.33e-05	0	39	0	13824425984	39	14415
2026-01-14 11:00:04.81	351.19	22.42	-36.1	-36.3	13.4	3.33e-05	0	39	0	13933477888	39	14380
2026-01-14 11:00:05.81	350.86	22.54	-36.1	-36.3	13.3	1.90e-05	0	39	0	14042529792	39	14431
2026-01-14 11:00:06.82	350.52	22.66	-35.9	-36.2	13.4	1.90e-05	0	39	0	14159970304	39	14125
2026-01-14 11:00:07.83	350.19	22.79	-35.9	-36.2	13.3	1.90e-05	0	39	0	14269022208	38	14995
2026-01-14 11:00:08.83	349.85	22.91	-35.9	-36.1	13.3	1.90e-05	0	39	0	14386462720	38	14887
2026-01-14 11:00:09.83	349.51	23.03	-35.9	-36.2	13.3	1.90e-05	0	39	0	14495514624	38	14949
2026-01-14 11:00:10.84	349.16	23.15	-35.8	-36.1	13.3	1.90e-05	0	39	0	14604566528	38	14896
2026-01-14 11:00:11.84	348.82	23.27	-35.8	-36.1	13.3	4.29e-05	0	39	0	14722007040	38	14877
2026-01-14 11:00:12.83	348.47	23.39	-35.9	-36.1	13.3	4.29e-05	0	39	0	14831058944	38	14931
2026-01-14 11:00:13.83	348.12	23.51	-35.8	-36.1	13.3	4.29e-05	0	39	0	14948499456	38	14836
2026-01-14 11:00:14.83	347.77	23.63	-35.9	-36.1	13.3	2.86e-05	0	39	0	15057551360	38	14934
2026-01-14 11:00:15.84	347.41	23.75	-35.8	-36.0	13.4	2.86e-05	0	39	0	15174991872	38	14723
2026-01-14 11:00:16.84	347.05	23.87	-35.7	-35.9	13.4	2.86e-05	0	39	0	15284043776	38	14603
2026-01-14 11:00:17.84	346.68	23.98	-35.6	-35.9	13.4	3.33e-05	0	39	0	15393095680	38	14444
2026-01-14 11:00:18.84	346.31	24.10	-35.6	-35.8	13.4	3.33e-05	0	39	0	15510536192	38	14410
2026-01-14 11:00:19.85	345.94	24.22	-35.6	-35.8	13.4	3.33e-05	0	39	0	15619588096	38	14374
2026-01-14 11:00:20.85	345.57	24.33	-35.6	-35.9	13.4	9.50e-06	0	39	0	15737028608	38	14457
2026-01-14 11:00:21.86	345.19	24.45	-35.5	-35.8	13.4	9.50e-06	0	39	0	15854469120	38	14330
2026-01-14 11:00:22.86	344.81	24.57	-35.6	-35.9	13.4	9.50e-06	0	39	0	15963521024	38	14509
2026-01-14 11:00:23.87	344.42	24.68	-35.5	-35.8	13.4	1.90e-05	0	39	0	16080961536	38	14293
2026-01-14 11:00:24.88	344.03	24.80	-35.6	-35.9	13.4	1.90e-05	0	39	0	16190013440	38	14463
2026-01-14 11:00:25.88	343.64	24.91	-35.6	-35.9	13.4	1.90e-05	0	39	0	16299065344	38	14490
2026-01-14 11:00:26.88	343.25	25.02	-35.6	-35.8	13.4	0.00e+00	0	39	0	16416505856	38	14375
2026-01-14 11:00:27.89	342.85	25.14	-35.5	-35.8	13.5	0.00e+00	0	39	0	16525557760	38	14306
2026-01-14 11:00:28.89	342.45	25.25	-35.5	-35.7	13.5	2.38e-05	0	39	0	16642998272	38	14232
2026-01-14 11:00:29.89	342.05	25.36	-35.4	-35.6	13.5	2.38e-05	0	39	0	16752050176	38	14066
2026-01-14 11:00:30.90	341.65	25.47	-35.3	-35.5	13.4	2.38e-05	0	39	0	16861102080	37	14761
2026-01-14 11:00:31.90	341.24	25.57	-35.3	-35.5	13.4	3.81e-05	0	39	0	16978542592	37	14737
2026-01-14 11:00:32.91	340.82	25.68	-35.3	-35.5	13.4	3.81e-05	0	39	0	17095983104	37	14758
2026-01-14 11:00:33.91	340.41	25.79	-35.2	-35.5	13.4	3.81e-05	0	39	0	17205035008	37	14646
2026-01-14 11:00:34.91	339.99	25.89	-35.3	-35.5	13.4	4.70e-06	0	39	0	17322475520	37	14770
2026-01-14 11:00:35.91	339.57	26.00	-35.3	-35.5	13.4	4.70e-06	0	39	0	17431527424	37	14660
2026-01-14 11:00:36.92	339.14	26.10	-35.2	-35.5	13.4	0.00e+00	0	39	0	17548967936	37	14621
2026-01-14 11:00:37.92	338.72	26.20	-35.1	-35.4	13.4	0.00e+00	0	39	0	17658019840	37	14464
2026-01-14 11:00:38.93	338.29	26.31	-35.1	-35.3	13.4	0.00e+00	0	39	0	17767071744	37	14410
2026-01-14 11:00:39.94	337.85	26.41	-35.1	-35.3	13.5	4.70e-06	0	39	0	17884512256	37	14385
2026-01-14 11:00:40.94	337.41	26.50	-35.1	-35.3	13.5	4.70e-06	0	39	0	17993564160	37	14416
2026-01-14 11:00:41.95	336.97	26.60	-35.2	-35.4	13.4	4.70e-06	0	39	0	18102616064	37	14568
2026-01-14 11:00:42.95	336.53	26.70	-35.1	-35.3	13.5	4.70e-06	0	39	0	18220056576	37	14394
2026-01-14 11:00:43.96	336.08	26.79	-34.9	-35.2	13.5	4.70e-06	0	39	0	18337497088	37	14163
2026-01-14 11:00:44.96	335.63	26.89	-34.9	-35.1	13.4	0.00e+00	0	39	0	18446548992	36	14908
2026-01-14 11:00:45.96	335.19	26.98	-34.8	-35.1	13.4	0.00e+00	0	39	0	18563989504	36	14855
2026-01-14 11:00:46.97	334.73	27.07	-34.9	-35.1	13.4	0.00e+00	0	39	0	18673041408	36	14903
2026-01-14 11:00:47.97	334.27	27.16	-34.7	-35.0	13.4	0.00e+00	0	39	0	18790481920	36	14640
2026-01-14 11:00:48.97	333.81	27.24	-34.8	-35.1	13.4	0.00e+00	0	39	0	18899533824	36	14790
2026-01-14 11:00:49.97	333.35	27.33	-34.7	-35.0	13.4	1.43e-05	0	39	0	19016974336	36	14658
2026-01-14 11:00:50.98	332.88	27.41	-34.7	-35.0	13.4	1.43e-05	0	39	0	19126026240	36	14700
2026-01-14 11:00:51.98	332.42	27.50	-34.8	-35.1	13.4	4.70e-06	0	39	0	19235078144	36	14809
2026-01-14 11:00:52.98	331.95	27.58	-34.7	-34.9	13.4	4.70e-06	0	39	0	19352518656	36	14596
2026-01-14 11:00:53.98	331.48	27.66	-34.6	-34.9	13.4	4.70e-06	0	39	0	19461570560	36	14518
2026-01-14 11:00:54.99	331.00	27.73	-34.8	-35.1	13.4	4.70e-06	0	39	0	19579011072	36	14827
2026-01-14 11:00:55.99	330.52	27.81	-34.7	-35.0	13.4	4.70e-06	0	39	0	19688062976	36	14638
2026-01-14 11:00:57.00	330.04	27.88	-34.7	-34.9	13.4	4.70e-06	0	39	0	19797114880	36	14575
2026-01-14 11:00:58.00	329.56	27.96	-34.7	-34.9	13.4	0.00e+00	0	39	0	19914555392	36	14515
2026-01-14 11:00:59.00	329.07	28.03	-34.6	-34.9	13.4	0.00e+00	0	39	0	20023607296	36	14496
2026-01-14 11:01:00.00	328.59	28.09	-34.7	-35.0	13.4	0.00e+00	0	39	0	20141047808	36	14608
2026-01-14 11:01:01.00	328.10	28.16	-34.6	-34.9	13.4	4.70e-06	0	39	0	20250099712	36	14452
2026-01-14 11:01:02.00	327.61	28.22	-34.5	-34.7	13.4	4.70e-06	0	39	0	20359151616	36	14268
2026-01-14 11:01:03.01	327.11	28.29	-34.5	-34.8	13.4	4.70e-06	0	39	0	20484980736	36	14287
2026-01-14 11:01:04.02	326.61	28.35	-34.5	-34.7	13.4	0.00e+00	0	39	0	20594032640	36	14262
2026-01-14 11:01:05.02	326.11	28.41	-34.5	-34.7	13.4	0.00e+00	0	39	0	20703084544	36	14272
2026-01-14 11:01:06.02	325.61	28.46	-34.5	-34.8	13.4	0.00e+00	0	39	0	20820525056	36	14314
2026-01-14 11:01:07.02	325.11	28.52	-34.6	-34.9	13.4	0.00e+00	0	39	0	20929576960	36	14449
2026-01-14 11:01:08.02	324.61	28.57	-34.6	-34.8	13.4	0.00e+00	0	39	0	21047017472	36	14375
2026-01-14 11:01:09.02	324.10	28.62	-34.5	-34.7	13.4	0.00e+00	0	39	0	21156069376	36	14261
2026-01-14 11:01:10.03	323.59	28.66	-34.4	-34.7	13.4	0.00e+00	0	39	0	21265121280	36	14121
2026-01-14 11:01:11.03	323.09	28.71	-34.5	-34.8	13.4	0.00e+00	0	39	0	21382561792	36	14324
2026-01-14 11:01:12.04	322.57	28.75	-34.4	-34.7	13.4	0.00e+00	0	39	0	21491613696	36	14182
2026-01-14 11:01:13.05	322.06	28.79	-34.5	-34.7	13.4	0.00e+00	0	39	0	21609054208	36	14252
2026-01-14 11:01:14.05	321.54	28.83	-34.5	-34.7	13.3	1.90e-05	0	39	0	21718106112	36	14180
2026-01-14 11:01:15.05	321.03	28.87	-34.5	-34.8	13.3	1.90e-05	0	39	0	21827158016	36	14276
2026-01-14 11:01:16.05	320.52	28.90	-34.5	-34.7	13.3	1.90e-05	0	39	0	21944598528	36	14214
2026-01-14 11:01:17.06	319.99	28.93	-34.5	-34.7	13.3	9.50e-06	0	39	0	22062039040	36	14247
2026-01-14 11:01:18.07	319.47	28.96	-34.4	-34.7	13.3	9.50e-06	0	39	0	22171090944	36	14124
2026-01-14 11:01:19.07	318.95	28.99	-34.5	-34.7	13.3	9.50e-06	0	39	0	22288531456	36	14269
2026-01-14 11:01:20.08	318.43	29.01	-34.4	-34.6	13.3	5.24e-05	0	39	0	22397583360	36	14074
2026-01-14 11:01:21.08	317.91	29.03	-34.4	-34.7	13.3	5.24e-05	0	39	0	22515023872	36	14156
2026-01-14 11:01:22.09	317.39	29.05	-34.4	-34.6	13.3	5.24e-05	0	39	0	22624075776	36	14100
2026-01-14 11:01:23.09	316.86	29.07	-34.5	-34.7	13.3	4.70e-06	0	39	0	22733127680	36	14192
2026-01-14 11:01:24.10	316.34	29.08	-34.5	-34.7	13.3	4.70e-06	0	39	0	22850568192	36	14187
2026-01-14 11:01:25.10	315.82	29.09	-34.4	-34.7	13.4	4.70e-06	0	39	0	22959620096	36	14157
2026-01-14 11:01:26.09	315.30	29.10	-34.4	-34.7	13.4	4.70e-06	0	39	0	23077060608	36	14146
2026-01-14 11:01:27.10	314.77	29.11	-34.5	-34.8	13.3	4.70e-06	0	39	0	23186112512	36	14304
2026-01-14 11:01:28.10	314.25	29.11	-34.5	-34.7	13.4	4.70e-06	0	39	0	23295164416	36	14268
2026-01-14 11:01:29.11	313.72	29.12	-34.5	-34.8	13.4	0.00e+00	0	39	0	23420993536	36	14292
2026-01-14 11:01:30.11	313.20	29.11	-34.4	-34.6	13.4	0.00e+00	0	39	0	23530045440	36	14060
2026-01-14 11:01:31.11	312.67	29.11	-31.9	-32.1	13.3	0.00e+00	0	39	0	23639097344	30	14911
2026-01-14 11:01:32.11	312.15	29.11	-31.9	-32.2	13.3	2.38e-05	0	39	0	23756537856	30	14965
2026-01-14 11:01:33.11	311.63	29.10	-31.9	-32.2	13.3	2.38e-05	0	39	0	23865589760	30	14991
2026-01-14 11:01:34.11	311.11	29.09	-32.0	-32.2	13.3	2.38e-05	0	39	0	23983030272	30	15107
2026-01-14 11:01:35.12	310.58	29.07	-31.8	-32.1	13.3	2.38e-05	0	39	0	24092082176	30	14873
2026-01-14 11:01:36.12	310.06	29.06	-31.8	-32.1	13.3	2.86e-05	0	39	0	24201134080	30	14874
2026-01-14 11:01:37.13	309.53	29.04	-31.9	-32.1	13.3	2.86e-05	0	39	0	24318574592	30	14926
2026-01-14 11:01:38.13	309.01	29.02	-31.8	-32.1	13.3	2.86e-05	0	39	0	24427626496	30	14873
2026-01-14 11:01:39.13	308.49	29.00	-31.9	-32.2	13.2	1.43e-05	0	39	0	24545067008	30	15025
2026-01-14 11:01:40.13	307.98	28.97	-31.9	-32.2	13.2	1.43e-05	0	39	0	24654118912	30	15005
2026-01-14 11:01:41.14	307.45	28.94	-31.9	-32.2	13.2	1.43e-05	0	39	0	24771559424	30	15057
2026-01-14 11:01:42.13	306.94	28.91	-32.0	-32.3	13.2	5.72e-05	0	39	0	24880611328	30	15167
2026-01-14 11:01:43.14	306.42	28.88	-31.9	-32.1	13.2	5.72e-05	0	39	0	24989663232	30	14945
2026-01-14 11:01:44.14	305.91	28.84	-31.9	-32.1	13.3	5.72e-05	0	39	0	25107103744	30	14913
2026-01-14 11:01:45.14	305.39	28.81	-31.9	-32.2	13.3	5.72e-05	0	39	0	25216155648	30	14984
2026-01-14 11:01:46.15	304.88	28.77	-31.9	-32.2	13.3	7.15e-05	0	39	0	25333596160	30	15009
2026-01-14 11:01:47.15	304.37	28.73	-31.9	-32.2	13.2	7.15e-05	0	39	0	25442648064	30	15049
2026-01-14 11:01:48.16	303.85	28.68	-31.9	-32.2	13.3	6.67e-05	0	39	0	25560088576	30	14989
2026-01-14 11:01:49.15	303.35	28.64	-32.0	-32.3	13.3	6.67e-05	0	39	0	25669140480	30	15251
2026-01-14 11:01:50.16	302.84	28.59	-32.0	-32.3	13.3	6.67e-05	0	39	0	25786580992	30	15231
2026-01-14 11:01:51.16	302.34	28.54	-32.0	-32.3	13.3	3.81e-05	0	39	0	25895632896	30	15126
2026-01-14 11:01:52.17	301.83	28.48	-32.1	-32.4	13.3	3.81e-05	0	39	0	26013073408	30	15307
2026-01-14 11:01:53.17	301.33	28.43	-31.9	-32.2	13.3	3.81e-05	0	39	0	26122125312	30	15049
2026-01-14 11:01:54.17	300.83	28.37	-31.9	-32.2	13.3	1.90e-05	0	39	0	26239565824	30	15050
2026-01-14 11:01:55.18	300.33	28.31	-32.0	-32.3	13.3	1.90e-05	0	39	0	26348617728	30	15123
2026-01-14 11:01:56.18	299.83	28.25	-32.0	-32.3	13.3	1.90e-05	0	39	0	26457669632	30	15129
2026-01-14 11:01:57.18	299.34	28.18	-32.1	-32.4	13.3	1.90e-05	0	39	0	26575110144	30	15303
2026-01-14 11:01:58.18	298.85	28.12	-32.1	-32.4	13.3	3.33e-05	0	39	0	26684162048	30	15298
2026-01-14 11:01:59.19	298.36	28.05	-32.1	-32.4	13.3	3.33e-05	0	39	0	26801602560	30	15395
2026-01-14 11:02:00.19	297.87	27.98	-32.1	-32.4	13.3	1.43e-05	0	39	0	26910654464	30	15360
2026-01-14 11:02:01.19	297.39	27.91	-32.1	-32.5	13.2	1.43e-05	0	39	0	27019706368	30	15480
2026-01-14 11:02:02.19	296.91	27.84	-32.1	-32.4	13.3	1.43e-05	0	39	0	27137146880	30	15339
2026-01-14 11:02:03.19	296.43	27.76	-32.2	-32.5	13.3	1.43e-05	0	39	0	27246198784	30	15519
2026-01-14 11:02:04.20	295.95	27.69	-32.2	-32.5	13.3	2.38e-05	0	39	0	27363639296	30	15522
2026-01-14 11:02:05.21	295.47	27.61	-32.1	-32.4	13.3	2.38e-05	0	39	0	27481079808	30	15458
2026-01-14 11:02:06.21	295.00	27.53	-32.2	-32.5	13.3	2.38e-05	0	39	0	27590131712	30	15618
2026-01-14 11:02:07.21	294.53	27.44	-32.2	-32.5	13.3	3.81e-05	0	39	0	27707572224	30	15567
2026-01-14 11:02:08.22	294.06	27.36	-32.3	-32.6	13.3	3.81e-05	0	39	0	27816624128	30	15719
2026-01-14 11:02:09.23	293.59	27.27	-32.3	-32.6	13.3	3.81e-05	0	39	0	27925676032	30	15747
2026-01-14 11:02:10.23	293.13	27.19	-32.2	-32.5	13.3	3.81e-05	0	39	0	28043116544	30	15610
2026-01-14 11:02:11.23	292.68	27.10	-32.3	-32.6	13.3	5.24e-05	0	39	0	28152168448	30	15680
2026-01-14 11:02:12.24	292.22	27.01	-32.5	-32.8	13.3	5.24e-05	0	39	0	28269608960	30	16092
2026-01-14 11:02:13.24	291.77	26.92	-32.4	-32.7	13.3	3.33e-05	0	39	0	28378660864	30	15897
2026-01-14 11:02:14.24	291.32	26.82	-32.5	-32.8	13.3	3.33e-05	0	39	0	28487712768	30	16035
2026-01-14 11:02:15.24	290.87	26.73	-32.4	-32.7	13.3	3.33e-05	0	39	0	28605153280	30	15958
2026-01-14 11:02:16.24	290.43	26.63	-32.4	-32.7	13.3	6.19e-05	0	39	0	28714205184	30	16004
2026-01-14 11:02:17.25	289.98	26.54	-32.4	-32.7	13.3	6.19e-05	0	39	0	28831645696	30	15838
2026-01-14 11:02:18.25	289.55	26.44	-32.4	-32.7	13.3	6.67e-05	0	39	0	28940697600	30	15837
2026-01-14 11:02:19.26	289.11	26.34	-32.3	-32.6	13.3	6.67e-05	0	39	0	29058138112	30	15785
2026-01-14 11:02:20.26	288.68	26.24	-32.3	-32.6	13.3	6.67e-05	0	39	0	29175578624	30	15801
2026-01-14 11:02:21.27	288.24	26.13	-32.4	-32.7	13.3	3.81e-05	0	39	0	29284630528	30	15837
2026-01-14 11:02:22.28	287.81	26.03	-32.3	-32.6	13.3	3.81e-05	0	39	0	29393682432	30	15772
2026-01-14 11:02:23.28	287.39	25.93	-32.4	-32.7	13.3	3.81e-05	0	39	0	29511122944	30	15909
2026-01-14 11:02:24.28	286.97	25.82	-32.4	-32.7	13.3	3.33e-05	0	39	0	29620174848	30	16004
2026-01-14 11:02:25.28	286.56	25.72	-32.4	-32.7	13.3	3.33e-05	0	39	0	29737615360	30	15982
2026-01-14 11:02:26.29	286.14	25.61	-32.5	-32.8	13.3	3.33e-05	0	39	0	29846667264	30	16022
2026-01-14 11:02:27.28	285.73	25.50	-32.4	-32.7	13.3	3.33e-05	0	39	0	29955719168	30	15970
2026-01-14 11:02:28.28	285.33	25.39	-32.4	-32.7	13.3	3.33e-05	0	39	0	30073159680	30	15973
2026-01-14 11:02:29.28	284.92	25.28	-32.5	-32.8	13.3	3.33e-05	0	39	0	30182211584	30	16163
2026-01-14 11:02:30.28	284.52	25.17	-32.5	-32.8	13.3	9.50e-06	0	39	0	30299652096	30	16126
2026-01-14 11:02:31.28	284.13	25.06	-32.7	-33.0	13.4	9.50e-06	0	39	0	30408704000	31	15567
2026-01-14 11:02:32.29	283.73	24.95	-32.6	-32.9	13.4	9.50e-06	0	39	0	30517755904	31	15462
2026-01-14 11:02:33.29	283.34	24.83	-32.7	-32.9	13.4	1.90e-05	0	39	0	30635196416	31	15455
2026-01-14 11:02:34.29	282.95	24.72	-32.7	-33.0	13.4	1.90e-05	0	39	0	30744248320	31	15528
2026-01-14 11:02:35.29	282.56	24.60	-32.8	-33.1	13.4	1.90e-05	0	39	0	30861688832	31	15668
2026-01-14 11:02:36.30	282.18	24.49	-32.8	-33.1	13.3	3.33e-05	0	39	0	30970740736	31	15768
2026-01-14 11:02:37.31	281.80	24.37	-32.9	-33.2	13.3	3.33e-05	0	39	0	31088181248	31	15880
2026-01-14 11:02:38.32	281.42	24.25	-32.8	-33.1	13.4	2.38e-05	0	39	0	31205621760	31	15754
2026-01-14 11:02:39.31	281.05	24.14	-32.9	-33.2	13.3	2.38e-05	0	39	0	31314673664	31	15877
2026-01-14 11:02:40.32	280.68	24.02	-32.8	-33.1	13.3	2.38e-05	0	39	0	31423725568	31	15804
2026-01-14 11:02:41.33	280.31	23.90	-32.9	-33.2	13.3	2.86e-05	0	39	0	31541166080	31	15903
2026-01-14 11:02:42.34	279.94	23.78	-32.9	-33.3	13.3	2.86e-05	0	39	0	31650217984	31	16027
2026-01-14 11:02:43.34	279.58	23.66	-33.0	-33.3	13.3	2.86e-05	0	39	0	31767658496	31	16056
2026-01-14 11:02:44.35	279.22	23.54	-33.1	-33.4	13.3	3.33e-05	0	39	0	31876710400	31	16240
2026-01-14 11:02:45.35	278.86	23.42	-33.1	-33.4	13.4	3.33e-05	0	39	0	31985762304	32	15321
2026-01-14 11:02:46.35	278.51	23.30	-33.1	-33.4	13.4	3.33e-05	0	39	0	32103202816	32	15429
2026-01-14 11:02:47.36	278.16	23.18	-33.2	-33.5	13.3	6.19e-05	0	39	0	32220643328	32	15480
2026-01-14 11:02:48.36	277.82	23.06	-33.2	-33.5	13.4	6.19e-05	0	39	0	32329695232	32	15540
2026-01-14 11:02:49.37	277.47	22.93	-33.2	-33.5	13.3	4.29e-05	0	39	0	32447135744	32	15638
2026-01-14 11:02:50.37	277.13	22.81	-33.3	-33.6	13.3	4.29e-05	0	39	0	32556187648	32	15665
2026-01-14 11:02:51.37	276.80	22.69	-33.3	-33.6	13.3	5.24e-05	0	39	0	32673628160	32	15809
2026-01-14 11:02:52.38	276.46	22.57	-33.4	-33.7	13.3	5.24e-05	0	39	0	32782680064	32	15875
2026-01-14 11:02:53.38	276.13	22.45	-33.4	-33.7	13.3	4.29e-05	0	39	0	32891731968	32	15874
2026-01-14 11:02:54.38	275.81	22.32	-33.5	-33.8	13.3	4.29e-05	0	39	0	33009172480	32	16086
2026-01-14 11:02:55.38	275.48	22.20	-33.5	-33.8	13.3	4.29e-05	0	39	0	33118224384	32	16124
2026-01-14 11:02:56.39	275.16	22.08	-33.5	-33.8	13.3	4.76e-05	0	39	0	33235664896	32	16189
2026-01-14 11:02:57.39	274.84	21.95	-33.7	-34.0	13.3	4.76e-05	0	39	0	33344716800	33	15548
2026-01-14 11:02:58.40	274.52	21.83	-33.7	-34.0	13.3	5.24e-05	0	39	0	33453768704	33	15606
2026-01-14 11:02:59.40	274.21	21.71	-33.7	-34.0	13.4	5.24e-05	0	39	0	33571209216	33	15521
2026-01-14 11:03:00.40	273.90	21.58	-33.7	-34.0	13.3	5.24e-05	0	39	0	33680261120	33	15530
2026-01-14 11:03:01.41	273.59	21.46	-33.8	-34.1	13.3	4.29e-05	0	39	0	33797701632	33	15743
2026-01-14 11:03:02.42	273.28	21.33	-33.8	-34.1	13.3	4.29e-05	0	39	0	33915142144	33	15760
2026-01-14 11:03:03.42	272.98	21.21	-33.8	-34.1	13.3	4.29e-05	0	39	0	34024194048	33	15756
2026-01-14 11:03:04.43	272.68	21.09	-33.8	-34.1	13.3	1.10e-04	0	39	0	34141634560	33	15750
2026-01-14 11:03:05.43	272.38	20.96	-33.8	-34.1	13.3	1.10e-04	0	39	0	34250686464	33	15833
2026-01-14 11:03:06.43	272.09	20.84	-33.9	-34.2	13.3	1.10e-04	0	39	0	34359738368	33	15953
2026-01-14 11:03:07.43	271.80	20.72	-34.1	-34.4	13.2	1.24e-04	0	39	0	34477178880	33	16296
2026-01-14 11:03:08.44	271.51	20.59	-34.0	-34.3	13.2	1.24e-04	0	40	0	34586230784	33	16140
2026-01-14 11:03:09.45	271.22	20.47	-34.1	-34.4	13.2	1.24e-04	0	39	0	34703671296	33	16250
2026-01-14 11:03:10.46	270.93	20.34	-34.2	-34.5	13.3	1.19e-04	0	39	0	34821111808	34	15514
2026-01-14 11:03:11.46	270.65	20.22	-34.2	-34.5	13.3	1.19e-04	0	39	0	34930163712	34	15586
2026-01-14 11:03:12.47	270.37	20.10	-34.2	-34.5	13.3	1.19e-04	0	39	0	35047604224	34	15536
2026-01-14 11:03:13.48	270.09	19.97	-34.3	-34.6	13.2	2.00e-04	0	39	0	35156656128	34	15727
2026-01-14 11:03:14.48	269.82	19.85	-34.3	-34.6	13.2	2.00e-04	0	39	0	35265708032	34	15816
2026-01-14 11:03:15.49	269.55	19.73	-34.5	-34.8	13.2	1.86e-04	0	39	0	35383148544	34	16059
2026-01-14 11:03:16.49	269.28	19.60	-34.5	-34.8	13.2	1.86e-04	0	39	0	35492200448	34	16133
2026-01-14 11:03:17.49	269.02	19.48	-34.6	-34.9	13.2	1.86e-04	0	39	0	35609640960	34	16330
2026-01-14 11:03:18.50	268.75	19.36	-34.6	-34.9	13.2	2.00e-04	0	39	0	35718692864	34	16271
2026-01-14 11:03:19.50	268.49	19.24	-34.6	-34.9	13.2	2.00e-04	0	40	0	35827744768	35	15457
2026-01-14 11:03:20.50	268.23	19.12	-34.7	-35.0	13.2	2.00e-04	0	39	0	35945185280	35	15546
2026-01-14 11:03:21.50	267.98	18.99	-34.9	-35.2	13.2	2.34e-04	0	39	0	36054237184	35	15873
2026-01-14 11:03:22.51	267.72	18.87	-34.8	-35.1	13.2	2.34e-04	0	39	0	36171677696	35	15825
2026-01-14 11:03:23.51	267.47	18.75	-34.8	-35.1	13.2	2.76e-04	0	39	0	36289118208	35	15775
2026-01-14 11:03:24.52	267.22	18.63	-35.0	-35.3	13.1	2.76e-04	0	39	0	36398170112	35	16028
2026-01-14 11:03:25.52	266.97	18.51	-35.0	-35.3	13.2	2.72e-04	0	40	0	36515610624	35	16050
2026-01-14 11:03:26.52	266.73	18.39	-35.1	-35.4	13.1	2.72e-04	0	39	0	36624662528	35	16222
2026-01-14 11:03:27.52	266.49	18.27	-35.1	-35.4	13.1	2.72e-04	0	39	0	36733714432	35	16224
2026-01-14 11:03:28.53	266.25	18.15	-37.7	-38.0	13.3	3.96e-04	0	39	0	36851154944	41	15540
2026-01-14 11:03:29.53	266.01	18.03	-37.7	-38.0	13.3	3.96e-04	0	39	0	36960206848	41	15570
2026-01-14 11:03:30.53	265.77	17.91	-37.6	-37.9	13.3	1.14e-04	0	39	0	37077647360	41	15383
2026-01-14 11:03:31.53	265.54	17.79	-37.7	-38.0	13.3	1.14e-04	0	39	0	37186699264	41	15505
2026-01-14 11:03:32.54	265.31	17.67	-37.8	-38.0	13.3	1.14e-04	0	39	0	37295751168	41	15610
2026-01-14 11:03:33.55	265.08	17.55	-37.8	-38.1	13.2	1.29e-04	0	39	0	37413191680	41	15704
2026-01-14 11:03:34.54	264.85	17.44	-37.9	-38.2	13.2	1.29e-04	0	39	0	37522243584	41	15897
2026-01-14 11:03:35.55	264.63	17.32	-37.9	-38.2	13.2	1.29e-04	0	39	0	37639684096	41	15928
2026-01-14 11:03:36.55	264.40	17.20	-37.9	-38.2	13.2	1.62e-04	0	39	0	37748736000	41	15892
2026-01-14 11:03:37.56	264.18	17.08	-38.0	-38.3	13.2	1.62e-04	0	40	0	37866176512	41	16081
2026-01-14 11:03:38.57	263.96	16.96	-38.0	-38.3	13.2	1.52e-04	0	39	0	37983617024	41	16074
2026-01-14 11:03:39.58	263.74	16.85	-38.1	-38.3	13.2	1.52e-04	0	39	0	38092668928	41	16163
2026-01-14 11:03:40.58	263.53	16.73	-38.1	-38.4	13.2	1.52e-04	0	40	0	38201720832	41	16280
2026-01-14 11:03:41.59	263.31	16.61	-38.2	-38.5	13.2	2.86e-04	0	39	0	38319161344	42	15502
2026-01-14 11:03:42.59	263.10	16.50	-38.3	-38.6	13.2	2.86e-04	0	39	0	38428213248	42	15778
2026-01-14 11:03:43.59	262.89	16.38	-38.4	-38.6	13.2	2.86e-04	0	39	0	38545653760	42	15823
2026-01-14 11:03:44.59	262.69	16.27	-38.4	-38.6	13.2	2.96e-04	0	40	0	38654705664	42	15784
2026-01-14 11:03:45.60	262.48	16.15	-38.4	-38.7	13.2	2.96e-04	0	40	0	38763757568	42	15974
2026-01-14 11:03:46.60	262.28	16.04	-38.5	-38.7	13.2	2.96e-04	0	39	0	38881198080	42	15991
2026-01-14 11:03:47.61	262.07	15.93	-38.6	-38.9	13.1	4.34e-04	0	39	0	38998638592	42	16207
2026-01-14 11:03:48.61	261.87	15.81	-38.6	-38.9	13.1	4.34e-04	0	39	0	39107690496	42	16237
2026-01-14 11:03:49.62	261.67	15.70	-38.6	-38.8	13.1	4.62e-04	0	40	0	39225131008	42	16181
2026-01-14 11:03:50.63	261.48	15.59	-38.7	-39.0	13.1	4.62e-04	0	39	0	39334182912	43	15592
2026-01-14 11:03:51.63	261.28	15.47	-38.7	-39.0	13.1	4.62e-04	0	39	0	39451623424	43	15633
2026-01-14 11:03:52.64	261.09	15.36	-38.8	-39.1	13.1	5.53e-04	0	40	0	39560675328	43	15665
2026-01-14 11:03:53.64	260.90	15.25	-38.8	-39.1	13.1	5.53e-04	0	39	0	39669727232	43	15700
2026-01-14 11:03:54.64	260.71	15.14	-38.9	-39.2	13.1	5.53e-04	0	39	0	39787167744	43	15945
2026-01-14 11:03:55.65	260.52	15.03	-38.9	-39.2	13.1	6.96e-04	0	39	0	39896219648	43	15884
2026-01-14 11:03:56.65	260.33	14.92	-39.1	-39.3	13.0	6.96e-04	0	39	0	40013660160	43	16176
2026-01-14 11:03:57.65	260.15	14.81	-39.1	-39.4	13.0	6.87e-04	0	39	0	40122712064	43	16231
2026-01-14 11:03:58.66	259.96	14.70	-39.1	-39.4	13.1	6.87e-04	0	39	0	40240152576	44	15415
2026-01-14 11:03:59.66	259.78	14.59	-39.2	-39.5	13.0	6.87e-04	0	39	0	40357593088	44	15571
2026-01-14 11:04:00.66	259.60	14.48	-39.3	-39.6	13.0	7.87e-04	0	39	0	40466644992	44	15677
2026-01-14 11:04:01.66	259.42	14.37	-39.2	-39.5	13.0	7.87e-04	0	40	0	40575696896	44	15570
2026-01-14 11:04:02.66	259.25	14.26	-39.3	-39.6	13.0	7.87e-04	0	39	0	40693137408	44	15757
2026-01-14 11:04:03.66	259.07	14.16	-39.5	-39.8	13.0	8.96e-04	0	40	0	40802189312	44	16057
2026-01-14 11:04:04.67	258.90	14.05	-39.4	-39.7	13.0	8.96e-04	0	40	0	40919629824	44	15872
2026-01-14 11:04:05.66	258.73	13.94	-39.5	-39.8	13.0	8.96e-04	0	39	0	41028681728	44	16175
2026-01-14 11:04:06.67	258.56	13.83	-39.6	-39.9	13.0	1.14e-03	0	39	0	41137733632	44	16278
2026-01-14 11:04:07.66	258.39	13.73	-39.6	-39.9	13.0	1.14e-03	0	40	0	41255174144	45	15359
2026-01-14 11:04:08.66	258.22	13.62	-39.7	-40.0	12.9	1.33e-03	0	40	0	41364226048	45	15612
2026-01-14 11:04:09.67	258.05	13.52	-39.8	-40.1	12.9	1.33e-03	0	40	0	41481666560	45	15674
2026-01-14 11:04:10.67	257.89	13.41	-39.9	-40.1	12.9	1.33e-03	0	40	0	41590718464	45	15825
2026-01-14 11:04:11.67	257.73	13.31	-39.9	-40.2	12.9	1.51e-03	0	40	0	41699770368	45	15910
2026-01-14 11:04:12.67	257.57	13.21	-39.9	-40.2	12.9	1.51e-03	0	39	0	41817210880	45	15913
2026-01-14 11:04:13.68	257.40	13.10	-40.1	-40.4	12.9	1.51e-03	0	39	0	41926262784	45	16239
2026-01-14 11:04:14.68	257.24	13.00	-40.1	-40.3	12.9	1.91e-03	0	40	0	42043703296	45	16190
2026-01-14 11:04:15.69	257.09	12.89	-40.1	-40.4	12.9	1.91e-03	0	40	0	42152755200	46	15311
2026-01-14 11:04:16.70	256.93	12.79	-40.2	-40.5	12.9	1.91e-03	0	40	0	42270195712	46	15580
2026-01-14 11:04:17.70	256.77	12.69	-40.3	-40.5	12.9	1.91e-03	0	40	0	42379247616	46	15652
2026-01-14 11:04:18.71	256.62	12.58	-40.3	-40.6	12.8	2.18e-03	0	39	0	42496688128	46	15742
2026-01-14 11:04:19.71	256.46	12.48	-40.2	-40.5	12.9	2.18e-03	0	39	0	42605740032	46	15574
2026-01-14 11:04:20.71	256.31	12.38	-40.3	-40.6	12.8	2.39e-03	0	40	0	42723180544	46	15788
2026-01-14 11:04:21.71	256.16	12.28	-40.4	-40.7	12.8	2.39e-03	0	40	0	42832232448	46	15973
2026-01-14 11:04:22.71	256.02	12.18	-40.5	-40.8	12.8	2.39e-03	0	39	0	42949672960	46	16027
2026-01-14 11:04:23.72	255.87	12.08	-40.4	-40.7	12.8	2.80e-03	0	40	0	43058724864	46	15857
2026-01-14 11:04:24.73	255.72	11.98	-40.5	-40.8	12.8	2.80e-03	0	40	0	43167776768	46	16065
2026-01-14 11:04:25.73	255.57	11.88	-40.3	-40.6	12.9	2.80e-03	0	40	0	43285217280	46	15753
2026-01-14 11:04:26.73	255.43	11.78	-40.6	-40.9	12.8	2.86e-03	0	40	0	43394269184	46	16208
2026-01-14 11:04:27.73	255.29	11.68	-40.6	-40.9	12.8	2.86e-03	0	40	0	43511709696	46	16260
2026-01-14 11:04:28.74	255.15	11.59	-40.7	-41.0	12.8	2.86e-03	0	40	0	43620761600	47	15555
2026-01-14 11:04:29.74	255.00	11.49	-40.7	-41.0	12.8	3.15e-03	0	40	0	43738202112	47	15576
2026-01-14 11:04:30.75	254.86	11.39	-40.5	-40.8	12.9	3.15e-03	0	40	0	43847254016	47	15139
2026-01-14 11:04:31.75	254.73	11.29	-40.5	-40.8	12.9	3.15e-03	0	40	0	43956305920	47	15228
2026-01-14 11:04:32.76	254.59	11.20	-40.7	-41.0	12.8	2.83e-03	0	40	0	44073746432	47	15486
2026-01-14 11:04:33.77	254.45	11.10	-40.8	-41.1	12.8	2.83e-03	0	40	0	44191186944	47	15742
2026-01-14 11:04:34.77	254.32	11.00	-59.0	-62.3	6.2	3.27e-03	0	39	104	44249907200	83	22759
2026-01-14 11:04:35.77	254.18	10.91	-59.0	-62.3	6.2	3.27e-03	0	39	104	44249907200	83	22634
2026-01-14 11:04:36.77	254.05	10.81	-59.0	-62.2	6.2	3.27e-03	0	39	104	44249907200	83	22574
2026-01-14 11:04:37.77	253.92	10.72	-59.0	-62.2	6.2	3.27e-03	0	39	104	44249907200	83	22549
2026-01-14 11:04:38.78	253.79	10.62	-59.0	-62.2	6.2	3.27e-03	0	39	104	44249907200	83	22609
2026-01-14 11:04:39.79	253.66	10.53	-59.0	-62.3	6.2	3.27e-03	0	39	104	44249907200	83	22647
2026-01-14 11:04:40.79	253.53	10.43	-59.0	-62.2	6.2	3.27e-03	0	39	104	44249907200	83	22508
2026-01-14 11:04:41.80	253.40	10.34	-59.0	-62.2	6.2	3.27e-03	0	39	104	44249907200	83	22527
2026-01-14 11:04:42.81	253.27	10.24	-59.0	-62.2	6.2	3.27e-03	0	39	104	44249907200	83	22565
2026-01-14 11:04:43.81	253.15	10.15	-59.0	-62.2	6.2	0.00e+00	0	39	104	44249907200	83	22525
2026-01-14 11:04:44.81	253.02	10.06	-58.9	-62.2	6.2	0.00e+00	0	38	104	44249907200	83	22385
2026-01-14 11:04:45.81	252.90	9.97	-58.9	-62.2	6.2	0.00e+00	0	39	104	44249907200	83	22409
2026-01-14 11:04:46.82	252.78	9.88	-58.9	-62.2	6.2	0.00e+00	0	38	104	44249907200	83	22404
2026-01-14 11:04:47.82	252.66	9.78	-58.9	-62.2	6.2	0.00e+00	0	39	104	44249907200	83	22425
2026-01-14 11:04:48.83	252.53	9.69	-58.9	-62.1	6.2	0.00e+00	0	39	104	44249907200	83	22239
2026-01-14 11:04:49.83	252.41	9.60	-58.9	-62.1	6.2	0.00e+00	0	38	104	44249907200	83	22213
2026-01-14 11:04:50.83	252.30	9.51	-58.9	-62.1	6.2	0.00e+00	0	38	104	44249907200	83	22306
2026-01-14 11:04:51.84	252.18	9.42	-58.9	-62.2	6.2	0.00e+00	0	39	104	44249907200	83	22432
2026-01-14 11:04:52.85	252.06	9.33	-58.8	-62.1	6.2	0.00e+00	0	38	104	44249907200	83	22153
2026-01-14 11:04:53.85	251.94	9.24	-58.8	-62.1	6.2	0.00e+00	0	38	104	44249907200	83	22149
2026-01-14 11:04:54.86	251.83	9.15	-58.9	-62.1	6.2	0.00e+00	0	38	104	44249907200	83	22169
2026-01-14 11:04:55.86	251.71	9.06	-58.9	-62.1	6.2	0.00e+00	0	38	104	44249907200	83	22264
2026-01-14 11:04:56.87	251.60	8.97	-58.8	-62.0	6.2	0.00e+00	0	38	104	44249907200	83	22047
2026-01-14 11:04:57.87	251.49	8.89	-58.8	-62.0	6.2	0.00e+00	0	38	104	44249907200	83	22070
2026-01-14 11:04:58.88	251.37	8.80	-58.8	-62.0	6.2	0.00e+00	0	38	104	44249907200	83	22055
2026-01-14 11:04:59.88	251.26	8.71	-58.8	-62.0	6.2	0.00e+00	0	38	104	44249907200	83	22070
2026-01-14 11:05:00.88	251.15	8.62	-58.7	-62.0	6.2	0.00e+00	0	38	104	44249907200	83	21922
2026-01-14 11:05:01.89	251.04	8.53	-58.7	-62.0	6.2	0.00e+00	0	38	104	44249907200	83	21964
2026-01-14 11:05:02.89	250.94	8.45	-58.8	-62.0	6.1	0.00e+00	0	38	104	44249907200	83	21960
2026-01-14 11:05:03.89	250.83	8.36	-58.8	-62.0	6.2	0.00e+00	0	38	104	44249907200	83	22030
2026-01-14 11:05:04.90	250.72	8.28	-58.7	-61.9	6.2	0.00e+00	0	38	104	44249907200	83	21830
2026-01-14 11:05:05.90	250.62	8.19	-58.7	-61.9	6.2	0.00e+00	0	38	104	44249907200	83	21799
2026-01-14 11:05:06.90	250.51	8.11	-58.8	-62.0	6.2	0.00e+00	0	38	104	44249907200	83	21991
2026-01-14 11:05:07.91	250.41	8.02	-58.7	-62.0	6.2	0.00e+00	0	38	104	44249907200	83	21963
2026-01-14 11:05:08.92	250.30	7.93	-58.6	-61.9	6.2	0.00e+00	0	38	104	44249907200	83	21662
2026-01-14 11:05:09.91	250.20	7.85	-58.7	-61.9	6.2	0.00e+00	0	38	104	44249907200	83	21735
2026-01-14 11:05:10.91	250.10	7.77	-58.7	-61.9	6.2	0.00e+00	0	38	104	44249907200	83	21737
2026-01-14 11:05:11.92	250.00	7.68	-58.7	-62.0	6.2	0.00e+00	0	38	104	44249907200	83	21917
2026-01-14 11:05:12.92	249.90	7.60	-58.6	-61.9	6.2	0.00e+00	0	38	104	44249907200	83	21616
2026-01-14 11:05:13.93	249.79	7.51	-58.6	-61.8	6.2	0.00e+00	0	38	104	44249907200	83	21537
2026-01-14 11:05:14.93	249.70	7.43	-58.7	-61.9	6.2	0.00e+00	0	38	104	44249907200	83	21719
2026-01-14 11:05:15.93	249.60	7.35	-58.7	-61.9	6.2	0.00e+00	0	38	104	44249907200	83	21819
2026-01-14 11:05:16.94	249.50	7.27	-58.6	-61.8	6.2	0.00e+00	0	38	104	44249907200	83	21465
2026-01-14 11:05:17.94	249.40	7.18	-58.6	-61.8	6.2	0.00e+00	0	38	104	44249907200	83	21464
2026-01-14 11:05:18.95	249.31	7.10	-58.6	-61.9	6.2	0.00e+00	0	38	104	44249907200	83	21615
2026-01-14 11:05:19.96	249.21	7.02	-58.6	-61.8	6.2	0.00e+00	0	38	104	44249907200	83	21600
2026-01-14 11:05:20.96	249.11	6.94	-58.5	-61.7	6.2	0.00e+00	0	38	104	44249907200	83	21255
2026-01-14 11:05:21.96	249.02	6.86	-58.5	-61.7	6.2	0.00e+00	0	38	104	44249907200	83	21161
2026-01-14 11:05:22.96	248.93	6.78	-58.5	-61.8	6.2	0.00e+00	0	38	104	44249907200	83	21378
2026-01-14 11:05:23.97	248.83	6.70	-58.5	-61.8	6.2	0.00e+00	0	38	104	44249907200	83	21374
2026-01-14 11:05:24.98	248.74	6.62	-58.4	-61.7	6.2	0.00e+00	0	38	104	44249907200	83	21115
2026-01-14 11:05:25.98	248.65	6.54	-58.4	-61.6	6.2	0.00e+00	0	38	104	44249907200	83	21059
2026-01-14 11:05:26.97	248.56	6.46	-58.5	-61.7	6.2	0.00e+00	0	38	104	44249907200	83	21354
2026-01-14 11:05:27.98	248.47	6.38	-58.5	-61.7	6.2	0.00e+00	0	38	104	44249907200	83	21293
2026-01-14 11:05:28.99	248.38	6.30	-58.3	-61.5	6.2	0.00e+00	0	38	104	44249907200	83	20857
2026-01-14 11:05:29.99	248.29	6.22	-58.4	-61.6	6.2	0.00e+00	0	38	104	44249907200	83	20959
2026-01-14 11:05:31.00	248.20	6.14	-58.4	-61.7	6.2	0.00e+00	0	38	104	44249907200	83	21164
2026-01-14 11:05:32.00	248.11	6.06	-58.5	-61.7	6.2	0.00e+00	0	38	104	44249907200	83	21164
2026-01-14 11:05:33.00	248.03	5.98	-58.3	-61.5	6.2	0.00e+00	0	37	104	44249907200	83	20854
2026-01-14 11:05:34.01	247.94	5.90	-58.3	-61.5	6.2	0.00e+00	0	37	104	44249907200	83	20866
2026-01-14 11:05:35.02	247.85	5.83	-58.4	-61.6	6.2	0.00e+00	0	37	104	44249907200	83	21040
2026-01-14 11:05:36.02	247.77	5.75	-58.4	-61.7	6.2	0.00e+00	0	37	104	44249907200	83	21135
2026-01-14 11:05:37.02	247.68	5.67	-58.2	-61.5	6.2	0.00e+00	0	37	104	44249907200	83	20737
2026-01-14 11:05:38.03	247.60	5.60	-58.3	-61.5	6.2	0.00e+00	0	37	104	44249907200	83	20793
2026-01-14 11:05:39.03	247.51	5.52	-58.3	-61.6	6.1	0.00e+00	0	37	104	44249907200	83	20926
2026-01-14 11:05:40.04	247.43	5.44	-58.4	-61.6	6.2	0.00e+00	0	37	104	44249907200	83	21009
2026-01-14 11:05:41.04	247.35	5.37	-58.2	-61.4	6.2	0.00e+00	0	37	104	44249907200	83	20524
2026-01-14 11:05:42.04	247.27	5.29	-58.2	-61.4	6.2	0.00e+00	0	37	104	44249907200	83	20558
2026-01-14 11:05:43.04	247.18	5.21	-58.3	-61.5	6.2	0.00e+00	0	37	104	44249907200	83	20802
2026-01-14 11:05:44.05	247.10	5.14	-58.3	-61.5	6.2	0.00e+00	0	38	104	44249907200	83	20834
2026-01-14 11:05:45.06	247.02	5.06	-58.1	-61.4	6.2	0.00e+00	0	37	104	44249907200	83	20401
2026-01-14 11:05:46.06	246.94	4.99	-58.4	-61.7	6.2	0.00e+00	0	37	104	44249907200	83	21186
2026-01-14 11:05:47.07	246.86	4.91	-58.9	-62.1	6.2	0.00e+00	0	37	104	44249907200	83	22362
2026-01-14 11:05:48.08	246.78	4.84	-59.4	-62.6	6.2	0.00e+00	0	37	104	44249907200	84	22237
2026-01-14 11:05:49.09	246.70	4.76	-59.6	-62.8	6.2	0.00e+00	0	37	104	44249907200	84	22809
2026-01-14 11:05:50.10	246.63	4.69	-59.7	-63.0	6.2	0.00e+00	0	37	104	44249907200	85	21899
2026-01-14 11:05:51.10	246.55	4.62	-59.8	-63.1	6.2	0.00e+00	0	37	104	44249907200	85	22227
2026-01-14 11:05:52.11	246.47	4.54	-60.0	-63.2	6.2	0.00e+00	0	37	104	44249907200	85	22437
2026-01-14 11:05:53.11	246.40	4.47	-60.0	-63.3	6.1	0.00e+00	0	37	104	44249907200	85	22740
2026-01-14 11:05:54.11	246.32	4.40	-60.2	-63.4	6.2	0.00e+00	0	37	104	44249907200	86	21799
2026-01-14 11:05:55.12	246.24	4.32	-60.2	-63.5	6.2	0.00e+00	0	37	104	44249907200	86	22031
2026-01-14 11:05:56.13	246.17	4.25	-60.3	-63.6	6.2	0.00e+00	0	37	104	44249907200	86	22157
2026-01-14 11:05:57.14	246.09	4.18	-60.3	-63.6	6.2	0.00e+00	0	37	104	44249907200	86	22132
2026-01-14 11:05:58.15	246.02	4.10	-60.4	-63.6	6.2	0.00e+00	0	37	104	44249907200	86	22289
2026-01-14 11:05:59.16	245.95	4.03	-60.4	-63.7	6.2	0.00e+00	0	37	104	44249907200	86	22414
2026-01-14 11:06:00.17	245.87	3.96	-60.4	-63.7	6.2	0.00e+00	0	37	104	44249907200	86	22400
2026-01-14 11:06:01.17	245.80	3.89	-60.4	-63.7	6.2	0.00e+00	0	37	104	44249907200	86	22398
2026-01-14 11:06:02.18	245.73	3.82	-60.5	-63.7	6.2	0.00e+00	0	37	104	44249907200	86	22411
2026-01-14 11:06:03.19	245.66	3.74	-60.4	-63.7	6.2	0.00e+00	0	37	104	44249907200	86	22375
2026-01-14 11:06:04.19	245.59	3.67	-60.5	-63.7	6.2	0.00e+00	0	37	104	44249907200	86	22492
2026-01-14 11:06:05.20	245.52	3.60	-60.5	-63.7	6.2	0.00e+00	0	37	104	44249907200	86	22511
2026-01-14 11:06:06.20	245.45	3.53	-60.5	-63.8	6.2	0.00e+00	0	37	104	44249907200	86	22632
2026-01-14 11:06:07.21	245.38	3.46	-60.5	-63.8	6.2	0.00e+00	0	37	104	44249907200	86	22680
2026-01-14 11:06:08.22	245.31	3.39	-60.5	-63.7	6.2	0.00e+00	0	37	104	44249907200	86	22542
2026-01-14 11:06:09.23	245.24	3.32	-60.4	-63.7	6.2	0.00e+00	0	37	104	44249907200	86	22439
2026-01-14 11:06:10.23	245.17	3.25	-60.4	-63.7	6.1	0.00e+00	0	37	104	44249907200	86	22451
2026-01-14 11:06:11.24	245.10	3.18	-60.4	-63.7	6.2	0.00e+00	0	37	104	44249907200	86	22411
2026-01-14 11:06:12.25	245.03	3.11	-60.4	-63.7	6.2	0.00e+00	0	37	104	44249907200	86	22367
2026-01-14 11:06:13.26	244.96	3.04	-60.4	-63.6	6.2	0.00e+00	0	37	104	44249907200	86	22266
2026-01-14 11:06:14.27	244.90	2.97	-60.4	-63.6	6.1	0.00e+00	0	37	104	44249907200	86	22279
2026-01-14 11:06:15.27	244.83	2.90	-60.4	-63.6	6.2	0.00e+00	0	37	104	44249907200	86	22187
2026-01-14 11:06:16.28	244.77	2.83	-60.3	-63.6	6.2	0.00e+00	0	37	104	44249907200	86	22147
2026-01-14 11:06:17.28	244.70	2.77	-60.3	-63.6	6.2	0.00e+00	0	37	104	44249907200	86	22144
2026-01-14 11:06:18.29	244.64	2.70	-60.3	-63.5	6.2	0.00e+00	0	37	104	44249907200	86	22096
2026-01-14 11:06:19.30	244.57	2.63	-60.3	-63.5	6.2	0.00e+00	0	37	104	44249907200	86	22028
2026-01-14 11:06:20.31	244.51	2.56	-60.3	-63.5	6.2	0.00e+00	0	37	104	44249907200	86	22039
2026-01-14 11:06:21.31	244.44	2.49	-60.3	-63.5	6.2	0.00e+00	0	37	104	44249907200	86	22015
2026-01-14 11:06:22.33	244.38	2.42	-60.3	-63.5	6.2	0.00e+00	0	37	104	44249907200	86	22010
2026-01-14 11:06:23.33	244.31	2.36	-60.3	-63.5	6.1	0.00e+00	0	37	104	44249907200	86	22014
2026-01-14 11:06:24.34	244.25	2.29	-60.3	-63.5	6.2	0.00e+00	0	37	104	44249907200	86	21998
2026-01-14 11:06:25.35	244.19	2.22	-60.3	-63.5	6.2	0.00e+00	0	37	104	44249907200	86	21945
2026-01-14 11:06:26.35	244.13	2.16	-60.3	-63.5	6.2	0.00e+00	0	37	104	44249907200	86	22001
2026-01-14 11:06:27.35	244.07	2.09	-60.3	-63.5	6.2	0.00e+00	0	37	104	44249907200	86	21938
2026-01-14 11:06:28.35	244.01	2.02	-60.3	-63.5	6.1	0.00e+00	0	37	104	44249907200	86	21968
2026-01-14 11:06:29.35	243.94	1.96	-60.3	-63.5	6.2	0.00e+00	0	37	104	44249907200	86	21974
2026-01-14 11:06:30.35	243.88	1.89	-60.2	-63.5	6.2	0.00e+00	0	37	104	44249907200	86	21912
2026-01-14 11:06:31.35	243.82	1.83	-60.2	-63.5	6.2	0.00e+00	0	37	104	44249907200	86	21970

#Closed at: 2026-01-14 11:06:31
#Recorded file [44249 MB]: D:/lorett/data/31004_260114_135629.dat