passes_logs/2026/01/14/R3.2S_Murmansk/R3.2S_Murmansk__20260114_100804_NOAA_20_JPSS-1_rec.log

#Pass ID: 20260114_100804_NOAA 20 (JPSS-1)
#Satellite: NOAA 20 (JPSS-1)
#Configuration: NOAA 20
#almurnet v.1.7.20251203
#Start time: 2026-01-14 10:08:04

#Version: 2.2.20231116
#Station: R3.2S_Murmansk
#Location: 33.079688 lon 68.888172 lat
#TLE: 1 43013U 17073A   26013.84982170  .00000053  00000+0  46215-4 0  9999
#TLE: 2 43013  98.7633 314.8013 0001544  40.9009 319.2282 14.19535753422575

#Time	Az	El	Level	Level2	SNR	BER	BlckErr	Temp	State	Recorded	gain1	gain2
2026-01-14 10:08:04.01	166.47	1.97	-58.3	-74.2	3.8	1.49e+00	0	25	0	0	83	21681
2026-01-14 10:08:05.01	166.49	2.03	-58.2	-73.9	3.8	1.49e+00	0	26	104	0	81	23387
2026-01-14 10:08:06.00	166.51	2.10	-58.2	-73.7	3.8	1.49e+00	0	25	104	0	81	22786
2026-01-14 10:08:06.99	166.53	2.16	-58.2	-74.0	3.8	1.49e+00	0	25	104	0	81	23668
2026-01-14 10:08:07.99	166.55	2.22	-58.2	-73.8	3.8	1.49e+00	0	26	104	0	81	23138
2026-01-14 10:08:08.99	166.57	2.29	-58.2	-73.9	3.8	1.49e+00	0	26	104	0	81	23325
2026-01-14 10:08:09.98	166.59	2.35	-58.2	-73.9	3.8	1.49e+00	0	26	104	0	81	23379
2026-01-14 10:08:10.97	166.61	2.41	-58.2	-73.9	3.8	1.49e+00	0	26	104	0	81	23552
2026-01-14 10:08:11.96	166.63	2.48	-58.2	-73.9	3.8	1.49e+00	0	26	104	0	81	23576
2026-01-14 10:08:12.96	166.65	2.54	-58.2	-74.0	3.8	1.49e+00	0	26	104	0	81	23767
2026-01-14 10:08:13.96	166.67	2.61	-58.2	-74.0	3.8	1.49e+00	0	26	104	0	81	23754
2026-01-14 10:08:14.95	166.69	2.67	-58.2	-73.9	3.8	1.49e+00	0	26	104	0	81	23519
2026-01-14 10:08:15.95	166.71	2.74	-58.2	-74.0	3.8	1.49e+00	0	25	104	0	81	23650
2026-01-14 10:08:16.93	166.73	2.80	-58.2	-73.9	3.8	1.49e+00	0	26	104	0	81	23512
2026-01-14 10:08:17.93	166.76	2.87	-58.2	-73.9	3.8	1.49e+00	0	26	104	0	81	23530
2026-01-14 10:08:18.92	166.78	2.93	-58.2	-74.0	3.8	1.49e+00	0	26	104	0	81	23691
2026-01-14 10:08:19.91	166.80	3.00	-58.2	-74.1	3.8	1.49e+00	0	26	104	0	81	23892
2026-01-14 10:08:20.90	166.82	3.06	-58.2	-74.1	3.8	1.49e+00	0	26	104	0	81	23961
2026-01-14 10:08:21.90	166.84	3.13	-58.2	-74.1	3.8	1.49e+00	0	26	104	0	81	24093
2026-01-14 10:08:22.90	166.86	3.19	-58.2	-74.1	3.8	1.49e+00	0	26	104	0	81	23962
2026-01-14 10:08:23.89	166.88	3.26	-58.2	-73.8	3.8	1.49e+00	0	26	104	0	81	23115
2026-01-14 10:08:24.88	166.90	3.33	-58.2	-73.6	3.8	1.49e+00	0	26	104	0	81	22713
2026-01-14 10:08:25.88	166.92	3.39	-58.1	-72.3	3.8	1.49e+00	0	26	104	0	81	19598
2026-01-14 10:08:26.88	166.94	3.46	-58.1	-71.8	3.9	1.49e+00	0	26	104	0	81	18391
2026-01-14 10:08:27.87	166.96	3.53	-58.0	-70.3	4.3	1.39e+00	37	26	0	0	81	15487
2026-01-14 10:08:28.86	166.99	3.59	-58.0	-69.7	4.5	9.84e-01	2	26	0	1048576	81	14423
2026-01-14 10:08:29.86	167.01	3.66	-57.9	-68.9	4.8	1.31e+00	0	26	0	2097152	81	13151
2026-01-14 10:08:30.85	167.03	3.73	-57.9	-69.1	4.8	5.26e-01	0	26	0	4194304	81	13516
2026-01-14 10:08:31.85	167.05	3.79	-57.8	-68.1	5.1	1.24e+00	0	26	0	5242880	81	12084
2026-01-14 10:08:32.84	167.07	3.86	-57.7	-66.9	6.0	1.73e-01	0	26	0	7340032	81	10418
2026-01-14 10:08:33.83	167.09	3.93	-57.6	-66.5	6.2	4.25e-01	0	26	0	9437184	81	9959
2026-01-14 10:08:34.83	167.12	4.00	-57.5	-65.8	6.7	1.11e-01	0	26	0	11534336	81	9266
2026-01-14 10:08:35.83	167.14	4.07	-57.5	-65.7	6.8	2.33e-01	0	26	0	12582912	81	9105
2026-01-14 10:08:36.83	167.16	4.13	-57.5	-65.7	6.8	9.30e-02	0	26	0	14680064	81	9087
2026-01-14 10:08:37.82	167.18	4.20	-57.2	-64.3	8.0	4.77e-02	0	26	0	16777216	81	7736
2026-01-14 10:08:38.81	167.20	4.27	-56.9	-63.1	9.0	3.23e-02	0	26	0	18874368	80	7132
2026-01-14 10:08:39.80	167.23	4.34	-57.1	-63.8	8.4	7.49e-03	0	26	0	20971520	80	7771
2026-01-14 10:08:40.79	167.25	4.41	-56.8	-62.7	9.4	1.44e-02	0	27	0	22020096	80	6832
2026-01-14 10:08:41.78	167.27	4.48	-56.7	-62.3	9.7	2.08e-03	0	26	0	24117248	79	6900
2026-01-14 10:08:42.78	167.29	4.55	-56.4	-61.4	10.4	3.06e-03	0	26	0	26214400	79	6231
2026-01-14 10:08:43.77	167.32	4.61	-56.3	-61.2	10.5	4.35e-04	0	26	0	28311552	79	6129
2026-01-14 10:08:44.76	167.34	4.68	-56.4	-61.3	10.5	4.55e-04	0	26	0	29360128	79	6193
2026-01-14 10:08:45.76	167.36	4.75	-56.1	-60.7	11.0	4.65e-05	0	26	0	31457280	78	6094
2026-01-14 10:08:46.75	167.39	4.82	-56.5	-61.7	10.0	1.80e-03	0	26	0	33554432	78	6860
2026-01-14 10:08:47.75	167.41	4.89	-56.3	-61.3	10.4	1.98e-04	0	27	0	35651584	78	6555
2026-01-14 10:08:48.74	167.43	4.96	-56.5	-61.8	10.0	9.75e-04	0	26	0	37748736	78	6953
2026-01-14 10:08:49.73	167.45	5.03	-56.7	-62.4	9.5	2.39e-03	0	26	0	38797312	78	7404
2026-01-14 10:08:50.72	167.48	5.10	-56.6	-62.0	9.8	3.77e-03	0	26	0	40894464	78	7090
2026-01-14 10:08:51.72	167.50	5.18	-58.1	-71.8	4.0	1.01e-02	0	26	0	42991616	81	18473
2026-01-14 10:08:52.72	167.53	5.25	-54.8	-57.9	12.5	9.68e-01	0	26	104	42991616	76	4964
2026-01-14 10:08:53.70	167.55	5.32	-54.8	-58.1	12.7	0.00e+00	0	26	0	44040192	75	5361
2026-01-14 10:08:54.69	167.57	5.39	-55.3	-59.1	12.0	3.00e-06	0	26	0	46137344	75	6038
2026-01-14 10:08:55.68	167.60	5.46	-55.2	-58.7	12.3	1.33e-02	0	26	0	48234496	77	5120
2026-01-14 10:08:56.67	167.62	5.53	-54.3	-57.2	13.1	0.00e+00	0	26	0	49283072	75	4860
2026-01-14 10:08:57.67	167.64	5.60	-54.3	-57.2	13.0	0.00e+00	0	26	0	51380224	74	5152
2026-01-14 10:08:58.66	167.67	5.67	-54.1	-56.8	13.3	0.00e+00	0	26	0	53477376	74	4899
2026-01-14 10:08:59.66	167.69	5.75	-54.2	-57.0	13.2	0.00e+00	0	27	0	55574528	74	5038
2026-01-14 10:09:00.65	167.72	5.82	-53.9	-56.6	13.4	0.00e+00	0	26	0	57671680	74	4801
2026-01-14 10:09:01.66	167.74	5.89	-54.3	-57.1	13.1	0.00e+00	0	26	0	58720256	74	5099
2026-01-14 10:09:02.65	167.77	5.97	-54.1	-56.9	13.3	0.00e+00	0	27	0	60817408	74	4975
2026-01-14 10:09:03.64	167.79	6.04	-54.1	-56.8	13.3	0.00e+00	0	26	0	62914560	74	4926
2026-01-14 10:09:04.63	167.81	6.11	-54.1	-56.8	13.4	0.00e+00	0	27	0	65011712	74	4890
2026-01-14 10:09:05.62	167.84	6.19	-53.9	-56.6	13.5	0.00e+00	0	26	0	66060288	74	4780
2026-01-14 10:09:06.62	167.86	6.26	-54.2	-57.1	13.2	0.00e+00	0	26	0	68157440	74	5044
2026-01-14 10:09:07.62	167.89	6.33	-54.1	-56.9	13.3	0.00e+00	0	26	0	70254592	74	4962
2026-01-14 10:09:08.61	167.91	6.41	-54.0	-56.7	13.4	0.00e+00	0	27	0	72351744	74	4840
2026-01-14 10:09:09.61	167.94	6.48	-53.9	-56.6	13.5	0.00e+00	0	27	0	74448896	74	4770
2026-01-14 10:09:10.61	167.97	6.56	-54.0	-56.6	13.5	0.00e+00	0	27	0	75497472	74	4798
2026-01-14 10:09:11.61	167.99	6.63	-54.0	-56.7	13.4	0.00e+00	0	27	0	77594624	74	4849
2026-01-14 10:09:12.60	168.02	6.71	-53.9	-56.5	13.6	0.00e+00	0	27	0	79691776	74	4728
2026-01-14 10:09:13.59	168.04	6.78	-54.0	-56.7	13.5	0.00e+00	0	27	0	81788928	74	4828
2026-01-14 10:09:14.58	168.07	6.86	-54.0	-56.6	13.5	0.00e+00	0	27	0	82837504	74	4788
2026-01-14 10:09:15.58	168.09	6.93	-54.0	-56.6	13.5	0.00e+00	0	27	0	84934656	74	4785
2026-01-14 10:09:16.58	168.12	7.01	-53.9	-56.4	13.6	0.00e+00	0	27	0	87031808	74	4682
2026-01-14 10:09:17.57	168.15	7.09	-53.9	-56.5	13.6	0.00e+00	0	27	0	89128960	74	4716
2026-01-14 10:09:18.56	168.17	7.16	-53.7	-56.2	13.8	0.00e+00	0	27	0	91226112	74	4556
2026-01-14 10:09:19.54	168.20	7.24	-53.8	-56.3	13.7	0.00e+00	0	27	0	92274688	74	4633
2026-01-14 10:09:20.54	168.23	7.31	-53.7	-56.1	13.8	0.00e+00	0	27	0	94371840	74	4533
2026-01-14 10:09:21.53	168.25	7.39	-53.8	-56.3	13.7	0.00e+00	0	27	0	96468992	74	4615
2026-01-14 10:09:22.52	168.28	7.47	-53.7	-56.1	13.7	0.00e+00	0	27	0	98566144	73	4798
2026-01-14 10:09:23.51	168.31	7.54	-53.5	-55.9	13.8	0.00e+00	0	27	0	99614720	73	4665
2026-01-14 10:09:24.50	168.33	7.62	-53.5	-55.9	13.8	0.00e+00	0	27	0	101711872	73	4688
2026-01-14 10:09:25.50	168.36	7.70	-53.7	-56.1	13.7	0.00e+00	0	27	0	103809024	73	4787
2026-01-14 10:09:26.49	168.39	7.78	-53.5	-55.9	13.9	0.00e+00	0	27	0	105906176	73	4653
2026-01-14 10:09:27.49	168.42	7.86	-53.6	-56.0	13.8	0.00e+00	0	27	0	108003328	73	4712
2026-01-14 10:09:28.48	168.44	7.94	-53.5	-55.8	13.9	0.00e+00	0	27	0	109051904	73	4646
2026-01-14 10:09:29.48	168.47	8.01	-53.5	-55.9	13.8	0.00e+00	0	26	0	111149056	73	4665
2026-01-14 10:09:30.47	168.50	8.09	-53.5	-55.9	13.9	0.00e+00	0	27	0	113246208	73	4659
2026-01-14 10:09:31.46	168.53	8.17	-53.4	-55.7	14.0	0.00e+00	0	27	0	115343360	73	4586
2026-01-14 10:09:32.46	168.55	8.25	-53.6	-55.9	13.8	0.00e+00	0	27	0	116391936	73	4689
2026-01-14 10:09:33.45	168.58	8.33	-53.3	-55.6	14.0	0.00e+00	0	27	0	118489088	73	4504
2026-01-14 10:09:34.45	168.61	8.41	-53.2	-55.5	14.1	0.00e+00	0	27	0	120586240	73	4446
2026-01-14 10:09:35.45	168.64	8.49	-53.2	-55.5	14.1	0.00e+00	0	27	0	122683392	73	4447
2026-01-14 10:09:36.44	168.67	8.57	-53.3	-55.5	14.1	0.00e+00	0	27	0	124780544	73	4471
2026-01-14 10:09:37.43	168.70	8.65	-53.4	-55.6	14.0	0.00e+00	0	27	0	125829120	73	4544
2026-01-14 10:09:38.42	168.73	8.74	-53.4	-55.7	14.0	0.00e+00	0	27	0	127926272	73	4548
2026-01-14 10:09:39.42	168.76	8.82	-53.4	-55.7	14.0	0.00e+00	0	27	0	130023424	73	4552
2026-01-14 10:09:40.41	168.78	8.90	-53.4	-55.7	14.0	0.00e+00	0	27	0	132120576	73	4580
2026-01-14 10:09:41.40	168.81	8.98	-53.1	-55.2	14.1	0.00e+00	0	27	0	133169152	72	4593
2026-01-14 10:09:42.39	168.84	9.06	-53.1	-55.2	14.1	0.00e+00	0	27	0	135266304	72	4568
2026-01-14 10:09:43.39	168.87	9.14	-53.1	-55.2	14.1	0.00e+00	0	27	0	137363456	72	4594
2026-01-14 10:09:44.38	168.90	9.23	-53.1	-55.2	14.1	0.00e+00	0	27	0	139460608	72	4579
2026-01-14 10:09:45.36	168.93	9.31	-53.1	-55.2	14.1	0.00e+00	0	27	0	141557760	72	4576
2026-01-14 10:09:46.37	168.96	9.39	-53.1	-55.2	14.1	0.00e+00	0	27	0	142606336	72	4587
2026-01-14 10:09:47.36	168.99	9.48	-53.0	-55.1	14.1	0.00e+00	0	26	0	144703488	72	4545
2026-01-14 10:09:48.36	169.02	9.56	-52.9	-55.0	14.2	0.00e+00	0	27	0	146800640	72	4453
2026-01-14 10:09:49.35	169.05	9.64	-52.8	-54.8	14.3	0.00e+00	0	27	0	148897792	72	4380
2026-01-14 10:09:50.35	169.08	9.73	-52.8	-54.9	14.3	0.00e+00	0	27	0	149946368	72	4411
2026-01-14 10:09:51.35	169.12	9.81	-52.8	-54.8	14.3	0.00e+00	0	27	0	152043520	72	4388
2026-01-14 10:09:52.35	169.15	9.90	-52.8	-54.8	14.3	0.00e+00	0	27	0	154140672	72	4379
2026-01-14 10:09:53.35	169.18	9.99	-52.8	-54.8	14.3	0.00e+00	0	27	0	156237824	72	4378
2026-01-14 10:09:54.33	169.21	10.07	-52.9	-55.0	14.3	0.00e+00	0	27	0	158334976	72	4461
2026-01-14 10:09:55.32	169.24	10.16	-52.9	-54.9	14.3	0.00e+00	0	27	0	159383552	72	4431
2026-01-14 10:09:56.32	169.27	10.24	-52.8	-54.8	14.4	0.00e+00	0	27	0	161480704	72	4348
2026-01-14 10:09:57.33	169.31	10.33	-52.7	-54.7	14.4	0.00e+00	0	27	0	163577856	72	4292
2026-01-14 10:09:58.32	169.34	10.42	-52.6	-54.6	14.3	0.00e+00	0	27	0	165675008	71	4498
2026-01-14 10:09:59.31	169.37	10.50	-52.6	-54.6	14.3	0.00e+00	0	27	0	166723584	71	4533
2026-01-14 10:10:00.30	169.40	10.59	-52.8	-54.8	14.2	0.00e+00	0	27	0	168820736	71	4616
2026-01-14 10:10:01.29	169.43	10.68	-52.7	-54.7	14.3	0.00e+00	0	27	0	170917888	71	4559
2026-01-14 10:10:02.29	169.47	10.76	-52.6	-54.5	14.4	0.00e+00	0	27	0	173015040	71	4472
2026-01-14 10:10:03.27	169.50	10.85	-52.5	-54.5	14.4	0.00e+00	0	27	0	175112192	71	4447
2026-01-14 10:10:04.27	169.53	10.94	-52.5	-54.4	14.4	0.00e+00	0	27	0	176160768	71	4403
2026-01-14 10:10:05.27	169.57	11.03	-52.5	-54.4	14.4	0.00e+00	0	27	0	178257920	71	4433
2026-01-14 10:10:06.26	169.60	11.12	-52.4	-54.3	14.4	0.00e+00	0	27	0	180355072	71	4385
2026-01-14 10:10:07.26	169.63	11.21	-52.5	-54.4	14.4	0.00e+00	0	27	0	182452224	71	4414
2026-01-14 10:10:08.26	169.67	11.30	-52.5	-54.5	14.4	0.00e+00	0	27	0	183500800	71	4456
2026-01-14 10:10:09.26	169.70	11.39	-52.6	-54.6	14.4	0.00e+00	0	27	0	185597952	71	4499
2026-01-14 10:10:10.26	169.74	11.48	-52.5	-54.4	14.4	0.00e+00	0	27	0	187695104	71	4408
2026-01-14 10:10:11.26	169.77	11.57	-52.5	-54.4	14.4	0.00e+00	0	27	0	189792256	71	4431
2026-01-14 10:10:12.25	169.80	11.66	-52.6	-54.5	14.4	0.00e+00	0	27	0	191889408	71	4487
2026-01-14 10:10:13.24	169.84	11.75	-52.5	-54.5	14.4	0.00e+00	0	27	0	192937984	71	4460
2026-01-14 10:10:14.23	169.87	11.84	-52.4	-54.3	14.5	0.00e+00	0	27	0	195035136	71	4350
2026-01-14 10:10:15.23	169.91	11.94	-52.4	-54.3	14.5	0.00e+00	0	27	0	197132288	71	4369
2026-01-14 10:10:16.23	169.94	12.03	-52.5	-54.4	14.5	0.00e+00	0	27	0	199229440	71	4398
2026-01-14 10:10:17.23	169.98	12.12	-52.4	-54.3	14.5	0.00e+00	0	27	0	200278016	71	4364
2026-01-14 10:10:18.23	170.02	12.22	-52.4	-54.4	14.5	0.00e+00	0	27	0	202375168	71	4392
2026-01-14 10:10:19.22	170.05	12.31	-52.3	-54.1	14.6	0.00e+00	0	27	0	204472320	71	4286
2026-01-14 10:10:20.21	170.09	12.40	-52.3	-54.2	14.5	0.00e+00	0	27	0	206569472	71	4318
2026-01-14 10:10:21.21	170.12	12.50	-52.3	-54.2	14.5	0.00e+00	0	27	0	208666624	71	4322
2026-01-14 10:10:22.20	170.16	12.59	-52.4	-54.2	14.5	0.00e+00	0	27	0	209715200	71	4330
2026-01-14 10:10:23.20	170.20	12.69	-52.4	-54.2	14.5	0.00e+00	0	27	0	211812352	71	4340
2026-01-14 10:10:24.19	170.23	12.78	-52.3	-54.1	14.6	0.00e+00	0	27	0	213909504	71	4269
2026-01-14 10:10:25.18	170.27	12.88	-52.3	-54.1	14.6	0.00e+00	0	27	0	216006656	71	4286
2026-01-14 10:10:26.17	170.31	12.97	-52.2	-54.0	14.6	0.00e+00	0	27	0	218103808	71	4224
2026-01-14 10:10:27.15	170.35	13.07	-52.2	-54.1	14.6	0.00e+00	0	27	0	219152384	71	4246
2026-01-14 10:10:28.14	170.38	13.17	-52.2	-54.0	14.6	0.00e+00	0	27	0	221249536	71	4222
2026-01-14 10:10:29.13	170.42	13.26	-52.2	-54.0	14.6	0.00e+00	0	27	0	223346688	71	4235
2026-01-14 10:10:30.13	170.46	13.36	-52.2	-54.0	14.6	0.00e+00	0	27	0	225443840	71	4238
2026-01-14 10:10:31.12	170.50	13.46	-52.3	-54.1	14.6	0.00e+00	0	27	0	226492416	71	4261
2026-01-14 10:10:32.11	170.54	13.55	-52.4	-54.2	14.5	0.00e+00	0	27	0	228589568	71	4315
2026-01-14 10:10:33.11	170.58	13.65	-52.3	-54.1	14.6	0.00e+00	0	27	0	230686720	71	4246
2026-01-14 10:10:34.10	170.62	13.75	-52.3	-54.2	14.5	0.00e+00	0	27	0	232783872	71	4293
2026-01-14 10:10:35.10	170.66	13.85	-52.4	-54.2	14.5	0.00e+00	0	27	0	233832448	71	4326
2026-01-14 10:10:36.09	170.69	13.95	-52.4	-54.2	14.5	0.00e+00	0	27	0	235929600	71	4327
2026-01-14 10:10:37.08	170.73	14.05	-52.4	-54.2	14.6	0.00e+00	0	27	0	238026752	71	4313
2026-01-14 10:10:38.08	170.77	14.15	-52.4	-54.2	14.5	0.00e+00	0	27	0	240123904	71	4314
2026-01-14 10:10:39.07	170.82	14.25	-52.4	-54.2	14.5	0.00e+00	0	27	0	242221056	71	4332
2026-01-14 10:10:40.06	170.86	14.35	-52.4	-54.3	14.5	0.00e+00	0	27	0	243269632	71	4360
2026-01-14 10:10:41.05	170.90	14.46	-52.4	-54.3	14.5	0.00e+00	0	27	0	245366784	71	4367
2026-01-14 10:10:42.04	170.94	14.56	-52.5	-54.3	14.5	0.00e+00	0	27	0	247463936	71	4390
2026-01-14 10:10:43.04	170.98	14.66	-52.5	-54.3	14.5	0.00e+00	0	27	0	249561088	71	4387
2026-01-14 10:10:44.04	171.02	14.76	-52.6	-54.5	14.4	0.00e+00	0	27	0	250609664	71	4476
2026-01-14 10:10:45.03	171.06	14.87	-52.6	-54.5	14.4	0.00e+00	0	27	0	252706816	71	4464
2026-01-14 10:10:46.02	171.10	14.97	-52.6	-54.5	14.4	0.00e+00	0	27	0	254803968	71	4474
2026-01-14 10:10:47.01	171.15	15.08	-52.6	-54.5	14.4	0.00e+00	0	27	0	256901120	71	4476
2026-01-14 10:10:48.00	171.19	15.18	-52.7	-54.6	14.3	0.00e+00	0	27	0	257949696	71	4538
2026-01-14 10:10:48.99	171.23	15.28	-52.6	-54.5	14.4	0.00e+00	0	27	0	260046848	71	4479
2026-01-14 10:10:49.99	171.28	15.39	-52.6	-54.5	14.4	0.00e+00	0	27	0	262144000	71	4481
2026-01-14 10:10:50.98	171.32	15.50	-52.6	-54.5	14.4	0.00e+00	0	27	0	264241152	71	4482
2026-01-14 10:10:51.97	171.36	15.60	-52.7	-54.6	14.4	0.00e+00	0	27	0	266338304	71	4498
2026-01-14 10:10:52.97	171.41	15.71	-52.7	-54.6	14.4	0.00e+00	0	27	0	267386880	71	4520
2026-01-14 10:10:53.95	171.45	15.82	-52.7	-54.7	14.3	0.00e+00	0	27	0	269484032	71	4554
2026-01-14 10:10:54.95	171.50	15.92	-52.7	-54.6	14.4	0.00e+00	0	27	0	271581184	71	4520
2026-01-14 10:10:55.95	171.54	16.03	-52.8	-54.7	14.3	0.00e+00	0	27	0	273678336	71	4577
2026-01-14 10:10:56.94	171.59	16.14	-52.7	-54.6	14.4	0.00e+00	0	27	0	274726912	71	4531
2026-01-14 10:10:57.93	171.63	16.25	-52.7	-54.6	14.4	0.00e+00	0	27	0	276824064	71	4525
2026-01-14 10:10:58.92	171.68	16.36	-52.7	-54.7	14.4	0.00e+00	0	27	0	278921216	71	4546
2026-01-14 10:10:59.91	171.72	16.47	-52.7	-54.7	14.4	0.00e+00	0	27	0	281018368	71	4551
2026-01-14 10:11:00.91	171.77	16.58	-52.8	-54.7	14.3	0.00e+00	0	27	0	283115520	71	4592
2026-01-14 10:11:01.90	171.82	16.69	-52.8	-54.7	14.3	0.00e+00	0	27	0	284164096	71	4570
2026-01-14 10:11:02.90	171.87	16.81	-52.8	-54.8	14.3	0.00e+00	0	27	0	286261248	71	4618
2026-01-14 10:11:03.89	171.91	16.92	-52.9	-54.9	14.3	0.00e+00	0	27	0	288358400	71	4654
2026-01-14 10:11:04.88	171.96	17.03	-52.8	-54.8	14.3	0.00e+00	0	27	0	290455552	71	4609
2026-01-14 10:11:05.87	172.01	17.14	-52.8	-54.8	14.3	0.00e+00	0	27	0	291504128	71	4606
2026-01-14 10:11:06.87	172.06	17.26	-52.9	-54.9	14.3	0.00e+00	0	27	0	293601280	71	4669
2026-01-14 10:11:07.86	172.11	17.37	-52.9	-54.8	14.3	0.00e+00	0	27	0	295698432	71	4641
2026-01-14 10:11:08.85	172.16	17.49	-52.9	-54.8	14.3	0.00e+00	0	27	0	297795584	71	4624
2026-01-14 10:11:09.84	172.21	17.60	-52.9	-54.9	14.3	0.00e+00	0	27	0	299892736	71	4686
2026-01-14 10:11:10.84	172.26	17.72	-52.9	-54.9	14.3	0.00e+00	0	27	0	300941312	71	4683
2026-01-14 10:11:11.84	172.31	17.83	-53.0	-54.9	14.2	0.00e+00	0	27	0	303038464	71	4692
2026-01-14 10:11:12.84	172.36	17.95	-53.0	-54.9	14.2	0.00e+00	0	27	0	305135616	71	4703
2026-01-14 10:11:13.83	172.41	18.07	-52.9	-54.9	14.3	0.00e+00	0	27	0	307232768	71	4671
2026-01-14 10:11:14.83	172.46	18.19	-53.0	-55.0	14.2	0.00e+00	0	27	0	308281344	71	4717
2026-01-14 10:11:15.83	172.51	18.31	-52.9	-54.9	14.3	0.00e+00	0	27	0	310378496	71	4662
2026-01-14 10:11:16.82	172.56	18.43	-53.0	-55.0	14.2	0.00e+00	0	27	0	312475648	71	4711
2026-01-14 10:11:17.80	172.62	18.54	-53.0	-54.9	14.3	0.00e+00	0	27	0	314572800	71	4694
2026-01-14 10:11:18.80	172.67	18.66	-53.0	-54.9	14.2	0.00e+00	0	27	0	316669952	71	4688
2026-01-14 10:11:19.79	172.72	18.78	-52.9	-54.9	14.3	0.00e+00	0	27	0	317718528	71	4671
2026-01-14 10:11:20.79	172.78	18.91	-53.0	-55.0	14.2	0.00e+00	0	27	0	319815680	71	4722
2026-01-14 10:11:21.78	172.83	19.03	-53.0	-55.0	14.2	0.00e+00	0	27	0	321912832	71	4719
2026-01-14 10:11:22.77	172.88	19.15	-53.0	-55.0	14.2	0.00e+00	0	27	0	324009984	71	4741
2026-01-14 10:11:23.77	172.94	19.27	-53.1	-55.1	14.2	0.00e+00	0	27	0	326107136	71	4764
2026-01-14 10:11:24.76	172.99	19.40	-53.0	-55.0	14.2	0.00e+00	0	27	0	327155712	71	4717
2026-01-14 10:11:25.76	173.05	19.52	-53.0	-54.9	14.2	0.00e+00	0	27	0	329252864	71	4705
2026-01-14 10:11:26.75	173.11	19.65	-53.0	-55.0	14.2	0.00e+00	0	27	0	331350016	71	4749
2026-01-14 10:11:27.74	173.16	19.77	-53.0	-55.0	14.2	0.00e+00	0	27	0	333447168	71	4740
2026-01-14 10:11:28.73	173.22	19.90	-53.1	-55.0	14.2	0.00e+00	0	27	0	334495744	71	4759
2026-01-14 10:11:29.72	173.28	20.02	-53.1	-55.1	14.2	0.00e+00	0	27	0	336592896	71	4765
2026-01-14 10:11:30.71	173.33	20.15	-53.1	-55.1	14.2	0.00e+00	0	27	0	338690048	71	4801
2026-01-14 10:11:31.70	173.39	20.28	-53.0	-55.0	14.2	0.00e+00	0	27	0	340787200	71	4728
2026-01-14 10:11:32.70	173.45	20.41	-53.0	-55.0	14.2	0.00e+00	0	27	0	341835776	71	4730
2026-01-14 10:11:33.69	173.51	20.54	-53.0	-55.0	14.2	0.00e+00	0	27	0	343932928	71	4723
2026-01-14 10:11:34.68	173.57	20.67	-53.1	-55.1	14.2	0.00e+00	0	27	0	346030080	71	4760
2026-01-14 10:11:35.66	173.63	20.79	-53.1	-55.1	14.2	0.00e+00	0	27	0	348127232	71	4766
2026-01-14 10:11:36.66	173.69	20.93	-53.2	-55.1	14.2	0.00e+00	0	27	0	350224384	71	4812
2026-01-14 10:11:37.65	173.75	21.06	-53.2	-55.2	14.1	0.00e+00	0	27	0	351272960	71	4834
2026-01-14 10:11:38.65	173.81	21.19	-53.2	-55.2	14.1	0.00e+00	0	27	0	353370112	71	4842
2026-01-14 10:11:39.64	173.87	21.32	-53.2	-55.2	14.1	0.00e+00	0	27	0	355467264	71	4869
2026-01-14 10:11:40.64	173.94	21.46	-53.2	-55.1	14.1	0.00e+00	0	27	0	357564416	71	4814
2026-01-14 10:11:41.64	174.00	21.59	-53.2	-55.2	14.2	0.00e+00	0	27	0	358612992	71	4819
2026-01-14 10:11:42.62	174.06	21.73	-53.2	-55.2	14.2	0.00e+00	0	27	0	360710144	71	4826
2026-01-14 10:11:43.62	174.13	21.86	-53.1	-55.1	14.2	0.00e+00	0	27	0	362807296	71	4795
2026-01-14 10:11:44.61	174.19	22.00	-53.1	-55.1	14.2	0.00e+00	0	27	0	364904448	71	4791
2026-01-14 10:11:45.60	174.26	22.14	-53.1	-55.1	14.2	0.00e+00	0	27	0	365953024	71	4800
2026-01-14 10:11:46.60	174.32	22.27	-53.1	-55.1	14.2	0.00e+00	0	27	0	368050176	71	4810
2026-01-14 10:11:47.60	174.39	22.41	-53.1	-55.0	14.2	0.00e+00	0	27	0	370147328	71	4742
2026-01-14 10:11:48.60	174.46	22.55	-53.0	-55.0	14.2	0.00e+00	0	27	0	372244480	71	4728
2026-01-14 10:11:49.59	174.53	22.69	-53.0	-55.0	14.2	0.00e+00	0	27	0	374341632	71	4722
2026-01-14 10:11:50.58	174.59	22.83	-53.0	-54.9	14.3	0.00e+00	0	27	0	375390208	71	4690
2026-01-14 10:11:51.57	174.66	22.98	-53.0	-54.9	14.3	0.00e+00	0	27	0	377487360	71	4687
2026-01-14 10:11:52.57	174.73	23.12	-53.0	-54.9	14.3	0.00e+00	0	27	0	379584512	71	4696
2026-01-14 10:11:53.57	174.80	23.26	-53.0	-55.0	14.2	0.00e+00	0	27	0	381681664	71	4731
2026-01-14 10:11:54.57	174.87	23.41	-53.1	-55.0	14.2	0.00e+00	0	27	0	383778816	71	4746
2026-01-14 10:11:55.56	174.94	23.55	-53.1	-55.0	14.2	0.00e+00	0	27	0	384827392	71	4750
2026-01-14 10:11:56.56	175.02	23.70	-53.0	-55.0	14.2	0.00e+00	0	27	0	386924544	71	4708
2026-01-14 10:11:57.56	175.09	23.85	-53.0	-54.9	14.3	0.00e+00	0	27	0	389021696	71	4674
2026-01-14 10:11:58.55	175.16	23.99	-53.0	-54.9	14.3	0.00e+00	0	27	0	391118848	71	4659
2026-01-14 10:11:59.54	175.23	24.14	-52.9	-54.8	14.4	0.00e+00	0	27	0	392167424	71	4606
2026-01-14 10:12:00.53	175.31	24.29	-52.9	-54.8	14.3	0.00e+00	0	27	0	394264576	71	4632
2026-01-14 10:12:01.53	175.38	24.44	-52.9	-54.7	14.4	0.00e+00	0	27	0	396361728	71	4590
2026-01-14 10:12:02.53	175.46	24.59	-52.8	-54.7	14.4	0.00e+00	0	27	0	398458880	71	4573
2026-01-14 10:12:03.52	175.54	24.74	-52.8	-54.7	14.4	0.00e+00	0	27	0	400556032	71	4583
2026-01-14 10:12:04.52	175.61	24.89	-52.9	-54.7	14.4	0.00e+00	0	27	0	401604608	71	4587
2026-01-14 10:12:05.52	175.69	25.05	-52.9	-54.8	14.3	0.00e+00	0	27	0	403701760	71	4617
2026-01-14 10:12:06.51	175.77	25.20	-52.9	-54.8	14.3	0.00e+00	0	27	0	405798912	71	4645
2026-01-14 10:12:07.51	175.85	25.35	-52.9	-54.8	14.3	0.00e+00	0	27	0	407896064	71	4649
2026-01-14 10:12:08.50	175.93	25.51	-52.8	-54.7	14.4	0.00e+00	0	27	0	408944640	71	4547
2026-01-14 10:12:09.49	176.01	25.66	-52.9	-54.7	14.4	0.00e+00	0	27	0	411041792	71	4596
2026-01-14 10:12:10.48	176.09	25.82	-52.9	-54.7	14.4	0.00e+00	0	27	0	413138944	71	4588
2026-01-14 10:12:11.48	176.17	25.98	-52.8	-54.7	14.4	0.00e+00	0	27	0	415236096	71	4562
2026-01-14 10:12:12.47	176.26	26.14	-52.8	-54.7	14.4	0.00e+00	0	27	0	417333248	71	4568
2026-01-14 10:12:13.46	176.34	26.30	-52.8	-54.7	14.4	0.00e+00	0	27	0	418381824	71	4572
2026-01-14 10:12:14.46	176.42	26.46	-52.8	-54.7	14.4	0.00e+00	0	27	0	420478976	71	4571
2026-01-14 10:12:15.45	176.51	26.62	-52.8	-54.6	14.4	0.00e+00	0	27	0	422576128	71	4541
2026-01-14 10:12:16.44	176.59	26.78	-52.7	-54.5	14.5	0.00e+00	0	27	0	424673280	71	4458
2026-01-14 10:12:17.44	176.68	26.94	-52.8	-54.6	14.4	0.00e+00	0	27	0	425721856	71	4534
2026-01-14 10:12:18.43	176.77	27.11	-52.6	-54.4	14.5	0.00e+00	0	27	0	427819008	71	4432
2026-01-14 10:12:19.42	176.86	27.27	-52.5	-54.3	14.6	0.00e+00	0	27	0	429916160	71	4378
2026-01-14 10:12:20.42	176.95	27.44	-52.4	-54.2	14.6	0.00e+00	0	27	0	432013312	71	4301
2026-01-14 10:12:21.41	177.04	27.60	-52.5	-54.2	14.6	0.00e+00	0	27	0	434110464	71	4319
2026-01-14 10:12:22.41	177.13	27.77	-52.4	-54.1	14.6	0.00e+00	0	27	0	435159040	71	4283
2026-01-14 10:12:23.41	177.22	27.94	-52.5	-54.3	14.6	0.00e+00	0	27	0	437256192	71	4380
2026-01-14 10:12:24.41	177.32	28.11	-52.6	-54.4	14.5	0.00e+00	0	27	0	439353344	71	4429
2026-01-14 10:12:25.40	177.41	28.28	-52.6	-54.4	14.5	0.00e+00	0	27	0	441450496	71	4434
2026-01-14 10:12:26.39	177.51	28.46	-52.6	-54.4	14.5	0.00e+00	0	27	0	442499072	71	4437
2026-01-14 10:12:27.38	177.60	28.63	-52.7	-54.6	14.5	0.00e+00	0	27	0	444596224	71	4494
2026-01-14 10:12:28.38	177.70	28.80	-52.8	-54.7	14.4	0.00e+00	0	27	0	446693376	71	4566
2026-01-14 10:12:29.37	177.80	28.98	-53.0	-54.8	14.3	0.00e+00	0	27	0	448790528	71	4650
2026-01-14 10:12:30.36	177.90	29.15	-53.0	-54.9	14.3	0.00e+00	0	27	0	450887680	71	4695
2026-01-14 10:12:31.36	178.00	29.33	-53.1	-55.0	14.3	0.00e+00	0	27	0	451936256	71	4738
2026-01-14 10:12:32.35	178.10	29.51	-53.2	-55.1	14.2	0.00e+00	0	27	0	454033408	71	4798
2026-01-14 10:12:33.35	178.20	29.69	-53.3	-55.3	14.1	0.00e+00	0	27	0	456130560	71	4889
2026-01-14 10:12:34.35	178.31	29.87	-53.4	-55.4	14.1	0.00e+00	0	27	0	458227712	71	4971
2026-01-14 10:12:35.34	178.41	30.05	-53.5	-55.6	14.1	0.00e+00	0	27	0	459276288	72	4769
2026-01-14 10:12:36.33	178.52	30.23	-53.6	-55.7	14.0	0.00e+00	0	27	0	461373440	72	4852
2026-01-14 10:12:37.33	178.62	30.41	-53.8	-55.9	13.9	0.00e+00	0	27	0	463470592	72	4970
2026-01-14 10:12:38.33	178.73	30.60	-53.9	-56.0	13.9	0.00e+00	0	27	0	465567744	72	5030
2026-01-14 10:12:39.32	178.84	30.78	-54.0	-56.2	14.0	0.00e+00	0	27	0	467664896	73	4818
2026-01-14 10:12:40.31	178.95	30.97	-54.1	-56.3	13.9	0.00e+00	0	27	0	468713472	73	4925
2026-01-14 10:12:41.30	179.06	31.15	-54.1	-56.3	13.9	0.00e+00	0	27	0	470810624	73	4910
2026-01-14 10:12:42.30	179.18	31.34	-54.1	-56.4	13.8	0.00e+00	0	27	0	472907776	73	4953
2026-01-14 10:12:43.30	179.29	31.53	-54.2	-56.4	13.8	0.00e+00	0	27	0	475004928	73	4973
2026-01-14 10:12:44.29	179.41	31.72	-54.1	-56.3	13.9	0.00e+00	0	27	0	476053504	73	4905
2026-01-14 10:12:45.29	179.52	31.92	-54.1	-56.4	13.8	0.00e+00	0	27	0	478150656	73	4929
2026-01-14 10:12:46.28	179.64	32.11	-54.1	-56.3	13.9	0.00e+00	0	27	0	480247808	73	4889
2026-01-14 10:12:47.27	179.76	32.30	-54.3	-56.6	13.7	0.00e+00	0	27	0	482344960	73	5061
2026-01-14 10:12:48.26	179.88	32.49	-54.3	-56.6	13.7	0.00e+00	0	27	0	484442112	73	5061
2026-01-14 10:12:49.25	180.00	32.69	-54.3	-56.6	13.7	0.00e+00	0	27	0	485490688	73	5076
2026-01-14 10:12:50.24	180.13	32.89	-54.2	-56.4	13.8	0.00e+00	0	27	0	487587840	73	4976
2026-01-14 10:12:51.23	180.25	33.08	-54.2	-56.5	13.8	0.00e+00	0	27	0	489684992	73	5003
2026-01-14 10:12:52.23	180.38	33.28	-54.1	-56.3	13.9	0.00e+00	0	27	0	491782144	73	4915
2026-01-14 10:12:53.23	180.51	33.49	-53.9	-56.1	14.0	0.00e+00	0	27	0	492830720	73	4790
2026-01-14 10:12:54.22	180.64	33.69	-53.9	-56.1	14.0	0.00e+00	0	27	0	494927872	73	4767
2026-01-14 10:12:55.22	180.77	33.89	-53.8	-56.0	14.0	0.00e+00	0	27	0	497025024	73	4730
2026-01-14 10:12:56.21	180.90	34.10	-53.8	-55.9	14.1	0.00e+00	0	27	0	499122176	73	4669
2026-01-14 10:12:57.21	181.04	34.30	-53.9	-56.1	14.0	0.00e+00	0	27	0	501219328	73	4777
2026-01-14 10:12:58.20	181.17	34.51	-53.9	-56.0	14.0	0.00e+00	0	27	0	502267904	73	4757
2026-01-14 10:12:59.19	181.31	34.72	-54.0	-56.3	13.9	0.00e+00	0	27	0	504365056	73	4874
2026-01-14 10:13:00.18	181.45	34.92	-54.1	-56.3	13.9	0.00e+00	0	27	0	506462208	73	4886
2026-01-14 10:13:01.17	181.59	35.13	-54.1	-56.3	13.9	0.00e+00	0	27	0	508559360	73	4915
2026-01-14 10:13:02.17	181.74	35.35	-54.1	-56.4	13.8	0.00e+00	0	27	0	509607936	73	4949
2026-01-14 10:13:03.17	181.88	35.56	-54.1	-56.3	13.9	0.00e+00	0	27	0	511705088	73	4916
2026-01-14 10:13:04.16	182.03	35.77	-54.2	-56.5	13.8	0.00e+00	0	27	0	513802240	73	4998
2026-01-14 10:13:05.15	182.18	35.99	-54.2	-56.5	13.8	0.00e+00	0	27	0	515899392	73	5000
2026-01-14 10:13:06.14	182.33	36.20	-54.3	-56.6	13.7	0.00e+00	0	27	0	517996544	73	5091
2026-01-14 10:13:07.14	182.48	36.42	-54.4	-56.7	13.7	0.00e+00	0	27	0	519045120	73	5126
2026-01-14 10:13:08.14	182.64	36.64	-54.5	-56.9	13.7	0.00e+00	0	27	0	521142272	74	4936
2026-01-14 10:13:09.13	182.79	36.86	-54.6	-57.0	13.7	0.00e+00	0	27	0	523239424	74	4987
2026-01-14 10:13:10.13	182.95	37.08	-54.8	-57.3	13.5	0.00e+00	0	27	0	525336576	74	5207
2026-01-14 10:13:11.12	183.11	37.31	-54.8	-57.3	13.5	0.00e+00	0	27	0	526385152	74	5178
2026-01-14 10:13:12.12	183.28	37.53	-54.9	-57.4	13.4	0.00e+00	0	27	0	528482304	74	5260
2026-01-14 10:13:13.12	183.44	37.76	-55.1	-57.7	13.3	0.00e+00	0	27	0	530579456	75	5144
2026-01-14 10:13:14.12	183.61	37.99	-55.0	-57.6	13.4	0.00e+00	0	27	0	532676608	75	5049
2026-01-14 10:13:15.11	183.78	38.21	-54.9	-57.5	13.5	0.00e+00	0	27	0	534773760	75	5008
2026-01-14 10:13:16.10	183.95	38.44	-55.1	-57.8	13.3	0.00e+00	0	27	0	535822336	75	5186
2026-01-14 10:13:17.09	184.13	38.67	-55.0	-57.6	13.4	0.00e+00	0	27	0	537919488	75	5091
2026-01-14 10:13:18.08	184.30	38.90	-55.2	-57.9	13.3	0.00e+00	0	27	0	540016640	75	5254
2026-01-14 10:13:19.07	184.48	39.13	-55.2	-57.9	13.3	0.00e+00	0	27	0	542113792	75	5258
2026-01-14 10:13:20.07	184.66	39.37	-55.2	-57.9	13.3	0.00e+00	0	27	0	543162368	75	5257
2026-01-14 10:13:21.06	184.85	39.60	-55.3	-58.0	13.2	0.00e+00	0	27	0	545259520	75	5301
2026-01-14 10:13:22.06	185.04	39.84	-55.5	-58.3	13.1	0.00e+00	0	27	0	547356672	76	5201
2026-01-14 10:13:23.06	185.23	40.08	-55.5	-58.4	13.1	0.00e+00	0	27	0	549453824	76	5222
2026-01-14 10:13:24.05	185.42	40.32	-55.5	-58.3	13.1	0.00e+00	0	27	0	551550976	76	5194
2026-01-14 10:13:25.04	185.61	40.56	-55.3	-58.0	13.3	0.00e+00	0	27	0	552599552	76	5025
2026-01-14 10:13:26.04	185.81	40.80	-55.4	-58.1	13.3	0.00e+00	0	27	0	554696704	76	5078
2026-01-14 10:13:27.03	186.01	41.04	-55.4	-58.2	13.3	0.00e+00	0	27	0	556793856	76	5107
2026-01-14 10:13:28.03	186.22	41.29	-55.1	-57.7	13.5	0.00e+00	0	27	0	558891008	76	4843
2026-01-14 10:13:29.02	186.42	41.53	-55.0	-57.5	13.6	0.00e+00	0	27	0	559939584	76	4746
2026-01-14 10:13:30.02	186.64	41.78	-54.9	-57.4	13.7	0.00e+00	0	27	0	562036736	76	4662
2026-01-14 10:13:31.02	186.85	42.03	-54.5	-56.9	13.9	0.00e+00	0	27	0	564133888	75	4655
2026-01-14 10:13:32.02	187.07	42.28	-54.6	-57.0	13.8	0.00e+00	0	27	0	566231040	75	4727
2026-01-14 10:13:33.01	187.29	42.53	-54.3	-56.6	14.0	0.00e+00	0	27	0	568328192	75	4503
2026-01-14 10:13:34.01	187.51	42.79	-54.3	-56.5	14.0	0.00e+00	0	27	0	569376768	75	4491
2026-01-14 10:13:35.00	187.74	43.04	-54.3	-56.5	14.1	0.00e+00	0	27	0	571473920	75	4469
2026-01-14 10:13:35.99	187.97	43.29	-54.4	-56.6	14.0	0.00e+00	0	27	0	573571072	75	4539
2026-01-14 10:13:36.98	188.20	43.55	-54.3	-56.5	14.0	0.00e+00	0	27	0	575668224	75	4493
2026-01-14 10:13:37.97	188.44	43.80	-54.4	-56.8	13.9	0.00e+00	0	27	0	576716800	75	4600
2026-01-14 10:13:38.97	188.68	44.06	-54.4	-56.6	14.0	0.00e+00	0	27	0	578813952	75	4540
2026-01-14 10:13:39.96	188.93	44.32	-54.3	-56.6	14.0	0.00e+00	0	27	0	580911104	75	4511
2026-01-14 10:13:40.95	189.18	44.58	-54.1	-56.3	14.0	0.00e+00	0	27	0	583008256	74	4635
2026-01-14 10:13:41.93	189.43	44.83	-54.3	-56.5	13.9	0.00e+00	0	27	0	585105408	74	4722
2026-01-14 10:13:42.93	189.69	45.10	-54.6	-56.9	13.7	0.00e+00	0	27	0	586153984	74	4957
2026-01-14 10:13:43.93	189.95	45.36	-54.8	-57.3	13.5	0.00e+00	0	27	0	588251136	74	5167
2026-01-14 10:13:44.92	190.21	45.63	-54.9	-57.4	13.4	0.00e+00	0	27	0	590348288	74	5276
2026-01-14 10:13:45.91	190.48	45.89	-55.1	-57.6	13.4	0.00e+00	0	27	0	592445440	75	5090
2026-01-14 10:13:46.90	190.76	46.16	-55.0	-57.5	13.5	0.00e+00	0	27	0	593494016	75	5014
2026-01-14 10:13:47.89	191.04	46.42	-54.5	-56.9	13.9	0.00e+00	0	27	0	595591168	75	4656
2026-01-14 10:13:48.88	191.32	46.69	-54.3	-56.5	14.0	0.00e+00	0	27	0	597688320	75	4486
2026-01-14 10:13:49.88	191.61	46.96	-54.3	-56.6	14.0	0.00e+00	0	27	0	599785472	75	4511
2026-01-14 10:13:50.87	191.90	47.23	-54.3	-56.6	14.0	0.00e+00	0	27	0	601882624	75	4496
2026-01-14 10:13:51.87	192.20	47.50	-54.6	-56.9	13.9	0.00e+00	0	27	0	602931200	75	4704
2026-01-14 10:13:52.86	192.51	47.77	-54.4	-56.7	14.0	0.00e+00	0	27	0	605028352	75	4586
2026-01-14 10:13:53.86	192.82	48.05	-54.6	-57.0	13.8	0.00e+00	0	27	0	607125504	75	4720
2026-01-14 10:13:54.85	193.13	48.32	-54.6	-57.0	13.8	0.00e+00	0	27	0	609222656	75	4729
2026-01-14 10:13:55.85	193.46	48.60	-54.4	-56.7	13.9	0.00e+00	0	27	0	610271232	75	4551
2026-01-14 10:13:56.85	193.78	48.88	-54.2	-56.3	14.1	0.00e+00	0	27	0	612368384	75	4389
2026-01-14 10:13:57.85	194.12	49.15	-53.8	-55.9	14.3	0.00e+00	0	27	0	614465536	74	4395
2026-01-14 10:13:58.85	194.46	49.43	-53.3	-55.2	14.4	0.00e+00	0	27	0	616562688	73	4338
2026-01-14 10:13:59.84	194.80	49.71	-52.8	-54.6	14.6	0.00e+00	0	27	0	618659840	72	4267
2026-01-14 10:14:00.85	195.16	49.99	-52.5	-54.2	14.6	0.00e+00	0	27	0	619708416	71	4338
2026-01-14 10:14:01.84	195.51	50.27	-52.3	-54.0	14.7	0.00e+00	0	27	0	621805568	71	4222
2026-01-14 10:14:02.84	195.88	50.55	-51.9	-53.6	14.8	0.00e+00	0	27	0	623902720	70	4243
2026-01-14 10:14:03.83	196.25	50.83	-51.8	-53.4	14.9	0.00e+00	0	27	0	625999872	70	4168
2026-01-14 10:14:04.82	196.62	51.11	-51.7	-53.2	14.9	0.00e+00	0	27	0	627048448	70	4095
2026-01-14 10:14:05.82	197.01	51.39	-51.4	-52.9	14.9	0.00e+00	0	27	0	629145600	69	4148
2026-01-14 10:14:06.81	197.40	51.67	-51.0	-52.4	15.0	0.00e+00	0	27	0	631242752	68	4172
2026-01-14 10:14:07.80	197.80	51.95	-50.4	-51.8	15.1	0.00e+00	0	27	0	633339904	67	4114
2026-01-14 10:14:08.80	198.21	52.23	-50.0	-51.4	15.1	0.00e+00	0	27	0	635437056	66	4161
2026-01-14 10:14:09.79	198.62	52.51	-49.8	-51.1	15.2	0.00e+00	0	27	0	636485632	66	4040
2026-01-14 10:14:10.79	199.04	52.80	-49.7	-51.0	15.1	0.00e+00	0	27	0	638582784	65	4206
2026-01-14 10:14:11.78	199.47	53.08	-49.8	-51.1	15.0	0.00e+00	0	27	0	640679936	65	4278
2026-01-14 10:14:12.79	199.92	53.37	-49.8	-51.1	15.0	0.00e+00	0	27	0	642777088	65	4273
2026-01-14 10:14:13.78	200.36	53.65	-49.9	-51.3	15.0	0.00e+00	0	27	0	643825664	65	4358
2026-01-14 10:14:14.77	200.82	53.93	-49.9	-51.3	15.0	0.00e+00	0	27	0	645922816	65	4362
2026-01-14 10:14:15.77	201.29	54.21	-50.0	-51.3	15.0	0.00e+00	0	27	0	648019968	65	4374
2026-01-14 10:14:16.77	201.76	54.49	-50.0	-51.4	14.9	0.00e+00	0	27	0	650117120	65	4412
2026-01-14 10:14:17.76	202.24	54.77	-50.2	-51.6	14.9	0.00e+00	0	27	0	652214272	65	4494
2026-01-14 10:14:18.76	202.74	55.05	-50.5	-51.9	14.9	0.00e+00	0	27	0	653262848	66	4429
2026-01-14 10:14:19.75	203.24	55.33	-50.8	-52.3	14.8	0.00e+00	0	27	0	655360000	66	4623
2026-01-14 10:14:20.75	203.75	55.61	-51.2	-52.8	14.7	0.00e+00	0	27	0	657457152	67	4606
2026-01-14 10:14:21.75	204.28	55.89	-51.6	-53.2	14.7	0.00e+00	0	27	0	659554304	68	4577
2026-01-14 10:14:22.75	204.82	56.17	-52.0	-53.6	14.6	0.00e+00	0	27	0	660602880	69	4514
2026-01-14 10:14:23.74	205.36	56.44	-52.3	-54.0	14.5	0.00e+00	0	27	0	662700032	69	4728
2026-01-14 10:14:24.73	205.91	56.71	-52.7	-54.5	14.4	0.00e+00	0	27	0	664797184	70	4714
2026-01-14 10:14:25.72	206.47	56.99	-52.8	-54.6	14.5	0.00e+00	0	27	0	666894336	71	4534
2026-01-14 10:14:26.73	207.06	57.26	-53.0	-54.9	14.4	0.00e+00	0	27	0	668991488	71	4656
2026-01-14 10:14:27.73	207.65	57.53	-53.2	-55.1	14.3	0.00e+00	0	27	0	670040064	71	4797
2026-01-14 10:14:28.73	208.25	57.80	-53.4	-55.3	14.3	0.00e+00	0	27	0	672137216	72	4650
2026-01-14 10:14:29.72	208.86	58.07	-53.6	-55.6	14.2	0.00e+00	0	27	0	674234368	72	4811
2026-01-14 10:14:30.71	209.48	58.33	-53.6	-55.5	14.2	0.00e+00	0	27	0	676331520	72	4751
2026-01-14 10:14:31.71	210.12	58.60	-53.4	-55.3	14.3	0.00e+00	0	27	0	678428672	72	4614
2026-01-14 10:14:32.72	210.78	58.86	-53.4	-55.4	14.3	0.00e+00	0	27	0	679477248	72	4671
2026-01-14 10:14:33.71	211.44	59.12	-53.4	-55.3	14.3	0.00e+00	0	27	0	681574400	72	4611
2026-01-14 10:14:34.70	212.11	59.38	-53.4	-55.3	14.3	0.00e+00	0	27	0	683671552	72	4616
2026-01-14 10:14:35.70	212.80	59.63	-53.3	-55.2	14.4	0.00e+00	0	27	0	685768704	72	4550
2026-01-14 10:14:36.69	213.50	59.88	-53.1	-54.9	14.5	0.00e+00	0	27	0	686817280	72	4429
2026-01-14 10:14:37.69	214.22	60.13	-52.7	-54.4	14.7	0.00e+00	0	27	0	688914432	72	4184
2026-01-14 10:14:38.68	214.95	60.38	-52.4	-54.0	14.8	0.00e+00	0	27	0	691011584	71	4224
2026-01-14 10:14:39.68	215.70	60.62	-52.0	-53.6	14.8	0.00e+00	0	27	0	693108736	70	4279
2026-01-14 10:14:40.68	216.46	60.86	-51.8	-53.4	14.9	0.00e+00	0	27	0	695205888	70	4158
2026-01-14 10:14:41.67	217.22	61.09	-51.4	-52.9	15.0	0.00e+00	0	27	0	696254464	69	4169
2026-01-14 10:14:42.67	218.02	61.32	-51.4	-52.9	15.0	0.00e+00	0	27	0	698351616	69	4180
2026-01-14 10:14:43.67	218.82	61.55	-51.4	-52.9	15.0	0.00e+00	0	27	0	700448768	69	4175
2026-01-14 10:14:44.66	219.63	61.78	-51.4	-52.9	15.0	0.00e+00	0	27	0	702545920	69	4146
2026-01-14 10:14:45.65	220.46	61.99	-51.4	-52.9	15.0	0.00e+00	0	27	0	703594496	69	4147
2026-01-14 10:14:46.64	221.30	62.21	-51.5	-53.0	14.9	0.00e+00	0	27	0	705691648	69	4218
2026-01-14 10:14:47.64	222.16	62.42	-51.4	-52.9	14.9	0.00e+00	0	27	0	707788800	69	4170
2026-01-14 10:14:48.64	223.04	62.62	-51.6	-53.1	14.9	0.00e+00	0	27	0	709885952	69	4254
2026-01-14 10:14:49.63	223.92	62.82	-51.6	-53.1	14.9	0.00e+00	0	27	0	711983104	69	4268
2026-01-14 10:14:50.62	224.82	63.02	-52.0	-53.6	14.7	0.00e+00	0	27	0	713031680	69	4535
2026-01-14 10:14:51.62	225.75	63.21	-52.4	-54.1	14.5	0.00e+00	0	27	0	715128832	69	4788
2026-01-14 10:14:52.61	226.67	63.39	-52.1	-53.8	14.6	0.00e+00	0	27	0	717225984	69	4605
2026-01-14 10:14:53.60	227.62	63.56	-51.9	-53.5	14.7	0.00e+00	0	27	0	719323136	69	4489
2026-01-14 10:14:54.60	228.58	63.74	-51.8	-53.3	14.8	0.00e+00	0	27	0	720371712	69	4388
2026-01-14 10:14:55.59	229.55	63.90	-51.9	-53.4	14.8	0.00e+00	0	27	0	722468864	69	4440
2026-01-14 10:14:56.58	230.53	64.06	-52.4	-54.0	14.5	0.00e+00	0	27	0	724566016	69	4735
2026-01-14 10:14:57.58	231.54	64.21	-52.8	-54.5	14.4	0.00e+00	0	27	0	726663168	70	4752
2026-01-14 10:14:58.58	232.56	64.36	-52.7	-54.5	14.5	0.00e+00	0	27	0	728760320	70	4706
2026-01-14 10:14:59.56	233.57	64.50	-52.6	-54.3	14.5	0.00e+00	0	27	0	729808896	70	4626
2026-01-14 10:15:00.56	234.62	64.63	-52.3	-53.9	14.7	0.00e+00	0	27	0	731906048	70	4415
2026-01-14 10:15:01.55	235.66	64.75	-52.3	-53.9	14.7	0.00e+00	0	27	0	734003200	70	4435
2026-01-14 10:15:02.55	236.73	64.87	-52.8	-54.5	14.4	0.00e+00	0	27	0	736100352	70	4741
2026-01-14 10:15:03.56	237.82	64.98	-53.4	-55.3	14.2	0.00e+00	0	27	0	737148928	71	4926
2026-01-14 10:15:04.56	238.91	65.08	-53.8	-55.8	14.1	0.00e+00	0	27	0	739246080	72	4915
2026-01-14 10:15:05.56	240.01	65.18	-53.7	-55.7	14.2	0.00e+00	0	27	0	741343232	72	4828
2026-01-14 10:15:06.55	241.10	65.26	-53.4	-55.3	14.3	0.00e+00	0	27	0	743440384	72	4630
2026-01-14 10:15:07.54	242.20	65.34	-53.3	-55.2	14.4	0.00e+00	0	27	0	745537536	72	4581
2026-01-14 10:15:08.54	243.33	65.41	-53.6	-55.6	14.2	0.00e+00	0	27	0	746586112	72	4774
2026-01-14 10:15:09.54	244.46	65.47	-53.9	-56.0	14.1	0.00e+00	0	27	0	748683264	73	4715
2026-01-14 10:15:10.53	245.58	65.52	-54.1	-56.2	14.0	0.00e+00	0	27	0	750780416	73	4850
2026-01-14 10:15:11.53	246.72	65.57	-54.3	-56.5	13.9	0.00e+00	0	27	0	752877568	73	5011
2026-01-14 10:15:12.53	247.86	65.60	-53.8	-55.8	14.2	0.00e+00	0	27	0	754974720	73	4648
2026-01-14 10:15:13.54	249.02	65.63	-53.4	-55.2	14.5	0.00e+00	0	27	0	756023296	73	4327
2026-01-14 10:15:14.54	250.17	65.65	-53.0	-54.8	14.6	0.00e+00	0	27	0	758120448	72	4341
2026-01-14 10:15:15.54	251.32	65.66	-53.0	-54.8	14.6	0.00e+00	0	27	0	760217600	72	4359
2026-01-14 10:15:16.54	252.47	65.66	-52.9	-54.7	14.6	0.00e+00	0	27	0	762314752	72	4292
2026-01-14 10:15:17.55	253.63	65.65	-52.9	-54.7	14.6	0.00e+00	0	27	0	763363328	72	4298
2026-01-14 10:15:18.55	254.78	65.63	-52.7	-54.5	14.7	0.00e+00	0	27	0	765460480	72	4198
2026-01-14 10:15:19.54	255.91	65.61	-52.8	-54.6	14.7	0.00e+00	0	27	0	767557632	72	4249
2026-01-14 10:15:20.55	257.07	65.57	-52.6	-54.2	14.7	0.00e+00	0	27	0	769654784	71	4339
2026-01-14 10:15:21.54	258.20	65.53	-52.8	-54.5	14.6	0.00e+00	0	27	0	771751936	71	4472
2026-01-14 10:15:22.54	259.33	65.48	-52.8	-54.5	14.6	0.00e+00	0	27	0	772800512	71	4465
2026-01-14 10:15:23.54	260.46	65.41	-52.5	-54.2	14.7	0.00e+00	0	27	0	774897664	71	4294
2026-01-14 10:15:24.53	261.57	65.35	-52.8	-54.5	14.5	0.00e+00	0	27	0	776994816	71	4481
2026-01-14 10:15:25.52	262.68	65.27	-53.1	-54.9	14.4	0.00e+00	0	27	0	779091968	71	4678
2026-01-14 10:15:26.51	263.77	65.19	-52.6	-54.2	14.7	0.00e+00	0	27	0	781189120	71	4328
2026-01-14 10:15:27.50	264.86	65.09	-51.9	-53.4	14.9	0.00e+00	0	27	0	782237696	70	4177
2026-01-14 10:15:28.50	265.95	64.99	-51.7	-53.3	15.0	0.00e+00	0	27	0	784334848	70	4105
2026-01-14 10:15:29.49	267.02	64.88	-51.9	-53.5	14.9	0.00e+00	0	27	0	786432000	70	4211
2026-01-14 10:15:30.48	268.07	64.77	-52.3	-53.9	14.7	0.00e+00	0	27	0	788529152	70	4431
2026-01-14 10:15:31.46	269.11	64.65	-52.7	-54.4	14.5	0.00e+00	0	27	0	789577728	70	4687
2026-01-14 10:15:32.46	270.15	64.52	-52.5	-54.2	14.6	0.00e+00	0	27	0	791674880	70	4579
2026-01-14 10:15:33.45	271.18	64.38	-52.0	-53.6	14.8	0.00e+00	0	27	0	793772032	70	4257
2026-01-14 10:15:34.45	272.20	64.23	-52.1	-53.7	14.8	0.00e+00	0	27	0	795869184	70	4307
2026-01-14 10:15:35.44	273.20	64.08	-52.1	-53.7	14.7	0.00e+00	0	27	0	796917760	70	4331
2026-01-14 10:15:36.43	274.18	63.93	-51.7	-53.3	15.0	0.00e+00	0	27	0	799014912	70	4101
2026-01-14 10:15:37.42	275.15	63.76	-51.3	-52.8	15.0	0.00e+00	0	27	0	801112064	69	4111
2026-01-14 10:15:38.42	276.12	63.59	-51.0	-52.4	15.0	0.00e+00	0	27	0	803209216	68	4184
2026-01-14 10:15:39.41	277.06	63.42	-51.0	-52.5	15.0	0.00e+00	0	27	0	805306368	68	4220
2026-01-14 10:15:40.41	278.00	63.23	-50.8	-52.4	15.1	0.00e+00	0	27	0	806354944	68	4161
2026-01-14 10:15:41.40	278.91	63.04	-50.5	-52.1	15.1	0.00e+00	0	27	0	808452096	67	4261
2026-01-14 10:15:42.39	279.81	62.85	-50.3	-51.8	15.1	0.00e+00	0	27	0	810549248	67	4109
2026-01-14 10:15:43.39	280.71	62.65	-50.3	-51.6	15.2	0.00e+00	0	27	0	812646400	67	4051
2026-01-14 10:15:44.38	281.58	62.45	-50.1	-51.4	15.1	0.00e+00	0	27	0	813694976	66	4188
2026-01-14 10:15:45.37	282.43	62.24	-49.9	-51.2	15.2	0.00e+00	0	27	0	815792128	66	4062
2026-01-14 10:15:46.37	283.28	62.03	-49.4	-50.7	15.2	0.00e+00	0	27	0	817889280	65	4076
2026-01-14 10:15:47.36	284.11	61.81	-49.5	-50.8	15.2	0.00e+00	0	27	0	819986432	65	4115
2026-01-14 10:15:48.35	284.92	61.59	-49.7	-51.0	15.1	0.00e+00	0	27	0	822083584	65	4235
2026-01-14 10:15:49.34	285.72	61.37	-50.1	-51.4	15.0	0.00e+00	0	27	0	823132160	65	4421
2026-01-14 10:15:50.33	286.51	61.14	-50.0	-51.3	15.0	0.00e+00	0	27	0	825229312	65	4377
2026-01-14 10:15:51.32	287.28	60.90	-49.9	-51.2	15.0	0.00e+00	0	27	0	827326464	65	4331
2026-01-14 10:15:52.31	288.03	60.67	-50.1	-51.4	15.0	0.00e+00	0	27	0	829423616	65	4411
2026-01-14 10:15:53.30	288.77	60.43	-50.8	-52.2	14.8	0.00e+00	0	27	0	830472192	66	4581
2026-01-14 10:15:54.30	289.51	60.18	-51.9	-53.5	14.7	0.00e+00	0	27	0	832569344	69	4484
2026-01-14 10:15:55.30	290.23	59.93	-52.3	-54.0	14.6	0.00e+00	0	27	0	834666496	69	4730
2026-01-14 10:15:56.29	290.93	59.69	-52.0	-53.6	14.7	0.00e+00	0	27	0	836763648	69	4534
2026-01-14 10:15:57.28	291.61	59.43	-52.2	-53.9	14.6	0.00e+00	0	27	0	838860800	69	4669
2026-01-14 10:15:58.28	292.29	59.18	-52.7	-54.4	14.5	0.00e+00	0	27	0	839909376	70	4700
2026-01-14 10:15:59.27	292.96	58.92	-52.9	-54.6	14.4	0.00e+00	0	27	0	842006528	70	4812
2026-01-14 10:16:00.26	293.60	58.66	-52.8	-54.5	14.4	0.00e+00	0	27	0	844103680	70	4749
2026-01-14 10:16:01.26	294.24	58.40	-53.0	-54.7	14.5	0.00e+00	0	27	0	846200832	71	4598
2026-01-14 10:16:02.26	294.87	58.13	-52.7	-54.4	14.6	0.00e+00	0	27	0	848297984	71	4405
2026-01-14 10:16:03.25	295.48	57.87	-52.1	-53.7	14.8	0.00e+00	0	27	0	849346560	70	4300
2026-01-14 10:16:04.25	296.09	57.60	-51.9	-53.4	14.9	0.00e+00	0	27	0	851443712	70	4182
2026-01-14 10:16:05.24	296.68	57.33	-51.9	-53.4	14.9	0.00e+00	0	27	0	853540864	70	4187
2026-01-14 10:16:06.24	297.26	57.06	-51.0	-52.4	15.0	0.00e+00	0	27	0	855638016	68	4173
2026-01-14 10:16:07.25	297.83	56.78	-50.1	-51.5	15.1	0.00e+00	0	27	0	856686592	66	4197
2026-01-14 10:16:08.24	298.39	56.51	-50.1	-51.4	15.1	0.00e+00	0	27	0	858783744	66	4160
2026-01-14 10:16:09.24	298.94	56.23	-50.2	-51.6	15.0	0.00e+00	0	27	0	860880896	66	4250
2026-01-14 10:16:10.23	299.47	55.96	-49.7	-51.0	15.2	0.00e+00	0	27	0	862978048	66	3986
2026-01-14 10:16:11.23	299.99	55.68	-49.2	-50.4	15.3	0.00e+00	0	27	0	865075200	65	3946
2026-01-14 10:16:12.23	300.51	55.40	-49.4	-50.7	15.2	0.00e+00	0	27	0	866123776	65	4067
2026-01-14 10:16:13.23	301.02	55.12	-49.5	-50.8	15.2	0.00e+00	0	27	0	868220928	65	4109
2026-01-14 10:16:14.22	301.51	54.84	-49.4	-50.6	15.2	0.00e+00	0	27	0	870318080	65	4030
2026-01-14 10:16:15.22	302.00	54.56	-49.4	-50.6	15.2	0.00e+00	0	27	0	872415232	65	4037
2026-01-14 10:16:16.21	302.47	54.28	-49.9	-51.3	15.0	0.00e+00	0	27	0	873463808	65	4351
2026-01-14 10:16:17.21	302.94	54.00	-49.9	-51.2	15.0	0.00e+00	0	27	0	875560960	65	4316
2026-01-14 10:16:18.19	303.39	53.73	-49.6	-50.9	15.1	0.00e+00	0	27	0	877658112	65	4184
2026-01-14 10:16:19.18	303.83	53.45	-49.6	-50.9	15.1	0.00e+00	0	27	0	879755264	65	4166
2026-01-14 10:16:20.19	304.28	53.16	-50.2	-51.6	14.9	0.00e+00	0	27	0	881852416	65	4503
2026-01-14 10:16:21.17	304.71	52.88	-50.5	-52.0	14.9	0.00e+00	0	27	0	882900992	66	4444
2026-01-14 10:16:22.17	305.13	52.60	-50.5	-51.9	14.9	0.00e+00	0	27	0	884998144	66	4411
2026-01-14 10:16:23.16	305.55	52.32	-50.5	-51.8	14.9	0.00e+00	0	27	0	887095296	66	4391
2026-01-14 10:16:24.15	305.95	52.04	-50.9	-52.4	14.9	0.00e+00	0	27	0	889192448	67	4414
2026-01-14 10:16:25.14	306.35	51.76	-52.0	-53.5	14.7	0.00e+00	0	27	0	890241024	69	4492
2026-01-14 10:16:26.13	306.74	51.48	-52.5	-54.2	14.6	0.00e+00	0	27	0	892338176	70	4590
2026-01-14 10:16:27.12	307.13	51.21	-52.6	-54.3	14.5	0.00e+00	0	27	0	894435328	70	4622
2026-01-14 10:16:28.12	307.51	50.92	-52.7	-54.5	14.5	0.00e+00	0	27	0	896532480	70	4721
2026-01-14 10:16:29.11	307.88	50.65	-53.1	-55.0	14.4	0.00e+00	0	27	0	897581056	71	4711
2026-01-14 10:16:30.10	308.24	50.37	-53.4	-55.3	14.3	0.00e+00	0	27	0	899678208	72	4633
2026-01-14 10:16:31.09	308.60	50.09	-53.6	-55.6	14.2	0.00e+00	0	27	0	901775360	72	4772
2026-01-14 10:16:32.10	308.95	49.81	-53.9	-55.9	14.1	0.00e+00	0	27	0	903872512	72	4981
2026-01-14 10:16:33.09	309.30	49.53	-54.8	-57.2	13.6	0.00e+00	0	27	0	905969664	74	5124
2026-01-14 10:16:34.08	309.64	49.26	-55.3	-57.9	13.4	0.00e+00	0	27	0	907018240	75	5245
2026-01-14 10:16:35.08	309.97	48.98	-55.0	-57.4	13.6	0.00e+00	0	27	0	909115392	75	4974
2026-01-14 10:16:36.06	310.29	48.71	-54.9	-57.2	13.7	0.00e+00	0	27	0	911212544	75	4870
2026-01-14 10:16:37.06	310.62	48.44	-55.3	-57.9	13.4	0.00e+00	0	27	0	913309696	75	5224
2026-01-14 10:16:38.04	310.93	48.17	-56.1	-59.0	12.9	0.00e+00	0	27	0	914358272	77	5326
2026-01-14 10:16:39.04	311.24	47.89	-56.2	-59.2	12.8	0.00e+00	0	27	0	916455424	77	5426
2026-01-14 10:16:40.03	311.55	47.62	-55.8	-58.6	13.2	0.00e+00	0	27	0	918552576	77	5055
2026-01-14 10:16:41.02	311.85	47.35	-55.7	-58.4	13.3	0.00e+00	0	27	0	920649728	77	4965
2026-01-14 10:16:42.02	312.14	47.08	-55.6	-58.3	13.3	0.00e+00	0	27	0	922746880	77	4920
2026-01-14 10:16:43.01	312.43	46.81	-55.6	-58.3	13.3	0.00e+00	0	27	0	923795456	77	4900
2026-01-14 10:16:44.00	312.72	46.55	-55.0	-57.4	13.7	0.00e+00	0	27	0	925892608	76	4688
2026-01-14 10:16:44.99	313.00	46.28	-54.5	-56.8	14.0	0.00e+00	0	27	0	927989760	75	4607
2026-01-14 10:16:45.99	313.28	46.01	-54.5	-56.7	14.0	0.00e+00	0	27	0	930086912	75	4597
2026-01-14 10:16:46.98	313.55	45.75	-54.7	-57.0	13.8	0.00e+00	0	27	0	931135488	75	4744
2026-01-14 10:16:47.97	313.81	45.49	-54.6	-56.9	13.9	0.00e+00	0	27	0	933232640	75	4697
2026-01-14 10:16:48.96	314.07	45.22	-54.1	-56.2	14.1	0.00e+00	0	27	0	935329792	74	4587
2026-01-14 10:16:49.96	314.33	44.96	-53.7	-55.6	14.3	0.00e+00	0	27	0	937426944	73	4528
2026-01-14 10:16:50.95	314.59	44.70	-53.4	-55.3	14.5	0.00e+00	0	27	0	938475520	73	4363
2026-01-14 10:16:51.94	314.84	44.44	-52.8	-54.6	14.6	0.00e+00	0	28	0	940572672	72	4252
2026-01-14 10:16:52.94	315.09	44.18	-52.4	-54.0	14.7	0.00e+00	0	27	0	942669824	71	4240
2026-01-14 10:16:53.93	315.33	43.93	-52.1	-53.7	14.8	0.00e+00	0	27	0	944766976	70	4312
2026-01-14 10:16:54.93	315.57	43.67	-51.8	-53.4	14.9	0.00e+00	0	27	0	946864128	70	4150
2026-01-14 10:16:55.93	315.80	43.41	-51.4	-52.9	14.9	0.00e+00	0	27	0	947912704	69	4176
2026-01-14 10:16:56.92	316.03	43.16	-51.6	-53.1	14.9	0.00e+00	0	27	0	950009856	69	4252
2026-01-14 10:16:57.91	316.26	42.91	-52.5	-54.2	14.5	0.00e+00	0	27	0	952107008	70	4575
2026-01-14 10:16:58.90	316.48	42.66	-53.5	-55.4	14.3	0.00e+00	0	27	0	954204160	72	4705
2026-01-14 10:16:59.90	316.71	42.41	-53.7	-55.8	14.1	0.00e+00	0	27	0	956301312	72	4896
2026-01-14 10:17:00.89	316.92	42.16	-52.9	-54.7	14.6	0.00e+00	0	27	0	957349888	72	4311
2026-01-14 10:17:01.88	317.14	41.91	-51.9	-53.4	14.9	0.00e+00	0	27	0	959447040	70	4182
2026-01-14 10:17:02.88	317.35	41.67	-51.5	-53.0	14.9	0.00e+00	0	27	0	961544192	69	4197
2026-01-14 10:17:03.87	317.56	41.42	-51.1	-52.5	14.9	0.00e+00	0	27	0	963641344	68	4226
2026-01-14 10:17:04.86	317.76	41.18	-51.3	-52.8	14.9	0.00e+00	0	27	0	964689920	68	4342
2026-01-14 10:17:05.86	317.96	40.94	-52.2	-53.8	14.6	0.00e+00	0	27	0	966787072	69	4620
2026-01-14 10:17:06.86	318.16	40.69	-53.0	-54.8	14.4	0.00e+00	0	27	0	968884224	71	4647
2026-01-14 10:17:07.86	318.36	40.45	-54.0	-56.1	14.0	0.00e+00	0	27	0	970981376	73	4795
2026-01-14 10:17:08.86	318.56	40.21	-54.0	-56.2	14.0	0.00e+00	0	27	0	973078528	73	4835
2026-01-14 10:17:09.85	318.75	39.98	-53.5	-55.5	14.4	0.00e+00	0	27	0	974127104	73	4443
2026-01-14 10:17:10.85	318.94	39.74	-52.9	-54.7	14.6	0.00e+00	0	27	0	976224256	72	4292
2026-01-14 10:17:11.84	319.12	39.50	-52.6	-54.3	14.6	0.00e+00	0	27	0	978321408	71	4344
2026-01-14 10:17:12.83	319.30	39.27	-52.0	-53.6	14.8	0.00e+00	0	27	0	980418560	70	4267
2026-01-14 10:17:13.83	319.48	39.04	-51.3	-52.8	15.0	0.00e+00	0	27	0	981467136	69	4105
2026-01-14 10:17:14.82	319.66	38.81	-51.2	-52.7	15.1	0.00e+00	0	27	0	983564288	69	4055
2026-01-14 10:17:15.81	319.83	38.58	-51.5	-53.0	14.9	0.00e+00	0	27	0	985661440	69	4220
2026-01-14 10:17:16.80	320.01	38.35	-52.3	-54.0	14.5	0.00e+00	0	27	0	987758592	69	4736
2026-01-14 10:17:17.80	320.18	38.12	-53.3	-55.2	14.3	0.00e+00	0	27	0	989855744	71	4853
2026-01-14 10:17:18.80	320.35	37.89	-53.7	-55.7	14.1	0.00e+00	0	27	0	990904320	72	4865
2026-01-14 10:17:19.79	320.51	37.67	-53.2	-55.2	14.4	0.00e+00	0	27	0	993001472	72	4555
2026-01-14 10:17:20.79	320.68	37.45	-52.6	-54.3	14.6	0.00e+00	0	27	0	995098624	71	4380
2026-01-14 10:17:21.79	320.84	37.22	-52.1	-53.7	14.8	0.00e+00	0	27	0	997195776	70	4311
2026-01-14 10:17:22.78	321.00	37.00	-51.8	-53.4	14.9	0.00e+00	0	27	0	998244352	70	4149
2026-01-14 10:17:23.77	321.16	36.78	-51.2	-52.6	15.1	0.00e+00	0	27	0	1000341504	69	4033
2026-01-14 10:17:24.76	321.31	36.57	-51.2	-52.6	14.9	0.00e+00	0	27	0	1002438656	68	4281
2026-01-14 10:17:25.75	321.46	36.35	-51.7	-53.2	14.7	0.00e+00	0	27	0	1004535808	68	4571
2026-01-14 10:17:26.74	321.61	36.13	-52.3	-54.0	14.5	0.00e+00	0	27	0	1006632960	69	4711
2026-01-14 10:17:27.74	321.76	35.92	-53.0	-54.9	14.4	0.00e+00	0	27	0	1007681536	71	4669
2026-01-14 10:17:28.72	321.91	35.71	-53.4	-55.3	14.2	0.00e+00	0	27	0	1009778688	71	4915
2026-01-14 10:17:29.72	322.06	35.49	-53.7	-55.8	14.1	0.00e+00	0	27	0	1011875840	72	4921
2026-01-14 10:17:30.71	322.20	35.28	-54.0	-56.1	14.0	0.00e+00	0	27	0	1013972992	73	4807
2026-01-14 10:17:31.71	322.34	35.07	-53.6	-55.6	14.3	0.00e+00	0	27	0	1015021568	73	4545
2026-01-14 10:17:32.71	322.48	34.86	-53.4	-55.3	14.4	0.00e+00	0	27	0	1017118720	73	4391
2026-01-14 10:17:33.71	322.62	34.65	-52.9	-54.8	14.5	0.00e+00	0	27	0	1019215872	72	4343
2026-01-14 10:17:34.71	322.76	34.45	-52.6	-54.3	14.6	0.00e+00	0	27	0	1021313024	71	4363
2026-01-14 10:17:35.70	322.90	34.24	-52.3	-53.9	14.8	0.00e+00	0	27	0	1023410176	71	4180
2026-01-14 10:17:36.69	323.03	34.04	-52.2	-53.8	14.7	0.00e+00	0	27	0	1024458752	70	4385
2026-01-14 10:17:37.68	323.16	33.84	-52.3	-53.9	14.6	0.00e+00	0	27	0	1026555904	70	4419
2026-01-14 10:17:38.68	323.29	33.63	-52.4	-54.1	14.6	0.00e+00	0	27	0	1028653056	70	4525
2026-01-14 10:17:39.67	323.42	33.43	-52.7	-54.5	14.4	0.00e+00	0	27	0	1030750208	70	4732
2026-01-14 10:17:40.68	323.55	33.23	-53.1	-54.9	14.3	0.00e+00	0	27	0	1031798784	71	4695
2026-01-14 10:17:41.67	323.68	33.03	-53.3	-55.2	14.2	0.00e+00	0	27	0	1033895936	71	4839
2026-01-14 10:17:42.66	323.80	32.84	-53.7	-55.7	14.1	0.00e+00	0	27	0	1035993088	72	4837
2026-01-14 10:17:43.66	323.92	32.64	-53.6	-55.6	14.2	0.00e+00	0	27	0	1038090240	72	4775
2026-01-14 10:17:44.66	324.05	32.45	-53.4	-55.4	14.2	0.00e+00	0	27	0	1040187392	72	4679
2026-01-14 10:17:45.65	324.16	32.25	-53.4	-55.4	14.2	0.00e+00	0	27	0	1041235968	72	4666
2026-01-14 10:17:46.64	324.28	32.06	-53.5	-55.5	14.2	0.00e+00	0	27	0	1043333120	72	4748
2026-01-14 10:17:47.64	324.40	31.87	-53.8	-55.9	14.0	0.00e+00	0	27	0	1045430272	72	4939
2026-01-14 10:17:48.63	324.52	31.68	-54.1	-56.2	14.0	0.00e+00	0	27	0	1047527424	73	4870
2026-01-14 10:17:49.62	324.63	31.49	-54.4	-56.7	13.7	0.00e+00	0	27	0	1048576000	73	5154
2026-01-14 10:17:50.61	324.74	31.30	-54.7	-57.2	13.6	0.00e+00	0	27	0	1050673152	74	5121
2026-01-14 10:17:51.60	324.86	31.12	-54.9	-57.5	13.5	0.00e+00	0	27	0	1052770304	75	5026
2026-01-14 10:17:52.60	324.97	30.93	-54.8	-57.3	13.6	0.00e+00	0	27	0	1054867456	75	4892
2026-01-14 10:17:53.60	325.08	30.75	-54.7	-57.2	13.7	0.00e+00	0	27	0	1056964608	75	4817
2026-01-14 10:17:54.59	325.19	30.56	-54.4	-56.8	13.9	0.00e+00	0	27	0	1058013184	75	4601
2026-01-14 10:17:55.58	325.29	30.38	-54.1	-56.3	14.0	0.00e+00	0	27	0	1060110336	74	4617
2026-01-14 10:17:56.57	325.40	30.20	-53.7	-55.8	14.3	0.00e+00	0	27	0	1062207488	74	4363
2026-01-14 10:17:57.56	325.50	30.02	-53.6	-55.6	14.3	0.00e+00	0	27	0	1064304640	73	4506
2026-01-14 10:17:58.56	325.61	29.84	-53.4	-55.4	14.3	0.00e+00	0	27	0	1065353216	73	4403
2026-01-14 10:17:59.55	325.71	29.66	-53.3	-55.2	14.4	0.00e+00	0	27	0	1067450368	73	4335
2026-01-14 10:18:00.55	325.81	29.48	-53.5	-55.5	14.3	0.00e+00	0	27	0	1069547520	73	4447
2026-01-14 10:18:01.54	325.91	29.31	-53.6	-55.6	14.3	0.00e+00	0	27	0	1071644672	73	4514
2026-01-14 10:18:02.54	326.02	29.13	-53.6	-55.7	14.2	0.00e+00	0	27	0	1073741824	73	4565
2026-01-14 10:18:03.53	326.11	28.96	-53.7	-55.7	14.1	0.00e+00	0	27	0	1074790400	73	4594
2026-01-14 10:18:04.52	326.21	28.79	-53.6	-55.7	14.2	0.00e+00	0	27	0	1076887552	73	4574
2026-01-14 10:18:05.51	326.31	28.61	-53.7	-55.8	14.1	0.00e+00	0	27	0	1078984704	73	4629
2026-01-14 10:18:06.51	326.40	28.44	-53.8	-55.9	14.1	0.00e+00	0	27	0	1081081856	73	4688
2026-01-14 10:18:07.51	326.50	28.27	-53.7	-55.8	14.1	0.00e+00	0	27	0	1082130432	73	4631
2026-01-14 10:18:08.50	326.59	28.10	-53.8	-55.9	14.1	0.00e+00	0	27	0	1084227584	73	4660
2026-01-14 10:18:09.50	326.69	27.93	-53.6	-55.7	14.2	0.00e+00	0	27	0	1086324736	73	4546
2026-01-14 10:18:10.49	326.78	27.76	-53.4	-55.4	14.4	0.00e+00	0	27	0	1088421888	73	4403
2026-01-14 10:18:11.48	326.87	27.60	-53.3	-55.3	14.4	0.00e+00	0	27	0	1090519040	73	4369
2026-01-14 10:18:12.48	326.96	27.43	-53.1	-55.0	14.4	0.00e+00	0	27	0	1091567616	72	4448
2026-01-14 10:18:13.48	327.05	27.27	-53.1	-54.9	14.4	0.00e+00	0	27	0	1093664768	72	4434
2026-01-14 10:18:14.47	327.14	27.10	-52.9	-54.7	14.5	0.00e+00	0	27	0	1095761920	72	4337
2026-01-14 10:18:15.47	327.23	26.94	-52.9	-54.7	14.5	0.00e+00	0	27	0	1097859072	72	4321
2026-01-14 10:18:16.46	327.31	26.78	-52.6	-54.4	14.5	0.00e+00	0	27	0	1098907648	71	4413
2026-01-14 10:18:17.46	327.40	26.62	-52.5	-54.2	14.6	0.00e+00	0	27	0	1101004800	71	4317
2026-01-14 10:18:18.46	327.48	26.45	-52.5	-54.2	14.6	0.00e+00	0	27	0	1103101952	71	4329
2026-01-14 10:18:19.45	327.57	26.30	-52.5	-54.2	14.6	0.00e+00	0	27	0	1105199104	71	4313
2026-01-14 10:18:20.44	327.65	26.14	-52.4	-54.2	14.7	0.00e+00	0	27	0	1107296256	71	4301
2026-01-14 10:18:21.43	327.73	25.98	-52.5	-54.2	14.6	0.00e+00	0	27	0	1108344832	71	4329
2026-01-14 10:18:22.42	327.81	25.83	-52.5	-54.3	14.6	0.00e+00	0	27	0	1110441984	71	4344
2026-01-14 10:18:23.41	327.90	25.67	-52.6	-54.3	14.6	0.00e+00	0	27	0	1112539136	71	4391
2026-01-14 10:18:24.41	327.98	25.51	-52.6	-54.3	14.6	0.00e+00	0	27	0	1114636288	71	4378
2026-01-14 10:18:25.41	328.06	25.36	-52.7	-54.5	14.5	0.00e+00	0	27	0	1115684864	71	4448
2026-01-14 10:18:26.41	328.14	25.21	-52.7	-54.5	14.5	0.00e+00	0	27	0	1117782016	71	4490
2026-01-14 10:18:27.41	328.21	25.05	-52.8	-54.6	14.4	0.00e+00	0	27	0	1119879168	71	4541
2026-01-14 10:18:28.39	328.29	24.90	-52.8	-54.7	14.4	0.00e+00	0	27	0	1121976320	71	4558
2026-01-14 10:18:29.39	328.37	24.75	-52.8	-54.7	14.4	0.00e+00	0	27	0	1124073472	71	4570
2026-01-14 10:18:30.38	328.44	24.60	-52.8	-54.7	14.4	0.00e+00	0	27	0	1125122048	71	4570
2026-01-14 10:18:31.37	328.52	24.45	-52.6	-54.4	14.5	0.00e+00	0	27	0	1127219200	71	4421
2026-01-14 10:18:32.37	328.59	24.30	-52.5	-54.3	14.6	0.00e+00	0	27	0	1129316352	71	4375
2026-01-14 10:18:33.36	328.67	24.16	-52.5	-54.3	14.6	0.00e+00	0	27	0	1131413504	71	4375
2026-01-14 10:18:34.36	328.74	24.01	-52.3	-54.1	14.7	0.00e+00	0	27	0	1132462080	71	4245
2026-01-14 10:18:35.34	328.81	23.86	-52.1	-53.8	14.7	0.00e+00	0	27	0	1134559232	70	4351
2026-01-14 10:18:36.34	328.89	23.72	-51.9	-53.6	14.8	0.00e+00	0	27	0	1136656384	70	4243
2026-01-14 10:18:37.33	328.96	23.57	-51.9	-53.5	14.8	0.00e+00	0	27	0	1138753536	70	4237
2026-01-14 10:18:38.33	329.03	23.43	-51.9	-53.6	14.7	0.00e+00	0	27	0	1140850688	70	4259
2026-01-14 10:18:39.32	329.10	23.29	-51.7	-53.3	14.9	0.00e+00	0	27	0	1141899264	70	4136
2026-01-14 10:18:40.32	329.17	23.14	-51.4	-52.9	14.9	0.00e+00	0	27	0	1143996416	69	4192
2026-01-14 10:18:41.31	329.24	23.00	-51.4	-52.9	14.9	0.00e+00	0	27	0	1146093568	69	4173
2026-01-14 10:18:42.30	329.31	22.86	-51.4	-52.9	14.9	0.00e+00	0	28	0	1148190720	69	4185
2026-01-14 10:18:43.30	329.38	22.72	-51.2	-52.7	15.0	0.00e+00	0	27	0	1149239296	69	4091
2026-01-14 10:18:44.29	329.44	22.58	-51.2	-52.7	15.0	0.00e+00	0	27	0	1151336448	69	4092
2026-01-14 10:18:45.29	329.51	22.45	-51.3	-52.8	14.9	0.00e+00	0	27	0	1153433600	69	4114
2026-01-14 10:18:46.30	329.58	22.30	-51.3	-52.8	14.9	0.00e+00	0	27	0	1155530752	69	4121
2026-01-14 10:18:47.29	329.64	22.17	-51.2	-52.7	14.8	0.00e+00	0	27	0	1157627904	68	4307
2026-01-14 10:18:48.29	329.71	22.03	-51.3	-52.9	14.8	0.00e+00	0	27	0	1158676480	68	4405
2026-01-14 10:18:49.28	329.77	21.90	-51.4	-53.0	14.7	0.00e+00	0	27	0	1160773632	68	4470
2026-01-14 10:18:50.28	329.84	21.76	-51.5	-53.1	14.7	0.00e+00	0	27	0	1162870784	68	4510
2026-01-14 10:18:51.27	329.90	21.63	-51.5	-53.1	14.7	0.00e+00	0	27	0	1164967936	68	4542
2026-01-14 10:18:52.27	329.96	21.49	-51.7	-53.3	14.6	0.00e+00	0	27	0	1166016512	68	4627
2026-01-14 10:18:53.27	330.03	21.36	-51.8	-53.4	14.6	0.00e+00	0	27	0	1168113664	68	4699
2026-01-14 10:18:54.26	330.09	21.23	-51.8	-53.5	14.5	0.00e+00	0	27	0	1170210816	68	4713
2026-01-14 10:18:55.26	330.15	21.09	-51.8	-53.5	14.5	0.00e+00	0	27	0	1172307968	68	4743
2026-01-14 10:18:56.26	330.21	20.96	-51.9	-53.6	14.5	0.00e+00	0	27	0	1174405120	68	4790
2026-01-14 10:18:57.27	330.27	20.83	-51.9	-53.6	14.6	0.00e+00	0	27	0	1175453696	69	4527
2026-01-14 10:18:58.27	330.34	20.70	-51.9	-53.6	14.6	0.00e+00	0	27	0	1177550848	69	4529
2026-01-14 10:18:59.26	330.39	20.57	-51.9	-53.6	14.6	0.00e+00	0	27	0	1179648000	69	4525
2026-01-14 10:19:00.25	330.45	20.44	-51.9	-53.6	14.6	0.00e+00	0	27	0	1181745152	69	4498
2026-01-14 10:19:01.25	330.51	20.31	-51.8	-53.5	14.6	0.00e+00	0	27	0	1182793728	69	4460
2026-01-14 10:19:02.25	330.57	20.19	-51.8	-53.4	14.7	0.00e+00	0	27	0	1184890880	69	4423
2026-01-14 10:19:03.24	330.63	20.06	-51.8	-53.5	14.7	0.00e+00	0	27	0	1186988032	69	4444
2026-01-14 10:19:04.24	330.69	19.93	-51.7	-53.3	14.7	0.00e+00	0	27	0	1189085184	69	4373
2026-01-14 10:19:05.24	330.74	19.81	-51.6	-53.3	14.7	0.00e+00	0	27	0	1191182336	69	4350
2026-01-14 10:19:06.23	330.80	19.68	-51.5	-53.1	14.8	0.00e+00	0	27	0	1192230912	69	4254
2026-01-14 10:19:07.23	330.86	19.56	-51.6	-53.2	14.8	0.00e+00	0	27	0	1194328064	69	4294
2026-01-14 10:19:08.24	330.91	19.43	-51.5	-53.1	14.8	0.00e+00	0	27	0	1196425216	69	4254
2026-01-14 10:19:09.23	330.97	19.31	-51.5	-53.1	14.8	0.00e+00	0	27	0	1198522368	69	4250
2026-01-14 10:19:10.22	331.02	19.19	-51.3	-52.9	14.9	0.00e+00	0	27	0	1200619520	69	4175
2026-01-14 10:19:11.21	331.08	19.07	-51.4	-53.0	14.8	0.00e+00	0	27	0	1201668096	69	4236
2026-01-14 10:19:12.21	331.13	18.95	-51.4	-53.0	14.9	0.00e+00	0	27	0	1203765248	69	4199
2026-01-14 10:19:13.21	331.19	18.83	-51.5	-53.1	14.8	0.00e+00	0	27	0	1205862400	69	4255
2026-01-14 10:19:14.20	331.24	18.71	-51.4	-53.0	14.8	0.00e+00	0	27	0	1207959552	69	4232
2026-01-14 10:19:15.20	331.29	18.59	-51.4	-53.0	14.9	0.00e+00	0	27	0	1209008128	69	4196
2026-01-14 10:19:16.19	331.35	18.47	-51.4	-53.0	14.8	0.00e+00	0	27	0	1211105280	69	4232
2026-01-14 10:19:17.18	331.40	18.35	-51.5	-53.1	14.8	0.00e+00	0	27	0	1213202432	69	4267
2026-01-14 10:19:18.18	331.45	18.23	-51.6	-53.2	14.7	0.00e+00	0	27	0	1215299584	69	4335
2026-01-14 10:19:19.17	331.50	18.11	-51.6	-53.3	14.7	0.00e+00	0	27	0	1217396736	69	4346
2026-01-14 10:19:20.17	331.55	18.00	-51.7	-53.4	14.7	0.00e+00	0	27	0	1218445312	69	4410
2026-01-14 10:19:21.16	331.60	17.88	-51.7	-53.4	14.7	0.00e+00	0	27	0	1220542464	69	4392
2026-01-14 10:19:22.16	331.65	17.76	-51.8	-53.5	14.6	0.00e+00	0	27	0	1222639616	69	4470
2026-01-14 10:19:23.16	331.70	17.65	-51.9	-53.6	14.6	0.00e+00	0	27	0	1224736768	69	4495
2026-01-14 10:19:24.15	331.75	17.53	-51.9	-53.6	14.6	0.00e+00	0	27	0	1225785344	69	4514
2026-01-14 10:19:25.14	331.80	17.42	-51.9	-53.6	14.6	0.00e+00	0	27	0	1227882496	69	4536
