passes_logs/2026/01/14/R3.2S_Murmansk/R3.2S_Murmansk__20260114_044352_KANOPUS-V_5_rec.log

#Pass ID: 20260114_044352_KANOPUS-V 5
#Satellite: KANOPUS-V 5
#Configuration: KANOPUS-V_8320
#almurnet v.1.7.20251203
#Start time: 2026-01-14 04:43:53

#Version: 2.2.20231116
#Station: R3.2S_Murmansk
#Location: 33.079688 lon 68.888172 lat
#TLE: 1 43876U 18111A   26013.65992293  .00002361  00000+0  10210-3 0  9995
#TLE: 2 43876  97.3684 282.1984 0001772  87.0401 273.1039 15.23431305391261

#Time	Az	El	Level	Level2	SNR	BER	BlckErr	Temp	State	Recorded	gain1	gain2
2026-01-14 04:43:53.25	80.52	2.03	-55.5	-65.2	3.8	7.45e-01	0	26	0	0	74	11513
2026-01-14 04:43:54.26	80.41	2.09	-55.6	-65.3	3.8	7.46e-01	0	26	104	0	75	10973
2026-01-14 04:43:55.27	80.30	2.14	-55.6	-65.3	3.8	7.45e-01	0	26	104	0	75	10934
2026-01-14 04:43:56.28	80.19	2.20	-55.5	-65.3	3.8	7.45e-01	0	26	104	0	75	10936
2026-01-14 04:43:57.29	80.08	2.26	-55.6	-65.3	3.8	7.47e-01	0	26	104	0	75	10949
2026-01-14 04:43:58.29	79.98	2.32	-55.6	-65.3	3.8	7.46e-01	0	26	104	0	75	10958
2026-01-14 04:43:59.30	79.86	2.38	-55.6	-65.3	3.8	7.46e-01	0	26	104	0	75	10984
2026-01-14 04:44:00.31	79.75	2.44	-55.6	-65.3	3.8	7.45e-01	0	26	104	0	75	10955
2026-01-14 04:44:01.32	79.64	2.49	-55.6	-65.3	3.8	7.45e-01	0	26	104	0	75	11003
2026-01-14 04:44:02.33	79.53	2.55	-55.6	-65.3	3.8	7.45e-01	0	26	104	0	75	10968
2026-01-14 04:44:03.34	79.42	2.61	-55.6	-65.3	3.8	7.46e-01	0	26	104	0	75	11025
2026-01-14 04:44:04.35	79.30	2.67	-55.6	-65.3	3.8	7.46e-01	0	26	104	0	75	11019
2026-01-14 04:44:05.36	79.19	2.73	-55.6	-65.3	3.8	7.45e-01	0	26	104	0	75	10973
2026-01-14 04:44:06.36	79.08	2.79	-55.6	-65.3	3.8	7.46e-01	0	26	104	0	75	10988
2026-01-14 04:44:07.37	78.96	2.85	-55.6	-65.3	3.8	7.47e-01	0	26	104	0	75	10994
2026-01-14 04:44:08.38	78.85	2.91	-55.6	-65.3	3.8	7.45e-01	0	26	104	0	75	10989
2026-01-14 04:44:09.39	78.73	2.97	-55.6	-65.3	3.8	7.45e-01	0	26	104	0	75	10956
2026-01-14 04:44:10.40	78.61	3.03	-55.6	-65.4	3.8	7.46e-01	0	26	104	0	75	11046
2026-01-14 04:44:11.41	78.49	3.09	-55.6	-65.3	3.8	7.46e-01	0	26	104	0	75	11000
2026-01-14 04:44:12.42	78.38	3.14	-55.6	-65.3	3.8	7.46e-01	0	26	104	0	75	10984
2026-01-14 04:44:13.43	78.26	3.20	-55.6	-65.3	3.8	7.46e-01	0	26	104	0	75	11026
2026-01-14 04:44:14.44	78.14	3.26	-55.6	-65.4	3.8	7.46e-01	0	26	104	0	75	11061
2026-01-14 04:44:15.45	78.02	3.32	-55.6	-65.4	3.8	7.45e-01	0	26	104	0	75	11061
2026-01-14 04:44:16.45	77.90	3.38	-55.6	-65.3	3.8	7.46e-01	0	26	104	0	75	11027
2026-01-14 04:44:17.46	77.78	3.44	-55.6	-65.3	3.8	7.46e-01	0	26	104	0	75	10975
2026-01-14 04:44:18.47	77.65	3.50	-55.6	-65.3	3.8	7.46e-01	0	26	104	0	75	11013
2026-01-14 04:44:19.48	77.53	3.56	-55.6	-65.3	3.8	7.47e-01	0	26	104	0	75	10977
2026-01-14 04:44:20.49	77.41	3.62	-55.6	-65.4	3.8	7.46e-01	0	26	104	0	75	11035
2026-01-14 04:44:21.50	77.28	3.68	-55.6	-65.3	3.8	7.46e-01	0	26	104	0	75	11019
2026-01-14 04:44:22.51	77.16	3.74	-55.6	-65.4	3.8	7.45e-01	0	26	104	0	75	11054
2026-01-14 04:44:23.52	77.03	3.80	-55.6	-65.4	3.8	7.46e-01	0	26	104	0	75	11032
2026-01-14 04:44:24.52	76.91	3.86	-55.6	-65.4	3.8	7.45e-01	0	26	104	0	75	11051
2026-01-14 04:44:25.54	76.78	3.93	-55.6	-65.4	3.8	7.45e-01	0	26	104	0	75	11070
2026-01-14 04:44:26.55	76.65	3.99	-55.6	-65.4	3.8	7.45e-01	0	26	104	0	75	11053
2026-01-14 04:44:27.56	76.53	4.05	-55.6	-65.4	3.8	7.45e-01	0	26	104	0	75	11031
2026-01-14 04:44:28.57	76.40	4.11	-55.6	-65.4	3.8	7.45e-01	0	26	104	0	75	11070
2026-01-14 04:44:29.57	76.27	4.17	-55.6	-65.4	3.8	7.44e-01	0	26	104	0	75	11059
2026-01-14 04:44:30.58	76.14	4.23	-55.6	-65.4	3.8	7.45e-01	0	26	104	0	75	11044
2026-01-14 04:44:31.59	76.01	4.29	-55.6	-65.3	3.8	7.46e-01	0	27	104	0	75	11026
2026-01-14 04:44:32.60	75.88	4.35	-55.6	-65.4	3.8	7.46e-01	0	27	104	0	75	11054
2026-01-14 04:44:33.61	75.74	4.41	-55.6	-65.4	3.8	7.44e-01	0	27	104	0	75	11030
2026-01-14 04:44:34.62	75.61	4.47	-55.6	-65.4	3.8	7.45e-01	0	27	104	0	75	11063
2026-01-14 04:44:35.62	75.48	4.53	-55.6	-65.4	3.8	7.45e-01	0	27	104	0	75	11035
2026-01-14 04:44:36.63	75.34	4.60	-55.6	-65.4	3.8	7.46e-01	0	27	104	0	75	11103
2026-01-14 04:44:37.64	75.21	4.66	-55.6	-65.4	3.8	7.45e-01	0	27	104	0	75	11059
2026-01-14 04:44:38.65	75.07	4.72	-55.6	-65.4	3.8	7.46e-01	0	27	104	0	75	11096
2026-01-14 04:44:39.65	74.94	4.78	-55.6	-65.4	3.8	7.48e-01	0	26	104	0	75	11099
2026-01-14 04:44:40.67	74.80	4.84	-55.6	-65.4	3.8	7.44e-01	0	27	104	0	75	11100
2026-01-14 04:44:41.67	74.66	4.90	-55.6	-65.4	3.8	7.46e-01	0	27	104	0	75	11103
2026-01-14 04:44:42.68	74.52	4.96	-55.6	-65.4	3.8	7.45e-01	0	27	104	0	75	11054
2026-01-14 04:44:43.69	74.38	5.03	-55.6	-65.4	3.8	7.47e-01	0	27	104	0	75	11077
2026-01-14 04:44:44.70	74.24	5.09	-55.6	-65.4	3.8	7.45e-01	0	27	104	0	75	11059
2026-01-14 04:44:45.70	74.10	5.15	-55.6	-65.4	3.8	7.45e-01	0	27	104	0	75	11076
2026-01-14 04:44:46.71	73.96	5.21	-55.6	-65.4	3.8	7.46e-01	0	27	104	0	75	11099
2026-01-14 04:44:47.72	73.81	5.27	-55.6	-65.4	3.8	7.44e-01	0	27	104	0	75	11089
2026-01-14 04:44:48.72	73.67	5.33	-55.6	-65.4	3.8	7.46e-01	0	27	104	0	75	11070
2026-01-14 04:44:49.74	73.53	5.40	-55.6	-65.4	3.8	7.45e-01	0	27	104	0	75	11060
2026-01-14 04:44:50.75	73.38	5.46	-55.6	-65.4	3.8	7.46e-01	0	27	104	0	75	11046
2026-01-14 04:44:51.75	73.24	5.52	-55.6	-65.4	3.8	7.45e-01	0	27	104	0	75	11088
2026-01-14 04:44:52.76	73.09	5.58	-55.6	-65.4	3.8	7.45e-01	0	27	104	0	75	11086
2026-01-14 04:44:53.77	72.94	5.65	-55.6	-65.4	3.8	7.44e-01	0	27	104	0	75	11098
2026-01-14 04:44:54.78	72.79	5.71	-55.6	-65.4	3.8	7.46e-01	0	27	104	0	75	11085
2026-01-14 04:44:55.79	72.64	5.77	-55.6	-65.4	3.8	7.45e-01	0	27	104	0	75	11095
2026-01-14 04:44:56.80	72.49	5.83	-55.7	-65.4	3.8	7.46e-01	0	27	104	0	75	11104
2026-01-14 04:44:57.81	72.34	5.90	-55.7	-65.4	3.8	7.44e-01	0	27	104	0	75	11111
2026-01-14 04:44:58.81	72.19	5.96	-55.6	-65.4	3.8	7.46e-01	0	27	104	0	75	11049
2026-01-14 04:44:59.82	72.04	6.02	-55.7	-65.4	3.8	7.47e-01	0	27	104	0	75	11080
2026-01-14 04:45:00.83	71.89	6.08	-55.6	-65.4	3.8	7.45e-01	0	27	104	0	75	11076
2026-01-14 04:45:01.84	71.73	6.15	-55.7	-65.4	3.8	7.46e-01	0	27	104	0	75	11068
2026-01-14 04:45:02.85	71.58	6.21	-55.7	-65.4	3.8	7.46e-01	0	27	104	0	75	11121
2026-01-14 04:45:03.86	71.42	6.27	-55.7	-65.4	3.8	7.46e-01	0	27	104	0	75	11105
2026-01-14 04:45:04.87	71.26	6.33	-55.6	-65.4	3.8	7.45e-01	0	27	104	0	75	11104
2026-01-14 04:45:05.88	71.10	6.40	-55.7	-65.4	3.8	7.46e-01	0	27	104	0	75	11101
2026-01-14 04:45:06.89	70.95	6.46	-55.7	-65.4	3.8	7.46e-01	0	27	104	0	75	11109
2026-01-14 04:45:07.90	70.79	6.52	-55.7	-65.4	3.8	7.46e-01	0	27	104	0	75	11108
2026-01-14 04:45:08.90	70.63	6.58	-55.7	-65.4	3.8	7.44e-01	0	27	104	0	75	11109
2026-01-14 04:45:09.91	70.47	6.65	-55.6	-65.4	3.8	7.46e-01	0	27	104	0	75	11092
2026-01-14 04:45:10.93	70.30	6.71	-55.7	-65.4	3.8	7.46e-01	0	27	104	0	75	11132
2026-01-14 04:45:11.94	70.14	6.77	-55.7	-65.4	3.8	7.45e-01	0	27	104	0	75	11063
2026-01-14 04:45:12.95	69.97	6.84	-55.7	-65.4	3.8	7.45e-01	0	27	104	0	75	11101
2026-01-14 04:45:13.96	69.81	6.90	-55.7	-65.4	3.8	7.45e-01	0	27	104	0	75	11045
2026-01-14 04:45:14.97	69.64	6.96	-55.7	-65.4	3.8	7.46e-01	0	27	104	0	75	11102
2026-01-14 04:45:15.97	69.48	7.03	-55.7	-65.4	3.8	7.46e-01	0	27	104	0	75	11149
2026-01-14 04:45:16.98	69.31	7.09	-55.7	-65.4	3.8	7.44e-01	0	27	104	0	75	11069
2026-01-14 04:45:17.99	69.14	7.15	-55.7	-65.4	3.8	7.45e-01	0	27	104	0	75	11098
2026-01-14 04:45:18.99	68.97	7.21	-55.7	-65.4	3.8	7.45e-01	0	27	104	0	75	11102
2026-01-14 04:45:20.01	68.80	7.28	-55.7	-65.4	3.8	7.45e-01	0	27	104	0	75	11090
2026-01-14 04:45:21.01	68.63	7.34	-55.7	-65.4	3.8	7.45e-01	0	27	104	0	75	11139
2026-01-14 04:45:22.02	68.46	7.40	-55.7	-65.4	3.8	7.45e-01	0	27	104	0	75	11099
2026-01-14 04:45:23.02	68.29	7.47	-55.7	-65.4	3.8	7.45e-01	0	27	104	0	75	11052
2026-01-14 04:45:24.03	68.11	7.53	-55.7	-65.4	3.8	7.45e-01	0	27	104	0	75	11093
2026-01-14 04:45:25.04	67.94	7.59	-55.7	-65.4	3.8	7.46e-01	0	27	104	0	75	11104
2026-01-14 04:45:26.05	67.76	7.66	-55.7	-65.4	3.8	7.46e-01	0	27	104	0	75	11079
2026-01-14 04:45:27.06	67.58	7.72	-55.7	-65.4	3.8	7.46e-01	0	27	104	0	75	11137
2026-01-14 04:45:28.07	67.40	7.78	-55.7	-65.4	3.8	7.47e-01	0	27	104	0	75	11118
2026-01-14 04:45:29.07	67.23	7.84	-55.7	-65.4	3.8	7.45e-01	0	27	104	0	75	11121
2026-01-14 04:45:30.09	67.04	7.91	-55.7	-65.4	3.8	7.46e-01	0	27	104	0	75	11124
2026-01-14 04:45:31.10	66.86	7.97	-55.7	-65.4	3.8	7.47e-01	0	27	104	0	75	11086
2026-01-14 04:45:32.11	66.68	8.03	-55.7	-65.4	3.8	7.46e-01	0	27	104	0	75	11102
2026-01-14 04:45:33.11	66.50	8.10	-55.7	-65.4	3.8	7.45e-01	0	27	104	0	75	11097
2026-01-14 04:45:34.12	66.32	8.16	-55.7	-65.4	3.8	7.44e-01	0	27	104	0	75	11135
2026-01-14 04:45:35.13	66.13	8.22	-55.7	-65.4	3.8	7.45e-01	0	27	104	0	75	11113
2026-01-14 04:45:36.14	65.94	8.29	-55.7	-65.5	3.8	7.47e-01	0	27	104	0	75	11162
2026-01-14 04:45:37.14	65.76	8.35	-55.7	-65.4	3.8	7.46e-01	0	27	104	0	75	11138
2026-01-14 04:45:38.15	65.57	8.41	-55.7	-65.5	3.8	7.45e-01	0	27	104	0	75	11168
2026-01-14 04:45:39.16	65.38	8.47	-55.7	-65.4	3.8	7.46e-01	0	27	104	0	75	11129
2026-01-14 04:45:40.17	65.19	8.54	-55.7	-65.4	3.8	7.46e-01	0	27	104	0	75	11109
2026-01-14 04:45:41.18	65.00	8.60	-55.7	-65.4	3.8	7.45e-01	0	27	104	0	75	11129
2026-01-14 04:45:42.19	64.81	8.66	-55.7	-65.4	3.8	7.44e-01	0	27	104	0	75	11144
2026-01-14 04:45:43.20	64.61	8.73	-55.7	-65.4	3.8	7.48e-01	0	27	104	0	75	11140
2026-01-14 04:45:44.21	64.42	8.79	-55.7	-65.4	3.8	7.46e-01	0	27	104	0	75	11149
2026-01-14 04:45:45.22	64.22	8.85	-55.7	-65.5	3.8	7.45e-01	0	27	104	0	75	11167
2026-01-14 04:45:46.23	64.03	8.91	-55.7	-65.4	3.8	7.46e-01	0	27	104	0	75	11140
2026-01-14 04:45:47.24	63.83	8.98	-55.7	-65.4	3.8	7.45e-01	0	27	104	0	75	11136
2026-01-14 04:45:48.25	63.63	9.04	-55.7	-65.5	3.8	7.47e-01	0	27	104	0	75	11178
2026-01-14 04:45:49.26	63.43	9.10	-55.7	-65.4	3.8	7.43e-01	0	27	104	0	75	11063
2026-01-14 04:45:50.27	63.23	9.16	-55.7	-65.4	3.8	7.45e-01	0	27	104	0	75	11145
2026-01-14 04:45:51.28	63.03	9.22	-55.7	-65.4	3.8	7.46e-01	0	27	104	0	75	11134
2026-01-14 04:45:52.29	62.82	9.29	-55.7	-65.4	3.8	7.46e-01	0	27	104	0	75	11133
2026-01-14 04:45:53.29	62.62	9.35	-55.7	-65.4	3.8	7.45e-01	0	27	104	0	75	11081
2026-01-14 04:45:54.30	62.42	9.41	-55.7	-65.5	3.8	7.45e-01	0	27	104	0	75	11163
2026-01-14 04:45:55.31	62.21	9.47	-55.7	-65.4	3.8	7.45e-01	0	27	104	0	75	11122
2026-01-14 04:45:56.31	62.00	9.53	-55.7	-65.4	3.8	7.44e-01	0	27	104	0	75	11134
2026-01-14 04:45:57.32	61.79	9.59	-55.7	-65.4	3.8	7.45e-01	0	27	104	0	75	11152
2026-01-14 04:45:58.33	61.58	9.66	-55.7	-65.4	3.8	7.45e-01	0	27	104	0	75	11099
2026-01-14 04:45:59.34	61.37	9.72	-55.7	-65.4	3.8	7.48e-01	0	28	104	0	75	11155
2026-01-14 04:46:00.35	61.16	9.78	-55.7	-65.5	3.8	7.47e-01	0	27	104	0	75	11194
2026-01-14 04:46:01.37	60.95	9.84	-55.7	-65.5	3.8	7.47e-01	0	27	104	0	75	11161
2026-01-14 04:46:02.38	60.73	9.90	-55.7	-65.5	3.8	7.45e-01	0	27	104	0	75	11193
2026-01-14 04:46:03.38	60.52	9.96	-55.7	-65.4	3.8	7.46e-01	0	27	104	0	75	11135
2026-01-14 04:46:04.40	60.30	10.02	-55.7	-65.5	3.8	7.44e-01	0	27	104	0	75	11171
2026-01-14 04:46:05.41	60.08	10.08	-55.7	-65.4	3.8	7.44e-01	0	27	104	0	75	11101
2026-01-14 04:46:06.42	59.86	10.15	-55.7	-65.5	3.8	7.46e-01	0	27	104	0	75	11162
2026-01-14 04:46:07.43	59.65	10.21	-55.7	-65.4	3.8	7.45e-01	0	28	104	0	75	11145
2026-01-14 04:46:08.44	59.42	10.27	-55.7	-65.4	3.8	7.47e-01	0	27	104	0	75	11125
2026-01-14 04:46:09.44	59.20	10.33	-55.7	-65.4	3.8	7.47e-01	0	27	104	0	75	11143
2026-01-14 04:46:10.46	58.98	10.39	-55.7	-65.5	3.8	7.46e-01	0	28	104	0	75	11176
2026-01-14 04:46:11.47	58.75	10.45	-55.7	-65.5	3.8	7.46e-01	0	28	104	0	75	11165
2026-01-14 04:46:12.48	58.53	10.51	-55.7	-65.5	3.8	7.47e-01	0	27	104	0	75	11162
2026-01-14 04:46:13.49	58.30	10.56	-55.7	-65.4	3.8	7.44e-01	0	27	104	0	75	11111
2026-01-14 04:46:14.50	58.07	10.62	-55.7	-65.4	3.8	7.46e-01	0	28	104	0	75	11142
2026-01-14 04:46:15.51	57.85	10.68	-55.7	-65.4	3.8	7.44e-01	0	28	104	0	75	11075
2026-01-14 04:46:16.51	57.62	10.74	-55.7	-65.5	3.8	7.45e-01	0	28	104	0	75	11169
2026-01-14 04:46:17.52	57.39	10.80	-55.7	-65.5	3.8	7.46e-01	0	28	104	0	75	11178
2026-01-14 04:46:18.53	57.15	10.86	-55.7	-65.4	3.8	7.46e-01	0	28	104	0	75	11153
2026-01-14 04:46:19.53	56.92	10.92	-55.7	-65.4	3.8	7.46e-01	0	28	104	0	75	11145
2026-01-14 04:46:20.54	56.69	10.97	-55.7	-65.5	3.8	7.44e-01	0	27	104	0	75	11178
2026-01-14 04:46:21.56	56.45	11.03	-55.7	-65.5	3.8	7.45e-01	0	27	104	0	75	11185
2026-01-14 04:46:22.57	56.21	11.09	-55.7	-65.4	3.8	7.45e-01	0	28	104	0	75	11138
2026-01-14 04:46:23.57	55.98	11.15	-55.7	-65.5	3.8	7.45e-01	0	28	104	0	75	11175
2026-01-14 04:46:24.58	55.74	11.20	-55.7	-65.4	3.8	7.46e-01	0	27	104	0	75	11142
2026-01-14 04:46:25.60	55.50	11.26	-55.7	-65.4	3.8	7.46e-01	0	27	104	0	75	11107
2026-01-14 04:46:26.61	55.25	11.32	-55.7	-65.5	3.8	7.44e-01	0	28	104	0	75	11165
2026-01-14 04:46:27.62	55.01	11.38	-55.7	-65.4	3.8	7.45e-01	0	28	104	0	75	11155
2026-01-14 04:46:28.63	54.77	11.43	-55.7	-65.5	3.8	7.47e-01	0	27	104	0	75	11176
2026-01-14 04:46:29.63	54.53	11.49	-55.7	-65.5	3.8	7.47e-01	0	28	104	0	75	11179
2026-01-14 04:46:30.64	54.28	11.54	-55.7	-65.4	3.8	7.46e-01	0	27	104	0	75	11131
2026-01-14 04:46:31.65	54.03	11.60	-55.7	-65.5	3.8	7.46e-01	0	28	104	0	75	11173
2026-01-14 04:46:32.66	53.78	11.65	-55.7	-65.4	3.8	7.46e-01	0	28	104	0	75	11149
2026-01-14 04:46:33.67	53.53	11.71	-55.7	-65.5	3.8	7.46e-01	0	28	104	0	75	11217
2026-01-14 04:46:34.68	53.28	11.76	-55.7	-65.5	3.8	7.48e-01	0	27	104	0	75	11160
2026-01-14 04:46:35.68	53.03	11.82	-55.7	-65.5	3.8	7.45e-01	0	28	104	0	75	11165
2026-01-14 04:46:36.69	52.78	11.87	-55.7	-65.4	3.8	7.45e-01	0	27	104	0	75	11153
2026-01-14 04:46:37.70	52.53	11.92	-55.7	-65.4	3.8	7.45e-01	0	27	104	0	75	11151
2026-01-14 04:46:38.71	52.27	11.98	-55.7	-65.4	3.8	7.45e-01	0	28	104	0	75	11150
2026-01-14 04:46:39.72	52.02	12.03	-55.7	-65.5	3.8	7.45e-01	0	27	104	0	75	11206
2026-01-14 04:46:40.73	51.76	12.08	-55.7	-65.5	3.8	7.44e-01	0	27	104	0	75	11194
2026-01-14 04:46:41.74	51.50	12.14	-55.7	-65.5	3.8	7.47e-01	0	28	104	0	75	11166
2026-01-14 04:46:42.74	51.24	12.19	-55.7	-65.4	3.8	7.44e-01	0	28	104	0	75	11120
2026-01-14 04:46:43.75	50.98	12.24	-55.7	-65.5	3.8	7.45e-01	0	28	104	0	75	11176
2026-01-14 04:46:44.76	50.72	12.29	-55.7	-65.5	3.8	7.45e-01	0	28	104	0	75	11191
2026-01-14 04:46:45.77	50.46	12.34	-55.7	-65.5	3.8	7.45e-01	0	28	104	0	75	11183
2026-01-14 04:46:46.78	50.19	12.39	-55.7	-65.5	3.8	7.47e-01	0	27	104	0	75	11190
2026-01-14 04:46:47.79	49.93	12.44	-55.7	-65.5	3.8	7.45e-01	0	28	104	0	75	11213
2026-01-14 04:46:48.80	49.66	12.49	-55.7	-65.5	3.8	7.45e-01	0	28	104	0	75	11201
2026-01-14 04:46:49.81	49.39	12.54	-55.7	-65.4	3.8	7.46e-01	0	28	104	0	75	11124
2026-01-14 04:46:50.82	49.12	12.59	-55.7	-65.5	3.8	7.45e-01	0	28	104	0	75	11216
2026-01-14 04:46:51.82	48.86	12.64	-55.7	-65.4	3.8	7.46e-01	0	28	104	0	75	11143
2026-01-14 04:46:52.83	48.59	12.69	-55.7	-65.5	3.8	7.44e-01	0	28	104	0	75	11173
2026-01-14 04:46:53.83	48.32	12.73	-55.7	-65.4	3.8	7.46e-01	0	28	104	0	75	11120
2026-01-14 04:46:54.84	48.05	12.78	-55.7	-65.4	3.8	7.47e-01	0	28	104	0	75	11133
2026-01-14 04:46:55.85	47.77	12.83	-55.7	-65.5	3.8	7.45e-01	0	28	104	0	75	11169
2026-01-14 04:46:56.85	47.50	12.87	-55.7	-65.4	3.8	7.46e-01	0	28	104	0	75	11148
2026-01-14 04:46:57.86	47.22	12.92	-55.7	-65.4	3.8	7.46e-01	0	28	104	0	75	11094
2026-01-14 04:46:58.86	46.95	12.97	-55.7	-65.5	3.8	7.46e-01	0	28	104	0	75	11180
2026-01-14 04:46:59.87	46.67	13.01	-55.7	-65.5	3.8	7.43e-01	0	28	104	0	75	11186
2026-01-14 04:47:00.88	46.39	13.06	-55.7	-65.5	3.8	7.46e-01	0	28	104	0	75	11192
2026-01-14 04:47:01.89	46.11	13.10	-55.7	-65.5	3.8	7.45e-01	0	27	104	0	75	11160
2026-01-14 04:47:02.90	45.83	13.14	-55.7	-65.5	3.8	7.45e-01	0	27	104	0	75	11164
2026-01-14 04:47:03.90	45.55	13.19	-55.7	-65.4	3.8	7.46e-01	0	28	104	0	75	11155
2026-01-14 04:47:04.91	45.27	13.23	-55.7	-65.4	3.8	7.46e-01	0	28	104	0	75	11148
2026-01-14 04:47:05.92	44.98	13.27	-55.7	-65.5	3.8	7.46e-01	0	28	104	0	75	11181
2026-01-14 04:47:06.93	44.70	13.31	-55.7	-65.5	3.8	7.44e-01	0	28	104	0	75	11172
2026-01-14 04:47:07.94	44.41	13.36	-55.7	-65.5	3.8	7.45e-01	0	28	104	0	75	11217
2026-01-14 04:47:08.95	44.13	13.40	-55.7	-65.5	3.8	7.45e-01	0	28	104	0	75	11227
2026-01-14 04:47:09.95	43.84	13.44	-55.7	-65.5	3.8	7.45e-01	0	28	104	0	75	11184
2026-01-14 04:47:10.96	43.55	13.48	-55.7	-65.5	3.8	7.45e-01	0	28	104	0	75	11238
2026-01-14 04:47:11.98	43.26	13.52	-55.7	-65.5	3.8	7.44e-01	0	28	104	0	75	11220
2026-01-14 04:47:12.98	42.97	13.55	-55.7	-65.4	3.8	7.44e-01	0	28	104	0	75	11157
2026-01-14 04:47:13.99	42.68	13.59	-55.7	-65.5	3.8	7.46e-01	0	28	104	0	75	11218
2026-01-14 04:47:15.00	42.39	13.63	-55.7	-65.5	3.8	7.44e-01	0	28	104	0	75	11196
2026-01-14 04:47:16.01	42.09	13.67	-55.7	-65.5	3.8	7.46e-01	0	28	104	0	75	11190
2026-01-14 04:47:17.02	41.80	13.70	-55.7	-65.5	3.8	7.46e-01	0	28	104	0	75	11188
2026-01-14 04:47:18.03	41.50	13.74	-55.7	-65.5	3.8	7.44e-01	0	28	104	0	75	11171
2026-01-14 04:47:19.04	41.21	13.77	-55.7	-65.4	3.8	7.45e-01	0	28	104	0	75	11157
2026-01-14 04:47:20.05	40.91	13.81	-55.7	-65.5	3.8	7.46e-01	0	28	104	0	75	11218
2026-01-14 04:47:21.06	40.61	13.84	-55.7	-65.5	3.8	7.46e-01	0	28	104	0	75	11204
2026-01-14 04:47:22.07	40.31	13.88	-55.7	-65.5	3.8	7.46e-01	0	28	104	0	75	11200
2026-01-14 04:47:23.08	40.01	13.91	-55.7	-65.5	3.8	7.46e-01	0	28	104	0	75	11195
2026-01-14 04:47:24.09	39.71	13.94	-55.7	-65.4	3.8	7.46e-01	0	28	104	0	75	11150
2026-01-14 04:47:25.10	39.41	13.97	-55.7	-65.5	3.8	7.45e-01	0	28	104	0	75	11211
2026-01-14 04:47:26.11	39.11	14.00	-55.7	-65.5	3.8	7.47e-01	0	28	104	0	75	11184
2026-01-14 04:47:27.12	38.81	14.03	-55.7	-65.5	3.8	7.46e-01	0	27	104	0	75	11175
2026-01-14 04:47:28.13	38.51	14.06	-55.7	-65.5	3.8	7.45e-01	0	28	104	0	75	11178
2026-01-14 04:47:29.14	38.20	14.09	-55.7	-65.5	3.8	7.45e-01	0	28	104	0	75	11183
2026-01-14 04:47:30.15	37.90	14.12	-55.7	-65.5	3.8	7.45e-01	0	28	104	0	75	11197
2026-01-14 04:47:31.16	37.59	14.15	-55.7	-65.5	3.8	7.44e-01	0	28	104	0	75	11167
2026-01-14 04:47:32.17	37.29	14.18	-55.7	-65.5	3.8	7.45e-01	0	28	104	0	75	11230
2026-01-14 04:47:33.18	36.98	14.20	-55.7	-65.5	3.8	7.44e-01	0	28	104	0	75	11166
2026-01-14 04:47:34.19	36.67	14.23	-55.7	-65.5	3.8	7.45e-01	0	28	104	0	75	11229
2026-01-14 04:47:35.19	36.37	14.25	-55.7	-65.5	3.8	7.46e-01	0	28	104	0	75	11159
2026-01-14 04:47:36.20	36.06	14.28	-55.7	-65.4	3.8	7.46e-01	0	28	104	0	75	11133
2026-01-14 04:47:37.21	35.75	14.30	-55.7	-65.5	3.8	7.46e-01	0	28	104	0	75	11180
2026-01-14 04:47:38.22	35.44	14.33	-55.7	-65.5	3.8	7.46e-01	0	28	104	0	75	11174
2026-01-14 04:47:39.23	35.13	14.35	-55.7	-65.5	3.8	7.46e-01	0	28	104	0	75	11204
2026-01-14 04:47:40.24	34.82	14.37	-55.7	-65.5	3.8	7.46e-01	0	28	104	0	75	11225
2026-01-14 04:47:41.24	34.51	14.39	-55.7	-65.5	3.8	7.45e-01	0	28	104	0	75	11218
2026-01-14 04:47:42.25	34.20	14.41	-55.7	-65.5	3.8	7.46e-01	0	28	104	0	75	11197
2026-01-14 04:47:43.26	33.89	14.43	-55.7	-65.5	3.8	7.47e-01	0	28	104	0	75	11187
2026-01-14 04:47:44.27	33.57	14.45	-55.7	-65.5	3.8	7.45e-01	0	28	104	0	75	11163
2026-01-14 04:47:45.28	33.26	14.47	-55.7	-65.5	3.8	7.47e-01	0	28	104	0	75	11178
2026-01-14 04:47:46.29	32.95	14.49	-55.7	-65.5	3.8	7.46e-01	0	28	104	0	75	11223
2026-01-14 04:47:47.30	32.63	14.50	-55.7	-65.5	3.8	7.44e-01	0	28	104	0	75	11189
2026-01-14 04:47:48.31	32.32	14.52	-55.7	-65.5	3.8	7.45e-01	0	28	104	0	75	11171
2026-01-14 04:47:49.32	32.00	14.53	-55.7	-65.5	3.8	7.45e-01	0	28	104	0	75	11171
2026-01-14 04:47:50.33	31.69	14.55	-55.7	-65.5	3.8	7.45e-01	0	28	104	0	75	11193
2026-01-14 04:47:51.34	31.37	14.56	-55.7	-65.5	3.8	7.44e-01	0	28	104	0	75	11203
2026-01-14 04:47:52.35	31.06	14.57	-55.8	-65.5	3.8	7.47e-01	0	28	104	0	75	11195
2026-01-14 04:47:53.36	30.74	14.59	-55.7	-65.5	3.8	7.46e-01	0	28	104	0	75	11202
2026-01-14 04:47:54.36	30.43	14.60	-55.7	-65.4	3.8	7.46e-01	0	28	104	0	75	11155
2026-01-14 04:47:55.37	30.11	14.61	-55.7	-65.5	3.8	7.46e-01	0	28	104	0	75	11241
2026-01-14 04:47:56.38	29.79	14.62	-55.7	-65.4	3.8	7.46e-01	0	28	104	0	75	11155
2026-01-14 04:47:57.38	29.48	14.63	-55.7	-65.5	3.8	7.47e-01	0	28	104	0	75	11170
2026-01-14 04:47:58.39	29.16	14.64	-55.7	-65.5	3.8	7.44e-01	0	28	104	0	75	11219
2026-01-14 04:47:59.40	28.84	14.65	-55.7	-65.5	3.8	7.45e-01	0	28	104	0	75	11248
2026-01-14 04:48:00.41	28.52	14.65	-55.7	-65.5	3.8	7.45e-01	0	28	104	0	75	11202
2026-01-14 04:48:01.42	28.20	14.66	-55.7	-65.5	3.8	7.46e-01	0	28	104	0	75	11166
2026-01-14 04:48:02.42	27.89	14.66	-55.7	-65.5	3.8	7.44e-01	0	28	104	0	75	11192
2026-01-14 04:48:03.43	27.57	14.67	-55.7	-65.5	3.8	7.44e-01	0	28	104	0	75	11195
2026-01-14 04:48:04.44	27.25	14.67	-55.7	-65.5	3.8	7.46e-01	0	28	104	0	75	11234
2026-01-14 04:48:05.45	26.93	14.68	-55.7	-65.5	3.8	7.44e-01	0	28	104	0	75	11187
2026-01-14 04:48:06.46	26.61	14.68	-55.7	-65.5	3.8	7.47e-01	0	28	104	0	75	11191
2026-01-14 04:48:07.47	26.30	14.68	-55.7	-65.5	3.8	7.45e-01	0	28	104	0	75	11196
2026-01-14 04:48:08.48	25.98	14.68	-55.8	-65.5	3.8	7.44e-01	0	28	104	0	75	11191
2026-01-14 04:48:09.49	25.66	14.68	-55.7	-65.5	3.8	7.46e-01	0	28	104	0	75	11200
2026-01-14 04:48:10.50	25.34	14.68	-55.7	-65.5	3.8	7.45e-01	0	28	104	0	75	11188
2026-01-14 04:48:11.50	25.02	14.68	-55.7	-65.5	3.8	7.46e-01	0	28	104	0	75	11190
2026-01-14 04:48:12.51	24.70	14.68	-55.8	-65.5	3.8	7.45e-01	0	28	104	0	75	11192
2026-01-14 04:48:13.52	24.39	14.67	-55.8	-65.5	3.8	7.46e-01	0	28	104	0	75	11224
2026-01-14 04:48:14.53	24.07	14.67	-55.7	-65.5	3.8	7.46e-01	0	28	104	0	75	11185
2026-01-14 04:48:15.54	23.75	14.67	-55.7	-65.5	3.8	7.46e-01	0	28	104	0	75	11185
2026-01-14 04:48:16.55	23.43	14.66	-55.7	-65.5	3.8	7.44e-01	0	28	104	0	75	11200
2026-01-14 04:48:17.56	23.11	14.66	-55.7	-65.5	3.8	7.44e-01	0	28	104	0	75	11226
2026-01-14 04:48:18.57	22.79	14.65	-55.7	-65.5	3.8	7.44e-01	0	28	104	0	75	11222
2026-01-14 04:48:19.58	22.48	14.64	-55.7	-65.5	3.8	7.47e-01	0	28	104	0	75	11186
2026-01-14 04:48:20.58	22.16	14.63	-55.7	-65.5	3.8	7.46e-01	0	28	104	0	75	11209
2026-01-14 04:48:21.59	21.84	14.62	-55.8	-65.5	3.8	7.45e-01	0	28	104	0	75	11208
2026-01-14 04:48:22.61	21.52	14.61	-55.8	-65.5	3.8	7.46e-01	0	28	104	0	75	11257
2026-01-14 04:48:23.61	21.21	14.60	-55.7	-65.5	3.8	7.44e-01	0	28	104	0	75	11215
2026-01-14 04:48:24.62	20.89	14.59	-55.7	-65.5	3.8	7.46e-01	0	28	104	0	75	11179
2026-01-14 04:48:25.63	20.58	14.58	-55.7	-65.5	3.8	7.46e-01	0	28	104	0	75	11187
2026-01-14 04:48:26.64	20.26	14.57	-55.7	-65.5	3.8	7.45e-01	0	28	104	0	75	11177
2026-01-14 04:48:27.65	19.94	14.55	-55.7	-65.5	3.8	7.45e-01	0	28	104	0	75	11213
2026-01-14 04:48:28.66	19.63	14.54	-55.7	-65.5	3.8	7.45e-01	0	28	104	0	75	11190
2026-01-14 04:48:29.67	19.31	14.53	-55.7	-65.5	3.8	7.45e-01	0	28	104	0	75	11193
2026-01-14 04:48:30.68	19.00	14.51	-55.8	-65.5	3.8	7.46e-01	0	28	104	0	75	11227
2026-01-14 04:48:31.69	18.68	14.49	-55.7	-65.5	3.8	7.46e-01	0	28	104	0	75	11183
2026-01-14 04:48:32.70	18.37	14.48	-55.7	-65.5	3.8	7.45e-01	0	28	104	0	75	11181
2026-01-14 04:48:33.71	18.06	14.46	-55.7	-65.5	3.8	7.45e-01	0	28	104	0	75	11168
2026-01-14 04:48:34.72	17.74	14.44	-55.7	-65.5	3.8	7.47e-01	0	28	104	0	75	11247
2026-01-14 04:48:35.73	17.43	14.42	-55.7	-65.5	3.8	7.46e-01	0	28	104	0	75	11195
2026-01-14 04:48:36.74	17.12	14.40	-55.7	-65.5	3.8	7.46e-01	0	28	104	0	75	11208
2026-01-14 04:48:37.75	16.81	14.38	-55.7	-65.5	3.8	7.45e-01	0	28	104	0	75	11209
2026-01-14 04:48:38.76	16.50	14.36	-55.7	-65.5	3.8	7.45e-01	0	28	104	0	75	11185
2026-01-14 04:48:39.76	16.19	14.34	-55.7	-65.5	3.8	7.46e-01	0	28	104	0	75	11203
2026-01-14 04:48:40.77	15.88	14.31	-55.7	-65.5	3.8	7.47e-01	0	28	104	0	75	11219
2026-01-14 04:48:41.78	15.57	14.29	-55.7	-65.5	3.8	7.46e-01	0	28	104	0	75	11210
2026-01-14 04:48:42.79	15.26	14.27	-55.7	-65.5	3.8	7.47e-01	0	28	104	0	75	11206
2026-01-14 04:48:43.80	14.96	14.24	-55.7	-65.5	3.8	7.44e-01	0	28	104	0	75	11230
2026-01-14 04:48:44.81	14.65	14.22	-55.7	-65.5	3.8	7.46e-01	0	28	104	0	75	11237
2026-01-14 04:48:45.82	14.34	14.19	-55.8	-65.5	3.8	7.44e-01	0	28	104	0	75	11198
2026-01-14 04:48:46.83	14.04	14.16	-55.7	-65.5	3.8	7.45e-01	0	28	104	0	75	11195
2026-01-14 04:48:47.84	13.73	14.14	-55.7	-65.5	3.8	7.45e-01	0	28	104	0	75	11193
2026-01-14 04:48:48.84	13.43	14.11	-55.7	-65.5	3.8	7.45e-01	0	28	104	0	75	11210
2026-01-14 04:48:49.85	13.12	14.08	-55.8	-65.5	3.8	7.45e-01	0	28	104	0	75	11265
2026-01-14 04:48:50.86	12.82	14.05	-55.7	-65.5	3.8	7.46e-01	0	28	104	0	75	11202
2026-01-14 04:48:51.87	12.52	14.02	-55.7	-65.5	3.8	7.46e-01	0	28	104	0	75	11241
2026-01-14 04:48:52.88	12.22	13.99	-55.7	-65.5	3.8	7.47e-01	0	28	104	0	75	11214
2026-01-14 04:48:53.89	11.92	13.96	-55.7	-65.5	3.8	7.46e-01	0	28	104	0	75	11211
2026-01-14 04:48:54.89	11.62	13.93	-55.8	-65.5	3.8	7.46e-01	0	28	104	0	75	11221
2026-01-14 04:48:55.90	11.32	13.89	-55.7	-65.5	3.8	7.46e-01	0	28	104	0	75	11204
2026-01-14 04:48:56.91	11.02	13.86	-55.8	-65.5	3.8	7.45e-01	0	28	104	0	75	11192
2026-01-14 04:48:57.92	10.72	13.83	-55.8	-65.5	3.8	7.47e-01	0	28	104	0	75	11251
2026-01-14 04:48:58.93	10.43	13.79	-55.7	-65.5	3.8	7.45e-01	0	28	104	0	75	11168
2026-01-14 04:48:59.94	10.13	13.76	-55.8	-65.5	3.8	7.45e-01	0	28	104	0	75	11264
2026-01-14 04:49:00.94	9.84	13.72	-55.8	-65.5	3.8	7.45e-01	0	28	104	0	75	11243
2026-01-14 04:49:01.95	9.54	13.69	-55.7	-65.5	3.8	7.45e-01	0	28	104	0	75	11185
2026-01-14 04:49:02.96	9.25	13.65	-55.7	-65.5	3.8	7.46e-01	0	28	104	0	75	11225
2026-01-14 04:49:03.97	8.96	13.61	-55.7	-65.5	3.8	7.47e-01	0	28	104	0	75	11202
2026-01-14 04:49:04.98	8.67	13.57	-55.7	-65.5	3.8	7.46e-01	0	28	104	0	75	11205
2026-01-14 04:49:05.98	8.38	13.54	-55.7	-65.5	3.8	7.45e-01	0	28	104	0	75	11195
2026-01-14 04:49:06.99	8.09	13.50	-55.8	-65.5	3.8	7.46e-01	0	28	104	0	75	11219
2026-01-14 04:49:08.00	7.80	13.46	-55.8	-65.5	3.8	7.46e-01	0	28	104	0	75	11215
2026-01-14 04:49:09.01	7.51	13.42	-55.8	-65.5	3.8	7.45e-01	0	28	104	0	75	11270
2026-01-14 04:49:10.02	7.22	13.38	-55.7	-65.5	3.8	7.45e-01	0	28	104	0	75	11193
2026-01-14 04:49:11.02	6.94	13.34	-55.7	-65.5	3.8	7.46e-01	0	28	104	0	75	11224
2026-01-14 04:49:12.03	6.66	13.30	-55.7	-65.5	3.8	7.46e-01	0	28	104	0	75	11206
2026-01-14 04:49:13.04	6.37	13.25	-55.7	-65.5	3.8	7.46e-01	0	28	104	0	75	11187
2026-01-14 04:49:14.06	6.09	13.21	-55.7	-65.5	3.8	7.46e-01	0	28	104	0	75	11210
2026-01-14 04:49:15.06	5.81	13.17	-55.8	-65.5	3.8	7.46e-01	0	28	104	0	75	11258
2026-01-14 04:49:16.07	5.52	13.12	-55.8	-65.5	3.8	7.46e-01	0	28	104	0	75	11240
2026-01-14 04:49:17.08	5.24	13.08	-55.7	-65.5	3.8	7.48e-01	0	28	104	0	75	11202
2026-01-14 04:49:18.09	4.97	13.04	-55.8	-65.5	3.8	7.47e-01	0	28	104	0	75	11220
2026-01-14 04:49:19.10	4.69	12.99	-55.7	-65.5	3.8	7.46e-01	0	28	104	0	75	11207
2026-01-14 04:49:20.11	4.41	12.95	-55.8	-65.5	3.8	7.44e-01	0	28	104	0	75	11222
2026-01-14 04:49:21.12	4.13	12.90	-55.7	-65.5	3.8	7.46e-01	0	28	104	0	75	11179
2026-01-14 04:49:22.12	3.86	12.85	-55.7	-65.5	3.8	7.48e-01	0	28	104	0	75	11230
2026-01-14 04:49:23.13	3.59	12.81	-55.8	-65.5	3.8	7.45e-01	0	28	104	0	75	11198
2026-01-14 04:49:24.14	3.32	12.76	-55.8	-65.5	3.8	7.46e-01	0	28	104	0	75	11222
2026-01-14 04:49:25.15	3.04	12.71	-55.8	-65.5	3.8	7.47e-01	0	28	104	0	75	11257
2026-01-14 04:49:26.16	2.77	12.66	-55.7	-65.5	3.8	7.46e-01	0	28	104	0	75	11227
2026-01-14 04:49:27.17	2.50	12.62	-55.8	-65.5	3.8	7.45e-01	0	28	104	0	75	11190
2026-01-14 04:49:28.18	2.23	12.57	-55.8	-65.5	3.8	7.45e-01	0	28	104	0	75	11206
2026-01-14 04:49:29.19	1.97	12.52	-55.8	-65.5	3.8	7.46e-01	0	28	104	0	75	11204
2026-01-14 04:49:30.19	1.70	12.47	-55.8	-65.5	3.8	7.47e-01	0	28	104	0	75	11229
2026-01-14 04:49:31.20	1.44	12.42	-55.8	-65.5	3.8	7.46e-01	0	28	104	0	75	11187
2026-01-14 04:49:32.21	1.17	12.37	-55.8	-65.5	3.8	7.46e-01	0	28	104	0	75	11236
2026-01-14 04:49:33.22	0.91	12.32	-55.8	-65.5	3.8	7.46e-01	0	28	104	0	75	11232
2026-01-14 04:49:34.23	0.65	12.27	-55.8	-65.5	3.8	7.45e-01	0	28	104	0	75	11202
2026-01-14 04:49:35.24	0.39	12.22	-55.8	-65.5	3.8	7.45e-01	0	28	104	0	75	11192
2026-01-14 04:49:36.25	0.13	12.16	-55.8	-65.5	3.8	7.44e-01	0	28	104	0	75	11256
2026-01-14 04:49:37.26	359.87	12.11	-55.8	-65.5	3.8	7.44e-01	0	28	104	0	75	11222
2026-01-14 04:49:38.27	359.61	12.06	-55.7	-65.5	3.8	7.46e-01	0	28	104	0	75	11230
2026-01-14 04:49:39.28	359.36	12.01	-55.7	-65.5	3.8	7.45e-01	0	28	104	0	75	11192
2026-01-14 04:49:40.28	359.10	11.95	-55.8	-65.5	3.8	7.44e-01	0	28	104	0	75	11211
2026-01-14 04:49:41.29	358.85	11.90	-55.8	-65.5	3.8	7.46e-01	0	28	104	0	75	11233
2026-01-14 04:49:42.31	358.59	11.85	-55.8	-65.5	3.8	7.47e-01	0	28	104	0	75	11216
2026-01-14 04:49:43.32	358.34	11.79	-55.8	-65.5	3.8	7.48e-01	0	28	104	0	75	11262
2026-01-14 04:49:44.32	358.09	11.74	-55.8	-65.5	3.8	7.45e-01	0	28	104	0	75	11239
2026-01-14 04:49:45.34	357.84	11.68	-55.8	-65.5	3.8	7.46e-01	0	28	104	0	75	11222
2026-01-14 04:49:46.35	357.59	11.63	-55.8	-65.5	3.8	7.46e-01	0	28	104	0	75	11190
2026-01-14 04:49:47.35	357.35	11.57	-55.8	-65.5	3.8	7.44e-01	0	28	104	0	75	11244
2026-01-14 04:49:48.36	357.10	11.52	-55.8	-65.5	3.8	7.47e-01	0	28	104	0	75	11249
2026-01-14 04:49:49.37	356.86	11.46	-55.8	-65.5	3.8	7.45e-01	0	28	104	0	75	11239
2026-01-14 04:49:50.38	356.61	11.41	-55.8	-65.5	3.8	7.45e-01	0	28	104	0	75	11242
2026-01-14 04:49:51.39	356.37	11.35	-55.8	-65.5	3.8	7.45e-01	0	28	104	0	75	11228
2026-01-14 04:49:52.40	356.13	11.29	-55.8	-65.5	3.8	7.47e-01	0	28	104	0	75	11216
2026-01-14 04:49:53.40	355.89	11.24	-55.8	-65.5	3.8	7.47e-01	0	28	104	0	75	11215
2026-01-14 04:49:54.41	355.65	11.18	-55.8	-65.6	3.8	7.46e-01	0	28	104	0	75	11297
2026-01-14 04:49:55.42	355.41	11.12	-55.8	-65.5	3.8	7.45e-01	0	28	104	0	75	11253
2026-01-14 04:49:56.43	355.18	11.07	-55.8	-65.5	3.8	7.45e-01	0	28	104	0	75	11225
2026-01-14 04:49:57.44	354.94	11.01	-55.8	-65.5	3.8	7.44e-01	0	28	104	0	75	11218
2026-01-14 04:49:58.44	354.71	10.95	-55.7	-65.5	3.8	7.46e-01	0	28	104	0	75	11178
2026-01-14 04:49:59.45	354.48	10.89	-55.8	-65.5	3.8	7.45e-01	0	28	104	0	75	11225
2026-01-14 04:50:00.46	354.24	10.84	-55.8	-65.5	3.8	7.45e-01	0	28	104	0	75	11260
2026-01-14 04:50:01.46	354.02	10.78	-55.8	-65.5	3.8	7.47e-01	0	28	104	0	75	11280
2026-01-14 04:50:02.47	353.79	10.72	-55.8	-65.5	3.8	7.44e-01	0	28	104	0	75	11212
2026-01-14 04:50:03.48	353.56	10.66	-55.8	-65.5	3.8	7.47e-01	0	28	104	0	75	11228
2026-01-14 04:50:04.49	353.33	10.60	-55.8	-65.5	3.8	7.47e-01	0	28	104	0	75	11200
2026-01-14 04:50:05.50	353.10	10.54	-55.8	-65.5	3.8	7.47e-01	0	28	104	0	75	11238
2026-01-14 04:50:06.50	352.88	10.48	-55.8	-65.5	3.8	7.45e-01	0	28	104	0	75	11275
2026-01-14 04:50:07.51	352.65	10.42	-55.8	-65.5	3.8	7.44e-01	0	28	104	0	75	11217
2026-01-14 04:50:08.52	352.43	10.36	-55.8	-65.5	3.8	7.44e-01	0	28	104	0	75	11164
2026-01-14 04:50:09.53	352.21	10.30	-55.8	-65.5	3.8	7.46e-01	0	28	104	0	75	11230
2026-01-14 04:50:10.54	351.99	10.24	-55.8	-65.6	3.8	7.47e-01	0	28	104	0	75	11292
2026-01-14 04:50:11.55	351.77	10.18	-55.8	-65.5	3.8	7.45e-01	0	28	104	0	75	11226
2026-01-14 04:50:12.56	351.55	10.12	-55.8	-65.5	3.8	7.48e-01	0	28	104	0	75	11211
2026-01-14 04:50:13.57	351.33	10.06	-55.8	-65.5	3.8	7.45e-01	0	28	104	0	75	11241
2026-01-14 04:50:14.57	351.12	10.00	-55.8	-65.5	3.8	7.45e-01	0	28	104	0	75	11228
2026-01-14 04:50:15.58	350.90	9.94	-55.8	-65.5	3.8	7.45e-01	0	28	104	0	75	11241
2026-01-14 04:50:16.59	350.69	9.88	-55.8	-65.5	3.8	7.45e-01	0	28	104	0	75	11250
2026-01-14 04:50:17.61	350.47	9.82	-55.8	-65.5	3.8	7.47e-01	0	28	104	0	75	11235
2026-01-14 04:50:18.61	350.26	9.76	-55.8	-65.5	3.8	7.45e-01	0	28	104	0	75	11216
2026-01-14 04:50:19.62	350.05	9.70	-55.8	-65.5	3.8	7.45e-01	0	28	104	0	75	11229
2026-01-14 04:50:20.63	349.84	9.64	-55.8	-65.5	3.8	7.47e-01	0	28	104	0	75	11228
2026-01-14 04:50:21.64	349.63	9.57	-55.7	-65.5	3.8	7.46e-01	0	28	104	0	75	11160
2026-01-14 04:50:22.65	349.43	9.51	-55.8	-65.5	3.8	7.43e-01	0	28	104	0	75	11244
2026-01-14 04:50:23.66	349.22	9.45	-55.8	-65.5	3.8	7.47e-01	0	28	104	0	75	11260
2026-01-14 04:50:24.67	349.02	9.39	-55.7	-65.5	3.8	7.46e-01	0	28	104	0	75	11213
2026-01-14 04:50:25.67	348.81	9.33	-55.7	-65.5	3.8	7.45e-01	0	28	104	0	75	11202
2026-01-14 04:50:26.68	348.61	9.27	-55.8	-65.5	3.8	7.44e-01	0	28	104	0	75	11215
2026-01-14 04:50:27.69	348.41	9.20	-55.7	-65.5	3.8	7.47e-01	0	28	104	0	75	11181
2026-01-14 04:50:28.70	348.21	9.14	-55.7	-65.5	3.8	7.47e-01	0	28	104	0	75	11217
2026-01-14 04:50:29.71	348.01	9.08	-55.8	-65.5	3.8	7.46e-01	0	28	104	0	75	11247
2026-01-14 04:50:30.72	347.81	9.02	-55.8	-65.5	3.8	7.45e-01	0	28	104	0	75	11216
2026-01-14 04:50:31.73	347.61	8.96	-55.8	-65.5	3.8	7.46e-01	0	28	104	0	75	11209
2026-01-14 04:50:32.73	347.42	8.89	-55.8	-65.5	3.8	7.47e-01	0	28	104	0	75	11233
2026-01-14 04:50:33.74	347.22	8.83	-55.8	-65.5	3.8	7.46e-01	0	28	104	0	75	11242
2026-01-14 04:50:34.75	347.03	8.77	-55.8	-65.5	3.8	7.46e-01	0	28	104	0	75	11253
2026-01-14 04:50:35.76	346.83	8.71	-55.8	-65.5	3.8	7.46e-01	0	28	104	0	75	11218
2026-01-14 04:50:36.77	346.64	8.64	-55.8	-65.5	3.8	7.45e-01	0	28	104	0	75	11234
2026-01-14 04:50:37.77	346.45	8.58	-55.8	-65.5	3.8	7.46e-01	0	28	104	0	75	11276
2026-01-14 04:50:38.78	346.26	8.52	-55.7	-65.5	3.8	7.44e-01	0	28	104	0	75	11206
2026-01-14 04:50:39.79	346.07	8.46	-55.8	-65.5	3.8	7.46e-01	0	28	104	0	75	11205
2026-01-14 04:50:40.75	345.89	8.40	-55.8	-65.5	3.8	7.45e-01	0	28	104	0	75	11197
2026-01-14 04:50:41.76	345.70	8.33	-55.8	-65.5	3.8	7.45e-01	0	28	104	0	75	11255
2026-01-14 04:50:42.77	345.52	8.27	-55.8	-65.5	3.8	7.46e-01	0	28	104	0	75	11266
2026-01-14 04:50:43.78	345.33	8.21	-55.8	-65.5	3.8	7.46e-01	0	28	104	0	75	11245
2026-01-14 04:50:44.79	345.15	8.15	-55.8	-65.5	3.8	7.47e-01	0	28	104	0	75	11271
2026-01-14 04:50:45.80	344.96	8.08	-55.8	-65.5	3.8	7.45e-01	0	28	104	0	75	11252
2026-01-14 04:50:46.80	344.78	8.02	-55.8	-65.5	3.8	7.46e-01	0	28	104	0	75	11238
2026-01-14 04:50:47.81	344.60	7.96	-55.8	-65.5	3.8	7.46e-01	0	28	104	0	75	11210
2026-01-14 04:50:48.82	344.42	7.89	-55.8	-65.6	3.8	7.46e-01	0	28	104	0	75	11288
2026-01-14 04:50:49.83	344.24	7.83	-55.8	-65.5	3.8	7.46e-01	0	28	104	0	75	11209
2026-01-14 04:50:50.84	344.07	7.77	-55.8	-65.5	3.8	7.45e-01	0	28	104	0	75	11254
2026-01-14 04:50:51.85	343.89	7.71	-55.8	-65.5	3.8	7.45e-01	0	28	104	0	75	11208
2026-01-14 04:50:52.86	343.71	7.64	-55.8	-65.5	3.8	7.46e-01	0	28	104	0	75	11252
2026-01-14 04:50:53.87	343.54	7.58	-55.8	-65.5	3.8	7.45e-01	0	28	104	0	75	11223
2026-01-14 04:50:54.87	343.36	7.52	-55.8	-65.5	3.8	7.45e-01	0	28	104	0	75	11232
2026-01-14 04:50:55.88	343.19	7.45	-55.8	-65.5	3.8	7.46e-01	0	28	104	0	75	11272
2026-01-14 04:50:56.89	343.02	7.39	-55.8	-65.5	3.8	7.45e-01	0	28	104	0	75	11251
2026-01-14 04:50:57.90	342.85	7.33	-55.8	-65.5	3.8	7.46e-01	0	28	104	0	75	11258
2026-01-14 04:50:58.91	342.68	7.27	-55.8	-65.5	3.8	7.48e-01	0	28	104	0	75	11264
2026-01-14 04:50:59.92	342.51	7.20	-55.8	-65.5	3.8	7.45e-01	0	28	104	0	75	11279
2026-01-14 04:51:00.93	342.34	7.14	-55.8	-65.6	3.8	7.45e-01	0	28	104	0	75	11288
2026-01-14 04:51:01.94	342.17	7.08	-55.8	-65.5	3.8	7.44e-01	0	28	104	0	75	11275
2026-01-14 04:51:02.95	342.00	7.01	-55.8	-65.5	3.8	7.45e-01	0	28	104	0	75	11241
2026-01-14 04:51:03.95	341.84	6.95	-55.8	-65.5	3.8	7.44e-01	0	28	104	0	75	11239
2026-01-14 04:51:04.96	341.67	6.89	-55.8	-65.5	3.8	7.47e-01	0	28	104	0	75	11223
2026-01-14 04:51:05.97	341.51	6.83	-55.8	-65.5	3.8	7.45e-01	0	28	104	0	75	11209
2026-01-14 04:51:06.98	341.35	6.76	-55.8	-65.5	3.8	7.46e-01	0	28	104	0	75	11241
2026-01-14 04:51:07.98	341.18	6.70	-55.8	-65.5	3.8	7.45e-01	0	28	104	0	75	11250
2026-01-14 04:51:09.00	341.02	6.64	-55.8	-65.5	3.8	7.46e-01	0	28	104	0	75	11272
2026-01-14 04:51:10.01	340.86	6.57	-55.8	-65.5	3.8	7.45e-01	0	28	104	0	75	11216
2026-01-14 04:51:11.01	340.70	6.51	-55.8	-65.6	3.8	7.46e-01	0	28	104	0	75	11287
2026-01-14 04:51:12.02	340.54	6.45	-55.8	-65.5	3.8	7.47e-01	0	28	104	0	75	11264
2026-01-14 04:51:13.03	340.39	6.39	-55.8	-65.5	3.8	7.46e-01	0	28	104	0	75	11241
2026-01-14 04:51:14.04	340.23	6.32	-55.8	-65.5	3.8	7.46e-01	0	28	104	0	75	11269
2026-01-14 04:51:15.05	340.07	6.26	-55.8	-65.5	3.8	7.45e-01	0	28	104	0	75	11205
2026-01-14 04:51:16.06	339.92	6.20	-55.8	-65.5	3.8	7.45e-01	0	28	104	0	75	11278
2026-01-14 04:51:17.07	339.76	6.14	-55.8	-65.5	3.8	7.46e-01	0	28	104	0	75	11230
2026-01-14 04:51:18.08	339.61	6.07	-55.8	-65.5	3.8	7.46e-01	0	28	104	0	75	11265
2026-01-14 04:51:19.08	339.46	6.01	-55.8	-65.5	3.8	7.46e-01	0	28	104	0	75	11203
2026-01-14 04:51:20.09	339.31	5.95	-55.8	-65.5	3.8	7.47e-01	0	28	104	0	75	11221
2026-01-14 04:51:21.10	339.16	5.89	-55.8	-65.5	3.8	7.45e-01	0	28	104	0	75	11269
2026-01-14 04:51:22.11	339.01	5.82	-55.8	-65.5	3.8	7.45e-01	0	28	104	0	75	11239
2026-01-14 04:51:23.12	338.86	5.76	-55.8	-65.5	3.8	7.46e-01	0	28	104	0	75	11261
2026-01-14 04:51:24.13	338.71	5.70	-55.8	-65.5	3.8	7.45e-01	0	28	104	0	75	11256
2026-01-14 04:51:25.14	338.56	5.64	-55.8	-65.5	3.8	7.46e-01	0	28	104	0	75	11219
2026-01-14 04:51:26.14	338.41	5.58	-55.8	-65.5	3.8	7.45e-01	0	28	104	0	75	11228
2026-01-14 04:51:27.15	338.27	5.51	-55.8	-65.5	3.8	7.47e-01	0	28	104	0	75	11199
2026-01-14 04:51:28.16	338.12	5.45	-55.8	-65.5	3.8	7.47e-01	0	28	104	0	75	11261
2026-01-14 04:51:29.17	337.98	5.39	-55.8	-65.5	3.8	7.47e-01	0	28	104	0	75	11218
2026-01-14 04:51:30.18	337.84	5.33	-55.8	-65.5	3.8	7.45e-01	0	28	104	0	75	11247
2026-01-14 04:51:31.19	337.69	5.27	-55.8	-65.5	3.8	7.46e-01	0	28	104	0	75	11267
2026-01-14 04:51:32.20	337.55	5.20	-55.8	-65.5	3.8	7.45e-01	0	28	104	0	75	11214
2026-01-14 04:51:33.21	337.41	5.14	-55.8	-65.5	3.8	7.44e-01	0	28	104	0	75	11251
2026-01-14 04:51:34.22	337.27	5.08	-55.8	-65.5	3.8	7.45e-01	0	28	104	0	75	11255
2026-01-14 04:51:35.23	337.13	5.02	-55.8	-65.5	3.8	7.47e-01	0	28	104	0	75	11263
2026-01-14 04:51:36.24	336.99	4.96	-55.8	-65.5	3.8	7.46e-01	0	28	104	0	75	11255
2026-01-14 04:51:37.25	336.85	4.90	-55.8	-65.5	3.8	7.45e-01	0	28	104	0	75	11229
2026-01-14 04:51:38.26	336.71	4.83	-55.8	-65.5	3.8	7.46e-01	0	28	104	0	75	11247
2026-01-14 04:51:39.27	336.58	4.77	-55.8	-65.5	3.8	7.47e-01	0	28	104	0	75	11270
2026-01-14 04:51:40.27	336.44	4.71	-55.8	-65.5	3.8	7.47e-01	0	28	104	0	75	11258
2026-01-14 04:51:41.28	336.31	4.65	-55.8	-65.5	3.8	7.47e-01	0	28	104	0	75	11283
2026-01-14 04:51:42.29	336.17	4.59	-55.8	-65.5	3.8	7.47e-01	0	28	104	0	75	11265
2026-01-14 04:51:43.29	336.04	4.53	-55.8	-65.6	3.8	7.46e-01	0	28	104	0	75	11296
2026-01-14 04:51:44.30	335.91	4.47	-55.8	-65.5	3.8	7.45e-01	0	28	104	0	75	11263
2026-01-14 04:51:45.31	335.77	4.41	-55.8	-65.5	3.8	7.44e-01	0	28	104	0	75	11248
2026-01-14 04:51:46.32	335.64	4.35	-55.8	-65.5	3.8	7.45e-01	0	28	104	0	75	11244
2026-01-14 04:51:47.33	335.51	4.29	-55.8	-65.5	3.8	7.45e-01	0	28	104	0	75	11268
2026-01-14 04:51:48.34	335.38	4.22	-55.8	-65.5	3.8	7.46e-01	0	28	104	0	75	11248
2026-01-14 04:51:49.35	335.25	4.16	-55.8	-65.5	3.8	7.44e-01	0	28	104	0	75	11271
2026-01-14 04:51:50.36	335.12	4.10	-55.8	-65.5	3.8	7.45e-01	0	28	104	0	75	11230
2026-01-14 04:51:51.37	335.00	4.04	-55.8	-65.5	3.8	7.45e-01	0	28	104	0	75	11281
2026-01-14 04:51:52.37	334.87	3.98	-55.8	-65.5	3.8	7.45e-01	0	28	104	0	75	11246
2026-01-14 04:51:53.38	334.74	3.92	-55.8	-65.5	3.8	7.46e-01	0	28	104	0	75	11245
2026-01-14 04:51:54.39	334.62	3.86	-55.8	-65.5	3.8	7.45e-01	0	28	104	0	75	11270
2026-01-14 04:51:55.40	334.49	3.80	-55.8	-65.5	3.8	7.45e-01	0	28	104	0	75	11270
2026-01-14 04:51:56.40	334.37	3.74	-55.8	-65.5	3.8	7.47e-01	0	28	104	0	75	11273
2026-01-14 04:51:57.41	334.24	3.68	-55.8	-65.5	3.8	7.46e-01	0	28	104	0	75	11233
2026-01-14 04:51:58.42	334.12	3.62	-55.8	-65.5	3.8	7.44e-01	0	28	104	0	75	11278
2026-01-14 04:51:59.43	334.00	3.56	-55.8	-65.5	3.8	7.45e-01	0	28	104	0	75	11251
2026-01-14 04:52:00.44	333.88	3.50	-55.8	-65.5	3.8	7.45e-01	0	28	104	0	75	11277
2026-01-14 04:52:01.45	333.75	3.44	-55.8	-65.5	3.8	7.45e-01	0	28	104	0	75	11281
2026-01-14 04:52:02.46	333.63	3.38	-55.8	-65.5	3.8	7.45e-01	0	28	104	0	75	11284
2026-01-14 04:52:03.47	333.51	3.32	-55.8	-65.6	3.8	7.46e-01	0	28	104	0	75	11309
2026-01-14 04:52:04.48	333.39	3.26	-55.8	-65.5	3.8	7.46e-01	0	28	104	0	75	11269
2026-01-14 04:52:05.49	333.28	3.20	-55.8	-65.6	3.8	7.47e-01	0	28	104	0	75	11291
2026-01-14 04:52:06.50	333.16	3.14	-55.8	-65.5	3.8	7.44e-01	0	28	104	0	75	11257
2026-01-14 04:52:07.51	333.04	3.08	-55.8	-65.5	3.8	7.46e-01	0	28	104	0	75	11244
2026-01-14 04:52:08.52	332.92	3.02	-55.8	-65.5	3.8	7.46e-01	0	28	104	0	75	11274
2026-01-14 04:52:09.53	332.81	2.97	-55.8	-65.5	3.8	7.45e-01	0	28	104	0	75	11242
2026-01-14 04:52:10.54	332.69	2.91	-55.8	-65.5	3.8	7.46e-01	0	28	104	0	75	11239
2026-01-14 04:52:11.55	332.58	2.85	-55.8	-65.5	3.8	7.45e-01	0	28	104	0	75	11220
2026-01-14 04:52:12.55	332.46	2.79	-55.8	-65.5	3.8	7.48e-01	0	28	104	0	75	11258
2026-01-14 04:52:13.57	332.35	2.73	-55.8	-65.5	3.8	7.45e-01	0	28	104	0	75	11230
2026-01-14 04:52:14.57	332.24	2.67	-55.8	-65.5	3.8	7.44e-01	0	28	104	0	75	11266
2026-01-14 04:52:15.58	332.12	2.61	-55.8	-65.5	3.8	7.47e-01	0	28	104	0	75	11241
2026-01-14 04:52:16.59	332.01	2.55	-55.8	-65.5	3.8	7.47e-01	0	28	104	0	75	11266
2026-01-14 04:52:17.60	331.90	2.49	-55.8	-65.5	3.8	7.45e-01	0	28	104	0	75	11239
2026-01-14 04:52:18.61	331.79	2.44	-55.8	-65.5	3.8	7.48e-01	0	28	104	0	75	11267
2026-01-14 04:52:19.62	331.68	2.38	-55.8	-65.5	3.8	7.45e-01	0	28	104	0	75	11246
2026-01-14 04:52:20.63	331.57	2.32	-55.8	-65.5	3.8	7.45e-01	0	28	104	0	75	11275
2026-01-14 04:52:21.63	331.46	2.26	-55.8	-65.5	3.8	7.45e-01	0	28	104	0	75	11256
2026-01-14 04:52:22.65	331.35	2.20	-55.8	-65.5	3.8	7.47e-01	0	28	104	0	75	11237
2026-01-14 04:52:23.66	331.24	2.14	-55.8	-65.6	3.8	7.46e-01	0	28	104	0	75	11292
2026-01-14 04:52:24.67	331.14	2.09	-55.8	-65.5	3.8	7.44e-01	0	28	104	0	75	11236
2026-01-14 04:52:25.67	331.03	2.03	-55.8	-65.5	3.8	7.46e-01	0	28	104	0	75	11231
2026-01-14 04:52:26.68	330.93	1.97	-55.8	-65.6	3.8	7.48e-01	0	28	104	0	75	11289
2026-01-14 04:52:27.69	330.82	1.91	-55.8	-65.5	3.8	7.47e-01	0	28	104	0	75	11268

#Closed at: 2026-01-14 04:52:28
#Recorded file [0 MB]: D:/lorett/data/31004_260114_074353.dat