passes_logs/2026/01/21/PlanumMoscow/PlanumMoscow__20260121_075216_METOP-C_rec.log

#Pass ID: 20260121_075216_METOP-C
#Satellite: METOP-C
#Configuration: METOP-C
#Start time: 2026-01-21 07:52:21.103824

#LorettStation: 1.0.0 05.05.2024
#Station: PlanumMoscow
#Location: 37.6253844 lon 55.6713361 lat
#TLE: 1 43689U 18087A   25293.88981035  .00000265  00000+0  14109-3 0  9997
#TLE: 2 43689  98.7006 352.4487 0002041 122.1097 238.0279 14.21482740360838

#Time	Az	El	Level	SNR
2026-01-21 07:55:59.556097	13.5	29.4	-60.1	0.0
2026-01-21 07:56:00.679350	13.5	29.6	-59.4	0.0
2026-01-21 07:56:01.800612	13.5	29.8	-58.2	0.0
2026-01-21 07:56:02.917864	13.4	30.0	-58.6	0.0
2026-01-21 07:56:04.037126	13.4	30.2	-59.5	0.0
2026-01-21 07:56:05.156378	13.4	30.4	-59.4	0.0
2026-01-21 07:56:06.274631	13.3	30.6	-58.4	0.0
2026-01-21 07:56:07.389883	13.3	30.9	-59.3	0.0
2026-01-21 07:56:08.509640	13.3	31.1	-60.0	0.0
2026-01-21 07:56:09.627901	13.3	31.3	-60.2	0.0
2026-01-21 07:56:10.746163	13.2	31.5	-58.7	0.0
2026-01-21 07:56:11.868425	13.2	31.8	-59.5	0.0
2026-01-21 07:56:12.989183	13.2	32.0	-59.6	0.0
2026-01-21 07:56:14.108436	13.1	32.2	-61.1	0.0
2026-01-21 07:56:15.226689	13.1	32.4	-60.0	0.0
2026-01-21 07:56:16.342446	13.0	32.7	-59.5	0.0
2026-01-21 07:56:17.464699	13.0	32.9	-60.0	0.0
2026-01-21 07:56:18.586953	13.0	33.1	-58.4	0.0
2026-01-21 07:56:19.708710	12.9	33.4	-60.4	0.0
2026-01-21 07:56:20.827972	12.9	33.6	-59.5	0.0
2026-01-21 07:56:21.948738	12.9	33.9	-62.1	0.0
2026-01-21 07:56:23.070991	12.8	34.1	-60.5	0.0
2026-01-21 07:56:24.192749	12.8	34.4	-60.1	0.0
2026-01-21 07:56:25.313012	12.7	34.6	-60.8	0.0
2026-01-21 07:56:26.434265	12.7	34.9	-61.3	0.0
2026-01-21 07:56:27.555518	12.7	35.1	-60.0	0.0
2026-01-21 07:56:28.677276	12.6	35.4	-59.8	0.0
2026-01-21 07:56:29.799033	12.6	35.6	-59.9	0.0
2026-01-21 07:56:30.921287	12.5	35.9	-60.5	0.0
2026-01-21 07:56:32.042044	12.5	36.1	-59.6	0.0
2026-01-21 07:56:33.163307	12.4	36.4	-60.1	0.0
2026-01-21 07:56:34.284570	12.4	36.7	-58.9	0.0
2026-01-21 07:56:35.405831	12.3	36.9	-59.8	0.0
2026-01-21 07:56:36.527589	12.3	37.2	-60.1	0.0
2026-01-21 07:56:37.649347	12.2	37.5	-60.5	0.0
2026-01-21 07:56:38.771601	12.2	37.8	-60.5	0.0
2026-01-21 07:56:39.892862	12.1	38.0	-60.3	0.0
2026-01-21 07:56:41.014620	12.1	38.3	-62.3	0.0
2026-01-21 07:56:42.135378	12.0	38.6	-61.1	0.0
2026-01-21 07:56:43.257136	12.0	38.9	-60.4	0.0
2026-01-21 07:56:44.378399	11.9	39.2	-60.9	0.0
2026-01-21 07:56:45.498652	11.9	39.5	-60.7	0.0
2026-01-21 07:56:46.620410	11.8	39.7	-60.7	0.0
2026-01-21 07:56:47.740663	11.8	40.0	-59.1	0.0
2026-01-21 07:56:48.861916	11.7	40.3	-60.1	0.0
2026-01-21 07:56:49.982177	11.6	40.6	-60.0	0.0
2026-01-21 07:56:51.102454	11.6	40.9	-63.3	0.0
2026-01-21 07:56:52.221715	11.5	41.2	-59.5	0.0
2026-01-21 07:56:53.345979	11.5	41.5	-59.7	0.0
2026-01-21 07:56:54.464232	11.4	41.8	-60.5	0.0
2026-01-21 07:56:55.584485	11.3	42.2	-61.0	0.0
2026-01-21 07:56:56.706748	11.3	42.5	-63.0	0.0
2026-01-21 07:56:57.828001	11.2	42.8	-62.8	0.0
2026-01-21 07:56:58.947254	11.1	43.1	-61.6	0.0
2026-01-21 07:57:00.066506	11.0	43.4	-61.0	0.0
2026-01-21 07:57:01.185263	11.0	43.7	-64.1	0.0
2026-01-21 07:57:02.305021	10.9	44.1	-60.5	0.0
2026-01-21 07:57:03.423273	10.8	44.4	-62.7	0.0
2026-01-21 07:57:04.541030	10.7	44.7	-62.2	0.0
2026-01-21 07:57:05.663284	10.7	45.1	-62.5	0.0
2026-01-21 07:57:06.781040	10.6	45.4	-62.2	0.0
2026-01-21 07:57:07.900798	10.5	45.7	-62.4	0.0
2026-01-21 07:57:09.019050	10.4	46.1	-60.9	0.0
2026-01-21 07:57:10.138808	10.3	46.4	-62.0	0.0
2026-01-21 07:57:11.258566	10.2	46.8	-63.3	0.0
2026-01-21 07:57:12.376819	10.1	47.1	-61.9	0.0
2026-01-21 07:57:13.495071	10.0	47.5	-63.6	0.0
2026-01-21 07:57:14.615334	9.9	47.8	-62.7	0.0
2026-01-21 07:57:15.733586	9.8	48.2	-63.3	0.0
2026-01-21 07:57:16.852839	9.7	48.6	-61.2	0.0
2026-01-21 07:57:17.972092	9.6	48.9	-63.5	0.0
2026-01-21 07:57:19.090849	9.5	49.3	-63.6	0.0
2026-01-21 07:57:20.211608	9.4	49.7	-62.4	0.0
2026-01-21 07:57:21.329869	9.3	50.0	-62.7	0.0
2026-01-21 07:57:22.447636	9.2	50.4	-62.6	0.0
2026-01-21 07:57:23.567393	9.1	50.8	-63.0	0.0
2026-01-21 07:57:24.686150	8.9	51.2	-63.4	0.0
2026-01-21 07:57:25.805908	8.8	51.6	-63.5	0.0
2026-01-21 07:57:26.924674	8.7	51.9	-63.4	0.0
2026-01-21 07:57:28.042432	8.6	52.3	-64.2	0.0
2026-01-21 07:57:29.163189	8.4	52.7	-63.6	0.0
2026-01-21 07:57:30.281946	8.3	53.1	-63.4	0.0
2026-01-21 07:57:31.401208	8.1	53.5	-64.0	0.0
2026-01-21 07:57:32.518460	8.0	53.9	-65.0	0.0
2026-01-21 07:57:33.637713	7.8	54.3	-64.0	0.0
2026-01-21 07:57:34.755965	7.7	54.7	-64.8	0.0
2026-01-21 07:57:35.874218	7.5	55.2	-65.0	0.0
2026-01-21 07:57:36.995975	7.4	55.6	-65.3	0.0
2026-01-21 07:57:38.114732	7.2	56.0	-65.8	0.0
2026-01-21 07:57:39.234499	7.0	56.4	-64.9	0.0
2026-01-21 07:57:40.352265	6.8	56.8	-64.4	0.0
2026-01-21 07:57:41.471022	6.6	57.3	-64.6	0.0
2026-01-21 07:57:42.588779	6.4	57.7	-65.8	0.0
2026-01-21 07:57:43.708032	6.2	58.1	-65.4	0.0
2026-01-21 07:57:44.828285	6.0	58.6	-65.4	0.0
2026-01-21 07:57:45.949538	5.8	59.0	-65.3	0.0
2026-01-21 07:57:47.068304	5.6	59.5	-64.9	0.0
2026-01-21 07:57:48.186557	5.4	59.9	-66.0	0.0
2026-01-21 07:57:49.307810	5.1	60.4	-65.0	0.0
2026-01-21 07:57:50.426567	4.9	60.8	-64.7	0.0
2026-01-21 07:57:51.545323	4.6	61.3	-66.3	0.0
2026-01-21 07:57:52.664080	4.4	61.7	-66.3	0.0
2026-01-21 07:57:53.784846	4.1	62.2	-67.1	0.0
2026-01-21 07:57:54.905603	3.8	62.6	-66.9	0.0
2026-01-21 07:57:56.025360	3.5	63.1	-67.2	0.0
2026-01-21 07:57:57.147119	3.2	63.6	-67.5	0.0
2026-01-21 07:57:58.268877	2.9	64.0	-66.6	0.0
2026-01-21 07:57:59.385138	2.5	64.5	-66.7	0.0
2026-01-21 07:58:00.501390	2.2	65.0	-67.0	0.0
2026-01-21 07:58:01.623643	1.8	65.5	-67.0	0.0
2026-01-21 07:58:02.742905	1.4	65.9	-67.0	0.0
2026-01-21 07:58:03.864663	1.0	66.4	-67.2	0.0
2026-01-21 07:58:04.987917	0.6	66.9	-67.5	0.0
2026-01-21 07:58:06.104673	0.2	67.4	-67.9	0.0
2026-01-21 07:58:07.226431	359.7	67.9	-67.8	0.0
2026-01-21 07:58:08.348693	359.2	68.3	-67.1	0.0
2026-01-21 07:58:09.465954	358.7	68.8	-67.9	0.0
2026-01-21 07:58:10.585216	358.2	69.3	-67.6	0.0
2026-01-21 07:58:11.705469	357.6	69.8	-66.9	0.0
2026-01-21 07:58:12.824226	357.1	70.3	-68.0	0.0
2026-01-21 07:58:13.943488	356.4	70.8	-67.9	0.0
2026-01-21 07:58:15.064741	355.8	71.3	-68.5	0.0
2026-01-21 07:58:16.186002	355.1	71.8	-68.3	0.0
2026-01-21 07:58:17.305255	354.3	72.3	-68.4	0.0
2026-01-21 07:58:18.424508	353.6	72.7	-68.3	0.0
2026-01-21 07:58:19.540768	352.7	73.2	-68.1	0.0
2026-01-21 07:58:20.659526	351.9	73.7	-68.5	0.0
2026-01-21 07:58:21.778283	350.9	74.2	-68.6	0.0
2026-01-21 07:58:22.900041	349.9	74.7	-68.3	0.0
2026-01-21 07:58:24.019799	348.9	75.2	-67.4	0.0
2026-01-21 07:58:25.137051	347.7	75.6	-67.7	0.0
2026-01-21 07:58:26.255303	346.5	76.1	-67.9	0.0
2026-01-21 07:58:27.376557	345.2	76.6	-68.4	0.0
2026-01-21 07:58:28.496810	343.8	77.0	-68.2	0.0
2026-01-21 07:58:29.617072	342.3	77.5	-68.5	0.0
2026-01-21 07:58:30.738829	340.7	77.9	-68.7	0.0
2026-01-21 07:58:31.859597	338.9	78.4	-68.1	0.0
2026-01-21 07:58:32.981355	337.0	78.8	-68.7	0.0
2026-01-21 07:58:34.103113	335.0	79.2	-68.4	0.0
2026-01-21 07:58:35.223880	332.8	79.6	-68.8	0.0
2026-01-21 07:58:36.346133	330.4	80.0	-68.2	0.0
2026-01-21 07:58:37.467396	327.8	80.3	-68.8	0.0
2026-01-21 07:58:38.589154	325.0	80.7	-69.4	0.0
2026-01-21 07:58:39.711426	322.0	81.0	-68.8	0.0
2026-01-21 07:58:40.834184	318.8	81.3	-69.2	0.0
2026-01-21 07:58:41.955942	315.4	81.6	-69.2	0.0
2026-01-21 07:58:43.079700	311.7	81.8	-69.7	0.0
2026-01-21 07:58:44.199953	307.9	82.0	-70.0	0.0
2026-01-21 07:58:45.319215	303.9	82.2	-69.3	0.0
2026-01-21 07:58:46.439468	299.7	82.3	-69.1	0.0
2026-01-21 07:58:47.564226	295.4	82.4	-69.7	0.0
2026-01-21 07:58:48.681488	291.0	82.5	-69.2	0.0
2026-01-21 07:58:49.801741	286.6	82.5	-69.4	0.0
2026-01-21 07:58:50.921003	282.2	82.4	-69.9	0.0
2026-01-21 07:58:52.041256	277.9	82.3	-69.7	0.0
2026-01-21 07:58:53.161509	273.7	82.2	-69.1	0.0
2026-01-21 07:58:54.281266	269.7	82.0	-70.0	0.0
2026-01-21 07:58:55.400041	265.9	81.8	-69.4	0.0
2026-01-21 07:58:56.518303	262.3	81.6	-69.8	0.0
2026-01-21 07:58:57.635555	258.9	81.3	-69.8	0.0
2026-01-21 07:58:58.752807	255.7	81.0	-69.2	0.0
2026-01-21 07:58:59.871060	252.8	80.7	-69.5	0.0
2026-01-21 07:59:00.989321	250.0	80.3	-69.8	0.0
2026-01-21 07:59:02.106573	247.4	80.0	-69.8	0.0
2026-01-21 07:59:03.225826	245.1	79.6	-70.3	0.0
2026-01-21 07:59:04.346079	242.9	79.2	-69.2	0.0
2026-01-21 07:59:05.467341	240.8	78.8	-69.3	0.0
2026-01-21 07:59:06.590604	239.0	78.3	-70.6	0.0
2026-01-21 07:59:07.711361	237.2	77.9	-69.7	0.0
2026-01-21 07:59:08.832120	235.6	77.4	-70.2	0.0
2026-01-21 07:59:09.951877	234.1	77.0	-70.0	0.0
2026-01-21 07:59:11.071139	232.7	76.5	-70.4	0.0
2026-01-21 07:59:12.188391	231.4	76.1	-70.0	0.0
2026-01-21 07:59:13.307148	230.2	75.6	-70.2	0.0
2026-01-21 07:59:14.428402	229.0	75.1	-70.3	0.0
2026-01-21 07:59:15.545654	228.0	74.6	-69.7	0.0
2026-01-21 07:59:16.664917	227.0	74.2	-69.5	0.0
2026-01-21 07:59:17.781674	226.1	73.7	-70.1	0.0
2026-01-21 07:59:18.900926	225.2	73.2	-70.0	0.0
2026-01-21 07:59:20.020684	224.4	72.7	-69.9	0.0
2026-01-21 07:59:21.141442	223.6	72.2	-69.9	0.0
2026-01-21 07:59:22.259704	222.8	71.7	-69.7	0.0
2026-01-21 07:59:23.378965	222.2	71.2	-69.6	0.0
2026-01-21 07:59:24.497722	221.5	70.7	-70.1	0.0
2026-01-21 07:59:25.616975	220.9	70.2	-69.3	0.0
2026-01-21 07:59:26.739228	220.3	69.8	-69.8	0.0
2026-01-21 07:59:27.857481	219.7	69.3	-69.3	0.0
2026-01-21 07:59:28.977734	219.2	68.8	-69.6	0.0
2026-01-21 07:59:30.097500	218.7	68.3	-68.6	0.0
2026-01-21 07:59:31.216753	218.2	67.8	-69.6	0.0
2026-01-21 07:59:32.332509	217.8	67.3	-69.0	0.0
2026-01-21 07:59:33.449761	217.3	66.8	-69.4	0.0
2026-01-21 07:59:34.566022	216.9	66.4	-68.8	0.0
2026-01-21 07:59:35.686275	216.5	65.9	-69.2	0.0
2026-01-21 07:59:36.804032	216.1	65.4	-68.2	0.0
2026-01-21 07:59:37.920284	215.8	64.9	-68.9	0.0
2026-01-21 07:59:39.036040	215.4	64.4	-68.4	0.0
2026-01-21 07:59:40.156302	215.1	64.0	-68.4	0.0
2026-01-21 07:59:41.274059	214.8	63.5	-68.9	0.0
2026-01-21 07:59:42.397313	214.5	63.0	-69.2	0.0
2026-01-21 07:59:43.515566	214.2	62.6	-68.9	0.0
2026-01-21 07:59:44.636828	213.9	62.1	-69.3	0.0
2026-01-21 07:59:45.757585	213.6	61.6	-68.5	0.0
2026-01-21 07:59:46.878343	213.3	61.2	-68.4	0.0
2026-01-21 07:59:47.996605	213.1	60.7	-68.6	0.0
2026-01-21 07:59:49.116362	212.8	60.3	-68.2	0.0
2026-01-21 07:59:50.236129	212.6	59.8	-68.2	0.0
2026-01-21 07:59:51.357887	212.4	59.4	-68.1	0.0
2026-01-21 07:59:52.479140	212.1	58.9	-68.5	0.0
2026-01-21 07:59:53.601394	211.9	58.5	-68.1	0.0
2026-01-21 07:59:54.721151	211.7	58.1	-68.3	0.0
2026-01-21 07:59:55.837908	211.5	57.6	-67.4	0.0
2026-01-21 07:59:56.959170	211.3	57.2	-67.5	0.0
2026-01-21 07:59:58.076422	211.1	56.8	-68.0	0.0
2026-01-21 07:59:59.193685	210.9	56.3	-67.4	0.0
2026-01-21 08:00:00.315452	210.8	55.9	-67.4	0.0
2026-01-21 08:00:01.436713	210.6	55.5	-66.2	0.0
2026-01-21 08:00:02.558967	210.4	55.1	-67.0	0.0
2026-01-21 08:00:03.680231	210.3	54.7	-65.7	0.0
2026-01-21 08:00:04.802484	210.1	54.2	-66.4	0.0
2026-01-21 08:00:05.924242	210.0	53.8	-66.1	0.0
2026-01-21 08:00:07.046495	209.8	53.4	-66.1	0.0
2026-01-21 08:00:08.172770	209.7	53.0	-65.7	0.0
2026-01-21 08:00:09.295023	209.5	52.6	-65.5	0.0
2026-01-21 08:00:10.417277	209.4	52.2	-65.5	0.0
2026-01-21 08:00:11.538044	209.3	51.8	-65.8	0.0
2026-01-21 08:00:12.660319	209.1	51.4	-66.0	0.0
2026-01-21 08:00:13.781582	209.0	51.1	-66.0	0.0
2026-01-21 08:00:14.903339	208.9	50.7	-66.4	0.0
2026-01-21 08:00:16.029098	208.8	50.3	-64.2	0.0
2026-01-21 08:00:17.150360	208.7	49.9	-65.4	0.0
2026-01-21 08:00:18.271622	208.5	49.5	-65.2	0.0
2026-01-21 08:00:19.395381	208.4	49.2	-65.6	0.0
2026-01-21 08:00:20.517138	208.3	48.8	-64.7	0.0
2026-01-21 08:00:21.639392	208.2	48.4	-65.1	0.0
2026-01-21 08:00:22.761645	208.1	48.1	-63.8	0.0
2026-01-21 08:00:23.883404	208.0	47.7	-64.0	0.0
2026-01-21 08:00:25.008162	207.9	47.3	-63.3	0.0
2026-01-21 08:00:26.130416	207.8	47.0	-65.3	0.0
2026-01-21 08:00:27.252670	207.7	46.6	-64.9	0.0
2026-01-21 08:00:28.374428	207.6	46.3	-64.6	0.0
2026-01-21 08:00:29.495691	207.6	45.9	-64.3	0.0
2026-01-21 08:00:30.617457	207.5	45.6	-66.1	0.0
2026-01-21 08:00:31.738727	207.4	45.2	-66.0	0.0
2026-01-21 08:00:32.863991	207.3	44.9	-63.9	0.0
2026-01-21 08:00:33.984759	207.2	44.6	-63.9	0.0
2026-01-21 08:00:35.106517	207.1	44.2	-65.0	0.0
2026-01-21 08:00:36.228274	207.1	43.9	-65.2	0.0
2026-01-21 08:00:37.349536	207.0	43.6	-65.2	0.0
2026-01-21 08:00:38.470303	206.9	43.3	-63.8	0.0
2026-01-21 08:00:39.592556	206.8	42.9	-65.0	0.0
2026-01-21 08:00:40.716819	206.8	42.6	-64.2	0.0
2026-01-21 08:00:41.838081	206.7	42.3	-64.1	0.0
2026-01-21 08:00:42.958847	206.6	42.0	-61.8	0.0
2026-01-21 08:00:44.081101	206.6	41.7	-65.1	0.0
2026-01-21 08:00:45.202363	206.5	41.4	-64.4	0.0
2026-01-21 08:00:46.324121	206.4	41.1	-65.6	0.0
2026-01-21 08:00:47.446384	206.4	40.8	-65.1	0.0
2026-01-21 08:00:48.568142	206.3	40.5	-63.1	0.0
2026-01-21 08:00:49.690395	206.2	40.2	-63.5	0.0
2026-01-21 08:00:50.812649	206.2	39.9	-64.0	0.0
2026-01-21 08:00:51.934406	206.1	39.6	-63.3	0.0
2026-01-21 08:00:53.056660	206.1	39.3	-65.1	0.0
2026-01-21 08:00:54.178418	206.0	39.0	-64.6	0.0
2026-01-21 08:00:55.300671	206.0	38.7	-62.5	0.0
2026-01-21 08:00:56.421933	205.9	38.4	-61.1	0.0
2026-01-21 08:00:57.543692	205.8	38.1	-64.8	0.0
2026-01-21 08:00:58.665450	205.8	37.9	-63.6	0.0
2026-01-21 08:00:59.786712	205.7	37.6	-62.5	0.0
2026-01-21 08:01:00.908966	205.7	37.3	-63.2	0.0
2026-01-21 08:01:02.031220	205.6	37.0	-62.2	0.0
2026-01-21 08:01:03.152978	205.6	36.8	-63.1	0.0
2026-01-21 08:01:04.274239	205.5	36.5	-65.3	0.0
2026-01-21 08:01:05.395501	205.5	36.2	-65.2	0.0
2026-01-21 08:01:06.517755	205.5	36.0	-64.8	0.0
2026-01-21 08:01:07.640008	205.4	35.7	-64.1	0.0
2026-01-21 08:01:08.761766	205.4	35.4	-63.0	0.0
2026-01-21 08:01:09.884020	205.3	35.2	-64.1	0.0
2026-01-21 08:01:11.005778	205.3	34.9	-63.4	0.0
2026-01-21 08:01:12.128031	205.2	34.7	-63.9	0.0
2026-01-21 08:01:13.250285	205.2	34.4	-63.4	0.0
2026-01-21 08:01:14.372043	205.2	34.2	-64.1	0.0
2026-01-21 08:01:15.494296	205.1	33.9	-65.2	0.0
2026-01-21 08:01:16.615562	205.1	33.7	-65.1	0.0
2026-01-21 08:01:17.738320	205.0	33.4	-63.2	0.0
2026-01-21 08:01:18.860584	205.0	33.2	-64.2	0.0
2026-01-21 08:01:19.982342	205.0	33.0	-61.5	0.0
2026-01-21 08:01:21.104099	204.9	32.7	-63.5	0.0
2026-01-21 08:01:22.225857	204.9	32.5	-62.4	0.0
2026-01-21 08:01:23.348110	204.8	32.2	-59.8	0.0
2026-01-21 08:01:24.469868	204.8	32.0	-61.3	0.0
2026-01-21 08:01:25.592122	204.8	31.8	-59.8	0.0
2026-01-21 08:01:26.713383	204.7	31.6	-63.4	0.0
2026-01-21 08:01:27.835636	204.7	31.3	-59.9	0.0
2026-01-21 08:01:28.957889	204.7	31.1	-64.2	0.0
2026-01-21 08:01:30.079152	204.6	30.9	-63.3	0.0
2026-01-21 08:01:31.201406	204.6	30.7	-63.8	0.0
2026-01-21 08:01:32.322668	204.6	30.4	-63.7	0.0
2026-01-21 08:01:33.443932	204.5	30.2	-64.6	0.0
2026-01-21 08:01:34.565194	204.5	30.0	-60.9	0.0
2026-01-21 08:01:35.686457	204.5	29.8	-59.3	0.0
2026-01-21 08:01:36.808711	204.5	29.6	-59.5	0.0
2026-01-21 08:01:37.930477	204.4	29.4	-59.9	0.0
2026-01-21 08:01:39.053739	204.4	29.1	-64.6	0.0
2026-01-21 08:01:40.175497	204.4	28.9	-62.3	0.0
2026-01-21 08:01:41.296264	204.3	28.7	-62.7	0.0
2026-01-21 08:01:42.418518	204.3	28.5	-64.0	0.0
2026-01-21 08:01:43.540771	204.3	28.3	-63.0	0.0
2026-01-21 08:01:44.661537	204.3	28.1	-63.7	0.0
2026-01-21 08:01:45.783304	204.2	27.9	-64.8	0.0
2026-01-21 08:01:46.907558	204.2	27.7	-61.8	0.0
2026-01-21 08:01:48.029315	204.2	27.5	-65.7	0.0
2026-01-21 08:01:49.150578	204.2	27.3	-63.1	0.0
2026-01-21 08:01:50.272336	204.1	27.1	-64.6	0.0
2026-01-21 08:01:51.394590	204.1	26.9	-64.4	0.0
2026-01-21 08:01:52.516843	204.1	26.7	-64.8	0.0
2026-01-21 08:01:53.638106	204.1	26.5	-63.6	0.0
2026-01-21 08:01:54.759864	204.0	26.4	-63.0	0.0
2026-01-21 08:01:55.880631	204.0	26.2	-64.3	0.0
2026-01-21 08:01:57.002884	204.0	26.0	-64.7	0.0
2026-01-21 08:01:58.124642	204.0	25.8	-62.0	0.0
2026-01-21 08:01:59.246896	203.9	25.6	-63.7	0.0
2026-01-21 08:02:00.369149	203.9	25.4	-64.0	0.0
2026-01-21 08:02:01.489915	203.9	25.2	-63.5	0.0
2026-01-21 08:02:02.611176	203.9	25.1	-64.0	0.0
2026-01-21 08:02:03.736944	203.8	24.9	-63.1	0.0
2026-01-21 08:02:04.858207	203.8	24.7	-63.0	0.0
2026-01-21 08:02:05.980460	203.8	24.5	-64.6	0.0
2026-01-21 08:02:07.101722	203.8	24.3	-64.2	0.0
2026-01-21 08:02:08.223976	203.8	24.2	-63.0	0.0
2026-01-21 08:02:09.344742	203.7	24.0	-62.6	0.0
2026-01-21 08:02:10.466995	203.7	23.8	-63.4	0.0
2026-01-21 08:02:11.590753	203.7	23.7	-62.4	0.0
2026-01-21 08:02:12.712511	203.7	23.5	-64.2	0.0
2026-01-21 08:02:13.833279	203.7	23.3	-63.9	0.0
2026-01-21 08:02:14.955532	203.6	23.1	-63.2	0.0
2026-01-21 08:02:16.077786	203.6	23.0	-62.8	0.0
2026-01-21 08:02:17.199047	203.6	22.8	-63.4	0.0
2026-01-21 08:02:18.321301	203.6	22.6	-63.3	0.0
2026-01-21 08:02:19.445059	203.6	22.5	-62.9	0.0
2026-01-21 08:02:20.567313	203.6	22.3	-65.0	0.0
2026-01-21 08:02:21.689072	203.5	22.2	-64.3	0.0
2026-01-21 08:02:22.811334	203.5	22.0	-64.2	0.0
2026-01-21 08:02:23.933092	203.5	21.8	-64.7	0.0
2026-01-21 08:02:25.054850	203.5	21.7	-62.4	0.0
2026-01-21 08:02:26.176112	203.5	21.5	-62.1	0.0
2026-01-21 08:02:27.300870	203.5	21.4	-63.6	0.0
2026-01-21 08:02:28.423124	203.4	21.2	-64.5	0.0
2026-01-21 08:02:29.545377	203.4	21.1	-63.0	0.0
2026-01-21 08:02:30.666144	203.4	20.9	-61.2	0.0
2026-01-21 08:02:31.787902	203.4	20.7	-63.8	0.0
2026-01-21 08:02:32.910164	203.4	20.6	-64.6	0.0
2026-01-21 08:02:34.031922	203.4	20.4	-65.2	0.0
2026-01-21 08:02:35.153680	203.3	20.3	-63.3	0.0
2026-01-21 08:02:36.275439	203.3	20.1	-63.1	0.0
2026-01-21 08:02:37.397692	203.3	20.0	-63.4	0.0
2026-01-21 08:02:38.519449	203.3	19.8	-63.1	0.0
2026-01-21 08:02:39.641703	203.3	19.7	-64.4	0.0
2026-01-21 08:02:40.763460	203.3	19.6	-63.6	0.0
2026-01-21 08:02:41.885218	203.3	19.4	-63.5	0.0
2026-01-21 08:02:43.006481	203.2	19.3	-64.0	0.0
2026-01-21 08:02:44.127743	203.2	19.1	-63.3	0.0
2026-01-21 08:02:45.249501	203.2	19.0	-63.4	0.0
2026-01-21 08:02:46.371755	203.2	18.8	-63.4	0.0
2026-01-21 08:02:47.493513	203.2	18.7	-60.9	0.0
2026-01-21 08:02:48.615767	203.2	18.6	-62.6	0.0
2026-01-21 08:02:49.737524	203.2	18.4	-63.8	0.0
2026-01-21 08:02:50.859282	203.1	18.3	-63.7	0.0
2026-01-21 08:02:51.981545	203.1	18.1	-63.0	0.0
2026-01-21 08:02:53.104303	203.1	18.0	-63.6	0.0
2026-01-21 08:02:54.226061	203.1	17.9	-61.2	0.0
2026-01-21 08:02:55.347818	203.1	17.7	-60.9	0.0
2026-01-21 08:02:56.470071	203.1	17.6	-61.3	0.0
2026-01-21 08:02:57.592325	203.1	17.5	-59.7	0.0
2026-01-21 08:02:58.713092	203.1	17.3	-61.9	0.0
2026-01-21 08:02:59.835345	203.1	17.2	-62.7	0.0
2026-01-21 08:03:00.957103	203.0	17.1	-63.8	0.4
2026-01-21 08:03:02.079356	203.0	16.9	-62.6	0.0
2026-01-21 08:03:03.201610	203.0	16.8	-62.8	0.0
2026-01-21 08:03:04.323369	203.0	16.7	-59.8	0.0
2026-01-21 08:03:05.445622	203.0	16.5	-59.5	0.0
2026-01-21 08:03:06.567379	203.0	16.4	-61.3	0.0
2026-01-21 08:03:07.689633	203.0	16.3	-61.8	0.0
2026-01-21 08:03:08.811390	203.0	16.2	-60.6	0.0
2026-01-21 08:03:09.932652	202.9	16.0	-60.1	0.0
2026-01-21 08:03:11.054915	202.9	15.9	-59.0	0.0
2026-01-21 08:03:12.177168	202.9	15.8	-60.6	0.0
2026-01-21 08:03:13.299422	202.9	15.7	-62.1	0.0
2026-01-21 08:03:14.421675	202.9	15.5	-56.7	0.0
2026-01-21 08:03:15.543433	202.9	15.4	-61.6	0.0
2026-01-21 08:03:16.664199	202.9	15.3	-60.3	0.0
2026-01-21 08:03:17.785967	202.9	15.2	-60.5	0.0
2026-01-21 08:03:18.907238	202.9	15.0	-62.8	0.0
2026-01-21 08:03:20.029010	202.9	14.9	-57.0	0.0
2026-01-21 08:03:21.150273	202.8	14.8	-59.6	0.0
2026-01-21 08:03:22.271535	202.8	14.7	-62.2	0.5
2026-01-21 08:03:23.393789	202.8	14.6	-63.7	0.0
2026-01-21 08:03:24.516042	202.8	14.4	-58.4	0.0
2026-01-21 08:03:25.638305	202.8	14.3	-63.3	2.8
2026-01-21 08:03:26.760062	202.8	14.2	-61.0	0.0
2026-01-21 08:03:27.881820	202.8	14.1	-60.3	0.0
2026-01-21 08:03:29.004074	202.8	14.0	-60.8	0.0
2026-01-21 08:03:30.125336	202.8	13.9	-60.4	0.0
2026-01-21 08:03:31.247589	202.8	13.7	-58.8	0.0
2026-01-21 08:03:32.368356	202.8	13.6	-57.2	0.0
2026-01-21 08:03:33.493114	202.7	13.5	-63.1	0.8
2026-01-21 08:03:34.616368	202.7	13.4	-62.9	0.0
2026-01-21 08:03:35.737134	202.7	13.3	-60.4	0.0
2026-01-21 08:03:36.859397	202.7	13.2	-62.6	0.1
2026-01-21 08:03:37.981650	202.7	13.1	-62.8	0.0
2026-01-21 08:03:39.103408	202.7	13.0	-58.1	0.0
2026-01-21 08:03:40.225662	202.7	12.8	-61.1	0.0
2026-01-21 08:03:41.345933	202.7	12.7	-59.2	0.0
2026-01-21 08:03:42.467194	202.7	12.6	-57.8	0.0
2026-01-21 08:03:43.589448	202.7	12.5	-58.9	0.0
2026-01-21 08:03:44.711206	202.7	12.4	-57.4	0.0
2026-01-21 08:03:45.833459	202.7	12.3	-60.0	0.0
2026-01-21 08:03:46.955217	202.7	12.2	-59.6	0.0
2026-01-21 08:03:48.076478	202.6	12.1	-59.6	0.0
2026-01-21 08:03:49.198237	202.6	12.0	-60.2	0.0
2026-01-21 08:03:50.319994	202.6	11.9	-60.2	0.0
2026-01-21 08:03:51.442248	202.6	11.8	-58.0	0.0
2026-01-21 08:03:52.564005	202.6	11.7	-59.4	0.0
2026-01-21 08:03:53.684772	202.6	11.6	-60.3	0.0
2026-01-21 08:03:54.807025	202.6	11.4	-59.9	0.0
2026-01-21 08:03:55.929278	202.6	11.3	-60.2	0.0
2026-01-21 08:03:57.050541	202.6	11.2	-61.4	0.0
2026-01-21 08:03:58.175308	202.6	11.1	-61.6	0.0
2026-01-21 08:03:59.297561	202.6	11.0	-60.0	0.0
2026-01-21 08:04:00.419320	202.6	10.9	-61.8	0.0
2026-01-21 08:04:01.541078	202.6	10.8	-59.5	0.0
2026-01-21 08:04:02.662835	202.6	10.7	-61.4	0.0
2026-01-21 08:04:03.785089	202.5	10.6	-61.8	0.0
2026-01-21 08:04:04.907342	202.5	10.5	-60.4	0.0
2026-01-21 08:04:06.029614	202.5	10.4	-58.6	0.0
2026-01-21 08:04:07.150877	202.5	10.3	-63.0	0.0
2026-01-21 08:04:08.272139	202.5	10.2	-62.2	0.0
2026-01-21 08:04:09.394393	202.5	10.1	-62.5	0.0
2026-01-21 08:04:10.517151	202.5	10.0	-63.1	0.0
2026-01-21 08:04:11.638908	202.5	9.9	-61.5	0.0
2026-01-21 08:04:12.760171	202.5	9.8	-62.0	0.0
2026-01-21 08:04:13.881946	202.5	9.7	-56.3	0.0
2026-01-21 08:04:15.003704	202.5	9.6	-62.1	0.0
2026-01-21 08:04:16.124966	202.5	9.5	-62.1	0.0
2026-01-21 08:04:17.246229	202.5	9.4	-61.6	0.0
2026-01-21 08:04:18.367492	202.5	9.3	-62.0	0.0
2026-01-21 08:04:19.488753	202.5	9.3	-59.7	0.0
2026-01-21 08:04:20.610016	202.5	9.2	-62.2	0.0
2026-01-21 08:04:21.730287	202.5	9.1	-62.3	0.0
2026-01-21 08:04:22.855549	202.4	9.0	-61.8	0.0
2026-01-21 08:04:23.977307	202.4	8.9	-61.9	0.0
2026-01-21 08:04:25.099560	202.4	8.8	-62.9	0.0
2026-01-21 08:04:26.221318	202.4	8.7	-62.3	0.0
2026-01-21 08:04:27.343572	202.4	8.6	-61.7	0.0
2026-01-21 08:04:28.465330	202.4	8.5	-62.0	0.0
2026-01-21 08:04:29.586095	202.4	8.4	-61.3	0.0
2026-01-21 08:04:30.711350	202.4	8.3	-59.1	0.0
2026-01-21 08:04:31.833604	202.4	8.2	-58.1	0.0
2026-01-21 08:04:32.956361	202.4	8.1	-58.8	0.0
2026-01-21 08:04:34.077623	202.4	8.0	-56.6	0.0
2026-01-21 08:04:35.199381	202.4	8.0	-54.8	0.0
2026-01-21 08:04:36.321635	202.4	7.9	-56.2	0.0
2026-01-21 08:04:37.442402	202.4	7.8	-53.1	0.0
2026-01-21 08:04:38.563664	202.4	7.7	-62.0	0.0
2026-01-21 08:04:39.685927	202.4	7.6	-60.4	0.0
2026-01-21 08:04:40.807685	202.4	7.5	-58.2	0.0
2026-01-21 08:04:41.929946	202.4	7.4	-58.1	0.0
2026-01-21 08:04:43.051704	202.4	7.3	-59.1	0.0
2026-01-21 08:04:44.173462	202.4	7.2	-60.2	0.0
2026-01-21 08:04:45.296731	202.3	7.1	-60.6	0.0
2026-01-21 08:04:46.418489	202.3	7.1	-62.6	0.0
2026-01-21 08:04:47.540247	202.3	7.0	-62.6	0.0
2026-01-21 08:04:48.662005	202.3	6.9	-63.0	0.0
2026-01-21 08:04:49.784259	202.3	6.8	-63.6	0.0
2026-01-21 08:04:50.905522	202.3	6.7	-61.4	0.0
2026-01-21 08:04:52.027775	202.3	6.6	-56.4	0.0
2026-01-21 08:04:53.149037	202.3	6.5	-54.9	0.0
2026-01-21 08:04:54.271290	202.3	6.5	-61.7	0.0
2026-01-21 08:04:55.393543	202.3	6.4	-60.5	0.0
2026-01-21 08:04:56.516301	202.3	6.3	-57.0	0.0
2026-01-21 08:04:57.637069	202.3	6.2	-61.3	0.0
2026-01-21 08:04:58.759322	202.3	6.1	-60.3	0.0
2026-01-21 08:04:59.881575	202.3	6.0	-62.4	0.0
2026-01-21 08:05:01.003333	202.3	5.9	-60.7	0.0
2026-01-21 08:05:02.128092	202.3	5.9	-64.7	2.5
2026-01-21 08:05:03.250355	202.3	5.8	-65.6	0.0
2026-01-21 08:05:04.371627	202.3	5.7	-67.8	0.0
2026-01-21 08:05:05.492889	202.3	5.6	-67.4	0.0
2026-01-21 08:05:06.614647	202.3	5.5	-69.7	0.0
2026-01-21 08:05:07.736900	202.3	5.5	-70.8	0.0
2026-01-21 08:05:08.858162	202.3	5.4	-71.0	0.0
2026-01-21 08:05:09.978930	202.3	5.3	-71.4	0.0
2026-01-21 08:05:11.104689	202.3	5.2	-70.7	0.0
2026-01-21 08:05:12.226942	202.3	5.1	-70.7	0.0
2026-01-21 08:05:13.348701	202.3	5.0	-70.7	0.0
#Closed at: 2026-01-21 07:52:16.105124