passes_logs/2026/01/15/planumMaritime01/planumMaritime01__20260115_112706_METEOR-M2_4_rec.log

#Pass ID: 20260115_112706_METEOR-M2 4
#Satellite: METEOR-M2 4
#Configuration: METEOR-M2 4
#Start time: 2026-01-15 11:27:11.368821

#LorettStation: 1.0.0 05.05.2024
#Station: planumMaritime01
#Location: 37.49445 lon 55.92918 lat
#TLE: 1 59051U 24039A   26014.27408039  .00000009  00000+0  23553-4 0  9994
#TLE: 2 59051  98.6812 335.6805 0005983 253.6260 106.4261 14.22407180 97381

#Time	Az	El	Level	SNR
2026-01-15 11:27:13.536753	165.2	10.2	-81.3	0.0
2026-01-15 11:27:14.660349	165.2	10.3	-80.7	0.0
2026-01-15 11:27:15.784744	165.3	10.4	-80.0	0.0
2026-01-15 11:27:16.911054	165.3	10.5	-78.5	2.2
2026-01-15 11:27:18.033501	165.3	10.6	-77.9	6.8
2026-01-15 11:27:19.159901	165.3	10.7	-77.0	5.1
2026-01-15 11:27:20.283708	165.3	10.8	-76.6	5.1
2026-01-15 11:27:21.407982	165.3	10.9	-77.1	3.9
2026-01-15 11:27:22.532545	165.3	11.0	-77.7	7.1
2026-01-15 11:27:23.657979	165.4	11.1	-77.9	7.4
2026-01-15 11:27:24.781171	165.4	11.2	-78.1	6.9
2026-01-15 11:27:25.905664	165.4	11.3	-77.9	7.4
2026-01-15 11:27:27.031800	165.4	11.4	-77.8	7.0
2026-01-15 11:27:28.156492	165.4	11.5	-78.5	6.4
2026-01-15 11:27:29.282244	165.4	11.6	-76.8	7.0
2026-01-15 11:27:30.407047	165.4	11.7	-77.9	6.6
2026-01-15 11:27:31.530116	165.5	11.8	-77.3	5.5
2026-01-15 11:27:32.654275	165.5	11.9	-77.2	6.4
2026-01-15 11:27:33.778175	165.5	12.0	-76.8	3.8
2026-01-15 11:27:34.903099	165.5	12.2	-77.7	8.0
2026-01-15 11:27:36.026747	165.5	12.3	-77.3	8.2
2026-01-15 11:27:37.151775	165.5	12.4	-77.8	6.8
2026-01-15 11:27:38.274520	165.5	12.5	-76.7	6.2
2026-01-15 11:27:39.398587	165.6	12.6	-76.9	4.5
2026-01-15 11:27:40.522409	165.6	12.7	-77.4	7.2
2026-01-15 11:27:41.644372	165.6	12.8	-77.2	7.3
2026-01-15 11:27:42.767304	165.6	12.9	-77.4	7.3
2026-01-15 11:27:43.892209	165.6	13.0	-76.8	7.5
2026-01-15 11:27:45.015838	165.6	13.1	-76.9	8.2
2026-01-15 11:27:46.139076	165.7	13.2	-77.4	6.3
2026-01-15 11:27:47.263891	165.7	13.4	-76.8	7.4
2026-01-15 11:27:48.387974	165.7	13.5	-77.8	7.3
2026-01-15 11:27:49.514186	165.7	13.6	-76.9	6.5
2026-01-15 11:27:50.638598	165.7	13.7	-76.5	4.9
2026-01-15 11:27:51.766425	165.7	13.8	-77.3	6.9
2026-01-15 11:27:52.892115	165.7	13.9	-77.3	7.6
2026-01-15 11:27:54.020260	165.8	14.1	-77.2	7.9
2026-01-15 11:27:55.144795	165.8	14.2	-77.2	7.6
2026-01-15 11:27:56.269664	165.8	14.3	-77.3	6.7
2026-01-15 11:27:57.394885	165.8	14.4	-77.0	6.9
2026-01-15 11:27:58.516471	165.8	14.5	-77.1	6.3
2026-01-15 11:27:59.640247	165.8	14.6	-76.1	6.1
2026-01-15 11:28:00.763826	165.9	14.8	-77.0	7.5
2026-01-15 11:28:01.887855	165.9	14.9	-77.1	5.2
2026-01-15 11:28:03.010661	165.9	15.0	-76.6	7.1
2026-01-15 11:28:04.135404	165.9	15.1	-76.9	6.6
2026-01-15 11:28:05.259866	165.9	15.2	-76.8	5.6
2026-01-15 11:28:06.384633	165.9	15.4	-76.5	0.0
2026-01-15 11:28:07.507690	166.0	15.5	-77.1	6.0
2026-01-15 11:28:08.632392	166.0	15.6	-76.8	6.9
2026-01-15 11:28:09.756920	166.0	15.7	-76.1	7.7
2026-01-15 11:28:10.881893	166.0	15.9	-76.6	7.2
2026-01-15 11:28:12.004377	166.0	16.0	-76.5	5.4
2026-01-15 11:28:13.128727	166.1	16.1	-77.4	7.9
2026-01-15 11:28:14.255084	166.1	16.2	-77.0	7.2
2026-01-15 11:28:15.379190	166.1	16.4	-76.9	7.7
2026-01-15 11:28:16.502798	166.1	16.5	-77.1	7.5
2026-01-15 11:28:17.627835	166.1	16.6	-76.8	6.6
2026-01-15 11:28:18.749878	166.1	16.8	-75.7	5.9
2026-01-15 11:28:19.874436	166.2	16.9	-77.4	8.2
2026-01-15 11:28:20.999138	166.2	17.0	-77.1	8.3
2026-01-15 11:28:22.123218	166.2	17.1	-76.1	6.6
2026-01-15 11:28:23.247867	166.2	17.3	-77.3	7.9
2026-01-15 11:28:24.371050	166.2	17.4	-76.6	8.6
2026-01-15 11:28:25.495308	166.3	17.5	-77.4	9.1
2026-01-15 11:28:26.620120	166.3	17.7	-76.8	9.5
2026-01-15 11:28:27.742482	166.3	17.8	-77.0	9.1
2026-01-15 11:28:28.867160	166.3	17.9	-76.8	8.2
2026-01-15 11:28:29.992259	166.3	18.1	-76.5	7.6
2026-01-15 11:28:31.117845	166.4	18.2	-76.9	8.0
2026-01-15 11:28:32.241315	166.4	18.4	-76.1	5.2
2026-01-15 11:28:33.366198	166.4	18.5	-77.1	8.3
2026-01-15 11:28:34.493429	166.4	18.6	-76.5	6.7
2026-01-15 11:28:35.618776	166.4	18.8	-76.7	8.1
2026-01-15 11:28:36.743813	166.5	18.9	-77.0	8.7
2026-01-15 11:28:37.868764	166.5	19.1	-76.9	9.1
2026-01-15 11:28:38.992912	166.5	19.2	-76.3	7.8
2026-01-15 11:28:40.118376	166.5	19.4	-75.6	7.7
2026-01-15 11:28:41.243442	166.6	19.5	-76.4	7.7
2026-01-15 11:28:42.368902	166.6	19.6	-76.7	8.8
2026-01-15 11:28:43.493622	166.6	19.8	-76.5	8.9
2026-01-15 11:28:44.619205	166.6	19.9	-77.1	8.4
2026-01-15 11:28:45.743911	166.6	20.1	-77.2	9.6
2026-01-15 11:28:46.867325	166.7	20.2	-76.2	7.8
2026-01-15 11:28:47.992150	166.7	20.4	-76.9	9.5
2026-01-15 11:28:49.114757	166.7	20.5	-76.8	9.6
2026-01-15 11:28:50.239513	166.7	20.7	-77.1	7.0
2026-01-15 11:28:51.363424	166.8	20.8	-77.3	10.4
2026-01-15 11:28:52.486727	166.8	21.0	-76.1	6.6
2026-01-15 11:28:53.610421	166.8	21.1	-76.6	8.3
2026-01-15 11:28:54.734273	166.8	21.3	-77.4	9.2
2026-01-15 11:28:55.860781	166.9	21.5	-77.4	9.9
2026-01-15 11:28:56.986826	166.9	21.6	-77.2	10.3
2026-01-15 11:28:58.112250	166.9	21.8	-77.0	10.2
2026-01-15 11:28:59.238643	166.9	21.9	-77.2	10.6
2026-01-15 11:29:00.363298	167.0	22.1	-77.1	9.7
2026-01-15 11:29:01.488162	167.0	22.3	-77.1	10.5
2026-01-15 11:29:02.614100	167.0	22.4	-76.8	9.5
2026-01-15 11:29:03.738233	167.0	22.6	-76.4	7.7
2026-01-15 11:29:04.863296	167.1	22.7	-76.9	10.0
2026-01-15 11:29:05.988542	167.1	22.9	-77.5	10.0
2026-01-15 11:29:07.112907	167.1	23.1	-76.8	9.0
2026-01-15 11:29:08.237871	167.1	23.2	-76.9	10.8
2026-01-15 11:29:09.362218	167.2	23.4	-76.9	9.6
2026-01-15 11:29:10.488473	167.2	23.6	-77.3	9.9
2026-01-15 11:29:11.614256	167.2	23.8	-76.5	10.9
2026-01-15 11:29:12.738572	167.2	23.9	-76.3	10.0
2026-01-15 11:29:13.861242	167.3	24.1	-76.6	8.6
2026-01-15 11:29:14.986178	167.3	24.3	-77.1	9.3
2026-01-15 11:29:16.109718	167.3	24.5	-76.6	9.1
2026-01-15 11:29:17.234781	167.4	24.6	-76.8	9.2
2026-01-15 11:29:18.358697	167.4	24.8	-77.3	9.0
2026-01-15 11:29:19.483253	167.4	25.0	-76.5	9.4
2026-01-15 11:29:20.608799	167.4	25.2	-76.7	7.3
2026-01-15 11:29:21.731542	167.5	25.4	-76.8	7.9
2026-01-15 11:29:22.857239	167.5	25.5	-76.6	9.7
2026-01-15 11:29:23.982172	167.5	25.7	-76.8	7.4
2026-01-15 11:29:25.107059	167.6	25.9	-76.4	8.6
2026-01-15 11:29:26.233138	167.6	26.1	-76.6	8.5
2026-01-15 11:29:27.359270	167.6	26.3	-76.3	7.5
2026-01-15 11:29:28.481940	167.7	26.5	-77.0	9.1
2026-01-15 11:29:29.604551	167.7	26.7	-77.1	8.8
2026-01-15 11:29:30.728235	167.7	26.9	-77.1	8.3
2026-01-15 11:29:31.854211	167.8	27.0	-76.8	9.5
2026-01-15 11:29:32.977328	167.8	27.2	-76.6	7.5
2026-01-15 11:29:34.102485	167.8	27.4	-75.4	9.6
2026-01-15 11:29:35.229025	167.9	27.6	-76.8	10.2
2026-01-15 11:29:36.355549	167.9	27.8	-76.7	9.2
2026-01-15 11:29:37.478592	167.9	28.0	-76.3	7.3
2026-01-15 11:29:38.603767	168.0	28.2	-76.6	10.1
2026-01-15 11:29:39.729132	168.0	28.4	-76.0	6.9
2026-01-15 11:29:40.853625	168.0	28.6	-76.2	6.1
2026-01-15 11:29:41.978964	168.1	28.9	-76.7	8.0
2026-01-15 11:29:43.109009	168.1	29.1	-76.5	9.3
2026-01-15 11:29:44.233114	168.2	29.3	-76.9	8.4
2026-01-15 11:29:45.358332	168.2	29.5	-76.6	5.3
2026-01-15 11:29:46.484441	168.2	29.7	-76.0	8.8
2026-01-15 11:29:47.610131	168.3	29.9	-76.6	9.4
2026-01-15 11:29:48.731981	168.3	30.1	-76.9	6.8
2026-01-15 11:29:49.854594	168.4	30.3	-76.1	5.6
2026-01-15 11:29:50.980795	168.4	30.6	-76.2	8.9
2026-01-15 11:29:52.106003	168.4	30.8	-75.0	4.9
2026-01-15 11:29:53.230844	168.5	31.0	-76.3	6.4
2026-01-15 11:29:54.355200	168.5	31.2	-76.8	8.7
2026-01-15 11:29:55.481178	168.6	31.5	-76.5	6.5
2026-01-15 11:29:56.606548	168.6	31.7	-75.6	2.7
2026-01-15 11:29:57.730360	168.6	31.9	-76.5	9.1
2026-01-15 11:29:58.856803	168.7	32.1	-76.4	9.4
2026-01-15 11:29:59.979240	168.7	32.4	-76.6	6.8
2026-01-15 11:30:01.102044	168.8	32.6	-76.3	8.3
2026-01-15 11:30:02.226992	168.8	32.9	-76.9	10.7
2026-01-15 11:30:03.350337	168.9	33.1	-77.2	10.4
2026-01-15 11:30:04.474899	168.9	33.3	-76.8	10.0
2026-01-15 11:30:05.599271	169.0	33.6	-77.2	11.0
2026-01-15 11:30:06.724787	169.0	33.8	-77.2	10.6
2026-01-15 11:30:07.848537	169.1	34.1	-77.3	10.5
2026-01-15 11:30:08.972971	169.1	34.3	-76.7	7.9
2026-01-15 11:30:10.098392	169.2	34.6	-76.6	8.0
2026-01-15 11:30:11.223757	169.2	34.8	-77.3	10.0
2026-01-15 11:30:12.348101	169.3	35.1	-77.0	10.4
2026-01-15 11:30:13.471539	169.3	35.3	-77.1	8.0
2026-01-15 11:30:14.598085	169.4	35.6	-77.3	9.8
2026-01-15 11:30:15.722937	169.4	35.8	-77.7	9.8
2026-01-15 11:30:16.847099	169.5	36.1	-78.0	10.0
2026-01-15 11:30:17.972579	169.5	36.4	-77.4	8.1
2026-01-15 11:30:19.098081	169.6	36.6	-77.9	10.1
2026-01-15 11:30:20.221780	169.7	36.9	-78.1	10.8
2026-01-15 11:30:21.345876	169.7	37.2	-77.9	8.9
2026-01-15 11:30:22.468029	169.8	37.5	-77.7	9.3
2026-01-15 11:30:23.593876	169.8	37.7	-77.9	10.7
2026-01-15 11:30:24.717826	169.9	38.0	-78.4	11.1
2026-01-15 11:30:25.843260	170.0	38.3	-78.4	11.4
2026-01-15 11:30:26.968841	170.0	38.6	-78.5	11.6
2026-01-15 11:30:28.094824	170.1	38.9	-78.3	11.2
2026-01-15 11:30:29.218275	170.2	39.1	-78.3	10.6
2026-01-15 11:30:30.343338	170.2	39.4	-78.7	11.5
2026-01-15 11:30:31.470836	170.3	39.7	-78.3	11.0
2026-01-15 11:30:32.595148	170.4	40.0	-78.2	10.1
2026-01-15 11:30:33.718135	170.4	40.3	-78.5	11.4
2026-01-15 11:30:34.842073	170.5	40.6	-78.5	11.5
2026-01-15 11:30:35.966946	170.6	40.9	-78.6	12.3
2026-01-15 11:30:37.094435	170.6	41.2	-78.3	12.6
2026-01-15 11:30:38.219184	170.7	41.5	-78.6	11.4
2026-01-15 11:30:39.341639	170.8	41.8	-78.5	12.2
2026-01-15 11:30:40.465913	170.9	42.2	-78.1	11.2
2026-01-15 11:30:41.590109	171.0	42.5	-78.3	12.3
2026-01-15 11:30:42.717177	171.0	42.8	-78.7	11.5
2026-01-15 11:30:43.842271	171.1	43.1	-78.7	12.1
2026-01-15 11:30:44.967161	171.2	43.4	-79.2	11.1
2026-01-15 11:30:46.091819	171.3	43.8	-78.7	11.0
2026-01-15 11:30:47.216202	171.4	44.1	-79.0	12.0
2026-01-15 11:30:48.338871	171.5	44.4	-78.9	10.4
2026-01-15 11:30:49.465105	171.6	44.7	-79.2	11.2
2026-01-15 11:30:50.590045	171.6	45.1	-79.2	11.5
2026-01-15 11:30:51.713506	171.7	45.4	-78.9	11.4
2026-01-15 11:30:52.839105	171.8	45.8	-79.0	11.5
2026-01-15 11:30:53.962068	171.9	46.1	-79.4	10.9
2026-01-15 11:30:55.088233	172.0	46.5	-79.2	11.0
2026-01-15 11:30:56.214757	172.1	46.8	-79.3	10.9
2026-01-15 11:30:57.339421	172.3	47.2	-79.2	10.4
2026-01-15 11:30:58.463277	172.4	47.5	-79.1	10.6
2026-01-15 11:30:59.587922	172.5	47.9	-79.4	10.2
2026-01-15 11:31:00.710995	172.6	48.2	-78.9	9.2
2026-01-15 11:31:01.835158	172.7	48.6	-79.0	10.4
2026-01-15 11:31:02.962281	172.8	49.0	-79.4	10.5
2026-01-15 11:31:04.088317	172.9	49.3	-79.1	10.0
2026-01-15 11:31:05.211737	173.1	49.7	-79.3	10.6
2026-01-15 11:31:06.335323	173.2	50.1	-79.1	10.1
2026-01-15 11:31:07.458767	173.3	50.5	-79.3	10.1
2026-01-15 11:31:08.584155	173.5	50.9	-79.6	10.9
2026-01-15 11:31:09.706901	173.6	51.2	-79.6	10.2
2026-01-15 11:31:10.832876	173.7	51.6	-79.4	9.2
2026-01-15 11:31:11.958548	173.9	52.0	-79.9	9.6
2026-01-15 11:31:13.083446	174.0	52.4	-79.8	10.1
2026-01-15 11:31:14.208405	174.2	52.8	-79.8	10.2
2026-01-15 11:31:15.332772	174.3	53.2	-79.7	9.2
2026-01-15 11:31:16.456355	174.5	53.6	-80.1	9.5
2026-01-15 11:31:17.581444	174.6	54.0	-80.0	9.2
2026-01-15 11:31:18.710539	174.8	54.4	-80.1	8.9
2026-01-15 11:31:19.833907	175.0	54.8	-80.3	8.7
2026-01-15 11:31:20.956834	175.2	55.3	-80.5	8.6
2026-01-15 11:31:22.081302	175.4	55.7	-80.6	7.8
2026-01-15 11:31:23.206386	175.5	56.1	-80.7	8.5
2026-01-15 11:31:24.329920	175.7	56.5	-80.6	8.0
2026-01-15 11:31:25.455479	175.9	57.0	-80.7	8.0
2026-01-15 11:31:26.580296	176.1	57.4	-80.4	6.7
2026-01-15 11:31:27.707526	176.4	57.8	-81.4	7.9
2026-01-15 11:31:28.834086	176.6	58.3	-81.6	7.8
2026-01-15 11:31:29.957811	176.8	58.7	-81.4	7.7
2026-01-15 11:31:31.082848	177.0	59.1	-81.6	7.4
2026-01-15 11:31:32.207706	177.3	59.6	-80.9	6.9
2026-01-15 11:31:33.330296	177.5	60.0	-81.1	8.0
2026-01-15 11:31:34.457900	177.8	60.5	-80.3	6.3
2026-01-15 11:31:35.582735	178.1	60.9	-80.1	7.5
2026-01-15 11:31:36.708347	178.3	61.4	-80.1	8.4
2026-01-15 11:31:37.832251	178.6	61.8	-80.4	9.6
2026-01-15 11:31:38.958911	178.9	62.3	-79.9	8.5
2026-01-15 11:31:40.082643	179.2	62.8	-79.6	9.2
2026-01-15 11:31:41.209016	179.6	63.2	-79.8	9.7
2026-01-15 11:31:42.333937	179.9	63.7	-79.4	10.2
2026-01-15 11:31:43.456708	180.3	64.2	-79.6	10.3
2026-01-15 11:31:44.580267	180.6	64.6	-79.0	9.5
2026-01-15 11:31:45.704899	181.0	65.1	-78.9	8.7
2026-01-15 11:31:46.830716	181.4	65.6	-78.9	10.0
2026-01-15 11:31:47.956268	181.8	66.1	-79.3	10.1
2026-01-15 11:31:49.080937	182.2	66.6	-79.3	10.5
2026-01-15 11:31:50.205314	182.7	67.0	-78.9	10.3
2026-01-15 11:31:51.328907	183.2	67.5	-78.7	8.1
2026-01-15 11:31:52.451980	183.7	68.0	-79.3	10.4
2026-01-15 11:31:53.576368	184.2	68.5	-79.5	10.1
2026-01-15 11:31:54.700692	184.7	69.0	-79.1	10.6
2026-01-15 11:31:55.825992	185.3	69.5	-79.5	10.5
2026-01-15 11:31:56.949348	185.9	69.9	-79.4	9.2
2026-01-15 11:31:58.075052	186.5	70.4	-78.3	8.0
2026-01-15 11:31:59.200556	187.2	70.9	-79.6	9.1
2026-01-15 11:32:00.325364	187.9	71.4	-79.9	9.2
2026-01-15 11:32:01.448900	188.7	71.9	-79.5	8.3
2026-01-15 11:32:02.574586	189.4	72.4	-79.2	8.9
2026-01-15 11:32:03.697263	190.3	72.9	-79.1	6.9
2026-01-15 11:32:04.822865	191.2	73.3	-79.3	7.7
2026-01-15 11:32:05.946841	192.1	73.8	-79.3	8.6
2026-01-15 11:32:07.070798	193.1	74.3	-79.3	8.9
2026-01-15 11:32:08.193530	194.2	74.8	-79.2	8.9
2026-01-15 11:32:09.317287	195.3	75.2	-79.2	9.7
2026-01-15 11:32:10.441240	196.5	75.7	-78.3	7.5
2026-01-15 11:32:11.564091	197.8	76.2	-78.9	8.9
2026-01-15 11:32:12.687321	199.2	76.6	-78.7	7.8
2026-01-15 11:32:13.812922	200.7	77.1	-79.0	9.0
2026-01-15 11:32:14.935537	202.3	77.5	-78.8	8.8
2026-01-15 11:32:16.058059	204.0	78.0	-78.6	7.7
2026-01-15 11:32:17.183474	205.9	78.4	-78.8	8.5
2026-01-15 11:32:18.309305	207.9	78.8	-79.2	8.6
2026-01-15 11:32:19.432407	210.0	79.2	-79.0	9.1
2026-01-15 11:32:20.558289	212.3	79.6	-79.2	9.9
2026-01-15 11:32:21.681640	214.8	79.9	-78.9	9.7
2026-01-15 11:32:22.807022	217.5	80.3	-78.5	9.7
2026-01-15 11:32:23.929519	220.3	80.6	-78.5	8.8
2026-01-15 11:32:25.055135	223.4	80.9	-78.5	8.0
2026-01-15 11:32:26.178557	226.6	81.2	-78.2	6.7
2026-01-15 11:32:27.303655	230.1	81.4	-78.1	8.0
2026-01-15 11:32:28.428423	233.7	81.6	-78.4	8.3
2026-01-15 11:32:29.554848	237.6	81.8	-78.5	8.9
2026-01-15 11:32:30.679077	241.6	82.0	-78.1	8.2
2026-01-15 11:32:31.802284	245.6	82.1	-78.4	7.9
2026-01-15 11:32:32.926869	249.8	82.1	-77.8	6.1
2026-01-15 11:32:34.052328	254.1	82.1	-78.3	8.2
2026-01-15 11:32:35.175529	258.3	82.1	-77.6	7.9
2026-01-15 11:32:36.299565	262.4	82.0	-78.4	8.6
2026-01-15 11:32:37.421529	266.5	81.9	-77.8	8.5
2026-01-15 11:32:38.545531	270.5	81.8	-78.2	8.2
2026-01-15 11:32:39.670707	274.3	81.6	-77.5	7.7
2026-01-15 11:32:40.796506	277.9	81.4	-78.3	7.6
2026-01-15 11:32:41.923693	281.3	81.1	-77.5	8.5
2026-01-15 11:32:43.048134	284.5	80.9	-77.3	6.5
2026-01-15 11:32:44.171961	287.5	80.5	-77.3	6.7
2026-01-15 11:32:45.297429	290.4	80.2	-77.2	7.9
2026-01-15 11:32:46.424625	293.0	79.9	-77.0	8.2
2026-01-15 11:32:47.546945	295.4	79.5	-77.7	7.9
2026-01-15 11:32:48.675187	297.7	79.1	-78.0	7.5
2026-01-15 11:32:49.799287	299.8	78.7	-77.1	5.9
2026-01-15 11:32:50.922741	301.8	78.3	-77.0	5.0
2026-01-15 11:32:52.045008	303.6	77.9	-76.5	4.5
2026-01-15 11:32:53.170512	305.3	77.4	-77.8	6.5
2026-01-15 11:32:54.295761	306.9	77.0	-78.3	6.2
2026-01-15 11:32:55.421238	308.3	76.5	-77.7	5.7
2026-01-15 11:32:56.544558	309.7	76.1	-77.7	4.9
2026-01-15 11:32:57.670371	311.0	75.6	-77.5	4.1
2026-01-15 11:32:58.794118	312.2	75.2	-76.7	2.9
2026-01-15 11:32:59.917511	313.3	74.7	-77.6	3.1
2026-01-15 11:33:01.042612	314.4	74.2	-78.2	7.1
2026-01-15 11:33:02.169016	315.4	73.7	-77.8	3.6
2026-01-15 11:33:03.292264	316.3	73.3	-77.9	3.3
2026-01-15 11:33:04.417122	317.2	72.8	-77.1	3.0
2026-01-15 11:33:05.540737	318.0	72.3	-78.0	3.6
2026-01-15 11:33:06.665084	318.8	71.8	-78.1	4.3
2026-01-15 11:33:07.789245	319.5	71.3	-77.2	4.2
2026-01-15 11:33:08.912159	320.2	70.8	-77.1	3.0
2026-01-15 11:33:10.036735	320.9	70.4	-77.9	5.0
2026-01-15 11:33:11.161129	321.5	69.9	-76.7	2.0
2026-01-15 11:33:12.284990	322.1	69.4	-77.1	4.0
2026-01-15 11:33:13.408284	322.7	68.9	-78.3	5.3
2026-01-15 11:33:14.531445	323.2	68.4	-78.2	3.3
2026-01-15 11:33:15.654317	323.7	67.9	-78.7	5.6
2026-01-15 11:33:16.778976	324.2	67.4	-77.6	0.0
2026-01-15 11:33:17.905643	324.7	67.0	-77.7	0.2
2026-01-15 11:33:19.030915	325.1	66.5	-78.8	2.4
2026-01-15 11:33:20.153007	325.5	66.0	-79.2	3.7
2026-01-15 11:33:21.276851	326.0	65.5	-78.1	0.7
2026-01-15 11:33:22.399368	326.4	65.1	-79.0	2.8
2026-01-15 11:33:23.523107	326.7	64.6	-77.3	1.3
2026-01-15 11:33:24.647124	327.1	64.1	-78.4	3.4
2026-01-15 11:33:25.770259	327.4	63.7	-78.0	1.1
2026-01-15 11:33:26.894797	327.8	63.2	-77.8	3.1
2026-01-15 11:33:28.018321	328.1	62.7	-77.2	1.9
2026-01-15 11:33:29.145543	328.4	62.3	-78.1	1.8
2026-01-15 11:33:30.268877	328.7	61.8	-78.3	4.2
2026-01-15 11:33:31.392987	329.0	61.3	-78.1	3.3
2026-01-15 11:33:32.517971	329.3	60.9	-78.3	3.2
2026-01-15 11:33:33.640333	329.5	60.4	-78.5	4.8
2026-01-15 11:33:34.765190	329.8	60.0	-77.9	2.7
2026-01-15 11:33:35.889732	330.0	59.6	-78.6	2.6
2026-01-15 11:33:37.012899	330.3	59.1	-77.8	0.0
2026-01-15 11:33:38.137111	330.5	58.7	-78.9	3.4
2026-01-15 11:33:39.261815	330.7	58.2	-77.5	0.9
2026-01-15 11:33:40.388217	331.0	57.8	-78.1	1.8
2026-01-15 11:33:41.512299	331.2	57.4	-78.0	2.5
2026-01-15 11:33:42.635059	331.4	56.9	-77.8	0.0
2026-01-15 11:33:43.758913	331.6	56.5	-78.0	2.1
2026-01-15 11:33:44.883596	331.8	56.1	-78.2	2.9
2026-01-15 11:33:46.006994	332.0	55.7	-78.0	4.1
2026-01-15 11:33:47.129021	332.1	55.3	-77.4	3.0
2026-01-15 11:33:48.252012	332.3	54.8	-77.7	3.3
2026-01-15 11:33:49.377256	332.5	54.4	-76.8	0.6
2026-01-15 11:33:50.502616	332.7	54.0	-77.2	0.6
2026-01-15 11:33:51.625116	332.8	53.6	-76.9	0.1
2026-01-15 11:33:52.751206	333.0	53.2	-76.7	1.1
2026-01-15 11:33:53.877520	333.1	52.8	-75.8	0.7
2026-01-15 11:33:55.000591	333.3	52.4	-76.6	1.6
2026-01-15 11:33:56.126178	333.4	52.0	-76.6	4.5
2026-01-15 11:33:57.248828	333.6	51.6	-76.9	1.9
2026-01-15 11:33:58.373894	333.7	51.3	-76.1	0.0
2026-01-15 11:33:59.500397	333.9	50.9	-76.9	5.0
2026-01-15 11:34:00.624970	334.0	50.5	-75.6	1.7
2026-01-15 11:34:01.749081	334.1	50.1	-77.5	4.2
2026-01-15 11:34:02.873198	334.2	49.7	-76.5	0.7
2026-01-15 11:34:03.998564	334.4	49.4	-76.2	0.0
2026-01-15 11:34:05.123061	334.5	49.0	-77.0	2.3
2026-01-15 11:34:06.245347	334.6	48.6	-77.2	2.6
2026-01-15 11:34:07.368465	334.7	48.3	-76.7	2.5
2026-01-15 11:34:08.491196	334.8	47.9	-75.7	2.5
2026-01-15 11:34:09.615773	334.9	47.6	-75.5	0.2
2026-01-15 11:34:10.739425	335.1	47.2	-77.2	3.4
2026-01-15 11:34:11.862616	335.2	46.8	-76.6	3.9
2026-01-15 11:34:12.989160	335.3	46.5	-77.0	1.3
2026-01-15 11:34:14.112966	335.4	46.2	-77.2	3.1
2026-01-15 11:34:15.236782	335.5	45.8	-75.7	3.6
2026-01-15 11:34:16.359849	335.6	45.5	-76.4	4.1
2026-01-15 11:34:17.481883	335.7	45.1	-76.6	4.3
2026-01-15 11:34:18.607071	335.7	44.8	-75.9	1.6
2026-01-15 11:34:19.729532	335.8	44.5	-76.1	1.3
2026-01-15 11:34:20.854118	335.9	44.1	-74.4	0.0
2026-01-15 11:34:21.977077	336.0	43.8	-75.8	2.6
2026-01-15 11:34:23.101137	336.1	43.5	-74.3	1.8
2026-01-15 11:34:24.225718	336.2	43.2	-74.9	0.4
2026-01-15 11:34:25.349296	336.3	42.9	-76.0	3.2
2026-01-15 11:34:26.472351	336.4	42.5	-73.3	0.0
2026-01-15 11:34:27.595199	336.4	42.2	-74.7	2.0
2026-01-15 11:34:28.718252	336.5	41.9	-73.9	0.0
2026-01-15 11:34:29.840747	336.6	41.6	-74.2	0.8
2026-01-15 11:34:30.965117	336.7	41.3	-74.5	0.0
2026-01-15 11:34:32.089811	336.7	41.0	-73.2	0.0
2026-01-15 11:34:33.212733	336.8	40.7	-73.4	0.0
2026-01-15 11:34:34.335184	336.9	40.4	-70.2	0.0
2026-01-15 11:34:35.459702	337.0	40.1	-69.2	0.0
2026-01-15 11:34:36.582409	337.0	39.8	-68.0	0.0
2026-01-15 11:34:37.705238	337.1	39.5	-70.5	0.0
2026-01-15 11:34:38.828728	337.2	39.2	-72.5	0.0
2026-01-15 11:34:39.951227	337.2	38.9	-71.9	0.0
2026-01-15 11:34:41.074272	337.3	38.7	-71.0	0.0
2026-01-15 11:34:42.197335	337.4	38.4	-72.8	0.0
2026-01-15 11:34:43.320516	337.4	38.1	-72.2	0.0
2026-01-15 11:34:44.445604	337.5	37.8	-72.0	0.0
2026-01-15 11:34:45.569900	337.5	37.6	-72.4	0.0
2026-01-15 11:34:46.695935	337.6	37.3	-72.3	0.0
2026-01-15 11:34:47.818779	337.7	37.0	-72.7	0.0
2026-01-15 11:34:48.943737	337.7	36.7	-71.1	0.0
2026-01-15 11:34:50.068755	337.8	36.5	-71.7	0.0
2026-01-15 11:34:51.194631	337.8	36.2	-72.1	0.0
2026-01-15 11:34:52.319990	337.9	36.0	-71.2	0.0
2026-01-15 11:34:53.444353	337.9	35.7	-71.6	0.0
2026-01-15 11:34:54.567651	338.0	35.4	-71.5	0.0
2026-01-15 11:34:55.690193	338.0	35.2	-70.9	0.0
2026-01-15 11:34:56.815673	338.1	34.9	-71.5	0.0
2026-01-15 11:34:57.943454	338.1	34.7	-70.9	0.0
2026-01-15 11:34:59.067918	338.2	34.4	-69.6	0.0
2026-01-15 11:35:00.190300	338.2	34.2	-72.6	0.0
2026-01-15 11:35:01.313815	338.3	33.9	-67.1	0.0
2026-01-15 11:35:02.438296	338.3	33.7	-66.5	0.0
2026-01-15 11:35:03.563555	338.4	33.5	-71.9	0.0
2026-01-15 11:35:04.689240	338.4	33.2	-70.7	0.0
2026-01-15 11:35:05.812374	338.5	33.0	-71.9	0.0
2026-01-15 11:35:06.936482	338.5	32.7	-72.5	0.0
2026-01-15 11:35:08.061117	338.6	32.5	-68.7	0.0
2026-01-15 11:35:09.184774	338.6	32.3	-70.9	0.0
2026-01-15 11:35:10.308354	338.7	32.0	-71.6	0.0
2026-01-15 11:35:11.431453	338.7	31.8	-70.8	0.0
2026-01-15 11:35:12.557082	338.8	31.6	-68.2	0.0
2026-01-15 11:35:13.682148	338.8	31.4	-68.7	0.0
2026-01-15 11:35:14.805228	338.8	31.1	-71.9	0.0
2026-01-15 11:35:15.930304	338.9	30.9	-70.2	0.0
2026-01-15 11:35:17.054228	338.9	30.7	-69.9	0.0
2026-01-15 11:35:18.177932	339.0	30.5	-69.7	0.0
2026-01-15 11:35:19.303225	339.0	30.3	-70.5	0.0
2026-01-15 11:35:20.426920	339.0	30.0	-71.2	0.0
2026-01-15 11:35:21.550737	339.1	29.8	-68.8	0.0
2026-01-15 11:35:22.673295	339.1	29.6	-69.8	0.0
2026-01-15 11:35:23.797562	339.2	29.4	-69.9	0.0
2026-01-15 11:35:24.925231	339.2	29.2	-71.6	0.0
2026-01-15 11:35:26.051418	339.2	29.0	-70.8	0.0
2026-01-15 11:35:27.175780	339.3	28.8	-70.0	0.0
2026-01-15 11:35:28.299937	339.3	28.6	-70.9	0.0
2026-01-15 11:35:29.423216	339.4	28.4	-70.5	0.0
2026-01-15 11:35:30.544149	339.4	28.2	-70.6	0.0
2026-01-15 11:35:31.670214	339.4	28.0	-72.2	0.0
2026-01-15 11:35:32.793725	339.5	27.8	-71.4	0.0
2026-01-15 11:35:33.916865	339.5	27.6	-71.6	0.0
2026-01-15 11:35:35.039048	339.5	27.4	-70.1	0.0
2026-01-15 11:35:36.163825	339.6	27.2	-71.0	0.0
2026-01-15 11:35:37.290076	339.6	27.0	-69.6	0.0
2026-01-15 11:35:38.412693	339.6	26.8	-71.3	0.0
2026-01-15 11:35:39.535823	339.7	26.6	-70.1	0.0
2026-01-15 11:35:40.659959	339.7	26.4	-70.7	0.0
2026-01-15 11:35:41.783166	339.7	26.2	-71.4	0.0
2026-01-15 11:35:42.906811	339.8	26.1	-71.8	0.0
2026-01-15 11:35:44.029274	339.8	25.9	-71.6	0.0
2026-01-15 11:35:45.152992	339.8	25.7	-71.7	0.0
2026-01-15 11:35:46.274867	339.9	25.5	-71.7	0.0
2026-01-15 11:35:47.398398	339.9	25.3	-70.4	0.0
2026-01-15 11:35:48.522425	339.9	25.2	-71.4	0.0
2026-01-15 11:35:49.644861	339.9	25.0	-71.0	0.0
2026-01-15 11:35:50.767943	340.0	24.8	-71.2	0.0
2026-01-15 11:35:51.893267	340.0	24.6	-70.7	0.0
2026-01-15 11:35:53.016294	340.0	24.4	-70.8	0.0
2026-01-15 11:35:54.140469	340.1	24.3	-69.3	0.0
2026-01-15 11:35:55.266222	340.1	24.1	-69.3	0.0
2026-01-15 11:35:56.389225	340.1	23.9	-71.4	0.0
2026-01-15 11:35:57.514040	340.1	23.8	-70.1	0.0
2026-01-15 11:35:58.638209	340.2	23.6	-69.8	0.0
2026-01-15 11:35:59.762892	340.2	23.4	-71.1	0.0
2026-01-15 11:36:00.888120	340.2	23.3	-69.4	0.0
2026-01-15 11:36:02.010539	340.3	23.1	-68.8	0.0
2026-01-15 11:36:03.135169	340.3	22.9	-67.1	0.0
2026-01-15 11:36:04.261241	340.3	22.8	-68.4	0.0
2026-01-15 11:36:05.387089	340.3	22.6	-70.3	0.0
2026-01-15 11:36:06.512197	340.4	22.4	-68.8	0.0
2026-01-15 11:36:07.636244	340.4	22.3	-69.8	0.0
2026-01-15 11:36:08.760277	340.4	22.1	-69.8	0.0
2026-01-15 11:36:09.885922	340.4	22.0	-69.1	0.0
2026-01-15 11:36:11.008331	340.5	21.8	-70.2	0.0
2026-01-15 11:36:12.131902	340.5	21.6	-67.6	0.0
2026-01-15 11:36:13.255770	340.5	21.5	-68.7	0.0
2026-01-15 11:36:14.378316	340.5	21.3	-70.2	0.0
2026-01-15 11:36:15.502711	340.6	21.2	-70.6	0.0
2026-01-15 11:36:16.626955	340.6	21.0	-69.2	0.0
2026-01-15 11:36:17.753080	340.6	20.9	-69.9	0.0
2026-01-15 11:36:18.877373	340.6	20.7	-69.5	0.0
2026-01-15 11:36:20.001459	340.7	20.6	-69.5	0.0
2026-01-15 11:36:21.126020	340.7	20.4	-68.1	0.0
2026-01-15 11:36:22.248346	340.7	20.3	-67.4	0.0
2026-01-15 11:36:23.372559	340.7	20.1	-69.0	0.0
2026-01-15 11:36:24.495987	340.8	20.0	-69.8	0.0
2026-01-15 11:36:25.620411	340.8	19.8	-68.8	0.0
2026-01-15 11:36:26.745032	340.8	19.7	-70.8	0.0
2026-01-15 11:36:27.868298	340.8	19.5	-69.5	0.0
2026-01-15 11:36:28.993448	340.9	19.4	-69.3	0.0
2026-01-15 11:36:30.117907	340.9	19.3	-70.8	0.0
2026-01-15 11:36:31.242958	340.9	19.1	-71.9	0.0
2026-01-15 11:36:32.366494	340.9	19.0	-68.8	0.0
2026-01-15 11:36:33.490264	340.9	18.8	-68.5	0.0
2026-01-15 11:36:34.615338	341.0	18.7	-69.7	0.0
2026-01-15 11:36:35.739749	341.0	18.6	-70.2	0.0
2026-01-15 11:36:36.864148	341.0	18.4	-71.0	0.0
2026-01-15 11:36:37.988728	341.0	18.3	-71.3	0.0
2026-01-15 11:36:39.114283	341.0	18.1	-69.3	0.0
2026-01-15 11:36:40.239875	341.1	18.0	-71.7	0.0
2026-01-15 11:36:41.362645	341.1	17.9	-71.1	0.0
2026-01-15 11:36:42.487038	341.1	17.7	-72.3	0.0
2026-01-15 11:36:43.611461	341.1	17.6	-72.1	0.0
2026-01-15 11:36:44.736780	341.1	17.5	-71.1	0.0
2026-01-15 11:36:45.861024	341.2	17.3	-70.1	0.0
2026-01-15 11:36:46.988073	341.2	17.2	-73.1	0.0
2026-01-15 11:36:48.111948	341.2	17.1	-70.9	0.0
2026-01-15 11:36:49.236280	341.2	16.9	-73.2	0.0
2026-01-15 11:36:50.359349	341.2	16.8	-72.1	0.0
2026-01-15 11:36:51.484629	341.3	16.7	-69.5	0.0
2026-01-15 11:36:52.611349	341.3	16.6	-71.5	0.0
2026-01-15 11:36:53.734939	341.3	16.4	-73.0	0.0
2026-01-15 11:36:54.858049	341.3	16.3	-71.5	0.0
2026-01-15 11:36:55.980638	341.3	16.2	-71.5	0.0
2026-01-15 11:36:57.105629	341.4	16.1	-72.7	0.0
2026-01-15 11:36:58.229871	341.4	15.9	-72.6	0.0
2026-01-15 11:36:59.352642	341.4	15.8	-72.3	0.0
2026-01-15 11:37:00.475626	341.4	15.7	-72.2	0.0
2026-01-15 11:37:01.600790	341.4	15.6	-71.6	0.0
2026-01-15 11:37:02.726886	341.5	15.4	-73.3	0.0
2026-01-15 11:37:03.851364	341.5	15.3	-72.6	0.0
2026-01-15 11:37:04.978022	341.5	15.2	-72.1	0.0
2026-01-15 11:37:06.101349	341.5	15.1	-73.6	0.0
2026-01-15 11:37:07.222592	341.5	15.0	-73.2	0.0
2026-01-15 11:37:08.348293	341.5	14.8	-73.7	0.0
2026-01-15 11:37:09.474339	341.6	14.7	-73.9	0.0
2026-01-15 11:37:10.598284	341.6	14.6	-73.8	0.0
2026-01-15 11:37:11.722923	341.6	14.5	-73.8	0.0
2026-01-15 11:37:12.845441	341.6	14.4	-74.2	0.0
2026-01-15 11:37:13.968602	341.6	14.3	-74.3	0.0
2026-01-15 11:37:15.095095	341.7	14.1	-73.7	0.0
2026-01-15 11:37:16.221365	341.7	14.0	-73.5	0.0
2026-01-15 11:37:17.344912	341.7	13.9	-73.3	0.0
2026-01-15 11:37:18.468591	341.7	13.8	-73.5	0.0
2026-01-15 11:37:19.592504	341.7	13.7	-73.8	0.0
2026-01-15 11:37:20.715877	341.7	13.6	-73.6	0.0
2026-01-15 11:37:21.840227	341.8	13.5	-72.6	0.0
2026-01-15 11:37:22.963885	341.8	13.3	-73.7	0.0
2026-01-15 11:37:24.088891	341.8	13.2	-74.5	0.0
2026-01-15 11:37:25.213934	341.8	13.1	-72.7	0.0
2026-01-15 11:37:26.339032	341.8	13.0	-74.9	0.0
2026-01-15 11:37:27.463889	341.8	12.9	-73.2	0.0
2026-01-15 11:37:28.589304	341.8	12.8	-73.8	0.0
2026-01-15 11:37:29.712893	341.9	12.7	-73.3	0.0
2026-01-15 11:37:30.837663	341.9	12.6	-73.1	0.0
2026-01-15 11:37:31.960573	341.9	12.5	-73.1	0.0
2026-01-15 11:37:33.088067	341.9	12.4	-72.7	0.0
2026-01-15 11:37:34.213213	341.9	12.3	-74.2	0.0
2026-01-15 11:37:35.335295	341.9	12.2	-73.7	0.0
2026-01-15 11:37:36.461672	342.0	12.0	-73.5	0.0
2026-01-15 11:37:37.585497	342.0	11.9	-72.4	0.0
2026-01-15 11:37:38.708447	342.0	11.8	-71.2	0.0
2026-01-15 11:37:39.833825	342.0	11.7	-71.2	0.0
2026-01-15 11:37:40.958362	342.0	11.6	-73.3	0.0
2026-01-15 11:37:42.083156	342.0	11.5	-73.3	0.0
2026-01-15 11:37:43.207948	342.1	11.4	-72.9	0.0
2026-01-15 11:37:44.330585	342.1	11.3	-73.5	0.0
2026-01-15 11:37:45.454950	342.1	11.2	-71.5	0.0
2026-01-15 11:37:46.579428	342.1	11.1	-73.8	0.0
2026-01-15 11:37:47.701757	342.1	11.0	-73.3	0.0
2026-01-15 11:37:48.825948	342.1	10.9	-75.1	0.0
2026-01-15 11:37:49.950633	342.1	10.8	-74.2	0.0
2026-01-15 11:37:51.076579	342.2	10.7	-72.3	0.0
2026-01-15 11:37:52.201125	342.2	10.6	-71.1	0.0
2026-01-15 11:37:53.323818	342.2	10.5	-71.4	0.0
2026-01-15 11:37:54.447649	342.2	10.4	-74.9	0.0
2026-01-15 11:37:55.571976	342.2	10.3	-74.8	0.0
2026-01-15 11:37:56.698400	342.2	10.2	-75.3	0.0
2026-01-15 11:37:57.823728	342.2	10.1	-75.3	0.0
#Closed at: 2026-01-15 11:27:06.374798