passes_logs/2026/01/15/planumMaritime01/planumMaritime01__20260115_180851_METOP-C_rec.log

#Pass ID: 20260115_180851_METOP-C
#Satellite: METOP-C
#Configuration: METOP-C
#Start time: 2026-01-15 18:08:56.773067

#LorettStation: 1.0.0 05.05.2024
#Station: planumMaritime01
#Location: 37.49445 lon 55.92918 lat
#TLE: 1 43689U 18087A   26015.18579420  .00000072  00000+0  52830-4 0  9994
#TLE: 2 43689  98.6879  77.4344 0000553 183.5432 176.5742 14.21498340373097

#Time	Az	El	Level	SNR
2026-01-15 18:08:58.944438	164.3	10.2	-73.4	0.0
2026-01-15 18:09:00.066910	164.3	10.3	-73.4	0.0
2026-01-15 18:09:01.191969	164.3	10.4	-73.7	0.0
2026-01-15 18:09:02.314723	164.3	10.5	-73.0	0.0
2026-01-15 18:09:03.437328	164.3	10.6	-72.9	2.3
2026-01-15 18:09:04.559857	164.3	10.7	-73.5	1.1
2026-01-15 18:09:05.685493	164.3	10.8	-73.1	3.0
2026-01-15 18:09:06.807683	164.3	10.9	-73.7	2.4
2026-01-15 18:09:07.930760	164.3	11.0	-73.9	3.9
2026-01-15 18:09:09.057015	164.4	11.1	-73.4	3.6
2026-01-15 18:09:10.180235	164.4	11.2	-73.3	3.6
2026-01-15 18:09:11.302325	164.4	11.3	-73.4	3.4
2026-01-15 18:09:12.424448	164.4	11.4	-72.5	2.2
2026-01-15 18:09:13.546392	164.4	11.5	-73.8	2.7
2026-01-15 18:09:14.668184	164.4	11.6	-73.9	4.1
2026-01-15 18:09:15.793169	164.4	11.7	-73.2	1.8
2026-01-15 18:09:16.914599	164.4	11.8	-73.0	3.5
2026-01-15 18:09:18.037666	164.4	11.9	-72.8	3.8
2026-01-15 18:09:19.159928	164.5	12.0	-73.2	2.4
2026-01-15 18:09:20.282155	164.5	12.1	-72.9	3.2
2026-01-15 18:09:21.405647	164.5	12.3	-72.5	4.0
2026-01-15 18:09:22.527986	164.5	12.4	-72.9	1.4
2026-01-15 18:09:23.650595	164.5	12.5	-72.7	4.7
2026-01-15 18:09:24.773209	164.5	12.6	-73.0	4.1
2026-01-15 18:09:25.894986	164.5	12.7	-72.4	2.4
2026-01-15 18:09:27.017360	164.5	12.8	-72.8	3.7
2026-01-15 18:09:28.142947	164.6	12.9	-72.7	2.7
2026-01-15 18:09:29.262922	164.6	13.0	-72.6	4.5
2026-01-15 18:09:30.387188	164.6	13.1	-72.1	2.0
2026-01-15 18:09:31.512027	164.6	13.2	-72.6	2.9
2026-01-15 18:09:32.636947	164.6	13.4	-72.6	4.2
2026-01-15 18:09:33.761697	164.6	13.5	-72.7	0.5
2026-01-15 18:09:34.886688	164.6	13.6	-72.5	3.3
2026-01-15 18:09:36.010074	164.6	13.7	-72.4	2.6
2026-01-15 18:09:37.131964	164.7	13.8	-72.5	0.9
2026-01-15 18:09:38.253633	164.7	13.9	-72.1	3.4
2026-01-15 18:09:39.377524	164.7	14.0	-72.0	2.4
2026-01-15 18:09:40.498059	164.7	14.2	-72.3	2.8
2026-01-15 18:09:41.623874	164.7	14.3	-72.4	2.8
2026-01-15 18:09:42.746379	164.7	14.4	-72.1	3.3
2026-01-15 18:09:43.867568	164.7	14.5	-72.7	2.2
2026-01-15 18:09:44.989879	164.8	14.6	-72.6	3.1
2026-01-15 18:09:46.111154	164.8	14.8	-72.3	3.4
2026-01-15 18:09:47.231401	164.8	14.9	-72.4	2.8
2026-01-15 18:09:48.353987	164.8	15.0	-72.0	3.9
2026-01-15 18:09:49.476916	164.8	15.1	-72.5	2.3
2026-01-15 18:09:50.598745	164.8	15.2	-71.9	2.0
2026-01-15 18:09:51.720965	164.8	15.4	-70.9	0.0
2026-01-15 18:09:52.843354	164.8	15.5	-71.8	2.1
2026-01-15 18:09:53.966157	164.9	15.6	-72.3	3.1
2026-01-15 18:09:55.088348	164.9	15.7	-71.3	1.5
2026-01-15 18:09:56.211428	164.9	15.9	-72.2	3.2
2026-01-15 18:09:57.336976	164.9	16.0	-71.9	2.8
2026-01-15 18:09:58.459426	164.9	16.1	-71.9	2.6
2026-01-15 18:09:59.581712	164.9	16.2	-72.1	2.2
2026-01-15 18:10:00.706470	164.9	16.4	-72.3	3.5
2026-01-15 18:10:01.829318	165.0	16.5	-72.2	2.6
2026-01-15 18:10:02.951890	165.0	16.6	-72.4	2.7
2026-01-15 18:10:04.073282	165.0	16.7	-72.0	3.7
2026-01-15 18:10:05.197340	165.0	16.9	-71.7	1.0
2026-01-15 18:10:06.319195	165.0	17.0	-71.9	3.9
2026-01-15 18:10:07.442011	165.0	17.1	-72.2	3.6
2026-01-15 18:10:08.564074	165.1	17.3	-72.1	4.0
2026-01-15 18:10:09.689456	165.1	17.4	-72.1	4.8
2026-01-15 18:10:10.812302	165.1	17.5	-72.0	4.6
2026-01-15 18:10:11.936593	165.1	17.7	-72.1	2.8
2026-01-15 18:10:13.057543	165.1	17.8	-71.8	0.1
2026-01-15 18:10:14.179518	165.1	17.9	-72.3	5.3
2026-01-15 18:10:15.302804	165.1	18.1	-71.8	3.6
2026-01-15 18:10:16.425213	165.2	18.2	-71.9	3.2
2026-01-15 18:10:17.548372	165.2	18.4	-71.5	3.7
2026-01-15 18:10:18.672728	165.2	18.5	-72.0	4.8
2026-01-15 18:10:19.797930	165.2	18.6	-72.0	3.6
2026-01-15 18:10:20.920769	165.2	18.8	-71.8	2.7
2026-01-15 18:10:22.044714	165.2	18.9	-71.8	3.4
2026-01-15 18:10:23.169940	165.3	19.1	-71.8	4.7
2026-01-15 18:10:24.292724	165.3	19.2	-72.2	6.6
2026-01-15 18:10:25.418047	165.3	19.3	-71.9	5.2
2026-01-15 18:10:26.540615	165.3	19.5	-72.2	4.3
2026-01-15 18:10:27.663470	165.3	19.6	-72.2	5.7
2026-01-15 18:10:28.783823	165.4	19.8	-72.4	4.5
2026-01-15 18:10:29.904594	165.4	19.9	-72.3	4.8
2026-01-15 18:10:31.030404	165.4	20.1	-72.1	5.8
2026-01-15 18:10:32.153445	165.4	20.2	-72.6	5.5
2026-01-15 18:10:33.274131	165.4	20.4	-72.3	6.4
2026-01-15 18:10:34.399882	165.4	20.5	-72.3	7.4
2026-01-15 18:10:35.521063	165.5	20.7	-72.3	4.7
2026-01-15 18:10:36.645327	165.5	20.8	-72.3	3.7
2026-01-15 18:10:37.768708	165.5	21.0	-72.6	5.2
2026-01-15 18:10:38.892780	165.5	21.1	-72.1	4.8
2026-01-15 18:10:40.015404	165.5	21.3	-71.8	5.9
2026-01-15 18:10:41.135313	165.6	21.5	-72.3	6.2
2026-01-15 18:10:42.258827	165.6	21.6	-72.5	7.3
2026-01-15 18:10:43.380086	165.6	21.8	-72.0	4.5
2026-01-15 18:10:44.505631	165.6	21.9	-72.1	6.3
2026-01-15 18:10:45.629833	165.6	22.1	-71.5	6.3
2026-01-15 18:10:46.750942	165.7	22.2	-72.3	6.9
2026-01-15 18:10:47.876745	165.7	22.4	-71.5	6.6
2026-01-15 18:10:49.000230	165.7	22.6	-71.9	6.5
2026-01-15 18:10:50.122077	165.7	22.7	-72.3	6.9
2026-01-15 18:10:51.244566	165.7	22.9	-72.2	6.7
2026-01-15 18:10:52.366539	165.8	23.1	-70.7	6.1
2026-01-15 18:10:53.488419	165.8	23.2	-71.1	5.8
2026-01-15 18:10:54.614348	165.8	23.4	-72.2	6.7
2026-01-15 18:10:55.738536	165.8	23.6	-71.9	6.2
2026-01-15 18:10:56.860933	165.8	23.8	-71.9	8.1
2026-01-15 18:10:57.984880	165.9	23.9	-71.9	2.9
2026-01-15 18:10:59.108003	165.9	24.1	-72.3	8.0
2026-01-15 18:11:00.234323	165.9	24.3	-71.5	3.8
2026-01-15 18:11:01.357359	165.9	24.4	-71.7	5.9
2026-01-15 18:11:02.477582	166.0	24.6	-72.3	7.8
2026-01-15 18:11:03.597987	166.0	24.8	-71.9	6.2
2026-01-15 18:11:04.721225	166.0	25.0	-72.0	7.6
2026-01-15 18:11:05.844055	166.0	25.2	-71.8	5.6
2026-01-15 18:11:06.968668	166.0	25.3	-72.0	5.7
2026-01-15 18:11:08.089887	166.1	25.5	-71.7	5.7
2026-01-15 18:11:09.212572	166.1	25.7	-71.2	5.4
2026-01-15 18:11:10.335723	166.1	25.9	-71.5	6.1
2026-01-15 18:11:11.461634	166.1	26.1	-69.9	6.0
2026-01-15 18:11:12.584596	166.2	26.3	-72.0	6.2
2026-01-15 18:11:13.710161	166.2	26.5	-71.7	4.9
2026-01-15 18:11:14.832425	166.2	26.7	-72.0	5.3
2026-01-15 18:11:15.954776	166.2	26.8	-71.7	6.4
2026-01-15 18:11:17.077155	166.3	27.0	-71.9	5.8
2026-01-15 18:11:18.201025	166.3	27.2	-71.9	6.6
2026-01-15 18:11:19.321845	166.3	27.4	-70.7	4.7
2026-01-15 18:11:20.443988	166.4	27.6	-71.7	6.5
2026-01-15 18:11:21.567822	166.4	27.8	-71.4	5.6
2026-01-15 18:11:22.692517	166.4	28.0	-72.1	7.3
2026-01-15 18:11:23.815404	166.4	28.2	-71.6	6.9
2026-01-15 18:11:24.941081	166.5	28.4	-70.7	5.2
2026-01-15 18:11:26.065360	166.5	28.6	-71.9	7.1
2026-01-15 18:11:27.188623	166.5	28.8	-71.9	7.5
2026-01-15 18:11:28.310794	166.5	29.1	-72.0	6.9
2026-01-15 18:11:29.432616	166.6	29.3	-71.7	6.1
2026-01-15 18:11:30.554761	166.6	29.5	-71.8	6.4
2026-01-15 18:11:31.676877	166.6	29.7	-72.1	7.0
2026-01-15 18:11:32.798191	166.7	29.9	-71.9	8.6
2026-01-15 18:11:33.921442	166.7	30.1	-71.6	6.1
2026-01-15 18:11:35.045816	166.7	30.3	-71.6	8.0
2026-01-15 18:11:36.168222	166.8	30.6	-71.7	7.0
2026-01-15 18:11:37.288778	166.8	30.8	-71.1	6.9
2026-01-15 18:11:38.412827	166.8	31.0	-71.6	6.2
2026-01-15 18:11:39.535611	166.9	31.2	-71.4	7.1
2026-01-15 18:11:40.659680	166.9	31.5	-71.2	7.5
2026-01-15 18:11:41.784557	166.9	31.7	-71.4	8.9
2026-01-15 18:11:42.908084	167.0	31.9	-71.2	7.5
2026-01-15 18:11:44.030431	167.0	32.1	-71.6	9.5
2026-01-15 18:11:45.153045	167.0	32.4	-71.8	9.2
2026-01-15 18:11:46.275011	167.1	32.6	-72.2	9.9
2026-01-15 18:11:47.398282	167.1	32.9	-71.3	7.5
2026-01-15 18:11:48.521603	167.1	33.1	-71.9	9.2
2026-01-15 18:11:49.643139	167.2	33.3	-71.9	9.5
2026-01-15 18:11:50.764165	167.2	33.6	-71.9	9.0
2026-01-15 18:11:51.882847	167.2	33.8	-72.1	9.7
2026-01-15 18:11:53.003728	167.3	34.1	-72.2	9.4
2026-01-15 18:11:54.128051	167.3	34.3	-72.5	11.1
2026-01-15 18:11:55.250183	167.4	34.6	-71.8	9.9
2026-01-15 18:11:56.372636	167.4	34.8	-72.4	10.8
2026-01-15 18:11:57.494168	167.4	35.1	-71.9	9.2
2026-01-15 18:11:58.615337	167.5	35.3	-72.9	10.0
2026-01-15 18:11:59.737820	167.5	35.6	-72.6	10.0
2026-01-15 18:12:00.860069	167.6	35.8	-72.8	10.0
2026-01-15 18:12:01.981285	167.6	36.1	-72.2	8.1
2026-01-15 18:12:03.103352	167.7	36.4	-73.1	11.3
2026-01-15 18:12:04.225298	167.7	36.6	-73.0	11.2
2026-01-15 18:12:05.347953	167.7	36.9	-73.2	8.1
2026-01-15 18:12:06.471528	167.8	37.2	-73.1	11.0
2026-01-15 18:12:07.594327	167.8	37.5	-73.0	11.1
2026-01-15 18:12:08.719170	167.9	37.7	-73.3	11.4
2026-01-15 18:12:09.841149	167.9	38.0	-73.0	11.4
2026-01-15 18:12:10.961724	168.0	38.3	-73.1	11.6
2026-01-15 18:12:12.084747	168.0	38.6	-73.3	11.6
2026-01-15 18:12:13.207606	168.1	38.9	-73.5	12.1
2026-01-15 18:12:14.332931	168.1	39.2	-73.8	11.9
2026-01-15 18:12:15.456683	168.2	39.4	-73.4	11.2
2026-01-15 18:12:16.580306	168.2	39.7	-73.4	11.5
2026-01-15 18:12:17.699866	168.3	40.0	-73.4	9.3
2026-01-15 18:12:18.824902	168.3	40.3	-73.8	12.6
2026-01-15 18:12:19.948035	168.4	40.6	-73.3	11.2
2026-01-15 18:12:21.073558	168.4	40.9	-73.0	13.1
2026-01-15 18:12:22.197262	168.5	41.2	-72.9	12.3
2026-01-15 18:12:23.321079	168.6	41.5	-72.9	13.3
2026-01-15 18:12:24.444629	168.6	41.9	-72.7	13.4
2026-01-15 18:12:25.570101	168.7	42.2	-72.8	13.8
2026-01-15 18:12:26.693541	168.7	42.5	-72.2	12.9
2026-01-15 18:12:27.815881	168.8	42.8	-72.1	12.8
2026-01-15 18:12:28.938465	168.9	43.1	-72.5	12.8
2026-01-15 18:12:30.064490	168.9	43.5	-72.6	12.5
2026-01-15 18:12:31.186583	169.0	43.8	-72.6	13.4
2026-01-15 18:12:32.309035	169.1	44.1	-72.6	12.3
2026-01-15 18:12:33.435114	169.1	44.4	-72.8	12.8
2026-01-15 18:12:34.558726	169.2	44.8	-72.5	11.6
2026-01-15 18:12:35.680343	169.3	45.1	-72.5	12.3
2026-01-15 18:12:36.804875	169.4	45.5	-72.2	11.0
2026-01-15 18:12:37.928573	169.4	45.8	-72.4	10.9
2026-01-15 18:12:39.053106	169.5	46.1	-73.0	11.6
2026-01-15 18:12:40.177923	169.6	46.5	-72.8	12.0
2026-01-15 18:12:41.299787	169.7	46.9	-73.2	12.3
2026-01-15 18:12:42.421031	169.7	47.2	-73.0	12.7
2026-01-15 18:12:43.544164	169.8	47.6	-72.8	11.8
2026-01-15 18:12:44.667801	169.9	47.9	-73.1	12.1
2026-01-15 18:12:45.792748	170.0	48.3	-73.0	12.2
2026-01-15 18:12:46.916384	170.1	48.7	-73.0	10.7
2026-01-15 18:12:48.037527	170.2	49.0	-72.6	11.4
2026-01-15 18:12:49.163058	170.3	49.4	-72.6	11.7
2026-01-15 18:12:50.284377	170.4	49.8	-72.8	12.8
2026-01-15 18:12:51.407885	170.5	50.2	-72.7	12.1
2026-01-15 18:12:52.531900	170.6	50.5	-72.5	11.2
2026-01-15 18:12:53.653595	170.7	50.9	-72.3	11.1
2026-01-15 18:12:54.774558	170.8	51.3	-72.4	11.0
2026-01-15 18:12:55.900397	170.9	51.7	-72.5	11.7
2026-01-15 18:12:57.023312	171.0	52.1	-72.7	10.8
2026-01-15 18:12:58.145200	171.1	52.5	-72.6	12.5
2026-01-15 18:12:59.269043	171.2	52.9	-72.6	12.2
2026-01-15 18:13:00.390441	171.3	53.3	-72.4	12.2
2026-01-15 18:13:01.513420	171.5	53.7	-72.2	10.7
2026-01-15 18:13:02.635990	171.6	54.1	-72.1	9.5
2026-01-15 18:13:03.758800	171.7	54.5	-72.3	11.0
2026-01-15 18:13:04.881204	171.8	55.0	-72.7	11.6
2026-01-15 18:13:06.004240	172.0	55.4	-72.9	12.5
2026-01-15 18:13:07.127028	172.1	55.8	-73.0	11.3
2026-01-15 18:13:08.248442	172.3	56.2	-73.2	10.8
2026-01-15 18:13:09.371226	172.4	56.7	-73.2	11.3
2026-01-15 18:13:10.495971	172.6	57.1	-73.3	11.1
2026-01-15 18:13:11.618247	172.7	57.5	-72.9	10.6
2026-01-15 18:13:12.744891	172.9	58.0	-73.6	11.7
2026-01-15 18:13:13.867163	173.1	58.4	-73.2	12.1
2026-01-15 18:13:14.992422	173.2	58.9	-73.0	10.7
2026-01-15 18:13:16.115169	173.4	59.3	-72.8	10.7
2026-01-15 18:13:17.237300	173.6	59.8	-72.8	10.7
2026-01-15 18:13:18.361712	173.8	60.2	-73.0	10.1
2026-01-15 18:13:19.483175	174.0	60.7	-73.0	10.7
2026-01-15 18:13:20.604619	174.2	61.1	-72.7	11.4
2026-01-15 18:13:21.728486	174.4	61.6	-72.6	11.8
2026-01-15 18:13:22.849033	174.7	62.1	-72.5	10.2
2026-01-15 18:13:23.972062	174.9	62.5	-72.3	10.8
2026-01-15 18:13:25.094219	175.1	63.0	-72.4	11.8
2026-01-15 18:13:26.218398	175.4	63.5	-71.8	11.3
2026-01-15 18:13:27.339717	175.6	63.9	-71.9	11.4
2026-01-15 18:13:28.464847	175.9	64.4	-72.2	13.1
2026-01-15 18:13:29.586247	176.2	64.9	-72.0	13.0
2026-01-15 18:13:30.708036	176.5	65.4	-72.2	13.2
2026-01-15 18:13:31.831052	176.8	65.9	-72.2	11.9
2026-01-15 18:13:32.953813	177.1	66.4	-72.4	12.6
2026-01-15 18:13:34.076368	177.5	66.9	-72.5	12.6
2026-01-15 18:13:35.196778	177.8	67.4	-72.8	13.4
2026-01-15 18:13:36.317977	178.2	67.8	-72.4	10.7
2026-01-15 18:13:37.440342	178.6	68.3	-72.8	9.7
2026-01-15 18:13:38.561768	179.0	68.8	-73.2	9.3
2026-01-15 18:13:39.685996	179.4	69.3	-73.2	9.9
2026-01-15 18:13:40.808284	179.9	69.9	-73.4	9.0
2026-01-15 18:13:41.929450	180.3	70.4	-73.5	8.2
2026-01-15 18:13:43.050014	180.8	70.9	-73.4	7.9
2026-01-15 18:13:44.172459	181.4	71.4	-73.7	7.9
2026-01-15 18:13:45.294869	181.9	71.9	-73.9	7.6
2026-01-15 18:13:46.418849	182.5	72.4	-73.5	8.1
2026-01-15 18:13:47.540130	183.2	72.9	-73.4	8.4
2026-01-15 18:13:48.662539	183.9	73.4	-73.5	7.7
2026-01-15 18:13:49.783921	184.6	73.9	-72.5	6.5
2026-01-15 18:13:50.907575	185.3	74.4	-72.7	7.5
2026-01-15 18:13:52.030364	186.2	74.9	-73.3	9.2
2026-01-15 18:13:53.152991	187.1	75.4	-73.0	8.9
2026-01-15 18:13:54.274490	188.0	75.9	-72.7	9.9
2026-01-15 18:13:55.397829	189.0	76.4	-73.2	8.8
2026-01-15 18:13:56.520625	190.1	76.9	-72.6	8.3
2026-01-15 18:13:57.643047	191.3	77.4	-72.3	9.3
2026-01-15 18:13:58.763558	192.6	77.9	-72.5	10.3
2026-01-15 18:13:59.885487	194.0	78.4	-72.0	8.8
2026-01-15 18:14:01.008774	195.5	78.9	-71.0	7.4
2026-01-15 18:14:02.133265	197.2	79.4	-71.9	9.7
2026-01-15 18:14:03.255331	199.0	79.8	-71.1	7.9
2026-01-15 18:14:04.378425	201.0	80.3	-70.5	6.6
2026-01-15 18:14:05.503953	203.2	80.7	-71.8	9.5
2026-01-15 18:14:06.627477	205.7	81.2	-72.0	9.8
2026-01-15 18:14:07.751872	208.3	81.6	-71.7	6.7
2026-01-15 18:14:08.874331	211.3	82.0	-71.6	8.1
2026-01-15 18:14:09.996341	214.5	82.4	-72.0	9.0
2026-01-15 18:14:11.117921	218.1	82.7	-71.6	6.5
2026-01-15 18:14:12.241250	222.0	83.0	-71.0	8.2
2026-01-15 18:14:13.362155	226.2	83.3	-71.5	9.7
2026-01-15 18:14:14.483582	230.8	83.5	-71.5	8.5
2026-01-15 18:14:15.608981	235.8	83.7	-72.0	8.7
2026-01-15 18:14:16.729503	240.9	83.9	-71.5	6.9
2026-01-15 18:14:17.852063	246.4	84.0	-71.7	7.3
2026-01-15 18:14:18.972920	251.9	84.0	-72.3	7.6
2026-01-15 18:14:20.095647	257.5	84.0	-71.7	6.4
2026-01-15 18:14:21.217490	263.0	83.9	-71.7	6.8
2026-01-15 18:14:22.339744	268.3	83.8	-71.1	5.0
2026-01-15 18:14:23.463025	273.3	83.6	-71.7	8.9
2026-01-15 18:14:24.585250	278.1	83.4	-71.4	6.1
2026-01-15 18:14:25.710569	282.5	83.2	-71.7	5.0
2026-01-15 18:14:26.833166	286.6	82.9	-71.8	5.1
2026-01-15 18:14:27.956717	290.3	82.5	-70.8	5.0
2026-01-15 18:14:29.079192	293.7	82.2	-71.5	7.1
2026-01-15 18:14:30.199993	296.8	81.8	-71.2	6.1
2026-01-15 18:14:31.321688	299.6	81.4	-70.5	8.3
2026-01-15 18:14:32.442949	302.2	81.0	-71.3	6.5
2026-01-15 18:14:33.565499	304.5	80.5	-71.1	8.5
2026-01-15 18:14:34.687602	306.6	80.1	-70.7	6.7
2026-01-15 18:14:35.808379	308.5	79.6	-70.5	4.0
2026-01-15 18:14:36.931023	310.2	79.1	-70.0	8.1
2026-01-15 18:14:38.054192	311.8	78.7	-70.7	8.1
2026-01-15 18:14:39.177920	313.3	78.2	-70.3	7.4
2026-01-15 18:14:40.301725	314.6	77.7	-69.7	4.6
2026-01-15 18:14:41.423174	315.9	77.2	-69.7	5.9
2026-01-15 18:14:42.544815	317.0	76.7	-70.7	5.8
2026-01-15 18:14:43.668804	318.1	76.2	-70.1	3.5
2026-01-15 18:14:44.793999	319.1	75.7	-71.3	5.4
2026-01-15 18:14:45.919190	320.0	75.2	-71.0	4.1
2026-01-15 18:14:47.042493	320.8	74.7	-70.3	4.7
2026-01-15 18:14:48.166204	321.6	74.2	-71.0	5.3
2026-01-15 18:14:49.286039	322.4	73.7	-71.8	6.0
2026-01-15 18:14:50.408032	323.1	73.2	-71.1	3.6
2026-01-15 18:14:51.530303	323.7	72.7	-71.1	0.5
2026-01-15 18:14:52.654175	324.4	72.1	-72.3	3.4
2026-01-15 18:14:53.778186	324.9	71.6	-72.6	2.8
2026-01-15 18:14:54.898329	325.5	71.1	-71.9	4.0
2026-01-15 18:14:56.022020	326.0	70.6	-70.5	2.1
2026-01-15 18:14:57.143334	326.5	70.1	-71.0	1.2
2026-01-15 18:14:58.265712	327.0	69.6	-71.2	5.2
2026-01-15 18:14:59.387542	327.4	69.1	-71.7	6.8
2026-01-15 18:15:00.514033	327.8	68.6	-71.8	7.3
2026-01-15 18:15:01.636739	328.2	68.1	-71.5	6.2
2026-01-15 18:15:02.759849	328.6	67.6	-71.3	2.0
2026-01-15 18:15:03.883750	329.0	67.1	-70.6	6.8
2026-01-15 18:15:05.004445	329.3	66.6	-71.1	2.2
2026-01-15 18:15:06.127845	329.6	66.1	-71.5	7.1
2026-01-15 18:15:07.252334	330.0	65.7	-71.0	3.1
2026-01-15 18:15:08.373547	330.3	65.2	-70.3	4.8
2026-01-15 18:15:09.496244	330.5	64.7	-70.1	2.6
2026-01-15 18:15:10.616148	330.8	64.2	-70.8	7.4
2026-01-15 18:15:11.738404	331.1	63.7	-70.3	4.5
2026-01-15 18:15:12.859822	331.3	63.3	-71.2	7.4
2026-01-15 18:15:13.982389	331.6	62.8	-70.1	5.4
2026-01-15 18:15:15.104534	331.8	62.3	-70.7	7.2
2026-01-15 18:15:16.225375	332.1	61.9	-70.9	6.8
2026-01-15 18:15:17.348983	332.3	61.4	-69.3	3.1
2026-01-15 18:15:18.471627	332.5	60.9	-69.9	5.3
2026-01-15 18:15:19.594978	332.7	60.5	-70.6	6.5
2026-01-15 18:15:20.716878	332.9	60.0	-70.7	8.0
2026-01-15 18:15:21.841896	333.1	59.6	-70.4	4.6
2026-01-15 18:15:22.966538	333.3	59.1	-69.9	1.9
2026-01-15 18:15:24.088942	333.4	58.7	-69.8	2.8
2026-01-15 18:15:25.211209	333.6	58.2	-68.5	2.8
2026-01-15 18:15:26.335261	333.8	57.8	-70.0	7.6
2026-01-15 18:15:27.458749	333.9	57.4	-70.6	7.3
2026-01-15 18:15:28.582730	334.1	56.9	-70.5	4.9
2026-01-15 18:15:29.706317	334.3	56.5	-70.9	7.3
2026-01-15 18:15:30.827761	334.4	56.1	-70.4	7.5
2026-01-15 18:15:31.951339	334.5	55.6	-70.2	4.4
2026-01-15 18:15:33.075520	334.7	55.2	-69.0	5.6
2026-01-15 18:15:34.199958	334.8	54.8	-70.1	6.6
2026-01-15 18:15:35.323081	335.0	54.4	-69.3	3.1
2026-01-15 18:15:36.445358	335.1	54.0	-70.2	9.3
2026-01-15 18:15:37.567849	335.2	53.6	-68.2	0.9
2026-01-15 18:15:38.690098	335.3	53.2	-68.5	2.8
2026-01-15 18:15:39.813151	335.4	52.8	-69.3	5.1
2026-01-15 18:15:40.936940	335.6	52.4	-70.7	5.3
2026-01-15 18:15:42.060272	335.7	52.0	-70.6	8.3
2026-01-15 18:15:43.181943	335.8	51.6	-70.4	8.0
2026-01-15 18:15:44.306567	335.9	51.2	-69.9	6.4
2026-01-15 18:15:45.427266	336.0	50.8	-69.8	5.8
2026-01-15 18:15:46.549344	336.1	50.4	-70.1	7.2
2026-01-15 18:15:47.672145	336.2	50.0	-69.4	6.0
2026-01-15 18:15:48.794855	336.3	49.7	-70.6	4.7
2026-01-15 18:15:49.916315	336.4	49.3	-70.1	3.4
2026-01-15 18:15:51.038676	336.5	48.9	-70.0	0.6
2026-01-15 18:15:52.159819	336.6	48.6	-69.8	1.1
2026-01-15 18:15:53.283363	336.6	48.2	-70.3	6.3
2026-01-15 18:15:54.407655	336.7	47.8	-70.4	5.5
2026-01-15 18:15:55.529928	336.8	47.5	-69.7	5.1
2026-01-15 18:15:56.652180	336.9	47.1	-69.9	5.5
2026-01-15 18:15:57.776412	337.0	46.8	-68.8	1.7
2026-01-15 18:15:58.903003	337.1	46.4	-68.1	2.8
2026-01-15 18:16:00.024847	337.1	46.1	-69.1	3.9
2026-01-15 18:16:01.150924	337.2	45.7	-69.4	5.4
2026-01-15 18:16:02.276366	337.3	45.4	-69.0	4.0
2026-01-15 18:16:03.400161	337.4	45.0	-67.8	2.9
2026-01-15 18:16:04.524354	337.4	44.7	-69.2	5.3
2026-01-15 18:16:05.645327	337.5	44.4	-68.6	2.8
2026-01-15 18:16:06.769045	337.6	44.0	-68.5	3.9
2026-01-15 18:16:07.891069	337.6	43.7	-68.3	5.3
2026-01-15 18:16:09.012761	337.7	43.4	-68.0	4.2
2026-01-15 18:16:10.136579	337.8	43.1	-68.7	4.2
2026-01-15 18:16:11.259769	337.8	42.8	-68.1	1.7
2026-01-15 18:16:12.382963	337.9	42.4	-67.1	1.4
2026-01-15 18:16:13.504019	338.0	42.1	-67.2	1.4
2026-01-15 18:16:14.625239	338.0	41.8	-68.0	0.0
2026-01-15 18:16:15.748920	338.1	41.5	-67.1	4.3
2026-01-15 18:16:16.873061	338.1	41.2	-67.9	4.1
2026-01-15 18:16:17.997321	338.2	40.9	-67.6	0.0
2026-01-15 18:16:19.121039	338.2	40.6	-67.3	0.0
2026-01-15 18:16:20.246059	338.3	40.3	-66.1	1.6
2026-01-15 18:16:21.367750	338.4	40.0	-65.8	0.0
2026-01-15 18:16:22.490875	338.4	39.7	-67.0	0.0
2026-01-15 18:16:23.614513	338.5	39.4	-64.9	0.0
2026-01-15 18:16:24.739301	338.5	39.1	-62.9	0.0
2026-01-15 18:16:25.859915	338.6	38.8	-63.1	0.0
2026-01-15 18:16:26.984923	338.6	38.6	-63.2	0.0
2026-01-15 18:16:28.107111	338.7	38.3	-66.6	0.0
2026-01-15 18:16:29.231211	338.7	38.0	-66.7	0.0
2026-01-15 18:16:30.352915	338.8	37.7	-65.8	0.0
2026-01-15 18:16:31.477548	338.8	37.4	-66.4	0.0
2026-01-15 18:16:32.601727	338.9	37.2	-66.2	0.0
2026-01-15 18:16:33.724042	338.9	36.9	-66.0	0.0
2026-01-15 18:16:34.847725	338.9	36.6	-66.1	0.0
2026-01-15 18:16:35.969528	339.0	36.4	-66.6	0.0
2026-01-15 18:16:37.092737	339.0	36.1	-66.2	0.0
2026-01-15 18:16:38.216051	339.1	35.8	-63.7	0.0
2026-01-15 18:16:39.337493	339.1	35.6	-64.3	0.0
2026-01-15 18:16:40.458741	339.2	35.3	-64.6	0.0
2026-01-15 18:16:41.580181	339.2	35.1	-65.3	0.0
2026-01-15 18:16:42.703698	339.2	34.8	-66.3	0.0
2026-01-15 18:16:43.824157	339.3	34.6	-66.2	0.0
2026-01-15 18:16:44.947180	339.3	34.3	-65.5	0.0
2026-01-15 18:16:46.069287	339.4	34.1	-66.1	0.0
2026-01-15 18:16:47.191018	339.4	33.8	-64.2	0.0
2026-01-15 18:16:48.314283	339.4	33.6	-64.7	0.0
2026-01-15 18:16:49.437788	339.5	33.3	-66.4	0.0
2026-01-15 18:16:50.561021	339.5	33.1	-64.1	0.0
2026-01-15 18:16:51.684006	339.5	32.9	-65.8	0.0
2026-01-15 18:16:52.807050	339.6	32.6	-62.6	0.0
2026-01-15 18:16:53.931494	339.6	32.4	-63.5	0.0
2026-01-15 18:16:55.053754	339.7	32.2	-64.1	0.0
2026-01-15 18:16:56.174489	339.7	31.9	-63.0	0.0
2026-01-15 18:16:57.296761	339.7	31.7	-64.0	0.0
2026-01-15 18:16:58.421065	339.8	31.5	-63.8	0.0
2026-01-15 18:16:59.544020	339.8	31.3	-63.8	0.0
2026-01-15 18:17:00.666306	339.8	31.0	-64.9	0.0
2026-01-15 18:17:01.787904	339.9	30.8	-63.8	0.0
2026-01-15 18:17:02.911020	339.9	30.6	-64.1	0.0
2026-01-15 18:17:04.032917	339.9	30.4	-64.6	0.0
2026-01-15 18:17:05.156120	339.9	30.2	-64.5	0.0
2026-01-15 18:17:06.278434	340.0	29.9	-64.0	0.0
2026-01-15 18:17:07.400229	340.0	29.7	-64.5	0.0
2026-01-15 18:17:08.521104	340.0	29.5	-63.2	0.0
2026-01-15 18:17:09.643931	340.1	29.3	-62.4	0.0
2026-01-15 18:17:10.766506	340.1	29.1	-63.7	0.0
2026-01-15 18:17:11.888676	340.1	28.9	-64.2	0.0
2026-01-15 18:17:13.014897	340.2	28.7	-65.0	0.0
2026-01-15 18:17:14.137199	340.2	28.5	-65.5	0.0
2026-01-15 18:17:15.261284	340.2	28.3	-64.2	0.0
2026-01-15 18:17:16.382848	340.2	28.1	-63.5	0.0
2026-01-15 18:17:17.507211	340.3	27.9	-64.3	0.0
2026-01-15 18:17:18.631124	340.3	27.7	-64.5	0.0
2026-01-15 18:17:19.752994	340.3	27.5	-65.3	0.0
2026-01-15 18:17:20.876385	340.4	27.3	-64.9	0.0
2026-01-15 18:17:22.000091	340.4	27.1	-64.3	0.0
2026-01-15 18:17:23.123358	340.4	26.9	-62.6	0.0
2026-01-15 18:17:24.245728	340.4	26.7	-63.2	0.0
2026-01-15 18:17:25.369351	340.5	26.5	-61.7	0.0
2026-01-15 18:17:26.491137	340.5	26.3	-62.2	0.0
2026-01-15 18:17:27.614762	340.5	26.2	-61.7	0.0
2026-01-15 18:17:28.739983	340.5	26.0	-63.9	0.0
2026-01-15 18:17:29.863148	340.6	25.8	-63.4	0.0
2026-01-15 18:17:30.985299	340.6	25.6	-64.0	0.0
2026-01-15 18:17:32.107326	340.6	25.4	-63.8	0.0
2026-01-15 18:17:33.228999	340.6	25.2	-62.7	0.0
2026-01-15 18:17:34.351710	340.7	25.1	-64.6	0.0
2026-01-15 18:17:35.475021	340.7	24.9	-63.1	0.0
2026-01-15 18:17:36.599227	340.7	24.7	-63.7	0.0
2026-01-15 18:17:37.719857	340.7	24.5	-64.9	0.0
2026-01-15 18:17:38.841965	340.8	24.4	-62.7	0.0
2026-01-15 18:17:39.965233	340.8	24.2	-58.6	0.0
2026-01-15 18:17:41.086655	340.8	24.0	-62.4	0.0
2026-01-15 18:17:42.211203	340.8	23.8	-60.5	0.0
2026-01-15 18:17:43.333993	340.8	23.7	-61.6	0.0
2026-01-15 18:17:44.456764	340.9	23.5	-62.5	0.0
2026-01-15 18:17:45.579612	340.9	23.3	-62.7	0.0
2026-01-15 18:17:46.701822	340.9	23.2	-63.4	0.0
2026-01-15 18:17:47.824811	340.9	23.0	-62.6	0.0
2026-01-15 18:17:48.948118	341.0	22.8	-64.3	0.0
2026-01-15 18:17:50.071182	341.0	22.7	-63.6	0.0
2026-01-15 18:17:51.192921	341.0	22.5	-60.6	0.0
2026-01-15 18:17:52.314339	341.0	22.3	-60.4	0.0
2026-01-15 18:17:53.438264	341.0	22.2	-61.9	0.0
2026-01-15 18:17:54.562860	341.1	22.0	-62.9	0.0
2026-01-15 18:17:55.686619	341.1	21.9	-63.2	0.0
2026-01-15 18:17:56.809181	341.1	21.7	-62.3	0.0
2026-01-15 18:17:57.931960	341.1	21.6	-62.7	0.0
2026-01-15 18:17:59.054743	341.1	21.4	-63.5	0.0
2026-01-15 18:18:00.176194	341.2	21.2	-63.3	0.0
2026-01-15 18:18:01.296558	341.2	21.1	-64.5	0.0
2026-01-15 18:18:02.418621	341.2	20.9	-64.0	0.0
2026-01-15 18:18:03.539189	341.2	20.8	-63.4	0.0
2026-01-15 18:18:04.662171	341.2	20.6	-64.8	0.0
2026-01-15 18:18:05.785531	341.3	20.5	-64.7	0.0
2026-01-15 18:18:06.907300	341.3	20.3	-62.0	0.0
2026-01-15 18:18:08.028711	341.3	20.2	-64.2	0.0
2026-01-15 18:18:09.151700	341.3	20.0	-64.6	0.0
2026-01-15 18:18:10.273987	341.3	19.9	-65.1	0.0
2026-01-15 18:18:11.394798	341.3	19.7	-65.2	0.0
2026-01-15 18:18:12.517684	341.4	19.6	-64.2	0.0
2026-01-15 18:18:13.640720	341.4	19.5	-65.0	0.0
2026-01-15 18:18:14.764203	341.4	19.3	-63.6	0.0
2026-01-15 18:18:15.887750	341.4	19.2	-62.6	0.0
2026-01-15 18:18:17.014007	341.4	19.0	-62.2	0.0
2026-01-15 18:18:18.135485	341.5	18.9	-63.6	0.0
2026-01-15 18:18:19.259433	341.5	18.7	-63.4	0.0
2026-01-15 18:18:20.381067	341.5	18.6	-62.5	0.0
2026-01-15 18:18:21.503010	341.5	18.5	-64.6	0.0
2026-01-15 18:18:22.626385	341.5	18.3	-63.4	0.0
2026-01-15 18:18:23.749451	341.5	18.2	-62.8	0.0
2026-01-15 18:18:24.871112	341.6	18.1	-62.9	0.0
2026-01-15 18:18:25.993010	341.6	17.9	-62.6	0.0
2026-01-15 18:18:27.113053	341.6	17.8	-63.9	0.0
2026-01-15 18:18:28.236066	341.6	17.7	-62.6	0.0
2026-01-15 18:18:29.357950	341.6	17.5	-64.9	0.0
2026-01-15 18:18:30.479820	341.6	17.4	-63.8	0.0
2026-01-15 18:18:31.602572	341.7	17.3	-64.3	0.0
2026-01-15 18:18:32.727093	341.7	17.1	-64.1	0.0
2026-01-15 18:18:33.850171	341.7	17.0	-63.3	0.0
2026-01-15 18:18:34.971067	341.7	16.9	-63.6	0.0
2026-01-15 18:18:36.093071	341.7	16.7	-64.8	0.0
2026-01-15 18:18:37.215065	341.7	16.6	-64.7	0.0
2026-01-15 18:18:38.336013	341.8	16.5	-66.2	0.0
2026-01-15 18:18:39.458890	341.8	16.4	-63.7	0.0
2026-01-15 18:18:40.580693	341.8	16.2	-65.6	0.0
2026-01-15 18:18:41.702928	341.8	16.1	-64.6	0.0
2026-01-15 18:18:42.825730	341.8	16.0	-65.7	0.0
2026-01-15 18:18:43.946787	341.8	15.9	-67.2	0.0
2026-01-15 18:18:45.067196	341.8	15.7	-65.5	0.0
2026-01-15 18:18:46.189512	341.9	15.6	-67.6	0.0
2026-01-15 18:18:47.312417	341.9	15.5	-65.0	0.0
2026-01-15 18:18:48.436288	341.9	15.4	-68.1	0.0
2026-01-15 18:18:49.558426	341.9	15.3	-67.1	0.0
2026-01-15 18:18:50.684773	341.9	15.1	-65.7	0.0
2026-01-15 18:18:51.808167	341.9	15.0	-66.3	0.0
2026-01-15 18:18:52.929581	341.9	14.9	-68.5	0.0
2026-01-15 18:18:54.054838	342.0	14.8	-68.6	0.0
2026-01-15 18:18:55.178566	342.0	14.7	-66.5	0.0
2026-01-15 18:18:56.299602	342.0	14.5	-65.0	0.0
2026-01-15 18:18:57.422712	342.0	14.4	-66.5	0.0
2026-01-15 18:18:58.544847	342.0	14.3	-67.3	0.0
2026-01-15 18:18:59.666311	342.0	14.2	-64.5	0.0
2026-01-15 18:19:00.788645	342.0	14.1	-67.4	0.0
2026-01-15 18:19:01.909916	342.1	14.0	-67.2	0.0
2026-01-15 18:19:03.031640	342.1	13.8	-66.9	0.0
2026-01-15 18:19:04.152177	342.1	13.7	-64.0	0.0
2026-01-15 18:19:05.273714	342.1	13.6	-66.8	0.0
2026-01-15 18:19:06.397146	342.1	13.5	-64.6	0.0
2026-01-15 18:19:07.519409	342.1	13.4	-66.7	0.0
2026-01-15 18:19:08.641255	342.1	13.3	-65.9	0.0
2026-01-15 18:19:09.763899	342.2	13.2	-66.4	0.0
2026-01-15 18:19:10.886325	342.2	13.1	-66.4	0.0
2026-01-15 18:19:12.009112	342.2	13.0	-66.4	0.0
2026-01-15 18:19:13.131920	342.2	12.8	-65.4	0.0
2026-01-15 18:19:14.254493	342.2	12.7	-64.5	0.0
2026-01-15 18:19:15.375522	342.2	12.6	-65.2	0.0
2026-01-15 18:19:16.497836	342.2	12.5	-66.2	0.0
2026-01-15 18:19:17.620986	342.2	12.4	-66.1	0.0
2026-01-15 18:19:18.744931	342.3	12.3	-64.2	0.0
2026-01-15 18:19:19.867886	342.3	12.2	-66.1	0.0
2026-01-15 18:19:20.988286	342.3	12.1	-65.0	0.0
2026-01-15 18:19:22.110947	342.3	12.0	-66.1	0.0
2026-01-15 18:19:23.235824	342.3	11.9	-65.6	0.0
2026-01-15 18:19:24.357881	342.3	11.8	-66.7	0.0
2026-01-15 18:19:25.479601	342.3	11.7	-66.1	0.0
2026-01-15 18:19:26.602434	342.3	11.6	-67.0	0.0
2026-01-15 18:19:27.725000	342.4	11.5	-67.5	0.0
2026-01-15 18:19:28.848929	342.4	11.4	-66.2	0.0
2026-01-15 18:19:29.971343	342.4	11.3	-66.1	0.0
2026-01-15 18:19:31.094895	342.4	11.2	-65.1	0.0
2026-01-15 18:19:32.218207	342.4	11.1	-65.9	0.0
2026-01-15 18:19:33.341067	342.4	11.0	-66.5	0.0
2026-01-15 18:19:34.463443	342.4	10.8	-65.8	0.0
2026-01-15 18:19:35.585499	342.4	10.7	-65.4	0.0
2026-01-15 18:19:36.708971	342.5	10.6	-61.8	0.0
2026-01-15 18:19:37.829990	342.5	10.5	-64.1	0.0
2026-01-15 18:19:38.953864	342.5	10.5	-64.6	0.0
2026-01-15 18:19:40.078619	342.5	10.4	-65.1	0.0
2026-01-15 18:19:41.203957	342.5	10.3	-67.3	0.0
2026-01-15 18:19:42.324239	342.5	10.2	-70.2	0.0
2026-01-15 18:19:43.447529	342.5	10.1	-73.8	0.0
#Closed at: 2026-01-15 18:08:51.778766