passes_logs/2025/01/13/XPeterburg/XPeterburg__20250113_091811_FENGYUN_3F_rec.log

#Pass ID: 20250113_091811_FENGYUN 3F
#Satellite: FENGYUN 3F
#Configuration: FENGYUN 3F
#Start time: 2025-01-13 09:18:04

#Version: 1.5.20200625
#Station: XPeterburg
#Location: 30.318091 lon 59.932769 lat
#TLE: 1 57490U 23111A   24362.10123181  .00000257  00000+0  14143-3 0  9996
#TLE: 2 57490  98.7496  69.2589 0000397 146.4022 213.7180 14.19963369 72649

#Time	Az	El	Level	Level2	SNR	BER	Gain	Gain2
2025-01-13 09:18:04.26	6.07	67.23	-38.0	-39.3	3.3	8381710	94	5707
2025-01-13 09:18:04.46	6.01	67.32	-36.9	-59.4	3.0	6578578	46	65534
2025-01-13 09:18:04.66	5.95	67.41	-37.7	-50.1	3.5	8353122	73	20523
2025-01-13 09:18:04.86	5.89	67.49	-38.1	-40.1	3.3	8395317	93	6196
2025-01-13 09:18:05.06	5.82	67.58	-38.2	-40.2	3.3	8395317	93	6208
2025-01-13 09:18:05.26	5.76	67.67	-38.2	-41.6	3.6	8394161	93	7318
2025-01-13 09:18:05.46	5.69	67.76	-38.1	-41.0	3.6	8427818	94	6852
2025-01-13 09:18:05.66	5.63	67.84	-38.2	-40.1	3.4	8371994	94	6161
2025-01-13 09:18:05.87	5.56	67.94	-38.3	-40.1	3.3	8399139	94	6083
2025-01-13 09:18:06.07	5.49	68.03	-38.4	-41.9	3.6	8398029	94	7428
2025-01-13 09:18:06.27	5.43	68.11	-38.4	-42.1	3.6	8371387	94	7536
2025-01-13 09:18:06.47	5.36	68.20	-38.4	-41.2	3.4	8438861	94	6729
2025-01-13 09:18:06.67	5.29	68.29	-38.4	-40.7	3.3	8438861	94	6367
2025-01-13 09:18:06.87	5.22	68.38	-38.4	-40.7	3.3	8402091	94	6420
2025-01-13 09:18:07.07	5.15	68.47	-38.4	-42.2	3.6	8398750	94	7584
2025-01-13 09:18:07.27	5.08	68.55	-38.5	-41.4	3.4	8426902	94	6940
2025-01-13 09:18:07.47	5.01	68.64	-38.5	-40.9	3.3	8414634	94	6506
2025-01-13 09:18:07.68	4.94	68.74	-38.5	-41.0	3.3	8394699	94	6513
2025-01-13 09:18:07.88	4.87	68.82	-38.5	-42.5	3.6	8399826	94	7757
2025-01-13 09:18:08.08	4.79	68.91	-38.8	-42.1	3.5	8390808	95	7227
2025-01-13 09:18:08.28	4.72	69.00	-38.8	-41.2	3.3	8401920	95	6467
2025-01-13 09:18:08.48	4.65	69.09	-38.8	-41.2	3.3	8401920	95	6431
2025-01-13 09:18:08.68	4.57	69.18	-38.8	-42.6	3.6	8389343	95	7610
2025-01-13 09:18:08.88	4.50	69.27	-38.8	-42.6	3.6	8383506	95	7591
2025-01-13 09:18:09.08	4.42	69.36	-38.8	-41.3	3.4	8436744	95	6603
2025-01-13 09:18:09.28	4.34	69.44	-38.8	-41.0	3.3	8400146	95	6371
2025-01-13 09:18:09.49	4.26	69.54	-38.8	-42.4	3.6	8388301	95	7513
2025-01-13 09:18:09.69	4.18	69.63	-38.7	-42.4	3.6	8441448	95	7489
2025-01-13 09:18:09.89	4.10	69.72	-38.7	-41.3	3.4	8359565	95	6614
2025-01-13 09:18:10.09	4.02	69.80	-38.7	-40.9	3.3	8359565	95	6310
2025-01-13 09:18:10.29	3.94	69.89	-38.7	-40.8	3.3	8411075	95	6278
2025-01-13 09:18:10.49	3.86	69.98	-38.8	-42.5	3.6	8335773	95	7548
2025-01-13 09:18:10.69	3.78	70.07	-38.7	-41.8	3.5	8439262	95	6964
2025-01-13 09:18:10.89	3.70	70.16	-38.8	-41.1	3.3	8434970	95	6408
2025-01-13 09:18:11.09	3.61	70.25	-38.8	-41.1	3.3	8391654	95	6432
2025-01-13 09:18:11.29	3.53	70.34	-38.8	-42.5	3.6	8402332	95	7577
2025-01-13 09:18:11.50	3.44	70.43	-38.8	-42.3	3.6	8451496	95	7390
2025-01-13 09:18:11.70	3.35	70.52	-38.8	-41.4	3.4	8451496	95	6642
2025-01-13 09:18:11.90	3.27	70.61	-38.8	-41.1	3.3	8421535	95	6414
2025-01-13 09:18:12.10	3.18	70.70	-38.8	-42.5	3.6	8392295	95	7585
2025-01-13 09:18:12.30	3.09	70.79	-38.8	-42.6	3.6	8421695	95	7631
2025-01-13 09:18:12.50	3.00	70.88	-38.8	-41.6	3.4	8438346	95	6792
2025-01-13 09:18:12.70	2.91	70.97	-38.8	-41.3	3.3	8405021	95	6517
2025-01-13 09:18:12.90	2.82	71.06	-38.8	-42.7	3.6	8393394	95	7707
2025-01-13 09:18:13.10	2.73	71.15	-38.9	-42.8	3.6	8426227	95	7726
2025-01-13 09:18:13.30	2.63	71.24	-38.9	-41.8	3.4	8447399	95	6931
2025-01-13 09:18:13.51	2.53	71.33	-38.9	-41.4	3.3	8408191	95	6584
2025-01-13 09:18:13.71	2.44	71.42	-38.9	-41.4	3.3	8389881	95	6609
2025-01-13 09:18:13.91	2.34	71.51	-38.9	-42.8	3.6	8389881	95	7768
2025-01-13 09:18:14.11	2.24	71.60	-38.9	-42.0	3.4	8439331	95	7084
2025-01-13 09:18:14.31	2.15	71.69	-38.9	-41.4	3.3	8432956	95	6573
2025-01-13 09:18:14.51	2.05	71.78	-38.9	-41.5	3.3	8394138	95	6614
2025-01-13 09:18:14.71	1.95	71.87	-38.9	-42.9	3.6	8409267	95	7782
2025-01-13 09:18:14.91	1.84	71.96	-38.9	-42.4	3.5	8443611	95	7352
2025-01-13 09:18:15.11	1.74	72.05	-38.9	-41.6	3.3	8416671	95	6696
2025-01-13 09:18:15.31	1.64	72.14	-39.0	-41.5	3.3	8406612	95	6632
2025-01-13 09:18:15.52	1.53	72.24	-39.0	-43.0	3.6	8406612	95	7846
2025-01-13 09:18:15.72	1.42	72.33	-38.9	-42.7	3.6	8426273	95	7629
2025-01-13 09:18:15.92	1.31	72.42	-39.0	-41.7	3.3	8444171	95	6771
2025-01-13 09:18:16.12	1.21	72.51	-39.0	-41.5	3.3	8414028	95	6572
2025-01-13 09:18:16.32	1.10	72.60	-39.0	-42.9	3.6	8383701	95	7764
2025-01-13 09:18:16.52	0.99	72.69	-39.0	-42.9	3.6	8427589	95	7758
2025-01-13 09:18:16.72	0.87	72.78	-39.0	-41.9	3.4	8431892	95	6852
2025-01-13 09:18:16.92	0.76	72.87	-39.0	-41.4	3.3	8405330	95	6512
2025-01-13 09:18:17.12	0.65	72.96	-39.0	-41.4	3.3	8405330	95	6527
2025-01-13 09:18:17.32	0.53	73.05	-39.0	-42.9	3.6	8382545	95	7673
2025-01-13 09:18:17.53	0.41	73.14	-39.0	-42.0	3.4	8444286	95	6968
2025-01-13 09:18:17.73	0.29	73.23	-39.0	-41.4	3.3	8426433	95	6467
2025-01-13 09:18:17.93	0.17	73.32	-39.0	-41.3	3.3	8406612	95	6418
2025-01-13 09:18:18.13	0.05	73.41	-39.0	-42.7	3.6	8415573	95	7564
2025-01-13 09:18:18.33	359.93	73.50	-39.0	-42.2	3.5	8440898	95	7089
2025-01-13 09:18:18.53	359.80	73.59	-39.0	-41.3	3.3	8429019	95	6454
2025-01-13 09:18:18.73	359.68	73.68	-39.0	-41.3	3.3	8387420	95	6408
2025-01-13 09:18:18.93	359.55	73.77	-39.0	-42.7	3.6	8387420	95	7592
2025-01-13 09:18:19.13	359.42	73.86	-39.1	-42.4	3.6	8415779	96	7228
2025-01-13 09:18:19.34	359.28	73.96	-39.1	-41.3	3.4	8387683	96	6390
2025-01-13 09:18:19.54	359.15	74.05	-39.1	-41.0	3.3	8412803	96	6178
2025-01-13 09:18:19.74	359.02	74.14	-39.0	-42.2	3.6	8400684	96	7113
2025-01-13 09:18:19.94	358.88	74.23	-38.9	-42.1	3.6	8385326	96	7060
2025-01-13 09:18:20.14	358.75	74.32	-38.9	-41.1	3.4	8438163	96	6307
2025-01-13 09:18:20.34	358.61	74.41	-38.9	-40.6	3.3	8401725	96	5984
2025-01-13 09:18:20.54	358.47	74.50	-38.9	-40.6	3.3	8401725	96	5980
2025-01-13 09:18:20.74	358.33	74.59	-38.9	-42.2	3.6	8396724	96	7158
2025-01-13 09:18:20.94	358.19	74.68	-38.8	-41.2	3.5	8460193	96	6474
2025-01-13 09:18:21.14	358.04	74.76	-38.9	-40.5	3.3	8376365	96	5959
2025-01-13 09:18:21.34	357.89	74.85	-38.9	-40.5	3.3	8396530	96	5952
2025-01-13 09:18:21.54	357.75	74.94	-38.9	-42.2	3.6	8391632	96	7175
2025-01-13 09:18:21.75	357.59	75.04	-39.2	-41.9	2.3	8398727	97	6676
2025-01-13 09:18:21.95	357.44	75.13	-38.9	-41.0	3.4	8373847	96	6268
2025-01-13 09:18:22.15	357.28	75.22	-38.9	-40.7	3.3	8404644	96	6039
2025-01-13 09:18:22.35	357.13	75.31	-38.9	-40.7	3.3	8404644	96	6068
2025-01-13 09:18:22.55	356.97	75.40	-39.0	-42.3	3.6	8337203	96	7278
2025-01-13 09:18:22.75	356.81	75.49	-39.0	-41.4	3.4	8444778	96	6541
2025-01-13 09:18:22.95	356.64	75.58	-39.0	-41.0	3.3	8417415	96	6225
2025-01-13 09:18:23.15	356.48	75.67	-39.0	-41.0	3.3	8390762	96	6205
2025-01-13 09:18:23.36	356.31	75.76	-39.0	-42.5	3.6	8409187	96	7406
2025-01-13 09:18:23.56	356.14	75.85	-39.1	-42.0	3.4	8385200	96	6940
2025-01-13 09:18:23.76	355.97	75.94	-39.1	-41.3	3.3	8423984	96	6382
2025-01-13 09:18:23.96	355.79	76.03	-39.1	-41.3	3.3	8386528	96	6399
2025-01-13 09:18:24.16	355.62	76.12	-39.0	-42.6	3.6	8361431	96	7428
2025-01-13 09:18:24.36	355.44	76.20	-39.0	-42.2	3.5	8361431	96	7127
2025-01-13 09:18:24.56	355.26	76.29	-39.0	-41.2	3.3	8446037	96	6366
2025-01-13 09:18:24.76	355.08	76.38	-39.0	-41.2	3.3	8417049	96	6368
2025-01-13 09:18:24.96	354.89	76.47	-39.0	-42.7	3.6	8381332	96	7541
2025-01-13 09:18:25.17	354.69	76.56	-39.0	-42.8	3.6	8417118	96	7592
2025-01-13 09:18:25.37	354.50	76.65	-39.1	-42.0	3.4	8386379	96	6838
2025-01-13 09:18:25.57	354.31	76.74	-39.1	-41.5	3.3	8409736	96	6481
2025-01-13 09:18:25.77	354.11	76.83	-39.1	-41.6	3.3	8387214	96	6511
2025-01-13 09:18:25.97	353.91	76.92	-39.1	-42.9	3.6	8387214	96	7630
2025-01-13 09:18:26.17	353.71	77.01	-39.1	-42.4	3.5	8369956	96	7238
2025-01-13 09:18:26.37	353.51	77.09	-39.1	-41.5	3.4	8432384	96	6538
2025-01-13 09:18:26.57	353.30	77.18	-39.0	-41.3	3.3	8408157	96	6406
2025-01-13 09:18:26.77	353.09	77.27	-39.1	-42.8	3.6	8396335	96	7531
2025-01-13 09:18:26.97	352.88	77.36	-39.1	-42.7	3.6	8424888	96	7516
2025-01-13 09:18:27.17	352.66	77.45	-39.1	-41.7	3.4	8436927	96	6658
2025-01-13 09:18:27.38	352.43	77.54	-39.1	-41.2	3.3	8401531	96	6323
2025-01-13 09:18:27.58	352.21	77.62	-39.1	-41.3	3.3	8387031	96	6332
2025-01-13 09:18:27.78	351.98	77.71	-39.1	-42.6	3.6	8387031	96	7430
2025-01-13 09:18:27.98	351.75	77.80	-39.1	-41.8	3.4	8441150	96	6742
2025-01-13 09:18:28.18	351.52	77.89	-39.1	-41.2	3.3	8437305	96	6289
2025-01-13 09:18:28.38	351.28	77.97	-39.1	-41.2	3.3	8394012	96	6276
2025-01-13 09:18:28.58	351.04	78.06	-39.1	-42.6	3.6	8387844	96	7362
2025-01-13 09:18:28.78	350.80	78.15	-39.1	-42.2	3.5	8438564	96	6989
2025-01-13 09:18:28.98	350.55	78.23	-39.1	-41.4	3.3	8430107	96	6361
2025-01-13 09:18:29.18	350.30	78.32	-39.1	-41.3	3.3	8389663	96	6310
2025-01-13 09:18:29.39	350.04	78.41	-39.1	-42.7	3.6	8389663	96	7410
2025-01-13 09:18:29.59	349.78	78.49	-39.1	-42.4	3.6	8408351	96	7200
2025-01-13 09:18:29.79	349.52	78.58	-39.1	-41.4	3.4	8437923	96	6407
2025-01-13 09:18:29.99	349.25	78.66	-39.1	-41.2	3.3	8407035	96	6203
2025-01-13 09:18:30.19	348.98	78.75	-39.2	-42.6	3.6	8399997	96	7329
2025-01-13 09:18:30.39	348.70	78.83	-39.2	-42.5	3.6	8428939	96	7263
2025-01-13 09:18:30.59	348.42	78.92	-39.2	-41.6	3.4	8417037	96	6483
2025-01-13 09:18:30.79	348.14	79.00	-39.2	-41.2	3.3	8395751	96	6202
2025-01-13 09:18:30.99	347.85	79.09	-39.2	-41.3	3.3	8375461	96	6229
2025-01-13 09:18:31.19	347.56	79.17	-39.2	-42.6	3.6	8375461	96	7311
2025-01-13 09:18:31.39	347.26	79.26	-39.2	-41.9	3.4	8439479	96	6674
2025-01-13 09:18:31.60	346.94	79.34	-39.2	-41.2	3.3	8433471	96	6224
2025-01-13 09:18:31.80	346.64	79.43	-39.2	-41.1	3.3	8384124	96	6138
2025-01-13 09:18:32.00	346.32	79.51	-39.2	-42.5	3.6	8392707	96	7235
2025-01-13 09:18:32.20	346.01	79.59	-39.2	-41.9	3.5	8447479	96	6765
2025-01-13 09:18:32.40	345.68	79.67	-39.1	-41.0	3.3	8420986	96	6120
2025-01-13 09:18:32.60	345.36	79.76	-39.1	-40.9	3.3	8400238	96	6059
2025-01-13 09:18:32.80	345.02	79.84	-39.1	-42.2	3.6	8400238	96	7069
2025-01-13 09:18:33.00	344.68	79.92	-39.1	-42.0	3.6	8419555	96	6884
2025-01-13 09:18:33.20	344.34	80.00	-39.1	-40.8	3.3	8438301	96	5988
2025-01-13 09:18:33.40	343.99	80.08	-39.1	-40.7	3.3	8402183	96	5942
2025-01-13 09:18:33.60	343.63	80.16	-39.1	-42.2	3.6	8392307	96	7061
2025-01-13 09:18:33.80	343.27	80.24	-39.1	-42.0	3.6	8436206	96	6887
2025-01-13 09:18:34.01	342.89	80.33	-39.1	-41.1	3.3	8433380	96	6195
2025-01-13 09:18:34.21	342.51	80.41	-39.1	-41.0	3.3	8416076	96	6080
2025-01-13 09:18:34.41	342.13	80.49	-39.1	-42.4	3.6	8382717	96	7151
2025-01-13 09:18:34.61	341.74	80.56	-39.1	-42.4	3.6	8440258	96	7212
2025-01-13 09:18:34.81	341.35	80.64	-39.1	-41.4	3.4	8440258	96	6417
2025-01-13 09:18:35.01	340.95	80.72	-39.1	-41.1	3.3	8424373	96	6166
2025-01-13 09:18:35.21	340.54	80.80	-39.1	-41.1	3.3	8396690	96	6176
2025-01-13 09:18:35.41	340.13	80.87	-39.1	-42.5	3.6	8393680	96	7253
2025-01-13 09:18:35.61	339.70	80.95	-39.1	-41.6	3.4	8444972	96	6567
2025-01-13 09:18:35.81	339.27	81.03	-39.1	-40.9	3.3	8421020	96	6090
2025-01-13 09:18:36.02	338.82	81.11	-39.0	-40.9	3.3	8385795	96	6105
2025-01-13 09:18:36.22	338.37	81.18	-39.1	-42.4	3.6	8409553	96	7263
2025-01-13 09:18:36.42	337.92	81.26	-39.2	-42.4	3.5	8393177	96	7127
2025-01-13 09:18:36.62	337.46	81.33	-39.2	-41.5	3.4	8393177	96	6461
2025-01-13 09:18:36.82	336.99	81.40	-39.2	-41.5	3.3	8411590	96	6378
2025-01-13 09:18:37.02	336.51	81.48	-39.1	-42.8	3.6	8379558	96	7457
2025-01-13 09:18:37.22	336.03	81.55	-39.2	-42.8	3.6	8364864	96	7446
2025-01-13 09:18:37.42	335.54	81.62	-39.1	-41.8	3.4	8440166	96	6703
2025-01-13 09:18:37.62	335.04	81.69	-39.1	-41.3	3.3	8418422	96	6342
2025-01-13 09:18:37.82	334.53	81.76	-39.1	-41.2	3.3	8382041	96	6284
2025-01-13 09:18:38.02	334.01	81.83	-39.1	-42.7	3.6	8417163	96	7430
2025-01-13 09:18:38.23	333.45	81.91	-39.0	-42.1	3.5	8417163	96	6973
2025-01-13 09:18:38.43	332.91	81.97	-39.1	-41.3	3.3	8384548	96	6345
2025-01-13 09:18:38.63	332.37	82.04	-39.1	-41.2	3.3	8404026	96	6280
2025-01-13 09:18:38.83	331.81	82.11	-39.1	-42.9	3.6	8378299	96	7573
2025-01-13 09:18:39.03	331.24	82.18	-39.1	-42.8	3.6	8375061	96	7515
2025-01-13 09:18:39.23	330.67	82.24	-39.1	-41.7	3.4	8427497	96	6638
2025-01-13 09:18:39.43	330.08	82.31	-39.1	-41.3	3.3	8385761	96	6340
2025-01-13 09:18:39.63	329.48	82.37	-39.1	-42.7	3.6	8403694	96	7433
2025-01-13 09:18:39.83	328.88	82.43	-39.1	-42.7	3.6	8403694	96	7421
2025-01-13 09:18:40.03	328.26	82.50	-39.1	-41.6	3.4	8442409	96	6556
2025-01-13 09:18:40.24	327.60	82.56	-39.1	-41.2	3.3	8417037	96	6304
2025-01-13 09:18:40.44	326.97	82.62	-39.1	-41.4	3.3	8388896	96	6363
2025-01-13 09:18:40.64	326.32	82.68	-39.2	-43.0	3.6	8413753	96	7659
2025-01-13 09:18:40.84	325.66	82.74	-39.2	-42.2	3.4	8442146	96	6967
2025-01-13 09:18:41.04	324.99	82.80	-39.2	-41.5	3.3	8406131	96	6468
2025-01-13 09:18:41.24	324.31	82.85	-39.1	-41.4	3.3	8381217	96	6422
2025-01-13 09:18:41.44	323.61	82.91	-39.1	-42.9	3.6	8421203	96	7589
2025-01-13 09:18:41.64	322.91	82.96	-39.1	-42.3	3.5	8421203	96	7067
2025-01-13 09:18:41.84	322.20	83.02	-39.1	-41.5	3.3	8442363	96	6465
2025-01-13 09:18:42.04	321.47	83.07	-39.1	-41.4	3.3	8395763	96	6398
2025-01-13 09:18:42.25	320.70	83.13	-39.2	-43.0	3.6	8386299	96	7663
2025-01-13 09:18:42.45	319.95	83.18	-39.2	-42.9	3.6	8428676	96	7527
2025-01-13 09:18:42.65	319.19	83.22	-39.2	-41.8	3.4	8433917	96	6637
2025-01-13 09:18:42.85	318.42	83.27	-39.2	-41.6	3.3	8409004	96	6508
2025-01-13 09:18:43.05	317.64	83.32	-39.2	-43.0	3.6	8405113	96	7672
2025-01-13 09:18:43.25	316.85	83.37	-39.2	-43.0	3.6	8405113	96	7646
2025-01-13 09:18:43.45	316.05	83.41	-39.2	-41.9	3.4	8440223	96	6774
2025-01-13 09:18:43.65	315.24	83.45	-39.1	-41.4	3.3	8428047	96	6418
2025-01-13 09:18:43.85	314.41	83.49	-39.1	-42.8	3.6	8379535	96	7539
2025-01-13 09:18:44.05	313.58	83.53	-39.1	-43.0	3.6	8414234	96	7631
2025-01-13 09:18:44.25	312.73	83.57	-39.2	-42.0	3.4	8455776	96	6822
2025-01-13 09:18:44.46	311.83	83.61	-39.1	-41.5	3.3	8418594	96	6471
2025-01-13 09:18:44.66	310.97	83.65	-39.2	-41.5	3.3	8392124	96	6436
2025-01-13 09:18:44.86	310.09	83.68	-39.1	-42.9	3.6	8411464	96	7584
2025-01-13 09:18:45.06	309.21	83.72	-39.1	-42.1	3.4	8455204	96	6879
2025-01-13 09:18:45.26	308.31	83.75	-39.1	-41.4	3.3	8455204	96	6373
2025-01-13 09:18:45.46	307.41	83.78	-39.2	-41.4	3.3	8404071	96	6382
2025-01-13 09:18:45.66	306.50	83.81	-39.1	-42.7	3.6	8392227	96	7467
2025-01-13 09:18:45.86	305.58	83.83	-39.2	-42.3	3.5	8428207	96	7073
2025-01-13 09:18:46.06	304.65	83.86	-39.2	-41.6	3.3	8429637	96	6485
2025-01-13 09:18:46.26	303.71	83.88	-39.2	-41.5	3.3	8378803	96	6428
2025-01-13 09:18:46.46	302.77	83.91	-39.2	-42.8	3.6	8404266	96	7483
2025-01-13 09:18:46.67	301.77	83.93	-39.2	-42.6	3.6	8437099	96	7335
2025-01-13 09:18:46.87	300.82	83.95	-39.2	-41.7	3.3	8422794	96	6573
2025-01-13 09:18:47.07	299.86	83.96	-39.2	-41.4	3.3	8422794	96	6399
2025-01-13 09:18:47.27	298.89	83.98	-39.1	-42.7	3.6	8384284	96	7456
2025-01-13 09:18:47.47	297.92	83.99	-39.1	-42.8	3.6	8415401	96	7534
2025-01-13 09:18:47.67	296.94	84.00	-39.1	-41.8	3.4	8444778	96	6679
2025-01-13 09:18:47.87	295.96	84.01	-39.2	-41.4	3.3	8401817	96	6399
2025-01-13 09:18:48.07	294.98	84.02	-39.2	-41.6	3.3	8393188	96	6455
2025-01-13 09:18:48.27	294.00	84.03	-39.1	-42.9	3.6	8422737	96	7614
2025-01-13 09:18:48.47	293.01	84.03	-39.2	-42.1	3.4	8428298	96	6938
2025-01-13 09:18:48.67	292.02	84.04	-39.2	-41.5	3.3	8428298	96	6449
2025-01-13 09:18:48.88	290.98	84.04	-39.2	-41.6	3.3	8402458	96	6437
2025-01-13 09:18:49.08	289.99	84.04	-39.2	-43.0	3.6	8392330	96	7639
2025-01-13 09:18:49.28	289.01	84.03	-39.3	-42.7	3.5	8439937	96	7328
2025-01-13 09:18:49.48	288.02	84.03	-39.3	-41.9	3.3	8385154	96	6627
2025-01-13 09:18:49.68	287.03	84.03	-39.3	-41.8	3.3	8406074	96	6552
2025-01-13 09:18:49.88	286.05	84.02	-39.3	-43.2	3.6	8332740	96	7777
2025-01-13 09:18:50.08	285.07	84.01	-39.3	-43.2	3.6	8438301	96	7705
2025-01-13 09:18:50.28	284.09	84.00	-39.3	-42.1	3.4	8417232	96	6804
2025-01-13 09:18:50.48	283.12	83.98	-39.3	-41.8	3.3	8417232	96	6600
2025-01-13 09:18:50.68	282.15	83.97	-39.3	-43.3	3.6	8390636	96	7804
2025-01-13 09:18:50.89	281.14	83.95	-39.3	-43.2	3.6	8409564	96	7762
2025-01-13 09:18:51.09	280.18	83.93	-39.3	-42.4	3.4	8431915	96	7008
2025-01-13 09:18:51.29	279.22	83.92	-39.3	-42.0	3.3	8413810	96	6681
2025-01-13 09:18:51.49	278.28	83.89	-39.3	-41.9	3.3	8388153	96	6644
2025-01-13 09:18:51.69	277.34	83.87	-39.3	-43.3	3.6	8435165	96	7807
2025-01-13 09:18:51.89	276.41	83.85	-39.3	-42.5	3.4	8438896	96	7081
2025-01-13 09:18:52.09	275.48	83.82	-39.3	-41.8	3.3	8438896	96	6599
2025-01-13 09:18:52.29	274.57	83.79	-39.3	-41.8	3.3	8402046	96	6586
2025-01-13 09:18:52.49	273.66	83.76	-39.3	-43.3	3.6	8385635	96	7791
2025-01-13 09:18:52.70	272.72	83.73	-39.3	-42.7	3.5	8437442	96	7277
2025-01-13 09:18:52.90	271.83	83.70	-39.3	-41.9	3.3	8425083	96	6621
2025-01-13 09:18:53.10	270.95	83.66	-39.3	-41.8	3.3	8390590	96	6577
2025-01-13 09:18:53.30	270.08	83.63	-39.3	-43.2	3.6	8406887	96	7720
2025-01-13 09:18:53.50	269.22	83.59	-39.5	-43.1	3.6	8402893	97	7489
2025-01-13 09:18:53.70	268.37	83.55	-39.4	-41.8	3.4	8402893	97	6496
2025-01-13 09:18:53.90	267.53	83.51	-39.4	-41.5	3.3	8399139	97	6264
2025-01-13 09:18:54.10	266.70	83.47	-39.3	-43.2	3.6	8399139	96	7725
2025-01-13 09:18:54.30	265.88	83.43	-39.3	-43.2	3.6	8354129	96	7754
2025-01-13 09:18:54.50	265.07	83.39	-39.3	-42.1	3.4	8436607	96	6815
2025-01-13 09:18:54.71	264.23	83.34	-39.3	-41.8	3.3	8419853	96	6562
2025-01-13 09:18:54.91	263.45	83.29	-39.3	-43.2	3.6	8393943	96	7752
2025-01-13 09:18:55.11	262.67	83.25	-39.3	-43.2	3.6	8436435	96	7760
2025-01-13 09:18:55.31	261.91	83.20	-39.3	-42.1	3.4	8437202	96	6841
2025-01-13 09:18:55.51	261.15	83.15	-39.3	-41.8	3.3	8392009	96	6549
2025-01-13 09:18:55.71	260.41	83.10	-39.3	-41.7	3.3	8389732	96	6511
2025-01-13 09:18:55.91	259.68	83.04	-39.3	-43.2	3.6	8389732	96	7732
2025-01-13 09:18:56.11	258.96	82.99	-39.3	-42.4	3.4	8448497	96	7023
2025-01-13 09:18:56.31	258.25	82.94	-39.3	-41.8	3.3	8427028	96	6578
2025-01-13 09:18:56.51	257.56	82.88	-39.3	-41.8	3.3	8397136	96	6571
2025-01-13 09:18:56.71	256.87	82.82	-39.2	-43.2	3.6	8405078	96	7768
2025-01-13 09:18:56.92	256.16	82.76	-39.2	-42.6	3.5	8442981	96	7225
2025-01-13 09:18:57.12	255.50	82.71	-39.2	-41.8	3.3	8413650	96	6585
2025-01-13 09:18:57.32	254.84	82.65	-39.2	-41.8	3.3	8392742	96	6582
2025-01-13 09:18:57.52	254.20	82.59	-39.2	-43.1	3.6	8392742	96	7725
2025-01-13 09:18:57.72	253.57	82.52	-39.2	-42.9	3.6	8410022	96	7517
2025-01-13 09:18:57.92	252.95	82.46	-39.2	-42.0	3.4	8439491	96	6730
2025-01-13 09:18:58.12	252.34	82.40	-39.2	-41.7	3.3	8411201	96	6553
2025-01-13 09:18:58.32	251.74	82.34	-39.2	-43.2	3.6	8392124	96	7726
2025-01-13 09:18:58.52	251.14	82.27	-39.2	-43.2	3.6	8432350	96	7783
2025-01-13 09:18:58.72	250.56	82.21	-39.2	-42.2	3.4	8437877	96	6916
2025-01-13 09:18:58.93	249.96	82.14	-39.2	-41.8	3.3	8390522	96	6595
2025-01-13 09:18:59.13	249.40	82.07	-39.2	-41.8	3.3	8387580	96	6604
2025-01-13 09:18:59.33	248.85	82.00	-39.2	-43.2	3.6	8387580	96	7768
2025-01-13 09:18:59.53	248.31	81.93	-39.2	-42.4	3.4	8442935	96	7065
2025-01-13 09:18:59.73	247.78	81.87	-39.2	-41.7	3.3	8432739	96	6583
2025-01-13 09:18:59.93	247.25	81.80	-39.2	-41.7	3.3	8397136	96	6546
2025-01-13 09:19:00.13	246.74	81.73	-39.2	-43.2	3.6	8385658	96	7802
2025-01-13 09:19:00.33	246.23	81.65	-39.2	-42.6	3.5	8454700	96	7287
2025-01-13 09:19:00.53	245.73	81.58	-39.2	-41.8	3.3	8427383	96	6638
2025-01-13 09:19:00.73	245.25	81.51	-39.2	-41.7	3.3	8392112	96	6549
2025-01-13 09:19:00.93	244.76	81.44	-39.2	-43.2	3.6	8392112	96	7772
2025-01-13 09:19:01.14	244.27	81.36	-39.2	-43.0	3.6	8428218	96	7601
2025-01-13 09:19:01.34	243.81	81.29	-39.2	-41.9	3.4	8440349	96	6728
2025-01-13 09:19:01.54	243.35	81.21	-39.2	-41.8	3.3	8403911	96	6613
2025-01-13 09:19:01.74	242.90	81.14	-39.2	-43.2	3.6	8389526	96	7787
2025-01-13 09:19:01.94	242.46	81.06	-39.2	-43.1	3.6	8434673	96	7763
2025-01-13 09:19:02.14	242.03	80.99	-39.2	-42.1	3.4	8439571	96	6915
2025-01-13 09:19:02.34	241.60	80.91	-39.1	-41.7	3.3	8413661	96	6605
2025-01-13 09:19:02.54	241.18	80.83	-39.2	-41.8	3.3	8413661	96	6651
2025-01-13 09:19:02.74	240.77	80.76	-39.2	-43.1	3.6	8401565	96	7779
2025-01-13 09:19:02.94	240.37	80.68	-39.1	-42.3	3.4	8437866	96	7071
2025-01-13 09:19:03.14	239.97	80.60	-39.2	-41.7	3.3	8425975	96	6605
2025-01-13 09:19:03.35	239.56	80.52	-39.1	-41.7	3.3	8394081	96	6596
2025-01-13 09:19:03.55	239.18	80.44	-39.1	-43.1	3.6	8391975	96	7722
2025-01-13 09:19:03.75	238.80	80.36	-39.1	-42.4	3.5	8438930	96	7215
2025-01-13 09:19:03.95	238.43	80.28	-39.1	-41.7	3.3	8405090	96	6590
2025-01-13 09:19:04.15	238.06	80.20	-39.1	-41.4	3.3	8392948	96	6434
2025-01-13 09:19:04.35	237.70	80.12	-39.1	-42.9	3.6	8408866	96	7613
2025-01-13 09:19:04.55	237.35	80.04	-39.0	-42.3	3.5	8385383	96	7167
2025-01-13 09:19:04.75	237.00	79.96	-39.0	-41.4	3.3	8385383	96	6466
2025-01-13 09:19:04.95	236.66	79.88	-39.1	-41.2	3.3	8407081	96	6327
2025-01-13 09:19:05.16	236.31	79.79	-39.1	-42.9	3.6	8388782	96	7587
2025-01-13 09:19:05.36	235.98	79.71	-39.1	-42.8	3.6	8354621	96	7531
2025-01-13 09:19:05.56	235.65	79.63	-39.1	-41.9	3.4	8442661	96	6760
2025-01-13 09:19:05.76	235.34	79.54	-39.1	-41.4	3.3	8400684	96	6379
2025-01-13 09:19:05.96	235.02	79.46	-39.1	-41.4	3.3	8392959	96	6398
2025-01-13 09:19:06.16	234.71	79.38	-39.1	-42.9	3.6	8416225	96	7612
2025-01-13 09:19:06.36	234.41	79.29	-39.1	-42.4	3.5	8416225	96	7126
2025-01-13 09:19:06.56	234.11	79.21	-39.1	-41.5	3.3	8441757	96	6501
2025-01-13 09:19:06.76	233.81	79.12	-39.1	-41.4	3.3	8408924	96	6435
2025-01-13 09:19:06.96	233.52	79.04	-39.1	-42.8	3.6	8389171	96	7551
2025-01-13 09:19:07.16	233.23	78.96	-39.1	-42.6	3.6	8439743	96	7381
2025-01-13 09:19:07.37	232.94	78.87	-39.1	-41.5	3.4	8436080	96	6513
2025-01-13 09:19:07.57	232.66	78.78	-39.1	-41.3	3.3	8409496	96	6346
2025-01-13 09:19:07.77	232.39	78.70	-39.1	-42.7	3.6	8400501	96	7429
2025-01-13 09:19:07.97	232.12	78.61	-39.1	-42.6	3.6	8400501	96	7345
2025-01-13 09:19:08.17	231.86	78.53	-39.0	-41.3	3.4	8451850	96	6422
2025-01-13 09:19:08.37	231.60	78.44	-39.0	-40.9	3.3	8364315	96	6107
2025-01-13 09:19:08.57	231.34	78.35	-39.1	-40.9	3.3	8403396	96	6098
2025-01-13 09:19:08.77	231.09	78.27	-39.1	-42.7	3.6	8345466	96	7395
2025-01-13 09:19:08.97	230.84	78.18	-39.3	-42.0	3.5	8380245	97	6702
2025-01-13 09:19:09.17	230.59	78.10	-39.3	-41.2	3.3	8416580	97	6097
2025-01-13 09:19:09.37	230.35	78.01	-39.3	-41.1	3.3	8402057	97	6040
2025-01-13 09:19:09.58	230.10	77.92	-39.1	-42.5	3.6	8347503	96	7249
2025-01-13 09:19:09.78	229.87	77.83	-39.1	-42.4	3.6	8347503	96	7192
2025-01-13 09:19:09.98	229.64	77.74	-39.0	-41.1	3.4	8449470	96	6254
2025-01-13 09:19:10.18	229.41	77.66	-39.0	-40.7	3.3	8410034	96	5999
2025-01-13 09:19:10.38	229.19	77.57	-39.0	-42.1	3.6	8389331	96	7038
2025-01-13 09:19:10.58	228.96	77.48	-39.0	-42.0	3.6	8422336	96	6974
2025-01-13 09:19:10.78	228.75	77.39	-39.0	-41.0	3.4	8445213	96	6217
2025-01-13 09:19:10.98	228.53	77.31	-39.0	-40.7	3.3	8415069	96	5965
2025-01-13 09:19:11.18	228.32	77.22	-39.0	-40.6	3.3	8400260	96	5933
2025-01-13 09:19:11.39	228.10	77.13	-39.0	-42.0	3.6	8400260	96	6954
2025-01-13 09:19:11.59	227.90	77.04	-39.0	-41.2	3.4	8435096	96	6343
2025-01-13 09:19:11.79	227.69	76.95	-39.0	-40.5	3.3	8423194	96	5894
2025-01-13 09:19:11.99	227.49	76.86	-39.0	-40.5	3.3	8397125	96	5892
2025-01-13 09:19:12.19	227.30	76.77	-38.9	-42.0	3.6	8389366	96	7021
2025-01-13 09:19:12.39	227.10	76.68	-39.0	-41.4	3.5	8440624	96	6540
2025-01-13 09:19:12.59	226.91	76.60	-39.0	-40.6	3.3	8417999	96	5973
2025-01-13 09:19:12.79	226.72	76.51	-38.9	-40.5	3.3	8394927	96	5917
2025-01-13 09:19:12.99	226.53	76.42	-38.9	-42.0	3.6	8406234	96	7006
2025-01-13 09:19:13.20	226.34	76.32	-38.9	-41.8	3.6	8406234	96	6828
2025-01-13 09:19:13.40	226.16	76.24	-38.9	-40.7	3.4	8451221	96	6041
2025-01-13 09:19:13.60	225.98	76.15	-38.9	-40.4	3.3	8413787	96	5856
2025-01-13 09:19:13.80	225.80	76.06	-38.8	-41.8	3.6	8392547	96	6914
2025-01-13 09:19:14.00	225.63	75.97	-38.9	-41.9	3.6	8425140	96	6945
2025-01-13 09:19:14.20	225.46	75.88	-38.9	-40.8	3.4	8438312	96	6152
2025-01-13 09:19:14.40	225.29	75.79	-38.9	-40.4	3.3	8402412	96	5870
2025-01-13 09:19:14.60	225.12	75.70	-38.9	-41.9	3.6	8384799	96	6959
2025-01-13 09:19:14.80	224.95	75.61	-38.9	-42.0	3.6	8436103	96	7036
2025-01-13 09:19:15.00	224.79	75.52	-38.9	-40.8	3.4	8430072	96	6172
2025-01-13 09:19:15.21	224.62	75.43	-38.9	-40.5	3.3	8430072	96	5958
2025-01-13 09:19:15.41	224.46	75.34	-38.9	-40.5	3.3	8409542	96	5952
2025-01-13 09:19:15.61	224.30	75.25	-38.8	-41.9	3.6	8405342	96	6994
2025-01-13 09:19:15.81	224.15	75.16	-38.8	-41.1	3.4	8442489	96	6409
2025-01-13 09:19:16.01	224.00	75.07	-38.8	-40.3	3.3	8414886	96	5865
2025-01-13 09:19:16.21	223.85	74.98	-38.8	-40.8	3.3	8402675	95	6225
2025-01-13 09:19:16.41	223.70	74.89	-38.7	-42.1	3.6	8407001	95	7249
2025-01-13 09:19:16.61	223.55	74.80	-38.6	-41.4	3.5	8375118	95	6762
2025-01-13 09:19:16.81	223.40	74.71	-38.6	-40.4	3.3	8375118	95	6060
2025-01-13 09:19:17.01	223.26	74.62	-38.6	-40.2	3.3	8424728	95	5960
2025-01-13 09:19:17.22	223.11	74.52	-38.6	-41.8	3.6	8406291	95	7103
2025-01-13 09:19:17.42	222.97	74.43	-38.6	-41.8	3.6	8368240	95	7059
2025-01-13 09:19:17.62	222.83	74.34	-38.6	-40.9	3.4	8446186	95	6385
2025-01-13 09:19:17.82	222.69	74.25	-38.7	-40.4	3.3	8408111	95	6034
2025-01-13 09:19:18.02	222.56	74.16	-38.7	-40.4	3.3	8391094	95	6025
2025-01-13 09:19:18.22	222.42	74.07	-38.6	-41.8	3.6	8428298	95	7061
2025-01-13 09:19:18.42	222.29	73.98	-38.6	-40.8	3.4	8435977	95	6364
2025-01-13 09:19:18.62	222.16	73.89	-38.5	-40.0	3.3	8435977	95	5844
2025-01-13 09:19:18.82	222.03	73.80	-38.5	-39.9	3.3	8398612	95	5757
2025-01-13 09:19:19.02	221.90	73.71	-38.5	-41.4	3.6	8384891	95	6872
2025-01-13 09:19:19.23	221.77	73.62	-38.5	-40.7	3.5	8441162	95	6346
2025-01-13 09:19:19.43	221.65	73.53	-38.5	-39.9	3.3	8424636	95	5803
2025-01-13 09:19:19.63	221.52	73.44	-38.5	-39.8	3.3	8401611	95	5752
2025-01-13 09:19:19.83	221.40	73.35	-38.5	-41.3	3.6	8413021	95	6769
2025-01-13 09:19:20.03	221.28	73.26	-38.5	-41.0	3.6	8433036	95	6603
2025-01-13 09:19:20.23	221.16	73.17	-38.5	-40.0	3.4	8433036	95	5854
2025-01-13 09:19:20.43	221.04	73.08	-38.5	-39.9	3.3	8416019	95	5792
2025-01-13 09:19:20.63	220.93	72.99	-38.4	-41.3	3.6	8395717	95	6818
2025-01-13 09:19:20.83	220.81	72.90	-38.4	-41.3	3.6	8413684	95	6803
2025-01-13 09:19:21.03	220.70	72.81	-38.5	-40.4	3.4	8439891	95	6124
2025-01-13 09:19:21.24	220.58	72.71	-38.5	-40.1	3.3	8411167	95	5921
2025-01-13 09:19:21.44	220.47	72.62	-38.6	-40.4	3.3	8391174	95	6050
2025-01-13 09:19:21.64	220.36	72.53	-38.6	-42.0	3.6	8438129	95	7260
2025-01-13 09:19:21.84	220.25	72.44	-38.7	-41.3	3.4	8438129	95	6644
2025-01-13 09:19:22.04	220.14	72.35	-38.7	-40.8	3.3	8432876	95	6249
2025-01-13 09:19:22.24	220.04	72.26	-38.7	-40.7	3.3	8404220	95	6214
2025-01-13 09:19:22.44	219.93	72.17	-38.7	-42.1	3.6	8394355	95	7321
2025-01-13 09:19:22.64	219.83	72.08	-38.6	-41.4	3.5	8451084	95	6784
2025-01-13 09:19:22.84	219.72	71.99	-38.6	-40.4	3.3	8431262	95	6083
2025-01-13 09:19:23.04	219.62	71.90	-38.5	-40.2	3.3	8406120	95	5933
2025-01-13 09:19:23.25	219.51	71.81	-38.5	-41.6	3.6	8402927	95	7007
2025-01-13 09:19:23.45	219.41	71.72	-38.5	-41.4	3.6	8457149	95	6844
2025-01-13 09:19:23.65	219.32	71.63	-38.6	-40.6	3.4	8457149	95	6217
2025-01-13 09:19:23.85	219.22	71.54	-38.6	-40.5	3.3	8401508	95	6114
2025-01-13 09:19:24.05	219.12	71.45	-38.7	-42.1	3.6	8398269	95	7283
2025-01-13 09:19:24.25	219.03	71.36	-38.7	-42.3	3.6	8412757	95	7441
2025-01-13 09:19:24.45	218.93	71.27	-38.7	-40.9	3.4	8447021	95	6372
2025-01-13 09:19:24.65	218.84	71.18	-38.7	-40.6	3.3	8421798	95	6136
2025-01-13 09:19:24.85	218.74	71.09	-38.7	-42.0	3.6	8396118	95	7204
2025-01-13 09:19:25.05	218.65	71.00	-38.6	-41.9	3.6	8434730	95	7181
2025-01-13 09:19:25.25	218.56	70.91	-38.6	-40.9	3.4	8434513	95	6376
2025-01-13 09:19:25.45	218.47	70.82	-38.7	-40.6	3.3	8410652	95	6129
2025-01-13 09:19:25.66	218.38	70.72	-38.7	-40.6	3.3	8410652	95	6170
2025-01-13 09:19:25.86	218.29	70.63	-38.7	-42.2	3.6	8387306	95	7369
2025-01-13 09:19:26.06	218.20	70.54	-38.7	-41.4	3.4	8448566	95	6727
2025-01-13 09:19:26.26	218.11	70.46	-38.8	-41.1	3.3	8432167	95	6380
2025-01-13 09:19:26.46	218.03	70.37	-38.8	-41.0	3.3	8398761	95	6355
2025-01-13 09:19:26.66	217.94	70.28	-38.7	-42.4	3.6	8399494	95	7470
2025-01-13 09:19:26.86	217.86	70.19	-38.8	-42.1	3.5	8440132	95	7162

#Closed at: 2025-01-13 09:19:27