passes_logs/2025/01/13/XPeterburg/XPeterburg__20250113_191039_FENGYUN_3F_rec.log

#Pass ID: 20250113_191039_FENGYUN 3F
#Satellite: FENGYUN 3F
#Configuration: FENGYUN 3F
#Start time: 2025-01-13 19:10:34

#Version: 1.5.20200625
#Station: XPeterburg
#Location: 30.318091 lon 59.932769 lat
#TLE: 1 57490U 23111A   25013.15343949  .00000157  00000+0  94479-4 0  9991
#TLE: 2 57490  98.7468  86.1144 0001109 142.8156 217.3097 14.19975332 75062

#Time	Az	El	Level	Level2	SNR	BER	Gain	Gain2
2025-01-13 19:10:34.71	163.01	68.13	-38.8	-40.5	3.3	8388004	96	5982
2025-01-13 19:10:34.91	163.02	68.22	-37.9	-60.4	3.1	6384212	48	65534
2025-01-13 19:10:35.11	163.04	68.31	-38.2	-51.4	3.5	8313434	74	22322
2025-01-13 19:10:35.31	163.05	68.41	-38.5	-41.0	3.3	8420356	94	6502
2025-01-13 19:10:35.51	163.06	68.50	-38.5	-40.7	3.3	8420356	94	6353
2025-01-13 19:10:35.71	163.07	68.59	-38.5	-42.0	3.6	8393760	94	7395
2025-01-13 19:10:35.92	163.09	68.69	-38.5	-42.1	3.6	8403144	94	7471
2025-01-13 19:10:36.12	163.10	68.78	-38.4	-41.0	3.4	8454975	94	6603
2025-01-13 19:10:36.32	163.11	68.87	-38.5	-40.8	3.3	8410686	94	6400
2025-01-13 19:10:36.52	163.12	68.96	-38.5	-40.9	3.3	8380508	94	6484
2025-01-13 19:10:36.72	163.14	69.05	-38.5	-42.2	3.6	8413307	94	7580
2025-01-13 19:10:36.92	163.15	69.15	-38.4	-41.2	3.4	8425792	94	6760
2025-01-13 19:10:37.12	163.16	69.24	-38.4	-40.3	3.3	8425792	94	6130
2025-01-13 19:10:37.32	163.18	69.33	-38.2	-39.8	3.3	8411212	94	5916
2025-01-13 19:10:37.52	163.19	69.42	-38.2	-41.1	3.6	8390453	94	6918
2025-01-13 19:10:37.72	163.20	69.52	-38.1	-40.3	3.5	8439067	94	6356
2025-01-13 19:10:37.92	163.22	69.61	-38.1	-39.6	3.4	8431182	94	5829
2025-01-13 19:10:38.13	163.23	69.71	-38.1	-39.5	3.3	8391494	94	5780
2025-01-13 19:10:38.33	163.25	69.80	-38.1	-41.0	3.6	8393703	94	6843
2025-01-13 19:10:38.53	163.26	69.89	-38.1	-40.9	3.6	8438735	94	6778
2025-01-13 19:10:38.73	163.27	69.98	-38.1	-39.6	3.4	8416831	94	5873
2025-01-13 19:10:38.93	163.29	70.08	-37.9	-39.1	3.3	8416831	94	5592
2025-01-13 19:10:39.13	163.30	70.17	-37.8	-40.3	3.6	8399253	93	6603
2025-01-13 19:10:39.33	163.32	70.26	-37.5	-39.5	3.7	8408832	93	6168
2025-01-13 19:10:39.53	163.33	70.36	-37.3	-37.9	3.8	8421283	93	5280
2025-01-13 19:10:39.73	163.35	70.45	-37.3	-37.5	3.7	8348510	93	5020
2025-01-13 19:10:39.93	163.36	70.55	-37.2	-37.8	3.8	8328392	92	5251
2025-01-13 19:10:40.13	163.38	70.64	-37.2	-37.7	3.8	8329708	92	5217
2025-01-13 19:10:40.33	163.39	70.73	-37.2	-39.2	3.7	8379741	92	6146
2025-01-13 19:10:40.54	163.41	70.83	-37.3	-38.4	3.9	8379741	92	5626
2025-01-13 19:10:40.74	163.43	70.93	-37.2	-37.7	3.8	8375610	92	5217
2025-01-13 19:10:40.94	163.44	71.02	-37.3	-37.8	3.8	8324432	92	5243
2025-01-13 19:10:41.14	163.46	71.11	-37.2	-39.1	3.7	8318172	92	6108
2025-01-13 19:10:41.34	163.47	71.21	-37.2	-38.9	4.0	8392444	92	5951
2025-01-13 19:10:41.54	163.49	71.30	-37.2	-38.0	3.8	8363388	92	5386
2025-01-13 19:10:41.74	163.51	71.40	-37.4	-38.1	3.7	8326675	92	5347
2025-01-13 19:10:41.94	163.52	71.49	-37.3	-37.8	3.8	8333427	92	5225
2025-01-13 19:10:42.15	163.54	71.59	-37.1	-37.3	4.0	8290729	92	5021
2025-01-13 19:10:42.35	163.56	71.68	-37.0	-37.1	4.0	8290729	92	4946
2025-01-13 19:10:42.55	163.57	71.78	-36.9	-36.6	4.1	8245239	92	4796
2025-01-13 19:10:42.75	163.59	71.87	-36.8	-36.6	4.2	8204750	92	4788
2025-01-13 19:10:42.95	163.61	71.97	-36.9	-36.7	4.2	8160060	92	4794
2025-01-13 19:10:43.15	163.63	72.06	-37.0	-36.9	4.2	8133670	92	4886
2025-01-13 19:10:43.35	163.65	72.16	-37.0	-37.0	4.1	8175762	92	4884
2025-01-13 19:10:43.55	163.66	72.25	-37.0	-36.9	4.1	8211433	92	4850
2025-01-13 19:10:43.75	163.68	72.35	-36.9	-36.8	4.2	8200572	92	4812
2025-01-13 19:10:43.96	163.70	72.45	-36.8	-36.8	4.4	8200572	91	4929
2025-01-13 19:10:44.16	163.72	72.54	-36.5	-36.1	4.6	7965053	91	4701
2025-01-13 19:10:44.36	163.74	72.64	-36.4	-35.9	4.7	7965053	91	4632
2025-01-13 19:10:44.56	163.76	72.74	-36.5	-36.0	4.6	7754848	91	4652
2025-01-13 19:10:44.76	163.78	72.83	-36.4	-35.7	4.7	7788356	91	4569
2025-01-13 19:10:44.96	163.80	72.93	-36.6	-36.2	4.6	7735851	91	4729
2025-01-13 19:10:45.16	163.82	73.02	-36.7	-36.6	4.4	7833011	91	4855
2025-01-13 19:10:45.37	163.84	73.12	-36.8	-36.7	4.4	7927070	91	4883
2025-01-13 19:10:45.57	163.86	73.22	-36.9	-37.1	4.3	8020568	91	5027
2025-01-13 19:10:45.77	163.88	73.32	-36.9	-37.0	4.3	8096374	91	4989
2025-01-13 19:10:45.97	163.90	73.41	-36.8	-36.8	4.4	8096374	91	4904
2025-01-13 19:10:46.17	163.92	73.51	-36.8	-36.8	4.5	8054592	91	4911
2025-01-13 19:10:46.37	163.94	73.60	-36.8	-36.6	4.6	7949649	91	4857
2025-01-13 19:10:46.57	163.96	73.70	-36.7	-36.5	4.7	7805271	91	4798
2025-01-13 19:10:46.77	163.99	73.80	-36.7	-36.7	4.7	7717163	91	4903
2025-01-13 19:10:46.98	164.01	73.90	-36.8	-36.8	4.5	7762195	91	4915
2025-01-13 19:10:47.18	164.03	73.99	-37.0	-37.4	4.3	7903587	91	5137
2025-01-13 19:10:47.38	164.05	74.09	-37.0	-37.4	4.3	8031257	91	5144
2025-01-13 19:10:47.58	164.08	74.19	-37.1	-37.8	4.3	8038227	91	5293
2025-01-13 19:10:47.78	164.10	74.28	-37.2	-38.0	4.2	8038227	91	5391
2025-01-13 19:10:47.98	164.12	74.38	-37.1	-37.6	4.4	8134368	91	5242
2025-01-13 19:10:48.18	164.15	74.48	-37.1	-37.8	4.4	8035182	91	5298
2025-01-13 19:10:48.38	164.17	74.58	-37.0	-37.5	4.5	8009765	91	5172
2025-01-13 19:10:48.58	164.20	74.67	-37.0	-37.5	4.5	7948253	91	5182
2025-01-13 19:10:48.78	164.22	74.77	-37.1	-37.6	4.4	7960063	91	5248
2025-01-13 19:10:48.99	164.25	74.87	-37.3	-38.2	4.2	8032630	91	5447
2025-01-13 19:10:49.19	164.27	74.97	-37.5	-38.3	3.9	8199886	92	5434
2025-01-13 19:10:49.39	164.30	75.07	-37.8	-39.3	3.7	8199886	92	5852
2025-01-13 19:10:49.59	164.32	75.16	-37.9	-41.1	3.7	8321445	92	7069
2025-01-13 19:10:49.79	164.35	75.26	-38.1	-41.0	3.7	8393932	93	6807
2025-01-13 19:10:49.99	164.38	75.36	-38.1	-39.9	3.6	8417312	93	6028
2025-01-13 19:10:50.19	164.40	75.46	-38.1	-39.7	3.6	8392341	93	5893
2025-01-13 19:10:50.39	164.43	75.55	-37.9	-40.5	3.7	8365436	93	6627
2025-01-13 19:10:50.59	164.46	75.65	-37.9	-40.3	3.7	8407688	93	6500
2025-01-13 19:10:50.79	164.49	75.75	-37.9	-39.3	3.8	8388828	93	5771
2025-01-13 19:10:50.99	164.52	75.85	-38.0	-39.4	3.6	8360847	93	5751
2025-01-13 19:10:51.19	164.55	75.95	-38.1	-39.5	3.6	8360847	93	5782
2025-01-13 19:10:51.39	164.58	76.04	-38.2	-41.4	3.6	8375701	93	7047
2025-01-13 19:10:51.60	164.61	76.15	-38.3	-40.6	3.6	8434982	93	6457
2025-01-13 19:10:51.80	164.64	76.24	-38.3	-40.1	3.5	8409450	93	6039
2025-01-13 19:10:52.00	164.67	76.34	-38.1	-39.5	3.5	8376697	93	5755
2025-01-13 19:10:52.20	164.70	76.44	-37.9	-40.2	3.7	8397434	93	6424
2025-01-13 19:10:52.40	164.73	76.54	-37.7	-39.0	3.9	8411304	93	5737
2025-01-13 19:10:52.60	164.76	76.64	-37.5	-37.9	3.9	8331436	93	5115
2025-01-13 19:10:52.80	164.80	76.74	-37.4	-37.2	4.0	8331436	93	4851
2025-01-13 19:10:53.00	164.83	76.83	-37.4	-37.2	4.0	8256443	93	4844
2025-01-13 19:10:53.20	164.86	76.93	-37.3	-37.2	4.1	8245433	93	4815
2025-01-13 19:10:53.41	164.90	77.04	-37.4	-37.2	4.0	8229709	93	4830
2025-01-13 19:10:53.61	164.93	77.14	-37.4	-37.3	4.0	8245651	93	4861
2025-01-13 19:10:53.81	164.97	77.23	-37.5	-37.7	3.9	8248672	93	4986
2025-01-13 19:10:54.01	165.00	77.33	-37.6	-37.9	3.8	8288852	93	5072
2025-01-13 19:10:54.21	165.04	77.43	-37.6	-37.8	3.8	8306579	93	5022
2025-01-13 19:10:54.41	165.08	77.53	-37.5	-37.6	3.9	8309120	93	4943
2025-01-13 19:10:54.61	165.11	77.63	-37.3	-36.9	4.1	8263046	93	4706
2025-01-13 19:10:54.81	165.15	77.73	-37.3	-36.8	4.1	8263046	93	4681
2025-01-13 19:10:55.02	165.19	77.83	-37.2	-37.1	4.2	8214626	92	4862
2025-01-13 19:10:55.22	165.23	77.93	-37.3	-37.4	4.1	8168220	92	4980
2025-01-13 19:10:55.42	165.27	78.03	-37.5	-37.9	4.0	8177696	92	5145
2025-01-13 19:10:55.62	165.31	78.13	-37.9	-38.9	3.8	8264636	92	5541
2025-01-13 19:10:55.82	165.36	78.23	-38.1	-40.4	3.7	8352653	93	6434
2025-01-13 19:10:56.02	165.40	78.33	-37.8	-39.3	3.9	8413730	93	5788
2025-01-13 19:10:56.22	165.44	78.43	-37.8	-38.2	3.8	8360012	93	5190
2025-01-13 19:10:56.42	165.48	78.53	-37.5	-37.6	4.0	8293247	93	4932
2025-01-13 19:10:56.62	165.53	78.63	-37.4	-37.3	4.0	8293247	93	4843
2025-01-13 19:10:56.83	165.58	78.73	-37.5	-37.4	4.0	8257919	93	4892
2025-01-13 19:10:57.03	165.62	78.83	-37.6	-37.9	3.9	8243659	93	5045
2025-01-13 19:10:57.23	165.67	78.93	-37.9	-39.9	3.7	8276252	93	6192
2025-01-13 19:10:57.43	165.72	79.03	-38.1	-40.5	3.7	8361728	93	6502
2025-01-13 19:10:57.63	165.77	79.13	-38.0	-39.3	3.7	8402057	93	5698
2025-01-13 19:10:57.83	165.81	79.23	-37.8	-38.3	3.8	8356224	93	5220
2025-01-13 19:10:58.03	165.87	79.33	-37.6	-37.6	4.0	8304737	93	4957
2025-01-13 19:10:58.23	165.92	79.43	-37.3	-36.9	4.2	8304737	93	4704
2025-01-13 19:10:58.43	165.97	79.53	-37.3	-37.4	4.2	8214317	92	4992
2025-01-13 19:10:58.64	166.03	79.64	-37.5	-37.9	4.0	8163768	92	5166
2025-01-13 19:10:58.84	166.08	79.74	-37.6	-38.1	3.9	8220359	92	5249
2025-01-13 19:10:59.04	166.14	79.84	-37.9	-40.4	3.7	8289321	92	6592
2025-01-13 19:10:59.24	166.19	79.94	-37.9	-40.5	3.7	8386196	92	6631
2025-01-13 19:10:59.44	166.25	80.04	-38.0	-39.7	3.8	8403350	92	5955
2025-01-13 19:10:59.64	166.31	80.14	-38.1	-39.0	3.7	8353443	93	5456
2025-01-13 19:10:59.84	166.37	80.24	-38.0	-39.0	3.7	8353443	93	5469
2025-01-13 19:11:00.04	166.43	80.34	-38.1	-40.6	3.7	8350547	93	6512
2025-01-13 19:11:00.24	166.49	80.44	-38.1	-39.9	3.7	8413959	93	6009
2025-01-13 19:11:00.44	166.56	80.54	-38.1	-39.3	3.6	8387454	93	5613
2025-01-13 19:11:00.64	166.62	80.64	-38.1	-39.0	3.7	8366981	93	5500
2025-01-13 19:11:00.84	166.69	80.74	-38.0	-40.3	3.7	8360332	93	6369
2025-01-13 19:11:01.05	166.76	80.84	-38.0	-39.7	4.0	8411544	93	5991
2025-01-13 19:11:01.25	166.83	80.94	-37.9	-38.8	3.8	8350032	93	5472
2025-01-13 19:11:01.45	166.90	81.04	-38.2	-39.4	3.6	8339698	93	5656
2025-01-13 19:11:01.65	166.98	81.15	-38.4	-41.5	3.6	8339698	93	7041
2025-01-13 19:11:01.85	167.05	81.25	-38.5	-41.1	3.7	8380508	94	6668
2025-01-13 19:11:02.05	167.13	81.35	-38.5	-40.5	3.4	8429809	94	6145
2025-01-13 19:11:02.25	167.21	81.45	-38.6	-40.5	3.4	8404529	94	6086
2025-01-13 19:11:02.45	167.29	81.55	-38.6	-41.9	3.6	8380828	94	7203
2025-01-13 19:11:02.65	167.37	81.65	-38.6	-42.0	3.6	8415538	94	7223
2025-01-13 19:11:02.85	167.45	81.75	-38.6	-40.9	3.4	8445350	94	6420
2025-01-13 19:11:03.05	167.54	81.85	-38.6	-40.3	3.3	8407585	94	5990
2025-01-13 19:11:03.26	167.63	81.96	-38.5	-40.0	3.4	8407585	94	5856
2025-01-13 19:11:03.46	167.72	82.06	-38.4	-41.2	3.6	8386791	94	6793
2025-01-13 19:11:03.66	167.82	82.16	-38.3	-39.8	3.6	8441608	94	5855
2025-01-13 19:11:03.86	167.91	82.26	-38.1	-38.9	3.6	8411682	94	5360
2025-01-13 19:11:04.06	168.01	82.36	-38.0	-38.5	3.7	8365184	94	5203
2025-01-13 19:11:04.26	168.11	82.46	-37.9	-38.3	3.7	8353740	94	5115
2025-01-13 19:11:04.46	168.22	82.56	-37.8	-37.9	3.8	8335350	94	4990
2025-01-13 19:11:04.66	168.32	82.66	-37.8	-37.9	3.9	8307037	94	4959
2025-01-13 19:11:04.86	168.43	82.76	-37.9	-38.6	3.8	8291255	93	5330
2025-01-13 19:11:05.06	168.55	82.86	-37.9	-38.5	3.9	8307174	93	5271
2025-01-13 19:11:05.26	168.66	82.96	-38.0	-38.7	3.9	8307174	93	5362
2025-01-13 19:11:05.47	168.79	83.07	-38.0	-38.7	3.8	8296932	93	5359
2025-01-13 19:11:05.67	168.91	83.17	-38.2	-39.4	3.7	8313262	93	5674
2025-01-13 19:11:05.87	169.04	83.27	-38.2	-40.7	3.7	8338748	93	6606
2025-01-13 19:11:06.07	169.17	83.37	-38.1	-40.3	3.9	8392330	93	6336
2025-01-13 19:11:06.27	169.30	83.47	-38.2	-39.6	3.7	8390304	93	5823
2025-01-13 19:11:06.47	169.44	83.58	-38.3	-40.0	3.6	8358089	93	5933
2025-01-13 19:11:06.67	169.58	83.68	-38.2	-41.0	3.7	8352550	93	6752
2025-01-13 19:11:06.87	169.73	83.78	-38.4	-41.5	3.7	8420047	93	7054
2025-01-13 19:11:07.07	169.88	83.88	-38.5	-40.3	3.6	8420047	94	6065
2025-01-13 19:11:07.28	170.05	83.98	-38.6	-40.2	3.5	8417118	94	5947
2025-01-13 19:11:07.48	170.21	84.09	-38.6	-40.4	3.4	8389583	94	6050
2025-01-13 19:11:07.68	170.38	84.19	-38.5	-41.4	3.6	8386745	94	6837
2025-01-13 19:11:07.88	170.56	84.29	-38.4	-40.4	3.6	8434192	94	6159
2025-01-13 19:11:08.08	170.74	84.39	-38.4	-39.7	3.5	8403316	94	5675
2025-01-13 19:11:08.28	170.93	84.49	-38.4	-39.7	3.6	8373126	94	5678
2025-01-13 19:11:08.48	171.12	84.59	-38.5	-41.5	3.6	8398899	94	6888
2025-01-13 19:11:08.68	171.32	84.69	-38.7	-41.4	3.6	8398899	94	6709
2025-01-13 19:11:08.88	171.54	84.79	-39.0	-41.5	3.3	8433917	94	6604
2025-01-13 19:11:09.08	171.75	84.89	-39.2	-41.4	3.3	8403659	95	6333
2025-01-13 19:11:09.28	171.98	84.99	-39.2	-42.9	3.6	8396564	95	7511
2025-01-13 19:11:09.49	172.23	85.10	-39.1	-42.0	3.6	8428997	96	6899
2025-01-13 19:11:09.69	172.48	85.20	-38.9	-40.5	3.4	8384696	96	5866
2025-01-13 19:11:09.89	172.74	85.30	-38.9	-40.0	3.3	8403751	96	5586
2025-01-13 19:11:10.09	173.01	85.40	-38.9	-41.4	3.6	8379375	96	6547
2025-01-13 19:11:10.29	173.29	85.50	-38.8	-41.6	3.6	8370952	95	6780
2025-01-13 19:11:10.49	173.58	85.60	-39.0	-41.2	3.4	8370952	95	6330
2025-01-13 19:11:10.69	173.89	85.70	-39.1	-41.1	3.3	8415607	95	6196
2025-01-13 19:11:10.89	174.21	85.80	-39.0	-40.9	3.3	8391185	95	6118
2025-01-13 19:11:11.09	174.55	85.90	-39.0	-42.3	3.6	8409049	95	7147
2025-01-13 19:11:11.29	174.90	86.00	-38.8	-40.8	3.6	8429843	95	6156
2025-01-13 19:11:11.50	175.30	86.10	-38.6	-39.6	3.6	8393806	95	5522
2025-01-13 19:11:11.70	175.69	86.20	-38.6	-39.4	3.6	8375724	95	5407
2025-01-13 19:11:11.90	176.10	86.30	-38.6	-40.8	3.7	8395328	95	6336
2025-01-13 19:11:12.10	176.54	86.40	-38.5	-40.0	3.8	8395328	95	5843
2025-01-13 19:11:12.30	177.00	86.50	-38.6	-39.6	3.6	8413948	95	5529
2025-01-13 19:11:12.50	177.49	86.60	-38.6	-39.5	3.6	8375541	95	5475
2025-01-13 19:11:12.70	178.01	86.70	-38.8	-41.5	3.6	8363422	95	6739
2025-01-13 19:11:12.90	178.56	86.80	-38.8	-41.4	3.7	8431137	95	6642
2025-01-13 19:11:13.10	179.15	86.89	-38.8	-40.5	3.5	8421546	95	5976
2025-01-13 19:11:13.30	179.77	86.99	-38.7	-39.9	3.5	8389915	95	5652
2025-01-13 19:11:13.50	180.43	87.09	-38.6	-40.8	3.6	8380588	95	6396
2025-01-13 19:11:13.70	181.15	87.18	-38.4	-40.2	3.7	8419406	95	6108
2025-01-13 19:11:13.91	181.95	87.29	-38.0	-38.7	3.9	8419406	94	5360
2025-01-13 19:11:14.11	182.77	87.38	-37.9	-38.2	3.9	8355514	94	5096
2025-01-13 19:11:14.31	183.65	87.48	-38.1	-38.6	3.8	8305698	94	5230
2025-01-13 19:11:14.51	184.60	87.57	-38.3	-40.7	3.7	8337844	94	6524
2025-01-13 19:11:14.71	185.62	87.66	-38.4	-40.1	3.6	8407012	94	6029
2025-01-13 19:11:14.91	186.74	87.76	-38.3	-39.4	3.6	8394985	94	5582
2025-01-13 19:11:15.11	187.95	87.85	-38.1	-38.8	3.6	8370998	94	5339
2025-01-13 19:11:15.31	189.26	87.94	-37.7	-38.1	4.0	8331527	93	5139
2025-01-13 19:11:15.51	190.70	88.03	-37.5	-37.5	4.2	8206707	93	4924
2025-01-13 19:11:15.71	192.27	88.12	-37.2	-37.3	4.5	8045482	92	4949
2025-01-13 19:11:15.92	194.09	88.21	-37.5	-38.1	4.2	8045482	92	5245
2025-01-13 19:11:16.12	196.00	88.30	-37.6	-38.3	4.2	8008506	92	5335
2025-01-13 19:11:16.32	198.11	88.38	-37.8	-38.8	4.0	8174972	92	5517
2025-01-13 19:11:16.52	200.45	88.46	-37.8	-38.9	4.0	8227626	92	5537
2025-01-13 19:11:16.72	203.04	88.54	-37.8	-38.6	4.0	8256282	92	5435
2025-01-13 19:11:16.92	205.91	88.61	-37.6	-38.2	4.2	8206329	92	5258
2025-01-13 19:11:17.12	209.10	88.68	-37.4	-37.6	4.4	8152187	92	5027
2025-01-13 19:11:17.32	212.63	88.75	-37.3	-37.2	4.5	8000816	92	4900
2025-01-13 19:11:17.52	216.55	88.81	-37.3	-37.4	4.5	8000816	92	4954
2025-01-13 19:11:17.73	221.09	88.87	-37.6	-38.2	4.2	7917205	92	5243
2025-01-13 19:11:17.93	225.83	88.91	-37.8	-38.5	4.1	8073131	92	5382
2025-01-13 19:11:18.13	230.96	88.95	-37.8	-38.7	4.0	8159740	92	5434
2025-01-13 19:11:18.33	236.45	88.98	-37.9	-39.0	4.0	8222259	92	5536
2025-01-13 19:11:18.53	242.21	89.00	-38.3	-39.5	3.8	8266502	93	5646
2025-01-13 19:11:18.73	248.15	89.01	-38.5	-41.0	3.7	8341701	94	6541
2025-01-13 19:11:18.93	254.15	89.01	-38.7	-41.2	3.8	8415756	94	6588
2025-01-13 19:11:19.13	260.07	89.00	-38.9	-40.8	3.5	8406246	94	6179
2025-01-13 19:11:19.33	265.79	88.98	-38.9	-40.8	3.4	8406246	94	6121
2025-01-13 19:11:19.53	271.23	88.95	-38.9	-42.4	3.6	8387226	94	7340
2025-01-13 19:11:19.74	276.55	88.91	-39.3	-42.9	3.6	8415813	95	7453
2025-01-13 19:11:19.94	281.21	88.86	-39.3	-41.8	3.4	8431995	95	6610
2025-01-13 19:11:20.14	285.46	88.80	-39.4	-41.9	3.3	8416946	95	6534
2025-01-13 19:11:20.34	289.31	88.74	-39.4	-41.8	3.3	8394046	95	6515
2025-01-13 19:11:20.54	292.80	88.67	-39.3	-43.1	3.6	8430999	95	7578
2025-01-13 19:11:20.74	295.93	88.60	-39.1	-41.5	3.4	8447490	95	6502
2025-01-13 19:11:20.94	298.76	88.53	-38.9	-40.4	3.4	8447490	95	5800
2025-01-13 19:11:21.14	301.31	88.45	-38.9	-40.2	3.4	8403671	95	5727
2025-01-13 19:11:21.34	303.61	88.37	-38.8	-41.4	3.6	8390888	95	6648
2025-01-13 19:11:21.55	305.78	88.28	-38.7	-40.5	3.7	8427806	95	6067
2025-01-13 19:11:21.75	307.66	88.19	-38.6	-39.6	3.6	8406543	95	5485
2025-01-13 19:11:21.95	309.36	88.11	-38.7	-39.7	3.6	8375576	95	5511
2025-01-13 19:11:22.15	310.91	88.02	-38.5	-40.6	3.7	8367656	95	6234
2025-01-13 19:11:22.35	312.33	87.93	-38.6	-40.5	3.8	8416923	95	6125
2025-01-13 19:11:22.55	313.63	87.84	-38.5	-39.4	3.7	8416923	95	5444
2025-01-13 19:11:22.75	314.82	87.74	-38.6	-39.5	3.6	8385211	95	5418
2025-01-13 19:11:22.95	315.92	87.65	-38.6	-39.5	3.6	8380920	95	5441
2025-01-13 19:11:23.15	316.94	87.56	-38.7	-39.7	3.5	8369522	95	5515
2025-01-13 19:11:23.35	317.88	87.46	-38.6	-39.4	3.6	8372978	95	5384
2025-01-13 19:11:23.56	318.79	87.36	-38.5	-40.7	3.7	8383117	95	6285
2025-01-13 19:11:23.76	319.60	87.27	-38.4	-40.3	3.7	8411853	95	6102
2025-01-13 19:11:23.96	320.35	87.17	-38.6	-39.7	3.6	8385566	95	5565
2025-01-13 19:11:24.16	321.05	87.07	-38.5	-39.1	3.6	8359165	95	5297
2025-01-13 19:11:24.36	321.71	86.98	-38.6	-40.9	3.7	8357906	95	6395
2025-01-13 19:11:24.56	322.33	86.88	-38.7	-41.3	3.6	8428127	95	6596
2025-01-13 19:11:24.76	322.91	86.78	-38.8	-40.5	3.5	8428127	95	5966
2025-01-13 19:11:24.96	323.45	86.68	-38.8	-40.0	3.5	8406303	95	5692
2025-01-13 19:11:25.16	323.97	86.58	-38.7	-39.9	3.5	8390327	95	5628
2025-01-13 19:11:25.37	324.48	86.48	-38.7	-41.1	3.6	8389183	95	6494
2025-01-13 19:11:25.57	324.93	86.38	-38.7	-40.5	3.6	8432647	95	6060
2025-01-13 19:11:25.77	325.37	86.28	-38.8	-40.2	3.5	8403282	95	5767
2025-01-13 19:11:25.97	325.78	86.18	-38.7	-39.9	3.5	8392467	95	5652
2025-01-13 19:11:26.17	326.17	86.08	-38.8	-41.4	3.6	8398555	95	6676
2025-01-13 19:11:26.37	326.54	85.98	-38.5	-40.1	3.7	8398555	95	5919
2025-01-13 19:11:26.57	326.89	85.89	-38.3	-38.7	3.7	8434936	95	5173
2025-01-13 19:11:26.77	327.22	85.79	-38.0	-38.3	3.8	8370517	94	5129
2025-01-13 19:11:26.97	327.54	85.69	-37.8	-37.9	3.9	8327945	94	4974
2025-01-13 19:11:27.17	327.85	85.59	-37.9	-38.6	3.9	8297355	93	5348
2025-01-13 19:11:27.38	328.16	85.48	-38.2	-40.7	3.7	8300846	93	6621
2025-01-13 19:11:27.58	328.43	85.38	-38.3	-41.1	3.7	8409782	93	6823
2025-01-13 19:11:27.78	328.70	85.28	-38.5	-40.4	3.6	8427223	94	6115
2025-01-13 19:11:27.98	328.96	85.18	-38.4	-39.8	3.5	8427223	94	5779
2025-01-13 19:11:28.18	329.20	85.08	-38.5	-40.0	3.5	8395259	94	5849
2025-01-13 19:11:28.38	329.44	84.98	-38.3	-40.8	3.6	8389240	94	6553
2025-01-13 19:11:28.58	329.66	84.88	-38.1	-39.4	3.7	8434055	94	5706
2025-01-13 19:11:28.78	329.88	84.78	-38.0	-38.4	3.7	8398864	94	5160
2025-01-13 19:11:28.99	330.10	84.67	-37.9	-38.1	3.8	8334148	94	5035
2025-01-13 19:11:29.19	330.30	84.57	-38.0	-38.2	3.8	8319557	94	5043
2025-01-13 19:11:29.39	330.50	84.47	-37.9	-38.1	3.8	8324100	94	5040
2025-01-13 19:11:29.59	330.68	84.37	-38.0	-38.3	3.8	8327819	94	5114
2025-01-13 19:11:29.79	330.86	84.27	-38.0	-38.3	3.7	8327819	94	5127
2025-01-13 19:11:29.99	331.04	84.17	-38.1	-40.2	3.7	8343509	94	6250
2025-01-13 19:11:30.19	331.20	84.07	-38.1	-39.3	3.7	8421798	94	5643
2025-01-13 19:11:30.39	331.37	83.97	-38.2	-38.9	3.6	8399379	94	5338
2025-01-13 19:11:30.60	331.53	83.86	-38.1	-38.7	3.6	8373161	94	5245
2025-01-13 19:11:30.80	331.68	83.76	-37.9	-39.3	3.7	8379043	94	5817
2025-01-13 19:11:31.00	331.83	83.66	-37.9	-39.3	4.0	8407882	93	5772
2025-01-13 19:11:31.20	331.97	83.56	-37.9	-38.7	3.8	8345226	93	5380
2025-01-13 19:11:31.40	332.11	83.46	-37.9	-38.6	3.8	8345226	93	5317
2025-01-13 19:11:31.60	332.24	83.36	-38.3	-41.1	3.6	8327110	93	6769
2025-01-13 19:11:31.80	332.37	83.25	-38.5	-41.0	3.7	8391094	94	6543
2025-01-13 19:11:32.00	332.50	83.15	-38.9	-41.1	3.4	8430233	94	6412
2025-01-13 19:11:32.20	332.62	83.05	-38.7	-40.6	3.4	8393875	94	6111
2025-01-13 19:11:32.40	332.74	82.95	-38.6	-41.7	3.6	8391918	94	7030
2025-01-13 19:11:32.61	332.86	82.85	-38.6	-41.5	3.6	8415550	94	6914
2025-01-13 19:11:32.81	332.97	82.75	-38.7	-40.0	3.5	8377658	95	5776
2025-01-13 19:11:33.01	333.08	82.64	-38.6	-39.4	3.4	8385200	95	5423
2025-01-13 19:11:33.21	333.19	82.54	-38.5	-40.5	3.6	8343635	95	6206
2025-01-13 19:11:33.41	333.29	82.44	-38.7	-41.1	3.6	8398235	95	6476
2025-01-13 19:11:33.61	333.39	82.34	-38.8	-40.6	3.4	8398235	95	6057
2025-01-13 19:11:33.81	333.49	82.24	-39.0	-40.8	3.3	8430519	95	6033
2025-01-13 19:11:34.01	333.58	82.14	-39.0	-40.8	3.3	8389274	95	6041
2025-01-13 19:11:34.21	333.68	82.04	-38.9	-41.6	3.6	8400524	95	6719
2025-01-13 19:11:34.41	333.77	81.94	-38.4	-39.5	3.5	8441196	95	5564
2025-01-13 19:11:34.62	333.86	81.83	-38.3	-38.5	3.4	8400569	95	5048
2025-01-13 19:11:34.82	333.95	81.73	-38.4	-38.6	3.4	8380897	95	5069
2025-01-13 19:11:35.02	334.03	81.63	-38.3	-39.9	3.6	8410114	95	5918
2025-01-13 19:11:35.22	334.11	81.53	-38.6	-40.3	3.6	8410114	95	5991
2025-01-13 19:11:35.42	334.19	81.43	-38.9	-40.3	3.4	8424316	95	5797
2025-01-13 19:11:35.62	334.27	81.33	-38.9	-40.5	3.3	8402801	95	5879
2025-01-13 19:11:35.82	334.35	81.23	-39.0	-42.0	3.6	8380657	95	6938
2025-01-13 19:11:36.02	334.42	81.13	-38.8	-41.2	3.6	8435394	95	6516
2025-01-13 19:11:36.22	334.49	81.03	-38.7	-39.8	3.4	8432521	95	5618
2025-01-13 19:11:36.42	334.57	80.93	-38.6	-39.6	3.4	8395969	95	5483
2025-01-13 19:11:36.63	334.64	80.82	-38.5	-40.5	3.6	8382820	95	6171
2025-01-13 19:11:36.83	334.71	80.72	-38.5	-40.6	3.6	8382820	95	6271
2025-01-13 19:11:37.03	334.77	80.62	-38.5	-39.6	3.6	8427989	95	5577
2025-01-13 19:11:37.23	334.84	80.52	-38.5	-39.2	3.5	8407939	95	5342
2025-01-13 19:11:37.43	334.90	80.42	-38.6	-39.5	3.5	8377487	95	5440
2025-01-13 19:11:37.63	334.97	80.32	-38.5	-40.5	3.6	8390819	95	6184
2025-01-13 19:11:37.83	335.03	80.22	-38.3	-39.1	3.7	8424385	95	5409
2025-01-13 19:11:38.03	335.09	80.12	-38.0	-38.2	3.7	8391277	94	5067
2025-01-13 19:11:38.23	335.15	80.02	-37.8	-38.1	3.8	8345798	93	5121
2025-01-13 19:11:38.44	335.21	79.92	-37.6	-37.6	4.0	8302539	93	4916
2025-01-13 19:11:38.64	335.26	79.82	-37.6	-37.7	3.9	8302539	93	4977
2025-01-13 19:11:38.84	335.32	79.72	-37.6	-37.7	3.9	8268745	93	4960
2025-01-13 19:11:39.04	335.37	79.62	-37.7	-38.1	3.8	8284057	93	5109
2025-01-13 19:11:39.24	335.43	79.52	-37.9	-39.9	3.7	8308593	93	6213
2025-01-13 19:11:39.44	335.48	79.42	-37.9	-39.8	3.9	8397628	93	6069
2025-01-13 19:11:39.64	335.53	79.32	-38.1	-39.4	3.7	8387638	93	5693
2025-01-13 19:11:39.84	335.58	79.22	-37.8	-38.4	3.7	8373962	93	5266
2025-01-13 19:11:40.04	335.63	79.12	-37.9	-38.5	3.7	8334423	93	5291
2025-01-13 19:11:40.24	335.68	79.02	-37.8	-38.3	3.8	8334423	93	5209
2025-01-13 19:11:40.44	335.72	78.92	-37.5	-37.6	3.9	8338863	93	4961
2025-01-13 19:11:40.65	335.77	78.81	-37.7	-38.1	3.8	8300960	93	5148
2025-01-13 19:11:40.85	335.82	78.71	-37.7	-39.4	3.7	8321411	93	5951
2025-01-13 19:11:41.05	335.86	78.61	-37.8	-38.9	3.9	8401565	93	5600
2025-01-13 19:11:41.25	335.91	78.51	-37.9	-38.6	3.7	8352584	93	5355
2025-01-13 19:11:41.45	335.95	78.42	-37.7	-38.2	3.8	8350433	93	5195
2025-01-13 19:11:41.65	336.00	78.32	-37.6	-37.9	3.8	8325096	93	5083
2025-01-13 19:11:41.85	336.04	78.22	-37.6	-37.9	3.9	8296485	93	5100
2025-01-13 19:11:42.05	336.08	78.12	-37.5	-37.7	3.9	8296485	93	5024
2025-01-13 19:11:42.25	336.12	78.02	-37.5	-37.7	3.9	8315082	93	5039
2025-01-13 19:11:42.45	336.16	77.92	-37.3	-37.3	4.0	8283153	93	4881
2025-01-13 19:11:42.65	336.20	77.82	-37.4	-37.3	4.1	8239540	93	4893
2025-01-13 19:11:42.85	336.24	77.72	-37.2	-37.3	4.2	8197711	92	4992
2025-01-13 19:11:43.06	336.28	77.62	-37.3	-37.7	4.1	8140205	92	5149
2025-01-13 19:11:43.26	336.31	77.52	-37.3	-37.7	4.2	8163288	92	5156
2025-01-13 19:11:43.46	336.35	77.42	-37.3	-37.7	4.1	8194564	92	5157
2025-01-13 19:11:43.66	336.39	77.32	-37.3	-37.7	4.1	8221870	92	5130
2025-01-13 19:11:43.86	336.42	77.22	-37.3	-37.7	4.1	8184459	92	5175
2025-01-13 19:11:44.06	336.46	77.12	-37.1	-37.2	4.3	8184459	92	4991
2025-01-13 19:11:44.26	336.49	77.03	-36.9	-36.6	4.5	8171138	92	4741
2025-01-13 19:11:44.46	336.53	76.93	-36.8	-36.8	4.6	7980983	91	4915
2025-01-13 19:11:44.66	336.56	76.83	-36.8	-36.7	4.6	7815696	91	4874
2025-01-13 19:11:44.86	336.59	76.73	-36.7	-36.6	4.6	7765056	91	4853
2025-01-13 19:11:45.07	336.63	76.63	-36.7	-36.7	4.6	7785587	91	4917
2025-01-13 19:11:45.27	336.66	76.53	-36.8	-36.9	4.5	7835472	91	4962
2025-01-13 19:11:45.47	336.69	76.43	-36.9	-37.1	4.4	7970512	91	5037
2025-01-13 19:11:45.67	336.72	76.33	-37.0	-37.2	4.3	7970512	91	5071
2025-01-13 19:11:45.87	336.75	76.23	-36.8	-36.9	4.4	8041385	91	4952
2025-01-13 19:11:46.07	336.78	76.14	-36.6	-36.3	4.6	7976852	91	4754
2025-01-13 19:11:46.27	336.81	76.04	-36.5	-36.0	4.8	7813442	91	4644
2025-01-13 19:11:46.47	336.84	75.94	-36.6	-36.1	4.7	7637100	91	4681
2025-01-13 19:11:46.67	336.87	75.84	-36.6	-36.2	4.6	7744182	91	4726
2025-01-13 19:11:46.88	336.90	75.74	-36.6	-36.3	4.6	7814861	91	4735
2025-01-13 19:11:47.08	336.93	75.64	-36.6	-36.2	4.6	7835243	91	4708
2025-01-13 19:11:47.28	336.96	75.54	-36.5	-36.1	4.6	7733322	91	4688
2025-01-13 19:11:47.48	336.99	75.45	-36.5	-35.9	4.7	7733322	91	4625
2025-01-13 19:11:47.68	337.01	75.35	-36.3	-35.6	4.8	7778709	91	4518
2025-01-13 19:11:47.88	337.04	75.25	-35.9	-35.2	5.0	7580909	90	4538
2025-01-13 19:11:48.08	337.07	75.16	-36.0	-35.5	4.9	7455287	90	4628
2025-01-13 19:11:48.28	337.09	75.06	-36.2	-35.8	4.7	7496887	90	4717
2025-01-13 19:11:48.48	337.12	74.96	-36.2	-35.9	4.7	7622154	90	4760
2025-01-13 19:11:48.69	337.14	74.86	-36.1	-35.7	4.8	7650100	90	4696
2025-01-13 19:11:48.89	337.17	74.76	-36.1	-35.6	4.8	7628917	90	4652
2025-01-13 19:11:49.09	337.19	74.66	-36.0	-35.4	4.9	7628917	90	4595
2025-01-13 19:11:49.29	337.22	74.57	-35.8	-35.0	5.1	7536243	90	4463
2025-01-13 19:11:49.49	337.24	74.47	-35.8	-35.4	5.1	7347450	89	4718
2025-01-13 19:11:49.69	337.27	74.37	-35.7	-35.2	5.3	7218566	89	4641
2025-01-13 19:11:49.89	337.29	74.28	-35.8	-35.4	5.1	7065765	89	4726
2025-01-13 19:11:50.09	337.31	74.18	-35.9	-35.7	5.0	7164813	89	4810
2025-01-13 19:11:50.29	337.34	74.08	-36.1	-36.1	4.8	7395812	89	4946
2025-01-13 19:11:50.50	337.36	73.98	-36.2	-36.4	4.7	7619464	89	5035
2025-01-13 19:11:50.70	337.38	73.89	-36.3	-36.6	4.7	7619464	89	5106
2025-01-13 19:11:50.90	337.40	73.79	-36.3	-36.7	4.6	7686103	89	5159
2025-01-13 19:11:51.10	337.43	73.69	-36.4	-37.0	4.5	7794422	89	5252
2025-01-13 19:11:51.30	337.45	73.60	-36.4	-36.6	4.4	7893356	90	5015
2025-01-13 19:11:51.50	337.47	73.50	-36.5	-36.9	4.4	7963703	90	5122
2025-01-13 19:11:51.70	337.49	73.41	-36.6	-37.2	4.3	8018829	90	5231
2025-01-13 19:11:51.90	337.51	73.31	-36.7	-37.3	4.2	8100105	90	5267
2025-01-13 19:11:52.11	337.53	73.21	-36.8	-37.6	4.1	8168266	90	5414
2025-01-13 19:11:52.31	337.55	73.11	-36.7	-37.5	4.2	8188190	90	5351
2025-01-13 19:11:52.51	337.57	73.02	-36.8	-37.5	4.2	8198101	90	5384
2025-01-13 19:11:52.71	337.59	72.92	-36.7	-37.5	4.2	8175121	90	5355
2025-01-13 19:11:52.91	337.61	72.83	-36.7	-37.2	4.3	8175121	90	5266
2025-01-13 19:11:53.11	337.63	72.73	-36.7	-37.3	4.2	8130901	90	5296
2025-01-13 19:11:53.31	337.65	72.64	-36.7	-37.4	4.2	8126403	90	5339
2025-01-13 19:11:53.51	337.67	72.54	-36.6	-37.1	4.3	8138740	90	5233
2025-01-13 19:11:53.71	337.69	72.45	-36.7	-37.5	4.2	8104454	90	5390
2025-01-13 19:11:53.92	337.71	72.35	-36.7	-37.5	4.2	8178302	90	5367
2025-01-13 19:11:54.12	337.73	72.25	-36.6	-37.2	4.3	8138339	90	5268
2025-01-13 19:11:54.32	337.74	72.16	-36.6	-37.1	4.3	8106113	90	5217
2025-01-13 19:11:54.52	337.76	72.06	-36.5	-37.0	4.4	8106113	90	5184
2025-01-13 19:11:54.72	337.78	71.97	-36.5	-36.8	4.4	8042621	90	5098
2025-01-13 19:11:54.92	337.80	71.87	-36.4	-36.6	4.4	8014137	90	5067
2025-01-13 19:11:55.12	337.81	71.78	-36.3	-36.4	4.5	7957157	90	4965
2025-01-13 19:11:55.32	337.83	71.68	-36.4	-36.5	4.5	7896663	90	5021
2025-01-13 19:11:55.52	337.85	71.59	-36.4	-36.6	4.4	7930961	90	5046
2025-01-13 19:11:55.72	337.87	71.49	-36.5	-36.8	4.3	7968990	90	5115
2025-01-13 19:11:55.93	337.88	71.39	-36.5	-37.0	4.3	8075752	90	5206
2025-01-13 19:11:56.13	337.90	71.30	-36.6	-37.1	4.3	8077960	90	5226
2025-01-13 19:11:56.33	337.92	71.21	-36.5	-37.0	4.3	8077960	90	5192
2025-01-13 19:11:56.53	337.93	71.11	-36.5	-37.0	4.2	8120658	90	5207
2025-01-13 19:11:56.73	337.95	71.02	-36.6	-37.1	4.2	8125122	90	5217
2025-01-13 19:11:56.93	337.96	70.92	-36.6	-37.1	4.2	8126346	90	5208
2025-01-13 19:11:57.13	337.98	70.83	-36.7	-37.5	4.1	8140480	90	5390
2025-01-13 19:11:57.33	337.99	70.74	-36.8	-37.7	4.0	8219844	90	5464
2025-01-13 19:11:57.53	338.01	70.64	-37.3	-38.3	3.8	8271308	91	5527
2025-01-13 19:11:57.74	338.03	70.55	-37.4	-38.7	3.8	8315803	91	5702
2025-01-13 19:11:57.94	338.04	70.45	-37.4	-40.1	3.7	8315803	91	6663
2025-01-13 19:11:58.14	338.06	70.36	-37.9	-40.9	3.7	8362426	92	6966
2025-01-13 19:11:58.34	338.07	70.27	-38.8	-41.8	3.4	8417610	94	6931

#Closed at: 2025-01-13 19:11:58