passes_logs/2025/01/14/planumMaritime01/planumMaritime01__20250114_094202_NOAA_18_rec.log

#Pass ID: 20250114_094202_NOAA 18
#Satellite: NOAA 18
#Configuration: NOAA 18
#Start time: 2025-01-14 09:42:07.216951

#LorettStation: 1.0.0 05.05.2024
#Station: planumMaritime01
#Location: 37.49445 lon 55.92918 lat
#TLE: 1 28654U 05018A   25014.17177243  .00000313  00000+0  18955-3 0  9990
#TLE: 2 28654  98.8569  95.2344 0014326 181.4762 178.6370 14.13485757 13061

#Time	Az	El	Level	SNR
2025-01-14 09:42:09.385207	10.3	10.2	-80.6	0.0
2025-01-14 09:42:10.514968	10.3	10.3	-80.3	0.0
2025-01-14 09:42:11.640770	10.2	10.4	-80.6	0.0
2025-01-14 09:42:12.767871	10.2	10.5	-80.7	0.0
2025-01-14 09:42:13.893650	10.1	10.6	-80.8	0.0
2025-01-14 09:42:15.020394	10.1	10.7	-80.5	0.0
2025-01-14 09:42:16.149320	10.0	10.8	-80.7	0.0
2025-01-14 09:42:17.277096	10.0	10.8	-80.3	0.0
2025-01-14 09:42:18.402601	9.9	10.9	-80.5	0.0
2025-01-14 09:42:19.529907	9.9	11.0	-80.8	0.0
2025-01-14 09:42:20.658675	9.8	11.1	-80.5	0.0
2025-01-14 09:42:21.785941	9.8	11.2	-80.6	0.0
2025-01-14 09:42:22.913937	9.7	11.3	-80.6	0.0
2025-01-14 09:42:24.042058	9.6	11.4	-80.6	0.0
2025-01-14 09:42:25.171276	9.6	11.5	-80.9	0.0
2025-01-14 09:42:26.300167	9.5	11.6	-80.7	0.0
2025-01-14 09:42:27.429155	9.5	11.7	-80.6	0.0
2025-01-14 09:42:28.556698	9.4	11.8	-80.7	0.0
2025-01-14 09:42:29.684327	9.4	11.9	-80.4	0.0
2025-01-14 09:42:30.811473	9.3	12.0	-81.0	0.0
2025-01-14 09:42:31.938659	9.3	12.1	-81.0	0.0
2025-01-14 09:42:33.064384	9.2	12.2	-80.9	0.0
2025-01-14 09:42:34.190860	9.1	12.3	-80.9	0.0
2025-01-14 09:42:35.318127	9.1	12.4	-80.9	0.0
2025-01-14 09:42:36.445034	9.0	12.5	-80.6	0.0
2025-01-14 09:42:37.573551	9.0	12.6	-80.8	0.0
2025-01-14 09:42:38.700153	8.9	12.8	-80.9	0.0
2025-01-14 09:42:39.826506	8.9	12.9	-80.9	0.0
2025-01-14 09:42:40.953532	8.8	13.0	-80.8	0.0
2025-01-14 09:42:42.077694	8.7	13.1	-81.3	0.0
2025-01-14 09:42:43.205737	8.7	13.2	-81.2	0.0
2025-01-14 09:42:44.331149	8.6	13.3	-80.9	0.0
2025-01-14 09:42:45.458009	8.6	13.4	-81.0	0.0
2025-01-14 09:42:46.585476	8.5	13.5	-80.6	0.0
2025-01-14 09:42:47.712944	8.4	13.6	-81.4	0.0
2025-01-14 09:42:48.841028	8.4	13.7	-80.6	0.0
2025-01-14 09:42:49.968403	8.3	13.8	-81.0	0.0
2025-01-14 09:42:51.094981	8.2	13.9	-81.3	0.0
2025-01-14 09:42:52.221175	8.2	14.0	-80.8	0.0
2025-01-14 09:42:53.347664	8.1	14.1	-80.9	0.0
2025-01-14 09:42:54.473157	8.0	14.2	-80.9	0.0
2025-01-14 09:42:55.599023	8.0	14.4	-80.8	0.0
2025-01-14 09:42:56.727648	7.9	14.5	-80.4	0.0
2025-01-14 09:42:57.853353	7.8	14.6	-80.7	0.0
2025-01-14 09:42:58.980723	7.8	14.7	-80.4	0.0
2025-01-14 09:43:00.106328	7.7	14.8	-80.3	0.0
2025-01-14 09:43:01.234449	7.6	14.9	-80.7	0.0
2025-01-14 09:43:02.360790	7.6	15.0	-80.9	0.0
2025-01-14 09:43:03.487934	7.5	15.1	-80.8	0.0
2025-01-14 09:43:04.611917	7.4	15.2	-80.5	0.0
2025-01-14 09:43:05.738063	7.4	15.4	-80.9	0.0
2025-01-14 09:43:06.864079	7.3	15.5	-80.7	0.0
2025-01-14 09:43:07.990251	7.2	15.6	-80.6	0.0
2025-01-14 09:43:09.115847	7.1	15.7	-80.6	0.0
2025-01-14 09:43:10.244115	7.1	15.8	-81.1	0.0
2025-01-14 09:43:11.372009	7.0	15.9	-81.1	0.0
2025-01-14 09:43:12.498323	6.9	16.1	-81.2	0.0
2025-01-14 09:43:13.623736	6.8	16.2	-81.1	0.0
2025-01-14 09:43:14.750037	6.8	16.3	-80.7	0.0
2025-01-14 09:43:15.876547	6.7	16.4	-80.8	0.0
2025-01-14 09:43:17.001876	6.6	16.5	-80.8	0.0
2025-01-14 09:43:18.126426	6.5	16.6	-81.0	0.0
2025-01-14 09:43:19.253076	6.5	16.8	-80.9	0.0
2025-01-14 09:43:20.378462	6.4	16.9	-81.0	0.0
2025-01-14 09:43:21.503285	6.3	17.0	-80.7	0.0
2025-01-14 09:43:22.629305	6.2	17.1	-80.7	0.0
2025-01-14 09:43:23.753976	6.1	17.3	-81.4	0.0
2025-01-14 09:43:24.880807	6.1	17.4	-81.0	0.0
2025-01-14 09:43:26.006896	6.0	17.5	-81.1	0.0
2025-01-14 09:43:27.132387	5.9	17.6	-80.8	0.0
2025-01-14 09:43:28.255980	5.8	17.7	-80.9	0.0
2025-01-14 09:43:29.383687	5.7	17.9	-80.9	0.0
2025-01-14 09:43:30.510466	5.6	18.0	-80.8	0.0
2025-01-14 09:43:31.635647	5.6	18.1	-80.7	0.0
2025-01-14 09:43:32.763453	5.5	18.3	-81.0	0.0
2025-01-14 09:43:33.889573	5.4	18.4	-80.7	0.0
2025-01-14 09:43:35.015997	5.3	18.5	-80.4	0.0
2025-01-14 09:43:36.142089	5.2	18.6	-80.7	0.0
2025-01-14 09:43:37.268961	5.1	18.8	-80.6	0.0
2025-01-14 09:43:38.395650	5.0	18.9	-80.9	0.0
2025-01-14 09:43:39.521862	4.9	19.0	-81.2	0.0
2025-01-14 09:43:40.648854	4.8	19.2	-80.9	0.0
2025-01-14 09:43:41.774209	4.7	19.3	-81.0	0.0
2025-01-14 09:43:42.900538	4.7	19.4	-80.8	0.0
2025-01-14 09:43:44.027301	4.6	19.6	-80.6	0.0
2025-01-14 09:43:45.154617	4.5	19.7	-80.9	0.0
2025-01-14 09:43:46.280198	4.4	19.8	-80.8	0.0
2025-01-14 09:43:47.406680	4.3	20.0	-80.9	0.0
2025-01-14 09:43:48.532766	4.2	20.1	-81.0	0.0
2025-01-14 09:43:49.659710	4.1	20.2	-81.1	0.0
2025-01-14 09:43:50.785025	4.0	20.4	-81.2	0.0
2025-01-14 09:43:51.910906	3.9	20.5	-80.8	0.0
2025-01-14 09:43:53.037102	3.8	20.6	-81.1	0.0
2025-01-14 09:43:54.164691	3.7	20.8	-81.2	0.0
2025-01-14 09:43:55.291116	3.6	20.9	-81.0	0.0
2025-01-14 09:43:56.417477	3.5	21.1	-81.3	0.0
2025-01-14 09:43:57.545781	3.3	21.2	-81.2	0.0
2025-01-14 09:43:58.673141	3.2	21.3	-81.4	0.0
2025-01-14 09:43:59.801262	3.1	21.5	-81.3	0.0
2025-01-14 09:44:00.930186	3.0	21.6	-81.0	0.0
2025-01-14 09:44:02.057022	2.9	21.8	-80.9	0.0
2025-01-14 09:44:03.185905	2.8	21.9	-81.1	0.0
2025-01-14 09:44:04.310593	2.7	22.1	-81.3	0.0
2025-01-14 09:44:05.437293	2.6	22.2	-81.0	0.0
2025-01-14 09:44:06.561041	2.5	22.3	-80.9	0.0
2025-01-14 09:44:07.687472	2.3	22.5	-80.9	0.0
2025-01-14 09:44:08.813625	2.2	22.6	-81.1	0.0
2025-01-14 09:44:09.940605	2.1	22.8	-80.9	0.0
2025-01-14 09:44:11.064517	2.0	22.9	-81.1	0.0
2025-01-14 09:44:12.189896	1.9	23.1	-80.8	0.0
2025-01-14 09:44:13.318593	1.8	23.2	-81.0	0.0
2025-01-14 09:44:14.446738	1.6	23.4	-80.9	0.0
2025-01-14 09:44:15.575384	1.5	23.5	-80.4	0.0
2025-01-14 09:44:16.702890	1.4	23.7	-80.9	0.0
2025-01-14 09:44:17.831268	1.3	23.8	-80.5	0.0
2025-01-14 09:44:18.958122	1.1	24.0	-81.0	0.0
2025-01-14 09:44:20.086744	1.0	24.2	-80.7	0.0
2025-01-14 09:44:21.213237	0.9	24.3	-81.0	0.0
2025-01-14 09:44:22.341691	0.7	24.5	-81.2	0.0
2025-01-14 09:44:23.469109	0.6	24.6	-81.4	0.0
2025-01-14 09:44:24.595057	0.5	24.8	-81.0	0.0
2025-01-14 09:44:25.720593	0.3	24.9	-81.3	0.0
2025-01-14 09:44:26.849419	0.2	25.1	-81.1	0.0
2025-01-14 09:44:27.976984	0.1	25.3	-81.0	0.0
2025-01-14 09:44:29.102905	359.9	25.4	-81.3	0.0
2025-01-14 09:44:30.228635	359.8	25.6	-81.3	0.0
2025-01-14 09:44:31.352912	359.6	25.7	-80.9	0.0
2025-01-14 09:44:32.480042	359.5	25.9	-80.6	0.0
2025-01-14 09:44:33.605882	359.3	26.1	-81.0	0.0
2025-01-14 09:44:34.730961	359.2	26.2	-80.5	0.0
2025-01-14 09:44:35.857604	359.1	26.4	-80.2	0.0
2025-01-14 09:44:36.983744	358.9	26.6	-80.3	0.0
2025-01-14 09:44:38.110809	358.7	26.7	-81.3	0.0
2025-01-14 09:44:39.236715	358.6	26.9	-80.8	0.0
2025-01-14 09:44:40.365445	358.4	27.1	-80.9	0.0
2025-01-14 09:44:41.492478	358.3	27.2	-80.8	0.0
2025-01-14 09:44:42.620291	358.1	27.4	-80.7	0.0
2025-01-14 09:44:43.745915	358.0	27.6	-80.7	0.0
2025-01-14 09:44:44.874757	357.8	27.8	-80.6	0.0
2025-01-14 09:44:46.002611	357.6	27.9	-81.3	0.0
2025-01-14 09:44:47.129174	357.5	28.1	-80.8	0.0
2025-01-14 09:44:48.255409	357.3	28.3	-80.8	0.0
2025-01-14 09:44:49.385047	357.1	28.5	-80.9	0.0
2025-01-14 09:44:50.511349	357.0	28.6	-81.1	0.0
2025-01-14 09:44:51.637838	356.8	28.8	-80.8	0.0
2025-01-14 09:44:52.765064	356.6	29.0	-80.9	0.0
2025-01-14 09:44:53.890288	356.4	29.2	-81.1	0.0
2025-01-14 09:44:55.017061	356.3	29.3	-81.1	0.0
2025-01-14 09:44:56.144097	356.1	29.5	-80.9	0.0
2025-01-14 09:44:57.271254	355.9	29.7	-81.2	0.0
2025-01-14 09:44:58.395306	355.7	29.9	-81.1	0.0
2025-01-14 09:44:59.522304	355.5	30.1	-81.3	0.0
2025-01-14 09:45:00.649565	355.3	30.3	-81.1	0.0
2025-01-14 09:45:01.777032	355.1	30.4	-81.3	0.0
2025-01-14 09:45:02.902963	354.9	30.6	-81.4	0.0
2025-01-14 09:45:04.027932	354.7	30.8	-81.0	0.0
2025-01-14 09:45:05.153082	354.5	31.0	-81.1	0.0
2025-01-14 09:45:06.279953	354.3	31.2	-81.3	0.0
2025-01-14 09:45:07.406965	354.1	31.4	-81.0	0.0
2025-01-14 09:45:08.534302	353.9	31.6	-81.2	0.0
2025-01-14 09:45:09.660196	353.7	31.8	-80.8	0.0
2025-01-14 09:45:10.788364	353.5	31.9	-81.1	0.0
2025-01-14 09:45:11.914522	353.3	32.1	-80.9	0.0
2025-01-14 09:45:13.038932	353.1	32.3	-81.4	0.0
2025-01-14 09:45:14.165369	352.9	32.5	-81.1	0.0
2025-01-14 09:45:15.292198	352.6	32.7	-80.7	0.0
2025-01-14 09:45:16.419516	352.4	32.9	-80.6	0.0
2025-01-14 09:45:17.546235	352.2	33.1	-80.3	0.0
2025-01-14 09:45:18.672479	352.0	33.3	-80.6	0.0
2025-01-14 09:45:19.798497	351.7	33.5	-80.8	0.0
2025-01-14 09:45:20.925149	351.5	33.7	-80.8	0.0
2025-01-14 09:45:22.053684	351.2	33.9	-81.1	0.0
2025-01-14 09:45:23.181153	351.0	34.1	-81.1	0.0
2025-01-14 09:45:24.306619	350.8	34.3	-80.6	0.0
2025-01-14 09:45:25.435493	350.5	34.5	-80.4	0.0
2025-01-14 09:45:26.563093	350.3	34.7	-80.6	0.0
2025-01-14 09:45:27.689492	350.0	34.9	-80.5	0.0
2025-01-14 09:45:28.817004	349.8	35.1	-80.6	0.0
2025-01-14 09:45:29.946098	349.5	35.3	-80.7	0.0
2025-01-14 09:45:31.071697	349.2	35.5	-81.2	0.0
2025-01-14 09:45:32.198178	349.0	35.7	-81.0	0.0
2025-01-14 09:45:33.326315	348.7	35.9	-81.3	0.0
2025-01-14 09:45:34.452891	348.4	36.1	-81.1	0.0
2025-01-14 09:45:35.578977	348.1	36.3	-80.8	0.0
2025-01-14 09:45:36.706495	347.9	36.5	-80.9	0.0
2025-01-14 09:45:37.833943	347.6	36.7	-81.3	0.0
2025-01-14 09:45:38.961372	347.3	36.9	-80.9	0.0
2025-01-14 09:45:40.088129	347.0	37.1	-81.0	0.0
2025-01-14 09:45:41.214198	346.7	37.4	-81.0	0.0
2025-01-14 09:45:42.339942	346.4	37.6	-81.0	0.0
2025-01-14 09:45:43.465253	346.1	37.8	-80.7	0.0
2025-01-14 09:45:44.591606	345.8	38.0	-81.4	0.0
2025-01-14 09:45:45.717104	345.5	38.2	-81.1	0.0
2025-01-14 09:45:46.841954	345.2	38.4	-81.2	0.0
2025-01-14 09:45:47.969438	344.8	38.6	-81.2	0.0
2025-01-14 09:45:49.095021	344.5	38.8	-81.1	0.0
2025-01-14 09:45:50.223482	344.2	39.0	-81.5	0.0
2025-01-14 09:45:51.349547	343.8	39.2	-81.4	0.0
2025-01-14 09:45:52.474838	343.5	39.5	-80.9	0.0
2025-01-14 09:45:53.601719	343.2	39.7	-80.9	0.0
2025-01-14 09:45:54.726463	342.8	39.9	-81.2	0.0
2025-01-14 09:45:55.854956	342.5	40.1	-81.2	0.0
2025-01-14 09:45:56.983522	342.1	40.3	-80.7	0.0
2025-01-14 09:45:58.111229	341.8	40.5	-81.0	0.0
2025-01-14 09:45:59.236854	341.4	40.7	-80.9	0.0
2025-01-14 09:46:00.362430	341.0	40.9	-80.9	0.0
2025-01-14 09:46:01.489639	340.6	41.1	-80.9	0.0
2025-01-14 09:46:02.618488	340.3	41.4	-80.7	0.0
2025-01-14 09:46:03.744953	339.9	41.6	-80.8	0.0
2025-01-14 09:46:04.872538	339.5	41.8	-80.7	0.0
2025-01-14 09:46:05.998901	339.1	42.0	-80.5	0.0
2025-01-14 09:46:07.126540	338.7	42.2	-80.5	0.0
2025-01-14 09:46:08.253736	338.3	42.4	-80.8	0.0
2025-01-14 09:46:09.378911	337.9	42.6	-81.0	0.0
2025-01-14 09:46:10.504549	337.5	42.8	-80.8	0.0
2025-01-14 09:46:11.632332	337.0	43.0	-81.0	0.0
2025-01-14 09:46:12.758490	336.6	43.2	-80.9	0.0
2025-01-14 09:46:13.885897	336.2	43.4	-81.1	0.0
2025-01-14 09:46:15.011732	335.7	43.7	-81.2	0.0
2025-01-14 09:46:16.140467	335.3	43.9	-80.9	0.0
2025-01-14 09:46:17.266150	334.8	44.1	-80.4	0.0
2025-01-14 09:46:18.395539	334.4	44.3	-81.0	0.0
2025-01-14 09:46:19.521816	333.9	44.5	-81.1	0.0
2025-01-14 09:46:20.649455	333.5	44.7	-81.3	0.0
2025-01-14 09:46:21.776679	333.0	44.9	-81.4	0.0
2025-01-14 09:46:22.904022	332.5	45.1	-81.0	0.0
2025-01-14 09:46:24.029231	332.0	45.3	-81.1	0.0
2025-01-14 09:46:25.154358	331.5	45.5	-80.8	0.0
2025-01-14 09:46:26.281480	331.0	45.7	-80.9	0.0
2025-01-14 09:46:27.408866	330.5	45.8	-80.8	0.0
2025-01-14 09:46:28.535720	330.0	46.0	-80.5	0.0
2025-01-14 09:46:29.661497	329.5	46.2	-80.6	0.0
2025-01-14 09:46:30.788908	329.0	46.4	-80.5	0.0
2025-01-14 09:46:31.913631	328.4	46.6	-80.7	0.0
2025-01-14 09:46:33.038258	327.9	46.8	-80.4	0.0
2025-01-14 09:46:34.164071	327.4	47.0	-80.5	0.0
2025-01-14 09:46:35.290310	326.8	47.2	-80.5	0.0
2025-01-14 09:46:36.417569	326.3	47.3	-80.5	0.0
2025-01-14 09:46:37.544621	325.7	47.5	-80.3	0.0
2025-01-14 09:46:38.669673	325.1	47.7	-80.7	0.0
2025-01-14 09:46:39.793362	324.6	47.8	-81.0	0.0
2025-01-14 09:46:40.919722	324.0	48.0	-80.6	0.0
2025-01-14 09:46:42.047003	323.4	48.2	-80.5	0.0
2025-01-14 09:46:43.172612	322.8	48.3	-80.7	0.0
2025-01-14 09:46:44.297729	322.2	48.5	-80.7	0.0
2025-01-14 09:46:45.425695	321.6	48.7	-80.6	0.0
2025-01-14 09:46:46.552495	321.0	48.8	-80.8	0.0
2025-01-14 09:46:47.679178	320.4	49.0	-81.0	0.0
2025-01-14 09:46:48.806660	319.7	49.1	-80.7	0.0
2025-01-14 09:46:49.933284	319.1	49.3	-80.8	0.0
2025-01-14 09:46:51.059188	318.5	49.4	-81.2	0.0
2025-01-14 09:46:52.187488	317.8	49.5	-80.8	0.0
2025-01-14 09:46:53.314921	317.2	49.7	-81.0	0.0
2025-01-14 09:46:54.444167	316.5	49.8	-81.3	0.0
2025-01-14 09:46:55.569825	315.9	49.9	-81.0	0.0
2025-01-14 09:46:56.698397	315.2	50.1	-81.1	0.0
2025-01-14 09:46:57.824060	314.5	50.2	-81.3	0.0
2025-01-14 09:46:58.952115	313.9	50.3	-81.1	0.0
2025-01-14 09:47:00.076660	313.2	50.4	-81.0	0.0
2025-01-14 09:47:01.203897	312.5	50.5	-81.3	0.0
2025-01-14 09:47:02.330069	311.8	50.6	-81.0	0.0
2025-01-14 09:47:03.456282	311.1	50.7	-81.1	0.0
2025-01-14 09:47:04.584167	310.4	50.8	-80.8	0.0
2025-01-14 09:47:05.709447	309.7	50.9	-80.9	0.0
2025-01-14 09:47:06.835845	309.0	51.0	-81.2	0.0
2025-01-14 09:47:07.962746	308.3	51.1	-80.9	0.0
2025-01-14 09:47:09.090007	307.6	51.2	-81.0	0.0
2025-01-14 09:47:10.217364	306.8	51.2	-80.9	0.0
2025-01-14 09:47:11.343685	306.1	51.3	-81.1	0.0
2025-01-14 09:47:12.470683	305.4	51.4	-80.8	0.0
2025-01-14 09:47:13.599063	304.7	51.4	-80.8	0.0
2025-01-14 09:47:14.724092	303.9	51.5	-80.9	0.0
2025-01-14 09:47:15.850550	303.2	51.5	-80.6	0.0
2025-01-14 09:47:16.976201	302.5	51.6	-80.6	0.0
2025-01-14 09:47:18.102600	301.7	51.6	-80.8	0.0
2025-01-14 09:47:19.228554	301.0	51.7	-81.1	0.0
2025-01-14 09:47:20.356057	300.2	51.7	-80.7	0.0
2025-01-14 09:47:21.482257	299.5	51.7	-81.2	0.0
2025-01-14 09:47:22.608540	298.7	51.7	-81.3	0.0
2025-01-14 09:47:23.733260	298.0	51.7	-81.2	0.0
2025-01-14 09:47:24.859969	297.2	51.8	-81.3	0.0
2025-01-14 09:47:25.985343	296.5	51.8	-81.2	0.0
2025-01-14 09:47:27.112051	295.7	51.8	-81.2	0.0
2025-01-14 09:47:28.237379	295.0	51.8	-81.4	0.0
2025-01-14 09:47:29.364877	294.2	51.7	-81.3	0.0
2025-01-14 09:47:30.490933	293.5	51.7	-81.5	0.0
2025-01-14 09:47:31.618003	292.8	51.7	-81.6	0.0
2025-01-14 09:47:32.746834	292.0	51.7	-81.4	0.0
2025-01-14 09:47:33.873587	291.3	51.6	-81.5	0.0
2025-01-14 09:47:34.998921	290.5	51.6	-81.2	0.0
2025-01-14 09:47:36.126583	289.8	51.6	-81.2	0.0
2025-01-14 09:47:37.252225	289.0	51.5	-81.1	0.0
2025-01-14 09:47:38.379157	288.3	51.5	-81.0	0.0
2025-01-14 09:47:39.504187	287.6	51.4	-81.3	0.0
2025-01-14 09:47:40.630883	286.8	51.4	-81.1	0.0
2025-01-14 09:47:41.757919	286.1	51.3	-80.9	0.0
2025-01-14 09:47:42.886434	285.4	51.2	-81.0	0.0
2025-01-14 09:47:44.017109	284.7	51.1	-80.8	0.0
2025-01-14 09:47:45.144661	283.9	51.1	-80.9	0.0
2025-01-14 09:47:46.270327	283.2	51.0	-81.4	0.0
2025-01-14 09:47:47.395479	282.5	50.9	-81.1	0.0
2025-01-14 09:47:48.521475	281.8	50.8	-80.8	0.0
2025-01-14 09:47:49.647663	281.1	50.7	-81.2	0.0
2025-01-14 09:47:50.775244	280.4	50.6	-80.9	0.0
2025-01-14 09:47:51.903327	279.7	50.5	-81.0	0.0
2025-01-14 09:47:53.031992	279.0	50.4	-80.9	0.0
2025-01-14 09:47:54.160816	278.4	50.3	-81.1	0.0
2025-01-14 09:47:55.287475	277.7	50.2	-80.8	0.0
2025-01-14 09:47:56.413264	277.0	50.0	-81.2	0.0
2025-01-14 09:47:57.538880	276.3	49.9	-80.9	0.0
2025-01-14 09:47:58.666620	275.7	49.8	-80.8	0.0
2025-01-14 09:47:59.793173	275.0	49.6	-81.3	0.0
2025-01-14 09:48:00.923785	274.4	49.5	-81.0	0.0
2025-01-14 09:48:02.053047	273.7	49.4	-81.0	0.0
2025-01-14 09:48:03.180065	273.1	49.2	-81.3	0.0
2025-01-14 09:48:04.308010	272.5	49.1	-80.9	0.0
2025-01-14 09:48:05.435881	271.8	48.9	-80.8	0.0
2025-01-14 09:48:06.561294	271.2	48.8	-81.0	0.0
2025-01-14 09:48:07.687482	270.6	48.6	-81.0	0.0
2025-01-14 09:48:08.813476	270.0	48.5	-80.6	0.0
2025-01-14 09:48:09.940533	269.4	48.3	-81.1	0.0
2025-01-14 09:48:11.066875	268.8	48.1	-81.2	0.0
2025-01-14 09:48:12.194204	268.2	48.0	-80.8	0.0
2025-01-14 09:48:13.321436	267.6	47.8	-80.7	0.0
2025-01-14 09:48:14.446983	267.1	47.6	-81.0	0.0
2025-01-14 09:48:15.573401	266.5	47.4	-81.0	0.0
2025-01-14 09:48:16.697638	265.9	47.3	-80.3	0.0
2025-01-14 09:48:17.822459	265.4	47.1	-80.9	0.0
2025-01-14 09:48:18.950108	264.8	46.9	-80.6	0.0
2025-01-14 09:48:20.077590	264.3	46.7	-80.9	0.0
2025-01-14 09:48:21.202668	263.8	46.5	-80.6	0.0
2025-01-14 09:48:22.329422	263.2	46.3	-81.0	0.0
2025-01-14 09:48:23.454931	262.7	46.2	-81.0	0.0
2025-01-14 09:48:24.582079	262.2	46.0	-80.4	0.0
2025-01-14 09:48:25.710853	261.7	45.8	-80.9	0.0
2025-01-14 09:48:26.837745	261.2	45.6	-80.8	0.0
2025-01-14 09:48:27.963847	260.7	45.4	-80.8	0.0
2025-01-14 09:48:29.091612	260.2	45.2	-81.0	0.0
2025-01-14 09:48:30.219628	259.7	45.0	-81.2	0.0
2025-01-14 09:48:31.348208	259.2	44.8	-80.6	0.0
2025-01-14 09:48:32.476890	258.7	44.6	-80.8	0.0
2025-01-14 09:48:33.604308	258.3	44.4	-80.7	0.0
2025-01-14 09:48:34.731060	257.8	44.2	-81.0	0.0
2025-01-14 09:48:35.860510	257.4	44.0	-80.7	0.0
2025-01-14 09:48:36.988549	256.9	43.8	-80.7	0.0
2025-01-14 09:48:38.113519	256.5	43.6	-81.3	0.0
2025-01-14 09:48:39.240074	256.0	43.3	-81.2	0.0
2025-01-14 09:48:40.368693	255.6	43.1	-81.0	0.0
2025-01-14 09:48:41.497208	255.2	42.9	-81.2	0.0
2025-01-14 09:48:42.623176	254.7	42.7	-81.4	0.0
2025-01-14 09:48:43.751827	254.3	42.5	-81.5	0.0
2025-01-14 09:48:44.881045	253.9	42.3	-81.0	0.0
2025-01-14 09:48:46.008103	253.5	42.1	-81.2	0.0
2025-01-14 09:48:47.134482	253.1	41.9	-81.2	0.0
2025-01-14 09:48:48.260006	252.7	41.7	-80.9	0.0
2025-01-14 09:48:49.386120	252.3	41.4	-81.4	0.0
2025-01-14 09:48:50.512467	251.9	41.2	-81.5	0.0
2025-01-14 09:48:51.637895	251.6	41.0	-81.3	0.0
2025-01-14 09:48:52.763305	251.2	40.8	-81.4	0.0
2025-01-14 09:48:53.888594	250.8	40.6	-81.3	0.0
2025-01-14 09:48:55.016187	250.4	40.4	-81.3	0.0
2025-01-14 09:48:56.142039	250.1	40.2	-81.0	0.0
2025-01-14 09:48:57.270178	249.7	40.0	-81.1	0.0
2025-01-14 09:48:58.396123	249.4	39.7	-81.4	0.0
2025-01-14 09:48:59.520817	249.0	39.5	-81.0	0.0
2025-01-14 09:49:00.646787	248.7	39.3	-81.3	0.0
2025-01-14 09:49:01.773909	248.3	39.1	-81.0	0.0
2025-01-14 09:49:02.902592	248.0	38.9	-81.3	0.0
2025-01-14 09:49:04.029038	247.7	38.7	-81.2	0.0
2025-01-14 09:49:05.155476	247.4	38.5	-81.0	0.0
2025-01-14 09:49:06.280737	247.0	38.3	-80.9	0.0
2025-01-14 09:49:07.407305	246.7	38.0	-81.6	0.0
2025-01-14 09:49:08.535970	246.4	37.8	-81.1	0.0
2025-01-14 09:49:09.660851	246.1	37.6	-81.0	0.0
2025-01-14 09:49:10.787853	245.8	37.4	-81.0	0.0
2025-01-14 09:49:11.914212	245.5	37.2	-80.6	0.0
2025-01-14 09:49:13.041179	245.2	37.0	-80.7	0.0
2025-01-14 09:49:14.170788	244.9	36.8	-81.2	0.0
2025-01-14 09:49:15.298348	244.6	36.6	-81.1	0.0
2025-01-14 09:49:16.425201	244.3	36.4	-81.4	0.0
2025-01-14 09:49:17.551727	244.1	36.2	-81.4	0.0
2025-01-14 09:49:18.678637	243.8	36.0	-81.2	0.0
2025-01-14 09:49:19.806198	243.5	35.7	-81.5	0.0
2025-01-14 09:49:20.932259	243.2	35.5	-81.2	0.0
2025-01-14 09:49:22.058739	243.0	35.3	-81.3	0.0
2025-01-14 09:49:23.184814	242.7	35.1	-81.2	0.0
2025-01-14 09:49:24.312286	242.4	34.9	-80.8	0.0
2025-01-14 09:49:25.437781	242.2	34.7	-81.0	0.0
2025-01-14 09:49:26.564407	241.9	34.5	-81.5	0.0
2025-01-14 09:49:27.691506	241.7	34.3	-81.2	0.0
2025-01-14 09:49:28.818194	241.4	34.1	-81.3	0.0
2025-01-14 09:49:29.945163	241.2	33.9	-80.8	0.0
2025-01-14 09:49:31.071492	240.9	33.7	-80.4	0.0
2025-01-14 09:49:32.196776	240.7	33.5	-80.3	0.0
2025-01-14 09:49:33.323766	240.5	33.3	-80.9	0.0
2025-01-14 09:49:34.451186	240.2	33.1	-80.5	0.0
2025-01-14 09:49:35.578519	240.0	32.9	-80.6	0.0
2025-01-14 09:49:36.705786	239.8	32.7	-80.7	0.0
2025-01-14 09:49:37.832293	239.5	32.5	-80.9	0.0
2025-01-14 09:49:38.958616	239.3	32.3	-80.7	0.0
2025-01-14 09:49:40.085227	239.1	32.1	-80.8	0.0
2025-01-14 09:49:41.212630	238.9	31.9	-80.8	0.0
2025-01-14 09:49:42.338674	238.7	31.8	-80.6	0.0
2025-01-14 09:49:43.465184	238.5	31.6	-81.2	0.0
2025-01-14 09:49:44.591533	238.3	31.4	-81.0	0.0
2025-01-14 09:49:45.716243	238.0	31.2	-80.9	0.0
2025-01-14 09:49:46.843400	237.8	31.0	-81.0	0.0
2025-01-14 09:49:47.970250	237.6	30.8	-80.9	0.0
2025-01-14 09:49:49.095193	237.4	30.6	-81.1	0.0
2025-01-14 09:49:50.221932	237.2	30.4	-81.2	0.0
2025-01-14 09:49:51.347239	237.0	30.2	-81.2	0.0
2025-01-14 09:49:52.473314	236.9	30.1	-81.1	0.0
2025-01-14 09:49:53.600110	236.7	29.9	-80.7	0.0
2025-01-14 09:49:54.725610	236.5	29.7	-81.2	0.0
2025-01-14 09:49:55.851453	236.3	29.5	-81.2	0.0
2025-01-14 09:49:56.977825	236.1	29.3	-80.8	0.0
2025-01-14 09:49:58.104473	235.9	29.1	-81.4	0.0
2025-01-14 09:49:59.229402	235.7	29.0	-80.9	0.0
2025-01-14 09:50:00.354173	235.6	28.8	-81.1	0.0
2025-01-14 09:50:01.479398	235.4	28.6	-81.0	0.0
2025-01-14 09:50:02.604919	235.2	28.4	-81.3	0.0
2025-01-14 09:50:03.732043	235.0	28.2	-81.2	0.0
2025-01-14 09:50:04.857635	234.9	28.1	-81.1	0.0
2025-01-14 09:50:05.986193	234.7	27.9	-80.8	0.0
2025-01-14 09:50:07.112219	234.5	27.7	-81.0	0.0
2025-01-14 09:50:08.238108	234.4	27.5	-80.9	0.0
2025-01-14 09:50:09.363189	234.2	27.4	-81.0	0.0
2025-01-14 09:50:10.490209	234.0	27.2	-80.9	0.0
2025-01-14 09:50:11.616721	233.9	27.0	-80.9	0.0
2025-01-14 09:50:12.742089	233.7	26.9	-80.7	0.0
2025-01-14 09:50:13.867607	233.6	26.7	-80.7	0.0
2025-01-14 09:50:14.995154	233.4	26.5	-80.9	0.0
2025-01-14 09:50:16.120707	233.3	26.3	-80.9	0.0
2025-01-14 09:50:17.246823	233.1	26.2	-81.2	0.0
2025-01-14 09:50:18.373408	233.0	26.0	-80.8	0.0
2025-01-14 09:50:19.500856	232.8	25.8	-81.2	0.0
2025-01-14 09:50:20.627067	232.7	25.7	-81.0	0.0
2025-01-14 09:50:21.752643	232.5	25.5	-80.8	0.0
2025-01-14 09:50:22.878974	232.4	25.4	-80.8	0.0
2025-01-14 09:50:24.006408	232.2	25.2	-81.0	0.0
2025-01-14 09:50:25.132038	232.1	25.0	-80.9	0.0
2025-01-14 09:50:26.258994	232.0	24.9	-80.6	0.0
2025-01-14 09:50:27.385613	231.8	24.7	-81.1	0.0
2025-01-14 09:50:28.512602	231.7	24.6	-80.6	0.0
2025-01-14 09:50:29.640055	231.6	24.4	-80.9	0.0
2025-01-14 09:50:30.766165	231.4	24.2	-80.8	0.0
2025-01-14 09:50:31.891376	231.3	24.1	-81.1	0.0
2025-01-14 09:50:33.018734	231.2	23.9	-81.2	0.0
2025-01-14 09:50:34.144885	231.0	23.8	-80.9	0.0
2025-01-14 09:50:35.272332	230.9	23.6	-81.0	0.0
2025-01-14 09:50:36.397968	230.8	23.5	-81.0	0.0
2025-01-14 09:50:37.525063	230.6	23.3	-80.6	0.0
2025-01-14 09:50:38.650223	230.5	23.1	-81.1	0.0
2025-01-14 09:50:39.777230	230.4	23.0	-80.8	0.0
2025-01-14 09:50:40.903576	230.3	22.8	-81.0	0.0
2025-01-14 09:50:42.029830	230.2	22.7	-80.5	0.0
2025-01-14 09:50:43.156066	230.0	22.5	-80.9	0.0
2025-01-14 09:50:44.281574	229.9	22.4	-80.4	0.0
2025-01-14 09:50:45.408082	229.8	22.2	-80.8	0.0
2025-01-14 09:50:46.534662	229.7	22.1	-80.7	0.0
2025-01-14 09:50:47.661374	229.6	22.0	-80.6	0.0
2025-01-14 09:50:48.788428	229.5	21.8	-80.7	0.0
2025-01-14 09:50:49.913440	229.3	21.7	-80.5	0.0
2025-01-14 09:50:51.037026	229.2	21.5	-80.8	0.0
2025-01-14 09:50:52.162104	229.1	21.4	-80.5	0.0
2025-01-14 09:50:53.289281	229.0	21.2	-80.7	0.0
2025-01-14 09:50:54.415912	228.9	21.1	-80.9	0.0
2025-01-14 09:50:55.543155	228.8	20.9	-81.1	0.0
2025-01-14 09:50:56.668945	228.7	20.8	-81.2	0.0
2025-01-14 09:50:57.795271	228.6	20.7	-80.3	0.0
2025-01-14 09:50:58.921654	228.5	20.5	-80.5	0.0
2025-01-14 09:51:00.046599	228.4	20.4	-81.1	0.0
2025-01-14 09:51:01.172892	228.3	20.2	-81.1	0.0
2025-01-14 09:51:02.302165	228.2	20.1	-80.8	0.0
2025-01-14 09:51:03.427082	228.1	20.0	-81.2	0.0
2025-01-14 09:51:04.553993	228.0	19.8	-81.3	0.0
2025-01-14 09:51:05.680328	227.9	19.7	-80.9	0.0
2025-01-14 09:51:06.805417	227.8	19.6	-81.0	0.0
2025-01-14 09:51:07.930798	227.7	19.4	-81.3	0.0
2025-01-14 09:51:09.055980	227.6	19.3	-81.0	0.0
2025-01-14 09:51:10.181455	227.5	19.2	-80.7	0.0
2025-01-14 09:51:11.307504	227.4	19.0	-80.9	0.0
2025-01-14 09:51:12.432842	227.3	18.9	-81.1	0.0
2025-01-14 09:51:13.557822	227.2	18.8	-80.8	0.0
2025-01-14 09:51:14.685913	227.1	18.6	-80.8	0.0
2025-01-14 09:51:15.812320	227.0	18.5	-80.5	0.0
2025-01-14 09:51:16.936819	226.9	18.4	-80.5	0.0
2025-01-14 09:51:18.062566	226.8	18.2	-81.0	0.0
2025-01-14 09:51:19.188414	226.8	18.1	-80.8	0.0
2025-01-14 09:51:20.314943	226.7	18.0	-80.5	0.0
2025-01-14 09:51:21.440234	226.6	17.9	-80.6	0.0
2025-01-14 09:51:22.566566	226.5	17.7	-80.3	0.0
2025-01-14 09:51:23.692036	226.4	17.6	-80.5	0.0
2025-01-14 09:51:24.818786	226.3	17.5	-80.6	0.0
2025-01-14 09:51:25.944041	226.2	17.4	-80.5	0.0
2025-01-14 09:51:27.068325	226.2	17.2	-80.4	0.0
2025-01-14 09:51:28.194401	226.1	17.1	-80.8	0.0
2025-01-14 09:51:29.319077	226.0	17.0	-80.6	0.0
2025-01-14 09:51:30.446471	225.9	16.9	-80.6	0.0
2025-01-14 09:51:31.573438	225.8	16.7	-81.0	0.0
2025-01-14 09:51:32.699149	225.7	16.6	-80.2	0.0
2025-01-14 09:51:33.825077	225.7	16.5	-80.3	0.0
2025-01-14 09:51:34.951477	225.6	16.4	-80.3	0.0
2025-01-14 09:51:36.076278	225.5	16.3	-80.5	0.0
2025-01-14 09:51:37.202967	225.4	16.1	-80.2	0.0
2025-01-14 09:51:38.329220	225.4	16.0	-80.4	0.0
2025-01-14 09:51:39.455894	225.3	15.9	-80.3	0.0
2025-01-14 09:51:40.580870	225.2	15.8	-80.7	0.0
2025-01-14 09:51:41.706556	225.1	15.7	-79.5	0.0
2025-01-14 09:51:42.832794	225.0	15.5	-79.0	0.0
2025-01-14 09:51:43.957956	225.0	15.4	-79.3	0.0
2025-01-14 09:51:45.084686	224.9	15.3	-79.2	0.0
2025-01-14 09:51:46.211632	224.8	15.2	-78.7	0.0
2025-01-14 09:51:47.337219	224.8	15.1	-79.1	0.0
2025-01-14 09:51:48.466162	224.7	15.0	-78.9	0.0
2025-01-14 09:51:49.593548	224.6	14.9	-79.5	0.0
2025-01-14 09:51:50.720824	224.5	14.7	-79.5	0.0
2025-01-14 09:51:51.846928	224.5	14.6	-79.4	0.0
2025-01-14 09:51:52.972666	224.4	14.5	-79.2	0.0
2025-01-14 09:51:54.097687	224.3	14.4	-78.8	0.0
2025-01-14 09:51:55.226180	224.3	14.3	-79.4	0.0
2025-01-14 09:51:56.354801	224.2	14.2	-78.8	0.0
2025-01-14 09:51:57.480071	224.1	14.1	-79.4	0.0
2025-01-14 09:51:58.606404	224.1	14.0	-79.3	0.0
2025-01-14 09:51:59.732810	224.0	13.8	-79.7	0.0
2025-01-14 09:52:00.860097	223.9	13.7	-79.5	0.0
2025-01-14 09:52:01.986707	223.9	13.6	-79.1	0.0
2025-01-14 09:52:03.112892	223.8	13.5	-79.1	0.0
2025-01-14 09:52:04.239715	223.7	13.4	-79.3	0.0
2025-01-14 09:52:05.365735	223.7	13.3	-79.5	0.0
2025-01-14 09:52:06.492435	223.6	13.2	-79.1	0.0
2025-01-14 09:52:07.620006	223.5	13.1	-80.6	0.0
2025-01-14 09:52:08.745523	223.5	13.0	-81.0	0.0
2025-01-14 09:52:09.872293	223.4	12.9	-80.9	0.0
2025-01-14 09:52:10.998951	223.4	12.8	-80.7	0.0
2025-01-14 09:52:12.125010	223.3	12.7	-80.9	0.0
2025-01-14 09:52:13.250898	223.2	12.6	-80.9	0.0
2025-01-14 09:52:14.378890	223.2	12.5	-80.8	0.0
2025-01-14 09:52:15.504039	223.1	12.4	-80.2	0.0
2025-01-14 09:52:16.631588	223.1	12.3	-80.7	0.0
2025-01-14 09:52:17.758313	223.0	12.1	-80.7	0.0
2025-01-14 09:52:18.884198	222.9	12.0	-80.7	0.0
2025-01-14 09:52:20.009390	222.9	11.9	-80.9	0.0
2025-01-14 09:52:21.134643	222.8	11.8	-80.9	0.0
2025-01-14 09:52:22.260682	222.8	11.7	-80.8	0.0
2025-01-14 09:52:23.385151	222.7	11.6	-80.8	0.0
2025-01-14 09:52:24.511999	222.7	11.5	-81.1	0.0
2025-01-14 09:52:25.638046	222.6	11.4	-81.1	0.0
2025-01-14 09:52:26.764205	222.5	11.3	-80.6	0.0
2025-01-14 09:52:27.890986	222.5	11.2	-80.7	0.0
2025-01-14 09:52:29.016994	222.4	11.1	-80.9	0.0
2025-01-14 09:52:30.143142	222.4	11.0	-81.0	0.0
2025-01-14 09:52:31.269337	222.3	10.9	-80.7	0.0
2025-01-14 09:52:32.394234	222.3	10.8	-81.1	0.0
2025-01-14 09:52:33.522696	222.2	10.7	-80.5	0.0
2025-01-14 09:52:34.648276	222.2	10.6	-80.7	0.0
2025-01-14 09:52:35.774082	222.1	10.6	-80.7	0.0
2025-01-14 09:52:36.900600	222.1	10.5	-80.3	0.0
2025-01-14 09:52:38.027136	222.0	10.4	-80.4	0.0
2025-01-14 09:52:40.052211	221.9	10.2	-80.7	0.0
2025-01-14 09:52:41.178728	221.9	10.1	-80.8	0.0
#Closed at: 2025-01-14 09:42:02.219875