passes_logs/2025/01/14/planumMaritime01/planumMaritime01__20250114_091655_NOAA_19_rec.log

#Pass ID: 20250114_091655_NOAA 19
#Satellite: NOAA 19
#Configuration: NOAA 19
#Start time: 2025-01-14 09:17:00.572054

#LorettStation: 1.0.0 05.05.2024
#Station: planumMaritime01
#Location: 37.49445 lon 55.92918 lat
#TLE: 1 33591U 09005A   25014.15453959  .00000276  00000+0  17122-3 0  9998
#TLE: 2 33591  99.0198  77.9105 0014501  59.8090 300.4516 14.13258688821422

#Time	Az	El	Level	SNR
2025-01-14 09:17:06.788032	3.1	10.5	-79.3	0.0
2025-01-14 09:17:07.913940	3.0	10.5	-79.0	0.0
2025-01-14 09:17:09.039226	2.9	10.6	-79.0	0.0
2025-01-14 09:17:10.164327	2.8	10.7	-79.3	0.0
2025-01-14 09:17:11.290399	2.7	10.8	-79.0	0.0
2025-01-14 09:17:12.415708	2.6	10.9	-79.0	0.0
2025-01-14 09:17:13.540958	2.5	11.0	-78.8	0.0
2025-01-14 09:17:14.667339	2.4	11.1	-79.3	0.0
2025-01-14 09:17:15.792952	2.3	11.1	-79.5	0.0
2025-01-14 09:17:16.917095	2.2	11.2	-79.4	0.0
2025-01-14 09:17:18.042306	2.0	11.3	-79.8	0.0
2025-01-14 09:17:19.168589	1.9	11.4	-79.6	0.0
2025-01-14 09:17:20.294359	1.8	11.5	-79.7	0.0
2025-01-14 09:17:21.420503	1.7	11.6	-79.5	0.0
2025-01-14 09:17:22.544351	1.6	11.7	-79.7	0.0
2025-01-14 09:17:23.672964	1.5	11.7	-79.9	0.0
2025-01-14 09:17:24.799499	1.4	11.8	-79.8	0.0
2025-01-14 09:17:25.926774	1.2	11.9	-79.6	0.0
2025-01-14 09:17:27.050600	1.1	12.0	-79.8	0.0
2025-01-14 09:17:28.177603	1.0	12.1	-79.8	0.0
2025-01-14 09:17:29.302358	0.9	12.2	-79.9	0.0
2025-01-14 09:17:30.428973	0.8	12.3	-80.0	0.0
2025-01-14 09:17:31.555703	0.6	12.4	-79.8	0.0
2025-01-14 09:17:32.681076	0.5	12.4	-79.9	0.0
2025-01-14 09:17:33.808112	0.4	12.5	-79.9	0.0
2025-01-14 09:17:34.933921	0.3	12.6	-79.7	0.0
2025-01-14 09:17:36.059708	0.2	12.7	-79.8	0.0
2025-01-14 09:17:37.183911	0.0	12.8	-79.7	0.0
2025-01-14 09:17:38.309783	359.9	12.9	-79.6	0.0
2025-01-14 09:17:39.435356	359.8	13.0	-79.7	0.0
2025-01-14 09:17:40.562741	359.6	13.1	-79.7	0.0
2025-01-14 09:17:41.690573	359.5	13.2	-79.7	0.0
2025-01-14 09:17:42.817696	359.4	13.3	-79.8	0.0
2025-01-14 09:17:43.943053	359.3	13.3	-79.6	0.0
2025-01-14 09:17:45.068365	359.1	13.4	-80.0	0.0
2025-01-14 09:17:46.194349	359.0	13.5	-79.9	0.0
2025-01-14 09:17:47.318580	358.9	13.6	-79.9	0.0
2025-01-14 09:17:48.444642	358.7	13.7	-79.4	0.0
2025-01-14 09:17:49.570780	358.6	13.8	-79.6	0.0
2025-01-14 09:17:50.697395	358.5	13.9	-79.9	0.0
2025-01-14 09:17:51.823978	358.3	14.0	-79.8	0.0
2025-01-14 09:17:52.948175	358.2	14.1	-79.8	0.0
2025-01-14 09:17:54.074127	358.1	14.2	-80.1	0.0
2025-01-14 09:17:55.199410	357.9	14.3	-80.1	0.0
2025-01-14 09:17:56.325056	357.8	14.3	-79.6	0.0
2025-01-14 09:17:57.452479	357.6	14.4	-80.0	0.0
2025-01-14 09:17:58.579468	357.5	14.5	-79.7	0.0
2025-01-14 09:17:59.705352	357.4	14.6	-80.1	0.0
2025-01-14 09:18:00.832090	357.2	14.7	-79.6	0.0
2025-01-14 09:18:01.956587	357.1	14.8	-79.8	0.0
2025-01-14 09:18:03.082953	356.9	14.9	-79.9	0.0
2025-01-14 09:18:04.208225	356.8	15.0	-80.0	0.0
2025-01-14 09:18:05.334859	356.6	15.1	-80.3	0.0
2025-01-14 09:18:06.463447	356.5	15.2	-79.8	0.0
2025-01-14 09:18:07.588607	356.4	15.3	-79.9	0.0
2025-01-14 09:18:08.713952	356.2	15.4	-80.1	0.0
2025-01-14 09:18:09.840472	356.1	15.5	-80.1	0.0
2025-01-14 09:18:10.965719	355.9	15.6	-80.0	0.0
2025-01-14 09:18:12.091193	355.8	15.7	-80.1	0.0
2025-01-14 09:18:13.218574	355.6	15.7	-80.3	0.0
2025-01-14 09:18:14.341773	355.4	15.8	-80.1	0.0
2025-01-14 09:18:15.465232	355.3	15.9	-80.2	0.0
2025-01-14 09:18:16.591662	355.1	16.0	-80.0	0.0
2025-01-14 09:18:17.714358	355.0	16.1	-80.0	0.0
2025-01-14 09:18:18.839967	354.8	16.2	-80.0	0.0
2025-01-14 09:18:19.967100	354.7	16.3	-80.1	0.0
2025-01-14 09:18:21.093718	354.5	16.4	-80.2	0.0
2025-01-14 09:18:22.222410	354.3	16.5	-80.4	0.0
2025-01-14 09:18:23.346688	354.2	16.6	-80.1	0.0
2025-01-14 09:18:24.472249	354.0	16.7	-80.2	0.0
2025-01-14 09:18:25.597761	353.9	16.8	-80.1	0.0
2025-01-14 09:18:26.722261	353.7	16.9	-80.3	0.0
2025-01-14 09:18:27.846844	353.5	17.0	-80.3	0.0
2025-01-14 09:18:28.973561	353.4	17.1	-80.1	0.0
2025-01-14 09:18:30.099410	353.2	17.2	-79.8	0.0
2025-01-14 09:18:31.225764	353.0	17.3	-79.4	0.0
2025-01-14 09:18:32.351992	352.9	17.4	-79.9	0.0
2025-01-14 09:18:33.475494	352.7	17.5	-80.0	0.0
2025-01-14 09:18:34.601783	352.5	17.6	-79.8	0.0
2025-01-14 09:18:35.729944	352.3	17.7	-79.9	0.0
2025-01-14 09:18:36.855285	352.2	17.8	-79.8	0.0
2025-01-14 09:18:37.980569	352.0	17.9	-80.1	0.0
2025-01-14 09:18:39.107508	351.8	18.0	-80.3	0.0
2025-01-14 09:18:40.234519	351.6	18.1	-79.8	0.0
2025-01-14 09:18:41.360722	351.5	18.2	-80.2	0.0
2025-01-14 09:18:42.486865	351.3	18.3	-79.4	0.0
2025-01-14 09:18:43.613318	351.1	18.4	-80.1	0.0
2025-01-14 09:18:44.740762	350.9	18.5	-80.1	0.0
2025-01-14 09:18:45.868682	350.7	18.6	-80.2	0.0
2025-01-14 09:18:46.995640	350.5	18.7	-80.4	0.0
2025-01-14 09:18:48.122214	350.4	18.7	-80.3	0.0
2025-01-14 09:18:49.248881	350.2	18.8	-80.5	0.0
2025-01-14 09:18:50.375059	350.0	18.9	-80.2	0.0
2025-01-14 09:18:51.500266	349.8	19.0	-80.1	0.0
2025-01-14 09:18:52.626783	349.6	19.1	-80.2	0.0
2025-01-14 09:18:53.753295	349.4	19.2	-80.3	0.0
2025-01-14 09:18:54.877856	349.2	19.3	-80.5	0.0
2025-01-14 09:18:56.006515	349.0	19.4	-80.6	0.0
2025-01-14 09:18:57.132726	348.8	19.5	-80.4	0.0
2025-01-14 09:18:58.259286	348.6	19.6	-80.4	0.0
2025-01-14 09:18:59.385967	348.4	19.7	-80.2	0.0
2025-01-14 09:19:00.513463	348.2	19.8	-80.1	0.0
2025-01-14 09:19:01.641749	348.0	19.9	-80.1	0.0
2025-01-14 09:19:02.768869	347.8	20.0	-80.3	0.0
2025-01-14 09:19:03.893833	347.6	20.1	-80.8	0.0
2025-01-14 09:19:05.019113	347.4	20.2	-80.7	0.0
2025-01-14 09:19:06.145450	347.2	20.3	-80.6	0.0
2025-01-14 09:19:07.270207	347.0	20.4	-80.5	0.0
2025-01-14 09:19:08.394915	346.8	20.5	-80.4	0.0
2025-01-14 09:19:09.519349	346.6	20.6	-80.2	0.0
2025-01-14 09:19:10.645083	346.4	20.7	-80.3	0.0
2025-01-14 09:19:11.770760	346.1	20.8	-80.3	0.0
2025-01-14 09:19:12.896686	345.9	20.9	-80.2	0.0
2025-01-14 09:19:14.021958	345.7	21.0	-80.2	0.0
2025-01-14 09:19:15.151736	345.5	21.1	-80.2	0.0
2025-01-14 09:19:16.277885	345.3	21.2	-79.9	0.0
2025-01-14 09:19:17.402557	345.1	21.3	-79.9	0.0
2025-01-14 09:19:18.529217	344.8	21.4	-80.0	0.0
2025-01-14 09:19:19.654316	344.6	21.5	-80.1	0.0
2025-01-14 09:19:20.780947	344.4	21.6	-80.3	0.0
2025-01-14 09:19:21.907127	344.2	21.7	-80.3	0.0
2025-01-14 09:19:23.032277	343.9	21.8	-80.3	0.0
2025-01-14 09:19:24.161059	343.7	21.9	-80.3	0.0
2025-01-14 09:19:25.288426	343.5	22.0	-80.2	0.0
2025-01-14 09:19:26.416646	343.2	22.1	-80.4	0.0
2025-01-14 09:19:27.541213	343.0	22.2	-80.5	0.0
2025-01-14 09:19:28.666830	342.8	22.3	-80.4	0.0
2025-01-14 09:19:29.792446	342.5	22.4	-80.7	0.0
2025-01-14 09:19:30.920053	342.3	22.5	-80.4	0.0
2025-01-14 09:19:32.046356	342.1	22.6	-80.6	0.0
2025-01-14 09:19:33.172993	341.8	22.7	-80.3	0.0
2025-01-14 09:19:34.299521	341.6	22.8	-80.2	0.0
2025-01-14 09:19:35.426056	341.3	22.9	-80.5	0.0
2025-01-14 09:19:36.552443	341.1	23.0	-80.2	0.0
2025-01-14 09:19:37.678793	340.8	23.1	-80.6	0.0
2025-01-14 09:19:38.805049	340.6	23.2	-80.2	0.0
2025-01-14 09:19:39.932765	340.3	23.3	-80.1	0.0
2025-01-14 09:19:41.058983	340.1	23.4	-80.1	0.0
2025-01-14 09:19:42.184610	339.8	23.4	-80.0	0.0
2025-01-14 09:19:43.312257	339.6	23.5	-79.8	0.0
2025-01-14 09:19:44.436846	339.3	23.6	-80.0	0.0
2025-01-14 09:19:45.563677	339.1	23.7	-80.0	0.0
2025-01-14 09:19:46.691943	338.8	23.8	-80.2	0.0
2025-01-14 09:19:47.815748	338.5	23.9	-80.3	0.0
2025-01-14 09:19:48.941747	338.3	24.0	-80.0	0.0
2025-01-14 09:19:50.070091	338.0	24.1	-80.5	0.0
2025-01-14 09:19:51.195974	337.7	24.2	-80.6	0.0
2025-01-14 09:19:52.324277	337.5	24.3	-80.4	0.0
2025-01-14 09:19:53.448497	337.2	24.4	-80.5	0.0
2025-01-14 09:19:54.574847	336.9	24.5	-80.5	0.0
2025-01-14 09:19:55.701059	336.7	24.6	-80.5	0.0
2025-01-14 09:19:56.826583	336.4	24.7	-80.6	0.0
2025-01-14 09:19:57.953013	336.1	24.7	-80.9	0.0
2025-01-14 09:19:59.077584	335.8	24.8	-80.6	0.0
2025-01-14 09:20:00.205731	335.6	24.9	-80.0	0.0
2025-01-14 09:20:01.330014	335.3	25.0	-80.5	0.0
2025-01-14 09:20:02.454643	335.0	25.1	-80.2	0.0
2025-01-14 09:20:03.578643	334.7	25.2	-80.7	0.0
2025-01-14 09:20:04.705697	334.4	25.3	-80.2	0.0
2025-01-14 09:20:05.834428	334.1	25.4	-80.6	0.0
2025-01-14 09:20:06.959619	333.9	25.4	-80.7	0.0
2025-01-14 09:20:08.086429	333.6	25.5	-80.1	0.0
2025-01-14 09:20:09.212391	333.3	25.6	-80.3	0.0
2025-01-14 09:20:10.338869	333.0	25.7	-80.6	0.0
2025-01-14 09:20:11.463596	332.7	25.8	-79.9	0.0
2025-01-14 09:20:12.591176	332.4	25.9	-79.8	0.0
2025-01-14 09:20:13.714286	332.1	26.0	-79.9	0.0
2025-01-14 09:20:14.838787	331.8	26.0	-79.9	0.0
2025-01-14 09:20:15.965798	331.5	26.1	-80.0	0.0
2025-01-14 09:20:17.090796	331.2	26.2	-80.3	0.0
2025-01-14 09:20:18.215428	330.9	26.3	-80.2	0.0
2025-01-14 09:20:19.341583	330.6	26.4	-80.0	0.0
2025-01-14 09:20:20.467675	330.3	26.4	-80.1	0.0
2025-01-14 09:20:21.593502	330.0	26.5	-80.0	0.0
2025-01-14 09:20:22.721503	329.7	26.6	-79.9	0.0
2025-01-14 09:20:23.846254	329.3	26.7	-80.3	0.0
2025-01-14 09:20:24.972372	329.0	26.7	-80.2	0.0
2025-01-14 09:20:26.099831	328.7	26.8	-80.4	0.0
2025-01-14 09:20:27.224650	328.4	26.9	-80.1	0.0
2025-01-14 09:20:28.353338	328.1	27.0	-80.1	0.0
2025-01-14 09:20:29.478918	327.8	27.0	-79.9	0.0
2025-01-14 09:20:30.608037	327.4	27.1	-80.3	0.0
2025-01-14 09:20:31.736159	327.1	27.2	-80.6	0.0
2025-01-14 09:20:32.864351	326.8	27.3	-80.5	0.0
2025-01-14 09:20:33.989721	326.5	27.3	-80.4	0.0
2025-01-14 09:20:35.115523	326.1	27.4	-80.2	0.0
2025-01-14 09:20:36.241123	325.8	27.5	-80.0	0.0
2025-01-14 09:20:37.366798	325.5	27.5	-80.4	0.0
2025-01-14 09:20:38.493430	325.2	27.6	-80.4	0.0
2025-01-14 09:20:39.620364	324.8	27.7	-80.2	0.0
2025-01-14 09:20:40.747281	324.5	27.7	-80.3	0.0
2025-01-14 09:20:41.873130	324.2	27.8	-79.8	0.0
2025-01-14 09:20:42.998778	323.8	27.9	-80.1	0.0
2025-01-14 09:20:44.123513	323.5	27.9	-80.3	0.0
2025-01-14 09:20:45.248636	323.1	28.0	-80.5	0.0
2025-01-14 09:20:46.373857	322.8	28.0	-79.9	0.0
2025-01-14 09:20:47.498612	322.5	28.1	-80.2	0.0
2025-01-14 09:20:48.626203	322.1	28.2	-80.0	0.0
2025-01-14 09:20:49.751402	321.8	28.2	-80.2	0.0
2025-01-14 09:20:50.876943	321.4	28.3	-80.4	0.0
2025-01-14 09:20:52.002376	321.1	28.3	-80.3	0.0
2025-01-14 09:20:53.128468	320.7	28.4	-80.7	0.0
2025-01-14 09:20:54.254261	320.4	28.4	-80.4	0.0
2025-01-14 09:20:55.381171	320.0	28.5	-80.8	0.0
2025-01-14 09:20:56.506015	319.7	28.5	-80.7	0.0
2025-01-14 09:20:57.631228	319.3	28.6	-80.7	0.0
2025-01-14 09:20:58.758653	319.0	28.6	-80.3	0.0
2025-01-14 09:20:59.885894	318.6	28.7	-80.5	0.0
2025-01-14 09:21:01.010468	318.3	28.7	-80.3	0.0
2025-01-14 09:21:02.136719	317.9	28.8	-80.4	0.0
2025-01-14 09:21:03.264957	317.6	28.8	-80.4	0.0
2025-01-14 09:21:04.392386	317.2	28.9	-80.6	0.0
2025-01-14 09:21:05.519254	316.9	28.9	-80.9	0.0
2025-01-14 09:21:06.645190	316.5	28.9	-80.5	0.0
2025-01-14 09:21:07.772629	316.1	29.0	-80.5	0.0
2025-01-14 09:21:08.896959	315.8	29.0	-80.7	0.0
2025-01-14 09:21:10.023053	315.4	29.0	-80.6	0.0
2025-01-14 09:21:11.147933	315.0	29.1	-80.7	0.0
2025-01-14 09:21:12.274291	314.7	29.1	-80.2	0.0
2025-01-14 09:21:13.400205	314.3	29.1	-80.7	0.0
2025-01-14 09:21:14.525854	314.0	29.2	-80.8	0.0
2025-01-14 09:21:15.652095	313.6	29.2	-80.7	0.0
2025-01-14 09:21:16.779750	313.2	29.2	-80.5	0.0
2025-01-14 09:21:17.906764	312.9	29.3	-80.6	0.0
2025-01-14 09:21:19.034612	312.5	29.3	-80.4	0.0
2025-01-14 09:21:20.162919	312.1	29.3	-80.3	0.0
2025-01-14 09:21:21.291495	311.7	29.3	-80.4	0.0
2025-01-14 09:21:22.418934	311.4	29.4	-80.9	0.0
2025-01-14 09:21:23.545896	311.0	29.4	-80.9	0.0
2025-01-14 09:21:24.674886	310.6	29.4	-80.6	0.0
2025-01-14 09:21:25.800882	310.3	29.4	-80.4	0.0
2025-01-14 09:21:26.926060	309.9	29.4	-80.9	0.0
2025-01-14 09:21:28.051180	309.5	29.5	-80.9	0.0
2025-01-14 09:21:29.178592	309.1	29.5	-80.7	0.0
2025-01-14 09:21:30.303218	308.8	29.5	-80.1	0.0
2025-01-14 09:21:31.430288	308.4	29.5	-80.6	0.0
2025-01-14 09:21:32.555655	308.0	29.5	-80.3	0.0
2025-01-14 09:21:33.683283	307.7	29.5	-80.7	0.0
2025-01-14 09:21:34.808486	307.3	29.5	-80.7	0.0
2025-01-14 09:21:35.936281	306.9	29.5	-80.5	0.0
2025-01-14 09:21:37.064387	306.5	29.5	-80.7	0.0
2025-01-14 09:21:38.192778	306.2	29.5	-80.8	0.0
2025-01-14 09:21:39.317382	305.8	29.5	-80.9	0.0
2025-01-14 09:21:40.442216	305.4	29.5	-81.0	0.0
2025-01-14 09:21:41.568809	305.0	29.5	-80.9	0.0
2025-01-14 09:21:42.696887	304.7	29.5	-80.1	0.0
2025-01-14 09:21:43.823232	304.3	29.5	-80.9	0.0
2025-01-14 09:21:44.948497	303.9	29.5	-80.3	0.0
2025-01-14 09:21:46.073491	303.5	29.5	-80.6	0.0
2025-01-14 09:21:47.199028	303.2	29.5	-81.0	0.0
2025-01-14 09:21:48.326189	302.8	29.5	-80.6	0.0
2025-01-14 09:21:49.451963	302.4	29.5	-80.9	0.0
2025-01-14 09:21:50.578591	302.1	29.5	-80.6	0.0
2025-01-14 09:21:51.706203	301.7	29.5	-80.7	0.0
2025-01-14 09:21:52.833137	301.3	29.5	-80.9	0.0
2025-01-14 09:21:53.957583	300.9	29.4	-81.0	0.0
2025-01-14 09:21:55.083431	300.6	29.4	-81.0	0.0
2025-01-14 09:21:56.211216	300.2	29.4	-80.4	0.0
2025-01-14 09:21:57.336197	299.8	29.4	-80.1	0.0
2025-01-14 09:21:58.464144	299.5	29.4	-80.7	0.0
2025-01-14 09:21:59.590353	299.1	29.3	-80.8	0.0
2025-01-14 09:22:00.719473	298.7	29.3	-80.6	0.0
2025-01-14 09:22:01.843923	298.3	29.3	-80.6	0.0
2025-01-14 09:22:02.969617	298.0	29.3	-80.4	0.0
2025-01-14 09:22:04.094886	297.6	29.2	-80.7	0.0
2025-01-14 09:22:05.221307	297.2	29.2	-80.8	0.0
2025-01-14 09:22:06.349405	296.9	29.2	-80.5	0.0
2025-01-14 09:22:07.477319	296.5	29.1	-80.7	0.0
2025-01-14 09:22:08.605692	296.2	29.1	-80.8	0.0
2025-01-14 09:22:09.731747	295.8	29.1	-80.2	0.0
2025-01-14 09:22:10.858442	295.4	29.0	-80.7	0.0
2025-01-14 09:22:11.984838	295.1	29.0	-80.9	0.0
2025-01-14 09:22:13.110166	294.7	29.0	-80.8	0.0
2025-01-14 09:22:14.235077	294.3	28.9	-80.8	0.0
2025-01-14 09:22:15.360617	294.0	28.9	-81.0	0.0
2025-01-14 09:22:16.485385	293.6	28.8	-81.0	0.0
2025-01-14 09:22:17.612575	293.3	28.8	-80.8	0.0
2025-01-14 09:22:18.739462	292.9	28.8	-81.1	0.0
2025-01-14 09:22:19.865674	292.6	28.7	-81.0	0.0
2025-01-14 09:22:20.992975	292.2	28.7	-80.7	0.0
2025-01-14 09:22:22.120878	291.8	28.6	-80.7	0.0
2025-01-14 09:22:23.246792	291.5	28.6	-80.8	0.0
2025-01-14 09:22:24.374578	291.1	28.5	-80.9	0.0
2025-01-14 09:22:25.500820	290.8	28.5	-81.0	0.0
2025-01-14 09:22:26.627125	290.4	28.4	-80.8	0.0
2025-01-14 09:22:27.752513	290.1	28.4	-81.2	0.0
2025-01-14 09:22:28.878747	289.7	28.3	-81.0	0.0
2025-01-14 09:22:30.004434	289.4	28.3	-81.0	0.0
2025-01-14 09:22:31.130309	289.1	28.2	-80.8	0.0
2025-01-14 09:22:32.256890	288.7	28.1	-80.8	0.0
2025-01-14 09:22:33.384518	288.4	28.1	-81.1	0.0
2025-01-14 09:22:34.510287	288.0	28.0	-81.0	0.0
2025-01-14 09:22:35.638167	287.7	28.0	-81.0	0.0
2025-01-14 09:22:36.763168	287.3	27.9	-80.4	0.0
2025-01-14 09:22:37.889840	287.0	27.8	-81.0	0.0
2025-01-14 09:22:39.016189	286.7	27.8	-80.6	0.0
2025-01-14 09:22:40.144811	286.3	27.7	-80.7	0.0
2025-01-14 09:22:41.271435	286.0	27.7	-80.6	0.0
2025-01-14 09:22:42.398448	285.7	27.6	-80.5	0.0
2025-01-14 09:22:43.525989	285.3	27.5	-80.6	0.0
2025-01-14 09:22:44.653444	285.0	27.5	-80.7	0.0
2025-01-14 09:22:45.779424	284.7	27.4	-80.5	0.0
2025-01-14 09:22:46.905314	284.4	27.3	-80.2	0.0
2025-01-14 09:22:48.032973	284.0	27.2	-80.6	0.0
2025-01-14 09:22:49.161136	283.7	27.2	-81.0	0.0
2025-01-14 09:22:50.287792	283.4	27.1	-80.8	0.0
2025-01-14 09:22:51.412917	283.1	27.0	-81.0	0.0
2025-01-14 09:22:52.540006	282.7	27.0	-80.6	0.0
2025-01-14 09:22:53.669317	282.4	26.9	-80.6	0.0
2025-01-14 09:22:54.797258	282.1	26.8	-80.8	0.0
2025-01-14 09:22:55.923312	281.8	26.7	-80.5	0.0
2025-01-14 09:22:57.049944	281.5	26.7	-80.6	0.0
2025-01-14 09:22:58.177662	281.2	26.6	-80.8	0.0
2025-01-14 09:22:59.304344	280.9	26.5	-80.9	0.0
2025-01-14 09:23:00.433363	280.6	26.4	-80.5	0.0
2025-01-14 09:23:01.560311	280.2	26.3	-81.0	0.0
2025-01-14 09:23:02.686699	279.9	26.3	-80.9	0.0
2025-01-14 09:23:03.814085	279.6	26.2	-81.0	0.0
2025-01-14 09:23:04.941744	279.3	26.1	-80.8	0.0
2025-01-14 09:23:06.068449	279.0	26.0	-80.8	0.0
2025-01-14 09:23:07.193904	278.7	25.9	-81.1	0.0
2025-01-14 09:23:08.319492	278.4	25.9	-80.8	0.0
2025-01-14 09:23:09.445351	278.1	25.8	-80.8	0.0
2025-01-14 09:23:10.574099	277.8	25.7	-81.0	0.0
2025-01-14 09:23:11.699948	277.6	25.6	-80.9	0.0
2025-01-14 09:23:12.826710	277.3	25.5	-80.5	0.0
2025-01-14 09:23:13.953721	277.0	25.4	-80.9	0.0
2025-01-14 09:23:15.079263	276.7	25.3	-81.1	0.0
2025-01-14 09:23:16.205899	276.4	25.3	-81.0	0.0
2025-01-14 09:23:17.333409	276.1	25.2	-80.6	0.0
2025-01-14 09:23:18.458481	275.8	25.1	-80.9	0.0
2025-01-14 09:23:19.585433	275.5	25.0	-81.0	0.0
2025-01-14 09:23:20.713169	275.3	24.9	-81.0	0.0
2025-01-14 09:23:21.842366	275.0	24.8	-80.8	0.0
2025-01-14 09:23:22.970238	274.7	24.7	-80.8	0.0
2025-01-14 09:23:24.098541	274.4	24.6	-80.7	0.0
2025-01-14 09:23:25.227110	274.2	24.5	-80.9	0.0
2025-01-14 09:23:26.354445	273.9	24.5	-80.9	0.0
2025-01-14 09:23:27.480878	273.6	24.4	-80.8	0.0
2025-01-14 09:23:28.607852	273.3	24.3	-81.1	0.0
2025-01-14 09:23:29.734329	273.1	24.2	-80.9	0.0
2025-01-14 09:23:30.860573	272.8	24.1	-80.8	0.0
2025-01-14 09:23:31.985732	272.5	24.0	-81.1	0.0
2025-01-14 09:23:33.111711	272.3	23.9	-81.1	0.0
2025-01-14 09:23:34.238765	272.0	23.8	-81.0	0.0
2025-01-14 09:23:35.364637	271.8	23.7	-81.1	0.0
2025-01-14 09:23:36.490787	271.5	23.6	-80.9	0.0
2025-01-14 09:23:37.618485	271.3	23.5	-81.0	0.0
2025-01-14 09:23:38.745615	271.0	23.4	-81.2	0.0
2025-01-14 09:23:39.871325	270.7	23.3	-81.3	0.0
2025-01-14 09:23:40.998819	270.5	23.2	-80.7	0.0
2025-01-14 09:23:42.124010	270.2	23.1	-81.0	0.0
2025-01-14 09:23:43.250441	270.0	23.0	-81.3	0.0
2025-01-14 09:23:44.378142	269.7	23.0	-81.0	0.0
2025-01-14 09:23:45.504998	269.5	22.9	-81.2	0.0
2025-01-14 09:23:46.632980	269.3	22.8	-81.1	0.0
2025-01-14 09:23:47.757032	269.0	22.7	-81.2	0.0
2025-01-14 09:23:48.883699	268.8	22.6	-81.2	0.0
2025-01-14 09:23:50.007862	268.5	22.5	-80.9	0.0
2025-01-14 09:23:51.136425	268.3	22.4	-80.9	0.0
2025-01-14 09:23:52.266286	268.1	22.3	-81.0	0.0
2025-01-14 09:23:53.390957	267.8	22.2	-80.9	0.0
2025-01-14 09:23:54.517779	267.6	22.1	-80.9	0.0
2025-01-14 09:23:55.643854	267.3	22.0	-81.0	0.0
2025-01-14 09:23:56.771935	267.1	21.9	-81.1	0.0
2025-01-14 09:23:57.897749	266.9	21.8	-80.8	0.0
2025-01-14 09:23:59.026217	266.7	21.7	-80.8	0.0
2025-01-14 09:24:00.151582	266.4	21.6	-80.8	0.0
2025-01-14 09:24:01.278091	266.2	21.5	-80.9	0.0
2025-01-14 09:24:02.404794	266.0	21.4	-80.7	0.0
2025-01-14 09:24:03.530759	265.8	21.3	-80.8	0.0
2025-01-14 09:24:04.657368	265.5	21.2	-80.8	0.0
2025-01-14 09:24:05.782576	265.3	21.1	-80.7	0.0
2025-01-14 09:24:06.909967	265.1	21.0	-81.1	0.0
2025-01-14 09:24:08.037468	264.9	20.9	-81.2	0.0
2025-01-14 09:24:09.161866	264.7	20.8	-81.0	0.0
2025-01-14 09:24:10.289247	264.5	20.7	-80.9	0.0
2025-01-14 09:24:11.415661	264.2	20.6	-81.1	0.0
2025-01-14 09:24:12.542148	264.0	20.5	-80.8	0.0
2025-01-14 09:24:13.668260	263.8	20.4	-81.1	0.0
2025-01-14 09:24:14.796477	263.6	20.3	-81.2	0.0
2025-01-14 09:24:15.922757	263.4	20.2	-81.1	0.0
2025-01-14 09:24:17.047090	263.2	20.1	-80.9	0.0
2025-01-14 09:24:18.173553	263.0	20.0	-81.0	0.0
2025-01-14 09:24:19.300473	262.8	19.9	-81.0	0.0
2025-01-14 09:24:20.427354	262.6	19.8	-80.8	0.0
2025-01-14 09:24:21.553955	262.4	19.7	-80.5	0.0
2025-01-14 09:24:22.678281	262.2	19.6	-80.5	0.0
2025-01-14 09:24:23.804894	262.0	19.5	-80.7	0.0
2025-01-14 09:24:24.931879	261.8	19.4	-80.6	0.0
2025-01-14 09:24:26.059282	261.6	19.3	-80.7	0.0
2025-01-14 09:24:27.185065	261.4	19.2	-80.8	0.0
2025-01-14 09:24:28.311616	261.2	19.1	-80.9	0.0
2025-01-14 09:24:29.436716	261.0	19.0	-80.2	0.0
2025-01-14 09:24:30.563958	260.8	18.9	-80.9	0.0
2025-01-14 09:24:31.690256	260.6	18.8	-81.0	0.0
2025-01-14 09:24:32.816486	260.5	18.7	-80.6	0.0
2025-01-14 09:24:33.942003	260.3	18.6	-80.6	0.0
2025-01-14 09:24:35.067814	260.1	18.5	-80.7	0.0
2025-01-14 09:24:36.194564	259.9	18.4	-80.8	0.0
2025-01-14 09:24:37.321648	259.7	18.3	-80.5	0.0
2025-01-14 09:24:38.449423	259.5	18.2	-80.8	0.0
2025-01-14 09:24:39.575449	259.4	18.1	-80.6	0.0
2025-01-14 09:24:40.699740	259.2	18.0	-80.6	0.0
2025-01-14 09:24:41.824570	259.0	17.9	-80.7	0.0
2025-01-14 09:24:42.951438	258.8	17.8	-80.8	0.0
2025-01-14 09:24:44.077386	258.6	17.8	-80.5	0.0
2025-01-14 09:24:45.204404	258.5	17.7	-80.7	0.0
2025-01-14 09:24:46.328680	258.3	17.6	-81.0	0.0
2025-01-14 09:24:47.456568	258.1	17.5	-80.7	0.0
2025-01-14 09:24:48.584724	257.9	17.4	-80.0	0.0
2025-01-14 09:24:49.712015	257.8	17.3	-80.9	0.0
2025-01-14 09:24:50.840947	257.6	17.2	-80.7	0.0
2025-01-14 09:24:51.968004	257.4	17.1	-81.3	0.0
2025-01-14 09:24:53.095068	257.3	17.0	-81.2	0.0
2025-01-14 09:24:54.221482	257.1	16.9	-81.0	0.0
2025-01-14 09:24:55.347060	256.9	16.8	-81.1	0.0
2025-01-14 09:24:56.472563	256.8	16.7	-81.1	0.0
2025-01-14 09:24:57.599838	256.6	16.6	-81.1	0.0
2025-01-14 09:24:58.726182	256.5	16.5	-80.7	0.0
2025-01-14 09:24:59.853192	256.3	16.4	-81.0	0.0
2025-01-14 09:25:00.978407	256.1	16.3	-80.9	0.0
2025-01-14 09:25:02.104624	256.0	16.2	-80.9	0.0
2025-01-14 09:25:03.231283	255.8	16.1	-80.9	0.0
2025-01-14 09:25:04.358694	255.7	16.0	-81.1	0.0
2025-01-14 09:25:05.484471	255.5	15.9	-81.1	0.0
2025-01-14 09:25:06.608436	255.3	15.8	-81.2	0.0
2025-01-14 09:25:07.735692	255.2	15.7	-80.9	0.0
2025-01-14 09:25:08.864126	255.0	15.6	-80.7	0.0
2025-01-14 09:25:09.992444	254.9	15.5	-80.9	0.0
2025-01-14 09:25:11.120694	254.7	15.4	-81.0	0.0
2025-01-14 09:25:12.246567	254.6	15.4	-80.9	0.0
2025-01-14 09:25:13.373339	254.4	15.3	-80.7	0.0
2025-01-14 09:25:14.498283	254.3	15.2	-80.7	0.0
2025-01-14 09:25:15.624322	254.1	15.1	-81.0	0.0
2025-01-14 09:25:16.751381	254.0	15.0	-81.1	0.0
2025-01-14 09:25:17.877840	253.9	14.9	-81.0	0.0
2025-01-14 09:25:19.003177	253.7	14.8	-81.0	0.0
2025-01-14 09:25:20.130219	253.6	14.7	-81.0	0.0
2025-01-14 09:25:21.256977	253.4	14.6	-80.9	0.0
2025-01-14 09:25:22.384373	253.3	14.5	-81.1	0.0
2025-01-14 09:25:23.511153	253.1	14.4	-81.0	0.0
2025-01-14 09:25:24.639363	253.0	14.3	-81.0	0.0
2025-01-14 09:25:25.765730	252.9	14.2	-81.3	0.0
2025-01-14 09:25:26.892411	252.7	14.1	-81.0	0.0
2025-01-14 09:25:28.019022	252.6	14.1	-80.8	0.0
2025-01-14 09:25:29.145062	252.5	14.0	-81.2	0.0
2025-01-14 09:25:30.272486	252.3	13.9	-81.1	0.0
2025-01-14 09:25:31.398298	252.2	13.8	-81.1	0.0
2025-01-14 09:25:32.526563	252.0	13.7	-81.1	0.0
2025-01-14 09:25:33.654067	251.9	13.6	-80.8	0.0
2025-01-14 09:25:34.782844	251.8	13.5	-80.9	0.0
2025-01-14 09:25:35.911318	251.6	13.4	-80.9	0.0
2025-01-14 09:25:37.040390	251.5	13.3	-81.0	0.0
2025-01-14 09:25:38.169419	251.4	13.2	-80.9	0.0
2025-01-14 09:25:39.294969	251.3	13.1	-81.1	0.0
2025-01-14 09:25:40.425476	251.1	13.1	-80.8	0.0
2025-01-14 09:25:41.551991	251.0	13.0	-80.7	0.0
2025-01-14 09:25:42.678488	250.9	12.9	-80.7	0.0
2025-01-14 09:25:43.804912	250.8	12.8	-80.8	0.0
2025-01-14 09:25:44.933038	250.6	12.7	-80.8	0.0
2025-01-14 09:25:46.058708	250.5	12.6	-80.9	0.0
2025-01-14 09:25:47.186217	250.4	12.5	-80.8	0.0
2025-01-14 09:25:48.311550	250.3	12.4	-81.1	0.0
2025-01-14 09:25:49.438586	250.1	12.3	-81.0	0.0
2025-01-14 09:25:50.566559	250.0	12.3	-81.0	0.0
2025-01-14 09:25:51.691625	249.9	12.2	-81.0	0.0
2025-01-14 09:25:52.816650	249.8	12.1	-81.0	0.0
2025-01-14 09:25:53.943389	249.7	12.0	-81.1	0.0
2025-01-14 09:25:55.070251	249.5	11.9	-81.1	0.0
2025-01-14 09:25:56.196441	249.4	11.8	-81.2	0.0
2025-01-14 09:25:57.322517	249.3	11.7	-80.9	0.0
2025-01-14 09:25:58.448892	249.2	11.6	-81.0	0.0
2025-01-14 09:25:59.576256	249.1	11.6	-81.3	0.0
2025-01-14 09:26:00.703800	249.0	11.5	-81.2	0.0
2025-01-14 09:26:01.830317	248.8	11.4	-81.3	0.0
2025-01-14 09:26:02.956825	248.7	11.3	-81.2	0.0
2025-01-14 09:26:04.081267	248.6	11.2	-81.1	0.0
2025-01-14 09:26:05.208964	248.5	11.1	-81.1	0.0
2025-01-14 09:26:06.334861	248.4	11.0	-80.8	0.0
2025-01-14 09:26:07.462754	248.3	11.0	-81.4	0.0
2025-01-14 09:26:08.588447	248.2	10.9	-81.1	0.0
2025-01-14 09:26:09.716006	248.1	10.8	-81.3	0.0
2025-01-14 09:26:10.842294	247.9	10.7	-81.2	0.0
2025-01-14 09:26:11.967990	247.8	10.6	-81.1	0.0
2025-01-14 09:26:13.094687	247.7	10.5	-81.1	0.0
2025-01-14 09:26:14.221726	247.6	10.4	-81.2	0.0
2025-01-14 09:26:15.348267	247.5	10.4	-81.2	0.0
2025-01-14 09:26:16.476860	247.4	10.3	-81.3	0.0
2025-01-14 09:26:17.604297	247.3	10.2	-81.3	0.0
2025-01-14 09:26:18.730457	247.2	10.1	-81.3	0.0
2025-01-14 09:26:19.857738	247.1	10.0	-81.3	0.0
#Closed at: 2025-01-14 09:16:55.576794