passes_logs/2025/01/14/planumMaritime01/planumMaritime01__20250114_193502_NOAA_18_rec.log

#Pass ID: 20250114_193502_NOAA 18
#Satellite: NOAA 18
#Configuration: NOAA 18
#Start time: 2025-01-14 19:35:07.783743

#LorettStation: 1.0.0 05.05.2024
#Station: planumMaritime01
#Location: 37.49445 lon 55.92918 lat
#TLE: 1 28654U 05018A   25014.17177243  .00000313  00000+0  18955-3 0  9990
#TLE: 2 28654  98.8569  95.2344 0014326 181.4762 178.6370 14.13485757 13061

#Time	Az	El	Level	SNR
2025-01-14 19:35:09.938835	171.6	10.2	-80.5	0.0
2025-01-14 19:35:11.061235	171.6	10.3	-80.6	0.0
2025-01-14 19:35:12.185373	171.6	10.4	-80.7	0.0
2025-01-14 19:35:13.308735	171.7	10.5	-80.9	0.0
2025-01-14 19:35:14.433034	171.7	10.6	-81.0	0.0
2025-01-14 19:35:15.555948	171.7	10.7	-80.7	0.0
2025-01-14 19:35:16.679495	171.7	10.8	-80.9	0.0
2025-01-14 19:35:17.801207	171.8	10.9	-80.8	0.0
2025-01-14 19:35:18.924179	171.8	11.0	-80.7	0.0
2025-01-14 19:35:20.048240	171.8	11.1	-80.7	0.0
2025-01-14 19:35:21.173058	171.9	11.2	-80.4	0.0
2025-01-14 19:35:22.297608	171.9	11.3	-80.6	0.0
2025-01-14 19:35:23.422152	171.9	11.4	-80.8	0.0
2025-01-14 19:35:24.545861	172.0	11.5	-80.6	0.0
2025-01-14 19:35:25.669685	172.0	11.6	-80.9	0.0
2025-01-14 19:35:26.790280	172.0	11.7	-80.8	0.0
2025-01-14 19:35:27.914335	172.0	11.8	-80.9	0.0
2025-01-14 19:35:29.036965	172.1	11.9	-80.9	0.0
2025-01-14 19:35:30.159572	172.1	12.0	-81.0	0.0
2025-01-14 19:35:31.285098	172.1	12.1	-81.1	0.0
2025-01-14 19:35:32.411890	172.2	12.2	-80.8	0.0
2025-01-14 19:35:33.535611	172.2	12.3	-80.7	0.0
2025-01-14 19:35:34.659843	172.2	12.4	-80.6	0.0
2025-01-14 19:35:35.782229	172.3	12.5	-80.0	0.0
2025-01-14 19:35:36.905062	172.3	12.6	-80.2	0.0
2025-01-14 19:35:38.025626	172.3	12.7	-80.6	0.0
2025-01-14 19:35:39.149501	172.4	12.8	-80.6	0.0
2025-01-14 19:35:40.273060	172.4	12.9	-80.7	0.0
2025-01-14 19:35:41.395936	172.4	13.0	-80.5	0.0
2025-01-14 19:35:42.519347	172.5	13.1	-79.7	0.0
2025-01-14 19:35:43.643428	172.5	13.3	-80.4	0.0
2025-01-14 19:35:44.765099	172.5	13.4	-80.6	0.0
2025-01-14 19:35:45.888162	172.6	13.5	-80.9	0.0
2025-01-14 19:35:47.013723	172.6	13.6	-80.5	0.0
2025-01-14 19:35:48.136871	172.7	13.7	-80.6	0.0
2025-01-14 19:35:49.259480	172.7	13.8	-80.4	0.0
2025-01-14 19:35:50.382258	172.7	13.9	-80.4	0.0
2025-01-14 19:35:51.507127	172.8	14.0	-80.4	0.0
2025-01-14 19:35:52.629573	172.8	14.1	-80.3	0.0
2025-01-14 19:35:53.751907	172.8	14.3	-80.5	0.0
2025-01-14 19:35:54.873932	172.9	14.4	-80.8	0.0
2025-01-14 19:35:55.999339	172.9	14.5	-80.8	0.0
2025-01-14 19:35:57.122375	172.9	14.6	-80.6	0.0
2025-01-14 19:35:58.248991	173.0	14.7	-80.7	0.0
2025-01-14 19:35:59.371760	173.0	14.8	-81.1	0.0
2025-01-14 19:36:00.495339	173.1	14.9	-81.0	0.0
2025-01-14 19:36:01.620212	173.1	15.1	-81.1	0.0
2025-01-14 19:36:02.744319	173.1	15.2	-80.8	0.0
2025-01-14 19:36:03.869382	173.2	15.3	-80.7	0.0
2025-01-14 19:36:04.993301	173.2	15.4	-81.1	0.0
2025-01-14 19:36:06.116517	173.3	15.5	-80.9	0.0
2025-01-14 19:36:07.237363	173.3	15.7	-81.1	0.0
2025-01-14 19:36:08.361910	173.3	15.8	-80.8	0.0
2025-01-14 19:36:09.483958	173.4	15.9	-80.8	0.0
2025-01-14 19:36:10.610112	173.4	16.0	-80.9	0.0
2025-01-14 19:36:11.734669	173.5	16.1	-80.7	0.0
2025-01-14 19:36:12.857797	173.5	16.3	-80.8	0.0
2025-01-14 19:36:13.981410	173.5	16.4	-81.0	0.0
2025-01-14 19:36:15.105734	173.6	16.5	-80.7	0.0
2025-01-14 19:36:16.228579	173.6	16.6	-80.9	0.0
2025-01-14 19:36:17.351151	173.7	16.8	-81.3	0.0
2025-01-14 19:36:18.475255	173.7	16.9	-81.1	0.0
2025-01-14 19:36:19.598581	173.7	17.0	-80.5	0.0
2025-01-14 19:36:20.721958	173.8	17.1	-80.9	0.0
2025-01-14 19:36:21.845981	173.8	17.3	-81.2	0.0
2025-01-14 19:36:22.971185	173.9	17.4	-81.1	0.0
2025-01-14 19:36:24.096420	173.9	17.5	-80.7	0.0
2025-01-14 19:36:25.219040	174.0	17.6	-80.8	0.0
2025-01-14 19:36:26.339897	174.0	17.8	-80.9	0.0
2025-01-14 19:36:27.464843	174.1	17.9	-80.7	0.0
2025-01-14 19:36:28.586460	174.1	18.0	-80.4	0.0
2025-01-14 19:36:29.709825	174.2	18.2	-81.0	0.0
2025-01-14 19:36:30.831783	174.2	18.3	-81.2	0.0
2025-01-14 19:36:31.955254	174.2	18.4	-81.1	0.0
2025-01-14 19:36:33.083818	174.3	18.6	-80.5	0.0
2025-01-14 19:36:34.205662	174.3	18.7	-81.0	0.0
2025-01-14 19:36:35.329677	174.4	18.8	-81.0	0.0
2025-01-14 19:36:36.453238	174.4	19.0	-81.0	0.0
2025-01-14 19:36:37.576965	174.5	19.1	-81.2	0.0
2025-01-14 19:36:38.700031	174.5	19.3	-81.1	0.0
2025-01-14 19:36:39.823688	174.6	19.4	-81.4	0.0
2025-01-14 19:36:40.949353	174.6	19.5	-80.8	0.0
2025-01-14 19:36:42.073561	174.7	19.7	-81.4	0.0
2025-01-14 19:36:43.194650	174.7	19.8	-81.1	0.0
2025-01-14 19:36:44.315896	174.8	19.9	-80.9	0.0
2025-01-14 19:36:45.441014	174.8	20.1	-80.3	0.0
2025-01-14 19:36:46.561808	174.9	20.2	-80.8	0.0
2025-01-14 19:36:47.685853	174.9	20.4	-80.9	0.0
2025-01-14 19:36:48.809379	175.0	20.5	-80.8	0.0
2025-01-14 19:36:49.933847	175.1	20.7	-80.7	0.0
2025-01-14 19:36:51.054916	175.1	20.8	-81.0	0.0
2025-01-14 19:36:52.176864	175.2	21.0	-80.7	0.0
2025-01-14 19:36:53.302469	175.2	21.1	-80.5	0.0
2025-01-14 19:36:54.425974	175.3	21.3	-80.7	0.0
2025-01-14 19:36:55.550513	175.3	21.4	-80.9	0.0
2025-01-14 19:36:56.675172	175.4	21.6	-80.8	0.0
2025-01-14 19:36:57.800204	175.4	21.7	-80.4	0.0
2025-01-14 19:36:58.923638	175.5	21.9	-80.2	0.0
2025-01-14 19:37:00.047356	175.6	22.0	-80.9	0.0
2025-01-14 19:37:01.172021	175.6	22.2	-81.2	0.0
2025-01-14 19:37:02.295856	175.7	22.3	-81.1	0.0
2025-01-14 19:37:03.419387	175.7	22.5	-80.7	0.0
2025-01-14 19:37:04.542393	175.8	22.6	-80.4	0.0
2025-01-14 19:37:05.667048	175.9	22.8	-80.8	0.0
2025-01-14 19:37:06.789504	175.9	22.9	-81.1	0.0
2025-01-14 19:37:07.914581	176.0	23.1	-80.7	0.0
2025-01-14 19:37:09.036192	176.1	23.3	-81.2	0.0
2025-01-14 19:37:10.159571	176.1	23.4	-81.2	0.0
2025-01-14 19:37:11.283524	176.2	23.6	-81.2	0.0
2025-01-14 19:37:12.406217	176.2	23.8	-81.5	0.0
2025-01-14 19:37:13.530061	176.3	23.9	-81.4	0.0
2025-01-14 19:37:14.652719	176.4	24.1	-81.3	0.0
2025-01-14 19:37:15.774412	176.4	24.2	-81.3	0.0
2025-01-14 19:37:16.896832	176.5	24.4	-81.3	0.0
2025-01-14 19:37:18.020499	176.6	24.6	-81.1	0.0
2025-01-14 19:37:19.143619	176.6	24.8	-81.1	0.0
2025-01-14 19:37:20.267371	176.7	24.9	-80.8	0.0
2025-01-14 19:37:21.389431	176.8	25.1	-81.1	0.0
2025-01-14 19:37:22.511785	176.9	25.3	-81.0	0.0
2025-01-14 19:37:23.634858	176.9	25.4	-80.8	0.0
2025-01-14 19:37:24.756162	177.0	25.6	-80.6	0.0
2025-01-14 19:37:25.879973	177.1	25.8	-81.0	0.0
2025-01-14 19:37:27.003701	177.1	26.0	-80.8	0.0
2025-01-14 19:37:28.127038	177.2	26.1	-80.9	0.0
2025-01-14 19:37:29.249449	177.3	26.3	-80.8	0.0
2025-01-14 19:37:30.372302	177.4	26.5	-80.8	0.0
2025-01-14 19:37:31.494573	177.4	26.7	-80.0	0.0
2025-01-14 19:37:32.618492	177.5	26.9	-80.5	0.0
2025-01-14 19:37:33.741112	177.6	27.0	-80.8	0.0
2025-01-14 19:37:34.864317	177.7	27.2	-80.4	0.0
2025-01-14 19:37:35.990571	177.8	27.4	-80.5	0.0
2025-01-14 19:37:37.113106	177.8	27.6	-80.9	0.0
2025-01-14 19:37:38.234768	177.9	27.8	-80.7	0.0
2025-01-14 19:37:39.358807	178.0	28.0	-81.0	0.0
2025-01-14 19:37:40.482478	178.1	28.2	-80.9	0.0
2025-01-14 19:37:41.606309	178.2	28.4	-81.1	0.0
2025-01-14 19:37:42.727918	178.3	28.6	-80.6	0.0
2025-01-14 19:37:43.852047	178.4	28.8	-80.7	0.0
2025-01-14 19:37:44.976417	178.4	28.9	-80.9	0.0
2025-01-14 19:37:46.099361	178.5	29.1	-80.5	0.0
2025-01-14 19:37:47.222760	178.6	29.3	-80.7	0.0
2025-01-14 19:37:48.347941	178.7	29.5	-80.8	0.0
2025-01-14 19:37:49.470478	178.8	29.7	-81.3	0.0
2025-01-14 19:37:50.590373	178.9	29.9	-80.8	0.0
2025-01-14 19:37:51.716018	179.0	30.1	-81.4	0.0
2025-01-14 19:37:52.841734	179.1	30.4	-81.1	0.0
2025-01-14 19:37:53.964064	179.2	30.6	-81.0	0.0
2025-01-14 19:37:55.086839	179.3	30.8	-81.4	0.0
2025-01-14 19:37:56.212602	179.4	31.0	-80.8	0.0
2025-01-14 19:37:57.336990	179.5	31.2	-80.9	0.0
2025-01-14 19:37:58.461037	179.6	31.4	-80.8	0.0
2025-01-14 19:37:59.584841	179.7	31.6	-81.2	0.0
2025-01-14 19:38:00.708026	179.8	31.8	-81.3	0.0
2025-01-14 19:38:01.831981	179.9	32.0	-81.0	0.0
2025-01-14 19:38:02.954392	180.0	32.3	-80.9	0.0
2025-01-14 19:38:04.077729	180.1	32.5	-81.2	0.0
2025-01-14 19:38:05.201849	180.2	32.7	-81.2	0.0
2025-01-14 19:38:06.327582	180.3	32.9	-80.9	0.0
2025-01-14 19:38:07.448855	180.4	33.1	-81.0	0.0
2025-01-14 19:38:08.573148	180.6	33.4	-80.8	0.0
2025-01-14 19:38:09.694924	180.7	33.6	-80.7	0.0
2025-01-14 19:38:10.819691	180.8	33.8	-80.9	0.0
2025-01-14 19:38:11.942705	180.9	34.1	-80.8	0.0
2025-01-14 19:38:13.065249	181.0	34.3	-81.0	0.0
2025-01-14 19:38:14.189288	181.2	34.5	-80.8	0.0
2025-01-14 19:38:15.312803	181.3	34.8	-80.8	0.0
2025-01-14 19:38:16.437340	181.4	35.0	-80.7	0.0
2025-01-14 19:38:17.559929	181.5	35.2	-80.7	0.0
2025-01-14 19:38:18.681174	181.7	35.5	-81.1	0.0
2025-01-14 19:38:19.805138	181.8	35.7	-81.1	0.0
2025-01-14 19:38:20.927384	181.9	35.9	-81.2	0.0
2025-01-14 19:38:22.049917	182.1	36.2	-81.1	0.0
2025-01-14 19:38:23.173543	182.2	36.4	-80.9	0.0
2025-01-14 19:38:24.298681	182.3	36.7	-80.6	0.0
2025-01-14 19:38:25.422088	182.5	36.9	-80.8	0.0
2025-01-14 19:38:26.544660	182.6	37.2	-80.7	0.0
2025-01-14 19:38:27.666368	182.8	37.4	-80.9	0.0
2025-01-14 19:38:28.791479	182.9	37.7	-81.1	0.0
2025-01-14 19:38:29.914907	183.1	38.0	-81.0	0.0
2025-01-14 19:38:31.038357	183.2	38.2	-80.4	0.0
2025-01-14 19:38:32.163737	183.4	38.5	-80.7	0.0
2025-01-14 19:38:33.288944	183.5	38.7	-80.5	0.8
2025-01-14 19:38:34.412100	183.7	39.0	-80.8	0.0
2025-01-14 19:38:35.537385	183.9	39.3	-80.5	0.9
2025-01-14 19:38:36.662235	184.0	39.5	-80.3	0.1
2025-01-14 19:38:37.785209	184.2	39.8	-80.2	1.0
2025-01-14 19:38:38.911052	184.4	40.1	-80.0	1.7
2025-01-14 19:38:40.034639	184.5	40.3	-80.7	1.7
2025-01-14 19:38:41.158022	184.7	40.6	-80.3	2.0
2025-01-14 19:38:42.282386	184.9	40.9	-80.3	2.3
2025-01-14 19:38:43.405430	185.1	41.2	-80.0	2.8
2025-01-14 19:38:44.527912	185.2	41.4	-80.2	3.5
2025-01-14 19:38:45.650819	185.4	41.7	-80.1	3.6
2025-01-14 19:38:46.775539	185.6	42.0	-80.3	3.1
2025-01-14 19:38:47.897839	185.8	42.3	-79.9	3.8
2025-01-14 19:38:49.020186	186.0	42.6	-80.1	1.2
2025-01-14 19:38:50.143647	186.2	42.9	-79.5	1.4
2025-01-14 19:38:51.263454	186.4	43.2	-80.3	3.6
2025-01-14 19:38:52.386559	186.6	43.4	-80.0	3.9
2025-01-14 19:38:53.510173	186.8	43.7	-79.9	3.9
2025-01-14 19:38:54.633191	187.1	44.0	-80.2	4.4
2025-01-14 19:38:55.756193	187.3	44.3	-80.3	4.4
2025-01-14 19:38:56.880962	187.5	44.6	-80.2	3.5
2025-01-14 19:38:58.004338	187.7	44.9	-79.8	5.1
2025-01-14 19:38:59.128917	188.0	45.2	-80.0	4.9
2025-01-14 19:39:00.252717	188.2	45.5	-79.8	4.4
2025-01-14 19:39:01.374305	188.4	45.8	-79.8	4.9
2025-01-14 19:39:02.498281	188.7	46.2	-80.1	4.8
2025-01-14 19:39:03.623933	188.9	46.5	-80.0	4.3
2025-01-14 19:39:04.748225	189.2	46.8	-79.9	5.3
2025-01-14 19:39:05.868987	189.4	47.1	-79.9	4.9
2025-01-14 19:39:06.990848	189.7	47.4	-80.2	5.4
2025-01-14 19:39:08.114071	190.0	47.7	-80.2	4.6
2025-01-14 19:39:09.238345	190.3	48.0	-79.9	4.2
2025-01-14 19:39:10.361009	190.5	48.4	-79.9	4.8
2025-01-14 19:39:11.482690	190.8	48.7	-79.8	5.1
2025-01-14 19:39:12.605510	191.1	49.0	-79.4	4.2
2025-01-14 19:39:13.730655	191.4	49.3	-79.6	4.9
2025-01-14 19:39:14.851999	191.7	49.7	-79.5	5.8
2025-01-14 19:39:15.976894	192.0	50.0	-79.5	5.4
2025-01-14 19:39:17.100060	192.4	50.3	-79.7	6.0
2025-01-14 19:39:18.222869	192.7	50.6	-79.6	6.3
2025-01-14 19:39:19.346838	193.0	51.0	-79.7	5.5
2025-01-14 19:39:20.470897	193.4	51.3	-79.9	5.7
2025-01-14 19:39:21.592880	193.7	51.6	-79.9	4.7
2025-01-14 19:39:22.717813	194.1	52.0	-80.0	4.8
2025-01-14 19:39:23.842768	194.4	52.3	-79.8	4.1
2025-01-14 19:39:24.968445	194.8	52.7	-79.9	3.6
2025-01-14 19:39:26.091381	195.2	53.0	-79.7	4.1
2025-01-14 19:39:27.214485	195.6	53.3	-80.0	4.2
2025-01-14 19:39:28.337385	196.0	53.7	-80.1	4.3
2025-01-14 19:39:29.461354	196.4	54.0	-80.0	4.7
2025-01-14 19:39:30.585859	196.8	54.4	-79.9	4.8
2025-01-14 19:39:31.708152	197.2	54.7	-80.3	4.2
2025-01-14 19:39:32.832209	197.7	55.0	-80.0	4.2
2025-01-14 19:39:33.956004	198.1	55.4	-80.6	4.2
2025-01-14 19:39:35.078962	198.6	55.7	-80.4	3.8
2025-01-14 19:39:36.201652	199.1	56.1	-80.5	2.4
2025-01-14 19:39:37.327245	199.5	56.4	-80.6	1.8
2025-01-14 19:39:38.451707	200.0	56.8	-80.4	0.9
2025-01-14 19:39:39.574611	200.5	57.1	-80.6	2.0
2025-01-14 19:39:40.697352	201.1	57.5	-80.3	0.0
2025-01-14 19:39:41.818552	201.6	57.8	-80.0	1.8
2025-01-14 19:39:42.941775	202.1	58.1	-80.0	0.7
2025-01-14 19:39:44.064238	202.7	58.5	-80.5	0.2
2025-01-14 19:39:45.187654	203.3	58.8	-80.8	0.0
2025-01-14 19:39:46.312180	203.9	59.2	-80.6	0.0
2025-01-14 19:39:47.434757	204.5	59.5	-81.1	0.0
2025-01-14 19:39:48.558225	205.1	59.9	-80.3	0.0
2025-01-14 19:39:49.683675	205.7	60.2	-80.8	0.0
2025-01-14 19:39:50.806393	206.4	60.5	-81.0	0.0
2025-01-14 19:39:51.928129	207.1	60.9	-81.1	0.0
2025-01-14 19:39:53.050937	207.8	61.2	-81.2	0.0
2025-01-14 19:39:54.172658	208.5	61.5	-81.1	0.0
2025-01-14 19:39:55.294630	209.2	61.9	-80.8	0.0
2025-01-14 19:39:56.419136	210.0	62.2	-80.8	0.0
2025-01-14 19:39:57.541952	210.7	62.5	-81.5	0.0
2025-01-14 19:39:58.664708	211.5	62.9	-81.2	0.0
2025-01-14 19:39:59.787894	212.3	63.2	-81.2	0.0
2025-01-14 19:40:00.910211	213.2	63.5	-80.8	0.0
2025-01-14 19:40:02.033140	214.0	63.8	-81.0	0.0
2025-01-14 19:40:03.155914	214.9	64.1	-80.8	0.0
2025-01-14 19:40:04.277666	215.8	64.4	-80.7	0.1
2025-01-14 19:40:05.402007	216.7	64.7	-80.6	1.1
2025-01-14 19:40:06.527705	217.7	65.0	-79.9	1.9
2025-01-14 19:40:07.650926	218.7	65.3	-80.0	4.0
2025-01-14 19:40:08.774302	219.7	65.6	-80.1	4.6
2025-01-14 19:40:09.897598	220.7	65.9	-79.7	5.0
2025-01-14 19:40:11.021300	221.7	66.1	-79.5	5.7
2025-01-14 19:40:12.146159	222.8	66.4	-79.8	7.2
2025-01-14 19:40:13.270111	223.9	66.7	-79.2	5.7
2025-01-14 19:40:14.392812	225.1	66.9	-79.5	7.3
2025-01-14 19:40:15.514303	226.2	67.2	-79.4	6.7
2025-01-14 19:40:16.640472	227.4	67.4	-79.5	7.6
2025-01-14 19:40:17.762758	228.6	67.6	-79.4	7.7
2025-01-14 19:40:18.887198	229.9	67.8	-79.0	7.5
2025-01-14 19:40:20.008624	231.1	68.0	-78.9	7.5
2025-01-14 19:40:21.132096	232.4	68.2	-79.3	8.3
2025-01-14 19:40:22.254263	233.7	68.4	-78.9	8.9
2025-01-14 19:40:23.376666	235.1	68.6	-79.2	8.9
2025-01-14 19:40:24.499442	236.4	68.8	-78.7	9.2
2025-01-14 19:40:25.623952	237.8	68.9	-78.8	8.6
2025-01-14 19:40:26.746343	239.2	69.1	-79.2	8.6
2025-01-14 19:40:27.868394	240.7	69.2	-78.8	8.8
2025-01-14 19:40:28.992122	242.1	69.3	-78.5	8.1
2025-01-14 19:40:30.115390	243.6	69.5	-78.9	7.3
2025-01-14 19:40:31.239329	245.1	69.6	-79.2	8.8
2025-01-14 19:40:32.360136	246.6	69.6	-79.2	7.9
2025-01-14 19:40:33.484043	248.1	69.7	-79.4	7.5
2025-01-14 19:40:34.605461	249.6	69.8	-79.4	6.8
2025-01-14 19:40:35.726923	251.1	69.8	-79.5	6.7
2025-01-14 19:40:36.848533	252.7	69.9	-79.6	6.4
2025-01-14 19:40:37.971388	254.2	69.9	-79.7	6.2
2025-01-14 19:40:39.091332	255.7	69.9	-79.8	5.9
2025-01-14 19:40:40.213554	257.3	69.9	-80.0	5.8
2025-01-14 19:40:41.338233	258.8	69.9	-79.9	4.6
2025-01-14 19:40:42.462625	260.4	69.8	-80.0	4.5
2025-01-14 19:40:43.586731	261.9	69.8	-80.0	3.3
2025-01-14 19:40:44.709827	263.4	69.7	-80.3	4.0
2025-01-14 19:40:45.832561	264.9	69.6	-80.6	3.7
2025-01-14 19:40:46.958340	266.4	69.5	-80.6	2.9
2025-01-14 19:40:48.082457	267.9	69.4	-80.7	1.4
2025-01-14 19:40:49.206695	269.4	69.3	-80.8	0.2
2025-01-14 19:40:50.329745	270.8	69.2	-80.5	0.0
2025-01-14 19:40:51.453826	272.2	69.1	-81.3	0.0
2025-01-14 19:40:52.576373	273.6	68.9	-80.6	0.0
2025-01-14 19:40:53.699967	275.0	68.8	-81.1	0.0
2025-01-14 19:40:54.822721	276.4	68.6	-81.0	0.0
2025-01-14 19:40:55.946849	277.7	68.4	-81.2	0.0
2025-01-14 19:40:57.069164	279.0	68.2	-81.3	0.0
2025-01-14 19:40:58.190751	280.3	68.0	-80.9	0.0
2025-01-14 19:40:59.312612	281.6	67.8	-80.9	0.0
2025-01-14 19:41:00.433494	282.8	67.6	-80.7	0.0
2025-01-14 19:41:01.556862	284.0	67.4	-81.1	0.0
2025-01-14 19:41:02.683217	285.2	67.1	-81.3	0.0
2025-01-14 19:41:03.807192	286.4	66.9	-81.5	0.0
2025-01-14 19:41:04.930863	287.5	66.6	-81.4	0.0
2025-01-14 19:41:06.054048	288.6	66.4	-81.5	0.0
2025-01-14 19:41:07.177052	289.7	66.1	-80.6	0.0
2025-01-14 19:41:08.300191	290.7	65.8	-80.7	0.0
2025-01-14 19:41:09.421404	291.8	65.6	-81.0	0.0
2025-01-14 19:41:10.543088	292.8	65.3	-81.0	0.0
2025-01-14 19:41:11.665851	293.7	65.0	-81.0	0.0
2025-01-14 19:41:12.789278	294.7	64.7	-80.4	0.0
2025-01-14 19:41:13.913497	295.6	64.4	-80.9	0.0
2025-01-14 19:41:15.037109	296.5	64.1	-80.7	0.0
2025-01-14 19:41:16.160109	297.4	63.8	-80.9	0.0
2025-01-14 19:41:17.284990	298.2	63.5	-80.5	0.0
2025-01-14 19:41:18.408465	299.1	63.1	-80.9	0.5
2025-01-14 19:41:19.530663	299.9	62.8	-80.8	0.6
2025-01-14 19:41:20.655676	300.7	62.5	-80.7	0.0
2025-01-14 19:41:21.777976	301.4	62.2	-80.7	0.0
2025-01-14 19:41:22.903383	302.2	61.8	-80.8	0.0
2025-01-14 19:41:24.025932	302.9	61.5	-80.8	0.0
2025-01-14 19:41:25.150693	303.6	61.2	-80.8	0.0
2025-01-14 19:41:26.274153	304.3	60.8	-80.7	0.0
2025-01-14 19:41:27.397200	305.0	60.5	-81.1	0.0
2025-01-14 19:41:28.520268	305.6	60.2	-81.2	0.0
2025-01-14 19:41:29.643234	306.3	59.8	-81.2	0.0
2025-01-14 19:41:30.769533	306.9	59.5	-80.3	0.0
2025-01-14 19:41:31.891581	307.5	59.1	-80.7	0.0
2025-01-14 19:41:33.015175	308.1	58.8	-81.0	0.0
2025-01-14 19:41:34.138417	308.7	58.5	-80.9	0.0
2025-01-14 19:41:35.260706	309.2	58.1	-80.9	0.0
2025-01-14 19:41:36.385659	309.8	57.8	-80.7	0.0
2025-01-14 19:41:37.509405	310.3	57.4	-80.8	0.0
2025-01-14 19:41:38.631229	310.8	57.1	-81.2	0.0
2025-01-14 19:41:39.755714	311.3	56.7	-80.8	0.0
2025-01-14 19:41:40.877907	311.8	56.4	-80.7	0.0
2025-01-14 19:41:42.000021	312.3	56.0	-80.9	0.0
2025-01-14 19:41:43.122403	312.8	55.7	-81.0	0.0
2025-01-14 19:41:44.245264	313.2	55.4	-81.2	0.0
2025-01-14 19:41:45.368433	313.7	55.0	-81.3	0.0
2025-01-14 19:41:46.492204	314.1	54.7	-80.6	0.0
2025-01-14 19:41:47.616274	314.6	54.3	-81.1	0.0
2025-01-14 19:41:48.738819	315.0	54.0	-80.7	0.0
2025-01-14 19:41:49.864175	315.4	53.6	-80.6	0.0
2025-01-14 19:41:50.986912	315.8	53.3	-80.7	0.0
2025-01-14 19:41:52.110638	316.2	53.0	-81.2	0.0
2025-01-14 19:41:53.234041	316.5	52.6	-80.9	0.0
2025-01-14 19:41:54.356818	316.9	52.3	-81.3	0.0
2025-01-14 19:41:55.480047	317.3	52.0	-80.8	0.0
2025-01-14 19:41:56.602477	317.6	51.6	-80.8	0.0
2025-01-14 19:41:57.726494	318.0	51.3	-81.0	0.0
2025-01-14 19:41:58.850689	318.3	51.0	-81.4	0.0
2025-01-14 19:41:59.973268	318.7	50.6	-81.5	0.0
2025-01-14 19:42:01.095139	319.0	50.3	-81.4	0.0
2025-01-14 19:42:02.219827	319.3	50.0	-81.5	0.0
2025-01-14 19:42:03.344835	319.6	49.6	-80.7	0.0
2025-01-14 19:42:04.470056	319.9	49.3	-81.2	0.0
2025-01-14 19:42:05.592176	320.2	49.0	-81.3	0.0
2025-01-14 19:42:06.716666	320.5	48.7	-81.5	0.0
2025-01-14 19:42:07.839117	320.8	48.3	-81.0	0.0
2025-01-14 19:42:08.961081	321.1	48.0	-80.5	0.0
2025-01-14 19:42:10.083893	321.4	47.7	-80.9	0.0
2025-01-14 19:42:11.207524	321.6	47.4	-81.5	0.0
2025-01-14 19:42:12.330089	321.9	47.1	-80.9	0.0
2025-01-14 19:42:13.453098	322.2	46.8	-81.1	0.0
2025-01-14 19:42:14.577891	322.4	46.5	-81.0	0.0
2025-01-14 19:42:15.699644	322.7	46.1	-80.8	0.0
2025-01-14 19:42:16.824777	322.9	45.8	-80.6	0.0
2025-01-14 19:42:17.948214	323.1	45.5	-81.2	0.0
2025-01-14 19:42:19.072281	323.4	45.2	-81.4	0.0
2025-01-14 19:42:20.195249	323.6	44.9	-81.2	0.0
2025-01-14 19:42:21.316535	323.8	44.6	-81.3	0.0
2025-01-14 19:42:22.440390	324.1	44.3	-81.1	0.0
2025-01-14 19:42:23.562969	324.3	44.0	-81.1	0.0
2025-01-14 19:42:24.683403	324.5	43.7	-81.0	0.0
2025-01-14 19:42:25.807052	324.7	43.4	-81.2	0.0
2025-01-14 19:42:26.933309	324.9	43.2	-80.4	0.0
2025-01-14 19:42:28.056596	325.1	42.9	-80.5	0.0
2025-01-14 19:42:29.181489	325.3	42.6	-81.1	0.0
2025-01-14 19:42:30.303695	325.5	42.3	-80.8	0.0
2025-01-14 19:42:31.425089	325.7	42.0	-81.4	0.0
2025-01-14 19:42:32.547731	325.9	41.7	-81.0	0.0
2025-01-14 19:42:33.669989	326.1	41.4	-80.9	0.0
2025-01-14 19:42:34.791235	326.3	41.2	-80.6	0.0
2025-01-14 19:42:35.916729	326.5	40.9	-81.6	0.0
2025-01-14 19:42:37.038830	326.6	40.6	-81.4	0.0
2025-01-14 19:42:38.160100	326.8	40.3	-81.2	0.0
2025-01-14 19:42:39.283613	327.0	40.1	-81.1	0.0
2025-01-14 19:42:40.405607	327.2	39.8	-81.8	0.0
2025-01-14 19:42:41.528629	327.3	39.5	-81.6	0.0
2025-01-14 19:42:42.650966	327.5	39.3	-81.5	0.0
2025-01-14 19:42:43.775582	327.6	39.0	-81.5	0.0
2025-01-14 19:42:44.898152	327.8	38.7	-81.3	0.0
2025-01-14 19:42:46.021863	328.0	38.5	-81.1	0.0
2025-01-14 19:42:47.146690	328.1	38.2	-81.5	0.0
2025-01-14 19:42:48.271556	328.3	38.0	-81.4	0.0
2025-01-14 19:42:49.393870	328.4	37.7	-81.3	0.0
2025-01-14 19:42:50.518098	328.6	37.5	-81.2	0.0
2025-01-14 19:42:51.643272	328.7	37.2	-81.2	0.0
2025-01-14 19:42:52.768260	328.9	37.0	-81.1	0.0
2025-01-14 19:42:53.890944	329.0	36.7	-81.0	0.0
2025-01-14 19:42:55.014251	329.1	36.5	-81.1	0.0
2025-01-14 19:42:56.137149	329.3	36.2	-81.2	0.0
2025-01-14 19:42:57.260729	329.4	36.0	-81.4	0.0
2025-01-14 19:42:58.383669	329.5	35.7	-81.5	0.0
2025-01-14 19:42:59.505560	329.7	35.5	-81.3	0.0
2025-01-14 19:43:00.628663	329.8	35.2	-81.1	0.0
2025-01-14 19:43:01.752192	329.9	35.0	-81.2	0.0
2025-01-14 19:43:02.875480	330.1	34.8	-81.2	0.0
2025-01-14 19:43:03.997338	330.2	34.5	-81.3	0.0
2025-01-14 19:43:05.121703	330.3	34.3	-80.9	0.0
2025-01-14 19:43:06.246620	330.4	34.1	-81.1	0.0
2025-01-14 19:43:07.367090	330.5	33.8	-80.9	0.0
2025-01-14 19:43:08.492693	330.7	33.6	-81.2	0.0
2025-01-14 19:43:09.616001	330.8	33.4	-81.0	0.0
2025-01-14 19:43:10.739638	330.9	33.2	-80.9	0.0
2025-01-14 19:43:11.861632	331.0	32.9	-81.4	0.0
2025-01-14 19:43:12.983637	331.1	32.7	-81.5	0.0
2025-01-14 19:43:14.107474	331.2	32.5	-81.3	0.0
2025-01-14 19:43:15.231293	331.3	32.3	-81.6	0.0
2025-01-14 19:43:16.355337	331.4	32.1	-81.2	0.0
2025-01-14 19:43:17.477205	331.5	31.9	-81.4	0.0
2025-01-14 19:43:18.599598	331.7	31.6	-81.5	0.0
2025-01-14 19:43:19.722260	331.8	31.4	-81.4	0.0
2025-01-14 19:43:20.844031	331.9	31.2	-81.3	0.0
2025-01-14 19:43:21.969290	332.0	31.0	-81.2	0.0
2025-01-14 19:43:23.093120	332.1	30.8	-81.2	0.0
2025-01-14 19:43:24.216339	332.2	30.6	-80.6	0.0
2025-01-14 19:43:25.339492	332.3	30.4	-81.1	0.0
2025-01-14 19:43:26.463968	332.4	30.2	-81.2	0.0
2025-01-14 19:43:27.588189	332.4	30.0	-81.3	0.0
2025-01-14 19:43:28.709605	332.5	29.8	-81.6	0.0
2025-01-14 19:43:29.830986	332.6	29.6	-81.4	0.0
2025-01-14 19:43:30.952950	332.7	29.4	-81.7	0.0
2025-01-14 19:43:32.076910	332.8	29.2	-81.5	0.0
2025-01-14 19:43:33.199073	332.9	29.0	-81.0	0.0
2025-01-14 19:43:34.323475	333.0	28.8	-81.3	0.0
2025-01-14 19:43:35.445947	333.1	28.6	-81.3	0.0
2025-01-14 19:43:36.567786	333.2	28.4	-81.7	0.0
2025-01-14 19:43:37.691050	333.3	28.2	-81.4	0.0
2025-01-14 19:43:38.816861	333.3	28.0	-81.6	0.0
2025-01-14 19:43:39.939173	333.4	27.8	-81.6	0.0
2025-01-14 19:43:41.062992	333.5	27.6	-81.7	0.0
2025-01-14 19:43:42.185662	333.6	27.5	-81.4	0.0
2025-01-14 19:43:43.309537	333.7	27.3	-81.9	0.0
2025-01-14 19:43:44.431276	333.7	27.1	-81.8	0.0
2025-01-14 19:43:45.555235	333.8	26.9	-81.4	0.0
2025-01-14 19:43:46.679158	333.9	26.7	-81.4	0.0
2025-01-14 19:43:47.802280	334.0	26.5	-81.6	0.0
2025-01-14 19:43:48.924395	334.1	26.4	-81.3	0.0
2025-01-14 19:43:50.047840	334.1	26.2	-81.6	0.0
2025-01-14 19:43:51.170970	334.2	26.0	-81.4	0.0
2025-01-14 19:43:52.293302	334.3	25.8	-81.7	0.0
2025-01-14 19:43:53.415020	334.4	25.7	-82.0	0.0
2025-01-14 19:43:54.539175	334.4	25.5	-81.6	0.0
2025-01-14 19:43:55.661155	334.5	25.3	-81.9	0.0
2025-01-14 19:43:56.783540	334.6	25.1	-81.8	0.0
2025-01-14 19:43:57.905584	334.6	25.0	-81.7	0.0
2025-01-14 19:43:59.027929	334.7	24.8	-81.3	0.0
2025-01-14 19:44:00.149552	334.8	24.6	-81.7	0.0
2025-01-14 19:44:01.273386	334.9	24.5	-81.5	0.0
2025-01-14 19:44:02.397050	334.9	24.3	-81.5	0.0
2025-01-14 19:44:03.520988	335.0	24.1	-80.7	0.0
2025-01-14 19:44:04.644014	335.1	24.0	-80.8	0.0
2025-01-14 19:44:05.768984	335.1	23.8	-81.9	0.0
2025-01-14 19:44:06.893123	335.2	23.6	-81.7	0.0
2025-01-14 19:44:08.013882	335.3	23.5	-81.6	0.0
2025-01-14 19:44:09.135065	335.3	23.3	-81.3	0.0
2025-01-14 19:44:10.259446	335.4	23.2	-81.5	0.0
2025-01-14 19:44:11.381206	335.4	23.0	-81.9	0.0
2025-01-14 19:44:12.503426	335.5	22.8	-81.5	0.0
2025-01-14 19:44:13.625327	335.6	22.7	-80.8	0.0
2025-01-14 19:44:14.750069	335.6	22.5	-81.2	0.0
2025-01-14 19:44:15.874053	335.7	22.4	-81.3	0.0
2025-01-14 19:44:16.996224	335.7	22.2	-81.2	0.0
2025-01-14 19:44:18.119510	335.8	22.1	-81.3	0.0
2025-01-14 19:44:19.241551	335.9	21.9	-81.5	0.0
2025-01-14 19:44:20.363819	335.9	21.8	-81.5	0.0
2025-01-14 19:44:21.486773	336.0	21.6	-81.5	0.0
2025-01-14 19:44:22.609373	336.0	21.5	-81.7	0.0
2025-01-14 19:44:23.735088	336.1	21.3	-81.8	0.0
2025-01-14 19:44:24.857033	336.2	21.2	-81.9	0.0
2025-01-14 19:44:25.980193	336.2	21.0	-81.7	0.0
2025-01-14 19:44:27.105369	336.3	20.9	-81.4	0.0
2025-01-14 19:44:28.228898	336.3	20.7	-81.9	0.0
2025-01-14 19:44:29.352544	336.4	20.6	-81.7	0.0
2025-01-14 19:44:30.476124	336.4	20.4	-81.8	0.0
2025-01-14 19:44:31.598530	336.5	20.3	-81.6	0.0
2025-01-14 19:44:32.723226	336.5	20.1	-81.9	0.0
2025-01-14 19:44:33.845582	336.6	20.0	-81.8	0.0
2025-01-14 19:44:34.969686	336.6	19.9	-81.6	0.0
2025-01-14 19:44:36.094802	336.7	19.7	-81.0	0.0
2025-01-14 19:44:37.216914	336.7	19.6	-81.5	0.0
2025-01-14 19:44:38.341471	336.8	19.4	-81.5	0.0
2025-01-14 19:44:39.463814	336.8	19.3	-81.2	0.0
2025-01-14 19:44:40.586649	336.9	19.2	-81.5	0.0
2025-01-14 19:44:41.709620	336.9	19.0	-81.5	0.0
2025-01-14 19:44:42.834019	337.0	18.9	-81.3	0.0
2025-01-14 19:44:43.957443	337.0	18.8	-81.1	0.0
2025-01-14 19:44:45.081686	337.1	18.6	-81.2	0.0
2025-01-14 19:44:46.204786	337.1	18.5	-81.5	0.0
2025-01-14 19:44:47.329833	337.2	18.4	-81.1	0.0
2025-01-14 19:44:48.451222	337.2	18.2	-81.0	0.0
2025-01-14 19:44:49.575046	337.3	18.1	-81.2	0.0
2025-01-14 19:44:50.696945	337.3	18.0	-81.3	0.0
2025-01-14 19:44:51.820080	337.4	17.8	-81.5	0.0
2025-01-14 19:44:52.944598	337.4	17.7	-81.4	0.0
2025-01-14 19:44:54.066685	337.5	17.6	-81.6	0.0
2025-01-14 19:44:55.191335	337.5	17.4	-81.8	0.0
2025-01-14 19:44:56.314911	337.6	17.3	-81.7	0.0
2025-01-14 19:44:57.437894	337.6	17.2	-81.4	0.0
2025-01-14 19:44:58.562346	337.7	17.1	-81.6	0.0
2025-01-14 19:44:59.685685	337.7	16.9	-81.6	0.0
2025-01-14 19:45:00.807088	337.7	16.8	-81.4	0.0
2025-01-14 19:45:01.930700	337.8	16.7	-81.7	0.0
2025-01-14 19:45:03.053600	337.8	16.6	-81.8	0.0
2025-01-14 19:45:04.176593	337.9	16.4	-81.7	0.0
2025-01-14 19:45:05.301528	337.9	16.3	-81.7	0.0
2025-01-14 19:45:06.422929	338.0	16.2	-81.9	0.0
2025-01-14 19:45:07.545024	338.0	16.1	-81.6	0.0
2025-01-14 19:45:08.667408	338.0	16.0	-81.7	0.0
2025-01-14 19:45:09.790099	338.1	15.8	-81.6	0.0
2025-01-14 19:45:10.913940	338.1	15.7	-81.4	0.0
2025-01-14 19:45:12.038518	338.2	15.6	-81.7	0.0
2025-01-14 19:45:13.161887	338.2	15.5	-81.8	0.0
2025-01-14 19:45:14.284045	338.2	15.4	-81.9	0.0
2025-01-14 19:45:15.405368	338.3	15.2	-81.8	0.0
2025-01-14 19:45:16.528950	338.3	15.1	-81.7	0.0
2025-01-14 19:45:17.652268	338.4	15.0	-81.0	0.0
2025-01-14 19:45:18.774138	338.4	14.9	-81.5	0.0
2025-01-14 19:45:19.898942	338.4	14.8	-81.2	0.0
2025-01-14 19:45:21.023345	338.5	14.7	-81.3	0.0
2025-01-14 19:45:22.147191	338.5	14.5	-81.6	0.0
2025-01-14 19:45:23.272202	338.6	14.4	-81.5	0.0
2025-01-14 19:45:24.395020	338.6	14.3	-81.1	0.0
2025-01-14 19:45:25.518135	338.6	14.2	-81.8	0.0
2025-01-14 19:45:26.643360	338.7	14.1	-81.7	0.0
2025-01-14 19:45:27.766635	338.7	14.0	-81.6	0.0
2025-01-14 19:45:28.890582	338.7	13.9	-81.7	0.0
2025-01-14 19:45:30.016600	338.8	13.8	-81.9	0.0
2025-01-14 19:45:31.138842	338.8	13.7	-81.9	0.0
2025-01-14 19:45:32.260818	338.8	13.5	-81.9	0.0
2025-01-14 19:45:33.384924	338.9	13.4	-82.0	0.0
2025-01-14 19:45:34.506497	338.9	13.3	-81.9	0.0
2025-01-14 19:45:35.627065	339.0	13.2	-81.8	0.0
2025-01-14 19:45:36.749104	339.0	13.1	-82.0	0.0
2025-01-14 19:45:37.871874	339.0	13.0	-81.9	0.0
2025-01-14 19:45:38.995144	339.1	12.9	-81.7	0.0
2025-01-14 19:45:40.118552	339.1	12.8	-81.5	0.0
2025-01-14 19:45:41.242341	339.1	12.7	-81.6	0.0
2025-01-14 19:45:42.364764	339.2	12.6	-82.0	0.0
2025-01-14 19:45:43.486552	339.2	12.5	-81.8	0.0
2025-01-14 19:45:44.608473	339.2	12.4	-81.8	0.0
2025-01-14 19:45:45.730590	339.3	12.3	-81.7	0.0
2025-01-14 19:45:46.855029	339.3	12.2	-81.9	0.0
2025-01-14 19:45:47.979751	339.3	12.1	-81.9	0.0
2025-01-14 19:45:49.102486	339.4	12.0	-82.0	0.0
2025-01-14 19:45:50.225495	339.4	11.8	-81.6	0.0
2025-01-14 19:45:51.350494	339.4	11.7	-81.4	0.0
2025-01-14 19:45:52.475199	339.5	11.6	-81.8	0.0
2025-01-14 19:45:53.597101	339.5	11.5	-81.6	0.0
2025-01-14 19:45:54.720447	339.5	11.4	-81.3	0.0
2025-01-14 19:45:55.844330	339.6	11.3	-81.7	0.0
2025-01-14 19:45:56.967397	339.6	11.2	-82.0	0.0
2025-01-14 19:45:58.090940	339.6	11.1	-81.1	0.0
2025-01-14 19:45:59.216540	339.7	11.0	-81.5	0.0
2025-01-14 19:46:00.341379	339.7	10.9	-81.9	0.0
2025-01-14 19:46:01.464688	339.7	10.8	-81.5	0.0
2025-01-14 19:46:02.587301	339.7	10.7	-81.7	0.0
2025-01-14 19:46:03.709653	339.8	10.6	-81.3	0.0
2025-01-14 19:46:04.829432	339.8	10.5	-81.6	0.0
2025-01-14 19:46:05.952686	339.8	10.5	-81.5	0.0
2025-01-14 19:46:07.074921	339.9	10.4	-81.7	0.0
2025-01-14 19:46:08.198008	339.9	10.3	-81.8	0.0
2025-01-14 19:46:09.320611	339.9	10.2	-81.0	0.0
2025-01-14 19:46:10.442718	340.0	10.1	-81.5	0.0
2025-01-14 19:46:11.565517	340.0	10.0	-81.7	0.0
#Closed at: 2025-01-14 19:35:02.785532