passes_logs/2025/01/14/planumMaritime01/planumMaritime01__20250114_191034_NOAA_19_rec.log

#Pass ID: 20250114_191034_NOAA 19
#Satellite: NOAA 19
#Configuration: NOAA 19
#Start time: 2025-01-14 19:10:39.346528

#LorettStation: 1.0.0 05.05.2024
#Station: planumMaritime01
#Location: 37.49445 lon 55.92918 lat
#TLE: 1 33591U 09005A   25014.15453959  .00000276  00000+0  17122-3 0  9998
#TLE: 2 33591  99.0198  77.9105 0014501  59.8090 300.4516 14.13258688821422

#Time	Az	El	Level	SNR
2025-01-14 19:10:41.512099	199.5	10.2	-79.7	0.0
2025-01-14 19:10:42.637407	199.6	10.3	-80.1	0.0
2025-01-14 19:10:43.761729	199.7	10.3	-79.8	0.0
2025-01-14 19:10:44.886664	199.7	10.4	-79.8	0.0
2025-01-14 19:10:46.009975	199.8	10.5	-79.9	0.0
2025-01-14 19:10:47.133510	199.9	10.6	-79.9	0.0
2025-01-14 19:10:48.255631	200.0	10.7	-80.2	0.0
2025-01-14 19:10:49.379412	200.1	10.8	-80.0	0.0
2025-01-14 19:10:50.502279	200.2	10.9	-80.2	0.0
2025-01-14 19:10:51.623279	200.3	11.0	-79.9	0.0
2025-01-14 19:10:52.749099	200.4	11.0	-80.0	0.0
2025-01-14 19:10:53.871614	200.5	11.1	-80.2	0.0
2025-01-14 19:10:54.996661	200.6	11.2	-80.2	0.0
2025-01-14 19:10:56.120889	200.7	11.3	-80.2	0.0
2025-01-14 19:10:57.245307	200.8	11.4	-80.0	0.0
2025-01-14 19:10:58.370270	200.9	11.5	-80.2	0.0
2025-01-14 19:10:59.492473	201.0	11.6	-80.0	0.0
2025-01-14 19:11:00.615199	201.2	11.7	-80.0	0.0
2025-01-14 19:11:01.738571	201.3	11.8	-79.7	0.0
2025-01-14 19:11:02.860957	201.4	11.9	-80.5	0.0
2025-01-14 19:11:03.985884	201.5	12.0	-80.5	0.0
2025-01-14 19:11:05.108244	201.6	12.0	-80.6	0.0
2025-01-14 19:11:06.235281	201.7	12.1	-80.3	0.0
2025-01-14 19:11:07.359574	201.8	12.2	-80.2	0.0
2025-01-14 19:11:08.483189	201.9	12.3	-80.0	0.0
2025-01-14 19:11:09.606897	202.0	12.4	-80.4	0.0
2025-01-14 19:11:10.728705	202.1	12.5	-80.3	0.0
2025-01-14 19:11:11.854986	202.2	12.6	-80.2	0.0
2025-01-14 19:11:12.979253	202.3	12.7	-80.7	0.0
2025-01-14 19:11:14.103572	202.5	12.8	-80.0	0.0
2025-01-14 19:11:15.228113	202.6	12.9	-80.6	0.0
2025-01-14 19:11:16.354081	202.7	13.0	-80.5	0.0
2025-01-14 19:11:17.478864	202.8	13.1	-80.7	0.0
2025-01-14 19:11:18.600427	202.9	13.2	-80.5	0.0
2025-01-14 19:11:19.720912	203.0	13.3	-80.1	0.0
2025-01-14 19:11:20.843169	203.1	13.4	-80.2	0.0
2025-01-14 19:11:21.966388	203.3	13.5	-80.3	0.0
2025-01-14 19:11:23.088230	203.4	13.6	-79.9	0.0
2025-01-14 19:11:24.211325	203.5	13.6	-80.1	0.0
2025-01-14 19:11:25.334792	203.6	13.7	-80.1	0.0
2025-01-14 19:11:26.456798	203.7	13.8	-80.1	0.0
2025-01-14 19:11:27.578948	203.9	13.9	-80.3	0.0
2025-01-14 19:11:28.702931	204.0	14.0	-80.5	0.0
2025-01-14 19:11:29.825899	204.1	14.1	-80.1	0.0
2025-01-14 19:11:30.950288	204.2	14.2	-80.6	0.0
2025-01-14 19:11:32.073670	204.3	14.3	-80.4	0.0
2025-01-14 19:11:33.194925	204.5	14.4	-80.1	0.0
2025-01-14 19:11:34.316910	204.6	14.5	-80.5	0.0
2025-01-14 19:11:35.438509	204.7	14.6	-80.4	0.0
2025-01-14 19:11:36.564269	204.8	14.7	-80.7	0.0
2025-01-14 19:11:37.686385	205.0	14.8	-80.4	0.0
2025-01-14 19:11:38.808702	205.1	14.9	-80.3	0.0
2025-01-14 19:11:39.933190	205.2	15.0	-80.4	0.0
2025-01-14 19:11:41.054929	205.4	15.1	-80.2	0.0
2025-01-14 19:11:42.177756	205.5	15.2	-80.1	0.0
2025-01-14 19:11:43.301829	205.6	15.3	-79.9	0.0
2025-01-14 19:11:44.426904	205.8	15.4	-80.1	0.0
2025-01-14 19:11:45.551388	205.9	15.5	-80.2	0.0
2025-01-14 19:11:46.673169	206.0	15.6	-80.2	0.0
2025-01-14 19:11:47.797411	206.2	15.7	-80.5	0.0
2025-01-14 19:11:48.918433	206.3	15.8	-79.9	0.0
2025-01-14 19:11:50.042054	206.4	15.9	-80.4	0.0
2025-01-14 19:11:51.165575	206.6	16.0	-80.5	0.0
2025-01-14 19:11:52.289052	206.7	16.1	-80.5	0.0
2025-01-14 19:11:53.413764	206.9	16.2	-80.5	0.0
2025-01-14 19:11:54.537032	207.0	16.4	-80.7	0.0
2025-01-14 19:11:55.661168	207.1	16.5	-80.8	0.0
2025-01-14 19:11:56.782204	207.3	16.6	-80.7	0.0
2025-01-14 19:11:57.903603	207.4	16.7	-80.8	0.0
2025-01-14 19:11:59.028103	207.6	16.8	-80.7	0.0
2025-01-14 19:12:00.148449	207.7	16.9	-80.5	0.0
2025-01-14 19:12:01.272254	207.9	17.0	-80.3	0.0
2025-01-14 19:12:02.395887	208.0	17.1	-80.7	0.0
2025-01-14 19:12:03.519033	208.2	17.2	-80.5	0.0
2025-01-14 19:12:04.641670	208.3	17.3	-80.8	0.0
2025-01-14 19:12:05.764397	208.5	17.4	-80.5	0.0
2025-01-14 19:12:06.887512	208.6	17.5	-80.3	0.0
2025-01-14 19:12:08.011626	208.8	17.6	-80.4	0.0
2025-01-14 19:12:09.134579	208.9	17.7	-80.9	0.0
2025-01-14 19:12:10.258250	209.1	17.8	-81.0	0.0
2025-01-14 19:12:11.383638	209.2	17.9	-80.8	0.0
2025-01-14 19:12:12.507051	209.4	18.1	-80.6	0.0
2025-01-14 19:12:13.629152	209.5	18.2	-80.0	0.0
2025-01-14 19:12:14.751127	209.7	18.3	-80.8	0.0
2025-01-14 19:12:15.875377	209.9	18.4	-80.6	0.0
2025-01-14 19:12:16.998692	210.0	18.5	-80.9	0.0
2025-01-14 19:12:18.122394	210.2	18.6	-80.8	0.0
2025-01-14 19:12:19.247070	210.4	18.7	-80.6	0.0
2025-01-14 19:12:20.369988	210.5	18.8	-80.5	0.0
2025-01-14 19:12:21.495461	210.7	18.9	-80.7	0.0
2025-01-14 19:12:22.620273	210.9	19.0	-80.6	0.0
2025-01-14 19:12:23.743670	211.0	19.1	-80.8	0.0
2025-01-14 19:12:24.867834	211.2	19.3	-80.5	0.0
2025-01-14 19:12:25.991258	211.4	19.4	-80.7	0.0
2025-01-14 19:12:27.114661	211.5	19.5	-80.6	0.0
2025-01-14 19:12:28.237828	211.7	19.6	-80.7	0.0
2025-01-14 19:12:29.362365	211.9	19.7	-80.9	0.0
2025-01-14 19:12:30.483592	212.1	19.8	-80.8	0.0
2025-01-14 19:12:31.608962	212.2	19.9	-80.7	0.0
2025-01-14 19:12:32.731387	212.4	20.0	-80.6	0.0
2025-01-14 19:12:33.855823	212.6	20.2	-80.8	0.0
2025-01-14 19:12:34.979115	212.8	20.3	-80.9	0.0
2025-01-14 19:12:36.102365	213.0	20.4	-80.5	0.0
2025-01-14 19:12:37.226248	213.1	20.5	-80.9	0.0
2025-01-14 19:12:38.351073	213.3	20.6	-81.0	0.0
2025-01-14 19:12:39.475685	213.5	20.7	-80.8	0.0
2025-01-14 19:12:40.598736	213.7	20.8	-80.6	0.0
2025-01-14 19:12:41.719223	213.9	21.0	-80.6	0.0
2025-01-14 19:12:42.842754	214.1	21.1	-80.5	0.0
2025-01-14 19:12:43.965521	214.3	21.2	-80.6	0.0
2025-01-14 19:12:45.086442	214.5	21.3	-80.4	0.0
2025-01-14 19:12:46.210061	214.7	21.4	-80.6	0.0
2025-01-14 19:12:47.332713	214.9	21.5	-80.3	0.0
2025-01-14 19:12:48.456428	215.1	21.6	-80.8	0.0
2025-01-14 19:12:49.581495	215.3	21.8	-81.1	0.0
2025-01-14 19:12:50.707066	215.5	21.9	-80.8	0.0
2025-01-14 19:12:51.827689	215.7	22.0	-80.9	0.0
2025-01-14 19:12:52.951875	215.9	22.1	-80.7	0.0
2025-01-14 19:12:54.075060	216.1	22.2	-80.6	0.0
2025-01-14 19:12:55.197711	216.3	22.3	-80.6	0.0
2025-01-14 19:12:56.319265	216.5	22.5	-80.5	0.0
2025-01-14 19:12:57.443274	216.7	22.6	-80.7	0.0
2025-01-14 19:12:58.565486	216.9	22.7	-81.1	0.0
2025-01-14 19:12:59.688204	217.1	22.8	-81.0	0.0
2025-01-14 19:13:00.811874	217.3	22.9	-80.7	0.0
2025-01-14 19:13:01.937213	217.5	23.0	-80.9	0.0
2025-01-14 19:13:03.063847	217.8	23.2	-80.5	0.0
2025-01-14 19:13:04.188311	218.0	23.3	-80.2	0.0
2025-01-14 19:13:05.310438	218.2	23.4	-80.4	0.0
2025-01-14 19:13:06.430778	218.4	23.5	-80.5	0.0
2025-01-14 19:13:07.555286	218.6	23.6	-80.4	0.0
2025-01-14 19:13:08.679616	218.9	23.8	-80.1	0.0
2025-01-14 19:13:09.802980	219.1	23.9	-80.4	0.0
2025-01-14 19:13:10.926329	219.3	24.0	-80.3	0.0
2025-01-14 19:13:12.051393	219.6	24.1	-80.8	0.0
2025-01-14 19:13:13.177045	219.8	24.2	-80.9	0.0
2025-01-14 19:13:14.299765	220.0	24.3	-80.9	0.0
2025-01-14 19:13:15.424096	220.3	24.5	-80.6	0.0
2025-01-14 19:13:16.547940	220.5	24.6	-80.6	0.0
2025-01-14 19:13:17.671447	220.7	24.7	-80.8	0.0
2025-01-14 19:13:18.795295	221.0	24.8	-80.5	0.0
2025-01-14 19:13:19.918402	221.2	24.9	-80.7	0.0
2025-01-14 19:13:21.040525	221.5	25.1	-80.8	0.0
2025-01-14 19:13:22.163784	221.7	25.2	-80.6	0.0
2025-01-14 19:13:23.287935	221.9	25.3	-80.5	0.0
2025-01-14 19:13:24.413218	222.2	25.4	-80.9	0.0
2025-01-14 19:13:25.536710	222.4	25.5	-80.9	0.0
2025-01-14 19:13:26.663224	222.7	25.7	-80.9	0.0
2025-01-14 19:13:27.788210	223.0	25.8	-80.4	0.0
2025-01-14 19:13:28.911814	223.2	25.9	-80.6	0.0
2025-01-14 19:13:30.036578	223.5	26.0	-80.5	0.0
2025-01-14 19:13:31.158039	223.7	26.1	-80.6	0.0
2025-01-14 19:13:32.281224	224.0	26.2	-80.8	0.0
2025-01-14 19:13:33.403507	224.3	26.4	-81.0	0.0
2025-01-14 19:13:34.525777	224.5	26.5	-80.7	0.0
2025-01-14 19:13:35.648087	224.8	26.6	-80.5	0.0
2025-01-14 19:13:36.770338	225.1	26.7	-80.8	0.0
2025-01-14 19:13:37.891526	225.3	26.8	-80.5	0.0
2025-01-14 19:13:39.016453	225.6	26.9	-80.6	0.0
2025-01-14 19:13:40.140159	225.9	27.1	-80.4	0.0
2025-01-14 19:13:41.265550	226.2	27.2	-80.6	0.0
2025-01-14 19:13:42.388798	226.4	27.3	-80.4	0.0
2025-01-14 19:13:43.514667	226.7	27.4	-80.6	0.0
2025-01-14 19:13:44.638619	227.0	27.5	-80.3	0.0
2025-01-14 19:13:45.761490	227.3	27.6	-80.5	0.0
2025-01-14 19:13:46.884156	227.6	27.8	-80.3	0.0
2025-01-14 19:13:48.007249	227.9	27.9	-80.5	0.0
2025-01-14 19:13:49.132034	228.2	28.0	-80.8	0.0
2025-01-14 19:13:50.256154	228.5	28.1	-80.4	0.0
2025-01-14 19:13:51.377780	228.8	28.2	-80.7	0.0
2025-01-14 19:13:52.502692	229.1	28.3	-80.6	0.0
2025-01-14 19:13:53.623960	229.4	28.4	-80.6	0.0
2025-01-14 19:13:54.747985	229.7	28.6	-80.8	0.0
2025-01-14 19:13:55.871046	230.0	28.7	-80.8	0.0
2025-01-14 19:13:56.992906	230.3	28.8	-80.7	0.0
2025-01-14 19:13:58.113835	230.6	28.9	-80.5	0.0
2025-01-14 19:13:59.237010	230.9	29.0	-80.7	0.0
2025-01-14 19:14:00.360799	231.2	29.1	-80.9	0.0
2025-01-14 19:14:01.484267	231.5	29.2	-80.8	0.0
2025-01-14 19:14:02.606778	231.8	29.3	-80.7	0.0
2025-01-14 19:14:03.729949	232.2	29.5	-81.2	0.0
2025-01-14 19:14:04.854698	232.5	29.6	-80.5	0.0
2025-01-14 19:14:05.977659	232.8	29.7	-80.7	0.0
2025-01-14 19:14:07.101778	233.1	29.8	-80.6	0.0
2025-01-14 19:14:08.228242	233.5	29.9	-80.4	0.0
2025-01-14 19:14:09.351541	233.8	30.0	-80.5	0.0
2025-01-14 19:14:10.476519	234.1	30.1	-80.6	0.0
2025-01-14 19:14:11.598993	234.5	30.2	-80.6	0.0
2025-01-14 19:14:12.721846	234.8	30.3	-80.9	0.0
2025-01-14 19:14:13.845053	235.1	30.4	-80.4	0.0
2025-01-14 19:14:14.968499	235.5	30.5	-80.7	0.0
2025-01-14 19:14:16.088285	235.8	30.6	-80.7	0.0
2025-01-14 19:14:17.210793	236.2	30.7	-80.5	0.0
2025-01-14 19:14:18.335657	236.5	30.8	-80.7	0.0
2025-01-14 19:14:19.458919	236.9	30.9	-80.6	0.0
2025-01-14 19:14:20.582690	237.2	31.0	-80.7	0.0
2025-01-14 19:14:21.706801	237.6	31.1	-80.8	0.0
2025-01-14 19:14:22.829352	237.9	31.2	-80.5	0.0
2025-01-14 19:14:23.954627	238.3	31.3	-80.7	0.0
2025-01-14 19:14:25.077886	238.6	31.4	-80.8	0.0
2025-01-14 19:14:26.202735	239.0	31.5	-81.1	0.0
2025-01-14 19:14:27.327029	239.4	31.6	-80.7	0.0
2025-01-14 19:14:28.451455	239.7	31.7	-80.9	0.0
2025-01-14 19:14:29.575548	240.1	31.8	-80.8	0.0
2025-01-14 19:14:30.698561	240.5	31.9	-80.9	0.0
2025-01-14 19:14:31.823037	240.8	32.0	-80.5	0.0
2025-01-14 19:14:32.946540	241.2	32.1	-80.9	0.0
2025-01-14 19:14:34.072977	241.6	32.1	-80.8	0.0
2025-01-14 19:14:35.194576	242.0	32.2	-81.1	0.0
2025-01-14 19:14:36.318303	242.3	32.3	-80.8	0.0
2025-01-14 19:14:37.443782	242.7	32.4	-80.7	0.0
2025-01-14 19:14:38.568007	243.1	32.5	-80.8	0.0
2025-01-14 19:14:39.691410	243.5	32.6	-80.8	0.0
2025-01-14 19:14:40.814548	243.9	32.6	-81.1	0.0
2025-01-14 19:14:41.939792	244.3	32.7	-81.0	0.0
2025-01-14 19:14:43.061940	244.7	32.8	-80.9	0.0
2025-01-14 19:14:44.185058	245.1	32.9	-80.9	0.0
2025-01-14 19:14:45.309395	245.5	33.0	-80.7	0.0
2025-01-14 19:14:46.432109	245.9	33.0	-80.8	0.0
2025-01-14 19:14:47.555680	246.2	33.1	-80.4	0.0
2025-01-14 19:14:48.680715	246.6	33.2	-80.5	0.0
2025-01-14 19:14:49.803789	247.1	33.2	-80.8	0.0
2025-01-14 19:14:50.927458	247.5	33.3	-80.7	0.0
2025-01-14 19:14:52.051610	247.9	33.4	-80.3	0.0
2025-01-14 19:14:53.173322	248.3	33.4	-80.3	0.0
2025-01-14 19:14:54.297126	248.7	33.5	-80.3	0.0
2025-01-14 19:14:55.418664	249.1	33.6	-80.5	0.0
2025-01-14 19:14:56.541766	249.5	33.6	-80.5	0.0
2025-01-14 19:14:57.665404	249.9	33.7	-80.5	0.0
2025-01-14 19:14:58.788055	250.3	33.8	-80.8	0.0
2025-01-14 19:14:59.909782	250.7	33.8	-80.6	0.0
2025-01-14 19:15:01.032430	251.2	33.9	-80.5	0.0
2025-01-14 19:15:02.156907	251.6	33.9	-80.5	0.0
2025-01-14 19:15:03.281983	252.0	34.0	-80.6	0.0
2025-01-14 19:15:04.402924	252.4	34.0	-80.7	0.0
2025-01-14 19:15:05.525045	252.8	34.1	-80.6	0.0
2025-01-14 19:15:06.650464	253.3	34.1	-80.8	0.0
2025-01-14 19:15:07.775765	253.7	34.2	-80.7	0.0
2025-01-14 19:15:08.900204	254.1	34.2	-80.9	0.0
2025-01-14 19:15:10.024466	254.5	34.3	-80.9	0.0
2025-01-14 19:15:11.147619	255.0	34.3	-80.5	0.0
2025-01-14 19:15:12.271092	255.4	34.3	-80.7	0.0
2025-01-14 19:15:13.393539	255.8	34.4	-80.7	0.0
2025-01-14 19:15:14.515937	256.3	34.4	-80.6	0.0
2025-01-14 19:15:15.638075	256.7	34.4	-80.9	0.0
2025-01-14 19:15:16.760377	257.1	34.5	-80.7	0.0
2025-01-14 19:15:17.884792	257.6	34.5	-80.8	0.0
2025-01-14 19:15:19.007924	258.0	34.5	-80.8	0.0
2025-01-14 19:15:20.130180	258.4	34.6	-80.9	0.0
2025-01-14 19:15:21.253171	258.9	34.6	-81.1	0.0
2025-01-14 19:15:22.374988	259.3	34.6	-80.8	0.0
2025-01-14 19:15:23.500172	259.8	34.6	-80.8	0.0
2025-01-14 19:15:24.623358	260.2	34.7	-81.3	0.0
2025-01-14 19:15:25.746004	260.6	34.7	-80.6	0.0
2025-01-14 19:15:26.869050	261.1	34.7	-80.7	0.0
2025-01-14 19:15:27.990349	261.5	34.7	-81.0	0.0
2025-01-14 19:15:29.113856	261.9	34.7	-80.8	0.0
2025-01-14 19:15:30.238398	262.4	34.7	-80.9	0.0
2025-01-14 19:15:31.362196	262.8	34.7	-80.8	0.0
2025-01-14 19:15:32.484660	263.3	34.7	-80.7	0.0
2025-01-14 19:15:33.610894	263.7	34.7	-80.5	0.0
2025-01-14 19:15:34.734174	264.1	34.7	-80.9	0.0
2025-01-14 19:15:35.859283	264.6	34.7	-80.8	0.0
2025-01-14 19:15:36.981679	265.0	34.7	-80.8	0.0
2025-01-14 19:15:38.104681	265.5	34.7	-81.1	0.0
2025-01-14 19:15:39.227184	265.9	34.7	-80.9	0.0
2025-01-14 19:15:40.348677	266.4	34.7	-80.9	0.0
2025-01-14 19:15:41.472411	266.8	34.7	-81.0	0.0
2025-01-14 19:15:42.596833	267.2	34.7	-81.0	0.0
2025-01-14 19:15:43.721866	267.7	34.7	-80.8	0.0
2025-01-14 19:15:44.844405	268.1	34.7	-81.0	0.0
2025-01-14 19:15:45.966763	268.6	34.7	-81.2	0.0
2025-01-14 19:15:47.090178	269.0	34.7	-81.0	0.0
2025-01-14 19:15:48.213508	269.4	34.6	-80.8	0.0
2025-01-14 19:15:49.335237	269.9	34.6	-81.1	0.0
2025-01-14 19:15:50.460666	270.3	34.6	-80.7	0.0
2025-01-14 19:15:51.583931	270.7	34.6	-80.8	0.0
2025-01-14 19:15:52.709302	271.2	34.5	-80.9	0.0
2025-01-14 19:15:53.832152	271.6	34.5	-81.0	0.0
2025-01-14 19:15:54.955326	272.0	34.5	-81.0	0.0
2025-01-14 19:15:56.077987	272.5	34.5	-81.1	0.0
2025-01-14 19:15:57.204046	272.9	34.4	-80.7	0.0
2025-01-14 19:15:58.327165	273.3	34.4	-80.8	0.0
2025-01-14 19:15:59.450144	273.8	34.3	-80.7	0.0
2025-01-14 19:16:00.573014	274.2	34.3	-80.4	0.0
2025-01-14 19:16:01.695993	274.6	34.3	-80.5	0.0
2025-01-14 19:16:02.819094	275.1	34.2	-80.7	0.0
2025-01-14 19:16:03.944186	275.5	34.2	-80.7	0.0
2025-01-14 19:16:05.067554	275.9	34.1	-80.3	0.0
2025-01-14 19:16:06.190612	276.3	34.1	-80.4	0.0
2025-01-14 19:16:07.313368	276.8	34.0	-80.6	0.0
2025-01-14 19:16:08.436088	277.2	34.0	-80.6	0.0
2025-01-14 19:16:09.559191	277.6	33.9	-80.5	0.0
2025-01-14 19:16:10.683587	278.0	33.9	-80.5	0.0
2025-01-14 19:16:11.806880	278.4	33.8	-80.4	0.0
2025-01-14 19:16:12.928194	278.8	33.8	-80.2	0.0
2025-01-14 19:16:14.050794	279.3	33.7	-80.4	0.0
2025-01-14 19:16:15.173331	279.7	33.7	-80.4	0.0
2025-01-14 19:16:16.296597	280.1	33.6	-80.7	0.0
2025-01-14 19:16:17.419405	280.5	33.5	-81.0	0.0
2025-01-14 19:16:18.545102	280.9	33.5	-80.9	0.0
2025-01-14 19:16:19.667034	281.3	33.4	-80.9	0.0
2025-01-14 19:16:20.789715	281.7	33.3	-81.1	0.0
2025-01-14 19:16:21.914098	282.1	33.3	-80.8	0.0
2025-01-14 19:16:23.037097	282.5	33.2	-81.1	0.0
2025-01-14 19:16:24.161757	282.9	33.1	-81.0	0.0
2025-01-14 19:16:25.283635	283.3	33.1	-81.0	0.0
2025-01-14 19:16:26.407623	283.7	33.0	-81.0	0.0
2025-01-14 19:16:27.527696	284.1	32.9	-80.9	0.0
2025-01-14 19:16:28.650660	284.5	32.8	-81.0	0.0
2025-01-14 19:16:29.774173	284.9	32.8	-80.9	0.0
2025-01-14 19:16:30.901011	285.3	32.7	-81.0	0.0
2025-01-14 19:16:32.021420	285.7	32.6	-80.9	0.0
2025-01-14 19:16:33.144079	286.1	32.5	-80.6	0.0
2025-01-14 19:16:34.266314	286.4	32.4	-80.7	0.0
2025-01-14 19:16:35.389295	286.8	32.3	-81.0	0.0
2025-01-14 19:16:36.512997	287.2	32.3	-80.6	0.0
2025-01-14 19:16:37.638610	287.6	32.2	-80.6	0.0
2025-01-14 19:16:38.758416	287.9	32.1	-80.8	0.0
2025-01-14 19:16:39.881770	288.3	32.0	-80.8	0.0
2025-01-14 19:16:41.005236	288.7	31.9	-81.1	0.0
2025-01-14 19:16:42.129197	289.1	31.8	-81.0	0.0
2025-01-14 19:16:43.252559	289.4	31.7	-81.2	0.0
2025-01-14 19:16:44.375852	289.8	31.6	-81.0	0.0
2025-01-14 19:16:45.498359	290.2	31.5	-80.8	0.0
2025-01-14 19:16:46.622080	290.5	31.4	-80.6	0.0
2025-01-14 19:16:47.744920	290.9	31.4	-80.9	0.0
2025-01-14 19:16:48.867216	291.2	31.3	-80.9	0.0
2025-01-14 19:16:49.989903	291.6	31.2	-81.4	0.0
2025-01-14 19:16:51.112851	291.9	31.1	-81.1	0.0
2025-01-14 19:16:52.236669	292.3	31.0	-81.3	0.0
2025-01-14 19:16:53.360978	292.6	30.9	-81.4	0.0
2025-01-14 19:16:54.485019	293.0	30.8	-81.0	0.0
2025-01-14 19:16:55.608674	293.3	30.7	-81.0	0.0
2025-01-14 19:16:56.730792	293.7	30.6	-81.0	0.0
2025-01-14 19:16:57.853277	294.0	30.5	-81.1	0.0
2025-01-14 19:16:58.979656	294.4	30.4	-81.3	0.0
2025-01-14 19:17:00.106301	294.7	30.3	-81.3	0.0
2025-01-14 19:17:01.231171	295.0	30.1	-81.3	0.0
2025-01-14 19:17:02.353682	295.4	30.0	-81.0	0.0
2025-01-14 19:17:03.476176	295.7	29.9	-81.1	0.0
2025-01-14 19:17:04.598694	296.0	29.8	-80.9	0.0
2025-01-14 19:17:05.721289	296.3	29.7	-80.5	0.0
2025-01-14 19:17:06.846159	296.7	29.6	-81.1	0.0
2025-01-14 19:17:07.970585	297.0	29.5	-81.1	0.0
2025-01-14 19:17:09.096265	297.3	29.4	-81.1	0.0
2025-01-14 19:17:10.217987	297.6	29.3	-81.0	0.0
2025-01-14 19:17:11.339727	297.9	29.2	-80.7	0.0
2025-01-14 19:17:12.461565	298.3	29.1	-80.6	0.0
2025-01-14 19:17:13.583548	298.6	29.0	-80.7	0.0
2025-01-14 19:17:14.709260	298.9	28.8	-81.0	0.0
2025-01-14 19:17:15.833081	299.2	28.7	-80.7	0.0
2025-01-14 19:17:16.953937	299.5	28.6	-80.9	0.0
2025-01-14 19:17:18.076871	299.8	28.5	-81.0	0.0
2025-01-14 19:17:19.199121	300.1	28.4	-80.6	0.0
2025-01-14 19:17:20.320325	300.4	28.3	-80.7	0.0
2025-01-14 19:17:21.443716	300.7	28.2	-80.9	0.0
2025-01-14 19:17:22.568610	301.0	28.1	-80.7	0.0
2025-01-14 19:17:23.691481	301.3	27.9	-80.9	0.0
2025-01-14 19:17:24.814362	301.6	27.8	-81.1	0.0
2025-01-14 19:17:25.938881	301.8	27.7	-81.2	0.0
2025-01-14 19:17:27.064690	302.1	27.6	-81.1	0.0
2025-01-14 19:17:28.187137	302.4	27.5	-81.2	0.0
2025-01-14 19:17:29.310936	302.7	27.4	-81.4	0.0
2025-01-14 19:17:30.433776	303.0	27.3	-81.1	0.0
2025-01-14 19:17:31.555301	303.2	27.1	-81.0	0.0
2025-01-14 19:17:32.678649	303.5	27.0	-81.1	0.0
2025-01-14 19:17:33.801143	303.8	26.9	-80.8	0.0
2025-01-14 19:17:34.925330	304.1	26.8	-81.1	0.0
2025-01-14 19:17:36.049771	304.3	26.7	-81.2	0.0
2025-01-14 19:17:37.175071	304.6	26.6	-81.1	0.0
2025-01-14 19:17:38.297960	304.9	26.4	-81.2	0.0
2025-01-14 19:17:39.423142	305.1	26.3	-81.1	0.0
2025-01-14 19:17:40.546182	305.4	26.2	-80.8	0.0
2025-01-14 19:17:41.669442	305.7	26.1	-80.9	0.0
2025-01-14 19:17:42.789977	305.9	26.0	-80.9	0.0
2025-01-14 19:17:43.913313	306.2	25.9	-81.0	0.0
2025-01-14 19:17:45.038050	306.4	25.7	-80.5	0.0
2025-01-14 19:17:46.161621	306.7	25.6	-80.2	0.0
2025-01-14 19:17:47.283974	306.9	25.5	-81.0	0.0
2025-01-14 19:17:48.407721	307.2	25.4	-81.0	0.0
2025-01-14 19:17:49.532445	307.4	25.3	-80.7	0.0
2025-01-14 19:17:50.654735	307.7	25.2	-80.6	0.0
2025-01-14 19:17:51.779996	307.9	25.0	-80.5	0.0
2025-01-14 19:17:52.903864	308.2	24.9	-80.7	0.0
2025-01-14 19:17:54.026806	308.4	24.8	-80.8	0.0
2025-01-14 19:17:55.150430	308.6	24.7	-80.9	0.0
2025-01-14 19:17:56.275088	308.9	24.6	-80.6	0.0
2025-01-14 19:17:57.398065	309.1	24.4	-81.0	0.0
2025-01-14 19:17:58.522553	309.3	24.3	-80.7	0.0
2025-01-14 19:17:59.648101	309.6	24.2	-80.8	0.0
2025-01-14 19:18:00.771198	309.8	24.1	-80.8	0.0
2025-01-14 19:18:01.891774	310.0	24.0	-81.3	0.0
2025-01-14 19:18:03.015822	310.3	23.9	-81.2	0.0
2025-01-14 19:18:04.139304	310.5	23.7	-80.9	0.0
2025-01-14 19:18:05.259560	310.7	23.6	-80.8	0.0
2025-01-14 19:18:06.382500	310.9	23.5	-81.2	0.0
2025-01-14 19:18:07.506332	311.2	23.4	-81.0	0.0
2025-01-14 19:18:08.631016	311.4	23.3	-80.7	0.0
2025-01-14 19:18:09.754143	311.6	23.2	-81.2	0.0
2025-01-14 19:18:10.876520	311.8	23.0	-80.9	0.0
2025-01-14 19:18:12.000673	312.0	22.9	-80.8	0.0
2025-01-14 19:18:13.122268	312.2	22.8	-81.0	0.0
2025-01-14 19:18:14.245530	312.4	22.7	-81.3	0.0
2025-01-14 19:18:15.367341	312.7	22.6	-80.9	0.0
2025-01-14 19:18:16.490968	312.9	22.5	-81.1	0.0
2025-01-14 19:18:17.613960	313.1	22.3	-80.9	0.0
2025-01-14 19:18:18.738491	313.3	22.2	-81.1	0.0
2025-01-14 19:18:19.862274	313.5	22.1	-80.9	0.0
2025-01-14 19:18:20.984276	313.7	22.0	-80.9	0.0
2025-01-14 19:18:22.107046	313.9	21.9	-80.9	0.0
2025-01-14 19:18:23.228033	314.1	21.8	-81.0	0.0
2025-01-14 19:18:24.349806	314.3	21.6	-81.1	0.0
2025-01-14 19:18:25.473498	314.5	21.5	-81.0	0.0
2025-01-14 19:18:26.599821	314.7	21.4	-80.6	0.0
2025-01-14 19:18:27.721846	314.9	21.3	-80.5	0.0
2025-01-14 19:18:28.847962	315.1	21.2	-80.7	0.0
2025-01-14 19:18:29.971669	315.2	21.1	-80.7	0.0
2025-01-14 19:18:31.093415	315.4	21.0	-80.6	0.0
2025-01-14 19:18:32.214807	315.6	20.8	-80.7	0.0
2025-01-14 19:18:33.337150	315.8	20.7	-80.7	0.0
2025-01-14 19:18:34.460108	316.0	20.6	-81.1	0.0
2025-01-14 19:18:35.583424	316.2	20.5	-80.7	0.0
2025-01-14 19:18:36.708596	316.4	20.4	-80.7	0.0
2025-01-14 19:18:37.830601	316.5	20.3	-81.1	0.0
2025-01-14 19:18:38.953984	316.7	20.2	-81.0	0.0
2025-01-14 19:18:40.078987	316.9	20.1	-80.9	0.0
2025-01-14 19:18:41.203125	317.1	19.9	-81.2	0.0
2025-01-14 19:18:42.327326	317.2	19.8	-81.2	0.0
2025-01-14 19:18:43.449308	317.4	19.7	-81.5	0.0
2025-01-14 19:18:44.570895	317.6	19.6	-81.4	0.0
2025-01-14 19:18:45.692050	317.8	19.5	-81.1	0.0
2025-01-14 19:18:46.815121	317.9	19.4	-81.3	0.0
2025-01-14 19:18:47.938055	318.1	19.3	-81.1	0.0
2025-01-14 19:18:49.059704	318.3	19.2	-81.4	0.0
2025-01-14 19:18:50.184876	318.4	19.1	-81.3	0.0
2025-01-14 19:18:51.310310	318.6	19.0	-81.2	0.0
2025-01-14 19:18:52.433420	318.8	18.8	-81.3	0.0
2025-01-14 19:18:53.556260	318.9	18.7	-81.3	0.0
2025-01-14 19:18:54.680118	319.1	18.6	-81.1	0.0
2025-01-14 19:18:55.803179	319.3	18.5	-80.6	0.0
2025-01-14 19:18:56.927810	319.4	18.4	-80.9	0.0
2025-01-14 19:18:58.048324	319.6	18.3	-80.7	0.0
2025-01-14 19:18:59.171394	319.7	18.2	-80.7	0.0
2025-01-14 19:19:00.297298	319.9	18.1	-80.5	0.0
2025-01-14 19:19:01.420835	320.1	18.0	-81.0	0.0
2025-01-14 19:19:02.545534	320.2	17.9	-81.0	0.0
2025-01-14 19:19:03.670108	320.4	17.8	-80.9	0.0
2025-01-14 19:19:04.791994	320.5	17.7	-81.1	0.0
2025-01-14 19:19:05.917600	320.7	17.6	-81.0	0.0
2025-01-14 19:19:07.040309	320.8	17.4	-81.0	0.0
2025-01-14 19:19:08.166017	321.0	17.3	-81.0	0.0
2025-01-14 19:19:09.290564	321.1	17.2	-80.8	0.0
2025-01-14 19:19:10.413639	321.3	17.1	-81.0	0.0
2025-01-14 19:19:11.536117	321.4	17.0	-81.3	0.0
2025-01-14 19:19:12.660077	321.6	16.9	-81.1	0.0
2025-01-14 19:19:13.785318	321.7	16.8	-80.8	0.0
2025-01-14 19:19:14.911515	321.9	16.7	-81.4	0.0
2025-01-14 19:19:16.033107	322.0	16.6	-81.2	0.0
2025-01-14 19:19:17.155189	322.1	16.5	-81.0	0.0
2025-01-14 19:19:18.280700	322.3	16.4	-80.8	0.0
2025-01-14 19:19:19.406368	322.4	16.3	-81.3	0.0
2025-01-14 19:19:20.529552	322.6	16.2	-81.0	0.0
2025-01-14 19:19:21.652865	322.7	16.1	-80.7	0.0
2025-01-14 19:19:22.776106	322.8	16.0	-81.1	0.0
2025-01-14 19:19:23.901167	323.0	15.9	-81.3	0.0
2025-01-14 19:19:25.022837	323.1	15.8	-81.1	0.0
2025-01-14 19:19:26.147402	323.3	15.7	-81.5	0.0
2025-01-14 19:19:27.270201	323.4	15.6	-81.1	0.0
2025-01-14 19:19:28.394893	323.5	15.5	-81.2	0.0
2025-01-14 19:19:29.519027	323.7	15.4	-81.2	0.0
2025-01-14 19:19:30.644196	323.8	15.3	-81.2	0.0
2025-01-14 19:19:31.768574	323.9	15.2	-80.9	0.0
2025-01-14 19:19:32.894630	324.1	15.1	-81.1	0.0
2025-01-14 19:19:34.018284	324.2	15.0	-81.2	0.0
2025-01-14 19:19:35.141692	324.3	14.9	-81.2	0.0
2025-01-14 19:19:36.263633	324.4	14.8	-80.8	0.0
2025-01-14 19:19:37.387501	324.6	14.7	-80.9	0.0
2025-01-14 19:19:38.510462	324.7	14.6	-81.1	0.0
2025-01-14 19:19:39.633614	324.8	14.5	-80.3	0.0
2025-01-14 19:19:40.755710	324.9	14.4	-80.8	0.0
2025-01-14 19:19:41.877280	325.1	14.3	-80.7	0.0
2025-01-14 19:19:43.001015	325.2	14.2	-81.1	0.0
2025-01-14 19:19:44.123064	325.3	14.1	-80.5	0.0
2025-01-14 19:19:45.247271	325.4	14.0	-81.4	0.0
2025-01-14 19:19:46.370996	325.5	13.9	-81.1	0.0
2025-01-14 19:19:47.494952	325.7	13.8	-80.8	0.0
2025-01-14 19:19:48.618870	325.8	13.7	-81.4	0.0
2025-01-14 19:19:49.742669	325.9	13.6	-80.9	0.0
2025-01-14 19:19:50.865723	326.0	13.5	-81.2	0.0
2025-01-14 19:19:51.989528	326.1	13.4	-81.2	0.0
2025-01-14 19:19:53.113787	326.3	13.3	-81.3	0.0
2025-01-14 19:19:54.237144	326.4	13.2	-81.3	0.0
2025-01-14 19:19:55.359408	326.5	13.2	-80.7	0.0
2025-01-14 19:19:56.487059	326.6	13.1	-80.9	0.0
2025-01-14 19:19:57.613379	326.7	13.0	-81.0	0.0
2025-01-14 19:19:58.737072	326.8	12.9	-81.1	0.0
2025-01-14 19:19:59.859200	326.9	12.8	-80.6	0.0
2025-01-14 19:20:00.983122	327.1	12.7	-80.9	0.0
2025-01-14 19:20:02.105391	327.2	12.6	-81.0	0.0
2025-01-14 19:20:03.226991	327.3	12.5	-81.3	0.0
2025-01-14 19:20:04.351128	327.4	12.4	-81.0	0.0
2025-01-14 19:20:05.474082	327.5	12.3	-81.2	0.0
2025-01-14 19:20:06.600572	327.6	12.2	-81.2	0.0
2025-01-14 19:20:07.725321	327.7	12.1	-81.3	0.0
2025-01-14 19:20:08.848884	327.8	12.0	-81.2	0.0
2025-01-14 19:20:09.971161	327.9	12.0	-80.8	0.0
2025-01-14 19:20:11.095429	328.0	11.9	-81.1	0.0
2025-01-14 19:20:12.219630	328.1	11.8	-80.8	0.0
2025-01-14 19:20:13.343978	328.2	11.7	-80.8	0.0
2025-01-14 19:20:14.467914	328.3	11.6	-80.8	0.0
2025-01-14 19:20:15.591113	328.4	11.5	-80.7	0.0
2025-01-14 19:20:16.714784	328.5	11.4	-81.0	0.0
2025-01-14 19:20:17.838044	328.6	11.3	-80.3	0.0
2025-01-14 19:20:18.961427	328.8	11.2	-81.1	0.0
2025-01-14 19:20:20.083760	328.9	11.1	-81.0	0.0
2025-01-14 19:20:21.206746	329.0	11.1	-80.9	0.0
2025-01-14 19:20:22.329858	329.1	11.0	-80.9	0.0
2025-01-14 19:20:23.453058	329.2	10.9	-81.0	0.0
2025-01-14 19:20:24.576882	329.2	10.8	-80.9	0.0
2025-01-14 19:20:25.700637	329.3	10.7	-80.8	0.0
2025-01-14 19:20:26.824420	329.4	10.6	-80.8	0.0
2025-01-14 19:20:27.947560	329.5	10.5	-81.0	0.0
2025-01-14 19:20:29.071238	329.6	10.4	-81.0	0.0
2025-01-14 19:20:30.194381	329.7	10.4	-81.1	0.0
2025-01-14 19:20:31.316786	329.8	10.3	-81.3	0.0
2025-01-14 19:20:32.439280	329.9	10.2	-81.1	0.0
2025-01-14 19:20:33.560602	330.0	10.1	-80.9	0.0
2025-01-14 19:20:34.686203	330.1	10.0	-81.1	0.0
#Closed at: 2025-01-14 19:10:34.349061