passes_logs/2025/01/14/planumMaritime01/planumMaritime01__20250114_175535_NOAA_18_rec.log

#Pass ID: 20250114_175535_NOAA 18
#Satellite: NOAA 18
#Configuration: NOAA 18
#Start time: 2025-01-14 17:55:40.653318

#LorettStation: 1.0.0 05.05.2024
#Station: planumMaritime01
#Location: 37.49445 lon 55.92918 lat
#TLE: 1 28654U 05018A   25014.17177243  .00000313  00000+0  18955-3 0  9990
#TLE: 2 28654  98.8569  95.2344 0014326 181.4762 178.6370 14.13485757 13061

#Time	Az	El	Level	SNR
2025-01-14 17:55:42.812184	112.8	10.2	-80.7	0.0
2025-01-14 17:55:43.935193	112.7	10.2	-80.8	0.0
2025-01-14 17:55:45.058100	112.6	10.3	-80.8	0.0
2025-01-14 17:55:46.182961	112.5	10.4	-80.4	0.0
2025-01-14 17:55:47.308649	112.4	10.5	-80.9	0.0
2025-01-14 17:55:48.431850	112.3	10.6	-80.7	0.0
2025-01-14 17:55:49.559396	112.2	10.7	-80.7	0.0
2025-01-14 17:55:50.681771	112.0	10.7	-80.7	0.0
2025-01-14 17:55:51.807300	111.9	10.8	-80.3	0.0
2025-01-14 17:55:52.930998	111.8	10.9	-80.4	0.0
2025-01-14 17:55:54.055191	111.7	11.0	-80.5	0.0
2025-01-14 17:55:55.178324	111.6	11.1	-80.4	0.0
2025-01-14 17:55:56.303110	111.5	11.2	-80.3	0.0
2025-01-14 17:55:57.428078	111.4	11.3	-80.5	0.0
2025-01-14 17:55:58.550001	111.3	11.3	-80.6	0.0
2025-01-14 17:55:59.672212	111.2	11.4	-80.5	0.0
2025-01-14 17:56:00.795691	111.1	11.5	-80.2	0.0
2025-01-14 17:56:01.917884	110.9	11.6	-80.8	0.0
2025-01-14 17:56:03.042130	110.8	11.7	-80.7	0.0
2025-01-14 17:56:04.165043	110.7	11.8	-80.5	0.0
2025-01-14 17:56:05.288622	110.6	11.9	-80.8	0.0
2025-01-14 17:56:06.412763	110.5	11.9	-80.7	0.0
2025-01-14 17:56:07.533902	110.4	12.0	-80.9	0.0
2025-01-14 17:56:08.658222	110.2	12.1	-81.2	0.0
2025-01-14 17:56:09.783022	110.1	12.2	-81.1	0.0
2025-01-14 17:56:10.906746	110.0	12.3	-81.3	0.0
2025-01-14 17:56:12.030217	109.9	12.4	-81.0	0.0
2025-01-14 17:56:13.151149	109.8	12.5	-80.7	0.0
2025-01-14 17:56:14.274056	109.6	12.5	-81.1	0.0
2025-01-14 17:56:15.397373	109.5	12.6	-80.9	0.0
2025-01-14 17:56:16.521530	109.4	12.7	-80.7	0.0
2025-01-14 17:56:17.645829	109.3	12.8	-81.2	0.0
2025-01-14 17:56:18.768094	109.1	12.9	-81.0	0.0
2025-01-14 17:56:19.891256	109.0	13.0	-81.0	0.0
2025-01-14 17:56:21.016241	108.9	13.1	-80.9	0.0
2025-01-14 17:56:22.138605	108.8	13.2	-81.3	0.0
2025-01-14 17:56:23.261158	108.6	13.3	-81.1	0.0
2025-01-14 17:56:24.385807	108.5	13.3	-80.7	0.0
2025-01-14 17:56:25.509440	108.4	13.4	-80.9	0.0
2025-01-14 17:56:26.632173	108.2	13.5	-81.3	0.0
2025-01-14 17:56:27.753444	108.1	13.6	-81.0	0.0
2025-01-14 17:56:28.876371	108.0	13.7	-80.8	0.0
2025-01-14 17:56:29.997912	107.8	13.8	-80.5	0.0
2025-01-14 17:56:31.121325	107.7	13.9	-80.9	0.0
2025-01-14 17:56:32.245742	107.6	14.0	-80.9	0.0
2025-01-14 17:56:33.370021	107.4	14.1	-80.9	0.0
2025-01-14 17:56:34.492765	107.3	14.2	-80.9	0.0
2025-01-14 17:56:35.619512	107.2	14.3	-80.5	0.0
2025-01-14 17:56:36.742416	107.0	14.3	-80.7	0.0
2025-01-14 17:56:37.863787	106.9	14.4	-80.9	0.0
2025-01-14 17:56:38.987024	106.8	14.5	-80.5	0.0
2025-01-14 17:56:40.111105	106.6	14.6	-80.7	0.0
2025-01-14 17:56:41.233307	106.5	14.7	-80.8	0.0
2025-01-14 17:56:42.358117	106.3	14.8	-81.1	0.0
2025-01-14 17:56:43.482211	106.2	14.9	-80.9	0.0
2025-01-14 17:56:44.608729	106.0	15.0	-81.3	0.0
2025-01-14 17:56:45.733549	105.9	15.1	-81.0	0.0
2025-01-14 17:56:46.857901	105.8	15.2	-80.7	0.0
2025-01-14 17:56:47.983072	105.6	15.3	-81.0	0.0
2025-01-14 17:56:49.105258	105.5	15.4	-80.5	0.0
2025-01-14 17:56:50.227574	105.3	15.5	-81.0	0.0
2025-01-14 17:56:51.350499	105.2	15.5	-81.3	0.0
2025-01-14 17:56:52.476318	105.0	15.6	-80.6	0.0
2025-01-14 17:56:53.600329	104.9	15.7	-80.9	0.0
2025-01-14 17:56:54.721874	104.7	15.8	-81.2	0.0
2025-01-14 17:56:55.844696	104.6	15.9	-80.9	0.0
2025-01-14 17:56:56.968239	104.4	16.0	-81.0	0.0
2025-01-14 17:56:58.092994	104.2	16.1	-80.9	0.0
2025-01-14 17:56:59.217865	104.1	16.2	-80.9	0.0
2025-01-14 17:57:00.339854	103.9	16.3	-81.0	0.0
2025-01-14 17:57:01.463540	103.8	16.4	-80.8	0.0
2025-01-14 17:57:02.588360	103.6	16.5	-80.5	0.0
2025-01-14 17:57:03.711051	103.5	16.6	-80.6	0.0
2025-01-14 17:57:04.834850	103.3	16.7	-80.7	0.0
2025-01-14 17:57:05.959884	103.1	16.8	-80.6	0.0
2025-01-14 17:57:07.081526	103.0	16.9	-80.5	0.0
2025-01-14 17:57:08.203041	102.8	17.0	-80.9	0.0
2025-01-14 17:57:09.325162	102.6	17.1	-81.1	0.0
2025-01-14 17:57:10.450058	102.5	17.2	-80.8	0.0
2025-01-14 17:57:11.574245	102.3	17.2	-80.9	0.0
2025-01-14 17:57:12.697118	102.1	17.3	-80.9	0.0
2025-01-14 17:57:13.820267	102.0	17.4	-81.2	0.0
2025-01-14 17:57:14.944028	101.8	17.5	-81.2	0.0
2025-01-14 17:57:16.063762	101.6	17.6	-81.1	0.0
2025-01-14 17:57:17.187810	101.5	17.7	-81.1	0.0
2025-01-14 17:57:18.313529	101.3	17.8	-81.2	0.0
2025-01-14 17:57:19.437381	101.1	17.9	-81.2	0.0
2025-01-14 17:57:20.559835	100.9	18.0	-81.3	0.0
2025-01-14 17:57:21.681318	100.8	18.1	-81.2	0.0
2025-01-14 17:57:22.803318	100.6	18.2	-81.2	0.0
2025-01-14 17:57:23.926922	100.4	18.3	-81.7	0.0
2025-01-14 17:57:25.050779	100.2	18.4	-81.6	0.0
2025-01-14 17:57:26.175239	100.0	18.5	-81.1	0.0
2025-01-14 17:57:27.299988	99.8	18.6	-81.4	0.0
2025-01-14 17:57:28.423517	99.7	18.7	-81.2	0.0
2025-01-14 17:57:29.546308	99.5	18.8	-81.3	0.0
2025-01-14 17:57:30.670627	99.3	18.9	-81.5	0.0
2025-01-14 17:57:31.795553	99.1	19.0	-81.4	0.0
2025-01-14 17:57:32.917815	98.9	19.1	-81.3	0.0
2025-01-14 17:57:34.040473	98.7	19.2	-81.2	0.0
2025-01-14 17:57:35.162250	98.5	19.3	-81.4	0.0
2025-01-14 17:57:36.286365	98.3	19.4	-81.2	0.0
2025-01-14 17:57:37.409148	98.1	19.5	-81.4	0.0
2025-01-14 17:57:38.531024	98.0	19.6	-81.5	0.0
2025-01-14 17:57:39.653592	97.8	19.7	-81.0	0.0
2025-01-14 17:57:40.777749	97.6	19.8	-81.3	0.0
2025-01-14 17:57:41.904277	97.4	19.9	-81.0	0.0
2025-01-14 17:57:43.027324	97.2	20.0	-80.7	0.0
2025-01-14 17:57:44.152145	97.0	20.1	-81.1	0.0
2025-01-14 17:57:45.276529	96.8	20.2	-80.9	0.0
2025-01-14 17:57:46.400430	96.5	20.3	-80.8	0.0
2025-01-14 17:57:47.524045	96.3	20.4	-80.9	0.0
2025-01-14 17:57:48.646046	96.1	20.5	-81.1	0.0
2025-01-14 17:57:49.768290	95.9	20.6	-81.4	0.0
2025-01-14 17:57:50.890038	95.7	20.7	-81.2	0.0
2025-01-14 17:57:52.013980	95.5	20.7	-81.3	0.0
2025-01-14 17:57:53.136990	95.3	20.8	-81.5	0.0
2025-01-14 17:57:54.261582	95.1	20.9	-81.4	0.0
2025-01-14 17:57:55.387133	94.9	21.0	-81.3	0.0
2025-01-14 17:57:56.509313	94.7	21.1	-81.5	0.0
2025-01-14 17:57:57.632870	94.4	21.2	-81.3	0.0
2025-01-14 17:57:58.757369	94.2	21.3	-81.3	0.0
2025-01-14 17:57:59.882713	94.0	21.4	-81.2	0.0
2025-01-14 17:58:01.004192	93.8	21.5	-80.6	0.0
2025-01-14 17:58:02.126471	93.5	21.6	-81.2	0.0
2025-01-14 17:58:03.251684	93.3	21.7	-81.5	0.0
2025-01-14 17:58:04.372606	93.1	21.8	-81.3	0.0
2025-01-14 17:58:05.495866	92.9	21.9	-81.5	0.0
2025-01-14 17:58:06.619739	92.6	22.0	-81.2	0.0
2025-01-14 17:58:07.744569	92.4	22.1	-81.3	0.0
2025-01-14 17:58:08.868070	92.2	22.2	-81.2	0.0
2025-01-14 17:58:09.993300	91.9	22.3	-81.6	0.0
2025-01-14 17:58:11.118710	91.7	22.4	-81.6	0.0
2025-01-14 17:58:12.241403	91.5	22.5	-81.1	0.0
2025-01-14 17:58:13.364383	91.2	22.6	-81.2	0.0
2025-01-14 17:58:14.486191	91.0	22.7	-81.2	0.0
2025-01-14 17:58:15.610198	90.8	22.8	-81.0	0.0
2025-01-14 17:58:16.732589	90.5	22.9	-80.7	0.0
2025-01-14 17:58:17.856483	90.3	23.0	-81.1	0.0
2025-01-14 17:58:18.981547	90.0	23.1	-81.2	0.0
2025-01-14 17:58:20.103245	89.8	23.2	-81.3	0.0
2025-01-14 17:58:21.227811	89.5	23.3	-81.2	0.0
2025-01-14 17:58:22.352220	89.3	23.3	-81.4	0.0
2025-01-14 17:58:23.475249	89.0	23.4	-81.2	0.0
2025-01-14 17:58:24.599800	88.8	23.5	-81.1	0.0
2025-01-14 17:58:25.724579	88.5	23.6	-81.2	0.0
2025-01-14 17:58:26.847962	88.3	23.7	-81.2	0.0
2025-01-14 17:58:27.969661	88.0	23.8	-81.3	0.0
2025-01-14 17:58:29.092119	87.8	23.9	-81.5	0.0
2025-01-14 17:58:30.214078	87.5	24.0	-81.2	0.0
2025-01-14 17:58:31.336864	87.2	24.1	-81.4	0.0
2025-01-14 17:58:32.461414	87.0	24.2	-80.9	0.0
2025-01-14 17:58:33.583708	86.7	24.3	-81.4	0.0
2025-01-14 17:58:34.711906	86.4	24.4	-81.2	0.0
2025-01-14 17:58:35.836065	86.2	24.4	-81.1	0.0
2025-01-14 17:58:36.959841	85.9	24.5	-81.2	0.0
2025-01-14 17:58:38.082107	85.6	24.6	-81.1	0.0
2025-01-14 17:58:39.206312	85.4	24.7	-81.3	0.0
2025-01-14 17:58:40.331778	85.1	24.8	-81.2	0.0
2025-01-14 17:58:41.459817	84.8	24.9	-81.1	0.0
2025-01-14 17:58:42.583809	84.5	25.0	-81.5	0.0
2025-01-14 17:58:43.706865	84.3	25.1	-81.3	0.0
2025-01-14 17:58:44.829703	84.0	25.2	-81.4	0.0
2025-01-14 17:58:45.952046	83.7	25.2	-81.0	0.0
2025-01-14 17:58:47.076541	83.4	25.3	-80.9	0.0
2025-01-14 17:58:48.200941	83.1	25.4	-81.3	0.0
2025-01-14 17:58:49.325450	82.8	25.5	-80.9	0.0
2025-01-14 17:58:50.448839	82.6	25.6	-81.1	0.0
2025-01-14 17:58:51.571915	82.3	25.7	-80.9	0.0
2025-01-14 17:58:52.695409	82.0	25.7	-80.9	0.0
2025-01-14 17:58:53.821139	81.7	25.8	-81.2	0.0
2025-01-14 17:58:54.945301	81.4	25.9	-81.4	0.0
2025-01-14 17:58:56.069233	81.1	26.0	-81.4	0.0
2025-01-14 17:58:57.193094	80.8	26.1	-81.1	0.0
2025-01-14 17:58:58.318799	80.5	26.2	-81.4	0.0
2025-01-14 17:58:59.444315	80.2	26.2	-80.9	0.0
2025-01-14 17:59:00.567219	79.9	26.3	-81.1	0.0
2025-01-14 17:59:01.691516	79.6	26.4	-81.2	0.0
2025-01-14 17:59:02.815741	79.3	26.5	-81.2	0.0
2025-01-14 17:59:03.936602	79.0	26.5	-81.4	0.0
2025-01-14 17:59:05.060129	78.7	26.6	-81.1	0.0
2025-01-14 17:59:06.187425	78.4	26.7	-81.2	0.0
2025-01-14 17:59:07.313890	78.1	26.8	-81.3	0.0
2025-01-14 17:59:08.438548	77.8	26.8	-81.2	0.0
2025-01-14 17:59:09.563989	77.4	26.9	-81.0	0.0
2025-01-14 17:59:10.683918	77.1	27.0	-81.3	0.0
2025-01-14 17:59:11.807649	76.8	27.1	-81.0	0.0
2025-01-14 17:59:12.929063	76.5	27.1	-81.0	0.0
2025-01-14 17:59:14.052529	76.2	27.2	-80.9	0.0
2025-01-14 17:59:15.176179	75.9	27.3	-81.1	0.0
2025-01-14 17:59:16.297888	75.5	27.3	-81.1	0.0
2025-01-14 17:59:17.420981	75.2	27.4	-81.0	0.0
2025-01-14 17:59:18.543313	74.9	27.5	-80.9	0.0
2025-01-14 17:59:19.666840	74.6	27.5	-80.6	0.0
2025-01-14 17:59:20.788418	74.2	27.6	-80.4	0.0
2025-01-14 17:59:21.912755	73.9	27.7	-81.1	0.0
2025-01-14 17:59:23.034797	73.6	27.7	-81.2	0.0
2025-01-14 17:59:24.159021	73.3	27.8	-80.7	0.0
2025-01-14 17:59:25.281214	72.9	27.9	-81.2	0.0
2025-01-14 17:59:26.404356	72.6	27.9	-80.7	0.0
2025-01-14 17:59:27.530221	72.3	28.0	-81.1	0.0
2025-01-14 17:59:28.653001	71.9	28.0	-80.8	0.0
2025-01-14 17:59:29.776922	71.6	28.1	-81.1	0.0
2025-01-14 17:59:30.899336	71.2	28.2	-81.2	0.0
2025-01-14 17:59:32.023588	70.9	28.2	-81.0	0.0
2025-01-14 17:59:33.148312	70.6	28.3	-81.0	0.0
2025-01-14 17:59:34.272409	70.2	28.3	-80.9	0.0
2025-01-14 17:59:35.394815	69.9	28.4	-80.9	0.0
2025-01-14 17:59:36.517102	69.5	28.4	-81.1	0.0
2025-01-14 17:59:37.640443	69.2	28.5	-81.0	0.0
2025-01-14 17:59:38.763561	68.8	28.5	-81.1	0.0
2025-01-14 17:59:39.887647	68.5	28.6	-81.0	0.0
2025-01-14 17:59:41.014712	68.1	28.6	-80.7	0.0
2025-01-14 17:59:42.138310	67.8	28.7	-80.8	0.0
2025-01-14 17:59:43.263279	67.4	28.7	-80.7	0.0
2025-01-14 17:59:44.386259	67.1	28.8	-80.4	0.0
2025-01-14 17:59:45.509089	66.7	28.8	-80.4	0.0
2025-01-14 17:59:46.631406	66.4	28.8	-80.4	0.0
2025-01-14 17:59:47.754017	66.0	28.9	-81.0	0.0
2025-01-14 17:59:48.876617	65.7	28.9	-80.5	0.0
2025-01-14 17:59:50.000244	65.3	29.0	-81.1	0.0
2025-01-14 17:59:51.124607	65.0	29.0	-80.9	0.0
2025-01-14 17:59:52.246937	64.6	29.0	-81.1	0.0
2025-01-14 17:59:53.371010	64.3	29.1	-80.9	0.0
2025-01-14 17:59:54.494549	63.9	29.1	-80.5	0.0
2025-01-14 17:59:55.619679	63.5	29.1	-80.5	0.0
2025-01-14 17:59:56.743064	63.2	29.2	-80.9	0.0
2025-01-14 17:59:57.867433	62.8	29.2	-81.0	0.0
2025-01-14 17:59:58.992296	62.5	29.2	-80.9	0.0
2025-01-14 18:00:00.116777	62.1	29.2	-81.1	0.0
2025-01-14 18:00:01.238655	61.7	29.3	-80.8	0.0
2025-01-14 18:00:02.361913	61.4	29.3	-80.3	0.0
2025-01-14 18:00:03.483383	61.0	29.3	-80.7	0.0
2025-01-14 18:00:04.606682	60.6	29.3	-80.7	0.0
2025-01-14 18:00:05.728575	60.3	29.4	-81.0	0.0
2025-01-14 18:00:06.852813	59.9	29.4	-81.0	0.0
2025-01-14 18:00:07.976517	59.5	29.4	-81.1	0.0
2025-01-14 18:00:09.100888	59.2	29.4	-81.1	0.0
2025-01-14 18:00:10.224850	58.8	29.4	-81.1	0.0
2025-01-14 18:00:11.348226	58.4	29.4	-81.1	0.0
2025-01-14 18:00:12.472606	58.1	29.5	-81.0	0.0
2025-01-14 18:00:13.595037	57.7	29.5	-81.2	0.0
2025-01-14 18:00:14.717748	57.3	29.5	-81.1	0.0
2025-01-14 18:00:15.841260	57.0	29.5	-81.3	0.0
2025-01-14 18:00:16.962793	56.6	29.5	-81.3	0.0
2025-01-14 18:00:18.087754	56.2	29.5	-81.3	0.0
2025-01-14 18:00:19.210779	55.9	29.5	-81.5	0.0
2025-01-14 18:00:20.333975	55.5	29.5	-81.6	0.0
2025-01-14 18:00:21.459993	55.1	29.5	-81.5	0.0
2025-01-14 18:00:22.587543	54.8	29.5	-81.4	0.0
2025-01-14 18:00:23.711193	54.4	29.5	-81.3	0.0
2025-01-14 18:00:24.834216	54.0	29.5	-81.3	0.0
2025-01-14 18:00:25.956874	53.7	29.5	-81.4	0.0
2025-01-14 18:00:27.080971	53.3	29.5	-81.6	0.0
2025-01-14 18:00:28.203708	52.9	29.5	-81.5	0.0
2025-01-14 18:00:29.329332	52.6	29.5	-81.4	0.0
2025-01-14 18:00:30.453102	52.2	29.5	-81.2	0.0
2025-01-14 18:00:31.579069	51.8	29.5	-80.9	0.0
2025-01-14 18:00:32.702479	51.5	29.5	-81.1	0.0
2025-01-14 18:00:33.826214	51.1	29.4	-80.9	0.0
2025-01-14 18:00:34.948234	50.7	29.4	-80.8	0.0
2025-01-14 18:00:36.073522	50.4	29.4	-81.3	0.0
2025-01-14 18:00:37.197396	50.0	29.4	-81.3	0.0
2025-01-14 18:00:38.321897	49.6	29.4	-81.5	0.0
2025-01-14 18:00:39.445004	49.3	29.4	-81.1	0.0
2025-01-14 18:00:40.573109	48.9	29.3	-80.9	0.0
2025-01-14 18:00:41.696970	48.5	29.3	-81.2	0.0
2025-01-14 18:00:42.819841	48.2	29.3	-81.2	0.0
2025-01-14 18:00:43.942093	47.8	29.3	-81.5	0.0
2025-01-14 18:00:45.066650	47.4	29.2	-81.4	0.0
2025-01-14 18:00:46.190091	47.1	29.2	-81.4	0.0
2025-01-14 18:00:47.313750	46.7	29.2	-81.3	0.0
2025-01-14 18:00:48.438829	46.4	29.2	-81.3	0.0
2025-01-14 18:00:49.561237	46.0	29.1	-81.6	0.0
2025-01-14 18:00:50.684558	45.6	29.1	-81.7	0.0
2025-01-14 18:00:51.808780	45.3	29.1	-81.1	0.0
2025-01-14 18:00:52.933797	44.9	29.0	-81.1	0.0
2025-01-14 18:00:54.058562	44.6	29.0	-81.5	0.0
2025-01-14 18:00:55.180888	44.2	29.0	-80.9	0.0
2025-01-14 18:00:56.304789	43.8	28.9	-81.2	0.0
2025-01-14 18:00:57.426330	43.5	28.9	-81.0	0.0
2025-01-14 18:00:58.549762	43.1	28.8	-81.0	0.0
2025-01-14 18:00:59.674403	42.8	28.8	-81.5	0.0
2025-01-14 18:01:00.798756	42.4	28.8	-81.1	0.0
2025-01-14 18:01:01.922725	42.1	28.7	-81.1	0.0
2025-01-14 18:01:03.045482	41.7	28.7	-81.3	0.0
2025-01-14 18:01:04.168560	41.4	28.6	-80.8	0.0
2025-01-14 18:01:05.291746	41.0	28.6	-80.9	0.0
2025-01-14 18:01:06.415792	40.7	28.5	-81.1	0.0
2025-01-14 18:01:07.536511	40.3	28.5	-80.7	0.0
2025-01-14 18:01:08.659629	40.0	28.4	-80.8	0.0
2025-01-14 18:01:09.783973	39.7	28.4	-80.7	0.0
2025-01-14 18:01:10.906266	39.3	28.3	-80.5	0.0
2025-01-14 18:01:12.028568	39.0	28.3	-81.3	0.0
2025-01-14 18:01:13.151759	38.6	28.2	-80.8	0.0
2025-01-14 18:01:14.276014	38.3	28.2	-81.3	0.0
2025-01-14 18:01:15.398819	37.9	28.1	-80.8	0.0
2025-01-14 18:01:16.521151	37.6	28.1	-81.0	0.0
2025-01-14 18:01:17.644381	37.3	28.0	-81.0	0.0
2025-01-14 18:01:18.768724	36.9	27.9	-80.9	0.0
2025-01-14 18:01:19.894965	36.6	27.9	-81.0	0.0
2025-01-14 18:01:21.018941	36.3	27.8	-81.1	0.0
2025-01-14 18:01:22.142368	35.9	27.8	-81.1	0.0
2025-01-14 18:01:23.263504	35.6	27.7	-81.1	0.0
2025-01-14 18:01:24.387072	35.3	27.6	-80.9	0.0
2025-01-14 18:01:25.511176	35.0	27.6	-81.0	0.0
2025-01-14 18:01:26.632809	34.6	27.5	-81.1	0.0
2025-01-14 18:01:27.755654	34.3	27.4	-80.6	0.0
2025-01-14 18:01:28.879578	34.0	27.4	-80.7	0.0
2025-01-14 18:01:30.002157	33.7	27.3	-81.0	0.0
2025-01-14 18:01:31.126811	33.3	27.2	-81.3	0.0
2025-01-14 18:01:32.247825	33.0	27.2	-81.3	0.0
2025-01-14 18:01:33.373565	32.7	27.1	-81.5	0.0
2025-01-14 18:01:34.497128	32.4	27.0	-80.9	0.0
2025-01-14 18:01:35.619140	32.1	26.9	-81.2	0.0
2025-01-14 18:01:36.744027	31.8	26.9	-80.8	0.0
2025-01-14 18:01:37.867705	31.5	26.8	-81.3	0.0
2025-01-14 18:01:38.990818	31.1	26.7	-81.1	0.0
2025-01-14 18:01:40.114498	30.8	26.6	-81.0	0.0
2025-01-14 18:01:41.234973	30.5	26.6	-81.5	0.0
2025-01-14 18:01:42.357555	30.2	26.5	-81.3	0.0
2025-01-14 18:01:43.480703	29.9	26.4	-80.0	0.0
2025-01-14 18:01:44.604408	29.6	26.3	-81.0	0.0
2025-01-14 18:01:45.729169	29.3	26.3	-81.0	0.0
2025-01-14 18:01:46.850245	29.0	26.2	-81.1	0.0
2025-01-14 18:01:47.974461	28.7	26.1	-80.9	0.0
2025-01-14 18:01:49.100050	28.4	26.0	-80.6	0.0
2025-01-14 18:01:50.225009	28.1	25.9	-81.0	0.0
2025-01-14 18:01:51.349209	27.8	25.9	-81.0	0.0
2025-01-14 18:01:52.470448	27.5	25.8	-81.1	0.0
2025-01-14 18:01:53.592828	27.3	25.7	-80.7	0.0
2025-01-14 18:01:54.717442	27.0	25.6	-81.4	0.0
2025-01-14 18:01:55.840978	26.7	25.5	-80.4	0.0
2025-01-14 18:01:56.964283	26.4	25.4	-80.3	0.0
2025-01-14 18:01:58.087008	26.1	25.4	-81.2	0.0
2025-01-14 18:01:59.210358	25.8	25.3	-81.5	0.0
2025-01-14 18:02:00.334722	25.5	25.2	-81.1	0.0
2025-01-14 18:02:01.459540	25.3	25.1	-80.6	0.0
2025-01-14 18:02:02.584352	25.0	25.0	-81.2	0.0
2025-01-14 18:02:03.708063	24.7	24.9	-81.0	0.0
2025-01-14 18:02:04.830036	24.4	24.8	-80.7	0.0
2025-01-14 18:02:05.953512	24.2	24.7	-81.5	0.0
2025-01-14 18:02:07.076446	23.9	24.7	-81.4	0.0
2025-01-14 18:02:08.199320	23.6	24.6	-81.7	0.0
2025-01-14 18:02:09.322034	23.3	24.5	-81.5	0.0
2025-01-14 18:02:10.443448	23.1	24.4	-81.5	0.0
2025-01-14 18:02:11.566030	22.8	24.3	-81.6	0.0
2025-01-14 18:02:12.689196	22.5	24.2	-81.1	0.0
2025-01-14 18:02:13.812355	22.3	24.1	-80.7	0.0
2025-01-14 18:02:14.935747	22.0	24.0	-80.9	0.0
2025-01-14 18:02:16.057752	21.8	23.9	-81.0	0.0
2025-01-14 18:02:17.182032	21.5	23.8	-81.4	0.0
2025-01-14 18:02:18.304956	21.2	23.7	-81.2	0.0
2025-01-14 18:02:19.427726	21.0	23.7	-81.5	0.0
2025-01-14 18:02:20.550052	20.7	23.6	-81.3	0.0
2025-01-14 18:02:21.673433	20.5	23.5	-80.8	0.0
2025-01-14 18:02:22.798041	20.2	23.4	-81.2	0.0
2025-01-14 18:02:23.922419	20.0	23.3	-81.3	0.0
2025-01-14 18:02:25.045636	19.7	23.2	-81.1	0.0
2025-01-14 18:02:26.167584	19.5	23.1	-81.2	0.0
2025-01-14 18:02:27.291082	19.2	23.0	-81.6	0.0
2025-01-14 18:02:28.412825	19.0	22.9	-81.2	0.0
2025-01-14 18:02:29.533479	18.8	22.8	-81.3	0.0
2025-01-14 18:02:30.656509	18.5	22.7	-81.3	0.0
2025-01-14 18:02:31.778365	18.3	22.6	-81.2	0.0
2025-01-14 18:02:32.900071	18.0	22.5	-81.3	0.0
2025-01-14 18:02:34.021133	17.8	22.4	-81.4	0.0
2025-01-14 18:02:35.143860	17.6	22.3	-81.1	0.0
2025-01-14 18:02:36.265759	17.3	22.2	-81.3	0.0
2025-01-14 18:02:37.389905	17.1	22.1	-81.3	0.0
2025-01-14 18:02:38.515290	16.9	22.0	-81.4	0.0
2025-01-14 18:02:39.638286	16.7	21.9	-81.1	0.0
2025-01-14 18:02:40.761731	16.4	21.8	-81.7	0.0
2025-01-14 18:02:41.884386	16.2	21.8	-81.5	0.0
2025-01-14 18:02:43.007966	16.0	21.7	-81.6	0.0
2025-01-14 18:02:44.133455	15.8	21.6	-81.5	0.0
2025-01-14 18:02:45.256805	15.5	21.5	-81.2	0.0
2025-01-14 18:02:46.380487	15.3	21.4	-81.2	0.0
2025-01-14 18:02:47.503184	15.1	21.3	-81.0	0.0
2025-01-14 18:02:48.626175	14.9	21.2	-81.1	0.0
2025-01-14 18:02:49.747864	14.7	21.1	-80.9	0.0
2025-01-14 18:02:50.869946	14.4	21.0	-81.4	0.0
2025-01-14 18:02:51.994105	14.2	20.9	-81.3	0.0
2025-01-14 18:02:53.118182	14.0	20.8	-81.2	0.0
2025-01-14 18:02:54.242446	13.8	20.7	-81.0	0.0
2025-01-14 18:02:55.365889	13.6	20.6	-81.0	0.0
2025-01-14 18:02:56.488729	13.4	20.5	-80.9	0.0
2025-01-14 18:02:57.614344	13.2	20.4	-81.1	0.0
2025-01-14 18:02:58.735028	13.0	20.3	-81.3	0.0
2025-01-14 18:02:59.857724	12.8	20.2	-81.0	0.0
2025-01-14 18:03:00.978265	12.6	20.1	-80.9	0.0
2025-01-14 18:03:02.101336	12.4	20.0	-80.9	0.0
2025-01-14 18:03:03.223689	12.2	19.9	-81.2	0.0
2025-01-14 18:03:04.347003	12.0	19.8	-81.2	0.0
2025-01-14 18:03:05.472419	11.8	19.7	-81.2	0.0
2025-01-14 18:03:06.595404	11.6	19.6	-81.2	0.0
2025-01-14 18:03:07.718758	11.4	19.5	-81.0	0.0
2025-01-14 18:03:08.842207	11.2	19.4	-81.2	0.0
2025-01-14 18:03:09.964526	11.0	19.3	-81.0	0.0
2025-01-14 18:03:11.086746	10.8	19.2	-81.3	0.0
2025-01-14 18:03:12.209993	10.6	19.1	-81.2	0.0
2025-01-14 18:03:13.332153	10.4	19.0	-81.1	0.0
2025-01-14 18:03:14.455879	10.2	18.9	-80.8	0.0
2025-01-14 18:03:15.579203	10.0	18.8	-81.0	0.0
2025-01-14 18:03:16.701422	9.9	18.7	-81.1	0.0
2025-01-14 18:03:17.823875	9.7	18.6	-81.1	0.0
2025-01-14 18:03:18.949490	9.5	18.5	-81.5	0.0
2025-01-14 18:03:20.072621	9.3	18.4	-81.4	0.0
2025-01-14 18:03:21.195619	9.1	18.3	-81.6	0.0
2025-01-14 18:03:22.319213	9.0	18.2	-81.4	0.0
2025-01-14 18:03:23.443518	8.8	18.1	-81.4	0.0
2025-01-14 18:03:24.566832	8.6	18.0	-81.2	0.0
2025-01-14 18:03:25.689683	8.4	18.0	-81.5	0.0
2025-01-14 18:03:26.814593	8.2	17.9	-81.4	0.0
2025-01-14 18:03:27.939128	8.1	17.8	-81.2	0.0
2025-01-14 18:03:29.060020	7.9	17.7	-80.9	0.0
2025-01-14 18:03:30.182116	7.7	17.6	-81.3	0.0
2025-01-14 18:03:31.304205	7.6	17.5	-81.1	0.0
2025-01-14 18:03:32.426574	7.4	17.4	-81.4	0.0
2025-01-14 18:03:33.549891	7.2	17.3	-81.2	0.0
2025-01-14 18:03:34.675703	7.1	17.2	-81.3	0.0
2025-01-14 18:03:35.800597	6.9	17.1	-81.5	0.0
2025-01-14 18:03:36.922357	6.7	17.0	-81.4	0.0
2025-01-14 18:03:38.046511	6.6	16.9	-81.7	0.0
2025-01-14 18:03:39.168412	6.4	16.8	-81.7	0.0
2025-01-14 18:03:40.290460	6.2	16.7	-81.3	0.0
2025-01-14 18:03:41.414973	6.1	16.6	-81.5	0.0
2025-01-14 18:03:42.539776	5.9	16.5	-81.7	0.0
2025-01-14 18:03:43.663625	5.8	16.4	-81.0	0.0
2025-01-14 18:03:44.788626	5.6	16.3	-81.3	0.0
2025-01-14 18:03:45.910908	5.4	16.2	-81.7	0.0
2025-01-14 18:03:47.032932	5.3	16.1	-81.5	0.0
2025-01-14 18:03:48.156043	5.1	16.0	-81.4	0.0
2025-01-14 18:03:49.280729	5.0	15.9	-81.6	0.0
2025-01-14 18:03:50.406882	4.8	15.9	-81.6	0.0
2025-01-14 18:03:51.532019	4.7	15.8	-81.6	0.0
2025-01-14 18:03:52.656107	4.5	15.7	-81.6	0.0
2025-01-14 18:03:53.781607	4.4	15.6	-81.3	0.0
2025-01-14 18:03:54.905219	4.2	15.5	-81.4	0.0
2025-01-14 18:03:56.029748	4.1	15.4	-81.6	0.0
2025-01-14 18:03:57.151169	3.9	15.3	-81.7	0.0
2025-01-14 18:03:58.272574	3.8	15.2	-81.4	0.0
2025-01-14 18:03:59.395564	3.6	15.1	-81.5	0.0
2025-01-14 18:04:00.517830	3.5	15.0	-81.4	0.0
2025-01-14 18:04:01.642064	3.3	14.9	-81.6	0.0
2025-01-14 18:04:02.764790	3.2	14.8	-81.3	0.0
2025-01-14 18:04:03.888192	3.1	14.7	-81.5	0.0
2025-01-14 18:04:05.010948	2.9	14.6	-81.5	0.0
2025-01-14 18:04:06.133112	2.8	14.6	-81.3	0.0
2025-01-14 18:04:07.256138	2.6	14.5	-81.3	0.0
2025-01-14 18:04:08.379647	2.5	14.4	-81.7	0.0
2025-01-14 18:04:09.502770	2.4	14.3	-81.7	0.0
2025-01-14 18:04:10.625131	2.2	14.2	-81.3	0.0
2025-01-14 18:04:11.747795	2.1	14.1	-81.2	0.0
2025-01-14 18:04:12.869509	2.0	14.0	-81.5	0.0
2025-01-14 18:04:13.989455	1.8	13.9	-81.2	0.0
2025-01-14 18:04:15.115212	1.7	13.8	-81.4	0.0
2025-01-14 18:04:16.239702	1.6	13.7	-81.2	0.0
2025-01-14 18:04:17.362947	1.4	13.6	-81.6	0.0
2025-01-14 18:04:18.489231	1.3	13.6	-81.7	0.0
2025-01-14 18:04:19.613403	1.2	13.5	-81.6	0.0
2025-01-14 18:04:20.738140	1.0	13.4	-81.5	0.0
2025-01-14 18:04:21.861020	0.9	13.3	-81.3	0.0
2025-01-14 18:04:22.983195	0.8	13.2	-81.6	0.0
2025-01-14 18:04:24.108147	0.7	13.1	-81.6	0.0
2025-01-14 18:04:25.231680	0.5	13.0	-81.8	0.0
2025-01-14 18:04:26.355059	0.4	12.9	-81.7	0.0
2025-01-14 18:04:27.480007	0.3	12.8	-81.6	0.0
2025-01-14 18:04:28.603558	0.2	12.7	-81.3	0.0
2025-01-14 18:04:29.727212	0.0	12.7	-81.1	0.0
2025-01-14 18:04:30.850797	359.9	12.6	-81.2	0.0
2025-01-14 18:04:31.972970	359.8	12.5	-81.2	0.0
2025-01-14 18:04:33.096419	359.7	12.4	-81.1	0.0
2025-01-14 18:04:34.221970	359.5	12.3	-81.3	0.0
2025-01-14 18:04:35.344298	359.4	12.2	-81.4	0.0
2025-01-14 18:04:36.467126	359.3	12.1	-81.4	0.0
2025-01-14 18:04:37.591112	359.2	12.0	-81.4	0.0
2025-01-14 18:04:38.714955	359.1	12.0	-81.6	0.0
2025-01-14 18:04:39.839063	359.0	11.9	-81.4	0.0
2025-01-14 18:04:40.961763	358.8	11.8	-81.3	0.0
2025-01-14 18:04:42.083270	358.7	11.7	-81.0	0.0
2025-01-14 18:04:43.208714	358.6	11.6	-81.3	0.0
2025-01-14 18:04:44.331619	358.5	11.5	-81.6	0.0
2025-01-14 18:04:45.454361	358.4	11.4	-81.3	0.0
2025-01-14 18:04:46.578700	358.3	11.4	-81.7	0.0
2025-01-14 18:04:47.701344	358.2	11.3	-81.2	0.0
2025-01-14 18:04:48.826179	358.1	11.2	-81.6	0.0
2025-01-14 18:04:49.947499	357.9	11.1	-81.3	0.0
2025-01-14 18:04:51.075045	357.8	11.0	-81.2	0.0
2025-01-14 18:04:52.198031	357.7	10.9	-81.3	0.0
2025-01-14 18:04:53.321594	357.6	10.8	-81.4	0.0
2025-01-14 18:04:54.444997	357.5	10.8	-81.6	0.0
2025-01-14 18:04:55.566788	357.4	10.7	-81.5	0.0
2025-01-14 18:04:56.690989	357.3	10.6	-81.5	0.0
2025-01-14 18:04:57.813580	357.2	10.5	-81.1	0.0
2025-01-14 18:04:58.934292	357.1	10.4	-81.7	0.0
2025-01-14 18:05:00.058474	357.0	10.3	-81.5	0.0
2025-01-14 18:05:01.180923	356.9	10.3	-81.6	0.0
2025-01-14 18:05:02.305152	356.8	10.2	-81.8	0.0
2025-01-14 18:05:03.429033	356.7	10.1	-82.0	0.0
2025-01-14 18:05:04.552961	356.6	10.0	-81.4	0.0
#Closed at: 2025-01-14 17:55:35.655862