passes_logs/2025/01/14/planumMaritime01/planumMaritime01__20250114_121906_METEOR-M2_2_rec.log

#Pass ID: 20250114_121906_METEOR-M2 2
#Satellite: METEOR-M2 2
#Configuration: METEOR-M2 2
#Start time: 2025-01-14 12:19:11.857673

#LorettStation: 1.0.0 05.05.2024
#Station: planumMaritime01
#Location: 37.49445 lon 55.92918 lat
#TLE: 1 44387U 19038A   25013.94389374  .00000226  00000+0  11773-3 0  9996
#TLE: 2 44387  98.8563 350.3347 0002292  80.4075 279.7362 14.24116310287388

#Time	Az	El	Level	SNR
2025-01-14 12:19:14.021651	161.4	10.2	-80.1	0.0
2025-01-14 12:19:15.147148	161.4	10.3	-79.9	0.0
2025-01-14 12:19:16.273509	161.4	10.4	-80.2	0.0
2025-01-14 12:19:17.401925	161.4	10.5	-79.9	0.0
2025-01-14 12:19:18.527318	161.4	10.6	-79.7	0.0
2025-01-14 12:19:19.654638	161.4	10.7	-80.2	0.0
2025-01-14 12:19:20.782881	161.4	10.8	-80.0	0.0
2025-01-14 12:19:21.910016	161.4	10.9	-80.1	0.0
2025-01-14 12:19:23.038139	161.4	11.0	-79.9	0.0
2025-01-14 12:19:24.163966	161.4	11.1	-80.3	0.0
2025-01-14 12:19:25.290632	161.4	11.2	-80.1	0.0
2025-01-14 12:19:26.418388	161.4	11.3	-80.3	0.0
2025-01-14 12:19:27.543483	161.4	11.4	-80.1	0.0
2025-01-14 12:19:28.670474	161.4	11.5	-80.3	0.0
2025-01-14 12:19:29.794910	161.4	11.6	-80.3	0.0
2025-01-14 12:19:30.922153	161.4	11.7	-80.1	0.0
2025-01-14 12:19:32.048576	161.4	11.8	-79.9	0.0
2025-01-14 12:19:33.175504	161.5	12.0	-80.2	0.0
2025-01-14 12:19:34.303959	161.5	12.1	-79.7	0.0
2025-01-14 12:19:35.433740	161.5	12.2	-80.0	0.0
2025-01-14 12:19:36.561392	161.5	12.3	-80.2	0.0
2025-01-14 12:19:37.688347	161.5	12.4	-80.4	0.0
2025-01-14 12:19:38.816535	161.5	12.5	-80.3	0.0
2025-01-14 12:19:39.943191	161.5	12.6	-80.5	0.0
2025-01-14 12:19:41.068040	161.5	12.7	-80.3	0.0
2025-01-14 12:19:42.193541	161.5	12.8	-80.3	0.0
2025-01-14 12:19:43.317108	161.5	12.9	-80.0	0.0
2025-01-14 12:19:44.443374	161.5	13.1	-80.5	0.0
2025-01-14 12:19:45.568931	161.5	13.2	-80.4	0.0
2025-01-14 12:19:46.695265	161.5	13.3	-80.7	0.0
2025-01-14 12:19:47.823003	161.5	13.4	-80.5	0.0
2025-01-14 12:19:48.949696	161.5	13.5	-80.8	0.0
2025-01-14 12:19:50.077097	161.5	13.6	-80.5	0.0
2025-01-14 12:19:51.203882	161.5	13.7	-80.6	0.0
2025-01-14 12:19:52.329810	161.5	13.9	-80.4	0.0
2025-01-14 12:19:53.457178	161.5	14.0	-80.4	0.0
2025-01-14 12:19:54.583342	161.5	14.1	-80.4	0.0
2025-01-14 12:19:55.709804	161.5	14.2	-80.5	0.0
2025-01-14 12:19:56.838456	161.6	14.3	-80.4	0.0
2025-01-14 12:19:57.965856	161.6	14.4	-80.4	0.0
2025-01-14 12:19:59.093128	161.6	14.6	-80.6	0.0
2025-01-14 12:20:00.219623	161.6	14.7	-80.6	0.0
2025-01-14 12:20:01.346632	161.6	14.8	-80.3	0.0
2025-01-14 12:20:02.472110	161.6	14.9	-80.2	0.0
2025-01-14 12:20:03.598598	161.6	15.1	-79.9	0.0
2025-01-14 12:20:04.724713	161.6	15.2	-80.3	0.0
2025-01-14 12:20:05.851123	161.6	15.3	-80.1	0.0
2025-01-14 12:20:06.977486	161.6	15.4	-80.4	0.0
2025-01-14 12:20:08.103325	161.6	15.5	-80.4	0.0
2025-01-14 12:20:09.231029	161.6	15.7	-80.5	0.0
2025-01-14 12:20:10.356632	161.6	15.8	-80.2	0.0
2025-01-14 12:20:11.483076	161.6	15.9	-80.3	0.0
2025-01-14 12:20:12.609742	161.6	16.0	-80.5	0.0
2025-01-14 12:20:13.735232	161.6	16.2	-80.5	0.0
2025-01-14 12:20:14.861545	161.6	16.3	-80.6	0.0
2025-01-14 12:20:15.988805	161.6	16.4	-80.5	0.0
2025-01-14 12:20:17.115686	161.6	16.6	-80.5	0.0
2025-01-14 12:20:18.241201	161.6	16.7	-80.2	0.0
2025-01-14 12:20:19.367505	161.7	16.8	-80.7	0.0
2025-01-14 12:20:20.494652	161.7	17.0	-80.9	0.0
2025-01-14 12:20:21.623050	161.7	17.1	-80.6	0.0
2025-01-14 12:20:22.750099	161.7	17.2	-80.5	0.0
2025-01-14 12:20:23.874890	161.7	17.4	-80.6	0.0
2025-01-14 12:20:24.999838	161.7	17.5	-81.0	0.0
2025-01-14 12:20:26.124693	161.7	17.6	-80.6	0.0
2025-01-14 12:20:27.252731	161.7	17.8	-80.9	0.0
2025-01-14 12:20:28.379928	161.7	17.9	-80.8	0.0
2025-01-14 12:20:29.504186	161.7	18.0	-80.4	0.0
2025-01-14 12:20:30.630095	161.7	18.2	-80.9	0.0
2025-01-14 12:20:31.756106	161.7	18.3	-80.9	0.0
2025-01-14 12:20:32.884184	161.7	18.5	-80.9	0.0
2025-01-14 12:20:34.009854	161.7	18.6	-81.0	0.0
2025-01-14 12:20:35.135174	161.7	18.7	-80.7	0.0
2025-01-14 12:20:36.259853	161.7	18.9	-80.7	0.0
2025-01-14 12:20:37.385669	161.7	19.0	-80.8	0.0
2025-01-14 12:20:38.512025	161.7	19.2	-80.8	0.0
2025-01-14 12:20:39.637261	161.7	19.3	-80.2	0.0
2025-01-14 12:20:40.762863	161.8	19.5	-80.7	0.0
2025-01-14 12:20:41.889717	161.8	19.6	-80.8	0.0
2025-01-14 12:20:43.013415	161.8	19.8	-80.2	0.0
2025-01-14 12:20:44.141008	161.8	19.9	-80.5	0.0
2025-01-14 12:20:45.268955	161.8	20.1	-80.3	0.0
2025-01-14 12:20:46.393530	161.8	20.2	-80.7	0.0
2025-01-14 12:20:47.518313	161.8	20.4	-80.7	0.0
2025-01-14 12:20:48.643557	161.8	20.5	-80.6	0.0
2025-01-14 12:20:49.767430	161.8	20.7	-80.6	0.0
2025-01-14 12:20:50.895563	161.8	20.8	-80.6	0.0
2025-01-14 12:20:52.021973	161.8	21.0	-80.7	0.0
2025-01-14 12:20:53.148987	161.8	21.1	-80.9	0.0
2025-01-14 12:20:54.274214	161.8	21.3	-80.7	0.0
2025-01-14 12:20:55.399904	161.8	21.5	-80.9	0.0
2025-01-14 12:20:56.525378	161.8	21.6	-80.6	0.0
2025-01-14 12:20:57.650125	161.8	21.8	-80.8	0.0
2025-01-14 12:20:58.776447	161.8	21.9	-80.8	0.0
2025-01-14 12:20:59.901221	161.9	22.1	-80.7	0.0
2025-01-14 12:21:01.029869	161.9	22.3	-80.6	0.0
2025-01-14 12:21:02.157509	161.9	22.4	-80.6	0.0
2025-01-14 12:21:03.283203	161.9	22.6	-80.6	0.0
2025-01-14 12:21:04.409868	161.9	22.8	-81.0	0.0
2025-01-14 12:21:05.534924	161.9	22.9	-80.1	0.0
2025-01-14 12:21:06.660167	161.9	23.1	-80.7	0.0
2025-01-14 12:21:07.785514	161.9	23.3	-80.5	0.0
2025-01-14 12:21:08.911599	161.9	23.4	-80.7	0.0
2025-01-14 12:21:10.037945	161.9	23.6	-81.0	0.0
2025-01-14 12:21:11.164343	161.9	23.8	-80.9	0.0
2025-01-14 12:21:12.291201	161.9	24.0	-80.8	0.0
2025-01-14 12:21:13.417952	161.9	24.1	-80.8	0.0
2025-01-14 12:21:14.543522	161.9	24.3	-80.6	0.0
2025-01-14 12:21:15.669972	161.9	24.5	-80.7	0.0
2025-01-14 12:21:16.795555	161.9	24.7	-80.7	0.0
2025-01-14 12:21:17.920853	162.0	24.9	-80.4	0.0
2025-01-14 12:21:19.048681	162.0	25.0	-80.5	0.0
2025-01-14 12:21:20.176394	162.0	25.2	-80.4	0.0
2025-01-14 12:21:21.301252	162.0	25.4	-80.4	0.0
2025-01-14 12:21:22.427554	162.0	25.6	-80.4	0.0
2025-01-14 12:21:23.552739	162.0	25.8	-80.8	0.0
2025-01-14 12:21:24.679862	162.0	26.0	-80.5	0.0
2025-01-14 12:21:25.804183	162.0	26.2	-80.6	0.0
2025-01-14 12:21:26.931520	162.0	26.3	-80.3	0.0
2025-01-14 12:21:28.059307	162.0	26.5	-80.5	0.0
2025-01-14 12:21:29.185848	162.0	26.7	-80.4	0.0
2025-01-14 12:21:30.315280	162.0	26.9	-80.9	0.0
2025-01-14 12:21:31.442701	162.0	27.1	-80.8	0.0
2025-01-14 12:21:32.572311	162.0	27.3	-80.6	0.0
2025-01-14 12:21:33.700753	162.0	27.5	-80.5	0.0
2025-01-14 12:21:34.828256	162.1	27.7	-80.8	0.0
2025-01-14 12:21:35.954335	162.1	27.9	-80.5	0.0
2025-01-14 12:21:37.080954	162.1	28.1	-80.4	0.0
2025-01-14 12:21:38.206865	162.1	28.3	-81.0	0.0
2025-01-14 12:21:39.335041	162.1	28.6	-80.8	0.0
2025-01-14 12:21:40.462734	162.1	28.8	-80.5	0.0
2025-01-14 12:21:41.587196	162.1	29.0	-80.8	0.0
2025-01-14 12:21:42.712174	162.1	29.2	-80.9	0.0
2025-01-14 12:21:43.837961	162.1	29.4	-80.7	0.0
2025-01-14 12:21:44.967435	162.1	29.6	-81.1	0.0
2025-01-14 12:21:46.094492	162.1	29.8	-80.6	0.0
2025-01-14 12:21:47.220436	162.1	30.1	-80.8	0.0
2025-01-14 12:21:48.344429	162.1	30.3	-80.4	0.0
2025-01-14 12:21:49.470977	162.1	30.5	-80.7	0.0
2025-01-14 12:21:50.596412	162.2	30.7	-80.9	0.0
2025-01-14 12:21:51.722532	162.2	31.0	-81.0	0.0
2025-01-14 12:21:52.849937	162.2	31.2	-80.8	0.0
2025-01-14 12:21:53.976551	162.2	31.4	-80.9	0.0
2025-01-14 12:21:55.103611	162.2	31.6	-80.8	0.0
2025-01-14 12:21:56.228503	162.2	31.9	-80.8	0.0
2025-01-14 12:21:57.352873	162.2	32.1	-81.1	0.0
2025-01-14 12:21:58.478824	162.2	32.3	-80.6	0.0
2025-01-14 12:21:59.606649	162.2	32.6	-80.6	0.0
2025-01-14 12:22:00.732710	162.2	32.8	-80.6	0.0
2025-01-14 12:22:01.860516	162.2	33.1	-81.0	0.0
2025-01-14 12:22:02.992130	162.2	33.3	-80.7	0.0
2025-01-14 12:22:04.119240	162.3	33.6	-81.0	0.0
2025-01-14 12:22:05.244764	162.3	33.8	-81.1	0.0
2025-01-14 12:22:06.371137	162.3	34.1	-80.9	0.0
2025-01-14 12:22:07.498006	162.3	34.3	-81.1	0.0
2025-01-14 12:22:08.625107	162.3	34.6	-81.0	0.0
2025-01-14 12:22:09.750774	162.3	34.8	-81.0	0.0
2025-01-14 12:22:10.877258	162.3	35.1	-80.9	0.0
2025-01-14 12:22:12.002920	162.3	35.4	-80.9	0.0
2025-01-14 12:22:13.131718	162.3	35.6	-81.0	0.0
2025-01-14 12:22:14.256851	162.3	35.9	-81.3	0.0
2025-01-14 12:22:15.384800	162.3	36.1	-80.9	0.0
2025-01-14 12:22:16.511363	162.4	36.4	-81.1	0.0
2025-01-14 12:22:17.637416	162.4	36.7	-81.1	0.0
2025-01-14 12:22:18.764553	162.4	37.0	-81.0	0.0
2025-01-14 12:22:19.891406	162.4	37.2	-81.3	0.0
2025-01-14 12:22:21.019002	162.4	37.5	-81.1	0.0
2025-01-14 12:22:22.148333	162.4	37.8	-81.2	0.0
2025-01-14 12:22:23.275858	162.4	38.1	-81.1	0.0
2025-01-14 12:22:24.401112	162.4	38.4	-81.2	0.0
2025-01-14 12:22:25.526172	162.4	38.7	-81.0	0.0
2025-01-14 12:22:26.652273	162.4	39.0	-81.1	0.0
2025-01-14 12:22:27.777736	162.5	39.3	-81.1	0.0
2025-01-14 12:22:28.904175	162.5	39.6	-81.0	0.0
2025-01-14 12:22:30.030711	162.5	39.9	-80.8	0.0
2025-01-14 12:22:31.156443	162.5	40.2	-80.9	0.0
2025-01-14 12:22:32.282276	162.5	40.5	-80.9	0.0
2025-01-14 12:22:33.408776	162.5	40.8	-80.7	0.0
2025-01-14 12:22:34.534574	162.5	41.1	-81.0	0.0
2025-01-14 12:22:35.661679	162.5	41.4	-81.0	0.0
2025-01-14 12:22:36.789496	162.5	41.7	-81.2	0.0
2025-01-14 12:22:37.915494	162.6	42.0	-80.9	0.0
2025-01-14 12:22:39.044816	162.6	42.3	-81.0	0.0
2025-01-14 12:22:40.171155	162.6	42.7	-81.0	0.0
2025-01-14 12:22:41.297715	162.6	43.0	-80.9	0.0
2025-01-14 12:22:42.425679	162.6	43.3	-81.2	0.0
2025-01-14 12:22:43.552095	162.6	43.7	-80.9	0.0
2025-01-14 12:22:44.677788	162.6	44.0	-80.9	0.0
2025-01-14 12:22:45.803764	162.6	44.3	-81.0	0.0
2025-01-14 12:22:46.933145	162.7	44.7	-81.1	0.0
2025-01-14 12:22:48.059585	162.7	45.0	-81.4	0.0
2025-01-14 12:22:49.186000	162.7	45.4	-80.7	0.0
2025-01-14 12:22:50.312841	162.7	45.7	-80.5	0.0
2025-01-14 12:22:51.439244	162.7	46.1	-81.0	0.0
2025-01-14 12:22:52.565303	162.7	46.4	-80.7	0.0
2025-01-14 12:22:53.692365	162.7	46.8	-80.7	0.0
2025-01-14 12:22:54.820126	162.8	47.2	-80.6	0.0
2025-01-14 12:22:55.948798	162.8	47.5	-81.2	0.0
2025-01-14 12:22:57.075045	162.8	47.9	-81.3	0.0
2025-01-14 12:22:58.203832	162.8	48.3	-80.9	0.0
2025-01-14 12:22:59.332360	162.8	48.6	-81.1	0.0
2025-01-14 12:23:00.459245	162.8	49.0	-81.1	0.0
2025-01-14 12:23:01.584941	162.9	49.4	-80.9	0.0
2025-01-14 12:23:02.713203	162.9	49.8	-80.9	0.0
2025-01-14 12:23:03.838624	162.9	50.2	-81.1	0.0
2025-01-14 12:23:04.965978	162.9	50.6	-81.2	0.0
2025-01-14 12:23:06.092124	162.9	51.0	-81.2	0.0
2025-01-14 12:23:07.219718	162.9	51.4	-80.7	0.0
2025-01-14 12:23:08.345993	163.0	51.8	-80.7	0.0
2025-01-14 12:23:09.471573	163.0	52.2	-81.0	0.0
2025-01-14 12:23:10.597444	163.0	52.6	-80.6	0.0
2025-01-14 12:23:11.725334	163.0	53.0	-80.7	0.0
2025-01-14 12:23:12.853392	163.0	53.4	-80.9	0.0
2025-01-14 12:23:13.980587	163.1	53.8	-80.8	0.0
2025-01-14 12:23:15.108073	163.1	54.3	-80.4	0.0
2025-01-14 12:23:16.235318	163.1	54.7	-80.7	0.0
2025-01-14 12:23:17.364586	163.1	55.1	-80.5	0.0
2025-01-14 12:23:18.491021	163.2	55.6	-80.7	0.0
2025-01-14 12:23:19.620199	163.2	56.0	-80.6	0.0
2025-01-14 12:23:20.745787	163.2	56.4	-81.1	0.0
2025-01-14 12:23:21.872206	163.2	56.9	-81.1	0.0
2025-01-14 12:23:22.999932	163.3	57.3	-80.8	0.0
2025-01-14 12:23:24.125969	163.3	57.8	-81.0	0.0
2025-01-14 12:23:25.252797	163.3	58.2	-81.2	0.0
2025-01-14 12:23:26.379750	163.3	58.7	-80.9	0.0
2025-01-14 12:23:27.506724	163.4	59.2	-81.3	0.0
2025-01-14 12:23:28.634767	163.4	59.6	-81.1	0.0
2025-01-14 12:23:29.762134	163.4	60.1	-81.2	0.0
2025-01-14 12:23:30.889281	163.5	60.6	-81.1	0.0
2025-01-14 12:23:32.017014	163.5	61.0	-81.2	0.0
2025-01-14 12:23:33.143608	163.5	61.5	-81.1	0.0
2025-01-14 12:23:34.272285	163.6	62.0	-81.4	0.0
2025-01-14 12:23:35.397070	163.6	62.5	-81.1	0.0
2025-01-14 12:23:36.524793	163.6	63.0	-81.1	0.0
2025-01-14 12:23:37.651149	163.7	63.5	-81.1	0.0
2025-01-14 12:23:38.777884	163.7	64.0	-81.0	0.0
2025-01-14 12:23:39.904110	163.8	64.5	-81.1	0.0
2025-01-14 12:23:41.031295	163.8	65.0	-80.7	0.0
2025-01-14 12:23:42.156821	163.9	65.5	-81.1	0.0
2025-01-14 12:23:43.281180	163.9	66.0	-80.8	0.0
2025-01-14 12:23:44.407553	164.0	66.5	-80.9	0.0
2025-01-14 12:23:45.534779	164.0	67.0	-80.9	0.0
2025-01-14 12:23:46.661258	164.1	67.5	-81.0	0.0
2025-01-14 12:23:47.788574	164.1	68.1	-81.2	0.0
2025-01-14 12:23:48.914896	164.2	68.6	-80.7	0.0
2025-01-14 12:23:50.041556	164.3	69.1	-80.8	0.0
2025-01-14 12:23:51.165990	164.3	69.6	-80.9	0.0
2025-01-14 12:23:52.292835	164.4	70.2	-80.9	0.0
2025-01-14 12:23:53.418322	164.5	70.7	-80.9	0.0
2025-01-14 12:23:54.545144	164.6	71.3	-81.2	0.0
2025-01-14 12:23:55.674567	164.6	71.8	-81.0	0.0
2025-01-14 12:23:56.802758	164.7	72.4	-80.9	0.0
2025-01-14 12:23:57.927511	164.8	72.9	-81.1	0.0
2025-01-14 12:23:59.053973	164.9	73.5	-81.3	0.0
2025-01-14 12:24:00.180224	165.0	74.0	-80.9	0.0
2025-01-14 12:24:01.306775	165.2	74.6	-81.1	0.0
2025-01-14 12:24:02.433160	165.3	75.1	-81.1	0.0
2025-01-14 12:24:03.559525	165.4	75.7	-81.3	0.0
2025-01-14 12:24:04.685521	165.6	76.3	-81.0	0.0
2025-01-14 12:24:05.813250	165.7	76.8	-81.2	0.0
2025-01-14 12:24:06.940639	165.9	77.4	-81.3	0.0
2025-01-14 12:24:08.064889	166.1	78.0	-81.0	0.0
2025-01-14 12:24:09.191938	166.3	78.5	-81.1	0.0
2025-01-14 12:24:10.316790	166.6	79.1	-81.3	0.0
2025-01-14 12:24:11.444309	166.8	79.7	-81.4	0.0
2025-01-14 12:24:12.571101	167.1	80.3	-81.3	0.0
2025-01-14 12:24:13.697302	167.4	80.8	-81.3	0.0
2025-01-14 12:24:14.825614	167.8	81.4	-80.9	0.0
2025-01-14 12:24:15.952108	168.3	82.0	-81.2	0.0
2025-01-14 12:24:17.077436	168.7	82.6	-81.1	0.0
2025-01-14 12:24:18.202317	169.3	83.2	-80.9	0.0
2025-01-14 12:24:19.330574	170.0	83.7	-80.9	0.0
2025-01-14 12:24:20.457909	170.9	84.3	-81.0	0.0
2025-01-14 12:24:21.586725	171.9	84.9	-80.6	0.0
2025-01-14 12:24:22.713217	173.2	85.5	-80.6	0.0
2025-01-14 12:24:23.840383	174.8	86.1	-80.8	0.0
2025-01-14 12:24:24.965254	177.1	86.6	-80.7	0.0
2025-01-14 12:24:26.090299	180.2	87.2	-80.5	0.0
2025-01-14 12:24:27.217032	185.0	87.8	-81.0	0.0
2025-01-14 12:24:28.344017	192.7	88.3	-80.8	0.0
2025-01-14 12:24:29.470308	207.0	88.8	-80.9	0.0
2025-01-14 12:24:30.596793	234.3	89.1	-81.2	0.0
2025-01-14 12:24:31.724931	272.1	89.1	-80.7	0.0
2025-01-14 12:24:32.851407	298.4	88.7	-80.9	0.0
2025-01-14 12:24:33.978437	312.1	88.3	-81.0	0.0
2025-01-14 12:24:35.104751	319.6	87.7	-81.1	0.0
2025-01-14 12:24:36.233256	324.2	87.2	-81.0	0.0
2025-01-14 12:24:37.361724	327.3	86.6	-80.9	0.0
2025-01-14 12:24:38.488194	329.5	86.0	-80.9	0.0
2025-01-14 12:24:39.613887	331.1	85.5	-81.0	0.0
2025-01-14 12:24:40.740312	332.4	84.9	-81.1	0.0
2025-01-14 12:24:41.865549	333.4	84.3	-81.1	0.0
2025-01-14 12:24:42.994039	334.2	83.7	-80.6	0.0
2025-01-14 12:24:44.118486	334.9	83.1	-80.9	0.0
2025-01-14 12:24:45.244463	335.5	82.5	-80.9	0.0
2025-01-14 12:24:46.371263	336.0	82.0	-80.6	0.0
2025-01-14 12:24:47.496550	336.4	81.4	-81.0	0.0
2025-01-14 12:24:48.623599	336.8	80.8	-81.2	0.0
2025-01-14 12:24:49.750974	337.1	80.2	-81.0	0.0
2025-01-14 12:24:50.874978	337.4	79.7	-81.1	0.0
2025-01-14 12:24:51.998807	337.7	79.1	-81.1	0.0
2025-01-14 12:24:53.123749	337.9	78.5	-81.2	0.0
2025-01-14 12:24:54.252025	338.1	77.9	-80.7	0.0
2025-01-14 12:24:55.379168	338.3	77.4	-81.0	0.0
2025-01-14 12:24:56.506344	338.5	76.8	-81.0	0.0
2025-01-14 12:24:57.632839	338.6	76.2	-81.1	0.0
2025-01-14 12:24:58.758024	338.8	75.7	-80.9	0.0
2025-01-14 12:24:59.884315	338.9	75.1	-81.0	0.0
2025-01-14 12:25:01.009554	339.1	74.6	-81.1	0.0
2025-01-14 12:25:02.135160	339.2	74.0	-81.1	0.0
2025-01-14 12:25:03.260057	339.3	73.4	-81.2	0.0
2025-01-14 12:25:04.385798	339.4	72.9	-80.7	0.0
2025-01-14 12:25:05.513385	339.5	72.3	-81.1	0.0
2025-01-14 12:25:06.639339	339.6	71.8	-81.5	0.0
2025-01-14 12:25:07.763145	339.7	71.3	-81.1	0.0
2025-01-14 12:25:08.887795	339.7	70.7	-81.2	0.0
2025-01-14 12:25:10.013639	339.8	70.2	-81.0	0.0
2025-01-14 12:25:11.139690	339.9	69.6	-81.1	0.0
2025-01-14 12:25:12.265874	340.0	69.1	-81.1	0.0
2025-01-14 12:25:13.389123	340.0	68.6	-81.3	0.0
2025-01-14 12:25:14.515789	340.1	68.1	-81.0	0.0
2025-01-14 12:25:15.641766	340.1	67.5	-81.2	0.0
2025-01-14 12:25:16.768015	340.2	67.0	-81.1	0.0
2025-01-14 12:25:17.895120	340.3	66.5	-81.0	0.0
2025-01-14 12:25:19.021899	340.3	66.0	-81.2	0.0
2025-01-14 12:25:20.148051	340.4	65.5	-81.3	0.0
2025-01-14 12:25:21.273231	340.4	65.0	-81.2	0.0
2025-01-14 12:25:22.401159	340.4	64.5	-81.3	0.0
2025-01-14 12:25:23.528667	340.5	64.0	-81.0	0.0
2025-01-14 12:25:24.655420	340.5	63.5	-81.3	0.0
2025-01-14 12:25:25.781830	340.6	63.0	-81.1	0.0
2025-01-14 12:25:26.907001	340.6	62.5	-81.3	0.0
2025-01-14 12:25:28.033811	340.6	62.0	-81.2	0.0
2025-01-14 12:25:29.160000	340.7	61.5	-81.3	0.0
2025-01-14 12:25:30.287381	340.7	61.1	-81.2	0.0
2025-01-14 12:25:31.411628	340.8	60.6	-80.9	0.0
2025-01-14 12:25:32.537259	340.8	60.1	-81.1	0.0
2025-01-14 12:25:33.662940	340.8	59.6	-81.4	0.0
2025-01-14 12:25:34.789873	340.8	59.2	-81.2	0.0
2025-01-14 12:25:35.916153	340.9	58.7	-81.2	0.0
2025-01-14 12:25:37.041808	340.9	58.3	-81.3	0.0
2025-01-14 12:25:38.167804	340.9	57.8	-81.3	0.0
2025-01-14 12:25:39.292167	341.0	57.4	-81.1	0.0
2025-01-14 12:25:40.418864	341.0	56.9	-81.0	0.0
2025-01-14 12:25:41.546215	341.0	56.5	-81.2	0.0
2025-01-14 12:25:42.672265	341.0	56.0	-81.1	0.0
2025-01-14 12:25:43.799304	341.1	55.6	-81.1	0.0
2025-01-14 12:25:44.925761	341.1	55.2	-81.3	0.0
2025-01-14 12:25:46.051053	341.1	54.7	-81.4	0.0
2025-01-14 12:25:47.178515	341.1	54.3	-81.3	0.0
2025-01-14 12:25:48.305915	341.2	53.9	-81.3	0.0
2025-01-14 12:25:49.431497	341.2	53.5	-81.4	0.0
2025-01-14 12:25:50.557743	341.2	53.1	-81.0	0.0
2025-01-14 12:25:51.685476	341.2	52.6	-81.4	0.0
2025-01-14 12:25:52.810428	341.2	52.2	-81.5	0.0
2025-01-14 12:25:53.936845	341.3	51.8	-81.5	0.0
2025-01-14 12:25:55.064616	341.3	51.4	-81.1	0.0
2025-01-14 12:25:56.192215	341.3	51.0	-81.3	0.0
2025-01-14 12:25:57.316525	341.3	50.6	-81.2	0.0
2025-01-14 12:25:58.440246	341.3	50.2	-81.4	0.0
2025-01-14 12:25:59.565844	341.4	49.9	-81.2	0.0
2025-01-14 12:26:00.694255	341.4	49.5	-81.3	0.0
2025-01-14 12:26:01.819198	341.4	49.1	-81.5	0.0
2025-01-14 12:26:02.945232	341.4	48.7	-81.4	0.0
2025-01-14 12:26:04.071316	341.4	48.3	-81.3	0.0
2025-01-14 12:26:05.196778	341.4	48.0	-81.0	0.0
2025-01-14 12:26:06.322657	341.5	47.6	-81.3	0.0
2025-01-14 12:26:07.448494	341.5	47.2	-81.3	0.0
2025-01-14 12:26:08.574656	341.5	46.9	-81.0	0.0
2025-01-14 12:26:09.700737	341.5	46.5	-81.1	0.0
2025-01-14 12:26:10.825588	341.5	46.2	-81.0	0.0
2025-01-14 12:26:11.952427	341.5	45.8	-81.1	0.0
2025-01-14 12:26:13.079353	341.5	45.5	-81.1	0.0
2025-01-14 12:26:14.204679	341.6	45.1	-81.5	0.0
2025-01-14 12:26:15.331340	341.6	44.8	-81.2	0.0
2025-01-14 12:26:16.457345	341.6	44.4	-81.2	0.0
2025-01-14 12:26:17.584308	341.6	44.1	-81.2	0.0
2025-01-14 12:26:18.711074	341.6	43.8	-81.0	0.0
2025-01-14 12:26:19.837877	341.6	43.4	-80.5	0.0
2025-01-14 12:26:20.962671	341.6	43.1	-81.2	0.0
2025-01-14 12:26:22.089140	341.7	42.8	-81.4	0.0
2025-01-14 12:26:23.214798	341.7	42.5	-79.7	0.0
2025-01-14 12:26:24.342942	341.7	42.1	-80.8	0.0
2025-01-14 12:26:25.470735	341.7	41.8	-81.2	0.0
2025-01-14 12:26:26.598163	341.7	41.5	-81.1	0.0
2025-01-14 12:26:27.724798	341.7	41.2	-81.6	0.0
2025-01-14 12:26:28.851082	341.7	40.9	-81.4	0.0
2025-01-14 12:26:29.976980	341.7	40.6	-81.5	0.0
2025-01-14 12:26:31.103913	341.7	40.3	-81.5	0.0
2025-01-14 12:26:32.230002	341.8	40.0	-81.4	0.0
2025-01-14 12:26:33.357004	341.8	39.7	-81.3	0.0
2025-01-14 12:26:34.481448	341.8	39.4	-81.2	0.0
2025-01-14 12:26:35.607981	341.8	39.1	-80.9	0.0
2025-01-14 12:26:36.733692	341.8	38.8	-80.8	0.0
2025-01-14 12:26:37.860094	341.8	38.5	-81.3	0.0
2025-01-14 12:26:38.984755	341.8	38.2	-81.3	0.0
2025-01-14 12:26:40.110776	341.8	37.9	-81.1	0.0
2025-01-14 12:26:41.234674	341.8	37.6	-81.3	0.0
2025-01-14 12:26:42.360591	341.9	37.4	-81.3	0.0
2025-01-14 12:26:43.486141	341.9	37.1	-81.2	0.0
2025-01-14 12:26:44.611399	341.9	36.8	-80.8	0.0
2025-01-14 12:26:45.739153	341.9	36.5	-80.8	0.0
2025-01-14 12:26:46.865871	341.9	36.3	-81.2	0.0
2025-01-14 12:26:48.297649	341.9	35.9	-81.2	0.0
2025-01-14 12:26:49.424611	341.9	35.7	-80.9	0.0
2025-01-14 12:26:50.550427	341.9	35.4	-81.1	0.0
2025-01-14 12:26:51.676533	341.9	35.1	-80.9	0.0
2025-01-14 12:26:52.801122	341.9	34.9	-81.1	0.0
2025-01-14 12:26:53.927291	342.0	34.6	-80.8	0.0
2025-01-14 12:26:55.051931	342.0	34.4	-81.0	0.0
2025-01-14 12:26:56.176537	342.0	34.1	-81.5	0.0
2025-01-14 12:26:57.303721	342.0	33.9	-81.2	0.0
2025-01-14 12:26:58.429919	342.0	33.6	-81.4	0.0
2025-01-14 12:26:59.555520	342.0	33.4	-81.3	0.0
2025-01-14 12:27:00.682339	342.0	33.1	-81.5	0.0
2025-01-14 12:27:01.806693	342.0	32.9	-81.2	0.0
2025-01-14 12:27:02.932997	342.0	32.7	-81.3	0.0
2025-01-14 12:27:04.059278	342.0	32.4	-81.2	0.0
2025-01-14 12:27:05.185607	342.0	32.2	-81.6	0.0
2025-01-14 12:27:06.310610	342.1	32.0	-81.4	0.0
2025-01-14 12:27:07.436061	342.1	31.7	-81.4	0.0
2025-01-14 12:27:08.560517	342.1	31.5	-81.5	0.0
2025-01-14 12:27:09.687156	342.1	31.3	-81.4	0.0
2025-01-14 12:27:10.814625	342.1	31.0	-81.1	0.0
2025-01-14 12:27:11.939037	342.1	30.8	-80.9	0.0
2025-01-14 12:27:13.066065	342.1	30.6	-81.4	0.0
2025-01-14 12:27:14.190516	342.1	30.4	-81.0	0.0
2025-01-14 12:27:15.315715	342.1	30.1	-81.3	0.0
2025-01-14 12:27:16.441605	342.1	29.9	-81.1	0.0
2025-01-14 12:27:17.567524	342.1	29.7	-81.3	0.0
2025-01-14 12:27:18.691032	342.1	29.5	-81.4	0.0
2025-01-14 12:27:19.817141	342.2	29.3	-81.3	0.0
2025-01-14 12:27:20.944399	342.2	29.1	-81.2	0.0
2025-01-14 12:27:22.071248	342.2	28.9	-81.3	0.0
2025-01-14 12:27:23.198309	342.2	28.7	-81.1	0.0
2025-01-14 12:27:24.325876	342.2	28.4	-81.5	0.0
2025-01-14 12:27:25.452403	342.2	28.2	-81.3	0.0
2025-01-14 12:27:26.579336	342.2	28.0	-81.2	0.0
2025-01-14 12:27:27.706469	342.2	27.8	-81.2	0.0
2025-01-14 12:27:28.832633	342.2	27.6	-81.2	0.0
2025-01-14 12:27:29.961075	342.2	27.4	-81.4	0.0
2025-01-14 12:27:31.089501	342.2	27.2	-81.1	0.0
2025-01-14 12:27:32.215997	342.2	27.0	-81.5	0.0
2025-01-14 12:27:33.343151	342.2	26.8	-81.6	0.0
2025-01-14 12:27:34.468859	342.3	26.7	-81.4	0.0
2025-01-14 12:27:35.597123	342.3	26.5	-80.6	0.0
2025-01-14 12:27:36.722939	342.3	26.3	-81.2	0.0
2025-01-14 12:27:37.846763	342.3	26.1	-81.4	0.0
2025-01-14 12:27:38.971370	342.3	25.9	-81.4	0.0
2025-01-14 12:27:40.098623	342.3	25.7	-81.3	0.0
2025-01-14 12:27:41.223433	342.3	25.5	-81.3	0.0
2025-01-14 12:27:42.348680	342.3	25.3	-81.3	0.0
2025-01-14 12:27:43.474758	342.3	25.2	-81.1	0.0
2025-01-14 12:27:44.600004	342.3	25.0	-81.6	0.0
2025-01-14 12:27:45.724752	342.3	24.8	-81.5	0.0
2025-01-14 12:27:46.853014	342.3	24.6	-81.5	0.0
2025-01-14 12:27:47.980445	342.3	24.4	-81.5	0.0
2025-01-14 12:27:49.107783	342.3	24.3	-81.5	0.0
2025-01-14 12:27:50.234775	342.4	24.1	-81.7	0.0
2025-01-14 12:27:51.361711	342.4	23.9	-81.2	0.0
2025-01-14 12:27:52.486726	342.4	23.7	-81.1	0.0
2025-01-14 12:27:53.610404	342.4	23.6	-81.1	0.0
2025-01-14 12:27:54.735907	342.4	23.4	-81.2	0.0
2025-01-14 12:27:55.862444	342.4	23.2	-81.1	0.0
2025-01-14 12:27:56.987459	342.4	23.1	-81.3	0.0
2025-01-14 12:27:58.114859	342.4	22.9	-81.4	0.0
2025-01-14 12:27:59.239242	342.4	22.7	-81.2	0.0
2025-01-14 12:28:00.365781	342.4	22.6	-81.3	0.0
2025-01-14 12:28:01.493182	342.4	22.4	-80.9	0.0
2025-01-14 12:28:02.620095	342.4	22.2	-81.0	0.0
2025-01-14 12:28:03.745174	342.4	22.1	-81.3	0.0
2025-01-14 12:28:04.872557	342.4	21.9	-81.4	0.0
2025-01-14 12:28:06.001245	342.5	21.7	-81.4	0.0
2025-01-14 12:28:07.127075	342.5	21.6	-81.4	0.0
2025-01-14 12:28:08.253677	342.5	21.4	-81.2	0.0
2025-01-14 12:28:09.378217	342.5	21.3	-81.3	0.0
2025-01-14 12:28:10.504426	342.5	21.1	-81.4	0.0
2025-01-14 12:28:11.629362	342.5	21.0	-81.1	0.0
2025-01-14 12:28:12.754273	342.5	20.8	-81.3	0.0
2025-01-14 12:28:13.881318	342.5	20.7	-81.3	0.0
2025-01-14 12:28:15.007920	342.5	20.5	-81.2	0.0
2025-01-14 12:28:16.136498	342.5	20.3	-81.5	0.0
2025-01-14 12:28:17.263091	342.5	20.2	-81.5	0.0
2025-01-14 12:28:18.388225	342.5	20.0	-81.6	0.0
2025-01-14 12:28:19.513734	342.5	19.9	-81.3	0.0
2025-01-14 12:28:20.640466	342.5	19.8	-81.3	0.0
2025-01-14 12:28:21.767174	342.5	19.6	-81.3	0.0
2025-01-14 12:28:22.894265	342.5	19.5	-81.1	0.0
2025-01-14 12:28:24.020887	342.6	19.3	-81.2	0.0
2025-01-14 12:28:25.149143	342.6	19.2	-81.4	0.0
2025-01-14 12:28:26.276183	342.6	19.0	-81.3	0.0
2025-01-14 12:28:27.402460	342.6	18.9	-81.3	0.0
2025-01-14 12:28:28.528673	342.6	18.7	-81.1	0.0
2025-01-14 12:28:29.655117	342.6	18.6	-81.1	0.0
2025-01-14 12:28:30.781327	342.6	18.5	-81.2	0.0
2025-01-14 12:28:31.908741	342.6	18.3	-81.0	0.0
2025-01-14 12:28:33.036017	342.6	18.2	-81.2	0.0
2025-01-14 12:28:34.161688	342.6	18.0	-81.2	0.0
2025-01-14 12:28:35.288264	342.6	17.9	-81.1	0.0
2025-01-14 12:28:36.415615	342.6	17.8	-81.1	0.0
2025-01-14 12:28:37.542973	342.6	17.6	-81.3	0.0
2025-01-14 12:28:38.668500	342.6	17.5	-81.3	0.0
2025-01-14 12:28:39.795080	342.6	17.4	-81.3	0.0
2025-01-14 12:28:40.921096	342.6	17.2	-81.4	0.0
2025-01-14 12:28:42.047760	342.7	17.1	-81.2	0.0
2025-01-14 12:28:43.177083	342.7	17.0	-81.2	0.0
2025-01-14 12:28:44.303719	342.7	16.8	-81.0	0.0
2025-01-14 12:28:45.430851	342.7	16.7	-81.1	0.0
2025-01-14 12:28:46.557971	342.7	16.6	-81.0	0.0
2025-01-14 12:28:47.685287	342.7	16.5	-81.0	0.0
2025-01-14 12:28:48.810931	342.7	16.3	-80.7	0.0
2025-01-14 12:28:49.937235	342.7	16.2	-81.5	0.0
2025-01-14 12:28:51.063770	342.7	16.1	-80.8	0.0
2025-01-14 12:28:52.188276	342.7	15.9	-81.5	0.0
2025-01-14 12:28:53.316522	342.7	15.8	-81.2	0.0
2025-01-14 12:28:54.443327	342.7	15.7	-81.2	0.0
2025-01-14 12:28:55.569078	342.7	15.6	-81.4	0.0
2025-01-14 12:28:56.693037	342.7	15.4	-81.5	0.0
2025-01-14 12:28:57.820755	342.7	15.3	-81.2	0.0
2025-01-14 12:28:58.947174	342.7	15.2	-81.1	0.0
2025-01-14 12:29:00.074747	342.7	15.1	-81.4	0.0
2025-01-14 12:29:01.199758	342.8	15.0	-81.3	0.0
2025-01-14 12:29:02.325521	342.8	14.8	-81.1	0.0
2025-01-14 12:29:03.453005	342.8	14.7	-81.3	0.0
2025-01-14 12:29:04.581266	342.8	14.6	-81.0	0.0
2025-01-14 12:29:05.706249	342.8	14.5	-80.9	0.0
2025-01-14 12:29:06.832214	342.8	14.4	-80.9	0.0
2025-01-14 12:29:07.957943	342.8	14.2	-81.4	0.0
2025-01-14 12:29:09.085874	342.8	14.1	-81.1	0.0
2025-01-14 12:29:10.212869	342.8	14.0	-81.0	0.0
2025-01-14 12:29:11.337938	342.8	13.9	-81.1	0.0
2025-01-14 12:29:12.465419	342.8	13.8	-81.3	0.0
2025-01-14 12:29:13.591619	342.8	13.7	-81.4	0.0
2025-01-14 12:29:14.717879	342.8	13.6	-81.2	0.0
2025-01-14 12:29:15.842567	342.8	13.4	-81.1	0.0
2025-01-14 12:29:16.968505	342.8	13.3	-81.5	0.0
2025-01-14 12:29:18.094010	342.8	13.2	-81.4	0.0
2025-01-14 12:29:19.219652	342.8	13.1	-81.2	0.0
2025-01-14 12:29:20.344567	342.9	13.0	-81.5	0.0
2025-01-14 12:29:21.468394	342.9	12.9	-81.4	0.0
2025-01-14 12:29:22.594676	342.9	12.8	-81.4	0.0
2025-01-14 12:29:23.721939	342.9	12.7	-81.7	0.0
2025-01-14 12:29:24.845757	342.9	12.6	-81.3	0.0
2025-01-14 12:29:25.972113	342.9	12.4	-81.4	0.0
2025-01-14 12:29:27.100281	342.9	12.3	-81.5	0.0
2025-01-14 12:29:28.226639	342.9	12.2	-81.6	0.0
2025-01-14 12:29:29.352584	342.9	12.1	-81.6	0.0
2025-01-14 12:29:30.479903	342.9	12.0	-81.4	0.0
2025-01-14 12:29:31.603947	342.9	11.9	-81.4	0.0
2025-01-14 12:29:32.728034	342.9	11.8	-81.5	0.0
2025-01-14 12:29:33.854784	342.9	11.7	-81.6	0.0
2025-01-14 12:29:34.981715	342.9	11.6	-81.6	0.0
2025-01-14 12:29:36.110441	342.9	11.5	-81.7	0.0
2025-01-14 12:29:37.239618	342.9	11.4	-81.2	0.0
2025-01-14 12:29:38.367556	342.9	11.3	-81.2	0.0
2025-01-14 12:29:39.494759	342.9	11.2	-80.9	0.0
2025-01-14 12:29:40.621651	343.0	11.1	-81.3	0.0
2025-01-14 12:29:41.748519	343.0	11.0	-81.2	0.0
2025-01-14 12:29:42.876151	343.0	10.9	-81.0	0.0
2025-01-14 12:29:44.003308	343.0	10.8	-81.2	0.0
2025-01-14 12:29:45.127722	343.0	10.7	-81.0	0.0
2025-01-14 12:29:46.253844	343.0	10.6	-81.1	0.0
2025-01-14 12:29:47.378773	343.0	10.5	-81.3	0.0
2025-01-14 12:29:48.505961	343.0	10.4	-81.5	0.0
2025-01-14 12:29:49.633119	343.0	10.3	-81.4	0.0
2025-01-14 12:29:50.761073	343.0	10.2	-81.4	0.0
2025-01-14 12:29:51.886150	343.0	10.1	-81.3	0.0
#Closed at: 2025-01-14 12:19:06.859845