passes_logs/2025/01/14/planumMaritime01/planumMaritime01__20250114_164805_METEOR-M2_3_rec.log

#Pass ID: 20250114_164805_METEOR-M2 3
#Satellite: METEOR-M2 3
#Configuration: METEOR-M2 3
#Start time: 2025-01-14 16:48:10.725267

#LorettStation: 1.0.0 05.05.2024
#Station: planumMaritime01
#Location: 37.49445 lon 55.92918 lat
#TLE: 1 57166U 23091A   25014.12963549  .00000039  00000+0  36217-4 0  9995
#TLE: 2 57166  98.6851  72.6032 0003181 227.3225 132.7686 14.23969043 80642

#Time	Az	El	Level	SNR
2025-01-14 16:48:12.874019	125.5	10.2	-79.7	0.0
2025-01-14 16:48:13.998653	125.4	10.3	-80.4	0.0
2025-01-14 16:48:15.120896	125.3	10.4	-79.8	0.0
2025-01-14 16:48:16.244183	125.2	10.4	-80.3	0.0
2025-01-14 16:48:17.368101	125.1	10.5	-80.3	0.0
2025-01-14 16:48:18.491439	125.0	10.6	-80.3	0.0
2025-01-14 16:48:19.615208	125.0	10.7	-80.1	0.0
2025-01-14 16:48:20.737751	124.9	10.8	-79.9	0.0
2025-01-14 16:48:21.862484	124.8	10.9	-80.1	0.0
2025-01-14 16:48:22.983196	124.7	11.0	-79.9	0.0
2025-01-14 16:48:24.105993	124.6	11.1	-80.2	0.0
2025-01-14 16:48:25.228997	124.5	11.2	-79.6	0.0
2025-01-14 16:48:26.351970	124.4	11.3	-80.0	0.0
2025-01-14 16:48:27.473927	124.3	11.4	-80.2	0.0
2025-01-14 16:48:28.597043	124.3	11.5	-80.1	0.0
2025-01-14 16:48:29.719815	124.2	11.6	-80.4	0.0
2025-01-14 16:48:30.845373	124.1	11.7	-79.7	0.0
2025-01-14 16:48:31.967550	124.0	11.8	-79.9	0.0
2025-01-14 16:48:33.089525	123.9	11.9	-80.1	0.0
2025-01-14 16:48:34.212673	123.8	12.0	-80.0	0.0
2025-01-14 16:48:35.338663	123.7	12.1	-80.3	0.0
2025-01-14 16:48:36.461223	123.6	12.1	-80.2	0.0
2025-01-14 16:48:37.582690	123.5	12.2	-80.8	0.0
2025-01-14 16:48:38.706749	123.4	12.3	-80.6	0.0
2025-01-14 16:48:39.830886	123.3	12.4	-80.5	0.0
2025-01-14 16:48:40.951585	123.2	12.5	-80.4	0.0
2025-01-14 16:48:42.076592	123.1	12.6	-80.9	0.0
2025-01-14 16:48:43.201512	123.0	12.7	-80.4	0.0
2025-01-14 16:48:44.323412	122.9	12.8	-80.7	0.0
2025-01-14 16:48:45.446100	122.8	12.9	-79.9	0.0
2025-01-14 16:48:46.570108	122.7	13.0	-80.0	0.0
2025-01-14 16:48:47.693130	122.6	13.1	-80.5	0.0
2025-01-14 16:48:48.815793	122.5	13.2	-79.4	0.0
2025-01-14 16:48:49.938663	122.4	13.3	-80.3	0.0
2025-01-14 16:48:51.062022	122.3	13.4	-80.2	0.0
2025-01-14 16:48:52.184495	122.2	13.5	-80.5	0.0
2025-01-14 16:48:53.307798	122.1	13.6	-80.0	0.0
2025-01-14 16:48:54.432760	122.0	13.7	-80.7	0.0
2025-01-14 16:48:55.552917	121.9	13.8	-80.5	0.0
2025-01-14 16:48:56.678614	121.8	14.0	-80.5	0.0
2025-01-14 16:48:57.801835	121.7	14.1	-80.7	0.0
2025-01-14 16:48:58.927053	121.6	14.2	-80.1	0.0
2025-01-14 16:49:00.052263	121.5	14.3	-80.5	0.0
2025-01-14 16:49:01.176671	121.4	14.4	-80.3	0.0
2025-01-14 16:49:02.299831	121.2	14.5	-80.2	0.0
2025-01-14 16:49:03.422539	121.1	14.6	-80.2	0.0
2025-01-14 16:49:04.545282	121.0	14.7	-79.7	0.0
2025-01-14 16:49:05.667384	120.9	14.8	-80.4	0.0
2025-01-14 16:49:06.789592	120.8	14.9	-80.2	0.0
2025-01-14 16:49:07.913218	120.7	15.0	-80.4	0.0
2025-01-14 16:49:09.038143	120.6	15.1	-80.7	0.0
2025-01-14 16:49:10.160537	120.4	15.2	-80.4	0.0
2025-01-14 16:49:11.282379	120.3	15.3	-80.0	0.0
2025-01-14 16:49:12.405483	120.2	15.4	-80.4	0.0
2025-01-14 16:49:13.529066	120.1	15.5	-80.4	0.0
2025-01-14 16:49:14.652924	120.0	15.6	-80.4	0.0
2025-01-14 16:49:15.776492	119.9	15.8	-80.0	0.0
2025-01-14 16:49:16.898808	119.7	15.9	-79.6	0.0
2025-01-14 16:49:18.022587	119.6	16.0	-80.2	0.0
2025-01-14 16:49:19.145113	119.5	16.1	-80.0	0.0
2025-01-14 16:49:20.268679	119.4	16.2	-79.3	0.0
2025-01-14 16:49:21.389953	119.2	16.3	-80.3	0.0
2025-01-14 16:49:22.514115	119.1	16.4	-80.3	0.0
2025-01-14 16:49:23.636607	119.0	16.5	-79.6	0.0
2025-01-14 16:49:24.761093	118.8	16.6	-80.0	0.0
2025-01-14 16:49:25.885521	118.7	16.8	-80.0	0.0
2025-01-14 16:49:27.010664	118.6	16.9	-79.5	0.0
2025-01-14 16:49:28.135507	118.5	17.0	-79.9	0.0
2025-01-14 16:49:29.261718	118.3	17.1	-80.0	0.0
2025-01-14 16:49:30.385341	118.2	17.2	-79.9	0.0
2025-01-14 16:49:31.508870	118.1	17.3	-79.9	0.0
2025-01-14 16:49:32.631052	117.9	17.4	-80.1	0.0
2025-01-14 16:49:33.753719	117.8	17.6	-80.1	0.0
2025-01-14 16:49:34.877588	117.6	17.7	-80.2	0.0
2025-01-14 16:49:35.999989	117.5	17.8	-80.0	0.0
2025-01-14 16:49:37.123864	117.4	17.9	-80.3	0.0
2025-01-14 16:49:38.247858	117.2	18.0	-80.2	0.0
2025-01-14 16:49:39.371405	117.1	18.1	-79.6	0.0
2025-01-14 16:49:40.495601	116.9	18.2	-80.4	0.0
2025-01-14 16:49:41.617924	116.8	18.4	-80.4	0.0
2025-01-14 16:49:42.738659	116.6	18.5	-80.1	0.0
2025-01-14 16:49:43.861298	116.5	18.6	-80.1	0.0
2025-01-14 16:49:44.987740	116.4	18.7	-79.8	0.0
2025-01-14 16:49:46.111686	116.2	18.8	-80.2	0.0
2025-01-14 16:49:47.234321	116.1	19.0	-79.9	0.0
2025-01-14 16:49:48.356366	115.9	19.1	-80.1	0.0
2025-01-14 16:49:49.480250	115.8	19.2	-80.1	0.0
2025-01-14 16:49:50.602914	115.6	19.3	-80.4	0.0
2025-01-14 16:49:51.724615	115.4	19.4	-80.0	0.0
2025-01-14 16:49:52.846262	115.3	19.6	-80.2	0.0
2025-01-14 16:49:53.969051	115.1	19.7	-80.0	0.0
2025-01-14 16:49:55.092829	115.0	19.8	-80.1	0.0
2025-01-14 16:49:56.218192	114.8	19.9	-79.5	0.0
2025-01-14 16:49:57.340663	114.6	20.0	-80.1	0.0
2025-01-14 16:49:58.464587	114.5	20.2	-79.8	0.0
2025-01-14 16:49:59.586797	114.3	20.3	-79.9	0.0
2025-01-14 16:50:00.710231	114.2	20.4	-79.9	0.0
2025-01-14 16:50:01.838115	114.0	20.5	-80.2	0.0
2025-01-14 16:50:02.960890	113.8	20.7	-80.2	0.0
2025-01-14 16:50:04.083572	113.6	20.8	-80.4	0.0
2025-01-14 16:50:05.207174	113.5	20.9	-79.9	0.0
2025-01-14 16:50:06.330011	113.3	21.0	-79.8	0.0
2025-01-14 16:50:07.453877	113.1	21.2	-79.6	0.0
2025-01-14 16:50:08.576533	113.0	21.3	-79.8	0.0
2025-01-14 16:50:09.703032	112.8	21.4	-80.4	0.0
2025-01-14 16:50:10.826737	112.6	21.5	-80.0	0.0
2025-01-14 16:50:11.948834	112.4	21.7	-80.5	0.0
2025-01-14 16:50:13.069702	112.2	21.8	-80.2	0.0
2025-01-14 16:50:14.191938	112.1	21.9	-80.2	0.0
2025-01-14 16:50:15.315236	111.9	22.1	-80.0	0.0
2025-01-14 16:50:16.438082	111.7	22.2	-80.0	0.0
2025-01-14 16:50:17.561639	111.5	22.3	-80.0	0.0
2025-01-14 16:50:18.685562	111.3	22.4	-80.2	0.0
2025-01-14 16:50:19.807440	111.1	22.6	-80.3	0.0
2025-01-14 16:50:20.933175	110.9	22.7	-80.2	0.0
2025-01-14 16:50:22.054670	110.7	22.8	-80.4	0.0
2025-01-14 16:50:23.176340	110.5	23.0	-80.5	0.0
2025-01-14 16:50:24.299028	110.3	23.1	-80.4	0.0
2025-01-14 16:50:25.423879	110.1	23.2	-80.1	0.0
2025-01-14 16:50:26.547699	109.9	23.4	-80.6	0.0
2025-01-14 16:50:27.667460	109.7	23.5	-80.3	0.0
2025-01-14 16:50:28.789666	109.5	23.6	-80.0	0.0
2025-01-14 16:50:29.912721	109.3	23.8	-80.5	0.0
2025-01-14 16:50:31.035563	109.1	23.9	-79.4	0.0
2025-01-14 16:50:32.158794	108.9	24.0	-80.5	0.0
2025-01-14 16:50:33.282227	108.7	24.2	-80.5	0.0
2025-01-14 16:50:34.406068	108.5	24.3	-80.5	0.0
2025-01-14 16:50:35.530418	108.3	24.4	-80.1	0.0
2025-01-14 16:50:36.652882	108.0	24.6	-80.0	0.0
2025-01-14 16:50:37.776226	107.8	24.7	-80.5	0.0
2025-01-14 16:50:38.896777	107.6	24.8	-80.5	0.0
2025-01-14 16:50:40.017537	107.4	25.0	-80.6	0.0
2025-01-14 16:50:41.138603	107.2	25.1	-80.4	0.0
2025-01-14 16:50:42.260572	106.9	25.2	-80.8	0.0
2025-01-14 16:50:43.382796	106.7	25.4	-80.6	0.0
2025-01-14 16:50:44.506381	106.5	25.5	-80.6	0.0
2025-01-14 16:50:45.631770	106.2	25.6	-80.6	0.0
2025-01-14 16:50:46.753926	106.0	25.8	-81.0	0.0
2025-01-14 16:50:47.876188	105.8	25.9	-80.2	0.0
2025-01-14 16:50:49.000843	105.5	26.0	-80.9	0.0
2025-01-14 16:50:50.125536	105.3	26.2	-80.9	0.0
2025-01-14 16:50:51.248349	105.1	26.3	-80.3	0.0
2025-01-14 16:50:52.368967	104.8	26.4	-81.0	0.0
2025-01-14 16:50:53.491911	104.6	26.6	-80.7	0.0
2025-01-14 16:50:54.614839	104.3	26.7	-81.1	0.0
2025-01-14 16:50:55.736946	104.1	26.9	-80.8	0.0
2025-01-14 16:50:56.860792	103.8	27.0	-80.5	0.0
2025-01-14 16:50:57.983649	103.6	27.1	-80.8	0.0
2025-01-14 16:50:59.106014	103.3	27.3	-80.4	0.0
2025-01-14 16:51:00.226182	103.0	27.4	-81.1	0.0
2025-01-14 16:51:01.352648	102.8	27.5	-80.6	0.0
2025-01-14 16:51:02.475783	102.5	27.7	-80.4	0.0
2025-01-14 16:51:03.598136	102.2	27.8	-81.1	0.0
2025-01-14 16:51:04.720316	102.0	28.0	-80.6	0.0
2025-01-14 16:51:05.843150	101.7	28.1	-81.0	0.0
2025-01-14 16:51:06.965378	101.4	28.2	-80.2	0.0
2025-01-14 16:51:08.088232	101.1	28.4	-80.8	0.0
2025-01-14 16:51:09.212619	100.9	28.5	-81.1	0.0
2025-01-14 16:51:10.338188	100.6	28.6	-80.8	0.0
2025-01-14 16:51:11.460920	100.3	28.8	-80.5	0.0
2025-01-14 16:51:12.583623	100.0	28.9	-80.6	0.0
2025-01-14 16:51:13.709098	99.7	29.0	-80.6	0.0
2025-01-14 16:51:14.832276	99.4	29.2	-80.6	0.0
2025-01-14 16:51:15.954898	99.1	29.3	-80.9	0.0
2025-01-14 16:51:17.078482	98.8	29.5	-80.6	0.0
2025-01-14 16:51:18.199931	98.6	29.6	-80.8	0.0
2025-01-14 16:51:19.324883	98.3	29.7	-80.1	0.0
2025-01-14 16:51:20.448631	97.9	29.9	-80.6	0.0
2025-01-14 16:51:21.572760	97.6	30.0	-80.9	0.0
2025-01-14 16:51:22.698032	97.3	30.1	-80.5	0.0
2025-01-14 16:51:23.822780	97.0	30.3	-80.6	0.0
2025-01-14 16:51:24.944664	96.7	30.4	-81.0	0.0
2025-01-14 16:51:26.068022	96.4	30.5	-80.8	0.0
2025-01-14 16:51:27.188736	96.1	30.7	-80.8	0.0
2025-01-14 16:51:28.311935	95.7	30.8	-80.7	0.0
2025-01-14 16:51:29.434823	95.4	30.9	-80.7	0.0
2025-01-14 16:51:30.559400	95.1	31.1	-80.9	0.0
2025-01-14 16:51:31.683451	94.8	31.2	-80.8	0.0
2025-01-14 16:51:32.807525	94.4	31.3	-80.6	0.0
2025-01-14 16:51:33.930966	94.1	31.5	-80.9	0.0
2025-01-14 16:51:35.051759	93.8	31.6	-80.9	0.0
2025-01-14 16:51:36.176659	93.4	31.7	-81.1	0.0
2025-01-14 16:51:37.299505	93.1	31.8	-80.9	0.0
2025-01-14 16:51:38.423553	92.7	32.0	-80.9	0.0
2025-01-14 16:51:39.547201	92.4	32.1	-80.4	0.0
2025-01-14 16:51:40.668927	92.0	32.2	-80.6	0.0
2025-01-14 16:51:41.789375	91.7	32.4	-80.5	0.0
2025-01-14 16:51:42.913089	91.3	32.5	-79.9	0.0
2025-01-14 16:51:44.034080	91.0	32.6	-80.5	0.0
2025-01-14 16:51:45.156869	90.6	32.7	-80.8	0.0
2025-01-14 16:51:46.277445	90.2	32.8	-80.9	0.0
2025-01-14 16:51:47.399982	89.9	33.0	-81.0	0.0
2025-01-14 16:51:48.522636	89.5	33.1	-80.2	0.0
2025-01-14 16:51:49.645911	89.1	33.2	-80.9	0.0
2025-01-14 16:51:50.771376	88.7	33.3	-80.9	0.0
2025-01-14 16:51:51.894208	88.4	33.4	-80.9	0.0
2025-01-14 16:51:53.017426	88.0	33.6	-80.8	0.0
2025-01-14 16:51:54.142966	87.6	33.7	-80.8	0.0
2025-01-14 16:51:55.265200	87.2	33.8	-80.4	0.0
2025-01-14 16:51:56.389430	86.8	33.9	-80.4	0.0
2025-01-14 16:51:57.514034	86.4	34.0	-80.7	0.0
2025-01-14 16:51:58.636106	86.0	34.1	-80.6	0.0
2025-01-14 16:51:59.757990	85.6	34.3	-80.1	0.0
2025-01-14 16:52:00.880723	85.2	34.4	-80.8	0.0
2025-01-14 16:52:02.003110	84.8	34.5	-80.7	0.0
2025-01-14 16:52:03.128035	84.4	34.6	-80.4	0.0
2025-01-14 16:52:04.249355	84.0	34.7	-80.6	0.0
2025-01-14 16:52:05.373295	83.6	34.8	-80.4	0.0
2025-01-14 16:52:06.495991	83.2	34.9	-80.6	0.0
2025-01-14 16:52:07.621819	82.8	35.0	-81.0	0.0
2025-01-14 16:52:08.744878	82.3	35.1	-80.6	0.0
2025-01-14 16:52:09.866861	81.9	35.2	-80.7	0.0
2025-01-14 16:52:10.987959	81.5	35.3	-80.2	0.0
2025-01-14 16:52:12.111163	81.1	35.4	-80.4	0.0
2025-01-14 16:52:13.233681	80.6	35.5	-80.8	0.0
2025-01-14 16:52:14.356465	80.2	35.6	-80.9	0.0
2025-01-14 16:52:15.480013	79.8	35.7	-80.6	0.0
2025-01-14 16:52:16.603418	79.3	35.8	-81.0	0.0
2025-01-14 16:52:17.725492	78.9	35.8	-80.6	0.0
2025-01-14 16:52:18.847094	78.4	35.9	-80.4	0.0
2025-01-14 16:52:19.970867	78.0	36.0	-80.9	0.0
2025-01-14 16:52:21.095429	77.6	36.1	-80.6	0.0
2025-01-14 16:52:22.218732	77.1	36.2	-80.2	0.0
2025-01-14 16:52:23.342219	76.7	36.3	-80.6	0.0
2025-01-14 16:52:24.471285	76.2	36.3	-80.3	0.0
2025-01-14 16:52:25.593821	75.7	36.4	-79.9	0.0
2025-01-14 16:52:26.715683	75.3	36.5	-80.4	0.0
2025-01-14 16:52:27.838538	74.8	36.6	-80.6	0.0
2025-01-14 16:52:28.960991	74.4	36.6	-80.5	0.0
2025-01-14 16:52:30.085045	73.9	36.7	-80.1	0.0
2025-01-14 16:52:31.208618	73.4	36.8	-80.2	0.0
2025-01-14 16:52:32.330931	73.0	36.8	-80.9	0.0
2025-01-14 16:52:33.452138	72.5	36.9	-80.4	0.0
2025-01-14 16:52:34.575609	72.0	36.9	-81.0	0.0
2025-01-14 16:52:35.697712	71.5	37.0	-80.9	0.0
2025-01-14 16:52:36.819829	71.1	37.1	-80.6	0.0
2025-01-14 16:52:37.942018	70.6	37.1	-80.9	0.0
2025-01-14 16:52:39.065418	70.1	37.2	-80.5	0.0
2025-01-14 16:52:40.189032	69.6	37.2	-80.5	0.0
2025-01-14 16:52:41.315350	69.2	37.3	-80.7	0.0
2025-01-14 16:52:42.438324	68.7	37.3	-81.2	0.0
2025-01-14 16:52:43.562562	68.2	37.3	-80.7	0.0
2025-01-14 16:52:44.686270	67.7	37.4	-80.8	0.0
2025-01-14 16:52:45.808513	67.2	37.4	-80.7	0.0
2025-01-14 16:52:46.933501	66.7	37.5	-80.9	0.0
2025-01-14 16:52:48.055584	66.2	37.5	-80.6	0.0
2025-01-14 16:52:49.178685	65.8	37.5	-80.6	0.0
2025-01-14 16:52:50.300690	65.3	37.6	-80.4	0.0
2025-01-14 16:52:51.422417	64.8	37.6	-80.9	0.0
2025-01-14 16:52:52.545763	64.3	37.6	-80.6	0.0
2025-01-14 16:52:53.669783	63.8	37.6	-80.5	0.0
2025-01-14 16:52:54.792520	63.3	37.6	-80.7	0.0
2025-01-14 16:52:55.915704	62.8	37.7	-80.7	0.0
2025-01-14 16:52:57.039723	62.3	37.7	-81.1	0.0
2025-01-14 16:52:58.162065	61.8	37.7	-80.4	0.0
2025-01-14 16:52:59.284024	61.3	37.7	-80.5	0.0
2025-01-14 16:53:00.407573	60.8	37.7	-80.5	0.0
2025-01-14 16:53:01.529104	60.3	37.7	-80.8	0.0
2025-01-14 16:53:02.651710	59.8	37.7	-80.9	0.0
2025-01-14 16:53:03.774586	59.4	37.7	-80.8	0.0
2025-01-14 16:53:04.898414	58.9	37.7	-80.8	0.0
2025-01-14 16:53:06.021593	58.4	37.7	-81.0	0.0
2025-01-14 16:53:07.143816	57.9	37.7	-80.9	0.0
2025-01-14 16:53:08.266943	57.4	37.7	-80.9	0.0
2025-01-14 16:53:09.387686	56.9	37.7	-80.8	0.0
2025-01-14 16:53:10.511341	56.4	37.7	-80.9	0.0
2025-01-14 16:53:11.631024	55.9	37.6	-81.0	0.0
2025-01-14 16:53:12.753027	55.4	37.6	-81.0	0.0
2025-01-14 16:53:13.876949	54.9	37.6	-81.1	0.0
2025-01-14 16:53:14.999938	54.4	37.6	-81.1	0.0
2025-01-14 16:53:16.121981	53.9	37.5	-81.3	0.0
2025-01-14 16:53:17.243805	53.4	37.5	-81.3	0.0
2025-01-14 16:53:18.366838	53.0	37.5	-81.3	0.0
2025-01-14 16:53:19.490570	52.5	37.5	-81.0	0.0
2025-01-14 16:53:20.614267	52.0	37.4	-81.5	0.0
2025-01-14 16:53:21.736790	51.5	37.4	-81.2	0.0
2025-01-14 16:53:22.861147	51.0	37.3	-81.2	0.0
2025-01-14 16:53:23.983266	50.5	37.3	-81.0	0.0
2025-01-14 16:53:25.107503	50.0	37.2	-80.8	0.0
2025-01-14 16:53:26.230344	49.6	37.2	-80.6	0.0
2025-01-14 16:53:27.353811	49.1	37.1	-81.0	0.0
2025-01-14 16:53:28.476363	48.6	37.1	-80.2	0.0
2025-01-14 16:53:29.598636	48.1	37.0	-80.7	0.0
2025-01-14 16:53:30.724170	47.7	37.0	-80.9	0.0
2025-01-14 16:53:31.845513	47.2	36.9	-80.9	0.0
2025-01-14 16:53:32.967857	46.7	36.9	-80.5	0.0
2025-01-14 16:53:34.090789	46.3	36.8	-80.7	0.0
2025-01-14 16:53:35.214325	45.8	36.7	-80.4	0.0
2025-01-14 16:53:36.338629	45.3	36.7	-80.9	0.0
2025-01-14 16:53:37.462566	44.9	36.6	-80.8	0.0
2025-01-14 16:53:38.584823	44.4	36.5	-80.7	0.0
2025-01-14 16:53:39.708825	43.9	36.5	-80.8	0.0
2025-01-14 16:53:40.831820	43.5	36.4	-80.3	0.0
2025-01-14 16:53:41.952554	43.0	36.3	-80.8	0.0
2025-01-14 16:53:43.074562	42.6	36.2	-81.1	0.0
2025-01-14 16:53:44.197065	42.1	36.2	-80.9	0.0
2025-01-14 16:53:45.320763	41.7	36.1	-81.0	0.0
2025-01-14 16:53:46.446578	41.2	36.0	-80.9	0.0
2025-01-14 16:53:47.571959	40.8	35.9	-81.0	0.0
2025-01-14 16:53:48.695032	40.3	35.8	-80.3	0.0
2025-01-14 16:53:49.819437	39.9	35.7	-81.2	0.0
2025-01-14 16:53:50.940818	39.5	35.6	-81.2	0.0
2025-01-14 16:53:52.062749	39.0	35.5	-81.1	0.0
2025-01-14 16:53:53.185623	38.6	35.5	-80.9	0.0
2025-01-14 16:53:54.309146	38.2	35.4	-80.9	0.0
2025-01-14 16:53:55.431938	37.8	35.3	-81.3	0.0
2025-01-14 16:53:56.555376	37.3	35.2	-80.8	0.0
2025-01-14 16:53:57.678198	36.9	35.1	-81.0	0.0
2025-01-14 16:53:58.800959	36.5	35.0	-80.5	0.0
2025-01-14 16:53:59.923906	36.1	34.9	-80.7	0.0
2025-01-14 16:54:01.048291	35.7	34.8	-81.1	0.0
2025-01-14 16:54:02.170477	35.3	34.7	-80.8	0.0
2025-01-14 16:54:03.291929	34.8	34.5	-80.9	0.0
2025-01-14 16:54:04.415216	34.4	34.4	-80.9	0.0
2025-01-14 16:54:05.539790	34.0	34.3	-81.1	0.0
2025-01-14 16:54:06.662585	33.6	34.2	-81.0	0.0
2025-01-14 16:54:07.783997	33.2	34.1	-80.6	0.0
2025-01-14 16:54:08.908952	32.9	34.0	-81.1	0.0
2025-01-14 16:54:10.034242	32.5	33.9	-81.0	0.0
2025-01-14 16:54:11.156303	32.1	33.8	-81.1	0.0
2025-01-14 16:54:12.279162	31.7	33.7	-81.4	0.0
2025-01-14 16:54:13.403154	31.3	33.5	-81.0	0.0
2025-01-14 16:54:14.525781	30.9	33.4	-80.8	0.0
2025-01-14 16:54:15.648765	30.5	33.3	-80.5	0.0
2025-01-14 16:54:16.772688	30.2	33.2	-80.8	0.0
2025-01-14 16:54:17.895284	29.8	33.1	-80.8	0.0
2025-01-14 16:54:19.016374	29.4	32.9	-81.3	0.0
2025-01-14 16:54:20.138783	29.1	32.8	-80.8	0.0
2025-01-14 16:54:21.261567	28.7	32.7	-81.2	0.0
2025-01-14 16:54:22.384687	28.3	32.6	-80.9	0.0
2025-01-14 16:54:23.508315	28.0	32.4	-81.0	0.0
2025-01-14 16:54:24.631518	27.6	32.3	-81.0	0.0
2025-01-14 16:54:25.755820	27.3	32.2	-81.3	0.0
2025-01-14 16:54:26.878573	26.9	32.1	-81.5	0.0
2025-01-14 16:54:28.002923	26.6	31.9	-80.9	0.0
2025-01-14 16:54:29.129517	26.2	31.8	-81.2	0.0
2025-01-14 16:54:30.254100	25.9	31.7	-81.1	0.0
2025-01-14 16:54:31.377666	25.6	31.6	-80.5	0.0
2025-01-14 16:54:32.502097	25.2	31.4	-80.4	0.0
2025-01-14 16:54:33.625564	24.9	31.3	-81.0	0.0
2025-01-14 16:54:34.746843	24.6	31.2	-81.1	0.0
2025-01-14 16:54:35.871264	24.2	31.0	-80.9	0.0
2025-01-14 16:54:36.995773	23.9	30.9	-80.7	0.0
2025-01-14 16:54:38.115610	23.6	30.8	-80.8	0.0
2025-01-14 16:54:39.239137	23.3	30.6	-81.1	0.0
2025-01-14 16:54:40.361304	22.9	30.5	-81.3	0.0
2025-01-14 16:54:41.483167	22.6	30.4	-80.5	0.0
2025-01-14 16:54:42.606926	22.3	30.2	-80.5	0.0
2025-01-14 16:54:43.732185	22.0	30.1	-80.8	0.0
2025-01-14 16:54:44.853661	21.7	30.0	-80.8	0.0
2025-01-14 16:54:45.975127	21.4	29.8	-80.6	0.0
2025-01-14 16:54:47.096858	21.1	29.7	-80.6	0.0
2025-01-14 16:54:48.218582	20.8	29.6	-80.7	0.0
2025-01-14 16:54:49.341620	20.5	29.4	-80.6	0.0
2025-01-14 16:54:50.462846	20.2	29.3	-81.1	0.0
2025-01-14 16:54:51.584641	19.9	29.2	-80.5	0.0
2025-01-14 16:54:52.707077	19.6	29.0	-80.8	0.0
2025-01-14 16:54:53.829683	19.3	28.9	-81.0	0.0
2025-01-14 16:54:54.953517	19.1	28.8	-81.2	0.0
2025-01-14 16:54:56.077497	18.8	28.6	-81.3	0.0
2025-01-14 16:54:57.199971	18.5	28.5	-80.7	0.0
2025-01-14 16:54:58.322014	18.2	28.3	-81.2	0.0
2025-01-14 16:54:59.446178	17.9	28.2	-81.5	0.0
2025-01-14 16:55:00.569197	17.7	28.1	-81.3	0.0
2025-01-14 16:55:01.691639	17.4	27.9	-81.0	0.0
2025-01-14 16:55:02.813501	17.1	27.8	-81.3	0.0
2025-01-14 16:55:03.936218	16.9	27.7	-81.4	0.0
2025-01-14 16:55:05.059477	16.6	27.5	-80.7	0.0
2025-01-14 16:55:06.181547	16.3	27.4	-81.0	0.0
2025-01-14 16:55:07.305330	16.1	27.3	-81.2	0.0
2025-01-14 16:55:08.429355	15.8	27.1	-80.9	0.0
2025-01-14 16:55:09.553700	15.6	27.0	-80.9	0.0
2025-01-14 16:55:10.676236	15.3	26.9	-81.3	0.0
2025-01-14 16:55:11.798464	15.1	26.7	-80.7	0.0
2025-01-14 16:55:12.922421	14.8	26.6	-80.8	0.0
2025-01-14 16:55:14.047124	14.6	26.4	-80.7	0.0
2025-01-14 16:55:15.171038	14.3	26.3	-81.3	0.0
2025-01-14 16:55:16.294358	14.1	26.2	-80.9	0.0
2025-01-14 16:55:17.418159	13.9	26.0	-81.1	0.0
2025-01-14 16:55:18.541776	13.6	25.9	-81.2	0.0
2025-01-14 16:55:19.661429	13.4	25.8	-80.8	0.0
2025-01-14 16:55:20.784383	13.2	25.6	-81.0	0.0
2025-01-14 16:55:21.907321	12.9	25.5	-81.1	0.0
2025-01-14 16:55:23.032944	12.7	25.4	-81.2	0.0
2025-01-14 16:55:24.156703	12.5	25.2	-81.4	0.0
2025-01-14 16:55:25.279960	12.2	25.1	-81.1	0.0
2025-01-14 16:55:26.404095	12.0	25.0	-80.9	0.0
2025-01-14 16:55:27.524582	11.8	24.8	-81.0	0.0
2025-01-14 16:55:28.647856	11.6	24.7	-81.3	0.0
2025-01-14 16:55:29.769617	11.4	24.6	-81.5	0.0
2025-01-14 16:55:30.892111	11.2	24.4	-81.3	0.0
2025-01-14 16:55:32.014506	10.9	24.3	-81.5	0.0
2025-01-14 16:55:33.136783	10.7	24.2	-81.5	0.0
2025-01-14 16:55:34.259487	10.5	24.0	-81.5	0.0
2025-01-14 16:55:35.381661	10.3	23.9	-81.6	0.0
2025-01-14 16:55:36.506179	10.1	23.8	-81.5	0.0
2025-01-14 16:55:37.628856	9.9	23.6	-81.2	0.0
2025-01-14 16:55:38.753878	9.7	23.5	-80.9	0.0
2025-01-14 16:55:39.879682	9.5	23.4	-81.2	0.0
2025-01-14 16:55:41.002089	9.3	23.2	-81.5	0.0
2025-01-14 16:55:42.125125	9.1	23.1	-81.4	0.0
2025-01-14 16:55:43.248033	8.9	23.0	-81.4	0.0
2025-01-14 16:55:44.371694	8.7	22.8	-81.6	0.0
2025-01-14 16:55:45.493927	8.5	22.7	-81.3	0.0
2025-01-14 16:55:46.616546	8.3	22.6	-81.2	0.0
2025-01-14 16:55:47.740181	8.1	22.5	-81.5	0.0
2025-01-14 16:55:48.865218	8.0	22.3	-81.5	0.0
2025-01-14 16:55:49.986359	7.8	22.2	-81.1	0.0
2025-01-14 16:55:51.108063	7.6	22.1	-81.2	0.0
2025-01-14 16:55:52.231477	7.4	21.9	-81.5	0.0
2025-01-14 16:55:53.353880	7.2	21.8	-81.3	0.0
2025-01-14 16:55:54.476325	7.0	21.7	-81.5	0.0
2025-01-14 16:55:55.599014	6.9	21.6	-81.5	0.0
2025-01-14 16:55:56.723235	6.7	21.4	-81.6	0.0
2025-01-14 16:55:57.845706	6.5	21.3	-81.1	0.0
2025-01-14 16:55:58.967723	6.3	21.2	-80.9	0.0
2025-01-14 16:56:00.090465	6.2	21.1	-81.0	0.0
2025-01-14 16:56:01.215020	6.0	20.9	-81.0	0.0
2025-01-14 16:56:02.337848	5.8	20.8	-80.7	0.0
2025-01-14 16:56:03.459444	5.6	20.7	-80.9	0.0
2025-01-14 16:56:04.582256	5.5	20.6	-81.0	0.0
2025-01-14 16:56:05.708402	5.3	20.4	-81.4	0.0
2025-01-14 16:56:06.831138	5.2	20.3	-81.1	0.0
2025-01-14 16:56:07.953989	5.0	20.2	-81.3	0.0
2025-01-14 16:56:09.077025	4.8	20.1	-80.9	0.0
2025-01-14 16:56:10.202383	4.7	20.0	-81.0	0.0
2025-01-14 16:56:11.325685	4.5	19.8	-81.2	0.0
2025-01-14 16:56:12.448800	4.4	19.7	-81.0	0.0
2025-01-14 16:56:13.571898	4.2	19.6	-81.1	0.0
2025-01-14 16:56:14.698261	4.0	19.5	-81.2	0.0
2025-01-14 16:56:15.821915	3.9	19.3	-81.4	0.0
2025-01-14 16:56:16.944521	3.7	19.2	-81.7	0.0
2025-01-14 16:56:18.067488	3.6	19.1	-81.2	0.0
2025-01-14 16:56:19.191389	3.4	19.0	-80.7	0.0
2025-01-14 16:56:20.314959	3.3	18.9	-81.0	0.0
2025-01-14 16:56:21.437129	3.1	18.8	-80.9	0.0
2025-01-14 16:56:22.561898	3.0	18.6	-81.2	0.0
2025-01-14 16:56:23.683707	2.8	18.5	-81.2	0.0
2025-01-14 16:56:24.805461	2.7	18.4	-81.1	0.0
2025-01-14 16:56:25.930078	2.6	18.3	-81.6	0.0
2025-01-14 16:56:27.053319	2.4	18.2	-81.5	0.0
2025-01-14 16:56:28.174625	2.3	18.1	-80.5	0.0
2025-01-14 16:56:29.299129	2.1	17.9	-80.5	0.0
2025-01-14 16:56:30.420785	2.0	17.8	-81.0	0.0
2025-01-14 16:56:31.544407	1.9	17.7	-81.0	0.0
2025-01-14 16:56:32.666444	1.7	17.6	-81.2	0.0
2025-01-14 16:56:33.790040	1.6	17.5	-81.4	0.0
2025-01-14 16:56:34.913663	1.5	17.4	-80.6	0.0
2025-01-14 16:56:36.035878	1.3	17.2	-81.0	0.0
2025-01-14 16:56:37.159393	1.2	17.1	-81.2	0.0
2025-01-14 16:56:38.280242	1.1	17.0	-80.7	0.0
2025-01-14 16:56:39.404102	0.9	16.9	-80.8	0.0
2025-01-14 16:56:40.525137	0.8	16.8	-81.1	0.0
2025-01-14 16:56:41.646936	0.7	16.7	-81.2	0.0
2025-01-14 16:56:42.767768	0.5	16.6	-81.1	0.0
2025-01-14 16:56:43.891778	0.4	16.5	-81.4	0.0
2025-01-14 16:56:45.013313	0.3	16.4	-81.4	0.0
2025-01-14 16:56:46.136907	0.2	16.2	-80.7	0.0
2025-01-14 16:56:47.259017	0.0	16.1	-81.6	0.0
2025-01-14 16:56:48.381217	359.9	16.0	-81.4	0.0
2025-01-14 16:56:49.503429	359.8	15.9	-81.0	0.0
2025-01-14 16:56:50.626905	359.7	15.8	-81.4	0.0
2025-01-14 16:56:51.749308	359.6	15.7	-81.3	0.0
2025-01-14 16:56:52.872743	359.4	15.6	-81.4	0.0
2025-01-14 16:56:53.996843	359.3	15.5	-81.5	0.0
2025-01-14 16:56:55.121046	359.2	15.4	-81.3	0.0
2025-01-14 16:56:56.243374	359.1	15.3	-81.2	0.0
2025-01-14 16:56:57.368395	359.0	15.2	-81.4	0.0
2025-01-14 16:56:58.489440	358.9	15.1	-81.2	0.0
2025-01-14 16:56:59.612611	358.7	14.9	-81.6	0.0
2025-01-14 16:57:00.735996	358.6	14.8	-81.6	0.0
2025-01-14 16:57:01.857447	358.5	14.7	-81.5	0.0
2025-01-14 16:57:02.981434	358.4	14.6	-81.3	0.0
2025-01-14 16:57:04.104286	358.3	14.5	-81.6	0.0
2025-01-14 16:57:05.226831	358.2	14.4	-81.4	0.0
2025-01-14 16:57:06.348323	358.1	14.3	-81.2	0.0
2025-01-14 16:57:07.469788	358.0	14.2	-81.3	0.0
2025-01-14 16:57:08.591978	357.9	14.1	-81.3	0.0
2025-01-14 16:57:09.714522	357.8	14.0	-81.3	0.0
2025-01-14 16:57:10.837370	357.7	13.9	-81.1	0.0
2025-01-14 16:57:11.962678	357.5	13.8	-81.3	0.0
2025-01-14 16:57:13.084990	357.4	13.7	-81.1	0.0
2025-01-14 16:57:14.207074	357.3	13.6	-81.0	0.0
2025-01-14 16:57:15.331284	357.2	13.5	-81.4	0.0
2025-01-14 16:57:16.454266	357.1	13.4	-81.5	0.0
2025-01-14 16:57:17.576552	357.0	13.3	-81.4	0.0
2025-01-14 16:57:18.699552	356.9	13.2	-81.0	0.0
2025-01-14 16:57:19.820911	356.8	13.1	-81.4	0.0
2025-01-14 16:57:20.944296	356.7	13.0	-81.5	0.0
2025-01-14 16:57:22.068384	356.6	12.9	-81.2	0.0
2025-01-14 16:57:23.190745	356.5	12.8	-81.4	0.0
2025-01-14 16:57:24.312729	356.4	12.7	-81.1	0.0
2025-01-14 16:57:25.434314	356.3	12.6	-81.4	0.0
2025-01-14 16:57:26.556958	356.2	12.5	-81.5	0.0
2025-01-14 16:57:27.677257	356.2	12.4	-81.6	0.0
2025-01-14 16:57:28.798739	356.1	12.3	-81.3	0.0
2025-01-14 16:57:29.923560	356.0	12.2	-81.5	0.0
2025-01-14 16:57:31.046548	355.9	12.1	-81.7	0.0
2025-01-14 16:57:32.168818	355.8	12.0	-81.5	0.0
2025-01-14 16:57:33.292892	355.7	11.9	-81.5	0.0
2025-01-14 16:57:34.413679	355.6	11.8	-81.5	0.0
2025-01-14 16:57:35.538007	355.5	11.7	-81.5	0.0
2025-01-14 16:57:36.660455	355.4	11.6	-81.4	0.0
2025-01-14 16:57:37.783727	355.3	11.5	-81.5	0.0
2025-01-14 16:57:38.907219	355.2	11.5	-81.5	0.0
2025-01-14 16:57:40.027955	355.2	11.4	-81.3	0.0
2025-01-14 16:57:41.150301	355.1	11.3	-81.6	0.0
2025-01-14 16:57:42.271452	355.0	11.2	-80.9	0.0
2025-01-14 16:57:43.396692	354.9	11.1	-80.7	0.0
2025-01-14 16:57:44.518662	354.8	11.0	-81.2	0.0
2025-01-14 16:57:45.643165	354.7	10.9	-81.4	0.0
2025-01-14 16:57:46.767556	354.6	10.8	-81.3	0.0
2025-01-14 16:57:47.888568	354.6	10.7	-81.4	0.0
2025-01-14 16:57:49.011882	354.5	10.6	-80.9	0.0
2025-01-14 16:57:50.137150	354.4	10.5	-81.5	0.0
2025-01-14 16:57:51.258336	354.3	10.4	-81.4	0.0
2025-01-14 16:57:52.382871	354.2	10.3	-81.4	0.0
2025-01-14 16:57:53.504524	354.1	10.3	-81.2	0.0
2025-01-14 16:57:54.626413	354.1	10.2	-81.1	0.0
2025-01-14 16:57:55.747948	354.0	10.1	-80.9	0.0
#Closed at: 2025-01-14 16:48:05.727953