passes_logs/2026/01/03/planumMaritime01/planumMaritime01__20260103_005650_METEOR-M2_4_rec.log

#Pass ID: 20260103_005650_METEOR-M2 4
#Satellite: METEOR-M2 4
#Configuration: METEOR-M2 4
#Start time: 2026-01-03 00:56:55.614120

#LorettStation: 1.0.0 05.05.2024
#Station: planumMaritime01
#Location: 37.49445 lon 55.92918 lat
#TLE: 1 59051U 24039A   26002.80814617  .00000078  00000+0  54502-4 0  9997
#TLE: 2 59051  98.6796 324.3898 0006077 292.7434  67.3101 14.22405343 95757

#Time	Az	El	Level	SNR
2026-01-03 00:56:57.781559	17.9	10.2	-72.3	0.0
2026-01-03 00:56:58.912868	17.9	10.3	-73.8	0.0
2026-01-03 00:57:00.044988	17.9	10.4	-73.5	0.0
2026-01-03 00:57:01.175961	17.9	10.5	-74.5	0.0
2026-01-03 00:57:02.307378	17.9	10.6	-73.5	0.0
2026-01-03 00:57:03.440209	18.0	10.7	-73.5	0.0
2026-01-03 00:57:04.570614	18.0	10.8	-73.5	0.0
2026-01-03 00:57:05.705465	18.0	10.9	-70.3	0.0
2026-01-03 00:57:06.837321	18.0	11.0	-72.7	0.0
2026-01-03 00:57:07.968852	18.0	11.1	-70.8	0.0
2026-01-03 00:57:09.101466	18.0	11.2	-70.1	0.0
2026-01-03 00:57:10.234605	18.1	11.3	-68.1	0.0
2026-01-03 00:57:11.366094	18.1	11.4	-70.8	0.0
2026-01-03 00:57:12.498050	18.1	11.5	-70.2	0.0
2026-01-03 00:57:13.629775	18.1	11.6	-68.4	0.0
2026-01-03 00:57:14.767628	18.1	11.7	-70.7	0.0
2026-01-03 00:57:15.903345	18.1	11.8	-70.8	0.0
2026-01-03 00:57:17.038923	18.2	11.9	-72.1	0.0
2026-01-03 00:57:18.177879	18.2	12.0	-67.5	0.0
2026-01-03 00:57:19.314893	18.2	12.1	-70.0	0.0
2026-01-03 00:57:20.455356	18.2	12.2	-71.1	0.0
2026-01-03 00:57:21.592874	18.2	12.4	-68.5	0.0
2026-01-03 00:57:22.731920	18.2	12.5	-71.3	0.0
2026-01-03 00:57:23.868156	18.3	12.6	-69.8	0.0
2026-01-03 00:57:25.004008	18.3	12.7	-69.6	0.0
2026-01-03 00:57:26.140481	18.3	12.8	-68.2	0.0
2026-01-03 00:57:27.278029	18.3	12.9	-71.5	0.0
2026-01-03 00:57:28.415417	18.3	13.0	-70.5	0.0
2026-01-03 00:57:29.552883	18.3	13.1	-68.6	0.0
2026-01-03 00:57:30.688857	18.4	13.2	-71.5	0.0
2026-01-03 00:57:31.816236	18.4	13.3	-70.4	0.0
2026-01-03 00:57:32.943660	18.4	13.5	-72.3	0.0
2026-01-03 00:57:34.073622	18.4	13.6	-67.9	0.0
2026-01-03 00:57:35.199573	18.4	13.7	-70.1	0.0
2026-01-03 00:57:36.325950	18.5	13.8	-70.9	0.0
2026-01-03 00:57:37.453349	18.5	13.9	-69.3	0.0
2026-01-03 00:57:38.583725	18.5	14.0	-71.1	0.0
2026-01-03 00:57:39.712538	18.5	14.1	-71.6	0.0
2026-01-03 00:57:40.842605	18.5	14.3	-71.2	0.0
2026-01-03 00:57:41.971762	18.5	14.4	-69.0	0.0
2026-01-03 00:57:43.102723	18.6	14.5	-71.7	0.0
2026-01-03 00:57:44.231099	18.6	14.6	-71.2	0.0
2026-01-03 00:57:45.359241	18.6	14.7	-72.0	0.0
2026-01-03 00:57:46.487992	18.6	14.8	-71.1	0.0
2026-01-03 00:57:47.615388	18.6	15.0	-71.9	0.0
2026-01-03 00:57:48.745535	18.7	15.1	-71.9	0.0
2026-01-03 00:57:49.874921	18.7	15.2	-67.6	0.0
2026-01-03 00:57:51.002578	18.7	15.3	-69.9	0.0
2026-01-03 00:57:52.129401	18.7	15.5	-71.2	0.0
2026-01-03 00:57:53.258918	18.7	15.6	-69.0	0.0
2026-01-03 00:57:54.392498	18.8	15.7	-71.3	0.0
2026-01-03 00:57:55.527801	18.8	15.8	-71.9	0.0
2026-01-03 00:57:56.666779	18.8	15.9	-72.7	0.0
2026-01-03 00:57:57.801989	18.8	16.1	-69.5	0.0
2026-01-03 00:57:58.939269	18.8	16.2	-71.9	0.0
2026-01-03 00:58:00.076113	18.9	16.3	-70.7	0.0
2026-01-03 00:58:01.212244	18.9	16.5	-73.3	0.0
2026-01-03 00:58:02.347574	18.9	16.6	-70.8	0.0
2026-01-03 00:58:03.485537	18.9	16.7	-70.4	0.0
2026-01-03 00:58:04.623608	18.9	16.8	-71.0	0.0
2026-01-03 00:58:05.758680	19.0	17.0	-68.1	0.0
2026-01-03 00:58:06.898011	19.0	17.1	-73.0	0.0
2026-01-03 00:58:08.035122	19.0	17.2	-70.7	0.0
2026-01-03 00:58:09.173779	19.0	17.4	-71.9	0.0
2026-01-03 00:58:10.310142	19.1	17.5	-72.0	0.0
2026-01-03 00:58:11.441411	19.1	17.6	-70.6	0.0
2026-01-03 00:58:12.575500	19.1	17.8	-71.0	0.0
2026-01-03 00:58:13.710458	19.1	17.9	-70.2	0.0
2026-01-03 00:58:14.844632	19.1	18.0	-70.5	0.0
2026-01-03 00:58:15.979886	19.2	18.2	-71.5	0.0
2026-01-03 00:58:17.111860	19.2	18.3	-71.6	0.0
2026-01-03 00:58:18.241384	19.2	18.5	-69.9	0.0
2026-01-03 00:58:19.372384	19.2	18.6	-72.4	0.0
2026-01-03 00:58:20.505892	19.3	18.7	-71.4	0.0
2026-01-03 00:58:21.636724	19.3	18.9	-69.7	0.0
2026-01-03 00:58:22.770863	19.3	19.0	-71.8	0.0
2026-01-03 00:58:23.903161	19.3	19.2	-72.3	0.0
2026-01-03 00:58:25.037764	19.4	19.3	-72.8	0.0
2026-01-03 00:58:26.168094	19.4	19.4	-70.2	0.0
2026-01-03 00:58:27.301151	19.4	19.6	-71.7	0.0
2026-01-03 00:58:28.436544	19.4	19.7	-70.6	0.0
2026-01-03 00:58:29.571341	19.4	19.9	-70.3	0.0
2026-01-03 00:58:30.707595	19.5	20.0	-69.6	0.0
2026-01-03 00:58:31.845824	19.5	20.2	-72.1	0.0
2026-01-03 00:58:32.983078	19.5	20.3	-70.7	0.0
2026-01-03 00:58:34.118302	19.6	20.5	-67.3	0.0
2026-01-03 00:58:35.254337	19.6	20.6	-71.0	0.0
2026-01-03 00:58:36.390335	19.6	20.8	-71.7	0.0
2026-01-03 00:58:37.528277	19.6	20.9	-70.0	0.0
2026-01-03 00:58:38.665787	19.7	21.1	-71.5	0.0
2026-01-03 00:58:39.804539	19.7	21.2	-70.8	0.0
2026-01-03 00:58:40.939917	19.7	21.4	-71.3	0.0
2026-01-03 00:58:42.078265	19.7	21.6	-70.6	0.0
2026-01-03 00:58:43.216234	19.8	21.7	-70.7	0.0
2026-01-03 00:58:44.354051	19.8	21.9	-71.5	0.0
2026-01-03 00:58:45.490812	19.8	22.0	-70.4	0.0
2026-01-03 00:58:46.629462	19.8	22.2	-72.2	0.0
2026-01-03 00:58:47.766246	19.9	22.4	-72.4	0.0
2026-01-03 00:58:48.901771	19.9	22.5	-70.1	0.0
2026-01-03 00:58:50.041426	19.9	22.7	-69.5	0.0
2026-01-03 00:58:51.178801	20.0	22.8	-70.4	0.0
2026-01-03 00:58:52.313861	20.0	23.0	-72.3	0.0
2026-01-03 00:58:53.450906	20.0	23.2	-70.0	0.0
2026-01-03 00:58:54.587582	20.1	23.4	-72.3	0.0
2026-01-03 00:58:55.725217	20.1	23.5	-72.4	0.0
2026-01-03 00:58:56.863044	20.1	23.7	-72.6	0.0
2026-01-03 00:58:57.998639	20.1	23.9	-70.5	0.0
2026-01-03 00:58:59.134813	20.2	24.0	-71.7	0.0
2026-01-03 00:59:00.270199	20.2	24.2	-71.9	0.0
2026-01-03 00:59:01.409311	20.2	24.4	-71.2	0.0
2026-01-03 00:59:02.545638	20.3	24.6	-69.9	0.0
2026-01-03 00:59:03.682642	20.3	24.7	-72.1	0.0
2026-01-03 00:59:04.815603	20.3	24.9	-73.1	0.0
2026-01-03 00:59:05.946512	20.4	25.1	-69.8	0.0
2026-01-03 00:59:07.078305	20.4	25.3	-71.9	0.0
2026-01-03 00:59:08.211163	20.4	25.5	-72.0	0.0
2026-01-03 00:59:09.344938	20.5	25.6	-71.4	0.0
2026-01-03 00:59:10.476801	20.5	25.8	-71.2	0.2
2026-01-03 00:59:11.607580	20.5	26.0	-71.6	0.0
2026-01-03 00:59:12.735167	20.6	26.2	-71.7	0.0
2026-01-03 00:59:13.865626	20.6	26.4	-67.2	0.0
2026-01-03 00:59:14.994575	20.6	26.6	-70.5	0.0
2026-01-03 00:59:16.121889	20.7	26.8	-70.9	0.0
2026-01-03 00:59:17.255016	20.7	27.0	-71.5	0.0
2026-01-03 00:59:18.386977	20.8	27.2	-69.9	0.0
2026-01-03 00:59:19.516197	20.8	27.3	-72.5	2.3
2026-01-03 00:59:20.646905	20.8	27.5	-72.7	0.8
2026-01-03 00:59:21.780527	20.9	27.7	-70.2	0.0
2026-01-03 00:59:22.912983	20.9	27.9	-72.6	0.0
2026-01-03 00:59:24.044137	20.9	28.1	-71.7	0.3
2026-01-03 00:59:25.172755	21.0	28.3	-73.3	0.0
2026-01-03 00:59:26.299875	21.0	28.5	-70.9	0.0
2026-01-03 00:59:27.428848	21.1	28.7	-73.4	1.2
2026-01-03 00:59:28.556604	21.1	29.0	-73.4	2.6
2026-01-03 00:59:29.682570	21.1	29.2	-70.5	0.0
2026-01-03 00:59:30.811775	21.2	29.4	-73.4	1.4
2026-01-03 00:59:31.937483	21.2	29.6	-73.2	2.7
2026-01-03 00:59:33.064632	21.3	29.8	-72.3	0.4
2026-01-03 00:59:34.191065	21.3	30.0	-71.7	0.0
2026-01-03 00:59:35.316639	21.4	30.2	-73.1	0.0
2026-01-03 00:59:36.445969	21.4	30.4	-74.0	3.7
2026-01-03 00:59:37.574242	21.4	30.7	-69.8	0.0
2026-01-03 00:59:38.704759	21.5	30.9	-75.1	0.0
2026-01-03 00:59:39.832461	21.5	31.1	-74.7	4.6
2026-01-03 00:59:40.962491	21.6	31.3	-75.4	1.4
2026-01-03 00:59:42.091653	21.6	31.5	-70.9	0.0
2026-01-03 00:59:43.218778	21.7	31.8	-75.6	1.5
2026-01-03 00:59:44.345347	21.7	32.0	-75.4	5.2
2026-01-03 00:59:45.474656	21.8	32.2	-71.5	0.0
2026-01-03 00:59:46.605048	21.8	32.5	-74.9	4.9
2026-01-03 00:59:47.736326	21.9	32.7	-74.8	5.3
2026-01-03 00:59:48.866080	21.9	32.9	-74.9	5.5
2026-01-03 00:59:49.996076	22.0	33.2	-70.6	0.0
2026-01-03 00:59:51.123204	22.0	33.4	-74.5	4.6
2026-01-03 00:59:52.253348	22.1	33.7	-74.7	5.8
2026-01-03 00:59:53.381437	22.1	33.9	-74.8	0.0
2026-01-03 00:59:54.512191	22.2	34.1	-73.4	5.7
2026-01-03 00:59:55.645992	22.2	34.4	-75.3	4.5
2026-01-03 00:59:56.779898	22.3	34.6	-74.1	5.4
2026-01-03 00:59:57.912603	22.3	34.9	-72.1	1.4
2026-01-03 00:59:59.045646	22.4	35.2	-74.5	5.5
2026-01-03 01:00:00.179795	22.5	35.4	-75.0	4.7
2026-01-03 01:00:01.314867	22.5	35.7	-75.2	8.0
2026-01-03 01:00:02.447055	22.6	35.9	-74.9	5.0
2026-01-03 01:00:03.579453	22.6	36.2	-75.9	6.8
2026-01-03 01:00:04.711987	22.7	36.5	-75.9	6.3
2026-01-03 01:00:05.845802	22.8	36.7	-73.6	1.6
2026-01-03 01:00:06.977595	22.8	37.0	-75.0	4.2
2026-01-03 01:00:08.110933	22.9	37.3	-74.6	5.3
2026-01-03 01:00:09.242745	23.0	37.5	-75.3	3.3
2026-01-03 01:00:10.373940	23.0	37.8	-74.9	7.0
2026-01-03 01:00:11.506590	23.1	38.1	-76.1	6.3
2026-01-03 01:00:12.641199	23.2	38.4	-76.9	8.8
2026-01-03 01:00:13.773232	23.2	38.7	-75.3	4.5
2026-01-03 01:00:14.904119	23.3	38.9	-76.5	8.6
2026-01-03 01:00:16.037251	23.4	39.2	-76.1	6.6
2026-01-03 01:00:17.168319	23.5	39.5	-76.9	7.5
2026-01-03 01:00:18.298928	23.5	39.8	-75.6	4.7
2026-01-03 01:00:19.431659	23.6	40.1	-77.3	8.8
2026-01-03 01:00:20.564514	23.7	40.4	-76.9	8.5
2026-01-03 01:00:21.693738	23.8	40.7	-76.0	5.7
2026-01-03 01:00:22.824464	23.8	41.0	-77.0	9.1
2026-01-03 01:00:23.957758	23.9	41.3	-75.9	7.6
2026-01-03 01:00:25.093078	24.0	41.6	-76.4	9.6
2026-01-03 01:00:26.227590	24.1	41.9	-75.8	5.9
2026-01-03 01:00:27.358915	24.2	42.2	-76.5	8.3
2026-01-03 01:00:28.490356	24.3	42.5	-76.5	7.8
2026-01-03 01:00:29.623380	24.4	42.9	-77.0	8.1
2026-01-03 01:00:30.755608	24.4	43.2	-76.9	7.9
2026-01-03 01:00:31.886621	24.5	43.5	-76.9	8.2
2026-01-03 01:00:33.019030	24.6	43.8	-77.1	7.7
2026-01-03 01:00:34.156333	24.7	44.2	-76.2	7.3
2026-01-03 01:00:35.287197	24.8	44.5	-77.5	10.8
2026-01-03 01:00:36.425726	24.9	44.8	-77.3	9.5
2026-01-03 01:00:37.563336	25.0	45.2	-76.8	9.4
2026-01-03 01:00:38.700822	25.1	45.5	-76.8	8.3
2026-01-03 01:00:39.835342	25.2	45.8	-77.2	9.7
2026-01-03 01:00:40.971234	25.4	46.2	-77.3	9.7
2026-01-03 01:00:42.107599	25.5	46.5	-77.3	9.4
2026-01-03 01:00:43.245016	25.6	46.9	-77.4	9.0
2026-01-03 01:00:44.380097	25.7	47.2	-77.2	7.6
2026-01-03 01:00:45.517786	25.8	47.6	-77.4	9.1
2026-01-03 01:00:46.656496	25.9	48.0	-77.8	9.3
2026-01-03 01:00:47.794814	26.1	48.3	-78.5	10.7
2026-01-03 01:00:48.931639	26.2	48.7	-77.9	8.8
2026-01-03 01:00:50.067740	26.3	49.1	-77.4	7.3
2026-01-03 01:00:51.204384	26.5	49.4	-78.1	9.1
2026-01-03 01:00:52.339815	26.6	49.8	-77.9	7.8
2026-01-03 01:00:53.480117	26.7	50.2	-78.3	8.0
2026-01-03 01:00:54.617137	26.9	50.6	-78.8	8.0
2026-01-03 01:00:55.754710	27.0	51.0	-78.4	8.1
2026-01-03 01:00:56.894094	27.2	51.3	-78.1	7.2
2026-01-03 01:00:58.032320	27.3	51.7	-77.9	7.5
2026-01-03 01:00:59.168619	27.5	52.1	-77.8	6.8
2026-01-03 01:01:00.305817	27.7	52.5	-78.8	9.7
2026-01-03 01:01:01.442066	27.8	52.9	-78.1	7.3
2026-01-03 01:01:02.578490	28.0	53.3	-78.6	9.1
2026-01-03 01:01:03.716261	28.2	53.7	-78.5	8.2
2026-01-03 01:01:04.854707	28.4	54.1	-78.2	8.4
2026-01-03 01:01:05.993726	28.5	54.6	-78.6	8.6
2026-01-03 01:01:07.131792	28.7	55.0	-78.6	9.2
2026-01-03 01:01:08.269782	28.9	55.4	-78.0	8.0
2026-01-03 01:01:09.405375	29.1	55.8	-78.6	8.3
2026-01-03 01:01:10.542453	29.4	56.2	-78.9	8.0
2026-01-03 01:01:11.679316	29.6	56.7	-78.0	7.3
2026-01-03 01:01:12.817665	29.8	57.1	-78.2	7.2
2026-01-03 01:01:13.953322	30.0	57.5	-78.2	6.4
2026-01-03 01:01:15.089761	30.3	58.0	-78.7	6.9
2026-01-03 01:01:16.228593	30.5	58.4	-78.5	5.6
2026-01-03 01:01:17.365579	30.8	58.8	-79.4	8.6
2026-01-03 01:01:18.504901	31.0	59.3	-78.9	7.1
2026-01-03 01:01:19.641491	31.3	59.7	-78.4	6.8
2026-01-03 01:01:20.779478	31.6	60.2	-78.8	6.1
2026-01-03 01:01:21.918204	31.9	60.6	-78.2	3.5
2026-01-03 01:01:23.054441	32.2	61.1	-79.3	8.1
2026-01-03 01:01:24.191546	32.5	61.5	-79.0	5.6
2026-01-03 01:01:25.330430	32.8	62.0	-79.3	5.3
2026-01-03 01:01:26.467486	33.1	62.4	-78.1	5.5
2026-01-03 01:01:27.604861	33.5	62.9	-78.3	5.6
2026-01-03 01:01:28.741828	33.8	63.4	-78.2	5.2
2026-01-03 01:01:29.877106	34.2	63.8	-78.3	7.5
2026-01-03 01:01:31.010419	34.6	64.3	-78.7	9.1
2026-01-03 01:01:32.144134	35.0	64.8	-78.0	6.0
2026-01-03 01:01:33.281474	35.4	65.3	-77.8	8.3
2026-01-03 01:01:34.417979	35.9	65.7	-77.8	5.1
2026-01-03 01:01:35.552962	36.3	66.2	-78.4	7.6
2026-01-03 01:01:36.687416	36.8	66.7	-78.6	7.9
2026-01-03 01:01:37.823520	37.3	67.2	-78.0	5.3
2026-01-03 01:01:38.962795	37.9	67.6	-78.4	7.1
2026-01-03 01:01:40.097286	38.4	68.1	-77.9	6.1
2026-01-03 01:01:41.229929	39.0	68.6	-78.2	4.7
2026-01-03 01:01:42.366487	39.6	69.1	-77.7	3.5
2026-01-03 01:01:43.502919	40.2	69.6	-78.6	5.3
2026-01-03 01:01:44.637924	40.9	70.0	-78.9	5.5
2026-01-03 01:01:45.770096	41.6	70.5	-78.8	5.7
2026-01-03 01:01:46.905431	42.4	71.0	-79.5	7.2
2026-01-03 01:01:48.039817	43.2	71.5	-78.4	3.3
2026-01-03 01:01:49.177785	44.0	72.0	-79.4	5.7
2026-01-03 01:01:50.311466	44.9	72.4	-78.5	4.6
2026-01-03 01:01:51.449107	45.8	72.9	-78.9	6.5
2026-01-03 01:01:52.584456	46.8	73.4	-78.0	3.7
2026-01-03 01:01:53.720075	47.8	73.9	-78.3	5.3
2026-01-03 01:01:54.857150	48.9	74.3	-79.4	7.5
2026-01-03 01:01:55.993359	50.1	74.8	-79.5	6.9
2026-01-03 01:01:57.130147	51.4	75.3	-79.1	7.8
2026-01-03 01:01:58.267133	52.7	75.7	-78.4	5.1
2026-01-03 01:01:59.407711	54.2	76.2	-79.7	8.8
2026-01-03 01:02:00.543821	55.7	76.6	-79.3	8.5
2026-01-03 01:02:01.681550	57.3	77.0	-78.7	8.1
2026-01-03 01:02:02.819598	59.1	77.4	-79.2	7.5
2026-01-03 01:02:03.957267	61.0	77.8	-79.6	9.4
2026-01-03 01:02:05.087980	63.0	78.2	-78.9	8.6
2026-01-03 01:02:06.214317	65.1	78.6	-78.1	7.6
2026-01-03 01:02:07.341886	67.4	79.0	-78.5	8.4
2026-01-03 01:02:08.469132	69.8	79.3	-79.3	10.1
2026-01-03 01:02:09.600438	72.4	79.7	-78.5	7.7
2026-01-03 01:02:10.728864	75.1	80.0	-79.0	8.3
2026-01-03 01:02:11.859382	78.1	80.2	-78.7	9.3
2026-01-03 01:02:12.986787	81.2	80.5	-78.8	9.2
2026-01-03 01:02:14.117781	84.4	80.7	-78.1	7.9
2026-01-03 01:02:15.249199	87.9	80.9	-79.0	9.7
2026-01-03 01:02:16.380198	91.4	81.1	-78.7	9.7
2026-01-03 01:02:17.508715	95.1	81.2	-78.4	9.0
2026-01-03 01:02:18.634836	98.9	81.3	-78.9	12.8
2026-01-03 01:02:19.763893	102.7	81.4	-79.1	12.0
2026-01-03 01:02:20.889838	106.5	81.4	-78.8	11.7
2026-01-03 01:02:22.020823	110.4	81.4	-78.6	10.6
2026-01-03 01:02:23.149867	114.2	81.3	-79.5	11.3
2026-01-03 01:02:24.283206	118.0	81.2	-79.1	10.6
2026-01-03 01:02:25.414339	121.7	81.1	-79.4	11.5
2026-01-03 01:02:26.543865	125.2	80.9	-79.2	10.5
2026-01-03 01:02:27.673244	128.6	80.7	-79.6	11.9
2026-01-03 01:02:28.804781	131.8	80.5	-79.7	12.5
2026-01-03 01:02:29.942009	134.9	80.2	-79.5	11.9
2026-01-03 01:02:31.082483	137.8	79.9	-79.6	12.2
2026-01-03 01:02:32.221064	140.6	79.6	-79.6	11.7
2026-01-03 01:02:33.357200	143.2	79.3	-79.7	12.2
2026-01-03 01:02:34.496013	145.6	78.9	-79.8	12.0
2026-01-03 01:02:35.632797	147.9	78.5	-79.7	12.0
2026-01-03 01:02:36.768190	150.0	78.1	-79.5	10.7
2026-01-03 01:02:37.903550	151.9	77.7	-79.5	10.2
2026-01-03 01:02:39.038284	153.8	77.3	-79.8	12.8
2026-01-03 01:02:40.171647	155.5	76.9	-80.3	11.5
2026-01-03 01:02:41.309643	157.1	76.5	-80.2	11.5
2026-01-03 01:02:42.445054	158.6	76.0	-80.7	10.6
2026-01-03 01:02:43.580610	160.0	75.6	-80.6	12.0
2026-01-03 01:02:44.716452	161.3	75.1	-80.8	12.3
2026-01-03 01:02:45.851183	162.6	74.7	-80.6	11.2
2026-01-03 01:02:46.986300	163.8	74.2	-81.2	11.6
2026-01-03 01:02:48.118701	164.9	73.8	-81.0	11.3
2026-01-03 01:02:49.253873	165.9	73.3	-81.2	12.2
2026-01-03 01:02:50.387503	166.9	72.8	-81.0	12.1
2026-01-03 01:02:51.520398	167.8	72.3	-81.2	12.2
2026-01-03 01:02:52.655022	168.6	71.9	-80.6	12.8
2026-01-03 01:02:53.791782	169.5	71.4	-80.8	12.3
2026-01-03 01:02:54.923293	170.2	70.9	-80.8	12.7
2026-01-03 01:02:56.057863	171.0	70.4	-81.1	12.3
2026-01-03 01:02:57.192226	171.7	69.9	-81.0	12.0
2026-01-03 01:02:58.324800	172.3	69.4	-81.1	11.8
2026-01-03 01:02:59.460248	173.0	69.0	-81.4	11.9
2026-01-03 01:03:00.594879	173.6	68.5	-81.8	11.1
2026-01-03 01:03:01.730581	174.2	68.0	-81.9	10.7
2026-01-03 01:03:02.864422	174.7	67.5	-82.1	10.6
2026-01-03 01:03:03.998342	175.2	67.0	-82.3	10.6
2026-01-03 01:03:05.130423	175.7	66.6	-82.3	10.0
2026-01-03 01:03:06.262584	176.2	66.1	-82.2	10.6
2026-01-03 01:03:07.397087	176.7	65.6	-82.3	10.6
2026-01-03 01:03:08.533306	177.1	65.1	-82.0	11.4
2026-01-03 01:03:09.669168	177.5	64.7	-81.6	11.0
2026-01-03 01:03:10.801574	177.9	64.2	-81.6	11.8
2026-01-03 01:03:11.936052	178.3	63.7	-81.5	11.8
2026-01-03 01:03:13.071959	178.7	63.2	-81.6	11.8
2026-01-03 01:03:14.207808	179.0	62.8	-81.7	11.1
2026-01-03 01:03:15.340771	179.4	62.3	-81.4	12.2
2026-01-03 01:03:16.475876	179.7	61.9	-81.5	11.2
2026-01-03 01:03:17.610610	180.0	61.4	-81.8	11.7
2026-01-03 01:03:18.743788	180.3	60.9	-81.9	12.2
2026-01-03 01:03:19.879457	180.6	60.5	-81.9	11.1
2026-01-03 01:03:21.013349	180.9	60.0	-82.2	11.8
2026-01-03 01:03:22.147681	181.2	59.6	-82.2	10.4
2026-01-03 01:03:23.283903	181.5	59.1	-82.4	10.9
2026-01-03 01:03:24.420851	181.7	58.7	-82.1	10.2
2026-01-03 01:03:25.557537	182.0	58.3	-82.0	11.3
2026-01-03 01:03:26.695195	182.2	57.8	-81.9	11.2
2026-01-03 01:03:27.833309	182.5	57.4	-82.2	11.4
2026-01-03 01:03:28.967659	182.7	56.9	-82.1	10.5
2026-01-03 01:03:30.103961	182.9	56.5	-81.8	10.8
2026-01-03 01:03:31.245661	183.1	56.1	-81.8	11.8
2026-01-03 01:03:32.383674	183.3	55.7	-81.6	12.2
2026-01-03 01:03:33.520013	183.5	55.2	-81.4	12.2
2026-01-03 01:03:34.657799	183.7	54.8	-81.6	12.2
2026-01-03 01:03:35.791047	183.9	54.4	-81.7	11.3
2026-01-03 01:03:36.929054	184.1	54.0	-81.9	11.9
2026-01-03 01:03:38.064632	184.3	53.6	-81.7	11.9
2026-01-03 01:03:39.200483	184.5	53.2	-81.8	12.0
2026-01-03 01:03:40.337136	184.6	52.8	-81.5	12.6
2026-01-03 01:03:41.474793	184.8	52.4	-81.2	12.5
2026-01-03 01:03:42.613599	185.0	52.0	-81.5	13.2
2026-01-03 01:03:43.749990	185.1	51.6	-81.5	12.4
2026-01-03 01:03:44.886162	185.3	51.2	-81.6	12.5
2026-01-03 01:03:46.021178	185.4	50.8	-81.6	11.6
2026-01-03 01:03:47.157576	185.6	50.4	-81.4	11.8
2026-01-03 01:03:48.295229	185.7	50.0	-81.7	12.4
2026-01-03 01:03:49.432814	185.9	49.7	-81.4	12.5
2026-01-03 01:03:50.567659	186.0	49.3	-81.6	12.6
2026-01-03 01:03:51.701039	186.1	48.9	-81.7	12.0
2026-01-03 01:03:52.837157	186.3	48.5	-81.5	12.9
2026-01-03 01:03:53.975526	186.4	48.2	-81.4	12.4
2026-01-03 01:03:55.109531	186.5	47.8	-81.1	12.1
2026-01-03 01:03:56.245417	186.6	47.5	-81.4	12.4
2026-01-03 01:03:57.380970	186.8	47.1	-80.9	13.1
2026-01-03 01:03:58.513888	186.9	46.7	-80.9	12.8
2026-01-03 01:03:59.649327	187.0	46.4	-80.8	12.8
2026-01-03 01:04:00.785862	187.1	46.0	-81.0	12.8
2026-01-03 01:04:01.921525	187.2	45.7	-80.9	12.2
2026-01-03 01:04:03.307879	187.3	45.3	-80.8	13.0
2026-01-03 01:04:04.437411	187.4	44.9	-80.7	13.2
2026-01-03 01:04:05.573753	187.5	44.6	-80.3	11.7
2026-01-03 01:04:06.708051	187.6	44.3	-80.6	12.6
2026-01-03 01:04:07.841177	187.7	43.9	-80.2	12.5
2026-01-03 01:04:08.975793	187.8	43.6	-80.3	12.2
2026-01-03 01:04:10.107908	187.9	43.3	-80.2	11.9
2026-01-03 01:04:11.240052	188.0	43.0	-80.3	12.0
2026-01-03 01:04:12.374145	188.1	42.6	-79.9	10.8
2026-01-03 01:04:13.506387	188.2	42.3	-79.8	12.7
2026-01-03 01:04:14.639895	188.3	42.0	-79.8	12.3
2026-01-03 01:04:15.773367	188.4	41.7	-79.6	12.9
2026-01-03 01:04:16.905675	188.5	41.4	-79.9	13.0
2026-01-03 01:04:18.035608	188.5	41.1	-79.4	11.7
2026-01-03 01:04:19.170069	188.6	40.8	-79.4	12.9
2026-01-03 01:04:20.303461	188.7	40.5	-79.5	12.4
2026-01-03 01:04:21.433909	188.8	40.2	-79.7	13.2
2026-01-03 01:04:22.569127	188.9	39.9	-79.6	12.2
2026-01-03 01:04:23.700695	188.9	39.6	-79.3	11.0
2026-01-03 01:04:24.831097	189.0	39.3	-79.5	11.6
2026-01-03 01:04:25.957282	189.1	39.0	-79.4	11.2
2026-01-03 01:04:27.085178	189.1	38.7	-79.6	12.7
2026-01-03 01:04:28.210555	189.2	38.4	-79.6	11.7
2026-01-03 01:04:29.337786	189.3	38.1	-79.2	12.9
2026-01-03 01:04:30.461904	189.4	37.9	-79.5	11.4
2026-01-03 01:04:31.588968	189.4	37.6	-79.4	11.6
2026-01-03 01:04:32.714796	189.5	37.3	-79.2	11.9
2026-01-03 01:04:33.840305	189.6	37.0	-79.3	13.2
2026-01-03 01:04:34.965759	189.6	36.8	-79.4	13.1
2026-01-03 01:04:36.093060	189.7	36.5	-78.8	10.3
2026-01-03 01:04:37.219449	189.7	36.2	-79.4	12.2
2026-01-03 01:04:38.344717	189.8	36.0	-79.2	10.8
2026-01-03 01:04:39.471040	189.9	35.7	-79.4	11.4
2026-01-03 01:04:40.600049	189.9	35.4	-79.3	11.3
2026-01-03 01:04:41.725621	190.0	35.2	-79.1	11.1
2026-01-03 01:04:42.851116	190.0	34.9	-79.1	11.3
2026-01-03 01:04:43.975705	190.1	34.7	-79.2	11.3
2026-01-03 01:04:45.101840	190.1	34.4	-79.1	10.9
2026-01-03 01:04:46.228916	190.2	34.2	-79.1	10.4
2026-01-03 01:04:47.355083	190.3	33.9	-79.1	11.2
2026-01-03 01:04:48.483050	190.3	33.7	-78.9	10.4
2026-01-03 01:04:49.607970	190.4	33.4	-78.9	12.2
2026-01-03 01:04:50.734588	190.4	33.2	-79.1	11.1
2026-01-03 01:04:51.859625	190.5	33.0	-78.8	11.3
2026-01-03 01:04:52.987576	190.5	32.7	-78.6	11.4
2026-01-03 01:04:54.114733	190.6	32.5	-78.3	11.1
2026-01-03 01:04:55.245594	190.6	32.3	-78.8	10.2
2026-01-03 01:04:56.377697	190.7	32.0	-78.5	10.6
2026-01-03 01:04:57.509969	190.7	31.8	-78.6	12.2
2026-01-03 01:04:58.642511	190.8	31.6	-78.3	9.2
2026-01-03 01:04:59.775722	190.8	31.3	-78.5	11.3
2026-01-03 01:05:00.908570	190.9	31.1	-78.5	11.2
2026-01-03 01:05:02.041899	190.9	30.9	-78.1	11.2
2026-01-03 01:05:03.173006	190.9	30.7	-78.8	9.5
2026-01-03 01:05:04.307055	191.0	30.4	-78.3	10.7
2026-01-03 01:05:05.440936	191.0	30.2	-78.4	9.5
2026-01-03 01:05:06.573903	191.1	30.0	-77.9	8.4
2026-01-03 01:05:07.709423	191.1	29.8	-78.1	8.4
2026-01-03 01:05:08.841287	191.2	29.6	-77.9	7.9
2026-01-03 01:05:09.973500	191.2	29.4	-77.6	8.5
2026-01-03 01:05:11.105226	191.2	29.1	-78.5	9.9
2026-01-03 01:05:12.237821	191.3	28.9	-78.4	8.5
2026-01-03 01:05:13.371760	191.3	28.7	-78.6	11.3
2026-01-03 01:05:14.505806	191.4	28.5	-78.2	8.4
2026-01-03 01:05:15.637756	191.4	28.3	-79.1	11.0
2026-01-03 01:05:16.773024	191.4	28.1	-78.4	9.2
2026-01-03 01:05:17.909168	191.5	27.9	-78.5	9.0
2026-01-03 01:05:19.045256	191.5	27.7	-77.6	7.1
2026-01-03 01:05:20.183042	191.6	27.5	-78.6	11.7
2026-01-03 01:05:21.318258	191.6	27.3	-78.8	9.8
2026-01-03 01:05:22.457588	191.6	27.1	-78.4	8.2
2026-01-03 01:05:23.594381	191.7	26.9	-78.1	9.6
2026-01-03 01:05:24.731906	191.7	26.7	-78.0	8.6
2026-01-03 01:05:25.870909	191.7	26.5	-78.5	11.6
2026-01-03 01:05:27.008278	191.8	26.3	-78.6	10.9
2026-01-03 01:05:28.147984	191.8	26.1	-78.4	11.7
2026-01-03 01:05:29.286628	191.8	25.9	-78.8	11.8
2026-01-03 01:05:30.424787	191.9	25.8	-78.1	9.5
2026-01-03 01:05:31.561133	191.9	25.6	-78.2	9.0
2026-01-03 01:05:32.702633	191.9	25.4	-78.2	11.6
2026-01-03 01:05:33.841373	192.0	25.2	-78.3	11.8
2026-01-03 01:05:34.977478	192.0	25.0	-78.7	10.0
2026-01-03 01:05:36.115252	192.0	24.8	-78.8	9.2
2026-01-03 01:05:37.251628	192.1	24.7	-78.4	8.6
2026-01-03 01:05:38.389886	192.1	24.5	-78.4	9.5
2026-01-03 01:05:39.528751	192.1	24.3	-78.5	11.8
2026-01-03 01:05:40.667662	192.2	24.1	-78.9	10.7
2026-01-03 01:05:41.804554	192.2	24.0	-78.3	8.8
2026-01-03 01:05:42.942776	192.2	23.8	-78.5	10.7
2026-01-03 01:05:44.080128	192.3	23.6	-79.3	11.3
2026-01-03 01:05:45.215324	192.3	23.4	-79.0	10.1
2026-01-03 01:05:46.353798	192.3	23.3	-79.1	9.7
2026-01-03 01:05:47.492470	192.4	23.1	-79.0	9.6
2026-01-03 01:05:48.630270	192.4	22.9	-78.3	9.4
2026-01-03 01:05:49.764389	192.4	22.8	-79.1	8.9
2026-01-03 01:05:50.898941	192.4	22.6	-78.9	11.3
2026-01-03 01:05:52.035834	192.5	22.4	-78.7	10.0
2026-01-03 01:05:53.169378	192.5	22.3	-79.1	9.7
2026-01-03 01:05:54.304997	192.5	22.1	-78.8	10.0
2026-01-03 01:05:55.440074	192.5	21.9	-78.7	8.3
2026-01-03 01:05:56.573979	192.6	21.8	-78.9	9.7
2026-01-03 01:05:57.712913	192.6	21.6	-78.5	10.2
2026-01-03 01:05:58.847669	192.6	21.5	-79.2	11.2
2026-01-03 01:05:59.980603	192.7	21.3	-79.2	10.1
2026-01-03 01:06:01.115203	192.7	21.1	-78.9	10.7
2026-01-03 01:06:02.250647	192.7	21.0	-79.2	11.2
2026-01-03 01:06:03.384176	192.7	20.8	-79.1	9.9
2026-01-03 01:06:04.517129	192.8	20.7	-78.8	10.3
2026-01-03 01:06:05.653779	192.8	20.5	-78.8	10.1
2026-01-03 01:06:06.786966	192.8	20.4	-79.0	11.4
2026-01-03 01:06:07.921939	192.8	20.2	-78.6	12.2
2026-01-03 01:06:09.056816	192.9	20.1	-78.6	10.5
2026-01-03 01:06:10.194572	192.9	19.9	-78.8	10.2
2026-01-03 01:06:11.325605	192.9	19.8	-79.1	10.1
2026-01-03 01:06:12.459666	192.9	19.6	-79.1	10.6
2026-01-03 01:06:13.593006	193.0	19.5	-79.2	8.9
2026-01-03 01:06:14.726973	193.0	19.3	-78.5	8.5
2026-01-03 01:06:15.862967	193.0	19.2	-78.8	10.7
2026-01-03 01:06:16.997127	193.0	19.0	-79.0	9.7
2026-01-03 01:06:18.129906	193.1	18.9	-79.1	9.3
2026-01-03 01:06:19.264036	193.1	18.8	-79.0	10.7
2026-01-03 01:06:20.397682	193.1	18.6	-79.0	8.8
2026-01-03 01:06:21.531688	193.1	18.5	-79.1	10.8
2026-01-03 01:06:22.663764	193.1	18.3	-78.9	9.5
2026-01-03 01:06:23.801436	193.2	18.2	-79.1	10.8
2026-01-03 01:06:24.935980	193.2	18.1	-79.2	9.0
2026-01-03 01:06:26.070810	193.2	17.9	-78.9	9.8
2026-01-03 01:06:27.206127	193.2	17.8	-79.3	10.0
2026-01-03 01:06:28.341021	193.3	17.6	-78.9	9.9
2026-01-03 01:06:29.475803	193.3	17.5	-79.2	7.9
2026-01-03 01:06:30.610311	193.3	17.4	-79.1	8.4
2026-01-03 01:06:31.744838	193.3	17.2	-79.1	10.7
2026-01-03 01:06:32.881023	193.3	17.1	-79.3	10.4
2026-01-03 01:06:34.016875	193.4	17.0	-78.8	9.9
2026-01-03 01:06:35.151293	193.4	16.8	-79.3	8.8
2026-01-03 01:06:36.285703	193.4	16.7	-79.2	10.3
2026-01-03 01:06:37.419710	193.4	16.6	-79.8	11.3
2026-01-03 01:06:38.551995	193.4	16.5	-78.9	8.4
2026-01-03 01:06:39.689508	193.5	16.3	-79.4	9.5
2026-01-03 01:06:40.823336	193.5	16.2	-79.3	10.1
2026-01-03 01:06:41.956818	193.5	16.1	-78.9	8.7
2026-01-03 01:06:43.095566	193.5	15.9	-78.9	10.1
2026-01-03 01:06:44.232906	193.5	15.8	-79.3	10.2
2026-01-03 01:06:45.368812	193.6	15.7	-79.0	10.6
2026-01-03 01:06:46.503441	193.6	15.6	-78.8	10.1
2026-01-03 01:06:47.640808	193.6	15.4	-79.1	10.6
2026-01-03 01:06:48.780515	193.6	15.3	-79.5	9.3
2026-01-03 01:06:49.918096	193.6	15.2	-79.1	9.8
2026-01-03 01:06:51.056996	193.7	15.1	-79.3	10.9
2026-01-03 01:06:52.189085	193.7	14.9	-79.4	10.2
2026-01-03 01:06:53.317334	193.7	14.8	-79.4	9.5
2026-01-03 01:06:54.448043	193.7	14.7	-78.9	8.1
2026-01-03 01:06:55.577020	193.7	14.6	-79.3	7.1
2026-01-03 01:06:56.708747	193.7	14.5	-79.1	10.3
2026-01-03 01:06:57.838099	193.8	14.3	-78.8	8.9
2026-01-03 01:06:58.965565	193.8	14.2	-79.7	9.6
2026-01-03 01:07:00.092549	193.8	14.1	-79.3	9.3
2026-01-03 01:07:01.220101	193.8	14.0	-79.5	10.5
2026-01-03 01:07:02.349352	193.8	13.9	-79.3	9.1
2026-01-03 01:07:03.481076	193.9	13.8	-79.4	10.0
2026-01-03 01:07:04.609765	193.9	13.6	-79.8	8.6
2026-01-03 01:07:05.739372	193.9	13.5	-79.1	9.8
2026-01-03 01:07:06.869385	193.9	13.4	-79.5	8.9
2026-01-03 01:07:07.997291	193.9	13.3	-79.9	9.3
2026-01-03 01:07:09.126822	193.9	13.2	-79.2	10.8
2026-01-03 01:07:10.258561	194.0	13.1	-79.4	8.1
2026-01-03 01:07:11.389514	194.0	13.0	-79.4	8.3
2026-01-03 01:07:12.517537	194.0	12.9	-80.0	6.7
2026-01-03 01:07:13.645404	194.0	12.7	-79.7	9.5
2026-01-03 01:07:14.774379	194.0	12.6	-79.7	7.7
2026-01-03 01:07:15.908481	194.0	12.5	-80.1	9.6
2026-01-03 01:07:17.042976	194.1	12.4	-79.5	8.9
2026-01-03 01:07:18.177739	194.1	12.3	-79.7	8.8
2026-01-03 01:07:19.309831	194.1	12.2	-79.6	9.9
2026-01-03 01:07:20.444055	194.1	12.1	-80.0	9.1
2026-01-03 01:07:21.577397	194.1	12.0	-79.8	10.5
2026-01-03 01:07:22.709867	194.1	11.9	-80.0	8.5
2026-01-03 01:07:23.841525	194.1	11.8	-79.3	8.7
2026-01-03 01:07:24.973654	194.2	11.7	-80.5	9.0
2026-01-03 01:07:26.108950	194.2	11.6	-80.2	6.8
2026-01-03 01:07:27.240055	194.2	11.5	-79.7	8.8
2026-01-03 01:07:28.373666	194.2	11.3	-80.0	8.3
2026-01-03 01:07:29.505418	194.2	11.2	-79.7	9.0
2026-01-03 01:07:30.637398	194.2	11.1	-79.6	7.9
2026-01-03 01:07:31.771141	194.3	11.0	-79.9	8.2
2026-01-03 01:07:32.904717	194.3	10.9	-80.1	7.7
2026-01-03 01:07:34.037416	194.3	10.8	-79.2	6.7
2026-01-03 01:07:35.174260	194.3	10.7	-81.7	1.2
2026-01-03 01:07:36.310171	194.3	10.6	-82.4	0.0
2026-01-03 01:07:37.445476	194.3	10.5	-84.0	0.0
2026-01-03 01:07:38.582919	194.3	10.4	-84.5	0.0
2026-01-03 01:07:39.718492	194.4	10.3	-85.1	0.0
2026-01-03 01:07:40.854240	194.4	10.2	-85.8	0.1
2026-01-03 01:07:41.989706	194.4	10.1	-86.2	0.0
#Closed at: 2026-01-03 00:56:50.620784