passes_logs/2026/01/22/R2.0S_Moscow/R2.0S_Moscow__20260122_113054_AQUA_rec.log

#Pass ID: 20260122_113054_AQUA
#Satellite: AQUA
#Configuration: AQUA
#almurnet v.1.7.20251203
#Start time: 2026-01-22 11:30:54

#Version: 2.2.20231116
#Station: R2.0S_Moscow
#Location: 37.707566 lon 55.798166 lat
#TLE: 1 27424U 02022A   26021.53721517  .00002456  00000+0  50140-3 0  9996
#TLE: 2 27424  98.4098 348.0744 0002012  70.1009  46.1672 14.61843091261845

#Time	Az	El	Level	Level2	SNR	BER	BlckErr	Temp	State	Recorded	gain1	gain2
2026-01-22 11:30:54.51	156.14	1.98	-44.7	-63.4	3.8	7.45e-01	0	51	0	0	60	31997
2026-01-22 11:30:55.51	156.13	2.04	-44.8	-63.4	3.8	7.45e-01	0	51	104	0	60	31940
2026-01-22 11:30:56.53	156.13	2.11	-44.8	-63.4	3.8	7.46e-01	0	51	104	0	60	31983
2026-01-22 11:30:57.54	156.12	2.18	-44.8	-63.4	3.8	7.43e-01	0	51	104	0	60	31989
2026-01-22 11:30:58.54	156.11	2.25	-44.8	-63.4	3.8	7.47e-01	0	51	104	0	60	32007
2026-01-22 11:30:59.56	156.11	2.32	-44.8	-63.4	3.8	7.44e-01	0	51	104	0	60	32031
2026-01-22 11:31:00.57	156.10	2.38	-44.7	-63.4	3.8	7.42e-01	0	52	104	0	60	31917
2026-01-22 11:31:01.58	156.09	2.45	-44.8	-63.4	3.8	7.47e-01	0	52	104	0	60	31968
2026-01-22 11:31:02.59	156.08	2.52	-44.8	-63.4	3.8	7.45e-01	0	52	104	0	60	31927
2026-01-22 11:31:03.60	156.08	2.59	-44.8	-63.3	3.8	7.43e-01	0	52	104	0	60	31650
2026-01-22 11:31:04.61	156.07	2.66	-44.8	-63.4	3.8	7.48e-01	0	52	104	0	60	31924
2026-01-22 11:31:05.62	156.06	2.73	-44.8	-63.4	3.8	7.48e-01	0	52	104	0	60	31887
2026-01-22 11:31:06.63	156.05	2.80	-44.8	-63.3	3.8	7.45e-01	0	52	104	0	60	31761
2026-01-22 11:31:07.64	156.05	2.87	-44.7	-63.4	3.8	7.41e-01	0	52	104	0	60	31879
2026-01-22 11:31:08.65	156.04	2.94	-44.5	-63.3	3.8	7.47e-01	0	52	104	0	60	31584
2026-01-22 11:31:09.66	156.03	3.01	-44.8	-63.4	3.8	7.46e-01	0	52	104	0	60	31867
2026-01-22 11:31:10.67	156.02	3.08	-44.8	-63.4	3.8	7.42e-01	0	52	104	0	60	31914
2026-01-22 11:31:11.68	156.02	3.15	-44.8	-63.3	3.8	7.44e-01	0	52	104	0	60	31564
2026-01-22 11:31:12.69	156.01	3.22	-44.8	-63.4	3.8	7.47e-01	0	53	104	0	60	31953
2026-01-22 11:31:13.70	156.00	3.29	-44.8	-63.4	3.8	7.46e-01	0	53	104	0	60	31959
2026-01-22 11:31:14.71	155.99	3.36	-44.8	-63.4	3.8	7.46e-01	0	53	104	0	60	31925
2026-01-22 11:31:15.72	155.99	3.43	-44.8	-63.3	3.8	7.45e-01	0	53	104	0	60	31653
2026-01-22 11:31:16.73	155.98	3.50	-44.8	-63.4	3.8	7.44e-01	0	53	104	0	60	31832
2026-01-22 11:31:17.74	155.97	3.57	-44.8	-63.4	3.8	7.46e-01	0	53	104	0	60	31882
2026-01-22 11:31:18.75	155.96	3.65	-43.8	-63.2	3.8	7.45e-01	0	53	104	0	60	31169
2026-01-22 11:31:19.76	155.95	3.72	-44.8	-63.4	3.8	7.44e-01	0	53	104	0	60	31843
2026-01-22 11:31:20.77	155.94	3.79	-44.8	-63.3	3.8	7.45e-01	0	53	104	0	60	31790
2026-01-22 11:31:21.78	155.94	3.86	-44.8	-63.3	3.8	7.49e-01	0	53	104	0	60	31781
2026-01-22 11:31:22.79	155.93	3.94	-44.8	-63.4	3.8	7.47e-01	0	53	104	0	60	31976
2026-01-22 11:31:23.80	155.92	4.01	-44.8	-63.1	3.8	7.44e-01	0	53	104	0	60	30941
2026-01-22 11:31:24.81	155.91	4.08	-44.8	-63.4	3.8	7.47e-01	0	53	104	0	60	31991
2026-01-22 11:31:25.82	155.90	4.15	-44.4	-63.0	3.8	7.41e-01	0	54	104	0	60	30482
2026-01-22 11:31:26.83	155.89	4.23	-44.3	-62.9	3.7	7.43e-01	0	54	104	0	60	30320
2026-01-22 11:31:27.84	155.88	4.30	-44.8	-63.4	3.7	7.46e-01	0	53	104	0	60	31830
2026-01-22 11:31:28.85	155.88	4.38	-44.8	-63.3	3.8	7.41e-01	0	54	104	0	60	31605
2026-01-22 11:31:29.86	155.87	4.45	-44.7	-63.3	3.8	7.46e-01	0	53	104	0	60	31493
2026-01-22 11:31:30.87	155.86	4.52	-44.7	-63.3	3.8	7.44e-01	0	54	104	0	60	31753
2026-01-22 11:31:31.88	155.85	4.60	-44.7	-63.3	3.8	7.44e-01	0	54	104	0	60	31486
2026-01-22 11:31:32.89	155.84	4.67	-44.7	-63.3	3.8	7.43e-01	0	54	104	0	60	31748
2026-01-22 11:31:33.90	155.83	4.75	-44.7	-63.4	3.8	7.45e-01	0	54	104	0	60	31835
2026-01-22 11:31:34.91	155.82	4.82	-44.7	-63.3	3.8	7.43e-01	0	54	104	0	60	31801
2026-01-22 11:31:35.92	155.81	4.90	-44.6	-63.3	3.8	7.46e-01	0	54	104	0	60	31726
2026-01-22 11:31:36.93	155.80	4.98	-44.7	-63.3	3.8	7.49e-01	0	54	104	0	60	31491
2026-01-22 11:31:37.94	155.79	5.05	-44.6	-63.1	3.8	7.49e-01	0	54	104	0	60	30911
2026-01-22 11:31:38.96	155.78	5.13	-44.7	-63.1	3.8	7.45e-01	0	54	104	0	60	30949
2026-01-22 11:31:39.97	155.78	5.21	-44.7	-63.1	3.8	7.44e-01	0	54	104	0	60	30946
2026-01-22 11:31:40.98	155.77	5.28	-44.7	-63.1	3.8	7.44e-01	0	54	104	0	60	30859
2026-01-22 11:31:41.99	155.76	5.36	-44.7	-63.0	3.8	7.46e-01	0	54	104	0	60	30522
2026-01-22 11:31:43.00	155.75	5.44	-44.7	-62.8	3.8	7.43e-01	0	54	104	0	60	29881
2026-01-22 11:31:44.01	155.74	5.51	-44.7	-62.7	3.8	7.45e-01	0	54	104	0	60	29564
2026-01-22 11:31:45.02	155.73	5.59	-44.7	-62.5	3.8	7.44e-01	0	54	104	0	60	28974
2026-01-22 11:31:46.03	155.72	5.67	-44.7	-62.3	3.8	7.45e-01	0	54	104	0	60	28351
2026-01-22 11:31:47.04	155.71	5.75	-44.7	-61.6	3.8	7.45e-01	0	55	104	0	60	26052
2026-01-22 11:31:48.05	155.70	5.83	-44.7	-61.2	3.9	7.44e-01	0	55	104	0	60	24881
2026-01-22 11:31:49.06	155.69	5.91	-44.6	-59.7	4.2	7.39e-01	0	55	104	0	60	20894
2026-01-22 11:31:50.08	155.68	5.99	-44.6	-59.2	4.0	7.40e-01	0	55	104	0	60	19655
2026-01-22 11:31:51.09	155.67	6.06	-44.5	-57.4	5.2	7.05e-01	13	55	0	0	60	16083
2026-01-22 11:31:52.10	155.66	6.14	-44.7	-56.8	5.8	6.87e-01	91	55	104	0	59	15817
2026-01-22 11:31:53.11	155.65	6.22	-44.5	-55.9	6.4	6.77e-01	92	55	0	1048576	59	14351
2026-01-22 11:31:54.12	155.63	6.30	-44.6	-55.6	6.8	6.64e-01	91	55	0	3145728	59	13729
2026-01-22 11:31:55.13	155.62	6.39	-44.5	-55.2	7.2	6.60e-01	92	55	0	4718592	59	13228
2026-01-22 11:31:56.14	155.61	6.47	-43.9	-55.5	6.8	6.67e-01	91	55	0	6815744	59	13620
2026-01-22 11:31:57.15	155.60	6.55	-44.7	-56.3	6.2	6.76e-01	91	55	0	8912896	59	15010
2026-01-22 11:31:58.16	155.59	6.63	-44.7	-56.7	5.9	6.86e-01	92	55	0	10485760	59	15692
2026-01-22 11:31:59.17	155.58	6.71	-44.5	-57.0	5.7	6.94e-01	21	55	0	11534336	59	16238
2026-01-22 11:32:00.18	155.57	6.79	-44.5	-57.4	5.3	7.05e-01	0	55	0	11534336	60	16033
2026-01-22 11:32:01.19	155.56	6.87	-44.6	-59.0	4.5	7.24e-01	0	55	104	11534336	60	19242
2026-01-22 11:32:02.20	155.55	6.96	-44.6	-60.8	3.8	7.46e-01	0	55	104	11534336	60	23840
2026-01-22 11:32:03.22	155.54	7.04	-44.7	-61.7	3.8	7.47e-01	0	55	104	11534336	60	26234
2026-01-22 11:32:04.23	155.53	7.12	-44.7	-61.8	3.8	7.44e-01	0	55	104	11534336	60	26475
2026-01-22 11:32:05.24	155.51	7.21	-44.5	-58.9	4.5	7.29e-01	0	55	104	11534336	60	19081
2026-01-22 11:32:06.25	155.50	7.29	-44.4	-56.8	5.6	6.91e-01	11	56	0	11534336	60	14947
2026-01-22 11:32:07.26	155.49	7.37	-44.5	-54.7	7.6	6.51e-01	92	56	0	13107200	59	12439
2026-01-22 11:32:08.27	155.48	7.46	-44.2	-52.9	9.5	6.27e-01	0	55	0	14680064	59	10098
2026-01-22 11:32:09.28	155.47	7.54	-43.9	-51.4	11.1	6.16e-01	0	56	0	16777216	59	8521
2026-01-22 11:32:10.29	155.46	7.63	-43.6	-50.2	12.2	6.11e-01	0	56	0	18350080	58	7864
2026-01-22 11:32:11.30	155.44	7.71	-43.4	-49.3	13.2	6.10e-01	0	56	0	20447232	58	7093
2026-01-22 11:32:12.31	155.43	7.80	-43.1	-48.5	14.2	6.07e-01	0	56	0	22544384	57	6823
2026-01-22 11:32:13.32	155.42	7.88	-42.7	-47.6	15.0	6.06e-01	0	56	0	24117248	57	6202
2026-01-22 11:32:14.33	155.41	7.97	-42.6	-47.3	15.4	6.06e-01	0	56	0	26214400	57	5960
2026-01-22 11:32:15.34	155.39	8.06	-42.5	-47.1	15.6	6.08e-01	0	56	0	28311552	56	6135
2026-01-22 11:32:16.35	155.38	8.14	-43.9	-50.9	12.2	6.13e-01	0	56	0	29884416	58	8503
2026-01-22 11:32:17.36	155.37	8.23	-44.1	-51.4	10.3	6.18e-01	0	56	0	30408704	59	8543
2026-01-22 11:32:18.37	155.36	8.32	-44.2	-53.7	8.2	6.43e-01	42	56	0	31981568	59	11145
2026-01-22 11:32:19.38	155.34	8.41	-43.4	-49.3	12.6	6.12e-01	11	56	0	34078720	57	7486
2026-01-22 11:32:20.39	155.33	8.50	-43.1	-48.6	13.4	6.09e-01	0	56	0	35651584	56	7293
2026-01-22 11:32:21.40	155.32	8.58	-42.6	-47.3	15.3	6.05e-01	0	56	0	37748736	56	6306
2026-01-22 11:32:22.40	155.31	8.67	-42.6	-47.3	15.2	6.07e-01	0	56	0	39321600	55	6659
2026-01-22 11:32:23.41	155.29	8.76	-42.9	-47.8	14.1	6.09e-01	0	56	0	41418752	55	7043
2026-01-22 11:32:24.42	155.28	8.85	-42.5	-47.0	15.4	6.05e-01	0	56	0	43515904	55	6485
2026-01-22 11:32:25.43	155.27	8.94	-42.3	-46.7	16.0	6.07e-01	0	56	0	45088768	55	6204
2026-01-22 11:32:26.44	155.25	9.03	-42.3	-46.7	15.6	6.06e-01	0	56	0	47185920	55	6210
2026-01-22 11:32:27.45	155.24	9.12	-42.2	-46.4	16.4	6.07e-01	0	57	0	48758784	55	6014
2026-01-22 11:32:28.46	155.23	9.21	-42.3	-46.5	16.3	6.05e-01	0	56	0	50855936	55	6108
2026-01-22 11:32:29.47	155.21	9.30	-42.3	-46.6	16.0	6.04e-01	0	56	0	52953088	55	6184
2026-01-22 11:32:30.48	155.20	9.40	-42.3	-46.4	16.4	6.07e-01	0	56	0	54525952	55	6047
2026-01-22 11:32:31.49	155.18	9.49	-42.2	-46.3	15.7	6.06e-01	0	57	0	56623104	54	6310
2026-01-22 11:32:32.50	155.17	9.58	-42.2	-46.2	16.6	6.08e-01	0	56	0	58195968	54	6250
2026-01-22 11:32:33.51	155.15	9.67	-42.2	-46.2	16.7	6.08e-01	0	56	0	60293120	54	6253
2026-01-22 11:32:34.52	155.14	9.77	-42.2	-46.3	16.6	6.06e-01	0	56	0	62390272	55	5925
2026-01-22 11:32:35.52	155.13	9.86	-42.0	-46.2	16.5	6.06e-01	0	56	0	63963136	55	5873
2026-01-22 11:32:36.53	155.11	9.95	-42.1	-46.1	16.7	6.05e-01	0	56	0	66060288	54	6161
2026-01-22 11:32:37.54	155.10	10.05	-42.1	-46.1	16.8	6.04e-01	0	57	0	67633152	54	6187
2026-01-22 11:32:38.55	155.08	10.14	-42.2	-46.2	16.7	6.06e-01	0	57	0	69730304	54	6244
2026-01-22 11:32:39.56	155.07	10.24	-42.2	-46.1	16.9	6.05e-01	0	57	0	71827456	54	6163
2026-01-22 11:32:40.57	155.05	10.34	-42.2	-46.2	16.7	6.06e-01	0	57	0	73400320	55	5879
2026-01-22 11:32:41.58	155.04	10.43	-42.1	-46.1	16.3	6.09e-01	0	57	0	75497472	54	6181
2026-01-22 11:32:42.59	155.02	10.53	-42.2	-46.1	16.9	6.05e-01	0	57	0	77594624	54	6193
2026-01-22 11:32:43.60	155.01	10.63	-42.2	-46.1	16.9	6.05e-01	0	57	0	79167488	55	5854
2026-01-22 11:32:44.61	154.99	10.72	-42.2	-46.1	17.0	6.06e-01	0	57	0	81264640	54	6147
2026-01-22 11:32:45.62	154.97	10.82	-42.2	-46.1	17.0	6.06e-01	0	57	0	82837504	54	6142
2026-01-22 11:32:46.63	154.96	10.92	-42.3	-46.1	16.8	6.05e-01	0	57	0	84934656	55	5847
2026-01-22 11:32:47.64	154.94	11.02	-42.2	-46.1	15.9	6.05e-01	0	57	0	87031808	55	5829
2026-01-22 11:32:48.65	154.93	11.12	-42.2	-45.9	17.2	6.05e-01	0	57	0	88604672	55	5720
2026-01-22 11:32:49.66	154.91	11.22	-42.2	-46.0	17.1	6.07e-01	0	57	0	90701824	55	5760
2026-01-22 11:32:50.67	154.89	11.32	-42.2	-46.0	17.1	6.06e-01	0	57	0	92798976	55	5746
2026-01-22 11:32:51.68	154.88	11.42	-42.2	-46.1	17.1	6.09e-01	0	57	0	94371840	55	5797
2026-01-22 11:32:52.69	154.86	11.52	-42.2	-46.2	16.8	6.07e-01	0	57	0	96468992	55	5886
2026-01-22 11:32:53.70	154.84	11.62	-42.2	-45.9	17.2	6.07e-01	0	57	0	98041856	55	5715
2026-01-22 11:32:54.71	154.83	11.72	-42.1	-45.9	17.0	6.06e-01	0	57	0	100139008	55	5719
2026-01-22 11:32:55.72	154.81	11.82	-42.1	-45.8	17.2	6.06e-01	0	57	0	102236160	55	5647
2026-01-22 11:32:56.73	154.79	11.93	-42.1	-45.8	17.4	6.08e-01	0	57	0	103809024	55	5629
2026-01-22 11:32:57.74	154.77	12.03	-42.1	-45.8	17.4	6.06e-01	0	57	0	105906176	54	5939
2026-01-22 11:32:58.75	154.76	12.13	-42.1	-45.7	17.5	6.08e-01	0	57	0	107479040	54	5919
2026-01-22 11:32:59.76	154.74	12.24	-42.1	-45.7	17.6	6.07e-01	0	57	0	109576192	54	5862
2026-01-22 11:33:00.77	154.72	12.34	-42.1	-45.7	17.5	6.05e-01	0	57	0	111673344	54	5903
2026-01-22 11:33:01.77	154.70	12.45	-42.1	-45.7	17.5	6.08e-01	0	57	0	113246208	54	5897
2026-01-22 11:33:02.79	154.68	12.56	-42.0	-45.5	17.7	6.04e-01	0	57	0	115343360	54	5765
2026-01-22 11:33:03.80	154.67	12.66	-42.0	-45.5	17.7	6.07e-01	0	57	0	116916224	54	5772
2026-01-22 11:33:04.80	154.65	12.77	-42.0	-45.5	17.8	6.05e-01	0	57	0	119013376	54	5768
2026-01-22 11:33:05.81	154.63	12.87	-42.0	-45.4	17.9	6.08e-01	0	57	0	121110528	54	5712
2026-01-22 11:33:06.82	154.61	12.98	-41.9	-45.3	18.0	6.05e-01	0	58	0	122683392	54	5635
2026-01-22 11:33:07.83	154.59	13.09	-41.8	-45.3	17.7	6.06e-01	0	57	0	124780544	54	5636
2026-01-22 11:33:08.84	154.57	13.20	-41.8	-45.4	15.9	6.09e-01	0	57	0	126353408	54	5662
2026-01-22 11:33:09.85	154.55	13.31	-42.0	-45.4	17.5	6.07e-01	0	57	0	128450560	54	5660
2026-01-22 11:33:10.86	154.53	13.42	-42.0	-45.4	17.9	6.07e-01	0	57	0	130547712	54	5659
2026-01-22 11:33:11.87	154.51	13.53	-41.9	-45.3	18.0	6.05e-01	0	57	0	132120576	54	5637
2026-01-22 11:33:12.88	154.49	13.64	-42.0	-45.4	18.0	6.08e-01	0	57	0	134217728	54	5694
2026-01-22 11:33:13.89	154.47	13.75	-41.9	-45.5	17.1	6.08e-01	0	57	0	135790592	54	5758
2026-01-22 11:33:14.90	154.45	13.87	-41.9	-45.4	18.0	6.07e-01	0	57	0	137887744	54	5695
2026-01-22 11:33:15.91	154.43	13.98	-42.0	-45.4	18.1	6.04e-01	0	58	0	139984896	54	5691
2026-01-22 11:33:16.92	154.41	14.09	-41.9	-45.5	17.6	6.05e-01	0	58	0	141557760	54	5742
2026-01-22 11:33:17.93	154.39	14.21	-42.0	-45.4	18.0	6.06e-01	0	58	0	143654912	54	5671
2026-01-22 11:33:18.94	154.37	14.32	-41.7	-45.4	17.8	6.07e-01	0	58	0	145752064	54	5678
2026-01-22 11:33:19.95	154.35	14.44	-42.0	-45.4	18.1	6.07e-01	0	58	0	147324928	54	5687
2026-01-22 11:33:20.96	154.33	14.55	-42.1	-45.5	18.1	6.06e-01	0	58	0	149422080	54	5723
2026-01-22 11:33:21.97	154.31	14.67	-42.1	-45.4	18.1	6.08e-01	0	58	0	150994944	54	5710
2026-01-22 11:33:22.98	154.28	14.79	-42.0	-45.4	18.2	6.05e-01	0	58	0	153092096	54	5672
2026-01-22 11:33:23.99	154.26	14.90	-42.0	-45.4	18.1	6.06e-01	0	58	0	155189248	54	5699
2026-01-22 11:33:25.00	154.24	15.02	-42.0	-45.3	18.2	6.06e-01	0	58	0	156762112	54	5656
2026-01-22 11:33:26.01	154.22	15.14	-42.0	-45.3	18.3	6.08e-01	0	58	0	158859264	54	5629
2026-01-22 11:33:27.02	154.19	15.26	-42.0	-45.3	18.2	6.07e-01	0	58	0	160956416	54	5624
2026-01-22 11:33:28.03	154.17	15.38	-42.0	-45.3	18.2	6.09e-01	0	58	0	162529280	54	5641
2026-01-22 11:33:29.04	154.15	15.50	-42.0	-45.3	18.2	6.08e-01	0	58	0	164626432	54	5640
2026-01-22 11:33:30.04	154.12	15.62	-42.0	-45.4	18.2	6.07e-01	0	58	0	166199296	54	5688
2026-01-22 11:33:31.05	154.10	15.74	-42.0	-45.4	18.2	6.06e-01	0	58	0	168296448	54	5667
2026-01-22 11:33:32.06	154.08	15.87	-42.0	-45.3	18.2	6.06e-01	0	58	0	170393600	54	5631
2026-01-22 11:33:33.07	154.05	15.99	-42.0	-45.3	18.2	6.06e-01	0	58	0	171966464	54	5593
2026-01-22 11:33:34.08	154.03	16.12	-42.0	-45.2	18.3	6.05e-01	0	58	0	174063616	54	5588
2026-01-22 11:33:35.09	154.00	16.24	-41.9	-45.2	18.5	6.07e-01	0	58	0	175636480	54	5561
2026-01-22 11:33:36.10	153.98	16.37	-42.0	-45.2	18.4	6.06e-01	0	58	0	177733632	54	5562
2026-01-22 11:33:37.11	153.95	16.49	-42.0	-45.3	18.4	6.10e-01	0	58	0	179830784	54	5634
2026-01-22 11:33:38.12	153.93	16.62	-42.1	-45.4	18.3	6.04e-01	0	58	0	181403648	54	5668
2026-01-22 11:33:39.13	153.90	16.75	-42.1	-45.4	18.3	6.08e-01	0	58	0	183500800	54	5667
2026-01-22 11:33:40.14	153.88	16.88	-42.1	-45.5	18.2	6.09e-01	0	58	0	185073664	54	5749
2026-01-22 11:33:41.15	153.85	17.01	-42.1	-45.5	18.2	6.07e-01	0	58	0	187170816	54	5749
2026-01-22 11:33:42.16	153.82	17.14	-42.2	-45.6	18.1	6.07e-01	0	58	0	189267968	54	5796
2026-01-22 11:33:43.17	153.80	17.27	-42.2	-45.6	18.1	6.07e-01	0	58	0	190840832	54	5814
2026-01-22 11:33:44.18	153.77	17.40	-42.3	-45.8	18.0	6.06e-01	0	58	0	192937984	55	5605
2026-01-22 11:33:45.19	153.74	17.53	-42.3	-45.6	18.1	6.06e-01	0	58	0	194510848	55	5528
2026-01-22 11:33:46.20	153.72	17.66	-42.2	-45.6	18.1	6.09e-01	0	58	0	196608000	55	5515
2026-01-22 11:33:47.21	153.69	17.80	-42.2	-45.6	18.1	6.08e-01	0	58	0	198705152	55	5506
2026-01-22 11:33:48.21	153.66	17.93	-42.2	-45.6	18.1	6.07e-01	0	58	0	200278016	55	5501
2026-01-22 11:33:49.22	153.63	18.07	-42.2	-45.5	18.2	6.07e-01	0	58	0	202375168	55	5423
2026-01-22 11:33:50.23	153.60	18.20	-42.1	-45.4	18.4	6.04e-01	0	58	0	203948032	55	5379
2026-01-22 11:33:51.24	153.57	18.34	-42.1	-45.4	18.4	6.07e-01	0	58	0	206045184	55	5380
2026-01-22 11:33:52.25	153.54	18.48	-42.2	-45.5	18.3	6.06e-01	0	58	0	208142336	55	5408
2026-01-22 11:33:53.26	153.52	18.62	-42.1	-45.4	18.4	6.08e-01	0	58	0	209715200	55	5372
2026-01-22 11:33:54.27	153.49	18.76	-42.1	-45.4	18.4	6.07e-01	0	59	0	211812352	55	5386
2026-01-22 11:33:55.28	153.46	18.90	-42.1	-45.4	18.4	6.08e-01	0	58	0	213909504	55	5354
2026-01-22 11:33:56.29	153.42	19.04	-42.1	-45.4	18.4	6.09e-01	0	59	0	215482368	55	5384
2026-01-22 11:33:57.30	153.39	19.18	-42.2	-45.5	18.4	6.06e-01	0	58	0	217579520	55	5406
2026-01-22 11:33:58.31	153.36	19.33	-42.1	-45.4	18.4	6.04e-01	0	58	0	219152384	55	5352
2026-01-22 11:33:59.32	153.33	19.47	-42.2	-45.4	18.4	6.08e-01	0	59	0	221249536	55	5396
2026-01-22 11:34:00.33	153.30	19.62	-42.2	-45.5	18.3	6.06e-01	0	58	0	223346688	55	5458
2026-01-22 11:34:01.34	153.27	19.76	-42.2	-45.4	18.4	6.08e-01	0	58	0	224919552	55	5396
2026-01-22 11:34:02.34	153.23	19.91	-42.2	-45.5	18.4	6.07e-01	0	58	0	227016704	55	5410
2026-01-22 11:34:03.35	153.20	20.06	-42.2	-45.5	18.4	6.07e-01	0	58	0	229113856	55	5405
2026-01-22 11:34:04.36	153.17	20.20	-42.2	-45.5	18.3	6.05e-01	0	59	0	230686720	55	5442
2026-01-22 11:34:05.37	153.13	20.35	-42.2	-45.5	18.4	6.07e-01	0	58	0	232783872	55	5419
2026-01-22 11:34:06.38	153.10	20.51	-42.3	-45.6	18.3	6.04e-01	0	59	0	234356736	55	5473
2026-01-22 11:34:07.39	153.07	20.66	-42.2	-45.5	18.3	6.05e-01	0	59	0	236453888	55	5417
2026-01-22 11:34:08.40	153.03	20.81	-42.2	-45.6	18.3	6.07e-01	0	59	0	238551040	55	5465
2026-01-22 11:34:09.41	153.00	20.96	-42.2	-45.5	18.4	6.06e-01	0	59	0	240123904	55	5415
2026-01-22 11:34:10.42	152.96	21.12	-42.2	-45.5	18.3	6.05e-01	0	59	0	242221056	55	5449
2026-01-22 11:34:11.43	152.92	21.28	-42.2	-45.5	18.4	6.05e-01	0	58	0	243793920	55	5411
2026-01-22 11:34:12.44	152.89	21.43	-42.2	-45.4	18.5	6.06e-01	0	59	0	245891072	55	5388
2026-01-22 11:34:13.45	152.85	21.59	-42.2	-45.5	18.4	6.06e-01	0	59	0	247463936	55	5404
2026-01-22 11:34:14.46	152.81	21.75	-42.2	-45.5	18.4	6.09e-01	0	59	0	249561088	55	5417
2026-01-22 11:34:15.46	152.78	21.91	-42.3	-45.6	18.3	6.06e-01	0	59	0	251658240	55	5481
2026-01-22 11:34:16.47	152.74	22.07	-42.3	-45.6	18.3	6.06e-01	0	59	0	253231104	55	5527
2026-01-22 11:34:17.48	152.70	22.23	-42.4	-45.8	18.1	6.05e-01	0	59	0	255328256	55	5599
2026-01-22 11:34:18.49	152.66	22.40	-42.5	-45.9	18.0	6.07e-01	0	59	0	257425408	55	5688
2026-01-22 11:34:19.50	152.62	22.56	-42.5	-46.0	18.0	6.07e-01	0	59	0	258998272	55	5723
2026-01-22 11:34:20.51	152.58	22.73	-42.5	-45.9	18.0	6.07e-01	0	59	0	261095424	55	5694
2026-01-22 11:34:21.52	152.54	22.89	-42.5	-45.9	18.0	6.06e-01	0	59	0	262668288	55	5693
2026-01-22 11:34:22.53	152.50	23.06	-42.5	-45.9	18.0	6.06e-01	0	59	0	264765440	55	5716
2026-01-22 11:34:23.54	152.46	23.23	-42.5	-45.9	18.1	6.07e-01	0	59	0	266862592	55	5660
2026-01-22 11:34:24.55	152.42	23.40	-42.4	-45.9	18.0	6.03e-01	0	59	0	268435456	55	5669
2026-01-22 11:34:25.56	152.37	23.57	-42.4	-45.8	18.1	6.06e-01	0	59	0	270532608	55	5650
2026-01-22 11:34:26.57	152.33	23.75	-42.4	-45.7	18.2	6.06e-01	0	59	0	272105472	55	5588
2026-01-22 11:34:27.58	152.29	23.92	-42.3	-45.7	18.2	6.07e-01	0	59	0	274202624	55	5543
2026-01-22 11:34:28.59	152.24	24.09	-42.4	-45.8	18.2	6.04e-01	0	59	0	276299776	55	5593
2026-01-22 11:34:29.60	152.20	24.27	-42.4	-45.7	18.2	6.04e-01	0	59	0	277872640	55	5590
2026-01-22 11:34:30.61	152.15	24.45	-42.4	-45.7	18.2	6.06e-01	0	59	0	279969792	55	5566
2026-01-22 11:34:31.62	152.11	24.63	-42.4	-45.7	18.3	6.06e-01	0	59	0	282066944	55	5551
2026-01-22 11:34:32.62	152.06	24.81	-42.4	-45.7	18.2	6.08e-01	0	59	0	283639808	55	5588
2026-01-22 11:34:33.63	152.01	24.99	-42.4	-45.8	18.2	6.07e-01	0	59	0	285736960	55	5609
2026-01-22 11:34:34.64	151.97	25.17	-42.5	-45.8	18.1	6.07e-01	0	59	0	287309824	55	5655
2026-01-22 11:34:35.65	151.92	25.36	-42.5	-45.9	18.0	6.05e-01	0	59	0	289406976	55	5696
2026-01-22 11:34:36.66	151.87	25.54	-42.5	-46.0	18.0	6.07e-01	0	59	0	291504128	55	5723
2026-01-22 11:34:37.67	151.82	25.73	-42.6	-46.0	17.9	6.05e-01	0	59	0	293076992	55	5775
2026-01-22 11:34:38.68	151.77	25.92	-42.5	-46.0	18.0	6.06e-01	0	59	0	295174144	55	5738
2026-01-22 11:34:39.69	151.72	26.11	-42.6	-46.0	17.9	6.07e-01	0	59	0	296747008	55	5782
2026-01-22 11:34:40.70	151.67	26.30	-42.5	-45.9	18.1	6.06e-01	0	59	0	298844160	55	5672
2026-01-22 11:34:41.71	151.62	26.49	-42.4	-45.7	18.3	6.08e-01	0	59	0	300941312	55	5551
2026-01-22 11:34:42.72	151.56	26.69	-42.3	-45.5	18.4	6.05e-01	0	59	0	302514176	55	5454
2026-01-22 11:34:43.73	151.51	26.89	-42.3	-45.5	18.4	6.06e-01	0	59	0	304611328	55	5448
2026-01-22 11:34:44.74	151.46	27.08	-42.3	-45.5	18.5	6.05e-01	0	59	0	306184192	55	5452
2026-01-22 11:34:45.74	151.40	27.28	-42.3	-45.5	18.5	6.06e-01	0	59	0	308281344	55	5427
2026-01-22 11:34:46.75	151.34	27.48	-42.3	-45.5	18.5	6.07e-01	0	59	0	310378496	55	5447
2026-01-22 11:34:47.76	151.29	27.68	-42.3	-45.5	18.5	6.04e-01	0	59	0	311951360	55	5432
2026-01-22 11:34:48.78	151.23	27.89	-42.2	-45.4	18.6	6.08e-01	0	59	0	314048512	55	5348
2026-01-22 11:34:49.79	151.17	28.09	-42.2	-45.4	18.6	6.06e-01	0	59	0	315621376	55	5350
2026-01-22 11:34:50.79	151.11	28.30	-42.3	-45.5	18.5	6.06e-01	0	59	0	317718528	55	5441
2026-01-22 11:34:51.80	151.05	28.51	-42.1	-45.2	18.8	6.06e-01	0	59	0	319815680	55	5247
2026-01-22 11:34:52.81	150.99	28.72	-42.0	-45.0	19.0	6.06e-01	0	59	0	321388544	55	5140
2026-01-22 11:34:53.82	150.93	28.93	-42.0	-45.1	18.9	6.05e-01	0	59	0	323485696	55	5161
2026-01-22 11:34:54.83	150.87	29.14	-42.0	-45.0	19.0	6.05e-01	0	59	0	325582848	55	5145
2026-01-22 11:34:55.84	150.81	29.36	-42.0	-45.1	18.9	6.05e-01	0	59	0	327155712	55	5177
2026-01-22 11:34:56.85	150.74	29.58	-42.0	-45.1	18.9	6.07e-01	0	59	0	329252864	55	5190
2026-01-22 11:34:57.86	150.68	29.80	-42.0	-45.0	19.0	6.07e-01	0	59	0	330825728	55	5158
2026-01-22 11:34:58.87	150.61	30.02	-41.9	-45.0	19.1	6.04e-01	0	59	0	332922880	55	5107
2026-01-22 11:34:59.88	150.54	30.24	-41.9	-44.8	19.2	6.05e-01	0	59	0	335020032	55	5007
2026-01-22 11:35:00.89	150.48	30.46	-41.9	-44.8	19.2	6.05e-01	0	59	0	336592896	55	5040
2026-01-22 11:35:01.90	150.41	30.69	-41.9	-44.9	19.1	6.06e-01	0	59	0	338690048	55	5062
2026-01-22 11:35:02.91	150.34	30.92	-42.0	-45.0	19.0	6.07e-01	0	59	0	340262912	55	5117
2026-01-22 11:35:03.92	150.27	31.15	-42.1	-45.2	18.9	6.09e-01	0	59	0	342360064	55	5224
2026-01-22 11:35:04.93	150.19	31.38	-42.2	-45.3	18.7	6.05e-01	0	59	0	344457216	55	5314
2026-01-22 11:35:05.94	150.12	31.61	-42.2	-45.4	18.7	6.06e-01	0	59	0	346030080	55	5373
2026-01-22 11:35:06.95	150.04	31.85	-42.2	-45.4	18.7	6.04e-01	0	59	0	348127232	55	5369
2026-01-22 11:35:07.96	149.97	32.09	-42.1	-45.1	18.9	6.06e-01	0	59	0	350224384	55	5203
2026-01-22 11:35:08.97	149.89	32.33	-42.1	-45.1	18.9	6.07e-01	0	59	0	351797248	55	5213
2026-01-22 11:35:09.98	149.81	32.57	-42.1	-45.2	18.8	6.07e-01	0	59	0	353894400	55	5254
2026-01-22 11:35:10.99	149.73	32.81	-42.3	-45.5	18.6	6.07e-01	0	59	0	355467264	55	5417
2026-01-22 11:35:12.00	149.65	33.06	-42.3	-45.6	18.5	6.08e-01	0	59	0	357564416	55	5482
2026-01-22 11:35:13.01	149.57	33.30	-42.3	-45.5	18.6	6.07e-01	0	59	0	359661568	55	5427
2026-01-22 11:35:14.02	149.49	33.55	-42.4	-45.6	18.5	6.05e-01	0	59	0	361234432	55	5486
2026-01-22 11:35:15.02	149.40	33.80	-42.4	-45.6	18.4	6.07e-01	0	59	0	363331584	55	5525
2026-01-22 11:35:16.03	149.32	34.06	-42.5	-45.8	18.3	6.07e-01	0	59	0	364904448	55	5623
2026-01-22 11:35:17.04	149.23	34.31	-42.6	-45.9	18.1	6.05e-01	0	59	0	367001600	55	5702
2026-01-22 11:35:18.05	149.14	34.57	-42.6	-46.0	18.1	6.07e-01	0	59	0	369098752	55	5787
2026-01-22 11:35:19.06	149.05	34.83	-42.7	-46.1	17.9	6.05e-01	0	59	0	370671616	55	5845
2026-01-22 11:35:20.07	148.96	35.10	-42.5	-45.9	18.2	6.05e-01	0	59	0	372768768	55	5683
2026-01-22 11:35:21.08	148.86	35.36	-42.5	-45.8	18.3	6.07e-01	0	59	0	374341632	55	5634
2026-01-22 11:35:22.09	148.77	35.63	-42.7	-46.1	17.9	6.07e-01	0	59	0	376438784	55	5833
2026-01-22 11:35:23.10	148.67	35.90	-43.0	-46.6	17.6	6.05e-01	0	60	0	378535936	56	5841
2026-01-22 11:35:24.11	148.57	36.17	-43.2	-47.0	17.2	6.07e-01	0	59	0	380108800	56	6066
2026-01-22 11:35:25.12	148.47	36.44	-43.2	-47.0	17.1	6.06e-01	0	59	0	382205952	57	5780
2026-01-22 11:35:26.13	148.37	36.72	-43.2	-47.0	17.1	6.04e-01	0	59	0	383778816	57	5762
2026-01-22 11:35:27.14	148.27	37.00	-43.1	-46.9	17.3	6.05e-01	0	59	0	385875968	57	5680
2026-01-22 11:35:28.15	148.16	37.28	-43.2	-46.9	17.2	6.07e-01	0	60	0	387973120	57	5722
2026-01-22 11:35:29.16	148.05	37.56	-43.3	-47.2	16.9	6.06e-01	0	60	0	389545984	57	5908
2026-01-22 11:35:30.17	147.94	37.85	-43.4	-47.4	16.7	6.07e-01	0	60	0	391643136	57	6002
2026-01-22 11:35:31.18	147.83	38.14	-43.6	-47.7	16.4	6.05e-01	0	60	0	393740288	57	6272
2026-01-22 11:35:32.19	147.72	38.43	-43.6	-47.7	16.5	6.04e-01	0	59	0	395313152	57	6228
2026-01-22 11:35:33.20	147.60	38.73	-43.5	-47.5	16.7	6.07e-01	0	60	0	397410304	57	6076
2026-01-22 11:35:34.20	147.48	39.02	-43.5	-47.5	16.6	6.05e-01	0	59	0	398983168	57	6121
2026-01-22 11:35:35.21	147.36	39.32	-43.4	-47.4	16.7	6.06e-01	0	60	0	401080320	57	6059
2026-01-22 11:35:36.22	147.24	39.62	-43.7	-47.9	16.1	6.08e-01	0	60	0	403177472	57	6377
2026-01-22 11:35:37.23	147.11	39.92	-43.7	-48.1	16.1	6.05e-01	0	60	0	404750336	58	6138
2026-01-22 11:35:38.24	146.99	40.23	-43.6	-47.8	16.4	6.07e-01	0	60	0	406847488	58	5942
2026-01-22 11:35:39.25	146.85	40.54	-43.5	-47.5	16.5	6.04e-01	0	60	0	408420352	58	5754
2026-01-22 11:35:40.26	146.72	40.85	-43.3	-47.1	17.1	6.08e-01	0	60	0	410517504	58	5511
2026-01-22 11:35:41.27	146.59	41.17	-43.1	-46.7	17.4	6.06e-01	0	60	0	412614656	58	5277
2026-01-22 11:35:42.28	146.45	41.48	-43.0	-46.6	17.6	6.04e-01	0	60	0	414187520	57	5473
2026-01-22 11:35:43.29	146.31	41.81	-43.0	-46.6	17.6	6.05e-01	0	60	0	416284672	57	5512
2026-01-22 11:35:44.29	146.16	42.13	-43.1	-46.9	17.3	6.06e-01	0	60	0	417857536	57	5673
2026-01-22 11:35:45.30	146.01	42.45	-43.0	-46.5	17.6	6.06e-01	0	60	0	419954688	57	5458
2026-01-22 11:35:46.31	145.86	42.78	-42.8	-46.3	17.9	6.06e-01	0	60	0	422051840	57	5280
2026-01-22 11:35:47.32	145.71	43.11	-42.6	-46.1	18.1	6.04e-01	0	60	0	423624704	57	5205
2026-01-22 11:35:48.33	145.55	43.45	-42.6	-46.0	18.2	6.09e-01	0	60	0	425721856	57	5134
2026-01-22 11:35:49.34	145.39	43.78	-42.6	-46.0	18.2	6.07e-01	0	60	0	427294720	57	5123
2026-01-22 11:35:50.35	145.23	44.12	-42.8	-46.1	18.1	6.07e-01	0	60	0	429391872	57	5218
2026-01-22 11:35:51.36	145.06	44.47	-42.7	-46.1	18.1	6.06e-01	0	60	0	431489024	57	5171
2026-01-22 11:35:52.37	144.89	44.81	-42.4	-45.6	18.6	6.06e-01	0	60	0	433061888	56	5215
2026-01-22 11:35:53.38	144.71	45.16	-42.5	-45.6	18.6	6.06e-01	0	60	0	435159040	56	5206
2026-01-22 11:35:54.39	144.53	45.51	-42.7	-46.1	18.1	6.06e-01	0	60	0	436731904	56	5485
2026-01-22 11:35:55.40	144.35	45.87	-42.8	-46.2	18.0	6.07e-01	0	60	0	438829056	56	5588
2026-01-22 11:35:56.41	144.16	46.22	-42.6	-46.0	18.3	6.07e-01	0	60	0	440926208	56	5409
2026-01-22 11:35:57.42	143.97	46.58	-42.6	-45.8	18.4	6.07e-01	0	60	0	442499072	56	5310
2026-01-22 11:35:58.43	143.77	46.95	-42.6	-45.8	18.4	6.07e-01	0	60	0	444596224	56	5309
2026-01-22 11:35:59.44	143.57	47.31	-42.7	-46.0	18.2	6.06e-01	0	60	0	446693376	56	5428
2026-01-22 11:36:00.45	143.36	47.68	-42.8	-46.1	18.1	6.08e-01	0	60	0	448266240	56	5525
2026-01-22 11:36:01.45	143.15	48.05	-42.7	-46.1	18.1	6.07e-01	0	60	0	450363392	56	5488
2026-01-22 11:36:02.46	142.93	48.43	-42.7	-46.1	18.1	6.06e-01	0	60	0	451936256	56	5503
2026-01-22 11:36:03.47	142.71	48.80	-42.6	-45.8	18.4	6.07e-01	0	60	0	454033408	56	5332
2026-01-22 11:36:04.49	142.48	49.19	-42.6	-45.9	18.3	6.07e-01	0	60	0	456130560	56	5390
2026-01-22 11:36:05.49	142.25	49.57	-43.1	-46.8	17.5	6.08e-01	0	60	0	457703424	56	5943
2026-01-22 11:36:06.50	142.01	49.95	-42.7	-46.1	18.1	6.05e-01	0	60	0	459800576	56	5490
2026-01-22 11:36:07.51	141.76	50.34	-42.1	-45.1	19.2	6.06e-01	0	60	0	461897728	56	4872
2026-01-22 11:36:08.52	141.51	50.74	-42.4	-45.6	18.7	6.06e-01	0	60	0	463470592	56	5177
2026-01-22 11:36:09.53	141.25	51.13	-42.7	-46.0	18.2	6.07e-01	0	60	0	465567744	56	5450
2026-01-22 11:36:10.54	140.98	51.53	-42.3	-45.3	18.8	6.06e-01	0	60	0	467140608	56	5035
2026-01-22 11:36:11.55	140.71	51.93	-42.0	-44.9	19.2	6.05e-01	0	60	0	469237760	56	4810
2026-01-22 11:36:12.56	140.42	52.33	-42.1	-45.0	19.3	6.07e-01	0	60	0	471334912	56	4839
2026-01-22 11:36:13.57	140.13	52.74	-42.3	-45.3	18.9	6.06e-01	0	60	0	472907776	56	5010
2026-01-22 11:36:14.58	139.83	53.15	-42.2	-45.2	19.0	6.05e-01	0	60	0	475004928	56	4952
2026-01-22 11:36:15.59	139.53	53.56	-42.1	-45.1	19.1	6.06e-01	0	60	0	476577792	56	4879
2026-01-22 11:36:16.60	139.21	53.97	-41.9	-44.7	19.4	6.04e-01	0	60	0	478674944	55	4939
2026-01-22 11:36:17.60	138.89	54.39	-41.9	-44.7	19.4	6.05e-01	0	60	0	480772096	55	4967
2026-01-22 11:36:18.61	138.55	54.81	-42.4	-45.6	18.6	6.08e-01	0	60	0	482344960	55	5503
2026-01-22 11:36:19.62	138.20	55.23	-42.0	-45.0	19.1	6.06e-01	0	60	0	484442112	55	5133
2026-01-22 11:36:20.63	137.85	55.65	-42.1	-45.2	19.0	6.08e-01	0	60	0	486014976	55	5229
2026-01-22 11:36:21.65	137.48	56.08	-42.6	-45.9	18.2	6.05e-01	0	60	0	488112128	55	5680
2026-01-22 11:36:22.65	137.10	56.51	-42.6	-45.9	17.6	6.06e-01	0	60	0	490209280	55	5689
2026-01-22 11:36:23.66	136.71	56.94	-42.5	-45.7	18.4	6.06e-01	0	60	0	491782144	55	5566
2026-01-22 11:36:24.67	136.30	57.37	-42.9	-46.5	17.8	6.06e-01	0	60	0	493879296	56	5737
2026-01-22 11:36:25.68	135.89	57.81	-42.9	-46.4	17.8	6.07e-01	0	60	0	495452160	56	5663
2026-01-22 11:36:26.69	135.46	58.25	-42.9	-46.4	17.9	6.06e-01	0	60	0	497549312	56	5663
2026-01-22 11:36:27.70	135.01	58.68	-43.0	-46.5	17.6	6.06e-01	0	60	0	499646464	56	5752
2026-01-22 11:36:28.71	134.55	59.13	-43.0	-46.6	17.6	6.08e-01	0	60	0	501219328	56	5844
2026-01-22 11:36:29.72	134.07	59.57	-43.1	-46.8	17.4	6.09e-01	0	60	0	503316480	57	5600
2026-01-22 11:36:30.73	133.58	60.01	-42.9	-46.4	17.8	6.07e-01	0	60	0	504889344	57	5371
2026-01-22 11:36:31.74	133.07	60.46	-43.0	-46.6	17.6	6.05e-01	0	60	0	506986496	57	5509
2026-01-22 11:36:32.75	132.54	60.90	-43.2	-47.0	17.2	6.07e-01	0	60	0	509083648	57	5745
2026-01-22 11:36:33.76	131.99	61.35	-43.2	-47.0	17.2	6.06e-01	0	60	0	510656512	57	5723
2026-01-22 11:36:34.77	131.42	61.80	-43.2	-46.8	17.4	6.07e-01	0	60	0	512753664	57	5653
2026-01-22 11:36:35.78	130.83	62.24	-43.5	-47.6	16.6	6.07e-01	0	60	0	514850816	57	6172
2026-01-22 11:36:36.79	130.21	62.69	-43.6	-47.7	16.5	6.05e-01	0	60	0	516423680	57	6207
2026-01-22 11:36:37.80	129.58	63.14	-43.6	-47.7	16.5	6.05e-01	0	60	0	518520832	57	6222
2026-01-22 11:36:38.81	128.92	63.59	-43.8	-48.1	16.1	6.06e-01	0	60	0	520093696	58	6162
2026-01-22 11:36:39.82	128.23	64.04	-44.0	-48.5	15.6	6.07e-01	0	60	0	522190848	58	6465
2026-01-22 11:36:40.83	127.51	64.48	-44.1	-48.9	15.2	6.07e-01	0	60	0	524288000	58	6757
2026-01-22 11:36:41.84	126.77	64.93	-44.0	-48.6	15.6	6.08e-01	0	60	0	525860864	58	6553
2026-01-22 11:36:42.84	126.00	65.37	-44.3	-49.2	14.9	6.06e-01	0	60	0	527958016	59	6590
2026-01-22 11:36:43.85	125.20	65.81	-44.4	-49.5	14.5	6.07e-01	0	60	0	530055168	59	6870
2026-01-22 11:36:44.86	124.36	66.26	-44.1	-48.7	15.4	6.08e-01	0	60	0	531628032	59	6244
2026-01-22 11:36:45.87	123.49	66.69	-44.6	-49.9	14.2	6.09e-01	0	60	0	533725184	59	7164
2026-01-22 11:36:46.89	122.57	67.14	-44.5	-49.7	14.3	6.09e-01	0	60	0	535298048	59	7020
2026-01-22 11:36:47.90	121.62	67.57	-44.3	-49.3	14.8	6.05e-01	0	60	0	537395200	59	6650
2026-01-22 11:36:48.90	120.64	67.99	-44.5	-49.6	14.5	6.06e-01	0	60	0	539492352	59	6951
2026-01-22 11:36:49.92	119.60	68.42	-44.5	-50.2	13.5	6.05e-01	0	60	0	541065216	60	6980
2026-01-22 11:36:50.92	118.53	68.84	-44.1	-49.2	14.5	6.06e-01	0	60	0	543162368	60	6243
2026-01-22 11:36:51.93	117.40	69.25	-44.4	-50.0	13.8	6.09e-01	0	60	0	544735232	60	6835
2026-01-22 11:36:52.94	116.23	69.66	-44.4	-50.0	13.6	6.08e-01	0	60	0	546832384	60	6846
2026-01-22 11:36:53.95	115.00	70.07	-44.3	-49.2	14.9	6.07e-01	0	60	0	548929536	59	6613
2026-01-22 11:36:54.96	113.72	70.46	-44.6	-50.0	13.9	6.07e-01	0	60	0	550502400	59	7286
2026-01-22 11:36:55.97	112.39	70.85	-44.3	-49.3	14.7	6.06e-01	0	60	0	552599552	59	6682
2026-01-22 11:36:56.98	110.99	71.23	-44.2	-49.1	15.0	6.06e-01	0	60	0	554172416	59	6519
2026-01-22 11:36:57.99	109.54	71.60	-44.3	-49.3	14.7	6.06e-01	0	60	0	556269568	59	6708
2026-01-22 11:36:59.00	108.02	71.96	-44.1	-48.7	15.3	6.07e-01	0	60	0	558366720	59	6262
2026-01-22 11:37:00.01	106.44	72.30	-44.1	-48.8	15.2	6.08e-01	0	60	0	559939584	59	6324
2026-01-22 11:37:01.02	104.79	72.64	-44.2	-49.0	15.0	6.07e-01	0	60	0	562036736	59	6468
2026-01-22 11:37:02.02	103.09	72.96	-43.9	-48.4	15.6	6.07e-01	0	60	0	563609600	59	6011
2026-01-22 11:37:03.03	101.31	73.27	-44.1	-48.9	15.2	6.07e-01	0	60	0	565706752	59	6373
2026-01-22 11:37:04.04	99.46	73.56	-44.3	-49.2	14.8	6.06e-01	0	60	0	567803904	59	6617
2026-01-22 11:37:05.05	97.54	73.84	-44.1	-48.8	15.2	6.05e-01	0	60	0	569376768	59	6336
2026-01-22 11:37:06.06	95.56	74.09	-44.3	-49.4	14.5	6.07e-01	0	60	0	571473920	59	6795
2026-01-22 11:37:07.07	93.50	74.33	-44.3	-49.2	14.8	6.06e-01	0	60	0	573046784	59	6640
2026-01-22 11:37:08.08	91.39	74.56	-44.2	-49.1	14.9	6.06e-01	0	60	0	575143936	59	6544
2026-01-22 11:37:09.09	89.21	74.76	-44.2	-49.1	14.9	6.08e-01	0	60	0	577241088	59	6555
2026-01-22 11:37:10.10	86.97	74.94	-44.3	-49.3	14.7	6.06e-01	0	60	0	578813952	59	6723
2026-01-22 11:37:11.11	84.69	75.09	-43.8	-48.2	15.8	6.05e-01	0	60	0	580911104	59	5896
2026-01-22 11:37:12.12	82.35	75.23	-44.1	-48.9	15.1	6.06e-01	0	60	0	583008256	59	6418
2026-01-22 11:37:13.13	79.98	75.33	-44.0	-48.6	15.4	6.07e-01	0	60	0	584581120	59	6154
2026-01-22 11:37:14.14	77.57	75.42	-43.9	-48.2	15.8	6.07e-01	0	60	0	586678272	59	5922
2026-01-22 11:37:15.15	75.14	75.48	-44.1	-48.7	15.3	6.06e-01	0	60	0	588251136	59	6229
2026-01-22 11:37:16.16	72.69	75.51	-44.1	-48.8	15.3	6.08e-01	0	60	0	590348288	59	6279
2026-01-22 11:37:17.17	70.23	75.52	-44.3	-49.3	14.7	6.06e-01	0	60	0	592445440	59	6653
2026-01-22 11:37:18.17	67.80	75.50	-44.3	-49.3	14.8	6.07e-01	0	60	0	594018304	59	6660
2026-01-22 11:37:19.18	65.36	75.46	-44.2	-49.0	15.0	6.08e-01	0	60	0	596115456	59	6480
2026-01-22 11:37:20.19	62.94	75.39	-44.3	-49.4	14.6	6.07e-01	0	60	0	597688320	59	6776
2026-01-22 11:37:21.20	60.54	75.30	-44.4	-49.5	14.5	6.07e-01	0	60	0	599785472	59	6835
2026-01-22 11:37:22.21	58.18	75.18	-44.0	-48.6	15.3	6.08e-01	0	60	0	601882624	59	6184
2026-01-22 11:37:23.22	55.86	75.04	-44.4	-49.4	14.5	6.07e-01	0	60	0	603455488	59	6794
2026-01-22 11:37:24.23	53.59	74.88	-44.2	-49.1	14.9	6.08e-01	0	60	0	605552640	59	6525
2026-01-22 11:37:25.24	51.37	74.69	-44.2	-49.0	15.1	6.07e-01	0	60	0	607125504	59	6422
2026-01-22 11:37:26.25	49.22	74.49	-44.1	-48.8	15.2	6.08e-01	0	60	0	609222656	59	6291
2026-01-22 11:37:27.26	47.12	74.26	-44.3	-49.3	14.7	6.07e-01	0	60	0	611319808	59	6717
2026-01-22 11:37:28.27	45.09	74.01	-44.3	-49.3	14.8	6.09e-01	0	60	0	612892672	59	6649
2026-01-22 11:37:29.28	43.13	73.75	-44.3	-49.3	14.8	6.09e-01	0	60	0	614989824	59	6665
2026-01-22 11:37:30.29	41.23	73.47	-44.4	-49.5	14.6	6.07e-01	0	60	0	616562688	59	6834
2026-01-22 11:37:31.30	39.41	73.17	-44.4	-49.5	14.5	6.07e-01	0	60	0	618659840	59	6867
2026-01-22 11:37:32.31	37.65	72.86	-44.4	-50.1	13.5	6.08e-01	0	60	0	620756992	60	6912
2026-01-22 11:37:33.32	35.96	72.53	-44.1	-49.1	14.6	6.07e-01	0	60	0	622329856	60	6170
2026-01-22 11:37:34.33	34.33	72.19	-44.4	-49.9	13.9	6.08e-01	0	60	0	624427008	60	6757
2026-01-22 11:37:35.33	32.79	71.85	-44.4	-49.7	14.0	6.08e-01	0	60	0	626524160	60	6642
2026-01-22 11:37:36.35	31.28	71.48	-44.6	-50.4	13.3	6.11e-01	0	60	0	628097024	60	7164
2026-01-22 11:37:37.35	29.86	71.11	-44.5	-50.0	13.7	6.06e-01	0	61	0	630194176	60	6861
2026-01-22 11:37:38.36	28.49	70.73	-44.5	-50.2	13.5	6.09e-01	0	60	0	631767040	60	6990
2026-01-22 11:37:39.37	27.17	70.34	-44.8	-51.2	12.6	6.10e-01	0	60	0	633864192	60	7829
2026-01-22 11:37:40.38	25.91	69.94	-44.7	-50.7	12.9	6.09e-01	0	60	0	635961344	60	7395
2026-01-22 11:37:41.39	24.70	69.54	-44.6	-50.5	13.2	6.06e-01	0	60	0	637534208	60	7271
2026-01-22 11:37:42.40	23.55	69.13	-45.1	-52.0	11.8	6.13e-01	0	60	0	639631360	60	8599
2026-01-22 11:37:43.41	22.44	68.71	-44.7	-51.1	12.6	6.10e-01	0	60	0	641204224	60	7742
2026-01-22 11:37:44.42	21.37	68.29	-44.8	-51.0	12.6	6.11e-01	0	60	0	643301376	60	7711
2026-01-22 11:37:45.43	20.36	67.87	-44.8	-51.0	12.8	6.11e-01	0	60	0	645398528	60	7670
2026-01-22 11:37:46.44	19.38	67.44	-45.0	-51.5	12.1	6.12e-01	0	60	0	646971392	60	8165
2026-01-22 11:37:47.45	18.45	67.00	-44.7	-50.7	13.0	6.08e-01	0	60	0	649068544	60	7399
2026-01-22 11:37:48.46	17.55	66.57	-44.5	-50.6	13.2	6.09e-01	0	60	0	651165696	60	7317
2026-01-22 11:37:49.47	16.69	66.13	-44.6	-50.3	13.5	6.07e-01	0	60	0	652738560	60	7044
2026-01-22 11:37:50.48	15.86	65.69	-44.3	-49.5	14.3	6.08e-01	0	60	0	654835712	60	6452
2026-01-22 11:37:51.49	15.07	65.25	-44.1	-49.1	14.8	6.08e-01	0	60	0	656408576	60	6174
2026-01-22 11:37:52.49	14.31	64.81	-44.3	-49.1	15.1	6.05e-01	0	61	0	658505728	59	6506
2026-01-22 11:37:53.50	13.58	64.36	-44.1	-49.1	14.8	6.07e-01	0	61	0	660602880	59	6541
2026-01-22 11:37:54.51	12.87	63.91	-44.0	-48.5	15.7	6.05e-01	0	60	0	662175744	59	6071
2026-01-22 11:37:55.52	12.20	63.47	-43.8	-48.0	16.1	6.07e-01	0	60	0	664272896	59	5748
2026-01-22 11:37:56.53	11.54	63.02	-43.6	-47.7	16.2	6.05e-01	0	60	0	665845760	58	5892
2026-01-22 11:37:57.54	10.92	62.57	-43.5	-47.4	16.7	6.08e-01	0	60	0	667942912	58	5694
2026-01-22 11:37:58.55	10.31	62.13	-43.4	-47.6	16.1	6.08e-01	0	60	0	669515776	57	6136
2026-01-22 11:37:59.56	9.73	61.68	-43.5	-47.4	15.0	6.07e-01	0	60	0	671612928	57	6022
2026-01-22 11:38:00.57	9.17	61.23	-43.2	-47.0	16.7	6.08e-01	0	60	0	673710080	57	5764
2026-01-22 11:38:01.58	8.62	60.79	-43.3	-47.2	15.4	6.09e-01	0	61	0	675282944	57	5906
2026-01-22 11:38:02.59	8.10	60.34	-43.5	-47.5	15.9	6.06e-01	0	60	0	677380096	57	6093
2026-01-22 11:38:03.60	7.59	59.90	-43.3	-47.1	16.7	6.05e-01	0	60	0	679477248	57	5839
2026-01-22 11:38:04.60	7.11	59.46	-43.3	-47.0	17.2	6.08e-01	0	60	0	681050112	57	5757
2026-01-22 11:38:05.61	6.64	59.02	-42.2	-46.7	15.1	6.09e-01	1	60	0	683147264	56	5879
2026-01-22 11:38:06.62	6.18	58.58	-43.1	-46.7	17.5	6.06e-01	0	60	0	684720128	56	5904
2026-01-22 11:38:07.63	5.74	58.15	-42.9	-46.7	17.4	6.06e-01	0	60	0	686817280	56	5902
2026-01-22 11:38:08.64	5.32	57.71	-42.4	-46.1	18.0	6.07e-01	0	60	0	688914432	56	5521
2026-01-22 11:38:09.65	4.90	57.28	-42.5	-45.7	18.4	6.09e-01	0	61	0	690487296	55	5534
2026-01-22 11:38:10.66	4.50	56.85	-42.5	-45.7	18.4	6.06e-01	0	61	0	692584448	55	5585
2026-01-22 11:38:11.67	4.12	56.42	-42.4	-45.6	18.5	6.07e-01	0	60	0	694681600	55	5518
2026-01-22 11:38:12.68	3.74	55.99	-42.3	-45.5	18.6	6.05e-01	0	61	0	696254464	55	5408
2026-01-22 11:38:13.69	3.38	55.57	-42.0	-45.0	19.0	6.06e-01	0	60	0	698351616	55	5127
2026-01-22 11:38:14.70	3.02	55.15	-41.6	-44.4	19.7	6.06e-01	0	60	0	699924480	54	5060
2026-01-22 11:38:15.70	2.69	54.73	-41.3	-43.9	20.2	6.05e-01	0	61	0	702021632	54	4784
2026-01-22 11:38:16.71	2.35	54.31	-41.4	-44.1	20.1	6.06e-01	0	60	0	704118784	54	4872
2026-01-22 11:38:17.73	2.03	53.89	-41.8	-44.6	18.9	6.07e-01	0	60	0	705691648	54	5210
2026-01-22 11:38:18.73	1.72	53.49	-41.9	-44.8	19.2	6.06e-01	0	61	0	707788800	54	5335
2026-01-22 11:38:19.74	1.41	53.08	-41.7	-44.4	19.6	6.07e-01	0	61	0	709361664	54	5089
2026-01-22 11:38:20.75	1.12	52.67	-41.5	-44.1	19.2	6.06e-01	0	60	0	711458816	53	5217
2026-01-22 11:38:21.76	0.83	52.27	-41.7	-44.5	19.5	6.05e-01	0	61	0	713555968	53	5434
2026-01-22 11:38:22.77	0.55	51.86	-41.8	-44.6	19.5	6.06e-01	0	60	0	715128832	54	5180
2026-01-22 11:38:23.78	0.28	51.47	-41.9	-44.8	19.4	6.06e-01	0	60	0	717225984	54	5285
2026-01-22 11:38:24.79	0.01	51.07	-42.2	-45.3	18.8	6.07e-01	0	60	0	718798848	54	5620
2026-01-22 11:38:25.80	359.75	50.68	-42.4	-45.6	18.5	6.08e-01	0	61	0	720896000	55	5481
2026-01-22 11:38:26.81	359.50	50.29	-42.1	-45.2	18.8	6.06e-01	0	61	0	722993152	55	5264
2026-01-22 11:38:27.82	359.26	49.90	-42.2	-45.3	18.8	6.06e-01	0	60	0	724566016	55	5289
2026-01-22 11:38:28.83	359.02	49.52	-42.1	-45.1	18.9	6.07e-01	0	60	0	726663168	55	5208
2026-01-22 11:38:29.84	358.79	49.13	-42.3	-45.5	18.6	6.08e-01	0	60	0	728236032	55	5422
2026-01-22 11:38:30.84	358.56	48.76	-42.5	-45.8	18.2	6.07e-01	0	60	0	730333184	55	5618
2026-01-22 11:38:31.85	358.34	48.38	-42.2	-45.9	15.0	6.08e-01	6	60	0	732430336	55	5672
2026-01-22 11:38:32.86	358.13	48.01	-42.4	-45.6	18.5	6.06e-01	0	60	0	734003200	55	5485
2026-01-22 11:38:33.87	357.92	47.64	-42.4	-45.5	18.6	6.05e-01	0	60	0	736100352	55	5455
2026-01-22 11:38:34.89	357.71	47.27	-42.4	-45.6	18.5	6.08e-01	0	61	0	737673216	55	5482
2026-01-22 11:38:35.89	357.51	46.91	-42.2	-45.2	18.8	6.08e-01	0	60	0	739770368	55	5258
2026-01-22 11:38:36.90	357.32	46.55	-41.9	-44.9	19.2	6.06e-01	0	61	0	741867520	55	5044
2026-01-22 11:38:37.91	357.13	46.19	-42.1	-45.1	19.0	6.07e-01	0	61	0	743440384	55	5216
2026-01-22 11:38:38.92	356.94	45.84	-42.3	-45.4	18.6	6.08e-01	0	60	0	745537536	55	5395
2026-01-22 11:38:39.93	356.76	45.48	-42.3	-45.5	18.5	6.07e-01	0	61	0	747634688	55	5456
2026-01-22 11:38:40.94	356.58	45.13	-42.4	-45.6	18.4	6.02e-01	0	61	0	749207552	55	5526
2026-01-22 11:38:41.95	356.41	44.79	-42.4	-45.6	18.5	6.05e-01	0	60	0	751304704	55	5471
2026-01-22 11:38:42.97	356.23	44.44	-42.4	-45.6	18.4	6.06e-01	0	61	0	752877568	55	5524
2026-01-22 11:38:43.97	356.07	44.10	-42.3	-45.6	18.4	6.05e-01	0	60	0	754974720	55	5497
2026-01-22 11:38:44.98	355.91	43.77	-42.4	-45.5	18.5	6.08e-01	0	61	0	757071872	55	5439
2026-01-22 11:38:45.99	355.75	43.43	-42.3	-45.4	18.6	6.05e-01	0	61	0	758644736	55	5398
2026-01-22 11:38:47.00	355.59	43.10	-42.3	-45.6	18.3	6.06e-01	0	60	0	760741888	55	5528
2026-01-22 11:38:48.01	355.44	42.77	-42.7	-46.2	17.9	6.06e-01	0	61	0	762839040	55	5858
2026-01-22 11:38:49.03	355.29	42.44	-42.9	-46.4	17.7	6.07e-01	0	61	0	764411904	56	5693
2026-01-22 11:38:50.04	355.14	42.12	-43.1	-46.8	17.3	6.05e-01	0	61	0	766509056	56	5992
2026-01-22 11:38:51.04	355.00	41.80	-43.2	-47.1	17.1	6.06e-01	0	61	0	768081920	57	5796
2026-01-22 11:38:52.05	354.86	41.48	-43.2	-47.0	17.1	6.04e-01	0	61	0	770179072	57	5772
2026-01-22 11:38:53.06	354.72	41.16	-43.2	-47.0	17.2	6.06e-01	0	61	0	772276224	57	5725
2026-01-22 11:38:54.07	354.59	40.85	-43.2	-47.0	17.1	6.07e-01	0	61	0	773849088	57	5782
2026-01-22 11:38:55.08	354.46	40.54	-43.4	-47.3	16.9	6.05e-01	0	60	0	775946240	57	5947
2026-01-22 11:38:56.09	354.33	40.23	-43.4	-47.4	16.6	6.05e-01	0	60	0	777519104	57	6029
2026-01-22 11:38:57.10	354.20	39.93	-43.5	-47.6	16.5	6.06e-01	0	60	0	779616256	57	6155
2026-01-22 11:38:58.11	354.08	39.63	-43.5	-47.6	16.5	6.07e-01	0	61	0	781713408	57	6193
2026-01-22 11:38:59.12	353.95	39.33	-43.4	-47.6	16.4	6.07e-01	0	60	0	783286272	57	6186
2026-01-22 11:39:00.13	353.83	39.03	-43.5	-47.7	16.3	6.06e-01	0	60	0	785383424	57	6234
2026-01-22 11:39:01.14	353.72	38.73	-43.5	-47.6	16.5	6.03e-01	0	60	0	786956288	57	6153
2026-01-22 11:39:02.15	353.60	38.44	-43.5	-47.7	16.4	6.05e-01	0	61	0	789053440	57	6208
2026-01-22 11:39:03.16	353.49	38.15	-43.6	-47.8	16.4	6.05e-01	0	61	0	791150592	57	6277
2026-01-22 11:39:04.17	353.38	37.87	-43.4	-47.5	16.5	6.05e-01	0	61	0	792723456	57	6120
2026-01-22 11:39:05.18	353.27	37.58	-43.3	-47.2	17.0	6.04e-01	0	60	0	794820608	57	5858
2026-01-22 11:39:06.19	353.16	37.30	-43.2	-47.0	17.1	6.05e-01	0	60	0	796393472	57	5746
2026-01-22 11:39:07.20	353.06	37.02	-43.2	-47.0	17.1	6.06e-01	0	60	0	798490624	57	5750
2026-01-22 11:39:08.20	352.95	36.75	-43.1	-46.9	17.2	6.07e-01	0	61	0	800587776	57	5672
2026-01-22 11:39:09.21	352.85	36.47	-43.0	-46.7	17.5	6.07e-01	0	60	0	802160640	57	5533
2026-01-22 11:39:10.22	352.75	36.20	-43.0	-46.7	17.4	6.07e-01	0	60	0	804257792	57	5550
2026-01-22 11:39:11.23	352.66	35.93	-43.0	-46.6	17.4	6.07e-01	0	61	0	805830656	57	5527
2026-01-22 11:39:12.24	352.56	35.66	-43.1	-46.8	17.3	6.06e-01	0	60	0	807927808	57	5610
2026-01-22 11:39:13.25	352.46	35.39	-42.9	-46.5	17.5	6.07e-01	0	61	0	810024960	57	5441
2026-01-22 11:39:14.26	352.37	35.13	-42.8	-46.3	17.8	6.07e-01	0	61	0	811597824	57	5293
2026-01-22 11:39:15.27	352.28	34.87	-42.6	-46.0	18.2	6.05e-01	0	61	0	813694976	57	5101
2026-01-22 11:39:16.28	352.19	34.61	-42.4	-45.5	18.6	6.05e-01	0	61	0	815792128	56	5138
2026-01-22 11:39:17.29	352.10	34.35	-42.3	-45.5	18.6	6.06e-01	0	60	0	817364992	56	5129
2026-01-22 11:39:18.30	352.02	34.10	-42.4	-45.6	18.5	6.06e-01	0	61	0	819462144	56	5168
2026-01-22 11:39:19.31	351.93	33.85	-42.3	-45.5	18.6	6.05e-01	0	61	0	821035008	56	5109
2026-01-22 11:39:20.32	351.85	33.60	-42.3	-45.4	18.6	6.06e-01	0	61	0	823132160	56	5086
2026-01-22 11:39:21.33	351.76	33.35	-42.3	-45.4	18.7	6.07e-01	0	60	0	825229312	56	5081
2026-01-22 11:39:22.34	351.68	33.10	-42.2	-45.4	18.7	6.08e-01	0	61	0	826802176	56	5065
2026-01-22 11:39:23.35	351.60	32.86	-42.2	-45.4	18.6	6.07e-01	0	61	0	828899328	56	5075
2026-01-22 11:39:24.36	351.52	32.62	-42.2	-45.3	18.7	6.06e-01	0	61	0	830996480	56	5011
2026-01-22 11:39:25.37	351.45	32.38	-42.2	-45.3	18.8	6.07e-01	0	61	0	832569344	56	5001
2026-01-22 11:39:26.38	351.37	32.14	-42.2	-45.3	18.7	6.06e-01	0	60	0	834666496	56	5025
2026-01-22 11:39:27.39	351.30	31.90	-42.1	-45.1	18.9	6.08e-01	0	60	0	836239360	56	4901
2026-01-22 11:39:28.40	351.22	31.67	-42.0	-45.0	19.0	6.07e-01	0	61	0	838336512	55	5142
2026-01-22 11:39:29.40	351.15	31.44	-41.9	-44.9	19.1	6.04e-01	0	60	0	840433664	55	5044
2026-01-22 11:39:30.41	351.08	31.21	-41.8	-44.8	19.1	6.09e-01	0	61	0	842006528	55	5008
2026-01-22 11:39:31.42	351.01	30.98	-41.8	-44.8	19.1	6.05e-01	0	60	0	844103680	55	4992
2026-01-22 11:39:32.43	350.94	30.75	-41.8	-44.7	19.2	6.06e-01	0	60	0	845676544	55	4957
2026-01-22 11:39:33.44	350.87	30.53	-41.7	-44.7	19.2	6.04e-01	0	61	0	847773696	55	4930
2026-01-22 11:39:34.45	350.80	30.30	-41.7	-44.6	19.2	6.06e-01	0	61	0	849346560	55	4905
2026-01-22 11:39:35.46	350.74	30.08	-41.6	-44.5	19.3	6.03e-01	0	61	0	851443712	55	4866
2026-01-22 11:39:36.47	350.67	29.86	-41.6	-44.5	19.3	6.06e-01	0	61	0	853540864	55	4863
2026-01-22 11:39:37.48	350.61	29.65	-41.6	-44.5	19.3	6.08e-01	0	61	0	855113728	55	4839
2026-01-22 11:39:38.49	350.54	29.43	-41.6	-44.5	19.4	6.08e-01	0	61	0	857210880	55	4822
2026-01-22 11:39:39.50	350.48	29.22	-41.8	-44.7	19.1	6.09e-01	0	61	0	858783744	55	4977
2026-01-22 11:39:40.51	350.42	29.00	-41.8	-44.9	18.9	6.08e-01	0	61	0	860880896	55	5065
2026-01-22 11:39:41.52	350.36	28.79	-41.9	-45.0	18.8	6.08e-01	0	61	0	862978048	55	5125
2026-01-22 11:39:42.53	350.30	28.58	-41.9	-45.0	18.7	6.06e-01	0	61	0	864550912	55	5153
2026-01-22 11:39:43.53	350.24	28.38	-41.9	-45.1	18.7	6.06e-01	0	61	0	866648064	55	5163
2026-01-22 11:39:44.54	350.18	28.17	-42.0	-45.1	18.7	6.05e-01	0	61	0	868745216	55	5190
2026-01-22 11:39:45.55	350.13	27.97	-42.0	-45.3	18.5	6.08e-01	0	61	0	870318080	55	5285
2026-01-22 11:39:46.57	350.07	27.76	-42.1	-45.4	18.3	6.07e-01	0	61	0	872415232	55	5370
2026-01-22 11:39:47.57	350.01	27.56	-42.2	-45.5	18.2	6.06e-01	0	60	0	873988096	55	5445
2026-01-22 11:39:48.58	349.96	27.36	-42.2	-45.5	18.2	6.06e-01	0	61	0	876085248	55	5434
2026-01-22 11:39:49.59	349.90	27.17	-42.1	-45.5	18.2	6.06e-01	0	61	0	878182400	55	5420
2026-01-22 11:39:50.60	349.85	26.97	-42.2	-45.5	18.1	6.05e-01	0	60	0	879755264	55	5445
2026-01-22 11:39:51.61	349.80	26.78	-42.2	-45.5	18.1	6.07e-01	0	61	0	881852416	55	5438
2026-01-22 11:39:52.62	349.74	26.58	-42.2	-45.5	18.1	6.08e-01	0	61	0	883949568	55	5463
2026-01-22 11:39:53.63	349.69	26.39	-42.2	-45.6	18.0	6.08e-01	0	61	0	885522432	55	5500
2026-01-22 11:39:54.64	349.64	26.20	-42.2	-45.7	17.9	6.06e-01	0	61	0	887619584	55	5555
2026-01-22 11:39:55.65	349.59	26.01	-42.2	-45.7	17.9	6.07e-01	0	60	0	889192448	55	5541
2026-01-22 11:39:56.66	349.54	25.82	-42.2	-45.7	17.8	6.07e-01	0	61	0	891289600	55	5562
2026-01-22 11:39:57.67	349.49	25.64	-42.1	-45.6	17.8	6.07e-01	0	61	0	893386752	55	5516
2026-01-22 11:39:58.68	349.45	25.45	-42.1	-45.7	17.7	6.06e-01	0	61	0	894959616	55	5544
2026-01-22 11:39:59.69	349.40	25.27	-42.2	-45.7	17.6	6.06e-01	0	61	0	897056768	55	5590
2026-01-22 11:40:00.70	349.35	25.08	-42.1	-45.5	17.8	6.08e-01	0	61	0	898629632	55	5455
2026-01-22 11:40:01.71	349.31	24.90	-42.1	-45.6	17.7	6.08e-01	0	61	0	900726784	55	5501
2026-01-22 11:40:02.72	349.26	24.72	-42.1	-45.7	17.6	6.05e-01	0	61	0	902823936	55	5574
2026-01-22 11:40:03.73	349.22	24.55	-42.1	-45.7	17.6	6.05e-01	0	61	0	904396800	55	5544
2026-01-22 11:40:04.74	349.17	24.37	-42.1	-45.8	17.5	6.07e-01	0	61	0	906493952	55	5593
2026-01-22 11:40:05.74	349.13	24.19	-42.1	-45.8	17.4	6.05e-01	0	61	0	908066816	55	5626
2026-01-22 11:40:06.75	349.08	24.02	-42.2	-45.9	17.4	6.05e-01	0	61	0	910163968	55	5659
2026-01-22 11:40:07.76	349.04	23.85	-42.1	-45.8	17.3	6.06e-01	0	61	0	912261120	55	5652
2026-01-22 11:40:08.77	349.00	23.67	-42.0	-45.7	17.4	6.06e-01	0	60	0	913833984	55	5582
2026-01-22 11:40:09.78	348.96	23.50	-42.1	-45.9	17.1	6.04e-01	0	60	0	915931136	55	5694
2026-01-22 11:40:10.79	348.92	23.33	-42.0	-45.8	17.2	6.07e-01	0	61	0	917504000	55	5612
2026-01-22 11:40:11.80	348.88	23.17	-41.9	-45.8	17.1	6.05e-01	0	61	0	919601152	55	5609
2026-01-22 11:40:12.81	348.83	23.00	-42.0	-46.1	16.6	6.07e-01	0	60	0	921698304	55	5836
2026-01-22 11:40:13.82	348.80	22.83	-42.1	-46.3	16.3	6.07e-01	0	60	0	923271168	55	5982
2026-01-22 11:40:14.83	348.76	22.67	-41.9	-46.1	16.5	6.06e-01	0	60	0	925368320	55	5814
2026-01-22 11:40:15.84	348.72	22.50	-41.8	-45.8	16.7	6.05e-01	0	60	0	926941184	55	5613
2026-01-22 11:40:16.85	348.68	22.34	-41.7	-45.8	16.6	6.07e-01	0	61	0	929038336	55	5593
2026-01-22 11:40:17.86	348.64	22.18	-41.6	-45.8	16.4	6.07e-01	0	60	0	931135488	55	5608
2026-01-22 11:40:18.86	348.60	22.02	-41.6	-46.1	16.0	6.09e-01	0	61	0	932708352	55	5802
2026-01-22 11:40:19.87	348.57	21.86	-41.7	-46.4	15.6	6.06e-01	0	61	0	934805504	55	5994
2026-01-22 11:40:20.88	348.53	21.70	-41.8	-46.7	15.1	6.07e-01	0	61	0	936902656	55	6256
2026-01-22 11:40:21.89	348.49	21.55	-42.0	-47.3	14.4	6.06e-01	0	61	0	938475520	55	6701
2026-01-22 11:40:22.90	348.46	21.39	-42.3	-48.4	13.2	6.11e-01	0	60	0	940572672	55	7565
2026-01-22 11:40:23.91	348.42	21.23	-42.5	-49.7	11.7	6.16e-01	0	61	0	942145536	55	8832
2026-01-22 11:40:24.92	348.39	21.08	-42.7	-51.3	9.9	6.28e-01	0	61	0	944242688	55	10551
2026-01-22 11:40:25.93	348.35	20.93	-42.9	-53.1	7.9	6.50e-01	90	61	0	946339840	56	12307
2026-01-22 11:40:26.94	348.32	20.77	-42.9	-54.8	6.2	6.78e-01	92	61	0	947912704	56	14941
2026-01-22 11:40:27.95	348.29	20.62	-42.8	-56.5	5.0	7.10e-01	0	61	0	948436992	56	18212
2026-01-22 11:40:28.96	348.25	20.47	-42.7	-58.0	4.3	7.30e-01	0	61	104	948436992	56	21745
2026-01-22 11:40:29.97	348.22	20.32	-42.6	-59.8	3.8	7.44e-01	0	61	104	948436992	56	26513
2026-01-22 11:40:30.98	348.19	20.18	-42.5	-61.4	3.8	7.45e-01	0	61	104	948436992	56	31897
2026-01-22 11:40:31.99	348.15	20.03	-42.5	-61.0	3.8	7.49e-01	0	61	104	948436992	56	30381
2026-01-22 11:40:32.99	348.12	19.88	-42.4	-60.8	3.8	7.50e-01	0	61	104	948436992	56	29912
2026-01-22 11:40:34.00	348.09	19.74	-42.7	-61.1	3.8	7.47e-01	0	61	104	948436992	56	30753
2026-01-22 11:40:35.01	348.06	19.59	-42.5	-61.3	3.8	7.45e-01	0	61	104	948436992	56	31720
2026-01-22 11:40:36.02	348.03	19.45	-42.4	-61.0	3.8	7.42e-01	0	61	104	948436992	56	30588
2026-01-22 11:40:37.03	348.00	19.31	-42.3	-61.0	3.8	7.43e-01	0	61	104	948436992	56	30651
2026-01-22 11:40:38.04	347.97	19.17	-42.5	-61.2	3.8	7.43e-01	0	61	104	948436992	56	31283
2026-01-22 11:40:39.05	347.94	19.03	-42.5	-61.2	3.8	7.47e-01	0	61	104	948436992	56	31342
2026-01-22 11:40:40.06	347.91	18.88	-42.3	-61.0	3.8	7.46e-01	0	61	104	948436992	56	30610
2026-01-22 11:40:41.07	347.88	18.75	-42.5	-61.4	3.8	7.46e-01	0	61	104	948436992	56	31911
2026-01-22 11:40:42.08	347.85	18.61	-42.5	-61.2	3.8	7.46e-01	0	61	104	948436992	56	31357
2026-01-22 11:40:43.09	347.82	18.47	-42.3	-61.1	3.8	7.43e-01	0	61	104	948436992	56	31061
2026-01-22 11:40:44.10	347.80	18.33	-42.3	-61.2	3.8	7.43e-01	0	61	104	948436992	56	31292
2026-01-22 11:40:45.11	347.77	18.20	-42.7	-61.6	3.8	7.45e-01	0	61	104	948436992	56	32680
2026-01-22 11:40:46.11	347.74	18.06	-42.4	-61.2	3.8	7.44e-01	0	61	104	948436992	56	31361
2026-01-22 11:40:47.12	347.71	17.93	-42.3	-61.3	3.8	7.40e-01	0	61	104	948436992	56	31548
2026-01-22 11:40:48.13	347.69	17.80	-42.6	-61.4	3.8	7.44e-01	0	61	104	948436992	56	32039
2026-01-22 11:40:49.14	347.66	17.66	-42.8	-61.6	3.8	7.48e-01	0	61	104	948436992	56	32728
2026-01-22 11:40:50.15	347.63	17.53	-42.2	-61.1	3.8	7.47e-01	0	61	104	948436992	56	31049
2026-01-22 11:40:51.16	347.61	17.40	-42.6	-61.5	3.8	7.47e-01	0	61	104	948436992	56	32198
2026-01-22 11:40:52.17	347.58	17.27	-42.7	-61.5	3.8	7.40e-01	0	61	104	948436992	56	32470
2026-01-22 11:40:53.18	347.56	17.14	-42.7	-61.6	3.8	7.47e-01	0	61	104	948436992	56	32660
2026-01-22 11:40:54.19	347.53	17.01	-42.4	-61.3	3.8	7.44e-01	0	61	104	948436992	56	31677
2026-01-22 11:40:55.20	347.50	16.88	-42.7	-61.6	3.8	7.47e-01	0	61	104	948436992	56	32632
2026-01-22 11:40:56.21	347.48	16.76	-42.7	-61.5	3.8	7.43e-01	0	61	104	948436992	56	32476
2026-01-22 11:40:57.22	347.46	16.63	-42.7	-61.6	3.8	7.45e-01	0	61	104	948436992	56	32733
2026-01-22 11:40:58.23	347.43	16.50	-42.7	-61.5	3.8	7.45e-01	0	61	104	948436992	56	32476
2026-01-22 11:40:59.24	347.41	16.38	-42.7	-61.5	3.8	7.46e-01	0	61	104	948436992	56	32455
2026-01-22 11:41:00.25	347.38	16.25	-42.7	-61.5	3.8	7.43e-01	0	61	104	948436992	56	32401
2026-01-22 11:41:01.26	347.36	16.13	-42.8	-61.7	3.8	7.44e-01	0	61	104	948436992	56	33092
2026-01-22 11:41:02.27	347.34	16.01	-42.7	-61.6	3.8	7.47e-01	0	61	104	948436992	56	32610
2026-01-22 11:41:03.28	347.31	15.88	-42.6	-61.5	3.8	7.44e-01	0	61	104	948436992	56	32264
2026-01-22 11:41:04.29	347.29	15.76	-42.7	-61.5	3.8	7.43e-01	0	61	104	948436992	56	32442
2026-01-22 11:41:05.29	347.27	15.64	-42.8	-61.7	3.8	7.45e-01	0	61	104	948436992	56	33007
2026-01-22 11:41:06.30	347.25	15.52	-42.7	-61.6	3.8	7.48e-01	0	61	104	948436992	56	32592
2026-01-22 11:41:07.31	347.22	15.40	-42.6	-61.5	3.8	7.44e-01	0	61	104	948436992	56	32488
2026-01-22 11:41:08.32	347.20	15.28	-42.7	-61.5	3.8	7.46e-01	0	61	104	948436992	56	32525
2026-01-22 11:41:09.33	347.18	15.16	-42.7	-61.6	3.8	7.43e-01	0	61	104	948436992	56	32570
2026-01-22 11:41:10.34	347.16	15.05	-42.7	-61.6	3.8	7.46e-01	0	61	104	948436992	56	32646
2026-01-22 11:41:11.35	347.14	14.93	-42.7	-61.6	3.8	7.44e-01	0	61	104	948436992	56	32864
2026-01-22 11:41:12.36	347.12	14.81	-42.6	-61.5	3.8	7.46e-01	0	61	104	948436992	56	32260
2026-01-22 11:41:13.37	347.09	14.70	-42.5	-61.4	3.8	7.47e-01	0	61	104	948436992	56	32150
2026-01-22 11:41:14.38	347.07	14.58	-42.7	-61.7	3.8	7.47e-01	0	61	104	948436992	56	33020
2026-01-22 11:41:15.39	347.05	14.47	-42.6	-61.5	3.8	7.46e-01	0	61	104	948436992	56	32420
2026-01-22 11:41:16.39	347.03	14.35	-42.5	-61.4	3.8	7.45e-01	0	61	104	948436992	56	32085
2026-01-22 11:41:17.40	347.01	14.24	-42.5	-61.4	3.8	7.45e-01	0	61	104	948436992	56	31996
2026-01-22 11:41:18.41	346.99	14.13	-42.7	-61.6	3.8	7.45e-01	0	61	104	948436992	56	32858
2026-01-22 11:41:19.42	346.97	14.01	-42.5	-61.4	3.8	7.43e-01	0	61	104	948436992	56	31995
2026-01-22 11:41:20.43	346.95	13.90	-42.5	-61.4	3.8	7.46e-01	0	61	104	948436992	56	31997
2026-01-22 11:41:21.44	346.94	13.79	-42.4	-61.4	3.8	7.44e-01	0	61	104	948436992	56	31878
2026-01-22 11:41:22.45	346.92	13.68	-42.6	-61.5	3.8	7.47e-01	0	61	104	948436992	56	32357
2026-01-22 11:41:23.46	346.90	13.57	-42.4	-61.4	3.8	7.45e-01	0	61	104	948436992	56	31862
2026-01-22 11:41:24.47	346.88	13.46	-42.4	-61.3	3.8	7.45e-01	0	61	104	948436992	56	31627
2026-01-22 11:41:25.48	346.86	13.35	-42.4	-61.3	3.8	7.46e-01	0	61	104	948436992	56	31690
2026-01-22 11:41:26.49	346.84	13.24	-42.4	-61.3	3.8	7.45e-01	0	61	104	948436992	56	31775
2026-01-22 11:41:27.48	346.82	13.14	-42.4	-61.3	3.8	7.46e-01	0	61	104	948436992	56	31679
2026-01-22 11:41:28.49	346.81	13.03	-42.3	-61.2	3.8	7.48e-01	0	61	104	948436992	56	31298
2026-01-22 11:41:29.50	346.79	12.92	-42.3	-61.2	3.8	7.44e-01	0	61	104	948436992	56	31400
2026-01-22 11:41:30.51	346.77	12.82	-42.3	-61.3	3.8	7.45e-01	0	61	104	948436992	56	31587
2026-01-22 11:41:31.52	346.75	12.71	-42.3	-61.2	3.8	7.44e-01	0	61	104	948436992	56	31277
2026-01-22 11:41:32.53	346.73	12.60	-42.2	-61.2	3.8	7.43e-01	0	61	104	948436992	56	31154
2026-01-22 11:41:33.54	346.72	12.50	-42.3	-61.2	3.8	7.47e-01	0	61	104	948436992	56	31110
2026-01-22 11:41:34.55	346.70	12.39	-42.3	-61.2	3.8	7.46e-01	0	61	104	948436992	56	31264
2026-01-22 11:41:35.56	346.68	12.29	-42.2	-61.1	3.8	7.48e-01	0	61	104	948436992	56	31055
2026-01-22 11:41:36.57	346.67	12.19	-42.3	-61.2	3.8	7.47e-01	0	61	104	948436992	56	31206
2026-01-22 11:41:37.58	346.65	12.08	-42.2	-61.1	3.8	7.43e-01	0	61	104	948436992	56	30974
2026-01-22 11:41:38.59	346.63	11.98	-42.1	-61.0	3.8	7.46e-01	0	61	104	948436992	56	30700
2026-01-22 11:41:39.60	346.62	11.88	-42.3	-61.2	3.8	7.47e-01	0	61	104	948436992	56	31125
2026-01-22 11:41:40.61	346.60	11.78	-42.2	-61.1	3.8	7.45e-01	0	61	104	948436992	56	31034
2026-01-22 11:41:41.62	346.59	11.68	-42.2	-61.1	3.8	7.44e-01	0	61	104	948436992	56	30956
2026-01-22 11:41:42.63	346.57	11.58	-42.1	-61.0	3.8	7.45e-01	0	61	104	948436992	56	30534
2026-01-22 11:41:43.64	346.55	11.48	-42.3	-61.2	3.8	7.46e-01	0	61	104	948436992	56	31230
2026-01-22 11:41:44.65	346.54	11.38	-42.1	-61.1	3.8	7.45e-01	0	61	104	948436992	56	30769
2026-01-22 11:41:45.65	346.52	11.28	-42.3	-61.2	3.8	7.42e-01	0	61	104	948436992	56	31103
2026-01-22 11:41:46.66	346.51	11.18	-42.1	-61.0	3.8	7.47e-01	0	61	104	948436992	56	30550
2026-01-22 11:41:47.67	346.49	11.08	-42.2	-61.2	3.8	7.46e-01	0	61	104	948436992	56	31101
2026-01-22 11:41:48.68	346.48	10.98	-42.1	-61.0	3.8	7.47e-01	0	61	104	948436992	56	30663
2026-01-22 11:41:49.69	346.46	10.88	-42.2	-61.1	3.8	7.44e-01	0	61	104	948436992	56	31046
2026-01-22 11:41:50.70	346.45	10.79	-42.0	-60.9	3.8	7.44e-01	0	61	104	948436992	56	30356
2026-01-22 11:41:51.71	346.43	10.69	-42.1	-61.0	3.8	7.46e-01	0	61	104	948436992	55	32373
2026-01-22 11:41:52.72	346.42	10.59	-42.0	-61.0	3.8	7.43e-01	0	61	104	948436992	55	32352
2026-01-22 11:41:53.73	346.41	10.50	-42.1	-61.0	3.8	7.46e-01	0	61	104	948436992	55	32262
2026-01-22 11:41:54.74	346.39	10.40	-41.8	-60.8	3.8	7.46e-01	0	61	104	948436992	55	31529
2026-01-22 11:41:55.75	346.38	10.31	-42.1	-61.0	3.8	7.47e-01	0	61	104	948436992	55	32388
2026-01-22 11:41:56.76	346.36	10.21	-42.0	-61.0	3.8	7.45e-01	0	61	104	948436992	55	32278
2026-01-22 11:41:57.77	346.35	10.12	-42.0	-60.9	3.8	7.46e-01	0	61	104	948436992	55	32085
2026-01-22 11:41:58.77	346.34	10.03	-41.7	-60.7	3.8	7.44e-01	0	61	104	948436992	55	31311
2026-01-22 11:41:59.79	346.32	9.93	-42.1	-61.1	3.8	7.46e-01	0	61	104	948436992	55	32560
2026-01-22 11:42:00.79	346.31	9.84	-41.9	-60.9	3.8	7.46e-01	0	61	104	948436992	55	31975
2026-01-22 11:42:01.80	346.30	9.75	-42.0	-60.9	3.8	7.45e-01	0	61	104	948436992	55	32049
2026-01-22 11:42:02.81	346.28	9.65	-41.7	-60.7	3.8	7.45e-01	0	61	104	948436992	55	31390
2026-01-22 11:42:03.82	346.27	9.56	-42.1	-61.1	3.8	7.47e-01	0	61	104	948436992	55	32695
2026-01-22 11:42:04.83	346.26	9.47	-41.9	-60.9	3.8	7.44e-01	0	61	104	948436992	55	31885
2026-01-22 11:42:05.84	346.24	9.38	-42.0	-60.9	3.8	7.45e-01	0	61	104	948436992	55	32098
2026-01-22 11:42:06.85	346.23	9.29	-41.8	-60.7	3.8	7.42e-01	0	61	104	948436992	55	31407
2026-01-22 11:42:07.86	346.22	9.20	-42.1	-61.1	3.8	7.45e-01	0	61	104	948436992	55	32562
2026-01-22 11:42:08.87	346.21	9.11	-41.9	-60.9	3.8	7.47e-01	0	61	104	948436992	55	31827
2026-01-22 11:42:09.88	346.19	9.02	-42.0	-60.9	3.8	7.44e-01	0	61	104	948436992	55	32130
2026-01-22 11:42:10.89	346.18	8.93	-41.8	-60.7	3.8	7.42e-01	0	61	104	948436992	55	31386
2026-01-22 11:42:11.90	346.17	8.84	-42.1	-61.0	3.8	7.43e-01	0	62	104	948436992	55	32307
2026-01-22 11:42:12.91	346.16	8.75	-41.9	-60.9	3.8	7.44e-01	0	61	104	948436992	55	31850
2026-01-22 11:42:13.92	346.14	8.66	-42.0	-60.9	3.8	7.45e-01	0	61	104	948436992	55	32165
2026-01-22 11:42:14.93	346.13	8.58	-41.7	-60.7	3.8	7.46e-01	0	61	104	948436992	55	31160
2026-01-22 11:42:15.94	346.12	8.49	-42.0	-61.0	3.8	7.46e-01	0	61	104	948436992	55	32203
2026-01-22 11:42:16.95	346.11	8.40	-41.8	-60.8	3.8	7.45e-01	0	61	104	948436992	55	31486
2026-01-22 11:42:17.96	346.10	8.31	-42.0	-60.9	3.8	7.41e-01	0	61	104	948436992	55	32095
2026-01-22 11:42:18.97	346.09	8.23	-41.6	-60.6	3.8	7.43e-01	0	61	104	948436992	55	30865
2026-01-22 11:42:19.98	346.08	8.14	-42.0	-60.9	3.8	7.42e-01	0	61	104	948436992	55	32157
2026-01-22 11:42:20.99	346.06	8.06	-41.8	-60.7	3.8	7.47e-01	0	61	104	948436992	55	31284
2026-01-22 11:42:21.99	346.05	7.97	-41.7	-60.8	3.8	7.48e-01	0	62	104	948436992	55	31461
2026-01-22 11:42:23.00	346.04	7.89	-42.1	-61.1	3.8	7.44e-01	0	61	104	948436992	55	32608
2026-01-22 11:42:24.01	346.03	7.80	-42.4	-61.4	3.8	7.46e-01	0	61	104	948436992	55	34028
2026-01-22 11:42:25.02	346.02	7.72	-45.5	-64.1	3.8	7.46e-01	0	61	104	948436992	61	32805
2026-01-22 11:42:26.03	346.01	7.63	-46.0	-64.6	3.8	7.44e-01	0	61	104	948436992	62	32838
2026-01-22 11:42:27.04	346.00	7.55	-46.1	-64.8	3.8	7.46e-01	0	61	104	948436992	62	33315
2026-01-22 11:42:28.05	345.99	7.46	-46.2	-64.9	3.9	7.44e-01	0	61	104	948436992	63	31895
2026-01-22 11:42:29.06	345.98	7.38	-46.3	-64.9	3.8	7.46e-01	0	61	104	948436992	63	31871
