passes_logs/2026/01/22/R2.0S_Moscow/R2.0S_Moscow__20260122_001348_NOAA_21_JPSS-2_rec.log

#Pass ID: 20260122_001348_NOAA 21 (JPSS-2)
#Satellite: NOAA 21 (JPSS-2)
#Configuration: NOAA-21
#almurnet v.1.7.20251203
#Start time: 2026-01-22 00:13:51

#Version: 2.2.20231116
#Station: R2.0S_Moscow
#Location: 37.707566 lon 55.798166 lat
#TLE: 1 54234U 22150A   26020.93347024  .00000206  00000+0  11859-3 0  9994
#TLE: 2 54234  98.7506 321.7615 0000627 245.8100 114.3011 14.19536899165654

#Time	Az	El	Level	Level2	SNR	BER	BlckErr	Temp	State	Recorded	gain1	gain2
2026-01-22 00:13:51.00	13.79	2.19	-45.6	-58.0	3.8	1.49e+00	0	58	0	0	61	16230
2026-01-22 00:13:52.00	13.77	2.25	-45.4	-57.9	3.8	1.49e+00	0	58	104	0	62	15081
2026-01-22 00:13:53.01	13.75	2.31	-45.3	-57.8	3.8	1.49e+00	0	58	104	0	62	14951
2026-01-22 00:13:54.02	13.73	2.38	-45.3	-57.8	3.8	1.49e+00	0	58	104	0	62	15010
2026-01-22 00:13:55.03	13.71	2.44	-44.7	-57.2	3.8	1.49e+00	0	58	104	0	61	14853
2026-01-22 00:13:56.04	13.69	2.51	-44.0	-56.5	3.8	1.49e+00	0	58	104	0	60	14395
2026-01-22 00:13:57.05	13.67	2.57	-42.4	-54.7	3.8	1.49e+00	0	58	104	0	56	14804
2026-01-22 00:13:58.06	13.65	2.64	-42.4	-54.7	3.8	1.49e+00	0	58	104	0	56	14785
2026-01-22 00:13:59.07	13.62	2.70	-42.4	-54.7	3.8	1.49e+00	0	58	104	0	56	14748
2026-01-22 00:14:00.08	13.60	2.77	-42.4	-54.7	3.8	1.49e+00	0	58	104	0	56	14744
2026-01-22 00:14:01.09	13.58	2.83	-42.4	-54.7	3.8	1.49e+00	0	58	104	0	56	14741
2026-01-22 00:14:02.10	13.56	2.90	-42.4	-54.7	3.8	1.49e+00	0	58	104	0	56	14741
2026-01-22 00:14:03.11	13.54	2.97	-42.4	-54.6	3.8	1.49e+00	0	58	104	0	56	14670
2026-01-22 00:14:04.12	13.51	3.03	-42.4	-54.6	3.8	1.49e+00	0	58	104	0	56	14697
2026-01-22 00:14:05.13	13.49	3.10	-42.4	-54.6	3.8	1.49e+00	0	58	104	0	56	14669
2026-01-22 00:14:06.14	13.47	3.16	-42.4	-54.6	3.8	1.49e+00	0	58	104	0	56	14657
2026-01-22 00:14:07.15	13.45	3.23	-42.4	-54.6	3.8	1.49e+00	0	58	104	0	56	14706
2026-01-22 00:14:08.16	13.42	3.30	-42.4	-54.7	3.8	1.49e+00	0	58	104	0	56	14713
2026-01-22 00:14:09.17	13.40	3.36	-42.4	-54.6	3.8	1.49e+00	0	58	104	0	56	14699
2026-01-22 00:14:10.18	13.38	3.43	-42.4	-54.6	3.8	1.49e+00	0	58	104	0	56	14626
2026-01-22 00:14:11.20	13.35	3.50	-42.4	-54.6	3.8	1.49e+00	0	58	104	0	56	14631
2026-01-22 00:14:12.20	13.33	3.56	-42.4	-54.6	3.8	1.49e+00	0	58	104	0	56	14655
2026-01-22 00:14:13.22	13.31	3.63	-42.4	-54.6	3.8	1.49e+00	0	58	104	0	56	14607
2026-01-22 00:14:14.23	13.28	3.70	-42.4	-54.6	3.8	1.49e+00	0	58	104	0	56	14562
2026-01-22 00:14:15.24	13.26	3.77	-42.3	-54.5	3.8	1.49e+00	0	58	104	0	56	14498
2026-01-22 00:14:16.25	13.24	3.83	-42.3	-54.6	3.8	1.49e+00	0	58	104	0	56	14545
2026-01-22 00:14:17.26	13.21	3.90	-42.4	-54.5	3.8	1.49e+00	0	58	104	0	56	14515
2026-01-22 00:14:18.27	13.19	3.97	-42.4	-54.5	3.8	1.49e+00	0	58	104	0	56	14438
2026-01-22 00:14:19.28	13.16	4.04	-42.4	-54.5	3.8	1.49e+00	0	58	104	0	56	14411
2026-01-22 00:14:20.29	13.14	4.11	-42.3	-54.3	3.8	1.49e+00	0	58	104	0	56	14175
2026-01-22 00:14:21.30	13.12	4.18	-42.3	-54.2	3.8	1.49e+00	0	58	104	0	56	14019
2026-01-22 00:14:22.31	13.09	4.24	-42.3	-54.2	3.8	1.49e+00	0	58	104	0	56	14017
2026-01-22 00:14:23.32	13.07	4.31	-42.3	-54.2	3.8	1.49e+00	0	58	104	0	56	13927
2026-01-22 00:14:24.33	13.04	4.38	-42.3	-54.0	3.8	1.49e+00	0	58	104	0	56	13616
2026-01-22 00:14:25.34	13.02	4.45	-42.3	-54.0	3.8	1.49e+00	0	58	104	0	56	13664
2026-01-22 00:14:26.35	12.99	4.52	-42.3	-54.0	3.8	1.49e+00	0	58	104	0	56	13591
2026-01-22 00:14:27.36	12.97	4.59	-42.3	-53.9	3.8	1.49e+00	0	58	104	0	56	13549
2026-01-22 00:14:28.37	12.94	4.66	-42.3	-54.1	3.8	1.49e+00	0	58	104	0	56	13756
2026-01-22 00:14:29.38	12.92	4.73	-42.3	-54.1	3.8	1.49e+00	0	58	104	0	56	13833
2026-01-22 00:14:30.39	12.89	4.80	-42.3	-54.2	3.8	1.49e+00	0	58	104	0	56	13954
2026-01-22 00:14:31.40	12.86	4.87	-42.3	-54.1	3.8	1.49e+00	0	58	104	0	56	13850
2026-01-22 00:14:32.41	12.84	4.94	-42.3	-54.1	3.8	1.49e+00	0	58	104	0	56	13783
2026-01-22 00:14:33.42	12.81	5.01	-42.3	-54.0	3.8	1.49e+00	0	58	104	0	56	13697
2026-01-22 00:14:34.43	12.79	5.08	-42.3	-53.9	3.8	1.49e+00	0	58	104	0	56	13452
2026-01-22 00:14:35.44	12.76	5.15	-42.3	-53.8	3.8	1.49e+00	0	58	104	0	56	13264
2026-01-22 00:14:36.45	12.73	5.22	-42.2	-53.7	3.8	1.49e+00	0	58	104	0	56	13172
2026-01-22 00:14:37.46	12.71	5.30	-42.2	-53.5	3.8	1.49e+00	0	58	104	0	56	12854
2026-01-22 00:14:38.47	12.68	5.37	-42.2	-53.5	3.8	1.49e+00	0	58	104	0	56	12826
2026-01-22 00:14:39.48	12.65	5.44	-42.2	-53.2	3.8	1.49e+00	0	58	104	0	56	12456
2026-01-22 00:14:40.49	12.63	5.51	-42.2	-53.1	3.8	1.49e+00	0	58	104	0	56	12249
2026-01-22 00:14:41.50	12.60	5.58	-42.1	-52.7	3.9	1.49e+00	0	58	104	0	56	11692
2026-01-22 00:14:42.51	12.57	5.66	-42.1	-52.9	3.8	1.49e+00	0	58	104	0	56	12048
2026-01-22 00:14:43.52	12.54	5.73	-42.1	-52.6	3.9	1.49e+00	0	58	104	0	56	11624
2026-01-22 00:14:44.53	12.51	5.80	-42.1	-52.9	3.8	1.49e+00	0	58	104	0	56	12079
2026-01-22 00:14:45.54	12.49	5.87	-42.2	-53.2	3.8	1.49e+00	0	58	104	0	56	12378
2026-01-22 00:14:46.55	12.46	5.95	-42.2	-53.4	3.8	1.49e+00	0	58	104	0	56	12668
2026-01-22 00:14:47.56	12.43	6.02	-42.2	-53.7	3.8	1.49e+00	0	58	104	0	56	13208
2026-01-22 00:14:48.57	12.40	6.09	-42.3	-53.9	3.8	1.49e+00	0	58	104	0	56	13457
2026-01-22 00:14:49.58	12.37	6.17	-42.3	-54.2	3.8	1.49e+00	0	58	104	0	56	13914
2026-01-22 00:14:50.59	12.34	6.24	-42.3	-54.4	3.8	1.49e+00	0	58	104	0	56	14292
2026-01-22 00:14:51.60	12.32	6.31	-42.3	-54.5	3.8	1.49e+00	0	58	104	0	56	14528
2026-01-22 00:14:52.61	12.29	6.39	-42.3	-54.5	3.8	1.49e+00	0	58	104	0	56	14499
2026-01-22 00:14:53.63	12.26	6.46	-42.3	-54.2	3.8	1.49e+00	0	58	104	0	56	14006
2026-01-22 00:14:54.64	12.23	6.54	-42.2	-53.5	3.8	1.49e+00	0	58	104	0	56	12819
2026-01-22 00:14:55.65	12.20	6.61	-42.1	-52.3	3.9	1.49e+00	0	58	104	0	56	11284
2026-01-22 00:14:56.66	12.17	6.69	-41.8	-51.0	4.2	1.48e+00	0	58	104	0	55	10187
2026-01-22 00:14:57.67	12.14	6.76	-41.6	-49.5	4.7	9.95e-01	0	58	104	0	55	8661
2026-01-22 00:14:58.68	12.11	6.84	-41.3	-48.3	5.3	6.72e-01	0	58	0	1048576	54	7956
2026-01-22 00:14:59.69	12.08	6.92	-41.1	-47.3	6.1	3.74e-01	0	58	0	4194304	54	7047
2026-01-22 00:15:00.70	12.05	6.99	-40.8	-46.4	6.8	2.20e-01	0	58	0	7340032	53	6749
2026-01-22 00:15:01.71	12.02	7.07	-40.5	-45.7	7.4	1.18e-01	0	58	0	10485760	53	6203
2026-01-22 00:15:02.72	11.99	7.14	-40.3	-45.0	8.0	7.46e-02	0	58	0	13631488	52	6125
2026-01-22 00:15:03.73	11.95	7.22	-40.0	-44.4	8.7	3.72e-02	0	58	0	16777216	52	5660
2026-01-22 00:15:04.74	11.92	7.30	-40.0	-44.3	8.9	3.12e-02	0	58	0	19922944	51	5944
2026-01-22 00:15:05.75	11.89	7.37	-40.0	-44.1	9.0	2.32e-02	0	58	0	23068672	51	5848
2026-01-22 00:15:06.76	11.86	7.45	-40.0	-44.1	9.1	2.34e-02	0	58	0	26214400	51	5808
2026-01-22 00:15:07.77	11.83	7.53	-40.0	-44.1	9.0	2.45e-02	0	58	0	29360128	51	5842
2026-01-22 00:15:08.79	11.80	7.61	-40.0	-44.3	8.9	3.01e-02	0	58	0	32505856	51	5948
2026-01-22 00:15:09.80	11.76	7.69	-40.2	-44.5	8.6	3.75e-02	0	58	0	35651584	51	6113
2026-01-22 00:15:10.81	11.73	7.76	-40.4	-45.1	8.1	4.97e-02	0	58	0	38797312	51	6503
2026-01-22 00:15:11.82	11.70	7.84	-40.5	-45.3	7.9	7.43e-02	0	58	0	41943040	51	6693
2026-01-22 00:15:12.83	11.67	7.92	-40.7	-46.0	7.1	1.19e-01	0	58	0	45088768	52	6862
2026-01-22 00:15:13.84	11.63	8.00	-40.9	-46.7	6.5	2.02e-01	0	58	0	48234496	52	7402
2026-01-22 00:15:14.85	11.60	8.08	-40.9	-50.4	3.9	5.74e-01	0	58	104	51380224	52	11353
2026-01-22 00:15:15.86	11.57	8.16	-40.6	-46.1	6.9	2.60e-01	0	58	0	51380224	52	6888
2026-01-22 00:15:16.87	11.53	8.24	-42.2	-53.7	3.8	1.15e+00	0	58	104	53477376	54	14800
2026-01-22 00:15:17.88	11.50	8.32	-41.6	-48.2	5.6	1.12e+00	0	58	104	53477376	54	7873
2026-01-22 00:15:18.89	11.47	8.40	-40.9	-49.7	4.0	1.41e-01	2	58	104	55574528	53	9937
2026-01-22 00:15:19.90	11.43	8.48	-40.6	-45.9	7.1	3.89e-01	0	58	0	56623104	53	6409
2026-01-22 00:15:20.91	11.40	8.56	-40.7	-46.3	6.7	1.82e-01	0	58	0	59768832	53	6720
2026-01-22 00:15:21.92	11.36	8.64	-40.8	-46.6	6.5	2.07e-01	0	58	0	62914560	53	6916
2026-01-22 00:15:22.93	11.33	8.72	-40.9	-46.9	6.2	2.89e-01	0	58	0	66060288	53	7167
2026-01-22 00:15:23.94	11.29	8.80	-40.8	-46.9	6.2	2.86e-01	0	58	0	69206016	53	7184
2026-01-22 00:15:24.95	11.26	8.88	-40.8	-46.8	6.3	2.77e-01	0	58	0	72351744	53	7120
2026-01-22 00:15:25.96	11.22	8.97	-41.8	-49.4	4.9	3.81e-01	0	58	0	75497472	54	9033
2026-01-22 00:15:26.97	11.19	9.05	-41.3	-49.9	4.0	6.10e-01	2	58	104	78643200	54	9538
2026-01-22 00:15:27.99	11.15	9.13	-42.2	-54.0	3.8	1.41e+00	0	58	104	78643200	54	15341
2026-01-22 00:15:29.00	11.11	9.21	-41.8	-49.4	5.0	1.01e+00	0	58	0	78643200	54	8991
2026-01-22 00:15:30.01	11.08	9.30	-41.0	-52.3	3.8	1.43e+00	0	58	104	80740352	53	13303
2026-01-22 00:15:31.02	11.04	9.38	-41.0	-47.9	5.5	5.94e-01	0	58	0	80740352	53	8026
2026-01-22 00:15:32.03	11.00	9.46	-41.0	-48.2	5.2	5.74e-01	0	58	0	83886080	53	8294
2026-01-22 00:15:33.04	10.97	9.55	-41.0	-48.2	5.2	6.04e-01	0	58	0	87031808	53	8366
2026-01-22 00:15:34.05	10.93	9.63	-41.1	-48.5	5.1	6.60e-01	0	58	0	90177536	53	8565
2026-01-22 00:15:35.06	10.89	9.72	-41.1	-48.6	5.0	7.02e-01	0	58	0	93323264	53	8672
2026-01-22 00:15:36.07	10.85	9.80	-41.2	-48.8	4.9	7.34e-01	0	58	0	96468992	53	8883
2026-01-22 00:15:37.08	10.81	9.89	-41.0	-52.2	3.8	1.49e+00	0	58	104	97517568	53	13110
2026-01-22 00:15:38.09	10.78	9.97	-41.4	-51.4	3.9	1.46e+00	0	58	104	97517568	53	12088
2026-01-22 00:15:39.09	10.74	10.05	-42.0	-54.1	3.8	1.48e+00	0	58	104	97517568	54	15418
2026-01-22 00:15:40.10	10.70	10.14	-42.1	-51.2	3.9	1.28e+00	0	58	104	97517568	54	11103
2026-01-22 00:15:41.11	10.66	10.23	-41.0	-52.9	3.8	1.49e+00	0	58	104	97517568	54	13560
2026-01-22 00:15:42.12	10.62	10.31	-41.5	-50.1	4.0	1.16e+00	0	58	104	97517568	54	9770
2026-01-22 00:15:43.13	10.58	10.40	-41.4	-49.1	4.8	1.17e+00	0	58	104	97517568	54	8754
2026-01-22 00:15:44.14	10.54	10.49	-41.4	-49.0	4.9	7.73e-01	0	58	0	98566144	54	8609
2026-01-22 00:15:45.15	10.50	10.57	-41.2	-48.6	5.1	6.80e-01	0	58	0	101711872	54	8183
2026-01-22 00:15:46.16	10.46	10.66	-41.1	-48.2	5.3	5.91e-01	0	58	0	104857600	54	7883
2026-01-22 00:15:47.17	10.42	10.75	-41.2	-48.1	5.4	5.63e-01	0	58	0	108003328	54	7796
2026-01-22 00:15:48.18	10.38	10.84	-41.3	-48.1	5.4	5.05e-01	0	58	0	111149056	54	7756
2026-01-22 00:15:49.19	10.34	10.92	-41.4	-48.4	5.3	5.12e-01	0	58	0	114294784	54	8031
2026-01-22 00:15:50.20	10.30	11.01	-42.0	-50.5	4.4	1.46e+00	0	58	104	115343360	54	10268
2026-01-22 00:15:51.21	10.25	11.10	-41.0	-53.0	3.8	1.49e+00	0	58	104	115343360	54	13644
2026-01-22 00:15:52.22	10.21	11.19	-41.4	-47.5	6.1	3.92e-01	0	58	0	116391936	54	7260
2026-01-22 00:15:53.23	10.17	11.28	-41.7	-53.7	3.8	1.49e+00	0	58	104	117440512	54	14810
2026-01-22 00:15:54.24	10.13	11.37	-40.9	-46.4	6.8	2.97e-01	0	58	0	117440512	53	6792
2026-01-22 00:15:55.25	10.09	11.46	-40.7	-45.6	7.7	1.08e-01	0	58	0	120586240	53	6202
2026-01-22 00:15:56.26	10.04	11.55	-40.6	-45.1	8.5	5.36e-02	0	58	0	123731968	53	5833
2026-01-22 00:15:57.27	10.00	11.64	-40.5	-44.7	9.0	2.68e-02	0	58	0	126877696	53	5559
2026-01-22 00:15:58.28	9.95	11.73	-40.5	-44.6	9.2	2.11e-02	0	58	0	130023424	53	5493
2026-01-22 00:15:59.29	9.91	11.82	-40.5	-44.5	9.4	1.71e-02	0	58	0	133169152	53	5429
2026-01-22 00:16:00.30	9.87	11.92	-40.4	-44.2	9.7	1.28e-02	0	58	0	137363456	52	5568
2026-01-22 00:16:01.31	9.82	12.01	-40.0	-43.4	10.6	5.09e-03	0	58	0	140509184	52	5062
2026-01-22 00:16:02.32	9.78	12.10	-39.8	-42.9	11.2	1.84e-03	0	58	0	143654912	51	5056
2026-01-22 00:16:03.33	9.73	12.19	-39.6	-42.6	11.6	9.31e-04	0	58	0	145752064	51	4872
2026-01-22 00:16:04.34	9.69	12.29	-39.4	-42.3	11.8	4.76e-04	0	58	0	148897792	50	5030
2026-01-22 00:16:05.35	9.64	12.38	-39.5	-42.3	11.9	4.10e-04	0	58	0	153092096	50	5034
2026-01-22 00:16:06.36	9.59	12.47	-39.5	-42.4	11.8	4.91e-04	0	58	0	156237824	50	5077
2026-01-22 00:16:07.37	9.55	12.57	-39.6	-42.5	11.7	5.50e-04	0	58	0	159383552	50	5151
2026-01-22 00:16:08.38	9.50	12.66	-39.7	-42.7	11.5	6.84e-04	0	58	0	162529280	50	5261
2026-01-22 00:16:09.39	9.45	12.76	-39.8	-42.8	11.4	8.15e-04	0	58	0	165675008	50	5328
2026-01-22 00:16:10.40	9.41	12.85	-39.9	-43.0	11.3	1.00e-03	0	58	0	168820736	50	5427
2026-01-22 00:16:11.41	9.36	12.95	-39.9	-43.0	11.4	1.05e-03	0	58	0	171966464	50	5421
2026-01-22 00:16:12.42	9.31	13.04	-39.8	-42.8	11.6	6.81e-04	0	59	0	175112192	50	5302
2026-01-22 00:16:13.44	9.26	13.14	-39.7	-42.6	11.8	4.81e-04	0	58	0	178257920	50	5205
2026-01-22 00:16:14.45	9.21	13.24	-39.8	-42.7	11.8	4.70e-04	0	58	0	181403648	50	5222
2026-01-22 00:16:15.46	9.16	13.33	-39.8	-42.7	11.9	3.97e-04	0	58	0	184549376	50	5229
2026-01-22 00:16:16.47	9.11	13.43	-40.0	-42.9	11.7	4.20e-04	0	59	0	187695104	50	5394
2026-01-22 00:16:17.48	9.06	13.53	-40.1	-43.0	11.7	6.35e-04	0	58	0	190840832	50	5441
2026-01-22 00:16:18.49	9.01	13.63	-40.0	-42.8	12.0	3.58e-04	0	58	0	193986560	50	5322
2026-01-22 00:16:19.50	8.96	13.72	-39.8	-42.5	12.4	1.78e-04	0	58	0	197132288	50	5134
2026-01-22 00:16:20.51	8.91	13.82	-39.8	-42.5	12.5	1.38e-04	0	58	0	200278016	50	5110
2026-01-22 00:16:21.52	8.86	13.92	-39.8	-42.5	12.5	1.23e-04	0	58	0	203423744	50	5104
2026-01-22 00:16:22.53	8.81	14.02	-39.9	-42.5	12.5	1.47e-04	0	58	0	206569472	50	5142
2026-01-22 00:16:23.54	8.76	14.12	-39.9	-42.6	12.4	1.45e-04	0	58	0	209715200	50	5194
2026-01-22 00:16:24.55	8.70	14.22	-39.9	-42.6	12.4	1.33e-04	0	58	0	212860928	50	5166
2026-01-22 00:16:25.56	8.65	14.32	-40.0	-42.7	12.4	1.60e-04	0	58	0	216006656	50	5249
2026-01-22 00:16:26.57	8.60	14.42	-39.8	-42.4	12.5	1.04e-04	0	59	0	219152384	50	5100
2026-01-22 00:16:27.58	8.54	14.52	-39.9	-42.6	12.4	1.01e-04	0	58	0	222298112	50	5195
2026-01-22 00:16:28.59	8.49	14.63	-40.0	-42.7	12.3	1.69e-04	0	58	0	225443840	50	5248
2026-01-22 00:16:29.60	8.44	14.73	-39.9	-42.5	12.6	1.25e-04	0	58	0	228589568	50	5103
2026-01-22 00:16:30.61	8.38	14.83	-39.9	-42.5	12.7	6.94e-05	0	58	0	231735296	50	5112
2026-01-22 00:16:31.62	8.33	14.93	-40.0	-42.6	12.5	1.02e-04	0	58	0	234881024	50	5195
2026-01-22 00:16:32.63	8.27	15.04	-39.9	-42.6	12.6	1.10e-04	0	58	0	238026752	50	5162
2026-01-22 00:16:33.63	8.21	15.14	-39.8	-42.4	12.9	5.87e-05	0	58	0	241172480	50	5047
2026-01-22 00:16:34.64	8.16	15.24	-40.0	-42.5	12.8	6.40e-05	0	58	0	244318208	50	5152
2026-01-22 00:16:35.65	8.10	15.35	-40.0	-42.5	12.8	6.86e-05	0	59	0	247463936	50	5145
2026-01-22 00:16:36.66	8.04	15.45	-40.0	-42.5	12.8	7.70e-05	0	58	0	250609664	50	5158
2026-01-22 00:16:37.67	7.99	15.56	-40.1	-42.7	12.6	7.78e-05	0	58	0	253755392	50	5261
2026-01-22 00:16:38.68	7.93	15.67	-40.1	-42.7	12.6	8.85e-05	0	58	0	256901120	50	5262
2026-01-22 00:16:39.70	7.87	15.77	-40.1	-42.7	12.6	7.70e-05	0	58	0	260046848	50	5242
2026-01-22 00:16:40.70	7.81	15.88	-40.1	-42.8	12.6	9.99e-05	0	58	0	263192576	50	5284
2026-01-22 00:16:41.71	7.75	15.99	-40.2	-42.8	12.6	1.13e-04	0	58	0	266338304	50	5314
2026-01-22 00:16:42.72	7.69	16.09	-40.3	-43.0	12.4	1.11e-04	0	58	0	269484032	51	5136
2026-01-22 00:16:43.74	7.63	16.20	-40.3	-43.0	12.5	1.36e-04	0	58	0	272629760	51	5104
2026-01-22 00:16:44.74	7.57	16.31	-40.2	-42.8	12.7	1.02e-04	0	58	0	275775488	51	5028
2026-01-22 00:16:45.75	7.51	16.42	-40.2	-42.9	12.6	1.01e-04	0	58	0	278921216	51	5072
2026-01-22 00:16:46.76	7.45	16.53	-40.3	-42.9	12.6	1.04e-04	0	58	0	282066944	51	5087
2026-01-22 00:16:47.77	7.38	16.64	-40.3	-43.0	12.5	1.25e-04	0	58	0	285212672	51	5108
2026-01-22 00:16:48.78	7.32	16.75	-40.3	-43.0	12.6	1.04e-04	0	58	0	288358400	51	5107
2026-01-22 00:16:49.79	7.26	16.86	-40.3	-43.0	12.5	1.22e-04	0	58	0	291504128	51	5147
2026-01-22 00:16:50.80	7.19	16.97	-40.4	-43.2	12.3	1.36e-04	0	58	0	294649856	51	5251
2026-01-22 00:16:51.81	7.13	17.08	-40.4	-43.2	12.4	1.50e-04	0	58	0	297795584	51	5220
2026-01-22 00:16:52.82	7.06	17.20	-40.4	-43.1	12.5	1.14e-04	0	58	0	300941312	51	5182
2026-01-22 00:16:53.83	7.00	17.31	-40.4	-43.1	12.6	1.11e-04	0	58	0	304087040	51	5162
2026-01-22 00:16:54.85	6.93	17.42	-40.4	-43.0	12.6	9.30e-05	0	58	0	307232768	51	5140
2026-01-22 00:16:55.86	6.87	17.54	-40.4	-43.1	12.5	8.62e-05	0	58	0	310378496	51	5173
2026-01-22 00:16:56.87	6.80	17.65	-40.4	-43.0	12.6	1.32e-04	0	58	0	313524224	51	5148
2026-01-22 00:16:57.87	6.73	17.76	-40.4	-43.0	12.7	9.53e-05	0	58	0	316669952	51	5141
2026-01-22 00:16:58.88	6.66	17.88	-40.5	-43.1	12.5	9.99e-05	0	58	0	319815680	51	5213
2026-01-22 00:16:59.89	6.60	17.99	-40.4	-43.1	12.6	1.10e-04	0	58	0	322961408	51	5166
2026-01-22 00:17:00.91	6.53	18.11	-40.4	-43.0	12.7	8.23e-05	0	59	0	326107136	51	5159
2026-01-22 00:17:01.92	6.46	18.23	-40.4	-43.0	12.7	6.63e-05	0	58	0	329252864	51	5110
2026-01-22 00:17:02.93	6.39	18.35	-40.4	-42.9	12.8	6.63e-05	0	59	0	332398592	51	5086
2026-01-22 00:17:03.94	6.32	18.46	-40.4	-43.0	12.8	6.79e-05	0	59	0	335544320	51	5107
2026-01-22 00:17:04.94	6.24	18.58	-40.4	-43.0	12.8	6.10e-05	0	58	0	338690048	51	5106
2026-01-22 00:17:05.95	6.17	18.70	-40.3	-42.9	12.8	7.78e-05	0	58	0	341835776	51	5082
2026-01-22 00:17:06.96	6.10	18.82	-40.4	-43.0	12.7	6.56e-05	0	58	0	344981504	51	5120
2026-01-22 00:17:07.97	6.03	18.94	-40.4	-43.0	12.7	7.01e-05	0	58	0	348127232	51	5145
2026-01-22 00:17:08.98	5.95	19.06	-40.3	-42.9	12.8	6.17e-05	0	58	0	351272960	51	5063
2026-01-22 00:17:09.99	5.88	19.18	-40.3	-42.8	12.9	6.10e-05	0	58	0	354418688	51	5028
2026-01-22 00:17:11.00	5.80	19.30	-40.3	-42.9	12.9	4.19e-05	0	58	0	357564416	51	5047
2026-01-22 00:17:12.02	5.73	19.42	-40.3	-42.8	12.9	4.42e-05	0	58	0	360710144	51	5040
2026-01-22 00:17:13.02	5.65	19.55	-40.4	-43.0	12.8	5.03e-05	0	58	0	363855872	51	5104
2026-01-22 00:17:14.03	5.57	19.67	-40.3	-42.9	12.9	6.02e-05	0	58	0	367001600	51	5051
2026-01-22 00:17:15.04	5.50	19.79	-40.3	-42.9	12.8	5.72e-05	0	58	0	370147328	51	5073
2026-01-22 00:17:16.05	5.42	19.92	-40.3	-42.8	13.0	4.65e-05	0	58	0	373293056	51	5001
2026-01-22 00:17:17.06	5.34	20.04	-40.3	-42.8	13.0	3.58e-05	0	58	0	376438784	51	4997
2026-01-22 00:17:18.07	5.26	20.17	-40.3	-42.8	13.0	4.57e-05	0	59	0	379584512	51	5009
2026-01-22 00:17:19.08	5.18	20.29	-40.3	-42.8	13.0	3.20e-05	0	58	0	382730240	51	4984
2026-01-22 00:17:20.09	5.10	20.42	-40.2	-42.7	13.1	3.28e-05	0	58	0	385875968	51	4946
2026-01-22 00:17:21.10	5.02	20.55	-40.2	-42.6	13.2	2.44e-05	0	58	0	389021696	51	4914
2026-01-22 00:17:22.11	4.93	20.67	-40.1	-42.5	13.3	1.60e-05	0	58	0	392167424	51	4822
2026-01-22 00:17:23.12	4.85	20.80	-40.1	-42.5	13.3	1.98e-05	0	58	0	395313152	51	4843
2026-01-22 00:17:24.13	4.77	20.93	-40.1	-42.5	13.3	1.75e-05	0	58	0	398458880	51	4837
2026-01-22 00:17:25.14	4.68	21.06	-40.1	-42.5	13.3	1.83e-05	0	59	0	401604608	51	4839
2026-01-22 00:17:26.15	4.60	21.19	-40.0	-42.4	13.4	1.60e-05	0	58	0	404750336	51	4798
2026-01-22 00:17:27.16	4.51	21.32	-40.1	-42.5	13.4	1.22e-05	0	58	0	407896064	51	4838
2026-01-22 00:17:28.17	4.43	21.45	-39.9	-42.2	13.6	8.30e-06	0	59	0	411041792	51	4677
2026-01-22 00:17:29.18	4.34	21.58	-39.8	-42.1	13.7	2.20e-06	0	59	0	414187520	51	4626
2026-01-22 00:17:30.19	4.25	21.72	-39.8	-42.0	13.8	4.50e-06	0	58	0	417333248	51	4580
2026-01-22 00:17:31.20	4.16	21.85	-39.7	-41.9	13.9	3.80e-06	0	58	0	420478976	51	4536
2026-01-22 00:17:32.21	4.07	21.98	-39.6	-41.7	14.1	1.50e-06	0	59	0	423624704	51	4423
2026-01-22 00:17:33.22	3.98	22.12	-39.6	-41.7	14.2	1.50e-06	0	58	0	426770432	51	4418
2026-01-22 00:17:34.23	3.89	22.25	-39.5	-41.7	14.2	2.20e-06	0	58	0	429916160	51	4405
2026-01-22 00:17:35.24	3.80	22.39	-39.5	-41.7	14.1	7.00e-07	0	58	0	433061888	51	4422
2026-01-22 00:17:36.25	3.70	22.52	-39.5	-41.7	14.2	2.20e-06	0	58	0	437256192	51	4417
2026-01-22 00:17:37.26	3.61	22.66	-39.5	-41.7	14.1	3.80e-06	0	58	0	439353344	51	4423
2026-01-22 00:17:38.27	3.51	22.80	-39.5	-41.7	14.2	0.00e+00	0	58	0	442499072	51	4418
2026-01-22 00:17:39.28	3.42	22.94	-39.0	-41.4	14.3	3.00e-06	0	58	0	445644800	50	4536
2026-01-22 00:17:40.29	3.32	23.08	-39.3	-41.4	14.5	0.00e+00	0	58	0	448790528	50	4518
2026-01-22 00:17:41.30	3.22	23.22	-39.3	-41.4	14.5	0.00e+00	0	58	0	452984832	50	4518
2026-01-22 00:17:42.31	3.12	23.36	-39.4	-41.4	14.4	7.00e-07	0	58	0	456130560	50	4540
2026-01-22 00:17:43.32	3.02	23.50	-39.3	-41.3	14.6	7.00e-07	0	58	0	459276288	50	4464
2026-01-22 00:17:44.34	2.92	23.64	-39.2	-41.3	14.6	0.00e+00	0	58	0	461373440	50	4457
2026-01-22 00:17:45.35	2.82	23.78	-39.3	-41.4	14.6	0.00e+00	0	58	0	465567744	50	4501
2026-01-22 00:17:46.36	2.72	23.92	-39.3	-41.4	14.6	0.00e+00	0	58	0	468713472	50	4504
2026-01-22 00:17:47.37	2.62	24.07	-39.4	-41.4	14.5	0.00e+00	0	58	0	471859200	50	4525
2026-01-22 00:17:48.38	2.51	24.21	-39.3	-41.4	14.5	0.00e+00	0	58	0	475004928	50	4517
2026-01-22 00:17:49.39	2.41	24.36	-39.4	-41.5	14.4	7.00e-07	0	58	0	478150656	50	4572
2026-01-22 00:17:50.39	2.30	24.50	-39.4	-41.5	14.5	7.00e-07	0	58	0	481296384	50	4558
2026-01-22 00:17:51.41	2.19	24.65	-39.4	-41.5	14.4	0.00e+00	0	59	0	484442112	50	4579
2026-01-22 00:17:52.41	2.09	24.79	-39.5	-41.6	14.4	1.50e-06	0	59	0	487587840	50	4613
2026-01-22 00:17:53.42	1.98	24.94	-39.6	-41.7	14.2	7.00e-07	0	58	0	490733568	50	4680
2026-01-22 00:17:54.43	1.87	25.09	-39.7	-41.9	14.1	5.30e-06	0	58	0	493879296	50	4782
2026-01-22 00:17:55.44	1.75	25.24	-39.7	-41.9	14.0	5.30e-06	0	58	0	497025024	50	4779
2026-01-22 00:17:56.45	1.64	25.39	-39.8	-42.0	14.0	3.00e-06	0	58	0	500170752	50	4822
2026-01-22 00:17:57.46	1.53	25.54	-39.8	-42.0	13.9	3.00e-06	0	58	0	503316480	50	4846
2026-01-22 00:17:58.47	1.41	25.69	-39.8	-42.1	13.9	4.50e-06	0	58	0	506462208	50	4879
2026-01-22 00:17:59.48	1.30	25.84	-39.9	-42.1	13.9	5.30e-06	0	59	0	509607936	50	4898
2026-01-22 00:18:00.49	1.18	26.00	-39.9	-42.2	13.8	6.10e-06	0	59	0	512753664	50	4959
2026-01-22 00:18:01.50	1.06	26.15	-40.0	-42.2	13.7	7.60e-06	0	59	0	515899392	50	4982
2026-01-22 00:18:02.51	0.94	26.31	-40.0	-42.3	13.7	3.80e-06	0	59	0	519045120	50	4994
2026-01-22 00:18:03.52	0.82	26.46	-40.0	-42.2	13.8	4.50e-06	0	58	0	522190848	50	4973
2026-01-22 00:18:04.53	0.70	26.62	-40.0	-42.2	13.8	3.80e-06	0	58	0	525336576	50	4983
2026-01-22 00:18:05.54	0.58	26.77	-40.0	-42.2	13.8	6.80e-06	0	58	0	528482304	50	4960
2026-01-22 00:18:06.55	0.45	26.93	-39.9	-42.2	13.9	3.00e-06	0	58	0	531628032	50	4930
2026-01-22 00:18:07.56	0.33	27.09	-40.0	-42.3	13.7	4.50e-06	0	58	0	534773760	50	5002
2026-01-22 00:18:08.57	0.20	27.25	-40.0	-42.3	13.7	5.30e-06	0	58	0	537919488	50	5030
2026-01-22 00:18:09.57	0.07	27.41	-40.1	-42.4	13.6	1.29e-05	0	58	0	541065216	50	5099
2026-01-22 00:18:10.58	359.94	27.57	-40.2	-42.6	13.4	1.52e-05	0	58	0	544210944	51	4892
2026-01-22 00:18:11.59	359.81	27.73	-40.3	-42.6	13.4	1.60e-05	0	58	0	547356672	51	4917
2026-01-22 00:18:12.60	359.68	27.89	-40.2	-42.6	13.3	1.44e-05	0	58	0	550502400	51	4910
2026-01-22 00:18:13.61	359.54	28.05	-40.2	-42.6	13.4	8.30e-06	0	58	0	553648128	51	4883
2026-01-22 00:18:14.62	359.41	28.21	-40.2	-42.5	13.4	1.60e-05	0	58	0	556793856	51	4851
2026-01-22 00:18:15.63	359.27	28.38	-40.2	-42.6	13.3	1.83e-05	0	58	0	559939584	51	4909
2026-01-22 00:18:16.64	359.13	28.54	-40.2	-42.6	13.4	9.90e-06	0	58	0	563085312	51	4895
2026-01-22 00:18:17.65	359.00	28.71	-40.2	-42.6	13.4	1.29e-05	0	58	0	566231040	51	4897
2026-01-22 00:18:18.66	358.85	28.88	-40.3	-42.7	13.3	1.22e-05	0	58	0	569376768	51	4961
2026-01-22 00:18:19.67	358.71	29.04	-40.2	-42.6	13.4	1.14e-05	0	58	0	572522496	51	4893
2026-01-22 00:18:20.68	358.57	29.21	-40.3	-42.7	13.4	1.60e-05	0	58	0	575668224	51	4934
2026-01-22 00:18:21.69	358.42	29.38	-40.3	-42.6	13.5	1.44e-05	0	58	0	578813952	51	4905
2026-01-22 00:18:22.69	358.28	29.55	-40.2	-42.5	13.5	1.22e-05	0	58	0	581959680	51	4857
2026-01-22 00:18:23.71	358.13	29.72	-40.1	-42.4	13.6	6.80e-06	0	58	0	585105408	51	4810
2026-01-22 00:18:24.72	357.98	29.89	-40.1	-42.3	13.7	6.10e-06	0	58	0	588251136	51	4759
2026-01-22 00:18:25.73	357.82	30.07	-40.0	-42.3	13.8	3.80e-06	0	58	0	591396864	51	4723
2026-01-22 00:18:26.74	357.67	30.24	-40.1	-42.4	13.7	6.80e-06	0	59	0	594542592	51	4798
2026-01-22 00:18:27.75	357.52	30.41	-40.2	-42.5	13.6	8.30e-06	0	58	0	597688320	51	4827
2026-01-22 00:18:28.76	357.36	30.59	-40.3	-42.7	13.4	6.80e-06	0	58	0	600834048	51	4943
2026-01-22 00:18:29.77	357.20	30.76	-40.4	-42.8	13.4	1.29e-05	0	58	0	603979776	51	4991
2026-01-22 00:18:30.78	357.04	30.94	-40.4	-42.8	13.2	2.36e-05	0	58	0	607125504	51	5040
2026-01-22 00:18:31.79	356.88	31.12	-40.4	-42.8	13.3	1.37e-05	0	59	0	610271232	51	5040
2026-01-22 00:18:32.80	356.71	31.30	-40.5	-42.9	13.2	2.82e-05	0	58	0	613416960	51	5076
2026-01-22 00:18:33.81	356.55	31.47	-40.4	-42.8	13.3	2.05e-05	0	58	0	616562688	51	5017
2026-01-22 00:18:34.81	356.38	31.65	-40.3	-42.6	13.5	1.06e-05	0	58	0	619708416	51	4925
2026-01-22 00:18:35.82	356.21	31.83	-40.2	-42.5	13.7	7.60e-06	0	58	0	622854144	51	4826
2026-01-22 00:18:36.83	356.04	32.01	-40.2	-42.5	13.6	9.90e-06	0	58	0	625999872	51	4852
2026-01-22 00:18:37.84	355.86	32.20	-40.3	-42.6	13.5	8.30e-06	0	58	0	629145600	51	4895
2026-01-22 00:18:38.85	355.69	32.38	-40.2	-42.5	13.6	9.10e-06	0	58	0	632291328	51	4836
2026-01-22 00:18:39.86	355.51	32.56	-40.2	-42.5	13.6	9.90e-06	0	58	0	635437056	51	4868
2026-01-22 00:18:40.87	355.33	32.75	-40.3	-42.7	13.4	1.14e-05	0	59	0	638582784	51	4964
2026-01-22 00:18:41.88	355.15	32.93	-40.3	-42.7	13.4	2.51e-05	0	58	0	641728512	51	4964
2026-01-22 00:18:42.89	354.96	33.12	-40.6	-43.1	13.0	3.05e-05	0	58	0	644874240	51	5163
2026-01-22 00:18:43.90	354.78	33.31	-40.5	-43.0	13.1	1.98e-05	0	59	0	648019968	51	5137
2026-01-22 00:18:44.91	354.59	33.49	-40.6	-43.2	12.9	2.74e-05	0	58	0	651165696	51	5228
2026-01-22 00:18:45.92	354.40	33.68	-40.6	-43.2	12.8	6.17e-05	0	58	0	654311424	52	4962
2026-01-22 00:18:46.93	354.20	33.87	-40.7	-43.3	12.8	5.79e-05	0	58	0	657457152	52	4988
2026-01-22 00:18:47.93	354.01	34.06	-40.7	-43.2	12.9	4.80e-05	0	58	0	660602880	52	4977
2026-01-22 00:18:48.94	353.81	34.25	-40.7	-43.3	12.8	5.79e-05	0	58	0	663748608	52	4986
2026-01-22 00:18:49.95	353.61	34.44	-40.6	-43.1	13.0	5.18e-05	0	58	0	666894336	52	4905
2026-01-22 00:18:50.96	353.41	34.64	-40.7	-43.3	12.8	6.25e-05	0	58	0	670040064	52	5040
2026-01-22 00:18:51.97	353.21	34.83	-40.6	-43.1	12.9	3.81e-05	0	59	0	673185792	52	4921
2026-01-22 00:18:52.98	353.00	35.02	-40.7	-43.3	12.8	4.88e-05	0	58	0	676331520	52	5005
2026-01-22 00:18:53.99	352.79	35.22	-40.8	-43.4	12.6	7.01e-05	0	58	0	679477248	52	5074
2026-01-22 00:18:55.00	352.58	35.41	-40.9	-43.5	12.6	9.68e-05	0	58	0	682622976	52	5125
2026-01-22 00:18:56.01	352.36	35.61	-41.0	-43.7	12.4	1.50e-04	0	58	0	685768704	52	5227
2026-01-22 00:18:57.02	352.14	35.81	-41.0	-43.8	12.3	1.72e-04	0	59	0	688914432	52	5295
2026-01-22 00:18:58.03	351.92	36.00	-41.0	-43.6	12.4	1.37e-04	0	59	0	692060160	52	5216
2026-01-22 00:18:59.04	351.70	36.20	-41.1	-43.9	12.2	2.09e-04	0	58	0	695205888	52	5348
2026-01-22 00:19:00.05	351.47	36.40	-41.0	-43.7	12.3	2.04e-04	0	58	0	698351616	52	5258
2026-01-22 00:19:01.05	351.25	36.60	-41.0	-43.8	12.3	1.96e-04	0	58	0	701497344	52	5285
2026-01-22 00:19:02.06	351.02	36.80	-41.1	-43.8	12.2	1.95e-04	0	59	0	704643072	52	5323
2026-01-22 00:19:03.08	350.78	37.00	-41.1	-43.9	12.1	2.25e-04	0	58	0	707788800	52	5380
2026-01-22 00:19:04.09	350.54	37.21	-41.2	-44.0	12.1	2.82e-04	0	59	0	710934528	52	5405
2026-01-22 00:19:05.10	350.30	37.41	-41.1	-43.8	12.2	2.43e-04	0	58	0	714080256	52	5328
2026-01-22 00:19:06.11	350.06	37.61	-41.2	-44.0	12.0	3.18e-04	0	58	0	717225984	53	5145
2026-01-22 00:19:07.12	349.81	37.82	-41.3	-44.1	11.9	3.29e-04	0	58	0	720371712	53	5205
2026-01-22 00:19:08.13	349.56	38.02	-41.4	-44.3	11.7	5.72e-04	0	58	0	723517440	53	5319
2026-01-22 00:19:09.14	349.31	38.23	-41.4	-44.3	11.7	6.24e-04	0	59	0	726663168	53	5339
2026-01-22 00:19:10.15	349.05	38.43	-41.5	-44.5	11.6	7.35e-04	0	58	0	729808896	53	5439
2026-01-22 00:19:11.16	348.79	38.64	-41.6	-44.6	11.5	8.68e-04	0	58	0	732954624	53	5514
2026-01-22 00:19:12.17	348.53	38.85	-41.7	-44.8	11.3	1.10e-03	0	58	0	736100352	53	5614
2026-01-22 00:19:13.18	348.26	39.05	-41.6	-44.6	11.4	8.65e-04	0	58	0	739246080	53	5526
2026-01-22 00:19:14.19	347.99	39.26	-41.6	-44.8	11.3	1.30e-03	0	59	0	742391808	53	5598
2026-01-22 00:19:15.20	347.72	39.47	-41.6	-44.6	11.5	8.36e-04	0	59	0	745537536	53	5504
2026-01-22 00:19:16.21	347.44	39.68	-41.5	-44.4	11.7	6.99e-04	0	58	0	748683264	53	5373
2026-01-22 00:19:17.21	347.16	39.89	-41.3	-44.2	11.8	4.93e-04	0	59	0	751828992	53	5263
2026-01-22 00:19:18.22	346.88	40.10	-41.3	-44.2	12.0	3.68e-04	0	58	0	754974720	53	5231
2026-01-22 00:19:19.23	346.59	40.31	-41.4	-44.3	11.8	4.23e-04	0	59	0	758120448	53	5303
2026-01-22 00:19:20.25	346.30	40.52	-41.3	-44.2	11.9	4.13e-04	0	58	0	761266176	53	5230
2026-01-22 00:19:21.26	346.00	40.73	-41.3	-44.2	11.9	3.25e-04	0	59	0	764411904	53	5239
2026-01-22 00:19:22.26	345.70	40.94	-41.4	-44.3	11.8	4.22e-04	0	58	0	767557632	53	5302
2026-01-22 00:19:23.28	345.40	41.16	-41.5	-44.4	11.7	4.87e-04	0	58	0	770703360	53	5389
2026-01-22 00:19:24.29	345.09	41.37	-41.4	-44.3	11.8	4.87e-04	0	59	0	773849088	53	5316
2026-01-22 00:19:25.30	344.78	41.58	-41.4	-44.2	11.9	4.37e-04	0	59	0	776994816	53	5275
2026-01-22 00:19:26.31	344.46	41.79	-41.4	-44.3	11.8	4.29e-04	0	58	0	780140544	53	5295
2026-01-22 00:19:27.32	344.14	42.01	-41.5	-44.4	11.7	5.63e-04	0	58	0	783286272	53	5381
2026-01-22 00:19:28.33	343.82	42.22	-41.6	-44.6	11.5	6.96e-04	0	59	0	786432000	53	5481
2026-01-22 00:19:29.34	343.49	42.43	-41.9	-45.2	10.9	1.86e-03	0	58	0	789577728	54	5577
2026-01-22 00:19:30.35	343.15	42.65	-42.0	-45.4	10.7	2.58e-03	0	59	0	793772032	54	5663
2026-01-22 00:19:31.36	342.82	42.86	-42.0	-45.3	10.8	2.68e-03	0	58	0	796917760	54	5621
2026-01-22 00:19:32.37	342.47	43.08	-42.0	-45.4	10.8	3.14e-03	0	59	0	800063488	54	5669
2026-01-22 00:19:33.38	342.13	43.29	-41.8	-45.0	11.1	1.77e-03	0	58	0	802160640	54	5435
2026-01-22 00:19:34.39	341.78	43.50	-41.7	-44.8	11.2	1.47e-03	0	58	0	805306368	54	5334
2026-01-22 00:19:35.40	341.42	43.72	-41.8	-44.9	11.2	1.24e-03	0	58	0	809500672	54	5381
2026-01-22 00:19:36.41	341.06	43.93	-41.8	-45.0	11.1	1.45e-03	0	59	0	812646400	54	5404
2026-01-22 00:19:37.42	340.69	44.15	-42.0	-45.3	10.8	2.41e-03	0	59	0	815792128	54	5642
2026-01-22 00:19:38.43	340.32	44.36	-42.3	-45.9	10.1	6.06e-03	0	58	0	818937856	55	5715
2026-01-22 00:19:39.44	339.94	44.57	-42.4	-46.2	9.9	9.11e-03	0	59	0	822083584	55	5868
2026-01-22 00:19:40.45	339.56	44.79	-42.4	-46.1	10.0	8.70e-03	0	58	0	825229312	55	5790
2026-01-22 00:19:41.46	339.17	45.00	-42.2	-45.6	10.5	4.55e-03	0	58	0	828375040	55	5500
2026-01-22 00:19:42.47	338.78	45.21	-41.8	-45.0	11.1	2.35e-03	0	59	0	831520768	55	5128
2026-01-22 00:19:43.48	338.38	45.42	-41.8	-44.9	11.2	1.32e-03	0	59	0	834666496	55	5085
2026-01-22 00:19:44.49	337.98	45.63	-41.9	-45.2	10.8	2.25e-03	0	59	0	837812224	55	5248
2026-01-22 00:19:45.50	337.57	45.85	-42.1	-45.5	10.6	3.03e-03	0	59	0	840957952	55	5416
2026-01-22 00:19:46.51	337.16	46.06	-42.1	-45.4	10.7	3.57e-03	0	58	0	844103680	55	5394
2026-01-22 00:19:47.52	336.74	46.27	-42.1	-45.4	10.7	3.30e-03	0	58	0	847249408	55	5383
2026-01-22 00:19:48.53	336.31	46.48	-42.0	-45.3	10.8	2.46e-03	0	58	0	850395136	55	5307
2026-01-22 00:19:49.54	335.88	46.69	-41.9	-45.2	10.9	2.38e-03	0	59	0	853540864	55	5232
2026-01-22 00:19:50.55	335.45	46.89	-42.0	-45.3	10.8	2.39e-03	0	58	0	856686592	55	5294
2026-01-22 00:19:51.56	335.00	47.10	-42.0	-45.3	10.9	2.28e-03	0	59	0	859832320	55	5287
2026-01-22 00:19:52.57	334.56	47.31	-41.8	-45.0	11.1	1.83e-03	0	59	0	862978048	55	5104
2026-01-22 00:19:53.58	334.10	47.51	-41.8	-44.9	11.2	1.62e-03	0	59	0	866123776	55	5077
2026-01-22 00:19:54.59	333.64	47.72	-41.7	-44.8	11.4	1.03e-03	0	58	0	869269504	55	4984
2026-01-22 00:19:55.60	333.17	47.92	-41.8	-44.9	11.3	1.27e-03	0	59	0	872415232	55	5060
2026-01-22 00:19:56.60	332.71	48.12	-41.6	-44.6	11.5	9.33e-04	0	59	0	875560960	55	4914
2026-01-22 00:19:57.61	332.23	48.32	-41.6	-44.6	11.5	7.74e-04	0	58	0	878706688	55	4889
2026-01-22 00:19:58.62	331.74	48.52	-41.7	-44.8	11.3	1.05e-03	0	59	0	881852416	55	5020
2026-01-22 00:19:59.63	331.25	48.72	-41.7	-44.8	11.4	1.02e-03	0	58	0	884998144	55	4988
2026-01-22 00:20:00.64	330.75	48.92	-41.7	-44.7	11.4	9.86e-04	0	59	0	888143872	55	4968
2026-01-22 00:20:01.65	330.25	49.11	-41.5	-44.4	11.7	5.92e-04	0	58	0	891289600	55	4799
2026-01-22 00:20:02.66	329.74	49.30	-41.4	-44.2	11.9	4.20e-04	0	59	0	894435328	54	4983
2026-01-22 00:20:03.67	329.22	49.50	-41.3	-44.2	12.0	3.38e-04	0	59	0	897581056	54	4943
2026-01-22 00:20:04.68	328.69	49.69	-41.3	-44.1	12.1	2.85e-04	0	59	0	900726784	54	4893
2026-01-22 00:20:05.69	328.16	49.88	-41.4	-44.3	11.8	3.88e-04	0	59	0	903872512	54	5023
2026-01-22 00:20:06.70	327.63	50.06	-41.6	-44.7	11.4	9.28e-04	0	59	0	907018240	54	5239
2026-01-22 00:20:07.71	327.08	50.25	-41.7	-44.8	11.3	1.18e-03	0	59	0	910163968	54	5323
2026-01-22 00:20:08.72	326.53	50.43	-41.4	-44.3	11.8	7.22e-04	0	59	0	913309696	54	5037
2026-01-22 00:20:09.73	325.97	50.61	-41.3	-44.0	12.1	2.59e-04	0	59	0	916455424	54	4858
2026-01-22 00:20:10.74	325.41	50.79	-41.2	-43.9	12.2	2.18e-04	0	58	0	919601152	54	4809
2026-01-22 00:20:11.75	324.84	50.96	-41.3	-44.1	12.1	2.49e-04	0	59	0	922746880	54	4884
2026-01-22 00:20:12.76	324.26	51.14	-41.3	-44.2	12.0	2.97e-04	0	59	0	925892608	54	4929
2026-01-22 00:20:13.77	323.68	51.31	-41.1	-43.8	12.4	1.72e-04	0	59	0	929038336	54	4709
2026-01-22 00:20:14.78	323.08	51.48	-40.8	-43.3	12.8	7.09e-05	0	59	0	932184064	53	4749
2026-01-22 00:20:15.79	322.49	51.64	-40.8	-43.3	12.9	4.95e-05	0	59	0	935329792	53	4725
2026-01-22 00:20:16.80	321.88	51.81	-40.9	-43.4	12.7	5.18e-05	0	59	0	938475520	53	4807
2026-01-22 00:20:17.81	321.27	51.97	-40.9	-43.5	12.6	8.23e-05	0	58	0	941621248	53	4870
2026-01-22 00:20:18.82	320.65	52.13	-40.8	-43.4	12.8	6.63e-05	0	59	0	944766976	53	4795
2026-01-22 00:20:19.83	320.03	52.28	-40.6	-43.0	13.2	3.43e-05	0	59	0	947912704	53	4571
2026-01-22 00:20:20.84	319.40	52.43	-40.4	-42.8	13.4	2.36e-05	0	58	0	951058432	52	4738
2026-01-22 00:20:21.85	318.76	52.58	-40.4	-42.7	13.5	1.14e-05	0	58	0	954204160	52	4694
2026-01-22 00:20:22.85	318.12	52.72	-40.6	-43.0	13.2	1.52e-05	0	59	0	957349888	52	4870
2026-01-22 00:20:23.86	317.47	52.87	-40.6	-43.0	13.1	4.73e-05	0	58	0	960495616	52	4866
2026-01-22 00:20:24.87	316.82	53.00	-40.4	-42.8	13.4	1.67e-05	0	58	0	963641344	52	4715
2026-01-22 00:20:25.88	316.15	53.14	-40.4	-42.7	13.5	1.29e-05	0	59	0	966787072	52	4664
2026-01-22 00:20:26.89	315.48	53.27	-40.3	-42.6	13.5	1.06e-05	0	58	0	969932800	52	4620
2026-01-22 00:20:27.90	314.81	53.40	-40.5	-42.8	13.3	1.22e-05	0	59	0	973078528	52	4740
2026-01-22 00:20:28.91	314.13	53.52	-40.4	-42.7	13.4	1.29e-05	0	59	0	976224256	52	4698
2026-01-22 00:20:29.92	313.44	53.64	-40.5	-42.9	13.2	1.44e-05	0	59	0	979369984	52	4809
2026-01-22 00:20:30.94	312.74	53.76	-40.6	-43.1	13.1	2.51e-05	0	59	0	982515712	52	4885
2026-01-22 00:20:31.95	312.05	53.87	-40.8	-43.3	12.8	4.88e-05	0	59	0	985661440	52	5016
2026-01-22 00:20:32.96	311.34	53.98	-41.0	-43.7	12.4	1.38e-04	0	59	0	988807168	52	5252
2026-01-22 00:20:33.97	310.63	54.08	-41.1	-43.8	12.4	1.31e-04	0	59	0	991952896	52	5283
2026-01-22 00:20:34.98	309.92	54.18	-40.7	-43.2	12.9	7.09e-05	0	59	0	995098624	52	4983
2026-01-22 00:20:35.99	309.20	54.28	-40.4	-42.8	13.4	1.98e-05	0	58	0	998244352	52	4723
2026-01-22 00:20:37.00	308.48	54.37	-40.3	-42.7	13.5	6.10e-06	0	59	0	1001390080	52	4660
2026-01-22 00:20:38.00	307.76	54.45	-40.3	-42.6	13.7	7.60e-06	0	59	0	1004535808	52	4615
2026-01-22 00:20:39.01	307.03	54.54	-40.3	-42.6	13.6	1.29e-05	0	58	0	1007681536	52	4619
2026-01-22 00:20:40.02	306.29	54.61	-40.2	-42.4	13.8	3.80e-06	0	58	0	1010827264	52	4524
2026-01-22 00:20:41.03	305.55	54.68	-40.1	-42.4	13.8	6.80e-06	0	59	0	1013972992	52	4499
2026-01-22 00:20:42.04	304.81	54.75	-40.2	-42.4	13.7	6.10e-06	0	59	0	1017118720	52	4531
2026-01-22 00:20:43.05	304.06	54.82	-40.1	-42.3	13.8	3.00e-06	0	59	0	1020264448	52	4456
2026-01-22 00:20:44.06	303.31	54.87	-40.2	-42.5	13.6	3.80e-06	0	59	0	1023410176	52	4588
2026-01-22 00:20:45.07	302.56	54.93	-40.1	-42.4	13.8	6.80e-06	0	59	0	1026555904	52	4497
2026-01-22 00:20:46.08	301.80	54.98	-40.3	-42.6	13.5	7.60e-06	0	58	0	1029701632	52	4633
2026-01-22 00:20:47.09	301.04	55.02	-40.6	-43.1	13.1	2.67e-05	0	58	0	1032847360	52	4884
2026-01-22 00:20:48.10	300.28	55.06	-40.7	-43.1	12.9	3.66e-05	0	58	0	1035993088	52	4926
2026-01-22 00:20:49.11	299.52	55.09	-40.7	-43.2	12.9	4.27e-05	0	59	0	1039138816	52	4946
2026-01-22 00:20:50.12	298.76	55.12	-40.4	-42.7	13.5	1.67e-05	0	59	0	1042284544	52	4674
2026-01-22 00:20:51.13	297.99	55.14	-40.2	-42.4	13.8	6.80e-06	0	59	0	1045430272	52	4513
2026-01-22 00:20:52.13	297.23	55.16	-40.1	-42.4	13.8	3.00e-06	0	59	0	1048576000	52	4498
2026-01-22 00:20:53.14	296.46	55.17	-40.2	-42.4	13.7	9.10e-06	0	58	0	1051721728	52	4532
2026-01-22 00:20:54.15	295.69	55.18	-40.2	-42.5	13.7	1.22e-05	0	58	0	1054867456	52	4564
2026-01-22 00:20:55.16	294.93	55.19	-40.1	-42.4	13.7	9.10e-06	0	58	0	1058013184	52	4497
2026-01-22 00:20:56.17	294.16	55.18	-40.2	-42.5	13.6	9.90e-06	0	59	0	1061158912	52	4553
2026-01-22 00:20:57.18	293.39	55.18	-40.1	-42.4	13.7	8.30e-06	0	59	0	1064304640	52	4503
2026-01-22 00:20:58.19	292.62	55.16	-40.1	-42.4	13.7	5.30e-06	0	59	0	1067450368	52	4506
2026-01-22 00:20:59.20	291.85	55.15	-40.5	-42.8	13.3	1.75e-05	0	59	0	1070596096	52	4756
2026-01-22 00:21:00.21	291.09	55.13	-40.6	-43.1	13.1	2.97e-05	0	59	0	1073741824	52	4876
2026-01-22 00:21:01.22	290.32	55.10	-40.7	-43.1	13.0	3.12e-05	0	59	0	1076887552	52	4914
2026-01-22 00:21:02.23	289.56	55.07	-40.6	-43.0	13.1	2.89e-05	0	59	0	1080033280	52	4860
2026-01-22 00:21:03.24	288.80	55.03	-40.3	-42.7	13.4	1.22e-05	0	58	0	1083179008	52	4655
2026-01-22 00:21:04.25	288.04	54.99	-40.4	-42.7	13.4	1.90e-05	0	59	0	1086324736	52	4686
2026-01-22 00:21:05.25	287.29	54.94	-40.3	-42.7	13.4	1.44e-05	0	59	0	1089470464	52	4660
2026-01-22 00:21:06.26	286.53	54.89	-40.6	-43.1	12.9	4.34e-05	0	58	0	1092616192	52	4888
2026-01-22 00:21:07.28	285.78	54.83	-40.6	-43.1	12.9	5.95e-05	0	59	0	1095761920	52	4923
2026-01-22 00:21:08.29	285.03	54.77	-40.5	-42.9	13.1	2.89e-05	0	59	0	1098907648	52	4789
2026-01-22 00:21:09.30	284.28	54.70	-40.3	-42.6	13.5	2.05e-05	0	59	0	1102053376	52	4622
2026-01-22 00:21:10.31	283.54	54.63	-40.2	-42.4	13.6	6.80e-06	0	58	0	1105199104	52	4527
2026-01-22 00:21:11.32	282.80	54.55	-40.5	-43.0	13.1	2.21e-05	0	59	0	1108344832	52	4831
2026-01-22 00:21:12.33	282.07	54.47	-40.6	-43.2	12.9	6.10e-05	0	59	0	1111490560	52	4928
2026-01-22 00:21:13.33	281.35	54.39	-40.6	-43.1	12.9	4.57e-05	0	59	0	1114636288	52	4914
2026-01-22 00:21:14.34	280.62	54.30	-40.6	-43.1	13.0	3.50e-05	0	59	0	1117782016	52	4908
2026-01-22 00:21:15.35	279.90	54.20	-40.2	-42.5	13.6	9.10e-06	0	58	0	1120927744	52	4555
2026-01-22 00:21:16.36	279.19	54.10	-40.0	-42.2	13.9	4.50e-06	0	59	0	1124073472	52	4416
2026-01-22 00:21:17.37	278.48	54.00	-40.0	-42.2	13.9	3.00e-06	0	58	0	1127219200	52	4427
2026-01-22 00:21:18.38	277.77	53.89	-40.2	-42.5	13.6	9.10e-06	0	59	0	1130364928	52	4579
2026-01-22 00:21:19.39	277.07	53.78	-40.4	-42.7	13.4	1.52e-05	0	58	0	1133510656	52	4686
2026-01-22 00:21:20.40	276.38	53.67	-40.4	-42.7	13.4	1.29e-05	0	59	0	1137704960	52	4681
2026-01-22 00:21:21.41	275.69	53.55	-40.4	-42.8	13.2	2.21e-05	0	59	0	1140850688	52	4707
2026-01-22 00:21:22.41	275.01	53.43	-40.1	-42.3	13.7	9.90e-06	0	59	0	1142947840	52	4468
2026-01-22 00:21:23.42	274.34	53.30	-40.0	-42.1	14.0	7.00e-07	0	59	0	1146093568	51	4646
2026-01-22 00:21:24.43	273.67	53.17	-40.2	-42.4	13.8	8.30e-06	0	59	0	1149239296	51	4765
2026-01-22 00:21:25.44	273.00	53.03	-40.4	-42.7	13.5	5.30e-06	0	59	0	1152385024	51	4953
2026-01-22 00:21:26.45	272.34	52.90	-40.7	-43.1	13.1	3.05e-05	0	59	0	1156579328	51	5172
2026-01-22 00:21:27.46	271.69	52.75	-40.6	-43.0	13.1	3.89e-05	0	59	0	1159725056	52	4829
2026-01-22 00:21:28.47	271.04	52.61	-40.5	-42.9	13.1	2.89e-05	0	59	0	1162870784	52	4796
2026-01-22 00:21:29.48	270.40	52.46	-40.3	-42.6	13.5	1.75e-05	0	59	0	1166016512	52	4630
2026-01-22 00:21:30.49	269.77	52.31	-40.1	-42.3	13.7	8.30e-06	0	59	0	1168113664	52	4482
2026-01-22 00:21:31.50	269.14	52.16	-40.4	-42.7	13.4	1.22e-05	0	59	0	1172307968	52	4676
2026-01-22 00:21:32.51	268.52	52.00	-40.4	-42.7	13.3	1.67e-05	0	59	0	1175453696	52	4699
2026-01-22 00:21:33.52	267.91	51.84	-40.5	-42.9	13.2	1.29e-05	0	59	0	1178599424	52	4801
2026-01-22 00:21:34.53	267.30	51.67	-40.8	-43.3	12.7	4.50e-05	0	58	0	1181745152	52	5001
2026-01-22 00:21:35.54	266.70	51.51	-40.6	-43.1	12.9	7.70e-05	0	59	0	1184890880	52	4885
2026-01-22 00:21:36.55	266.10	51.34	-40.6	-43.0	12.9	4.50e-05	0	59	0	1188036608	52	4867
2026-01-22 00:21:37.56	265.52	51.17	-40.5	-42.9	13.1	2.82e-05	0	59	0	1191182336	52	4798
2026-01-22 00:21:38.57	264.94	51.00	-40.4	-42.7	13.3	1.98e-05	0	59	0	1194328064	52	4696
2026-01-22 00:21:39.57	264.37	50.82	-40.5	-42.9	13.2	1.60e-05	0	58	0	1197473792	52	4786
2026-01-22 00:21:40.58	263.80	50.64	-41.1	-43.8	12.3	6.48e-05	0	58	0	1200619520	52	5306
2026-01-22 00:21:41.59	263.24	50.46	-41.8	-45.0	11.0	1.23e-03	0	59	0	1203765248	54	5412
2026-01-22 00:21:42.60	262.69	50.28	-41.6	-44.6	11.3	1.96e-03	0	59	0	1206910976	54	5191
2026-01-22 00:21:43.61	262.14	50.09	-41.1	-43.8	12.1	4.79e-04	0	58	0	1210056704	54	4744
2026-01-22 00:21:44.62	261.60	49.91	-40.9	-43.5	12.5	1.34e-04	0	59	0	1213202432	53	4829
2026-01-22 00:21:45.63	261.07	49.72	-40.9	-43.5	12.5	9.68e-05	0	59	0	1216348160	53	4850
2026-01-22 00:21:46.64	260.54	49.53	-41.2	-44.0	12.0	2.60e-04	0	59	0	1219493888	53	5137
2026-01-22 00:21:47.65	260.02	49.34	-41.7	-44.8	11.2	9.75e-04	0	58	0	1222639616	53	5601
2026-01-22 00:21:48.66	259.51	49.14	-41.8	-44.9	11.1	1.73e-03	0	59	0	1225785344	54	5392
2026-01-22 00:21:49.67	259.00	48.95	-41.6	-44.6	11.4	1.12e-03	0	59	0	1228931072	54	5194
2026-01-22 00:21:50.68	258.50	48.75	-41.5	-44.4	11.7	6.26e-04	0	59	0	1232076800	54	5046
2026-01-22 00:21:51.69	258.00	48.55	-41.3	-44.1	11.9	4.70e-04	0	59	0	1235222528	54	4925
2026-01-22 00:21:52.70	257.52	48.35	-41.3	-44.1	11.9	3.68e-04	0	59	0	1238368256	54	4926
2026-01-22 00:21:53.70	257.04	48.15	-41.7	-44.8	11.3	9.94e-04	0	59	0	1241513984	54	5310
2026-01-22 00:21:54.71	256.56	47.95	-42.0	-45.4	10.6	2.09e-03	0	59	0	1244659712	54	5674
2026-01-22 00:21:55.72	256.09	47.74	-42.3	-46.0	10.0	6.20e-03	0	59	0	1247805440	55	5741
2026-01-22 00:21:56.73	255.63	47.54	-42.4	-46.2	9.8	1.04e-02	0	59	0	1250951168	55	5860
2026-01-22 00:21:57.74	255.17	47.33	-41.9	-45.2	10.8	4.11e-03	0	59	0	1254096896	55	5223
2026-01-22 00:21:58.75	254.72	47.13	-41.1	-43.8	12.2	3.96e-04	0	59	0	1257242624	54	4726
2026-01-22 00:21:59.76	254.28	46.92	-40.7	-43.2	12.8	7.55e-05	0	59	0	1260388352	53	4675
2026-01-22 00:22:00.77	253.84	46.71	-40.8	-43.4	12.7	7.09e-05	0	59	0	1263534080	53	4763
2026-01-22 00:22:01.78	253.41	46.50	-41.3	-44.1	12.0	1.90e-04	0	59	0	1266679808	53	5178
2026-01-22 00:22:02.79	252.98	46.29	-41.9	-45.1	10.9	1.12e-03	0	59	0	1269825536	54	5497
2026-01-22 00:22:03.80	252.56	46.08	-42.2	-45.7	10.2	5.19e-03	0	59	0	1272971264	54	5896
2026-01-22 00:22:04.81	252.14	45.87	-42.3	-46.0	9.8	9.59e-03	0	59	0	1276116992	55	5786
2026-01-22 00:22:05.82	251.73	45.66	-42.4	-46.1	9.6	1.39e-02	0	59	0	1279262720	55	5845
2026-01-22 00:22:06.82	251.33	45.45	-42.0	-45.4	10.4	6.56e-03	0	59	0	1282408448	55	5375
2026-01-22 00:22:07.83	250.93	45.23	-41.4	-44.4	11.6	1.60e-03	0	58	0	1285554176	54	5044
2026-01-22 00:22:08.84	250.53	45.02	-41.1	-43.8	12.1	2.80e-04	0	59	0	1288699904	54	4752
2026-01-22 00:22:09.85	250.14	44.81	-41.2	-43.9	12.1	2.37e-04	0	59	0	1291845632	54	4779
2026-01-22 00:22:10.86	249.76	44.59	-41.6	-44.6	11.3	6.51e-04	0	59	0	1294991360	54	5214
2026-01-22 00:22:11.87	249.38	44.38	-42.2	-45.7	10.2	3.62e-03	0	59	0	1298137088	54	5877
2026-01-22 00:22:12.88	249.01	44.16	-42.6	-46.6	9.4	1.51e-02	0	59	0	1301282816	55	6141
2026-01-22 00:22:13.89	248.64	43.95	-42.6	-46.6	9.4	1.68e-02	0	59	0	1304428544	55	6149
2026-01-22 00:22:14.90	248.28	43.73	-42.3	-45.9	10.1	8.20e-03	0	59	0	1307574272	55	5672
2026-01-22 00:22:15.91	247.92	43.52	-41.9	-45.3	10.6	4.29e-03	0	59	0	1310720000	55	5290
2026-01-22 00:22:16.92	247.56	43.30	-41.7	-44.8	11.1	2.09e-03	0	59	0	1313865728	55	5013
2026-01-22 00:22:17.93	247.21	43.09	-41.4	-44.2	11.7	8.01e-04	0	59	0	1317011456	54	4980
2026-01-22 00:22:18.94	246.87	42.87	-40.9	-43.4	12.5	1.88e-04	0	59	0	1320157184	53	4806
2026-01-22 00:22:19.95	246.53	42.66	-40.7	-43.2	12.8	8.08e-05	0	59	0	1323302912	53	4698
2026-01-22 00:22:20.96	246.19	42.45	-40.8	-43.4	12.6	8.46e-05	0	59	0	1326448640	53	4805
2026-01-22 00:22:21.97	245.86	42.23	-41.4	-44.2	11.8	3.03e-04	0	58	0	1329594368	53	5269
2026-01-22 00:22:22.98	245.54	42.02	-41.8	-44.9	11.1	1.32e-03	0	59	0	1332740096	54	5394
2026-01-22 00:22:23.99	245.21	41.80	-41.9	-45.3	10.6	3.01e-03	0	59	0	1335885824	54	5616
2026-01-22 00:22:25.00	244.89	41.59	-41.8	-45.0	10.8	2.76e-03	0	59	0	1339031552	54	5443
2026-01-22 00:22:26.01	244.58	41.37	-41.6	-44.8	11.1	1.91e-03	0	59	0	1342177280	54	5284
2026-01-22 00:22:27.02	244.27	41.16	-41.4	-44.3	11.6	8.49e-04	0	59	0	1345323008	54	5000
2026-01-22 00:22:28.03	243.97	40.95	-41.4	-44.3	11.7	5.02e-04	0	59	0	1348468736	54	5003
2026-01-22 00:22:29.04	243.66	40.74	-41.3	-44.1	11.9	4.42e-04	0	59	0	1351614464	54	4921
2026-01-22 00:22:30.05	243.37	40.52	-41.3	-44.1	11.9	3.78e-04	0	59	0	1354760192	54	4920
2026-01-22 00:22:31.06	243.07	40.31	-41.3	-44.2	11.9	4.59e-04	0	59	0	1357905920	54	4962
2026-01-22 00:22:32.07	242.78	40.10	-41.3	-44.2	11.9	4.00e-04	0	59	0	1361051648	54	4929
2026-01-22 00:22:33.07	242.50	39.89	-41.1	-43.8	12.3	2.14e-04	0	59	0	1364197376	54	4723
2026-01-22 00:22:34.08	242.22	39.68	-41.1	-43.9	12.2	2.10e-04	0	58	0	1367343104	54	4779
2026-01-22 00:22:35.09	241.94	39.47	-41.2	-44.0	12.1	2.30e-04	0	59	0	1370488832	54	4818
2026-01-22 00:22:36.11	241.66	39.26	-41.1	-43.8	12.2	3.29e-04	0	59	0	1373634560	54	4730
2026-01-22 00:22:37.12	241.39	39.05	-40.8	-43.4	12.3	2.02e-04	0	59	0	1376780288	53	4794
2026-01-22 00:22:38.12	241.12	38.84	-40.5	-43.0	12.7	8.69e-05	0	59	0	1379926016	53	4577
2026-01-22 00:22:39.14	240.86	38.63	-40.5	-42.9	13.0	4.80e-05	0	59	0	1383071744	52	4809
2026-01-22 00:22:40.15	240.59	38.42	-40.4	-42.8	13.2	2.36e-05	0	59	0	1386217472	52	4719
2026-01-22 00:22:41.15	240.34	38.22	-40.6	-43.1	12.9	4.27e-05	0	58	0	1389363200	52	4913
2026-01-22 00:22:42.16	240.08	38.01	-41.1	-43.9	12.2	1.16e-04	0	59	0	1392508928	52	5363
2026-01-22 00:22:43.17	239.83	37.81	-41.6	-44.8	11.3	8.42e-04	0	59	0	1395654656	53	5606
2026-01-22 00:22:44.18	239.58	37.60	-41.8	-45.0	11.0	1.66e-03	0	58	0	1398800384	54	5424
2026-01-22 00:22:45.19	239.34	37.40	-41.5	-44.6	11.5	1.09e-03	0	58	0	1401946112	54	5170
2026-01-22 00:22:46.20	239.10	37.19	-41.4	-44.3	11.7	6.46e-04	0	59	0	1405091840	54	5002
2026-01-22 00:22:47.21	238.86	36.99	-41.3	-44.2	11.8	6.19e-04	0	58	0	1408237568	54	4971
2026-01-22 00:22:48.22	238.62	36.79	-41.3	-44.2	11.9	4.21e-04	0	59	0	1411383296	54	4928
2026-01-22 00:22:49.23	238.39	36.59	-41.1	-43.9	12.1	3.07e-04	0	58	0	1414529024	54	4782
2026-01-22 00:22:50.24	238.16	36.38	-41.1	-43.9	12.1	2.85e-04	0	58	0	1417674752	54	4783
2026-01-22 00:22:51.24	237.93	36.19	-41.1	-43.8	12.2	2.45e-04	0	59	0	1420820480	54	4743
2026-01-22 00:22:52.25	237.71	35.99	-40.8	-43.4	12.4	2.38e-04	0	59	0	1423966208	53	4800
2026-01-22 00:22:53.26	237.49	35.79	-40.5	-42.9	13.0	4.11e-05	0	59	0	1427111936	53	4529
2026-01-22 00:22:54.27	237.27	35.59	-40.5	-43.0	13.0	3.89e-05	0	58	0	1430257664	52	4837
2026-01-22 00:22:55.28	237.05	35.39	-40.9	-43.5	12.4	7.78e-05	0	59	0	1433403392	52	5154
2026-01-22 00:22:56.29	236.84	35.20	-41.2	-44.0	12.0	2.83e-04	0	59	0	1436549120	52	5449
2026-01-22 00:22:57.30	236.63	35.00	-41.5	-44.5	11.5	5.43e-04	0	58	0	1439694848	53	5437
2026-01-22 00:22:58.31	236.42	34.80	-41.6	-44.7	11.3	1.13e-03	0	59	0	1442840576	53	5549
2026-01-22 00:22:59.32	236.21	34.61	-41.4	-44.5	11.4	9.99e-04	0	59	0	1445986304	53	5425
2026-01-22 00:23:00.33	236.01	34.42	-41.1	-43.9	12.0	4.13e-04	0	59	0	1449132032	53	5051
2026-01-22 00:23:01.34	235.81	34.22	-40.7	-43.2	12.7	9.84e-05	0	59	0	1452277760	53	4685
2026-01-22 00:23:02.35	235.61	34.03	-40.5	-42.9	13.0	5.11e-05	0	59	0	1455423488	52	4792
2026-01-22 00:23:03.36	235.41	33.84	-40.3	-42.7	13.2	1.60e-05	0	59	0	1458569216	52	4667
2026-01-22 00:23:04.37	235.22	33.65	-40.1	-42.3	13.7	6.80e-06	0	58	0	1461714944	52	4477
2026-01-22 00:23:05.38	235.02	33.46	-40.3	-42.6	13.4	9.10e-06	0	58	0	1464860672	52	4629
2026-01-22 00:23:06.39	234.83	33.27	-40.6	-43.1	12.9	5.18e-05	0	59	0	1468006400	52	4906
2026-01-22 00:23:07.40	234.65	33.08	-40.8	-43.4	12.6	6.86e-05	0	59	0	1471152128	52	5053
2026-01-22 00:23:08.41	234.46	32.90	-40.8	-43.4	12.6	9.91e-05	0	58	0	1474297856	52	5076
2026-01-22 00:23:09.42	234.28	32.71	-40.6	-43.2	12.8	6.40e-05	0	59	0	1477443584	52	4968
2026-01-22 00:23:10.43	234.10	32.52	-40.6	-43.2	12.8	6.25e-05	0	59	0	1480589312	52	4966
2026-01-22 00:23:11.44	233.92	32.34	-40.6	-43.1	12.8	6.02e-05	0	59	0	1483735040	52	4907
2026-01-22 00:23:12.45	233.74	32.16	-40.6	-43.1	12.9	5.64e-05	0	59	0	1486880768	52	4882
2026-01-22 00:23:13.46	233.56	31.97	-40.5	-42.9	13.0	2.74e-05	0	59	0	1490026496	52	4805
2026-01-22 00:23:14.47	233.39	31.79	-40.4	-42.9	13.1	2.28e-05	0	59	0	1493172224	52	4766
2026-01-22 00:23:15.48	233.22	31.61	-40.5	-43.1	12.9	5.18e-05	0	59	0	1496317952	52	4883
2026-01-22 00:23:16.49	233.05	31.43	-40.6	-43.1	12.9	4.27e-05	0	59	0	1499463680	52	4882
2026-01-22 00:23:17.50	232.88	31.25	-40.6	-43.2	12.8	6.25e-05	0	58	0	1503657984	52	4952
2026-01-22 00:23:18.50	232.72	31.07	-40.7	-43.2	12.7	5.49e-05	0	58	0	1505755136	52	4970
2026-01-22 00:23:19.51	232.56	30.89	-40.6	-43.1	12.9	5.11e-05	0	59	0	1508900864	52	4882
2026-01-22 00:23:20.53	232.39	30.71	-40.5	-42.9	13.0	2.89e-05	0	59	0	1512046592	52	4809
2026-01-22 00:23:21.54	232.23	30.54	-40.3	-42.7	13.3	1.75e-05	0	59	0	1515192320	52	4657
2026-01-22 00:23:22.55	232.07	30.36	-40.2	-42.6	13.4	1.83e-05	0	59	0	1519386624	52	4619
2026-01-22 00:23:23.56	231.92	30.19	-40.2	-42.6	13.4	1.06e-05	0	58	0	1522532352	52	4605
2026-01-22 00:23:24.57	231.76	30.01	-40.2	-42.6	13.4	1.22e-05	0	58	0	1525678080	52	4622
2026-01-22 00:23:25.58	231.61	29.84	-40.3	-42.7	13.3	1.60e-05	0	59	0	1528823808	52	4663
2026-01-22 00:23:26.59	231.46	29.67	-40.2	-42.6	13.4	1.37e-05	0	59	0	1530920960	52	4627
2026-01-22 00:23:27.60	231.31	29.49	-40.2	-42.5	13.5	1.14e-05	0	59	0	1535115264	52	4585
2026-01-22 00:23:28.61	231.16	29.32	-40.2	-42.6	13.4	1.75e-05	0	59	0	1538260992	52	4617
2026-01-22 00:23:29.63	231.01	29.15	-40.2	-42.5	13.4	1.60e-05	0	59	0	1541406720	52	4596
2026-01-22 00:23:30.63	230.87	28.98	-40.3	-42.7	13.3	2.28e-05	0	58	0	1544552448	52	4662
2026-01-22 00:23:31.64	230.73	28.82	-40.2	-42.5	13.4	1.98e-05	0	58	0	1547698176	52	4583
2026-01-22 00:23:32.65	230.58	28.65	-40.1	-42.3	13.7	9.10e-06	0	59	0	1550843904	51	4739
2026-01-22 00:23:33.66	230.44	28.48	-40.0	-42.2	13.8	4.50e-06	0	58	0	1553989632	51	4665
2026-01-22 00:23:34.67	230.30	28.32	-39.8	-42.0	14.0	3.00e-06	0	59	0	1557135360	51	4558
2026-01-22 00:23:35.68	230.17	28.15	-39.8	-41.9	14.0	1.50e-06	0	59	0	1560281088	51	4534
2026-01-22 00:23:36.69	230.03	27.99	-39.7	-41.8	14.1	7.00e-07	0	58	0	1563426816	51	4486
2026-01-22 00:23:37.70	229.89	27.82	-39.8	-41.9	14.0	3.80e-06	0	58	0	1566572544	51	4525
2026-01-22 00:23:38.71	229.76	27.66	-39.8	-41.9	14.0	0.00e+00	0	59	0	1569718272	51	4543
2026-01-22 00:23:39.73	229.63	27.50	-39.7	-41.8	14.1	7.00e-07	0	58	0	1572864000	51	4489
2026-01-22 00:23:40.73	229.50	27.34	-39.7	-41.9	14.2	3.00e-06	0	59	0	1576009728	51	4497
2026-01-22 00:23:41.74	229.37	27.18	-39.7	-41.8	14.1	1.50e-06	0	58	0	1579155456	51	4489
2026-01-22 00:23:42.75	229.24	27.02	-39.8	-41.9	14.1	5.30e-06	0	59	0	1582301184	51	4520
2026-01-22 00:23:43.76	229.11	26.86	-39.9	-42.1	13.9	3.00e-06	0	59	0	1585446912	51	4610
2026-01-22 00:23:44.77	228.99	26.70	-39.9	-42.2	13.8	2.20e-06	0	59	0	1588592640	51	4678
2026-01-22 00:23:45.78	228.87	26.54	-40.0	-42.3	13.7	9.10e-06	0	58	0	1591738368	51	4719
2026-01-22 00:23:46.79	228.74	26.39	-40.0	-42.3	13.7	6.80e-06	0	59	0	1594884096	51	4741
2026-01-22 00:23:47.80	228.62	26.23	-40.1	-42.4	13.6	1.44e-05	0	59	0	1598029824	51	4808
2026-01-22 00:23:48.81	228.50	26.07	-40.1	-42.4	13.6	6.80e-06	0	59	0	1601175552	51	4770
2026-01-22 00:23:49.82	228.38	25.92	-39.9	-42.1	13.9	6.80e-06	0	59	0	1604321280	51	4635
2026-01-22 00:23:50.83	228.26	25.77	-39.9	-42.1	13.9	1.50e-06	0	58	0	1607467008	51	4605
2026-01-22 00:23:51.84	228.15	25.61	-39.7	-41.8	14.2	1.50e-06	0	58	0	1610612736	51	4485
2026-01-22 00:23:52.85	228.03	25.46	-39.7	-41.8	14.1	0.00e+00	0	58	0	1613758464	51	4485
2026-01-22 00:23:53.86	227.91	25.31	-39.7	-41.8	14.2	2.20e-06	0	59	0	1616904192	51	4472
2026-01-22 00:23:54.86	227.80	25.16	-39.6	-41.8	14.3	1.50e-06	0	59	0	1620049920	51	4445
2026-01-22 00:23:55.87	227.69	25.01	-39.6	-41.7	14.3	3.00e-06	0	58	0	1623195648	51	4419
2026-01-22 00:23:56.88	227.58	24.86	-39.6	-41.7	14.3	2.20e-06	0	58	0	1626341376	51	4428
2026-01-22 00:23:57.89	227.47	24.71	-39.6	-41.7	14.3	1.50e-06	0	59	0	1629487104	51	4412
2026-01-22 00:23:58.90	227.36	24.56	-39.5	-41.6	14.4	0.00e+00	0	59	0	1632632832	51	4357
2026-01-22 00:23:59.91	227.25	24.42	-39.4	-41.5	14.5	0.00e+00	0	58	0	1635778560	50	4566
2026-01-22 00:24:00.92	227.14	24.27	-39.4	-41.5	14.5	0.00e+00	0	58	0	1638924288	50	4567
2026-01-22 00:24:01.93	227.04	24.13	-39.5	-41.6	14.4	1.50e-06	0	58	0	1642070016	50	4613
2026-01-22 00:24:02.94	226.93	23.98	-39.6	-41.6	14.3	0.00e+00	0	59	0	1645215744	50	4651
2026-01-22 00:24:03.95	226.83	23.84	-39.5	-41.6	14.3	1.50e-06	0	58	0	1648361472	50	4646
2026-01-22 00:24:04.96	226.72	23.69	-39.6	-41.8	14.2	7.00e-07	0	58	0	1651507200	50	4709
2026-01-22 00:24:05.97	226.62	23.55	-39.7	-41.8	14.2	1.50e-06	0	59	0	1654652928	50	4717
2026-01-22 00:24:06.98	226.52	23.41	-39.7	-41.9	14.1	2.20e-06	0	59	0	1657798656	50	4777
2026-01-22 00:24:07.99	226.42	23.27	-39.7	-41.9	14.0	3.00e-06	0	58	0	1660944384	50	4801
2026-01-22 00:24:09.00	226.32	23.13	-39.7	-41.9	14.1	2.20e-06	0	58	0	1664090112	50	4778
2026-01-22 00:24:10.01	226.22	22.99	-39.7	-41.9	14.1	1.50e-06	0	58	0	1667235840	50	4774
2026-01-22 00:24:11.02	226.12	22.85	-39.8	-41.9	14.0	3.00e-06	0	58	0	1670381568	50	4809
2026-01-22 00:24:12.03	226.03	22.71	-39.8	-42.0	14.0	7.00e-07	0	58	0	1673527296	50	4819
2026-01-22 00:24:13.04	225.93	22.57	-39.9	-42.1	13.9	3.80e-06	0	58	0	1676673024	50	4885
2026-01-22 00:24:14.05	225.84	22.43	-39.9	-42.2	13.8	5.30e-06	0	59	0	1679818752	50	4956
2026-01-22 00:24:15.06	225.74	22.29	-40.0	-42.2	13.7	5.30e-06	0	58	0	1682964480	50	4983
2026-01-22 00:24:16.07	225.65	22.16	-40.0	-42.3	13.6	9.10e-06	0	59	0	1686110208	50	5040
2026-01-22 00:24:17.08	225.56	22.02	-40.1	-42.4	13.6	3.00e-06	0	59	0	1689255936	50	5075
2026-01-22 00:24:18.09	225.46	21.89	-40.2	-42.5	13.4	1.06e-05	0	58	0	1692401664	50	5153
2026-01-22 00:24:19.10	225.37	21.75	-40.1	-42.4	13.5	1.14e-05	0	58	0	1695547392	50	5100
2026-01-22 00:24:20.10	225.28	21.62	-40.1	-42.5	13.5	9.90e-06	0	59	0	1698693120	50	5120
2026-01-22 00:24:21.11	225.19	21.49	-40.2	-42.6	13.4	1.67e-05	0	59	0	1701838848	50	5172
2026-01-22 00:24:22.12	225.11	21.35	-40.2	-42.6	13.3	1.83e-05	0	58	0	1704984576	50	5208
2026-01-22 00:24:23.13	225.02	21.22	-40.1	-42.4	13.5	6.10e-06	0	58	0	1708130304	51	4791
2026-01-22 00:24:24.14	224.93	21.09	-40.0	-42.3	13.6	9.10e-06	0	58	0	1711276032	51	4724
2026-01-22 00:24:25.15	224.85	20.96	-39.9	-42.2	13.7	1.37e-05	0	59	0	1714421760	51	4680
2026-01-22 00:24:26.16	224.76	20.83	-39.9	-42.2	13.6	6.80e-06	0	58	0	1717567488	51	4692
2026-01-22 00:24:27.17	224.68	20.70	-40.0	-42.3	13.6	6.10e-06	0	58	0	1720713216	51	4723
2026-01-22 00:24:28.18	224.59	20.57	-39.8	-42.0	13.8	6.80e-06	0	59	0	1723858944	51	4561
2026-01-22 00:24:29.19	224.51	20.44	-39.7	-41.8	14.0	1.50e-06	0	58	0	1727004672	51	4475
2026-01-22 00:24:30.20	224.43	20.32	-39.5	-41.6	14.2	1.50e-06	0	58	0	1730150400	51	4380
2026-01-22 00:24:31.21	224.34	20.19	-39.5	-41.7	14.2	0.00e+00	0	58	0	1733296128	51	4401
2026-01-22 00:24:32.22	224.26	20.06	-39.6	-41.7	14.1	1.50e-06	0	58	0	1736441856	51	4437
2026-01-22 00:24:33.23	224.18	19.94	-39.5	-41.7	14.1	2.20e-06	0	58	0	1739587584	51	4395
2026-01-22 00:24:34.24	224.10	19.81	-39.4	-41.5	14.3	7.00e-07	0	58	0	1742733312	50	4574
2026-01-22 00:24:35.25	224.02	19.69	-39.4	-41.5	14.3	2.20e-06	0	58	0	1745879040	50	4560
2026-01-22 00:24:36.26	223.94	19.56	-39.5	-41.6	14.2	2.20e-06	0	58	0	1749024768	50	4615
2026-01-22 00:24:37.27	223.87	19.44	-39.5	-41.5	14.2	4.50e-06	0	58	0	1752170496	50	4597
2026-01-22 00:24:38.28	223.79	19.32	-39.4	-41.5	14.3	1.50e-06	0	59	0	1755316224	50	4570
2026-01-22 00:24:39.29	223.71	19.19	-39.5	-41.6	14.2	0.00e+00	0	59	0	1758461952	50	4618
2026-01-22 00:24:40.30	223.64	19.07	-39.5	-41.7	14.1	4.50e-06	0	59	0	1761607680	50	4664
2026-01-22 00:24:41.31	223.56	18.95	-39.5	-41.7	14.1	7.00e-07	0	58	0	1764753408	50	4665
2026-01-22 00:24:42.32	223.49	18.83	-39.6	-41.7	14.0	1.50e-06	0	58	0	1767899136	50	4705
2026-01-22 00:24:43.33	223.41	18.71	-39.7	-41.8	14.0	3.80e-06	0	58	0	1771044864	50	4747
2026-01-22 00:24:44.34	223.34	18.59	-39.6	-41.8	14.0	1.50e-06	0	58	0	1774190592	50	4744
2026-01-22 00:24:45.35	223.27	18.47	-39.7	-41.9	13.9	2.20e-06	0	58	0	1777336320	50	4761
2026-01-22 00:24:46.36	223.19	18.35	-39.7	-41.9	13.9	2.20e-06	0	58	0	1780482048	50	4771
2026-01-22 00:24:47.37	223.12	18.23	-39.7	-41.9	13.9	3.80e-06	0	59	0	1783627776	50	4808
2026-01-22 00:24:48.38	223.05	18.12	-39.8	-42.0	13.8	5.30e-06	0	58	0	1786773504	50	4858
2026-01-22 00:24:49.39	222.98	18.00	-39.8	-42.1	13.8	6.10e-06	0	59	0	1789919232	50	4871
2026-01-22 00:24:50.40	222.91	17.88	-39.9	-42.2	13.6	7.60e-06	0	58	0	1793064960	50	4929
2026-01-22 00:24:51.41	222.84	17.76	-39.9	-42.2	13.6	5.30e-06	0	58	0	1796210688	50	4953
2026-01-22 00:24:52.42	222.77	17.65	-40.0	-42.4	13.4	9.90e-06	0	58	0	1799356416	50	5052
2026-01-22 00:24:53.43	222.70	17.53	-40.0	-42.4	13.4	9.90e-06	0	58	0	1802502144	50	5057
2026-01-22 00:24:54.43	222.64	17.42	-40.1	-42.5	13.3	1.75e-05	0	58	0	1805647872	50	5124
2026-01-22 00:24:55.44	222.57	17.31	-40.2	-42.6	13.2	2.13e-05	0	58	0	1808793600	50	5177
2026-01-22 00:24:56.45	222.50	17.19	-40.2	-42.6	13.2	2.97e-05	0	58	0	1811939328	51	4917
2026-01-22 00:24:57.46	222.44	17.08	-40.2	-42.7	13.2	3.12e-05	0	58	0	1815085056	51	4935
2026-01-22 00:24:58.47	222.37	16.97	-40.3	-42.7	13.1	3.28e-05	0	58	0	1818230784	51	4979
2026-01-22 00:24:59.48	222.30	16.85	-40.3	-42.8	13.0	3.81e-05	0	58	0	1821376512	51	5010
2026-01-22 00:25:00.47	222.24	16.74	-40.3	-42.9	12.9	5.03e-05	0	58	0	1824522240	51	5049
2026-01-22 00:25:01.49	222.18	16.63	-40.4	-42.9	12.9	5.49e-05	0	58	0	1827667968	51	5061
2026-01-22 00:25:02.49	222.11	16.52	-40.4	-43.0	12.8	5.03e-05	0	58	0	1830813696	51	5114
2026-01-22 00:25:03.50	222.05	16.41	-40.4	-42.9	12.8	4.80e-05	0	58	0	1833959424	51	5091
2026-01-22 00:25:04.51	221.99	16.30	-40.4	-43.0	12.7	5.79e-05	0	58	0	1837105152	51	5153
2026-01-22 00:25:05.52	221.92	16.19	-40.5	-43.1	12.7	7.78e-05	0	58	0	1840250880	51	5176
2026-01-22 00:25:06.53	221.86	16.08	-40.5	-43.1	12.7	8.16e-05	0	58	0	1843396608	51	5163
2026-01-22 00:25:07.54	221.80	15.97	-40.5	-43.1	12.7	7.09e-05	0	58	0	1846542336	51	5190
2026-01-22 00:25:08.55	221.74	15.87	-40.4	-43.0	12.8	8.16e-05	0	58	0	1849688064	51	5120
2026-01-22 00:25:09.56	221.68	15.76	-40.4	-43.0	12.7	7.32e-05	0	58	0	1852833792	51	5127
2026-01-22 00:25:10.57	221.62	15.65	-40.5	-43.1	12.7	8.46e-05	0	59	0	1855979520	51	5177
2026-01-22 00:25:11.58	221.56	15.54	-40.4	-43.0	12.8	8.16e-05	0	58	0	1859125248	51	5123
2026-01-22 00:25:12.59	221.50	15.44	-40.3	-42.9	12.8	5.49e-05	0	58	0	1862270976	51	5073
2026-01-22 00:25:13.60	221.44	15.33	-40.4	-43.0	12.7	7.17e-05	0	58	0	1865416704	51	5117
2026-01-22 00:25:14.61	221.38	15.23	-40.4	-43.0	12.6	9.76e-05	0	58	0	1868562432	51	5137
2026-01-22 00:25:15.61	221.33	15.12	-40.4	-43.0	12.7	8.01e-05	0	58	0	1871708160	51	5123
2026-01-22 00:25:16.62	221.27	15.02	-40.3	-42.8	12.8	6.17e-05	0	59	0	1874853888	51	5022
2026-01-22 00:25:17.63	221.21	14.91	-40.3	-42.9	12.8	5.64e-05	0	59	0	1877999616	51	5047
2026-01-22 00:25:18.64	221.16	14.81	-40.3	-42.8	12.8	4.73e-05	0	58	0	1881145344	51	5027
2026-01-22 00:25:19.65	221.10	14.71	-40.3	-42.9	12.7	7.24e-05	0	58	0	1885339648	51	5065
2026-01-22 00:25:20.66	221.04	14.60	-40.1	-42.6	13.0	4.42e-05	0	59	0	1888485376	51	4903
2026-01-22 00:25:21.67	220.99	14.50	-40.2	-42.7	12.9	4.27e-05	0	58	0	1891631104	51	4955
2026-01-22 00:25:22.68	220.93	14.40	-40.3	-42.8	12.8	5.41e-05	0	58	0	1893728256	51	5023
2026-01-22 00:25:23.69	220.88	14.30	-40.2	-42.7	12.9	4.57e-05	0	59	0	1896873984	51	4973
2026-01-22 00:25:24.70	220.82	14.20	-40.2	-42.8	12.9	5.03e-05	0	58	0	1901068288	51	4984
2026-01-22 00:25:25.71	220.77	14.09	-40.2	-42.7	12.9	4.34e-05	0	58	0	1904214016	51	4962
2026-01-22 00:25:26.72	220.72	13.99	-40.2	-42.7	12.9	5.26e-05	0	58	0	1907359744	51	4934
2026-01-22 00:25:27.73	220.66	13.89	-40.2	-42.7	12.9	5.11e-05	0	58	0	1910505472	51	4947
2026-01-22 00:25:28.74	220.61	13.79	-40.1	-42.6	13.1	3.66e-05	0	58	0	1913651200	51	4874
