passes_logs/2026/01/22/R2.0S_Moscow/R2.0S_Moscow__20260122_082521_NOAA_21_JPSS-2_rec.log

#Pass ID: 20260122_082521_NOAA 21 (JPSS-2)
#Satellite: NOAA 21 (JPSS-2)
#Configuration: NOAA-21
#almurnet v.1.7.20251203
#Start time: 2026-01-22 08:25:21

#Version: 2.2.20231116
#Station: R2.0S_Moscow
#Location: 37.707566 lon 55.798166 lat
#TLE: 1 54234U 22150A   26021.42686626  .00000211  00000+0  12107-3 0  9996
#TLE: 2 54234  98.7506 322.2490 0000636 241.9299 118.1812 14.19537149165725

#Time	Az	El	Level	Level2	SNR	BER	BlckErr	Temp	State	Recorded	gain1	gain2
2026-01-22 08:25:21.02	116.76	2.00	-36.1	-52.2	3.7	1.50e+00	0	51	0	0	43	23537
2026-01-22 08:25:22.02	116.70	2.06	-35.4	-52.1	4.1	1.50e+00	0	51	104	0	45	20684
2026-01-22 08:25:23.03	116.64	2.12	-32.4	-48.0	4.1	1.50e+00	0	51	104	0	39	18288
2026-01-22 08:25:24.05	116.58	2.18	-35.6	-52.5	4.0	1.50e+00	0	51	104	0	46	20327
2026-01-22 08:25:25.06	116.52	2.23	-34.0	-51.7	3.1	1.50e+00	0	51	104	0	41	24931
2026-01-22 08:25:26.07	116.46	2.29	-35.5	-52.0	4.0	1.50e+00	0	51	104	0	43	22923
2026-01-22 08:25:27.08	116.39	2.35	-37.4	-52.8	4.1	1.50e+00	0	51	104	0	45	22279
2026-01-22 08:25:28.09	116.33	2.41	-28.8	-47.3	4.1	1.50e+00	0	52	104	0	40	15875
2026-01-22 08:25:29.10	116.27	2.47	-38.5	-53.4	3.9	1.50e+00	0	52	104	0	47	21261
2026-01-22 08:25:30.11	116.20	2.53	-31.7	-47.3	4.1	1.50e+00	0	52	104	0	40	15859
2026-01-22 08:25:31.12	116.14	2.59	-37.3	-53.1	4.0	1.50e+00	0	52	104	0	44	24546
2026-01-22 08:25:32.13	116.08	2.65	-35.4	-50.4	4.0	1.50e+00	0	52	104	0	42	20091
2026-01-22 08:25:33.14	116.01	2.71	-34.2	-50.9	4.1	1.50e+00	0	52	104	0	43	20183
2026-01-22 08:25:34.15	115.95	2.77	-35.0	-50.4	4.2	1.50e+00	0	52	104	0	39	24070
2026-01-22 08:25:35.16	115.89	2.82	-36.4	-53.2	3.9	1.50e+00	0	52	104	0	47	20792
2026-01-22 08:25:36.17	115.82	2.88	-36.7	-51.5	3.9	1.50e+00	0	52	104	0	45	19191
2026-01-22 08:25:37.18	115.76	2.94	-37.6	-53.1	4.1	1.50e+00	0	52	104	0	45	23056
2026-01-22 08:25:38.19	115.69	3.00	-35.7	-51.7	4.0	1.50e+00	0	52	104	0	40	26280
2026-01-22 08:25:39.20	115.62	3.06	-35.3	-50.4	4.0	1.50e+00	0	52	104	0	41	21301
2026-01-22 08:25:40.21	115.56	3.12	-36.6	-51.7	4.0	1.50e+00	0	52	104	0	43	22079
2026-01-22 08:25:41.22	115.49	3.18	-36.1	-52.8	3.9	1.50e+00	0	53	104	0	47	19871
2026-01-22 08:25:42.23	115.43	3.24	-35.7	-51.3	4.2	1.50e+00	0	52	104	0	43	21065
2026-01-22 08:25:43.24	115.36	3.30	-34.5	-52.2	3.8	1.50e+00	0	53	104	0	42	24713
2026-01-22 08:25:44.25	115.29	3.37	-33.2	-48.9	4.1	1.50e+00	0	52	104	0	38	21319
2026-01-22 08:25:45.26	115.23	3.43	-34.9	-50.7	4.0	1.50e+00	0	53	104	0	44	18578
2026-01-22 08:25:46.27	115.16	3.49	-37.6	-52.4	4.0	1.50e+00	0	53	104	0	46	20127
2026-01-22 08:25:47.28	115.09	3.55	-37.7	-52.9	3.8	1.50e+00	0	53	104	0	46	21342
2026-01-22 08:25:48.29	115.02	3.61	-35.6	-52.3	3.9	1.50e+00	0	53	104	0	44	22301
2026-01-22 08:25:49.30	114.95	3.67	-29.0	-45.0	4.1	1.50e+00	0	53	104	0	39	12958
2026-01-22 08:25:50.32	114.88	3.73	-37.1	-51.7	4.0	1.50e+00	0	53	104	0	41	24859
2026-01-22 08:25:51.33	114.82	3.79	-35.5	-51.0	3.4	1.50e+00	0	53	104	0	42	21640
2026-01-22 08:25:52.34	114.75	3.85	-33.5	-50.9	3.9	1.50e+00	0	53	104	0	38	26773
2026-01-22 08:25:53.35	114.68	3.91	-35.0	-51.8	4.0	1.50e+00	0	53	104	0	44	21181
2026-01-22 08:25:54.36	114.61	3.97	-28.7	-46.5	3.8	1.50e+00	0	53	104	0	29	27267
2026-01-22 08:25:55.37	114.54	4.04	-29.3	-46.7	3.8	1.51e+00	0	53	104	0	29	27757
2026-01-22 08:25:56.38	114.47	4.10	-27.0	-44.3	3.6	1.51e+00	0	54	104	0	26	25022
2026-01-22 08:25:57.39	114.40	4.16	-28.0	-44.4	3.4	1.51e+00	0	54	104	0	29	21376
2026-01-22 08:25:58.40	114.32	4.22	-29.0	-46.3	3.5	1.51e+00	0	54	104	0	33	21098
2026-01-22 08:25:59.41	114.25	4.28	-33.6	-50.9	3.7	1.50e+00	0	54	104	0	41	22523
2026-01-22 08:26:00.42	114.18	4.35	-34.0	-48.7	3.7	1.51e+00	0	54	104	0	32	29543
2026-01-22 08:26:01.43	114.11	4.41	-34.5	-50.0	4.0	1.50e+00	0	54	104	0	38	24267
2026-01-22 08:26:02.44	114.04	4.47	-29.5	-45.5	3.8	1.51e+00	0	54	104	0	30	23008
2026-01-22 08:26:03.45	113.96	4.53	-33.6	-49.9	4.1	1.51e+00	0	54	104	0	39	22687
2026-01-22 08:26:04.46	113.89	4.59	-32.3	-49.3	3.9	1.50e+00	0	54	104	0	38	22326
2026-01-22 08:26:05.47	113.82	4.66	-36.9	-51.9	3.9	1.50e+00	0	54	104	0	44	21373
2026-01-22 08:26:06.48	113.74	4.72	-38.4	-54.1	3.9	1.50e+00	0	54	104	0	48	21800
2026-01-22 08:26:07.49	113.67	4.78	-38.2	-53.1	3.9	1.50e+00	0	54	104	0	47	20721
2026-01-22 08:26:08.50	113.60	4.84	-34.8	-50.7	3.9	1.50e+00	0	54	104	0	40	23471
2026-01-22 08:26:09.51	113.52	4.91	-34.4	-50.9	4.0	1.50e+00	0	54	104	0	41	22596
2026-01-22 08:26:10.52	113.45	4.97	-35.8	-50.9	4.0	1.50e+00	0	54	104	0	44	19055
2026-01-22 08:26:11.54	113.37	5.03	-30.9	-47.8	3.9	1.50e+00	0	54	104	0	33	25045
2026-01-22 08:26:12.54	113.30	5.10	-35.1	-51.2	4.0	1.50e+00	0	54	104	0	39	26157
2026-01-22 08:26:13.56	113.22	5.16	-34.7	-51.0	4.1	1.50e+00	0	54	104	0	45	18251
2026-01-22 08:26:14.57	113.14	5.22	-35.9	-50.5	3.8	1.50e+00	0	55	104	0	45	17142
2026-01-22 08:26:15.58	113.07	5.29	-37.8	-52.9	3.9	1.50e+00	0	54	104	0	47	20100
2026-01-22 08:26:16.59	112.99	5.35	-37.3	-52.5	4.0	1.50e+00	0	55	104	0	46	20454
2026-01-22 08:26:17.60	112.91	5.41	-37.1	-52.0	4.1	1.50e+00	0	55	104	0	44	21513
2026-01-22 08:26:18.61	112.83	5.48	-38.0	-52.9	4.0	1.50e+00	0	55	104	0	45	22637
2026-01-22 08:26:19.62	112.76	5.54	-37.9	-52.9	3.9	1.50e+00	0	55	104	0	46	21370
2026-01-22 08:26:20.63	112.68	5.61	-31.0	-48.7	4.0	1.50e+00	0	55	104	0	42	16533
2026-01-22 08:26:21.64	112.60	5.67	-33.9	-50.7	4.2	1.50e+00	0	55	104	0	43	19735
2026-01-22 08:26:22.65	112.52	5.73	-29.2	-47.3	4.1	1.50e+00	0	55	104	0	46	11174
2026-01-22 08:26:23.66	112.44	5.80	-35.5	-52.1	3.9	1.50e+00	0	55	104	0	45	20613
2026-01-22 08:26:24.67	112.36	5.86	-37.0	-51.4	4.0	1.50e+00	0	55	104	0	42	22746
2026-01-22 08:26:25.68	112.28	5.93	-34.7	-49.3	4.0	1.50e+00	0	55	104	0	40	20007
2026-01-22 08:26:26.69	112.20	5.99	-37.8	-52.4	3.9	1.50e+00	0	55	104	0	44	22736
2026-01-22 08:26:27.70	112.12	6.06	-35.7	-50.8	4.0	1.50e+00	0	55	104	0	42	21118
2026-01-22 08:26:28.71	112.04	6.12	-38.3	-53.1	3.7	1.50e+00	0	55	104	0	46	21882
2026-01-22 08:26:29.72	111.96	6.19	-37.3	-51.2	4.0	1.50e+00	0	55	104	0	44	19775
2026-01-22 08:26:30.74	111.87	6.25	-36.9	-52.3	3.9	1.50e+00	0	55	104	0	46	19872
2026-01-22 08:26:31.75	111.79	6.32	-37.9	-53.1	4.0	1.50e+00	0	55	104	0	49	18464
2026-01-22 08:26:32.76	111.71	6.38	-36.9	-51.9	3.9	1.50e+00	0	55	104	0	47	17993
2026-01-22 08:26:33.77	111.63	6.45	-35.6	-50.1	4.1	1.50e+00	0	55	104	0	42	19396
2026-01-22 08:26:34.78	111.54	6.51	-36.1	-51.1	4.0	1.50e+00	0	55	104	0	44	19540
2026-01-22 08:26:35.79	111.46	6.58	-31.6	-46.8	4.0	1.49e+00	0	55	104	0	39	15773
2026-01-22 08:26:36.80	111.37	6.65	-33.6	-48.8	4.2	1.50e+00	0	56	104	0	33	28028
2026-01-22 08:26:37.80	111.29	6.71	-33.6	-48.5	3.9	1.50e+00	0	56	104	0	30	32217
2026-01-22 08:26:38.81	111.20	6.78	-28.5	-45.6	4.0	1.50e+00	0	56	104	0	28	26064
2026-01-22 08:26:39.82	111.12	6.84	-31.3	-47.1	3.9	1.50e+00	0	56	104	0	36	19524
2026-01-22 08:26:40.83	111.03	6.91	-35.8	-49.9	4.2	1.49e+00	0	56	104	0	45	15982
2026-01-22 08:26:41.85	110.95	6.98	-28.7	-45.5	3.9	1.50e+00	0	56	104	0	29	24246
2026-01-22 08:26:42.86	110.86	7.04	-34.3	-50.6	4.1	1.50e+00	0	56	104	0	39	24649
2026-01-22 08:26:43.87	110.77	7.11	-36.6	-50.9	3.9	1.50e+00	0	56	104	0	44	19160
2026-01-22 08:26:44.88	110.68	7.18	-37.3	-51.5	3.9	1.50e+00	0	56	104	0	44	20316
2026-01-22 08:26:45.89	110.60	7.24	-37.4	-51.5	3.9	1.49e+00	0	56	104	0	44	20483
2026-01-22 08:26:46.90	110.51	7.31	-35.5	-49.8	4.0	1.50e+00	0	56	104	0	40	21096
2026-01-22 08:26:47.91	110.42	7.38	-38.0	-52.0	4.0	1.49e+00	0	56	104	0	46	19295
2026-01-22 08:26:48.92	110.33	7.44	-38.1	-51.6	4.1	1.49e+00	0	56	104	0	44	20572
2026-01-22 08:26:49.93	110.24	7.51	-34.4	-49.1	3.8	1.49e+00	0	56	104	0	44	15523
2026-01-22 08:26:50.94	110.15	7.58	-35.0	-48.0	4.1	1.49e+00	0	56	104	0	41	16202
2026-01-22 08:26:51.95	110.06	7.64	-35.4	-47.0	4.2	1.45e+00	0	56	104	0	45	11470
2026-01-22 08:26:52.96	109.97	7.71	-36.6	-47.1	4.2	1.34e+00	0	56	104	0	45	11677
2026-01-22 08:26:53.97	109.88	7.78	-38.1	-45.7	6.8	3.52e-01	9	56	0	1048576	46	9346
2026-01-22 08:26:54.98	109.79	7.85	-37.4	-44.2	7.8	2.78e-01	0	56	0	3145728	45	8344
2026-01-22 08:26:55.99	109.69	7.92	-36.6	-43.6	7.3	2.93e-01	3	56	0	5242880	42	9219
2026-01-22 08:26:57.01	109.60	7.98	-36.9	-43.7	4.9	2.36e-01	6	56	0	7340032	41	9906
2026-01-22 08:26:58.02	109.51	8.05	-36.3	-43.4	8.4	1.45e-01	1	56	0	10485760	44	8029
2026-01-22 08:26:59.03	109.41	8.12	-37.4	-51.4	3.9	1.50e+00	0	56	104	12582912	48	16062
2026-01-22 08:27:00.04	109.32	8.19	-37.4	-51.5	3.8	1.49e+00	0	57	104	12582912	46	18138
2026-01-22 08:27:01.04	109.23	8.26	-34.3	-47.3	4.1	8.46e-01	0	56	104	12582912	42	14185
2026-01-22 08:27:02.05	109.13	8.32	-36.9	-46.9	5.8	1.36e+00	20	56	104	12582912	47	10164
2026-01-22 08:27:03.06	109.04	8.39	-35.7	-51.3	3.9	9.59e-01	0	57	104	12582912	44	19986
2026-01-22 08:27:04.07	108.94	8.46	-38.4	-44.8	5.0	8.82e-01	0	57	104	12582912	46	8384
2026-01-22 08:27:05.08	108.84	8.53	-35.7	-43.9	7.2	2.79e-01	3	57	0	13631488	43	9001
2026-01-22 08:27:06.09	108.75	8.60	-35.9	-43.3	7.1	1.92e-01	9	57	0	16777216	42	8955
2026-01-22 08:27:07.10	108.65	8.67	-36.6	-43.7	8.1	1.55e-01	0	57	0	19922944	44	8338
2026-01-22 08:27:08.11	108.55	8.74	-36.7	-43.6	8.4	1.60e-01	4	57	0	23068672	45	7792
2026-01-22 08:27:09.12	108.45	8.81	-30.0	-42.8	7.3	2.10e-01	7	57	0	26214400	43	7970
2026-01-22 08:27:10.13	108.36	8.88	-36.9	-44.0	8.7	1.41e-01	0	57	0	29360128	46	7660
2026-01-22 08:27:11.14	108.26	8.95	-35.9	-43.5	9.0	1.42e-01	0	57	0	31457280	47	6805
2026-01-22 08:27:12.15	108.16	9.02	-36.1	-43.6	8.2	1.81e-01	0	57	0	34603008	45	7787
2026-01-22 08:27:13.16	108.06	9.09	-37.6	-43.3	9.3	5.36e-02	0	57	0	37748736	46	7073
2026-01-22 08:27:14.17	107.96	9.16	-37.6	-43.4	6.8	1.57e-01	9	57	0	40894464	38	11338
2026-01-22 08:27:15.18	107.86	9.23	-38.7	-43.5	9.4	8.78e-02	0	57	0	44040192	47	6831
2026-01-22 08:27:16.19	107.75	9.30	-38.3	-43.6	9.1	9.31e-02	0	57	0	47185920	44	8227
2026-01-22 08:27:17.20	107.65	9.37	-37.9	-43.4	10.2	8.96e-02	0	57	0	50331648	46	7150
2026-01-22 08:27:18.20	107.55	9.44	-38.7	-43.9	9.4	3.55e-02	0	57	0	53477376	49	6406
2026-01-22 08:27:19.21	107.45	9.51	-38.5	-43.5	9.5	3.07e-02	0	57	0	56623104	48	6454
2026-01-22 08:27:20.22	107.34	9.58	-37.9	-43.3	10.0	1.29e-02	0	57	0	59768832	48	6317
2026-01-22 08:27:21.23	107.24	9.65	-37.8	-43.3	9.8	4.56e-02	0	57	0	62914560	48	6322
2026-01-22 08:27:22.24	107.13	9.72	-38.9	-43.6	9.9	2.64e-02	0	57	0	66060288	49	6190
2026-01-22 08:27:23.25	107.03	9.79	-38.0	-43.7	9.4	4.37e-02	0	57	0	69206016	49	6263
2026-01-22 08:27:24.26	106.92	9.86	-36.7	-43.4	8.1	2.58e-02	0	57	0	72351744	46	7195
2026-01-22 08:27:25.27	106.82	9.93	-38.8	-43.4	10.4	3.06e-02	0	57	0	75497472	49	6046
2026-01-22 08:27:26.28	106.71	10.00	-36.4	-43.1	7.7	7.74e-02	0	57	0	78643200	42	8751
2026-01-22 08:27:27.29	106.60	10.07	-36.3	-42.8	9.4	6.25e-02	0	57	0	81788928	48	5975
2026-01-22 08:27:28.30	106.50	10.14	-37.9	-43.3	9.7	4.98e-02	0	57	0	84934656	48	6278
2026-01-22 08:27:29.31	106.39	10.22	-36.0	-42.9	8.2	7.47e-02	0	57	0	88080384	46	6797
2026-01-22 08:27:30.32	106.28	10.29	-38.8	-43.4	10.2	7.80e-02	0	57	0	91226112	49	6023
2026-01-22 08:27:31.33	106.17	10.36	-33.4	-42.7	7.1	1.18e-01	1	57	0	94371840	37	11140
2026-01-22 08:27:32.33	106.06	10.43	-36.3	-42.9	8.4	1.20e-01	0	57	0	97517568	45	7200
2026-01-22 08:27:33.34	105.95	10.50	-37.4	-43.0	8.8	1.55e-01	1	57	0	100663296	45	7235
2026-01-22 08:27:34.35	105.84	10.57	-39.2	-43.4	9.9	2.20e-01	0	57	0	103809024	46	7204
2026-01-22 08:27:35.36	105.73	10.65	-31.8	-42.4	7.0	1.18e-01	1	57	0	106954752	39	9560
2026-01-22 08:27:36.37	105.62	10.72	-33.0	-42.2	7.4	2.31e-01	0	57	0	110100480	39	9301
2026-01-22 08:27:37.38	105.50	10.79	-38.9	-42.9	9.3	2.41e-01	0	57	0	113246208	46	6726
2026-01-22 08:27:38.39	105.39	10.86	-36.6	-42.7	8.2	1.98e-01	1	57	0	116391936	41	8806
2026-01-22 08:27:39.40	105.28	10.93	-38.7	-43.0	9.2	1.21e-01	0	57	0	119537664	43	8139
2026-01-22 08:27:40.41	105.16	11.01	-32.9	-41.9	7.1	1.44e-01	8	58	0	122683392	40	8536
2026-01-22 08:27:41.42	105.05	11.08	-35.5	-42.7	8.1	1.06e+00	0	57	104	122683392	41	8851
2026-01-22 08:27:42.43	104.93	11.15	-36.4	-42.8	9.3	2.35e-01	0	58	0	124780544	43	7988
2026-01-22 08:27:43.44	104.81	11.23	-33.7	-42.7	9.1	2.05e-01	0	58	0	127926272	40	9387
2026-01-22 08:27:44.45	104.70	11.30	-36.3	-42.4	9.2	1.54e-01	0	57	0	130023424	42	7997
2026-01-22 08:27:45.46	104.58	11.37	-34.1	-42.5	8.0	1.41e-01	0	58	0	133169152	41	8597
2026-01-22 08:27:46.48	104.46	11.45	-38.2	-42.8	7.8	2.74e-01	3	58	0	136314880	41	8881
2026-01-22 08:27:47.49	104.34	11.52	-31.2	-42.0	8.1	4.02e-01	3	58	0	138412032	35	11469
2026-01-22 08:27:48.50	104.22	11.59	-33.2	-42.4	8.5	6.37e-01	1	58	0	140509184	36	11334
2026-01-22 08:27:49.51	104.10	11.67	-25.7	-41.1	4.2	1.35e+00	0	58	104	140509184	22	21842
2026-01-22 08:27:50.52	103.98	11.74	-25.5	-41.1	5.3	1.02e+00	0	58	0	140509184	26	17325
2026-01-22 08:27:51.52	103.86	11.81	-30.7	-40.9	5.9	1.33e+00	8	58	104	140509184	31	12683
2026-01-22 08:27:52.53	103.74	11.89	-32.5	-43.4	4.2	1.47e+00	0	58	104	140509184	32	16029
2026-01-22 08:27:53.54	103.62	11.96	-24.8	-40.7	4.4	1.12e+00	0	58	104	140509184	21	22174
2026-01-22 08:27:54.55	103.50	12.03	-39.9	-44.8	8.5	9.84e-01	0	58	104	140509184	47	7986
2026-01-22 08:27:55.56	103.37	12.11	-32.6	-42.1	8.0	5.86e-01	2	58	0	140509184	37	10336
2026-01-22 08:27:56.57	103.25	12.18	-29.1	-43.2	4.3	1.44e+00	0	58	104	140509184	31	16540
2026-01-22 08:27:57.58	103.12	12.26	-32.3	-43.3	4.2	1.47e+00	0	58	104	140509184	29	18923
2026-01-22 08:27:58.59	103.00	12.33	-28.2	-42.7	4.2	1.06e+00	0	58	104	140509184	29	17603
2026-01-22 08:27:59.60	102.87	12.41	-26.6	-41.9	4.1	6.48e-01	0	58	104	140509184	25	20236
2026-01-22 08:28:00.61	102.75	12.48	-27.5	-42.3	4.2	1.48e+00	0	58	104	140509184	24	22391
2026-01-22 08:28:01.62	102.62	12.56	-32.0	-43.5	4.0	1.49e+00	0	58	104	140509184	29	19243
2026-01-22 08:28:02.63	102.49	12.63	-37.9	-44.3	4.4	1.44e+00	0	58	104	140509184	46	7901
2026-01-22 08:28:03.64	102.36	12.70	-36.8	-51.1	4.2	1.48e+00	0	58	104	140509184	49	14687
2026-01-22 08:28:04.65	102.23	12.78	-32.6	-44.2	6.1	1.47e+00	15	58	104	140509184	38	12463
2026-01-22 08:28:05.66	102.10	12.85	-34.6	-45.6	5.9	1.11e+00	10	58	0	140509184	45	9756
2026-01-22 08:28:06.67	101.97	12.93	-38.2	-45.3	8.2	1.38e-01	1	58	0	142606336	50	7081
2026-01-22 08:28:07.68	101.84	13.00	-35.9	-45.0	6.3	2.48e-01	9	58	0	145752064	45	9152
2026-01-22 08:28:08.69	101.71	13.08	-32.2	-44.6	6.0	2.83e-01	5	58	0	147849216	39	12325
2026-01-22 08:28:09.70	101.58	13.16	-34.2	-44.1	6.7	9.33e-01	0	58	0	148897792	42	9743
2026-01-22 08:28:10.71	101.44	13.23	-35.8	-43.8	7.1	5.17e-01	7	58	0	149946368	42	9442
2026-01-22 08:28:11.72	101.31	13.31	-37.0	-45.3	7.2	3.89e-01	12	58	0	152043520	46	8907
2026-01-22 08:28:12.73	101.17	13.38	-34.8	-45.3	6.0	1.45e+00	0	58	104	152043520	40	12598
2026-01-22 08:28:13.74	101.04	13.46	-36.8	-46.8	5.4	7.97e-01	0	58	0	152043520	42	13319
2026-01-22 08:28:14.75	100.90	13.53	-30.8	-45.9	6.4	1.45e+00	13	58	104	152043520	45	10113
2026-01-22 08:28:15.76	100.77	13.61	-41.0	-47.0	6.0	9.86e-01	14	59	104	152043520	46	10791
2026-01-22 08:28:16.77	100.63	13.68	-35.0	-46.2	6.1	2.98e-01	5	59	0	153092096	46	9893
2026-01-22 08:28:17.77	100.49	13.76	-36.8	-47.2	6.4	3.44e-01	4	59	0	156237824	52	7884
2026-01-22 08:28:18.78	100.35	13.84	-35.1	-49.9	3.8	9.16e-01	0	58	104	157286400	41	20200
2026-01-22 08:28:19.79	100.21	13.91	-40.6	-45.0	9.4	1.30e+00	0	59	104	157286400	52	6081
2026-01-22 08:28:20.80	100.07	13.99	-42.2	-53.1	3.9	4.00e-01	0	59	104	159383552	53	14696
2026-01-22 08:28:21.81	99.93	14.06	-33.7	-42.4	8.5	3.58e-02	0	58	0	159383552	39	9603
2026-01-22 08:28:22.82	99.79	14.14	-39.5	-42.4	11.6	3.00e-02	0	59	0	162529280	49	5388
2026-01-22 08:28:23.83	99.65	14.22	-38.9	-42.2	12.4	5.39e-03	0	59	0	165675008	49	5271
2026-01-22 08:28:24.84	99.50	14.29	-37.9	-42.4	10.4	6.03e-03	0	58	0	168820736	47	6026
2026-01-22 08:28:25.85	99.36	14.37	-40.2	-43.3	11.7	1.48e-02	0	59	0	171966464	51	5281
2026-01-22 08:28:26.86	99.21	14.45	-39.7	-42.9	11.8	1.73e-03	0	58	0	175112192	50	5384
2026-01-22 08:28:27.86	99.07	14.52	-39.4	-43.3	11.2	7.62e-03	0	59	0	178257920	50	5636
2026-01-22 08:28:28.87	98.92	14.60	-40.4	-43.6	11.4	6.11e-03	0	58	0	181403648	51	5522
2026-01-22 08:28:29.89	98.77	14.68	-39.9	-43.3	11.9	2.50e-03	0	59	0	184549376	51	5336
2026-01-22 08:28:30.89	98.63	14.75	-40.0	-43.1	11.8	2.35e-03	0	59	0	187695104	50	5528
2026-01-22 08:28:31.90	98.48	14.83	-40.4	-43.3	12.0	9.70e-04	0	59	0	190840832	51	5315
2026-01-22 08:28:32.91	98.33	14.91	-40.2	-43.2	11.7	2.10e-03	0	59	0	193986560	50	5549
2026-01-22 08:28:33.92	98.18	14.98	-40.4	-43.2	12.1	5.74e-04	0	59	0	197132288	51	5248
2026-01-22 08:28:34.93	98.03	15.06	-40.2	-43.2	12.1	4.32e-04	0	59	0	200278016	51	5250
2026-01-22 08:28:35.94	97.88	15.14	-40.3	-43.1	12.3	2.04e-04	0	59	0	203423744	51	5189
2026-01-22 08:28:36.95	97.72	15.21	-40.3	-43.1	12.3	1.85e-04	0	59	0	206569472	51	5215
2026-01-22 08:28:37.97	97.57	15.29	-40.3	-43.1	12.3	1.74e-04	0	59	0	209715200	51	5165
2026-01-22 08:28:38.98	97.41	15.37	-40.5	-43.3	12.1	1.46e-04	0	59	0	212860928	51	5320
2026-01-22 08:28:39.99	97.26	15.45	-40.4	-43.2	12.2	2.53e-04	0	59	0	216006656	51	5238
2026-01-22 08:28:41.00	97.10	15.52	-40.4	-43.2	12.2	3.18e-04	0	59	0	219152384	51	5236
2026-01-22 08:28:42.01	96.95	15.60	-40.4	-43.2	12.3	1.75e-04	0	59	0	222298112	51	5247
2026-01-22 08:28:43.01	96.79	15.68	-40.4	-43.2	12.2	1.92e-04	0	59	0	225443840	51	5270
2026-01-22 08:28:44.02	96.63	15.75	-40.3	-43.0	12.4	1.24e-04	0	59	0	228589568	51	5152
2026-01-22 08:28:45.03	96.47	15.83	-40.3	-43.1	12.4	1.85e-04	0	59	0	231735296	51	5175
2026-01-22 08:28:46.04	96.31	15.91	-40.3	-43.1	12.4	1.11e-04	0	59	0	234881024	51	5178
2026-01-22 08:28:47.05	96.15	15.98	-40.3	-43.1	12.4	1.37e-04	0	59	0	238026752	51	5173
2026-01-22 08:28:48.06	95.99	16.06	-40.4	-43.1	12.3	1.56e-04	0	59	0	241172480	51	5198
2026-01-22 08:28:49.07	95.83	16.14	-40.4	-43.2	12.2	2.11e-04	0	59	0	244318208	51	5274
2026-01-22 08:28:50.08	95.66	16.22	-40.4	-43.2	12.3	1.71e-04	0	59	0	247463936	51	5257
2026-01-22 08:28:51.09	95.50	16.29	-40.3	-43.0	12.4	1.36e-04	0	59	0	250609664	51	5149
2026-01-22 08:28:52.10	95.34	16.37	-40.3	-43.0	12.5	1.21e-04	0	59	0	253755392	51	5128
2026-01-22 08:28:53.11	95.17	16.45	-40.3	-43.0	12.4	1.14e-04	0	59	0	256901120	51	5153
2026-01-22 08:28:54.12	95.00	16.53	-40.2	-42.8	12.6	8.23e-05	0	59	0	260046848	51	5038
2026-01-22 08:28:55.13	94.83	16.60	-40.1	-42.8	12.7	6.48e-05	0	59	0	263192576	51	4996
2026-01-22 08:28:56.14	94.67	16.68	-40.1	-42.7	12.8	4.95e-05	0	59	0	266338304	51	4948
2026-01-22 08:28:57.15	94.50	16.76	-40.2	-42.8	12.7	8.85e-05	0	59	0	269484032	51	5009
2026-01-22 08:28:58.16	94.33	16.83	-40.2	-42.8	12.7	8.23e-05	0	59	0	272629760	51	5018
2026-01-22 08:28:59.17	94.16	16.91	-40.1	-42.6	12.9	5.34e-05	0	59	0	275775488	51	4926
2026-01-22 08:29:00.18	93.98	16.99	-40.1	-42.7	12.8	5.26e-05	0	59	0	278921216	51	4966
2026-01-22 08:29:01.19	93.81	17.07	-40.0	-42.6	12.9	4.88e-05	0	59	0	282066944	51	4875
2026-01-22 08:29:02.20	93.64	17.14	-40.0	-42.5	13.0	4.11e-05	0	59	0	285212672	51	4829
2026-01-22 08:29:03.21	93.46	17.22	-40.0	-42.6	12.9	5.34e-05	0	59	0	288358400	51	4875
2026-01-22 08:29:04.22	93.29	17.30	-40.0	-42.5	13.0	2.59e-05	0	59	0	291504128	51	4823
2026-01-22 08:29:05.23	93.11	17.37	-40.0	-42.5	13.0	3.73e-05	0	59	0	294649856	51	4843
2026-01-22 08:29:06.24	92.93	17.45	-39.9	-42.4	13.2	3.12e-05	0	59	0	297795584	51	4765
2026-01-22 08:29:07.25	92.75	17.53	-39.9	-42.3	13.1	2.67e-05	0	59	0	300941312	51	4757
2026-01-22 08:29:08.26	92.57	17.61	-39.9	-42.4	13.0	3.89e-05	0	59	0	304087040	51	4805
2026-01-22 08:29:09.27	92.39	17.68	-40.0	-42.5	12.9	3.43e-05	0	59	0	307232768	51	4858
2026-01-22 08:29:10.29	92.21	17.76	-40.0	-42.5	12.9	4.57e-05	0	59	0	310378496	51	4866
2026-01-22 08:29:11.30	92.03	17.84	-39.9	-42.5	12.8	5.95e-05	0	59	0	313524224	51	4854
2026-01-22 08:29:12.31	91.85	17.91	-40.0	-42.6	12.7	7.47e-05	0	59	0	316669952	51	4922
2026-01-22 08:29:13.32	91.66	17.99	-40.0	-42.7	12.6	8.69e-05	0	59	0	319815680	51	4931
2026-01-22 08:29:14.33	91.48	18.07	-40.0	-42.7	12.6	8.92e-05	0	59	0	322961408	51	4935
2026-01-22 08:29:15.34	91.29	18.14	-40.0	-42.7	12.5	1.20e-04	0	59	0	326107136	51	4940
2026-01-22 08:29:16.35	91.10	18.22	-39.9	-42.6	12.5	1.15e-04	0	59	0	329252864	51	4915
2026-01-22 08:29:17.36	90.92	18.30	-39.9	-42.6	12.5	8.23e-05	0	59	0	332398592	51	4906
2026-01-22 08:29:18.37	90.73	18.37	-39.9	-42.6	12.5	1.11e-04	0	59	0	335544320	51	4881
2026-01-22 08:29:19.38	90.54	18.45	-40.0	-42.8	12.2	1.74e-04	0	59	0	338690048	51	5027
2026-01-22 08:29:20.39	90.35	18.52	-40.0	-42.8	12.2	2.31e-04	0	59	0	341835776	51	5035
2026-01-22 08:29:21.40	90.16	18.60	-39.9	-42.7	12.2	2.17e-04	0	59	0	344981504	51	4978
2026-01-22 08:29:22.41	89.96	18.68	-39.9	-42.6	12.3	1.91e-04	0	59	0	348127232	51	4913
2026-01-22 08:29:23.42	89.77	18.75	-39.8	-42.6	12.2	1.91e-04	0	59	0	351272960	51	4916
2026-01-22 08:29:24.43	89.58	18.83	-39.9	-42.8	12.1	2.74e-04	0	59	0	354418688	51	5013
2026-01-22 08:29:25.44	89.38	18.90	-39.9	-42.8	11.9	3.46e-04	0	59	0	357564416	51	5022
2026-01-22 08:29:26.45	89.18	18.98	-40.0	-43.0	11.7	5.04e-04	0	59	0	360710144	51	5118
2026-01-22 08:29:27.46	88.99	19.05	-40.0	-43.1	11.6	6.16e-04	0	59	0	363855872	51	5160
2026-01-22 08:29:28.47	88.79	19.13	-40.0	-43.1	11.5	9.48e-04	0	59	0	367001600	51	5212
2026-01-22 08:29:29.48	88.59	19.20	-40.2	-43.5	11.0	1.54e-03	0	59	0	370147328	51	5413
2026-01-22 08:29:30.49	88.39	19.28	-40.2	-43.6	10.9	2.06e-03	0	59	0	373293056	51	5487
2026-01-22 08:29:31.50	88.19	19.35	-40.2	-43.6	10.7	2.79e-03	0	59	0	376438784	51	5525
2026-01-22 08:29:32.51	87.98	19.43	-40.3	-43.9	10.4	4.29e-03	0	59	0	379584512	51	5670
2026-01-22 08:29:33.52	87.78	19.50	-40.3	-44.0	10.3	5.43e-03	0	59	0	382730240	51	5755
2026-01-22 08:29:34.53	87.58	19.58	-40.4	-44.1	10.1	6.68e-03	0	59	0	386924544	51	5836
2026-01-22 08:29:35.54	87.37	19.65	-40.4	-44.1	10.1	6.57e-03	0	59	0	390070272	51	5821
2026-01-22 08:29:36.55	87.16	19.72	-40.4	-44.1	10.2	6.74e-03	0	59	0	392167424	51	5812
2026-01-22 08:29:37.56	86.96	19.80	-40.4	-44.1	10.2	6.61e-03	0	59	0	395313152	51	5812
2026-01-22 08:29:38.57	86.75	19.87	-40.3	-43.8	10.5	4.47e-03	0	59	0	398458880	51	5648
2026-01-22 08:29:39.58	86.54	19.95	-40.3	-43.8	10.6	3.88e-03	0	59	0	402653184	51	5619
2026-01-22 08:29:40.59	86.33	20.02	-40.3	-43.9	10.5	3.68e-03	0	59	0	405798912	51	5670
2026-01-22 08:29:41.60	86.12	20.09	-40.2	-43.6	10.9	2.65e-03	0	59	0	408944640	51	5503
2026-01-22 08:29:42.61	85.91	20.16	-40.2	-43.5	11.1	1.83e-03	0	59	0	412090368	51	5441
2026-01-22 08:29:43.62	85.69	20.24	-40.2	-43.4	11.2	1.60e-03	0	59	0	415236096	51	5399
2026-01-22 08:29:44.63	85.48	20.31	-40.1	-43.3	11.3	1.10e-03	0	59	0	418381824	51	5307
2026-01-22 08:29:45.63	85.26	20.38	-39.9	-43.0	11.7	6.92e-04	0	59	0	421527552	51	5118
2026-01-22 08:29:46.64	85.05	20.45	-39.9	-42.9	11.7	5.39e-04	0	59	0	424673280	51	5069
2026-01-22 08:29:47.65	84.83	20.53	-39.9	-42.9	11.8	4.74e-04	0	59	0	427819008	51	5053
2026-01-22 08:29:48.66	84.61	20.60	-39.8	-42.8	11.9	4.26e-04	0	59	0	430964736	51	4986
2026-01-22 08:29:49.67	84.39	20.67	-40.0	-42.9	11.7	4.78e-04	0	59	0	434110464	51	5093
2026-01-22 08:29:50.68	84.17	20.74	-40.0	-43.0	11.7	5.79e-04	0	60	0	437256192	51	5153
2026-01-22 08:29:51.69	83.95	20.81	-40.0	-43.0	11.9	4.65e-04	0	60	0	440401920	51	5105
2026-01-22 08:29:52.70	83.73	20.88	-39.9	-42.8	12.1	2.78e-04	0	59	0	443547648	51	4997
2026-01-22 08:29:53.71	83.50	20.95	-39.8	-42.5	12.4	1.60e-04	0	59	0	446693376	51	4833
2026-01-22 08:29:54.72	83.28	21.02	-39.8	-42.6	12.4	1.20e-04	0	59	0	449839104	51	4871
2026-01-22 08:29:55.73	83.05	21.09	-39.9	-42.7	12.3	1.52e-04	0	59	0	452984832	51	4950
2026-01-22 08:29:56.74	82.83	21.16	-39.8	-42.5	12.6	1.17e-04	0	60	0	456130560	51	4815
2026-01-22 08:29:57.75	82.60	21.23	-39.8	-42.5	12.6	1.03e-04	0	60	0	459276288	51	4828
2026-01-22 08:29:58.76	82.37	21.30	-39.9	-42.5	12.6	7.32e-05	0	60	0	462422016	51	4870
2026-01-22 08:29:59.77	82.14	21.37	-40.0	-42.7	12.5	1.18e-04	0	59	0	465567744	51	4928
2026-01-22 08:30:00.78	81.91	21.43	-39.9	-42.5	12.7	8.46e-05	0	60	0	468713472	51	4844
2026-01-22 08:30:01.79	81.68	21.50	-39.9	-42.6	12.7	6.94e-05	0	60	0	471859200	51	4872
2026-01-22 08:30:02.80	81.45	21.57	-40.0	-42.6	12.7	7.47e-05	0	60	0	475004928	51	4903
2026-01-22 08:30:03.81	81.21	21.64	-40.0	-42.6	12.8	6.10e-05	0	59	0	478150656	51	4878
2026-01-22 08:30:04.82	80.98	21.70	-39.9	-42.5	12.8	6.25e-05	0	59	0	481296384	51	4851
2026-01-22 08:30:05.83	80.74	21.77	-39.9	-42.5	12.8	4.57e-05	0	60	0	484442112	51	4846
2026-01-22 08:30:06.84	80.50	21.84	-40.0	-42.5	12.9	4.50e-05	0	59	0	487587840	51	4856
2026-01-22 08:30:07.85	80.27	21.90	-39.9	-42.5	13.0	5.26e-05	0	60	0	490733568	51	4825
2026-01-22 08:30:08.86	80.03	21.97	-39.8	-42.3	13.1	3.20e-05	0	59	0	493879296	51	4721
2026-01-22 08:30:09.87	79.79	22.03	-39.7	-42.1	13.3	2.44e-05	0	59	0	497025024	51	4641
2026-01-22 08:30:10.87	79.55	22.10	-39.7	-42.1	13.3	1.22e-05	0	60	0	500170752	51	4633
2026-01-22 08:30:11.88	79.31	22.16	-39.7	-42.1	13.4	1.14e-05	0	60	0	503316480	51	4614
2026-01-22 08:30:12.89	79.06	22.23	-39.9	-42.2	13.4	1.83e-05	0	60	0	506462208	51	4703
2026-01-22 08:30:13.90	78.82	22.29	-39.7	-42.1	13.4	1.44e-05	0	59	0	509607936	51	4609
2026-01-22 08:30:14.91	78.57	22.35	-39.7	-42.0	13.4	1.22e-05	0	60	0	512753664	51	4593
2026-01-22 08:30:15.92	78.33	22.42	-39.7	-42.1	13.3	1.67e-05	0	60	0	515899392	51	4637
2026-01-22 08:30:16.93	78.08	22.48	-39.7	-42.0	13.5	1.14e-05	0	60	0	519045120	51	4579
2026-01-22 08:30:17.94	77.83	22.54	-39.7	-42.0	13.5	9.90e-06	0	60	0	522190848	51	4598
2026-01-22 08:30:18.95	77.58	22.60	-39.7	-42.0	13.5	9.90e-06	0	60	0	525336576	51	4596
2026-01-22 08:30:19.96	77.33	22.66	-39.7	-42.1	13.5	1.06e-05	0	60	0	528482304	51	4621
2026-01-22 08:30:20.97	77.08	22.73	-39.8	-42.3	13.3	1.75e-05	0	60	0	531628032	51	4717
2026-01-22 08:30:21.98	76.83	22.79	-39.9	-42.4	13.2	1.75e-05	0	60	0	534773760	51	4769
2026-01-22 08:30:22.99	76.58	22.85	-39.9	-42.3	13.3	1.44e-05	0	60	0	537919488	51	4732
2026-01-22 08:30:24.00	76.33	22.90	-39.9	-42.3	13.3	1.90e-05	0	60	0	541065216	51	4754
2026-01-22 08:30:25.01	76.07	22.96	-39.8	-42.2	13.4	1.75e-05	0	60	0	544210944	51	4705
2026-01-22 08:30:26.02	75.81	23.02	-39.7	-42.0	13.7	6.10e-06	0	60	0	547356672	51	4572
2026-01-22 08:30:27.03	75.56	23.08	-39.7	-42.1	13.6	6.80e-06	0	60	0	550502400	51	4601
2026-01-22 08:30:28.04	75.30	23.14	-39.7	-42.0	13.7	7.60e-06	0	60	0	553648128	51	4589
2026-01-22 08:30:29.05	75.04	23.19	-39.7	-42.0	13.7	5.30e-06	0	60	0	556793856	51	4576
2026-01-22 08:30:30.06	74.78	23.25	-39.7	-42.0	13.6	7.60e-06	0	60	0	559939584	51	4594
2026-01-22 08:30:31.07	74.52	23.31	-39.8	-42.1	13.5	9.10e-06	0	60	0	563085312	51	4648
2026-01-22 08:30:32.08	74.26	23.36	-39.7	-42.0	13.7	1.14e-05	0	60	0	566231040	51	4589
2026-01-22 08:30:33.08	74.00	23.42	-39.6	-41.9	13.8	4.50e-06	0	60	0	569376768	51	4523
2026-01-22 08:30:34.09	73.74	23.47	-39.6	-41.9	13.8	5.30e-06	0	59	0	572522496	51	4526
2026-01-22 08:30:35.10	73.47	23.52	-39.7	-42.0	13.8	6.10e-06	0	60	0	575668224	51	4560
2026-01-22 08:30:36.11	73.21	23.58	-39.8	-42.1	13.7	4.50e-06	0	60	0	578813952	51	4617
2026-01-22 08:30:37.12	72.94	23.63	-39.7	-42.0	13.7	6.10e-06	0	60	0	581959680	51	4581
2026-01-22 08:30:38.13	72.68	23.68	-39.7	-42.0	13.7	6.80e-06	0	60	0	585105408	51	4595
2026-01-22 08:30:39.15	72.40	23.73	-39.7	-42.1	13.7	6.10e-06	0	60	0	588251136	51	4604
2026-01-22 08:30:40.16	72.14	23.79	-39.8	-42.2	13.6	6.10e-06	0	60	0	591396864	51	4669
2026-01-22 08:30:41.16	71.87	23.84	-39.9	-42.3	13.5	1.29e-05	0	60	0	594542592	51	4740
2026-01-22 08:30:42.17	71.60	23.89	-39.9	-42.3	13.5	1.37e-05	0	60	0	597688320	51	4727
2026-01-22 08:30:43.19	71.33	23.94	-39.8	-42.1	13.8	4.50e-06	0	60	0	600834048	51	4608
2026-01-22 08:30:44.19	71.06	23.98	-39.8	-42.1	13.8	8.30e-06	0	60	0	603979776	51	4639
2026-01-22 08:30:45.20	70.78	24.03	-39.8	-42.1	13.8	3.80e-06	0	60	0	607125504	51	4605
2026-01-22 08:30:46.21	70.51	24.08	-39.8	-42.1	13.7	3.00e-06	0	60	0	610271232	51	4651
2026-01-22 08:30:47.22	70.23	24.13	-39.8	-42.0	13.9	3.00e-06	0	60	0	613416960	51	4591
2026-01-22 08:30:48.23	69.96	24.17	-39.8	-42.0	13.9	3.80e-06	0	60	0	616562688	51	4585
2026-01-22 08:30:49.24	69.68	24.22	-39.8	-42.0	13.9	6.10e-06	0	60	0	619708416	51	4598
2026-01-22 08:30:50.25	69.41	24.26	-39.8	-42.0	13.9	6.10e-06	0	60	0	622854144	51	4576
2026-01-22 08:30:51.26	69.13	24.31	-39.7	-41.9	14.0	2.20e-06	0	60	0	625999872	51	4539
2026-01-22 08:30:52.27	68.85	24.35	-39.6	-41.9	14.1	4.50e-06	0	60	0	629145600	51	4494
2026-01-22 08:30:53.28	68.57	24.39	-39.7	-41.9	14.1	3.00e-06	0	60	0	632291328	51	4504
2026-01-22 08:30:54.29	68.29	24.43	-39.6	-41.8	14.1	2.20e-06	0	60	0	635437056	51	4474
2026-01-22 08:30:55.30	68.01	24.48	-39.6	-41.8	14.2	7.00e-07	0	60	0	638582784	51	4459
2026-01-22 08:30:56.31	67.73	24.52	-39.5	-41.7	14.3	7.00e-07	0	60	0	641728512	51	4408
2026-01-22 08:30:57.32	67.45	24.56	-39.6	-41.8	14.2	3.00e-06	0	60	0	644874240	51	4451
2026-01-22 08:30:58.32	67.17	24.60	-39.6	-41.7	14.3	7.00e-07	0	60	0	648019968	51	4423
2026-01-22 08:30:59.33	66.88	24.63	-39.6	-41.8	14.2	1.50e-06	0	60	0	651165696	51	4452
2026-01-22 08:31:00.34	66.60	24.67	-39.6	-41.8	14.2	7.00e-07	0	60	0	654311424	51	4471
2026-01-22 08:31:01.35	66.31	24.71	-39.6	-41.8	14.1	7.00e-07	0	60	0	657457152	51	4493
2026-01-22 08:31:02.36	66.03	24.75	-39.8	-42.0	14.0	3.00e-06	0	60	0	660602880	51	4561
2026-01-22 08:31:03.37	65.74	24.78	-39.8	-42.0	13.9	1.50e-06	0	60	0	663748608	51	4589
2026-01-22 08:31:04.38	65.45	24.82	-39.8	-42.0	14.0	3.80e-06	0	60	0	666894336	51	4572
2026-01-22 08:31:05.39	65.17	24.85	-39.7	-41.9	14.1	1.50e-06	0	60	0	670040064	51	4514
2026-01-22 08:31:06.40	64.88	24.89	-39.7	-41.9	14.0	1.50e-06	0	60	0	673185792	51	4535
2026-01-22 08:31:07.41	64.59	24.92	-39.7	-41.9	14.0	0.00e+00	0	60	0	676331520	51	4539
2026-01-22 08:31:08.43	64.30	24.95	-39.8	-42.0	14.0	5.30e-06	0	60	0	679477248	51	4595
2026-01-22 08:31:09.44	64.01	24.98	-39.9	-42.1	13.9	6.80e-06	0	60	0	682622976	51	4643
2026-01-22 08:31:10.44	63.72	25.01	-39.8	-42.1	13.9	2.20e-06	0	60	0	685768704	51	4619
2026-01-22 08:31:11.45	63.43	25.04	-39.8	-42.0	14.0	7.00e-07	0	60	0	688914432	51	4577
2026-01-22 08:31:12.46	63.14	25.07	-39.7	-42.0	14.1	3.80e-06	0	60	0	692060160	51	4554
2026-01-22 08:31:13.47	62.84	25.10	-39.7	-41.9	14.2	4.50e-06	0	60	0	695205888	51	4504
2026-01-22 08:31:14.48	62.55	25.13	-39.6	-41.7	14.3	0.00e+00	0	60	0	698351616	51	4424
2026-01-22 08:31:15.49	62.26	25.15	-39.6	-41.7	14.4	1.50e-06	0	60	0	701497344	51	4401
2026-01-22 08:31:16.50	61.96	25.18	-39.5	-41.6	14.4	7.00e-07	0	60	0	704643072	51	4376
2026-01-22 08:31:17.51	61.67	25.21	-39.5	-41.7	14.4	1.50e-06	0	60	0	707788800	51	4404
2026-01-22 08:31:18.52	61.38	25.23	-39.6	-41.7	14.3	7.00e-07	0	60	0	710934528	51	4437
2026-01-22 08:31:19.53	61.08	25.25	-39.5	-41.6	14.5	0.00e+00	0	60	0	714080256	51	4355
2026-01-22 08:31:20.54	60.79	25.28	-39.5	-41.6	14.5	0.00e+00	0	60	0	717225984	50	4633
2026-01-22 08:31:21.55	60.49	25.30	-39.6	-41.7	14.4	7.00e-07	0	60	0	720371712	50	4686
2026-01-22 08:31:22.56	60.19	25.32	-39.6	-41.8	14.3	7.00e-07	0	60	0	723517440	50	4718
2026-01-22 08:31:23.57	59.90	25.34	-39.6	-41.7	14.3	0.00e+00	0	60	0	726663168	50	4690
2026-01-22 08:31:24.58	59.60	25.36	-39.6	-41.8	14.3	7.00e-07	0	60	0	730857472	50	4738
2026-01-22 08:31:25.59	59.30	25.38	-39.7	-41.9	14.2	1.50e-06	0	60	0	732954624	50	4791
2026-01-22 08:31:26.60	59.00	25.39	-39.7	-42.0	14.1	3.00e-06	0	60	0	736100352	50	4815
2026-01-22 08:31:27.61	58.71	25.41	-39.7	-41.9	14.2	1.50e-06	0	60	0	739246080	50	4791
2026-01-22 08:31:28.61	58.41	25.43	-39.8	-41.9	14.1	2.20e-06	0	60	0	742391808	50	4808
2026-01-22 08:31:29.62	58.11	25.44	-39.6	-41.8	14.3	0.00e+00	0	60	0	746586112	50	4706
2026-01-22 08:31:30.63	57.81	25.46	-39.5	-41.6	14.5	0.00e+00	0	60	0	749731840	50	4618
2026-01-22 08:31:31.64	57.51	25.47	-39.5	-41.6	14.4	7.00e-07	0	60	0	752877568	50	4649
2026-01-22 08:31:32.65	57.21	25.48	-39.6	-41.7	14.4	3.80e-06	0	60	0	754974720	50	4687
2026-01-22 08:31:33.66	56.91	25.50	-39.6	-41.8	14.3	1.50e-06	0	60	0	758120448	50	4717
2026-01-22 08:31:34.67	56.62	25.51	-39.7	-41.9	14.2	0.00e+00	0	60	0	761266176	50	4784
2026-01-22 08:31:35.68	56.31	25.52	-39.7	-41.9	14.2	0.00e+00	0	60	0	765460480	50	4812
2026-01-22 08:31:36.69	56.01	25.53	-39.7	-41.9	14.2	7.00e-07	0	60	0	768606208	50	4772
2026-01-22 08:31:37.70	55.71	25.53	-39.7	-41.9	14.3	0.00e+00	0	60	0	771751936	50	4760
2026-01-22 08:31:38.71	55.41	25.54	-39.7	-41.9	14.2	0.00e+00	0	60	0	774897664	50	4774
2026-01-22 08:31:39.72	55.11	25.55	-39.7	-41.9	14.2	1.50e-06	0	60	0	778043392	50	4788
2026-01-22 08:31:40.72	54.82	25.55	-39.7	-41.9	14.3	3.80e-06	0	60	0	781189120	50	4765
2026-01-22 08:31:41.74	54.51	25.56	-39.6	-41.7	14.4	7.00e-07	0	60	0	784334848	50	4691
2026-01-22 08:31:42.75	54.21	25.56	-39.6	-41.7	14.5	7.00e-07	0	60	0	787480576	50	4653
2026-01-22 08:31:43.75	53.91	25.57	-39.6	-41.7	14.5	0.00e+00	0	60	0	790626304	50	4667
2026-01-22 08:31:44.77	53.61	25.57	-39.7	-41.8	14.3	0.00e+00	0	60	0	793772032	50	4743
2026-01-22 08:31:45.77	53.31	25.57	-39.7	-41.8	14.3	7.00e-07	0	60	0	796917760	50	4720
2026-01-22 08:31:46.78	53.01	25.57	-39.8	-41.9	14.2	1.50e-06	0	60	0	800063488	50	4806
2026-01-22 08:31:47.79	52.71	25.57	-39.8	-42.1	14.1	7.00e-07	0	60	0	803209216	50	4885
2026-01-22 08:31:48.80	52.41	25.57	-39.8	-42.1	14.1	1.50e-06	0	60	0	806354944	50	4882
2026-01-22 08:31:49.81	52.11	25.57	-39.7	-41.9	14.2	2.20e-06	0	60	0	809500672	50	4782
2026-01-22 08:31:50.82	51.80	25.57	-39.7	-41.9	14.2	7.00e-07	0	60	0	812646400	50	4808
2026-01-22 08:31:51.83	51.50	25.56	-39.8	-42.0	14.2	7.00e-07	0	60	0	815792128	50	4817
2026-01-22 08:31:52.84	51.20	25.56	-39.6	-41.7	14.4	7.00e-07	0	60	0	818937856	50	4697
2026-01-22 08:31:53.85	50.90	25.55	-39.6	-41.7	14.5	0.00e+00	0	60	0	822083584	50	4659
2026-01-22 08:31:54.86	50.60	25.55	-39.6	-41.8	14.4	0.00e+00	0	60	0	825229312	50	4713
2026-01-22 08:31:55.87	50.30	25.54	-39.6	-41.8	14.4	0.00e+00	0	60	0	828375040	50	4721
2026-01-22 08:31:56.88	50.00	25.53	-39.6	-41.7	14.4	0.00e+00	0	60	0	831520768	50	4699
2026-01-22 08:31:57.90	49.70	25.52	-39.6	-41.7	14.4	1.50e-06	0	60	0	834666496	50	4701
2026-01-22 08:31:58.90	49.40	25.51	-39.6	-41.8	14.4	2.20e-06	0	60	0	837812224	50	4720
2026-01-22 08:31:59.92	49.10	25.50	-39.7	-41.8	14.3	0.00e+00	0	60	0	840957952	50	4737
2026-01-22 08:32:00.92	48.80	25.49	-39.7	-41.8	14.4	0.00e+00	0	60	0	844103680	50	4730
2026-01-22 08:32:01.93	48.50	25.48	-39.7	-41.9	14.3	3.00e-06	0	60	0	847249408	50	4765
2026-01-22 08:32:02.94	48.20	25.47	-39.7	-41.8	14.4	1.50e-06	0	60	0	850395136	50	4730
2026-01-22 08:32:03.95	47.90	25.45	-39.6	-41.7	14.4	7.00e-07	0	60	0	853540864	50	4704
2026-01-22 08:32:04.96	47.60	25.44	-39.6	-41.7	14.4	0.00e+00	0	60	0	856686592	50	4700
2026-01-22 08:32:05.97	47.31	25.42	-39.7	-41.8	14.4	0.00e+00	0	60	0	859832320	50	4733
2026-01-22 08:32:06.98	47.01	25.41	-39.7	-41.9	14.3	1.50e-06	0	60	0	862978048	50	4761
2026-01-22 08:32:07.99	46.71	25.39	-39.8	-41.9	14.2	2.20e-06	0	60	0	866123776	50	4809
2026-01-22 08:32:09.00	46.41	25.37	-39.9	-42.1	14.0	1.50e-06	0	60	0	869269504	50	4909
2026-01-22 08:32:10.01	46.12	25.35	-39.9	-42.2	14.0	4.50e-06	0	60	0	872415232	50	4937
2026-01-22 08:32:11.02	45.82	25.33	-39.9	-42.2	14.0	1.50e-06	0	60	0	875560960	50	4948
2026-01-22 08:32:12.03	45.52	25.31	-40.0	-42.2	13.9	4.50e-06	0	60	0	878706688	50	4975
2026-01-22 08:32:13.04	45.23	25.29	-40.0	-42.3	13.9	5.30e-06	0	60	0	881852416	50	4987
2026-01-22 08:32:14.05	44.93	25.27	-39.8	-42.0	14.2	1.50e-06	0	60	0	884998144	50	4826
2026-01-22 08:32:15.06	44.64	25.24	-39.7	-41.8	14.3	0.00e+00	0	60	0	888143872	50	4749
2026-01-22 08:32:16.07	44.34	25.22	-39.7	-41.9	14.3	0.00e+00	0	60	0	891289600	50	4766
2026-01-22 08:32:17.08	44.05	25.20	-39.7	-41.8	14.4	0.00e+00	0	60	0	894435328	50	4729
2026-01-22 08:32:18.09	43.76	25.17	-39.7	-41.9	14.3	0.00e+00	0	60	0	897581056	50	4784
2026-01-22 08:32:19.10	43.46	25.14	-39.8	-42.0	14.2	0.00e+00	0	60	0	900726784	50	4826
2026-01-22 08:32:20.11	43.17	25.12	-39.8	-42.0	14.2	1.50e-06	0	60	0	903872512	50	4825
2026-01-22 08:32:21.12	42.88	25.09	-39.8	-42.0	14.2	3.80e-06	0	60	0	907018240	50	4853
2026-01-22 08:32:22.13	42.59	25.06	-39.9	-42.1	14.1	2.20e-06	0	60	0	910163968	50	4899
2026-01-22 08:32:23.14	42.30	25.03	-40.0	-42.3	13.9	3.00e-06	0	60	0	913309696	50	4993
2026-01-22 08:32:24.15	42.00	25.00	-40.1	-42.4	13.8	2.20e-06	0	60	0	916455424	50	5047
2026-01-22 08:32:25.16	41.71	24.97	-40.0	-42.3	13.8	4.50e-06	0	60	0	919601152	50	5007
2026-01-22 08:32:26.16	41.43	24.94	-39.9	-42.2	14.0	3.80e-06	0	60	0	922746880	50	4942
2026-01-22 08:32:27.17	41.14	24.91	-39.9	-42.1	14.0	2.20e-06	0	60	0	925892608	50	4911
2026-01-22 08:32:28.18	40.85	24.87	-39.8	-42.0	14.1	1.50e-06	0	60	0	929038336	50	4867
2026-01-22 08:32:29.19	40.56	24.84	-39.8	-41.9	14.2	2.20e-06	0	60	0	932184064	50	4798
2026-01-22 08:32:30.20	40.28	24.80	-39.8	-41.9	14.2	7.00e-07	0	60	0	935329792	50	4809
2026-01-22 08:32:31.21	39.99	24.77	-39.7	-41.8	14.3	7.00e-07	0	60	0	938475520	50	4751
2026-01-22 08:32:32.22	39.71	24.73	-39.7	-41.9	14.3	2.20e-06	0	60	0	941621248	50	4763
2026-01-22 08:32:33.23	39.42	24.70	-39.7	-41.8	14.3	7.00e-07	0	60	0	944766976	50	4757
2026-01-22 08:32:34.24	39.14	24.66	-39.8	-41.9	14.2	7.00e-07	0	60	0	947912704	50	4805
2026-01-22 08:32:35.25	38.85	24.62	-39.8	-42.0	14.2	1.50e-06	0	60	0	951058432	50	4830
2026-01-22 08:32:36.25	38.57	24.58	-39.9	-42.1	14.1	7.00e-07	0	60	0	954204160	50	4883
2026-01-22 08:32:37.26	38.29	24.54	-39.9	-42.1	14.1	1.50e-06	0	60	0	957349888	50	4884
2026-01-22 08:32:38.27	38.01	24.50	-39.8	-42.0	14.2	0.00e+00	0	60	0	960495616	50	4838
2026-01-22 08:32:39.29	37.73	24.46	-39.8	-42.0	14.2	0.00e+00	0	60	0	963641344	50	4842
2026-01-22 08:32:40.29	37.45	24.42	-39.8	-42.1	14.1	3.00e-06	0	60	0	966787072	50	4871
2026-01-22 08:32:41.30	37.17	24.38	-39.9	-42.1	14.0	1.50e-06	0	60	0	969932800	50	4917
2026-01-22 08:32:42.32	36.89	24.33	-39.8	-42.0	14.2	7.00e-07	0	60	0	973078528	50	4835
2026-01-22 08:32:43.32	36.61	24.29	-39.7	-41.8	14.3	1.50e-06	0	60	0	976224256	50	4754
2026-01-22 08:32:44.33	36.34	24.25	-39.6	-41.7	14.4	0.00e+00	0	60	0	979369984	50	4675
2026-01-22 08:32:45.34	36.06	24.20	-39.6	-41.7	14.5	2.20e-06	0	60	0	982515712	50	4664
2026-01-22 08:32:46.36	35.78	24.15	-39.6	-41.7	14.5	2.20e-06	0	60	0	985661440	50	4663
2026-01-22 08:32:47.37	35.51	24.11	-39.6	-41.7	14.4	7.00e-07	0	60	0	988807168	50	4692
2026-01-22 08:32:48.38	35.24	24.06	-39.7	-41.8	14.3	0.00e+00	0	60	0	991952896	50	4738
2026-01-22 08:32:49.39	34.96	24.01	-39.8	-42.0	14.1	3.80e-06	0	60	0	995098624	50	4850
2026-01-22 08:32:50.40	34.69	23.97	-40.0	-42.2	14.0	7.00e-07	0	60	0	998244352	50	4956
2026-01-22 08:32:51.41	34.42	23.92	-40.0	-42.3	13.8	1.50e-06	0	60	0	1001390080	50	5024
2026-01-22 08:32:52.41	34.15	23.87	-40.1	-42.4	13.8	5.30e-06	0	60	0	1004535808	50	5072
2026-01-22 08:32:53.42	33.88	23.82	-40.1	-42.3	13.9	3.80e-06	0	60	0	1007681536	50	5035
2026-01-22 08:32:54.43	33.62	23.77	-40.1	-42.3	13.8	7.60e-06	0	60	0	1010827264	50	5040
2026-01-22 08:32:55.44	33.35	23.72	-40.0	-42.3	13.9	5.30e-06	0	60	0	1013972992	50	4998
2026-01-22 08:32:56.45	33.08	23.67	-39.9	-42.1	14.0	7.60e-06	0	60	0	1017118720	50	4918
2026-01-22 08:32:57.47	32.81	23.61	-39.9	-42.1	14.1	1.50e-06	0	60	0	1020264448	50	4904
2026-01-22 08:32:58.48	32.55	23.56	-39.9	-42.1	14.1	0.00e+00	0	60	0	1023410176	50	4896
2026-01-22 08:32:59.49	32.28	23.51	-39.9	-42.1	14.1	3.80e-06	0	60	0	1026555904	50	4913
2026-01-22 08:33:00.50	32.02	23.45	-39.9	-42.1	14.1	3.80e-06	0	60	0	1029701632	50	4876
2026-01-22 08:33:01.51	31.76	23.40	-39.8	-42.0	14.2	7.00e-07	0	60	0	1032847360	50	4829
2026-01-22 08:33:02.52	31.50	23.34	-39.8	-42.0	14.2	1.50e-06	0	60	0	1035993088	50	4835
2026-01-22 08:33:03.53	31.24	23.29	-39.8	-42.0	14.2	3.00e-06	0	60	0	1039138816	50	4850
2026-01-22 08:33:04.54	30.98	23.23	-39.7	-41.8	14.4	2.20e-06	0	60	0	1042284544	50	4751
2026-01-22 08:33:05.55	30.72	23.18	-39.7	-41.9	14.3	1.50e-06	0	60	0	1045430272	50	4761
2026-01-22 08:33:06.56	30.46	23.12	-39.7	-41.9	14.3	0.00e+00	0	60	0	1048576000	50	4764
2026-01-22 08:33:07.57	30.21	23.06	-39.7	-41.8	14.3	2.20e-06	0	60	0	1051721728	50	4758
2026-01-22 08:33:08.58	29.95	23.00	-39.7	-41.8	14.4	7.00e-07	0	60	0	1054867456	50	4742
2026-01-22 08:33:09.59	29.70	22.94	-39.7	-41.9	14.3	0.00e+00	0	60	0	1058013184	50	4765
2026-01-22 08:33:10.60	29.44	22.89	-39.7	-41.8	14.3	2.20e-06	0	60	0	1061158912	50	4744
2026-01-22 08:33:11.61	29.19	22.83	-39.7	-41.9	14.2	3.00e-06	0	60	0	1064304640	50	4767
2026-01-22 08:33:12.62	28.94	22.77	-39.7	-41.9	14.2	3.00e-06	0	60	0	1067450368	50	4781
2026-01-22 08:33:13.63	28.69	22.71	-39.7	-41.9	14.2	1.50e-06	0	60	0	1070596096	50	4788
2026-01-22 08:33:14.64	28.44	22.65	-39.8	-41.9	14.2	1.50e-06	0	60	0	1073741824	50	4802
2026-01-22 08:33:15.65	28.19	22.58	-39.8	-42.1	14.1	1.50e-06	0	60	0	1076887552	50	4871
2026-01-22 08:33:16.66	27.94	22.52	-39.9	-42.1	14.0	7.00e-07	0	60	0	1080033280	50	4926
2026-01-22 08:33:17.67	27.70	22.46	-39.9	-42.2	14.0	1.50e-06	0	60	0	1083179008	50	4944
2026-01-22 08:33:18.68	27.45	22.40	-40.1	-42.3	13.8	3.80e-06	0	60	0	1087373312	50	5034
2026-01-22 08:33:19.69	27.21	22.34	-40.0	-42.3	13.8	5.30e-06	0	60	0	1090519040	50	5027
2026-01-22 08:33:20.70	26.96	22.27	-39.9	-42.2	14.0	3.00e-06	0	60	0	1093664768	50	4943
2026-01-22 08:33:21.71	26.72	22.21	-39.9	-42.1	14.1	2.20e-06	0	60	0	1095761920	50	4885
2026-01-22 08:33:22.72	26.48	22.14	-39.8	-41.9	14.2	7.00e-07	0	60	0	1098907648	50	4812
2026-01-22 08:33:23.73	26.24	22.08	-39.7	-41.9	14.3	7.00e-07	0	60	0	1103101952	50	4763
2026-01-22 08:33:24.74	26.00	22.02	-39.5	-41.6	14.5	1.50e-06	0	60	0	1106247680	50	4626
2026-01-22 08:33:25.75	25.76	21.95	-39.5	-41.6	14.6	7.00e-07	0	60	0	1109393408	50	4607
2026-01-22 08:33:26.76	25.52	21.88	-39.6	-41.7	14.4	1.50e-06	0	60	0	1112539136	50	4675
2026-01-22 08:33:27.77	25.29	21.82	-39.5	-41.6	14.6	7.00e-07	0	60	0	1115684864	50	4624
2026-01-22 08:33:28.78	25.05	21.75	-39.6	-41.7	14.5	7.00e-07	0	60	0	1118830592	50	4661
2026-01-22 08:33:29.79	24.82	21.69	-39.7	-41.8	14.3	7.00e-07	0	60	0	1121976320	50	4748
2026-01-22 08:33:30.80	24.58	21.62	-39.8	-41.9	14.2	1.50e-06	0	60	0	1125122048	50	4805
2026-01-22 08:33:31.81	24.35	21.55	-39.8	-42.0	14.2	2.20e-06	0	60	0	1128267776	50	4837
2026-01-22 08:33:32.82	24.12	21.48	-39.7	-41.8	14.4	1.50e-06	0	60	0	1131413504	50	4723
2026-01-22 08:33:33.83	23.89	21.42	-39.6	-41.7	14.5	1.50e-06	0	60	0	1134559232	50	4670
2026-01-22 08:33:34.84	23.66	21.35	-39.6	-41.8	14.4	0.00e+00	0	60	0	1137704960	50	4723
2026-01-22 08:33:35.85	23.43	21.28	-39.6	-41.7	14.4	7.00e-07	0	60	0	1140850688	50	4695
2026-01-22 08:33:36.86	23.20	21.21	-39.6	-41.7	14.5	0.00e+00	0	60	0	1143996416	50	4688
2026-01-22 08:33:37.87	22.98	21.14	-39.5	-41.6	14.6	0.00e+00	0	60	0	1147142144	50	4606
2026-01-22 08:33:38.87	22.75	21.07	-39.6	-41.7	14.5	7.00e-07	0	60	0	1150287872	50	4661
2026-01-22 08:33:39.88	22.53	21.00	-39.5	-41.5	14.6	7.00e-07	0	60	0	1153433600	50	4580
2026-01-22 08:33:40.89	22.31	20.93	-39.5	-41.6	14.5	7.00e-07	0	60	0	1156579328	50	4638
2026-01-22 08:33:41.90	22.08	20.86	-39.5	-41.6	14.5	0.00e+00	0	60	0	1159725056	50	4612
2026-01-22 08:33:42.91	21.86	20.79	-39.4	-41.5	14.6	7.00e-07	0	60	0	1162870784	50	4578
2026-01-22 08:33:43.92	21.64	20.72	-39.4	-41.5	14.6	0.00e+00	0	60	0	1166016512	50	4553
2026-01-22 08:33:44.93	21.42	20.65	-39.4	-41.4	14.6	1.50e-06	0	60	0	1169162240	50	4538
2026-01-22 08:33:45.95	21.20	20.58	-39.4	-41.5	14.6	0.00e+00	0	60	0	1172307968	50	4563
2026-01-22 08:33:46.95	20.99	20.51	-39.4	-41.7	14.3	7.00e-07	0	60	0	1175453696	50	4666
2026-01-22 08:33:47.96	20.77	20.44	-39.5	-41.9	14.1	3.00e-06	0	60	0	1178599424	50	4771
2026-01-22 08:33:48.97	20.56	20.37	-39.6	-42.1	13.9	1.50e-06	0	60	0	1181745152	50	4874
2026-01-22 08:33:49.98	20.34	20.29	-39.8	-42.2	13.8	2.20e-06	0	60	0	1184890880	50	4955
2026-01-22 08:33:50.99	20.13	20.22	-39.9	-42.2	13.8	3.80e-06	0	60	0	1188036608	50	4955
2026-01-22 08:33:52.00	19.92	20.15	-39.9	-42.2	13.8	4.50e-06	0	60	0	1191182336	50	4950
2026-01-22 08:33:53.01	19.71	20.08	-39.8	-42.2	13.8	5.30e-06	0	60	0	1194328064	50	4961
2026-01-22 08:33:54.02	19.50	20.00	-39.8	-42.2	13.8	3.80e-06	0	60	0	1197473792	50	4951
2026-01-22 08:33:55.03	19.29	19.93	-39.8	-42.2	13.8	8.30e-06	0	60	0	1200619520	50	4954
2026-01-22 08:33:56.03	19.08	19.86	-39.8	-42.1	13.9	5.30e-06	0	60	0	1203765248	50	4910
2026-01-22 08:33:57.04	18.88	19.79	-39.8	-42.1	13.9	2.20e-06	0	60	0	1206910976	50	4901
2026-01-22 08:33:58.05	18.67	19.71	-39.8	-42.2	13.9	3.80e-06	0	60	0	1210056704	50	4927
2026-01-22 08:33:59.06	18.47	19.64	-39.9	-42.2	13.8	6.80e-06	0	60	0	1213202432	50	4934
2026-01-22 08:34:00.07	18.26	19.56	-39.9	-42.3	13.8	9.10e-06	0	60	0	1216348160	50	5001
2026-01-22 08:34:01.08	18.06	19.49	-40.0	-42.3	13.7	6.80e-06	0	60	0	1219493888	50	5010
2026-01-22 08:34:02.09	17.86	19.42	-39.9	-42.3	13.7	6.80e-06	0	60	0	1222639616	50	4984
2026-01-22 08:34:03.10	17.66	19.34	-39.8	-42.1	13.9	2.20e-06	0	60	0	1225785344	50	4889
2026-01-22 08:34:04.11	17.46	19.27	-39.8	-42.0	14.0	3.00e-06	0	60	0	1228931072	50	4842
2026-01-22 08:34:05.12	17.26	19.19	-39.8	-42.0	13.9	4.50e-06	0	60	0	1232076800	50	4851
2026-01-22 08:34:06.14	17.06	19.12	-39.8	-42.0	13.9	1.50e-06	0	60	0	1235222528	50	4859
2026-01-22 08:34:07.14	16.86	19.04	-39.8	-42.0	14.0	3.00e-06	0	60	0	1238368256	50	4828
2026-01-22 08:34:08.16	16.66	18.97	-39.8	-42.1	13.9	1.50e-06	0	60	0	1241513984	50	4885
2026-01-22 08:34:09.17	16.47	18.89	-40.0	-42.2	13.7	3.00e-06	0	60	0	1244659712	50	4982
2026-01-22 08:34:10.18	16.28	18.82	-40.0	-42.4	13.6	9.90e-06	0	61	0	1247805440	50	5063
2026-01-22 08:34:11.18	16.08	18.74	-40.0	-42.6	13.4	1.06e-05	0	60	0	1250951168	50	5178
2026-01-22 08:34:12.19	15.89	18.67	-40.3	-42.7	13.3	2.74e-05	0	60	0	1254096896	51	4947
2026-01-22 08:34:13.20	15.70	18.59	-40.3	-42.7	13.2	1.83e-05	0	60	0	1257242624	51	4981
2026-01-22 08:34:14.21	15.51	18.52	-40.3	-42.7	13.2	2.36e-05	0	60	0	1260388352	51	4978
2026-01-22 08:34:15.22	15.32	18.44	-40.4	-42.9	13.1	2.89e-05	0	60	0	1263534080	51	5050
2026-01-22 08:34:16.23	15.13	18.36	-40.3	-42.8	13.1	2.13e-05	0	60	0	1266679808	51	5041
2026-01-22 08:34:17.24	14.95	18.29	-40.3	-42.8	13.2	1.83e-05	0	60	0	1269825536	51	4994
2026-01-22 08:34:18.25	14.76	18.21	-40.4	-42.9	13.1	3.43e-05	0	60	0	1272971264	51	5055
2026-01-22 08:34:19.26	14.57	18.14	-40.3	-42.8	13.1	2.67e-05	0	60	0	1276116992	51	5001
2026-01-22 08:34:20.27	14.39	18.06	-40.3	-42.8	13.1	3.43e-05	0	60	0	1279262720	51	5025
2026-01-22 08:34:21.28	14.21	17.98	-40.4	-43.0	12.9	4.19e-05	0	60	0	1282408448	51	5106
2026-01-22 08:34:22.29	14.02	17.91	-40.4	-42.9	12.9	3.81e-05	0	60	0	1285554176	51	5095
2026-01-22 08:34:23.30	13.84	17.83	-40.4	-43.0	12.9	4.95e-05	0	60	0	1288699904	51	5121
2026-01-22 08:34:24.31	13.66	17.75	-40.4	-42.9	12.9	4.50e-05	0	60	0	1291845632	51	5075
2026-01-22 08:34:25.32	13.48	17.68	-40.4	-42.9	12.9	4.88e-05	0	60	0	1294991360	51	5087
2026-01-22 08:34:26.33	13.30	17.60	-40.3	-42.9	13.0	3.50e-05	0	60	0	1298137088	51	5047
2026-01-22 08:34:27.34	13.13	17.52	-40.2	-42.7	13.1	2.97e-05	0	60	0	1301282816	51	4963
2026-01-22 08:34:28.35	12.95	17.45	-40.1	-42.6	13.3	1.90e-05	0	60	0	1304428544	51	4878
2026-01-22 08:34:29.36	12.77	17.37	-40.2	-42.6	13.2	1.90e-05	0	60	0	1307574272	51	4926
2026-01-22 08:34:30.37	12.60	17.29	-40.2	-42.6	13.2	1.37e-05	0	60	0	1310720000	51	4911
2026-01-22 08:34:31.38	12.42	17.22	-40.1	-42.6	13.2	2.74e-05	0	60	0	1313865728	51	4886
2026-01-22 08:34:32.39	12.25	17.14	-40.1	-42.6	13.2	2.36e-05	0	60	0	1317011456	51	4898
2026-01-22 08:34:33.40	12.08	17.06	-40.1	-42.6	13.2	2.51e-05	0	60	0	1320157184	51	4895
2026-01-22 08:34:34.41	11.91	16.99	-40.0	-42.4	13.4	1.22e-05	0	61	0	1323302912	51	4783
2026-01-22 08:34:35.42	11.73	16.91	-40.0	-42.3	13.5	1.44e-05	0	60	0	1326448640	51	4748
2026-01-22 08:34:36.43	11.56	16.83	-40.0	-42.4	13.5	8.30e-06	0	60	0	1329594368	51	4765
2026-01-22 08:34:37.44	11.40	16.76	-40.0	-42.4	13.4	1.44e-05	0	60	0	1332740096	51	4790
2026-01-22 08:34:38.45	11.23	16.68	-40.0	-42.3	13.4	1.06e-05	0	60	0	1335885824	51	4759
2026-01-22 08:34:39.46	11.06	16.60	-39.9	-42.3	13.4	1.60e-05	0	60	0	1339031552	51	4743
2026-01-22 08:34:40.47	10.89	16.53	-40.0	-42.3	13.4	1.98e-05	0	60	0	1342177280	51	4747
2026-01-22 08:34:41.48	10.73	16.45	-40.1	-42.6	13.2	2.36e-05	0	60	0	1345323008	51	4878
2026-01-22 08:34:42.49	10.56	16.37	-40.2	-42.7	13.0	3.05e-05	0	60	0	1348468736	51	4952
2026-01-22 08:34:43.50	10.40	16.29	-40.2	-42.7	13.0	3.73e-05	0	61	0	1351614464	51	4960
2026-01-22 08:34:44.51	10.24	16.22	-40.2	-42.8	12.9	5.34e-05	0	60	0	1354760192	51	4993
2026-01-22 08:34:45.52	10.08	16.14	-40.2	-42.7	12.9	4.50e-05	0	60	0	1357905920	51	4960
2026-01-22 08:34:46.53	9.91	16.06	-40.2	-42.8	12.8	5.64e-05	0	60	0	1361051648	51	5000
2026-01-22 08:34:47.54	9.75	15.99	-40.2	-42.8	12.8	5.49e-05	0	60	0	1364197376	51	5022
2026-01-22 08:34:48.55	9.59	15.91	-40.2	-42.8	12.8	7.24e-05	0	60	0	1367343104	51	4999
2026-01-22 08:34:49.56	9.44	15.83	-40.1	-42.6	13.0	3.73e-05	0	60	0	1370488832	51	4886
2026-01-22 08:34:50.57	9.28	15.76	-39.9	-42.4	13.1	2.36e-05	0	60	0	1373634560	51	4772
2026-01-22 08:34:51.58	9.12	15.68	-39.9	-42.3	13.2	1.52e-05	0	60	0	1376780288	51	4730
2026-01-22 08:34:52.59	8.97	15.60	-40.0	-42.5	13.0	2.97e-05	0	60	0	1379926016	51	4823
2026-01-22 08:34:53.60	8.81	15.53	-39.9	-42.4	13.0	4.88e-05	0	60	0	1383071744	51	4792
2026-01-22 08:34:54.61	8.66	15.45	-39.9	-42.4	13.0	3.89e-05	0	60	0	1386217472	51	4810
2026-01-22 08:34:55.62	8.50	15.37	-40.0	-42.7	12.7	5.72e-05	0	60	0	1389363200	51	4927
2026-01-22 08:34:56.63	8.35	15.30	-40.3	-43.0	12.3	1.71e-04	0	60	0	1392508928	51	5135
2026-01-22 08:34:57.64	8.20	15.22	-40.3	-43.1	12.2	2.14e-04	0	60	0	1395654656	51	5177
2026-01-22 08:34:58.65	8.05	15.14	-40.4	-43.2	12.1	2.65e-04	0	60	0	1398800384	51	5234
2026-01-22 08:34:59.66	7.89	15.07	-40.4	-43.4	11.8	4.15e-04	0	60	0	1401946112	51	5342
2026-01-22 08:35:00.66	7.75	14.99	-40.5	-43.4	11.7	5.17e-04	0	60	0	1405091840	51	5390
2026-01-22 08:35:01.68	7.60	14.91	-40.4	-43.3	11.8	5.65e-04	0	60	0	1409286144	51	5315
2026-01-22 08:35:02.68	7.45	14.84	-40.4	-43.3	11.7	5.77e-04	0	60	0	1411383296	51	5339
2026-01-22 08:35:03.70	7.30	14.76	-40.3	-43.2	11.8	5.26e-04	0	60	0	1414529024	51	5231
2026-01-22 08:35:04.71	7.15	14.68	-40.1	-42.9	12.2	2.59e-04	0	60	0	1417674752	51	5050
2026-01-22 08:35:05.72	7.01	14.61	-40.1	-42.8	12.2	2.12e-04	0	60	0	1420820480	51	5022
2026-01-22 08:35:06.73	6.86	14.53	-40.0	-42.7	12.3	1.81e-04	0	60	0	1425014784	51	4982
2026-01-22 08:35:07.74	6.72	14.45	-40.0	-42.6	12.4	1.51e-04	0	60	0	1428160512	51	4918
2026-01-22 08:35:08.75	6.58	14.38	-39.9	-42.6	12.5	1.27e-04	0	60	0	1431306240	51	4897
2026-01-22 08:35:09.76	6.43	14.30	-39.9	-42.6	12.4	1.47e-04	0	60	0	1433403392	51	4914
2026-01-22 08:35:10.76	6.29	14.23	-40.2	-43.0	11.9	2.84e-04	0	60	0	1436549120	51	5158
2026-01-22 08:35:11.77	6.15	14.15	-40.3	-43.3	11.6	6.51e-04	0	60	0	1440743424	51	5325
2026-01-22 08:35:12.78	6.01	14.08	-40.3	-43.4	11.4	9.43e-04	0	61	0	1443889152	51	5367
2026-01-22 08:35:13.80	5.87	14.00	-40.2	-43.3	11.4	9.99e-04	0	60	0	1447034880	51	5325
2026-01-22 08:35:14.81	5.73	13.92	-40.3	-43.5	11.1	1.37e-03	0	60	0	1450180608	51	5462
2026-01-22 08:35:15.82	5.59	13.85	-40.5	-44.0	10.5	3.22e-03	0	60	0	1453326336	51	5760
2026-01-22 08:35:16.82	5.45	13.77	-40.6	-44.2	10.2	5.66e-03	0	60	0	1456472064	51	5880
2026-01-22 08:35:17.83	5.32	13.70	-40.4	-43.8	10.5	4.79e-03	0	61	0	1459617792	51	5632
2026-01-22 08:35:18.84	5.18	13.62	-40.0	-43.3	10.9	2.45e-03	0	60	0	1462763520	51	5317
2026-01-22 08:35:19.85	5.05	13.55	-39.8	-43.0	11.0	1.82e-03	0	60	0	1465909248	51	5152
2026-01-22 08:35:20.86	4.91	13.47	-39.7	-43.0	10.9	2.23e-03	0	60	0	1469054976	51	5113
2026-01-22 08:35:21.87	4.78	13.40	-39.7	-43.0	10.7	2.34e-03	0	60	0	1472200704	51	5144
2026-01-22 08:35:22.88	4.64	13.32	-39.9	-43.5	10.1	5.81e-03	0	60	0	1475346432	51	5424
2026-01-22 08:35:23.89	4.51	13.24	-40.2	-44.3	9.2	1.50e-02	0	61	0	1478492160	51	5948
2026-01-22 08:35:24.90	4.38	13.17	-40.5	-45.2	8.2	4.98e-02	0	60	0	1481637888	51	6595
2026-01-22 08:35:25.91	4.25	13.09	-40.7	-46.2	7.0	1.33e-01	0	61	0	1484783616	52	6990
2026-01-22 08:35:26.92	4.12	13.02	-41.0	-47.4	5.8	3.42e-01	0	61	0	1487929344	52	8069
2026-01-22 08:35:27.93	3.99	12.94	-41.2	-48.6	5.0	5.57e-01	0	60	0	1491075072	52	9218
2026-01-22 08:35:28.94	3.86	12.87	-41.4	-50.6	3.9	1.24e+00	0	61	104	1492123648	53	11022
2026-01-22 08:35:29.95	3.73	12.80	-41.4	-51.4	4.0	1.48e+00	0	61	104	1492123648	53	12027
2026-01-22 08:35:30.96	3.60	12.72	-41.5	-52.2	3.8	1.48e+00	0	61	104	1492123648	53	13154
2026-01-22 08:35:31.97	3.47	12.65	-42.0	-52.1	4.0	1.48e+00	0	61	104	1492123648	54	12285
2026-01-22 08:35:32.98	3.35	12.57	-41.0	-53.3	3.8	1.49e+00	0	60	104	1492123648	54	14176
2026-01-22 08:35:33.98	3.22	12.50	-41.4	-53.3	3.8	1.49e+00	0	61	104	1492123648	53	14998
2026-01-22 08:35:34.99	3.10	12.42	-42.4	-54.2	3.8	1.49e+00	0	60	104	1492123648	55	14761
2026-01-22 08:35:36.00	2.97	12.35	-41.8	-53.6	3.8	1.49e+00	0	61	104	1492123648	55	13852
2026-01-22 08:35:37.01	2.85	12.28	-41.7	-53.6	3.8	1.49e+00	0	61	104	1492123648	55	13770
2026-01-22 08:35:38.02	2.72	12.20	-41.5	-53.4	3.8	1.49e+00	0	61	104	1492123648	55	13518
2026-01-22 08:35:39.03	2.60	12.13	-41.1	-53.4	3.8	1.49e+00	0	61	104	1492123648	54	14250
2026-01-22 08:35:40.04	2.48	12.05	-41.4	-53.5	3.8	1.49e+00	0	60	104	1492123648	54	14434
2026-01-22 08:35:41.05	2.36	11.98	-40.5	-52.9	3.8	1.49e+00	0	61	104	1492123648	53	14220
2026-01-22 08:35:42.06	2.24	11.91	-40.3	-52.6	3.8	1.49e+00	0	60	104	1492123648	52	14666
2026-01-22 08:35:43.07	2.12	11.83	-40.7	-53.0	3.8	1.49e+00	0	61	104	1492123648	52	15354
2026-01-22 08:35:44.07	2.00	11.76	-40.3	-52.7	3.8	1.49e+00	0	60	104	1492123648	52	14819
2026-01-22 08:35:45.09	1.88	11.69	-40.3	-52.7	3.8	1.49e+00	0	60	104	1492123648	52	14761
2026-01-22 08:35:46.10	1.76	11.61	-40.3	-52.7	3.8	1.49e+00	0	60	104	1492123648	52	14726
2026-01-22 08:35:47.11	1.64	11.54	-40.2	-52.5	3.8	1.49e+00	0	61	104	1492123648	52	14533
2026-01-22 08:35:48.12	1.52	11.47	-40.2	-52.6	3.8	1.49e+00	0	60	104	1492123648	52	14618
2026-01-22 08:35:49.13	1.41	11.40	-40.9	-53.3	3.8	1.49e+00	0	61	104	1492123648	52	15843
2026-01-22 08:35:50.14	1.29	11.32	-40.2	-52.6	3.8	1.49e+00	0	61	104	1492123648	52	14585
2026-01-22 08:35:51.15	1.18	11.25	-40.4	-52.7	3.8	1.49e+00	0	61	104	1492123648	52	14831
2026-01-22 08:35:52.16	1.06	11.18	-40.2	-52.6	3.8	1.49e+00	0	61	104	1492123648	52	14571
2026-01-22 08:35:53.17	0.95	11.10	-40.1	-52.5	3.8	1.49e+00	0	61	104	1492123648	52	14510
2026-01-22 08:35:54.18	0.83	11.03	-40.1	-52.5	3.8	1.49e+00	0	60	104	1492123648	52	14509
2026-01-22 08:35:55.19	0.72	10.96	-40.1	-52.5	3.8	1.49e+00	0	61	104	1492123648	52	14449
2026-01-22 08:35:56.20	0.61	10.89	-40.1	-52.5	3.8	1.49e+00	0	61	104	1492123648	52	14507
2026-01-22 08:35:57.21	0.50	10.82	-40.6	-53.0	3.8	1.49e+00	0	61	104	1492123648	52	15358
2026-01-22 08:35:58.22	0.38	10.74	-40.1	-52.5	3.8	1.49e+00	0	61	104	1492123648	52	14448
2026-01-22 08:35:59.23	0.27	10.67	-40.2	-52.6	3.8	1.49e+00	0	61	104	1492123648	52	14566
2026-01-22 08:36:00.24	0.16	10.60	-40.1	-52.5	3.8	1.49e+00	0	61	104	1492123648	52	14471
2026-01-22 08:36:01.25	0.05	10.53	-40.1	-52.5	3.8	1.49e+00	0	61	104	1492123648	52	14472
2026-01-22 08:36:02.26	359.94	10.46	-40.1	-52.5	3.8	1.49e+00	0	61	104	1492123648	52	14452
2026-01-22 08:36:03.27	359.84	10.39	-40.1	-52.4	3.8	1.49e+00	0	61	104	1492123648	52	14371
2026-01-22 08:36:04.28	359.73	10.31	-40.1	-52.5	3.8	1.49e+00	0	61	104	1492123648	52	14399
2026-01-22 08:36:05.29	359.62	10.24	-40.3	-52.7	3.8	1.49e+00	0	61	104	1492123648	52	14804
2026-01-22 08:36:06.30	359.51	10.17	-40.1	-52.5	3.8	1.49e+00	0	61	104	1492123648	52	14406
2026-01-22 08:36:07.30	359.41	10.10	-40.2	-52.6	3.8	1.49e+00	0	61	104	1492123648	52	14653
2026-01-22 08:36:08.31	359.30	10.03	-40.2	-52.6	3.8	1.49e+00	0	61	104	1492123648	52	14648
2026-01-22 08:36:09.32	359.20	9.96	-40.1	-52.5	3.8	1.49e+00	0	61	104	1492123648	52	14450
2026-01-22 08:36:10.33	359.09	9.89	-40.1	-52.4	3.8	1.49e+00	0	61	104	1492123648	52	14360
2026-01-22 08:36:11.34	358.99	9.82	-40.2	-52.5	3.8	1.49e+00	0	61	104	1492123648	52	14527
2026-01-22 08:36:12.35	358.88	9.75	-40.2	-52.5	3.8	1.49e+00	0	61	104	1492123648	52	14530
2026-01-22 08:36:13.36	358.78	9.68	-40.1	-52.4	3.8	1.49e+00	0	61	104	1492123648	52	14363
2026-01-22 08:36:14.37	358.68	9.61	-40.0	-52.4	3.8	1.49e+00	0	61	104	1492123648	52	14300
2026-01-22 08:36:15.38	358.57	9.54	-40.1	-52.5	3.8	1.49e+00	0	61	104	1492123648	52	14405
2026-01-22 08:36:16.39	358.47	9.47	-40.1	-52.5	3.8	1.49e+00	0	61	104	1492123648	52	14418
2026-01-22 08:36:17.40	358.37	9.40	-40.0	-52.4	3.8	1.49e+00	0	61	104	1492123648	52	14265
2026-01-22 08:36:18.41	358.27	9.33	-40.0	-52.4	3.8	1.49e+00	0	61	104	1492123648	52	14296
2026-01-22 08:36:19.42	358.17	9.26	-40.1	-52.5	3.8	1.49e+00	0	61	104	1492123648	52	14376
2026-01-22 08:36:20.43	358.07	9.19	-40.1	-52.4	3.8	1.49e+00	0	61	104	1492123648	52	14338
2026-01-22 08:36:21.44	357.97	9.12	-40.0	-52.4	3.8	1.49e+00	0	61	104	1492123648	52	14273
2026-01-22 08:36:22.45	357.87	9.05	-40.0	-52.4	3.8	1.49e+00	0	61	104	1492123648	52	14285
2026-01-22 08:36:23.46	357.77	8.98	-40.1	-52.4	3.8	1.49e+00	0	61	104	1492123648	52	14317
2026-01-22 08:36:24.46	357.68	8.91	-40.1	-52.4	3.8	1.49e+00	0	61	104	1492123648	52	14357
2026-01-22 08:36:25.47	357.58	8.84	-40.0	-52.4	3.8	1.49e+00	0	61	104	1492123648	52	14291
2026-01-22 08:36:26.48	357.48	8.77	-40.0	-52.4	3.8	1.49e+00	0	61	104	1492123648	52	14335
2026-01-22 08:36:27.49	357.39	8.70	-40.0	-52.4	3.8	1.49e+00	0	61	104	1492123648	52	14340
2026-01-22 08:36:28.50	357.29	8.63	-40.1	-52.4	3.8	1.49e+00	0	61	104	1492123648	52	14360
2026-01-22 08:36:29.51	357.20	8.57	-40.0	-52.3	3.8	1.49e+00	0	61	104	1492123648	52	14201
2026-01-22 08:36:30.52	357.10	8.50	-40.1	-52.4	3.8	1.49e+00	0	61	104	1492123648	51	15219
2026-01-22 08:36:31.53	357.01	8.43	-40.1	-52.5	3.8	1.49e+00	0	61	104	1492123648	51	15310
2026-01-22 08:36:32.54	356.91	8.36	-40.1	-52.5	3.8	1.49e+00	0	61	104	1492123648	51	15269
2026-01-22 08:36:33.55	356.82	8.29	-40.0	-52.4	3.8	1.49e+00	0	61	104	1492123648	51	15097
2026-01-22 08:36:34.56	356.72	8.22	-40.0	-52.4	3.8	1.49e+00	0	61	104	1492123648	51	15184
2026-01-22 08:36:35.57	356.63	8.16	-40.1	-52.4	3.8	1.49e+00	0	61	104	1492123648	51	15200
2026-01-22 08:36:36.58	356.54	8.09	-40.1	-52.4	3.8	1.49e+00	0	61	104	1492123648	51	15197
2026-01-22 08:36:37.59	356.45	8.02	-40.1	-52.4	3.8	1.49e+00	0	61	104	1492123648	51	15135
2026-01-22 08:36:38.60	356.36	7.95	-40.8	-53.2	3.8	1.49e+00	0	61	104	1492123648	52	15722
2026-01-22 08:36:39.61	356.27	7.89	-44.4	-56.6	3.8	1.49e+00	0	61	104	1492123648	59	15579
2026-01-22 08:36:40.62	356.17	7.82	-44.9	-57.4	3.8	1.49e+00	0	61	104	1492123648	60	16072
2026-01-22 08:36:41.63	356.08	7.75	-45.2	-57.7	3.8	1.49e+00	0	61	104	1492123648	60	16522
2026-01-22 08:36:42.64	356.00	7.68	-45.3	-57.7	3.8	1.49e+00	0	61	104	1492123648	61	15754
2026-01-22 08:36:43.65	355.91	7.62	-45.4	-57.9	3.8	1.49e+00	0	61	104	1492123648	61	16025
2026-01-22 08:36:44.66	355.82	7.55	-45.3	-57.9	3.8	1.49e+00	0	61	104	1492123648	61	16011
2026-01-22 08:36:45.67	355.73	7.48	-46.0	-58.3	3.8	1.49e+00	0	61	104	1492123648	61	16743
2026-01-22 08:36:46.68	355.64	7.42	-45.4	-57.9	3.8	1.49e+00	0	61	104	1492123648	61	16031
2026-01-22 08:36:47.69	355.55	7.35	-44.6	-57.7	3.8	1.49e+00	0	61	104	1492123648	60	16520
2026-01-22 08:36:48.71	355.47	7.28	-43.9	-57.5	3.8	1.49e+00	0	61	104	1492123648	60	16244
2026-01-22 08:36:49.72	355.38	7.22	-45.2	-57.8	3.8	1.49e+00	0	61	104	1492123648	60	16765
2026-01-22 08:36:50.73	355.29	7.15	-45.4	-57.7	3.8	1.49e+00	0	61	104	1492123648	61	15737
2026-01-22 08:36:51.74	355.21	7.08	-45.2	-57.7	3.8	1.49e+00	0	61	104	1492123648	61	15666
2026-01-22 08:36:52.75	355.12	7.02	-45.3	-57.7	3.8	1.49e+00	0	61	104	1492123648	61	15609
2026-01-22 08:36:53.76	355.04	6.95	-45.3	-57.7	3.8	1.49e+00	0	61	104	1492123648	61	15587
2026-01-22 08:36:54.77	354.95	6.88	-45.3	-57.6	3.8	1.49e+00	0	61	104	1492123648	61	15518
2026-01-22 08:36:55.78	354.87	6.82	-45.3	-57.6	3.8	1.49e+00	0	61	104	1492123648	61	15498
2026-01-22 08:36:56.79	354.78	6.75	-45.3	-57.6	3.8	1.49e+00	0	61	104	1492123648	61	15484
2026-01-22 08:36:57.80	354.70	6.69	-45.3	-57.6	3.8	1.49e+00	0	61	104	1492123648	61	15531
2026-01-22 08:36:58.81	354.62	6.62	-45.2	-57.6	3.8	1.49e+00	0	61	104	1492123648	61	15468
2026-01-22 08:36:59.82	354.53	6.56	-45.3	-57.6	3.8	1.49e+00	0	61	104	1492123648	61	15535
2026-01-22 08:37:00.83	354.45	6.49	-45.3	-57.6	3.8	1.49e+00	0	60	104	1492123648	61	15476
