passes_logs/2026/01/22/R2.0S_Moscow/R2.0S_Moscow__20260122_130939_AQUA_rec.log

#Pass ID: 20260122_130939_AQUA
#Satellite: AQUA
#Configuration: AQUA
#almurnet v.1.7.20251203
#Start time: 2026-01-22 13:09:39

#Version: 2.2.20231116
#Station: R2.0S_Moscow
#Location: 37.707566 lon 55.798166 lat
#TLE: 1 27424U 02022A   26021.53721517  .00002456  00000+0  50140-3 0  9996
#TLE: 2 27424  98.4098 348.0744 0002012  70.1009  46.1672 14.61843091261845

#Time	Az	El	Level	Level2	SNR	BER	BlckErr	Temp	State	Recorded	gain1	gain2
2026-01-22 13:09:39.26	209.19	1.99	-44.9	-63.4	3.8	7.44e-01	0	52	0	0	61	30174
2026-01-22 13:09:40.26	209.28	2.05	-44.8	-63.4	3.8	7.47e-01	0	52	104	0	60	31862
2026-01-22 13:09:41.28	209.36	2.11	-44.8	-63.4	3.8	7.47e-01	0	52	104	0	60	31949
2026-01-22 13:09:42.29	209.45	2.16	-44.8	-63.4	3.8	7.39e-01	0	53	104	0	60	31895
2026-01-22 13:09:43.30	209.53	2.22	-44.8	-63.4	3.8	7.48e-01	0	53	104	0	60	31950
2026-01-22 13:09:44.31	209.62	2.28	-44.8	-63.4	3.8	7.47e-01	0	53	104	0	60	31961
2026-01-22 13:09:45.32	209.70	2.33	-44.8	-63.4	3.8	7.45e-01	0	53	104	0	60	31903
2026-01-22 13:09:46.33	209.79	2.39	-44.8	-63.4	3.8	7.45e-01	0	53	104	0	60	31881
2026-01-22 13:09:47.34	209.88	2.45	-44.8	-63.4	3.8	7.49e-01	0	53	104	0	60	31918
2026-01-22 13:09:48.35	209.96	2.51	-44.8	-63.4	3.8	7.45e-01	0	53	104	0	60	31944
2026-01-22 13:09:49.36	210.05	2.56	-44.8	-63.4	3.8	7.45e-01	0	53	104	0	60	31973
2026-01-22 13:09:50.37	210.14	2.62	-44.8	-63.4	3.8	7.44e-01	0	53	104	0	60	31912
2026-01-22 13:09:51.38	210.23	2.68	-44.8	-63.4	3.8	7.47e-01	0	53	104	0	60	31901
2026-01-22 13:09:52.39	210.31	2.74	-44.8	-63.4	3.8	7.43e-01	0	53	104	0	60	31954
2026-01-22 13:09:53.40	210.40	2.80	-44.8	-63.4	3.8	7.48e-01	0	53	104	0	60	31947
2026-01-22 13:09:54.41	210.49	2.85	-44.8	-63.4	3.8	7.45e-01	0	53	104	0	60	31975
2026-01-22 13:09:55.42	210.58	2.91	-44.8	-63.4	3.8	7.45e-01	0	54	104	0	60	31914
2026-01-22 13:09:56.43	210.67	2.97	-44.8	-63.4	3.8	7.45e-01	0	53	104	0	60	31902
2026-01-22 13:09:57.44	210.76	3.03	-44.8	-63.4	3.8	7.46e-01	0	54	104	0	60	31964
2026-01-22 13:09:58.45	210.85	3.09	-44.8	-63.4	3.8	7.46e-01	0	53	104	0	60	31859
2026-01-22 13:09:59.46	210.94	3.14	-44.8	-63.4	3.8	7.45e-01	0	54	104	0	60	31898
2026-01-22 13:10:00.47	211.03	3.20	-44.8	-63.4	3.8	7.44e-01	0	54	104	0	60	31918
2026-01-22 13:10:01.48	211.13	3.26	-44.8	-63.4	3.8	7.47e-01	0	54	104	0	60	31820
2026-01-22 13:10:02.49	211.22	3.32	-44.8	-63.4	3.8	7.47e-01	0	54	104	0	60	31895
2026-01-22 13:10:03.50	211.31	3.38	-44.8	-63.4	3.8	7.45e-01	0	54	104	0	60	31876
2026-01-22 13:10:04.51	211.40	3.44	-44.8	-63.4	3.8	7.42e-01	0	54	104	0	60	31934
2026-01-22 13:10:05.52	211.50	3.50	-44.8	-63.4	3.8	7.47e-01	0	54	104	0	60	31914
2026-01-22 13:10:06.53	211.59	3.55	-44.8	-63.4	3.8	7.44e-01	0	54	104	0	60	31980
2026-01-22 13:10:07.53	211.68	3.61	-44.8	-63.4	3.8	7.46e-01	0	54	104	0	60	31961
2026-01-22 13:10:08.54	211.78	3.67	-44.8	-63.4	3.8	7.44e-01	0	54	104	0	60	31975
2026-01-22 13:10:09.55	211.87	3.73	-44.8	-63.4	3.8	7.44e-01	0	54	104	0	60	31936
2026-01-22 13:10:10.57	211.97	3.79	-44.8	-63.4	3.8	7.47e-01	0	54	104	0	60	31982
2026-01-22 13:10:11.57	212.06	3.85	-44.8	-63.4	3.8	7.49e-01	0	54	104	0	60	31865
2026-01-22 13:10:12.58	212.16	3.91	-44.8	-63.4	3.8	7.46e-01	0	54	104	0	60	31929
2026-01-22 13:10:13.59	212.26	3.97	-44.8	-63.4	3.8	7.46e-01	0	55	104	0	60	31931
2026-01-22 13:10:14.60	212.35	4.03	-44.8	-63.4	3.8	7.48e-01	0	55	104	0	60	31908
2026-01-22 13:10:15.61	212.45	4.09	-44.8	-63.4	3.8	7.45e-01	0	55	104	0	60	31939
2026-01-22 13:10:16.62	212.55	4.15	-44.8	-63.4	3.8	7.45e-01	0	55	104	0	60	31896
2026-01-22 13:10:17.64	212.65	4.21	-44.8	-63.4	3.8	7.45e-01	0	55	104	0	60	31941
2026-01-22 13:10:18.65	212.75	4.27	-44.8	-63.4	3.8	7.46e-01	0	55	104	0	60	31939
2026-01-22 13:10:19.66	212.84	4.33	-44.8	-63.4	3.8	7.46e-01	0	55	104	0	60	31881
2026-01-22 13:10:20.67	212.94	4.39	-44.8	-63.4	3.8	7.43e-01	0	55	104	0	60	31876
2026-01-22 13:10:21.68	213.04	4.45	-44.8	-63.4	3.8	7.43e-01	0	55	104	0	60	31966
2026-01-22 13:10:22.69	213.14	4.51	-44.8	-63.4	3.8	7.46e-01	0	55	104	0	60	31978
2026-01-22 13:10:23.70	213.24	4.57	-44.8	-63.4	3.8	7.41e-01	0	55	104	0	60	32011
2026-01-22 13:10:24.71	213.35	4.63	-44.8	-63.4	3.8	7.42e-01	0	55	104	0	60	31935
2026-01-22 13:10:25.71	213.45	4.69	-44.8	-63.4	3.8	7.41e-01	0	55	104	0	60	31920
2026-01-22 13:10:26.73	213.55	4.75	-44.8	-63.3	3.8	7.44e-01	0	55	104	0	60	31767
2026-01-22 13:10:27.74	213.65	4.81	-44.8	-63.3	3.8	7.42e-01	0	55	104	0	60	31625
2026-01-22 13:10:28.74	213.75	4.87	-44.8	-63.3	3.8	7.47e-01	0	55	104	0	60	31806
2026-01-22 13:10:29.76	213.86	4.93	-44.8	-63.3	3.8	7.46e-01	0	55	104	0	60	31713
2026-01-22 13:10:30.77	213.96	4.99	-44.8	-63.4	3.8	7.44e-01	0	55	104	0	60	31881
2026-01-22 13:10:31.78	214.07	5.05	-44.8	-63.3	3.8	7.46e-01	0	56	104	0	60	31549
2026-01-22 13:10:32.79	214.17	5.12	-44.8	-63.2	3.8	7.44e-01	0	56	104	0	60	31379
2026-01-22 13:10:33.80	214.28	5.18	-44.8	-63.1	3.8	7.45e-01	0	55	104	0	60	31084
2026-01-22 13:10:34.81	214.38	5.24	-44.8	-63.2	3.8	7.44e-01	0	56	104	0	60	31181
2026-01-22 13:10:35.82	214.49	5.30	-44.8	-62.9	3.8	7.46e-01	0	56	104	0	60	30366
2026-01-22 13:10:36.83	214.60	5.36	-44.8	-63.0	3.8	7.43e-01	0	56	104	0	60	30394
2026-01-22 13:10:37.84	214.70	5.42	-44.8	-62.8	3.8	7.45e-01	0	56	104	0	60	29972
2026-01-22 13:10:38.85	214.81	5.48	-44.8	-62.8	3.8	7.45e-01	0	56	104	0	60	29859
2026-01-22 13:10:39.85	214.92	5.55	-44.8	-62.5	3.8	7.46e-01	0	56	104	0	60	28728
2026-01-22 13:10:40.86	215.03	5.61	-44.8	-62.5	3.8	7.44e-01	0	56	104	0	60	28813
2026-01-22 13:10:41.87	215.13	5.67	-44.8	-62.3	3.8	7.42e-01	0	56	104	0	60	28298
2026-01-22 13:10:42.89	215.25	5.73	-44.8	-62.2	3.8	7.44e-01	0	56	104	0	60	27987
2026-01-22 13:10:43.89	215.35	5.79	-44.8	-62.5	3.8	7.45e-01	0	56	104	0	60	28949
2026-01-22 13:10:44.91	215.47	5.86	-44.8	-62.2	3.8	7.46e-01	0	56	104	0	60	27912
2026-01-22 13:10:45.92	215.58	5.92	-44.8	-62.0	3.8	7.46e-01	0	56	104	0	60	27253
2026-01-22 13:10:46.93	215.69	5.98	-44.8	-61.7	3.8	7.43e-01	0	56	104	0	60	26288
2026-01-22 13:10:47.94	215.80	6.04	-44.8	-61.5	3.8	7.48e-01	0	56	104	0	60	25721
2026-01-22 13:10:48.95	215.91	6.10	-44.8	-60.9	3.9	7.38e-01	0	56	104	0	60	23955
2026-01-22 13:10:49.96	216.03	6.17	-44.8	-60.8	4.0	7.39e-01	0	56	104	0	60	23675
2026-01-22 13:10:50.97	216.14	6.23	-44.7	-60.4	4.1	7.37e-01	0	56	104	0	60	22570
2026-01-22 13:10:51.98	216.25	6.29	-44.7	-60.3	4.1	7.40e-01	0	56	104	0	60	22363
2026-01-22 13:10:52.99	216.37	6.36	-44.7	-59.2	4.5	7.27e-01	0	56	104	0	60	19828
2026-01-22 13:10:54.00	216.48	6.42	-44.7	-59.1	4.2	7.39e-01	0	56	104	0	60	19581
2026-01-22 13:10:55.01	216.60	6.48	-44.7	-57.8	5.0	7.09e-01	0	57	0	0	60	16852
2026-01-22 13:10:56.01	216.71	6.54	-44.6	-56.9	5.5	6.96e-01	74	57	0	0	60	15197
2026-01-22 13:10:57.03	216.83	6.61	-44.6	-56.2	6.0	6.81e-01	92	57	0	1572864	60	14006
2026-01-22 13:10:58.04	216.95	6.67	-44.4	-55.1	6.9	6.65e-01	90	57	0	3145728	60	12372
2026-01-22 13:10:59.05	217.07	6.73	-44.3	-54.1	8.0	6.47e-01	84	57	0	5242880	60	10929
2026-01-22 13:11:00.06	217.19	6.80	-44.2	-53.2	8.9	6.34e-01	0	57	0	7340032	60	9915
2026-01-22 13:11:01.07	217.30	6.86	-44.3	-52.9	9.4	6.29e-01	0	57	0	8912896	59	10154
2026-01-22 13:11:02.08	217.42	6.92	-44.3	-52.5	10.0	6.25e-01	0	57	0	11010048	59	9691
2026-01-22 13:11:03.09	217.54	6.99	-44.2	-52.3	10.3	6.22e-01	0	57	0	12582912	59	9455
2026-01-22 13:11:04.10	217.66	7.05	-44.2	-52.0	10.6	6.20e-01	0	57	0	14680064	59	9095
2026-01-22 13:11:05.11	217.79	7.11	-44.2	-52.1	10.5	6.18e-01	0	57	0	16777216	59	9181
2026-01-22 13:11:06.12	217.91	7.18	-44.2	-52.0	10.6	6.20e-01	0	57	0	18350080	59	9157
2026-01-22 13:11:07.13	218.03	7.24	-44.3	-52.4	10.2	6.23e-01	0	57	0	20447232	59	9549
2026-01-22 13:11:08.14	218.15	7.31	-44.4	-52.9	9.6	6.27e-01	0	57	0	22020096	59	10145
2026-01-22 13:11:09.15	218.28	7.37	-44.4	-53.2	9.3	6.30e-01	0	57	0	24117248	59	10531
2026-01-22 13:11:10.16	218.40	7.43	-44.4	-53.4	9.1	6.30e-01	0	57	0	26214400	59	10683
2026-01-22 13:11:11.17	218.52	7.50	-44.4	-53.1	9.5	6.27e-01	0	57	0	27787264	59	10324
2026-01-22 13:11:12.18	218.65	7.56	-44.3	-52.4	10.1	6.26e-01	0	57	0	29884416	59	9586
2026-01-22 13:11:13.19	218.77	7.63	-44.1	-51.7	10.8	6.16e-01	0	57	0	31981568	59	8859
2026-01-22 13:11:14.20	218.90	7.69	-43.9	-50.7	11.9	6.13e-01	0	57	0	33554432	59	7893
2026-01-22 13:11:15.21	219.03	7.75	-43.6	-49.7	12.9	6.09e-01	0	57	0	35651584	59	7029
2026-01-22 13:11:16.22	219.15	7.82	-43.3	-48.8	13.9	6.10e-01	0	58	0	37224448	58	6681
2026-01-22 13:11:17.23	219.28	7.88	-43.0	-48.1	14.6	6.06e-01	0	57	0	39321600	58	6163
2026-01-22 13:11:18.24	219.41	7.95	-42.8	-47.5	15.3	6.07e-01	0	57	0	41418752	57	6089
2026-01-22 13:11:19.25	219.54	8.01	-42.7	-47.3	15.4	6.07e-01	0	57	0	42991616	57	5989
2026-01-22 13:11:20.26	219.67	8.08	-42.8	-47.6	15.2	6.05e-01	0	57	0	45088768	57	6161
2026-01-22 13:11:21.28	219.80	8.14	-42.6	-46.9	16.0	6.06e-01	0	57	0	47185920	57	5716
2026-01-22 13:11:22.28	219.93	8.21	-43.3	-48.7	14.0	6.08e-01	0	58	0	48758784	58	6644
2026-01-22 13:11:23.29	220.06	8.27	-44.3	-52.9	9.5	6.26e-01	0	58	0	50855936	59	10138
2026-01-22 13:11:24.30	220.20	8.34	-44.6	-61.5	3.8	7.41e-01	0	58	104	51380224	60	25674
2026-01-22 13:11:25.31	220.33	8.40	-44.0	-50.5	11.9	6.13e-01	0	58	0	52428800	59	7705
2026-01-22 13:11:26.32	220.46	8.47	-42.8	-47.3	15.7	6.06e-01	0	58	0	54001664	57	5941
2026-01-22 13:11:27.33	220.60	8.53	-42.6	-47.0	16.0	6.06e-01	0	58	0	56098816	57	5726
2026-01-22 13:11:28.34	220.73	8.60	-42.4	-46.5	16.4	6.07e-01	0	58	0	58195968	56	5784
2026-01-22 13:11:29.35	220.87	8.66	-42.5	-46.6	16.4	6.06e-01	0	58	0	59768832	56	5818
2026-01-22 13:11:30.36	221.00	8.73	-42.5	-46.7	16.3	6.06e-01	0	58	0	61865984	56	5872
2026-01-22 13:11:31.37	221.14	8.79	-42.6	-46.8	16.2	6.08e-01	0	58	0	63438848	56	5934
2026-01-22 13:11:32.38	221.28	8.86	-42.5	-46.7	16.3	6.07e-01	0	58	0	65536000	56	5922
2026-01-22 13:11:33.39	221.41	8.92	-42.5	-46.7	16.4	6.07e-01	0	58	0	67633152	56	5859
2026-01-22 13:11:34.39	221.55	8.99	-42.4	-46.5	16.6	6.07e-01	0	58	0	69206016	56	5731
2026-01-22 13:11:35.40	221.69	9.06	-42.4	-46.4	16.6	6.04e-01	0	58	0	71303168	56	5712
2026-01-22 13:11:36.41	221.83	9.12	-42.4	-46.4	16.7	6.06e-01	0	58	0	72876032	56	5682
2026-01-22 13:11:37.42	221.97	9.19	-42.5	-46.6	16.5	6.06e-01	0	58	0	74973184	56	5802
2026-01-22 13:11:38.43	222.11	9.25	-42.4	-46.4	16.7	6.07e-01	0	58	0	77070336	56	5712
2026-01-22 13:11:39.44	222.25	9.32	-42.5	-46.5	16.6	6.07e-01	0	58	0	78643200	56	5773
2026-01-22 13:11:40.45	222.40	9.38	-42.5	-46.6	16.6	6.07e-01	0	58	0	80740352	56	5789
2026-01-22 13:11:41.46	222.54	9.45	-42.4	-46.4	16.7	6.09e-01	0	58	0	82313216	56	5679
2026-01-22 13:11:42.47	222.68	9.52	-42.4	-46.4	16.7	6.05e-01	0	58	0	84410368	56	5694
2026-01-22 13:11:43.48	222.83	9.58	-42.5	-46.5	16.6	6.06e-01	0	58	0	86507520	56	5787
2026-01-22 13:11:44.49	222.97	9.65	-42.5	-46.5	16.6	6.06e-01	0	58	0	88080384	56	5761
2026-01-22 13:11:45.50	223.12	9.71	-42.6	-46.6	16.5	6.09e-01	0	58	0	90177536	56	5854
2026-01-22 13:11:46.51	223.27	9.78	-42.5	-46.5	16.6	6.06e-01	0	58	0	91750400	56	5784
2026-01-22 13:11:47.52	223.41	9.85	-42.4	-46.4	16.8	6.07e-01	0	58	0	93847552	56	5669
2026-01-22 13:11:48.52	223.56	9.91	-42.4	-46.3	16.9	6.07e-01	0	58	0	95944704	56	5637
2026-01-22 13:11:49.53	223.71	9.98	-42.4	-46.2	17.0	6.05e-01	0	58	0	97517568	56	5572
2026-01-22 13:11:50.54	223.86	10.04	-42.3	-46.2	16.8	6.05e-01	0	58	0	99614720	56	5530
2026-01-22 13:11:51.55	224.01	10.11	-42.4	-46.3	17.0	6.06e-01	0	58	0	101187584	56	5608
2026-01-22 13:11:52.56	224.16	10.18	-42.4	-46.3	16.9	6.04e-01	0	58	0	103284736	56	5644
2026-01-22 13:11:53.57	224.31	10.24	-42.4	-46.2	17.1	6.07e-01	0	58	0	105381888	56	5542
2026-01-22 13:11:54.58	224.47	10.31	-42.4	-46.2	17.1	6.06e-01	0	58	0	106954752	56	5542
2026-01-22 13:11:55.59	224.62	10.38	-42.4	-46.1	17.1	6.05e-01	0	58	0	109051904	56	5526
2026-01-22 13:11:56.60	224.77	10.44	-42.4	-46.1	17.1	6.08e-01	0	58	0	111149056	56	5522
2026-01-22 13:11:57.61	224.93	10.51	-42.4	-46.2	17.0	6.06e-01	0	58	0	112721920	56	5580
2026-01-22 13:11:58.61	225.08	10.58	-42.4	-46.2	17.1	6.05e-01	0	58	0	114819072	56	5538
2026-01-22 13:11:59.62	225.24	10.64	-42.4	-46.2	17.1	6.06e-01	0	58	0	116391936	56	5535
2026-01-22 13:12:00.63	225.39	10.71	-42.4	-46.1	17.2	6.06e-01	0	58	0	118489088	56	5499
2026-01-22 13:12:01.64	225.55	10.78	-42.3	-46.1	17.1	6.08e-01	0	58	0	120586240	56	5486
2026-01-22 13:12:02.65	225.71	10.84	-42.3	-46.0	17.3	6.06e-01	0	59	0	122159104	56	5443
2026-01-22 13:12:03.66	225.87	10.91	-42.3	-46.0	17.3	6.07e-01	0	59	0	124256256	56	5407
2026-01-22 13:12:04.67	226.03	10.98	-42.3	-45.9	17.4	6.07e-01	0	59	0	126353408	56	5382
2026-01-22 13:12:05.68	226.19	11.04	-42.3	-46.0	17.3	6.05e-01	0	58	0	127926272	56	5451
2026-01-22 13:12:06.69	226.35	11.11	-42.3	-46.0	16.8	6.07e-01	0	59	0	130023424	56	5448
2026-01-22 13:12:07.70	226.51	11.18	-42.3	-46.0	17.3	6.05e-01	0	59	0	131596288	56	5427
2026-01-22 13:12:08.71	226.68	11.24	-42.3	-45.9	17.4	6.05e-01	0	59	0	133693440	56	5381
2026-01-22 13:12:09.72	226.84	11.31	-42.2	-45.8	17.5	6.05e-01	0	59	0	135790592	56	5317
2026-01-22 13:12:10.73	227.00	11.38	-42.2	-45.8	17.5	6.06e-01	0	59	0	137363456	56	5314
2026-01-22 13:12:11.74	227.17	11.44	-42.2	-45.8	17.5	6.05e-01	0	59	0	139460608	56	5294
2026-01-22 13:12:12.75	227.34	11.51	-42.3	-45.9	17.4	6.04e-01	0	59	0	141033472	56	5372
2026-01-22 13:12:13.76	227.50	11.58	-42.3	-45.9	17.4	6.08e-01	0	59	0	143130624	56	5400
2026-01-22 13:12:14.77	227.67	11.64	-42.2	-45.8	17.5	6.04e-01	0	59	0	145227776	56	5318
2026-01-22 13:12:15.78	227.84	11.71	-42.2	-45.8	17.6	6.05e-01	0	59	0	146800640	56	5285
2026-01-22 13:12:16.79	228.01	11.78	-42.2	-45.7	17.6	6.06e-01	0	59	0	148897792	56	5256
2026-01-22 13:12:17.80	228.18	11.84	-42.2	-45.8	17.5	6.05e-01	0	59	0	150470656	56	5335
2026-01-22 13:12:18.80	228.35	11.91	-42.3	-45.9	17.4	6.03e-01	0	59	0	152567808	56	5387
2026-01-22 13:12:19.81	228.52	11.98	-42.3	-46.0	17.4	6.08e-01	0	59	0	154664960	56	5427
2026-01-22 13:12:20.82	228.69	12.04	-42.2	-45.8	17.6	6.05e-01	0	59	0	156237824	56	5308
2026-01-22 13:12:21.83	228.86	12.11	-42.2	-45.7	17.7	6.05e-01	0	59	0	158334976	56	5251
2026-01-22 13:12:22.84	229.04	12.18	-42.1	-45.6	17.7	6.06e-01	0	59	0	159907840	56	5202
2026-01-22 13:12:23.85	229.21	12.24	-42.1	-45.6	17.8	6.06e-01	0	59	0	162004992	56	5172
2026-01-22 13:12:24.86	229.39	12.31	-42.1	-45.6	17.8	6.06e-01	0	59	0	164102144	56	5175
2026-01-22 13:12:25.87	229.57	12.37	-42.1	-45.6	17.8	6.05e-01	0	59	0	165675008	56	5202
2026-01-22 13:12:26.88	229.74	12.44	-42.1	-45.6	17.8	6.06e-01	0	59	0	167772160	56	5175
2026-01-22 13:12:27.89	229.92	12.51	-42.1	-45.6	17.8	6.05e-01	0	59	0	169345024	56	5191
2026-01-22 13:12:28.90	230.10	12.57	-42.1	-45.6	17.8	6.07e-01	0	59	0	171442176	56	5176
2026-01-22 13:12:29.91	230.28	12.64	-42.2	-45.7	17.8	6.05e-01	0	59	0	173539328	56	5237
2026-01-22 13:12:30.92	230.46	12.71	-42.1	-45.6	17.8	6.04e-01	0	59	0	175112192	56	5198
2026-01-22 13:12:31.93	230.64	12.77	-42.2	-45.7	17.7	6.09e-01	0	59	0	177209344	56	5223
2026-01-22 13:12:32.94	230.83	12.84	-42.2	-45.7	17.7	6.07e-01	0	59	0	179306496	56	5258
2026-01-22 13:12:33.95	231.01	12.91	-42.2	-45.8	17.7	6.08e-01	0	59	0	180879360	56	5283
2026-01-22 13:12:34.96	231.19	12.97	-42.2	-45.7	17.7	6.05e-01	0	59	0	182976512	56	5268
2026-01-22 13:12:35.97	231.38	13.04	-42.2	-45.7	17.8	6.06e-01	0	59	0	184549376	56	5219
2026-01-22 13:12:36.98	231.56	13.10	-42.1	-45.6	17.8	6.06e-01	0	59	0	186646528	56	5190
2026-01-22 13:12:37.99	231.75	13.17	-42.1	-45.6	17.8	6.05e-01	0	59	0	188743680	56	5177
2026-01-22 13:12:39.00	231.94	13.24	-42.2	-45.7	17.8	6.07e-01	0	59	0	190316544	56	5223
2026-01-22 13:12:40.01	232.13	13.30	-42.1	-45.5	17.9	6.06e-01	0	59	0	192413696	56	5139
2026-01-22 13:12:41.02	232.32	13.37	-42.1	-45.4	18.0	6.05e-01	0	59	0	194510848	56	5084
2026-01-22 13:12:42.03	232.51	13.43	-42.1	-45.4	18.0	6.07e-01	0	59	0	196083712	56	5099
2026-01-22 13:12:43.04	232.70	13.50	-42.1	-45.5	18.0	6.05e-01	0	59	0	198180864	56	5116
2026-01-22 13:12:44.05	232.89	13.56	-42.1	-45.6	17.9	6.06e-01	0	59	0	199753728	56	5181
2026-01-22 13:12:45.05	233.08	13.63	-42.2	-45.6	17.8	6.06e-01	0	59	0	201850880	56	5202
2026-01-22 13:12:46.06	233.28	13.69	-42.1	-45.5	18.0	6.07e-01	0	59	0	203423744	56	5109
2026-01-22 13:12:47.08	233.47	13.76	-42.0	-45.4	18.1	6.08e-01	0	59	0	205520896	56	5070
2026-01-22 13:12:48.09	233.67	13.82	-42.1	-45.5	18.0	6.05e-01	0	59	0	207618048	56	5121
2026-01-22 13:12:49.10	233.87	13.89	-42.1	-45.5	18.0	6.06e-01	0	60	0	209190912	56	5124
2026-01-22 13:12:50.11	234.06	13.95	-42.0	-45.4	18.1	6.06e-01	0	59	0	211288064	56	5056
2026-01-22 13:12:51.12	234.26	14.02	-42.1	-45.4	18.1	6.07e-01	0	59	0	212860928	56	5084
2026-01-22 13:12:52.13	234.46	14.08	-42.0	-45.4	18.1	6.05e-01	0	59	0	214958080	56	5054
2026-01-22 13:12:53.14	234.66	14.15	-42.1	-45.4	18.1	6.07e-01	0	60	0	217055232	56	5085
2026-01-22 13:12:54.14	234.86	14.21	-42.0	-45.4	18.1	6.06e-01	0	60	0	218628096	56	5069
2026-01-22 13:12:55.15	235.06	14.28	-42.1	-45.4	18.1	6.08e-01	0	60	0	220725248	56	5083
2026-01-22 13:12:56.16	235.26	14.34	-42.0	-45.4	18.1	6.08e-01	0	59	0	222822400	56	5059
2026-01-22 13:12:57.17	235.47	14.40	-42.0	-45.4	18.1	6.06e-01	0	60	0	224395264	56	5051
2026-01-22 13:12:58.18	235.67	14.47	-42.0	-45.3	18.2	6.06e-01	0	59	0	226492416	56	5041
2026-01-22 13:12:59.19	235.88	14.53	-42.1	-45.5	18.1	6.08e-01	0	59	0	228065280	56	5104
2026-01-22 13:13:00.20	236.09	14.60	-42.0	-45.3	18.2	6.06e-01	0	59	0	230162432	56	5036
2026-01-22 13:13:01.21	236.29	14.66	-42.0	-45.3	18.2	6.06e-01	0	59	0	232259584	56	5033
2026-01-22 13:13:02.22	236.50	14.72	-42.0	-45.3	18.2	6.04e-01	0	59	0	233832448	56	5017
2026-01-22 13:13:03.23	236.71	14.79	-42.1	-45.4	18.1	6.07e-01	0	60	0	235929600	56	5081
2026-01-22 13:13:04.24	236.92	14.85	-42.0	-45.3	18.2	6.05e-01	0	60	0	237502464	56	5040
2026-01-22 13:13:05.25	237.13	14.91	-41.9	-45.1	18.3	6.06e-01	0	60	0	239599616	55	5199
2026-01-22 13:13:06.25	237.34	14.97	-41.9	-45.1	18.3	6.04e-01	0	60	0	241696768	55	5214
2026-01-22 13:13:07.26	237.56	15.04	-41.8	-45.1	18.3	6.05e-01	0	60	0	243269632	55	5187
2026-01-22 13:13:08.27	237.77	15.10	-41.9	-45.2	18.2	6.05e-01	0	60	0	245366784	55	5233
2026-01-22 13:13:09.28	237.98	15.16	-41.9	-45.2	18.2	6.06e-01	0	60	0	247463936	55	5242
2026-01-22 13:13:10.29	238.20	15.22	-41.9	-45.3	18.2	6.07e-01	0	60	0	249036800	55	5289
2026-01-22 13:13:11.30	238.42	15.28	-41.9	-45.3	18.2	6.06e-01	0	60	0	251133952	55	5284
2026-01-22 13:13:12.31	238.63	15.35	-41.9	-45.1	18.3	6.06e-01	0	60	0	252706816	55	5191
2026-01-22 13:13:13.32	238.85	15.41	-41.9	-45.2	18.3	6.05e-01	0	60	0	254803968	55	5220
2026-01-22 13:13:14.33	239.07	15.47	-41.9	-45.1	18.4	6.08e-01	0	60	0	256901120	55	5187
2026-01-22 13:13:15.34	239.29	15.53	-41.8	-45.1	18.3	6.08e-01	0	59	0	258473984	55	5189
2026-01-22 13:13:16.35	239.52	15.59	-41.8	-45.0	18.4	6.06e-01	0	60	0	260571136	55	5147
2026-01-22 13:13:17.36	239.74	15.65	-41.8	-45.0	18.4	6.09e-01	0	60	0	262144000	55	5153
2026-01-22 13:13:18.37	239.96	15.71	-41.8	-45.1	18.4	6.05e-01	0	60	0	264241152	55	5169
2026-01-22 13:13:19.38	240.18	15.77	-41.9	-45.1	18.4	6.08e-01	0	60	0	266338304	55	5180
2026-01-22 13:13:20.39	240.41	15.83	-41.8	-45.0	18.4	6.07e-01	0	60	0	267911168	55	5153
2026-01-22 13:13:21.40	240.64	15.89	-41.8	-45.0	18.4	6.06e-01	0	60	0	270008320	55	5159
2026-01-22 13:13:22.41	240.86	15.95	-41.9	-45.1	18.4	6.07e-01	0	60	0	271581184	55	5189
2026-01-22 13:13:23.42	241.09	16.01	-41.9	-45.2	18.3	6.05e-01	0	60	0	273678336	55	5221
2026-01-22 13:13:24.43	241.32	16.07	-41.9	-45.1	18.3	6.09e-01	0	60	0	275775488	55	5210
2026-01-22 13:13:25.44	241.55	16.13	-41.8	-45.1	18.4	6.07e-01	0	60	0	277348352	55	5185
2026-01-22 13:13:26.45	241.78	16.18	-41.8	-45.0	18.4	6.06e-01	0	60	0	279445504	55	5159
2026-01-22 13:13:27.46	242.01	16.24	-41.9	-45.1	18.3	6.07e-01	0	60	0	281018368	55	5215
2026-01-22 13:13:28.47	242.25	16.30	-42.0	-45.3	18.2	6.07e-01	0	60	0	283115520	55	5318
2026-01-22 13:13:29.47	242.48	16.36	-41.9	-45.2	18.3	6.05e-01	0	60	0	285212672	55	5253
2026-01-22 13:13:30.48	242.71	16.41	-41.9	-45.2	18.3	6.05e-01	0	60	0	286785536	55	5259
2026-01-22 13:13:31.49	242.95	16.47	-42.0	-45.3	18.2	6.08e-01	0	60	0	288882688	55	5284
2026-01-22 13:13:32.50	243.18	16.53	-41.9	-45.2	18.3	6.05e-01	0	60	0	290979840	55	5234
2026-01-22 13:13:33.51	243.42	16.58	-41.9	-45.2	18.3	6.07e-01	0	60	0	292552704	55	5222
2026-01-22 13:13:34.52	243.66	16.64	-41.9	-45.1	18.4	6.05e-01	0	60	0	294649856	55	5194
2026-01-22 13:13:35.53	243.90	16.70	-41.9	-45.1	18.4	6.05e-01	0	60	0	296222720	55	5206
2026-01-22 13:13:36.54	244.14	16.75	-41.9	-45.1	18.3	6.08e-01	0	60	0	298319872	55	5214
2026-01-22 13:13:37.55	244.38	16.81	-41.9	-45.2	18.3	6.06e-01	0	60	0	300417024	55	5219
2026-01-22 13:13:38.56	244.62	16.86	-41.9	-45.1	18.4	6.06e-01	0	60	0	301989888	55	5198
2026-01-22 13:13:39.57	244.86	16.92	-41.9	-45.1	18.4	6.05e-01	0	60	0	304087040	55	5204
2026-01-22 13:13:40.58	245.11	16.97	-41.9	-45.2	18.3	6.08e-01	0	60	0	305659904	55	5241
2026-01-22 13:13:41.58	245.35	17.02	-41.9	-45.2	18.3	6.05e-01	0	60	0	307757056	55	5239
2026-01-22 13:13:42.59	245.59	17.08	-41.9	-45.2	18.3	6.07e-01	0	60	0	309854208	55	5230
2026-01-22 13:13:43.60	245.84	17.13	-42.0	-45.3	18.2	6.04e-01	0	60	0	311427072	55	5294
2026-01-22 13:13:44.62	246.09	17.18	-42.0	-45.3	18.1	6.06e-01	0	60	0	313524224	55	5340
2026-01-22 13:13:45.62	246.34	17.23	-41.9	-45.2	18.3	6.07e-01	0	60	0	315621376	55	5254
2026-01-22 13:13:46.63	246.58	17.29	-41.9	-45.2	18.4	6.06e-01	0	60	0	317194240	55	5222
2026-01-22 13:13:47.64	246.83	17.34	-41.9	-45.1	18.4	6.04e-01	0	60	0	319291392	55	5215
2026-01-22 13:13:48.65	247.08	17.39	-41.9	-45.1	18.4	6.06e-01	0	60	0	320864256	55	5199
2026-01-22 13:13:49.66	247.34	17.44	-41.9	-45.1	18.4	6.06e-01	0	60	0	322961408	55	5205
2026-01-22 13:13:50.67	247.59	17.49	-41.9	-45.1	18.4	6.05e-01	0	60	0	325058560	55	5200
2026-01-22 13:13:51.68	247.84	17.54	-41.8	-45.0	18.5	6.05e-01	0	60	0	326631424	55	5156
2026-01-22 13:13:52.69	248.10	17.59	-41.9	-45.1	18.4	6.04e-01	0	60	0	328728576	55	5176
2026-01-22 13:13:53.70	248.35	17.64	-41.9	-45.1	18.4	6.05e-01	0	60	0	330301440	55	5203
2026-01-22 13:13:54.71	248.61	17.69	-41.9	-45.1	18.4	6.06e-01	0	60	0	332398592	55	5183
2026-01-22 13:13:55.72	248.86	17.73	-41.9	-45.1	18.4	6.07e-01	0	60	0	334495744	55	5183
2026-01-22 13:13:56.73	249.12	17.78	-41.9	-45.2	18.3	6.05e-01	0	60	0	336068608	55	5238
2026-01-22 13:13:57.74	249.38	17.83	-41.9	-45.2	18.3	6.08e-01	0	60	0	338165760	55	5233
2026-01-22 13:13:58.75	249.64	17.88	-41.9	-45.1	18.4	6.06e-01	0	60	0	339738624	55	5168
2026-01-22 13:13:59.75	249.90	17.92	-41.9	-45.2	18.3	6.07e-01	0	60	0	341835776	55	5249
2026-01-22 13:14:00.76	250.16	17.97	-41.9	-45.2	18.2	6.09e-01	0	60	0	343932928	55	5271
2026-01-22 13:14:01.77	250.42	18.01	-41.9	-45.2	18.3	6.06e-01	0	60	0	345505792	55	5221
2026-01-22 13:14:02.78	250.68	18.06	-41.9	-45.1	18.4	6.05e-01	0	60	0	347602944	55	5218
2026-01-22 13:14:03.79	250.95	18.10	-41.9	-45.1	18.4	6.06e-01	0	60	0	349175808	55	5192
2026-01-22 13:14:04.80	251.21	18.15	-41.9	-45.2	18.3	6.06e-01	0	60	0	351272960	55	5244
2026-01-22 13:14:05.81	251.48	18.19	-41.9	-45.1	18.4	6.05e-01	0	60	0	353370112	55	5188
2026-01-22 13:14:06.82	251.74	18.24	-42.0	-45.2	18.3	6.08e-01	0	60	0	354942976	55	5270
2026-01-22 13:14:07.83	252.01	18.28	-42.0	-45.3	18.2	6.08e-01	0	60	0	357040128	55	5308
2026-01-22 13:14:08.84	252.27	18.32	-42.0	-45.3	18.2	6.04e-01	0	60	0	359137280	55	5330
2026-01-22 13:14:09.85	252.54	18.36	-42.0	-45.3	18.2	6.07e-01	0	60	0	360710144	55	5323
2026-01-22 13:14:10.86	252.81	18.40	-42.0	-45.3	18.3	6.06e-01	0	60	0	362807296	55	5286
2026-01-22 13:14:11.87	253.08	18.44	-42.0	-45.3	18.2	6.06e-01	0	60	0	364380160	55	5305
2026-01-22 13:14:12.87	253.35	18.48	-42.1	-45.4	18.1	6.06e-01	0	60	0	366477312	55	5375
2026-01-22 13:14:13.89	253.62	18.52	-42.1	-45.4	18.1	6.07e-01	0	60	0	368574464	55	5401
2026-01-22 13:14:14.89	253.89	18.56	-42.1	-45.4	18.1	6.07e-01	0	60	0	370147328	55	5401
2026-01-22 13:14:15.90	254.16	18.60	-42.1	-45.5	18.0	6.06e-01	0	60	0	372244480	55	5458
2026-01-22 13:14:16.91	254.44	18.64	-42.0	-45.3	18.2	6.05e-01	0	60	0	373817344	55	5301
2026-01-22 13:14:17.92	254.71	18.68	-41.9	-45.2	18.3	6.06e-01	0	60	0	375914496	55	5248
2026-01-22 13:14:18.93	254.98	18.71	-42.0	-45.3	18.3	6.07e-01	0	60	0	378011648	55	5286
2026-01-22 13:14:19.94	255.26	18.75	-41.9	-45.2	18.3	6.04e-01	0	60	0	379584512	55	5244
2026-01-22 13:14:20.95	255.54	18.79	-42.0	-45.3	18.3	6.07e-01	0	60	0	381681664	55	5283
2026-01-22 13:14:21.96	255.81	18.82	-42.0	-45.3	18.2	6.07e-01	0	60	0	383254528	55	5289
2026-01-22 13:14:22.97	256.09	18.85	-42.0	-45.3	18.2	6.05e-01	0	60	0	385351680	55	5339
2026-01-22 13:14:23.98	256.37	18.89	-42.0	-45.4	18.1	6.07e-01	0	60	0	387448832	55	5367
2026-01-22 13:14:24.99	256.65	18.92	-42.1	-45.4	18.1	6.05e-01	0	60	0	389021696	55	5387
2026-01-22 13:14:26.00	256.92	18.96	-42.1	-45.4	18.1	6.07e-01	0	60	0	391118848	55	5391
2026-01-22 13:14:27.00	257.20	18.99	-42.1	-45.5	18.1	6.05e-01	0	60	0	392691712	55	5410
2026-01-22 13:14:28.01	257.48	19.02	-41.9	-45.2	18.3	6.07e-01	0	60	0	394788864	55	5261
2026-01-22 13:14:29.02	257.76	19.05	-42.0	-45.3	18.2	6.07e-01	0	60	0	396886016	55	5319
2026-01-22 13:14:30.03	258.04	19.08	-42.1	-45.4	18.1	6.06e-01	0	61	0	398458880	55	5382
2026-01-22 13:14:31.04	258.33	19.11	-42.1	-45.4	18.1	6.06e-01	0	60	0	400556032	55	5390
2026-01-22 13:14:32.05	258.61	19.14	-42.0	-45.3	18.2	6.06e-01	0	60	0	402128896	55	5287
2026-01-22 13:14:33.06	258.89	19.17	-42.0	-45.3	18.2	6.04e-01	0	60	0	404226048	55	5311
2026-01-22 13:14:34.06	259.17	19.20	-42.0	-45.3	18.2	6.07e-01	0	60	0	406323200	55	5312
2026-01-22 13:14:35.07	259.46	19.22	-42.0	-45.3	18.2	6.07e-01	0	60	0	407896064	55	5308
2026-01-22 13:14:36.08	259.74	19.25	-42.0	-45.3	18.2	6.08e-01	0	60	0	409993216	55	5340
2026-01-22 13:14:37.09	260.03	19.28	-42.1	-45.5	18.0	6.07e-01	0	60	0	412090368	55	5436
2026-01-22 13:14:38.10	260.31	19.30	-42.2	-45.6	17.9	6.07e-01	0	61	0	413663232	55	5498
2026-01-22 13:14:39.11	260.60	19.33	-42.2	-45.6	17.9	6.06e-01	0	60	0	415760384	55	5522
2026-01-22 13:14:40.12	260.89	19.35	-42.2	-45.6	17.9	6.06e-01	0	60	0	417333248	55	5477
2026-01-22 13:14:41.13	261.17	19.37	-42.1	-45.4	18.1	6.04e-01	0	60	0	419430400	55	5387
2026-01-22 13:14:42.14	261.46	19.40	-42.0	-45.3	18.2	6.06e-01	0	60	0	421527552	55	5323
2026-01-22 13:14:43.15	261.75	19.42	-42.0	-45.3	18.2	6.07e-01	0	60	0	423100416	55	5312
2026-01-22 13:14:44.16	262.04	19.44	-42.1	-45.5	18.0	6.07e-01	0	60	0	425197568	55	5410
2026-01-22 13:14:45.17	262.33	19.46	-42.1	-45.4	18.1	6.06e-01	0	60	0	427294720	55	5371
2026-01-22 13:14:46.18	262.61	19.48	-42.1	-45.5	18.1	6.05e-01	0	60	0	428867584	55	5403
2026-01-22 13:14:47.19	262.90	19.50	-42.1	-45.5	18.0	6.05e-01	0	61	0	430964736	55	5441
2026-01-22 13:14:48.19	263.19	19.52	-42.1	-45.6	18.0	6.06e-01	0	60	0	432537600	55	5466
2026-01-22 13:14:49.20	263.48	19.54	-42.1	-45.5	18.0	6.06e-01	0	61	0	434634752	55	5454
2026-01-22 13:14:50.21	263.77	19.56	-42.1	-45.5	18.0	6.07e-01	0	60	0	436731904	55	5428
2026-01-22 13:14:51.22	264.06	19.57	-42.1	-45.5	18.0	6.07e-01	0	61	0	438304768	55	5417
2026-01-22 13:14:52.23	264.35	19.59	-42.1	-45.5	18.1	6.07e-01	0	60	0	440401920	55	5408
2026-01-22 13:14:53.24	264.65	19.60	-42.2	-45.6	17.9	6.06e-01	0	61	0	441974784	55	5490
2026-01-22 13:14:54.25	264.94	19.62	-42.2	-45.6	18.0	6.07e-01	0	61	0	444071936	55	5477
2026-01-22 13:14:55.26	265.23	19.63	-42.1	-45.5	18.1	6.05e-01	0	60	0	446169088	55	5423
2026-01-22 13:14:56.27	265.52	19.65	-42.2	-45.6	17.9	6.05e-01	0	61	0	447741952	55	5514
2026-01-22 13:14:57.28	265.81	19.66	-42.1	-45.5	18.0	6.06e-01	0	61	0	449839104	55	5451
2026-01-22 13:14:58.29	266.11	19.67	-42.1	-45.4	18.1	6.06e-01	0	60	0	451411968	55	5399
2026-01-22 13:14:59.30	266.40	19.68	-42.1	-45.4	18.1	6.06e-01	0	60	0	453509120	55	5388
2026-01-22 13:15:00.31	266.69	19.69	-42.1	-45.5	18.0	6.06e-01	0	61	0	455606272	55	5460
2026-01-22 13:15:01.32	266.99	19.70	-42.2	-45.6	18.0	6.05e-01	0	61	0	457179136	55	5470
2026-01-22 13:15:02.33	267.28	19.71	-42.2	-45.6	18.0	6.06e-01	0	61	0	459276288	55	5475
2026-01-22 13:15:03.34	267.57	19.72	-42.1	-45.5	18.0	6.08e-01	0	61	0	460849152	55	5440
2026-01-22 13:15:04.35	267.87	19.73	-42.0	-45.4	18.1	6.06e-01	0	60	0	462946304	55	5347
2026-01-22 13:15:05.36	268.16	19.73	-42.1	-45.4	18.1	6.05e-01	0	60	0	465043456	55	5394
2026-01-22 13:15:06.36	268.45	19.74	-42.2	-45.6	18.0	6.05e-01	0	61	0	466616320	55	5476
2026-01-22 13:15:07.37	268.75	19.75	-42.1	-45.5	18.0	6.06e-01	0	61	0	468713472	55	5459
2026-01-22 13:15:08.38	269.04	19.75	-42.1	-45.4	18.1	6.06e-01	0	61	0	470286336	55	5385
2026-01-22 13:15:09.39	269.34	19.75	-42.0	-45.4	18.2	6.04e-01	0	60	0	472383488	55	5343
2026-01-22 13:15:10.40	269.63	19.76	-42.0	-45.4	18.2	6.03e-01	0	60	0	474480640	55	5351
2026-01-22 13:15:11.41	269.93	19.76	-42.1	-45.5	18.1	6.07e-01	0	61	0	476053504	55	5411
2026-01-22 13:15:12.42	270.22	19.76	-42.2	-45.6	17.9	6.06e-01	0	61	0	478150656	55	5485
2026-01-22 13:15:13.43	270.52	19.76	-42.1	-45.4	18.1	6.08e-01	0	61	0	480247808	55	5400
2026-01-22 13:15:14.44	270.81	19.76	-42.1	-45.5	18.1	6.07e-01	0	61	0	481820672	55	5405
2026-01-22 13:15:15.45	271.10	19.76	-42.2	-45.6	18.0	6.05e-01	0	61	0	483917824	55	5480
2026-01-22 13:15:16.46	271.40	19.76	-42.0	-45.4	18.1	6.09e-01	0	61	0	485490688	55	5367
2026-01-22 13:15:17.47	271.69	19.76	-42.1	-45.4	18.1	6.05e-01	0	61	0	487587840	55	5372
2026-01-22 13:15:18.48	271.99	19.76	-42.2	-45.6	17.9	6.05e-01	0	61	0	489684992	55	5488
2026-01-22 13:15:19.49	272.28	19.75	-42.1	-45.6	18.0	6.06e-01	0	61	0	491257856	55	5466
2026-01-22 13:15:20.50	272.58	19.75	-42.2	-45.6	18.0	6.07e-01	0	61	0	493355008	55	5470
2026-01-22 13:15:21.51	272.87	19.75	-42.1	-45.5	18.0	6.05e-01	0	61	0	495452160	55	5418
2026-01-22 13:15:22.52	273.17	19.74	-42.1	-45.4	18.1	6.07e-01	0	61	0	497025024	55	5382
2026-01-22 13:15:23.53	273.46	19.74	-42.1	-45.5	18.1	6.06e-01	0	60	0	499122176	55	5412
2026-01-22 13:15:24.54	273.75	19.73	-42.1	-45.5	18.1	6.07e-01	0	60	0	500695040	55	5415
2026-01-22 13:15:25.55	274.05	19.72	-42.1	-45.5	18.0	6.06e-01	0	61	0	502792192	55	5462
2026-01-22 13:15:26.56	274.34	19.71	-42.1	-45.5	18.0	6.06e-01	0	61	0	504889344	55	5414
2026-01-22 13:15:27.57	274.64	19.70	-42.1	-45.4	18.1	6.07e-01	0	61	0	506462208	55	5398
2026-01-22 13:15:28.58	274.93	19.69	-42.0	-45.4	18.2	6.08e-01	0	61	0	508559360	55	5342
2026-01-22 13:15:29.59	275.22	19.68	-42.1	-45.5	18.0	6.06e-01	0	61	0	510132224	55	5413
2026-01-22 13:15:30.60	275.51	19.67	-42.1	-45.4	18.1	6.06e-01	0	61	0	512229376	55	5390
2026-01-22 13:15:31.61	275.81	19.66	-42.1	-45.6	17.9	6.07e-01	0	61	0	514326528	55	5483
2026-01-22 13:15:32.62	276.10	19.65	-42.2	-45.6	17.9	6.07e-01	0	61	0	515899392	55	5517
2026-01-22 13:15:33.63	276.39	19.64	-42.2	-45.6	17.9	6.04e-01	0	61	0	517996544	55	5493
2026-01-22 13:15:34.64	276.68	19.62	-42.2	-45.6	17.8	6.05e-01	0	61	0	519569408	55	5520
2026-01-22 13:15:35.65	276.97	19.61	-42.1	-45.5	18.0	6.06e-01	0	61	0	521666560	55	5426
2026-01-22 13:15:36.66	277.27	19.59	-42.1	-45.5	18.0	6.06e-01	0	61	0	523763712	55	5456
2026-01-22 13:15:37.67	277.56	19.58	-42.2	-45.6	17.9	6.07e-01	0	61	0	525336576	55	5494
2026-01-22 13:15:38.67	277.84	19.56	-42.1	-45.6	18.0	6.05e-01	0	61	0	527433728	55	5469
2026-01-22 13:15:39.68	278.13	19.54	-42.1	-45.5	18.0	6.06e-01	0	61	0	529006592	55	5459
2026-01-22 13:15:40.69	278.42	19.53	-42.2	-45.6	17.9	6.09e-01	0	61	0	531103744	55	5509
2026-01-22 13:15:41.70	278.71	19.51	-42.2	-45.6	17.9	6.07e-01	0	61	0	533200896	55	5507
2026-01-22 13:15:42.71	279.00	19.49	-42.2	-45.6	17.9	6.05e-01	0	61	0	534773760	55	5488
2026-01-22 13:15:43.72	279.29	19.47	-42.1	-45.5	18.0	6.07e-01	0	61	0	536870912	55	5426
2026-01-22 13:15:44.73	279.58	19.45	-42.1	-45.5	18.0	6.05e-01	0	61	0	538443776	55	5406
2026-01-22 13:15:45.74	279.87	19.43	-42.1	-45.5	18.0	6.07e-01	0	61	0	540540928	55	5460
2026-01-22 13:15:46.75	280.16	19.40	-42.1	-45.5	18.0	6.06e-01	0	61	0	542638080	55	5425
2026-01-22 13:15:47.76	280.44	19.38	-42.1	-45.5	18.0	6.06e-01	0	61	0	544210944	55	5418
2026-01-22 13:15:48.77	280.73	19.36	-42.1	-45.6	17.9	6.07e-01	0	61	0	546308096	55	5471
2026-01-22 13:15:49.78	281.02	19.33	-42.2	-45.6	17.9	6.09e-01	0	61	0	548405248	55	5494
2026-01-22 13:15:50.79	281.30	19.31	-42.2	-45.7	17.8	6.06e-01	0	61	0	549978112	55	5544
2026-01-22 13:15:51.80	281.59	19.28	-42.1	-45.5	18.0	6.06e-01	0	61	0	552075264	55	5410
2026-01-22 13:15:52.81	281.87	19.26	-42.1	-45.4	18.0	6.06e-01	0	61	0	553648128	55	5388
2026-01-22 13:15:53.82	282.16	19.23	-42.0	-45.4	18.1	6.06e-01	0	61	0	555745280	55	5384
2026-01-22 13:15:54.83	282.44	19.20	-42.1	-45.5	18.0	6.06e-01	0	61	0	557842432	55	5456
2026-01-22 13:15:55.84	282.72	19.18	-42.1	-45.5	18.0	6.05e-01	0	61	0	559415296	55	5427
2026-01-22 13:15:56.84	283.00	19.15	-42.0	-45.4	18.1	6.06e-01	0	61	0	561512448	55	5373
2026-01-22 13:15:57.85	283.28	19.12	-42.0	-45.3	18.1	6.04e-01	0	61	0	563085312	55	5326
2026-01-22 13:15:58.86	283.56	19.09	-42.0	-45.3	18.1	6.07e-01	0	61	0	565182464	55	5335
2026-01-22 13:15:59.87	283.85	19.06	-42.1	-45.5	18.0	6.05e-01	0	61	0	567279616	55	5426
2026-01-22 13:16:00.88	284.13	19.03	-42.1	-45.5	17.9	6.04e-01	0	61	0	568852480	55	5450
2026-01-22 13:16:01.89	284.41	19.00	-42.0	-45.4	18.0	6.05e-01	0	61	0	570949632	55	5374
2026-01-22 13:16:02.90	284.68	18.97	-42.0	-45.4	18.0	6.04e-01	0	61	0	572522496	55	5379
2026-01-22 13:16:03.91	284.96	18.93	-42.0	-45.4	18.0	6.05e-01	0	61	0	574619648	55	5399
2026-01-22 13:16:04.92	285.24	18.90	-42.1	-45.5	17.9	6.07e-01	0	61	0	576716800	55	5430
2026-01-22 13:16:05.93	285.52	18.87	-42.1	-45.5	17.9	6.06e-01	0	61	0	578289664	55	5443
2026-01-22 13:16:06.94	285.79	18.83	-42.1	-45.4	18.0	6.07e-01	0	61	0	580386816	55	5400
2026-01-22 13:16:07.95	286.07	18.80	-42.1	-45.5	18.0	6.06e-01	0	61	0	581959680	55	5418
2026-01-22 13:16:08.96	286.35	18.76	-42.1	-45.5	17.9	6.07e-01	0	60	0	584056832	55	5428
2026-01-22 13:16:09.97	286.62	18.73	-42.2	-45.7	17.7	6.05e-01	0	61	0	586153984	55	5578
2026-01-22 13:16:10.97	286.89	18.69	-42.1	-45.6	17.8	6.05e-01	0	61	0	587726848	55	5474
2026-01-22 13:16:11.98	287.16	18.65	-42.1	-45.5	17.9	6.05e-01	0	61	0	589824000	55	5415
2026-01-22 13:16:12.99	287.44	18.62	-42.1	-45.6	17.8	6.06e-01	0	61	0	591921152	55	5477
2026-01-22 13:16:14.00	287.71	18.58	-42.0	-45.4	18.0	6.06e-01	0	61	0	593494016	55	5401
2026-01-22 13:16:15.01	287.98	18.54	-42.1	-45.6	17.8	6.05e-01	0	61	0	595591168	55	5494
2026-01-22 13:16:16.02	288.25	18.50	-42.1	-45.6	17.8	6.06e-01	0	61	0	597164032	55	5465
2026-01-22 13:16:17.03	288.52	18.46	-42.0	-45.4	17.9	6.04e-01	0	61	0	599261184	55	5390
2026-01-22 13:16:18.04	288.79	18.42	-42.0	-45.3	18.1	6.06e-01	0	61	0	601358336	55	5321
2026-01-22 13:16:19.05	289.06	18.38	-42.0	-45.4	18.0	6.08e-01	0	61	0	602931200	55	5393
2026-01-22 13:16:20.06	289.32	18.34	-42.1	-45.5	17.9	6.05e-01	0	61	0	605028352	55	5426
2026-01-22 13:16:21.07	289.59	18.29	-42.0	-45.4	18.0	6.05e-01	0	61	0	606601216	55	5378
2026-01-22 13:16:22.08	289.86	18.25	-42.0	-45.5	17.9	6.07e-01	0	61	0	608698368	55	5407
2026-01-22 13:16:23.08	290.12	18.21	-42.0	-45.4	18.0	6.05e-01	0	61	0	610795520	55	5396
2026-01-22 13:16:24.09	290.38	18.17	-42.1	-45.6	17.8	6.05e-01	0	61	0	612368384	55	5468
2026-01-22 13:16:25.10	290.64	18.12	-42.1	-45.5	17.9	6.06e-01	0	61	0	614465536	55	5415
2026-01-22 13:16:26.11	290.91	18.08	-42.1	-45.5	17.9	6.08e-01	0	61	0	616562688	55	5459
2026-01-22 13:16:27.12	291.17	18.03	-42.1	-45.5	17.9	6.06e-01	0	61	0	618135552	55	5419
2026-01-22 13:16:28.13	291.43	17.99	-42.0	-45.4	18.0	6.07e-01	0	61	0	620232704	55	5363
2026-01-22 13:16:29.14	291.69	17.94	-42.0	-45.5	17.9	6.07e-01	0	61	0	621805568	55	5405
2026-01-22 13:16:30.15	291.95	17.90	-42.1	-45.5	17.9	6.05e-01	0	61	0	623902720	55	5440
2026-01-22 13:16:31.16	292.21	17.85	-42.1	-45.6	17.8	6.07e-01	0	61	0	625999872	55	5472
2026-01-22 13:16:32.17	292.47	17.80	-42.0	-45.4	18.0	6.05e-01	0	61	0	627572736	55	5389
2026-01-22 13:16:33.18	292.72	17.76	-41.9	-45.3	18.1	6.06e-01	0	61	0	629669888	55	5309
2026-01-22 13:16:34.19	292.98	17.71	-42.0	-45.3	18.0	6.08e-01	0	61	0	631242752	55	5337
2026-01-22 13:16:35.20	293.23	17.66	-41.9	-45.3	18.1	6.05e-01	0	61	0	633339904	55	5316
2026-01-22 13:16:36.21	293.49	17.61	-42.0	-45.4	18.0	6.04e-01	0	61	0	635437056	55	5362
2026-01-22 13:16:37.22	293.74	17.56	-42.0	-45.4	18.0	6.08e-01	0	61	0	637009920	55	5372
2026-01-22 13:16:38.23	293.99	17.51	-42.0	-45.5	17.9	6.07e-01	0	61	0	639107072	55	5419
2026-01-22 13:16:39.24	294.24	17.46	-42.0	-45.4	17.9	6.08e-01	0	61	0	640679936	55	5398
2026-01-22 13:16:40.24	294.49	17.41	-41.9	-45.3	18.1	6.07e-01	0	61	0	642777088	55	5294
2026-01-22 13:16:41.25	294.74	17.36	-41.9	-45.2	18.1	6.05e-01	0	61	0	644874240	55	5276
2026-01-22 13:16:42.26	294.99	17.31	-41.9	-45.2	18.1	6.07e-01	0	61	0	646447104	55	5265
2026-01-22 13:16:43.27	295.24	17.26	-41.9	-45.3	18.0	6.06e-01	0	61	0	648544256	55	5324
2026-01-22 13:16:44.28	295.49	17.21	-41.9	-45.3	18.0	6.05e-01	0	61	0	650117120	55	5323
2026-01-22 13:16:45.29	295.73	17.16	-41.9	-45.3	18.0	6.04e-01	0	61	0	652214272	55	5325
2026-01-22 13:16:46.30	295.98	17.10	-42.0	-45.4	18.0	6.04e-01	0	61	0	654311424	55	5376
2026-01-22 13:16:47.31	296.22	17.05	-42.0	-45.4	18.0	6.06e-01	0	61	0	655884288	55	5360
2026-01-22 13:16:48.32	296.47	17.00	-42.0	-45.4	17.9	6.06e-01	0	61	0	657981440	55	5360
2026-01-22 13:16:49.33	296.71	16.95	-42.0	-45.5	17.8	6.06e-01	0	61	0	660078592	55	5414
2026-01-22 13:16:50.34	296.95	16.89	-42.0	-45.4	17.9	6.06e-01	0	61	0	661651456	55	5382
2026-01-22 13:16:51.35	297.19	16.84	-41.9	-45.2	18.1	6.05e-01	0	61	0	663748608	55	5239
2026-01-22 13:16:52.36	297.43	16.78	-41.9	-45.3	18.1	6.04e-01	0	61	0	665321472	55	5280
2026-01-22 13:16:53.37	297.67	16.73	-42.0	-45.4	17.9	6.07e-01	0	61	0	667418624	55	5362
2026-01-22 13:16:54.38	297.91	16.67	-42.0	-45.4	17.9	6.07e-01	0	61	0	669515776	55	5378
2026-01-22 13:16:55.39	298.15	16.62	-42.0	-45.4	17.9	6.06e-01	0	61	0	671088640	55	5402
2026-01-22 13:16:56.40	298.38	16.56	-42.0	-45.5	17.9	6.06e-01	0	61	0	673185792	55	5406
2026-01-22 13:16:57.41	298.62	16.51	-42.0	-45.4	17.9	6.06e-01	0	61	0	674758656	55	5369
2026-01-22 13:16:58.41	298.85	16.45	-41.9	-45.4	17.9	6.06e-01	0	61	0	676855808	55	5350
2026-01-22 13:16:59.42	299.09	16.39	-42.0	-45.4	17.9	6.08e-01	0	61	0	678952960	55	5382
2026-01-22 13:17:00.43	299.32	16.34	-41.9	-45.3	18.0	6.08e-01	0	61	0	680525824	55	5298
2026-01-22 13:17:01.44	299.55	16.28	-41.9	-45.3	18.0	6.06e-01	0	61	0	682622976	55	5307
2026-01-22 13:17:02.45	299.78	16.22	-41.9	-45.3	18.0	6.07e-01	0	61	0	684195840	55	5332
2026-01-22 13:17:03.46	300.01	16.16	-41.9	-45.3	18.0	6.08e-01	0	61	0	686292992	55	5328
2026-01-22 13:17:04.47	300.24	16.11	-41.9	-45.3	18.0	6.05e-01	0	61	0	688390144	55	5296
2026-01-22 13:17:05.48	300.47	16.05	-41.9	-45.3	18.0	6.06e-01	0	61	0	689963008	55	5338
2026-01-22 13:17:06.49	300.69	15.99	-42.0	-45.4	17.9	6.08e-01	0	61	0	692060160	55	5365
2026-01-22 13:17:07.49	300.92	15.93	-42.0	-45.4	17.9	6.08e-01	0	61	0	693633024	55	5373
2026-01-22 13:17:08.50	301.14	15.87	-42.0	-45.4	17.9	6.07e-01	0	61	0	695730176	55	5381
2026-01-22 13:17:09.51	301.37	15.81	-42.0	-45.4	17.9	6.06e-01	0	61	0	697827328	55	5385
2026-01-22 13:17:10.52	301.59	15.75	-42.0	-45.4	18.0	6.07e-01	0	61	0	699400192	55	5358
2026-01-22 13:17:11.53	301.81	15.69	-42.0	-45.4	18.0	6.08e-01	0	61	0	701497344	55	5348
2026-01-22 13:17:12.54	302.04	15.63	-41.9	-45.3	18.0	6.04e-01	0	61	0	703070208	55	5296
2026-01-22 13:17:13.55	302.26	15.57	-41.9	-45.3	18.0	6.05e-01	0	61	0	705167360	55	5332
2026-01-22 13:17:14.56	302.48	15.51	-42.0	-45.4	17.9	6.07e-01	0	61	0	707264512	55	5379
2026-01-22 13:17:15.57	302.70	15.45	-42.0	-45.5	17.8	6.04e-01	0	61	0	708837376	55	5418
2026-01-22 13:17:16.58	302.91	15.39	-41.9	-45.4	17.9	6.04e-01	0	61	0	710934528	55	5346
2026-01-22 13:17:17.58	303.13	15.33	-42.0	-45.5	17.8	6.06e-01	0	61	0	713031680	55	5449
2026-01-22 13:17:18.59	303.34	15.27	-42.0	-45.5	17.8	6.05e-01	0	61	0	714604544	55	5443
2026-01-22 13:17:19.60	303.56	15.21	-42.0	-45.6	17.7	6.07e-01	0	61	0	716701696	55	5467
2026-01-22 13:17:20.61	303.77	15.15	-42.0	-45.4	17.9	6.05e-01	0	61	0	718274560	55	5370
2026-01-22 13:17:21.62	303.99	15.09	-42.0	-45.4	17.9	6.03e-01	0	61	0	720371712	55	5377
2026-01-22 13:17:22.63	304.20	15.02	-42.0	-45.5	17.9	6.04e-01	0	61	0	722468864	55	5407
2026-01-22 13:17:23.64	304.41	14.96	-42.0	-45.5	17.8	6.07e-01	0	61	0	724041728	55	5437
2026-01-22 13:17:24.65	304.62	14.90	-42.0	-45.5	17.8	6.07e-01	0	61	0	726138880	55	5420
2026-01-22 13:17:25.66	304.83	14.84	-42.1	-45.6	17.7	6.07e-01	0	61	0	728236032	55	5484
2026-01-22 13:17:26.67	305.04	14.77	-42.0	-45.5	17.8	6.06e-01	0	61	0	729808896	55	5406
2026-01-22 13:17:27.68	305.25	14.71	-42.0	-45.5	17.8	6.06e-01	0	61	0	731906048	55	5433
2026-01-22 13:17:28.69	305.45	14.65	-42.0	-45.5	17.8	6.06e-01	0	61	0	733478912	55	5449
2026-01-22 13:17:29.70	305.66	14.59	-42.0	-45.5	17.8	6.05e-01	0	61	0	735576064	55	5430
2026-01-22 13:17:30.71	305.86	14.52	-42.0	-45.5	17.8	6.07e-01	0	61	0	737673216	55	5433
2026-01-22 13:17:31.72	306.07	14.46	-42.0	-45.6	17.7	6.04e-01	0	61	0	739246080	55	5477
2026-01-22 13:17:32.72	306.27	14.40	-42.1	-45.6	17.7	6.03e-01	0	61	0	741343232	55	5515
2026-01-22 13:17:33.73	306.47	14.33	-42.0	-45.5	17.8	6.05e-01	0	61	0	742916096	55	5457
2026-01-22 13:17:34.74	306.67	14.27	-42.0	-45.6	17.7	6.05e-01	0	61	0	745013248	55	5469
2026-01-22 13:17:35.75	306.87	14.21	-41.9	-45.3	17.9	6.08e-01	0	61	0	746586112	55	5338
2026-01-22 13:17:36.76	307.07	14.14	-41.9	-45.4	17.9	6.06e-01	0	61	0	748683264	55	5351
2026-01-22 13:17:37.77	307.27	14.08	-42.0	-45.5	17.8	6.07e-01	0	61	0	750780416	55	5429
2026-01-22 13:17:38.78	307.47	14.01	-42.0	-45.5	17.8	6.05e-01	0	61	0	752353280	55	5409
2026-01-22 13:17:39.79	307.67	13.95	-42.0	-45.5	17.7	6.06e-01	0	61	0	754450432	55	5441
2026-01-22 13:17:40.79	307.86	13.89	-42.0	-45.5	17.7	6.03e-01	0	61	0	756547584	55	5438
2026-01-22 13:17:41.80	308.05	13.82	-42.0	-45.5	17.8	6.05e-01	0	61	0	758120448	55	5427
2026-01-22 13:17:42.81	308.25	13.76	-42.1	-45.6	17.6	6.06e-01	0	61	0	760217600	55	5509
2026-01-22 13:17:43.82	308.44	13.69	-42.0	-45.5	17.8	6.03e-01	0	61	0	761790464	55	5426
2026-01-22 13:17:44.83	308.63	13.63	-42.0	-45.5	17.8	6.05e-01	0	61	0	763887616	55	5434
2026-01-22 13:17:45.84	308.83	13.56	-42.0	-45.5	17.7	6.06e-01	0	61	0	765984768	55	5427
2026-01-22 13:17:46.85	309.02	13.50	-42.0	-45.5	17.7	6.06e-01	0	61	0	767557632	55	5462
2026-01-22 13:17:47.86	309.21	13.43	-42.0	-45.6	17.6	6.07e-01	0	61	0	769654784	55	5508
2026-01-22 13:17:48.87	309.39	13.37	-42.1	-45.7	17.5	6.09e-01	0	61	0	771227648	55	5561
2026-01-22 13:17:49.88	309.58	13.30	-42.1	-45.8	17.4	6.03e-01	0	61	0	773324800	55	5619
2026-01-22 13:17:50.88	309.77	13.24	-42.1	-45.7	17.5	6.05e-01	0	61	0	775421952	55	5572
2026-01-22 13:17:51.89	309.95	13.17	-42.1	-45.7	17.5	6.05e-01	0	61	0	776994816	55	5580
2026-01-22 13:17:52.90	310.14	13.11	-42.0	-45.6	17.6	6.07e-01	0	61	0	779091968	55	5478
2026-01-22 13:17:53.91	310.32	13.04	-42.0	-45.5	17.7	6.07e-01	0	61	0	781189120	55	5435
2026-01-22 13:17:54.92	310.51	12.98	-42.0	-45.6	17.6	6.07e-01	0	61	0	782761984	55	5474
2026-01-22 13:17:55.93	310.69	12.91	-42.0	-45.6	17.6	6.05e-01	0	61	0	784859136	55	5521
2026-01-22 13:17:56.94	310.87	12.85	-42.1	-45.6	17.6	6.08e-01	0	61	0	786432000	55	5520
2026-01-22 13:17:57.95	311.05	12.78	-42.0	-45.6	17.6	6.07e-01	0	61	0	788529152	55	5486
2026-01-22 13:17:58.96	311.23	12.71	-42.0	-45.6	17.6	6.06e-01	0	61	0	790626304	55	5497
2026-01-22 13:17:59.97	311.41	12.65	-42.0	-45.7	17.5	6.05e-01	0	61	0	792199168	55	5536
2026-01-22 13:18:00.98	311.59	12.58	-42.0	-45.7	17.5	6.07e-01	0	61	0	794296320	55	5543
2026-01-22 13:18:01.99	311.77	12.52	-42.1	-45.8	17.4	6.06e-01	0	61	0	795869184	55	5618
2026-01-22 13:18:02.99	311.95	12.45	-42.1	-45.8	17.4	6.07e-01	0	61	0	797966336	55	5595
2026-01-22 13:18:04.00	312.12	12.39	-42.1	-45.8	17.3	6.04e-01	0	61	0	799539200	55	5652
2026-01-22 13:18:05.01	312.30	12.32	-42.1	-45.8	17.4	6.03e-01	0	61	0	801636352	55	5601
2026-01-22 13:18:06.02	312.47	12.26	-42.0	-45.7	17.4	6.09e-01	0	61	0	803733504	55	5579
2026-01-22 13:18:07.03	312.65	12.19	-42.1	-45.8	17.4	6.05e-01	0	61	0	805306368	55	5629
2026-01-22 13:18:08.03	312.82	12.12	-42.1	-45.9	17.3	6.04e-01	0	61	0	807403520	55	5684
2026-01-22 13:18:09.04	312.99	12.06	-42.2	-45.9	17.2	6.07e-01	0	61	0	809500672	55	5703
2026-01-22 13:18:10.05	313.16	11.99	-42.2	-45.9	17.2	6.06e-01	0	61	0	811073536	55	5711
2026-01-22 13:18:11.06	313.33	11.93	-42.1	-45.9	17.3	6.07e-01	0	61	0	813170688	55	5671
2026-01-22 13:18:12.07	313.50	11.86	-42.2	-46.0	17.1	6.06e-01	0	61	0	814743552	55	5776
2026-01-22 13:18:13.08	313.67	11.79	-42.2	-46.0	17.2	6.07e-01	0	61	0	816840704	55	5723
2026-01-22 13:18:14.09	313.84	11.73	-42.1	-45.8	17.3	6.04e-01	0	61	0	818937856	55	5623
2026-01-22 13:18:15.10	314.00	11.66	-42.0	-45.8	17.4	6.07e-01	0	61	0	820510720	55	5602
2026-01-22 13:18:16.11	314.17	11.60	-42.0	-45.8	17.3	6.06e-01	0	61	0	822607872	55	5617
2026-01-22 13:18:17.12	314.34	11.53	-42.1	-45.8	17.3	6.07e-01	0	61	0	824705024	55	5650
2026-01-22 13:18:18.13	314.50	11.46	-42.1	-45.9	17.2	6.06e-01	0	61	0	826277888	55	5668
2026-01-22 13:18:19.14	314.67	11.40	-42.1	-45.9	17.2	6.08e-01	0	61	0	828375040	55	5701
2026-01-22 13:18:20.15	314.83	11.33	-42.1	-45.9	17.2	6.04e-01	0	61	0	829947904	55	5702
2026-01-22 13:18:21.15	314.99	11.27	-42.1	-45.9	17.2	6.07e-01	0	61	0	832045056	55	5710
2026-01-22 13:18:22.16	315.15	11.20	-42.1	-46.0	17.1	6.06e-01	0	61	0	834142208	55	5738
2026-01-22 13:18:23.17	315.31	11.13	-42.2	-46.0	17.0	6.08e-01	0	61	0	835715072	55	5784
2026-01-22 13:18:24.18	315.47	11.07	-42.1	-45.9	17.2	6.05e-01	0	61	0	837812224	55	5714
2026-01-22 13:18:25.19	315.63	11.00	-42.2	-46.0	17.1	6.08e-01	0	61	0	839385088	55	5781
2026-01-22 13:18:26.20	315.79	10.94	-42.2	-46.0	17.0	6.07e-01	0	61	0	841482240	55	5783
2026-01-22 13:18:27.21	315.95	10.87	-42.2	-46.0	17.1	6.05e-01	0	61	0	843579392	55	5749
2026-01-22 13:18:28.22	316.11	10.80	-42.2	-46.1	17.0	6.08e-01	0	61	0	845152256	55	5789
2026-01-22 13:18:29.23	316.26	10.74	-42.1	-45.9	17.1	6.05e-01	0	61	0	847249408	55	5722
2026-01-22 13:18:30.23	316.42	10.67	-42.1	-45.9	17.1	6.06e-01	0	61	0	848822272	55	5721
2026-01-22 13:18:31.24	316.57	10.61	-42.1	-46.0	17.0	6.04e-01	0	61	0	850919424	55	5751
2026-01-22 13:18:32.25	316.73	10.54	-42.2	-46.1	16.9	6.06e-01	0	61	0	853016576	55	5814
2026-01-22 13:18:33.26	316.88	10.48	-42.2	-46.1	16.9	6.05e-01	0	61	0	854589440	55	5855
2026-01-22 13:18:34.27	317.03	10.41	-42.3	-46.2	16.8	6.04e-01	0	61	0	856686592	55	5905
2026-01-22 13:18:35.28	317.19	10.34	-42.3	-46.3	16.7	6.06e-01	0	61	0	858259456	55	5957
2026-01-22 13:18:36.29	317.34	10.28	-42.3	-46.3	16.7	6.09e-01	0	61	0	860356608	55	5992
2026-01-22 13:18:37.30	317.49	10.21	-42.3	-46.3	16.7	6.07e-01	0	61	0	862453760	55	5981
2026-01-22 13:18:38.31	317.64	10.15	-42.3	-46.4	16.6	6.06e-01	0	61	0	864026624	55	5996
2026-01-22 13:18:39.32	317.79	10.08	-42.3	-46.4	16.6	6.06e-01	0	61	0	866123776	55	6006
2026-01-22 13:18:40.33	317.94	10.02	-42.3	-46.3	16.7	6.05e-01	0	61	0	867696640	55	5925
2026-01-22 13:18:41.34	318.08	9.95	-42.3	-46.2	16.8	6.07e-01	0	61	0	869793792	55	5907
2026-01-22 13:18:42.35	318.23	9.88	-42.3	-46.2	16.8	6.06e-01	0	61	0	871890944	55	5906
2026-01-22 13:18:43.36	318.38	9.82	-42.3	-46.2	16.8	6.05e-01	0	61	0	873463808	55	5894
2026-01-22 13:18:44.36	318.52	9.75	-42.3	-46.2	16.8	6.07e-01	0	61	0	875560960	55	5907
2026-01-22 13:18:45.37	318.67	9.69	-42.3	-46.2	16.7	6.11e-01	0	61	0	877658112	55	5907
2026-01-22 13:18:46.38	318.81	9.62	-42.3	-46.3	16.7	6.05e-01	0	61	0	879230976	55	5929
2026-01-22 13:18:47.39	318.96	9.56	-42.3	-46.2	16.7	6.07e-01	0	61	0	881328128	55	5913
2026-01-22 13:18:48.40	319.10	9.49	-42.3	-46.2	16.7	6.07e-01	0	61	0	882900992	55	5922
2026-01-22 13:18:49.41	319.24	9.43	-42.2	-46.2	16.7	6.04e-01	0	61	0	884998144	55	5910
2026-01-22 13:18:50.42	319.38	9.36	-42.3	-46.3	16.7	6.06e-01	0	61	0	887095296	55	5930
2026-01-22 13:18:51.43	319.52	9.30	-42.3	-46.3	16.6	6.07e-01	0	61	0	888668160	55	5964
2026-01-22 13:18:52.44	319.66	9.23	-42.3	-46.4	16.5	6.06e-01	0	61	0	890765312	55	6047
2026-01-22 13:18:53.45	319.80	9.17	-42.4	-46.5	16.4	6.04e-01	0	61	0	892338176	55	6081
2026-01-22 13:18:54.46	319.94	9.10	-42.4	-46.6	16.4	6.05e-01	0	61	0	894435328	55	6137
2026-01-22 13:18:55.47	320.08	9.04	-42.4	-46.5	16.4	6.08e-01	0	61	0	896532480	55	6126
2026-01-22 13:18:56.48	320.22	8.97	-42.4	-46.5	16.4	6.05e-01	0	61	0	898105344	55	6122
2026-01-22 13:18:57.49	320.36	8.91	-42.4	-46.6	16.3	6.06e-01	0	61	0	900202496	55	6157
2026-01-22 13:18:58.50	320.49	8.84	-42.5	-46.8	16.1	6.08e-01	0	61	0	901775360	55	6279
2026-01-22 13:18:59.51	320.63	8.78	-42.4	-46.6	16.3	6.06e-01	0	61	0	903872512	55	6171
2026-01-22 13:19:00.52	320.77	8.71	-42.4	-46.6	16.3	6.05e-01	0	61	0	905969664	55	6169
2026-01-22 13:19:01.53	320.90	8.65	-42.4	-46.6	16.3	6.04e-01	0	61	0	907542528	55	6147
2026-01-22 13:19:02.54	321.03	8.58	-42.4	-46.6	16.2	6.05e-01	0	61	0	909639680	55	6171
2026-01-22 13:19:03.55	321.17	8.52	-42.4	-46.6	16.3	6.04e-01	0	61	0	911212544	55	6179
2026-01-22 13:19:04.56	321.30	8.46	-42.4	-46.6	16.2	6.08e-01	0	61	0	913309696	55	6180
2026-01-22 13:19:05.57	321.43	8.39	-42.4	-46.7	16.2	6.06e-01	0	61	0	915406848	55	6209
2026-01-22 13:19:06.58	321.56	8.33	-42.3	-46.5	16.3	6.06e-01	0	61	0	916979712	55	6130
2026-01-22 13:19:07.59	321.70	8.26	-42.4	-46.6	16.2	6.07e-01	0	61	0	919076864	55	6191
2026-01-22 13:19:08.60	321.83	8.20	-42.4	-46.7	16.2	6.05e-01	0	61	0	920649728	55	6228
2026-01-22 13:19:09.61	321.96	8.13	-42.4	-46.7	16.1	6.05e-01	0	61	0	922746880	55	6265
2026-01-22 13:19:10.62	322.09	8.07	-42.5	-46.8	16.0	6.06e-01	0	61	0	924844032	55	6314
2026-01-22 13:19:11.63	322.21	8.01	-44.7	-57.3	3.9	7.23e-01	0	61	104	926416896	60	15941
2026-01-22 13:19:12.64	322.34	7.94	-45.4	-63.7	3.8	7.45e-01	0	61	104	926416896	61	31091
2026-01-22 13:19:13.65	322.47	7.88	-45.7	-64.0	3.8	7.45e-01	0	61	104	926416896	61	32503
2026-01-22 13:19:14.66	322.60	7.82	-45.9	-64.5	3.8	7.44e-01	0	61	104	926416896	62	32313
2026-01-22 13:19:15.67	322.72	7.75	-46.1	-64.6	3.8	7.42e-01	0	61	104	926416896	62	32845
2026-01-22 13:19:16.68	322.85	7.69	-46.2	-64.7	3.8	7.43e-01	0	61	104	926416896	62	33299
2026-01-22 13:19:17.69	322.97	7.62	-46.2	-64.8	3.8	7.45e-01	0	61	104	926416896	63	31753
2026-01-22 13:19:18.70	323.10	7.56	-46.3	-64.9	3.8	7.46e-01	0	61	104	926416896	63	31893
2026-01-22 13:19:19.71	323.22	7.50	-45.8	-64.9	3.8	7.45e-01	0	61	104	926416896	63	31989
2026-01-22 13:19:20.72	323.35	7.43	-46.3	-64.9	3.8	7.45e-01	0	61	104	926416896	63	31811
2026-01-22 13:19:21.73	323.47	7.37	-46.2	-64.8	3.8	7.44e-01	0	61	104	926416896	63	31467
2026-01-22 13:19:22.73	323.59	7.31	-46.2	-64.6	3.8	7.45e-01	0	61	104	926416896	62	32913
2026-01-22 13:19:23.74	323.71	7.25	-46.2	-64.7	3.8	7.44e-01	0	61	104	926416896	62	33041
2026-01-22 13:19:24.75	323.83	7.18	-46.2	-64.7	3.8	7.46e-01	0	61	104	926416896	62	32962
2026-01-22 13:19:25.76	323.95	7.12	-46.2	-64.7	3.8	7.47e-01	0	61	104	926416896	62	33027
2026-01-22 13:19:26.77	324.07	7.06	-46.1	-64.6	3.8	7.50e-01	0	61	104	926416896	62	32762
2026-01-22 13:19:27.78	324.19	6.99	-46.1	-64.6	3.8	7.46e-01	0	62	104	926416896	62	32722
2026-01-22 13:19:28.79	324.31	6.93	-45.6	-64.6	3.8	7.47e-01	0	61	104	926416896	62	32710
2026-01-22 13:19:29.80	324.43	6.87	-45.8	-64.6	3.8	7.46e-01	0	61	104	926416896	62	32702
2026-01-22 13:19:30.81	324.55	6.81	-46.1	-64.6	3.8	7.47e-01	0	61	104	926416896	62	32687
2026-01-22 13:19:31.82	324.67	6.74	-45.7	-64.6	3.8	7.47e-01	0	61	104	926416896	62	32585
2026-01-22 13:19:32.83	324.78	6.68	-46.1	-64.7	3.7	7.43e-01	0	61	104	926416896	62	33003
2026-01-22 13:19:33.84	324.90	6.62	-46.1	-64.6	3.8	7.48e-01	0	61	104	926416896	62	32645
2026-01-22 13:19:34.85	325.01	6.56	-46.1	-64.6	3.8	7.46e-01	0	62	104	926416896	62	32701
2026-01-22 13:19:35.86	325.13	6.49	-46.1	-64.6	3.8	7.45e-01	0	61	104	926416896	62	32695
2026-01-22 13:19:36.87	325.25	6.43	-46.1	-64.6	3.8	7.45e-01	0	62	104	926416896	62	32590
2026-01-22 13:19:37.88	325.36	6.37	-46.1	-64.6	3.8	7.44e-01	0	61	104	926416896	62	32638
2026-01-22 13:19:38.89	325.47	6.31	-46.1	-64.6	3.8	7.47e-01	0	61	104	926416896	62	32633
2026-01-22 13:19:39.90	325.59	6.25	-46.1	-64.6	3.8	7.43e-01	0	62	104	926416896	62	32635
2026-01-22 13:19:40.91	325.70	6.18	-46.1	-64.6	3.8	7.45e-01	0	61	104	926416896	62	32603
2026-01-22 13:19:41.92	325.81	6.12	-46.1	-64.6	3.8	7.44e-01	0	62	104	926416896	62	32650
2026-01-22 13:19:42.92	325.92	6.06	-46.1	-64.6	3.8	7.42e-01	0	62	104	926416896	62	32637
2026-01-22 13:19:43.93	326.03	6.00	-46.1	-64.6	3.8	7.43e-01	0	61	104	926416896	62	32595
2026-01-22 13:19:44.94	326.14	5.94	-45.9	-64.5	3.8	7.47e-01	0	61	104	926416896	62	32544
2026-01-22 13:19:45.95	326.26	5.88	-46.1	-64.6	3.8	7.47e-01	0	61	104	926416896	62	32636
2026-01-22 13:19:46.96	326.37	5.82	-46.1	-64.6	3.8	7.47e-01	0	61	104	926416896	62	32619
2026-01-22 13:19:47.97	326.47	5.75	-46.0	-64.6	3.8	7.42e-01	0	61	104	926416896	62	32559
2026-01-22 13:19:48.98	326.58	5.69	-46.1	-64.6	3.8	7.49e-01	0	62	104	926416896	62	32608
2026-01-22 13:19:49.99	326.69	5.63	-46.1	-64.6	3.8	7.47e-01	0	62	104	926416896	62	32629
2026-01-22 13:19:51.00	326.80	5.57	-46.1	-64.6	3.8	7.47e-01	0	62	104	926416896	62	32607
2026-01-22 13:19:52.01	326.91	5.51	-46.1	-64.6	3.8	7.46e-01	0	61	104	926416896	62	32654
2026-01-22 13:19:53.02	327.01	5.45	-46.1	-64.6	3.8	7.43e-01	0	62	104	926416896	62	32572
2026-01-22 13:19:54.03	327.12	5.39	-45.9	-64.6	3.8	7.45e-01	0	61	104	926416896	62	32594
2026-01-22 13:19:55.04	327.23	5.33	-46.1	-64.6	3.8	7.43e-01	0	62	104	926416896	62	32645
2026-01-22 13:19:56.05	327.33	5.27	-46.0	-64.6	3.8	7.46e-01	0	61	104	926416896	62	32613
2026-01-22 13:19:57.06	327.44	5.21	-46.1	-64.6	3.8	7.46e-01	0	62	104	926416896	62	32617
2026-01-22 13:19:58.07	327.54	5.15	-46.1	-64.6	3.8	7.44e-01	0	62	104	926416896	62	32574
2026-01-22 13:19:59.08	327.65	5.09	-45.4	-64.6	3.8	7.46e-01	0	62	104	926416896	62	32583
2026-01-22 13:20:00.09	327.75	5.03	-46.1	-64.6	3.8	7.43e-01	0	62	104	926416896	62	32577
2026-01-22 13:20:01.10	327.85	4.97	-46.1	-64.5	3.8	7.46e-01	0	61	104	926416896	62	32536
2026-01-22 13:20:02.11	327.96	4.91	-46.1	-64.5	3.8	7.45e-01	0	61	104	926416896	62	32487
2026-01-22 13:20:03.12	328.06	4.85	-46.0	-64.6	3.8	7.44e-01	0	62	104	926416896	62	32616
2026-01-22 13:20:04.13	328.16	4.79	-46.1	-64.6	3.8	7.43e-01	0	62	104	926416896	62	32597
2026-01-22 13:20:05.14	328.26	4.73	-46.0	-64.5	3.8	7.47e-01	0	61	104	926416896	62	32510
2026-01-22 13:20:06.15	328.36	4.67	-46.0	-64.6	3.8	7.47e-01	0	62	104	926416896	62	32588
2026-01-22 13:20:07.16	328.47	4.61	-46.0	-64.6	3.8	7.44e-01	0	61	104	926416896	62	32586
2026-01-22 13:20:08.17	328.57	4.55	-46.0	-64.6	3.8	7.45e-01	0	62	104	926416896	62	32582
2026-01-22 13:20:09.18	328.67	4.49	-46.1	-64.6	3.8	7.45e-01	0	62	104	926416896	62	32631
2026-01-22 13:20:10.19	328.76	4.43	-46.0	-64.6	3.8	7.48e-01	0	62	104	926416896	62	32583
2026-01-22 13:20:11.21	328.86	4.37	-46.1	-64.6	3.8	7.48e-01	0	62	104	926416896	62	32574
2026-01-22 13:20:12.22	328.96	4.31	-46.1	-64.6	3.8	7.46e-01	0	62	104	926416896	62	32585
2026-01-22 13:20:13.23	329.06	4.25	-46.0	-64.6	3.8	7.47e-01	0	62	104	926416896	62	32577
2026-01-22 13:20:14.24	329.16	4.19	-46.0	-64.5	3.8	7.43e-01	0	62	104	926416896	62	32414
2026-01-22 13:20:15.25	329.26	4.13	-46.0	-64.5	3.8	7.44e-01	0	62	104	926416896	62	32505
2026-01-22 13:20:16.26	329.35	4.07	-46.0	-64.5	3.8	7.42e-01	0	62	104	926416896	62	32492
2026-01-22 13:20:17.27	329.45	4.01	-46.0	-64.5	3.8	7.42e-01	0	62	104	926416896	62	32378
2026-01-22 13:20:18.28	329.55	3.95	-46.1	-64.5	3.8	7.48e-01	0	62	104	926416896	62	32531
2026-01-22 13:20:19.29	329.64	3.90	-45.9	-64.5	3.8	7.45e-01	0	62	104	926416896	62	32346
2026-01-22 13:20:20.30	329.74	3.84	-46.0	-64.5	3.8	7.45e-01	0	61	104	926416896	62	32503
2026-01-22 13:20:21.31	329.83	3.78	-46.0	-64.5	3.8	7.44e-01	0	61	104	926416896	62	32485
2026-01-22 13:20:22.32	329.93	3.72	-46.0	-64.5	3.8	7.43e-01	0	62	104	926416896	62	32536
2026-01-22 13:20:23.33	330.02	3.66	-46.0	-64.5	3.8	7.47e-01	0	62	104	926416896	62	32525
2026-01-22 13:20:24.34	330.12	3.60	-46.0	-64.5	3.8	7.48e-01	0	62	104	926416896	62	32493
2026-01-22 13:20:25.35	330.21	3.55	-46.0	-64.6	3.8	7.48e-01	0	62	104	926416896	62	32581
2026-01-22 13:20:26.36	330.30	3.49	-46.0	-64.5	3.8	7.46e-01	0	61	104	926416896	62	32525
2026-01-22 13:20:27.37	330.39	3.43	-46.0	-64.5	3.8	7.47e-01	0	62	104	926416896	62	32462
2026-01-22 13:20:28.38	330.49	3.37	-46.0	-64.6	3.8	7.44e-01	0	62	104	926416896	62	32580
2026-01-22 13:20:29.39	330.58	3.31	-46.1	-64.5	3.8	7.46e-01	0	62	104	926416896	62	32473
2026-01-22 13:20:30.40	330.67	3.26	-46.0	-64.5	3.8	7.45e-01	0	62	104	926416896	62	32542
2026-01-22 13:20:31.41	330.76	3.20	-46.0	-64.5	3.8	7.43e-01	0	62	104	926416896	62	32496
2026-01-22 13:20:32.42	330.85	3.14	-46.0	-64.6	3.8	7.45e-01	0	61	104	926416896	62	32589
2026-01-22 13:20:33.43	330.94	3.08	-46.0	-64.5	3.8	7.41e-01	0	62	104	926416896	62	32518
2026-01-22 13:20:34.44	331.03	3.03	-46.0	-64.6	3.8	7.45e-01	0	62	104	926416896	62	32561
2026-01-22 13:20:35.45	331.12	2.97	-46.0	-64.5	3.8	7.45e-01	0	62	104	926416896	62	32511
2026-01-22 13:20:36.46	331.21	2.91	-46.1	-64.5	3.8	7.44e-01	0	61	104	926416896	62	32467
2026-01-22 13:20:37.47	331.30	2.85	-46.1	-64.6	3.8	7.48e-01	0	62	104	926416896	62	32580
2026-01-22 13:20:38.48	331.39	2.80	-46.0	-64.5	3.8	7.44e-01	0	62	104	926416896	62	32507
2026-01-22 13:20:39.49	331.48	2.74	-46.0	-64.5	3.8	7.47e-01	0	62	104	926416896	62	32465
2026-01-22 13:20:40.50	331.57	2.68	-46.0	-64.5	3.8	7.45e-01	0	62	104	926416896	62	32466
2026-01-22 13:20:41.51	331.65	2.63	-46.0	-64.5	3.8	7.47e-01	0	61	104	926416896	62	32412
2026-01-22 13:20:42.52	331.74	2.57	-46.0	-64.5	3.8	7.43e-01	0	62	104	926416896	62	32511
2026-01-22 13:20:43.53	331.83	2.51	-46.0	-64.6	3.8	7.46e-01	0	61	104	926416896	62	32559
2026-01-22 13:20:44.54	331.91	2.46	-46.0	-64.5	3.8	7.44e-01	0	62	104	926416896	62	32532
2026-01-22 13:20:45.55	332.00	2.40	-46.1	-64.5	3.8	7.47e-01	0	62	104	926416896	62	32531
2026-01-22 13:20:46.56	332.09	2.34	-45.9	-64.5	3.8	7.46e-01	0	62	104	926416896	62	32468
2026-01-22 13:20:47.57	332.17	2.29	-46.0	-64.5	3.8	7.46e-01	0	61	104	926416896	62	32490
2026-01-22 13:20:48.58	332.26	2.23	-46.1	-64.5	3.8	7.48e-01	0	61	104	926416896	62	32273
2026-01-22 13:20:49.59	332.34	2.17	-46.0	-64.6	3.8	7.44e-01	0	61	104	926416896	62	32570
2026-01-22 13:20:50.60	332.43	2.12	-46.0	-64.5	3.8	7.43e-01	0	62	104	926416896	62	32540
2026-01-22 13:20:51.61	332.51	2.06	-46.0	-64.5	3.8	7.43e-01	0	62	104	926416896	62	32491
2026-01-22 13:20:52.62	332.59	2.00	-45.9	-64.5	3.8	7.44e-01	0	62	104	926416896	62	32462
2026-01-22 13:20:53.63	332.68	1.95	-46.0	-64.5	3.8	7.44e-01	0	62	104	926416896	62	32485

#Closed at: 2026-01-22 13:20:53
#Recorded file [926 MB]: D:/lorett/data/31039_260122_160939.dat