passes_logs/2026/01/22/R2.0S_Moscow/R2.0S_Moscow__20260122_105508_NOAA_20_JPSS-1_rec.log

#Pass ID: 20260122_105508_NOAA 20 (JPSS-1)
#Satellite: NOAA 20 (JPSS-1)
#Configuration: NOAA 20
#almurnet v.1.7.20251203
#Start time: 2026-01-22 10:55:08

#Version: 2.2.20231116
#Station: R2.0S_Moscow
#Location: 37.707566 lon 55.798166 lat
#TLE: 1 43013U 17073A   26021.46221703  .00000173  00000+0  10299-3 0  9999
#TLE: 2 43013  98.7644 322.3335 0001238  29.7597 330.3649 14.19538314423652

#Time	Az	El	Level	Level2	SNR	BER	BlckErr	Temp	State	Recorded	gain1	gain2
2026-01-22 10:55:08.06	190.15	1.96	-44.0	-58.5	3.8	1.49e+00	0	52	0	0	59	19176
2026-01-22 10:55:09.07	190.20	2.03	-44.0	-58.4	3.8	1.49e+00	0	52	104	0	59	19121
2026-01-22 10:55:10.08	190.25	2.09	-44.0	-58.4	3.8	1.49e+00	0	52	104	0	59	19115
2026-01-22 10:55:11.09	190.30	2.15	-44.0	-58.4	3.8	1.49e+00	0	52	104	0	59	19147
2026-01-22 10:55:12.10	190.34	2.21	-44.0	-58.5	3.8	1.49e+00	0	53	104	0	59	19210
2026-01-22 10:55:13.11	190.39	2.27	-44.0	-58.4	3.8	1.49e+00	0	52	104	0	59	19082
2026-01-22 10:55:14.12	190.44	2.33	-44.0	-58.5	3.8	1.49e+00	0	52	104	0	59	19175
2026-01-22 10:55:15.13	190.49	2.39	-44.0	-58.4	3.8	1.49e+00	0	53	104	0	59	19105
2026-01-22 10:55:16.14	190.54	2.46	-44.0	-58.4	3.8	1.49e+00	0	53	104	0	59	19138
2026-01-22 10:55:17.15	190.59	2.52	-44.0	-58.5	3.8	1.49e+00	0	53	104	0	59	19190
2026-01-22 10:55:18.17	190.64	2.58	-44.0	-58.4	3.8	1.49e+00	0	53	104	0	59	19093
2026-01-22 10:55:19.18	190.69	2.64	-44.0	-58.4	3.8	1.49e+00	0	53	104	0	59	19101
2026-01-22 10:55:20.19	190.74	2.71	-44.0	-58.4	3.8	1.49e+00	0	53	104	0	59	19151
2026-01-22 10:55:21.20	190.79	2.77	-44.0	-58.4	3.8	1.49e+00	0	53	104	0	59	19160
2026-01-22 10:55:22.21	190.84	2.83	-44.0	-58.4	3.8	1.49e+00	0	53	104	0	59	19152
2026-01-22 10:55:23.22	190.89	2.89	-44.0	-58.4	3.8	1.49e+00	0	53	104	0	59	19094
2026-01-22 10:55:24.23	190.94	2.96	-44.0	-58.4	3.8	1.49e+00	0	53	104	0	59	19128
2026-01-22 10:55:25.24	190.99	3.02	-44.0	-58.4	3.8	1.49e+00	0	53	104	0	59	19104
2026-01-22 10:55:26.25	191.04	3.08	-44.0	-58.4	3.8	1.49e+00	0	53	104	0	59	19166
2026-01-22 10:55:27.26	191.09	3.15	-44.0	-58.4	3.8	1.49e+00	0	53	104	0	59	19086
2026-01-22 10:55:28.27	191.15	3.21	-44.0	-58.4	3.8	1.49e+00	0	53	104	0	59	19128
2026-01-22 10:55:29.28	191.20	3.27	-44.0	-58.4	3.8	1.49e+00	0	54	104	0	59	19104
2026-01-22 10:55:30.29	191.25	3.34	-44.0	-58.4	3.8	1.49e+00	0	54	104	0	59	19153
2026-01-22 10:55:31.31	191.30	3.40	-44.0	-58.4	3.8	1.49e+00	0	54	104	0	59	19126
2026-01-22 10:55:32.32	191.35	3.46	-44.0	-58.4	3.8	1.49e+00	0	54	104	0	59	19135
2026-01-22 10:55:33.33	191.41	3.53	-44.0	-58.4	3.8	1.49e+00	0	54	104	0	59	19118
2026-01-22 10:55:34.34	191.46	3.59	-44.0	-58.4	3.8	1.49e+00	0	54	104	0	59	19080
2026-01-22 10:55:35.35	191.51	3.66	-44.0	-58.4	3.8	1.49e+00	0	54	104	0	59	19067
2026-01-22 10:55:36.36	191.57	3.72	-44.0	-58.4	3.8	1.49e+00	0	54	104	0	59	19078
2026-01-22 10:55:37.37	191.62	3.79	-44.0	-58.4	3.8	1.49e+00	0	54	104	0	59	19096
2026-01-22 10:55:38.38	191.67	3.85	-44.0	-58.4	3.8	1.49e+00	0	54	104	0	59	19073
2026-01-22 10:55:39.39	191.73	3.92	-43.9	-58.4	3.8	1.49e+00	0	54	104	0	59	19111
2026-01-22 10:55:40.40	191.78	3.98	-44.0	-58.4	3.8	1.49e+00	0	54	104	0	59	19020
2026-01-22 10:55:41.41	191.84	4.05	-44.0	-58.4	3.8	1.49e+00	0	54	104	0	59	19066
2026-01-22 10:55:42.42	191.89	4.11	-44.0	-58.4	3.8	1.49e+00	0	54	104	0	59	19071
2026-01-22 10:55:43.43	191.95	4.18	-44.0	-58.4	3.8	1.49e+00	0	54	104	0	59	19016
2026-01-22 10:55:44.44	192.00	4.24	-44.0	-58.4	3.8	1.49e+00	0	54	104	0	59	19064
2026-01-22 10:55:45.45	192.06	4.31	-44.0	-58.4	3.8	1.49e+00	0	55	104	0	59	18978
2026-01-22 10:55:46.46	192.11	4.37	-43.9	-58.3	3.8	1.49e+00	0	55	104	0	59	18919
2026-01-22 10:55:47.47	192.17	4.44	-43.9	-58.3	3.8	1.49e+00	0	55	104	0	59	18934
2026-01-22 10:55:48.48	192.22	4.51	-43.9	-58.3	3.8	1.49e+00	0	54	104	0	59	18868
2026-01-22 10:55:49.49	192.28	4.57	-43.9	-58.3	3.8	1.49e+00	0	55	104	0	59	18844
2026-01-22 10:55:50.51	192.34	4.64	-43.9	-58.3	3.8	1.49e+00	0	55	104	0	59	18887
2026-01-22 10:55:51.52	192.39	4.71	-43.9	-58.3	3.8	1.49e+00	0	55	104	0	59	18872
2026-01-22 10:55:52.53	192.45	4.77	-43.9	-58.4	3.8	1.49e+00	0	55	104	0	59	18992
2026-01-22 10:55:53.54	192.51	4.84	-43.9	-58.4	3.8	1.49e+00	0	55	104	0	59	18959
2026-01-22 10:55:54.55	192.57	4.91	-43.9	-58.3	3.8	1.49e+00	0	55	104	0	59	18857
2026-01-22 10:55:55.56	192.62	4.97	-43.9	-58.3	3.8	1.49e+00	0	55	104	0	59	18782
2026-01-22 10:55:56.57	192.68	5.04	-43.9	-58.3	3.8	1.49e+00	0	55	104	0	59	18733
2026-01-22 10:55:57.58	192.74	5.11	-43.9	-58.2	3.8	1.49e+00	0	55	104	0	59	18593
2026-01-22 10:55:58.59	192.80	5.17	-43.9	-58.1	3.8	1.49e+00	0	55	104	0	59	18457
2026-01-22 10:55:59.60	192.86	5.24	-43.9	-58.1	3.8	1.49e+00	0	55	104	0	59	18333
2026-01-22 10:56:00.61	192.92	5.31	-43.9	-58.0	3.8	1.49e+00	0	55	104	0	59	18119
2026-01-22 10:56:01.62	192.98	5.38	-43.9	-57.8	3.8	1.49e+00	0	55	104	0	59	17772
2026-01-22 10:56:02.63	193.04	5.45	-43.9	-57.6	3.8	1.49e+00	0	55	104	0	59	17409
2026-01-22 10:56:03.64	193.10	5.51	-43.9	-57.4	3.8	1.49e+00	0	55	104	0	59	17031
2026-01-22 10:56:04.65	193.16	5.58	-43.9	-57.2	3.8	1.49e+00	0	56	104	0	59	16537
2026-01-22 10:56:05.66	193.22	5.65	-43.9	-57.0	3.8	1.49e+00	0	56	104	0	59	16161
2026-01-22 10:56:06.67	193.28	5.72	-43.8	-56.8	3.8	1.49e+00	0	55	104	0	59	15770
2026-01-22 10:56:07.68	193.34	5.79	-43.8	-56.3	3.8	1.49e+00	0	56	104	0	59	14947
2026-01-22 10:56:08.69	193.40	5.86	-43.8	-55.9	3.8	1.49e+00	0	56	104	0	59	14255
2026-01-22 10:56:09.71	193.46	5.93	-43.7	-55.4	4.1	1.47e+00	0	56	0	0	59	13442
2026-01-22 10:56:10.71	193.52	6.00	-43.7	-55.1	4.1	1.42e+00	0	56	0	0	59	13026
2026-01-22 10:56:11.73	193.59	6.07	-43.7	-54.6	4.3	1.38e+00	0	56	0	0	59	12274
2026-01-22 10:56:12.74	193.65	6.14	-43.6	-54.3	4.4	1.33e+00	72	56	0	0	59	11911
2026-01-22 10:56:13.75	193.71	6.21	-43.6	-53.9	4.5	1.11e+00	9	56	0	2097152	59	11367
2026-01-22 10:56:14.76	193.77	6.28	-43.6	-53.9	4.5	1.02e+00	2	56	0	4194304	59	11301
2026-01-22 10:56:15.77	193.84	6.35	-43.6	-53.9	4.5	9.89e-01	6	56	0	6291456	59	11337
2026-01-22 10:56:16.78	193.90	6.42	-43.6	-53.6	4.6	9.89e-01	0	56	0	8388608	59	11020
2026-01-22 10:56:17.79	193.96	6.49	-43.6	-53.8	4.6	9.95e-01	0	56	0	9437184	59	11228
2026-01-22 10:56:18.80	194.03	6.56	-43.6	-53.8	4.5	9.98e-01	1	56	0	11534336	59	11269
2026-01-22 10:56:19.81	194.09	6.63	-43.6	-53.9	4.5	1.05e+00	6	56	0	13631488	59	11365
2026-01-22 10:56:20.82	194.16	6.70	-43.6	-54.2	4.4	1.17e+00	87	56	0	15728640	59	11713
2026-01-22 10:56:21.83	194.22	6.77	-43.6	-54.2	4.4	1.30e+00	67	56	0	16777216	59	11783
2026-01-22 10:56:22.84	194.29	6.84	-43.6	-54.4	4.3	1.30e+00	91	56	0	18874368	59	11970
2026-01-22 10:56:23.85	194.35	6.91	-43.6	-54.2	4.4	1.31e+00	90	56	0	19922944	59	11798
2026-01-22 10:56:24.86	194.42	6.99	-43.6	-54.0	4.4	1.21e+00	39	56	0	22020096	59	11479
2026-01-22 10:56:25.87	194.49	7.06	-43.5	-53.6	4.6	1.03e+00	0	56	0	24117248	59	11005
2026-01-22 10:56:26.88	194.55	7.13	-43.5	-53.0	4.9	8.34e-01	0	57	0	25165824	59	10284
2026-01-22 10:56:27.89	194.62	7.20	-43.4	-52.5	5.1	6.79e-01	0	56	0	27262976	58	10215
2026-01-22 10:56:28.90	194.69	7.27	-43.3	-52.0	5.5	5.70e-01	0	56	0	29360128	58	9693
2026-01-22 10:56:29.91	194.75	7.35	-43.2	-51.2	6.0	3.66e-01	0	57	0	31457280	58	8849
2026-01-22 10:56:30.92	194.82	7.42	-43.1	-50.6	6.5	2.59e-01	0	56	0	33554432	58	8248
2026-01-22 10:56:31.93	194.89	7.49	-42.9	-49.9	7.1	1.76e-01	0	56	0	35651584	57	8051
2026-01-22 10:56:32.94	194.96	7.57	-42.9	-49.7	7.3	1.27e-01	0	57	0	36700160	57	7893
2026-01-22 10:56:33.95	195.03	7.64	-42.7	-49.2	7.8	8.74e-02	0	57	0	38797312	57	7404
2026-01-22 10:56:34.96	195.10	7.71	-42.6	-48.8	8.2	6.30e-02	0	56	0	40894464	57	7062
2026-01-22 10:56:35.97	195.17	7.79	-42.6	-48.9	8.2	5.54e-02	0	57	0	42991616	57	7133
2026-01-22 10:56:36.98	195.24	7.86	-42.6	-48.8	8.2	5.55e-02	0	57	0	45088768	57	7095
2026-01-22 10:56:37.99	195.31	7.93	-42.6	-48.8	8.2	5.39e-02	0	57	0	46137344	57	7093
2026-01-22 10:56:39.00	195.38	8.01	-42.7	-49.0	8.0	5.88e-02	0	57	0	48234496	57	7274
2026-01-22 10:56:40.01	195.45	8.08	-42.7	-48.6	8.5	4.17e-02	0	57	0	50331648	57	6954
2026-01-22 10:56:41.02	195.52	8.16	-43.8	-58.0	3.8	7.91e-01	0	57	104	51380224	58	19252
2026-01-22 10:56:42.03	195.59	8.23	-43.5	-52.5	5.3	7.48e-01	0	57	0	51380224	57	10796
2026-01-22 10:56:43.04	195.66	8.31	-43.3	-50.8	6.4	1.87e-01	0	57	0	53477376	57	8866
2026-01-22 10:56:44.05	195.73	8.38	-43.6	-54.3	4.3	2.13e-01	90	57	0	55574528	57	13347
2026-01-22 10:56:45.06	195.81	8.46	-42.7	-48.4	8.9	2.68e-01	0	57	0	56623104	57	6773
2026-01-22 10:56:46.07	195.88	8.53	-42.7	-48.4	9.0	2.80e-02	0	57	0	58720256	57	6731
2026-01-22 10:56:47.08	195.95	8.61	-42.7	-48.5	8.9	2.85e-02	0	57	0	60817408	57	6808
2026-01-22 10:56:48.09	196.03	8.68	-42.7	-48.4	8.8	2.70e-02	0	57	0	62914560	57	6782
2026-01-22 10:56:49.10	196.10	8.76	-42.7	-48.4	8.8	3.10e-02	0	57	0	63963136	57	6793
2026-01-22 10:56:50.10	196.17	8.83	-42.6	-48.4	8.7	3.21e-02	0	57	0	66060288	57	6792
2026-01-22 10:56:51.11	196.25	8.91	-42.6	-48.5	8.6	3.58e-02	0	57	0	68157440	57	6811
2026-01-22 10:56:52.12	196.32	8.99	-42.5	-48.4	8.5	3.60e-02	0	57	0	70254592	57	6733
2026-01-22 10:56:53.13	196.40	9.06	-42.3	-48.1	8.6	3.72e-02	0	57	0	72351744	56	6924
2026-01-22 10:56:54.14	196.47	9.14	-42.3	-48.1	8.5	4.63e-02	0	58	0	74448896	56	6929
2026-01-22 10:56:55.15	196.55	9.22	-42.2	-48.1	8.4	4.14e-02	0	57	0	75497472	56	6902
2026-01-22 10:56:56.16	196.63	9.30	-42.1	-48.0	8.4	4.56e-02	0	57	0	77594624	56	6805
2026-01-22 10:56:57.17	196.70	9.37	-42.1	-47.9	8.5	4.47e-02	0	57	0	79691776	56	6758
2026-01-22 10:56:58.19	196.78	9.45	-42.0	-47.9	8.4	4.36e-02	0	58	0	81788928	56	6775
2026-01-22 10:56:59.19	196.86	9.53	-42.0	-47.9	8.5	4.36e-02	0	57	0	83886080	56	6730
2026-01-22 10:57:00.20	196.94	9.61	-42.0	-47.8	8.7	4.00e-02	0	58	0	84934656	56	6659
2026-01-22 10:57:01.21	197.02	9.69	-42.1	-47.8	8.8	3.11e-02	0	58	0	87031808	56	6680
2026-01-22 10:57:02.22	197.10	9.76	-42.1	-47.7	9.0	2.70e-02	0	58	0	89128960	56	6624
2026-01-22 10:57:03.23	197.18	9.84	-42.2	-47.6	9.4	1.90e-02	0	57	0	91226112	56	6562
2026-01-22 10:57:04.24	197.26	9.92	-42.3	-47.6	9.6	1.40e-02	0	58	0	93323264	56	6540
2026-01-22 10:57:05.25	197.34	10.00	-42.3	-47.6	9.6	1.30e-02	0	57	0	94371840	56	6534
2026-01-22 10:57:06.26	197.42	10.08	-42.4	-47.6	9.9	1.12e-02	0	58	0	96468992	56	6500
2026-01-22 10:57:07.27	197.50	10.16	-42.4	-47.4	10.0	7.85e-03	0	58	0	98566144	56	6410
2026-01-22 10:57:08.28	197.58	10.24	-42.4	-47.5	9.9	8.73e-03	0	58	0	100663296	56	6456
2026-01-22 10:57:09.29	197.66	10.32	-42.4	-47.5	9.7	1.10e-02	0	58	0	102760448	56	6462
2026-01-22 10:57:10.30	197.74	10.40	-42.2	-47.5	9.5	1.36e-02	0	58	0	103809024	56	6425
2026-01-22 10:57:11.31	197.83	10.48	-41.7	-47.3	9.0	1.61e-02	0	58	0	105906176	55	6665
2026-01-22 10:57:12.32	197.91	10.56	-41.1	-47.0	8.3	3.94e-02	0	58	0	108003328	54	6876
2026-01-22 10:57:13.33	197.99	10.64	-40.5	-46.8	7.7	7.26e-02	0	58	0	110100480	53	7098
2026-01-22 10:57:14.34	198.08	10.72	-40.4	-46.7	7.8	8.46e-02	0	58	0	112197632	52	7425
2026-01-22 10:57:15.35	198.16	10.80	-40.4	-46.7	7.9	7.22e-02	0	58	0	113246208	52	7413
2026-01-22 10:57:16.36	198.25	10.89	-40.1	-46.4	7.7	8.62e-02	0	58	0	115343360	52	7198
2026-01-22 10:57:17.37	198.33	10.97	-40.1	-46.6	7.5	9.71e-02	0	58	0	117440512	51	7789
2026-01-22 10:57:18.38	198.42	11.05	-40.2	-46.6	7.7	9.45e-02	0	58	0	119537664	51	7791
2026-01-22 10:57:19.39	198.51	11.13	-40.2	-46.6	7.8	8.53e-02	0	58	0	121634816	51	7726
2026-01-22 10:57:20.40	198.59	11.21	-40.5	-46.6	8.2	6.51e-02	0	58	0	122683392	51	7783
2026-01-22 10:57:21.40	198.68	11.30	-40.7	-46.5	8.7	4.18e-02	0	58	0	124780544	52	7237
2026-01-22 10:57:22.41	198.77	11.38	-40.9	-46.5	8.8	3.15e-02	0	58	0	126877696	52	7205
2026-01-22 10:57:23.42	198.85	11.46	-41.3	-46.6	9.5	1.88e-02	0	58	0	128974848	53	6892
2026-01-22 10:57:24.43	198.94	11.55	-41.5	-46.6	9.9	1.04e-02	0	58	0	131072000	53	6896
2026-01-22 10:57:25.44	199.03	11.63	-41.6	-46.6	10.0	8.37e-03	0	58	0	132120576	53	6899
2026-01-22 10:57:26.45	199.12	11.71	-41.7	-46.7	10.0	8.13e-03	0	58	0	134217728	53	6964
2026-01-22 10:57:27.46	199.21	11.80	-41.7	-46.6	10.4	6.30e-03	0	58	0	136314880	54	6536
2026-01-22 10:57:28.47	199.30	11.88	-41.6	-46.5	10.5	3.83e-03	0	58	0	138412032	54	6423
2026-01-22 10:57:29.48	199.39	11.96	-41.5	-46.5	10.3	4.40e-03	0	58	0	140509184	54	6487
2026-01-22 10:57:30.49	199.49	12.05	-41.4	-46.6	10.1	6.92e-03	0	58	0	142606336	54	6511
2026-01-22 10:57:31.50	199.58	12.13	-41.0	-46.4	9.9	7.73e-03	0	58	0	143654912	54	6361
2026-01-22 10:57:32.51	199.67	12.22	-40.8	-46.4	9.5	1.18e-02	0	58	0	145752064	53	6779
2026-01-22 10:57:33.52	199.77	12.30	-40.6	-46.4	9.2	1.54e-02	0	58	0	147849216	53	6743
2026-01-22 10:57:34.53	199.86	12.39	-40.5	-46.3	9.2	2.36e-02	0	58	0	149946368	52	7060
2026-01-22 10:57:35.54	199.95	12.48	-40.4	-46.2	9.1	2.15e-02	0	58	0	152043520	52	7016
2026-01-22 10:57:36.55	200.05	12.56	-40.2	-46.1	9.0	2.04e-02	0	58	0	153092096	52	6959
2026-01-22 10:57:37.56	200.14	12.65	-40.1	-46.0	9.0	2.72e-02	0	58	0	155189248	52	6852
2026-01-22 10:57:38.57	200.24	12.73	-40.0	-46.1	8.8	2.95e-02	0	58	0	157286400	52	6910
2026-01-22 10:57:39.58	200.34	12.82	-40.0	-46.1	8.6	3.44e-02	0	58	0	159383552	51	7346
2026-01-22 10:57:40.59	200.43	12.91	-39.9	-46.0	8.5	3.73e-02	0	58	0	161480704	51	7263
2026-01-22 10:57:41.60	200.53	13.00	-39.9	-45.9	8.7	3.75e-02	0	58	0	162529280	51	7143
2026-01-22 10:57:42.60	200.63	13.08	-39.8	-45.9	8.5	4.31e-02	0	59	0	164626432	51	7167
2026-01-22 10:57:43.61	200.73	13.17	-39.7	-45.8	8.4	4.57e-02	0	58	0	166723584	51	7057
2026-01-22 10:57:44.62	200.83	13.26	-39.8	-45.9	8.3	5.07e-02	0	58	0	168820736	51	7125
2026-01-22 10:57:45.63	200.93	13.35	-39.8	-45.8	8.3	4.85e-02	0	59	0	170917888	51	7102
2026-01-22 10:57:46.64	201.03	13.43	-39.8	-45.6	8.6	4.28e-02	0	58	0	171966464	51	6933
2026-01-22 10:57:47.65	201.13	13.52	-39.9	-45.8	8.4	4.40e-02	0	58	0	174063616	51	7102
2026-01-22 10:57:48.66	201.23	13.61	-40.1	-45.7	8.8	3.45e-02	0	58	0	176160768	51	7029
2026-01-22 10:57:49.67	201.33	13.70	-40.2	-45.8	8.9	2.79e-02	0	58	0	178257920	51	7081
2026-01-22 10:57:50.67	201.43	13.79	-40.3	-45.8	9.1	2.77e-02	0	58	0	180355072	51	7096
2026-01-22 10:57:51.68	201.54	13.88	-40.5	-45.9	9.4	1.83e-02	0	59	0	181403648	51	7123
2026-01-22 10:57:52.69	201.64	13.97	-40.7	-45.9	9.8	1.21e-02	0	58	0	183500800	52	6746
2026-01-22 10:57:53.70	201.75	14.06	-40.8	-45.7	10.3	7.64e-03	0	59	0	185597952	52	6588
2026-01-22 10:57:54.71	201.85	14.15	-40.9	-45.7	10.5	3.99e-03	0	58	0	187695104	52	6598
2026-01-22 10:57:55.72	201.96	14.24	-40.9	-45.7	10.7	3.36e-03	0	59	0	189792256	52	6594
2026-01-22 10:57:56.73	202.06	14.33	-41.0	-45.8	10.8	3.06e-03	0	59	0	190840832	52	6651
2026-01-22 10:57:57.74	202.17	14.42	-41.1	-45.7	11.0	2.07e-03	0	59	0	192937984	52	6602
2026-01-22 10:57:58.75	202.28	14.51	-41.2	-45.8	11.1	1.47e-03	0	58	0	195035136	52	6674
2026-01-22 10:57:59.76	202.39	14.61	-41.3	-45.6	11.4	1.19e-03	0	58	0	197132288	53	6192
2026-01-22 10:58:00.77	202.50	14.70	-41.3	-45.6	11.6	6.49e-04	0	59	0	199229440	53	6181
2026-01-22 10:58:01.78	202.61	14.79	-41.5	-45.7	11.7	5.25e-04	0	59	0	200278016	53	6236
2026-01-22 10:58:02.79	202.72	14.88	-41.5	-45.6	11.8	4.78e-04	0	59	0	202375168	53	6180
2026-01-22 10:58:03.80	202.83	14.97	-41.6	-45.6	11.9	4.32e-04	0	59	0	204472320	53	6192
2026-01-22 10:58:04.81	202.94	15.07	-41.6	-45.6	12.0	3.33e-04	0	59	0	206569472	53	6162
2026-01-22 10:58:05.82	203.05	15.16	-41.7	-45.7	11.9	3.39e-04	0	59	0	208666624	53	6272
2026-01-22 10:58:06.83	203.16	15.25	-41.7	-45.7	12.1	3.71e-04	0	59	0	210763776	54	5862
2026-01-22 10:58:07.84	203.28	15.35	-41.7	-45.7	12.0	2.96e-04	0	59	0	211812352	54	5883
2026-01-22 10:58:08.85	203.39	15.44	-41.8	-45.8	11.9	3.18e-04	0	59	0	213909504	54	5939
2026-01-22 10:58:09.86	203.51	15.54	-41.8	-45.7	12.0	3.93e-04	0	59	0	216006656	54	5917
2026-01-22 10:58:10.87	203.62	15.63	-41.8	-45.7	12.0	3.32e-04	0	59	0	218103808	54	5907
2026-01-22 10:58:11.87	203.74	15.72	-41.8	-45.7	12.1	2.82e-04	0	59	0	220200960	54	5866
2026-01-22 10:58:12.89	203.86	15.82	-41.7	-45.5	12.3	2.48e-04	0	59	0	221249536	54	5746
2026-01-22 10:58:13.89	203.97	15.91	-41.7	-45.5	12.3	1.65e-04	0	59	0	223346688	54	5773
2026-01-22 10:58:14.90	204.09	16.01	-41.7	-45.5	12.3	1.97e-04	0	59	0	225443840	54	5787
2026-01-22 10:58:15.91	204.21	16.11	-41.8	-45.5	12.3	1.84e-04	0	59	0	227540992	54	5778
2026-01-22 10:58:16.92	204.33	16.20	-41.8	-45.6	12.3	1.81e-04	0	59	0	229638144	54	5850
2026-01-22 10:58:17.93	204.45	16.30	-41.8	-45.6	12.3	1.97e-04	0	59	0	230686720	54	5829
2026-01-22 10:58:18.94	204.57	16.39	-41.9	-45.7	12.3	1.49e-04	0	59	0	232783872	54	5881
2026-01-22 10:58:19.95	204.70	16.49	-41.9	-45.8	12.2	1.75e-04	0	59	0	234881024	54	5934
2026-01-22 10:58:20.96	204.82	16.59	-42.0	-45.9	12.1	2.10e-04	0	59	0	236978176	54	6008
2026-01-22 10:58:21.97	204.94	16.68	-41.9	-45.8	12.2	2.48e-04	0	59	0	239075328	54	5951
2026-01-22 10:58:22.98	205.07	16.78	-42.0	-46.0	12.0	2.87e-04	0	59	0	240123904	54	6082
2026-01-22 10:58:23.99	205.19	16.88	-42.0	-46.0	12.0	3.23e-04	0	59	0	242221056	54	6097
2026-01-22 10:58:25.00	205.32	16.98	-42.1	-46.1	11.9	3.22e-04	0	59	0	244318208	54	6144
2026-01-22 10:58:26.01	205.45	17.08	-42.0	-45.9	12.1	3.02e-04	0	59	0	246415360	54	6048
2026-01-22 10:58:27.02	205.58	17.18	-42.1	-46.1	12.0	3.11e-04	0	59	0	248512512	54	6147
2026-01-22 10:58:28.03	205.70	17.27	-42.0	-46.0	12.0	3.68e-04	0	59	0	249561088	54	6083
2026-01-22 10:58:29.04	205.83	17.37	-42.1	-46.1	12.0	3.05e-04	0	59	0	251658240	54	6141
2026-01-22 10:58:30.05	205.96	17.47	-42.1	-46.0	12.0	3.53e-04	0	59	0	253755392	54	6115
2026-01-22 10:58:31.06	206.10	17.57	-42.1	-46.0	12.0	3.45e-04	0	59	0	255852544	54	6125
2026-01-22 10:58:32.07	206.23	17.67	-42.1	-46.1	12.0	3.30e-04	0	59	0	257949696	54	6133
2026-01-22 10:58:33.08	206.36	17.77	-42.1	-46.1	11.9	3.71e-04	0	59	0	258998272	54	6160
2026-01-22 10:58:34.09	206.49	17.87	-42.1	-46.2	11.9	4.57e-04	0	59	0	261095424	54	6212
2026-01-22 10:58:35.09	206.63	17.97	-42.2	-46.3	11.8	4.55e-04	0	59	0	263192576	54	6280
2026-01-22 10:58:36.10	206.76	18.07	-42.2	-46.3	11.8	4.09e-04	0	59	0	265289728	54	6292
2026-01-22 10:58:37.11	206.90	18.18	-42.2	-46.3	11.8	5.36e-04	0	59	0	267386880	54	6296
2026-01-22 10:58:38.12	207.04	18.28	-42.2	-46.3	11.8	5.38e-04	0	59	0	268435456	55	5960
2026-01-22 10:58:39.13	207.17	18.38	-42.2	-46.3	11.7	5.38e-04	0	59	0	270532608	55	5974
2026-01-22 10:58:40.14	207.31	18.48	-42.2	-46.3	11.7	5.19e-04	0	59	0	272629760	55	5978
2026-01-22 10:58:41.15	207.45	18.58	-42.3	-46.4	11.7	5.99e-04	0	59	0	274726912	55	6038
2026-01-22 10:58:42.16	207.59	18.69	-42.3	-46.4	11.7	6.42e-04	0	59	0	276824064	55	6015
2026-01-22 10:58:43.17	207.74	18.79	-42.3	-46.5	11.6	6.64e-04	0	59	0	278921216	55	6070
2026-01-22 10:58:44.18	207.88	18.89	-42.3	-46.4	11.6	7.16e-04	0	59	0	279969792	55	6051
2026-01-22 10:58:45.19	208.02	18.99	-42.3	-46.5	11.6	6.26e-04	0	59	0	282066944	55	6103
2026-01-22 10:58:46.20	208.17	19.10	-42.3	-46.6	11.5	8.25e-04	0	59	0	284164096	55	6155
2026-01-22 10:58:47.21	208.31	19.20	-42.4	-46.6	11.4	8.06e-04	0	59	0	286261248	55	6187
2026-01-22 10:58:48.22	208.46	19.31	-42.4	-46.8	11.3	1.07e-03	0	59	0	288358400	55	6303
2026-01-22 10:58:49.23	208.61	19.41	-42.4	-46.8	11.3	1.20e-03	0	59	0	289406976	55	6304
2026-01-22 10:58:50.24	208.76	19.52	-42.5	-47.0	11.1	1.54e-03	0	59	0	291504128	55	6435
2026-01-22 10:58:51.25	208.91	19.62	-42.5	-46.9	11.2	1.53e-03	0	59	0	293601280	55	6367
2026-01-22 10:58:52.25	209.05	19.72	-42.5	-46.9	11.1	1.36e-03	0	59	0	295698432	55	6416
2026-01-22 10:58:53.26	209.21	19.83	-42.6	-47.0	11.1	1.75e-03	0	59	0	297795584	55	6466
2026-01-22 10:58:54.27	209.36	19.93	-42.6	-47.0	11.0	1.74e-03	0	59	0	298844160	55	6480
2026-01-22 10:58:55.28	209.51	20.04	-42.6	-47.0	11.1	1.83e-03	0	59	0	300941312	55	6464
2026-01-22 10:58:56.29	209.67	20.15	-42.6	-47.0	11.0	1.64e-03	0	59	0	303038464	55	6467
2026-01-22 10:58:57.30	209.82	20.25	-42.6	-47.0	11.1	1.78e-03	0	59	0	305135616	55	6477
2026-01-22 10:58:58.31	209.98	20.36	-42.5	-46.9	11.2	1.55e-03	0	59	0	307232768	55	6381
2026-01-22 10:58:59.32	210.14	20.47	-42.5	-46.8	11.3	1.24e-03	0	59	0	308281344	55	6295
2026-01-22 10:59:00.33	210.30	20.57	-42.4	-46.7	11.4	1.01e-03	0	59	0	310378496	55	6259
2026-01-22 10:59:01.34	210.46	20.68	-42.4	-46.6	11.5	8.21e-04	0	59	0	312475648	55	6177
2026-01-22 10:59:02.35	210.62	20.79	-42.4	-46.7	11.4	8.82e-04	0	60	0	314572800	55	6241
2026-01-22 10:59:03.36	210.78	20.90	-42.4	-46.7	11.5	8.51e-04	0	59	0	316669952	55	6204
2026-01-22 10:59:04.37	210.94	21.00	-42.4	-46.7	11.4	9.61e-04	0	59	0	317718528	55	6260
2026-01-22 10:59:05.38	211.11	21.11	-42.4	-46.7	11.4	1.13e-03	0	59	0	319815680	55	6236
2026-01-22 10:59:06.39	211.27	21.22	-42.4	-46.6	11.5	9.00e-04	0	59	0	321912832	55	6202
2026-01-22 10:59:07.40	211.44	21.33	-42.4	-46.7	11.4	9.77e-04	0	59	0	324009984	55	6232
2026-01-22 10:59:08.41	211.61	21.44	-42.5	-46.8	11.4	1.00e-03	0	60	0	326107136	55	6277
2026-01-22 10:59:09.41	211.77	21.55	-42.5	-46.7	11.4	1.04e-03	0	59	0	327155712	55	6262
2026-01-22 10:59:10.42	211.94	21.66	-42.5	-46.8	11.4	1.01e-03	0	59	0	329252864	55	6285
2026-01-22 10:59:11.43	212.11	21.77	-42.5	-46.8	11.3	1.10e-03	0	59	0	331350016	55	6336
2026-01-22 10:59:12.44	212.29	21.88	-42.6	-47.0	11.2	1.39e-03	0	60	0	333447168	55	6441
2026-01-22 10:59:13.45	212.46	21.99	-42.5	-46.8	11.3	1.14e-03	0	60	0	335544320	55	6314
2026-01-22 10:59:14.46	212.64	22.10	-42.4	-46.7	11.4	1.03e-03	0	60	0	336592896	55	6243
2026-01-22 10:59:15.47	212.81	22.21	-42.5	-46.8	11.3	1.09e-03	0	59	0	338690048	55	6305
2026-01-22 10:59:16.48	212.99	22.32	-42.5	-46.8	11.3	9.83e-04	0	59	0	340787200	55	6300
2026-01-22 10:59:17.49	213.17	22.43	-42.5	-46.8	11.3	1.13e-03	0	59	0	342884352	55	6310
2026-01-22 10:59:18.50	213.35	22.54	-42.5	-46.8	11.3	1.15e-03	0	59	0	344981504	55	6319
2026-01-22 10:59:19.51	213.53	22.65	-42.5	-46.8	11.3	1.18e-03	0	59	0	347078656	55	6297
2026-01-22 10:59:20.52	213.71	22.76	-42.5	-46.9	11.3	1.10e-03	0	59	0	348127232	55	6349
2026-01-22 10:59:21.53	213.89	22.87	-42.5	-46.9	11.3	1.27e-03	0	60	0	350224384	55	6350
2026-01-22 10:59:22.54	214.08	22.99	-42.5	-46.8	11.4	9.31e-04	0	60	0	352321536	55	6280
2026-01-22 10:59:23.55	214.26	23.10	-42.5	-46.7	11.4	8.89e-04	0	59	0	354418688	55	6238
2026-01-22 10:59:24.56	214.45	23.21	-42.4	-46.6	11.5	8.71e-04	0	60	0	355467264	55	6194
2026-01-22 10:59:25.57	214.64	23.32	-42.4	-46.6	11.6	7.90e-04	0	59	0	357564416	55	6170
2026-01-22 10:59:26.58	214.83	23.44	-42.4	-46.5	11.7	6.65e-04	0	60	0	359661568	55	6063
2026-01-22 10:59:27.59	215.02	23.55	-42.4	-46.5	11.6	6.72e-04	0	59	0	361758720	55	6121
2026-01-22 10:59:28.59	215.21	23.66	-42.4	-46.5	11.7	6.19e-04	0	60	0	363855872	55	6084
2026-01-22 10:59:29.60	215.41	23.77	-42.4	-46.5	11.7	5.78e-04	0	60	0	364904448	55	6104
2026-01-22 10:59:30.61	215.60	23.89	-42.4	-46.5	11.6	5.84e-04	0	59	0	367001600	55	6124
2026-01-22 10:59:31.62	215.80	24.00	-42.3	-46.4	11.8	5.14e-04	0	60	0	369098752	55	6017
2026-01-22 10:59:32.63	216.00	24.11	-42.3	-46.2	11.9	4.16e-04	0	59	0	371195904	55	5919
2026-01-22 10:59:33.64	216.20	24.23	-42.2	-46.1	12.1	3.11e-04	0	59	0	373293056	55	5835
2026-01-22 10:59:34.65	216.40	24.34	-42.2	-46.2	12.0	2.99e-04	0	59	0	375390208	55	5893
2026-01-22 10:59:35.66	216.60	24.45	-42.1	-46.0	12.2	2.49e-04	0	59	0	376438784	55	5778
2026-01-22 10:59:36.67	216.80	24.57	-42.1	-46.0	12.3	2.43e-04	0	60	0	378535936	55	5743
2026-01-22 10:59:37.68	217.01	24.68	-42.0	-45.8	12.4	1.76e-04	0	60	0	380633088	55	5610
2026-01-22 10:59:38.69	217.22	24.80	-42.0	-45.7	12.5	1.25e-04	0	60	0	382730240	55	5591
2026-01-22 10:59:39.70	217.42	24.91	-41.9	-45.6	12.7	9.46e-05	0	60	0	384827392	55	5496
2026-01-22 10:59:40.71	217.63	25.03	-41.9	-45.6	12.7	8.16e-05	0	60	0	385875968	55	5466
2026-01-22 10:59:41.72	217.85	25.14	-41.9	-45.4	12.8	5.26e-05	0	59	0	387973120	55	5396
2026-01-22 10:59:42.73	218.06	25.26	-41.9	-45.5	12.7	6.56e-05	0	60	0	390070272	55	5427
2026-01-22 10:59:43.74	218.27	25.37	-41.9	-45.5	12.7	6.10e-05	0	60	0	392167424	55	5452
2026-01-22 10:59:44.75	218.49	25.49	-41.9	-45.5	12.8	6.79e-05	0	59	0	394264576	55	5419
2026-01-22 10:59:45.76	218.71	25.60	-41.8	-45.4	12.8	5.64e-05	0	60	0	395313152	55	5388
2026-01-22 10:59:46.77	218.92	25.72	-41.9	-45.5	12.7	6.17e-05	0	60	0	397410304	55	5432
2026-01-22 10:59:47.78	219.14	25.83	-41.9	-45.5	12.8	7.47e-05	0	60	0	399507456	55	5404
2026-01-22 10:59:48.79	219.37	25.95	-41.8	-45.4	12.9	5.26e-05	0	60	0	401604608	55	5357
2026-01-22 10:59:49.80	219.59	26.06	-41.8	-45.4	12.9	4.42e-05	0	60	0	403701760	55	5343
2026-01-22 10:59:50.81	219.82	26.18	-41.9	-45.4	12.8	4.57e-05	0	60	0	404750336	55	5402
2026-01-22 10:59:51.82	220.04	26.29	-42.0	-45.6	12.7	8.46e-05	0	60	0	406847488	55	5501
2026-01-22 10:59:52.82	220.27	26.40	-41.9	-45.5	12.8	5.49e-05	0	60	0	408944640	55	5415
2026-01-22 10:59:53.83	220.50	26.52	-41.9	-45.6	12.7	6.40e-05	0	60	0	411041792	55	5485
2026-01-22 10:59:54.84	220.73	26.64	-41.9	-45.5	12.7	7.24e-05	0	60	0	413138944	55	5464
2026-01-22 10:59:55.85	220.96	26.75	-41.9	-45.6	12.7	7.24e-05	0	60	0	414187520	55	5476
2026-01-22 10:59:56.86	221.20	26.87	-41.9	-45.6	12.7	7.32e-05	0	60	0	416284672	55	5467
2026-01-22 10:59:57.87	221.44	26.98	-42.0	-45.6	12.6	1.04e-04	0	60	0	418381824	55	5515
2026-01-22 10:59:58.88	221.67	27.10	-42.1	-45.8	12.4	1.40e-04	0	59	0	420478976	55	5656
2026-01-22 10:59:59.89	221.91	27.21	-42.1	-45.9	12.3	1.33e-04	0	60	0	422576128	55	5714
2026-01-22 11:00:00.90	222.16	27.33	-42.2	-46.1	12.1	1.99e-04	0	60	0	423624704	55	5810
2026-01-22 11:00:01.91	222.40	27.44	-42.2	-46.2	12.1	2.97e-04	0	60	0	425721856	55	5857
2026-01-22 11:00:02.92	222.64	27.56	-42.2	-46.1	12.1	3.33e-04	0	60	0	427819008	55	5839
2026-01-22 11:00:03.93	222.89	27.67	-42.2	-46.1	12.1	2.58e-04	0	60	0	429916160	55	5819
2026-01-22 11:00:04.94	223.14	27.79	-42.2	-46.1	12.2	2.34e-04	0	60	0	432013312	55	5809
2026-01-22 11:00:05.95	223.39	27.90	-42.2	-46.1	12.1	2.68e-04	0	60	0	433061888	55	5844
2026-01-22 11:00:06.95	223.64	28.01	-42.2	-46.1	12.1	2.56e-04	0	60	0	435159040	55	5817
2026-01-22 11:00:07.96	223.89	28.13	-42.3	-46.2	12.0	2.66e-04	0	60	0	437256192	55	5913
2026-01-22 11:00:08.97	224.15	28.24	-42.3	-46.3	11.9	3.59e-04	0	60	0	439353344	55	5975
2026-01-22 11:00:09.98	224.41	28.36	-42.4	-46.5	11.7	4.47e-04	0	60	0	441450496	55	6113
2026-01-22 11:00:10.99	224.67	28.47	-42.4	-46.5	11.7	6.35e-04	0	60	0	443547648	55	6126
2026-01-22 11:00:12.00	224.93	28.59	-42.5	-46.7	11.6	7.29e-04	0	60	0	444596224	55	6205
2026-01-22 11:00:13.01	225.19	28.70	-42.5	-46.7	11.5	7.22e-04	0	60	0	446693376	55	6257
2026-01-22 11:00:14.02	225.45	28.81	-42.5	-46.9	11.3	1.05e-03	0	60	0	448790528	55	6375
2026-01-22 11:00:15.03	225.72	28.93	-42.6	-47.0	11.2	1.12e-03	0	60	0	450887680	55	6443
2026-01-22 11:00:16.04	225.99	29.04	-42.9	-47.4	10.9	1.61e-03	0	60	0	452984832	56	6391
2026-01-22 11:00:17.05	226.26	29.15	-42.9	-47.6	10.8	2.37e-03	0	60	0	454033408	56	6506
2026-01-22 11:00:18.06	226.53	29.27	-43.1	-47.9	10.4	3.86e-03	0	60	0	456130560	56	6750
2026-01-22 11:00:19.07	226.81	29.38	-43.2	-48.1	10.2	4.96e-03	0	60	0	458227712	56	6937
2026-01-22 11:00:20.07	227.08	29.49	-43.2	-48.2	10.1	5.86e-03	0	60	0	460324864	56	6981
2026-01-22 11:00:21.09	227.36	29.60	-43.1	-48.0	10.3	5.01e-03	0	60	0	462422016	56	6852
2026-01-22 11:00:22.10	227.64	29.71	-43.1	-48.0	10.3	5.17e-03	0	60	0	463470592	56	6841
2026-01-22 11:00:23.11	227.92	29.83	-43.1	-47.9	10.4	4.87e-03	0	60	0	465567744	56	6754
2026-01-22 11:00:24.12	228.20	29.94	-43.1	-47.8	10.5	4.04e-03	0	60	0	467664896	56	6722
2026-01-22 11:00:25.13	228.49	30.05	-43.1	-48.0	10.4	4.45e-03	0	60	0	469762048	56	6841
2026-01-22 11:00:26.14	228.78	30.16	-43.3	-48.4	9.9	7.11e-03	0	60	0	471859200	57	6758
2026-01-22 11:00:27.14	229.06	30.27	-43.5	-48.9	9.4	1.39e-02	0	60	0	472907776	57	7168
2026-01-22 11:00:28.15	229.35	30.38	-43.6	-49.4	8.9	2.30e-02	0	60	0	475004928	57	7563
2026-01-22 11:00:29.16	229.65	30.49	-43.7	-49.7	8.6	3.28e-02	0	60	0	477102080	58	7453
2026-01-22 11:00:30.17	229.94	30.59	-43.9	-50.1	8.2	4.34e-02	0	60	0	479199232	58	7738
2026-01-22 11:00:31.18	230.24	30.70	-44.0	-50.5	7.7	7.63e-02	0	60	0	481296384	58	8164
2026-01-22 11:00:32.19	230.54	30.81	-44.0	-50.8	7.5	1.03e-01	0	60	0	482344960	58	8441
2026-01-22 11:00:33.20	230.84	30.92	-44.1	-51.0	7.3	1.18e-01	0	60	0	484442112	58	8630
2026-01-22 11:00:34.21	231.14	31.03	-44.1	-51.1	7.2	1.30e-01	0	60	0	486539264	58	8671
2026-01-22 11:00:35.22	231.45	31.13	-44.1	-51.1	7.2	1.36e-01	0	60	0	488636416	58	8716
2026-01-22 11:00:36.23	231.75	31.24	-44.1	-51.0	7.3	1.28e-01	0	60	0	490733568	58	8590
2026-01-22 11:00:37.24	232.06	31.34	-44.2	-51.4	6.9	1.47e-01	0	60	0	491782144	58	8993
2026-01-22 11:00:38.25	232.37	31.45	-44.5	-52.8	5.5	6.64e-01	0	60	0	493879296	59	10026
2026-01-22 11:00:39.26	232.69	31.55	-45.0	-59.5	3.8	1.07e+00	0	60	104	494927872	60	20352
2026-01-22 11:00:40.27	233.00	31.66	-44.6	-53.9	5.0	1.23e+00	0	60	0	494927872	60	10736
2026-01-22 11:00:41.28	233.32	31.76	-44.8	-56.0	3.9	1.04e+00	0	60	104	495976448	60	13579
2026-01-22 11:00:42.29	233.64	31.86	-44.1	-51.6	6.8	2.97e-01	0	60	0	497025024	60	8207
2026-01-22 11:00:43.30	233.96	31.97	-44.1	-51.0	7.3	1.55e-01	0	60	0	498073600	59	8117
2026-01-22 11:00:44.31	234.28	32.07	-44.0	-50.7	7.5	1.06e-01	0	60	0	500170752	59	7895
2026-01-22 11:00:45.32	234.60	32.17	-44.1	-50.8	7.4	1.12e-01	0	60	0	502267904	59	7968
2026-01-22 11:00:46.33	234.93	32.27	-44.0	-50.8	7.5	1.06e-01	0	60	0	504365056	59	7908
2026-01-22 11:00:47.34	235.26	32.37	-44.1	-51.0	7.2	1.20e-01	0	60	0	506462208	59	8136
2026-01-22 11:00:48.34	235.59	32.47	-44.3	-51.8	6.5	4.69e-01	0	60	0	507510784	59	8917
2026-01-22 11:00:49.36	235.92	32.57	-44.2	-51.2	6.8	3.52e-01	0	60	0	509607936	59	8346
2026-01-22 11:00:50.36	236.25	32.66	-45.0	-58.9	3.8	1.49e+00	0	60	104	510656512	60	19131
2026-01-22 11:00:51.37	236.59	32.76	-44.2	-51.8	6.5	1.15e+00	0	60	0	510656512	60	8406
2026-01-22 11:00:52.38	236.93	32.85	-44.6	-54.5	4.7	6.25e-01	0	60	0	511705088	60	11442
2026-01-22 11:00:53.39	237.27	32.95	-44.0	-50.5	7.8	8.88e-02	0	60	0	513802240	59	7679
2026-01-22 11:00:54.40	237.61	33.04	-43.9	-50.1	8.1	7.41e-02	0	60	0	515899392	59	7352
2026-01-22 11:00:55.41	237.95	33.14	-43.9	-50.1	8.2	5.54e-02	0	60	0	517996544	59	7323
2026-01-22 11:00:56.42	238.30	33.23	-43.8	-50.0	8.3	5.81e-02	0	60	0	519045120	59	7237
2026-01-22 11:00:57.43	238.65	33.32	-43.8	-49.8	8.4	5.20e-02	0	60	0	521142272	59	7066
2026-01-22 11:00:58.44	239.00	33.41	-43.6	-49.3	9.0	3.32e-02	0	60	0	523239424	59	6672
2026-01-22 11:00:59.45	239.35	33.50	-43.5	-48.9	9.4	2.14e-02	0	60	0	525336576	58	6773
2026-01-22 11:01:00.46	239.70	33.59	-43.4	-48.5	9.8	1.18e-02	0	60	0	527433728	58	6474
2026-01-22 11:01:01.47	240.06	33.68	-43.3	-48.4	9.9	8.48e-03	0	60	0	528482304	58	6362
2026-01-22 11:01:02.47	240.41	33.77	-43.3	-48.4	9.9	9.41e-03	0	60	0	530579456	58	6386
2026-01-22 11:01:03.49	240.78	33.85	-43.3	-48.4	9.9	9.63e-03	0	60	0	532676608	58	6402
2026-01-22 11:01:04.49	241.14	33.94	-43.3	-48.5	9.8	1.07e-02	0	60	0	534773760	58	6487
2026-01-22 11:01:05.50	241.50	34.02	-43.3	-48.5	9.8	1.03e-02	0	60	0	536870912	58	6467
2026-01-22 11:01:06.51	241.86	34.10	-43.3	-48.3	10.0	7.86e-03	0	60	0	538968064	58	6326
2026-01-22 11:01:07.52	242.23	34.19	-43.2	-48.1	10.2	6.83e-03	0	60	0	540016640	58	6159
2026-01-22 11:01:08.53	242.60	34.27	-43.0	-47.6	10.7	4.09e-03	0	60	0	542113792	58	5844
2026-01-22 11:01:09.54	242.97	34.35	-42.9	-47.3	11.0	1.92e-03	0	60	0	544210944	57	5964
2026-01-22 11:01:10.55	243.34	34.43	-42.9	-47.3	11.1	1.97e-03	0	60	0	546308096	57	5966
2026-01-22 11:01:11.56	243.72	34.50	-42.9	-47.3	11.1	1.79e-03	0	60	0	548405248	57	5942
2026-01-22 11:01:12.57	244.09	34.58	-42.8	-47.3	11.1	1.65e-03	0	60	0	549453824	57	5941
2026-01-22 11:01:13.58	244.47	34.65	-42.9	-47.4	11.0	1.75e-03	0	60	0	551550976	57	6039
2026-01-22 11:01:14.59	244.85	34.73	-42.8	-47.2	11.2	1.46e-03	0	60	0	553648128	57	5891
2026-01-22 11:01:15.60	245.23	34.80	-42.7	-47.0	11.4	1.28e-03	0	60	0	555745280	57	5735
2026-01-22 11:01:16.61	245.61	34.87	-42.8	-47.0	11.3	1.03e-03	0	60	0	557842432	57	5784
2026-01-22 11:01:17.62	246.00	34.94	-42.8	-47.2	11.2	1.28e-03	0	60	0	558891008	57	5903
2026-01-22 11:01:18.63	246.38	35.01	-43.0	-47.7	10.7	2.00e-03	0	60	0	560988160	57	6224
2026-01-22 11:01:19.64	246.77	35.08	-43.0	-47.7	10.6	3.45e-03	0	60	0	563085312	57	6233
2026-01-22 11:01:20.64	247.15	35.15	-43.1	-47.9	10.4	3.57e-03	0	60	0	565182464	57	6371
2026-01-22 11:01:21.65	247.54	35.21	-43.1	-47.9	10.4	3.61e-03	0	60	0	567279616	57	6361
2026-01-22 11:01:22.66	247.94	35.28	-43.2	-48.0	10.3	5.08e-03	0	60	0	568328192	57	6472
2026-01-22 11:01:23.67	248.33	35.34	-43.2	-48.2	10.1	6.09e-03	0	60	0	570425344	57	6627
2026-01-22 11:01:24.68	248.72	35.40	-43.1	-48.0	10.3	5.85e-03	0	60	0	572522496	57	6461
2026-01-22 11:01:25.69	249.12	35.46	-43.1	-47.8	10.5	4.32e-03	0	60	0	574619648	57	6291
2026-01-22 11:01:26.70	249.52	35.52	-43.0	-47.6	10.7	3.04e-03	0	60	0	576716800	57	6189
2026-01-22 11:01:27.71	249.92	35.57	-42.9	-47.5	10.8	2.27e-03	0	60	0	577765376	57	6100
2026-01-22 11:01:28.72	250.32	35.63	-43.0	-47.7	10.6	3.07e-03	0	60	0	579862528	57	6242
2026-01-22 11:01:29.73	250.72	35.68	-43.1	-47.8	10.5	3.09e-03	0	60	0	581959680	57	6323
2026-01-22 11:01:30.74	251.12	35.74	-43.1	-47.8	10.6	3.39e-03	0	60	0	584056832	57	6278
2026-01-22 11:01:31.75	251.53	35.79	-42.9	-47.4	10.9	3.04e-03	0	60	0	586153984	57	6061
2026-01-22 11:01:32.76	251.93	35.84	-42.8	-47.1	11.3	1.41e-03	0	60	0	587202560	57	5832
2026-01-22 11:01:33.77	252.34	35.88	-42.7	-46.9	11.5	9.92e-04	0	60	0	589299712	57	5683
2026-01-22 11:01:34.78	252.75	35.93	-42.6	-46.7	11.7	7.61e-04	0	60	0	591396864	57	5538
2026-01-22 11:01:35.79	253.16	35.98	-42.5	-46.5	11.9	4.71e-04	0	60	0	593494016	57	5463
2026-01-22 11:01:36.80	253.57	36.02	-42.5	-46.5	11.9	4.43e-04	0	60	0	595591168	57	5425
2026-01-22 11:01:37.81	253.98	36.06	-42.5	-46.5	12.0	3.11e-04	0	60	0	596639744	56	5725
2026-01-22 11:01:38.81	254.38	36.10	-42.5	-46.5	12.0	3.67e-04	0	60	0	598736896	56	5728
2026-01-22 11:01:39.82	254.80	36.14	-42.5	-46.5	11.9	4.20e-04	0	60	0	600834048	56	5731
2026-01-22 11:01:40.83	255.21	36.18	-42.5	-46.4	12.0	2.94e-04	0	60	0	602931200	56	5700
2026-01-22 11:01:41.84	255.63	36.21	-42.5	-46.5	11.9	3.58e-04	0	60	0	605028352	56	5784
2026-01-22 11:01:42.85	256.04	36.25	-42.7	-46.8	11.6	5.46e-04	0	60	0	606076928	56	5975
2026-01-22 11:01:43.86	256.46	36.28	-42.9	-47.3	11.1	1.12e-03	0	60	0	608174080	56	6340
2026-01-22 11:01:44.87	256.88	36.31	-43.2	-48.1	10.3	2.43e-03	0	60	0	610271232	56	6892
2026-01-22 11:01:45.88	257.29	36.34	-43.3	-48.4	9.8	7.41e-03	0	60	0	612368384	57	6795
2026-01-22 11:01:46.89	257.71	36.37	-43.5	-49.0	9.3	1.38e-02	0	60	0	614465536	57	7287
2026-01-22 11:01:47.89	258.13	36.39	-43.5	-49.0	9.3	2.03e-02	0	60	0	615514112	57	7208
2026-01-22 11:01:48.90	258.55	36.42	-43.4	-48.6	9.6	1.24e-02	0	60	0	617611264	57	6955
2026-01-22 11:01:49.91	258.97	36.44	-43.3	-48.3	10.0	9.49e-03	0	60	0	619708416	57	6701
2026-01-22 11:01:50.92	259.39	36.46	-43.3	-48.3	10.0	8.85e-03	0	60	0	621805568	57	6673
2026-01-22 11:01:51.93	259.81	36.48	-43.3	-48.4	9.9	7.67e-03	0	60	0	623902720	57	6756
2026-01-22 11:01:52.94	260.24	36.49	-43.5	-48.9	9.4	1.26e-02	0	60	0	624951296	57	7185
2026-01-22 11:01:53.95	260.66	36.51	-43.6	-49.1	9.1	1.86e-02	0	60	0	627048448	57	7350
2026-01-22 11:01:54.96	261.08	36.52	-43.5	-49.0	9.3	1.90e-02	0	60	0	629145600	57	7251
2026-01-22 11:01:55.97	261.50	36.54	-43.5	-49.0	9.3	1.81e-02	0	60	0	631242752	57	7268
2026-01-22 11:01:56.98	261.93	36.55	-43.6	-49.2	9.1	2.10e-02	0	60	0	633339904	57	7397
2026-01-22 11:01:57.99	262.35	36.56	-43.6	-49.2	9.1	2.25e-02	0	60	0	635437056	57	7396
2026-01-22 11:01:59.00	262.78	36.56	-43.6	-49.2	9.1	2.47e-02	0	60	0	636485632	57	7422
2026-01-22 11:02:00.01	263.20	36.57	-43.5	-48.9	9.4	2.07e-02	0	60	0	638582784	57	7134
2026-01-22 11:02:01.02	263.62	36.57	-43.5	-48.8	9.5	1.51e-02	0	60	0	640679936	57	7098
2026-01-22 11:02:02.03	264.05	36.57	-43.4	-48.7	9.6	1.29e-02	0	60	0	642777088	57	6971
2026-01-22 11:02:03.04	264.47	36.57	-43.4	-48.5	9.8	1.11e-02	0	60	0	644874240	57	6877
2026-01-22 11:02:04.05	264.90	36.57	-43.5	-48.9	9.5	1.20e-02	0	60	0	645922816	57	7122
2026-01-22 11:02:05.05	265.32	36.57	-43.5	-49.0	9.2	2.02e-02	0	60	0	648019968	57	7264
2026-01-22 11:02:06.06	265.74	36.56	-43.6	-49.2	9.1	2.11e-02	0	60	0	650117120	57	7375
2026-01-22 11:02:07.07	266.16	36.56	-43.4	-48.8	9.5	2.03e-02	0	60	0	652214272	57	7057
2026-01-22 11:02:08.08	266.59	36.55	-43.3	-48.3	10.0	8.87e-03	0	60	0	654311424	57	6668
2026-01-22 11:02:09.09	267.01	36.54	-43.1	-47.9	10.4	4.82e-03	0	60	0	655360000	57	6411
2026-01-22 11:02:10.10	267.43	36.53	-43.1	-47.8	10.5	3.60e-03	0	60	0	657457152	57	6335
2026-01-22 11:02:11.11	267.86	36.51	-43.2	-48.1	10.2	5.20e-03	0	60	0	659554304	57	6565
2026-01-22 11:02:12.12	268.28	36.50	-43.4	-48.5	9.8	8.61e-03	0	60	0	661651456	57	6833
2026-01-22 11:02:13.13	268.70	36.48	-43.2	-48.1	10.3	9.05e-03	0	60	0	663748608	57	6530
2026-01-22 11:02:14.15	269.13	36.46	-43.0	-47.5	10.9	4.12e-03	0	60	0	664797184	57	6083
2026-01-22 11:02:15.15	269.54	36.44	-42.7	-47.0	11.4	1.13e-03	0	60	0	666894336	57	5759
2026-01-22 11:02:16.16	269.96	36.42	-42.6	-46.7	11.8	7.17e-04	0	60	0	668991488	57	5558
2026-01-22 11:02:17.17	270.38	36.39	-42.6	-46.6	11.8	5.31e-04	0	60	0	671088640	57	5489
2026-01-22 11:02:18.18	270.80	36.37	-42.7	-46.8	11.6	6.13e-04	0	60	0	673185792	57	5612
2026-01-22 11:02:19.19	271.22	36.34	-42.9	-47.4	11.0	1.33e-03	0	60	0	674234368	57	6022
2026-01-22 11:02:20.20	271.64	36.31	-43.1	-47.7	10.6	3.00e-03	0	60	0	676331520	57	6265
2026-01-22 11:02:21.21	272.06	36.28	-43.1	-47.8	10.6	3.61e-03	0	60	0	678428672	57	6278
2026-01-22 11:02:22.21	272.47	36.25	-42.9	-47.3	11.0	2.33e-03	0	60	0	680525824	57	5971
2026-01-22 11:02:23.22	272.88	36.22	-42.8	-47.1	11.3	1.29e-03	0	60	0	682622976	57	5851
2026-01-22 11:02:24.23	273.30	36.18	-42.7	-46.8	11.6	8.48e-04	0	60	0	683671552	57	5614
2026-01-22 11:02:25.24	273.71	36.14	-42.8	-47.0	11.3	8.36e-04	0	60	0	685768704	57	5764
2026-01-22 11:02:26.25	274.12	36.10	-43.0	-47.5	10.9	1.71e-03	0	60	0	687865856	57	6121
2026-01-22 11:02:27.26	274.54	36.06	-43.1	-47.9	10.5	3.64e-03	0	60	0	689963008	57	6379
2026-01-22 11:02:28.27	274.95	36.02	-43.2	-48.1	10.2	5.49e-03	0	60	0	692060160	57	6561
2026-01-22 11:02:29.28	275.36	35.98	-43.3	-48.5	9.8	7.85e-03	0	60	0	693108736	57	6840
2026-01-22 11:02:30.29	275.76	35.93	-43.5	-48.8	9.5	1.20e-02	0	60	0	695205888	57	7103
2026-01-22 11:02:31.30	276.17	35.89	-43.6	-49.1	9.2	1.99e-02	0	60	0	697303040	57	7354
2026-01-22 11:02:32.31	276.58	35.84	-43.8	-49.7	8.6	3.07e-02	0	60	0	699400192	58	7405
2026-01-22 11:02:33.32	276.98	35.79	-43.9	-50.0	8.3	4.76e-02	0	60	0	701497344	58	7700
2026-01-22 11:02:34.33	277.39	35.74	-43.8	-49.7	8.6	4.33e-02	0	60	0	703594496	58	7402
2026-01-22 11:02:35.34	277.79	35.69	-43.6	-49.1	9.2	2.61e-02	0	60	0	704643072	58	6941
2026-01-22 11:02:36.35	278.19	35.63	-43.4	-48.6	9.7	1.41e-02	0	60	0	706740224	58	6543
2026-01-22 11:02:37.36	278.59	35.58	-43.4	-48.4	9.9	9.85e-03	0	60	0	708837376	58	6419
2026-01-22 11:02:38.37	278.99	35.52	-43.5	-48.8	9.6	1.01e-02	0	60	0	710934528	58	6653
2026-01-22 11:02:39.38	279.38	35.46	-43.5	-48.9	9.4	1.55e-02	0	60	0	713031680	58	6746
2026-01-22 11:02:40.38	279.78	35.41	-43.4	-48.7	9.6	1.48e-02	0	60	0	714080256	58	6620
2026-01-22 11:02:41.39	280.17	35.34	-43.3	-48.4	10.0	9.43e-03	0	60	0	716177408	58	6369
2026-01-22 11:02:42.40	280.56	35.28	-43.2	-48.2	10.2	6.75e-03	0	60	0	718274560	58	6206
2026-01-22 11:02:43.41	280.95	35.22	-43.4	-48.6	9.7	7.51e-03	0	60	0	720371712	58	6549
2026-01-22 11:02:44.42	281.34	35.15	-43.5	-49.0	9.3	1.35e-02	0	60	0	722468864	58	6805
2026-01-22 11:02:45.43	281.73	35.09	-43.5	-49.0	9.3	1.93e-02	0	60	0	723517440	58	6842
2026-01-22 11:02:46.44	282.12	35.02	-43.4	-48.6	9.7	1.60e-02	0	60	0	725614592	58	6544
2026-01-22 11:02:47.45	282.50	34.95	-43.3	-48.3	10.1	8.28e-03	0	60	0	727711744	58	6281
2026-01-22 11:02:48.46	282.89	34.88	-43.1	-47.8	10.5	4.90e-03	0	60	0	729808896	58	5988
2026-01-22 11:02:49.47	283.27	34.81	-43.0	-47.6	10.8	3.13e-03	0	60	0	731906048	58	5808
2026-01-22 11:02:50.47	283.64	34.74	-42.9	-47.3	11.1	1.65e-03	0	60	0	732954624	57	5968
2026-01-22 11:02:51.48	284.02	34.66	-43.1	-47.8	10.5	2.62e-03	0	60	0	735051776	57	6296
2026-01-22 11:02:52.49	284.40	34.59	-43.2	-48.1	10.3	5.39e-03	0	60	0	737148928	57	6495
2026-01-22 11:02:53.50	284.77	34.51	-43.1	-47.9	10.5	4.69e-03	0	60	0	739246080	57	6368
2026-01-22 11:02:54.51	285.15	34.44	-43.0	-47.5	10.8	3.19e-03	0	60	0	741343232	57	6119
2026-01-22 11:02:55.52	285.52	34.36	-42.9	-47.3	11.0	2.10e-03	0	60	0	742391808	57	5986
2026-01-22 11:02:56.53	285.89	34.28	-42.8	-47.1	11.3	1.50e-03	0	60	0	744488960	57	5814
2026-01-22 11:02:57.54	286.25	34.20	-42.8	-47.1	11.3	1.01e-03	0	60	0	746586112	57	5811
2026-01-22 11:02:58.55	286.62	34.12	-42.7	-47.0	11.4	1.05e-03	0	60	0	748683264	57	5743
2026-01-22 11:02:59.55	286.98	34.04	-42.6	-46.7	11.7	7.51e-04	0	60	0	750780416	57	5565
2026-01-22 11:03:00.56	287.34	33.95	-42.6	-46.8	11.6	6.13e-04	0	60	0	751828992	57	5607
2026-01-22 11:03:01.57	287.70	33.87	-42.7	-47.0	11.4	7.24e-04	0	60	0	753926144	57	5733
2026-01-22 11:03:02.58	288.06	33.78	-42.9	-47.4	11.0	1.37e-03	0	60	0	756023296	57	6038
2026-01-22 11:03:03.59	288.42	33.69	-43.0	-47.6	10.7	3.07e-03	0	60	0	758120448	57	6199
2026-01-22 11:03:04.60	288.77	33.61	-43.2	-48.0	10.3	4.67e-03	0	60	0	760217600	57	6485
2026-01-22 11:03:05.61	289.13	33.52	-43.2	-48.1	10.2	5.59e-03	0	60	0	761266176	57	6549
2026-01-22 11:03:06.62	289.48	33.43	-43.1	-48.0	10.4	5.39e-03	0	60	0	763363328	57	6427
2026-01-22 11:03:07.63	289.83	33.34	-43.0	-47.7	10.6	4.07e-03	0	60	0	765460480	57	6236
2026-01-22 11:03:08.64	290.17	33.25	-43.0	-47.5	10.8	2.62e-03	0	60	0	767557632	57	6109
2026-01-22 11:03:09.65	290.52	33.16	-43.0	-47.6	10.8	2.52e-03	0	60	0	769654784	57	6154
2026-01-22 11:03:10.66	290.86	33.06	-43.0	-47.6	10.8	2.68e-03	0	60	0	771751936	57	6184
2026-01-22 11:03:11.67	291.20	32.97	-43.0	-47.6	10.7	2.97e-03	0	60	0	772800512	57	6167
2026-01-22 11:03:12.68	291.54	32.87	-42.9	-47.3	11.0	2.36e-03	0	60	0	774897664	57	5988
2026-01-22 11:03:13.69	291.88	32.78	-42.9	-47.3	11.1	1.62e-03	0	60	0	776994816	57	5963
2026-01-22 11:03:14.70	292.22	32.68	-42.8	-47.2	11.1	1.52e-03	0	60	0	779091968	57	5923
2026-01-22 11:03:15.71	292.55	32.59	-43.0	-47.7	10.6	2.02e-03	0	60	0	781189120	57	6247
2026-01-22 11:03:16.72	292.88	32.49	-43.2	-48.1	10.2	5.63e-03	0	60	0	782237696	57	6562
2026-01-22 11:03:17.73	293.21	32.39	-43.3	-48.4	9.8	8.26e-03	0	60	0	784334848	57	6788
2026-01-22 11:03:18.73	293.53	32.29	-43.3	-48.3	10.0	8.81e-03	0	60	0	786432000	57	6654
2026-01-22 11:03:19.75	293.86	32.19	-43.2	-48.0	10.3	5.80e-03	0	60	0	788529152	57	6479
2026-01-22 11:03:20.76	294.19	32.09	-43.2	-48.1	10.3	5.25e-03	0	60	0	789577728	57	6507
2026-01-22 11:03:21.77	294.51	31.99	-43.3	-48.4	9.9	6.68e-03	0	60	0	791674880	57	6798
2026-01-22 11:03:22.77	294.83	31.89	-43.6	-49.3	8.9	2.13e-02	0	60	0	793772032	57	7530
2026-01-22 11:03:23.78	295.14	31.79	-43.8	-50.0	8.2	4.19e-02	0	60	0	795869184	58	7670
2026-01-22 11:03:24.79	295.46	31.69	-43.9	-50.4	7.9	6.72e-02	0	60	0	797966336	58	7996
2026-01-22 11:03:25.80	295.77	31.58	-43.7	-49.5	8.8	5.57e-02	0	60	0	800063488	58	7226
2026-01-22 11:03:26.81	296.08	31.48	-43.3	-48.3	10.0	1.23e-02	0	61	0	801112064	58	6292
2026-01-22 11:03:27.82	296.39	31.37	-43.0	-47.7	10.6	4.49e-03	0	60	0	803209216	58	5912
2026-01-22 11:03:28.83	296.70	31.27	-43.1	-47.8	10.5	3.50e-03	0	60	0	805306368	58	5942
2026-01-22 11:03:29.84	297.01	31.16	-43.2	-48.2	10.1	5.25e-03	0	60	0	807403520	58	6247
2026-01-22 11:03:30.85	297.31	31.06	-43.5	-48.9	9.4	1.17e-02	0	60	0	809500672	58	6729
2026-01-22 11:03:31.86	297.61	30.95	-43.5	-48.9	9.3	1.77e-02	0	60	0	810549248	58	6779
2026-01-22 11:03:32.87	297.91	30.85	-43.3	-48.3	10.0	1.02e-02	0	60	0	812646400	58	6305
2026-01-22 11:03:33.88	298.21	30.74	-43.1	-47.7	10.6	4.95e-03	0	61	0	814743552	58	5905
2026-01-22 11:03:34.89	298.51	30.63	-43.0	-47.6	10.7	2.83e-03	0	60	0	816840704	57	6137
2026-01-22 11:03:35.90	298.80	30.52	-43.0	-47.7	10.6	3.42e-03	0	60	0	818937856	57	6235
2026-01-22 11:03:36.91	299.09	30.41	-43.3	-48.4	9.9	5.63e-03	0	60	0	819986432	57	6754
2026-01-22 11:03:37.92	299.38	30.30	-43.5	-49.0	9.3	1.29e-02	0	60	0	822083584	57	7223
2026-01-22 11:03:38.93	299.67	30.20	-43.5	-49.1	9.1	2.43e-02	0	60	0	824180736	57	7338
2026-01-22 11:03:39.94	299.96	30.09	-43.3	-48.5	9.7	1.55e-02	0	60	0	826277888	57	6806
2026-01-22 11:03:40.94	300.24	29.98	-43.0	-47.7	10.6	5.74e-03	0	60	0	828375040	57	6214
2026-01-22 11:03:41.95	300.52	29.87	-42.9	-47.5	10.8	2.37e-03	0	60	0	829423616	57	6069
2026-01-22 11:03:42.96	300.80	29.76	-43.1	-48.0	10.3	4.00e-03	0	60	0	831520768	57	6433
2026-01-22 11:03:43.97	301.08	29.65	-43.4	-48.8	9.4	9.43e-03	0	61	0	833617920	57	7116
2026-01-22 11:03:44.98	301.36	29.53	-43.7	-49.8	8.4	3.01e-02	0	60	0	835715072	57	7965
2026-01-22 11:03:45.99	301.63	29.42	-43.7	-49.8	8.4	5.05e-02	0	60	0	837812224	58	7463
2026-01-22 11:03:47.00	301.91	29.31	-43.4	-48.7	9.6	2.34e-02	0	60	0	838860800	58	6571
2026-01-22 11:03:48.01	302.18	29.20	-42.9	-47.5	10.7	6.12e-03	0	60	0	840957952	57	6089
2026-01-22 11:03:49.02	302.45	29.09	-42.8	-47.2	11.0	1.65e-03	0	60	0	843055104	57	5906
2026-01-22 11:03:50.03	302.72	28.97	-42.8	-47.3	11.0	1.87e-03	0	60	0	845152256	57	5952
2026-01-22 11:03:51.04	302.98	28.86	-43.0	-47.8	10.5	1.90e-03	0	61	0	847249408	57	6275
2026-01-22 11:03:52.04	303.24	28.75	-43.3	-48.6	9.6	6.31e-03	0	60	0	848297984	57	6891
2026-01-22 11:03:53.06	303.51	28.64	-43.4	-48.8	9.3	1.82e-02	0	60	0	850395136	57	7107
2026-01-22 11:03:54.06	303.77	28.52	-43.1	-48.1	10.1	1.15e-02	0	60	0	852492288	57	6542
2026-01-22 11:03:55.07	304.02	28.41	-42.8	-47.3	11.0	4.71e-03	0	60	0	854589440	57	5960
2026-01-22 11:03:56.08	304.28	28.30	-42.7	-47.0	11.3	1.40e-03	0	60	0	856686592	57	5746
2026-01-22 11:03:57.09	304.54	28.18	-42.7	-47.1	11.2	1.31e-03	0	60	0	857735168	57	5807
2026-01-22 11:03:58.10	304.79	28.07	-43.0	-47.8	10.4	1.94e-03	0	60	0	859832320	57	6343
2026-01-22 11:03:59.11	305.04	27.96	-43.4	-48.9	9.3	1.21e-02	0	60	0	861929472	57	7160
2026-01-22 11:04:00.12	305.29	27.84	-43.6	-49.5	8.6	2.82e-02	0	61	0	864026624	57	7719
2026-01-22 11:04:01.13	305.54	27.73	-43.6	-49.4	8.7	4.00e-02	0	61	0	866123776	57	7615
2026-01-22 11:04:02.14	305.78	27.62	-43.2	-48.3	9.8	1.45e-02	0	60	0	868220928	57	6700
2026-01-22 11:04:03.15	306.03	27.50	-42.9	-47.5	10.7	4.42e-03	0	60	0	869269504	57	6121
2026-01-22 11:04:04.16	306.27	27.39	-42.8	-47.3	11.0	2.35e-03	0	60	0	871366656	57	5938
2026-01-22 11:04:05.17	306.51	27.27	-42.9	-47.4	10.8	2.39e-03	0	60	0	873463808	57	6010
2026-01-22 11:04:06.18	306.75	27.16	-43.1	-48.1	10.1	4.55e-03	0	60	0	875560960	57	6534
2026-01-22 11:04:07.19	306.99	27.04	-43.4	-48.8	9.4	1.15e-02	0	60	0	877658112	57	7095
2026-01-22 11:04:08.20	307.23	26.93	-43.5	-49.2	9.0	2.42e-02	0	60	0	878706688	57	7400
2026-01-22 11:04:09.21	307.46	26.82	-43.4	-48.8	9.4	2.15e-02	0	60	0	880803840	57	7049
2026-01-22 11:04:10.21	307.69	26.70	-43.1	-48.1	10.0	1.12e-02	0	60	0	882900992	57	6561
2026-01-22 11:04:11.22	307.92	26.59	-43.0	-47.7	10.4	6.02e-03	0	60	0	884998144	57	6273
2026-01-22 11:04:12.23	308.15	26.47	-43.0	-47.7	10.5	4.19e-03	0	60	0	887095296	57	6274
2026-01-22 11:04:13.24	308.38	26.36	-42.8	-47.2	11.0	2.56e-03	0	60	0	888143872	57	5888
2026-01-22 11:04:14.25	308.61	26.24	-42.8	-47.4	10.8	1.81e-03	0	60	0	890241024	57	6012
2026-01-22 11:04:15.26	308.83	26.13	-43.1	-48.0	10.1	4.97e-03	0	60	0	892338176	57	6487
2026-01-22 11:04:16.27	309.05	26.02	-43.2	-48.3	9.8	9.04e-03	0	60	0	894435328	57	6666
2026-01-22 11:04:17.28	309.27	25.90	-43.0	-47.9	10.3	7.82e-03	0	60	0	896532480	57	6376
2026-01-22 11:04:18.29	309.49	25.79	-42.8	-47.3	10.9	2.71e-03	0	60	0	897581056	57	5965
2026-01-22 11:04:19.29	309.71	25.67	-42.7	-47.0	11.1	1.53e-03	0	61	0	899678208	57	5781
2026-01-22 11:04:20.31	309.93	25.56	-42.7	-47.1	11.2	1.49e-03	0	60	0	901775360	57	5796
2026-01-22 11:04:21.31	310.14	25.45	-42.5	-46.7	11.5	9.38e-04	0	60	0	903872512	57	5589
2026-01-22 11:04:22.32	310.36	25.33	-42.6	-47.0	11.3	1.20e-03	0	60	0	905969664	57	5730
2026-01-22 11:04:23.33	310.57	25.22	-42.8	-47.3	10.9	1.79e-03	0	61	0	907018240	57	5943
2026-01-22 11:04:24.34	310.78	25.11	-42.8	-47.3	10.9	2.34e-03	0	60	0	909115392	57	5981
2026-01-22 11:04:25.35	310.99	24.99	-42.7	-47.2	11.0	2.66e-03	0	60	0	911212544	57	5905
2026-01-22 11:04:26.36	311.20	24.88	-42.4	-46.5	11.7	1.07e-03	0	60	0	913309696	56	5766
2026-01-22 11:04:27.37	311.40	24.77	-42.2	-46.0	12.3	3.18e-04	0	61	0	915406848	56	5411
2026-01-22 11:04:28.38	311.61	24.65	-41.8	-45.4	12.8	8.54e-05	0	61	0	916455424	55	5346
2026-01-22 11:04:29.39	311.81	24.54	-41.7	-45.2	12.8	4.95e-05	0	60	0	918552576	55	5269
2026-01-22 11:04:30.40	312.01	24.43	-41.6	-45.0	13.1	4.50e-05	0	60	0	920649728	55	5122
2026-01-22 11:04:31.41	312.21	24.31	-41.6	-45.0	13.1	3.20e-05	0	61	0	922746880	55	5106
2026-01-22 11:04:32.42	312.41	24.20	-41.7	-45.2	12.9	3.89e-05	0	60	0	924844032	55	5262
2026-01-22 11:04:33.43	312.61	24.09	-41.7	-45.2	12.9	5.56e-05	0	60	0	925892608	55	5241
2026-01-22 11:04:34.44	312.81	23.97	-41.6	-45.0	13.1	3.81e-05	0	61	0	927989760	55	5141
2026-01-22 11:04:35.45	313.00	23.86	-41.5	-44.8	13.3	2.05e-05	0	60	0	930086912	55	5029
2026-01-22 11:04:36.46	313.20	23.75	-41.4	-44.7	13.4	1.44e-05	0	60	0	932184064	54	5237
2026-01-22 11:04:37.47	313.39	23.64	-41.4	-44.7	13.3	1.06e-05	0	60	0	934281216	54	5278
2026-01-22 11:04:38.47	313.58	23.53	-41.3	-44.5	13.6	6.10e-06	0	60	0	936378368	54	5144
2026-01-22 11:04:39.48	313.77	23.42	-41.3	-44.6	13.5	7.60e-06	0	61	0	937426944	54	5161
2026-01-22 11:04:40.49	313.96	23.30	-41.2	-44.3	13.7	7.60e-06	0	60	0	939524096	54	5034
2026-01-22 11:04:41.50	314.14	23.19	-41.3	-44.5	13.6	8.30e-06	0	60	0	941621248	54	5112
2026-01-22 11:04:42.51	314.33	23.08	-41.4	-44.7	13.4	9.10e-06	0	60	0	943718400	54	5251
2026-01-22 11:04:43.52	314.51	22.97	-41.5	-44.9	13.2	1.83e-05	0	60	0	945815552	54	5369
2026-01-22 11:04:44.53	314.70	22.86	-41.5	-44.8	13.3	2.44e-05	0	60	0	946864128	54	5323
2026-01-22 11:04:45.54	314.88	22.75	-41.3	-44.5	13.6	1.22e-05	0	61	0	948961280	54	5124
2026-01-22 11:04:46.55	315.06	22.64	-41.1	-44.2	13.9	9.90e-06	0	60	0	951058432	54	4964
2026-01-22 11:04:47.56	315.24	22.53	-40.9	-43.9	14.2	1.50e-06	0	60	0	953155584	53	5082
2026-01-22 11:04:48.57	315.42	22.42	-40.8	-43.6	14.4	7.00e-07	0	60	0	955252736	53	4924
2026-01-22 11:04:49.58	315.59	22.31	-40.8	-43.6	14.4	0.00e+00	0	60	0	956301312	53	4909
2026-01-22 11:04:50.59	315.77	22.20	-40.8	-43.8	14.3	1.50e-06	0	60	0	958398464	53	4989
2026-01-22 11:04:51.60	315.95	22.09	-40.9	-43.8	14.2	7.00e-07	0	60	0	960495616	53	5035
2026-01-22 11:04:52.61	316.12	21.98	-41.0	-44.0	14.1	1.50e-06	0	60	0	962592768	53	5124
2026-01-22 11:04:53.62	316.29	21.87	-41.1	-44.2	13.9	3.00e-06	0	60	0	964689920	53	5230
2026-01-22 11:04:54.63	316.46	21.76	-41.1	-44.3	13.8	3.80e-06	0	60	0	965738496	53	5289
2026-01-22 11:04:55.63	316.63	21.66	-41.1	-44.3	13.7	3.80e-06	0	60	0	967835648	53	5314
2026-01-22 11:04:56.64	316.80	21.55	-41.2	-44.3	13.7	2.20e-06	0	60	0	969932800	53	5338
2026-01-22 11:04:57.65	316.97	21.44	-41.1	-44.2	13.9	5.30e-06	0	60	0	972029952	53	5229
2026-01-22 11:04:58.66	317.13	21.33	-40.9	-44.0	14.1	3.00e-06	0	60	0	974127104	53	5107
2026-01-22 11:04:59.67	317.30	21.22	-40.9	-44.0	14.1	3.80e-06	0	60	0	975175680	53	5105
2026-01-22 11:05:00.68	317.46	21.12	-40.9	-43.8	14.2	2.20e-06	0	61	0	977272832	53	5022
2026-01-22 11:05:01.69	317.63	21.01	-40.9	-43.9	14.1	7.00e-07	0	60	0	979369984	53	5076
2026-01-22 11:05:02.70	317.79	20.90	-41.0	-44.1	14.0	5.30e-06	0	61	0	981467136	53	5170
2026-01-22 11:05:03.71	317.95	20.79	-41.1	-44.3	13.8	7.00e-07	0	60	0	983564288	53	5311
2026-01-22 11:05:04.72	318.11	20.69	-41.3	-44.6	13.4	1.14e-05	0	60	0	984612864	53	5494
2026-01-22 11:05:05.72	318.27	20.58	-41.4	-44.8	13.2	1.83e-05	0	60	0	986710016	53	5625
2026-01-22 11:05:06.73	318.42	20.48	-41.5	-45.0	13.0	2.51e-05	0	60	0	988807168	53	5786
2026-01-22 11:05:07.74	318.58	20.37	-41.6	-45.1	12.9	4.34e-05	0	60	0	990904320	53	5815
2026-01-22 11:05:08.75	318.74	20.27	-41.5	-45.1	12.9	4.73e-05	0	60	0	993001472	53	5796
2026-01-22 11:05:09.76	318.89	20.16	-41.6	-45.1	12.9	4.04e-05	0	60	0	994050048	53	5812
2026-01-22 11:05:10.77	319.04	20.06	-41.6	-45.1	12.8	4.50e-05	0	60	0	996147200	53	5848
2026-01-22 11:05:11.78	319.20	19.95	-41.6	-45.1	12.8	5.26e-05	0	60	0	998244352	53	5852
2026-01-22 11:05:12.79	319.35	19.85	-41.4	-44.8	13.2	3.66e-05	0	60	0	1000341504	53	5615
2026-01-22 11:05:13.80	319.50	19.74	-41.3	-44.6	13.4	1.44e-05	0	60	0	1002438656	53	5487
2026-01-22 11:05:14.81	319.65	19.64	-41.3	-44.5	13.4	1.60e-05	0	60	0	1003487232	53	5454
2026-01-22 11:05:15.82	319.80	19.53	-41.3	-44.5	13.4	1.14e-05	0	60	0	1005584384	53	5462
2026-01-22 11:05:16.83	319.94	19.43	-41.4	-44.7	13.2	1.90e-05	0	60	0	1007681536	53	5590
2026-01-22 11:05:17.84	320.09	19.33	-41.3	-44.7	13.2	2.59e-05	0	60	0	1009778688	53	5583
2026-01-22 11:05:18.84	320.24	19.22	-41.4	-44.8	13.1	2.74e-05	0	60	0	1011875840	53	5650
2026-01-22 11:05:19.86	320.38	19.12	-41.5	-45.0	13.0	3.96e-05	0	60	0	1012924416	53	5730
2026-01-22 11:05:20.87	320.52	19.02	-41.5	-45.0	12.9	3.89e-05	0	60	0	1015021568	53	5748
2026-01-22 11:05:21.88	320.67	18.92	-41.5	-45.1	12.8	5.95e-05	0	60	0	1017118720	53	5815
2026-01-22 11:05:22.88	320.81	18.82	-41.5	-44.9	13.0	5.18e-05	0	60	0	1019215872	53	5721
2026-01-22 11:05:23.89	320.95	18.71	-41.4	-44.8	13.1	2.51e-05	0	60	0	1021313024	53	5634
2026-01-22 11:05:24.90	321.09	18.61	-41.5	-45.0	12.9	4.11e-05	0	60	0	1022361600	53	5735
2026-01-22 11:05:25.91	321.23	18.51	-41.4	-44.9	13.0	4.50e-05	0	60	0	1024458752	53	5670
2026-01-22 11:05:26.92	321.37	18.41	-41.5	-45.0	12.9	3.50e-05	0	60	0	1026555904	53	5770
2026-01-22 11:05:27.93	321.50	18.31	-41.6	-45.1	12.8	5.95e-05	0	60	0	1028653056	53	5854
2026-01-22 11:05:28.94	321.64	18.21	-41.6	-45.2	12.7	7.09e-05	0	61	0	1030750208	53	5861
2026-01-22 11:05:29.95	321.78	18.11	-41.7	-45.4	12.5	1.04e-04	0	60	0	1032847360	53	5998
2026-01-22 11:05:30.96	321.91	18.01	-41.8	-45.5	12.3	1.56e-04	0	60	0	1033895936	54	5776
2026-01-22 11:05:31.97	322.05	17.91	-41.7	-45.4	12.5	1.18e-04	0	60	0	1035993088	54	5702
2026-01-22 11:05:32.98	322.18	17.81	-41.7	-45.5	12.4	1.41e-04	0	61	0	1038090240	54	5728
2026-01-22 11:05:33.99	322.31	17.71	-41.7	-45.4	12.4	1.40e-04	0	60	0	1040187392	54	5709
2026-01-22 11:05:35.00	322.44	17.61	-41.8	-45.5	12.3	1.46e-04	0	60	0	1042284544	54	5771
2026-01-22 11:05:36.01	322.57	17.51	-41.8	-45.6	12.3	1.90e-04	0	60	0	1043333120	54	5825
2026-01-22 11:05:37.02	322.70	17.41	-41.8	-45.6	12.2	1.79e-04	0	60	0	1045430272	54	5846
2026-01-22 11:05:38.02	322.83	17.32	-41.9	-45.9	11.9	2.86e-04	0	60	0	1047527424	54	6034
2026-01-22 11:05:39.03	322.96	17.22	-42.1	-46.2	11.6	4.92e-04	0	61	0	1049624576	54	6227
2026-01-22 11:05:40.05	323.09	17.12	-42.2	-46.4	11.4	8.64e-04	0	60	0	1051721728	54	6395
2026-01-22 11:05:41.05	323.21	17.02	-42.3	-46.8	11.0	1.50e-03	0	60	0	1052770304	55	6282
2026-01-22 11:05:42.06	323.34	16.93	-42.4	-46.9	10.8	2.32e-03	0	60	0	1054867456	55	6396
2026-01-22 11:05:43.07	323.46	16.83	-42.4	-47.0	10.7	2.75e-03	0	60	0	1056964608	55	6486
2026-01-22 11:05:44.08	323.59	16.73	-42.4	-47.0	10.8	2.99e-03	0	61	0	1059061760	55	6439
2026-01-22 11:05:45.09	323.71	16.64	-42.3	-46.9	10.9	2.54e-03	0	60	0	1061158912	55	6365
2026-01-22 11:05:46.10	323.83	16.54	-42.3	-46.7	11.1	1.84e-03	0	61	0	1062207488	55	6203
2026-01-22 11:05:47.11	323.96	16.44	-42.1	-46.4	11.3	1.33e-03	0	61	0	1064304640	55	6026
2026-01-22 11:05:48.12	324.08	16.35	-42.1	-46.2	11.5	7.44e-04	0	60	0	1066401792	55	5900
2026-01-22 11:05:49.13	324.20	16.25	-42.1	-46.2	11.5	7.68e-04	0	60	0	1068498944	55	5915
2026-01-22 11:05:50.14	324.32	16.16	-41.9	-46.0	11.8	6.22e-04	0	61	0	1070596096	55	5749
2026-01-22 11:05:51.15	324.44	16.06	-41.9	-46.0	11.8	4.39e-04	0	60	0	1071644672	55	5748
2026-01-22 11:05:52.16	324.55	15.97	-41.9	-46.0	11.8	4.86e-04	0	61	0	1073741824	55	5737
2026-01-22 11:05:53.17	324.67	15.88	-42.0	-46.1	11.7	5.34e-04	0	60	0	1075838976	55	5810
2026-01-22 11:05:54.17	324.79	15.78	-42.1	-46.3	11.5	8.04e-04	0	60	0	1077936128	55	5930
2026-01-22 11:05:55.18	324.90	15.69	-42.2	-46.5	11.2	9.43e-04	0	60	0	1080033280	55	6112
2026-01-22 11:05:56.19	325.02	15.60	-42.2	-46.6	11.1	1.47e-03	0	61	0	1081081856	55	6150
2026-01-22 11:05:57.20	325.13	15.50	-42.2	-46.7	11.0	1.70e-03	0	60	0	1083179008	55	6213
2026-01-22 11:05:58.21	325.25	15.41	-42.3	-46.7	11.0	2.00e-03	0	60	0	1085276160	55	6246
2026-01-22 11:05:59.22	325.36	15.32	-42.3	-46.8	10.9	2.25e-03	0	61	0	1087373312	55	6275
2026-01-22 11:06:00.23	325.47	15.22	-42.2	-46.7	11.0	1.88e-03	0	60	0	1089470464	55	6219
2026-01-22 11:06:01.24	325.59	15.13	-42.2	-46.7	10.9	1.92e-03	0	60	0	1090519040	55	6237
2026-01-22 11:06:02.25	325.70	15.04	-42.1	-46.4	11.2	2.03e-03	0	60	0	1092616192	55	6054
2026-01-22 11:06:03.26	325.81	14.95	-42.0	-46.3	11.4	1.03e-03	0	60	0	1094713344	55	5939
2026-01-22 11:06:04.27	325.92	14.86	-42.0	-46.1	11.6	7.22e-04	0	60	0	1096810496	55	5803
2026-01-22 11:06:05.28	326.03	14.77	-41.9	-46.1	11.6	5.52e-04	0	60	0	1098907648	55	5796
2026-01-22 11:06:06.29	326.14	14.67	-41.9	-45.9	11.8	6.12e-04	0	60	0	1101004800	55	5666
2026-01-22 11:06:07.30	326.24	14.58	-41.9	-45.9	11.8	4.58e-04	0	60	0	1102053376	55	5687
2026-01-22 11:06:08.31	326.35	14.49	-42.0	-46.1	11.6	4.93e-04	0	61	0	1104150528	55	5806
2026-01-22 11:06:09.32	326.46	14.40	-42.0	-46.1	11.6	7.57e-04	0	60	0	1106247680	55	5824
2026-01-22 11:06:10.33	326.57	14.31	-42.0	-46.3	11.4	8.54e-04	0	60	0	1108344832	55	5951
2026-01-22 11:06:11.34	326.67	14.22	-42.2	-46.5	11.1	1.11e-03	0	61	0	1110441984	55	6128
2026-01-22 11:06:12.35	326.78	14.13	-42.2	-46.8	10.9	2.15e-03	0	61	0	1111490560	55	6276
2026-01-22 11:06:13.36	326.88	14.04	-42.3	-46.8	10.8	2.42e-03	0	61	0	1113587712	55	6334
2026-01-22 11:06:14.37	326.98	13.96	-42.3	-47.0	10.6	3.22e-03	0	60	0	1115684864	55	6444
2026-01-22 11:06:15.38	327.09	13.87	-42.3	-47.0	10.6	3.48e-03	0	60	0	1117782016	55	6461
2026-01-22 11:06:16.38	327.19	13.78	-42.4	-47.1	10.4	3.93e-03	0	60	0	1119879168	55	6564
2026-01-22 11:06:17.39	327.29	13.69	-42.3	-47.0	10.6	3.88e-03	0	60	0	1120927744	55	6469
2026-01-22 11:06:18.40	327.39	13.60	-42.2	-46.8	10.7	3.20e-03	0	60	0	1123024896	55	6323
2026-01-22 11:06:19.41	327.49	13.51	-42.2	-46.8	10.8	2.56e-03	0	60	0	1125122048	55	6277
2026-01-22 11:06:20.42	327.59	13.43	-42.2	-46.7	10.9	2.28e-03	0	60	0	1127219200	55	6250
2026-01-22 11:06:21.43	327.69	13.34	-42.1	-46.6	10.9	2.54e-03	0	60	0	1129316352	55	6190
2026-01-22 11:06:22.44	327.79	13.25	-42.1	-46.5	11.1	1.79e-03	0	61	0	1130364928	55	6068
2026-01-22 11:06:23.45	327.89	13.17	-42.0	-46.3	11.3	1.44e-03	0	60	0	1132462080	55	5946
2026-01-22 11:06:24.46	327.99	13.08	-42.0	-46.2	11.3	1.13e-03	0	61	0	1134559232	55	5915
2026-01-22 11:06:25.47	328.09	12.99	-41.9	-46.1	11.4	8.67e-04	0	61	0	1136656384	55	5834
2026-01-22 11:06:26.48	328.19	12.91	-41.9	-46.1	11.5	8.33e-04	0	60	0	1138753536	55	5817
2026-01-22 11:06:27.49	328.28	12.82	-41.9	-46.1	11.4	9.99e-04	0	60	0	1139802112	55	5815
2026-01-22 11:06:28.50	328.38	12.74	-41.8	-45.8	11.7	6.29e-04	0	60	0	1141899264	55	5650
2026-01-22 11:06:29.51	328.47	12.65	-41.7	-45.8	11.8	5.42e-04	0	60	0	1143996416	55	5611
2026-01-22 11:06:30.52	328.57	12.56	-41.8	-45.8	11.7	6.18e-04	0	60	0	1146093568	55	5655
2026-01-22 11:06:31.53	328.66	12.48	-41.8	-45.9	11.7	6.29e-04	0	60	0	1148190720	55	5674
2026-01-22 11:06:32.54	328.76	12.40	-41.9	-46.1	11.4	8.42e-04	0	60	0	1149239296	55	5840
2026-01-22 11:06:33.54	328.85	12.31	-41.9	-46.2	11.3	1.05e-03	0	60	0	1151336448	55	5888
2026-01-22 11:06:34.55	328.94	12.23	-41.9	-46.3	11.2	1.26e-03	0	60	0	1153433600	55	5954
2026-01-22 11:06:35.56	329.03	12.14	-42.0	-46.3	11.1	1.71e-03	0	60	0	1155530752	55	5979
2026-01-22 11:06:36.57	329.13	12.06	-42.0	-46.4	11.1	1.74e-03	0	61	0	1157627904	55	6026
2026-01-22 11:06:37.58	329.22	11.98	-42.0	-46.4	11.0	1.59e-03	0	60	0	1158676480	55	6048
2026-01-22 11:06:38.60	329.31	11.89	-42.0	-46.5	11.0	2.02e-03	0	60	0	1160773632	55	6107
2026-01-22 11:06:39.60	329.40	11.81	-42.0	-46.6	10.9	2.30e-03	0	60	0	1162870784	55	6142
2026-01-22 11:06:40.61	329.49	11.73	-42.1	-46.7	10.8	2.20e-03	0	60	0	1164967936	55	6225
2026-01-22 11:06:41.62	329.58	11.64	-42.0	-46.5	10.9	2.36e-03	0	60	0	1167065088	55	6108
2026-01-22 11:06:42.63	329.67	11.56	-42.0	-46.5	10.9	2.17e-03	0	60	0	1169162240	55	6121
2026-01-22 11:06:43.64	329.76	11.48	-42.0	-46.5	10.9	2.47e-03	0	61	0	1170210816	55	6110
2026-01-22 11:06:44.65	329.84	11.40	-41.9	-46.3	11.0	2.03e-03	0	60	0	1172307968	55	5981
