passes_logs/2026/01/22/R2.0S_Moscow/R2.0S_Moscow__20260122_103411_SUOMI_NPP_rec.log

#Pass ID: 20260122_103411_SUOMI NPP
#Satellite: SUOMI NPP
#Configuration: NPP
#almurnet v.1.7.20251203
#Start time: 2026-01-22 10:34:11

#Version: 2.2.20231116
#Station: R2.0S_Moscow
#Location: 37.707566 lon 55.798166 lat
#TLE: 1 37849U 11061A   26021.51818991  .00000201  00000+0  11636-3 0  9995
#TLE: 2 37849  98.7819 323.5108 0002300  52.3548 307.7836 14.19527793737637

#Time	Az	El	Level	Level2	SNR	BER	BlckErr	Temp	State	Recorded	gain1	gain2
2026-01-22 10:34:11.90	177.44	2.03	-44.0	-58.5	3.8	1.49e+00	0	50	0	0	59	19325
2026-01-22 10:34:12.91	177.46	2.10	-44.0	-58.5	3.8	1.49e+00	0	51	104	0	59	19385
2026-01-22 10:34:13.92	177.49	2.16	-44.0	-58.5	3.8	1.49e+00	0	51	104	0	59	19303
2026-01-22 10:34:14.93	177.52	2.22	-44.0	-58.5	3.8	1.49e+00	0	51	104	0	59	19250
2026-01-22 10:34:15.94	177.55	2.29	-44.0	-58.5	3.8	1.49e+00	0	51	104	0	59	19325
2026-01-22 10:34:16.95	177.58	2.35	-44.0	-58.5	3.8	1.49e+00	0	51	104	0	59	19355
2026-01-22 10:34:17.96	177.61	2.42	-44.0	-58.5	3.8	1.49e+00	0	51	104	0	59	19292
2026-01-22 10:34:18.97	177.64	2.48	-44.0	-58.5	3.8	1.49e+00	0	51	104	0	59	19369
2026-01-22 10:34:19.98	177.67	2.55	-44.0	-58.5	3.8	1.49e+00	0	51	104	0	59	19261
2026-01-22 10:34:20.99	177.70	2.61	-44.0	-58.5	3.8	1.49e+00	0	51	104	0	59	19259
2026-01-22 10:34:22.00	177.73	2.68	-44.0	-58.5	3.8	1.49e+00	0	51	104	0	59	19339
2026-01-22 10:34:23.02	177.76	2.74	-44.0	-58.5	3.8	1.49e+00	0	51	104	0	59	19271
2026-01-22 10:34:24.03	177.79	2.81	-44.0	-58.5	3.8	1.49e+00	0	52	104	0	59	19262
2026-01-22 10:34:25.04	177.82	2.87	-44.0	-58.5	3.8	1.49e+00	0	52	104	0	59	19278
2026-01-22 10:34:26.05	177.85	2.94	-44.0	-58.5	3.8	1.49e+00	0	52	104	0	59	19354
2026-01-22 10:34:27.06	177.88	3.00	-44.0	-58.5	3.8	1.49e+00	0	52	104	0	59	19264
2026-01-22 10:34:28.07	177.91	3.07	-44.0	-58.5	3.8	1.49e+00	0	52	104	0	59	19312
2026-01-22 10:34:29.08	177.94	3.14	-44.0	-58.5	3.8	1.49e+00	0	52	104	0	59	19351
2026-01-22 10:34:30.09	177.97	3.20	-44.0	-58.5	3.8	1.49e+00	0	52	104	0	59	19266
2026-01-22 10:34:31.10	178.00	3.27	-44.0	-58.5	3.8	1.49e+00	0	52	104	0	59	19312
2026-01-22 10:34:32.11	178.03	3.34	-44.0	-58.5	3.8	1.49e+00	0	52	104	0	59	19314
2026-01-22 10:34:33.12	178.06	3.40	-44.0	-58.5	3.8	1.49e+00	0	52	104	0	59	19277
2026-01-22 10:34:34.13	178.09	3.47	-44.0	-58.5	3.8	1.49e+00	0	52	104	0	59	19287
2026-01-22 10:34:35.14	178.13	3.54	-44.0	-58.5	3.8	1.49e+00	0	52	104	0	59	19280
2026-01-22 10:34:36.15	178.16	3.60	-44.0	-58.5	3.8	1.49e+00	0	52	104	0	59	19224
2026-01-22 10:34:37.16	178.19	3.67	-44.0	-58.5	3.8	1.49e+00	0	52	104	0	59	19233
2026-01-22 10:34:38.17	178.22	3.74	-44.0	-58.5	3.8	1.49e+00	0	52	104	0	59	19234
2026-01-22 10:34:39.18	178.25	3.81	-44.0	-58.5	3.8	1.49e+00	0	53	104	0	59	19355
2026-01-22 10:34:40.19	178.28	3.87	-44.0	-58.5	3.8	1.49e+00	0	53	104	0	59	19236
2026-01-22 10:34:41.20	178.32	3.94	-44.0	-58.5	3.8	1.49e+00	0	52	104	0	59	19289
2026-01-22 10:34:42.21	178.35	4.01	-44.0	-58.5	3.8	1.49e+00	0	53	104	0	59	19283
2026-01-22 10:34:43.22	178.38	4.08	-44.0	-58.5	3.8	1.49e+00	0	53	104	0	59	19254
2026-01-22 10:34:44.23	178.41	4.15	-44.0	-58.5	3.8	1.49e+00	0	53	104	0	59	19251
2026-01-22 10:34:45.24	178.45	4.22	-44.0	-58.5	3.8	1.49e+00	0	53	104	0	59	19214
2026-01-22 10:34:46.25	178.48	4.28	-44.0	-58.5	3.8	1.49e+00	0	53	104	0	59	19259
2026-01-22 10:34:47.26	178.51	4.35	-44.0	-58.5	3.8	1.49e+00	0	53	104	0	59	19279
2026-01-22 10:34:48.27	178.55	4.42	-44.0	-58.5	3.8	1.49e+00	0	53	104	0	59	19219
2026-01-22 10:34:49.28	178.58	4.49	-44.0	-58.5	3.8	1.49e+00	0	53	104	0	59	19286
2026-01-22 10:34:50.29	178.61	4.56	-44.0	-58.5	3.8	1.49e+00	0	53	104	0	59	19201
2026-01-22 10:34:51.30	178.65	4.63	-44.0	-58.5	3.8	1.49e+00	0	53	104	0	59	19189
2026-01-22 10:34:52.31	178.68	4.70	-44.0	-58.5	3.8	1.49e+00	0	53	104	0	59	19188
2026-01-22 10:34:53.32	178.71	4.77	-44.0	-58.4	3.8	1.49e+00	0	53	104	0	59	19119
2026-01-22 10:34:54.33	178.75	4.84	-44.0	-58.4	3.8	1.49e+00	0	53	104	0	59	19031
2026-01-22 10:34:55.34	178.78	4.91	-44.0	-58.3	3.8	1.49e+00	0	54	104	0	59	18816
2026-01-22 10:34:56.35	178.82	4.98	-44.0	-58.2	3.8	1.49e+00	0	54	104	0	59	18611
2026-01-22 10:34:57.36	178.85	5.05	-43.9	-57.9	3.8	1.49e+00	0	53	104	0	59	17940
2026-01-22 10:34:58.37	178.89	5.12	-43.9	-57.5	3.8	1.49e+00	0	54	104	0	59	17261
2026-01-22 10:34:59.38	178.92	5.20	-43.9	-57.0	3.8	1.49e+00	0	54	104	0	59	16163
2026-01-22 10:35:00.39	178.96	5.27	-43.8	-56.5	3.8	1.49e+00	0	54	104	0	59	15227
2026-01-22 10:35:01.41	178.99	5.34	-43.8	-55.5	4.1	1.46e+00	0	54	0	0	59	13653
2026-01-22 10:35:02.42	179.03	5.41	-43.7	-54.7	4.2	1.39e+00	0	54	0	0	59	12477
2026-01-22 10:35:03.43	179.06	5.48	-43.7	-54.3	4.4	1.33e+00	0	54	0	0	59	11909
2026-01-22 10:35:04.44	179.10	5.55	-43.6	-54.1	4.5	1.12e+00	0	54	0	2097152	59	11678
2026-01-22 10:35:05.45	179.13	5.63	-43.7	-54.3	4.4	1.16e+00	0	54	0	4194304	59	11843
2026-01-22 10:35:06.46	179.17	5.70	-43.7	-54.2	4.4	1.08e+00	0	54	0	6291456	59	11739
2026-01-22 10:35:07.47	179.21	5.77	-43.6	-54.0	4.5	1.19e+00	0	54	0	7340032	59	11516
2026-01-22 10:35:08.48	179.24	5.85	-43.6	-53.3	4.8	8.85e-01	0	54	0	9437184	59	10635
2026-01-22 10:35:09.49	179.28	5.92	-43.5	-52.9	5.0	7.70e-01	0	54	0	11534336	59	10174
2026-01-22 10:35:10.50	179.32	5.99	-43.5	-53.1	4.9	6.77e-01	0	54	0	13631488	59	10336
2026-01-22 10:35:11.51	179.35	6.06	-43.6	-53.5	4.7	7.88e-01	0	54	0	15728640	59	10786
2026-01-22 10:35:12.52	179.39	6.14	-43.6	-53.2	4.9	8.42e-01	0	55	0	16777216	59	10467
2026-01-22 10:35:13.53	179.43	6.21	-43.5	-53.1	4.9	7.66e-01	0	54	0	18874368	59	10322
2026-01-22 10:35:14.54	179.46	6.29	-43.5	-53.0	5.0	7.12e-01	0	55	0	20971520	58	10872
2026-01-22 10:35:15.55	179.50	6.36	-43.6	-53.3	4.8	7.53e-01	0	55	0	23068672	58	11160
2026-01-22 10:35:16.56	179.54	6.44	-43.5	-53.2	4.8	8.21e-01	0	55	0	25165824	58	11153
2026-01-22 10:35:17.57	179.58	6.51	-43.6	-53.3	4.8	7.78e-01	0	55	0	26214400	58	11254
2026-01-22 10:35:18.58	179.61	6.58	-43.6	-53.8	4.6	9.05e-01	0	55	0	28311552	58	11918
2026-01-22 10:35:19.59	179.65	6.66	-43.6	-53.6	4.6	9.36e-01	0	55	0	30408704	58	11627
2026-01-22 10:35:20.60	179.69	6.74	-43.6	-53.5	4.7	8.45e-01	0	55	0	32505856	58	11480
2026-01-22 10:35:21.61	179.73	6.81	-43.6	-53.4	4.8	8.78e-01	0	55	0	34603008	58	11379
2026-01-22 10:35:22.62	179.77	6.89	-43.5	-53.1	4.9	7.99e-01	0	55	0	35651584	58	10942
2026-01-22 10:35:23.63	179.81	6.96	-43.5	-52.9	5.0	6.97e-01	0	55	0	37748736	58	10663
2026-01-22 10:35:24.64	179.85	7.04	-43.4	-52.3	5.4	5.47e-01	0	55	0	39845888	58	9969
2026-01-22 10:35:25.66	179.89	7.12	-43.3	-51.4	6.0	3.89e-01	0	55	0	41943040	58	9057
2026-01-22 10:35:26.67	179.93	7.19	-43.2	-51.2	6.2	3.26e-01	0	55	0	44040192	58	8776
2026-01-22 10:35:27.68	179.97	7.27	-43.1	-50.4	6.8	2.08e-01	0	55	0	45088768	58	7993
2026-01-22 10:35:28.69	180.01	7.35	-43.0	-49.9	7.2	1.24e-01	0	55	0	47185920	57	8083
2026-01-22 10:35:29.70	180.05	7.42	-42.8	-49.2	7.9	9.72e-02	0	55	0	49283072	57	7422
2026-01-22 10:35:30.71	180.09	7.50	-42.6	-48.6	8.5	5.02e-02	0	55	0	51380224	57	6920
2026-01-22 10:35:31.72	180.13	7.58	-42.5	-48.3	8.8	3.23e-02	0	55	0	53477376	57	6681
2026-01-22 10:35:32.73	180.17	7.66	-42.4	-48.0	9.2	2.69e-02	0	55	0	54525952	56	6806
2026-01-22 10:35:33.74	180.21	7.73	-42.3	-47.7	9.4	1.83e-02	0	55	0	56623104	56	6641
2026-01-22 10:35:34.75	180.25	7.81	-42.3	-47.6	9.6	1.22e-02	0	55	0	58720256	56	6508
2026-01-22 10:35:35.76	180.29	7.89	-42.3	-47.6	9.6	1.25e-02	0	55	0	60817408	56	6497
2026-01-22 10:35:36.77	180.33	7.97	-42.2	-47.5	9.7	8.66e-03	0	55	0	62914560	56	6448
2026-01-22 10:35:37.78	180.37	8.05	-42.3	-47.6	9.6	1.14e-02	0	56	0	63963136	56	6519
2026-01-22 10:35:38.79	180.42	8.13	-43.3	-50.8	7.0	1.07e-02	0	56	0	66060288	57	8893
2026-01-22 10:35:39.80	180.46	8.21	-43.4	-52.2	6.0	1.66e-01	0	56	0	68157440	57	10436
2026-01-22 10:35:40.81	180.50	8.29	-42.9	-49.3	8.2	9.49e-02	0	56	0	68157440	56	7923
2026-01-22 10:35:41.82	180.54	8.37	-43.1	-49.8	7.6	8.30e-02	0	56	0	70254592	57	7931
2026-01-22 10:35:42.83	180.59	8.45	-43.3	-52.1	5.7	4.62e-02	0	56	0	72351744	57	10378
2026-01-22 10:35:43.84	180.63	8.53	-42.3	-47.6	9.7	1.13e-01	0	56	0	73400320	56	6500
2026-01-22 10:35:44.85	180.67	8.61	-42.3	-47.4	10.0	7.52e-03	0	56	0	75497472	56	6353
2026-01-22 10:35:45.86	180.72	8.69	-42.2	-47.2	10.2	6.69e-03	0	56	0	77594624	56	6267
2026-01-22 10:35:46.86	180.76	8.77	-42.3	-47.2	10.2	6.26e-03	0	56	0	78643200	56	6258
2026-01-22 10:35:47.87	180.80	8.85	-42.2	-47.0	10.5	4.97e-03	0	56	0	80740352	56	6079
2026-01-22 10:35:48.88	180.85	8.94	-42.2	-47.0	10.4	4.72e-03	0	56	0	82837504	56	6094
2026-01-22 10:35:49.89	180.89	9.02	-42.2	-47.0	10.5	4.59e-03	0	56	0	84934656	56	6078
2026-01-22 10:35:50.90	180.94	9.10	-42.2	-46.8	10.6	3.85e-03	0	56	0	87031808	56	5990
2026-01-22 10:35:51.91	180.98	9.18	-42.1	-46.8	10.7	3.04e-03	0	56	0	88080384	56	5931
2026-01-22 10:35:52.92	181.03	9.26	-42.1	-46.7	10.8	2.76e-03	0	56	0	90177536	56	5872
2026-01-22 10:35:53.93	181.07	9.35	-42.1	-46.8	10.7	2.77e-03	0	56	0	92274688	56	5947
2026-01-22 10:35:54.94	181.12	9.43	-42.1	-46.7	10.8	2.68e-03	0	56	0	94371840	56	5894
2026-01-22 10:35:55.95	181.16	9.51	-42.1	-46.7	10.9	2.38e-03	0	56	0	96468992	56	5861
2026-01-22 10:35:56.96	181.21	9.60	-42.1	-46.6	11.0	1.97e-03	0	56	0	97517568	56	5792
2026-01-22 10:35:57.97	181.25	9.68	-42.2	-46.8	10.8	2.42e-03	0	56	0	99614720	56	5931
2026-01-22 10:35:58.98	181.30	9.77	-42.2	-46.7	10.8	2.48e-03	0	56	0	101711872	56	5914
2026-01-22 10:35:59.99	181.35	9.85	-42.2	-46.9	10.7	2.90e-03	0	56	0	103809024	56	6045
2026-01-22 10:36:01.00	181.40	9.94	-42.1	-46.5	11.1	2.10e-03	0	56	0	105906176	56	5780
2026-01-22 10:36:02.00	181.44	10.02	-42.1	-46.6	11.0	1.80e-03	0	56	0	106954752	56	5841
2026-01-22 10:36:03.01	181.49	10.11	-42.1	-46.7	10.9	1.97e-03	0	56	0	109051904	56	5863
2026-01-22 10:36:04.02	181.54	10.19	-42.1	-46.6	11.0	1.96e-03	0	56	0	111149056	56	5808
2026-01-22 10:36:05.03	181.59	10.28	-42.1	-46.6	11.0	1.69e-03	0	56	0	113246208	56	5843
2026-01-22 10:36:06.04	181.63	10.37	-42.1	-46.5	11.1	2.20e-03	0	56	0	115343360	56	5775
2026-01-22 10:36:07.05	181.68	10.45	-42.1	-46.6	11.1	1.60e-03	0	57	0	116391936	56	5802
2026-01-22 10:36:08.06	181.73	10.54	-42.1	-46.5	11.2	1.50e-03	0	57	0	118489088	56	5752
2026-01-22 10:36:09.07	181.78	10.63	-42.0	-46.4	11.3	1.30e-03	0	57	0	120586240	56	5677
2026-01-22 10:36:10.08	181.83	10.71	-42.1	-46.5	11.2	1.22e-03	0	56	0	122683392	56	5734
2026-01-22 10:36:11.09	181.88	10.80	-42.0	-46.3	11.3	1.10e-03	0	57	0	124780544	56	5647
2026-01-22 10:36:12.10	181.93	10.89	-41.8	-46.0	11.5	8.48e-04	0	56	0	126877696	55	5762
2026-01-22 10:36:13.11	181.98	10.98	-41.8	-46.0	11.6	6.95e-04	0	56	0	127926272	55	5748
2026-01-22 10:36:14.12	182.03	11.07	-41.7	-45.9	11.7	7.35e-04	0	57	0	130023424	55	5662
2026-01-22 10:36:15.13	182.08	11.16	-41.8	-46.0	11.6	6.33e-04	0	57	0	132120576	55	5742
2026-01-22 10:36:16.14	182.13	11.25	-41.7	-45.8	11.8	4.87e-04	0	57	0	134217728	55	5642
2026-01-22 10:36:17.14	182.18	11.33	-41.8	-46.0	11.6	6.29e-04	0	57	0	135266304	55	5733
2026-01-22 10:36:18.15	182.24	11.42	-41.8	-45.9	11.7	5.39e-04	0	57	0	137363456	55	5687
2026-01-22 10:36:19.16	182.29	11.51	-41.7	-45.8	11.8	5.59e-04	0	57	0	139460608	55	5635
2026-01-22 10:36:20.17	182.34	11.61	-41.8	-45.9	11.8	5.62e-04	0	57	0	141557760	55	5688
2026-01-22 10:36:21.18	182.39	11.70	-41.8	-46.0	11.6	5.58e-04	0	57	0	143654912	55	5777
2026-01-22 10:36:22.19	182.45	11.79	-41.8	-45.9	11.7	4.84e-04	0	57	0	144703488	55	5707
2026-01-22 10:36:23.20	182.50	11.88	-41.8	-45.9	11.7	6.35e-04	0	57	0	146800640	55	5715
2026-01-22 10:36:24.21	182.55	11.97	-41.7	-45.7	11.9	4.58e-04	0	57	0	148897792	55	5568
2026-01-22 10:36:25.22	182.61	12.06	-41.8	-46.0	11.7	5.03e-04	0	57	0	150994944	55	5723
2026-01-22 10:36:26.23	182.66	12.16	-41.8	-45.9	11.7	6.00e-04	0	57	0	153092096	55	5717
2026-01-22 10:36:27.24	182.72	12.25	-41.7	-45.8	11.8	4.19e-04	0	57	0	155189248	55	5617
2026-01-22 10:36:28.25	182.77	12.34	-41.8	-45.9	11.7	6.35e-04	0	57	0	156237824	55	5670
2026-01-22 10:36:29.25	182.83	12.43	-41.7	-45.8	11.8	5.61e-04	0	57	0	158334976	55	5606
2026-01-22 10:36:30.26	182.88	12.53	-41.7	-45.8	11.8	4.29e-04	0	57	0	160432128	55	5613
2026-01-22 10:36:31.27	182.94	12.62	-41.6	-45.5	12.1	3.11e-04	0	57	0	162529280	55	5447
2026-01-22 10:36:32.29	182.99	12.72	-41.5	-45.3	12.3	3.78e-04	0	57	0	164626432	55	5331
2026-01-22 10:36:33.30	183.05	12.81	-41.6	-45.4	12.2	2.50e-04	0	57	0	165675008	55	5378
2026-01-22 10:36:34.30	183.11	12.91	-41.7	-45.7	12.0	2.12e-04	0	57	0	167772160	55	5536
2026-01-22 10:36:35.31	183.16	13.00	-41.6	-45.5	12.2	2.27e-04	0	57	0	169869312	55	5410
2026-01-22 10:36:36.32	183.22	13.10	-41.5	-45.4	12.2	2.37e-04	0	57	0	171966464	55	5382
2026-01-22 10:36:37.33	183.28	13.20	-41.5	-45.3	12.3	2.68e-04	0	57	0	174063616	55	5314
2026-01-22 10:36:38.34	183.34	13.29	-41.6	-45.4	12.2	2.00e-04	0	57	0	175112192	55	5378
2026-01-22 10:36:39.35	183.40	13.39	-41.5	-45.3	12.3	1.43e-04	0	57	0	177209344	55	5312
2026-01-22 10:36:40.36	183.46	13.49	-41.6	-45.4	12.3	1.69e-04	0	57	0	179306496	55	5388
2026-01-22 10:36:41.37	183.52	13.58	-41.6	-45.4	12.3	1.85e-04	0	57	0	181403648	55	5376
2026-01-22 10:36:42.38	183.58	13.68	-41.6	-45.5	12.2	2.06e-04	0	57	0	183500800	55	5441
2026-01-22 10:36:43.39	183.64	13.78	-41.6	-45.5	12.2	2.07e-04	0	57	0	184549376	55	5431
2026-01-22 10:36:44.40	183.70	13.88	-41.6	-45.4	12.3	1.99e-04	0	57	0	186646528	55	5374
2026-01-22 10:36:45.41	183.76	13.98	-41.7	-45.6	12.2	2.42e-04	0	57	0	188743680	55	5470
2026-01-22 10:36:46.42	183.82	14.08	-41.6	-45.4	12.4	1.50e-04	0	57	0	190840832	55	5346
2026-01-22 10:36:47.43	183.88	14.18	-41.6	-45.4	12.4	1.68e-04	0	57	0	192937984	55	5368
2026-01-22 10:36:48.44	183.94	14.28	-41.6	-45.5	12.3	1.88e-04	0	57	0	193986560	55	5411
2026-01-22 10:36:49.45	184.00	14.38	-41.7	-45.5	12.3	1.91e-04	0	57	0	196083712	55	5462
2026-01-22 10:36:50.46	184.07	14.48	-41.7	-45.5	12.3	1.80e-04	0	57	0	198180864	55	5435
2026-01-22 10:36:51.47	184.13	14.58	-41.7	-45.6	12.2	2.47e-04	0	57	0	200278016	55	5469
2026-01-22 10:36:52.48	184.20	14.69	-41.7	-45.6	12.2	2.33e-04	0	57	0	202375168	55	5471
2026-01-22 10:36:53.49	184.26	14.79	-41.9	-45.9	11.9	2.55e-04	0	57	0	203423744	55	5694
2026-01-22 10:36:54.50	184.32	14.89	-41.8	-45.8	12.0	3.65e-04	0	58	0	205520896	55	5648
2026-01-22 10:36:55.51	184.39	14.99	-41.9	-46.0	11.9	4.06e-04	0	58	0	207618048	55	5727
2026-01-22 10:36:56.52	184.45	15.10	-41.9	-46.0	11.8	4.29e-04	0	58	0	209715200	55	5767
2026-01-22 10:36:57.53	184.52	15.20	-41.9	-45.9	11.9	4.84e-04	0	58	0	211812352	55	5697
2026-01-22 10:36:58.54	184.59	15.31	-42.0	-46.2	11.7	5.01e-04	0	58	0	212860928	55	5877
2026-01-22 10:36:59.55	184.65	15.41	-42.0	-46.1	11.8	5.01e-04	0	58	0	214958080	55	5792
2026-01-22 10:37:00.56	184.72	15.52	-41.9	-46.0	11.9	5.05e-04	0	58	0	217055232	55	5738
2026-01-22 10:37:01.57	184.79	15.62	-41.9	-46.0	11.9	4.06e-04	0	58	0	219152384	55	5743
2026-01-22 10:37:02.58	184.86	15.73	-42.0	-46.1	11.8	3.92e-04	0	58	0	221249536	55	5792
2026-01-22 10:37:03.59	184.93	15.83	-41.9	-45.9	12.0	3.62e-04	0	58	0	223346688	55	5669
2026-01-22 10:37:04.60	184.99	15.94	-41.9	-45.8	12.1	2.53e-04	0	58	0	224395264	55	5599
2026-01-22 10:37:05.61	185.06	16.05	-41.9	-45.9	12.0	4.03e-04	0	58	0	226492416	55	5674
2026-01-22 10:37:06.62	185.13	16.16	-41.9	-45.9	12.0	3.64e-04	0	58	0	228589568	55	5706
2026-01-22 10:37:07.63	185.20	16.27	-41.9	-46.0	11.9	2.98e-04	0	58	0	230686720	55	5735
2026-01-22 10:37:08.64	185.28	16.37	-41.9	-45.8	12.0	3.97e-04	0	58	0	232783872	55	5652
2026-01-22 10:37:09.65	185.35	16.48	-41.8	-45.6	12.2	2.52e-04	0	58	0	233832448	55	5527
2026-01-22 10:37:10.65	185.42	16.59	-41.8	-45.7	12.2	3.32e-04	0	58	0	235929600	55	5538
2026-01-22 10:37:11.66	185.49	16.70	-41.9	-45.9	12.0	3.16e-04	0	58	0	238026752	55	5664
2026-01-22 10:37:12.67	185.56	16.81	-41.9	-45.8	12.0	2.54e-04	0	58	0	240123904	55	5644
2026-01-22 10:37:13.68	185.64	16.92	-41.9	-45.7	12.2	2.53e-04	0	58	0	242221056	55	5587
2026-01-22 10:37:14.69	185.71	17.03	-41.9	-45.8	12.1	2.33e-04	0	58	0	243269632	55	5633
2026-01-22 10:37:15.70	185.79	17.15	-41.9	-45.8	12.2	2.26e-04	0	58	0	245366784	55	5600
2026-01-22 10:37:16.71	185.86	17.26	-41.9	-45.9	12.0	2.52e-04	0	58	0	247463936	55	5688
2026-01-22 10:37:17.72	185.94	17.37	-41.9	-45.8	12.1	3.80e-04	0	58	0	249561088	55	5633
2026-01-22 10:37:18.73	186.01	17.49	-42.1	-46.1	11.8	4.28e-04	0	58	0	251658240	55	5852
2026-01-22 10:37:19.74	186.09	17.60	-42.0	-46.1	11.8	4.62e-04	0	58	0	252706816	55	5820
2026-01-22 10:37:20.75	186.17	17.71	-42.0	-46.0	11.9	4.13e-04	0	58	0	254803968	55	5755
2026-01-22 10:37:21.76	186.24	17.83	-41.9	-45.8	12.1	3.16e-04	0	58	0	256901120	55	5651
2026-01-22 10:37:22.77	186.32	17.94	-41.9	-45.9	12.1	3.00e-04	0	58	0	258998272	55	5670
2026-01-22 10:37:23.78	186.40	18.06	-41.9	-45.8	12.2	2.51e-04	0	58	0	261095424	55	5623
2026-01-22 10:37:24.79	186.48	18.18	-41.9	-45.7	12.2	1.85e-04	0	58	0	262144000	55	5572
2026-01-22 10:37:25.80	186.56	18.29	-41.9	-45.8	12.1	3.08e-04	0	58	0	264241152	55	5647
2026-01-22 10:37:26.81	186.64	18.41	-41.7	-45.5	12.5	1.77e-04	0	58	0	266338304	55	5414
2026-01-22 10:37:27.82	186.72	18.53	-41.7	-45.4	12.5	1.06e-04	0	58	0	268435456	55	5392
2026-01-22 10:37:28.82	186.80	18.65	-41.7	-45.3	12.7	1.16e-04	0	58	0	270532608	55	5340
2026-01-22 10:37:29.83	186.89	18.76	-41.7	-45.3	12.7	7.55e-05	0	58	0	271581184	55	5319
2026-01-22 10:37:30.84	186.97	18.88	-41.6	-45.2	12.8	6.40e-05	0	58	0	273678336	55	5256
2026-01-22 10:37:31.85	187.05	19.00	-41.7	-45.3	12.7	5.95e-05	0	58	0	275775488	55	5312
2026-01-22 10:37:32.86	187.14	19.12	-41.6	-45.0	12.9	6.25e-05	0	58	0	277872640	55	5155
2026-01-22 10:37:33.87	187.22	19.24	-41.5	-45.0	13.0	2.82e-05	0	58	0	279969792	55	5127
2026-01-22 10:37:34.88	187.31	19.37	-41.5	-44.9	13.1	3.12e-05	0	58	0	281018368	54	5359
2026-01-22 10:37:35.89	187.40	19.49	-41.4	-44.8	13.2	2.89e-05	0	58	0	283115520	54	5330
2026-01-22 10:37:36.90	187.48	19.61	-41.4	-44.7	13.3	1.67e-05	0	58	0	285212672	54	5259
2026-01-22 10:37:37.91	187.57	19.73	-41.3	-44.5	13.5	1.52e-05	0	58	0	287309824	54	5145
2026-01-22 10:37:38.92	187.66	19.86	-41.2	-44.4	13.6	8.30e-06	0	58	0	289406976	54	5071
2026-01-22 10:37:39.93	187.75	19.98	-41.1	-44.3	13.8	1.29e-05	0	58	0	291504128	54	5003
2026-01-22 10:37:40.94	187.84	20.11	-41.1	-44.2	13.8	3.00e-06	0	58	0	292552704	54	4978
2026-01-22 10:37:41.94	187.93	20.23	-41.0	-44.0	14.1	2.20e-06	0	58	0	294649856	53	5127
2026-01-22 10:37:42.95	188.02	20.36	-40.9	-43.8	14.2	1.50e-06	0	58	0	296747008	53	5018
2026-01-22 10:37:43.96	188.11	20.48	-40.8	-43.7	14.3	3.00e-06	0	58	0	298844160	53	4979
2026-01-22 10:37:44.97	188.20	20.61	-40.8	-43.7	14.4	7.00e-07	0	58	0	300941312	53	4951
2026-01-22 10:37:45.98	188.30	20.74	-40.8	-43.7	14.4	7.00e-07	0	59	0	301989888	53	4928
2026-01-22 10:37:46.99	188.39	20.87	-40.8	-43.7	14.3	0.00e+00	0	58	0	304087040	53	4961
2026-01-22 10:37:48.00	188.49	20.99	-40.8	-43.7	14.4	0.00e+00	0	58	0	306184192	53	4951
2026-01-22 10:37:49.01	188.58	21.12	-40.9	-43.8	14.2	7.00e-07	0	58	0	308281344	53	5038
2026-01-22 10:37:50.02	188.68	21.25	-40.9	-43.9	14.1	3.80e-06	0	58	0	310378496	53	5097
2026-01-22 10:37:51.03	188.77	21.38	-41.0	-44.0	14.0	4.50e-06	0	58	0	311427072	53	5151
2026-01-22 10:37:52.04	188.87	21.52	-41.0	-44.1	13.9	2.20e-06	0	58	0	313524224	53	5182
2026-01-22 10:37:53.05	188.97	21.65	-41.1	-44.2	13.8	2.20e-06	0	59	0	315621376	53	5274
2026-01-22 10:37:54.06	189.07	21.78	-41.1	-44.3	13.8	2.20e-06	0	58	0	317718528	53	5293
2026-01-22 10:37:55.07	189.17	21.91	-41.2	-44.4	13.6	8.30e-06	0	58	0	319815680	53	5359
2026-01-22 10:37:56.07	189.27	22.04	-41.1	-44.2	13.8	6.80e-06	0	58	0	320864256	53	5276
2026-01-22 10:37:57.08	189.37	22.18	-41.1	-44.3	13.8	4.50e-06	0	58	0	322961408	53	5281
2026-01-22 10:37:58.09	189.48	22.31	-41.1	-44.3	13.7	6.10e-06	0	59	0	325058560	53	5325
2026-01-22 10:37:59.10	189.58	22.45	-41.1	-44.2	13.8	3.80e-06	0	59	0	327155712	53	5276
2026-01-22 10:38:00.11	189.69	22.59	-41.0	-44.0	14.1	3.00e-06	0	58	0	329252864	53	5111
2026-01-22 10:38:01.12	189.79	22.72	-41.1	-44.1	14.0	1.50e-06	0	59	0	330301440	53	5213
2026-01-22 10:38:02.13	189.90	22.86	-40.9	-43.9	14.1	3.00e-06	0	58	0	332398592	53	5095
2026-01-22 10:38:03.14	190.01	23.00	-41.0	-44.1	14.0	1.50e-06	0	59	0	334495744	53	5201
2026-01-22 10:38:04.15	190.11	23.14	-41.0	-44.1	14.0	7.00e-07	0	59	0	336592896	53	5161
2026-01-22 10:38:05.16	190.22	23.27	-41.0	-44.1	14.1	3.00e-06	0	59	0	338690048	53	5166
2026-01-22 10:38:06.17	190.33	23.41	-41.1	-44.1	14.0	5.30e-06	0	59	0	339738624	53	5208
2026-01-22 10:38:07.18	190.44	23.56	-41.0	-44.0	14.2	2.20e-06	0	59	0	341835776	53	5108
2026-01-22 10:38:08.19	190.56	23.70	-40.9	-43.8	14.3	3.00e-06	0	59	0	343932928	53	5017
2026-01-22 10:38:09.20	190.67	23.84	-40.9	-44.0	14.1	2.20e-06	0	59	0	346030080	53	5118
2026-01-22 10:38:10.21	190.78	23.98	-41.0	-44.0	14.1	7.00e-07	0	59	0	348127232	53	5138
2026-01-22 10:38:11.22	190.90	24.12	-40.9	-43.9	14.3	3.00e-06	0	59	0	349175808	53	5052
2026-01-22 10:38:12.23	191.01	24.27	-41.0	-44.0	14.1	3.80e-06	0	59	0	351272960	53	5154
2026-01-22 10:38:13.24	191.13	24.41	-41.0	-44.0	14.1	4.50e-06	0	59	0	353370112	53	5117
2026-01-22 10:38:14.25	191.25	24.56	-40.8	-43.8	14.3	4.50e-06	0	59	0	355467264	53	4992
2026-01-22 10:38:15.26	191.37	24.70	-40.7	-43.6	14.4	0.00e+00	0	59	0	357564416	53	4913
2026-01-22 10:38:16.27	191.49	24.85	-40.9	-43.8	14.3	7.00e-07	0	59	0	359661568	53	5020
2026-01-22 10:38:17.28	191.61	25.00	-40.7	-43.6	14.5	7.00e-07	0	59	0	360710144	53	4898
2026-01-22 10:38:18.29	191.73	25.15	-40.5	-43.3	14.9	0.00e+00	0	58	0	362807296	53	4723
2026-01-22 10:38:19.30	191.86	25.29	-40.6	-43.4	14.7	0.00e+00	0	59	0	364904448	53	4771
2026-01-22 10:38:20.31	191.98	25.44	-40.6	-43.5	14.8	7.00e-07	0	59	0	367001600	53	4821
2026-01-22 10:38:21.31	192.11	25.59	-40.7	-43.6	14.6	7.00e-07	0	59	0	369098752	53	4896
2026-01-22 10:38:22.32	192.23	25.74	-40.7	-43.6	14.6	7.00e-07	0	59	0	370147328	53	4872
2026-01-22 10:38:23.33	192.36	25.89	-40.9	-43.8	14.4	7.00e-07	0	59	0	372244480	53	5007
2026-01-22 10:38:24.34	192.49	26.05	-40.8	-43.6	14.5	1.50e-06	0	59	0	374341632	53	4909
2026-01-22 10:38:25.35	192.62	26.20	-40.8	-43.6	14.5	0.00e+00	0	59	0	376438784	53	4910
2026-01-22 10:38:26.36	192.76	26.35	-40.9	-43.8	14.4	0.00e+00	0	59	0	378535936	53	5018
2026-01-22 10:38:27.37	192.89	26.51	-40.8	-43.6	14.6	7.00e-07	0	59	0	379584512	53	4894
2026-01-22 10:38:28.38	193.02	26.66	-40.9	-43.8	14.4	7.00e-07	0	59	0	381681664	53	4985
2026-01-22 10:38:29.39	193.16	26.82	-40.7	-43.5	14.7	0.00e+00	0	59	0	383778816	53	4819
2026-01-22 10:38:30.40	193.30	26.98	-40.9	-43.9	14.3	7.00e-07	0	59	0	385875968	53	5068
2026-01-22 10:38:31.41	193.43	27.13	-41.0	-43.9	14.3	3.00e-06	0	59	0	387973120	53	5068
2026-01-22 10:38:32.42	193.57	27.29	-41.1	-44.1	14.1	7.00e-07	0	59	0	389021696	53	5214
2026-01-22 10:38:33.43	193.71	27.45	-41.1	-44.2	14.0	2.20e-06	0	59	0	391118848	53	5252
2026-01-22 10:38:34.44	193.86	27.61	-41.2	-44.3	13.9	7.00e-07	0	59	0	393216000	53	5293
2026-01-22 10:38:35.45	194.00	27.77	-41.4	-44.7	13.6	4.50e-06	0	59	0	395313152	53	5542
2026-01-22 10:38:36.46	194.15	27.93	-41.3	-44.5	13.7	8.30e-06	0	59	0	397410304	53	5423
2026-01-22 10:38:37.47	194.29	28.09	-41.5	-44.9	13.3	6.10e-06	0	59	0	398458880	53	5688
2026-01-22 10:38:38.47	194.44	28.25	-41.4	-44.7	13.5	1.83e-05	0	59	0	400556032	53	5572
2026-01-22 10:38:39.48	194.59	28.42	-41.5	-44.8	13.4	1.52e-05	0	59	0	402653184	53	5641
2026-01-22 10:38:40.49	194.74	28.58	-41.6	-44.9	13.4	1.83e-05	0	59	0	404750336	53	5698
2026-01-22 10:38:41.50	194.89	28.75	-41.6	-45.1	13.1	2.05e-05	0	59	0	406847488	53	5790
2026-01-22 10:38:42.51	195.05	28.91	-41.8	-45.3	12.9	4.57e-05	0	59	0	407896064	54	5626
2026-01-22 10:38:43.52	195.20	29.08	-41.6	-45.0	13.2	2.05e-05	0	59	0	409993216	54	5442
2026-01-22 10:38:44.53	195.36	29.24	-42.0	-45.7	12.5	5.64e-05	0	59	0	412090368	54	5863
2026-01-22 10:38:45.54	195.52	29.41	-42.0	-45.7	12.6	1.38e-04	0	59	0	414187520	54	5881
2026-01-22 10:38:46.55	195.68	29.58	-42.1	-45.9	12.3	1.81e-04	0	59	0	416284672	54	6046
2026-01-22 10:38:47.56	195.84	29.75	-42.4	-46.5	11.6	3.73e-04	0	59	0	417333248	55	6086
2026-01-22 10:38:48.57	196.01	29.92	-42.4	-46.6	11.6	5.02e-04	0	59	0	419430400	55	6171
2026-01-22 10:38:49.58	196.17	30.09	-42.5	-46.8	11.4	9.28e-04	0	59	0	421527552	55	6328
2026-01-22 10:38:50.59	196.34	30.26	-42.5	-46.8	11.4	9.41e-04	0	59	0	423624704	55	6301
2026-01-22 10:38:51.60	196.51	30.44	-42.7	-47.2	11.0	1.03e-03	0	59	0	425721856	55	6609
2026-01-22 10:38:52.61	196.68	30.61	-42.7	-47.2	11.0	1.59e-03	0	59	0	427819008	55	6577
2026-01-22 10:38:53.62	196.85	30.78	-43.1	-47.9	10.4	2.77e-03	0	59	0	428867584	56	6740
2026-01-22 10:38:54.63	197.02	30.96	-43.0	-47.8	10.6	4.28e-03	0	59	0	430964736	56	6660
2026-01-22 10:38:55.63	197.20	31.13	-43.1	-48.0	10.3	4.60e-03	0	59	0	433061888	56	6827
2026-01-22 10:38:56.64	197.38	31.31	-43.3	-48.4	10.0	9.38e-03	0	59	0	435159040	57	6732
2026-01-22 10:38:57.65	197.56	31.49	-43.1	-48.0	10.3	7.91e-03	0	59	0	437256192	57	6451
2026-01-22 10:38:58.66	197.74	31.66	-43.2	-48.2	10.1	7.74e-03	0	59	0	438304768	57	6599
2026-01-22 10:38:59.67	197.92	31.84	-43.3	-48.4	9.9	8.62e-03	0	59	0	440401920	57	6757
2026-01-22 10:39:00.68	198.11	32.02	-43.2	-48.2	10.2	9.11e-03	0	59	0	442499072	57	6576
2026-01-22 10:39:01.69	198.30	32.20	-43.1	-48.0	10.4	6.96e-03	0	59	0	444596224	57	6461
2026-01-22 10:39:02.70	198.49	32.38	-43.1	-48.0	10.3	3.92e-03	0	59	0	446693376	57	6452
2026-01-22 10:39:03.71	198.68	32.56	-43.0	-47.8	10.5	3.60e-03	0	59	0	447741952	57	6282
2026-01-22 10:39:04.72	198.87	32.75	-42.9	-47.5	10.9	2.77e-03	0	59	0	449839104	57	6068
2026-01-22 10:39:05.73	199.07	32.93	-43.1	-47.8	10.5	4.25e-03	0	59	0	451936256	57	6325
2026-01-22 10:39:06.74	199.27	33.11	-42.9	-47.3	11.1	2.17e-03	0	59	0	454033408	57	5989
2026-01-22 10:39:07.75	199.47	33.30	-43.1	-47.8	10.6	2.68e-03	0	59	0	456130560	57	6306
2026-01-22 10:39:08.76	199.67	33.48	-42.8	-47.3	11.1	2.34e-03	0	59	0	457179136	57	5929
2026-01-22 10:39:09.77	199.88	33.67	-42.8	-47.3	11.1	1.46e-03	0	59	0	459276288	57	5924
2026-01-22 10:39:10.78	200.08	33.86	-42.6	-46.7	11.8	7.03e-04	0	59	0	461373440	57	5530
2026-01-22 10:39:11.79	200.29	34.04	-42.6	-46.7	11.6	5.83e-04	0	59	0	463470592	56	5909
2026-01-22 10:39:12.80	200.51	34.23	-42.5	-46.5	11.9	5.00e-04	0	59	0	465567744	56	5747
2026-01-22 10:39:13.80	200.72	34.42	-42.6	-46.9	11.6	4.30e-04	0	59	0	466616320	56	5999
2026-01-22 10:39:14.81	200.94	34.61	-42.6	-46.8	11.6	7.94e-04	0	59	0	468713472	56	5953
2026-01-22 10:39:15.82	201.16	34.80	-42.8	-47.1	11.3	1.47e-03	0	59	0	470810624	56	6185
2026-01-22 10:39:16.83	201.38	34.99	-42.9	-47.4	10.8	2.36e-03	0	59	0	472907776	56	6353
2026-01-22 10:39:17.84	201.60	35.18	-43.0	-47.7	10.8	1.55e-03	0	59	0	475004928	56	6576
2026-01-22 10:39:18.85	201.83	35.38	-43.0	-47.7	10.7	2.53e-03	0	59	0	476053504	56	6635
2026-01-22 10:39:19.86	202.06	35.57	-43.0	-47.6	10.7	2.54e-03	0	59	0	478150656	56	6564
2026-01-22 10:39:20.87	202.29	35.76	-42.8	-47.2	11.2	1.75e-03	0	59	0	480247808	56	6210
2026-01-22 10:39:21.88	202.53	35.96	-42.7	-47.0	11.4	8.66e-04	0	59	0	482344960	56	6089
2026-01-22 10:39:22.89	202.77	36.15	-42.8	-47.1	11.3	9.83e-04	0	59	0	484442112	56	6152
2026-01-22 10:39:23.90	203.01	36.35	-42.6	-46.8	11.6	7.49e-04	0	59	0	485490688	56	5971
2026-01-22 10:39:24.91	203.25	36.54	-42.5	-46.5	12.0	3.00e-04	0	59	0	487587840	56	5743
2026-01-22 10:39:25.92	203.50	36.74	-42.3	-46.1	12.3	1.92e-04	0	59	0	489684992	56	5509
2026-01-22 10:39:26.93	203.75	36.94	-42.4	-46.3	12.1	1.75e-04	0	59	0	491782144	56	5605
2026-01-22 10:39:27.94	204.00	37.14	-42.3	-46.1	12.1	2.17e-04	0	59	0	493879296	55	5845
2026-01-22 10:39:28.95	204.26	37.34	-42.6	-46.8	11.5	3.75e-04	0	59	0	494927872	55	6325
2026-01-22 10:39:29.96	204.52	37.54	-42.6	-47.0	11.2	8.26e-04	0	59	0	497025024	55	6456
2026-01-22 10:39:30.97	204.78	37.74	-42.9	-47.4	11.1	1.47e-03	0	59	0	499122176	56	6387
2026-01-22 10:39:31.98	205.04	37.94	-43.0	-47.6	11.0	2.11e-03	0	59	0	501219328	56	6501
2026-01-22 10:39:32.99	205.31	38.14	-43.0	-47.7	10.7	2.13e-03	0	59	0	503316480	56	6608
2026-01-22 10:39:33.99	205.58	38.34	-42.9	-47.5	10.9	2.43e-03	0	59	0	504365056	56	6465
2026-01-22 10:39:35.00	205.85	38.54	-42.8	-47.3	11.1	1.96e-03	0	59	0	506462208	56	6308
2026-01-22 10:39:36.01	206.13	38.74	-42.7	-47.0	11.4	1.59e-03	0	59	0	508559360	56	6119
2026-01-22 10:39:37.02	206.41	38.94	-42.6	-46.8	11.6	9.79e-04	0	59	0	510656512	56	5967
2026-01-22 10:39:38.03	206.70	39.15	-42.6	-46.7	11.8	6.95e-04	0	59	0	512753664	56	5897
2026-01-22 10:39:39.04	206.99	39.35	-42.2	-46.0	12.5	3.64e-04	0	59	0	513802240	56	5417
2026-01-22 10:39:40.05	207.28	39.55	-42.0	-45.5	13.0	1.58e-04	0	59	0	515899392	56	5105
2026-01-22 10:39:41.06	207.58	39.76	-42.1	-45.7	12.8	3.89e-05	0	59	0	517996544	56	5222
2026-01-22 10:39:42.07	207.88	39.96	-41.7	-45.0	13.4	1.90e-05	0	59	0	520093696	55	5122
2026-01-22 10:39:43.08	208.18	40.17	-41.8	-45.2	13.2	1.90e-05	0	59	0	522190848	55	5227
2026-01-22 10:39:44.09	208.49	40.37	-42.0	-45.7	12.6	4.04e-05	0	59	0	524288000	55	5557
2026-01-22 10:39:45.10	208.80	40.58	-42.3	-46.2	12.1	2.88e-04	0	59	0	525336576	55	5894
2026-01-22 10:39:46.11	209.11	40.79	-42.5	-46.8	11.6	6.36e-04	0	59	0	527433728	55	6276
2026-01-22 10:39:47.12	209.43	40.99	-42.8	-47.0	11.5	1.02e-03	0	59	0	529530880	56	6112
2026-01-22 10:39:48.13	209.76	41.20	-42.4	-46.4	12.1	3.50e-04	0	59	0	531628032	56	5663
2026-01-22 10:39:49.14	210.08	41.41	-42.5	-46.4	12.1	2.30e-04	0	59	0	533725184	56	5699
2026-01-22 10:39:50.15	210.41	41.61	-42.3	-46.0	12.4	1.85e-04	0	59	0	534773760	56	5444
2026-01-22 10:39:51.16	210.75	41.82	-42.4	-46.2	12.3	2.68e-04	0	59	0	536870912	56	5568
2026-01-22 10:39:52.17	211.09	42.03	-42.5	-46.5	12.1	2.79e-04	0	59	0	538968064	56	5765
2026-01-22 10:39:53.18	211.43	42.23	-42.8	-46.9	11.5	5.54e-04	0	59	0	541065216	56	6060
2026-01-22 10:39:54.19	211.78	42.44	-42.9	-47.4	11.1	1.27e-03	0	59	0	543162368	56	6378
2026-01-22 10:39:55.20	212.13	42.65	-43.0	-47.6	10.9	2.02e-03	0	59	0	544210944	56	6547
2026-01-22 10:39:56.20	212.49	42.85	-43.0	-47.6	10.9	2.07e-03	0	59	0	546308096	56	6505
2026-01-22 10:39:57.21	212.85	43.06	-43.1	-47.9	10.6	3.22e-03	0	59	0	548405248	56	6743
2026-01-22 10:39:58.22	213.22	43.26	-43.2	-48.0	10.4	3.37e-03	0	59	0	550502400	56	6836
2026-01-22 10:39:59.23	213.59	43.47	-43.3	-48.2	10.2	5.91e-03	0	60	0	552599552	57	6607
2026-01-22 10:40:00.24	213.96	43.68	-43.2	-48.4	10.0	5.52e-03	0	59	0	553648128	57	6741
2026-01-22 10:40:01.25	214.35	43.88	-43.5	-49.0	9.5	1.23e-02	0	59	0	555745280	57	7214
2026-01-22 10:40:02.26	214.73	44.09	-43.5	-48.9	9.4	1.92e-02	0	59	0	557842432	57	7188
2026-01-22 10:40:03.27	215.12	44.29	-43.7	-49.4	9.1	1.91e-02	0	59	0	559939584	57	7544
2026-01-22 10:40:04.28	215.52	44.50	-43.4	-48.7	9.7	1.30e-02	0	60	0	562036736	57	6962
2026-01-22 10:40:05.29	215.92	44.70	-43.2	-47.9	10.4	4.52e-03	0	59	0	563085312	57	6381
2026-01-22 10:40:06.30	216.32	44.91	-43.3	-48.1	10.2	3.46e-03	0	59	0	565182464	57	6564
2026-01-22 10:40:07.31	216.73	45.11	-43.4	-48.7	9.7	7.61e-03	0	59	0	567279616	57	6974
2026-01-22 10:40:08.32	217.15	45.31	-43.6	-49.3	9.2	2.25e-02	0	60	0	569376768	58	7076
2026-01-22 10:40:09.33	217.57	45.52	-43.9	-50.0	8.3	4.12e-02	0	59	0	571473920	58	7675
2026-01-22 10:40:10.34	218.00	45.72	-43.8	-49.8	8.6	3.45e-02	0	59	0	572522496	58	7465
2026-01-22 10:40:11.35	218.43	45.92	-43.5	-48.7	9.6	1.78e-02	0	59	0	574619648	58	6637
2026-01-22 10:40:12.36	218.87	46.12	-43.4	-48.6	9.9	1.13e-02	0	59	0	576716800	58	6543
2026-01-22 10:40:13.37	219.31	46.32	-43.5	-48.7	9.6	1.28e-02	0	59	0	578813952	58	6633
2026-01-22 10:40:14.37	219.76	46.52	-43.6	-49.0	9.4	1.51e-02	0	60	0	580911104	58	6813
2026-01-22 10:40:15.38	220.21	46.71	-43.7	-49.5	8.8	1.82e-02	0	59	0	581959680	57	7688
2026-01-22 10:40:16.39	220.67	46.91	-43.5	-49.2	9.2	2.18e-02	0	59	0	584056832	58	6972
2026-01-22 10:40:17.40	221.14	47.10	-43.7	-49.4	8.9	2.69e-02	0	60	0	586153984	58	7201
2026-01-22 10:40:18.41	221.61	47.30	-43.6	-49.1	9.3	2.24e-02	0	60	0	588251136	58	6895
2026-01-22 10:40:19.42	222.09	47.49	-43.1	-47.7	10.8	9.26e-03	0	60	0	590348288	58	5878
2026-01-22 10:40:20.43	222.57	47.68	-42.9	-47.5	10.9	2.05e-03	0	59	0	592445440	57	6073
2026-01-22 10:40:21.44	223.06	47.87	-43.0	-47.5	11.0	1.52e-03	0	60	0	593494016	57	6082
2026-01-22 10:40:22.45	223.55	48.06	-43.1	-47.8	10.6	2.10e-03	0	59	0	595591168	57	6300
2026-01-22 10:40:23.46	224.05	48.25	-43.2	-47.9	10.6	3.26e-03	0	59	0	597688320	57	6379
2026-01-22 10:40:24.47	224.56	48.44	-42.9	-47.2	11.3	2.15e-03	0	59	0	599785472	57	5917
2026-01-22 10:40:25.48	225.07	48.62	-42.7	-46.8	11.7	8.20e-04	0	59	0	601882624	56	5942
2026-01-22 10:40:26.49	225.59	48.80	-42.6	-46.6	11.9	7.12e-04	0	59	0	602931200	56	5798
2026-01-22 10:40:27.50	226.12	48.98	-42.7	-46.9	11.5	6.44e-04	0	59	0	605028352	56	6041
2026-01-22 10:40:28.50	226.65	49.16	-42.9	-47.2	11.2	7.17e-04	0	60	0	607125504	56	6245
2026-01-22 10:40:29.51	227.18	49.34	-42.9	-47.5	11.0	1.20e-03	0	59	0	609222656	56	6429
2026-01-22 10:40:30.52	227.73	49.51	-43.0	-47.5	10.9	2.14e-03	0	60	0	611319808	56	6472
2026-01-22 10:40:31.53	228.28	49.69	-42.8	-47.0	11.3	1.22e-03	0	60	0	612368384	56	6078
2026-01-22 10:40:32.54	228.83	49.86	-42.3	-46.0	12.5	5.82e-04	0	59	0	614465536	56	5445
2026-01-22 10:40:33.55	229.40	50.03	-41.9	-45.6	12.8	1.04e-04	0	60	0	616562688	55	5465
2026-01-22 10:40:34.56	229.96	50.19	-42.2	-46.2	12.1	6.63e-05	0	59	0	618659840	55	5863
2026-01-22 10:40:35.57	230.54	50.36	-42.1	-46.2	12.1	2.38e-04	0	60	0	620756992	55	5914
2026-01-22 10:40:36.58	231.12	50.52	-42.1	-45.8	12.5	1.56e-04	0	60	0	621805568	55	5604
2026-01-22 10:40:37.59	231.71	50.68	-41.7	-45.1	13.3	5.49e-05	0	59	0	623902720	54	5468
2026-01-22 10:40:38.60	232.30	50.83	-41.6	-44.9	13.5	2.28e-05	0	60	0	625999872	54	5371
2026-01-22 10:40:39.61	232.90	50.99	-41.6	-44.9	13.3	1.90e-05	0	60	0	628097024	54	5393
2026-01-22 10:40:40.62	233.50	51.14	-41.6	-44.9	13.4	1.22e-05	0	60	0	630194176	54	5375
2026-01-22 10:40:41.63	234.11	51.29	-41.7	-45.0	13.3	1.22e-05	0	60	0	631242752	54	5415
2026-01-22 10:40:42.64	234.73	51.43	-41.8	-45.2	13.1	1.60e-05	0	60	0	633339904	54	5563
2026-01-22 10:40:43.65	235.35	51.57	-42.0	-45.7	12.7	1.07e-04	0	60	0	635437056	54	5867
2026-01-22 10:40:44.66	235.98	51.71	-41.7	-45.3	13.1	6.56e-05	0	60	0	637534208	54	5599
2026-01-22 10:40:45.66	236.61	51.85	-41.8	-45.2	13.2	1.90e-05	0	59	0	639631360	54	5555
2026-01-22 10:40:46.67	237.25	51.98	-42.0	-45.7	12.7	4.42e-05	0	59	0	640679936	54	5880
2026-01-22 10:40:47.68	237.90	52.11	-41.2	-45.1	13.2	1.11e-04	0	60	0	642777088	54	5469
2026-01-22 10:40:48.69	238.55	52.24	-41.6	-44.8	13.5	3.66e-05	0	59	0	644874240	54	5315
2026-01-22 10:40:49.70	239.21	52.36	-41.0	-44.1	14.2	1.50e-06	0	59	0	646971392	53	5172
2026-01-22 10:40:50.71	239.87	52.48	-41.5	-44.8	13.5	5.30e-06	0	59	0	649068544	53	5634
2026-01-22 10:40:51.72	240.53	52.59	-42.2	-45.9	12.3	2.59e-05	0	59	0	650117120	54	6053
2026-01-22 10:40:52.73	241.21	52.71	-42.0	-45.5	12.9	1.06e-04	0	59	0	652214272	54	5758
2026-01-22 10:40:53.74	241.88	52.81	-42.0	-45.6	12.8	7.40e-05	0	60	0	654311424	54	5803
2026-01-22 10:40:54.75	242.57	52.92	-41.9	-45.5	12.9	6.94e-05	0	60	0	656408576	54	5735
2026-01-22 10:40:55.76	243.25	53.02	-41.8	-45.2	13.2	2.82e-05	0	60	0	658505728	54	5560
2026-01-22 10:40:56.77	243.95	53.11	-41.2	-44.1	14.2	3.80e-06	0	60	0	659554304	53	5214
2026-01-22 10:40:57.78	244.64	53.21	-41.2	-44.1	14.3	1.50e-06	0	59	0	661651456	53	5203
2026-01-22 10:40:58.79	245.34	53.29	-41.8	-45.2	13.2	2.20e-06	0	60	0	663748608	54	5559
2026-01-22 10:40:59.80	246.05	53.38	-42.2	-46.0	12.3	2.27e-04	0	60	0	665845760	55	5767
2026-01-22 10:41:00.81	246.76	53.46	-42.3	-46.3	12.1	2.30e-04	0	60	0	667942912	55	5937
2026-01-22 10:41:01.82	247.47	53.53	-42.5	-46.5	11.8	1.81e-04	0	60	0	670040064	55	6094
2026-01-22 10:41:02.83	248.18	53.60	-42.7	-47.1	11.3	7.99e-04	0	60	0	671088640	55	6520
2026-01-22 10:41:03.84	248.90	53.67	-42.9	-47.3	11.2	1.67e-03	0	60	0	673185792	56	6289
2026-01-22 10:41:04.85	249.62	53.73	-42.4	-46.1	12.3	7.17e-04	0	60	0	675282944	56	5513
2026-01-22 10:41:05.86	250.35	53.79	-42.3	-46.0	12.5	6.02e-05	0	60	0	677380096	56	5460
2026-01-22 10:41:06.87	251.08	53.84	-42.3	-46.1	12.4	8.08e-05	0	60	0	679477248	56	5475
2026-01-22 10:41:07.87	251.80	53.89	-42.9	-47.4	11.1	6.07e-04	0	60	0	680525824	56	6366
2026-01-22 10:41:08.88	252.53	53.94	-43.1	-47.7	10.9	2.22e-03	0	60	0	682622976	56	6588
2026-01-22 10:41:09.89	253.27	53.98	-42.7	-46.9	11.5	9.37e-04	0	60	0	684720128	56	6055
2026-01-22 10:41:10.90	254.01	54.01	-42.5	-46.4	12.2	2.75e-04	0	60	0	686817280	56	5661
2026-01-22 10:41:11.91	254.74	54.04	-42.4	-46.2	12.3	2.10e-04	0	59	0	688914432	56	5570
2026-01-22 10:41:12.92	255.48	54.07	-42.8	-46.9	11.5	5.70e-04	0	60	0	689963008	56	6047
2026-01-22 10:41:13.93	256.22	54.09	-42.8	-46.9	11.4	8.66e-04	0	60	0	692060160	56	6060
2026-01-22 10:41:14.94	256.97	54.10	-42.9	-47.2	11.3	1.40e-03	0	60	0	694157312	56	6243
2026-01-22 10:41:15.95	257.71	54.11	-43.2	-48.0	10.4	3.95e-03	0	59	0	696254464	56	6819
2026-01-22 10:41:16.96	258.45	54.12	-43.3	-48.2	10.2	6.05e-03	0	60	0	698351616	57	6582
2026-01-22 10:41:17.97	259.19	54.12	-42.8	-47.1	11.3	3.42e-03	0	60	0	699400192	57	5827
2026-01-22 10:41:18.98	259.94	54.12	-42.7	-46.9	11.5	8.79e-04	0	60	0	701497344	57	5682
2026-01-22 10:41:19.99	260.68	54.11	-42.9	-47.3	11.1	9.40e-04	0	60	0	703594496	57	5956
2026-01-22 10:41:21.00	261.42	54.10	-42.8	-47.0	11.4	1.36e-03	0	60	0	705691648	57	5787
2026-01-22 10:41:22.01	262.16	54.08	-42.5	-46.4	12.1	2.61e-04	0	60	0	707788800	56	5667
2026-01-22 10:41:23.02	262.90	54.06	-42.2	-45.8	12.7	1.46e-04	0	60	0	708837376	56	5307
2026-01-22 10:41:24.03	263.64	54.03	-42.3	-46.0	12.5	7.55e-05	0	60	0	710934528	56	5429
2026-01-22 10:41:25.04	264.38	54.00	-42.4	-46.1	12.3	1.59e-04	0	60	0	713031680	56	5527
2026-01-22 10:41:26.04	265.11	53.96	-42.5	-46.4	12.1	2.82e-04	0	60	0	715128832	56	5679
2026-01-22 10:41:27.06	265.85	53.92	-42.4	-46.2	12.0	3.35e-04	0	60	0	717225984	56	5587
2026-01-22 10:41:28.06	266.58	53.88	-42.6	-46.7	11.7	3.35e-04	0	60	0	718274560	56	5889
2026-01-22 10:41:29.07	267.30	53.83	-42.7	-46.8	11.7	4.45e-04	0	60	0	720371712	56	5930
2026-01-22 10:41:30.07	268.02	53.77	-42.5	-46.3	12.1	6.19e-04	0	60	0	722468864	56	5648
2026-01-22 10:41:31.08	268.75	53.72	-42.0	-45.4	13.0	1.14e-04	0	59	0	724566016	56	5095
2026-01-22 10:41:32.09	269.47	53.65	-41.5	-44.6	13.8	6.10e-06	0	60	0	726663168	54	5179
2026-01-22 10:41:33.10	270.19	53.58	-41.6	-44.9	13.5	6.10e-06	0	60	0	727711744	54	5355
2026-01-22 10:41:34.11	270.90	53.51	-41.6	-44.9	13.5	1.67e-05	0	60	0	729808896	54	5375
2026-01-22 10:41:35.12	271.61	53.44	-41.7	-45.1	13.1	3.12e-05	0	60	0	731906048	54	5496
2026-01-22 10:41:36.13	272.32	53.35	-41.7	-45.0	13.4	2.13e-05	0	60	0	734003200	54	5419
2026-01-22 10:41:37.14	273.02	53.27	-41.2	-44.1	14.2	1.44e-05	0	60	0	736100352	54	4922
2026-01-22 10:41:38.15	273.72	53.18	-41.2	-44.1	14.2	7.00e-07	0	60	0	738197504	54	4890
2026-01-22 10:41:39.16	274.41	53.09	-41.7	-45.0	13.4	4.50e-06	0	60	0	739246080	54	5417
2026-01-22 10:41:40.17	275.10	52.99	-42.1	-45.8	12.6	5.49e-05	0	60	0	741343232	54	5926
2026-01-22 10:41:41.18	275.79	52.89	-42.1	-45.7	12.7	9.91e-05	0	60	0	743440384	55	5539
2026-01-22 10:41:42.19	276.47	52.78	-42.0	-45.5	12.8	2.05e-05	0	60	0	745537536	55	5444
2026-01-22 10:41:43.20	277.14	52.68	-42.5	-46.6	11.7	1.83e-04	0	60	0	747634688	55	6177
2026-01-22 10:41:44.21	277.81	52.56	-42.4	-46.5	11.8	6.03e-04	0	60	0	748683264	55	6117
2026-01-22 10:41:45.21	278.47	52.45	-41.9	-45.4	12.9	1.17e-04	0	60	0	750780416	55	5365
2026-01-22 10:41:46.23	279.14	52.33	-41.7	-45.0	13.3	2.44e-05	0	60	0	752877568	55	5123
2026-01-22 10:41:47.24	279.79	52.20	-42.0	-45.7	12.6	3.66e-05	0	60	0	754974720	55	5559
2026-01-22 10:41:48.24	280.43	52.08	-42.2	-45.9	12.4	1.49e-04	0	60	0	757071872	55	5686
2026-01-22 10:41:49.25	281.08	51.95	-42.0	-45.5	12.8	1.05e-04	0	60	0	758120448	55	5427
2026-01-22 10:41:50.26	281.71	51.81	-41.8	-45.3	13.0	4.73e-05	0	60	0	760217600	55	5304
2026-01-22 10:41:51.27	282.34	51.68	-41.4	-44.4	13.9	8.30e-06	0	60	0	762314752	54	5079
2026-01-22 10:41:52.28	282.97	51.54	-40.9	-43.6	14.7	1.50e-06	0	60	0	764411904	53	4913
2026-01-22 10:41:53.29	283.59	51.40	-40.7	-43.3	15.0	0.00e+00	0	60	0	766509056	53	4741
2026-01-22 10:41:54.30	284.21	51.25	-41.4	-44.5	13.9	7.00e-07	0	60	0	767557632	53	5409
2026-01-22 10:41:55.31	284.81	51.10	-41.9	-45.3	13.0	1.83e-05	0	60	0	769654784	54	5644
2026-01-22 10:41:56.32	285.42	50.95	-41.9	-45.4	12.9	4.95e-05	0	60	0	771751936	54	5689
2026-01-22 10:41:57.33	286.01	50.80	-41.8	-45.2	13.2	3.89e-05	0	60	0	773849088	54	5534
2026-01-22 10:41:58.34	286.60	50.64	-41.7	-45.0	13.3	1.90e-05	0	60	0	775946240	54	5462
2026-01-22 10:41:59.35	287.19	50.48	-41.6	-44.8	13.6	1.67e-05	0	60	0	776994816	54	5315
2026-01-22 10:42:00.36	287.76	50.32	-41.4	-44.5	13.9	8.30e-06	0	60	0	779091968	54	5140
2026-01-22 10:42:01.37	288.33	50.15	-41.1	-43.9	14.3	4.50e-06	0	60	0	781189120	54	4806
2026-01-22 10:42:02.38	288.90	49.99	-41.4	-44.4	14.0	3.80e-06	0	60	0	783286272	54	5083
2026-01-22 10:42:03.39	289.46	49.82	-41.5	-44.7	13.6	4.50e-06	0	60	0	785383424	54	5254
2026-01-22 10:42:04.40	290.01	49.65	-41.7	-45.0	13.4	9.90e-06	0	60	0	786432000	54	5404
2026-01-22 10:42:05.41	290.56	49.48	-42.0	-45.5	12.8	2.05e-05	0	60	0	788529152	54	5784
2026-01-22 10:42:06.42	291.10	49.30	-42.2	-46.0	12.2	1.46e-04	0	60	0	790626304	55	5781
2026-01-22 10:42:07.43	291.64	49.12	-42.0	-45.5	12.8	1.05e-04	0	60	0	792723456	55	5444
2026-01-22 10:42:08.44	292.16	48.94	-41.3	-44.3	14.0	1.37e-05	0	60	0	794820608	54	4986
2026-01-22 10:42:09.44	292.68	48.77	-41.1	-44.0	14.3	0.00e+00	0	60	0	795869184	54	4862
2026-01-22 10:42:10.45	293.20	48.58	-41.9	-45.4	13.0	1.60e-05	0	60	0	797966336	54	5688
2026-01-22 10:42:11.46	293.71	48.40	-43.0	-47.5	10.9	6.96e-04	0	60	0	800063488	56	6449
2026-01-22 10:42:12.47	294.21	48.21	-43.2	-48.0	10.4	5.57e-03	0	60	0	802160640	57	6459
2026-01-22 10:42:13.48	294.71	48.03	-43.1	-47.7	10.6	4.01e-03	0	60	0	804257792	57	6264
2026-01-22 10:42:14.49	295.20	47.84	-43.0	-47.6	10.9	2.46e-03	0	60	0	806354944	57	6153
2026-01-22 10:42:15.50	295.69	47.65	-43.3	-48.2	10.0	5.28e-03	0	60	0	807403520	57	6602
2026-01-22 10:42:16.51	296.17	47.46	-43.2	-48.0	10.3	5.49e-03	0	60	0	809500672	57	6480
2026-01-22 10:42:17.52	296.64	47.26	-43.6	-48.9	9.5	7.72e-03	0	60	0	811597824	57	7166
2026-01-22 10:42:18.53	297.11	47.07	-44.1	-50.6	7.6	4.83e-02	0	60	0	813694976	58	8264
2026-01-22 10:42:19.54	297.58	46.88	-44.3	-51.5	6.8	1.42e-01	0	60	0	815792128	59	8613
2026-01-22 10:42:20.55	298.03	46.68	-44.1	-50.7	7.6	1.43e-01	0	60	0	816840704	59	7860
2026-01-22 10:42:21.56	298.48	46.48	-43.9	-50.1	8.2	6.49e-02	0	60	0	818937856	59	7308
2026-01-22 10:42:22.57	298.93	46.29	-43.9	-49.8	8.5	3.38e-02	0	60	0	821035008	59	7069
2026-01-22 10:42:23.58	299.37	46.09	-44.2	-51.2	7.2	1.01e-01	0	60	0	823132160	59	8273
2026-01-22 10:42:24.59	299.81	45.89	-44.0	-50.4	7.8	9.95e-02	0	60	0	824180736	59	7594
2026-01-22 10:42:25.59	300.23	45.69	-43.9	-49.9	8.4	5.21e-02	0	60	0	826277888	59	7203
2026-01-22 10:42:26.60	300.66	45.49	-44.0	-50.4	7.8	5.56e-02	0	60	0	828375040	59	7595
2026-01-22 10:42:27.61	301.08	45.29	-44.4	-51.9	6.6	1.82e-01	0	60	0	830472192	59	9007
2026-01-22 10:42:28.62	301.49	45.09	-44.4	-51.9	6.4	2.19e-01	0	60	0	832569344	59	9035
2026-01-22 10:42:29.63	301.90	44.88	-44.4	-52.1	6.2	2.42e-01	0	60	0	834666496	59	9246
2026-01-22 10:42:30.64	302.30	44.68	-44.4	-51.9	6.5	2.73e-01	0	60	0	835715072	59	8991
2026-01-22 10:42:31.65	302.70	44.48	-44.3	-51.6	6.7	2.28e-01	0	60	0	837812224	59	8665
2026-01-22 10:42:32.66	303.09	44.27	-44.6	-53.1	5.6	1.71e-01	0	60	0	839909376	59	10315
2026-01-22 10:42:33.67	303.48	44.07	-44.6	-53.4	5.7	3.17e-01	0	60	0	842006528	60	10126
2026-01-22 10:42:34.68	303.87	43.86	-45.0	-58.2	3.8	1.39e+00	0	60	104	842006528	60	17631
2026-01-22 10:42:35.69	304.24	43.66	-44.1	-50.5	5.4	1.49e+00	0	60	104	842006528	59	7695
2026-01-22 10:42:36.70	304.62	43.45	-43.8	-49.6	8.6	2.45e-01	0	60	0	843055104	59	6921
2026-01-22 10:42:37.71	304.99	43.25	-43.6	-49.1	9.1	3.27e-02	0	60	0	845152256	59	6552
2026-01-22 10:42:38.72	305.35	43.04	-43.5	-48.8	9.4	2.31e-02	0	60	0	846200832	59	6319
2026-01-22 10:42:39.73	305.71	42.84	-43.5	-48.9	9.4	1.31e-02	0	60	0	848297984	58	6739
2026-01-22 10:42:40.74	306.07	42.63	-43.8	-49.6	8.7	2.98e-02	0	60	0	850395136	58	7290
2026-01-22 10:42:41.75	306.42	42.42	-43.9	-50.2	8.1	5.21e-02	0	60	0	852492288	58	7892
2026-01-22 10:42:42.76	306.76	42.22	-43.7	-49.4	8.8	5.64e-02	0	60	0	854589440	58	7156
2026-01-22 10:42:43.77	307.11	42.01	-43.3	-48.3	9.9	1.29e-02	0	60	0	856686592	58	6320
2026-01-22 10:42:44.77	307.44	41.81	-43.0	-47.6	10.8	3.87e-03	0	60	0	857735168	58	5792
2026-01-22 10:42:45.78	307.77	41.60	-42.9	-47.2	11.2	1.93e-03	0	60	0	859832320	57	5880
2026-01-22 10:42:46.79	308.10	41.40	-43.4	-48.5	9.8	6.98e-03	0	60	0	861929472	57	6871
2026-01-22 10:42:47.80	308.43	41.19	-43.7	-49.4	8.9	1.88e-02	0	60	0	864026624	57	7547
2026-01-22 10:42:48.81	308.75	40.99	-43.6	-49.3	9.0	2.76e-02	0	60	0	866123776	58	7050
2026-01-22 10:42:49.82	309.07	40.78	-43.0	-47.5	10.9	4.90e-03	0	60	0	867172352	57	6064
2026-01-22 10:42:50.83	309.38	40.58	-42.3	-46.0	12.4	3.29e-04	0	60	0	869269504	56	5406
2026-01-22 10:42:51.84	309.69	40.37	-41.6	-44.9	13.4	4.73e-05	0	60	0	871366656	55	5062
2026-01-22 10:42:52.85	310.00	40.17	-41.8	-45.2	13.1	1.67e-05	0	60	0	873463808	55	5267
2026-01-22 10:42:53.86	310.30	39.96	-42.5	-46.7	11.5	2.38e-04	0	60	0	875560960	55	6242
2026-01-22 10:42:54.87	310.60	39.76	-43.5	-49.1	9.2	4.53e-03	0	60	0	876609536	57	7288
2026-01-22 10:42:55.88	310.89	39.56	-43.9	-50.1	8.2	3.13e-02	0	60	0	878706688	58	7765
2026-01-22 10:42:56.89	311.18	39.35	-43.3	-48.4	9.9	2.45e-02	0	60	0	880803840	58	6349
2026-01-22 10:42:57.90	311.47	39.15	-42.3	-46.0	12.3	1.16e-03	0	60	0	882900992	56	5437
2026-01-22 10:42:58.91	311.75	38.95	-41.6	-44.9	13.4	4.95e-05	0	60	0	884998144	55	5047
2026-01-22 10:42:59.92	312.03	38.75	-42.0	-45.6	12.6	3.20e-05	0	60	0	886046720	55	5497
2026-01-22 10:43:00.93	312.31	38.55	-43.2	-48.2	10.1	8.57e-04	0	60	0	888143872	57	6615
2026-01-22 10:43:01.94	312.58	38.35	-44.3	-51.8	6.6	3.10e-02	0	60	0	890241024	59	8882
2026-01-22 10:43:02.95	312.85	38.15	-44.4	-52.5	5.9	4.29e-01	0	60	0	892338176	59	9679
2026-01-22 10:43:03.96	313.12	37.95	-43.7	-49.7	8.4	1.49e-01	0	60	0	894435328	59	6984
2026-01-22 10:43:04.97	313.39	37.75	-43.0	-47.5	10.8	1.73e-02	0	60	0	895483904	57	6078
2026-01-22 10:43:05.97	313.64	37.55	-42.4	-46.3	12.1	3.89e-04	0	60	0	897581056	56	5593
2026-01-22 10:43:06.98	313.90	37.35	-42.2	-45.9	12.5	1.59e-04	0	60	0	899678208	56	5368
2026-01-22 10:43:07.99	314.16	37.16	-42.5	-46.4	12.0	1.94e-04	0	60	0	901775360	56	5700
2026-01-22 10:43:09.00	314.41	36.96	-43.1	-47.8	10.5	2.14e-03	0	60	0	903872512	56	6703
2026-01-22 10:43:10.01	314.66	36.76	-44.0	-50.5	7.8	3.21e-02	0	60	0	904921088	58	8123
2026-01-22 10:43:11.02	314.90	36.57	-44.3	-52.1	6.3	1.75e-01	0	60	0	907018240	59	9234
2026-01-22 10:43:12.03	315.14	36.37	-44.2	-51.3	6.9	2.66e-01	0	60	0	909115392	59	8452
2026-01-22 10:43:13.04	315.38	36.18	-43.5	-48.9	9.2	4.57e-02	0	60	0	911212544	59	6396
2026-01-22 10:43:14.05	315.62	35.98	-42.7	-46.8	11.5	4.88e-03	0	60	0	913309696	57	5656
2026-01-22 10:43:15.06	315.86	35.79	-42.2	-45.8	12.5	3.32e-04	0	60	0	914358272	56	5320
2026-01-22 10:43:16.07	316.09	35.60	-41.8	-45.2	13.1	2.05e-05	0	60	0	916455424	55	5240
2026-01-22 10:43:17.08	316.32	35.41	-41.9	-45.4	12.8	1.90e-05	0	60	0	918552576	55	5360
2026-01-22 10:43:18.09	316.54	35.21	-42.7	-47.0	11.2	3.14e-04	0	60	0	920649728	55	6474
2026-01-22 10:43:19.10	316.77	35.02	-43.7	-49.5	8.8	1.52e-02	0	60	0	922746880	57	7664
2026-01-22 10:43:20.11	316.99	34.83	-44.1	-50.9	7.4	7.49e-02	0	60	0	924844032	58	8555
2026-01-22 10:43:21.12	317.21	34.64	-44.0	-50.5	7.7	1.16e-01	0	60	0	925892608	58	8136
2026-01-22 10:43:22.13	317.42	34.46	-43.7	-49.3	8.7	4.08e-02	0	60	0	927989760	58	7121
2026-01-22 10:43:23.14	317.64	34.27	-43.2	-48.1	10.0	1.08e-02	0	60	0	930086912	58	6197
2026-01-22 10:43:24.15	317.85	34.08	-43.1	-47.7	10.6	7.87e-03	0	60	0	932184064	58	5872
2026-01-22 10:43:25.16	318.06	33.90	-43.0	-47.6	10.7	3.51e-03	0	60	0	934281216	58	5852
2026-01-22 10:43:26.17	318.26	33.71	-43.1	-47.9	10.4	3.42e-03	0	60	0	935329792	58	6045
2026-01-22 10:43:27.18	318.47	33.52	-43.2	-48.2	10.1	6.32e-03	0	60	0	937426944	58	6228
2026-01-22 10:43:28.19	318.67	33.34	-43.5	-48.9	9.3	1.51e-02	0	60	0	939524096	58	6786
2026-01-22 10:43:29.20	318.87	33.16	-43.7	-49.6	8.6	2.66e-02	0	60	0	941621248	58	7309
2026-01-22 10:43:30.21	319.07	32.97	-43.9	-50.1	8.0	4.95e-02	0	60	0	943718400	58	7800
2026-01-22 10:43:31.22	319.27	32.79	-43.8	-49.8	8.4	5.79e-02	0	60	0	944766976	58	7496
2026-01-22 10:43:32.23	319.46	32.61	-43.8	-49.8	8.4	4.34e-02	0	60	0	946864128	58	7461
2026-01-22 10:43:33.24	319.65	32.43	-43.5	-49.0	9.2	3.16e-02	0	60	0	948961280	58	6828
2026-01-22 10:43:34.25	319.84	32.25	-43.2	-48.1	10.2	8.28e-03	0	60	0	951058432	58	6147
2026-01-22 10:43:35.25	320.02	32.07	-43.0	-47.7	10.5	6.59e-03	0	60	0	953155584	58	5897
2026-01-22 10:43:36.26	320.21	31.90	-42.8	-47.3	11.0	2.98e-03	0	60	0	954204160	57	5925
2026-01-22 10:43:37.27	320.39	31.72	-42.9	-47.3	11.0	1.91e-03	0	60	0	956301312	57	5951
2026-01-22 10:43:38.28	320.57	31.54	-42.9	-47.5	10.8	2.06e-03	0	60	0	958398464	57	6080
2026-01-22 10:43:39.29	320.75	31.37	-43.1	-47.9	10.4	4.71e-03	0	60	0	960495616	57	6380
2026-01-22 10:43:40.30	320.93	31.19	-43.3	-48.5	9.8	5.94e-03	0	60	0	962592768	57	6838
2026-01-22 10:43:41.31	321.11	31.02	-43.4	-48.8	9.4	1.13e-02	0	60	0	963641344	57	7059
2026-01-22 10:43:42.32	321.28	30.84	-43.6	-49.4	8.7	3.53e-02	0	60	0	965738496	57	7583
2026-01-22 10:43:43.33	321.45	30.67	-43.8	-50.0	8.1	5.03e-02	0	60	0	967835648	58	7710
2026-01-22 10:43:44.34	321.62	30.50	-43.9	-50.6	7.6	7.25e-02	0	60	0	969932800	58	8191
2026-01-22 10:43:45.35	321.79	30.33	-43.7	-49.8	8.3	6.58e-02	0	60	0	972029952	58	7535
2026-01-22 10:43:46.36	321.96	30.16	-43.6	-49.3	8.9	3.53e-02	0	60	0	973078528	58	7061
2026-01-22 10:43:47.37	322.12	29.99	-43.5	-49.1	9.1	3.57e-02	0	60	0	975175680	58	6894
2026-01-22 10:43:48.38	322.29	29.82	-43.2	-48.1	10.0	7.28e-03	0	60	0	977272832	58	6151
2026-01-22 10:43:49.39	322.45	29.65	-43.1	-48.0	10.2	6.67e-03	0	60	0	979369984	58	6116
2026-01-22 10:43:50.40	322.61	29.48	-43.1	-48.0	10.2	6.86e-03	0	60	0	981467136	58	6096
2026-01-22 10:43:51.41	322.77	29.32	-43.2	-48.1	10.1	6.08e-03	0	60	0	982515712	58	6145
2026-01-22 10:43:52.42	322.93	29.15	-43.4	-48.7	9.6	1.07e-02	0	60	0	984612864	58	6587
2026-01-22 10:43:53.42	323.08	28.99	-43.4	-48.8	9.4	1.57e-02	0	60	0	986710016	58	6686
2026-01-22 10:43:54.43	323.23	28.82	-43.5	-49.2	9.0	2.58e-02	0	60	0	988807168	58	7006
2026-01-22 10:43:55.44	323.39	28.66	-43.7	-49.6	8.6	3.22e-02	0	60	0	990904320	58	7347
2026-01-22 10:43:56.46	323.54	28.49	-43.6	-49.5	8.7	3.69e-02	0	60	0	993001472	58	7254
2026-01-22 10:43:57.46	323.69	28.33	-43.5	-49.0	9.2	3.19e-02	0	60	0	994050048	58	6846
2026-01-22 10:43:58.47	323.83	28.17	-43.4	-48.9	9.3	1.73e-02	0	60	0	996147200	58	6769
2026-01-22 10:43:59.48	323.98	28.01	-43.1	-48.0	10.3	1.16e-02	0	60	0	998244352	58	6071
2026-01-22 10:44:00.49	324.13	27.85	-42.6	-46.8	11.4	2.47e-03	0	60	0	1000341504	57	5610
2026-01-22 10:44:01.51	324.27	27.69	-42.5	-46.6	11.7	6.80e-04	0	60	0	1002438656	57	5469
2026-01-22 10:44:02.52	324.41	27.53	-42.1	-45.8	12.5	2.33e-04	0	60	0	1003487232	56	5331
2026-01-22 10:44:03.53	324.55	27.37	-41.7	-45.2	12.9	4.34e-05	0	60	0	1005584384	55	5232
2026-01-22 10:44:04.53	324.69	27.22	-41.6	-45.0	13.1	3.50e-05	0	60	0	1007681536	55	5154
2026-01-22 10:44:05.54	324.83	27.06	-41.4	-44.6	13.5	1.60e-05	0	60	0	1009778688	54	5216
2026-01-22 10:44:06.55	324.97	26.91	-41.6	-44.9	13.3	1.44e-05	0	60	0	1011875840	54	5370
2026-01-22 10:44:07.56	325.10	26.75	-41.6	-45.0	13.2	2.67e-05	0	60	0	1012924416	54	5417
2026-01-22 10:44:08.57	325.24	26.60	-41.6	-44.9	13.2	1.52e-05	0	60	0	1015021568	54	5363
2026-01-22 10:44:09.58	325.37	26.44	-41.8	-45.3	12.8	4.42e-05	0	60	0	1017118720	54	5619
2026-01-22 10:44:10.60	325.50	26.29	-42.0	-45.7	12.4	1.01e-04	0	60	0	1019215872	54	5894
2026-01-22 10:44:11.61	325.63	26.14	-42.1	-46.0	12.1	1.63e-04	0	60	0	1021313024	54	6085
2026-01-22 10:44:12.62	325.76	25.99	-42.3	-46.4	11.7	3.50e-04	0	60	0	1022361600	55	6057
2026-01-22 10:44:13.63	325.89	25.84	-42.5	-46.8	11.3	1.05e-03	0	60	0	1024458752	55	6283
2026-01-22 10:44:14.63	326.02	25.69	-42.6	-47.1	11.0	2.52e-03	0	60	0	1026555904	55	6503
2026-01-22 10:44:15.65	326.14	25.54	-42.9	-47.6	10.6	2.49e-03	0	60	0	1028653056	56	6549
2026-01-22 10:44:16.65	326.27	25.39	-42.9	-47.5	10.7	2.74e-03	0	60	0	1030750208	56	6466
2026-01-22 10:44:17.66	326.39	25.24	-42.6	-46.8	11.4	1.30e-03	0	60	0	1031798784	56	5953
2026-01-22 10:44:18.67	326.51	25.10	-42.5	-46.8	11.4	1.00e-03	0	60	0	1033895936	56	5932
2026-01-22 10:44:19.68	326.64	24.95	-42.3	-46.3	11.9	8.09e-04	0	60	0	1035993088	56	5605
2026-01-22 10:44:20.69	326.76	24.80	-42.0	-45.6	12.6	1.23e-04	0	60	0	1038090240	56	5199
2026-01-22 10:44:21.70	326.88	24.66	-42.1	-45.9	12.4	1.75e-04	0	60	0	1040187392	56	5359
2026-01-22 10:44:22.71	326.99	24.51	-41.6	-45.0	13.0	7.17e-05	0	60	0	1041235968	55	5126
2026-01-22 10:44:23.72	327.11	24.37	-41.7	-45.2	12.8	4.73e-05	0	60	0	1043333120	55	5258
2026-01-22 10:44:24.73	327.23	24.23	-41.7	-45.2	12.9	7.09e-05	0	60	0	1045430272	55	5238
2026-01-22 10:44:25.74	327.34	24.09	-41.7	-45.1	13.0	3.50e-05	0	60	0	1047527424	55	5203
2026-01-22 10:44:26.75	327.46	23.94	-41.9	-45.6	12.5	6.02e-05	0	60	0	1049624576	55	5484
2026-01-22 10:44:27.76	327.57	23.80	-41.9	-45.6	12.4	1.33e-04	0	60	0	1050673152	55	5487
2026-01-22 10:44:28.77	327.68	23.66	-42.0	-45.8	12.2	1.66e-04	0	60	0	1052770304	55	5604
2026-01-22 10:44:29.78	327.79	23.52	-42.4	-46.5	11.4	4.44e-04	0	60	0	1054867456	55	6126
2026-01-22 10:44:30.79	327.90	23.38	-42.4	-46.6	11.4	9.27e-04	0	60	0	1056964608	55	6137
2026-01-22 10:44:31.80	328.01	23.25	-42.5	-47.0	11.0	1.80e-03	0	60	0	1059061760	55	6431
2026-01-22 10:44:32.81	328.12	23.11	-42.5	-47.0	11.0	2.72e-03	0	60	0	1061158912	55	6433
2026-01-22 10:44:33.81	328.23	22.97	-42.6	-47.1	10.8	2.17e-03	0	60	0	1062207488	55	6550
2026-01-22 10:44:34.82	328.34	22.84	-42.6	-47.3	10.7	1.42e-03	0	60	0	1064304640	55	6651
2026-01-22 10:44:35.83	328.44	22.70	-42.5	-46.9	11.0	1.66e-03	0	60	0	1066401792	55	6378
2026-01-22 10:44:36.84	328.55	22.56	-42.4	-46.7	11.3	1.30e-03	0	60	0	1068498944	55	6217
2026-01-22 10:44:37.85	328.65	22.43	-42.3	-46.5	11.5	1.08e-03	0	60	0	1070596096	55	6096
2026-01-22 10:44:38.86	328.75	22.30	-42.2	-46.2	11.7	6.54e-04	0	60	0	1071644672	55	5884
2026-01-22 10:44:39.87	328.86	22.16	-41.8	-45.4	12.6	2.75e-04	0	60	0	1073741824	55	5362
2026-01-22 10:44:40.88	328.96	22.03	-41.7	-45.2	12.8	9.23e-05	0	60	0	1075838976	55	5265
2026-01-22 10:44:41.89	329.06	21.90	-41.6	-45.1	12.9	1.01e-04	0	60	0	1077936128	55	5212
2026-01-22 10:44:42.90	329.16	21.77	-41.5	-44.9	13.1	3.12e-05	0	60	0	1080033280	54	5386
2026-01-22 10:44:43.91	329.26	21.64	-41.6	-45.1	12.9	3.66e-05	0	60	0	1081081856	54	5500
2026-01-22 10:44:44.92	329.35	21.51	-41.5	-44.9	13.1	4.88e-05	0	60	0	1083179008	54	5371
2026-01-22 10:44:45.93	329.45	21.38	-41.6	-45.1	12.9	3.20e-05	0	60	0	1085276160	54	5481
2026-01-22 10:44:46.94	329.55	21.25	-41.8	-45.5	12.5	1.06e-04	0	60	0	1087373312	54	5724
2026-01-22 10:44:47.95	329.65	21.12	-41.8	-45.6	12.3	1.45e-04	0	60	0	1089470464	54	5793
2026-01-22 10:44:48.96	329.74	20.99	-42.1	-46.1	11.8	3.08e-04	0	60	0	1090519040	54	6138
2026-01-22 10:44:49.97	329.83	20.86	-42.3	-46.6	11.4	8.61e-04	0	60	0	1092616192	55	6137
2026-01-22 10:44:50.98	329.93	20.74	-42.3	-46.6	11.3	9.18e-04	0	60	0	1094713344	55	6135
2026-01-22 10:44:51.98	330.02	20.61	-42.6	-47.3	10.6	1.66e-03	0	60	0	1096810496	55	6675
2026-01-22 10:44:52.99	330.11	20.49	-42.5	-47.1	10.8	3.61e-03	0	60	0	1098907648	55	6537
2026-01-22 10:44:54.00	330.20	20.36	-42.7	-47.6	10.3	4.10e-03	0	60	0	1099956224	55	6880
2026-01-22 10:44:55.01	330.30	20.24	-42.9	-47.9	10.1	5.63e-03	0	60	0	1102053376	56	6768
2026-01-22 10:44:56.02	330.39	20.11	-42.7	-47.4	10.6	5.53e-03	0	60	0	1104150528	56	6364
2026-01-22 10:44:57.03	330.47	19.99	-42.7	-47.4	10.6	3.87e-03	0	60	0	1106247680	56	6397
2026-01-22 10:44:58.04	330.56	19.87	-42.6	-47.2	10.7	3.07e-03	0	60	0	1108344832	56	6264
2026-01-22 10:44:59.05	330.65	19.74	-42.5	-46.9	11.1	1.85e-03	0	60	0	1109393408	56	6027
2026-01-22 10:45:00.05	330.74	19.62	-42.5	-47.0	11.0	1.93e-03	0	60	0	1111490560	56	6099
2026-01-22 10:45:01.06	330.82	19.50	-42.3	-46.4	11.6	1.83e-03	0	60	0	1113587712	56	5675
2026-01-22 10:45:02.07	330.91	19.38	-42.2	-46.3	11.7	6.13e-04	0	60	0	1115684864	56	5635
2026-01-22 10:45:03.08	331.00	19.26	-42.1	-46.0	12.0	4.29e-04	0	60	0	1117782016	56	5409
2026-01-22 10:45:04.09	331.08	19.14	-41.6	-45.2	12.6	1.58e-04	0	60	0	1118830592	55	5249
2026-01-22 10:45:05.10	331.17	19.02	-41.7	-45.3	12.5	1.05e-04	0	60	0	1120927744	55	5307
2026-01-22 10:45:06.11	331.25	18.90	-41.7	-45.4	12.4	9.68e-05	0	60	0	1123024896	55	5394
2026-01-22 10:45:07.12	331.33	18.78	-41.6	-45.3	12.5	1.09e-04	0	60	0	1125122048	55	5316
2026-01-22 10:45:08.13	331.41	18.67	-41.8	-45.6	12.1	1.77e-04	0	60	0	1127219200	55	5516
2026-01-22 10:45:09.14	331.50	18.55	-41.8	-45.6	12.2	2.05e-04	0	60	0	1129316352	55	5479
2026-01-22 10:45:10.15	331.58	18.43	-41.8	-45.7	12.0	2.40e-04	0	60	0	1130364928	55	5569
2026-01-22 10:45:11.16	331.66	18.32	-41.9	-45.8	11.9	3.73e-04	0	60	0	1132462080	55	5642
2026-01-22 10:45:12.17	331.74	18.20	-41.9	-45.9	11.8	4.13e-04	0	60	0	1134559232	55	5705
2026-01-22 10:45:13.18	331.82	18.09	-42.1	-46.2	11.5	7.12e-04	0	60	0	1136656384	55	5919
2026-01-22 10:45:14.19	331.90	17.97	-42.0	-46.2	11.7	6.34e-04	0	60	0	1137704960	55	5867
2026-01-22 10:45:15.19	331.97	17.86	-42.0	-46.1	11.6	7.17e-04	0	60	0	1139802112	55	5853
2026-01-22 10:45:16.20	332.05	17.75	-42.1	-46.4	11.3	1.12e-03	0	60	0	1141899264	55	6014
2026-01-22 10:45:17.21	332.13	17.63	-42.1	-46.3	11.4	9.54e-04	0	60	0	1143996416	55	5962
2026-01-22 10:45:18.23	332.21	17.52	-42.0	-46.2	11.4	7.62e-04	0	60	0	1146093568	55	5898
2026-01-22 10:45:19.23	332.28	17.41	-42.0	-46.1	11.6	7.12e-04	0	60	0	1147142144	55	5800
2026-01-22 10:45:20.24	332.36	17.30	-41.9	-45.9	11.8	6.95e-04	0	60	0	1149239296	55	5679
2026-01-22 10:45:21.25	332.43	17.18	-41.8	-45.7	12.0	4.81e-04	0	60	0	1151336448	55	5576
2026-01-22 10:45:22.26	332.51	17.07	-41.8	-45.8	11.9	4.21e-04	0	60	0	1153433600	55	5605
2026-01-22 10:45:23.27	332.58	16.96	-41.7	-45.5	12.1	2.88e-04	0	60	0	1155530752	55	5464
2026-01-22 10:45:24.28	332.65	16.85	-41.6	-45.4	12.3	2.01e-04	0	60	0	1157627904	55	5351
2026-01-22 10:45:25.29	332.73	16.74	-41.5	-45.2	12.5	1.46e-04	0	60	0	1158676480	55	5251
2026-01-22 10:45:26.30	332.80	16.63	-41.4	-44.9	12.7	9.68e-05	0	60	0	1160773632	54	5401
2026-01-22 10:45:27.31	332.87	16.53	-41.3	-44.9	12.8	6.33e-05	0	60	0	1162870784	54	5345
2026-01-22 10:45:28.32	332.94	16.42	-41.3	-44.7	12.9	7.32e-05	0	60	0	1164967936	54	5265
2026-01-22 10:45:29.33	333.01	16.31	-41.3	-44.8	12.8	5.26e-05	0	60	0	1167065088	54	5291
2026-01-22 10:45:30.34	333.08	16.20	-41.3	-44.8	12.8	5.79e-05	0	60	0	1168113664	54	5311
2026-01-22 10:45:31.35	333.16	16.10	-41.2	-44.7	13.0	5.03e-05	0	60	0	1170210816	54	5235
2026-01-22 10:45:32.36	333.22	15.99	-41.2	-44.7	13.0	3.81e-05	0	60	0	1172307968	54	5235
2026-01-22 10:45:33.37	333.29	15.88	-41.2	-44.6	13.0	2.97e-05	0	60	0	1174405120	54	5185
2026-01-22 10:45:34.38	333.36	15.78	-41.2	-44.6	13.0	4.04e-05	0	60	0	1176502272	54	5164
2026-01-22 10:45:35.39	333.43	15.67	-41.1	-44.5	13.2	2.97e-05	0	60	0	1177550848	54	5103
2026-01-22 10:45:36.40	333.50	15.57	-41.2	-44.6	13.0	4.19e-05	0	60	0	1179648000	54	5191
2026-01-22 10:45:37.41	333.57	15.46	-41.3	-44.8	12.8	4.50e-05	0	60	0	1181745152	54	5293
2026-01-22 10:45:38.42	333.63	15.36	-41.3	-44.9	12.7	5.95e-05	0	60	0	1183842304	54	5370
2026-01-22 10:45:39.43	333.70	15.26	-41.3	-45.0	12.6	9.46e-05	0	60	0	1185939456	54	5403
2026-01-22 10:45:40.44	333.77	15.15	-41.4	-45.1	12.5	1.19e-04	0	60	0	1186988032	54	5465
2026-01-22 10:45:41.45	333.83	15.05	-41.4	-45.1	12.4	1.25e-04	0	60	0	1189085184	54	5523
2026-01-22 10:45:42.46	333.90	14.95	-41.5	-45.3	12.1	1.84e-04	0	60	0	1191182336	54	5652
2026-01-22 10:45:43.47	333.96	14.85	-41.6	-45.6	11.9	3.50e-04	0	60	0	1193279488	54	5801
2026-01-22 10:45:44.47	334.03	14.75	-41.7	-45.7	11.7	5.60e-04	0	60	0	1195376640	54	5907
2026-01-22 10:45:45.48	334.09	14.65	-41.8	-45.9	11.5	7.61e-04	0	60	0	1196425216	54	6056
2026-01-22 10:45:46.49	334.15	14.55	-41.9	-46.3	11.1	1.00e-03	0	60	0	1198522368	54	6330
