passes_logs/2026/01/22/R2.0S_Moscow/R2.0S_Moscow__20260122_145552_FENGYUN_3E_rec.log

#Pass ID: 20260122_145552_FENGYUN 3E
#Satellite: FENGYUN 3E
#Configuration: FENGYUN 3E
#almurnet v.1.7.20251203
#Start time: 2026-01-22 14:55:53

#Version: 2.2.20231116
#Station: R2.0S_Moscow
#Location: 37.707566 lon 55.798166 lat
#TLE: 1 49008U 21062A   26021.55921410  .00000414  00000+0  21575-3 0  9991
#TLE: 2 49008  98.7483  26.6103 0002287 125.5068 234.6322 14.19887394235776

#Time	Az	El	Level	Level2	SNR	BER	BlckErr	Temp	State	Recorded	gain1	gain2
2026-01-22 14:55:53.39	182.12	2.05	-44.5	-55.6	3.8	8.46e-01	0	53	0	0	59	13003
2026-01-22 14:55:54.40	182.15	2.11	-44.5	-55.6	3.8	8.47e-01	0	53	104	0	59	13028
2026-01-22 14:55:55.41	182.19	2.17	-44.5	-55.6	3.8	8.47e-01	0	53	104	0	59	12969
2026-01-22 14:55:56.42	182.22	2.24	-44.5	-55.6	3.8	8.46e-01	0	53	104	0	59	12999
2026-01-22 14:55:57.43	182.26	2.30	-44.5	-55.6	3.8	8.46e-01	0	53	104	0	59	12976
2026-01-22 14:55:58.44	182.30	2.36	-44.5	-55.6	3.8	8.46e-01	0	53	104	0	59	13048
2026-01-22 14:55:59.45	182.33	2.43	-44.5	-55.6	3.8	8.47e-01	0	53	104	0	59	13012
2026-01-22 14:56:00.46	182.37	2.49	-44.5	-55.5	3.8	8.45e-01	0	53	104	0	59	12932
2026-01-22 14:56:01.47	182.41	2.56	-44.5	-55.6	3.8	8.45e-01	0	53	104	0	59	12977
2026-01-22 14:56:02.48	182.44	2.62	-44.5	-55.6	3.8	8.45e-01	0	53	104	0	59	12962
2026-01-22 14:56:03.49	182.48	2.68	-44.5	-55.6	3.8	8.46e-01	0	53	104	0	59	12964
2026-01-22 14:56:04.50	182.52	2.75	-44.5	-55.6	3.8	8.46e-01	0	54	104	0	59	12971
2026-01-22 14:56:05.51	182.56	2.81	-44.5	-55.5	3.8	8.46e-01	0	54	104	0	59	12958
2026-01-22 14:56:06.52	182.59	2.88	-44.5	-55.5	3.8	8.46e-01	0	54	104	0	59	12941
2026-01-22 14:56:07.53	182.63	2.94	-44.5	-55.6	3.8	8.46e-01	0	54	104	0	59	12982
2026-01-22 14:56:08.54	182.67	3.01	-44.5	-55.5	3.8	8.47e-01	0	54	104	0	59	12958
2026-01-22 14:56:09.55	182.71	3.07	-44.5	-55.5	3.8	8.45e-01	0	54	104	0	59	12946
2026-01-22 14:56:10.57	182.75	3.14	-44.5	-55.6	3.8	8.46e-01	0	54	104	0	59	12961
2026-01-22 14:56:11.58	182.78	3.20	-44.5	-55.5	3.8	8.46e-01	0	54	104	0	59	12922
2026-01-22 14:56:12.59	182.82	3.27	-44.5	-55.5	3.8	8.48e-01	0	54	104	0	59	12949
2026-01-22 14:56:13.59	182.86	3.33	-44.5	-55.6	3.8	8.46e-01	0	54	104	0	59	12988
2026-01-22 14:56:14.61	182.90	3.40	-44.5	-55.6	3.8	8.46e-01	0	54	104	0	59	12964
2026-01-22 14:56:15.62	182.94	3.47	-44.5	-55.6	3.8	8.48e-01	0	54	104	0	59	12966
2026-01-22 14:56:16.63	182.98	3.53	-44.5	-55.5	3.8	8.47e-01	0	54	104	0	59	12949
2026-01-22 14:56:17.64	183.02	3.60	-44.5	-55.6	3.8	8.47e-01	0	54	104	0	59	12961
2026-01-22 14:56:18.65	183.06	3.67	-44.5	-55.6	3.8	8.47e-01	0	54	104	0	59	12982
2026-01-22 14:56:19.66	183.10	3.73	-44.5	-55.6	3.8	8.46e-01	0	54	104	0	59	13022
2026-01-22 14:56:20.67	183.14	3.80	-44.5	-55.6	3.8	8.46e-01	0	55	104	0	59	12969
2026-01-22 14:56:21.68	183.18	3.87	-44.5	-55.6	3.8	8.46e-01	0	55	104	0	59	12968
2026-01-22 14:56:22.69	183.22	3.93	-44.5	-55.5	3.8	8.47e-01	0	55	104	0	59	12952
2026-01-22 14:56:23.70	183.26	4.00	-44.5	-55.5	3.8	8.45e-01	0	55	104	0	59	12954
2026-01-22 14:56:24.71	183.30	4.07	-44.5	-55.6	3.8	8.46e-01	0	55	104	0	59	12960
2026-01-22 14:56:25.72	183.34	4.13	-44.5	-55.5	3.8	8.47e-01	0	55	104	0	59	12940
2026-01-22 14:56:26.73	183.38	4.20	-44.5	-55.5	3.8	8.48e-01	0	55	104	0	59	12941
2026-01-22 14:56:27.74	183.42	4.27	-44.5	-55.5	3.8	8.46e-01	0	55	104	0	59	12933
2026-01-22 14:56:28.75	183.46	4.34	-44.5	-55.5	3.8	8.47e-01	0	55	104	0	59	12918
2026-01-22 14:56:29.76	183.50	4.41	-44.5	-55.5	3.8	8.46e-01	0	55	104	0	59	12866
2026-01-22 14:56:30.77	183.54	4.47	-44.5	-55.5	3.8	8.45e-01	0	55	104	0	59	12827
2026-01-22 14:56:31.78	183.59	4.54	-44.5	-55.3	3.8	8.47e-01	0	55	104	0	59	12624
2026-01-22 14:56:32.79	183.63	4.61	-44.5	-55.2	3.8	8.47e-01	0	55	104	0	59	12403
2026-01-22 14:56:33.80	183.67	4.68	-44.4	-55.0	3.8	8.48e-01	0	55	104	0	59	12101
2026-01-22 14:56:34.81	183.71	4.75	-44.4	-54.8	3.8	8.45e-01	0	55	104	0	59	11910
2026-01-22 14:56:35.82	183.75	4.82	-44.4	-54.7	3.8	8.45e-01	0	55	104	0	59	11763
2026-01-22 14:56:36.83	183.80	4.89	-44.4	-54.6	3.8	8.45e-01	0	55	104	0	59	11659
2026-01-22 14:56:37.84	183.84	4.96	-44.4	-54.4	3.8	8.45e-01	0	56	104	0	59	11362
2026-01-22 14:56:38.85	183.88	5.03	-44.3	-54.2	3.8	8.46e-01	0	55	104	0	59	11143
2026-01-22 14:56:39.86	183.93	5.10	-44.3	-53.9	3.8	8.46e-01	0	56	104	0	59	10717
2026-01-22 14:56:40.87	183.97	5.17	-44.2	-53.6	3.8	8.45e-01	0	56	104	0	59	10328
2026-01-22 14:56:41.89	184.01	5.24	-44.2	-53.0	4.0	8.45e-01	0	56	104	0	59	9716
2026-01-22 14:56:42.90	184.06	5.31	-44.1	-52.6	4.0	8.43e-01	0	56	104	0	59	9260
2026-01-22 14:56:43.91	184.10	5.38	-44.0	-52.0	4.2	8.40e-01	0	56	0	0	59	8661
2026-01-22 14:56:44.92	184.15	5.45	-43.9	-51.5	4.3	8.32e-01	0	56	0	0	58	8571
2026-01-22 14:56:45.93	184.19	5.52	-43.7	-50.9	4.6	8.19e-01	0	56	0	0	58	8013
2026-01-22 14:56:46.94	184.24	5.59	-43.6	-50.4	4.8	8.03e-01	0	56	0	0	58	7590
2026-01-22 14:56:47.95	184.28	5.66	-43.4	-49.7	5.1	7.60e-01	0	56	0	0	57	7446
2026-01-22 14:56:48.96	184.33	5.73	-43.2	-49.2	5.4	7.30e-01	0	56	0	0	57	7025
2026-01-22 14:56:49.97	184.37	5.81	-43.1	-48.8	5.8	6.06e-01	0	56	0	0	57	6650
2026-01-22 14:56:50.98	184.42	5.88	-42.9	-48.3	6.1	3.33e-01	0	56	0	7340032	56	6692
2026-01-22 14:56:51.99	184.46	5.95	-42.7	-47.8	6.5	2.67e-01	0	56	0	14680064	56	6292
2026-01-22 14:56:53.00	184.51	6.02	-42.7	-47.7	6.5	2.24e-01	0	56	0	22020096	56	6273
2026-01-22 14:56:54.02	184.55	6.09	-42.6	-47.4	6.9	1.73e-01	0	56	0	29360128	56	6017
2026-01-22 14:56:55.03	184.60	6.17	-42.5	-47.3	6.9	1.63e-01	0	56	0	36700160	56	5974
2026-01-22 14:56:56.04	184.65	6.24	-42.3	-47.1	7.0	1.50e-01	0	57	0	44040192	55	6168
2026-01-22 14:56:57.05	184.69	6.31	-42.3	-47.0	7.0	1.43e-01	0	57	0	51380224	55	6121
2026-01-22 14:56:58.06	184.74	6.39	-42.3	-47.2	6.9	1.54e-01	0	57	0	58720256	55	6213
2026-01-22 14:56:59.07	184.79	6.46	-42.4	-47.2	6.9	1.60e-01	0	56	0	66060288	55	6228
2026-01-22 14:57:00.08	184.84	6.53	-42.4	-47.2	6.9	1.65e-01	0	57	0	72351744	55	6216
2026-01-22 14:57:01.09	184.88	6.61	-42.4	-47.3	6.7	1.82e-01	0	57	0	80740352	55	6343
2026-01-22 14:57:02.10	184.93	6.68	-42.4	-47.2	6.9	1.70e-01	0	57	0	88080384	55	6239
2026-01-22 14:57:03.11	184.98	6.75	-42.3	-46.9	7.2	1.40e-01	0	57	0	94371840	55	6030
2026-01-22 14:57:04.12	185.03	6.83	-42.2	-46.7	7.3	1.27e-01	0	57	0	101711872	55	5909
2026-01-22 14:57:05.13	185.08	6.90	-42.0	-46.3	7.7	9.06e-02	0	57	0	109051904	55	5649
2026-01-22 14:57:06.15	185.13	6.98	-41.8	-45.9	8.1	6.16e-02	0	57	0	116391936	54	5704
2026-01-22 14:57:07.16	185.18	7.05	-41.5	-45.2	8.8	3.07e-02	0	57	0	123731968	54	5252
2026-01-22 14:57:08.17	185.22	7.13	-41.1	-44.5	9.6	1.23e-02	0	57	0	131072000	53	5104
2026-01-22 14:57:09.18	185.27	7.20	-40.7	-43.8	10.3	6.94e-03	0	57	0	138412032	52	5009
2026-01-22 14:57:10.19	185.32	7.28	-40.3	-43.2	11.0	2.06e-03	0	57	0	145752064	51	4945
2026-01-22 14:57:11.20	185.37	7.35	-39.9	-42.6	11.6	1.01e-03	0	57	0	153092096	50	4925
2026-01-22 14:57:12.21	185.42	7.43	-39.6	-42.2	12.0	3.40e-04	0	57	0	160432128	50	4691
2026-01-22 14:57:13.22	185.47	7.51	-39.2	-41.6	12.6	1.35e-04	0	57	0	167772160	49	4626
2026-01-22 14:57:14.23	185.53	7.58	-39.0	-41.4	12.8	7.32e-05	0	57	0	175112192	49	4533
2026-01-22 14:57:15.24	185.58	7.66	-38.7	-41.0	13.2	1.83e-05	0	57	0	182452224	48	4572
2026-01-22 14:57:16.25	185.63	7.74	-38.6	-40.9	13.3	1.48e-05	0	57	0	189792256	48	4525
2026-01-22 14:57:17.26	185.68	7.81	-38.3	-40.5	13.5	5.70e-06	0	58	0	197132288	47	4594
2026-01-22 14:57:18.28	185.73	7.89	-38.6	-40.9	13.2	4.50e-06	0	57	0	204472320	47	4779
2026-01-22 14:57:19.29	185.78	7.97	-38.5	-40.8	13.3	1.71e-05	0	58	0	211812352	47	4707
2026-01-22 14:57:20.30	185.84	8.04	-38.6	-40.9	13.2	2.05e-05	0	58	0	219152384	47	4770
2026-01-22 14:57:21.31	185.89	8.12	-38.5	-40.7	13.4	8.00e-06	0	57	0	226492416	47	4703
2026-01-22 14:57:22.32	185.94	8.20	-39.2	-41.6	12.7	8.28e-04	0	58	0	233832448	49	4617
2026-01-22 14:57:23.33	185.99	8.28	-42.8	-48.3	5.9	6.74e-01	0	58	0	239075328	55	7076
2026-01-22 14:57:24.34	186.05	8.36	-41.0	-44.3	9.6	8.17e-01	0	58	0	243269632	53	5033
2026-01-22 14:57:25.35	186.10	8.44	-40.3	-43.1	11.3	4.75e-03	0	58	0	250609664	51	4908
2026-01-22 14:57:26.36	186.16	8.52	-38.5	-40.7	13.6	6.80e-06	0	58	0	257949696	48	4440
2026-01-22 14:57:27.37	186.21	8.59	-38.6	-40.8	13.5	9.10e-06	0	58	0	265289728	48	4483
2026-01-22 14:57:28.38	186.26	8.67	-38.5	-40.8	13.6	1.02e-05	0	58	0	272629760	48	4448
2026-01-22 14:57:29.39	186.32	8.75	-38.4	-40.7	13.5	8.00e-06	0	58	0	279969792	47	4679
2026-01-22 14:57:30.40	186.37	8.83	-38.4	-40.7	13.5	1.37e-05	0	58	0	287309824	47	4694
2026-01-22 14:57:31.41	186.43	8.91	-38.3	-40.5	13.6	8.00e-06	0	58	0	294649856	47	4593
2026-01-22 14:57:32.41	186.48	8.99	-38.3	-40.6	13.6	5.70e-06	0	58	0	301989888	47	4609
2026-01-22 14:57:33.42	186.54	9.07	-38.3	-40.6	13.7	4.50e-06	0	58	0	309329920	47	4608
2026-01-22 14:57:34.43	186.60	9.15	-38.2	-40.4	13.8	3.40e-06	0	58	0	316669952	47	4496
2026-01-22 14:57:35.44	186.65	9.24	-38.2	-40.4	13.8	5.70e-06	0	58	0	324009984	47	4528
2026-01-22 14:57:36.45	186.71	9.32	-38.2	-40.4	13.8	8.00e-06	0	58	0	331350016	47	4531
2026-01-22 14:57:37.46	186.77	9.40	-38.2	-40.5	13.8	1.10e-06	0	58	0	338690048	47	4546
2026-01-22 14:57:38.47	186.82	9.48	-38.1	-40.2	14.0	2.20e-06	0	58	0	344981504	47	4434
2026-01-22 14:57:39.48	186.88	9.56	-37.9	-40.1	14.2	6.80e-06	0	58	0	352321536	46	4603
2026-01-22 14:57:40.49	186.94	9.64	-38.1	-40.3	13.9	1.10e-06	0	58	0	360710144	46	4754
2026-01-22 14:57:41.50	187.00	9.73	-37.9	-40.1	14.1	6.80e-06	0	58	0	367001600	46	4617
2026-01-22 14:57:42.51	187.06	9.81	-38.0	-40.1	14.2	2.20e-06	0	58	0	374341632	46	4618
2026-01-22 14:57:43.52	187.12	9.89	-37.9	-40.0	14.3	2.20e-06	0	58	0	381681664	46	4578
2026-01-22 14:57:44.53	187.18	9.98	-37.8	-39.9	14.4	1.10e-06	0	58	0	389021696	46	4504
2026-01-22 14:57:45.54	187.24	10.06	-37.9	-40.0	14.3	1.10e-06	0	59	0	396361728	46	4578
2026-01-22 14:57:46.55	187.29	10.14	-37.9	-40.0	14.3	1.10e-06	0	59	0	403701760	46	4564
2026-01-22 14:57:47.56	187.36	10.23	-37.9	-40.0	14.3	2.20e-06	0	58	0	411041792	46	4547
2026-01-22 14:57:48.57	187.42	10.31	-37.9	-40.0	14.3	0.00e+00	0	58	0	418381824	46	4562
2026-01-22 14:57:49.58	187.48	10.40	-37.8	-39.9	14.3	0.00e+00	0	58	0	425721856	46	4531
2026-01-22 14:57:50.59	187.54	10.48	-37.8	-39.9	14.4	1.10e-06	0	59	0	433061888	46	4536
2026-01-22 14:57:51.60	187.60	10.57	-37.7	-39.8	14.5	1.10e-06	0	58	0	440401920	46	4467
2026-01-22 14:57:52.61	187.66	10.65	-37.7	-39.8	14.5	1.10e-06	0	58	0	447741952	46	4451
2026-01-22 14:57:53.62	187.72	10.74	-37.7	-39.8	14.5	0.00e+00	0	59	0	455081984	46	4457
2026-01-22 14:57:54.63	187.79	10.82	-37.8	-39.9	14.4	1.10e-06	0	59	0	462422016	46	4530
2026-01-22 14:57:55.64	187.85	10.91	-37.9	-40.0	14.3	1.10e-06	0	59	0	469762048	46	4558
2026-01-22 14:57:56.65	187.91	11.00	-37.7	-39.7	14.6	0.00e+00	0	59	0	477102080	46	4435
2026-01-22 14:57:57.66	187.98	11.08	-37.7	-39.7	14.6	0.00e+00	0	59	0	484442112	46	4428
2026-01-22 14:57:58.66	188.04	11.17	-37.6	-39.7	14.6	1.10e-06	0	59	0	490733568	46	4405
2026-01-22 14:57:59.67	188.10	11.26	-37.6	-39.6	14.7	0.00e+00	0	59	0	498073600	46	4368
2026-01-22 14:58:00.68	188.17	11.34	-37.5	-39.6	14.7	0.00e+00	0	59	0	505413632	45	4606
2026-01-22 14:58:01.69	188.23	11.43	-37.6	-39.6	14.7	0.00e+00	0	59	0	512753664	45	4627
2026-01-22 14:58:02.70	188.30	11.52	-37.5	-39.6	14.8	0.00e+00	0	59	0	520093696	45	4613
2026-01-22 14:58:03.72	188.37	11.61	-37.5	-39.6	14.8	0.00e+00	0	59	0	527433728	45	4603
2026-01-22 14:58:04.73	188.43	11.70	-37.4	-39.5	14.9	0.00e+00	0	59	0	534773760	45	4559
2026-01-22 14:58:05.74	188.50	11.79	-37.5	-39.5	14.9	0.00e+00	0	59	0	542113792	45	4566
2026-01-22 14:58:06.75	188.57	11.88	-37.4	-39.5	14.9	0.00e+00	0	59	0	549453824	45	4561
2026-01-22 14:58:07.76	188.63	11.97	-37.4	-39.5	14.9	0.00e+00	0	59	0	556793856	45	4552
2026-01-22 14:58:08.77	188.70	12.06	-37.4	-39.4	14.9	0.00e+00	0	59	0	564133888	45	4544
2026-01-22 14:58:09.78	188.77	12.15	-37.3	-39.4	15.0	0.00e+00	0	59	0	571473920	45	4494
2026-01-22 14:58:10.79	188.84	12.24	-37.4	-39.4	15.0	0.00e+00	0	59	0	578813952	45	4539
2026-01-22 14:58:11.80	188.91	12.33	-37.4	-39.4	15.0	0.00e+00	0	59	0	586153984	45	4520
2026-01-22 14:58:12.81	188.98	12.42	-37.4	-39.4	15.0	0.00e+00	0	59	0	593494016	45	4518
2026-01-22 14:58:13.81	189.05	12.51	-37.4	-39.5	14.9	0.00e+00	0	59	0	600834048	45	4558
2026-01-22 14:58:14.82	189.12	12.60	-37.3	-39.4	15.0	0.00e+00	0	59	0	608174080	45	4498
2026-01-22 14:58:15.83	189.19	12.69	-37.3	-39.3	15.1	0.00e+00	0	59	0	615514112	45	4480
2026-01-22 14:58:16.84	189.26	12.78	-37.5	-39.5	14.9	0.00e+00	0	59	0	622854144	45	4577
2026-01-22 14:58:17.85	189.33	12.88	-37.3	-39.4	15.0	0.00e+00	0	59	0	630194176	45	4503
2026-01-22 14:58:18.86	189.40	12.97	-37.3	-39.4	15.0	0.00e+00	0	59	0	637534208	45	4508
2026-01-22 14:58:19.87	189.47	13.06	-37.3	-39.3	15.1	0.00e+00	0	59	0	643825664	45	4484
2026-01-22 14:58:20.88	189.55	13.16	-37.3	-39.3	15.1	1.10e-06	0	59	0	651165696	45	4481
2026-01-22 14:58:21.89	189.62	13.25	-37.4	-39.5	14.9	0.00e+00	0	59	0	659554304	45	4567
2026-01-22 14:58:22.90	189.69	13.35	-37.4	-39.5	15.0	0.00e+00	0	59	0	665845760	45	4546
2026-01-22 14:58:23.91	189.77	13.44	-37.4	-39.5	15.0	0.00e+00	0	59	0	673185792	45	4546
2026-01-22 14:58:24.92	189.84	13.54	-37.3	-39.4	15.1	0.00e+00	0	59	0	680525824	45	4510
2026-01-22 14:58:25.93	189.92	13.63	-37.2	-39.2	15.2	0.00e+00	0	60	0	687865856	45	4441
2026-01-22 14:58:26.94	189.99	13.73	-37.2	-39.2	15.2	0.00e+00	0	59	0	695205888	44	4685
2026-01-22 14:58:27.95	190.07	13.82	-37.2	-39.2	15.2	0.00e+00	0	59	0	702545920	44	4704
2026-01-22 14:58:28.96	190.15	13.92	-37.2	-39.3	15.2	0.00e+00	0	60	0	709885952	44	4712
2026-01-22 14:58:29.97	190.22	14.01	-37.2	-39.3	15.2	0.00e+00	0	60	0	717225984	44	4719
2026-01-22 14:58:30.98	190.30	14.11	-37.1	-39.1	15.3	0.00e+00	0	59	0	724566016	44	4646
2026-01-22 14:58:31.98	190.38	14.21	-37.3	-39.3	15.1	0.00e+00	0	60	0	731906048	44	4749
2026-01-22 14:58:32.99	190.46	14.31	-37.4	-39.4	15.0	0.00e+00	0	60	0	739246080	44	4813
2026-01-22 14:58:34.00	190.53	14.40	-37.0	-38.9	15.5	0.00e+00	0	60	0	746586112	44	4543
2026-01-22 14:58:35.01	190.61	14.50	-37.0	-39.0	15.5	0.00e+00	0	60	0	753926144	44	4567
2026-01-22 14:58:36.02	190.69	14.60	-37.1	-39.0	15.4	0.00e+00	0	60	0	761266176	44	4593
2026-01-22 14:58:37.03	190.77	14.70	-37.3	-39.3	15.2	0.00e+00	0	60	0	768606208	44	4737
2026-01-22 14:58:38.04	190.86	14.80	-36.9	-38.8	15.7	0.00e+00	0	60	0	775946240	44	4480
2026-01-22 14:58:39.05	190.94	14.90	-36.8	-38.8	15.7	0.00e+00	0	60	0	783286272	44	4455
2026-01-22 14:58:40.06	191.02	15.00	-36.9	-38.8	15.7	0.00e+00	0	60	0	790626304	44	4457
2026-01-22 14:58:41.08	191.10	15.10	-36.7	-38.5	15.9	0.00e+00	0	60	0	796917760	44	4338
2026-01-22 14:58:42.09	191.18	15.20	-36.6	-38.5	16.0	0.00e+00	0	60	0	804257792	44	4306
2026-01-22 14:58:43.09	191.27	15.30	-36.6	-38.5	15.9	0.00e+00	0	60	0	812646400	43	4568
2026-01-22 14:58:44.10	191.35	15.40	-36.6	-38.5	15.8	0.00e+00	0	60	0	818937856	43	4585
2026-01-22 14:58:45.11	191.44	15.50	-36.6	-38.5	15.9	0.00e+00	0	60	0	826277888	43	4552
2026-01-22 14:58:46.12	191.52	15.61	-36.5	-38.3	16.0	0.00e+00	0	60	0	833617920	43	4492
2026-01-22 14:58:47.13	191.61	15.71	-36.5	-38.4	16.0	0.00e+00	0	60	0	840957952	43	4506
2026-01-22 14:58:48.14	191.69	15.81	-36.4	-38.3	16.1	0.00e+00	0	60	0	848297984	43	4469
2026-01-22 14:58:49.15	191.78	15.92	-36.5	-38.4	16.0	0.00e+00	0	60	0	855638016	43	4503
2026-01-22 14:58:50.16	191.87	16.02	-36.4	-38.3	16.1	0.00e+00	0	60	0	862978048	43	4442
2026-01-22 14:58:51.17	191.96	16.12	-36.3	-38.2	16.2	0.00e+00	0	60	0	870318080	43	4402
2026-01-22 14:58:52.19	192.05	16.23	-36.4	-38.2	16.2	0.00e+00	0	60	0	877658112	43	4420
2026-01-22 14:58:53.20	192.14	16.33	-36.3	-38.1	16.3	0.00e+00	0	60	0	884998144	43	4373
2026-01-22 14:58:54.21	192.23	16.44	-36.3	-38.2	16.2	0.00e+00	0	60	0	892338176	43	4395
2026-01-22 14:58:55.22	192.32	16.55	-36.3	-38.2	16.3	0.00e+00	0	60	0	899678208	43	4408
2026-01-22 14:58:56.23	192.41	16.65	-36.3	-38.2	16.2	0.00e+00	0	60	0	907018240	43	4396
2026-01-22 14:58:57.24	192.50	16.76	-36.3	-38.1	16.3	0.00e+00	0	60	0	914358272	43	4364
2026-01-22 14:58:58.25	192.59	16.87	-36.3	-38.1	16.3	0.00e+00	0	60	0	921698304	43	4357
2026-01-22 14:58:59.26	192.68	16.97	-36.2	-38.0	16.4	0.00e+00	0	60	0	929038336	43	4321
2026-01-22 14:59:00.26	192.78	17.08	-36.2	-38.0	16.5	0.00e+00	0	60	0	936378368	43	4294
2026-01-22 14:59:01.28	192.87	17.19	-36.2	-38.0	16.4	0.00e+00	0	60	0	942669824	43	4328
2026-01-22 14:59:02.28	192.97	17.30	-36.1	-37.9	16.5	0.00e+00	0	60	0	950009856	43	4276
2026-01-22 14:59:03.29	193.06	17.40	-36.2	-38.0	16.4	0.00e+00	0	60	0	958398464	42	4550
2026-01-22 14:59:04.30	193.16	17.51	-36.2	-38.0	16.5	0.00e+00	0	60	0	964689920	42	4550
2026-01-22 14:59:05.31	193.26	17.62	-36.1	-37.9	16.6	0.00e+00	0	60	0	972029952	42	4505
2026-01-22 14:59:06.33	193.35	17.74	-36.1	-37.8	16.6	0.00e+00	0	60	0	979369984	42	4489
2026-01-22 14:59:07.34	193.45	17.85	-36.2	-38.0	16.5	0.00e+00	0	60	0	986710016	42	4572
2026-01-22 14:59:08.35	193.55	17.96	-36.4	-38.2	16.2	0.00e+00	0	60	0	994050048	42	4688
2026-01-22 14:59:09.36	193.65	18.07	-36.1	-37.9	16.6	0.00e+00	0	60	0	1001390080	42	4516
2026-01-22 14:59:10.37	193.75	18.18	-36.1	-37.9	16.6	0.00e+00	0	60	0	1008730112	42	4501
2026-01-22 14:59:11.38	193.85	18.29	-36.0	-37.7	16.8	0.00e+00	0	60	0	1016070144	42	4411
2026-01-22 14:59:12.39	193.95	18.41	-36.0	-37.7	16.7	0.00e+00	0	60	0	1023410176	42	4422
2026-01-22 14:59:13.40	194.06	18.52	-35.9	-37.6	16.8	0.00e+00	0	60	0	1030750208	42	4385
2026-01-22 14:59:14.41	194.16	18.63	-35.9	-37.6	16.8	0.00e+00	0	60	0	1038090240	42	4365
2026-01-22 14:59:15.42	194.26	18.75	-35.9	-37.6	16.8	0.00e+00	0	60	0	1045430272	42	4360
2026-01-22 14:59:16.43	194.37	18.86	-35.9	-37.6	16.8	0.00e+00	0	60	0	1052770304	42	4382
2026-01-22 14:59:17.44	194.47	18.98	-36.0	-37.8	16.7	0.00e+00	0	60	0	1060110336	42	4445
2026-01-22 14:59:18.44	194.58	19.09	-36.1	-37.8	16.6	0.00e+00	0	60	0	1067450368	42	4474
2026-01-22 14:59:19.45	194.69	19.21	-35.9	-37.6	16.8	0.00e+00	0	60	0	1074790400	42	4380
2026-01-22 14:59:20.46	194.80	19.32	-36.1	-37.8	16.6	0.00e+00	0	60	0	1082130432	42	4490
2026-01-22 14:59:21.47	194.90	19.44	-35.8	-37.6	16.9	0.00e+00	0	60	0	1089470464	42	4347
2026-01-22 14:59:22.48	195.01	19.56	-35.8	-37.5	16.9	0.00e+00	0	60	0	1095761920	42	4327
2026-01-22 14:59:23.49	195.12	19.67	-35.8	-37.5	16.9	0.00e+00	0	60	0	1104150528	42	4330
2026-01-22 14:59:24.50	195.24	19.79	-35.9	-37.6	16.8	0.00e+00	0	61	0	1111490560	42	4391
2026-01-22 14:59:25.51	195.35	19.91	-35.8	-37.5	16.9	0.00e+00	0	60	0	1117782016	42	4340
2026-01-22 14:59:26.52	195.46	20.03	-35.7	-37.5	16.9	0.00e+00	0	60	0	1125122048	42	4309
2026-01-22 14:59:27.53	195.57	20.15	-35.8	-37.6	16.9	0.00e+00	0	60	0	1132462080	42	4342
2026-01-22 14:59:28.54	195.69	20.27	-35.8	-37.6	16.8	0.00e+00	0	61	0	1139802112	42	4365
2026-01-22 14:59:29.55	195.80	20.39	-35.6	-37.3	17.1	0.00e+00	0	60	0	1147142144	42	4215
2026-01-22 14:59:30.56	195.92	20.51	-35.9	-37.7	16.7	0.00e+00	0	60	0	1154482176	42	4412
2026-01-22 14:59:31.57	196.04	20.63	-35.9	-37.8	16.6	0.00e+00	0	61	0	1161822208	42	4462
2026-01-22 14:59:32.58	196.16	20.75	-35.9	-37.8	16.6	0.00e+00	0	61	0	1169162240	42	4448
2026-01-22 14:59:33.59	196.27	20.88	-35.8	-37.7	16.8	0.00e+00	0	61	0	1176502272	42	4402
2026-01-22 14:59:34.60	196.39	21.00	-35.6	-37.4	16.9	0.00e+00	0	60	0	1183842304	42	4284
2026-01-22 14:59:35.61	196.52	21.12	-35.7	-37.5	16.9	0.00e+00	0	60	0	1191182336	42	4296
2026-01-22 14:59:36.61	196.64	21.24	-35.7	-37.5	17.0	0.00e+00	0	61	0	1198522368	42	4295
2026-01-22 14:59:37.62	196.76	21.37	-35.7	-37.5	16.9	0.00e+00	0	61	0	1205862400	42	4292
2026-01-22 14:59:38.63	196.88	21.49	-35.6	-37.4	17.0	0.00e+00	0	60	0	1213202432	42	4283
2026-01-22 14:59:39.64	197.01	21.62	-35.6	-37.3	17.1	0.00e+00	0	60	0	1220542464	41	4485
2026-01-22 14:59:40.65	197.13	21.74	-35.6	-37.4	17.0	0.00e+00	0	61	0	1227882496	41	4525
2026-01-22 14:59:41.66	197.26	21.87	-35.5	-37.3	17.1	0.00e+00	0	61	0	1235222528	41	4453
2026-01-22 14:59:42.67	197.39	22.00	-35.4	-37.2	17.3	0.00e+00	0	61	0	1241513984	41	4394
2026-01-22 14:59:43.68	197.52	22.12	-35.4	-37.1	17.3	0.00e+00	0	61	0	1248854016	41	4362
2026-01-22 14:59:44.69	197.65	22.25	-35.4	-37.2	17.2	0.00e+00	0	61	0	1257242624	41	4419
2026-01-22 14:59:45.70	197.78	22.38	-35.2	-36.9	17.5	0.00e+00	0	61	0	1263534080	41	4281
2026-01-22 14:59:46.71	197.91	22.51	-35.3	-37.1	17.4	0.00e+00	0	61	0	1270874112	41	4345
2026-01-22 14:59:47.72	198.04	22.64	-35.3	-37.0	17.4	0.00e+00	0	61	0	1278214144	41	4305
2026-01-22 14:59:48.73	198.18	22.77	-35.2	-36.9	17.5	0.00e+00	0	61	0	1285554176	41	4282
2026-01-22 14:59:49.74	198.31	22.90	-35.2	-36.9	17.5	0.00e+00	0	61	0	1292894208	41	4289
2026-01-22 14:59:50.75	198.45	23.03	-35.1	-36.8	17.6	0.00e+00	0	61	0	1300234240	40	4467
2026-01-22 14:59:51.76	198.58	23.16	-35.3	-37.0	17.4	0.00e+00	0	61	0	1307574272	40	4567
2026-01-22 14:59:52.77	198.72	23.29	-35.4	-37.1	17.4	0.00e+00	0	61	0	1314914304	40	4620
2026-01-22 14:59:53.78	198.86	23.42	-35.3	-37.1	17.4	0.00e+00	0	61	0	1322254336	40	4600
2026-01-22 14:59:54.79	199.00	23.56	-35.3	-37.1	17.4	0.00e+00	0	61	0	1329594368	40	4600
2026-01-22 14:59:55.80	199.14	23.69	-35.3	-37.0	17.4	0.00e+00	0	61	0	1336934400	40	4591
2026-01-22 14:59:56.81	199.29	23.82	-35.3	-37.0	17.4	0.00e+00	0	61	0	1344274432	40	4590
2026-01-22 14:59:57.82	199.43	23.96	-35.3	-37.0	17.4	0.00e+00	0	61	0	1351614464	40	4585
2026-01-22 14:59:58.83	199.58	24.09	-35.3	-36.9	17.5	0.00e+00	0	61	0	1358954496	40	4538
2026-01-22 14:59:59.84	199.72	24.23	-35.2	-36.9	17.6	0.00e+00	0	61	0	1366294528	40	4510
2026-01-22 15:00:00.85	199.87	24.36	-35.3	-37.1	17.4	0.00e+00	0	61	0	1373634560	40	4600
2026-01-22 15:00:01.86	200.02	24.50	-35.2	-36.9	17.5	0.00e+00	0	61	0	1380974592	40	4532
2026-01-22 15:00:02.87	200.17	24.63	-35.1	-36.8	17.7	0.00e+00	0	61	0	1388314624	40	4459
2026-01-22 15:00:03.88	200.32	24.77	-35.1	-36.8	17.7	0.00e+00	0	61	0	1394606080	40	4454
2026-01-22 15:00:04.89	200.48	24.91	-35.1	-36.8	17.7	0.00e+00	0	61	0	1402994688	40	4450
2026-01-22 15:00:05.90	200.63	25.05	-35.1	-36.8	17.6	0.00e+00	0	61	0	1410334720	40	4471
2026-01-22 15:00:06.91	200.79	25.19	-35.0	-36.6	17.9	0.00e+00	0	61	0	1416626176	40	4362
2026-01-22 15:00:07.92	200.94	25.33	-35.0	-36.6	17.8	0.00e+00	0	61	0	1423966208	40	4376
2026-01-22 15:00:08.93	201.10	25.47	-34.9	-36.5	17.9	0.00e+00	0	61	0	1431306240	40	4340
2026-01-22 15:00:09.94	201.26	25.61	-34.9	-36.5	17.9	0.00e+00	0	61	0	1438646272	40	4332
2026-01-22 15:00:10.95	201.42	25.75	-34.8	-36.5	18.0	0.00e+00	0	61	0	1445986304	40	4293
2026-01-22 15:00:11.96	201.58	25.89	-35.0	-36.6	17.9	0.00e+00	0	61	0	1453326336	39	4623
2026-01-22 15:00:12.97	201.75	26.03	-35.0	-36.6	17.9	0.00e+00	0	61	0	1460666368	39	4630
2026-01-22 15:00:13.98	201.91	26.17	-34.9	-36.6	17.9	0.00e+00	0	61	0	1468006400	39	4607
2026-01-22 15:00:14.99	202.08	26.32	-35.1	-36.7	17.8	0.00e+00	0	61	0	1475346432	39	4691
2026-01-22 15:00:16.01	202.25	26.46	-35.0	-36.6	17.8	0.00e+00	0	61	0	1482686464	39	4645
2026-01-22 15:00:17.02	202.42	26.60	-35.0	-36.6	17.9	0.00e+00	0	61	0	1490026496	39	4616
2026-01-22 15:00:18.02	202.59	26.75	-34.9	-36.5	18.0	0.00e+00	0	61	0	1497366528	39	4565
2026-01-22 15:00:19.03	202.76	26.89	-34.9	-36.5	18.0	0.00e+00	0	61	0	1504706560	39	4597
2026-01-22 15:00:20.04	202.94	27.04	-35.0	-36.6	17.9	0.00e+00	0	61	0	1512046592	39	4627
2026-01-22 15:00:21.06	203.11	27.18	-35.0	-36.6	17.9	0.00e+00	0	61	0	1519386624	39	4624
2026-01-22 15:00:22.07	203.29	27.33	-35.0	-36.7	17.9	0.00e+00	0	61	0	1526726656	39	4653
2026-01-22 15:00:23.07	203.47	27.48	-34.8	-36.3	18.2	0.00e+00	0	61	0	1534066688	39	4484
2026-01-22 15:00:24.08	203.65	27.62	-34.8	-36.3	18.2	0.00e+00	0	61	0	1540358144	39	4474
2026-01-22 15:00:25.09	203.83	27.77	-34.8	-36.3	18.2	0.00e+00	0	61	0	1548746752	39	4493
2026-01-22 15:00:26.10	204.02	27.92	-34.8	-36.4	18.2	0.00e+00	0	61	0	1556086784	39	4503
2026-01-22 15:00:27.11	204.20	28.07	-34.9	-36.5	18.0	0.00e+00	0	61	0	1562378240	39	4595
2026-01-22 15:00:28.13	204.39	28.22	-34.8	-36.3	18.3	0.00e+00	0	61	0	1569718272	39	4476
2026-01-22 15:00:29.14	204.58	28.37	-34.8	-36.3	18.3	0.00e+00	0	61	0	1578106880	39	4485
2026-01-22 15:00:30.15	204.77	28.52	-34.8	-36.3	18.3	0.00e+00	0	61	0	1584398336	39	4468
2026-01-22 15:00:31.16	204.96	28.67	-34.8	-36.3	18.3	0.00e+00	0	61	0	1591738368	39	4493
2026-01-22 15:00:32.17	205.16	28.82	-34.8	-36.4	18.2	0.00e+00	0	61	0	1599078400	39	4507
2026-01-22 15:00:33.18	205.35	28.97	-34.8	-36.3	18.3	0.00e+00	0	61	0	1606418432	39	4480
2026-01-22 15:00:34.19	205.55	29.13	-34.8	-36.3	18.3	0.00e+00	0	61	0	1613758464	39	4489
2026-01-22 15:00:35.20	205.75	29.28	-34.8	-36.4	18.3	0.00e+00	0	61	0	1621098496	39	4505
2026-01-22 15:00:36.21	205.95	29.43	-34.8	-36.4	18.2	0.00e+00	0	61	0	1628438528	39	4529
2026-01-22 15:00:37.22	206.16	29.59	-34.9	-36.5	18.2	0.00e+00	0	61	0	1635778560	39	4556
2026-01-22 15:00:38.22	206.36	29.74	-34.9	-36.5	18.1	0.00e+00	0	61	0	1643118592	39	4546
2026-01-22 15:00:39.23	206.57	29.89	-34.9	-36.5	18.1	0.00e+00	0	61	0	1650458624	39	4584
2026-01-22 15:00:40.24	206.78	30.05	-34.9	-36.5	18.1	0.00e+00	0	61	0	1657798656	39	4549
2026-01-22 15:00:41.25	206.99	30.20	-34.8	-36.4	18.2	0.00e+00	0	61	0	1665138688	39	4509
2026-01-22 15:00:42.26	207.20	30.36	-34.8	-36.4	18.2	0.00e+00	0	61	0	1672478720	39	4525
2026-01-22 15:00:43.27	207.42	30.51	-34.8	-36.4	18.1	0.00e+00	0	61	0	1679818752	39	4528
2026-01-22 15:00:44.28	207.63	30.67	-34.9	-36.6	18.0	0.00e+00	0	61	0	1687158784	39	4610
2026-01-22 15:00:45.29	207.85	30.83	-34.9	-36.5	18.0	0.00e+00	0	61	0	1694498816	39	4593
2026-01-22 15:00:46.30	208.07	30.99	-34.9	-36.6	18.0	0.00e+00	0	61	0	1701838848	39	4609
2026-01-22 15:00:47.30	208.30	31.14	-34.8	-36.5	18.1	0.00e+00	0	61	0	1709178880	39	4568
2026-01-22 15:00:48.32	208.52	31.30	-34.7	-36.4	18.2	0.00e+00	0	61	0	1715470336	39	4500
2026-01-22 15:00:49.33	208.75	31.46	-34.7	-36.3	18.2	0.00e+00	0	61	0	1722810368	39	4479
2026-01-22 15:00:50.34	208.98	31.62	-34.6	-36.3	18.3	0.00e+00	0	61	0	1730150400	39	4446
2026-01-22 15:00:51.35	209.21	31.78	-34.6	-36.2	18.3	0.00e+00	0	61	0	1737490432	39	4438
2026-01-22 15:00:52.35	209.45	31.94	-34.6	-36.2	18.3	0.00e+00	0	61	0	1744830464	39	4416
2026-01-22 15:00:53.36	209.68	32.10	-34.6	-36.1	18.4	0.00e+00	0	61	0	1752170496	39	4383
2026-01-22 15:00:54.38	209.93	32.26	-34.6	-36.2	18.4	0.00e+00	0	61	0	1759510528	39	4398
2026-01-22 15:00:55.39	210.17	32.42	-34.6	-36.2	18.4	0.00e+00	0	61	0	1766850560	39	4420
2026-01-22 15:00:56.40	210.41	32.58	-34.6	-36.2	18.3	0.00e+00	0	61	0	1774190592	39	4428
2026-01-22 15:00:57.40	210.65	32.74	-34.6	-36.1	18.5	0.00e+00	0	61	0	1781530624	39	4366
2026-01-22 15:00:58.41	210.90	32.90	-34.7	-36.3	18.3	0.00e+00	0	61	0	1788870656	39	4445
2026-01-22 15:00:59.42	211.15	33.06	-34.7	-36.3	18.3	0.00e+00	0	61	0	1796210688	39	4474
2026-01-22 15:01:00.43	211.41	33.22	-34.7	-36.3	18.3	0.00e+00	0	61	0	1803550720	39	4446
2026-01-22 15:01:01.44	211.66	33.39	-34.6	-36.2	18.4	0.00e+00	0	61	0	1810890752	39	4414
2026-01-22 15:01:02.45	211.92	33.55	-34.5	-36.1	18.5	0.00e+00	0	62	0	1818230784	39	4360
2026-01-22 15:01:03.46	212.18	33.71	-34.5	-36.0	18.5	0.00e+00	0	61	0	1825570816	39	4336
2026-01-22 15:01:04.47	212.45	33.87	-34.6	-36.1	18.5	0.00e+00	0	61	0	1832910848	39	4381
2026-01-22 15:01:05.48	212.71	34.04	-34.6	-36.2	18.5	0.00e+00	0	61	0	1839202304	39	4393
2026-01-22 15:01:06.49	212.98	34.20	-34.6	-36.1	18.5	0.00e+00	0	61	0	1847590912	39	4378
2026-01-22 15:01:07.50	213.25	34.36	-34.6	-36.2	18.4	0.00e+00	0	61	0	1854930944	39	4427
2026-01-22 15:01:08.51	213.53	34.53	-34.7	-36.3	18.3	0.00e+00	0	61	0	1861222400	39	4493
2026-01-22 15:01:09.52	213.81	34.69	-34.7	-36.3	18.3	0.00e+00	0	61	0	1868562432	39	4468
2026-01-22 15:01:10.53	214.09	34.86	-34.8	-36.4	18.3	0.00e+00	0	61	0	1875902464	39	4508
2026-01-22 15:01:11.54	214.37	35.02	-34.8	-36.4	18.2	0.00e+00	0	61	0	1883242496	39	4533
2026-01-22 15:01:12.55	214.65	35.18	-35.0	-36.6	18.1	0.00e+00	0	61	0	1890582528	39	4624
2026-01-22 15:01:13.55	214.94	35.35	-35.0	-36.6	18.1	0.00e+00	0	61	0	1897922560	39	4622
2026-01-22 15:01:14.57	215.23	35.51	-34.9	-36.4	18.2	0.00e+00	0	61	0	1905262592	39	4544
2026-01-22 15:01:15.58	215.53	35.68	-35.0	-36.6	18.1	0.00e+00	0	61	0	1912602624	39	4621
2026-01-22 15:01:16.58	215.82	35.84	-34.9	-36.5	18.2	0.00e+00	0	61	0	1919942656	39	4574
2026-01-22 15:01:17.60	216.12	36.00	-35.1	-36.7	18.0	0.00e+00	0	61	0	1927282688	39	4661
2026-01-22 15:01:18.61	216.43	36.17	-34.9	-36.6	18.1	0.00e+00	0	61	0	1934622720	39	4599
2026-01-22 15:01:19.62	216.73	36.33	-34.9	-36.5	18.2	0.00e+00	0	61	0	1941962752	39	4573
2026-01-22 15:01:20.63	217.04	36.50	-34.8	-36.4	18.3	0.00e+00	0	61	0	1949302784	39	4500
2026-01-22 15:01:21.64	217.35	36.66	-34.9	-36.5	18.2	0.00e+00	0	61	0	1956642816	39	4559
2026-01-22 15:01:22.65	217.67	36.82	-35.0	-36.6	18.0	0.00e+00	0	61	0	1963982848	39	4642
2026-01-22 15:01:23.66	217.99	36.99	-34.9	-36.6	18.1	0.00e+00	0	61	0	1971322880	39	4600
2026-01-22 15:01:24.67	218.31	37.15	-35.0	-36.7	17.9	0.00e+00	0	61	0	1978662912	39	4664
2026-01-22 15:01:25.68	218.63	37.31	-34.9	-36.6	18.1	0.00e+00	0	61	0	1986002944	39	4603
2026-01-22 15:01:26.69	218.96	37.48	-35.0	-36.7	18.0	0.00e+00	0	61	0	1993342976	39	4668
2026-01-22 15:01:27.70	219.29	37.64	-35.1	-36.8	17.8	0.00e+00	0	61	0	2000683008	39	4734
2026-01-22 15:01:28.71	219.63	37.80	-35.1	-36.8	17.8	0.00e+00	0	61	0	2008023040	39	4739
2026-01-22 15:01:29.72	219.96	37.97	-35.1	-36.7	17.9	0.00e+00	0	61	0	2014314496	39	4695
2026-01-22 15:01:30.74	220.31	38.13	-35.1	-36.7	18.0	0.00e+00	0	61	0	2021654528	39	4682
2026-01-22 15:01:31.74	220.65	38.29	-35.0	-36.6	18.1	0.00e+00	0	61	0	2030043136	39	4601
2026-01-22 15:01:32.76	221.00	38.45	-35.0	-36.6	18.0	0.00e+00	0	61	0	2036334592	39	4636
2026-01-22 15:01:33.77	221.35	38.61	-35.1	-36.7	18.0	0.00e+00	0	61	0	2043674624	39	4668
2026-01-22 15:01:34.78	221.70	38.77	-35.0	-36.6	18.1	0.00e+00	0	61	0	2051014656	39	4607
2026-01-22 15:01:35.78	222.06	38.93	-34.9	-36.5	18.1	0.00e+00	0	62	0	2058354688	40	4320
2026-01-22 15:01:36.79	222.42	39.09	-35.0	-36.6	18.0	0.00e+00	0	62	0	2065694720	40	4355
2026-01-22 15:01:37.80	222.78	39.25	-35.0	-36.6	18.1	0.00e+00	0	61	0	2073034752	40	4356
2026-01-22 15:01:38.81	223.15	39.41	-35.1	-36.7	18.0	0.00e+00	0	62	0	2080374784	40	4419
2026-01-22 15:01:39.82	223.53	39.57	-35.0	-36.6	18.0	0.00e+00	0	61	0	2087714816	40	4390
2026-01-22 15:01:40.84	223.90	39.72	-34.9	-36.5	18.1	0.00e+00	0	61	0	2095054848	40	4339
2026-01-22 15:01:41.85	224.28	39.88	-35.1	-36.7	17.9	0.00e+00	0	62	0	2102394880	40	4433
2026-01-22 15:01:42.85	224.66	40.04	-35.1	-36.7	17.9	0.00e+00	0	62	0	2109734912	40	4426
2026-01-22 15:01:43.86	225.05	40.19	-35.0	-36.7	17.9	0.00e+00	0	61	0	2117074944	40	4414
2026-01-22 15:01:44.88	225.44	40.35	-35.0	-36.6	18.0	0.00e+00	0	62	0	2124414976	40	4373
2026-01-22 15:01:45.89	225.84	40.50	-35.0	-36.7	17.9	0.00e+00	0	61	0	2131755008	40	4407
2026-01-22 15:01:46.90	226.23	40.65	-34.9	-36.5	18.0	0.00e+00	0	62	0	2139095040	40	4329
2026-01-22 15:01:47.91	226.64	40.80	-34.8	-36.5	18.1	0.00e+00	0	62	0	2146435072	40	4303
2026-01-22 15:01:48.92	227.04	40.95	-34.8	-36.4	18.1	0.00e+00	0	61	0	2153775104	40	4250
2026-01-22 15:01:49.93	227.45	41.10	-34.8	-36.4	18.1	0.00e+00	0	61	0	2161115136	40	4252
2026-01-22 15:01:50.94	227.86	41.25	-34.6	-36.1	18.4	0.00e+00	0	62	0	2168455168	40	4116
2026-01-22 15:01:51.95	228.28	41.40	-34.7	-36.3	18.3	0.00e+00	0	62	0	2175795200	40	4217
2026-01-22 15:01:52.96	228.70	41.55	-34.9	-36.5	18.1	0.00e+00	0	61	0	2182086656	40	4313
2026-01-22 15:01:53.97	229.12	41.69	-35.1	-36.6	18.0	0.00e+00	0	61	0	2189426688	40	4391
2026-01-22 15:01:54.98	229.55	41.84	-35.2	-36.7	18.0	0.00e+00	0	62	0	2196766720	40	4436
2026-01-22 15:01:55.99	229.98	41.98	-35.1	-36.7	18.0	0.00e+00	0	62	0	2205155328	40	4401
2026-01-22 15:01:57.00	230.41	42.12	-35.0	-36.6	18.1	0.00e+00	0	62	0	2211446784	40	4349
2026-01-22 15:01:58.00	230.85	42.26	-35.1	-36.6	18.1	0.00e+00	0	62	0	2218786816	40	4356
2026-01-22 15:01:59.01	231.29	42.40	-34.9	-36.4	18.3	0.00e+00	0	62	0	2226126848	40	4275
2026-01-22 15:02:00.02	231.74	42.54	-34.8	-36.3	18.4	0.00e+00	0	61	0	2233466880	40	4219
2026-01-22 15:02:01.03	232.19	42.68	-34.9	-36.4	18.3	0.00e+00	0	62	0	2240806912	40	4277
2026-01-22 15:02:02.04	232.64	42.81	-35.1	-36.7	18.0	0.00e+00	0	62	0	2248146944	40	4409
2026-01-22 15:02:03.05	233.10	42.95	-35.5	-37.2	17.6	0.00e+00	0	62	0	2255486976	40	4679
2026-01-22 15:02:04.06	233.56	43.08	-35.5	-37.3	17.5	0.00e+00	0	61	0	2262827008	40	4715
2026-01-22 15:02:05.07	234.02	43.21	-35.9	-37.1	18.0	0.00e+00	0	62	0	2270167040	41	4347
2026-01-22 15:02:06.08	234.49	43.34	-35.8	-37.0	18.1	0.00e+00	0	62	0	2277507072	41	4329
2026-01-22 15:02:07.09	234.96	43.46	-36.0	-37.2	17.9	0.00e+00	0	62	0	2284847104	41	4432
2026-01-22 15:02:08.09	235.44	43.59	-35.8	-37.0	18.1	0.00e+00	0	62	0	2292187136	41	4320
2026-01-22 15:02:09.10	235.92	43.71	-35.7	-36.9	18.2	0.00e+00	0	62	0	2299527168	41	4251
2026-01-22 15:02:10.12	236.40	43.84	-35.6	-36.8	18.3	0.00e+00	0	62	0	2306867200	41	4206
2026-01-22 15:02:11.13	236.89	43.96	-35.6	-36.7	18.3	0.00e+00	0	62	0	2313158656	41	4178
2026-01-22 15:02:12.13	237.38	44.07	-35.5	-36.7	18.4	0.00e+00	0	62	0	2320498688	41	4149
2026-01-22 15:02:13.14	237.87	44.19	-35.6	-36.8	18.4	0.00e+00	0	62	0	2328887296	41	4195
2026-01-22 15:02:14.15	238.37	44.30	-35.6	-36.8	18.3	0.00e+00	0	61	0	2335178752	41	4214
2026-01-22 15:02:15.16	238.87	44.41	-35.7	-36.9	18.3	0.00e+00	0	62	0	2342518784	41	4252
2026-01-22 15:02:16.17	239.37	44.52	-35.7	-36.9	18.2	0.00e+00	0	62	0	2349858816	41	4261
2026-01-22 15:02:17.18	239.88	44.63	-35.6	-36.7	18.4	0.00e+00	0	61	0	2357198848	41	4162
2026-01-22 15:02:18.19	240.39	44.74	-35.7	-36.8	18.3	0.00e+00	0	62	0	2364538880	41	4226
2026-01-22 15:02:19.20	240.91	44.84	-35.7	-36.9	18.3	0.00e+00	0	62	0	2371878912	41	4248
2026-01-22 15:02:20.21	241.43	44.94	-35.6	-36.8	18.3	0.00e+00	0	62	0	2379218944	41	4203
2026-01-22 15:02:21.22	241.95	45.04	-35.5	-36.7	18.5	0.00e+00	0	61	0	2386558976	41	4164
2026-01-22 15:02:22.23	242.47	45.14	-35.4	-36.5	18.6	0.00e+00	0	62	0	2393899008	41	4097
2026-01-22 15:02:23.24	243.00	45.23	-35.6	-36.7	18.4	0.00e+00	0	62	0	2401239040	41	4176
2026-01-22 15:02:24.25	243.53	45.33	-36.0	-37.2	17.8	0.00e+00	0	62	0	2408579072	41	4427
2026-01-22 15:02:25.26	244.06	45.41	-36.2	-37.5	17.7	0.00e+00	0	62	0	2415919104	42	4295
2026-01-22 15:02:26.26	244.60	45.50	-36.4	-37.7	17.5	0.00e+00	0	62	0	2423259136	42	4402
2026-01-22 15:02:27.28	245.14	45.59	-36.4	-37.7	17.5	0.00e+00	0	62	0	2430599168	42	4417
2026-01-22 15:02:28.29	245.68	45.67	-36.3	-37.5	17.6	0.00e+00	0	62	0	2437939200	42	4333
2026-01-22 15:02:29.30	246.23	45.75	-36.3	-37.6	17.6	0.00e+00	0	62	0	2445279232	42	4357
2026-01-22 15:02:30.30	246.77	45.82	-36.4	-37.6	17.5	0.00e+00	0	62	0	2452619264	42	4387
2026-01-22 15:02:31.31	247.32	45.90	-36.4	-37.6	17.5	0.00e+00	0	62	0	2459959296	42	4390
2026-01-22 15:02:32.32	247.87	45.97	-36.3	-37.5	17.7	0.00e+00	0	62	0	2466250752	42	4312
2026-01-22 15:02:33.33	248.43	46.04	-36.1	-37.3	17.8	0.00e+00	0	62	0	2473590784	42	4226
2026-01-22 15:02:34.34	248.99	46.10	-36.0	-37.2	18.0	0.00e+00	0	62	0	2481979392	42	4152
2026-01-22 15:02:35.35	249.55	46.16	-35.9	-37.1	18.0	0.00e+00	0	61	0	2488270848	42	4128
2026-01-22 15:02:36.36	250.11	46.22	-35.9	-37.1	18.0	0.00e+00	0	62	0	2495610880	42	4137
2026-01-22 15:02:37.37	250.67	46.28	-36.0	-37.2	18.0	0.00e+00	0	62	0	2502950912	42	4154
2026-01-22 15:02:38.38	251.24	46.33	-36.0	-37.2	17.9	0.00e+00	0	61	0	2510290944	42	4185
2026-01-22 15:02:39.39	251.80	46.39	-35.9	-37.0	18.1	0.00e+00	0	62	0	2517630976	42	4096
2026-01-22 15:02:40.40	252.37	46.43	-35.9	-37.1	18.0	0.00e+00	0	62	0	2524971008	42	4123
2026-01-22 15:02:41.41	252.95	46.48	-36.1	-37.3	17.8	0.00e+00	0	62	0	2532311040	42	4220
2026-01-22 15:02:42.42	253.52	46.52	-36.2	-37.4	17.8	0.00e+00	0	62	0	2539651072	42	4257
2026-01-22 15:02:43.43	254.09	46.56	-36.2	-37.4	17.7	0.00e+00	0	62	0	2546991104	42	4282
2026-01-22 15:02:44.44	254.67	46.60	-36.0	-37.2	18.0	0.00e+00	0	62	0	2554331136	42	4157
2026-01-22 15:02:45.45	255.24	46.63	-35.7	-36.9	18.1	0.00e+00	0	62	0	2561671168	42	4010
2026-01-22 15:02:46.46	255.82	46.66	-35.6	-36.8	18.4	0.00e+00	0	62	0	2569011200	42	3971
2026-01-22 15:02:47.46	256.40	46.68	-35.8	-36.9	18.2	0.00e+00	0	62	0	2576351232	42	4042
2026-01-22 15:02:48.47	256.98	46.71	-35.8	-37.0	18.2	0.00e+00	0	62	0	2583691264	42	4072
2026-01-22 15:02:49.48	257.56	46.73	-35.9	-37.1	18.0	0.00e+00	0	62	0	2589982720	42	4117
2026-01-22 15:02:50.49	258.14	46.75	-36.0	-37.2	17.9	0.00e+00	0	62	0	2598371328	42	4168
2026-01-22 15:02:51.50	258.72	46.76	-36.2	-37.4	17.7	0.00e+00	0	62	0	2605711360	42	4279
2026-01-22 15:02:52.51	259.30	46.77	-36.2	-37.5	17.7	0.00e+00	0	62	0	2612002816	42	4305
2026-01-22 15:02:53.52	259.88	46.78	-36.2	-37.4	17.7	0.00e+00	0	62	0	2619342848	42	4291
2026-01-22 15:02:54.53	260.47	46.78	-35.9	-37.1	18.0	0.00e+00	0	62	0	2626682880	42	4140
2026-01-22 15:02:55.54	261.05	46.78	-35.8	-36.9	18.2	0.00e+00	0	62	0	2634022912	42	4041
2026-01-22 15:02:56.55	261.63	46.78	-35.7	-36.8	18.3	0.00e+00	0	62	0	2641362944	42	4001
2026-01-22 15:02:57.56	262.22	46.78	-35.8	-37.0	18.1	0.00e+00	0	62	0	2648702976	42	4080
2026-01-22 15:02:58.58	262.80	46.77	-36.0	-37.2	18.0	0.00e+00	0	62	0	2656043008	42	4165
2026-01-22 15:02:59.59	263.39	46.76	-35.8	-37.0	18.1	0.00e+00	0	62	0	2663383040	42	4069
2026-01-22 15:03:00.60	263.97	46.74	-35.9	-37.1	18.1	0.00e+00	0	62	0	2670723072	42	4108
2026-01-22 15:03:01.61	264.55	46.73	-35.9	-37.1	18.0	0.00e+00	0	62	0	2678063104	42	4130
2026-01-22 15:03:02.62	265.13	46.71	-35.9	-37.1	18.1	0.00e+00	0	62	0	2685403136	42	4116
2026-01-22 15:03:03.63	265.71	46.68	-36.1	-37.3	17.8	0.00e+00	0	62	0	2692743168	42	4229
2026-01-22 15:03:04.64	266.29	46.65	-36.3	-37.6	17.6	0.00e+00	0	62	0	2700083200	42	4351
2026-01-22 15:03:05.65	266.86	46.62	-36.3	-37.6	17.6	0.00e+00	0	62	0	2707423232	42	4377
2026-01-22 15:03:06.65	267.43	46.59	-36.2	-37.4	17.7	0.00e+00	0	62	0	2714763264	42	4267
2026-01-22 15:03:07.66	268.01	46.55	-35.9	-37.0	18.1	0.00e+00	0	62	0	2722103296	42	4098
2026-01-22 15:03:08.68	268.59	46.52	-35.6	-36.8	18.4	0.00e+00	0	62	0	2729443328	42	3971
2026-01-22 15:03:09.69	269.16	46.47	-35.6	-36.8	18.3	0.00e+00	0	62	0	2736783360	42	3973
2026-01-22 15:03:10.69	269.73	46.43	-35.7	-36.9	18.3	0.00e+00	0	62	0	2744123392	42	4029
2026-01-22 15:03:11.71	270.30	46.38	-35.8	-37.0	18.1	0.00e+00	0	62	0	2751463424	42	4077
2026-01-22 15:03:12.72	270.87	46.33	-35.9	-37.1	18.0	0.00e+00	0	62	0	2758803456	42	4144
2026-01-22 15:03:13.73	271.43	46.27	-35.9	-37.1	18.0	0.00e+00	0	62	0	2765094912	42	4130
2026-01-22 15:03:14.74	272.00	46.22	-35.9	-37.1	18.1	0.00e+00	0	62	0	2773483520	42	4108
2026-01-22 15:03:15.75	272.56	46.16	-35.7	-36.9	18.3	0.00e+00	0	62	0	2780823552	42	4005
2026-01-22 15:03:16.76	273.12	46.09	-35.7	-36.9	18.2	0.00e+00	0	62	0	2787115008	42	4026
2026-01-22 15:03:17.77	273.67	46.03	-36.0	-37.1	18.0	0.00e+00	0	62	0	2794455040	42	4145
2026-01-22 15:03:18.78	274.23	45.96	-36.1	-37.3	17.9	0.00e+00	0	62	0	2801795072	42	4200
2026-01-22 15:03:19.79	274.78	45.89	-36.2	-37.4	17.7	0.00e+00	0	62	0	2809135104	42	4286
2026-01-22 15:03:20.80	275.33	45.81	-36.3	-37.5	17.6	0.00e+00	0	62	0	2816475136	42	4326
2026-01-22 15:03:21.80	275.87	45.74	-36.0	-37.3	17.9	0.00e+00	0	62	0	2823815168	42	4194
2026-01-22 15:03:22.81	276.41	45.66	-35.9	-37.1	18.1	0.00e+00	0	62	0	2831155200	42	4116
2026-01-22 15:03:23.82	276.95	45.58	-35.9	-37.1	18.1	0.00e+00	0	62	0	2838495232	42	4102
2026-01-22 15:03:24.83	277.49	45.49	-35.9	-37.2	18.0	0.00e+00	0	62	0	2845835264	42	4146
2026-01-22 15:03:25.84	278.03	45.41	-36.2	-37.4	17.7	0.00e+00	0	62	0	2853175296	42	4264
2026-01-22 15:03:26.85	278.56	45.32	-36.4	-37.7	17.5	0.00e+00	0	62	0	2860515328	42	4416
2026-01-22 15:03:27.86	279.09	45.22	-36.3	-37.6	17.5	0.00e+00	0	62	0	2867855360	42	4373
2026-01-22 15:03:28.87	279.62	45.13	-36.2	-37.4	17.8	0.00e+00	0	62	0	2875195392	42	4266
2026-01-22 15:03:29.88	280.14	45.03	-35.9	-37.1	18.1	0.00e+00	0	62	0	2882535424	42	4113
2026-01-22 15:03:30.89	280.66	44.93	-35.8	-36.9	18.2	0.00e+00	0	62	0	2889875456	42	4046
2026-01-22 15:03:31.90	281.18	44.83	-35.8	-37.0	18.1	0.00e+00	0	62	0	2897215488	42	4073
2026-01-22 15:03:32.91	281.69	44.73	-35.9	-37.1	18.0	0.00e+00	0	62	0	2904555520	42	4120
2026-01-22 15:03:33.92	282.20	44.62	-35.9	-37.1	18.1	0.00e+00	0	62	0	2910846976	42	4122
2026-01-22 15:03:34.93	282.71	44.52	-35.7	-36.9	18.2	0.00e+00	0	62	0	2918187008	42	4040
2026-01-22 15:03:35.94	283.21	44.41	-35.7	-36.9	18.2	0.00e+00	0	62	0	2926575616	42	4036
2026-01-22 15:03:36.95	283.71	44.29	-35.8	-37.0	18.2	0.00e+00	0	62	0	2932867072	42	4064
2026-01-22 15:03:37.96	284.21	44.18	-35.7	-36.8	18.2	0.00e+00	0	62	0	2940207104	42	3999
2026-01-22 15:03:38.97	284.70	44.06	-35.7	-36.8	18.3	0.00e+00	0	62	0	2947547136	42	3983
2026-01-22 15:03:39.98	285.19	43.95	-35.8	-37.0	18.2	0.00e+00	0	62	0	2954887168	42	4064
2026-01-22 15:03:40.98	285.67	43.83	-36.0	-37.2	18.0	0.00e+00	0	62	0	2962227200	42	4158
2026-01-22 15:03:41.99	286.15	43.70	-36.0	-37.2	18.0	0.00e+00	0	62	0	2969567232	42	4154
2026-01-22 15:03:43.00	286.63	43.58	-35.9	-37.1	18.1	0.00e+00	0	62	0	2976907264	42	4114
2026-01-22 15:03:44.01	287.10	43.46	-35.5	-36.7	18.4	0.00e+00	0	62	0	2984247296	42	3932
2026-01-22 15:03:45.02	287.57	43.33	-35.3	-36.5	18.6	0.00e+00	0	62	0	2991587328	41	4063
2026-01-22 15:03:46.03	288.04	43.20	-35.3	-36.4	18.7	0.00e+00	0	62	0	2998927360	41	4051
2026-01-22 15:03:47.04	288.50	43.07	-35.4	-36.6	18.5	0.00e+00	0	62	0	3006267392	41	4113
2026-01-22 15:03:48.05	288.96	42.94	-35.6	-36.8	18.4	0.00e+00	0	62	0	3013607424	41	4195
2026-01-22 15:03:49.06	289.42	42.81	-35.6	-36.8	18.3	0.00e+00	0	62	0	3020947456	41	4220
2026-01-22 15:03:50.07	289.87	42.67	-35.7	-36.9	18.3	0.00e+00	0	62	0	3028287488	41	4245
2026-01-22 15:03:51.08	290.32	42.53	-35.7	-36.9	18.2	0.00e+00	0	62	0	3035627520	41	4264
2026-01-22 15:03:52.09	290.77	42.40	-35.8	-37.0	18.1	0.00e+00	0	62	0	3042967552	41	4295
2026-01-22 15:03:53.10	291.21	42.26	-35.6	-36.8	18.3	0.00e+00	0	62	0	3050307584	41	4222
2026-01-22 15:03:54.11	291.64	42.12	-35.6	-36.8	18.3	0.00e+00	0	62	0	3057647616	41	4196
2026-01-22 15:03:55.12	292.08	41.98	-35.5	-36.6	18.4	0.00e+00	0	62	0	3063939072	41	4145
2026-01-22 15:03:56.13	292.51	41.83	-35.5	-36.7	18.4	0.00e+00	0	62	0	3071279104	41	4167
2026-01-22 15:03:57.14	292.93	41.69	-35.7	-36.9	18.1	0.00e+00	0	62	0	3079667712	41	4262
2026-01-22 15:03:58.16	293.36	41.54	-35.6	-36.8	18.3	0.00e+00	0	62	0	3085959168	41	4203
2026-01-22 15:03:59.17	293.78	41.40	-35.6	-36.8	18.3	0.00e+00	0	62	0	3093299200	41	4222
2026-01-22 15:04:00.18	294.19	41.25	-35.6	-36.7	18.3	0.00e+00	0	62	0	3100639232	41	4190
2026-01-22 15:04:01.19	294.60	41.10	-35.6	-36.8	18.3	0.00e+00	0	62	0	3107979264	41	4205
2026-01-22 15:04:02.20	295.01	40.95	-35.6	-36.7	18.3	0.00e+00	0	62	0	3115319296	41	4181
2026-01-22 15:04:03.20	295.41	40.80	-35.5	-36.7	18.4	0.00e+00	0	62	0	3122659328	41	4162
2026-01-22 15:04:04.21	295.81	40.65	-35.6	-36.7	18.3	0.00e+00	0	62	0	3129999360	41	4193
2026-01-22 15:04:05.22	296.20	40.50	-35.6	-36.7	18.3	0.00e+00	0	62	0	3137339392	41	4192
2026-01-22 15:04:06.24	296.60	40.35	-35.5	-36.6	18.5	0.00e+00	0	62	0	3144679424	41	4140
2026-01-22 15:04:07.25	296.99	40.19	-35.4	-36.6	18.5	0.00e+00	0	62	0	3152019456	41	4118
2026-01-22 15:04:08.26	297.37	40.04	-35.5	-36.7	18.4	0.00e+00	0	62	0	3159359488	41	4152
2026-01-22 15:04:09.27	297.76	39.88	-35.4	-36.5	18.6	0.00e+00	0	62	0	3166699520	41	4070
2026-01-22 15:04:10.28	298.13	39.73	-35.4	-36.5	18.6	0.00e+00	0	62	0	3174039552	41	4079
2026-01-22 15:04:11.28	298.50	39.57	-35.4	-36.5	18.6	0.00e+00	0	62	0	3181379584	41	4084
2026-01-22 15:04:12.29	298.87	39.41	-35.2	-36.4	18.7	0.00e+00	0	62	0	3188719616	41	4006
2026-01-22 15:04:13.30	299.24	39.26	-35.1	-36.2	18.8	0.00e+00	0	62	0	3196059648	41	3956
2026-01-22 15:04:14.31	299.61	39.10	-35.3	-36.4	18.7	0.00e+00	0	62	0	3203399680	41	4011
2026-01-22 15:04:15.32	299.97	38.94	-35.4	-36.5	18.6	0.00e+00	0	62	0	3209691136	41	4096
2026-01-22 15:04:16.33	300.32	38.78	-35.6	-36.7	18.3	0.00e+00	0	62	0	3217031168	41	4173
2026-01-22 15:04:17.34	300.68	38.62	-35.7	-36.9	18.2	0.00e+00	0	62	0	3225419776	41	4255
2026-01-22 15:04:18.35	301.02	38.46	-35.7	-36.9	17.6	0.00e+00	0	62	0	3231711232	41	4245
2026-01-22 15:04:19.36	301.37	38.30	-35.6	-36.7	18.4	0.00e+00	0	62	0	3239051264	41	4183
2026-01-22 15:04:20.37	301.71	38.14	-35.4	-36.6	18.5	0.00e+00	0	62	0	3246391296	41	4104
2026-01-22 15:04:21.38	302.05	37.98	-35.5	-36.7	18.4	0.00e+00	0	62	0	3253731328	41	4147
2026-01-22 15:04:22.40	302.39	37.82	-35.3	-36.4	18.7	0.00e+00	0	62	0	3261071360	41	4035
2026-01-22 15:04:23.41	302.73	37.65	-35.1	-36.2	18.8	0.00e+00	0	62	0	3268411392	41	3952
2026-01-22 15:04:24.42	303.06	37.49	-35.2	-36.3	18.8	0.00e+00	0	62	0	3275751424	41	3971
2026-01-22 15:04:25.43	303.38	37.33	-35.2	-36.4	18.7	0.00e+00	0	62	0	3283091456	41	4007
2026-01-22 15:04:26.44	303.71	37.17	-35.3	-36.5	18.6	0.00e+00	0	62	0	3290431488	41	4070
2026-01-22 15:04:27.44	304.02	37.01	-35.4	-36.6	18.5	0.00e+00	0	62	0	3297771520	41	4101
2026-01-22 15:04:28.45	304.34	36.84	-35.5	-36.7	18.4	0.00e+00	0	62	0	3305111552	41	4158
2026-01-22 15:04:29.46	304.65	36.68	-35.3	-36.5	18.5	0.00e+00	0	62	0	3312451584	41	4055
2026-01-22 15:04:30.47	304.97	36.52	-35.5	-36.7	18.4	0.00e+00	0	62	0	3319791616	41	4163
2026-01-22 15:04:31.48	305.27	36.35	-35.4	-36.5	18.5	0.00e+00	0	62	0	3327131648	41	4095
2026-01-22 15:04:32.49	305.58	36.19	-35.2	-36.4	18.7	0.00e+00	0	62	0	3334471680	41	4013
2026-01-22 15:04:33.50	305.88	36.03	-35.2	-36.3	18.8	0.00e+00	0	62	0	3341811712	41	3971
2026-01-22 15:04:34.51	306.18	35.86	-35.0	-36.1	18.9	0.00e+00	0	62	0	3349151744	41	3911
2026-01-22 15:04:35.52	306.48	35.70	-34.9	-36.0	19.1	0.00e+00	0	62	0	3356491776	40	4061
2026-01-22 15:04:36.53	306.77	35.54	-34.9	-36.0	19.0	0.00e+00	0	62	0	3362783232	40	4090
2026-01-22 15:04:37.54	307.06	35.37	-35.0	-36.1	18.9	0.00e+00	0	62	0	3371171840	40	4130
2026-01-22 15:04:38.55	307.35	35.21	-35.0	-36.1	18.9	0.00e+00	0	62	0	3378511872	40	4143
2026-01-22 15:04:39.56	307.63	35.05	-35.3	-36.4	18.5	0.00e+00	0	62	0	3384803328	40	4271
2026-01-22 15:04:40.57	307.91	34.89	-35.1	-36.2	18.8	0.00e+00	0	62	0	3392143360	40	4191
2026-01-22 15:04:41.58	308.19	34.72	-35.2	-36.3	18.7	0.00e+00	0	62	0	3399483392	40	4242
2026-01-22 15:04:42.59	308.47	34.56	-35.4	-36.6	18.5	0.00e+00	0	62	0	3406823424	40	4354
2026-01-22 15:04:43.60	308.74	34.40	-35.6	-36.7	18.3	0.00e+00	0	62	0	3414163456	40	4423
2026-01-22 15:04:44.60	309.01	34.24	-35.7	-36.9	18.1	0.00e+00	0	62	0	3421503488	41	4253
2026-01-22 15:04:45.61	309.28	34.07	-35.7	-36.9	18.2	0.00e+00	0	62	0	3428843520	41	4256
2026-01-22 15:04:46.62	309.54	33.91	-35.7	-36.9	18.2	0.00e+00	0	62	0	3436183552	41	4253
2026-01-22 15:04:47.63	309.81	33.75	-35.6	-36.8	18.2	0.00e+00	0	62	0	3443523584	41	4225
2026-01-22 15:04:48.64	310.07	33.59	-35.5	-36.6	18.4	0.00e+00	0	62	0	3450863616	41	4140
2026-01-22 15:04:49.65	310.32	33.43	-35.3	-36.4	18.6	0.00e+00	0	62	0	3458203648	41	4044
2026-01-22 15:04:50.66	310.58	33.26	-35.2	-36.3	18.7	0.00e+00	0	62	0	3465543680	41	4004
2026-01-22 15:04:51.67	310.83	33.10	-35.2	-36.4	18.7	0.00e+00	0	62	0	3472883712	41	4006
2026-01-22 15:04:52.68	311.08	32.94	-35.1	-36.2	18.8	0.00e+00	0	62	0	3480223744	41	3957
2026-01-22 15:04:53.69	311.33	32.78	-35.1	-36.3	18.8	0.00e+00	0	62	0	3487563776	41	3960
2026-01-22 15:04:54.70	311.58	32.62	-35.2	-36.3	18.7	0.00e+00	0	62	0	3494903808	41	3991
2026-01-22 15:04:55.71	311.82	32.46	-35.2	-36.3	18.7	0.00e+00	0	62	0	3502243840	41	3979
2026-01-22 15:04:56.72	312.06	32.30	-35.2	-36.3	18.7	0.00e+00	0	62	0	3508535296	41	3971
2026-01-22 15:04:57.73	312.30	32.14	-35.1	-36.2	18.8	0.00e+00	0	62	0	3515875328	41	3940
2026-01-22 15:04:58.74	312.54	31.98	-35.2	-36.3	18.7	0.00e+00	0	62	0	3524263936	41	3967
2026-01-22 15:04:59.75	312.77	31.83	-35.2	-36.3	18.7	0.00e+00	0	62	0	3530555392	41	4000
2026-01-22 15:05:00.76	313.00	31.67	-35.3	-36.4	18.6	0.00e+00	0	62	0	3537895424	41	4024
2026-01-22 15:05:01.77	313.23	31.51	-35.3	-36.4	18.6	0.00e+00	0	62	0	3545235456	41	4046
2026-01-22 15:05:02.78	313.46	31.35	-35.4	-36.6	18.4	0.00e+00	0	62	0	3552575488	41	4101
2026-01-22 15:05:03.79	313.68	31.19	-35.5	-36.6	18.4	0.00e+00	0	62	0	3559915520	41	4136
2026-01-22 15:05:04.80	313.91	31.04	-35.5	-36.7	18.3	0.00e+00	0	62	0	3567255552	41	4177
2026-01-22 15:05:05.81	314.13	30.88	-35.6	-36.7	18.3	0.00e+00	0	62	0	3574595584	41	4191
2026-01-22 15:05:06.82	314.35	30.73	-35.7	-36.9	18.1	0.00e+00	0	62	0	3581935616	41	4265
2026-01-22 15:05:07.83	314.56	30.57	-35.8	-37.0	18.1	0.00e+00	0	62	0	3589275648	41	4297
2026-01-22 15:05:08.84	314.78	30.41	-35.6	-36.7	18.2	0.00e+00	0	62	0	3596615680	41	4188
2026-01-22 15:05:09.85	314.99	30.26	-35.5	-36.6	18.4	0.00e+00	0	62	0	3603955712	41	4145
2026-01-22 15:05:10.86	315.20	30.11	-35.5	-36.7	18.3	0.00e+00	0	62	0	3611295744	41	4152
2026-01-22 15:05:11.87	315.41	29.95	-35.4	-36.5	18.5	0.00e+00	0	62	0	3618635776	41	4096
2026-01-22 15:05:12.88	315.62	29.80	-35.3	-36.5	18.5	0.00e+00	0	62	0	3625975808	41	4073
2026-01-22 15:05:13.88	315.82	29.65	-35.4	-36.5	18.5	0.00e+00	0	62	0	3633315840	41	4086
2026-01-22 15:05:14.89	316.02	29.49	-35.3	-36.5	18.5	0.00e+00	0	62	0	3640655872	41	4058
2026-01-22 15:05:15.91	316.23	29.34	-35.3	-36.5	18.5	0.00e+00	0	62	0	3647995904	41	4078
2026-01-22 15:05:16.91	316.43	29.19	-35.4	-36.5	18.5	0.00e+00	0	62	0	3655335936	41	4086
2026-01-22 15:05:17.93	316.62	29.04	-35.4	-36.5	18.5	0.00e+00	0	62	0	3661627392	41	4084
2026-01-22 15:05:18.94	316.82	28.89	-35.5	-36.6	18.4	0.00e+00	0	62	0	3668967424	41	4129
2026-01-22 15:05:19.95	317.01	28.74	-35.5	-36.6	18.4	0.00e+00	0	62	0	3677356032	41	4127
2026-01-22 15:05:20.96	317.21	28.59	-35.6	-36.7	18.3	0.00e+00	0	62	0	3683647488	41	4193
2026-01-22 15:05:21.97	317.40	28.44	-35.7	-36.9	18.0	0.00e+00	0	62	0	3690987520	41	4253
2026-01-22 15:05:22.98	317.59	28.29	-35.7	-36.9	18.1	0.00e+00	0	62	0	3698327552	41	4248
2026-01-22 15:05:23.99	317.77	28.14	-35.7	-36.9	18.0	0.00e+00	0	62	0	3705667584	41	4271
2026-01-22 15:05:25.00	317.96	27.99	-35.7	-36.9	18.0	0.00e+00	0	62	0	3713007616	41	4280
2026-01-22 15:05:26.00	318.14	27.85	-35.7	-36.9	18.1	0.00e+00	0	62	0	3720347648	41	4249
2026-01-22 15:05:27.01	318.32	27.70	-35.6	-36.8	18.2	0.00e+00	0	62	0	3727687680	41	4211
2026-01-22 15:05:28.02	318.50	27.55	-35.6	-36.8	18.1	0.00e+00	0	62	0	3735027712	41	4230
2026-01-22 15:05:29.03	318.68	27.41	-35.6	-36.8	18.2	0.00e+00	0	62	0	3742367744	41	4207
2026-01-22 15:05:30.04	318.86	27.26	-35.5	-36.7	18.3	0.00e+00	0	62	0	3749707776	41	4149
2026-01-22 15:05:31.05	319.03	27.12	-35.6	-36.7	18.2	0.00e+00	0	62	0	3757047808	41	4172
2026-01-22 15:05:32.06	319.21	26.97	-35.5	-36.7	18.3	0.00e+00	0	62	0	3764387840	41	4166
2026-01-22 15:05:33.07	319.38	26.83	-35.5	-36.6	18.3	0.00e+00	0	62	0	3771727872	41	4129
2026-01-22 15:05:34.08	319.55	26.68	-35.3	-36.4	18.5	0.00e+00	0	62	0	3779067904	41	4032
2026-01-22 15:05:35.09	319.72	26.54	-35.3	-36.4	18.5	0.00e+00	0	62	0	3786407936	41	4037
2026-01-22 15:05:36.10	319.89	26.40	-35.3	-36.5	18.4	0.00e+00	0	62	0	3793747968	41	4068
2026-01-22 15:05:37.11	320.06	26.26	-35.4	-36.6	18.4	0.00e+00	0	62	0	3801088000	41	4110
2026-01-22 15:05:38.12	320.22	26.11	-35.4	-36.5	18.4	0.00e+00	0	62	0	3807379456	41	4086
2026-01-22 15:05:39.13	320.39	25.97	-35.4	-36.6	18.3	0.00e+00	0	62	0	3814719488	41	4117
2026-01-22 15:05:40.14	320.55	25.83	-35.6	-36.8	18.1	0.00e+00	0	62	0	3823108096	41	4209
2026-01-22 15:05:41.15	320.71	25.69	-35.5	-36.7	18.2	0.00e+00	0	62	0	3829399552	41	4170
2026-01-22 15:05:42.16	320.87	25.55	-35.7	-36.9	18.1	0.00e+00	0	62	0	3836739584	41	4243
2026-01-22 15:05:43.17	321.03	25.41	-35.6	-36.8	18.0	0.00e+00	0	62	0	3844079616	41	4237
2026-01-22 15:05:44.18	321.18	25.28	-35.7	-36.9	18.0	0.00e+00	0	62	0	3851419648	41	4286
2026-01-22 15:05:45.19	321.34	25.14	-35.7	-36.9	18.0	0.00e+00	0	62	0	3858759680	41	4270
2026-01-22 15:05:46.20	321.49	25.00	-35.7	-36.9	18.0	0.00e+00	0	62	0	3866099712	41	4286
2026-01-22 15:05:47.21	321.65	24.86	-35.7	-36.9	18.0	0.00e+00	0	62	0	3873439744	41	4253
2026-01-22 15:05:48.22	321.80	24.73	-35.7	-36.9	18.0	0.00e+00	0	62	0	3880779776	41	4259
2026-01-22 15:05:49.23	321.95	24.59	-35.7	-36.9	18.0	0.00e+00	0	62	0	3888119808	41	4274
2026-01-22 15:05:50.23	322.10	24.46	-35.7	-36.9	18.0	0.00e+00	0	62	0	3895459840	41	4259
2026-01-22 15:05:51.24	322.24	24.32	-35.7	-36.9	18.0	0.00e+00	0	62	0	3902799872	41	4260
2026-01-22 15:05:52.25	322.39	24.19	-35.6	-36.8	18.1	0.00e+00	0	62	0	3910139904	41	4221
2026-01-22 15:05:53.26	322.54	24.05	-35.6	-36.7	18.2	0.00e+00	0	62	0	3917479936	41	4192
2026-01-22 15:05:54.27	322.68	23.92	-35.6	-36.8	18.1	0.00e+00	0	62	0	3924819968	41	4198
2026-01-22 15:05:55.29	322.83	23.79	-35.6	-36.8	18.1	0.00e+00	0	62	0	3932160000	41	4212
2026-01-22 15:05:56.29	322.97	23.66	-35.8	-37.0	18.0	0.00e+00	0	62	0	3939500032	41	4296
2026-01-22 15:05:57.30	323.11	23.52	-35.7	-36.9	18.0	0.00e+00	0	62	0	3946840064	41	4272
2026-01-22 15:05:58.31	323.25	23.39	-35.7	-36.9	18.0	0.00e+00	0	62	0	3954180096	41	4280
2026-01-22 15:05:59.32	323.38	23.26	-35.8	-37.0	17.9	0.00e+00	0	62	0	3960471552	41	4306
2026-01-22 15:06:00.33	323.52	23.13	-35.9	-37.1	17.8	0.00e+00	0	62	0	3967811584	41	4365
2026-01-22 15:06:01.34	323.66	23.00	-35.9	-37.1	17.7	0.00e+00	0	62	0	3976200192	41	4374
2026-01-22 15:06:02.35	323.79	22.87	-36.0	-37.2	17.6	0.00e+00	0	62	0	3982491648	41	4437
2026-01-22 15:06:03.36	323.93	22.74	-36.0	-37.2	17.6	0.00e+00	0	62	0	3989831680	41	4414
2026-01-22 15:06:04.37	324.06	22.61	-36.0	-37.2	17.6	0.00e+00	0	62	0	3997171712	41	4427
2026-01-22 15:06:05.37	324.19	22.49	-36.0	-37.2	17.6	0.00e+00	0	62	0	4004511744	41	4412
2026-01-22 15:06:06.39	324.32	22.36	-35.9	-37.2	17.7	0.00e+00	0	62	0	4011851776	41	4395
2026-01-22 15:06:07.40	324.45	22.23	-35.9	-37.1	17.8	0.00e+00	0	62	0	4019191808	41	4356
2026-01-22 15:06:08.41	324.58	22.11	-35.8	-37.0	17.8	0.00e+00	0	62	0	4026531840	41	4336
2026-01-22 15:06:09.41	324.71	21.98	-35.8	-37.0	17.8	0.00e+00	0	62	0	4033871872	41	4328
2026-01-22 15:06:10.42	324.84	21.86	-35.8	-37.0	17.8	0.00e+00	0	62	0	4041211904	41	4318
2026-01-22 15:06:11.43	324.96	21.73	-35.8	-37.0	17.8	0.00e+00	0	62	0	4048551936	41	4334
2026-01-22 15:06:12.44	325.09	21.61	-35.7	-36.9	17.9	0.00e+00	0	62	0	4055891968	41	4280
2026-01-22 15:06:13.45	325.21	21.48	-35.7	-36.9	17.8	0.00e+00	0	62	0	4063232000	41	4289
2026-01-22 15:06:14.46	325.33	21.36	-35.8	-37.0	17.8	0.00e+00	0	62	0	4070572032	41	4306
2026-01-22 15:06:15.47	325.46	21.24	-35.9	-37.1	17.7	0.00e+00	0	62	0	4077912064	41	4357
2026-01-22 15:06:16.48	325.58	21.11	-35.9	-37.1	17.7	0.00e+00	0	62	0	4084203520	41	4384
2026-01-22 15:06:17.49	325.70	20.99	-35.9	-37.2	17.6	0.00e+00	0	62	0	4092592128	41	4392
2026-01-22 15:06:18.50	325.82	20.87	-36.0	-37.3	17.5	0.00e+00	0	62	0	4099932160	41	4447
2026-01-22 15:06:19.51	325.94	20.75	-36.1	-37.4	17.4	0.00e+00	0	62	0	4106223616	41	4496
2026-01-22 15:06:20.52	326.05	20.63	-36.1	-37.3	17.4	0.00e+00	0	62	0	4113563648	41	4489
2026-01-22 15:06:21.53	326.17	20.51	-36.1	-37.3	17.4	0.00e+00	0	62	0	4120903680	41	4492
2026-01-22 15:06:22.54	326.29	20.39	-36.2	-37.5	17.3	0.00e+00	0	62	0	4128243712	41	4551
2026-01-22 15:06:23.55	326.40	20.27	-36.2	-37.5	17.3	0.00e+00	0	62	0	4135583744	42	4299
2026-01-22 15:06:24.56	326.51	20.15	-36.2	-37.5	17.3	0.00e+00	0	62	0	4142923776	42	4310
2026-01-22 15:06:25.57	326.63	20.03	-36.3	-37.6	17.2	0.00e+00	0	62	0	4150263808	42	4346
2026-01-22 15:06:26.58	326.74	19.91	-36.2	-37.5	17.3	0.00e+00	0	62	0	4157603840	42	4308
2026-01-22 15:06:27.59	326.85	19.80	-36.3	-37.6	17.2	0.00e+00	0	62	0	4164943872	42	4345
2026-01-22 15:06:28.60	326.96	19.68	-36.3	-37.5	17.2	0.00e+00	0	62	0	4172283904	42	4333
2026-01-22 15:06:29.61	327.07	19.56	-36.3	-37.6	17.2	0.00e+00	0	62	0	4179623936	42	4342
2026-01-22 15:06:30.62	327.18	19.45	-36.3	-37.5	17.2	0.00e+00	0	62	0	4186963968	42	4335
2026-01-22 15:06:31.63	327.29	19.33	-36.3	-37.6	17.2	0.00e+00	0	62	0	4194304000	42	4367
2026-01-22 15:06:32.64	327.40	19.22	-36.3	-37.6	17.1	0.00e+00	0	62	0	4201644032	42	4382
2026-01-22 15:06:33.65	327.50	19.10	-36.4	-37.7	17.0	0.00e+00	0	62	0	4208984064	42	4394
2026-01-22 15:06:34.66	327.61	18.99	-36.3	-37.6	17.1	0.00e+00	0	62	0	4216324096	42	4378
2026-01-22 15:06:35.67	327.72	18.87	-36.3	-37.6	17.1	0.00e+00	0	62	0	4223664128	42	4375
2026-01-22 15:06:36.68	327.82	18.76	-36.3	-37.6	17.2	0.00e+00	0	62	0	4231004160	42	4350
2026-01-22 15:06:37.69	327.92	18.65	-36.4	-37.7	17.0	0.00e+00	0	62	0	4237295616	42	4407
2026-01-22 15:06:38.69	328.03	18.54	-36.4	-37.7	17.0	0.00e+00	0	62	0	4245684224	42	4401
2026-01-22 15:06:39.70	328.13	18.42	-36.3	-37.6	17.1	0.00e+00	0	62	0	4253024256	42	4342
2026-01-22 15:06:40.71	328.23	18.31	-36.3	-37.6	17.2	0.00e+00	0	62	0	4259315712	42	4352
2026-01-22 15:06:41.72	328.33	18.20	-36.4	-37.7	17.0	0.00e+00	0	62	0	4266655744	42	4409
2026-01-22 15:06:42.73	328.43	18.09	-36.3	-37.6	17.1	0.00e+00	0	62	0	4273995776	42	4385
2026-01-22 15:06:43.74	328.53	17.98	-36.3	-37.6	17.1	0.00e+00	0	62	0	4281335808	42	4386
2026-01-22 15:06:44.75	328.63	17.87	-36.3	-37.6	17.1	0.00e+00	0	62	0	4288675840	42	4355
2026-01-22 15:06:45.76	328.73	17.76	-36.3	-37.6	17.0	0.00e+00	0	62	0	4296015872	42	4386
2026-01-22 15:06:46.77	328.82	17.65	-36.3	-37.6	17.0	0.00e+00	0	62	0	4303355904	42	4388
2026-01-22 15:06:47.78	328.92	17.54	-36.3	-37.6	17.0	0.00e+00	0	62	0	4310695936	42	4390
2026-01-22 15:06:48.79	329.02	17.43	-36.4	-37.7	16.9	0.00e+00	0	62	0	4318035968	42	4433
2026-01-22 15:06:49.80	329.11	17.33	-36.5	-37.8	16.9	0.00e+00	0	62	0	4325376000	42	4455
2026-01-22 15:06:50.81	329.21	17.22	-36.5	-37.8	16.9	0.00e+00	0	62	0	4332716032	42	4466
2026-01-22 15:06:51.82	329.30	17.11	-36.5	-37.9	16.8	0.00e+00	0	62	0	4340056064	42	4496
2026-01-22 15:06:52.83	329.40	17.00	-36.6	-38.0	16.7	0.00e+00	0	62	0	4347396096	42	4546
2026-01-22 15:06:53.84	329.49	16.90	-36.6	-37.9	16.7	0.00e+00	0	62	0	4354736128	42	4533
2026-01-22 15:06:54.85	329.58	16.79	-36.7	-38.1	16.5	0.00e+00	0	62	0	4362076160	42	4619
2026-01-22 15:06:55.86	329.67	16.69	-36.7	-38.1	16.5	0.00e+00	0	62	0	4369416192	43	4369
2026-01-22 15:06:56.87	329.76	16.58	-36.8	-38.1	16.5	0.00e+00	0	62	0	4376756224	43	4389
2026-01-22 15:06:57.88	329.85	16.48	-36.8	-38.3	16.4	0.00e+00	0	62	0	4383047680	43	4443
2026-01-22 15:06:58.89	329.94	16.37	-36.9	-38.3	16.3	0.00e+00	0	62	0	4391436288	43	4465
2026-01-22 15:06:59.90	330.03	16.27	-37.0	-38.4	16.2	0.00e+00	0	62	0	4398776320	43	4535
2026-01-22 15:07:00.91	330.12	16.16	-37.0	-38.5	16.1	0.00e+00	0	62	0	4405067776	43	4570
2026-01-22 15:07:01.92	330.21	16.06	-37.1	-38.5	16.0	0.00e+00	0	62	0	4412407808	43	4594
2026-01-22 15:07:02.92	330.30	15.96	-37.1	-38.6	16.0	0.00e+00	0	62	0	4419747840	43	4609
2026-01-22 15:07:03.93	330.38	15.86	-37.1	-38.5	16.0	0.00e+00	0	62	0	4427087872	43	4587
2026-01-22 15:07:04.95	330.47	15.75	-37.1	-38.6	16.0	0.00e+00	0	62	0	4434427904	43	4617
2026-01-22 15:07:05.96	330.56	15.65	-37.1	-38.6	16.0	0.00e+00	0	62	0	4441767936	43	4605
2026-01-22 15:07:06.96	330.64	15.55	-37.2	-38.7	15.9	0.00e+00	0	62	0	4449107968	43	4662
2026-01-22 15:07:07.97	330.73	15.45	-37.2	-38.7	15.9	0.00e+00	0	62	0	4456448000	43	4671
2026-01-22 15:07:08.98	330.81	15.35	-37.4	-39.0	15.7	0.00e+00	0	62	0	4463788032	44	4549
2026-01-22 15:07:09.99	330.89	15.25	-37.4	-38.9	15.8	0.00e+00	0	62	0	4471128064	44	4501
2026-01-22 15:07:11.00	330.98	15.15	-37.4	-38.9	15.8	0.00e+00	0	62	0	4478468096	44	4504
2026-01-22 15:07:12.01	331.06	15.05	-37.4	-39.0	15.7	0.00e+00	0	62	0	4485808128	44	4546
2026-01-22 15:07:13.02	331.14	14.95	-37.5	-39.1	15.6	0.00e+00	0	62	0	4493148160	44	4603
2026-01-22 15:07:14.03	331.22	14.85	-37.4	-38.9	15.7	0.00e+00	0	62	0	4500488192	44	4534
2026-01-22 15:07:15.04	331.30	14.75	-37.4	-38.9	15.7	0.00e+00	0	62	0	4507828224	44	4528
2026-01-22 15:07:16.05	331.38	14.65	-37.5	-39.0	15.6	0.00e+00	0	62	0	4515168256	44	4571
2026-01-22 15:07:17.06	331.46	14.56	-37.5	-39.1	15.6	0.00e+00	0	62	0	4522508288	44	4599
2026-01-22 15:07:18.06	331.54	14.46	-37.5	-39.0	15.6	0.00e+00	0	62	0	4529848320	44	4574
2026-01-22 15:07:19.08	331.62	14.36	-37.5	-39.1	15.5	0.00e+00	0	62	0	4536139776	44	4601
2026-01-22 15:07:20.09	331.70	14.27	-37.5	-39.0	15.6	0.00e+00	0	62	0	4544528384	44	4567
2026-01-22 15:07:21.10	331.78	14.17	-37.5	-39.0	15.6	0.00e+00	0	62	0	4551868416	44	4581
2026-01-22 15:07:22.11	331.86	14.07	-37.5	-39.0	15.6	0.00e+00	0	62	0	4558159872	44	4577
2026-01-22 15:07:23.12	331.93	13.98	-37.5	-39.1	15.5	0.00e+00	0	62	0	4565499904	44	4616
