passes_logs/2026/01/22/R2.0S_Moscow/R2.0S_Moscow__20260122_183850_FENGYUN_3G_rec.log

#Pass ID: 20260122_183850_FENGYUN 3G
#Satellite: FENGYUN 3G
#Configuration: FENGYUN 3G
#almurnet v.1.7.20251203
#Start time: 2026-01-22 18:38:51

#Version: 2.2.20231116
#Station: R2.0S_Moscow
#Location: 37.707566 lon 55.798166 lat
#TLE: 1 56232U 23055A   26021.54475475  .00062179  00000+0  94164-3 0  9996
#TLE: 2 56232  49.9941  22.1547 0004002  61.8305 298.3066 15.54008241157216

#Time	Az	El	Level	Level2	SNR	BER	BlckErr	Temp	State	Recorded	gain1	gain2
2026-01-22 18:38:51.62	223.59	2.05	-44.0	-62.0	3.8	8.46e-01	0	51	0	0	59	28923
2026-01-22 18:38:52.64	223.50	2.11	-44.0	-62.0	3.8	8.43e-01	0	51	104	0	59	28817
2026-01-22 18:38:53.65	223.41	2.17	-44.0	-62.0	3.8	8.46e-01	0	51	104	0	59	28924
2026-01-22 18:38:54.66	223.32	2.24	-44.0	-62.0	3.8	8.47e-01	0	51	104	0	59	28981
2026-01-22 18:38:55.67	223.22	2.30	-44.0	-62.0	3.8	8.47e-01	0	51	104	0	59	28895
2026-01-22 18:38:56.68	223.13	2.36	-44.0	-62.0	3.8	8.47e-01	0	51	104	0	59	28926
2026-01-22 18:38:57.69	223.04	2.43	-44.0	-62.0	3.8	8.45e-01	0	51	104	0	59	28856
2026-01-22 18:38:58.70	222.95	2.49	-44.0	-62.0	3.8	8.45e-01	0	51	104	0	59	28906
2026-01-22 18:38:59.71	222.85	2.55	-44.0	-62.0	3.8	8.45e-01	0	51	104	0	59	28954
2026-01-22 18:39:00.72	222.76	2.62	-44.0	-62.0	3.8	8.46e-01	0	51	104	0	59	28901
2026-01-22 18:39:01.73	222.66	2.68	-44.0	-62.0	3.8	8.46e-01	0	52	104	0	59	28909
2026-01-22 18:39:02.74	222.57	2.75	-44.0	-62.0	3.8	8.46e-01	0	52	104	0	59	28946
2026-01-22 18:39:03.75	222.47	2.81	-44.0	-62.0	3.8	8.47e-01	0	52	104	0	59	28923
2026-01-22 18:39:04.76	222.37	2.88	-44.0	-62.0	3.8	8.47e-01	0	52	104	0	59	28917
2026-01-22 18:39:05.77	222.28	2.94	-44.0	-62.0	3.8	8.47e-01	0	52	104	0	59	28857
2026-01-22 18:39:06.78	222.18	3.01	-44.0	-62.0	3.8	8.47e-01	0	52	104	0	59	28881
2026-01-22 18:39:07.79	222.08	3.07	-44.0	-62.0	3.8	8.46e-01	0	52	104	0	59	28897
2026-01-22 18:39:08.80	221.98	3.14	-44.0	-62.0	3.8	8.46e-01	0	52	104	0	59	28924
2026-01-22 18:39:09.81	221.88	3.20	-44.0	-62.0	3.8	8.47e-01	0	52	104	0	59	28896
2026-01-22 18:39:10.83	221.78	3.27	-44.0	-62.0	3.8	8.46e-01	0	52	104	0	59	28810
2026-01-22 18:39:11.84	221.68	3.33	-44.0	-62.0	3.8	8.46e-01	0	52	104	0	59	28850
2026-01-22 18:39:12.85	221.57	3.40	-44.0	-62.0	3.8	8.46e-01	0	52	104	0	59	28887
2026-01-22 18:39:13.86	221.47	3.47	-44.0	-62.0	3.8	8.46e-01	0	52	104	0	59	28831
2026-01-22 18:39:14.87	221.37	3.53	-44.0	-62.0	3.8	8.46e-01	0	52	104	0	59	28895
2026-01-22 18:39:15.88	221.26	3.60	-44.0	-62.0	3.8	8.47e-01	0	52	104	0	59	28867
2026-01-22 18:39:16.89	221.16	3.67	-44.0	-62.0	3.8	8.45e-01	0	53	104	0	59	28877
2026-01-22 18:39:17.90	221.05	3.73	-44.0	-62.0	3.8	8.46e-01	0	52	104	0	59	28921
2026-01-22 18:39:18.91	220.95	3.80	-44.0	-62.0	3.8	8.46e-01	0	53	104	0	59	28899
2026-01-22 18:39:19.92	220.84	3.87	-44.0	-62.0	3.8	8.47e-01	0	53	104	0	59	28846
2026-01-22 18:39:20.93	220.73	3.94	-44.0	-62.0	3.8	8.48e-01	0	53	104	0	59	28913
2026-01-22 18:39:21.94	220.62	4.00	-44.0	-62.0	3.8	8.48e-01	0	53	104	0	59	28842
2026-01-22 18:39:22.95	220.52	4.07	-44.0	-62.0	3.8	8.47e-01	0	53	104	0	59	28862
2026-01-22 18:39:23.96	220.41	4.14	-44.0	-62.0	3.8	8.45e-01	0	53	104	0	59	28892
2026-01-22 18:39:24.97	220.29	4.21	-44.0	-62.0	3.8	8.45e-01	0	53	104	0	59	28986
2026-01-22 18:39:25.98	220.18	4.28	-44.0	-62.0	3.8	8.46e-01	0	53	104	0	59	28821
2026-01-22 18:39:26.99	220.07	4.34	-44.0	-62.0	3.8	8.47e-01	0	53	104	0	59	28922
2026-01-22 18:39:28.01	219.96	4.41	-44.0	-62.0	3.8	8.47e-01	0	53	104	0	59	28851
2026-01-22 18:39:29.01	219.84	4.48	-44.0	-62.0	3.8	8.47e-01	0	53	104	0	59	28872
2026-01-22 18:39:30.02	219.73	4.55	-44.0	-62.0	3.8	8.46e-01	0	53	104	0	59	28905
2026-01-22 18:39:31.04	219.61	4.62	-44.0	-62.0	3.8	8.46e-01	0	53	104	0	59	28949
2026-01-22 18:39:32.05	219.50	4.69	-44.0	-62.0	3.8	8.46e-01	0	54	104	0	59	28837
2026-01-22 18:39:33.06	219.38	4.76	-44.0	-62.0	3.8	8.47e-01	0	53	104	0	59	28901
2026-01-22 18:39:34.07	219.26	4.83	-44.0	-62.0	3.8	8.45e-01	0	54	104	0	59	28836
2026-01-22 18:39:35.08	219.15	4.90	-44.0	-62.0	3.8	8.45e-01	0	54	104	0	59	28764
2026-01-22 18:39:36.09	219.03	4.97	-44.0	-62.0	3.8	8.45e-01	0	54	104	0	59	28814
2026-01-22 18:39:37.10	218.91	5.04	-44.0	-62.0	3.8	8.46e-01	0	54	104	0	59	28724
2026-01-22 18:39:38.11	218.78	5.11	-44.0	-62.0	3.8	8.46e-01	0	54	104	0	59	28826
2026-01-22 18:39:39.12	218.66	5.18	-44.0	-62.0	3.8	8.45e-01	0	54	104	0	59	28680
2026-01-22 18:39:40.12	218.54	5.25	-44.0	-62.0	3.8	8.46e-01	0	54	104	0	59	28774
2026-01-22 18:39:41.13	218.42	5.33	-44.0	-62.0	3.8	8.46e-01	0	54	104	0	59	28834
2026-01-22 18:39:42.14	218.29	5.40	-44.0	-61.8	3.8	8.46e-01	0	54	104	0	59	28241
2026-01-22 18:39:43.15	218.17	5.47	-44.0	-61.7	3.8	8.46e-01	0	54	104	0	59	27719
2026-01-22 18:39:44.16	218.04	5.54	-44.0	-61.3	3.8	8.46e-01	0	54	104	0	59	26502
2026-01-22 18:39:45.17	217.92	5.61	-44.0	-61.0	3.8	8.46e-01	0	54	104	0	59	25679
2026-01-22 18:39:46.19	217.79	5.69	-44.0	-61.0	3.8	8.48e-01	0	54	104	0	59	25595
2026-01-22 18:39:47.20	217.66	5.76	-44.0	-60.8	3.8	8.45e-01	0	54	104	0	59	25061
2026-01-22 18:39:48.20	217.53	5.83	-44.0	-61.1	3.8	8.45e-01	0	54	104	0	59	26140
2026-01-22 18:39:49.21	217.40	5.90	-44.0	-61.2	3.8	8.46e-01	0	54	104	0	59	26445
2026-01-22 18:39:50.23	217.27	5.98	-44.0	-61.4	3.8	8.45e-01	0	54	104	0	59	26905
2026-01-22 18:39:51.24	217.13	6.05	-44.0	-61.5	3.8	8.45e-01	0	55	104	0	59	27319
2026-01-22 18:39:52.25	217.00	6.13	-44.0	-61.5	3.8	8.47e-01	0	54	104	0	59	27202
2026-01-22 18:39:53.26	216.86	6.20	-44.0	-61.3	3.8	8.45e-01	0	55	104	0	59	26598
2026-01-22 18:39:54.27	216.73	6.27	-44.0	-60.2	3.8	8.45e-01	0	55	104	0	59	23499
2026-01-22 18:39:55.28	216.59	6.35	-43.9	-59.9	3.8	8.46e-01	0	55	104	0	59	22585
2026-01-22 18:39:56.29	216.46	6.42	-43.9	-59.6	3.9	8.45e-01	0	55	104	0	59	21781
2026-01-22 18:39:57.30	216.32	6.50	-43.9	-59.4	3.9	8.43e-01	0	55	104	0	59	21438
2026-01-22 18:39:58.31	216.18	6.57	-43.9	-59.2	3.9	8.43e-01	0	55	104	0	59	21012
2026-01-22 18:39:59.32	216.04	6.65	-43.9	-59.2	4.0	8.44e-01	0	55	0	0	59	20796
2026-01-22 18:40:00.33	215.90	6.72	-43.9	-59.1	4.1	8.42e-01	0	55	104	0	59	20541
2026-01-22 18:40:01.34	215.75	6.80	-43.9	-58.4	4.2	8.42e-01	0	55	0	0	59	18972
2026-01-22 18:40:02.35	215.61	6.87	-43.8	-57.7	4.4	8.39e-01	0	55	0	0	59	17587
2026-01-22 18:40:03.36	215.46	6.95	-43.8	-56.9	4.7	8.25e-01	0	55	0	0	59	16099
2026-01-22 18:40:04.37	215.32	7.03	-43.7	-55.9	5.2	8.25e-01	0	55	0	0	59	14231
2026-01-22 18:40:05.38	215.17	7.10	-43.6	-54.4	6.4	7.70e-01	0	55	0	524288	59	12049
2026-01-22 18:40:06.39	215.02	7.18	-43.4	-52.6	8.1	3.11e-01	0	55	0	1572864	58	10297
2026-01-22 18:40:07.40	214.88	7.26	-43.2	-51.5	9.2	3.11e-01	0	55	0	2621440	58	9081
2026-01-22 18:40:08.42	214.72	7.33	-43.1	-51.0	9.7	5.80e-02	0	55	0	4194304	58	8586
2026-01-22 18:40:09.43	214.57	7.41	-43.0	-50.6	10.2	1.53e-02	0	55	0	5242880	58	8240
2026-01-22 18:40:10.44	214.42	7.49	-43.2	-51.4	9.4	1.13e-02	0	55	0	6291456	58	8987
2026-01-22 18:40:11.45	214.27	7.57	-43.4	-52.8	7.9	1.13e-02	0	56	0	7340032	58	10645
2026-01-22 18:40:12.46	214.11	7.64	-43.7	-55.4	5.7	6.01e-02	0	55	0	8388608	58	14227
2026-01-22 18:40:13.47	213.96	7.72	-44.0	-60.0	3.9	5.55e-01	0	55	104	8388608	58	24182
2026-01-22 18:40:14.48	213.80	7.80	-43.9	-59.5	3.9	5.55e-01	0	55	104	8388608	58	22886
2026-01-22 18:40:15.49	213.64	7.88	-43.5	-53.6	6.9	8.45e-01	0	55	0	8388608	58	11585
2026-01-22 18:40:16.50	213.48	7.96	-42.9	-50.1	10.5	3.24e-01	0	56	0	9437184	57	8255
2026-01-22 18:40:17.51	213.32	8.04	-42.3	-48.1	12.8	3.24e-01	0	56	0	10485760	56	6892
2026-01-22 18:40:18.52	213.16	8.12	-42.6	-48.6	12.9	2.09e-03	0	56	0	12058624	56	7315
2026-01-22 18:40:19.53	213.00	8.19	-44.0	-57.5	4.8	1.10e-01	0	56	0	12582912	58	18266
2026-01-22 18:40:20.54	212.83	8.27	-42.0	-47.2	13.0	7.34e-01	0	56	104	12582912	56	6207
2026-01-22 18:40:21.55	212.67	8.35	-41.2	-45.5	15.3	7.34e-01	0	56	0	13107200	54	5754
2026-01-22 18:40:22.56	212.50	8.43	-41.6	-46.3	15.3	1.71e-05	0	56	0	14155776	54	6286
2026-01-22 18:40:23.57	212.33	8.51	-43.0	-50.8	8.7	3.39e-01	0	56	0	14680064	57	8889
2026-01-22 18:40:24.58	212.16	8.59	-41.2	-45.5	15.4	3.39e-01	0	56	0	16252928	54	5740
2026-01-22 18:40:25.59	211.99	8.68	-41.0	-45.1	15.8	6.47e-03	0	56	0	17301504	54	5506
2026-01-22 18:40:26.60	211.82	8.76	-40.9	-44.8	16.2	0.00e+00	0	56	0	18350080	53	5613
2026-01-22 18:40:27.61	211.65	8.84	-40.8	-44.6	16.4	0.00e+00	0	56	0	19398656	53	5522
2026-01-22 18:40:28.62	211.47	8.92	-40.9	-44.7	16.3	0.00e+00	0	56	0	20447232	53	5553
2026-01-22 18:40:29.63	211.30	9.00	-40.9	-44.8	16.3	0.00e+00	0	56	0	22020096	53	5594
2026-01-22 18:40:30.64	211.12	9.08	-41.0	-44.9	16.1	0.00e+00	0	56	0	23068672	53	5714
2026-01-22 18:40:31.65	210.94	9.16	-41.1	-45.0	16.1	0.00e+00	0	56	0	24117248	53	5767
2026-01-22 18:40:32.66	210.76	9.25	-41.0	-44.9	16.2	0.00e+00	0	56	0	25165824	53	5657
2026-01-22 18:40:33.67	210.58	9.33	-41.0	-44.8	16.3	0.00e+00	0	56	0	26214400	53	5654
2026-01-22 18:40:34.68	210.40	9.41	-40.9	-44.7	16.4	0.00e+00	0	56	0	27262976	53	5558
2026-01-22 18:40:35.69	210.21	9.49	-40.9	-44.7	16.4	0.00e+00	0	56	0	28311552	53	5581
2026-01-22 18:40:36.70	210.03	9.58	-40.9	-44.6	16.5	0.00e+00	0	56	0	29884416	53	5512
2026-01-22 18:40:37.70	209.84	9.66	-40.8	-44.4	16.7	0.00e+00	0	56	0	30932992	53	5384
2026-01-22 18:40:38.71	209.65	9.74	-40.8	-44.4	16.7	0.00e+00	0	56	0	31981568	53	5391
2026-01-22 18:40:39.72	209.46	9.82	-40.7	-44.3	16.8	0.00e+00	0	56	0	33030144	53	5340
2026-01-22 18:40:40.73	209.27	9.91	-40.7	-44.2	17.0	0.00e+00	0	56	0	34078720	53	5270
2026-01-22 18:40:41.74	209.08	9.99	-40.7	-44.3	16.9	0.00e+00	0	56	0	35127296	53	5306
2026-01-22 18:40:42.75	208.88	10.08	-40.6	-44.1	17.1	0.00e+00	0	56	0	36700160	53	5199
2026-01-22 18:40:43.76	208.69	10.16	-40.5	-43.9	17.3	0.00e+00	0	56	0	37748736	53	5085
2026-01-22 18:40:44.77	208.49	10.24	-40.5	-43.9	17.4	0.00e+00	0	56	0	38797312	52	5347
2026-01-22 18:40:45.78	208.29	10.33	-40.5	-44.0	17.3	0.00e+00	0	56	0	39845888	52	5429
2026-01-22 18:40:46.79	208.09	10.41	-40.5	-43.9	17.4	0.00e+00	0	56	0	40894464	52	5380
2026-01-22 18:40:47.80	207.89	10.50	-40.5	-44.0	17.3	0.00e+00	0	56	0	41943040	52	5405
2026-01-22 18:40:48.81	207.69	10.58	-40.6	-44.0	17.3	0.00e+00	0	57	0	43515904	52	5450
2026-01-22 18:40:49.82	207.48	10.67	-40.7	-44.1	17.1	0.00e+00	0	57	0	44564480	52	5526
2026-01-22 18:40:50.83	207.27	10.75	-40.7	-44.1	17.2	0.00e+00	0	56	0	45613056	52	5526
2026-01-22 18:40:51.84	207.06	10.84	-40.7	-44.2	17.1	0.00e+00	0	56	0	46661632	52	5548
2026-01-22 18:40:52.85	206.85	10.93	-40.6	-44.1	17.2	0.00e+00	0	57	0	47710208	52	5489
2026-01-22 18:40:53.86	206.64	11.01	-40.7	-44.1	17.2	0.00e+00	0	57	0	48758784	52	5524
2026-01-22 18:40:54.87	206.43	11.10	-40.5	-43.9	17.4	0.00e+00	0	57	0	50331648	52	5355
2026-01-22 18:40:55.88	206.21	11.18	-40.3	-43.6	17.7	0.00e+00	0	57	0	51380224	52	5176
2026-01-22 18:40:56.89	206.00	11.27	-40.4	-43.7	17.7	0.00e+00	0	57	0	52428800	52	5246
2026-01-22 18:40:57.90	205.78	11.36	-40.4	-43.7	17.7	0.00e+00	0	57	0	53477376	52	5231
2026-01-22 18:40:58.91	205.56	11.44	-40.4	-43.7	17.7	0.00e+00	0	57	0	54525952	52	5232
2026-01-22 18:40:59.92	205.33	11.53	-40.2	-43.3	18.1	0.00e+00	0	57	0	55574528	52	5017
2026-01-22 18:41:00.93	205.11	11.62	-40.0	-43.0	18.4	0.00e+00	0	57	0	57147392	52	4846
2026-01-22 18:41:01.94	204.88	11.70	-40.0	-43.1	18.3	0.00e+00	0	57	0	58195968	52	4882
2026-01-22 18:41:02.95	204.66	11.79	-40.1	-43.1	18.3	0.00e+00	0	57	0	59244544	52	4886
2026-01-22 18:41:03.96	204.43	11.88	-40.1	-43.2	18.2	0.00e+00	0	57	0	60293120	52	4937
2026-01-22 18:41:04.97	204.20	11.96	-40.2	-43.3	18.1	0.00e+00	0	57	0	61341696	52	5017
2026-01-22 18:41:05.98	203.96	12.05	-40.2	-43.3	18.1	0.00e+00	0	57	0	62914560	52	5018
2026-01-22 18:41:06.99	203.73	12.14	-40.2	-43.4	18.1	0.00e+00	0	57	0	63963136	52	5052
2026-01-22 18:41:08.00	203.49	12.23	-40.3	-43.4	18.1	0.00e+00	0	57	0	65011712	52	5069
2026-01-22 18:41:09.01	203.25	12.31	-40.3	-43.4	18.1	0.00e+00	0	57	0	66060288	52	5054
2026-01-22 18:41:10.02	203.01	12.40	-40.2	-43.3	18.1	0.00e+00	0	57	0	67108864	52	5017
2026-01-22 18:41:11.03	202.77	12.49	-40.1	-43.1	18.3	0.00e+00	0	57	0	68157440	52	4925
2026-01-22 18:41:12.04	202.53	12.58	-40.0	-43.0	18.5	0.00e+00	0	57	0	69206016	52	4834
2026-01-22 18:41:13.04	202.28	12.66	-40.0	-43.0	18.4	0.00e+00	0	57	0	70778880	52	4861
2026-01-22 18:41:14.05	202.04	12.75	-40.0	-43.0	18.6	0.00e+00	0	57	0	71827456	51	5104
2026-01-22 18:41:15.06	201.79	12.84	-40.1	-43.1	18.5	0.00e+00	0	57	0	72876032	51	5173
2026-01-22 18:41:16.07	201.53	12.93	-40.2	-43.1	18.4	0.00e+00	0	57	0	73924608	51	5207
2026-01-22 18:41:17.08	201.28	13.02	-40.1	-43.1	18.5	0.00e+00	0	57	0	74973184	51	5196
2026-01-22 18:41:18.09	201.02	13.10	-40.1	-43.1	18.4	0.00e+00	0	57	0	76021760	51	5198
2026-01-22 18:41:19.10	200.77	13.19	-40.2	-43.2	18.4	0.00e+00	0	57	0	77594624	51	5232
2026-01-22 18:41:20.11	200.51	13.28	-40.2	-43.2	18.4	0.00e+00	0	57	0	78643200	51	5250
2026-01-22 18:41:21.12	200.24	13.37	-40.2	-43.2	18.4	0.00e+00	0	57	0	79691776	51	5271
2026-01-22 18:41:22.13	199.98	13.46	-40.0	-42.8	18.8	0.00e+00	0	57	0	80740352	51	5026
2026-01-22 18:41:23.14	199.71	13.55	-39.7	-42.5	19.2	0.00e+00	0	57	0	81788928	51	4820
2026-01-22 18:41:24.15	199.45	13.63	-39.6	-42.3	19.3	0.00e+00	0	57	0	82837504	51	4726
2026-01-22 18:41:25.16	199.18	13.72	-39.6	-42.2	19.4	0.00e+00	0	57	0	84410368	51	4686
2026-01-22 18:41:26.17	198.90	13.81	-39.6	-42.3	19.4	0.00e+00	0	57	0	85458944	51	4710
2026-01-22 18:41:27.18	198.63	13.90	-39.6	-42.3	19.3	0.00e+00	0	57	0	86507520	51	4717
2026-01-22 18:41:28.19	198.35	13.99	-39.6	-42.3	19.3	0.00e+00	0	57	0	87556096	51	4741
2026-01-22 18:41:29.20	198.07	14.07	-39.7	-42.4	19.3	0.00e+00	0	57	0	88604672	51	4772
2026-01-22 18:41:30.20	197.80	14.16	-39.8	-42.5	19.1	0.00e+00	0	57	0	89653248	51	4864
2026-01-22 18:41:31.21	197.51	14.25	-39.9	-42.7	19.0	0.00e+00	0	57	0	91226112	51	4938
2026-01-22 18:41:32.22	197.23	14.33	-40.0	-42.8	18.9	0.00e+00	0	57	0	92274688	51	5007
2026-01-22 18:41:33.23	196.94	14.42	-39.9	-42.7	19.0	0.00e+00	0	57	0	93323264	51	4940
2026-01-22 18:41:34.24	196.65	14.51	-39.8	-42.6	19.1	0.00e+00	0	57	0	94371840	51	4893
2026-01-22 18:41:35.25	196.36	14.60	-39.7	-42.5	19.2	0.00e+00	0	57	0	95420416	51	4820
2026-01-22 18:41:36.26	196.07	14.68	-39.6	-42.3	19.3	0.00e+00	0	57	0	96468992	51	4745
2026-01-22 18:41:37.27	195.77	14.77	-39.5	-42.2	19.5	0.00e+00	0	57	0	98041856	51	4664
2026-01-22 18:41:38.28	195.47	14.86	-39.5	-42.1	19.5	0.00e+00	0	57	0	99090432	50	4903
2026-01-22 18:41:39.29	195.17	14.94	-39.5	-42.2	19.5	0.00e+00	0	57	0	100139008	50	4933
2026-01-22 18:41:40.30	194.87	15.03	-39.4	-42.0	19.7	0.00e+00	0	57	0	101187584	50	4819
2026-01-22 18:41:41.31	194.56	15.12	-39.5	-42.1	19.6	0.00e+00	0	58	0	102236160	50	4919
2026-01-22 18:41:42.32	194.26	15.20	-39.6	-42.2	19.5	0.00e+00	0	57	0	103284736	50	4960
2026-01-22 18:41:43.33	193.95	15.29	-39.6	-42.3	19.4	0.00e+00	0	57	0	104857600	50	5009
2026-01-22 18:41:44.34	193.64	15.37	-39.7	-42.4	19.4	0.00e+00	0	58	0	105906176	50	5050
2026-01-22 18:41:45.35	193.32	15.46	-39.9	-42.7	19.0	0.00e+00	0	58	0	106954752	50	5254
2026-01-22 18:41:46.36	193.01	15.54	-39.8	-42.5	19.1	0.00e+00	0	58	0	108003328	50	5159
2026-01-22 18:41:47.37	192.69	15.63	-39.7	-42.4	19.3	0.00e+00	0	57	0	109051904	50	5049
2026-01-22 18:41:48.38	192.37	15.71	-39.8	-42.5	19.2	0.00e+00	0	58	0	110100480	50	5143
2026-01-22 18:41:49.39	192.04	15.80	-39.7	-42.3	19.4	0.00e+00	0	58	0	111673344	50	5040
2026-01-22 18:41:50.40	191.72	15.88	-39.6	-42.2	19.4	0.00e+00	0	58	0	112721920	50	4964
2026-01-22 18:41:51.41	191.39	15.96	-39.2	-41.6	20.1	0.00e+00	0	58	0	113770496	50	4643
2026-01-22 18:41:52.42	191.06	16.04	-39.0	-41.5	20.3	0.00e+00	0	58	0	114819072	50	4554
2026-01-22 18:41:53.43	190.73	16.13	-38.9	-41.2	20.4	0.00e+00	0	58	0	115867648	49	4700
2026-01-22 18:41:54.43	190.40	16.21	-38.8	-41.1	20.6	0.00e+00	0	57	0	116916224	49	4643
2026-01-22 18:41:55.44	190.06	16.29	-38.8	-41.1	20.6	0.00e+00	0	58	0	118489088	49	4630
2026-01-22 18:41:56.45	189.72	16.37	-39.0	-41.4	20.4	0.00e+00	0	58	0	119537664	49	4763
2026-01-22 18:41:57.46	189.38	16.45	-38.9	-41.3	20.4	0.00e+00	0	58	0	120586240	49	4733
2026-01-22 18:41:58.47	189.04	16.53	-38.9	-41.3	20.4	0.00e+00	0	58	0	121634816	49	4729
2026-01-22 18:41:59.48	188.69	16.61	-39.0	-41.5	20.3	0.00e+00	0	58	0	122683392	49	4817
2026-01-22 18:42:00.49	188.34	16.69	-39.1	-41.5	20.2	0.00e+00	0	58	0	123731968	49	4865
2026-01-22 18:42:01.50	187.99	16.77	-39.0	-41.5	20.3	0.00e+00	0	58	0	125304832	49	4817
2026-01-22 18:42:02.51	187.64	16.85	-38.9	-41.3	20.4	0.00e+00	0	58	0	126353408	49	4735
2026-01-22 18:42:03.52	187.28	16.92	-38.9	-41.3	20.4	0.00e+00	0	58	0	127401984	49	4728
2026-01-22 18:42:04.53	186.93	17.00	-38.9	-41.2	20.5	0.00e+00	0	58	0	128450560	49	4691
2026-01-22 18:42:05.53	186.57	17.08	-39.0	-41.3	20.4	0.00e+00	0	58	0	129499136	49	4759
2026-01-22 18:42:06.55	186.20	17.15	-38.9	-41.3	20.4	0.00e+00	0	58	0	130547712	49	4719
2026-01-22 18:42:07.56	185.84	17.23	-38.9	-41.3	20.5	0.00e+00	0	58	0	132120576	49	4709
2026-01-22 18:42:08.57	185.47	17.30	-38.9	-41.3	20.3	0.00e+00	0	58	0	133169152	49	4743
2026-01-22 18:42:09.58	185.10	17.38	-38.8	-41.1	20.5	0.00e+00	0	58	0	134217728	49	4646
2026-01-22 18:42:10.59	184.73	17.45	-38.6	-40.9	20.9	0.00e+00	0	58	0	135266304	49	4502
2026-01-22 18:42:11.60	184.36	17.52	-38.4	-40.7	21.1	0.00e+00	0	58	0	136314880	48	4652
2026-01-22 18:42:12.60	183.99	17.59	-38.3	-40.5	21.2	0.00e+00	0	58	0	137363456	48	4591
2026-01-22 18:42:13.61	183.61	17.66	-38.2	-40.4	21.3	0.00e+00	0	58	0	138936320	48	4504
2026-01-22 18:42:14.62	183.23	17.73	-38.3	-40.5	21.3	0.00e+00	0	58	0	139984896	48	4546
2026-01-22 18:42:15.63	182.85	17.80	-38.3	-40.4	21.3	0.00e+00	0	58	0	141033472	48	4544
2026-01-22 18:42:16.64	182.47	17.87	-38.4	-40.5	21.1	0.00e+00	0	58	0	142082048	48	4594
2026-01-22 18:42:17.65	182.08	17.94	-38.6	-40.9	20.9	0.00e+00	0	58	0	143130624	48	4781
2026-01-22 18:42:18.66	181.69	18.01	-38.5	-40.8	20.9	0.00e+00	0	58	0	144179200	48	4729
2026-01-22 18:42:19.67	181.30	18.07	-38.6	-40.9	20.8	0.00e+00	0	58	0	145752064	48	4794
2026-01-22 18:42:20.68	180.91	18.14	-38.7	-41.0	20.7	0.00e+00	0	58	0	146800640	48	4855
2026-01-22 18:42:21.69	180.51	18.20	-38.7	-40.9	20.7	0.00e+00	0	58	0	147849216	48	4810
2026-01-22 18:42:22.70	180.12	18.26	-38.5	-40.8	20.9	0.00e+00	0	58	0	148897792	48	4720
2026-01-22 18:42:23.71	179.72	18.33	-38.7	-41.0	20.7	0.00e+00	0	58	0	149946368	48	4838
2026-01-22 18:42:24.72	179.32	18.39	-38.8	-41.1	20.6	0.00e+00	0	58	0	150994944	48	4914
2026-01-22 18:42:25.73	178.91	18.45	-38.9	-41.2	20.5	0.00e+00	0	58	0	152567808	48	4976
2026-01-22 18:42:26.74	178.51	18.51	-39.0	-41.4	20.3	0.00e+00	0	58	0	153616384	48	5089
2026-01-22 18:42:27.75	178.10	18.56	-39.0	-41.3	20.4	0.00e+00	0	58	0	154664960	48	5031
2026-01-22 18:42:28.76	177.70	18.62	-38.8	-41.1	20.6	0.00e+00	0	58	0	155713536	48	4916
2026-01-22 18:42:29.76	177.29	18.68	-38.6	-40.9	20.9	0.00e+00	0	58	0	156762112	48	4777
2026-01-22 18:42:30.77	176.88	18.73	-38.5	-40.7	21.1	0.00e+00	0	58	0	157810688	48	4670
2026-01-22 18:42:31.78	176.46	18.79	-38.4	-40.6	21.2	0.00e+00	0	58	0	159383552	48	4626
2026-01-22 18:42:32.79	176.05	18.84	-38.3	-40.5	21.3	0.00e+00	0	58	0	160432128	48	4580
2026-01-22 18:42:33.80	175.63	18.89	-38.3	-40.5	21.2	0.00e+00	0	58	0	161480704	48	4586
2026-01-22 18:42:34.81	175.21	18.94	-38.3	-40.4	21.4	0.00e+00	0	58	0	162529280	48	4534
2026-01-22 18:42:35.82	174.79	18.99	-38.2	-40.3	21.5	0.00e+00	0	58	0	163577856	48	4447
2026-01-22 18:42:36.83	174.37	19.04	-38.3	-40.4	21.4	0.00e+00	0	58	0	164626432	48	4519
2026-01-22 18:42:37.84	173.94	19.08	-38.4	-40.6	21.2	0.00e+00	0	58	0	166199296	48	4613
2026-01-22 18:42:38.85	173.52	19.13	-38.6	-40.8	21.0	0.00e+00	0	58	0	167247872	48	4728
2026-01-22 18:42:39.86	173.09	19.17	-39.0	-41.2	21.0	0.00e+00	0	58	0	168296448	48	4942
2026-01-22 18:42:40.86	172.67	19.22	-38.7	-41.0	20.9	0.00e+00	0	58	0	169345024	48	4830
2026-01-22 18:42:41.87	172.24	19.26	-38.7	-40.9	21.1	0.00e+00	0	59	0	170393600	48	4778
2026-01-22 18:42:42.88	171.81	19.30	-38.4	-40.5	21.4	0.00e+00	0	58	0	171442176	48	4587
2026-01-22 18:42:43.89	171.37	19.34	-38.3	-40.4	21.5	0.00e+00	0	58	0	173015040	48	4536
2026-01-22 18:42:44.90	170.94	19.37	-38.4	-40.5	21.4	0.00e+00	0	58	0	174063616	48	4577
2026-01-22 18:42:45.91	170.51	19.41	-38.2	-40.3	21.6	0.00e+00	0	58	0	175112192	48	4442
2026-01-22 18:42:46.92	170.07	19.44	-38.2	-40.3	21.6	0.00e+00	0	58	0	176160768	48	4485
2026-01-22 18:42:47.93	169.63	19.48	-38.1	-40.1	21.8	0.00e+00	0	58	0	177209344	48	4379
2026-01-22 18:42:48.94	169.19	19.51	-38.3	-40.5	21.4	0.00e+00	0	58	0	178257920	48	4549
2026-01-22 18:42:49.95	168.75	19.54	-38.3	-40.5	21.5	0.00e+00	0	58	0	179830784	48	4547
2026-01-22 18:42:50.96	168.31	19.57	-38.4	-40.5	21.4	0.00e+00	0	58	0	180879360	48	4552
2026-01-22 18:42:51.97	167.87	19.60	-38.3	-40.4	21.6	0.00e+00	0	58	0	181927936	48	4518
2026-01-22 18:42:52.98	167.43	19.62	-38.4	-40.5	21.5	0.00e+00	0	58	0	182976512	48	4553
2026-01-22 18:42:53.99	166.98	19.65	-38.6	-40.7	21.3	0.00e+00	0	58	0	184025088	48	4690
2026-01-22 18:42:54.99	166.54	19.67	-38.7	-40.9	21.2	0.00e+00	0	58	0	185073664	48	4790
2026-01-22 18:42:56.00	166.10	19.69	-38.5	-40.7	21.4	0.00e+00	0	58	0	186646528	48	4653
2026-01-22 18:42:57.01	165.65	19.71	-38.6	-40.8	21.3	0.00e+00	0	58	0	187695104	48	4722
2026-01-22 18:42:58.02	165.21	19.73	-38.3	-40.4	21.6	0.00e+00	0	58	0	188743680	48	4536
2026-01-22 18:42:59.03	164.76	19.75	-38.5	-40.7	21.3	0.00e+00	0	58	0	189792256	48	4657
2026-01-22 18:43:00.04	164.31	19.76	-38.5	-40.6	21.4	0.00e+00	0	58	0	190840832	48	4617
2026-01-22 18:43:01.06	163.86	19.78	-38.5	-40.6	21.4	0.00e+00	0	59	0	191889408	48	4639
2026-01-22 18:43:02.07	163.41	19.79	-38.4	-40.5	21.5	0.00e+00	0	58	0	193462272	48	4592
2026-01-22 18:43:03.08	162.96	19.80	-38.6	-40.8	21.2	0.00e+00	0	59	0	194510848	48	4733
2026-01-22 18:43:04.09	162.51	19.81	-38.5	-40.7	21.3	0.00e+00	0	59	0	195559424	48	4665
2026-01-22 18:43:05.10	162.06	19.82	-38.6	-40.8	21.2	0.00e+00	0	58	0	196608000	48	4731
2026-01-22 18:43:06.11	161.61	19.82	-38.7	-40.9	21.2	0.00e+00	0	58	0	197656576	48	4760
2026-01-22 18:43:07.12	161.16	19.83	-38.6	-40.8	21.3	0.00e+00	0	59	0	198705152	48	4707
2026-01-22 18:43:08.13	160.71	19.83	-38.7	-40.9	21.1	0.00e+00	0	58	0	200278016	48	4762
2026-01-22 18:43:09.14	160.26	19.83	-38.6	-40.8	21.2	0.00e+00	0	58	0	201326592	48	4722
2026-01-22 18:43:10.15	159.81	19.83	-38.6	-40.8	21.3	0.00e+00	0	58	0	202375168	48	4719
2026-01-22 18:43:11.16	159.36	19.83	-38.5	-40.7	21.4	0.00e+00	0	59	0	203423744	48	4673
2026-01-22 18:43:12.17	158.91	19.83	-38.5	-40.6	21.4	0.00e+00	0	59	0	204472320	48	4650
2026-01-22 18:43:13.18	158.46	19.83	-38.5	-40.8	21.2	0.00e+00	0	59	0	205520896	47	5003
2026-01-22 18:43:14.19	158.01	19.82	-38.4	-40.6	21.4	0.00e+00	0	58	0	207093760	47	4888
2026-01-22 18:43:15.19	157.56	19.81	-38.2	-40.4	21.6	0.00e+00	0	59	0	208142336	47	4775
2026-01-22 18:43:16.21	157.11	19.80	-38.4	-40.6	21.5	0.00e+00	0	58	0	209190912	47	4878
2026-01-22 18:43:17.22	156.66	19.79	-38.2	-40.3	21.7	0.00e+00	0	59	0	210239488	47	4748
2026-01-22 18:43:18.22	156.21	19.78	-38.0	-40.1	21.9	0.00e+00	0	59	0	211288064	47	4605
2026-01-22 18:43:19.23	155.77	19.77	-38.1	-40.2	21.8	0.00e+00	0	59	0	212336640	47	4677
2026-01-22 18:43:20.25	155.31	19.75	-38.0	-40.1	21.9	0.00e+00	0	58	0	213909504	47	4608
2026-01-22 18:43:21.25	154.87	19.73	-38.0	-40.1	21.9	0.00e+00	0	59	0	214958080	47	4601
2026-01-22 18:43:22.26	154.43	19.71	-38.0	-40.0	21.9	0.00e+00	0	58	0	216006656	47	4595
2026-01-22 18:43:23.27	153.98	19.69	-38.2	-40.4	21.6	0.00e+00	0	59	0	217055232	47	4770
2026-01-22 18:43:24.28	153.53	19.67	-38.4	-40.7	21.3	0.00e+00	0	59	0	218103808	47	4943
2026-01-22 18:43:25.29	153.09	19.65	-38.7	-41.0	21.0	0.00e+00	0	59	0	219152384	47	5144
2026-01-22 18:43:26.30	152.65	19.63	-38.9	-41.2	20.9	0.00e+00	0	58	0	220725248	48	4948
2026-01-22 18:43:27.31	152.20	19.60	-38.9	-41.2	20.9	0.00e+00	0	59	0	221773824	48	4971
2026-01-22 18:43:28.32	151.76	19.57	-38.8	-41.1	21.0	0.00e+00	0	59	0	222822400	48	4882
2026-01-22 18:43:29.33	151.32	19.54	-38.8	-41.0	21.1	0.00e+00	0	58	0	223870976	48	4855
2026-01-22 18:43:30.33	150.89	19.51	-38.6	-40.9	21.2	0.00e+00	0	59	0	224919552	48	4761
2026-01-22 18:43:31.34	150.45	19.48	-38.3	-40.5	21.5	0.00e+00	0	59	0	225968128	48	4573
2026-01-22 18:43:32.35	150.01	19.45	-38.3	-40.5	21.6	0.00e+00	0	59	0	227540992	48	4548
2026-01-22 18:43:33.36	149.57	19.41	-38.4	-40.6	21.5	0.00e+00	0	59	0	228589568	48	4633
2026-01-22 18:43:34.37	149.14	19.38	-38.7	-40.9	21.2	0.00e+00	0	59	0	229638144	48	4800
2026-01-22 18:43:35.38	148.71	19.34	-38.8	-41.1	21.0	0.00e+00	0	59	0	230686720	48	4898
2026-01-22 18:43:36.39	148.27	19.30	-39.2	-41.6	20.5	0.00e+00	0	59	0	231735296	48	5164
2026-01-22 18:43:37.40	147.84	19.26	-39.2	-41.6	20.4	0.00e+00	0	59	0	232783872	49	4926
2026-01-22 18:43:38.41	147.41	19.22	-38.9	-41.2	20.8	0.00e+00	0	59	0	234356736	49	4690
2026-01-22 18:43:39.42	146.99	19.18	-38.6	-40.8	21.3	0.00e+00	0	59	0	235405312	49	4457
2026-01-22 18:43:40.43	146.56	19.14	-38.4	-40.6	21.5	0.00e+00	0	59	0	236453888	48	4606
2026-01-22 18:43:41.43	146.14	19.09	-38.3	-40.4	21.7	0.00e+00	0	59	0	237502464	48	4524
2026-01-22 18:43:42.44	145.71	19.04	-38.5	-40.7	21.4	0.00e+00	0	59	0	238551040	48	4684
2026-01-22 18:43:43.45	145.29	19.00	-38.5	-40.8	21.3	0.00e+00	0	59	0	239599616	48	4711
2026-01-22 18:43:44.46	144.87	18.95	-38.7	-40.9	21.2	0.00e+00	0	59	0	240648192	48	4813
2026-01-22 18:43:45.47	144.45	18.90	-38.5	-40.8	21.3	0.00e+00	0	59	0	242221056	48	4712
2026-01-22 18:43:46.48	144.04	18.85	-38.3	-40.5	21.5	0.00e+00	0	59	0	243269632	48	4568
2026-01-22 18:43:47.49	143.62	18.80	-38.3	-40.5	21.5	0.00e+00	0	59	0	244318208	48	4579
2026-01-22 18:43:48.50	143.21	18.74	-38.3	-40.5	21.6	0.00e+00	0	59	0	245366784	48	4560
2026-01-22 18:43:49.51	142.80	18.69	-38.3	-40.5	21.5	0.00e+00	0	59	0	246415360	48	4576
2026-01-22 18:43:50.52	142.39	18.63	-38.2	-40.4	21.6	0.00e+00	0	59	0	247463936	48	4543
2026-01-22 18:43:51.53	141.98	18.58	-38.1	-40.3	21.7	0.00e+00	0	59	0	249036800	47	4723
2026-01-22 18:43:52.54	141.57	18.52	-38.3	-40.4	21.6	1.10e-06	0	59	0	250085376	47	4812
2026-01-22 18:43:53.55	141.17	18.46	-38.3	-40.5	21.5	0.00e+00	0	59	0	251133952	47	4870
2026-01-22 18:43:54.56	140.77	18.40	-38.5	-40.8	21.2	0.00e+00	0	59	0	252182528	47	5014
2026-01-22 18:43:55.57	140.37	18.34	-38.5	-40.7	21.3	0.00e+00	0	59	0	253231104	47	4963
2026-01-22 18:43:56.58	139.97	18.28	-38.4	-40.6	21.4	0.00e+00	0	59	0	254803968	47	4920
2026-01-22 18:43:57.59	139.57	18.21	-38.3	-40.5	21.5	0.00e+00	0	59	0	255852544	47	4854
2026-01-22 18:43:58.59	139.18	18.15	-38.5	-40.7	20.6	0.00e+00	0	59	0	256901120	47	4978
2026-01-22 18:43:59.60	138.79	18.09	-38.6	-40.9	21.1	0.00e+00	0	59	0	257949696	47	5076
2026-01-22 18:44:00.61	138.40	18.02	-38.7	-41.0	20.9	0.00e+00	0	59	0	258998272	47	5153
2026-01-22 18:44:01.62	138.01	17.95	-39.0	-41.4	20.7	0.00e+00	0	59	0	260046848	48	5083
2026-01-22 18:44:02.63	137.63	17.89	-39.1	-41.5	20.6	0.00e+00	0	59	0	261619712	48	5106
2026-01-22 18:44:03.64	137.24	17.82	-38.9	-41.3	20.8	0.00e+00	0	59	0	262668288	48	4997
2026-01-22 18:44:04.65	136.86	17.75	-39.0	-41.4	20.7	0.00e+00	0	59	0	263716864	48	5049
2026-01-22 18:44:05.66	136.48	17.68	-38.8	-41.2	20.8	0.00e+00	0	59	0	264765440	48	4937
2026-01-22 18:44:06.67	136.10	17.61	-38.9	-41.3	20.7	0.00e+00	0	59	0	265814016	48	5041
2026-01-22 18:44:07.68	135.73	17.54	-39.0	-41.5	19.7	0.00e+00	0	59	0	266862592	48	5138
2026-01-22 18:44:08.69	135.36	17.47	-38.9	-41.2	20.8	1.10e-06	0	59	0	268435456	48	4975
2026-01-22 18:44:09.69	134.99	17.39	-38.8	-41.2	20.8	0.00e+00	0	59	0	269484032	48	4933
2026-01-22 18:44:10.71	134.62	17.32	-38.7	-41.1	20.8	1.60e-05	0	59	0	270532608	47	5165
2026-01-22 18:44:11.71	134.26	17.25	-35.1	-40.4	19.7	1.60e-05	0	59	0	271581184	44	5667
2026-01-22 18:44:12.72	133.89	17.17	-38.2	-40.5	18.3	4.61e-04	0	59	0	272629760	41	6838
2026-01-22 18:44:13.73	133.53	17.10	-38.4	-40.8	20.8	2.84e-04	0	59	0	273678336	47	4989
2026-01-22 18:44:14.74	133.17	17.02	-38.5	-40.9	20.7	2.84e-04	0	59	0	275251200	47	5071
2026-01-22 18:44:15.75	132.81	16.94	-38.5	-41.0	20.4	8.00e-06	0	59	0	276299776	47	5133
2026-01-22 18:44:16.76	132.46	16.87	-38.7	-41.3	20.3	6.18e-04	0	59	0	277348352	48	5031
2026-01-22 18:44:17.77	132.11	16.79	-38.8	-41.3	19.6	6.18e-04	0	59	0	278396928	47	5296
2026-01-22 18:44:18.78	131.76	16.71	-37.9	-41.4	19.3	1.94e-03	0	59	0	279445504	47	5342
2026-01-22 18:44:19.79	131.41	16.63	-38.6	-41.2	19.5	2.43e-03	0	59	0	280494080	48	4980
2026-01-22 18:44:20.80	131.06	16.55	-38.2	-41.2	19.2	2.43e-03	0	59	0	281542656	47	5224
2026-01-22 18:44:21.81	130.72	16.47	-38.7	-41.4	16.1	2.21e-04	0	59	0	283115520	47	5394
2026-01-22 18:44:22.82	130.38	16.39	-38.5	-41.5	18.7	1.18e-03	0	59	0	284164096	48	5147
2026-01-22 18:44:23.83	130.04	16.31	-38.9	-41.5	20.1	1.81e-03	0	59	0	285212672	48	5137
2026-01-22 18:44:24.83	129.71	16.23	-38.9	-41.7	17.5	1.81e-03	0	59	0	286261248	48	5225
2026-01-22 18:44:25.84	129.38	16.15	-38.9	-41.6	18.0	2.78e-03	0	59	0	287309824	48	5201
2026-01-22 18:44:26.85	129.04	16.07	-39.2	-41.8	19.3	4.31e-04	0	59	0	288358400	49	4999
2026-01-22 18:44:27.86	128.71	15.98	-38.9	-41.8	19.1	4.31e-04	0	59	0	289931264	48	5314
2026-01-22 18:44:28.87	128.39	15.90	-39.1	-41.6	19.8	4.46e-04	0	59	0	290979840	48	5210
2026-01-22 18:44:29.88	128.06	15.82	-39.1	-41.7	19.4	8.82e-04	0	59	0	292028416	48	5244
2026-01-22 18:44:30.89	127.74	15.73	-38.9	-41.6	20.0	8.82e-04	0	59	0	293076992	48	5196
2026-01-22 18:44:31.90	127.42	15.65	-38.9	-41.7	19.1	3.16e-04	0	59	0	294125568	48	5259
2026-01-22 18:44:32.91	127.10	15.57	-38.9	-41.6	19.0	4.95e-04	0	59	0	295174144	48	5209
2026-01-22 18:44:33.91	126.79	15.48	-39.0	-41.6	19.3	4.95e-04	0	59	0	296747008	48	5209
2026-01-22 18:44:34.92	126.48	15.40	-39.1	-41.8	19.3	5.63e-04	0	59	0	297795584	48	5311
2026-01-22 18:44:35.93	126.16	15.31	-39.2	-41.9	19.3	3.67e-04	0	59	0	298844160	49	5080
2026-01-22 18:44:36.94	125.86	15.23	-39.2	-42.2	18.7	7.66e-05	0	59	0	299892736	49	5260
2026-01-22 18:44:37.95	125.55	15.14	-39.5	-42.3	18.7	7.66e-05	0	59	0	300941312	49	5307
2026-01-22 18:44:38.96	125.24	15.06	-39.3	-42.4	18.4	8.44e-04	0	59	0	301989888	49	5355
2026-01-22 18:44:39.96	124.95	14.97	-39.3	-42.4	12.4	6.97e-03	0	59	0	303562752	45	6752
2026-01-22 18:44:40.97	124.65	14.88	-39.4	-42.3	17.7	6.97e-03	0	59	0	304611328	49	5287
2026-01-22 18:44:41.98	124.35	14.80	-34.3	-42.0	11.8	2.98e-03	0	59	0	305659904	34	12150
2026-01-22 18:44:42.99	124.05	14.71	-39.4	-42.2	14.9	8.80e-03	0	59	0	306708480	48	5554
2026-01-22 18:44:44.00	123.76	14.62	-35.9	-42.2	18.2	8.80e-03	0	59	0	307757056	48	5547
2026-01-22 18:44:45.01	123.47	14.54	-38.9	-41.8	18.2	5.77e-03	0	59	0	308805632	48	5316
2026-01-22 18:44:46.02	123.18	14.45	-38.9	-42.1	17.6	8.52e-04	0	59	0	310378496	48	5508
2026-01-22 18:44:47.03	122.89	14.36	-38.8	-42.5	15.2	3.56e-03	0	59	0	311427072	46	6449
2026-01-22 18:44:48.04	122.61	14.28	-38.7	-42.2	17.6	3.56e-03	0	59	0	312475648	47	5866
2026-01-22 18:44:49.05	122.33	14.19	-38.9	-42.6	17.9	1.96e-03	0	59	0	313524224	49	5476
2026-01-22 18:44:50.06	122.05	14.10	-37.7	-42.7	17.9	2.94e-03	0	59	0	314572800	48	5866
2026-01-22 18:44:51.07	121.77	14.01	-36.6	-42.7	16.7	2.94e-03	0	59	0	315621376	48	5884
2026-01-22 18:44:52.07	121.49	13.93	-38.9	-42.6	16.9	3.34e-04	0	59	0	317194240	47	6197
2026-01-22 18:44:53.09	121.22	13.84	-38.8	-42.5	17.2	8.34e-04	0	59	0	318242816	47	6096
2026-01-22 18:44:54.10	120.95	13.75	-39.3	-42.8	16.3	8.34e-04	0	59	0	319291392	46	6651
2026-01-22 18:44:55.11	120.68	13.66	-37.1	-42.2	15.2	1.90e-03	0	59	0	320339968	45	6618
2026-01-22 18:44:56.12	120.41	13.58	-34.5	-42.1	15.4	2.79e-03	0	59	0	321388544	44	6930
2026-01-22 18:44:57.13	120.14	13.49	-37.5	-42.7	16.1	2.79e-03	0	59	0	322437120	47	6255
2026-01-22 18:44:58.14	119.88	13.40	-34.9	-42.5	14.8	4.22e-03	0	59	0	324009984	43	7650
2026-01-22 18:44:59.15	119.62	13.31	-36.9	-43.1	13.8	8.82e-03	0	59	0	325058560	47	6499
2026-01-22 18:45:00.15	119.36	13.23	-34.8	-42.6	12.9	1.35e-02	0	59	0	326107136	39	9783
2026-01-22 18:45:01.16	119.10	13.14	-37.5	-43.1	14.2	1.35e-02	0	59	0	327155712	45	7353
2026-01-22 18:45:02.17	118.85	13.05	-37.8	-42.9	15.6	8.64e-03	0	59	0	328204288	45	7156
2026-01-22 18:45:03.18	118.59	12.96	-34.5	-42.3	15.5	7.66e-03	0	59	0	329252864	43	7511
2026-01-22 18:45:04.19	118.34	12.87	-35.1	-42.6	13.4	7.66e-03	0	59	0	330825728	41	8749
2026-01-22 18:45:05.20	118.09	12.79	-37.6	-42.9	15.3	5.24e-03	0	59	0	331874304	45	7142
2026-01-22 18:45:06.21	117.85	12.70	-38.0	-43.3	15.4	3.98e-03	0	59	0	332922880	46	7056
2026-01-22 18:45:07.22	117.60	12.61	-37.0	-43.2	15.5	3.98e-03	0	59	0	333971456	45	7387
2026-01-22 18:45:08.23	117.36	12.52	-34.0	-43.0	15.2	6.86e-03	0	59	0	335020032	43	8167
2026-01-22 18:45:09.24	117.12	12.44	-37.0	-43.2	14.4	1.23e-02	0	59	0	336068608	43	8308
2026-01-22 18:45:10.25	116.88	12.35	-32.2	-42.5	15.5	1.23e-02	0	59	0	337641472	42	8174
2026-01-22 18:45:11.26	116.64	12.26	-35.7	-43.1	13.5	6.07e-03	0	59	0	338690048	42	8748
2026-01-22 18:45:12.27	116.40	12.17	-37.1	-43.4	15.3	4.26e-03	0	59	0	339738624	44	8043
2026-01-22 18:45:13.27	116.17	12.09	-36.0	-42.9	14.6	4.86e-03	0	59	0	340787200	41	9038
2026-01-22 18:45:14.28	115.94	12.00	-37.7	-43.5	15.0	4.86e-03	0	59	0	341835776	44	8130
2026-01-22 18:45:15.29	115.71	11.91	-36.6	-43.1	15.4	5.44e-03	0	59	0	342884352	42	8697
2026-01-22 18:45:16.30	115.48	11.83	-36.4	-42.8	15.5	9.25e-03	0	59	0	344457216	43	7936
2026-01-22 18:45:17.31	115.25	11.74	-33.3	-42.6	12.7	9.25e-03	0	59	0	345505792	38	10396
2026-01-22 18:45:18.32	115.03	11.65	-36.3	-43.7	13.5	1.36e-02	0	59	0	346554368	42	9351
2026-01-22 18:45:19.33	114.80	11.57	-32.3	-43.7	9.5	4.58e-02	0	59	0	347602944	37	12483
2026-01-22 18:45:20.34	114.58	11.48	-36.2	-43.7	12.6	4.58e-02	0	59	0	348651520	42	9288
2026-01-22 18:45:21.35	114.36	11.39	-36.1	-43.5	12.7	6.48e-02	0	59	0	349700096	43	8565
2026-01-22 18:45:22.36	114.14	11.31	-35.7	-43.9	12.6	2.11e-02	0	59	0	350748672	43	9048
2026-01-22 18:45:23.37	113.92	11.22	-33.4	-43.5	11.7	2.11e-02	0	59	0	352321536	41	9662
2026-01-22 18:45:24.38	113.71	11.14	-36.4	-44.0	11.9	2.83e-02	0	59	0	353370112	42	9702
2026-01-22 18:45:25.39	113.50	11.05	-34.7	-43.9	12.2	3.42e-02	0	59	0	354418688	39	11287
2026-01-22 18:45:26.39	113.29	10.97	-31.5	-43.4	12.6	3.64e-02	0	59	0	355467264	41	9582
2026-01-22 18:45:27.40	113.08	10.88	-35.3	-43.3	12.1	3.64e-02	0	59	0	356515840	40	9981
2026-01-22 18:45:28.41	112.87	10.80	-35.7	-43.3	12.2	4.18e-02	0	59	0	357564416	41	9474
2026-01-22 18:45:29.42	112.66	10.71	-30.4	-43.2	12.1	5.17e-02	0	59	0	359137280	39	10492
2026-01-22 18:45:30.43	112.46	10.63	-35.7	-43.3	11.4	5.17e-02	0	59	0	360185856	41	9431
2026-01-22 18:45:31.44	112.25	10.54	-33.6	-42.9	11.1	5.13e-02	0	59	0	361234432	38	10741
2026-01-22 18:45:32.45	112.05	10.46	-35.0	-43.4	11.2	5.33e-02	0	59	0	362283008	40	10170
2026-01-22 18:45:33.46	111.85	10.37	-36.1	-45.3	10.6	5.33e-02	0	59	0	363331584	41	11906
2026-01-22 18:45:34.47	111.65	10.29	-35.5	-45.2	10.5	9.94e-02	0	59	0	364380160	39	13245
2026-01-22 18:45:35.48	111.46	10.20	-35.6	-45.6	10.6	1.16e-01	0	59	0	365428736	41	12275
2026-01-22 18:45:36.49	111.26	10.12	-30.4	-44.9	9.9	1.16e-01	0	59	0	367001600	38	13451
2026-01-22 18:45:37.50	111.07	10.04	-35.5	-45.3	10.1	1.06e-01	0	59	0	368050176	39	13325
2026-01-22 18:45:38.51	110.87	9.95	-31.7	-45.5	9.4	1.42e-01	0	59	0	369098752	40	12959
2026-01-22 18:45:39.52	110.68	9.87	-35.4	-46.2	10.0	1.30e-01	0	59	0	370147328	41	13259
2026-01-22 18:45:40.53	110.49	9.79	-35.2	-45.3	9.5	1.30e-01	0	59	0	371195904	40	12644
2026-01-22 18:45:41.54	110.31	9.70	-35.5	-44.2	11.1	1.59e-01	0	59	0	372244480	41	10490
2026-01-22 18:45:42.54	110.12	9.62	-32.7	-44.0	12.0	7.69e-02	0	59	0	373293056	41	10292
2026-01-22 18:45:43.55	109.94	9.54	-31.6	-43.8	11.4	7.69e-02	0	59	0	374341632	38	11897
2026-01-22 18:45:44.56	109.75	9.46	-35.2	-43.9	11.5	5.27e-02	0	59	0	375390208	41	10096
2026-01-22 18:45:45.57	109.57	9.37	-33.9	-44.7	12.1	5.64e-02	0	59	0	376963072	42	10421
2026-01-22 18:45:46.58	109.39	9.29	-30.9	-44.1	10.2	5.64e-02	0	59	0	378011648	34	15449
2026-01-22 18:45:47.59	109.21	9.21	-35.9	-45.3	10.1	7.25e-02	0	59	0	379060224	42	11248
2026-01-22 18:45:48.60	109.03	9.13	-35.7	-44.7	11.0	8.92e-02	0	59	0	380108800	42	10514
2026-01-22 18:45:49.61	108.85	9.05	-34.7	-44.5	11.4	8.92e-02	0	59	0	381157376	40	11479
2026-01-22 18:45:50.62	108.68	8.97	-36.7	-45.2	10.9	8.48e-02	0	59	0	382205952	42	11040
2026-01-22 18:45:51.63	108.50	8.88	-36.7	-44.8	11.6	4.44e-02	0	59	0	383778816	43	9953
2026-01-22 18:45:52.64	108.33	8.80	-36.9	-45.0	12.4	4.43e-02	0	59	0	384827392	43	10284
2026-01-22 18:45:53.65	108.16	8.72	-36.3	-44.2	11.8	4.43e-02	0	59	0	385875968	39	11803
2026-01-22 18:45:54.66	107.99	8.64	-30.8	-44.1	13.0	3.30e-02	0	59	0	386924544	43	9227
2026-01-22 18:45:55.67	107.82	8.56	-35.8	-44.7	12.9	2.45e-02	0	59	0	387973120	43	9854
2026-01-22 18:45:56.68	107.65	8.48	-37.6	-44.8	12.3	2.45e-02	0	59	0	389021696	45	8951
2026-01-22 18:45:57.69	107.49	8.40	-36.8	-45.1	11.7	1.77e-02	0	59	0	390594560	45	9199
2026-01-22 18:45:58.70	107.32	8.32	-37.5	-45.2	11.9	2.26e-02	0	60	0	391643136	44	9877
2026-01-22 18:45:59.71	107.16	8.24	-38.4	-45.1	12.9	2.26e-02	0	59	0	392691712	47	8268
2026-01-22 18:46:00.72	107.00	8.16	-38.8	-44.8	13.7	2.26e-02	0	60	0	393740288	47	7950
2026-01-22 18:46:01.73	106.83	8.09	-35.8	-44.9	13.7	5.73e-03	0	59	0	394788864	45	8967
2026-01-22 18:46:02.74	106.67	8.01	-40.2	-52.8	7.2	5.73e-03	0	59	0	395837440	52	14978
2026-01-22 18:46:03.75	106.52	7.93	-44.3	-62.4	4.0	8.72e-02	0	60	104	395837440	59	30233
2026-01-22 18:46:04.76	106.36	7.85	-44.9	-63.1	3.8	8.33e-01	0	59	104	395837440	60	30807
2026-01-22 18:46:05.77	106.20	7.77	-45.1	-63.3	3.8	8.46e-01	0	59	104	395837440	60	31683
2026-01-22 18:46:06.78	106.05	7.69	-45.3	-63.6	3.8	8.46e-01	0	59	104	395837440	61	30837
2026-01-22 18:46:07.79	105.89	7.62	-45.5	-63.8	3.8	8.46e-01	0	60	104	395837440	61	31475
2026-01-22 18:46:08.80	105.74	7.54	-45.6	-63.9	3.8	8.46e-01	0	59	104	395837440	61	31846
2026-01-22 18:46:09.81	105.59	7.46	-45.7	-63.9	3.8	8.46e-01	0	59	104	395837440	61	32175
2026-01-22 18:46:10.82	105.44	7.38	-45.8	-64.1	3.8	8.46e-01	0	60	104	395837440	62	30854
2026-01-22 18:46:11.83	105.29	7.31	-45.8	-64.1	3.8	8.46e-01	0	59	104	395837440	62	30788
2026-01-22 18:46:12.84	105.14	7.23	-45.7	-64.0	3.8	8.46e-01	0	59	104	395837440	62	30417
2026-01-22 18:46:13.85	104.99	7.15	-45.6	-63.8	3.8	8.46e-01	0	59	104	395837440	62	29933
2026-01-22 18:46:14.86	104.84	7.08	-45.5	-63.7	3.8	8.46e-01	0	60	104	395837440	62	29602
2026-01-22 18:46:15.87	104.70	7.00	-45.5	-63.7	3.8	8.46e-01	0	59	104	395837440	62	29355
2026-01-22 18:46:16.88	104.55	6.93	-45.5	-63.6	3.8	8.46e-01	0	60	104	395837440	62	29104
2026-01-22 18:46:17.89	104.41	6.85	-45.4	-63.5	3.8	8.46e-01	0	60	104	395837440	62	28960
2026-01-22 18:46:18.90	104.27	6.78	-45.4	-63.4	3.8	8.46e-01	0	59	104	395837440	62	28650
2026-01-22 18:46:19.91	104.13	6.70	-45.3	-63.4	3.8	8.46e-01	0	59	104	395837440	62	28427
2026-01-22 18:46:20.92	103.99	6.63	-45.3	-63.4	3.8	8.45e-01	0	59	104	395837440	62	28514
2026-01-22 18:46:21.93	103.85	6.55	-45.3	-63.4	3.8	8.46e-01	0	59	104	395837440	62	28476
2026-01-22 18:46:22.94	103.71	6.48	-45.3	-63.4	3.8	8.46e-01	0	59	104	395837440	62	28533
2026-01-22 18:46:23.95	103.57	6.40	-45.3	-63.4	3.8	8.45e-01	0	60	104	395837440	62	28472
2026-01-22 18:46:24.96	103.44	6.33	-45.3	-63.4	3.8	8.46e-01	0	60	104	395837440	62	28509
2026-01-22 18:46:25.97	103.30	6.25	-45.3	-63.4	3.8	8.46e-01	0	59	104	395837440	62	28392
2026-01-22 18:46:26.98	103.17	6.18	-45.3	-63.3	3.8	8.47e-01	0	60	104	395837440	62	28320
2026-01-22 18:46:27.99	103.03	6.11	-45.3	-63.4	3.8	8.47e-01	0	60	104	395837440	62	28402
2026-01-22 18:46:29.00	102.90	6.03	-45.3	-63.4	3.8	8.46e-01	0	59	104	395837440	62	28437
2026-01-22 18:46:30.01	102.77	5.96	-45.3	-63.4	3.8	8.46e-01	0	60	104	395837440	62	28490
2026-01-22 18:46:31.02	102.64	5.89	-45.3	-63.4	3.8	8.46e-01	0	60	104	395837440	62	28409
2026-01-22 18:46:32.04	102.51	5.81	-45.3	-63.4	3.8	8.46e-01	0	59	104	395837440	62	28444
2026-01-22 18:46:33.05	102.38	5.74	-45.3	-63.4	3.8	8.46e-01	0	59	104	395837440	62	28434
2026-01-22 18:46:34.06	102.25	5.67	-45.3	-63.4	3.8	8.46e-01	0	60	104	395837440	62	28409
2026-01-22 18:46:35.07	102.13	5.60	-45.3	-63.4	3.8	8.48e-01	0	60	104	395837440	62	28416
2026-01-22 18:46:36.08	102.00	5.53	-45.3	-63.4	3.8	8.48e-01	0	60	104	395837440	62	28429
2026-01-22 18:46:37.09	101.88	5.45	-45.3	-63.3	3.8	8.46e-01	0	60	104	395837440	62	28344
2026-01-22 18:46:38.10	101.75	5.38	-45.3	-63.4	3.8	8.46e-01	0	60	104	395837440	62	28421
2026-01-22 18:46:39.11	101.63	5.31	-45.3	-63.4	3.8	8.46e-01	0	60	104	395837440	62	28379
2026-01-22 18:46:40.12	101.51	5.24	-45.3	-63.4	3.8	8.46e-01	0	60	104	395837440	62	28441
2026-01-22 18:46:41.12	101.39	5.17	-45.3	-63.4	3.8	8.46e-01	0	59	104	395837440	62	28427
2026-01-22 18:46:42.13	101.27	5.10	-45.3	-63.4	3.8	8.45e-01	0	59	104	395837440	62	28394
2026-01-22 18:46:43.14	101.15	5.03	-45.3	-63.4	3.8	8.45e-01	0	60	104	395837440	62	28483
2026-01-22 18:46:44.15	101.03	4.96	-45.3	-63.4	3.8	8.46e-01	0	60	104	395837440	62	28409
2026-01-22 18:46:45.16	100.91	4.89	-45.3	-63.3	3.8	8.46e-01	0	60	104	395837440	61	29949
2026-01-22 18:46:46.17	100.79	4.82	-45.2	-63.3	3.8	8.46e-01	0	60	104	395837440	61	29971
2026-01-22 18:46:47.19	100.68	4.75	-45.2	-63.3	3.8	8.46e-01	0	60	104	395837440	61	29962
2026-01-22 18:46:48.19	100.56	4.68	-45.2	-63.3	3.8	8.46e-01	0	60	104	395837440	61	30014
2026-01-22 18:46:49.20	100.45	4.61	-45.2	-63.3	3.8	8.46e-01	0	60	104	395837440	61	29960
2026-01-22 18:46:50.21	100.33	4.54	-45.2	-63.3	3.8	8.45e-01	0	60	104	395837440	61	29979
2026-01-22 18:46:51.23	100.22	4.47	-45.2	-63.3	3.8	8.45e-01	0	60	104	395837440	61	29883
2026-01-22 18:46:52.24	100.11	4.40	-45.1	-63.3	3.8	8.45e-01	0	60	104	395837440	61	29926
2026-01-22 18:46:53.24	99.99	4.33	-45.3	-63.3	3.8	8.46e-01	0	59	104	395837440	61	29944
2026-01-22 18:46:54.26	99.88	4.27	-45.2	-63.3	3.8	8.47e-01	0	60	104	395837440	61	29970
2026-01-22 18:46:55.27	99.77	4.20	-45.2	-63.3	3.8	8.46e-01	0	59	104	395837440	61	29876
2026-01-22 18:46:56.28	99.66	4.13	-45.3	-63.3	3.8	8.46e-01	0	60	104	395837440	61	29908
2026-01-22 18:46:57.29	99.55	4.06	-45.2	-63.3	3.8	8.46e-01	0	60	104	395837440	61	29888
2026-01-22 18:46:58.30	99.45	3.99	-45.2	-63.3	3.8	8.47e-01	0	60	104	395837440	61	29855
2026-01-22 18:46:59.31	99.34	3.93	-45.2	-63.3	3.8	8.47e-01	0	60	104	395837440	61	29939
2026-01-22 18:47:00.32	99.23	3.86	-45.2	-63.3	3.8	8.46e-01	0	60	104	395837440	61	29945
2026-01-22 18:47:01.33	99.13	3.79	-45.2	-63.3	3.8	8.45e-01	0	60	104	395837440	61	29919
2026-01-22 18:47:02.34	99.02	3.73	-45.2	-63.3	3.8	8.45e-01	0	60	104	395837440	61	29848
2026-01-22 18:47:03.35	98.92	3.66	-45.2	-63.3	3.8	8.47e-01	0	60	104	395837440	61	29895
2026-01-22 18:47:04.36	98.81	3.59	-45.2	-63.3	3.8	8.47e-01	0	60	104	395837440	61	29870
2026-01-22 18:47:05.37	98.71	3.53	-45.2	-63.3	3.8	8.47e-01	0	60	104	395837440	61	29936
2026-01-22 18:47:06.38	98.61	3.46	-45.2	-63.3	3.8	8.46e-01	0	60	104	395837440	61	29912
2026-01-22 18:47:07.39	98.51	3.39	-45.2	-63.3	3.8	8.46e-01	0	60	104	395837440	61	29822
2026-01-22 18:47:08.40	98.41	3.33	-45.2	-63.3	3.8	8.46e-01	0	60	104	395837440	61	29925
2026-01-22 18:47:09.41	98.30	3.26	-45.2	-63.3	3.8	8.46e-01	0	60	104	395837440	61	29957
2026-01-22 18:47:10.42	98.21	3.20	-45.2	-63.3	3.8	8.46e-01	0	60	104	395837440	61	29846
2026-01-22 18:47:11.43	98.11	3.13	-45.2	-63.3	3.8	8.47e-01	0	60	104	395837440	61	29803
2026-01-22 18:47:12.44	98.01	3.07	-45.2	-63.3	3.8	8.47e-01	0	60	104	395837440	61	29906
2026-01-22 18:47:13.45	97.91	3.00	-45.2	-63.3	3.8	8.46e-01	0	60	104	395837440	61	29921
2026-01-22 18:47:14.46	97.81	2.94	-45.2	-63.3	3.8	8.46e-01	0	60	104	395837440	61	29900
2026-01-22 18:47:15.47	97.72	2.87	-45.2	-63.3	3.8	8.46e-01	0	60	104	395837440	61	29826
2026-01-22 18:47:16.48	97.62	2.81	-45.2	-63.3	3.8	8.46e-01	0	60	104	395837440	61	29869
2026-01-22 18:47:17.49	97.53	2.74	-45.2	-63.3	3.8	8.46e-01	0	60	104	395837440	61	29822
2026-01-22 18:47:18.50	97.43	2.68	-45.2	-63.3	3.8	8.46e-01	0	59	104	395837440	61	29821
2026-01-22 18:47:19.51	97.34	2.62	-45.2	-63.3	3.8	8.47e-01	0	60	104	395837440	61	29943
2026-01-22 18:47:20.52	97.24	2.55	-45.2	-63.3	3.8	8.46e-01	0	60	104	395837440	61	29850
2026-01-22 18:47:21.53	97.15	2.49	-45.2	-63.3	3.8	8.46e-01	0	60	104	395837440	61	29785
2026-01-22 18:47:22.54	97.06	2.42	-45.2	-63.3	3.8	8.46e-01	0	60	104	395837440	61	29850
2026-01-22 18:47:23.55	96.97	2.36	-45.2	-63.3	3.8	8.45e-01	0	60	104	395837440	61	29875
2026-01-22 18:47:24.56	96.88	2.30	-45.2	-63.3	3.8	8.46e-01	0	60	104	395837440	61	29772
2026-01-22 18:47:25.57	96.78	2.23	-45.2	-63.3	3.8	8.46e-01	0	60	104	395837440	61	29853
2026-01-22 18:47:26.59	96.69	2.17	-45.2	-63.3	3.8	8.45e-01	0	60	104	395837440	61	29796
2026-01-22 18:47:27.60	96.60	2.11	-45.2	-63.3	3.8	8.45e-01	0	60	104	395837440	61	29839
2026-01-22 18:47:28.61	96.52	2.05	-45.2	-63.3	3.8	8.45e-01	0	60	104	395837440	61	29818

#Closed at: 2026-01-22 18:47:29
#Recorded file [395 MB]: D:/lorett/data/31039_260122_213851.dat