passes_logs/2026/01/22/R2.0S_Moscow/R2.0S_Moscow__20260122_050520_FENGYUN_3E_rec.log

#Pass ID: 20260122_050520_FENGYUN 3E
#Satellite: FENGYUN 3E
#Configuration: FENGYUN 3E
#almurnet v.1.7.20251203
#Start time: 2026-01-22 05:05:20

#Version: 2.2.20231116
#Station: R2.0S_Moscow
#Location: 37.707566 lon 55.798166 lat
#TLE: 1 49008U 21062A   26021.55921410  .00000414  00000+0  21575-3 0  9991
#TLE: 2 49008  98.7483  26.6103 0002287 125.5068 234.6322 14.19887394235776

#Time	Az	El	Level	Level2	SNR	BER	BlckErr	Temp	State	Recorded	gain1	gain2
2026-01-22 05:05:20.89	11.79	2.02	-40.3	-51.1	3.8	8.45e-01	0	48	0	0	51	12347
2026-01-22 05:05:21.89	11.75	2.08	-40.3	-51.1	3.8	8.46e-01	0	48	104	0	51	12334
2026-01-22 05:05:22.90	11.70	2.14	-40.3	-51.1	3.8	8.46e-01	0	48	104	0	51	12325
2026-01-22 05:05:23.91	11.66	2.20	-40.3	-51.1	3.8	8.46e-01	0	48	104	0	51	12335
2026-01-22 05:05:24.92	11.61	2.27	-40.3	-51.1	3.8	8.46e-01	0	48	104	0	51	12325
2026-01-22 05:05:25.93	11.57	2.33	-40.3	-51.1	3.8	8.47e-01	0	48	104	0	51	12303
2026-01-22 05:05:26.94	11.52	2.39	-40.3	-51.1	3.8	8.46e-01	0	49	104	0	51	12344
2026-01-22 05:05:27.95	11.48	2.45	-40.3	-51.1	3.8	8.46e-01	0	49	104	0	51	12313
2026-01-22 05:05:28.96	11.43	2.51	-40.3	-51.1	3.8	8.45e-01	0	49	104	0	51	12353
2026-01-22 05:05:29.97	11.38	2.57	-40.3	-51.1	3.8	8.46e-01	0	49	104	0	51	12304
2026-01-22 05:05:30.98	11.34	2.64	-40.3	-51.1	3.8	8.45e-01	0	49	104	0	51	12310
2026-01-22 05:05:31.99	11.29	2.70	-40.3	-51.1	3.8	8.45e-01	0	49	104	0	51	12312
2026-01-22 05:05:33.00	11.24	2.76	-40.3	-51.1	3.8	8.46e-01	0	49	104	0	51	12356
2026-01-22 05:05:34.01	11.20	2.82	-40.3	-51.1	3.8	8.46e-01	0	49	104	0	51	12293
2026-01-22 05:05:35.03	11.15	2.89	-40.3	-51.1	3.8	8.47e-01	0	49	104	0	51	12314
2026-01-22 05:05:36.04	11.10	2.95	-40.3	-51.1	3.8	8.47e-01	0	49	104	0	51	12335
2026-01-22 05:05:37.05	11.05	3.01	-40.3	-51.1	3.8	8.47e-01	0	49	104	0	51	12309
2026-01-22 05:05:38.06	11.00	3.08	-40.3	-51.1	3.8	8.46e-01	0	49	104	0	51	12311
2026-01-22 05:05:39.07	10.96	3.14	-40.3	-51.1	3.8	8.47e-01	0	50	104	0	51	12299
2026-01-22 05:05:40.08	10.91	3.20	-40.3	-51.1	3.8	8.47e-01	0	49	104	0	51	12326
2026-01-22 05:05:41.09	10.86	3.27	-40.3	-51.1	3.8	8.46e-01	0	50	104	0	51	12296
2026-01-22 05:05:42.10	10.81	3.33	-40.3	-51.1	3.8	8.46e-01	0	50	104	0	51	12317
2026-01-22 05:05:43.11	10.76	3.39	-40.3	-51.1	3.8	8.46e-01	0	50	104	0	51	12313
2026-01-22 05:05:44.12	10.71	3.46	-40.3	-51.1	3.8	8.46e-01	0	50	104	0	51	12338
2026-01-22 05:05:45.13	10.66	3.52	-40.3	-51.1	3.8	8.46e-01	0	50	104	0	51	12295
2026-01-22 05:05:46.14	10.61	3.58	-40.3	-51.1	3.8	8.46e-01	0	50	104	0	51	12258
2026-01-22 05:05:47.15	10.56	3.65	-40.3	-51.1	3.8	8.47e-01	0	50	104	0	51	12258
2026-01-22 05:05:48.16	10.51	3.71	-40.3	-51.1	3.8	8.47e-01	0	50	104	0	51	12333
2026-01-22 05:05:49.16	10.46	3.78	-40.3	-51.1	3.8	8.47e-01	0	50	104	0	51	12292
2026-01-22 05:05:50.18	10.41	3.84	-40.3	-51.1	3.8	8.46e-01	0	50	104	0	51	12312
2026-01-22 05:05:51.19	10.36	3.90	-40.3	-51.1	3.8	8.46e-01	0	50	104	0	51	12303
2026-01-22 05:05:52.20	10.31	3.97	-40.3	-51.1	3.8	8.45e-01	0	50	104	0	51	12348
2026-01-22 05:05:53.21	10.25	4.03	-40.3	-51.1	3.8	8.46e-01	0	50	104	0	51	12350
2026-01-22 05:05:54.22	10.20	4.10	-40.3	-51.1	3.8	8.46e-01	0	51	104	0	51	12293
2026-01-22 05:05:55.23	10.15	4.16	-40.3	-51.1	3.8	8.47e-01	0	51	104	0	51	12287
2026-01-22 05:05:56.24	10.10	4.23	-40.3	-51.1	3.8	8.46e-01	0	51	104	0	51	12345
2026-01-22 05:05:57.25	10.04	4.30	-40.3	-51.1	3.8	8.46e-01	0	51	104	0	51	12319
2026-01-22 05:05:58.25	9.99	4.36	-40.3	-51.1	3.8	8.45e-01	0	51	104	0	51	12319
2026-01-22 05:05:59.27	9.94	4.43	-40.3	-51.1	3.8	8.45e-01	0	51	104	0	51	12251
2026-01-22 05:06:00.27	9.89	4.49	-40.3	-51.1	3.8	8.46e-01	0	51	104	0	51	12327
2026-01-22 05:06:01.28	9.83	4.56	-40.3	-51.1	3.8	8.45e-01	0	51	104	0	51	12318
2026-01-22 05:06:02.30	9.78	4.62	-40.3	-51.1	3.8	8.47e-01	0	51	104	0	51	12278
2026-01-22 05:06:03.31	9.72	4.69	-40.3	-51.1	3.8	8.46e-01	0	51	104	0	51	12339
2026-01-22 05:06:04.31	9.67	4.76	-40.3	-51.1	3.8	8.45e-01	0	51	104	0	51	12332
2026-01-22 05:06:05.32	9.61	4.82	-40.3	-51.1	3.8	8.46e-01	0	51	104	0	51	12326
2026-01-22 05:06:06.33	9.56	4.89	-40.3	-51.1	3.8	8.47e-01	0	51	104	0	51	12304
2026-01-22 05:06:07.34	9.50	4.96	-40.3	-51.1	3.8	8.45e-01	0	51	104	0	51	12307
2026-01-22 05:06:08.36	9.45	5.02	-40.3	-51.1	3.8	8.47e-01	0	51	104	0	51	12281
2026-01-22 05:06:09.36	9.39	5.09	-40.3	-51.1	3.8	8.46e-01	0	52	104	0	51	12299
2026-01-22 05:06:10.37	9.34	5.16	-40.3	-51.1	3.8	8.47e-01	0	51	104	0	51	12295
2026-01-22 05:06:11.38	9.28	5.22	-40.3	-51.1	3.8	8.46e-01	0	51	104	0	51	12362
2026-01-22 05:06:12.39	9.22	5.29	-40.3	-51.1	3.8	8.45e-01	0	52	104	0	51	12303
2026-01-22 05:06:13.41	9.17	5.36	-40.3	-51.1	3.8	8.45e-01	0	52	104	0	51	12327
2026-01-22 05:06:14.42	9.11	5.43	-40.3	-51.1	3.8	8.46e-01	0	52	104	0	51	12308
2026-01-22 05:06:15.43	9.05	5.50	-40.3	-51.1	3.8	8.46e-01	0	52	104	0	51	12310
2026-01-22 05:06:16.44	8.99	5.56	-40.3	-51.1	3.8	8.46e-01	0	52	104	0	51	12276
2026-01-22 05:06:17.45	8.94	5.63	-40.3	-51.1	3.8	8.46e-01	0	52	104	0	51	12299
2026-01-22 05:06:18.46	8.88	5.70	-40.3	-51.1	3.8	8.45e-01	0	52	104	0	51	12277
2026-01-22 05:06:19.47	8.82	5.77	-40.3	-51.1	3.8	8.46e-01	0	52	104	0	51	12305
2026-01-22 05:06:20.48	8.76	5.84	-40.3	-51.1	3.8	8.46e-01	0	52	104	0	51	12292
2026-01-22 05:06:21.49	8.70	5.91	-40.3	-51.1	3.8	8.46e-01	0	52	104	0	51	12273
2026-01-22 05:06:22.50	8.64	5.97	-40.3	-51.1	3.8	8.46e-01	0	52	104	0	51	12313
2026-01-22 05:06:23.51	8.58	6.04	-40.3	-51.1	3.8	8.45e-01	0	52	104	0	51	12310
2026-01-22 05:06:24.52	8.52	6.11	-40.3	-51.1	3.8	8.46e-01	0	52	104	0	51	12298
2026-01-22 05:06:25.53	8.46	6.18	-40.3	-51.1	3.8	8.47e-01	0	52	104	0	51	12324
2026-01-22 05:06:26.54	8.40	6.25	-40.3	-51.1	3.8	8.45e-01	0	52	104	0	51	12282
2026-01-22 05:06:27.55	8.34	6.32	-40.3	-51.1	3.8	8.46e-01	0	52	104	0	51	12286
2026-01-22 05:06:28.56	8.28	6.39	-40.3	-51.1	3.8	8.47e-01	0	52	104	0	51	12299
2026-01-22 05:06:29.57	8.22	6.46	-40.3	-51.1	3.8	8.45e-01	0	53	104	0	51	12292
2026-01-22 05:06:30.57	8.15	6.53	-40.3	-51.1	3.8	8.46e-01	0	53	104	0	51	12305
2026-01-22 05:06:31.59	8.09	6.60	-40.3	-51.1	3.8	8.46e-01	0	53	104	0	51	12279
2026-01-22 05:06:32.60	8.03	6.67	-40.3	-51.1	3.8	8.46e-01	0	53	104	0	51	12267
2026-01-22 05:06:33.60	7.97	6.74	-40.3	-51.1	3.8	8.47e-01	0	53	104	0	51	12280
2026-01-22 05:06:34.61	7.90	6.81	-40.3	-51.1	3.8	8.46e-01	0	53	104	0	51	12278
2026-01-22 05:06:35.62	7.84	6.88	-40.3	-51.1	3.8	8.46e-01	0	53	104	0	51	12275
2026-01-22 05:06:36.63	7.77	6.96	-40.3	-51.1	3.8	8.46e-01	0	53	104	0	51	12292
2026-01-22 05:06:37.64	7.71	7.03	-40.3	-51.1	3.8	8.45e-01	0	53	104	0	51	12321
2026-01-22 05:06:38.65	7.65	7.10	-40.3	-51.1	3.8	8.46e-01	0	53	104	0	51	12277
2026-01-22 05:06:39.66	7.58	7.17	-40.3	-51.1	3.8	8.45e-01	0	53	104	0	51	12281
2026-01-22 05:06:40.67	7.52	7.24	-40.3	-51.1	3.8	8.46e-01	0	53	104	0	51	12317
2026-01-22 05:06:41.68	7.45	7.31	-40.3	-51.1	3.8	8.47e-01	0	53	104	0	51	12284
2026-01-22 05:06:42.69	7.38	7.39	-40.3	-51.1	3.8	8.46e-01	0	53	104	0	51	12286
2026-01-22 05:06:43.70	7.32	7.46	-40.3	-51.1	3.8	8.46e-01	0	53	104	0	51	12285
2026-01-22 05:06:44.71	7.25	7.53	-40.3	-51.1	3.8	8.47e-01	0	53	104	0	51	12281
2026-01-22 05:06:45.72	7.18	7.60	-40.3	-51.1	3.8	8.46e-01	0	53	104	0	51	12313
2026-01-22 05:06:46.73	7.12	7.68	-40.3	-51.1	3.8	8.46e-01	0	53	104	0	51	12297
2026-01-22 05:06:47.74	7.05	7.75	-40.3	-51.1	3.8	8.47e-01	0	53	104	0	51	12276
2026-01-22 05:06:48.75	6.98	7.82	-40.3	-51.1	3.8	8.45e-01	0	53	104	0	51	12260
2026-01-22 05:06:49.76	6.91	7.89	-40.3	-51.1	3.8	8.46e-01	0	53	104	0	51	12323
2026-01-22 05:06:50.77	6.84	7.97	-40.3	-51.1	3.8	8.46e-01	0	54	104	0	51	12287
2026-01-22 05:06:51.78	6.77	8.04	-40.3	-51.1	3.8	8.47e-01	0	53	104	0	51	12294
2026-01-22 05:06:52.79	6.70	8.12	-40.3	-51.1	3.8	8.46e-01	0	53	104	0	51	12337
2026-01-22 05:06:53.80	6.63	8.19	-40.4	-51.2	3.8	8.46e-01	0	53	104	0	51	12434
2026-01-22 05:06:54.81	6.56	8.26	-40.3	-51.1	3.8	8.46e-01	0	54	104	0	51	12321
2026-01-22 05:06:55.82	6.49	8.34	-40.4	-51.2	3.8	8.46e-01	0	54	104	0	51	12458
2026-01-22 05:06:56.83	6.42	8.41	-40.4	-51.2	3.8	8.46e-01	0	54	104	0	51	12376
2026-01-22 05:06:57.84	6.35	8.49	-40.5	-51.3	3.8	8.46e-01	0	54	104	0	51	12554
2026-01-22 05:06:58.85	6.28	8.56	-40.3	-51.1	3.8	8.45e-01	0	54	104	0	51	12348
2026-01-22 05:06:59.86	6.21	8.64	-40.4	-51.2	3.8	8.47e-01	0	54	104	0	51	12455
2026-01-22 05:07:00.86	6.13	8.71	-40.4	-51.2	3.8	8.46e-01	0	54	104	0	51	12403
2026-01-22 05:07:01.88	6.06	8.79	-40.5	-51.3	3.8	8.46e-01	0	54	104	0	51	12555
2026-01-22 05:07:02.89	5.99	8.86	-40.3	-51.1	3.8	8.46e-01	0	54	104	0	51	12341
2026-01-22 05:07:03.90	5.91	8.94	-40.5	-51.2	3.8	8.45e-01	0	54	104	0	51	12491
2026-01-22 05:07:04.91	5.84	9.01	-40.3	-51.1	3.8	8.46e-01	0	54	104	0	51	12350
2026-01-22 05:07:05.91	5.76	9.09	-40.6	-51.4	3.8	8.45e-01	0	54	104	0	51	12724
2026-01-22 05:07:06.92	5.69	9.17	-40.3	-51.1	3.8	8.46e-01	0	54	104	0	51	12331
2026-01-22 05:07:07.93	5.61	9.24	-40.6	-51.3	3.8	8.47e-01	0	54	104	0	51	12602
2026-01-22 05:07:08.95	5.54	9.32	-40.3	-51.1	3.8	8.47e-01	0	54	104	0	51	12334
2026-01-22 05:07:09.95	5.46	9.40	-40.8	-51.6	3.8	8.47e-01	0	54	104	0	51	13003
2026-01-22 05:07:10.96	5.38	9.47	-40.3	-51.1	3.8	8.46e-01	0	54	104	0	51	12308
2026-01-22 05:07:11.97	5.31	9.55	-40.6	-51.4	3.8	8.45e-01	0	54	104	0	51	12739
2026-01-22 05:07:12.98	5.23	9.63	-40.4	-51.1	3.8	8.46e-01	0	54	104	0	51	12321
2026-01-22 05:07:13.99	5.15	9.71	-40.9	-51.7	3.8	8.46e-01	0	54	104	0	51	13136
2026-01-22 05:07:15.00	5.07	9.78	-40.3	-51.1	3.8	8.44e-01	0	54	104	0	51	12301
2026-01-22 05:07:16.01	4.99	9.86	-40.5	-51.2	3.8	8.46e-01	0	54	104	0	51	12481
2026-01-22 05:07:17.02	4.91	9.94	-40.3	-51.1	3.8	8.46e-01	0	54	104	0	51	12289
2026-01-22 05:07:18.03	4.83	10.02	-40.3	-51.1	3.8	8.45e-01	0	54	104	0	51	12337
2026-01-22 05:07:19.04	4.75	10.10	-40.3	-51.1	3.8	8.46e-01	0	54	104	0	51	12260
2026-01-22 05:07:20.05	4.67	10.18	-40.3	-51.1	3.8	8.46e-01	0	55	104	0	51	12327
2026-01-22 05:07:21.06	4.59	10.25	-40.5	-51.2	3.8	8.46e-01	0	55	104	0	51	12515
2026-01-22 05:07:22.07	4.51	10.33	-40.4	-51.2	3.8	8.47e-01	0	55	104	0	51	12397
2026-01-22 05:07:23.08	4.43	10.41	-41.1	-51.8	3.8	8.46e-01	0	54	104	0	51	13365
2026-01-22 05:07:24.09	4.35	10.49	-40.7	-51.5	3.8	8.46e-01	0	55	104	0	51	12862
2026-01-22 05:07:25.10	4.26	10.57	-40.4	-51.2	3.8	8.46e-01	0	55	104	0	51	12507
2026-01-22 05:07:26.10	4.18	10.65	-40.6	-51.4	3.8	8.46e-01	0	55	104	0	51	12714
2026-01-22 05:07:27.11	4.10	10.73	-40.6	-51.4	3.8	8.47e-01	0	55	104	0	51	12675
2026-01-22 05:07:28.12	4.01	10.81	-40.6	-51.4	3.8	8.46e-01	0	55	104	0	51	12688
2026-01-22 05:07:29.13	3.93	10.89	-40.7	-51.5	3.8	8.47e-01	0	55	104	0	51	12854
2026-01-22 05:07:30.14	3.84	10.97	-40.5	-51.3	3.8	8.46e-01	0	55	104	0	51	12577
2026-01-22 05:07:31.15	3.75	11.05	-41.2	-52.0	3.8	8.46e-01	0	55	104	0	52	12833
2026-01-22 05:07:32.16	3.67	11.14	-40.6	-51.4	3.8	8.46e-01	0	55	104	0	52	11968
2026-01-22 05:07:33.17	3.58	11.22	-40.5	-51.3	3.8	8.46e-01	0	54	104	0	51	12615
2026-01-22 05:07:34.18	3.49	11.30	-40.6	-51.3	3.8	8.47e-01	0	55	104	0	51	12640
2026-01-22 05:07:35.19	3.41	11.38	-40.6	-51.3	3.8	8.47e-01	0	55	104	0	51	12633
2026-01-22 05:07:36.20	3.32	11.46	-40.6	-51.3	3.8	8.46e-01	0	55	104	0	51	12612
2026-01-22 05:07:37.21	3.23	11.54	-40.6	-51.4	3.8	8.46e-01	0	55	104	0	51	12745
2026-01-22 05:07:38.22	3.14	11.63	-40.6	-51.4	3.8	8.46e-01	0	55	104	0	51	12727
2026-01-22 05:07:39.23	3.05	11.71	-41.4	-52.1	3.8	8.45e-01	0	55	104	0	52	12978
2026-01-22 05:07:40.24	2.96	11.79	-40.8	-51.6	3.8	8.47e-01	0	55	104	0	52	12248
2026-01-22 05:07:41.25	2.87	11.87	-40.6	-51.3	3.8	8.45e-01	0	55	104	0	52	11916
2026-01-22 05:07:42.26	2.77	11.96	-40.7	-51.3	3.8	8.47e-01	0	55	104	0	52	11954
2026-01-22 05:07:43.27	2.68	12.04	-40.7	-51.4	3.8	8.45e-01	0	55	104	0	52	11983
2026-01-22 05:07:44.28	2.59	12.13	-40.6	-51.4	3.8	8.47e-01	0	55	104	0	52	12078
2026-01-22 05:07:45.30	2.49	12.21	-40.8	-51.4	3.8	8.44e-01	0	55	104	0	52	12029
2026-01-22 05:07:46.30	2.40	12.29	-40.8	-51.5	3.8	8.46e-01	0	55	104	0	52	12137
2026-01-22 05:07:47.32	2.31	12.38	-41.6	-51.7	3.8	8.47e-01	0	55	104	0	53	11729
2026-01-22 05:07:48.33	2.21	12.46	-41.0	-51.6	3.8	8.46e-01	0	55	104	0	53	11629
2026-01-22 05:07:49.33	2.12	12.55	-40.7	-51.3	3.8	8.46e-01	0	55	104	0	52	11876
2026-01-22 05:07:50.34	2.02	12.63	-40.9	-51.6	3.8	8.45e-01	0	55	104	0	52	12283
2026-01-22 05:07:51.35	1.92	12.72	-41.0	-51.6	3.8	8.47e-01	0	55	104	0	52	12242
2026-01-22 05:07:52.36	1.83	12.80	-41.0	-51.6	3.8	8.46e-01	0	56	104	0	52	12345
2026-01-22 05:07:53.37	1.73	12.89	-41.1	-51.5	3.8	8.45e-01	0	55	104	0	52	12186
2026-01-22 05:07:54.38	1.63	12.97	-41.1	-51.6	3.8	8.46e-01	0	55	104	0	52	12251
2026-01-22 05:07:55.39	1.53	13.06	-41.9	-48.5	4.8	8.32e-01	0	55	0	0	53	8155
2026-01-22 05:07:56.40	1.43	13.15	-41.6	-47.3	5.5	7.09e-01	0	55	0	0	53	7045
2026-01-22 05:07:57.41	1.33	13.23	-41.9	-50.6	3.8	8.46e-01	0	55	104	0	53	10384
2026-01-22 05:07:58.42	1.23	13.32	-41.1	-45.8	6.7	2.30e-01	0	55	0	4194304	53	5958
2026-01-22 05:07:59.43	1.13	13.41	-40.9	-45.1	7.3	1.42e-01	0	55	0	11534336	52	5837
2026-01-22 05:08:00.44	1.03	13.49	-40.4	-44.0	8.6	5.98e-02	0	55	0	18874368	51	5434
2026-01-22 05:08:01.45	0.92	13.58	-39.4	-42.2	10.4	8.98e-03	0	55	0	26214400	49	4975
2026-01-22 05:08:02.46	0.82	13.67	-39.1	-41.7	11.0	2.81e-03	0	55	0	33554432	49	4680
2026-01-22 05:08:03.47	0.72	13.76	-38.2	-40.4	12.2	3.56e-04	0	55	0	40894464	47	4516
2026-01-22 05:08:04.47	0.61	13.84	-37.5	-39.5	13.2	4.23e-05	0	56	0	48234496	46	4312
2026-01-22 05:08:05.48	0.51	13.93	-37.1	-38.9	13.8	3.40e-06	0	55	0	55574528	45	4278
2026-01-22 05:08:06.49	0.40	14.02	-36.8	-38.6	14.1	3.40e-06	0	55	0	62914560	44	4376
2026-01-22 05:08:07.51	0.29	14.11	-37.1	-38.9	14.0	2.20e-06	0	55	0	70254592	44	4519
2026-01-22 05:08:08.52	0.19	14.20	-37.2	-39.0	13.9	4.50e-06	0	55	0	77594624	44	4586
2026-01-22 05:08:09.53	0.08	14.29	-37.3	-39.1	13.8	1.02e-05	0	55	0	84934656	44	4650
2026-01-22 05:08:10.54	359.97	14.38	-37.5	-39.4	13.7	1.02e-05	0	56	0	92274688	44	4764
2026-01-22 05:08:11.55	359.86	14.47	-37.4	-39.3	13.8	9.10e-06	0	56	0	99614720	44	4715
2026-01-22 05:08:12.56	359.75	14.55	-37.6	-39.4	13.7	2.20e-06	0	56	0	106954752	45	4534
2026-01-22 05:08:13.57	359.64	14.64	-37.5	-39.3	13.9	6.80e-06	0	55	0	114294784	45	4491
2026-01-22 05:08:14.58	359.53	14.73	-37.4	-39.2	14.2	4.50e-06	0	56	0	120586240	45	4423
2026-01-22 05:08:15.58	359.42	14.82	-37.4	-39.1	14.4	0.00e+00	0	56	0	127926272	45	4359
2026-01-22 05:08:16.59	359.30	14.92	-37.4	-39.1	14.4	1.10e-06	0	56	0	136314880	45	4376
2026-01-22 05:08:17.60	359.19	15.01	-37.4	-39.2	14.4	1.10e-06	0	56	0	142606336	45	4392
2026-01-22 05:08:18.61	359.08	15.10	-37.6	-39.3	14.3	0.00e+00	0	56	0	149946368	45	4486
2026-01-22 05:08:19.62	358.96	15.19	-37.5	-39.2	14.4	0.00e+00	0	56	0	157286400	45	4439
2026-01-22 05:08:20.63	358.84	15.28	-37.3	-38.9	14.7	0.00e+00	0	56	0	164626432	45	4291
2026-01-22 05:08:21.64	358.73	15.37	-37.2	-38.9	14.7	0.00e+00	0	56	0	171966464	45	4273
2026-01-22 05:08:22.65	358.61	15.46	-37.1	-38.8	14.9	3.40e-06	0	56	0	179306496	45	4204
2026-01-22 05:08:23.66	358.49	15.56	-37.5	-39.3	14.5	0.00e+00	0	56	0	186646528	45	4442
2026-01-22 05:08:24.66	358.38	15.65	-37.3	-39.1	14.6	1.10e-06	0	56	0	193986560	45	4347
2026-01-22 05:08:25.67	358.26	15.74	-37.2	-38.9	14.8	2.20e-06	0	56	0	201326592	45	4276
2026-01-22 05:08:26.68	358.14	15.83	-37.3	-39.0	14.7	0.00e+00	0	56	0	208666624	45	4295
2026-01-22 05:08:27.69	358.02	15.93	-37.3	-39.0	14.5	0.00e+00	0	56	0	216006656	45	4312
2026-01-22 05:08:28.70	357.89	16.02	-37.5	-39.3	14.2	0.00e+00	0	56	0	223346688	45	4479
2026-01-22 05:08:29.72	357.77	16.11	-37.4	-39.1	14.3	2.20e-06	0	56	0	230686720	45	4381
2026-01-22 05:08:30.73	357.65	16.21	-37.1	-38.9	14.5	0.00e+00	0	56	0	238026752	45	4256
2026-01-22 05:08:31.74	357.52	16.30	-37.1	-38.9	14.4	0.00e+00	0	56	0	245366784	45	4259
2026-01-22 05:08:32.75	357.40	16.40	-37.0	-38.8	14.5	0.00e+00	0	56	0	252706816	45	4209
2026-01-22 05:08:33.76	357.27	16.49	-37.1	-38.9	14.3	3.40e-06	0	56	0	260046848	44	4509
2026-01-22 05:08:34.77	357.14	16.59	-37.0	-38.7	14.5	0.00e+00	0	56	0	267386880	44	4426
2026-01-22 05:08:35.78	357.02	16.68	-36.9	-38.6	14.5	5.70e-06	0	56	0	273678336	44	4358
2026-01-22 05:08:36.79	356.89	16.78	-36.9	-38.7	14.4	0.00e+00	0	56	0	281018368	44	4420
2026-01-22 05:08:37.80	356.76	16.87	-37.0	-38.7	14.3	1.10e-06	0	56	0	289406976	44	4436
2026-01-22 05:08:38.81	356.63	16.97	-37.1	-39.0	13.9	2.20e-06	0	56	0	295698432	44	4554
2026-01-22 05:08:39.81	356.50	17.06	-37.5	-39.5	13.3	1.37e-05	0	56	0	303038464	44	4835
2026-01-22 05:08:40.82	356.37	17.16	-38.0	-40.2	12.4	1.05e-04	0	56	0	310378496	45	4946
2026-01-22 05:08:41.83	356.24	17.25	-38.6	-41.1	11.2	1.06e-03	0	56	0	317718528	46	5216
2026-01-22 05:08:42.84	356.10	17.35	-39.5	-42.6	9.6	7.97e-03	0	56	0	325058560	48	5493
2026-01-22 05:08:43.85	355.97	17.45	-40.0	-43.8	8.2	3.82e-02	0	56	0	332398592	49	5933
2026-01-22 05:08:44.86	355.83	17.54	-40.5	-45.0	6.8	1.37e-01	0	56	0	339738624	50	6492
2026-01-22 05:08:45.88	355.70	17.64	-40.9	-46.7	5.4	6.66e-01	0	56	0	346030080	51	7410
2026-01-22 05:08:46.89	355.56	17.74	-41.3	-48.7	4.3	8.20e-01	0	56	0	347078656	52	8783
2026-01-22 05:08:47.89	355.42	17.84	-41.4	-50.1	3.9	8.44e-01	0	56	104	347078656	52	10396
2026-01-22 05:08:48.90	355.28	17.93	-41.4	-50.5	3.9	8.45e-01	0	56	104	347078656	52	10894
2026-01-22 05:08:49.91	355.14	18.03	-41.4	-51.1	3.8	8.46e-01	0	56	104	347078656	52	11566
2026-01-22 05:08:50.92	355.00	18.13	-41.4	-51.6	3.8	8.46e-01	0	56	104	347078656	52	12299
2026-01-22 05:08:51.93	354.86	18.23	-42.0	-52.2	3.8	8.47e-01	0	56	104	347078656	53	12393
2026-01-22 05:08:52.94	354.72	18.33	-41.9	-52.2	3.8	8.45e-01	0	56	104	347078656	53	12435
2026-01-22 05:08:53.95	354.58	18.42	-41.2	-52.0	3.8	8.46e-01	0	56	104	347078656	53	12166
2026-01-22 05:08:54.96	354.43	18.52	-41.5	-51.9	3.8	8.46e-01	0	56	104	347078656	53	11987
2026-01-22 05:08:55.97	354.29	18.62	-41.5	-52.2	3.8	8.46e-01	0	56	104	347078656	53	12517
2026-01-22 05:08:56.97	354.14	18.72	-41.6	-52.2	3.8	8.47e-01	0	57	104	347078656	53	12487
2026-01-22 05:08:57.99	353.99	18.82	-41.8	-52.1	3.8	8.46e-01	0	56	104	347078656	53	12269
2026-01-22 05:08:58.99	353.85	18.92	-41.6	-52.3	3.8	8.46e-01	0	56	104	347078656	53	12620
2026-01-22 05:09:00.00	353.70	19.02	-41.6	-52.4	3.8	8.45e-01	0	56	104	347078656	53	12672
2026-01-22 05:09:01.01	353.55	19.12	-41.9	-52.4	3.8	8.46e-01	0	56	104	347078656	53	12781
2026-01-22 05:09:02.02	353.40	19.22	-41.2	-51.9	3.8	8.45e-01	0	56	104	347078656	53	12079
2026-01-22 05:09:03.03	353.24	19.32	-41.2	-51.8	3.8	8.47e-01	0	56	104	347078656	53	11865
2026-01-22 05:09:04.04	353.09	19.42	-41.1	-51.6	3.8	8.45e-01	0	56	104	347078656	53	11679
2026-01-22 05:09:05.05	352.94	19.52	-41.1	-51.6	3.8	8.46e-01	0	56	104	347078656	53	11565
2026-01-22 05:09:06.06	352.78	19.63	-41.2	-51.8	3.8	8.46e-01	0	56	104	347078656	53	11902
2026-01-22 05:09:07.06	352.63	19.73	-41.2	-51.8	3.8	8.46e-01	0	57	104	347078656	53	11883
2026-01-22 05:09:08.07	352.47	19.83	-42.0	-51.6	3.8	8.45e-01	0	57	104	347078656	53	11658
2026-01-22 05:09:09.08	352.31	19.93	-42.3	-50.6	4.1	8.42e-01	0	57	104	347078656	54	9723
2026-01-22 05:09:10.09	352.15	20.03	-42.0	-52.7	3.8	8.45e-01	0	57	104	347078656	54	12474
2026-01-22 05:09:11.10	351.99	20.13	-42.2	-49.5	4.4	8.34e-01	0	57	0	347078656	54	8628
2026-01-22 05:09:12.11	351.83	20.24	-42.1	-48.6	4.8	8.05e-01	0	57	0	347078656	54	7785
2026-01-22 05:09:13.12	351.66	20.34	-42.2	-48.7	4.8	7.94e-01	0	57	0	347078656	54	7889
2026-01-22 05:09:14.13	351.50	20.44	-42.2	-48.8	4.8	8.00e-01	0	57	0	347078656	54	7987
2026-01-22 05:09:15.14	351.33	20.54	-42.2	-48.5	5.0	7.70e-01	0	57	0	347078656	54	7632
2026-01-22 05:09:16.15	351.17	20.65	-42.1	-48.2	5.2	7.63e-01	0	56	0	347078656	54	7436
2026-01-22 05:09:17.15	351.00	20.75	-43.5	-54.4	3.8	8.47e-01	0	57	104	347078656	56	13448
2026-01-22 05:09:18.17	350.83	20.85	-41.7	-47.0	5.9	7.08e-01	0	57	0	347078656	54	6444
2026-01-22 05:09:19.18	350.66	20.96	-41.6	-51.6	3.8	8.46e-01	0	57	104	350224384	52	12248
2026-01-22 05:09:20.19	350.49	21.06	-40.4	-44.1	8.4	6.70e-02	0	57	0	352321536	51	5483
2026-01-22 05:09:21.19	350.32	21.16	-41.4	-48.5	4.4	8.11e-01	0	57	0	356515840	52	8633
2026-01-22 05:09:22.20	350.15	21.27	-38.6	-41.1	11.4	1.05e-03	0	56	0	362807296	48	4618
2026-01-22 05:09:23.21	349.97	21.37	-38.2	-40.6	11.8	5.17e-04	0	57	0	370147328	47	4635
2026-01-22 05:09:24.22	349.80	21.48	-38.0	-40.2	12.3	1.56e-04	0	57	0	377487360	46	4680
2026-01-22 05:09:25.23	349.62	21.58	-37.4	-39.4	13.2	4.46e-05	0	57	0	384827392	45	4512
2026-01-22 05:09:26.24	349.44	21.68	-37.1	-39.0	13.7	8.00e-06	0	56	0	392167424	45	4325
2026-01-22 05:09:27.25	349.26	21.79	-36.7	-38.4	14.4	2.20e-06	0	57	0	399507456	44	4269
2026-01-22 05:09:28.26	349.08	21.89	-36.1	-37.6	15.1	0.00e+00	0	57	0	406847488	43	4142
2026-01-22 05:09:29.27	348.90	22.00	-35.7	-37.2	15.6	0.00e+00	0	57	0	414187520	42	4181
2026-01-22 05:09:30.28	348.72	22.10	-35.7	-37.2	15.7	0.00e+00	0	57	0	421527552	42	4155
2026-01-22 05:09:31.29	348.53	22.21	-35.8	-37.3	15.7	0.00e+00	0	56	0	428867584	41	4445
2026-01-22 05:09:32.30	348.35	22.31	-35.9	-37.4	15.6	0.00e+00	0	57	0	436207616	41	4515
2026-01-22 05:09:33.31	348.16	22.42	-35.7	-37.2	15.8	0.00e+00	0	57	0	443547648	41	4422
2026-01-22 05:09:34.32	347.97	22.52	-35.6	-37.0	16.1	0.00e+00	0	57	0	449839104	41	4329
2026-01-22 05:09:35.33	347.78	22.63	-35.6	-37.0	16.2	0.00e+00	0	57	0	457179136	41	4338
2026-01-22 05:09:36.34	347.59	22.74	-35.6	-37.0	16.3	0.00e+00	0	57	0	465567744	41	4339
2026-01-22 05:09:37.35	347.40	22.84	-35.8	-37.3	16.1	0.00e+00	0	57	0	471859200	41	4442
2026-01-22 05:09:38.36	347.20	22.95	-35.8	-37.3	16.2	0.00e+00	0	57	0	479199232	41	4443
2026-01-22 05:09:39.37	347.01	23.05	-35.8	-37.2	16.4	0.00e+00	0	57	0	486539264	41	4429
2026-01-22 05:09:40.38	346.81	23.16	-36.0	-37.5	16.2	0.00e+00	0	57	0	493879296	41	4550
2026-01-22 05:09:41.39	346.62	23.27	-36.2	-37.6	16.2	0.00e+00	0	57	0	501219328	42	4376
2026-01-22 05:09:42.40	346.42	23.37	-35.9	-37.3	16.5	0.00e+00	0	57	0	508559360	42	4228
2026-01-22 05:09:43.40	346.22	23.48	-35.8	-37.2	16.7	0.00e+00	0	57	0	515899392	42	4159
2026-01-22 05:09:44.41	346.02	23.58	-36.1	-37.4	16.6	0.00e+00	0	57	0	523239424	42	4285
2026-01-22 05:09:45.42	345.81	23.69	-36.1	-37.5	16.5	0.00e+00	0	57	0	530579456	42	4315
2026-01-22 05:09:46.43	345.61	23.80	-35.8	-37.2	16.9	0.00e+00	0	57	0	537919488	42	4154
2026-01-22 05:09:47.44	345.40	23.90	-35.8	-37.1	17.0	0.00e+00	0	57	0	545259520	42	4126
2026-01-22 05:09:48.45	345.20	24.01	-35.8	-37.1	17.1	0.00e+00	0	57	0	552599552	42	4121
2026-01-22 05:09:49.46	344.99	24.12	-35.7	-37.0	17.3	0.00e+00	0	57	0	559939584	42	4076
2026-01-22 05:09:50.47	344.78	24.22	-35.7	-37.0	17.3	0.00e+00	0	57	0	567279616	42	4079
2026-01-22 05:09:51.48	344.56	24.33	-35.7	-37.0	17.3	0.00e+00	0	57	0	573571072	42	4075
2026-01-22 05:09:52.49	344.35	24.43	-35.6	-36.8	17.5	0.00e+00	0	57	0	580911104	42	4004
2026-01-22 05:09:53.50	344.14	24.54	-35.7	-36.9	17.4	0.00e+00	0	57	0	589299712	42	4035
2026-01-22 05:09:54.51	343.92	24.65	-35.6	-36.8	17.6	0.00e+00	0	57	0	595591168	42	3984
2026-01-22 05:09:55.52	343.70	24.75	-35.6	-36.8	17.6	0.00e+00	0	57	0	602931200	42	3979
2026-01-22 05:09:56.53	343.48	24.86	-35.6	-36.9	17.6	0.00e+00	0	57	0	610271232	42	4009
2026-01-22 05:09:57.54	343.26	24.97	-35.6	-36.8	17.6	0.00e+00	0	57	0	617611264	42	3982
2026-01-22 05:09:58.55	343.04	25.07	-35.6	-36.8	17.6	0.00e+00	0	57	0	624951296	41	4224
2026-01-22 05:09:59.56	342.82	25.18	-35.5	-36.8	17.7	0.00e+00	0	57	0	632291328	41	4201
2026-01-22 05:10:00.57	342.59	25.29	-35.4	-36.6	17.8	0.00e+00	0	57	0	639631360	41	4139
2026-01-22 05:10:01.58	342.37	25.39	-35.4	-36.6	17.9	0.00e+00	0	57	0	646971392	41	4132
2026-01-22 05:10:02.59	342.14	25.50	-35.4	-36.6	17.9	0.00e+00	0	57	0	654311424	41	4121
2026-01-22 05:10:03.60	341.91	25.60	-35.5	-36.7	17.8	0.00e+00	0	57	0	661651456	41	4182
2026-01-22 05:10:04.61	341.68	25.71	-35.4	-36.6	17.9	0.00e+00	0	57	0	668991488	41	4143
2026-01-22 05:10:05.62	341.44	25.82	-35.5	-36.7	17.9	0.00e+00	0	57	0	676331520	41	4169
2026-01-22 05:10:06.63	341.21	25.92	-35.6	-36.8	17.8	0.00e+00	0	57	0	683671552	41	4213
2026-01-22 05:10:07.64	340.97	26.03	-35.5	-36.7	18.0	0.00e+00	0	57	0	691011584	41	4152
2026-01-22 05:10:08.65	340.73	26.13	-35.6	-36.8	17.9	0.00e+00	0	57	0	698351616	41	4209
2026-01-22 05:10:09.66	340.49	26.24	-35.6	-36.8	17.9	0.00e+00	0	57	0	705691648	41	4211
2026-01-22 05:10:10.67	340.25	26.34	-35.7	-36.9	17.8	0.00e+00	0	57	0	713031680	41	4264
2026-01-22 05:10:11.68	340.01	26.45	-35.6	-36.8	17.9	0.00e+00	0	57	0	720371712	41	4236
2026-01-22 05:10:12.69	339.77	26.55	-35.7	-36.9	17.8	0.00e+00	0	57	0	726663168	41	4251
2026-01-22 05:10:13.70	339.52	26.66	-35.7	-36.9	17.8	0.00e+00	0	57	0	735051776	41	4288
2026-01-22 05:10:14.71	339.27	26.76	-35.8	-37.0	17.7	0.00e+00	0	57	0	742391808	41	4328
2026-01-22 05:10:15.72	339.02	26.87	-35.9	-37.1	17.7	0.00e+00	0	57	0	748683264	41	4358
2026-01-22 05:10:16.73	338.77	26.97	-35.8	-37.0	17.8	0.00e+00	0	57	0	756023296	41	4312
2026-01-22 05:10:17.74	338.52	27.08	-35.7	-36.9	17.9	0.00e+00	0	57	0	763363328	41	4281
2026-01-22 05:10:18.75	338.27	27.18	-35.7	-36.9	17.9	0.00e+00	0	57	0	770703360	41	4269
2026-01-22 05:10:19.76	338.01	27.28	-35.6	-36.8	18.0	0.00e+00	0	57	0	778043392	41	4237
2026-01-22 05:10:20.76	337.76	27.38	-35.7	-36.9	17.9	0.00e+00	0	57	0	785383424	41	4253
2026-01-22 05:10:21.78	337.49	27.49	-35.7	-36.9	17.9	0.00e+00	0	57	0	792723456	41	4256
2026-01-22 05:10:22.78	337.24	27.59	-35.7	-36.9	17.9	0.00e+00	0	57	0	800063488	41	4268
2026-01-22 05:10:23.79	336.97	27.69	-35.7	-36.9	17.9	0.00e+00	0	57	0	807403520	41	4285
2026-01-22 05:10:24.80	336.71	27.80	-35.7	-36.9	17.9	0.00e+00	0	57	0	814743552	41	4272
2026-01-22 05:10:25.81	336.44	27.90	-35.8	-37.0	17.8	0.00e+00	0	57	0	822083584	41	4332
2026-01-22 05:10:26.82	336.17	28.00	-35.9	-37.1	17.8	0.00e+00	0	57	0	829423616	41	4381
2026-01-22 05:10:27.83	335.90	28.10	-35.9	-37.1	17.8	0.00e+00	0	57	0	836763648	41	4351
2026-01-22 05:10:28.84	335.63	28.20	-35.8	-37.1	17.9	0.00e+00	0	57	0	844103680	41	4349
2026-01-22 05:10:29.85	335.36	28.30	-35.6	-36.8	18.1	0.00e+00	0	57	0	851443712	41	4223
2026-01-22 05:10:30.86	335.09	28.40	-35.5	-36.6	18.3	0.00e+00	0	57	0	858783744	41	4126
2026-01-22 05:10:31.87	334.81	28.50	-35.4	-36.5	18.4	0.00e+00	0	57	0	866123776	41	4088
2026-01-22 05:10:32.88	334.53	28.60	-35.3	-36.4	18.5	0.00e+00	0	57	0	872415232	41	4030
2026-01-22 05:10:33.89	334.25	28.70	-35.3	-36.4	18.5	0.00e+00	0	57	0	879755264	41	4045
2026-01-22 05:10:34.90	333.97	28.80	-35.3	-36.4	18.5	0.00e+00	0	57	0	888143872	41	4030
2026-01-22 05:10:35.91	333.69	28.90	-35.3	-36.5	18.5	0.00e+00	0	57	0	894435328	41	4056
2026-01-22 05:10:36.92	333.40	28.99	-35.4	-36.5	18.4	0.00e+00	0	57	0	901775360	41	4078
2026-01-22 05:10:37.93	333.11	29.09	-35.4	-36.5	18.4	0.00e+00	0	57	0	909115392	41	4096
2026-01-22 05:10:38.94	332.83	29.19	-35.5	-36.6	18.3	0.00e+00	0	57	0	916455424	41	4134
2026-01-22 05:10:39.95	332.53	29.28	-35.5	-36.7	18.3	0.00e+00	0	57	0	923795456	41	4158
2026-01-22 05:10:40.96	332.24	29.38	-35.5	-36.7	18.3	0.00e+00	0	57	0	931135488	41	4153
2026-01-22 05:10:41.97	331.95	29.48	-35.4	-36.5	18.4	0.00e+00	0	57	0	938475520	41	4088
2026-01-22 05:10:42.98	331.65	29.57	-35.4	-36.5	18.4	0.00e+00	0	57	0	945815552	41	4095
2026-01-22 05:10:43.99	331.36	29.66	-35.5	-36.7	18.3	0.00e+00	0	57	0	953155584	41	4157
2026-01-22 05:10:45.00	331.06	29.76	-35.6	-36.8	18.2	0.00e+00	0	57	0	960495616	41	4204
2026-01-22 05:10:46.01	330.75	29.85	-35.7	-36.9	18.0	0.00e+00	0	57	0	967835648	41	4271
2026-01-22 05:10:47.02	330.45	29.94	-35.7	-37.0	18.0	0.00e+00	0	57	0	975175680	41	4295
2026-01-22 05:10:48.03	330.15	30.03	-35.7	-36.8	18.1	0.00e+00	0	57	0	982515712	41	4241
2026-01-22 05:10:49.04	329.84	30.13	-35.7	-36.9	18.1	0.00e+00	0	57	0	989855744	41	4244
2026-01-22 05:10:50.04	329.54	30.22	-35.6	-36.8	18.2	0.00e+00	0	57	0	997195776	41	4216
2026-01-22 05:10:51.05	329.23	30.31	-35.5	-36.6	18.3	0.00e+00	0	57	0	1004535808	41	4136
2026-01-22 05:10:52.06	328.91	30.39	-35.4	-36.6	18.4	0.00e+00	0	57	0	1011875840	41	4105
2026-01-22 05:10:53.07	328.60	30.48	-35.3	-36.4	18.6	0.00e+00	0	57	0	1019215872	41	4025
2026-01-22 05:10:54.08	328.29	30.57	-35.3	-36.4	18.6	0.00e+00	0	57	0	1025507328	41	4033
2026-01-22 05:10:55.09	327.97	30.66	-35.2	-36.4	18.6	0.00e+00	0	57	0	1033895936	41	4005
2026-01-22 05:10:56.10	327.65	30.75	-35.2	-36.3	18.6	0.00e+00	0	57	0	1041235968	41	3995
2026-01-22 05:10:57.11	327.33	30.83	-35.2	-36.4	18.6	0.00e+00	0	57	0	1047527424	41	4006
2026-01-22 05:10:58.12	327.01	30.92	-35.2	-36.4	18.6	0.00e+00	0	57	0	1054867456	41	4013
2026-01-22 05:10:59.13	326.69	31.00	-35.3	-36.4	18.6	0.00e+00	0	57	0	1062207488	41	4033
2026-01-22 05:11:00.14	326.36	31.08	-35.3	-36.4	18.5	0.00e+00	0	57	0	1069547520	41	4029
2026-01-22 05:11:01.15	326.03	31.17	-35.1	-36.2	18.7	0.00e+00	0	57	0	1076887552	41	3944
2026-01-22 05:11:02.16	325.70	31.25	-35.2	-36.3	18.7	0.00e+00	0	57	0	1084227584	41	3973
2026-01-22 05:11:03.17	325.37	31.33	-35.3	-36.4	18.5	0.00e+00	0	57	0	1091567616	41	4047
2026-01-22 05:11:04.18	325.04	31.41	-35.5	-36.6	18.3	0.00e+00	0	57	0	1098907648	41	4136
2026-01-22 05:11:05.19	324.71	31.49	-35.5	-36.6	18.4	0.00e+00	0	57	0	1106247680	41	4134
2026-01-22 05:11:06.20	324.37	31.57	-35.4	-36.6	18.4	0.00e+00	0	57	0	1113587712	41	4103
2026-01-22 05:11:07.21	324.04	31.64	-35.3	-36.4	18.6	0.00e+00	0	57	0	1120927744	41	4043
2026-01-22 05:11:08.21	323.70	31.72	-35.3	-36.4	18.5	0.00e+00	0	57	0	1128267776	41	4042
2026-01-22 05:11:09.22	323.36	31.79	-35.1	-36.2	18.8	0.00e+00	0	57	0	1135607808	41	3932
2026-01-22 05:11:10.23	323.02	31.87	-34.9	-36.0	19.0	0.00e+00	0	57	0	1142947840	40	4061
2026-01-22 05:11:11.24	322.67	31.94	-34.8	-35.9	19.1	0.00e+00	0	57	0	1150287872	40	4008
2026-01-22 05:11:12.25	322.33	32.02	-34.7	-35.8	19.2	0.00e+00	0	57	0	1157627904	40	3969
2026-01-22 05:11:13.26	321.98	32.09	-34.8	-35.9	19.1	0.00e+00	0	57	0	1164967936	40	4026
2026-01-22 05:11:14.27	321.64	32.16	-34.8	-35.9	19.0	0.00e+00	0	57	0	1171259392	40	4040
2026-01-22 05:11:15.28	321.29	32.23	-35.0	-36.1	18.9	0.00e+00	0	57	0	1178599424	40	4111
2026-01-22 05:11:16.29	320.93	32.30	-35.2	-36.3	18.7	0.00e+00	0	57	0	1186988032	40	4220
2026-01-22 05:11:17.30	320.58	32.36	-35.2	-36.3	18.7	0.00e+00	0	57	0	1193279488	40	4205
2026-01-22 05:11:18.31	320.23	32.43	-35.0	-36.1	18.8	0.00e+00	0	57	0	1200619520	40	4142
2026-01-22 05:11:19.32	319.87	32.49	-35.0	-36.1	18.9	0.00e+00	0	58	0	1207959552	40	4126
2026-01-22 05:11:20.33	319.52	32.56	-35.0	-36.1	18.9	0.00e+00	0	57	0	1215299584	40	4139
2026-01-22 05:11:21.34	319.16	32.62	-35.1	-36.2	18.8	0.00e+00	0	57	0	1222639616	40	4154
2026-01-22 05:11:22.35	318.80	32.68	-35.0	-36.1	18.9	0.00e+00	0	57	0	1229979648	40	4135
2026-01-22 05:11:23.36	318.44	32.74	-35.0	-36.1	18.9	0.00e+00	0	57	0	1237319680	40	4125
2026-01-22 05:11:24.37	318.07	32.80	-35.0	-36.1	18.8	0.00e+00	0	57	0	1244659712	40	4145
2026-01-22 05:11:25.38	317.71	32.86	-34.9	-36.0	19.0	0.00e+00	0	57	0	1251999744	40	4068
2026-01-22 05:11:26.38	317.35	32.92	-34.9	-36.0	19.0	0.00e+00	0	57	0	1259339776	40	4068
2026-01-22 05:11:27.39	316.98	32.97	-34.8	-35.9	19.1	0.00e+00	0	57	0	1266679808	40	4037
2026-01-22 05:11:28.40	316.61	33.03	-34.9	-36.0	19.0	0.00e+00	0	57	0	1274019840	40	4088
2026-01-22 05:11:29.41	316.25	33.08	-35.0	-36.1	18.9	0.00e+00	0	57	0	1281359872	40	4124
2026-01-22 05:11:30.42	315.88	33.13	-34.9	-36.0	19.0	0.00e+00	0	57	0	1288699904	40	4075
2026-01-22 05:11:31.42	315.51	33.19	-35.1	-36.2	18.9	0.00e+00	0	57	0	1296039936	40	4156
2026-01-22 05:11:32.43	315.14	33.23	-35.0	-36.2	18.8	0.00e+00	0	57	0	1303379968	40	4150
2026-01-22 05:11:33.44	314.76	33.28	-35.0	-36.1	18.9	0.00e+00	0	57	0	1310720000	40	4117
2026-01-22 05:11:34.45	314.39	33.33	-35.0	-36.1	18.9	0.00e+00	0	58	0	1318060032	40	4101
2026-01-22 05:11:35.46	314.01	33.38	-35.0	-36.2	18.9	0.00e+00	0	58	0	1324351488	40	4147
2026-01-22 05:11:36.47	313.63	33.42	-35.0	-36.2	18.8	0.00e+00	0	57	0	1331691520	40	4146
2026-01-22 05:11:37.48	313.26	33.46	-34.9	-36.0	19.0	0.00e+00	0	57	0	1340080128	40	4082
2026-01-22 05:11:38.49	312.88	33.51	-35.0	-36.1	18.9	0.00e+00	0	57	0	1346371584	40	4103
2026-01-22 05:11:39.50	312.50	33.55	-34.9	-36.0	19.0	0.00e+00	0	57	0	1353711616	40	4055
2026-01-22 05:11:40.51	312.12	33.58	-34.9	-36.0	19.0	0.00e+00	0	57	0	1361051648	40	4087
2026-01-22 05:11:41.52	311.73	33.62	-34.8	-35.9	19.1	0.00e+00	0	57	0	1368391680	40	4038
2026-01-22 05:11:42.53	311.35	33.66	-34.9	-36.0	19.1	0.00e+00	0	57	0	1375731712	40	4052
2026-01-22 05:11:43.54	310.97	33.69	-34.9	-36.0	19.0	0.00e+00	0	57	0	1383071744	40	4090
2026-01-22 05:11:44.55	310.58	33.73	-34.9	-36.0	18.9	0.00e+00	0	58	0	1390411776	40	4091
2026-01-22 05:11:45.56	310.20	33.76	-35.0	-36.1	18.9	0.00e+00	0	58	0	1397751808	40	4138
2026-01-22 05:11:46.57	309.81	33.79	-35.0	-36.2	18.8	0.00e+00	0	57	0	1405091840	40	4146
2026-01-22 05:11:47.58	309.43	33.82	-35.0	-36.2	18.8	0.00e+00	0	57	0	1412431872	40	4150
2026-01-22 05:11:48.59	309.04	33.85	-34.9	-36.0	19.0	0.00e+00	0	57	0	1419771904	40	4076
2026-01-22 05:11:49.60	308.65	33.87	-35.0	-36.1	18.9	0.00e+00	0	57	0	1427111936	40	4111
2026-01-22 05:11:50.61	308.26	33.90	-35.0	-36.1	18.9	0.00e+00	0	57	0	1434451968	40	4130
2026-01-22 05:11:51.62	307.87	33.92	-35.2	-36.3	18.7	0.00e+00	0	57	0	1441792000	40	4216
2026-01-22 05:11:52.63	307.48	33.94	-35.1	-36.3	18.7	0.00e+00	0	57	0	1449132032	40	4197
2026-01-22 05:11:53.64	307.09	33.96	-35.2	-36.4	18.7	0.00e+00	0	57	0	1456472064	40	4245
2026-01-22 05:11:54.65	306.70	33.98	-35.3	-36.4	18.6	0.00e+00	0	58	0	1463812096	40	4278
2026-01-22 05:11:55.66	306.31	34.00	-35.4	-36.5	18.5	0.00e+00	0	57	0	1471152128	40	4325
2026-01-22 05:11:56.67	305.92	34.01	-35.3	-36.4	18.6	0.00e+00	0	58	0	1477443584	40	4276
2026-01-22 05:11:57.68	305.53	34.03	-35.1	-36.3	18.7	0.00e+00	0	57	0	1484783616	40	4199
2026-01-22 05:11:58.69	305.14	34.04	-34.9	-35.9	19.0	0.00e+00	0	57	0	1492123648	40	4042
2026-01-22 05:11:59.70	304.74	34.05	-34.8	-35.9	19.1	0.00e+00	0	57	0	1499463680	40	4031
2026-01-22 05:12:00.71	304.35	34.06	-34.8	-35.9	19.1	0.00e+00	0	58	0	1506803712	40	4042
2026-01-22 05:12:01.72	303.96	34.07	-34.8	-35.9	19.1	0.00e+00	0	57	0	1514143744	40	4037
2026-01-22 05:12:02.73	303.57	34.07	-34.9	-36.0	19.0	0.00e+00	0	57	0	1521483776	40	4054
2026-01-22 05:12:03.74	303.17	34.08	-34.9	-36.0	19.0	0.00e+00	0	57	0	1528823808	40	4080
2026-01-22 05:12:04.75	302.78	34.08	-35.0	-36.1	18.9	0.00e+00	0	57	0	1536163840	40	4105
2026-01-22 05:12:05.76	302.39	34.08	-34.7	-35.8	19.2	0.00e+00	0	57	0	1543503872	40	3987
2026-01-22 05:12:06.77	301.99	34.08	-34.7	-35.8	19.2	0.00e+00	0	58	0	1550843904	40	3989
2026-01-22 05:12:07.78	301.60	34.08	-34.9	-35.9	19.0	0.00e+00	0	58	0	1558183936	40	4046
2026-01-22 05:12:08.79	301.21	34.08	-34.9	-36.0	19.0	0.00e+00	0	57	0	1565523968	40	4083
2026-01-22 05:12:09.80	300.81	34.08	-35.0	-36.2	18.9	0.00e+00	0	58	0	1572864000	40	4148
2026-01-22 05:12:10.81	300.42	34.07	-35.3	-36.5	18.5	0.00e+00	0	58	0	1580204032	40	4299
2026-01-22 05:12:11.82	300.03	34.06	-35.3	-36.5	18.6	0.00e+00	0	58	0	1587544064	40	4300
2026-01-22 05:12:12.83	299.63	34.05	-35.4	-36.5	18.5	0.00e+00	0	57	0	1594884096	40	4332
2026-01-22 05:12:13.83	299.24	34.04	-35.5	-36.6	18.4	0.00e+00	0	57	0	1602224128	40	4377
2026-01-22 05:12:14.84	298.85	34.03	-35.2	-36.4	18.6	0.00e+00	0	57	0	1609564160	40	4254
2026-01-22 05:12:15.85	298.46	34.02	-35.0	-36.1	18.9	0.00e+00	0	57	0	1616904192	40	4125
2026-01-22 05:12:16.86	298.07	34.00	-35.0	-36.1	18.9	0.00e+00	0	58	0	1623195648	40	4128
2026-01-22 05:12:17.87	297.68	33.99	-35.0	-36.1	18.9	0.00e+00	0	57	0	1630535680	40	4127
2026-01-22 05:12:18.88	297.28	33.97	-34.9	-36.0	18.9	0.00e+00	0	57	0	1638924288	40	4098
2026-01-22 05:12:19.89	296.89	33.95	-35.1	-36.2	18.8	0.00e+00	0	57	0	1645215744	40	4163
2026-01-22 05:12:20.91	296.50	33.93	-35.1	-36.2	18.8	0.00e+00	0	57	0	1652555776	40	4185
2026-01-22 05:12:21.91	296.11	33.91	-35.1	-36.2	18.8	0.00e+00	0	57	0	1659895808	40	4160
2026-01-22 05:12:22.93	295.72	33.88	-35.0	-36.1	18.9	0.00e+00	0	57	0	1667235840	40	4135
2026-01-22 05:12:23.94	295.33	33.86	-34.8	-35.9	19.1	0.00e+00	0	57	0	1674575872	40	4038
2026-01-22 05:12:24.95	294.94	33.83	-34.8	-35.9	19.1	0.00e+00	0	57	0	1681915904	40	4026
2026-01-22 05:12:25.96	294.56	33.80	-34.9	-36.0	19.0	0.00e+00	0	57	0	1689255936	40	4073
2026-01-22 05:12:26.97	294.17	33.77	-34.9	-36.0	19.0	0.00e+00	0	57	0	1696595968	40	4087
2026-01-22 05:12:27.98	293.78	33.74	-34.9	-36.0	19.1	0.00e+00	0	58	0	1703936000	40	4052
2026-01-22 05:12:28.99	293.40	33.71	-34.9	-36.0	19.0	0.00e+00	0	57	0	1711276032	40	4073
2026-01-22 05:12:29.99	293.02	33.68	-34.9	-36.0	18.9	0.00e+00	0	57	0	1718616064	40	4098
2026-01-22 05:12:31.00	292.64	33.64	-35.0	-36.1	18.9	0.00e+00	0	57	0	1725956096	40	4127
2026-01-22 05:12:32.01	292.25	33.60	-35.0	-36.1	18.9	0.00e+00	0	58	0	1733296128	40	4099
2026-01-22 05:12:33.02	291.87	33.56	-34.9	-36.0	19.0	0.00e+00	0	58	0	1740636160	40	4081
2026-01-22 05:12:34.03	291.49	33.53	-34.9	-35.9	19.1	0.00e+00	0	57	0	1747976192	40	4050
2026-01-22 05:12:35.04	291.11	33.48	-34.9	-36.0	19.0	0.00e+00	0	57	0	1755316224	40	4091
2026-01-22 05:12:36.05	290.73	33.44	-34.9	-36.0	19.0	0.00e+00	0	58	0	1762656256	40	4080
2026-01-22 05:12:37.06	290.35	33.40	-34.9	-36.0	19.0	0.00e+00	0	58	0	1769996288	40	4095
2026-01-22 05:12:38.07	289.98	33.35	-34.9	-35.9	19.0	0.00e+00	0	57	0	1776287744	40	4051
2026-01-22 05:12:39.08	289.60	33.31	-34.8	-35.9	19.1	0.00e+00	0	58	0	1783627776	40	4024
2026-01-22 05:12:40.09	289.23	33.26	-34.8	-35.9	19.1	0.00e+00	0	57	0	1792016384	40	4036
2026-01-22 05:12:41.10	288.85	33.21	-34.8	-35.9	19.1	0.00e+00	0	58	0	1798307840	40	4023
2026-01-22 05:12:42.11	288.48	33.16	-34.8	-35.8	19.1	0.00e+00	0	58	0	1805647872	40	3997
2026-01-22 05:12:43.12	288.11	33.11	-34.9	-36.0	19.0	0.00e+00	0	57	0	1812987904	40	4098
2026-01-22 05:12:44.13	287.74	33.05	-35.0	-36.1	18.9	0.00e+00	0	57	0	1820327936	40	4132
2026-01-22 05:12:45.14	287.37	33.00	-35.1	-36.2	18.9	0.00e+00	0	58	0	1827667968	40	4156
2026-01-22 05:12:46.15	287.00	32.94	-34.9	-36.0	19.0	0.00e+00	0	57	0	1835008000	40	4097
2026-01-22 05:12:47.16	286.63	32.89	-34.9	-36.0	19.0	0.00e+00	0	57	0	1842348032	40	4069
2026-01-22 05:12:48.17	286.27	32.83	-34.9	-36.0	19.0	0.00e+00	0	57	0	1849688064	40	4098
2026-01-22 05:12:49.18	285.91	32.77	-35.0	-36.1	18.9	0.00e+00	0	58	0	1857028096	40	4102
2026-01-22 05:12:50.19	285.54	32.71	-35.0	-36.2	18.9	0.00e+00	0	58	0	1864368128	40	4147
2026-01-22 05:12:51.20	285.18	32.65	-35.1	-36.2	18.8	0.00e+00	0	58	0	1871708160	40	4185
2026-01-22 05:12:52.22	284.82	32.59	-35.1	-36.2	18.8	0.00e+00	0	58	0	1879048192	40	4173
2026-01-22 05:12:53.22	284.46	32.52	-35.1	-36.2	18.8	0.00e+00	0	58	0	1886388224	40	4192
2026-01-22 05:12:54.23	284.11	32.46	-35.1	-36.2	18.8	0.00e+00	0	58	0	1893728256	40	4192
2026-01-22 05:12:55.24	283.75	32.39	-35.1	-36.2	18.8	0.00e+00	0	58	0	1901068288	40	4188
2026-01-22 05:12:56.25	283.40	32.32	-35.1	-36.3	18.7	0.00e+00	0	58	0	1908408320	40	4199
2026-01-22 05:12:57.26	283.04	32.26	-35.0	-36.2	18.8	0.00e+00	0	58	0	1915748352	40	4151
2026-01-22 05:12:58.27	282.69	32.19	-34.9	-36.0	19.0	0.00e+00	0	58	0	1922039808	40	4067
2026-01-22 05:12:59.28	282.34	32.12	-34.8	-35.9	19.1	0.00e+00	0	58	0	1930428416	40	4024
2026-01-22 05:13:00.29	281.99	32.05	-34.8	-35.9	19.0	0.00e+00	0	58	0	1937768448	40	4039
2026-01-22 05:13:01.30	281.65	31.97	-34.8	-35.9	19.1	0.00e+00	0	58	0	1944059904	40	4035
2026-01-22 05:13:02.31	281.30	31.90	-35.0	-36.1	18.9	0.00e+00	0	58	0	1951399936	40	4116
2026-01-22 05:13:03.32	280.96	31.83	-34.9	-35.9	19.0	0.00e+00	0	58	0	1958739968	40	4050
2026-01-22 05:13:04.33	280.62	31.75	-35.0	-36.1	18.9	0.00e+00	0	58	0	1966080000	40	4104
2026-01-22 05:13:05.34	280.28	31.67	-35.0	-36.1	18.9	0.00e+00	0	58	0	1973420032	40	4111
2026-01-22 05:13:06.35	279.94	31.60	-34.9	-36.0	19.0	0.00e+00	0	58	0	1980760064	40	4082
2026-01-22 05:13:07.36	279.60	31.52	-34.9	-36.0	19.0	0.00e+00	0	58	0	1988100096	40	4085
2026-01-22 05:13:08.37	279.27	31.44	-34.9	-36.0	19.0	0.00e+00	0	57	0	1995440128	40	4092
2026-01-22 05:13:09.38	278.93	31.36	-35.1	-36.2	18.8	0.00e+00	0	58	0	2002780160	40	4154
2026-01-22 05:13:10.39	278.60	31.28	-35.1	-36.2	18.8	0.00e+00	0	58	0	2010120192	40	4179
2026-01-22 05:13:11.40	278.27	31.20	-35.1	-36.2	18.8	0.00e+00	0	57	0	2017460224	40	4170
2026-01-22 05:13:12.41	277.94	31.12	-35.2	-36.3	18.7	0.00e+00	0	58	0	2024800256	40	4218
2026-01-22 05:13:13.42	277.61	31.03	-35.0	-36.1	18.8	0.00e+00	0	58	0	2032140288	40	4144
2026-01-22 05:13:14.43	277.29	30.95	-35.1	-36.2	18.8	0.00e+00	0	58	0	2039480320	40	4163
2026-01-22 05:13:15.44	276.96	30.86	-35.1	-36.2	18.8	0.00e+00	0	57	0	2046820352	40	4176
2026-01-22 05:13:16.45	276.64	30.78	-35.1	-36.2	18.8	0.00e+00	0	57	0	2054160384	40	4157
2026-01-22 05:13:17.46	276.32	30.69	-35.0	-36.1	18.8	0.00e+00	0	58	0	2061500416	40	4141
2026-01-22 05:13:18.47	276.00	30.60	-35.1	-36.2	18.8	0.00e+00	0	58	0	2068840448	40	4156
2026-01-22 05:13:19.48	275.69	30.52	-35.0	-36.2	18.8	0.00e+00	0	58	0	2075131904	40	4151
2026-01-22 05:13:20.49	275.37	30.43	-35.1	-36.3	18.7	0.00e+00	0	57	0	2083520512	40	4202
2026-01-22 05:13:21.50	275.06	30.34	-35.2	-36.3	18.7	0.00e+00	0	57	0	2090860544	40	4223
2026-01-22 05:13:22.51	274.75	30.25	-35.2	-36.3	18.7	0.00e+00	0	58	0	2097152000	40	4234
2026-01-22 05:13:23.52	274.44	30.16	-35.1	-36.3	18.7	0.00e+00	0	57	0	2104492032	40	4206
2026-01-22 05:13:24.53	274.13	30.07	-35.2	-36.3	18.6	0.00e+00	0	58	0	2111832064	40	4240
2026-01-22 05:13:25.54	273.82	29.97	-35.2	-36.3	18.6	0.00e+00	0	58	0	2119172096	40	4209
2026-01-22 05:13:26.55	273.52	29.88	-35.1	-36.2	18.7	0.00e+00	0	58	0	2126512128	40	4181
2026-01-22 05:13:27.56	273.21	29.79	-35.1	-36.2	18.8	0.00e+00	0	58	0	2133852160	40	4172
2026-01-22 05:13:28.57	272.91	29.70	-35.1	-36.2	18.8	0.00e+00	0	58	0	2141192192	40	4161
2026-01-22 05:13:29.58	272.61	29.60	-35.1	-36.2	18.7	0.00e+00	0	58	0	2148532224	40	4188
2026-01-22 05:13:30.59	272.32	29.51	-35.1	-36.2	18.7	0.00e+00	0	57	0	2155872256	40	4188
2026-01-22 05:13:31.60	272.02	29.41	-35.1	-36.2	18.7	0.00e+00	0	58	0	2163212288	40	4184
2026-01-22 05:13:32.61	271.73	29.31	-35.1	-36.2	18.7	0.00e+00	0	58	0	2170552320	40	4176
2026-01-22 05:13:33.61	271.44	29.22	-35.0	-36.2	18.8	0.00e+00	0	58	0	2177892352	40	4153
2026-01-22 05:13:34.62	271.15	29.12	-35.1	-36.2	18.7	0.00e+00	0	58	0	2185232384	40	4178
2026-01-22 05:13:35.63	270.86	29.02	-35.1	-36.3	18.7	0.00e+00	0	57	0	2192572416	40	4199
2026-01-22 05:13:36.64	270.57	28.93	-35.1	-36.3	18.7	0.00e+00	0	58	0	2199912448	40	4195
2026-01-22 05:13:37.65	270.28	28.83	-35.1	-36.2	18.7	0.00e+00	0	58	0	2207252480	40	4189
2026-01-22 05:13:38.66	270.00	28.73	-35.1	-36.2	18.7	0.00e+00	0	58	0	2214592512	40	4170
2026-01-22 05:13:39.67	269.72	28.63	-35.0	-36.1	18.9	0.00e+00	0	57	0	2220883968	40	4105
2026-01-22 05:13:40.68	269.44	28.53	-34.9	-36.0	18.9	0.00e+00	0	57	0	2228224000	40	4079
2026-01-22 05:13:41.69	269.16	28.43	-34.9	-36.0	18.9	0.00e+00	0	58	0	2236612608	40	4079
2026-01-22 05:13:42.70	268.88	28.33	-34.9	-36.0	18.9	0.00e+00	0	58	0	2242904064	40	4072
2026-01-22 05:13:43.71	268.61	28.23	-35.0	-36.1	18.9	0.00e+00	0	58	0	2250244096	40	4109
2026-01-22 05:13:44.72	268.33	28.13	-35.0	-36.1	18.9	0.00e+00	0	58	0	2257584128	40	4109
2026-01-22 05:13:45.73	268.06	28.03	-35.1	-36.2	18.7	0.00e+00	0	58	0	2264924160	40	4175
2026-01-22 05:13:46.74	267.79	27.93	-35.2	-36.3	18.6	0.00e+00	0	58	0	2272264192	40	4216
2026-01-22 05:13:47.75	267.53	27.82	-35.3	-36.4	18.5	0.00e+00	0	58	0	2279604224	40	4272
2026-01-22 05:13:48.76	267.26	27.72	-35.4	-36.6	18.3	0.00e+00	0	58	0	2286944256	40	4365
2026-01-22 05:13:49.77	266.99	27.62	-35.5	-36.6	18.3	0.00e+00	0	58	0	2294284288	40	4384
2026-01-22 05:13:50.78	266.73	27.51	-35.5	-36.7	18.3	0.00e+00	0	58	0	2301624320	40	4397
2026-01-22 05:13:51.79	266.47	27.41	-35.6	-36.8	18.1	0.00e+00	0	58	0	2308964352	40	4450
2026-01-22 05:13:52.80	266.21	27.31	-35.5	-36.7	18.3	0.00e+00	0	57	0	2316304384	40	4401
2026-01-22 05:13:53.81	265.95	27.20	-35.5	-36.7	18.3	0.00e+00	0	58	0	2323644416	40	4393
2026-01-22 05:13:54.82	265.70	27.10	-35.5	-36.6	18.3	0.00e+00	0	58	0	2330984448	40	4377
2026-01-22 05:13:55.83	265.44	27.00	-35.5	-36.6	18.3	0.00e+00	0	58	0	2338324480	40	4389
2026-01-22 05:13:56.84	265.19	26.89	-35.4	-36.6	18.4	0.00e+00	0	58	0	2345664512	40	4346
2026-01-22 05:13:57.85	264.94	26.79	-35.4	-36.5	18.4	0.00e+00	0	57	0	2353004544	40	4332
2026-01-22 05:13:58.86	264.69	26.68	-35.4	-36.5	18.4	0.00e+00	0	58	0	2360344576	40	4321
2026-01-22 05:13:59.87	264.44	26.58	-35.3	-36.5	18.5	0.00e+00	0	58	0	2367684608	40	4301
2026-01-22 05:14:00.88	264.20	26.47	-35.3	-36.5	18.4	0.00e+00	0	58	0	2375024640	40	4304
2026-01-22 05:14:01.90	263.95	26.36	-35.4	-36.6	18.3	0.00e+00	0	58	0	2382364672	40	4343
2026-01-22 05:14:02.90	263.71	26.26	-35.4	-36.6	18.3	0.00e+00	0	58	0	2389704704	40	4381
2026-01-22 05:14:03.91	263.47	26.15	-35.5	-36.7	18.2	0.00e+00	0	58	0	2395996160	40	4418
2026-01-22 05:14:04.92	263.23	26.05	-35.5	-36.7	18.2	0.00e+00	0	58	0	2403336192	40	4431
2026-01-22 05:14:05.93	262.99	25.94	-35.5	-36.7	18.2	0.00e+00	0	58	0	2411724800	40	4429
2026-01-22 05:14:06.95	262.75	25.83	-35.6	-36.8	18.1	0.00e+00	0	58	0	2418016256	40	4449
2026-01-22 05:14:07.96	262.52	25.73	-35.5	-36.7	18.1	0.00e+00	0	58	0	2425356288	40	4426
2026-01-22 05:14:08.97	262.28	25.62	-35.5	-36.7	18.2	0.00e+00	0	58	0	2432696320	40	4425
2026-01-22 05:14:09.98	262.05	25.52	-35.4	-36.6	18.3	0.00e+00	0	58	0	2440036352	40	4365
2026-01-22 05:14:10.99	261.82	25.41	-35.3	-36.5	18.4	0.00e+00	0	58	0	2447376384	40	4309
2026-01-22 05:14:12.00	261.59	25.30	-35.3	-36.5	18.4	0.00e+00	0	58	0	2454716416	40	4308
2026-01-22 05:14:13.01	261.37	25.20	-35.4	-36.5	18.4	0.00e+00	0	57	0	2462056448	40	4339
2026-01-22 05:14:14.02	261.14	25.09	-35.5	-36.7	18.2	0.00e+00	0	58	0	2469396480	40	4392
2026-01-22 05:14:15.03	260.92	24.98	-35.4	-36.6	18.3	0.00e+00	0	58	0	2476736512	40	4352
2026-01-22 05:14:16.04	260.69	24.87	-35.4	-36.6	18.3	0.00e+00	0	58	0	2484076544	40	4352
2026-01-22 05:14:17.05	260.47	24.77	-35.4	-36.6	18.3	0.00e+00	0	58	0	2491416576	40	4352
2026-01-22 05:14:18.06	260.25	24.66	-35.5	-36.7	18.2	0.00e+00	0	58	0	2498756608	40	4435
2026-01-22 05:14:19.07	260.04	24.55	-35.6	-36.8	18.1	0.00e+00	0	58	0	2506096640	40	4449
2026-01-22 05:14:20.08	259.82	24.45	-35.7	-36.9	18.0	0.00e+00	0	58	0	2513436672	40	4508
2026-01-22 05:14:21.09	259.60	24.34	-35.7	-36.9	17.9	0.00e+00	0	58	0	2520776704	41	4275
2026-01-22 05:14:22.10	259.39	24.23	-35.7	-36.9	18.0	0.00e+00	0	58	0	2528116736	41	4253
2026-01-22 05:14:23.11	259.18	24.13	-35.7	-36.9	17.9	0.00e+00	0	57	0	2535456768	41	4282
2026-01-22 05:14:24.12	258.97	24.02	-35.7	-36.9	18.0	0.00e+00	0	58	0	2541748224	41	4275
2026-01-22 05:14:25.13	258.76	23.91	-35.7	-36.9	18.0	0.00e+00	0	58	0	2549088256	41	4254
2026-01-22 05:14:26.14	258.55	23.81	-35.6	-36.8	18.1	0.00e+00	0	58	0	2557476864	41	4211
2026-01-22 05:14:27.15	258.34	23.70	-35.7	-36.9	18.0	0.00e+00	0	58	0	2563768320	41	4243
2026-01-22 05:14:28.16	258.14	23.59	-35.6	-36.8	18.1	0.00e+00	0	58	0	2571108352	41	4210
2026-01-22 05:14:29.17	257.94	23.48	-35.4	-36.6	18.2	0.00e+00	0	58	0	2578448384	41	4126
2026-01-22 05:14:30.18	257.73	23.38	-35.6	-36.8	18.1	0.00e+00	0	58	0	2585788416	41	4197
2026-01-22 05:14:31.19	257.53	23.27	-35.5	-36.6	18.2	0.00e+00	0	58	0	2593128448	41	4141
2026-01-22 05:14:32.20	257.33	23.16	-35.6	-36.8	18.1	0.00e+00	0	58	0	2600468480	41	4205
2026-01-22 05:14:33.21	257.14	23.06	-35.6	-36.8	18.1	0.00e+00	0	58	0	2607808512	41	4217
2026-01-22 05:14:34.22	256.94	22.95	-35.6	-36.8	18.1	0.00e+00	0	58	0	2615148544	41	4204
2026-01-22 05:14:35.23	256.74	22.85	-35.6	-36.8	18.0	0.00e+00	0	58	0	2622488576	41	4227
2026-01-22 05:14:36.23	256.55	22.74	-35.6	-36.8	18.0	0.00e+00	0	58	0	2629828608	41	4227
2026-01-22 05:14:37.24	256.36	22.63	-35.6	-36.8	18.1	0.00e+00	0	58	0	2637168640	41	4199
2026-01-22 05:14:38.25	256.17	22.53	-35.5	-36.7	18.1	0.00e+00	0	58	0	2644508672	41	4165
2026-01-22 05:14:39.26	255.98	22.42	-35.5	-36.7	18.1	0.00e+00	0	58	0	2651848704	41	4162
2026-01-22 05:14:40.28	255.79	22.31	-35.5	-36.7	18.1	0.00e+00	0	58	0	2659188736	41	4159
2026-01-22 05:14:41.29	255.60	22.21	-35.6	-36.8	18.0	0.00e+00	0	58	0	2666528768	41	4224
2026-01-22 05:14:42.30	255.41	22.10	-35.6	-36.8	18.0	0.00e+00	0	58	0	2673868800	41	4236
2026-01-22 05:14:43.31	255.23	22.00	-35.6	-36.8	18.0	0.00e+00	0	58	0	2681208832	41	4212
2026-01-22 05:14:44.32	255.05	21.89	-35.7	-36.9	18.0	0.00e+00	0	58	0	2688548864	41	4254
2026-01-22 05:14:45.33	254.86	21.79	-35.7	-36.9	17.9	0.00e+00	0	58	0	2694840320	41	4287
2026-01-22 05:14:46.34	254.68	21.68	-35.8	-37.1	17.8	0.00e+00	0	58	0	2703228928	41	4341
2026-01-22 05:14:47.35	254.50	21.58	-35.8	-37.1	17.8	0.00e+00	0	58	0	2710568960	41	4342
2026-01-22 05:14:48.36	254.33	21.47	-35.9	-37.2	17.7	0.00e+00	0	58	0	2716860416	41	4399
2026-01-22 05:14:49.37	254.15	21.37	-36.0	-37.2	17.6	0.00e+00	0	58	0	2724200448	41	4425
2026-01-22 05:14:50.38	253.97	21.26	-35.9	-37.2	17.7	0.00e+00	0	58	0	2731540480	41	4393
2026-01-22 05:14:51.39	253.80	21.16	-35.9	-37.1	17.7	0.00e+00	0	58	0	2738880512	41	4381
2026-01-22 05:14:52.39	253.62	21.05	-35.8	-37.1	17.8	0.00e+00	0	58	0	2746220544	41	4346
2026-01-22 05:14:53.40	253.45	20.95	-36.0	-37.2	17.6	0.00e+00	0	58	0	2753560576	41	4435
2026-01-22 05:14:54.41	253.28	20.85	-36.1	-37.4	17.5	0.00e+00	0	58	0	2760900608	41	4499
2026-01-22 05:14:55.42	253.11	20.74	-36.1	-37.3	17.5	0.00e+00	0	58	0	2768240640	41	4468
2026-01-22 05:14:56.43	252.94	20.64	-36.2	-37.4	17.4	0.00e+00	0	58	0	2775580672	41	4542
2026-01-22 05:14:57.44	252.77	20.53	-36.2	-37.4	17.4	0.00e+00	0	58	0	2782920704	41	4542
2026-01-22 05:14:58.45	252.61	20.43	-36.3	-37.6	17.3	0.00e+00	0	58	0	2790260736	42	4341
2026-01-22 05:14:59.46	252.44	20.33	-36.2	-37.5	17.3	0.00e+00	0	58	0	2797600768	42	4328
2026-01-22 05:15:00.47	252.28	20.23	-36.2	-37.5	17.3	0.00e+00	0	58	0	2804940800	42	4326
2026-01-22 05:15:01.48	252.11	20.12	-36.3	-37.6	17.2	0.00e+00	0	58	0	2812280832	42	4369
2026-01-22 05:15:02.49	251.95	20.02	-36.1	-37.4	17.4	0.00e+00	0	58	0	2819620864	42	4245
2026-01-22 05:15:03.50	251.79	19.92	-36.1	-37.4	17.4	0.00e+00	0	58	0	2826960896	42	4245
2026-01-22 05:15:04.51	251.63	19.81	-36.0	-37.2	17.6	0.00e+00	0	58	0	2834300928	42	4180
2026-01-22 05:15:05.52	251.47	19.71	-36.0	-37.3	17.5	0.00e+00	0	58	0	2840592384	42	4195
2026-01-22 05:15:06.53	251.31	19.61	-36.1	-37.4	17.4	0.00e+00	0	58	0	2847932416	42	4276
2026-01-22 05:15:07.54	251.16	19.51	-36.2	-37.5	17.3	0.00e+00	0	58	0	2856321024	42	4329
2026-01-22 05:15:08.55	251.00	19.41	-36.3	-37.6	17.2	0.00e+00	0	58	0	2862612480	42	4342
2026-01-22 05:15:09.55	250.85	19.31	-36.3	-37.7	17.1	0.00e+00	0	58	0	2869952512	42	4392
2026-01-22 05:15:10.56	250.69	19.21	-36.4	-37.7	17.1	0.00e+00	0	58	0	2877292544	42	4425
2026-01-22 05:15:11.57	250.54	19.10	-36.4	-37.7	17.1	0.00e+00	0	58	0	2884632576	42	4422
2026-01-22 05:15:12.58	250.39	19.00	-36.4	-37.7	17.1	0.00e+00	0	58	0	2891972608	42	4423
2026-01-22 05:15:13.59	250.24	18.90	-36.4	-37.7	17.1	0.00e+00	0	58	0	2899312640	42	4397
2026-01-22 05:15:14.60	250.09	18.80	-36.3	-37.6	17.2	0.00e+00	0	58	0	2906652672	42	4361
2026-01-22 05:15:15.61	249.94	18.70	-36.3	-37.6	17.2	0.00e+00	0	58	0	2913992704	42	4370
2026-01-22 05:15:16.62	249.79	18.60	-36.4	-37.6	17.1	0.00e+00	0	58	0	2921332736	42	4391
2026-01-22 05:15:17.63	249.64	18.50	-36.5	-37.8	17.0	0.00e+00	0	58	0	2928672768	42	4457
2026-01-22 05:15:18.64	249.50	18.40	-36.5	-37.8	16.9	0.00e+00	0	58	0	2936012800	42	4490
2026-01-22 05:15:19.65	249.35	18.30	-36.6	-38.0	16.8	0.00e+00	0	58	0	2943352832	42	4562
2026-01-22 05:15:20.66	249.21	18.20	-36.7	-38.0	16.7	0.00e+00	0	58	0	2950692864	42	4588
2026-01-22 05:15:21.67	249.07	18.11	-36.8	-38.2	16.6	0.00e+00	0	58	0	2958032896	43	4407
2026-01-22 05:15:22.68	248.92	18.01	-36.9	-38.3	16.5	0.00e+00	0	58	0	2965372928	43	4465
2026-01-22 05:15:23.69	248.78	17.91	-36.9	-38.4	16.4	0.00e+00	0	58	0	2972712960	43	4494
2026-01-22 05:15:24.70	248.64	17.81	-36.9	-38.3	16.4	0.00e+00	0	58	0	2980052992	43	4464
2026-01-22 05:15:25.71	248.50	17.71	-37.0	-38.4	16.4	0.00e+00	0	58	0	2987393024	43	4510
2026-01-22 05:15:26.72	248.37	17.61	-36.9	-38.2	16.5	0.00e+00	0	58	0	2993684480	43	4440
2026-01-22 05:15:27.73	248.23	17.52	-36.8	-38.1	16.6	0.00e+00	0	58	0	3002073088	43	4381
2026-01-22 05:15:28.74	248.09	17.42	-36.8	-38.1	16.6	0.00e+00	0	58	0	3009413120	43	4382
2026-01-22 05:15:29.75	247.96	17.32	-36.8	-38.2	16.5	0.00e+00	0	58	0	3015704576	43	4399
2026-01-22 05:15:30.77	247.82	17.22	-36.8	-38.1	16.6	0.00e+00	0	58	0	3023044608	43	4390
2026-01-22 05:15:31.78	247.69	17.13	-36.6	-37.9	16.8	0.00e+00	0	58	0	3030384640	43	4287
2026-01-22 05:15:32.79	247.55	17.03	-36.7	-38.0	16.7	0.00e+00	0	58	0	3037724672	43	4323
2026-01-22 05:15:33.80	247.42	16.93	-36.7	-38.0	16.7	0.00e+00	0	58	0	3045064704	43	4308
2026-01-22 05:15:34.81	247.29	16.84	-36.7	-38.1	16.6	0.00e+00	0	58	0	3052404736	43	4352
2026-01-22 05:15:35.82	247.16	16.74	-36.7	-38.1	16.6	0.00e+00	0	58	0	3059744768	43	4371
2026-01-22 05:15:36.83	247.03	16.65	-36.8	-38.2	16.5	0.00e+00	0	58	0	3067084800	43	4420
2026-01-22 05:15:37.84	246.90	16.55	-36.9	-38.3	16.4	0.00e+00	0	58	0	3074424832	43	4482
2026-01-22 05:15:38.85	246.77	16.46	-37.0	-38.5	16.2	0.00e+00	0	58	0	3081764864	43	4547
2026-01-22 05:15:39.85	246.65	16.36	-37.1	-38.6	16.1	0.00e+00	0	58	0	3089104896	43	4610
2026-01-22 05:15:40.87	246.52	16.27	-37.2	-38.6	16.1	0.00e+00	0	58	0	3096444928	43	4637
2026-01-22 05:15:41.88	246.39	16.17	-37.5	-38.9	15.9	0.00e+00	0	58	0	3103784960	44	4540
2026-01-22 05:15:42.89	246.27	16.08	-37.5	-39.0	15.8	0.00e+00	0	58	0	3111124992	44	4591
2026-01-22 05:15:43.89	246.15	15.98	-37.6	-39.1	15.7	0.00e+00	0	58	0	3118465024	44	4628
2026-01-22 05:15:44.90	246.02	15.89	-37.7	-39.2	15.6	0.00e+00	0	58	0	3125805056	44	4679
2026-01-22 05:15:45.91	245.90	15.80	-37.7	-39.2	15.6	0.00e+00	0	58	0	3133145088	44	4695
2026-01-22 05:15:46.92	245.78	15.70	-37.7	-39.2	15.6	0.00e+00	0	58	0	3139436544	44	4676
2026-01-22 05:15:47.93	245.66	15.61	-37.7	-39.3	15.5	0.00e+00	0	58	0	3147825152	44	4717
2026-01-22 05:15:48.94	245.54	15.52	-37.6	-39.1	15.7	0.00e+00	0	58	0	3155165184	44	4614
2026-01-22 05:15:49.95	245.42	15.43	-37.4	-38.9	15.9	0.00e+00	0	58	0	3161456640	44	4509
2026-01-22 05:15:50.96	245.30	15.33	-37.4	-38.9	15.9	0.00e+00	0	58	0	3168796672	44	4503
2026-01-22 05:15:51.97	245.18	15.24	-37.3	-38.7	16.1	0.00e+00	0	58	0	3176136704	44	4433
2026-01-22 05:15:52.98	245.07	15.15	-37.2	-38.6	16.2	0.00e+00	0	58	0	3183476736	44	4386
2026-01-22 05:15:53.99	244.95	15.06	-37.1	-38.5	16.3	0.00e+00	0	58	0	3190816768	44	4316
2026-01-22 05:15:55.00	244.84	14.97	-37.1	-38.5	16.2	0.00e+00	0	58	0	3198156800	44	4332
2026-01-22 05:15:56.01	244.72	14.87	-37.1	-38.6	16.2	0.00e+00	0	58	0	3205496832	44	4349
2026-01-22 05:15:57.02	244.61	14.78	-37.2	-38.6	16.2	0.00e+00	0	58	0	3212836864	44	4361
2026-01-22 05:15:58.02	244.49	14.69	-37.3	-38.7	16.1	0.00e+00	0	58	0	3220176896	44	4409
2026-01-22 05:15:59.03	244.38	14.60	-37.4	-38.9	15.9	0.00e+00	0	58	0	3227516928	44	4527
2026-01-22 05:16:00.04	244.27	14.51	-37.4	-38.9	15.9	0.00e+00	0	58	0	3234856960	44	4514
2026-01-22 05:16:01.05	244.16	14.42	-37.6	-39.1	15.7	0.00e+00	0	58	0	3242196992	44	4622
2026-01-22 05:16:02.06	244.05	14.33	-37.6	-39.1	15.7	0.00e+00	0	58	0	3249537024	44	4627
2026-01-22 05:16:03.07	243.94	14.24	-37.6	-39.2	15.6	0.00e+00	0	58	0	3256877056	44	4668
2026-01-22 05:16:04.08	243.83	14.15	-37.6	-39.1	15.7	0.00e+00	0	58	0	3264217088	44	4631
2026-01-22 05:16:05.09	243.72	14.06	-37.7	-39.2	15.5	0.00e+00	0	58	0	3271557120	45	4441
2026-01-22 05:16:06.10	243.61	13.97	-37.7	-39.2	15.5	0.00e+00	0	58	0	3278897152	45	4413
2026-01-22 05:16:07.11	243.50	13.88	-37.7	-39.3	15.4	0.00e+00	0	58	0	3286237184	45	4460
2026-01-22 05:16:08.12	243.40	13.80	-37.7	-39.3	15.4	0.00e+00	0	58	0	3292528640	45	4469
2026-01-22 05:16:09.13	243.29	13.71	-37.8	-39.4	15.3	0.00e+00	0	58	0	3300917248	45	4529
2026-01-22 05:16:10.14	243.19	13.62	-37.9	-39.5	15.3	0.00e+00	0	58	0	3308257280	45	4549
2026-01-22 05:16:11.16	243.08	13.53	-38.0	-39.6	15.1	0.00e+00	0	58	0	3314548736	45	4622
2026-01-22 05:16:12.17	242.98	13.44	-37.9	-39.5	15.2	0.00e+00	0	58	0	3321888768	45	4590
2026-01-22 05:16:13.18	242.87	13.36	-38.0	-39.6	15.1	0.00e+00	0	58	0	3329228800	45	4604
2026-01-22 05:16:14.18	242.77	13.27	-38.0	-39.6	15.1	0.00e+00	0	58	0	3336568832	45	4615
2026-01-22 05:16:15.19	242.67	13.18	-38.0	-39.7	15.0	0.00e+00	0	58	0	3343908864	45	4673
2026-01-22 05:16:16.20	242.57	13.10	-38.2	-39.9	14.8	0.00e+00	0	58	0	3351248896	45	4789
2026-01-22 05:16:17.21	242.47	13.01	-38.2	-39.9	14.8	0.00e+00	0	58	0	3358588928	45	4772
2026-01-22 05:16:18.22	242.37	12.92	-38.2	-39.9	14.8	0.00e+00	0	58	0	3365928960	46	4504
2026-01-22 05:16:19.23	242.27	12.84	-38.4	-40.1	14.6	0.00e+00	0	58	0	3373268992	46	4614
2026-01-22 05:16:20.24	242.17	12.75	-38.3	-40.0	14.7	1.10e-06	0	58	0	3380609024	46	4580
2026-01-22 05:16:21.25	242.07	12.66	-38.4	-40.1	14.5	1.10e-06	0	58	0	3387949056	46	4616
2026-01-22 05:16:22.26	241.97	12.58	-38.4	-40.1	14.5	0.00e+00	0	58	0	3395289088	46	4625
2026-01-22 05:16:23.27	241.87	12.49	-38.2	-39.9	14.7	0.00e+00	0	58	0	3402629120	46	4513
2026-01-22 05:16:24.28	241.78	12.41	-38.2	-39.9	14.7	0.00e+00	0	58	0	3409969152	46	4521
2026-01-22 05:16:25.29	241.68	12.32	-38.2	-39.9	14.7	0.00e+00	0	58	0	3417309184	46	4532
2026-01-22 05:16:26.30	241.58	12.24	-38.1	-39.8	14.9	0.00e+00	0	58	0	3424649216	46	4452
2026-01-22 05:16:27.31	241.49	12.15	-38.0	-39.7	15.0	1.10e-06	0	58	0	3431989248	46	4403
2026-01-22 05:16:28.32	241.39	12.07	-38.0	-39.6	15.0	0.00e+00	0	58	0	3438280704	46	4381
2026-01-22 05:16:29.33	241.30	11.99	-38.0	-39.6	15.0	0.00e+00	0	58	0	3445620736	46	4371
2026-01-22 05:16:30.34	241.21	11.90	-38.0	-39.6	15.0	0.00e+00	0	58	0	3454009344	46	4368
2026-01-22 05:16:31.35	241.11	11.82	-38.0	-39.6	15.0	0.00e+00	0	58	0	3460300800	46	4355
2026-01-22 05:16:32.36	241.02	11.73	-38.0	-39.6	15.1	0.00e+00	0	58	0	3467640832	46	4356
2026-01-22 05:16:33.37	240.93	11.65	-38.1	-39.8	14.8	0.00e+00	0	58	0	3474980864	46	4448
2026-01-22 05:16:34.38	240.84	11.57	-37.9	-39.5	15.2	0.00e+00	0	58	0	3482320896	46	4305
2026-01-22 05:16:35.39	240.75	11.49	-38.1	-39.7	14.9	1.10e-06	0	58	0	3489660928	46	4441
2026-01-22 05:16:36.40	240.66	11.40	-38.1	-39.8	14.8	0.00e+00	0	58	0	3497000960	46	4465
2026-01-22 05:16:37.41	240.57	11.32	-38.1	-39.8	14.8	0.00e+00	0	58	0	3504340992	46	4462
2026-01-22 05:16:38.42	240.48	11.24	-38.2	-39.9	14.7	1.10e-06	0	58	0	3511681024	46	4513
2026-01-22 05:16:39.43	240.39	11.16	-38.2	-39.9	14.6	1.10e-06	0	58	0	3519021056	46	4526
2026-01-22 05:16:40.44	240.30	11.08	-38.1	-39.8	14.8	0.00e+00	0	58	0	3526361088	46	4461
2026-01-22 05:16:41.45	240.21	10.99	-38.2	-39.9	14.7	0.00e+00	0	58	0	3533701120	46	4516
2026-01-22 05:16:42.46	240.13	10.91	-38.2	-39.9	14.7	0.00e+00	0	58	0	3541041152	46	4516
2026-01-22 05:16:43.46	240.04	10.83	-38.3	-40.0	14.5	0.00e+00	0	58	0	3548381184	46	4559
2026-01-22 05:16:44.47	239.95	10.75	-38.2	-39.9	14.6	0.00e+00	0	58	0	3555721216	46	4517
2026-01-22 05:16:45.48	239.87	10.67	-38.3	-40.1	14.4	1.10e-06	0	58	0	3563061248	46	4624
2026-01-22 05:16:46.49	239.78	10.59	-38.5	-40.3	14.2	2.20e-06	0	58	0	3570401280	46	4726
2026-01-22 05:16:47.50	239.70	10.51	-38.5	-40.2	14.3	0.00e+00	0	58	0	3577741312	46	4693
2026-01-22 05:16:48.51	239.61	10.43	-38.5	-40.2	14.3	0.00e+00	0	58	0	3585081344	46	4698
2026-01-22 05:16:49.53	239.53	10.35	-38.6	-40.4	14.1	1.10e-06	0	58	0	3591372800	46	4783
2026-01-22 05:16:50.54	239.45	10.27	-38.5	-40.4	14.1	1.10e-06	0	58	0	3599761408	47	4499
2026-01-22 05:16:51.54	239.36	10.19	-38.6	-40.4	14.1	3.40e-06	0	58	0	3607101440	47	4508
2026-01-22 05:16:52.55	239.28	10.11	-38.6	-40.4	14.0	1.10e-06	0	58	0	3613392896	47	4536
2026-01-22 05:16:53.57	239.20	10.03	-38.6	-40.4	14.1	0.00e+00	0	58	0	3620732928	47	4518
2026-01-22 05:16:54.58	239.12	9.95	-38.7	-40.6	13.8	4.50e-06	0	58	0	3628072960	47	4637
2026-01-22 05:16:55.59	239.04	9.87	-38.5	-40.3	14.1	1.10e-06	0	58	0	3635412992	47	4488
2026-01-22 05:16:56.60	238.96	9.79	-38.8	-40.7	13.7	5.70e-06	0	58	0	3642753024	47	4699
2026-01-22 05:16:57.61	238.88	9.72	-38.5	-40.3	14.1	0.00e+00	0	58	0	3650093056	47	4486
2026-01-22 05:16:58.62	238.80	9.64	-38.7	-40.6	13.8	1.10e-06	0	58	0	3657433088	47	4606
2026-01-22 05:16:59.63	238.72	9.56	-38.5	-40.3	14.1	4.50e-06	0	58	0	3664773120	47	4483
2026-01-22 05:17:00.64	238.64	9.48	-38.7	-40.6	13.8	2.20e-06	0	58	0	3672113152	47	4616
2026-01-22 05:17:01.65	238.56	9.41	-38.5	-40.3	14.1	0.00e+00	0	58	0	3679453184	47	4475
