passes_logs/2026/01/22/R2.0S_Moscow/R2.0S_Moscow__20260122_230457_NOAA_20_JPSS-1_rec.log

#Pass ID: 20260122_230457_NOAA 20 (JPSS-1)
#Satellite: NOAA 20 (JPSS-1)
#Configuration: NOAA 20
#almurnet v.1.7.20251203
#Start time: 2026-01-22 23:04:58

#Version: 2.2.20231116
#Station: R2.0S_Moscow
#Location: 37.707566 lon 55.798166 lat
#TLE: 1 43013U 17073A   26022.44900781  .00000193  00000+0  11233-3 0  9999
#TLE: 2 43013  98.7645 323.3100 0001197  28.8413 331.2829 14.19538802423792

#Time	Az	El	Level	Level2	SNR	BER	BlckErr	Temp	State	Recorded	gain1	gain2
2026-01-22 23:04:58.06	19.10	2.04	-42.2	-56.7	3.8	1.49e+00	0	52	0	0	56	18681
2026-01-22 23:04:59.06	19.13	2.11	-42.0	-56.6	3.8	1.49e+00	0	52	104	0	55	19392
2026-01-22 23:05:00.07	19.16	2.17	-42.0	-56.6	3.8	1.49e+00	0	52	104	0	55	19449
2026-01-22 23:05:01.08	19.19	2.23	-42.0	-56.6	3.8	1.49e+00	0	52	104	0	55	19441
2026-01-22 23:05:02.09	19.23	2.30	-42.0	-56.6	3.8	1.49e+00	0	53	104	0	55	19429
2026-01-22 23:05:03.10	19.26	2.36	-42.0	-56.6	3.8	1.49e+00	0	53	104	0	55	19405
2026-01-22 23:05:04.11	19.29	2.42	-42.0	-56.6	3.8	1.49e+00	0	52	104	0	55	19448
2026-01-22 23:05:05.13	19.32	2.49	-42.0	-56.6	3.8	1.49e+00	0	53	104	0	55	19450
2026-01-22 23:05:06.14	19.35	2.55	-42.0	-56.5	3.8	1.49e+00	0	53	104	0	55	19374
2026-01-22 23:05:07.15	19.38	2.62	-42.0	-56.6	3.8	1.49e+00	0	53	104	0	55	19450
2026-01-22 23:05:08.16	19.41	2.68	-42.0	-56.6	3.8	1.49e+00	0	53	104	0	55	19482
2026-01-22 23:05:09.17	19.45	2.74	-42.0	-56.6	3.8	1.49e+00	0	53	104	0	55	19411
2026-01-22 23:05:10.18	19.48	2.81	-42.0	-56.5	3.8	1.49e+00	0	53	104	0	55	19387
2026-01-22 23:05:11.19	19.51	2.87	-42.0	-56.6	3.8	1.49e+00	0	53	104	0	55	19401
2026-01-22 23:05:12.20	19.54	2.94	-42.0	-56.6	3.8	1.49e+00	0	53	104	0	55	19443
2026-01-22 23:05:13.21	19.57	3.00	-42.0	-56.5	3.8	1.49e+00	0	53	104	0	55	19381
2026-01-22 23:05:14.22	19.61	3.07	-42.0	-56.6	3.8	1.49e+00	0	53	104	0	55	19438
2026-01-22 23:05:15.23	19.64	3.13	-42.0	-56.6	3.8	1.49e+00	0	53	104	0	55	19414
2026-01-22 23:05:16.24	19.67	3.20	-42.0	-56.6	3.8	1.49e+00	0	54	104	0	55	19442
2026-01-22 23:05:17.25	19.71	3.26	-42.0	-56.5	3.8	1.49e+00	0	53	104	0	55	19385
2026-01-22 23:05:18.26	19.74	3.33	-42.0	-56.6	3.8	1.49e+00	0	54	104	0	55	19404
2026-01-22 23:05:19.27	19.77	3.40	-42.0	-56.6	3.8	1.49e+00	0	54	104	0	55	19393
2026-01-22 23:05:20.28	19.80	3.46	-42.0	-56.5	3.8	1.49e+00	0	54	104	0	55	19351
2026-01-22 23:05:21.29	19.84	3.53	-42.0	-56.6	3.8	1.49e+00	0	54	104	0	55	19409
2026-01-22 23:05:22.30	19.87	3.59	-42.0	-56.5	3.8	1.49e+00	0	54	104	0	55	19371
2026-01-22 23:05:23.31	19.90	3.66	-42.0	-56.6	3.8	1.49e+00	0	54	104	0	55	19407
2026-01-22 23:05:24.32	19.94	3.73	-42.0	-56.6	3.8	1.49e+00	0	54	104	0	55	19392
2026-01-22 23:05:25.33	19.97	3.79	-42.0	-56.5	3.8	1.49e+00	0	54	104	0	55	19329
2026-01-22 23:05:26.34	20.01	3.86	-42.0	-56.5	3.8	1.49e+00	0	54	104	0	55	19347
2026-01-22 23:05:27.35	20.04	3.93	-42.0	-56.5	3.8	1.49e+00	0	54	104	0	55	19294
2026-01-22 23:05:28.37	20.08	3.99	-42.0	-56.5	3.8	1.49e+00	0	54	104	0	55	19327
2026-01-22 23:05:29.38	20.11	4.06	-42.0	-56.5	3.8	1.49e+00	0	54	104	0	55	19365
2026-01-22 23:05:30.39	20.14	4.13	-42.0	-56.5	3.8	1.49e+00	0	54	104	0	55	19355
2026-01-22 23:05:31.40	20.18	4.20	-42.0	-56.6	3.8	1.49e+00	0	54	104	0	55	19390
2026-01-22 23:05:32.40	20.21	4.26	-42.0	-56.5	3.8	1.49e+00	0	54	104	0	55	19382
2026-01-22 23:05:33.41	20.25	4.33	-42.0	-56.5	3.8	1.49e+00	0	55	104	0	55	19364
2026-01-22 23:05:34.42	20.28	4.40	-42.0	-56.6	3.8	1.49e+00	0	54	104	0	55	19396
2026-01-22 23:05:35.43	20.32	4.47	-42.0	-56.6	3.8	1.49e+00	0	55	104	0	55	19430
2026-01-22 23:05:36.44	20.35	4.54	-42.0	-56.6	3.8	1.49e+00	0	55	104	0	55	19396
2026-01-22 23:05:37.45	20.39	4.61	-42.0	-56.5	3.8	1.49e+00	0	55	104	0	55	19372
2026-01-22 23:05:38.46	20.42	4.67	-42.0	-56.5	3.8	1.49e+00	0	55	104	0	55	19371
2026-01-22 23:05:39.48	20.46	4.74	-42.0	-56.5	3.8	1.49e+00	0	55	104	0	55	19294
2026-01-22 23:05:40.48	20.50	4.81	-42.0	-56.6	3.8	1.49e+00	0	55	104	0	55	19432
2026-01-22 23:05:41.49	20.53	4.88	-42.0	-56.5	3.8	1.49e+00	0	55	104	0	55	19339
2026-01-22 23:05:42.50	20.57	4.95	-42.0	-56.5	3.8	1.49e+00	0	55	104	0	55	19318
2026-01-22 23:05:43.52	20.61	5.02	-42.0	-56.5	3.8	1.49e+00	0	55	104	0	55	19370
2026-01-22 23:05:44.53	20.64	5.09	-42.0	-56.5	3.8	1.49e+00	0	55	104	0	55	19340
2026-01-22 23:05:45.54	20.68	5.16	-42.0	-56.5	3.8	1.49e+00	0	55	104	0	55	19349
2026-01-22 23:05:46.55	20.72	5.23	-42.0	-56.5	3.8	1.49e+00	0	55	104	0	55	19338
2026-01-22 23:05:47.56	20.75	5.30	-42.0	-56.5	3.8	1.49e+00	0	55	104	0	55	19359
2026-01-22 23:05:48.57	20.79	5.37	-42.0	-56.5	3.8	1.49e+00	0	55	104	0	55	19342
2026-01-22 23:05:49.58	20.83	5.44	-42.0	-56.5	3.8	1.49e+00	0	55	104	0	55	19327
2026-01-22 23:05:50.59	20.86	5.52	-42.0	-56.5	3.8	1.49e+00	0	55	104	0	55	19316
2026-01-22 23:05:51.60	20.90	5.59	-42.0	-56.5	3.8	1.49e+00	0	55	104	0	55	19363
2026-01-22 23:05:52.61	20.94	5.66	-42.0	-56.5	3.8	1.49e+00	0	56	104	0	55	19341
2026-01-22 23:05:53.62	20.98	5.73	-42.0	-56.5	3.8	1.49e+00	0	55	104	0	55	19346
2026-01-22 23:05:54.63	21.02	5.80	-42.0	-56.5	3.8	1.49e+00	0	55	104	0	55	19325
2026-01-22 23:05:55.64	21.05	5.87	-42.0	-56.5	3.8	1.49e+00	0	56	104	0	55	19380
2026-01-22 23:05:56.65	21.09	5.94	-42.0	-56.5	3.8	1.49e+00	0	56	104	0	55	19349
2026-01-22 23:05:57.66	21.13	6.02	-41.9	-56.6	3.8	1.49e+00	0	56	104	0	55	19418
2026-01-22 23:05:58.67	21.17	6.09	-42.0	-56.5	3.8	1.49e+00	0	56	104	0	55	19300
2026-01-22 23:05:59.68	21.21	6.16	-42.0	-56.5	3.8	1.49e+00	0	56	104	0	55	19281
2026-01-22 23:06:00.69	21.25	6.23	-42.0	-56.5	3.8	1.49e+00	0	56	104	0	55	19312
2026-01-22 23:06:01.70	21.29	6.31	-42.0	-56.5	3.8	1.49e+00	0	56	104	0	55	19335
2026-01-22 23:06:02.71	21.33	6.38	-42.0	-56.5	3.8	1.49e+00	0	56	104	0	55	19348
2026-01-22 23:06:03.72	21.37	6.45	-42.0	-56.5	3.8	1.49e+00	0	56	104	0	55	19323
2026-01-22 23:06:04.73	21.41	6.53	-42.0	-56.5	3.8	1.49e+00	0	56	104	0	55	19313
2026-01-22 23:06:05.74	21.45	6.60	-42.0	-56.5	3.8	1.49e+00	0	56	104	0	55	19373
2026-01-22 23:06:06.75	21.49	6.68	-42.0	-56.5	3.8	1.49e+00	0	56	104	0	55	19381
2026-01-22 23:06:07.76	21.53	6.75	-42.0	-56.5	3.8	1.49e+00	0	56	104	0	55	19330
2026-01-22 23:06:08.77	21.57	6.82	-42.0	-56.5	3.8	1.49e+00	0	56	104	0	55	19370
2026-01-22 23:06:09.78	21.61	6.90	-42.0	-56.5	3.8	1.49e+00	0	56	104	0	55	19298
2026-01-22 23:06:10.79	21.65	6.97	-42.0	-56.5	3.8	1.49e+00	0	56	104	0	55	19273
2026-01-22 23:06:11.80	21.69	7.05	-42.0	-56.5	3.8	1.49e+00	0	56	104	0	55	19206
2026-01-22 23:06:12.81	21.73	7.12	-42.0	-56.4	3.8	1.49e+00	0	56	104	0	55	18999
2026-01-22 23:06:13.82	21.77	7.20	-42.0	-56.3	3.8	1.49e+00	0	56	104	0	55	18819
2026-01-22 23:06:14.83	21.82	7.28	-41.9	-56.1	3.8	1.49e+00	0	56	104	0	55	18495
2026-01-22 23:06:15.84	21.86	7.35	-41.9	-55.9	3.8	1.49e+00	0	56	104	0	55	18067
2026-01-22 23:06:16.85	21.90	7.43	-41.9	-55.8	3.8	1.49e+00	0	56	104	0	55	17820
2026-01-22 23:06:17.86	21.94	7.50	-41.9	-55.7	3.8	1.49e+00	0	56	104	0	55	17629
2026-01-22 23:06:18.87	21.98	7.58	-41.9	-55.4	3.8	1.49e+00	0	56	104	0	55	16978
2026-01-22 23:06:19.88	22.03	7.66	-41.9	-54.8	3.8	1.49e+00	0	56	104	0	55	15763
2026-01-22 23:06:20.89	22.07	7.73	-41.8	-54.0	3.8	1.48e+00	0	57	104	0	55	14427
2026-01-22 23:06:21.90	22.11	7.81	-41.7	-53.1	4.1	1.47e+00	0	57	0	0	55	13076
2026-01-22 23:06:22.91	22.16	7.89	-41.6	-52.1	4.5	1.35e+00	35	57	0	0	55	11657
2026-01-22 23:06:23.93	22.20	7.97	-41.5	-51.1	4.9	8.45e-01	0	57	0	2097152	55	10408
2026-01-22 23:06:24.93	22.24	8.04	-41.5	-50.6	5.2	6.56e-01	0	57	0	4194304	54	10371
2026-01-22 23:06:25.95	22.29	8.12	-42.3	-55.3	3.8	6.22e-01	0	57	104	5242880	55	16752
2026-01-22 23:06:26.96	22.33	8.20	-42.5	-51.3	5.3	8.80e-01	0	57	0	5242880	55	10655
2026-01-22 23:06:27.97	22.38	8.28	-41.5	-54.9	3.8	6.00e-01	0	57	104	6291456	55	16081
2026-01-22 23:06:28.98	22.42	8.36	-42.0	-56.0	3.8	1.49e+00	0	57	104	6291456	55	18283
2026-01-22 23:06:29.99	22.47	8.44	-42.6	-50.8	6.1	9.87e-02	0	57	0	6291456	55	10000
2026-01-22 23:06:31.00	22.51	8.52	-41.5	-47.1	9.1	6.70e-02	0	57	0	8388608	55	6570
2026-01-22 23:06:32.01	22.56	8.60	-41.5	-46.9	9.3	1.95e-02	0	57	0	10485760	54	6796
2026-01-22 23:06:33.02	22.60	8.68	-41.6	-47.2	9.2	1.92e-02	0	57	0	12582912	54	6965
2026-01-22 23:06:34.03	22.65	8.76	-41.8	-47.6	8.8	2.92e-02	0	57	0	13631488	54	7318
2026-01-22 23:06:35.03	22.69	8.84	-41.9	-47.8	8.6	3.65e-02	0	57	0	15728640	54	7538
2026-01-22 23:06:36.04	22.74	8.92	-41.9	-47.9	8.5	4.37e-02	0	57	0	17825792	54	7548
2026-01-22 23:06:37.05	22.78	9.00	-41.7	-47.3	9.0	2.79e-02	0	57	0	19922944	54	7103
2026-01-22 23:06:38.06	22.83	9.08	-41.8	-47.4	9.1	2.29e-02	0	57	0	22020096	54	7127
2026-01-22 23:06:39.07	22.88	9.16	-41.8	-47.5	9.0	2.36e-02	0	57	0	23068672	54	7249
2026-01-22 23:06:40.08	22.92	9.24	-41.9	-47.5	9.0	2.41e-02	0	57	0	25165824	54	7251
2026-01-22 23:06:41.09	22.97	9.32	-41.9	-47.6	8.9	2.44e-02	0	57	0	27262976	54	7312
2026-01-22 23:06:42.10	23.02	9.40	-41.9	-47.4	9.2	2.36e-02	0	57	0	29360128	54	7169
2026-01-22 23:06:43.11	23.07	9.49	-41.9	-47.4	9.2	1.85e-02	0	57	0	31457280	54	7195
2026-01-22 23:06:44.12	23.12	9.57	-42.0	-47.6	9.1	2.03e-02	0	57	0	33554432	54	7336
2026-01-22 23:06:45.13	23.16	9.65	-41.9	-47.4	9.3	2.22e-02	0	57	0	34603008	54	7168
2026-01-22 23:06:46.14	23.21	9.74	-41.9	-47.3	9.6	1.31e-02	0	58	0	36700160	54	7055
2026-01-22 23:06:47.15	23.26	9.82	-42.0	-47.6	9.2	1.96e-02	0	58	0	38797312	54	7335
2026-01-22 23:06:48.16	23.31	9.90	-41.9	-47.1	9.7	1.38e-02	0	57	0	40894464	54	6914
2026-01-22 23:06:49.17	23.36	9.99	-42.0	-47.6	9.3	1.57e-02	0	57	0	42991616	54	7318
2026-01-22 23:06:50.18	23.41	10.07	-41.9	-47.2	9.7	1.61e-02	0	57	0	44040192	54	6994
2026-01-22 23:06:51.19	23.46	10.15	-42.0	-47.2	9.8	8.53e-03	0	58	0	46137344	54	7000
2026-01-22 23:06:52.20	23.51	10.24	-42.0	-47.1	9.9	1.35e-02	0	58	0	48234496	54	6932
2026-01-22 23:06:53.21	23.56	10.32	-41.9	-46.9	10.1	5.66e-03	0	58	0	50331648	54	6799
2026-01-22 23:06:54.22	23.61	10.41	-42.0	-47.0	10.1	8.76e-03	0	58	0	52428800	54	6832
2026-01-22 23:06:55.23	23.66	10.50	-41.9	-46.9	10.2	5.69e-03	0	58	0	53477376	54	6789
2026-01-22 23:06:56.24	23.71	10.58	-42.0	-46.9	10.3	6.44e-03	0	58	0	55574528	54	6767
2026-01-22 23:06:57.25	23.76	10.67	-42.0	-46.9	10.3	4.49e-03	0	58	0	57671680	54	6736
2026-01-22 23:06:58.26	23.81	10.75	-41.9	-46.8	10.4	5.19e-03	0	58	0	59768832	54	6673
2026-01-22 23:06:59.27	23.87	10.84	-42.0	-46.9	10.4	4.81e-03	0	58	0	61865984	54	6726
2026-01-22 23:07:00.28	23.92	10.93	-42.0	-46.8	10.5	3.98e-03	0	58	0	62914560	54	6672
2026-01-22 23:07:01.29	23.97	11.01	-42.0	-46.8	10.5	4.19e-03	0	58	0	65011712	54	6697
2026-01-22 23:07:02.30	24.02	11.10	-42.0	-46.7	10.7	3.25e-03	0	58	0	67108864	54	6591
2026-01-22 23:07:03.31	24.08	11.19	-41.9	-46.6	10.7	3.19e-03	0	58	0	69206016	54	6567
2026-01-22 23:07:04.32	24.13	11.28	-41.9	-46.6	10.7	2.83e-03	0	58	0	71303168	54	6539
2026-01-22 23:07:05.32	24.18	11.37	-42.0	-46.7	10.7	2.89e-03	0	58	0	72351744	54	6580
2026-01-22 23:07:06.33	24.24	11.45	-42.0	-46.7	10.7	3.43e-03	0	58	0	74448896	54	6588
2026-01-22 23:07:07.34	24.29	11.54	-42.0	-46.7	10.6	3.76e-03	0	58	0	76546048	54	6636
2026-01-22 23:07:08.35	24.35	11.63	-41.9	-46.6	10.9	2.27e-03	0	58	0	78643200	54	6497
2026-01-22 23:07:09.36	24.40	11.72	-41.9	-46.4	11.0	2.02e-03	0	58	0	80740352	54	6406
2026-01-22 23:07:10.37	24.46	11.81	-41.9	-46.4	10.9	1.74e-03	0	58	0	81788928	54	6419
2026-01-22 23:07:11.38	24.51	11.90	-41.9	-46.4	11.0	1.94e-03	0	58	0	83886080	54	6369
2026-01-22 23:07:12.39	24.57	11.99	-41.9	-46.4	11.1	1.55e-03	0	58	0	85983232	54	6355
2026-01-22 23:07:13.40	24.62	12.08	-41.8	-46.2	11.3	1.38e-03	0	58	0	88080384	54	6233
2026-01-22 23:07:14.41	24.68	12.17	-41.8	-46.2	11.3	1.11e-03	0	58	0	90177536	54	6226
2026-01-22 23:07:15.42	24.74	12.27	-41.9	-46.3	11.2	1.38e-03	0	58	0	91226112	54	6301
2026-01-22 23:07:16.43	24.79	12.36	-41.8	-46.2	11.3	1.25e-03	0	58	0	93323264	54	6248
2026-01-22 23:07:17.44	24.85	12.45	-41.8	-46.1	11.4	1.09e-03	0	58	0	95420416	54	6184
2026-01-22 23:07:18.45	24.91	12.54	-41.8	-46.1	11.5	9.25e-04	0	58	0	97517568	54	6160
2026-01-22 23:07:19.46	24.97	12.64	-41.7	-46.0	11.6	7.25e-04	0	58	0	99614720	54	6078
2026-01-22 23:07:20.47	25.03	12.73	-41.7	-45.9	11.6	6.91e-04	0	58	0	101711872	54	6060
2026-01-22 23:07:21.48	25.08	12.82	-41.7	-45.9	11.6	7.19e-04	0	58	0	102760448	54	6025
2026-01-22 23:07:22.48	25.14	12.91	-41.7	-45.8	11.8	5.08e-04	0	58	0	104857600	54	5963
2026-01-22 23:07:23.49	25.20	13.01	-41.7	-45.8	11.9	4.94e-04	0	58	0	106954752	54	5945
2026-01-22 23:07:24.50	25.26	13.10	-41.7	-45.8	11.8	5.11e-04	0	58	0	109051904	54	5985
2026-01-22 23:07:25.51	25.32	13.20	-41.6	-45.6	12.1	3.19e-04	0	58	0	111149056	54	5826
2026-01-22 23:07:26.52	25.38	13.29	-41.6	-45.5	12.2	2.47e-04	0	58	0	112197632	54	5750
2026-01-22 23:07:27.53	25.44	13.39	-41.6	-45.5	12.2	2.24e-04	0	58	0	114294784	54	5751
2026-01-22 23:07:28.54	25.51	13.48	-41.6	-45.5	12.2	2.42e-04	0	58	0	116391936	54	5771
2026-01-22 23:07:29.55	25.57	13.58	-41.5	-45.4	12.3	2.08e-04	0	58	0	118489088	54	5705
2026-01-22 23:07:30.56	25.63	13.68	-41.6	-45.5	12.2	2.23e-04	0	58	0	119537664	54	5783
2026-01-22 23:07:31.57	25.69	13.77	-41.6	-45.5	12.2	1.78e-04	0	58	0	121634816	54	5760
2026-01-22 23:07:32.58	25.75	13.87	-41.6	-45.6	12.2	2.24e-04	0	58	0	123731968	54	5802
2026-01-22 23:07:33.59	25.82	13.97	-41.6	-45.5	12.2	2.00e-04	0	58	0	125829120	54	5746
2026-01-22 23:07:34.60	25.88	14.07	-41.6	-45.5	12.2	1.90e-04	0	59	0	127926272	54	5747
2026-01-22 23:07:35.61	25.95	14.17	-41.7	-45.6	12.2	1.91e-04	0	59	0	130023424	54	5821
2026-01-22 23:07:36.62	26.01	14.26	-41.6	-45.5	12.3	2.12e-04	0	59	0	131072000	54	5764
2026-01-22 23:07:37.63	26.07	14.36	-41.7	-45.6	12.2	2.08e-04	0	58	0	133169152	54	5814
2026-01-22 23:07:38.64	26.14	14.46	-41.6	-45.6	12.2	2.09e-04	0	59	0	135266304	54	5792
2026-01-22 23:07:39.65	26.21	14.56	-41.6	-45.4	12.4	1.52e-04	0	59	0	137363456	54	5697
2026-01-22 23:07:40.66	26.27	14.66	-41.6	-45.5	12.3	1.69e-04	0	59	0	139460608	54	5768
2026-01-22 23:07:41.67	26.34	14.76	-41.6	-45.5	12.3	1.91e-04	0	59	0	140509184	54	5743
2026-01-22 23:07:42.68	26.40	14.86	-41.6	-45.5	12.4	1.78e-04	0	59	0	142606336	54	5739
2026-01-22 23:07:43.69	26.47	14.97	-41.7	-45.5	12.3	1.72e-04	0	59	0	144703488	54	5763
2026-01-22 23:07:44.70	26.54	15.07	-41.6	-45.5	12.4	1.43e-04	0	59	0	146800640	54	5729
2026-01-22 23:07:45.71	26.61	15.17	-41.7	-45.5	12.4	1.58e-04	0	59	0	148897792	54	5735
2026-01-22 23:07:46.72	26.68	15.27	-41.6	-45.3	12.5	1.49e-04	0	59	0	149946368	54	5644
2026-01-22 23:07:47.72	26.74	15.37	-41.5	-45.2	12.7	6.94e-05	0	59	0	152043520	54	5552
2026-01-22 23:07:48.73	26.81	15.48	-41.5	-45.1	12.7	7.47e-05	0	59	0	154140672	54	5513
2026-01-22 23:07:49.74	26.88	15.58	-41.5	-45.2	12.7	8.46e-05	0	59	0	156237824	54	5533
2026-01-22 23:07:50.75	26.95	15.69	-41.5	-45.1	12.8	6.86e-05	0	59	0	158334976	54	5497
2026-01-22 23:07:51.76	27.02	15.79	-41.5	-45.1	12.7	6.63e-05	0	59	0	159383552	54	5514
2026-01-22 23:07:52.77	27.10	15.90	-41.5	-45.2	12.7	8.31e-05	0	59	0	161480704	54	5535
2026-01-22 23:07:53.78	27.17	16.00	-41.5	-45.2	12.6	7.09e-05	0	59	0	163577856	54	5590
2026-01-22 23:07:54.79	27.24	16.11	-41.5	-45.2	12.7	8.69e-05	0	59	0	165675008	54	5564
2026-01-22 23:07:55.80	27.31	16.21	-41.5	-45.2	12.7	9.61e-05	0	59	0	167772160	54	5565
2026-01-22 23:07:56.81	27.39	16.32	-41.4	-45.0	12.9	4.73e-05	0	59	0	168820736	54	5423
2026-01-22 23:07:57.81	27.46	16.43	-41.4	-45.0	13.0	3.50e-05	0	59	0	170917888	54	5408
2026-01-22 23:07:58.83	27.53	16.54	-41.5	-45.1	12.9	5.11e-05	0	59	0	173015040	54	5466
2026-01-22 23:07:59.84	27.61	16.64	-41.5	-45.1	12.8	5.34e-05	0	59	0	175112192	54	5479
2026-01-22 23:08:00.85	27.68	16.75	-41.4	-44.9	13.0	3.12e-05	0	59	0	177209344	54	5400
2026-01-22 23:08:01.85	27.76	16.86	-41.5	-45.0	12.9	3.43e-05	0	59	0	178257920	54	5453
2026-01-22 23:08:02.86	27.83	16.97	-41.4	-45.0	13.0	3.81e-05	0	59	0	180355072	54	5425
2026-01-22 23:08:03.87	27.91	17.08	-41.5	-45.0	12.9	5.72e-05	0	59	0	182452224	54	5454
2026-01-22 23:08:04.88	27.99	17.19	-41.5	-45.0	12.9	4.19e-05	0	59	0	184549376	54	5457
2026-01-22 23:08:05.89	28.07	17.30	-41.5	-45.0	13.0	4.88e-05	0	59	0	186646528	54	5422
2026-01-22 23:08:06.90	28.14	17.41	-41.5	-45.0	13.0	2.97e-05	0	59	0	187695104	54	5435
2026-01-22 23:08:07.91	28.22	17.52	-41.4	-44.9	13.1	2.82e-05	0	59	0	189792256	54	5385
2026-01-22 23:08:08.92	28.30	17.63	-41.4	-44.9	13.2	3.20e-05	0	59	0	191889408	54	5355
2026-01-22 23:08:09.92	28.38	17.75	-41.4	-44.8	13.2	1.60e-05	0	59	0	193986560	54	5327
2026-01-22 23:08:10.93	28.46	17.86	-41.4	-44.9	13.2	1.52e-05	0	59	0	196083712	54	5342
2026-01-22 23:08:11.94	28.54	17.97	-41.4	-44.8	13.2	2.82e-05	0	59	0	198180864	54	5315
2026-01-22 23:08:12.95	28.63	18.09	-41.4	-44.8	13.3	2.05e-05	0	59	0	199229440	54	5303
2026-01-22 23:08:13.96	28.71	18.20	-41.4	-44.8	13.3	2.13e-05	0	59	0	201326592	54	5328
2026-01-22 23:08:14.97	28.79	18.32	-41.4	-44.8	13.3	2.59e-05	0	59	0	203423744	54	5300
2026-01-22 23:08:15.98	28.87	18.43	-41.4	-44.8	13.3	1.67e-05	0	59	0	205520896	54	5302
2026-01-22 23:08:16.99	28.96	18.55	-41.4	-44.8	13.2	1.67e-05	0	59	0	207618048	54	5334
2026-01-22 23:08:18.00	29.04	18.66	-41.4	-44.8	13.3	1.60e-05	0	59	0	208666624	54	5330
2026-01-22 23:08:19.01	29.13	18.78	-41.5	-44.9	13.2	2.51e-05	0	59	0	210763776	54	5384
2026-01-22 23:08:20.02	29.21	18.90	-41.4	-44.9	13.2	2.59e-05	0	59	0	212860928	54	5350
2026-01-22 23:08:21.02	29.30	19.02	-41.5	-45.0	13.1	2.82e-05	0	59	0	214958080	54	5407
2026-01-22 23:08:22.03	29.39	19.13	-41.5	-44.9	13.2	1.98e-05	0	59	0	217055232	54	5368
2026-01-22 23:08:23.04	29.48	19.25	-41.5	-44.9	13.2	2.51e-05	0	59	0	218103808	54	5396
2026-01-22 23:08:24.05	29.56	19.37	-41.5	-45.0	13.1	2.28e-05	0	59	0	220200960	54	5415
2026-01-22 23:08:25.06	29.65	19.49	-41.5	-45.0	13.1	2.05e-05	0	59	0	222298112	54	5454
2026-01-22 23:08:26.07	29.74	19.61	-41.5	-45.0	13.1	1.98e-05	0	59	0	224395264	54	5418
2026-01-22 23:08:27.08	29.83	19.73	-41.5	-44.9	13.2	2.44e-05	0	59	0	226492416	54	5369
2026-01-22 23:08:28.09	29.92	19.86	-41.5	-44.9	13.2	1.90e-05	0	59	0	227540992	54	5389
2026-01-22 23:08:29.10	30.02	19.98	-41.5	-44.9	13.2	2.36e-05	0	59	0	229638144	54	5373
2026-01-22 23:08:30.11	30.11	20.10	-41.4	-44.9	13.3	1.67e-05	0	60	0	231735296	54	5342
2026-01-22 23:08:31.12	30.20	20.22	-41.5	-45.0	13.1	3.28e-05	0	60	0	233832448	54	5460
2026-01-22 23:08:32.13	30.30	20.35	-41.5	-44.9	13.2	2.67e-05	0	59	0	235929600	54	5383
2026-01-22 23:08:33.14	30.39	20.47	-41.4	-44.8	13.4	2.13e-05	0	60	0	236978176	54	5317
2026-01-22 23:08:34.15	30.49	20.60	-41.5	-44.9	13.3	2.36e-05	0	59	0	239075328	54	5371
2026-01-22 23:08:35.16	30.58	20.72	-41.4	-44.8	13.4	1.75e-05	0	59	0	241172480	54	5323
2026-01-22 23:08:36.17	30.68	20.85	-41.4	-44.9	13.3	1.60e-05	0	60	0	243269632	54	5352
2026-01-22 23:08:37.18	30.78	20.97	-41.5	-44.9	13.3	1.98e-05	0	59	0	245366784	54	5379
2026-01-22 23:08:38.19	30.88	21.10	-41.5	-45.0	13.2	2.59e-05	0	59	0	246415360	54	5423
2026-01-22 23:08:39.19	30.97	21.23	-41.6	-45.0	13.2	1.98e-05	0	60	0	248512512	54	5454
2026-01-22 23:08:40.20	31.07	21.35	-41.6	-45.0	13.2	2.51e-05	0	60	0	250609664	54	5457
2026-01-22 23:08:41.21	31.18	21.48	-41.6	-45.1	13.1	2.36e-05	0	59	0	252706816	54	5511
2026-01-22 23:08:42.22	31.28	21.61	-41.6	-45.2	13.1	3.05e-05	0	59	0	254803968	54	5536
2026-01-22 23:08:43.23	31.38	21.74	-41.5	-45.0	13.2	2.36e-05	0	59	0	255852544	54	5404
2026-01-22 23:08:44.24	31.48	21.87	-41.5	-44.9	13.3	2.67e-05	0	60	0	257949696	54	5401
2026-01-22 23:08:45.25	31.59	22.00	-41.6	-45.0	13.2	2.28e-05	0	59	0	260046848	54	5429
2026-01-22 23:08:46.26	31.69	22.14	-41.5	-44.9	13.3	1.83e-05	0	60	0	262144000	54	5395
2026-01-22 23:08:47.27	31.80	22.27	-41.5	-44.9	13.4	2.67e-05	0	59	0	264241152	54	5359
2026-01-22 23:08:48.28	31.91	22.40	-41.5	-44.9	13.3	2.36e-05	0	59	0	266338304	54	5390
2026-01-22 23:08:49.29	32.01	22.53	-41.5	-44.9	13.4	1.83e-05	0	60	0	267386880	54	5347
2026-01-22 23:08:50.30	32.12	22.67	-41.5	-44.8	13.4	1.60e-05	0	59	0	269484032	54	5312
2026-01-22 23:08:51.31	32.23	22.80	-41.4	-44.8	13.5	9.10e-06	0	59	0	271581184	54	5281
2026-01-22 23:08:52.32	32.34	22.94	-41.5	-44.8	13.4	7.60e-06	0	60	0	273678336	54	5339
2026-01-22 23:08:53.33	32.45	23.07	-41.5	-44.9	13.3	1.37e-05	0	60	0	275775488	54	5402
2026-01-22 23:08:54.34	32.56	23.21	-41.5	-44.9	13.3	1.37e-05	0	59	0	276824064	54	5381
2026-01-22 23:08:55.35	32.68	23.35	-41.6	-45.0	13.2	1.90e-05	0	59	0	278921216	54	5427
2026-01-22 23:08:56.36	32.79	23.48	-41.6	-45.1	13.2	1.67e-05	0	60	0	281018368	54	5478
2026-01-22 23:08:57.37	32.91	23.62	-41.6	-45.0	13.2	1.75e-05	0	60	0	283115520	54	5432
2026-01-22 23:08:58.38	33.02	23.76	-41.6	-45.0	13.2	2.13e-05	0	59	0	285212672	54	5461
2026-01-22 23:08:59.39	33.14	23.90	-41.6	-45.0	13.2	2.67e-05	0	60	0	286261248	54	5457
2026-01-22 23:09:00.40	33.26	24.04	-41.6	-45.0	13.3	1.98e-05	0	60	0	288358400	54	5425
2026-01-22 23:09:01.41	33.38	24.18	-41.5	-44.9	13.4	1.14e-05	0	60	0	290455552	54	5376
2026-01-22 23:09:02.41	33.50	24.32	-41.6	-45.0	13.3	1.44e-05	0	60	0	292552704	54	5403
2026-01-22 23:09:03.42	33.62	24.46	-41.5	-44.8	13.5	1.98e-05	0	60	0	294649856	54	5283
2026-01-22 23:09:04.43	33.74	24.61	-41.4	-44.7	13.6	6.80e-06	0	60	0	295698432	54	5246
2026-01-22 23:09:05.44	33.86	24.75	-41.5	-44.8	13.5	8.30e-06	0	60	0	297795584	54	5334
2026-01-22 23:09:06.45	33.99	24.89	-41.5	-44.9	13.4	7.60e-06	0	60	0	299892736	54	5355
2026-01-22 23:09:07.46	34.11	25.04	-41.6	-45.0	13.2	1.60e-05	0	60	0	301989888	54	5460
2026-01-22 23:09:08.47	34.24	25.18	-41.7	-45.1	13.2	1.60e-05	0	60	0	304087040	54	5490
2026-01-22 23:09:09.48	34.37	25.33	-41.7	-45.2	13.1	2.67e-05	0	60	0	305135616	54	5550
2026-01-22 23:09:10.49	34.50	25.48	-41.7	-45.3	13.0	2.89e-05	0	60	0	307232768	54	5602
2026-01-22 23:09:11.50	34.63	25.63	-41.8	-45.4	12.9	4.27e-05	0	60	0	309329920	54	5669
2026-01-22 23:09:12.51	34.76	25.77	-41.8	-45.4	12.9	5.64e-05	0	60	0	311427072	54	5665
2026-01-22 23:09:13.52	34.89	25.92	-41.8	-45.4	12.9	5.11e-05	0	60	0	313524224	54	5668
2026-01-22 23:09:14.53	35.02	26.07	-41.7	-45.3	13.0	4.19e-05	0	60	0	314572800	54	5599
2026-01-22 23:09:15.54	35.16	26.22	-41.8	-45.3	13.0	4.34e-05	0	60	0	316669952	54	5624
2026-01-22 23:09:16.55	35.29	26.37	-41.7	-45.2	13.1	3.35e-05	0	60	0	318767104	54	5584
2026-01-22 23:09:17.56	35.43	26.52	-41.7	-45.2	13.1	3.73e-05	0	60	0	320864256	54	5565
2026-01-22 23:09:18.57	35.57	26.68	-41.7	-45.3	13.1	3.20e-05	0	60	0	322961408	54	5597
2026-01-22 23:09:19.58	35.71	26.83	-41.8	-45.3	13.0	3.89e-05	0	60	0	324009984	54	5641
2026-01-22 23:09:20.58	35.85	26.98	-41.8	-45.4	12.9	4.73e-05	0	60	0	326107136	54	5702
2026-01-22 23:09:21.59	35.99	27.14	-41.9	-45.6	12.7	6.02e-05	0	60	0	328204288	54	5803
2026-01-22 23:09:22.60	36.14	27.29	-42.0	-45.8	12.5	1.09e-04	0	60	0	330301440	54	5943
2026-01-22 23:09:23.61	36.28	27.45	-42.1	-45.9	12.4	1.40e-04	0	60	0	332398592	54	6024
2026-01-22 23:09:24.62	36.43	27.60	-42.2	-46.0	12.3	1.62e-04	0	60	0	334495744	54	6127
2026-01-22 23:09:25.63	36.58	27.76	-42.2	-46.2	12.1	2.36e-04	0	60	0	335544320	55	5892
2026-01-22 23:09:26.64	36.73	27.92	-42.3	-46.3	12.0	2.91e-04	0	60	0	337641472	55	5951
2026-01-22 23:09:27.65	36.88	28.08	-42.3	-46.4	11.9	3.74e-04	0	60	0	339738624	55	6001
2026-01-22 23:09:28.66	37.03	28.23	-42.4	-46.5	11.8	4.80e-04	0	60	0	341835776	55	6072
2026-01-22 23:09:29.67	37.18	28.39	-42.4	-46.5	11.8	4.95e-04	0	60	0	343932928	55	6071
2026-01-22 23:09:30.68	37.34	28.56	-42.3	-46.4	11.8	4.23e-04	0	60	0	344981504	55	6039
2026-01-22 23:09:31.69	37.50	28.72	-42.4	-46.5	11.8	4.95e-04	0	60	0	347078656	55	6069
2026-01-22 23:09:32.70	37.65	28.88	-42.4	-46.7	11.6	6.24e-04	0	60	0	349175808	55	6212
2026-01-22 23:09:33.71	37.81	29.04	-42.5	-46.8	11.5	6.83e-04	0	60	0	351272960	55	6288
2026-01-22 23:09:34.72	37.98	29.20	-42.6	-47.0	11.3	9.53e-04	0	60	0	353370112	55	6438
2026-01-22 23:09:35.72	38.14	29.37	-42.7	-47.1	11.2	1.30e-03	0	60	0	354418688	55	6562
2026-01-22 23:09:36.73	38.30	29.53	-42.7	-47.2	11.0	1.76e-03	0	60	0	356515840	55	6601
2026-01-22 23:09:37.74	38.47	29.70	-42.9	-47.5	10.9	1.73e-03	0	60	0	358612992	56	6466
2026-01-22 23:09:38.75	38.64	29.86	-42.9	-47.6	10.8	2.34e-03	0	60	0	360710144	56	6518
2026-01-22 23:09:39.76	38.81	30.03	-43.0	-47.7	10.7	2.77e-03	0	60	0	362807296	56	6627
2026-01-22 23:09:40.77	38.98	30.20	-43.1	-47.9	10.5	3.58e-03	0	60	0	363855872	56	6758
2026-01-22 23:09:41.78	39.15	30.37	-43.2	-48.1	10.3	4.33e-03	0	60	0	365953024	57	6507
2026-01-22 23:09:42.79	39.33	30.54	-43.2	-48.1	10.4	4.94e-03	0	60	0	368050176	57	6515
2026-01-22 23:09:43.80	39.50	30.71	-43.2	-48.1	10.3	4.78e-03	0	60	0	370147328	57	6536
2026-01-22 23:09:44.81	39.68	30.88	-43.2	-48.1	10.3	4.82e-03	0	60	0	372244480	57	6505
2026-01-22 23:09:45.82	39.86	31.05	-43.1	-47.9	10.5	4.39e-03	0	60	0	373293056	57	6415
2026-01-22 23:09:46.83	40.05	31.22	-43.1	-47.8	10.6	4.03e-03	0	60	0	375390208	57	6340
2026-01-22 23:09:47.84	40.23	31.39	-43.1	-47.9	10.6	3.66e-03	0	60	0	377487360	57	6375
2026-01-22 23:09:48.85	40.42	31.57	-43.1	-47.9	10.5	3.53e-03	0	60	0	379584512	57	6356
2026-01-22 23:09:49.86	40.61	31.74	-43.0	-47.8	10.6	3.61e-03	0	60	0	381681664	57	6287
2026-01-22 23:09:50.87	40.80	31.92	-43.0	-47.7	10.7	2.66e-03	0	60	0	382730240	57	6223
2026-01-22 23:09:51.88	40.99	32.09	-43.0	-47.7	10.7	3.07e-03	0	60	0	384827392	57	6231
2026-01-22 23:09:52.88	41.18	32.27	-43.0	-47.7	10.7	3.01e-03	0	60	0	386924544	57	6213
2026-01-22 23:09:53.89	41.38	32.44	-43.0	-47.8	10.7	3.07e-03	0	60	0	389021696	57	6275
2026-01-22 23:09:54.90	41.58	32.62	-43.1	-47.8	10.7	3.21e-03	0	60	0	391118848	57	6303
2026-01-22 23:09:55.91	41.78	32.80	-43.0	-47.7	10.7	3.33e-03	0	60	0	392167424	57	6270
2026-01-22 23:09:56.92	41.98	32.98	-43.0	-47.6	10.9	2.43e-03	0	60	0	394264576	57	6142
2026-01-22 23:09:57.93	42.18	33.16	-42.9	-47.4	11.0	1.80e-03	0	60	0	396361728	57	6048
2026-01-22 23:09:58.94	42.39	33.34	-42.8	-47.1	11.4	1.45e-03	0	60	0	398458880	57	5826
2026-01-22 23:09:59.95	42.60	33.52	-42.7	-46.9	11.6	7.15e-04	0	60	0	400556032	57	5673
2026-01-22 23:10:00.96	42.81	33.70	-42.5	-46.6	11.9	4.90e-04	0	60	0	402653184	57	5494
2026-01-22 23:10:01.97	43.03	33.88	-42.5	-46.6	11.9	3.68e-04	0	60	0	403701760	57	5490
2026-01-22 23:10:02.98	43.24	34.07	-42.6	-46.8	11.8	4.46e-04	0	60	0	405798912	57	5597
2026-01-22 23:10:03.99	43.46	34.25	-42.6	-46.6	11.9	4.11e-04	0	60	0	407896064	57	5501
2026-01-22 23:10:05.00	43.68	34.43	-42.7	-46.8	11.6	5.48e-04	0	60	0	409993216	57	5653
2026-01-22 23:10:06.01	43.91	34.62	-42.6	-46.8	11.8	6.11e-04	0	60	0	412090368	57	5622
2026-01-22 23:10:07.02	44.13	34.80	-42.6	-46.7	11.8	4.35e-04	0	60	0	413138944	57	5529
2026-01-22 23:10:08.03	44.36	34.99	-42.5	-46.5	12.1	3.08e-04	0	60	0	415236096	57	5429
2026-01-22 23:10:09.04	44.60	35.18	-42.5	-46.4	12.2	2.88e-04	0	60	0	417333248	56	5682
2026-01-22 23:10:10.05	44.83	35.37	-42.3	-46.1	12.5	1.31e-04	0	60	0	419430400	56	5480
2026-01-22 23:10:11.06	45.07	35.55	-42.3	-46.0	12.6	1.04e-04	0	60	0	420478976	56	5438
2026-01-22 23:10:12.07	45.31	35.74	-42.3	-46.0	12.6	8.23e-05	0	60	0	422576128	56	5440
2026-01-22 23:10:13.08	45.55	35.93	-42.3	-46.0	12.6	7.78e-05	0	60	0	424673280	56	5462
2026-01-22 23:10:14.08	45.79	36.12	-42.1	-45.7	12.9	7.62e-05	0	60	0	426770432	56	5278
2026-01-22 23:10:15.09	46.04	36.31	-41.8	-45.3	13.2	2.67e-05	0	60	0	428867584	55	5284
2026-01-22 23:10:16.10	46.29	36.50	-41.6	-44.9	13.6	9.10e-06	0	60	0	430964736	55	5092
2026-01-22 23:10:17.11	46.54	36.69	-41.6	-44.9	13.7	6.80e-06	0	60	0	432013312	55	5051
2026-01-22 23:10:18.12	46.80	36.88	-41.6	-44.9	13.7	5.30e-06	0	60	0	434110464	55	5042
2026-01-22 23:10:19.13	47.06	37.08	-41.6	-44.8	13.7	3.80e-06	0	60	0	436207616	55	5023
2026-01-22 23:10:20.14	47.32	37.27	-41.7	-45.0	13.5	8.30e-06	0	60	0	438304768	55	5137
2026-01-22 23:10:21.15	47.59	37.46	-41.8	-45.2	13.3	1.60e-05	0	60	0	440401920	55	5242
2026-01-22 23:10:22.16	47.86	37.66	-41.9	-45.4	13.0	3.28e-05	0	60	0	441450496	55	5384
2026-01-22 23:10:23.17	48.13	37.85	-42.0	-45.6	12.9	5.79e-05	0	60	0	443547648	55	5471
2026-01-22 23:10:24.18	48.40	38.04	-41.9	-45.4	13.1	3.20e-05	0	60	0	445644800	55	5371
2026-01-22 23:10:25.19	48.68	38.24	-41.7	-45.1	13.4	2.44e-05	0	60	0	447741952	55	5194
2026-01-22 23:10:26.20	48.96	38.43	-41.7	-45.1	13.5	1.22e-05	0	60	0	449839104	55	5162
2026-01-22 23:10:27.21	49.25	38.63	-41.5	-44.7	13.8	6.10e-06	0	60	0	450887680	55	4942
2026-01-22 23:10:28.22	49.54	38.83	-41.6	-44.8	13.7	3.00e-06	0	60	0	452984832	55	5021
2026-01-22 23:10:29.23	49.83	39.02	-41.7	-44.9	13.5	8.30e-06	0	60	0	455081984	55	5095
2026-01-22 23:10:30.24	50.13	39.22	-41.8	-45.3	13.2	1.60e-05	0	60	0	457179136	55	5281
2026-01-22 23:10:31.25	50.42	39.42	-42.0	-45.6	12.9	4.73e-05	0	60	0	459276288	55	5484
2026-01-22 23:10:32.25	50.72	39.61	-42.1	-45.8	12.7	6.10e-05	0	60	0	460324864	55	5649
2026-01-22 23:10:33.26	51.03	39.81	-42.1	-45.8	12.7	6.17e-05	0	60	0	462422016	55	5636
2026-01-22 23:10:34.27	51.34	40.01	-42.1	-45.8	12.7	9.07e-05	0	60	0	464519168	55	5615
2026-01-22 23:10:35.28	51.65	40.21	-42.1	-45.8	12.7	6.40e-05	0	60	0	466616320	55	5602
2026-01-22 23:10:36.29	51.97	40.40	-42.1	-45.7	12.8	6.71e-05	0	60	0	468713472	55	5531
2026-01-22 23:10:37.31	52.30	40.60	-42.0	-45.5	12.9	3.50e-05	0	60	0	469762048	55	5463
2026-01-22 23:10:38.31	52.62	40.80	-41.9	-45.3	13.2	3.81e-05	0	60	0	471859200	55	5306
2026-01-22 23:10:39.33	52.95	41.00	-42.0	-45.4	13.1	2.36e-05	0	60	0	473956352	55	5398
2026-01-22 23:10:40.33	53.28	41.20	-42.0	-45.5	13.1	3.05e-05	0	60	0	476053504	55	5436
2026-01-22 23:10:41.34	53.62	41.40	-42.1	-45.6	12.9	4.11e-05	0	60	0	478150656	55	5525
2026-01-22 23:10:42.35	53.96	41.59	-42.1	-45.8	12.7	8.69e-05	0	60	0	479199232	55	5635
2026-01-22 23:10:43.37	54.31	41.80	-42.2	-46.0	12.5	1.20e-04	0	60	0	481296384	55	5757
2026-01-22 23:10:44.37	54.65	41.99	-42.4	-46.3	12.2	1.92e-04	0	60	0	483393536	55	5973
2026-01-22 23:10:45.38	55.01	42.19	-42.3	-46.2	12.4	1.52e-04	0	60	0	485490688	55	5873
2026-01-22 23:10:46.40	55.37	42.39	-42.3	-46.1	12.4	1.82e-04	0	60	0	487587840	55	5824
2026-01-22 23:10:47.40	55.73	42.59	-42.2	-46.0	12.5	1.46e-04	0	60	0	488636416	55	5740
2026-01-22 23:10:48.41	56.10	42.78	-42.1	-45.6	12.9	6.25e-05	0	60	0	490733568	55	5523
2026-01-22 23:10:49.42	56.47	42.98	-42.1	-45.6	12.9	4.88e-05	0	60	0	492830720	55	5507
2026-01-22 23:10:50.43	56.85	43.18	-42.1	-45.6	12.9	3.73e-05	0	60	0	494927872	55	5525
2026-01-22 23:10:51.44	57.23	43.38	-42.3	-46.2	12.3	7.93e-05	0	60	0	497025024	55	5875
2026-01-22 23:10:52.45	57.61	43.57	-42.5	-46.6	11.9	2.20e-04	0	61	0	499122176	55	6132
2026-01-22 23:10:53.46	58.00	43.77	-42.6	-46.7	11.8	4.08e-04	0	60	0	500170752	55	6225
2026-01-22 23:10:54.47	58.40	43.96	-42.4	-46.4	12.2	3.21e-04	0	60	0	502267904	55	5996
2026-01-22 23:10:55.48	58.80	44.16	-42.2	-45.9	12.7	1.51e-04	0	61	0	504365056	55	5661
2026-01-22 23:10:56.49	59.20	44.35	-42.1	-45.7	12.8	6.10e-05	0	61	0	506462208	55	5565
2026-01-22 23:10:57.50	59.61	44.55	-42.2	-45.9	12.7	6.79e-05	0	61	0	508559360	55	5685
2026-01-22 23:10:58.51	60.03	44.74	-42.4	-46.4	12.2	1.19e-04	0	60	0	509607936	55	5999
2026-01-22 23:10:59.52	60.45	44.93	-43.0	-47.4	11.3	9.57e-04	0	60	0	511705088	56	6366
2026-01-22 23:11:00.53	60.87	45.13	-43.3	-48.1	10.5	2.77e-03	0	61	0	513802240	57	6544
2026-01-22 23:11:01.54	61.30	45.32	-43.4	-48.3	10.2	5.22e-03	0	60	0	515899392	57	6679
2026-01-22 23:11:02.55	61.74	45.51	-43.3	-48.2	10.4	5.28e-03	0	60	0	517996544	57	6612
2026-01-22 23:11:03.56	62.18	45.70	-43.1	-47.8	10.8	2.94e-03	0	61	0	519045120	57	6296
2026-01-22 23:11:04.57	62.62	45.89	-43.1	-47.6	11.0	1.87e-03	0	60	0	521142272	57	6187
2026-01-22 23:11:05.57	63.07	46.07	-43.0	-47.5	11.1	2.04e-03	0	60	0	523239424	57	6102
2026-01-22 23:11:06.58	63.53	46.26	-43.0	-47.3	11.4	1.07e-03	0	60	0	525336576	57	5951
2026-01-22 23:11:07.59	63.99	46.44	-43.0	-47.5	11.2	1.11e-03	0	60	0	527433728	57	6063
2026-01-22 23:11:08.60	64.45	46.63	-43.2	-47.8	10.8	2.22e-03	0	61	0	528482304	57	6344
2026-01-22 23:11:09.61	64.93	46.81	-43.3	-48.2	10.4	4.14e-03	0	61	0	530579456	57	6587
2026-01-22 23:11:10.62	65.40	46.99	-43.1	-47.6	11.0	2.68e-03	0	60	0	532676608	57	6176
2026-01-22 23:11:11.63	65.89	47.17	-42.9	-47.0	11.7	1.05e-03	0	60	0	534773760	57	5784
2026-01-22 23:11:12.64	66.38	47.35	-42.7	-46.7	11.9	3.98e-04	0	60	0	536870912	57	5582
2026-01-22 23:11:13.65	66.87	47.53	-42.7	-46.7	11.9	3.91e-04	0	60	0	537919488	57	5567
2026-01-22 23:11:14.66	67.37	47.70	-42.6	-46.6	12.1	2.62e-04	0	60	0	540016640	57	5467
2026-01-22 23:11:15.67	67.88	47.88	-42.8	-46.9	11.8	4.07e-04	0	60	0	542113792	57	5686
2026-01-22 23:11:16.68	68.39	48.05	-42.8	-47.0	11.7	5.61e-04	0	60	0	544210944	57	5747
2026-01-22 23:11:17.69	68.91	48.22	-42.9	-47.0	11.7	6.90e-04	0	60	0	546308096	57	5771
2026-01-22 23:11:18.70	69.43	48.39	-42.7	-46.6	12.1	4.09e-04	0	61	0	547356672	57	5519
2026-01-22 23:11:19.71	69.96	48.56	-42.5	-46.2	12.5	1.40e-04	0	60	0	549453824	56	5568
2026-01-22 23:11:20.72	70.49	48.72	-42.4	-46.0	12.8	7.78e-05	0	61	0	551550976	56	5440
2026-01-22 23:11:21.73	71.03	48.88	-42.4	-46.1	12.7	8.16e-05	0	61	0	553648128	56	5477
2026-01-22 23:11:22.74	71.58	49.05	-42.4	-46.1	12.6	1.01e-04	0	61	0	555745280	56	5507
2026-01-22 23:11:23.75	72.13	49.20	-42.4	-46.2	12.5	9.76e-05	0	60	0	556793856	56	5557
2026-01-22 23:11:24.76	72.68	49.36	-42.4	-46.0	12.7	1.06e-04	0	60	0	558891008	56	5455
2026-01-22 23:11:25.77	73.25	49.51	-42.3	-45.8	13.0	3.66e-05	0	60	0	560988160	56	5321
2026-01-22 23:11:26.79	73.82	49.67	-42.2	-45.8	13.0	4.65e-05	0	60	0	563085312	56	5311
2026-01-22 23:11:27.80	74.39	49.82	-42.2	-45.7	13.1	3.35e-05	0	61	0	565182464	56	5240
2026-01-22 23:11:28.80	74.97	49.96	-42.4	-46.2	12.6	6.79e-05	0	61	0	567279616	56	5539
2026-01-22 23:11:29.81	75.55	50.11	-42.7	-46.7	12.2	1.91e-04	0	60	0	568328192	56	5877
2026-01-22 23:11:30.82	76.14	50.25	-42.8	-47.0	11.7	4.16e-04	0	60	0	570425344	56	6094
2026-01-22 23:11:31.83	76.74	50.39	-42.8	-46.9	11.7	6.36e-04	0	60	0	572522496	56	6048
2026-01-22 23:11:32.84	77.34	50.52	-42.7	-46.8	12.0	4.17e-04	0	60	0	574619648	56	5943
2026-01-22 23:11:33.85	77.95	50.66	-42.6	-46.4	12.3	1.94e-04	0	61	0	576716800	56	5716
2026-01-22 23:11:34.86	78.56	50.79	-42.3	-45.9	12.9	8.69e-05	0	61	0	577765376	56	5349
2026-01-22 23:11:35.87	79.18	50.91	-42.4	-46.1	12.7	6.86e-05	0	60	0	579862528	56	5494
2026-01-22 23:11:36.88	79.80	51.04	-42.6	-46.4	12.4	1.52e-04	0	60	0	581959680	56	5696
2026-01-22 23:11:37.89	80.42	51.16	-42.8	-46.8	11.9	2.17e-04	0	60	0	584056832	56	5966
2026-01-22 23:11:38.90	81.06	51.27	-42.7	-46.6	12.2	3.53e-04	0	61	0	586153984	56	5845
2026-01-22 23:11:39.91	81.69	51.39	-42.4	-46.1	12.7	1.46e-04	0	60	0	587202560	56	5470
2026-01-22 23:11:40.92	82.34	51.50	-42.1	-45.5	13.3	4.27e-05	0	61	0	589299712	56	5143
2026-01-22 23:11:41.93	82.98	51.61	-42.1	-45.4	13.4	1.60e-05	0	61	0	591396864	56	5100
2026-01-22 23:11:42.94	83.63	51.71	-42.2	-45.7	13.2	1.90e-05	0	61	0	593494016	56	5229
2026-01-22 23:11:43.95	84.29	51.81	-42.3	-45.8	12.9	3.96e-05	0	61	0	595591168	56	5337
2026-01-22 23:11:44.96	84.95	51.91	-42.2	-45.6	13.1	4.04e-05	0	61	0	596639744	56	5216
2026-01-22 23:11:45.96	85.61	52.00	-42.1	-45.5	13.3	1.52e-05	0	60	0	598736896	56	5125
2026-01-22 23:11:46.97	86.28	52.09	-42.2	-45.6	13.2	1.44e-05	0	61	0	600834048	56	5185
2026-01-22 23:11:47.98	86.95	52.17	-42.4	-46.1	12.7	3.50e-05	0	61	0	602931200	56	5515
2026-01-22 23:11:48.99	87.62	52.25	-42.4	-46.1	12.7	1.16e-04	0	60	0	605028352	56	5508
2026-01-22 23:11:50.00	88.30	52.33	-42.2	-45.7	13.1	5.49e-05	0	60	0	606076928	56	5270
2026-01-22 23:11:51.01	88.99	52.40	-41.6	-44.8	13.9	1.44e-05	0	60	0	608174080	55	4990
2026-01-22 23:11:52.02	89.67	52.47	-41.6	-44.7	14.0	1.50e-06	0	60	0	610271232	55	4927
2026-01-22 23:11:53.03	90.36	52.54	-41.6	-44.7	14.0	1.50e-06	0	60	0	612368384	55	4951
2026-01-22 23:11:54.04	91.05	52.60	-41.9	-45.2	13.5	5.30e-06	0	60	0	614465536	55	5258
2026-01-22 23:11:55.05	91.75	52.66	-42.0	-45.4	13.3	2.05e-05	0	61	0	615514112	55	5360
2026-01-22 23:11:56.05	92.44	52.71	-41.5	-44.6	14.0	5.30e-06	0	61	0	617611264	55	4920
2026-01-22 23:11:57.06	93.14	52.76	-41.3	-44.2	14.5	3.00e-06	0	61	0	619708416	54	4969
2026-01-22 23:11:58.07	93.84	52.80	-41.2	-44.0	14.7	7.00e-07	0	61	0	621805568	54	4864
2026-01-22 23:11:59.08	94.55	52.84	-41.4	-44.4	14.3	0.00e+00	0	61	0	623902720	54	5065
2026-01-22 23:12:00.09	95.25	52.88	-41.5	-44.5	14.2	0.00e+00	0	60	0	624951296	54	5119
2026-01-22 23:12:01.10	95.96	52.91	-41.4	-44.3	14.4	7.00e-07	0	60	0	627048448	54	5011
2026-01-22 23:12:02.11	96.67	52.94	-41.2	-44.1	14.6	0.00e+00	0	60	0	629145600	54	4872
2026-01-22 23:12:03.12	97.38	52.96	-41.2	-44.1	14.6	7.00e-07	0	61	0	631242752	54	4905
2026-01-22 23:12:04.13	98.09	52.98	-41.3	-44.2	14.5	0.00e+00	0	61	0	633339904	54	4951
2026-01-22 23:12:05.14	98.81	52.99	-41.3	-44.3	14.4	7.00e-07	0	61	0	635437056	54	4999
2026-01-22 23:12:06.15	99.52	53.00	-41.3	-44.1	14.6	0.00e+00	0	60	0	636485632	54	4923
2026-01-22 23:12:07.17	100.24	53.00	-41.1	-43.9	14.8	0.00e+00	0	61	0	638582784	54	4794
2026-01-22 23:12:08.18	100.95	53.00	-41.3	-44.2	14.5	0.00e+00	0	61	0	640679936	54	4948
2026-01-22 23:12:09.19	101.67	53.00	-41.5	-44.5	14.2	0.00e+00	0	60	0	642777088	54	5132
2026-01-22 23:12:10.20	102.38	52.99	-41.6	-44.7	14.0	1.50e-06	0	61	0	644874240	54	5257
2026-01-22 23:12:11.21	103.09	52.98	-41.5	-44.5	14.2	1.50e-06	0	60	0	645922816	54	5152
2026-01-22 23:12:12.21	103.80	52.96	-41.4	-44.4	14.3	2.20e-06	0	60	0	648019968	54	5056
2026-01-22 23:12:13.22	104.51	52.94	-41.4	-44.4	14.3	7.00e-07	0	61	0	650117120	54	5073
2026-01-22 23:12:14.23	105.22	52.91	-41.6	-44.8	13.9	3.80e-06	0	61	0	652214272	54	5293
2026-01-22 23:12:15.24	105.93	52.88	-41.3	-44.2	14.4	0.00e+00	0	61	0	654311424	54	4953
2026-01-22 23:12:16.25	106.63	52.84	-40.8	-43.4	15.2	0.00e+00	0	60	0	655360000	53	4809
2026-01-22 23:12:17.26	107.34	52.80	-40.9	-43.5	15.1	0.00e+00	0	60	0	657457152	53	4867
2026-01-22 23:12:18.27	108.04	52.76	-40.9	-43.7	15.0	0.00e+00	0	61	0	659554304	53	4928
2026-01-22 23:12:19.28	108.74	52.71	-41.1	-43.9	14.7	7.00e-07	0	61	0	661651456	53	5093
2026-01-22 23:12:20.29	109.44	52.66	-41.0	-43.9	14.8	0.00e+00	0	61	0	663748608	53	5043
2026-01-22 23:12:21.30	110.14	52.60	-40.9	-43.6	15.0	0.00e+00	0	61	0	664797184	53	4911
2026-01-22 23:12:22.31	110.83	52.54	-40.9	-43.6	15.1	0.00e+00	0	61	0	666894336	53	4892
2026-01-22 23:12:23.32	111.52	52.48	-41.3	-44.3	14.4	7.00e-07	0	60	0	668991488	53	5285
2026-01-22 23:12:24.33	112.21	52.41	-41.7	-44.9	13.7	4.50e-06	0	61	0	671088640	53	5680
2026-01-22 23:12:25.34	112.89	52.33	-41.4	-44.5	14.1	1.50e-06	0	61	0	673185792	53	5404
2026-01-22 23:12:26.34	113.56	52.26	-41.2	-44.1	14.6	7.00e-07	0	61	0	674234368	53	5166
2026-01-22 23:12:27.35	114.24	52.18	-41.2	-44.1	14.5	7.00e-07	0	61	0	676331520	53	5175
2026-01-22 23:12:28.36	114.91	52.09	-41.6	-44.7	13.9	3.00e-06	0	61	0	678428672	53	5549
2026-01-22 23:12:29.37	115.58	52.00	-41.8	-45.0	13.6	6.10e-06	0	61	0	680525824	54	5449
2026-01-22 23:12:30.38	116.25	51.91	-41.8	-45.0	13.6	1.06e-05	0	61	0	682622976	54	5440
2026-01-22 23:12:31.39	116.91	51.81	-41.7	-44.9	13.7	9.10e-06	0	61	0	683671552	54	5390
2026-01-22 23:12:32.40	117.57	51.71	-42.1	-45.7	12.9	2.13e-05	0	61	0	685768704	54	5876
2026-01-22 23:12:33.41	118.22	51.61	-42.6	-46.6	12.0	1.09e-04	0	61	0	687865856	55	6147
2026-01-22 23:12:34.42	118.87	51.50	-43.0	-47.3	11.4	8.75e-04	0	61	0	689963008	56	6327
2026-01-22 23:12:35.43	119.51	51.39	-42.6	-46.5	12.3	4.32e-04	0	61	0	692060160	56	5724
2026-01-22 23:12:36.44	120.15	51.28	-42.2	-45.6	13.1	8.69e-05	0	61	0	693108736	56	5217
2026-01-22 23:12:37.45	120.78	51.16	-42.3	-45.8	12.9	3.50e-05	0	61	0	695205888	56	5332
2026-01-22 23:12:38.45	121.40	51.04	-42.7	-46.8	12.0	1.50e-04	0	60	0	697303040	56	5949
2026-01-22 23:12:39.46	122.03	50.92	-43.0	-47.4	11.3	8.94e-04	0	61	0	699400192	56	6367
2026-01-22 23:12:40.47	122.65	50.79	-42.8	-46.9	11.8	6.38e-04	0	61	0	701497344	56	6044
2026-01-22 23:12:41.48	123.26	50.66	-42.7	-46.6	12.1	3.56e-04	0	61	0	703594496	56	5851
2026-01-22 23:12:42.49	123.87	50.53	-42.7	-46.6	12.0	2.72e-04	0	61	0	704643072	56	5849
2026-01-22 23:12:43.50	124.47	50.39	-43.0	-47.3	11.5	3.80e-04	0	61	0	706740224	56	6284
2026-01-22 23:12:44.51	125.07	50.25	-43.3	-48.0	10.6	2.29e-03	0	61	0	708837376	57	6448
2026-01-22 23:12:45.53	125.66	50.11	-43.4	-48.4	10.2	4.28e-03	0	61	0	710934528	57	6745
2026-01-22 23:12:46.54	126.25	49.96	-43.6	-49.0	9.7	7.92e-03	0	61	0	713031680	57	7212
2026-01-22 23:12:47.55	126.83	49.82	-44.0	-50.1	8.5	2.61e-02	0	61	0	714080256	58	7739
2026-01-22 23:12:48.56	127.41	49.67	-44.2	-50.7	7.8	6.47e-02	0	61	0	716177408	58	8363
2026-01-22 23:12:49.57	127.98	49.51	-44.1	-50.5	8.0	7.73e-02	0	61	0	718274560	58	8140
2026-01-22 23:12:50.57	128.53	49.36	-44.0	-50.2	8.2	5.61e-02	0	61	0	720371712	58	7879
2026-01-22 23:12:51.58	129.09	49.20	-43.9	-49.9	8.5	4.72e-02	0	61	0	722468864	58	7629
2026-01-22 23:12:52.59	129.64	49.04	-43.8	-49.4	9.2	2.94e-02	0	61	0	723517440	58	7160
2026-01-22 23:12:53.60	130.19	48.88	-43.7	-49.1	9.5	1.53e-02	0	61	0	725614592	58	6918
2026-01-22 23:12:54.61	130.73	48.72	-44.0	-50.2	8.4	2.40e-02	0	61	0	727711744	58	7848
2026-01-22 23:12:55.62	131.27	48.55	-44.2	-50.7	7.8	6.10e-02	0	61	0	729808896	58	8291
2026-01-22 23:12:56.63	131.80	48.39	-44.2	-50.8	7.7	8.01e-02	0	61	0	731906048	58	8454
2026-01-22 23:12:57.64	132.32	48.22	-44.0	-50.2	8.4	5.92e-02	0	60	0	732954624	58	7822
2026-01-22 23:12:58.65	132.84	48.05	-43.9	-49.9	8.7	3.90e-02	0	61	0	735051776	58	7560
2026-01-22 23:12:59.66	133.35	47.87	-44.0	-49.9	8.6	3.40e-02	0	61	0	737148928	58	7614
2026-01-22 23:13:00.67	133.86	47.70	-44.2	-51.0	7.6	6.72e-02	0	61	0	739246080	59	8117
2026-01-22 23:13:01.68	134.36	47.52	-44.5	-52.1	6.5	1.76e-01	0	61	0	741343232	59	9240
2026-01-22 23:13:02.69	134.86	47.34	-44.2	-50.9	7.6	2.01e-01	0	61	0	742391808	59	8068
2026-01-22 23:13:03.70	135.35	47.16	-43.7	-49.2	9.4	2.85e-02	0	61	0	744488960	59	6582
2026-01-22 23:13:04.70	135.83	46.99	-43.5	-48.6	10.0	8.37e-03	0	61	0	746586112	59	6141
2026-01-22 23:13:05.71	136.31	46.80	-43.7	-49.2	9.4	8.52e-03	0	61	0	748683264	59	6589
2026-01-22 23:13:06.73	136.79	46.62	-44.0	-50.2	8.4	3.35e-02	0	61	0	750780416	59	7393
2026-01-22 23:13:07.73	137.25	46.44	-43.6	-49.0	9.5	2.79e-02	0	61	0	751828992	59	6472
2026-01-22 23:13:08.75	137.72	46.25	-43.0	-47.3	11.3	3.89e-03	0	61	0	753926144	58	5628
2026-01-22 23:13:09.76	138.17	46.06	-42.6	-46.6	12.2	3.16e-04	0	61	0	756023296	57	5492
2026-01-22 23:13:10.77	138.63	45.87	-42.7	-46.7	12.0	2.19e-04	0	61	0	758120448	57	5588
2026-01-22 23:13:11.78	139.07	45.68	-42.9	-47.0	11.7	4.34e-04	0	61	0	760217600	57	5767
2026-01-22 23:13:12.78	139.51	45.49	-43.2	-47.8	10.8	1.73e-03	0	61	0	761266176	57	6323
2026-01-22 23:13:13.79	139.95	45.30	-43.4	-48.3	10.3	5.07e-03	0	61	0	763363328	57	6689
2026-01-22 23:13:14.80	140.38	45.11	-43.3	-48.0	10.6	4.67e-03	0	61	0	765460480	57	6460
2026-01-22 23:13:15.81	140.80	44.92	-43.1	-47.6	11.0	2.92e-03	0	61	0	767557632	57	6173
2026-01-22 23:13:16.82	141.22	44.72	-42.9	-47.2	11.4	1.05e-03	0	61	0	769654784	57	5858
2026-01-22 23:13:17.83	141.64	44.53	-42.9	-47.1	11.5	7.80e-04	0	61	0	771751936	57	5822
2026-01-22 23:13:18.84	142.05	44.34	-43.2	-47.7	10.9	8.83e-04	0	61	0	772800512	57	6266
2026-01-22 23:13:19.85	142.46	44.14	-43.6	-48.9	9.8	7.64e-03	0	61	0	774897664	57	7137
2026-01-22 23:13:20.86	142.86	43.94	-43.8	-49.6	8.8	2.23e-02	0	61	0	776994816	58	7371
2026-01-22 23:13:21.87	143.25	43.75	-43.8	-49.5	9.0	3.18e-02	0	61	0	779091968	58	7219
2026-01-22 23:13:22.88	143.65	43.55	-43.4	-48.4	10.1	1.13e-02	0	61	0	781189120	58	6357
2026-01-22 23:13:23.89	144.03	43.35	-43.1	-47.6	10.9	3.49e-03	0	61	0	782237696	58	5854
2026-01-22 23:13:24.89	144.41	43.16	-43.1	-47.6	11.0	1.53e-03	0	61	0	784334848	58	5795
2026-01-22 23:13:25.90	144.79	42.96	-43.4	-48.4	10.2	4.50e-03	0	61	0	786432000	58	6363
2026-01-22 23:13:26.91	145.16	42.76	-44.0	-50.3	8.2	2.57e-02	0	61	0	788529152	58	7921
2026-01-22 23:13:27.92	145.53	42.56	-44.5	-52.3	6.4	1.41e-01	0	61	0	790626304	59	9437
2026-01-22 23:13:28.93	145.89	42.36	-44.3	-51.4	7.0	2.03e-01	0	61	0	791674880	59	8507
2026-01-22 23:13:29.94	146.25	42.16	-43.9	-49.7	8.7	6.25e-02	0	61	0	793772032	59	6998
2026-01-22 23:13:30.95	146.61	41.96	-43.5	-48.6	9.9	1.61e-02	0	61	0	795869184	59	6194
2026-01-22 23:13:31.96	146.96	41.76	-43.7	-49.2	9.3	1.40e-02	0	61	0	797966336	59	6616
2026-01-22 23:13:32.97	147.30	41.56	-44.2	-50.8	7.6	5.25e-02	0	61	0	800063488	59	7965
2026-01-22 23:13:33.98	147.65	41.37	-44.6	-53.0	5.8	2.23e-01	0	61	0	801112064	59	10257
2026-01-22 23:13:34.99	147.99	41.17	-44.7	-54.5	4.8	6.23e-01	0	61	0	803209216	60	11541
2026-01-22 23:13:36.00	148.32	40.97	-44.4	-52.2	6.4	3.97e-01	0	61	0	805306368	60	8811
2026-01-22 23:13:37.01	148.65	40.77	-43.8	-49.6	8.8	7.38e-02	0	61	0	807403520	59	6897
2026-01-22 23:13:38.02	148.98	40.57	-43.3	-48.2	10.3	1.10e-02	0	61	0	809500672	58	6215
2026-01-22 23:13:39.03	149.30	40.37	-43.4	-48.3	10.2	5.52e-03	0	61	0	810549248	58	6293
2026-01-22 23:13:40.04	149.62	40.17	-44.0	-50.1	8.5	1.84e-02	0	61	0	812646400	58	7731
2026-01-22 23:13:41.05	149.93	39.97	-44.5	-52.7	6.0	1.45e-01	0	61	0	814743552	59	9874
2026-01-22 23:13:42.06	150.24	39.77	-44.7	-54.2	5.0	6.87e-01	0	61	0	816840704	60	11104
2026-01-22 23:13:43.07	150.55	39.57	-44.1	-50.9	7.5	2.85e-01	0	61	0	818937856	60	7606
2026-01-22 23:13:44.07	150.85	39.38	-43.4	-48.4	10.0	3.17e-02	0	61	0	819986432	58	6372
2026-01-22 23:13:45.08	151.15	39.18	-43.0	-47.5	11.0	4.09e-03	0	61	0	822083584	58	5780
2026-01-22 23:13:46.09	151.44	38.98	-43.1	-47.8	10.7	2.48e-03	0	61	0	824180736	58	5928
2026-01-22 23:13:47.10	151.74	38.78	-43.4	-48.5	9.9	5.08e-03	0	61	0	826277888	58	6449
2026-01-22 23:13:48.11	152.03	38.59	-43.6	-49.1	9.3	1.37e-02	0	61	0	828375040	58	6893
2026-01-22 23:13:49.12	152.31	38.39	-43.8	-49.6	8.8	2.78e-02	0	61	0	829423616	58	7297
2026-01-22 23:13:50.13	152.59	38.19	-43.8	-49.7	8.7	3.51e-02	0	61	0	831520768	58	7418
2026-01-22 23:13:51.14	152.87	38.00	-43.8	-49.7	8.6	3.87e-02	0	61	0	833617920	58	7453
2026-01-22 23:13:52.15	153.15	37.80	-43.7	-49.5	8.9	3.23e-02	0	61	0	835715072	58	7249
2026-01-22 23:13:53.16	153.42	37.60	-43.6	-49.0	9.4	1.99e-02	0	61	0	837812224	58	6832
2026-01-22 23:13:54.17	153.69	37.41	-43.5	-48.8	9.6	1.37e-02	0	61	0	839909376	58	6673
2026-01-22 23:13:55.18	153.96	37.22	-43.5	-48.7	9.7	1.18e-02	0	61	0	840957952	58	6595
2026-01-22 23:13:56.18	154.22	37.02	-43.6	-48.9	9.5	1.37e-02	0	61	0	843055104	58	6800
2026-01-22 23:13:57.19	154.48	36.83	-43.8	-49.8	8.6	2.45e-02	0	60	0	845152256	58	7471
2026-01-22 23:13:58.20	154.74	36.64	-44.0	-50.4	8.0	5.09e-02	0	61	0	847249408	58	8025
2026-01-22 23:13:59.21	154.99	36.44	-43.9	-50.2	8.1	7.44e-02	0	61	0	849346560	58	7873
2026-01-22 23:14:00.22	155.24	36.25	-43.7	-49.6	8.7	4.81e-02	0	61	0	850395136	58	7326
2026-01-22 23:14:01.23	155.49	36.06	-43.6	-49.0	9.3	2.54e-02	0	61	0	852492288	58	6861
2026-01-22 23:14:02.24	155.73	35.87	-43.5	-49.0	9.4	1.55e-02	0	61	0	854589440	58	6809
2026-01-22 23:14:03.25	155.98	35.68	-43.4	-48.5	10.0	1.02e-02	0	61	0	856686592	58	6426
2026-01-22 23:14:04.26	156.22	35.49	-43.3	-48.3	10.1	7.25e-03	0	61	0	857735168	58	6291
2026-01-22 23:14:05.27	156.45	35.30	-43.4	-48.4	10.0	6.29e-03	0	61	0	859832320	58	6379
2026-01-22 23:14:06.28	156.69	35.11	-43.4	-48.5	9.9	8.06e-03	0	61	0	861929472	58	6484
2026-01-22 23:14:07.29	156.92	34.93	-43.6	-49.2	9.1	1.49e-02	0	61	0	864026624	58	6998
2026-01-22 23:14:08.29	157.15	34.74	-43.7	-49.6	8.7	3.38e-02	0	61	0	866123776	58	7348
2026-01-22 23:14:09.30	157.37	34.55	-43.5	-48.9	9.4	2.21e-02	0	61	0	868220928	58	6767
2026-01-22 23:14:10.31	157.60	34.37	-43.1	-47.9	10.5	8.90e-03	0	61	0	869269504	58	5993
2026-01-22 23:14:11.32	157.82	34.18	-42.7	-46.9	11.5	1.22e-03	0	61	0	871366656	57	5701
2026-01-22 23:14:12.33	158.04	34.00	-42.5	-46.5	12.0	4.55e-04	0	61	0	873463808	57	5422
2026-01-22 23:14:13.34	158.26	33.81	-42.5	-46.5	12.0	3.24e-04	0	61	0	875560960	56	5734
2026-01-22 23:14:14.35	158.47	33.63	-42.8	-47.2	11.2	5.71e-04	0	61	0	877658112	56	6221
2026-01-22 23:14:15.36	158.68	33.45	-43.2	-48.0	10.4	2.91e-03	0	61	0	878706688	56	6834
2026-01-22 23:14:16.37	158.89	33.26	-43.6	-49.2	9.1	1.07e-02	0	61	0	880803840	57	7407
2026-01-22 23:14:17.38	159.10	33.08	-43.9	-50.3	8.0	3.79e-02	0	61	0	882900992	58	7948
2026-01-22 23:14:18.39	159.31	32.90	-43.8	-49.9	8.4	5.58e-02	0	60	0	884998144	58	7573
2026-01-22 23:14:19.40	159.51	32.72	-43.5	-48.9	9.3	2.77e-02	0	61	0	887095296	58	6788
2026-01-22 23:14:20.41	159.71	32.54	-43.2	-48.0	10.3	1.17e-02	0	61	0	888143872	58	6112
2026-01-22 23:14:21.42	159.91	32.36	-42.9	-47.4	11.0	2.56e-03	0	61	0	890241024	57	6022
2026-01-22 23:14:22.43	160.11	32.19	-42.7	-47.0	11.4	1.12e-03	0	61	0	892338176	57	5735
2026-01-22 23:14:23.44	160.30	32.01	-42.7	-47.0	11.4	9.09e-04	0	61	0	894435328	57	5724
2026-01-22 23:14:24.44	160.49	31.83	-42.7	-46.9	11.4	1.07e-03	0	61	0	896532480	57	5714
2026-01-22 23:14:25.45	160.68	31.66	-42.8	-47.3	11.1	1.01e-03	0	61	0	897581056	57	5924
2026-01-22 23:14:26.46	160.87	31.48	-43.1	-47.9	10.4	2.74e-03	0	61	0	899678208	57	6386
2026-01-22 23:14:27.47	161.06	31.31	-43.2	-48.3	10.0	7.18e-03	0	61	0	901775360	57	6663
2026-01-22 23:14:28.48	161.24	31.14	-43.5	-49.0	9.3	1.35e-02	0	61	0	903872512	57	7215
2026-01-22 23:14:29.49	161.42	30.96	-43.6	-49.4	8.8	2.64e-02	0	61	0	905969664	57	7614
2026-01-22 23:14:30.50	161.60	30.79	-43.5	-49.2	9.0	2.84e-02	0	61	0	907018240	57	7431
2026-01-22 23:14:31.51	161.78	30.62	-43.5	-49.2	9.0	2.49e-02	0	61	0	909115392	57	7435
2026-01-22 23:14:32.52	161.96	30.45	-43.5	-49.2	9.1	2.48e-02	0	61	0	911212544	57	7382
2026-01-22 23:14:33.52	162.13	30.28	-43.4	-48.9	9.3	1.90e-02	0	61	0	913309696	57	7198
2026-01-22 23:14:34.53	162.31	30.11	-43.3	-48.4	9.9	1.17e-02	0	61	0	915406848	57	6764
2026-01-22 23:14:35.54	162.48	29.94	-43.3	-48.4	9.9	1.04e-02	0	61	0	916455424	57	6734
2026-01-22 23:14:36.55	162.65	29.77	-43.3	-48.4	9.8	1.06e-02	0	61	0	918552576	57	6792
2026-01-22 23:14:37.56	162.82	29.61	-43.2	-48.4	9.9	1.04e-02	0	61	0	920649728	57	6737
2026-01-22 23:14:38.57	162.98	29.44	-43.1	-48.0	10.2	7.56e-03	0	61	0	922746880	57	6464
2026-01-22 23:14:39.58	163.15	29.27	-42.9	-47.5	10.8	4.03e-03	0	61	0	924844032	57	6080
2026-01-22 23:14:40.59	163.31	29.11	-42.9	-47.4	10.9	2.12e-03	0	61	0	925892608	57	6048
2026-01-22 23:14:41.60	163.47	28.94	-42.7	-47.0	11.3	1.47e-03	0	61	0	927989760	57	5756
2026-01-22 23:14:42.61	163.63	28.78	-42.7	-47.0	11.4	8.59e-04	0	61	0	930086912	57	5723
2026-01-22 23:14:43.62	163.79	28.62	-42.8	-47.2	11.1	1.17e-03	0	61	0	932184064	57	5922
2026-01-22 23:14:44.63	163.95	28.45	-42.8	-47.3	11.0	1.83e-03	0	61	0	934281216	57	5946
2026-01-22 23:14:45.64	164.10	28.29	-42.9	-47.6	10.7	2.33e-03	0	61	0	936378368	57	6144
2026-01-22 23:14:46.65	164.26	28.13	-43.1	-47.9	10.3	4.17e-03	0	61	0	937426944	57	6407
2026-01-22 23:14:47.66	164.41	27.97	-43.0	-47.9	10.4	4.58e-03	0	61	0	939524096	57	6370
2026-01-22 23:14:48.67	164.56	27.81	-43.0	-47.8	10.4	4.08e-03	0	61	0	941621248	57	6295
2026-01-22 23:14:49.68	164.71	27.65	-42.8	-47.4	10.8	3.75e-03	0	61	0	943718400	57	6030
2026-01-22 23:14:50.69	164.86	27.50	-42.7	-47.2	11.0	1.87e-03	0	61	0	945815552	57	5889
2026-01-22 23:14:51.70	165.00	27.34	-42.6	-46.9	11.3	1.33e-03	0	61	0	946864128	57	5710
2026-01-22 23:14:52.71	165.15	27.18	-42.6	-46.8	11.4	8.79e-04	0	61	0	948961280	57	5646
2026-01-22 23:14:53.72	165.29	27.03	-42.4	-46.5	11.8	6.96e-04	0	61	0	951058432	56	5728
2026-01-22 23:14:54.73	165.44	26.87	-42.5	-46.5	11.8	5.06e-04	0	61	0	953155584	56	5755
2026-01-22 23:14:55.74	165.58	26.72	-42.7	-47.0	11.2	8.54e-04	0	61	0	955252736	56	6112
2026-01-22 23:14:56.75	165.72	26.56	-42.7	-47.2	11.1	1.42e-03	0	61	0	956301312	56	6206
2026-01-22 23:14:57.76	165.85	26.41	-42.9	-47.6	10.6	2.37e-03	0	61	0	958398464	56	6542
2026-01-22 23:14:58.77	165.99	26.26	-43.0	-47.8	10.4	4.28e-03	0	61	0	960495616	56	6653
2026-01-22 23:14:59.78	166.13	26.11	-43.0	-47.9	10.3	4.76e-03	0	61	0	962592768	56	6730
2026-01-22 23:15:00.79	166.26	25.96	-43.1	-48.1	10.1	6.70e-03	0	61	0	964689920	56	6880
2026-01-22 23:15:01.79	166.39	25.81	-43.1	-48.0	10.1	7.39e-03	0	61	0	965738496	56	6863
2026-01-22 23:15:02.80	166.53	25.66	-43.0	-48.0	10.2	6.69e-03	0	61	0	967835648	56	6804
2026-01-22 23:15:03.81	166.66	25.51	-42.9	-47.7	10.5	4.37e-03	0	61	0	969932800	56	6610
2026-01-22 23:15:04.83	166.79	25.36	-42.9	-47.5	10.7	3.25e-03	0	61	0	972029952	56	6484
2026-01-22 23:15:05.83	166.92	25.21	-42.9	-47.5	10.7	2.99e-03	0	61	0	974127104	56	6488
2026-01-22 23:15:06.84	167.04	25.07	-42.8	-47.4	10.9	2.55e-03	0	61	0	975175680	56	6360
2026-01-22 23:15:07.85	167.17	24.92	-42.7	-47.2	11.0	1.96e-03	0	61	0	977272832	56	6273
2026-01-22 23:15:08.86	167.30	24.77	-42.6	-47.0	11.2	1.67e-03	0	61	0	979369984	56	6104
2026-01-22 23:15:09.87	167.42	24.63	-42.6	-47.0	11.2	1.29e-03	0	61	0	981467136	56	6084
2026-01-22 23:15:10.89	167.54	24.48	-42.5	-46.8	11.4	9.51e-04	0	61	0	983564288	56	5939
2026-01-22 23:15:11.89	167.66	24.34	-42.5	-46.6	11.6	7.37e-04	0	61	0	984612864	56	5844
2026-01-22 23:15:12.90	167.79	24.20	-42.4	-46.4	11.8	5.68e-04	0	61	0	986710016	56	5706
2026-01-22 23:15:13.91	167.91	24.06	-42.4	-46.4	11.9	4.55e-04	0	61	0	988807168	56	5674
2026-01-22 23:15:14.92	168.02	23.91	-42.4	-46.5	11.8	4.45e-04	0	61	0	990904320	56	5747
2026-01-22 23:15:15.94	168.14	23.77	-42.4	-46.4	11.8	4.76e-04	0	61	0	993001472	56	5681
2026-01-22 23:15:16.95	168.26	23.63	-42.4	-46.4	11.8	4.61e-04	0	61	0	994050048	56	5716
2026-01-22 23:15:17.96	168.38	23.49	-42.5	-46.8	11.5	7.48e-04	0	61	0	996147200	56	5949
2026-01-22 23:15:18.97	168.49	23.35	-42.6	-47.1	11.1	1.04e-03	0	61	0	998244352	56	6137
2026-01-22 23:15:19.98	168.60	23.22	-42.8	-47.3	10.8	2.20e-03	0	61	0	1000341504	56	6335
2026-01-22 23:15:20.98	168.72	23.08	-42.8	-47.5	10.7	3.01e-03	0	61	0	1002438656	56	6443
2026-01-22 23:15:21.99	168.83	22.94	-42.9	-47.7	10.5	3.69e-03	0	61	0	1004535808	56	6578
2026-01-22 23:15:23.00	168.94	22.81	-42.9	-47.8	10.4	4.23e-03	0	61	0	1005584384	56	6664
2026-01-22 23:15:24.01	169.05	22.67	-42.8	-47.5	10.6	3.73e-03	0	61	0	1007681536	56	6482
2026-01-22 23:15:25.02	169.16	22.53	-42.8	-47.4	10.8	2.96e-03	0	61	0	1009778688	56	6362
2026-01-22 23:15:26.03	169.27	22.40	-42.7	-47.2	11.0	2.09e-03	0	61	0	1011875840	56	6224
2026-01-22 23:15:27.04	169.37	22.27	-42.6	-47.1	11.0	1.94e-03	0	61	0	1013972992	56	6177
2026-01-22 23:15:28.05	169.48	22.13	-42.5	-46.8	11.3	1.42e-03	0	61	0	1015021568	56	5972
2026-01-22 23:15:29.06	169.58	22.00	-42.4	-46.6	11.5	8.88e-04	0	61	0	1017118720	56	5854
2026-01-22 23:15:30.07	169.69	21.87	-42.3	-46.3	11.8	5.71e-04	0	61	0	1019215872	56	5653
2026-01-22 23:15:31.08	169.79	21.73	-42.2	-46.1	12.0	3.13e-04	0	61	0	1021313024	56	5519
2026-01-22 23:15:32.09	169.90	21.60	-42.1	-46.0	12.2	2.48e-04	0	61	0	1023410176	56	5424
2026-01-22 23:15:33.10	170.00	21.47	-42.2	-46.0	12.1	2.71e-04	0	61	0	1024458752	56	5450
2026-01-22 23:15:34.11	170.10	21.34	-42.2	-46.1	12.1	3.22e-04	0	61	0	1026555904	56	5498
2026-01-22 23:15:35.12	170.20	21.21	-42.2	-46.1	12.0	3.07e-04	0	61	0	1028653056	56	5522
2026-01-22 23:15:36.13	170.30	21.09	-42.2	-46.2	11.9	3.40e-04	0	61	0	1030750208	56	5575
2026-01-22 23:15:37.14	170.40	20.96	-42.3	-46.3	11.8	4.20e-04	0	61	0	1032847360	56	5654
2026-01-22 23:15:38.15	170.50	20.83	-42.3	-46.4	11.8	4.91e-04	0	61	0	1033895936	56	5677
2026-01-22 23:15:39.16	170.59	20.70	-42.4	-46.5	11.6	5.29e-04	0	61	0	1035993088	56	5750
2026-01-22 23:15:40.17	170.69	20.58	-42.3	-46.4	11.7	5.83e-04	0	61	0	1038090240	56	5671
2026-01-22 23:15:41.18	170.79	20.45	-42.2	-46.3	11.8	4.39e-04	0	61	0	1040187392	56	5607
2026-01-22 23:15:42.19	170.88	20.32	-42.2	-46.2	11.9	4.73e-04	0	61	0	1042284544	56	5567
2026-01-22 23:15:43.20	170.98	20.20	-42.2	-46.2	11.9	3.90e-04	0	61	0	1043333120	56	5537
2026-01-22 23:15:44.21	171.07	20.08	-42.1	-46.0	12.1	2.85e-04	0	61	0	1045430272	56	5406
2026-01-22 23:15:45.21	171.16	19.95	-42.0	-45.8	12.3	2.29e-04	0	61	0	1047527424	56	5335
2026-01-22 23:15:46.23	171.25	19.83	-42.0	-45.8	12.3	1.64e-04	0	61	0	1049624576	56	5314
2026-01-22 23:15:47.23	171.34	19.71	-42.0	-45.8	12.3	1.62e-04	0	61	0	1051721728	56	5314
2026-01-22 23:15:48.24	171.43	19.58	-41.7	-45.4	12.6	1.53e-04	0	61	0	1052770304	55	5341
2026-01-22 23:15:49.25	171.52	19.46	-41.6	-45.2	12.7	6.79e-05	0	61	0	1054867456	55	5257
2026-01-22 23:15:50.26	171.61	19.34	-41.6	-45.2	12.8	6.63e-05	0	61	0	1056964608	55	5230
2026-01-22 23:15:51.27	171.70	19.22	-41.6	-45.1	12.9	5.18e-05	0	61	0	1059061760	55	5190
2026-01-22 23:15:52.28	171.79	19.10	-41.5	-45.1	12.8	5.26e-05	0	61	0	1061158912	55	5161
2026-01-22 23:15:53.29	171.88	18.98	-41.5	-45.1	12.9	7.24e-05	0	61	0	1062207488	55	5163
2026-01-22 23:15:54.30	171.96	18.86	-41.5	-45.0	12.9	4.27e-05	0	61	0	1064304640	55	5145
2026-01-22 23:15:55.31	172.05	18.74	-41.5	-45.1	12.9	3.89e-05	0	61	0	1066401792	55	5167
2026-01-22 23:15:56.32	172.14	18.63	-41.5	-45.0	12.9	3.73e-05	0	61	0	1068498944	55	5129
2026-01-22 23:15:57.33	172.22	18.51	-41.5	-45.0	12.9	4.57e-05	0	61	0	1070596096	55	5128
2026-01-22 23:15:58.34	172.30	18.39	-41.5	-45.1	12.9	4.11e-05	0	61	0	1072693248	55	5171
2026-01-22 23:15:59.35	172.39	18.28	-41.5	-45.1	12.8	5.03e-05	0	61	0	1073741824	55	5183
2026-01-22 23:16:00.36	172.47	18.16	-41.5	-45.1	12.9	6.40e-05	0	61	0	1075838976	55	5168
2026-01-22 23:16:01.37	172.55	18.04	-41.6	-45.2	12.8	5.41e-05	0	61	0	1077936128	55	5234
2026-01-22 23:16:02.38	172.64	17.93	-41.6	-45.3	12.6	9.38e-05	0	61	0	1080033280	55	5283
2026-01-22 23:16:03.38	172.72	17.82	-41.6	-45.2	12.7	7.09e-05	0	61	0	1082130432	55	5268
2026-01-22 23:16:04.39	172.80	17.70	-41.7	-45.4	12.5	9.30e-05	0	61	0	1083179008	55	5358
2026-01-22 23:16:05.40	172.88	17.59	-41.7	-45.5	12.4	1.43e-04	0	61	0	1085276160	55	5429
2026-01-22 23:16:06.41	172.96	17.48	-41.8	-45.6	12.3	1.36e-04	0	61	0	1087373312	55	5477
2026-01-22 23:16:07.42	173.03	17.36	-41.8	-45.6	12.3	1.81e-04	0	61	0	1089470464	55	5491
2026-01-22 23:16:08.43	173.11	17.25	-41.8	-45.7	12.1	2.04e-04	0	61	0	1091567616	55	5563
2026-01-22 23:16:09.44	173.19	17.14	-41.8	-45.6	12.2	2.32e-04	0	61	0	1092616192	55	5528
2026-01-22 23:16:10.45	173.27	17.03	-41.8	-45.6	12.2	1.98e-04	0	61	0	1094713344	55	5491
2026-01-22 23:16:11.46	173.34	16.92	-41.7	-45.5	12.3	1.79e-04	0	61	0	1096810496	55	5441
2026-01-22 23:16:12.47	173.42	16.81	-41.7	-45.5	12.3	1.94e-04	0	61	0	1098907648	55	5454
2026-01-22 23:16:13.48	173.50	16.70	-41.8	-45.6	12.3	1.66e-04	0	61	0	1101004800	55	5485
2026-01-22 23:16:14.49	173.57	16.59	-41.8	-45.6	12.3	1.69e-04	0	61	0	1102053376	55	5489
2026-01-22 23:16:15.50	173.65	16.48	-41.7	-45.5	12.4	1.53e-04	0	61	0	1104150528	55	5428
2026-01-22 23:16:16.51	173.72	16.37	-41.6	-45.3	12.5	1.33e-04	0	61	0	1106247680	55	5310
2026-01-22 23:16:17.52	173.79	16.26	-41.6	-45.2	12.6	9.15e-05	0	61	0	1108344832	55	5241
2026-01-22 23:16:18.53	173.87	16.15	-41.6	-45.2	12.6	8.62e-05	0	61	0	1110441984	55	5256
2026-01-22 23:16:19.54	173.94	16.05	-41.6	-45.2	12.6	7.32e-05	0	61	0	1111490560	55	5258
2026-01-22 23:16:20.55	174.01	15.94	-41.5	-45.2	12.7	9.61e-05	0	61	0	1113587712	55	5219
2026-01-22 23:16:21.56	174.08	15.83	-41.5	-45.0	12.8	7.32e-05	0	61	0	1115684864	54	5452
2026-01-22 23:16:22.56	174.15	15.73	-41.5	-45.1	12.7	6.17e-05	0	61	0	1117782016	54	5489
2026-01-22 23:16:23.57	174.22	15.62	-41.6	-45.2	12.7	8.23e-05	0	61	0	1119879168	54	5557
2026-01-22 23:16:24.58	174.29	15.52	-41.5	-45.1	12.7	9.23e-05	0	61	0	1120927744	54	5509
2026-01-22 23:16:25.59	174.36	15.41	-41.5	-45.1	12.7	7.24e-05	0	61	0	1123024896	54	5502
2026-01-22 23:16:26.60	174.43	15.31	-41.5	-45.2	12.6	7.70e-05	0	61	0	1125122048	54	5551
2026-01-22 23:16:27.61	174.50	15.20	-41.6	-45.3	12.6	9.68e-05	0	61	0	1127219200	54	5611
2026-01-22 23:16:28.62	174.57	15.10	-41.6	-45.3	12.5	1.04e-04	0	61	0	1129316352	54	5630
2026-01-22 23:16:29.63	174.64	15.00	-41.6	-45.4	12.4	1.32e-04	0	61	0	1130364928	54	5687
2026-01-22 23:16:30.64	174.70	14.90	-41.7	-45.4	12.3	1.64e-04	0	61	0	1132462080	54	5722
2026-01-22 23:16:31.64	174.77	14.79	-41.7	-45.5	12.2	2.01e-04	0	61	0	1134559232	54	5785
2026-01-22 23:16:32.65	174.84	14.69	-41.7	-45.6	12.2	2.16e-04	0	61	0	1136656384	54	5824
2026-01-22 23:16:33.67	174.90	14.59	-41.8	-45.7	12.0	2.55e-04	0	61	0	1138753536	54	5899
2026-01-22 23:16:34.67	174.97	14.49	-41.8	-45.8	11.9	3.65e-04	0	61	0	1139802112	54	5980
2026-01-22 23:16:35.69	175.03	14.39	-41.8	-45.8	11.9	4.32e-04	0	61	0	1141899264	54	5983
2026-01-22 23:16:36.70	175.10	14.29	-41.9	-46.0	11.7	4.43e-04	0	61	0	1143996416	54	6106
2026-01-22 23:16:37.70	175.16	14.19	-41.9	-46.0	11.7	5.59e-04	0	61	0	1146093568	54	6122
2026-01-22 23:16:38.71	175.23	14.09	-41.9	-46.0	11.7	5.99e-04	0	61	0	1148190720	54	6125
2026-01-22 23:16:39.72	175.29	13.99	-42.0	-46.1	11.6	6.17e-04	0	61	0	1150287872	54	6191
2026-01-22 23:16:40.73	175.35	13.89	-42.0	-46.2	11.6	7.46e-04	0	61	0	1151336448	54	6205
