passes_logs/2026/01/22/R2.0S_Moscow/R2.0S_Moscow__20260122_201437_FENGYUN_3G_rec.log

#Pass ID: 20260122_201437_FENGYUN 3G
#Satellite: FENGYUN 3G
#Configuration: FENGYUN 3G
#almurnet v.1.7.20251203
#Start time: 2026-01-22 20:14:38

#Version: 2.2.20231116
#Station: R2.0S_Moscow
#Location: 37.707566 lon 55.798166 lat
#TLE: 1 56232U 23055A   26021.54475475  .00062179  00000+0  94164-3 0  9996
#TLE: 2 56232  49.9941  22.1547 0004002  61.8305 298.3066 15.54008241157216

#Time	Az	El	Level	Level2	SNR	BER	BlckErr	Temp	State	Recorded	gain1	gain2
2026-01-22 20:14:38.63	250.80	2.07	-44.2	-62.2	3.8	8.45e-01	0	51	0	0	59	29626
2026-01-22 20:14:39.63	250.74	2.13	-44.1	-62.2	3.8	8.45e-01	0	51	104	0	60	28015
2026-01-22 20:14:40.64	250.68	2.20	-44.1	-62.2	3.8	8.46e-01	0	51	104	0	60	27929
2026-01-22 20:14:41.65	250.62	2.27	-44.1	-62.2	3.8	8.46e-01	0	51	104	0	60	27978
2026-01-22 20:14:42.66	250.55	2.34	-44.1	-62.2	3.8	8.46e-01	0	51	104	0	60	27974
2026-01-22 20:14:43.67	250.49	2.40	-44.1	-62.2	3.8	8.46e-01	0	51	104	0	60	27977
2026-01-22 20:14:44.68	250.43	2.47	-44.1	-62.2	3.8	8.47e-01	0	51	104	0	60	27941
2026-01-22 20:14:45.69	250.36	2.54	-44.1	-62.2	3.8	8.47e-01	0	52	104	0	60	27791
2026-01-22 20:14:46.70	250.30	2.61	-44.1	-62.2	3.8	8.45e-01	0	52	104	0	60	27743
2026-01-22 20:14:47.72	250.23	2.68	-44.1	-62.1	3.8	8.46e-01	0	52	104	0	60	27586
2026-01-22 20:14:48.73	250.16	2.74	-44.1	-62.1	3.8	8.46e-01	0	52	104	0	60	27624
2026-01-22 20:14:49.74	250.10	2.81	-44.1	-62.1	3.8	8.46e-01	0	52	104	0	60	27531
2026-01-22 20:14:50.75	250.03	2.88	-44.1	-62.2	3.8	8.46e-01	0	52	104	0	60	27735
2026-01-22 20:14:51.76	249.96	2.95	-44.1	-62.1	3.8	8.46e-01	0	52	104	0	60	27703
2026-01-22 20:14:52.77	249.89	3.02	-44.1	-62.1	3.8	8.46e-01	0	52	104	0	60	27648
2026-01-22 20:14:53.78	249.83	3.09	-44.1	-62.2	3.8	8.46e-01	0	52	104	0	60	27761
2026-01-22 20:14:54.79	249.76	3.16	-44.1	-62.2	3.8	8.46e-01	0	52	104	0	60	27941
2026-01-22 20:14:55.79	249.69	3.23	-44.1	-62.2	3.8	8.46e-01	0	52	104	0	60	27984
2026-01-22 20:14:56.81	249.62	3.30	-44.1	-62.2	3.8	8.46e-01	0	52	104	0	60	27809
2026-01-22 20:14:57.82	249.55	3.37	-44.1	-62.2	3.8	8.46e-01	0	52	104	0	60	27895
2026-01-22 20:14:58.83	249.48	3.44	-44.1	-62.2	3.8	8.46e-01	0	52	104	0	60	27806
2026-01-22 20:14:59.84	249.41	3.51	-44.1	-62.2	3.8	8.46e-01	0	52	104	0	60	27896
2026-01-22 20:15:00.85	249.33	3.58	-44.1	-62.2	3.8	8.46e-01	0	53	104	0	60	27874
2026-01-22 20:15:01.86	249.26	3.65	-44.1	-62.2	3.8	8.46e-01	0	53	104	0	60	27886
2026-01-22 20:15:02.87	249.19	3.73	-44.1	-62.2	3.8	8.45e-01	0	53	104	0	60	27840
2026-01-22 20:15:03.88	249.12	3.80	-44.1	-62.2	3.8	8.46e-01	0	53	104	0	60	27894
2026-01-22 20:15:04.89	249.04	3.87	-44.1	-62.2	3.8	8.46e-01	0	53	104	0	60	27815
2026-01-22 20:15:05.90	248.97	3.94	-44.1	-62.2	3.8	8.46e-01	0	53	104	0	60	27779
2026-01-22 20:15:06.91	248.89	4.02	-44.1	-62.2	3.8	8.47e-01	0	53	104	0	60	27820
2026-01-22 20:15:07.92	248.82	4.09	-44.1	-62.1	3.8	8.46e-01	0	53	104	0	60	27493
2026-01-22 20:15:08.93	248.74	4.16	-44.1	-62.0	3.8	8.46e-01	0	53	104	0	60	27261
2026-01-22 20:15:09.94	248.66	4.24	-44.1	-61.9	3.8	8.46e-01	0	53	104	0	60	26831
2026-01-22 20:15:10.95	248.59	4.31	-44.1	-61.7	3.8	8.46e-01	0	53	104	0	60	26400
2026-01-22 20:15:11.96	248.51	4.38	-44.1	-61.5	3.8	8.46e-01	0	53	104	0	60	25578
2026-01-22 20:15:12.97	248.43	4.46	-44.1	-61.5	3.8	8.46e-01	0	53	104	0	60	25572
2026-01-22 20:15:13.98	248.35	4.53	-44.1	-61.3	3.8	8.46e-01	0	53	104	0	60	25074
2026-01-22 20:15:14.99	248.27	4.61	-44.1	-61.2	3.8	8.46e-01	0	53	104	0	60	24926
2026-01-22 20:15:16.00	248.19	4.68	-44.1	-61.3	3.8	8.46e-01	0	54	104	0	60	25062
2026-01-22 20:15:17.01	248.11	4.76	-44.1	-61.4	3.8	8.47e-01	0	53	104	0	60	25421
2026-01-22 20:15:18.02	248.03	4.83	-44.1	-61.6	3.8	8.47e-01	0	53	104	0	60	25874
2026-01-22 20:15:19.03	247.95	4.91	-44.0	-61.6	3.8	8.45e-01	0	54	104	0	60	25985
2026-01-22 20:15:20.04	247.86	4.99	-44.0	-61.6	3.8	8.47e-01	0	54	104	0	60	26148
2026-01-22 20:15:21.05	247.78	5.06	-44.0	-61.6	3.8	8.45e-01	0	54	104	0	60	25918
2026-01-22 20:15:22.06	247.70	5.14	-44.0	-61.4	3.8	8.45e-01	0	54	104	0	60	25371
2026-01-22 20:15:23.08	247.61	5.22	-44.0	-61.1	3.8	8.47e-01	0	54	104	0	60	24668
2026-01-22 20:15:24.09	247.52	5.30	-44.0	-60.8	3.8	8.46e-01	0	54	104	0	60	23619
2026-01-22 20:15:25.10	247.44	5.37	-44.0	-60.5	3.8	8.46e-01	0	54	104	0	60	22810
2026-01-22 20:15:26.11	247.35	5.45	-44.0	-60.0	3.8	8.46e-01	0	54	104	0	60	21654
2026-01-22 20:15:27.12	247.26	5.53	-44.0	-59.7	3.9	8.45e-01	0	54	104	0	60	20872
2026-01-22 20:15:28.13	247.18	5.61	-44.0	-59.4	3.9	8.45e-01	0	54	104	0	59	21429
2026-01-22 20:15:29.14	247.09	5.69	-44.1	-59.1	4.1	8.45e-01	0	54	0	0	59	20543
2026-01-22 20:15:30.15	247.00	5.77	-44.0	-58.9	4.1	8.42e-01	0	54	0	0	59	20086
2026-01-22 20:15:31.16	246.91	5.85	-44.1	-58.7	4.2	8.39e-01	0	54	0	0	59	19830
2026-01-22 20:15:32.17	246.82	5.93	-44.0	-58.7	4.2	8.39e-01	0	55	0	0	59	19711
2026-01-22 20:15:33.18	246.73	6.01	-44.0	-58.5	4.2	8.37e-01	0	54	0	0	59	19293
2026-01-22 20:15:34.19	246.63	6.09	-44.1	-58.4	4.3	8.36e-01	0	54	0	0	59	18971
2026-01-22 20:15:35.20	246.54	6.17	-44.0	-58.0	4.4	8.36e-01	0	54	0	0	59	18130
2026-01-22 20:15:36.21	246.45	6.25	-44.0	-57.3	4.7	8.30e-01	0	54	0	0	59	16811
2026-01-22 20:15:37.22	246.35	6.33	-43.9	-56.4	5.1	8.00e-01	0	55	0	0	59	15103
2026-01-22 20:15:38.23	246.26	6.41	-43.8	-55.0	6.0	8.00e-01	0	54	0	0	59	12920
2026-01-22 20:15:39.24	246.16	6.50	-43.7	-54.0	6.9	6.15e-01	0	54	0	1048576	59	11528
2026-01-22 20:15:40.25	246.06	6.58	-43.6	-52.8	8.0	2.07e-01	0	55	0	2097152	59	10043
2026-01-22 20:15:41.26	245.97	6.66	-43.4	-51.9	9.0	2.07e-01	0	55	0	3670016	58	9583
2026-01-22 20:15:42.27	245.87	6.75	-43.3	-51.1	9.9	5.68e-02	0	55	0	4718592	58	8673
2026-01-22 20:15:43.28	245.77	6.83	-43.2	-50.6	10.4	1.53e-02	0	55	0	5767168	58	8254
2026-01-22 20:15:44.29	245.67	6.91	-43.1	-50.4	10.6	6.12e-03	0	55	0	6815744	58	8017
2026-01-22 20:15:45.30	245.57	7.00	-43.1	-50.5	10.5	6.12e-03	0	55	0	7864320	58	8146
2026-01-22 20:15:46.32	245.47	7.08	-43.2	-50.9	10.1	5.00e-03	0	55	0	8912896	58	8545
2026-01-22 20:15:47.32	245.36	7.17	-43.4	-52.1	8.9	1.37e-02	0	55	0	10485760	58	9756
2026-01-22 20:15:48.33	245.26	7.25	-43.7	-53.8	7.3	1.37e-02	0	55	0	11534336	58	11874
2026-01-22 20:15:49.35	245.15	7.34	-43.9	-56.4	5.2	9.48e-02	0	55	0	12058624	58	16002
2026-01-22 20:15:50.36	245.05	7.43	-44.1	-59.7	3.9	6.42e-01	0	55	104	12058624	58	23516
2026-01-22 20:15:51.37	244.94	7.51	-44.0	-59.2	3.9	6.42e-01	0	55	104	12058624	58	22044
2026-01-22 20:15:52.38	244.84	7.60	-43.7	-54.8	6.1	8.43e-01	0	55	0	12058624	58	13336
2026-01-22 20:15:53.39	244.73	7.69	-43.3	-51.7	9.0	4.92e-01	0	55	0	13107200	58	9375
2026-01-22 20:15:54.40	244.62	7.78	-42.8	-49.4	11.5	4.92e-01	0	55	0	14155776	57	7600
2026-01-22 20:15:55.41	244.51	7.86	-42.3	-47.8	13.2	2.35e-02	0	56	0	15204352	56	6698
2026-01-22 20:15:56.42	244.40	7.95	-41.7	-46.5	14.4	1.45e-03	0	55	0	16252928	55	6097
2026-01-22 20:15:57.43	244.29	8.04	-41.9	-46.9	14.4	4.87e-04	0	55	0	17825792	55	6358
2026-01-22 20:15:58.44	244.17	8.13	-44.0	-56.5	5.3	4.87e-04	0	55	0	18350080	58	16163
2026-01-22 20:15:59.45	244.06	8.22	-42.1	-47.2	13.2	5.31e-01	0	55	0	18350080	56	6214
2026-01-22 20:16:00.46	243.95	8.31	-41.7	-46.5	14.4	2.31e-01	0	56	0	19398656	55	6104
2026-01-22 20:16:01.47	243.83	8.40	-41.1	-45.2	16.1	2.31e-01	0	55	0	20447232	54	5548
2026-01-22 20:16:02.48	243.71	8.49	-43.2	-51.5	7.5	1.14e-03	0	56	0	21495808	58	9134
2026-01-22 20:16:03.49	243.60	8.59	-41.0	-44.8	16.2	3.55e-01	0	55	0	22544384	53	5653
2026-01-22 20:16:04.50	243.48	8.68	-40.9	-44.7	16.4	3.55e-01	0	56	0	23592960	53	5559
2026-01-22 20:16:05.51	243.36	8.77	-40.9	-44.8	16.4	0.00e+00	0	56	0	24641536	53	5599
2026-01-22 20:16:06.52	243.24	8.86	-40.9	-44.7	16.4	0.00e+00	0	55	0	25690112	53	5541
2026-01-22 20:16:07.53	243.12	8.96	-40.9	-44.8	16.4	0.00e+00	0	56	0	26738688	53	5594
2026-01-22 20:16:08.54	242.99	9.05	-40.9	-44.7	16.4	0.00e+00	0	56	0	28311552	53	5550
2026-01-22 20:16:09.54	242.87	9.14	-40.9	-44.7	16.5	0.00e+00	0	56	0	29360128	53	5563
2026-01-22 20:16:10.55	242.74	9.24	-40.7	-44.4	16.7	0.00e+00	0	56	0	30408704	53	5362
2026-01-22 20:16:11.56	242.62	9.33	-40.6	-44.1	17.1	0.00e+00	0	56	0	31457280	53	5185
2026-01-22 20:16:12.58	242.49	9.43	-40.5	-43.9	17.3	0.00e+00	0	56	0	32505856	53	5095
2026-01-22 20:16:13.58	242.36	9.52	-40.5	-43.9	17.3	0.00e+00	0	56	0	33554432	53	5068
2026-01-22 20:16:14.59	242.23	9.62	-40.4	-43.7	17.5	0.00e+00	0	56	0	35127296	52	5271
2026-01-22 20:16:15.60	242.10	9.72	-40.5	-43.8	17.4	0.00e+00	0	56	0	36175872	52	5333
2026-01-22 20:16:16.61	241.97	9.81	-40.4	-43.7	17.5	0.00e+00	0	56	0	37224448	52	5267
2026-01-22 20:16:17.62	241.84	9.91	-40.3	-43.6	17.7	0.00e+00	0	56	0	38273024	52	5160
2026-01-22 20:16:18.63	241.70	10.01	-40.3	-43.5	17.7	0.00e+00	0	56	0	39321600	52	5155
2026-01-22 20:16:19.64	241.57	10.11	-40.3	-43.6	17.7	0.00e+00	0	56	0	40370176	52	5169
2026-01-22 20:16:20.65	241.43	10.21	-40.3	-43.6	17.6	0.00e+00	0	56	0	41943040	52	5215
2026-01-22 20:16:21.66	241.29	10.31	-40.5	-43.8	17.5	0.00e+00	0	56	0	42991616	52	5298
2026-01-22 20:16:22.66	241.15	10.40	-40.4	-43.8	17.5	0.00e+00	0	56	0	44040192	52	5290
2026-01-22 20:16:23.67	241.01	10.50	-40.5	-43.8	17.5	0.00e+00	0	56	0	45088768	52	5332
2026-01-22 20:16:24.68	240.87	10.61	-40.4	-43.7	17.7	0.00e+00	0	56	0	46137344	52	5227
2026-01-22 20:16:25.69	240.73	10.71	-40.4	-43.6	17.7	0.00e+00	0	56	0	47185920	52	5200
2026-01-22 20:16:26.70	240.58	10.81	-40.3	-43.5	17.8	0.00e+00	0	56	0	48758784	52	5150
2026-01-22 20:16:27.71	240.43	10.91	-40.3	-43.5	17.8	0.00e+00	0	56	0	49807360	52	5116
2026-01-22 20:16:28.72	240.29	11.01	-40.2	-43.3	18.0	0.00e+00	0	56	0	50855936	52	5002
2026-01-22 20:16:29.73	240.14	11.12	-40.0	-43.1	18.2	0.00e+00	0	56	0	51904512	52	4885
2026-01-22 20:16:30.74	239.99	11.22	-40.1	-43.2	18.2	0.00e+00	0	56	0	52953088	52	4932
2026-01-22 20:16:31.75	239.83	11.33	-40.0	-43.1	18.3	0.00e+00	0	56	0	54001664	52	4872
2026-01-22 20:16:32.76	239.68	11.43	-40.1	-43.1	18.2	0.00e+00	0	57	0	55050240	52	4918
2026-01-22 20:16:33.77	239.53	11.54	-40.1	-43.2	18.2	0.00e+00	0	56	0	56623104	52	4937
2026-01-22 20:16:34.78	239.37	11.64	-40.1	-43.2	18.1	0.00e+00	0	56	0	57671680	52	4980
2026-01-22 20:16:35.79	239.21	11.75	-40.1	-43.1	18.2	0.00e+00	0	56	0	58720256	52	4920
2026-01-22 20:16:36.80	239.05	11.86	-40.2	-43.2	18.1	0.00e+00	0	56	0	59768832	52	4979
2026-01-22 20:16:37.80	238.89	11.96	-40.1	-43.2	18.2	0.00e+00	0	57	0	60817408	52	4927
2026-01-22 20:16:38.81	238.73	12.07	-40.0	-43.0	18.4	0.00e+00	0	56	0	61865984	52	4852
2026-01-22 20:16:39.82	238.57	12.18	-40.0	-43.0	18.5	0.00e+00	0	56	0	63438848	52	4819
2026-01-22 20:16:40.83	238.40	12.29	-39.9	-42.9	18.6	0.00e+00	0	57	0	64487424	51	5044
2026-01-22 20:16:41.84	238.23	12.40	-39.9	-42.8	18.7	0.00e+00	0	57	0	65536000	51	5030
2026-01-22 20:16:42.85	238.06	12.51	-39.9	-42.8	18.7	0.00e+00	0	57	0	66584576	51	5015
2026-01-22 20:16:43.86	237.89	12.62	-39.9	-42.8	18.7	0.00e+00	0	57	0	67633152	51	5003
2026-01-22 20:16:44.87	237.72	12.73	-39.9	-42.8	18.7	0.00e+00	0	57	0	68681728	51	4987
2026-01-22 20:16:45.88	237.54	12.84	-39.9	-42.8	18.6	0.00e+00	0	57	0	70254592	51	5037
2026-01-22 20:16:46.89	237.37	12.96	-39.7	-42.4	19.1	0.00e+00	0	57	0	71303168	51	4785
2026-01-22 20:16:47.90	237.19	13.07	-39.7	-42.4	19.1	0.00e+00	0	57	0	72351744	51	4787
2026-01-22 20:16:48.91	237.01	13.18	-39.7	-42.5	19.1	0.00e+00	0	57	0	73400320	51	4830
2026-01-22 20:16:49.92	236.83	13.30	-39.8	-42.6	19.0	0.00e+00	0	57	0	74448896	51	4871
2026-01-22 20:16:50.93	236.65	13.41	-39.9	-42.7	18.9	0.00e+00	0	57	0	76021760	51	4974
2026-01-22 20:16:51.94	236.46	13.53	-39.8	-42.7	18.9	0.00e+00	0	57	0	77070336	51	4942
2026-01-22 20:16:52.95	236.27	13.64	-39.9	-42.8	18.8	0.00e+00	0	57	0	78118912	51	5000
2026-01-22 20:16:53.96	236.08	13.76	-39.9	-42.7	18.8	0.00e+00	0	57	0	79167488	51	4983
2026-01-22 20:16:54.97	235.89	13.87	-39.8	-42.7	18.9	0.00e+00	0	57	0	80216064	51	4927
2026-01-22 20:16:55.98	235.70	13.99	-39.6	-42.4	19.2	0.00e+00	0	57	0	81264640	51	4769
2026-01-22 20:16:56.99	235.51	14.11	-39.5	-42.1	19.5	0.00e+00	0	57	0	82837504	51	4636
2026-01-22 20:16:58.00	235.31	14.23	-39.5	-42.1	19.5	0.00e+00	0	57	0	83886080	51	4628
2026-01-22 20:16:59.00	235.11	14.35	-39.5	-42.1	19.5	0.00e+00	0	57	0	84934656	50	4890
2026-01-22 20:17:00.01	234.91	14.47	-39.5	-42.1	19.5	0.00e+00	0	57	0	85983232	50	4899
2026-01-22 20:17:01.02	234.71	14.59	-39.4	-42.0	19.6	0.00e+00	0	57	0	87031808	50	4858
2026-01-22 20:17:02.03	234.50	14.71	-39.5	-42.1	19.6	0.00e+00	0	57	0	88080384	50	4888
2026-01-22 20:17:03.04	234.29	14.83	-39.6	-42.2	19.4	0.00e+00	0	57	0	89653248	50	4976
2026-01-22 20:17:04.05	234.08	14.95	-39.6	-42.3	19.4	0.00e+00	0	57	0	90701824	50	4986
2026-01-22 20:17:05.06	233.87	15.07	-39.6	-42.2	19.4	0.00e+00	0	57	0	91750400	50	4957
2026-01-22 20:17:06.07	233.66	15.20	-39.5	-42.2	19.5	0.00e+00	0	57	0	92798976	50	4928
2026-01-22 20:17:07.08	233.44	15.32	-39.6	-42.2	19.4	0.00e+00	0	57	0	93847552	50	4983
2026-01-22 20:17:08.09	233.22	15.45	-39.4	-41.9	19.8	0.00e+00	0	57	0	94896128	50	4793
2026-01-22 20:17:09.10	233.00	15.57	-39.2	-41.7	20.0	0.00e+00	0	57	0	95944704	50	4672
2026-01-22 20:17:10.11	232.78	15.70	-39.2	-41.7	20.0	0.00e+00	0	57	0	97517568	50	4665
2026-01-22 20:17:11.12	232.55	15.82	-39.1	-41.6	20.2	0.00e+00	0	57	0	98566144	50	4600
2026-01-22 20:17:12.13	232.32	15.95	-39.0	-41.5	20.2	0.00e+00	0	57	0	99614720	50	4550
2026-01-22 20:17:13.14	232.09	16.08	-39.0	-41.4	20.3	0.00e+00	0	57	0	100663296	50	4531
2026-01-22 20:17:14.15	231.86	16.20	-39.0	-41.4	20.3	0.00e+00	0	57	0	101711872	49	4775
2026-01-22 20:17:15.16	231.62	16.33	-39.1	-41.6	20.2	0.00e+00	0	57	0	102760448	49	4877
2026-01-22 20:17:16.17	231.38	16.46	-39.1	-41.5	20.2	0.00e+00	0	57	0	104333312	49	4845
2026-01-22 20:17:17.18	231.14	16.59	-39.1	-41.6	20.2	0.00e+00	0	57	0	105381888	49	4875
2026-01-22 20:17:18.19	230.90	16.72	-38.9	-41.3	20.4	0.00e+00	0	57	0	106430464	49	4750
2026-01-22 20:17:19.20	230.65	16.85	-39.0	-41.3	20.4	0.00e+00	0	57	0	107479040	49	4755
2026-01-22 20:17:20.21	230.40	16.98	-38.8	-41.2	20.6	0.00e+00	0	57	0	108527616	49	4663
2026-01-22 20:17:21.22	230.15	17.11	-38.8	-41.2	20.5	0.00e+00	0	57	0	109576192	49	4673
2026-01-22 20:17:22.23	229.90	17.25	-38.8	-41.1	20.7	0.00e+00	0	58	0	111149056	49	4599
2026-01-22 20:17:23.23	229.64	17.38	-38.8	-41.1	20.6	0.00e+00	0	57	0	112197632	49	4639
2026-01-22 20:17:24.24	229.38	17.51	-38.7	-41.0	20.7	0.00e+00	0	57	0	113246208	49	4564
2026-01-22 20:17:25.25	229.12	17.64	-38.7	-41.0	20.7	0.00e+00	0	58	0	114294784	49	4586
2026-01-22 20:17:26.26	228.85	17.78	-38.8	-41.1	20.7	0.00e+00	0	57	0	115343360	49	4617
2026-01-22 20:17:27.27	228.58	17.91	-38.8	-41.1	20.7	0.00e+00	0	58	0	116391936	49	4635
2026-01-22 20:17:28.28	228.31	18.05	-38.8	-41.1	20.7	0.00e+00	0	57	0	117964800	49	4607
2026-01-22 20:17:29.29	228.03	18.18	-38.8	-41.1	20.6	0.00e+00	0	58	0	119013376	49	4618
2026-01-22 20:17:30.30	227.76	18.32	-38.8	-41.1	20.7	0.00e+00	0	58	0	120061952	49	4620
2026-01-22 20:17:31.31	227.47	18.46	-38.6	-40.8	20.9	0.00e+00	0	57	0	121110528	49	4490
2026-01-22 20:17:32.32	227.19	18.59	-38.7	-40.9	20.8	0.00e+00	0	58	0	122159104	49	4533
2026-01-22 20:17:33.33	226.90	18.73	-38.6	-40.9	20.9	0.00e+00	0	58	0	123731968	49	4509
2026-01-22 20:17:34.34	226.61	18.87	-38.5	-40.7	21.1	0.00e+00	0	57	0	124780544	48	4657
2026-01-22 20:17:35.35	226.32	19.01	-38.5	-40.7	21.1	0.00e+00	0	57	0	125829120	48	4687
2026-01-22 20:17:36.36	226.02	19.15	-38.6	-40.8	21.0	0.00e+00	0	58	0	126877696	48	4716
2026-01-22 20:17:37.37	225.72	19.29	-38.5	-40.7	21.1	0.00e+00	0	58	0	127926272	48	4664
2026-01-22 20:17:38.38	225.41	19.43	-38.4	-40.6	21.2	0.00e+00	0	58	0	128974848	48	4615
2026-01-22 20:17:39.39	225.11	19.57	-38.4	-40.6	21.2	0.00e+00	0	58	0	130547712	48	4648
2026-01-22 20:17:40.40	224.80	19.71	-38.8	-41.1	20.8	0.00e+00	0	58	0	131596288	48	4881
2026-01-22 20:17:41.40	224.48	19.85	-38.7	-40.9	20.9	0.00e+00	0	57	0	132644864	48	4791
2026-01-22 20:17:42.41	224.17	19.99	-38.5	-40.7	21.2	0.00e+00	0	58	0	133693440	48	4660
2026-01-22 20:17:43.42	223.84	20.13	-38.4	-40.6	21.2	0.00e+00	0	58	0	134742016	48	4630
2026-01-22 20:17:44.43	223.52	20.27	-38.5	-40.7	21.1	0.00e+00	0	58	0	135790592	48	4652
2026-01-22 20:17:45.44	223.19	20.41	-38.3	-40.4	21.4	0.00e+00	0	58	0	136839168	48	4525
2026-01-22 20:17:46.45	222.86	20.55	-38.1	-40.2	21.6	0.00e+00	0	58	0	138412032	48	4432
2026-01-22 20:17:47.46	222.52	20.70	-38.0	-40.0	21.8	0.00e+00	0	57	0	139460608	48	4330
2026-01-22 20:17:48.47	222.18	20.84	-37.9	-39.9	21.9	0.00e+00	0	58	0	140509184	47	4538
2026-01-22 20:17:49.48	221.84	20.98	-37.9	-39.9	21.9	0.00e+00	0	58	0	141557760	47	4539
2026-01-22 20:17:50.49	221.49	21.12	-37.9	-40.0	21.9	0.00e+00	0	58	0	142606336	47	4580
2026-01-22 20:17:51.50	221.14	21.27	-38.0	-40.1	21.7	0.00e+00	0	58	0	143654912	47	4623
2026-01-22 20:17:52.51	220.78	21.41	-38.1	-40.2	21.6	0.00e+00	0	58	0	145227776	47	4692
2026-01-22 20:17:53.52	220.42	21.55	-38.1	-40.2	21.6	0.00e+00	0	58	0	146276352	47	4679
2026-01-22 20:17:54.53	220.06	21.70	-38.0	-40.1	21.7	0.00e+00	0	58	0	147324928	47	4626
2026-01-22 20:17:55.54	219.69	21.84	-37.9	-40.0	21.9	0.00e+00	0	58	0	148373504	47	4547
2026-01-22 20:17:56.55	219.32	21.99	-37.9	-39.9	21.9	0.00e+00	0	58	0	149422080	47	4523
2026-01-22 20:17:57.56	218.94	22.13	-37.6	-39.5	22.3	0.00e+00	0	58	0	150470656	47	4335
2026-01-22 20:17:58.57	218.56	22.27	-37.5	-39.4	22.4	0.00e+00	0	58	0	152043520	47	4283
2026-01-22 20:17:59.58	218.18	22.42	-37.4	-39.3	22.5	0.00e+00	0	58	0	153092096	46	4481
2026-01-22 20:18:00.58	217.79	22.56	-37.4	-39.4	22.5	0.00e+00	0	58	0	154140672	46	4502
2026-01-22 20:18:01.59	217.40	22.70	-37.5	-39.5	22.4	0.00e+00	0	58	0	155189248	46	4555
2026-01-22 20:18:02.60	217.00	22.84	-37.6	-39.6	22.2	0.00e+00	0	58	0	156237824	46	4633
2026-01-22 20:18:03.61	216.60	22.99	-37.7	-39.7	22.2	0.00e+00	0	58	0	157286400	46	4683
2026-01-22 20:18:04.62	216.20	23.13	-37.9	-39.9	22.0	0.00e+00	0	58	0	158859264	46	4800
2026-01-22 20:18:05.63	215.79	23.27	-37.8	-39.9	22.0	0.00e+00	0	58	0	159907840	46	4772
2026-01-22 20:18:06.64	215.37	23.41	-37.8	-39.8	22.1	0.00e+00	0	58	0	160956416	46	4723
2026-01-22 20:18:07.65	214.95	23.55	-37.8	-39.8	22.1	0.00e+00	0	58	0	162004992	46	4716
2026-01-22 20:18:08.66	214.53	23.69	-37.5	-39.5	22.4	0.00e+00	0	58	0	163053568	46	4560
2026-01-22 20:18:09.67	214.10	23.83	-37.5	-39.4	22.5	0.00e+00	0	58	0	164102144	46	4521
2026-01-22 20:18:10.68	213.67	23.97	-37.4	-39.4	22.5	0.00e+00	0	58	0	165675008	46	4507
2026-01-22 20:18:11.68	213.24	24.11	-37.3	-39.2	22.7	0.00e+00	0	58	0	166723584	46	4432
2026-01-22 20:18:12.69	212.80	24.25	-37.4	-39.3	22.5	0.00e+00	0	58	0	167772160	46	4492
2026-01-22 20:18:13.70	212.35	24.39	-37.4	-39.4	22.5	0.00e+00	0	58	0	168820736	46	4507
2026-01-22 20:18:14.71	211.90	24.53	-37.4	-39.3	22.6	0.00e+00	0	58	0	169869312	46	4475
2026-01-22 20:18:15.72	211.45	24.66	-37.4	-39.4	22.5	0.00e+00	0	58	0	170917888	46	4497
2026-01-22 20:18:16.73	210.99	24.80	-37.5	-39.4	22.5	0.00e+00	0	58	0	172490752	46	4520
2026-01-22 20:18:17.74	210.52	24.93	-37.4	-39.4	22.5	0.00e+00	0	58	0	173539328	46	4495
2026-01-22 20:18:18.75	210.05	25.07	-37.6	-39.6	22.3	0.00e+00	0	58	0	174587904	46	4615
2026-01-22 20:18:19.76	209.58	25.20	-37.7	-39.7	22.2	0.00e+00	0	58	0	175636480	46	4652
2026-01-22 20:18:20.77	209.10	25.33	-37.8	-39.8	22.1	0.00e+00	0	58	0	176685056	46	4714
2026-01-22 20:18:21.78	208.62	25.46	-37.5	-39.5	22.4	0.00e+00	0	58	0	177733632	46	4566
2026-01-22 20:18:22.79	208.13	25.59	-37.5	-39.5	22.4	0.00e+00	0	58	0	179306496	46	4562
2026-01-22 20:18:23.80	207.64	25.72	-37.5	-39.5	22.4	0.00e+00	0	58	0	180355072	46	4565
2026-01-22 20:18:24.81	207.14	25.85	-37.5	-39.4	22.5	0.00e+00	0	58	0	181403648	46	4509
2026-01-22 20:18:25.82	206.64	25.98	-37.7	-39.7	22.2	0.00e+00	0	58	0	182452224	46	4666
2026-01-22 20:18:26.83	206.14	26.10	-37.5	-39.5	22.4	0.00e+00	0	58	0	183500800	46	4570
2026-01-22 20:18:27.84	205.63	26.22	-37.4	-39.3	22.6	0.00e+00	0	58	0	184549376	46	4454
2026-01-22 20:18:28.85	205.11	26.35	-37.1	-38.9	23.0	0.00e+00	0	58	0	186122240	46	4257
2026-01-22 20:18:29.86	204.59	26.47	-37.1	-38.9	23.0	0.00e+00	0	58	0	187170816	45	4512
2026-01-22 20:18:30.87	204.07	26.58	-37.1	-38.9	23.0	0.00e+00	0	58	0	188219392	45	4544
2026-01-22 20:18:31.88	203.54	26.70	-37.0	-38.8	23.1	0.00e+00	0	58	0	189267968	45	4471
2026-01-22 20:18:32.89	203.01	26.82	-37.1	-38.9	23.0	0.00e+00	0	58	0	190316544	45	4521
2026-01-22 20:18:33.90	202.47	26.93	-37.2	-39.1	22.8	0.00e+00	0	58	0	191365120	45	4621
2026-01-22 20:18:34.91	201.93	27.04	-37.2	-39.0	22.9	0.00e+00	0	58	0	192937984	45	4592
2026-01-22 20:18:35.92	201.38	27.15	-37.0	-38.9	23.0	0.00e+00	0	58	0	193986560	45	4506
2026-01-22 20:18:36.93	200.83	27.26	-37.0	-38.8	23.0	0.00e+00	0	58	0	195035136	45	4483
2026-01-22 20:18:37.94	200.28	27.36	-36.8	-38.6	23.3	0.00e+00	0	58	0	196083712	45	4355
2026-01-22 20:18:38.95	199.72	27.47	-36.5	-38.3	23.6	0.00e+00	0	59	0	197132288	45	4209
2026-01-22 20:18:39.96	199.16	27.57	-36.7	-38.5	23.3	0.00e+00	0	58	0	198180864	45	4323
2026-01-22 20:18:40.97	198.59	27.67	-36.9	-38.7	23.2	0.00e+00	0	58	0	199753728	45	4413
2026-01-22 20:18:41.97	198.03	27.76	-36.9	-38.7	23.1	0.00e+00	0	58	0	200802304	45	4411
2026-01-22 20:18:42.98	197.45	27.86	-36.7	-38.4	23.4	0.00e+00	0	59	0	201850880	45	4287
2026-01-22 20:18:43.99	196.87	27.95	-36.5	-38.2	23.7	0.00e+00	0	58	0	202899456	45	4189
2026-01-22 20:18:45.00	196.29	28.04	-36.8	-38.6	23.3	0.00e+00	0	58	0	203948032	45	4386
2026-01-22 20:18:46.01	195.71	28.12	-37.0	-38.9	23.0	0.00e+00	0	58	0	204996608	45	4502
2026-01-22 20:18:47.02	195.12	28.21	-37.0	-38.8	23.0	0.00e+00	0	58	0	206569472	45	4489
2026-01-22 20:18:48.03	194.53	28.29	-37.0	-38.9	23.0	0.00e+00	0	58	0	207618048	45	4495
2026-01-22 20:18:49.04	193.93	28.37	-36.6	-38.3	23.5	0.00e+00	0	59	0	208666624	45	4236
2026-01-22 20:18:50.05	193.33	28.44	-36.5	-38.3	23.6	0.00e+00	0	58	0	209715200	45	4209
2026-01-22 20:18:51.05	192.73	28.51	-36.5	-38.2	23.6	0.00e+00	0	58	0	210763776	44	4418
2026-01-22 20:18:52.06	192.13	28.58	-36.7	-38.5	23.3	0.00e+00	0	58	0	211812352	44	4563
2026-01-22 20:18:53.07	191.52	28.65	-36.7	-38.5	23.3	0.00e+00	0	59	0	213385216	44	4561
2026-01-22 20:18:54.08	190.91	28.72	-36.8	-38.6	23.2	0.00e+00	0	59	0	214433792	44	4615
2026-01-22 20:18:55.09	190.30	28.78	-36.6	-38.4	23.5	0.00e+00	0	58	0	215482368	44	4527
2026-01-22 20:18:56.10	189.68	28.83	-36.7	-38.5	23.4	0.00e+00	0	58	0	216530944	44	4558
2026-01-22 20:18:57.11	189.06	28.89	-36.8	-38.6	23.2	0.00e+00	0	59	0	217579520	44	4644
2026-01-22 20:18:58.12	188.44	28.94	-37.0	-38.8	23.1	0.00e+00	0	59	0	218628096	44	4728
2026-01-22 20:18:59.13	187.82	28.99	-37.3	-39.1	22.7	0.00e+00	0	58	0	220200960	45	4650
2026-01-22 20:19:00.14	187.19	29.03	-37.4	-39.3	22.6	0.00e+00	0	58	0	221249536	45	4737
2026-01-22 20:19:01.15	186.57	29.07	-37.5	-39.4	22.4	0.00e+00	0	59	0	222298112	45	4810
2026-01-22 20:19:02.16	185.94	29.11	-37.4	-39.3	22.6	0.00e+00	0	59	0	223346688	45	4723
2026-01-22 20:19:03.17	185.31	29.14	-37.4	-39.3	22.5	0.00e+00	0	58	0	224395264	45	4721
2026-01-22 20:19:04.18	184.68	29.18	-37.5	-39.4	22.4	0.00e+00	0	58	0	225443840	45	4805
2026-01-22 20:19:05.19	184.04	29.20	-37.3	-39.2	22.7	0.00e+00	0	59	0	227016704	45	4683
2026-01-22 20:19:06.20	183.41	29.23	-37.3	-39.2	22.7	0.00e+00	0	59	0	228065280	45	4676
2026-01-22 20:19:07.21	182.78	29.25	-36.8	-38.6	23.2	0.00e+00	0	59	0	229113856	45	4384
2026-01-22 20:19:08.22	182.14	29.26	-37.1	-39.0	22.9	0.00e+00	0	59	0	230162432	45	4578
2026-01-22 20:19:09.22	181.51	29.28	-36.9	-38.7	23.1	0.00e+00	0	59	0	231211008	45	4425
2026-01-22 20:19:10.23	180.87	29.29	-37.1	-39.0	22.9	0.00e+00	0	58	0	232259584	45	4557
2026-01-22 20:19:11.24	180.24	29.29	-37.3	-39.2	22.7	0.00e+00	0	58	0	233832448	45	4656
2026-01-22 20:19:12.25	179.60	29.30	-37.1	-39.0	22.8	0.00e+00	0	59	0	234881024	45	4578
2026-01-22 20:19:13.27	178.95	29.30	-37.1	-39.0	22.8	0.00e+00	0	58	0	235929600	45	4579
2026-01-22 20:19:14.27	178.32	29.29	-37.2	-39.0	22.8	0.00e+00	0	58	0	236978176	45	4585
2026-01-22 20:19:15.28	177.69	29.28	-37.1	-39.0	23.0	0.00e+00	0	58	0	238026752	45	4564
2026-01-22 20:19:16.29	177.05	29.27	-37.2	-39.1	22.9	0.00e+00	0	58	0	239075328	45	4599
2026-01-22 20:19:17.30	176.41	29.26	-37.4	-39.3	22.7	0.00e+00	0	58	0	240648192	45	4710
2026-01-22 20:19:18.31	175.78	29.24	-37.3	-39.2	22.7	0.00e+00	0	59	0	241696768	45	4682
2026-01-22 20:19:19.32	175.14	29.22	-37.3	-39.2	22.6	0.00e+00	0	58	0	242745344	45	4704
2026-01-22 20:19:20.33	174.51	29.19	-37.5	-39.4	22.9	0.00e+00	0	59	0	243793920	45	4765
2026-01-22 20:19:21.34	173.88	29.16	-37.3	-39.2	22.8	0.00e+00	0	59	0	244842496	45	4680
2026-01-22 20:19:22.35	173.25	29.13	-37.4	-39.2	22.8	0.00e+00	0	58	0	245891072	45	4689
2026-01-22 20:19:23.36	172.62	29.09	-37.4	-39.2	22.8	0.00e+00	0	59	0	247463936	45	4701
2026-01-22 20:19:24.37	171.99	29.06	-37.2	-39.1	22.8	0.00e+00	0	59	0	248512512	45	4631
2026-01-22 20:19:25.38	171.36	29.01	-37.3	-39.1	22.8	0.00e+00	0	59	0	249561088	45	4640
2026-01-22 20:19:26.39	170.74	28.97	-37.4	-39.3	22.6	0.00e+00	0	59	0	250609664	45	4736
2026-01-22 20:19:27.40	170.12	28.92	-37.4	-39.3	22.7	0.00e+00	0	59	0	251658240	45	4706
2026-01-22 20:19:28.41	169.50	28.87	-37.1	-39.0	22.9	0.00e+00	0	59	0	252706816	45	4558
2026-01-22 20:19:29.42	168.88	28.81	-36.9	-38.8	23.2	0.00e+00	0	59	0	254279680	45	4449
2026-01-22 20:19:30.43	168.26	28.75	-36.8	-38.6	23.3	0.00e+00	0	59	0	255328256	45	4386
2026-01-22 20:19:31.44	167.65	28.69	-37.0	-38.8	23.1	0.00e+00	0	58	0	256376832	44	4744
2026-01-22 20:19:32.45	167.04	28.62	-37.1	-39.0	22.9	0.00e+00	0	59	0	257425408	44	4843
2026-01-22 20:19:33.46	166.44	28.56	-37.3	-39.2	22.8	0.00e+00	0	59	0	258473984	45	4666
2026-01-22 20:19:34.47	165.83	28.49	-37.4	-39.3	22.7	0.00e+00	0	59	0	259522560	45	4722
2026-01-22 20:19:35.48	165.23	28.41	-37.4	-39.3	22.7	0.00e+00	0	59	0	261095424	45	4720
2026-01-22 20:19:36.49	164.63	28.33	-37.1	-39.0	23.1	0.00e+00	0	59	0	262144000	45	4552
2026-01-22 20:19:37.50	164.04	28.26	-36.9	-38.8	23.2	0.00e+00	0	59	0	263192576	45	4459
2026-01-22 20:19:38.51	163.45	28.17	-37.0	-38.8	23.2	0.00e+00	0	58	0	264241152	45	4478
2026-01-22 20:19:39.52	162.86	28.09	-36.9	-38.8	23.2	0.00e+00	0	59	0	265289728	45	4451
2026-01-22 20:19:40.53	162.28	28.00	-36.9	-38.8	23.2	0.00e+00	0	59	0	266338304	45	4450
2026-01-22 20:19:41.54	161.70	27.91	-37.0	-38.8	23.2	0.00e+00	0	59	0	267911168	45	4474
2026-01-22 20:19:42.55	161.12	27.82	-37.0	-38.8	23.2	0.00e+00	0	59	0	268959744	45	4470
2026-01-22 20:19:43.55	160.56	27.72	-36.8	-38.6	23.3	0.00e+00	0	59	0	270008320	45	4381
2026-01-22 20:19:44.56	159.99	27.63	-36.8	-38.6	23.4	0.00e+00	0	59	0	271056896	45	4350
2026-01-22 20:19:45.57	159.42	27.53	-36.7	-38.5	23.5	0.00e+00	0	59	0	272105472	45	4298
2026-01-22 20:19:46.58	158.86	27.42	-36.7	-38.5	23.6	0.00e+00	0	59	0	273154048	45	4317
2026-01-22 20:19:47.60	158.30	27.32	-36.5	-38.3	23.6	0.00e+00	0	59	0	274726912	45	4221
2026-01-22 20:19:48.61	157.75	27.21	-36.5	-38.3	23.7	0.00e+00	0	59	0	275775488	44	4449
2026-01-22 20:19:49.62	157.20	27.10	-36.8	-38.5	23.5	0.00e+00	0	59	0	276824064	44	4598
2026-01-22 20:19:50.62	156.66	27.00	-36.9	-38.7	23.2	0.00e+00	0	59	0	277872640	44	4704
2026-01-22 20:19:51.63	156.12	26.88	-37.4	-39.4	22.7	0.00e+00	0	59	0	278921216	45	4781
2026-01-22 20:19:52.64	155.59	26.77	-37.4	-39.4	22.6	0.00e+00	0	59	0	279969792	45	4790
2026-01-22 20:19:53.65	155.06	26.65	-37.5	-39.4	22.7	0.00e+00	0	59	0	281542656	45	4793
2026-01-22 20:19:54.66	154.53	26.54	-37.0	-38.8	23.2	0.00e+00	0	59	0	282591232	45	4464
2026-01-22 20:19:55.67	154.01	26.42	-36.9	-38.7	23.3	0.00e+00	0	59	0	283639808	45	4413
2026-01-22 20:19:56.68	153.49	26.30	-37.0	-38.8	23.2	0.00e+00	0	59	0	284688384	45	4485
2026-01-22 20:19:57.69	152.98	26.17	-37.0	-38.8	23.3	0.00e+00	0	59	0	285736960	45	4493
2026-01-22 20:19:58.70	152.47	26.05	-37.2	-39.1	22.9	0.00e+00	0	59	0	286785536	45	4608
2026-01-22 20:19:59.71	151.97	25.92	-37.4	-39.3	22.9	0.00e+00	0	59	0	288358400	45	4736
2026-01-22 20:20:00.72	151.47	25.80	-37.6	-39.6	22.4	0.00e+00	0	59	0	289406976	45	4917
2026-01-22 20:20:01.73	150.97	25.67	-38.1	-40.1	22.0	0.00e+00	0	59	0	290455552	46	4926
2026-01-22 20:20:02.74	150.48	25.54	-38.1	-40.1	22.1	0.00e+00	0	59	0	291504128	46	4925
2026-01-22 20:20:03.74	150.00	25.41	-38.0	-40.1	22.1	0.00e+00	0	59	0	292552704	46	4894
2026-01-22 20:20:04.75	149.52	25.28	-37.9	-39.9	22.1	0.00e+00	0	59	0	293601280	46	4788
2026-01-22 20:20:05.76	149.05	25.15	-37.9	-40.0	22.2	0.00e+00	0	59	0	295174144	46	4822
2026-01-22 20:20:06.77	148.57	25.01	-37.7	-39.7	22.5	0.00e+00	0	59	0	296222720	46	4665
2026-01-22 20:20:07.79	148.10	24.88	-37.8	-39.9	22.2	0.00e+00	0	59	0	297271296	46	4769
2026-01-22 20:20:08.79	147.65	24.75	-37.8	-39.8	22.3	0.00e+00	0	59	0	298319872	46	4729
2026-01-22 20:20:09.80	147.19	24.61	-37.8	-39.9	22.2	0.00e+00	0	59	0	299368448	46	4762
2026-01-22 20:20:10.81	146.74	24.47	-37.7	-39.7	22.4	0.00e+00	0	59	0	300417024	46	4682
2026-01-22 20:20:11.82	146.29	24.33	-37.7	-39.7	22.5	0.00e+00	0	59	0	301989888	46	4659
2026-01-22 20:20:12.83	145.84	24.20	-37.4	-39.3	22.8	0.00e+00	0	59	0	303038464	46	4473
2026-01-22 20:20:13.84	145.40	24.06	-37.4	-39.4	22.8	0.00e+00	0	59	0	304087040	46	4498
2026-01-22 20:20:14.85	144.97	23.92	-37.3	-39.3	22.9	0.00e+00	0	59	0	305135616	46	4446
2026-01-22 20:20:15.86	144.54	23.78	-37.5	-39.4	22.7	0.00e+00	0	59	0	306184192	46	4540
2026-01-22 20:20:16.87	144.11	23.64	-37.8	-39.9	22.2	0.00e+00	0	59	0	307232768	46	4770
2026-01-22 20:20:17.88	143.69	23.50	-38.0	-40.0	22.1	0.00e+00	0	59	0	308805632	46	4850
2026-01-22 20:20:18.89	143.28	23.36	-37.9	-39.9	22.2	0.00e+00	0	59	0	309854208	46	4806
2026-01-22 20:20:19.90	142.86	23.21	-37.8	-39.8	22.3	0.00e+00	0	59	0	310902784	46	4720
2026-01-22 20:20:20.91	142.46	23.07	-37.6	-39.6	22.5	0.00e+00	0	59	0	311951360	46	4643
2026-01-22 20:20:21.92	142.05	22.93	-37.5	-39.5	22.6	0.00e+00	0	59	0	312999936	46	4573
2026-01-22 20:20:22.92	141.66	22.79	-37.6	-39.6	22.5	0.00e+00	0	59	0	314048512	46	4622
2026-01-22 20:20:23.93	141.26	22.64	-37.8	-39.9	22.3	0.00e+00	0	59	0	315621376	46	4780
2026-01-22 20:20:24.94	140.87	22.50	-37.8	-39.9	22.2	0.00e+00	0	59	0	316669952	46	4761
2026-01-22 20:20:25.95	140.48	22.36	-37.8	-39.9	22.2	0.00e+00	0	59	0	317718528	46	4771
2026-01-22 20:20:26.96	140.10	22.22	-37.8	-39.9	22.2	0.00e+00	0	59	0	318767104	46	4792
2026-01-22 20:20:27.97	139.72	22.07	-37.9	-40.0	22.1	0.00e+00	0	59	0	319815680	46	4855
2026-01-22 20:20:28.98	139.35	21.93	-37.9	-40.0	22.1	0.00e+00	0	59	0	320864256	46	4855
2026-01-22 20:20:29.99	138.98	21.79	-37.9	-39.9	22.1	0.00e+00	0	59	0	322437120	46	4812
2026-01-22 20:20:31.00	138.61	21.64	-37.9	-40.0	22.1	0.00e+00	0	59	0	323485696	46	4844
2026-01-22 20:20:32.01	138.25	21.50	-38.0	-40.0	22.0	0.00e+00	0	59	0	324534272	46	4869
2026-01-22 20:20:33.02	137.90	21.36	-38.0	-40.2	22.0	0.00e+00	0	59	0	325582848	46	4933
2026-01-22 20:20:34.03	137.54	21.21	-38.2	-40.4	21.7	0.00e+00	0	59	0	326631424	47	4796
2026-01-22 20:20:35.04	137.19	21.07	-38.2	-40.4	21.7	0.00e+00	0	59	0	327680000	47	4788
2026-01-22 20:20:36.05	136.85	20.93	-38.4	-40.5	21.6	0.00e+00	0	59	0	329252864	47	4867
2026-01-22 20:20:37.06	136.50	20.78	-38.4	-40.6	21.6	0.00e+00	0	59	0	330301440	47	4873
2026-01-22 20:20:38.07	136.16	20.64	-38.3	-40.4	21.7	0.00e+00	0	59	0	331350016	47	4805
2026-01-22 20:20:39.08	135.83	20.50	-38.1	-40.2	21.8	0.00e+00	0	59	0	332398592	47	4697
2026-01-22 20:20:40.09	135.50	20.36	-38.1	-40.3	21.8	0.00e+00	0	59	0	333447168	47	4735
2026-01-22 20:20:41.10	135.17	20.22	-38.1	-40.3	21.8	0.00e+00	0	59	0	334495744	47	4729
2026-01-22 20:20:42.11	134.85	20.07	-38.3	-40.5	21.6	0.00e+00	0	59	0	336068608	47	4840
2026-01-22 20:20:43.11	134.53	19.93	-38.3	-40.5	21.6	0.00e+00	0	59	0	337117184	47	4822
2026-01-22 20:20:44.12	134.21	19.79	-38.3	-40.4	21.6	0.00e+00	0	59	0	338165760	47	4807
2026-01-22 20:20:45.13	133.90	19.65	-38.3	-40.4	21.6	0.00e+00	0	59	0	339214336	47	4803
2026-01-22 20:20:46.14	133.59	19.51	-38.4	-40.6	21.6	0.00e+00	0	59	0	340262912	47	4891
2026-01-22 20:20:47.15	133.29	19.37	-38.5	-40.7	21.4	0.00e+00	0	59	0	341311488	47	4963
2026-01-22 20:20:48.16	132.98	19.23	-38.5	-40.8	21.3	0.00e+00	0	59	0	342884352	47	4998
2026-01-22 20:20:49.17	132.68	19.10	-38.6	-40.9	21.2	0.00e+00	0	59	0	343932928	47	5058
2026-01-22 20:20:50.18	132.39	18.96	-38.4	-40.7	21.3	0.00e+00	0	59	0	344981504	47	4961
2026-01-22 20:20:51.19	132.10	18.82	-38.5	-40.7	21.2	0.00e+00	0	59	0	346030080	47	4982
2026-01-22 20:20:52.20	131.81	18.68	-38.3	-40.5	21.3	0.00e+00	0	59	0	347078656	47	4863
2026-01-22 20:20:53.21	131.52	18.54	-38.4	-40.7	21.1	9.10e-06	0	59	0	348127232	47	4939
2026-01-22 20:20:54.22	131.24	18.41	-38.6	-40.9	20.8	9.10e-06	0	59	0	349700096	47	5064
2026-01-22 20:20:55.23	130.96	18.27	-38.5	-40.8	19.7	5.70e-06	0	59	0	350748672	47	5037
2026-01-22 20:20:56.24	130.68	18.13	-38.6	-41.0	20.7	4.00e-05	0	59	0	351797248	47	5108
2026-01-22 20:20:57.25	130.41	18.00	-38.6	-40.9	20.9	4.00e-05	0	59	0	352845824	47	5043
2026-01-22 20:20:58.26	130.14	17.86	-37.9	-40.8	20.8	5.70e-06	0	59	0	353894400	47	4999
2026-01-22 20:20:59.27	129.87	17.73	-38.6	-40.9	20.9	2.20e-06	0	59	0	354942976	47	5075
2026-01-22 20:21:00.28	129.60	17.60	-38.5	-41.0	20.7	2.20e-06	0	59	0	355991552	47	5146
2026-01-22 20:21:01.28	129.34	17.46	-38.9	-41.3	20.5	7.55e-05	0	59	0	357564416	48	4998
2026-01-22 20:21:02.29	129.09	17.33	-38.8	-41.2	20.3	2.74e-05	0	59	0	358612992	48	4931
2026-01-22 20:21:03.30	128.83	17.20	-38.7	-41.1	20.8	9.10e-06	0	59	0	359661568	47	5163
2026-01-22 20:21:04.31	128.58	17.07	-38.7	-41.0	20.9	9.10e-06	0	59	0	360710144	48	4859
2026-01-22 20:21:05.32	128.32	16.93	-38.7	-41.0	20.8	0.00e+00	0	59	0	361758720	48	4869
2026-01-22 20:21:06.33	128.08	16.80	-38.8	-41.2	20.7	3.40e-06	0	59	0	363331584	48	4955
2026-01-22 20:21:07.34	127.83	16.67	-39.0	-41.4	20.5	3.40e-06	0	59	0	364380160	48	5091
2026-01-22 20:21:08.35	127.59	16.54	-39.1	-41.5	20.1	0.00e+00	0	59	0	365428736	48	5138
2026-01-22 20:21:09.36	127.35	16.42	-39.1	-41.6	20.2	2.63e-05	0	59	0	366477312	48	5209
2026-01-22 20:21:10.37	127.11	16.29	-39.1	-41.5	20.3	2.63e-05	0	59	0	367525888	48	5148
2026-01-22 20:21:11.38	126.88	16.16	-39.1	-41.5	20.3	0.00e+00	0	59	0	368574464	48	5153
2026-01-22 20:21:12.39	126.64	16.03	-39.0	-41.5	19.8	0.00e+00	0	59	0	370147328	48	5123
2026-01-22 20:21:13.40	126.41	15.90	-39.1	-41.6	20.3	2.20e-06	0	59	0	371195904	48	5168
2026-01-22 20:21:14.41	126.19	15.78	-39.1	-41.6	20.2	2.20e-06	0	59	0	372244480	48	5199
2026-01-22 20:21:15.42	125.96	15.65	-39.2	-41.8	20.0	5.70e-06	0	59	0	373293056	48	5285
2026-01-22 20:21:16.43	125.74	15.53	-39.2	-41.7	19.7	3.40e-06	0	59	0	374341632	48	5269
2026-01-22 20:21:17.44	125.52	15.40	-39.1	-41.9	19.6	3.40e-06	0	59	0	375390208	49	5065
2026-01-22 20:21:18.44	125.30	15.28	-39.4	-42.0	19.6	1.10e-06	0	59	0	376963072	49	5154
2026-01-22 20:21:19.45	125.09	15.16	-39.6	-42.3	19.2	2.20e-06	0	59	0	378011648	49	5332
2026-01-22 20:21:20.46	124.88	15.03	-38.8	-42.3	19.1	2.20e-06	0	59	0	379060224	47	5941
2026-01-22 20:21:21.47	124.66	14.91	-38.7	-42.2	18.3	1.01e-03	0	59	0	380108800	48	5558
2026-01-22 20:21:22.48	124.46	14.79	-39.5	-42.7	18.7	8.00e-06	0	59	0	381157376	50	5247
2026-01-22 20:21:23.49	124.25	14.67	-39.5	-42.5	18.5	8.00e-06	0	59	0	382205952	49	5463
2026-01-22 20:21:24.50	124.04	14.55	-39.5	-42.5	15.8	4.57e-05	0	59	0	383778816	49	5431
2026-01-22 20:21:25.51	123.84	14.43	-38.7	-42.2	18.1	1.91e-03	0	59	0	384827392	48	5532
2026-01-22 20:21:26.52	123.64	14.31	-38.4	-42.1	18.2	1.74e-04	0	59	0	385875968	48	5468
2026-01-22 20:21:27.53	123.44	14.19	-39.4	-42.4	19.0	1.74e-04	0	59	0	386924544	49	5342
2026-01-22 20:21:28.54	123.25	14.07	-39.5	-42.5	18.8	6.98e-05	0	59	0	387973120	49	5429
2026-01-22 20:21:29.55	123.05	13.95	-39.2	-42.5	17.1	8.56e-04	0	59	0	389021696	46	6493
2026-01-22 20:21:30.56	122.86	13.84	-37.2	-42.5	17.2	8.56e-04	0	59	0	390594560	48	5723
2026-01-22 20:21:31.57	122.67	13.72	-39.5	-42.8	15.8	1.92e-03	0	59	0	391643136	47	6306
2026-01-22 20:21:32.58	122.48	13.60	-39.0	-42.6	16.7	5.73e-04	0	59	0	392691712	46	6550
2026-01-22 20:21:33.59	122.30	13.49	-37.0	-42.8	14.5	5.73e-04	0	59	0	393740288	46	6664
2026-01-22 20:21:34.60	122.11	13.37	-38.9	-42.8	13.0	2.09e-03	0	59	0	394788864	40	9469
2026-01-22 20:21:35.61	121.93	13.26	-35.0	-41.8	12.5	3.00e-03	0	59	0	395837440	38	9482
2026-01-22 20:21:36.61	121.75	13.15	-36.3	-42.8	13.2	3.00e-03	0	59	0	396886016	44	7487
2026-01-22 20:21:37.62	121.57	13.03	-39.1	-43.0	16.5	2.39e-02	0	59	0	398458880	48	6125
2026-01-22 20:21:38.63	121.39	12.92	-35.6	-43.3	13.6	1.21e-02	0	59	0	399507456	45	7490
2026-01-22 20:21:39.64	121.22	12.81	-37.0	-43.1	13.7	1.23e-02	0	59	0	400556032	43	8197
2026-01-22 20:21:40.65	121.05	12.70	-33.6	-43.0	12.9	1.23e-02	0	59	0	401604608	40	9673
2026-01-22 20:21:41.66	120.87	12.59	-37.7	-42.7	13.4	1.01e-02	0	59	0	402653184	43	7857
2026-01-22 20:21:42.67	120.70	12.47	-37.8	-43.1	15.3	9.88e-03	0	59	0	403701760	45	7310
2026-01-22 20:21:43.68	120.53	12.36	-38.0	-43.1	14.6	9.88e-03	0	59	0	405274624	47	6526
2026-01-22 20:21:44.69	120.37	12.26	-35.9	-42.8	11.1	7.97e-03	0	59	0	406323200	39	9996
2026-01-22 20:21:45.70	120.20	12.15	-38.5	-43.2	14.2	2.03e-02	0	59	0	407371776	46	6980
2026-01-22 20:21:46.71	120.04	12.04	-32.3	-42.8	10.3	2.03e-02	0	59	0	408420352	38	10625
2026-01-22 20:21:47.72	119.88	11.93	-33.8	-43.2	11.7	3.85e-02	0	59	0	409468928	40	9916
2026-01-22 20:21:48.73	119.72	11.82	-32.8	-42.9	13.5	3.17e-02	0	59	0	410517504	44	7605
2026-01-22 20:21:49.73	119.56	11.72	-35.8	-43.2	15.0	3.17e-02	0	59	0	412090368	45	7454
2026-01-22 20:21:50.75	119.40	11.61	-33.6	-42.8	11.4	1.51e-02	0	59	0	413138944	35	12579
2026-01-22 20:21:51.76	119.25	11.50	-35.8	-43.1	13.2	4.23e-02	0	59	0	414187520	42	8759
2026-01-22 20:21:52.77	119.09	11.40	-35.2	-43.1	12.0	4.51e-02	0	59	0	415236096	40	9778
2026-01-22 20:21:53.77	118.94	11.30	-31.5	-42.4	8.2	4.51e-02	0	59	0	416284672	30	15972
2026-01-22 20:21:54.78	118.79	11.19	-34.7	-42.8	10.1	1.12e-01	0	59	0	417333248	39	10044
2026-01-22 20:21:55.79	118.64	11.09	-33.9	-43.6	11.5	5.77e-02	0	59	0	418906112	41	9814
2026-01-22 20:21:56.80	118.49	10.98	-31.6	-43.1	11.7	5.77e-02	0	59	0	419954688	38	10939
2026-01-22 20:21:57.81	118.34	10.88	-34.7	-44.2	10.7	4.75e-02	0	59	0	421003264	39	11696
2026-01-22 20:21:58.82	118.20	10.78	-33.5	-43.7	9.9	1.32e-01	0	59	0	422051840	36	13249
2026-01-22 20:21:59.83	118.05	10.68	-31.1	-43.0	8.1	1.32e-01	0	59	0	423100416	28	19273
2026-01-22 20:22:00.84	117.91	10.58	-27.9	-41.9	6.3	2.24e-01	0	59	0	423624704	23	22673
2026-01-22 20:22:01.85	117.77	10.48	-27.1	-42.6	8.1	4.06e-01	0	59	0	424673280	27	19556
2026-01-22 20:22:02.86	117.63	10.38	-30.0	-42.3	8.8	4.06e-01	0	59	0	425197568	28	17808
2026-01-22 20:22:03.87	117.49	10.28	-28.3	-43.2	8.1	4.36e-01	0	59	0	425721856	27	20917
2026-01-22 20:22:04.88	117.35	10.18	-27.4	-42.4	7.2	4.10e-01	0	59	0	426770432	23	24031
2026-01-22 20:22:05.89	117.21	10.08	-20.1	-40.1	6.4	5.22e-01	0	59	0	427294720	18	24426
2026-01-22 20:22:06.90	117.08	9.98	-27.6	-41.5	6.2	5.22e-01	0	59	0	427294720	21	24258
2026-01-22 20:22:07.91	116.95	9.88	-26.2	-41.3	5.6	6.03e-01	0	59	0	427819008	15	33652
2026-01-22 20:22:08.92	116.81	9.78	-25.3	-41.7	5.4	6.46e-01	0	60	0	428343296	21	24789
2026-01-22 20:22:09.93	116.68	9.69	-26.8	-42.9	5.5	6.46e-01	0	59	0	428343296	21	28636
2026-01-22 20:22:10.94	116.55	9.59	-26.8	-45.0	4.9	6.79e-01	0	59	0	428343296	24	30666
2026-01-22 20:22:11.95	116.42	9.50	-23.6	-44.7	3.7	7.83e-01	0	59	104	428343296	19	39328
2026-01-22 20:22:12.96	116.29	9.40	-25.0	-46.8	3.9	7.83e-01	0	59	104	428343296	23	40016
2026-01-22 20:22:13.97	116.17	9.30	-22.3	-44.4	3.8	8.41e-01	0	59	104	428343296	15	47603
2026-01-22 20:22:14.98	116.04	9.21	-23.5	-45.1	3.5	8.38e-01	0	59	104	428343296	17	46093
2026-01-22 20:22:15.99	115.92	9.12	-23.5	-43.6	3.7	8.35e-01	0	59	104	428343296	16	41406
2026-01-22 20:22:17.00	115.79	9.02	-23.7	-44.2	3.9	8.35e-01	0	60	104	428343296	17	41549
2026-01-22 20:22:18.01	115.67	8.93	-22.3	-44.7	4.0	8.37e-01	0	59	104	428343296	16	46862
2026-01-22 20:22:19.02	115.55	8.84	-23.4	-44.7	4.0	8.35e-01	0	60	104	428343296	17	44383
2026-01-22 20:22:20.03	115.43	8.74	-25.8	-46.5	4.0	8.35e-01	0	60	104	428343296	20	45716
2026-01-22 20:22:21.04	115.31	8.65	-22.2	-44.1	3.9	8.41e-01	0	59	104	428343296	17	41305
2026-01-22 20:22:22.04	115.19	8.56	-24.0	-44.3	3.9	8.36e-01	0	60	104	428343296	18	39897
2026-01-22 20:22:23.05	115.08	8.47	-23.9	-42.8	3.6	8.36e-01	0	60	104	428343296	16	37765
2026-01-22 20:22:24.06	114.96	8.38	-24.1	-42.7	4.5	8.41e-01	0	60	104	428343296	17	35040
2026-01-22 20:22:25.07	114.84	8.29	-23.1	-41.7	3.9	8.39e-01	0	60	104	428343296	17	31107
2026-01-22 20:22:26.08	114.73	8.20	-23.7	-42.0	4.6	8.39e-01	0	59	0	428343296	17	32180
2026-01-22 20:22:27.10	114.62	8.11	-23.9	-42.4	4.8	8.14e-01	0	59	0	428343296	16	36092
2026-01-22 20:22:28.10	114.50	8.02	-23.2	-43.4	3.8	7.60e-01	0	59	104	428343296	17	38052
2026-01-22 20:22:29.11	114.39	7.93	-34.1	-59.6	3.8	7.60e-01	0	60	104	428343296	45	48954
2026-01-22 20:22:30.12	114.28	7.84	-44.7	-62.5	3.8	8.36e-01	0	60	104	428343296	59	30611
2026-01-22 20:22:31.13	114.17	7.75	-44.9	-63.1	3.8	8.45e-01	0	59	104	428343296	60	30754
2026-01-22 20:22:32.14	114.07	7.67	-45.2	-63.3	3.8	8.46e-01	0	59	104	428343296	60	31650
2026-01-22 20:22:33.15	113.96	7.58	-45.3	-63.5	3.8	8.46e-01	0	59	104	428343296	61	30530
2026-01-22 20:22:34.16	113.85	7.49	-45.4	-63.7	3.8	8.46e-01	0	60	104	428343296	61	31282
2026-01-22 20:22:35.17	113.75	7.41	-45.6	-63.9	3.8	8.46e-01	0	60	104	428343296	61	31964
2026-01-22 20:22:36.18	113.64	7.32	-45.7	-63.9	3.8	8.46e-01	0	60	104	428343296	61	32149
2026-01-22 20:22:37.19	113.54	7.23	-45.8	-64.1	3.8	8.46e-01	0	60	104	428343296	62	30851
2026-01-22 20:22:38.20	113.43	7.15	-45.7	-64.0	3.8	8.46e-01	0	60	104	428343296	62	30686
2026-01-22 20:22:39.21	113.33	7.06	-45.6	-63.9	3.8	8.46e-01	0	60	104	428343296	62	30288
2026-01-22 20:22:40.22	113.23	6.98	-45.6	-63.8	3.8	8.44e-01	0	59	104	428343296	62	29865
2026-01-22 20:22:41.24	113.13	6.89	-45.5	-63.7	3.8	8.46e-01	0	60	104	428343296	62	29446
2026-01-22 20:22:42.25	113.03	6.81	-45.4	-63.6	3.8	8.46e-01	0	60	104	428343296	62	29210
2026-01-22 20:22:43.26	112.93	6.73	-45.4	-63.5	3.8	8.46e-01	0	60	104	428343296	62	28853
2026-01-22 20:22:44.27	112.83	6.64	-45.4	-63.5	3.8	8.46e-01	0	60	104	428343296	62	28765
2026-01-22 20:22:45.28	112.73	6.56	-45.3	-63.4	3.8	8.46e-01	0	59	104	428343296	62	28396
2026-01-22 20:22:46.29	112.64	6.48	-45.3	-63.3	3.8	8.46e-01	0	60	104	428343296	62	28253
2026-01-22 20:22:47.30	112.54	6.40	-45.3	-63.3	3.8	8.47e-01	0	60	104	428343296	62	28325
2026-01-22 20:22:48.31	112.45	6.31	-45.3	-63.3	3.8	8.47e-01	0	59	104	428343296	62	28325
2026-01-22 20:22:49.32	112.35	6.23	-45.3	-63.3	3.8	8.47e-01	0	59	104	428343296	62	28303
2026-01-22 20:22:50.33	112.26	6.15	-45.3	-63.3	3.8	8.46e-01	0	60	104	428343296	62	28344
2026-01-22 20:22:51.34	112.17	6.07	-45.3	-63.3	3.8	8.46e-01	0	60	104	428343296	62	28312
2026-01-22 20:22:52.35	112.08	5.99	-45.3	-63.3	3.8	8.46e-01	0	60	104	428343296	62	28331
2026-01-22 20:22:53.36	111.98	5.91	-45.2	-63.3	3.8	8.46e-01	0	59	104	428343296	62	28269
2026-01-22 20:22:54.37	111.89	5.83	-45.3	-63.3	3.8	8.46e-01	0	59	104	428343296	62	28334
2026-01-22 20:22:55.38	111.80	5.75	-45.3	-63.3	3.8	8.46e-01	0	60	104	428343296	62	28285
2026-01-22 20:22:56.39	111.71	5.67	-45.3	-63.3	3.8	8.46e-01	0	59	104	428343296	62	28218
2026-01-22 20:22:57.40	111.63	5.59	-45.3	-63.3	3.8	8.46e-01	0	60	104	428343296	62	28242
2026-01-22 20:22:58.41	111.54	5.51	-45.2	-63.4	3.8	8.46e-01	0	60	104	428343296	62	28388
2026-01-22 20:22:59.42	111.45	5.43	-45.3	-63.3	3.8	8.46e-01	0	60	104	428343296	62	28296
2026-01-22 20:23:00.43	111.37	5.36	-45.3	-63.3	3.8	8.46e-01	0	60	104	428343296	62	28256
2026-01-22 20:23:01.44	111.28	5.28	-45.2	-63.3	3.8	8.45e-01	0	60	104	428343296	62	28231
2026-01-22 20:23:02.45	111.19	5.20	-45.2	-63.3	3.8	8.45e-01	0	60	104	428343296	61	29891
2026-01-22 20:23:03.46	111.11	5.12	-45.2	-63.3	3.8	8.47e-01	0	60	104	428343296	61	30004
2026-01-22 20:23:04.47	111.03	5.05	-45.2	-63.3	3.8	8.46e-01	0	60	104	428343296	61	29963
2026-01-22 20:23:05.48	110.94	4.97	-45.2	-63.3	3.8	8.46e-01	0	59	104	428343296	61	29911
2026-01-22 20:23:06.49	110.86	4.89	-45.2	-63.3	3.8	8.47e-01	0	60	104	428343296	61	29881
2026-01-22 20:23:07.50	110.78	4.82	-45.2	-63.3	3.8	8.47e-01	0	60	104	428343296	61	29889
2026-01-22 20:23:08.51	110.70	4.74	-45.2	-63.3	3.8	8.47e-01	0	60	104	428343296	61	29857
2026-01-22 20:23:09.52	110.62	4.67	-45.2	-63.3	3.8	8.47e-01	0	60	104	428343296	61	29725
2026-01-22 20:23:10.53	110.54	4.59	-45.2	-63.3	3.8	8.47e-01	0	60	104	428343296	61	29843
2026-01-22 20:23:11.54	110.46	4.52	-45.2	-63.3	3.8	8.47e-01	0	60	104	428343296	61	29886
2026-01-22 20:23:12.55	110.38	4.44	-45.2	-63.3	3.8	8.47e-01	0	60	104	428343296	61	29848
2026-01-22 20:23:13.56	110.30	4.37	-45.2	-63.3	3.8	8.47e-01	0	60	104	428343296	61	29863
2026-01-22 20:23:14.57	110.22	4.30	-45.2	-63.3	3.8	8.46e-01	0	60	104	428343296	61	29820
2026-01-22 20:23:15.58	110.15	4.22	-45.2	-63.3	3.8	8.46e-01	0	60	104	428343296	61	29744
2026-01-22 20:23:16.59	110.07	4.15	-45.2	-63.3	3.8	8.46e-01	0	59	104	428343296	61	29783
2026-01-22 20:23:17.60	109.99	4.07	-45.2	-63.3	3.8	8.46e-01	0	60	104	428343296	61	29873
2026-01-22 20:23:18.61	109.92	4.00	-45.2	-63.3	3.8	8.46e-01	0	60	104	428343296	61	29815
2026-01-22 20:23:19.63	109.84	3.93	-45.2	-63.3	3.8	8.45e-01	0	60	104	428343296	61	29836
2026-01-22 20:23:20.64	109.77	3.86	-45.2	-63.3	3.8	8.46e-01	0	60	104	428343296	61	29789
2026-01-22 20:23:21.65	109.70	3.78	-45.2	-63.3	3.8	8.47e-01	0	60	104	428343296	61	29813
2026-01-22 20:23:22.66	109.62	3.71	-45.2	-63.3	3.8	8.47e-01	0	60	104	428343296	61	29793
2026-01-22 20:23:23.67	109.55	3.64	-45.2	-63.3	3.8	8.46e-01	0	60	104	428343296	61	29763
2026-01-22 20:23:24.68	109.48	3.57	-45.2	-63.3	3.8	8.46e-01	0	60	104	428343296	61	29817
2026-01-22 20:23:25.69	109.41	3.50	-45.2	-63.3	3.8	8.46e-01	0	60	104	428343296	61	29805
2026-01-22 20:23:26.70	109.33	3.43	-45.2	-63.3	3.8	8.46e-01	0	60	104	428343296	61	29800
2026-01-22 20:23:27.71	109.26	3.36	-45.2	-63.3	3.8	8.46e-01	0	60	104	428343296	61	29778
2026-01-22 20:23:28.72	109.19	3.29	-45.2	-63.3	3.8	8.46e-01	0	60	104	428343296	61	29802
2026-01-22 20:23:29.73	109.12	3.22	-45.2	-63.3	3.8	8.47e-01	0	60	104	428343296	61	29735
2026-01-22 20:23:30.74	109.06	3.15	-45.2	-63.3	3.8	8.46e-01	0	60	104	428343296	61	29786
2026-01-22 20:23:31.75	108.99	3.08	-45.2	-63.3	3.8	8.45e-01	0	60	104	428343296	61	29773
2026-01-22 20:23:32.75	108.92	3.01	-45.2	-63.3	3.8	8.45e-01	0	60	104	428343296	61	29780
2026-01-22 20:23:33.77	108.85	2.94	-45.2	-63.3	3.8	8.47e-01	0	60	104	428343296	61	29758
2026-01-22 20:23:34.78	108.78	2.87	-45.2	-63.3	3.8	8.45e-01	0	60	104	428343296	61	29733
2026-01-22 20:23:35.79	108.72	2.80	-45.2	-63.3	3.8	8.45e-01	0	60	104	428343296	61	29732
2026-01-22 20:23:36.80	108.65	2.73	-45.2	-63.2	3.8	8.46e-01	0	60	104	428343296	61	29658
2026-01-22 20:23:37.81	108.58	2.66	-45.2	-63.3	3.8	8.45e-01	0	60	104	428343296	61	29701
2026-01-22 20:23:38.82	108.52	2.59	-45.2	-63.3	3.8	8.45e-01	0	60	104	428343296	61	29716
2026-01-22 20:23:39.83	108.45	2.53	-45.2	-63.3	3.8	8.47e-01	0	60	104	428343296	61	29776
2026-01-22 20:23:40.84	108.39	2.46	-45.2	-63.3	3.8	8.46e-01	0	60	104	428343296	61	29695
2026-01-22 20:23:41.84	108.33	2.39	-45.2	-63.3	3.8	8.46e-01	0	60	104	428343296	61	29749
2026-01-22 20:23:42.86	108.26	2.32	-45.2	-63.3	3.8	8.46e-01	0	60	104	428343296	61	29741
2026-01-22 20:23:43.87	108.20	2.26	-45.2	-63.2	3.8	8.46e-01	0	60	104	428343296	61	29671
2026-01-22 20:23:44.88	108.14	2.19	-45.2	-63.3	3.8	8.47e-01	0	60	104	428343296	61	29694
2026-01-22 20:23:45.88	108.08	2.12	-45.2	-63.3	3.8	8.47e-01	0	60	104	428343296	61	29740
2026-01-22 20:23:46.89	108.01	2.06	-45.2	-63.3	3.8	8.46e-01	0	60	104	428343296	61	29708
2026-01-22 20:23:47.91	107.95	1.99	-45.2	-63.3	3.8	8.46e-01	0	60	104	428343296	61	29750
2026-01-22 20:23:48.92	107.89	1.93	-45.2	-63.3	3.8	8.46e-01	0	60	104	428343296	61	29711

#Closed at: 2026-01-22 20:23:49
#Recorded file [428 MB]: D:/lorett/data/31039_260122_231438.dat