passes_logs/2026/01/22/R2.0S_Moscow/R2.0S_Moscow__20260122_085428_SUOMI_NPP_rec.log

#Pass ID: 20260122_085428_SUOMI NPP
#Satellite: SUOMI NPP
#Configuration: NPP
#almurnet v.1.7.20251203
#Start time: 2026-01-22 08:54:29

#Version: 2.2.20231116
#Station: R2.0S_Moscow
#Location: 37.707566 lon 55.798166 lat
#TLE: 1 37849U 11061A   26021.51818991  .00000201  00000+0  11636-3 0  9995
#TLE: 2 37849  98.7819 323.5108 0002300  52.3548 307.7836 14.19527793737637

#Time	Az	El	Level	Level2	SNR	BER	BlckErr	Temp	State	Recorded	gain1	gain2
2026-01-22 08:54:29.05	128.79	2.06	-33.2	-48.1	4.1	1.51e+00	0	51	0	0	34	24505
2026-01-22 08:54:30.05	128.75	2.12	-29.0	-45.3	3.9	1.51e+00	0	51	104	0	29	23714
2026-01-22 08:54:31.06	128.70	2.18	-25.3	-46.3	4.1	1.51e+00	0	51	104	0	30	25036
2026-01-22 08:54:32.07	128.65	2.24	-30.4	-47.6	4.1	1.51e+00	0	51	104	0	30	29238
2026-01-22 08:54:33.08	128.61	2.30	-29.9	-44.9	4.0	1.51e+00	0	51	104	0	27	25279
2026-01-22 08:54:34.09	128.56	2.36	-27.4	-45.7	3.8	1.51e+00	0	51	104	0	26	29630
2026-01-22 08:54:35.10	128.52	2.43	-33.6	-51.2	4.3	1.51e+00	0	51	104	0	39	26451
2026-01-22 08:54:36.11	128.47	2.49	-22.3	-38.7	4.0	1.51e+00	0	51	104	0	23	15691
2026-01-22 08:54:37.12	128.42	2.55	-31.2	-48.4	3.9	1.51e+00	0	51	104	0	33	26898
2026-01-22 08:54:38.13	128.38	2.61	-28.4	-44.9	3.6	1.51e+00	0	51	104	0	25	28395
2026-01-22 08:54:39.14	128.33	2.68	-21.1	-40.8	3.9	1.51e+00	0	51	104	0	25	17717
2026-01-22 08:54:40.15	128.28	2.74	-31.3	-45.4	4.1	1.51e+00	0	51	104	0	26	28606
2026-01-22 08:54:41.16	128.24	2.80	-23.6	-39.3	3.8	1.51e+00	0	52	104	0	15	26554
2026-01-22 08:54:42.17	128.19	2.87	-29.9	-48.6	4.0	1.51e+00	0	51	104	0	27	39058
2026-01-22 08:54:43.19	128.14	2.93	-24.4	-40.5	3.7	1.51e+00	0	51	104	0	19	24405
2026-01-22 08:54:44.20	128.09	2.99	-27.4	-42.5	3.8	1.51e+00	0	52	104	0	17	34335
2026-01-22 08:54:45.21	128.04	3.06	-27.5	-44.8	3.9	1.51e+00	0	52	104	0	23	31767
2026-01-22 08:54:46.22	128.00	3.12	-25.1	-40.2	4.1	1.51e+00	0	52	104	0	23	18707
2026-01-22 08:54:47.23	127.95	3.18	-25.7	-44.9	3.7	1.51e+00	0	52	104	0	28	23967
2026-01-22 08:54:48.24	127.90	3.25	-30.6	-47.6	3.9	1.51e+00	0	52	104	0	28	32611
2026-01-22 08:54:49.25	127.85	3.31	-29.8	-45.8	3.8	1.51e+00	0	52	104	0	28	26501
2026-01-22 08:54:50.26	127.80	3.38	-33.2	-48.8	3.9	1.51e+00	0	52	104	0	27	39798
2026-01-22 08:54:51.27	127.75	3.44	-34.6	-49.7	4.1	1.51e+00	0	52	104	0	28	41718
2026-01-22 08:54:52.28	127.70	3.51	-28.9	-45.9	3.7	1.51e+00	0	52	104	0	26	30261
2026-01-22 08:54:53.29	127.65	3.57	-27.7	-45.3	3.6	1.50e+00	0	52	104	0	27	26540
2026-01-22 08:54:54.30	127.60	3.63	-23.2	-41.7	4.3	1.51e+00	0	52	104	0	27	17501
2026-01-22 08:54:55.31	127.55	3.70	-30.8	-49.6	3.9	1.51e+00	0	52	104	0	32	32785
2026-01-22 08:54:56.32	127.50	3.76	-30.6	-48.5	3.9	1.51e+00	0	53	104	0	28	36290
2026-01-22 08:54:57.33	127.45	3.83	-28.0	-47.0	4.2	1.51e+00	0	52	104	0	30	27298
2026-01-22 08:54:58.35	127.40	3.90	-29.6	-41.1	4.6	1.51e+00	0	53	104	0	31	13016
2026-01-22 08:54:59.36	127.35	3.96	-28.7	-45.3	3.9	1.51e+00	0	53	104	0	28	25109
2026-01-22 08:55:00.37	127.29	4.03	-31.6	-44.6	3.6	1.50e+00	0	53	104	0	25	27435
2026-01-22 08:55:01.38	127.24	4.09	-32.4	-50.4	4.1	1.51e+00	0	53	104	0	34	32025
2026-01-22 08:55:02.39	127.19	4.16	-30.9	-47.4	4.0	1.51e+00	0	53	104	0	34	22769
2026-01-22 08:55:03.40	127.14	4.22	-24.9	-45.6	3.9	1.51e+00	0	53	104	0	30	23048
2026-01-22 08:55:04.41	127.08	4.29	-30.3	-46.5	4.0	1.51e+00	0	53	104	0	30	25782
2026-01-22 08:55:05.42	127.03	4.36	-29.4	-47.6	4.2	1.51e+00	0	53	104	0	35	21789
2026-01-22 08:55:06.43	126.98	4.42	-28.1	-46.3	3.9	1.51e+00	0	53	104	0	29	26507
2026-01-22 08:55:07.44	126.93	4.49	-31.0	-47.8	4.0	1.51e+00	0	53	104	0	31	28333
2026-01-22 08:55:08.45	126.87	4.55	-29.4	-43.1	4.0	1.51e+00	0	53	104	0	32	15438
2026-01-22 08:55:09.46	126.82	4.62	-29.0	-43.7	3.7	1.51e+00	0	53	104	0	25	24957
2026-01-22 08:55:10.47	126.76	4.69	-29.1	-44.0	3.8	1.51e+00	0	53	104	0	25	25584
2026-01-22 08:55:11.48	126.71	4.76	-24.5	-43.6	3.8	1.51e+00	0	53	104	0	20	32789
2026-01-22 08:55:12.49	126.65	4.82	-30.9	-44.6	4.5	1.51e+00	0	54	104	0	30	20611
2026-01-22 08:55:13.50	126.60	4.89	-30.1	-47.5	4.0	1.51e+00	0	53	104	0	37	19181
2026-01-22 08:55:14.51	126.54	4.96	-26.4	-43.9	3.7	1.51e+00	0	53	104	0	29	20154
2026-01-22 08:55:15.52	126.49	5.02	-30.2	-44.1	3.7	1.51e+00	0	54	104	0	25	26060
2026-01-22 08:55:16.53	126.43	5.09	-24.9	-38.9	4.0	1.50e+00	0	54	104	0	24	15071
2026-01-22 08:55:17.54	126.38	5.16	-28.2	-42.2	3.7	1.51e+00	0	54	104	0	25	20939
2026-01-22 08:55:18.55	126.32	5.23	-19.4	-39.2	3.5	1.51e+00	0	54	104	0	14	27801
2026-01-22 08:55:19.57	126.26	5.30	-27.1	-41.5	3.9	1.51e+00	0	54	104	0	23	21699
2026-01-22 08:55:20.58	126.21	5.37	-27.0	-42.1	3.9	1.51e+00	0	54	0	0	25	20584
2026-01-22 08:55:21.59	126.15	5.43	-25.4	-39.3	3.9	1.51e+00	0	54	104	0	19	21051
2026-01-22 08:55:22.60	126.09	5.50	-25.5	-40.5	3.7	1.51e+00	0	54	104	0	19	24136
2026-01-22 08:55:23.61	126.04	5.57	-28.0	-45.3	3.8	1.50e+00	0	54	104	0	28	25175
2026-01-22 08:55:24.62	125.98	5.64	-26.4	-43.8	4.0	1.51e+00	0	54	104	0	28	21218
2026-01-22 08:55:25.63	125.92	5.71	-25.1	-42.2	3.9	1.51e+00	0	54	104	0	22	24812
2026-01-22 08:55:26.64	125.86	5.78	-23.6	-38.0	3.8	1.50e+00	0	54	104	0	19	18285
2026-01-22 08:55:27.65	125.80	5.85	-23.8	-42.1	3.9	1.51e+00	0	54	104	0	26	19520
2026-01-22 08:55:28.66	125.74	5.92	-32.3	-44.0	3.8	1.51e+00	0	54	104	0	26	24298
2026-01-22 08:55:29.67	125.68	5.99	-28.4	-44.4	3.8	1.51e+00	0	54	104	0	25	26966
2026-01-22 08:55:30.68	125.62	6.06	-29.1	-44.8	3.9	1.51e+00	0	54	104	0	26	26707
2026-01-22 08:55:31.69	125.56	6.13	-29.2	-43.4	3.7	1.51e+00	0	54	104	0	25	23919
2026-01-22 08:55:32.70	125.50	6.20	-29.2	-43.7	3.7	1.51e+00	0	54	0	0	22	29501
2026-01-22 08:55:33.71	125.44	6.27	-21.0	-36.4	3.8	1.50e+00	0	54	104	0	12	22633
2026-01-22 08:55:34.72	125.38	6.34	-26.4	-40.4	3.9	1.51e+00	0	54	104	0	16	28572
2026-01-22 08:55:35.73	125.32	6.41	-26.1	-40.4	3.5	1.51e+00	0	54	104	0	20	22740
2026-01-22 08:55:36.74	125.26	6.48	-28.5	-40.8	3.9	1.51e+00	0	54	104	0	20	23673
2026-01-22 08:55:37.75	125.20	6.55	-25.5	-41.7	3.8	1.51e+00	0	55	104	0	21	24850
2026-01-22 08:55:38.76	125.13	6.62	-23.5	-41.7	3.8	1.51e+00	0	55	104	0	21	24810
2026-01-22 08:55:39.77	125.07	6.69	-22.4	-36.6	3.8	1.51e+00	0	55	104	0	18	16345
2026-01-22 08:55:40.78	125.01	6.76	-22.8	-38.8	3.8	1.50e+00	0	55	104	0	17	22512
2026-01-22 08:55:41.79	124.95	6.84	-31.5	-45.3	3.9	1.50e+00	0	55	104	0	27	26762
2026-01-22 08:55:42.80	124.88	6.91	-29.6	-45.4	3.8	1.50e+00	0	54	104	0	19	42507
2026-01-22 08:55:43.81	124.82	6.98	-24.7	-43.8	4.0	1.51e+00	0	55	104	0	24	26606
2026-01-22 08:55:44.82	124.76	7.05	-24.3	-42.6	3.7	1.51e+00	0	55	104	0	24	23125
2026-01-22 08:55:45.83	124.69	7.12	-27.3	-43.8	3.9	1.51e+00	0	55	104	0	27	22415
2026-01-22 08:55:46.84	124.63	7.20	-23.5	-36.7	3.5	1.51e+00	0	55	104	0	18	16642
2026-01-22 08:55:47.85	124.56	7.27	-31.0	-47.2	4.0	1.51e+00	0	55	104	0	29	29481
2026-01-22 08:55:48.86	124.50	7.34	-28.5	-46.0	4.1	1.51e+00	0	55	104	0	28	27118
2026-01-22 08:55:49.87	124.43	7.42	-29.1	-44.3	3.9	1.51e+00	0	55	104	0	30	19913
2026-01-22 08:55:50.88	124.36	7.49	-25.0	-38.1	3.8	1.50e+00	0	55	104	0	18	19394
2026-01-22 08:55:51.89	124.30	7.56	-29.1	-48.0	4.1	1.51e+00	0	55	104	0	29	32535
2026-01-22 08:55:52.90	124.23	7.64	-25.5	-43.3	4.0	1.51e+00	0	55	104	0	25	23699
2026-01-22 08:55:53.91	124.16	7.71	-26.9	-42.9	4.0	1.51e+00	0	55	104	0	24	24130
2026-01-22 08:55:54.92	124.10	7.78	-24.8	-40.0	4.0	1.50e+00	0	55	104	0	17	25693
2026-01-22 08:55:55.93	124.03	7.86	-26.5	-42.9	4.0	1.50e+00	0	55	104	0	26	21485
2026-01-22 08:55:56.94	123.96	7.93	-23.4	-39.9	3.9	1.50e+00	0	55	104	0	22	19128
2026-01-22 08:55:57.96	123.89	8.01	-28.5	-44.3	4.6	1.49e+00	0	55	104	0	28	22322
2026-01-22 08:55:58.96	123.82	8.08	-35.2	-51.0	4.3	1.51e+00	0	55	104	0	41	22922
2026-01-22 08:55:59.97	123.75	8.16	-24.0	-36.8	3.9	1.51e+00	0	55	104	0	28	9465
2026-01-22 08:56:00.98	123.68	8.23	-25.5	-39.1	4.0	1.50e+00	0	55	0	0	22	17357
2026-01-22 08:56:01.99	123.61	8.31	-27.2	-42.7	3.7	1.50e+00	0	56	104	0	27	19773
2026-01-22 08:56:03.00	123.54	8.38	-23.5	-37.4	3.8	1.49e+00	0	55	104	0	17	19156
2026-01-22 08:56:04.01	123.47	8.46	-21.1	-38.0	3.7	1.50e+00	0	56	104	0	20	17154
2026-01-22 08:56:05.02	123.40	8.53	-21.6	-34.2	3.9	1.51e+00	0	56	104	0	20	11122
2026-01-22 08:56:06.03	123.33	8.61	-27.5	-43.5	4.0	1.51e+00	0	56	104	0	29	19340
2026-01-22 08:56:07.04	123.26	8.68	-25.8	-43.6	4.0	1.51e+00	0	56	104	0	27	21907
2026-01-22 08:56:08.05	123.19	8.76	-27.2	-43.0	3.9	1.51e+00	0	56	104	0	26	21580
2026-01-22 08:56:09.05	123.11	8.84	-25.2	-40.5	3.8	1.50e+00	0	56	104	0	23	19376
2026-01-22 08:56:10.06	123.04	8.91	-25.7	-41.2	3.7	1.51e+00	0	55	104	0	23	20897
2026-01-22 08:56:11.07	122.97	8.99	-34.3	-46.3	3.9	1.50e+00	0	56	104	0	32	22458
2026-01-22 08:56:12.08	122.89	9.07	-29.2	-44.2	3.8	1.49e+00	0	56	104	0	23	29635
2026-01-22 08:56:13.09	122.82	9.14	-32.0	-46.1	3.7	1.51e+00	0	56	104	0	28	27468
2026-01-22 08:56:14.10	122.74	9.22	-30.5	-44.2	3.8	1.51e+00	0	56	104	0	27	23420
2026-01-22 08:56:15.11	122.67	9.30	-25.0	-43.6	4.6	1.43e+00	0	56	104	0	35	13879
2026-01-22 08:56:16.12	122.59	9.38	-27.4	-42.9	4.0	1.48e+00	0	56	104	0	24	23932
2026-01-22 08:56:17.13	122.52	9.46	-28.4	-43.4	4.2	1.49e+00	0	56	104	0	29	19072
2026-01-22 08:56:18.14	122.44	9.53	-22.2	-37.7	3.9	1.50e+00	0	56	104	0	21	15626
2026-01-22 08:56:19.15	122.36	9.61	-24.9	-41.0	3.5	1.50e+00	0	56	104	0	21	22831
2026-01-22 08:56:20.16	122.29	9.69	-23.8	-39.1	3.9	1.50e+00	0	56	104	0	24	15488
2026-01-22 08:56:21.17	122.21	9.77	-29.2	-43.4	4.1	1.51e+00	0	56	104	0	29	19098
2026-01-22 08:56:22.18	122.13	9.85	-27.9	-42.7	3.9	1.50e+00	0	56	104	0	28	18590
2026-01-22 08:56:23.19	122.05	9.93	-30.3	-45.0	4.3	1.50e+00	0	56	104	0	30	21560
2026-01-22 08:56:24.20	121.97	10.01	-29.7	-44.6	3.7	1.50e+00	0	56	104	0	31	19526
2026-01-22 08:56:25.21	121.89	10.09	-34.5	-47.7	3.7	1.47e+00	0	56	0	0	31	27908
2026-01-22 08:56:26.22	121.81	10.17	-24.6	-41.1	3.6	1.50e+00	0	57	104	0	25	18485
2026-01-22 08:56:27.22	121.73	10.25	-31.7	-46.3	3.8	1.48e+00	0	56	104	0	26	31680
2026-01-22 08:56:28.23	121.65	10.33	-22.8	-41.7	4.1	1.47e+00	0	56	104	0	30	14721
2026-01-22 08:56:29.24	121.57	10.41	-31.5	-46.4	4.2	1.50e+00	0	56	104	0	32	22768
2026-01-22 08:56:30.25	121.49	10.49	-36.9	-51.7	4.2	1.50e+00	0	56	104	0	38	29605
2026-01-22 08:56:31.26	121.41	10.57	-31.3	-47.0	3.8	1.50e+00	0	56	104	0	29	28993
2026-01-22 08:56:32.27	121.33	10.65	-27.5	-47.3	4.4	1.51e+00	0	56	104	0	35	21191
2026-01-22 08:56:33.28	121.24	10.73	-24.9	-42.2	4.0	1.49e+00	0	56	104	0	28	17531
2026-01-22 08:56:34.29	121.16	10.81	-27.7	-46.1	3.5	1.49e+00	0	56	104	0	27	29141
2026-01-22 08:56:35.30	121.08	10.89	-31.5	-49.5	4.4	1.49e+00	0	57	104	0	36	25572
2026-01-22 08:56:36.31	120.99	10.97	-28.4	-44.1	4.9	8.17e-01	0	56	0	0	38	12340
2026-01-22 08:56:37.32	120.91	11.06	-35.0	-48.3	5.5	9.57e-01	0	57	0	1048576	41	16801
2026-01-22 08:56:38.33	120.82	11.14	-31.6	-44.5	4.2	1.46e+00	0	56	104	1048576	32	18244
2026-01-22 08:56:39.34	120.73	11.22	-24.5	-41.5	3.9	1.47e+00	0	57	104	1048576	28	16182
2026-01-22 08:56:40.34	120.65	11.30	-19.5	-36.3	3.7	1.48e+00	0	56	104	1048576	14	19883
2026-01-22 08:56:41.35	120.56	11.39	-33.7	-50.2	4.1	1.50e+00	0	57	104	1048576	40	22257
2026-01-22 08:56:42.37	120.47	11.47	-38.9	-49.5	4.5	1.49e+00	0	57	104	1048576	47	13642
2026-01-22 08:56:43.38	120.39	11.55	-35.3	-50.6	4.5	1.49e+00	0	57	104	1048576	46	16372
2026-01-22 08:56:44.39	120.30	11.64	-36.5	-48.8	4.6	1.44e+00	0	57	104	1048576	43	15786
2026-01-22 08:56:45.39	120.21	11.72	-34.7	-49.4	4.6	1.07e+00	0	57	104	1048576	37	24096
2026-01-22 08:56:46.40	120.12	11.80	-34.3	-49.6	4.4	1.47e+00	0	57	104	1048576	39	21861
2026-01-22 08:56:47.41	120.03	11.89	-33.8	-48.6	4.3	1.48e+00	0	57	104	1048576	39	19399
2026-01-22 08:56:48.42	119.94	11.97	-34.7	-50.0	4.4	1.47e+00	0	57	104	1048576	42	19389
2026-01-22 08:56:49.43	119.85	12.06	-30.5	-48.4	4.3	1.49e+00	0	57	104	1048576	41	17067
2026-01-22 08:56:50.44	119.76	12.14	-30.9	-44.9	4.3	1.47e+00	0	57	104	1048576	39	12722
2026-01-22 08:56:51.45	119.66	12.23	-37.8	-51.9	4.5	1.50e+00	0	57	104	1048576	43	22596
2026-01-22 08:56:52.46	119.57	12.31	-34.6	-47.0	4.9	1.46e+00	0	57	104	1048576	41	14436
2026-01-22 08:56:53.47	119.48	12.40	-39.6	-49.4	4.4	1.49e+00	0	57	104	1048576	47	13539
2026-01-22 08:56:54.48	119.38	12.48	-38.9	-46.7	7.0	1.40e+00	0	57	104	1048576	44	11808
2026-01-22 08:56:55.49	119.29	12.57	-34.9	-45.0	6.4	6.07e-01	0	57	0	2097152	42	10830
2026-01-22 08:56:56.50	119.19	12.66	-24.5	-43.2	5.1	5.72e-01	0	57	0	3145728	32	15586
2026-01-22 08:56:57.51	119.10	12.74	-36.4	-45.6	9.0	5.81e-01	0	57	0	5242880	46	9190
2026-01-22 08:56:58.53	119.00	12.83	-26.0	-43.8	6.2	4.43e-01	0	57	0	7340032	32	16844
2026-01-22 08:56:59.54	118.90	12.92	-32.2	-45.8	7.1	8.51e-01	0	57	0	7340032	41	12585
2026-01-22 08:57:00.55	118.81	13.01	-33.7	-46.3	5.6	5.65e-01	0	57	0	9437184	36	17861
2026-01-22 08:57:01.56	118.71	13.09	-31.0	-43.9	5.7	6.69e-01	0	57	0	10485760	34	15182
2026-01-22 08:57:02.57	118.61	13.18	-34.2	-46.3	6.5	3.05e-01	0	57	0	12582912	41	13269
2026-01-22 08:57:03.58	118.51	13.27	-33.6	-46.3	8.2	3.03e-01	0	57	0	13631488	41	13321
2026-01-22 08:57:04.59	118.41	13.36	-34.5	-45.4	7.4	3.93e-01	0	57	0	15728640	41	12011
2026-01-22 08:57:05.60	118.31	13.44	-33.5	-44.4	7.2	3.25e-01	0	57	0	17825792	38	12810
2026-01-22 08:57:06.61	118.21	13.53	-32.8	-45.5	8.0	2.31e-01	0	57	0	19922944	38	14511
2026-01-22 08:57:07.62	118.11	13.62	-32.1	-46.0	7.7	3.70e-01	0	57	0	20971520	37	16305
2026-01-22 08:57:08.62	118.01	13.71	-30.7	-45.3	7.4	4.83e-01	0	57	0	23068672	37	14914
2026-01-22 08:57:09.63	117.90	13.80	-32.4	-45.6	7.4	5.73e-01	0	57	0	25165824	38	14597
2026-01-22 08:57:10.64	117.80	13.89	-33.6	-46.5	8.2	5.87e-01	0	57	0	25165824	42	12836
2026-01-22 08:57:11.65	117.70	13.98	-35.0	-46.3	8.5	2.13e-01	0	57	0	27262976	45	10534
2026-01-22 08:57:12.66	117.59	14.07	-38.2	-46.5	8.4	1.33e-01	0	58	0	29360128	46	10265
2026-01-22 08:57:13.67	117.49	14.16	-39.0	-46.1	7.1	1.24e-01	0	57	0	30408704	41	13038
2026-01-22 08:57:14.68	117.38	14.25	-31.9	-45.3	6.4	6.26e-01	0	57	0	32505856	43	10539
2026-01-22 08:57:15.69	117.27	14.34	-38.7	-47.0	8.8	6.99e-02	0	57	0	34603008	50	8650
2026-01-22 08:57:16.70	117.17	14.43	-35.8	-46.6	5.9	2.51e-01	0	57	0	35651584	42	12989
2026-01-22 08:57:17.70	117.06	14.52	-39.2	-46.9	8.3	6.25e-02	0	58	0	37748736	45	11363
2026-01-22 08:57:18.71	116.95	14.61	-36.9	-46.2	6.9	1.02e-01	0	57	0	39845888	44	11036
2026-01-22 08:57:19.72	116.84	14.70	-40.6	-46.6	9.6	3.79e-02	0	57	0	41943040	52	7349
2026-01-22 08:57:20.73	116.73	14.80	-40.8	-46.3	10.3	5.59e-02	0	57	0	44040192	53	6699
2026-01-22 08:57:21.74	116.62	14.89	-41.0	-46.3	9.9	4.37e-02	0	57	0	45088768	52	7069
2026-01-22 08:57:22.75	116.51	14.98	-39.1	-46.0	8.8	2.89e-02	0	58	0	47185920	49	8169
2026-01-22 08:57:23.76	116.40	15.07	-38.9	-46.2	10.4	1.73e-02	0	58	0	49283072	52	7010
2026-01-22 08:57:24.77	116.28	15.17	-40.9	-46.7	10.2	1.66e-02	0	58	0	51380224	53	7020
2026-01-22 08:57:25.78	116.17	15.26	-41.3	-46.8	10.0	1.93e-02	0	58	0	53477376	53	7047
2026-01-22 08:57:26.79	116.06	15.35	-40.8	-46.6	10.0	1.91e-02	0	58	0	55574528	53	6946
2026-01-22 08:57:27.80	115.94	15.45	-40.8	-46.3	10.9	1.95e-02	0	57	0	56623104	53	6662
2026-01-22 08:57:28.81	115.82	15.54	-40.6	-46.4	10.3	7.56e-03	0	58	0	58720256	53	6728
2026-01-22 08:57:29.82	115.71	15.63	-41.1	-46.1	11.1	1.56e-02	0	58	0	60817408	53	6520
2026-01-22 08:57:30.83	115.59	15.73	-41.6	-46.2	10.9	4.73e-03	0	58	0	62914560	53	6594
2026-01-22 08:57:31.84	115.47	15.82	-40.7	-46.5	10.5	1.91e-02	0	58	0	65011712	53	6820
2026-01-22 08:57:32.84	115.36	15.92	-41.3	-46.5	10.7	1.11e-02	0	58	0	66060288	53	6805
2026-01-22 08:57:33.85	115.24	16.01	-40.5	-46.7	9.3	3.45e-02	0	58	0	68157440	49	8778
2026-01-22 08:57:34.86	115.12	16.11	-41.3	-46.4	11.0	7.42e-03	0	58	0	70254592	54	6403
2026-01-22 08:57:35.87	114.99	16.20	-40.5	-46.2	10.8	4.05e-03	0	58	0	72351744	52	7040
2026-01-22 08:57:36.88	114.87	16.30	-41.1	-46.3	11.0	1.29e-02	0	58	0	74448896	53	6682
2026-01-22 08:57:37.90	114.75	16.39	-41.7	-46.5	11.0	7.14e-03	0	58	0	75497472	54	6443
2026-01-22 08:57:38.90	114.63	16.49	-41.9	-46.6	10.7	8.52e-03	0	58	0	77594624	54	6515
2026-01-22 08:57:39.91	114.50	16.59	-41.8	-46.5	10.9	1.10e-02	0	58	0	79691776	53	6856
2026-01-22 08:57:40.92	114.38	16.68	-40.8	-46.2	10.7	3.21e-02	0	58	0	81788928	53	6571
2026-01-22 08:57:41.93	114.25	16.78	-39.5	-46.1	11.2	4.42e-03	0	58	0	83886080	53	6503
2026-01-22 08:57:42.94	114.12	16.88	-41.1	-45.9	11.1	2.32e-03	0	58	0	84934656	52	6785
2026-01-22 08:57:43.95	114.00	16.97	-40.9	-45.9	11.6	4.64e-03	0	58	0	87031808	53	6361
2026-01-22 08:57:44.96	113.87	17.07	-41.6	-46.2	11.3	2.05e-03	0	58	0	89128960	54	6233
2026-01-22 08:57:45.97	113.74	17.17	-41.8	-46.3	11.4	3.37e-03	0	58	0	91226112	54	6335
2026-01-22 08:57:46.98	113.61	17.27	-41.8	-46.2	11.6	1.34e-03	0	58	0	93323264	54	6244
2026-01-22 08:57:47.99	113.48	17.37	-41.9	-46.1	11.6	1.71e-03	0	58	0	94371840	54	6197
2026-01-22 08:57:49.00	113.34	17.47	-41.6	-45.7	12.0	5.94e-04	0	58	0	96468992	54	5921
2026-01-22 08:57:50.01	113.21	17.56	-41.8	-45.7	12.1	3.83e-04	0	58	0	98566144	54	5904
2026-01-22 08:57:51.02	113.08	17.66	-41.7	-45.8	12.1	2.85e-04	0	58	0	100663296	54	5938
2026-01-22 08:57:52.03	112.94	17.76	-41.9	-46.1	11.7	1.01e-03	0	58	0	102760448	54	6135
2026-01-22 08:57:53.03	112.81	17.86	-42.3	-46.9	10.9	1.44e-03	0	58	0	103809024	55	6394
2026-01-22 08:57:54.04	112.67	17.96	-42.5	-47.3	10.4	2.60e-03	0	58	0	105906176	55	6703
2026-01-22 08:57:55.05	112.54	18.06	-42.4	-47.5	10.1	5.52e-03	0	58	0	108003328	55	6830
2026-01-22 08:57:56.06	112.40	18.16	-42.6	-47.7	10.0	6.87e-03	0	58	0	110100480	55	6969
2026-01-22 08:57:57.07	112.26	18.26	-42.2	-47.0	10.5	1.06e-02	0	58	0	112197632	54	6877
2026-01-22 08:57:58.08	112.12	18.36	-42.2	-46.8	10.9	3.15e-03	0	58	0	113246208	55	6328
2026-01-22 08:57:59.09	111.98	18.46	-40.8	-46.9	10.8	2.59e-03	0	58	0	115343360	55	6398
2026-01-22 08:58:00.10	111.83	18.57	-42.3	-47.1	10.7	3.63e-03	0	58	0	117440512	55	6541
2026-01-22 08:58:01.11	111.69	18.67	-42.5	-47.7	10.2	6.76e-03	0	58	0	119537664	55	6997
2026-01-22 08:58:02.12	111.55	18.77	-42.7	-48.0	9.9	7.69e-03	0	58	0	121634816	55	7235
2026-01-22 08:58:03.13	111.40	18.87	-42.4	-47.6	10.2	7.93e-03	0	58	0	123731968	55	6958
2026-01-22 08:58:04.14	111.26	18.97	-42.4	-47.2	10.6	6.45e-03	0	58	0	124780544	55	6591
2026-01-22 08:58:05.15	111.11	19.08	-42.1	-46.7	11.2	1.68e-03	0	58	0	126877696	55	6209
2026-01-22 08:58:06.16	110.96	19.18	-42.1	-46.3	11.6	1.18e-03	0	58	0	128974848	54	6339
2026-01-22 08:58:07.17	110.81	19.28	-42.1	-46.5	11.3	1.17e-03	0	58	0	131072000	54	6477
2026-01-22 08:58:08.18	110.66	19.38	-42.3	-46.8	11.2	1.41e-03	0	58	0	133169152	55	6299
2026-01-22 08:58:09.19	110.51	19.49	-42.3	-46.6	11.3	1.24e-03	0	58	0	134217728	55	6179
2026-01-22 08:58:10.20	110.36	19.59	-42.3	-46.8	11.2	1.07e-03	0	58	0	136314880	55	6311
2026-01-22 08:58:11.21	110.21	19.69	-42.4	-46.9	11.1	1.48e-03	0	58	0	138412032	55	6349
2026-01-22 08:58:12.22	110.05	19.80	-42.3	-46.7	11.3	1.40e-03	0	58	0	140509184	55	6247
2026-01-22 08:58:13.23	109.90	19.90	-42.4	-47.0	10.9	1.25e-03	0	58	0	142606336	55	6491
2026-01-22 08:58:14.24	109.74	20.01	-42.3	-46.6	11.3	1.26e-03	0	58	0	143654912	55	6202
2026-01-22 08:58:15.25	109.58	20.11	-42.1	-46.3	11.7	9.73e-04	0	58	0	145752064	55	5983
2026-01-22 08:58:16.26	109.43	20.22	-42.2	-46.4	11.6	9.20e-04	0	58	0	147849216	55	6033
2026-01-22 08:58:17.27	109.27	20.32	-42.2	-46.5	11.5	7.97e-04	0	58	0	149946368	55	6062
2026-01-22 08:58:18.27	109.11	20.43	-42.4	-47.1	10.9	1.39e-03	0	59	0	152043520	55	6528
2026-01-22 08:58:19.28	108.95	20.53	-42.4	-47.1	10.9	2.53e-03	0	59	0	153092096	55	6495
2026-01-22 08:58:20.29	108.78	20.64	-42.4	-47.0	11.0	2.13e-03	0	58	0	155189248	55	6454
2026-01-22 08:58:21.30	108.62	20.74	-42.3	-46.7	11.3	1.54e-03	0	58	0	157286400	55	6260
2026-01-22 08:58:22.31	108.45	20.85	-42.3	-46.7	11.4	1.01e-03	0	58	0	159383552	55	6231
2026-01-22 08:58:23.32	108.29	20.95	-42.2	-46.5	11.5	8.89e-04	0	58	0	161480704	55	6099
2026-01-22 08:58:24.33	108.12	21.06	-42.3	-46.7	11.3	9.38e-04	0	59	0	162529280	55	6238
2026-01-22 08:58:25.35	107.95	21.17	-42.4	-46.8	11.2	1.02e-03	0	58	0	164626432	55	6337
2026-01-22 08:58:26.35	107.78	21.27	-42.6	-47.3	10.7	1.74e-03	0	58	0	166723584	55	6673
2026-01-22 08:58:27.37	107.61	21.38	-42.5	-47.1	11.0	2.16e-03	0	58	0	168820736	55	6506
2026-01-22 08:58:28.38	107.44	21.49	-42.5	-47.0	10.9	2.04e-03	0	58	0	170917888	55	6489
2026-01-22 08:58:29.38	107.26	21.60	-42.4	-46.8	11.3	1.79e-03	0	58	0	171966464	55	6286
2026-01-22 08:58:30.39	107.09	21.70	-42.3	-46.7	11.4	8.14e-04	0	58	0	174063616	55	6221
2026-01-22 08:58:31.41	106.91	21.81	-42.4	-46.9	11.1	1.18e-03	0	58	0	176160768	55	6375
2026-01-22 08:58:32.42	106.73	21.92	-42.6	-47.5	10.5	2.73e-03	0	58	0	178257920	55	6836
2026-01-22 08:58:33.42	106.56	22.03	-42.7	-47.7	10.3	4.90e-03	0	59	0	180355072	55	6979
2026-01-22 08:58:34.43	106.38	22.13	-43.0	-48.3	9.8	5.74e-03	0	59	0	181403648	56	7092
2026-01-22 08:58:35.44	106.20	22.24	-42.8	-47.6	10.6	3.51e-03	0	58	0	183500800	56	6496
2026-01-22 08:58:36.45	106.02	22.35	-42.8	-47.5	10.7	3.35e-03	0	58	0	185597952	56	6445
2026-01-22 08:58:37.46	105.83	22.46	-42.9	-47.9	10.2	6.12e-03	0	58	0	187695104	56	6790
2026-01-22 08:58:38.47	105.65	22.57	-43.0	-48.1	10.0	6.92e-03	0	58	0	189792256	56	6944
2026-01-22 08:58:39.48	105.46	22.68	-43.1	-48.3	9.8	8.07e-03	0	58	0	191889408	56	7092
2026-01-22 08:58:40.49	105.27	22.79	-43.0	-48.2	10.0	8.22e-03	0	58	0	192937984	57	6611
2026-01-22 08:58:41.50	105.09	22.89	-42.9	-47.9	10.2	6.86e-03	0	59	0	195035136	57	6405
2026-01-22 08:58:42.50	104.90	23.00	-42.9	-47.8	10.3	4.40e-03	0	58	0	197132288	57	6310
2026-01-22 08:58:43.51	104.71	23.11	-42.7	-47.6	10.6	4.61e-03	0	58	0	199229440	57	6132
2026-01-22 08:58:44.52	104.51	23.22	-42.8	-47.4	10.8	2.86e-03	0	58	0	201326592	57	6059
2026-01-22 08:58:45.53	104.32	23.33	-42.7	-47.3	11.0	2.84e-03	0	58	0	202375168	57	5942
2026-01-22 08:58:46.54	104.12	23.44	-42.6	-47.1	11.2	2.14e-03	0	58	0	204472320	57	5797
2026-01-22 08:58:47.55	103.93	23.55	-42.4	-46.6	11.8	8.85e-04	0	59	0	206569472	56	5828
2026-01-22 08:58:48.56	103.73	23.66	-42.5	-46.9	11.4	7.74e-04	0	58	0	208666624	56	6001
2026-01-22 08:58:49.57	103.53	23.77	-42.5	-46.7	11.5	7.29e-04	0	59	0	210763776	56	5921
2026-01-22 08:58:50.58	103.33	23.88	-42.5	-46.7	11.6	8.66e-04	0	59	0	211812352	56	5884
2026-01-22 08:58:51.59	103.13	23.99	-42.5	-46.7	11.6	9.96e-04	0	59	0	213909504	56	5886
2026-01-22 08:58:52.60	102.92	24.10	-42.4	-46.5	11.8	6.39e-04	0	59	0	216006656	56	5766
2026-01-22 08:58:53.60	102.72	24.21	-42.3	-46.3	12.0	3.59e-04	0	59	0	218103808	56	5621
2026-01-22 08:58:54.61	102.51	24.32	-42.4	-46.5	11.9	3.52e-04	0	59	0	220200960	56	5726
2026-01-22 08:58:55.62	102.30	24.43	-42.7	-47.2	11.1	7.09e-04	0	59	0	221249536	56	6260
2026-01-22 08:58:56.63	102.09	24.54	-42.8	-47.5	10.8	1.91e-03	0	59	0	223346688	56	6437
2026-01-22 08:58:57.64	101.88	24.65	-42.8	-47.4	10.9	2.29e-03	0	59	0	225443840	56	6355
2026-01-22 08:58:58.65	101.67	24.76	-42.5	-46.7	11.6	1.80e-03	0	59	0	227540992	56	5916
2026-01-22 08:58:59.66	101.45	24.87	-42.5	-46.6	11.6	6.26e-04	0	59	0	229638144	56	5855
2026-01-22 08:59:00.67	101.24	24.98	-42.6	-46.9	11.4	7.03e-04	0	59	0	230686720	56	6057
2026-01-22 08:59:01.68	101.02	25.09	-42.7	-47.1	11.2	1.23e-03	0	59	0	232783872	56	6182
2026-01-22 08:59:02.69	100.80	25.20	-42.8	-47.4	11.0	1.66e-03	0	59	0	234881024	56	6360
2026-01-22 08:59:03.70	100.58	25.32	-42.7	-47.2	11.0	1.84e-03	0	59	0	236978176	56	6253
2026-01-22 08:59:04.71	100.36	25.43	-42.5	-46.7	11.7	6.38e-04	0	59	0	239075328	56	5872
2026-01-22 08:59:05.72	100.14	25.54	-42.4	-46.6	11.8	4.10e-04	0	59	0	240123904	56	5805
2026-01-22 08:59:06.72	99.91	25.65	-42.6	-46.9	11.5	7.24e-04	0	59	0	242221056	56	6008
2026-01-22 08:59:07.73	99.69	25.76	-42.8	-47.5	10.9	1.10e-03	0	59	0	244318208	56	6422
2026-01-22 08:59:08.74	99.46	25.87	-42.8	-47.5	10.8	2.11e-03	0	59	0	246415360	56	6480
2026-01-22 08:59:09.75	99.23	25.98	-42.7	-47.2	11.1	1.98e-03	0	59	0	248512512	56	6254
2026-01-22 08:59:10.76	99.00	26.09	-42.6	-46.9	11.5	8.33e-04	0	59	0	249561088	56	6019
2026-01-22 08:59:11.77	98.76	26.20	-42.4	-46.5	11.8	5.10e-04	0	59	0	251658240	56	5768
2026-01-22 08:59:12.78	98.53	26.31	-42.6	-46.9	11.5	8.46e-04	0	59	0	253755392	56	6038
2026-01-22 08:59:13.79	98.29	26.42	-42.8	-47.4	10.9	1.94e-03	0	59	0	255852544	56	6415
2026-01-22 08:59:14.80	98.06	26.53	-43.0	-48.1	10.2	2.82e-03	0	58	0	257949696	56	6907
2026-01-22 08:59:15.81	97.82	26.64	-43.0	-47.8	10.5	4.26e-03	0	59	0	260046848	56	6686
2026-01-22 08:59:16.82	97.57	26.75	-42.9	-47.5	10.8	2.73e-03	0	59	0	261095424	56	6480
2026-01-22 08:59:17.83	97.33	26.86	-43.0	-48.0	10.4	4.10e-03	0	59	0	263192576	56	6813
2026-01-22 08:59:18.84	97.09	26.97	-42.9	-47.6	10.7	3.65e-03	0	59	0	265289728	56	6516
2026-01-22 08:59:19.85	96.84	27.08	-42.9	-47.7	10.7	2.60e-03	0	59	0	267386880	56	6587
2026-01-22 08:59:20.86	96.59	27.19	-42.5	-46.8	11.7	1.41e-03	0	59	0	269484032	56	5928
2026-01-22 08:59:21.87	96.34	27.30	-42.3	-46.1	12.2	3.78e-04	0	59	0	270532608	56	5523
2026-01-22 08:59:22.88	96.09	27.40	-42.2	-46.0	12.4	2.63e-04	0	59	0	272629760	56	5451
2026-01-22 08:59:23.89	95.84	27.51	-42.1	-45.8	12.6	9.68e-05	0	59	0	274726912	56	5318
2026-01-22 08:59:24.90	95.58	27.62	-42.1	-45.8	12.7	8.85e-05	0	59	0	276824064	56	5289
2026-01-22 08:59:25.91	95.33	27.73	-41.8	-45.4	12.8	5.72e-05	0	59	0	278921216	55	5394
2026-01-22 08:59:26.92	95.07	27.84	-41.9	-45.6	12.6	7.55e-05	0	59	0	279969792	55	5528
2026-01-22 08:59:27.93	94.81	27.95	-41.8	-45.5	12.8	8.54e-05	0	59	0	282066944	55	5416
2026-01-22 08:59:28.94	94.54	28.05	-42.1	-46.0	12.3	1.23e-04	0	59	0	284164096	55	5743
2026-01-22 08:59:29.95	94.28	28.16	-42.3	-46.4	11.8	3.81e-04	0	59	0	286261248	55	6061
2026-01-22 08:59:30.96	94.01	28.27	-42.3	-46.5	11.8	4.63e-04	0	59	0	288358400	55	6077
2026-01-22 08:59:31.96	93.75	28.37	-42.4	-46.6	11.6	7.50e-04	0	59	0	289406976	55	6180
2026-01-22 08:59:32.97	93.48	28.48	-42.3	-46.3	11.9	4.88e-04	0	59	0	291504128	55	5992
2026-01-22 08:59:33.98	93.21	28.59	-42.4	-46.5	11.7	4.14e-04	0	59	0	293601280	55	6123
2026-01-22 08:59:34.99	92.94	28.69	-42.6	-47.0	11.2	6.67e-04	0	59	0	295698432	55	6485
2026-01-22 08:59:36.00	92.66	28.80	-43.0	-47.9	10.5	3.69e-03	0	59	0	297795584	56	6767
2026-01-22 08:59:37.01	92.39	28.90	-43.3	-48.7	9.6	1.09e-02	0	59	0	298844160	57	7002
2026-01-22 08:59:38.02	92.11	29.01	-43.4	-48.9	9.4	1.53e-02	0	59	0	300941312	57	7179
2026-01-22 08:59:39.03	91.83	29.11	-43.5	-49.3	9.0	1.95e-02	0	59	0	303038464	57	7517
2026-01-22 08:59:40.04	91.55	29.22	-43.4	-48.9	9.4	1.58e-02	0	59	0	305135616	57	7157
2026-01-22 08:59:41.05	91.26	29.32	-43.5	-49.2	9.1	1.46e-02	0	59	0	307232768	57	7437
2026-01-22 08:59:42.06	90.98	29.42	-43.4	-49.0	9.4	1.55e-02	0	59	0	308281344	57	7207
2026-01-22 08:59:43.07	90.69	29.53	-43.3	-48.6	9.7	1.38e-02	0	59	0	310378496	57	6949
2026-01-22 08:59:44.08	90.40	29.63	-43.2	-48.3	10.0	1.10e-02	0	59	0	312475648	57	6665
2026-01-22 08:59:45.09	90.11	29.73	-43.1	-48.1	10.3	5.27e-03	0	59	0	314572800	57	6554
2026-01-22 08:59:46.10	89.82	29.83	-43.2	-48.3	10.1	3.90e-03	0	59	0	316669952	57	6662
2026-01-22 08:59:47.11	89.52	29.93	-43.5	-49.1	9.3	6.13e-03	0	59	0	317718528	57	7314
2026-01-22 08:59:48.12	89.22	30.03	-43.6	-49.4	9.0	2.15e-02	0	59	0	319815680	57	7569
2026-01-22 08:59:49.13	88.93	30.13	-43.4	-48.9	9.5	2.17e-02	0	59	0	321912832	57	7131
2026-01-22 08:59:50.14	88.62	30.23	-43.6	-49.4	8.9	2.14e-02	0	59	0	324009984	57	7585
2026-01-22 08:59:51.15	88.32	30.33	-43.7	-49.9	8.5	2.42e-02	0	59	0	326107136	57	7991
2026-01-22 08:59:52.16	88.02	30.43	-43.9	-50.4	7.9	6.34e-02	0	59	0	328204288	58	8081
2026-01-22 08:59:53.17	87.71	30.53	-43.9	-50.5	7.9	6.99e-02	0	59	0	329252864	58	8088
2026-01-22 08:59:54.17	87.41	30.63	-43.8	-51.1	7.3	9.53e-02	0	59	0	331350016	58	8674
2026-01-22 08:59:55.18	87.10	30.72	-43.9	-51.5	6.9	1.72e-01	0	59	0	333447168	58	9099
2026-01-22 08:59:56.19	86.79	30.82	-43.9	-51.4	7.0	1.60e-01	0	59	0	335544320	58	8969
2026-01-22 08:59:57.20	86.47	30.91	-44.0	-51.8	6.6	1.55e-01	0	59	0	337641472	58	9431
2026-01-22 08:59:58.21	86.16	31.01	-43.7	-50.7	7.6	8.61e-02	0	59	0	338690048	58	8348
2026-01-22 08:59:59.22	85.84	31.10	-43.7	-50.5	7.8	5.93e-02	0	59	0	340787200	58	8120
2026-01-22 09:00:00.23	85.52	31.20	-43.6	-50.0	8.3	5.11e-02	0	59	0	342884352	58	7649
2026-01-22 09:00:01.24	85.20	31.29	-43.5	-49.6	8.6	4.69e-02	0	59	0	344981504	58	7349
2026-01-22 09:00:02.25	84.88	31.38	-43.3	-49.1	9.2	3.01e-02	0	59	0	346030080	58	6912
2026-01-22 09:00:03.26	84.55	31.47	-43.4	-49.3	9.0	2.52e-02	0	59	0	348127232	58	7052
2026-01-22 09:00:04.26	84.23	31.56	-43.4	-49.5	8.8	1.91e-02	0	59	0	350224384	58	7267
2026-01-22 09:00:05.27	83.90	31.65	-43.5	-49.6	8.7	2.47e-02	0	59	0	352321536	58	7319
2026-01-22 09:00:06.28	83.57	31.74	-43.3	-49.0	9.3	2.06e-02	0	59	0	354418688	58	6875
2026-01-22 09:00:07.29	83.24	31.83	-43.3	-49.1	9.2	1.65e-02	0	59	0	356515840	58	6885
2026-01-22 09:00:08.30	82.91	31.91	-43.3	-49.1	9.2	2.60e-02	0	59	0	357564416	58	6953
2026-01-22 09:00:09.31	82.57	32.00	-43.3	-49.1	9.2	2.18e-02	0	59	0	359661568	58	6909
2026-01-22 09:00:10.32	82.24	32.09	-43.4	-49.3	9.1	1.72e-02	0	59	0	361758720	58	7071
2026-01-22 09:00:11.33	81.90	32.17	-43.4	-49.5	8.8	1.72e-02	0	59	0	363855872	58	7209
2026-01-22 09:00:12.34	81.56	32.25	-43.7	-50.8	7.6	4.62e-02	0	59	0	365953024	58	8391
2026-01-22 09:00:13.35	81.21	32.34	-43.8	-51.3	7.0	1.28e-01	0	59	0	367001600	58	8900
2026-01-22 09:00:14.36	80.87	32.42	-43.7	-50.7	7.5	1.16e-01	0	59	0	369098752	58	8350
2026-01-22 09:00:15.37	80.52	32.50	-43.6	-50.4	7.9	7.86e-02	0	59	0	371195904	58	8007
2026-01-22 09:00:16.38	80.18	32.58	-43.5	-50.0	8.3	6.11e-02	0	59	0	373293056	58	7704
2026-01-22 09:00:17.39	79.83	32.66	-43.3	-49.3	9.0	2.85e-02	0	59	0	375390208	58	7116
2026-01-22 09:00:18.40	79.48	32.74	-43.4	-49.5	8.8	2.41e-02	0	59	0	376438784	58	7284
2026-01-22 09:00:19.41	79.12	32.81	-43.5	-49.8	8.5	4.02e-02	0	59	0	378535936	58	7531
2026-01-22 09:00:20.42	78.77	32.89	-43.6	-50.1	8.1	5.97e-02	0	59	0	380633088	58	7805
2026-01-22 09:00:21.42	78.42	32.96	-43.5	-49.8	8.4	4.28e-02	0	59	0	382730240	58	7521
2026-01-22 09:00:22.43	78.06	33.04	-43.4	-49.3	9.0	3.65e-02	0	59	0	384827392	58	7092
2026-01-22 09:00:23.45	77.70	33.11	-43.2	-48.8	9.6	1.50e-02	0	59	0	385875968	58	6694
2026-01-22 09:00:24.45	77.34	33.18	-42.9	-47.9	10.4	3.70e-03	0	59	0	387973120	57	6419
2026-01-22 09:00:25.46	76.98	33.25	-42.5	-47.0	11.4	1.05e-03	0	59	0	390070272	56	6094
2026-01-22 09:00:26.47	76.61	33.32	-42.4	-46.6	11.8	5.99e-04	0	59	0	392167424	56	5810
2026-01-22 09:00:27.48	76.25	33.39	-42.2	-46.3	12.2	2.04e-04	0	59	0	394264576	56	5605
2026-01-22 09:00:28.49	75.88	33.45	-42.2	-46.2	12.2	2.13e-04	0	59	0	395313152	56	5571
2026-01-22 09:00:29.50	75.51	33.52	-42.2	-46.2	12.3	2.61e-04	0	59	0	397410304	56	5542
2026-01-22 09:00:30.51	75.14	33.58	-42.1	-46.1	12.3	1.56e-04	0	59	0	399507456	56	5519
2026-01-22 09:00:31.52	74.77	33.65	-42.1	-46.1	12.2	1.32e-04	0	59	0	401604608	56	5474
2026-01-22 09:00:32.53	74.40	33.71	-42.2	-46.2	12.3	2.21e-04	0	59	0	403701760	56	5529
2026-01-22 09:00:33.54	74.03	33.77	-42.3	-46.4	12.1	1.85e-04	0	59	0	404750336	56	5695
2026-01-22 09:00:34.55	73.65	33.83	-42.7	-47.4	11.1	7.41e-04	0	59	0	406847488	56	6378
2026-01-22 09:00:35.56	73.27	33.89	-43.0	-48.1	10.4	3.73e-03	0	59	0	408944640	56	6920
2026-01-22 09:00:36.57	72.90	33.94	-43.2	-48.6	9.8	6.48e-03	0	59	0	411041792	56	7312
2026-01-22 09:00:37.57	72.52	34.00	-42.9	-47.8	10.5	3.62e-03	0	59	0	413138944	56	6722
2026-01-22 09:00:38.58	72.14	34.05	-42.7	-47.3	11.2	2.60e-03	0	59	0	414187520	56	6284
2026-01-22 09:00:39.59	71.76	34.11	-42.5	-46.9	11.7	1.11e-03	0	59	0	416284672	56	6008
2026-01-22 09:00:40.60	71.37	34.16	-42.0	-45.8	12.7	1.14e-04	0	59	0	418381824	56	5333
2026-01-22 09:00:41.61	70.99	34.21	-41.7	-45.4	12.9	3.96e-05	0	59	0	420478976	55	5384
2026-01-22 09:00:42.62	70.60	34.26	-41.9	-45.8	12.6	6.56e-05	0	59	0	422576128	55	5598
2026-01-22 09:00:43.63	70.22	34.30	-42.0	-45.9	12.5	7.32e-05	0	59	0	424673280	55	5688
2026-01-22 09:00:44.64	69.83	34.35	-41.7	-45.4	13.0	4.19e-05	0	59	0	425721856	55	5370
2026-01-22 09:00:45.65	69.44	34.39	-41.6	-45.2	13.1	3.35e-05	0	59	0	427819008	55	5270
2026-01-22 09:00:46.66	69.05	34.44	-41.7	-45.4	12.9	1.44e-05	0	59	0	429916160	55	5352
2026-01-22 09:00:47.67	68.66	34.48	-41.9	-45.8	12.5	1.01e-04	0	59	0	432013312	55	5627
2026-01-22 09:00:48.68	68.27	34.52	-42.5	-47.0	11.3	6.84e-04	0	59	0	434110464	55	6471
2026-01-22 09:00:49.69	67.88	34.56	-42.5	-47.2	11.1	1.57e-03	0	59	0	435159040	55	6588
2026-01-22 09:00:50.70	67.48	34.60	-42.3	-46.6	11.7	8.96e-04	0	59	0	437256192	55	6197
2026-01-22 09:00:51.71	67.09	34.63	-42.1	-46.2	12.2	3.75e-04	0	59	0	439353344	55	5902
2026-01-22 09:00:52.71	66.70	34.66	-42.0	-45.9	12.5	1.27e-04	0	59	0	441450496	55	5698
2026-01-22 09:00:53.72	66.30	34.70	-42.1	-46.0	12.3	1.94e-04	0	59	0	443547648	55	5746
2026-01-22 09:00:54.73	65.90	34.73	-42.4	-46.6	11.7	4.23e-04	0	59	0	444596224	55	6189
2026-01-22 09:00:55.74	65.50	34.76	-42.5	-46.9	11.5	8.60e-04	0	59	0	446693376	55	6374
2026-01-22 09:00:56.75	65.11	34.79	-42.5	-46.9	11.5	1.07e-03	0	59	0	448790528	55	6364
2026-01-22 09:00:57.76	64.71	34.81	-42.5	-46.8	11.5	7.54e-04	0	59	0	450887680	55	6297
2026-01-22 09:00:58.77	64.31	34.84	-42.5	-46.8	11.5	6.50e-04	0	59	0	452984832	55	6321
2026-01-22 09:00:59.78	63.91	34.86	-42.4	-46.7	11.7	7.61e-04	0	59	0	454033408	55	6244
2026-01-22 09:01:00.79	63.51	34.88	-42.3	-46.4	11.9	4.72e-04	0	59	0	456130560	55	6045
2026-01-22 09:01:01.80	63.10	34.90	-42.2	-46.3	12.2	2.66e-04	0	59	0	458227712	55	5953
2026-01-22 09:01:02.81	62.70	34.92	-42.3	-46.5	11.9	3.07e-04	0	59	0	460324864	55	6077
2026-01-22 09:01:03.82	62.30	34.94	-42.5	-46.8	11.6	7.76e-04	0	59	0	462422016	55	6291
2026-01-22 09:01:04.83	61.90	34.95	-42.9	-47.6	11.0	1.49e-03	0	59	0	463470592	56	6498
2026-01-22 09:01:05.84	61.49	34.97	-42.8	-47.3	11.2	1.54e-03	0	59	0	465567744	56	6322
2026-01-22 09:01:06.84	61.10	34.98	-42.8	-47.3	11.2	2.29e-03	0	59	0	467664896	56	6325
2026-01-22 09:01:07.85	60.69	34.99	-42.9	-47.6	10.9	1.85e-03	0	59	0	469762048	56	6519
2026-01-22 09:01:08.86	60.29	35.00	-42.9	-47.7	10.8	1.84e-03	0	59	0	471859200	56	6581
2026-01-22 09:01:09.87	59.88	35.01	-42.6	-46.9	11.6	9.31e-04	0	59	0	472907776	56	6029
2026-01-22 09:01:10.88	59.48	35.01	-42.6	-46.9	11.7	6.86e-04	0	59	0	475004928	56	6013
2026-01-22 09:01:11.89	59.08	35.02	-42.8	-47.5	11.0	9.10e-04	0	59	0	477102080	56	6472
2026-01-22 09:01:12.90	58.67	35.02	-42.9	-47.8	10.7	2.16e-03	0	59	0	479199232	56	6670
2026-01-22 09:01:13.91	58.27	35.02	-42.9	-47.6	10.9	3.07e-03	0	59	0	481296384	56	6535
2026-01-22 09:01:14.91	57.87	35.02	-42.6	-47.0	11.6	1.61e-03	0	59	0	482344960	56	6095
2026-01-22 09:01:15.92	57.46	35.02	-42.8	-47.4	11.2	8.63e-04	0	59	0	484442112	56	6349
2026-01-22 09:01:16.93	57.06	35.01	-43.0	-47.9	10.4	4.30e-03	0	59	0	486539264	56	6790
2026-01-22 09:01:17.94	56.65	35.01	-43.3	-48.8	9.6	7.48e-03	0	59	0	488636416	57	7104
2026-01-22 09:01:18.95	56.25	35.00	-43.2	-48.5	9.9	7.69e-03	0	59	0	490733568	57	6850
2026-01-22 09:01:19.96	55.85	34.99	-42.9	-48.0	10.4	4.58e-03	0	60	0	492830720	57	6492
2026-01-22 09:01:20.97	55.44	34.98	-42.8	-47.4	11.1	2.08e-03	0	59	0	493879296	57	6039
2026-01-22 09:01:21.98	55.04	34.97	-42.7	-47.3	11.2	1.72e-03	0	59	0	495976448	57	5937
2026-01-22 09:01:22.99	54.64	34.95	-42.7	-47.2	11.2	1.18e-03	0	59	0	498073600	57	5916
2026-01-22 09:01:24.00	54.23	34.94	-43.0	-48.3	10.1	2.20e-03	0	59	0	500170752	57	6652
2026-01-22 09:01:25.01	53.83	34.92	-43.4	-49.3	9.1	7.34e-03	0	59	0	502267904	57	7484
2026-01-22 09:01:26.02	53.43	34.90	-43.6	-50.0	8.4	4.16e-02	0	59	0	503316480	57	8123
2026-01-22 09:01:27.03	53.03	34.88	-43.4	-49.3	9.1	3.01e-02	0	59	0	505413632	57	7517
2026-01-22 09:01:28.04	52.63	34.86	-43.2	-48.5	9.8	1.32e-02	0	60	0	507510784	57	6865
2026-01-22 09:01:29.05	52.23	34.84	-43.0	-48.0	10.4	4.35e-03	0	59	0	509607936	57	6463
2026-01-22 09:01:30.06	51.83	34.81	-42.9	-47.8	10.6	2.24e-03	0	59	0	511705088	57	6288
2026-01-22 09:01:31.07	51.43	34.79	-42.8	-47.5	10.9	1.79e-03	0	60	0	512753664	57	6100
2026-01-22 09:01:32.08	51.03	34.76	-42.6	-47.0	11.4	1.24e-03	0	59	0	514850816	57	5775
2026-01-22 09:01:33.09	50.63	34.73	-42.6	-47.0	11.5	1.07e-03	0	59	0	516947968	57	5753
2026-01-22 09:01:34.09	50.24	34.70	-43.0	-48.1	10.4	2.91e-03	0	59	0	519045120	57	6529
2026-01-22 09:01:35.11	49.84	34.67	-43.3	-48.8	9.6	7.04e-03	0	59	0	521142272	57	7073
2026-01-22 09:01:36.12	49.45	34.63	-43.3	-49.0	9.4	1.80e-02	0	59	0	522190848	57	7266
2026-01-22 09:01:37.13	49.05	34.60	-43.3	-49.0	9.4	8.15e-03	0	59	0	524288000	57	7205
2026-01-22 09:01:38.13	48.66	34.56	-43.1	-48.3	10.1	6.61e-03	0	59	0	526385152	57	6687
2026-01-22 09:01:39.14	48.27	34.52	-43.0	-48.0	10.3	5.06e-03	0	59	0	528482304	57	6484
2026-01-22 09:01:40.15	47.88	34.48	-42.8	-47.7	10.8	3.08e-03	0	59	0	530579456	57	6206
2026-01-22 09:01:41.16	47.49	34.44	-42.6	-47.0	11.5	2.21e-03	0	60	0	531628032	57	5755
2026-01-22 09:01:42.17	47.10	34.40	-42.6	-47.1	11.3	9.53e-04	0	59	0	533725184	57	5852
2026-01-22 09:01:43.18	46.71	34.35	-42.4	-46.7	11.9	4.46e-04	0	59	0	535822336	56	5869
2026-01-22 09:01:44.19	46.32	34.31	-42.6	-47.0	11.4	5.22e-04	0	60	0	537919488	56	6115
2026-01-22 09:01:45.20	45.94	34.26	-42.8	-47.6	10.8	2.79e-03	0	60	0	540016640	56	6528
2026-01-22 09:01:46.21	45.55	34.21	-43.0	-48.1	10.5	3.00e-03	0	59	0	541065216	56	6923
2026-01-22 09:01:47.22	45.17	34.16	-42.8	-47.6	10.8	3.89e-03	0	59	0	543162368	56	6560
2026-01-22 09:01:48.23	44.79	34.11	-42.6	-47.2	11.3	1.72e-03	0	59	0	545259520	56	6251
2026-01-22 09:01:49.24	44.41	34.06	-42.4	-46.7	11.8	7.16e-04	0	59	0	547356672	56	5903
2026-01-22 09:01:50.25	44.03	34.00	-42.4	-46.6	11.9	4.57e-04	0	60	0	549453824	56	5835
2026-01-22 09:01:51.26	43.65	33.95	-42.3	-46.4	12.1	4.26e-04	0	60	0	550502400	56	5675
2026-01-22 09:01:52.27	43.27	33.89	-42.4	-46.7	11.8	3.99e-04	0	60	0	552599552	56	5888
2026-01-22 09:01:53.28	42.89	33.83	-42.6	-47.2	11.2	9.28e-04	0	60	0	554696704	56	6273
2026-01-22 09:01:54.29	42.52	33.77	-43.1	-48.5	9.9	2.51e-03	0	60	0	556793856	56	7265
2026-01-22 09:01:55.30	42.15	33.71	-43.3	-49.2	9.2	1.69e-02	0	59	0	558891008	57	7376
2026-01-22 09:01:56.30	41.78	33.65	-43.4	-49.5	8.9	3.54e-02	0	60	0	559939584	57	7679
2026-01-22 09:01:57.32	41.40	33.59	-43.3	-48.9	9.5	2.98e-02	0	59	0	562036736	57	7122
2026-01-22 09:01:58.32	41.04	33.52	-42.9	-47.7	10.7	7.53e-03	0	60	0	564133888	57	6242
2026-01-22 09:01:59.33	40.67	33.46	-42.5	-46.9	11.6	9.55e-04	0	59	0	566231040	57	5689
2026-01-22 09:02:00.34	40.30	33.39	-42.4	-46.6	11.9	2.94e-04	0	59	0	568328192	56	5804
2026-01-22 09:02:01.35	39.94	33.32	-42.5	-46.9	11.6	4.29e-04	0	60	0	570425344	56	6039
2026-01-22 09:02:02.36	39.58	33.26	-42.7	-47.2	11.3	1.14e-03	0	59	0	571473920	56	6217
2026-01-22 09:02:03.38	39.21	33.18	-42.8	-47.7	10.7	2.50e-03	0	60	0	573571072	56	6575
2026-01-22 09:02:04.38	38.85	33.11	-43.1	-48.4	10.0	4.13e-03	0	60	0	575668224	56	7124
2026-01-22 09:02:05.40	38.49	33.04	-43.4	-49.2	9.1	2.16e-02	0	60	0	577765376	57	7432
2026-01-22 09:02:06.40	38.14	32.97	-43.5	-49.7	8.7	2.98e-02	0	60	0	579862528	57	7841
2026-01-22 09:02:07.41	37.79	32.89	-43.6	-49.9	8.4	4.57e-02	0	59	0	580911104	57	8018
2026-01-22 09:02:08.42	37.43	32.82	-43.6	-50.1	8.3	4.98e-02	0	60	0	583008256	57	8245
2026-01-22 09:02:09.43	37.08	32.74	-43.6	-50.1	8.2	6.04e-02	0	60	0	585105408	57	8244
2026-01-22 09:02:10.44	36.73	32.66	-43.5	-49.6	8.7	5.15e-02	0	60	0	587202560	57	7761
2026-01-22 09:02:11.45	36.38	32.59	-43.4	-49.3	9.0	2.76e-02	0	60	0	589299712	57	7516
2026-01-22 09:02:12.46	36.04	32.51	-43.5	-49.6	8.8	2.73e-02	0	59	0	590348288	57	7789
2026-01-22 09:02:13.47	35.69	32.43	-43.7	-50.4	8.0	5.12e-02	0	60	0	592445440	57	8471
2026-01-22 09:02:14.48	35.35	32.34	-43.7	-50.6	7.8	6.66e-02	0	60	0	594542592	58	8186
2026-01-22 09:02:15.49	35.01	32.26	-43.7	-50.3	7.9	7.58e-02	0	60	0	596639744	58	7990
2026-01-22 09:02:16.50	34.67	32.18	-43.4	-49.4	8.9	3.78e-02	0	59	0	598736896	58	7202
2026-01-22 09:02:17.51	34.33	32.09	-43.1	-48.4	10.0	1.58e-02	0	60	0	599785472	58	6393
2026-01-22 09:02:18.52	33.99	32.01	-42.9	-47.8	10.7	5.39e-03	0	60	0	601882624	57	6297
2026-01-22 09:02:19.53	33.66	31.92	-42.9	-47.9	10.5	3.90e-03	0	59	0	603979776	57	6408
2026-01-22 09:02:20.54	33.33	31.84	-42.8	-47.7	10.8	3.68e-03	0	60	0	606076928	57	6206
2026-01-22 09:02:21.55	33.00	31.75	-42.7	-47.3	11.1	2.14e-03	0	60	0	608174080	57	5978
2026-01-22 09:02:22.56	32.67	31.66	-42.5	-46.9	11.6	5.77e-04	0	60	0	609222656	56	6004
2026-01-22 09:02:23.57	32.34	31.57	-42.6	-47.0	11.3	4.91e-04	0	59	0	611319808	56	6105
2026-01-22 09:02:24.58	32.01	31.48	-42.8	-47.6	10.9	1.47e-03	0	59	0	613416960	56	6523
2026-01-22 09:02:25.59	31.69	31.39	-43.2	-48.6	9.8	6.24e-03	0	59	0	615514112	56	7331
2026-01-22 09:02:26.60	31.37	31.30	-43.4	-49.3	9.1	2.03e-02	0	60	0	617611264	57	7492
2026-01-22 09:02:27.61	31.05	31.21	-43.5	-49.6	8.8	3.10e-02	0	60	0	618659840	57	7762
2026-01-22 09:02:28.62	30.73	31.11	-43.3	-48.8	9.5	1.65e-02	0	60	0	620756992	57	7093
2026-01-22 09:02:29.63	30.42	31.02	-42.9	-47.8	10.5	6.96e-03	0	60	0	622854144	57	6336
2026-01-22 09:02:30.64	30.10	30.93	-42.5	-46.8	11.6	1.55e-03	0	60	0	624951296	57	5643
2026-01-22 09:02:31.65	29.79	30.83	-42.6	-47.0	11.6	6.77e-04	0	60	0	627048448	56	6066
2026-01-22 09:02:32.65	29.48	30.74	-42.7	-47.2	11.3	8.92e-04	0	59	0	628097024	56	6267
2026-01-22 09:02:33.66	29.17	30.64	-43.2	-48.6	10.1	2.35e-03	0	60	0	630194176	57	6916
2026-01-22 09:02:34.67	28.87	30.54	-43.5	-49.3	9.1	1.48e-02	0	60	0	632291328	57	7495
2026-01-22 09:02:35.68	28.56	30.45	-43.7	-50.1	8.3	4.44e-02	0	59	0	634388480	57	8179
2026-01-22 09:02:36.69	28.26	30.35	-43.7	-50.0	8.4	5.57e-02	0	60	0	636485632	58	7641
2026-01-22 09:02:37.70	27.96	30.25	-43.5	-49.3	9.1	2.83e-02	0	59	0	638582784	58	7052
2026-01-22 09:02:38.71	27.66	30.15	-43.3	-48.7	9.7	1.59e-02	0	59	0	639631360	58	6623
2026-01-22 09:02:39.72	27.36	30.05	-43.5	-49.2	9.1	1.26e-02	0	60	0	641728512	58	7033
2026-01-22 09:02:40.73	27.07	29.95	-43.3	-48.8	9.6	1.26e-02	0	60	0	643825664	58	6668
2026-01-22 09:02:41.74	26.77	29.85	-43.3	-48.7	9.7	1.09e-02	0	59	0	645922816	58	6571
2026-01-22 09:02:42.75	26.48	29.75	-43.3	-48.8	9.6	1.17e-02	0	59	0	646971392	58	6674
2026-01-22 09:02:43.76	26.19	29.65	-43.5	-49.4	8.9	2.35e-02	0	59	0	649068544	58	7178
2026-01-22 09:02:44.77	25.90	29.54	-43.7	-49.9	8.3	4.60e-02	0	59	0	651165696	58	7592
2026-01-22 09:02:45.78	25.62	29.44	-43.7	-50.1	8.2	5.03e-02	0	60	0	653262848	58	7790
2026-01-22 09:02:46.79	25.33	29.34	-43.6	-49.8	8.6	5.02e-02	0	60	0	655360000	58	7467
2026-01-22 09:02:47.80	25.05	29.24	-43.4	-49.1	9.2	2.27e-02	0	60	0	657457152	58	6898
2026-01-22 09:02:48.81	24.77	29.13	-43.1	-48.2	10.2	1.18e-02	0	60	0	658505728	58	6206
2026-01-22 09:02:49.81	24.49	29.03	-43.1	-48.1	10.3	5.03e-03	0	60	0	660602880	58	6152
2026-01-22 09:02:50.82	24.21	28.92	-43.1	-48.1	10.3	5.75e-03	0	60	0	662700032	58	6183
2026-01-22 09:02:51.83	23.94	28.82	-43.2	-48.3	10.0	6.21e-03	0	60	0	664797184	58	6338
2026-01-22 09:02:52.84	23.67	28.72	-43.3	-48.6	9.8	9.19e-03	0	60	0	666894336	58	6510
2026-01-22 09:02:53.85	23.39	28.61	-43.2	-48.5	9.9	7.15e-03	0	60	0	667942912	58	6442
2026-01-22 09:02:54.86	23.12	28.50	-43.3	-48.5	9.8	9.97e-03	0	60	0	670040064	58	6490
2026-01-22 09:02:55.87	22.86	28.40	-43.3	-48.8	9.6	1.35e-02	0	60	0	672137216	58	6682
2026-01-22 09:02:56.88	22.59	28.29	-43.2	-48.5	9.9	1.26e-02	0	60	0	674234368	58	6459
2026-01-22 09:02:57.89	22.32	28.18	-43.0	-47.8	10.6	5.49e-03	0	59	0	676331520	58	5936
2026-01-22 09:02:58.90	22.06	28.08	-42.5	-46.6	11.8	1.07e-03	0	59	0	677380096	57	5517
2026-01-22 09:02:59.91	21.80	27.97	-42.1	-45.8	12.7	1.68e-04	0	60	0	679477248	56	5318
2026-01-22 09:03:00.92	21.54	27.86	-42.1	-45.9	12.6	7.24e-05	0	60	0	681574400	56	5355
2026-01-22 09:03:01.93	21.28	27.76	-42.1	-45.9	12.6	6.63e-05	0	60	0	683671552	56	5362
2026-01-22 09:03:02.94	21.03	27.65	-42.2	-46.1	12.3	9.00e-05	0	60	0	685768704	56	5495
2026-01-22 09:03:03.95	20.77	27.54	-42.3	-46.4	12.1	3.26e-04	0	60	0	686817280	56	5678
2026-01-22 09:03:04.96	20.52	27.43	-42.5	-46.7	11.7	4.40e-04	0	60	0	688914432	56	5891
2026-01-22 09:03:05.97	20.27	27.32	-42.5	-46.7	11.7	5.74e-04	0	60	0	691011584	56	5909
2026-01-22 09:03:06.98	20.02	27.21	-42.5	-46.7	11.7	5.82e-04	0	59	0	693108736	56	5875
2026-01-22 09:03:07.99	19.78	27.11	-42.3	-46.3	12.1	2.53e-04	0	60	0	695205888	56	5631
2026-01-22 09:03:09.00	19.53	27.00	-42.1	-45.9	12.5	1.60e-04	0	60	0	696254464	56	5366
2026-01-22 09:03:10.01	19.29	26.89	-42.0	-45.6	12.8	6.40e-05	0	60	0	698351616	56	5216
2026-01-22 09:03:11.02	19.04	26.78	-41.9	-45.5	12.8	5.49e-05	0	60	0	700448768	55	5430
2026-01-22 09:03:12.03	18.80	26.67	-41.9	-45.6	12.6	7.09e-05	0	60	0	702545920	55	5496
2026-01-22 09:03:13.04	18.57	26.56	-42.0	-45.9	12.4	9.00e-05	0	59	0	704643072	55	5663
2026-01-22 09:03:14.04	18.33	26.45	-42.3	-46.6	11.7	4.00e-04	0	59	0	705691648	55	6153
2026-01-22 09:03:15.05	18.10	26.34	-42.5	-47.0	11.3	6.92e-04	0	60	0	707788800	55	6441
2026-01-22 09:03:16.06	17.86	26.23	-42.5	-46.9	11.3	9.44e-04	0	60	0	709885952	55	6385
2026-01-22 09:03:17.07	17.63	26.12	-42.1	-45.9	12.4	3.39e-04	0	60	0	711983104	55	5714
2026-01-22 09:03:18.08	17.40	26.01	-41.9	-45.7	12.7	1.50e-04	0	60	0	714080256	55	5536
2026-01-22 09:03:19.09	17.17	25.90	-41.8	-45.4	12.9	4.11e-05	0	60	0	715128832	55	5350
2026-01-22 09:03:20.10	16.94	25.79	-41.8	-45.3	12.9	4.04e-05	0	60	0	717225984	55	5334
2026-01-22 09:03:21.11	16.72	25.68	-41.6	-45.0	13.3	1.83e-05	0	60	0	719323136	55	5140
2026-01-22 09:03:22.12	16.49	25.57	-41.6	-45.0	13.2	2.13e-05	0	60	0	721420288	55	5146
2026-01-22 09:03:23.13	16.27	25.46	-41.7	-45.3	12.9	3.43e-05	0	60	0	723517440	55	5326
2026-01-22 09:03:24.14	16.05	25.35	-41.8	-45.4	12.8	3.58e-05	0	60	0	724566016	55	5390
2026-01-22 09:03:25.15	15.83	25.24	-41.8	-45.5	12.8	4.11e-05	0	60	0	726663168	55	5412
2026-01-22 09:03:26.16	15.61	25.13	-41.8	-45.6	12.7	5.56e-05	0	60	0	728760320	55	5466
2026-01-22 09:03:27.17	15.40	25.02	-41.9	-45.5	12.7	8.92e-05	0	60	0	730857472	55	5460
2026-01-22 09:03:28.18	15.18	24.91	-41.8	-45.4	12.8	4.42e-05	0	60	0	732954624	55	5352
2026-01-22 09:03:29.19	14.97	24.80	-41.8	-45.3	12.9	8.54e-05	0	60	0	735051776	55	5337
2026-01-22 09:03:30.20	14.76	24.69	-41.8	-45.6	12.7	4.80e-05	0	60	0	736100352	55	5497
2026-01-22 09:03:31.21	14.55	24.58	-41.7	-45.3	12.9	4.34e-05	0	60	0	738197504	55	5300
2026-01-22 09:03:32.22	14.34	24.47	-41.6	-45.1	13.2	2.97e-05	0	60	0	740294656	55	5164
2026-01-22 09:03:33.22	14.13	24.36	-41.8	-45.4	12.8	2.74e-05	0	60	0	742391808	55	5373
2026-01-22 09:03:34.23	13.93	24.25	-41.8	-45.4	12.8	4.80e-05	0	60	0	744488960	55	5379
2026-01-22 09:03:35.24	13.72	24.14	-41.9	-45.6	12.6	8.08e-05	0	60	0	745537536	55	5521
2026-01-22 09:03:36.25	13.52	24.03	-41.9	-45.7	12.5	1.05e-04	0	60	0	747634688	55	5572
2026-01-22 09:03:37.26	13.32	23.92	-42.0	-45.9	12.3	1.75e-04	0	60	0	749731840	55	5678
2026-01-22 09:03:38.27	13.12	23.82	-41.8	-45.5	12.8	1.65e-04	0	60	0	751828992	55	5458
2026-01-22 09:03:39.28	12.92	23.71	-42.0	-45.8	12.3	1.65e-04	0	60	0	753926144	55	5647
2026-01-22 09:03:40.29	12.72	23.60	-41.9	-45.6	12.7	1.43e-04	0	60	0	754974720	55	5479
2026-01-22 09:03:41.30	12.53	23.49	-42.0	-45.9	12.4	1.12e-04	0	60	0	757071872	55	5678
2026-01-22 09:03:42.31	12.33	23.38	-42.0	-45.8	12.4	1.15e-04	0	60	0	759169024	55	5637
2026-01-22 09:03:43.31	12.14	23.27	-42.1	-46.1	12.1	2.12e-04	0	60	0	761266176	55	5802
2026-01-22 09:03:44.32	11.95	23.16	-42.3	-46.7	11.4	7.14e-04	0	60	0	763363328	55	6218
2026-01-22 09:03:45.33	11.76	23.05	-42.4	-46.8	11.3	9.22e-04	0	60	0	764411904	55	6325
2026-01-22 09:03:46.34	11.57	22.94	-42.5	-47.0	11.2	1.34e-03	0	60	0	766509056	55	6427
2026-01-22 09:03:47.35	11.38	22.84	-42.6	-47.2	10.9	1.56e-03	0	60	0	768606208	55	6609
2026-01-22 09:03:48.36	11.20	22.73	-42.5	-47.0	11.1	1.70e-03	0	60	0	770703360	55	6477
2026-01-22 09:03:49.37	11.01	22.62	-42.2	-46.4	11.7	6.50e-04	0	60	0	772800512	55	6016
2026-01-22 09:03:50.38	10.83	22.51	-42.4	-46.8	11.3	1.30e-03	0	60	0	773849088	55	6336
2026-01-22 09:03:51.39	10.65	22.40	-42.5	-47.0	11.2	1.75e-03	0	60	0	775946240	55	6422
2026-01-22 09:03:52.40	10.47	22.29	-42.4	-46.9	11.3	1.04e-03	0	60	0	778043392	55	6352
2026-01-22 09:03:53.41	10.29	22.19	-42.6	-47.2	10.9	1.31e-03	0	60	0	780140544	55	6583
2026-01-22 09:03:54.42	10.11	22.08	-42.6	-47.2	10.8	2.12e-03	0	60	0	782237696	55	6646
2026-01-22 09:03:55.43	9.93	21.97	-42.8	-47.5	10.8	2.92e-03	0	60	0	783286272	56	6436
2026-01-22 09:03:56.44	9.75	21.86	-42.8	-47.5	10.8	2.52e-03	0	59	0	785383424	56	6428
2026-01-22 09:03:57.45	9.58	21.76	-42.9	-47.8	10.5	3.43e-03	0	60	0	787480576	56	6649
2026-01-22 09:03:58.46	9.40	21.65	-42.9	-47.8	10.4	3.33e-03	0	60	0	789577728	56	6697
2026-01-22 09:03:59.47	9.23	21.54	-43.0	-48.0	10.2	5.67e-03	0	60	0	791674880	56	6863
2026-01-22 09:04:00.48	9.06	21.44	-42.9	-47.9	10.3	4.12e-03	0	60	0	792723456	56	6776
2026-01-22 09:04:01.48	8.89	21.33	-43.0	-48.3	9.9	7.62e-03	0	60	0	794820608	56	7060
2026-01-22 09:04:02.49	8.72	21.23	-42.9	-48.0	10.2	7.46e-03	0	60	0	796917760	56	6815
2026-01-22 09:04:03.50	8.56	21.12	-42.8	-47.8	10.4	5.55e-03	0	60	0	799014912	56	6657
2026-01-22 09:04:04.51	8.39	21.01	-42.7	-47.3	10.8	3.37e-03	0	60	0	801112064	56	6329
2026-01-22 09:04:05.52	8.22	20.91	-42.6	-47.1	11.1	1.81e-03	0	60	0	803209216	56	6179
2026-01-22 09:04:06.53	8.06	20.80	-42.2	-46.3	11.9	7.35e-04	0	60	0	804257792	56	5624
2026-01-22 09:04:07.54	7.90	20.70	-42.1	-46.1	12.1	2.98e-04	0	60	0	806354944	56	5526
2026-01-22 09:04:08.55	7.74	20.59	-42.1	-46.2	12.1	3.77e-04	0	60	0	808452096	56	5538
2026-01-22 09:04:09.56	7.57	20.49	-42.2	-46.3	12.0	2.90e-04	0	60	0	810549248	56	5603
2026-01-22 09:04:10.56	7.42	20.38	-42.4	-46.7	11.5	5.35e-04	0	60	0	812646400	56	5872
2026-01-22 09:04:11.57	7.26	20.28	-42.4	-46.9	11.3	8.73e-04	0	60	0	813694976	56	5996
2026-01-22 09:04:12.58	7.10	20.17	-42.5	-46.9	11.2	1.17e-03	0	60	0	815792128	56	6051
2026-01-22 09:04:13.59	6.94	20.07	-42.5	-46.9	11.3	1.42e-03	0	60	0	817889280	56	6013
2026-01-22 09:04:14.60	6.79	19.97	-42.5	-46.9	11.2	1.75e-03	0	60	0	819986432	56	6039
2026-01-22 09:04:15.62	6.63	19.86	-42.1	-46.1	12.0	6.78e-04	0	60	0	822083584	56	5522
2026-01-22 09:04:16.62	6.48	19.76	-42.1	-46.1	12.1	2.46e-04	0	60	0	823132160	56	5480
2026-01-22 09:04:17.63	6.33	19.66	-41.7	-45.5	12.5	1.69e-04	0	60	0	825229312	55	5425
2026-01-22 09:04:18.64	6.18	19.55	-41.6	-45.2	12.7	6.10e-05	0	60	0	827326464	55	5246
2026-01-22 09:04:19.65	6.03	19.45	-41.6	-45.2	12.8	5.64e-05	0	60	0	829423616	55	5249
2026-01-22 09:04:20.66	5.88	19.35	-41.6	-45.3	12.6	7.47e-05	0	60	0	831520768	55	5328
2026-01-22 09:04:21.67	5.73	19.25	-41.8	-45.7	12.2	1.94e-04	0	60	0	832569344	55	5592
2026-01-22 09:04:22.68	5.58	19.14	-41.9	-45.9	12.0	2.53e-04	0	60	0	834666496	55	5708
2026-01-22 09:04:23.69	5.44	19.04	-42.2	-46.7	11.2	5.39e-04	0	60	0	836763648	55	6234
2026-01-22 09:04:24.70	5.29	18.94	-42.3	-47.0	10.8	1.99e-03	0	60	0	838860800	55	6468
2026-01-22 09:04:25.71	5.15	18.84	-42.6	-47.8	10.0	5.07e-03	0	60	0	840957952	55	7050
2026-01-22 09:04:26.72	5.01	18.74	-43.0	-48.7	9.3	1.11e-02	0	60	0	842006528	56	7386
2026-01-22 09:04:27.73	4.86	18.64	-43.2	-49.3	8.6	2.69e-02	0	60	0	844103680	56	7905
2026-01-22 09:04:28.74	4.72	18.54	-43.3	-49.8	8.0	6.32e-02	0	60	0	846200832	57	7984
2026-01-22 09:04:29.75	4.58	18.43	-43.4	-50.2	7.6	8.44e-02	0	60	0	848297984	57	8276
2026-01-22 09:04:30.75	4.45	18.34	-43.4	-50.3	7.6	1.01e-01	0	60	0	850395136	57	8375
2026-01-22 09:04:31.76	4.31	18.24	-43.3	-49.9	7.9	8.71e-02	0	60	0	851443712	57	8007
2026-01-22 09:04:32.77	4.17	18.14	-43.2	-49.3	8.4	6.37e-02	0	60	0	853540864	57	7526
2026-01-22 09:04:33.78	4.03	18.04	-43.0	-48.7	9.1	3.15e-02	0	60	0	855638016	57	6979
2026-01-22 09:04:34.80	3.90	17.94	-42.8	-48.1	9.7	1.50e-02	0	60	0	857735168	57	6501
2026-01-22 09:04:35.80	3.76	17.84	-42.5	-47.5	10.3	9.04e-03	0	60	0	859832320	57	6092
2026-01-22 09:04:36.81	3.63	17.74	-42.4	-47.3	10.5	4.31e-03	0	60	0	860880896	56	6302
2026-01-22 09:04:37.82	3.50	17.64	-42.3	-47.0	10.8	2.66e-03	0	60	0	862978048	56	6102
2026-01-22 09:04:38.83	3.37	17.54	-42.3	-47.0	10.8	2.29e-03	0	60	0	865075200	56	6071
2026-01-22 09:04:39.84	3.23	17.44	-42.4	-47.4	10.4	2.77e-03	0	60	0	867172352	56	6359
2026-01-22 09:04:40.85	3.10	17.35	-42.5	-47.5	10.2	5.13e-03	0	60	0	869269504	56	6452
2026-01-22 09:04:41.86	2.98	17.25	-42.6	-47.9	9.7	8.45e-03	0	60	0	871366656	56	6776
2026-01-22 09:04:42.87	2.85	17.15	-42.7	-48.3	9.3	1.41e-02	0	60	0	872415232	56	7095
2026-01-22 09:04:43.88	2.72	17.05	-42.7	-48.3	9.2	1.82e-02	0	60	0	874512384	56	7107
2026-01-22 09:04:44.89	2.59	16.96	-42.7	-48.2	9.3	2.12e-02	0	60	0	876609536	56	7026
2026-01-22 09:04:45.90	2.47	16.86	-42.5	-47.8	9.7	1.27e-02	0	60	0	878706688	56	6668
2026-01-22 09:04:46.91	2.34	16.76	-42.4	-47.7	9.8	1.35e-02	0	60	0	880803840	56	6587
2026-01-22 09:04:47.92	2.22	16.67	-42.2	-47.1	10.3	5.56e-03	0	60	0	881852416	56	6191
2026-01-22 09:04:48.92	2.10	16.57	-42.3	-47.3	10.2	5.41e-03	0	60	0	883949568	56	6288
2026-01-22 09:04:49.93	1.97	16.48	-42.0	-46.6	10.9	3.67e-03	0	60	0	886046720	56	5816
2026-01-22 09:04:50.94	1.85	16.38	-42.1	-46.9	10.5	3.44e-03	0	60	0	888143872	56	6037
2026-01-22 09:04:51.95	1.73	16.28	-41.7	-46.3	10.9	2.56e-03	0	60	0	890241024	55	5969
2026-01-22 09:04:52.96	1.61	16.19	-41.8	-46.5	10.6	2.63e-03	0	60	0	891289600	55	6127
2026-01-22 09:04:53.97	1.49	16.09	-41.9	-46.9	10.3	4.70e-03	0	60	0	893386752	55	6359
2026-01-22 09:04:54.98	1.37	16.00	-42.0	-47.2	9.8	7.25e-03	0	60	0	895483904	55	6614
2026-01-22 09:04:55.99	1.25	15.91	-42.1	-47.4	9.8	8.80e-03	0	60	0	897581056	55	6730
2026-01-22 09:04:57.00	1.14	15.81	-42.2	-47.6	9.5	9.86e-03	0	60	0	899678208	55	6942
2026-01-22 09:04:58.01	1.02	15.72	-42.1	-47.4	9.6	1.28e-02	0	60	0	900726784	55	6769
2026-01-22 09:04:59.02	0.90	15.62	-42.1	-47.4	9.7	1.29e-02	0	60	0	902823936	55	6743
2026-01-22 09:05:00.03	0.79	15.53	-42.1	-47.5	9.5	1.40e-02	0	60	0	904921088	55	6851
2026-01-22 09:05:01.04	0.68	15.44	-42.1	-47.6	9.3	1.82e-02	0	60	0	907018240	55	6892
2026-01-22 09:05:02.05	0.56	15.34	-42.1	-47.6	9.3	1.64e-02	0	60	0	909115392	55	6895
2026-01-22 09:05:03.05	0.45	15.25	-41.9	-47.2	9.6	1.29e-02	0	60	0	910163968	55	6630
2026-01-22 09:05:04.07	0.34	15.16	-41.9	-47.4	9.4	1.62e-02	0	60	0	912261120	55	6732
2026-01-22 09:05:05.08	0.23	15.07	-42.0	-47.9	8.8	3.08e-02	0	60	0	914358272	55	7128
2026-01-22 09:05:06.09	0.12	14.97	-41.9	-47.6	8.9	3.24e-02	0	60	0	916455424	55	6925
2026-01-22 09:05:07.09	0.01	14.88	-41.8	-47.6	8.8	2.90e-02	0	60	0	918552576	55	6937
2026-01-22 09:05:08.10	359.90	14.79	-41.7	-47.3	9.0	2.31e-02	0	60	0	919601152	55	6718
2026-01-22 09:05:09.11	359.79	14.70	-41.6	-47.4	8.9	2.49e-02	0	60	0	921698304	55	6737
2026-01-22 09:05:10.12	359.68	14.61	-41.7	-47.7	8.5	3.43e-02	0	60	0	923795456	55	6978
2026-01-22 09:05:11.13	359.57	14.52	-41.6	-47.4	8.6	3.74e-02	0	60	0	925892608	55	6794
2026-01-22 09:05:12.14	359.47	14.43	-41.5	-47.2	8.8	3.85e-02	0	60	0	927989760	55	6619
2026-01-22 09:05:13.15	359.36	14.34	-41.3	-46.6	9.4	2.37e-02	0	60	0	929038336	54	6561
2026-01-22 09:05:14.16	359.26	14.25	-41.1	-46.2	9.7	1.30e-02	0	60	0	931135488	54	6274
2026-01-22 09:05:15.17	359.15	14.16	-41.1	-46.4	9.5	1.15e-02	0	60	0	933232640	54	6419
2026-01-22 09:05:16.18	359.05	14.07	-41.1	-46.4	9.6	1.12e-02	0	60	0	935329792	54	6391
2026-01-22 09:05:17.19	358.95	13.98	-41.2	-46.9	9.1	1.84e-02	0	60	0	937426944	54	6744
2026-01-22 09:05:18.20	358.84	13.89	-41.3	-47.1	8.8	2.58e-02	0	60	0	939524096	54	6880
2026-01-22 09:05:19.21	358.74	13.80	-41.4	-47.5	8.3	3.95e-02	0	60	0	940572672	54	7255
2026-01-22 09:05:20.22	358.64	13.71	-41.5	-48.2	7.6	7.89e-02	0	60	0	942669824	54	7822
2026-01-22 09:05:21.23	358.54	13.62	-41.6	-48.8	6.9	1.28e-01	0	60	0	944766976	54	8426
2026-01-22 09:05:22.24	358.44	13.54	-41.7	-49.6	6.1	2.25e-01	0	60	0	946864128	54	9229
2026-01-22 09:05:23.25	358.34	13.45	-41.7	-49.8	5.9	3.52e-01	0	60	0	948961280	54	9486
2026-01-22 09:05:24.26	358.24	13.36	-41.6	-50.1	5.7	4.13e-01	0	60	0	950009856	54	9727
2026-01-22 09:05:25.27	358.14	13.27	-41.6	-50.0	5.7	4.16e-01	0	60	0	952107008	54	9666
2026-01-22 09:05:26.28	358.05	13.19	-41.5	-50.7	5.1	6.09e-01	0	60	0	954204160	54	10435
2026-01-22 09:05:27.29	357.95	13.10	-41.8	-50.9	5.1	8.37e-01	0	60	0	956301312	54	10711
2026-01-22 09:05:28.30	357.85	13.01	-40.9	-55.0	3.8	1.49e+00	0	60	104	956301312	53	18137
2026-01-22 09:05:29.31	357.76	12.93	-41.4	-51.6	4.5	1.47e+00	0	60	0	956301312	53	12304
2026-01-22 09:05:30.32	357.66	12.84	-42.1	-54.5	3.8	1.48e+00	0	60	104	956301312	55	15362
2026-01-22 09:05:31.33	357.57	12.75	-41.3	-50.1	5.4	6.24e-01	0	60	0	956301312	54	9740
2026-01-22 09:05:32.34	357.47	12.67	-41.2	-49.9	5.4	4.98e-01	0	60	0	958398464	54	9572
2026-01-22 09:05:33.34	357.38	12.58	-41.1	-49.6	5.6	4.54e-01	0	60	0	960495616	54	9223
2026-01-22 09:05:34.35	357.29	12.50	-41.1	-49.6	5.6	4.66e-01	0	60	0	962592768	54	9258
2026-01-22 09:05:35.36	357.19	12.41	-40.9	-49.4	5.7	4.09e-01	0	60	0	964689920	53	9538
2026-01-22 09:05:36.37	357.10	12.33	-40.9	-49.8	5.3	4.91e-01	0	60	0	965738496	53	10011
2026-01-22 09:05:37.38	357.01	12.24	-40.8	-50.7	4.6	1.29e+00	0	60	0	967835648	53	11139
2026-01-22 09:05:38.39	356.92	12.16	-41.2	-51.2	4.6	9.39e-01	0	60	0	969932800	53	11755
2026-01-22 09:05:39.40	356.83	12.07	-40.5	-54.9	3.8	1.49e+00	0	60	104	969932800	52	19043
2026-01-22 09:05:40.41	356.74	11.99	-40.9	-53.4	3.8	1.49e+00	0	60	104	969932800	52	16043
2026-01-22 09:05:41.42	356.65	11.90	-41.5	-54.6	3.8	1.49e+00	0	60	104	969932800	53	17332
2026-01-22 09:05:42.43	356.56	11.82	-41.1	-53.9	3.8	1.49e+00	0	60	104	969932800	53	15997
2026-01-22 09:05:43.44	356.48	11.74	-41.0	-54.2	3.8	1.49e+00	0	60	104	969932800	53	16598
2026-01-22 09:05:44.45	356.39	11.65	-41.0	-54.6	3.8	1.49e+00	0	60	104	969932800	53	17302
2026-01-22 09:05:45.45	356.30	11.57	-41.0	-54.8	3.8	1.49e+00	0	60	104	969932800	53	17885
2026-01-22 09:05:46.46	356.22	11.49	-40.7	-55.1	3.8	1.49e+00	0	60	104	969932800	53	18387
2026-01-22 09:05:47.47	356.13	11.41	-40.3	-54.9	3.8	1.49e+00	0	60	104	969932800	52	18980
2026-01-22 09:05:48.48	356.04	11.32	-40.5	-55.0	3.8	1.49e+00	0	60	104	969932800	52	19338
2026-01-22 09:05:49.49	355.96	11.24	-40.9	-55.3	3.8	1.49e+00	0	60	104	969932800	52	19911
2026-01-22 09:05:50.50	355.87	11.16	-40.5	-55.1	3.8	1.49e+00	0	60	104	969932800	52	19487
2026-01-22 09:05:51.51	355.79	11.08	-40.2	-54.8	3.8	1.49e+00	0	60	104	969932800	52	18743
2026-01-22 09:05:52.52	355.71	11.00	-40.2	-54.7	3.8	1.49e+00	0	60	104	969932800	52	18731
2026-01-22 09:05:53.53	355.62	10.91	-40.2	-54.8	3.8	1.49e+00	0	60	104	969932800	52	18842
2026-01-22 09:05:54.54	355.54	10.83	-40.1	-54.7	3.8	1.49e+00	0	60	104	969932800	52	18703
2026-01-22 09:05:55.55	355.46	10.75	-40.1	-54.7	3.8	1.49e+00	0	60	104	969932800	52	18605
2026-01-22 09:05:56.56	355.38	10.67	-40.1	-54.7	3.8	1.49e+00	0	60	104	969932800	52	18685
2026-01-22 09:05:57.57	355.30	10.59	-40.1	-54.7	3.8	1.49e+00	0	60	104	969932800	52	18658
2026-01-22 09:05:58.58	355.22	10.51	-40.4	-55.0	3.8	1.49e+00	0	60	104	969932800	52	19285
2026-01-22 09:05:59.59	355.14	10.43	-40.4	-55.0	3.8	1.49e+00	0	60	104	969932800	52	19357
2026-01-22 09:06:00.60	355.06	10.35	-40.4	-55.0	3.8	1.49e+00	0	60	104	969932800	52	19195
2026-01-22 09:06:01.61	354.98	10.27	-40.5	-55.0	3.8	1.49e+00	0	60	104	969932800	52	19364
2026-01-22 09:06:02.62	354.90	10.19	-40.3	-54.9	3.8	1.49e+00	0	60	104	969932800	52	19079
2026-01-22 09:06:03.62	354.82	10.11	-40.3	-54.9	3.8	1.49e+00	0	60	104	969932800	52	18955
2026-01-22 09:06:04.63	354.74	10.03	-40.4	-54.9	3.8	1.49e+00	0	60	104	969932800	52	19067
2026-01-22 09:06:05.64	354.66	9.95	-40.4	-55.0	3.8	1.49e+00	0	60	104	969932800	52	19364
2026-01-22 09:06:06.65	354.59	9.88	-40.3	-54.8	3.8	1.49e+00	0	60	104	969932800	52	18908
2026-01-22 09:06:07.66	354.51	9.80	-40.3	-54.8	3.8	1.49e+00	0	60	104	969932800	52	18899
2026-01-22 09:06:08.67	354.43	9.72	-40.3	-54.9	3.8	1.49e+00	0	60	104	969932800	52	19041
2026-01-22 09:06:09.68	354.36	9.64	-40.4	-55.0	3.8	1.49e+00	0	60	104	969932800	52	19317
2026-01-22 09:06:10.69	354.28	9.56	-40.2	-54.8	3.8	1.49e+00	0	60	104	969932800	52	18883
2026-01-22 09:06:11.70	354.21	9.49	-40.3	-54.9	3.8	1.49e+00	0	60	104	969932800	52	18988
2026-01-22 09:06:12.71	354.13	9.41	-40.3	-54.9	3.8	1.49e+00	0	60	104	969932800	52	19038
2026-01-22 09:06:13.72	354.06	9.33	-40.4	-55.0	3.8	1.49e+00	0	60	104	969932800	52	19244
2026-01-22 09:06:14.73	353.99	9.25	-40.3	-54.8	3.8	1.49e+00	0	60	104	969932800	52	18937
2026-01-22 09:06:15.74	353.91	9.18	-40.3	-54.9	3.8	1.49e+00	0	60	104	969932800	52	19069
