passes_logs/2026/01/22/R2.0S_Moscow/R2.0S_Moscow__20260122_015427_NOAA_21_JPSS-2_rec.log

#Pass ID: 20260122_015427_NOAA 21 (JPSS-2)
#Satellite: NOAA 21 (JPSS-2)
#Configuration: NOAA-21
#almurnet v.1.7.20251203
#Start time: 2026-01-22 01:55:55

#Version: 2.2.20231116
#Station: R2.0S_Moscow
#Location: 37.707566 lon 55.798166 lat
#TLE: 1 54234U 22150A   26020.93347024  .00000206  00000+0  11859-3 0  9994
#TLE: 2 54234  98.7506 321.7615 0000627 245.8100 114.3011 14.19536899165654

#Time	Az	El	Level	Level2	SNR	BER	BlckErr	Temp	State	Recorded	gain1	gain2
2026-01-22 01:55:55.00	0.13	6.51	-45.1	-56.8	3.8	8.48e-01	0	58	0	0	61	14143
2026-01-22 01:55:56.00	0.02	6.56	-45.5	-58.0	3.8	1.49e+00	0	58	104	0	63	14375
2026-01-22 01:55:57.01	359.90	6.61	-45.5	-57.9	3.8	1.49e+00	0	58	104	0	63	14292
2026-01-22 01:55:58.02	359.78	6.67	-45.4	-57.9	3.8	1.49e+00	0	58	104	0	62	15107
2026-01-22 01:55:59.03	359.67	6.72	-45.4	-57.8	3.8	1.49e+00	0	58	104	0	62	14989
2026-01-22 01:56:00.04	359.55	6.77	-45.3	-57.8	3.8	1.49e+00	0	58	104	0	62	14958
2026-01-22 01:56:01.05	359.43	6.82	-45.2	-57.7	3.8	1.49e+00	0	58	104	0	62	14767
2026-01-22 01:56:02.06	359.31	6.87	-45.1	-57.6	3.8	1.49e+00	0	58	104	0	62	14664
2026-01-22 01:56:03.07	359.19	6.93	-44.9	-57.4	3.8	1.49e+00	0	58	104	0	61	15053
2026-01-22 01:56:04.08	359.07	6.98	-44.2	-56.6	3.8	1.49e+00	0	58	104	0	60	14644
2026-01-22 01:56:05.09	358.95	7.03	-42.1	-54.4	3.8	1.49e+00	0	58	104	0	56	14271
2026-01-22 01:56:06.10	358.83	7.08	-40.4	-52.8	3.8	1.49e+00	0	58	104	0	52	14978
2026-01-22 01:56:07.11	358.71	7.14	-40.4	-52.8	3.8	1.49e+00	0	58	104	0	52	14900
2026-01-22 01:56:08.12	358.59	7.19	-40.4	-52.8	3.8	1.49e+00	0	58	104	0	52	14906
2026-01-22 01:56:09.12	358.47	7.24	-40.4	-52.8	3.8	1.49e+00	0	58	104	0	52	14917
2026-01-22 01:56:10.14	358.34	7.29	-40.4	-52.7	3.8	1.49e+00	0	58	104	0	52	14859
2026-01-22 01:56:11.15	358.22	7.35	-40.4	-52.7	3.8	1.49e+00	0	58	104	0	52	14875
2026-01-22 01:56:12.16	358.10	7.40	-40.4	-52.7	3.8	1.49e+00	0	58	104	0	52	14867
2026-01-22 01:56:13.17	357.98	7.45	-40.4	-52.7	3.8	1.49e+00	0	58	104	0	52	14832
2026-01-22 01:56:14.18	357.85	7.50	-40.4	-52.7	3.8	1.49e+00	0	58	104	0	52	14866
2026-01-22 01:56:15.19	357.73	7.56	-40.4	-52.7	3.8	1.49e+00	0	58	104	0	52	14851
2026-01-22 01:56:16.20	357.60	7.61	-40.4	-52.7	3.8	1.49e+00	0	58	104	0	52	14873
2026-01-22 01:56:17.21	357.48	7.66	-40.4	-52.8	3.8	1.49e+00	0	58	104	0	52	14880
2026-01-22 01:56:18.23	357.35	7.71	-40.4	-52.7	3.8	1.49e+00	0	58	104	0	52	14827
2026-01-22 01:56:19.24	357.22	7.76	-40.4	-52.7	3.8	1.49e+00	0	58	104	0	52	14836
2026-01-22 01:56:20.25	357.10	7.82	-40.4	-52.7	3.8	1.49e+00	0	58	104	0	52	14853
2026-01-22 01:56:21.26	356.97	7.87	-40.4	-52.7	3.8	1.49e+00	0	58	104	0	52	14864
2026-01-22 01:56:22.27	356.84	7.92	-40.4	-52.7	3.8	1.49e+00	0	58	104	0	52	14828
2026-01-22 01:56:23.28	356.71	7.97	-40.4	-52.7	3.8	1.49e+00	0	58	104	0	52	14830
2026-01-22 01:56:24.29	356.58	8.02	-40.4	-52.7	3.8	1.49e+00	0	58	104	0	52	14821
2026-01-22 01:56:25.30	356.45	8.08	-40.4	-52.7	3.8	1.49e+00	0	58	104	0	52	14787
2026-01-22 01:56:26.31	356.32	8.13	-40.4	-52.7	3.8	1.49e+00	0	58	104	0	52	14836
2026-01-22 01:56:27.32	356.19	8.18	-40.4	-52.7	3.8	1.49e+00	0	58	104	0	52	14824
2026-01-22 01:56:28.33	356.06	8.23	-40.4	-52.7	3.8	1.49e+00	0	58	104	0	52	14775
2026-01-22 01:56:29.34	355.93	8.28	-40.4	-52.7	3.8	1.49e+00	0	58	104	0	52	14824
2026-01-22 01:56:30.35	355.80	8.34	-40.4	-52.7	3.8	1.49e+00	0	58	104	0	52	14826
2026-01-22 01:56:31.36	355.67	8.39	-40.4	-52.7	3.8	1.49e+00	0	58	104	0	52	14811
2026-01-22 01:56:32.37	355.54	8.44	-40.4	-52.7	3.8	1.49e+00	0	58	104	0	52	14806
2026-01-22 01:56:33.38	355.40	8.49	-40.4	-52.7	3.8	1.49e+00	0	58	104	0	52	14767
2026-01-22 01:56:34.39	355.27	8.54	-40.4	-52.7	3.8	1.49e+00	0	58	104	0	52	14729
2026-01-22 01:56:35.41	355.13	8.59	-40.4	-52.7	3.8	1.49e+00	0	58	104	0	52	14773
2026-01-22 01:56:36.41	355.00	8.65	-40.4	-52.7	3.8	1.49e+00	0	58	104	0	52	14829
2026-01-22 01:56:37.43	354.87	8.70	-40.4	-52.7	3.8	1.49e+00	0	58	104	0	52	14768
2026-01-22 01:56:38.44	354.73	8.75	-40.4	-52.7	3.8	1.49e+00	0	58	104	0	52	14811
2026-01-22 01:56:39.45	354.59	8.80	-40.4	-52.7	3.8	1.49e+00	0	58	104	0	52	14785
2026-01-22 01:56:40.46	354.46	8.85	-40.4	-52.7	3.8	1.49e+00	0	58	104	0	52	14784
2026-01-22 01:56:41.47	354.32	8.90	-40.4	-52.7	3.8	1.49e+00	0	58	104	0	52	14761
2026-01-22 01:56:42.48	354.18	8.95	-40.4	-52.7	3.8	1.49e+00	0	58	104	0	52	14821
2026-01-22 01:56:43.49	354.05	9.00	-40.3	-52.7	3.8	1.49e+00	0	58	104	0	52	14760
2026-01-22 01:56:44.50	353.91	9.06	-40.3	-52.7	3.8	1.49e+00	0	58	104	0	52	14792
2026-01-22 01:56:45.51	353.77	9.11	-40.3	-52.7	3.8	1.49e+00	0	58	104	0	52	14765
2026-01-22 01:56:46.52	353.63	9.16	-40.3	-52.7	3.8	1.49e+00	0	58	104	0	52	14794
2026-01-22 01:56:47.53	353.49	9.21	-40.3	-52.7	3.8	1.49e+00	0	58	104	0	52	14714
2026-01-22 01:56:48.54	353.35	9.26	-40.4	-52.7	3.8	1.49e+00	0	58	104	0	52	14798
2026-01-22 01:56:49.55	353.21	9.31	-40.4	-52.7	3.8	1.49e+00	0	58	104	0	52	14816
2026-01-22 01:56:50.56	353.07	9.36	-40.7	-53.0	3.8	1.49e+00	0	58	104	0	52	15288
2026-01-22 01:56:51.57	352.92	9.41	-40.5	-52.8	3.8	1.49e+00	0	58	104	0	52	15044
2026-01-22 01:56:52.58	352.78	9.46	-40.5	-52.9	3.8	1.49e+00	0	58	104	0	52	15052
2026-01-22 01:56:53.59	352.64	9.51	-40.7	-53.0	3.8	1.49e+00	0	58	104	0	52	15305
2026-01-22 01:56:54.60	352.49	9.56	-40.8	-53.1	3.8	1.49e+00	0	58	104	0	52	15426
2026-01-22 01:56:55.61	352.35	9.61	-40.7	-53.0	3.8	1.49e+00	0	58	104	0	52	15396
2026-01-22 01:56:56.62	352.21	9.66	-40.7	-53.0	3.8	1.49e+00	0	58	104	0	52	15376
2026-01-22 01:56:57.63	352.06	9.71	-40.7	-53.0	3.8	1.49e+00	0	58	104	0	52	15317
2026-01-22 01:56:58.64	351.92	9.76	-40.7	-53.0	3.8	1.49e+00	0	58	104	0	52	15400
2026-01-22 01:56:59.65	351.77	9.81	-40.7	-53.0	3.8	1.49e+00	0	58	104	0	52	15334
2026-01-22 01:57:00.66	351.62	9.86	-40.6	-53.0	3.8	1.49e+00	0	58	104	0	52	15299
2026-01-22 01:57:01.67	351.48	9.91	-40.7	-53.0	3.8	1.49e+00	0	58	104	0	52	15387
2026-01-22 01:57:02.68	351.33	9.96	-40.9	-53.3	3.8	1.49e+00	0	58	104	0	52	15761
2026-01-22 01:57:03.69	351.18	10.01	-40.6	-53.0	3.8	1.49e+00	0	58	104	0	52	15274
2026-01-22 01:57:04.70	351.03	10.06	-40.6	-53.0	3.8	1.49e+00	0	58	104	0	52	15344
2026-01-22 01:57:05.70	350.88	10.11	-40.9	-53.3	3.8	1.49e+00	0	58	104	0	52	15770
2026-01-22 01:57:06.71	350.73	10.16	-40.8	-53.2	3.8	1.49e+00	0	58	104	0	52	15594
2026-01-22 01:57:07.72	350.58	10.21	-40.7	-53.1	3.8	1.49e+00	0	58	104	0	52	15425
2026-01-22 01:57:08.73	350.43	10.26	-40.9	-53.2	3.8	1.49e+00	0	58	104	0	52	15701
2026-01-22 01:57:09.74	350.28	10.31	-40.9	-53.2	3.8	1.49e+00	0	58	104	0	52	15701
2026-01-22 01:57:10.75	350.13	10.36	-40.8	-53.1	3.8	1.49e+00	0	58	104	0	52	15482
2026-01-22 01:57:11.76	349.98	10.41	-40.8	-53.1	3.8	1.49e+00	0	58	104	0	52	15541
2026-01-22 01:57:12.78	349.82	10.46	-40.9	-53.3	3.8	1.49e+00	0	58	104	0	52	15884
2026-01-22 01:57:13.79	349.67	10.51	-40.8	-53.1	3.8	1.49e+00	0	58	104	0	52	15505
2026-01-22 01:57:14.80	349.52	10.56	-41.1	-53.4	3.8	1.49e+00	0	58	104	0	52	16027
2026-01-22 01:57:15.81	349.36	10.60	-40.7	-53.1	3.8	1.49e+00	0	58	104	0	52	15470
2026-01-22 01:57:16.81	349.21	10.65	-40.9	-53.3	3.8	1.49e+00	0	58	104	0	52	15893
2026-01-22 01:57:17.82	349.05	10.70	-41.0	-53.4	3.8	1.49e+00	0	58	104	0	52	15972
2026-01-22 01:57:18.83	348.90	10.75	-41.2	-53.5	3.8	1.49e+00	0	58	104	0	52	16205
2026-01-22 01:57:19.84	348.74	10.80	-40.9	-53.3	3.8	1.49e+00	0	58	104	0	52	15765
2026-01-22 01:57:20.85	348.58	10.85	-41.1	-53.5	3.8	1.49e+00	0	58	104	0	52	16159
2026-01-22 01:57:21.86	348.43	10.89	-41.1	-53.5	3.8	1.49e+00	0	58	104	0	52	16235
2026-01-22 01:57:22.87	348.27	10.94	-41.2	-53.5	3.8	1.49e+00	0	58	104	0	52	16279
2026-01-22 01:57:23.88	348.11	10.99	-41.1	-53.5	3.8	1.49e+00	0	58	104	0	52	16168
2026-01-22 01:57:24.89	347.95	11.04	-41.2	-53.5	3.8	1.49e+00	0	58	104	0	52	16279
2026-01-22 01:57:25.90	347.79	11.08	-41.1	-53.5	3.8	1.49e+00	0	58	104	0	52	16170
2026-01-22 01:57:26.91	347.63	11.13	-41.2	-53.6	3.8	1.49e+00	0	58	104	0	53	15481
2026-01-22 01:57:27.92	347.47	11.18	-41.2	-53.5	3.8	1.49e+00	0	58	104	0	53	15261
2026-01-22 01:57:28.93	347.31	11.23	-41.2	-53.5	3.8	1.49e+00	0	58	104	0	53	15357
2026-01-22 01:57:29.93	347.15	11.27	-41.1	-53.5	3.8	1.49e+00	0	58	104	0	53	15236
2026-01-22 01:57:30.95	346.99	11.32	-41.2	-53.5	3.8	1.49e+00	0	58	104	0	53	15340
2026-01-22 01:57:31.96	346.82	11.37	-41.2	-53.5	3.8	1.49e+00	0	58	104	0	53	15299
2026-01-22 01:57:32.96	346.66	11.41	-41.2	-53.6	3.8	1.49e+00	0	58	104	0	53	15409
2026-01-22 01:57:33.98	346.50	11.46	-41.0	-53.4	3.8	1.49e+00	0	58	104	0	53	15097
2026-01-22 01:57:34.98	346.33	11.50	-40.9	-53.3	3.8	1.49e+00	0	58	104	0	53	14923
2026-01-22 01:57:35.99	346.17	11.55	-41.2	-53.6	3.8	1.49e+00	0	58	104	0	53	15474
2026-01-22 01:57:37.00	346.00	11.60	-41.1	-53.4	3.8	1.49e+00	0	58	104	0	53	15162
2026-01-22 01:57:38.01	345.84	11.64	-40.8	-53.2	3.8	1.49e+00	0	58	104	0	53	14746
2026-01-22 01:57:39.02	345.67	11.69	-40.9	-53.2	3.8	1.49e+00	0	58	104	0	53	14813
2026-01-22 01:57:40.03	345.50	11.73	-41.1	-53.5	3.8	1.49e+00	0	58	104	0	53	15255
2026-01-22 01:57:41.04	345.34	11.78	-40.9	-53.3	3.8	1.49e+00	0	58	104	0	53	14917
2026-01-22 01:57:42.05	345.17	11.82	-40.9	-53.2	3.8	1.49e+00	0	58	104	0	53	14764
2026-01-22 01:57:43.06	345.00	11.87	-40.8	-53.1	3.8	1.49e+00	0	58	104	0	53	14658
2026-01-22 01:57:44.07	344.83	11.91	-40.9	-53.2	3.8	1.49e+00	0	58	104	0	53	14780
2026-01-22 01:57:45.07	344.66	11.96	-41.0	-53.4	3.8	1.49e+00	0	58	104	0	53	15086
2026-01-22 01:57:46.08	344.49	12.00	-40.9	-53.2	3.8	1.49e+00	0	58	104	0	53	14859
2026-01-22 01:57:47.09	344.32	12.05	-40.7	-53.0	3.8	1.49e+00	0	58	104	0	53	14445
2026-01-22 01:57:48.10	344.15	12.09	-40.8	-53.2	3.8	1.49e+00	0	58	104	0	53	14737
2026-01-22 01:57:49.11	343.98	12.14	-41.0	-53.3	3.8	1.49e+00	0	58	104	0	53	14940
2026-01-22 01:57:50.12	343.81	12.18	-40.8	-53.1	3.8	1.49e+00	0	58	104	0	53	14600
2026-01-22 01:57:51.13	343.63	12.22	-40.7	-53.0	3.8	1.49e+00	0	58	104	0	53	14524
2026-01-22 01:57:52.14	343.46	12.27	-40.8	-53.1	3.8	1.49e+00	0	58	104	0	53	14635
2026-01-22 01:57:53.15	343.29	12.31	-40.8	-53.1	3.8	1.49e+00	0	58	104	0	53	14634
2026-01-22 01:57:54.16	343.11	12.35	-40.8	-53.1	3.8	1.49e+00	0	58	104	0	53	14588
2026-01-22 01:57:55.17	342.94	12.40	-40.6	-53.0	3.8	1.49e+00	0	58	104	0	53	14401
2026-01-22 01:57:56.18	342.76	12.44	-40.7	-52.9	3.8	1.49e+00	0	58	104	0	53	14359
2026-01-22 01:57:57.19	342.59	12.48	-40.9	-53.2	3.8	1.49e+00	0	58	104	0	53	14789
2026-01-22 01:57:58.20	342.41	12.52	-40.7	-53.0	3.8	1.49e+00	0	58	104	0	53	14489
2026-01-22 01:57:59.21	342.23	12.57	-40.6	-52.9	3.8	1.49e+00	0	58	104	0	53	14321
2026-01-22 01:58:00.22	342.06	12.61	-40.7	-53.0	3.8	1.49e+00	0	58	104	0	53	14477
2026-01-22 01:58:01.23	341.88	12.65	-40.7	-53.0	3.8	1.49e+00	0	58	104	0	53	14428
2026-01-22 01:58:02.23	341.70	12.69	-40.6	-52.9	3.8	1.49e+00	0	58	104	0	53	14336
2026-01-22 01:58:03.24	341.52	12.73	-40.8	-53.1	3.8	1.49e+00	0	58	104	0	53	14591
2026-01-22 01:58:04.25	341.34	12.77	-40.6	-52.9	3.8	1.49e+00	0	58	104	0	53	14297
2026-01-22 01:58:05.26	341.16	12.82	-40.7	-53.1	3.8	1.49e+00	0	58	104	0	53	14593
2026-01-22 01:58:06.27	340.98	12.86	-40.8	-53.2	3.8	1.49e+00	0	58	104	0	53	14776
2026-01-22 01:58:07.28	340.80	12.90	-41.0	-53.2	3.8	1.49e+00	0	58	104	0	53	14872
2026-01-22 01:58:08.29	340.62	12.94	-40.6	-53.0	3.8	1.49e+00	0	58	104	0	53	14378
2026-01-22 01:58:09.30	340.44	12.98	-41.0	-53.4	3.8	1.49e+00	0	58	104	0	53	15142
2026-01-22 01:58:10.31	340.25	13.02	-41.1	-53.3	3.8	1.49e+00	0	58	104	0	53	14981
2026-01-22 01:58:11.32	340.07	13.06	-41.3	-52.6	3.8	1.49e+00	0	58	104	0	53	13864
2026-01-22 01:58:12.33	339.89	13.10	-40.9	-53.2	3.8	1.49e+00	0	58	104	0	53	14875
2026-01-22 01:58:13.34	339.70	13.14	-41.6	-53.0	3.8	1.49e+00	0	58	104	0	53	14393
2026-01-22 01:58:14.35	339.52	13.17	-41.9	-52.8	3.8	1.49e+00	0	58	104	0	54	13287
2026-01-22 01:58:15.36	339.33	13.21	-41.4	-48.2	5.4	5.89e-01	0	58	0	1048576	54	7892
2026-01-22 01:58:16.37	339.15	13.25	-41.4	-47.5	6.0	3.88e-01	0	58	0	4194304	54	7245
2026-01-22 01:58:17.38	338.96	13.29	-41.4	-47.2	6.4	2.87e-01	0	58	0	7340032	54	7009
2026-01-22 01:58:18.39	338.78	13.33	-41.4	-46.7	7.0	1.69e-01	0	58	0	10485760	54	6639
2026-01-22 01:58:19.40	338.59	13.37	-41.3	-46.3	7.5	1.37e-01	0	58	0	13631488	54	6318
2026-01-22 01:58:20.41	338.40	13.40	-40.7	-44.8	9.1	3.15e-02	0	58	0	16777216	53	5612
2026-01-22 01:58:21.42	338.21	13.44	-40.2	-43.7	10.3	6.11e-03	0	58	0	19922944	52	5240
2026-01-22 01:58:22.43	338.03	13.48	-40.0	-43.1	11.1	1.97e-03	0	58	0	23068672	52	4917
2026-01-22 01:58:23.44	337.84	13.51	-40.1	-43.2	11.2	1.18e-03	0	58	0	26214400	51	5222
2026-01-22 01:58:24.45	337.65	13.55	-40.5	-43.8	10.7	2.19e-03	0	58	0	29360128	51	5627
2026-01-22 01:58:25.46	337.46	13.59	-40.6	-43.9	10.7	3.45e-03	0	58	0	32505856	51	5671
2026-01-22 01:58:26.47	337.27	13.62	-40.1	-43.0	11.7	8.10e-04	0	58	0	35651584	51	5112
2026-01-22 01:58:27.48	337.08	13.66	-40.0	-42.8	11.9	2.90e-04	0	58	0	38797312	51	5037
2026-01-22 01:58:28.48	336.89	13.69	-40.3	-43.3	11.5	7.43e-04	0	58	0	41943040	51	5313
2026-01-22 01:58:29.49	336.69	13.73	-40.3	-43.2	11.7	8.10e-04	0	58	0	45088768	51	5245
2026-01-22 01:58:30.50	336.50	13.77	-40.3	-43.2	11.7	5.63e-04	0	58	0	48234496	51	5262
2026-01-22 01:58:31.51	336.31	13.80	-40.4	-43.3	11.6	7.26e-04	0	58	0	51380224	51	5316
2026-01-22 01:58:32.52	336.12	13.83	-40.4	-43.3	11.6	7.67e-04	0	58	0	54525952	51	5332
2026-01-22 01:58:33.53	335.92	13.87	-40.2	-43.0	11.9	3.62e-04	0	58	0	57671680	51	5135
2026-01-22 01:58:34.54	335.73	13.90	-40.3	-43.1	11.9	4.42e-04	0	58	0	60817408	51	5185
2026-01-22 01:58:35.55	335.53	13.94	-40.1	-42.9	12.2	2.07e-04	0	58	0	63963136	51	5047
2026-01-22 01:58:36.56	335.34	13.97	-40.3	-43.1	12.0	3.28e-04	0	58	0	67108864	51	5198
2026-01-22 01:58:37.57	335.14	14.00	-40.2	-43.0	12.1	2.82e-04	0	58	0	70254592	51	5117
2026-01-22 01:58:38.58	334.95	14.04	-40.3	-43.1	12.1	3.58e-04	0	58	0	73400320	51	5191
2026-01-22 01:58:39.59	334.75	14.07	-40.3	-43.0	12.1	2.17e-04	0	58	0	76546048	51	5148
2026-01-22 01:58:40.60	334.55	14.10	-40.3	-43.0	12.2	2.49e-04	0	58	0	79691776	51	5141
2026-01-22 01:58:41.61	334.36	14.13	-40.3	-43.1	12.1	2.93e-04	0	58	0	82837504	51	5179
2026-01-22 01:58:42.62	334.16	14.16	-40.3	-43.0	12.2	2.16e-04	0	58	0	85983232	51	5141
2026-01-22 01:58:43.63	333.96	14.19	-40.3	-43.0	12.2	2.20e-04	0	58	0	89128960	51	5124
2026-01-22 01:58:44.63	333.77	14.23	-40.3	-43.1	12.2	2.37e-04	0	58	0	92274688	51	5162
2026-01-22 01:58:45.64	333.57	14.26	-40.3	-43.1	12.2	2.27e-04	0	58	0	95420416	51	5162
2026-01-22 01:58:46.65	333.37	14.29	-40.3	-43.1	12.2	2.37e-04	0	58	0	98566144	51	5165
2026-01-22 01:58:47.66	333.17	14.32	-40.4	-43.1	12.2	2.28e-04	0	58	0	101711872	51	5211
2026-01-22 01:58:48.67	332.97	14.35	-40.4	-43.1	12.2	2.54e-04	0	58	0	104857600	51	5200
2026-01-22 01:58:49.68	332.77	14.38	-40.3	-43.0	12.3	1.70e-04	0	58	0	108003328	51	5136
2026-01-22 01:58:50.69	332.57	14.40	-40.3	-43.0	12.4	1.58e-04	0	58	0	111149056	51	5156
2026-01-22 01:58:51.70	332.36	14.43	-40.3	-43.0	12.4	1.25e-04	0	58	0	114294784	51	5113
2026-01-22 01:58:52.71	332.16	14.46	-40.2	-42.8	12.6	1.13e-04	0	58	0	117440512	51	5028
2026-01-22 01:58:53.72	331.96	14.49	-40.2	-42.8	12.6	7.01e-05	0	58	0	120586240	51	5021
2026-01-22 01:58:54.73	331.76	14.52	-40.2	-42.9	12.6	1.07e-04	0	58	0	123731968	51	5046
2026-01-22 01:58:55.74	331.56	14.55	-40.2	-42.8	12.6	1.06e-04	0	58	0	126877696	51	5024
2026-01-22 01:58:56.75	331.35	14.57	-40.2	-42.8	12.6	9.91e-05	0	58	0	130023424	51	5038
2026-01-22 01:58:57.76	331.15	14.60	-40.3	-42.9	12.5	8.92e-05	0	58	0	133169152	51	5059
2026-01-22 01:58:58.76	330.95	14.63	-40.3	-42.9	12.5	1.13e-04	0	58	0	136314880	51	5073
2026-01-22 01:58:59.77	330.74	14.65	-40.2	-42.8	12.6	1.05e-04	0	58	0	139460608	51	5019
2026-01-22 01:59:00.78	330.54	14.68	-40.1	-42.6	12.8	5.87e-05	0	58	0	142606336	51	4907
2026-01-22 01:59:01.79	330.33	14.70	-40.2	-42.7	12.8	5.95e-05	0	58	0	145752064	51	4952
2026-01-22 01:59:02.80	330.13	14.73	-40.2	-42.7	12.8	7.78e-05	0	58	0	148897792	51	4965
2026-01-22 01:59:03.81	329.92	14.75	-40.1	-42.6	12.8	6.33e-05	0	58	0	152043520	51	4919
2026-01-22 01:59:04.82	329.71	14.78	-40.1	-42.6	12.9	5.18e-05	0	58	0	155189248	51	4915
2026-01-22 01:59:05.83	329.51	14.80	-40.1	-42.6	12.9	6.25e-05	0	58	0	158334976	51	4902
2026-01-22 01:59:06.84	329.30	14.83	-40.2	-42.7	12.8	6.56e-05	0	58	0	161480704	51	4954
2026-01-22 01:59:07.85	329.09	14.85	-40.2	-42.8	12.7	6.40e-05	0	58	0	164626432	51	5010
2026-01-22 01:59:08.86	328.89	14.87	-40.2	-42.7	12.8	7.01e-05	0	58	0	167772160	51	4954
2026-01-22 01:59:09.87	328.68	14.90	-40.2	-42.7	12.8	6.94e-05	0	58	0	170917888	51	4965
2026-01-22 01:59:10.88	328.47	14.92	-40.2	-42.8	12.7	4.88e-05	0	58	0	174063616	51	4999
2026-01-22 01:59:11.89	328.26	14.94	-40.2	-42.8	12.7	8.16e-05	0	58	0	177209344	51	5002
2026-01-22 01:59:12.90	328.05	14.96	-40.3	-42.8	12.7	7.40e-05	0	58	0	180355072	51	5030
2026-01-22 01:59:13.91	327.84	14.98	-40.2	-42.8	12.7	6.56e-05	0	58	0	183500800	51	5016
2026-01-22 01:59:14.92	327.63	15.00	-40.3	-42.8	12.7	7.24e-05	0	58	0	186646528	51	5020
2026-01-22 01:59:15.93	327.42	15.02	-40.2	-42.8	12.7	7.09e-05	0	58	0	189792256	51	5014
2026-01-22 01:59:16.94	327.21	15.04	-40.3	-42.8	12.7	7.55e-05	0	58	0	192937984	51	5030
2026-01-22 01:59:17.95	327.00	15.06	-40.2	-42.8	12.8	7.55e-05	0	58	0	196083712	51	4993
2026-01-22 01:59:18.96	326.79	15.08	-40.2	-42.8	12.7	7.01e-05	0	58	0	199229440	51	4999
2026-01-22 01:59:19.97	326.58	15.10	-40.3	-42.8	12.7	8.39e-05	0	58	0	202375168	51	5040
2026-01-22 01:59:20.98	326.37	15.12	-40.2	-42.8	12.8	5.41e-05	0	58	0	205520896	51	4984
2026-01-22 01:59:21.99	326.16	15.14	-40.2	-42.7	12.8	5.26e-05	0	58	0	208666624	51	4943
2026-01-22 01:59:23.00	325.95	15.16	-40.1	-42.6	12.9	4.42e-05	0	58	0	211812352	51	4910
2026-01-22 01:59:24.01	325.74	15.18	-40.2	-42.6	12.9	4.65e-05	0	58	0	214958080	51	4926
2026-01-22 01:59:25.02	325.52	15.19	-40.1	-42.6	12.9	4.80e-05	0	58	0	218103808	51	4895
2026-01-22 01:59:26.03	325.31	15.21	-40.1	-42.6	12.9	4.34e-05	0	58	0	221249536	51	4894
2026-01-22 01:59:27.04	325.10	15.23	-40.1	-42.6	12.9	4.65e-05	0	58	0	224395264	51	4908
2026-01-22 01:59:28.05	324.89	15.24	-40.1	-42.6	12.9	5.03e-05	0	58	0	227540992	51	4915
2026-01-22 01:59:29.06	324.67	15.26	-40.1	-42.6	13.0	4.34e-05	0	58	0	230686720	51	4882
2026-01-22 01:59:30.07	324.46	15.27	-40.1	-42.5	13.0	3.12e-05	0	58	0	233832448	51	4855
2026-01-22 01:59:31.08	324.25	15.29	-40.1	-42.6	13.0	3.96e-05	0	58	0	236978176	51	4902
2026-01-22 01:59:32.09	324.03	15.30	-40.1	-42.6	12.9	4.88e-05	0	58	0	240123904	51	4912
2026-01-22 01:59:33.10	323.82	15.32	-40.2	-42.8	12.8	5.49e-05	0	58	0	243269632	51	4994
2026-01-22 01:59:34.11	323.60	15.33	-40.3	-42.8	12.7	7.01e-05	0	58	0	247463936	51	5036
2026-01-22 01:59:35.12	323.39	15.34	-40.3	-42.9	12.7	7.40e-05	0	58	0	249561088	51	5048
2026-01-22 01:59:36.12	323.18	15.36	-40.3	-42.9	12.7	7.85e-05	0	58	0	252706816	51	5056
2026-01-22 01:59:37.13	322.96	15.37	-40.3	-42.9	12.6	8.16e-05	0	58	0	255852544	51	5084
2026-01-22 01:59:38.14	322.75	15.38	-40.4	-43.0	12.6	9.23e-05	0	58	0	258998272	51	5121
2026-01-22 01:59:39.15	322.53	15.39	-40.3	-42.9	12.6	1.36e-04	0	58	0	262144000	51	5089
2026-01-22 01:59:40.16	322.32	15.40	-40.1	-42.6	12.9	5.34e-05	0	58	0	266338304	51	4905
2026-01-22 01:59:41.17	322.10	15.41	-40.0	-42.4	13.1	2.67e-05	0	58	0	269484032	51	4790
2026-01-22 01:59:42.18	321.89	15.42	-40.0	-42.4	13.2	2.89e-05	0	58	0	272629760	51	4784
2026-01-22 01:59:43.19	321.67	15.43	-40.0	-42.4	13.1	2.13e-05	0	58	0	274726912	51	4799
2026-01-22 01:59:44.20	321.45	15.44	-40.0	-42.4	13.1	2.97e-05	0	58	0	277872640	51	4793
2026-01-22 01:59:45.21	321.24	15.45	-40.0	-42.4	13.1	2.21e-05	0	58	0	282066944	51	4798
2026-01-22 01:59:46.22	321.02	15.46	-40.1	-42.5	13.1	2.51e-05	0	58	0	285212672	51	4835
2026-01-22 01:59:47.23	320.80	15.47	-40.1	-42.6	13.0	3.12e-05	0	58	0	288358400	51	4901
2026-01-22 01:59:48.24	320.59	15.48	-40.2	-42.7	12.9	4.95e-05	0	58	0	291504128	51	4939
2026-01-22 01:59:49.25	320.37	15.49	-40.2	-42.7	12.9	5.95e-05	0	58	0	294649856	51	4962
2026-01-22 01:59:50.26	320.15	15.49	-40.3	-42.8	12.8	6.63e-05	0	58	0	297795584	51	5027
2026-01-22 01:59:51.27	319.94	15.50	-40.3	-42.8	12.8	6.17e-05	0	58	0	300941312	51	5029
2026-01-22 01:59:52.28	319.72	15.51	-40.3	-42.9	12.7	7.55e-05	0	58	0	304087040	51	5065
2026-01-22 01:59:53.29	319.50	15.51	-40.4	-43.0	12.6	9.84e-05	0	58	0	307232768	51	5157
2026-01-22 01:59:54.29	319.29	15.52	-40.4	-43.1	12.5	1.20e-04	0	58	0	310378496	51	5173
2026-01-22 01:59:55.30	319.07	15.52	-40.4	-43.1	12.5	1.27e-04	0	58	0	313524224	51	5170
2026-01-22 01:59:56.31	318.85	15.53	-40.4	-43.0	12.6	9.91e-05	0	58	0	316669952	51	5157
2026-01-22 01:59:57.32	318.64	15.53	-40.3	-42.8	12.8	8.08e-05	0	58	0	319815680	51	5023
2026-01-22 01:59:58.33	318.42	15.54	-40.2	-42.8	12.8	6.17e-05	0	58	0	322961408	51	5006
2026-01-22 01:59:59.34	318.20	15.54	-40.3	-42.8	12.8	7.24e-05	0	58	0	326107136	51	5023
2026-01-22 02:00:00.35	317.98	15.54	-40.3	-42.8	12.8	8.01e-05	0	58	0	329252864	51	5026
2026-01-22 02:00:01.36	317.77	15.55	-40.3	-42.9	12.7	7.17e-05	0	58	0	332398592	51	5060
2026-01-22 02:00:02.37	317.55	15.55	-40.4	-43.0	12.6	8.08e-05	0	58	0	335544320	51	5103
2026-01-22 02:00:03.38	317.33	15.55	-40.4	-43.0	12.6	8.54e-05	0	58	0	338690048	51	5130
2026-01-22 02:00:04.39	317.11	15.55	-40.4	-43.0	12.6	1.04e-04	0	58	0	341835776	51	5139
2026-01-22 02:00:05.40	316.90	15.55	-40.4	-43.0	12.6	9.38e-05	0	58	0	344981504	51	5154
2026-01-22 02:00:06.41	316.68	15.55	-40.3	-42.9	12.7	8.46e-05	0	58	0	348127232	51	5055
2026-01-22 02:00:07.42	316.46	15.55	-40.3	-42.8	12.8	5.18e-05	0	58	0	351272960	51	5010
2026-01-22 02:00:08.43	316.24	15.55	-40.2	-42.7	12.8	5.64e-05	0	58	0	354418688	51	4978
2026-01-22 02:00:09.44	316.03	15.55	-40.3	-42.8	12.7	6.56e-05	0	58	0	357564416	51	5037
2026-01-22 02:00:10.44	315.81	15.55	-40.3	-42.9	12.6	7.70e-05	0	58	0	360710144	51	5076
2026-01-22 02:00:11.45	315.59	15.55	-40.3	-42.9	12.7	9.61e-05	0	58	0	363855872	51	5092
2026-01-22 02:00:12.46	315.37	15.55	-40.3	-42.9	12.7	8.54e-05	0	58	0	367001600	51	5049
2026-01-22 02:00:13.47	315.16	15.55	-40.3	-42.8	12.7	7.93e-05	0	58	0	370147328	51	5034
2026-01-22 02:00:14.48	314.94	15.54	-40.3	-42.8	12.7	7.47e-05	0	58	0	373293056	51	5038
2026-01-22 02:00:15.49	314.72	15.54	-40.3	-42.9	12.7	8.08e-05	0	58	0	376438784	51	5066
2026-01-22 02:00:16.50	314.50	15.54	-40.4	-43.0	12.6	8.39e-05	0	58	0	379584512	51	5111
2026-01-22 02:00:17.51	314.29	15.53	-40.3	-42.8	12.7	7.24e-05	0	58	0	382730240	51	5036
2026-01-22 02:00:18.52	314.07	15.53	-40.3	-42.9	12.7	6.25e-05	0	58	0	385875968	51	5078
2026-01-22 02:00:19.53	313.85	15.52	-40.4	-43.0	12.6	8.85e-05	0	58	0	389021696	51	5136
2026-01-22 02:00:20.54	313.63	15.52	-40.4	-43.1	12.5	1.09e-04	0	58	0	392167424	51	5171
2026-01-22 02:00:21.55	313.42	15.51	-40.4	-43.1	12.5	1.11e-04	0	58	0	395313152	51	5164
2026-01-22 02:00:22.56	313.20	15.51	-40.4	-43.1	12.5	9.61e-05	0	58	0	398458880	51	5161
2026-01-22 02:00:23.57	312.98	15.50	-40.4	-43.0	12.6	1.01e-04	0	58	0	401604608	51	5123
2026-01-22 02:00:24.58	312.77	15.49	-40.4	-43.1	12.5	1.02e-04	0	58	0	404750336	51	5167
2026-01-22 02:00:25.59	312.55	15.49	-40.4	-43.0	12.6	1.05e-04	0	58	0	407896064	51	5107
2026-01-22 02:00:26.60	312.33	15.48	-40.3	-42.9	12.6	8.16e-05	0	58	0	411041792	51	5069
2026-01-22 02:00:27.61	312.12	15.47	-40.3	-42.9	12.7	6.63e-05	0	58	0	414187520	51	5059
2026-01-22 02:00:28.61	311.90	15.46	-40.3	-42.8	12.7	6.33e-05	0	58	0	417333248	51	5039
2026-01-22 02:00:29.62	311.68	15.45	-40.3	-42.9	12.7	9.46e-05	0	58	0	420478976	51	5046
2026-01-22 02:00:30.63	311.47	15.44	-40.4	-43.0	12.6	1.04e-04	0	58	0	423624704	51	5102
2026-01-22 02:00:31.64	311.25	15.43	-40.3	-42.9	12.6	7.70e-05	0	58	0	426770432	51	5082
2026-01-22 02:00:32.65	311.04	15.42	-40.4	-43.0	12.6	1.04e-04	0	58	0	429916160	51	5133
2026-01-22 02:00:33.66	310.82	15.41	-40.4	-43.0	12.5	1.06e-04	0	58	0	433061888	51	5158
2026-01-22 02:00:34.67	310.60	15.40	-40.4	-43.0	12.6	8.69e-05	0	58	0	436207616	51	5133
2026-01-22 02:00:35.68	310.39	15.39	-40.4	-43.0	12.5	1.17e-04	0	58	0	439353344	51	5152
2026-01-22 02:00:36.69	310.17	15.38	-40.4	-43.0	12.5	1.08e-04	0	58	0	442499072	51	5133
2026-01-22 02:00:37.70	309.96	15.37	-40.4	-43.0	12.5	1.24e-04	0	58	0	445644800	51	5148
2026-01-22 02:00:38.71	309.74	15.35	-40.5	-43.1	12.4	1.40e-04	0	58	0	448790528	51	5207
2026-01-22 02:00:39.73	309.53	15.34	-40.4	-43.1	12.5	1.39e-04	0	58	0	451936256	51	5178
2026-01-22 02:00:40.73	309.31	15.33	-40.4	-43.1	12.5	1.31e-04	0	58	0	455081984	51	5165
2026-01-22 02:00:41.74	309.10	15.31	-40.5	-43.1	12.4	1.26e-04	0	58	0	458227712	51	5196
2026-01-22 02:00:42.76	308.88	15.30	-40.4	-43.1	12.4	1.33e-04	0	58	0	461373440	51	5198
2026-01-22 02:00:43.77	308.67	15.29	-40.4	-43.0	12.5	1.29e-04	0	58	0	464519168	51	5159
2026-01-22 02:00:44.78	308.46	15.27	-40.4	-43.0	12.6	9.91e-05	0	58	0	467664896	51	5113
2026-01-22 02:00:45.78	308.24	15.26	-40.3	-42.9	12.6	9.30e-05	0	58	0	470810624	51	5091
2026-01-22 02:00:46.79	308.03	15.24	-40.4	-43.1	12.5	1.18e-04	0	58	0	473956352	51	5172
2026-01-22 02:00:47.80	307.82	15.22	-40.3	-42.9	12.6	8.08e-05	0	58	0	477102080	51	5096
2026-01-22 02:00:48.81	307.60	15.21	-40.3	-42.9	12.6	9.23e-05	0	58	0	480247808	51	5077
2026-01-22 02:00:49.82	307.39	15.19	-40.3	-42.9	12.6	8.92e-05	0	58	0	483393536	51	5051
2026-01-22 02:00:50.84	307.18	15.17	-40.3	-42.9	12.6	8.31e-05	0	58	0	486539264	51	5082
2026-01-22 02:00:51.85	306.96	15.16	-40.4	-43.1	12.4	9.53e-05	0	58	0	489684992	51	5192
2026-01-22 02:00:52.85	306.75	15.14	-40.5	-43.1	12.4	1.65e-04	0	58	0	492830720	51	5211
2026-01-22 02:00:53.86	306.54	15.12	-40.6	-43.4	12.2	2.21e-04	0	58	0	495976448	51	5344
2026-01-22 02:00:54.87	306.33	15.10	-40.6	-43.4	12.2	2.26e-04	0	58	0	499122176	51	5344
2026-01-22 02:00:55.89	306.12	15.08	-40.4	-43.1	12.4	1.71e-04	0	58	0	502267904	51	5195
2026-01-22 02:00:56.89	305.91	15.06	-40.3	-42.9	12.6	9.30e-05	0	58	0	505413632	51	5059
2026-01-22 02:00:57.90	305.70	15.04	-40.2	-42.8	12.7	7.62e-05	0	58	0	508559360	51	4988
2026-01-22 02:00:58.91	305.49	15.02	-40.1	-42.7	12.8	5.11e-05	0	58	0	511705088	51	4927
2026-01-22 02:00:59.92	305.28	15.00	-40.2	-42.8	12.7	6.63e-05	0	58	0	514850816	51	4997
2026-01-22 02:01:00.93	305.07	14.98	-40.2	-42.8	12.7	7.78e-05	0	58	0	517996544	51	4997
2026-01-22 02:01:01.94	304.86	14.96	-40.2	-42.8	12.7	8.92e-05	0	58	0	521142272	51	5008
2026-01-22 02:01:02.95	304.65	14.94	-40.2	-42.7	12.9	4.73e-05	0	58	0	524288000	51	4927
2026-01-22 02:01:03.96	304.44	14.91	-40.0	-42.5	13.0	3.89e-05	0	58	0	527433728	51	4836
2026-01-22 02:01:04.97	304.23	14.89	-40.2	-42.7	12.9	5.26e-05	0	58	0	530579456	51	4933
2026-01-22 02:01:05.98	304.02	14.87	-40.2	-42.8	12.7	6.25e-05	0	58	0	533725184	51	5015
2026-01-22 02:01:06.99	303.82	14.85	-40.3	-42.9	12.6	7.24e-05	0	58	0	536870912	51	5058
2026-01-22 02:01:08.00	303.61	14.82	-40.3	-42.9	12.6	1.08e-04	0	58	0	540016640	51	5079
2026-01-22 02:01:09.01	303.40	14.80	-40.3	-42.9	12.7	9.23e-05	0	58	0	543162368	51	5053
2026-01-22 02:01:10.02	303.19	14.77	-40.2	-42.8	12.7	8.23e-05	0	58	0	546308096	51	5019
2026-01-22 02:01:11.03	302.99	14.75	-40.2	-42.8	12.7	6.86e-05	0	58	0	549453824	51	5015
2026-01-22 02:01:12.04	302.78	14.73	-40.3	-42.9	12.6	8.77e-05	0	58	0	552599552	51	5050
2026-01-22 02:01:13.05	302.57	14.70	-40.3	-42.9	12.5	1.01e-04	0	58	0	555745280	51	5093
2026-01-22 02:01:14.06	302.37	14.67	-40.2	-42.8	12.6	8.77e-05	0	58	0	558891008	51	5022
2026-01-22 02:01:15.07	302.16	14.65	-40.2	-42.7	12.8	6.79e-05	0	58	0	562036736	51	4955
2026-01-22 02:01:16.08	301.96	14.62	-40.1	-42.7	12.8	6.02e-05	0	58	0	565182464	51	4940
2026-01-22 02:01:17.09	301.75	14.60	-40.1	-42.6	12.9	3.96e-05	0	58	0	568328192	51	4871
2026-01-22 02:01:18.09	301.55	14.57	-40.0	-42.4	13.0	3.12e-05	0	58	0	571473920	51	4813
2026-01-22 02:01:19.10	301.35	14.54	-40.0	-42.4	13.0	3.20e-05	0	58	0	574619648	51	4813
2026-01-22 02:01:20.12	301.14	14.51	-40.0	-42.5	13.0	3.89e-05	0	58	0	577765376	51	4844
2026-01-22 02:01:21.12	300.94	14.49	-40.1	-42.6	12.9	4.73e-05	0	58	0	580911104	51	4892
2026-01-22 02:01:22.14	300.74	14.46	-40.2	-42.7	12.7	6.40e-05	0	58	0	584056832	51	4963
2026-01-22 02:01:23.15	300.54	14.43	-40.2	-42.8	12.6	7.78e-05	0	58	0	587202560	51	5040
2026-01-22 02:01:24.16	300.33	14.40	-40.3	-42.9	12.5	1.02e-04	0	58	0	590348288	51	5094
2026-01-22 02:01:25.16	300.13	14.37	-40.3	-42.9	12.5	1.14e-04	0	58	0	593494016	51	5100
2026-01-22 02:01:26.17	299.93	14.34	-40.3	-42.9	12.5	1.23e-04	0	58	0	596639744	51	5094
2026-01-22 02:01:27.18	299.73	14.31	-40.3	-43.0	12.5	1.08e-04	0	58	0	599785472	51	5105
2026-01-22 02:01:28.19	299.53	14.28	-40.2	-42.8	12.7	1.05e-04	0	58	0	602931200	51	5015
2026-01-22 02:01:29.20	299.33	14.25	-40.2	-42.7	12.7	7.55e-05	0	58	0	606076928	51	4967
2026-01-22 02:01:30.21	299.13	14.22	-40.2	-42.7	12.7	6.79e-05	0	58	0	610271232	51	4974
2026-01-22 02:01:31.22	298.93	14.19	-40.1	-42.7	12.6	9.46e-05	0	58	0	612368384	51	4977
2026-01-22 02:01:32.23	298.74	14.16	-40.1	-42.7	12.7	8.01e-05	0	58	0	615514112	51	4968
2026-01-22 02:01:33.24	298.54	14.13	-40.2	-42.9	12.5	1.04e-04	0	58	0	618659840	51	5052
2026-01-22 02:01:34.25	298.34	14.09	-40.3	-42.9	12.4	1.36e-04	0	58	0	621805568	51	5100
2026-01-22 02:01:35.26	298.14	14.06	-40.3	-43.0	12.3	1.42e-04	0	58	0	625999872	51	5129
2026-01-22 02:01:36.26	297.95	14.03	-40.3	-43.0	12.3	1.77e-04	0	58	0	629145600	51	5157
2026-01-22 02:01:37.27	297.75	14.00	-40.4	-43.1	12.2	2.10e-04	0	58	0	632291328	51	5204
2026-01-22 02:01:38.28	297.55	13.96	-40.3	-43.1	12.2	2.13e-04	0	58	0	635437056	51	5172
2026-01-22 02:01:39.29	297.36	13.93	-40.3	-43.1	12.2	2.33e-04	0	58	0	637534208	51	5164
2026-01-22 02:01:40.30	297.16	13.90	-40.2	-42.9	12.3	1.84e-04	0	58	0	640679936	51	5095
2026-01-22 02:01:41.31	296.97	13.86	-40.1	-42.8	12.4	1.64e-04	0	58	0	644874240	51	5008
2026-01-22 02:01:42.32	296.78	13.83	-40.1	-42.8	12.4	1.71e-04	0	58	0	648019968	51	5014
2026-01-22 02:01:43.33	296.58	13.79	-40.1	-42.7	12.4	1.75e-04	0	58	0	651165696	51	4982
2026-01-22 02:01:44.34	296.39	13.76	-40.0	-42.6	12.5	1.21e-04	0	58	0	654311424	51	4901
2026-01-22 02:01:45.35	296.20	13.72	-39.9	-42.6	12.5	1.15e-04	0	58	0	657457152	51	4871
2026-01-22 02:01:46.36	296.00	13.69	-39.8	-42.4	12.6	1.17e-04	0	58	0	660602880	51	4793
2026-01-22 02:01:47.37	295.81	13.65	-39.8	-42.3	12.8	7.09e-05	0	58	0	663748608	51	4714
2026-01-22 02:01:48.38	295.62	13.62	-39.8	-42.3	12.8	4.80e-05	0	58	0	666894336	51	4720
2026-01-22 02:01:49.38	295.43	13.58	-39.7	-42.3	12.7	6.56e-05	0	58	0	670040064	51	4726
2026-01-22 02:01:50.39	295.24	13.54	-39.8	-42.4	12.5	8.39e-05	0	58	0	673185792	51	4789
2026-01-22 02:01:51.40	295.05	13.51	-39.9	-42.5	12.4	1.45e-04	0	58	0	676331520	51	4864
2026-01-22 02:01:52.41	294.86	13.47	-40.0	-42.7	12.1	2.28e-04	0	58	0	679477248	51	4969
2026-01-22 02:01:53.43	294.67	13.43	-40.0	-42.8	12.0	2.98e-04	0	58	0	682622976	51	5020
2026-01-22 02:01:54.44	294.48	13.40	-40.1	-43.0	11.8	4.35e-04	0	59	0	685768704	51	5122
2026-01-22 02:01:55.45	294.29	13.36	-40.2	-43.2	11.6	6.72e-04	0	58	0	688914432	51	5230
2026-01-22 02:01:56.46	294.10	13.32	-40.2	-43.1	11.6	6.49e-04	0	58	0	692060160	51	5189
2026-01-22 02:01:57.47	293.92	13.28	-40.1	-43.0	11.7	5.95e-04	0	58	0	695205888	51	5158
2026-01-22 02:01:58.48	293.73	13.24	-40.1	-43.1	11.6	7.03e-04	0	58	0	698351616	51	5183
2026-01-22 02:01:59.49	293.54	13.20	-40.2	-43.2	11.4	9.25e-04	0	58	0	701497344	51	5228
2026-01-22 02:02:00.50	293.36	13.17	-40.2	-43.2	11.3	1.03e-03	0	58	0	704643072	51	5276
2026-01-22 02:02:01.51	293.17	13.13	-40.2	-43.3	11.1	1.25e-03	0	58	0	707788800	51	5333
2026-01-22 02:02:02.52	292.99	13.09	-40.2	-43.4	11.1	1.69e-03	0	58	0	710934528	51	5363
2026-01-22 02:02:03.53	292.80	13.05	-40.2	-43.4	10.9	1.99e-03	0	58	0	714080256	51	5359
2026-01-22 02:02:04.54	292.62	13.01	-40.2	-43.5	10.7	2.83e-03	0	58	0	717225984	51	5442
2026-01-22 02:02:05.55	292.44	12.97	-40.1	-43.4	10.8	2.78e-03	0	58	0	720371712	51	5368
2026-01-22 02:02:06.56	292.25	12.93	-40.0	-43.2	11.0	1.95e-03	0	58	0	723517440	51	5262
2026-01-22 02:02:07.57	292.07	12.89	-40.0	-43.1	11.1	1.79e-03	0	58	0	726663168	51	5203
2026-01-22 02:02:08.58	291.89	12.85	-39.9	-43.0	11.2	1.42e-03	0	58	0	729808896	51	5151
2026-01-22 02:02:09.59	291.71	12.81	-40.0	-43.2	10.9	1.79e-03	0	58	0	732954624	51	5230
2026-01-22 02:02:10.60	291.53	12.76	-40.0	-43.2	10.9	2.09e-03	0	58	0	736100352	51	5247
2026-01-22 02:02:11.61	291.35	12.72	-40.1	-43.4	10.6	2.93e-03	0	58	0	739246080	51	5382
2026-01-22 02:02:12.62	291.17	12.68	-40.1	-43.5	10.5	3.73e-03	0	58	0	742391808	51	5416
2026-01-22 02:02:13.63	290.99	12.64	-40.1	-43.6	10.3	5.31e-03	0	58	0	745537536	51	5519
2026-01-22 02:02:14.64	290.81	12.60	-40.2	-43.8	10.1	6.70e-03	0	58	0	748683264	51	5602
2026-01-22 02:02:15.65	290.63	12.56	-40.2	-43.8	10.1	6.78e-03	0	58	0	751828992	51	5615
2026-01-22 02:02:16.66	290.46	12.51	-40.3	-43.9	10.0	7.52e-03	0	58	0	754974720	51	5679
2026-01-22 02:02:17.67	290.28	12.47	-40.3	-44.0	9.9	8.52e-03	0	58	0	758120448	51	5739
2026-01-22 02:02:18.68	290.10	12.43	-40.2	-44.0	9.8	9.49e-03	0	58	0	761266176	51	5733
2026-01-22 02:02:19.69	289.93	12.38	-40.2	-44.0	9.7	1.11e-02	0	58	0	764411904	51	5752
2026-01-22 02:02:20.70	289.75	12.34	-40.3	-44.2	9.6	1.27e-02	0	58	0	767557632	51	5864
2026-01-22 02:02:21.71	289.57	12.30	-40.4	-44.4	9.2	1.55e-02	0	58	0	770703360	51	6023
2026-01-22 02:02:22.72	289.40	12.25	-40.5	-44.6	9.0	2.20e-02	0	58	0	773849088	51	6177
2026-01-22 02:02:23.72	289.23	12.21	-40.5	-44.7	8.8	2.84e-02	0	58	0	776994816	51	6239
2026-01-22 02:02:24.73	289.05	12.17	-40.5	-44.9	8.6	3.78e-02	0	58	0	780140544	51	6365
2026-01-22 02:02:25.74	288.88	12.12	-40.5	-45.0	8.3	4.71e-02	0	58	0	783286272	51	6439
2026-01-22 02:02:26.75	288.71	12.08	-40.6	-45.1	8.3	5.25e-02	0	58	0	786432000	51	6498
2026-01-22 02:02:27.76	288.54	12.04	-40.6	-45.2	8.1	5.85e-02	0	59	0	789577728	51	6618
2026-01-22 02:02:28.77	288.37	11.99	-40.7	-45.5	7.9	6.95e-02	0	58	0	792723456	51	6813
2026-01-22 02:02:29.78	288.19	11.95	-40.7	-45.7	7.6	8.84e-02	0	58	0	795869184	52	6581
2026-01-22 02:02:30.79	288.02	11.90	-40.8	-46.0	7.2	1.19e-01	0	58	0	799014912	52	6819
2026-01-22 02:02:31.80	287.85	11.86	-40.9	-46.4	6.8	1.71e-01	0	58	0	802160640	52	7146
2026-01-22 02:02:32.81	287.69	11.81	-40.9	-46.7	6.5	2.25e-01	0	58	0	805306368	52	7422
2026-01-22 02:02:33.82	287.52	11.77	-41.0	-47.1	6.1	2.85e-01	0	58	0	808452096	52	7749
2026-01-22 02:02:34.82	287.35	11.72	-41.0	-47.8	5.5	3.87e-01	0	58	0	811597824	52	8396
2026-01-22 02:02:35.83	287.18	11.67	-42.0	-49.0	5.3	3.67e-01	0	58	0	814743552	54	8618
2026-01-22 02:02:36.84	287.01	11.63	-40.7	-51.4	3.8	1.16e+00	0	59	104	816840704	53	11998
2026-01-22 02:02:37.85	286.85	11.58	-41.4	-51.0	4.1	1.48e+00	0	59	104	816840704	53	11488
2026-01-22 02:02:38.86	286.68	11.54	-41.6	-49.6	4.7	6.60e-01	0	58	0	816840704	54	9191
2026-01-22 02:02:39.87	286.52	11.49	-41.4	-48.9	4.9	8.96e-01	0	58	104	816840704	54	8554
2026-01-22 02:02:40.88	286.35	11.44	-41.4	-49.2	4.8	7.93e-01	0	59	0	817889280	54	8765
2026-01-22 02:02:41.89	286.19	11.40	-41.4	-49.3	4.7	1.19e+00	0	58	104	817889280	54	8955
2026-01-22 02:02:42.90	286.02	11.35	-41.4	-49.4	4.7	9.66e-01	2	58	104	817889280	54	8968
2026-01-22 02:02:43.91	285.86	11.30	-42.0	-49.3	5.1	6.25e-01	0	58	0	818937856	54	8946
2026-01-22 02:02:44.92	285.70	11.26	-40.8	-52.1	3.8	1.49e+00	0	58	104	819986432	53	13024
2026-01-22 02:02:45.93	285.53	11.21	-42.2	-52.8	3.8	1.48e+00	0	58	104	819986432	54	13318
2026-01-22 02:02:46.94	285.37	11.16	-42.0	-51.8	3.9	1.38e+00	0	58	104	819986432	55	11251
2026-01-22 02:02:47.95	285.21	11.12	-41.7	-49.5	4.7	1.21e+00	0	59	104	819986432	55	8660
2026-01-22 02:02:48.96	285.05	11.07	-41.8	-50.3	4.0	1.18e+00	0	58	104	819986432	55	9444
2026-01-22 02:02:49.97	284.89	11.02	-41.8	-49.7	4.7	1.12e+00	0	59	104	819986432	55	8847
2026-01-22 02:02:50.98	284.73	10.97	-41.7	-49.0	5.1	6.47e-01	0	59	0	821035008	55	8107
2026-01-22 02:02:51.98	284.57	10.92	-42.2	-50.6	4.0	7.51e-01	2	59	104	824180736	55	9750
2026-01-22 02:02:52.99	284.41	10.88	-41.2	-53.1	3.8	1.49e+00	0	59	104	824180736	54	13766
2026-01-22 02:02:54.00	284.25	10.83	-42.1	-50.2	4.5	1.48e+00	12	58	104	824180736	54	9934
2026-01-22 02:02:55.01	284.10	10.78	-41.8	-51.8	3.9	7.07e-01	0	59	104	825229312	54	11948
2026-01-22 02:02:56.02	283.94	10.73	-41.3	-46.9	6.5	3.73e-01	0	59	0	825229312	54	6773
2026-01-22 02:02:57.03	283.78	10.68	-41.1	-46.4	7.0	1.59e-01	0	58	0	828375040	54	6380
2026-01-22 02:02:58.04	283.63	10.64	-41.0	-46.0	7.4	1.21e-01	0	59	0	831520768	54	6115
2026-01-22 02:02:59.05	283.47	10.59	-41.0	-46.0	7.4	1.13e-01	0	58	0	834666496	54	6124
2026-01-22 02:03:00.06	283.32	10.54	-40.9	-45.9	7.6	9.86e-02	0	58	0	837812224	53	6349
2026-01-22 02:03:01.07	283.16	10.49	-41.0	-46.1	7.3	1.14e-01	0	58	0	840957952	53	6528
2026-01-22 02:03:02.08	283.01	10.44	-42.6	-51.1	4.3	1.20e+00	0	58	104	843055104	55	10326
2026-01-22 02:03:03.09	282.85	10.39	-42.1	-51.1	4.2	1.47e+00	0	59	104	843055104	55	10306
2026-01-22 02:03:04.10	282.70	10.34	-40.9	-46.2	7.1	8.43e-02	0	59	0	844103680	52	6991
2026-01-22 02:03:05.11	282.55	10.29	-42.4	-50.8	4.0	1.05e+00	0	59	104	847249408	55	10058
2026-01-22 02:03:06.11	282.40	10.24	-41.3	-51.7	3.8	1.48e+00	0	58	104	847249408	53	12387
2026-01-22 02:03:07.12	282.25	10.19	-40.3	-44.6	8.7	3.55e-02	0	59	0	848297984	52	5814
2026-01-22 02:03:08.13	282.09	10.14	-40.4	-44.5	8.8	3.20e-02	0	58	0	850395136	52	5786
2026-01-22 02:03:09.14	281.94	10.09	-40.4	-44.6	8.9	2.74e-02	0	58	0	853540864	52	5827
2026-01-22 02:03:10.15	281.79	10.04	-40.4	-44.7	8.8	2.74e-02	0	58	0	856686592	52	5861
2026-01-22 02:03:11.16	281.64	9.99	-40.6	-44.9	8.6	3.47e-02	0	58	0	860880896	52	6056
2026-01-22 02:03:12.17	281.50	9.95	-40.7	-45.3	8.2	4.95e-02	0	58	0	864026624	52	6290
2026-01-22 02:03:13.18	281.35	9.90	-40.8	-45.6	7.9	6.81e-02	0	58	0	867172352	52	6530
2026-01-22 02:03:14.19	281.20	9.84	-40.9	-45.7	7.7	8.63e-02	0	59	0	870318080	52	6641
2026-01-22 02:03:15.20	281.05	9.79	-40.9	-45.9	7.6	1.05e-01	0	59	0	873463808	52	6726
2026-01-22 02:03:16.21	280.90	9.74	-40.9	-45.8	7.6	9.02e-02	0	58	0	876609536	52	6697
2026-01-22 02:03:17.22	280.76	9.69	-40.8	-45.7	7.7	8.95e-02	0	58	0	879755264	52	6604
2026-01-22 02:03:18.23	280.61	9.64	-40.7	-45.8	7.5	1.03e-01	0	58	0	882900992	52	6692
2026-01-22 02:03:19.23	280.47	9.59	-40.8	-46.1	7.2	1.18e-01	0	58	0	886046720	52	6880
2026-01-22 02:03:20.24	280.32	9.54	-41.0	-46.9	6.4	3.04e-01	0	58	0	889192448	52	7545
2026-01-22 02:03:21.25	280.18	9.49	-41.2	-49.3	4.6	1.13e+00	2	58	104	890241024	52	9961
2026-01-22 02:03:22.26	280.04	9.44	-41.6	-47.6	6.1	6.14e-01	0	58	0	892338176	55	6932
2026-01-22 02:03:23.27	279.89	9.39	-40.6	-50.2	4.0	1.48e+00	0	59	104	893386752	52	11063
2026-01-22 02:03:24.28	279.75	9.34	-40.7	-47.0	5.9	3.40e-01	0	59	0	894435328	52	7713
2026-01-22 02:03:25.29	279.61	9.29	-40.7	-47.1	5.9	3.68e-01	0	58	0	897581056	52	7752
2026-01-22 02:03:26.30	279.47	9.24	-40.7	-47.3	5.7	3.86e-01	0	58	0	900726784	52	7900
2026-01-22 02:03:27.31	279.32	9.19	-40.8	-47.8	5.3	5.15e-01	0	59	0	903872512	52	8392
2026-01-22 02:03:28.32	279.18	9.14	-40.8	-48.0	5.2	5.59e-01	0	58	0	907018240	52	8603
2026-01-22 02:03:29.33	279.04	9.09	-40.8	-48.7	4.7	7.05e-01	0	59	0	910163968	52	9339
2026-01-22 02:03:30.34	278.90	9.03	-40.6	-49.8	4.2	1.47e+00	0	59	104	910163968	52	10599
2026-01-22 02:03:31.35	278.76	8.98	-41.4	-49.2	4.8	1.21e+00	2	59	104	910163968	54	8768
2026-01-22 02:03:32.36	278.62	8.93	-40.4	-51.2	3.8	1.49e+00	0	59	104	910163968	52	12481
2026-01-22 02:03:33.37	278.49	8.88	-40.7	-50.4	4.0	1.48e+00	0	59	104	910163968	52	11338
2026-01-22 02:03:34.38	278.35	8.83	-41.1	-51.5	3.8	1.48e+00	0	58	104	910163968	53	12209
2026-01-22 02:03:35.39	278.21	8.78	-40.7	-50.8	4.0	1.48e+00	0	58	104	910163968	53	11191
2026-01-22 02:03:36.40	278.07	8.73	-40.7	-51.3	3.9	1.48e+00	0	58	104	910163968	53	11917
2026-01-22 02:03:37.41	277.94	8.67	-40.6	-51.5	3.8	1.49e+00	0	59	104	910163968	53	12136
2026-01-22 02:03:38.42	277.80	8.62	-40.4	-51.8	3.8	1.49e+00	0	59	104	910163968	52	13267
2026-01-22 02:03:39.43	277.67	8.57	-40.5	-51.7	3.8	1.49e+00	0	58	104	910163968	52	13215
2026-01-22 02:03:40.44	277.53	8.52	-41.0	-52.3	3.8	1.49e+00	0	59	104	910163968	52	14102
2026-01-22 02:03:41.45	277.40	8.47	-40.7	-52.1	3.8	1.49e+00	0	58	104	910163968	53	13033
2026-01-22 02:03:42.46	277.26	8.42	-40.3	-52.2	3.8	1.49e+00	0	59	104	910163968	52	13962
2026-01-22 02:03:43.47	277.13	8.36	-40.4	-52.2	3.8	1.49e+00	0	59	104	910163968	52	13936
2026-01-22 02:03:44.48	277.00	8.31	-40.3	-52.3	3.8	1.49e+00	0	59	104	910163968	52	14129
2026-01-22 02:03:45.49	276.86	8.26	-40.4	-52.3	3.8	1.49e+00	0	59	104	910163968	52	14127
2026-01-22 02:03:46.50	276.73	8.21	-40.4	-52.4	3.8	1.49e+00	0	59	104	910163968	52	14216
2026-01-22 02:03:47.51	276.60	8.16	-40.4	-52.5	3.8	1.49e+00	0	59	104	910163968	52	14380
2026-01-22 02:03:48.52	276.47	8.10	-40.8	-52.8	3.8	1.49e+00	0	59	104	910163968	52	14941
2026-01-22 02:03:49.53	276.34	8.05	-40.4	-52.5	3.8	1.49e+00	0	58	104	910163968	52	14387
2026-01-22 02:03:50.54	276.21	8.00	-40.2	-52.4	3.8	1.49e+00	0	59	104	910163968	52	14250
2026-01-22 02:03:51.55	276.08	7.95	-44.2	-56.4	3.8	1.49e+00	0	58	104	910163968	58	16098
2026-01-22 02:03:52.56	275.95	7.90	-44.7	-57.1	3.8	1.49e+00	0	59	104	910163968	60	15543
2026-01-22 02:03:53.57	275.82	7.84	-44.9	-57.4	3.8	1.49e+00	0	59	104	910163968	60	15980
2026-01-22 02:03:54.58	275.69	7.79	-45.0	-57.5	3.8	1.49e+00	0	59	104	910163968	60	16156
2026-01-22 02:03:55.59	275.57	7.74	-45.1	-57.5	3.8	1.49e+00	0	59	104	910163968	60	16313
2026-01-22 02:03:56.60	275.44	7.69	-45.2	-57.6	3.8	1.49e+00	0	59	104	910163968	60	16469
2026-01-22 02:03:57.61	275.31	7.63	-45.2	-57.6	3.8	1.49e+00	0	58	104	910163968	60	16477
2026-01-22 02:03:58.62	275.19	7.58	-45.3	-57.7	3.8	1.49e+00	0	58	104	910163968	61	15704
2026-01-22 02:03:59.63	275.06	7.53	-45.3	-57.7	3.8	1.49e+00	0	59	104	910163968	61	15634
2026-01-22 02:04:00.64	274.93	7.48	-45.3	-57.7	3.8	1.49e+00	0	59	104	910163968	61	15712
2026-01-22 02:04:01.65	274.81	7.42	-45.2	-57.7	3.8	1.49e+00	0	59	104	910163968	61	15588
2026-01-22 02:04:02.67	274.68	7.37	-45.2	-57.6	3.8	1.49e+00	0	59	104	910163968	61	15554
2026-01-22 02:04:03.68	274.56	7.32	-45.2	-57.6	3.8	1.49e+00	0	59	104	910163968	61	15510
2026-01-22 02:04:04.69	274.44	7.27	-45.2	-57.6	3.8	1.49e+00	0	59	104	910163968	61	15403
2026-01-22 02:04:05.70	274.31	7.21	-45.2	-57.6	3.8	1.49e+00	0	59	104	910163968	61	15468
2026-01-22 02:04:06.71	274.19	7.16	-45.2	-57.6	3.8	1.49e+00	0	59	104	910163968	61	15525
2026-01-22 02:04:07.72	274.07	7.11	-45.2	-57.5	3.8	1.49e+00	0	59	104	910163968	61	15395
2026-01-22 02:04:08.73	273.95	7.06	-45.2	-57.6	3.8	1.49e+00	0	59	104	910163968	61	15408
2026-01-22 02:04:09.74	273.82	7.00	-45.2	-57.5	3.8	1.49e+00	0	59	104	910163968	61	15396
2026-01-22 02:04:10.75	273.70	6.95	-45.2	-57.5	3.8	1.49e+00	0	59	104	910163968	61	15342
2026-01-22 02:04:11.76	273.58	6.90	-45.2	-57.6	3.8	1.49e+00	0	59	104	910163968	61	15424
2026-01-22 02:04:12.77	273.46	6.85	-45.2	-57.5	3.8	1.49e+00	0	59	104	910163968	61	15382
2026-01-22 02:04:13.79	273.34	6.79	-45.2	-57.5	3.8	1.49e+00	0	59	104	910163968	61	15325
2026-01-22 02:04:14.80	273.22	6.74	-45.2	-57.5	3.8	1.49e+00	0	59	104	910163968	61	15353
2026-01-22 02:04:15.81	273.10	6.69	-45.2	-57.6	3.8	1.49e+00	0	59	104	910163968	61	15411
2026-01-22 02:04:16.82	272.99	6.64	-45.2	-57.5	3.8	1.49e+00	0	59	104	910163968	61	15347
2026-01-22 02:04:17.83	272.87	6.58	-45.2	-57.5	3.8	1.49e+00	0	59	104	910163968	61	15325
2026-01-22 02:04:18.84	272.75	6.53	-45.2	-57.5	3.8	1.49e+00	0	59	104	910163968	61	15367
2026-01-22 02:04:19.85	272.63	6.48	-45.2	-57.5	3.8	1.49e+00	0	59	104	910163968	61	15311
2026-01-22 02:04:20.86	272.52	6.43	-45.2	-57.5	3.8	1.49e+00	0	59	104	910163968	61	15328
2026-01-22 02:04:21.87	272.40	6.37	-45.1	-57.5	3.8	1.49e+00	0	59	104	910163968	61	15372
2026-01-22 02:04:22.88	272.28	6.32	-45.2	-57.5	3.8	1.49e+00	0	59	104	910163968	61	15377
2026-01-22 02:04:23.89	272.17	6.27	-45.2	-57.5	3.8	1.49e+00	0	59	104	910163968	61	15370
2026-01-22 02:04:24.90	272.05	6.22	-45.2	-57.5	3.8	1.49e+00	0	59	104	910163968	61	15305
2026-01-22 02:04:25.91	271.94	6.16	-45.2	-57.5	3.8	1.49e+00	0	59	104	910163968	61	15300
2026-01-22 02:04:26.92	271.83	6.11	-45.2	-57.5	3.8	1.49e+00	0	59	104	910163968	61	15344
2026-01-22 02:04:27.93	271.71	6.06	-45.2	-57.5	3.8	1.49e+00	0	59	104	910163968	61	15364
2026-01-22 02:04:28.95	271.60	6.00	-45.1	-57.5	3.8	1.49e+00	0	59	104	910163968	61	15382
2026-01-22 02:04:29.96	271.48	5.95	-45.1	-57.5	3.8	1.49e+00	0	59	104	910163968	61	15341
2026-01-22 02:04:30.97	271.37	5.90	-45.2	-57.5	3.8	1.49e+00	0	59	104	910163968	61	15347
2026-01-22 02:04:31.98	271.26	5.85	-45.2	-57.5	3.8	1.49e+00	0	59	104	910163968	61	15327
2026-01-22 02:04:32.99	271.15	5.79	-45.2	-57.5	3.8	1.49e+00	0	59	104	910163968	61	15339
2026-01-22 02:04:34.00	271.04	5.74	-45.2	-57.5	3.8	1.49e+00	0	59	104	910163968	61	15379
2026-01-22 02:04:35.01	270.93	5.69	-45.1	-57.6	3.8	1.49e+00	0	59	104	910163968	61	15407
2026-01-22 02:04:36.02	270.82	5.64	-45.1	-57.5	3.8	1.49e+00	0	59	104	910163968	61	15326
2026-01-22 02:04:37.03	270.71	5.58	-45.1	-57.5	3.8	1.49e+00	0	59	104	910163968	61	15363
2026-01-22 02:04:38.04	270.60	5.53	-45.1	-57.5	3.8	1.49e+00	0	59	104	910163968	61	15339
2026-01-22 02:04:39.05	270.49	5.48	-45.1	-57.5	3.8	1.49e+00	0	59	104	910163968	61	15315
2026-01-22 02:04:40.06	270.38	5.43	-45.1	-57.5	3.8	1.49e+00	0	59	104	910163968	61	15368
2026-01-22 02:04:41.07	270.27	5.37	-45.1	-57.5	3.8	1.49e+00	0	59	104	910163968	61	15362
2026-01-22 02:04:42.08	270.16	5.32	-45.1	-57.5	3.8	1.49e+00	0	59	104	910163968	61	15272
2026-01-22 02:04:43.10	270.05	5.27	-45.1	-57.5	3.8	1.49e+00	0	59	104	910163968	61	15344
2026-01-22 02:04:44.11	269.95	5.21	-45.1	-57.5	3.8	1.49e+00	0	59	104	910163968	61	15306
2026-01-22 02:04:45.12	269.84	5.16	-45.1	-57.5	3.8	1.49e+00	0	59	104	910163968	61	15314
2026-01-22 02:04:46.13	269.73	5.11	-45.1	-57.5	3.8	1.49e+00	0	59	104	910163968	61	15317
2026-01-22 02:04:47.14	269.63	5.06	-45.1	-57.5	3.8	1.49e+00	0	59	104	910163968	61	15372
2026-01-22 02:04:48.15	269.52	5.00	-45.1	-57.5	3.8	1.49e+00	0	59	104	910163968	61	15352
2026-01-22 02:04:49.16	269.42	4.95	-45.1	-57.5	3.8	1.49e+00	0	59	104	910163968	61	15281
2026-01-22 02:04:50.17	269.31	4.90	-45.1	-57.5	3.8	1.49e+00	0	59	104	910163968	61	15303
2026-01-22 02:04:51.18	269.21	4.85	-45.1	-57.5	3.8	1.49e+00	0	59	104	910163968	61	15306
2026-01-22 02:04:52.19	269.10	4.80	-45.1	-57.5	3.8	1.49e+00	0	59	104	910163968	61	15300
2026-01-22 02:04:53.20	269.00	4.74	-45.1	-57.5	3.8	1.49e+00	0	59	104	910163968	61	15309
2026-01-22 02:04:54.22	268.90	4.69	-45.1	-57.5	3.8	1.49e+00	0	59	104	910163968	61	15297
2026-01-22 02:04:55.23	268.79	4.64	-45.1	-57.5	3.8	1.49e+00	0	59	104	910163968	61	15280
2026-01-22 02:04:56.24	268.69	4.59	-45.1	-57.5	3.8	1.49e+00	0	59	104	910163968	61	15250
2026-01-22 02:04:57.25	268.59	4.53	-45.1	-57.5	3.8	1.49e+00	0	59	104	910163968	61	15292
2026-01-22 02:04:58.26	268.49	4.48	-45.1	-57.4	3.8	1.49e+00	0	59	104	910163968	61	15201
2026-01-22 02:04:59.27	268.39	4.43	-45.1	-57.5	3.8	1.49e+00	0	59	104	910163968	61	15330
2026-01-22 02:05:00.28	268.28	4.38	-45.1	-57.5	3.8	1.49e+00	0	59	104	910163968	61	15363
2026-01-22 02:05:01.29	268.18	4.32	-45.1	-57.5	3.8	1.49e+00	0	59	104	910163968	61	15271
2026-01-22 02:05:02.30	268.08	4.27	-45.1	-57.5	3.8	1.49e+00	0	59	104	910163968	61	15257
2026-01-22 02:05:03.31	267.98	4.22	-45.1	-57.5	3.8	1.49e+00	0	59	104	910163968	61	15285
2026-01-22 02:05:04.32	267.88	4.17	-45.1	-57.5	3.8	1.49e+00	0	59	104	910163968	61	15234
2026-01-22 02:05:05.33	267.79	4.11	-45.1	-57.5	3.8	1.49e+00	0	59	104	910163968	61	15259
2026-01-22 02:05:06.35	267.69	4.06	-45.1	-57.5	3.8	1.49e+00	0	59	104	910163968	61	15279
2026-01-22 02:05:07.36	267.59	4.01	-45.1	-57.5	3.8	1.49e+00	0	59	104	910163968	61	15293
2026-01-22 02:05:08.37	267.49	3.96	-45.1	-57.5	3.8	1.49e+00	0	59	104	910163968	61	15330
2026-01-22 02:05:09.38	267.39	3.91	-45.1	-57.5	3.8	1.49e+00	0	59	104	910163968	61	15286
2026-01-22 02:05:10.39	267.29	3.85	-45.1	-57.5	3.8	1.49e+00	0	59	104	910163968	61	15331
2026-01-22 02:05:11.40	267.20	3.80	-45.1	-57.5	3.8	1.49e+00	0	59	104	910163968	61	15297
2026-01-22 02:05:12.41	267.10	3.75	-45.1	-57.5	3.8	1.49e+00	0	59	104	910163968	61	15295
2026-01-22 02:05:13.41	267.00	3.70	-45.1	-57.5	3.8	1.49e+00	0	59	104	910163968	61	15269
2026-01-22 02:05:14.43	266.91	3.65	-45.1	-57.5	3.8	1.49e+00	0	59	104	910163968	61	15274
2026-01-22 02:05:15.44	266.81	3.59	-45.1	-57.5	3.8	1.49e+00	0	59	104	910163968	61	15316
2026-01-22 02:05:16.45	266.72	3.54	-45.1	-57.5	3.8	1.49e+00	0	59	104	910163968	61	15275
2026-01-22 02:05:17.46	266.62	3.49	-45.1	-57.4	3.8	1.49e+00	0	59	104	910163968	61	15214
2026-01-22 02:05:18.47	266.53	3.44	-45.1	-57.5	3.8	1.49e+00	0	59	104	910163968	61	15277
2026-01-22 02:05:19.48	266.43	3.39	-45.1	-57.5	3.8	1.49e+00	0	59	104	910163968	61	15250
2026-01-22 02:05:20.49	266.34	3.33	-45.1	-57.5	3.8	1.49e+00	0	59	104	910163968	61	15295
2026-01-22 02:05:21.50	266.24	3.28	-45.1	-57.5	3.8	1.49e+00	0	59	104	910163968	61	15261
2026-01-22 02:05:22.51	266.15	3.23	-45.1	-57.5	3.8	1.49e+00	0	59	104	910163968	61	15254
2026-01-22 02:05:23.53	266.06	3.18	-45.1	-57.5	3.8	1.49e+00	0	59	104	910163968	61	15350
2026-01-22 02:05:24.54	265.97	3.13	-45.1	-57.5	3.8	1.49e+00	0	58	104	910163968	61	15285
2026-01-22 02:05:25.55	265.87	3.08	-45.1	-57.5	3.8	1.49e+00	0	59	104	910163968	61	15265
2026-01-22 02:05:26.56	265.78	3.02	-45.1	-57.5	3.8	1.49e+00	0	59	104	910163968	61	15353
2026-01-22 02:05:27.57	265.69	2.97	-45.1	-57.5	3.8	1.49e+00	0	59	104	910163968	61	15292
2026-01-22 02:05:28.58	265.60	2.92	-45.1	-57.5	3.8	1.49e+00	0	59	104	910163968	61	15286
2026-01-22 02:05:29.59	265.51	2.87	-45.1	-57.5	3.8	1.49e+00	0	59	104	910163968	61	15300
2026-01-22 02:05:30.60	265.42	2.82	-45.1	-57.5	3.8	1.49e+00	0	59	104	910163968	61	15258
2026-01-22 02:05:31.61	265.33	2.77	-45.1	-57.5	3.8	1.49e+00	0	59	104	910163968	61	15295
2026-01-22 02:05:32.63	265.24	2.71	-45.1	-57.5	3.8	1.49e+00	0	59	104	910163968	61	15317
2026-01-22 02:05:33.64	265.15	2.66	-45.1	-57.5	3.8	1.49e+00	0	59	104	910163968	61	15323
2026-01-22 02:05:34.65	265.06	2.61	-45.1	-57.4	3.8	1.49e+00	0	59	104	910163968	61	15220
2026-01-22 02:05:35.66	264.97	2.56	-45.1	-57.5	3.8	1.49e+00	0	59	104	910163968	61	15256
2026-01-22 02:05:36.67	264.88	2.51	-45.1	-57.5	3.8	1.49e+00	0	59	104	910163968	61	15241
2026-01-22 02:05:37.68	264.79	2.46	-45.1	-57.5	3.8	1.49e+00	0	59	104	910163968	61	15307
2026-01-22 02:05:38.69	264.70	2.41	-45.1	-57.5	3.8	1.49e+00	0	59	104	910163968	61	15239
2026-01-22 02:05:39.70	264.61	2.35	-45.1	-57.5	3.8	1.49e+00	0	59	104	910163968	61	15273
2026-01-22 02:05:40.71	264.53	2.30	-45.1	-57.5	3.8	1.49e+00	0	59	104	910163968	61	15273
2026-01-22 02:05:41.72	264.44	2.25	-45.1	-57.5	3.8	1.49e+00	0	59	104	910163968	61	15228
2026-01-22 02:05:42.73	264.35	2.20	-45.1	-57.5	3.8	1.49e+00	0	59	104	910163968	61	15258
2026-01-22 02:05:43.74	264.27	2.15	-45.1	-57.5	3.8	1.49e+00	0	59	104	910163968	61	15270
2026-01-22 02:05:44.75	264.18	2.10	-45.1	-57.5	3.8	1.49e+00	0	59	104	910163968	61	15341
2026-01-22 02:05:45.77	264.09	2.05	-45.1	-57.5	3.8	1.49e+00	0	59	104	910163968	61	15314
2026-01-22 02:05:46.78	264.01	2.00	-45.1	-57.5	3.8	1.49e+00	0	59	104	910163968	61	15265
2026-01-22 02:05:47.79	263.92	1.95	-45.1	-57.5	3.8	1.49e+00	0	59	104	910163968	61	15297

#Closed at: 2026-01-22 02:05:48
#Recorded file [910 MB]: D:/lorett/data/31039_260122_045554.dat