passes_logs/2026/01/22/R2.0S_Moscow/R2.0S_Moscow__20260122_235458_NOAA_21_JPSS-2_rec.log

#Pass ID: 20260122_235458_NOAA 21 (JPSS-2)
#Satellite: NOAA 21 (JPSS-2)
#Configuration: NOAA-21
#almurnet v.1.7.20251203
#Start time: 2026-01-22 23:54:58

#Version: 2.2.20231116
#Station: R2.0S_Moscow
#Location: 37.707566 lon 55.798166 lat
#TLE: 1 54234U 22150A   26022.41365820  .00000211  00000+0  12084-3 0  9990
#TLE: 2 54234  98.7507 323.2240 0000658 234.5287 125.5828 14.19537645165864

#Time	Az	El	Level	Level2	SNR	BER	BlckErr	Temp	State	Recorded	gain1	gain2
2026-01-22 23:54:58.92	15.08	2.05	-43.0	-55.4	3.8	1.49e+00	0	51	0	0	58	14307
2026-01-22 23:54:59.92	15.07	2.11	-43.0	-55.4	3.8	1.49e+00	0	51	104	0	57	15074
2026-01-22 23:55:00.93	15.07	2.18	-43.0	-55.4	3.8	1.49e+00	0	51	104	0	57	15112
2026-01-22 23:55:01.94	15.06	2.24	-43.0	-55.4	3.8	1.49e+00	0	51	104	0	57	15129
2026-01-22 23:55:02.96	15.05	2.31	-43.0	-55.4	3.8	1.49e+00	0	51	104	0	57	15122
2026-01-22 23:55:03.97	15.05	2.37	-43.0	-55.4	3.8	1.49e+00	0	51	104	0	57	15134
2026-01-22 23:55:04.97	15.04	2.44	-43.0	-55.4	3.8	1.49e+00	0	51	104	0	57	15091
2026-01-22 23:55:05.99	15.03	2.50	-43.0	-55.4	3.8	1.49e+00	0	51	104	0	57	15101
2026-01-22 23:55:07.00	15.02	2.57	-43.0	-55.4	3.8	1.49e+00	0	51	104	0	57	15121
2026-01-22 23:55:08.01	15.02	2.63	-43.0	-55.4	3.8	1.49e+00	0	52	104	0	57	15102
2026-01-22 23:55:09.01	15.01	2.70	-43.0	-55.4	3.8	1.49e+00	0	52	104	0	57	15158
2026-01-22 23:55:10.02	15.00	2.77	-43.0	-55.4	3.8	1.49e+00	0	52	104	0	57	15124
2026-01-22 23:55:11.04	14.99	2.83	-43.0	-55.4	3.8	1.49e+00	0	52	104	0	57	15153
2026-01-22 23:55:12.05	14.99	2.90	-43.0	-55.4	3.8	1.49e+00	0	52	104	0	57	15127
2026-01-22 23:55:13.06	14.98	2.97	-43.0	-55.4	3.8	1.49e+00	0	52	104	0	57	15092
2026-01-22 23:55:14.07	14.97	3.03	-43.0	-55.4	3.8	1.49e+00	0	52	104	0	57	15082
2026-01-22 23:55:15.08	14.96	3.10	-43.0	-55.4	3.8	1.49e+00	0	52	104	0	57	15112
2026-01-22 23:55:16.08	14.96	3.16	-43.0	-55.4	3.8	1.49e+00	0	52	104	0	57	15106
2026-01-22 23:55:17.09	14.95	3.23	-43.0	-55.4	3.8	1.49e+00	0	52	104	0	57	15134
2026-01-22 23:55:18.11	14.94	3.30	-43.0	-55.4	3.8	1.49e+00	0	53	104	0	57	15109
2026-01-22 23:55:19.11	14.93	3.37	-43.0	-55.4	3.8	1.49e+00	0	52	104	0	57	15142
2026-01-22 23:55:20.12	14.92	3.43	-43.0	-55.4	3.8	1.49e+00	0	53	104	0	57	15091
2026-01-22 23:55:21.14	14.91	3.50	-43.0	-55.4	3.8	1.49e+00	0	53	104	0	57	15080
2026-01-22 23:55:22.15	14.91	3.57	-43.0	-55.4	3.8	1.49e+00	0	53	104	0	57	15095
2026-01-22 23:55:23.16	14.90	3.64	-43.0	-55.4	3.8	1.49e+00	0	53	104	0	57	15117
2026-01-22 23:55:24.17	14.89	3.71	-43.0	-55.4	3.8	1.49e+00	0	53	104	0	57	15109
2026-01-22 23:55:25.18	14.88	3.77	-43.0	-55.4	3.8	1.49e+00	0	53	104	0	57	15112
2026-01-22 23:55:26.19	14.87	3.84	-43.0	-55.3	3.8	1.49e+00	0	53	104	0	57	15050
2026-01-22 23:55:27.20	14.86	3.91	-43.0	-55.4	3.8	1.49e+00	0	53	104	0	57	15112
2026-01-22 23:55:28.21	14.86	3.98	-43.0	-55.3	3.8	1.49e+00	0	53	104	0	57	15032
2026-01-22 23:55:29.22	14.85	4.05	-43.0	-55.4	3.8	1.49e+00	0	53	104	0	57	15118
2026-01-22 23:55:30.23	14.84	4.12	-43.0	-55.3	3.8	1.49e+00	0	53	104	0	57	15042
2026-01-22 23:55:31.24	14.83	4.19	-43.0	-55.4	3.8	1.49e+00	0	53	104	0	57	15082
2026-01-22 23:55:32.25	14.82	4.26	-43.0	-55.3	3.8	1.49e+00	0	53	104	0	57	14994
2026-01-22 23:55:33.26	14.81	4.33	-43.0	-55.4	3.8	1.49e+00	0	53	104	0	57	15062
2026-01-22 23:55:34.27	14.80	4.40	-43.0	-55.4	3.8	1.49e+00	0	54	104	0	57	15063
2026-01-22 23:55:35.27	14.79	4.47	-43.0	-55.4	3.8	1.49e+00	0	53	104	0	57	15074
2026-01-22 23:55:36.29	14.79	4.54	-43.0	-55.4	3.8	1.49e+00	0	54	104	0	57	15075
2026-01-22 23:55:37.30	14.78	4.61	-43.0	-55.3	3.8	1.49e+00	0	53	104	0	57	14992
2026-01-22 23:55:38.31	14.77	4.68	-43.0	-55.3	3.8	1.49e+00	0	54	104	0	57	14950
2026-01-22 23:55:39.32	14.76	4.75	-43.0	-55.4	3.8	1.49e+00	0	54	104	0	57	15069
2026-01-22 23:55:40.33	14.75	4.82	-43.0	-55.3	3.8	1.49e+00	0	54	104	0	57	14942
2026-01-22 23:55:41.34	14.74	4.89	-43.0	-55.3	3.8	1.49e+00	0	54	104	0	57	14962
2026-01-22 23:55:42.35	14.73	4.96	-43.0	-55.3	3.8	1.49e+00	0	54	104	0	57	14951
2026-01-22 23:55:43.36	14.72	5.04	-43.0	-55.2	3.8	1.49e+00	0	54	104	0	57	14790
2026-01-22 23:55:44.37	14.71	5.11	-43.0	-55.2	3.8	1.49e+00	0	54	104	0	57	14874
2026-01-22 23:55:45.38	14.70	5.18	-43.0	-55.3	3.8	1.49e+00	0	54	104	0	57	14932
2026-01-22 23:55:46.39	14.69	5.25	-43.0	-55.1	3.8	1.49e+00	0	54	104	0	57	14669
2026-01-22 23:55:47.40	14.68	5.32	-43.0	-55.1	3.8	1.49e+00	0	54	104	0	57	14585
2026-01-22 23:55:48.41	14.67	5.40	-43.0	-55.2	3.8	1.49e+00	0	54	104	0	57	14810
2026-01-22 23:55:49.42	14.66	5.47	-43.0	-55.3	3.8	1.49e+00	0	54	104	0	57	14921
2026-01-22 23:55:50.43	14.65	5.54	-43.0	-55.1	3.8	1.49e+00	0	54	104	0	57	14560
2026-01-22 23:55:51.44	14.64	5.62	-43.0	-54.9	3.8	1.49e+00	0	54	104	0	57	14329
2026-01-22 23:55:52.45	14.63	5.69	-43.0	-55.1	3.8	1.49e+00	0	54	104	0	57	14554
2026-01-22 23:55:53.46	14.62	5.76	-43.0	-55.3	3.8	1.49e+00	0	54	104	0	57	14925
2026-01-22 23:55:54.47	14.61	5.84	-43.0	-55.3	3.8	1.49e+00	0	55	104	0	57	14933
2026-01-22 23:55:55.48	14.60	5.91	-43.0	-55.1	3.8	1.49e+00	0	55	104	0	57	14587
2026-01-22 23:55:56.49	14.59	5.99	-42.9	-54.9	3.8	1.49e+00	0	55	104	0	57	14228
2026-01-22 23:55:57.50	14.58	6.06	-42.9	-54.9	3.8	1.49e+00	0	55	104	0	57	14288
2026-01-22 23:55:58.51	14.57	6.13	-43.0	-55.1	3.8	1.49e+00	0	55	104	0	57	14592
2026-01-22 23:55:59.52	14.56	6.21	-43.0	-55.3	3.8	1.49e+00	0	55	104	0	57	14940
2026-01-22 23:56:00.53	14.55	6.28	-43.0	-55.4	3.8	1.49e+00	0	55	104	0	57	15106
2026-01-22 23:56:01.54	14.54	6.36	-43.0	-55.2	3.8	1.49e+00	0	55	104	0	57	14879
2026-01-22 23:56:02.55	14.53	6.44	-42.9	-54.9	3.8	1.49e+00	0	55	104	0	57	14297
2026-01-22 23:56:03.56	14.51	6.51	-42.9	-54.3	3.8	1.49e+00	0	55	104	0	57	13352
2026-01-22 23:56:04.57	14.50	6.59	-42.8	-53.7	3.8	1.49e+00	0	55	104	0	57	12445
2026-01-22 23:56:05.58	14.49	6.66	-42.7	-52.4	4.1	1.47e+00	0	55	104	0	57	10763
2026-01-22 23:56:06.59	14.48	6.74	-42.6	-51.7	4.2	1.46e+00	0	55	104	0	57	9854
2026-01-22 23:56:07.60	14.47	6.82	-42.5	-50.9	4.5	1.43e+00	2	55	104	0	57	9043
2026-01-22 23:56:08.61	14.46	6.89	-42.3	-49.9	4.9	9.90e-01	2	55	104	0	56	8541
2026-01-22 23:56:09.62	14.45	6.97	-42.1	-48.9	5.5	5.49e-01	0	55	0	2097152	56	7626
2026-01-22 23:56:10.63	14.43	7.05	-41.6	-47.6	6.4	2.84e-01	0	55	0	5242880	55	6911
2026-01-22 23:56:11.64	14.42	7.12	-41.2	-46.4	7.5	1.21e-01	0	55	0	8388608	54	6357
2026-01-22 23:56:12.65	14.41	7.20	-40.7	-45.1	8.8	5.11e-02	0	55	0	11534336	53	5790
2026-01-22 23:56:13.66	14.40	7.28	-40.4	-44.3	9.5	1.55e-02	0	55	0	14680064	52	5652
2026-01-22 23:56:14.67	14.39	7.36	-40.1	-43.8	10.1	7.21e-03	0	56	0	17825792	52	5285
2026-01-22 23:56:15.68	14.38	7.44	-40.1	-43.7	10.2	5.89e-03	0	55	0	20971520	52	5274
2026-01-22 23:56:16.69	14.36	7.52	-40.4	-44.4	9.5	1.23e-02	0	56	0	24117248	52	5665
2026-01-22 23:56:17.70	14.35	7.60	-40.6	-44.8	9.1	2.22e-02	0	56	0	27262976	52	5958
2026-01-22 23:56:18.71	14.34	7.67	-40.5	-44.6	9.3	1.97e-02	0	56	0	30408704	52	5805
2026-01-22 23:56:19.73	14.33	7.75	-40.2	-44.0	9.9	9.44e-03	0	56	0	33554432	52	5431
2026-01-22 23:56:20.73	14.31	7.83	-40.3	-44.1	9.7	9.07e-03	0	56	0	36700160	52	5521
2026-01-22 23:56:21.74	14.30	7.91	-40.8	-45.3	8.5	2.56e-02	0	56	0	39845888	52	6333
2026-01-22 23:56:22.75	14.29	7.99	-41.0	-45.8	8.0	6.44e-02	0	56	0	42991616	52	6701
2026-01-22 23:56:23.76	14.28	8.07	-40.8	-44.9	9.1	2.72e-02	0	56	0	46137344	52	6011
2026-01-22 23:56:24.77	14.26	8.16	-42.0	-48.4	5.9	1.50e-01	0	56	0	49283072	54	8023
2026-01-22 23:56:25.78	14.25	8.24	-41.6	-47.2	6.8	8.51e-02	0	56	0	52428800	54	7021
2026-01-22 23:56:26.79	14.24	8.32	-41.1	-45.3	8.9	8.37e-02	0	56	0	55574528	53	5992
2026-01-22 23:56:27.80	14.22	8.40	-42.4	-52.9	3.8	4.44e-02	0	56	104	58720256	55	12682
2026-01-22 23:56:28.81	14.21	8.48	-40.8	-44.7	9.4	6.94e-01	0	56	0	58720256	53	5564
2026-01-22 23:56:29.82	14.20	8.56	-40.6	-44.3	9.9	8.21e-03	0	56	0	61865984	53	5331
2026-01-22 23:56:30.83	14.18	8.64	-40.4	-44.0	10.3	6.56e-03	0	56	0	65011712	52	5436
2026-01-22 23:56:31.84	14.17	8.73	-40.4	-43.9	10.4	4.30e-03	0	56	0	68157440	52	5378
2026-01-22 23:56:32.85	14.16	8.81	-40.4	-43.9	10.4	5.90e-03	0	56	0	71303168	52	5400
2026-01-22 23:56:33.86	14.14	8.89	-40.3	-43.6	10.7	2.81e-03	0	56	0	74448896	52	5214
2026-01-22 23:56:34.87	14.13	8.98	-40.3	-43.7	10.8	3.03e-03	0	56	0	77594624	52	5226
2026-01-22 23:56:35.88	14.12	9.06	-40.3	-43.7	10.8	2.41e-03	0	56	0	80740352	52	5241
2026-01-22 23:56:36.89	14.10	9.14	-40.3	-43.6	10.8	2.74e-03	0	56	0	83886080	52	5205
2026-01-22 23:56:37.89	14.09	9.23	-40.3	-43.6	10.8	2.48e-03	0	56	0	87031808	52	5214
2026-01-22 23:56:38.90	14.07	9.31	-40.3	-43.6	10.9	2.26e-03	0	57	0	90177536	52	5195
2026-01-22 23:56:39.92	14.06	9.40	-40.4	-43.7	10.7	2.69e-03	0	56	0	93323264	52	5279
2026-01-22 23:56:40.93	14.04	9.48	-40.3	-43.6	10.9	2.30e-03	0	57	0	96468992	52	5168
2026-01-22 23:56:41.94	14.03	9.57	-40.3	-43.6	10.8	2.09e-03	0	57	0	99614720	52	5210
2026-01-22 23:56:42.94	14.02	9.65	-40.3	-43.6	10.9	2.42e-03	0	57	0	102760448	52	5213
2026-01-22 23:56:43.95	14.00	9.74	-40.3	-43.5	11.0	1.88e-03	0	57	0	105906176	52	5151
2026-01-22 23:56:44.96	13.99	9.83	-40.3	-43.5	11.0	1.85e-03	0	56	0	109051904	52	5142
2026-01-22 23:56:45.97	13.97	9.91	-40.3	-43.6	11.0	2.34e-03	0	57	0	112197632	52	5170
2026-01-22 23:56:46.98	13.96	10.00	-40.3	-43.6	11.0	1.62e-03	0	57	0	115343360	52	5179
2026-01-22 23:56:47.99	13.94	10.09	-40.3	-43.5	11.1	1.76e-03	0	57	0	118489088	52	5142
2026-01-22 23:56:49.00	13.93	10.17	-40.3	-43.5	11.1	1.65e-03	0	57	0	121634816	52	5118
2026-01-22 23:56:50.01	13.91	10.26	-40.2	-43.4	11.2	1.40e-03	0	57	0	124780544	52	5064
2026-01-22 23:56:51.02	13.89	10.35	-40.2	-43.3	11.3	1.15e-03	0	57	0	127926272	52	5024
2026-01-22 23:56:52.03	13.88	10.44	-40.2	-43.3	11.4	1.05e-03	0	57	0	131072000	52	4998
2026-01-22 23:56:53.04	13.86	10.53	-40.1	-43.1	11.5	8.34e-04	0	57	0	134217728	52	4902
2026-01-22 23:56:54.05	13.85	10.62	-40.2	-43.2	11.4	9.18e-04	0	57	0	137363456	52	4981
2026-01-22 23:56:55.06	13.83	10.71	-40.1	-43.2	11.5	8.47e-04	0	57	0	140509184	52	4948
2026-01-22 23:56:56.07	13.81	10.79	-40.1	-43.2	11.5	7.31e-04	0	57	0	143654912	52	4938
2026-01-22 23:56:57.08	13.80	10.88	-40.1	-43.1	11.6	7.26e-04	0	57	0	146800640	52	4896
2026-01-22 23:56:58.09	13.78	10.98	-40.1	-43.1	11.6	6.38e-04	0	57	0	149946368	52	4900
2026-01-22 23:56:59.10	13.77	11.07	-40.1	-43.1	11.7	6.01e-04	0	57	0	153092096	52	4878
2026-01-22 23:57:00.11	13.75	11.16	-40.1	-43.1	11.7	5.70e-04	0	57	0	156237824	52	4901
2026-01-22 23:57:01.12	13.73	11.25	-40.1	-43.1	11.7	5.31e-04	0	57	0	159383552	52	4888
2026-01-22 23:57:02.13	13.71	11.34	-40.0	-43.0	11.8	4.16e-04	0	57	0	162529280	52	4820
2026-01-22 23:57:03.14	13.70	11.43	-40.1	-43.0	11.7	5.29e-04	0	57	0	165675008	52	4859
2026-01-22 23:57:04.15	13.68	11.52	-40.1	-43.1	11.6	6.24e-04	0	57	0	168820736	52	4918
2026-01-22 23:57:05.16	13.66	11.62	-40.0	-43.0	11.8	4.66e-04	0	57	0	171966464	52	4844
2026-01-22 23:57:06.17	13.65	11.71	-40.0	-43.0	11.8	5.16e-04	0	57	0	175112192	52	4825
2026-01-22 23:57:07.18	13.63	11.80	-40.0	-43.0	11.9	4.03e-04	0	57	0	178257920	52	4818
2026-01-22 23:57:08.19	13.61	11.90	-40.0	-42.9	11.9	4.22e-04	0	57	0	181403648	52	4809
2026-01-22 23:57:09.20	13.59	11.99	-40.0	-42.9	11.9	3.81e-04	0	57	0	184549376	52	4802
2026-01-22 23:57:10.21	13.57	12.09	-40.0	-43.0	11.8	4.30e-04	0	57	0	187695104	52	4825
2026-01-22 23:57:11.22	13.56	12.18	-40.1	-42.9	12.0	3.58e-04	0	57	0	190840832	51	5099
2026-01-22 23:57:12.23	13.54	12.28	-40.1	-42.9	12.0	2.59e-04	0	57	0	193986560	51	5077
2026-01-22 23:57:13.24	13.52	12.37	-40.0	-42.9	12.1	2.66e-04	0	57	0	197132288	51	5044
2026-01-22 23:57:14.25	13.50	12.47	-40.0	-42.8	12.2	2.35e-04	0	57	0	200278016	51	5023
2026-01-22 23:57:15.26	13.48	12.56	-40.1	-42.9	12.1	2.49e-04	0	57	0	203423744	51	5077
2026-01-22 23:57:16.27	13.46	12.66	-40.0	-42.8	12.2	2.55e-04	0	57	0	206569472	51	5040
2026-01-22 23:57:17.28	13.44	12.76	-40.0	-42.8	12.2	2.03e-04	0	57	0	209715200	51	5018
2026-01-22 23:57:18.29	13.42	12.85	-40.1	-42.8	12.2	2.05e-04	0	57	0	212860928	51	5026
2026-01-22 23:57:19.30	13.40	12.95	-40.0	-42.8	12.2	2.03e-04	0	57	0	216006656	51	5007
2026-01-22 23:57:20.31	13.39	13.05	-40.1	-42.8	12.3	1.98e-04	0	57	0	219152384	51	5026
2026-01-22 23:57:21.32	13.37	13.15	-40.0	-42.8	12.3	1.59e-04	0	57	0	222298112	51	4990
2026-01-22 23:57:22.33	13.35	13.25	-40.0	-42.7	12.4	1.46e-04	0	57	0	225443840	51	4974
2026-01-22 23:57:23.34	13.33	13.35	-40.1	-42.8	12.4	1.44e-04	0	57	0	228589568	51	5005
2026-01-22 23:57:24.35	13.31	13.45	-40.0	-42.7	12.5	1.19e-04	0	57	0	231735296	51	4948
2026-01-22 23:57:25.36	13.28	13.55	-40.0	-42.6	12.5	1.09e-04	0	57	0	234881024	51	4920
2026-01-22 23:57:26.37	13.26	13.65	-40.0	-42.7	12.5	1.04e-04	0	58	0	238026752	51	4940
2026-01-22 23:57:27.38	13.24	13.75	-40.0	-42.7	12.5	8.77e-05	0	58	0	241172480	51	4949
2026-01-22 23:57:28.39	13.22	13.85	-40.0	-42.6	12.6	8.77e-05	0	58	0	244318208	51	4900
2026-01-22 23:57:29.40	13.20	13.95	-39.9	-42.6	12.7	9.38e-05	0	58	0	247463936	51	4874
2026-01-22 23:57:30.41	13.18	14.06	-39.9	-42.5	12.7	7.17e-05	0	58	0	250609664	51	4839
2026-01-22 23:57:31.43	13.16	14.16	-39.9	-42.6	12.7	9.38e-05	0	58	0	253755392	51	4875
2026-01-22 23:57:32.44	13.14	14.26	-39.8	-42.4	12.9	6.71e-05	0	58	0	256901120	51	4787
2026-01-22 23:57:33.44	13.12	14.37	-39.8	-42.3	13.0	3.89e-05	0	58	0	260046848	51	4755
2026-01-22 23:57:34.45	13.09	14.47	-39.8	-42.3	13.0	3.43e-05	0	58	0	263192576	51	4759
2026-01-22 23:57:35.46	13.07	14.57	-39.9	-42.4	12.9	3.81e-05	0	58	0	266338304	51	4793
2026-01-22 23:57:36.47	13.05	14.68	-39.9	-42.5	12.9	4.95e-05	0	58	0	269484032	51	4817
2026-01-22 23:57:37.48	13.03	14.78	-39.9	-42.4	12.9	4.27e-05	0	58	0	273678336	51	4800
2026-01-22 23:57:38.49	13.00	14.89	-39.8	-42.4	13.0	3.28e-05	0	58	0	275775488	51	4762
2026-01-22 23:57:39.50	12.98	15.00	-39.8	-42.3	13.0	3.89e-05	0	58	0	278921216	51	4756
2026-01-22 23:57:40.51	12.96	15.10	-39.9	-42.4	13.0	4.11e-05	0	58	0	282066944	51	4772
2026-01-22 23:57:41.52	12.94	15.21	-40.0	-42.6	12.9	4.57e-05	0	58	0	286261248	51	4885
2026-01-22 23:57:42.53	12.91	15.32	-40.0	-42.5	12.9	4.95e-05	0	58	0	289406976	51	4854
2026-01-22 23:57:43.54	12.89	15.43	-39.9	-42.5	13.0	4.50e-05	0	58	0	292552704	51	4822
2026-01-22 23:57:44.55	12.86	15.54	-40.0	-42.5	13.0	3.58e-05	0	58	0	295698432	51	4844
2026-01-22 23:57:45.57	12.84	15.65	-40.0	-42.6	13.0	4.57e-05	0	58	0	298844160	51	4875
2026-01-22 23:57:46.58	12.82	15.76	-40.1	-42.6	12.9	3.66e-05	0	58	0	301989888	51	4915
2026-01-22 23:57:47.59	12.79	15.87	-40.1	-42.6	12.9	4.42e-05	0	58	0	305135616	51	4919
2026-01-22 23:57:48.60	12.77	15.98	-40.1	-42.6	12.9	4.04e-05	0	58	0	308281344	51	4911
2026-01-22 23:57:49.60	12.74	16.09	-40.1	-42.7	12.9	6.56e-05	0	58	0	311427072	51	4955
2026-01-22 23:57:50.61	12.72	16.20	-40.1	-42.7	12.9	4.80e-05	0	58	0	314572800	51	4931
2026-01-22 23:57:51.62	12.69	16.31	-40.1	-42.7	12.9	4.88e-05	0	58	0	317718528	51	4957
2026-01-22 23:57:52.63	12.67	16.42	-40.2	-42.7	12.9	5.11e-05	0	58	0	320864256	51	4977
2026-01-22 23:57:53.64	12.64	16.54	-40.2	-42.8	12.9	3.73e-05	0	58	0	324009984	51	4987
2026-01-22 23:57:54.65	12.61	16.65	-40.2	-42.7	12.9	5.87e-05	0	58	0	327155712	51	4952
2026-01-22 23:57:55.66	12.59	16.76	-40.2	-42.7	12.9	7.01e-05	0	58	0	330301440	51	4979
2026-01-22 23:57:56.67	12.56	16.88	-40.1	-42.6	13.0	5.18e-05	0	58	0	333447168	51	4918
2026-01-22 23:57:57.68	12.53	16.99	-40.2	-42.7	12.9	3.81e-05	0	58	0	336592896	51	4981
2026-01-22 23:57:58.69	12.51	17.11	-40.2	-42.7	12.9	5.72e-05	0	58	0	339738624	51	4983
2026-01-22 23:57:59.70	12.48	17.23	-40.3	-42.9	12.8	6.63e-05	0	58	0	342884352	51	5058
2026-01-22 23:58:00.71	12.45	17.34	-40.3	-42.8	12.8	6.02e-05	0	58	0	346030080	51	5021
2026-01-22 23:58:01.72	12.43	17.46	-40.3	-42.9	12.8	6.02e-05	0	58	0	349175808	51	5075
2026-01-22 23:58:02.73	12.40	17.58	-40.3	-42.9	12.7	7.70e-05	0	58	0	352321536	51	5092
2026-01-22 23:58:03.74	12.37	17.70	-40.3	-43.0	12.8	8.16e-05	0	58	0	355467264	51	5103
2026-01-22 23:58:04.75	12.34	17.82	-40.3	-42.9	12.9	5.95e-05	0	58	0	358612992	51	5051
2026-01-22 23:58:05.76	12.31	17.94	-40.3	-42.9	12.8	8.23e-05	0	58	0	361758720	51	5086
2026-01-22 23:58:06.77	12.28	18.06	-40.3	-42.9	12.8	6.25e-05	0	58	0	364904448	51	5072
2026-01-22 23:58:07.78	12.25	18.18	-40.4	-43.0	12.7	5.87e-05	0	58	0	368050176	51	5104
2026-01-22 23:58:08.79	12.23	18.30	-40.3	-42.8	12.9	6.17e-05	0	58	0	371195904	51	5026
2026-01-22 23:58:09.80	12.20	18.42	-40.3	-42.9	12.8	4.65e-05	0	59	0	374341632	51	5074
2026-01-22 23:58:10.81	12.17	18.54	-40.4	-42.9	12.8	5.72e-05	0	58	0	377487360	51	5098
2026-01-22 23:58:11.82	12.14	18.67	-40.3	-42.9	12.9	6.17e-05	0	59	0	380633088	51	5085
2026-01-22 23:58:12.83	12.10	18.79	-40.4	-42.9	12.8	4.34e-05	0	59	0	383778816	51	5092
2026-01-22 23:58:13.84	12.07	18.92	-40.4	-43.0	12.8	6.40e-05	0	58	0	386924544	51	5131
2026-01-22 23:58:14.84	12.04	19.04	-40.4	-43.0	12.8	5.79e-05	0	58	0	390070272	51	5129
2026-01-22 23:58:15.85	12.01	19.17	-40.3	-42.9	12.9	5.56e-05	0	59	0	393216000	51	5061
2026-01-22 23:58:16.86	11.98	19.29	-40.3	-42.9	12.9	4.80e-05	0	59	0	396361728	51	5065
2026-01-22 23:58:17.87	11.95	19.42	-40.3	-42.9	12.9	4.65e-05	0	59	0	399507456	51	5069
2026-01-22 23:58:18.88	11.92	19.55	-40.3	-42.8	13.0	3.05e-05	0	59	0	402653184	51	4996
2026-01-22 23:58:19.89	11.88	19.67	-40.3	-42.8	13.1	3.73e-05	0	59	0	405798912	51	4994
2026-01-22 23:58:20.90	11.85	19.80	-40.2	-42.7	13.1	2.89e-05	0	59	0	408944640	51	4945
2026-01-22 23:58:21.91	11.82	19.93	-40.2	-42.6	13.2	2.89e-05	0	59	0	412090368	51	4925
2026-01-22 23:58:22.92	11.78	20.06	-40.2	-42.6	13.2	2.36e-05	0	59	0	415236096	51	4895
2026-01-22 23:58:23.93	11.75	20.20	-40.1	-42.6	13.3	1.52e-05	0	59	0	418381824	51	4877
2026-01-22 23:58:24.94	11.72	20.33	-40.0	-42.4	13.4	1.06e-05	0	59	0	421527552	51	4784
2026-01-22 23:58:25.96	11.68	20.46	-40.0	-42.3	13.5	1.14e-05	0	59	0	424673280	51	4752
2026-01-22 23:58:26.97	11.65	20.59	-40.0	-42.3	13.5	1.14e-05	0	59	0	427819008	51	4756
2026-01-22 23:58:27.98	11.61	20.73	-39.9	-42.3	13.5	1.22e-05	0	59	0	430964736	51	4719
2026-01-22 23:58:28.99	11.58	20.86	-39.8	-42.1	13.7	8.30e-06	0	59	0	434110464	51	4634
2026-01-22 23:58:30.00	11.54	21.00	-39.8	-42.1	13.8	2.20e-06	0	59	0	437256192	51	4612
2026-01-22 23:58:31.00	11.50	21.13	-39.8	-42.1	13.8	1.14e-05	0	59	0	440401920	51	4608
2026-01-22 23:58:32.01	11.47	21.27	-39.8	-42.1	13.7	4.50e-06	0	59	0	443547648	51	4633
2026-01-22 23:58:33.02	11.43	21.41	-39.7	-42.0	13.9	7.60e-06	0	59	0	446693376	51	4546
2026-01-22 23:58:34.03	11.39	21.54	-39.6	-41.8	14.0	2.20e-06	0	59	0	449839104	51	4484
2026-01-22 23:58:35.04	11.36	21.68	-39.6	-41.8	14.0	7.00e-07	0	59	0	452984832	51	4486
2026-01-22 23:58:36.05	11.32	21.82	-39.6	-41.8	14.1	2.20e-06	0	59	0	456130560	51	4447
2026-01-22 23:58:37.06	11.28	21.96	-39.6	-41.8	14.1	2.20e-06	0	59	0	459276288	51	4455
2026-01-22 23:58:38.07	11.24	22.10	-39.5	-41.6	14.2	1.50e-06	0	59	0	462422016	50	4651
2026-01-22 23:58:39.08	11.20	22.25	-39.3	-41.4	14.5	7.00e-07	0	59	0	465567744	50	4528
2026-01-22 23:58:40.10	11.16	22.39	-39.3	-41.3	14.6	7.00e-07	0	59	0	468713472	50	4463
2026-01-22 23:58:41.11	11.12	22.53	-39.3	-41.3	14.6	0.00e+00	0	59	0	471859200	50	4467
2026-01-22 23:58:42.12	11.08	22.68	-39.3	-41.4	14.5	0.00e+00	0	59	0	475004928	50	4521
2026-01-22 23:58:43.13	11.04	22.82	-39.4	-41.4	14.4	7.00e-07	0	59	0	478150656	50	4535
2026-01-22 23:58:44.14	11.00	22.97	-39.3	-41.3	14.6	7.00e-07	0	59	0	481296384	50	4474
2026-01-22 23:58:45.15	10.96	23.11	-39.2	-41.3	14.6	7.00e-07	0	59	0	484442112	50	4446
2026-01-22 23:58:46.16	10.91	23.26	-39.3	-41.4	14.5	7.00e-07	0	59	0	487587840	50	4511
2026-01-22 23:58:47.17	10.87	23.41	-39.2	-41.3	14.7	0.00e+00	0	59	0	490733568	50	4442
2026-01-22 23:58:48.18	10.83	23.56	-39.1	-41.1	14.8	0.00e+00	0	59	0	493879296	50	4382
2026-01-22 23:58:49.19	10.79	23.71	-39.1	-41.0	14.9	0.00e+00	0	59	0	497025024	50	4327
2026-01-22 23:58:50.20	10.74	23.86	-39.2	-41.2	14.8	0.00e+00	0	59	0	500170752	50	4395
2026-01-22 23:58:51.21	10.70	24.01	-39.1	-41.1	14.9	0.00e+00	0	59	0	503316480	50	4341
2026-01-22 23:58:52.22	10.65	24.17	-39.1	-41.0	14.9	0.00e+00	0	59	0	506462208	50	4327
2026-01-22 23:58:53.22	10.61	24.32	-39.1	-41.1	14.9	7.00e-07	0	59	0	509607936	50	4342
2026-01-22 23:58:54.23	10.56	24.47	-39.1	-41.1	14.8	0.00e+00	0	59	0	512753664	50	4386
2026-01-22 23:58:55.24	10.52	24.63	-39.2	-41.3	14.7	0.00e+00	0	59	0	515899392	50	4456
2026-01-22 23:58:56.25	10.47	24.78	-39.3	-41.3	14.7	0.00e+00	0	59	0	519045120	50	4456
2026-01-22 23:58:57.26	10.42	24.94	-39.3	-41.3	14.7	0.00e+00	0	59	0	522190848	50	4473
2026-01-22 23:58:58.27	10.37	25.10	-39.3	-41.3	14.6	7.00e-07	0	59	0	525336576	50	4488
2026-01-22 23:58:59.28	10.33	25.26	-39.4	-41.5	14.5	0.00e+00	0	59	0	528482304	50	4567
2026-01-22 23:59:00.29	10.28	25.42	-39.4	-41.5	14.4	0.00e+00	0	59	0	531628032	50	4579
2026-01-22 23:59:01.30	10.23	25.58	-39.5	-41.6	14.4	0.00e+00	0	59	0	534773760	50	4630
2026-01-22 23:59:02.31	10.18	25.74	-39.6	-41.7	14.2	1.50e-06	0	59	0	537919488	50	4704
2026-01-22 23:59:03.32	10.13	25.90	-39.7	-41.9	14.1	7.00e-07	0	59	0	541065216	50	4773
2026-01-22 23:59:04.33	10.08	26.07	-39.8	-42.0	14.0	7.00e-07	0	59	0	544210944	50	4841
2026-01-22 23:59:05.34	10.03	26.23	-39.9	-42.1	13.9	7.00e-07	0	59	0	547356672	50	4909
2026-01-22 23:59:06.35	9.97	26.40	-40.0	-42.2	13.8	6.80e-06	0	59	0	550502400	50	4983
2026-01-22 23:59:07.36	9.92	26.56	-40.1	-42.4	13.6	6.10e-06	0	59	0	553648128	50	5082
2026-01-22 23:59:08.37	9.87	26.73	-40.2	-42.5	13.5	1.52e-05	0	59	0	556793856	50	5158
2026-01-22 23:59:09.38	9.81	26.90	-40.3	-42.7	13.3	1.52e-05	0	59	0	559939584	51	4947
2026-01-22 23:59:10.39	9.76	27.07	-40.4	-43.0	13.0	2.82e-05	0	59	0	563085312	51	5109
2026-01-22 23:59:11.40	9.70	27.24	-40.5	-43.0	13.0	2.89e-05	0	59	0	566231040	51	5121
2026-01-22 23:59:12.41	9.65	27.41	-40.6	-43.1	12.9	4.34e-05	0	59	0	569376768	51	5217
2026-01-22 23:59:13.42	9.59	27.58	-40.7	-43.3	12.7	6.40e-05	0	59	0	572522496	51	5306
2026-01-22 23:59:14.43	9.53	27.76	-40.7	-43.3	12.6	6.71e-05	0	59	0	575668224	52	5016
2026-01-22 23:59:15.44	9.48	27.93	-40.7	-43.4	12.5	1.01e-04	0	59	0	578813952	52	5062
2026-01-22 23:59:16.45	9.42	28.11	-40.7	-43.4	12.6	1.01e-04	0	59	0	581959680	52	5075
2026-01-22 23:59:17.46	9.36	28.29	-40.8	-43.5	12.4	1.41e-04	0	59	0	585105408	52	5159
2026-01-22 23:59:18.47	9.30	28.47	-40.8	-43.5	12.4	1.55e-04	0	59	0	588251136	52	5116
2026-01-22 23:59:19.47	9.24	28.64	-40.8	-43.5	12.5	1.42e-04	0	59	0	592445440	52	5114
2026-01-22 23:59:20.49	9.18	28.83	-40.7	-43.4	12.5	1.25e-04	0	59	0	594542592	52	5070
2026-01-22 23:59:21.50	9.12	29.01	-40.7	-43.3	12.6	9.76e-05	0	59	0	597688320	52	5036
2026-01-22 23:59:22.51	9.05	29.19	-40.7	-43.3	12.6	9.99e-05	0	59	0	600834048	52	5029
2026-01-22 23:59:23.52	8.99	29.37	-40.7	-43.3	12.6	8.31e-05	0	59	0	603979776	52	5041
2026-01-22 23:59:24.53	8.92	29.56	-40.5	-43.1	12.9	7.78e-05	0	59	0	608174080	52	4899
2026-01-22 23:59:25.54	8.86	29.75	-40.4	-42.9	13.0	4.65e-05	0	59	0	611319808	52	4802
2026-01-22 23:59:26.55	8.79	29.93	-40.4	-42.9	13.1	4.27e-05	0	59	0	614465536	52	4775
2026-01-22 23:59:27.56	8.73	30.12	-40.4	-42.9	13.1	2.97e-05	0	59	0	616562688	52	4779
2026-01-22 23:59:28.57	8.66	30.31	-40.3	-42.7	13.3	1.67e-05	0	59	0	619708416	52	4662
2026-01-22 23:59:29.58	8.59	30.50	-40.1	-42.4	13.6	6.10e-06	0	59	0	623902720	52	4518
2026-01-22 23:59:30.59	8.52	30.69	-39.9	-42.1	14.0	3.00e-06	0	59	0	627048448	51	4631
2026-01-22 23:59:31.60	8.45	30.89	-39.9	-42.1	14.0	3.80e-06	0	59	0	630194176	51	4626
2026-01-22 23:59:32.61	8.38	31.08	-39.8	-42.0	14.1	2.20e-06	0	59	0	633339904	51	4571
2026-01-22 23:59:33.62	8.31	31.28	-39.8	-41.9	14.1	7.00e-07	0	59	0	636485632	51	4525
2026-01-22 23:59:34.62	8.24	31.47	-39.6	-41.8	14.3	1.50e-06	0	59	0	639631360	51	4453
2026-01-22 23:59:35.63	8.16	31.67	-39.6	-41.7	14.4	1.50e-06	0	59	0	642777088	51	4418
2026-01-22 23:59:36.64	8.09	31.87	-39.6	-41.7	14.4	1.50e-06	0	59	0	645922816	51	4439
2026-01-22 23:59:37.65	8.01	32.07	-39.7	-41.8	14.3	7.00e-07	0	59	0	649068544	51	4462
2026-01-22 23:59:38.66	7.94	32.28	-39.7	-41.8	14.3	1.50e-06	0	59	0	652214272	51	4491
2026-01-22 23:59:39.67	7.86	32.48	-39.8	-42.0	14.1	3.00e-06	0	59	0	655360000	51	4565
2026-01-22 23:59:40.68	7.78	32.69	-39.9	-42.1	14.0	2.20e-06	0	59	0	658505728	51	4621
2026-01-22 23:59:41.69	7.70	32.89	-40.0	-42.2	13.9	3.80e-06	0	60	0	661651456	51	4672
2026-01-22 23:59:42.70	7.62	33.10	-40.1	-42.3	13.8	2.20e-06	0	59	0	664797184	51	4736
2026-01-22 23:59:43.71	7.54	33.31	-40.1	-42.3	13.8	3.00e-06	0	59	0	667942912	51	4756
2026-01-22 23:59:44.72	7.45	33.52	-40.2	-42.6	13.5	6.80e-06	0	59	0	671088640	51	4871
2026-01-22 23:59:45.73	7.37	33.73	-40.3	-42.7	13.5	1.29e-05	0	59	0	674234368	51	4927
2026-01-22 23:59:46.74	7.28	33.95	-40.4	-42.8	13.3	1.75e-05	0	59	0	677380096	51	5000
2026-01-22 23:59:47.75	7.20	34.16	-40.5	-43.0	13.1	3.89e-05	0	60	0	680525824	51	5108
2026-01-22 23:59:48.76	7.11	34.38	-40.7	-43.2	12.9	4.19e-05	0	60	0	683671552	51	5256
2026-01-22 23:59:49.77	7.02	34.60	-40.8	-43.4	12.7	7.32e-05	0	59	0	686817280	52	5061
2026-01-22 23:59:50.78	6.93	34.81	-40.8	-43.5	12.5	1.01e-04	0	60	0	689963008	52	5121
2026-01-22 23:59:51.79	6.84	35.04	-40.9	-43.6	12.4	1.32e-04	0	60	0	693108736	52	5187
2026-01-22 23:59:52.80	6.75	35.26	-41.0	-43.8	12.2	2.01e-04	0	59	0	696254464	52	5300
2026-01-22 23:59:53.81	6.65	35.48	-41.1	-43.9	12.1	2.29e-04	0	59	0	699400192	52	5347
2026-01-22 23:59:54.82	6.56	35.71	-41.1	-44.0	12.0	3.04e-04	0	59	0	702545920	52	5414
2026-01-22 23:59:55.83	6.46	35.93	-41.2	-44.1	11.9	3.49e-04	0	60	0	705691648	52	5477
2026-01-22 23:59:56.84	6.36	36.16	-41.2	-44.1	11.9	3.89e-04	0	59	0	708837376	53	5196
2026-01-22 23:59:57.85	6.26	36.39	-41.2	-44.2	11.8	4.55e-04	0	60	0	711983104	53	5223
2026-01-22 23:59:58.86	6.16	36.62	-41.2	-44.2	11.8	5.04e-04	0	59	0	715128832	53	5225
2026-01-22 23:59:59.87	6.06	36.85	-41.3	-44.2	11.7	5.64e-04	0	59	0	718274560	53	5264
2026-01-23 00:00:00.88	5.95	37.09	-41.3	-44.2	11.8	4.46e-04	0	59	0	721420288	53	5257
2026-01-23 00:00:01.89	5.85	37.32	-41.4	-44.3	11.7	5.90e-04	0	60	0	724566016	53	5330
2026-01-23 00:00:02.90	5.74	37.56	-41.3	-44.3	11.6	6.06e-04	0	60	0	727711744	53	5325
2026-01-23 00:00:03.91	5.63	37.80	-41.2	-44.1	11.8	4.77e-04	0	59	0	730857472	53	5211
2026-01-23 00:00:04.92	5.52	38.04	-41.3	-44.2	11.8	4.36e-04	0	60	0	734003200	53	5237
2026-01-23 00:00:05.93	5.41	38.28	-41.3	-44.2	11.8	4.74e-04	0	59	0	737148928	53	5269
2026-01-23 00:00:06.94	5.30	38.53	-41.2	-44.0	12.0	3.46e-04	0	60	0	740294656	53	5148
2026-01-23 00:00:07.95	5.18	38.77	-41.1	-43.9	12.1	3.03e-04	0	59	0	743440384	53	5099
2026-01-23 00:00:08.96	5.06	39.02	-41.2	-44.0	12.0	2.63e-04	0	60	0	746586112	53	5117
2026-01-23 00:00:09.97	4.94	39.27	-41.2	-44.0	12.1	3.13e-04	0	59	0	749731840	53	5107
2026-01-23 00:00:10.98	4.82	39.52	-41.1	-43.9	12.0	3.23e-04	0	60	0	752877568	53	5092
2026-01-23 00:00:11.99	4.70	39.77	-41.2	-44.1	11.9	4.29e-04	0	59	0	756023296	53	5191
2026-01-23 00:00:13.00	4.57	40.03	-41.3	-44.2	11.8	4.45e-04	0	60	0	759169024	53	5226
2026-01-23 00:00:14.01	4.44	40.28	-41.4	-44.3	11.6	5.58e-04	0	60	0	762314752	53	5328
2026-01-23 00:00:15.02	4.32	40.54	-41.4	-44.4	11.6	7.47e-04	0	60	0	765460480	53	5370
2026-01-23 00:00:16.03	4.18	40.80	-41.5	-44.6	11.4	9.50e-04	0	60	0	768606208	53	5490
2026-01-23 00:00:17.04	4.05	41.06	-41.6	-44.6	11.3	1.14e-03	0	59	0	771751936	53	5525
2026-01-23 00:00:18.05	3.91	41.32	-41.6	-44.8	11.2	1.33e-03	0	60	0	774897664	53	5603
2026-01-23 00:00:19.06	3.78	41.59	-41.8	-45.0	11.0	1.65e-03	0	60	0	778043392	54	5440
2026-01-23 00:00:20.07	3.63	41.85	-41.8	-45.0	11.0	1.82e-03	0	60	0	781189120	54	5441
2026-01-23 00:00:21.08	3.49	42.12	-41.8	-45.0	10.9	2.11e-03	0	60	0	784334848	54	5449
2026-01-23 00:00:22.09	3.35	42.39	-41.8	-45.1	10.9	2.35e-03	0	60	0	787480576	54	5521
2026-01-23 00:00:23.10	3.20	42.66	-41.9	-45.3	10.7	2.69e-03	0	60	0	790626304	54	5606
2026-01-23 00:00:24.11	3.05	42.93	-42.0	-45.4	10.6	3.48e-03	0	60	0	793772032	54	5703
2026-01-23 00:00:25.12	2.89	43.21	-42.0	-45.5	10.5	3.78e-03	0	60	0	796917760	54	5750
2026-01-23 00:00:26.13	2.74	43.48	-42.0	-45.4	10.6	3.69e-03	0	60	0	800063488	54	5695
2026-01-23 00:00:27.14	2.58	43.76	-42.1	-45.6	10.4	4.24e-03	0	60	0	803209216	54	5792
2026-01-23 00:00:28.15	2.42	44.04	-41.9	-45.3	10.7	2.91e-03	0	60	0	806354944	54	5616
2026-01-23 00:00:29.16	2.25	44.32	-41.9	-45.2	10.8	2.91e-03	0	60	0	809500672	54	5571
2026-01-23 00:00:30.17	2.08	44.61	-42.0	-45.4	10.7	3.11e-03	0	60	0	812646400	54	5657
2026-01-23 00:00:31.18	1.91	44.89	-42.0	-45.4	10.6	3.40e-03	0	60	0	815792128	54	5666
2026-01-23 00:00:32.19	1.74	45.18	-42.1	-45.5	10.4	4.06e-03	0	60	0	818937856	54	5775
2026-01-23 00:00:33.20	1.56	45.47	-42.0	-45.4	10.6	3.50e-03	0	60	0	822083584	54	5709
2026-01-23 00:00:34.21	1.38	45.76	-42.0	-45.4	10.7	3.10e-03	0	59	0	825229312	54	5662
2026-01-23 00:00:35.22	1.20	46.05	-42.0	-45.4	10.6	3.50e-03	0	60	0	828375040	54	5715
2026-01-23 00:00:36.23	1.01	46.34	-41.8	-45.0	11.1	1.82e-03	0	60	0	831520768	54	5409
2026-01-23 00:00:37.24	0.82	46.64	-41.6	-44.8	11.3	1.54e-03	0	60	0	834666496	54	5286
2026-01-23 00:00:38.25	0.62	46.94	-41.4	-44.4	11.7	7.62e-04	0	60	0	837812224	54	5073
2026-01-23 00:00:39.25	0.43	47.23	-41.2	-44.0	12.1	3.96e-04	0	60	0	840957952	54	4853
2026-01-23 00:00:40.26	0.23	47.53	-41.3	-44.2	11.9	3.55e-04	0	60	0	844103680	54	4935
2026-01-23 00:00:41.27	0.02	47.84	-41.3	-44.1	11.9	3.02e-04	0	60	0	847249408	54	4907
2026-01-23 00:00:42.28	359.81	48.14	-41.4	-44.4	11.6	5.69e-04	0	60	0	850395136	54	5050
2026-01-23 00:00:43.30	359.59	48.45	-41.5	-44.6	11.4	1.04e-03	0	60	0	853540864	54	5166
2026-01-23 00:00:44.30	359.37	48.76	-41.4	-44.3	11.7	5.84e-04	0	60	0	856686592	54	5007
2026-01-23 00:00:45.31	359.15	49.06	-41.3	-44.2	11.8	5.14e-04	0	60	0	859832320	54	4929
2026-01-23 00:00:46.32	358.92	49.38	-41.2	-44.0	12.0	3.84e-04	0	60	0	862978048	54	4852
2026-01-23 00:00:47.33	358.69	49.69	-41.0	-43.7	12.3	2.04e-04	0	60	0	866123776	54	4667
2026-01-23 00:00:48.34	358.45	50.00	-41.2	-44.0	12.0	2.95e-04	0	60	0	869269504	54	4855
2026-01-23 00:00:49.35	358.21	50.32	-41.3	-44.2	11.8	4.16e-04	0	60	0	872415232	54	4981
2026-01-23 00:00:50.37	357.95	50.64	-41.4	-44.4	11.6	6.70e-04	0	60	0	875560960	54	5085
2026-01-23 00:00:51.37	357.70	50.96	-41.4	-44.3	11.8	4.97e-04	0	60	0	878706688	54	4996
2026-01-23 00:00:52.39	357.44	51.28	-41.3	-44.1	11.9	4.75e-04	0	60	0	881852416	54	4923
2026-01-23 00:00:53.40	357.18	51.60	-41.2	-43.9	12.0	3.47e-04	0	60	0	884998144	54	4810
2026-01-23 00:00:54.41	356.90	51.93	-41.1	-43.9	12.1	2.93e-04	0	60	0	888143872	54	4806
2026-01-23 00:00:55.41	356.63	52.25	-41.1	-43.8	12.2	2.46e-04	0	60	0	891289600	54	4741
2026-01-23 00:00:56.42	356.35	52.58	-41.2	-44.0	12.1	2.52e-04	0	60	0	894435328	54	4820
2026-01-23 00:00:57.43	356.06	52.91	-41.1	-43.9	12.2	2.45e-04	0	60	0	897581056	54	4771
2026-01-23 00:00:58.44	355.76	53.24	-40.9	-43.6	12.5	1.14e-04	0	60	0	900726784	53	4889
2026-01-23 00:00:59.45	355.46	53.57	-40.8	-43.3	12.8	6.02e-05	0	60	0	903872512	53	4734
2026-01-23 00:01:00.46	355.15	53.90	-40.5	-42.9	13.2	3.89e-05	0	60	0	907018240	53	4514
2026-01-23 00:01:01.47	354.83	54.24	-40.1	-42.4	13.7	6.80e-06	0	60	0	910163968	52	4508
2026-01-23 00:01:02.48	354.50	54.57	-40.0	-42.3	13.8	1.50e-06	0	60	0	913309696	52	4449
2026-01-23 00:01:03.49	354.17	54.91	-40.2	-42.4	13.7	7.60e-06	0	60	0	916455424	52	4543
2026-01-23 00:01:04.50	353.83	55.25	-40.1	-42.4	13.7	8.30e-06	0	60	0	919601152	52	4527
2026-01-23 00:01:05.51	353.48	55.58	-40.1	-42.3	13.8	6.80e-06	0	60	0	922746880	52	4485
2026-01-23 00:01:06.52	353.12	55.92	-40.0	-42.2	13.9	4.50e-06	0	60	0	925892608	51	4694
2026-01-23 00:01:07.53	352.75	56.27	-39.8	-41.9	14.3	7.00e-07	0	60	0	930086912	51	4521
2026-01-23 00:01:08.53	352.38	56.60	-39.7	-41.7	14.4	1.50e-06	0	60	0	933232640	51	4430
2026-01-23 00:01:09.55	351.99	56.95	-39.6	-41.7	14.4	0.00e+00	0	60	0	935329792	51	4417
2026-01-23 00:01:10.56	351.59	57.29	-39.7	-41.8	14.3	1.50e-06	0	60	0	938475520	51	4457
2026-01-23 00:01:11.57	351.19	57.64	-39.7	-41.8	14.4	7.00e-07	0	60	0	941621248	51	4465
2026-01-23 00:01:12.58	350.77	57.98	-39.7	-41.8	14.4	1.50e-06	0	60	0	945815552	51	4443
2026-01-23 00:01:13.58	350.35	58.33	-39.6	-41.6	14.6	0.00e+00	0	60	0	948961280	51	4372
2026-01-23 00:01:14.59	349.91	58.67	-39.7	-41.8	14.4	7.00e-07	0	60	0	952107008	51	4454
2026-01-23 00:01:15.60	349.46	59.02	-39.8	-41.8	14.4	1.50e-06	0	60	0	955252736	51	4489
2026-01-23 00:01:16.61	348.99	59.36	-39.7	-41.7	14.5	1.50e-06	0	60	0	957349888	51	4418
2026-01-23 00:01:17.62	348.52	59.71	-39.7	-41.8	14.4	0.00e+00	0	60	0	960495616	51	4458
2026-01-23 00:01:18.63	348.03	60.06	-39.7	-41.8	14.4	0.00e+00	0	60	0	964689920	51	4461
2026-01-23 00:01:19.64	347.53	60.40	-39.6	-41.7	14.5	0.00e+00	0	60	0	967835648	51	4411
2026-01-23 00:01:20.65	347.01	60.75	-39.6	-41.7	14.6	0.00e+00	0	60	0	970981376	51	4394
2026-01-23 00:01:21.66	346.48	61.10	-39.3	-41.3	14.9	0.00e+00	0	60	0	974127104	50	4462
2026-01-23 00:01:22.67	345.93	61.44	-39.1	-41.0	15.2	0.00e+00	0	60	0	977272832	50	4329
2026-01-23 00:01:23.68	345.37	61.79	-39.3	-41.2	15.0	0.00e+00	0	60	0	980418560	50	4396
2026-01-23 00:01:24.69	344.80	62.14	-39.3	-41.2	14.9	0.00e+00	0	60	0	983564288	50	4440
2026-01-23 00:01:25.70	344.20	62.48	-39.3	-41.2	14.9	7.00e-07	0	60	0	986710016	50	4432
2026-01-23 00:01:26.71	343.59	62.82	-39.3	-41.2	14.9	0.00e+00	0	60	0	989855744	50	4425
2026-01-23 00:01:27.72	342.96	63.16	-39.3	-41.2	14.9	0.00e+00	0	60	0	993001472	50	4415
2026-01-23 00:01:28.73	342.32	63.51	-39.0	-40.9	15.3	0.00e+00	0	60	0	996147200	50	4246
2026-01-23 00:01:29.74	341.65	63.84	-39.2	-41.2	15.0	0.00e+00	0	60	0	999292928	50	4392
2026-01-23 00:01:30.75	340.96	64.18	-39.1	-41.0	15.1	0.00e+00	0	60	0	1002438656	50	4331
2026-01-23 00:01:31.76	340.26	64.52	-38.9	-40.8	15.4	0.00e+00	0	60	0	1005584384	49	4448
2026-01-23 00:01:32.77	339.53	64.85	-38.8	-40.6	15.5	0.00e+00	0	60	0	1008730112	49	4374
2026-01-23 00:01:33.78	338.78	65.18	-38.8	-40.6	15.5	7.00e-07	0	60	0	1011875840	49	4360
2026-01-23 00:01:34.79	338.01	65.51	-38.7	-40.5	15.6	0.00e+00	0	60	0	1015021568	49	4300
2026-01-23 00:01:35.80	337.21	65.84	-38.7	-40.5	15.5	0.00e+00	0	60	0	1018167296	49	4317
2026-01-23 00:01:36.81	336.39	66.16	-38.6	-40.3	15.7	0.00e+00	0	60	0	1021313024	49	4206
2026-01-23 00:01:37.81	335.56	66.48	-38.7	-40.5	15.6	0.00e+00	0	60	0	1024458752	49	4318
2026-01-23 00:01:38.82	334.69	66.79	-38.7	-40.4	15.6	0.00e+00	0	60	0	1027604480	49	4287
2026-01-23 00:01:39.83	333.79	67.11	-38.8	-40.6	15.4	0.00e+00	0	60	0	1030750208	49	4380
2026-01-23 00:01:40.84	332.87	67.41	-39.0	-40.9	15.1	0.00e+00	0	60	0	1033895936	49	4542
2026-01-23 00:01:41.85	331.92	67.72	-39.3	-41.2	14.9	0.00e+00	0	60	0	1037041664	49	4686
2026-01-23 00:01:42.86	330.94	68.02	-39.2	-41.2	14.9	0.00e+00	0	60	0	1040187392	49	4654
2026-01-23 00:01:43.87	329.93	68.31	-38.9	-40.7	15.4	0.00e+00	0	60	0	1043333120	49	4437
2026-01-23 00:01:44.88	328.89	68.60	-38.8	-40.6	15.4	0.00e+00	0	60	0	1046478848	49	4352
2026-01-23 00:01:45.89	327.83	68.88	-39.0	-40.8	15.1	0.00e+00	0	60	0	1049624576	49	4484
2026-01-23 00:01:46.90	326.73	69.16	-38.9	-40.8	15.2	0.00e+00	0	60	0	1052770304	49	4458
2026-01-23 00:01:47.91	325.59	69.43	-38.9	-40.7	15.3	0.00e+00	0	60	0	1055916032	49	4439
2026-01-23 00:01:48.92	324.43	69.69	-38.8	-40.6	15.4	0.00e+00	0	60	0	1059061760	49	4387
2026-01-23 00:01:49.93	323.24	69.94	-39.0	-40.9	15.1	0.00e+00	0	60	0	1062207488	49	4515
2026-01-23 00:01:50.94	322.01	70.19	-39.0	-40.9	15.1	0.00e+00	0	60	0	1065353216	49	4497
2026-01-23 00:01:51.95	320.75	70.43	-39.2	-41.2	14.8	0.00e+00	0	60	0	1068498944	49	4687
2026-01-23 00:01:52.96	319.45	70.66	-39.3	-41.2	14.8	1.50e-06	0	60	0	1071644672	49	4702
2026-01-23 00:01:53.97	318.12	70.88	-39.2	-41.2	14.8	0.00e+00	0	60	0	1074790400	49	4670
2026-01-23 00:01:54.97	316.78	71.09	-39.0	-41.0	15.0	0.00e+00	0	60	0	1077936128	49	4548
2026-01-23 00:01:55.98	315.39	71.30	-39.1	-41.1	14.8	7.00e-07	0	60	0	1081081856	49	4605
2026-01-23 00:01:56.99	313.96	71.49	-38.9	-40.8	15.1	0.00e+00	0	60	0	1084227584	49	4485
2026-01-23 00:01:58.00	312.51	71.67	-38.7	-40.4	15.5	0.00e+00	0	60	0	1087373312	49	4291
2026-01-23 00:01:59.01	311.03	71.84	-38.9	-40.8	15.2	0.00e+00	0	60	0	1090519040	49	4451
2026-01-23 00:02:00.02	309.51	72.00	-39.2	-41.1	14.8	0.00e+00	0	60	0	1093664768	49	4622
2026-01-23 00:02:01.03	307.97	72.15	-39.5	-41.6	14.3	0.00e+00	0	60	0	1096810496	49	4897
2026-01-23 00:02:02.04	306.41	72.28	-39.3	-41.4	14.6	0.00e+00	0	60	0	1099956224	49	4760
2026-01-23 00:02:03.05	304.82	72.41	-39.2	-41.2	14.8	0.00e+00	0	60	0	1103101952	49	4661
2026-01-23 00:02:04.06	303.20	72.51	-39.1	-41.0	15.0	0.00e+00	0	60	0	1106247680	49	4556
2026-01-23 00:02:05.07	301.57	72.61	-39.0	-40.9	15.1	0.00e+00	0	60	0	1109393408	49	4529
2026-01-23 00:02:06.07	299.93	72.69	-39.0	-40.9	15.1	0.00e+00	0	60	0	1112539136	49	4500
2026-01-23 00:02:07.09	298.25	72.76	-38.8	-40.6	15.4	0.00e+00	0	60	0	1115684864	49	4359
2026-01-23 00:02:08.10	296.57	72.82	-38.8	-40.7	15.3	0.00e+00	0	60	0	1118830592	49	4398
2026-01-23 00:02:09.11	294.88	72.86	-38.7	-40.5	15.4	0.00e+00	0	60	0	1121976320	49	4304
2026-01-23 00:02:10.12	293.19	72.88	-39.0	-40.9	15.1	0.00e+00	0	60	0	1125122048	49	4505
2026-01-23 00:02:11.13	291.49	72.89	-39.5	-41.6	14.4	1.50e-06	0	60	0	1128267776	49	4899
2026-01-23 00:02:12.14	289.79	72.89	-39.5	-41.6	14.3	1.50e-06	0	60	0	1131413504	49	4882
2026-01-23 00:02:13.15	288.09	72.88	-39.1	-41.0	14.9	7.00e-07	0	60	0	1134559232	49	4562
2026-01-23 00:02:14.16	286.40	72.84	-38.9	-40.7	15.2	0.00e+00	0	60	0	1137704960	49	4421
2026-01-23 00:02:15.17	284.71	72.80	-38.8	-40.6	15.3	0.00e+00	0	60	0	1140850688	49	4361
2026-01-23 00:02:16.18	283.03	72.74	-38.8	-40.6	15.3	0.00e+00	0	60	0	1143996416	49	4379
2026-01-23 00:02:17.19	281.37	72.67	-39.0	-40.9	15.0	7.00e-07	0	60	0	1147142144	49	4514
2026-01-23 00:02:18.20	279.73	72.58	-39.0	-40.9	15.0	0.00e+00	0	60	0	1150287872	49	4527
2026-01-23 00:02:19.21	278.10	72.48	-38.7	-40.5	15.4	0.00e+00	0	60	0	1153433600	49	4327
2026-01-23 00:02:20.22	276.49	72.36	-38.5	-40.2	15.7	0.00e+00	0	60	0	1156579328	49	4187
2026-01-23 00:02:21.22	274.93	72.24	-38.4	-40.1	15.7	0.00e+00	0	60	0	1159725056	48	4388
2026-01-23 00:02:22.23	273.37	72.10	-38.7	-40.5	15.4	0.00e+00	0	60	0	1162870784	48	4584
2026-01-23 00:02:23.24	271.84	71.95	-38.8	-40.7	15.1	0.00e+00	0	60	0	1166016512	48	4666
2026-01-23 00:02:24.25	270.33	71.78	-38.9	-40.7	15.1	0.00e+00	0	60	0	1169162240	48	4690
2026-01-23 00:02:25.26	268.86	71.61	-38.6	-40.4	15.5	0.00e+00	0	60	0	1172307968	48	4501
2026-01-23 00:02:26.27	267.41	71.42	-38.7	-40.5	15.3	0.00e+00	0	60	0	1175453696	48	4566
2026-01-23 00:02:27.28	266.00	71.23	-38.7	-40.5	15.4	0.00e+00	0	60	0	1178599424	48	4546
2026-01-23 00:02:28.29	264.62	71.02	-38.8	-40.7	15.3	0.00e+00	0	60	0	1181745152	48	4654
2026-01-23 00:02:29.30	263.27	70.81	-39.0	-40.9	15.0	0.00e+00	0	60	0	1184890880	48	4781
2026-01-23 00:02:30.31	261.95	70.58	-39.1	-41.0	15.0	0.00e+00	0	60	0	1188036608	48	4844
2026-01-23 00:02:31.32	260.67	70.35	-38.9	-40.7	15.2	0.00e+00	0	60	0	1191182336	48	4703
2026-01-23 00:02:32.34	259.40	70.10	-38.8	-40.5	15.3	0.00e+00	0	60	0	1194328064	48	4598
2026-01-23 00:02:33.35	258.19	69.85	-38.6	-40.3	15.6	0.00e+00	0	60	0	1197473792	48	4471
2026-01-23 00:02:34.36	257.00	69.59	-38.6	-40.3	15.6	0.00e+00	0	60	0	1200619520	48	4484
2026-01-23 00:02:35.37	255.85	69.32	-38.8	-40.6	15.4	0.00e+00	0	60	0	1203765248	48	4646
2026-01-23 00:02:36.38	254.73	69.05	-39.2	-41.1	14.9	0.00e+00	0	60	0	1206910976	48	4884
2026-01-23 00:02:37.38	253.65	68.78	-39.3	-41.2	14.6	7.00e-07	0	60	0	1210056704	49	4701
2026-01-23 00:02:38.39	252.59	68.49	-38.9	-40.7	15.0	0.00e+00	0	60	0	1213202432	49	4421
2026-01-23 00:02:39.40	251.56	68.20	-38.7	-40.5	15.3	0.00e+00	0	60	0	1216348160	49	4334
2026-01-23 00:02:40.41	250.56	67.90	-38.6	-40.3	15.6	0.00e+00	0	60	0	1219493888	49	4241
2026-01-23 00:02:41.42	249.59	67.60	-39.2	-41.2	14.8	7.00e-07	0	60	0	1222639616	49	4666
2026-01-23 00:02:42.43	248.65	67.30	-39.6	-41.7	14.2	7.00e-07	0	60	0	1225785344	49	4978
2026-01-23 00:02:43.44	247.73	66.99	-39.7	-41.8	14.1	5.30e-06	0	60	0	1228931072	49	5023
2026-01-23 00:02:44.45	246.85	66.67	-39.0	-40.9	15.0	0.00e+00	0	60	0	1232076800	49	4545
2026-01-23 00:02:45.46	245.99	66.35	-38.6	-40.4	15.5	0.00e+00	0	60	0	1235222528	49	4265
2026-01-23 00:02:46.48	245.14	66.03	-38.6	-40.3	15.7	0.00e+00	0	60	0	1238368256	48	4491
2026-01-23 00:02:47.48	244.34	65.71	-39.2	-41.1	14.9	0.00e+00	0	60	0	1241513984	48	4924
2026-01-23 00:02:48.50	243.54	65.38	-39.8	-41.9	14.2	7.00e-07	0	60	0	1244659712	50	4797
2026-01-23 00:02:49.51	242.78	65.05	-40.0	-42.2	13.8	3.00e-06	0	60	0	1247805440	50	4976
2026-01-23 00:02:50.52	242.04	64.71	-39.5	-41.5	14.5	1.50e-06	0	60	0	1250951168	50	4568
2026-01-23 00:02:51.53	241.31	64.38	-38.8	-40.6	15.3	0.00e+00	0	60	0	1254096896	49	4365
2026-01-23 00:02:52.54	240.62	64.04	-38.6	-40.4	15.6	0.00e+00	0	60	0	1257242624	49	4249
2026-01-23 00:02:53.55	239.94	63.70	-38.6	-40.4	15.6	0.00e+00	0	60	0	1260388352	49	4266
2026-01-23 00:02:54.56	239.28	63.36	-39.3	-41.3	14.8	0.00e+00	0	60	0	1263534080	49	4732
2026-01-23 00:02:55.57	238.64	63.02	-40.1	-42.4	13.7	3.00e-06	0	60	0	1266679808	50	5078
2026-01-23 00:02:56.58	238.01	62.67	-39.9	-42.1	13.9	6.80e-06	0	60	0	1270874112	50	4875
2026-01-23 00:02:57.59	237.41	62.33	-39.2	-41.1	14.8	0.00e+00	0	60	0	1274019840	50	4370
2026-01-23 00:02:58.60	236.82	61.98	-38.5	-40.2	15.7	0.00e+00	0	60	0	1276116992	49	4191
2026-01-23 00:02:59.61	236.25	61.64	-38.6	-40.3	15.8	0.00e+00	0	60	0	1279262720	48	4464
2026-01-23 00:03:00.62	235.69	61.29	-39.0	-40.8	15.2	0.00e+00	0	60	0	1282408448	48	4756
2026-01-23 00:03:01.63	235.15	60.94	-39.4	-41.4	14.6	0.00e+00	0	60	0	1286602752	49	4808
2026-01-23 00:03:02.64	234.63	60.60	-39.9	-42.1	14.1	7.00e-07	0	60	0	1289748480	50	4874
2026-01-23 00:03:03.65	234.11	60.25	-39.9	-42.0	14.1	1.50e-06	0	60	0	1292894208	50	4857
2026-01-23 00:03:04.66	233.62	59.90	-39.8	-41.9	14.2	7.00e-07	0	60	0	1296039936	50	4764
2026-01-23 00:03:05.67	233.13	59.55	-39.6	-41.6	14.5	3.80e-06	0	60	0	1298137088	50	4626
2026-01-23 00:03:06.68	232.66	59.20	-39.0	-40.9	15.3	0.00e+00	0	60	0	1302331392	50	4243
2026-01-23 00:03:07.69	232.20	58.86	-38.7	-40.4	15.7	0.00e+00	0	60	0	1305477120	49	4257
2026-01-23 00:03:08.70	231.75	58.51	-39.0	-40.8	15.3	0.00e+00	0	60	0	1308622848	49	4453
2026-01-23 00:03:09.71	231.32	58.16	-39.5	-41.4	14.6	0.00e+00	0	60	0	1311768576	49	4809
2026-01-23 00:03:10.72	230.90	57.82	-40.1	-42.3	13.9	7.00e-07	0	60	0	1314914304	50	4996
2026-01-23 00:03:11.73	230.48	57.47	-40.1	-42.3	13.7	2.20e-06	0	60	0	1318060032	51	4742
2026-01-23 00:03:12.74	230.08	57.12	-39.6	-41.7	14.1	3.00e-06	0	60	0	1321205760	51	4439
2026-01-23 00:03:13.75	229.69	56.78	-39.4	-41.4	14.5	0.00e+00	0	60	0	1324351488	50	4526
2026-01-23 00:03:14.76	229.30	56.44	-39.4	-41.3	14.7	1.50e-06	0	60	0	1327497216	50	4482
2026-01-23 00:03:15.77	228.93	56.09	-39.4	-41.3	14.8	0.00e+00	0	60	0	1330642944	50	4479
2026-01-23 00:03:16.78	228.56	55.75	-39.5	-41.4	14.6	0.00e+00	0	60	0	1333788672	50	4542
2026-01-23 00:03:17.79	228.21	55.41	-39.7	-41.7	14.4	0.00e+00	0	60	0	1336934400	50	4682
2026-01-23 00:03:18.80	227.86	55.07	-40.3	-42.6	13.5	7.60e-06	0	60	0	1340080128	51	4924
2026-01-23 00:03:19.81	227.52	54.73	-40.9	-43.5	12.5	8.69e-05	0	60	0	1343225856	52	5152
2026-01-23 00:03:20.82	227.19	54.40	-40.9	-44.1	11.7	8.54e-03	0	60	0	1346371584	52	5511
2026-01-23 00:03:21.83	226.87	54.06	-41.0	-44.2	11.6	8.86e-03	0	60	0	1349517312	52	5547
2026-01-23 00:03:22.83	226.56	53.73	-40.8	-43.9	11.9	8.53e-03	0	60	0	1352663040	52	5355
2026-01-23 00:03:23.84	226.25	53.39	-40.7	-43.5	12.3	8.44e-03	0	60	0	1355808768	52	5140
2026-01-23 00:03:24.85	225.95	53.06	-40.4	-43.1	12.6	7.93e-03	0	60	0	1358954496	52	4911
2026-01-23 00:03:25.86	225.65	52.73	-40.4	-43.1	12.7	8.08e-03	0	60	0	1362100224	52	4871
2026-01-23 00:03:26.87	225.36	52.40	-40.3	-42.9	12.9	8.21e-03	0	60	0	1365245952	52	4810
2026-01-23 00:03:27.88	225.08	52.07	-40.1	-42.6	13.2	8.13e-03	0	60	0	1368391680	52	4616
2026-01-23 00:03:28.89	224.81	51.75	-40.2	-42.7	13.1	8.04e-03	0	60	0	1371537408	52	4669
2026-01-23 00:03:29.90	224.54	51.42	-40.6	-43.3	12.5	8.12e-03	0	60	0	1374683136	52	5008
2026-01-23 00:03:30.91	224.27	51.10	-40.9	-43.9	11.9	8.42e-03	0	60	0	1377828864	52	5392
2026-01-23 00:03:31.92	224.02	50.78	-41.2	-44.3	11.5	8.85e-03	0	60	0	1380974592	52	5608
2026-01-23 00:03:32.93	223.76	50.46	-41.1	-44.0	11.6	9.23e-03	0	60	0	1384120320	52	5444
2026-01-23 00:03:33.94	223.52	50.14	-40.9	-43.8	11.9	8.55e-03	0	60	0	1387266048	52	5330
2026-01-23 00:03:34.95	223.27	49.82	-40.9	-43.6	12.4	1.68e-04	0	60	0	1390411776	52	5165
2026-01-23 00:03:35.96	223.04	49.51	-40.6	-43.1	12.9	6.10e-05	0	60	0	1393557504	52	4920
2026-01-23 00:03:36.97	222.81	49.19	-40.6	-43.1	12.9	3.96e-05	0	60	0	1396703232	52	4888
2026-01-23 00:03:37.98	222.58	48.88	-41.0	-43.7	12.3	1.45e-04	0	60	0	1399848960	52	5246
2026-01-23 00:03:38.99	222.36	48.57	-41.2	-43.9	12.0	2.85e-04	0	60	0	1402994688	52	5398
2026-01-23 00:03:40.00	222.14	48.26	-41.4	-44.3	11.6	5.86e-04	0	60	0	1406140416	53	5311
2026-01-23 00:03:41.01	221.92	47.96	-41.8	-45.1	10.8	1.97e-03	0	60	0	1409286144	54	5487
2026-01-23 00:03:42.02	221.71	47.65	-41.9	-45.4	10.6	3.45e-03	0	60	0	1412431872	54	5657
2026-01-23 00:03:43.03	221.51	47.35	-42.0	-45.5	10.5	3.85e-03	0	60	0	1415577600	54	5748
2026-01-23 00:03:44.04	221.31	47.05	-42.2	-45.9	10.1	5.49e-03	0	61	0	1418723328	54	6011
2026-01-23 00:03:45.05	221.11	46.75	-42.1	-45.6	10.3	6.85e-03	0	60	0	1421869056	55	5526
2026-01-23 00:03:46.06	220.92	46.45	-41.7	-44.9	11.0	2.30e-03	0	60	0	1425014784	55	5068
2026-01-23 00:03:47.07	220.73	46.15	-41.4	-44.4	11.5	1.04e-03	0	60	0	1428160512	54	5056
2026-01-23 00:03:48.08	220.54	45.86	-41.2	-44.1	11.8	5.23e-04	0	60	0	1431306240	54	4897
2026-01-23 00:03:49.09	220.36	45.56	-40.7	-43.3	12.7	1.23e-04	0	60	0	1434451968	53	4717
2026-01-23 00:03:50.10	220.18	45.27	-40.4	-42.7	13.3	2.74e-05	0	60	0	1437597696	52	4690
2026-01-23 00:03:51.11	220.00	44.98	-40.8	-43.3	12.6	5.56e-05	0	60	0	1440743424	52	5024
2026-01-23 00:03:52.12	219.83	44.70	-41.4	-44.3	11.6	4.15e-04	0	60	0	1443889152	53	5331
2026-01-23 00:03:53.12	219.66	44.41	-42.1	-45.6	10.3	3.29e-03	0	60	0	1447034880	54	5835
2026-01-23 00:03:54.13	219.49	44.13	-42.5	-46.4	9.5	1.50e-02	0	60	0	1450180608	55	6040
2026-01-23 00:03:55.14	219.33	43.85	-42.6	-46.6	9.2	2.14e-02	0	60	0	1453326336	55	6198
2026-01-23 00:03:56.15	219.17	43.57	-42.3	-46.1	9.8	1.13e-02	0	60	0	1456472064	55	5821
2026-01-23 00:03:57.16	219.01	43.29	-42.0	-45.5	10.3	6.41e-03	0	60	0	1459617792	55	5464
2026-01-23 00:03:58.17	218.85	43.01	-41.9	-45.2	10.7	3.02e-03	0	60	0	1462763520	55	5242
2026-01-23 00:03:59.18	218.70	42.74	-42.0	-45.4	10.6	3.13e-03	0	60	0	1465909248	55	5354
2026-01-23 00:04:00.19	218.55	42.47	-41.7	-44.9	11.0	2.07e-03	0	60	0	1469054976	55	5093
2026-01-23 00:04:01.20	218.40	42.19	-41.8	-45.0	10.8	2.28e-03	0	60	0	1472200704	55	5148
2026-01-23 00:04:02.21	218.26	41.92	-41.8	-45.0	10.8	2.77e-03	0	60	0	1475346432	55	5133
2026-01-23 00:04:03.22	218.11	41.66	-41.2	-44.1	11.7	1.12e-03	0	60	0	1478492160	54	4910
2026-01-23 00:04:04.23	217.97	41.39	-40.6	-43.1	12.8	1.50e-04	0	61	0	1481637888	53	4634
2026-01-23 00:04:05.24	217.84	41.13	-40.3	-42.6	13.3	2.36e-05	0	60	0	1484783616	52	4623
2026-01-23 00:04:06.25	217.70	40.86	-40.3	-42.7	13.2	2.28e-05	0	60	0	1487929344	52	4656
2026-01-23 00:04:07.26	217.57	40.60	-40.4	-42.9	13.1	2.59e-05	0	60	0	1491075072	52	4770
2026-01-23 00:04:08.27	217.44	40.34	-40.7	-43.3	12.7	5.49e-05	0	61	0	1494220800	52	5017
2026-01-23 00:04:09.28	217.31	40.09	-41.1	-43.8	12.1	2.04e-04	0	61	0	1497366528	52	5328
2026-01-23 00:04:10.30	217.18	39.83	-41.5	-44.6	11.3	9.86e-04	0	60	0	1500512256	53	5517
2026-01-23 00:04:11.31	217.05	39.57	-41.9	-45.3	10.7	2.12e-03	0	60	0	1503657984	54	5611
2026-01-23 00:04:12.31	216.93	39.32	-42.1	-45.7	10.2	4.82e-03	0	60	0	1506803712	54	5881
2026-01-23 00:04:13.32	216.81	39.07	-42.0	-45.6	10.4	5.24e-03	0	61	0	1509949440	54	5807
2026-01-23 00:04:14.33	216.69	38.82	-41.9	-45.3	10.7	3.38e-03	0	60	0	1513095168	54	5598
2026-01-23 00:04:15.34	216.57	38.57	-41.8	-45.1	10.8	2.41e-03	0	60	0	1516240896	54	5514
2026-01-23 00:04:16.35	216.46	38.33	-41.7	-44.9	11.0	2.16e-03	0	60	0	1519386624	54	5396
2026-01-23 00:04:17.36	216.34	38.08	-41.7	-44.9	11.1	1.56e-03	0	60	0	1522532352	54	5369
2026-01-23 00:04:18.37	216.23	37.84	-41.5	-44.6	11.4	1.21e-03	0	61	0	1525678080	54	5175
2026-01-23 00:04:19.38	216.12	37.60	-41.3	-44.2	11.8	6.45e-04	0	60	0	1528823808	54	4965
2026-01-23 00:04:20.39	216.01	37.36	-40.9	-43.6	12.4	2.02e-04	0	61	0	1531969536	53	4895
2026-01-23 00:04:21.40	215.90	37.12	-40.6	-43.1	12.9	6.25e-05	0	61	0	1535115264	53	4620
2026-01-23 00:04:22.40	215.80	36.89	-40.3	-42.7	13.3	1.52e-05	0	60	0	1538260992	52	4688
2026-01-23 00:04:23.41	215.70	36.66	-40.2	-42.6	13.4	1.22e-05	0	60	0	1541406720	52	4619
2026-01-23 00:04:24.42	215.59	36.42	-40.2	-42.5	13.5	7.60e-06	0	60	0	1544552448	52	4575
2026-01-23 00:04:25.43	215.49	36.19	-40.2	-42.5	13.5	1.06e-05	0	60	0	1547698176	52	4562
2026-01-23 00:04:26.44	215.39	35.96	-40.1	-42.4	13.6	1.06e-05	0	61	0	1550843904	52	4523
2026-01-23 00:04:27.45	215.29	35.73	-40.1	-42.3	13.7	4.50e-06	0	60	0	1553989632	52	4490
2026-01-23 00:04:28.46	215.20	35.51	-40.2	-42.5	13.5	7.60e-06	0	61	0	1557135360	52	4578
2026-01-23 00:04:29.47	215.10	35.28	-40.2	-42.6	13.4	9.10e-06	0	61	0	1560281088	52	4607
2026-01-23 00:04:30.48	215.01	35.06	-40.2	-42.5	13.5	9.10e-06	0	61	0	1563426816	52	4574
2026-01-23 00:04:31.49	214.92	34.83	-40.2	-42.5	13.5	1.52e-05	0	61	0	1566572544	52	4569
2026-01-23 00:04:32.50	214.82	34.61	-40.1	-42.5	13.5	9.90e-06	0	60	0	1569718272	52	4552
2026-01-23 00:04:33.51	214.73	34.39	-40.2	-42.5	13.6	9.90e-06	0	61	0	1572864000	52	4555
2026-01-23 00:04:34.52	214.64	34.18	-40.1	-42.4	13.6	4.50e-06	0	60	0	1576009728	52	4498
2026-01-23 00:04:35.53	214.56	33.96	-40.1	-42.5	13.5	9.90e-06	0	61	0	1579155456	52	4546
2026-01-23 00:04:36.54	214.47	33.74	-40.2	-42.6	13.4	1.67e-05	0	60	0	1582301184	52	4623
2026-01-23 00:04:37.55	214.39	33.53	-40.3	-42.7	13.3	1.75e-05	0	61	0	1585446912	52	4662
2026-01-23 00:04:38.56	214.30	33.32	-40.4	-42.9	13.1	3.35e-05	0	61	0	1588592640	52	4764
2026-01-23 00:04:39.57	214.22	33.11	-40.4	-42.9	13.1	3.81e-05	0	60	0	1591738368	52	4796
2026-01-23 00:04:40.58	214.14	32.90	-40.3	-42.6	13.3	2.21e-05	0	60	0	1594884096	52	4649
2026-01-23 00:04:41.59	214.05	32.69	-40.0	-42.2	13.8	5.30e-06	0	61	0	1598029824	51	4691
2026-01-23 00:04:42.60	213.97	32.48	-39.8	-41.9	14.2	7.00e-07	0	61	0	1601175552	51	4534
2026-01-23 00:04:43.61	213.90	32.28	-39.8	-41.9	14.2	7.00e-07	0	60	0	1604321280	51	4513
2026-01-23 00:04:44.62	213.82	32.07	-39.8	-42.0	14.1	1.50e-06	0	61	0	1607467008	51	4560
2026-01-23 00:04:45.63	213.74	31.87	-39.9	-42.0	14.1	2.20e-06	0	61	0	1611661312	51	4593
2026-01-23 00:04:46.63	213.67	31.67	-39.8	-42.0	14.1	3.80e-06	0	61	0	1613758464	51	4550
2026-01-23 00:04:47.64	213.59	31.47	-39.9	-42.1	14.0	1.50e-06	0	61	0	1616904192	51	4607
2026-01-23 00:04:48.65	213.52	31.27	-39.9	-42.1	14.1	7.00e-07	0	61	0	1620049920	51	4614
2026-01-23 00:04:49.66	213.44	31.07	-40.0	-42.3	13.8	5.30e-06	0	61	0	1623195648	51	4726
2026-01-23 00:04:50.67	213.37	30.88	-40.1	-42.4	13.6	1.22e-05	0	60	0	1627389952	51	4812
2026-01-23 00:04:51.68	213.30	30.68	-40.3	-42.6	13.4	1.14e-05	0	61	0	1630535680	51	4920
2026-01-23 00:04:52.69	213.23	30.49	-40.4	-42.8	13.2	2.13e-05	0	61	0	1633681408	51	5024
2026-01-23 00:04:53.70	213.16	30.29	-40.4	-42.8	13.2	1.98e-05	0	60	0	1636827136	51	5030
2026-01-23 00:04:54.71	213.09	30.10	-40.3	-42.7	13.4	1.67e-05	0	61	0	1638924288	51	4946
2026-01-23 00:04:55.72	213.03	29.91	-40.2	-42.5	13.5	4.50e-06	0	61	0	1643118592	51	4844
2026-01-23 00:04:56.73	212.96	29.72	-40.2	-42.5	13.5	9.90e-06	0	61	0	1646264320	51	4841
2026-01-23 00:04:57.74	212.89	29.54	-40.2	-42.6	13.5	8.30e-06	0	60	0	1649410048	51	4883
2026-01-23 00:04:58.75	212.83	29.35	-40.1	-42.5	13.6	1.06e-05	0	60	0	1652555776	51	4826
2026-01-23 00:04:59.76	212.76	29.16	-40.1	-42.4	13.7	1.22e-05	0	60	0	1655701504	51	4779
2026-01-23 00:05:00.77	212.70	28.98	-40.0	-42.2	13.8	5.30e-06	0	61	0	1658847232	51	4689
2026-01-23 00:05:01.78	212.64	28.80	-39.7	-41.9	14.2	2.20e-06	0	61	0	1661992960	51	4511
2026-01-23 00:05:02.80	212.57	28.61	-39.6	-41.8	14.3	3.00e-06	0	60	0	1665138688	51	4444
2026-01-23 00:05:03.80	212.51	28.44	-39.6	-41.6	14.4	7.00e-07	0	61	0	1668284416	51	4384
2026-01-23 00:05:04.81	212.45	28.26	-39.4	-41.4	14.6	7.00e-07	0	60	0	1671430144	50	4511
2026-01-23 00:05:05.82	212.39	28.08	-39.2	-41.1	14.8	0.00e+00	0	61	0	1674575872	50	4377
2026-01-23 00:05:06.83	212.33	27.90	-39.2	-41.1	14.8	0.00e+00	0	61	0	1677721600	50	4385
2026-01-23 00:05:07.84	212.27	27.72	-39.1	-41.0	14.9	0.00e+00	0	60	0	1680867328	50	4331
2026-01-23 00:05:08.85	212.21	27.55	-39.0	-40.9	15.1	0.00e+00	0	61	0	1684013056	50	4249
2026-01-23 00:05:09.86	212.16	27.37	-39.1	-41.0	15.0	0.00e+00	0	60	0	1687158784	50	4304
2026-01-23 00:05:10.87	212.10	27.20	-39.0	-40.9	15.1	0.00e+00	0	60	0	1690304512	50	4257
2026-01-23 00:05:11.88	212.04	27.03	-38.8	-40.6	15.4	0.00e+00	0	61	0	1693450240	49	4357
2026-01-23 00:05:12.89	211.99	26.86	-38.7	-40.6	15.4	0.00e+00	0	60	0	1696595968	49	4341
2026-01-23 00:05:13.90	211.93	26.69	-38.7	-40.5	15.4	0.00e+00	0	61	0	1699741696	49	4328
2026-01-23 00:05:14.91	211.88	26.52	-38.8	-40.6	15.3	0.00e+00	0	61	0	1702887424	49	4381
2026-01-23 00:05:15.92	211.83	26.35	-38.9	-40.8	15.2	0.00e+00	0	60	0	1706033152	49	4458
2026-01-23 00:05:16.93	211.77	26.18	-39.0	-40.9	15.0	0.00e+00	0	60	0	1709178880	49	4520
2026-01-23 00:05:17.94	211.72	26.02	-39.1	-41.1	14.9	7.00e-07	0	61	0	1712324608	49	4604
2026-01-23 00:05:18.95	211.67	25.85	-39.2	-41.2	14.7	7.00e-07	0	60	0	1715470336	49	4680
2026-01-23 00:05:19.96	211.62	25.69	-39.3	-41.3	14.7	0.00e+00	0	61	0	1718616064	49	4742
2026-01-23 00:05:20.97	211.57	25.53	-39.5	-41.5	14.4	0.00e+00	0	61	0	1721761792	49	4866
2026-01-23 00:05:21.98	211.52	25.36	-39.5	-41.6	14.4	0.00e+00	0	61	0	1724907520	49	4898
2026-01-23 00:05:22.99	211.47	25.20	-39.6	-41.7	14.3	0.00e+00	0	61	0	1728053248	49	4947
2026-01-23 00:05:24.00	211.42	25.04	-39.6	-41.7	14.2	0.00e+00	0	61	0	1731198976	49	4983
2026-01-23 00:05:25.01	211.37	24.88	-39.7	-41.8	14.2	0.00e+00	0	60	0	1734344704	49	5030
2026-01-23 00:05:26.02	211.32	24.73	-39.6	-41.8	14.2	7.00e-07	0	61	0	1737490432	49	5017
2026-01-23 00:05:27.03	211.27	24.57	-39.6	-41.8	14.2	0.00e+00	0	60	0	1740636160	49	4999
2026-01-23 00:05:28.04	211.23	24.41	-39.7	-41.9	14.1	1.50e-06	0	61	0	1743781888	49	5050
2026-01-23 00:05:29.04	211.18	24.26	-39.7	-41.9	14.1	1.50e-06	0	61	0	1746927616	49	5050
2026-01-23 00:05:30.05	211.13	24.10	-39.8	-42.0	14.0	0.00e+00	0	61	0	1750073344	50	4831
2026-01-23 00:05:31.06	211.09	23.95	-39.7	-41.9	14.1	2.20e-06	0	60	0	1753219072	50	4794
2026-01-23 00:05:32.07	211.04	23.80	-39.8	-42.0	14.0	2.20e-06	0	61	0	1756364800	50	4816
2026-01-23 00:05:33.08	211.00	23.65	-39.8	-42.0	14.0	7.00e-07	0	61	0	1759510528	50	4840
2026-01-23 00:05:34.09	210.95	23.49	-39.8	-42.1	13.9	2.20e-06	0	61	0	1762656256	50	4876
2026-01-23 00:05:35.10	210.91	23.34	-39.7	-41.9	14.1	1.50e-06	0	61	0	1765801984	50	4791
2026-01-23 00:05:36.12	210.87	23.19	-39.7	-41.9	14.1	3.00e-06	0	61	0	1768947712	50	4790
2026-01-23 00:05:37.13	210.82	23.05	-39.7	-41.9	14.0	2.20e-06	0	61	0	1772093440	50	4808
2026-01-23 00:05:38.14	210.78	22.90	-39.7	-41.9	14.1	3.00e-06	0	61	0	1775239168	50	4764
2026-01-23 00:05:39.15	210.74	22.75	-39.7	-41.9	14.1	7.00e-07	0	61	0	1778384896	50	4760
2026-01-23 00:05:40.16	210.70	22.60	-39.6	-41.8	14.2	1.50e-06	0	61	0	1781530624	50	4737
2026-01-23 00:05:41.17	210.65	22.46	-39.6	-41.8	14.1	1.50e-06	0	61	0	1784676352	50	4743
2026-01-23 00:05:42.18	210.61	22.32	-39.7	-41.8	14.1	1.50e-06	0	61	0	1787822080	50	4739
2026-01-23 00:05:43.19	210.57	22.17	-39.6	-41.8	14.2	7.00e-07	0	61	0	1790967808	50	4736
2026-01-23 00:05:44.20	210.53	22.03	-39.7	-41.8	14.1	3.00e-06	0	61	0	1794113536	50	4742
2026-01-23 00:05:45.21	210.49	21.89	-39.6	-41.7	14.2	0.00e+00	0	61	0	1797259264	50	4684
2026-01-23 00:05:46.22	210.45	21.75	-39.6	-41.7	14.2	1.50e-06	0	61	0	1800404992	50	4677
2026-01-23 00:05:47.23	210.41	21.60	-39.5	-41.6	14.3	1.50e-06	0	61	0	1803550720	50	4643
2026-01-23 00:05:48.24	210.38	21.46	-39.5	-41.7	14.3	1.50e-06	0	61	0	1806696448	50	4656
2026-01-23 00:05:49.25	210.34	21.33	-39.6	-41.8	14.1	1.50e-06	0	61	0	1809842176	50	4706
2026-01-23 00:05:50.26	210.30	21.19	-39.5	-41.6	14.3	2.20e-06	0	61	0	1812987904	50	4639
2026-01-23 00:05:51.27	210.26	21.05	-39.5	-41.6	14.3	3.00e-06	0	60	0	1816133632	50	4635
2026-01-23 00:05:52.27	210.23	20.91	-39.6	-41.7	14.1	3.00e-06	0	61	0	1819279360	50	4700
2026-01-23 00:05:53.28	210.19	20.78	-39.5	-41.7	14.2	1.50e-06	0	61	0	1822425088	50	4664
2026-01-23 00:05:54.29	210.15	20.64	-39.5	-41.6	14.2	7.00e-07	0	61	0	1825570816	50	4651
2026-01-23 00:05:55.30	210.12	20.51	-39.5	-41.6	14.3	7.00e-07	0	61	0	1828716544	50	4607
2026-01-23 00:05:56.31	210.08	20.37	-39.4	-41.4	14.4	3.00e-06	0	61	0	1831862272	50	4544
2026-01-23 00:05:57.32	210.05	20.24	-39.4	-41.5	14.4	1.50e-06	0	61	0	1835008000	50	4549
2026-01-23 00:05:58.33	210.01	20.11	-39.4	-41.4	14.4	1.50e-06	0	61	0	1838153728	50	4539
2026-01-23 00:05:59.34	209.98	19.98	-39.4	-41.4	14.4	0.00e+00	0	61	0	1841299456	50	4542
2026-01-23 00:06:00.35	209.94	19.85	-39.3	-41.4	14.4	1.50e-06	0	61	0	1844445184	50	4527
2026-01-23 00:06:01.36	209.91	19.72	-39.4	-41.5	14.3	1.50e-06	0	61	0	1847590912	50	4578
2026-01-23 00:06:02.37	209.87	19.59	-39.5	-41.6	14.3	0.00e+00	0	61	0	1850736640	50	4614
2026-01-23 00:06:03.38	209.84	19.46	-39.4	-41.5	14.3	0.00e+00	0	61	0	1853882368	50	4574
2026-01-23 00:06:04.39	209.81	19.33	-39.4	-41.6	14.3	0.00e+00	0	61	0	1857028096	50	4602
2026-01-23 00:06:05.40	209.77	19.20	-39.5	-41.7	14.1	7.00e-07	0	60	0	1860173824	50	4680
2026-01-23 00:06:06.41	209.74	19.07	-39.6	-41.8	14.1	2.20e-06	0	61	0	1863319552	50	4707
2026-01-23 00:06:07.42	209.71	18.95	-39.5	-41.7	14.2	7.00e-07	0	61	0	1866465280	50	4671
2026-01-23 00:06:08.43	209.68	18.82	-39.5	-41.7	14.1	2.20e-06	0	61	0	1869611008	50	4677
2026-01-23 00:06:09.44	209.65	18.70	-39.6	-41.8	14.0	3.00e-06	0	61	0	1872756736	50	4754
2026-01-23 00:06:10.44	209.61	18.57	-39.6	-41.8	14.0	7.00e-07	0	61	0	1875902464	50	4739
2026-01-23 00:06:11.45	209.58	18.45	-39.6	-41.9	13.9	0.00e+00	0	61	0	1879048192	50	4761
2026-01-23 00:06:12.46	209.55	18.32	-39.7	-41.9	13.8	4.50e-06	0	61	0	1882193920	50	4813
2026-01-23 00:06:13.47	209.52	18.20	-39.8	-42.1	13.7	3.80e-06	0	61	0	1885339648	50	4902
2026-01-23 00:06:14.48	209.49	18.08	-39.8	-42.1	13.6	1.14e-05	0	61	0	1888485376	50	4919
2026-01-23 00:06:15.49	209.46	17.96	-39.8	-42.1	13.7	3.80e-06	0	61	0	1891631104	50	4905
2026-01-23 00:06:16.50	209.43	17.84	-39.8	-42.1	13.6	5.30e-06	0	61	0	1894776832	50	4913
2026-01-23 00:06:17.51	209.40	17.72	-39.8	-42.1	13.6	8.30e-06	0	61	0	1897922560	50	4919
2026-01-23 00:06:18.52	209.37	17.60	-39.9	-42.2	13.6	7.60e-06	0	61	0	1901068288	50	4940
2026-01-23 00:06:19.53	209.34	17.48	-39.9	-42.2	13.6	6.10e-06	0	61	0	1904214016	50	4952
2026-01-23 00:06:20.54	209.31	17.36	-39.9	-42.3	13.5	1.52e-05	0	61	0	1907359744	50	5005
2026-01-23 00:06:21.55	209.29	17.24	-39.9	-42.2	13.5	9.10e-06	0	61	0	1910505472	50	4968
2026-01-23 00:06:22.56	209.26	17.12	-39.9	-42.3	13.5	8.30e-06	0	61	0	1913651200	50	4984
2026-01-23 00:06:23.57	209.23	17.01	-39.9	-42.2	13.5	1.14e-05	0	61	0	1916796928	50	4983
2026-01-23 00:06:24.58	209.20	16.89	-40.0	-42.3	13.4	1.14e-05	0	61	0	1919942656	50	5032
2026-01-23 00:06:25.59	209.17	16.77	-40.0	-42.4	13.4	1.60e-05	0	61	0	1923088384	50	5052
2026-01-23 00:06:26.60	209.15	16.66	-40.0	-42.4	13.4	1.14e-05	0	61	0	1926234112	50	5057
2026-01-23 00:06:27.61	209.12	16.54	-40.1	-42.5	13.3	1.98e-05	0	61	0	1929379840	50	5108
2026-01-23 00:06:28.61	209.09	16.43	-40.1	-42.6	13.2	1.75e-05	0	61	0	1932525568	50	5162
2026-01-23 00:06:29.62	209.07	16.32	-40.0	-42.4	13.4	1.52e-05	0	61	0	1935671296	50	5048
2026-01-23 00:06:30.63	209.04	16.20	-40.0	-42.4	13.4	1.52e-05	0	61	0	1938817024	50	5056
2026-01-23 00:06:31.64	209.01	16.09	-40.0	-42.4	13.4	1.90e-05	0	61	0	1941962752	50	5071
2026-01-23 00:06:32.65	208.99	15.98	-40.0	-42.4	13.3	1.98e-05	0	61	0	1945108480	50	5081
2026-01-23 00:06:33.66	208.96	15.87	-40.0	-42.4	13.4	1.14e-05	0	61	0	1948254208	50	5055
2026-01-23 00:06:34.67	208.94	15.75	-40.0	-42.4	13.4	2.13e-05	0	61	0	1951399936	50	5045
2026-01-23 00:06:35.68	208.91	15.64	-40.0	-42.4	13.4	2.67e-05	0	61	0	1954545664	50	5058
2026-01-23 00:06:36.69	208.88	15.53	-40.0	-42.4	13.3	1.67e-05	0	61	0	1957691392	50	5076
