passes_logs/2026/01/22/R2.0S_Moscow/R2.0S_Moscow__20260122_032149_FENGYUN_3D_rec.log

#Pass ID: 20260122_032149_FENGYUN 3D
#Satellite: FENGYUN 3D
#Configuration: FENGYUN 3D
#almurnet v.1.7.20251203
#Start time: 2026-01-22 03:21:51

#Version: 2.2.20231116
#Station: R2.0S_Moscow
#Location: 37.707566 lon 55.798166 lat
#TLE: 1 43010U 17072A   26021.48744220  .00000253  00000+0  14133-3 0  9991
#TLE: 2 43010  98.9948 353.4037 0002485  97.2578 262.8880 14.19697766424177

#Time	Az	El	Level	Level2	SNR	BER	BlckErr	Temp	State	Recorded	gain1	gain2
2026-01-22 03:21:51.26	10.87	2.08	-40.0	-51.6	3.8	8.46e-01	0	49	0	0	51	13846
2026-01-22 03:21:52.27	10.81	2.14	-40.0	-51.6	3.8	8.46e-01	0	49	104	0	51	13814
2026-01-22 03:21:53.28	10.74	2.19	-40.0	-51.6	3.8	8.46e-01	0	49	104	0	51	13818
2026-01-22 03:21:54.29	10.68	2.25	-40.0	-51.6	3.8	8.45e-01	0	49	104	0	51	13822
2026-01-22 03:21:55.30	10.62	2.31	-40.0	-51.6	3.8	8.46e-01	0	49	104	0	51	13805
2026-01-22 03:21:56.31	10.55	2.37	-40.0	-51.6	3.8	8.45e-01	0	49	104	0	51	13775
2026-01-22 03:21:57.32	10.49	2.43	-40.0	-51.6	3.8	8.45e-01	0	49	104	0	51	13826
2026-01-22 03:21:58.33	10.43	2.48	-40.0	-51.6	3.8	8.45e-01	0	49	104	0	51	13823
2026-01-22 03:21:59.34	10.36	2.54	-40.0	-51.6	3.8	8.45e-01	0	49	104	0	51	13823
2026-01-22 03:22:00.35	10.30	2.60	-40.0	-51.6	3.8	8.46e-01	0	49	104	0	51	13796
2026-01-22 03:22:01.36	10.23	2.66	-40.0	-51.6	3.8	8.46e-01	0	50	104	0	51	13793
2026-01-22 03:22:02.37	10.17	2.72	-40.0	-51.6	3.8	8.46e-01	0	50	104	0	51	13819
2026-01-22 03:22:03.38	10.10	2.78	-40.0	-51.6	3.8	8.46e-01	0	50	104	0	51	13797
2026-01-22 03:22:04.39	10.04	2.84	-40.0	-51.6	3.8	8.46e-01	0	50	104	0	51	13790
2026-01-22 03:22:05.40	9.97	2.89	-40.0	-51.6	3.8	8.46e-01	0	50	104	0	51	13804
2026-01-22 03:22:06.41	9.90	2.95	-40.0	-51.6	3.8	8.46e-01	0	50	104	0	51	13760
2026-01-22 03:22:07.42	9.84	3.01	-40.0	-51.6	3.8	8.45e-01	0	50	104	0	51	13750
2026-01-22 03:22:08.43	9.77	3.07	-40.0	-51.6	3.8	8.47e-01	0	50	104	0	51	13833
2026-01-22 03:22:09.44	9.70	3.13	-40.0	-51.6	3.8	8.47e-01	0	50	104	0	51	13798
2026-01-22 03:22:10.45	9.64	3.19	-40.0	-51.6	3.8	8.47e-01	0	50	104	0	51	13768
2026-01-22 03:22:11.46	9.57	3.25	-40.0	-51.6	3.8	8.46e-01	0	50	104	0	51	13817
2026-01-22 03:22:12.47	9.50	3.31	-40.0	-51.6	3.8	8.45e-01	0	50	104	0	51	13777
2026-01-22 03:22:13.48	9.43	3.37	-40.0	-51.6	3.8	8.46e-01	0	50	104	0	51	13793
2026-01-22 03:22:14.49	9.36	3.43	-40.0	-51.6	3.8	8.47e-01	0	50	104	0	51	13796
2026-01-22 03:22:15.50	9.30	3.49	-40.0	-51.6	3.8	8.47e-01	0	50	104	0	51	13803
2026-01-22 03:22:16.51	9.23	3.55	-40.0	-51.6	3.8	8.46e-01	0	50	104	0	51	13787
2026-01-22 03:22:17.52	9.16	3.61	-40.0	-51.6	3.8	8.47e-01	0	51	104	0	51	13770
2026-01-22 03:22:18.53	9.09	3.67	-40.0	-51.6	3.8	8.46e-01	0	51	104	0	51	13818
2026-01-22 03:22:19.54	9.02	3.73	-40.0	-51.6	3.8	8.46e-01	0	51	104	0	51	13760
2026-01-22 03:22:20.55	8.95	3.79	-40.0	-51.6	3.8	8.45e-01	0	51	104	0	51	13777
2026-01-22 03:22:21.56	8.88	3.85	-40.0	-51.6	3.8	8.45e-01	0	51	104	0	51	13785
2026-01-22 03:22:22.57	8.81	3.91	-40.0	-51.6	3.8	8.45e-01	0	51	104	0	51	13770
2026-01-22 03:22:23.58	8.73	3.97	-40.0	-51.6	3.8	8.45e-01	0	51	104	0	51	13779
2026-01-22 03:22:24.59	8.66	4.03	-40.0	-51.6	3.8	8.46e-01	0	51	104	0	51	13791
2026-01-22 03:22:25.60	8.59	4.09	-40.0	-51.6	3.8	8.45e-01	0	51	104	0	51	13766
2026-01-22 03:22:26.62	8.52	4.15	-40.0	-51.6	3.8	8.47e-01	0	51	104	0	51	13810
2026-01-22 03:22:27.63	8.45	4.21	-40.0	-51.6	3.8	8.46e-01	0	51	104	0	51	13780
2026-01-22 03:22:28.64	8.37	4.27	-40.0	-51.6	3.8	8.47e-01	0	51	104	0	51	13780
2026-01-22 03:22:29.65	8.30	4.33	-40.0	-51.6	3.8	8.46e-01	0	52	104	0	51	13762
2026-01-22 03:22:30.66	8.23	4.39	-40.0	-51.6	3.8	8.47e-01	0	52	104	0	51	13794
2026-01-22 03:22:31.67	8.15	4.46	-40.0	-51.6	3.8	8.46e-01	0	51	104	0	51	13779
2026-01-22 03:22:32.68	8.08	4.52	-40.0	-51.5	3.8	8.47e-01	0	51	104	0	51	13719
2026-01-22 03:22:33.69	8.00	4.58	-40.0	-51.6	3.8	8.46e-01	0	51	104	0	51	13786
2026-01-22 03:22:34.70	7.93	4.64	-40.0	-51.6	3.8	8.46e-01	0	52	104	0	51	13756
2026-01-22 03:22:35.71	7.85	4.70	-40.0	-51.6	3.8	8.46e-01	0	52	104	0	51	13770
2026-01-22 03:22:36.72	7.78	4.76	-40.0	-51.6	3.8	8.47e-01	0	52	104	0	51	13799
2026-01-22 03:22:37.73	7.70	4.83	-40.0	-51.6	3.8	8.47e-01	0	52	104	0	51	13740
2026-01-22 03:22:38.74	7.63	4.89	-40.0	-51.6	3.8	8.47e-01	0	52	104	0	51	13777
2026-01-22 03:22:39.75	7.55	4.95	-40.0	-51.6	3.8	8.45e-01	0	52	104	0	51	13741
2026-01-22 03:22:40.76	7.47	5.01	-40.0	-51.6	3.8	8.45e-01	0	52	104	0	51	13814
2026-01-22 03:22:41.77	7.40	5.07	-40.0	-51.6	3.8	8.44e-01	0	52	104	0	51	13748
2026-01-22 03:22:42.78	7.32	5.14	-40.0	-51.6	3.8	8.46e-01	0	52	104	0	51	13760
2026-01-22 03:22:43.79	7.24	5.20	-40.0	-51.6	3.8	8.47e-01	0	52	104	0	51	13770
2026-01-22 03:22:44.80	7.16	5.26	-40.0	-51.6	3.8	8.45e-01	0	52	104	0	51	13744
2026-01-22 03:22:45.81	7.08	5.32	-40.0	-51.6	3.8	8.47e-01	0	52	104	0	51	13824
2026-01-22 03:22:46.82	7.00	5.39	-40.0	-51.6	3.8	8.46e-01	0	52	104	0	51	13779
2026-01-22 03:22:47.83	6.93	5.45	-40.0	-51.6	3.8	8.47e-01	0	52	104	0	51	13795
2026-01-22 03:22:48.84	6.85	5.51	-40.0	-51.6	3.8	8.46e-01	0	52	104	0	51	13739
2026-01-22 03:22:49.85	6.77	5.57	-40.0	-51.6	3.8	8.46e-01	0	52	104	0	51	13792
2026-01-22 03:22:50.86	6.69	5.64	-40.0	-51.6	3.8	8.47e-01	0	52	104	0	51	13788
2026-01-22 03:22:51.87	6.61	5.70	-40.0	-51.6	3.8	8.44e-01	0	52	104	0	51	13768
2026-01-22 03:22:52.88	6.52	5.76	-40.0	-51.6	3.8	8.45e-01	0	53	104	0	51	13805
2026-01-22 03:22:53.89	6.44	5.83	-40.0	-51.6	3.8	8.46e-01	0	52	104	0	51	13761
2026-01-22 03:22:54.90	6.36	5.89	-40.0	-51.6	3.8	8.48e-01	0	53	104	0	51	13747
2026-01-22 03:22:55.91	6.28	5.95	-40.0	-51.6	3.8	8.46e-01	0	53	104	0	51	13787
2026-01-22 03:22:56.92	6.20	6.02	-40.0	-51.6	3.8	8.46e-01	0	53	104	0	51	13754
2026-01-22 03:22:57.93	6.11	6.08	-40.0	-51.6	3.8	8.46e-01	0	53	104	0	51	13729
2026-01-22 03:22:58.94	6.03	6.14	-40.0	-51.6	3.8	8.46e-01	0	53	104	0	51	13732
2026-01-22 03:22:59.95	5.95	6.21	-40.0	-51.6	3.8	8.46e-01	0	53	104	0	51	13752
2026-01-22 03:23:00.96	5.86	6.27	-40.0	-51.6	3.8	8.46e-01	0	52	104	0	51	13770
2026-01-22 03:23:01.97	5.78	6.34	-40.0	-51.6	3.8	8.47e-01	0	53	104	0	51	13777
2026-01-22 03:23:02.98	5.69	6.40	-40.0	-51.6	3.8	8.47e-01	0	53	104	0	51	13754
2026-01-22 03:23:03.99	5.61	6.46	-40.0	-51.6	3.8	8.46e-01	0	53	104	0	51	13754
2026-01-22 03:23:05.00	5.52	6.53	-40.0	-51.6	3.8	8.47e-01	0	53	104	0	51	13750
2026-01-22 03:23:06.01	5.44	6.59	-40.0	-51.6	3.8	8.47e-01	0	53	104	0	51	13787
2026-01-22 03:23:07.03	5.35	6.66	-40.0	-51.6	3.8	8.47e-01	0	53	104	0	51	13759
2026-01-22 03:23:08.04	5.26	6.72	-40.0	-51.6	3.8	8.47e-01	0	53	104	0	51	13736
2026-01-22 03:23:09.05	5.17	6.79	-40.0	-51.6	3.8	8.47e-01	0	53	104	0	51	13792
2026-01-22 03:23:10.06	5.09	6.85	-40.0	-51.6	3.8	8.46e-01	0	53	104	0	51	13764
2026-01-22 03:23:11.07	5.00	6.92	-40.0	-51.5	3.8	8.46e-01	0	53	104	0	51	13725
2026-01-22 03:23:12.08	4.91	6.98	-40.0	-51.6	3.8	8.46e-01	0	53	104	0	51	13741
2026-01-22 03:23:13.09	4.82	7.05	-40.0	-51.6	3.8	8.45e-01	0	54	104	0	51	13762
2026-01-22 03:23:14.10	4.73	7.11	-40.0	-51.6	3.8	8.46e-01	0	53	104	0	51	13769
2026-01-22 03:23:15.11	4.64	7.18	-40.0	-51.6	3.8	8.46e-01	0	53	104	0	51	13747
2026-01-22 03:23:16.12	4.55	7.24	-40.0	-51.6	3.8	8.46e-01	0	54	104	0	51	13750
2026-01-22 03:23:17.13	4.46	7.31	-40.0	-51.6	3.8	8.46e-01	0	53	104	0	51	13785
2026-01-22 03:23:18.14	4.37	7.38	-40.0	-51.6	3.8	8.45e-01	0	54	104	0	51	13769
2026-01-22 03:23:19.15	4.28	7.44	-40.0	-51.6	3.8	8.46e-01	0	54	104	0	51	13738
2026-01-22 03:23:20.16	4.19	7.51	-40.0	-51.6	3.8	8.44e-01	0	53	104	0	51	13784
2026-01-22 03:23:21.17	4.09	7.57	-40.0	-51.6	3.8	8.46e-01	0	54	104	0	51	13762
2026-01-22 03:23:22.18	4.00	7.64	-40.0	-51.6	3.8	8.47e-01	0	54	104	0	51	13772
2026-01-22 03:23:23.20	3.91	7.71	-40.0	-51.6	3.8	8.47e-01	0	54	104	0	51	13754
2026-01-22 03:23:24.21	3.81	7.77	-40.0	-51.6	3.8	8.46e-01	0	54	104	0	51	13727
2026-01-22 03:23:25.22	3.72	7.84	-40.0	-51.6	3.8	8.46e-01	0	54	104	0	51	13763
2026-01-22 03:23:26.23	3.63	7.90	-40.0	-51.6	3.8	8.46e-01	0	54	104	0	51	13765
2026-01-22 03:23:27.24	3.53	7.97	-40.0	-51.6	3.8	8.46e-01	0	54	104	0	51	13736
2026-01-22 03:23:28.25	3.44	8.04	-40.0	-51.6	3.8	8.47e-01	0	54	104	0	51	13800
2026-01-22 03:23:29.26	3.34	8.10	-40.0	-51.6	3.8	8.46e-01	0	54	104	0	51	13811
2026-01-22 03:23:30.27	3.24	8.17	-40.1	-51.7	3.8	8.44e-01	0	54	104	0	51	13950
2026-01-22 03:23:31.28	3.15	8.24	-40.0	-51.6	3.8	8.47e-01	0	54	104	0	51	13870
2026-01-22 03:23:32.29	3.05	8.31	-40.1	-51.7	3.8	8.47e-01	0	54	104	0	51	13961
2026-01-22 03:23:33.30	2.95	8.37	-40.1	-51.7	3.8	8.47e-01	0	54	104	0	51	13894
2026-01-22 03:23:34.31	2.85	8.44	-40.1	-51.7	3.8	8.45e-01	0	54	104	0	51	13926
2026-01-22 03:23:35.32	2.75	8.51	-40.1	-51.7	3.8	8.46e-01	0	54	104	0	51	13890
2026-01-22 03:23:36.32	2.66	8.57	-40.2	-51.7	3.8	8.45e-01	0	54	104	0	51	14009
2026-01-22 03:23:37.33	2.56	8.64	-40.0	-51.6	3.8	8.45e-01	0	54	104	0	51	13841
2026-01-22 03:23:38.34	2.46	8.71	-40.1	-51.7	3.8	8.46e-01	0	54	104	0	51	14002
2026-01-22 03:23:39.35	2.36	8.78	-40.1	-51.7	3.8	8.45e-01	0	54	104	0	51	13948
2026-01-22 03:23:40.36	2.26	8.84	-40.2	-51.8	3.8	8.45e-01	0	54	104	0	51	14085
2026-01-22 03:23:41.38	2.15	8.91	-40.0	-51.6	3.8	8.46e-01	0	54	104	0	51	13789
2026-01-22 03:23:42.39	2.05	8.98	-40.2	-51.7	3.8	8.47e-01	0	54	104	0	51	14012
2026-01-22 03:23:43.40	1.95	9.05	-40.1	-51.7	3.8	8.46e-01	0	54	104	0	51	13956
2026-01-22 03:23:44.41	1.84	9.12	-40.2	-51.8	3.8	8.46e-01	0	55	104	0	51	14066
2026-01-22 03:23:45.42	1.74	9.19	-40.1	-51.7	3.8	8.45e-01	0	55	104	0	51	13977
2026-01-22 03:23:46.43	1.64	9.25	-40.2	-51.8	3.8	8.46e-01	0	55	104	0	51	14060
2026-01-22 03:23:47.44	1.53	9.32	-40.1	-51.6	3.8	8.47e-01	0	55	104	0	51	13869
2026-01-22 03:23:48.44	1.43	9.39	-40.1	-51.7	3.8	8.47e-01	0	54	104	0	51	14005
2026-01-22 03:23:49.45	1.32	9.46	-40.2	-51.7	3.8	8.46e-01	0	54	104	0	51	14014
2026-01-22 03:23:50.46	1.22	9.53	-40.1	-51.7	3.8	8.46e-01	0	54	104	0	51	14021
2026-01-22 03:23:51.47	1.11	9.60	-40.1	-51.7	3.8	8.46e-01	0	54	104	0	51	13916
2026-01-22 03:23:52.48	1.00	9.67	-40.1	-51.7	3.8	8.46e-01	0	55	104	0	51	13962
2026-01-22 03:23:53.49	0.90	9.73	-40.1	-51.7	3.8	8.47e-01	0	55	104	0	51	13998
2026-01-22 03:23:54.50	0.79	9.80	-40.1	-51.7	3.8	8.47e-01	0	55	104	0	51	13976
2026-01-22 03:23:55.51	0.68	9.87	-40.1	-51.7	3.8	8.46e-01	0	55	104	0	51	13958
2026-01-22 03:23:56.52	0.57	9.94	-40.1	-51.7	3.8	8.46e-01	0	55	104	0	51	14031
2026-01-22 03:23:57.53	0.46	10.01	-40.1	-51.7	3.8	8.45e-01	0	55	104	0	51	14027
2026-01-22 03:23:58.54	0.35	10.08	-40.1	-51.7	3.8	8.46e-01	0	55	104	0	51	14038
2026-01-22 03:23:59.55	0.24	10.15	-40.1	-51.7	3.8	8.47e-01	0	55	104	0	51	13954
2026-01-22 03:24:00.56	0.13	10.22	-40.2	-51.7	3.8	8.47e-01	0	55	104	0	51	14037
2026-01-22 03:24:01.57	0.02	10.29	-40.2	-51.8	3.8	8.46e-01	0	55	104	0	51	14113
2026-01-22 03:24:02.58	359.90	10.36	-40.1	-51.7	3.8	8.46e-01	0	55	104	0	51	14006
2026-01-22 03:24:03.59	359.79	10.43	-40.1	-51.7	3.8	8.46e-01	0	55	104	0	51	13987
2026-01-22 03:24:04.60	359.68	10.50	-40.2	-51.8	3.8	8.45e-01	0	55	104	0	51	14089
2026-01-22 03:24:05.61	359.56	10.57	-40.3	-51.9	3.8	8.46e-01	0	55	104	0	51	14300
2026-01-22 03:24:06.62	359.45	10.64	-40.1	-51.7	3.8	8.46e-01	0	55	104	0	51	13986
2026-01-22 03:24:07.63	359.33	10.71	-40.2	-51.8	3.8	8.46e-01	0	55	104	0	51	14067
2026-01-22 03:24:08.64	359.22	10.78	-40.2	-51.8	3.8	8.46e-01	0	55	104	0	51	14159
2026-01-22 03:24:09.65	359.10	10.85	-40.4	-52.0	3.8	8.47e-01	0	55	104	0	51	14446
2026-01-22 03:24:10.66	358.98	10.92	-40.1	-51.7	3.8	8.45e-01	0	55	104	0	51	14003
2026-01-22 03:24:11.67	358.86	10.99	-40.3	-51.9	3.8	8.45e-01	0	55	104	0	51	14314
2026-01-22 03:24:12.68	358.75	11.06	-40.2	-51.8	3.8	8.46e-01	0	55	104	0	51	14141
2026-01-22 03:24:13.68	358.63	11.13	-40.5	-52.1	3.8	8.46e-01	0	55	104	0	51	14625
2026-01-22 03:24:14.69	358.51	11.20	-40.2	-51.8	3.8	8.46e-01	0	55	104	0	51	14059
2026-01-22 03:24:15.70	358.39	11.28	-40.2	-51.8	3.8	8.47e-01	0	55	104	0	51	14139
2026-01-22 03:24:16.71	358.27	11.35	-40.1	-51.7	3.8	8.46e-01	0	55	104	0	51	13934
2026-01-22 03:24:17.72	358.15	11.42	-40.1	-51.7	3.8	8.47e-01	0	55	104	0	51	13984
2026-01-22 03:24:18.73	358.03	11.49	-40.1	-51.7	3.8	8.47e-01	0	55	104	0	51	13937
2026-01-22 03:24:19.74	357.90	11.56	-40.1	-51.7	3.8	8.46e-01	0	55	104	0	51	13934
2026-01-22 03:24:20.75	357.78	11.63	-40.2	-51.7	3.8	8.46e-01	0	55	104	0	51	14038
2026-01-22 03:24:21.76	357.66	11.70	-40.2	-51.7	3.8	8.45e-01	0	55	104	0	51	13951
2026-01-22 03:24:22.77	357.53	11.78	-40.8	-51.8	3.8	8.46e-01	0	55	104	0	52	13310
2026-01-22 03:24:23.78	357.41	11.85	-40.9	-50.7	3.8	8.45e-01	0	55	104	0	52	11759
2026-01-22 03:24:24.79	357.28	11.92	-40.4	-52.0	3.8	8.45e-01	0	55	104	0	52	13656
2026-01-22 03:24:25.80	357.16	11.99	-40.5	-49.4	3.9	8.47e-01	0	55	104	0	52	10069
2026-01-22 03:24:26.81	357.03	12.06	-40.4	-47.5	4.8	8.21e-01	0	56	0	0	52	8139
2026-01-22 03:24:27.81	356.90	12.13	-40.1	-46.2	5.5	7.25e-01	0	56	0	0	52	6996
2026-01-22 03:24:28.82	356.77	12.21	-39.8	-45.1	6.5	3.38e-01	0	56	0	4194304	51	6505
2026-01-22 03:24:29.83	356.65	12.28	-39.6	-44.4	7.1	1.72e-01	0	56	0	10485760	51	6015
2026-01-22 03:24:30.84	356.52	12.35	-39.5	-44.1	7.5	1.25e-01	0	56	0	15728640	50	6154
2026-01-22 03:24:31.85	356.39	12.42	-40.2	-46.5	5.4	2.43e-01	0	55	0	22020096	50	8139
2026-01-22 03:24:32.86	356.26	12.49	-40.0	-46.0	5.7	6.31e-01	0	56	0	24117248	51	7225
2026-01-22 03:24:33.87	356.12	12.57	-40.8	-49.6	4.1	6.68e-01	0	56	0	28311552	52	10317
2026-01-22 03:24:34.88	355.99	12.64	-40.9	-47.5	5.2	3.97e-01	0	56	0	29360128	52	8149
2026-01-22 03:24:35.89	355.86	12.71	-40.6	-51.2	3.8	8.35e-01	0	56	104	30408704	52	12393
2026-01-22 03:24:36.90	355.73	12.78	-40.4	-48.3	4.0	8.42e-01	0	56	104	30408704	52	8883
2026-01-22 03:24:37.91	355.59	12.86	-40.5	-49.0	4.2	8.36e-01	0	55	0	30408704	52	9658
2026-01-22 03:24:38.92	355.46	12.93	-40.6	-50.2	3.9	8.44e-01	0	56	104	30408704	52	11057
2026-01-22 03:24:39.93	355.32	13.00	-40.6	-51.0	3.8	8.47e-01	0	56	104	30408704	52	12211
2026-01-22 03:24:40.94	355.19	13.07	-40.7	-51.7	3.8	8.45e-01	0	56	104	30408704	52	13200
2026-01-22 03:24:41.95	355.05	13.15	-40.7	-52.2	3.8	8.47e-01	0	56	104	30408704	52	13936
2026-01-22 03:24:42.96	354.91	13.22	-41.1	-52.1	3.8	8.45e-01	0	56	104	30408704	52	13798
2026-01-22 03:24:43.97	354.77	13.29	-41.0	-52.4	3.8	8.46e-01	0	56	104	30408704	52	14219
2026-01-22 03:24:44.98	354.63	13.37	-40.6	-52.1	3.8	8.45e-01	0	56	104	30408704	52	13862
2026-01-22 03:24:45.99	354.49	13.44	-40.7	-52.2	3.8	8.45e-01	0	56	104	30408704	52	13945
2026-01-22 03:24:47.00	354.35	13.51	-40.8	-52.2	3.8	8.46e-01	0	56	104	30408704	52	13999
2026-01-22 03:24:48.01	354.21	13.58	-40.8	-52.3	3.8	8.46e-01	0	56	104	30408704	52	14207
2026-01-22 03:24:49.02	354.07	13.66	-40.5	-52.1	3.8	8.47e-01	0	56	104	30408704	52	13805
2026-01-22 03:24:50.03	353.93	13.73	-40.7	-52.3	3.8	8.47e-01	0	56	104	30408704	52	14056
2026-01-22 03:24:51.04	353.79	13.80	-40.7	-52.3	3.8	8.46e-01	0	56	104	30408704	52	14132
2026-01-22 03:24:52.05	353.64	13.88	-40.6	-52.2	3.8	8.47e-01	0	56	104	30408704	52	13989
2026-01-22 03:24:53.06	353.50	13.95	-40.5	-52.1	3.8	8.46e-01	0	56	104	30408704	52	13799
2026-01-22 03:24:54.07	353.35	14.02	-40.8	-52.4	3.8	8.46e-01	0	56	104	30408704	52	14213
2026-01-22 03:24:55.08	353.21	14.10	-40.7	-52.3	3.8	8.46e-01	0	56	104	30408704	52	14135
2026-01-22 03:24:56.09	353.06	14.17	-40.6	-52.2	3.8	8.46e-01	0	56	104	30408704	52	13946
2026-01-22 03:24:57.10	352.91	14.24	-40.7	-52.3	3.8	8.46e-01	0	56	104	30408704	52	14156
2026-01-22 03:24:58.11	352.76	14.32	-40.8	-52.4	3.8	8.46e-01	0	56	104	30408704	52	14274
2026-01-22 03:24:59.12	352.61	14.39	-40.6	-52.2	3.8	8.46e-01	0	56	104	30408704	52	13996
2026-01-22 03:25:00.12	352.47	14.46	-40.8	-52.4	3.8	8.46e-01	0	56	104	30408704	52	14226
2026-01-22 03:25:01.11	352.32	14.54	-40.8	-52.4	3.8	8.45e-01	0	56	104	30408704	52	14292
2026-01-22 03:25:02.12	352.17	14.61	-40.8	-52.4	3.8	8.46e-01	0	56	104	30408704	52	14222
2026-01-22 03:25:03.13	352.02	14.68	-40.7	-52.3	3.8	8.46e-01	0	56	104	30408704	52	14176
2026-01-22 03:25:04.14	351.86	14.76	-40.9	-52.5	3.8	8.46e-01	0	56	104	30408704	52	14387
2026-01-22 03:25:05.15	351.71	14.83	-40.7	-52.3	3.8	8.47e-01	0	56	104	30408704	52	14166
2026-01-22 03:25:06.16	351.55	14.90	-41.0	-52.6	3.8	8.46e-01	0	56	104	30408704	52	14614
2026-01-22 03:25:07.17	351.40	14.98	-40.8	-52.4	3.8	8.47e-01	0	56	104	30408704	52	14245
2026-01-22 03:25:08.18	351.24	15.05	-40.8	-52.4	3.8	8.46e-01	0	56	104	30408704	52	14212
2026-01-22 03:25:09.19	351.09	15.13	-40.8	-52.4	3.8	8.46e-01	0	56	104	30408704	52	14306
2026-01-22 03:25:10.20	350.93	15.20	-41.1	-52.7	3.8	8.47e-01	0	56	104	30408704	52	14852
2026-01-22 03:25:11.21	350.77	15.27	-40.8	-52.4	3.8	8.45e-01	0	56	104	30408704	52	14214
2026-01-22 03:25:12.22	350.61	15.35	-40.9	-52.5	3.8	8.47e-01	0	56	104	30408704	52	14413
2026-01-22 03:25:13.23	350.45	15.42	-40.9	-52.5	3.8	8.45e-01	0	56	104	30408704	52	14451
2026-01-22 03:25:14.24	350.29	15.49	-41.0	-52.6	3.8	8.47e-01	0	56	104	30408704	52	14630
2026-01-22 03:25:15.25	350.13	15.57	-41.0	-52.6	3.8	8.46e-01	0	56	104	30408704	52	14699
2026-01-22 03:25:16.26	349.97	15.64	-40.8	-52.4	3.8	8.46e-01	0	56	104	30408704	52	14317
2026-01-22 03:25:17.27	349.80	15.71	-41.1	-52.7	3.8	8.47e-01	0	56	104	30408704	52	14748
2026-01-22 03:25:18.27	349.64	15.79	-41.2	-52.8	3.8	8.48e-01	0	56	104	30408704	53	14082
2026-01-22 03:25:19.28	349.48	15.86	-41.0	-52.6	3.8	8.46e-01	0	56	104	30408704	53	13841
2026-01-22 03:25:20.29	349.31	15.93	-40.9	-52.5	3.8	8.46e-01	0	56	104	30408704	53	13636
2026-01-22 03:25:21.30	349.14	16.01	-41.4	-52.9	3.8	8.46e-01	0	56	104	30408704	53	14306
2026-01-22 03:25:22.31	348.98	16.08	-41.5	-53.0	3.8	8.47e-01	0	56	104	30408704	53	14438
2026-01-22 03:25:23.32	348.81	16.16	-41.0	-52.6	3.8	8.45e-01	0	56	104	30408704	53	13774
2026-01-22 03:25:24.33	348.64	16.23	-41.4	-52.9	3.8	8.46e-01	0	56	104	30408704	53	14330
2026-01-22 03:25:25.34	348.47	16.30	-41.4	-53.0	3.8	8.47e-01	0	57	104	30408704	53	14381
2026-01-22 03:25:26.35	348.30	16.38	-41.5	-53.0	3.8	8.46e-01	0	56	104	30408704	53	14454
2026-01-22 03:25:27.36	348.13	16.45	-41.4	-52.9	3.8	8.46e-01	0	56	104	30408704	53	14330
2026-01-22 03:25:28.37	347.95	16.52	-41.5	-53.1	3.8	8.45e-01	0	56	104	30408704	53	14542
2026-01-22 03:25:29.38	347.78	16.60	-41.5	-53.0	3.8	8.46e-01	0	57	104	30408704	53	14481
2026-01-22 03:25:30.39	347.61	16.67	-41.6	-53.1	3.8	8.45e-01	0	57	104	30408704	53	14642
2026-01-22 03:25:31.40	347.43	16.74	-41.5	-53.0	3.8	8.46e-01	0	57	104	30408704	53	14507
2026-01-22 03:25:32.41	347.26	16.82	-41.5	-53.1	3.8	8.46e-01	0	57	104	30408704	53	14595
2026-01-22 03:25:33.42	347.08	16.89	-41.4	-53.0	3.8	8.46e-01	0	56	104	30408704	53	14398
2026-01-22 03:25:34.43	346.90	16.96	-41.5	-53.0	3.8	8.47e-01	0	57	104	30408704	53	14493
2026-01-22 03:25:35.43	346.72	17.03	-41.5	-53.1	3.8	8.46e-01	0	57	104	30408704	53	14603
2026-01-22 03:25:36.44	346.54	17.11	-41.3	-52.9	3.8	8.46e-01	0	57	104	30408704	53	14319
2026-01-22 03:25:37.45	346.36	17.18	-41.2	-52.7	3.8	8.45e-01	0	57	104	30408704	53	13982
2026-01-22 03:25:38.46	346.18	17.25	-41.3	-52.8	3.8	8.47e-01	0	57	104	30408704	53	14106
2026-01-22 03:25:39.47	346.00	17.32	-41.4	-52.9	3.8	8.46e-01	0	57	104	30408704	53	14250
2026-01-22 03:25:40.48	345.82	17.40	-41.1	-52.7	3.8	8.47e-01	0	57	104	30408704	53	13950
2026-01-22 03:25:41.49	345.63	17.47	-41.0	-52.6	3.8	8.46e-01	0	57	104	30408704	53	13789
2026-01-22 03:25:42.50	345.45	17.54	-41.1	-52.6	3.8	8.46e-01	0	56	104	30408704	53	13861
2026-01-22 03:25:43.52	345.26	17.61	-41.0	-52.6	3.8	8.46e-01	0	57	104	30408704	53	13811
2026-01-22 03:25:44.53	345.08	17.69	-41.0	-52.6	3.8	8.46e-01	0	57	104	30408704	53	13783
2026-01-22 03:25:45.54	344.89	17.76	-41.1	-52.6	3.8	8.45e-01	0	57	104	30408704	53	13855
2026-01-22 03:25:46.55	344.70	17.83	-41.0	-52.6	3.8	8.47e-01	0	57	104	30408704	53	13751
2026-01-22 03:25:47.56	344.51	17.90	-40.9	-52.4	3.8	8.46e-01	0	57	104	30408704	53	13559
2026-01-22 03:25:48.57	344.32	17.97	-40.9	-52.5	3.8	8.45e-01	0	57	104	30408704	53	13618
2026-01-22 03:25:49.58	344.13	18.05	-40.8	-52.4	3.8	8.46e-01	0	57	104	30408704	53	13425
2026-01-22 03:25:50.59	343.94	18.12	-40.9	-52.4	3.8	8.44e-01	0	57	104	30408704	53	13472
2026-01-22 03:25:51.59	343.75	18.19	-40.8	-52.3	3.8	8.47e-01	0	57	104	30408704	53	13354
2026-01-22 03:25:52.60	343.55	18.26	-40.8	-52.3	3.8	8.47e-01	0	57	104	30408704	53	13404
2026-01-22 03:25:53.61	343.36	18.33	-40.9	-52.4	3.8	8.46e-01	0	57	104	30408704	53	13488
2026-01-22 03:25:54.62	343.16	18.40	-40.8	-52.3	3.8	8.46e-01	0	57	104	30408704	53	13290
2026-01-22 03:25:55.63	342.96	18.47	-40.9	-52.4	3.8	8.46e-01	0	57	104	30408704	53	13551
2026-01-22 03:25:56.64	342.77	18.54	-40.8	-52.3	3.8	8.47e-01	0	57	104	30408704	53	13376
2026-01-22 03:25:57.65	342.57	18.61	-40.9	-52.4	3.8	8.46e-01	0	57	104	30408704	53	13460
2026-01-22 03:25:58.66	342.37	18.68	-40.9	-52.4	3.8	8.46e-01	0	57	104	30408704	53	13506
2026-01-22 03:25:59.67	342.17	18.75	-41.1	-52.7	3.8	8.46e-01	0	57	104	30408704	53	13927
2026-01-22 03:26:00.67	341.97	18.82	-40.9	-52.4	3.8	8.47e-01	0	57	104	30408704	53	13552
2026-01-22 03:26:01.68	341.77	18.89	-41.1	-52.7	3.8	8.45e-01	0	57	104	30408704	53	13954
2026-01-22 03:26:02.69	341.56	18.96	-41.0	-52.5	3.8	8.46e-01	0	57	104	30408704	53	13641
2026-01-22 03:26:03.70	341.36	19.03	-41.3	-52.8	3.8	8.46e-01	0	57	104	30408704	53	14169
2026-01-22 03:26:04.71	341.15	19.10	-41.1	-52.6	3.8	8.46e-01	0	57	104	30408704	53	13764
2026-01-22 03:26:05.72	340.95	19.17	-41.4	-52.7	3.8	8.46e-01	0	57	104	30408704	53	14031
2026-01-22 03:26:06.73	340.74	19.24	-41.3	-52.8	3.8	8.47e-01	0	57	104	30408704	53	14190
2026-01-22 03:26:07.74	340.53	19.31	-41.4	-51.7	3.8	8.46e-01	0	57	104	30408704	53	12447
2026-01-22 03:26:08.75	340.32	19.38	-41.3	-52.2	3.8	8.45e-01	0	57	104	30408704	53	13128
2026-01-22 03:26:09.76	340.11	19.45	-41.1	-49.5	3.9	8.45e-01	0	57	104	30408704	53	9672
2026-01-22 03:26:10.77	339.90	19.51	-41.4	-49.1	4.5	8.23e-01	0	57	0	30408704	53	9218
2026-01-22 03:26:11.78	339.69	19.58	-41.5	-48.7	4.7	8.14e-01	0	57	0	30408704	53	8857
2026-01-22 03:26:12.79	339.48	19.65	-41.2	-47.2	5.6	7.43e-01	0	57	0	30408704	53	7374
2026-01-22 03:26:13.80	339.26	19.72	-40.4	-44.8	7.9	1.24e-01	0	57	0	35651584	52	5933
2026-01-22 03:26:14.80	339.05	19.78	-39.4	-42.6	10.4	1.43e-02	0	57	0	41943040	50	5173
2026-01-22 03:26:15.81	338.83	19.85	-38.2	-40.6	12.8	2.29e-04	0	57	0	47185920	48	4611
2026-01-22 03:26:16.82	338.62	19.92	-37.0	-38.9	14.6	2.20e-06	0	57	0	52428800	46	4287
2026-01-22 03:26:17.83	338.40	19.98	-36.5	-38.3	15.4	0.00e+00	0	57	0	58720256	45	4211
2026-01-22 03:26:18.84	338.18	20.05	-36.5	-38.2	15.5	0.00e+00	0	57	0	63963136	45	4188
2026-01-22 03:26:19.85	337.96	20.11	-36.6	-38.3	15.6	1.10e-06	0	57	0	69206016	45	4225
2026-01-22 03:26:20.86	337.74	20.18	-36.9	-38.6	15.4	0.00e+00	0	57	0	75497472	45	4370
2026-01-22 03:26:21.87	337.52	20.25	-37.0	-38.7	15.5	0.00e+00	0	57	0	80740352	45	4426
2026-01-22 03:26:22.88	337.30	20.31	-36.9	-38.6	15.8	0.00e+00	0	57	0	87031808	45	4357
2026-01-22 03:26:23.89	337.07	20.38	-37.0	-38.7	15.8	0.00e+00	0	57	0	92274688	45	4394
2026-01-22 03:26:24.90	336.85	20.44	-37.2	-38.9	15.6	0.00e+00	0	57	0	97517568	45	4545
2026-01-22 03:26:25.91	336.63	20.50	-36.9	-38.6	16.0	0.00e+00	0	57	0	103809024	45	4341
2026-01-22 03:26:26.92	336.40	20.57	-37.0	-38.7	16.0	0.00e+00	0	57	0	109051904	45	4398
2026-01-22 03:26:27.93	336.17	20.63	-36.9	-38.5	16.1	0.00e+00	0	57	0	115343360	45	4321
2026-01-22 03:26:28.94	335.94	20.69	-36.9	-38.5	16.2	0.00e+00	0	57	0	120586240	45	4329
2026-01-22 03:26:29.95	335.71	20.76	-36.9	-38.5	16.3	0.00e+00	0	57	0	126877696	45	4306
2026-01-22 03:26:30.96	335.48	20.82	-36.8	-38.4	16.4	0.00e+00	0	57	0	132120576	45	4259
2026-01-22 03:26:31.97	335.25	20.88	-36.8	-38.4	16.5	0.00e+00	0	57	0	138412032	45	4257
2026-01-22 03:26:32.98	335.02	20.94	-36.7	-38.2	16.6	0.00e+00	0	57	0	143654912	45	4185
2026-01-22 03:26:33.99	334.79	21.01	-36.5	-38.0	16.8	0.00e+00	0	57	0	148897792	45	4086
2026-01-22 03:26:35.00	334.55	21.07	-36.6	-38.1	16.8	0.00e+00	0	57	0	155189248	45	4109
2026-01-22 03:26:36.00	334.32	21.13	-36.7	-38.2	16.8	0.00e+00	0	57	0	160432128	45	4148
2026-01-22 03:26:37.01	334.09	21.19	-36.7	-38.2	16.8	0.00e+00	0	57	0	166723584	45	4163
2026-01-22 03:26:38.02	333.85	21.25	-36.8	-38.4	16.6	0.00e+00	0	57	0	171966464	45	4246
2026-01-22 03:26:39.03	333.61	21.31	-36.8	-38.3	16.6	0.00e+00	0	57	0	177209344	45	4229
2026-01-22 03:26:40.04	333.37	21.37	-36.9	-38.4	16.6	0.00e+00	0	57	0	183500800	45	4278
2026-01-22 03:26:41.05	333.13	21.43	-36.9	-38.5	16.5	0.00e+00	0	57	0	188743680	45	4313
2026-01-22 03:26:42.06	332.89	21.48	-36.9	-38.4	16.6	0.00e+00	0	57	0	195035136	45	4266
2026-01-22 03:26:43.07	332.65	21.54	-36.8	-38.3	16.7	0.00e+00	0	57	0	200278016	45	4228
2026-01-22 03:26:44.08	332.41	21.60	-36.8	-38.3	16.7	0.00e+00	0	57	0	205520896	45	4204
2026-01-22 03:26:45.09	332.17	21.66	-36.8	-38.3	16.7	0.00e+00	0	57	0	211812352	45	4239
2026-01-22 03:26:46.10	331.92	21.71	-36.8	-38.3	16.7	0.00e+00	0	57	0	217055232	45	4242
2026-01-22 03:26:47.11	331.68	21.77	-36.7	-38.2	16.9	0.00e+00	0	57	0	223346688	45	4152
2026-01-22 03:26:48.12	331.43	21.83	-36.6	-38.1	16.9	0.00e+00	0	57	0	228589568	45	4130
2026-01-22 03:26:49.13	331.19	21.88	-36.6	-38.1	17.0	0.00e+00	0	57	0	234881024	45	4102
2026-01-22 03:26:50.14	330.94	21.94	-36.5	-38.0	17.0	0.00e+00	0	57	0	240123904	45	4090
2026-01-22 03:26:51.15	330.69	21.99	-36.5	-38.0	17.0	0.00e+00	0	57	0	246415360	45	4085
2026-01-22 03:26:52.16	330.44	22.05	-36.6	-38.1	17.0	0.00e+00	0	57	0	251658240	45	4129
2026-01-22 03:26:53.17	330.19	22.10	-36.6	-38.1	17.0	0.00e+00	0	57	0	256901120	45	4123
2026-01-22 03:26:54.18	329.94	22.15	-36.6	-38.1	17.0	0.00e+00	0	57	0	263192576	45	4106
2026-01-22 03:26:55.19	329.69	22.21	-36.7	-38.2	16.9	0.00e+00	0	57	0	268435456	45	4149
2026-01-22 03:26:56.20	329.43	22.26	-36.7	-38.2	16.9	0.00e+00	0	57	0	273678336	45	4178
2026-01-22 03:26:57.21	329.18	22.31	-36.7	-38.2	16.9	0.00e+00	0	57	0	279969792	45	4150
2026-01-22 03:26:58.22	328.93	22.36	-36.7	-38.3	16.8	0.00e+00	0	57	0	285212672	45	4200
2026-01-22 03:26:59.23	328.67	22.41	-36.6	-38.1	17.0	0.00e+00	0	57	0	291504128	45	4134
2026-01-22 03:27:00.24	328.41	22.46	-36.6	-38.1	17.0	0.00e+00	0	57	0	296747008	45	4129
2026-01-22 03:27:01.24	328.16	22.51	-36.6	-38.1	17.0	0.00e+00	0	58	0	301989888	45	4117
2026-01-22 03:27:02.25	327.90	22.56	-36.6	-38.1	17.0	0.00e+00	0	57	0	308281344	45	4117
2026-01-22 03:27:03.26	327.64	22.61	-36.7	-38.1	16.9	0.00e+00	0	57	0	313524224	45	4143
2026-01-22 03:27:04.27	327.38	22.66	-36.6	-38.0	17.1	0.00e+00	0	57	0	319815680	45	4093
2026-01-22 03:27:05.29	327.12	22.71	-36.5	-38.0	17.1	0.00e+00	0	57	0	325058560	45	4063
2026-01-22 03:27:06.30	326.86	22.75	-36.5	-37.9	17.2	0.00e+00	0	57	0	331350016	44	4277
2026-01-22 03:27:07.31	326.60	22.80	-36.5	-37.9	17.2	0.00e+00	0	57	0	336592896	44	4288
2026-01-22 03:27:08.32	326.33	22.85	-36.4	-37.9	17.3	0.00e+00	0	57	0	342884352	44	4247
2026-01-22 03:27:09.33	326.07	22.89	-36.3	-37.7	17.4	0.00e+00	0	57	0	348127232	44	4185
2026-01-22 03:27:10.34	325.81	22.94	-36.2	-37.7	17.4	0.00e+00	0	57	0	353370112	44	4152
2026-01-22 03:27:11.35	325.54	22.98	-36.3	-37.7	17.4	0.00e+00	0	57	0	359661568	44	4171
2026-01-22 03:27:12.36	325.28	23.03	-36.3	-37.7	17.4	0.00e+00	0	57	0	364904448	44	4192
2026-01-22 03:27:13.37	325.01	23.07	-36.2	-37.6	17.5	0.00e+00	0	57	0	371195904	44	4135
2026-01-22 03:27:14.38	324.74	23.11	-36.2	-37.7	17.5	0.00e+00	0	57	0	376438784	44	4146
2026-01-22 03:27:15.39	324.47	23.15	-36.2	-37.6	17.5	0.00e+00	0	57	0	381681664	44	4131
2026-01-22 03:27:16.39	324.21	23.19	-36.2	-37.7	17.5	0.00e+00	0	57	0	387973120	44	4148
2026-01-22 03:27:17.40	323.94	23.23	-36.2	-37.7	17.4	0.00e+00	0	57	0	393216000	44	4147
2026-01-22 03:27:18.41	323.67	23.27	-36.2	-37.6	17.5	0.00e+00	0	57	0	399507456	44	4111
2026-01-22 03:27:19.42	323.40	23.31	-36.2	-37.7	17.4	0.00e+00	0	57	0	404750336	44	4149
2026-01-22 03:27:20.43	323.12	23.35	-36.2	-37.6	17.5	0.00e+00	0	57	0	409993216	44	4142
2026-01-22 03:27:21.44	322.85	23.39	-36.3	-37.7	17.4	0.00e+00	0	57	0	416284672	44	4155
2026-01-22 03:27:22.45	322.58	23.43	-36.3	-37.7	17.4	0.00e+00	0	57	0	421527552	44	4188
2026-01-22 03:27:23.46	322.30	23.47	-36.1	-37.5	17.6	0.00e+00	0	57	0	427819008	44	4073
2026-01-22 03:27:24.47	322.03	23.50	-36.0	-37.4	17.8	0.00e+00	0	57	0	433061888	44	4006
2026-01-22 03:27:25.48	321.76	23.54	-35.8	-37.1	17.8	0.00e+00	0	57	0	439353344	43	4142
2026-01-22 03:27:26.49	321.48	23.57	-35.8	-37.1	17.8	0.00e+00	0	57	0	444596224	43	4142
2026-01-22 03:27:27.50	321.20	23.61	-35.9	-37.3	17.7	0.00e+00	0	57	0	449839104	43	4197
2026-01-22 03:27:28.51	320.93	23.64	-35.9	-37.3	17.6	0.00e+00	0	57	0	456130560	43	4219
2026-01-22 03:27:29.52	320.65	23.67	-36.0	-37.4	17.5	0.00e+00	0	57	0	461373440	43	4276
2026-01-22 03:27:30.53	320.37	23.71	-36.1	-37.6	17.4	0.00e+00	0	57	0	467664896	43	4345
2026-01-22 03:27:31.54	320.09	23.74	-36.2	-37.6	17.3	0.00e+00	0	57	0	472907776	43	4372
2026-01-22 03:27:32.55	319.81	23.77	-36.2	-37.6	17.3	0.00e+00	0	57	0	479199232	43	4387
2026-01-22 03:27:33.56	319.53	23.80	-36.2	-37.7	17.3	0.00e+00	0	57	0	484442112	43	4405
2026-01-22 03:27:34.57	319.25	23.83	-36.2	-37.6	17.3	0.00e+00	0	57	0	489684992	43	4360
2026-01-22 03:27:35.58	318.97	23.86	-36.2	-37.6	17.3	0.00e+00	0	57	0	495976448	43	4361
2026-01-22 03:27:36.59	318.69	23.88	-36.2	-37.6	17.3	0.00e+00	0	57	0	501219328	43	4382
2026-01-22 03:27:37.60	318.41	23.91	-36.2	-37.6	17.3	0.00e+00	0	57	0	506462208	43	4372
2026-01-22 03:27:38.61	318.13	23.94	-36.1	-37.5	17.4	0.00e+00	0	57	0	512753664	43	4323
2026-01-22 03:27:39.62	317.84	23.96	-36.0	-37.4	17.5	0.00e+00	0	57	0	517996544	43	4256
2026-01-22 03:27:40.63	317.56	23.99	-35.9	-37.3	17.6	0.00e+00	0	57	0	524288000	43	4230
2026-01-22 03:27:41.64	317.28	24.01	-35.9	-37.3	17.6	0.00e+00	0	57	0	529530880	43	4215
2026-01-22 03:27:42.64	317.00	24.04	-35.9	-37.3	17.6	0.00e+00	0	57	0	535822336	43	4236
2026-01-22 03:27:43.65	316.71	24.06	-35.8	-37.2	17.8	0.00e+00	0	58	0	541065216	43	4151
2026-01-22 03:27:44.66	316.43	24.08	-35.8	-37.1	17.8	0.00e+00	0	57	0	547356672	43	4129
2026-01-22 03:27:45.67	316.14	24.10	-35.8	-37.2	17.8	0.00e+00	0	57	0	552599552	43	4159
2026-01-22 03:27:46.68	315.85	24.12	-35.7	-37.1	17.8	0.00e+00	0	57	0	557842432	43	4125
2026-01-22 03:27:47.69	315.57	24.14	-35.6	-37.0	17.9	0.00e+00	0	57	0	564133888	43	4062
2026-01-22 03:27:48.70	315.28	24.16	-35.7	-37.0	17.9	0.00e+00	0	57	0	569376768	43	4079
2026-01-22 03:27:49.71	315.00	24.18	-35.7	-37.0	17.9	0.00e+00	0	57	0	575668224	43	4090
2026-01-22 03:27:50.72	314.71	24.20	-35.6	-36.9	18.0	0.00e+00	0	57	0	580911104	43	4047
2026-01-22 03:27:51.73	314.42	24.21	-35.7	-37.1	17.9	0.00e+00	0	58	0	586153984	43	4108
2026-01-22 03:27:52.74	314.13	24.23	-35.8	-37.2	17.8	0.00e+00	0	57	0	592445440	43	4152
2026-01-22 03:27:53.75	313.84	24.25	-35.8	-37.2	17.8	0.00e+00	0	57	0	597688320	43	4150
2026-01-22 03:27:54.76	313.56	24.26	-35.9	-37.3	17.7	0.00e+00	0	58	0	603979776	43	4202
2026-01-22 03:27:55.78	313.26	24.27	-36.0	-37.4	17.6	0.00e+00	0	57	0	609222656	43	4249
2026-01-22 03:27:56.79	312.98	24.29	-36.0	-37.4	17.5	0.00e+00	0	57	0	614465536	43	4290
2026-01-22 03:27:57.80	312.69	24.30	-36.0	-37.4	17.5	0.00e+00	0	57	0	620756992	43	4275
2026-01-22 03:27:58.80	312.40	24.31	-36.0	-37.4	17.5	0.00e+00	0	57	0	625999872	43	4269
2026-01-22 03:27:59.81	312.11	24.32	-36.1	-37.5	17.5	0.00e+00	0	58	0	632291328	43	4295
2026-01-22 03:28:00.82	311.82	24.33	-36.0	-37.4	17.5	0.00e+00	0	58	0	637534208	43	4270
2026-01-22 03:28:01.83	311.53	24.34	-35.9	-37.3	17.6	0.00e+00	0	57	0	643825664	43	4237
2026-01-22 03:28:02.84	311.24	24.35	-35.9	-37.2	17.7	0.00e+00	0	57	0	649068544	43	4186
2026-01-22 03:28:03.85	310.95	24.36	-35.7	-37.1	17.9	0.00e+00	0	57	0	654311424	43	4121
2026-01-22 03:28:04.86	310.66	24.36	-35.8	-37.2	17.8	0.00e+00	0	57	0	660602880	43	4146
2026-01-22 03:28:05.87	310.37	24.37	-35.7	-37.1	17.8	0.00e+00	0	58	0	665845760	43	4121
2026-01-22 03:28:06.88	310.08	24.37	-35.6	-37.0	18.0	0.00e+00	0	58	0	672137216	43	4058
2026-01-22 03:28:07.89	309.79	24.38	-35.7	-37.0	17.9	0.00e+00	0	58	0	677380096	43	4096
2026-01-22 03:28:08.90	309.50	24.38	-35.6	-37.0	17.9	0.00e+00	0	58	0	682622976	43	4072
2026-01-22 03:28:09.91	309.20	24.38	-35.7	-37.1	17.9	0.00e+00	0	57	0	688914432	43	4120
2026-01-22 03:28:10.92	308.91	24.39	-35.8	-37.1	17.8	0.00e+00	0	57	0	694157312	43	4143
2026-01-22 03:28:11.92	308.63	24.39	-35.8	-37.2	17.7	0.00e+00	0	58	0	700448768	43	4179
2026-01-22 03:28:12.93	308.33	24.39	-35.7	-37.1	17.9	0.00e+00	0	57	0	705691648	43	4104
2026-01-22 03:28:13.94	308.04	24.39	-35.7	-37.0	17.9	0.00e+00	0	58	0	710934528	43	4094
2026-01-22 03:28:14.95	307.75	24.38	-35.6	-37.0	18.0	0.00e+00	0	58	0	717225984	43	4071
2026-01-22 03:28:15.96	307.46	24.38	-35.7	-37.1	17.9	0.00e+00	0	57	0	722468864	43	4103
2026-01-22 03:28:16.97	307.17	24.38	-35.8	-37.2	17.8	0.00e+00	0	57	0	728760320	43	4155
2026-01-22 03:28:17.98	306.88	24.38	-35.9	-37.2	17.7	0.00e+00	0	58	0	734003200	43	4193
2026-01-22 03:28:18.99	306.59	24.37	-35.8	-37.2	17.7	0.00e+00	0	58	0	740294656	43	4178
2026-01-22 03:28:20.00	306.30	24.37	-35.8	-37.2	17.7	0.00e+00	0	58	0	745537536	43	4170
2026-01-22 03:28:21.01	306.01	24.36	-35.8	-37.2	17.8	0.00e+00	0	57	0	751828992	43	4157
2026-01-22 03:28:22.02	305.72	24.35	-35.8	-37.2	17.7	0.00e+00	0	57	0	757071872	43	4175
2026-01-22 03:28:23.03	305.43	24.34	-35.7	-37.1	17.9	0.00e+00	0	57	0	762314752	43	4106
2026-01-22 03:28:24.04	305.14	24.34	-35.7	-37.0	17.9	0.00e+00	0	58	0	768606208	43	4081
2026-01-22 03:28:25.04	304.85	24.33	-35.7	-37.0	17.9	0.00e+00	0	58	0	773849088	43	4085
2026-01-22 03:28:26.05	304.56	24.32	-35.7	-37.0	17.9	0.00e+00	0	58	0	780140544	43	4078
2026-01-22 03:28:27.06	304.27	24.31	-35.6	-37.0	18.0	0.00e+00	0	58	0	785383424	43	4072
2026-01-22 03:28:28.07	303.98	24.29	-35.6	-37.0	18.0	0.00e+00	0	58	0	790626304	43	4060
2026-01-22 03:28:29.08	303.69	24.28	-35.8	-37.1	17.8	0.00e+00	0	57	0	796917760	43	4138
2026-01-22 03:28:30.10	303.40	24.27	-35.7	-37.1	17.9	0.00e+00	0	57	0	802160640	43	4109
2026-01-22 03:28:31.11	303.11	24.25	-35.6	-37.0	18.0	0.00e+00	0	57	0	808452096	43	4066
2026-01-22 03:28:32.12	302.82	24.24	-35.7	-37.0	17.9	0.00e+00	0	57	0	813694976	43	4096
2026-01-22 03:28:33.13	302.53	24.22	-35.7	-37.1	17.9	0.00e+00	0	57	0	818937856	43	4108
2026-01-22 03:28:34.14	302.24	24.21	-35.8	-37.2	17.8	0.00e+00	0	57	0	825229312	43	4153
2026-01-22 03:28:35.15	301.96	24.19	-35.8	-37.2	17.8	0.00e+00	0	57	0	830472192	43	4177
2026-01-22 03:28:36.16	301.67	24.17	-35.8	-37.2	17.8	0.00e+00	0	58	0	836763648	43	4151
2026-01-22 03:28:37.17	301.38	24.15	-35.9	-37.2	17.7	0.00e+00	0	57	0	842006528	43	4181
2026-01-22 03:28:38.18	301.10	24.13	-35.9	-37.3	17.7	0.00e+00	0	58	0	848297984	43	4200
2026-01-22 03:28:39.19	300.81	24.11	-35.8	-37.3	17.7	0.00e+00	0	58	0	853540864	43	4196
2026-01-22 03:28:40.20	300.52	24.09	-35.9	-37.2	17.7	0.00e+00	0	58	0	858783744	43	4192
2026-01-22 03:28:41.20	300.24	24.07	-35.9	-37.3	17.7	0.00e+00	0	58	0	865075200	43	4203
2026-01-22 03:28:42.21	299.96	24.05	-35.8	-37.2	17.8	0.00e+00	0	58	0	870318080	43	4158
2026-01-22 03:28:43.22	299.67	24.02	-35.8	-37.1	17.8	0.00e+00	0	57	0	876609536	43	4141
2026-01-22 03:28:44.23	299.39	24.00	-35.7	-37.0	17.9	0.00e+00	0	58	0	881852416	43	4086
2026-01-22 03:28:45.24	299.10	23.98	-35.7	-37.0	17.9	0.00e+00	0	58	0	887095296	43	4085
2026-01-22 03:28:46.25	298.82	23.95	-35.7	-37.1	17.9	0.00e+00	0	58	0	893386752	43	4131
2026-01-22 03:28:47.26	298.54	23.92	-35.8	-37.2	17.8	0.00e+00	0	58	0	898629632	43	4168
2026-01-22 03:28:48.27	298.25	23.90	-35.8	-37.2	17.8	0.00e+00	0	58	0	904921088	43	4178
2026-01-22 03:28:49.28	297.97	23.87	-35.7	-37.1	17.9	0.00e+00	0	58	0	910163968	43	4130
2026-01-22 03:28:50.28	297.69	23.84	-35.7	-37.1	17.8	0.00e+00	0	58	0	915406848	43	4127
2026-01-22 03:28:51.29	297.41	23.81	-35.7	-37.1	17.9	0.00e+00	0	58	0	921698304	43	4116
2026-01-22 03:28:52.30	297.13	23.78	-35.8	-37.2	17.8	0.00e+00	0	58	0	926941184	43	4157
2026-01-22 03:28:53.31	296.85	23.75	-35.8	-37.2	17.8	0.00e+00	0	57	0	933232640	43	4171
2026-01-22 03:28:54.32	296.57	23.72	-35.9	-37.3	17.6	0.00e+00	0	58	0	938475520	43	4239
2026-01-22 03:28:55.33	296.29	23.69	-35.9	-37.3	17.7	0.00e+00	0	58	0	944766976	43	4198
2026-01-22 03:28:56.34	296.02	23.66	-35.8	-37.1	17.8	0.00e+00	0	58	0	950009856	43	4145
2026-01-22 03:28:57.35	295.74	23.62	-35.8	-37.1	17.9	0.00e+00	0	57	0	956301312	43	4137
2026-01-22 03:28:58.36	295.46	23.59	-35.8	-37.1	17.8	0.00e+00	0	58	0	961544192	43	4135
2026-01-22 03:28:59.37	295.18	23.55	-35.8	-37.2	17.8	0.00e+00	0	58	0	966787072	43	4156
2026-01-22 03:29:00.38	294.91	23.52	-35.8	-37.2	17.8	0.00e+00	0	58	0	973078528	43	4167
2026-01-22 03:29:01.39	294.63	23.48	-35.8	-37.2	17.7	0.00e+00	0	58	0	978321408	43	4176
2026-01-22 03:29:02.40	294.36	23.45	-35.9	-37.3	17.7	0.00e+00	0	58	0	984612864	43	4226
2026-01-22 03:29:03.41	294.08	23.41	-35.9	-37.3	17.6	0.00e+00	0	58	0	989855744	43	4239
2026-01-22 03:29:04.42	293.81	23.37	-35.9	-37.2	17.7	0.00e+00	0	58	0	995098624	43	4193
2026-01-22 03:29:05.43	293.54	23.33	-35.9	-37.3	17.6	0.00e+00	0	58	0	1001390080	43	4225
2026-01-22 03:29:06.44	293.27	23.29	-35.9	-37.3	17.7	0.00e+00	0	57	0	1006632960	43	4199
2026-01-22 03:29:07.45	293.00	23.25	-35.9	-37.3	17.7	0.00e+00	0	57	0	1011875840	43	4220
2026-01-22 03:29:08.46	292.72	23.21	-36.0	-37.4	17.5	0.00e+00	0	58	0	1018167296	43	4281
2026-01-22 03:29:09.47	292.45	23.17	-35.9	-37.3	17.7	0.00e+00	0	58	0	1023410176	43	4227
2026-01-22 03:29:10.48	292.19	23.13	-35.9	-37.3	17.7	0.00e+00	0	58	0	1029701632	43	4205
2026-01-22 03:29:11.49	291.92	23.09	-35.8	-37.2	17.7	0.00e+00	0	58	0	1034944512	43	4179
2026-01-22 03:29:12.50	291.65	23.05	-35.7	-37.1	17.9	0.00e+00	0	58	0	1041235968	43	4124
2026-01-22 03:29:13.51	291.38	23.00	-35.8	-37.1	17.8	0.00e+00	0	58	0	1046478848	43	4139
2026-01-22 03:29:14.52	291.12	22.96	-35.8	-37.1	17.8	0.00e+00	0	58	0	1052770304	43	4139
2026-01-22 03:29:15.53	290.85	22.91	-35.9	-37.3	17.7	0.00e+00	0	57	0	1058013184	43	4217
2026-01-22 03:29:16.54	290.59	22.87	-35.9	-37.3	17.6	0.00e+00	0	57	0	1063256064	43	4241
2026-01-22 03:29:17.55	290.32	22.82	-35.9	-37.3	17.6	0.00e+00	0	58	0	1069547520	43	4231
2026-01-22 03:29:18.56	290.06	22.78	-35.9	-37.3	17.6	0.00e+00	0	58	0	1074790400	43	4228
2026-01-22 03:29:19.57	289.80	22.73	-35.9	-37.3	17.7	0.00e+00	0	58	0	1081081856	43	4218
2026-01-22 03:29:20.58	289.53	22.68	-36.0	-37.4	17.6	0.00e+00	0	57	0	1086324736	43	4244
2026-01-22 03:29:21.59	289.27	22.63	-36.0	-37.5	17.5	0.00e+00	0	58	0	1091567616	43	4292
2026-01-22 03:29:22.60	289.01	22.58	-36.1	-37.5	17.5	0.00e+00	0	58	0	1097859072	43	4300
2026-01-22 03:29:23.60	288.76	22.54	-35.9	-37.3	17.6	0.00e+00	0	58	0	1103101952	43	4232
2026-01-22 03:29:24.61	288.50	22.49	-35.9	-37.3	17.6	0.00e+00	0	57	0	1109393408	43	4241
2026-01-22 03:29:25.62	288.24	22.44	-35.9	-37.3	17.6	0.00e+00	0	58	0	1114636288	43	4227
2026-01-22 03:29:26.63	287.99	22.39	-35.9	-37.3	17.6	0.00e+00	0	58	0	1119879168	43	4221
2026-01-22 03:29:27.65	287.73	22.33	-35.9	-37.3	17.6	0.00e+00	0	58	0	1126170624	43	4212
2026-01-22 03:29:28.65	287.47	22.28	-36.0	-37.4	17.6	0.00e+00	0	58	0	1131413504	43	4251
2026-01-22 03:29:29.66	287.22	22.23	-36.0	-37.4	17.5	0.00e+00	0	57	0	1137704960	43	4279
2026-01-22 03:29:30.67	286.97	22.18	-36.0	-37.4	17.5	0.00e+00	0	58	0	1142947840	43	4275
2026-01-22 03:29:31.68	286.71	22.12	-36.0	-37.4	17.5	0.00e+00	0	57	0	1149239296	43	4282
2026-01-22 03:29:32.69	286.46	22.07	-36.0	-37.4	17.5	0.00e+00	0	58	0	1154482176	43	4287
2026-01-22 03:29:33.70	286.21	22.02	-36.0	-37.4	17.5	0.00e+00	0	58	0	1159725056	43	4272
2026-01-22 03:29:34.71	285.96	21.96	-36.0	-37.4	17.5	0.00e+00	0	58	0	1166016512	43	4282
2026-01-22 03:29:35.72	285.71	21.91	-36.1	-37.5	17.4	0.00e+00	0	58	0	1171259392	43	4326
2026-01-22 03:29:36.73	285.47	21.85	-36.2	-37.6	17.3	0.00e+00	0	58	0	1177550848	43	4370
2026-01-22 03:29:37.74	285.22	21.80	-36.3	-37.7	17.2	0.00e+00	0	58	0	1182793728	43	4427
2026-01-22 03:29:38.75	284.97	21.74	-36.2	-37.7	17.2	0.00e+00	0	58	0	1188036608	43	4417
2026-01-22 03:29:39.76	284.73	21.68	-36.1	-37.6	17.4	0.00e+00	0	58	0	1194328064	43	4359
2026-01-22 03:29:40.77	284.48	21.62	-36.1	-37.5	17.4	0.00e+00	0	58	0	1199570944	43	4334
2026-01-22 03:29:41.78	284.24	21.57	-36.1	-37.5	17.4	0.00e+00	0	58	0	1205862400	43	4326
2026-01-22 03:29:42.79	284.00	21.51	-36.2	-37.6	17.3	0.00e+00	0	58	0	1211105280	43	4367
2026-01-22 03:29:43.80	283.76	21.45	-36.2	-37.7	17.2	0.00e+00	0	58	0	1216348160	43	4417
2026-01-22 03:29:44.81	283.51	21.39	-36.3	-37.7	17.2	0.00e+00	0	58	0	1222639616	43	4423
2026-01-22 03:29:45.82	283.27	21.33	-36.2	-37.7	17.2	0.00e+00	0	58	0	1227882496	43	4412
2026-01-22 03:29:46.83	283.04	21.27	-36.3	-37.7	17.2	0.00e+00	0	58	0	1234173952	43	4426
2026-01-22 03:29:47.84	282.80	21.21	-36.3	-37.7	17.2	0.00e+00	0	58	0	1239416832	43	4435
2026-01-22 03:29:48.85	282.56	21.15	-36.1	-37.6	17.3	0.00e+00	0	58	0	1245708288	43	4348
2026-01-22 03:29:49.85	282.33	21.09	-36.0	-37.4	17.5	0.00e+00	0	58	0	1250951168	43	4276
2026-01-22 03:29:50.86	282.09	21.03	-36.1	-37.5	17.4	0.00e+00	0	58	0	1257242624	43	4307
2026-01-22 03:29:51.87	281.86	20.97	-36.1	-37.6	17.3	0.00e+00	0	58	0	1262485504	43	4350
2026-01-22 03:29:52.88	281.62	20.91	-36.1	-37.5	17.4	0.00e+00	0	57	0	1267728384	43	4340
2026-01-22 03:29:53.89	281.39	20.84	-36.2	-37.6	17.3	0.00e+00	0	58	0	1274019840	43	4374
2026-01-22 03:29:54.90	281.16	20.78	-36.3	-37.7	17.1	0.00e+00	0	57	0	1279262720	43	4440
2026-01-22 03:29:55.91	280.93	20.72	-36.4	-37.9	17.0	0.00e+00	0	58	0	1285554176	43	4502
2026-01-22 03:29:56.92	280.70	20.66	-36.3	-37.8	17.1	0.00e+00	0	58	0	1290797056	43	4467
2026-01-22 03:29:57.93	280.47	20.59	-36.2	-37.7	17.2	0.00e+00	0	58	0	1296039936	43	4404
2026-01-22 03:29:58.94	280.24	20.53	-36.2	-37.7	17.3	0.00e+00	0	58	0	1302331392	43	4399
2026-01-22 03:29:59.95	280.02	20.46	-36.3	-37.7	17.2	0.00e+00	0	58	0	1307574272	43	4433
2026-01-22 03:30:00.96	279.79	20.40	-36.4	-37.9	17.0	0.00e+00	0	58	0	1313865728	43	4501
2026-01-22 03:30:01.97	279.57	20.33	-36.5	-38.0	16.9	0.00e+00	0	58	0	1319108608	43	4565
2026-01-22 03:30:02.98	279.34	20.27	-36.6	-38.2	16.7	0.00e+00	0	58	0	1324351488	43	4668
2026-01-22 03:30:03.99	279.12	20.20	-36.7	-38.3	16.6	0.00e+00	0	58	0	1330642944	43	4709
2026-01-22 03:30:05.00	278.90	20.14	-36.6	-38.2	16.7	0.00e+00	0	58	0	1335885824	43	4655
2026-01-22 03:30:06.01	278.68	20.07	-36.6	-38.1	16.7	0.00e+00	0	58	0	1342177280	43	4629
2026-01-22 03:30:07.01	278.46	20.01	-36.5	-38.1	16.8	0.00e+00	0	58	0	1347420160	43	4600
2026-01-22 03:30:08.02	278.24	19.94	-36.6	-38.1	16.7	0.00e+00	0	58	0	1353711616	43	4642
2026-01-22 03:30:09.03	278.02	19.87	-36.6	-38.2	16.7	0.00e+00	0	58	0	1358954496	43	4662
2026-01-22 03:30:10.04	277.81	19.81	-36.6	-38.1	16.8	0.00e+00	0	58	0	1364197376	43	4605
2026-01-22 03:30:11.05	277.59	19.74	-36.5	-38.0	16.8	0.00e+00	0	58	0	1370488832	43	4596
2026-01-22 03:30:12.06	277.37	19.67	-36.6	-38.1	16.7	0.00e+00	0	58	0	1375731712	43	4644
2026-01-22 03:30:13.07	277.16	19.60	-36.6	-38.1	16.7	0.00e+00	0	58	0	1382023168	43	4646
2026-01-22 03:30:14.08	276.95	19.54	-36.6	-38.1	16.7	0.00e+00	0	58	0	1387266048	43	4641
2026-01-22 03:30:15.09	276.73	19.47	-36.6	-38.2	16.7	0.00e+00	0	57	0	1392508928	43	4668
2026-01-22 03:30:16.10	276.52	19.40	-36.9	-38.5	16.6	0.00e+00	0	58	0	1398800384	44	4558
2026-01-22 03:30:17.11	276.31	19.33	-37.0	-38.5	16.5	0.00e+00	0	58	0	1404043264	44	4595
2026-01-22 03:30:18.12	276.10	19.26	-37.0	-38.6	16.5	0.00e+00	0	58	0	1410334720	44	4619
2026-01-22 03:30:19.13	275.89	19.19	-37.0	-38.6	16.4	0.00e+00	0	58	0	1415577600	44	4620
2026-01-22 03:30:20.14	275.69	19.12	-37.1	-38.7	16.3	0.00e+00	0	58	0	1420820480	44	4694
2026-01-22 03:30:21.15	275.48	19.05	-37.2	-38.8	16.2	0.00e+00	0	58	0	1427111936	45	4485
2026-01-22 03:30:22.16	275.27	18.98	-37.2	-38.9	16.2	0.00e+00	0	58	0	1432354816	45	4502
2026-01-22 03:30:23.17	275.07	18.91	-37.2	-38.9	16.1	0.00e+00	0	58	0	1438646272	45	4506
2026-01-22 03:30:24.18	274.87	18.84	-37.3	-38.9	16.1	0.00e+00	0	58	0	1443889152	45	4543
2026-01-22 03:30:25.19	274.66	18.77	-37.3	-38.9	16.1	0.00e+00	0	58	0	1450180608	45	4520
2026-01-22 03:30:26.20	274.46	18.70	-37.3	-38.9	16.1	0.00e+00	0	58	0	1455423488	45	4542
2026-01-22 03:30:27.21	274.26	18.63	-37.3	-38.9	16.1	0.00e+00	0	58	0	1461714944	45	4535
2026-01-22 03:30:28.22	274.06	18.56	-37.3	-38.9	16.1	0.00e+00	0	58	0	1466957824	45	4534
2026-01-22 03:30:29.23	273.86	18.49	-37.3	-38.9	16.1	0.00e+00	0	58	0	1472200704	45	4542
2026-01-22 03:30:30.24	273.66	18.42	-37.3	-38.9	16.1	0.00e+00	0	58	0	1478492160	45	4527
2026-01-22 03:30:31.25	273.47	18.35	-37.3	-38.9	16.1	0.00e+00	0	58	0	1483735040	45	4521
2026-01-22 03:30:32.26	273.27	18.28	-37.3	-38.9	16.1	0.00e+00	0	58	0	1490026496	45	4510
2026-01-22 03:30:33.27	273.07	18.21	-37.3	-38.9	16.1	0.00e+00	0	58	0	1495269376	45	4524
2026-01-22 03:30:34.28	272.88	18.14	-37.2	-38.8	16.2	0.00e+00	0	58	0	1500512256	45	4458
2026-01-22 03:30:35.29	272.69	18.06	-37.2	-38.8	16.2	0.00e+00	0	58	0	1506803712	45	4476
2026-01-22 03:30:36.30	272.49	17.99	-37.2	-38.8	16.1	0.00e+00	0	58	0	1512046592	45	4488
2026-01-22 03:30:37.31	272.30	17.92	-37.2	-38.8	16.2	0.00e+00	0	58	0	1518338048	45	4456
2026-01-22 03:30:38.32	272.11	17.85	-37.1	-38.7	16.2	0.00e+00	0	58	0	1523580928	45	4435
2026-01-22 03:30:39.33	271.92	17.78	-37.0	-38.6	16.4	0.00e+00	0	58	0	1528823808	45	4373
2026-01-22 03:30:40.34	271.73	17.70	-37.0	-38.6	16.3	0.00e+00	0	58	0	1535115264	45	4363
2026-01-22 03:30:41.35	271.54	17.63	-37.0	-38.6	16.3	0.00e+00	0	58	0	1540358144	45	4378
2026-01-22 03:30:42.36	271.36	17.56	-37.1	-38.7	16.3	0.00e+00	0	58	0	1546649600	45	4405
2026-01-22 03:30:43.37	271.17	17.49	-37.1	-38.8	16.2	0.00e+00	0	58	0	1551892480	45	4442
2026-01-22 03:30:44.38	270.98	17.41	-37.2	-38.9	16.1	0.00e+00	0	58	0	1558183936	45	4510
2026-01-22 03:30:45.39	270.80	17.34	-37.3	-38.9	16.1	0.00e+00	0	58	0	1563426816	45	4520
2026-01-22 03:30:46.39	270.62	17.27	-37.3	-39.0	15.9	0.00e+00	0	58	0	1568669696	45	4588
2026-01-22 03:30:47.40	270.44	17.20	-37.3	-38.9	16.1	0.00e+00	0	58	0	1574961152	45	4508
2026-01-22 03:30:48.41	270.25	17.12	-37.3	-39.0	16.0	0.00e+00	0	58	0	1580204032	45	4550
2026-01-22 03:30:49.42	270.07	17.05	-37.2	-38.9	16.1	0.00e+00	0	58	0	1586495488	45	4494
2026-01-22 03:30:50.43	269.89	16.98	-37.2	-38.8	16.2	0.00e+00	0	58	0	1591738368	45	4452
2026-01-22 03:30:51.44	269.71	16.90	-37.2	-38.9	16.1	0.00e+00	0	58	0	1596981248	45	4496
2026-01-22 03:30:52.45	269.54	16.83	-37.3	-39.0	16.0	0.00e+00	0	58	0	1603272704	45	4548
2026-01-22 03:30:53.46	269.36	16.76	-37.2	-38.9	16.1	0.00e+00	0	58	0	1608515584	45	4506
2026-01-22 03:30:54.47	269.18	16.68	-37.2	-38.8	16.1	0.00e+00	0	58	0	1614807040	45	4466
2026-01-22 03:30:55.48	269.01	16.61	-37.2	-38.8	16.1	0.00e+00	0	58	0	1620049920	45	4489
2026-01-22 03:30:56.49	268.83	16.54	-37.2	-38.8	16.1	0.00e+00	0	58	0	1625292800	45	4479
2026-01-22 03:30:57.50	268.66	16.46	-37.2	-38.9	16.0	0.00e+00	0	58	0	1631584256	45	4504
2026-01-22 03:30:58.51	268.48	16.39	-37.2	-38.9	16.0	0.00e+00	0	58	0	1636827136	45	4513
2026-01-22 03:30:59.52	268.31	16.32	-37.3	-39.0	15.9	0.00e+00	0	58	0	1643118592	45	4576
2026-01-22 03:31:00.53	268.14	16.24	-37.4	-39.0	15.8	0.00e+00	0	58	0	1648361472	45	4595
2026-01-22 03:31:01.54	267.97	16.17	-37.3	-39.0	15.9	0.00e+00	0	58	0	1654652928	45	4549
2026-01-22 03:31:02.55	267.80	16.09	-37.4	-39.1	15.8	0.00e+00	0	58	0	1659895808	45	4624
2026-01-22 03:31:03.56	267.63	16.02	-37.4	-39.2	15.7	0.00e+00	0	58	0	1666187264	45	4657
2026-01-22 03:31:04.57	267.46	15.95	-37.5	-39.2	15.7	0.00e+00	0	58	0	1671430144	45	4663
2026-01-22 03:31:05.58	267.30	15.87	-37.6	-39.3	15.6	0.00e+00	0	58	0	1676673024	45	4721
2026-01-22 03:31:06.59	267.13	15.80	-37.6	-39.4	15.5	0.00e+00	0	58	0	1682964480	45	4775
2026-01-22 03:31:07.60	266.97	15.72	-37.6	-39.4	15.5	0.00e+00	0	58	0	1688207360	45	4766
2026-01-22 03:31:08.62	266.80	15.65	-37.7	-39.5	15.4	0.00e+00	0	58	0	1694498816	45	4821
2026-01-22 03:31:09.63	266.64	15.58	-37.7	-39.5	15.4	0.00e+00	0	58	0	1699741696	45	4816
2026-01-22 03:31:10.64	266.47	15.50	-37.7	-39.5	15.4	0.00e+00	0	58	0	1704984576	45	4836
2026-01-22 03:31:11.65	266.31	15.43	-37.8	-39.6	15.3	0.00e+00	0	58	0	1711276032	46	4605
2026-01-22 03:31:12.65	266.15	15.36	-37.8	-39.5	15.3	0.00e+00	0	58	0	1716518912	46	4593
2026-01-22 03:31:13.66	265.99	15.28	-37.7	-39.5	15.4	0.00e+00	0	58	0	1722810368	46	4570
2026-01-22 03:31:14.67	265.83	15.21	-37.8	-39.5	15.3	0.00e+00	0	58	0	1728053248	46	4596
2026-01-22 03:31:15.69	265.67	15.13	-37.8	-39.6	15.3	0.00e+00	0	58	0	1733296128	46	4608
2026-01-22 03:31:16.69	265.51	15.06	-37.8	-39.5	15.3	0.00e+00	0	58	0	1739587584	46	4597
2026-01-22 03:31:17.70	265.36	14.99	-37.9	-39.7	15.2	0.00e+00	0	58	0	1744830464	46	4661
2026-01-22 03:31:18.71	265.20	14.91	-37.8	-39.6	15.2	0.00e+00	0	58	0	1751121920	46	4624
2026-01-22 03:31:19.72	265.04	14.84	-37.8	-39.5	15.3	0.00e+00	0	58	0	1756364800	46	4596
2026-01-22 03:31:20.73	264.89	14.76	-37.7	-39.4	15.4	0.00e+00	0	58	0	1762656256	46	4524
2026-01-22 03:31:21.74	264.73	14.69	-37.7	-39.5	15.4	0.00e+00	0	58	0	1767899136	46	4550
2026-01-22 03:31:22.75	264.58	14.62	-37.8	-39.6	15.2	0.00e+00	0	58	0	1773142016	46	4630
2026-01-22 03:31:23.76	264.43	14.54	-37.8	-39.5	15.3	0.00e+00	0	58	0	1779433472	46	4591
2026-01-22 03:31:24.77	264.28	14.47	-37.7	-39.5	15.4	1.10e-06	0	58	0	1784676352	46	4547
2026-01-22 03:31:25.78	264.12	14.39	-37.8	-39.6	15.3	0.00e+00	0	58	0	1790967808	46	4600
2026-01-22 03:31:26.79	263.97	14.32	-37.8	-39.6	15.2	0.00e+00	0	58	0	1796210688	46	4634
2026-01-22 03:31:27.80	263.82	14.25	-37.8	-39.6	15.2	0.00e+00	0	58	0	1801453568	46	4642
2026-01-22 03:31:28.80	263.68	14.17	-37.9	-39.7	15.1	0.00e+00	0	58	0	1807745024	46	4703
2026-01-22 03:31:29.81	263.53	14.10	-37.9	-39.7	15.1	0.00e+00	0	58	0	1812987904	46	4679
2026-01-22 03:31:30.82	263.38	14.03	-37.9	-39.8	15.0	0.00e+00	0	58	0	1819279360	46	4727
2026-01-22 03:31:31.84	263.23	13.95	-38.0	-39.9	14.9	0.00e+00	0	58	0	1824522240	46	4788
2026-01-22 03:31:32.85	263.09	13.88	-38.0	-39.9	14.9	0.00e+00	0	58	0	1829765120	46	4795
2026-01-22 03:31:33.86	262.94	13.80	-37.9	-39.8	15.0	0.00e+00	0	58	0	1836056576	46	4718
2026-01-22 03:31:34.87	262.80	13.73	-37.9	-39.8	15.0	0.00e+00	0	58	0	1841299456	46	4711
2026-01-22 03:31:35.88	262.65	13.66	-38.0	-39.9	14.9	0.00e+00	0	58	0	1847590912	46	4777
2026-01-22 03:31:36.89	262.51	13.58	-37.9	-39.8	15.0	0.00e+00	0	58	0	1852833792	46	4718
2026-01-22 03:31:37.90	262.37	13.51	-38.0	-39.9	14.9	0.00e+00	0	58	0	1859125248	46	4779
2026-01-22 03:31:38.91	262.23	13.44	-38.0	-39.8	15.0	0.00e+00	0	58	0	1864368128	46	4738
2026-01-22 03:31:39.92	262.09	13.36	-38.0	-39.9	14.9	0.00e+00	0	58	0	1870659584	46	4768
2026-01-22 03:31:40.93	261.95	13.29	-38.0	-39.9	14.9	0.00e+00	0	58	0	1875902464	46	4779
2026-01-22 03:31:41.94	261.81	13.22	-38.1	-40.0	14.8	0.00e+00	0	58	0	1881145344	46	4819
2026-01-22 03:31:42.95	261.67	13.14	-38.1	-40.0	14.7	0.00e+00	0	58	0	1887436800	46	4854
2026-01-22 03:31:43.96	261.53	13.07	-38.2	-40.1	14.7	0.00e+00	0	58	0	1892679680	46	4896
2026-01-22 03:31:44.97	261.39	13.00	-38.0	-39.9	14.8	1.10e-06	0	58	0	1898971136	46	4796
2026-01-22 03:31:45.98	261.25	12.93	-38.2	-40.0	14.7	0.00e+00	0	58	0	1904214016	46	4870
2026-01-22 03:31:46.99	261.12	12.85	-38.2	-40.1	14.5	1.10e-06	0	58	0	1909456896	47	4649
2026-01-22 03:31:48.00	260.98	12.78	-38.3	-40.2	14.5	1.10e-06	0	58	0	1915748352	47	4677
2026-01-22 03:31:49.01	260.85	12.71	-38.3	-40.2	14.5	0.00e+00	0	58	0	1920991232	47	4688
2026-01-22 03:31:50.02	260.71	12.63	-38.3	-40.3	14.4	2.20e-06	0	58	0	1927282688	47	4731
2026-01-22 03:31:51.03	260.58	12.56	-38.4	-40.4	14.4	2.20e-06	0	58	0	1932525568	47	4768
2026-01-22 03:31:52.04	260.45	12.49	-38.4	-40.3	14.4	0.00e+00	0	58	0	1937768448	47	4759
2026-01-22 03:31:53.05	260.32	12.42	-38.4	-40.4	14.3	1.10e-06	0	58	0	1944059904	47	4795
2026-01-22 03:31:54.06	260.19	12.34	-38.4	-40.4	14.3	1.10e-06	0	58	0	1949302784	47	4798
2026-01-22 03:31:55.07	260.05	12.27	-38.4	-40.4	14.3	0.00e+00	0	58	0	1955594240	47	4768
2026-01-22 03:31:56.08	259.92	12.20	-38.4	-40.4	14.3	0.00e+00	0	58	0	1960837120	47	4765
2026-01-22 03:31:57.09	259.80	12.13	-38.3	-40.3	14.4	0.00e+00	0	58	0	1967128576	47	4736
2026-01-22 03:31:58.10	259.67	12.05	-38.3	-40.3	14.4	1.10e-06	0	58	0	1972371456	47	4724
2026-01-22 03:31:59.11	259.54	11.98	-38.4	-40.4	14.3	1.10e-06	0	58	0	1978662912	47	4777
2026-01-22 03:32:00.12	259.41	11.91	-38.4	-40.4	14.2	3.40e-06	0	58	0	1983905792	47	4811
2026-01-22 03:32:01.13	259.28	11.84	-38.4	-40.4	14.3	2.20e-06	0	58	0	1989148672	47	4781
2026-01-22 03:32:02.14	259.16	11.77	-38.5	-40.5	14.2	8.00e-06	0	58	0	1995440128	47	4837
2026-01-22 03:32:03.15	259.03	11.69	-38.5	-40.5	14.1	3.40e-06	0	58	0	2000683008	47	4858
2026-01-22 03:32:04.16	258.91	11.62	-38.5	-40.6	14.1	2.20e-06	0	58	0	2006974464	47	4890
2026-01-22 03:32:05.17	258.78	11.55	-38.5	-40.6	14.1	4.50e-06	0	58	0	2012217344	47	4882
2026-01-22 03:32:06.18	258.66	11.48	-38.6	-40.6	14.0	6.80e-06	0	58	0	2017460224	47	4918
2026-01-22 03:32:07.19	258.54	11.41	-38.6	-40.6	14.0	1.10e-06	0	58	0	2023751680	47	4926
2026-01-22 03:32:08.20	258.41	11.34	-38.5	-40.6	14.1	1.10e-06	0	58	0	2028994560	47	4879
2026-01-22 03:32:09.20	258.29	11.27	-38.6	-40.7	14.0	4.50e-06	0	58	0	2035286016	47	4936
2026-01-22 03:32:10.21	258.17	11.19	-38.6	-40.7	13.9	6.80e-06	0	58	0	2040528896	47	4951
2026-01-22 03:32:11.23	258.05	11.12	-38.6	-40.7	13.9	6.80e-06	0	58	0	2045771776	47	4959
2026-01-22 03:32:12.24	257.93	11.05	-38.6	-40.6	14.0	3.40e-06	0	58	0	2052063232	47	4922
2026-01-22 03:32:13.25	257.81	10.98	-38.6	-40.7	13.9	3.40e-06	0	58	0	2057306112	47	4957
2026-01-22 03:32:14.26	257.69	10.91	-38.7	-40.7	13.9	8.00e-06	0	58	0	2063597568	47	4983
2026-01-22 03:32:15.27	257.57	10.84	-38.6	-40.7	13.9	5.70e-06	0	58	0	2068840448	47	4931
2026-01-22 03:32:16.28	257.46	10.77	-38.6	-40.7	13.9	6.80e-06	0	58	0	2075131904	47	4979
2026-01-22 03:32:17.29	257.34	10.70	-38.6	-40.7	13.9	1.37e-05	0	58	0	2080374784	47	4981
2026-01-22 03:32:18.30	257.22	10.63	-38.7	-40.9	13.7	9.10e-06	0	58	0	2085617664	47	5044
2026-01-22 03:32:19.31	257.11	10.56	-38.7	-40.8	13.9	5.70e-06	0	58	0	2091909120	48	4745
2026-01-22 03:32:20.32	256.99	10.49	-38.8	-40.9	13.8	9.10e-06	0	58	0	2097152000	48	4797
2026-01-22 03:32:21.33	256.87	10.42	-38.8	-40.9	13.8	6.80e-06	0	58	0	2103443456	48	4785
2026-01-22 03:32:22.34	256.76	10.35	-38.9	-41.0	13.7	3.40e-06	0	58	0	2108686336	48	4844
2026-01-22 03:32:23.34	256.65	10.28	-38.9	-41.0	13.6	1.25e-05	0	58	0	2113929216	48	4845
2026-01-22 03:32:24.35	256.53	10.21	-38.9	-41.1	13.6	1.25e-05	0	58	0	2120220672	48	4901
2026-01-22 03:32:25.36	256.42	10.14	-39.0	-41.2	13.5	2.05e-05	0	58	0	2125463552	48	4927
2026-01-22 03:32:26.37	256.31	10.07	-39.1	-41.3	13.4	2.51e-05	0	58	0	2131755008	48	5017
2026-01-22 03:32:27.38	256.20	10.00	-39.1	-41.3	13.3	1.48e-05	0	58	0	2136997888	48	5034
2026-01-22 03:32:28.39	256.09	9.93	-39.2	-41.4	13.2	4.57e-05	0	58	0	2142240768	49	4803
2026-01-22 03:32:29.40	255.98	9.86	-39.1	-41.4	13.2	4.92e-05	0	58	0	2148532224	49	4765
2026-01-22 03:32:30.42	255.87	9.79	-39.1	-41.3	13.3	3.08e-05	0	58	0	2153775104	49	4740
2026-01-22 03:32:31.43	255.76	9.72	-39.1	-41.3	13.3	3.43e-05	0	58	0	2160066560	49	4721
2026-01-22 03:32:32.43	255.65	9.65	-39.1	-41.4	13.3	3.54e-05	0	58	0	2165309440	49	4761
2026-01-22 03:32:33.44	255.54	9.58	-39.2	-41.5	13.1	4.23e-05	0	58	0	2171600896	49	4838
2026-01-22 03:32:34.45	255.43	9.51	-39.2	-41.4	13.2	4.34e-05	0	58	0	2176843776	49	4799
2026-01-22 03:32:35.46	255.32	9.44	-39.2	-41.5	13.1	4.92e-05	0	58	0	2183135232	49	4829
2026-01-22 03:32:36.47	255.22	9.37	-39.1	-41.3	13.3	4.46e-05	0	58	0	2188378112	49	4758
2026-01-22 03:32:37.48	255.11	9.30	-39.2	-41.4	13.2	4.57e-05	0	58	0	2193620992	49	4799
2026-01-22 03:32:38.49	255.01	9.23	-39.2	-41.4	13.1	4.00e-05	0	58	0	2199912448	49	4813
2026-01-22 03:32:39.51	254.90	9.17	-39.1	-41.4	13.2	3.77e-05	0	58	0	2205155328	49	4764
2026-01-22 03:32:40.51	254.80	9.10	-39.0	-41.2	13.4	2.63e-05	0	58	0	2211446784	49	4682
2026-01-22 03:32:41.52	254.69	9.03	-39.1	-41.3	13.3	3.31e-05	0	58	0	2216689664	49	4729
2026-01-22 03:32:42.53	254.59	8.96	-39.1	-41.3	13.2	3.77e-05	0	58	0	2221932544	49	4757
2026-01-22 03:32:43.54	254.48	8.89	-39.1	-41.4	13.2	5.49e-05	0	58	0	2228224000	49	4762
2026-01-22 03:32:44.55	254.38	8.82	-39.1	-41.4	13.1	3.31e-05	0	58	0	2233466880	49	4787
2026-01-22 03:32:45.56	254.28	8.76	-39.1	-41.4	13.1	4.46e-05	0	58	0	2239758336	49	4783
2026-01-22 03:32:46.58	254.18	8.69	-39.2	-41.5	13.0	6.29e-05	0	58	0	2245001216	49	4846
2026-01-22 03:32:47.58	254.08	8.62	-39.1	-41.4	13.1	5.60e-05	0	58	0	2250244096	49	4790
2026-01-22 03:32:48.59	253.98	8.55	-39.2	-41.5	13.0	4.57e-05	0	58	0	2256535552	49	4818
2026-01-22 03:32:49.60	253.87	8.48	-39.3	-41.6	12.9	6.52e-05	0	58	0	2261778432	49	4915
2026-01-22 03:32:50.61	253.77	8.42	-39.4	-41.8	12.7	1.20e-04	0	58	0	2268069888	49	5005
2026-01-22 03:32:51.62	253.68	8.35	-39.4	-41.8	12.7	1.09e-04	0	58	0	2273312768	49	5008
2026-01-22 03:32:52.63	253.58	8.28	-39.3	-41.7	12.8	8.81e-05	0	58	0	2279604224	49	4963
2026-01-22 03:32:53.64	253.48	8.22	-39.4	-41.8	12.7	1.19e-04	0	58	0	2284847104	49	5008
2026-01-22 03:32:54.65	253.38	8.15	-39.4	-41.9	12.6	1.42e-04	0	58	0	2290089984	49	5053
2026-01-22 03:32:55.66	253.28	8.08	-39.3	-41.7	12.7	1.23e-04	0	58	0	2296381440	49	4981
2026-01-22 03:32:56.67	253.19	8.01	-43.2	-49.4	5.4	4.41e-02	0	58	0	2301624320	57	7610
2026-01-22 03:32:57.68	253.09	7.95	-44.6	-56.2	3.8	8.45e-01	0	58	104	2301624320	59	14767
2026-01-22 03:32:58.69	252.99	7.88	-44.7	-56.5	3.8	8.46e-01	0	58	104	2301624320	60	14478
2026-01-22 03:32:59.70	252.90	7.81	-44.9	-56.7	3.8	8.46e-01	0	58	104	2301624320	60	14830
2026-01-22 03:33:00.71	252.80	7.75	-45.0	-56.8	3.8	8.45e-01	0	58	104	2301624320	60	14946
2026-01-22 03:33:01.72	252.71	7.68	-45.1	-56.8	3.8	8.45e-01	0	58	104	2301624320	60	15050
2026-01-22 03:33:02.73	252.61	7.61	-45.1	-56.9	3.8	8.46e-01	0	58	104	2301624320	60	15206
2026-01-22 03:33:03.74	252.52	7.55	-45.2	-57.0	3.8	8.46e-01	0	58	104	2301624320	60	15242
2026-01-22 03:33:04.75	252.42	7.48	-45.2	-57.0	3.8	8.46e-01	0	58	104	2301624320	60	15251
2026-01-22 03:33:05.76	252.33	7.42	-45.2	-56.9	3.8	8.46e-01	0	58	104	2301624320	60	15209
2026-01-22 03:33:06.77	252.24	7.35	-45.2	-57.0	3.8	8.47e-01	0	58	104	2301624320	60	15227
2026-01-22 03:33:07.78	252.15	7.28	-45.2	-56.9	3.8	8.46e-01	0	58	104	2301624320	60	15223
2026-01-22 03:33:08.80	252.05	7.22	-45.1	-56.9	3.8	8.46e-01	0	58	104	2301624320	60	15111
2026-01-22 03:33:09.81	251.96	7.15	-45.1	-56.8	3.8	8.47e-01	0	58	104	2301624320	60	15045
2026-01-22 03:33:10.82	251.87	7.09	-45.1	-56.8	3.8	8.46e-01	0	58	104	2301624320	60	15026
2026-01-22 03:33:11.83	251.78	7.02	-45.1	-56.8	3.8	8.46e-01	0	58	104	2301624320	60	15013
2026-01-22 03:33:12.84	251.69	6.96	-45.1	-56.9	3.8	8.46e-01	0	58	104	2301624320	60	15059
2026-01-22 03:33:13.85	251.60	6.89	-45.1	-56.8	3.8	8.45e-01	0	58	104	2301624320	60	14947
2026-01-22 03:33:14.86	251.51	6.82	-45.1	-56.8	3.8	8.46e-01	0	58	104	2301624320	60	14938
2026-01-22 03:33:15.87	251.42	6.76	-45.1	-56.8	3.8	8.47e-01	0	58	104	2301624320	60	14969
2026-01-22 03:33:16.88	251.33	6.69	-45.1	-56.8	3.8	8.46e-01	0	58	104	2301624320	60	14998
2026-01-22 03:33:17.89	251.25	6.63	-45.1	-56.8	3.8	8.46e-01	0	58	104	2301624320	60	14954
2026-01-22 03:33:18.90	251.16	6.56	-45.1	-56.8	3.8	8.46e-01	0	58	104	2301624320	60	14974
2026-01-22 03:33:19.91	251.07	6.50	-45.1	-56.8	3.8	8.48e-01	0	58	104	2301624320	60	14909
2026-01-22 03:33:20.92	250.98	6.44	-45.1	-56.8	3.8	8.48e-01	0	58	104	2301624320	60	14944
2026-01-22 03:33:21.93	250.90	6.37	-45.0	-56.8	3.8	8.46e-01	0	58	104	2301624320	60	14924
2026-01-22 03:33:22.94	250.81	6.31	-45.0	-56.8	3.8	8.46e-01	0	58	104	2301624320	60	14910
2026-01-22 03:33:23.95	250.73	6.24	-45.0	-56.8	3.8	8.46e-01	0	58	104	2301624320	60	14920
2026-01-22 03:33:24.96	250.64	6.18	-45.0	-56.7	3.8	8.46e-01	0	58	104	2301624320	60	14843
2026-01-22 03:33:25.97	250.56	6.11	-45.0	-56.8	3.8	8.46e-01	0	58	104	2301624320	60	14915
2026-01-22 03:33:26.98	250.47	6.05	-45.0	-56.8	3.8	8.46e-01	0	58	104	2301624320	60	14892
2026-01-22 03:33:27.99	250.39	5.99	-45.0	-56.8	3.8	8.46e-01	0	58	104	2301624320	60	14881
2026-01-22 03:33:29.00	250.30	5.92	-45.0	-56.8	3.8	8.45e-01	0	58	104	2301624320	60	14899
2026-01-22 03:33:30.01	250.22	5.86	-45.0	-56.7	3.8	8.46e-01	0	58	104	2301624320	60	14876
2026-01-22 03:33:31.02	250.14	5.80	-45.0	-56.7	3.8	8.46e-01	0	58	104	2301624320	60	14856
2026-01-22 03:33:32.04	250.05	5.73	-45.0	-56.8	3.8	8.46e-01	0	58	104	2301624320	60	14882
