passes_logs/2026/01/22/R2.0S_Moscow/R2.0S_Moscow__20260122_221451_NOAA_21_JPSS-2_rec.log

#Pass ID: 20260122_221451_NOAA 21 (JPSS-2)
#Satellite: NOAA 21 (JPSS-2)
#Configuration: NOAA-21
#almurnet v.1.7.20251203
#Start time: 2026-01-22 22:14:53

#Version: 2.2.20231116
#Station: R2.0S_Moscow
#Location: 37.707566 lon 55.798166 lat
#TLE: 1 54234U 22150A   26022.41365820  .00000211  00000+0  12084-3 0  9990
#TLE: 2 54234  98.7507 323.2240 0000658 234.5287 125.5828 14.19537645165864

#Time	Az	El	Level	Level2	SNR	BER	BlckErr	Temp	State	Recorded	gain1	gain2
2026-01-22 22:14:53.03	24.67	2.11	-42.8	-55.0	3.8	1.49e+00	0	51	0	0	57	14431
2026-01-22 22:14:54.04	24.74	2.16	-42.8	-55.0	3.8	1.49e+00	0	52	104	0	57	14482
2026-01-22 22:14:55.05	24.81	2.22	-42.8	-55.0	3.8	1.49e+00	0	52	104	0	57	14481
2026-01-22 22:14:56.06	24.88	2.28	-42.8	-55.0	3.8	1.49e+00	0	51	104	0	57	14477
2026-01-22 22:14:57.07	24.95	2.33	-42.8	-55.0	3.8	1.49e+00	0	52	104	0	57	14492
2026-01-22 22:14:58.08	25.02	2.39	-42.8	-55.1	3.8	1.49e+00	0	52	104	0	57	14560
2026-01-22 22:14:59.08	25.09	2.44	-42.8	-55.0	3.8	1.49e+00	0	52	104	0	57	14519
2026-01-22 22:15:00.09	25.16	2.50	-42.8	-55.0	3.8	1.49e+00	0	52	104	0	57	14513
2026-01-22 22:15:01.10	25.23	2.56	-42.8	-55.0	3.8	1.49e+00	0	52	104	0	57	14491
2026-01-22 22:15:02.11	25.30	2.61	-42.8	-55.0	3.8	1.49e+00	0	52	104	0	57	14537
2026-01-22 22:15:03.13	25.37	2.67	-42.8	-55.0	3.8	1.49e+00	0	52	104	0	57	14505
2026-01-22 22:15:04.13	25.44	2.73	-42.8	-55.0	3.8	1.49e+00	0	52	104	0	57	14503
2026-01-22 22:15:05.14	25.51	2.79	-42.8	-55.0	3.8	1.49e+00	0	52	104	0	57	14515
2026-01-22 22:15:06.15	25.59	2.84	-42.8	-55.0	3.8	1.49e+00	0	53	104	0	57	14526
2026-01-22 22:15:07.17	25.66	2.90	-42.8	-55.0	3.8	1.49e+00	0	53	104	0	57	14486
2026-01-22 22:15:08.18	25.73	2.96	-42.8	-55.0	3.8	1.49e+00	0	52	104	0	57	14509
2026-01-22 22:15:09.18	25.80	3.01	-42.7	-55.0	3.8	1.49e+00	0	53	104	0	57	14472
2026-01-22 22:15:10.19	25.87	3.07	-42.8	-55.0	3.8	1.49e+00	0	53	104	0	57	14474
2026-01-22 22:15:11.20	25.95	3.13	-42.7	-55.0	3.8	1.49e+00	0	53	104	0	57	14459
2026-01-22 22:15:12.21	26.02	3.19	-42.8	-55.0	3.8	1.49e+00	0	53	104	0	57	14480
2026-01-22 22:15:13.22	26.09	3.24	-42.8	-55.0	3.8	1.49e+00	0	53	104	0	57	14492
2026-01-22 22:15:14.23	26.17	3.30	-42.8	-55.0	3.8	1.49e+00	0	53	104	0	57	14477
2026-01-22 22:15:15.24	26.24	3.36	-42.8	-55.0	3.8	1.49e+00	0	53	104	0	57	14502
2026-01-22 22:15:16.25	26.32	3.42	-42.8	-55.0	3.8	1.49e+00	0	53	104	0	57	14472
2026-01-22 22:15:17.26	26.39	3.48	-42.8	-55.0	3.8	1.49e+00	0	53	104	0	57	14511
2026-01-22 22:15:18.27	26.47	3.53	-42.8	-55.0	3.8	1.49e+00	0	53	104	0	57	14504
2026-01-22 22:15:19.28	26.54	3.59	-42.8	-55.0	3.8	1.49e+00	0	53	104	0	57	14482
2026-01-22 22:15:20.29	26.62	3.65	-42.8	-55.0	3.8	1.49e+00	0	53	104	0	57	14480
2026-01-22 22:15:21.30	26.69	3.71	-42.7	-55.0	3.8	1.49e+00	0	53	104	0	57	14507
2026-01-22 22:15:22.31	26.77	3.77	-42.7	-55.0	3.8	1.49e+00	0	53	104	0	57	14483
2026-01-22 22:15:23.32	26.85	3.82	-42.7	-55.0	3.8	1.49e+00	0	54	104	0	57	14501
2026-01-22 22:15:24.33	26.92	3.88	-42.8	-55.0	3.8	1.49e+00	0	54	104	0	57	14465
2026-01-22 22:15:25.35	27.00	3.94	-42.7	-55.0	3.8	1.49e+00	0	54	104	0	57	14488
2026-01-22 22:15:26.36	27.08	4.00	-42.7	-55.0	3.8	1.49e+00	0	54	104	0	57	14508
2026-01-22 22:15:27.37	27.15	4.06	-42.7	-55.0	3.8	1.49e+00	0	54	104	0	57	14502
2026-01-22 22:15:28.38	27.23	4.12	-42.7	-55.0	3.8	1.49e+00	0	54	104	0	57	14483
2026-01-22 22:15:29.39	27.31	4.18	-42.7	-55.0	3.8	1.49e+00	0	54	104	0	57	14467
2026-01-22 22:15:30.40	27.39	4.24	-42.8	-55.0	3.8	1.49e+00	0	54	104	0	57	14469
2026-01-22 22:15:31.41	27.47	4.30	-42.8	-55.0	3.8	1.49e+00	0	54	104	0	57	14457
2026-01-22 22:15:32.42	27.55	4.36	-42.7	-55.0	3.8	1.49e+00	0	54	104	0	57	14430
2026-01-22 22:15:33.43	27.62	4.42	-42.8	-55.0	3.8	1.49e+00	0	54	104	0	57	14525
2026-01-22 22:15:34.44	27.70	4.47	-42.7	-55.0	3.8	1.49e+00	0	54	104	0	57	14506
2026-01-22 22:15:35.45	27.78	4.53	-42.8	-55.0	3.8	1.49e+00	0	54	104	0	57	14481
2026-01-22 22:15:36.46	27.86	4.59	-42.7	-55.0	3.8	1.49e+00	0	54	104	0	57	14485
2026-01-22 22:15:37.47	27.94	4.65	-42.8	-55.0	3.8	1.49e+00	0	54	104	0	57	14479
2026-01-22 22:15:38.48	28.03	4.71	-42.7	-55.0	3.8	1.49e+00	0	54	104	0	57	14445
2026-01-22 22:15:39.49	28.11	4.77	-42.7	-55.0	3.8	1.49e+00	0	55	104	0	57	14464
2026-01-22 22:15:40.50	28.19	4.83	-42.7	-55.0	3.8	1.49e+00	0	55	104	0	57	14443
2026-01-22 22:15:41.51	28.27	4.89	-42.7	-55.0	3.8	1.49e+00	0	55	104	0	57	14465
2026-01-22 22:15:42.52	28.35	4.95	-42.7	-55.0	3.8	1.49e+00	0	54	104	0	57	14442
2026-01-22 22:15:43.53	28.43	5.01	-42.7	-55.0	3.8	1.49e+00	0	55	104	0	57	14473
2026-01-22 22:15:44.54	28.52	5.07	-42.7	-55.0	3.8	1.49e+00	0	55	104	0	57	14463
2026-01-22 22:15:45.55	28.60	5.13	-42.7	-55.0	3.8	1.49e+00	0	55	104	0	57	14445
2026-01-22 22:15:46.56	28.68	5.20	-42.7	-55.0	3.8	1.49e+00	0	55	104	0	57	14452
2026-01-22 22:15:47.57	28.77	5.26	-42.7	-55.0	3.8	1.49e+00	0	55	104	0	57	14436
2026-01-22 22:15:48.58	28.85	5.32	-42.7	-55.0	3.8	1.49e+00	0	55	104	0	57	14445
2026-01-22 22:15:49.59	28.93	5.38	-42.7	-55.0	3.8	1.49e+00	0	55	104	0	57	14468
2026-01-22 22:15:50.60	29.02	5.44	-42.7	-55.0	3.8	1.49e+00	0	55	104	0	57	14447
2026-01-22 22:15:51.61	29.10	5.50	-42.7	-55.0	3.8	1.49e+00	0	55	104	0	57	14436
2026-01-22 22:15:52.62	29.19	5.56	-42.7	-55.0	3.8	1.49e+00	0	55	104	0	57	14417
2026-01-22 22:15:53.63	29.28	5.62	-42.7	-55.0	3.8	1.49e+00	0	55	104	0	57	14466
2026-01-22 22:15:54.64	29.36	5.68	-42.7	-55.0	3.8	1.49e+00	0	55	104	0	57	14437
2026-01-22 22:15:55.65	29.45	5.74	-42.7	-54.9	3.8	1.49e+00	0	55	104	0	57	14370
2026-01-22 22:15:56.66	29.53	5.81	-42.7	-55.0	3.8	1.49e+00	0	55	104	0	57	14488
2026-01-22 22:15:57.67	29.62	5.87	-42.7	-55.0	3.8	1.49e+00	0	55	104	0	57	14431
2026-01-22 22:15:58.68	29.71	5.93	-42.7	-55.0	3.8	1.49e+00	0	55	104	0	57	14415
2026-01-22 22:15:59.69	29.80	5.99	-42.7	-55.0	3.8	1.49e+00	0	55	104	0	57	14424
2026-01-22 22:16:00.70	29.88	6.05	-42.7	-54.9	3.8	1.49e+00	0	55	104	0	57	14348
2026-01-22 22:16:01.71	29.97	6.11	-42.7	-54.9	3.8	1.49e+00	0	55	104	0	57	14293
2026-01-22 22:16:02.72	30.06	6.18	-42.7	-55.0	3.8	1.49e+00	0	56	104	0	57	14402
2026-01-22 22:16:03.73	30.15	6.24	-42.7	-55.0	3.8	1.49e+00	0	56	104	0	57	14376
2026-01-22 22:16:04.74	30.24	6.30	-42.7	-54.9	3.8	1.49e+00	0	56	104	0	57	14296
2026-01-22 22:16:05.75	30.33	6.36	-42.7	-54.9	3.8	1.49e+00	0	56	104	0	57	14287
2026-01-22 22:16:06.76	30.42	6.43	-42.7	-54.9	3.8	1.49e+00	0	55	104	0	57	14271
2026-01-22 22:16:07.77	30.51	6.49	-42.7	-54.9	3.8	1.49e+00	0	56	104	0	57	14232
2026-01-22 22:16:08.78	30.60	6.55	-42.7	-54.7	3.8	1.49e+00	0	56	104	0	57	13998
2026-01-22 22:16:09.79	30.69	6.61	-42.7	-54.6	3.8	1.49e+00	0	56	104	0	57	13852
2026-01-22 22:16:10.80	30.78	6.68	-42.6	-54.4	3.8	1.49e+00	0	56	104	0	57	13463
2026-01-22 22:16:11.81	30.88	6.74	-42.6	-54.0	3.8	1.49e+00	0	56	104	0	57	12815
2026-01-22 22:16:12.82	30.97	6.80	-42.6	-53.8	3.8	1.49e+00	0	56	104	0	57	12603
2026-01-22 22:16:13.83	31.06	6.87	-42.6	-53.6	3.8	1.49e+00	0	56	104	0	57	12375
2026-01-22 22:16:14.84	31.16	6.93	-42.6	-54.0	3.8	1.49e+00	0	56	104	0	57	12909
2026-01-22 22:16:15.85	31.25	6.99	-42.6	-53.8	3.8	1.49e+00	0	56	104	0	57	12656
2026-01-22 22:16:16.86	31.34	7.05	-42.6	-54.3	3.8	1.49e+00	0	56	104	0	57	13412
2026-01-22 22:16:17.87	31.44	7.12	-42.6	-53.9	3.8	1.49e+00	0	56	104	0	57	12735
2026-01-22 22:16:18.88	31.53	7.18	-42.6	-54.5	3.8	1.49e+00	0	56	104	0	57	13619
2026-01-22 22:16:19.89	31.63	7.25	-42.7	-54.6	3.8	1.49e+00	0	56	104	0	57	13852
2026-01-22 22:16:20.90	31.72	7.31	-42.7	-54.7	3.8	1.49e+00	0	56	104	0	57	14030
2026-01-22 22:16:21.91	31.82	7.37	-42.7	-54.4	3.8	1.49e+00	0	56	104	0	57	13558
2026-01-22 22:16:22.92	31.92	7.44	-42.6	-53.6	3.8	1.49e+00	0	56	104	0	57	12282
2026-01-22 22:16:23.93	32.01	7.50	-42.4	-52.0	4.0	1.48e+00	0	56	104	0	56	10853
2026-01-22 22:16:24.94	32.11	7.57	-42.2	-51.1	4.0	1.44e+00	0	56	104	0	56	9751
2026-01-22 22:16:25.95	32.21	7.63	-41.6	-48.2	5.6	4.98e-01	0	56	0	0	55	7400
2026-01-22 22:16:26.96	32.30	7.69	-41.2	-47.0	6.6	3.02e-01	0	56	0	3145728	54	6816
2026-01-22 22:16:27.97	32.40	7.76	-40.7	-45.5	7.9	1.12e-01	0	57	0	6291456	53	6109
2026-01-22 22:16:28.99	32.50	7.82	-40.4	-44.7	8.8	3.91e-02	0	57	0	9437184	52	5873
2026-01-22 22:16:30.00	32.60	7.89	-40.2	-44.3	9.1	2.29e-02	0	56	0	12582912	52	5644
2026-01-22 22:16:31.01	32.70	7.95	-40.3	-44.5	9.0	2.14e-02	0	56	0	15728640	52	5734
2026-01-22 22:16:32.02	32.80	8.02	-40.4	-44.8	8.7	3.20e-02	0	57	0	18874368	52	5932
2026-01-22 22:16:33.03	32.90	8.08	-40.9	-45.0	9.0	2.02e-02	0	57	0	22020096	52	6130
2026-01-22 22:16:34.04	33.00	8.15	-41.6	-53.3	3.8	1.49e+00	0	57	104	24117248	54	14209
2026-01-22 22:16:35.04	33.10	8.21	-41.9	-47.2	7.1	1.42e-02	0	57	0	25165824	54	7040
2026-01-22 22:16:36.05	33.21	8.28	-41.8	-47.2	7.1	8.25e-02	0	57	0	27262976	54	7026
2026-01-22 22:16:37.07	33.31	8.34	-41.8	-47.8	6.2	1.01e-01	0	57	0	30408704	54	7462
2026-01-22 22:16:38.07	33.41	8.41	-40.7	-44.6	9.4	2.25e-02	0	57	0	34603008	53	5522
2026-01-22 22:16:39.08	33.51	8.47	-40.7	-44.7	9.3	1.73e-02	0	57	0	37748736	53	5580
2026-01-22 22:16:40.09	33.62	8.54	-40.5	-44.2	9.9	9.88e-03	0	57	0	40894464	52	5556
2026-01-22 22:16:41.10	33.72	8.60	-40.6	-44.4	9.7	8.61e-03	0	57	0	44040192	52	5669
2026-01-22 22:16:42.11	33.83	8.67	-40.6	-44.3	9.8	1.01e-02	0	57	0	47185920	52	5632
2026-01-22 22:16:43.12	33.93	8.74	-40.7	-44.4	9.8	9.68e-03	0	57	0	50331648	52	5714
2026-01-22 22:16:44.13	34.04	8.80	-40.6	-44.4	9.8	8.53e-03	0	57	0	53477376	52	5696
2026-01-22 22:16:45.14	34.14	8.87	-40.5	-44.1	10.1	9.36e-03	0	57	0	56623104	52	5506
2026-01-22 22:16:46.15	34.25	8.93	-40.4	-43.8	10.5	3.97e-03	0	57	0	59768832	52	5321
2026-01-22 22:16:47.16	34.35	9.00	-40.5	-44.1	10.2	5.58e-03	0	57	0	62914560	52	5503
2026-01-22 22:16:48.17	34.46	9.07	-40.3	-43.7	10.6	3.12e-03	0	57	0	66060288	52	5238
2026-01-22 22:16:49.18	34.57	9.13	-40.5	-44.1	10.3	5.27e-03	0	57	0	69206016	52	5470
2026-01-22 22:16:50.19	34.68	9.20	-40.4	-43.8	10.6	4.10e-03	0	57	0	72351744	52	5313
2026-01-22 22:16:51.20	34.79	9.27	-40.3	-43.7	10.8	2.58e-03	0	57	0	75497472	52	5229
2026-01-22 22:16:52.21	34.89	9.33	-40.4	-43.7	10.8	2.48e-03	0	57	0	78643200	52	5236
2026-01-22 22:16:53.22	35.00	9.40	-40.5	-43.9	10.7	2.94e-03	0	57	0	81788928	52	5355
2026-01-22 22:16:54.23	35.11	9.47	-40.3	-43.6	11.0	2.11e-03	0	57	0	84934656	52	5169
2026-01-22 22:16:55.23	35.22	9.53	-40.3	-43.6	11.0	1.81e-03	0	57	0	88080384	52	5166
2026-01-22 22:16:56.24	35.33	9.60	-40.5	-43.8	10.8	2.52e-03	0	57	0	91226112	52	5294
2026-01-22 22:16:57.25	35.45	9.67	-40.3	-43.5	11.2	1.55e-03	0	57	0	94371840	52	5144
2026-01-22 22:16:58.26	35.56	9.73	-40.3	-43.4	11.3	1.16e-03	0	57	0	97517568	52	5076
2026-01-22 22:16:59.27	35.67	9.80	-40.3	-43.4	11.3	1.11e-03	0	57	0	100663296	52	5081
2026-01-22 22:17:00.28	35.78	9.87	-40.4	-43.5	11.2	1.42e-03	0	57	0	103809024	52	5143
2026-01-22 22:17:01.29	35.90	9.94	-40.4	-43.6	11.2	1.31e-03	0	57	0	106954752	52	5178
2026-01-22 22:17:02.30	36.01	10.00	-40.3	-43.3	11.4	1.01e-03	0	57	0	110100480	52	5038
2026-01-22 22:17:03.31	36.13	10.07	-40.4	-43.6	11.2	1.14e-03	0	58	0	113246208	52	5168
2026-01-22 22:17:04.32	36.24	10.14	-40.3	-43.3	11.5	7.60e-04	0	58	0	116391936	52	5008
2026-01-22 22:17:05.33	36.36	10.21	-40.3	-43.3	11.5	8.42e-04	0	57	0	119537664	52	5029
2026-01-22 22:17:06.34	36.47	10.27	-40.2	-43.2	11.7	5.95e-04	0	57	0	122683392	52	4969
2026-01-22 22:17:07.35	36.59	10.34	-40.3	-43.3	11.7	6.70e-04	0	58	0	125829120	52	4985
2026-01-22 22:17:08.36	36.71	10.41	-40.2	-43.2	11.7	5.29e-04	0	58	0	128974848	52	4940
2026-01-22 22:17:09.37	36.82	10.48	-40.3	-43.3	11.6	6.68e-04	0	57	0	132120576	52	5003
2026-01-22 22:17:10.38	36.94	10.55	-40.3	-43.3	11.7	4.99e-04	0	58	0	135266304	52	4998
2026-01-22 22:17:11.39	37.06	10.61	-40.3	-43.2	11.7	5.71e-04	0	58	0	138412032	52	4967
2026-01-22 22:17:12.40	37.18	10.68	-40.3	-43.4	11.6	7.34e-04	0	58	0	141557760	52	5042
2026-01-22 22:17:13.41	37.30	10.75	-40.3	-43.2	11.8	5.48e-04	0	58	0	144703488	52	4967
2026-01-22 22:17:14.41	37.42	10.82	-40.3	-43.2	11.8	4.71e-04	0	58	0	147849216	52	4959
2026-01-22 22:17:15.42	37.54	10.89	-40.3	-43.2	11.8	4.73e-04	0	58	0	150994944	52	4957
2026-01-22 22:17:16.43	37.66	10.96	-40.2	-43.1	12.0	4.00e-04	0	58	0	154140672	52	4886
2026-01-22 22:17:17.44	37.78	11.03	-40.2	-43.1	12.0	3.13e-04	0	58	0	157286400	52	4892
2026-01-22 22:17:18.45	37.90	11.09	-40.2	-43.0	12.1	3.17e-04	0	58	0	160432128	52	4845
2026-01-22 22:17:19.47	38.03	11.16	-40.1	-42.9	12.2	2.47e-04	0	57	0	163577856	52	4790
2026-01-22 22:17:20.48	38.15	11.23	-40.1	-42.9	12.2	2.05e-04	0	58	0	166723584	52	4784
2026-01-22 22:17:21.49	38.28	11.30	-40.1	-42.9	12.2	2.03e-04	0	58	0	169869312	52	4807
2026-01-22 22:17:22.50	38.40	11.37	-40.1	-42.8	12.3	1.85e-04	0	58	0	173015040	52	4751
2026-01-22 22:17:23.51	38.53	11.44	-40.1	-42.8	12.3	1.70e-04	0	58	0	176160768	52	4743
2026-01-22 22:17:24.52	38.65	11.51	-40.0	-42.7	12.5	1.10e-04	0	58	0	179306496	52	4685
2026-01-22 22:17:25.53	38.78	11.58	-40.0	-42.8	12.4	1.33e-04	0	58	0	182452224	52	4707
2026-01-22 22:17:26.54	38.91	11.65	-40.1	-42.8	12.4	1.40e-04	0	58	0	185597952	52	4736
2026-01-22 22:17:27.55	39.03	11.72	-40.1	-42.8	12.5	1.23e-04	0	58	0	188743680	52	4710
2026-01-22 22:17:28.56	39.16	11.79	-40.0	-42.7	12.5	1.27e-04	0	58	0	191889408	52	4685
2026-01-22 22:17:29.57	39.29	11.86	-40.0	-42.6	12.6	1.14e-04	0	58	0	195035136	52	4642
2026-01-22 22:17:30.58	39.42	11.93	-40.0	-42.6	12.7	8.23e-05	0	58	0	198180864	52	4629
2026-01-22 22:17:31.59	39.55	12.00	-40.1	-42.7	12.6	1.07e-04	0	58	0	201326592	51	4966
2026-01-22 22:17:32.60	39.68	12.07	-40.1	-42.8	12.6	6.56e-05	0	58	0	204472320	51	5006
2026-01-22 22:17:33.61	39.81	12.14	-40.0	-42.5	12.8	6.56e-05	0	58	0	207618048	51	4870
2026-01-22 22:17:34.62	39.94	12.21	-39.9	-42.5	12.9	4.19e-05	0	58	0	210763776	51	4828
2026-01-22 22:17:35.63	40.08	12.28	-40.0	-42.6	12.8	5.95e-05	0	58	0	213909504	51	4886
2026-01-22 22:17:36.63	40.21	12.35	-39.9	-42.5	12.9	4.80e-05	0	58	0	217055232	51	4836
2026-01-22 22:17:37.64	40.34	12.42	-40.0	-42.5	12.9	5.41e-05	0	58	0	220200960	51	4866
2026-01-22 22:17:38.65	40.47	12.49	-39.9	-42.4	13.0	5.41e-05	0	58	0	223346688	51	4776
2026-01-22 22:17:39.66	40.61	12.56	-39.8	-42.3	13.2	2.89e-05	0	58	0	226492416	51	4712
2026-01-22 22:17:40.67	40.74	12.63	-39.8	-42.3	13.1	2.36e-05	0	58	0	229638144	51	4741
2026-01-22 22:17:41.68	40.88	12.70	-39.8	-42.3	13.1	2.97e-05	0	58	0	232783872	51	4744
2026-01-22 22:17:42.69	41.02	12.77	-39.9	-42.3	13.2	2.51e-05	0	58	0	235929600	51	4736
2026-01-22 22:17:43.70	41.15	12.84	-39.9	-42.3	13.2	2.36e-05	0	58	0	239075328	51	4734
2026-01-22 22:17:44.71	41.29	12.91	-39.9	-42.4	13.1	3.58e-05	0	58	0	242221056	51	4807
2026-01-22 22:17:45.72	41.43	12.98	-40.0	-42.5	13.0	3.12e-05	0	58	0	245366784	51	4842
2026-01-22 22:17:46.73	41.57	13.05	-40.0	-42.5	13.0	4.19e-05	0	58	0	248512512	51	4850
2026-01-22 22:17:47.74	41.71	13.13	-40.0	-42.5	13.0	4.19e-05	0	58	0	251658240	51	4854
2026-01-22 22:17:48.75	41.85	13.20	-40.0	-42.6	12.9	3.12e-05	0	58	0	254803968	51	4885
2026-01-22 22:17:49.76	41.99	13.27	-40.0	-42.5	13.0	5.95e-05	0	58	0	257949696	51	4857
2026-01-22 22:17:50.77	42.13	13.34	-40.0	-42.5	13.0	3.81e-05	0	58	0	261095424	51	4843
2026-01-22 22:17:51.78	42.28	13.41	-40.0	-42.6	12.9	4.27e-05	0	58	0	264241152	51	4877
2026-01-22 22:17:52.79	42.42	13.48	-40.0	-42.5	13.0	3.58e-05	0	59	0	267386880	51	4862
2026-01-22 22:17:53.80	42.56	13.55	-40.0	-42.5	13.0	3.66e-05	0	58	0	270532608	51	4827
2026-01-22 22:17:54.81	42.71	13.62	-39.9	-42.4	13.1	2.74e-05	0	58	0	273678336	51	4798
2026-01-22 22:17:55.82	42.85	13.69	-40.0	-42.5	13.0	3.73e-05	0	58	0	276824064	51	4840
2026-01-22 22:17:56.83	43.00	13.77	-40.0	-42.5	13.0	3.50e-05	0	58	0	279969792	51	4842
2026-01-22 22:17:57.84	43.15	13.84	-40.0	-42.6	13.0	4.04e-05	0	58	0	283115520	51	4874
2026-01-22 22:17:58.85	43.29	13.91	-40.1	-42.6	12.9	3.73e-05	0	58	0	286261248	51	4913
2026-01-22 22:17:59.86	43.44	13.98	-40.1	-42.6	12.9	4.04e-05	0	59	0	289406976	51	4918
2026-01-22 22:18:00.87	43.59	14.05	-40.1	-42.6	12.9	4.27e-05	0	59	0	292552704	51	4912
2026-01-22 22:18:01.88	43.74	14.12	-40.1	-42.6	13.0	4.50e-05	0	58	0	295698432	51	4904
2026-01-22 22:18:02.88	43.89	14.19	-40.1	-42.7	12.9	4.42e-05	0	58	0	298844160	51	4959
2026-01-22 22:18:03.90	44.04	14.27	-40.1	-42.7	12.9	5.56e-05	0	59	0	301989888	51	4935
2026-01-22 22:18:04.90	44.19	14.34	-40.1	-42.6	13.0	4.04e-05	0	59	0	305135616	51	4909
2026-01-22 22:18:05.91	44.34	14.41	-40.0	-42.4	13.1	3.05e-05	0	59	0	308281344	51	4811
2026-01-22 22:18:06.92	44.49	14.48	-39.9	-42.4	13.2	1.98e-05	0	59	0	311427072	51	4778
2026-01-22 22:18:07.93	44.65	14.55	-40.0	-42.4	13.2	2.67e-05	0	59	0	314572800	51	4795
2026-01-22 22:18:08.94	44.80	14.62	-40.0	-42.4	13.2	3.20e-05	0	59	0	317718528	51	4807
2026-01-22 22:18:09.95	44.96	14.70	-39.9	-42.3	13.3	1.98e-05	0	58	0	320864256	51	4750
2026-01-22 22:18:10.96	45.11	14.77	-39.8	-42.2	13.4	1.75e-05	0	59	0	324009984	51	4676
2026-01-22 22:18:11.97	45.27	14.84	-39.8	-42.2	13.4	9.90e-06	0	59	0	327155712	51	4660
2026-01-22 22:18:12.98	45.43	14.91	-39.8	-42.2	13.3	2.74e-05	0	59	0	330301440	51	4699
2026-01-22 22:18:13.99	45.58	14.98	-39.9	-42.3	13.3	1.44e-05	0	59	0	333447168	51	4723
2026-01-22 22:18:15.00	45.74	15.06	-39.9	-42.3	13.3	1.75e-05	0	59	0	336592896	51	4728
2026-01-22 22:18:16.01	45.90	15.13	-39.9	-42.3	13.3	1.37e-05	0	59	0	339738624	51	4753
2026-01-22 22:18:17.02	46.06	15.20	-39.9	-42.3	13.3	2.74e-05	0	59	0	342884352	51	4757
2026-01-22 22:18:18.03	46.22	15.27	-40.0	-42.4	13.2	2.21e-05	0	59	0	346030080	51	4810
2026-01-22 22:18:19.04	46.39	15.34	-40.0	-42.4	13.2	1.98e-05	0	59	0	349175808	51	4801
2026-01-22 22:18:20.04	46.55	15.41	-40.0	-42.4	13.2	2.74e-05	0	59	0	352321536	51	4806
2026-01-22 22:18:21.05	46.71	15.49	-39.9	-42.4	13.2	1.29e-05	0	59	0	355467264	51	4780
2026-01-22 22:18:22.06	46.87	15.56	-39.9	-42.4	13.3	2.05e-05	0	59	0	358612992	51	4769
2026-01-22 22:18:23.07	47.04	15.63	-40.0	-42.5	13.2	3.66e-05	0	59	0	362807296	51	4823
2026-01-22 22:18:24.08	47.20	15.70	-40.0	-42.5	13.2	2.82e-05	0	59	0	365953024	51	4816
2026-01-22 22:18:25.09	47.37	15.77	-40.0	-42.4	13.2	2.28e-05	0	59	0	368050176	51	4791
2026-01-22 22:18:26.10	47.54	15.85	-40.0	-42.4	13.2	1.67e-05	0	59	0	371195904	51	4791
2026-01-22 22:18:27.11	47.71	15.92	-40.0	-42.5	13.2	2.74e-05	0	59	0	374341632	51	4833
2026-01-22 22:18:28.12	47.87	15.99	-40.1	-42.5	13.1	4.19e-05	0	59	0	378535936	51	4870
2026-01-22 22:18:29.13	48.04	16.06	-40.0	-42.5	13.2	2.28e-05	0	59	0	381681664	51	4832
2026-01-22 22:18:30.14	48.21	16.13	-39.9	-42.3	13.3	2.13e-05	0	59	0	384827392	51	4749
2026-01-22 22:18:31.15	48.38	16.21	-39.9	-42.3	13.3	1.37e-05	0	59	0	387973120	51	4750
2026-01-22 22:18:32.16	48.56	16.28	-39.9	-42.2	13.5	9.90e-06	0	59	0	391118848	51	4701
2026-01-22 22:18:33.17	48.73	16.35	-39.8	-42.1	13.6	8.30e-06	0	59	0	394264576	51	4624
2026-01-22 22:18:34.19	48.90	16.42	-39.7	-42.0	13.7	9.90e-06	0	59	0	397410304	51	4573
2026-01-22 22:18:35.20	49.08	16.49	-39.8	-42.1	13.6	3.00e-06	0	59	0	400556032	51	4605
2026-01-22 22:18:36.20	49.25	16.56	-39.8	-42.1	13.5	1.22e-05	0	59	0	403701760	51	4639
2026-01-22 22:18:37.21	49.43	16.64	-39.8	-42.1	13.6	1.29e-05	0	59	0	406847488	51	4603
2026-01-22 22:18:38.22	49.60	16.71	-39.7	-42.0	13.6	7.60e-06	0	59	0	409993216	51	4598
2026-01-22 22:18:39.23	49.78	16.78	-39.8	-42.1	13.5	9.90e-06	0	59	0	413138944	51	4634
2026-01-22 22:18:40.25	49.96	16.85	-39.9	-42.2	13.5	9.90e-06	0	59	0	416284672	51	4686
2026-01-22 22:18:41.26	50.14	16.92	-39.9	-42.2	13.5	1.06e-05	0	59	0	419430400	51	4691
2026-01-22 22:18:42.27	50.32	16.99	-39.8	-42.1	13.6	6.10e-06	0	59	0	422576128	51	4613
2026-01-22 22:18:43.28	50.50	17.06	-39.8	-42.1	13.6	6.80e-06	0	59	0	425721856	51	4629
2026-01-22 22:18:44.29	50.68	17.14	-39.8	-42.1	13.6	1.14e-05	0	59	0	428867584	51	4644
2026-01-22 22:18:45.30	50.87	17.21	-39.8	-42.1	13.6	9.90e-06	0	59	0	432013312	51	4620
2026-01-22 22:18:46.31	51.05	17.28	-39.8	-42.1	13.6	7.60e-06	0	59	0	435159040	51	4639
2026-01-22 22:18:47.32	51.23	17.35	-39.7	-42.0	13.7	3.80e-06	0	59	0	438304768	51	4580
2026-01-22 22:18:48.33	51.42	17.42	-39.8	-42.1	13.6	4.50e-06	0	59	0	441450496	51	4623
2026-01-22 22:18:49.34	51.60	17.49	-39.8	-42.1	13.6	1.22e-05	0	59	0	444596224	51	4627
2026-01-22 22:18:50.34	51.79	17.56	-39.8	-42.1	13.6	3.00e-06	0	59	0	447741952	51	4627
2026-01-22 22:18:51.35	51.98	17.63	-39.8	-42.1	13.6	3.80e-06	0	59	0	450887680	51	4640
2026-01-22 22:18:52.36	52.17	17.70	-39.8	-42.1	13.7	1.22e-05	0	59	0	454033408	51	4605
2026-01-22 22:18:53.37	52.35	17.77	-39.8	-42.2	13.6	7.60e-06	0	59	0	457179136	51	4653
2026-01-22 22:18:54.38	52.55	17.84	-39.8	-42.1	13.6	8.30e-06	0	59	0	460324864	51	4635
2026-01-22 22:18:55.39	52.74	17.91	-39.8	-42.1	13.6	1.37e-05	0	59	0	463470592	51	4644
2026-01-22 22:18:56.40	52.93	17.98	-39.8	-42.1	13.6	8.30e-06	0	59	0	466616320	51	4646
2026-01-22 22:18:57.41	53.12	18.05	-39.8	-42.1	13.6	7.60e-06	0	59	0	469762048	51	4643
2026-01-22 22:18:58.43	53.32	18.13	-39.8	-42.1	13.7	8.30e-06	0	59	0	472907776	51	4614
2026-01-22 22:18:59.43	53.51	18.19	-39.9	-42.2	13.6	7.60e-06	0	59	0	476053504	51	4692
2026-01-22 22:19:00.44	53.70	18.26	-39.9	-42.2	13.6	8.30e-06	0	59	0	479199232	51	4674
2026-01-22 22:19:01.45	53.90	18.33	-39.9	-42.3	13.6	5.30e-06	0	59	0	482344960	51	4713
2026-01-22 22:19:02.46	54.10	18.40	-39.8	-42.2	13.6	1.29e-05	0	59	0	485490688	51	4665
2026-01-22 22:19:03.47	54.30	18.47	-39.9	-42.3	13.5	6.80e-06	0	59	0	488636416	51	4716
2026-01-22 22:19:04.48	54.50	18.54	-39.9	-42.3	13.5	1.22e-05	0	59	0	491782144	51	4740
2026-01-22 22:19:05.49	54.70	18.61	-39.9	-42.2	13.5	1.37e-05	0	59	0	494927872	51	4700
2026-01-22 22:19:06.50	54.90	18.68	-39.8	-42.1	13.7	9.90e-06	0	59	0	498073600	51	4610
2026-01-22 22:19:07.51	55.10	18.75	-39.8	-42.1	13.6	4.50e-06	0	59	0	501219328	51	4647
2026-01-22 22:19:08.52	55.30	18.82	-39.9	-42.3	13.5	7.60e-06	0	59	0	504365056	51	4712
2026-01-22 22:19:09.53	55.50	18.89	-39.8	-42.1	13.7	5.30e-06	0	59	0	507510784	51	4627
2026-01-22 22:19:10.54	55.71	18.95	-39.8	-42.2	13.6	6.10e-06	0	59	0	510656512	51	4666
2026-01-22 22:19:11.55	55.91	19.02	-39.9	-42.2	13.6	7.60e-06	0	59	0	513802240	51	4689
2026-01-22 22:19:12.56	56.12	19.09	-40.0	-42.3	13.5	1.22e-05	0	59	0	516947968	51	4753
2026-01-22 22:19:13.57	56.33	19.16	-40.0	-42.4	13.4	1.37e-05	0	59	0	520093696	51	4779
2026-01-22 22:19:14.58	56.53	19.23	-40.0	-42.5	13.3	1.44e-05	0	59	0	523239424	51	4819
2026-01-22 22:19:15.59	56.74	19.29	-40.1	-42.5	13.3	1.52e-05	0	59	0	526385152	51	4833
2026-01-22 22:19:16.59	56.95	19.36	-40.0	-42.5	13.3	2.21e-05	0	59	0	529530880	51	4828
2026-01-22 22:19:17.60	57.16	19.43	-40.0	-42.4	13.4	1.22e-05	0	59	0	532676608	51	4787
2026-01-22 22:19:18.61	57.37	19.49	-40.1	-42.5	13.4	9.10e-06	0	59	0	535822336	51	4819
2026-01-22 22:19:19.62	57.59	19.56	-40.0	-42.4	13.4	1.29e-05	0	60	0	538968064	51	4777
2026-01-22 22:19:20.63	57.80	19.63	-40.0	-42.4	13.4	1.37e-05	0	59	0	542113792	51	4794
2026-01-22 22:19:21.64	58.01	19.69	-39.9	-42.3	13.5	1.37e-05	0	59	0	545259520	51	4733
2026-01-22 22:19:22.65	58.23	19.76	-39.9	-42.2	13.6	1.22e-05	0	59	0	548405248	51	4692
2026-01-22 22:19:23.66	58.44	19.83	-39.9	-42.2	13.5	1.44e-05	0	59	0	551550976	51	4687
2026-01-22 22:19:24.67	58.66	19.89	-40.0	-42.4	13.4	1.52e-05	0	59	0	554696704	51	4791
2026-01-22 22:19:25.68	58.88	19.96	-40.1	-42.5	13.3	1.60e-05	0	59	0	557842432	51	4833
2026-01-22 22:19:26.69	59.10	20.02	-40.0	-42.4	13.3	1.60e-05	0	60	0	560988160	51	4812
2026-01-22 22:19:27.70	59.32	20.09	-40.1	-42.5	13.2	1.90e-05	0	59	0	564133888	51	4847
2026-01-22 22:19:28.71	59.54	20.15	-40.0	-42.5	13.3	1.44e-05	0	59	0	567279616	51	4821
2026-01-22 22:19:29.72	59.76	20.22	-40.0	-42.3	13.4	1.22e-05	0	59	0	570425344	51	4753
2026-01-22 22:19:30.73	59.98	20.28	-39.9	-42.2	13.6	1.06e-05	0	59	0	573571072	51	4689
2026-01-22 22:19:31.74	60.21	20.34	-39.8	-42.1	13.7	7.60e-06	0	59	0	576716800	51	4602
2026-01-22 22:19:32.75	60.43	20.41	-39.7	-42.0	13.8	4.50e-06	0	60	0	579862528	51	4560
2026-01-22 22:19:33.76	60.66	20.47	-39.7	-41.9	13.9	1.50e-06	0	60	0	583008256	51	4526
2026-01-22 22:19:34.77	60.88	20.53	-39.7	-41.9	13.9	6.10e-06	0	59	0	586153984	51	4526
2026-01-22 22:19:35.78	61.11	20.60	-39.7	-42.0	13.8	3.80e-06	0	59	0	589299712	51	4562
2026-01-22 22:19:36.79	61.34	20.66	-39.8	-42.1	13.7	6.80e-06	0	59	0	592445440	51	4607
2026-01-22 22:19:37.79	61.56	20.72	-39.8	-42.1	13.6	9.90e-06	0	60	0	595591168	51	4643
2026-01-22 22:19:38.80	61.79	20.78	-39.8	-42.1	13.6	1.06e-05	0	59	0	598736896	51	4646
2026-01-22 22:19:39.81	62.02	20.84	-39.8	-42.2	13.6	2.20e-06	0	60	0	601882624	51	4662
2026-01-22 22:19:40.82	62.26	20.91	-39.8	-42.1	13.7	4.50e-06	0	59	0	605028352	51	4623
2026-01-22 22:19:41.83	62.49	20.97	-39.8	-42.0	13.7	1.06e-05	0	60	0	608174080	51	4598
2026-01-22 22:19:42.84	62.72	21.03	-39.7	-42.0	13.8	5.30e-06	0	60	0	611319808	51	4559
2026-01-22 22:19:43.85	62.96	21.09	-39.7	-42.0	13.8	5.30e-06	0	60	0	614465536	51	4566
2026-01-22 22:19:44.86	63.19	21.15	-39.7	-41.9	13.9	6.80e-06	0	60	0	617611264	51	4530
2026-01-22 22:19:45.87	63.43	21.21	-39.7	-41.9	13.8	3.00e-06	0	60	0	620756992	51	4542
2026-01-22 22:19:46.88	63.66	21.27	-39.7	-41.9	13.9	3.80e-06	0	59	0	623902720	51	4520
2026-01-22 22:19:47.89	63.90	21.33	-39.6	-41.8	14.0	2.20e-06	0	59	0	627048448	51	4473
2026-01-22 22:19:48.90	64.14	21.38	-39.7	-42.0	13.8	7.00e-07	0	60	0	630194176	51	4569
2026-01-22 22:19:49.91	64.38	21.44	-39.6	-41.9	13.9	3.80e-06	0	60	0	633339904	51	4509
2026-01-22 22:19:50.92	64.62	21.50	-39.6	-41.8	14.0	1.50e-06	0	60	0	636485632	51	4479
2026-01-22 22:19:51.94	64.86	21.56	-39.6	-41.8	14.0	3.00e-06	0	60	0	639631360	51	4449
2026-01-22 22:19:52.95	65.11	21.62	-39.6	-41.8	14.1	3.00e-06	0	59	0	642777088	51	4446
2026-01-22 22:19:53.96	65.35	21.67	-39.7	-41.9	13.9	3.00e-06	0	60	0	645922816	51	4502
2026-01-22 22:19:54.97	65.59	21.73	-39.5	-41.7	14.1	1.50e-06	0	60	0	649068544	51	4401
2026-01-22 22:19:55.98	65.84	21.79	-39.4	-41.6	14.3	3.00e-06	0	60	0	652214272	50	4607
2026-01-22 22:19:56.99	66.09	21.84	-39.4	-41.5	14.3	7.00e-07	0	60	0	655360000	50	4573
2026-01-22 22:19:58.00	66.33	21.90	-39.5	-41.6	14.1	7.00e-07	0	60	0	658505728	50	4648
2026-01-22 22:19:59.00	66.58	21.95	-39.6	-41.8	14.0	3.00e-06	0	59	0	661651456	50	4726
2026-01-22 22:20:00.01	66.83	22.00	-39.6	-41.8	14.0	2.20e-06	0	59	0	664797184	50	4731
2026-01-22 22:20:01.03	67.08	22.06	-39.6	-41.8	14.0	1.50e-06	0	59	0	667942912	50	4708
2026-01-22 22:20:02.03	67.33	22.11	-39.5	-41.7	14.1	3.80e-06	0	59	0	671088640	50	4674
2026-01-22 22:20:03.04	67.58	22.17	-39.6	-41.8	14.0	3.80e-06	0	60	0	674234368	50	4712
2026-01-22 22:20:04.05	67.83	22.22	-39.5	-41.7	14.1	7.00e-07	0	60	0	677380096	50	4659
2026-01-22 22:20:05.06	68.08	22.27	-39.4	-41.6	14.2	1.50e-06	0	60	0	680525824	50	4601
2026-01-22 22:20:06.07	68.33	22.32	-39.4	-41.6	14.1	0.00e+00	0	60	0	684720128	50	4636
2026-01-22 22:20:07.08	68.59	22.37	-39.5	-41.7	13.9	2.20e-06	0	59	0	686817280	50	4703
2026-01-22 22:20:08.09	68.84	22.42	-39.6	-41.9	13.8	3.00e-06	0	59	0	689963008	50	4777
2026-01-22 22:20:09.10	69.10	22.47	-39.7	-41.9	13.7	4.50e-06	0	60	0	693108736	50	4806
2026-01-22 22:20:10.11	69.36	22.52	-39.7	-42.0	13.7	9.90e-06	0	60	0	696254464	50	4860
2026-01-22 22:20:11.12	69.61	22.57	-39.7	-41.9	13.7	4.50e-06	0	60	0	700448768	50	4807
2026-01-22 22:20:12.13	69.87	22.62	-39.6	-41.9	13.8	9.10e-06	0	60	0	703594496	50	4792
2026-01-22 22:20:13.14	70.13	22.67	-39.6	-41.9	13.8	2.20e-06	0	60	0	706740224	50	4790
2026-01-22 22:20:14.15	70.39	22.72	-39.7	-42.0	13.7	6.10e-06	0	60	0	708837376	50	4852
2026-01-22 22:20:15.16	70.65	22.77	-39.7	-42.0	13.6	6.80e-06	0	59	0	711983104	50	4862
2026-01-22 22:20:16.17	70.91	22.81	-39.8	-42.2	13.4	1.52e-05	0	60	0	716177408	50	4970
2026-01-22 22:20:17.19	71.18	22.86	-39.9	-42.3	13.3	1.22e-05	0	60	0	719323136	50	4993
2026-01-22 22:20:18.20	71.44	22.90	-39.8	-42.2	13.4	1.75e-05	0	60	0	722468864	50	4969
2026-01-22 22:20:19.21	71.71	22.95	-39.8	-42.1	13.5	9.10e-06	0	60	0	725614592	50	4895
2026-01-22 22:20:20.22	71.97	22.99	-39.7	-42.1	13.6	1.22e-05	0	60	0	728760320	50	4889
2026-01-22 22:20:21.23	72.24	23.04	-39.8	-42.2	13.5	1.44e-05	0	60	0	731906048	50	4939
2026-01-22 22:20:22.23	72.50	23.08	-39.6	-41.9	13.7	3.80e-06	0	60	0	735051776	50	4790
2026-01-22 22:20:23.24	72.77	23.12	-39.6	-41.9	13.7	6.10e-06	0	60	0	738197504	50	4800
2026-01-22 22:20:24.25	73.03	23.17	-39.6	-41.9	13.6	8.30e-06	0	60	0	741343232	50	4812
2026-01-22 22:20:25.26	73.30	23.21	-39.6	-41.9	13.7	6.80e-06	0	60	0	744488960	50	4776
2026-01-22 22:20:26.27	73.57	23.25	-39.6	-41.9	13.7	6.80e-06	0	60	0	747634688	50	4792
2026-01-22 22:20:27.28	73.84	23.29	-39.5	-41.8	13.8	5.30e-06	0	60	0	750780416	50	4729
2026-01-22 22:20:28.29	74.11	23.33	-39.5	-41.7	13.9	6.10e-06	0	60	0	753926144	50	4702
2026-01-22 22:20:29.30	74.38	23.37	-39.5	-41.7	13.9	5.30e-06	0	60	0	757071872	50	4696
2026-01-22 22:20:30.31	74.65	23.41	-39.5	-41.8	13.9	2.20e-06	0	60	0	760217600	50	4728
2026-01-22 22:20:31.32	74.93	23.45	-39.5	-41.7	14.0	1.50e-06	0	60	0	763363328	50	4656
2026-01-22 22:20:32.33	75.20	23.49	-39.5	-41.7	14.0	2.20e-06	0	60	0	766509056	50	4687
2026-01-22 22:20:33.34	75.47	23.52	-39.6	-41.8	13.8	2.20e-06	0	60	0	769654784	50	4729
2026-01-22 22:20:34.35	75.75	23.56	-39.5	-41.7	14.0	5.30e-06	0	60	0	772800512	50	4675
2026-01-22 22:20:35.36	76.02	23.60	-39.4	-41.6	14.0	1.50e-06	0	60	0	775946240	50	4645
2026-01-22 22:20:36.37	76.30	23.63	-39.4	-41.7	14.0	3.00e-06	0	60	0	779091968	50	4652
2026-01-22 22:20:37.38	76.57	23.66	-39.3	-41.5	14.2	3.00e-06	0	60	0	782237696	50	4552
2026-01-22 22:20:38.39	76.85	23.70	-39.2	-41.3	14.3	7.00e-07	0	60	0	785383424	50	4485
2026-01-22 22:20:39.40	77.13	23.73	-39.3	-41.5	14.2	2.20e-06	0	60	0	788529152	50	4565
2026-01-22 22:20:40.41	77.41	23.77	-39.3	-41.5	14.2	3.00e-06	0	60	0	791674880	50	4553
2026-01-22 22:20:41.42	77.69	23.80	-39.4	-41.6	14.1	7.00e-07	0	60	0	794820608	50	4601
2026-01-22 22:20:42.43	77.96	23.83	-39.4	-41.6	14.1	7.00e-07	0	60	0	797966336	50	4629
2026-01-22 22:20:43.44	78.24	23.86	-39.4	-41.6	14.2	1.50e-06	0	60	0	801112064	50	4614
2026-01-22 22:20:44.45	78.52	23.89	-39.4	-41.5	14.2	1.50e-06	0	60	0	804257792	50	4584
2026-01-22 22:20:45.46	78.81	23.92	-39.4	-41.6	14.2	0.00e+00	0	60	0	807403520	50	4602
2026-01-22 22:20:46.46	79.08	23.95	-39.3	-41.4	14.4	0.00e+00	0	60	0	810549248	50	4520
2026-01-22 22:20:47.47	79.37	23.98	-39.2	-41.3	14.4	0.00e+00	0	60	0	813694976	50	4450
2026-01-22 22:20:48.48	79.65	24.00	-39.2	-41.3	14.4	1.50e-06	0	60	0	816840704	50	4491
2026-01-22 22:20:49.49	79.93	24.03	-39.2	-41.3	14.5	7.00e-07	0	60	0	819986432	50	4478
2026-01-22 22:20:50.50	80.21	24.06	-39.2	-41.3	14.4	7.00e-07	0	60	0	823132160	50	4480
2026-01-22 22:20:51.52	80.50	24.08	-39.2	-41.3	14.5	0.00e+00	0	60	0	826277888	50	4447
2026-01-22 22:20:52.53	80.78	24.11	-39.3	-41.3	14.4	0.00e+00	0	60	0	829423616	50	4492
2026-01-22 22:20:53.54	81.07	24.13	-39.3	-41.4	14.4	1.50e-06	0	60	0	832569344	50	4513
2026-01-22 22:20:54.55	81.35	24.15	-39.3	-41.4	14.4	0.00e+00	0	60	0	835715072	50	4542
2026-01-22 22:20:55.56	81.64	24.18	-39.3	-41.4	14.3	1.50e-06	0	60	0	838860800	50	4540
2026-01-22 22:20:56.57	81.93	24.20	-39.4	-41.5	14.3	0.00e+00	0	60	0	842006528	50	4552
2026-01-22 22:20:57.58	82.21	24.22	-39.4	-41.6	14.2	3.00e-06	0	60	0	845152256	50	4625
2026-01-22 22:20:58.59	82.50	24.24	-39.4	-41.5	14.3	1.50e-06	0	60	0	848297984	50	4577
2026-01-22 22:20:59.60	82.79	24.26	-39.3	-41.4	14.3	0.00e+00	0	60	0	851443712	50	4523
2026-01-22 22:21:00.61	83.07	24.28	-39.3	-41.4	14.4	0.00e+00	0	60	0	854589440	50	4524
2026-01-22 22:21:01.62	83.36	24.29	-39.4	-41.5	14.3	7.00e-07	0	60	0	857735168	50	4569
2026-01-22 22:21:02.62	83.65	24.31	-39.4	-41.6	14.2	7.00e-07	0	60	0	860880896	50	4637
2026-01-22 22:21:03.63	83.93	24.33	-39.6	-41.8	14.0	1.50e-06	0	60	0	864026624	50	4720
2026-01-22 22:21:04.64	84.22	24.34	-39.6	-41.9	13.9	1.50e-06	0	60	0	867172352	50	4771
2026-01-22 22:21:05.65	84.51	24.36	-39.6	-41.8	14.0	3.80e-06	0	60	0	870318080	50	4745
2026-01-22 22:21:06.66	84.80	24.37	-39.5	-41.7	14.0	7.00e-07	0	60	0	873463808	50	4698
2026-01-22 22:21:07.67	85.09	24.39	-39.6	-41.7	14.0	3.00e-06	0	60	0	876609536	50	4703
2026-01-22 22:21:08.68	85.38	24.40	-39.6	-41.8	14.0	2.20e-06	0	60	0	879755264	50	4708
2026-01-22 22:21:09.69	85.67	24.41	-39.6	-41.8	14.0	2.20e-06	0	60	0	882900992	50	4736
2026-01-22 22:21:10.70	85.96	24.42	-39.5	-41.7	14.1	2.20e-06	0	60	0	886046720	50	4656
2026-01-22 22:21:11.71	86.25	24.44	-39.4	-41.6	14.2	2.20e-06	0	60	0	889192448	50	4615
2026-01-22 22:21:12.72	86.54	24.45	-39.4	-41.5	14.3	3.80e-06	0	60	0	892338176	50	4570
2026-01-22 22:21:13.73	86.83	24.45	-39.3	-41.4	14.4	1.50e-06	0	60	0	895483904	50	4513
2026-01-22 22:21:14.74	87.12	24.46	-39.3	-41.4	14.5	1.50e-06	0	60	0	898629632	50	4497
2026-01-22 22:21:15.75	87.41	24.47	-39.3	-41.3	14.5	7.00e-07	0	60	0	901775360	50	4480
2026-01-22 22:21:16.76	87.70	24.48	-39.3	-41.4	14.3	7.00e-07	0	60	0	904921088	50	4542
2026-01-22 22:21:17.78	88.00	24.48	-39.4	-41.5	14.3	1.50e-06	0	60	0	908066816	50	4595
2026-01-22 22:21:18.78	88.29	24.49	-39.4	-41.6	14.3	2.20e-06	0	60	0	911212544	50	4612
2026-01-22 22:21:19.79	88.58	24.49	-39.5	-41.6	14.2	0.00e+00	0	60	0	914358272	50	4651
2026-01-22 22:21:20.80	88.87	24.50	-39.4	-41.5	14.3	2.20e-06	0	60	0	917504000	50	4598
2026-01-22 22:21:21.81	89.16	24.50	-39.4	-41.5	14.3	7.00e-07	0	60	0	920649728	50	4576
2026-01-22 22:21:22.82	89.45	24.50	-39.4	-41.6	14.3	7.00e-07	0	60	0	923795456	50	4618
2026-01-22 22:21:23.83	89.75	24.51	-39.4	-41.6	14.3	7.00e-07	0	60	0	926941184	50	4609
2026-01-22 22:21:24.84	90.04	24.51	-39.5	-41.6	14.2	0.00e+00	0	60	0	930086912	50	4649
2026-01-22 22:21:25.85	90.33	24.51	-39.5	-41.6	14.3	7.00e-07	0	60	0	933232640	50	4619
2026-01-22 22:21:26.86	90.62	24.51	-39.5	-41.6	14.3	7.00e-07	0	60	0	936378368	50	4621
2026-01-22 22:21:27.87	90.91	24.50	-39.4	-41.5	14.4	1.50e-06	0	60	0	939524096	50	4583
2026-01-22 22:21:28.88	91.21	24.50	-39.4	-41.5	14.3	0.00e+00	0	60	0	942669824	50	4573
2026-01-22 22:21:29.89	91.50	24.50	-39.4	-41.5	14.4	7.00e-07	0	60	0	945815552	50	4549
2026-01-22 22:21:30.90	91.79	24.49	-39.3	-41.4	14.5	0.00e+00	0	60	0	948961280	50	4534
2026-01-22 22:21:31.91	92.08	24.49	-39.3	-41.4	14.5	0.00e+00	0	60	0	952107008	50	4503
2026-01-22 22:21:32.92	92.37	24.48	-39.3	-41.4	14.5	0.00e+00	0	60	0	955252736	50	4506
2026-01-22 22:21:33.93	92.66	24.48	-39.2	-41.2	14.7	7.00e-07	0	60	0	958398464	50	4440
2026-01-22 22:21:34.94	92.95	24.47	-39.2	-41.3	14.6	1.50e-06	0	60	0	961544192	50	4444
2026-01-22 22:21:35.95	93.25	24.46	-39.2	-41.3	14.6	0.00e+00	0	60	0	964689920	50	4456
2026-01-22 22:21:36.96	93.54	24.46	-39.3	-41.3	14.6	0.00e+00	0	60	0	967835648	50	4477
2026-01-22 22:21:37.97	93.83	24.45	-39.3	-41.3	14.6	0.00e+00	0	60	0	970981376	50	4485
2026-01-22 22:21:38.98	94.12	24.44	-39.2	-41.2	14.7	1.50e-06	0	60	0	974127104	50	4436
2026-01-22 22:21:39.99	94.41	24.43	-39.3	-41.3	14.6	0.00e+00	0	60	0	977272832	50	4488
2026-01-22 22:21:41.00	94.70	24.41	-39.3	-41.3	14.6	0.00e+00	0	60	0	980418560	50	4471
2026-01-22 22:21:42.01	94.99	24.40	-39.3	-41.4	14.6	0.00e+00	0	60	0	983564288	50	4501
2026-01-22 22:21:43.02	95.28	24.39	-39.3	-41.4	14.5	0.00e+00	0	60	0	986710016	50	4517
2026-01-22 22:21:44.03	95.57	24.38	-39.3	-41.3	14.6	1.50e-06	0	60	0	989855744	50	4491
2026-01-22 22:21:45.04	95.86	24.36	-39.3	-41.3	14.6	0.00e+00	0	60	0	993001472	50	4477
2026-01-22 22:21:46.05	96.15	24.35	-39.2	-41.3	14.7	7.00e-07	0	60	0	996147200	50	4463
2026-01-22 22:21:47.06	96.44	24.33	-39.2	-41.2	14.7	0.00e+00	0	60	0	999292928	50	4416
2026-01-22 22:21:48.07	96.73	24.31	-39.2	-41.2	14.7	0.00e+00	0	60	0	1002438656	50	4437
2026-01-22 22:21:49.08	97.02	24.30	-39.1	-41.1	14.8	1.50e-06	0	60	0	1005584384	50	4387
2026-01-22 22:21:50.09	97.30	24.28	-39.3	-41.3	14.7	0.00e+00	0	60	0	1008730112	50	4457
2026-01-22 22:21:51.10	97.59	24.26	-39.2	-41.3	14.7	0.00e+00	0	60	0	1011875840	50	4450
2026-01-22 22:21:52.11	97.88	24.24	-39.1	-41.1	14.9	0.00e+00	0	60	0	1015021568	50	4356
2026-01-22 22:21:53.12	98.17	24.22	-39.1	-41.1	14.9	0.00e+00	0	60	0	1018167296	50	4344
2026-01-22 22:21:54.13	98.45	24.20	-39.2	-41.2	14.7	0.00e+00	0	60	0	1022361600	50	4440
2026-01-22 22:21:55.14	98.74	24.18	-39.2	-41.2	14.7	0.00e+00	0	60	0	1024458752	50	4435
2026-01-22 22:21:56.15	99.02	24.15	-39.3	-41.4	14.6	0.00e+00	0	60	0	1027604480	50	4498
2026-01-22 22:21:57.16	99.31	24.13	-39.3	-41.4	14.6	7.00e-07	0	60	0	1030750208	50	4515
2026-01-22 22:21:58.17	99.60	24.11	-39.3	-41.4	14.5	7.00e-07	0	60	0	1033895936	50	4533
2026-01-22 22:21:59.17	99.88	24.08	-39.4	-41.4	14.6	0.00e+00	0	60	0	1038090240	50	4531
2026-01-22 22:22:00.18	100.16	24.06	-39.3	-41.3	14.7	7.00e-07	0	60	0	1041235968	50	4475
2026-01-22 22:22:01.19	100.45	24.03	-39.3	-41.3	14.7	0.00e+00	0	60	0	1044381696	50	4478
2026-01-22 22:22:02.20	100.73	24.00	-39.3	-41.3	14.6	0.00e+00	0	60	0	1047527424	50	4485
2026-01-22 22:22:03.21	101.01	23.98	-39.4	-41.5	14.5	0.00e+00	0	60	0	1049624576	50	4560
2026-01-22 22:22:04.22	101.29	23.95	-39.5	-41.7	14.3	1.50e-06	0	60	0	1053818880	50	4658
2026-01-22 22:22:05.23	101.58	23.92	-39.6	-41.8	14.3	7.00e-07	0	60	0	1056964608	50	4709
2026-01-22 22:22:06.24	101.86	23.89	-39.5	-41.7	14.3	7.00e-07	0	60	0	1060110336	50	4675
2026-01-22 22:22:07.25	102.14	23.86	-39.6	-41.7	14.3	7.00e-07	0	60	0	1063256064	50	4677
2026-01-22 22:22:08.26	102.42	23.83	-39.4	-41.5	14.4	0.00e+00	0	60	0	1066401792	50	4591
2026-01-22 22:22:09.26	102.70	23.80	-39.4	-41.6	14.5	7.00e-07	0	60	0	1069547520	50	4601
2026-01-22 22:22:10.27	102.98	23.77	-39.5	-41.7	14.3	1.50e-06	0	60	0	1072693248	50	4661
2026-01-22 22:22:11.28	103.25	23.73	-39.5	-41.6	14.4	7.00e-07	0	60	0	1075838976	50	4621
2026-01-22 22:22:12.29	103.53	23.70	-39.3	-41.3	14.7	7.00e-07	0	60	0	1078984704	50	4490
2026-01-22 22:22:13.30	103.81	23.67	-39.3	-41.3	14.7	7.00e-07	0	60	0	1082130432	50	4492
2026-01-22 22:22:14.31	104.09	23.63	-39.3	-41.4	14.6	0.00e+00	0	60	0	1085276160	50	4518
2026-01-22 22:22:15.32	104.36	23.60	-39.4	-41.5	14.5	0.00e+00	0	60	0	1088421888	50	4550
2026-01-22 22:22:16.33	104.64	23.56	-39.4	-41.5	14.5	0.00e+00	0	60	0	1091567616	50	4575
2026-01-22 22:22:17.34	104.91	23.52	-39.5	-41.6	14.4	7.00e-07	0	60	0	1094713344	50	4648
2026-01-22 22:22:18.35	105.19	23.49	-39.5	-41.6	14.4	1.50e-06	0	60	0	1097859072	50	4649
2026-01-22 22:22:19.36	105.46	23.45	-39.5	-41.7	14.4	1.50e-06	0	60	0	1101004800	50	4663
2026-01-22 22:22:20.37	105.74	23.41	-39.5	-41.6	14.4	0.00e+00	0	60	0	1104150528	50	4634
2026-01-22 22:22:21.38	106.01	23.37	-39.5	-41.6	14.4	7.00e-07	0	60	0	1107296256	50	4629
2026-01-22 22:22:22.39	106.28	23.33	-39.5	-41.6	14.4	0.00e+00	0	60	0	1110441984	50	4628
2026-01-22 22:22:23.40	106.55	23.29	-39.5	-41.5	14.5	2.20e-06	0	60	0	1113587712	50	4596
2026-01-22 22:22:24.41	106.82	23.25	-39.4	-41.6	14.5	1.50e-06	0	60	0	1116733440	50	4602
2026-01-22 22:22:25.42	107.09	23.21	-39.6	-41.7	14.3	1.50e-06	0	60	0	1119879168	50	4664
2026-01-22 22:22:26.42	107.36	23.17	-39.5	-41.6	14.4	7.00e-07	0	60	0	1123024896	50	4650
2026-01-22 22:22:27.44	107.63	23.12	-39.5	-41.6	14.4	7.00e-07	0	60	0	1126170624	50	4626
2026-01-22 22:22:28.45	107.90	23.08	-39.6	-41.7	14.3	0.00e+00	0	60	0	1129316352	50	4669
2026-01-22 22:22:29.46	108.17	23.04	-39.6	-41.7	14.3	0.00e+00	0	60	0	1132462080	50	4682
2026-01-22 22:22:30.46	108.43	22.99	-39.5	-41.7	14.3	7.00e-07	0	60	0	1135607808	50	4664
2026-01-22 22:22:31.47	108.69	22.95	-39.5	-41.7	14.3	1.50e-06	0	60	0	1138753536	50	4658
2026-01-22 22:22:32.48	108.96	22.90	-39.6	-41.8	14.3	7.00e-07	0	60	0	1141899264	50	4722
2026-01-22 22:22:33.49	109.22	22.86	-39.7	-41.8	14.2	0.00e+00	0	60	0	1145044992	50	4753
2026-01-22 22:22:34.50	109.49	22.81	-39.6	-41.8	14.2	2.20e-06	0	60	0	1148190720	50	4739
2026-01-22 22:22:35.51	109.75	22.76	-39.6	-41.8	14.3	1.50e-06	0	60	0	1151336448	50	4722
2026-01-22 22:22:36.52	110.01	22.72	-39.7	-41.9	14.2	0.00e+00	0	60	0	1154482176	50	4763
2026-01-22 22:22:37.53	110.27	22.67	-39.7	-41.9	14.1	1.50e-06	0	60	0	1157627904	50	4810
2026-01-22 22:22:38.54	110.53	22.62	-39.8	-42.0	14.0	1.50e-06	0	60	0	1160773632	50	4851
2026-01-22 22:22:39.56	110.79	22.57	-39.7	-41.9	14.1	2.20e-06	0	60	0	1163919360	50	4767
2026-01-22 22:22:40.56	111.05	22.52	-39.7	-41.9	14.1	7.00e-07	0	60	0	1167065088	50	4787
2026-01-22 22:22:41.58	111.31	22.47	-39.8	-42.0	14.0	3.00e-06	0	60	0	1170210816	50	4831
2026-01-22 22:22:42.58	111.57	22.42	-39.8	-42.0	14.0	1.50e-06	0	60	0	1173356544	50	4845
2026-01-22 22:22:43.59	111.82	22.37	-39.7	-41.9	14.1	2.20e-06	0	60	0	1176502272	50	4798
2026-01-22 22:22:44.60	112.08	22.32	-39.6	-41.7	14.3	1.50e-06	0	60	0	1179648000	50	4696
2026-01-22 22:22:45.61	112.33	22.27	-39.6	-41.8	14.2	2.20e-06	0	60	0	1182793728	50	4714
2026-01-22 22:22:46.63	112.59	22.21	-39.6	-41.8	14.2	7.00e-07	0	60	0	1185939456	50	4744
2026-01-22 22:22:47.64	112.84	22.16	-39.7	-41.8	14.2	7.00e-07	0	60	0	1189085184	50	4739
2026-01-22 22:22:48.65	113.09	22.11	-39.5	-41.7	14.3	7.00e-07	0	60	0	1192230912	50	4663
2026-01-22 22:22:49.65	113.34	22.05	-39.6	-41.8	14.2	1.50e-06	0	60	0	1195376640	50	4715
2026-01-22 22:22:50.67	113.59	22.00	-39.6	-41.7	14.3	2.20e-06	0	60	0	1198522368	50	4686
2026-01-22 22:22:51.68	113.84	21.94	-39.6	-41.7	14.2	7.00e-07	0	60	0	1201668096	50	4701
2026-01-22 22:22:52.69	114.09	21.89	-39.6	-41.7	14.3	3.00e-06	0	60	0	1204813824	50	4679
2026-01-22 22:22:53.70	114.34	21.83	-39.6	-41.7	14.3	2.20e-06	0	60	0	1207959552	50	4682
2026-01-22 22:22:54.71	114.59	21.78	-39.6	-41.8	14.2	1.50e-06	0	60	0	1211105280	50	4716
2026-01-22 22:22:55.72	114.83	21.72	-39.6	-41.7	14.3	7.00e-07	0	60	0	1214251008	50	4680
2026-01-22 22:22:56.73	115.08	21.66	-39.6	-41.7	14.3	7.00e-07	0	60	0	1217396736	50	4682
2026-01-22 22:22:57.74	115.32	21.61	-39.6	-41.8	14.2	7.00e-07	0	60	0	1220542464	50	4725
2026-01-22 22:22:58.75	115.57	21.55	-39.7	-41.9	14.1	2.20e-06	0	60	0	1223688192	50	4766
2026-01-22 22:22:59.76	115.81	21.49	-39.8	-42.0	14.0	2.20e-06	0	60	0	1226833920	50	4833
2026-01-22 22:23:00.77	116.05	21.43	-39.7	-41.9	14.1	0.00e+00	0	60	0	1229979648	50	4797
2026-01-22 22:23:01.78	116.29	21.38	-39.7	-41.9	14.1	4.50e-06	0	60	0	1233125376	50	4788
2026-01-22 22:23:02.79	116.53	21.32	-39.7	-42.0	14.0	7.00e-07	0	60	0	1236271104	50	4817
2026-01-22 22:23:03.80	116.77	21.26	-39.6	-41.7	14.3	7.00e-07	0	60	0	1239416832	50	4705
2026-01-22 22:23:04.81	117.01	21.20	-39.6	-41.7	14.3	0.00e+00	0	60	0	1242562560	50	4701
2026-01-22 22:23:05.82	117.25	21.14	-39.6	-41.7	14.3	7.00e-07	0	60	0	1245708288	50	4680
2026-01-22 22:23:06.83	117.48	21.08	-39.5	-41.6	14.4	1.50e-06	0	60	0	1248854016	50	4601
2026-01-22 22:23:07.84	117.72	21.02	-39.5	-41.6	14.4	7.00e-07	0	60	0	1251999744	50	4614
2026-01-22 22:23:08.85	117.95	20.95	-39.6	-41.7	14.3	1.50e-06	0	60	0	1255145472	50	4679
2026-01-22 22:23:09.86	118.19	20.89	-39.6	-41.8	14.2	1.50e-06	0	60	0	1258291200	50	4730
2026-01-22 22:23:10.87	118.42	20.83	-39.6	-41.8	14.1	7.00e-07	0	60	0	1261436928	50	4739
2026-01-22 22:23:11.88	118.65	20.77	-39.7	-41.9	14.1	2.20e-06	0	60	0	1264582656	50	4796
2026-01-22 22:23:12.89	118.88	20.71	-39.7	-41.9	14.0	5.30e-06	0	60	0	1267728384	50	4806
2026-01-22 22:23:13.90	119.11	20.64	-39.8	-42.0	13.9	4.50e-06	0	60	0	1270874112	50	4846
2026-01-22 22:23:14.91	119.34	20.58	-39.8	-42.0	13.9	6.80e-06	0	60	0	1274019840	50	4864
2026-01-22 22:23:15.92	119.57	20.52	-39.6	-41.9	14.1	1.50e-06	0	60	0	1277165568	50	4769
2026-01-22 22:23:16.93	119.79	20.45	-39.6	-41.7	14.2	1.50e-06	0	60	0	1280311296	50	4697
2026-01-22 22:23:17.94	120.02	20.39	-39.5	-41.7	14.2	0.00e+00	0	60	0	1283457024	50	4683
2026-01-22 22:23:18.95	120.25	20.33	-39.4	-41.6	14.3	2.20e-06	0	60	0	1286602752	50	4603
2026-01-22 22:23:19.96	120.47	20.26	-39.5	-41.7	14.1	2.20e-06	0	60	0	1289748480	50	4661
2026-01-22 22:23:20.97	120.69	20.20	-39.4	-41.5	14.3	7.00e-07	0	60	0	1292894208	50	4571
2026-01-22 22:23:21.97	120.92	20.13	-39.4	-41.5	14.3	3.00e-06	0	60	0	1296039936	50	4595
2026-01-22 22:23:22.98	121.14	20.07	-39.4	-41.6	14.3	7.00e-07	0	60	0	1299185664	50	4606
2026-01-22 22:23:23.99	121.36	20.00	-39.6	-41.7	14.2	3.00e-06	0	60	0	1302331392	50	4699
2026-01-22 22:23:25.00	121.58	19.94	-39.5	-41.7	14.3	7.00e-07	0	60	0	1305477120	50	4652
2026-01-22 22:23:26.01	121.80	19.87	-39.5	-41.7	14.3	3.00e-06	0	60	0	1308622848	50	4659
2026-01-22 22:23:27.02	122.01	19.80	-39.6	-41.7	14.2	3.80e-06	0	60	0	1311768576	50	4701
2026-01-22 22:23:28.03	122.23	19.74	-39.5	-41.7	14.2	0.00e+00	0	60	0	1314914304	50	4690
2026-01-22 22:23:29.04	122.45	19.67	-39.6	-41.7	14.1	0.00e+00	0	60	0	1318060032	50	4705
2026-01-22 22:23:30.05	122.66	19.60	-39.6	-41.8	14.1	4.50e-06	0	60	0	1321205760	50	4742
2026-01-22 22:23:31.05	122.88	19.54	-39.6	-41.9	14.0	1.22e-04	0	60	0	1324351488	50	4771
2026-01-22 22:23:32.06	123.09	19.47	-39.7	-41.9	13.9	1.52e-05	0	60	0	1327497216	50	4809
2026-01-22 22:23:33.08	123.30	19.40	-39.6	-41.7	14.1	3.00e-06	0	60	0	1330642944	50	4703
2026-01-22 22:23:34.09	123.52	19.33	-39.6	-41.9	13.7	3.80e-06	0	60	0	1333788672	50	4766
2026-01-22 22:23:35.09	123.72	19.27	-39.6	-41.8	14.1	1.50e-04	0	60	0	1336934400	49	4990
2026-01-22 22:23:36.11	123.94	19.20	-39.6	-41.8	14.1	1.50e-06	0	60	0	1340080128	49	4990
2026-01-22 22:23:37.12	124.14	19.13	-39.5	-41.7	14.2	7.00e-07	0	60	0	1343225856	49	4927
2026-01-22 22:23:38.13	124.35	19.06	-39.4	-41.6	14.3	2.05e-05	0	60	0	1346371584	49	4876
2026-01-22 22:23:39.14	124.56	18.99	-39.5	-41.7	14.2	3.00e-06	0	61	0	1349517312	49	4935
2026-01-22 22:23:40.15	124.77	18.92	-39.5	-41.6	14.2	7.00e-07	0	60	0	1352663040	49	4921
2026-01-22 22:23:41.16	124.97	18.86	-39.5	-41.7	14.2	1.50e-06	0	60	0	1355808768	49	4928
2026-01-22 22:23:42.17	125.18	18.79	-39.5	-41.7	14.1	1.50e-06	0	60	0	1358954496	49	4983
2026-01-22 22:23:43.18	125.38	18.72	-39.6	-41.9	14.0	2.20e-06	0	60	0	1363148800	49	5047
2026-01-22 22:23:44.19	125.58	18.65	-39.6	-41.9	14.0	3.00e-06	0	60	0	1365245952	49	5058
2026-01-22 22:23:45.20	125.78	18.58	-39.6	-41.8	14.1	3.00e-06	0	60	0	1368391680	49	5024
2026-01-22 22:23:46.21	125.98	18.51	-39.6	-41.9	14.0	3.00e-06	0	60	0	1371537408	49	5061
2026-01-22 22:23:47.21	126.18	18.44	-39.6	-41.8	14.0	7.00e-07	0	60	0	1374683136	49	5019
2026-01-22 22:23:48.22	126.38	18.37	-39.6	-41.9	13.9	4.50e-06	0	60	0	1378877440	49	5063
2026-01-22 22:23:49.23	126.58	18.30	-39.6	-41.9	13.9	3.00e-06	0	60	0	1382023168	49	5077
2026-01-22 22:23:50.24	126.78	18.23	-39.6	-41.8	13.9	1.50e-06	0	60	0	1385168896	49	5041
2026-01-22 22:23:51.25	126.97	18.16	-39.6	-41.8	14.0	3.80e-06	0	60	0	1388314624	49	5015
2026-01-22 22:23:52.26	127.17	18.09	-39.6	-41.9	14.0	3.80e-06	0	60	0	1390411776	49	5044
2026-01-22 22:23:53.27	127.36	18.02	-39.6	-41.9	13.9	7.00e-07	0	60	0	1394606080	49	5055
2026-01-22 22:23:54.28	127.56	17.95	-39.6	-41.9	13.9	6.80e-06	0	60	0	1397751808	49	5062
2026-01-22 22:23:55.29	127.75	17.88	-39.6	-41.9	13.9	3.00e-06	0	60	0	1400897536	49	5054
2026-01-22 22:23:56.30	127.94	17.80	-39.6	-41.9	13.9	3.12e-05	0	60	0	1404043264	49	5065
2026-01-22 22:23:57.31	128.13	17.73	-39.7	-42.0	13.8	4.50e-06	0	60	0	1407188992	49	5108
2026-01-22 22:23:58.33	128.32	17.66	-39.7	-42.0	13.8	4.50e-06	0	60	0	1410334720	50	4846
2026-01-22 22:23:59.34	128.51	17.59	-39.7	-41.9	13.9	4.50e-06	0	60	0	1413480448	50	4798
2026-01-22 22:24:00.35	128.70	17.52	-39.6	-42.0	13.7	8.30e-06	0	60	0	1416626176	50	4826
2026-01-22 22:24:01.36	128.89	17.45	-39.7	-42.0	13.8	1.75e-05	0	60	0	1419771904	50	4854
2026-01-22 22:24:02.37	129.08	17.38	-39.7	-42.0	13.8	5.30e-06	0	60	0	1422917632	50	4849
2026-01-22 22:24:03.37	129.26	17.30	-39.7	-42.0	13.7	4.50e-06	0	60	0	1426063360	50	4827
2026-01-22 22:24:04.38	129.45	17.23	-39.6	-41.9	13.8	2.28e-05	0	60	0	1429209088	50	4806
2026-01-22 22:24:05.39	129.63	17.16	-39.7	-42.0	13.8	3.00e-06	0	60	0	1432354816	50	4823
2026-01-22 22:24:06.40	129.81	17.09	-39.7	-42.0	13.7	1.14e-04	0	61	0	1435500544	50	4842
2026-01-22 22:24:07.41	130.00	17.02	-39.7	-42.0	13.7	6.80e-06	0	60	0	1438646272	50	4828
2026-01-22 22:24:08.42	130.18	16.95	-39.7	-42.1	13.6	4.73e-05	0	60	0	1441792000	50	4883
2026-01-22 22:24:09.43	130.36	16.87	-39.7	-42.1	13.5	2.28e-05	0	60	0	1444937728	50	4909
2026-01-22 22:24:10.44	130.54	16.80	-39.2	-42.1	11.8	1.13e-03	0	60	0	1448083456	48	5523
2026-01-22 22:24:11.45	130.72	16.73	-39.9	-42.4	13.1	6.86e-05	0	60	0	1451229184	50	5049
2026-01-22 22:24:12.47	130.90	16.66	-39.9	-42.5	13.1	3.80e-04	0	60	0	1454374912	50	5102
2026-01-22 22:24:13.48	131.07	16.58	-40.0	-42.5	13.0	3.90e-04	0	60	0	1457520640	50	5125
2026-01-22 22:24:14.49	131.25	16.51	-39.9	-42.5	13.1	5.72e-02	0	60	0	1460666368	50	5101
2026-01-22 22:24:15.50	131.43	16.44	-39.8	-42.4	12.8	1.03e-01	0	60	0	1463812096	50	5064
2026-01-22 22:24:16.51	131.60	16.37	-39.6	-42.5	12.4	1.09e-03	0	60	0	1466957824	50	5126
2026-01-22 22:24:17.52	131.78	16.29	-39.9	-42.6	12.6	8.06e-02	0	60	0	1470103552	50	5176
2026-01-22 22:24:18.53	131.95	16.22	-40.0	-42.6	12.7	7.34e-03	0	60	0	1473249280	50	5179
2026-01-22 22:24:19.54	132.12	16.15	-40.0	-42.6	11.2	4.73e-03	0	60	0	1476395008	49	5498
2026-01-22 22:24:20.55	132.29	16.08	-40.4	-43.0	9.0	6.47e-02	7	60	0	1479540736	48	6092
2026-01-22 22:24:21.56	132.46	16.00	-38.9	-42.4	9.2	1.04e-01	4	60	0	1482686464	45	6761
2026-01-22 22:24:22.57	132.63	15.93	-40.3	-42.9	12.1	1.92e-01	0	61	0	1484783616	50	5387
2026-01-22 22:24:23.58	132.80	15.86	-39.6	-42.5	12.1	2.30e-01	5	60	0	1487929344	49	5440
2026-01-22 22:24:24.59	132.97	15.79	-40.1	-43.3	5.0	2.69e-01	0	60	104	1491075072	47	6662
2026-01-22 22:24:25.60	133.14	15.71	-33.5	-41.2	10.6	2.47e-01	29	61	0	1491075072	49	4653
2026-01-22 22:24:26.61	133.31	15.64	-39.9	-42.7	12.3	3.44e-02	0	60	0	1494220800	50	5250
2026-01-22 22:24:27.62	133.47	15.57	-40.0	-42.7	11.5	1.21e-02	0	60	0	1497366528	49	5556
2026-01-22 22:24:28.63	133.64	15.50	-31.9	-41.2	7.1	2.11e-01	37	60	0	1500512256	40	7827
2026-01-22 22:24:29.64	133.80	15.42	-39.7	-42.5	12.5	1.48e-02	0	60	0	1503657984	50	5136
2026-01-22 22:24:30.65	133.97	15.35	-33.2	-41.4	9.9	6.63e-01	0	60	104	1504706560	40	8026
2026-01-22 22:24:31.66	134.13	15.28	-39.6	-42.4	12.4	5.42e-02	0	60	0	1506803712	50	5056
2026-01-22 22:24:32.67	134.29	15.21	-39.7	-42.3	12.5	1.80e-02	0	61	0	1509949440	49	5325
2026-01-22 22:24:33.67	134.45	15.13	-39.7	-42.4	12.4	1.86e-01	0	60	0	1513095168	49	5368
2026-01-22 22:24:34.69	134.61	15.06	-30.5	-41.5	6.1	2.82e-01	7	60	0	1515192320	44	6481
2026-01-22 22:24:35.70	134.77	14.99	-39.6	-42.5	11.8	1.32e+00	2	60	104	1516240896	49	5437
2026-01-22 22:24:36.71	134.93	14.91	-31.4	-40.6	6.0	3.08e-02	3	60	0	1518338048	47	4909
2026-01-22 22:24:37.72	135.09	14.84	-38.8	-42.6	10.9	1.92e-01	0	60	0	1520435200	49	5513
2026-01-22 22:24:38.73	135.25	14.77	-28.8	-40.2	5.0	5.73e-01	0	60	104	1522532352	35	9359
2026-01-22 22:24:39.74	135.41	14.70	-40.1	-43.0	11.6	3.52e-02	5	61	0	1523580928	50	5437
2026-01-22 22:24:40.75	135.56	14.62	-40.0	-43.0	11.6	1.23e+00	0	61	104	1524629504	50	5427
2026-01-22 22:24:41.75	135.72	14.55	-40.0	-43.1	11.1	7.18e-02	2	60	0	1524629504	50	5467
2026-01-22 22:24:42.76	135.87	14.48	-40.1	-43.1	11.8	6.01e-02	0	60	0	1527775232	50	5496
2026-01-22 22:24:43.77	136.03	14.41	-39.6	-43.1	11.5	2.75e-02	0	61	0	1530920960	50	5480
2026-01-22 22:24:44.78	136.18	14.33	-40.1	-43.1	11.8	3.28e-02	0	61	0	1530920960	50	5489
2026-01-22 22:24:45.79	136.33	14.26	-34.0	-41.6	6.5	1.73e-02	1	60	0	1534066688	39	8738
2026-01-22 22:24:46.80	136.48	14.19	-40.1	-43.0	11.2	1.76e-02	9	61	0	1537212416	48	6097
2026-01-22 22:24:47.81	136.64	14.12	-40.0	-42.9	11.8	1.04e+00	0	60	104	1538260992	50	5361
2026-01-22 22:24:48.82	136.79	14.05	-40.1	-43.0	12.0	2.25e-01	0	61	0	1540358144	50	5414
2026-01-22 22:24:49.83	136.94	13.97	-39.3	-43.3	6.9	1.61e-02	24	60	0	1543503872	46	7063
2026-01-22 22:24:50.84	137.08	13.90	-35.7	-42.2	11.1	2.46e-01	15	61	0	1543503872	35	11774
2026-01-22 22:24:51.84	137.23	13.83	-40.1	-42.8	11.9	2.31e-01	0	61	0	1546649600	50	5290
2026-01-22 22:24:52.85	137.38	13.76	-40.0	-42.7	12.4	1.14e-02	0	60	0	1549795328	50	5264
2026-01-22 22:24:53.86	137.53	13.68	-40.1	-42.9	12.1	2.31e-02	0	60	0	1552941056	50	5351
2026-01-22 22:24:54.87	137.67	13.61	-40.1	-42.9	12.4	7.73e-03	0	60	0	1556086784	50	5365
2026-01-22 22:24:55.88	137.82	13.54	-35.4	-42.1	8.0	2.36e-01	1	61	0	1559232512	42	7793
2026-01-22 22:24:56.90	137.96	13.47	-35.0	-42.8	11.3	2.61e-01	0	60	0	1562378240	50	5339
2026-01-22 22:24:57.91	138.11	13.40	-40.4	-43.3	11.8	1.72e-01	0	61	0	1565523968	51	5282
2026-01-22 22:24:58.92	138.25	13.32	-40.2	-43.2	8.6	1.21e-01	26	60	0	1567621120	45	7415
2026-01-22 22:24:59.92	138.39	13.25	-40.4	-43.3	11.9	3.42e-03	0	61	0	1571815424	51	5326
2026-01-22 22:25:00.93	138.54	13.18	-40.4	-43.3	11.9	1.24e-01	0	60	0	1574961152	51	5337
2026-01-22 22:25:01.94	138.68	13.11	-37.3	-42.9	9.6	1.75e-03	0	61	0	1578106880	46	6796
2026-01-22 22:25:02.95	138.82	13.04	-40.5	-43.3	12.0	1.51e-03	0	60	0	1581252608	51	5333
2026-01-22 22:25:03.96	138.96	12.97	-40.4	-43.3	12.0	8.48e-04	0	60	0	1584398336	51	5322
2026-01-22 22:25:04.97	139.10	12.89	-40.4	-43.3	12.1	5.80e-03	0	60	0	1587544064	51	5286
2026-01-22 22:25:05.98	139.24	12.82	-40.4	-43.2	12.1	5.54e-04	0	60	0	1590689792	51	5268
2026-01-22 22:25:06.99	139.37	12.75	-40.4	-43.3	12.0	6.40e-04	0	60	0	1593835520	51	5304
2026-01-22 22:25:08.00	139.51	12.68	-40.4	-43.3	12.0	4.66e-03	0	61	0	1596981248	51	5295
2026-01-22 22:25:09.00	139.65	12.61	-40.4	-43.3	12.0	3.55e-04	0	60	0	1600126976	51	5304
2026-01-22 22:25:10.01	139.78	12.54	-40.2	-43.2	11.8	2.57e-03	0	60	0	1603272704	51	5237
2026-01-22 22:25:11.02	139.92	12.47	-40.4	-43.3	12.0	3.27e-04	0	61	0	1606418432	51	5309
2026-01-22 22:25:12.03	140.05	12.40	-40.4	-43.4	11.9	8.97e-03	0	60	0	1609564160	51	5351
2026-01-22 22:25:13.04	140.19	12.32	-40.4	-43.3	12.0	9.04e-04	0	60	0	1612709888	51	5299
2026-01-22 22:25:14.05	140.32	12.25	-40.4	-43.3	12.0	5.45e-04	0	60	0	1615855616	51	5334
2026-01-22 22:25:15.06	140.46	12.18	-40.4	-43.3	12.0	9.06e-04	0	61	0	1619001344	51	5298
2026-01-22 22:25:16.07	140.59	12.11	-40.5	-43.4	11.9	4.15e-04	0	61	0	1622147072	51	5402
2026-01-22 22:25:17.08	140.72	12.04	-40.5	-43.4	11.9	3.39e-04	0	60	0	1625292800	51	5358
2026-01-22 22:25:18.09	140.85	11.97	-40.5	-43.4	11.9	4.39e-04	0	61	0	1628438528	51	5398
2026-01-22 22:25:19.10	140.98	11.90	-40.5	-43.5	11.8	4.33e-04	0	61	0	1631584256	51	5411
2026-01-22 22:25:20.11	141.11	11.83	-40.5	-43.4	11.8	4.00e-04	0	61	0	1634729984	51	5397
2026-01-22 22:25:21.12	141.24	11.76	-40.5	-43.4	11.9	4.29e-04	0	60	0	1637875712	51	5388
2026-01-22 22:25:22.13	141.37	11.69	-40.5	-43.5	11.8	4.92e-04	0	61	0	1641021440	51	5438
2026-01-22 22:25:23.14	141.50	11.62	-40.4	-43.4	11.9	4.07e-04	0	61	0	1644167168	51	5359
2026-01-22 22:25:24.15	141.63	11.55	-40.5	-43.4	11.9	4.15e-04	0	61	0	1647312896	51	5384
2026-01-22 22:25:25.16	141.75	11.48	-40.5	-43.5	11.7	5.20e-04	0	60	0	1650458624	51	5443
2026-01-22 22:25:26.17	141.88	11.41	-40.5	-43.5	11.8	5.06e-04	0	60	0	1653604352	51	5419
2026-01-22 22:25:27.18	142.01	11.34	-40.6	-43.6	11.7	5.36e-04	0	61	0	1656750080	51	5474
2026-01-22 22:25:28.19	142.13	11.27	-40.6	-43.6	11.6	6.25e-04	0	61	0	1659895808	51	5481
2026-01-22 22:25:29.20	142.26	11.20	-40.5	-43.5	11.7	5.06e-04	0	61	0	1663041536	51	5432
2026-01-22 22:25:30.22	142.38	11.13	-40.5	-43.5	11.7	6.34e-04	0	60	0	1666187264	51	5459
2026-01-22 22:25:31.23	142.51	11.06	-40.5	-43.5	11.7	5.74e-04	0	61	0	1669332992	51	5439
2026-01-22 22:25:32.23	142.63	10.99	-40.4	-43.3	11.9	4.71e-04	0	61	0	1672478720	51	5339
2026-01-22 22:25:33.24	142.75	10.92	-40.5	-43.4	11.8	4.19e-04	0	60	0	1675624448	51	5374
2026-01-22 22:25:34.25	142.87	10.85	-40.5	-43.5	11.7	4.62e-04	0	61	0	1678770176	51	5411
2026-01-22 22:25:35.26	142.99	10.78	-40.4	-43.3	11.8	4.41e-04	0	61	0	1681915904	51	5335
2026-01-22 22:25:36.27	143.11	10.71	-40.4	-43.3	11.9	4.28e-04	0	61	0	1685061632	51	5338
2026-01-22 22:25:37.28	143.23	10.64	-40.5	-43.4	11.7	4.63e-04	0	61	0	1688207360	51	5400
2026-01-22 22:25:38.29	143.35	10.57	-40.5	-43.4	11.8	5.04e-04	0	61	0	1691353088	51	5379
2026-01-22 22:25:39.30	143.47	10.50	-40.5	-43.6	11.6	6.76e-04	0	61	0	1694498816	51	5485
2026-01-22 22:25:40.31	143.59	10.43	-40.6	-43.7	11.4	8.44e-04	0	61	0	1697644544	51	5559
2026-01-22 22:25:41.32	143.71	10.36	-40.6	-43.7	11.4	1.03e-03	0	60	0	1700790272	51	5572
2026-01-22 22:25:42.33	143.83	10.29	-40.6	-43.7	11.4	1.06e-03	0	60	0	1703936000	51	5592
2026-01-22 22:25:43.34	143.94	10.23	-40.7	-43.9	11.2	1.18e-03	0	60	0	1707081728	51	5703
2026-01-22 22:25:44.35	144.06	10.16	-39.5	-43.9	11.0	1.36e-03	0	61	0	1710227456	50	6047
2026-01-22 22:25:45.36	144.18	10.09	-40.7	-44.0	11.0	1.87e-03	0	61	0	1713373184	52	5418
2026-01-22 22:25:46.37	144.29	10.02	-40.7	-44.1	10.9	2.07e-03	0	61	0	1716518912	52	5479
2026-01-22 22:25:47.38	144.41	9.95	-40.7	-44.0	11.0	1.82e-03	0	60	0	1719664640	52	5450
2026-01-22 22:25:48.39	144.52	9.88	-40.7	-44.0	11.0	1.76e-03	0	60	0	1722810368	52	5413
2026-01-22 22:25:49.40	144.64	9.81	-40.7	-43.9	11.1	1.52e-03	0	60	0	1725956096	51	5714
2026-01-22 22:25:50.40	144.75	9.75	-40.7	-44.0	11.0	1.84e-03	0	61	0	1729101824	52	5423
2026-01-22 22:25:51.41	144.86	9.68	-40.7	-44.0	10.9	1.98e-03	0	61	0	1732247552	52	5452
2026-01-22 22:25:52.42	144.97	9.61	-40.7	-44.0	11.0	2.04e-03	0	61	0	1735393280	52	5425
2026-01-22 22:25:53.43	145.09	9.54	-40.6	-43.9	11.1	1.59e-03	0	61	0	1738539008	52	5344
2026-01-22 22:25:54.44	145.20	9.48	-40.6	-43.9	11.0	1.47e-03	0	60	0	1741684736	52	5373
2026-01-22 22:25:55.45	145.31	9.41	-40.6	-43.9	11.0	1.72e-03	0	60	0	1744830464	52	5375
2026-01-22 22:25:56.46	145.42	9.34	-40.6	-43.8	11.0	1.94e-03	0	61	0	1747976192	52	5329
2026-01-22 22:25:57.47	145.53	9.27	-40.6	-43.9	10.9	1.93e-03	0	60	0	1751121920	52	5390
2026-01-22 22:25:58.48	145.64	9.21	-40.6	-44.0	10.9	2.25e-03	0	61	0	1754267648	52	5412
2026-01-22 22:25:59.48	145.74	9.14	-40.6	-44.0	10.8	2.40e-03	0	61	0	1757413376	52	5426
2026-01-22 22:26:00.49	145.85	9.07	-40.7	-44.2	10.6	3.01e-03	0	61	0	1760559104	52	5533
2026-01-22 22:26:01.50	145.96	9.00	-40.6	-44.0	10.8	2.87e-03	0	60	0	1763704832	52	5457
2026-01-22 22:26:02.51	146.07	8.94	-40.6	-44.0	10.8	2.72e-03	0	61	0	1766850560	52	5438
2026-01-22 22:26:03.52	146.18	8.87	-40.7	-44.2	10.6	2.87e-03	0	61	0	1769996288	52	5567
2026-01-22 22:26:04.53	146.28	8.80	-40.7	-44.2	10.6	3.11e-03	0	60	0	1773142016	52	5559
2026-01-22 22:26:05.54	146.39	8.74	-40.8	-44.3	10.4	4.19e-03	0	61	0	1776287744	52	5640
2026-01-22 22:26:06.55	146.49	8.67	-40.7	-44.2	10.6	3.85e-03	0	60	0	1779433472	52	5546
2026-01-22 22:26:07.56	146.60	8.60	-40.7	-44.2	10.5	3.67e-03	0	60	0	1782579200	52	5557
2026-01-22 22:26:08.57	146.70	8.54	-40.8	-44.4	10.3	5.04e-03	0	61	0	1785724928	52	5673
2026-01-22 22:26:09.58	146.81	8.47	-40.7	-44.3	10.4	4.98e-03	0	61	0	1788870656	52	5626
2026-01-22 22:26:10.59	146.91	8.40	-40.8	-44.4	10.3	5.83e-03	0	60	0	1792016384	52	5698
2026-01-22 22:26:11.60	147.02	8.34	-40.8	-44.5	10.2	6.26e-03	0	61	0	1795162112	52	5759
2026-01-22 22:26:12.61	147.12	8.27	-40.9	-44.7	10.0	7.74e-03	0	61	0	1798307840	52	5865
2026-01-22 22:26:13.62	147.22	8.21	-40.8	-44.4	10.2	6.59e-03	0	60	0	1801453568	52	5707
2026-01-22 22:26:14.63	147.32	8.14	-40.9	-44.6	10.0	6.32e-03	0	61	0	1804599296	52	5840
2026-01-22 22:26:15.64	147.42	8.07	-40.8	-44.5	10.1	8.00e-03	0	61	0	1807745024	52	5762
2026-01-22 22:26:16.65	147.52	8.01	-43.5	-52.7	4.3	2.34e-02	2	61	0	1810890752	57	11047
2026-01-22 22:26:17.66	147.63	7.94	-44.5	-56.8	3.8	1.49e+00	0	61	104	1810890752	59	15799
2026-01-22 22:26:18.67	147.73	7.88	-44.8	-57.3	3.8	1.49e+00	0	61	104	1810890752	60	15839
2026-01-22 22:26:19.68	147.83	7.81	-45.1	-57.7	3.8	1.49e+00	0	61	104	1810890752	60	16534
2026-01-22 22:26:20.69	147.92	7.75	-45.3	-57.8	3.8	1.49e+00	0	61	104	1810890752	61	15914
2026-01-22 22:26:21.69	148.02	7.68	-45.4	-57.9	3.8	1.49e+00	0	60	104	1810890752	61	16100
2026-01-22 22:26:22.70	148.12	7.62	-45.5	-58.0	3.8	1.49e+00	0	61	104	1810890752	61	16265
2026-01-22 22:26:23.71	148.22	7.55	-45.5	-58.1	3.8	1.49e+00	0	61	104	1810890752	61	16346
2026-01-22 22:26:24.73	148.32	7.49	-45.6	-58.1	3.8	1.49e+00	0	61	104	1810890752	61	16457
2026-01-22 22:26:25.74	148.42	7.42	-45.5	-58.0	3.8	1.49e+00	0	61	104	1810890752	61	16307
2026-01-22 22:26:26.75	148.51	7.36	-45.4	-57.9	3.8	1.49e+00	0	61	104	1810890752	61	16022
2026-01-22 22:26:27.76	148.61	7.29	-45.4	-57.8	3.8	1.49e+00	0	61	104	1810890752	61	15837
2026-01-22 22:26:28.77	148.70	7.23	-45.3	-57.7	3.8	1.49e+00	0	61	104	1810890752	61	15699
2026-01-22 22:26:29.78	148.80	7.16	-45.3	-57.7	3.8	1.49e+00	0	61	104	1810890752	61	15658
2026-01-22 22:26:30.79	148.89	7.10	-45.2	-57.6	3.8	1.49e+00	0	61	104	1810890752	61	15455
2026-01-22 22:26:31.80	148.99	7.03	-45.2	-57.5	3.8	1.49e+00	0	61	104	1810890752	61	15359
2026-01-22 22:26:32.81	149.08	6.97	-45.2	-57.5	3.8	1.49e+00	0	61	104	1810890752	61	15369
