passes_logs/2026/01/22/R2.0S_Moscow/R2.0S_Moscow__20260122_010415_NOAA_20_JPSS-1_rec.log

#Pass ID: 20260122_010415_NOAA 20 (JPSS-1)
#Satellite: NOAA 20 (JPSS-1)
#Configuration: NOAA 20
#almurnet v.1.7.20251203
#Start time: 2026-01-22 01:04:15

#Version: 2.2.20231116
#Station: R2.0S_Moscow
#Location: 37.707566 lon 55.798166 lat
#TLE: 1 43013U 17073A   26021.46221703  .00000173  00000+0  10299-3 0  9999
#TLE: 2 43013  98.7644 322.3335 0001238  29.7597 330.3649 14.19538314423652

#Time	Az	El	Level	Level2	SNR	BER	BlckErr	Temp	State	Recorded	gain1	gain2
2026-01-22 01:04:15.17	11.05	2.00	-40.0	-54.6	3.8	1.49e+00	0	49	0	0	52	18371
2026-01-22 01:04:16.17	11.00	2.06	-40.1	-54.6	3.8	1.49e+00	0	49	104	0	51	19606
2026-01-22 01:04:17.18	10.95	2.12	-40.1	-54.7	3.8	1.49e+00	0	49	104	0	51	19635
2026-01-22 01:04:18.19	10.89	2.18	-40.1	-54.7	3.8	1.49e+00	0	49	104	0	51	19617
2026-01-22 01:04:19.20	10.84	2.24	-40.1	-54.7	3.8	1.49e+00	0	49	104	0	51	19628
2026-01-22 01:04:20.21	10.78	2.30	-40.1	-54.6	3.8	1.49e+00	0	49	104	0	51	19546
2026-01-22 01:04:21.22	10.72	2.36	-40.1	-54.6	3.8	1.49e+00	0	49	104	0	51	19592
2026-01-22 01:04:22.23	10.67	2.42	-40.1	-54.6	3.8	1.49e+00	0	49	104	0	51	19562
2026-01-22 01:04:23.24	10.61	2.48	-40.1	-54.6	3.8	1.49e+00	0	50	104	0	51	19608
2026-01-22 01:04:24.25	10.55	2.54	-40.1	-54.7	3.8	1.49e+00	0	50	104	0	51	19642
2026-01-22 01:04:25.26	10.50	2.60	-40.1	-54.6	3.8	1.49e+00	0	50	104	0	51	19557
2026-01-22 01:04:26.27	10.44	2.66	-40.1	-54.6	3.8	1.49e+00	0	50	104	0	51	19600
2026-01-22 01:04:27.29	10.38	2.72	-40.0	-54.6	3.8	1.49e+00	0	50	104	0	51	19551
2026-01-22 01:04:28.30	10.33	2.78	-40.1	-54.6	3.8	1.49e+00	0	50	104	0	51	19579
2026-01-22 01:04:29.31	10.27	2.84	-40.1	-54.6	3.8	1.49e+00	0	50	104	0	51	19514
2026-01-22 01:04:30.32	10.21	2.90	-40.0	-54.6	3.8	1.49e+00	0	50	104	0	51	19559
2026-01-22 01:04:31.33	10.15	2.96	-40.1	-54.6	3.8	1.49e+00	0	50	104	0	51	19552
2026-01-22 01:04:32.34	10.09	3.02	-40.1	-54.6	3.8	1.49e+00	0	50	104	0	51	19564
2026-01-22 01:04:33.35	10.03	3.08	-40.1	-54.6	3.8	1.49e+00	0	50	104	0	51	19568
2026-01-22 01:04:34.36	9.97	3.14	-40.0	-54.6	3.8	1.49e+00	0	50	104	0	51	19513
2026-01-22 01:04:35.37	9.92	3.21	-40.0	-54.6	3.8	1.49e+00	0	50	104	0	51	19514
2026-01-22 01:04:36.38	9.86	3.27	-40.0	-54.6	3.8	1.49e+00	0	50	104	0	51	19553
2026-01-22 01:04:37.39	9.80	3.33	-40.0	-54.6	3.8	1.49e+00	0	50	104	0	51	19526
2026-01-22 01:04:38.40	9.74	3.39	-40.0	-54.6	3.8	1.49e+00	0	51	104	0	51	19536
2026-01-22 01:04:39.41	9.68	3.45	-40.0	-54.6	3.8	1.49e+00	0	50	104	0	51	19549
2026-01-22 01:04:40.42	9.61	3.51	-40.0	-54.6	3.8	1.49e+00	0	50	104	0	51	19561
2026-01-22 01:04:41.43	9.55	3.57	-40.0	-54.6	3.8	1.49e+00	0	51	104	0	51	19540
2026-01-22 01:04:42.44	9.49	3.64	-40.1	-54.6	3.8	1.49e+00	0	51	104	0	51	19609
2026-01-22 01:04:43.45	9.43	3.70	-40.0	-54.6	3.8	1.49e+00	0	51	104	0	51	19548
2026-01-22 01:04:44.46	9.37	3.76	-40.0	-54.6	3.8	1.49e+00	0	51	104	0	51	19593
2026-01-22 01:04:45.47	9.31	3.82	-40.0	-54.6	3.8	1.49e+00	0	51	104	0	51	19582
2026-01-22 01:04:46.48	9.24	3.88	-40.0	-54.6	3.8	1.49e+00	0	51	104	0	51	19517
2026-01-22 01:04:47.49	9.18	3.95	-40.0	-54.6	3.8	1.49e+00	0	51	104	0	51	19550
2026-01-22 01:04:48.50	9.12	4.01	-40.0	-54.6	3.8	1.49e+00	0	51	104	0	51	19555
2026-01-22 01:04:49.51	9.06	4.07	-40.0	-54.6	3.8	1.49e+00	0	51	104	0	51	19554
2026-01-22 01:04:50.52	8.99	4.14	-40.0	-54.6	3.8	1.49e+00	0	51	104	0	51	19556
2026-01-22 01:04:51.53	8.93	4.20	-40.0	-54.6	3.8	1.49e+00	0	51	104	0	51	19551
2026-01-22 01:04:52.54	8.86	4.26	-40.0	-54.6	3.8	1.49e+00	0	51	104	0	51	19600
2026-01-22 01:04:53.55	8.80	4.32	-40.0	-54.6	3.8	1.49e+00	0	51	104	0	51	19517
2026-01-22 01:04:54.56	8.73	4.39	-40.0	-54.6	3.8	1.49e+00	0	51	104	0	51	19468
2026-01-22 01:04:55.57	8.67	4.45	-40.0	-54.6	3.8	1.49e+00	0	51	104	0	51	19527
2026-01-22 01:04:56.58	8.60	4.51	-40.0	-54.6	3.8	1.49e+00	0	51	104	0	51	19494
2026-01-22 01:04:57.59	8.54	4.58	-40.0	-54.6	3.8	1.49e+00	0	51	104	0	51	19490
2026-01-22 01:04:58.61	8.47	4.64	-40.0	-54.6	3.8	1.49e+00	0	52	104	0	51	19500
2026-01-22 01:04:59.62	8.41	4.71	-40.0	-54.6	3.8	1.49e+00	0	51	104	0	51	19534
2026-01-22 01:05:00.63	8.34	4.77	-40.0	-54.6	3.8	1.49e+00	0	52	104	0	51	19499
2026-01-22 01:05:01.64	8.27	4.83	-40.0	-54.6	3.8	1.49e+00	0	52	104	0	51	19481
2026-01-22 01:05:02.65	8.21	4.90	-40.0	-54.6	3.8	1.49e+00	0	52	104	0	51	19540
2026-01-22 01:05:03.66	8.14	4.96	-40.0	-54.6	3.8	1.49e+00	0	52	104	0	51	19527
2026-01-22 01:05:04.67	8.07	5.03	-40.0	-54.6	3.8	1.49e+00	0	52	104	0	51	19549
2026-01-22 01:05:05.68	8.00	5.09	-40.0	-54.6	3.8	1.49e+00	0	52	104	0	51	19493
2026-01-22 01:05:06.69	7.93	5.15	-40.0	-54.6	3.8	1.49e+00	0	52	104	0	51	19447
2026-01-22 01:05:07.70	7.87	5.22	-40.0	-54.6	3.8	1.49e+00	0	52	104	0	51	19487
2026-01-22 01:05:08.71	7.80	5.28	-40.0	-54.6	3.8	1.49e+00	0	52	104	0	51	19515
2026-01-22 01:05:09.72	7.73	5.35	-40.0	-54.6	3.8	1.49e+00	0	52	104	0	51	19552
2026-01-22 01:05:10.73	7.66	5.41	-40.0	-54.6	3.8	1.49e+00	0	52	104	0	51	19476
2026-01-22 01:05:11.74	7.59	5.48	-40.0	-54.6	3.8	1.49e+00	0	52	104	0	51	19557
2026-01-22 01:05:12.76	7.52	5.54	-40.0	-54.6	3.8	1.49e+00	0	52	104	0	51	19523
2026-01-22 01:05:13.77	7.45	5.61	-40.0	-54.6	3.8	1.49e+00	0	52	104	0	51	19523
2026-01-22 01:05:14.78	7.37	5.68	-40.0	-54.6	3.8	1.49e+00	0	52	104	0	51	19406
2026-01-22 01:05:15.79	7.30	5.74	-40.0	-54.6	3.8	1.49e+00	0	52	104	0	51	19481
2026-01-22 01:05:16.80	7.23	5.81	-40.0	-54.6	3.8	1.49e+00	0	52	104	0	51	19520
2026-01-22 01:05:17.81	7.16	5.87	-40.0	-54.6	3.8	1.49e+00	0	53	104	0	51	19491
2026-01-22 01:05:18.82	7.09	5.94	-40.0	-54.6	3.8	1.49e+00	0	52	104	0	51	19463
2026-01-22 01:05:19.83	7.01	6.00	-40.0	-54.6	3.8	1.49e+00	0	53	104	0	51	19472
2026-01-22 01:05:20.84	6.94	6.07	-40.0	-54.6	3.8	1.49e+00	0	53	104	0	51	19426
2026-01-22 01:05:21.85	6.87	6.14	-40.0	-54.6	3.8	1.49e+00	0	52	104	0	51	19494
2026-01-22 01:05:22.86	6.79	6.20	-40.0	-54.6	3.8	1.49e+00	0	53	104	0	51	19496
2026-01-22 01:05:23.87	6.72	6.27	-40.0	-54.6	3.8	1.49e+00	0	53	104	0	51	19467
2026-01-22 01:05:24.88	6.65	6.34	-40.0	-54.6	3.8	1.49e+00	0	53	104	0	51	19475
2026-01-22 01:05:25.89	6.57	6.40	-40.0	-54.6	3.8	1.49e+00	0	53	104	0	51	19469
2026-01-22 01:05:26.90	6.50	6.47	-40.0	-54.6	3.8	1.49e+00	0	53	104	0	51	19446
2026-01-22 01:05:27.91	6.42	6.54	-40.0	-54.6	3.8	1.49e+00	0	53	104	0	51	19438
2026-01-22 01:05:28.92	6.34	6.60	-40.0	-54.6	3.8	1.49e+00	0	53	104	0	51	19509
2026-01-22 01:05:29.93	6.27	6.67	-40.0	-54.6	3.8	1.49e+00	0	53	104	0	51	19460
2026-01-22 01:05:30.94	6.19	6.74	-40.0	-54.6	3.8	1.49e+00	0	53	104	0	51	19471
2026-01-22 01:05:31.95	6.11	6.81	-40.0	-54.6	3.8	1.49e+00	0	53	104	0	51	19427
2026-01-22 01:05:32.97	6.04	6.88	-40.0	-54.6	3.8	1.49e+00	0	53	104	0	51	19512
2026-01-22 01:05:33.98	5.96	6.94	-40.0	-54.6	3.8	1.49e+00	0	53	104	0	51	19481
2026-01-22 01:05:34.99	5.88	7.01	-40.0	-54.6	3.8	1.49e+00	0	53	104	0	51	19485
2026-01-22 01:05:36.00	5.80	7.08	-40.0	-54.6	3.8	1.49e+00	0	53	104	0	51	19494
2026-01-22 01:05:37.01	5.72	7.15	-40.0	-54.6	3.8	1.49e+00	0	53	104	0	51	19523
2026-01-22 01:05:38.01	5.64	7.22	-40.0	-54.6	3.8	1.49e+00	0	53	104	0	51	19467
2026-01-22 01:05:39.03	5.56	7.28	-40.0	-54.6	3.8	1.49e+00	0	53	104	0	51	19524
2026-01-22 01:05:40.04	5.48	7.35	-40.0	-54.6	3.8	1.49e+00	0	53	104	0	51	19478
2026-01-22 01:05:41.05	5.40	7.42	-40.0	-54.6	3.8	1.49e+00	0	53	104	0	51	19503
2026-01-22 01:05:42.06	5.32	7.49	-40.0	-54.6	3.8	1.49e+00	0	53	104	0	51	19448
2026-01-22 01:05:43.07	5.24	7.56	-40.0	-54.6	3.8	1.49e+00	0	54	104	0	51	19489
2026-01-22 01:05:44.08	5.16	7.63	-40.0	-54.6	3.8	1.49e+00	0	54	104	0	51	19506
2026-01-22 01:05:45.09	5.08	7.70	-40.0	-54.6	3.8	1.49e+00	0	54	104	0	51	19493
2026-01-22 01:05:46.10	4.99	7.77	-40.0	-54.6	3.8	1.49e+00	0	54	104	0	51	19475
2026-01-22 01:05:47.11	4.91	7.84	-40.0	-54.6	3.8	1.49e+00	0	54	104	0	51	19461
2026-01-22 01:05:48.12	4.83	7.91	-40.0	-54.6	3.8	1.49e+00	0	54	104	0	51	19453
2026-01-22 01:05:49.13	4.74	7.98	-40.0	-54.6	3.8	1.49e+00	0	54	104	0	51	19502
2026-01-22 01:05:50.14	4.66	8.05	-40.0	-54.6	3.8	1.49e+00	0	54	104	0	51	19499
2026-01-22 01:05:51.15	4.57	8.12	-40.1	-54.7	3.8	1.49e+00	0	54	104	0	51	19637
2026-01-22 01:05:52.16	4.49	8.19	-40.1	-54.7	3.8	1.49e+00	0	54	104	0	51	19769
2026-01-22 01:05:53.17	4.40	8.26	-40.1	-54.7	3.8	1.49e+00	0	54	104	0	51	19647
2026-01-22 01:05:54.18	4.32	8.33	-40.2	-54.8	3.8	1.49e+00	0	54	104	0	51	19982
2026-01-22 01:05:55.19	4.23	8.40	-40.1	-54.6	3.8	1.49e+00	0	54	104	0	51	19614
2026-01-22 01:05:56.20	4.14	8.47	-40.2	-54.8	3.8	1.49e+00	0	54	104	0	51	19877
2026-01-22 01:05:57.21	4.06	8.54	-40.1	-54.7	3.8	1.49e+00	0	54	104	0	51	19691
2026-01-22 01:05:58.22	3.97	8.61	-40.2	-54.8	3.8	1.49e+00	0	54	104	0	51	19904
2026-01-22 01:05:59.23	3.88	8.68	-40.1	-54.7	3.8	1.49e+00	0	54	104	0	51	19669
2026-01-22 01:06:00.24	3.79	8.75	-40.2	-54.8	3.8	1.49e+00	0	54	104	0	51	20003
2026-01-22 01:06:01.25	3.70	8.82	-40.1	-54.7	3.8	1.49e+00	0	54	104	0	51	19633
2026-01-22 01:06:02.26	3.61	8.89	-40.1	-54.8	3.8	1.49e+00	0	54	104	0	51	19853
2026-01-22 01:06:03.27	3.52	8.97	-40.1	-54.7	3.8	1.49e+00	0	54	104	0	51	19744
2026-01-22 01:06:04.28	3.43	9.04	-40.3	-54.9	3.8	1.49e+00	0	54	104	0	51	20090
2026-01-22 01:06:05.29	3.34	9.11	-40.0	-54.6	3.8	1.49e+00	0	54	104	0	51	19516
2026-01-22 01:06:06.29	3.25	9.18	-40.2	-54.7	3.8	1.49e+00	0	54	104	0	51	19839
2026-01-22 01:06:07.30	3.16	9.25	-40.1	-54.7	3.8	1.49e+00	0	54	104	0	51	19780
2026-01-22 01:06:08.31	3.07	9.33	-40.3	-54.9	3.8	1.49e+00	0	54	104	0	51	20082
2026-01-22 01:06:09.32	2.98	9.40	-40.1	-54.7	3.8	1.49e+00	0	54	104	0	51	19618
2026-01-22 01:06:10.33	2.88	9.47	-40.2	-54.8	3.8	1.49e+00	0	54	104	0	51	19896
2026-01-22 01:06:11.34	2.79	9.54	-40.1	-54.7	3.8	1.49e+00	0	54	104	0	51	19818
2026-01-22 01:06:12.35	2.69	9.62	-40.3	-54.8	3.8	1.49e+00	0	54	104	0	51	20010
2026-01-22 01:06:13.36	2.60	9.69	-40.1	-54.7	3.8	1.49e+00	0	55	104	0	51	19730
2026-01-22 01:06:14.37	2.50	9.76	-40.2	-54.8	3.8	1.49e+00	0	54	104	0	51	19971
2026-01-22 01:06:15.38	2.41	9.84	-40.2	-54.8	3.8	1.49e+00	0	55	104	0	51	19862
2026-01-22 01:06:16.39	2.31	9.91	-40.3	-54.8	3.8	1.49e+00	0	54	104	0	51	20025
2026-01-22 01:06:17.40	2.22	9.98	-40.2	-54.7	3.8	1.49e+00	0	55	104	0	51	19792
2026-01-22 01:06:18.41	2.12	10.06	-40.3	-54.8	3.8	1.49e+00	0	55	104	0	51	20031
2026-01-22 01:06:19.42	2.02	10.13	-40.2	-54.8	3.8	1.49e+00	0	55	104	0	51	19908
2026-01-22 01:06:20.42	1.92	10.20	-40.3	-54.8	3.8	1.49e+00	0	54	104	0	51	20047
2026-01-22 01:06:21.43	1.82	10.28	-40.1	-54.7	3.8	1.49e+00	0	55	104	0	51	19828
2026-01-22 01:06:22.44	1.73	10.35	-40.2	-54.9	3.8	1.49e+00	0	55	104	0	51	20089
2026-01-22 01:06:23.45	1.63	10.43	-40.2	-54.8	3.8	1.49e+00	0	55	104	0	51	20029
2026-01-22 01:06:24.46	1.53	10.50	-40.3	-54.9	3.8	1.49e+00	0	55	104	0	51	20117
2026-01-22 01:06:25.47	1.42	10.58	-40.2	-54.7	3.8	1.49e+00	0	55	104	0	51	19837
2026-01-22 01:06:26.48	1.32	10.65	-40.3	-54.9	3.8	1.49e+00	0	55	104	0	51	20118
2026-01-22 01:06:27.49	1.22	10.73	-40.3	-54.9	3.8	1.49e+00	0	55	104	0	51	20141
2026-01-22 01:06:28.50	1.12	10.80	-40.3	-54.9	3.8	1.49e+00	0	55	104	0	51	20187
2026-01-22 01:06:29.51	1.02	10.88	-40.2	-54.8	3.8	1.49e+00	0	55	104	0	51	20020
2026-01-22 01:06:30.52	0.91	10.95	-40.3	-54.9	3.8	1.49e+00	0	55	104	0	51	20268
2026-01-22 01:06:31.53	0.81	11.03	-40.4	-55.0	3.8	1.49e+00	0	55	104	0	51	20406
2026-01-22 01:06:32.54	0.70	11.10	-40.3	-54.9	3.8	1.49e+00	0	55	104	0	52	19023
2026-01-22 01:06:33.55	0.60	11.18	-40.1	-54.8	3.8	1.49e+00	0	55	104	0	52	18736
2026-01-22 01:06:34.56	0.49	11.25	-40.1	-54.7	3.8	1.49e+00	0	55	104	0	52	18641
2026-01-22 01:06:35.57	0.39	11.33	-40.1	-54.7	3.8	1.49e+00	0	55	104	0	52	18622
2026-01-22 01:06:36.57	0.28	11.41	-40.1	-54.7	3.8	1.49e+00	0	55	104	0	52	18647
2026-01-22 01:06:37.58	0.17	11.48	-40.1	-54.7	3.8	1.49e+00	0	55	104	0	52	18679
2026-01-22 01:06:38.59	0.06	11.56	-40.2	-54.8	3.8	1.49e+00	0	55	104	0	52	18770
2026-01-22 01:06:39.60	359.96	11.63	-40.2	-54.7	3.8	1.49e+00	0	55	104	0	52	18721
2026-01-22 01:06:40.61	359.85	11.71	-40.6	-55.2	3.8	1.49e+00	0	55	104	0	52	19615
2026-01-22 01:06:41.62	359.74	11.79	-40.5	-55.1	3.8	1.49e+00	0	55	104	0	52	19566
2026-01-22 01:06:42.63	359.63	11.87	-40.2	-54.8	3.8	1.49e+00	0	55	104	0	52	18905
2026-01-22 01:06:43.64	359.51	11.94	-40.2	-54.8	3.8	1.49e+00	0	55	104	0	52	18889
2026-01-22 01:06:44.65	359.40	12.02	-40.2	-54.8	3.8	1.49e+00	0	55	104	0	52	18861
2026-01-22 01:06:45.66	359.29	12.10	-40.2	-54.8	3.8	1.49e+00	0	55	104	0	52	18856
2026-01-22 01:06:46.67	359.18	12.17	-40.4	-54.9	3.8	1.49e+00	0	55	104	0	52	19093
2026-01-22 01:06:47.68	359.06	12.25	-40.3	-54.9	3.8	1.49e+00	0	55	104	0	52	19032
2026-01-22 01:06:48.68	358.95	12.33	-41.0	-55.5	3.8	1.49e+00	0	55	104	0	52	20435
2026-01-22 01:06:49.69	358.84	12.41	-41.0	-55.4	3.8	1.49e+00	0	55	104	0	53	19158
2026-01-22 01:06:50.70	358.72	12.49	-40.5	-55.1	3.8	1.49e+00	0	55	104	0	53	18384
2026-01-22 01:06:51.71	358.61	12.56	-40.6	-55.1	3.8	1.49e+00	0	55	104	0	52	19580
2026-01-22 01:06:52.72	358.49	12.64	-40.6	-55.2	3.8	1.49e+00	0	55	104	0	52	19709
2026-01-22 01:06:53.73	358.37	12.72	-40.6	-55.2	3.8	1.49e+00	0	55	104	0	52	19616
2026-01-22 01:06:54.74	358.25	12.80	-40.9	-54.8	3.8	1.49e+00	0	55	104	0	52	18868
2026-01-22 01:06:55.75	358.13	12.88	-40.7	-54.9	3.8	1.49e+00	0	55	104	0	52	18970
2026-01-22 01:06:56.76	358.02	12.96	-41.6	-52.5	4.0	1.49e+00	0	55	104	0	53	13632
2026-01-22 01:06:57.77	357.90	13.04	-42.1	-52.4	4.5	1.49e+00	0	56	104	0	55	11976
2026-01-22 01:06:58.78	357.77	13.11	-41.6	-54.3	3.8	7.32e-01	0	55	104	1048576	55	15021
2026-01-22 01:06:59.79	357.65	13.19	-41.5	-48.9	6.6	1.30e+00	0	55	0	1048576	55	8003
2026-01-22 01:07:00.80	357.53	13.27	-41.3	-48.0	7.5	1.40e-01	0	55	0	2097152	54	7681
2026-01-22 01:07:01.81	357.41	13.35	-41.1	-47.2	8.2	7.00e-02	0	55	0	4194304	54	7037
2026-01-22 01:07:02.82	357.29	13.43	-41.2	-47.6	7.9	6.14e-02	0	55	0	6291456	54	7289
2026-01-22 01:07:03.83	357.16	13.51	-41.3	-48.0	7.5	8.72e-02	0	55	0	8388608	54	7636
2026-01-22 01:07:04.84	357.04	13.59	-41.3	-48.2	7.2	1.16e-01	0	56	0	10485760	54	7899
2026-01-22 01:07:05.85	356.91	13.67	-41.3	-48.2	7.3	1.27e-01	0	56	0	11534336	54	7823
2026-01-22 01:07:06.86	356.79	13.75	-41.2	-47.8	7.6	1.10e-01	0	56	0	13631488	54	7509
2026-01-22 01:07:07.87	356.66	13.83	-41.1	-47.6	7.8	8.36e-02	0	56	0	15728640	54	7292
2026-01-22 01:07:08.88	356.53	13.91	-41.2	-47.9	7.4	9.49e-02	0	56	0	17825792	54	7627
2026-01-22 01:07:09.89	356.40	13.99	-41.2	-48.3	7.0	1.30e-01	0	56	0	19922944	54	7963
2026-01-22 01:07:10.90	356.28	14.07	-41.3	-49.1	6.3	1.88e-01	0	56	0	20971520	54	8700
2026-01-22 01:07:11.91	356.15	14.15	-41.4	-50.1	5.5	4.18e-01	0	56	0	23068672	54	9736
2026-01-22 01:07:12.92	356.02	14.24	-41.4	-51.1	4.8	6.11e-01	0	56	0	25165824	54	11027
2026-01-22 01:07:13.93	355.88	14.32	-41.3	-52.8	4.1	1.13e+00	0	56	0	26214400	54	13294
2026-01-22 01:07:14.94	355.75	14.40	-41.0	-54.5	3.8	1.49e+00	0	56	104	26214400	54	16199
2026-01-22 01:07:15.95	355.62	14.48	-42.2	-55.6	3.8	1.48e+00	0	56	104	26214400	54	18496
2026-01-22 01:07:16.96	355.49	14.56	-41.9	-55.1	3.9	1.49e+00	0	56	104	26214400	54	17456
2026-01-22 01:07:17.97	355.35	14.64	-41.0	-55.5	3.8	1.49e+00	0	56	104	26214400	54	18253
2026-01-22 01:07:18.98	355.22	14.72	-41.2	-55.2	3.8	1.49e+00	0	56	104	26214400	54	17620
2026-01-22 01:07:19.99	355.08	14.80	-41.2	-55.4	3.8	1.49e+00	0	56	104	26214400	54	17957
2026-01-22 01:07:20.99	354.95	14.89	-41.1	-55.5	3.8	1.49e+00	0	56	104	26214400	54	18143
2026-01-22 01:07:22.00	354.81	14.97	-40.8	-55.4	3.8	1.49e+00	0	56	104	26214400	53	19070
2026-01-22 01:07:23.01	354.67	15.05	-41.1	-55.7	3.8	1.49e+00	0	56	104	26214400	53	19729
2026-01-22 01:07:24.02	354.53	15.13	-40.8	-55.4	3.8	1.49e+00	0	56	104	26214400	53	18992
2026-01-22 01:07:25.03	354.39	15.21	-40.7	-55.3	3.8	1.49e+00	0	56	104	26214400	53	18834
2026-01-22 01:07:26.04	354.25	15.30	-41.0	-55.6	3.8	1.49e+00	0	56	104	26214400	53	19441
2026-01-22 01:07:27.05	354.11	15.38	-40.9	-55.5	3.8	1.49e+00	0	56	104	26214400	53	19322
2026-01-22 01:07:28.06	353.97	15.46	-40.6	-55.2	3.8	1.49e+00	0	56	104	26214400	53	18664
2026-01-22 01:07:29.07	353.83	15.54	-40.8	-55.3	3.8	1.49e+00	0	56	104	26214400	53	18867
2026-01-22 01:07:30.08	353.69	15.63	-40.8	-55.4	3.8	1.49e+00	0	56	104	26214400	53	19138
2026-01-22 01:07:31.09	353.54	15.71	-40.8	-55.3	3.8	1.49e+00	0	56	104	26214400	53	18927
2026-01-22 01:07:32.10	353.40	15.79	-40.6	-55.2	3.8	1.49e+00	0	56	104	26214400	53	18596
2026-01-22 01:07:33.11	353.25	15.87	-40.9	-55.4	3.8	1.49e+00	0	56	104	26214400	53	19103
2026-01-22 01:07:34.12	353.10	15.96	-40.7	-55.3	3.8	1.49e+00	0	56	104	26214400	53	18915
2026-01-22 01:07:35.13	352.96	16.04	-40.7	-55.3	3.8	1.49e+00	0	56	104	26214400	53	18768
2026-01-22 01:07:36.14	352.81	16.12	-40.9	-55.4	3.8	1.49e+00	0	56	104	26214400	53	19098
2026-01-22 01:07:37.15	352.66	16.21	-40.9	-55.4	3.8	1.49e+00	0	56	104	26214400	53	19068
2026-01-22 01:07:38.15	352.51	16.29	-40.7	-55.3	3.8	1.49e+00	0	56	104	26214400	53	18844
2026-01-22 01:07:39.16	352.36	16.37	-40.9	-55.4	3.8	1.49e+00	0	56	104	26214400	53	19149
2026-01-22 01:07:40.17	352.21	16.46	-40.9	-55.5	3.8	1.49e+00	0	56	104	26214400	53	19170
2026-01-22 01:07:41.18	352.06	16.54	-40.9	-55.4	3.8	1.49e+00	0	56	104	26214400	53	19093
2026-01-22 01:07:42.19	351.90	16.62	-40.8	-55.4	3.8	1.49e+00	0	56	104	26214400	53	19046
2026-01-22 01:07:43.20	351.75	16.71	-40.9	-55.5	3.8	1.49e+00	0	56	104	26214400	53	19227
2026-01-22 01:07:44.21	351.59	16.79	-40.8	-55.4	3.8	1.49e+00	0	56	104	26214400	53	18993
2026-01-22 01:07:45.22	351.44	16.88	-41.1	-55.6	3.8	1.49e+00	0	56	104	26214400	53	19567
2026-01-22 01:07:46.23	351.28	16.96	-40.8	-55.4	3.8	1.49e+00	0	56	104	26214400	53	19028
2026-01-22 01:07:47.24	351.12	17.04	-40.8	-55.4	3.8	1.49e+00	0	56	104	26214400	53	18983
2026-01-22 01:07:48.25	350.96	17.13	-40.9	-55.5	3.8	1.49e+00	0	56	104	26214400	53	19282
2026-01-22 01:07:49.26	350.80	17.21	-41.2	-55.7	3.8	1.49e+00	0	56	104	26214400	53	19681
2026-01-22 01:07:50.27	350.64	17.30	-40.9	-55.4	3.8	1.49e+00	0	56	104	26214400	53	19144
2026-01-22 01:07:51.28	350.48	17.38	-40.9	-55.5	3.8	1.49e+00	0	56	104	26214400	53	19266
2026-01-22 01:07:52.29	350.32	17.47	-40.9	-55.5	3.8	1.49e+00	0	56	104	26214400	53	19198
2026-01-22 01:07:53.30	350.15	17.55	-41.0	-55.5	3.8	1.49e+00	0	56	104	26214400	53	19371
2026-01-22 01:07:54.31	349.99	17.64	-41.1	-55.6	3.8	1.49e+00	0	56	104	26214400	53	19610
2026-01-22 01:07:55.32	349.82	17.72	-40.9	-55.5	3.8	1.49e+00	0	56	104	26214400	53	19236
2026-01-22 01:07:56.33	349.66	17.80	-41.1	-55.7	3.8	1.49e+00	0	56	104	26214400	53	19630
2026-01-22 01:07:57.34	349.49	17.89	-41.0	-55.6	3.8	1.49e+00	0	57	104	26214400	53	19476
2026-01-22 01:07:58.35	349.32	17.97	-41.0	-55.6	3.8	1.49e+00	0	57	104	26214400	53	19485
2026-01-22 01:07:59.36	349.15	18.06	-41.0	-55.6	3.8	1.49e+00	0	57	104	26214400	53	19425
2026-01-22 01:08:00.37	348.98	18.14	-41.3	-55.8	3.8	1.49e+00	0	56	104	26214400	53	20005
2026-01-22 01:08:01.38	348.81	18.23	-41.1	-55.6	3.8	1.49e+00	0	56	104	26214400	53	19541
2026-01-22 01:08:02.39	348.64	18.31	-41.0	-55.5	3.8	1.49e+00	0	56	104	26214400	53	19316
2026-01-22 01:08:03.39	348.47	18.40	-41.1	-55.7	3.8	1.49e+00	0	57	104	26214400	53	19675
2026-01-22 01:08:04.40	348.30	18.48	-41.3	-55.7	3.8	1.49e+00	0	57	104	26214400	53	19822
2026-01-22 01:08:05.41	348.12	18.57	-41.1	-55.7	3.8	1.49e+00	0	56	104	26214400	53	19642
2026-01-22 01:08:06.42	347.94	18.65	-41.1	-55.6	3.8	1.49e+00	0	57	104	26214400	53	19527
2026-01-22 01:08:07.43	347.77	18.74	-41.2	-55.8	3.8	1.49e+00	0	56	104	26214400	53	19865
2026-01-22 01:08:08.44	347.59	18.82	-41.1	-55.6	3.8	1.49e+00	0	56	104	26214400	53	19552
2026-01-22 01:08:09.45	347.41	18.91	-41.2	-55.8	3.8	1.49e+00	0	57	104	26214400	53	19943
2026-01-22 01:08:10.46	347.23	18.99	-41.2	-55.8	3.8	1.49e+00	0	57	104	26214400	53	19900
2026-01-22 01:08:11.47	347.05	19.08	-41.3	-55.9	3.8	1.49e+00	0	57	104	26214400	53	20151
2026-01-22 01:08:12.48	346.87	19.16	-41.0	-55.6	3.8	1.49e+00	0	57	104	26214400	53	19444
2026-01-22 01:08:13.48	346.69	19.24	-41.3	-55.8	3.8	1.49e+00	0	57	104	26214400	53	19984
2026-01-22 01:08:14.49	346.50	19.33	-41.3	-55.9	3.8	1.49e+00	0	57	104	26214400	53	20120
2026-01-22 01:08:15.50	346.32	19.41	-41.3	-55.9	3.8	1.49e+00	0	57	104	26214400	53	20120
2026-01-22 01:08:16.52	346.13	19.50	-41.0	-55.6	3.8	1.49e+00	0	57	104	26214400	53	19543
2026-01-22 01:08:17.52	345.94	19.58	-41.3	-55.8	3.8	1.49e+00	0	57	104	26214400	53	20064
2026-01-22 01:08:18.53	345.76	19.67	-41.3	-55.9	3.8	1.49e+00	0	56	104	26214400	53	20072
2026-01-22 01:08:19.54	345.57	19.75	-41.3	-55.8	3.8	1.49e+00	0	57	104	26214400	53	20020
2026-01-22 01:08:20.55	345.38	19.84	-41.2	-55.7	3.8	1.49e+00	0	57	104	26214400	53	19747
2026-01-22 01:08:21.56	345.18	19.92	-41.3	-55.9	3.8	1.49e+00	0	57	104	26214400	53	20155
2026-01-22 01:08:22.57	344.99	20.01	-41.3	-55.9	3.8	1.49e+00	0	57	104	26214400	53	20116
2026-01-22 01:08:23.58	344.80	20.09	-41.3	-55.9	3.8	1.49e+00	0	57	104	26214400	54	18989
2026-01-22 01:08:24.59	344.60	20.17	-41.3	-55.9	3.8	1.49e+00	0	57	104	26214400	54	19063
2026-01-22 01:08:25.60	344.41	20.26	-41.3	-55.9	3.8	1.49e+00	0	57	104	26214400	54	18953
2026-01-22 01:08:26.61	344.21	20.34	-41.6	-55.5	3.8	1.49e+00	0	57	104	26214400	54	18277
2026-01-22 01:08:27.62	344.01	20.43	-41.3	-55.6	3.8	1.49e+00	0	57	104	26214400	54	18515
2026-01-22 01:08:28.63	343.81	20.51	-41.4	-55.8	3.8	1.49e+00	0	57	104	26214400	54	18752
2026-01-22 01:08:29.64	343.61	20.60	-41.5	-55.0	3.8	1.49e+00	0	57	104	26214400	54	17155
2026-01-22 01:08:30.65	343.41	20.68	-41.5	-54.6	3.8	1.49e+00	0	57	104	26214400	54	16326
2026-01-22 01:08:31.65	343.21	20.76	-41.7	-53.3	4.1	1.47e+00	0	57	104	26214400	54	14047
2026-01-22 01:08:32.66	343.01	20.85	-41.8	-52.4	4.4	1.39e+00	88	57	0	26214400	54	12694
2026-01-22 01:08:33.67	342.80	20.93	-41.9	-51.4	4.9	8.95e-01	0	57	0	28311552	54	11374
2026-01-22 01:08:34.68	342.60	21.01	-42.0	-50.8	5.3	6.48e-01	0	57	0	30408704	54	10640
2026-01-22 01:08:35.69	342.39	21.10	-42.0	-50.2	5.9	4.97e-01	0	57	0	31457280	54	9892
2026-01-22 01:08:36.70	342.18	21.18	-42.0	-49.4	6.6	2.63e-01	0	57	0	33554432	54	9039
2026-01-22 01:08:37.71	341.97	21.26	-42.2	-50.1	6.2	1.49e-01	0	57	0	35651584	55	9205
2026-01-22 01:08:38.72	341.76	21.35	-41.8	-50.1	6.0	2.76e-01	0	57	0	37748736	55	9208
2026-01-22 01:08:39.73	341.55	21.43	-42.7	-52.1	5.1	5.91e-01	0	57	0	39845888	55	11567
2026-01-22 01:08:40.74	341.34	21.51	-41.7	-49.1	7.1	8.75e-01	0	57	0	39845888	54	8733
2026-01-22 01:08:41.75	341.12	21.59	-41.4	-47.0	8.9	1.02e+00	0	57	0	40894464	54	6814
2026-01-22 01:08:42.76	340.91	21.68	-41.2	-46.2	10.0	9.09e-03	0	57	0	42991616	54	6234
2026-01-22 01:08:43.77	340.69	21.76	-41.1	-45.8	10.4	5.68e-03	0	57	0	45088768	54	5959
2026-01-22 01:08:44.78	340.48	21.84	-41.1	-45.8	10.6	3.56e-03	0	57	0	47185920	54	5945
2026-01-22 01:08:45.79	340.26	21.92	-41.4	-46.4	10.0	5.47e-03	0	57	0	49283072	54	6372
2026-01-22 01:08:46.80	340.04	22.00	-41.6	-46.5	10.1	8.39e-03	0	57	0	50331648	54	6464
2026-01-22 01:08:47.81	339.82	22.09	-41.6	-46.2	10.6	4.83e-03	0	57	0	52428800	54	6262
2026-01-22 01:08:48.81	339.60	22.17	-41.6	-46.1	11.0	2.62e-03	0	57	0	54525952	54	6139
2026-01-22 01:08:49.82	339.37	22.25	-41.5	-45.8	11.3	1.65e-03	0	57	0	56623104	54	5966
2026-01-22 01:08:50.83	339.15	22.33	-41.5	-45.6	11.6	7.84e-04	0	57	0	58720256	54	5792
2026-01-22 01:08:51.84	338.92	22.41	-41.5	-45.6	11.8	5.76e-04	0	57	0	59768832	54	5806
2026-01-22 01:08:52.85	338.70	22.49	-41.7	-45.8	11.6	6.00e-04	0	57	0	61865984	54	5941
2026-01-22 01:08:53.85	338.47	22.57	-41.6	-45.5	12.0	3.97e-04	0	57	0	63963136	54	5766
2026-01-22 01:08:54.87	338.24	22.65	-41.5	-45.3	12.2	2.96e-04	0	57	0	66060288	54	5642
2026-01-22 01:08:55.87	338.01	22.73	-41.6	-45.5	12.1	2.19e-04	0	57	0	68157440	54	5729
2026-01-22 01:08:56.88	337.78	22.81	-41.7	-45.5	12.1	2.89e-04	0	57	0	69206016	54	5783
2026-01-22 01:08:57.89	337.55	22.89	-41.7	-45.5	12.2	2.18e-04	0	57	0	71303168	54	5784
2026-01-22 01:08:58.90	337.31	22.97	-41.7	-45.7	12.1	2.61e-04	0	57	0	73400320	54	5860
2026-01-22 01:08:59.91	337.08	23.04	-41.7	-45.5	12.2	2.25e-04	0	57	0	75497472	54	5765
2026-01-22 01:09:00.92	336.84	23.12	-41.7	-45.5	12.3	2.10e-04	0	57	0	77594624	54	5736
2026-01-22 01:09:01.93	336.60	23.20	-41.6	-45.3	12.6	1.15e-04	0	57	0	79691776	54	5608
2026-01-22 01:09:02.94	336.36	23.28	-41.5	-45.1	12.7	7.32e-05	0	57	0	80740352	54	5504
2026-01-22 01:09:03.95	336.12	23.36	-41.5	-45.2	12.7	6.17e-05	0	57	0	82837504	54	5532
2026-01-22 01:09:04.96	335.88	23.43	-41.5	-45.1	12.9	7.09e-05	0	57	0	84934656	54	5472
2026-01-22 01:09:05.97	335.64	23.51	-41.6	-45.1	12.8	7.40e-05	0	57	0	87031808	54	5494
2026-01-22 01:09:06.97	335.40	23.59	-41.6	-45.1	12.9	6.94e-05	0	57	0	89128960	54	5487
2026-01-22 01:09:07.98	335.16	23.66	-41.6	-45.1	12.8	7.24e-05	0	57	0	90177536	54	5514
2026-01-22 01:09:08.99	334.91	23.74	-41.7	-45.4	12.6	7.09e-05	0	57	0	92274688	54	5658
2026-01-22 01:09:10.00	334.66	23.81	-41.7	-45.3	12.7	7.17e-05	0	57	0	94371840	54	5604
2026-01-22 01:09:11.01	334.41	23.89	-41.7	-45.3	12.6	8.62e-05	0	57	0	96468992	54	5646
2026-01-22 01:09:12.02	334.16	23.96	-41.7	-45.2	12.7	7.32e-05	0	57	0	98566144	54	5563
2026-01-22 01:09:13.03	333.91	24.04	-41.7	-45.3	12.7	6.79e-05	0	57	0	99614720	54	5648
2026-01-22 01:09:14.04	333.66	24.11	-41.7	-45.3	12.7	8.39e-05	0	57	0	101711872	54	5613
2026-01-22 01:09:15.05	333.41	24.18	-41.8	-45.4	12.6	7.47e-05	0	57	0	103809024	54	5685
2026-01-22 01:09:16.06	333.15	24.26	-41.8	-45.4	12.6	8.62e-05	0	57	0	105906176	54	5705
2026-01-22 01:09:17.07	332.90	24.33	-41.8	-45.4	12.6	9.46e-05	0	57	0	108003328	54	5701
2026-01-22 01:09:18.08	332.64	24.40	-41.8	-45.5	12.6	1.01e-04	0	57	0	109051904	54	5729
2026-01-22 01:09:19.09	332.38	24.47	-41.8	-45.4	12.6	9.53e-05	0	57	0	111149056	54	5690
2026-01-22 01:09:20.09	332.13	24.55	-41.8	-45.4	12.7	8.54e-05	0	57	0	113246208	54	5670
2026-01-22 01:09:21.10	331.87	24.62	-41.7	-45.4	12.7	7.78e-05	0	57	0	115343360	54	5657
2026-01-22 01:09:22.11	331.60	24.69	-41.7	-45.3	12.7	7.17e-05	0	57	0	117440512	54	5644
2026-01-22 01:09:23.12	331.34	24.76	-41.8	-45.4	12.7	7.09e-05	0	57	0	118489088	54	5665
2026-01-22 01:09:24.13	331.08	24.83	-41.7	-45.2	12.8	6.79e-05	0	57	0	120586240	54	5592
2026-01-22 01:09:25.14	330.81	24.90	-41.8	-45.4	12.7	7.55e-05	0	57	0	122683392	54	5670
2026-01-22 01:09:26.15	330.55	24.96	-41.8	-45.4	12.7	7.62e-05	0	57	0	124780544	54	5707
2026-01-22 01:09:27.16	330.28	25.03	-41.9	-45.5	12.6	8.46e-05	0	57	0	126877696	54	5788
2026-01-22 01:09:28.17	330.01	25.10	-41.9	-45.7	12.4	1.55e-04	0	57	0	127926272	54	5886
2026-01-22 01:09:29.17	329.74	25.17	-42.0	-45.7	12.3	1.34e-04	0	57	0	130023424	54	5917
2026-01-22 01:09:30.18	329.47	25.23	-42.0	-45.8	12.3	1.83e-04	0	57	0	132120576	54	5928
2026-01-22 01:09:31.19	329.20	25.30	-41.9	-45.7	12.4	1.39e-04	0	57	0	134217728	54	5887
2026-01-22 01:09:32.20	328.93	25.36	-41.9	-45.7	12.4	1.50e-04	0	57	0	136314880	54	5882
2026-01-22 01:09:33.21	328.65	25.43	-41.9	-45.6	12.4	1.40e-04	0	57	0	137363456	54	5854
2026-01-22 01:09:34.22	328.38	25.49	-41.9	-45.7	12.4	1.50e-04	0	57	0	139460608	54	5869
2026-01-22 01:09:35.23	328.10	25.56	-41.9	-45.6	12.5	1.14e-04	0	57	0	141557760	54	5803
2026-01-22 01:09:36.24	327.82	25.62	-41.8	-45.4	12.6	7.55e-05	0	57	0	143654912	54	5692
2026-01-22 01:09:37.24	327.55	25.68	-41.7	-45.2	12.9	7.09e-05	0	57	0	145752064	54	5581
2026-01-22 01:09:38.25	327.27	25.74	-41.7	-45.2	12.9	5.03e-05	0	57	0	146800640	54	5563
2026-01-22 01:09:39.26	326.99	25.81	-41.6	-45.1	13.0	5.79e-05	0	57	0	148897792	54	5476
2026-01-22 01:09:40.27	326.70	25.87	-41.6	-45.0	13.2	3.12e-05	0	57	0	150994944	54	5426
2026-01-22 01:09:41.28	326.42	25.93	-41.6	-45.0	13.1	2.74e-05	0	57	0	153092096	54	5422
2026-01-22 01:09:42.29	326.14	25.99	-41.6	-45.0	13.1	3.12e-05	0	57	0	155189248	54	5459
2026-01-22 01:09:43.29	325.85	26.05	-41.7	-45.2	13.0	2.97e-05	0	57	0	156237824	54	5533
2026-01-22 01:09:44.30	325.57	26.10	-41.7	-45.2	13.0	3.66e-05	0	57	0	158334976	54	5535
2026-01-22 01:09:45.31	325.28	26.16	-41.7	-45.2	12.8	5.72e-05	0	57	0	160432128	54	5591
2026-01-22 01:09:46.32	324.99	26.22	-41.7	-45.3	12.9	5.79e-05	0	57	0	162529280	54	5603
2026-01-22 01:09:47.33	324.70	26.27	-41.7	-45.3	12.9	4.80e-05	0	57	0	164626432	54	5612
2026-01-22 01:09:48.34	324.41	26.33	-41.8	-45.3	12.8	6.33e-05	0	57	0	165675008	54	5649
2026-01-22 01:09:49.35	324.12	26.38	-41.7	-45.3	12.8	4.50e-05	0	57	0	167772160	54	5604
2026-01-22 01:09:50.36	323.83	26.44	-41.6	-45.0	13.1	4.34e-05	0	57	0	169869312	54	5441
2026-01-22 01:09:51.37	323.53	26.49	-41.6	-44.9	13.2	2.74e-05	0	57	0	171966464	54	5400
2026-01-22 01:09:52.38	323.24	26.54	-41.5	-44.9	13.3	1.75e-05	0	57	0	174063616	54	5351
2026-01-22 01:09:53.39	322.94	26.60	-41.6	-45.0	13.1	1.98e-05	0	57	0	176160768	54	5426
2026-01-22 01:09:54.40	322.64	26.65	-41.6	-45.1	13.1	2.82e-05	0	57	0	177209344	54	5478
2026-01-22 01:09:55.41	322.35	26.70	-41.7	-45.1	13.0	3.28e-05	0	57	0	179306496	54	5503
2026-01-22 01:09:56.41	322.05	26.75	-41.7	-45.2	12.9	2.89e-05	0	57	0	181403648	54	5551
2026-01-22 01:09:57.42	321.75	26.80	-41.7	-45.3	12.8	4.80e-05	0	57	0	183500800	54	5595
2026-01-22 01:09:58.43	321.45	26.84	-41.7	-45.3	12.9	5.49e-05	0	57	0	185597952	54	5603
2026-01-22 01:09:59.44	321.15	26.89	-41.7	-45.2	12.9	4.50e-05	0	57	0	186646528	54	5567
2026-01-22 01:10:00.45	320.85	26.94	-41.8	-45.3	12.8	5.41e-05	0	57	0	188743680	54	5649
2026-01-22 01:10:01.46	320.54	26.98	-41.8	-45.4	12.7	6.71e-05	0	57	0	190840832	54	5660
2026-01-22 01:10:02.47	320.24	27.03	-41.9	-45.6	12.6	8.77e-05	0	57	0	192937984	54	5790
2026-01-22 01:10:03.48	319.93	27.07	-42.0	-45.7	12.4	1.35e-04	0	57	0	195035136	54	5874
2026-01-22 01:10:04.49	319.63	27.12	-42.1	-46.0	12.2	1.94e-04	0	57	0	196083712	54	6070
2026-01-22 01:10:05.50	319.32	27.16	-42.2	-46.1	11.9	3.11e-04	0	57	0	198180864	54	6201
2026-01-22 01:10:06.51	319.01	27.20	-42.2	-46.3	11.8	3.92e-04	0	57	0	200278016	55	5924
2026-01-22 01:10:07.52	318.71	27.24	-42.3	-46.3	11.8	4.92e-04	0	57	0	202375168	55	5937
2026-01-22 01:10:08.53	318.40	27.28	-42.2	-46.3	11.8	4.58e-04	0	57	0	204472320	55	5965
2026-01-22 01:10:09.54	318.09	27.32	-42.2	-46.3	11.8	4.52e-04	0	57	0	205520896	55	5935
2026-01-22 01:10:10.54	317.78	27.36	-42.2	-46.2	11.8	4.32e-04	0	57	0	207618048	55	5915
2026-01-22 01:10:11.55	317.47	27.39	-42.3	-46.5	11.6	5.59e-04	0	57	0	209715200	55	6082
2026-01-22 01:10:12.56	317.16	27.43	-42.4	-46.5	11.5	7.17e-04	0	57	0	211812352	55	6120
2026-01-22 01:10:13.57	316.84	27.47	-42.4	-46.6	11.5	8.91e-04	0	57	0	213909504	55	6139
2026-01-22 01:10:14.58	316.53	27.50	-42.4	-46.5	11.5	8.92e-04	0	57	0	214958080	55	6125
2026-01-22 01:10:15.59	316.22	27.53	-42.3	-46.4	11.7	6.66e-04	0	57	0	217055232	55	6017
2026-01-22 01:10:16.60	315.90	27.57	-42.2	-46.1	12.0	5.35e-04	0	57	0	219152384	55	5799
2026-01-22 01:10:17.61	315.59	27.60	-42.1	-46.0	12.1	3.03e-04	0	57	0	221249536	55	5787
2026-01-22 01:10:18.62	315.27	27.63	-42.2	-46.1	11.9	3.19e-04	0	57	0	223346688	55	5836
2026-01-22 01:10:19.63	314.95	27.66	-42.3	-46.3	11.7	5.02e-04	0	57	0	224395264	55	5975
2026-01-22 01:10:20.64	314.64	27.69	-42.4	-46.5	11.6	6.84e-04	0	57	0	226492416	55	6077
2026-01-22 01:10:21.65	314.32	27.72	-42.4	-46.6	11.4	8.32e-04	0	57	0	228589568	55	6173
2026-01-22 01:10:22.65	314.00	27.74	-42.4	-46.6	11.5	8.26e-04	0	57	0	230686720	55	6186
2026-01-22 01:10:23.66	313.68	27.77	-42.4	-46.6	11.5	7.62e-04	0	57	0	232783872	55	6134
2026-01-22 01:10:24.67	313.36	27.80	-42.4	-46.5	11.5	7.62e-04	0	57	0	233832448	55	6117
2026-01-22 01:10:25.68	313.04	27.82	-42.4	-46.6	11.4	8.57e-04	0	57	0	235929600	55	6185
2026-01-22 01:10:26.69	312.72	27.84	-42.5	-46.8	11.2	1.30e-03	0	57	0	238026752	55	6331
2026-01-22 01:10:27.70	312.40	27.87	-42.6	-47.0	11.1	1.41e-03	0	57	0	240123904	55	6443
2026-01-22 01:10:28.71	312.08	27.89	-42.7	-47.2	10.8	2.25e-03	0	57	0	242221056	55	6606
2026-01-22 01:10:29.72	311.76	27.91	-42.9	-47.4	10.7	2.72e-03	0	57	0	244318208	56	6407
2026-01-22 01:10:30.73	311.44	27.93	-42.8	-47.4	10.8	2.37e-03	0	57	0	245366784	56	6371
2026-01-22 01:10:31.74	311.11	27.94	-42.8	-47.4	10.8	2.95e-03	0	57	0	247463936	56	6387
2026-01-22 01:10:32.75	310.79	27.96	-42.9	-47.4	10.7	2.41e-03	0	57	0	249561088	56	6415
2026-01-22 01:10:33.75	310.47	27.98	-42.9	-47.6	10.6	3.21e-03	0	57	0	251658240	56	6535
2026-01-22 01:10:34.76	310.15	27.99	-43.0	-47.6	10.5	3.61e-03	0	57	0	252706816	56	6568
2026-01-22 01:10:35.77	309.82	28.01	-42.9	-47.5	10.6	3.14e-03	0	57	0	254803968	56	6488
2026-01-22 01:10:36.78	309.50	28.02	-42.9	-47.5	10.7	3.00e-03	0	57	0	256901120	56	6453
2026-01-22 01:10:37.79	309.18	28.03	-42.9	-47.4	10.8	2.72e-03	0	58	0	258998272	56	6416
2026-01-22 01:10:38.80	308.85	28.05	-42.9	-47.4	10.8	2.61e-03	0	57	0	261095424	56	6407
2026-01-22 01:10:39.81	308.53	28.06	-42.8	-47.4	10.8	2.49e-03	0	57	0	262144000	56	6363
2026-01-22 01:10:40.82	308.20	28.06	-42.8	-47.4	10.8	2.52e-03	0	57	0	264241152	56	6381
2026-01-22 01:10:41.83	307.87	28.07	-42.7	-47.1	11.1	2.00e-03	0	57	0	266338304	56	6188
2026-01-22 01:10:42.84	307.55	28.08	-42.7	-47.1	11.1	1.47e-03	0	57	0	268435456	56	6173
2026-01-22 01:10:43.84	307.23	28.09	-42.8	-47.2	11.0	2.02e-03	0	57	0	270532608	56	6255
2026-01-22 01:10:44.85	306.90	28.09	-42.9	-47.5	10.7	2.07e-03	0	57	0	272629760	56	6436
2026-01-22 01:10:45.86	306.58	28.10	-43.0	-47.7	10.5	3.17e-03	0	57	0	273678336	56	6639
2026-01-22 01:10:46.87	306.25	28.10	-43.0	-47.8	10.4	4.07e-03	0	57	0	275775488	56	6658
2026-01-22 01:10:47.88	305.92	28.10	-43.0	-47.7	10.5	4.22e-03	0	57	0	277872640	56	6639
2026-01-22 01:10:48.89	305.60	28.10	-42.9	-47.5	10.7	3.70e-03	0	57	0	279969792	56	6448
2026-01-22 01:10:49.90	305.27	28.10	-42.8	-47.3	10.9	2.44e-03	0	57	0	282066944	56	6317
2026-01-22 01:10:50.91	304.94	28.10	-42.8	-47.2	11.0	2.05e-03	0	57	0	283115520	56	6250
2026-01-22 01:10:51.91	304.62	28.10	-42.8	-47.4	10.9	2.14e-03	0	57	0	285212672	56	6377
2026-01-22 01:10:52.92	304.30	28.10	-42.8	-47.2	11.1	1.99e-03	0	57	0	287309824	56	6246
2026-01-22 01:10:53.93	303.97	28.09	-42.7	-46.9	11.3	1.41e-03	0	57	0	289406976	56	6057
2026-01-22 01:10:54.94	303.64	28.09	-42.6	-46.9	11.3	1.11e-03	0	57	0	291504128	56	6020
2026-01-22 01:10:55.95	303.32	28.08	-42.6	-46.8	11.4	9.06e-04	0	57	0	292552704	56	5948
2026-01-22 01:10:56.96	302.99	28.07	-42.5	-46.7	11.6	8.51e-04	0	57	0	294649856	56	5882
2026-01-22 01:10:57.97	302.67	28.07	-42.5	-46.6	11.7	7.24e-04	0	58	0	296747008	56	5810
2026-01-22 01:10:58.98	302.34	28.06	-42.5	-46.5	11.8	5.33e-04	0	57	0	298844160	56	5743
2026-01-22 01:10:59.98	302.02	28.05	-42.4	-46.4	11.8	3.84e-04	0	57	0	300941312	56	5719
2026-01-22 01:11:00.99	301.69	28.03	-42.5	-46.5	11.7	5.36e-04	0	57	0	301989888	56	5770
2026-01-22 01:11:02.00	301.37	28.02	-42.4	-46.5	11.8	5.13e-04	0	57	0	304087040	56	5754
2026-01-22 01:11:03.02	301.04	28.01	-42.5	-46.6	11.7	5.78e-04	0	57	0	306184192	56	5811
2026-01-22 01:11:04.02	300.72	27.99	-42.5	-46.5	11.7	5.87e-04	0	57	0	308281344	56	5788
2026-01-22 01:11:05.03	300.40	27.98	-42.5	-46.6	11.7	5.68e-04	0	57	0	310378496	56	5807
2026-01-22 01:11:06.04	300.07	27.96	-42.5	-46.6	11.7	5.33e-04	0	57	0	311427072	56	5813
2026-01-22 01:11:07.05	299.75	27.95	-42.6	-46.8	11.5	6.55e-04	0	57	0	313524224	56	5945
2026-01-22 01:11:08.06	299.43	27.93	-42.5	-46.7	11.6	7.31e-04	0	57	0	315621376	56	5891
2026-01-22 01:11:09.07	299.10	27.91	-42.4	-46.5	11.7	5.52e-04	0	57	0	317718528	56	5765
2026-01-22 01:11:10.08	298.78	27.89	-42.4	-46.5	11.8	4.68e-04	0	57	0	319815680	56	5753
2026-01-22 01:11:11.09	298.46	27.87	-42.3	-46.1	12.2	3.05e-04	0	57	0	320864256	56	5488
2026-01-22 01:11:12.10	298.14	27.84	-42.2	-46.0	12.3	2.04e-04	0	57	0	322961408	56	5413
2026-01-22 01:11:13.10	297.82	27.82	-42.2	-45.9	12.4	1.59e-04	0	57	0	325058560	56	5365
2026-01-22 01:11:14.11	297.50	27.80	-42.1	-45.8	12.5	1.14e-04	0	57	0	327155712	56	5304
2026-01-22 01:11:15.12	297.18	27.77	-42.1	-45.8	12.5	1.01e-04	0	57	0	329252864	56	5326
2026-01-22 01:11:16.13	296.86	27.75	-42.0	-45.7	12.6	1.10e-04	0	57	0	330301440	56	5233
2026-01-22 01:11:17.14	296.54	27.72	-41.8	-45.4	12.8	6.48e-05	0	57	0	332398592	55	5348
2026-01-22 01:11:18.15	296.23	27.69	-41.8	-45.3	12.8	6.56e-05	0	57	0	334495744	55	5326
2026-01-22 01:11:19.16	295.91	27.66	-41.7	-45.3	12.9	5.64e-05	0	57	0	336592896	55	5286
2026-01-22 01:11:20.17	295.59	27.63	-41.8	-45.3	12.9	5.18e-05	0	57	0	338690048	55	5306
2026-01-22 01:11:21.18	295.27	27.60	-41.7	-45.2	13.0	5.56e-05	0	57	0	340787200	55	5247
2026-01-22 01:11:22.18	294.96	27.57	-41.7	-45.1	13.0	2.97e-05	0	57	0	341835776	55	5214
2026-01-22 01:11:23.20	294.64	27.54	-41.7	-45.1	13.0	2.59e-05	0	57	0	343932928	55	5204
2026-01-22 01:11:24.20	294.33	27.50	-41.7	-45.1	13.0	3.73e-05	0	57	0	346030080	55	5209
2026-01-22 01:11:25.21	294.02	27.47	-41.6	-45.1	13.1	4.11e-05	0	57	0	348127232	55	5178
2026-01-22 01:11:26.21	293.71	27.43	-41.6	-45.0	13.1	3.96e-05	0	57	0	350224384	55	5157
2026-01-22 01:11:27.22	293.39	27.40	-41.7	-45.2	13.0	3.73e-05	0	57	0	351272960	55	5251
2026-01-22 01:11:28.23	293.08	27.36	-41.7	-45.1	13.1	5.18e-05	0	57	0	353370112	55	5196
2026-01-22 01:11:29.24	292.77	27.32	-41.7	-45.2	13.0	3.73e-05	0	57	0	355467264	55	5263
2026-01-22 01:11:30.25	292.46	27.28	-41.7	-45.2	13.0	4.95e-05	0	57	0	357564416	55	5237
2026-01-22 01:11:31.26	292.15	27.24	-41.6	-45.1	13.1	4.11e-05	0	57	0	359661568	55	5174
2026-01-22 01:11:32.27	291.84	27.20	-41.7	-45.1	13.0	3.43e-05	0	57	0	360710144	55	5210
2026-01-22 01:11:33.28	291.53	27.16	-41.7	-45.2	13.0	3.66e-05	0	57	0	362807296	55	5238
2026-01-22 01:11:34.29	291.23	27.12	-41.6	-45.1	13.1	3.28e-05	0	57	0	364904448	55	5182
2026-01-22 01:11:35.30	290.92	27.07	-41.5	-44.8	13.3	2.67e-05	0	57	0	367001600	55	5032
2026-01-22 01:11:36.31	290.62	27.03	-41.5	-44.9	13.3	1.06e-05	0	57	0	369098752	55	5056
2026-01-22 01:11:37.32	290.31	26.99	-41.7	-45.1	13.0	3.58e-05	0	57	0	370147328	55	5209
2026-01-22 01:11:38.33	290.01	26.94	-41.7	-45.2	12.9	4.42e-05	0	57	0	372244480	55	5255
2026-01-22 01:11:39.34	289.70	26.89	-41.7	-45.3	12.9	5.41e-05	0	57	0	374341632	55	5280
2026-01-22 01:11:40.34	289.40	26.85	-41.8	-45.4	12.7	4.88e-05	0	57	0	376438784	55	5381
2026-01-22 01:11:41.35	289.10	26.80	-41.9	-45.5	12.6	7.47e-05	0	57	0	378535936	55	5458
2026-01-22 01:11:42.36	288.80	26.75	-41.9	-45.6	12.5	9.46e-05	0	57	0	379584512	55	5494
2026-01-22 01:11:43.37	288.50	26.70	-42.0	-45.8	12.4	1.78e-04	0	57	0	381681664	55	5596
2026-01-22 01:11:44.38	288.20	26.65	-42.0	-45.8	12.3	1.36e-04	0	57	0	383778816	55	5639
2026-01-22 01:11:45.39	287.91	26.60	-42.1	-45.9	12.2	2.10e-04	0	57	0	385875968	55	5674
2026-01-22 01:11:46.40	287.61	26.55	-42.0	-45.8	12.3	1.80e-04	0	57	0	387973120	55	5626
2026-01-22 01:11:47.41	287.32	26.49	-42.0	-45.8	12.3	1.58e-04	0	58	0	389021696	55	5630
2026-01-22 01:11:48.42	287.02	26.44	-42.1	-45.9	12.2	2.19e-04	0	58	0	391118848	55	5694
2026-01-22 01:11:49.43	286.73	26.39	-42.1	-46.0	12.1	2.30e-04	0	57	0	393216000	55	5725
2026-01-22 01:11:50.44	286.43	26.33	-42.2	-46.1	12.0	2.96e-04	0	57	0	395313152	55	5835
2026-01-22 01:11:51.45	286.14	26.27	-42.2	-46.2	11.9	3.74e-04	0	57	0	397410304	55	5885
2026-01-22 01:11:52.46	285.85	26.22	-42.3	-46.5	11.6	5.65e-04	0	57	0	398458880	55	6087
2026-01-22 01:11:53.47	285.56	26.16	-42.5	-46.8	11.3	9.35e-04	0	57	0	400556032	55	6279
2026-01-22 01:11:54.48	285.27	26.10	-42.5	-46.9	11.2	1.37e-03	0	57	0	402653184	55	6354
2026-01-22 01:11:55.49	284.99	26.05	-42.4	-46.7	11.3	1.24e-03	0	57	0	404750336	55	6248
2026-01-22 01:11:56.50	284.70	25.99	-42.4	-46.7	11.3	1.18e-03	0	57	0	406847488	55	6230
2026-01-22 01:11:57.51	284.42	25.93	-42.4	-46.7	11.4	1.11e-03	0	57	0	407896064	55	6232
2026-01-22 01:11:58.51	284.13	25.87	-42.4	-46.6	11.4	9.86e-04	0	57	0	409993216	55	6195
2026-01-22 01:11:59.52	283.85	25.81	-42.3	-46.5	11.5	7.72e-04	0	58	0	412090368	55	6098
2026-01-22 01:12:00.53	283.57	25.74	-42.3	-46.5	11.5	8.19e-04	0	58	0	414187520	55	6116
2026-01-22 01:12:01.54	283.29	25.68	-42.4	-46.7	11.4	9.89e-04	0	57	0	416284672	55	6209
2026-01-22 01:12:02.55	283.01	25.62	-42.5	-46.8	11.2	1.20e-03	0	57	0	417333248	55	6347
2026-01-22 01:12:03.56	282.73	25.56	-42.6	-47.1	10.9	1.55e-03	0	57	0	419430400	55	6536
2026-01-22 01:12:04.57	282.45	25.49	-42.7	-47.3	10.7	2.75e-03	0	57	0	421527552	55	6680
2026-01-22 01:12:05.58	282.18	25.43	-42.7	-47.3	10.7	3.44e-03	0	57	0	423624704	55	6681
2026-01-22 01:12:06.59	281.90	25.36	-42.7	-47.3	10.7	2.89e-03	0	57	0	425721856	55	6700
2026-01-22 01:12:07.59	281.63	25.30	-42.6	-47.2	10.7	2.93e-03	0	57	0	426770432	55	6636
2026-01-22 01:12:08.60	281.36	25.23	-42.6	-47.1	10.9	2.59e-03	0	57	0	428867584	55	6529
2026-01-22 01:12:09.61	281.08	25.16	-42.5	-46.9	11.1	1.75e-03	0	58	0	430964736	55	6373
2026-01-22 01:12:10.62	280.81	25.10	-42.5	-46.8	11.2	1.52e-03	0	58	0	433061888	55	6325
2026-01-22 01:12:11.63	280.54	25.03	-42.4	-46.7	11.3	1.22e-03	0	57	0	435159040	55	6223
2026-01-22 01:12:12.64	280.28	24.96	-42.4	-46.7	11.3	1.12e-03	0	57	0	437256192	55	6204
2026-01-22 01:12:13.65	280.01	24.89	-42.4	-46.6	11.4	1.21e-03	0	57	0	438304768	55	6168
2026-01-22 01:12:14.66	279.74	24.82	-42.4	-46.7	11.3	1.19e-03	0	57	0	440401920	55	6262
2026-01-22 01:12:15.67	279.48	24.75	-42.4	-46.8	11.2	1.33e-03	0	58	0	442499072	55	6301
2026-01-22 01:12:16.68	279.21	24.68	-42.5	-46.9	11.0	1.56e-03	0	57	0	444596224	55	6400
2026-01-22 01:12:17.69	278.95	24.61	-42.5	-46.9	11.1	1.64e-03	0	57	0	446693376	55	6393
2026-01-22 01:12:18.70	278.69	24.54	-42.5	-47.0	11.1	1.77e-03	0	57	0	447741952	55	6429
2026-01-22 01:12:19.71	278.43	24.47	-42.4	-46.8	11.2	1.78e-03	0	57	0	449839104	55	6298
2026-01-22 01:12:20.72	278.17	24.40	-42.3	-46.5	11.4	1.03e-03	0	57	0	451936256	55	6129
2026-01-22 01:12:21.73	277.91	24.32	-42.3	-46.4	11.6	8.97e-04	0	58	0	454033408	55	6044
2026-01-22 01:12:22.74	277.66	24.25	-42.3	-46.5	11.5	7.29e-04	0	58	0	456130560	55	6083
2026-01-22 01:12:23.74	277.40	24.18	-42.3	-46.4	11.6	7.32e-04	0	57	0	457179136	55	6020
2026-01-22 01:12:24.75	277.15	24.11	-42.2	-46.2	11.8	5.32e-04	0	57	0	459276288	55	5912
2026-01-22 01:12:25.76	276.90	24.03	-42.2	-46.4	11.7	6.00e-04	0	57	0	461373440	55	5996
2026-01-22 01:12:26.77	276.64	23.96	-42.2	-46.3	11.7	6.61e-04	0	57	0	463470592	55	5960
2026-01-22 01:12:27.78	276.39	23.88	-42.2	-46.3	11.7	6.19e-04	0	57	0	465567744	55	5972
2026-01-22 01:12:28.79	276.14	23.81	-42.2	-46.3	11.6	6.51e-04	0	57	0	466616320	55	5983
2026-01-22 01:12:29.80	275.90	23.73	-42.1	-46.2	11.8	4.26e-04	0	57	0	468713472	55	5883
2026-01-22 01:12:30.81	275.65	23.65	-42.1	-46.1	11.9	3.42e-04	0	57	0	470810624	55	5791
2026-01-22 01:12:31.82	275.40	23.58	-42.0	-45.9	12.1	2.59e-04	0	58	0	472907776	55	5673
2026-01-22 01:12:32.83	275.16	23.50	-41.9	-45.8	12.2	2.16e-04	0	57	0	475004928	55	5601
2026-01-22 01:12:33.84	274.92	23.42	-41.9	-45.8	12.2	2.04e-04	0	57	0	476053504	55	5612
2026-01-22 01:12:34.84	274.68	23.35	-42.0	-45.8	12.2	2.39e-04	0	57	0	478150656	55	5652
2026-01-22 01:12:35.85	274.44	23.27	-41.9	-45.7	12.3	1.88e-04	0	57	0	480247808	55	5566
2026-01-22 01:12:36.86	274.20	23.19	-41.9	-45.6	12.4	1.25e-04	0	57	0	482344960	55	5496
2026-01-22 01:12:37.87	273.96	23.11	-41.9	-45.6	12.4	1.50e-04	0	57	0	484442112	55	5519
2026-01-22 01:12:38.88	273.72	23.03	-41.9	-45.6	12.4	1.67e-04	0	57	0	485490688	55	5482
2026-01-22 01:12:39.89	273.48	22.96	-41.8	-45.6	12.5	1.46e-04	0	57	0	487587840	55	5471
2026-01-22 01:12:40.90	273.25	22.88	-41.8	-45.4	12.6	1.17e-04	0	57	0	489684992	55	5364
2026-01-22 01:12:41.91	273.01	22.80	-41.7	-45.2	12.8	6.86e-05	0	57	0	491782144	55	5274
2026-01-22 01:12:42.92	272.78	22.72	-41.6	-45.1	12.9	4.80e-05	0	57	0	493879296	55	5175
2026-01-22 01:12:43.93	272.55	22.64	-41.6	-45.0	13.0	4.50e-05	0	57	0	494927872	55	5145
2026-01-22 01:12:44.94	272.32	22.56	-41.6	-45.0	13.0	3.73e-05	0	58	0	497025024	55	5153
2026-01-22 01:12:45.95	272.09	22.48	-41.6	-45.0	13.0	4.34e-05	0	57	0	499122176	55	5152
2026-01-22 01:12:46.96	271.86	22.40	-41.6	-45.0	13.0	2.82e-05	0	57	0	501219328	55	5157
2026-01-22 01:12:47.97	271.64	22.32	-41.6	-45.1	12.9	4.57e-05	0	57	0	503316480	55	5188
2026-01-22 01:12:48.97	271.41	22.23	-41.6	-45.1	13.0	4.73e-05	0	57	0	505413632	55	5171
2026-01-22 01:12:49.98	271.19	22.15	-41.5	-45.0	13.0	3.81e-05	0	57	0	506462208	55	5138
2026-01-22 01:12:50.99	270.97	22.07	-41.6	-45.0	13.0	3.73e-05	0	57	0	508559360	55	5154
2026-01-22 01:12:52.00	270.74	21.99	-41.6	-45.1	12.9	4.73e-05	0	58	0	510656512	55	5209
2026-01-22 01:12:53.01	270.52	21.91	-41.6	-45.1	12.9	4.50e-05	0	57	0	512753664	55	5218
2026-01-22 01:12:54.02	270.30	21.83	-41.7	-45.3	12.7	4.65e-05	0	58	0	514850816	55	5319
2026-01-22 01:12:55.03	270.09	21.74	-41.7	-45.3	12.7	7.93e-05	0	57	0	515899392	55	5338
2026-01-22 01:12:56.04	269.87	21.66	-41.7	-45.3	12.7	9.07e-05	0	57	0	517996544	55	5283
2026-01-22 01:12:57.05	269.65	21.58	-41.6	-45.1	12.9	5.87e-05	0	57	0	520093696	55	5210
2026-01-22 01:12:58.06	269.44	21.50	-41.6	-45.2	12.8	4.95e-05	0	57	0	522190848	55	5237
2026-01-22 01:12:59.07	269.22	21.41	-41.6	-45.1	12.9	3.58e-05	0	58	0	524288000	55	5196
2026-01-22 01:13:00.08	269.01	21.33	-41.5	-45.0	13.0	3.89e-05	0	57	0	525336576	55	5112
2026-01-22 01:13:01.09	268.80	21.25	-41.5	-44.9	13.1	2.51e-05	0	57	0	527433728	55	5082
2026-01-22 01:13:02.10	268.59	21.16	-41.5	-44.9	13.2	3.35e-05	0	57	0	529530880	54	5363
2026-01-22 01:13:03.11	268.38	21.08	-41.4	-44.8	13.2	2.82e-05	0	58	0	531628032	54	5328
2026-01-22 01:13:04.12	268.17	21.00	-41.5	-44.9	13.1	2.59e-05	0	57	0	533725184	54	5355
2026-01-22 01:13:05.13	267.96	20.91	-41.3	-44.6	13.4	1.60e-05	0	58	0	534773760	54	5178
2026-01-22 01:13:06.14	267.76	20.83	-41.2	-44.4	13.6	1.29e-05	0	57	0	536870912	54	5087
2026-01-22 01:13:07.15	267.55	20.74	-41.2	-44.3	13.7	7.60e-06	0	58	0	538968064	54	5041
2026-01-22 01:13:08.16	267.35	20.66	-41.1	-44.3	13.7	5.30e-06	0	57	0	541065216	54	5030
2026-01-22 01:13:09.17	267.15	20.58	-41.2	-44.3	13.7	7.60e-06	0	58	0	543162368	54	5028
2026-01-22 01:13:10.18	266.95	20.49	-41.1	-44.3	13.7	6.10e-06	0	57	0	544210944	54	5003
2026-01-22 01:13:11.19	266.75	20.41	-41.1	-44.2	13.8	5.30e-06	0	57	0	546308096	54	4982
2026-01-22 01:13:12.19	266.55	20.32	-41.1	-44.2	13.8	6.10e-06	0	57	0	548405248	54	4981
2026-01-22 01:13:13.20	266.35	20.24	-41.1	-44.2	13.8	5.30e-06	0	57	0	550502400	54	4975
2026-01-22 01:13:14.21	266.16	20.15	-41.1	-44.3	13.7	5.30e-06	0	57	0	552599552	54	5036
2026-01-22 01:13:15.22	265.96	20.07	-41.1	-44.3	13.7	8.30e-06	0	57	0	553648128	54	4989
2026-01-22 01:13:16.23	265.76	19.98	-41.0	-44.1	13.9	4.50e-06	0	57	0	555745280	54	4912
2026-01-22 01:13:17.24	265.57	19.90	-41.0	-44.1	13.9	1.50e-06	0	58	0	557842432	54	4901
2026-01-22 01:13:18.25	265.38	19.81	-40.9	-44.0	14.0	4.50e-06	0	57	0	559939584	53	5116
2026-01-22 01:13:19.26	265.19	19.73	-40.8	-43.8	14.2	2.20e-06	0	58	0	562036736	53	5006
2026-01-22 01:13:20.27	265.00	19.64	-40.9	-43.9	14.1	0.00e+00	0	57	0	563085312	53	5047
2026-01-22 01:13:21.28	264.81	19.56	-40.8	-43.8	14.2	7.00e-07	0	57	0	565182464	53	5014
2026-01-22 01:13:22.29	264.62	19.47	-40.9	-43.9	14.1	7.00e-07	0	58	0	567279616	53	5070
2026-01-22 01:13:23.30	264.43	19.39	-41.0	-44.1	13.9	4.50e-06	0	57	0	569376768	53	5168
2026-01-22 01:13:24.31	264.25	19.30	-40.9	-44.0	14.0	2.20e-06	0	58	0	571473920	53	5102
2026-01-22 01:13:25.32	264.06	19.22	-40.8	-43.8	14.1	3.00e-06	0	57	0	573571072	53	5034
2026-01-22 01:13:26.33	263.88	19.13	-40.9	-43.9	14.1	7.00e-07	0	57	0	574619648	53	5047
2026-01-22 01:13:27.34	263.69	19.05	-40.8	-43.8	14.1	2.20e-06	0	57	0	576716800	53	5030
2026-01-22 01:13:28.35	263.51	18.96	-40.8	-43.8	14.2	1.50e-06	0	57	0	578813952	53	5000
2026-01-22 01:13:29.36	263.33	18.88	-40.7	-43.6	14.3	1.50e-06	0	58	0	580911104	53	4926
2026-01-22 01:13:30.37	263.15	18.79	-40.8	-43.7	14.2	7.00e-07	0	57	0	583008256	53	4980
2026-01-22 01:13:31.38	262.97	18.71	-40.8	-43.7	14.2	2.20e-06	0	58	0	584056832	53	4967
2026-01-22 01:13:32.39	262.79	18.62	-40.8	-43.8	14.2	3.80e-06	0	57	0	586153984	53	5010
2026-01-22 01:13:33.40	262.62	18.54	-40.8	-43.8	14.2	7.00e-07	0	57	0	588251136	53	5013
2026-01-22 01:13:34.41	262.44	18.45	-40.8	-43.8	14.2	3.00e-06	0	57	0	590348288	53	5013
2026-01-22 01:13:35.41	262.27	18.37	-40.9	-44.0	13.9	3.00e-06	0	57	0	592445440	53	5156
2026-01-22 01:13:36.42	262.09	18.28	-40.9	-44.0	14.0	1.50e-06	0	58	0	593494016	53	5139
2026-01-22 01:13:37.43	261.92	18.20	-41.0	-44.1	13.8	5.30e-06	0	57	0	595591168	53	5218
2026-01-22 01:13:38.44	261.75	18.11	-41.0	-44.2	13.7	3.80e-06	0	58	0	597688320	53	5236
2026-01-22 01:13:39.45	261.58	18.03	-41.0	-44.2	13.7	4.50e-06	0	58	0	599785472	53	5245
2026-01-22 01:13:40.46	261.41	17.94	-41.0	-44.2	13.7	5.30e-06	0	57	0	601882624	53	5264
2026-01-22 01:13:41.47	261.24	17.86	-41.0	-44.2	13.7	6.80e-06	0	57	0	602931200	53	5257
2026-01-22 01:13:42.48	261.07	17.77	-41.0	-44.2	13.7	4.50e-06	0	58	0	605028352	53	5248
2026-01-22 01:13:43.49	260.90	17.69	-41.0	-44.2	13.7	6.10e-06	0	57	0	607125504	53	5254
2026-01-22 01:13:44.50	260.74	17.60	-41.0	-44.2	13.7	7.60e-06	0	58	0	609222656	53	5243
2026-01-22 01:13:45.51	260.57	17.52	-41.0	-44.2	13.7	4.50e-06	0	57	0	611319808	53	5249
2026-01-22 01:13:46.52	260.41	17.43	-41.1	-44.3	13.6	6.80e-06	0	58	0	612368384	53	5328
2026-01-22 01:13:47.53	260.24	17.35	-41.1	-44.3	13.5	9.90e-06	0	57	0	614465536	53	5336
2026-01-22 01:13:48.54	260.08	17.26	-41.1	-44.4	13.5	1.06e-05	0	58	0	616562688	53	5367
2026-01-22 01:13:49.54	259.92	17.18	-41.1	-44.3	13.5	1.52e-05	0	58	0	618659840	53	5336
2026-01-22 01:13:50.55	259.76	17.10	-41.1	-44.4	13.5	7.60e-06	0	58	0	620756992	53	5345
2026-01-22 01:13:51.56	259.60	17.01	-41.2	-44.5	13.4	1.22e-05	0	58	0	621805568	53	5419
2026-01-22 01:13:52.57	259.44	16.93	-41.2	-44.6	13.3	2.28e-05	0	58	0	623902720	53	5479
2026-01-22 01:13:53.58	259.28	16.84	-41.2	-44.6	13.3	2.05e-05	0	57	0	625999872	53	5485
2026-01-22 01:13:54.59	259.12	16.76	-41.2	-44.6	13.2	2.05e-05	0	57	0	628097024	53	5519
2026-01-22 01:13:55.60	258.97	16.67	-41.3	-44.8	13.0	2.89e-05	0	57	0	630194176	53	5646
2026-01-22 01:13:56.61	258.81	16.59	-41.4	-45.0	12.9	5.34e-05	0	57	0	631242752	53	5726
2026-01-22 01:13:57.62	258.66	16.51	-41.5	-45.1	12.7	5.26e-05	0	57	0	633339904	53	5810
2026-01-22 01:13:58.62	258.51	16.42	-41.5	-45.2	12.6	7.70e-05	0	57	0	635437056	53	5879
2026-01-22 01:13:59.63	258.35	16.34	-41.5	-45.2	12.6	8.92e-05	0	57	0	637534208	53	5887
2026-01-22 01:14:00.64	258.20	16.25	-41.6	-45.3	12.5	1.16e-04	0	57	0	639631360	53	5963
2026-01-22 01:14:01.65	258.05	16.17	-41.6	-45.3	12.4	1.32e-04	0	57	0	640679936	53	5987
2026-01-22 01:14:02.66	257.90	16.09	-41.6	-45.3	12.4	1.18e-04	0	57	0	642777088	53	5988
2026-01-22 01:14:03.67	257.75	16.00	-41.6	-45.3	12.4	1.46e-04	0	57	0	644874240	53	5976
2026-01-22 01:14:04.68	257.60	15.92	-41.6	-45.4	12.4	1.27e-04	0	57	0	646971392	53	6015
2026-01-22 01:14:05.69	257.45	15.84	-41.6	-45.5	12.3	1.72e-04	0	57	0	649068544	53	6062
2026-01-22 01:14:06.70	257.31	15.75	-41.6	-45.2	12.5	1.42e-04	0	57	0	650117120	53	5915
2026-01-22 01:14:07.71	257.16	15.67	-41.5	-45.1	12.7	8.31e-05	0	58	0	652214272	53	5847
2026-01-22 01:14:08.71	257.02	15.59	-41.5	-45.1	12.7	8.92e-05	0	57	0	654311424	53	5816
2026-01-22 01:14:09.72	256.87	15.50	-41.5	-45.2	12.6	9.30e-05	0	58	0	656408576	53	5876
2026-01-22 01:14:10.73	256.73	15.42	-41.5	-45.2	12.6	1.18e-04	0	58	0	658505728	53	5891
2026-01-22 01:14:11.74	256.59	15.34	-41.6	-45.4	12.4	1.35e-04	0	57	0	659554304	53	6007
2026-01-22 01:14:12.75	256.45	15.26	-41.6	-45.5	12.3	2.03e-04	0	57	0	661651456	53	6070
2026-01-22 01:14:13.76	256.30	15.17	-41.7	-45.5	12.2	1.59e-04	0	57	0	663748608	53	6092
2026-01-22 01:14:14.77	256.16	15.09	-41.7	-45.6	12.2	2.33e-04	0	58	0	665845760	53	6139
2026-01-22 01:14:15.78	256.02	15.01	-41.7	-45.6	12.2	2.49e-04	0	58	0	667942912	54	5814
2026-01-22 01:14:16.79	255.89	14.93	-41.8	-45.7	12.1	2.51e-04	0	58	0	670040064	54	5866
2026-01-22 01:14:17.80	255.75	14.84	-41.7	-45.6	12.2	2.36e-04	0	58	0	671088640	54	5794
2026-01-22 01:14:18.81	255.61	14.76	-41.7	-45.5	12.2	2.43e-04	0	58	0	673185792	54	5745
2026-01-22 01:14:19.82	255.47	14.68	-41.7	-45.5	12.2	2.07e-04	0	58	0	675282944	54	5769
2026-01-22 01:14:20.83	255.34	14.60	-41.7	-45.6	12.1	2.65e-04	0	57	0	677380096	54	5843
2026-01-22 01:14:21.84	255.20	14.52	-41.8	-45.7	12.0	3.43e-04	0	58	0	679477248	54	5906
2026-01-22 01:14:22.84	255.07	14.44	-41.8	-45.7	12.0	3.89e-04	0	58	0	680525824	54	5920
2026-01-22 01:14:23.85	254.94	14.35	-41.9	-45.9	11.7	4.23e-04	0	58	0	682622976	54	6057
2026-01-22 01:14:24.86	254.80	14.27	-41.9	-46.0	11.7	6.31e-04	0	58	0	684720128	54	6099
2026-01-22 01:14:25.87	254.67	14.19	-41.9	-46.0	11.7	6.29e-04	0	57	0	686817280	54	6098
2026-01-22 01:14:26.88	254.54	14.11	-41.9	-46.1	11.5	6.26e-04	0	57	0	688914432	54	6185
2026-01-22 01:14:27.89	254.41	14.03	-42.0	-46.2	11.5	8.22e-04	0	58	0	689963008	54	6242
2026-01-22 01:14:28.90	254.28	13.95	-41.9	-46.0	11.6	6.59e-04	0	58	0	692060160	54	6111
2026-01-22 01:14:29.91	254.15	13.87	-41.9	-46.1	11.6	6.38e-04	0	58	0	694157312	54	6187
2026-01-22 01:14:30.91	254.02	13.79	-42.0	-46.2	11.5	8.00e-04	0	57	0	696254464	54	6208
2026-01-22 01:14:31.92	253.90	13.71	-42.0	-46.2	11.5	8.36e-04	0	57	0	698351616	54	6214
2026-01-22 01:14:32.93	253.77	13.63	-42.0	-46.2	11.4	8.41e-04	0	58	0	699400192	54	6255
2026-01-22 01:14:33.94	253.64	13.55	-42.0	-46.2	11.4	9.83e-04	0	57	0	701497344	54	6273
2026-01-22 01:14:34.95	253.52	13.47	-41.9	-46.1	11.6	7.71e-04	0	57	0	703594496	54	6139
2026-01-22 01:14:35.96	253.39	13.39	-41.9	-46.1	11.5	8.22e-04	0	57	0	705691648	54	6172
2026-01-22 01:14:36.97	253.27	13.31	-41.9	-46.1	11.6	8.78e-04	0	58	0	707788800	54	6151
2026-01-22 01:14:37.98	253.14	13.23	-41.8	-46.0	11.7	6.55e-04	0	58	0	708837376	54	6067
2026-01-22 01:14:38.99	253.02	13.15	-41.9	-46.1	11.5	7.65e-04	0	58	0	710934528	54	6195
2026-01-22 01:14:40.00	252.90	13.07	-42.0	-46.3	11.4	1.04e-03	0	57	0	713031680	54	6283
2026-01-22 01:14:41.01	252.78	12.99	-42.0	-46.2	11.4	9.52e-04	0	57	0	715128832	54	6244
2026-01-22 01:14:42.01	252.66	12.91	-42.0	-46.3	11.3	1.18e-03	0	57	0	717225984	54	6324
2026-01-22 01:14:43.02	252.54	12.83	-42.0	-46.3	11.3	1.26e-03	0	57	0	718274560	54	6308
2026-01-22 01:14:44.03	252.42	12.75	-42.0	-46.3	11.3	1.20e-03	0	57	0	720371712	54	6337
2026-01-22 01:14:45.04	252.30	12.67	-42.0	-46.3	11.3	1.10e-03	0	58	0	722468864	54	6284
2026-01-22 01:14:46.05	252.18	12.59	-42.0	-46.4	11.2	1.16e-03	0	57	0	724566016	54	6369
2026-01-22 01:14:47.06	252.06	12.51	-42.0	-46.3	11.3	1.27e-03	0	57	0	726663168	54	6287
2026-01-22 01:14:48.07	251.94	12.44	-42.0	-46.3	11.3	1.11e-03	0	58	0	727711744	54	6335
2026-01-22 01:14:49.08	251.83	12.36	-42.0	-46.3	11.3	1.25e-03	0	58	0	729808896	54	6283
2026-01-22 01:14:50.09	251.71	12.28	-42.0	-46.3	11.2	1.12e-03	0	58	0	731906048	54	6341
2026-01-22 01:14:51.09	251.60	12.20	-42.0	-46.4	11.1	1.43e-03	0	58	0	734003200	54	6414
2026-01-22 01:14:52.10	251.48	12.12	-42.0	-46.5	11.1	1.57e-03	0	58	0	736100352	54	6423
2026-01-22 01:14:53.11	251.37	12.05	-42.1	-46.5	11.0	1.68e-03	0	58	0	738197504	54	6478
2026-01-22 01:14:54.12	251.26	11.97	-42.1	-46.6	10.9	1.98e-03	0	58	0	739246080	54	6521
2026-01-22 01:14:55.13	251.14	11.89	-42.1	-46.7	10.8	2.29e-03	0	57	0	741343232	54	6614
2026-01-22 01:14:56.14	251.03	11.81	-42.2	-46.9	10.6	3.12e-03	0	57	0	743440384	54	6745
2026-01-22 01:14:57.15	250.92	11.74	-42.3	-47.1	10.4	4.23e-03	0	58	0	745537536	55	6527
2026-01-22 01:14:58.16	250.81	11.66	-42.3	-47.1	10.3	4.60e-03	0	58	0	747634688	55	6551
2026-01-22 01:14:59.17	250.70	11.58	-42.4	-47.3	10.1	5.97e-03	0	58	0	748683264	55	6689
2026-01-22 01:15:00.18	250.59	11.51	-42.4	-47.4	10.0	7.59e-03	0	58	0	750780416	55	6798
2026-01-22 01:15:01.18	250.48	11.43	-42.4	-47.6	9.8	8.87e-03	0	58	0	752877568	55	6909
2026-01-22 01:15:02.19	250.37	11.35	-42.3	-47.3	10.1	7.56e-03	0	58	0	754974720	55	6707
2026-01-22 01:15:03.20	250.26	11.28	-42.4	-47.3	10.1	6.46e-03	0	58	0	756023296	55	6710
2026-01-22 01:15:04.21	250.16	11.20	-42.4	-47.4	10.0	6.98e-03	0	58	0	758120448	55	6758
2026-01-22 01:15:05.22	250.05	11.12	-42.4	-47.4	10.1	7.30e-03	0	57	0	760217600	55	6728
2026-01-22 01:15:06.23	249.94	11.05	-42.3	-47.1	10.3	6.62e-03	0	58	0	762314752	55	6565
2026-01-22 01:15:07.24	249.84	10.97	-42.3	-47.3	10.1	5.88e-03	0	58	0	764411904	55	6691
2026-01-22 01:15:08.25	249.73	10.90	-42.3	-47.2	10.1	5.54e-03	0	57	0	766509056	55	6636
2026-01-22 01:15:09.26	249.63	10.82	-42.3	-47.3	10.1	6.53e-03	0	58	0	767557632	55	6705
2026-01-22 01:15:10.26	249.53	10.75	-42.4	-47.4	9.9	8.23e-03	0	58	0	769654784	55	6794
2026-01-22 01:15:11.27	249.42	10.67	-42.4	-47.6	9.7	9.46e-03	0	58	0	771751936	55	6926
2026-01-22 01:15:12.28	249.32	10.60	-42.4	-47.5	9.8	9.62e-03	0	58	0	773849088	55	6873
2026-01-22 01:15:13.29	249.22	10.52	-42.5	-47.7	9.6	1.19e-02	0	58	0	775946240	55	7018
2026-01-22 01:15:14.29	249.12	10.45	-42.5	-47.8	9.6	1.35e-02	0	58	0	776994816	55	7042
2026-01-22 01:15:15.30	249.01	10.37	-42.5	-47.9	9.5	1.32e-02	0	58	0	779091968	55	7133
2026-01-22 01:15:16.31	248.91	10.30	-42.5	-47.8	9.5	1.42e-02	0	57	0	781189120	55	7079
2026-01-22 01:15:17.32	248.81	10.22	-42.5	-47.8	9.6	1.29e-02	0	58	0	783286272	55	7046
2026-01-22 01:15:18.33	248.71	10.15	-42.5	-47.8	9.5	1.38e-02	0	57	0	785383424	55	7088
2026-01-22 01:15:19.34	248.61	10.07	-42.5	-47.9	9.5	1.47e-02	0	58	0	786432000	55	7127
2026-01-22 01:15:20.35	248.52	10.00	-42.4	-47.7	9.6	1.40e-02	0	57	0	788529152	55	7031
2026-01-22 01:15:21.36	248.42	9.93	-42.4	-47.8	9.5	1.36e-02	0	58	0	790626304	55	7067
2026-01-22 01:15:22.37	248.32	9.85	-42.4	-47.7	9.5	1.47e-02	0	58	0	792723456	55	7024
2026-01-22 01:15:23.38	248.22	9.78	-42.4	-47.6	9.7	1.19e-02	0	58	0	794820608	55	6914
2026-01-22 01:15:24.39	248.13	9.71	-42.3	-47.6	9.7	1.18e-02	0	58	0	795869184	55	6890
2026-01-22 01:15:25.40	248.03	9.63	-42.4	-47.6	9.7	1.23e-02	0	58	0	797966336	55	6914
2026-01-22 01:15:26.41	247.93	9.56	-42.3	-47.6	9.7	1.19e-02	0	58	0	800063488	55	6881
2026-01-22 01:15:27.42	247.84	9.49	-42.3	-47.5	9.8	1.03e-02	0	58	0	802160640	55	6817
2026-01-22 01:15:28.43	247.74	9.41	-42.4	-47.7	9.6	1.14e-02	0	57	0	804257792	55	6986
2026-01-22 01:15:29.44	247.65	9.34	-42.4	-47.8	9.4	1.40e-02	0	58	0	805306368	55	7107
2026-01-22 01:15:30.44	247.56	9.27	-42.4	-47.7	9.5	1.54e-02	0	58	0	807403520	55	7021
2026-01-22 01:15:31.45	247.46	9.19	-42.4	-47.9	9.4	1.46e-02	0	58	0	809500672	55	7146
2026-01-22 01:15:32.46	247.37	9.12	-42.5	-48.0	9.2	1.77e-02	0	58	0	811597824	55	7258
2026-01-22 01:15:33.47	247.28	9.05	-42.4	-47.9	9.2	1.99e-02	0	58	0	813694976	55	7190
2026-01-22 01:15:34.48	247.19	8.98	-42.5	-48.1	9.1	1.97e-02	0	57	0	814743552	55	7292
2026-01-22 01:15:35.49	247.09	8.91	-42.6	-48.3	8.9	2.38e-02	0	58	0	816840704	55	7513
2026-01-22 01:15:36.50	247.00	8.83	-42.5	-48.3	8.9	3.13e-02	0	58	0	818937856	55	7469
2026-01-22 01:15:37.51	246.91	8.76	-42.5	-48.1	9.1	2.02e-02	0	58	0	821035008	55	7294
2026-01-22 01:15:38.52	246.82	8.69	-42.5	-48.2	8.9	2.75e-02	0	58	0	823132160	55	7420
2026-01-22 01:15:39.53	246.73	8.62	-42.5	-48.1	9.0	2.40e-02	0	58	0	824180736	55	7349
2026-01-22 01:15:40.54	246.64	8.55	-42.5	-48.0	9.1	2.26e-02	0	58	0	826277888	55	7269
2026-01-22 01:15:41.55	246.55	8.48	-42.5	-48.3	8.9	2.39e-02	0	58	0	828375040	55	7485
2026-01-22 01:15:42.56	246.47	8.41	-42.4	-48.0	9.2	2.23e-02	0	58	0	830472192	55	7213
2026-01-22 01:15:43.57	246.38	8.33	-42.5	-48.1	9.0	2.82e-02	0	58	0	832569344	55	7330
2026-01-22 01:15:44.57	246.29	8.26	-42.4	-48.1	9.0	2.33e-02	0	58	0	834666496	55	7314
2026-01-22 01:15:45.58	246.20	8.19	-42.5	-48.2	8.9	2.79e-02	0	58	0	835715072	55	7426
2026-01-22 01:15:46.60	246.12	8.12	-42.5	-48.3	8.8	3.15e-02	0	58	0	837812224	55	7519
2026-01-22 01:15:47.60	246.03	8.05	-42.5	-48.3	8.7	3.21e-02	0	58	0	839909376	55	7539
2026-01-22 01:15:48.62	245.94	7.98	-44.0	-55.0	4.2	3.16e-02	92	58	0	842006528	58	13702
2026-01-22 01:15:49.63	245.86	7.91	-44.6	-59.1	3.8	1.49e+00	0	58	104	842006528	59	20718
2026-01-22 01:15:50.63	245.78	7.84	-44.8	-59.5	3.8	1.49e+00	0	58	104	842006528	60	20306
2026-01-22 01:15:51.65	245.69	7.77	-45.0	-59.6	3.8	1.49e+00	0	58	104	842006528	60	20651
2026-01-22 01:15:52.66	245.61	7.70	-45.1	-59.7	3.8	1.49e+00	0	58	104	842006528	60	20867
2026-01-22 01:15:53.66	245.52	7.63	-45.1	-59.8	3.8	1.49e+00	0	58	104	842006528	60	21175
2026-01-22 01:15:54.68	245.44	7.56	-45.2	-59.9	3.8	1.49e+00	0	58	104	842006528	60	21271
2026-01-22 01:15:55.69	245.36	7.49	-45.2	-59.9	3.8	1.49e+00	0	58	104	842006528	61	20175
2026-01-22 01:15:56.70	245.27	7.43	-45.3	-59.9	3.8	1.49e+00	0	58	104	842006528	61	20247
2026-01-22 01:15:57.71	245.19	7.36	-45.3	-59.9	3.8	1.49e+00	0	58	104	842006528	61	20200
2026-01-22 01:15:58.72	245.11	7.29	-45.3	-59.9	3.8	1.49e+00	0	58	104	842006528	61	20205
2026-01-22 01:15:59.73	245.03	7.22	-45.2	-59.8	3.8	1.49e+00	0	58	104	842006528	61	20036
2026-01-22 01:16:00.74	244.95	7.15	-45.2	-59.8	3.8	1.49e+00	0	58	104	842006528	61	19993
