passes_logs/2026/01/22/R2.0S_Moscow/R2.0S_Moscow__20260122_004334_SUOMI_NPP_rec.log

#Pass ID: 20260122_004334_SUOMI NPP
#Satellite: SUOMI NPP
#Configuration: NPP
#almurnet v.1.7.20251203
#Start time: 2026-01-22 00:43:34

#Version: 2.2.20231116
#Station: R2.0S_Moscow
#Location: 37.707566 lon 55.798166 lat
#TLE: 1 37849U 11061A   26021.51818991  .00000201  00000+0  11636-3 0  9995
#TLE: 2 37849  98.7819 323.5108 0002300  52.3548 307.7836 14.19527793737637

#Time	Az	El	Level	Level2	SNR	BER	BlckErr	Temp	State	Recorded	gain1	gain2
2026-01-22 00:43:34.15	12.44	1.99	-40.2	-54.8	3.8	1.49e+00	0	48	0	0	52	18840
2026-01-22 00:43:35.15	12.40	2.05	-40.2	-54.8	3.8	1.49e+00	0	48	104	0	52	18795
2026-01-22 00:43:36.17	12.36	2.11	-40.2	-54.8	3.8	1.49e+00	0	49	104	0	52	18777
2026-01-22 00:43:37.18	12.32	2.18	-40.2	-54.8	3.8	1.49e+00	0	49	104	0	52	18801
2026-01-22 00:43:38.19	12.28	2.24	-40.2	-54.8	3.8	1.49e+00	0	49	104	0	52	18841
2026-01-22 00:43:39.20	12.24	2.30	-40.2	-54.8	3.8	1.49e+00	0	49	104	0	52	18763
2026-01-22 00:43:40.21	12.21	2.36	-40.2	-54.8	3.8	1.49e+00	0	49	104	0	52	18795
2026-01-22 00:43:41.22	12.17	2.43	-40.2	-54.8	3.8	1.49e+00	0	49	104	0	52	18779
2026-01-22 00:43:42.23	12.13	2.49	-40.2	-54.8	3.8	1.49e+00	0	49	104	0	52	18842
2026-01-22 00:43:43.24	12.09	2.55	-40.2	-54.8	3.8	1.49e+00	0	49	104	0	52	18821
2026-01-22 00:43:44.25	12.05	2.62	-40.2	-54.8	3.8	1.49e+00	0	49	104	0	52	18767
2026-01-22 00:43:45.26	12.01	2.68	-40.2	-54.8	3.8	1.49e+00	0	49	104	0	52	18831
2026-01-22 00:43:46.27	11.97	2.74	-40.2	-54.8	3.8	1.49e+00	0	49	104	0	52	18766
2026-01-22 00:43:47.28	11.93	2.81	-40.2	-54.8	3.8	1.49e+00	0	49	104	0	52	18777
2026-01-22 00:43:48.29	11.89	2.87	-40.2	-54.8	3.8	1.49e+00	0	50	104	0	52	18792
2026-01-22 00:43:49.30	11.85	2.93	-40.2	-54.8	3.8	1.49e+00	0	50	104	0	52	18762
2026-01-22 00:43:50.31	11.81	3.00	-40.2	-54.8	3.8	1.49e+00	0	50	104	0	52	18741
2026-01-22 00:43:51.32	11.77	3.06	-40.2	-54.8	3.8	1.49e+00	0	50	104	0	52	18789
2026-01-22 00:43:52.33	11.73	3.13	-40.2	-54.8	3.8	1.49e+00	0	50	104	0	52	18734
2026-01-22 00:43:53.34	11.68	3.19	-40.2	-54.8	3.8	1.49e+00	0	50	104	0	52	18769
2026-01-22 00:43:54.35	11.64	3.25	-40.2	-54.8	3.8	1.49e+00	0	50	104	0	52	18735
2026-01-22 00:43:55.36	11.60	3.32	-40.2	-54.8	3.8	1.49e+00	0	50	104	0	52	18768
2026-01-22 00:43:56.37	11.56	3.38	-40.2	-54.8	3.8	1.49e+00	0	50	104	0	52	18752
2026-01-22 00:43:57.38	11.52	3.45	-40.2	-54.7	3.8	1.49e+00	0	50	104	0	52	18703
2026-01-22 00:43:58.39	11.47	3.51	-40.2	-54.7	3.8	1.49e+00	0	50	104	0	52	18667
2026-01-22 00:43:59.40	11.43	3.58	-40.2	-54.7	3.8	1.49e+00	0	50	104	0	52	18699
2026-01-22 00:44:00.41	11.39	3.64	-40.2	-54.7	3.8	1.49e+00	0	50	104	0	52	18729
2026-01-22 00:44:01.42	11.35	3.71	-40.2	-54.7	3.8	1.49e+00	0	50	104	0	52	18725
2026-01-22 00:44:02.43	11.30	3.77	-40.2	-54.8	3.8	1.49e+00	0	50	104	0	52	18743
2026-01-22 00:44:03.44	11.26	3.84	-40.2	-54.8	3.8	1.49e+00	0	50	104	0	52	18763
2026-01-22 00:44:04.45	11.22	3.91	-40.2	-54.8	3.8	1.49e+00	0	51	104	0	52	18818
2026-01-22 00:44:05.46	11.17	3.97	-40.2	-54.7	3.8	1.49e+00	0	51	104	0	52	18714
2026-01-22 00:44:06.47	11.13	4.04	-40.2	-54.7	3.8	1.49e+00	0	51	104	0	52	18709
2026-01-22 00:44:07.48	11.08	4.10	-40.2	-54.7	3.8	1.49e+00	0	51	104	0	52	18670
2026-01-22 00:44:08.49	11.04	4.17	-40.2	-54.8	3.8	1.49e+00	0	51	104	0	52	18746
2026-01-22 00:44:09.50	10.99	4.24	-40.2	-54.7	3.8	1.49e+00	0	51	104	0	52	18703
2026-01-22 00:44:10.51	10.95	4.30	-40.2	-54.8	3.8	1.49e+00	0	51	104	0	52	18761
2026-01-22 00:44:11.52	10.90	4.37	-40.2	-54.7	3.8	1.49e+00	0	51	104	0	52	18685
2026-01-22 00:44:12.53	10.86	4.44	-40.2	-54.7	3.8	1.49e+00	0	51	104	0	52	18632
2026-01-22 00:44:13.54	10.81	4.50	-40.2	-54.7	3.8	1.49e+00	0	51	104	0	52	18675
2026-01-22 00:44:14.55	10.77	4.57	-40.2	-54.7	3.8	1.49e+00	0	51	104	0	52	18655
2026-01-22 00:44:15.56	10.72	4.64	-40.2	-54.7	3.8	1.49e+00	0	51	104	0	52	18632
2026-01-22 00:44:16.57	10.68	4.71	-40.2	-54.7	3.8	1.49e+00	0	52	104	0	52	18692
2026-01-22 00:44:17.58	10.63	4.77	-40.2	-54.7	3.8	1.49e+00	0	51	104	0	52	18679
2026-01-22 00:44:18.59	10.58	4.84	-40.2	-54.7	3.8	1.49e+00	0	51	104	0	52	18634
2026-01-22 00:44:19.60	10.54	4.91	-40.2	-54.7	3.8	1.49e+00	0	51	104	0	52	18692
2026-01-22 00:44:20.61	10.49	4.98	-40.2	-54.8	3.8	1.49e+00	0	51	104	0	52	18752
2026-01-22 00:44:21.62	10.44	5.05	-40.2	-54.7	3.8	1.49e+00	0	52	104	0	52	18704
2026-01-22 00:44:22.63	10.39	5.11	-40.2	-54.7	3.8	1.49e+00	0	52	104	0	52	18704
2026-01-22 00:44:23.64	10.34	5.18	-40.2	-54.8	3.8	1.49e+00	0	52	104	0	52	18746
2026-01-22 00:44:24.65	10.30	5.25	-40.2	-54.7	3.8	1.49e+00	0	52	104	0	52	18681
2026-01-22 00:44:25.66	10.25	5.32	-40.2	-54.7	3.8	1.49e+00	0	52	104	0	52	18686
2026-01-22 00:44:26.67	10.20	5.39	-40.2	-54.7	3.8	1.49e+00	0	52	104	0	52	18722
2026-01-22 00:44:27.68	10.15	5.46	-40.2	-54.7	3.8	1.49e+00	0	52	104	0	52	18719
2026-01-22 00:44:28.70	10.10	5.53	-40.2	-54.8	3.8	1.49e+00	0	52	104	0	52	18733
2026-01-22 00:44:29.71	10.05	5.60	-40.2	-54.8	3.8	1.49e+00	0	52	104	0	52	18749
2026-01-22 00:44:30.72	10.00	5.67	-40.2	-54.8	3.8	1.49e+00	0	52	104	0	52	18755
2026-01-22 00:44:31.73	9.95	5.74	-40.2	-54.7	3.8	1.49e+00	0	52	104	0	52	18714
2026-01-22 00:44:32.74	9.90	5.81	-40.2	-54.8	3.8	1.49e+00	0	52	104	0	52	18757
2026-01-22 00:44:33.75	9.85	5.88	-40.2	-54.8	3.8	1.49e+00	0	52	104	0	52	18745
2026-01-22 00:44:34.76	9.80	5.95	-40.2	-54.8	3.8	1.49e+00	0	52	104	0	52	18758
2026-01-22 00:44:35.77	9.75	6.02	-40.2	-54.8	3.8	1.49e+00	0	52	104	0	52	18732
2026-01-22 00:44:36.78	9.70	6.09	-40.2	-54.7	3.8	1.49e+00	0	52	104	0	52	18731
2026-01-22 00:44:37.79	9.65	6.16	-40.2	-54.7	3.8	1.49e+00	0	52	104	0	52	18707
2026-01-22 00:44:38.80	9.59	6.23	-40.2	-54.8	3.8	1.49e+00	0	52	104	0	52	18741
2026-01-22 00:44:39.81	9.54	6.30	-40.2	-54.8	3.8	1.49e+00	0	52	104	0	52	18757
2026-01-22 00:44:40.82	9.49	6.38	-40.2	-54.8	3.8	1.49e+00	0	53	104	0	52	18750
2026-01-22 00:44:41.83	9.44	6.45	-40.2	-54.7	3.8	1.49e+00	0	52	104	0	52	18703
2026-01-22 00:44:42.84	9.38	6.52	-40.2	-54.8	3.8	1.49e+00	0	53	104	0	52	18744
2026-01-22 00:44:43.85	9.33	6.59	-40.2	-54.7	3.8	1.49e+00	0	53	104	0	52	18726
2026-01-22 00:44:44.86	9.28	6.66	-40.2	-54.7	3.8	1.49e+00	0	53	104	0	52	18727
2026-01-22 00:44:45.87	9.22	6.74	-40.2	-54.7	3.8	1.49e+00	0	53	104	0	52	18677
2026-01-22 00:44:46.88	9.17	6.81	-40.2	-54.7	3.8	1.49e+00	0	53	104	0	52	18707
2026-01-22 00:44:47.89	9.12	6.88	-40.2	-54.8	3.8	1.49e+00	0	53	104	0	52	18740
2026-01-22 00:44:48.90	9.06	6.95	-40.2	-54.7	3.8	1.49e+00	0	53	104	0	52	18730
2026-01-22 00:44:49.91	9.01	7.03	-40.2	-54.7	3.8	1.49e+00	0	53	104	0	52	18700
2026-01-22 00:44:50.92	8.95	7.10	-40.2	-54.7	3.8	1.49e+00	0	53	104	0	52	18694
2026-01-22 00:44:51.93	8.89	7.17	-40.2	-54.7	3.8	1.49e+00	0	53	104	0	52	18678
2026-01-22 00:44:52.94	8.84	7.25	-40.2	-54.7	3.8	1.49e+00	0	53	104	0	52	18680
2026-01-22 00:44:53.95	8.78	7.32	-40.2	-54.7	3.8	1.49e+00	0	53	104	0	52	18692
2026-01-22 00:44:54.96	8.73	7.39	-40.2	-54.7	3.8	1.49e+00	0	53	104	0	52	18705
2026-01-22 00:44:55.97	8.67	7.47	-40.2	-54.7	3.8	1.49e+00	0	53	104	0	52	18704
2026-01-22 00:44:56.98	8.61	7.54	-40.2	-54.7	3.8	1.49e+00	0	53	104	0	52	18693
2026-01-22 00:44:57.99	8.56	7.62	-40.2	-54.7	3.8	1.49e+00	0	53	104	0	52	18685
2026-01-22 00:44:59.00	8.50	7.69	-40.2	-54.8	3.8	1.49e+00	0	53	104	0	52	18742
2026-01-22 00:45:00.02	8.44	7.77	-40.2	-54.7	3.8	1.49e+00	0	53	104	0	52	18653
2026-01-22 00:45:01.02	8.38	7.84	-40.2	-54.7	3.8	1.49e+00	0	53	104	0	52	18709
2026-01-22 00:45:02.04	8.32	7.92	-40.2	-54.8	3.8	1.49e+00	0	53	104	0	52	18753
2026-01-22 00:45:03.05	8.26	7.99	-40.2	-54.7	3.8	1.49e+00	0	53	104	0	52	18702
2026-01-22 00:45:04.06	8.20	8.07	-40.2	-54.7	3.8	1.49e+00	0	53	104	0	52	18695
2026-01-22 00:45:05.07	8.14	8.14	-40.1	-54.6	3.8	1.49e+00	0	53	104	0	52	18492
2026-01-22 00:45:06.07	8.08	8.22	-40.2	-54.8	3.8	1.49e+00	0	53	104	0	52	18795
2026-01-22 00:45:07.08	8.02	8.30	-40.3	-54.9	3.8	1.49e+00	0	53	104	0	52	18961
2026-01-22 00:45:08.09	7.96	8.37	-40.4	-55.0	3.8	1.49e+00	0	53	104	0	52	19295
2026-01-22 00:45:09.10	7.90	8.45	-40.0	-54.6	3.8	1.49e+00	0	54	104	0	52	18484
2026-01-22 00:45:10.11	7.84	8.53	-40.2	-54.8	3.8	1.49e+00	0	53	104	0	52	18868
2026-01-22 00:45:11.12	7.78	8.60	-40.3	-54.8	3.8	1.49e+00	0	54	104	0	52	18932
2026-01-22 00:45:12.13	7.72	8.68	-40.3	-55.0	3.8	1.49e+00	0	53	104	0	52	19227
2026-01-22 00:45:13.14	7.66	8.76	-40.0	-54.6	3.8	1.49e+00	0	54	104	0	52	18493
2026-01-22 00:45:14.15	7.59	8.83	-40.2	-54.8	3.8	1.49e+00	0	54	104	0	52	18850
2026-01-22 00:45:15.16	7.53	8.91	-40.2	-54.7	3.8	1.49e+00	0	54	104	0	52	18713
2026-01-22 00:45:16.17	7.47	8.99	-40.3	-55.0	3.8	1.49e+00	0	54	104	0	52	19199
2026-01-22 00:45:17.18	7.40	9.07	-40.0	-54.6	3.8	1.49e+00	0	54	104	0	52	18449
2026-01-22 00:45:18.19	7.34	9.15	-40.3	-54.9	3.8	1.49e+00	0	54	104	0	52	18988
2026-01-22 00:45:19.20	7.27	9.23	-40.1	-54.7	3.8	1.49e+00	0	54	104	0	52	18647
2026-01-22 00:45:20.21	7.21	9.31	-40.4	-55.0	3.8	1.49e+00	0	54	104	0	52	19298
2026-01-22 00:45:21.21	7.14	9.38	-40.0	-54.6	3.8	1.49e+00	0	54	104	0	52	18421
2026-01-22 00:45:22.22	7.08	9.46	-40.3	-55.0	3.8	1.49e+00	0	54	104	0	52	19189
2026-01-22 00:45:23.23	7.01	9.54	-40.1	-54.7	3.8	1.49e+00	0	54	104	0	52	18591
2026-01-22 00:45:24.24	6.95	9.62	-40.5	-55.1	3.8	1.49e+00	0	54	104	0	52	19454
2026-01-22 00:45:25.25	6.88	9.70	-40.0	-54.6	3.8	1.49e+00	0	54	104	0	52	18372
2026-01-22 00:45:26.27	6.81	9.78	-40.1	-54.7	3.8	1.49e+00	0	54	104	0	51	19634
2026-01-22 00:45:27.27	6.74	9.86	-40.0	-54.6	3.8	1.49e+00	0	54	104	0	51	19600
2026-01-22 00:45:28.29	6.68	9.94	-40.0	-54.6	3.8	1.49e+00	0	54	104	0	51	19527
2026-01-22 00:45:29.29	6.61	10.02	-40.0	-54.6	3.8	1.49e+00	0	54	104	0	51	19519
2026-01-22 00:45:30.30	6.54	10.11	-40.2	-54.8	3.8	1.49e+00	0	54	104	0	51	19964
2026-01-22 00:45:31.31	6.47	10.19	-40.7	-55.4	3.8	1.49e+00	0	54	104	0	52	20079
2026-01-22 00:45:32.32	6.40	10.27	-40.3	-54.9	3.8	1.49e+00	0	54	104	0	52	19113
2026-01-22 00:45:33.33	6.33	10.35	-40.0	-54.6	3.8	1.49e+00	0	54	104	0	52	18415
2026-01-22 00:45:34.34	6.26	10.43	-40.2	-54.8	3.8	1.49e+00	0	54	104	0	52	18822
2026-01-22 00:45:35.35	6.19	10.51	-40.3	-54.8	3.8	1.49e+00	0	54	104	0	52	18814
2026-01-22 00:45:36.36	6.12	10.60	-40.4	-54.9	3.8	1.49e+00	0	54	104	0	52	18995
2026-01-22 00:45:37.37	6.05	10.68	-40.5	-55.0	3.8	1.49e+00	0	54	104	0	52	19282
2026-01-22 00:45:38.38	5.97	10.76	-40.4	-55.0	3.8	1.49e+00	0	54	104	0	52	19273
2026-01-22 00:45:39.39	5.90	10.85	-41.0	-55.5	3.8	1.49e+00	0	54	104	0	53	19374
2026-01-22 00:45:40.40	5.83	10.93	-40.5	-55.1	3.8	1.49e+00	0	54	104	0	53	18408
2026-01-22 00:45:41.41	5.75	11.01	-40.3	-54.8	3.8	1.49e+00	0	54	104	0	52	18883
2026-01-22 00:45:42.42	5.68	11.10	-40.4	-54.9	3.8	1.49e+00	0	54	104	0	52	19120
2026-01-22 00:45:43.43	5.61	11.18	-40.5	-55.0	3.8	1.49e+00	0	55	104	0	52	19174
2026-01-22 00:45:44.44	5.53	11.26	-40.5	-54.9	3.8	1.49e+00	0	55	104	0	52	19125
2026-01-22 00:45:45.45	5.46	11.35	-40.5	-55.0	3.8	1.49e+00	0	54	104	0	52	19358
2026-01-22 00:45:46.46	5.38	11.43	-40.8	-55.3	3.8	1.49e+00	0	55	104	0	52	19966
2026-01-22 00:45:47.47	5.30	11.52	-41.2	-54.2	3.8	1.49e+00	0	55	104	0	54	15739
2026-01-22 00:45:48.47	5.23	11.60	-40.6	-55.1	3.8	1.49e+00	0	55	104	0	53	18351
2026-01-22 00:45:49.48	5.15	11.69	-40.5	-54.8	3.8	1.49e+00	0	55	104	0	52	18853
2026-01-22 00:45:50.49	5.07	11.77	-40.5	-55.0	3.8	1.49e+00	0	55	104	0	52	19322
2026-01-22 00:45:51.50	5.00	11.86	-40.6	-55.0	3.8	1.49e+00	0	55	104	0	52	19336
2026-01-22 00:45:52.51	4.92	11.95	-40.7	-55.0	3.8	1.49e+00	0	55	104	0	52	19305
2026-01-22 00:45:53.52	4.84	12.03	-40.8	-54.9	3.8	1.49e+00	0	55	104	0	52	18973
2026-01-22 00:45:54.53	4.76	12.12	-41.1	-52.4	3.9	1.49e+00	0	55	104	0	52	14229
2026-01-22 00:45:55.54	4.68	12.21	-42.0	-52.2	4.6	1.28e+00	0	55	0	0	54	12488
2026-01-22 00:45:56.55	4.60	12.29	-41.8	-51.9	4.7	1.46e+00	0	55	104	1048576	54	11969
2026-01-22 00:45:57.56	4.52	12.38	-41.8	-53.2	3.9	1.49e+00	0	55	104	1048576	54	13953
2026-01-22 00:45:58.57	4.44	12.47	-41.7	-51.4	4.8	8.46e-01	0	55	0	1048576	54	11348
2026-01-22 00:45:59.58	4.35	12.56	-41.7	-51.2	4.9	7.94e-01	0	55	0	3145728	54	11117
2026-01-22 00:46:00.59	4.27	12.65	-41.7	-51.1	5.0	7.30e-01	0	55	0	5242880	54	10941
2026-01-22 00:46:01.59	4.19	12.73	-41.7	-51.2	4.9	7.41e-01	0	55	0	7340032	54	11140
2026-01-22 00:46:02.61	4.11	12.82	-41.8	-51.6	4.8	7.98e-01	0	55	0	9437184	54	11572
2026-01-22 00:46:03.62	4.02	12.91	-42.1	-51.1	5.2	8.32e-01	0	55	0	10485760	54	10972
2026-01-22 00:46:04.63	3.94	13.00	-42.4	-52.7	4.6	7.71e-01	0	55	0	12582912	55	12403
2026-01-22 00:46:05.63	3.85	13.09	-41.4	-54.3	3.8	1.39e+00	0	55	104	12582912	54	15800
2026-01-22 00:46:06.64	3.77	13.18	-41.6	-50.8	4.2	1.49e+00	0	55	104	12582912	54	10654
2026-01-22 00:46:07.65	3.68	13.27	-42.0	-52.6	4.5	4.29e-01	0	55	0	13631488	55	12275
2026-01-22 00:46:08.66	3.59	13.36	-41.6	-49.0	6.5	1.47e+00	0	55	104	13631488	55	8160
2026-01-22 00:46:09.67	3.51	13.45	-41.4	-47.5	8.4	6.39e-02	0	55	0	14680064	54	7225
2026-01-22 00:46:10.68	3.42	13.54	-41.4	-47.4	8.5	4.40e-02	0	55	0	16777216	54	7152
2026-01-22 00:46:11.69	3.33	13.63	-41.3	-46.9	9.0	2.96e-02	0	55	0	18874368	54	6761
2026-01-22 00:46:12.70	3.24	13.73	-41.2	-46.5	9.4	1.84e-02	0	55	0	20971520	54	6492
2026-01-22 00:46:13.71	3.15	13.82	-41.2	-46.5	9.5	1.74e-02	0	55	0	22020096	54	6458
2026-01-22 00:46:14.72	3.06	13.91	-41.1	-46.2	9.8	9.79e-03	0	55	0	24117248	54	6268
2026-01-22 00:46:15.72	2.97	14.00	-41.3	-46.7	9.3	1.09e-02	0	55	0	26214400	54	6604
2026-01-22 00:46:16.73	2.88	14.09	-41.4	-46.9	9.2	1.73e-02	0	55	0	28311552	54	6765
2026-01-22 00:46:17.74	2.79	14.19	-41.5	-47.4	8.6	3.13e-02	0	55	0	30408704	54	7167
2026-01-22 00:46:18.75	2.70	14.28	-41.6	-47.6	8.5	3.88e-02	0	55	0	31457280	54	7326
2026-01-22 00:46:19.76	2.60	14.37	-41.7	-47.8	8.3	4.19e-02	0	55	0	33554432	54	7491
2026-01-22 00:46:20.77	2.51	14.47	-41.8	-48.0	8.2	5.94e-02	0	55	0	35651584	54	7703
2026-01-22 00:46:21.78	2.41	14.56	-41.8	-47.7	8.6	5.21e-02	0	55	0	37748736	54	7403
2026-01-22 00:46:22.79	2.32	14.66	-41.5	-46.9	9.4	2.49e-02	0	55	0	39845888	54	6761
2026-01-22 00:46:23.80	2.22	14.75	-41.6	-46.9	9.4	1.52e-02	0	56	0	40894464	54	6796
2026-01-22 00:46:24.81	2.13	14.85	-41.7	-47.2	9.3	1.72e-02	0	56	0	42991616	54	6960
2026-01-22 00:46:25.82	2.03	14.94	-41.8	-47.3	9.2	1.72e-02	0	55	0	45088768	54	7045
2026-01-22 00:46:26.83	1.93	15.04	-41.9	-47.3	9.3	1.88e-02	0	56	0	47185920	54	7111
2026-01-22 00:46:27.84	1.84	15.13	-41.7	-46.7	10.0	1.10e-02	0	55	0	49283072	54	6615
2026-01-22 00:46:28.85	1.74	15.23	-41.7	-46.4	10.5	4.72e-03	0	56	0	50331648	54	6398
2026-01-22 00:46:29.86	1.64	15.32	-41.7	-46.6	10.3	4.10e-03	0	56	0	52428800	54	6535
2026-01-22 00:46:30.87	1.54	15.42	-41.7	-46.6	10.3	5.42e-03	0	56	0	54525952	54	6513
2026-01-22 00:46:31.88	1.44	15.52	-41.6	-46.2	10.8	3.43e-03	0	56	0	56623104	54	6220
2026-01-22 00:46:32.89	1.33	15.61	-41.7	-46.4	10.6	3.10e-03	0	56	0	58720256	54	6370
2026-01-22 00:46:33.90	1.23	15.71	-41.7	-46.4	10.6	2.91e-03	0	56	0	59768832	54	6379
2026-01-22 00:46:34.91	1.13	15.81	-41.7	-46.4	10.6	3.23e-03	0	56	0	61865984	54	6401
2026-01-22 00:46:35.92	1.03	15.91	-41.7	-46.3	10.7	3.39e-03	0	56	0	63963136	54	6343
2026-01-22 00:46:36.93	0.92	16.01	-41.6	-46.1	10.9	3.00e-03	0	56	0	66060288	54	6196
2026-01-22 00:46:37.93	0.82	16.10	-41.7	-46.3	10.8	2.82e-03	0	56	0	68157440	54	6293
2026-01-22 00:46:38.94	0.71	16.20	-41.8	-46.4	10.7	3.06e-03	0	56	0	69206016	54	6398
2026-01-22 00:46:39.95	0.61	16.30	-41.8	-46.5	10.6	3.53e-03	0	56	0	71303168	54	6461
2026-01-22 00:46:40.96	0.50	16.40	-41.8	-46.4	10.7	3.26e-03	0	56	0	73400320	54	6397
2026-01-22 00:46:41.97	0.39	16.50	-41.8	-46.6	10.5	3.26e-03	0	56	0	75497472	54	6502
2026-01-22 00:46:42.98	0.28	16.60	-41.9	-46.6	10.5	3.13e-03	0	56	0	77594624	54	6538
2026-01-22 00:46:43.99	0.17	16.70	-41.8	-46.5	10.6	3.40e-03	0	56	0	79691776	54	6456
2026-01-22 00:46:45.00	0.06	16.80	-41.8	-46.5	10.7	4.42e-03	0	56	0	80740352	54	6434
2026-01-22 00:46:46.01	359.95	16.90	-41.8	-46.5	10.7	3.90e-03	0	56	0	82837504	54	6446
2026-01-22 00:46:47.02	359.84	17.01	-41.8	-46.3	10.9	2.24e-03	0	56	0	84934656	54	6322
2026-01-22 00:46:48.03	359.73	17.11	-41.8	-46.5	10.7	2.25e-03	0	56	0	87031808	54	6426
2026-01-22 00:46:49.04	359.61	17.21	-42.0	-46.7	10.5	3.98e-03	0	56	0	89128960	54	6633
2026-01-22 00:46:50.05	359.50	17.31	-41.9	-46.5	10.6	3.34e-03	0	56	0	90177536	54	6483
2026-01-22 00:46:51.06	359.38	17.41	-41.9	-46.6	10.6	2.91e-03	0	56	0	92274688	54	6500
2026-01-22 00:46:52.07	359.27	17.52	-41.9	-46.6	10.6	3.18e-03	0	56	0	94371840	54	6496
2026-01-22 00:46:53.08	359.15	17.62	-41.8	-46.3	11.0	2.43e-03	0	56	0	96468992	54	6303
2026-01-22 00:46:54.09	359.03	17.72	-41.8	-46.5	10.8	2.47e-03	0	56	0	98566144	54	6426
2026-01-22 00:46:55.10	358.92	17.83	-41.9	-46.6	10.5	3.14e-03	0	56	0	99614720	54	6570
2026-01-22 00:46:56.11	358.80	17.93	-42.0	-46.8	10.5	3.22e-03	0	56	0	101711872	54	6654
2026-01-22 00:46:57.11	358.68	18.04	-41.9	-46.6	10.5	3.64e-03	0	56	0	103809024	54	6568
2026-01-22 00:46:58.12	358.56	18.14	-42.0	-46.9	10.2	5.69e-03	0	56	0	105906176	54	6767
2026-01-22 00:46:59.13	358.44	18.25	-41.9	-46.8	10.3	5.42e-03	0	56	0	108003328	54	6677
2026-01-22 00:47:00.14	358.31	18.35	-41.8	-46.6	10.4	4.25e-03	0	56	0	109051904	54	6511
2026-01-22 00:47:01.15	358.19	18.46	-41.7	-46.3	10.7	4.08e-03	0	56	0	111149056	54	6321
2026-01-22 00:47:02.16	358.07	18.56	-41.8	-46.6	10.3	4.55e-03	0	56	0	113246208	54	6542
2026-01-22 00:47:03.17	357.94	18.67	-41.8	-46.8	10.2	5.72e-03	0	56	0	115343360	54	6659
2026-01-22 00:47:04.18	357.82	18.78	-41.9	-47.0	9.9	7.07e-03	0	56	0	117440512	54	6830
2026-01-22 00:47:05.19	357.69	18.88	-41.6	-46.3	10.5	4.85e-03	0	56	0	118489088	54	6341
2026-01-22 00:47:06.20	357.56	18.99	-41.6	-46.3	10.5	3.75e-03	0	56	0	120586240	54	6314
2026-01-22 00:47:07.21	357.43	19.10	-41.5	-46.2	10.6	4.75e-03	0	56	0	122683392	54	6235
2026-01-22 00:47:08.22	357.30	19.21	-41.4	-46.1	10.6	3.40e-03	0	56	0	124780544	54	6166
2026-01-22 00:47:09.23	357.17	19.31	-41.3	-45.8	10.9	3.73e-03	0	56	0	126877696	54	5989
2026-01-22 00:47:10.24	357.04	19.42	-41.3	-45.9	10.8	2.48e-03	0	56	0	127926272	54	6007
2026-01-22 00:47:11.25	356.91	19.53	-41.3	-46.0	10.7	2.97e-03	0	56	0	130023424	54	6063
2026-01-22 00:47:12.26	356.77	19.64	-41.4	-46.3	10.3	3.35e-03	0	56	0	132120576	54	6306
2026-01-22 00:47:13.27	356.64	19.75	-41.6	-46.8	9.7	8.06e-03	0	56	0	134217728	54	6678
2026-01-22 00:47:14.28	356.50	19.86	-41.7	-47.3	9.1	1.83e-02	0	56	0	136314880	54	7103
2026-01-22 00:47:15.29	356.37	19.97	-41.8	-47.5	8.8	2.71e-02	0	56	0	137363456	54	7265
2026-01-22 00:47:16.30	356.23	20.08	-41.9	-48.0	8.4	4.04e-02	0	56	0	139460608	54	7644
2026-01-22 00:47:17.31	356.09	20.19	-41.9	-48.3	8.0	5.97e-02	0	56	0	141557760	54	7964
2026-01-22 00:47:18.31	355.95	20.30	-42.0	-48.4	7.9	7.23e-02	0	56	0	143654912	54	7996
2026-01-22 00:47:19.32	355.81	20.41	-42.0	-48.4	7.9	7.12e-02	0	56	0	145752064	54	8033
2026-01-22 00:47:20.33	355.67	20.53	-41.9	-48.2	8.1	6.17e-02	0	56	0	147849216	54	7861
2026-01-22 00:47:21.34	355.53	20.64	-41.9	-48.2	8.1	6.22e-02	0	56	0	148897792	54	7859
2026-01-22 00:47:22.35	355.38	20.75	-41.8	-47.9	8.4	5.89e-02	0	56	0	150994944	54	7561
2026-01-22 00:47:23.36	355.24	20.86	-41.7	-47.3	9.0	3.71e-02	0	56	0	153092096	54	7080
2026-01-22 00:47:24.37	355.09	20.98	-41.5	-47.0	9.4	1.92e-02	0	56	0	155189248	54	6819
2026-01-22 00:47:25.38	354.95	21.09	-41.4	-46.6	9.7	1.54e-02	0	56	0	157286400	54	6554
2026-01-22 00:47:26.39	354.80	21.20	-41.3	-46.3	10.0	7.36e-03	0	56	0	158334976	54	6297
2026-01-22 00:47:27.40	354.65	21.32	-41.3	-46.3	10.1	6.64e-03	0	56	0	160432128	54	6277
2026-01-22 00:47:28.41	354.50	21.43	-41.3	-46.4	10.0	6.06e-03	0	57	0	162529280	54	6348
2026-01-22 00:47:29.42	354.35	21.55	-41.4	-46.7	9.6	1.23e-02	0	56	0	164626432	54	6590
2026-01-22 00:47:30.43	354.19	21.66	-41.3	-46.3	10.0	1.17e-02	0	56	0	166723584	54	6281
2026-01-22 00:47:31.44	354.04	21.77	-41.5	-46.7	9.7	1.26e-02	0	56	0	167772160	54	6640
2026-01-22 00:47:32.45	353.88	21.89	-41.6	-47.0	9.4	1.36e-02	0	56	0	169869312	54	6838
2026-01-22 00:47:33.46	353.73	22.01	-41.5	-46.8	9.6	1.05e-02	0	56	0	171966464	54	6677
2026-01-22 00:47:34.47	353.57	22.12	-41.6	-46.9	9.6	1.07e-02	0	56	0	174063616	54	6759
2026-01-22 00:47:35.47	353.41	22.24	-41.7	-47.1	9.6	1.09e-02	0	56	0	176160768	54	6891
2026-01-22 00:47:36.48	353.25	22.35	-41.7	-46.9	9.8	9.92e-03	0	56	0	177209344	54	6751
2026-01-22 00:47:37.49	353.09	22.47	-41.9	-47.3	9.5	1.39e-02	0	56	0	179306496	54	7071
2026-01-22 00:47:38.51	352.93	22.59	-42.0	-47.5	9.3	2.02e-02	0	57	0	181403648	54	7230
2026-01-22 00:47:39.52	352.77	22.71	-42.2	-48.0	8.9	2.84e-02	0	56	0	183500800	54	7640
2026-01-22 00:47:40.52	352.60	22.82	-42.3	-47.8	9.2	2.44e-02	0	57	0	185597952	55	7107
2026-01-22 00:47:41.53	352.44	22.94	-42.1	-47.3	9.7	1.49e-02	0	56	0	186646528	55	6647
2026-01-22 00:47:42.54	352.27	23.06	-42.0	-46.8	10.4	6.09e-03	0	57	0	188743680	55	6335
2026-01-22 00:47:43.55	352.10	23.18	-42.2	-47.2	10.1	6.70e-03	0	57	0	190840832	55	6599
2026-01-22 00:47:44.56	351.93	23.30	-42.2	-47.2	10.1	5.01e-03	0	57	0	192937984	55	6624
2026-01-22 00:47:45.57	351.76	23.42	-42.3	-47.4	9.9	8.45e-03	0	56	0	195035136	55	6754
2026-01-22 00:47:46.58	351.59	23.54	-42.2	-47.1	10.3	8.14e-03	0	56	0	196083712	55	6566
2026-01-22 00:47:47.59	351.41	23.65	-42.3	-47.2	10.2	6.68e-03	0	56	0	198180864	55	6582
2026-01-22 00:47:48.60	351.24	23.77	-42.3	-47.2	10.1	6.18e-03	0	57	0	200278016	55	6619
2026-01-22 00:47:49.61	351.06	23.90	-42.4	-47.4	10.0	4.82e-03	0	57	0	202375168	55	6733
2026-01-22 00:47:50.62	350.88	24.02	-42.4	-47.3	10.1	8.28e-03	0	56	0	204472320	55	6700
2026-01-22 00:47:51.63	350.70	24.14	-42.2	-46.8	10.7	5.06e-03	0	56	0	205520896	55	6284
2026-01-22 00:47:52.64	350.52	24.26	-42.3	-47.0	10.5	5.45e-03	0	57	0	207618048	55	6469
2026-01-22 00:47:53.65	350.34	24.38	-42.1	-46.7	10.8	2.99e-03	0	57	0	209715200	55	6215
2026-01-22 00:47:54.65	350.16	24.50	-42.1	-46.7	10.8	2.15e-03	0	57	0	211812352	55	6205
2026-01-22 00:47:55.66	349.97	24.62	-42.1	-46.6	11.0	2.07e-03	0	56	0	213909504	55	6134
2026-01-22 00:47:56.67	349.79	24.74	-41.9	-46.1	11.4	1.23e-03	0	57	0	216006656	55	5830
2026-01-22 00:47:57.68	349.60	24.86	-41.9	-46.1	11.5	5.01e-04	0	57	0	217055232	55	5826
2026-01-22 00:47:58.69	349.41	24.99	-41.9	-45.9	11.7	6.44e-04	0	57	0	219152384	55	5694
2026-01-22 00:47:59.70	349.22	25.11	-41.6	-45.4	12.2	4.65e-04	0	57	0	221249536	55	5361
2026-01-22 00:48:00.71	349.02	25.23	-41.8	-45.8	11.8	5.11e-04	0	57	0	223346688	55	5639
2026-01-22 00:48:01.72	348.83	25.35	-42.0	-46.3	11.3	8.51e-04	0	57	0	225443840	55	5927
2026-01-22 00:48:02.73	348.63	25.48	-42.2	-46.6	11.0	9.22e-04	0	57	0	226492416	55	6135
2026-01-22 00:48:03.74	348.44	25.60	-42.2	-46.6	11.0	1.31e-03	0	56	0	228589568	55	6154
2026-01-22 00:48:04.75	348.24	25.73	-42.3	-46.8	10.9	2.43e-03	0	57	0	230686720	55	6293
2026-01-22 00:48:05.76	348.04	25.85	-42.5	-47.3	10.3	3.86e-03	0	57	0	232783872	55	6692
2026-01-22 00:48:06.77	347.83	25.97	-42.5	-47.3	10.3	4.52e-03	0	57	0	234881024	55	6721
2026-01-22 00:48:07.78	347.63	26.10	-42.4	-47.1	10.6	5.04e-03	0	57	0	235929600	55	6547
2026-01-22 00:48:08.79	347.43	26.22	-42.8	-47.7	10.1	7.40e-03	0	57	0	238026752	56	6628
2026-01-22 00:48:09.79	347.22	26.34	-42.9	-48.1	9.8	8.30e-03	0	57	0	240123904	56	6907
2026-01-22 00:48:10.80	347.01	26.47	-42.9	-47.9	10.0	6.65e-03	0	57	0	242221056	56	6782
2026-01-22 00:48:11.81	346.80	26.59	-42.9	-48.0	10.0	6.82e-03	0	57	0	244318208	56	6834
2026-01-22 00:48:12.82	346.59	26.72	-43.0	-48.2	9.9	8.82e-03	0	57	0	245366784	56	7010
2026-01-22 00:48:13.83	346.38	26.84	-43.1	-48.4	9.6	9.16e-03	0	57	0	247463936	56	7162
2026-01-22 00:48:14.84	346.16	26.97	-43.1	-48.3	9.7	1.08e-02	0	57	0	249561088	56	7076
2026-01-22 00:48:15.85	345.94	27.09	-43.0	-48.1	9.9	1.10e-02	0	57	0	251658240	56	6953
2026-01-22 00:48:16.86	345.72	27.22	-43.2	-48.6	9.5	1.58e-02	0	57	0	253755392	57	6880
2026-01-22 00:48:17.87	345.50	27.35	-43.3	-48.8	9.3	1.61e-02	0	57	0	254803968	57	7088
2026-01-22 00:48:18.87	345.28	27.47	-43.3	-48.9	9.1	2.00e-02	0	57	0	256901120	57	7187
2026-01-22 00:48:19.88	345.06	27.60	-43.5	-49.4	8.6	2.98e-02	0	57	0	258998272	57	7579
2026-01-22 00:48:20.89	344.83	27.72	-43.6	-49.7	8.3	3.86e-02	0	57	0	261095424	57	7875
2026-01-22 00:48:21.91	344.60	27.85	-43.5	-49.4	8.6	4.02e-02	0	57	0	263192576	57	7562
2026-01-22 00:48:22.91	344.38	27.97	-43.5	-49.3	8.8	4.23e-02	0	57	0	264241152	57	7521
2026-01-22 00:48:23.92	344.15	28.10	-43.5	-49.5	8.6	3.37e-02	0	57	0	266338304	57	7713
2026-01-22 00:48:24.93	343.91	28.23	-43.5	-49.4	8.6	3.97e-02	0	57	0	268435456	57	7609
2026-01-22 00:48:25.94	343.68	28.35	-43.5	-49.3	8.7	3.92e-02	0	57	0	270532608	57	7540
2026-01-22 00:48:26.95	343.44	28.48	-43.5	-49.3	8.8	2.69e-02	0	57	0	272629760	57	7522
2026-01-22 00:48:27.96	343.20	28.60	-43.6	-49.5	8.6	3.42e-02	0	57	0	273678336	57	7679
2026-01-22 00:48:28.97	342.96	28.73	-43.5	-49.2	9.0	4.11e-02	0	57	0	275775488	57	7373
2026-01-22 00:48:29.98	342.72	28.86	-43.6	-49.7	8.4	4.47e-02	0	57	0	277872640	57	7829
2026-01-22 00:48:30.99	342.47	28.98	-43.6	-49.5	8.6	3.80e-02	0	57	0	279969792	57	7660
2026-01-22 00:48:32.00	342.23	29.11	-43.5	-49.2	9.0	2.57e-02	0	57	0	282066944	57	7385
2026-01-22 00:48:33.01	341.98	29.24	-43.4	-48.8	9.4	2.61e-02	0	57	0	284164096	57	7057
2026-01-22 00:48:34.02	341.73	29.36	-43.3	-48.4	9.7	1.44e-02	0	57	0	285212672	57	6800
2026-01-22 00:48:35.03	341.47	29.49	-43.2	-48.3	9.8	9.61e-03	0	57	0	287309824	57	6714
2026-01-22 00:48:36.04	341.22	29.61	-43.0	-47.7	10.5	4.90e-03	0	57	0	289406976	57	6268
2026-01-22 00:48:37.04	340.97	29.74	-42.9	-47.5	10.9	3.68e-03	0	57	0	291504128	57	6065
2026-01-22 00:48:38.05	340.71	29.86	-42.9	-47.4	10.9	2.43e-03	0	57	0	292552704	57	6012
2026-01-22 00:48:39.06	340.45	29.99	-42.8	-47.3	10.9	1.80e-03	0	57	0	294649856	57	5987
2026-01-22 00:48:40.07	340.18	30.11	-42.9	-47.5	10.8	2.01e-03	0	57	0	296747008	57	6117
2026-01-22 00:48:41.08	339.92	30.24	-43.0	-47.7	10.6	3.24e-03	0	57	0	298844160	57	6218
2026-01-22 00:48:42.09	339.65	30.37	-43.2	-48.1	10.3	4.23e-03	0	57	0	300941312	57	6507
2026-01-22 00:48:43.10	339.38	30.49	-43.3	-48.3	9.8	6.80e-03	0	57	0	301989888	57	6712
2026-01-22 00:48:44.11	339.11	30.62	-43.5	-49.2	9.1	1.68e-02	0	57	0	304087040	57	7386
2026-01-22 00:48:45.12	338.84	30.74	-43.7	-49.6	8.6	2.31e-02	0	57	0	306184192	57	7754
2026-01-22 00:48:46.12	338.57	30.86	-43.5	-49.0	9.2	1.69e-02	0	57	0	308281344	57	7248
2026-01-22 00:48:47.13	338.29	30.99	-43.5	-49.0	9.3	1.76e-02	0	57	0	310378496	57	7208
2026-01-22 00:48:48.14	338.01	31.11	-43.3	-48.4	9.8	1.42e-02	0	57	0	312475648	57	6793
2026-01-22 00:48:49.15	337.73	31.24	-43.3	-48.4	9.9	8.17e-03	0	57	0	313524224	57	6745
2026-01-22 00:48:50.16	337.44	31.36	-43.2	-48.2	10.1	8.48e-03	0	57	0	315621376	57	6602
2026-01-22 00:48:51.17	337.16	31.48	-43.3	-48.4	9.8	6.88e-03	0	57	0	317718528	57	6774
2026-01-22 00:48:52.18	336.87	31.61	-43.5	-48.9	9.5	1.29e-02	0	57	0	319815680	57	7178
2026-01-22 00:48:53.19	336.58	31.73	-43.5	-48.9	9.3	1.94e-02	0	57	0	321912832	57	7143
2026-01-22 00:48:54.20	336.28	31.85	-43.4	-48.8	9.4	1.66e-02	0	57	0	322961408	57	7050
2026-01-22 00:48:55.21	335.99	31.97	-43.3	-48.5	9.7	9.70e-03	0	57	0	325058560	57	6827
2026-01-22 00:48:56.21	335.69	32.09	-43.2	-48.2	10.1	7.38e-03	0	57	0	327155712	57	6595
2026-01-22 00:48:57.22	335.39	32.21	-43.0	-47.6	10.7	4.39e-03	0	57	0	329252864	57	6170
2026-01-22 00:48:58.23	335.09	32.33	-43.0	-47.6	10.7	3.12e-03	0	57	0	331350016	57	6141
2026-01-22 00:48:59.24	334.79	32.46	-43.1	-47.8	10.5	4.01e-03	0	57	0	332398592	57	6291
2026-01-22 00:49:00.25	334.48	32.58	-43.2	-48.1	10.3	4.84e-03	0	57	0	334495744	57	6504
2026-01-22 00:49:01.26	334.17	32.69	-43.4	-48.6	9.7	6.08e-03	0	57	0	336592896	57	6910
2026-01-22 00:49:02.28	333.86	32.81	-43.2	-48.2	10.0	8.39e-03	0	57	0	338690048	57	6623
2026-01-22 00:49:03.28	333.55	32.93	-43.3	-48.4	9.9	7.51e-03	0	57	0	340787200	57	6731
2026-01-22 00:49:04.30	333.23	33.05	-43.3	-48.3	10.0	1.24e-02	0	57	0	341835776	57	6704
2026-01-22 00:49:05.30	332.92	33.17	-43.3	-48.5	9.8	1.02e-02	0	57	0	343932928	57	6811
2026-01-22 00:49:06.31	332.60	33.28	-43.4	-48.7	9.5	1.30e-02	0	57	0	346030080	57	6988
2026-01-22 00:49:07.32	332.27	33.40	-43.4	-48.7	9.5	1.29e-02	0	57	0	348127232	57	6993
2026-01-22 00:49:08.33	331.95	33.52	-43.3	-48.4	9.9	1.22e-02	0	57	0	350224384	57	6738
2026-01-22 00:49:09.34	331.62	33.63	-43.4	-48.7	9.6	1.34e-02	0	57	0	351272960	57	6985
2026-01-22 00:49:10.35	331.29	33.75	-43.4	-48.7	9.5	1.31e-02	0	57	0	353370112	57	7027
2026-01-22 00:49:11.36	330.96	33.86	-43.6	-49.2	9.1	2.14e-02	0	57	0	355467264	57	7391
2026-01-22 00:49:12.37	330.62	33.97	-43.8	-50.0	8.2	2.49e-02	0	57	0	357564416	58	7648
2026-01-22 00:49:13.38	330.29	34.09	-44.0	-50.6	7.7	9.30e-02	0	57	0	359661568	58	8197
2026-01-22 00:49:14.39	329.95	34.20	-44.3	-52.1	6.4	1.80e-01	0	57	0	360710144	59	9197
2026-01-22 00:49:15.40	329.61	34.31	-44.3	-51.8	6.5	2.92e-01	0	57	0	362807296	59	8906
2026-01-22 00:49:16.41	329.26	34.42	-44.3	-51.8	6.7	2.13e-01	0	57	0	364904448	59	8906
2026-01-22 00:49:17.42	328.92	34.53	-44.2	-51.3	7.0	2.82e-01	0	57	0	367001600	59	8432
2026-01-22 00:49:18.43	328.57	34.64	-44.1	-51.0	7.2	1.35e-01	0	57	0	369098752	59	8161
2026-01-22 00:49:19.44	328.22	34.74	-44.1	-51.3	7.0	4.60e-01	0	57	0	370147328	60	7973
2026-01-22 00:49:20.45	327.87	34.85	-44.7	-54.5	4.7	1.28e+00	0	57	0	372244480	60	11537
2026-01-22 00:49:21.45	327.51	34.96	-44.2	-52.0	4.6	1.48e+00	0	57	104	372244480	60	8628
2026-01-22 00:49:22.46	327.16	35.06	-44.8	-56.0	3.9	1.22e+00	0	57	104	372244480	60	13702
2026-01-22 00:49:23.47	326.80	35.17	-44.3	-52.0	6.4	3.48e-01	0	57	0	373293056	60	8617
2026-01-22 00:49:24.49	326.43	35.27	-44.1	-51.2	7.1	1.71e-01	0	57	0	374341632	60	7830
2026-01-22 00:49:25.50	326.06	35.37	-44.0	-50.4	7.8	8.96e-02	0	57	0	376438784	59	7617
2026-01-22 00:49:26.51	325.70	35.47	-43.6	-49.2	9.0	4.59e-02	0	57	0	378535936	59	6617
2026-01-22 00:49:27.52	325.33	35.57	-43.6	-49.1	9.1	2.80e-02	0	57	0	380633088	59	6540
2026-01-22 00:49:28.53	324.96	35.67	-43.6	-49.0	9.2	2.72e-02	0	57	0	382730240	59	6480
2026-01-22 00:49:29.54	324.58	35.77	-43.6	-49.3	9.0	2.26e-02	0	57	0	383778816	59	6655
2026-01-22 00:49:30.55	324.21	35.87	-43.8	-49.9	8.3	5.12e-02	0	57	0	385875968	59	7191
2026-01-22 00:49:31.56	323.83	35.96	-43.8	-49.7	8.5	3.55e-02	0	57	0	387973120	59	6988
2026-01-22 00:49:32.57	323.45	36.06	-43.8	-49.8	8.5	4.37e-02	0	57	0	390070272	59	7061
2026-01-22 00:49:33.58	323.06	36.15	-43.8	-49.9	8.3	7.15e-02	0	57	0	392167424	59	7142
2026-01-22 00:49:34.59	322.68	36.24	-43.8	-49.7	8.5	5.14e-02	0	57	0	393216000	59	7017
2026-01-22 00:49:35.60	322.29	36.33	-43.6	-49.1	9.1	3.22e-02	0	57	0	395313152	59	6544
2026-01-22 00:49:36.61	321.90	36.42	-43.4	-48.5	9.8	2.28e-02	0	57	0	397410304	58	6486
2026-01-22 00:49:37.62	321.51	36.51	-43.4	-48.4	9.9	1.21e-02	0	57	0	399507456	58	6396
2026-01-22 00:49:38.63	321.12	36.60	-43.4	-48.5	9.8	1.06e-02	0	57	0	401604608	58	6487
2026-01-22 00:49:39.64	320.72	36.69	-43.3	-48.4	9.9	1.20e-02	0	57	0	403701760	58	6370
2026-01-22 00:49:40.65	320.32	36.77	-43.2	-48.1	10.2	7.26e-03	0	57	0	404750336	58	6201
2026-01-22 00:49:41.66	319.92	36.85	-43.3	-48.3	10.0	8.38e-03	0	57	0	406847488	58	6330
2026-01-22 00:49:42.67	319.52	36.94	-43.3	-48.2	10.1	8.29e-03	0	57	0	408944640	58	6230
2026-01-22 00:49:43.68	319.12	37.02	-43.1	-47.8	10.5	6.13e-03	0	57	0	411041792	58	5972
2026-01-22 00:49:44.68	318.72	37.09	-43.0	-47.6	10.7	2.62e-03	0	57	0	413138944	57	6201
2026-01-22 00:49:45.69	318.31	37.17	-42.9	-47.3	11.1	1.70e-03	0	57	0	414187520	57	5930
2026-01-22 00:49:46.70	317.90	37.25	-42.8	-47.2	11.2	1.52e-03	0	57	0	416284672	57	5877
2026-01-22 00:49:47.71	317.49	37.32	-42.7	-46.8	11.6	9.32e-04	0	57	0	418381824	57	5648
2026-01-22 00:49:48.72	317.07	37.40	-42.6	-46.7	11.7	8.42e-04	0	57	0	420478976	57	5575
2026-01-22 00:49:49.73	316.66	37.47	-42.7	-47.0	11.3	1.57e-03	0	57	0	422576128	57	5733
2026-01-22 00:49:50.74	316.24	37.54	-42.7	-46.9	11.4	1.02e-03	0	57	0	423624704	57	5671
2026-01-22 00:49:51.75	315.82	37.61	-42.6	-46.7	11.7	6.76e-04	0	57	0	425721856	57	5540
2026-01-22 00:49:52.76	315.40	37.67	-42.3	-46.1	12.4	2.31e-04	0	57	0	427819008	56	5465
2026-01-22 00:49:53.77	314.98	37.74	-42.3	-46.2	12.2	2.10e-04	0	57	0	429916160	56	5533
2026-01-22 00:49:54.78	314.55	37.80	-42.4	-46.4	12.0	2.66e-04	0	57	0	432013312	56	5680
2026-01-22 00:49:55.79	314.12	37.86	-42.5	-46.5	11.9	6.26e-04	0	57	0	433061888	56	5754
2026-01-22 00:49:56.80	313.70	37.92	-42.4	-46.2	12.2	2.97e-04	0	57	0	435159040	56	5555
2026-01-22 00:49:57.81	313.27	37.98	-42.4	-46.2	12.3	1.84e-04	0	57	0	437256192	56	5569
2026-01-22 00:49:58.82	312.84	38.04	-42.7	-46.9	11.5	4.89e-04	0	57	0	439353344	56	6050
2026-01-22 00:49:59.83	312.40	38.09	-43.1	-48.0	10.3	2.36e-03	0	57	0	441450496	56	6816
2026-01-22 00:50:00.84	311.97	38.14	-43.2	-48.2	10.1	5.00e-03	0	57	0	442499072	57	6598
2026-01-22 00:50:01.85	311.54	38.20	-42.9	-47.5	10.9	3.37e-03	0	57	0	444596224	57	6104
2026-01-22 00:50:02.86	311.10	38.25	-42.5	-46.5	11.9	1.60e-03	0	57	0	446693376	57	5404
2026-01-22 00:50:03.87	310.66	38.29	-41.5	-44.6	13.6	1.20e-04	0	57	0	448790528	55	4908
2026-01-22 00:50:04.88	310.22	38.34	-40.8	-43.5	14.8	0.00e+00	0	57	0	450887680	53	4861
2026-01-22 00:50:05.89	309.78	38.38	-40.6	-43.2	15.1	0.00e+00	0	57	0	451936256	53	4677
2026-01-22 00:50:06.89	309.34	38.42	-41.0	-43.8	14.5	0.00e+00	0	57	0	454033408	53	5011
2026-01-22 00:50:07.90	308.90	38.46	-41.4	-44.5	13.8	3.00e-06	0	57	0	456130560	53	5428
2026-01-22 00:50:08.91	308.46	38.50	-41.6	-44.8	13.4	1.44e-05	0	57	0	458227712	54	5340
2026-01-22 00:50:09.92	308.01	38.54	-41.5	-44.6	13.7	1.44e-05	0	57	0	460324864	54	5198
2026-01-22 00:50:10.93	307.57	38.57	-41.3	-44.4	13.9	2.20e-06	0	57	0	461373440	54	5046
2026-01-22 00:50:11.94	307.12	38.60	-41.6	-44.8	13.5	8.30e-06	0	57	0	463470592	54	5320
2026-01-22 00:50:12.95	306.67	38.64	-41.9	-45.4	12.9	1.44e-05	0	57	0	465567744	54	5710
2026-01-22 00:50:13.96	306.23	38.66	-41.9	-45.4	12.9	2.89e-05	0	57	0	467664896	54	5663
2026-01-22 00:50:14.97	305.78	38.69	-41.9	-45.5	12.8	4.65e-05	0	57	0	469762048	54	5745
2026-01-22 00:50:15.98	305.33	38.71	-41.8	-45.3	13.0	3.50e-05	0	57	0	471859200	54	5634
2026-01-22 00:50:16.99	304.88	38.74	-41.9	-45.4	12.8	5.87e-05	0	57	0	472907776	54	5706
2026-01-22 00:50:18.00	304.42	38.76	-41.9	-45.5	12.7	6.25e-05	0	57	0	475004928	54	5747
2026-01-22 00:50:19.01	303.97	38.78	-41.9	-45.4	12.9	7.32e-05	0	57	0	477102080	54	5684
2026-01-22 00:50:20.02	303.52	38.79	-41.9	-45.5	12.8	4.50e-05	0	58	0	479199232	54	5758
2026-01-22 00:50:21.03	303.07	38.81	-42.2	-45.9	12.4	5.64e-05	0	57	0	481296384	54	6024
2026-01-22 00:50:22.04	302.62	38.82	-41.9	-45.4	12.9	5.03e-05	0	57	0	482344960	54	5660
2026-01-22 00:50:23.05	302.16	38.83	-41.8	-45.1	13.1	3.66e-05	0	57	0	484442112	54	5516
2026-01-22 00:50:24.06	301.71	38.84	-41.8	-45.1	13.2	2.21e-05	0	57	0	486539264	54	5501
2026-01-22 00:50:25.07	301.25	38.84	-41.7	-44.9	13.3	2.05e-05	0	57	0	488636416	54	5399
2026-01-22 00:50:26.08	300.80	38.85	-41.6	-44.9	13.3	9.90e-06	0	57	0	490733568	54	5373
2026-01-22 00:50:27.09	300.35	38.85	-41.6	-44.9	13.4	1.22e-05	0	57	0	491782144	54	5366
2026-01-22 00:50:28.10	299.89	38.85	-41.7	-45.1	13.2	1.90e-05	0	57	0	493879296	54	5467
2026-01-22 00:50:29.11	299.44	38.85	-42.3	-46.1	12.1	1.18e-04	0	57	0	495976448	55	5835
2026-01-22 00:50:30.12	298.98	38.85	-42.6	-46.9	11.2	6.51e-04	0	58	0	498073600	55	6396
2026-01-22 00:50:31.13	298.53	38.84	-42.8	-47.2	11.2	1.66e-03	0	57	0	500170752	56	6218
2026-01-22 00:50:32.14	298.08	38.83	-42.8	-47.1	11.3	9.38e-04	0	57	0	501219328	56	6168
2026-01-22 00:50:33.15	297.62	38.82	-42.8	-47.1	11.3	9.75e-04	0	57	0	503316480	56	6152
2026-01-22 00:50:34.16	297.17	38.81	-42.7	-47.0	11.6	1.10e-03	0	57	0	505413632	56	6076
2026-01-22 00:50:35.17	296.72	38.80	-42.9	-47.3	11.1	1.57e-03	0	57	0	507510784	56	6287
2026-01-22 00:50:36.17	296.27	38.78	-43.0	-47.5	10.8	2.14e-03	0	57	0	509607936	56	6476
2026-01-22 00:50:37.18	295.82	38.76	-43.0	-47.4	10.9	2.34e-03	0	57	0	510656512	56	6410
2026-01-22 00:50:38.19	295.37	38.74	-43.0	-47.4	10.9	2.55e-03	0	57	0	512753664	56	6409
2026-01-22 00:50:39.20	294.91	38.72	-43.1	-47.7	10.7	2.49e-03	0	57	0	514850816	56	6587
2026-01-22 00:50:40.21	294.46	38.69	-43.0	-47.6	10.7	2.14e-03	0	57	0	516947968	56	6552
2026-01-22 00:50:41.22	294.01	38.67	-43.0	-47.5	10.8	2.63e-03	0	57	0	519045120	56	6470
2026-01-22 00:50:42.23	293.57	38.64	-42.9	-47.4	10.7	3.06e-03	0	57	0	520093696	56	6405
2026-01-22 00:50:43.24	293.12	38.61	-42.9	-47.4	11.0	1.24e-03	0	57	0	522190848	56	6400
2026-01-22 00:50:44.25	292.67	38.58	-42.8	-47.0	11.4	1.01e-03	0	57	0	524288000	56	6083
2026-01-22 00:50:45.26	292.22	38.54	-43.0	-47.7	10.7	1.76e-03	0	57	0	526385152	56	6589
2026-01-22 00:50:46.27	291.78	38.51	-43.3	-48.2	10.0	6.07e-03	0	58	0	528482304	57	6634
2026-01-22 00:50:47.28	291.34	38.47	-43.5	-48.9	9.4	1.58e-02	0	57	0	529530880	57	7129
2026-01-22 00:50:48.29	290.89	38.43	-43.7	-49.5	8.8	2.85e-02	0	58	0	531628032	58	7269
2026-01-22 00:50:49.30	290.45	38.39	-43.9	-49.9	8.3	2.60e-02	0	57	0	533725184	58	7623
2026-01-22 00:50:50.31	290.01	38.34	-43.6	-49.2	9.1	2.96e-02	0	57	0	535822336	58	7026
2026-01-22 00:50:51.32	289.57	38.30	-43.7	-49.3	8.9	2.29e-02	0	57	0	537919488	58	7083
2026-01-22 00:50:52.33	289.13	38.25	-43.7	-49.4	8.8	2.61e-02	0	57	0	540016640	58	7134
2026-01-22 00:50:53.34	288.69	38.20	-43.7	-49.3	8.9	2.91e-02	0	57	0	541065216	58	7075
2026-01-22 00:50:54.35	288.26	38.15	-43.8	-49.7	8.6	2.74e-02	0	57	0	543162368	58	7387
2026-01-22 00:50:55.36	287.82	38.10	-43.7	-49.5	8.7	2.20e-02	0	57	0	545259520	58	7260
2026-01-22 00:50:56.37	287.39	38.04	-43.6	-49.0	9.3	4.62e-02	0	57	0	547356672	58	6849
2026-01-22 00:50:57.37	286.96	37.99	-43.6	-49.0	9.3	1.78e-02	0	57	0	549453824	58	6859
2026-01-22 00:50:58.38	286.53	37.93	-43.7	-49.4	8.9	2.12e-02	0	57	0	550502400	58	7126
2026-01-22 00:50:59.39	286.10	37.87	-43.7	-49.5	8.9	2.49e-02	0	57	0	552599552	58	7211
2026-01-22 00:51:00.40	285.68	37.81	-43.6	-49.2	9.0	2.55e-02	0	57	0	554696704	58	6989
2026-01-22 00:51:01.41	285.25	37.75	-43.6	-49.2	9.1	1.11e-02	0	57	0	556793856	58	7009
2026-01-22 00:51:02.42	284.83	37.68	-43.5	-48.8	9.4	2.06e-02	0	57	0	558891008	58	6717
2026-01-22 00:51:03.43	284.41	37.61	-43.7	-49.6	8.7	2.92e-02	0	57	0	559939584	58	7316
2026-01-22 00:51:04.44	283.99	37.55	-44.0	-50.7	7.6	7.60e-02	0	58	0	562036736	58	8291
2026-01-22 00:51:05.45	283.57	37.48	-44.2	-51.6	6.7	1.26e-01	0	57	0	564133888	59	8721
2026-01-22 00:51:06.46	283.15	37.41	-44.3	-51.9	6.4	3.00e-01	0	57	0	566231040	59	9026
2026-01-22 00:51:07.47	282.74	37.33	-44.3	-51.8	6.5	3.44e-01	0	57	0	568328192	59	8866
2026-01-22 00:51:08.48	282.32	37.26	-43.8	-49.9	8.3	1.37e-01	0	57	0	569376768	59	7122
2026-01-22 00:51:09.49	281.91	37.18	-43.4	-48.7	9.6	3.23e-02	0	57	0	571473920	58	6575
2026-01-22 00:51:10.50	281.50	37.10	-43.1	-47.9	10.4	5.46e-03	0	57	0	573571072	58	6036
2026-01-22 00:51:11.51	281.10	37.03	-42.9	-47.3	10.9	3.11e-03	0	58	0	575668224	57	5986
2026-01-22 00:51:12.52	280.69	36.95	-42.8	-47.2	11.2	2.99e-03	0	58	0	577765376	57	5863
2026-01-22 00:51:13.53	280.29	36.86	-42.7	-47.0	11.4	1.11e-03	0	57	0	578813952	57	5746
2026-01-22 00:51:14.54	279.89	36.78	-43.0	-47.6	10.8	4.88e-03	0	57	0	580911104	57	6148
2026-01-22 00:51:15.55	279.49	36.70	-43.4	-48.5	9.7	1.09e-02	0	58	0	583008256	57	6878
2026-01-22 00:51:16.56	279.09	36.61	-42.8	-47.2	11.1	3.75e-03	0	58	0	585105408	57	5872
2026-01-22 00:51:17.57	278.69	36.52	-42.0	-45.5	12.9	1.62e-04	0	58	0	587202560	56	5129
2026-01-22 00:51:18.58	278.30	36.43	-41.5	-44.7	13.6	2.21e-05	0	57	0	588251136	55	4948
2026-01-22 00:51:19.59	277.91	36.34	-41.6	-44.8	13.3	1.06e-05	0	58	0	590348288	54	5340
2026-01-22 00:51:20.60	277.52	36.25	-41.6	-44.9	13.3	2.89e-05	0	57	0	592445440	54	5379
2026-01-22 00:51:21.61	277.14	36.16	-41.6	-44.9	13.3	3.28e-05	0	57	0	594542592	54	5389
2026-01-22 00:51:22.62	276.75	36.07	-41.8	-45.2	13.1	2.36e-05	0	58	0	596639744	54	5575
2026-01-22 00:51:23.63	276.37	35.97	-42.1	-45.9	12.4	6.79e-05	0	58	0	597688320	54	5995
2026-01-22 00:51:24.63	275.99	35.88	-42.2	-46.1	12.1	1.98e-04	0	58	0	599785472	54	6147
2026-01-22 00:51:25.64	275.62	35.78	-42.3	-46.2	12.0	3.35e-04	0	58	0	601882624	55	5914
2026-01-22 00:51:26.65	275.24	35.68	-42.4	-46.5	11.7	5.23e-04	0	58	0	603979776	55	6103
2026-01-22 00:51:27.66	274.87	35.58	-42.6	-46.8	11.3	1.12e-03	0	57	0	606076928	55	6317
2026-01-22 00:51:28.67	274.50	35.48	-42.5	-46.7	11.4	1.01e-03	0	58	0	608174080	55	6257
2026-01-22 00:51:29.68	274.13	35.38	-42.3	-46.3	11.9	5.14e-04	0	57	0	609222656	55	5957
2026-01-22 00:51:30.69	273.76	35.28	-42.5	-46.6	11.5	5.07e-04	0	58	0	611319808	55	6199
2026-01-22 00:51:31.70	273.40	35.18	-42.7	-47.2	10.9	1.09e-03	0	57	0	613416960	55	6609
2026-01-22 00:51:32.71	273.04	35.07	-43.1	-47.9	10.4	4.88e-03	0	57	0	615514112	56	6739
2026-01-22 00:51:33.72	272.68	34.97	-43.0	-47.8	10.5	3.51e-03	0	58	0	617611264	56	6668
2026-01-22 00:51:34.73	272.32	34.86	-43.1	-47.9	10.3	4.04e-03	0	58	0	618659840	56	6787
2026-01-22 00:51:35.74	271.97	34.75	-43.0	-47.6	10.6	4.91e-03	0	58	0	620756992	56	6561
2026-01-22 00:51:36.75	271.62	34.65	-43.2	-48.1	10.2	5.04e-03	0	58	0	622854144	56	6913
2026-01-22 00:51:37.76	271.27	34.54	-42.8	-47.3	11.0	3.62e-03	0	57	0	624951296	56	6283
2026-01-22 00:51:38.77	270.92	34.43	-42.7	-47.0	11.3	1.22e-03	0	57	0	627048448	56	6127
2026-01-22 00:51:39.77	270.58	34.32	-42.4	-46.4	11.9	3.95e-04	0	57	0	628097024	56	5691
2026-01-22 00:51:40.78	270.23	34.21	-42.4	-46.4	12.0	3.58e-04	0	57	0	630194176	56	5692
2026-01-22 00:51:41.79	269.89	34.09	-42.3	-46.1	12.2	4.59e-04	0	58	0	632291328	56	5509
2026-01-22 00:51:42.80	269.56	33.98	-42.2	-45.8	12.5	1.49e-04	0	58	0	634388480	56	5313
2026-01-22 00:51:43.81	269.22	33.87	-42.1	-45.6	12.7	9.15e-05	0	58	0	636485632	56	5207
2026-01-22 00:51:44.82	268.89	33.75	-42.7	-46.9	11.4	2.30e-04	0	57	0	637534208	56	6025
2026-01-22 00:51:45.83	268.56	33.64	-42.9	-47.4	10.9	1.98e-03	0	58	0	639631360	56	6366
2026-01-22 00:51:46.84	268.23	33.52	-42.7	-46.9	11.3	1.20e-03	0	57	0	641728512	56	6042
2026-01-22 00:51:47.85	267.90	33.41	-42.1	-45.7	12.6	3.07e-04	0	58	0	643825664	56	5256
2026-01-22 00:51:48.86	267.58	33.29	-42.3	-46.1	12.3	8.46e-05	0	58	0	645922816	56	5518
2026-01-22 00:51:49.87	267.26	33.17	-42.5	-46.5	11.8	2.94e-04	0	57	0	646971392	56	5765
2026-01-22 00:51:50.88	266.94	33.06	-42.6	-46.8	11.5	5.40e-04	0	57	0	649068544	56	5941
2026-01-22 00:51:51.89	266.62	32.94	-42.6	-46.7	11.6	9.40e-04	0	57	0	651165696	56	5885
2026-01-22 00:51:52.90	266.30	32.82	-42.9	-47.3	10.9	1.54e-03	0	57	0	653262848	56	6341
2026-01-22 00:51:53.91	265.99	32.70	-42.9	-47.4	10.9	2.08e-03	0	58	0	655360000	56	6388
2026-01-22 00:51:54.92	265.68	32.58	-42.9	-47.5	10.8	2.52e-03	0	58	0	656408576	56	6457
2026-01-22 00:51:55.93	265.37	32.46	-42.8	-47.1	11.2	1.80e-03	0	57	0	658505728	56	6175
2026-01-22 00:51:56.94	265.07	32.34	-42.8	-47.1	11.2	8.46e-04	0	57	0	660602880	56	6182
2026-01-22 00:51:57.95	264.77	32.22	-42.9	-47.3	10.9	1.73e-03	0	58	0	662700032	56	6340
2026-01-22 00:51:58.96	264.46	32.10	-43.0	-47.8	10.5	2.91e-03	0	58	0	664797184	56	6703
2026-01-22 00:51:59.97	264.17	31.97	-43.3	-48.3	9.9	5.48e-03	0	58	0	665845760	57	6716
2026-01-22 00:52:00.98	263.87	31.85	-43.4	-48.9	9.3	1.16e-02	0	58	0	667942912	57	7141
2026-01-22 00:52:01.99	263.57	31.73	-43.3	-48.5	9.6	1.53e-02	0	57	0	670040064	57	6872
2026-01-22 00:52:03.00	263.28	31.61	-43.4	-48.8	9.4	1.06e-02	0	57	0	672137216	57	7101
2026-01-22 00:52:04.01	262.99	31.48	-43.6	-49.4	8.8	1.96e-02	0	57	0	674234368	57	7545
2026-01-22 00:52:05.02	262.71	31.36	-43.9	-50.6	7.6	5.59e-02	0	58	0	676331520	58	8210
2026-01-22 00:52:06.03	262.42	31.23	-44.0	-50.9	7.2	1.09e-01	0	58	0	677380096	58	8487
2026-01-22 00:52:07.04	262.14	31.11	-43.8	-50.0	8.1	7.66e-02	0	57	0	679477248	58	7712
2026-01-22 00:52:08.05	261.86	30.99	-43.6	-49.4	8.8	5.44e-02	0	57	0	681574400	58	7146
2026-01-22 00:52:09.06	261.58	30.86	-43.5	-49.1	9.1	2.54e-02	0	57	0	683671552	58	6885
2026-01-22 00:52:10.07	261.30	30.74	-43.6	-49.4	8.7	2.53e-02	0	58	0	685768704	58	7156
2026-01-22 00:52:11.08	261.03	30.61	-43.7	-49.6	8.5	2.96e-02	0	57	0	686817280	58	7335
2026-01-22 00:52:12.09	260.75	30.49	-43.6	-49.3	8.8	3.27e-02	0	58	0	688914432	58	7069
2026-01-22 00:52:13.10	260.48	30.36	-43.4	-48.8	9.4	1.42e-02	0	58	0	691011584	58	6652
2026-01-22 00:52:14.10	260.22	30.24	-43.1	-47.8	10.5	8.65e-03	0	57	0	693108736	58	5955
2026-01-22 00:52:15.11	259.95	30.11	-42.8	-47.4	10.8	2.91e-03	0	57	0	695205888	57	6005
2026-01-22 00:52:16.12	259.69	29.98	-42.9	-47.6	10.6	2.25e-03	0	58	0	696254464	57	6141
2026-01-22 00:52:17.13	259.42	29.86	-42.7	-47.0	11.2	1.94e-03	0	57	0	698351616	57	5774
2026-01-22 00:52:18.14	259.16	29.73	-42.8	-47.2	11.1	1.45e-03	0	57	0	700448768	57	5864
2026-01-22 00:52:19.15	258.91	29.61	-42.5	-46.6	11.7	8.73e-04	0	58	0	702545920	57	5488
2026-01-22 00:52:20.16	258.65	29.48	-42.4	-46.3	11.9	3.65e-04	0	57	0	704643072	56	5651
2026-01-22 00:52:21.17	258.40	29.35	-42.4	-46.4	11.8	2.63e-04	0	57	0	705691648	56	5691
2026-01-22 00:52:22.18	258.15	29.23	-42.7	-47.0	11.2	6.96e-04	0	58	0	707788800	56	6115
2026-01-22 00:52:23.19	257.90	29.10	-42.8	-47.3	11.0	1.21e-03	0	57	0	709885952	56	6278
2026-01-22 00:52:24.20	257.65	28.97	-42.9	-47.6	10.7	1.71e-03	0	57	0	711983104	56	6496
2026-01-22 00:52:25.21	257.40	28.85	-43.0	-47.9	10.3	3.88e-03	0	58	0	714080256	56	6746
2026-01-22 00:52:26.22	257.16	28.72	-43.1	-48.1	10.1	5.52e-03	0	58	0	715128832	56	6911
2026-01-22 00:52:27.23	256.92	28.59	-43.1	-48.1	10.1	7.67e-03	0	57	0	717225984	56	6929
2026-01-22 00:52:28.24	256.68	28.47	-43.1	-48.0	10.1	7.33e-03	0	57	0	719323136	56	6848
2026-01-22 00:52:29.25	256.44	28.34	-43.0	-47.7	10.5	5.06e-03	0	57	0	721420288	56	6634
2026-01-22 00:52:30.26	256.20	28.21	-42.6	-46.9	11.3	2.77e-03	0	58	0	723517440	56	6018
2026-01-22 00:52:31.27	255.97	28.09	-42.5	-46.6	11.7	6.16e-04	0	57	0	724566016	56	5818
2026-01-22 00:52:32.27	255.74	27.96	-42.4	-46.5	11.7	5.84e-04	0	58	0	726663168	56	5768
2026-01-22 00:52:33.28	255.51	27.83	-42.6	-46.9	11.3	8.61e-04	0	58	0	728760320	56	6032
2026-01-22 00:52:34.29	255.28	27.71	-42.6	-46.8	11.4	1.20e-03	0	58	0	730857472	56	5959
2026-01-22 00:52:35.30	255.05	27.58	-42.7	-47.1	11.1	1.71e-03	0	58	0	732954624	56	6185
2026-01-22 00:52:36.32	254.82	27.45	-42.6	-46.8	11.4	1.38e-03	0	58	0	734003200	56	5975
2026-01-22 00:52:37.33	254.60	27.33	-42.4	-46.4	11.8	8.53e-04	0	57	0	736100352	56	5719
2026-01-22 00:52:38.34	254.38	27.20	-42.1	-45.8	12.5	1.24e-04	0	57	0	738197504	56	5291
2026-01-22 00:52:39.35	254.16	27.08	-41.9	-45.5	12.6	8.16e-05	0	58	0	740294656	55	5434
2026-01-22 00:52:40.36	253.94	26.95	-41.9	-45.5	12.6	9.84e-05	0	57	0	742391808	55	5447
2026-01-22 00:52:41.37	253.72	26.82	-41.8	-45.4	12.7	1.03e-04	0	58	0	744488960	55	5381
2026-01-22 00:52:42.37	253.51	26.70	-41.8	-45.3	12.8	1.02e-04	0	58	0	745537536	55	5340
2026-01-22 00:52:43.38	253.30	26.57	-41.9	-45.7	12.4	8.39e-05	0	57	0	747634688	55	5530
2026-01-22 00:52:44.39	253.08	26.45	-42.0	-45.7	12.3	1.62e-04	0	57	0	749731840	55	5576
2026-01-22 00:52:45.40	252.87	26.32	-41.9	-45.7	12.4	1.13e-04	0	57	0	751828992	55	5559
2026-01-22 00:52:46.41	252.67	26.20	-42.2	-46.2	11.8	2.28e-04	0	58	0	753926144	55	5912
2026-01-22 00:52:47.42	252.46	26.07	-42.3	-46.5	11.6	6.24e-04	0	58	0	754974720	55	6080
2026-01-22 00:52:48.43	252.25	25.95	-42.4	-46.8	11.2	1.13e-03	0	58	0	757071872	55	6329
2026-01-22 00:52:49.44	252.05	25.82	-42.4	-46.7	11.3	9.94e-04	0	58	0	759169024	55	6228
2026-01-22 00:52:50.45	251.85	25.70	-42.4	-46.7	11.3	7.61e-04	0	58	0	761266176	55	6261
2026-01-22 00:52:51.46	251.65	25.58	-42.4	-46.6	11.4	1.25e-03	0	58	0	763363328	55	6186
2026-01-22 00:52:52.47	251.45	25.45	-42.3	-46.5	11.5	8.12e-04	0	57	0	764411904	55	6124
2026-01-22 00:52:53.48	251.25	25.33	-42.1	-46.1	12.0	6.96e-04	0	58	0	766509056	55	5840
2026-01-22 00:52:54.49	251.06	25.21	-42.2	-46.3	11.7	6.99e-04	0	57	0	768606208	55	5949
2026-01-22 00:52:55.50	250.86	25.08	-42.2	-46.4	11.6	6.27e-04	0	58	0	770703360	55	5999
2026-01-22 00:52:56.51	250.67	24.96	-42.1	-46.1	11.9	3.02e-04	0	58	0	772800512	55	5820
2026-01-22 00:52:57.52	250.48	24.84	-42.1	-46.1	11.9	3.79e-04	0	58	0	773849088	55	5849
2026-01-22 00:52:58.53	250.29	24.71	-41.9	-45.7	12.4	2.39e-04	0	58	0	775946240	55	5536
2026-01-22 00:52:59.54	250.10	24.59	-41.8	-45.6	12.5	1.94e-04	0	58	0	778043392	55	5467
2026-01-22 00:53:00.55	249.92	24.47	-41.8	-45.5	12.6	1.17e-04	0	57	0	780140544	55	5445
2026-01-22 00:53:01.56	249.73	24.35	-42.0	-45.8	12.2	1.49e-04	0	58	0	782237696	55	5608
2026-01-22 00:53:02.57	249.55	24.22	-41.8	-45.4	12.6	1.01e-04	0	57	0	783286272	55	5381
2026-01-22 00:53:03.58	249.37	24.10	-42.0	-46.0	12.2	1.79e-04	0	58	0	785383424	55	5730
2026-01-22 00:53:04.59	249.19	23.98	-42.0	-45.8	12.2	2.32e-04	0	58	0	787480576	55	5630
2026-01-22 00:53:05.60	249.01	23.86	-42.1	-46.0	12.0	2.35e-04	0	58	0	789577728	55	5723
2026-01-22 00:53:06.61	248.83	23.74	-41.8	-45.5	12.5	1.52e-04	0	58	0	791674880	55	5448
2026-01-22 00:53:07.62	248.65	23.62	-42.1	-45.9	12.1	2.53e-04	0	58	0	792723456	55	5708
2026-01-22 00:53:08.63	248.48	23.50	-42.0	-45.9	12.1	2.55e-04	0	57	0	794820608	55	5700
2026-01-22 00:53:09.64	248.30	23.38	-41.9	-45.5	12.5	1.54e-04	0	58	0	796917760	55	5450
2026-01-22 00:53:10.65	248.13	23.26	-41.9	-45.6	12.4	1.53e-04	0	58	0	799014912	55	5527
2026-01-22 00:53:11.66	247.96	23.14	-42.1	-46.1	11.9	2.37e-04	0	58	0	801112064	55	5820
2026-01-22 00:53:12.66	247.79	23.02	-42.2	-46.2	11.8	5.00e-04	0	58	0	802160640	55	5893
2026-01-22 00:53:13.67	247.62	22.90	-42.3	-46.4	11.6	4.74e-04	0	57	0	804257792	55	6025
2026-01-22 00:53:14.68	247.46	22.79	-42.5	-46.8	11.1	1.16e-03	0	57	0	806354944	55	6344
2026-01-22 00:53:15.70	247.29	22.67	-42.4	-46.8	11.1	1.68e-03	0	58	0	808452096	55	6322
2026-01-22 00:53:16.71	247.13	22.55	-42.5	-46.9	11.1	1.39e-03	0	58	0	810549248	55	6390
2026-01-22 00:53:17.72	246.96	22.43	-42.5	-47.0	10.9	2.02e-03	0	57	0	812646400	55	6436
2026-01-22 00:53:18.73	246.80	22.31	-42.6	-47.3	10.7	2.82e-03	0	57	0	813694976	55	6671
2026-01-22 00:53:19.74	246.64	22.20	-42.6	-47.3	10.7	3.68e-03	0	58	0	815792128	55	6720
2026-01-22 00:53:20.74	246.48	22.08	-42.7	-47.4	10.5	3.91e-03	0	58	0	817889280	55	6790
2026-01-22 00:53:21.75	246.32	21.96	-42.9	-47.8	10.4	5.04e-03	0	58	0	819986432	56	6650
2026-01-22 00:53:22.77	246.16	21.85	-42.8	-47.5	10.6	4.35e-03	0	57	0	822083584	56	6480
2026-01-22 00:53:23.77	246.01	21.73	-42.7	-47.4	10.7	3.38e-03	0	58	0	823132160	56	6359
2026-01-22 00:53:24.78	245.85	21.62	-42.4	-46.6	11.6	1.37e-03	0	57	0	825229312	56	5837
2026-01-22 00:53:25.79	245.70	21.50	-42.3	-46.4	11.8	9.00e-04	0	57	0	827326464	56	5661
2026-01-22 00:53:26.80	245.55	21.39	-42.1	-45.9	12.3	2.00e-04	0	58	0	829423616	56	5349
2026-01-22 00:53:27.81	245.40	21.27	-41.8	-45.6	12.5	1.24e-04	0	58	0	831520768	55	5467
2026-01-22 00:53:28.82	245.25	21.16	-41.7	-45.3	12.6	1.13e-04	0	58	0	832569344	55	5339
2026-01-22 00:53:29.83	245.10	21.04	-41.8	-45.4	12.6	9.91e-05	0	58	0	834666496	55	5389
2026-01-22 00:53:30.84	244.95	20.93	-41.9	-45.8	12.2	1.97e-04	0	58	0	836763648	55	5642
2026-01-22 00:53:31.85	244.80	20.82	-42.2	-46.2	11.7	2.97e-04	0	57	0	838860800	55	5914
2026-01-22 00:53:32.86	244.66	20.70	-42.1	-46.1	11.7	6.24e-04	0	57	0	840957952	55	5815
2026-01-22 00:53:33.87	244.51	20.59	-42.2	-46.3	11.6	4.00e-04	0	58	0	842006528	55	5968
2026-01-22 00:53:34.87	244.37	20.48	-42.2	-46.3	11.6	6.48e-04	0	57	0	844103680	55	5962
2026-01-22 00:53:35.88	244.23	20.37	-41.8	-45.6	12.4	4.55e-04	0	58	0	846200832	55	5470
2026-01-22 00:53:36.89	244.08	20.25	-41.7	-45.4	12.6	1.10e-04	0	57	0	848297984	55	5347
2026-01-22 00:53:37.90	243.94	20.14	-41.6	-45.1	12.9	5.95e-05	0	58	0	850395136	55	5163
2026-01-22 00:53:38.91	243.80	20.03	-41.4	-44.8	13.2	3.12e-05	0	58	0	851443712	54	5310
2026-01-22 00:53:39.92	243.67	19.92	-41.3	-44.6	13.4	1.14e-05	0	58	0	853540864	54	5179
2026-01-22 00:53:40.93	243.53	19.81	-41.5	-44.9	13.1	1.75e-05	0	58	0	855638016	54	5360
2026-01-22 00:53:41.94	243.39	19.70	-41.5	-44.9	13.1	4.11e-05	0	58	0	857735168	54	5376
2026-01-22 00:53:42.95	243.26	19.59	-41.6	-45.2	12.8	3.58e-05	0	58	0	859832320	54	5534
2026-01-22 00:53:43.96	243.12	19.48	-42.0	-45.9	12.0	1.22e-04	0	58	0	860880896	54	6029
2026-01-22 00:53:44.97	242.99	19.37	-42.1	-46.2	11.7	3.69e-04	0	58	0	862978048	54	6271
2026-01-22 00:53:45.98	242.86	19.26	-42.4	-46.8	11.0	1.24e-03	0	58	0	865075200	55	6346
2026-01-22 00:53:46.99	242.72	19.15	-42.6	-47.2	10.6	3.14e-03	0	57	0	867172352	55	6638
2026-01-22 00:53:47.99	242.59	19.05	-43.1	-48.4	9.6	6.37e-03	0	58	0	869269504	56	7137
2026-01-22 00:53:49.00	242.46	18.94	-43.2	-48.7	9.3	1.32e-02	0	58	0	870318080	57	6964
2026-01-22 00:53:50.01	242.34	18.83	-43.4	-49.4	8.5	2.73e-02	0	58	0	872415232	57	7569
2026-01-22 00:53:51.02	242.21	18.72	-43.5	-49.6	8.3	4.38e-02	0	58	0	874512384	57	7771
2026-01-22 00:53:52.03	242.08	18.62	-43.4	-49.2	8.8	4.49e-02	0	57	0	876609536	57	7403
2026-01-22 00:53:53.04	241.95	18.51	-43.4	-49.2	8.7	3.78e-02	0	58	0	878706688	57	7437
2026-01-22 00:53:54.05	241.83	18.40	-43.2	-48.6	9.3	2.25e-02	0	58	0	879755264	57	6930
2026-01-22 00:53:55.06	241.70	18.30	-43.0	-48.1	9.8	1.28e-02	0	58	0	881852416	57	6549
2026-01-22 00:53:56.07	241.58	18.19	-42.8	-47.7	10.3	5.78e-03	0	58	0	883949568	57	6207
2026-01-22 00:53:57.08	241.46	18.08	-42.6	-47.2	10.8	3.23e-03	0	57	0	886046720	57	5861
2026-01-22 00:53:58.08	241.34	17.98	-42.3	-46.5	11.6	1.86e-03	0	58	0	888143872	56	5757
2026-01-22 00:53:59.09	241.22	17.87	-42.3	-46.5	11.6	8.51e-04	0	58	0	889192448	56	5738
2026-01-22 00:54:00.10	241.10	17.77	-42.4	-46.7	11.3	1.07e-03	0	58	0	891289600	56	5916
2026-01-22 00:54:01.12	240.98	17.67	-42.5	-46.9	11.1	1.37e-03	0	58	0	893386752	56	6012
2026-01-22 00:54:02.12	240.86	17.56	-42.6	-47.2	10.8	2.29e-03	0	57	0	895483904	56	6219
2026-01-22 00:54:03.14	240.74	17.46	-42.7	-47.5	10.5	3.31e-03	0	58	0	897581056	56	6463
2026-01-22 00:54:04.14	240.63	17.36	-42.9	-47.9	10.0	5.77e-03	0	58	0	898629632	56	6753
2026-01-22 00:54:05.15	240.51	17.25	-43.0	-48.2	9.7	1.01e-02	0	58	0	900726784	56	6999
2026-01-22 00:54:06.16	240.39	17.15	-43.1	-48.4	9.5	1.16e-02	0	57	0	902823936	56	7164
2026-01-22 00:54:07.17	240.28	17.05	-43.0	-48.2	9.7	1.48e-02	0	58	0	904921088	56	7027
2026-01-22 00:54:08.18	240.17	16.94	-42.9	-47.9	10.0	1.03e-02	0	58	0	907018240	56	6793
2026-01-22 00:54:09.19	240.05	16.84	-42.8	-47.6	10.3	6.20e-03	0	58	0	909115392	56	6518
2026-01-22 00:54:10.20	239.94	16.74	-42.7	-47.5	10.5	3.74e-03	0	58	0	910163968	56	6482
2026-01-22 00:54:11.21	239.83	16.64	-42.5	-47.0	11.0	3.11e-03	0	58	0	912261120	56	6081
2026-01-22 00:54:12.22	239.72	16.54	-42.4	-46.7	11.2	1.31e-03	0	58	0	914358272	56	5906
2026-01-22 00:54:13.23	239.61	16.44	-42.4	-46.7	11.3	1.00e-03	0	58	0	916455424	56	5856
2026-01-22 00:54:14.24	239.50	16.34	-42.4	-46.8	11.2	1.41e-03	0	58	0	918552576	56	5949
2026-01-22 00:54:15.25	239.39	16.24	-42.3	-46.6	11.4	1.05e-03	0	58	0	919601152	56	5819
2026-01-22 00:54:16.26	239.29	16.14	-42.4	-46.8	11.1	1.15e-03	0	58	0	921698304	56	5961
2026-01-22 00:54:17.27	239.18	16.04	-42.4	-46.8	11.1	1.74e-03	0	58	0	923795456	56	5963
2026-01-22 00:54:18.28	239.07	15.94	-42.5	-47.1	10.9	2.24e-03	0	58	0	925892608	56	6144
2026-01-22 00:54:19.29	238.97	15.84	-42.5	-47.1	10.9	2.41e-03	0	58	0	927989760	56	6134
2026-01-22 00:54:20.30	238.86	15.74	-42.6	-47.4	10.5	3.18e-03	0	58	0	929038336	56	6372
2026-01-22 00:54:21.31	238.76	15.64	-42.7	-47.5	10.4	3.18e-03	0	58	0	931135488	56	6474
2026-01-22 00:54:22.32	238.66	15.55	-42.6	-47.4	10.6	3.78e-03	0	58	0	933232640	56	6360
2026-01-22 00:54:23.33	238.55	15.45	-42.7	-47.4	10.5	3.90e-03	0	58	0	935329792	56	6394
2026-01-22 00:54:24.34	238.45	15.35	-42.6	-47.4	10.6	3.48e-03	0	58	0	937426944	56	6366
2026-01-22 00:54:25.35	238.35	15.26	-42.7	-47.5	10.4	4.30e-03	0	57	0	938475520	56	6429
2026-01-22 00:54:26.36	238.25	15.16	-42.7	-47.5	10.4	4.37e-03	0	58	0	940572672	56	6427
2026-01-22 00:54:27.36	238.15	15.06	-42.7	-47.6	10.2	5.50e-03	0	57	0	942669824	56	6569
2026-01-22 00:54:28.37	238.05	14.97	-42.8	-47.7	10.1	6.11e-03	0	58	0	944766976	56	6637
2026-01-22 00:54:29.38	237.95	14.87	-42.8	-47.9	10.0	8.42e-03	0	58	0	946864128	56	6726
2026-01-22 00:54:30.39	237.86	14.78	-42.7	-47.6	10.2	8.65e-03	0	58	0	947912704	56	6563
2026-01-22 00:54:31.40	237.76	14.68	-42.7	-47.7	10.1	5.33e-03	0	58	0	950009856	56	6581
2026-01-22 00:54:32.41	237.66	14.59	-42.7	-47.6	10.3	5.44e-03	0	58	0	952107008	56	6537
2026-01-22 00:54:33.42	237.57	14.49	-42.6	-47.3	10.5	4.75e-03	0	58	0	954204160	56	6327
2026-01-22 00:54:34.43	237.47	14.40	-42.5	-47.2	10.7	3.94e-03	0	58	0	956301312	56	6208
2026-01-22 00:54:35.44	237.38	14.30	-42.5	-47.1	10.8	2.70e-03	0	58	0	957349888	56	6133
2026-01-22 00:54:36.45	237.28	14.21	-42.4	-47.0	10.9	2.40e-03	0	58	0	959447040	56	6071
2026-01-22 00:54:37.46	237.19	14.12	-42.3	-46.7	11.2	1.81e-03	0	58	0	961544192	56	5859
2026-01-22 00:54:38.47	237.10	14.02	-42.3	-46.6	11.2	1.39e-03	0	58	0	963641344	56	5853
2026-01-22 00:54:39.48	237.00	13.93	-42.3	-46.6	11.3	1.38e-03	0	58	0	965738496	56	5816
2026-01-22 00:54:40.49	236.91	13.84	-42.3	-46.7	11.1	1.31e-03	0	57	0	966787072	56	5905
2026-01-22 00:54:41.50	236.82	13.74	-42.4	-47.0	10.8	1.79e-03	0	58	0	968884224	56	6073
2026-01-22 00:54:42.51	236.73	13.65	-42.5	-47.2	10.6	2.67e-03	0	58	0	970981376	56	6270
2026-01-22 00:54:43.52	236.64	13.56	-42.6	-47.5	10.3	3.77e-03	0	58	0	973078528	56	6476
2026-01-22 00:54:44.53	236.55	13.47	-42.8	-47.9	9.9	7.66e-03	0	58	0	975175680	56	6741
2026-01-22 00:54:45.54	236.46	13.38	-42.9	-48.3	9.5	1.37e-02	0	58	0	977272832	56	7094
2026-01-22 00:54:46.55	236.37	13.29	-43.1	-48.8	9.0	2.12e-02	0	58	0	978321408	56	7474
2026-01-22 00:54:47.56	236.29	13.20	-43.1	-49.1	8.6	3.42e-02	0	58	0	980418560	56	7763
2026-01-22 00:54:48.56	236.20	13.11	-43.2	-49.2	8.6	4.60e-02	0	58	0	982515712	57	7397
2026-01-22 00:54:49.57	236.11	13.02	-43.2	-49.3	8.4	4.42e-02	0	58	0	984612864	57	7529
2026-01-22 00:54:50.58	236.03	12.93	-43.3	-49.6	8.1	5.54e-02	0	58	0	986710016	57	7760
2026-01-22 00:54:51.59	235.94	12.84	-43.2	-49.5	8.2	5.90e-02	0	58	0	987758592	57	7669
2026-01-22 00:54:52.60	235.86	12.75	-43.2	-49.3	8.3	4.90e-02	0	58	0	989855744	57	7492
2026-01-22 00:54:53.61	235.77	12.66	-43.1	-49.1	8.5	4.59e-02	0	58	0	991952896	57	7345
2026-01-22 00:54:54.62	235.69	12.57	-43.0	-48.8	8.8	3.63e-02	0	58	0	994050048	57	7104
2026-01-22 00:54:55.63	235.60	12.48	-42.8	-48.3	9.4	2.39e-02	0	58	0	996147200	57	6658
2026-01-22 00:54:56.64	235.52	12.39	-42.8	-48.2	9.5	1.76e-02	0	58	0	997195776	57	6574
2026-01-22 00:54:57.65	235.44	12.30	-42.7	-47.9	9.8	1.18e-02	0	58	0	999292928	57	6407
2026-01-22 00:54:58.66	235.36	12.22	-42.7	-47.8	9.9	9.59e-03	0	58	0	1001390080	57	6325
2026-01-22 00:54:59.67	235.27	12.13	-42.6	-47.6	10.0	6.76e-03	0	58	0	1003487232	57	6202
2026-01-22 00:55:00.68	235.19	12.04	-42.5	-47.4	10.2	5.80e-03	0	58	0	1005584384	57	6041
2026-01-22 00:55:01.69	235.11	11.95	-42.5	-47.3	10.4	4.37e-03	0	58	0	1006632960	56	6311
2026-01-22 00:55:02.70	235.03	11.87	-42.5	-47.2	10.5	4.30e-03	0	58	0	1008730112	56	6244
2026-01-22 00:55:03.71	234.95	11.78	-42.4	-47.1	10.6	2.79e-03	0	58	0	1010827264	56	6158
2026-01-22 00:55:04.72	234.87	11.69	-42.4	-47.1	10.6	3.09e-03	0	58	0	1012924416	56	6177
2026-01-22 00:55:05.72	234.80	11.61	-42.4	-47.0	10.7	3.48e-03	0	58	0	1015021568	56	6084
2026-01-22 00:55:06.73	234.72	11.52	-42.3	-46.9	10.7	3.61e-03	0	58	0	1016070144	56	6056
2026-01-22 00:55:07.74	234.64	11.44	-42.3	-47.0	10.7	3.13e-03	0	58	0	1018167296	56	6089
2026-01-22 00:55:08.75	234.56	11.35	-42.3	-46.9	10.7	2.96e-03	0	58	0	1020264448	56	6053
2026-01-22 00:55:09.76	234.49	11.27	-42.4	-47.0	10.6	3.21e-03	0	58	0	1022361600	56	6101
2026-01-22 00:55:10.77	234.41	11.18	-42.3	-47.0	10.7	3.66e-03	0	58	0	1024458752	56	6071
2026-01-22 00:55:11.78	234.34	11.10	-42.4	-47.2	10.4	3.75e-03	0	58	0	1025507328	56	6235
2026-01-22 00:55:12.79	234.26	11.01	-42.4	-47.1	10.5	3.76e-03	0	58	0	1027604480	56	6185
2026-01-22 00:55:13.80	234.19	10.93	-42.4	-47.2	10.5	4.14e-03	0	58	0	1029701632	56	6214
2026-01-22 00:55:14.81	234.11	10.85	-42.4	-47.2	10.5	4.13e-03	0	58	0	1031798784	56	6204
2026-01-22 00:55:15.82	234.04	10.76	-42.5	-47.3	10.3	4.30e-03	0	58	0	1033895936	56	6305
2026-01-22 00:55:16.83	233.96	10.68	-42.5	-47.4	10.3	4.85e-03	0	58	0	1034944512	56	6371
2026-01-22 00:55:17.84	233.89	10.59	-42.5	-47.3	10.3	4.90e-03	0	58	0	1037041664	56	6329
2026-01-22 00:55:18.84	233.82	10.51	-42.4	-47.2	10.4	5.00e-03	0	58	0	1039138816	56	6213
2026-01-22 00:55:19.85	233.75	10.43	-42.4	-47.3	10.3	5.17e-03	0	58	0	1041235968	56	6289
2026-01-22 00:55:20.86	233.67	10.35	-42.5	-47.5	10.1	6.33e-03	0	58	0	1043333120	56	6487
