passes_logs/2026/01/22/R2.0S_Moscow/R2.0S_Moscow__20260122_114639_NOAA_21_JPSS-2_rec.log

#Pass ID: 20260122_114639_NOAA 21 (JPSS-2)
#Satellite: NOAA 21 (JPSS-2)
#Configuration: NOAA-21
#almurnet v.1.7.20251203
#Start time: 2026-01-22 11:46:40

#Version: 2.2.20231116
#Station: R2.0S_Moscow
#Location: 37.707566 lon 55.798166 lat
#TLE: 1 54234U 22150A   26021.42686626  .00000211  00000+0  12107-3 0  9996
#TLE: 2 54234  98.7506 322.2490 0000636 241.9299 118.1812 14.19537149165725

#Time	Az	El	Level	Level2	SNR	BER	BlckErr	Temp	State	Recorded	gain1	gain2
2026-01-22 11:46:40.82	218.04	2.07	-44.3	-56.5	3.8	1.49e+00	0	55	0	0	59	15369
2026-01-22 11:46:41.84	218.13	2.12	-44.2	-56.7	3.8	1.49e+00	0	55	104	0	60	14748
2026-01-22 11:46:42.85	218.22	2.17	-44.2	-56.6	3.8	1.49e+00	0	55	104	0	60	14676
2026-01-22 11:46:43.86	218.30	2.22	-44.2	-56.6	3.8	1.49e+00	0	55	104	0	60	14690
2026-01-22 11:46:44.87	218.39	2.28	-44.2	-56.6	3.8	1.49e+00	0	55	104	0	60	14669
2026-01-22 11:46:45.88	218.48	2.33	-44.2	-56.6	3.8	1.49e+00	0	55	104	0	60	14642
2026-01-22 11:46:46.89	218.57	2.38	-44.2	-56.6	3.8	1.49e+00	0	56	104	0	60	14700
2026-01-22 11:46:47.90	218.65	2.43	-44.2	-56.6	3.8	1.49e+00	0	56	104	0	60	14692
2026-01-22 11:46:48.91	218.74	2.48	-44.2	-56.6	3.8	1.49e+00	0	56	104	0	60	14683
2026-01-22 11:46:49.92	218.83	2.53	-44.1	-56.6	3.8	1.49e+00	0	56	104	0	60	14707
2026-01-22 11:46:50.93	218.92	2.58	-44.2	-56.6	3.8	1.49e+00	0	56	104	0	60	14704
2026-01-22 11:46:51.94	219.01	2.64	-44.2	-56.6	3.8	1.49e+00	0	56	104	0	60	14661
2026-01-22 11:46:52.95	219.10	2.69	-44.2	-56.7	3.8	1.49e+00	0	56	104	0	60	14721
2026-01-22 11:46:53.97	219.19	2.74	-44.2	-56.5	3.8	1.49e+00	0	56	104	0	59	15338
2026-01-22 11:46:54.98	219.28	2.79	-44.2	-56.5	3.8	1.49e+00	0	56	104	0	59	15340
2026-01-22 11:46:55.99	219.37	2.84	-44.2	-56.5	3.8	1.49e+00	0	56	104	0	59	15364
2026-01-22 11:46:57.00	219.46	2.90	-44.3	-56.5	3.8	1.49e+00	0	56	104	0	59	15301
2026-01-22 11:46:58.01	219.55	2.95	-44.2	-56.5	3.8	1.49e+00	0	56	104	0	59	15334
2026-01-22 11:46:59.02	219.64	3.00	-44.2	-56.5	3.8	1.49e+00	0	56	104	0	59	15335
2026-01-22 11:47:00.03	219.74	3.05	-44.2	-56.5	3.8	1.49e+00	0	56	104	0	59	15281
2026-01-22 11:47:01.04	219.83	3.10	-44.3	-56.5	3.8	1.49e+00	0	56	104	0	59	15266
2026-01-22 11:47:02.05	219.92	3.15	-44.3	-56.5	3.8	1.49e+00	0	56	104	0	59	15366
2026-01-22 11:47:03.06	220.01	3.21	-44.2	-56.5	3.8	1.49e+00	0	56	104	0	59	15321
2026-01-22 11:47:04.07	220.11	3.26	-44.2	-56.5	3.8	1.49e+00	0	56	104	0	59	15324
2026-01-22 11:47:05.08	220.20	3.31	-44.2	-56.5	3.8	1.49e+00	0	56	104	0	59	15344
2026-01-22 11:47:06.09	220.29	3.36	-44.2	-56.5	3.8	1.49e+00	0	56	104	0	59	15346
2026-01-22 11:47:07.10	220.39	3.42	-44.2	-56.5	3.8	1.49e+00	0	56	104	0	59	15368
2026-01-22 11:47:08.11	220.48	3.47	-44.2	-56.5	3.8	1.49e+00	0	56	104	0	59	15392
2026-01-22 11:47:09.12	220.58	3.52	-44.2	-56.5	3.8	1.49e+00	0	57	104	0	59	15356
2026-01-22 11:47:10.13	220.67	3.57	-44.2	-56.5	3.8	1.49e+00	0	56	104	0	59	15317
2026-01-22 11:47:11.14	220.77	3.62	-44.2	-56.5	3.8	1.49e+00	0	57	104	0	59	15307
2026-01-22 11:47:12.15	220.86	3.68	-44.2	-56.5	3.8	1.49e+00	0	57	104	0	59	15323
2026-01-22 11:47:13.17	220.96	3.73	-44.2	-56.5	3.8	1.49e+00	0	57	104	0	59	15289
2026-01-22 11:47:14.18	221.05	3.78	-44.2	-56.5	3.8	1.49e+00	0	57	104	0	59	15294
2026-01-22 11:47:15.19	221.15	3.83	-44.2	-56.5	3.8	1.49e+00	0	57	104	0	59	15324
2026-01-22 11:47:16.20	221.25	3.89	-44.2	-56.5	3.8	1.49e+00	0	57	104	0	59	15360
2026-01-22 11:47:17.21	221.34	3.94	-44.2	-56.5	3.8	1.49e+00	0	57	104	0	59	15321
2026-01-22 11:47:18.22	221.44	3.99	-44.2	-56.4	3.8	1.49e+00	0	57	104	0	59	15189
2026-01-22 11:47:19.23	221.54	4.04	-44.2	-56.4	3.8	1.49e+00	0	57	104	0	59	15119
2026-01-22 11:47:20.24	221.64	4.10	-44.2	-56.4	3.8	1.49e+00	0	57	104	0	59	15125
2026-01-22 11:47:21.25	221.74	4.15	-44.2	-56.5	3.8	1.49e+00	0	57	104	0	59	15355
2026-01-22 11:47:22.26	221.84	4.20	-44.2	-56.5	3.8	1.49e+00	0	57	104	0	59	15299
2026-01-22 11:47:23.27	221.94	4.26	-44.2	-56.5	3.8	1.49e+00	0	57	104	0	59	15343
2026-01-22 11:47:24.28	222.03	4.31	-44.2	-56.5	3.8	1.49e+00	0	57	104	0	59	15338
2026-01-22 11:47:25.29	222.13	4.36	-44.2	-56.5	3.8	1.49e+00	0	57	104	0	59	15324
2026-01-22 11:47:26.30	222.24	4.41	-44.2	-56.5	3.8	1.49e+00	0	57	104	0	59	15318
2026-01-22 11:47:27.31	222.34	4.47	-44.2	-56.5	3.8	1.49e+00	0	57	104	0	59	15282
2026-01-22 11:47:28.32	222.44	4.52	-44.2	-56.5	3.8	1.49e+00	0	57	104	0	59	15377
2026-01-22 11:47:29.33	222.54	4.57	-44.2	-56.5	3.8	1.49e+00	0	57	104	0	59	15323
2026-01-22 11:47:30.34	222.64	4.63	-44.2	-56.5	3.8	1.49e+00	0	57	104	0	59	15295
2026-01-22 11:47:31.35	222.74	4.68	-44.2	-56.5	3.8	1.49e+00	0	57	104	0	59	15293
2026-01-22 11:47:32.36	222.84	4.73	-44.2	-56.5	3.8	1.49e+00	0	58	104	0	59	15279
2026-01-22 11:47:33.37	222.95	4.78	-44.2	-56.5	3.8	1.49e+00	0	57	104	0	59	15306
2026-01-22 11:47:34.38	223.05	4.84	-44.2	-56.5	3.8	1.49e+00	0	58	104	0	59	15305
2026-01-22 11:47:35.39	223.15	4.89	-44.2	-56.5	3.8	1.49e+00	0	58	104	0	59	15341
2026-01-22 11:47:36.40	223.26	4.94	-44.2	-56.5	3.8	1.49e+00	0	58	104	0	59	15308
2026-01-22 11:47:37.42	223.36	5.00	-44.2	-56.5	3.8	1.49e+00	0	58	104	0	59	15324
2026-01-22 11:47:38.43	223.47	5.05	-44.2	-56.4	3.8	1.49e+00	0	58	104	0	59	15221
2026-01-22 11:47:39.44	223.57	5.10	-44.2	-56.5	3.8	1.49e+00	0	58	104	0	59	15233
2026-01-22 11:47:40.45	223.68	5.16	-44.2	-56.5	3.8	1.49e+00	0	58	104	0	59	15272
2026-01-22 11:47:41.46	223.78	5.21	-44.2	-56.5	3.8	1.49e+00	0	58	104	0	59	15282
2026-01-22 11:47:42.47	223.89	5.26	-44.2	-56.5	3.8	1.49e+00	0	58	104	0	59	15275
2026-01-22 11:47:43.48	224.00	5.32	-44.2	-56.4	3.8	1.49e+00	0	58	104	0	59	15218
2026-01-22 11:47:44.49	224.10	5.37	-44.2	-56.4	3.8	1.49e+00	0	58	104	0	59	15179
2026-01-22 11:47:45.50	224.21	5.42	-44.2	-56.4	3.8	1.49e+00	0	58	104	0	59	15180
2026-01-22 11:47:46.51	224.32	5.48	-44.2	-56.4	3.8	1.49e+00	0	58	104	0	59	15197
2026-01-22 11:47:47.52	224.42	5.53	-44.2	-56.4	3.8	1.49e+00	0	58	104	0	59	15138
2026-01-22 11:47:48.53	224.53	5.58	-44.2	-56.4	3.8	1.49e+00	0	58	104	0	59	15117
2026-01-22 11:47:49.54	224.64	5.64	-44.2	-56.4	3.8	1.49e+00	0	58	104	0	59	15056
2026-01-22 11:47:50.55	224.75	5.69	-44.2	-56.3	3.8	1.49e+00	0	58	104	0	59	15044
2026-01-22 11:47:51.56	224.86	5.74	-44.1	-56.3	3.8	1.49e+00	0	58	104	0	59	14998
2026-01-22 11:47:52.57	224.97	5.80	-44.2	-56.3	3.8	1.49e+00	0	58	104	0	59	14977
2026-01-22 11:47:53.58	225.08	5.85	-44.2	-56.2	3.8	1.49e+00	0	58	104	0	59	14866
2026-01-22 11:47:54.59	225.19	5.90	-44.2	-56.2	3.8	1.49e+00	0	58	104	0	59	14734
2026-01-22 11:47:55.60	225.30	5.96	-44.2	-56.1	3.8	1.49e+00	0	58	104	0	59	14685
2026-01-22 11:47:56.61	225.41	6.01	-44.2	-56.1	3.8	1.49e+00	0	58	104	0	59	14657
2026-01-22 11:47:57.62	225.53	6.07	-44.2	-56.1	3.8	1.49e+00	0	58	104	0	59	14560
2026-01-22 11:47:58.63	225.64	6.12	-44.2	-56.0	3.8	1.49e+00	0	58	104	0	59	14478
2026-01-22 11:47:59.64	225.75	6.17	-44.2	-56.0	3.8	1.49e+00	0	58	104	0	59	14375
2026-01-22 11:48:00.65	225.86	6.23	-44.1	-55.8	3.8	1.49e+00	0	58	104	0	59	14196
2026-01-22 11:48:01.66	225.98	6.28	-44.1	-55.8	3.8	1.49e+00	0	59	104	0	59	14142
2026-01-22 11:48:02.67	226.09	6.33	-44.1	-55.7	3.8	1.49e+00	0	59	104	0	59	13964
2026-01-22 11:48:03.68	226.20	6.39	-44.1	-55.5	3.8	1.49e+00	0	58	104	0	59	13573
2026-01-22 11:48:04.70	226.32	6.44	-44.1	-55.3	3.8	1.49e+00	0	59	104	0	59	13319
2026-01-22 11:48:05.71	226.44	6.50	-44.1	-55.1	3.8	1.49e+00	0	59	104	0	59	13069
2026-01-22 11:48:06.72	226.55	6.55	-44.0	-54.8	3.8	1.49e+00	0	59	104	0	59	12588
2026-01-22 11:48:07.73	226.67	6.60	-44.0	-54.0	4.0	1.48e+00	0	59	104	0	59	11440
2026-01-22 11:48:08.74	226.78	6.66	-43.9	-54.0	3.9	1.47e+00	0	59	104	0	59	11514
2026-01-22 11:48:09.75	226.90	6.71	-43.9	-53.1	4.1	1.46e+00	0	59	104	0	59	10365
2026-01-22 11:48:10.76	227.02	6.77	-43.8	-53.0	3.9	1.45e+00	0	58	104	0	59	10258
2026-01-22 11:48:11.77	227.13	6.82	-43.7	-52.0	4.5	1.42e+00	5	59	104	0	59	9115
2026-01-22 11:48:12.78	227.25	6.87	-43.6	-51.5	4.2	9.28e-01	0	59	104	0	59	8586
2026-01-22 11:48:13.79	227.37	6.93	-43.5	-51.7	4.0	1.14e+00	0	59	104	0	59	8833
2026-01-22 11:48:14.80	227.49	6.98	-43.4	-50.8	5.0	7.17e-01	0	59	0	1048576	58	8379
2026-01-22 11:48:15.81	227.61	7.03	-43.4	-50.4	5.3	5.66e-01	0	59	0	4194304	58	8059
2026-01-22 11:48:16.82	227.73	7.09	-43.4	-50.3	5.3	5.30e-01	0	59	0	7340032	58	7958
2026-01-22 11:48:17.83	227.85	7.14	-43.4	-50.4	5.3	5.37e-01	0	59	0	11534336	58	8058
2026-01-22 11:48:18.84	227.97	7.20	-43.4	-50.5	5.2	5.77e-01	0	59	0	13631488	58	8139
2026-01-22 11:48:19.85	228.09	7.25	-43.5	-50.7	5.1	6.10e-01	0	59	0	16777216	58	8350
2026-01-22 11:48:20.86	228.21	7.30	-43.5	-51.0	4.9	7.17e-01	0	59	0	19922944	58	8623
2026-01-22 11:48:21.88	228.33	7.36	-43.5	-51.1	4.9	7.61e-01	0	59	0	23068672	58	8757
2026-01-22 11:48:22.89	228.46	7.41	-43.5	-51.2	4.9	7.67e-01	0	59	0	24117248	58	8779
2026-01-22 11:48:23.90	228.58	7.47	-43.5	-51.8	4.1	9.08e-01	0	59	104	25165824	58	9454
2026-01-22 11:48:24.91	228.70	7.52	-43.4	-50.5	5.3	6.30e-01	0	59	0	26214400	58	8086
2026-01-22 11:48:25.92	228.83	7.57	-43.2	-49.7	5.7	4.46e-01	0	59	0	29360128	58	7435
2026-01-22 11:48:26.93	228.95	7.63	-42.9	-48.8	6.5	2.74e-01	0	59	0	32505856	57	7073
2026-01-22 11:48:27.94	229.07	7.68	-42.7	-47.9	7.2	1.47e-01	0	59	0	35651584	57	6419
2026-01-22 11:48:28.95	229.20	7.74	-42.4	-47.2	7.9	8.09e-02	0	59	0	38797312	56	6250
2026-01-22 11:48:29.96	229.32	7.79	-42.1	-46.4	8.7	3.71e-02	0	59	0	41943040	56	5702
2026-01-22 11:48:30.97	229.45	7.84	-41.7	-45.7	9.2	2.35e-02	0	59	0	45088768	55	5579
2026-01-22 11:48:31.98	229.58	7.90	-41.5	-45.4	9.6	1.51e-02	0	59	0	48234496	55	5388
2026-01-22 11:48:32.99	229.70	7.95	-41.5	-45.4	9.6	1.30e-02	0	59	0	51380224	55	5378
2026-01-22 11:48:34.00	229.83	8.01	-41.6	-45.5	9.5	1.38e-02	0	59	0	54525952	55	5430
2026-01-22 11:48:35.01	229.96	8.06	-44.7	-56.6	3.8	1.49e+00	0	59	104	55574528	59	15577
2026-01-22 11:48:36.02	230.09	8.11	-42.5	-47.3	5.8	1.39e+00	0	59	104	55574528	56	6329
2026-01-22 11:48:37.03	230.21	8.17	-43.5	-50.9	5.1	4.36e-01	0	60	0	57671680	57	8983
2026-01-22 11:48:38.04	230.34	8.22	-44.0	-55.8	3.8	1.49e+00	0	59	104	58720256	58	15049
2026-01-22 11:48:39.05	230.47	8.28	-42.6	-47.6	7.6	6.69e-03	0	60	0	58720256	55	6913
2026-01-22 11:48:40.06	230.60	8.33	-41.2	-44.6	10.5	6.16e-03	0	59	0	61865984	54	5197
2026-01-22 11:48:41.07	230.73	8.38	-41.0	-44.3	10.8	2.75e-03	0	59	0	65011712	54	5032
2026-01-22 11:48:42.08	230.86	8.44	-40.9	-44.2	10.9	2.32e-03	0	59	0	68157440	53	5252
2026-01-22 11:48:43.09	231.00	8.49	-40.9	-44.2	10.8	2.25e-03	0	59	0	71303168	53	5253
2026-01-22 11:48:44.10	231.13	8.54	-40.9	-44.2	10.8	2.51e-03	0	59	0	74448896	53	5261
2026-01-22 11:48:45.11	231.26	8.60	-41.0	-44.3	10.8	2.42e-03	0	59	0	77594624	53	5293
2026-01-22 11:48:46.12	231.39	8.65	-41.0	-44.3	10.8	2.93e-03	0	60	0	80740352	53	5314
2026-01-22 11:48:47.13	231.53	8.71	-41.0	-44.3	10.8	2.53e-03	0	59	0	83886080	53	5291
2026-01-22 11:48:48.14	231.66	8.76	-40.9	-44.2	10.9	2.23e-03	0	59	0	87031808	53	5256
2026-01-22 11:48:49.15	231.79	8.81	-41.0	-44.2	10.9	2.21e-03	0	60	0	90177536	53	5246
2026-01-22 11:48:50.16	231.93	8.87	-40.8	-44.0	11.2	1.41e-03	0	60	0	93323264	53	5113
2026-01-22 11:48:51.17	232.06	8.92	-40.8	-44.0	11.2	1.53e-03	0	60	0	96468992	53	5123
2026-01-22 11:48:52.18	232.20	8.98	-40.8	-43.9	11.2	1.34e-03	0	60	0	99614720	53	5092
2026-01-22 11:48:53.18	232.33	9.03	-40.8	-44.0	11.1	1.27e-03	0	60	0	102760448	53	5120
2026-01-22 11:48:54.19	232.47	9.08	-40.8	-44.0	11.2	1.46e-03	0	60	0	105906176	53	5115
2026-01-22 11:48:55.20	232.61	9.14	-40.8	-44.0	11.2	1.37e-03	0	60	0	109051904	53	5105
2026-01-22 11:48:56.21	232.74	9.19	-40.9	-44.1	11.1	1.44e-03	0	60	0	112197632	53	5164
2026-01-22 11:48:57.22	232.88	9.24	-40.9	-44.0	11.2	1.41e-03	0	60	0	115343360	53	5125
2026-01-22 11:48:58.23	233.02	9.30	-40.9	-44.0	11.2	1.25e-03	0	60	0	118489088	53	5137
2026-01-22 11:48:59.24	233.16	9.35	-40.9	-44.0	11.3	1.28e-03	0	60	0	121634816	53	5114
2026-01-22 11:49:00.25	233.30	9.40	-40.9	-44.0	11.3	1.15e-03	0	60	0	124780544	53	5111
2026-01-22 11:49:01.26	233.44	9.46	-40.7	-43.7	11.6	7.30e-04	0	60	0	127926272	53	4927
2026-01-22 11:49:02.27	233.58	9.51	-40.6	-43.5	11.7	5.80e-04	0	59	0	131072000	53	4870
2026-01-22 11:49:03.28	233.72	9.56	-40.6	-43.6	11.7	6.64e-04	0	60	0	134217728	53	4891
2026-01-22 11:49:04.29	233.86	9.62	-40.6	-43.5	11.7	5.80e-04	0	60	0	137363456	53	4851
2026-01-22 11:49:05.30	234.00	9.67	-40.6	-43.5	11.7	4.89e-04	0	60	0	140509184	53	4861
2026-01-22 11:49:06.31	234.15	9.72	-40.7	-43.6	11.6	6.21e-04	0	60	0	143654912	53	4919
2026-01-22 11:49:07.32	234.29	9.78	-40.6	-43.6	11.7	6.48e-04	0	60	0	146800640	53	4891
2026-01-22 11:49:08.33	234.43	9.83	-40.6	-43.6	11.6	7.45e-04	0	60	0	149946368	53	4907
2026-01-22 11:49:09.34	234.58	9.88	-40.7	-43.7	11.5	7.48e-04	0	60	0	153092096	53	4968
2026-01-22 11:49:10.35	234.72	9.94	-40.7	-43.6	11.6	6.81e-04	0	60	0	156237824	53	4924
2026-01-22 11:49:11.36	234.87	9.99	-40.7	-43.6	11.6	7.00e-04	0	60	0	159383552	53	4922
2026-01-22 11:49:12.37	235.01	10.04	-40.7	-43.8	11.5	7.48e-04	0	60	0	162529280	53	4995
2026-01-22 11:49:13.38	235.16	10.09	-40.8	-43.8	11.5	7.87e-04	0	60	0	165675008	53	4992
2026-01-22 11:49:14.39	235.30	10.15	-40.7	-43.6	11.6	6.64e-04	0	60	0	168820736	53	4907
2026-01-22 11:49:15.40	235.45	10.20	-40.7	-43.6	11.7	6.11e-04	0	60	0	171966464	53	4906
2026-01-22 11:49:16.41	235.60	10.25	-40.7	-43.6	11.7	6.58e-04	0	60	0	175112192	53	4898
2026-01-22 11:49:17.42	235.75	10.31	-40.7	-43.6	11.7	6.23e-04	0	60	0	178257920	53	4917
2026-01-22 11:49:18.43	235.90	10.36	-40.7	-43.7	11.6	6.98e-04	0	60	0	181403648	53	4950
2026-01-22 11:49:19.44	236.04	10.41	-40.8	-43.8	11.5	7.55e-04	0	60	0	184549376	53	5021
2026-01-22 11:49:20.45	236.19	10.46	-40.7	-43.7	11.5	7.71e-04	0	60	0	187695104	53	4974
2026-01-22 11:49:21.46	236.34	10.52	-40.7	-43.7	11.6	7.33e-04	0	60	0	190840832	53	4971
2026-01-22 11:49:22.47	236.50	10.57	-40.7	-43.7	11.6	6.71e-04	0	60	0	193986560	53	4955
2026-01-22 11:49:23.48	236.65	10.62	-40.7	-43.6	11.7	7.04e-04	0	60	0	198180864	53	4896
2026-01-22 11:49:24.49	236.80	10.67	-40.6	-43.4	11.9	4.74e-04	0	60	0	201326592	53	4802
2026-01-22 11:49:25.50	236.95	10.73	-40.5	-43.4	11.9	3.62e-04	0	60	0	204472320	53	4792
2026-01-22 11:49:26.51	237.10	10.78	-40.6	-43.5	11.8	4.84e-04	0	60	0	206569472	53	4847
2026-01-22 11:49:27.52	237.26	10.83	-40.5	-43.3	12.0	4.36e-04	0	60	0	209715200	53	4753
2026-01-22 11:49:28.53	237.41	10.88	-40.4	-43.2	12.1	2.77e-04	0	60	0	213909504	52	4957
2026-01-22 11:49:29.54	237.56	10.93	-40.4	-43.1	12.2	2.06e-04	0	60	0	217055232	52	4920
2026-01-22 11:49:30.55	237.72	10.99	-40.3	-43.1	12.3	1.79e-04	0	60	0	220200960	52	4880
2026-01-22 11:49:31.56	237.87	11.04	-40.3	-43.1	12.3	1.93e-04	0	60	0	223346688	52	4886
2026-01-22 11:49:32.57	238.03	11.09	-40.3	-43.1	12.3	1.66e-04	0	60	0	226492416	52	4881
2026-01-22 11:49:33.58	238.19	11.14	-40.3	-43.0	12.3	1.47e-04	0	60	0	229638144	52	4860
2026-01-22 11:49:34.59	238.34	11.19	-40.3	-43.1	12.3	1.81e-04	0	60	0	232783872	52	4880
2026-01-22 11:49:35.60	238.50	11.24	-40.5	-43.3	12.1	2.22e-04	0	60	0	235929600	52	4984
2026-01-22 11:49:36.61	238.66	11.29	-40.4	-43.1	12.2	2.28e-04	0	60	0	239075328	52	4898
2026-01-22 11:49:37.62	238.82	11.35	-40.3	-43.1	12.2	2.18e-04	0	60	0	242221056	52	4896
2026-01-22 11:49:38.63	238.98	11.40	-40.4	-43.2	12.2	1.81e-04	0	60	0	245366784	52	4930
2026-01-22 11:49:39.64	239.14	11.45	-40.3	-43.1	12.3	2.10e-04	0	60	0	248512512	52	4887
2026-01-22 11:49:40.65	239.30	11.50	-40.4	-43.1	12.2	2.04e-04	0	60	0	251658240	52	4915
2026-01-22 11:49:41.66	239.46	11.55	-40.4	-43.1	12.3	2.15e-04	0	60	0	254803968	52	4895
2026-01-22 11:49:42.67	239.62	11.60	-40.4	-43.1	12.2	2.14e-04	0	60	0	257949696	52	4925
2026-01-22 11:49:43.68	239.78	11.65	-40.4	-43.1	12.3	1.75e-04	0	60	0	261095424	52	4897
2026-01-22 11:49:44.69	239.94	11.70	-40.4	-43.2	12.2	1.85e-04	0	60	0	264241152	52	4928
2026-01-22 11:49:45.70	240.11	11.75	-40.4	-43.1	12.3	2.10e-04	0	60	0	267386880	52	4923
2026-01-22 11:49:46.71	240.27	11.80	-40.4	-43.2	12.3	2.08e-04	0	60	0	270532608	52	4937
2026-01-22 11:49:47.72	240.43	11.85	-40.4	-43.1	12.3	1.81e-04	0	60	0	273678336	52	4902
2026-01-22 11:49:48.73	240.60	11.90	-40.4	-43.1	12.3	2.17e-04	0	60	0	276824064	52	4924
2026-01-22 11:49:49.74	240.76	11.95	-40.4	-43.1	12.3	1.67e-04	0	60	0	279969792	52	4898
2026-01-22 11:49:50.75	240.93	12.00	-40.4	-43.1	12.4	1.80e-04	0	60	0	283115520	52	4879
2026-01-22 11:49:51.76	241.10	12.05	-40.3	-43.0	12.5	1.17e-04	0	60	0	286261248	52	4836
2026-01-22 11:49:52.77	241.26	12.10	-40.3	-42.9	12.5	1.18e-04	0	60	0	289406976	52	4803
2026-01-22 11:49:53.78	241.43	12.15	-40.3	-42.9	12.5	9.46e-05	0	60	0	292552704	52	4791
2026-01-22 11:49:54.79	241.60	12.20	-40.2	-42.9	12.6	1.02e-04	0	61	0	295698432	52	4765
2026-01-22 11:49:55.80	241.77	12.25	-40.2	-42.8	12.6	8.62e-05	0	60	0	298844160	52	4741
2026-01-22 11:49:56.81	241.93	12.30	-40.1	-42.7	12.7	9.53e-05	0	60	0	301989888	52	4672
2026-01-22 11:49:57.82	242.10	12.35	-40.1	-42.7	12.7	7.85e-05	0	60	0	305135616	52	4683
2026-01-22 11:49:58.82	242.27	12.40	-40.2	-42.7	12.7	6.71e-05	0	60	0	308281344	52	4691
2026-01-22 11:49:59.83	242.44	12.45	-40.2	-42.7	12.7	8.01e-05	0	60	0	311427072	52	4704
2026-01-22 11:50:00.84	242.61	12.50	-40.2	-42.7	12.7	6.71e-05	0	60	0	314572800	52	4692
2026-01-22 11:50:01.85	242.79	12.55	-40.2	-42.8	12.7	7.85e-05	0	61	0	317718528	52	4710
2026-01-22 11:50:02.86	242.96	12.59	-40.2	-42.8	12.7	7.85e-05	0	61	0	320864256	52	4713
2026-01-22 11:50:03.87	243.13	12.64	-40.2	-42.7	12.7	7.85e-05	0	61	0	324009984	52	4696
2026-01-22 11:50:04.88	243.30	12.69	-40.2	-42.8	12.7	6.86e-05	0	60	0	327155712	52	4714
2026-01-22 11:50:05.89	243.48	12.74	-40.2	-42.8	12.7	8.46e-05	0	61	0	330301440	52	4745
2026-01-22 11:50:06.90	243.65	12.79	-40.3	-42.9	12.6	8.16e-05	0	60	0	333447168	52	4773
2026-01-22 11:50:07.91	243.83	12.83	-40.3	-42.9	12.6	9.61e-05	0	60	0	336592896	52	4785
2026-01-22 11:50:08.92	244.00	12.88	-40.3	-43.0	12.5	1.23e-04	0	61	0	339738624	52	4848
2026-01-22 11:50:09.93	244.18	12.93	-40.3	-42.9	12.6	9.30e-05	0	60	0	342884352	52	4802
2026-01-22 11:50:10.94	244.36	12.98	-40.3	-42.9	12.6	9.61e-05	0	61	0	346030080	52	4798
2026-01-22 11:50:11.95	244.53	13.02	-40.3	-42.9	12.6	9.46e-05	0	60	0	349175808	52	4794
2026-01-22 11:50:12.96	244.71	13.07	-40.3	-43.0	12.5	1.08e-04	0	61	0	352321536	52	4820
2026-01-22 11:50:13.97	244.89	13.12	-40.2	-42.8	12.7	7.62e-05	0	61	0	355467264	52	4751
2026-01-22 11:50:14.98	245.07	13.16	-40.2	-42.8	12.7	6.94e-05	0	61	0	358612992	52	4718
2026-01-22 11:50:15.98	245.24	13.21	-40.3	-42.9	12.6	8.23e-05	0	61	0	361758720	52	4794
2026-01-22 11:50:16.99	245.42	13.26	-40.3	-42.9	12.6	9.68e-05	0	60	0	364904448	52	4777
2026-01-22 11:50:18.00	245.60	13.30	-40.3	-42.9	12.5	1.14e-04	0	61	0	368050176	52	4809
2026-01-22 11:50:19.01	245.79	13.35	-40.3	-43.0	12.5	1.24e-04	0	60	0	371195904	52	4837
2026-01-22 11:50:20.02	245.97	13.39	-40.3	-42.9	12.6	1.01e-04	0	60	0	374341632	52	4808
2026-01-22 11:50:21.03	246.15	13.44	-40.4	-43.1	12.4	1.21e-04	0	61	0	377487360	52	4871
2026-01-22 11:50:22.04	246.33	13.49	-40.4	-43.1	12.3	1.30e-04	0	61	0	380633088	52	4919
2026-01-22 11:50:23.05	246.52	13.53	-40.5	-43.2	12.3	1.93e-04	0	61	0	383778816	52	4967
2026-01-22 11:50:24.06	246.70	13.58	-40.5	-43.2	12.2	1.94e-04	0	61	0	386924544	52	4983
2026-01-22 11:50:25.07	246.88	13.62	-40.5	-43.2	12.2	2.18e-04	0	61	0	390070272	52	4980
2026-01-22 11:50:26.08	247.07	13.67	-40.4	-43.1	12.4	1.75e-04	0	61	0	393216000	52	4912
2026-01-22 11:50:27.09	247.25	13.71	-40.4	-43.1	12.4	1.43e-04	0	61	0	396361728	52	4890
2026-01-22 11:50:28.10	247.44	13.75	-40.4	-43.1	12.4	1.69e-04	0	61	0	399507456	52	4901
2026-01-22 11:50:29.11	247.63	13.80	-40.4	-43.1	12.4	1.49e-04	0	61	0	402653184	52	4907
2026-01-22 11:50:30.11	247.81	13.84	-40.4	-43.1	12.5	1.79e-04	0	61	0	405798912	52	4879
2026-01-22 11:50:31.12	248.00	13.89	-40.3	-42.9	12.6	1.05e-04	0	61	0	408944640	52	4803
2026-01-22 11:50:32.13	248.19	13.93	-40.3	-42.9	12.6	8.85e-05	0	61	0	412090368	52	4772
2026-01-22 11:50:33.15	248.38	13.97	-40.3	-42.9	12.7	8.08e-05	0	61	0	415236096	52	4761
2026-01-22 11:50:34.16	248.56	14.02	-40.3	-42.8	12.7	7.55e-05	0	61	0	418381824	52	4748
2026-01-22 11:50:35.17	248.75	14.06	-40.2	-42.8	12.7	6.40e-05	0	61	0	421527552	52	4749
2026-01-22 11:50:36.18	248.94	14.10	-40.3	-42.9	12.7	7.93e-05	0	61	0	424673280	52	4772
2026-01-22 11:50:37.19	249.14	14.14	-40.3	-42.9	12.6	9.76e-05	0	61	0	427819008	52	4791
2026-01-22 11:50:38.20	249.33	14.19	-40.4	-43.0	12.5	1.21e-04	0	61	0	430964736	52	4841
2026-01-22 11:50:39.21	249.52	14.23	-40.4	-43.0	12.5	1.10e-04	0	61	0	434110464	52	4867
2026-01-22 11:50:40.22	249.71	14.27	-40.4	-43.1	12.4	1.29e-04	0	61	0	437256192	52	4914
2026-01-22 11:50:41.22	249.90	14.31	-40.4	-43.1	12.4	1.49e-04	0	61	0	440401920	52	4910
2026-01-22 11:50:42.23	250.09	14.35	-40.4	-43.1	12.5	1.36e-04	0	61	0	443547648	52	4871
2026-01-22 11:50:43.24	250.29	14.39	-40.3	-43.0	12.6	1.02e-04	0	61	0	446693376	52	4821
2026-01-22 11:50:44.25	250.48	14.43	-40.3	-42.9	12.7	7.85e-05	0	61	0	449839104	52	4776
2026-01-22 11:50:45.26	250.68	14.47	-40.3	-43.0	12.6	1.02e-04	0	61	0	452984832	52	4825
2026-01-22 11:50:46.27	250.87	14.52	-40.3	-42.9	12.6	9.30e-05	0	61	0	456130560	52	4789
2026-01-22 11:50:47.28	251.07	14.56	-40.4	-43.0	12.5	9.46e-05	0	61	0	459276288	52	4837
2026-01-22 11:50:48.29	251.26	14.60	-40.4	-43.0	12.5	1.20e-04	0	61	0	462422016	52	4854
2026-01-22 11:50:49.30	251.46	14.63	-40.3	-42.9	12.6	9.99e-05	0	61	0	465567744	52	4792
2026-01-22 11:50:50.31	251.66	14.67	-40.3	-42.9	12.6	9.38e-05	0	61	0	468713472	52	4783
2026-01-22 11:50:51.31	251.85	14.71	-40.3	-43.0	12.6	1.10e-04	0	61	0	471859200	52	4817
2026-01-22 11:50:52.32	252.05	14.75	-40.3	-42.9	12.6	9.84e-05	0	61	0	475004928	52	4799
2026-01-22 11:50:53.33	252.25	14.79	-40.4	-43.0	12.5	1.20e-04	0	61	0	478150656	52	4852
2026-01-22 11:50:54.34	252.45	14.83	-40.3	-43.0	12.6	1.18e-04	0	61	0	481296384	52	4816
2026-01-22 11:50:55.36	252.65	14.87	-40.3	-42.9	12.6	8.69e-05	0	61	0	484442112	52	4793
2026-01-22 11:50:56.36	252.85	14.90	-40.3	-43.0	12.6	1.04e-04	0	61	0	487587840	52	4818
2026-01-22 11:50:57.37	253.05	14.94	-40.4	-43.0	12.5	1.17e-04	0	61	0	490733568	52	4855
2026-01-22 11:50:58.39	253.26	14.98	-40.4	-43.0	12.5	1.15e-04	0	61	0	493879296	52	4864
2026-01-22 11:50:59.39	253.46	15.02	-40.3	-42.9	12.6	8.54e-05	0	61	0	497025024	52	4773
2026-01-22 11:51:00.40	253.66	15.05	-40.3	-42.9	12.7	7.55e-05	0	61	0	500170752	52	4760
2026-01-22 11:51:01.41	253.86	15.09	-40.2	-42.8	12.8	5.79e-05	0	61	0	503316480	52	4713
2026-01-22 11:51:02.42	254.06	15.13	-40.2	-42.7	12.9	5.49e-05	0	61	0	506462208	52	4668
2026-01-22 11:51:03.43	254.27	15.16	-40.2	-42.7	12.9	5.56e-05	0	61	0	509607936	52	4663
2026-01-22 11:51:04.44	254.47	15.20	-40.2	-42.7	12.9	4.95e-05	0	61	0	512753664	52	4668
2026-01-22 11:51:05.45	254.68	15.23	-40.2	-42.8	12.8	5.72e-05	0	61	0	515899392	52	4723
2026-01-22 11:51:06.46	254.88	15.27	-40.3	-42.8	12.7	6.17e-05	0	61	0	519045120	52	4742
2026-01-22 11:51:07.47	255.09	15.30	-40.2	-42.8	12.8	7.93e-05	0	61	0	522190848	52	4714
2026-01-22 11:51:08.48	255.29	15.34	-40.2	-42.7	12.9	4.65e-05	0	61	0	525336576	52	4671
2026-01-22 11:51:09.49	255.50	15.37	-40.1	-42.6	13.0	3.35e-05	0	61	0	528482304	52	4626
2026-01-22 11:51:10.50	255.71	15.40	-40.0	-42.4	13.1	2.82e-05	0	61	0	531628032	52	4538
2026-01-22 11:51:11.50	255.91	15.44	-40.0	-42.4	13.2	2.05e-05	0	61	0	534773760	51	4809
2026-01-22 11:51:12.52	256.12	15.47	-40.0	-42.4	13.3	3.05e-05	0	61	0	537919488	51	4763
2026-01-22 11:51:13.53	256.33	15.50	-39.9	-42.3	13.3	1.52e-05	0	61	0	541065216	51	4736
2026-01-22 11:51:14.54	256.54	15.54	-40.0	-42.4	13.3	1.67e-05	0	61	0	545259520	51	4763
2026-01-22 11:51:15.55	256.75	15.57	-40.1	-42.5	13.2	2.44e-05	0	61	0	547356672	51	4840
2026-01-22 11:51:16.55	256.96	15.60	-40.0	-42.5	13.2	1.98e-05	0	61	0	550502400	51	4817
2026-01-22 11:51:17.56	257.17	15.63	-40.1	-42.6	13.1	2.44e-05	0	61	0	553648128	51	4898
2026-01-22 11:51:18.57	257.38	15.66	-40.2	-42.7	13.0	4.57e-05	0	61	0	556793856	51	4956
2026-01-22 11:51:19.58	257.59	15.69	-40.2	-42.7	12.9	4.19e-05	0	61	0	560988160	51	4973
2026-01-22 11:51:20.59	257.80	15.73	-40.2	-42.7	12.9	4.34e-05	0	61	0	564133888	51	4966
2026-01-22 11:51:21.60	258.01	15.76	-40.2	-42.6	13.0	3.50e-05	0	61	0	567279616	51	4926
2026-01-22 11:51:22.61	258.22	15.79	-40.0	-42.5	13.2	2.59e-05	0	61	0	569376768	51	4820
2026-01-22 11:51:23.62	258.43	15.82	-40.0	-42.4	13.2	2.51e-05	0	61	0	572522496	51	4810
2026-01-22 11:51:24.63	258.65	15.84	-40.0	-42.4	13.2	2.67e-05	0	61	0	576716800	51	4801
2026-01-22 11:51:25.64	258.86	15.87	-40.0	-42.4	13.2	2.05e-05	0	61	0	579862528	51	4792
2026-01-22 11:51:26.64	259.07	15.90	-40.0	-42.4	13.2	2.05e-05	0	61	0	583008256	51	4766
2026-01-22 11:51:27.65	259.29	15.93	-40.0	-42.4	13.2	1.98e-05	0	61	0	586153984	51	4811
2026-01-22 11:51:28.66	259.50	15.96	-40.0	-42.4	13.3	1.90e-05	0	61	0	589299712	51	4767
2026-01-22 11:51:29.67	259.72	15.99	-39.9	-42.3	13.4	1.14e-05	0	61	0	592445440	51	4719
2026-01-22 11:51:30.68	259.93	16.01	-39.8	-42.2	13.5	1.22e-05	0	61	0	595591168	51	4662
2026-01-22 11:51:31.69	260.15	16.04	-39.8	-42.2	13.5	9.10e-06	0	61	0	598736896	51	4652
2026-01-22 11:51:32.70	260.36	16.07	-39.8	-42.1	13.5	9.90e-06	0	61	0	601882624	51	4628
2026-01-22 11:51:33.71	260.58	16.09	-39.8	-42.1	13.5	6.80e-06	0	61	0	605028352	51	4634
2026-01-22 11:51:34.72	260.80	16.12	-39.9	-42.2	13.4	1.52e-05	0	61	0	608174080	51	4691
2026-01-22 11:51:35.73	261.01	16.14	-39.9	-42.2	13.5	1.75e-05	0	61	0	611319808	51	4677
2026-01-22 11:51:36.74	261.23	16.17	-39.9	-42.3	13.4	1.67e-05	0	61	0	614465536	51	4712
2026-01-22 11:51:37.75	261.45	16.19	-40.0	-42.4	13.3	1.67e-05	0	61	0	617611264	51	4787
2026-01-22 11:51:38.77	261.67	16.22	-40.0	-42.4	13.3	2.28e-05	0	61	0	620756992	51	4776
2026-01-22 11:51:39.78	261.89	16.24	-40.0	-42.4	13.3	2.05e-05	0	61	0	623902720	51	4761
2026-01-22 11:51:40.79	262.11	16.27	-39.9	-42.3	13.4	1.44e-05	0	61	0	627048448	51	4723
2026-01-22 11:51:41.80	262.32	16.29	-39.9	-42.2	13.4	1.90e-05	0	61	0	630194176	51	4699
2026-01-22 11:51:42.80	262.54	16.31	-39.9	-42.2	13.5	1.06e-05	0	61	0	633339904	51	4679
2026-01-22 11:51:43.81	262.76	16.33	-39.9	-42.2	13.4	1.29e-05	0	61	0	636485632	51	4685
2026-01-22 11:51:44.82	262.98	16.36	-39.9	-42.2	13.4	1.67e-05	0	61	0	639631360	51	4697
2026-01-22 11:51:45.83	263.20	16.38	-39.9	-42.2	13.4	9.90e-06	0	61	0	642777088	51	4673
2026-01-22 11:51:46.84	263.42	16.40	-39.9	-42.3	13.4	1.44e-05	0	61	0	645922816	51	4709
2026-01-22 11:51:47.85	263.64	16.42	-40.0	-42.4	13.3	1.90e-05	0	61	0	649068544	51	4786
2026-01-22 11:51:48.86	263.87	16.44	-39.9	-42.2	13.4	1.06e-05	0	61	0	652214272	51	4695
2026-01-22 11:51:49.87	264.09	16.46	-39.8	-42.1	13.5	1.14e-05	0	61	0	655360000	51	4651
2026-01-22 11:51:50.88	264.31	16.48	-39.8	-42.1	13.6	5.30e-06	0	61	0	658505728	51	4629
2026-01-22 11:51:51.89	264.53	16.50	-39.8	-42.1	13.6	9.10e-06	0	61	0	661651456	51	4617
2026-01-22 11:51:52.90	264.75	16.52	-39.8	-42.2	13.5	1.06e-05	0	61	0	664797184	51	4659
2026-01-22 11:51:53.91	264.98	16.54	-39.9	-42.2	13.5	9.10e-06	0	61	0	667942912	51	4688
2026-01-22 11:51:54.92	265.20	16.56	-40.0	-42.4	13.3	1.60e-05	0	61	0	671088640	51	4761
2026-01-22 11:51:55.93	265.42	16.57	-40.0	-42.4	13.3	1.29e-05	0	61	0	674234368	51	4773
2026-01-22 11:51:56.94	265.65	16.59	-40.0	-42.5	13.2	2.05e-05	0	61	0	677380096	51	4815
2026-01-22 11:51:57.95	265.87	16.61	-40.1	-42.5	13.2	2.36e-05	0	61	0	680525824	51	4845
2026-01-22 11:51:58.96	266.09	16.62	-40.1	-42.5	13.2	3.12e-05	0	61	0	683671552	51	4859
2026-01-22 11:51:59.97	266.32	16.64	-40.0	-42.4	13.3	2.21e-05	0	61	0	686817280	51	4784
2026-01-22 11:52:00.98	266.54	16.66	-40.0	-42.4	13.3	1.98e-05	0	61	0	689963008	51	4791
2026-01-22 11:52:01.99	266.77	16.67	-39.9	-42.3	13.4	1.75e-05	0	61	0	693108736	51	4730
2026-01-22 11:52:03.00	266.99	16.69	-39.9	-42.3	13.4	1.37e-05	0	61	0	696254464	51	4713
2026-01-22 11:52:04.01	267.22	16.70	-40.0	-42.4	13.3	2.21e-05	0	61	0	699400192	51	4763
2026-01-22 11:52:05.02	267.44	16.72	-40.0	-42.4	13.3	2.28e-05	0	61	0	702545920	51	4782
2026-01-22 11:52:06.03	267.67	16.73	-40.0	-42.5	13.2	2.05e-05	0	61	0	705691648	51	4824
2026-01-22 11:52:07.04	267.89	16.74	-40.0	-42.3	13.3	1.75e-05	0	61	0	708837376	51	4759
2026-01-22 11:52:08.05	268.12	16.76	-40.0	-42.4	13.2	1.67e-05	0	61	0	711983104	51	4786
2026-01-22 11:52:09.06	268.34	16.77	-40.0	-42.4	13.2	2.13e-05	0	61	0	715128832	51	4776
2026-01-22 11:52:10.07	268.57	16.78	-39.9	-42.2	13.4	7.60e-06	0	61	0	718274560	51	4705
2026-01-22 11:52:11.08	268.80	16.79	-39.9	-42.2	13.4	2.05e-05	0	61	0	721420288	51	4691
2026-01-22 11:52:12.09	269.02	16.80	-39.9	-42.2	13.4	1.67e-05	0	61	0	724566016	51	4697
2026-01-22 11:52:13.10	269.25	16.81	-39.9	-42.2	13.4	1.52e-05	0	61	0	727711744	51	4684
2026-01-22 11:52:14.11	269.48	16.82	-39.9	-42.3	13.4	2.13e-05	0	61	0	730857472	51	4715
2026-01-22 11:52:15.12	269.70	16.83	-40.0	-42.4	13.3	1.60e-05	0	61	0	734003200	51	4769
2026-01-22 11:52:16.13	269.93	16.84	-40.0	-42.4	13.2	2.21e-05	0	61	0	737148928	51	4795
2026-01-22 11:52:17.14	270.16	16.85	-40.0	-42.4	13.3	1.67e-05	0	61	0	740294656	51	4795
2026-01-22 11:52:18.15	270.39	16.86	-39.9	-42.3	13.4	1.22e-05	0	61	0	743440384	51	4731
2026-01-22 11:52:19.16	270.61	16.87	-39.8	-42.1	13.5	1.14e-05	0	61	0	746586112	51	4648
2026-01-22 11:52:20.17	270.84	16.88	-39.8	-42.2	13.5	1.44e-05	0	61	0	749731840	51	4657
2026-01-22 11:52:21.18	271.07	16.88	-39.8	-42.1	13.5	6.10e-06	0	61	0	752877568	51	4629
2026-01-22 11:52:22.19	271.30	16.89	-39.9	-42.2	13.4	6.10e-06	0	61	0	756023296	51	4699
2026-01-22 11:52:23.20	271.52	16.90	-40.0	-42.3	13.3	1.98e-05	0	61	0	759169024	51	4738
2026-01-22 11:52:24.21	271.75	16.90	-40.0	-42.4	13.3	1.98e-05	0	61	0	762314752	51	4774
2026-01-22 11:52:25.22	271.98	16.91	-40.1	-42.5	13.1	2.89e-05	0	61	0	765460480	51	4859
2026-01-22 11:52:26.23	272.21	16.92	-40.0	-42.4	13.2	2.59e-05	0	61	0	768606208	51	4782
2026-01-22 11:52:27.24	272.44	16.92	-39.9	-42.2	13.3	1.44e-05	0	61	0	771751936	51	4700
2026-01-22 11:52:28.25	272.67	16.92	-39.9	-42.2	13.5	2.13e-05	0	61	0	774897664	51	4680
2026-01-22 11:52:29.26	272.89	16.93	-39.9	-42.3	13.3	1.37e-05	0	61	0	778043392	51	4721
2026-01-22 11:52:30.26	273.12	16.93	-40.0	-42.3	13.2	1.98e-05	0	61	0	781189120	51	4757
2026-01-22 11:52:31.27	273.35	16.93	-39.9	-42.3	13.3	1.37e-05	0	61	0	784334848	51	4734
2026-01-22 11:52:32.28	273.58	16.94	-39.9	-42.3	13.3	1.06e-05	0	61	0	787480576	51	4735
2026-01-22 11:52:33.30	273.81	16.94	-40.0	-42.4	13.2	2.36e-05	0	61	0	790626304	51	4813
2026-01-22 11:52:34.31	274.04	16.94	-40.0	-42.4	13.3	1.29e-05	0	61	0	793772032	51	4775
2026-01-22 11:52:35.32	274.26	16.94	-39.9	-42.2	13.4	1.52e-05	0	61	0	796917760	51	4697
2026-01-22 11:52:36.33	274.49	16.94	-39.9	-42.3	13.4	1.60e-05	0	61	0	800063488	51	4713
2026-01-22 11:52:37.34	274.72	16.94	-39.9	-42.2	13.4	1.83e-05	0	61	0	803209216	51	4686
2026-01-22 11:52:38.35	274.95	16.94	-39.9	-42.3	13.3	1.67e-05	0	61	0	806354944	51	4734
2026-01-22 11:52:39.35	275.18	16.94	-39.9	-42.3	13.3	2.51e-05	0	61	0	809500672	51	4747
2026-01-22 11:52:40.36	275.40	16.94	-40.0	-42.3	13.3	1.83e-05	0	61	0	812646400	51	4757
2026-01-22 11:52:41.37	275.63	16.94	-39.9	-42.3	13.3	1.60e-05	0	61	0	815792128	51	4726
2026-01-22 11:52:42.38	275.86	16.94	-40.0	-42.3	13.2	2.05e-05	0	61	0	818937856	51	4759
2026-01-22 11:52:43.39	276.09	16.94	-40.0	-42.3	13.3	1.90e-05	0	61	0	822083584	51	4758
2026-01-22 11:52:44.40	276.32	16.93	-40.0	-42.4	13.2	2.51e-05	0	61	0	825229312	51	4761
2026-01-22 11:52:45.41	276.55	16.93	-40.0	-42.5	13.2	2.59e-05	0	61	0	828375040	51	4818
2026-01-22 11:52:46.42	276.78	16.93	-40.0	-42.4	13.2	3.05e-05	0	61	0	831520768	51	4807
2026-01-22 11:52:47.43	277.00	16.92	-40.1	-42.6	13.0	3.50e-05	0	61	0	834666496	51	4895
2026-01-22 11:52:48.44	277.23	16.92	-40.1	-42.6	13.0	3.58e-05	0	61	0	837812224	51	4872
2026-01-22 11:52:49.44	277.46	16.92	-40.1	-42.5	13.1	3.73e-05	0	61	0	840957952	51	4842
2026-01-22 11:52:50.45	277.69	16.91	-40.1	-42.5	13.1	3.05e-05	0	61	0	844103680	51	4850
2026-01-22 11:52:51.46	277.91	16.90	-40.1	-42.5	13.1	2.67e-05	0	61	0	847249408	51	4865
2026-01-22 11:52:52.47	278.14	16.90	-40.1	-42.5	13.1	3.58e-05	0	61	0	850395136	51	4844
2026-01-22 11:52:53.48	278.37	16.89	-40.0	-42.5	13.1	2.59e-05	0	61	0	853540864	51	4842
2026-01-22 11:52:54.49	278.60	16.89	-40.0	-42.4	13.2	2.44e-05	0	61	0	856686592	51	4770
2026-01-22 11:52:55.50	278.82	16.88	-40.0	-42.4	13.2	2.51e-05	0	61	0	859832320	51	4792
2026-01-22 11:52:56.51	279.05	16.87	-40.0	-42.4	13.2	1.83e-05	0	61	0	862978048	51	4776
2026-01-22 11:52:57.52	279.28	16.86	-40.0	-42.4	13.2	2.36e-05	0	61	0	866123776	51	4787
2026-01-22 11:52:58.53	279.51	16.85	-40.0	-42.4	13.2	2.21e-05	0	61	0	869269504	51	4802
2026-01-22 11:52:59.54	279.73	16.84	-40.0	-42.4	13.2	2.59e-05	0	61	0	872415232	51	4771
2026-01-22 11:53:00.55	279.96	16.83	-39.9	-42.3	13.3	1.22e-05	0	61	0	875560960	51	4721
2026-01-22 11:53:01.56	280.19	16.82	-39.9	-42.3	13.3	1.67e-05	0	61	0	878706688	51	4719
2026-01-22 11:53:02.58	280.42	16.81	-40.0	-42.4	13.2	3.12e-05	0	61	0	881852416	51	4782
2026-01-22 11:53:03.58	280.64	16.80	-40.0	-42.4	13.2	3.66e-05	0	61	0	884998144	51	4803
2026-01-22 11:53:04.59	280.87	16.79	-40.0	-42.4	13.2	2.97e-05	0	61	0	888143872	51	4784
2026-01-22 11:53:05.60	281.09	16.78	-40.0	-42.4	13.2	2.51e-05	0	62	0	891289600	51	4806
2026-01-22 11:53:06.61	281.32	16.77	-40.1	-42.5	13.1	4.04e-05	0	61	0	894435328	51	4856
2026-01-22 11:53:07.62	281.54	16.76	-40.0	-42.4	13.2	2.05e-05	0	61	0	897581056	51	4803
2026-01-22 11:53:08.63	281.77	16.74	-39.9	-42.2	13.4	1.37e-05	0	61	0	901775360	51	4691
2026-01-22 11:53:09.64	281.99	16.73	-39.9	-42.3	13.3	1.52e-05	0	61	0	904921088	51	4743
2026-01-22 11:53:10.65	282.22	16.72	-40.0	-42.4	13.2	2.05e-05	0	61	0	908066816	51	4788
2026-01-22 11:53:11.66	282.44	16.70	-40.1	-42.6	13.0	1.98e-05	0	61	0	910163968	51	4871
2026-01-22 11:53:12.67	282.67	16.69	-40.2	-42.7	12.9	3.81e-05	0	61	0	913309696	51	4931
2026-01-22 11:53:13.67	282.89	16.67	-40.1	-42.5	13.0	3.28e-05	0	61	0	916455424	51	4869
2026-01-22 11:53:14.69	283.12	16.66	-40.0	-42.5	13.1	2.97e-05	0	61	0	920649728	51	4827
2026-01-22 11:53:15.70	283.34	16.64	-40.1	-42.6	13.0	3.43e-05	0	61	0	923795456	51	4874
2026-01-22 11:53:16.71	283.57	16.63	-40.1	-42.6	12.9	4.73e-05	0	61	0	926941184	51	4914
2026-01-22 11:53:17.72	283.79	16.61	-40.0	-42.5	13.1	2.44e-05	0	61	0	930086912	51	4816
2026-01-22 11:53:18.73	284.01	16.59	-40.2	-42.7	12.9	3.43e-05	0	61	0	933232640	51	4941
2026-01-22 11:53:19.74	284.23	16.58	-40.2	-42.7	12.8	4.57e-05	0	61	0	936378368	51	4957
2026-01-22 11:53:20.75	284.46	16.56	-40.2	-42.8	12.8	4.19e-05	0	61	0	939524096	51	4987
2026-01-22 11:53:21.75	284.68	16.54	-40.2	-42.8	12.8	5.79e-05	0	61	0	942669824	51	5008
2026-01-22 11:53:22.76	284.90	16.52	-40.3	-42.9	12.7	7.62e-05	0	61	0	945815552	51	5050
2026-01-22 11:53:23.77	285.12	16.50	-40.4	-43.0	12.6	7.78e-05	0	61	0	948961280	51	5128
2026-01-22 11:53:24.78	285.34	16.48	-40.3	-42.9	12.7	7.01e-05	0	61	0	952107008	51	5045
2026-01-22 11:53:25.79	285.57	16.46	-40.2	-42.7	12.9	4.50e-05	0	61	0	955252736	51	4927
2026-01-22 11:53:26.80	285.79	16.44	-40.0	-42.5	13.0	4.19e-05	0	61	0	958398464	51	4838
2026-01-22 11:53:27.81	286.01	16.42	-40.0	-42.5	13.0	4.57e-05	0	61	0	961544192	51	4820
2026-01-22 11:53:28.82	286.23	16.40	-40.1	-42.6	12.9	4.65e-05	0	62	0	964689920	51	4897
2026-01-22 11:53:29.83	286.45	16.38	-40.1	-42.6	12.9	4.42e-05	0	61	0	967835648	51	4892
2026-01-22 11:53:30.83	286.67	16.36	-40.0	-42.5	13.0	5.34e-05	0	61	0	970981376	51	4839
2026-01-22 11:53:31.84	286.88	16.34	-40.0	-42.4	13.1	3.20e-05	0	62	0	974127104	51	4784
2026-01-22 11:53:32.85	287.10	16.31	-40.0	-42.4	13.2	2.74e-05	0	61	0	977272832	51	4773
2026-01-22 11:53:33.86	287.32	16.29	-40.0	-42.5	13.0	4.11e-05	0	61	0	980418560	51	4817
2026-01-22 11:53:34.87	287.54	16.27	-40.1	-42.6	12.9	4.42e-05	0	61	0	983564288	51	4890
2026-01-22 11:53:35.88	287.76	16.25	-40.1	-42.6	12.8	3.89e-05	0	61	0	986710016	51	4922
2026-01-22 11:53:36.89	287.98	16.22	-40.2	-42.7	12.8	6.25e-05	0	61	0	989855744	51	4959
2026-01-22 11:53:37.90	288.20	16.20	-40.2	-42.8	12.7	7.17e-05	0	62	0	993001472	51	4988
2026-01-22 11:53:38.91	288.41	16.17	-40.1	-42.6	12.9	5.11e-05	0	61	0	996147200	51	4910
2026-01-22 11:53:39.92	288.63	16.15	-40.1	-42.6	12.9	4.50e-05	0	61	0	999292928	51	4878
2026-01-22 11:53:40.93	288.85	16.12	-40.0	-42.5	13.0	4.88e-05	0	61	0	1002438656	51	4848
2026-01-22 11:53:41.95	289.06	16.10	-40.0	-42.4	13.1	3.28e-05	0	61	0	1005584384	51	4806
2026-01-22 11:53:42.95	289.28	16.07	-40.0	-42.4	13.1	3.12e-05	0	61	0	1008730112	51	4772
2026-01-22 11:53:43.97	289.50	16.04	-40.0	-42.4	13.1	2.59e-05	0	61	0	1011875840	51	4780
2026-01-22 11:53:44.98	289.71	16.02	-39.9	-42.3	13.2	2.44e-05	0	61	0	1015021568	51	4735
2026-01-22 11:53:45.99	289.92	15.99	-39.9	-42.3	13.1	2.28e-05	0	61	0	1018167296	51	4758
2026-01-22 11:53:46.99	290.14	15.96	-40.0	-42.4	13.1	3.43e-05	0	61	0	1021313024	51	4798
2026-01-22 11:53:48.00	290.35	15.94	-40.0	-42.5	13.0	4.57e-05	0	61	0	1024458752	51	4846
2026-01-22 11:53:49.01	290.56	15.91	-40.1	-42.6	12.9	4.42e-05	0	61	0	1027604480	51	4902
2026-01-22 11:53:50.02	290.78	15.88	-40.1	-42.6	12.8	5.72e-05	0	61	0	1030750208	51	4921
2026-01-22 11:53:51.03	290.99	15.85	-40.0	-42.5	13.0	3.73e-05	0	61	0	1033895936	51	4847
2026-01-22 11:53:52.04	291.20	15.82	-40.0	-42.4	13.1	3.12e-05	0	62	0	1037041664	51	4798
2026-01-22 11:53:53.05	291.41	15.79	-39.9	-42.4	13.1	2.89e-05	0	61	0	1040187392	51	4768
2026-01-22 11:53:54.06	291.63	15.76	-39.9	-42.3	13.2	2.82e-05	0	61	0	1043333120	51	4744
2026-01-22 11:53:55.07	291.84	15.73	-39.9	-42.3	13.2	3.50e-05	0	61	0	1046478848	51	4736
2026-01-22 11:53:56.08	292.05	15.70	-39.9	-42.3	13.2	2.67e-05	0	61	0	1049624576	51	4727
2026-01-22 11:53:57.09	292.26	15.67	-39.8	-42.2	13.3	2.21e-05	0	62	0	1052770304	51	4666
2026-01-22 11:53:58.10	292.47	15.64	-39.9	-42.3	13.2	2.36e-05	0	61	0	1055916032	51	4720
2026-01-22 11:53:59.11	292.68	15.61	-39.9	-42.3	13.2	2.36e-05	0	61	0	1059061760	51	4711
2026-01-22 11:54:00.12	292.89	15.58	-39.8	-42.2	13.2	1.60e-05	0	62	0	1062207488	51	4686
2026-01-22 11:54:01.13	293.09	15.54	-39.9	-42.3	13.1	2.74e-05	0	61	0	1065353216	51	4743
2026-01-22 11:54:02.14	293.30	15.51	-39.9	-42.4	13.1	2.82e-05	0	61	0	1068498944	51	4768
2026-01-22 11:54:03.15	293.51	15.48	-39.9	-42.3	13.2	3.05e-05	0	61	0	1071644672	51	4718
2026-01-22 11:54:04.16	293.72	15.45	-39.9	-42.4	13.1	3.12e-05	0	62	0	1074790400	51	4772
2026-01-22 11:54:05.17	293.92	15.41	-39.9	-42.3	13.2	2.28e-05	0	62	0	1077936128	51	4736
2026-01-22 11:54:06.18	294.13	15.38	-39.9	-42.3	13.2	2.36e-05	0	61	0	1081081856	51	4718
2026-01-22 11:54:07.19	294.33	15.35	-39.8	-42.2	13.3	2.74e-05	0	61	0	1084227584	51	4667
2026-01-22 11:54:08.20	294.54	15.31	-39.8	-42.2	13.2	1.60e-05	0	62	0	1087373312	51	4673
2026-01-22 11:54:09.21	294.74	15.28	-39.8	-42.2	13.2	2.36e-05	0	62	0	1090519040	51	4691
2026-01-22 11:54:10.22	294.95	15.24	-39.9	-42.3	13.2	2.67e-05	0	61	0	1093664768	51	4706
2026-01-22 11:54:11.23	295.15	15.21	-39.9	-42.3	13.2	2.21e-05	0	62	0	1096810496	51	4729
2026-01-22 11:54:12.24	295.36	15.17	-39.9	-42.4	13.1	2.89e-05	0	61	0	1099956224	51	4770
2026-01-22 11:54:13.25	295.56	15.14	-40.0	-42.4	13.0	3.66e-05	0	62	0	1103101952	51	4803
2026-01-22 11:54:14.26	295.76	15.10	-40.0	-42.5	13.0	3.12e-05	0	62	0	1106247680	51	4832
2026-01-22 11:54:15.27	295.96	15.06	-40.0	-42.6	12.9	5.03e-05	0	62	0	1109393408	51	4874
2026-01-22 11:54:16.28	296.17	15.03	-40.1	-42.6	12.9	4.57e-05	0	61	0	1112539136	51	4888
2026-01-22 11:54:17.30	296.37	14.99	-40.0	-42.5	12.9	3.89e-05	0	62	0	1115684864	51	4862
2026-01-22 11:54:18.30	296.57	14.95	-40.0	-42.5	12.9	4.11e-05	0	62	0	1118830592	51	4837
2026-01-22 11:54:19.31	296.77	14.92	-40.0	-42.6	12.9	5.64e-05	0	62	0	1121976320	51	4874
2026-01-22 11:54:20.32	296.97	14.88	-39.9	-42.4	13.1	2.97e-05	0	61	0	1125122048	51	4783
2026-01-22 11:54:21.33	297.17	14.84	-39.9	-42.3	13.2	1.83e-05	0	62	0	1128267776	51	4728
2026-01-22 11:54:22.35	297.37	14.80	-39.8	-42.2	13.2	1.90e-05	0	62	0	1131413504	51	4694
2026-01-22 11:54:23.36	297.56	14.76	-39.9	-42.3	13.2	2.59e-05	0	61	0	1134559232	51	4715
2026-01-22 11:54:24.37	297.76	14.73	-39.9	-42.3	13.2	3.66e-05	0	61	0	1137704960	51	4734
2026-01-22 11:54:25.38	297.96	14.69	-39.9	-42.3	13.1	2.13e-05	0	62	0	1140850688	51	4748
2026-01-22 11:54:26.38	298.15	14.65	-39.9	-42.3	13.1	3.28e-05	0	62	0	1143996416	51	4758
2026-01-22 11:54:27.39	298.35	14.61	-39.9	-42.4	13.1	2.28e-05	0	62	0	1147142144	51	4768
2026-01-22 11:54:28.40	298.54	14.57	-39.9	-42.3	13.1	2.74e-05	0	62	0	1150287872	51	4759
2026-01-22 11:54:29.41	298.74	14.53	-39.9	-42.3	13.2	2.51e-05	0	62	0	1153433600	51	4735
2026-01-22 11:54:30.42	298.93	14.49	-40.0	-42.5	13.0	2.67e-05	0	61	0	1156579328	51	4830
2026-01-22 11:54:31.43	299.13	14.45	-40.0	-42.4	13.1	2.44e-05	0	61	0	1159725056	51	4799
2026-01-22 11:54:32.44	299.32	14.41	-39.9	-42.3	13.2	1.90e-05	0	62	0	1162870784	51	4746
2026-01-22 11:54:33.45	299.51	14.37	-39.9	-42.3	13.2	1.60e-05	0	62	0	1166016512	51	4710
2026-01-22 11:54:34.46	299.71	14.33	-39.9	-42.4	13.1	2.44e-05	0	62	0	1169162240	51	4772
2026-01-22 11:54:35.47	299.90	14.29	-39.9	-42.3	13.2	1.98e-05	0	61	0	1172307968	51	4721
2026-01-22 11:54:36.48	300.09	14.24	-39.9	-42.4	13.1	1.67e-05	0	62	0	1175453696	51	4762
2026-01-22 11:54:37.49	300.28	14.20	-39.8	-42.2	13.3	1.06e-05	0	61	0	1178599424	51	4673
2026-01-22 11:54:38.50	300.47	14.16	-39.9	-42.3	13.2	1.98e-05	0	62	0	1181745152	51	4719
2026-01-22 11:54:39.51	300.66	14.12	-39.9	-42.3	13.2	2.59e-05	0	62	0	1184890880	51	4717
2026-01-22 11:54:40.52	300.85	14.08	-39.9	-42.3	13.2	2.36e-05	0	62	0	1188036608	51	4733
2026-01-22 11:54:41.53	301.04	14.03	-39.9	-42.3	13.2	2.44e-05	0	61	0	1191182336	51	4733
2026-01-22 11:54:42.54	301.23	13.99	-39.9	-42.4	13.1	2.59e-05	0	61	0	1194328064	51	4771
2026-01-22 11:54:43.56	301.42	13.95	-40.0	-42.4	13.1	3.50e-05	0	61	0	1197473792	51	4803
2026-01-22 11:54:44.57	301.60	13.91	-40.1	-42.6	12.9	4.11e-05	0	62	0	1200619520	51	4901
2026-01-22 11:54:45.58	301.79	13.86	-40.1	-42.6	12.9	3.96e-05	0	61	0	1203765248	51	4893
2026-01-22 11:54:46.59	301.98	13.82	-40.1	-42.7	12.8	5.34e-05	0	62	0	1206910976	51	4946
2026-01-22 11:54:47.60	302.16	13.77	-40.1	-42.6	12.9	3.89e-05	0	61	0	1210056704	51	4879
2026-01-22 11:54:48.61	302.35	13.73	-40.0	-42.5	13.0	4.04e-05	0	62	0	1213202432	51	4834
2026-01-22 11:54:49.61	302.53	13.69	-40.0	-42.4	13.1	3.43e-05	0	61	0	1216348160	51	4790
2026-01-22 11:54:50.62	302.71	13.64	-40.0	-42.4	13.0	3.81e-05	0	62	0	1219493888	51	4792
2026-01-22 11:54:51.63	302.90	13.60	-40.0	-42.4	13.1	3.43e-05	0	61	0	1223688192	51	4801
2026-01-22 11:54:52.64	303.08	13.55	-40.0	-42.4	13.0	3.50e-05	0	61	0	1225785344	51	4809
2026-01-22 11:54:53.65	303.26	13.51	-40.0	-42.5	12.9	4.27e-05	0	62	0	1228931072	51	4870
2026-01-22 11:54:54.66	303.44	13.46	-40.1	-42.6	12.9	5.87e-05	0	62	0	1232076800	51	4876
2026-01-22 11:54:55.67	303.62	13.42	-40.1	-42.7	12.8	5.64e-05	0	62	0	1235222528	51	4937
2026-01-22 11:54:56.68	303.81	13.37	-40.1	-42.7	12.8	6.79e-05	0	61	0	1239416832	51	4944
2026-01-22 11:54:57.69	303.99	13.33	-40.2	-42.8	12.7	7.32e-05	0	61	0	1242562560	51	5019
2026-01-22 11:54:58.70	304.17	13.28	-40.3	-42.9	12.6	8.31e-05	0	61	0	1245708288	51	5066
2026-01-22 11:54:59.71	304.34	13.24	-40.3	-43.0	12.5	1.05e-04	0	62	0	1247805440	51	5117
2026-01-22 11:55:00.72	304.52	13.19	-40.3	-42.9	12.5	1.20e-04	0	61	0	1250951168	51	5092
2026-01-22 11:55:01.73	304.70	13.14	-40.4	-43.0	12.4	1.32e-04	0	62	0	1255145472	51	5140
2026-01-22 11:55:02.74	304.88	13.10	-40.4	-43.1	12.4	1.35e-04	0	62	0	1258291200	51	5167
2026-01-22 11:55:03.75	305.05	13.05	-40.3	-42.9	12.5	1.35e-04	0	62	0	1261436928	51	5087
2026-01-22 11:55:04.76	305.23	13.00	-40.3	-42.9	12.5	1.17e-04	0	62	0	1264582656	51	5099
2026-01-22 11:55:05.77	305.41	12.96	-40.3	-42.9	12.6	1.22e-04	0	62	0	1267728384	51	5044
2026-01-22 11:55:06.77	305.58	12.91	-40.2	-42.8	12.6	9.84e-05	0	62	0	1270874112	51	4991
2026-01-22 11:55:07.78	305.76	12.86	-40.1	-42.7	12.7	6.86e-05	0	62	0	1274019840	51	4953
2026-01-22 11:55:08.79	305.93	12.82	-40.1	-42.7	12.7	8.23e-05	0	62	0	1277165568	51	4953
2026-01-22 11:55:09.80	306.10	12.77	-40.2	-42.8	12.6	7.17e-05	0	62	0	1280311296	51	4991
2026-01-22 11:55:10.81	306.28	12.72	-40.2	-42.7	12.7	8.16e-05	0	62	0	1283457024	51	4975
2026-01-22 11:55:11.82	306.45	12.67	-40.2	-42.8	12.6	7.47e-05	0	62	0	1286602752	51	5035
2026-01-22 11:55:12.83	306.62	12.63	-40.3	-42.9	12.5	1.20e-04	0	62	0	1289748480	51	5093
2026-01-22 11:55:13.84	306.79	12.58	-40.3	-43.0	12.5	1.20e-04	0	62	0	1292894208	51	5104
2026-01-22 11:55:14.85	306.96	12.53	-40.3	-43.0	12.4	1.76e-04	0	62	0	1296039936	51	5140
2026-01-22 11:55:15.86	307.13	12.48	-40.3	-43.0	12.4	1.65e-04	0	62	0	1299185664	51	5156
2026-01-22 11:55:16.87	307.30	12.43	-40.4	-43.1	12.4	1.72e-04	0	62	0	1302331392	51	5166
2026-01-22 11:55:17.88	307.47	12.38	-40.4	-43.1	12.3	2.01e-04	0	61	0	1305477120	51	5213
2026-01-22 11:55:18.89	307.64	12.34	-40.5	-43.3	12.1	2.67e-04	0	62	0	1308622848	51	5286
2026-01-22 11:55:19.90	307.81	12.29	-40.4	-43.2	12.2	2.46e-04	0	62	0	1311768576	51	5257
2026-01-22 11:55:20.91	307.98	12.24	-40.5	-43.2	12.1	2.83e-04	0	62	0	1314914304	51	5275
2026-01-22 11:55:21.92	308.14	12.19	-40.5	-43.2	12.1	2.55e-04	0	62	0	1318060032	51	5274
2026-01-22 11:55:22.93	308.31	12.14	-40.5	-43.3	12.0	2.84e-04	0	62	0	1321205760	51	5300
2026-01-22 11:55:23.94	308.48	12.09	-40.5	-43.3	12.0	3.89e-04	0	61	0	1324351488	51	5328
2026-01-22 11:55:24.95	308.64	12.04	-40.5	-43.3	12.0	3.75e-04	0	62	0	1327497216	51	5305
2026-01-22 11:55:25.96	308.81	11.99	-40.5	-43.2	12.1	2.59e-04	0	61	0	1330642944	51	5278
2026-01-22 11:55:26.97	308.97	11.94	-40.4	-43.2	12.1	2.71e-04	0	62	0	1333788672	51	5239
2026-01-22 11:55:27.98	309.13	11.89	-40.5	-43.3	12.0	2.80e-04	0	61	0	1336934400	51	5311
2026-01-22 11:55:28.99	309.30	11.84	-40.5	-43.3	12.0	3.42e-04	0	61	0	1340080128	51	5326
2026-01-22 11:55:30.00	309.46	11.79	-40.5	-43.4	11.9	3.47e-04	0	62	0	1343225856	51	5357
2026-01-22 11:55:31.01	309.62	11.74	-40.6	-43.4	11.9	3.75e-04	0	62	0	1346371584	51	5382
2026-01-22 11:55:32.02	309.78	11.69	-40.6	-43.4	11.9	3.95e-04	0	62	0	1349517312	51	5377
2026-01-22 11:55:33.02	309.94	11.64	-40.6	-43.5	11.9	3.96e-04	0	62	0	1352663040	51	5410
2026-01-22 11:55:34.03	310.10	11.59	-40.6	-43.5	11.8	4.29e-04	0	62	0	1355808768	51	5460
2026-01-22 11:55:35.04	310.27	11.54	-40.6	-43.6	11.7	5.26e-04	0	62	0	1358954496	51	5475
2026-01-22 11:55:36.05	310.42	11.49	-40.7	-43.6	11.7	5.84e-04	0	62	0	1362100224	51	5523
2026-01-22 11:55:37.06	310.58	11.44	-40.7	-43.7	11.5	7.07e-04	0	62	0	1365245952	52	5241
2026-01-22 11:55:38.07	310.74	11.39	-40.7	-43.6	11.6	7.47e-04	0	61	0	1368391680	52	5217
2026-01-22 11:55:39.08	310.90	11.34	-40.7	-43.7	11.5	7.95e-04	0	62	0	1371537408	52	5257
2026-01-22 11:55:40.09	311.06	11.29	-40.7	-43.7	11.5	8.57e-04	0	62	0	1374683136	52	5230
2026-01-22 11:55:41.10	311.21	11.24	-40.6	-43.6	11.6	7.67e-04	0	62	0	1377828864	52	5201
2026-01-22 11:55:42.11	311.37	11.19	-40.7	-43.7	11.5	7.03e-04	0	62	0	1380974592	52	5224
2026-01-22 11:55:43.12	311.53	11.14	-40.6	-43.6	11.6	6.71e-04	0	62	0	1384120320	52	5169
2026-01-22 11:55:44.13	311.68	11.09	-40.5	-43.4	11.8	4.97e-04	0	62	0	1387266048	52	5063
2026-01-22 11:55:45.14	311.84	11.03	-40.5	-43.4	11.8	4.44e-04	0	62	0	1390411776	52	5046
2026-01-22 11:55:46.15	311.99	10.98	-40.5	-43.4	11.8	3.93e-04	0	62	0	1393557504	52	5051
2026-01-22 11:55:47.16	312.14	10.93	-40.5	-43.4	11.8	5.16e-04	0	62	0	1396703232	52	5057
2026-01-22 11:55:48.17	312.30	10.88	-40.5	-43.4	11.8	5.48e-04	0	62	0	1399848960	52	5081
2026-01-22 11:55:49.18	312.45	10.83	-40.5	-43.4	11.7	4.68e-04	0	62	0	1402994688	52	5079
2026-01-22 11:55:50.19	312.60	10.78	-40.5	-43.5	11.7	5.19e-04	0	62	0	1406140416	52	5106
2026-01-22 11:55:51.20	312.75	10.73	-40.5	-43.4	11.8	5.60e-04	0	62	0	1409286144	52	5078
2026-01-22 11:55:52.21	312.91	10.67	-40.5	-43.4	11.8	4.75e-04	0	62	0	1412431872	52	5062
2026-01-22 11:55:53.22	313.06	10.62	-40.5	-43.5	11.7	5.30e-04	0	62	0	1415577600	52	5101
2026-01-22 11:55:54.23	313.21	10.57	-40.5	-43.5	11.7	5.75e-04	0	62	0	1418723328	52	5130
2026-01-22 11:55:55.24	313.36	10.52	-40.5	-43.5	11.7	6.48e-04	0	62	0	1421869056	52	5127
2026-01-22 11:55:56.25	313.50	10.47	-40.6	-43.6	11.5	7.06e-04	0	62	0	1425014784	52	5201
2026-01-22 11:55:57.25	313.65	10.41	-40.6	-43.6	11.5	8.04e-04	0	62	0	1428160512	52	5206
2026-01-22 11:55:58.26	313.80	10.36	-40.6	-43.6	11.5	7.45e-04	0	62	0	1431306240	52	5178
2026-01-22 11:55:59.27	313.95	10.31	-40.6	-43.7	11.5	7.66e-04	0	61	0	1434451968	52	5234
2026-01-22 11:56:00.28	314.09	10.26	-40.7	-43.7	11.4	9.24e-04	0	61	0	1437597696	52	5252
2026-01-22 11:56:01.29	314.24	10.21	-40.6	-43.6	11.5	8.64e-04	0	62	0	1440743424	52	5214
2026-01-22 11:56:02.30	314.39	10.15	-40.7	-43.9	11.3	1.07e-03	0	61	0	1443889152	52	5342
2026-01-22 11:56:03.31	314.53	10.10	-40.7	-43.8	11.3	1.16e-03	0	62	0	1447034880	52	5327
2026-01-22 11:56:04.33	314.68	10.05	-40.8	-43.9	11.2	1.26e-03	0	61	0	1450180608	52	5383
2026-01-22 11:56:05.33	314.82	10.00	-40.8	-44.0	11.1	1.52e-03	0	62	0	1453326336	52	5444
2026-01-22 11:56:06.34	314.97	9.94	-40.8	-43.9	11.2	1.52e-03	0	62	0	1456472064	52	5389
2026-01-22 11:56:07.35	315.11	9.89	-40.8	-43.9	11.2	1.30e-03	0	62	0	1459617792	52	5361
2026-01-22 11:56:08.36	315.25	9.84	-40.7	-43.9	11.3	1.13e-03	0	62	0	1462763520	52	5346
2026-01-22 11:56:09.37	315.39	9.79	-40.8	-43.9	11.2	1.48e-03	0	62	0	1465909248	52	5399
2026-01-22 11:56:10.38	315.54	9.73	-40.7	-43.9	11.2	1.33e-03	0	62	0	1469054976	52	5356
2026-01-22 11:56:11.39	315.68	9.68	-40.8	-43.9	11.2	1.24e-03	0	62	0	1472200704	52	5374
2026-01-22 11:56:12.40	315.82	9.63	-40.7	-43.9	11.2	1.36e-03	0	62	0	1475346432	52	5355
2026-01-22 11:56:13.41	315.96	9.58	-40.8	-44.0	11.1	1.53e-03	0	62	0	1478492160	52	5409
2026-01-22 11:56:14.42	316.10	9.52	-40.8	-44.0	11.1	1.55e-03	0	62	0	1481637888	52	5404
2026-01-22 11:56:15.42	316.24	9.47	-40.8	-44.0	11.1	1.64e-03	0	61	0	1484783616	52	5419
2026-01-22 11:56:16.43	316.38	9.42	-40.8	-43.9	11.1	1.53e-03	0	62	0	1487929344	52	5369
2026-01-22 11:56:17.44	316.52	9.37	-40.8	-43.9	11.1	1.48e-03	0	62	0	1491075072	52	5384
2026-01-22 11:56:18.45	316.65	9.31	-40.7	-43.9	11.2	1.43e-03	0	62	0	1494220800	52	5351
2026-01-22 11:56:19.46	316.79	9.26	-40.7	-43.8	11.3	1.19e-03	0	62	0	1497366528	52	5285
2026-01-22 11:56:20.47	316.93	9.21	-40.7	-43.9	11.2	1.20e-03	0	61	0	1500512256	52	5357
2026-01-22 11:56:21.48	317.07	9.15	-40.8	-43.9	11.1	1.46e-03	0	62	0	1503657984	52	5394
2026-01-22 11:56:22.49	317.20	9.10	-40.7	-43.9	11.1	1.52e-03	0	62	0	1506803712	52	5347
2026-01-22 11:56:23.50	317.34	9.05	-40.7	-43.9	11.2	1.49e-03	0	61	0	1509949440	52	5356
2026-01-22 11:56:24.51	317.47	8.99	-40.7	-43.8	11.2	1.44e-03	0	62	0	1513095168	52	5307
2026-01-22 11:56:25.52	317.61	8.94	-40.7	-43.9	11.2	1.33e-03	0	62	0	1516240896	52	5354
2026-01-22 11:56:26.53	317.74	8.89	-40.7	-43.9	11.1	1.57e-03	0	62	0	1519386624	52	5362
2026-01-22 11:56:27.55	317.88	8.83	-40.7	-43.9	11.1	1.80e-03	0	62	0	1522532352	52	5383
2026-01-22 11:56:28.55	318.01	8.78	-40.7	-43.9	11.1	1.49e-03	0	62	0	1525678080	52	5380
2026-01-22 11:56:29.56	318.14	8.73	-40.7	-43.9	11.1	1.55e-03	0	62	0	1528823808	52	5375
2026-01-22 11:56:30.57	318.27	8.68	-40.7	-43.9	11.1	1.71e-03	0	62	0	1531969536	52	5382
2026-01-22 11:56:31.58	318.41	8.62	-40.7	-43.9	11.1	1.78e-03	0	62	0	1535115264	52	5390
2026-01-22 11:56:32.59	318.54	8.57	-40.8	-44.0	11.0	1.78e-03	0	62	0	1538260992	52	5421
2026-01-22 11:56:33.60	318.67	8.52	-40.8	-44.1	10.9	1.81e-03	0	62	0	1541406720	52	5472
2026-01-22 11:56:34.61	318.80	8.46	-40.8	-44.1	10.9	2.08e-03	0	62	0	1544552448	52	5472
2026-01-22 11:56:35.62	318.93	8.41	-40.8	-44.1	10.8	2.42e-03	0	62	0	1547698176	52	5519
2026-01-22 11:56:36.63	319.06	8.36	-40.9	-44.2	10.8	2.29e-03	0	62	0	1550843904	52	5545
2026-01-22 11:56:37.64	319.19	8.30	-40.8	-44.0	11.0	2.02e-03	0	62	0	1553989632	52	5433
2026-01-22 11:56:38.65	319.32	8.25	-40.8	-44.0	10.9	2.12e-03	0	61	0	1557135360	52	5460
2026-01-22 11:56:39.66	319.44	8.20	-40.9	-44.2	10.8	2.51e-03	0	62	0	1560281088	52	5537
2026-01-22 11:56:40.66	319.57	8.14	-40.9	-44.2	10.7	3.06e-03	0	62	0	1563426816	52	5567
2026-01-22 11:56:41.67	319.70	8.09	-40.8	-44.1	10.8	2.41e-03	0	62	0	1566572544	52	5509
2026-01-22 11:56:42.68	319.83	8.04	-40.8	-44.1	10.8	2.57e-03	0	62	0	1569718272	52	5511
2026-01-22 11:56:43.69	319.95	7.98	-43.4	-51.2	4.1	1.20e-01	0	62	104	1572864000	58	8785
2026-01-22 11:56:44.71	320.08	7.93	-44.6	-56.8	3.8	1.49e+00	0	62	104	1572864000	59	15891
2026-01-22 11:56:45.72	320.20	7.88	-44.8	-57.2	3.8	1.49e+00	0	62	104	1572864000	60	15661
2026-01-22 11:56:46.72	320.33	7.82	-45.0	-57.4	3.8	1.49e+00	0	62	104	1572864000	60	15990
2026-01-22 11:56:47.73	320.45	7.77	-45.1	-57.5	3.8	1.49e+00	0	62	104	1572864000	60	16299
2026-01-22 11:56:48.74	320.58	7.72	-45.2	-57.6	3.8	1.49e+00	0	62	104	1572864000	60	16430
2026-01-22 11:56:49.75	320.70	7.66	-45.3	-57.7	3.8	1.49e+00	0	62	104	1572864000	61	15605
2026-01-22 11:56:50.77	320.83	7.61	-45.3	-57.7	3.8	1.49e+00	0	62	104	1572864000	61	15664
2026-01-22 11:56:51.78	320.95	7.56	-45.3	-57.7	3.8	1.49e+00	0	62	104	1572864000	61	15678
2026-01-22 11:56:52.79	321.07	7.50	-45.3	-57.7	3.8	1.49e+00	0	62	104	1572864000	61	15701
2026-01-22 11:56:53.80	321.19	7.45	-45.3	-57.6	3.8	1.49e+00	0	62	104	1572864000	61	15573
2026-01-22 11:56:54.80	321.31	7.40	-44.8	-57.6	3.8	1.49e+00	0	62	104	1572864000	60	16426
2026-01-22 11:56:55.81	321.43	7.34	-45.0	-57.6	3.8	1.49e+00	0	62	104	1572864000	61	15497
2026-01-22 11:56:56.82	321.56	7.29	-45.2	-57.6	3.8	1.49e+00	0	62	104	1572864000	61	15546
2026-01-22 11:56:57.83	321.68	7.24	-45.2	-57.6	3.8	1.49e+00	0	62	104	1572864000	61	15462
2026-01-22 11:56:58.84	321.80	7.18	-45.2	-57.6	3.8	1.49e+00	0	62	104	1572864000	61	15431
2026-01-22 11:56:59.85	321.92	7.13	-45.2	-57.5	3.8	1.49e+00	0	62	104	1572864000	61	15372
2026-01-22 11:57:00.87	322.04	7.08	-45.1	-57.5	3.8	1.49e+00	0	62	104	1572864000	61	15370
2026-01-22 11:57:01.88	322.15	7.02	-45.2	-57.6	3.8	1.49e+00	0	62	104	1572864000	61	15452
2026-01-22 11:57:02.89	322.27	6.97	-45.2	-57.5	3.8	1.49e+00	0	62	104	1572864000	60	16285
2026-01-22 11:57:03.90	322.39	6.92	-45.2	-57.5	3.8	1.49e+00	0	62	104	1572864000	60	16303
2026-01-22 11:57:04.91	322.51	6.86	-45.1	-57.5	3.8	1.49e+00	0	62	104	1572864000	60	16251
2026-01-22 11:57:05.92	322.63	6.81	-45.2	-57.5	3.8	1.49e+00	0	62	104	1572864000	60	16215
2026-01-22 11:57:06.93	322.74	6.76	-45.2	-57.5	3.8	1.49e+00	0	62	104	1572864000	60	16228
2026-01-22 11:57:07.94	322.86	6.70	-45.1	-57.5	3.8	1.49e+00	0	62	104	1572864000	60	16222
2026-01-22 11:57:08.95	322.97	6.65	-45.2	-57.5	3.8	1.49e+00	0	62	104	1572864000	60	16281
2026-01-22 11:57:09.96	323.09	6.60	-45.2	-57.5	3.8	1.49e+00	0	62	104	1572864000	60	16272
2026-01-22 11:57:10.97	323.20	6.54	-45.1	-57.6	3.8	1.49e+00	0	62	104	1572864000	60	16336
2026-01-22 11:57:11.98	323.32	6.49	-45.1	-57.5	3.8	1.49e+00	0	62	104	1572864000	60	16312
2026-01-22 11:57:13.00	323.43	6.44	-45.2	-57.5	3.8	1.49e+00	0	62	104	1572864000	60	16263
2026-01-22 11:57:14.00	323.55	6.39	-45.2	-57.5	3.8	1.49e+00	0	62	104	1572864000	60	16253
2026-01-22 11:57:15.02	323.66	6.33	-45.1	-57.5	3.8	1.49e+00	0	62	104	1572864000	60	16197
2026-01-22 11:57:16.03	323.77	6.28	-45.1	-57.5	3.8	1.49e+00	0	62	104	1572864000	60	16284
2026-01-22 11:57:17.04	323.89	6.23	-45.1	-57.5	3.8	1.49e+00	0	62	104	1572864000	60	16248
2026-01-22 11:57:18.05	324.00	6.17	-45.1	-57.5	3.8	1.49e+00	0	62	104	1572864000	60	16272
2026-01-22 11:57:19.06	324.11	6.12	-44.6	-57.5	3.8	1.49e+00	0	62	104	1572864000	60	16281
2026-01-22 11:57:20.07	324.22	6.07	-44.9	-57.5	3.8	1.49e+00	0	62	104	1572864000	60	16268
2026-01-22 11:57:21.08	324.33	6.01	-44.6	-57.5	3.8	1.49e+00	0	62	104	1572864000	60	16271
2026-01-22 11:57:22.09	324.44	5.96	-45.0	-57.5	3.8	1.49e+00	0	62	104	1572864000	60	16291
2026-01-22 11:57:23.10	324.55	5.91	-44.8	-57.5	3.8	1.49e+00	0	62	104	1572864000	60	16266
2026-01-22 11:57:24.11	324.66	5.85	-45.1	-57.5	3.8	1.49e+00	0	62	104	1572864000	60	16187
2026-01-22 11:57:25.12	324.77	5.80	-45.1	-57.5	3.8	1.49e+00	0	62	104	1572864000	60	16221
2026-01-22 11:57:26.13	324.88	5.75	-45.1	-57.5	3.8	1.49e+00	0	62	104	1572864000	60	16188
2026-01-22 11:57:27.14	324.99	5.70	-45.0	-57.5	3.8	1.49e+00	0	62	104	1572864000	60	16250
2026-01-22 11:57:28.15	325.10	5.64	-44.4	-57.4	3.8	1.49e+00	0	62	104	1572864000	59	16921
2026-01-22 11:57:29.16	325.21	5.59	-45.1	-57.5	3.8	1.49e+00	0	62	104	1572864000	60	16291
2026-01-22 11:57:30.17	325.32	5.54	-45.1	-57.5	3.8	1.49e+00	0	62	104	1572864000	60	16270
2026-01-22 11:57:31.18	325.42	5.49	-45.1	-57.5	3.8	1.49e+00	0	62	104	1572864000	60	16266
2026-01-22 11:57:32.19	325.53	5.43	-45.0	-57.5	3.8	1.49e+00	0	62	104	1572864000	60	16211
2026-01-22 11:57:33.20	325.64	5.38	-45.0	-57.5	3.8	1.49e+00	0	62	104	1572864000	60	16157
2026-01-22 11:57:34.21	325.74	5.33	-45.1	-57.5	3.8	1.49e+00	0	62	104	1572864000	60	16234
2026-01-22 11:57:35.22	325.85	5.27	-45.1	-57.5	3.8	1.49e+00	0	62	104	1572864000	60	16197
2026-01-22 11:57:36.23	325.95	5.22	-45.1	-57.5	3.8	1.49e+00	0	62	104	1572864000	60	16208
2026-01-22 11:57:37.24	326.06	5.17	-45.1	-57.5	3.8	1.49e+00	0	62	104	1572864000	60	16262
2026-01-22 11:57:38.25	326.16	5.12	-45.1	-57.6	3.8	1.49e+00	0	62	104	1572864000	60	16318
2026-01-22 11:57:39.26	326.27	5.06	-45.0	-57.5	3.8	1.49e+00	0	62	104	1572864000	60	16251
2026-01-22 11:57:40.27	326.37	5.01	-45.1	-57.5	3.8	1.49e+00	0	62	104	1572864000	60	16204
2026-01-22 11:57:41.28	326.48	4.96	-45.1	-57.5	3.8	1.49e+00	0	62	104	1572864000	60	16161
2026-01-22 11:57:42.29	326.58	4.91	-45.1	-57.5	3.8	1.49e+00	0	62	104	1572864000	60	16260
2026-01-22 11:57:43.30	326.68	4.85	-45.1	-57.5	3.8	1.49e+00	0	62	104	1572864000	60	16198
2026-01-22 11:57:44.32	326.79	4.80	-45.1	-57.5	3.8	1.49e+00	0	62	104	1572864000	60	16181
2026-01-22 11:57:45.33	326.89	4.75	-45.1	-57.5	3.8	1.49e+00	0	62	104	1572864000	60	16190
2026-01-22 11:57:46.34	326.99	4.70	-45.1	-57.5	3.8	1.49e+00	0	62	104	1572864000	60	16224
2026-01-22 11:57:47.35	327.09	4.64	-45.1	-57.5	3.8	1.49e+00	0	62	104	1572864000	60	16212
2026-01-22 11:57:48.36	327.19	4.59	-45.1	-57.5	3.8	1.49e+00	0	62	104	1572864000	60	16237
2026-01-22 11:57:49.37	327.29	4.54	-45.1	-57.5	3.8	1.49e+00	0	62	104	1572864000	60	16174
2026-01-22 11:57:50.38	327.39	4.49	-45.1	-57.5	3.8	1.49e+00	0	62	104	1572864000	60	16238
2026-01-22 11:57:51.39	327.49	4.44	-45.1	-57.5	3.8	1.49e+00	0	62	104	1572864000	60	16204
2026-01-22 11:57:52.40	327.59	4.38	-45.1	-57.5	3.8	1.49e+00	0	62	104	1572864000	60	16174
2026-01-22 11:57:53.41	327.69	4.33	-45.1	-57.5	3.8	1.49e+00	0	62	104	1572864000	60	16196
2026-01-22 11:57:54.42	327.79	4.28	-45.1	-57.5	3.8	1.49e+00	0	62	104	1572864000	60	16196
2026-01-22 11:57:55.43	327.89	4.23	-45.1	-57.5	3.8	1.49e+00	0	62	104	1572864000	60	16248
2026-01-22 11:57:56.44	327.99	4.18	-45.1	-57.5	3.8	1.49e+00	0	62	104	1572864000	60	16189
2026-01-22 11:57:57.45	328.09	4.12	-45.1	-57.5	3.8	1.49e+00	0	62	104	1572864000	60	16170
2026-01-22 11:57:58.46	328.19	4.07	-45.1	-57.5	3.8	1.49e+00	0	62	104	1572864000	60	16143
2026-01-22 11:57:59.47	328.28	4.02	-45.1	-57.5	3.8	1.49e+00	0	62	104	1572864000	60	16153
2026-01-22 11:58:00.48	328.38	3.97	-45.0	-57.5	3.8	1.49e+00	0	62	104	1572864000	60	16132
2026-01-22 11:58:01.49	328.48	3.92	-45.1	-57.4	3.8	1.49e+00	0	62	104	1572864000	60	16063
2026-01-22 11:58:02.50	328.57	3.86	-45.1	-57.4	3.8	1.49e+00	0	62	104	1572864000	60	16097
2026-01-22 11:58:03.51	328.67	3.81	-45.1	-57.5	3.8	1.49e+00	0	62	104	1572864000	60	16224
2026-01-22 11:58:04.52	328.77	3.76	-45.0	-57.5	3.8	1.49e+00	0	62	104	1572864000	60	16192
2026-01-22 11:58:05.53	328.86	3.71	-45.1	-57.4	3.8	1.49e+00	0	62	104	1572864000	60	16119
2026-01-22 11:58:06.54	328.96	3.66	-45.0	-57.5	3.8	1.49e+00	0	62	104	1572864000	60	16169
2026-01-22 11:58:07.55	329.05	3.61	-45.0	-57.4	3.8	1.49e+00	0	62	104	1572864000	60	16090
2026-01-22 11:58:08.56	329.15	3.55	-45.1	-57.5	3.8	1.49e+00	0	62	104	1572864000	60	16167
2026-01-22 11:58:09.57	329.24	3.50	-45.1	-57.5	3.8	1.49e+00	0	62	104	1572864000	60	16147
2026-01-22 11:58:10.58	329.33	3.45	-45.1	-57.4	3.8	1.49e+00	0	62	104	1572864000	60	16109
2026-01-22 11:58:11.59	329.43	3.40	-45.1	-57.5	3.8	1.49e+00	0	62	104	1572864000	60	16128
2026-01-22 11:58:12.60	329.52	3.35	-45.1	-57.4	3.8	1.49e+00	0	62	104	1572864000	60	16050
2026-01-22 11:58:13.61	329.62	3.30	-45.1	-57.4	3.8	1.49e+00	0	62	104	1572864000	60	16099
2026-01-22 11:58:14.63	329.71	3.25	-45.1	-57.5	3.8	1.49e+00	0	62	104	1572864000	60	16145
2026-01-22 11:58:15.64	329.80	3.19	-45.1	-57.4	3.8	1.49e+00	0	62	104	1572864000	60	16084
