passes_logs/2026/01/22/R2.0S_Moscow/R2.0S_Moscow__20260122_215054_FENGYUN_3G_rec.log

#Pass ID: 20260122_215054_FENGYUN 3G
#Satellite: FENGYUN 3G
#Configuration: FENGYUN 3G
#almurnet v.1.7.20251203
#Start time: 2026-01-22 21:50:56

#Version: 2.2.20231116
#Station: R2.0S_Moscow
#Location: 37.707566 lon 55.798166 lat
#TLE: 1 56232U 23055A   26022.50924442  .00035566  00000+0  54215-3 0  9999
#TLE: 2 56232  49.9945  17.1750 0004072  65.8313 294.3080 15.54075298157364

#Time	Az	El	Level	Level2	SNR	BER	BlckErr	Temp	State	Recorded	gain1	gain2
2026-01-22 21:50:56.52	263.39	1.94	-44.1	-62.2	3.8	8.46e-01	0	51	0	0	60	27962
2026-01-22 21:50:57.53	263.31	2.01	-44.1	-62.2	3.8	8.44e-01	0	51	104	0	60	27951
2026-01-22 21:50:58.54	263.22	2.07	-44.1	-62.2	3.8	8.46e-01	0	51	104	0	60	27925
2026-01-22 21:50:59.55	263.14	2.13	-44.1	-62.2	3.8	8.46e-01	0	51	104	0	60	27832
2026-01-22 21:51:00.56	263.05	2.20	-44.1	-62.2	3.8	8.46e-01	0	51	104	0	60	27918
2026-01-22 21:51:01.57	262.96	2.26	-44.1	-62.2	3.8	8.45e-01	0	51	104	0	60	27958
2026-01-22 21:51:02.59	262.87	2.32	-44.1	-62.2	3.8	8.47e-01	0	52	104	0	60	27813
2026-01-22 21:51:03.60	262.78	2.39	-44.1	-62.2	3.8	8.47e-01	0	52	104	0	60	27823
2026-01-22 21:51:04.60	262.70	2.45	-44.1	-62.2	3.8	8.46e-01	0	52	104	0	60	27818
2026-01-22 21:51:05.61	262.61	2.51	-44.1	-62.2	3.8	8.46e-01	0	52	104	0	60	27758
2026-01-22 21:51:06.62	262.52	2.58	-44.1	-62.2	3.8	8.46e-01	0	52	104	0	60	27768
2026-01-22 21:51:07.64	262.43	2.64	-44.1	-62.1	3.8	8.46e-01	0	52	104	0	60	27677
2026-01-22 21:51:08.65	262.33	2.71	-44.1	-62.1	3.8	8.45e-01	0	52	104	0	60	27649
2026-01-22 21:51:09.66	262.24	2.77	-44.1	-62.1	3.8	8.45e-01	0	52	104	0	60	27658
2026-01-22 21:51:10.67	262.15	2.84	-44.1	-62.1	3.8	8.46e-01	0	52	104	0	60	27547
2026-01-22 21:51:11.68	262.06	2.90	-44.1	-62.1	3.8	8.46e-01	0	52	104	0	60	27630
2026-01-22 21:51:12.69	261.96	2.97	-44.1	-62.1	3.8	8.47e-01	0	52	104	0	60	27618
2026-01-22 21:51:13.70	261.87	3.03	-44.1	-62.1	3.8	8.47e-01	0	52	104	0	60	27631
2026-01-22 21:51:14.71	261.78	3.10	-44.1	-62.2	3.8	8.46e-01	0	52	104	0	60	27733
2026-01-22 21:51:15.72	261.68	3.17	-44.1	-62.1	3.8	8.46e-01	0	52	104	0	60	27614
2026-01-22 21:51:16.73	261.58	3.23	-44.1	-62.2	3.8	8.46e-01	0	52	104	0	60	27717
2026-01-22 21:51:17.74	261.49	3.30	-44.1	-62.1	3.8	8.48e-01	0	53	104	0	60	27621
2026-01-22 21:51:18.75	261.39	3.36	-44.1	-62.1	3.8	8.46e-01	0	53	104	0	60	27637
2026-01-22 21:51:19.76	261.29	3.43	-44.1	-62.1	3.8	8.46e-01	0	53	104	0	60	27603
2026-01-22 21:51:20.77	261.19	3.50	-44.1	-62.1	3.8	8.46e-01	0	53	104	0	60	27628
2026-01-22 21:51:21.78	261.09	3.57	-44.1	-62.2	3.8	8.46e-01	0	53	104	0	60	27840
2026-01-22 21:51:22.79	260.99	3.63	-44.1	-62.2	3.8	8.46e-01	0	53	104	0	60	27851
2026-01-22 21:51:23.80	260.89	3.70	-44.1	-62.2	3.8	8.46e-01	0	53	104	0	60	27917
2026-01-22 21:51:24.81	260.79	3.77	-44.1	-62.2	3.8	8.46e-01	0	53	104	0	60	27775
2026-01-22 21:51:25.82	260.69	3.83	-44.1	-62.1	3.8	8.45e-01	0	53	104	0	60	27400
2026-01-22 21:51:26.83	260.59	3.90	-44.1	-61.9	3.8	8.45e-01	0	53	104	0	60	27069
2026-01-22 21:51:27.84	260.48	3.97	-44.1	-61.9	3.8	8.45e-01	0	53	104	0	60	26926
2026-01-22 21:51:28.85	260.38	4.04	-44.1	-61.9	3.8	8.46e-01	0	53	104	0	60	26878
2026-01-22 21:51:29.86	260.27	4.11	-44.1	-61.9	3.8	8.46e-01	0	53	104	0	60	26913
2026-01-22 21:51:30.87	260.17	4.18	-44.1	-61.9	3.8	8.47e-01	0	53	104	0	60	26951
2026-01-22 21:51:31.88	260.06	4.25	-44.1	-61.9	3.8	8.47e-01	0	53	104	0	60	26912
2026-01-22 21:51:32.89	259.96	4.31	-44.1	-61.8	3.8	8.47e-01	0	53	104	0	60	26691
2026-01-22 21:51:33.90	259.85	4.38	-44.1	-61.9	3.8	8.45e-01	0	54	104	0	60	26786
2026-01-22 21:51:34.91	259.74	4.45	-44.1	-62.0	3.8	8.46e-01	0	54	104	0	60	27158
2026-01-22 21:51:35.92	259.63	4.52	-44.1	-62.1	3.8	8.47e-01	0	54	104	0	60	27547
2026-01-22 21:51:36.93	259.52	4.59	-44.1	-62.1	3.8	8.47e-01	0	54	104	0	60	27405
2026-01-22 21:51:37.94	259.41	4.66	-44.1	-61.9	3.8	8.44e-01	0	54	104	0	60	27050
2026-01-22 21:51:38.95	259.30	4.73	-44.1	-62.0	3.8	8.46e-01	0	54	104	0	60	27119
2026-01-22 21:51:39.96	259.19	4.80	-44.1	-62.1	3.8	8.46e-01	0	54	104	0	60	27432
2026-01-22 21:51:40.97	259.07	4.87	-44.0	-62.0	3.8	8.46e-01	0	54	104	0	60	27163
2026-01-22 21:51:41.98	258.96	4.95	-44.1	-61.8	3.8	8.46e-01	0	54	104	0	60	26573
2026-01-22 21:51:42.99	258.84	5.02	-44.0	-61.4	3.8	8.46e-01	0	54	104	0	60	25471
2026-01-22 21:51:44.00	258.73	5.09	-44.0	-60.9	3.8	8.46e-01	0	54	104	0	60	24004
2026-01-22 21:51:45.01	258.61	5.16	-44.0	-60.7	3.8	8.45e-01	0	54	104	0	60	23415
2026-01-22 21:51:46.02	258.49	5.23	-44.0	-60.4	3.8	8.45e-01	0	54	104	0	60	22747
2026-01-22 21:51:47.03	258.38	5.30	-44.0	-60.1	3.8	8.47e-01	0	54	104	0	60	21798
2026-01-22 21:51:48.04	258.26	5.37	-44.0	-60.1	3.9	8.46e-01	0	54	104	0	60	21980
2026-01-22 21:51:49.05	258.14	5.45	-44.0	-60.5	3.8	8.45e-01	0	54	104	0	60	22840
2026-01-22 21:51:50.06	258.02	5.52	-44.0	-60.7	3.8	8.45e-01	0	54	104	0	60	23494
2026-01-22 21:51:51.07	257.90	5.59	-44.0	-61.2	3.8	8.46e-01	0	54	104	0	60	24724
2026-01-22 21:51:52.08	257.77	5.67	-44.0	-61.4	3.8	8.46e-01	0	54	104	0	60	25531
2026-01-22 21:51:53.09	257.65	5.74	-44.0	-61.8	3.8	8.46e-01	0	55	104	0	60	26519
2026-01-22 21:51:54.10	257.53	5.81	-44.0	-61.6	3.8	8.46e-01	0	55	104	0	60	26139
2026-01-22 21:51:55.11	257.40	5.89	-44.0	-61.6	3.8	8.46e-01	0	55	104	0	60	25917
2026-01-22 21:51:56.12	257.27	5.96	-44.0	-61.2	3.8	8.46e-01	0	55	104	0	60	24828
2026-01-22 21:51:57.13	257.15	6.03	-44.0	-60.9	3.8	8.46e-01	0	55	104	0	60	23949
2026-01-22 21:51:58.14	257.02	6.11	-44.0	-60.7	3.8	8.46e-01	0	55	104	0	60	23313
2026-01-22 21:51:59.15	256.89	6.18	-44.0	-60.3	3.8	8.46e-01	0	55	104	0	60	22361
2026-01-22 21:52:00.17	256.76	6.26	-44.0	-59.8	3.9	8.46e-01	0	55	104	0	60	21174
2026-01-22 21:52:01.18	256.63	6.33	-44.0	-59.5	4.0	8.44e-01	0	55	104	0	60	20407
2026-01-22 21:52:02.19	256.50	6.41	-44.1	-58.8	4.1	8.43e-01	0	55	0	0	59	20036
2026-01-22 21:52:03.20	256.37	6.48	-44.0	-58.5	4.2	8.43e-01	0	55	0	0	59	19306
2026-01-22 21:52:04.21	256.23	6.56	-44.0	-57.6	4.6	8.36e-01	0	55	0	0	59	17310
2026-01-22 21:52:05.22	256.10	6.64	-43.9	-56.4	5.1	8.10e-01	0	55	0	0	59	15117
2026-01-22 21:52:06.23	255.96	6.71	-43.8	-55.3	5.8	8.10e-01	0	55	0	0	59	13343
2026-01-22 21:52:07.24	255.83	6.79	-43.7	-54.0	7.0	6.28e-01	0	55	0	1048576	59	11473
2026-01-22 21:52:08.25	255.69	6.86	-43.5	-52.7	8.2	1.91e-01	0	55	0	2097152	59	9864
2026-01-22 21:52:09.26	255.55	6.94	-43.4	-52.0	8.9	1.91e-01	0	55	0	3145728	58	9686
2026-01-22 21:52:10.27	255.41	7.02	-43.3	-51.5	9.4	5.17e-02	0	55	0	4718592	58	9168
2026-01-22 21:52:11.28	255.27	7.10	-43.3	-51.6	9.4	2.22e-02	0	55	0	5767168	58	9188
2026-01-22 21:52:12.29	255.13	7.17	-43.5	-52.3	8.6	2.85e-02	0	55	0	6815744	58	9984
2026-01-22 21:52:13.30	254.98	7.25	-43.7	-54.0	7.0	2.85e-02	0	55	0	7864320	58	12182
2026-01-22 21:52:14.31	254.84	7.33	-44.0	-57.0	4.9	1.46e-01	0	55	0	8912896	58	17159
2026-01-22 21:52:15.32	254.70	7.41	-44.1	-61.5	3.8	7.57e-01	0	55	104	8912896	58	28872
2026-01-22 21:52:16.33	254.55	7.49	-44.1	-59.9	3.9	7.57e-01	0	56	104	8912896	58	23945
2026-01-22 21:52:17.34	254.40	7.56	-43.7	-54.3	6.5	8.45e-01	0	56	0	8912896	58	12621
2026-01-22 21:52:18.35	254.25	7.64	-43.2	-50.8	10.1	3.14e-01	0	56	0	9961472	58	8398
2026-01-22 21:52:19.36	254.11	7.72	-42.6	-48.5	12.5	3.14e-01	0	55	0	11010048	57	6879
2026-01-22 21:52:20.37	253.95	7.80	-42.0	-47.1	14.0	3.32e-03	0	56	0	12582912	56	6175
2026-01-22 21:52:21.38	253.80	7.88	-41.6	-46.3	14.6	1.83e-05	0	56	0	13631488	55	5982
2026-01-22 21:52:22.40	253.65	7.96	-41.6	-46.2	14.8	1.83e-05	0	56	0	14680064	55	5902
2026-01-22 21:52:23.41	253.49	8.04	-41.3	-45.6	15.3	0.00e+00	0	56	0	15728640	54	5814
2026-01-22 21:52:24.41	253.34	8.12	-43.8	-53.8	6.7	6.97e-02	0	56	0	16252928	58	11917
2026-01-22 21:52:25.42	253.18	8.20	-41.5	-46.0	15.0	2.34e-01	0	56	0	17825792	55	5749
2026-01-22 21:52:26.43	253.03	8.28	-42.6	-48.7	11.5	2.34e-01	0	56	0	18874368	57	7022
2026-01-22 21:52:27.44	252.87	8.36	-41.1	-45.1	16.1	4.85e-02	0	56	0	19922944	54	5491
2026-01-22 21:52:28.45	252.71	8.45	-43.8	-55.2	4.8	3.11e-01	0	56	0	20447232	58	13950
2026-01-22 21:52:29.46	252.55	8.53	-41.0	-45.0	16.2	3.11e-01	0	56	0	21495808	54	5419
2026-01-22 21:52:30.47	252.38	8.61	-41.2	-45.2	15.9	7.11e-02	0	56	0	22544384	54	5571
2026-01-22 21:52:31.48	252.22	8.69	-41.1	-45.1	16.0	0.00e+00	0	56	0	23592960	54	5511
2026-01-22 21:52:32.49	252.05	8.77	-41.1	-45.1	16.0	0.00e+00	0	56	0	24641536	54	5507
2026-01-22 21:52:33.50	251.89	8.86	-41.1	-45.1	16.0	0.00e+00	0	56	0	25690112	54	5505
2026-01-22 21:52:34.51	251.72	8.94	-41.0	-44.9	16.2	0.00e+00	0	56	0	27262976	54	5393
2026-01-22 21:52:35.52	251.55	9.02	-41.0	-44.9	16.3	0.00e+00	0	56	0	28311552	54	5373
2026-01-22 21:52:36.53	251.38	9.10	-40.9	-44.8	16.4	0.00e+00	0	56	0	29360128	53	5593
2026-01-22 21:52:37.54	251.21	9.19	-40.8	-44.6	16.6	0.00e+00	0	56	0	30408704	53	5466
2026-01-22 21:52:38.55	251.04	9.27	-40.9	-44.7	16.5	0.00e+00	0	56	0	31457280	53	5566
2026-01-22 21:52:39.56	250.86	9.35	-40.9	-44.6	16.5	0.00e+00	0	56	0	32505856	53	5524
2026-01-22 21:52:40.57	250.69	9.44	-40.9	-44.7	16.4	0.00e+00	0	56	0	34078720	53	5567
2026-01-22 21:52:41.58	250.51	9.52	-40.8	-44.6	16.5	5.70e-06	0	56	0	35127296	53	5484
2026-01-22 21:52:42.59	250.33	9.61	-40.7	-44.3	16.7	5.70e-06	0	56	0	36175872	53	5328
2026-01-22 21:52:43.59	250.15	9.69	-40.6	-44.2	16.8	1.48e-05	0	56	0	37224448	53	5261
2026-01-22 21:52:44.61	249.97	9.78	-40.7	-44.2	16.8	4.23e-05	0	57	0	38273024	53	5268
2026-01-22 21:52:45.62	249.78	9.86	-40.7	-44.3	16.9	4.23e-05	0	56	0	39845888	53	5292
2026-01-22 21:52:46.63	249.60	9.95	-40.6	-44.2	17.0	1.83e-05	0	56	0	40894464	53	5225
2026-01-22 21:52:47.64	249.41	10.03	-40.6	-44.3	16.9	0.00e+00	0	57	0	41943040	53	5297
2026-01-22 21:52:48.65	249.23	10.12	-40.7	-44.3	16.7	0.00e+00	0	57	0	42991616	53	5328
2026-01-22 21:52:49.65	249.04	10.20	-40.6	-44.3	16.8	2.74e-05	0	57	0	44040192	53	5305
2026-01-22 21:52:50.66	248.85	10.29	-40.6	-44.2	16.8	2.27e-04	0	57	0	45088768	53	5265
2026-01-22 21:52:51.67	248.66	10.38	-40.6	-44.2	16.9	3.91e-04	0	57	0	46137344	53	5237
2026-01-22 21:52:52.68	248.46	10.46	-40.7	-44.2	17.0	3.91e-04	0	57	0	47710208	53	5257
2026-01-22 21:52:53.69	248.27	10.55	-40.6	-44.1	17.3	3.08e-05	0	57	0	48758784	53	5166
2026-01-22 21:52:54.70	248.07	10.64	-40.5	-43.9	17.4	0.00e+00	0	57	0	49807360	53	5051
2026-01-22 21:52:55.71	247.87	10.72	-40.5	-43.8	17.5	0.00e+00	0	57	0	50855936	53	5039
2026-01-22 21:52:56.72	247.67	10.81	-40.4	-43.7	17.6	0.00e+00	0	57	0	51904512	52	5259
2026-01-22 21:52:57.73	247.47	10.90	-40.4	-43.7	17.6	0.00e+00	0	57	0	52953088	52	5266
2026-01-22 21:52:58.74	247.27	10.99	-40.4	-43.7	17.6	0.00e+00	0	57	0	54525952	52	5227
2026-01-22 21:52:59.75	247.06	11.08	-40.3	-43.6	17.8	0.00e+00	0	57	0	55574528	52	5161
2026-01-22 21:53:00.76	246.86	11.16	-40.3	-43.5	17.8	0.00e+00	0	57	0	56623104	52	5135
2026-01-22 21:53:01.77	246.65	11.25	-40.4	-43.6	17.8	0.00e+00	0	57	0	57671680	52	5172
2026-01-22 21:53:02.78	246.44	11.34	-40.4	-43.7	17.7	0.00e+00	0	57	0	58720256	52	5222
2026-01-22 21:53:03.79	246.23	11.43	-40.4	-43.7	17.7	0.00e+00	0	57	0	59768832	52	5230
2026-01-22 21:53:04.80	246.02	11.52	-40.4	-43.6	17.8	0.00e+00	0	57	0	61341696	52	5162
2026-01-22 21:53:05.81	245.80	11.61	-40.4	-43.5	17.9	0.00e+00	0	57	0	62390272	52	5157
2026-01-22 21:53:06.82	245.58	11.70	-40.3	-43.5	17.9	0.00e+00	0	57	0	63438848	52	5104
2026-01-22 21:53:07.83	245.37	11.79	-40.2	-43.3	18.1	0.00e+00	0	57	0	64487424	52	4997
2026-01-22 21:53:08.84	245.14	11.88	-40.2	-43.3	18.1	0.00e+00	0	57	0	65536000	52	5039
2026-01-22 21:53:09.85	244.92	11.97	-40.2	-43.2	18.2	0.00e+00	0	57	0	66584576	52	4956
2026-01-22 21:53:10.85	244.70	12.06	-40.1	-43.1	18.3	0.00e+00	0	57	0	68157440	52	4891
2026-01-22 21:53:11.86	244.48	12.15	-40.1	-43.2	18.3	0.00e+00	0	57	0	69206016	52	4935
2026-01-22 21:53:12.87	244.25	12.24	-40.2	-43.3	18.1	0.00e+00	0	57	0	70254592	52	5029
2026-01-22 21:53:13.88	244.02	12.33	-40.4	-43.6	17.8	0.00e+00	0	57	0	71303168	52	5186
2026-01-22 21:53:14.89	243.79	12.42	-40.4	-43.5	17.9	0.00e+00	0	57	0	72351744	52	5146
2026-01-22 21:53:15.90	243.55	12.51	-40.3	-43.4	18.1	0.00e+00	0	57	0	73400320	52	5042
2026-01-22 21:53:16.91	243.32	12.60	-40.0	-42.9	18.5	0.00e+00	0	57	0	74973184	52	4812
2026-01-22 21:53:17.92	243.08	12.69	-39.8	-42.6	18.9	0.00e+00	0	57	0	76021760	51	4909
2026-01-22 21:53:18.93	242.84	12.78	-39.8	-42.6	19.0	0.00e+00	0	57	0	77070336	51	4893
2026-01-22 21:53:19.94	242.60	12.87	-39.8	-42.6	19.0	0.00e+00	0	57	0	78118912	51	4874
2026-01-22 21:53:20.95	242.36	12.96	-39.8	-42.6	19.0	0.00e+00	0	58	0	79167488	51	4900
2026-01-22 21:53:21.96	242.11	13.06	-39.7	-42.5	19.1	0.00e+00	0	57	0	80216064	51	4841
2026-01-22 21:53:22.97	241.87	13.15	-39.8	-42.6	19.0	0.00e+00	0	57	0	81788928	51	4883
2026-01-22 21:53:23.98	241.62	13.24	-39.9	-42.7	18.9	0.00e+00	0	57	0	82837504	51	4943
2026-01-22 21:53:24.99	241.37	13.33	-40.0	-42.8	18.8	0.00e+00	0	57	0	83886080	51	5027
2026-01-22 21:53:26.00	241.11	13.42	-40.0	-42.9	18.7	0.00e+00	0	58	0	84934656	51	5081
2026-01-22 21:53:27.01	240.86	13.51	-40.0	-42.8	18.8	0.00e+00	0	57	0	85983232	51	5041
2026-01-22 21:53:28.02	240.60	13.61	-39.9	-42.7	18.9	0.00e+00	0	58	0	87031808	51	4978
2026-01-22 21:53:29.03	240.34	13.70	-39.9	-42.6	19.0	0.00e+00	0	57	0	88604672	51	4925
2026-01-22 21:53:30.03	240.08	13.79	-39.8	-42.6	19.1	0.00e+00	0	57	0	89653248	51	4882
2026-01-22 21:53:31.04	239.82	13.88	-39.8	-42.6	19.1	0.00e+00	0	58	0	90701824	51	4879
2026-01-22 21:53:32.05	239.56	13.97	-39.6	-42.2	19.4	0.00e+00	0	58	0	91750400	51	4693
2026-01-22 21:53:33.06	239.29	14.07	-39.3	-41.8	19.8	0.00e+00	0	57	0	92798976	50	4759
2026-01-22 21:53:34.07	239.02	14.16	-39.4	-42.0	19.6	0.00e+00	0	58	0	93847552	50	4852
2026-01-22 21:53:35.08	238.75	14.25	-39.5	-42.2	19.5	0.00e+00	0	57	0	95420416	50	4943
2026-01-22 21:53:36.09	238.47	14.34	-39.7	-42.4	19.3	0.00e+00	0	58	0	96468992	50	5071
2026-01-22 21:53:37.10	238.20	14.43	-39.8	-42.5	19.1	0.00e+00	0	58	0	97517568	50	5154
2026-01-22 21:53:38.11	237.92	14.53	-39.8	-42.5	19.1	0.00e+00	0	58	0	98566144	50	5132
2026-01-22 21:53:39.12	237.64	14.62	-39.8	-42.5	19.2	0.00e+00	0	58	0	99614720	50	5122
2026-01-22 21:53:40.13	237.35	14.71	-39.6	-42.3	19.4	0.00e+00	0	58	0	100663296	50	5000
2026-01-22 21:53:41.14	237.07	14.80	-39.5	-42.1	19.6	0.00e+00	0	57	0	102236160	50	4879
2026-01-22 21:53:42.15	236.78	14.89	-39.4	-41.9	19.7	0.00e+00	0	57	0	103284736	50	4792
2026-01-22 21:53:43.16	236.49	14.99	-39.3	-41.9	19.8	0.00e+00	0	58	0	104333312	50	4762
2026-01-22 21:53:44.17	236.20	15.08	-39.2	-41.6	20.0	0.00e+00	0	58	0	105381888	50	4633
2026-01-22 21:53:45.18	235.90	15.17	-39.1	-41.6	20.1	0.00e+00	0	58	0	106430464	50	4620
2026-01-22 21:53:46.19	235.61	15.26	-39.2	-41.7	20.1	0.00e+00	0	58	0	107479040	50	4657
2026-01-22 21:53:47.20	235.31	15.35	-39.3	-41.9	19.9	0.00e+00	0	58	0	109051904	50	4765
2026-01-22 21:53:48.21	235.01	15.44	-39.4	-41.9	19.9	0.00e+00	0	58	0	110100480	50	4778
2026-01-22 21:53:49.22	234.70	15.53	-39.5	-42.0	19.7	0.00e+00	0	58	0	111149056	50	4867
2026-01-22 21:53:50.23	234.40	15.62	-39.6	-42.1	19.6	0.00e+00	0	58	0	112197632	50	4921
2026-01-22 21:53:51.24	234.09	15.71	-39.5	-42.1	19.7	0.00e+00	0	58	0	113246208	50	4880
2026-01-22 21:53:52.25	233.78	15.80	-39.5	-42.1	19.7	0.00e+00	0	58	0	114294784	50	4914
2026-01-22 21:53:53.26	233.46	15.89	-39.4	-42.0	19.7	0.00e+00	0	58	0	115867648	50	4848
2026-01-22 21:53:54.27	233.15	15.98	-39.4	-42.0	19.8	0.00e+00	0	58	0	116916224	50	4827
2026-01-22 21:53:55.28	232.83	16.07	-39.2	-41.7	20.1	0.00e+00	0	58	0	117964800	50	4655
2026-01-22 21:53:56.29	232.51	16.16	-39.0	-41.4	20.3	0.00e+00	0	58	0	119013376	50	4544
2026-01-22 21:53:57.30	232.19	16.25	-39.0	-41.4	20.3	0.00e+00	0	58	0	120061952	50	4545
2026-01-22 21:53:58.30	231.86	16.34	-39.0	-41.4	20.3	0.00e+00	0	58	0	121110528	50	4521
2026-01-22 21:53:59.31	231.54	16.43	-38.8	-41.1	20.6	0.00e+00	0	58	0	122683392	49	4609
2026-01-22 21:54:00.32	231.21	16.52	-38.9	-41.2	20.6	0.00e+00	0	58	0	123731968	49	4675
2026-01-22 21:54:01.33	230.87	16.60	-39.1	-41.6	20.2	0.00e+00	0	58	0	124780544	49	4875
2026-01-22 21:54:02.34	230.54	16.69	-39.3	-41.7	20.1	0.00e+00	0	58	0	125829120	49	4965
2026-01-22 21:54:03.35	230.20	16.78	-39.4	-41.9	19.8	0.00e+00	0	58	0	126877696	49	5083
2026-01-22 21:54:04.36	229.86	16.86	-39.4	-41.9	19.8	0.00e+00	0	58	0	127926272	49	5096
2026-01-22 21:54:05.37	229.52	16.95	-39.4	-42.0	19.8	0.00e+00	0	58	0	129499136	49	5115
2026-01-22 21:54:06.38	229.17	17.04	-39.3	-41.8	20.0	0.00e+00	0	58	0	130547712	49	5024
2026-01-22 21:54:07.39	228.83	17.12	-39.2	-41.6	20.1	0.00e+00	0	58	0	131596288	49	4910
2026-01-22 21:54:08.40	228.48	17.21	-39.0	-41.4	20.4	0.00e+00	0	58	0	132644864	49	4788
2026-01-22 21:54:09.40	228.13	17.29	-38.9	-41.2	20.6	0.00e+00	0	58	0	133693440	49	4667
2026-01-22 21:54:10.41	227.77	17.37	-38.7	-40.9	20.8	0.00e+00	0	58	0	134742016	49	4533
2026-01-22 21:54:11.42	227.42	17.46	-38.5	-40.7	21.1	0.00e+00	0	58	0	136314880	48	4653
2026-01-22 21:54:12.43	227.06	17.54	-38.5	-40.7	21.1	0.00e+00	0	58	0	137363456	48	4681
2026-01-22 21:54:13.44	226.69	17.62	-38.2	-40.3	21.5	0.00e+00	0	58	0	138412032	48	4466
2026-01-22 21:54:14.45	226.33	17.70	-38.1	-40.2	21.6	0.00e+00	0	58	0	139460608	48	4422
2026-01-22 21:54:15.46	225.96	17.78	-38.2	-40.3	21.5	0.00e+00	0	58	0	140509184	48	4474
2026-01-22 21:54:16.47	225.59	17.86	-38.3	-40.5	21.3	0.00e+00	0	58	0	141557760	48	4567
2026-01-22 21:54:17.48	225.22	17.94	-38.5	-40.7	21.2	0.00e+00	0	58	0	143130624	48	4673
2026-01-22 21:54:18.49	224.85	18.02	-38.7	-41.0	20.8	0.00e+00	0	58	0	144179200	48	4845
2026-01-22 21:54:19.50	224.47	18.10	-38.9	-41.2	20.7	0.00e+00	0	58	0	145227776	48	4935
2026-01-22 21:54:20.51	224.09	18.18	-39.1	-41.5	20.3	0.00e+00	0	58	0	146276352	48	5143
2026-01-22 21:54:21.52	223.71	18.26	-39.2	-41.6	20.3	0.00e+00	0	58	0	147324928	48	5197
2026-01-22 21:54:22.53	223.33	18.33	-39.2	-41.6	20.3	0.00e+00	0	58	0	148373504	48	5186
2026-01-22 21:54:23.54	222.94	18.41	-39.2	-41.7	20.2	0.00e+00	0	58	0	149946368	49	4929
2026-01-22 21:54:24.55	222.55	18.48	-39.3	-41.8	20.1	0.00e+00	0	58	0	150994944	49	5013
2026-01-22 21:54:25.56	222.16	18.55	-39.0	-41.3	20.6	0.00e+00	0	58	0	152043520	49	4742
2026-01-22 21:54:26.57	221.77	18.63	-39.2	-41.6	20.3	0.00e+00	0	58	0	153092096	49	4895
2026-01-22 21:54:27.58	221.37	18.70	-39.3	-41.7	20.2	0.00e+00	0	58	0	154140672	49	4963
2026-01-22 21:54:28.59	220.97	18.77	-39.2	-41.6	20.3	0.00e+00	0	58	0	155189248	49	4885
2026-01-22 21:54:29.60	220.57	18.84	-39.1	-41.5	20.3	0.00e+00	0	58	0	156762112	49	4860
2026-01-22 21:54:30.60	220.17	18.91	-38.8	-41.1	20.7	0.00e+00	0	58	0	157810688	49	4644
2026-01-22 21:54:31.61	219.77	18.98	-38.8	-41.1	20.8	0.00e+00	0	58	0	158859264	49	4617
2026-01-22 21:54:32.62	219.36	19.04	-38.6	-40.8	21.0	0.00e+00	0	58	0	159907840	49	4493
2026-01-22 21:54:33.63	218.95	19.11	-38.4	-40.5	21.3	0.00e+00	0	58	0	160956416	48	4597
2026-01-22 21:54:34.64	218.54	19.17	-38.5	-40.7	21.1	0.00e+00	0	58	0	162004992	48	4700
2026-01-22 21:54:35.65	218.13	19.24	-38.6	-40.8	21.1	0.00e+00	0	58	0	163577856	48	4725
2026-01-22 21:54:36.66	217.71	19.30	-38.6	-40.8	21.1	0.00e+00	0	58	0	164626432	48	4738
2026-01-22 21:54:37.67	217.30	19.36	-38.5	-40.7	21.2	0.00e+00	0	58	0	165675008	48	4685
2026-01-22 21:54:38.68	216.88	19.42	-38.6	-40.8	21.1	0.00e+00	0	58	0	166723584	48	4733
2026-01-22 21:54:39.68	216.46	19.48	-38.5	-40.7	21.2	0.00e+00	0	59	0	167772160	48	4699
2026-01-22 21:54:40.69	216.04	19.54	-38.3	-40.4	21.5	0.00e+00	0	58	0	168820736	48	4524
2026-01-22 21:54:41.71	215.61	19.60	-38.2	-40.3	21.6	0.00e+00	0	58	0	170393600	48	4446
2026-01-22 21:54:42.72	215.18	19.66	-38.2	-40.3	21.6	0.00e+00	0	59	0	171442176	48	4477
2026-01-22 21:54:43.72	214.75	19.71	-38.3	-40.4	21.5	0.00e+00	0	58	0	172490752	48	4522
2026-01-22 21:54:44.73	214.32	19.76	-38.4	-40.5	21.4	0.00e+00	0	58	0	173539328	48	4573
2026-01-22 21:54:45.74	213.89	19.81	-38.4	-40.6	21.3	0.00e+00	0	58	0	174587904	48	4613
2026-01-22 21:54:46.75	213.46	19.87	-38.3	-40.4	21.5	0.00e+00	0	58	0	175636480	48	4543
2026-01-22 21:54:47.76	213.02	19.92	-38.5	-40.7	21.2	0.00e+00	0	58	0	177209344	48	4669
2026-01-22 21:54:48.77	212.58	19.96	-38.6	-40.8	21.1	0.00e+00	0	58	0	178257920	48	4730
2026-01-22 21:54:49.78	212.14	20.01	-38.7	-40.9	21.0	0.00e+00	0	58	0	179306496	48	4768
2026-01-22 21:54:50.79	211.70	20.06	-38.6	-40.8	21.1	0.00e+00	0	58	0	180355072	48	4755
2026-01-22 21:54:51.80	211.26	20.10	-38.6	-40.9	21.0	0.00e+00	0	58	0	181403648	48	4768
2026-01-22 21:54:52.81	210.81	20.14	-38.6	-40.8	21.1	0.00e+00	0	58	0	182452224	48	4730
2026-01-22 21:54:53.82	210.37	20.18	-38.6	-40.8	21.1	0.00e+00	0	58	0	184025088	48	4758
2026-01-22 21:54:54.83	209.92	20.22	-38.4	-40.6	21.4	0.00e+00	0	58	0	185073664	48	4611
2026-01-22 21:54:55.84	209.47	20.26	-38.5	-40.7	21.2	0.00e+00	0	58	0	186122240	48	4668
2026-01-22 21:54:56.84	209.03	20.30	-38.6	-40.8	21.1	0.00e+00	0	58	0	187170816	48	4758
2026-01-22 21:54:57.85	208.57	20.33	-38.6	-40.8	21.1	0.00e+00	0	59	0	188219392	48	4749
2026-01-22 21:54:58.86	208.12	20.37	-38.7	-41.0	20.9	0.00e+00	0	59	0	189267968	48	4836
2026-01-22 21:54:59.87	207.67	20.40	-38.9	-41.1	20.8	0.00e+00	0	59	0	190840832	48	4924
2026-01-22 21:55:00.88	207.21	20.43	-38.8	-41.0	20.9	0.00e+00	0	59	0	191889408	48	4843
2026-01-22 21:55:01.89	206.76	20.46	-38.7	-40.9	21.0	0.00e+00	0	59	0	192937984	48	4792
2026-01-22 21:55:02.90	206.30	20.49	-38.6	-40.8	21.1	0.00e+00	0	59	0	193986560	48	4738
2026-01-22 21:55:03.91	205.84	20.51	-38.7	-41.0	20.9	0.00e+00	0	58	0	195035136	48	4841
2026-01-22 21:55:04.92	205.38	20.54	-38.8	-41.0	20.9	0.00e+00	0	59	0	196083712	48	4846
2026-01-22 21:55:05.93	204.92	20.56	-38.7	-41.0	21.0	0.00e+00	0	59	0	197656576	48	4818
2026-01-22 21:55:06.94	204.46	20.58	-38.7	-40.9	21.0	0.00e+00	0	59	0	198705152	48	4812
2026-01-22 21:55:07.95	204.00	20.60	-38.8	-41.1	20.8	0.00e+00	0	59	0	199753728	48	4888
2026-01-22 21:55:08.96	203.54	20.62	-38.8	-41.1	20.8	0.00e+00	0	59	0	200802304	48	4901
2026-01-22 21:55:09.97	203.08	20.63	-38.8	-41.1	20.8	0.00e+00	0	59	0	201850880	48	4872
2026-01-22 21:55:10.98	202.61	20.65	-38.8	-41.1	20.8	0.00e+00	0	59	0	202899456	48	4880
2026-01-22 21:55:11.99	202.15	20.66	-38.6	-40.9	21.1	0.00e+00	0	59	0	204472320	48	4765
2026-01-22 21:55:13.00	201.69	20.67	-38.6	-40.8	21.2	0.00e+00	0	59	0	205520896	48	4707
2026-01-22 21:55:14.01	201.22	20.68	-38.4	-40.6	21.3	0.00e+00	0	59	0	206569472	48	4618
2026-01-22 21:55:15.02	200.76	20.69	-38.3	-40.4	21.5	0.00e+00	0	59	0	207618048	48	4524
2026-01-22 21:55:16.03	200.29	20.70	-38.3	-40.4	21.5	0.00e+00	0	59	0	208666624	48	4527
2026-01-22 21:55:17.04	199.83	20.70	-38.3	-40.4	21.5	0.00e+00	0	59	0	209715200	48	4522
2026-01-22 21:55:18.05	199.36	20.70	-38.3	-40.4	21.5	0.00e+00	0	59	0	211288064	48	4502
2026-01-22 21:55:19.06	198.90	20.70	-37.9	-39.9	21.9	0.00e+00	0	59	0	212336640	47	4534
2026-01-22 21:55:20.07	198.43	20.70	-37.8	-39.8	22.0	0.00e+00	0	59	0	213385216	47	4487
2026-01-22 21:55:21.08	197.96	20.70	-37.9	-40.0	21.9	0.00e+00	0	59	0	214433792	47	4570
2026-01-22 21:55:22.09	197.50	20.70	-38.0	-40.1	21.8	0.00e+00	0	59	0	215482368	47	4601
2026-01-22 21:55:23.10	197.03	20.69	-38.1	-40.2	21.7	0.00e+00	0	59	0	216530944	47	4661
2026-01-22 21:55:24.11	196.57	20.68	-38.0	-40.1	21.8	0.00e+00	0	59	0	218103808	47	4624
2026-01-22 21:55:25.11	196.11	20.68	-38.1	-40.2	21.6	0.00e+00	0	59	0	219152384	47	4671
2026-01-22 21:55:26.13	195.64	20.66	-38.1	-40.2	21.6	0.00e+00	0	59	0	220200960	47	4703
2026-01-22 21:55:27.13	195.18	20.65	-38.1	-40.2	21.6	0.00e+00	0	59	0	221249536	47	4692
2026-01-22 21:55:28.15	194.71	20.64	-38.1	-40.2	21.7	0.00e+00	0	59	0	222298112	47	4655
2026-01-22 21:55:29.16	194.25	20.62	-38.2	-40.3	21.6	0.00e+00	0	59	0	223346688	47	4717
2026-01-22 21:55:30.17	193.79	20.60	-38.0	-40.1	21.7	0.00e+00	0	59	0	224919552	47	4614
2026-01-22 21:55:31.17	193.33	20.59	-37.9	-40.0	21.8	0.00e+00	0	59	0	225968128	47	4569
2026-01-22 21:55:32.18	192.87	20.57	-37.9	-39.9	21.9	0.00e+00	0	59	0	227016704	47	4538
2026-01-22 21:55:33.20	192.41	20.54	-38.0	-40.1	21.8	0.00e+00	0	59	0	228065280	47	4613
2026-01-22 21:55:34.21	191.95	20.52	-38.1	-40.3	21.6	0.00e+00	0	59	0	229113856	47	4714
2026-01-22 21:55:35.21	191.49	20.49	-38.3	-40.5	21.4	0.00e+00	0	59	0	230162432	47	4829
2026-01-22 21:55:36.22	191.04	20.47	-38.5	-40.7	21.2	0.00e+00	0	59	0	231735296	47	4958
2026-01-22 21:55:37.23	190.58	20.44	-38.6	-40.8	21.1	0.00e+00	0	59	0	232783872	47	5009
2026-01-22 21:55:38.24	190.12	20.41	-38.6	-40.8	21.0	0.00e+00	0	59	0	233832448	47	5023
2026-01-22 21:55:39.25	189.67	20.38	-38.6	-40.9	20.9	0.00e+00	0	59	0	234881024	47	5088
2026-01-22 21:55:40.26	189.22	20.34	-38.4	-40.6	21.2	0.00e+00	0	59	0	235929600	47	4925
2026-01-22 21:55:41.27	188.76	20.31	-38.4	-40.6	21.1	0.00e+00	0	59	0	236978176	47	4924
2026-01-22 21:55:42.28	188.31	20.27	-38.7	-41.0	20.9	0.00e+00	0	59	0	238551040	47	5105
2026-01-22 21:55:43.29	187.86	20.23	-38.8	-41.1	20.8	0.00e+00	0	59	0	239599616	48	4913
2026-01-22 21:55:44.30	187.42	20.19	-39.1	-41.5	20.3	0.00e+00	0	59	0	240648192	48	5144
2026-01-22 21:55:45.31	186.97	20.15	-39.2	-41.7	20.1	0.00e+00	0	59	0	241696768	49	4953
2026-01-22 21:55:46.32	186.52	20.11	-39.2	-41.6	20.2	0.00e+00	0	59	0	242745344	49	4925
2026-01-22 21:55:47.32	186.09	20.07	-38.9	-41.2	20.6	0.00e+00	0	59	0	243793920	49	4667
2026-01-22 21:55:48.33	185.64	20.02	-38.6	-40.8	21.0	0.00e+00	0	59	0	245366784	49	4461
2026-01-22 21:55:49.34	185.20	19.98	-38.6	-40.8	21.0	0.00e+00	0	59	0	246415360	49	4474
2026-01-22 21:55:50.36	184.76	19.93	-38.6	-40.8	21.0	0.00e+00	0	59	0	247463936	49	4481
2026-01-22 21:55:51.37	184.32	19.88	-38.8	-41.1	20.7	0.00e+00	0	59	0	248512512	49	4619
2026-01-22 21:55:52.37	183.89	19.83	-38.6	-40.9	20.9	0.00e+00	0	59	0	249561088	49	4525
2026-01-22 21:55:53.38	183.46	19.78	-38.6	-40.8	21.0	0.00e+00	0	59	0	250609664	49	4463
2026-01-22 21:55:54.39	183.03	19.72	-38.7	-41.0	20.8	0.00e+00	0	59	0	252182528	49	4562
2026-01-22 21:55:55.40	182.60	19.67	-38.6	-40.8	20.9	0.00e+00	0	59	0	253231104	49	4478
2026-01-22 21:55:56.41	182.17	19.61	-38.5	-40.7	21.1	0.00e+00	0	59	0	254279680	49	4428
2026-01-22 21:55:57.42	181.74	19.56	-38.5	-40.7	21.0	0.00e+00	0	59	0	255328256	49	4436
2026-01-22 21:55:58.43	181.32	19.50	-38.5	-40.7	21.0	0.00e+00	0	59	0	256376832	48	4693
2026-01-22 21:55:59.44	180.89	19.44	-38.4	-40.6	21.2	0.00e+00	0	59	0	257425408	48	4614
2026-01-22 21:56:00.45	180.47	19.38	-38.3	-40.5	21.3	0.00e+00	0	59	0	258998272	48	4555
2026-01-22 21:56:01.46	180.06	19.32	-38.3	-40.5	21.2	0.00e+00	0	59	0	260046848	48	4582
2026-01-22 21:56:02.47	179.64	19.25	-38.3	-40.5	21.3	0.00e+00	0	59	0	261095424	48	4559
2026-01-22 21:56:03.48	179.23	19.19	-38.5	-40.7	21.1	0.00e+00	0	59	0	262144000	48	4667
2026-01-22 21:56:04.49	178.81	19.12	-38.6	-40.9	20.9	0.00e+00	0	59	0	263192576	48	4770
2026-01-22 21:56:05.49	178.41	19.06	-38.5	-40.7	21.0	0.00e+00	0	59	0	264241152	48	4679
2026-01-22 21:56:06.50	178.00	18.99	-38.4	-40.6	21.2	0.00e+00	0	59	0	265289728	48	4638
2026-01-22 21:56:07.51	177.59	18.92	-38.6	-40.9	21.0	0.00e+00	0	59	0	266862592	48	4762
2026-01-22 21:56:08.52	177.19	18.86	-38.7	-41.0	20.8	0.00e+00	0	59	0	267911168	48	4823
2026-01-22 21:56:09.53	176.79	18.79	-38.7	-41.0	20.8	0.00e+00	0	59	0	268959744	48	4860
2026-01-22 21:56:10.54	176.39	18.72	-38.9	-41.2	20.6	0.00e+00	0	59	0	270008320	48	4960
2026-01-22 21:56:11.55	175.99	18.64	-38.8	-41.1	20.7	0.00e+00	0	59	0	271056896	48	4879
2026-01-22 21:56:12.56	175.60	18.57	-38.7	-40.9	20.8	0.00e+00	0	59	0	272105472	48	4788
2026-01-22 21:56:13.57	175.21	18.50	-38.7	-40.9	20.9	0.00e+00	0	59	0	273678336	48	4813
2026-01-22 21:56:14.58	174.82	18.42	-38.6	-40.9	20.9	0.00e+00	0	59	0	274726912	48	4783
2026-01-22 21:56:15.59	174.43	18.35	-39.1	-41.3	20.8	0.00e+00	0	59	0	275775488	49	4747
2026-01-22 21:56:16.60	174.05	18.27	-38.9	-41.1	20.7	0.00e+00	0	59	0	276824064	49	4649
2026-01-22 21:56:17.61	173.66	18.20	-38.7	-40.9	20.9	0.00e+00	0	59	0	277872640	49	4532
2026-01-22 21:56:18.62	173.28	18.12	-38.6	-40.8	21.1	0.00e+00	0	59	0	279445504	49	4456
2026-01-22 21:56:19.63	172.91	18.04	-38.4	-40.5	21.4	0.00e+00	0	59	0	280494080	48	4571
2026-01-22 21:56:20.64	172.53	17.96	-38.3	-40.4	21.4	0.00e+00	0	59	0	281542656	48	4505
2026-01-22 21:56:21.65	172.16	17.88	-38.4	-40.5	21.3	0.00e+00	0	59	0	282591232	48	4581
2026-01-22 21:56:22.66	171.79	17.80	-38.5	-40.7	21.2	0.00e+00	0	59	0	283639808	48	4655
2026-01-22 21:56:23.67	171.42	17.72	-38.7	-41.0	20.9	0.00e+00	0	59	0	284688384	48	4822
2026-01-22 21:56:24.68	171.05	17.64	-38.9	-41.2	20.6	0.00e+00	0	59	0	286261248	48	4978
2026-01-22 21:56:25.69	170.69	17.56	-39.0	-41.4	20.4	0.00e+00	0	59	0	287309824	48	5064
2026-01-22 21:56:26.70	170.33	17.47	-39.0	-41.4	20.4	0.00e+00	0	59	0	288358400	48	5066
2026-01-22 21:56:27.70	169.98	17.39	-38.8	-41.1	20.7	0.00e+00	0	59	0	289406976	48	4913
2026-01-22 21:56:28.71	169.62	17.31	-38.7	-40.9	20.9	0.00e+00	0	59	0	290455552	48	4777
2026-01-22 21:56:29.72	169.27	17.22	-38.8	-41.0	20.9	0.00e+00	0	59	0	291504128	48	4840
2026-01-22 21:56:30.74	168.91	17.14	-38.9	-41.2	20.7	0.00e+00	0	59	0	293076992	48	4935
2026-01-22 21:56:31.74	168.57	17.05	-39.0	-41.4	20.6	0.00e+00	0	59	0	294125568	48	5045
2026-01-22 21:56:32.75	168.22	16.97	-39.1	-41.4	20.5	0.00e+00	0	59	0	295174144	48	5093
2026-01-22 21:56:33.76	167.88	16.88	-39.1	-41.5	20.4	0.00e+00	0	59	0	296222720	48	5149
2026-01-22 21:56:34.77	167.54	16.80	-39.2	-41.7	20.2	0.00e+00	0	59	0	297271296	49	4934
2026-01-22 21:56:35.78	167.20	16.71	-39.1	-41.5	20.4	0.00e+00	0	59	0	298319872	49	4853
2026-01-22 21:56:36.79	166.86	16.62	-39.1	-41.5	20.4	0.00e+00	0	59	0	299892736	49	4859
2026-01-22 21:56:37.80	166.53	16.53	-39.2	-41.6	20.3	0.00e+00	0	59	0	300941312	49	4899
2026-01-22 21:56:38.81	166.20	16.44	-39.2	-41.6	20.3	0.00e+00	0	59	0	301989888	49	4874
2026-01-22 21:56:39.82	165.87	16.36	-39.0	-41.4	20.5	0.00e+00	0	59	0	303038464	49	4784
2026-01-22 21:56:40.82	165.54	16.27	-39.1	-41.5	20.4	0.00e+00	0	59	0	304087040	49	4828
2026-01-22 21:56:41.83	165.22	16.18	-39.1	-41.5	20.3	0.00e+00	0	59	0	305135616	49	4853
2026-01-22 21:56:42.84	164.90	16.09	-39.2	-41.6	20.3	0.00e+00	0	59	0	306184192	49	4884
2026-01-22 21:56:43.85	164.58	16.00	-39.3	-41.8	20.1	0.00e+00	0	59	0	307757056	49	5024
2026-01-22 21:56:44.86	164.26	15.91	-39.4	-41.9	20.0	0.00e+00	0	59	0	308805632	49	5083
2026-01-22 21:56:45.87	163.95	15.82	-39.6	-42.2	19.7	0.00e+00	0	59	0	309854208	49	5246
2026-01-22 21:56:46.87	163.64	15.73	-39.6	-42.3	19.6	0.00e+00	0	59	0	310902784	49	5292
2026-01-22 21:56:47.88	163.33	15.64	-39.5	-42.1	19.8	0.00e+00	0	59	0	311951360	49	5179
2026-01-22 21:56:48.89	163.02	15.55	-39.5	-42.0	19.8	0.00e+00	0	59	0	312999936	49	5140
2026-01-22 21:56:49.90	162.72	15.46	-39.4	-42.0	19.9	0.00e+00	0	59	0	314572800	49	5135
2026-01-22 21:56:50.91	162.41	15.37	-39.6	-42.2	19.7	0.00e+00	0	59	0	315621376	49	5225
2026-01-22 21:56:51.92	162.11	15.28	-39.5	-42.1	19.8	0.00e+00	0	59	0	316669952	49	5210
2026-01-22 21:56:52.93	161.82	15.18	-39.5	-42.0	19.9	0.00e+00	0	59	0	317718528	49	5150
2026-01-22 21:56:53.94	161.52	15.09	-39.5	-42.1	19.8	0.00e+00	0	59	0	318767104	49	5182
2026-01-22 21:56:54.95	161.23	15.00	-39.5	-42.1	19.9	0.00e+00	0	59	0	319815680	49	5169
2026-01-22 21:56:55.96	160.94	14.91	-39.6	-42.2	19.8	0.00e+00	0	59	0	321388544	49	5227
2026-01-22 21:56:56.97	160.65	14.82	-39.7	-42.3	19.6	0.00e+00	0	59	0	322437120	49	5333
2026-01-22 21:56:57.99	160.36	14.73	-39.8	-42.5	19.5	0.00e+00	0	59	0	323485696	50	5122
2026-01-22 21:56:58.99	160.08	14.63	-39.8	-42.5	19.4	0.00e+00	0	59	0	324534272	50	5153
2026-01-22 21:57:00.00	159.80	14.54	-39.8	-42.6	19.3	0.00e+00	0	59	0	325582848	50	5166
2026-01-22 21:57:01.01	159.52	14.45	-39.9	-42.6	19.3	0.00e+00	0	59	0	326631424	50	5203
2026-01-22 21:57:02.02	159.24	14.36	-39.9	-42.6	19.3	0.00e+00	0	59	0	328204288	50	5197
2026-01-22 21:57:03.03	158.96	14.27	-39.9	-42.6	19.3	0.00e+00	0	59	0	329252864	50	5197
2026-01-22 21:57:04.04	158.69	14.17	-39.8	-42.6	19.3	0.00e+00	0	59	0	330301440	50	5183
2026-01-22 21:57:05.05	158.42	14.08	-39.9	-42.6	19.3	0.00e+00	0	59	0	331350016	50	5207
2026-01-22 21:57:06.06	158.15	13.99	-40.0	-42.8	19.1	0.00e+00	0	59	0	332398592	50	5294
2026-01-22 21:57:07.07	157.88	13.90	-40.1	-42.9	18.9	0.00e+00	0	59	0	333971456	50	5395
2026-01-22 21:57:08.08	157.62	13.80	-40.2	-43.1	18.8	0.00e+00	0	59	0	335020032	50	5506
2026-01-22 21:57:09.09	157.36	13.71	-40.2	-43.1	18.8	0.00e+00	0	59	0	336068608	51	5196
2026-01-22 21:57:10.10	157.10	13.62	-40.1	-43.0	18.9	0.00e+00	0	59	0	337117184	51	5112
2026-01-22 21:57:11.11	156.84	13.53	-40.0	-42.9	18.9	0.00e+00	0	59	0	338165760	51	5069
2026-01-22 21:57:12.12	156.58	13.44	-40.0	-42.9	18.9	0.00e+00	0	59	0	339214336	51	5087
2026-01-22 21:57:13.13	156.33	13.34	-40.0	-42.9	18.9	0.00e+00	0	59	0	340262912	51	5079
2026-01-22 21:57:14.14	156.08	13.25	-40.1	-43.0	18.8	0.00e+00	0	59	0	341835776	51	5130
2026-01-22 21:57:15.15	155.83	13.16	-40.1	-43.1	18.7	0.00e+00	0	59	0	342884352	51	5180
2026-01-22 21:57:16.15	155.58	13.07	-40.2	-43.1	18.7	0.00e+00	0	59	0	343932928	51	5213
2026-01-22 21:57:17.16	155.34	12.98	-40.2	-43.2	18.6	0.00e+00	0	60	0	344981504	51	5272
2026-01-22 21:57:18.17	155.09	12.89	-40.2	-43.2	18.6	0.00e+00	0	59	0	346030080	51	5258
2026-01-22 21:57:19.18	154.85	12.80	-40.2	-43.2	18.5	0.00e+00	0	59	0	347078656	51	5259
2026-01-22 21:57:20.19	154.61	12.70	-40.2	-43.2	18.6	0.00e+00	0	59	0	348651520	51	5233
2026-01-22 21:57:21.20	154.37	12.61	-40.3	-43.3	18.4	0.00e+00	0	59	0	349700096	51	5335
2026-01-22 21:57:22.21	154.14	12.52	-40.3	-43.4	18.3	0.00e+00	0	59	0	350748672	51	5379
2026-01-22 21:57:23.22	153.90	12.43	-40.4	-43.5	18.3	0.00e+00	0	59	0	351797248	51	5419
2026-01-22 21:57:24.23	153.67	12.34	-40.3	-43.4	18.3	0.00e+00	0	59	0	352845824	51	5356
2026-01-22 21:57:25.23	153.44	12.25	-40.3	-43.4	18.3	0.00e+00	0	60	0	353894400	51	5383
2026-01-22 21:57:26.24	153.21	12.16	-40.4	-43.5	18.2	0.00e+00	0	59	0	355467264	51	5454
2026-01-22 21:57:27.25	152.99	12.07	-40.4	-43.5	18.2	0.00e+00	0	59	0	356515840	51	5458
2026-01-22 21:57:28.26	152.76	11.98	-40.4	-43.6	18.1	0.00e+00	0	60	0	357564416	51	5483
2026-01-22 21:57:29.27	152.54	11.89	-40.5	-43.7	18.0	0.00e+00	0	59	0	358612992	51	5550
2026-01-22 21:57:30.28	152.32	11.80	-40.5	-43.8	17.9	0.00e+00	0	59	0	359661568	51	5643
2026-01-22 21:57:31.29	152.10	11.71	-40.5	-43.8	17.9	0.00e+00	0	59	0	360710144	51	5640
2026-01-22 21:57:32.30	151.88	11.62	-40.5	-43.9	17.8	0.00e+00	0	59	0	362283008	51	5657
2026-01-22 21:57:33.31	151.67	11.53	-40.6	-43.9	17.7	0.00e+00	0	59	0	363331584	51	5705
2026-01-22 21:57:34.32	151.45	11.44	-40.6	-43.9	17.7	0.00e+00	0	60	0	364380160	51	5682
2026-01-22 21:57:35.33	151.24	11.35	-40.5	-43.7	17.9	0.00e+00	0	59	0	365428736	51	5588
2026-01-22 21:57:36.34	151.03	11.26	-40.4	-43.6	18.0	0.00e+00	0	60	0	366477312	51	5521
2026-01-22 21:57:37.35	150.82	11.17	-40.3	-43.5	18.1	0.00e+00	0	59	0	367525888	51	5422
2026-01-22 21:57:38.36	150.61	11.09	-40.3	-43.5	18.1	0.00e+00	0	59	0	369098752	51	5437
2026-01-22 21:57:39.37	150.41	11.00	-40.3	-43.5	18.1	0.00e+00	0	59	0	370147328	51	5450
2026-01-22 21:57:40.38	150.20	10.91	-40.4	-43.7	17.9	0.00e+00	0	59	0	371195904	51	5564
2026-01-22 21:57:41.39	150.00	10.82	-40.5	-43.8	17.8	0.00e+00	0	60	0	372244480	51	5636
2026-01-22 21:57:42.40	149.80	10.73	-40.5	-43.9	17.7	0.00e+00	0	59	0	373293056	51	5667
2026-01-22 21:57:43.41	149.60	10.65	-40.6	-44.0	17.5	0.00e+00	0	60	0	374341632	51	5768
2026-01-22 21:57:44.42	149.40	10.56	-40.6	-44.1	17.5	0.00e+00	0	60	0	375914496	51	5809
2026-01-22 21:57:45.42	149.21	10.47	-40.7	-44.2	17.3	0.00e+00	0	59	0	376963072	51	5889
2026-01-22 21:57:46.43	149.01	10.39	-40.7	-44.3	17.1	0.00e+00	0	60	0	378011648	52	5642
2026-01-22 21:57:47.44	148.82	10.30	-40.8	-44.5	16.9	0.00e+00	0	60	0	379060224	52	5737
2026-01-22 21:57:48.45	148.63	10.21	-40.9	-44.7	16.7	0.00e+00	0	59	0	380108800	52	5870
2026-01-22 21:57:49.46	148.44	10.13	-40.8	-44.6	16.7	0.00e+00	0	59	0	381157376	52	5842
2026-01-22 21:57:50.47	148.25	10.04	-40.8	-44.6	16.7	0.00e+00	0	60	0	382730240	52	5821
2026-01-22 21:57:51.48	148.07	9.95	-40.7	-44.5	16.8	0.00e+00	0	59	0	383778816	52	5742
2026-01-22 21:57:52.49	147.88	9.87	-40.8	-44.5	16.8	0.00e+00	0	59	0	384827392	52	5762
2026-01-22 21:57:53.50	147.70	9.78	-40.7	-44.4	16.8	0.00e+00	0	59	0	385875968	52	5707
2026-01-22 21:57:54.51	147.51	9.70	-40.8	-44.5	16.7	0.00e+00	0	59	0	386924544	52	5775
2026-01-22 21:57:55.52	147.33	9.61	-40.8	-44.7	16.6	0.00e+00	0	59	0	387973120	52	5879
2026-01-22 21:57:56.53	147.15	9.53	-40.9	-44.7	16.5	0.00e+00	0	60	0	389545984	52	5921
2026-01-22 21:57:57.54	146.98	9.44	-41.0	-44.9	16.3	0.00e+00	0	59	0	390594560	52	6056
2026-01-22 21:57:58.55	146.80	9.36	-41.0	-45.1	16.1	0.00e+00	0	59	0	391643136	52	6143
2026-01-22 21:57:59.56	146.62	9.28	-41.0	-45.0	16.1	0.00e+00	0	59	0	392691712	52	6107
2026-01-22 21:58:00.57	146.45	9.19	-40.9	-45.0	16.1	0.00e+00	0	59	0	393740288	52	6098
2026-01-22 21:58:01.58	146.28	9.11	-40.8	-44.8	16.4	0.00e+00	0	60	0	394788864	52	5933
2026-01-22 21:58:02.59	146.11	9.03	-40.8	-44.7	16.4	0.00e+00	0	59	0	396361728	52	5882
2026-01-22 21:58:03.60	145.94	8.94	-40.7	-44.5	16.6	0.00e+00	0	60	0	397410304	52	5746
2026-01-22 21:58:04.61	145.77	8.86	-40.7	-44.6	16.4	0.00e+00	0	60	0	398458880	52	5846
2026-01-22 21:58:05.62	145.60	8.78	-40.7	-44.7	16.4	0.00e+00	0	60	0	399507456	52	5860
2026-01-22 21:58:06.63	145.43	8.69	-40.8	-44.8	16.2	0.00e+00	0	59	0	400556032	52	5976
2026-01-22 21:58:07.64	145.27	8.61	-40.8	-45.0	16.1	0.00e+00	0	60	0	401604608	52	6065
2026-01-22 21:58:08.65	145.11	8.53	-40.8	-44.8	16.2	0.00e+00	0	60	0	403177472	52	5985
2026-01-22 21:58:09.65	144.95	8.45	-40.8	-45.0	16.0	0.00e+00	0	60	0	404226048	52	6062
2026-01-22 21:58:10.66	144.79	8.37	-40.8	-44.8	16.1	0.00e+00	0	60	0	405274624	52	5981
2026-01-22 21:58:11.67	144.63	8.29	-40.8	-44.9	16.0	0.00e+00	0	59	0	406323200	52	6010
2026-01-22 21:58:12.68	144.47	8.21	-40.9	-45.1	15.8	0.00e+00	0	59	0	407371776	52	6201
2026-01-22 21:58:13.69	144.31	8.13	-40.9	-45.2	15.6	0.00e+00	0	60	0	408420352	52	6262
2026-01-22 21:58:14.70	144.15	8.05	-41.0	-45.4	15.5	0.00e+00	0	60	0	409993216	52	6375
2026-01-22 21:58:15.71	144.00	7.96	-43.6	-54.7	6.7	0.00e+00	0	59	0	411041792	57	13987
2026-01-22 21:58:16.72	143.85	7.88	-44.5	-62.3	3.7	2.88e-01	0	60	104	411041792	59	29866
2026-01-22 21:58:17.73	143.69	7.81	-44.8	-63.3	3.8	2.88e-01	0	60	104	411041792	60	31549
2026-01-22 21:58:18.74	143.54	7.73	-45.2	-63.5	3.8	8.47e-01	0	60	104	411041792	60	32453
2026-01-22 21:58:19.75	143.39	7.65	-45.4	-63.6	3.8	8.46e-01	0	59	104	411041792	61	31037
2026-01-22 21:58:20.76	143.24	7.57	-45.5	-63.8	3.8	8.46e-01	0	60	104	411041792	61	31733
2026-01-22 21:58:21.77	143.10	7.49	-45.5	-63.9	3.8	8.45e-01	0	60	104	411041792	61	31929
2026-01-22 21:58:22.78	142.95	7.41	-45.6	-63.9	3.8	8.46e-01	0	59	104	411041792	61	31890
2026-01-22 21:58:23.79	142.80	7.33	-45.6	-63.9	3.8	8.46e-01	0	60	104	411041792	61	31861
2026-01-22 21:58:24.80	142.66	7.25	-45.6	-63.8	3.8	8.46e-01	0	60	104	411041792	61	31672
2026-01-22 21:58:25.81	142.51	7.18	-45.5	-63.7	3.8	8.46e-01	0	59	104	411041792	61	31161
2026-01-22 21:58:26.82	142.37	7.10	-45.4	-63.6	3.8	8.46e-01	0	60	104	411041792	61	30779
2026-01-22 21:58:27.83	142.23	7.02	-45.4	-63.5	3.8	8.46e-01	0	60	104	411041792	61	30420
2026-01-22 21:58:28.84	142.09	6.94	-45.3	-63.4	3.8	8.46e-01	0	59	104	411041792	61	30255
2026-01-22 21:58:29.85	141.95	6.87	-45.3	-63.4	3.8	8.46e-01	0	60	104	411041792	61	30096
2026-01-22 21:58:30.86	141.81	6.79	-45.2	-63.3	3.8	8.46e-01	0	60	104	411041792	61	29758
2026-01-22 21:58:31.87	141.68	6.71	-45.2	-63.3	3.8	8.45e-01	0	60	104	411041792	61	30004
2026-01-22 21:58:32.88	141.54	6.64	-45.2	-63.3	3.8	8.47e-01	0	60	104	411041792	61	29942
2026-01-22 21:58:33.89	141.40	6.56	-45.2	-63.3	3.8	8.45e-01	0	60	104	411041792	61	29813
2026-01-22 21:58:34.90	141.27	6.48	-45.3	-63.3	3.8	8.45e-01	0	60	104	411041792	61	29861
2026-01-22 21:58:35.91	141.14	6.41	-45.2	-63.3	3.8	8.46e-01	0	60	104	411041792	61	29916
2026-01-22 21:58:36.92	141.01	6.33	-45.2	-63.3	3.8	8.46e-01	0	60	104	411041792	61	29749
2026-01-22 21:58:37.93	140.87	6.26	-45.2	-63.3	3.8	8.46e-01	0	60	104	411041792	61	29843
2026-01-22 21:58:38.94	140.74	6.18	-45.2	-63.3	3.8	8.47e-01	0	60	104	411041792	61	29843
2026-01-22 21:58:39.95	140.61	6.11	-45.2	-63.3	3.8	8.46e-01	0	60	104	411041792	61	29859
2026-01-22 21:58:40.96	140.49	6.03	-45.2	-63.3	3.8	8.46e-01	0	60	104	411041792	61	29779
2026-01-22 21:58:41.97	140.36	5.96	-45.2	-63.3	3.8	8.47e-01	0	60	104	411041792	61	29712
2026-01-22 21:58:42.98	140.23	5.89	-45.2	-63.3	3.8	8.46e-01	0	60	104	411041792	61	29723
2026-01-22 21:58:43.99	140.11	5.81	-45.2	-63.3	3.8	8.46e-01	0	60	104	411041792	61	29738
2026-01-22 21:58:45.00	139.98	5.74	-45.2	-63.2	3.8	8.45e-01	0	60	104	411041792	61	29649
2026-01-22 21:58:46.01	139.86	5.67	-45.2	-63.3	3.8	8.46e-01	0	60	104	411041792	61	29793
2026-01-22 21:58:47.02	139.73	5.59	-45.2	-63.2	3.8	8.46e-01	0	60	104	411041792	61	29678
2026-01-22 21:58:48.03	139.61	5.52	-45.2	-63.3	3.8	8.46e-01	0	60	104	411041792	61	29723
2026-01-22 21:58:49.04	139.49	5.45	-45.2	-63.3	3.8	8.46e-01	0	60	104	411041792	61	29714
2026-01-22 21:58:50.05	139.37	5.37	-45.2	-63.2	3.8	8.45e-01	0	60	104	411041792	61	29630
2026-01-22 21:58:51.06	139.25	5.30	-45.2	-63.2	3.8	8.45e-01	0	60	104	411041792	61	29677
2026-01-22 21:58:52.07	139.13	5.23	-45.2	-63.2	3.8	8.45e-01	0	60	104	411041792	61	29659
2026-01-22 21:58:53.08	139.02	5.16	-45.2	-63.3	3.8	8.47e-01	0	60	104	411041792	61	29705
2026-01-22 21:58:54.09	138.90	5.09	-45.2	-63.3	3.8	8.47e-01	0	60	104	411041792	61	29690
2026-01-22 21:58:55.10	138.78	5.01	-45.2	-63.3	3.8	8.45e-01	0	60	104	411041792	61	29699
2026-01-22 21:58:56.11	138.67	4.94	-45.2	-63.2	3.8	8.45e-01	0	60	104	411041792	61	29664
2026-01-22 21:58:57.12	138.55	4.87	-45.2	-63.3	3.8	8.45e-01	0	60	104	411041792	61	29694
2026-01-22 21:58:58.13	138.44	4.80	-45.2	-63.3	3.8	8.46e-01	0	60	104	411041792	61	29737
2026-01-22 21:58:59.14	138.33	4.73	-45.2	-63.3	3.8	8.47e-01	0	60	104	411041792	61	29710
2026-01-22 21:59:00.15	138.21	4.66	-45.2	-63.2	3.8	8.47e-01	0	60	104	411041792	61	29661
2026-01-22 21:59:01.16	138.10	4.59	-45.2	-63.2	3.8	8.47e-01	0	60	104	411041792	61	29580
2026-01-22 21:59:02.17	137.99	4.52	-45.2	-63.3	3.8	8.46e-01	0	60	104	411041792	61	29696
2026-01-22 21:59:03.18	137.88	4.45	-45.2	-63.2	3.8	8.46e-01	0	60	104	411041792	61	29619
2026-01-22 21:59:04.19	137.77	4.38	-45.2	-63.2	3.8	8.46e-01	0	60	104	411041792	61	29620
2026-01-22 21:59:05.20	137.66	4.31	-45.2	-63.2	3.8	8.46e-01	0	60	104	411041792	61	29630
2026-01-22 21:59:06.21	137.56	4.24	-45.2	-63.2	3.8	8.46e-01	0	59	104	411041792	61	29671
2026-01-22 21:59:07.22	137.45	4.17	-45.2	-63.2	3.8	8.46e-01	0	60	104	411041792	61	29596
2026-01-22 21:59:08.23	137.34	4.10	-45.2	-63.2	3.8	8.47e-01	0	60	104	411041792	61	29589
2026-01-22 21:59:09.24	137.24	4.04	-45.2	-63.3	3.8	8.47e-01	0	60	104	411041792	61	29694
2026-01-22 21:59:10.25	137.13	3.97	-45.2	-63.2	3.8	8.47e-01	0	60	104	411041792	61	29625
2026-01-22 21:59:11.26	137.03	3.90	-45.2	-63.2	3.8	8.47e-01	0	60	104	411041792	61	29623
2026-01-22 21:59:12.27	136.93	3.83	-45.2	-63.2	3.8	8.46e-01	0	60	104	411041792	61	29628
2026-01-22 21:59:13.28	136.82	3.76	-45.2	-63.2	3.8	8.45e-01	0	60	104	411041792	61	29637
2026-01-22 21:59:14.29	136.72	3.70	-45.2	-63.2	3.8	8.45e-01	0	60	104	411041792	61	29540
2026-01-22 21:59:15.30	136.62	3.63	-45.2	-63.2	3.8	8.45e-01	0	60	104	411041792	61	29560
2026-01-22 21:59:16.31	136.52	3.56	-45.2	-63.2	3.8	8.45e-01	0	60	104	411041792	61	29653
2026-01-22 21:59:17.32	136.42	3.49	-45.2	-63.2	3.8	8.45e-01	0	60	104	411041792	61	29607
2026-01-22 21:59:18.33	136.32	3.43	-45.2	-63.2	3.8	8.47e-01	0	60	104	411041792	61	29486
2026-01-22 21:59:19.34	136.22	3.36	-45.1	-63.2	3.8	8.47e-01	0	60	104	411041792	61	29633
2026-01-22 21:59:20.35	136.12	3.29	-45.2	-63.2	3.8	8.47e-01	0	60	104	411041792	61	29637
2026-01-22 21:59:21.35	136.03	3.23	-45.2	-63.2	3.8	8.45e-01	0	60	104	411041792	61	29515
2026-01-22 21:59:22.37	135.93	3.16	-45.1	-63.2	3.8	8.46e-01	0	60	104	411041792	61	29554
2026-01-22 21:59:23.37	135.84	3.10	-45.2	-63.2	3.8	8.46e-01	0	60	104	411041792	61	29603
2026-01-22 21:59:24.39	135.74	3.03	-45.2	-63.2	3.8	8.46e-01	0	60	104	411041792	61	29517
2026-01-22 21:59:25.40	135.64	2.96	-45.1	-63.2	3.8	8.45e-01	0	60	104	411041792	61	29533
2026-01-22 21:59:26.41	135.55	2.90	-45.1	-63.2	3.8	8.47e-01	0	60	104	411041792	61	29597
2026-01-22 21:59:27.42	135.46	2.83	-45.1	-63.2	3.8	8.47e-01	0	60	104	411041792	61	29652
2026-01-22 21:59:28.43	135.36	2.77	-45.1	-63.2	3.8	8.46e-01	0	60	104	411041792	61	29577
2026-01-22 21:59:29.44	135.27	2.70	-45.2	-63.2	3.8	8.46e-01	0	60	104	411041792	61	29543
2026-01-22 21:59:30.45	135.18	2.64	-45.1	-63.2	3.8	8.46e-01	0	60	104	411041792	61	29568
2026-01-22 21:59:31.46	135.09	2.57	-45.1	-63.2	3.8	8.46e-01	0	60	104	411041792	61	29494
2026-01-22 21:59:32.47	135.00	2.51	-45.1	-63.2	3.8	8.47e-01	0	60	104	411041792	61	29565
2026-01-22 21:59:33.48	134.91	2.45	-45.1	-63.2	3.8	8.47e-01	0	60	104	411041792	61	29585
2026-01-22 21:59:34.49	134.82	2.38	-45.1	-63.2	3.8	8.46e-01	0	60	104	411041792	61	29527
2026-01-22 21:59:35.50	134.73	2.32	-45.1	-63.2	3.8	8.48e-01	0	60	104	411041792	61	29530
2026-01-22 21:59:36.51	134.64	2.25	-45.1	-63.2	3.8	8.48e-01	0	60	104	411041792	61	29499

#Closed at: 2026-01-22 21:59:37
#Recorded file [411 MB]: D:/lorett/data/31039_260123_005056.dat