passes_logs/2026/01/22/R2.0S_Moscow/R2.0S_Moscow__20260122_000126_FENGYUN_3D_rec.log

#Pass ID: 20260122_000126_FENGYUN 3D
#Satellite: FENGYUN 3D
#Configuration: FENGYUN 3D
#almurnet v.1.7.20251203
#Start time: 2026-01-22 00:01:26

#Version: 2.2.20231116
#Station: R2.0S_Moscow
#Location: 37.707566 lon 55.798166 lat
#TLE: 1 43010U 17072A   26021.48744220  .00000253  00000+0  14133-3 0  9991
#TLE: 2 43010  98.9948 353.4037 0002485  97.2578 262.8880 14.19697766424177

#Time	Az	El	Level	Level2	SNR	BER	BlckErr	Temp	State	Recorded	gain1	gain2
2026-01-22 00:01:26.27	27.91	1.99	-43.0	-54.6	3.8	8.47e-01	0	48	0	0	58	13001
2026-01-22 00:01:27.27	27.99	2.04	-43.0	-54.5	3.8	8.45e-01	0	49	104	0	57	13690
2026-01-22 00:01:28.29	28.08	2.10	-43.0	-54.6	3.8	8.45e-01	0	49	104	0	57	13742
2026-01-22 00:01:29.30	28.16	2.15	-43.0	-54.6	3.8	8.46e-01	0	49	104	0	57	13727
2026-01-22 00:01:30.31	28.24	2.20	-43.0	-54.5	3.8	8.46e-01	0	49	104	0	57	13704
2026-01-22 00:01:31.32	28.33	2.25	-43.0	-54.5	3.8	8.45e-01	0	49	104	0	57	13696
2026-01-22 00:01:32.33	28.41	2.30	-43.0	-54.5	3.8	8.47e-01	0	49	104	0	57	13674
2026-01-22 00:01:33.34	28.50	2.36	-43.0	-54.5	3.8	8.46e-01	0	49	104	0	57	13693
2026-01-22 00:01:34.35	28.58	2.41	-43.0	-54.6	3.8	8.46e-01	0	49	104	0	57	13730
2026-01-22 00:01:35.36	28.67	2.46	-43.0	-54.5	3.8	8.45e-01	0	49	104	0	57	13689
2026-01-22 00:01:36.37	28.75	2.51	-43.0	-54.5	3.8	8.46e-01	0	49	104	0	57	13716
2026-01-22 00:01:37.38	28.84	2.56	-43.0	-54.5	3.8	8.45e-01	0	50	104	0	57	13665
2026-01-22 00:01:38.39	28.92	2.62	-43.0	-54.5	3.8	8.45e-01	0	49	104	0	57	13675
2026-01-22 00:01:39.40	29.01	2.67	-43.0	-54.5	3.8	8.46e-01	0	50	104	0	57	13715
2026-01-22 00:01:40.41	29.10	2.72	-43.0	-54.5	3.8	8.46e-01	0	50	104	0	57	13667
2026-01-22 00:01:41.42	29.18	2.77	-43.0	-54.5	3.8	8.46e-01	0	50	104	0	57	13676
2026-01-22 00:01:42.43	29.27	2.82	-43.0	-54.5	3.8	8.46e-01	0	50	104	0	57	13673
2026-01-22 00:01:43.44	29.36	2.88	-43.0	-54.5	3.8	8.46e-01	0	50	104	0	57	13666
2026-01-22 00:01:44.45	29.45	2.93	-43.0	-54.5	3.8	8.47e-01	0	50	104	0	57	13626
2026-01-22 00:01:45.46	29.53	2.98	-43.0	-54.5	3.8	8.45e-01	0	50	104	0	57	13663
2026-01-22 00:01:46.47	29.62	3.03	-43.0	-54.5	3.8	8.45e-01	0	50	104	0	57	13683
2026-01-22 00:01:47.48	29.71	3.09	-43.0	-54.5	3.8	8.46e-01	0	50	104	0	57	13660
2026-01-22 00:01:48.49	29.80	3.14	-43.0	-54.5	3.8	8.45e-01	0	50	104	0	57	13705
2026-01-22 00:01:49.50	29.89	3.19	-43.0	-54.5	3.8	8.47e-01	0	50	104	0	57	13655
2026-01-22 00:01:50.51	29.98	3.24	-43.0	-54.5	3.8	8.47e-01	0	50	104	0	57	13710
2026-01-22 00:01:51.52	30.07	3.30	-43.0	-54.5	3.8	8.47e-01	0	51	104	0	57	13661
2026-01-22 00:01:52.53	30.16	3.35	-43.0	-54.5	3.8	8.47e-01	0	50	104	0	57	13685
2026-01-22 00:01:53.54	30.25	3.40	-43.0	-54.5	3.8	8.46e-01	0	50	104	0	57	13675
2026-01-22 00:01:54.55	30.34	3.45	-43.0	-54.5	3.8	8.46e-01	0	50	104	0	57	13639
2026-01-22 00:01:55.56	30.43	3.51	-43.0	-54.5	3.8	8.46e-01	0	51	104	0	57	13712
2026-01-22 00:01:56.57	30.52	3.56	-43.0	-54.5	3.8	8.45e-01	0	51	104	0	57	13680
2026-01-22 00:01:57.58	30.61	3.61	-43.0	-54.5	3.8	8.46e-01	0	51	104	0	57	13653
2026-01-22 00:01:58.60	30.70	3.67	-43.0	-54.5	3.8	8.46e-01	0	51	104	0	57	13662
2026-01-22 00:01:59.61	30.80	3.72	-43.0	-54.5	3.8	8.45e-01	0	51	104	0	57	13683
2026-01-22 00:02:00.62	30.89	3.77	-43.0	-54.5	3.8	8.45e-01	0	51	104	0	57	13700
2026-01-22 00:02:01.63	30.98	3.83	-43.0	-54.5	3.8	8.47e-01	0	51	104	0	57	13694
2026-01-22 00:02:02.64	31.08	3.88	-43.0	-54.6	3.8	8.46e-01	0	51	104	0	57	13728
2026-01-22 00:02:03.65	31.17	3.93	-43.0	-54.5	3.8	8.45e-01	0	51	104	0	57	13644
2026-01-22 00:02:04.66	31.26	3.99	-43.0	-54.5	3.8	8.46e-01	0	51	104	0	57	13660
2026-01-22 00:02:05.67	31.36	4.04	-43.0	-54.5	3.8	8.46e-01	0	51	104	0	57	13717
2026-01-22 00:02:06.68	31.45	4.09	-43.0	-54.5	3.8	8.46e-01	0	51	104	0	57	13640
2026-01-22 00:02:07.69	31.55	4.15	-43.0	-54.5	3.8	8.47e-01	0	51	104	0	57	13650
2026-01-22 00:02:08.70	31.64	4.20	-43.0	-54.6	3.8	8.46e-01	0	51	104	0	57	13744
2026-01-22 00:02:09.71	31.74	4.25	-43.0	-54.5	3.8	8.47e-01	0	51	104	0	57	13693
2026-01-22 00:02:10.72	31.83	4.31	-43.0	-54.5	3.8	8.46e-01	0	51	104	0	57	13715
2026-01-22 00:02:11.73	31.93	4.36	-43.0	-54.5	3.8	8.47e-01	0	52	104	0	57	13701
2026-01-22 00:02:12.74	32.02	4.41	-43.0	-54.5	3.8	8.46e-01	0	52	104	0	57	13675
2026-01-22 00:02:13.75	32.12	4.47	-43.0	-54.5	3.8	8.46e-01	0	52	104	0	57	13694
2026-01-22 00:02:14.76	32.22	4.52	-43.0	-54.5	3.8	8.46e-01	0	52	104	0	57	13679
2026-01-22 00:02:15.77	32.32	4.57	-43.0	-54.5	3.8	8.46e-01	0	52	104	0	57	13659
2026-01-22 00:02:16.78	32.41	4.63	-43.0	-54.5	3.8	8.46e-01	0	52	104	0	57	13609
2026-01-22 00:02:17.79	32.51	4.68	-43.0	-54.5	3.8	8.46e-01	0	52	104	0	57	13680
2026-01-22 00:02:18.80	32.61	4.74	-43.0	-54.5	3.8	8.46e-01	0	52	104	0	57	13683
2026-01-22 00:02:19.81	32.71	4.79	-43.0	-54.5	3.8	8.45e-01	0	52	104	0	57	13667
2026-01-22 00:02:20.82	32.81	4.84	-43.0	-54.5	3.8	8.46e-01	0	52	104	0	57	13658
2026-01-22 00:02:21.84	32.91	4.90	-43.0	-54.5	3.8	8.47e-01	0	52	104	0	57	13706
2026-01-22 00:02:22.85	33.01	4.95	-43.0	-54.5	3.8	8.45e-01	0	52	104	0	57	13688
2026-01-22 00:02:23.86	33.11	5.01	-43.0	-54.5	3.8	8.47e-01	0	52	104	0	57	13640
2026-01-22 00:02:24.87	33.21	5.06	-43.0	-54.5	3.8	8.46e-01	0	52	104	0	57	13672
2026-01-22 00:02:25.88	33.31	5.11	-43.0	-54.5	3.8	8.46e-01	0	52	104	0	57	13699
2026-01-22 00:02:26.89	33.41	5.17	-43.0	-54.5	3.8	8.46e-01	0	52	104	0	57	13650
2026-01-22 00:02:27.90	33.51	5.22	-43.0	-54.5	3.8	8.46e-01	0	52	104	0	57	13625
2026-01-22 00:02:28.91	33.62	5.28	-43.0	-54.5	3.8	8.46e-01	0	52	104	0	57	13644
2026-01-22 00:02:29.92	33.72	5.33	-43.0	-54.5	3.8	8.46e-01	0	53	104	0	57	13677
2026-01-22 00:02:30.93	33.82	5.39	-43.0	-54.5	3.8	8.46e-01	0	53	104	0	57	13723
2026-01-22 00:02:31.94	33.92	5.44	-43.0	-54.5	3.8	8.46e-01	0	53	104	0	57	13663
2026-01-22 00:02:32.95	34.03	5.50	-43.0	-54.5	3.8	8.46e-01	0	53	104	0	57	13633
2026-01-22 00:02:33.96	34.13	5.55	-43.0	-54.5	3.8	8.45e-01	0	53	104	0	57	13640
2026-01-22 00:02:34.97	34.24	5.60	-43.0	-54.5	3.8	8.46e-01	0	53	104	0	57	13636
2026-01-22 00:02:35.98	34.34	5.66	-43.0	-54.5	3.8	8.46e-01	0	53	104	0	57	13629
2026-01-22 00:02:36.99	34.45	5.71	-43.0	-54.5	3.8	8.45e-01	0	53	104	0	57	13654
2026-01-22 00:02:38.00	34.55	5.77	-43.0	-54.5	3.8	8.46e-01	0	53	104	0	57	13697
2026-01-22 00:02:39.01	34.66	5.82	-43.0	-54.5	3.8	8.46e-01	0	53	104	0	57	13720
2026-01-22 00:02:40.02	34.76	5.88	-43.0	-54.5	3.8	8.46e-01	0	53	104	0	57	13589
2026-01-22 00:02:41.03	34.87	5.93	-43.0	-54.5	3.8	8.47e-01	0	53	104	0	57	13629
2026-01-22 00:02:42.05	34.98	5.99	-43.0	-54.5	3.8	8.47e-01	0	53	104	0	57	13682
2026-01-22 00:02:43.05	35.08	6.04	-43.0	-54.5	3.8	8.46e-01	0	53	104	0	57	13662
2026-01-22 00:02:44.07	35.19	6.10	-43.0	-54.5	3.8	8.47e-01	0	53	104	0	57	13646
2026-01-22 00:02:45.08	35.30	6.15	-43.0	-54.5	3.8	8.46e-01	0	53	104	0	57	13611
2026-01-22 00:02:46.09	35.41	6.21	-43.0	-54.5	3.8	8.46e-01	0	53	104	0	57	13658
2026-01-22 00:02:47.10	35.52	6.26	-43.0	-54.5	3.8	8.46e-01	0	53	104	0	57	13675
2026-01-22 00:02:48.11	35.63	6.32	-43.0	-54.5	3.8	8.47e-01	0	53	104	0	57	13658
2026-01-22 00:02:49.12	35.74	6.37	-43.0	-54.5	3.8	8.46e-01	0	54	104	0	57	13642
2026-01-22 00:02:50.13	35.85	6.43	-43.0	-54.5	3.8	8.46e-01	0	53	104	0	57	13678
2026-01-22 00:02:51.14	35.96	6.48	-43.0	-54.5	3.8	8.46e-01	0	53	104	0	57	13644
2026-01-22 00:02:52.15	36.07	6.54	-43.0	-54.5	3.8	8.46e-01	0	53	104	0	57	13616
2026-01-22 00:02:53.16	36.18	6.59	-43.0	-54.5	3.8	8.47e-01	0	53	104	0	57	13647
2026-01-22 00:02:54.17	36.29	6.65	-43.0	-54.5	3.8	8.46e-01	0	54	104	0	57	13645
2026-01-22 00:02:55.18	36.40	6.70	-43.0	-54.5	3.8	8.46e-01	0	54	104	0	57	13660
2026-01-22 00:02:56.19	36.51	6.76	-43.0	-54.4	3.8	8.46e-01	0	54	104	0	57	13555
2026-01-22 00:02:57.20	36.63	6.81	-43.0	-54.5	3.8	8.46e-01	0	54	104	0	57	13654
2026-01-22 00:02:58.21	36.74	6.87	-43.0	-54.4	3.8	8.47e-01	0	54	104	0	57	13541
2026-01-22 00:02:59.22	36.85	6.92	-43.0	-54.5	3.8	8.47e-01	0	54	104	0	57	13588
2026-01-22 00:03:00.23	36.97	6.98	-42.9	-54.2	3.8	8.48e-01	0	54	104	0	57	13217
2026-01-22 00:03:01.24	37.08	7.03	-42.9	-54.3	3.8	8.46e-01	0	54	104	0	57	13348
2026-01-22 00:03:02.25	37.20	7.09	-42.9	-54.0	3.8	8.45e-01	0	54	104	0	57	12952
2026-01-22 00:03:03.26	37.31	7.15	-42.9	-54.2	3.8	8.47e-01	0	54	104	0	57	13202
2026-01-22 00:03:04.27	37.43	7.20	-42.9	-54.0	3.8	8.46e-01	0	54	104	0	57	12863
2026-01-22 00:03:05.28	37.54	7.26	-42.9	-53.9	3.8	8.47e-01	0	54	104	0	57	12743
2026-01-22 00:03:06.30	37.66	7.31	-42.9	-53.6	3.8	8.46e-01	0	54	104	0	57	12374
2026-01-22 00:03:07.30	37.78	7.37	-42.9	-53.9	3.8	8.47e-01	0	54	104	0	57	12796
2026-01-22 00:03:08.32	37.90	7.42	-42.9	-54.1	3.8	8.45e-01	0	54	104	0	57	13038
2026-01-22 00:03:09.33	38.01	7.48	-43.0	-54.4	3.8	8.47e-01	0	54	104	0	57	13538
2026-01-22 00:03:10.34	38.13	7.53	-42.9	-54.3	3.8	8.46e-01	0	54	104	0	57	13270
2026-01-22 00:03:11.35	38.25	7.59	-42.9	-53.5	3.8	8.45e-01	0	54	104	0	57	12231
2026-01-22 00:03:12.36	38.37	7.65	-42.6	-51.4	4.1	8.43e-01	0	54	104	0	57	9533
2026-01-22 00:03:13.37	38.49	7.70	-42.0	-48.5	5.2	7.96e-01	0	55	0	0	56	7250
2026-01-22 00:03:14.38	38.61	7.76	-40.9	-45.5	7.5	1.46e-01	0	54	0	4194304	53	6067
2026-01-22 00:03:15.39	38.73	7.81	-40.0	-43.5	9.6	2.73e-02	0	55	0	9437184	51	5444
2026-01-22 00:03:16.40	38.85	7.87	-39.4	-42.5	10.8	5.66e-03	0	55	0	15728640	50	5112
2026-01-22 00:03:17.41	38.97	7.92	-39.3	-42.3	10.9	2.65e-03	0	54	0	20971520	50	5037
2026-01-22 00:03:18.42	39.10	7.98	-39.8	-43.0	10.1	5.61e-03	0	55	0	27262976	50	5459
2026-01-22 00:03:19.43	39.22	8.04	-39.5	-42.5	10.9	1.15e-02	0	55	0	32505856	50	5125
2026-01-22 00:03:20.44	39.34	8.09	-40.8	-44.5	9.1	7.74e-02	0	55	0	38797312	53	5453
2026-01-22 00:03:21.45	39.46	8.15	-40.0	-43.4	9.8	1.22e-01	0	55	0	44040192	52	5055
2026-01-22 00:03:22.46	39.59	8.20	-41.6	-48.1	5.2	2.22e-01	0	55	0	49283072	53	8254
2026-01-22 00:03:23.47	39.71	8.26	-41.6	-47.3	5.7	8.38e-01	0	55	104	49283072	55	6689
2026-01-22 00:03:24.47	39.84	8.31	-40.4	-43.9	9.8	4.77e-02	0	55	0	53477376	52	5350
2026-01-22 00:03:25.47	39.96	8.37	-39.6	-42.5	11.2	1.89e-03	0	55	0	58720256	51	4855
2026-01-22 00:03:26.48	40.08	8.42	-39.4	-42.2	11.6	1.58e-03	0	55	0	65011712	50	4953
2026-01-22 00:03:27.48	40.21	8.48	-39.3	-42.1	11.7	7.68e-04	0	55	0	70254592	50	4884
2026-01-22 00:03:28.48	40.33	8.53	-39.4	-42.1	11.7	7.84e-04	0	55	0	75497472	50	4911
2026-01-22 00:03:29.48	40.46	8.59	-39.4	-42.1	11.8	8.98e-04	0	55	0	81788928	50	4878
2026-01-22 00:03:30.49	40.59	8.65	-39.4	-42.1	11.8	6.66e-04	0	55	0	87031808	50	4910
2026-01-22 00:03:31.50	40.72	8.70	-39.4	-42.0	12.0	7.31e-04	0	55	0	93323264	50	4836
2026-01-22 00:03:32.51	40.84	8.76	-39.3	-41.8	12.2	2.87e-04	0	55	0	98566144	50	4735
2026-01-22 00:03:33.52	40.97	8.81	-39.4	-42.0	12.0	4.70e-04	0	55	0	103809024	50	4853
2026-01-22 00:03:34.53	41.10	8.87	-39.3	-41.8	12.2	3.18e-04	0	55	0	110100480	50	4753
2026-01-22 00:03:35.54	41.23	8.93	-39.6	-42.2	11.9	4.81e-04	0	55	0	115343360	50	4978
2026-01-22 00:03:36.54	41.36	8.98	-39.5	-42.2	12.0	5.33e-04	0	55	0	121634816	50	4942
2026-01-22 00:03:37.55	41.49	9.04	-39.5	-42.2	11.9	4.93e-04	0	55	0	126877696	50	4945
2026-01-22 00:03:38.57	41.62	9.09	-39.7	-42.4	11.7	6.76e-04	0	55	0	132120576	50	5073
2026-01-22 00:03:39.58	41.75	9.15	-39.7	-42.4	11.7	8.07e-04	0	55	0	138412032	50	5079
2026-01-22 00:03:40.58	41.89	9.20	-39.7	-42.5	11.6	8.02e-04	0	55	0	143654912	50	5154
2026-01-22 00:03:41.60	42.02	9.26	-39.7	-42.5	11.6	9.31e-04	0	55	0	149946368	50	5145
2026-01-22 00:03:42.60	42.15	9.32	-39.7	-42.5	11.6	9.44e-04	0	55	0	155189248	50	5135
2026-01-22 00:03:43.61	42.29	9.37	-39.8	-42.5	11.7	8.32e-04	0	55	0	160432128	50	5149
2026-01-22 00:03:44.62	42.42	9.43	-39.7	-42.4	11.8	6.36e-04	0	55	0	166723584	50	5074
2026-01-22 00:03:45.63	42.55	9.48	-39.7	-42.3	12.0	4.75e-04	0	55	0	171966464	50	5008
2026-01-22 00:03:46.64	42.69	9.54	-39.6	-42.2	12.2	4.42e-04	0	55	0	178257920	50	4940
2026-01-22 00:03:47.65	42.82	9.59	-39.5	-42.0	12.4	2.52e-04	0	55	0	183500800	50	4865
2026-01-22 00:03:48.66	42.96	9.65	-39.4	-41.8	12.6	1.92e-04	0	55	0	189792256	50	4742
2026-01-22 00:03:49.67	43.10	9.71	-39.3	-41.8	12.7	1.38e-04	0	55	0	195035136	50	4723
2026-01-22 00:03:50.68	43.23	9.76	-39.4	-41.9	12.5	1.70e-04	0	55	0	201326592	50	4798
2026-01-22 00:03:51.69	43.37	9.82	-39.3	-41.7	12.8	9.26e-05	0	55	0	206569472	50	4693
2026-01-22 00:03:52.70	43.51	9.87	-39.2	-41.6	12.9	8.23e-05	0	55	0	211812352	50	4634
2026-01-22 00:03:53.71	43.65	9.93	-39.2	-41.6	12.9	9.04e-05	0	55	0	218103808	50	4612
2026-01-22 00:03:54.72	43.79	9.99	-39.2	-41.6	12.9	7.78e-05	0	55	0	223346688	50	4604
2026-01-22 00:03:55.73	43.93	10.04	-39.2	-41.6	12.9	7.09e-05	0	56	0	229638144	50	4599
2026-01-22 00:03:56.74	44.07	10.10	-39.0	-41.3	13.3	4.23e-05	0	56	0	234881024	50	4453
2026-01-22 00:03:57.75	44.21	10.15	-39.1	-41.4	13.1	3.54e-05	0	55	0	240123904	50	4520
2026-01-22 00:03:58.76	44.35	10.21	-39.0	-41.2	13.3	5.37e-05	0	55	0	246415360	50	4440
2026-01-22 00:03:59.76	44.49	10.26	-39.0	-41.2	13.3	2.51e-05	0	56	0	251658240	49	4699
2026-01-22 00:04:00.78	44.63	10.32	-39.0	-41.3	13.3	3.66e-05	0	55	0	257949696	49	4748
2026-01-22 00:04:01.79	44.78	10.37	-39.0	-41.3	13.3	2.63e-05	0	55	0	263192576	49	4719
2026-01-22 00:04:02.80	44.92	10.43	-39.1	-41.4	13.2	3.20e-05	0	55	0	268435456	49	4779
2026-01-22 00:04:03.80	45.06	10.48	-39.1	-41.4	13.1	4.57e-05	0	55	0	274726912	49	4807
2026-01-22 00:04:04.81	45.21	10.54	-39.1	-41.4	13.2	3.43e-05	0	56	0	279969792	49	4784
2026-01-22 00:04:05.82	45.35	10.60	-39.1	-41.4	13.2	5.03e-05	0	56	0	286261248	49	4800
2026-01-22 00:04:06.83	45.50	10.65	-39.1	-41.3	13.3	2.86e-05	0	56	0	291504128	49	4732
2026-01-22 00:04:07.84	45.64	10.71	-38.9	-41.1	13.6	1.94e-05	0	56	0	297795584	49	4600
2026-01-22 00:04:08.85	45.79	10.76	-38.8	-40.9	13.7	1.83e-05	0	56	0	303038464	49	4539
2026-01-22 00:04:09.86	45.94	10.82	-38.9	-41.1	13.6	6.80e-06	0	56	0	308281344	49	4609
2026-01-22 00:04:10.87	46.08	10.87	-38.9	-41.0	13.6	1.02e-05	0	56	0	314572800	49	4598
2026-01-22 00:04:11.88	46.23	10.93	-38.9	-41.1	13.5	1.14e-05	0	56	0	319815680	49	4627
2026-01-22 00:04:12.89	46.38	10.98	-38.9	-41.1	13.5	1.60e-05	0	56	0	326107136	49	4641
2026-01-22 00:04:13.90	46.53	11.04	-39.0	-41.3	13.4	1.60e-05	0	56	0	331350016	49	4706
2026-01-22 00:04:14.91	46.68	11.09	-39.0	-41.2	13.4	1.94e-05	0	56	0	336592896	49	4701
2026-01-22 00:04:15.92	46.83	11.15	-39.0	-41.2	13.6	1.94e-05	0	56	0	342884352	49	4652
2026-01-22 00:04:16.93	46.98	11.20	-39.0	-41.2	13.5	1.37e-05	0	56	0	348127232	49	4666
2026-01-22 00:04:17.93	47.13	11.26	-39.0	-41.2	13.5	2.28e-05	0	56	0	354418688	49	4695
2026-01-22 00:04:18.94	47.28	11.31	-39.1	-41.3	13.4	3.54e-05	0	56	0	359661568	49	4738
2026-01-22 00:04:19.95	47.44	11.37	-39.1	-41.3	13.3	2.97e-05	0	56	0	364904448	49	4753
2026-01-22 00:04:20.96	47.59	11.42	-39.1	-41.3	13.3	2.40e-05	0	56	0	371195904	49	4756
2026-01-22 00:04:21.97	47.74	11.48	-39.1	-41.3	13.4	2.05e-05	0	56	0	376438784	49	4741
2026-01-22 00:04:22.98	47.90	11.53	-39.1	-41.4	13.3	2.74e-05	0	56	0	382730240	49	4780
2026-01-22 00:04:23.99	48.05	11.59	-39.1	-41.3	13.4	2.86e-05	0	56	0	387973120	49	4735
2026-01-22 00:04:25.00	48.21	11.64	-39.1	-41.3	13.4	2.17e-05	0	56	0	394264576	49	4730
2026-01-22 00:04:26.00	48.36	11.69	-39.0	-41.1	13.6	2.05e-05	0	56	0	399507456	49	4645
2026-01-22 00:04:27.01	48.52	11.75	-38.9	-41.1	13.7	1.37e-05	0	56	0	404750336	49	4612
2026-01-22 00:04:28.02	48.67	11.80	-38.9	-41.1	13.6	1.02e-05	0	56	0	411041792	49	4628
2026-01-22 00:04:29.03	48.83	11.86	-38.8	-41.0	13.8	8.00e-06	0	56	0	416284672	49	4563
2026-01-22 00:04:30.04	48.99	11.91	-38.8	-41.0	13.8	8.00e-06	0	56	0	422576128	49	4549
2026-01-22 00:04:31.05	49.15	11.96	-38.8	-40.9	13.9	4.50e-06	0	56	0	427819008	49	4496
2026-01-22 00:04:32.06	49.31	12.02	-38.7	-40.7	14.0	4.50e-06	0	56	0	433061888	49	4439
2026-01-22 00:04:33.07	49.47	12.07	-38.7	-40.8	14.0	2.20e-06	0	56	0	439353344	49	4477
2026-01-22 00:04:34.08	49.63	12.13	-38.7	-40.8	14.0	5.70e-06	0	56	0	444596224	49	4447
2026-01-22 00:04:35.09	49.79	12.18	-38.7	-40.8	14.0	9.10e-06	0	56	0	450887680	49	4462
2026-01-22 00:04:36.10	49.95	12.23	-38.7	-40.7	14.1	5.70e-06	0	56	0	456130560	49	4424
2026-01-22 00:04:37.10	50.11	12.29	-38.7	-40.7	14.1	5.70e-06	0	56	0	461373440	49	4427
2026-01-22 00:04:38.11	50.27	12.34	-38.7	-40.8	14.1	4.50e-06	0	56	0	467664896	49	4448
2026-01-22 00:04:39.12	50.44	12.39	-38.7	-40.8	14.0	5.70e-06	0	56	0	472907776	49	4473
2026-01-22 00:04:40.13	50.60	12.45	-38.7	-40.8	14.0	1.10e-06	0	56	0	479199232	49	4461
2026-01-22 00:04:41.14	50.77	12.50	-38.6	-40.7	14.1	3.40e-06	0	56	0	484442112	49	4411
2026-01-22 00:04:42.15	50.93	12.55	-38.6	-40.7	14.2	2.20e-06	0	56	0	490733568	49	4415
2026-01-22 00:04:43.16	51.10	12.61	-38.7	-40.7	14.1	6.80e-06	0	56	0	495976448	49	4430
2026-01-22 00:04:44.17	51.26	12.66	-38.6	-40.6	14.2	1.10e-06	0	56	0	501219328	49	4380
2026-01-22 00:04:45.18	51.43	12.71	-38.7	-40.7	14.1	4.50e-06	0	56	0	507510784	49	4428
2026-01-22 00:04:46.19	51.60	12.77	-38.8	-40.8	14.0	2.20e-06	0	56	0	512753664	49	4489
2026-01-22 00:04:47.20	51.76	12.82	-38.7	-40.7	14.1	4.50e-06	0	56	0	519045120	49	4425
2026-01-22 00:04:48.21	51.93	12.87	-38.6	-40.6	14.2	1.10e-06	0	56	0	524288000	49	4379
2026-01-22 00:04:49.22	52.10	12.92	-38.6	-40.6	14.3	2.20e-06	0	56	0	529530880	49	4362
2026-01-22 00:04:50.23	52.27	12.98	-38.6	-40.6	14.3	3.40e-06	0	56	0	535822336	49	4355
2026-01-22 00:04:51.23	52.44	13.03	-38.6	-40.6	14.2	2.20e-06	0	56	0	541065216	49	4374
2026-01-22 00:04:52.24	52.61	13.08	-38.5	-40.6	14.3	1.10e-06	0	56	0	547356672	49	4341
2026-01-22 00:04:53.25	52.78	13.13	-38.6	-40.7	14.2	2.20e-06	0	57	0	552599552	49	4398
2026-01-22 00:04:54.26	52.95	13.18	-38.6	-40.6	14.3	2.20e-06	0	56	0	557842432	49	4366
2026-01-22 00:04:55.27	53.13	13.23	-38.6	-40.6	14.3	4.50e-06	0	56	0	564133888	49	4363
2026-01-22 00:04:56.28	53.30	13.29	-38.6	-40.6	14.3	3.40e-06	0	56	0	569376768	49	4358
2026-01-22 00:04:57.29	53.47	13.34	-38.6	-40.6	14.2	2.20e-06	0	57	0	575668224	49	4391
2026-01-22 00:04:58.30	53.65	13.39	-38.5	-40.5	14.4	0.00e+00	0	56	0	580911104	49	4309
2026-01-22 00:04:59.31	53.82	13.44	-38.5	-40.5	14.3	4.50e-06	0	56	0	587202560	48	4598
2026-01-22 00:05:00.32	54.00	13.49	-38.5	-40.5	14.4	0.00e+00	0	56	0	592445440	48	4550
2026-01-22 00:05:01.33	54.18	13.54	-38.5	-40.5	14.4	1.10e-06	0	57	0	598736896	48	4588
2026-01-22 00:05:02.34	54.35	13.59	-38.5	-40.5	14.4	1.10e-06	0	56	0	603979776	48	4590
2026-01-22 00:05:03.35	54.53	13.64	-38.4	-40.5	14.2	0.00e+00	0	57	0	609222656	48	4593
2026-01-22 00:05:04.36	54.71	13.69	-38.4	-40.5	14.3	2.20e-06	0	57	0	615514112	48	4560
2026-01-22 00:05:05.37	54.89	13.74	-38.2	-40.3	14.5	1.10e-06	0	57	0	620756992	48	4447
2026-01-22 00:05:06.38	55.07	13.79	-38.3	-40.4	14.4	2.20e-06	0	57	0	627048448	48	4504
2026-01-22 00:05:07.38	55.24	13.84	-38.3	-40.3	14.4	0.00e+00	0	57	0	632291328	48	4479
2026-01-22 00:05:08.39	55.42	13.89	-38.1	-40.1	14.7	0.00e+00	0	56	0	637534208	48	4371
2026-01-22 00:05:09.40	55.60	13.94	-38.1	-40.2	14.6	2.20e-06	0	57	0	643825664	48	4394
2026-01-22 00:05:10.41	55.79	13.99	-38.1	-40.1	14.7	0.00e+00	0	56	0	649068544	48	4344
2026-01-22 00:05:11.42	55.97	14.04	-38.0	-39.9	14.9	0.00e+00	0	57	0	654311424	48	4270
2026-01-22 00:05:12.43	56.15	14.09	-37.9	-39.8	14.8	0.00e+00	0	57	0	660602880	47	4493
2026-01-22 00:05:13.44	56.33	14.14	-38.0	-40.0	14.7	1.10e-06	0	57	0	665845760	47	4547
2026-01-22 00:05:14.45	56.52	14.19	-38.0	-40.0	14.7	0.00e+00	0	57	0	672137216	47	4553
2026-01-22 00:05:15.46	56.70	14.24	-38.0	-40.0	14.7	0.00e+00	0	56	0	677380096	47	4563
2026-01-22 00:05:16.47	56.89	14.29	-38.1	-40.1	14.6	1.10e-06	0	57	0	683671552	47	4618
2026-01-22 00:05:17.48	57.07	14.34	-38.0	-40.1	14.6	0.00e+00	0	57	0	688914432	47	4608
2026-01-22 00:05:18.49	57.26	14.38	-38.1	-40.1	14.5	2.20e-06	0	56	0	695205888	47	4628
2026-01-22 00:05:19.50	57.45	14.43	-38.1	-40.1	14.5	1.10e-06	0	57	0	700448768	47	4646
2026-01-22 00:05:20.51	57.63	14.48	-38.0	-40.1	14.6	1.10e-06	0	57	0	705691648	47	4609
2026-01-22 00:05:21.52	57.82	14.53	-38.0	-40.1	14.6	1.10e-06	0	57	0	711983104	47	4605
2026-01-22 00:05:22.53	58.01	14.58	-38.0	-40.0	14.6	1.10e-06	0	57	0	717225984	47	4568
2026-01-22 00:05:23.54	58.20	14.62	-37.9	-39.9	14.7	0.00e+00	0	57	0	723517440	47	4512
2026-01-22 00:05:24.54	58.39	14.67	-38.0	-40.0	14.6	2.20e-06	0	57	0	728760320	47	4562
2026-01-22 00:05:25.55	58.58	14.72	-38.0	-40.0	14.6	0.00e+00	0	57	0	734003200	47	4581
2026-01-22 00:05:26.56	58.77	14.76	-37.9	-39.9	14.7	0.00e+00	0	57	0	740294656	47	4513
2026-01-22 00:05:27.57	58.96	14.81	-37.9	-40.0	14.7	0.00e+00	0	57	0	745537536	47	4549
2026-01-22 00:05:28.58	59.15	14.86	-37.9	-39.9	14.7	1.10e-06	0	57	0	751828992	47	4533
2026-01-22 00:05:29.59	59.34	14.90	-38.0	-40.0	14.6	1.10e-06	0	57	0	757071872	47	4591
2026-01-22 00:05:30.60	59.54	14.95	-38.0	-40.1	14.5	0.00e+00	0	57	0	762314752	47	4613
2026-01-22 00:05:31.61	59.73	14.99	-38.1	-40.2	14.4	2.20e-06	0	57	0	768606208	47	4690
2026-01-22 00:05:32.62	59.93	15.04	-38.1	-40.2	14.4	0.00e+00	0	57	0	773849088	47	4694
2026-01-22 00:05:33.63	60.12	15.08	-38.1	-40.2	14.3	2.20e-06	0	57	0	780140544	47	4699
2026-01-22 00:05:34.64	60.32	15.13	-38.0	-40.1	14.5	0.00e+00	0	57	0	785383424	47	4639
2026-01-22 00:05:35.65	60.51	15.17	-38.1	-40.2	14.4	0.00e+00	0	57	0	791674880	47	4665
2026-01-22 00:05:36.66	60.71	15.22	-37.9	-39.9	14.6	0.00e+00	0	57	0	796917760	47	4539
2026-01-22 00:05:37.66	60.91	15.26	-37.8	-39.8	14.8	0.00e+00	0	57	0	802160640	47	4450
2026-01-22 00:05:38.67	61.10	15.31	-37.8	-39.8	14.8	0.00e+00	0	57	0	808452096	47	4473
2026-01-22 00:05:39.68	61.30	15.35	-37.9	-39.9	14.7	1.10e-06	0	57	0	813694976	47	4509
2026-01-22 00:05:40.69	61.50	15.39	-37.9	-39.9	14.6	0.00e+00	0	57	0	819986432	47	4513
2026-01-22 00:05:41.70	61.70	15.44	-37.8	-39.8	14.7	0.00e+00	0	57	0	825229312	47	4477
2026-01-22 00:05:42.71	61.90	15.48	-37.8	-39.8	14.8	0.00e+00	0	57	0	830472192	47	4471
2026-01-22 00:05:43.72	62.10	15.52	-37.8	-39.9	14.7	0.00e+00	0	57	0	836763648	47	4504
2026-01-22 00:05:44.73	62.30	15.57	-37.8	-39.8	14.7	0.00e+00	0	57	0	842006528	47	4482
2026-01-22 00:05:45.73	62.50	15.61	-37.8	-39.9	14.7	0.00e+00	0	57	0	848297984	47	4497
2026-01-22 00:05:46.74	62.71	15.65	-37.8	-39.8	14.7	0.00e+00	0	57	0	853540864	47	4466
2026-01-22 00:05:47.75	62.91	15.69	-37.8	-39.8	14.7	0.00e+00	0	57	0	858783744	47	4452
2026-01-22 00:05:48.76	63.11	15.73	-37.6	-39.5	14.9	0.00e+00	0	57	0	865075200	47	4338
2026-01-22 00:05:49.77	63.32	15.77	-37.6	-39.6	14.9	0.00e+00	0	57	0	870318080	47	4343
2026-01-22 00:05:50.78	63.52	15.82	-37.5	-39.5	15.0	1.10e-06	0	57	0	876609536	47	4303
2026-01-22 00:05:51.79	63.73	15.86	-37.5	-39.5	15.0	0.00e+00	0	57	0	881852416	47	4292
2026-01-22 00:05:52.80	63.93	15.90	-37.7	-39.6	14.9	0.00e+00	0	57	0	888143872	47	4385
2026-01-22 00:05:53.81	64.14	15.94	-37.7	-39.7	14.8	0.00e+00	0	57	0	893386752	47	4395
2026-01-22 00:05:54.81	64.34	15.98	-37.7	-39.7	14.7	0.00e+00	0	57	0	898629632	47	4431
2026-01-22 00:05:55.82	64.55	16.02	-37.7	-39.7	14.7	0.00e+00	0	57	0	904921088	47	4423
2026-01-22 00:05:56.83	64.76	16.05	-37.7	-39.7	14.8	0.00e+00	0	57	0	910163968	47	4401
2026-01-22 00:05:57.84	64.97	16.09	-37.6	-39.6	14.8	0.00e+00	0	57	0	916455424	47	4389
2026-01-22 00:05:58.85	65.18	16.13	-37.6	-39.6	14.8	0.00e+00	0	57	0	921698304	47	4356
2026-01-22 00:05:59.86	65.39	16.17	-37.7	-39.8	14.6	1.10e-06	0	57	0	926941184	47	4459
2026-01-22 00:06:00.87	65.60	16.21	-37.8	-39.9	14.5	0.00e+00	0	57	0	933232640	47	4503
2026-01-22 00:06:01.88	65.81	16.25	-37.7	-39.8	14.5	1.10e-06	0	57	0	938475520	47	4443
2026-01-22 00:06:02.89	66.02	16.28	-37.9	-40.0	14.2	2.20e-06	0	57	0	944766976	47	4586
2026-01-22 00:06:03.90	66.23	16.32	-37.8	-39.9	14.3	2.20e-06	0	57	0	950009856	47	4496
2026-01-22 00:06:04.91	66.44	16.36	-37.8	-39.9	14.3	1.10e-06	0	57	0	955252736	47	4514
2026-01-22 00:06:05.92	66.65	16.40	-37.7	-39.8	14.3	4.50e-06	0	57	0	961544192	47	4488
2026-01-22 00:06:06.93	66.87	16.43	-37.7	-39.9	14.2	3.40e-06	0	57	0	966787072	47	4507
2026-01-22 00:06:07.94	67.08	16.47	-37.7	-39.9	14.1	0.00e+00	0	57	0	973078528	47	4510
2026-01-22 00:06:08.95	67.29	16.50	-37.9	-40.1	13.8	3.40e-06	0	57	0	978321408	47	4633
2026-01-22 00:06:09.96	67.51	16.54	-38.0	-40.3	13.5	6.80e-06	0	57	0	984612864	47	4724
2026-01-22 00:06:10.96	67.72	16.57	-38.1	-40.5	13.3	2.63e-05	0	57	0	989855744	47	4830
2026-01-22 00:06:11.98	67.94	16.61	-38.2	-40.6	13.1	3.66e-05	0	57	0	996147200	47	4893
2026-01-22 00:06:12.98	68.15	16.64	-38.2	-40.7	13.0	5.72e-05	0	57	0	1001390080	47	4935
2026-01-22 00:06:13.99	68.37	16.68	-38.2	-40.7	12.9	8.12e-05	0	57	0	1006632960	47	4972
2026-01-22 00:06:15.00	68.59	16.71	-38.3	-40.8	12.7	1.20e-04	0	57	0	1012924416	47	5028
2026-01-22 00:06:16.01	68.81	16.74	-38.3	-40.8	12.6	1.52e-04	0	57	0	1018167296	47	5032
2026-01-22 00:06:17.02	69.02	16.78	-38.2	-40.7	12.6	1.29e-04	0	57	0	1023410176	47	4978
2026-01-22 00:06:18.03	69.24	16.81	-38.3	-40.9	12.4	1.88e-04	0	57	0	1029701632	47	5069
2026-01-22 00:06:19.04	69.46	16.84	-38.3	-41.0	12.2	3.07e-04	0	57	0	1034944512	47	5137
2026-01-22 00:06:20.05	69.68	16.87	-38.4	-41.2	11.9	5.45e-04	0	57	0	1041235968	47	5267
2026-01-22 00:06:21.06	69.90	16.90	-38.5	-41.4	11.6	8.16e-04	0	57	0	1046478848	47	5363
2026-01-22 00:06:22.07	70.12	16.93	-38.6	-41.7	11.3	1.35e-03	0	57	0	1051721728	47	5532
2026-01-22 00:06:23.08	70.34	16.97	-38.6	-41.7	11.1	1.83e-03	0	57	0	1058013184	47	5538
2026-01-22 00:06:24.09	70.56	17.00	-38.7	-41.9	10.8	3.02e-03	0	57	0	1063256064	47	5679
2026-01-22 00:06:25.10	70.79	17.03	-38.9	-42.1	10.5	4.31e-03	0	57	0	1069547520	48	5511
2026-01-22 00:06:26.10	71.00	17.06	-38.9	-42.3	10.2	6.80e-03	0	57	0	1074790400	48	5638
2026-01-22 00:06:27.11	71.23	17.08	-39.0	-42.5	10.0	9.50e-03	0	57	0	1081081856	48	5748
2026-01-22 00:06:28.12	71.45	17.11	-39.0	-42.6	9.8	1.28e-02	0	57	0	1086324736	48	5812
2026-01-22 00:06:29.13	71.67	17.14	-39.2	-42.9	9.5	1.72e-02	0	57	0	1092616192	48	6037
2026-01-22 00:06:30.14	71.90	17.17	-39.2	-43.0	9.3	2.17e-02	0	57	0	1097859072	48	6088
2026-01-22 00:06:31.15	72.12	17.20	-39.1	-42.8	9.5	1.80e-02	0	57	0	1103101952	48	5950
2026-01-22 00:06:32.16	72.35	17.23	-39.1	-42.9	9.3	1.99e-02	0	57	0	1109393408	48	6032
2026-01-22 00:06:33.17	72.57	17.25	-39.2	-43.0	9.3	2.37e-02	0	57	0	1114636288	48	6081
2026-01-22 00:06:34.18	72.80	17.28	-39.2	-43.0	9.2	2.49e-02	0	57	0	1120927744	48	6119
2026-01-22 00:06:35.19	73.02	17.31	-39.2	-43.0	9.1	2.55e-02	0	57	0	1126170624	48	6117
2026-01-22 00:06:36.20	73.25	17.33	-39.3	-43.2	8.9	2.95e-02	0	57	0	1131413504	49	5914
2026-01-22 00:06:37.21	73.48	17.36	-39.4	-43.4	8.8	4.01e-02	0	57	0	1137704960	49	6003
2026-01-22 00:06:38.22	73.70	17.38	-39.4	-43.4	8.8	3.85e-02	0	57	0	1142947840	49	6023
2026-01-22 00:06:39.22	73.93	17.41	-39.4	-43.4	8.9	3.68e-02	0	57	0	1149239296	49	6013
2026-01-22 00:06:40.23	74.16	17.43	-39.4	-43.2	9.1	3.15e-02	0	57	0	1154482176	49	5914
2026-01-22 00:06:41.24	74.38	17.45	-39.3	-43.1	9.3	2.53e-02	0	57	0	1159725056	49	5819
2026-01-22 00:06:42.25	74.61	17.48	-39.3	-42.9	9.5	1.90e-02	0	57	0	1166016512	49	5704
2026-01-22 00:06:43.26	74.84	17.50	-39.2	-42.8	9.6	1.60e-02	0	57	0	1171259392	49	5623
2026-01-22 00:06:44.27	75.07	17.52	-39.1	-42.6	9.9	1.40e-02	0	57	0	1177550848	49	5484
2026-01-22 00:06:45.28	75.30	17.54	-38.9	-42.2	10.2	8.52e-03	0	57	0	1182793728	49	5266
2026-01-22 00:06:46.29	75.53	17.57	-38.8	-42.1	10.4	6.59e-03	0	57	0	1189085184	49	5168
2026-01-22 00:06:47.30	75.76	17.59	-38.7	-42.0	10.5	5.63e-03	0	57	0	1194328064	49	5116
2026-01-22 00:06:48.31	75.99	17.61	-38.6	-41.7	10.8	3.60e-03	0	58	0	1199570944	49	4957
2026-01-22 00:06:49.32	76.22	17.63	-38.5	-41.5	11.1	2.63e-03	0	57	0	1205862400	48	5137
2026-01-22 00:06:50.33	76.45	17.65	-38.4	-41.3	11.2	1.86e-03	0	57	0	1211105280	48	5040
2026-01-22 00:06:51.34	76.68	17.67	-38.5	-41.5	11.0	2.12e-03	0	58	0	1217396736	48	5138
2026-01-22 00:06:52.35	76.91	17.69	-38.7	-41.8	10.8	3.30e-03	0	58	0	1222639616	48	5314
2026-01-22 00:06:53.36	77.15	17.71	-38.8	-41.9	10.7	4.25e-03	0	58	0	1227882496	48	5381
2026-01-22 00:06:54.36	77.38	17.72	-38.8	-41.9	10.7	3.77e-03	0	57	0	1234173952	48	5389
2026-01-22 00:06:55.37	77.61	17.74	-38.8	-41.9	10.8	3.75e-03	0	57	0	1239416832	48	5376
2026-01-22 00:06:56.38	77.84	17.76	-38.7	-41.8	10.9	3.00e-03	0	58	0	1245708288	48	5309
2026-01-22 00:06:57.39	78.07	17.78	-38.6	-41.7	11.0	2.93e-03	0	57	0	1250951168	48	5226
2026-01-22 00:06:58.40	78.31	17.79	-38.5	-41.5	11.2	2.19e-03	0	57	0	1256194048	48	5127
2026-01-22 00:06:59.41	78.54	17.81	-38.5	-41.5	11.2	1.98e-03	0	58	0	1262485504	48	5155
2026-01-22 00:07:00.42	78.78	17.82	-38.7	-41.7	10.9	2.47e-03	0	58	0	1267728384	48	5266
2026-01-22 00:07:01.43	79.01	17.84	-38.8	-42.0	10.7	3.94e-03	0	57	0	1274019840	48	5443
2026-01-22 00:07:02.44	79.24	17.85	-38.9	-42.1	10.6	4.58e-03	0	57	0	1279262720	48	5493
2026-01-22 00:07:03.45	79.48	17.87	-38.8	-42.1	10.5	4.69e-03	0	58	0	1285554176	48	5488
2026-01-22 00:07:04.46	79.71	17.88	-38.8	-42.0	10.6	4.31e-03	0	57	0	1290797056	48	5445
2026-01-22 00:07:05.47	79.95	17.90	-38.8	-42.1	10.6	4.50e-03	0	57	0	1296039936	48	5469
2026-01-22 00:07:06.48	80.18	17.91	-38.6	-41.7	11.0	3.36e-03	0	57	0	1302331392	48	5255
2026-01-22 00:07:07.49	80.42	17.92	-38.4	-41.2	11.7	1.13e-03	0	57	0	1307574272	48	4967
2026-01-22 00:07:08.50	80.65	17.93	-38.2	-40.8	12.3	4.31e-04	0	58	0	1313865728	48	4744
2026-01-22 00:07:09.51	80.89	17.94	-38.0	-40.5	12.8	1.12e-04	0	57	0	1319108608	48	4567
2026-01-22 00:07:10.52	81.12	17.95	-37.9	-40.2	13.1	5.14e-05	0	57	0	1324351488	47	4696
2026-01-22 00:07:11.53	81.36	17.97	-38.0	-40.4	13.0	6.29e-05	0	58	0	1330642944	47	4778
2026-01-22 00:07:12.54	81.60	17.98	-38.0	-40.4	13.0	5.95e-05	0	58	0	1335885824	47	4806
2026-01-22 00:07:13.55	81.83	17.99	-38.0	-40.5	12.9	6.86e-05	0	57	0	1342177280	47	4824
2026-01-22 00:07:14.56	82.07	17.99	-37.9	-40.3	13.1	5.03e-05	0	58	0	1347420160	47	4735
2026-01-22 00:07:15.56	82.30	18.00	-38.0	-40.4	13.0	5.37e-05	0	58	0	1352663040	47	4774
2026-01-22 00:07:16.57	82.54	18.01	-37.8	-40.1	13.4	3.66e-05	0	58	0	1358954496	47	4613
2026-01-22 00:07:17.58	82.78	18.02	-37.8	-40.0	13.5	1.25e-05	0	58	0	1364197376	47	4587
2026-01-22 00:07:18.59	83.01	18.03	-37.9	-40.3	13.3	2.05e-05	0	58	0	1370488832	47	4707
2026-01-22 00:07:19.60	83.25	18.03	-38.1	-40.5	13.1	3.66e-05	0	58	0	1375731712	47	4849
2026-01-22 00:07:20.61	83.49	18.04	-38.2	-40.6	13.0	5.03e-05	0	58	0	1382023168	47	4917
2026-01-22 00:07:21.62	83.73	18.05	-38.1	-40.5	13.1	5.83e-05	0	57	0	1387266048	47	4837
2026-01-22 00:07:22.63	83.96	18.05	-38.0	-40.5	13.0	6.75e-05	0	57	0	1393557504	47	4822
2026-01-22 00:07:23.64	84.20	18.06	-38.0	-40.5	13.0	6.40e-05	0	57	0	1398800384	47	4818
2026-01-22 00:07:24.65	84.44	18.06	-37.9	-40.4	13.0	6.75e-05	0	58	0	1404043264	47	4779
2026-01-22 00:07:25.66	84.68	18.06	-38.0	-40.5	12.7	7.43e-05	0	58	0	1410334720	47	4861
2026-01-22 00:07:26.67	84.91	18.07	-38.0	-40.6	12.6	1.48e-04	0	58	0	1415577600	47	4918
2026-01-22 00:07:27.68	85.15	18.07	-38.2	-40.8	12.3	1.92e-04	0	58	0	1421869056	47	5033
2026-01-22 00:07:28.68	85.39	18.07	-38.2	-40.9	12.3	2.56e-04	0	57	0	1427111936	47	5063
2026-01-22 00:07:29.70	85.63	18.08	-38.4	-41.0	12.2	2.72e-04	0	58	0	1432354816	47	5156
2026-01-22 00:07:30.71	85.87	18.08	-38.5	-41.2	12.1	4.20e-04	0	58	0	1438646272	47	5259
2026-01-22 00:07:31.72	86.10	18.08	-38.3	-41.0	12.4	2.84e-04	0	57	0	1443889152	47	5101
2026-01-22 00:07:32.73	86.34	18.08	-38.3	-40.8	12.5	2.14e-04	0	58	0	1450180608	47	5041
2026-01-22 00:07:33.74	86.58	18.08	-38.3	-40.9	12.4	1.81e-04	0	57	0	1455423488	47	5086
2026-01-22 00:07:34.75	86.82	18.08	-38.4	-41.1	12.2	2.63e-04	0	58	0	1460666368	47	5164
2026-01-22 00:07:35.76	87.06	18.08	-38.4	-41.1	12.2	3.60e-04	0	58	0	1466957824	47	5185
2026-01-22 00:07:36.77	87.29	18.08	-38.5	-41.2	12.2	3.81e-04	0	58	0	1472200704	47	5226
2026-01-22 00:07:37.78	87.53	18.07	-38.4	-41.1	12.3	2.95e-04	0	58	0	1478492160	47	5195
2026-01-22 00:07:38.79	87.77	18.07	-38.3	-40.8	12.7	1.58e-04	0	58	0	1483735040	47	5038
2026-01-22 00:07:39.80	88.01	18.07	-38.1	-40.6	13.1	6.17e-05	0	58	0	1490026496	47	4883
2026-01-22 00:07:40.81	88.25	18.07	-38.1	-40.4	13.3	4.80e-05	0	58	0	1495269376	47	4811
2026-01-22 00:07:41.82	88.48	18.06	-37.8	-40.0	13.8	3.40e-06	0	58	0	1500512256	47	4570
2026-01-22 00:07:42.83	88.72	18.06	-37.7	-39.8	14.0	5.70e-06	0	58	0	1506803712	47	4488
2026-01-22 00:07:43.84	88.96	18.05	-37.5	-39.6	14.2	2.20e-06	0	58	0	1512046592	47	4366
2026-01-22 00:07:44.85	89.20	18.05	-37.4	-39.5	14.3	2.20e-06	0	58	0	1518338048	46	4562
2026-01-22 00:07:45.86	89.43	18.04	-37.4	-39.5	14.3	1.10e-06	0	58	0	1523580928	46	4569
2026-01-22 00:07:46.87	89.67	18.04	-37.3	-39.4	14.4	1.10e-06	0	57	0	1528823808	46	4533
2026-01-22 00:07:47.88	89.91	18.03	-37.4	-39.5	14.5	1.10e-06	0	57	0	1535115264	46	4575
2026-01-22 00:07:48.89	90.15	18.02	-37.4	-39.5	14.5	0.00e+00	0	57	0	1540358144	46	4569
2026-01-22 00:07:49.90	90.38	18.02	-37.5	-39.6	14.5	1.10e-06	0	57	0	1546649600	46	4608
2026-01-22 00:07:50.91	90.62	18.01	-37.5	-39.5	14.7	0.00e+00	0	58	0	1551892480	46	4568
2026-01-22 00:07:51.92	90.86	18.00	-37.5	-39.5	14.7	1.10e-06	0	58	0	1557135360	46	4567
2026-01-22 00:07:52.93	91.09	17.99	-37.5	-39.6	14.7	1.10e-06	0	58	0	1563426816	46	4599
2026-01-22 00:07:53.94	91.33	17.98	-37.5	-39.5	14.8	0.00e+00	0	58	0	1568669696	46	4556
2026-01-22 00:07:54.95	91.57	17.97	-37.4	-39.4	14.9	0.00e+00	0	58	0	1574961152	46	4545
2026-01-22 00:07:55.96	91.80	17.96	-37.4	-39.4	15.0	0.00e+00	0	58	0	1580204032	46	4498
2026-01-22 00:07:56.97	92.04	17.95	-37.4	-39.3	15.1	0.00e+00	0	58	0	1586495488	46	4475
2026-01-22 00:07:57.98	92.28	17.94	-37.4	-39.3	15.2	1.10e-06	0	58	0	1591738368	46	4460
2026-01-22 00:07:58.99	92.51	17.93	-37.4	-39.4	15.1	0.00e+00	0	58	0	1598029824	46	4498
2026-01-22 00:08:00.00	92.75	17.92	-37.5	-39.4	15.2	0.00e+00	0	58	0	1603272704	46	4534
2026-01-22 00:08:01.01	92.98	17.90	-37.4	-39.3	15.3	0.00e+00	0	58	0	1608515584	46	4492
2026-01-22 00:08:02.02	93.22	17.89	-37.5	-39.5	15.2	0.00e+00	0	58	0	1614807040	46	4553
2026-01-22 00:08:03.03	93.45	17.88	-37.6	-39.6	15.1	0.00e+00	0	58	0	1620049920	46	4600
2026-01-22 00:08:04.04	93.69	17.86	-37.6	-39.6	15.1	0.00e+00	0	58	0	1626341376	46	4632
2026-01-22 00:08:05.05	93.92	17.85	-37.7	-39.8	14.9	0.00e+00	0	58	0	1631584256	46	4714
2026-01-22 00:08:06.06	94.16	17.83	-37.7	-39.7	15.0	0.00e+00	0	58	0	1636827136	46	4701
2026-01-22 00:08:07.07	94.39	17.82	-37.7	-39.6	15.1	0.00e+00	0	58	0	1643118592	46	4645
2026-01-22 00:08:08.08	94.63	17.80	-37.5	-39.4	15.3	0.00e+00	0	58	0	1648361472	46	4522
2026-01-22 00:08:09.09	94.86	17.79	-37.4	-39.3	15.4	0.00e+00	0	58	0	1654652928	46	4480
2026-01-22 00:08:10.10	95.09	17.77	-37.5	-39.4	15.4	0.00e+00	0	57	0	1659895808	46	4502
2026-01-22 00:08:11.11	95.33	17.75	-37.4	-39.3	15.5	0.00e+00	0	58	0	1665138688	46	4445
2026-01-22 00:08:12.12	95.56	17.73	-37.4	-39.3	15.5	0.00e+00	0	58	0	1671430144	46	4444
2026-01-22 00:08:13.13	95.79	17.72	-37.4	-39.3	15.4	0.00e+00	0	58	0	1676673024	46	4485
2026-01-22 00:08:14.14	96.02	17.70	-37.4	-39.3	15.4	0.00e+00	0	58	0	1682964480	46	4480
2026-01-22 00:08:15.15	96.26	17.68	-37.4	-39.3	15.4	0.00e+00	0	58	0	1688207360	46	4468
2026-01-22 00:08:16.16	96.49	17.66	-37.5	-39.4	15.4	0.00e+00	0	58	0	1694498816	46	4512
2026-01-22 00:08:17.17	96.72	17.64	-37.5	-39.4	15.4	0.00e+00	0	58	0	1699741696	46	4497
2026-01-22 00:08:18.18	96.95	17.62	-37.4	-39.3	15.5	0.00e+00	0	58	0	1706033152	46	4444
2026-01-22 00:08:19.19	97.18	17.60	-37.4	-39.3	15.4	0.00e+00	0	58	0	1711276032	46	4472
2026-01-22 00:08:20.20	97.41	17.58	-37.5	-39.4	15.3	0.00e+00	0	58	0	1716518912	46	4545
2026-01-22 00:08:21.21	97.64	17.56	-37.6	-39.5	15.2	0.00e+00	0	58	0	1722810368	46	4571
2026-01-22 00:08:22.22	97.87	17.53	-37.6	-39.6	15.1	0.00e+00	0	58	0	1728053248	46	4618
2026-01-22 00:08:23.23	98.10	17.51	-37.6	-39.6	15.1	1.10e-06	0	58	0	1734344704	46	4624
2026-01-22 00:08:24.25	98.34	17.49	-37.7	-39.6	15.1	0.00e+00	0	58	0	1739587584	46	4645
2026-01-22 00:08:25.25	98.56	17.47	-37.7	-39.6	15.1	0.00e+00	0	58	0	1744830464	46	4641
2026-01-22 00:08:26.26	98.79	17.44	-37.7	-39.6	15.1	0.00e+00	0	58	0	1751121920	46	4645
2026-01-22 00:08:27.27	99.02	17.42	-37.6	-39.6	15.2	0.00e+00	0	58	0	1756364800	46	4604
2026-01-22 00:08:28.28	99.25	17.39	-37.5	-39.4	15.3	0.00e+00	0	58	0	1762656256	46	4539
2026-01-22 00:08:29.29	99.48	17.37	-37.5	-39.4	15.3	0.00e+00	0	58	0	1767899136	46	4522
2026-01-22 00:08:30.31	99.71	17.34	-37.5	-39.4	15.3	0.00e+00	0	58	0	1773142016	46	4523
2026-01-22 00:08:31.32	99.93	17.32	-37.6	-39.5	15.2	0.00e+00	0	58	0	1779433472	46	4578
2026-01-22 00:08:32.33	100.16	17.29	-37.6	-39.5	15.3	0.00e+00	0	58	0	1784676352	46	4573
2026-01-22 00:08:33.34	100.39	17.26	-37.5	-39.4	15.4	0.00e+00	0	58	0	1790967808	46	4509
2026-01-22 00:08:34.35	100.61	17.24	-37.5	-39.5	15.3	1.10e-06	0	58	0	1796210688	46	4562
2026-01-22 00:08:35.36	100.84	17.21	-37.7	-39.6	15.2	0.00e+00	0	58	0	1802502144	46	4621
2026-01-22 00:08:36.37	101.06	17.18	-37.6	-39.6	15.2	0.00e+00	0	58	0	1807745024	46	4622
2026-01-22 00:08:37.38	101.29	17.16	-37.7	-39.6	15.1	0.00e+00	0	58	0	1814036480	46	4640
2026-01-22 00:08:38.39	101.51	17.13	-37.7	-39.7	15.1	0.00e+00	0	58	0	1819279360	46	4676
2026-01-22 00:08:39.40	101.73	17.10	-37.7	-39.7	15.1	0.00e+00	0	58	0	1824522240	46	4677
2026-01-22 00:08:40.41	101.96	17.07	-37.8	-39.8	15.0	0.00e+00	0	58	0	1830813696	46	4711
2026-01-22 00:08:41.42	102.18	17.04	-37.8	-39.7	15.1	0.00e+00	0	58	0	1836056576	46	4685
2026-01-22 00:08:42.43	102.40	17.01	-37.6	-39.5	15.2	0.00e+00	0	58	0	1842348032	46	4598
2026-01-22 00:08:43.44	102.63	16.98	-37.6	-39.5	15.2	0.00e+00	0	58	0	1847590912	46	4587
2026-01-22 00:08:44.45	102.85	16.95	-37.6	-39.5	15.2	0.00e+00	0	58	0	1852833792	46	4576
2026-01-22 00:08:45.46	103.07	16.92	-37.7	-39.6	15.2	1.10e-06	0	58	0	1859125248	46	4633
2026-01-22 00:08:46.47	103.29	16.89	-37.7	-39.7	15.1	0.00e+00	0	58	0	1864368128	46	4652
2026-01-22 00:08:47.48	103.51	16.85	-37.7	-39.7	15.1	0.00e+00	0	58	0	1870659584	46	4652
2026-01-22 00:08:48.50	103.73	16.82	-37.8	-39.7	15.0	0.00e+00	0	58	0	1875902464	46	4698
2026-01-22 00:08:49.51	103.95	16.79	-37.7	-39.7	15.1	0.00e+00	0	58	0	1881145344	46	4676
2026-01-22 00:08:50.52	104.17	16.76	-37.7	-39.7	15.1	0.00e+00	0	58	0	1887436800	46	4674
2026-01-22 00:08:51.53	104.39	16.72	-37.8	-39.7	15.0	0.00e+00	0	58	0	1892679680	46	4694
2026-01-22 00:08:52.54	104.61	16.69	-37.8	-39.7	15.0	0.00e+00	0	58	0	1898971136	46	4699
2026-01-22 00:08:53.55	104.83	16.65	-37.8	-39.8	15.0	0.00e+00	0	58	0	1904214016	46	4709
2026-01-22 00:08:54.56	105.04	16.62	-37.8	-39.8	14.9	1.10e-06	0	58	0	1910505472	46	4759
2026-01-22 00:08:55.57	105.26	16.59	-37.9	-40.0	14.8	0.00e+00	0	58	0	1915748352	46	4825
2026-01-22 00:08:56.58	105.48	16.55	-38.0	-40.0	14.7	1.10e-06	0	58	0	1922039808	46	4858
2026-01-22 00:08:57.59	105.69	16.52	-38.0	-40.1	14.7	1.10e-06	0	58	0	1927282688	46	4886
2026-01-22 00:08:58.60	105.91	16.48	-38.0	-40.1	14.6	0.00e+00	0	58	0	1932525568	46	4915
2026-01-22 00:08:59.61	106.12	16.44	-38.0	-40.1	14.7	0.00e+00	0	58	0	1938817024	46	4872
2026-01-22 00:09:00.62	106.34	16.41	-37.9	-39.9	14.8	0.00e+00	0	58	0	1944059904	46	4811
2026-01-22 00:09:01.63	106.55	16.37	-37.9	-39.9	14.8	0.00e+00	0	58	0	1950351360	46	4810
2026-01-22 00:09:02.64	106.76	16.33	-37.9	-39.9	14.8	1.10e-06	0	58	0	1955594240	46	4800
2026-01-22 00:09:03.65	106.97	16.30	-37.9	-39.9	14.8	0.00e+00	0	58	0	1960837120	46	4811
2026-01-22 00:09:04.66	107.19	16.26	-37.9	-40.0	14.8	0.00e+00	0	58	0	1967128576	46	4828
2026-01-22 00:09:05.67	107.40	16.22	-38.0	-40.1	14.7	0.00e+00	0	58	0	1972371456	46	4878
2026-01-22 00:09:06.68	107.61	16.18	-38.0	-40.1	14.7	0.00e+00	0	58	0	1978662912	46	4873
2026-01-22 00:09:07.69	107.82	16.14	-38.0	-40.1	14.7	1.10e-06	0	58	0	1983905792	46	4895
2026-01-22 00:09:08.70	108.03	16.11	-38.0	-40.1	14.7	1.10e-06	0	58	0	1989148672	46	4884
2026-01-22 00:09:09.71	108.24	16.07	-38.0	-40.0	14.7	0.00e+00	0	58	0	1995440128	46	4846
2026-01-22 00:09:10.72	108.45	16.03	-37.9	-39.9	14.8	1.10e-06	0	58	0	2000683008	46	4796
2026-01-22 00:09:11.73	108.66	15.99	-37.9	-39.9	14.8	0.00e+00	0	58	0	2006974464	46	4810
2026-01-22 00:09:12.74	108.87	15.95	-37.9	-39.9	14.8	0.00e+00	0	58	0	2012217344	46	4796
2026-01-22 00:09:13.75	109.07	15.91	-38.0	-40.0	14.7	2.20e-06	0	58	0	2018508800	46	4848
2026-01-22 00:09:14.76	109.28	15.87	-38.0	-40.0	14.7	1.10e-06	0	58	0	2023751680	46	4868
2026-01-22 00:09:15.77	109.49	15.83	-37.9	-40.0	14.8	1.10e-06	0	58	0	2030043136	46	4845
2026-01-22 00:09:16.78	109.69	15.78	-38.0	-40.0	14.7	0.00e+00	0	58	0	2035286016	46	4864
2026-01-22 00:09:17.79	109.90	15.74	-38.0	-40.1	14.7	0.00e+00	0	58	0	2040528896	46	4887
2026-01-22 00:09:18.80	110.10	15.70	-37.9	-40.0	14.8	0.00e+00	0	58	0	2046820352	46	4827
2026-01-22 00:09:19.81	110.31	15.66	-37.9	-39.9	14.8	0.00e+00	0	58	0	2052063232	46	4805
2026-01-22 00:09:20.82	110.51	15.62	-37.9	-39.9	14.8	0.00e+00	0	58	0	2058354688	46	4792
2026-01-22 00:09:21.84	110.71	15.57	-38.0	-40.0	14.7	0.00e+00	0	58	0	2063597568	46	4869
2026-01-22 00:09:22.85	110.92	15.53	-38.0	-40.0	14.7	0.00e+00	0	58	0	2068840448	46	4830
2026-01-22 00:09:23.86	111.12	15.49	-38.0	-40.0	14.8	0.00e+00	0	58	0	2075131904	46	4838
2026-01-22 00:09:24.86	111.32	15.45	-38.0	-40.0	14.7	1.10e-06	0	58	0	2080374784	46	4862
2026-01-22 00:09:25.87	111.52	15.40	-38.0	-40.1	14.7	0.00e+00	0	58	0	2085617664	46	4881
2026-01-22 00:09:26.88	111.72	15.36	-37.9	-39.9	14.8	0.00e+00	0	58	0	2091909120	46	4812
2026-01-22 00:09:27.89	111.92	15.31	-37.8	-39.8	14.9	0.00e+00	0	58	0	2097152000	46	4740
2026-01-22 00:09:28.90	112.12	15.27	-38.0	-40.0	14.7	0.00e+00	0	58	0	2103443456	46	4853
2026-01-22 00:09:29.91	112.32	15.22	-38.0	-40.1	14.6	2.20e-06	0	58	0	2108686336	46	4887
2026-01-22 00:09:30.92	112.51	15.18	-38.1	-40.2	14.5	1.10e-06	0	58	0	2114977792	46	4954
2026-01-22 00:09:31.93	112.71	15.14	-38.2	-40.3	14.4	1.10e-06	0	58	0	2120220672	46	5000
2026-01-22 00:09:32.94	112.91	15.09	-38.2	-40.4	14.3	0.00e+00	0	58	0	2126512128	46	5051
2026-01-22 00:09:33.95	113.10	15.04	-38.3	-40.5	14.2	1.10e-06	0	58	0	2131755008	47	4837
2026-01-22 00:09:34.97	113.30	15.00	-38.3	-40.5	14.2	1.10e-06	0	58	0	2136997888	47	4831
2026-01-22 00:09:35.98	113.50	14.95	-38.3	-40.4	14.3	3.40e-06	0	58	0	2143289344	47	4793
2026-01-22 00:09:36.98	113.69	14.91	-38.2	-40.4	14.3	2.20e-06	0	58	0	2148532224	47	4781
2026-01-22 00:09:37.99	113.88	14.86	-38.3	-40.5	14.2	0.00e+00	0	58	0	2154823680	47	4818
2026-01-22 00:09:39.00	114.08	14.81	-38.2	-40.4	14.3	0.00e+00	0	58	0	2160066560	47	4769
2026-01-22 00:09:40.01	114.27	14.77	-38.3	-40.5	14.2	1.10e-06	0	58	0	2165309440	47	4830
2026-01-22 00:09:41.02	114.46	14.72	-38.2	-40.4	14.3	2.20e-06	0	58	0	2171600896	47	4775
2026-01-22 00:09:42.04	114.65	14.67	-38.2	-40.4	14.2	0.00e+00	0	58	0	2176843776	47	4777
2026-01-22 00:09:43.05	114.84	14.62	-38.2	-40.3	14.4	0.00e+00	0	58	0	2183135232	47	4724
2026-01-22 00:09:44.06	115.04	14.58	-38.2	-40.3	14.3	2.20e-06	0	58	0	2188378112	47	4729
2026-01-22 00:09:45.07	115.22	14.53	-38.1	-40.2	14.5	1.10e-06	0	58	0	2193620992	47	4671
2026-01-22 00:09:46.08	115.41	14.48	-38.1	-40.1	14.5	0.00e+00	0	58	0	2199912448	47	4639
2026-01-22 00:09:47.09	115.60	14.43	-38.1	-40.2	14.4	3.40e-06	0	58	0	2205155328	47	4695
2026-01-22 00:09:48.10	115.79	14.38	-38.2	-40.3	14.3	2.20e-06	0	58	0	2211446784	47	4756
2026-01-22 00:09:49.11	115.98	14.34	-38.3	-40.4	14.2	5.70e-06	0	58	0	2216689664	47	4809
2026-01-22 00:09:50.12	116.16	14.29	-38.2	-40.4	14.3	4.50e-06	0	58	0	2222981120	47	4785
2026-01-22 00:09:51.13	116.35	14.24	-38.4	-40.6	14.0	5.26e-04	0	58	0	2228224000	47	4896
2026-01-22 00:09:52.14	116.54	14.19	-38.4	-40.6	14.0	1.48e-05	0	58	0	2234515456	47	4890
2026-01-22 00:09:53.15	116.72	14.14	-38.0	-40.6	12.9	1.13e-02	0	58	0	2239758336	47	4903
2026-01-22 00:09:54.16	116.91	14.09	-38.4	-40.7	13.8	1.14e-05	0	58	0	2245001216	47	4937
2026-01-22 00:09:55.17	117.09	14.04	-38.5	-40.8	13.9	4.92e-05	0	58	0	2251292672	47	4987
2026-01-22 00:09:56.18	117.27	13.99	-38.4	-40.6	14.0	3.77e-05	0	58	0	2256535552	47	4902
2026-01-22 00:09:57.19	117.45	13.94	-38.5	-40.7	13.9	3.66e-05	0	58	0	2262827008	47	4936
2026-01-22 00:09:58.20	117.64	13.89	-38.5	-40.8	13.8	9.61e-05	0	58	0	2268069888	47	4985
2026-01-22 00:09:59.22	117.82	13.84	-38.5	-40.8	13.7	8.69e-05	0	58	0	2273312768	47	5024
2026-01-22 00:10:00.23	118.00	13.79	-38.6	-40.9	13.6	1.04e-04	0	58	0	2279604224	47	5095
2026-01-22 00:10:01.24	118.18	13.74	-38.9	-41.2	13.4	1.20e-04	0	58	0	2284847104	48	4942
2026-01-22 00:10:02.25	118.36	13.69	-38.9	-41.3	13.4	2.81e-03	0	58	0	2291138560	48	4987
2026-01-22 00:10:03.26	118.54	13.64	-38.9	-41.3	13.3	2.43e-04	0	58	0	2296381440	48	5002
2026-01-22 00:10:04.27	118.72	13.59	-38.7	-41.0	13.5	2.51e-03	0	58	0	2301624320	47	5144
2026-01-22 00:10:05.28	118.90	13.54	-38.6	-41.0	13.5	2.40e-04	0	58	0	2307915776	47	5120
2026-01-22 00:10:06.29	119.07	13.48	-38.4	-40.9	13.6	6.49e-04	0	58	0	2313158656	47	5056
2026-01-22 00:10:07.30	119.25	13.43	-38.5	-40.7	13.7	2.46e-04	0	58	0	2319450112	47	4975
2026-01-22 00:10:08.31	119.42	13.38	-38.5	-40.7	13.7	2.56e-04	0	58	0	2324692992	47	4970
2026-01-22 00:10:09.32	119.60	13.33	-38.4	-40.7	13.7	1.31e-03	0	58	0	2330984448	47	4941
2026-01-22 00:10:10.33	119.78	13.28	-38.4	-40.6	13.6	3.60e-04	0	58	0	2336227328	47	4905
2026-01-22 00:10:11.34	119.95	13.22	-36.5	-40.5	11.8	1.56e-02	0	58	0	2342518784	45	5460
2026-01-22 00:10:12.35	120.12	13.17	-38.1	-40.5	13.6	4.11e-04	0	58	0	2347761664	47	4846
2026-01-22 00:10:13.36	120.30	13.12	-38.4	-40.7	13.7	4.71e-04	0	58	0	2353004544	47	4959
2026-01-22 00:10:14.37	120.47	13.07	-34.6	-40.0	9.3	3.54e-03	0	58	0	2359296000	43	5779
2026-01-22 00:10:15.38	120.64	13.02	-38.3	-40.6	13.3	2.45e-03	0	58	0	2364538880	47	4920
2026-01-22 00:10:16.39	120.81	12.96	-38.0	-40.6	13.6	3.46e-03	0	58	0	2370830336	47	4872
2026-01-22 00:10:17.40	120.98	12.91	-38.4	-40.6	13.6	7.16e-04	0	58	0	2376073216	47	4900
2026-01-22 00:10:18.41	121.15	12.86	-38.2	-40.6	13.6	1.67e-03	0	58	0	2381316096	47	4911
2026-01-22 00:10:19.42	121.32	12.80	-38.1	-40.6	12.9	1.03e-03	0	58	0	2387607552	46	5168
2026-01-22 00:10:20.43	121.49	12.75	-38.3	-40.5	13.7	3.09e-03	0	58	0	2392850432	47	4865
2026-01-22 00:10:21.44	121.66	12.70	-38.3	-40.7	13.2	3.20e-03	0	58	0	2399141888	47	4935
2026-01-22 00:10:22.45	121.83	12.64	-38.3	-40.7	13.3	2.37e-03	0	58	0	2404384768	47	4968
2026-01-22 00:10:23.46	121.99	12.59	-38.3	-40.5	13.6	2.27e-03	0	58	0	2409627648	47	4863
2026-01-22 00:10:24.47	122.16	12.54	-36.9	-40.5	11.8	2.44e-02	0	58	0	2415919104	44	5784
2026-01-22 00:10:25.48	122.33	12.48	-37.4	-40.9	11.7	2.82e-02	0	58	0	2421161984	45	5672
2026-01-22 00:10:26.49	122.49	12.43	-38.5	-40.9	13.1	3.85e-03	0	58	0	2427453440	47	5091
2026-01-22 00:10:27.50	122.66	12.38	-38.3	-41.0	12.9	4.19e-03	0	58	0	2432696320	47	5125
2026-01-22 00:10:28.51	122.82	12.32	-38.9	-41.4	12.6	1.10e-02	0	58	0	2438987776	48	5068
2026-01-22 00:10:29.52	122.98	12.27	-38.7	-41.5	12.5	5.92e-03	0	58	0	2444230656	48	5128
2026-01-22 00:10:30.54	123.15	12.21	-38.9	-41.7	12.4	8.57e-03	0	58	0	2449473536	48	5245
2026-01-22 00:10:31.55	123.31	12.16	-35.1	-41.4	11.8	4.63e-02	0	58	0	2455764992	43	6751
2026-01-22 00:10:32.56	123.47	12.11	-34.8	-41.2	10.5	5.18e-02	0	58	0	2461007872	40	7873
2026-01-22 00:10:33.57	123.63	12.05	-35.7	-41.1	8.6	2.14e-01	0	58	0	2466250752	40	7784
2026-01-22 00:10:34.58	123.79	12.00	-35.0	-41.1	11.9	6.68e-02	0	58	0	2471493632	43	6520
2026-01-22 00:10:35.59	123.95	11.94	-34.6	-41.0	10.7	6.76e-02	0	58	0	2476736512	38	8628
2026-01-22 00:10:36.60	124.11	11.89	-34.0	-40.7	11.3	6.50e-02	0	58	0	2483027968	41	6973
2026-01-22 00:10:37.61	124.27	11.83	-33.5	-40.7	10.1	7.28e-02	0	58	0	2488270848	37	8861
2026-01-22 00:10:38.62	124.43	11.78	-35.7	-40.8	11.7	6.27e-02	0	58	0	2493513728	45	5651
2026-01-22 00:10:39.63	124.59	11.72	-35.9	-41.1	11.0	7.67e-02	0	58	0	2498756608	45	5841
2026-01-22 00:10:40.64	124.75	11.67	-38.0	-41.3	11.2	7.98e-02	0	58	0	2503999488	46	5635
2026-01-22 00:10:41.65	124.90	11.61	-37.9	-41.2	11.3	1.02e-01	0	58	0	2509242368	45	5914
2026-01-22 00:10:42.66	125.06	11.56	-36.6	-40.9	10.8	9.63e-02	0	58	0	2514485248	43	6418
2026-01-22 00:10:43.67	125.21	11.50	-36.7	-40.9	10.7	1.29e-01	0	58	0	2519728128	43	6351
2026-01-22 00:10:44.68	125.37	11.45	-36.5	-40.8	10.8	1.48e-01	0	58	0	2526019584	43	6299
2026-01-22 00:10:45.69	125.52	11.39	-36.3	-40.8	11.0	1.93e-01	0	58	0	2531262464	43	6314
2026-01-22 00:10:46.70	125.68	11.34	-34.0	-40.9	9.3	2.30e-01	0	58	0	2535456768	40	7554
2026-01-22 00:10:47.71	125.83	11.28	-33.5	-40.3	8.4	3.51e-01	0	58	0	2539651072	31	11844
2026-01-22 00:10:48.72	125.98	11.23	-29.8	-39.3	7.7	4.61e-01	0	58	0	2543845376	29	11895
2026-01-22 00:10:49.73	126.14	11.17	-31.4	-39.7	7.9	4.54e-01	0	58	0	2546991104	30	11688
2026-01-22 00:10:50.74	126.29	11.12	-31.9	-39.4	8.4	4.39e-01	0	58	0	2550136832	32	10151
2026-01-22 00:10:51.75	126.44	11.06	-31.3	-39.5	7.9	4.75e-01	0	58	0	2552233984	32	10252
2026-01-22 00:10:52.76	126.59	11.00	-32.4	-39.9	7.7	5.08e-01	0	58	0	2555379712	33	10144
2026-01-22 00:10:53.77	126.74	10.95	-30.2	-38.9	8.1	5.63e-01	0	58	0	2557476864	27	12804
2026-01-22 00:10:54.78	126.89	10.89	-29.9	-38.9	8.3	5.64e-01	0	58	0	2559574016	29	11326
2026-01-22 00:10:55.79	127.04	10.84	-26.3	-38.3	7.7	5.78e-01	0	58	0	2560622592	26	12551
2026-01-22 00:10:56.80	127.18	10.78	-27.4	-38.2	6.9	5.97e-01	0	58	0	2562719744	25	13137
2026-01-22 00:10:57.81	127.33	10.73	-26.2	-38.0	7.1	6.13e-01	0	58	0	2563768320	21	16166
2026-01-22 00:10:58.82	127.48	10.67	-26.3	-37.4	5.2	7.45e-01	0	58	104	2563768320	22	14212
2026-01-22 00:10:59.83	127.63	10.61	-23.4	-35.0	4.6	7.91e-01	0	58	104	2563768320	20	12111
2026-01-22 00:11:00.84	127.77	10.56	-27.2	-37.6	4.6	7.92e-01	0	58	104	2563768320	20	16446
2026-01-22 00:11:01.85	127.92	10.50	-23.3	-36.4	4.9	8.14e-01	0	58	104	2563768320	19	15081
2026-01-22 00:11:02.86	128.06	10.45	-24.0	-36.3	4.6	8.03e-01	0	58	0	2563768320	20	14093
2026-01-22 00:11:03.87	128.21	10.39	-26.2	-40.6	4.5	8.07e-01	0	58	104	2563768320	22	20649
2026-01-22 00:11:04.88	128.35	10.33	-22.3	-35.1	3.8	8.11e-01	0	58	104	2563768320	17	14670
2026-01-22 00:11:05.89	128.49	10.28	-26.0	-38.7	4.7	8.07e-01	0	58	104	2563768320	21	17624
2026-01-22 00:11:06.90	128.64	10.22	-23.1	-36.5	3.8	8.07e-01	0	58	104	2563768320	16	18227
2026-01-22 00:11:07.91	128.78	10.17	-22.9	-37.6	3.9	7.96e-01	0	58	104	2563768320	17	19545
2026-01-22 00:11:08.92	128.92	10.11	-20.9	-35.8	3.5	7.83e-01	0	58	0	2563768320	15	17811
2026-01-22 00:11:09.93	129.06	10.05	-24.2	-37.0	3.5	7.70e-01	0	58	104	2563768320	18	17242
2026-01-22 00:11:10.94	129.20	10.00	-24.4	-37.7	3.1	7.99e-01	0	58	104	2563768320	17	19722
2026-01-22 00:11:11.95	129.34	9.94	-22.9	-36.4	3.7	7.62e-01	0	58	104	2563768320	18	16101
2026-01-22 00:11:12.96	129.48	9.88	-24.9	-36.1	3.7	8.20e-01	0	58	104	2563768320	17	16340
2026-01-22 00:11:13.97	129.62	9.83	-22.8	-36.0	3.3	7.83e-01	0	58	104	2563768320	15	18199
2026-01-22 00:11:14.98	129.76	9.77	-24.3	-35.5	4.3	8.01e-01	0	58	104	2563768320	17	15393
2026-01-22 00:11:15.99	129.90	9.71	-21.5	-36.8	3.3	7.69e-01	0	58	104	2563768320	17	17858
2026-01-22 00:11:17.00	130.04	9.66	-24.3	-36.6	3.3	7.64e-01	0	58	0	2563768320	18	16363
2026-01-22 00:11:18.01	130.17	9.60	-24.1	-36.7	3.7	7.73e-01	0	58	104	2563768320	17	17509
2026-01-22 00:11:19.02	130.31	9.55	-23.4	-35.4	3.5	7.77e-01	0	58	104	2563768320	15	16899
2026-01-22 00:11:20.03	130.45	9.49	-25.2	-39.1	3.7	7.76e-01	0	58	104	2563768320	19	20698
2026-01-22 00:11:21.04	130.58	9.43	-24.9	-37.2	3.5	7.70e-01	0	58	104	2563768320	19	16638
2026-01-22 00:11:22.05	130.72	9.38	-18.6	-33.4	4.2	8.17e-01	0	58	104	2563768320	11	16957
2026-01-22 00:11:23.06	130.85	9.32	-19.4	-34.0	3.4	7.93e-01	0	58	104	2563768320	8	21652
2026-01-22 00:11:24.07	130.99	9.26	-20.0	-33.2	3.7	7.92e-01	0	58	104	2563768320	16	12415
2026-01-22 00:11:25.08	131.12	9.21	-21.6	-35.6	3.3	7.69e-01	0	58	104	2563768320	15	17314
2026-01-22 00:11:26.09	131.25	9.15	-21.0	-35.2	3.3	7.81e-01	0	58	104	2563768320	14	17543
2026-01-22 00:11:27.09	131.38	9.09	-22.4	-36.4	3.6	7.71e-01	0	58	104	2563768320	15	19101
2026-01-22 00:11:28.10	131.52	9.04	-24.2	-38.2	3.7	7.71e-01	0	58	104	2563768320	19	18599
2026-01-22 00:11:29.11	131.65	8.98	-22.5	-35.7	3.3	8.04e-01	0	58	104	2563768320	14	18543
2026-01-22 00:11:30.12	131.78	8.93	-25.6	-37.3	3.7	7.64e-01	0	58	104	2563768320	19	16707
2026-01-22 00:11:31.13	131.91	8.87	-24.4	-37.0	3.8	8.06e-01	0	58	104	2563768320	17	18171
2026-01-22 00:11:32.14	132.04	8.81	-25.4	-37.7	3.3	7.72e-01	0	58	104	2563768320	16	20785
2026-01-22 00:11:33.15	132.17	8.76	-22.5	-35.0	3.9	7.79e-01	0	58	104	2563768320	15	16280
2026-01-22 00:11:34.16	132.30	8.70	-27.4	-38.9	3.4	7.69e-01	0	58	104	2563768320	18	21405
2026-01-22 00:11:35.17	132.43	8.64	-24.9	-37.8	3.5	7.71e-01	0	58	104	2563768320	18	18902
2026-01-22 00:11:36.18	132.56	8.59	-25.6	-40.9	4.0	7.83e-01	0	58	0	2563768320	22	21346
2026-01-22 00:11:37.19	132.68	8.53	-24.7	-41.1	4.0	7.90e-01	0	58	104	2563768320	21	23216
2026-01-22 00:11:38.20	132.81	8.47	-30.0	-42.6	4.2	7.87e-01	0	58	104	2563768320	25	21764
2026-01-22 00:11:39.21	132.94	8.42	-25.1	-40.9	5.8	7.92e-01	0	58	104	2563768320	18	26950
2026-01-22 00:11:40.22	133.06	8.36	-28.8	-42.2	4.2	7.92e-01	0	58	104	2563768320	27	18602
2026-01-22 00:11:41.22	133.19	8.30	-29.0	-43.9	4.2	8.02e-01	0	58	104	2563768320	30	18996
2026-01-22 00:11:42.23	133.31	8.25	-28.7	-44.8	4.4	8.10e-01	0	58	104	2563768320	28	23586
2026-01-22 00:11:43.24	133.44	8.19	-29.6	-43.1	4.1	8.00e-01	0	58	104	2563768320	27	20666
2026-01-22 00:11:44.25	133.56	8.14	-27.2	-44.0	4.0	8.05e-01	0	58	104	2563768320	26	24337
2026-01-22 00:11:45.26	133.69	8.08	-33.5	-46.9	4.4	8.31e-01	0	58	104	2563768320	36	19018
2026-01-22 00:11:46.27	133.81	8.02	-26.8	-41.0	4.2	7.88e-01	0	58	104	2563768320	22	21587
2026-01-22 00:11:47.28	133.93	7.97	-26.8	-45.8	4.8	8.14e-01	0	58	104	2563768320	30	23777
2026-01-22 00:11:48.29	134.06	7.91	-44.7	-56.6	3.8	8.46e-01	0	58	104	2563768320	60	14577
2026-01-22 00:11:49.30	134.18	7.85	-45.0	-56.8	3.8	8.46e-01	0	58	104	2563768320	60	14961
2026-01-22 00:11:50.31	134.30	7.80	-45.2	-57.1	3.8	8.47e-01	0	58	104	2563768320	60	15437
2026-01-22 00:11:51.32	134.42	7.74	-45.4	-57.2	3.8	8.45e-01	0	58	104	2563768320	61	14878
2026-01-22 00:11:52.33	134.54	7.68	-45.4	-57.3	3.8	8.47e-01	0	58	104	2563768320	61	15027
2026-01-22 00:11:53.34	134.66	7.63	-45.5	-57.4	3.8	8.46e-01	0	58	104	2563768320	61	15163
2026-01-22 00:11:54.35	134.78	7.57	-45.6	-57.5	3.8	8.47e-01	0	58	104	2563768320	61	15281
2026-01-22 00:11:55.36	134.90	7.52	-45.6	-57.5	3.8	8.45e-01	0	58	104	2563768320	61	15352
2026-01-22 00:11:56.37	135.02	7.46	-45.6	-57.4	3.8	8.46e-01	0	58	104	2563768320	61	15202
2026-01-22 00:11:57.39	135.14	7.40	-45.5	-57.3	3.8	8.45e-01	0	58	104	2563768320	61	14925
2026-01-22 00:11:58.40	135.26	7.35	-45.5	-57.2	3.8	8.46e-01	0	58	104	2563768320	61	14842
2026-01-22 00:11:59.41	135.38	7.29	-45.4	-57.2	3.8	8.46e-01	0	58	104	2563768320	61	14736
2026-01-22 00:12:00.42	135.49	7.23	-45.4	-57.1	3.8	8.47e-01	0	58	104	2563768320	61	14637
2026-01-22 00:12:01.43	135.61	7.18	-45.4	-57.1	3.8	8.46e-01	0	58	104	2563768320	61	14578
2026-01-22 00:12:02.44	135.73	7.12	-45.3	-57.0	3.8	8.46e-01	0	58	104	2563768320	61	14443
2026-01-22 00:12:03.45	135.84	7.07	-45.3	-57.0	3.8	8.45e-01	0	58	104	2563768320	61	14407
2026-01-22 00:12:04.46	135.96	7.01	-45.3	-56.9	3.8	8.46e-01	0	58	104	2563768320	61	14304
2026-01-22 00:12:05.47	136.07	6.95	-45.2	-57.0	3.8	8.46e-01	0	58	104	2563768320	61	14379
2026-01-22 00:12:06.48	136.19	6.90	-45.3	-57.0	3.8	8.45e-01	0	58	104	2563768320	61	14409
2026-01-22 00:12:07.49	136.30	6.84	-45.2	-56.9	3.8	8.47e-01	0	58	104	2563768320	61	14357
2026-01-22 00:12:08.50	136.42	6.79	-45.2	-57.0	3.8	8.46e-01	0	58	104	2563768320	61	14387
2026-01-22 00:12:09.51	136.53	6.73	-45.2	-57.0	3.8	8.45e-01	0	58	104	2563768320	61	14391
2026-01-22 00:12:10.52	136.64	6.67	-45.2	-56.9	3.8	8.46e-01	0	58	104	2563768320	61	14369
2026-01-22 00:12:11.53	136.75	6.62	-45.2	-56.9	3.8	8.47e-01	0	58	104	2563768320	61	14331
2026-01-22 00:12:12.54	136.87	6.56	-45.2	-56.9	3.8	8.46e-01	0	58	104	2563768320	61	14322
2026-01-22 00:12:13.56	136.98	6.51	-45.2	-57.0	3.8	8.46e-01	0	58	104	2563768320	61	14376
2026-01-22 00:12:14.57	137.09	6.45	-45.2	-57.0	3.8	8.45e-01	0	58	104	2563768320	61	14380
2026-01-22 00:12:15.58	137.20	6.39	-45.2	-56.9	3.8	8.45e-01	0	58	104	2563768320	61	14330
2026-01-22 00:12:16.59	137.31	6.34	-45.2	-56.9	3.8	8.46e-01	0	58	104	2563768320	61	14316
2026-01-22 00:12:17.59	137.42	6.28	-45.2	-56.9	3.8	8.46e-01	0	58	104	2563768320	61	14352
2026-01-22 00:12:18.60	137.53	6.23	-45.2	-56.9	3.8	8.46e-01	0	58	104	2563768320	61	14340
2026-01-22 00:12:19.61	137.64	6.17	-45.2	-56.9	3.8	8.47e-01	0	58	104	2563768320	61	14269
2026-01-22 00:12:20.62	137.75	6.12	-45.2	-56.9	3.8	8.45e-01	0	58	104	2563768320	61	14355
2026-01-22 00:12:21.63	137.86	6.06	-45.2	-56.9	3.8	8.46e-01	0	58	104	2563768320	61	14312
2026-01-22 00:12:22.64	137.96	6.01	-45.2	-56.9	3.8	8.46e-01	0	58	104	2563768320	61	14361
2026-01-22 00:12:23.65	138.07	5.95	-45.2	-56.9	3.8	8.46e-01	0	58	104	2563768320	61	14283
2026-01-22 00:12:24.66	138.18	5.90	-45.2	-56.9	3.8	8.46e-01	0	58	104	2563768320	61	14309
2026-01-22 00:12:25.68	138.29	5.84	-45.2	-56.9	3.8	8.48e-01	0	58	104	2563768320	61	14324
2026-01-22 00:12:26.69	138.39	5.78	-45.2	-56.9	3.8	8.46e-01	0	58	104	2563768320	61	14285
2026-01-22 00:12:27.70	138.50	5.73	-45.2	-56.9	3.8	8.47e-01	0	58	104	2563768320	61	14290
2026-01-22 00:12:28.71	138.61	5.67	-45.2	-56.9	3.8	8.46e-01	0	58	104	2563768320	61	14249
2026-01-22 00:12:29.72	138.71	5.62	-45.2	-56.9	3.8	8.46e-01	0	58	104	2563768320	61	14320
2026-01-22 00:12:30.73	138.82	5.56	-45.2	-56.9	3.8	8.46e-01	0	58	104	2563768320	61	14333
2026-01-22 00:12:31.74	138.92	5.51	-45.2	-56.9	3.8	8.46e-01	0	58	104	2563768320	61	14290
2026-01-22 00:12:32.75	139.02	5.45	-45.2	-56.9	3.8	8.46e-01	0	58	104	2563768320	61	14223
2026-01-22 00:12:33.76	139.13	5.40	-45.2	-56.9	3.8	8.46e-01	0	58	104	2563768320	61	14318
2026-01-22 00:12:34.77	139.23	5.34	-45.2	-56.9	3.8	8.47e-01	0	58	104	2563768320	61	14231
2026-01-22 00:12:35.78	139.33	5.29	-45.2	-56.9	3.8	8.46e-01	0	58	104	2563768320	61	14296
2026-01-22 00:12:36.79	139.44	5.23	-45.2	-56.9	3.8	8.46e-01	0	58	104	2563768320	61	14330
2026-01-22 00:12:37.80	139.54	5.18	-45.2	-56.9	3.8	8.46e-01	0	58	104	2563768320	61	14279
2026-01-22 00:12:38.81	139.64	5.12	-45.2	-56.9	3.8	8.46e-01	0	58	104	2563768320	61	14298
2026-01-22 00:12:39.82	139.74	5.07	-45.2	-56.9	3.8	8.47e-01	0	58	104	2563768320	61	14300
2026-01-22 00:12:40.83	139.84	5.01	-45.2	-56.9	3.8	8.46e-01	0	58	104	2563768320	61	14314
2026-01-22 00:12:41.85	139.95	4.96	-45.2	-56.9	3.8	8.45e-01	0	58	104	2563768320	61	14263
2026-01-22 00:12:42.86	140.05	4.90	-45.2	-56.9	3.8	8.47e-01	0	58	104	2563768320	61	14231
2026-01-22 00:12:43.87	140.15	4.85	-45.2	-56.9	3.8	8.47e-01	0	58	104	2563768320	61	14288
2026-01-22 00:12:44.88	140.25	4.79	-45.2	-56.9	3.8	8.46e-01	0	58	104	2563768320	61	14242
2026-01-22 00:12:45.89	140.35	4.74	-45.2	-56.9	3.8	8.46e-01	0	58	104	2563768320	61	14269
2026-01-22 00:12:46.90	140.44	4.68	-45.2	-56.9	3.8	8.47e-01	0	58	104	2563768320	61	14261
2026-01-22 00:12:47.91	140.54	4.63	-45.2	-56.9	3.8	8.45e-01	0	58	104	2563768320	61	14291
2026-01-22 00:12:48.92	140.64	4.58	-45.2	-56.9	3.8	8.45e-01	0	58	104	2563768320	61	14260
2026-01-22 00:12:49.93	140.74	4.52	-45.2	-56.9	3.8	8.47e-01	0	58	104	2563768320	61	14275
2026-01-22 00:12:50.94	140.84	4.47	-45.2	-56.9	3.8	8.46e-01	0	58	104	2563768320	61	14234
2026-01-22 00:12:51.95	140.93	4.41	-45.2	-56.9	3.8	8.45e-01	0	58	104	2563768320	61	14259
2026-01-22 00:12:52.96	141.03	4.36	-45.2	-56.8	3.8	8.47e-01	0	58	104	2563768320	61	14162
2026-01-22 00:12:53.97	141.13	4.30	-45.2	-56.9	3.8	8.45e-01	0	58	104	2563768320	61	14245
2026-01-22 00:12:54.98	141.22	4.25	-45.2	-56.9	3.8	8.46e-01	0	58	104	2563768320	61	14232
2026-01-22 00:12:55.99	141.32	4.19	-45.2	-56.9	3.8	8.47e-01	0	58	104	2563768320	61	14214
2026-01-22 00:12:57.01	141.42	4.14	-45.2	-56.9	3.8	8.46e-01	0	58	104	2563768320	61	14256
2026-01-22 00:12:58.02	141.51	4.09	-45.2	-56.9	3.8	8.45e-01	0	58	104	2563768320	61	14240
2026-01-22 00:12:59.03	141.61	4.03	-45.2	-56.9	3.8	8.45e-01	0	58	104	2563768320	61	14279
2026-01-22 00:13:00.04	141.70	3.98	-45.2	-56.9	3.8	8.45e-01	0	58	104	2563768320	61	14221
2026-01-22 00:13:01.05	141.79	3.92	-45.2	-56.9	3.8	8.46e-01	0	58	104	2563768320	61	14253
2026-01-22 00:13:02.06	141.89	3.87	-45.2	-56.9	3.8	8.46e-01	0	58	104	2563768320	61	14225
2026-01-22 00:13:03.07	141.98	3.82	-45.2	-56.9	3.8	8.45e-01	0	58	104	2563768320	61	14274
2026-01-22 00:13:04.08	142.07	3.76	-45.2	-56.9	3.8	8.47e-01	0	58	104	2563768320	61	14244
