passes_logs/2026/01/22/R2.0S_Moscow/R2.0S_Moscow__20260122_091437_NOAA_20_JPSS-1_rec.log

#Pass ID: 20260122_091437_NOAA 20 (JPSS-1)
#Satellite: NOAA 20 (JPSS-1)
#Configuration: NOAA 20
#almurnet v.1.7.20251203
#Start time: 2026-01-22 09:14:39

#Version: 2.2.20231116
#Station: R2.0S_Moscow
#Location: 37.707566 lon 55.798166 lat
#TLE: 1 43013U 17073A   26021.46221703  .00000173  00000+0  10299-3 0  9999
#TLE: 2 43013  98.7644 322.3335 0001238  29.7597 330.3649 14.19538314423652

#Time	Az	El	Level	Level2	SNR	BER	BlckErr	Temp	State	Recorded	gain1	gain2
2026-01-22 09:14:39.70	140.79	2.12	-38.2	-54.4	4.1	1.51e+00	0	51	0	0	44	28360
2026-01-22 09:14:40.70	140.76	2.18	-30.8	-46.9	3.9	1.51e+00	0	52	104	0	30	26907
2026-01-22 09:14:41.71	140.73	2.25	-26.0	-48.5	3.9	1.51e+00	0	52	104	0	26	40747
2026-01-22 09:14:42.72	140.70	2.31	-31.4	-47.3	4.1	1.52e+00	0	52	104	0	31	26598
2026-01-22 09:14:43.73	140.68	2.37	-36.9	-53.1	4.4	1.52e+00	0	52	104	0	45	23112
2026-01-22 09:14:44.74	140.65	2.44	-32.1	-52.4	4.2	1.50e+00	0	52	104	0	41	26923
2026-01-22 09:14:45.75	140.62	2.50	-39.5	-54.6	3.9	1.50e+00	0	52	104	0	50	20695
2026-01-22 09:14:46.77	140.59	2.57	-34.2	-52.3	4.3	1.50e+00	0	52	104	0	32	44828
2026-01-22 09:14:47.78	140.56	2.63	-33.3	-52.6	4.5	1.50e+00	0	52	104	0	40	29028
2026-01-22 09:14:48.79	140.53	2.70	-27.9	-46.8	4.3	1.51e+00	0	52	104	0	37	17801
2026-01-22 09:14:49.80	140.50	2.77	-37.1	-53.8	4.0	1.51e+00	0	52	104	0	41	31622
2026-01-22 09:14:50.81	140.47	2.83	-31.7	-53.9	3.6	1.51e+00	0	52	104	0	38	37841
2026-01-22 09:14:51.82	140.44	2.90	-38.2	-54.7	4.2	1.50e+00	0	52	104	0	46	26392
2026-01-22 09:14:52.83	140.41	2.96	-28.6	-46.1	4.2	1.51e+00	0	52	104	0	32	21937
2026-01-22 09:14:53.84	140.38	3.03	-28.5	-40.9	3.5	1.52e+00	0	52	104	0	21	22675
2026-01-22 09:14:54.85	140.35	3.09	-34.3	-52.2	4.5	1.51e+00	0	53	0	0	38	31348
2026-01-22 09:14:55.86	140.33	3.16	-31.7	-52.0	4.2	1.51e+00	0	53	104	0	36	34301
2026-01-22 09:14:56.87	140.29	3.23	-32.1	-48.3	4.3	1.51e+00	0	53	104	0	32	28290
2026-01-22 09:14:57.88	140.26	3.29	-29.7	-52.5	4.1	1.50e+00	0	53	104	0	40	28999
2026-01-22 09:14:58.89	140.23	3.36	-32.9	-50.4	4.2	1.51e+00	0	53	104	0	37	26792
2026-01-22 09:14:59.90	140.20	3.43	-37.3	-54.9	4.0	1.51e+00	0	53	104	0	47	25471
2026-01-22 09:15:00.91	140.17	3.49	-39.0	-52.9	4.4	1.50e+00	0	53	104	0	39	32033
2026-01-22 09:15:01.92	140.14	3.56	-41.9	-56.1	4.4	1.51e+00	0	53	104	0	49	25887
2026-01-22 09:15:02.93	140.11	3.63	-40.3	-55.1	4.4	1.51e+00	0	53	104	0	41	36846
2026-01-22 09:15:03.94	140.08	3.70	-29.7	-45.1	3.7	1.51e+00	0	53	104	0	28	24593
2026-01-22 09:15:04.95	140.05	3.76	-38.8	-54.7	4.4	1.51e+00	0	53	104	0	42	32999
2026-01-22 09:15:05.96	140.02	3.83	-26.6	-47.4	3.9	1.51e+00	0	53	104	0	26	35875
2026-01-22 09:15:06.97	139.99	3.90	-38.5	-54.8	4.0	1.50e+00	0	53	104	0	51	19931
2026-01-22 09:15:07.98	139.95	3.97	-30.7	-49.5	4.1	1.51e+00	0	53	104	0	41	19233
2026-01-22 09:15:08.99	139.92	4.03	-35.3	-52.8	4.2	1.51e+00	0	53	104	0	45	22504
2026-01-22 09:15:10.01	139.89	4.10	-27.4	-44.3	3.8	1.51e+00	0	54	104	0	29	21050
2026-01-22 09:15:11.02	139.86	4.17	-27.7	-43.2	3.7	1.52e+00	0	53	0	0	24	24795
2026-01-22 09:15:12.03	139.82	4.24	-37.1	-51.9	4.3	1.52e+00	0	54	104	0	37	32134
2026-01-22 09:15:13.04	139.79	4.31	-26.6	-42.3	4.3	1.51e+00	0	54	104	0	32	14081
2026-01-22 09:15:14.05	139.76	4.38	-28.5	-43.5	4.1	1.51e+00	0	54	104	0	27	21688
2026-01-22 09:15:15.06	139.73	4.45	-25.4	-43.4	4.1	1.51e+00	0	54	0	0	24	25391
2026-01-22 09:15:16.07	139.69	4.52	-29.2	-47.8	4.4	1.51e+00	0	54	104	0	34	23645
2026-01-22 09:15:17.08	139.66	4.59	-34.8	-54.1	4.1	1.50e+00	0	54	104	0	48	21800
2026-01-22 09:15:18.09	139.63	4.66	-35.7	-55.4	4.4	1.51e+00	0	54	104	0	44	31989
2026-01-22 09:15:19.10	139.59	4.73	-36.8	-49.1	4.7	1.51e+00	0	54	104	0	37	23192
2026-01-22 09:15:20.11	139.56	4.80	-26.8	-44.1	4.0	1.50e+00	0	54	104	0	29	20585
2026-01-22 09:15:21.12	139.53	4.87	-29.5	-46.5	4.1	1.52e+00	0	54	104	0	28	28890
2026-01-22 09:15:22.14	139.49	4.94	-28.5	-48.0	4.0	1.51e+00	0	54	104	0	31	28857
2026-01-22 09:15:23.15	139.46	5.01	-31.2	-48.4	4.7	1.50e+00	0	54	104	0	33	26904
2026-01-22 09:15:24.16	139.42	5.08	-29.7	-46.9	4.1	1.51e+00	0	54	104	0	30	26870
2026-01-22 09:15:25.17	139.39	5.15	-33.6	-55.3	4.2	1.51e+00	0	54	104	0	44	31463
2026-01-22 09:15:26.18	139.35	5.22	-41.0	-56.0	3.8	1.50e+00	0	54	104	0	49	25629
2026-01-22 09:15:27.19	139.32	5.29	-31.6	-52.5	4.0	1.50e+00	0	54	104	0	42	25668
2026-01-22 09:15:28.20	139.28	5.36	-34.1	-54.4	4.2	1.51e+00	0	54	104	0	39	37978
2026-01-22 09:15:29.21	139.25	5.44	-32.0	-52.0	3.8	1.51e+00	0	54	104	0	32	43230
2026-01-22 09:15:30.22	139.21	5.51	-31.7	-50.7	4.3	1.51e+00	0	55	104	0	38	26391
2026-01-22 09:15:31.23	139.18	5.58	-25.7	-51.6	4.2	1.50e+00	0	55	104	0	26	58267
2026-01-22 09:15:32.24	139.14	5.65	-24.4	-51.8	4.1	1.51e+00	0	55	104	0	26	59557
2026-01-22 09:15:33.25	139.10	5.72	-28.1	-51.8	4.2	1.51e+00	0	55	0	0	26	59713
2026-01-22 09:15:34.26	139.07	5.80	-26.6	-53.0	3.4	1.51e+00	0	55	104	0	28	61208
2026-01-22 09:15:35.27	139.03	5.87	-25.7	-50.9	4.5	1.51e+00	0	55	104	0	27	50790
2026-01-22 09:15:36.29	138.99	5.94	-31.2	-51.6	4.1	1.51e+00	0	55	0	0	34	36744
2026-01-22 09:15:37.30	138.96	6.02	-29.7	-49.9	4.3	1.51e+00	0	55	104	0	33	32008
2026-01-22 09:15:38.31	138.92	6.09	-25.0	-47.9	4.3	1.51e+00	0	55	104	0	22	47851
2026-01-22 09:15:39.32	138.88	6.16	-28.0	-51.8	4.1	1.51e+00	0	55	104	0	25	63453
2026-01-22 09:15:40.33	138.84	6.24	-25.6	-52.0	4.2	1.51e+00	0	55	104	0	25	64796
2026-01-22 09:15:41.34	138.81	6.31	-25.4	-49.6	4.0	1.51e+00	0	55	104	0	21	61480
2026-01-22 09:15:42.35	138.77	6.39	-27.2	-52.8	3.9	1.51e+00	0	55	104	0	27	63044
2026-01-22 09:15:43.36	138.73	6.46	-27.3	-50.3	4.8	1.51e+00	0	55	104	0	25	53374
2026-01-22 09:15:44.37	138.69	6.54	-28.8	-49.4	3.8	1.51e+00	0	55	104	0	26	45321
2026-01-22 09:15:45.38	138.65	6.61	-29.3	-50.5	4.2	1.51e+00	0	55	104	0	26	51572
2026-01-22 09:15:46.39	138.62	6.69	-32.3	-46.1	4.3	1.51e+00	0	55	104	0	36	17474
2026-01-22 09:15:47.40	138.58	6.76	-37.1	-53.3	3.9	1.50e+00	0	55	104	0	44	25172
2026-01-22 09:15:48.41	138.54	6.84	-33.6	-53.5	4.2	1.50e+00	0	55	0	0	35	43238
2026-01-22 09:15:49.42	138.50	6.91	-32.7	-51.1	4.3	1.50e+00	0	55	104	0	35	32616
2026-01-22 09:15:50.43	138.46	6.99	-35.4	-52.5	4.1	1.51e+00	0	55	104	0	40	28817
2026-01-22 09:15:51.44	138.42	7.06	-31.5	-52.2	4.1	1.51e+00	0	55	104	0	30	49706
2026-01-22 09:15:52.45	138.38	7.14	-30.4	-43.8	4.1	1.52e+00	0	56	104	0	30	18743
2026-01-22 09:15:53.46	138.34	7.22	-33.7	-52.1	4.2	1.52e+00	0	56	104	0	47	18397
2026-01-22 09:15:54.47	138.30	7.29	-27.4	-43.1	3.6	1.51e+00	0	56	104	0	28	19614
2026-01-22 09:15:55.48	138.26	7.37	-32.7	-47.9	3.7	1.52e+00	0	56	104	0	29	31930
2026-01-22 09:15:56.49	138.22	7.45	-30.6	-50.0	4.0	1.51e+00	0	56	104	0	34	30417
2026-01-22 09:15:57.50	138.17	7.52	-39.7	-54.0	4.1	1.51e+00	0	56	104	0	47	22813
2026-01-22 09:15:58.52	138.13	7.60	-32.3	-47.3	4.3	1.51e+00	0	56	104	0	31	26642
2026-01-22 09:15:59.52	138.09	7.68	-32.8	-47.5	3.7	1.52e+00	0	56	104	0	43	13641
2026-01-22 09:16:00.54	138.05	7.76	-31.5	-48.5	4.8	1.51e+00	0	56	104	0	38	20441
2026-01-22 09:16:01.55	138.01	7.84	-34.6	-48.5	4.1	1.52e+00	0	56	104	0	38	20504
2026-01-22 09:16:02.56	137.96	7.92	-32.2	-48.6	4.3	1.51e+00	0	56	104	0	38	20684
2026-01-22 09:16:03.57	137.92	7.99	-26.9	-43.0	3.9	1.52e+00	0	56	104	0	25	22990
2026-01-22 09:16:04.58	137.88	8.07	-28.7	-44.9	3.9	1.52e+00	0	56	0	0	25	28507
2026-01-22 09:16:05.59	137.84	8.15	-28.1	-45.3	3.8	1.51e+00	0	56	104	0	27	26692
2026-01-22 09:16:06.60	137.79	8.23	-29.6	-44.4	3.9	1.52e+00	0	56	104	0	27	23866
2026-01-22 09:16:07.60	137.75	8.31	-33.9	-46.6	4.0	1.52e+00	0	56	0	0	30	26103
2026-01-22 09:16:08.61	137.71	8.39	-28.4	-42.6	4.1	1.52e+00	0	56	104	0	27	19494
2026-01-22 09:16:09.63	137.66	8.47	-30.8	-51.7	3.9	1.51e+00	0	56	104	0	31	44251
2026-01-22 09:16:10.63	137.62	8.55	-27.5	-41.6	3.9	1.52e+00	0	56	104	0	26	18369
2026-01-22 09:16:11.64	137.57	8.63	-27.2	-41.8	3.9	1.52e+00	0	56	104	0	27	17764
2026-01-22 09:16:12.65	137.53	8.71	-29.3	-47.0	4.0	1.52e+00	0	56	104	0	35	20338
2026-01-22 09:16:13.66	137.48	8.79	-28.2	-46.5	4.3	1.50e+00	0	56	104	0	35	19234
2026-01-22 09:16:14.67	137.44	8.87	-27.0	-43.7	4.0	1.52e+00	0	56	104	0	30	18621
2026-01-22 09:16:15.68	137.39	8.96	-28.6	-44.3	3.9	1.51e+00	0	56	104	0	30	20005
2026-01-22 09:16:16.69	137.35	9.04	-37.8	-52.1	4.2	1.52e+00	0	56	104	0	40	27457
2026-01-22 09:16:17.70	137.30	9.12	-29.3	-46.1	4.2	1.52e+00	0	56	104	0	35	18356
2026-01-22 09:16:18.71	137.25	9.20	-31.4	-44.4	4.0	1.52e+00	0	57	104	0	32	17986
2026-01-22 09:16:19.72	137.21	9.29	-29.1	-43.9	4.6	1.52e+00	0	56	104	0	35	14349
2026-01-22 09:16:20.73	137.16	9.37	-31.7	-45.1	3.9	1.52e+00	0	56	0	0	32	19522
2026-01-22 09:16:21.74	137.11	9.45	-27.4	-43.7	3.8	1.51e+00	0	57	104	0	23	27887
2026-01-22 09:16:22.75	137.06	9.53	-30.0	-45.0	4.1	1.50e+00	0	57	104	0	24	30478
2026-01-22 09:16:23.76	137.02	9.62	-27.5	-44.0	3.8	1.51e+00	0	56	104	0	25	25754
2026-01-22 09:16:24.77	136.97	9.70	-29.8	-44.5	3.9	1.51e+00	0	57	0	0	32	18118
2026-01-22 09:16:25.78	136.92	9.79	-33.7	-47.6	3.9	1.52e+00	0	57	104	0	35	21777
2026-01-22 09:16:26.78	136.87	9.87	-30.2	-44.7	4.0	1.52e+00	0	57	0	0	31	19816
2026-01-22 09:16:27.80	136.82	9.96	-30.5	-45.4	4.1	1.52e+00	0	57	104	0	29	23984
2026-01-22 09:16:28.80	136.77	10.04	-29.0	-44.8	4.0	1.52e+00	0	57	104	0	31	19844
2026-01-22 09:16:29.81	136.72	10.12	-29.5	-43.2	3.9	1.51e+00	0	57	104	0	28	19755
2026-01-22 09:16:30.82	136.67	10.21	-25.8	-42.8	3.8	1.52e+00	0	57	104	0	24	23592
2026-01-22 09:16:31.83	136.62	10.30	-25.9	-41.8	3.8	1.52e+00	0	57	104	0	24	21094
2026-01-22 09:16:32.84	136.57	10.38	-28.5	-42.2	3.9	1.52e+00	0	57	104	0	26	19788
2026-01-22 09:16:33.85	136.52	10.47	-27.6	-41.0	3.9	1.52e+00	0	57	104	0	25	18152
2026-01-22 09:16:34.86	136.47	10.55	-34.3	-47.5	4.4	1.48e+00	0	57	104	0	33	24347
2026-01-22 09:16:35.87	136.42	10.64	-36.2	-44.6	4.0	1.50e+00	0	57	104	0	25	27559
2026-01-22 09:16:36.88	136.37	10.73	-30.5	-44.3	4.3	1.45e+00	0	57	104	0	36	14208
2026-01-22 09:16:37.89	136.31	10.82	-28.4	-47.5	4.0	1.48e+00	0	57	104	0	31	27277
2026-01-22 09:16:38.90	136.26	10.90	-30.1	-43.2	4.1	1.42e+00	0	57	104	0	33	14777
2026-01-22 09:16:39.91	136.21	10.99	-25.2	-44.8	4.1	1.50e+00	0	57	104	0	21	35287
2026-01-22 09:16:40.92	136.16	11.08	-30.4	-46.2	-4.1	1.51e+00	0	57	104	0	30	24747
2026-01-22 09:16:41.93	136.10	11.17	-22.9	-36.8	3.9	1.51e+00	0	57	104	0	21	14091
2026-01-22 09:16:42.94	136.05	11.26	-23.8	-36.8	4.0	1.50e+00	0	57	104	0	19	15857
2026-01-22 09:16:43.95	135.99	11.35	-24.8	-37.5	4.0	1.51e+00	0	57	104	0	20	16227
2026-01-22 09:16:44.95	135.94	11.44	-22.7	-36.0	3.7	1.51e+00	0	57	104	0	16	17148
2026-01-22 09:16:45.96	135.88	11.53	-25.5	-42.6	3.9	1.50e+00	0	57	104	0	23	24514
2026-01-22 09:16:46.97	135.83	11.62	-27.5	-45.1	3.8	1.49e+00	0	57	0	0	28	24681
2026-01-22 09:16:47.98	135.77	11.71	-31.9	-45.9	4.2	1.51e+00	0	57	104	0	33	20150
2026-01-22 09:16:48.99	135.72	11.80	-27.8	-46.3	4.0	1.51e+00	0	57	104	0	31	23737
2026-01-22 09:16:50.00	135.66	11.89	-28.1	-42.6	3.6	1.51e+00	0	57	104	0	23	24472
2026-01-22 09:16:51.01	135.60	11.98	-24.6	-40.0	3.9	1.52e+00	0	57	104	0	25	16309
2026-01-22 09:16:52.02	135.55	12.07	-25.6	-38.9	3.8	1.52e+00	0	57	104	0	25	14210
2026-01-22 09:16:53.03	135.49	12.16	-22.3	-38.0	3.7	1.52e+00	0	57	104	0	22	15345
2026-01-22 09:16:54.04	135.43	12.26	-29.5	-44.2	3.8	1.52e+00	0	57	0	0	27	23323
2026-01-22 09:16:55.05	135.37	12.35	-23.6	-36.1	3.8	1.50e+00	0	57	104	0	15	18362
2026-01-22 09:16:56.06	135.32	12.44	-23.2	-35.9	4.0	1.51e+00	0	57	104	0	17	16009
2026-01-22 09:16:57.06	135.26	12.53	-22.0	-34.6	3.7	1.51e+00	0	57	104	0	12	18471
2026-01-22 09:16:58.08	135.20	12.63	-21.9	-34.3	3.8	1.51e+00	0	57	104	0	13	16698
2026-01-22 09:16:59.08	135.14	12.72	-26.7	-41.7	3.9	1.51e+00	0	57	104	0	23	22255
2026-01-22 09:17:00.09	135.08	12.82	-33.8	-43.1	4.0	1.51e+00	0	57	104	0	21	29264
2026-01-22 09:17:01.10	135.02	12.91	-27.0	-42.5	4.1	1.51e+00	0	57	104	0	29	17200
2026-01-22 09:17:02.11	134.96	13.00	-24.4	-39.6	3.8	1.51e+00	0	57	104	0	21	19462
2026-01-22 09:17:03.12	134.89	13.10	-28.9	-43.3	3.9	1.49e+00	0	57	104	0	29	18816
2026-01-22 09:17:04.13	134.83	13.20	-29.2	-40.5	3.8	1.50e+00	0	57	104	0	22	20398
2026-01-22 09:17:05.14	134.77	13.29	-25.9	-39.9	4.1	1.51e+00	0	57	104	0	19	22756
2026-01-22 09:17:06.15	134.71	13.39	-27.9	-42.2	4.3	1.51e+00	0	58	104	0	29	16539
2026-01-22 09:17:07.16	134.65	13.48	-27.3	-43.3	3.8	1.49e+00	0	58	104	0	24	25175
2026-01-22 09:17:08.17	134.58	13.58	-28.6	-42.0	4.3	1.47e+00	0	57	104	0	31	14443
2026-01-22 09:17:09.18	134.52	13.68	-26.7	-41.2	4.2	1.48e+00	0	57	104	0	27	16652
2026-01-22 09:17:10.19	134.45	13.78	-20.1	-33.7	3.9	1.51e+00	0	58	104	0	16	13200
2026-01-22 09:17:11.20	134.39	13.87	-23.2	-39.7	4.0	1.46e+00	0	57	104	0	25	15721
2026-01-22 09:17:12.21	134.32	13.97	-32.9	-45.7	4.0	1.44e+00	0	58	0	0	38	14712
2026-01-22 09:17:13.22	134.26	14.07	-29.4	-42.6	4.5	1.50e+00	0	57	104	0	31	15505
2026-01-22 09:17:14.23	134.19	14.17	-27.1	-42.8	4.6	1.49e+00	0	58	104	0	30	16863
2026-01-22 09:17:15.24	134.12	14.27	-23.5	-39.6	4.5	1.44e+00	0	57	104	0	31	10979
2026-01-22 09:17:16.25	134.06	14.37	-39.2	-46.7	4.0	1.42e+00	0	58	104	0	37	17534
2026-01-22 09:17:17.25	133.99	14.47	-30.2	-42.2	4.8	1.47e+00	0	58	104	0	35	11739
2026-01-22 09:17:18.26	133.92	14.57	-28.0	-41.3	4.6	1.44e+00	0	57	104	0	29	14911
2026-01-22 09:17:19.27	133.85	14.67	-38.3	-45.3	4.9	1.26e+00	0	57	104	0	33	18805
2026-01-22 09:17:20.28	133.79	14.77	-36.1	-52.7	4.6	1.43e+00	0	58	104	0	44	23474
2026-01-22 09:17:21.29	133.72	14.87	-38.9	-55.1	4.2	1.50e+00	0	58	104	0	52	19499
2026-01-22 09:17:22.30	133.65	14.98	-34.1	-50.3	4.1	1.50e+00	0	58	104	0	36	28302
2026-01-22 09:17:23.31	133.58	15.08	-40.2	-51.3	4.7	1.46e+00	0	57	104	0	50	14087
2026-01-22 09:17:24.32	133.50	15.18	-39.9	-52.0	5.3	1.26e+00	43	58	0	0	56	10882
2026-01-22 09:17:25.33	133.43	15.29	-41.2	-50.2	5.4	1.06e+00	46	58	104	0	53	10529
2026-01-22 09:17:26.34	133.36	15.39	-40.9	-51.9	5.1	7.27e-01	46	58	0	0	53	12806
2026-01-22 09:17:27.35	133.29	15.49	-39.1	-49.4	4.1	1.24e+00	0	58	104	0	44	16022
2026-01-22 09:17:28.36	133.22	15.60	-29.4	-47.7	4.6	1.49e+00	0	58	104	0	39	17622
2026-01-22 09:17:29.37	133.14	15.70	-40.2	-53.0	4.2	1.47e+00	0	58	104	0	45	22970
2026-01-22 09:17:30.38	133.07	15.81	-39.5	-49.1	6.2	1.44e+00	14	58	104	0	51	10387
2026-01-22 09:17:31.39	132.99	15.91	-39.1	-47.0	6.6	8.98e-01	7	58	0	0	46	10781
2026-01-22 09:17:32.40	132.92	16.02	-33.1	-44.6	5.0	9.25e-01	0	58	104	1048576	39	12328
2026-01-22 09:17:33.40	132.84	16.13	-31.6	-45.8	4.0	1.51e+00	0	58	104	1048576	28	26524
2026-01-22 09:17:34.42	132.77	16.23	-31.7	-45.8	4.5	1.48e+00	0	58	104	1048576	31	22331
2026-01-22 09:17:35.42	132.69	16.34	-32.8	-46.0	4.7	1.47e+00	0	58	104	1048576	34	19229
2026-01-22 09:17:36.43	132.61	16.45	-26.5	-42.2	5.0	1.50e+00	0	58	104	1048576	33	13254
2026-01-22 09:17:37.44	132.53	16.56	-40.1	-46.4	4.6	1.44e+00	0	58	104	1048576	34	20146
2026-01-22 09:17:38.45	132.46	16.66	-31.1	-45.4	4.6	1.46e+00	0	58	104	1048576	33	19158
2026-01-22 09:17:39.46	132.38	16.77	-36.5	-45.4	5.2	1.46e+00	0	58	104	1048576	46	9033
2026-01-22 09:17:40.47	132.30	16.88	-43.1	-49.3	7.3	1.15e+00	3	58	0	1048576	54	8957
2026-01-22 09:17:41.48	132.22	16.99	-42.2	-47.5	7.7	2.61e-01	4	58	0	3145728	49	9695
2026-01-22 09:17:42.49	132.14	17.10	-30.2	-48.1	4.0	1.51e+00	0	58	104	3145728	37	20557
2026-01-22 09:17:43.50	132.05	17.21	-36.2	-53.9	3.9	1.51e+00	0	58	104	3145728	49	20211
2026-01-22 09:17:44.51	131.97	17.32	-39.1	-49.5	4.2	1.51e+00	0	58	104	3145728	35	27104
2026-01-22 09:17:45.52	131.89	17.44	-41.0	-57.6	3.8	1.51e+00	0	58	104	3145728	57	19543
2026-01-22 09:17:46.53	131.81	17.55	-41.9	-55.3	4.2	1.50e+00	0	58	104	3145728	43	33424
2026-01-22 09:17:47.54	131.72	17.66	-41.2	-45.9	5.3	1.44e+00	0	58	104	3145728	53	6361
2026-01-22 09:17:48.55	131.64	17.77	-43.7	-54.3	4.6	8.00e-01	14	58	0	4194304	59	11927
2026-01-22 09:17:49.56	131.55	17.89	-39.3	-45.9	9.4	6.88e-01	0	58	0	5242880	50	7628
2026-01-22 09:17:50.57	131.47	18.00	-40.0	-46.7	9.0	1.04e-01	0	58	0	6291456	51	7813
2026-01-22 09:17:51.58	131.38	18.12	-41.3	-46.0	10.4	9.28e-02	0	58	0	8388608	49	8089
2026-01-22 09:17:52.59	131.29	18.23	-41.6	-45.6	11.7	2.08e-02	0	58	0	9437184	53	6132
2026-01-22 09:17:53.60	131.20	18.35	-38.8	-45.4	11.6	6.31e-03	0	58	0	11534336	53	6045
2026-01-22 09:17:54.61	131.11	18.46	-41.2	-45.6	12.0	1.52e-02	0	58	0	13631488	53	6186
2026-01-22 09:17:55.62	131.03	18.58	-40.1	-45.6	9.3	3.91e-02	0	58	0	15728640	50	7370
2026-01-22 09:17:56.63	130.93	18.70	-41.8	-46.0	11.8	2.06e-02	0	58	0	17825792	54	6077
2026-01-22 09:17:57.64	130.84	18.81	-42.1	-46.2	11.7	3.12e-02	0	58	0	18874368	54	6254
2026-01-22 09:17:58.65	130.75	18.93	-41.4	-46.2	11.5	1.66e-02	0	58	0	20971520	54	6219
2026-01-22 09:17:59.66	130.66	19.05	-42.0	-46.2	11.6	1.06e-02	0	58	0	23068672	54	6229
2026-01-22 09:18:00.66	130.57	19.17	-41.2	-46.2	11.3	4.22e-03	0	58	0	25165824	54	6241
2026-01-22 09:18:01.67	130.47	19.29	-42.0	-46.0	12.0	3.00e-03	0	58	0	27262976	54	6112
2026-01-22 09:18:02.68	130.38	19.40	-42.0	-45.9	11.9	3.71e-03	0	58	0	28311552	54	6045
2026-01-22 09:18:03.69	130.28	19.52	-41.9	-46.0	11.8	7.24e-03	0	58	0	30408704	54	6099
2026-01-22 09:18:04.70	130.19	19.65	-42.1	-46.2	11.8	1.72e-03	0	58	0	32505856	54	6243
2026-01-22 09:18:05.72	130.09	19.77	-42.2	-46.4	11.7	3.28e-03	0	58	0	34603008	55	6046
2026-01-22 09:18:06.72	129.99	19.89	-42.3	-46.7	11.4	8.81e-04	0	58	0	36700160	55	6225
2026-01-22 09:18:07.73	129.90	20.01	-42.3	-46.7	11.4	1.35e-03	0	59	0	38797312	55	6227
2026-01-22 09:18:08.74	129.80	20.13	-42.3	-46.7	11.4	1.14e-03	0	58	0	39845888	55	6206
2026-01-22 09:18:09.75	129.70	20.26	-42.1	-46.4	11.7	8.67e-04	0	58	0	41943040	55	6003
2026-01-22 09:18:10.76	129.59	20.38	-42.2	-46.4	11.6	6.61e-04	0	58	0	44040192	55	6050
2026-01-22 09:18:11.77	129.49	20.50	-42.2	-46.5	11.7	6.17e-04	0	58	0	46137344	55	6062
2026-01-22 09:18:12.78	129.39	20.63	-42.2	-46.3	11.8	5.42e-04	0	58	0	48234496	55	5970
2026-01-22 09:18:13.79	129.29	20.75	-42.3	-46.6	11.4	1.44e-03	0	58	0	49283072	55	6174
2026-01-22 09:18:14.80	129.18	20.88	-42.3	-46.8	11.3	1.03e-03	0	58	0	51380224	55	6291
2026-01-22 09:18:15.81	129.08	21.01	-42.4	-46.9	11.3	1.18e-03	0	58	0	53477376	55	6362
2026-01-22 09:18:16.82	128.97	21.13	-42.4	-46.8	11.3	1.32e-03	0	58	0	55574528	55	6298
2026-01-22 09:18:17.83	128.86	21.26	-42.3	-46.7	11.5	8.95e-04	0	58	0	57671680	55	6219
2026-01-22 09:18:18.83	128.76	21.39	-42.3	-46.7	11.4	9.20e-04	0	59	0	58720256	55	6259
2026-01-22 09:18:19.84	128.65	21.52	-42.2	-46.8	11.3	1.04e-03	0	58	0	60817408	55	6308
2026-01-22 09:18:20.85	128.54	21.64	-42.2	-46.7	11.5	9.12e-04	0	58	0	62914560	55	6229
2026-01-22 09:18:21.86	128.43	21.77	-42.4	-46.8	11.4	9.62e-04	0	58	0	65011712	55	6322
2026-01-22 09:18:22.87	128.32	21.90	-42.4	-46.8	11.4	1.18e-03	0	59	0	67108864	55	6332
2026-01-22 09:18:23.88	128.20	22.04	-42.4	-46.8	11.4	9.33e-04	0	59	0	68157440	55	6276
2026-01-22 09:18:24.89	128.09	22.17	-42.4	-46.7	11.4	1.02e-03	0	59	0	70254592	55	6263
2026-01-22 09:18:25.90	127.98	22.30	-42.4	-46.8	11.4	9.86e-04	0	59	0	72351744	55	6311
2026-01-22 09:18:26.91	127.86	22.43	-42.4	-46.8	11.4	8.99e-04	0	59	0	74448896	55	6297
2026-01-22 09:18:27.92	127.74	22.56	-42.4	-46.7	11.5	7.36e-04	0	59	0	76546048	55	6248
2026-01-22 09:18:28.93	127.63	22.70	-42.4	-46.7	11.5	7.29e-04	0	59	0	77594624	55	6248
2026-01-22 09:18:29.94	127.51	22.83	-42.5	-46.9	11.4	8.44e-04	0	59	0	79691776	55	6356
2026-01-22 09:18:30.94	127.39	22.96	-42.4	-46.6	11.6	8.36e-04	0	59	0	81788928	55	6200
2026-01-22 09:18:31.95	127.27	23.10	-42.4	-46.7	11.5	8.06e-04	0	59	0	83886080	55	6261
2026-01-22 09:18:32.96	127.15	23.23	-42.4	-46.7	11.5	9.96e-04	0	59	0	85983232	55	6239
2026-01-22 09:18:33.97	127.02	23.37	-42.4	-46.6	11.6	6.91e-04	0	59	0	87031808	55	6184
2026-01-22 09:18:34.98	126.90	23.51	-42.5	-46.8	11.5	7.42e-04	0	59	0	89128960	55	6283
2026-01-22 09:18:35.99	126.78	23.65	-42.5	-46.9	11.3	1.02e-03	0	59	0	91226112	55	6365
2026-01-22 09:18:37.00	126.65	23.78	-42.5	-46.8	11.4	1.05e-03	0	59	0	93323264	55	6330
2026-01-22 09:18:38.01	126.52	23.92	-42.5	-46.9	11.4	9.95e-04	0	59	0	95420416	55	6362
2026-01-22 09:18:39.02	126.39	24.06	-42.4	-46.7	11.5	7.52e-04	0	59	0	96468992	55	6269
2026-01-22 09:18:40.03	126.26	24.20	-42.4	-46.7	11.6	7.89e-04	0	59	0	98566144	55	6227
2026-01-22 09:18:41.04	126.13	24.34	-42.4	-46.8	11.5	9.00e-04	0	59	0	100663296	55	6281
2026-01-22 09:18:42.05	126.00	24.48	-42.5	-46.8	11.5	7.15e-04	0	59	0	102760448	55	6283
2026-01-22 09:18:43.06	125.87	24.62	-42.6	-47.0	11.3	8.60e-04	0	59	0	104857600	55	6462
2026-01-22 09:18:44.07	125.73	24.77	-42.5	-46.9	11.4	1.12e-03	0	59	0	106954752	55	6411
2026-01-22 09:18:45.07	125.60	24.91	-42.5	-46.8	11.5	9.53e-04	0	59	0	108003328	55	6293
2026-01-22 09:18:46.08	125.46	25.05	-42.4	-46.6	11.7	6.66e-04	0	59	0	110100480	55	6140
2026-01-22 09:18:47.10	125.32	25.20	-42.4	-46.6	11.7	4.71e-04	0	59	0	112197632	55	6138
2026-01-22 09:18:48.11	125.18	25.34	-42.4	-46.6	11.7	5.32e-04	0	59	0	114294784	55	6154
2026-01-22 09:18:49.12	125.04	25.49	-42.5	-46.8	11.5	6.04e-04	0	59	0	116391936	55	6283
2026-01-22 09:18:50.12	124.90	25.63	-42.6	-47.0	11.3	9.30e-04	0	59	0	117440512	55	6469
2026-01-22 09:18:51.13	124.76	25.78	-42.6	-47.1	11.2	1.31e-03	0	59	0	119537664	55	6565
2026-01-22 09:18:52.14	124.61	25.92	-42.6	-47.1	11.2	1.23e-03	0	59	0	121634816	55	6564
2026-01-22 09:18:53.15	124.47	26.07	-42.6	-47.0	11.3	1.17e-03	0	59	0	123731968	55	6460
2026-01-22 09:18:54.16	124.32	26.22	-42.5	-46.9	11.4	1.01e-03	0	59	0	125829120	55	6375
2026-01-22 09:18:55.17	124.17	26.37	-42.6	-46.9	11.4	1.04e-03	0	59	0	126877696	55	6385
2026-01-22 09:18:56.18	124.02	26.52	-42.6	-47.0	11.3	1.12e-03	0	59	0	128974848	55	6452
2026-01-22 09:18:57.19	123.87	26.67	-42.6	-47.0	11.2	1.43e-03	0	59	0	131072000	55	6487
2026-01-22 09:18:58.20	123.72	26.82	-42.6	-47.1	11.2	1.44e-03	0	59	0	133169152	55	6561
2026-01-22 09:18:59.21	123.56	26.97	-42.6	-47.1	11.2	1.37e-03	0	59	0	135266304	55	6501
2026-01-22 09:19:00.22	123.41	27.12	-42.6	-47.0	11.3	1.19e-03	0	59	0	136314880	55	6459
2026-01-22 09:19:01.23	123.25	27.27	-42.6	-47.0	11.3	1.17e-03	0	59	0	138412032	55	6493
2026-01-22 09:19:02.24	123.09	27.42	-42.5	-46.8	11.5	1.09e-03	0	59	0	140509184	55	6334
2026-01-22 09:19:03.24	122.93	27.58	-42.6	-47.0	11.4	9.18e-04	0	59	0	142606336	55	6421
2026-01-22 09:19:04.25	122.77	27.73	-42.5	-46.7	11.6	6.95e-04	0	59	0	144703488	55	6235
2026-01-22 09:19:05.26	122.60	27.89	-42.4	-46.6	11.7	5.39e-04	0	59	0	145752064	55	6185
2026-01-22 09:19:06.27	122.44	28.04	-42.6	-46.8	11.5	6.74e-04	0	59	0	147849216	55	6345
2026-01-22 09:19:07.28	122.27	28.20	-42.7	-47.1	11.3	1.27e-03	0	59	0	149946368	55	6511
2026-01-22 09:19:08.29	122.10	28.35	-42.9	-47.5	11.1	1.50e-03	0	59	0	152043520	56	6429
2026-01-22 09:19:09.30	121.93	28.51	-42.8	-47.3	11.2	1.53e-03	0	59	0	154140672	56	6304
2026-01-22 09:19:10.31	121.76	28.67	-42.8	-47.2	11.4	1.18e-03	0	59	0	155189248	56	6203
2026-01-22 09:19:11.32	121.58	28.83	-42.8	-47.2	11.3	1.11e-03	0	59	0	157286400	56	6259
2026-01-22 09:19:12.33	121.41	28.99	-42.8	-47.3	11.3	1.19e-03	0	59	0	159383552	56	6306
2026-01-22 09:19:13.34	121.23	29.15	-42.8	-47.3	11.3	1.17e-03	0	59	0	161480704	56	6287
2026-01-22 09:19:14.35	121.05	29.31	-42.9	-47.3	11.2	1.28e-03	0	59	0	163577856	56	6326
2026-01-22 09:19:15.36	120.87	29.47	-42.8	-47.2	11.4	1.30e-03	0	59	0	164626432	56	6218
2026-01-22 09:19:16.37	120.69	29.63	-42.8	-47.1	11.5	9.74e-04	0	59	0	166723584	56	6173
2026-01-22 09:19:17.38	120.50	29.79	-42.8	-47.2	11.3	1.12e-03	0	59	0	168820736	56	6270
2026-01-22 09:19:18.39	120.32	29.95	-42.9	-47.3	11.2	1.28e-03	0	59	0	170917888	56	6325
2026-01-22 09:19:19.40	120.13	30.11	-43.0	-47.6	10.8	1.77e-03	0	59	0	173015040	56	6560
2026-01-22 09:19:20.40	119.94	30.28	-43.1	-47.9	10.6	2.90e-03	0	59	0	175112192	56	6743
2026-01-22 09:19:21.41	119.75	30.44	-43.1	-47.9	10.6	3.20e-03	0	59	0	176160768	56	6749
2026-01-22 09:19:22.42	119.55	30.61	-43.1	-48.0	10.5	3.69e-03	0	59	0	178257920	56	6840
2026-01-22 09:19:23.43	119.36	30.77	-43.3	-48.3	10.2	5.01e-03	0	59	0	180355072	57	6702
2026-01-22 09:19:24.44	119.16	30.94	-43.3	-48.5	10.0	7.48e-03	0	59	0	182452224	57	6826
2026-01-22 09:19:25.45	118.96	31.10	-43.4	-48.7	9.7	8.97e-03	0	59	0	184549376	57	7020
2026-01-22 09:19:26.46	118.75	31.27	-43.4	-48.8	9.6	1.25e-02	0	59	0	185597952	57	7080
2026-01-22 09:19:27.47	118.55	31.44	-43.4	-48.8	9.6	1.26e-02	0	59	0	187695104	57	7061
2026-01-22 09:19:28.48	118.34	31.61	-43.4	-48.7	9.7	1.25e-02	0	59	0	189792256	57	7021
2026-01-22 09:19:29.49	118.13	31.77	-43.5	-48.9	9.6	1.04e-02	0	59	0	191889408	57	7124
2026-01-22 09:19:30.50	117.92	31.94	-43.5	-49.1	9.4	1.54e-02	0	59	0	193986560	57	7320
2026-01-22 09:19:31.51	117.71	32.11	-43.6	-49.2	9.2	1.98e-02	0	59	0	195035136	57	7438
2026-01-22 09:19:32.52	117.49	32.28	-43.6	-49.3	9.1	2.13e-02	0	59	0	197132288	57	7514
2026-01-22 09:19:33.53	117.27	32.45	-43.5	-49.1	9.2	2.05e-02	0	59	0	199229440	57	7368
2026-01-22 09:19:34.54	117.05	32.63	-43.4	-48.9	9.6	1.32e-02	0	59	0	201326592	57	7138
2026-01-22 09:19:35.55	116.83	32.80	-43.5	-48.9	9.5	1.48e-02	0	59	0	203423744	57	7176
2026-01-22 09:19:36.56	116.61	32.97	-43.5	-48.9	9.6	1.51e-02	0	59	0	204472320	57	7132
2026-01-22 09:19:37.57	116.38	33.14	-43.5	-49.0	9.4	1.64e-02	0	59	0	206569472	57	7255
2026-01-22 09:19:38.58	116.15	33.31	-43.5	-48.9	9.6	1.59e-02	0	59	0	208666624	57	7175
2026-01-22 09:19:39.59	115.91	33.49	-43.4	-48.6	9.9	9.11e-03	0	59	0	210763776	57	6885
2026-01-22 09:19:40.60	115.68	33.66	-43.4	-48.6	9.8	8.89e-03	0	59	0	212860928	57	6939
2026-01-22 09:19:41.61	115.44	33.84	-43.4	-48.8	9.6	9.13e-03	0	59	0	213909504	57	7071
2026-01-22 09:19:42.62	115.20	34.01	-43.5	-49.0	9.4	1.58e-02	0	59	0	216006656	57	7225
2026-01-22 09:19:43.63	114.96	34.19	-43.5	-48.9	9.6	1.45e-02	0	59	0	218103808	57	7146
2026-01-22 09:19:44.64	114.71	34.36	-43.4	-48.7	9.7	1.27e-02	0	59	0	220200960	57	7021
2026-01-22 09:19:45.65	114.47	34.54	-43.3	-48.5	10.1	9.53e-03	0	59	0	222298112	57	6818
2026-01-22 09:19:46.65	114.22	34.71	-43.4	-48.7	9.7	9.17e-03	0	59	0	223346688	57	7032
2026-01-22 09:19:47.66	113.96	34.89	-43.5	-48.9	9.5	1.24e-02	0	59	0	225443840	57	7197
2026-01-22 09:19:48.67	113.71	35.07	-43.3	-48.4	10.0	1.12e-02	0	59	0	227540992	57	6781
2026-01-22 09:19:49.68	113.45	35.24	-43.3	-48.4	10.0	7.34e-03	0	59	0	229638144	57	6801
2026-01-22 09:19:50.69	113.19	35.42	-43.4	-48.6	9.9	7.90e-03	0	59	0	231735296	57	6922
2026-01-22 09:19:51.70	112.92	35.60	-43.4	-48.7	9.8	9.96e-03	0	59	0	232783872	57	6999
2026-01-22 09:19:52.71	112.65	35.78	-43.4	-48.6	9.9	9.19e-03	0	59	0	234881024	57	6900
2026-01-22 09:19:53.72	112.38	35.96	-43.3	-48.4	10.0	7.48e-03	0	59	0	236978176	57	6801
2026-01-22 09:19:54.73	112.11	36.13	-43.3	-48.3	10.3	6.68e-03	0	59	0	239075328	57	6662
2026-01-22 09:19:55.74	111.83	36.31	-43.2	-48.1	10.4	6.63e-03	0	59	0	241172480	57	6569
2026-01-22 09:19:56.75	111.55	36.49	-43.3	-48.3	10.2	4.80e-03	0	59	0	242221056	57	6660
2026-01-22 09:19:57.76	111.27	36.67	-43.2	-48.2	10.3	5.09e-03	0	59	0	244318208	57	6606
2026-01-22 09:19:58.77	110.98	36.85	-43.2	-48.2	10.4	4.85e-03	0	59	0	246415360	57	6593
2026-01-22 09:19:59.78	110.69	37.03	-43.1	-47.9	10.6	3.59e-03	0	59	0	248512512	57	6391
2026-01-22 09:20:00.79	110.40	37.21	-43.1	-47.9	10.7	3.42e-03	0	59	0	250609664	57	6353
2026-01-22 09:20:01.80	110.10	37.39	-43.2	-48.0	10.5	3.63e-03	0	59	0	251658240	57	6425
2026-01-22 09:20:02.80	109.81	37.57	-43.1	-47.9	10.7	3.58e-03	0	59	0	253755392	57	6375
2026-01-22 09:20:03.81	109.50	37.75	-43.1	-47.9	10.6	3.81e-03	0	59	0	255852544	57	6416
2026-01-22 09:20:04.82	109.20	37.93	-43.1	-47.8	10.8	3.35e-03	0	59	0	257949696	57	6277
2026-01-22 09:20:05.83	108.89	38.11	-43.0	-47.7	10.9	2.28e-03	0	59	0	260046848	57	6248
2026-01-22 09:20:06.84	108.58	38.29	-43.0	-47.6	11.0	2.07e-03	0	59	0	261095424	57	6196
2026-01-22 09:20:07.85	108.26	38.47	-43.0	-47.6	11.0	1.94e-03	0	59	0	263192576	57	6190
2026-01-22 09:20:08.86	107.94	38.65	-43.1	-47.7	10.9	2.04e-03	0	59	0	265289728	57	6223
2026-01-22 09:20:09.87	107.62	38.83	-43.2	-48.0	10.6	2.62e-03	0	59	0	267386880	57	6456
2026-01-22 09:20:10.88	107.29	39.01	-43.2	-48.0	10.6	3.46e-03	0	59	0	269484032	57	6465
2026-01-22 09:20:11.89	106.96	39.19	-43.1	-47.7	10.9	2.53e-03	0	59	0	271581184	57	6224
2026-01-22 09:20:12.90	106.63	39.37	-43.1	-47.8	10.7	2.03e-03	0	59	0	272629760	57	6334
2026-01-22 09:20:13.91	106.29	39.55	-43.2	-47.9	10.7	3.12e-03	0	59	0	274726912	57	6385
2026-01-22 09:20:14.92	105.95	39.73	-43.3	-48.4	10.2	4.70e-03	0	59	0	276824064	57	6758
2026-01-22 09:20:15.93	105.60	39.91	-43.4	-48.5	10.1	7.59e-03	0	59	0	278921216	57	6821
2026-01-22 09:20:16.94	105.25	40.09	-43.3	-48.4	10.1	6.49e-03	0	59	0	281018368	57	6760
2026-01-22 09:20:17.95	104.90	40.26	-43.4	-48.5	10.1	7.78e-03	0	59	0	282066944	57	6837
2026-01-22 09:20:18.96	104.54	40.44	-43.3	-48.3	10.2	6.13e-03	0	59	0	284164096	57	6701
2026-01-22 09:20:19.97	104.18	40.62	-43.3	-48.3	10.3	5.23e-03	0	59	0	286261248	57	6683
2026-01-22 09:20:20.98	103.81	40.80	-43.3	-48.4	10.2	5.87e-03	0	59	0	288358400	57	6747
2026-01-22 09:20:21.98	103.45	40.97	-43.6	-49.0	9.6	1.06e-02	0	59	0	290455552	57	7218
2026-01-22 09:20:22.99	103.07	41.15	-43.6	-49.0	9.5	1.39e-02	0	59	0	291504128	57	7281
2026-01-22 09:20:24.00	102.70	41.32	-43.6	-49.0	9.6	1.34e-02	0	59	0	293601280	57	7254
2026-01-22 09:20:25.01	102.32	41.50	-43.6	-48.9	9.6	1.35e-02	0	59	0	295698432	57	7194
2026-01-22 09:20:26.02	101.93	41.67	-43.5	-48.9	9.6	1.17e-02	0	59	0	297795584	57	7187
2026-01-22 09:20:27.03	101.54	41.85	-43.5	-48.8	9.8	1.20e-02	0	59	0	299892736	57	7090
2026-01-22 09:20:28.04	101.15	42.02	-43.4	-48.6	10.0	8.68e-03	0	59	0	300941312	57	6889
2026-01-22 09:20:29.05	100.75	42.19	-43.5	-48.6	10.0	7.51e-03	0	59	0	303038464	57	6959
2026-01-22 09:20:30.06	100.35	42.36	-43.5	-48.6	10.0	7.30e-03	0	59	0	305135616	57	6921
2026-01-22 09:20:31.06	99.94	42.53	-43.4	-48.5	10.2	7.37e-03	0	59	0	307232768	57	6803
2026-01-22 09:20:32.07	99.53	42.70	-43.4	-48.5	10.1	6.63e-03	0	59	0	309329920	57	6865
2026-01-22 09:20:33.08	99.12	42.87	-43.3	-48.1	10.5	5.09e-03	0	59	0	310378496	57	6533
2026-01-22 09:20:34.10	98.69	43.04	-43.0	-47.4	11.2	2.14e-03	0	59	0	312475648	57	6052
2026-01-22 09:20:35.10	98.27	43.20	-42.9	-47.2	11.5	7.67e-04	0	59	0	314572800	57	5877
2026-01-22 09:20:36.12	97.84	43.37	-42.8	-47.0	11.7	6.43e-04	0	59	0	316669952	57	5726
2026-01-22 09:20:37.13	97.40	43.54	-42.6	-46.5	12.2	3.17e-04	0	59	0	318767104	57	5424
2026-01-22 09:20:38.14	96.97	43.70	-42.5	-46.3	12.5	2.21e-04	0	59	0	319815680	56	5624
2026-01-22 09:20:39.14	96.53	43.86	-42.2	-45.8	13.0	6.79e-05	0	59	0	321912832	56	5303
2026-01-22 09:20:40.15	96.08	44.02	-42.2	-45.7	13.0	2.67e-05	0	59	0	324009984	56	5242
2026-01-22 09:20:41.16	95.63	44.18	-42.2	-45.8	12.9	3.28e-05	0	59	0	326107136	56	5325
2026-01-22 09:20:42.17	95.17	44.34	-42.4	-46.2	12.6	7.85e-05	0	59	0	328204288	56	5536
2026-01-22 09:20:43.18	94.71	44.50	-42.5	-46.4	12.4	1.43e-04	0	59	0	329252864	56	5659
2026-01-22 09:20:44.19	94.25	44.65	-42.5	-46.3	12.4	2.20e-04	0	59	0	331350016	56	5640
2026-01-22 09:20:45.20	93.78	44.81	-42.5	-46.4	12.4	1.27e-04	0	59	0	333447168	56	5659
2026-01-22 09:20:46.21	93.31	44.96	-42.5	-46.4	12.4	1.27e-04	0	60	0	335544320	56	5694
2026-01-22 09:20:47.22	92.83	45.11	-42.6	-46.5	12.3	1.74e-04	0	59	0	337641472	56	5759
2026-01-22 09:20:48.23	92.34	45.26	-42.5	-46.4	12.4	1.86e-04	0	59	0	339738624	56	5690
2026-01-22 09:20:49.24	91.86	45.41	-42.4	-46.2	12.6	1.58e-04	0	59	0	340787200	56	5580
2026-01-22 09:20:50.25	91.36	45.55	-42.3	-46.0	12.8	8.08e-05	0	59	0	342884352	56	5412
2026-01-22 09:20:51.26	90.87	45.70	-42.4	-46.0	12.8	5.56e-05	0	59	0	344981504	56	5452
2026-01-22 09:20:52.27	90.37	45.84	-42.5	-46.4	12.4	8.08e-05	0	59	0	347078656	56	5660
2026-01-22 09:20:53.28	89.86	45.98	-42.8	-46.9	11.9	2.07e-04	0	59	0	349175808	56	6012
2026-01-22 09:20:54.29	89.35	46.12	-43.1	-47.6	11.1	1.10e-03	0	59	0	350224384	56	6552
2026-01-22 09:20:55.30	88.84	46.25	-43.2	-48.0	10.7	2.16e-03	0	60	0	352321536	57	6453
2026-01-22 09:20:56.30	88.32	46.38	-43.3	-48.2	10.6	3.20e-03	0	60	0	354418688	57	6586
2026-01-22 09:20:57.31	87.80	46.51	-43.3	-48.2	10.5	3.83e-03	0	60	0	356515840	57	6614
2026-01-22 09:20:58.32	87.27	46.64	-43.4	-48.3	10.4	4.44e-03	0	59	0	358612992	57	6677
2026-01-22 09:20:59.33	86.74	46.77	-43.4	-48.4	10.3	5.09e-03	0	59	0	359661568	57	6801
2026-01-22 09:21:00.34	86.20	46.90	-43.5	-48.5	10.2	5.74e-03	0	59	0	361758720	57	6845
2026-01-22 09:21:01.35	85.66	47.02	-43.5	-48.6	10.0	5.55e-03	0	59	0	363855872	57	6956
2026-01-22 09:21:02.36	85.12	47.14	-43.6	-48.9	9.8	7.86e-03	0	59	0	365953024	57	7163
2026-01-22 09:21:03.37	84.57	47.25	-43.7	-49.1	9.6	9.38e-03	0	59	0	368050176	57	7356
2026-01-22 09:21:04.38	84.01	47.37	-43.8	-49.5	9.2	1.86e-02	0	59	0	369098752	58	7247
2026-01-22 09:21:05.39	83.46	47.48	-43.9	-49.6	9.1	2.28e-02	0	59	0	371195904	58	7329
2026-01-22 09:21:06.40	82.90	47.59	-43.8	-49.3	9.3	1.98e-02	0	59	0	373293056	58	7115
2026-01-22 09:21:07.41	82.33	47.70	-43.9	-49.6	9.1	1.89e-02	0	59	0	375390208	58	7307
2026-01-22 09:21:08.42	81.76	47.80	-44.0	-50.1	8.6	2.93e-02	0	59	0	377487360	58	7764
2026-01-22 09:21:09.43	81.19	47.90	-44.1	-50.3	8.4	4.36e-02	0	59	0	378535936	58	7928
2026-01-22 09:21:10.44	80.61	48.00	-44.0	-50.1	8.6	4.03e-02	0	59	0	380633088	58	7765
2026-01-22 09:21:11.45	80.03	48.09	-44.1	-50.4	8.2	4.74e-02	0	59	0	382730240	58	8033
2026-01-22 09:21:12.46	79.45	48.19	-44.3	-51.2	7.6	7.58e-02	0	59	0	384827392	59	8279
2026-01-22 09:21:13.47	78.86	48.27	-44.3	-51.0	7.7	8.77e-02	0	59	0	386924544	59	8142
2026-01-22 09:21:14.47	78.28	48.36	-44.2	-50.6	8.1	8.47e-02	0	59	0	387973120	59	7772
2026-01-22 09:21:15.48	77.68	48.44	-43.9	-49.7	9.0	4.12e-02	0	60	0	390070272	59	7013
2026-01-22 09:21:16.49	77.09	48.52	-43.8	-49.3	9.4	1.94e-02	0	60	0	392167424	59	6674
2026-01-22 09:21:17.50	76.49	48.60	-43.7	-49.0	9.7	1.29e-02	0	59	0	394264576	59	6470
2026-01-22 09:21:18.51	75.89	48.67	-43.7	-49.1	9.7	8.57e-03	0	59	0	396361728	59	6497
2026-01-22 09:21:19.52	75.28	48.74	-43.6	-48.8	9.9	9.79e-03	0	59	0	397410304	59	6319
2026-01-22 09:21:20.53	74.67	48.81	-43.7	-49.1	9.6	1.02e-02	0	59	0	399507456	59	6522
2026-01-22 09:21:21.54	74.06	48.87	-43.7	-48.9	9.8	9.73e-03	0	59	0	401604608	59	6384
2026-01-22 09:21:22.55	73.45	48.93	-43.6	-48.8	9.9	8.89e-03	0	59	0	403701760	59	6309
2026-01-22 09:21:23.56	72.83	48.98	-43.6	-48.8	9.9	8.56e-03	0	59	0	405798912	59	6310
2026-01-22 09:21:24.57	72.22	49.04	-43.6	-48.8	9.9	1.01e-02	0	59	0	407896064	59	6288
2026-01-22 09:21:25.58	71.60	49.09	-43.4	-48.4	10.4	7.43e-03	0	59	0	408944640	58	6348
2026-01-22 09:21:26.59	70.98	49.13	-43.4	-48.1	10.7	3.33e-03	0	59	0	411041792	58	6164
2026-01-22 09:21:27.60	70.35	49.17	-43.3	-48.0	10.9	2.28e-03	0	59	0	413138944	58	6064
2026-01-22 09:21:28.61	69.73	49.21	-43.4	-48.1	10.8	2.98e-03	0	59	0	415236096	58	6146
2026-01-22 09:21:29.62	69.10	49.25	-43.3	-47.8	10.9	2.75e-03	0	60	0	417333248	58	5984
2026-01-22 09:21:30.62	68.48	49.28	-43.2	-47.8	11.1	1.71e-03	0	59	0	418381824	58	5933
2026-01-22 09:21:31.63	67.85	49.30	-43.3	-48.0	10.8	2.37e-03	0	59	0	420478976	58	6071
2026-01-22 09:21:32.64	67.22	49.33	-43.4	-48.1	10.7	3.75e-03	0	59	0	422576128	58	6161
2026-01-22 09:21:33.65	66.59	49.35	-43.4	-48.0	10.8	2.73e-03	0	59	0	424673280	58	6114
2026-01-22 09:21:34.66	65.96	49.36	-43.3	-47.8	11.0	2.06e-03	0	59	0	426770432	58	5970
2026-01-22 09:21:35.67	65.33	49.38	-43.2	-47.6	11.3	1.57e-03	0	59	0	427819008	58	5791
2026-01-22 09:21:36.68	64.70	49.38	-43.2	-47.6	11.2	1.19e-03	0	59	0	429916160	58	5817
2026-01-22 09:21:37.69	64.07	49.39	-43.2	-47.8	11.1	1.53e-03	0	60	0	432013312	58	5934
2026-01-22 09:21:38.70	63.43	49.39	-43.3	-48.0	10.7	2.47e-03	0	59	0	434110464	58	6115
2026-01-22 09:21:39.71	62.80	49.39	-43.4	-48.3	10.5	3.40e-03	0	59	0	436207616	58	6276
2026-01-22 09:21:40.72	62.17	49.38	-43.4	-48.1	10.7	2.83e-03	0	59	0	437256192	58	6177
2026-01-22 09:21:41.73	61.54	49.37	-43.3	-48.0	10.8	2.71e-03	0	59	0	439353344	58	6066
2026-01-22 09:21:42.74	60.91	49.36	-43.2	-47.7	11.1	2.06e-03	0	59	0	441450496	58	5923
2026-01-22 09:21:43.75	60.27	49.34	-43.2	-47.8	11.0	1.66e-03	0	59	0	443547648	58	5926
2026-01-22 09:21:44.76	59.64	49.32	-43.2	-47.7	11.0	1.78e-03	0	60	0	445644800	58	5919
2026-01-22 09:21:45.77	59.02	49.29	-43.3	-47.9	10.9	1.93e-03	0	60	0	446693376	58	6050
2026-01-22 09:21:46.78	58.39	49.26	-43.2	-47.8	11.0	2.05e-03	0	60	0	448790528	58	5972
2026-01-22 09:21:47.79	57.76	49.23	-43.2	-47.6	11.1	1.48e-03	0	59	0	450887680	58	5844
2026-01-22 09:21:48.79	57.14	49.20	-43.2	-47.7	11.1	1.61e-03	0	60	0	452984832	58	5858
2026-01-22 09:21:49.80	56.52	49.16	-43.2	-47.7	11.1	1.62e-03	0	60	0	455081984	58	5860
2026-01-22 09:21:50.81	55.90	49.11	-43.1	-47.5	11.3	1.20e-03	0	60	0	456130560	58	5770
2026-01-22 09:21:51.82	55.28	49.07	-43.2	-47.6	11.1	1.50e-03	0	60	0	458227712	58	5836
2026-01-22 09:21:52.83	54.66	49.02	-43.2	-47.6	11.2	1.39e-03	0	60	0	460324864	58	5833
2026-01-22 09:21:53.84	54.04	48.96	-43.3	-47.8	11.0	1.97e-03	0	60	0	462422016	58	5971
2026-01-22 09:21:54.85	53.43	48.91	-43.4	-48.1	10.7	2.18e-03	0	60	0	464519168	58	6165
2026-01-22 09:21:55.86	52.82	48.85	-43.2	-47.7	11.1	1.89e-03	0	60	0	465567744	58	5914
2026-01-22 09:21:56.87	52.21	48.78	-43.1	-47.5	11.3	1.65e-03	0	59	0	467664896	58	5751
2026-01-22 09:21:57.88	51.60	48.71	-43.1	-47.4	11.4	1.14e-03	0	59	0	469762048	58	5690
2026-01-22 09:21:58.89	51.00	48.64	-43.2	-47.6	11.2	1.07e-03	0	59	0	471859200	58	5814
2026-01-22 09:21:59.90	50.40	48.57	-43.3	-47.8	10.9	1.96e-03	0	60	0	473956352	58	5967
2026-01-22 09:22:00.91	49.80	48.49	-43.3	-47.9	10.9	2.10e-03	0	60	0	476053504	58	5996
2026-01-22 09:22:01.92	49.21	48.41	-43.2	-47.7	11.1	1.83e-03	0	60	0	477102080	58	5904
2026-01-22 09:22:02.93	48.62	48.33	-43.3	-48.1	10.7	2.07e-03	0	60	0	479199232	58	6135
2026-01-22 09:22:03.94	48.03	48.24	-43.3	-48.0	10.8	3.48e-03	0	60	0	481296384	58	6079
2026-01-22 09:22:04.95	47.44	48.15	-43.4	-48.2	10.5	3.51e-03	0	60	0	483393536	58	6269
2026-01-22 09:22:05.96	46.86	48.06	-43.4	-48.3	10.4	4.49e-03	0	59	0	485490688	58	6293
2026-01-22 09:22:06.97	46.28	47.96	-43.5	-48.5	10.2	5.91e-03	0	60	0	486539264	58	6430
2026-01-22 09:22:07.97	45.71	47.87	-43.4	-48.2	10.5	4.96e-03	0	60	0	488636416	58	6253
2026-01-22 09:22:08.98	45.14	47.76	-43.4	-48.3	10.4	4.00e-03	0	60	0	490733568	58	6305
2026-01-22 09:22:09.99	44.58	47.66	-43.4	-48.3	10.4	4.08e-03	0	60	0	492830720	58	6300
2026-01-22 09:22:11.00	44.02	47.55	-43.4	-48.3	10.4	5.73e-03	0	60	0	494927872	58	6276
2026-01-22 09:22:12.02	43.45	47.44	-43.5	-48.6	10.1	6.30e-03	0	60	0	495976448	58	6529
2026-01-22 09:22:13.03	42.90	47.33	-43.6	-48.8	9.9	9.79e-03	0	60	0	498073600	58	6670
2026-01-22 09:22:14.03	42.35	47.21	-43.5	-48.6	10.0	7.88e-03	0	59	0	500170752	58	6568
2026-01-22 09:22:15.04	41.80	47.10	-43.5	-48.6	10.1	7.46e-03	0	60	0	502267904	58	6522
2026-01-22 09:22:16.05	41.26	46.98	-43.5	-48.4	10.1	6.06e-03	0	60	0	504365056	58	6398
2026-01-22 09:22:17.06	40.72	46.85	-43.5	-48.5	10.1	6.66e-03	0	60	0	505413632	58	6439
2026-01-22 09:22:18.07	40.19	46.73	-43.4	-48.1	10.6	4.88e-03	0	60	0	507510784	58	6178
2026-01-22 09:22:19.08	39.66	46.60	-43.2	-47.8	10.8	2.63e-03	0	60	0	509607936	58	5979
2026-01-22 09:22:20.09	39.14	46.47	-43.2	-47.7	11.0	2.21e-03	0	60	0	511705088	58	5879
2026-01-22 09:22:21.10	38.62	46.34	-43.1	-47.6	11.1	1.95e-03	0	60	0	513802240	58	5844
2026-01-22 09:22:22.11	38.10	46.21	-43.0	-47.3	11.3	1.51e-03	0	60	0	514850816	58	5652
2026-01-22 09:22:23.12	37.59	46.07	-43.0	-47.3	11.3	1.06e-03	0	60	0	516947968	58	5644
2026-01-22 09:22:24.13	37.08	45.93	-43.1	-47.5	11.1	1.24e-03	0	60	0	519045120	58	5769
2026-01-22 09:22:25.14	36.58	45.79	-43.0	-47.3	11.3	1.01e-03	0	59	0	521142272	57	5968
2026-01-22 09:22:26.15	36.08	45.65	-43.0	-47.4	11.3	1.02e-03	0	60	0	523239424	57	5993
2026-01-22 09:22:27.16	35.58	45.50	-42.9	-47.2	11.5	9.96e-04	0	60	0	524288000	57	5890
2026-01-22 09:22:28.17	35.10	45.36	-43.0	-47.3	11.4	8.80e-04	0	60	0	526385152	57	5941
2026-01-22 09:22:29.18	34.61	45.21	-42.9	-47.1	11.5	8.35e-04	0	60	0	528482304	57	5809
2026-01-22 09:22:30.19	34.13	45.06	-42.7	-46.8	11.8	5.37e-04	0	60	0	530579456	57	5619
2026-01-22 09:22:31.20	33.65	44.91	-42.7	-46.8	11.9	4.00e-04	0	60	0	532676608	57	5626
2026-01-22 09:22:32.20	33.19	44.76	-42.7	-46.7	11.9	3.65e-04	0	60	0	533725184	57	5584
2026-01-22 09:22:33.21	32.72	44.61	-42.7	-46.8	11.9	4.23e-04	0	60	0	535822336	57	5612
2026-01-22 09:22:34.22	32.26	44.45	-42.8	-46.8	11.8	4.55e-04	0	59	0	537919488	57	5649
2026-01-22 09:22:35.23	31.80	44.29	-42.8	-46.9	11.8	5.30e-04	0	60	0	540016640	57	5710
2026-01-22 09:22:36.24	31.35	44.14	-42.8	-46.9	11.8	4.86e-04	0	60	0	542113792	57	5674
2026-01-22 09:22:37.25	30.90	43.98	-42.7	-46.8	11.8	4.08e-04	0	60	0	544210944	57	5612
2026-01-22 09:22:38.26	30.46	43.81	-42.8	-46.8	11.8	3.75e-04	0	60	0	545259520	57	5629
2026-01-22 09:22:39.27	30.02	43.65	-42.9	-47.2	11.5	7.31e-04	0	60	0	547356672	57	5858
2026-01-22 09:22:40.28	29.58	43.49	-43.0	-47.4	11.2	8.86e-04	0	60	0	549453824	57	6002
2026-01-22 09:22:41.29	29.15	43.32	-42.9	-47.2	11.5	1.23e-03	0	60	0	551550976	57	5873
2026-01-22 09:22:42.30	28.73	43.16	-42.9	-47.1	11.6	7.15e-04	0	60	0	553648128	57	5819
2026-01-22 09:22:43.31	28.30	42.99	-42.8	-47.1	11.6	7.71e-04	0	60	0	554696704	57	5794
2026-01-22 09:22:44.32	27.89	42.83	-42.8	-47.0	11.6	7.93e-04	0	60	0	556793856	57	5766
2026-01-22 09:22:45.33	27.47	42.66	-42.8	-47.0	11.6	7.00e-04	0	60	0	558891008	57	5744
2026-01-22 09:22:46.34	27.07	42.49	-42.8	-46.9	11.8	5.39e-04	0	59	0	560988160	57	5692
2026-01-22 09:22:47.35	26.66	42.32	-42.6	-46.6	12.1	3.45e-04	0	60	0	563085312	57	5478
2026-01-22 09:22:48.36	26.26	42.15	-42.6	-46.5	12.2	2.39e-04	0	60	0	564133888	57	5440
2026-01-22 09:22:49.37	25.87	41.97	-42.5	-46.4	12.3	2.21e-04	0	60	0	566231040	57	5360
2026-01-22 09:22:50.38	25.48	41.80	-42.6	-46.6	12.0	2.46e-04	0	60	0	568328192	57	5512
2026-01-22 09:22:51.39	25.09	41.63	-42.7	-46.8	11.9	4.45e-04	0	60	0	570425344	57	5595
2026-01-22 09:22:52.40	24.71	41.45	-42.8	-47.0	11.7	5.20e-04	0	60	0	572522496	57	5740
2026-01-22 09:22:53.41	24.33	41.28	-42.8	-47.0	11.6	6.83e-04	0	60	0	573571072	57	5760
2026-01-22 09:22:54.42	23.95	41.10	-42.8	-47.0	11.6	7.43e-04	0	60	0	575668224	57	5763
2026-01-22 09:22:55.43	23.58	40.93	-42.9	-47.2	11.4	8.01e-04	0	60	0	577765376	57	5870
2026-01-22 09:22:56.44	23.22	40.75	-43.0	-47.5	11.1	1.09e-03	0	60	0	579862528	57	6063
2026-01-22 09:22:57.44	22.86	40.58	-43.1	-47.6	10.9	1.79e-03	0	60	0	581959680	57	6197
2026-01-22 09:22:58.45	22.50	40.40	-43.2	-48.0	10.5	3.11e-03	0	60	0	583008256	57	6453
2026-01-22 09:22:59.46	22.14	40.22	-43.3	-48.2	10.4	3.88e-03	0	60	0	585105408	57	6604
2026-01-22 09:23:00.47	21.79	40.05	-43.4	-48.4	10.1	6.35e-03	0	60	0	587202560	57	6782
2026-01-22 09:23:01.48	21.45	39.87	-43.5	-48.7	9.8	9.04e-03	0	60	0	589299712	57	7024
2026-01-22 09:23:02.49	21.10	39.69	-43.5	-48.8	9.7	1.16e-02	0	60	0	591396864	57	7090
2026-01-22 09:23:03.50	20.76	39.51	-43.6	-49.0	9.6	1.20e-02	0	59	0	592445440	57	7210
2026-01-22 09:23:04.51	20.43	39.33	-43.7	-49.2	9.3	1.76e-02	0	60	0	594542592	57	7399
2026-01-22 09:23:05.52	20.10	39.15	-43.7	-49.2	9.2	2.06e-02	0	60	0	596639744	58	7037
2026-01-22 09:23:06.53	19.77	38.98	-43.6	-49.0	9.6	1.84e-02	0	60	0	598736896	58	6809
2026-01-22 09:23:07.54	19.44	38.80	-43.5	-48.7	9.9	1.13e-02	0	60	0	600834048	58	6628
2026-01-22 09:23:08.55	19.12	38.62	-43.5	-48.7	9.8	9.05e-03	0	60	0	601882624	58	6580
2026-01-22 09:23:09.56	18.80	38.44	-43.6	-49.1	9.4	1.23e-02	0	60	0	603979776	58	6902
2026-01-22 09:23:10.57	18.49	38.26	-43.7	-49.4	9.0	2.01e-02	0	60	0	606076928	58	7178
2026-01-22 09:23:11.58	18.18	38.08	-43.7	-49.4	9.1	2.35e-02	0	60	0	608174080	58	7130
2026-01-22 09:23:12.59	17.87	37.90	-43.6	-49.1	9.4	1.78e-02	0	60	0	610271232	58	6898
2026-01-22 09:23:13.60	17.57	37.72	-43.6	-49.0	9.5	1.60e-02	0	60	0	611319808	58	6863
2026-01-22 09:23:14.61	17.27	37.54	-43.7	-49.3	9.2	1.98e-02	0	60	0	613416960	58	7073
2026-01-22 09:23:15.62	16.97	37.36	-43.8	-49.7	8.8	2.78e-02	0	60	0	615514112	58	7444
2026-01-22 09:23:16.63	16.68	37.18	-43.8	-49.6	8.8	2.97e-02	0	60	0	617611264	58	7363
2026-01-22 09:23:17.64	16.39	37.00	-43.8	-49.6	8.8	3.01e-02	0	60	0	619708416	58	7358
2026-01-22 09:23:18.65	16.10	36.83	-43.9	-49.9	8.5	3.26e-02	0	60	0	621805568	58	7627
2026-01-22 09:23:19.66	15.82	36.65	-43.9	-50.0	8.5	4.24e-02	0	60	0	622854144	58	7668
2026-01-22 09:23:20.67	15.54	36.47	-43.8	-49.6	8.9	3.01e-02	0	60	0	624951296	58	7307
2026-01-22 09:23:21.68	15.26	36.29	-43.7	-49.4	9.1	2.45e-02	0	60	0	627048448	58	7130
2026-01-22 09:23:22.69	14.98	36.11	-43.7	-49.2	9.2	1.98e-02	0	60	0	629145600	58	7015
2026-01-22 09:23:23.70	14.71	35.93	-43.8	-49.6	8.8	2.24e-02	0	60	0	630194176	58	7313
2026-01-22 09:23:24.71	14.44	35.76	-43.7	-49.5	8.9	2.69e-02	0	60	0	632291328	58	7223
2026-01-22 09:23:25.72	14.18	35.58	-43.7	-49.3	9.1	2.39e-02	0	60	0	634388480	58	7100
2026-01-22 09:23:26.72	13.92	35.40	-43.7	-49.4	9.1	2.00e-02	0	60	0	636485632	58	7158
2026-01-22 09:23:27.73	13.66	35.23	-43.7	-49.5	9.0	2.52e-02	0	60	0	638582784	58	7231
2026-01-22 09:23:28.74	13.40	35.05	-43.7	-49.4	9.0	2.49e-02	0	60	0	640679936	58	7150
2026-01-22 09:23:29.75	13.15	34.87	-43.6	-49.2	9.2	2.85e-02	0	60	0	641728512	58	7033
2026-01-22 09:23:30.76	12.90	34.70	-43.5	-48.9	9.5	1.50e-02	0	60	0	643825664	58	6789
2026-01-22 09:23:31.77	12.65	34.52	-43.5	-48.8	9.6	1.31e-02	0	60	0	645922816	58	6711
2026-01-22 09:23:32.78	12.40	34.35	-43.6	-49.0	9.4	1.38e-02	0	60	0	648019968	58	6842
2026-01-22 09:23:33.79	12.16	34.17	-43.6	-49.1	9.2	1.88e-02	0	60	0	650117120	58	6925
2026-01-22 09:23:34.80	11.92	34.00	-43.6	-49.2	9.2	1.81e-02	0	60	0	651165696	58	7017
2026-01-22 09:23:35.81	11.68	33.83	-43.6	-49.1	9.3	2.05e-02	0	60	0	653262848	58	6939
2026-01-22 09:23:36.82	11.44	33.65	-43.5	-48.7	9.7	1.29e-02	0	60	0	655360000	58	6643
2026-01-22 09:23:37.83	11.21	33.48	-43.4	-48.5	9.9	1.03e-02	0	60	0	657457152	58	6470
2026-01-22 09:23:38.84	10.98	33.31	-43.3	-48.3	10.2	7.90e-03	0	60	0	659554304	58	6275
2026-01-22 09:23:39.85	10.75	33.14	-43.3	-48.2	10.2	7.12e-03	0	60	0	660602880	58	6263
2026-01-22 09:23:40.85	10.53	32.97	-43.3	-48.1	10.3	5.32e-03	0	60	0	662700032	58	6182
2026-01-22 09:23:41.86	10.30	32.79	-43.3	-48.2	10.2	4.88e-03	0	60	0	664797184	58	6258
2026-01-22 09:23:42.87	10.08	32.62	-43.3	-48.3	10.1	6.49e-03	0	60	0	666894336	58	6326
2026-01-22 09:23:43.88	9.86	32.45	-43.4	-48.5	9.9	8.12e-03	0	60	0	668991488	58	6483
2026-01-22 09:23:44.90	9.64	32.28	-43.4	-48.7	9.8	1.02e-02	0	60	0	670040064	58	6571
2026-01-22 09:23:45.90	9.43	32.11	-43.5	-48.9	9.5	1.25e-02	0	60	0	672137216	58	6729
2026-01-22 09:23:46.91	9.22	31.95	-43.5	-48.8	9.6	1.55e-02	0	60	0	674234368	58	6678
2026-01-22 09:23:47.92	9.01	31.78	-43.5	-48.9	9.5	1.44e-02	0	60	0	676331520	58	6754
2026-01-22 09:23:48.93	8.80	31.61	-43.3	-48.7	9.7	1.21e-02	0	60	0	678428672	58	6605
2026-01-22 09:23:49.95	8.60	31.44	-43.4	-48.8	9.6	1.19e-02	0	60	0	679477248	58	6672
2026-01-22 09:23:50.96	8.39	31.27	-43.4	-48.6	9.8	1.21e-02	0	60	0	681574400	58	6517
2026-01-22 09:23:51.96	8.19	31.11	-43.4	-48.7	9.7	1.12e-02	0	60	0	683671552	58	6603
2026-01-22 09:23:52.97	8.00	30.95	-43.5	-48.8	9.6	1.32e-02	0	60	0	685768704	58	6687
2026-01-22 09:23:53.98	7.80	30.78	-43.5	-48.8	9.5	1.40e-02	0	60	0	687865856	58	6720
2026-01-22 09:23:55.00	7.60	30.61	-43.5	-48.9	9.5	1.53e-02	0	60	0	688914432	58	6726
2026-01-22 09:23:56.00	7.41	30.45	-43.5	-49.0	9.3	1.51e-02	0	60	0	691011584	58	6876
2026-01-22 09:23:57.01	7.22	30.29	-43.5	-48.9	9.4	1.67e-02	0	60	0	693108736	58	6777
2026-01-22 09:23:58.02	7.03	30.13	-43.4	-48.8	9.6	1.49e-02	0	60	0	695205888	58	6682
2026-01-22 09:23:59.03	6.84	29.96	-43.5	-48.9	9.5	1.63e-02	0	60	0	697303040	58	6730
2026-01-22 09:24:00.04	6.66	29.80	-43.5	-49.0	9.4	1.60e-02	0	60	0	698351616	58	6818
2026-01-22 09:24:01.05	6.48	29.64	-43.5	-49.1	9.2	1.92e-02	0	60	0	700448768	58	6893
2026-01-22 09:24:02.06	6.29	29.48	-43.5	-49.0	9.3	1.75e-02	0	60	0	702545920	58	6828
2026-01-22 09:24:03.07	6.11	29.32	-43.5	-48.9	9.4	1.68e-02	0	60	0	704643072	58	6745
2026-01-22 09:24:04.08	5.94	29.16	-43.3	-48.5	9.8	1.05e-02	0	60	0	706740224	58	6446
2026-01-22 09:24:05.09	5.76	29.00	-43.2	-48.3	10.1	8.57e-03	0	60	0	708837376	58	6298
2026-01-22 09:24:06.09	5.59	28.85	-43.1	-48.0	10.4	5.03e-03	0	60	0	709885952	58	6089
2026-01-22 09:24:07.10	5.42	28.69	-43.1	-47.9	10.5	4.57e-03	0	60	0	711983104	58	6002
2026-01-22 09:24:08.11	5.25	28.53	-43.1	-47.8	10.5	3.76e-03	0	60	0	714080256	58	5963
2026-01-22 09:24:09.12	5.08	28.38	-43.1	-48.0	10.4	3.93e-03	0	60	0	716177408	58	6074
2026-01-22 09:24:10.13	4.91	28.22	-43.1	-47.9	10.4	4.39e-03	0	60	0	718274560	58	6061
2026-01-22 09:24:11.14	4.74	28.07	-43.1	-48.0	10.3	4.82e-03	0	60	0	719323136	58	6111
2026-01-22 09:24:12.15	4.58	27.91	-43.1	-48.0	10.3	5.06e-03	0	60	0	721420288	58	6127
2026-01-22 09:24:13.16	4.42	27.76	-43.1	-47.9	10.4	5.41e-03	0	60	0	723517440	58	6049
2026-01-22 09:24:14.17	4.26	27.61	-43.0	-47.7	10.7	3.68e-03	0	60	0	725614592	58	5863
2026-01-22 09:24:15.18	4.10	27.45	-42.9	-47.7	10.7	2.70e-03	0	60	0	727711744	57	6203
2026-01-22 09:24:16.19	3.94	27.30	-43.0	-47.7	10.6	3.68e-03	0	60	0	728760320	57	6219
2026-01-22 09:24:17.20	3.78	27.15	-43.0	-47.7	10.6	3.26e-03	0	60	0	730857472	57	6240
2026-01-22 09:24:18.21	3.63	27.00	-43.0	-47.8	10.5	3.67e-03	0	60	0	732954624	57	6325
2026-01-22 09:24:19.22	3.47	26.85	-43.0	-47.7	10.6	4.05e-03	0	60	0	735051776	57	6260
2026-01-22 09:24:20.23	3.32	26.70	-42.9	-47.6	10.7	2.92e-03	0	60	0	737148928	57	6169
2026-01-22 09:24:21.24	3.17	26.55	-42.8	-47.4	10.9	2.43e-03	0	60	0	738197504	57	6041
2026-01-22 09:24:22.25	3.02	26.40	-42.9	-47.4	10.8	2.24e-03	0	60	0	740294656	57	6061
2026-01-22 09:24:23.26	2.87	26.25	-42.8	-47.3	11.1	1.86e-03	0	60	0	742391808	57	5932
2026-01-22 09:24:24.26	2.73	26.11	-42.7	-47.2	11.0	1.65e-03	0	60	0	744488960	57	5900
2026-01-22 09:24:25.27	2.59	25.96	-42.7	-47.2	11.1	1.81e-03	0	60	0	746586112	57	5859
2026-01-22 09:24:26.28	2.44	25.82	-42.7	-47.2	11.1	1.63e-03	0	60	0	747634688	57	5859
2026-01-22 09:24:27.29	2.30	25.67	-42.7	-47.1	11.2	1.47e-03	0	60	0	749731840	57	5799
2026-01-22 09:24:28.30	2.16	25.52	-42.7	-47.1	11.2	1.37e-03	0	60	0	751828992	57	5802
2026-01-22 09:24:29.31	2.02	25.38	-42.6	-46.9	11.3	1.23e-03	0	60	0	753926144	57	5720
2026-01-22 09:24:30.32	1.88	25.24	-42.7	-47.1	11.2	1.23e-03	0	60	0	756023296	57	5797
2026-01-22 09:24:31.33	1.74	25.09	-42.7	-47.1	11.2	1.32e-03	0	60	0	757071872	57	5794
2026-01-22 09:24:32.34	1.61	24.95	-42.7	-47.2	11.1	1.60e-03	0	60	0	759169024	57	5856
2026-01-22 09:24:33.35	1.47	24.81	-42.8	-47.3	10.9	2.16e-03	0	60	0	761266176	57	5972
2026-01-22 09:24:34.36	1.34	24.67	-42.8	-47.4	10.8	2.32e-03	0	60	0	763363328	57	6024
2026-01-22 09:24:35.37	1.21	24.53	-42.8	-47.5	10.7	2.85e-03	0	60	0	765460480	57	6092
2026-01-22 09:24:36.38	1.08	24.39	-42.8	-47.6	10.6	2.96e-03	0	60	0	766509056	57	6140
2026-01-22 09:24:37.39	0.95	24.25	-42.8	-47.5	10.7	3.07e-03	0	60	0	768606208	57	6084
2026-01-22 09:24:38.40	0.82	24.11	-42.8	-47.4	10.7	3.02e-03	0	60	0	770703360	57	6059
2026-01-22 09:24:39.41	0.69	23.97	-42.7	-47.3	10.8	2.59e-03	0	60	0	772800512	57	5983
2026-01-22 09:24:40.41	0.57	23.83	-42.7	-47.3	10.9	2.48e-03	0	60	0	774897664	57	5963
2026-01-22 09:24:41.42	0.44	23.70	-42.8	-47.4	10.7	2.43e-03	0	60	0	776994816	57	6016
2026-01-22 09:24:42.43	0.32	23.56	-42.7	-47.3	10.8	2.70e-03	0	60	0	778043392	57	5967
2026-01-22 09:24:43.44	0.20	23.42	-42.6	-47.1	11.0	2.01e-03	0	60	0	780140544	57	5841
2026-01-22 09:24:44.45	0.08	23.29	-42.6	-47.0	11.1	1.64e-03	0	60	0	782237696	57	5782
2026-01-22 09:24:45.46	359.96	23.15	-42.6	-47.1	11.0	1.64e-03	0	60	0	784334848	57	5804
2026-01-22 09:24:46.47	359.84	23.02	-42.6	-47.0	11.1	1.62e-03	0	60	0	786432000	57	5765
2026-01-22 09:24:47.48	359.72	22.89	-42.5	-46.9	11.1	1.44e-03	0	60	0	787480576	57	5722
2026-01-22 09:24:48.49	359.60	22.75	-42.5	-47.0	11.1	1.61e-03	0	60	0	789577728	57	5736
2026-01-22 09:24:49.50	359.48	22.62	-42.6	-47.1	11.0	1.78e-03	0	60	0	791674880	57	5795
2026-01-22 09:24:50.51	359.37	22.49	-42.5	-47.1	11.0	1.91e-03	0	60	0	793772032	57	5793
2026-01-22 09:24:51.52	359.25	22.36	-42.6	-47.2	10.8	2.32e-03	0	60	0	795869184	57	5871
2026-01-22 09:24:52.53	359.14	22.23	-42.6	-47.2	10.8	2.55e-03	0	60	0	796917760	57	5866
2026-01-22 09:24:53.54	359.03	22.10	-42.5	-47.1	10.8	2.48e-03	0	60	0	799014912	57	5845
2026-01-22 09:24:54.55	358.92	21.97	-42.5	-47.1	10.8	2.55e-03	0	60	0	801112064	57	5829
2026-01-22 09:24:55.56	358.81	21.84	-42.5	-47.2	10.6	2.91e-03	0	60	0	803209216	57	5921
2026-01-22 09:24:56.57	358.70	21.71	-42.5	-47.2	10.7	3.14e-03	0	60	0	805306368	57	5874
2026-01-22 09:24:57.58	358.59	21.58	-42.5	-47.2	10.7	3.32e-03	0	60	0	806354944	57	5887
2026-01-22 09:24:58.58	358.48	21.45	-42.5	-47.2	10.6	3.36e-03	0	60	0	808452096	57	5892
2026-01-22 09:24:59.59	358.38	21.33	-42.5	-47.2	10.6	3.73e-03	0	60	0	810549248	56	6255
2026-01-22 09:25:00.59	358.27	21.20	-42.4	-47.2	10.6	3.27e-03	0	60	0	812646400	56	6205
2026-01-22 09:25:01.60	358.17	21.07	-42.4	-47.3	10.4	4.08e-03	0	60	0	814743552	56	6307
2026-01-22 09:25:02.61	358.06	20.95	-42.3	-47.1	10.5	4.38e-03	0	60	0	815792128	56	6168
2026-01-22 09:25:03.62	357.96	20.82	-42.3	-47.1	10.4	3.66e-03	0	60	0	817889280	56	6160
2026-01-22 09:25:04.63	357.86	20.70	-42.3	-47.3	10.2	5.91e-03	0	60	0	819986432	56	6317
2026-01-22 09:25:05.64	357.75	20.57	-42.3	-47.4	10.0	6.95e-03	0	60	0	822083584	56	6351
2026-01-22 09:25:06.65	357.65	20.45	-42.2	-47.3	10.1	7.93e-03	0	60	0	824180736	56	6295
2026-01-22 09:25:07.66	357.55	20.33	-42.2	-47.3	9.9	8.55e-03	0	60	0	825229312	56	6319
2026-01-22 09:25:08.67	357.46	20.21	-42.2	-47.3	9.9	9.20e-03	0	60	0	827326464	56	6318
2026-01-22 09:25:09.68	357.36	20.08	-42.1	-47.3	9.8	1.02e-02	0	60	0	829423616	56	6275
2026-01-22 09:25:10.68	357.26	19.96	-42.1	-47.3	9.7	9.77e-03	0	60	0	831520768	56	6341
2026-01-22 09:25:11.70	357.16	19.84	-42.1	-47.5	9.5	1.34e-02	0	60	0	833617920	56	6441
2026-01-22 09:25:12.71	357.07	19.72	-42.0	-47.4	9.5	1.36e-02	0	60	0	834666496	56	6358
2026-01-22 09:25:13.72	356.97	19.60	-42.0	-47.5	9.4	1.52e-02	0	60	0	836763648	56	6454
2026-01-22 09:25:14.72	356.88	19.48	-41.8	-47.3	9.3	1.80e-02	0	60	0	838860800	55	6671
2026-01-22 09:25:15.73	356.79	19.36	-41.7	-47.2	9.3	1.61e-02	0	60	0	840957952	55	6637
2026-01-22 09:25:16.74	356.69	19.24	-41.7	-47.3	9.1	2.01e-02	0	60	0	843055104	55	6701
2026-01-22 09:25:17.76	356.60	19.13	-41.7	-47.4	8.9	2.56e-02	0	60	0	845152256	55	6780
2026-01-22 09:25:18.76	356.51	19.01	-41.7	-47.6	8.6	3.38e-02	0	60	0	846200832	55	6952
2026-01-22 09:25:19.77	356.42	18.89	-41.7	-48.0	8.1	4.69e-02	0	60	0	848297984	55	7280
2026-01-22 09:25:20.78	356.33	18.78	-41.8	-48.5	7.5	7.61e-02	0	60	0	850395136	55	7707
2026-01-22 09:25:21.79	356.24	18.66	-41.8	-49.0	6.9	1.45e-01	0	60	0	852492288	55	8159
2026-01-22 09:25:22.80	356.15	18.54	-41.8	-49.9	6.1	2.31e-01	0	60	0	854589440	55	8969
2026-01-22 09:25:23.81	356.06	18.43	-41.8	-50.6	5.5	3.82e-01	0	60	0	855638016	55	9739
2026-01-22 09:25:24.82	355.98	18.31	-41.8	-51.0	5.1	5.79e-01	0	60	0	857735168	55	10264
2026-01-22 09:25:25.83	355.89	18.20	-41.7	-51.7	4.7	7.76e-01	0	60	0	859832320	55	11144
2026-01-22 09:25:26.84	355.81	18.09	-41.6	-53.8	3.8	1.04e+00	0	60	104	860880896	55	14207
2026-01-22 09:25:27.84	355.72	17.97	-42.6	-55.0	3.8	1.37e+00	0	60	104	860880896	55	16302
2026-01-22 09:25:28.85	355.64	17.86	-41.3	-55.7	3.8	1.49e+00	0	60	104	860880896	54	18553
2026-01-22 09:25:29.86	355.55	17.75	-42.4	-54.5	4.0	1.49e+00	0	60	104	860880896	55	15240
2026-01-22 09:25:30.87	355.47	17.64	-42.0	-54.2	3.8	1.49e+00	0	60	104	860880896	55	14820
2026-01-22 09:25:31.88	355.39	17.52	-41.9	-54.3	3.8	1.48e+00	0	60	104	860880896	55	14934
2026-01-22 09:25:32.89	355.31	17.41	-41.8	-54.5	3.8	1.48e+00	0	60	104	860880896	55	15401
2026-01-22 09:25:33.90	355.22	17.30	-41.5	-55.2	3.8	1.49e+00	0	60	104	860880896	55	16677
2026-01-22 09:25:34.91	355.14	17.19	-42.0	-55.7	3.8	1.49e+00	0	60	104	860880896	54	18586
2026-01-22 09:25:35.92	355.06	17.08	-40.9	-55.6	3.8	1.49e+00	0	60	104	860880896	53	19418
2026-01-22 09:25:36.93	354.99	16.97	-41.1	-55.7	3.8	1.49e+00	0	60	104	860880896	53	19618
2026-01-22 09:25:37.94	354.91	16.86	-41.6	-56.0	3.8	1.49e+00	0	60	104	860880896	53	20382
2026-01-22 09:25:38.95	354.83	16.76	-41.0	-55.5	3.8	1.49e+00	0	60	104	860880896	53	19376
2026-01-22 09:25:39.96	354.75	16.65	-41.5	-55.8	3.8	1.49e+00	0	60	104	860880896	53	19856
2026-01-22 09:25:40.97	354.67	16.54	-40.9	-55.5	3.8	1.49e+00	0	60	104	860880896	53	19252
2026-01-22 09:25:41.98	354.60	16.43	-41.3	-55.9	3.8	1.49e+00	0	60	104	860880896	53	20199
2026-01-22 09:25:42.99	354.52	16.33	-40.8	-55.4	3.8	1.49e+00	0	60	104	860880896	53	18995
2026-01-22 09:25:44.00	354.45	16.22	-41.1	-55.6	3.8	1.49e+00	0	60	104	860880896	53	19600
2026-01-22 09:25:45.01	354.37	16.11	-40.8	-55.3	3.8	1.49e+00	0	60	104	860880896	53	18940
2026-01-22 09:25:46.01	354.30	16.01	-41.0	-55.6	3.8	1.49e+00	0	60	104	860880896	53	19530
2026-01-22 09:25:47.02	354.22	15.90	-40.7	-55.2	3.8	1.49e+00	0	60	104	860880896	53	18675
2026-01-22 09:25:48.03	354.15	15.80	-41.0	-55.6	3.8	1.49e+00	0	60	104	860880896	53	19429
2026-01-22 09:25:49.04	354.08	15.69	-40.7	-55.3	3.8	1.49e+00	0	60	104	860880896	53	18909
2026-01-22 09:25:50.05	354.01	15.59	-40.8	-55.5	3.8	1.49e+00	0	60	104	860880896	53	19177
2026-01-22 09:25:51.06	353.94	15.49	-40.6	-55.2	3.8	1.49e+00	0	60	104	860880896	53	18652
2026-01-22 09:25:52.07	353.87	15.38	-40.9	-55.5	3.8	1.49e+00	0	60	104	860880896	53	19383
2026-01-22 09:25:53.08	353.79	15.28	-40.7	-55.3	3.8	1.49e+00	0	60	104	860880896	53	18854
2026-01-22 09:25:54.09	353.72	15.18	-40.8	-55.4	3.8	1.49e+00	0	60	104	860880896	53	19077
2026-01-22 09:25:55.10	353.66	15.08	-40.7	-55.2	3.8	1.49e+00	0	60	104	860880896	53	18728
2026-01-22 09:25:56.11	353.59	14.97	-40.8	-55.4	3.8	1.49e+00	0	60	104	860880896	53	19034
2026-01-22 09:25:57.12	353.52	14.87	-40.8	-55.3	3.8	1.49e+00	0	60	104	860880896	53	18890
2026-01-22 09:25:58.13	353.45	14.77	-40.8	-55.4	3.8	1.49e+00	0	60	104	860880896	53	19007
2026-01-22 09:25:59.14	353.38	14.67	-40.8	-55.3	3.8	1.49e+00	0	60	104	860880896	53	18881
2026-01-22 09:26:00.15	353.32	14.57	-40.7	-55.3	3.8	1.49e+00	0	60	104	860880896	53	18792
2026-01-22 09:26:01.16	353.25	14.47	-40.8	-55.3	3.8	1.49e+00	0	60	104	860880896	53	18929
2026-01-22 09:26:02.17	353.18	14.37	-40.7	-55.3	3.8	1.49e+00	0	60	104	860880896	53	18751
2026-01-22 09:26:03.17	353.12	14.27	-40.8	-55.4	3.8	1.49e+00	0	60	104	860880896	53	19003
2026-01-22 09:26:04.18	353.05	14.18	-40.6	-55.2	3.8	1.49e+00	0	60	104	860880896	53	18610
2026-01-22 09:26:05.19	352.99	14.08	-40.8	-55.4	3.8	1.49e+00	0	60	104	860880896	53	19008
2026-01-22 09:26:06.20	352.92	13.98	-40.6	-55.2	3.8	1.49e+00	0	60	104	860880896	53	18582
2026-01-22 09:26:07.21	352.86	13.88	-40.8	-55.4	3.8	1.49e+00	0	60	104	860880896	53	18979
2026-01-22 09:26:08.22	352.80	13.78	-40.6	-55.2	3.8	1.49e+00	0	60	104	860880896	53	18651
2026-01-22 09:26:09.23	352.73	13.69	-40.9	-55.4	3.8	1.49e+00	0	60	104	860880896	53	19110
2026-01-22 09:26:10.24	352.67	13.59	-40.6	-55.2	3.8	1.49e+00	0	60	104	860880896	53	18559
2026-01-22 09:26:11.25	352.61	13.50	-40.8	-55.3	3.8	1.49e+00	0	60	104	860880896	53	18844
2026-01-22 09:26:12.26	352.55	13.40	-40.7	-55.3	3.8	1.49e+00	0	60	104	860880896	53	18788
2026-01-22 09:26:13.26	352.49	13.30	-40.9	-55.4	3.8	1.49e+00	0	60	104	860880896	53	19159
2026-01-22 09:26:14.27	352.43	13.21	-40.6	-55.2	3.8	1.49e+00	0	60	104	860880896	53	18606
2026-01-22 09:26:15.28	352.37	13.11	-40.7	-55.3	3.8	1.49e+00	0	60	104	860880896	53	18766
2026-01-22 09:26:16.29	352.31	13.02	-40.9	-55.4	3.8	1.49e+00	0	60	104	860880896	53	19013
2026-01-22 09:26:17.30	352.25	12.93	-40.8	-55.4	3.8	1.49e+00	0	60	104	860880896	53	19061
2026-01-22 09:26:18.31	352.19	12.83	-40.7	-55.3	3.8	1.49e+00	0	60	104	860880896	53	18744
2026-01-22 09:26:19.32	352.13	12.74	-40.7	-55.2	3.8	1.49e+00	0	60	104	860880896	53	18678
2026-01-22 09:26:20.33	352.07	12.65	-40.9	-55.4	3.8	1.49e+00	0	60	104	860880896	53	19051
2026-01-22 09:26:21.34	352.01	12.55	-40.7	-55.3	3.8	1.49e+00	0	60	104	860880896	53	18784
2026-01-22 09:26:22.35	351.96	12.46	-40.8	-55.3	3.8	1.49e+00	0	60	104	860880896	53	18902
2026-01-22 09:26:23.36	351.90	12.37	-40.7	-55.2	3.8	1.49e+00	0	60	104	860880896	53	18679
2026-01-22 09:26:24.37	351.84	12.28	-40.8	-55.3	3.8	1.49e+00	0	60	104	860880896	53	18871
2026-01-22 09:26:25.38	351.79	12.18	-40.7	-55.2	3.8	1.49e+00	0	60	104	860880896	53	18715
2026-01-22 09:26:26.39	351.73	12.09	-40.8	-55.3	3.8	1.49e+00	0	60	104	860880896	53	18889
2026-01-22 09:26:27.40	351.67	12.00	-40.7	-55.3	3.8	1.49e+00	0	60	104	860880896	53	18784
