passes_logs/2026/01/22/R2.0S_Moscow/R2.0S_Moscow__20260122_100419_NOAA_21_JPSS-2_rec.log

#Pass ID: 20260122_100419_NOAA 21 (JPSS-2)
#Satellite: NOAA 21 (JPSS-2)
#Configuration: NOAA-21
#almurnet v.1.7.20251203
#Start time: 2026-01-22 10:05:46

#Version: 2.2.20231116
#Station: R2.0S_Moscow
#Location: 37.707566 lon 55.798166 lat
#TLE: 1 54234U 22150A   26021.42686626  .00000211  00000+0  12107-3 0  9996
#TLE: 2 54234  98.7506 322.2490 0000636 241.9299 118.1812 14.19537149165725

#Time	Az	El	Level	Level2	SNR	BER	BlckErr	Temp	State	Recorded	gain1	gain2
2026-01-22 10:05:46.59	165.97	8.28	-45.0	-56.7	3.8	8.46e-01	0	60	0	0	60	14871
2026-01-22 10:05:47.58	165.98	8.36	-45.5	-57.9	3.8	1.49e+00	0	60	104	0	62	15148
2026-01-22 10:05:48.59	165.99	8.44	-45.5	-57.9	3.8	1.49e+00	0	60	104	0	62	15097
2026-01-22 10:05:49.60	166.00	8.52	-45.5	-57.9	3.8	1.49e+00	0	60	104	0	62	15112
2026-01-22 10:05:50.61	166.02	8.61	-45.5	-57.9	3.8	1.49e+00	0	60	104	0	62	15107
2026-01-22 10:05:51.63	166.03	8.69	-45.4	-57.9	3.8	1.49e+00	0	60	104	0	62	15068
2026-01-22 10:05:52.64	166.04	8.77	-45.4	-57.8	3.8	1.49e+00	0	60	104	0	62	14963
2026-01-22 10:05:53.65	166.06	8.86	-45.3	-57.7	3.8	1.49e+00	0	60	104	0	62	14879
2026-01-22 10:05:54.66	166.07	8.94	-45.2	-57.6	3.8	1.49e+00	0	60	104	0	62	14672
2026-01-22 10:05:55.67	166.08	9.03	-45.1	-57.5	3.8	1.49e+00	0	60	104	0	62	14538
2026-01-22 10:05:56.68	166.10	9.11	-44.9	-57.3	3.8	1.49e+00	0	60	104	0	61	14990
2026-01-22 10:05:57.69	166.11	9.20	-44.7	-57.0	3.8	1.49e+00	0	60	104	0	61	14517
2026-01-22 10:05:58.70	166.12	9.28	-44.7	-56.9	3.8	1.49e+00	0	60	104	0	61	14340
2026-01-22 10:05:59.71	166.14	9.37	-44.6	-56.8	3.8	1.49e+00	0	60	104	0	61	14119
2026-01-22 10:06:00.72	166.15	9.45	-44.6	-56.7	3.8	1.49e+00	0	60	104	0	61	13966
2026-01-22 10:06:01.73	166.17	9.54	-44.6	-56.5	3.8	1.49e+00	0	60	104	0	61	13691
2026-01-22 10:06:02.74	166.18	9.63	-44.5	-56.1	3.8	1.49e+00	0	60	104	0	61	13025
2026-01-22 10:06:03.75	166.19	9.71	-44.5	-56.0	3.8	1.49e+00	0	60	104	0	61	12874
2026-01-22 10:06:04.76	166.21	9.80	-44.5	-55.7	3.8	1.49e+00	0	60	104	0	61	12473
2026-01-22 10:06:05.77	166.22	9.89	-44.5	-55.0	3.9	1.49e+00	0	60	104	0	60	12198
2026-01-22 10:06:06.78	166.24	9.97	-44.4	-54.5	4.0	1.49e+00	0	60	104	0	60	11545
2026-01-22 10:06:07.80	166.25	10.06	-44.4	-54.3	3.9	1.47e+00	0	60	104	0	60	11211
2026-01-22 10:06:08.81	166.26	10.15	-44.3	-53.6	4.2	1.47e+00	0	60	104	0	60	10394
2026-01-22 10:06:09.82	166.28	10.24	-44.2	-53.2	4.3	1.46e+00	0	60	104	0	60	9933
2026-01-22 10:06:10.83	166.29	10.33	-44.2	-52.9	4.4	1.42e+00	0	60	104	0	60	9577
2026-01-22 10:06:11.84	166.31	10.42	-44.1	-52.4	4.6	1.22e+00	0	60	104	0	60	9042
2026-01-22 10:06:12.85	166.32	10.51	-44.1	-52.8	4.0	1.20e+00	2	60	104	0	60	9392
2026-01-22 10:06:13.86	166.34	10.60	-44.0	-51.9	4.8	1.33e+00	0	60	104	0	60	8481
2026-01-22 10:06:14.87	166.35	10.69	-44.0	-51.4	5.0	7.37e-01	0	60	0	1048576	59	8520
2026-01-22 10:06:15.88	166.37	10.78	-44.0	-51.2	5.1	6.73e-01	0	60	0	3145728	59	8326
2026-01-22 10:06:16.89	166.38	10.87	-44.0	-51.1	5.2	6.28e-01	0	60	0	7340032	59	8244
2026-01-22 10:06:17.90	166.40	10.96	-43.9	-51.0	5.2	5.91e-01	0	60	0	10485760	59	8105
2026-01-22 10:06:18.91	166.41	11.05	-43.9	-51.0	5.3	5.74e-01	0	60	0	13631488	59	8100
2026-01-22 10:06:19.92	166.43	11.15	-43.9	-50.8	5.3	5.50e-01	0	60	0	16777216	59	7981
2026-01-22 10:06:20.93	166.44	11.24	-43.9	-50.9	5.3	5.64e-01	0	60	0	19922944	59	8059
2026-01-22 10:06:21.94	166.46	11.33	-43.9	-51.0	5.3	5.66e-01	0	60	0	23068672	59	8095
2026-01-22 10:06:22.95	166.47	11.42	-44.0	-51.2	5.1	6.20e-01	0	60	0	26214400	59	8323
2026-01-22 10:06:23.96	166.49	11.52	-44.0	-51.5	5.0	6.98e-01	0	60	0	29360128	59	8627
2026-01-22 10:06:24.97	166.50	11.61	-44.1	-52.5	4.0	8.29e-01	2	60	104	29360128	59	9666
2026-01-22 10:06:25.98	166.52	11.71	-44.2	-52.9	4.0	1.19e+00	2	60	104	29360128	59	10162
2026-01-22 10:06:26.99	166.53	11.80	-44.2	-52.7	4.4	1.15e+00	0	60	104	29360128	59	9885
2026-01-22 10:06:28.00	166.55	11.89	-44.3	-53.5	3.9	1.44e+00	0	60	104	29360128	59	10898
2026-01-22 10:06:29.01	166.56	11.99	-44.3	-52.9	4.4	1.45e+00	0	60	104	29360128	59	10104
2026-01-22 10:06:30.02	166.58	12.09	-44.2	-53.0	4.0	1.25e+00	0	60	104	29360128	59	10193
2026-01-22 10:06:31.03	166.60	12.18	-44.0	-51.5	5.0	7.56e-01	0	60	0	29360128	59	8591
2026-01-22 10:06:32.04	166.61	12.28	-43.7	-50.2	5.7	4.55e-01	0	60	0	32505856	59	7445
2026-01-22 10:06:33.05	166.63	12.37	-43.4	-49.1	6.7	2.64e-01	0	60	0	35651584	58	6884
2026-01-22 10:06:34.07	166.64	12.47	-42.9	-47.7	7.9	1.09e-01	0	60	0	38797312	57	6269
2026-01-22 10:06:35.08	166.66	12.57	-42.4	-46.6	9.0	3.63e-02	0	60	0	41943040	56	5829
2026-01-22 10:06:36.09	166.68	12.67	-42.0	-45.7	9.9	1.07e-02	0	60	0	45088768	56	5251
2026-01-22 10:06:37.10	166.69	12.77	-41.4	-44.7	10.9	2.89e-03	0	60	0	48234496	54	5220
2026-01-22 10:06:38.11	166.71	12.87	-41.0	-44.1	11.5	1.03e-03	0	60	0	51380224	54	4874
2026-01-22 10:06:39.12	166.73	12.96	-40.7	-43.5	12.0	3.23e-04	0	60	0	54525952	53	4866
2026-01-22 10:06:40.13	166.74	13.06	-40.5	-43.2	12.4	1.85e-04	0	60	0	57671680	53	4686
2026-01-22 10:06:41.14	166.76	13.16	-40.4	-43.1	12.5	1.03e-04	0	60	0	60817408	52	4891
2026-01-22 10:06:42.15	166.78	13.26	-43.9	-50.8	5.3	4.00e-01	0	60	0	63963136	58	8407
2026-01-22 10:06:43.16	166.79	13.36	-43.5	-49.6	6.2	4.10e-01	0	60	0	67108864	58	7293
2026-01-22 10:06:44.17	166.81	13.47	-41.1	-44.0	11.7	4.61e-04	0	60	0	70254592	52	5459
2026-01-22 10:06:45.18	166.83	13.57	-43.3	-48.7	7.1	2.42e-01	0	60	0	73400320	57	7017
2026-01-22 10:06:46.19	166.85	13.67	-44.1	-52.7	4.0	1.28e+00	0	60	104	76546048	59	9937
2026-01-22 10:06:47.20	166.86	13.77	-40.5	-43.2	12.4	4.03e-04	0	60	0	77594624	53	4667
2026-01-22 10:06:48.21	166.88	13.87	-40.5	-43.3	12.3	1.80e-04	0	60	0	80740352	53	4709
2026-01-22 10:06:49.22	166.90	13.98	-40.6	-43.4	12.2	1.92e-04	0	60	0	83886080	53	4765
2026-01-22 10:06:50.22	166.92	14.08	-40.4	-43.0	12.6	1.28e-04	0	60	0	87031808	52	4850
2026-01-22 10:06:51.23	166.93	14.19	-40.2	-42.8	12.8	6.71e-05	0	60	0	90177536	52	4727
2026-01-22 10:06:52.24	166.95	14.29	-40.2	-42.8	12.8	5.72e-05	0	60	0	93323264	52	4713
2026-01-22 10:06:53.25	166.97	14.39	-40.3	-42.8	12.8	6.86e-05	0	60	0	96468992	52	4749
2026-01-22 10:06:54.26	166.99	14.50	-40.2	-42.7	12.9	4.50e-05	0	60	0	99614720	52	4689
2026-01-22 10:06:55.27	167.01	14.61	-40.1	-42.6	13.1	2.97e-05	0	60	0	102760448	52	4599
2026-01-22 10:06:56.28	167.02	14.71	-40.1	-42.6	13.1	4.04e-05	0	60	0	105906176	52	4608
2026-01-22 10:06:57.29	167.04	14.82	-40.1	-42.6	13.1	2.97e-05	0	60	0	110100480	52	4605
2026-01-22 10:06:58.30	167.06	14.93	-40.1	-42.6	13.1	3.05e-05	0	60	0	112197632	52	4605
2026-01-22 10:06:59.31	167.08	15.03	-40.1	-42.5	13.2	2.21e-05	0	60	0	115343360	52	4572
2026-01-22 10:07:00.32	167.10	15.14	-40.1	-42.6	13.0	3.58e-05	0	60	0	118489088	52	4630
2026-01-22 10:07:01.33	167.12	15.25	-40.2	-42.7	13.0	3.28e-05	0	60	0	121634816	52	4659
2026-01-22 10:07:02.34	167.14	15.36	-40.1	-42.6	13.1	3.58e-05	0	60	0	125829120	52	4612
2026-01-22 10:07:03.35	167.16	15.47	-40.1	-42.5	13.1	3.20e-05	0	60	0	128974848	52	4582
2026-01-22 10:07:04.36	167.17	15.58	-40.2	-42.7	13.0	4.80e-05	0	60	0	132120576	52	4659
2026-01-22 10:07:05.37	167.19	15.69	-40.2	-42.7	13.0	2.89e-05	0	60	0	135266304	52	4667
2026-01-22 10:07:06.37	167.21	15.80	-40.1	-42.6	13.1	3.05e-05	0	60	0	137363456	52	4618
2026-01-22 10:07:07.38	167.23	15.91	-40.2	-42.7	13.0	4.42e-05	0	60	0	140509184	52	4663
2026-01-22 10:07:08.39	167.25	16.03	-40.2	-42.6	13.0	3.50e-05	0	60	0	144703488	52	4639
2026-01-22 10:07:09.40	167.27	16.14	-40.1	-42.6	13.1	2.97e-05	0	60	0	147849216	52	4619
2026-01-22 10:07:10.41	167.29	16.25	-40.1	-42.6	13.1	2.97e-05	0	60	0	150994944	52	4624
2026-01-22 10:07:11.42	167.31	16.37	-40.2	-42.7	13.0	3.73e-05	0	60	0	154140672	52	4654
2026-01-22 10:07:12.43	167.33	16.48	-40.2	-42.7	13.0	3.43e-05	0	60	0	157286400	52	4669
2026-01-22 10:07:13.44	167.35	16.60	-40.3	-42.8	12.8	4.57e-05	0	60	0	160432128	52	4758
2026-01-22 10:07:14.45	167.37	16.71	-40.2	-42.7	13.0	4.95e-05	0	60	0	163577856	52	4686
2026-01-22 10:07:15.46	167.39	16.83	-40.1	-42.6	13.1	3.89e-05	0	60	0	166723584	52	4625
2026-01-22 10:07:16.47	167.42	16.94	-40.2	-42.6	13.1	2.89e-05	0	60	0	169869312	52	4634
2026-01-22 10:07:17.48	167.44	17.06	-40.2	-42.7	13.1	2.51e-05	0	60	0	173015040	52	4662
2026-01-22 10:07:18.49	167.46	17.18	-40.2	-42.7	13.0	3.50e-05	0	60	0	176160768	52	4653
2026-01-22 10:07:19.50	167.48	17.30	-40.2	-42.7	13.0	3.12e-05	0	60	0	179306496	52	4671
2026-01-22 10:07:20.51	167.50	17.42	-40.2	-42.7	13.1	1.90e-05	0	60	0	182452224	52	4664
2026-01-22 10:07:21.52	167.52	17.54	-40.2	-42.7	13.0	2.89e-05	0	60	0	185597952	52	4688
2026-01-22 10:07:22.53	167.54	17.66	-40.2	-42.7	13.0	2.74e-05	0	60	0	188743680	52	4667
2026-01-22 10:07:23.54	167.57	17.78	-40.2	-42.7	13.0	4.34e-05	0	60	0	191889408	52	4687
2026-01-22 10:07:24.55	167.59	17.90	-40.2	-42.7	13.1	2.82e-05	0	60	0	195035136	52	4655
2026-01-22 10:07:25.56	167.61	18.02	-40.2	-42.7	13.1	3.73e-05	0	60	0	198180864	52	4660
2026-01-22 10:07:26.57	167.63	18.14	-40.1	-42.6	13.1	3.43e-05	0	60	0	201326592	52	4607
2026-01-22 10:07:27.58	167.65	18.26	-40.1	-42.6	13.2	2.51e-05	0	60	0	204472320	52	4610
2026-01-22 10:07:28.59	167.68	18.39	-40.2	-42.6	13.2	1.60e-05	0	60	0	207618048	52	4628
2026-01-22 10:07:29.60	167.70	18.51	-40.2	-42.7	13.0	3.58e-05	0	60	0	210763776	52	4692
2026-01-22 10:07:30.61	167.72	18.64	-40.2	-42.7	13.1	2.97e-05	0	60	0	213909504	52	4678
2026-01-22 10:07:31.62	167.75	18.76	-40.1	-42.6	13.2	2.13e-05	0	60	0	217055232	52	4606
2026-01-22 10:07:32.62	167.77	18.89	-40.1	-42.5	13.3	2.28e-05	0	60	0	220200960	52	4561
2026-01-22 10:07:33.63	167.79	19.01	-40.0	-42.4	13.4	1.44e-05	0	60	0	223346688	52	4511
2026-01-22 10:07:34.64	167.82	19.14	-40.1	-42.5	13.3	1.29e-05	0	60	0	226492416	52	4569
2026-01-22 10:07:35.65	167.84	19.27	-40.0	-42.4	13.4	1.67e-05	0	60	0	229638144	52	4508
2026-01-22 10:07:36.66	167.86	19.40	-40.1	-42.5	13.3	1.22e-05	0	60	0	232783872	52	4550
2026-01-22 10:07:37.67	167.89	19.53	-40.0	-42.4	13.3	2.21e-05	0	60	0	235929600	52	4529
2026-01-22 10:07:38.68	167.91	19.66	-40.1	-42.5	13.3	1.67e-05	0	60	0	239075328	52	4546
2026-01-22 10:07:39.69	167.94	19.79	-40.0	-42.3	13.6	1.06e-05	0	60	0	242221056	51	4742
2026-01-22 10:07:40.70	167.96	19.92	-40.0	-42.3	13.6	1.06e-05	0	60	0	245366784	51	4727
2026-01-22 10:07:41.71	167.99	20.05	-40.0	-42.3	13.6	3.80e-06	0	60	0	248512512	51	4756
2026-01-22 10:07:42.71	168.01	20.18	-39.9	-42.1	13.7	9.10e-06	0	60	0	251658240	51	4646
2026-01-22 10:07:43.72	168.04	20.32	-39.8	-42.0	13.8	6.80e-06	0	60	0	254803968	51	4598
2026-01-22 10:07:44.74	168.06	20.45	-39.7	-41.9	13.9	2.20e-06	0	60	0	257949696	51	4531
2026-01-22 10:07:45.75	168.09	20.59	-39.8	-42.0	13.8	8.30e-06	0	60	0	261095424	51	4578
2026-01-22 10:07:46.76	168.11	20.72	-39.8	-42.0	13.9	1.50e-06	0	60	0	264241152	51	4563
2026-01-22 10:07:47.77	168.14	20.86	-39.6	-41.8	14.1	3.80e-06	0	60	0	267386880	51	4442
2026-01-22 10:07:48.78	168.16	21.00	-39.6	-41.7	14.2	3.00e-06	0	60	0	270532608	51	4417
2026-01-22 10:07:49.78	168.19	21.13	-39.6	-41.7	14.2	2.20e-06	0	60	0	273678336	51	4424
2026-01-22 10:07:50.79	168.22	21.27	-39.5	-41.6	14.3	7.00e-07	0	60	0	276824064	51	4344
2026-01-22 10:07:51.80	168.24	21.41	-39.5	-41.6	14.3	0.00e+00	0	60	0	279969792	50	4632
2026-01-22 10:07:52.81	168.27	21.55	-39.5	-41.6	14.3	0.00e+00	0	60	0	283115520	50	4634
2026-01-22 10:07:53.82	168.30	21.69	-39.5	-41.6	14.3	0.00e+00	0	60	0	286261248	50	4639
2026-01-22 10:07:54.83	168.33	21.84	-39.4	-41.5	14.5	1.50e-06	0	60	0	289406976	50	4557
2026-01-22 10:07:55.84	168.35	21.98	-39.5	-41.5	14.4	7.00e-07	0	60	0	292552704	50	4586
2026-01-22 10:07:56.85	168.38	22.12	-39.4	-41.4	14.5	1.50e-06	0	60	0	295698432	50	4545
2026-01-22 10:07:57.86	168.41	22.27	-39.4	-41.4	14.5	0.00e+00	0	60	0	298844160	50	4511
2026-01-22 10:07:58.87	168.44	22.41	-39.4	-41.4	14.5	1.50e-06	0	60	0	301989888	50	4515
2026-01-22 10:07:59.88	168.47	22.56	-39.3	-41.3	14.6	1.50e-06	0	60	0	305135616	50	4476
2026-01-22 10:08:00.88	168.49	22.70	-39.2	-41.1	14.8	0.00e+00	0	60	0	308281344	50	4379
2026-01-22 10:08:01.89	168.52	22.85	-39.1	-41.1	14.9	0.00e+00	0	60	0	311427072	50	4350
2026-01-22 10:08:02.90	168.55	23.00	-39.0	-40.9	15.0	0.00e+00	0	60	0	314572800	50	4284
2026-01-22 10:08:03.91	168.58	23.15	-39.0	-40.9	15.0	0.00e+00	0	60	0	317718528	50	4284
2026-01-22 10:08:04.91	168.61	23.30	-39.0	-40.9	15.0	0.00e+00	0	60	0	320864256	50	4262
2026-01-22 10:08:05.92	168.64	23.45	-39.1	-41.0	15.0	0.00e+00	0	60	0	324009984	50	4303
2026-01-22 10:08:06.93	168.67	23.60	-39.0	-40.9	15.1	0.00e+00	0	60	0	327155712	50	4272
2026-01-22 10:08:07.94	168.70	23.75	-39.0	-41.0	15.0	0.00e+00	0	60	0	330301440	50	4292
2026-01-22 10:08:08.96	168.73	23.91	-38.9	-40.8	15.1	0.00e+00	0	60	0	333447168	49	4484
2026-01-22 10:08:09.96	168.77	24.06	-39.0	-40.9	15.1	0.00e+00	0	60	0	336592896	49	4505
2026-01-22 10:08:10.97	168.80	24.21	-38.9	-40.8	15.1	0.00e+00	0	60	0	339738624	49	4473
2026-01-22 10:08:11.98	168.83	24.37	-39.0	-40.9	15.1	0.00e+00	0	60	0	342884352	49	4496
2026-01-22 10:08:12.99	168.86	24.53	-39.0	-40.9	15.1	0.00e+00	0	60	0	346030080	49	4495
2026-01-22 10:08:14.00	168.89	24.69	-39.0	-40.9	15.0	0.00e+00	0	60	0	349175808	49	4531
2026-01-22 10:08:15.01	168.93	24.84	-39.0	-40.9	15.0	0.00e+00	0	60	0	352321536	49	4541
2026-01-22 10:08:16.02	168.96	25.00	-39.1	-41.0	14.9	0.00e+00	0	60	0	355467264	49	4578
2026-01-22 10:08:17.03	168.99	25.17	-39.1	-41.1	14.8	0.00e+00	0	60	0	358612992	49	4637
2026-01-22 10:08:18.04	169.03	25.33	-39.1	-41.1	14.8	0.00e+00	0	60	0	361758720	49	4630
2026-01-22 10:08:19.05	169.06	25.49	-39.3	-41.3	14.6	0.00e+00	0	60	0	364904448	49	4737
2026-01-22 10:08:20.06	169.09	25.65	-39.3	-41.4	14.6	0.00e+00	0	60	0	368050176	49	4777
2026-01-22 10:08:21.07	169.13	25.82	-39.4	-41.4	14.5	0.00e+00	0	60	0	371195904	49	4814
2026-01-22 10:08:22.08	169.16	25.99	-39.5	-41.6	14.4	1.50e-06	0	60	0	374341632	49	4888
2026-01-22 10:08:23.09	169.20	26.15	-39.6	-41.8	14.2	2.20e-06	0	60	0	377487360	49	4985
2026-01-22 10:08:24.09	169.23	26.32	-39.7	-41.9	14.1	2.20e-06	0	60	0	380633088	50	4803
2026-01-22 10:08:25.10	169.27	26.49	-39.8	-42.0	14.0	2.20e-06	0	60	0	383778816	50	4854
2026-01-22 10:08:26.11	169.31	26.66	-39.9	-42.1	13.9	7.00e-07	0	60	0	386924544	50	4914
2026-01-22 10:08:27.12	169.34	26.83	-40.0	-42.3	13.7	4.50e-06	0	60	0	390070272	50	4984
2026-01-22 10:08:28.13	169.38	27.00	-40.0	-42.3	13.7	4.50e-06	0	60	0	393216000	50	5008
2026-01-22 10:08:29.14	169.42	27.18	-40.1	-42.4	13.6	6.80e-06	0	60	0	396361728	50	5071
2026-01-22 10:08:30.15	169.45	27.35	-40.2	-42.6	13.4	1.06e-05	0	60	0	399507456	50	5172
2026-01-22 10:08:31.16	169.49	27.53	-40.2	-42.6	13.4	1.22e-05	0	60	0	402653184	51	4897
2026-01-22 10:08:32.17	169.53	27.70	-40.3	-42.6	13.3	1.75e-05	0	60	0	405798912	51	4925
2026-01-22 10:08:33.18	169.57	27.88	-40.3	-42.8	13.2	1.37e-05	0	60	0	408944640	51	4988
2026-01-22 10:08:34.19	169.61	28.06	-40.3	-42.7	13.3	2.05e-05	0	60	0	412090368	51	4948
2026-01-22 10:08:35.20	169.65	28.24	-40.3	-42.7	13.3	1.83e-05	0	60	0	415236096	51	4975
2026-01-22 10:08:36.21	169.69	28.42	-40.4	-42.8	13.2	2.59e-05	0	60	0	418381824	51	5010
2026-01-22 10:08:37.22	169.73	28.60	-40.3	-42.7	13.3	2.74e-05	0	60	0	421527552	51	4970
2026-01-22 10:08:38.23	169.77	28.79	-40.3	-42.6	13.3	1.90e-05	0	60	0	424673280	51	4924
2026-01-22 10:08:39.24	169.81	28.97	-40.2	-42.6	13.4	1.22e-05	0	60	0	427819008	51	4892
2026-01-22 10:08:40.25	169.85	29.16	-40.2	-42.5	13.5	1.60e-05	0	60	0	430964736	51	4830
2026-01-22 10:08:41.26	169.89	29.34	-40.2	-42.5	13.5	6.10e-06	0	60	0	434110464	51	4821
2026-01-22 10:08:42.27	169.94	29.53	-40.2	-42.5	13.5	9.90e-06	0	60	0	437256192	51	4858
2026-01-22 10:08:43.28	169.98	29.72	-40.1	-42.4	13.6	1.60e-05	0	60	0	440401920	51	4807
2026-01-22 10:08:44.28	170.02	29.91	-40.1	-42.4	13.6	7.60e-06	0	60	0	443547648	51	4797
2026-01-22 10:08:45.29	170.07	30.10	-40.1	-42.3	13.6	1.29e-05	0	60	0	446693376	51	4755
2026-01-22 10:08:46.30	170.11	30.30	-40.0	-42.3	13.7	6.80e-06	0	60	0	449839104	51	4728
2026-01-22 10:08:47.32	170.16	30.49	-40.0	-42.3	13.7	4.50e-06	0	60	0	452984832	51	4731
2026-01-22 10:08:48.33	170.20	30.69	-39.9	-42.1	13.8	2.20e-06	0	60	0	456130560	51	4650
2026-01-22 10:08:49.34	170.25	30.89	-39.8	-42.0	14.0	1.50e-06	0	60	0	459276288	51	4553
2026-01-22 10:08:50.35	170.29	31.09	-39.8	-41.9	14.1	1.50e-06	0	61	0	462422016	51	4539
2026-01-22 10:08:51.36	170.34	31.29	-39.9	-42.1	13.9	3.00e-06	0	60	0	465567744	51	4620
2026-01-22 10:08:52.37	170.39	31.49	-39.8	-41.9	14.2	7.00e-07	0	60	0	468713472	51	4508
2026-01-22 10:08:53.38	170.44	31.69	-39.8	-41.9	14.1	2.20e-06	0	60	0	471859200	51	4525
2026-01-22 10:08:54.39	170.49	31.90	-39.8	-41.9	14.1	2.20e-06	0	60	0	476053504	51	4537
2026-01-22 10:08:55.40	170.54	32.10	-39.8	-41.9	14.1	2.20e-06	0	60	0	478150656	51	4525
2026-01-22 10:08:56.41	170.59	32.31	-39.7	-41.8	14.2	1.50e-06	0	60	0	481296384	51	4457
2026-01-22 10:08:57.42	170.64	32.52	-39.7	-41.7	14.2	0.00e+00	0	60	0	484442112	51	4437
2026-01-22 10:08:58.42	170.69	32.73	-39.7	-41.8	14.2	7.00e-07	0	60	0	487587840	51	4487
2026-01-22 10:08:59.44	170.74	32.94	-39.6	-41.7	14.3	1.50e-06	0	60	0	491782144	51	4420
2026-01-22 10:09:00.44	170.79	33.15	-39.8	-41.9	14.1	1.50e-06	0	60	0	494927872	51	4524
2026-01-22 10:09:01.45	170.84	33.36	-39.8	-41.9	14.1	5.30e-06	0	60	0	498073600	51	4535
2026-01-22 10:09:02.46	170.90	33.58	-39.9	-42.0	14.0	3.00e-06	0	60	0	500170752	51	4591
2026-01-22 10:09:03.47	170.95	33.80	-40.0	-42.2	13.9	3.80e-06	0	61	0	503316480	51	4671
2026-01-22 10:09:04.48	171.01	34.02	-40.1	-42.3	13.7	6.10e-06	0	60	0	506462208	51	4758
2026-01-22 10:09:05.49	171.06	34.24	-40.1	-42.4	13.7	5.30e-06	0	60	0	510656512	51	4778
2026-01-22 10:09:06.50	171.12	34.46	-40.2	-42.6	13.5	1.52e-05	0	60	0	513802240	51	4874
2026-01-22 10:09:07.51	171.18	34.68	-40.2	-42.5	13.5	1.67e-05	0	60	0	516947968	51	4861
2026-01-22 10:09:08.52	171.23	34.91	-40.4	-42.8	13.3	1.83e-05	0	61	0	520093696	51	5001
2026-01-22 10:09:09.53	171.29	35.13	-40.5	-42.9	13.1	2.89e-05	0	60	0	523239424	51	5084
2026-01-22 10:09:10.54	171.35	35.36	-40.6	-43.1	13.0	4.34e-05	0	60	0	526385152	51	5170
2026-01-22 10:09:11.55	171.41	35.59	-40.7	-43.2	12.8	6.33e-05	0	60	0	529530880	51	5274
2026-01-22 10:09:12.56	171.47	35.82	-40.8	-43.4	12.6	7.93e-05	0	60	0	532676608	52	5046
2026-01-22 10:09:13.57	171.54	36.06	-40.8	-43.4	12.6	9.53e-05	0	60	0	535822336	52	5070
2026-01-22 10:09:14.58	171.60	36.29	-40.9	-43.5	12.4	1.23e-04	0	60	0	538968064	52	5144
2026-01-22 10:09:15.59	171.66	36.53	-40.8	-43.4	12.5	1.29e-04	0	60	0	542113792	52	5084
2026-01-22 10:09:16.60	171.73	36.77	-41.0	-43.7	12.3	1.69e-04	0	60	0	545259520	52	5234
2026-01-22 10:09:17.61	171.79	37.01	-41.0	-43.7	12.2	2.64e-04	0	60	0	548405248	52	5273
2026-01-22 10:09:18.61	171.86	37.25	-41.1	-43.9	12.0	3.36e-04	0	60	0	551550976	52	5401
2026-01-22 10:09:19.62	171.93	37.49	-41.2	-44.0	11.9	3.82e-04	0	60	0	554696704	52	5431
2026-01-22 10:09:20.63	171.99	37.73	-41.2	-44.1	11.8	4.36e-04	0	60	0	557842432	53	5175
2026-01-22 10:09:21.64	172.06	37.98	-41.2	-44.1	11.8	4.39e-04	0	60	0	560988160	53	5197
2026-01-22 10:09:22.65	172.13	38.23	-41.2	-44.1	11.9	4.92e-04	0	60	0	564133888	53	5173
2026-01-22 10:09:23.66	172.20	38.48	-41.0	-43.7	12.3	2.39e-04	0	60	0	567279616	53	4948
2026-01-22 10:09:24.67	172.28	38.73	-41.1	-43.8	12.1	2.28e-04	0	61	0	570425344	53	5039
2026-01-22 10:09:25.68	172.35	38.99	-41.1	-43.8	12.1	2.32e-04	0	60	0	573571072	53	5038
2026-01-22 10:09:26.69	172.42	39.24	-41.0	-43.8	12.2	2.57e-04	0	60	0	576716800	53	5008
2026-01-22 10:09:27.70	172.50	39.50	-41.1	-43.8	12.1	2.49e-04	0	60	0	579862528	53	5036
2026-01-22 10:09:28.71	172.58	39.76	-41.0	-43.8	12.2	2.43e-04	0	60	0	583008256	53	5011
2026-01-22 10:09:29.72	172.65	40.02	-41.0	-43.8	12.2	2.18e-04	0	61	0	586153984	53	5000
2026-01-22 10:09:30.73	172.73	40.28	-41.1	-43.8	12.2	2.27e-04	0	60	0	589299712	53	5040
2026-01-22 10:09:31.74	172.81	40.55	-41.0	-43.7	12.3	2.10e-04	0	60	0	592445440	53	4982
2026-01-22 10:09:32.75	172.90	40.82	-41.2	-44.1	11.9	3.62e-04	0	60	0	595591168	53	5160
2026-01-22 10:09:33.76	172.98	41.09	-41.3	-44.1	11.8	4.33e-04	0	60	0	598736896	53	5214
2026-01-22 10:09:34.77	173.06	41.36	-41.3	-44.2	11.8	5.26e-04	0	61	0	601882624	53	5234
2026-01-22 10:09:35.78	173.15	41.63	-41.4	-44.3	11.6	5.74e-04	0	60	0	605028352	53	5315
2026-01-22 10:09:36.79	173.24	41.91	-41.4	-44.4	11.6	8.95e-04	0	60	0	608174080	53	5354
2026-01-22 10:09:37.80	173.32	42.18	-41.6	-44.7	11.3	9.94e-04	0	60	0	611319808	53	5547
2026-01-22 10:09:38.81	173.41	42.46	-41.7	-44.8	11.1	1.40e-03	0	60	0	614465536	53	5647
2026-01-22 10:09:39.82	173.51	42.74	-41.8	-45.0	11.0	2.06e-03	0	60	0	617611264	54	5440
2026-01-22 10:09:40.83	173.60	43.03	-41.9	-45.2	10.7	3.01e-03	0	60	0	620756992	54	5589
2026-01-22 10:09:41.84	173.69	43.31	-42.0	-45.5	10.4	3.98e-03	0	60	0	623902720	54	5740
2026-01-22 10:09:42.85	173.79	43.60	-42.2	-45.8	10.2	6.40e-03	0	60	0	627048448	54	5939
2026-01-22 10:09:43.86	173.89	43.89	-42.3	-45.9	9.9	7.66e-03	0	60	0	630194176	55	5714
2026-01-22 10:09:44.87	173.99	44.18	-42.2	-45.9	10.0	9.55e-03	0	60	0	633339904	55	5666
2026-01-22 10:09:45.88	174.09	44.47	-42.2	-45.9	10.0	8.35e-03	0	61	0	636485632	55	5686
2026-01-22 10:09:46.89	174.19	44.77	-42.3	-46.0	10.0	8.21e-03	0	60	0	639631360	55	5725
2026-01-22 10:09:47.90	174.30	45.07	-42.3	-45.9	10.0	8.62e-03	0	61	0	642777088	55	5716
2026-01-22 10:09:48.91	174.41	45.37	-42.3	-45.9	10.0	7.50e-03	0	60	0	645922816	55	5694
2026-01-22 10:09:49.92	174.51	45.67	-42.3	-45.9	10.0	8.55e-03	0	60	0	649068544	55	5701
2026-01-22 10:09:50.93	174.63	45.97	-42.2	-45.9	10.1	7.42e-03	0	60	0	652214272	55	5679
2026-01-22 10:09:51.94	174.74	46.28	-42.2	-45.7	10.2	6.60e-03	0	61	0	655360000	55	5570
2026-01-22 10:09:52.95	174.85	46.59	-42.0	-45.5	10.5	5.05e-03	0	60	0	658505728	55	5416
2026-01-22 10:09:53.96	174.97	46.90	-42.0	-45.4	10.5	4.12e-03	0	60	0	661651456	55	5385
2026-01-22 10:09:54.97	175.09	47.21	-42.0	-45.3	10.6	4.06e-03	0	61	0	664797184	55	5336
2026-01-22 10:09:55.98	175.21	47.53	-41.8	-45.0	10.9	2.41e-03	0	61	0	667942912	55	5152
2026-01-22 10:09:56.99	175.34	47.85	-41.6	-44.7	11.3	1.31e-03	0	60	0	671088640	55	4966
2026-01-22 10:09:58.00	175.47	48.17	-41.6	-44.6	11.4	1.12e-03	0	60	0	674234368	55	4924
2026-01-22 10:09:59.01	175.60	48.49	-41.5	-44.6	11.4	9.95e-04	0	60	0	677380096	55	4883
2026-01-22 10:10:00.02	175.73	48.81	-41.4	-44.4	11.7	6.75e-04	0	60	0	680525824	54	5049
2026-01-22 10:10:01.03	175.86	49.14	-41.4	-44.3	11.8	4.55e-04	0	61	0	683671552	54	4994
2026-01-22 10:10:02.04	176.00	49.47	-41.2	-43.9	12.1	2.58e-04	0	60	0	686817280	54	4814
2026-01-22 10:10:03.06	176.15	49.80	-41.1	-43.8	12.2	1.85e-04	0	60	0	689963008	54	4747
2026-01-22 10:10:04.06	176.29	50.13	-41.0	-43.6	12.5	1.83e-04	0	60	0	693108736	53	4924
2026-01-22 10:10:05.07	176.44	50.47	-40.9	-43.5	12.5	1.32e-04	0	61	0	696254464	53	4835
2026-01-22 10:10:06.08	176.59	50.80	-40.8	-43.4	12.7	7.55e-05	0	60	0	699400192	53	4782
2026-01-22 10:10:07.09	176.74	51.14	-40.8	-43.4	12.7	8.08e-05	0	60	0	702545920	53	4776
2026-01-22 10:10:08.11	176.90	51.49	-40.9	-43.5	12.5	1.25e-04	0	61	0	705691648	53	4866
2026-01-22 10:10:09.11	177.06	51.83	-41.1	-43.9	12.2	2.00e-04	0	60	0	708837376	53	5052
2026-01-22 10:10:10.12	177.22	52.18	-41.2	-44.1	12.0	2.23e-04	0	60	0	711983104	53	5171
2026-01-22 10:10:11.13	177.39	52.52	-41.0	-43.7	12.3	2.24e-04	0	61	0	715128832	53	4975
2026-01-22 10:10:12.14	177.56	52.88	-41.1	-43.8	12.3	1.54e-04	0	60	0	718274560	53	4992
2026-01-22 10:10:13.15	177.74	53.23	-40.7	-43.3	12.7	8.31e-05	0	60	0	721420288	53	4721
2026-01-22 10:10:14.16	177.92	53.58	-40.8	-43.3	12.7	8.23e-05	0	60	0	724566016	53	4738
2026-01-22 10:10:15.17	178.11	53.94	-40.8	-43.3	12.7	9.68e-05	0	60	0	727711744	53	4757
2026-01-22 10:10:16.18	178.30	54.30	-40.8	-43.4	12.7	7.62e-05	0	60	0	730857472	53	4765
2026-01-22 10:10:17.19	178.49	54.66	-40.6	-43.1	12.9	4.42e-05	0	60	0	734003200	53	4647
2026-01-22 10:10:18.20	178.69	55.03	-40.4	-42.9	13.2	4.42e-05	0	61	0	737148928	52	4773
2026-01-22 10:10:19.21	178.89	55.40	-40.2	-42.5	13.5	9.90e-06	0	61	0	740294656	52	4564
2026-01-22 10:10:20.22	179.10	55.76	-40.0	-42.3	13.8	2.20e-06	0	60	0	743440384	52	4461
2026-01-22 10:10:21.23	179.32	56.13	-40.1	-42.4	13.6	8.30e-06	0	60	0	746586112	52	4529
2026-01-22 10:10:22.24	179.54	56.51	-40.4	-42.8	13.2	1.29e-05	0	60	0	749731840	52	4726
2026-01-22 10:10:23.24	179.76	56.88	-40.4	-42.8	13.1	2.97e-05	0	61	0	752877568	52	4755
2026-01-22 10:10:24.25	180.00	57.26	-40.4	-42.8	13.2	2.36e-05	0	60	0	756023296	52	4732
2026-01-22 10:10:25.26	180.24	57.63	-40.3	-42.6	13.4	1.06e-05	0	61	0	759169024	52	4648
2026-01-22 10:10:26.27	180.48	58.02	-40.1	-42.4	13.6	6.80e-06	0	60	0	762314752	52	4540
2026-01-22 10:10:27.28	180.74	58.40	-40.2	-42.5	13.6	1.06e-05	0	61	0	765460480	52	4550
2026-01-22 10:10:28.29	181.00	58.78	-40.0	-42.2	13.9	8.30e-06	0	61	0	768606208	51	4686
2026-01-22 10:10:29.30	181.26	59.17	-40.0	-42.2	13.9	3.80e-06	0	61	0	771751936	51	4668
2026-01-22 10:10:30.31	181.54	59.56	-39.8	-41.9	14.2	1.50e-06	0	61	0	774897664	51	4522
2026-01-22 10:10:31.32	181.83	59.95	-39.7	-41.8	14.4	1.50e-06	0	60	0	778043392	51	4449
2026-01-22 10:10:32.33	182.12	60.34	-39.6	-41.6	14.5	0.00e+00	0	61	0	781189120	51	4360
2026-01-22 10:10:33.34	182.42	60.74	-39.6	-41.6	14.5	0.00e+00	0	60	0	784334848	51	4361
2026-01-22 10:10:34.35	182.73	61.13	-39.5	-41.5	14.6	0.00e+00	0	61	0	787480576	50	4598
2026-01-22 10:10:35.36	183.05	61.53	-39.4	-41.3	14.8	0.00e+00	0	61	0	790626304	50	4492
2026-01-22 10:10:36.37	183.39	61.93	-39.4	-41.3	14.8	7.00e-07	0	61	0	793772032	50	4489
2026-01-22 10:10:37.38	183.73	62.33	-39.4	-41.3	14.8	0.00e+00	0	61	0	796917760	50	4463
2026-01-22 10:10:38.39	184.08	62.73	-39.1	-41.0	15.1	0.00e+00	0	61	0	800063488	50	4293
2026-01-22 10:10:39.40	184.45	63.14	-39.0	-40.8	15.3	0.00e+00	0	60	0	803209216	50	4230
2026-01-22 10:10:40.40	184.82	63.54	-39.0	-40.9	15.2	0.00e+00	0	60	0	806354944	49	4494
2026-01-22 10:10:41.41	185.21	63.94	-39.2	-41.1	15.0	0.00e+00	0	60	0	809500672	49	4617
2026-01-22 10:10:42.42	185.62	64.35	-39.0	-40.8	15.3	0.00e+00	0	61	0	812646400	49	4473
2026-01-22 10:10:43.43	186.04	64.76	-38.6	-40.3	15.7	0.00e+00	0	61	0	815792128	49	4218
2026-01-22 10:10:44.44	186.47	65.17	-38.3	-40.0	16.0	0.00e+00	0	60	0	818937856	48	4314
2026-01-22 10:10:45.45	186.93	65.58	-38.7	-40.5	15.5	0.00e+00	0	61	0	822083584	48	4581
2026-01-22 10:10:46.46	187.39	65.99	-39.0	-40.9	15.2	0.00e+00	0	61	0	825229312	48	4772
2026-01-22 10:10:47.47	187.88	66.40	-39.0	-40.9	15.2	0.00e+00	0	61	0	828375040	48	4760
2026-01-22 10:10:48.48	188.39	66.81	-38.8	-40.6	15.4	0.00e+00	0	61	0	831520768	48	4648
2026-01-22 10:10:49.49	188.91	67.23	-38.7	-40.5	15.5	0.00e+00	0	60	0	835715072	48	4582
2026-01-22 10:10:50.50	189.46	67.64	-38.8	-40.7	15.4	0.00e+00	0	61	0	838860800	48	4657
2026-01-22 10:10:51.51	190.02	68.05	-38.9	-40.7	15.4	0.00e+00	0	61	0	840957952	48	4688
2026-01-22 10:10:52.52	190.62	68.46	-38.9	-40.7	15.4	0.00e+00	0	61	0	844103680	48	4674
2026-01-22 10:10:53.53	191.23	68.88	-38.9	-40.8	15.2	0.00e+00	0	60	0	847249408	48	4730
2026-01-22 10:10:54.54	191.88	69.29	-39.0	-40.9	15.1	7.00e-07	0	60	0	851443712	48	4766
2026-01-22 10:10:55.55	192.55	69.70	-38.9	-40.8	15.2	0.00e+00	0	61	0	854589440	48	4713
2026-01-22 10:10:56.56	193.25	70.11	-38.8	-40.7	15.3	0.00e+00	0	60	0	857735168	48	4678
2026-01-22 10:10:57.57	193.98	70.52	-38.7	-40.5	15.5	0.00e+00	0	60	0	860880896	48	4571
2026-01-22 10:10:58.58	194.74	70.93	-38.8	-40.6	15.5	0.00e+00	0	60	0	864026624	48	4624
2026-01-22 10:10:59.59	195.54	71.33	-39.1	-41.0	15.0	0.00e+00	0	60	0	867172352	48	4851
2026-01-22 10:11:00.60	196.38	71.74	-39.2	-41.2	14.8	0.00e+00	0	61	0	870318080	49	4688
2026-01-22 10:11:01.61	197.26	72.14	-39.2	-41.2	14.9	0.00e+00	0	61	0	873463808	49	4652
2026-01-22 10:11:02.62	198.18	72.54	-39.1	-41.1	14.9	1.50e-06	0	61	0	876609536	49	4638
2026-01-22 10:11:03.63	199.14	72.93	-39.0	-41.0	15.1	0.00e+00	0	60	0	879755264	49	4552
2026-01-22 10:11:04.64	200.16	73.32	-38.9	-40.8	15.3	0.00e+00	0	60	0	882900992	49	4462
2026-01-22 10:11:05.65	201.22	73.71	-38.7	-40.5	15.5	0.00e+00	0	61	0	886046720	48	4591
2026-01-22 10:11:06.66	202.34	74.10	-38.7	-40.6	15.5	0.00e+00	0	60	0	889192448	48	4620
2026-01-22 10:11:07.67	203.51	74.48	-38.9	-40.7	15.3	0.00e+00	0	61	0	892338176	48	4695
2026-01-22 10:11:08.68	204.74	74.85	-38.9	-40.7	15.3	0.00e+00	0	60	0	895483904	48	4704
2026-01-22 10:11:09.69	206.04	75.22	-38.8	-40.6	15.5	0.00e+00	0	60	0	898629632	48	4626
2026-01-22 10:11:10.70	207.41	75.58	-38.8	-40.6	15.5	0.00e+00	0	60	0	901775360	48	4634
2026-01-22 10:11:11.71	208.85	75.93	-39.1	-41.0	15.1	0.00e+00	0	60	0	904921088	48	4816
2026-01-22 10:11:12.72	210.37	76.28	-39.1	-41.1	15.1	0.00e+00	0	60	0	908066816	49	4607
2026-01-22 10:11:13.73	211.96	76.62	-39.2	-41.1	15.0	0.00e+00	0	60	0	911212544	49	4615
2026-01-22 10:11:14.74	213.64	76.94	-39.0	-40.9	15.2	0.00e+00	0	60	0	914358272	49	4508
2026-01-22 10:11:15.75	215.40	77.26	-38.7	-40.5	15.6	0.00e+00	0	60	0	917504000	49	4313
2026-01-22 10:11:16.75	217.24	77.56	-38.5	-40.2	15.9	0.00e+00	0	61	0	920649728	49	4184
2026-01-22 10:11:17.76	219.19	77.85	-38.7	-40.5	15.6	0.00e+00	0	61	0	923795456	49	4307
2026-01-22 10:11:18.77	221.23	78.13	-38.5	-40.3	15.8	0.00e+00	0	60	0	926941184	49	4205
2026-01-22 10:11:19.78	223.37	78.39	-38.5	-40.2	15.9	0.00e+00	0	60	0	930086912	48	4422
2026-01-22 10:11:20.80	225.63	78.64	-38.4	-40.1	16.0	0.00e+00	0	60	0	933232640	48	4376
2026-01-22 10:11:21.80	227.95	78.87	-38.6	-40.3	15.7	0.00e+00	0	60	0	936378368	48	4489
2026-01-22 10:11:22.81	230.38	79.08	-39.1	-41.1	15.0	0.00e+00	0	60	0	939524096	48	4877
2026-01-22 10:11:23.82	232.91	79.27	-39.3	-41.3	14.7	7.00e-07	0	60	0	942669824	49	4736
2026-01-22 10:11:24.83	235.52	79.44	-39.3	-41.2	14.7	0.00e+00	0	60	0	945815552	49	4705
2026-01-22 10:11:25.84	238.22	79.59	-39.2	-41.2	14.8	7.00e-07	0	60	0	948961280	49	4663
2026-01-22 10:11:26.85	240.99	79.72	-39.1	-41.0	15.1	0.00e+00	0	60	0	952107008	49	4567
2026-01-22 10:11:27.85	243.79	79.82	-38.9	-40.8	15.3	0.00e+00	0	61	0	955252736	49	4466
2026-01-22 10:11:28.86	246.67	79.90	-38.9	-40.8	15.3	0.00e+00	0	60	0	958398464	49	4452
2026-01-22 10:11:29.86	249.56	79.95	-38.8	-40.6	15.5	0.00e+00	0	60	0	961544192	49	4366
2026-01-22 10:11:30.87	252.51	79.97	-38.7	-40.4	15.6	0.00e+00	0	60	0	964689920	49	4291
2026-01-22 10:11:31.88	255.45	79.97	-38.9	-40.7	15.4	7.00e-07	0	60	0	967835648	49	4413
2026-01-22 10:11:32.89	258.40	79.95	-39.1	-41.0	15.1	0.00e+00	0	61	0	970981376	49	4585
2026-01-22 10:11:33.90	261.31	79.89	-39.0	-40.9	15.2	0.00e+00	0	60	0	974127104	49	4529
2026-01-22 10:11:34.91	264.19	79.82	-38.9	-40.8	15.2	0.00e+00	0	60	0	977272832	49	4453
2026-01-22 10:11:35.92	267.02	79.71	-38.8	-40.6	15.4	0.00e+00	0	60	0	980418560	49	4378
2026-01-22 10:11:36.93	269.79	79.59	-38.8	-40.6	15.4	0.00e+00	0	60	0	983564288	49	4355
2026-01-22 10:11:37.94	272.48	79.44	-38.5	-40.2	15.8	0.00e+00	0	61	0	986710016	49	4193
2026-01-22 10:11:38.95	275.09	79.27	-38.6	-40.3	15.7	0.00e+00	0	60	0	989855744	48	4459
2026-01-22 10:11:39.96	277.61	79.08	-38.8	-40.6	15.3	0.00e+00	0	60	0	993001472	48	4650
2026-01-22 10:11:40.97	280.04	78.86	-38.8	-40.7	15.2	0.00e+00	0	60	0	996147200	48	4697
2026-01-22 10:11:41.98	282.38	78.63	-39.0	-40.9	15.1	0.00e+00	0	60	0	999292928	48	4789
2026-01-22 10:11:42.99	284.61	78.39	-39.4	-41.4	14.6	0.00e+00	0	60	0	1002438656	49	4784
2026-01-22 10:11:44.00	286.75	78.12	-39.3	-41.3	14.8	7.00e-07	0	60	0	1005584384	49	4716
2026-01-22 10:11:45.01	288.79	77.84	-38.8	-40.8	15.2	0.00e+00	0	60	0	1008730112	49	4481
2026-01-22 10:11:46.02	290.73	77.55	-38.5	-40.2	15.8	0.00e+00	0	60	0	1011875840	48	4434
2026-01-22 10:11:47.03	292.58	77.25	-38.2	-40.0	15.7	2.36e-05	0	60	0	1015021568	47	4597
2026-01-22 10:11:48.03	294.32	76.93	-38.4	-40.1	15.7	0.00e+00	0	60	0	1018167296	47	4633
2026-01-22 10:11:49.04	295.99	76.61	-38.2	-39.9	16.0	6.10e-06	0	60	0	1021313024	47	4509
2026-01-22 10:11:50.05	297.59	76.27	-38.3	-40.0	15.8	3.00e-06	0	60	0	1024458752	47	4581
2026-01-22 10:11:51.06	299.10	75.92	-38.6	-40.4	15.4	2.20e-06	0	61	0	1027604480	47	4765
2026-01-22 10:11:52.07	300.53	75.57	-39.0	-40.9	15.0	1.50e-06	0	60	0	1030750208	48	4795
2026-01-22 10:11:53.08	301.90	75.21	-39.1	-41.0	15.0	1.50e-06	0	61	0	1033895936	48	4823
2026-01-22 10:11:54.09	303.19	74.84	-39.4	-41.4	14.7	0.00e+00	0	60	0	1037041664	49	4784
2026-01-22 10:11:55.10	304.42	74.47	-39.2	-41.1	15.0	7.00e-07	0	60	0	1040187392	49	4637
2026-01-22 10:11:56.11	305.60	74.09	-38.8	-40.6	15.4	2.20e-06	0	60	0	1043333120	49	4370
2026-01-22 10:11:57.12	306.71	73.71	-38.6	-40.5	15.6	7.00e-07	0	60	0	1046478848	48	4555
2026-01-22 10:11:58.13	307.77	73.32	-38.6	-40.5	15.5	0.00e+00	0	60	0	1049624576	48	4574
2026-01-22 10:11:59.14	308.78	72.93	-38.7	-40.4	15.6	0.00e+00	0	60	0	1052770304	48	4541
2026-01-22 10:12:00.15	309.74	72.53	-39.1	-41.0	15.1	3.00e-06	0	60	0	1055916032	48	4831
2026-01-22 10:12:01.16	310.66	72.13	-39.2	-41.2	14.9	0.00e+00	0	60	0	1059061760	49	4692
2026-01-22 10:12:02.17	311.54	71.73	-39.1	-41.0	15.1	0.00e+00	0	60	0	1062207488	49	4583
2026-01-22 10:12:03.18	312.37	71.33	-38.9	-40.7	15.4	0.00e+00	0	60	0	1065353216	49	4393
2026-01-22 10:12:04.19	313.17	70.92	-38.5	-40.2	15.9	0.00e+00	0	60	0	1068498944	48	4428
2026-01-22 10:12:05.19	313.93	70.52	-38.1	-39.7	16.4	0.00e+00	0	61	0	1071644672	48	4190
2026-01-22 10:12:06.20	314.66	70.11	-37.9	-39.5	16.5	2.20e-06	0	60	0	1074790400	47	4306
2026-01-22 10:12:07.21	315.36	69.70	-38.4	-40.1	15.8	3.00e-06	0	61	0	1077936128	47	4634
2026-01-22 10:12:08.22	316.03	69.29	-39.2	-41.1	15.0	0.00e+00	0	61	0	1081081856	48	4885
2026-01-22 10:12:09.23	316.67	68.88	-39.1	-41.2	14.9	1.67e-05	0	60	0	1084227584	49	4681
2026-01-22 10:12:10.24	317.28	68.47	-39.0	-41.0	15.2	1.60e-05	0	60	0	1087373312	49	4546
2026-01-22 10:12:11.25	317.88	68.06	-38.8	-40.5	15.6	2.20e-06	0	60	0	1090519040	49	4340
2026-01-22 10:12:12.26	318.44	67.65	-38.5	-40.3	15.8	0.00e+00	0	60	0	1093664768	48	4461
2026-01-22 10:12:13.27	318.99	67.24	-38.4	-40.3	15.8	7.00e-07	0	61	0	1096810496	48	4450
2026-01-22 10:12:14.28	319.51	66.83	-39.0	-40.8	15.3	5.30e-06	0	60	0	1099956224	48	4724
2026-01-22 10:12:15.29	320.02	66.42	-39.4	-41.4	14.8	6.80e-06	0	60	0	1103101952	49	4769
2026-01-22 10:12:16.30	320.50	66.00	-39.8	-41.9	14.3	1.50e-06	0	61	0	1106247680	50	4787
2026-01-22 10:12:17.31	320.97	65.60	-39.4	-41.5	14.7	7.00e-07	0	60	0	1109393408	49	4825
2026-01-22 10:12:18.32	321.42	65.19	-39.4	-41.4	14.6	7.00e-07	0	60	0	1112539136	49	4781
2026-01-22 10:12:19.33	321.86	64.78	-39.0	-40.8	15.3	0.00e+00	0	60	0	1115684864	49	4479
2026-01-22 10:12:20.34	322.27	64.37	-38.6	-40.3	15.9	0.00e+00	0	60	0	1118830592	48	4452
2026-01-22 10:12:21.35	322.68	63.96	-38.7	-40.5	15.7	0.00e+00	0	60	0	1121976320	48	4577
2026-01-22 10:12:22.36	323.07	63.56	-39.5	-41.5	14.6	0.00e+00	0	61	0	1125122048	49	4847
2026-01-22 10:12:23.37	323.45	63.16	-40.0	-42.2	13.8	6.10e-06	0	61	0	1128267776	50	4965
2026-01-22 10:12:24.38	323.81	62.75	-40.0	-42.1	13.9	7.60e-06	0	60	0	1131413504	50	4920
2026-01-22 10:12:25.39	324.17	62.35	-39.7	-41.7	14.3	7.00e-07	0	60	0	1134559232	50	4696
2026-01-22 10:12:26.40	324.51	61.95	-39.6	-41.6	14.5	0.00e+00	0	60	0	1137704960	50	4602
2026-01-22 10:12:27.41	324.84	61.56	-39.2	-41.1	15.1	0.00e+00	0	60	0	1140850688	50	4341
2026-01-22 10:12:28.42	325.16	61.16	-38.9	-40.7	15.4	0.00e+00	0	60	0	1143996416	49	4437
2026-01-22 10:12:29.43	325.47	60.76	-39.2	-41.1	15.1	0.00e+00	0	60	0	1147142144	49	4621
2026-01-22 10:12:30.43	325.77	60.38	-39.8	-41.9	14.4	7.00e-07	0	60	0	1150287872	50	4774
2026-01-22 10:12:31.44	326.07	59.98	-40.4	-42.8	13.5	9.10e-06	0	60	0	1153433600	51	4996
2026-01-22 10:12:32.45	326.35	59.59	-40.5	-42.9	13.3	2.51e-05	0	60	0	1156579328	51	5079
2026-01-22 10:12:33.46	326.63	59.21	-39.8	-41.8	14.2	6.10e-06	0	60	0	1159725056	51	4468
2026-01-22 10:12:34.47	326.89	58.82	-39.1	-40.8	15.2	0.00e+00	0	60	0	1162870784	50	4241
2026-01-22 10:12:35.48	327.15	58.44	-38.8	-40.6	15.5	0.00e+00	0	60	0	1166016512	49	4350
2026-01-22 10:12:36.49	327.41	58.06	-38.9	-40.6	15.6	0.00e+00	0	60	0	1169162240	49	4367
2026-01-22 10:12:37.50	327.65	57.68	-39.5	-41.4	14.8	0.00e+00	0	60	0	1172307968	49	4811
2026-01-22 10:12:38.51	327.89	57.30	-40.3	-42.6	13.6	4.50e-06	0	60	0	1175453696	51	4874
2026-01-22 10:12:39.52	328.13	56.92	-40.9	-43.5	12.6	8.46e-05	0	61	0	1179648000	52	5137
2026-01-22 10:12:40.54	328.36	56.55	-41.3	-44.1	12.0	2.45e-04	0	60	0	1181745152	53	5191
2026-01-22 10:12:41.54	328.57	56.18	-41.4	-44.4	11.6	5.54e-04	0	60	0	1184890880	53	5350
2026-01-22 10:12:42.55	328.79	55.81	-41.5	-44.5	11.4	1.13e-03	0	60	0	1188036608	53	5445
2026-01-22 10:12:43.56	329.00	55.44	-41.1	-43.8	12.0	4.96e-04	0	60	0	1191182336	53	5022
2026-01-22 10:12:44.57	329.20	55.08	-40.5	-42.9	13.1	7.40e-05	0	60	0	1195376640	53	4521
2026-01-22 10:12:45.59	329.40	54.71	-40.2	-42.4	13.6	1.06e-05	0	60	0	1198522368	52	4544
2026-01-22 10:12:46.59	329.60	54.35	-40.0	-42.2	13.9	2.20e-06	0	61	0	1201668096	52	4417
2026-01-22 10:12:47.60	329.79	53.99	-40.3	-42.6	13.6	7.60e-06	0	60	0	1204813824	52	4614
2026-01-22 10:12:48.61	329.97	53.64	-40.8	-43.4	12.7	3.81e-05	0	60	0	1206910976	52	5059
2026-01-22 10:12:49.62	330.15	53.28	-41.1	-43.8	12.3	1.35e-04	0	60	0	1210056704	52	5309
2026-01-22 10:12:50.63	330.33	52.93	-40.9	-43.5	12.6	1.10e-04	0	61	0	1214251008	52	5145
2026-01-22 10:12:51.64	330.50	52.58	-41.1	-43.7	12.4	1.46e-04	0	61	0	1217396736	52	5272
2026-01-22 10:12:52.65	330.67	52.23	-41.3	-44.2	12.0	3.13e-04	0	60	0	1220542464	53	5220
2026-01-22 10:12:53.66	330.83	51.89	-41.5	-44.4	11.7	5.58e-04	0	61	0	1223688192	53	5374
2026-01-22 10:12:54.67	331.00	51.55	-41.5	-44.4	11.7	6.71e-04	0	61	0	1226833920	53	5356
2026-01-22 10:12:55.68	331.15	51.21	-41.3	-44.0	12.1	3.40e-04	0	61	0	1229979648	53	5156
2026-01-22 10:12:56.69	331.31	50.87	-41.0	-43.6	12.6	1.44e-04	0	61	0	1233125376	53	4888
2026-01-22 10:12:57.70	331.46	50.53	-40.7	-43.2	13.0	5.41e-05	0	60	0	1236271104	53	4656
2026-01-22 10:12:58.71	331.61	50.20	-40.8	-43.3	12.8	5.87e-05	0	60	0	1239416832	53	4742
2026-01-22 10:12:59.72	331.75	49.86	-41.1	-43.8	12.3	1.20e-04	0	61	0	1242562560	53	5012
2026-01-22 10:13:00.73	331.89	49.54	-41.3	-44.1	12.0	3.12e-04	0	60	0	1245708288	53	5173
2026-01-22 10:13:01.74	332.03	49.21	-41.5	-44.4	11.7	4.25e-04	0	60	0	1248854016	53	5383
2026-01-22 10:13:02.75	332.16	48.88	-41.6	-44.6	11.6	6.72e-04	0	61	0	1251999744	53	5465
2026-01-22 10:13:03.76	332.30	48.56	-41.5	-44.4	11.7	6.58e-04	0	60	0	1255145472	53	5371
2026-01-22 10:13:04.77	332.43	48.24	-41.3	-44.1	11.9	5.29e-04	0	60	0	1258291200	53	5175
2026-01-22 10:13:05.78	332.55	47.92	-41.3	-44.0	12.0	2.95e-04	0	60	0	1261436928	53	5131
2026-01-22 10:13:06.79	332.68	47.61	-41.3	-44.2	11.9	3.84e-04	0	61	0	1264582656	53	5221
2026-01-22 10:13:07.80	332.80	47.29	-41.6	-44.6	11.5	7.73e-04	0	60	0	1267728384	53	5471
2026-01-22 10:13:08.81	332.92	46.98	-41.8	-45.0	11.0	1.52e-03	0	60	0	1270874112	54	5448
2026-01-22 10:13:09.82	333.04	46.67	-41.9	-45.2	10.9	2.47e-03	0	61	0	1274019840	54	5545
2026-01-22 10:13:10.83	333.16	46.36	-41.6	-44.7	11.3	1.32e-03	0	61	0	1277165568	54	5247
2026-01-22 10:13:11.83	333.27	46.06	-41.5	-44.4	11.7	5.92e-04	0	60	0	1280311296	54	5052
2026-01-22 10:13:12.85	333.38	45.75	-41.5	-44.5	11.5	7.22e-04	0	61	0	1283457024	54	5126
2026-01-22 10:13:13.86	333.49	45.45	-41.8	-44.9	11.2	1.16e-03	0	61	0	1286602752	54	5354
2026-01-22 10:13:14.87	333.60	45.15	-42.0	-45.3	10.8	2.64e-03	0	61	0	1289748480	54	5627
2026-01-22 10:13:15.87	333.70	44.86	-42.2	-45.7	10.3	3.68e-03	0	61	0	1292894208	54	5873
2026-01-22 10:13:16.88	333.81	44.57	-42.1	-45.6	10.4	4.47e-03	0	61	0	1296039936	54	5808
2026-01-22 10:13:17.89	333.91	44.27	-42.2	-45.7	10.2	6.25e-03	0	60	0	1299185664	54	5883
2026-01-22 10:13:18.90	334.01	43.98	-42.3	-45.9	9.9	9.79e-03	0	61	0	1302331392	55	5662
2026-01-22 10:13:19.91	334.11	43.70	-42.2	-45.8	10.0	8.28e-03	0	60	0	1305477120	55	5603
2026-01-22 10:13:20.92	334.20	43.41	-42.0	-45.4	10.6	5.58e-03	0	60	0	1308622848	55	5358
2026-01-22 10:13:21.93	334.30	43.12	-41.7	-44.8	11.1	2.09e-03	0	60	0	1311768576	55	5032
2026-01-22 10:13:22.94	334.39	42.84	-41.4	-44.3	11.7	6.10e-04	0	60	0	1314914304	54	5006
2026-01-22 10:13:23.95	334.48	42.56	-41.2	-43.9	12.2	2.50e-04	0	60	0	1318060032	54	4783
2026-01-22 10:13:24.96	334.57	42.28	-41.3	-44.1	12.0	3.10e-04	0	60	0	1321205760	54	4877
2026-01-22 10:13:25.97	334.66	42.01	-41.5	-44.4	11.8	4.46e-04	0	61	0	1324351488	54	5060
2026-01-22 10:13:26.98	334.75	41.73	-41.5	-44.5	11.6	5.72e-04	0	61	0	1327497216	54	5128
2026-01-22 10:13:27.99	334.84	41.46	-41.6	-44.6	11.5	7.92e-04	0	61	0	1330642944	54	5180
2026-01-22 10:13:28.99	334.92	41.19	-41.6	-44.6	11.5	8.71e-04	0	61	0	1333788672	54	5186
2026-01-22 10:13:30.00	335.00	40.93	-41.4	-44.3	11.8	5.88e-04	0	60	0	1336934400	54	5003
2026-01-22 10:13:31.01	335.09	40.66	-41.5	-44.4	11.7	5.00e-04	0	60	0	1340080128	54	5080
2026-01-22 10:13:32.02	335.17	40.40	-41.7	-44.7	11.4	1.00e-03	0	61	0	1343225856	54	5272
2026-01-22 10:13:33.03	335.25	40.13	-41.9	-45.2	11.0	1.96e-03	0	61	0	1346371584	54	5531
2026-01-22 10:13:34.04	335.32	39.87	-42.2	-45.6	10.4	3.03e-03	0	60	0	1349517312	54	5847
2026-01-22 10:13:35.05	335.40	39.61	-42.3	-45.9	10.1	5.99e-03	0	61	0	1352663040	55	5708
2026-01-22 10:13:36.06	335.48	39.36	-42.4	-46.1	9.9	8.49e-03	0	61	0	1355808768	55	5841
2026-01-22 10:13:37.07	335.55	39.10	-42.4	-46.1	10.0	8.31e-03	0	61	0	1358954496	55	5795
2026-01-22 10:13:38.08	335.63	38.85	-42.2	-45.7	10.4	5.56e-03	0	60	0	1362100224	55	5557
2026-01-22 10:13:39.09	335.70	38.60	-42.0	-45.4	10.7	3.27e-03	0	60	0	1365245952	55	5360
2026-01-22 10:13:40.10	335.77	38.35	-41.8	-45.0	11.0	2.02e-03	0	60	0	1368391680	55	5134
2026-01-22 10:13:41.11	335.84	38.10	-41.7	-44.8	11.3	1.72e-03	0	60	0	1371537408	55	4987
2026-01-22 10:13:42.12	335.91	37.86	-41.4	-44.3	11.8	6.87e-04	0	61	0	1374683136	54	5022
2026-01-22 10:13:43.13	335.98	37.61	-41.2	-43.9	12.1	3.69e-04	0	60	0	1377828864	54	4804
2026-01-22 10:13:44.14	336.05	37.37	-40.8	-43.3	12.7	1.07e-04	0	60	0	1380974592	53	4754
2026-01-22 10:13:45.15	336.11	37.13	-40.6	-43.0	13.1	4.11e-05	0	60	0	1384120320	53	4571
2026-01-22 10:13:46.16	336.18	36.89	-40.5	-42.9	13.2	2.74e-05	0	60	0	1387266048	53	4523
2026-01-22 10:13:47.17	336.24	36.65	-40.6	-43.1	13.0	3.43e-05	0	60	0	1390411776	53	4608
2026-01-22 10:13:48.18	336.31	36.42	-40.8	-43.3	12.8	5.18e-05	0	60	0	1393557504	53	4733
2026-01-22 10:13:49.19	336.37	36.18	-40.8	-43.3	12.8	6.79e-05	0	60	0	1396703232	53	4738
2026-01-22 10:13:50.20	336.43	35.95	-40.8	-43.3	12.8	6.56e-05	0	60	0	1399848960	53	4745
2026-01-22 10:13:51.21	336.49	35.72	-40.7	-43.2	12.8	5.87e-05	0	60	0	1402994688	53	4675
2026-01-22 10:13:52.22	336.56	35.49	-40.6	-43.0	13.0	3.58e-05	0	61	0	1406140416	53	4580
2026-01-22 10:13:53.23	336.62	35.26	-40.7	-43.2	12.9	5.41e-05	0	61	0	1409286144	53	4664
2026-01-22 10:13:54.24	336.67	35.04	-40.7	-43.2	12.8	6.17e-05	0	60	0	1412431872	53	4656
2026-01-22 10:13:55.24	336.73	34.81	-40.7	-43.1	12.9	3.89e-05	0	60	0	1415577600	53	4642
2026-01-22 10:13:56.25	336.79	34.59	-40.7	-43.3	12.7	7.55e-05	0	60	0	1418723328	53	4722
2026-01-22 10:13:57.26	336.85	34.37	-40.7	-43.2	12.8	6.40e-05	0	60	0	1421869056	53	4686
2026-01-22 10:13:58.27	336.90	34.15	-40.7	-43.3	12.7	7.32e-05	0	61	0	1425014784	53	4718
2026-01-22 10:13:59.28	336.96	33.93	-40.7	-43.3	12.7	7.70e-05	0	61	0	1428160512	53	4739
2026-01-22 10:14:00.29	337.01	33.72	-40.8	-43.4	12.6	1.03e-04	0	61	0	1431306240	53	4799
2026-01-22 10:14:01.30	337.07	33.50	-40.8	-43.3	12.7	8.69e-05	0	60	0	1434451968	53	4756
2026-01-22 10:14:02.31	337.12	33.29	-40.8	-43.4	12.6	9.91e-05	0	61	0	1437597696	53	4796
2026-01-22 10:14:03.32	337.17	33.08	-40.8	-43.4	12.6	8.69e-05	0	61	0	1440743424	53	4811
2026-01-22 10:14:04.34	337.23	32.86	-40.7	-43.3	12.7	8.62e-05	0	61	0	1443889152	53	4756
2026-01-22 10:14:05.35	337.28	32.65	-40.7	-43.2	12.7	8.69e-05	0	61	0	1447034880	53	4704
2026-01-22 10:14:06.36	337.33	32.45	-40.5	-43.0	13.0	4.88e-05	0	60	0	1450180608	53	4578
2026-01-22 10:14:07.37	337.38	32.24	-40.3	-42.7	13.2	2.13e-05	0	61	0	1453326336	52	4660
2026-01-22 10:14:08.38	337.43	32.04	-40.1	-42.4	13.5	6.80e-06	0	61	0	1456472064	52	4545
2026-01-22 10:14:09.39	337.48	31.83	-40.1	-42.4	13.6	9.90e-06	0	61	0	1459617792	52	4516
2026-01-22 10:14:10.39	337.53	31.63	-40.1	-42.4	13.6	9.10e-06	0	61	0	1462763520	52	4499
2026-01-22 10:14:11.40	337.57	31.43	-40.0	-42.3	13.8	9.10e-06	0	60	0	1465909248	51	4714
2026-01-22 10:14:12.41	337.62	31.23	-39.9	-42.1	13.9	5.30e-06	0	61	0	1469054976	51	4625
2026-01-22 10:14:13.42	337.67	31.03	-40.0	-42.1	13.9	3.80e-06	0	61	0	1472200704	51	4650
2026-01-22 10:14:14.43	337.72	30.84	-39.9	-42.0	14.0	4.50e-06	0	60	0	1475346432	51	4564
2026-01-22 10:14:15.44	337.76	30.64	-39.9	-42.0	14.0	1.50e-06	0	60	0	1478492160	51	4572
2026-01-22 10:14:16.45	337.81	30.45	-39.9	-42.0	14.0	1.50e-06	0	60	0	1481637888	51	4576
2026-01-22 10:14:17.46	337.85	30.25	-39.8	-42.0	14.0	1.50e-06	0	60	0	1484783616	51	4564
2026-01-22 10:14:18.47	337.90	30.06	-39.8	-42.0	14.0	0.00e+00	0	60	0	1487929344	51	4575
2026-01-22 10:14:19.48	337.94	29.87	-39.9	-42.1	13.9	3.00e-06	0	61	0	1491075072	51	4623
2026-01-22 10:14:20.49	337.98	29.68	-40.0	-42.2	13.9	3.80e-06	0	61	0	1494220800	51	4655
2026-01-22 10:14:21.50	338.03	29.50	-40.0	-42.2	13.8	6.80e-06	0	60	0	1497366528	51	4682
2026-01-22 10:14:22.51	338.07	29.31	-40.0	-42.2	13.8	6.10e-06	0	60	0	1500512256	51	4691
2026-01-22 10:14:23.52	338.11	29.12	-40.0	-42.3	13.7	6.80e-06	0	60	0	1503657984	51	4725
2026-01-22 10:14:24.53	338.15	28.94	-40.1	-42.3	13.7	6.10e-06	0	60	0	1506803712	51	4737
2026-01-22 10:14:25.54	338.20	28.76	-40.1	-42.4	13.7	3.80e-06	0	60	0	1509949440	51	4761
2026-01-22 10:14:26.55	338.24	28.57	-40.1	-42.4	13.7	6.80e-06	0	61	0	1513095168	51	4766
2026-01-22 10:14:27.56	338.28	28.39	-40.2	-42.6	13.5	9.90e-06	0	60	0	1516240896	51	4879
2026-01-22 10:14:28.57	338.32	28.21	-40.3	-42.6	13.4	1.14e-05	0	60	0	1519386624	51	4921
2026-01-22 10:14:29.58	338.36	28.04	-40.3	-42.6	13.4	1.67e-05	0	61	0	1522532352	51	4919
2026-01-22 10:14:30.59	338.40	27.86	-40.4	-42.8	13.2	2.21e-05	0	60	0	1525678080	51	5017
2026-01-22 10:14:31.60	338.44	27.68	-40.4	-42.8	13.1	2.36e-05	0	61	0	1528823808	51	5041
2026-01-22 10:14:32.61	338.47	27.51	-40.3	-42.7	13.3	1.90e-05	0	60	0	1531969536	51	4959
2026-01-22 10:14:33.62	338.51	27.33	-40.3	-42.7	13.3	2.13e-05	0	60	0	1535115264	51	4968
2026-01-22 10:14:34.63	338.55	27.16	-40.3	-42.7	13.3	1.44e-05	0	60	0	1539309568	51	4929
2026-01-22 10:14:35.63	338.59	26.99	-40.1	-42.4	13.5	9.10e-06	0	61	0	1542455296	51	4801
2026-01-22 10:14:36.64	338.62	26.82	-40.1	-42.4	13.5	4.50e-06	0	60	0	1544552448	51	4806
2026-01-22 10:14:37.65	338.66	26.65	-40.1	-42.4	13.5	8.30e-06	0	61	0	1547698176	51	4782
2026-01-22 10:14:38.66	338.70	26.48	-40.0	-42.3	13.6	6.10e-06	0	61	0	1550843904	51	4728
2026-01-22 10:14:39.67	338.73	26.31	-40.0	-42.3	13.5	9.90e-06	0	61	0	1553989632	51	4755
2026-01-22 10:14:40.68	338.77	26.15	-39.9	-42.2	13.6	6.10e-06	0	61	0	1558183936	51	4705
2026-01-22 10:14:41.69	338.80	25.98	-40.0	-42.2	13.6	4.50e-06	0	60	0	1561329664	51	4705
2026-01-22 10:14:42.70	338.84	25.82	-39.9	-42.2	13.6	6.80e-06	0	60	0	1564475392	51	4685
2026-01-22 10:14:43.71	338.87	25.65	-39.9	-42.3	13.5	1.06e-05	0	61	0	1566572544	51	4712
2026-01-22 10:14:44.72	338.91	25.49	-39.9	-42.2	13.5	7.60e-06	0	61	0	1569718272	51	4698
2026-01-22 10:14:45.73	338.94	25.33	-39.9	-42.2	13.6	1.37e-05	0	60	0	1573912576	51	4652
2026-01-22 10:14:46.74	338.98	25.17	-39.9	-42.2	13.5	6.80e-06	0	61	0	1577058304	51	4677
2026-01-22 10:14:47.75	339.01	25.01	-39.8	-42.1	13.6	9.10e-06	0	60	0	1580204032	51	4622
2026-01-22 10:14:48.76	339.04	24.85	-39.8	-42.2	13.4	1.44e-05	0	60	0	1583349760	51	4663
2026-01-22 10:14:49.76	339.08	24.70	-39.9	-42.3	13.3	1.75e-05	0	61	0	1586495488	51	4722
2026-01-22 10:14:50.77	339.11	24.54	-39.9	-42.3	13.3	2.21e-05	0	60	0	1589641216	51	4735
2026-01-22 10:14:51.79	339.14	24.38	-39.9	-42.3	13.3	2.51e-05	0	60	0	1592786944	51	4737
2026-01-22 10:14:52.80	339.17	24.23	-39.9	-42.2	13.3	1.22e-05	0	61	0	1595932672	51	4690
2026-01-22 10:14:53.80	339.20	24.08	-39.9	-42.2	13.3	1.29e-05	0	60	0	1599078400	51	4694
2026-01-22 10:14:54.81	339.24	23.92	-39.8	-42.2	13.4	2.13e-05	0	61	0	1602224128	51	4668
2026-01-22 10:14:55.82	339.27	23.77	-39.8	-42.2	13.3	2.13e-05	0	61	0	1605369856	51	4675
2026-01-22 10:14:56.83	339.30	23.62	-39.7	-42.0	13.4	1.67e-05	0	60	0	1608515584	51	4589
2026-01-22 10:14:57.84	339.33	23.47	-39.7	-42.0	13.4	2.05e-05	0	61	0	1611661312	51	4592
2026-01-22 10:14:58.85	339.36	23.32	-39.6	-41.9	13.5	1.37e-05	0	60	0	1614807040	51	4522
2026-01-22 10:14:59.86	339.39	23.17	-39.6	-41.9	13.4	1.75e-05	0	60	0	1617952768	51	4545
2026-01-22 10:15:00.87	339.42	23.02	-39.6	-41.9	13.4	1.98e-05	0	60	0	1621098496	51	4544
2026-01-22 10:15:01.88	339.45	22.88	-39.5	-41.7	13.6	9.10e-06	0	60	0	1624244224	51	4441
2026-01-22 10:15:02.89	339.48	22.73	-39.5	-41.8	13.5	1.22e-05	0	60	0	1627389952	50	4729
2026-01-22 10:15:03.90	339.51	22.58	-39.6	-41.9	13.3	1.67e-05	0	60	0	1630535680	50	4775
2026-01-22 10:15:04.91	339.54	22.44	-39.5	-41.8	13.3	1.44e-05	0	61	0	1633681408	50	4730
2026-01-22 10:15:05.92	339.57	22.30	-39.3	-41.7	13.4	7.60e-06	0	61	0	1636827136	50	4654
2026-01-22 10:15:06.93	339.60	22.15	-39.5	-41.9	13.0	3.20e-05	0	61	0	1639972864	50	4790
2026-01-22 10:15:07.94	339.62	22.01	-39.4	-41.9	12.9	4.27e-05	0	60	0	1643118592	50	4770
2026-01-22 10:15:08.95	339.65	21.87	-39.2	-41.5	13.2	3.28e-05	0	60	0	1646264320	50	4594
2026-01-22 10:15:09.96	339.68	21.73	-39.2	-41.6	13.1	1.67e-05	0	61	0	1649410048	50	4609
2026-01-22 10:15:10.97	339.71	21.59	-39.2	-41.6	13.0	3.28e-05	0	60	0	1652555776	50	4650
2026-01-22 10:15:11.98	339.74	21.45	-39.4	-41.9	12.6	7.24e-05	0	61	0	1655701504	50	4804
2026-01-22 10:15:12.99	339.76	21.31	-39.4	-42.0	12.5	1.14e-04	0	61	0	1658847232	50	4853
2026-01-22 10:15:14.00	339.79	21.17	-39.3	-41.9	12.5	1.18e-04	0	60	0	1661992960	50	4784
2026-01-22 10:15:15.01	339.82	21.04	-39.3	-41.9	12.5	1.15e-04	0	60	0	1665138688	50	4779
2026-01-22 10:15:16.02	339.84	20.90	-39.2	-41.9	12.4	1.22e-04	0	60	0	1668284416	50	4772
2026-01-22 10:15:17.03	339.87	20.77	-39.5	-42.3	11.9	2.62e-04	0	60	0	1671430144	50	4992
2026-01-22 10:15:18.04	339.90	20.63	-39.8	-42.9	11.2	9.77e-04	0	60	0	1674575872	50	5394
2026-01-22 10:15:19.04	339.92	20.50	-40.2	-43.9	10.0	4.96e-03	0	61	0	1677721600	51	5660
2026-01-22 10:15:20.05	339.95	20.37	-40.6	-44.8	8.9	2.11e-02	0	61	0	1680867328	51	6339
2026-01-22 10:15:21.06	339.97	20.23	-40.9	-45.7	7.9	6.94e-02	0	60	0	1684013056	52	6601
2026-01-22 10:15:22.07	340.00	20.10	-41.1	-46.7	6.7	1.41e-01	0	60	0	1687158784	52	7437
2026-01-22 10:15:23.08	340.02	19.97	-41.2	-47.7	5.8	3.15e-01	0	61	0	1690304512	53	7817
2026-01-22 10:15:24.09	340.05	19.84	-41.3	-48.5	5.2	5.13e-01	0	60	0	1693450240	53	8640
2026-01-22 10:15:25.10	340.07	19.71	-41.4	-49.9	4.0	8.72e-01	0	60	104	1695547392	53	10130
2026-01-22 10:15:26.11	340.10	19.58	-41.5	-50.2	4.3	1.42e+00	0	60	104	1695547392	53	10495
2026-01-22 10:15:27.12	340.12	19.45	-41.5	-51.0	4.1	1.47e+00	0	60	104	1695547392	53	11546
2026-01-22 10:15:28.13	340.15	19.33	-42.0	-51.7	4.0	1.48e+00	0	60	104	1695547392	54	11703
2026-01-22 10:15:29.14	340.17	19.20	-41.3	-53.2	3.8	1.49e+00	0	60	104	1695547392	54	14032
2026-01-22 10:15:30.15	340.20	19.07	-42.2	-52.9	3.8	1.49e+00	0	61	104	1695547392	55	12682
2026-01-22 10:15:31.16	340.22	18.95	-41.6	-53.4	3.8	1.49e+00	0	61	104	1695547392	55	13483
2026-01-22 10:15:32.17	340.24	18.82	-42.2	-53.2	3.8	1.49e+00	0	61	104	1695547392	55	13186
2026-01-22 10:15:33.18	340.27	18.70	-42.3	-53.0	3.9	1.49e+00	0	61	104	1695547392	55	12879
2026-01-22 10:15:34.19	340.29	18.57	-42.4	-53.3	3.8	1.49e+00	0	61	104	1695547392	55	13373
2026-01-22 10:15:35.20	340.32	18.45	-43.5	-55.5	3.8	1.49e+00	0	61	104	1695547392	57	15271
2026-01-22 10:15:36.20	340.34	18.33	-41.8	-53.7	3.8	1.49e+00	0	60	104	1695547392	55	13972
2026-01-22 10:15:37.21	340.36	18.21	-41.1	-53.2	3.8	1.49e+00	0	60	104	1695547392	54	13991
2026-01-22 10:15:38.22	340.38	18.09	-41.0	-53.3	3.8	1.49e+00	0	61	104	1695547392	53	14903
2026-01-22 10:15:39.23	340.41	17.96	-41.3	-53.7	3.8	1.49e+00	0	61	104	1695547392	53	15610
2026-01-22 10:15:40.24	340.43	17.84	-40.8	-53.0	3.8	1.49e+00	0	61	104	1695547392	53	14456
2026-01-22 10:15:41.25	340.45	17.72	-40.7	-52.9	3.8	1.49e+00	0	61	104	1695547392	53	14318
2026-01-22 10:15:42.26	340.47	17.61	-40.8	-53.0	3.8	1.49e+00	0	60	104	1695547392	53	14475
2026-01-22 10:15:43.27	340.50	17.49	-40.9	-53.2	3.8	1.49e+00	0	61	104	1695547392	53	14741
2026-01-22 10:15:44.28	340.52	17.37	-41.0	-53.2	3.8	1.49e+00	0	61	104	1695547392	53	14862
2026-01-22 10:15:45.29	340.54	17.25	-41.4	-53.7	3.8	1.49e+00	0	61	104	1695547392	53	15669
2026-01-22 10:15:46.30	340.56	17.13	-41.2	-53.4	3.8	1.49e+00	0	61	104	1695547392	53	15152
2026-01-22 10:15:47.31	340.58	17.02	-40.8	-53.1	3.8	1.49e+00	0	61	104	1695547392	53	14665
2026-01-22 10:15:48.32	340.60	16.90	-41.0	-53.3	3.8	1.49e+00	0	61	104	1695547392	53	14911
2026-01-22 10:15:49.33	340.63	16.79	-41.3	-53.6	3.8	1.49e+00	0	61	104	1695547392	53	15506
2026-01-22 10:15:50.34	340.65	16.67	-41.1	-53.3	3.8	1.49e+00	0	61	104	1695547392	53	15008
2026-01-22 10:15:51.35	340.67	16.56	-40.8	-53.1	3.8	1.49e+00	0	60	104	1695547392	53	14674
2026-01-22 10:15:52.36	340.69	16.45	-41.0	-53.3	3.8	1.49e+00	0	61	104	1695547392	53	14970
2026-01-22 10:15:53.36	340.71	16.33	-41.1	-53.4	3.8	1.49e+00	0	61	104	1695547392	53	15125
2026-01-22 10:15:54.37	340.73	16.22	-41.1	-53.4	3.8	1.49e+00	0	61	104	1695547392	53	15224
2026-01-22 10:15:55.38	340.75	16.11	-40.9	-53.2	3.8	1.49e+00	0	61	104	1695547392	53	14732
2026-01-22 10:15:56.39	340.77	16.00	-41.0	-53.3	3.8	1.49e+00	0	61	104	1695547392	53	14907
2026-01-22 10:15:57.40	340.79	15.89	-41.0	-53.3	3.8	1.49e+00	0	61	104	1695547392	53	15021
2026-01-22 10:15:58.41	340.81	15.78	-41.1	-53.4	3.8	1.49e+00	0	61	104	1695547392	53	15182
2026-01-22 10:15:59.42	340.83	15.67	-40.8	-53.1	3.8	1.49e+00	0	61	104	1695547392	53	14588
2026-01-22 10:16:00.43	340.85	15.56	-40.8	-53.1	3.8	1.49e+00	0	61	104	1695547392	53	14670
2026-01-22 10:16:01.44	340.87	15.45	-41.1	-53.5	3.8	1.49e+00	0	60	104	1695547392	53	15240
2026-01-22 10:16:02.45	340.89	15.34	-40.9	-53.3	3.8	1.49e+00	0	61	104	1695547392	53	14892
2026-01-22 10:16:03.46	340.91	15.23	-40.7	-52.9	3.8	1.49e+00	0	61	104	1695547392	53	14363
2026-01-22 10:16:04.47	340.93	15.12	-40.8	-53.1	3.8	1.49e+00	0	61	104	1695547392	53	14604
2026-01-22 10:16:05.48	340.95	15.02	-41.0	-53.4	3.8	1.49e+00	0	61	104	1695547392	53	15057
2026-01-22 10:16:06.49	340.97	14.91	-40.8	-53.2	3.8	1.49e+00	0	61	104	1695547392	53	14712
2026-01-22 10:16:07.50	340.99	14.80	-40.7	-53.0	3.8	1.49e+00	0	61	104	1695547392	53	14512
2026-01-22 10:16:08.51	341.01	14.70	-40.8	-53.1	3.8	1.49e+00	0	61	104	1695547392	53	14687
2026-01-22 10:16:09.52	341.03	14.59	-40.9	-53.2	3.8	1.49e+00	0	61	104	1695547392	53	14806
2026-01-22 10:16:10.53	341.05	14.49	-40.8	-53.1	3.8	1.49e+00	0	61	104	1695547392	53	14685
2026-01-22 10:16:11.54	341.07	14.38	-40.7	-53.1	3.8	1.49e+00	0	61	104	1695547392	53	14594
2026-01-22 10:16:12.55	341.08	14.28	-40.8	-53.2	3.8	1.49e+00	0	61	104	1695547392	53	14788
2026-01-22 10:16:13.56	341.10	14.18	-40.9	-53.3	3.8	1.49e+00	0	61	104	1695547392	53	14904
2026-01-22 10:16:14.56	341.12	14.07	-40.8	-53.1	3.8	1.49e+00	0	61	104	1695547392	53	14701
2026-01-22 10:16:15.57	341.14	13.97	-40.7	-53.0	3.8	1.49e+00	0	61	104	1695547392	53	14377
2026-01-22 10:16:16.58	341.16	13.87	-40.9	-53.2	3.8	1.49e+00	0	61	104	1695547392	53	14751
2026-01-22 10:16:17.59	341.18	13.77	-41.0	-53.4	3.8	1.49e+00	0	61	104	1695547392	53	15091
2026-01-22 10:16:18.60	341.19	13.67	-40.7	-53.1	3.8	1.49e+00	0	61	104	1695547392	53	14551
2026-01-22 10:16:19.61	341.21	13.57	-40.6	-52.9	3.8	1.49e+00	0	61	104	1695547392	53	14230
2026-01-22 10:16:20.62	341.23	13.47	-40.8	-53.1	3.8	1.49e+00	0	61	104	1695547392	53	14597
2026-01-22 10:16:21.63	341.25	13.37	-40.9	-53.3	3.8	1.49e+00	0	61	104	1695547392	53	14918
2026-01-22 10:16:22.64	341.27	13.27	-40.6	-52.9	3.8	1.49e+00	0	61	104	1695547392	53	14343
2026-01-22 10:16:23.65	341.28	13.17	-40.6	-52.9	3.8	1.49e+00	0	61	104	1695547392	53	14257
2026-01-22 10:16:24.66	341.30	13.07	-40.7	-53.0	3.8	1.49e+00	0	61	104	1695547392	53	14489
2026-01-22 10:16:25.67	341.32	12.97	-40.8	-53.2	3.8	1.49e+00	0	61	104	1695547392	53	14721
2026-01-22 10:16:26.68	341.34	12.87	-40.6	-52.9	3.8	1.49e+00	0	61	104	1695547392	53	14262
2026-01-22 10:16:27.69	341.35	12.77	-40.6	-52.9	3.8	1.49e+00	0	61	104	1695547392	53	14265
2026-01-22 10:16:28.70	341.37	12.68	-40.6	-53.0	3.8	1.49e+00	0	61	104	1695547392	53	14376
2026-01-22 10:16:29.70	341.39	12.58	-40.8	-53.1	3.8	1.49e+00	0	61	104	1695547392	53	14689
2026-01-22 10:16:30.72	341.40	12.48	-40.6	-52.8	3.8	1.49e+00	0	61	104	1695547392	53	14206
2026-01-22 10:16:31.73	341.42	12.39	-40.6	-52.9	3.8	1.49e+00	0	61	104	1695547392	53	14219
2026-01-22 10:16:32.73	341.44	12.29	-40.6	-52.9	3.8	1.49e+00	0	61	104	1695547392	53	14332
2026-01-22 10:16:33.74	341.45	12.20	-40.8	-53.2	3.8	1.49e+00	0	61	104	1695547392	53	14753
2026-01-22 10:16:34.75	341.47	12.10	-40.6	-52.9	3.8	1.49e+00	0	61	104	1695547392	53	14242
2026-01-22 10:16:35.77	341.49	12.01	-40.5	-52.8	3.8	1.49e+00	0	61	104	1695547392	53	14059
2026-01-22 10:16:36.77	341.50	11.91	-40.6	-52.9	3.8	1.49e+00	0	61	104	1695547392	52	15188
2026-01-22 10:16:37.78	341.52	11.82	-40.8	-53.1	3.8	1.49e+00	0	61	104	1695547392	52	15533
2026-01-22 10:16:38.79	341.54	11.73	-40.6	-52.9	3.8	1.49e+00	0	61	104	1695547392	52	15167
2026-01-22 10:16:39.80	341.55	11.63	-40.4	-52.7	3.8	1.49e+00	0	61	104	1695547392	52	14824
2026-01-22 10:16:40.81	341.57	11.54	-40.6	-52.9	3.8	1.49e+00	0	61	104	1695547392	52	15175
2026-01-22 10:16:41.82	341.59	11.45	-40.7	-53.0	3.8	1.49e+00	0	61	104	1695547392	52	15399
2026-01-22 10:16:42.83	341.60	11.35	-40.7	-53.0	3.8	1.49e+00	0	61	104	1695547392	52	15269
2026-01-22 10:16:43.84	341.62	11.26	-40.4	-52.7	3.8	1.49e+00	0	61	104	1695547392	52	14801
2026-01-22 10:16:44.85	341.63	11.17	-40.6	-52.9	3.8	1.49e+00	0	61	104	1695547392	52	15126
2026-01-22 10:16:45.86	341.65	11.08	-40.6	-53.0	3.8	1.49e+00	0	60	104	1695547392	52	15296
2026-01-22 10:16:46.86	341.67	10.99	-40.6	-52.9	3.8	1.49e+00	0	61	104	1695547392	52	15194
2026-01-22 10:16:47.87	341.68	10.90	-40.4	-52.7	3.8	1.49e+00	0	61	104	1695547392	52	14829
2026-01-22 10:16:48.88	341.70	10.81	-40.5	-52.9	3.8	1.49e+00	0	60	104	1695547392	52	15074
2026-01-22 10:16:49.89	341.71	10.72	-40.6	-53.0	3.8	1.49e+00	0	61	104	1695547392	52	15267
2026-01-22 10:16:50.90	341.73	10.63	-40.5	-52.8	3.8	1.49e+00	0	61	104	1695547392	52	15012
2026-01-22 10:16:51.91	341.74	10.54	-40.4	-52.7	3.8	1.49e+00	0	61	104	1695547392	52	14860
2026-01-22 10:16:52.92	341.76	10.45	-40.5	-52.8	3.8	1.49e+00	0	61	104	1695547392	52	14948
2026-01-22 10:16:53.93	341.77	10.36	-40.6	-52.9	3.8	1.49e+00	0	61	104	1695547392	52	15167
2026-01-22 10:16:54.94	341.79	10.28	-40.5	-52.8	3.8	1.49e+00	0	61	104	1695547392	52	14937
2026-01-22 10:16:55.95	341.80	10.19	-40.4	-52.8	3.8	1.49e+00	0	61	104	1695547392	52	14882
2026-01-22 10:16:56.96	341.82	10.10	-40.4	-52.7	3.8	1.49e+00	0	61	104	1695547392	52	14868
2026-01-22 10:16:57.97	341.83	10.01	-40.5	-52.8	3.8	1.49e+00	0	61	104	1695547392	52	15044
2026-01-22 10:16:58.98	341.85	9.93	-40.5	-52.8	3.8	1.49e+00	0	61	104	1695547392	52	14982
2026-01-22 10:16:59.99	341.86	9.84	-40.4	-52.7	3.8	1.49e+00	0	61	104	1695547392	52	14786
2026-01-22 10:17:01.00	341.88	9.75	-40.4	-52.7	3.8	1.49e+00	0	61	104	1695547392	52	14757
2026-01-22 10:17:02.01	341.89	9.67	-40.5	-52.8	3.8	1.49e+00	0	61	104	1695547392	52	15030
2026-01-22 10:17:03.02	341.91	9.58	-40.6	-52.9	3.8	1.49e+00	0	61	104	1695547392	52	15135
2026-01-22 10:17:04.03	341.92	9.50	-40.4	-52.7	3.8	1.49e+00	0	61	104	1695547392	52	14794
2026-01-22 10:17:05.04	341.94	9.41	-40.4	-52.7	3.8	1.49e+00	0	61	104	1695547392	52	14716
2026-01-22 10:17:06.05	341.95	9.33	-40.5	-52.8	3.8	1.49e+00	0	61	104	1695547392	52	14974
2026-01-22 10:17:07.06	341.97	9.24	-40.7	-53.0	3.8	1.49e+00	0	61	104	1695547392	52	15226
2026-01-22 10:17:08.07	341.98	9.16	-40.4	-52.7	3.8	1.49e+00	0	61	104	1695547392	52	14809
2026-01-22 10:17:09.08	342.00	9.07	-40.4	-52.7	3.8	1.49e+00	0	61	104	1695547392	52	14827
2026-01-22 10:17:10.09	342.01	8.99	-40.5	-52.8	3.8	1.49e+00	0	61	104	1695547392	52	14987
2026-01-22 10:17:11.10	342.02	8.91	-40.6	-52.9	3.8	1.49e+00	0	61	104	1695547392	52	15126
2026-01-22 10:17:12.10	342.04	8.82	-40.5	-52.8	3.8	1.49e+00	0	61	104	1695547392	52	14892
2026-01-22 10:17:13.11	342.05	8.74	-40.4	-52.7	3.8	1.49e+00	0	61	104	1695547392	52	14841
