passes_logs/2026/01/22/R2.0S_Moscow/R2.0S_Moscow__20260122_224426_SUOMI_NPP_rec.log

#Pass ID: 20260122_224426_SUOMI NPP
#Satellite: SUOMI NPP
#Configuration: NPP
#almurnet v.1.7.20251203
#Start time: 2026-01-22 22:44:25

#Version: 2.2.20231116
#Station: R2.0S_Moscow
#Location: 37.707566 lon 55.798166 lat
#TLE: 1 37849U 11061A   26022.50498765  .00000208  00000+0  11976-3 0  9992
#TLE: 2 37849  98.7820 324.4892 0002275  50.8149 309.3229 14.19528284737775

#Time	Az	El	Level	Level2	SNR	BER	BlckErr	Temp	State	Recorded	gain1	gain2
2026-01-22 22:44:25.67	21.61	1.98	-42.8	-57.3	3.8	1.49e+00	0	51	0	0	57	18912
2026-01-22 22:44:26.68	21.66	2.04	-42.8	-57.3	3.8	1.49e+00	0	51	104	0	57	18846
2026-01-22 22:44:27.69	21.71	2.10	-42.8	-57.3	3.8	1.49e+00	0	51	104	0	57	18865
2026-01-22 22:44:28.70	21.76	2.16	-42.8	-57.3	3.8	1.49e+00	0	51	104	0	57	18899
2026-01-22 22:44:29.71	21.81	2.22	-42.8	-57.3	3.8	1.49e+00	0	52	104	0	57	18831
2026-01-22 22:44:30.72	21.86	2.28	-42.8	-57.3	3.8	1.49e+00	0	51	104	0	57	18800
2026-01-22 22:44:31.73	21.91	2.34	-42.8	-57.3	3.8	1.49e+00	0	52	104	0	57	18834
2026-01-22 22:44:32.74	21.96	2.40	-42.8	-57.3	3.8	1.49e+00	0	52	104	0	57	18863
2026-01-22 22:44:33.74	22.01	2.46	-42.8	-57.3	3.8	1.49e+00	0	52	104	0	57	18853
2026-01-22 22:44:34.75	22.06	2.52	-42.8	-57.3	3.8	1.49e+00	0	52	104	0	57	18873
2026-01-22 22:44:35.76	22.11	2.58	-42.8	-57.3	3.8	1.49e+00	0	52	104	0	57	18869
2026-01-22 22:44:36.77	22.16	2.64	-42.8	-57.3	3.8	1.49e+00	0	52	104	0	57	18843
2026-01-22 22:44:37.78	22.22	2.70	-42.8	-57.3	3.8	1.49e+00	0	52	104	0	57	18810
2026-01-22 22:44:38.79	22.27	2.76	-42.8	-57.3	3.8	1.49e+00	0	52	104	0	57	18861
2026-01-22 22:44:39.80	22.32	2.83	-42.8	-57.3	3.8	1.49e+00	0	52	104	0	57	18850
2026-01-22 22:44:40.81	22.37	2.89	-42.8	-57.3	3.8	1.49e+00	0	52	104	0	57	18817
2026-01-22 22:44:41.82	22.42	2.95	-42.8	-57.3	3.8	1.49e+00	0	52	104	0	57	18877
2026-01-22 22:44:42.83	22.48	3.01	-42.8	-57.3	3.8	1.49e+00	0	52	104	0	57	18871
2026-01-22 22:44:43.84	22.53	3.07	-42.8	-57.3	3.8	1.49e+00	0	53	104	0	57	18863
2026-01-22 22:44:44.85	22.58	3.14	-42.8	-57.3	3.8	1.49e+00	0	53	104	0	57	18819
2026-01-22 22:44:45.86	22.64	3.20	-42.8	-57.3	3.8	1.49e+00	0	53	104	0	57	18760
2026-01-22 22:44:46.87	22.69	3.26	-42.8	-57.3	3.8	1.49e+00	0	53	104	0	57	18832
2026-01-22 22:44:47.88	22.74	3.32	-42.8	-57.3	3.8	1.49e+00	0	53	104	0	57	18869
2026-01-22 22:44:48.89	22.80	3.39	-42.8	-57.3	3.8	1.49e+00	0	53	104	0	57	18828
2026-01-22 22:44:49.91	22.85	3.45	-42.8	-57.3	3.8	1.49e+00	0	53	104	0	57	18834
2026-01-22 22:44:50.92	22.91	3.51	-42.8	-57.3	3.8	1.49e+00	0	53	104	0	57	18824
2026-01-22 22:44:51.93	22.96	3.57	-42.8	-57.3	3.8	1.49e+00	0	53	104	0	57	18828
2026-01-22 22:44:52.94	23.02	3.64	-42.8	-57.3	3.8	1.49e+00	0	53	104	0	57	18848
2026-01-22 22:44:53.95	23.07	3.70	-42.8	-57.3	3.8	1.49e+00	0	53	104	0	57	18791
2026-01-22 22:44:54.96	23.13	3.76	-42.8	-57.3	3.8	1.49e+00	0	53	104	0	57	18810
2026-01-22 22:44:55.97	23.18	3.83	-42.8	-57.3	3.8	1.49e+00	0	53	104	0	57	18839
2026-01-22 22:44:56.98	23.24	3.89	-42.8	-57.3	3.8	1.49e+00	0	53	104	0	57	18849
2026-01-22 22:44:57.99	23.29	3.96	-42.8	-57.3	3.8	1.49e+00	0	53	104	0	57	18858
2026-01-22 22:44:59.00	23.35	4.02	-42.8	-57.3	3.8	1.49e+00	0	53	104	0	57	18867
2026-01-22 22:45:00.01	23.41	4.08	-42.8	-57.3	3.8	1.49e+00	0	53	104	0	57	18819
2026-01-22 22:45:01.02	23.46	4.15	-42.8	-57.3	3.8	1.49e+00	0	54	104	0	57	18815
2026-01-22 22:45:02.03	23.52	4.21	-42.8	-57.3	3.8	1.49e+00	0	54	104	0	57	18888
2026-01-22 22:45:03.05	23.58	4.28	-42.8	-57.3	3.8	1.49e+00	0	54	104	0	57	18801
2026-01-22 22:45:04.06	23.63	4.34	-42.8	-57.3	3.8	1.49e+00	0	54	104	0	57	18804
2026-01-22 22:45:05.07	23.69	4.41	-42.8	-57.3	3.8	1.49e+00	0	54	104	0	57	18868
2026-01-22 22:45:06.08	23.75	4.47	-42.8	-57.3	3.8	1.49e+00	0	54	104	0	57	18819
2026-01-22 22:45:07.09	23.81	4.54	-42.8	-57.3	3.8	1.49e+00	0	54	104	0	57	18770
2026-01-22 22:45:08.10	23.87	4.60	-42.8	-57.3	3.8	1.49e+00	0	54	104	0	57	18816
2026-01-22 22:45:09.11	23.92	4.67	-42.8	-57.3	3.8	1.49e+00	0	54	104	0	57	18843
2026-01-22 22:45:10.12	23.98	4.73	-42.8	-57.3	3.8	1.49e+00	0	54	104	0	57	18789
2026-01-22 22:45:11.13	24.04	4.80	-42.8	-57.3	3.8	1.49e+00	0	54	104	0	57	18813
2026-01-22 22:45:12.14	24.10	4.86	-42.8	-57.3	3.8	1.49e+00	0	54	104	0	57	18804
2026-01-22 22:45:13.15	24.16	4.93	-42.8	-57.3	3.8	1.49e+00	0	54	104	0	57	18805
2026-01-22 22:45:14.16	24.22	5.00	-42.8	-57.3	3.8	1.49e+00	0	54	104	0	57	18803
2026-01-22 22:45:15.17	24.28	5.06	-42.8	-57.3	3.8	1.49e+00	0	55	104	0	57	18797
2026-01-22 22:45:16.18	24.34	5.13	-42.8	-57.3	3.8	1.49e+00	0	55	104	0	57	18881
2026-01-22 22:45:17.19	24.40	5.19	-42.8	-57.3	3.8	1.49e+00	0	55	104	0	57	18794
2026-01-22 22:45:18.20	24.46	5.26	-42.8	-57.3	3.8	1.49e+00	0	55	104	0	57	18843
2026-01-22 22:45:19.21	24.52	5.33	-42.8	-57.3	3.8	1.49e+00	0	55	104	0	57	18819
2026-01-22 22:45:20.22	24.58	5.39	-42.8	-57.3	3.8	1.49e+00	0	55	104	0	57	18862
2026-01-22 22:45:21.23	24.64	5.46	-42.8	-57.3	3.8	1.49e+00	0	55	104	0	57	18846
2026-01-22 22:45:22.25	24.71	5.53	-42.8	-57.3	3.8	1.49e+00	0	55	104	0	57	18823
2026-01-22 22:45:23.26	24.77	5.60	-42.8	-57.3	3.8	1.49e+00	0	55	104	0	57	18823
2026-01-22 22:45:24.27	24.83	5.66	-42.8	-57.3	3.8	1.49e+00	0	55	104	0	57	18776
2026-01-22 22:45:25.28	24.89	5.73	-42.8	-57.3	3.8	1.49e+00	0	55	104	0	57	18789
2026-01-22 22:45:26.29	24.96	5.80	-42.8	-57.3	3.8	1.49e+00	0	55	104	0	57	18777
2026-01-22 22:45:27.30	25.02	5.87	-42.8	-57.3	3.8	1.49e+00	0	55	104	0	57	18830
2026-01-22 22:45:28.31	25.08	5.94	-42.8	-57.3	3.8	1.49e+00	0	55	104	0	57	18791
2026-01-22 22:45:29.32	25.15	6.00	-42.8	-57.2	3.8	1.49e+00	0	55	104	0	57	18729
2026-01-22 22:45:30.33	25.21	6.07	-42.8	-57.3	3.8	1.49e+00	0	55	104	0	57	18820
2026-01-22 22:45:31.34	25.27	6.14	-42.8	-57.3	3.8	1.49e+00	0	55	104	0	57	18837
2026-01-22 22:45:32.35	25.34	6.21	-42.8	-57.3	3.8	1.49e+00	0	55	104	0	57	18785
2026-01-22 22:45:33.36	25.40	6.28	-42.8	-57.3	3.8	1.49e+00	0	55	104	0	57	18810
2026-01-22 22:45:34.37	25.47	6.35	-42.8	-57.3	3.8	1.49e+00	0	55	104	0	57	18796
2026-01-22 22:45:35.38	25.53	6.42	-42.8	-57.3	3.8	1.49e+00	0	55	104	0	57	18771
2026-01-22 22:45:36.39	25.60	6.48	-42.8	-57.3	3.8	1.49e+00	0	55	104	0	57	18795
2026-01-22 22:45:37.40	25.66	6.55	-42.8	-57.3	3.8	1.49e+00	0	55	104	0	57	18735
2026-01-22 22:45:38.41	25.73	6.62	-42.8	-57.3	3.8	1.49e+00	0	55	104	0	57	18809
2026-01-22 22:45:39.42	25.80	6.69	-42.8	-57.3	3.8	1.49e+00	0	56	104	0	57	18788
2026-01-22 22:45:40.43	25.86	6.76	-42.8	-57.3	3.8	1.49e+00	0	56	104	0	57	18813
2026-01-22 22:45:41.44	25.93	6.83	-42.8	-57.2	3.8	1.49e+00	0	55	104	0	57	18722
2026-01-22 22:45:42.45	26.00	6.90	-42.8	-57.3	3.8	1.49e+00	0	56	104	0	57	18813
2026-01-22 22:45:43.46	26.06	6.97	-42.8	-57.2	3.8	1.49e+00	0	55	104	0	57	18674
2026-01-22 22:45:44.47	26.13	7.04	-42.8	-57.2	3.8	1.49e+00	0	56	104	0	57	18532
2026-01-22 22:45:45.48	26.20	7.12	-42.8	-57.1	3.8	1.49e+00	0	56	104	0	57	18443
2026-01-22 22:45:46.49	26.27	7.19	-42.8	-56.9	3.8	1.49e+00	0	56	104	0	57	18074
2026-01-22 22:45:47.50	26.34	7.26	-42.7	-56.7	3.8	1.49e+00	0	56	104	0	57	17652
2026-01-22 22:45:48.51	26.41	7.33	-42.7	-56.4	3.8	1.49e+00	0	56	104	0	57	16996
2026-01-22 22:45:49.52	26.48	7.40	-42.7	-56.0	3.8	1.49e+00	0	56	104	0	57	16248
2026-01-22 22:45:50.53	26.55	7.47	-42.7	-55.4	3.8	1.49e+00	0	56	104	0	57	15105
2026-01-22 22:45:51.54	26.62	7.54	-42.6	-54.2	4.1	1.47e+00	0	56	104	0	57	13159
2026-01-22 22:45:52.55	26.69	7.62	-42.5	-52.8	4.5	1.32e+00	0	56	0	0	56	11882
2026-01-22 22:45:53.56	26.76	7.69	-42.2	-51.1	5.3	8.21e-01	0	56	0	2097152	56	9767
2026-01-22 22:45:54.57	26.83	7.76	-42.0	-49.9	6.2	3.24e-01	0	56	0	4194304	56	8555
2026-01-22 22:45:55.58	26.90	7.83	-41.7	-48.7	7.1	2.17e-01	0	56	0	6291456	55	7859
2026-01-22 22:45:56.59	26.97	7.90	-41.5	-48.1	7.7	1.23e-01	0	56	0	7340032	55	7292
2026-01-22 22:45:57.60	27.04	7.98	-41.5	-47.9	7.9	8.58e-02	0	56	0	9437184	54	7616
2026-01-22 22:45:58.61	27.12	8.05	-41.8	-48.4	7.7	7.15e-02	0	56	0	11534336	54	8007
2026-01-22 22:45:59.62	27.19	8.12	-42.2	-49.6	6.8	1.36e-01	0	56	0	13631488	54	9177
2026-01-22 22:46:00.63	27.26	8.20	-42.2	-51.5	5.3	2.15e-01	0	56	0	15728640	55	10845
2026-01-22 22:46:01.64	27.34	8.27	-42.4	-55.3	3.8	1.49e+00	0	57	104	15728640	55	16735
2026-01-22 22:46:02.65	27.41	8.34	-42.0	-48.2	8.4	1.49e+00	0	57	0	15728640	55	7410
2026-01-22 22:46:03.66	27.48	8.42	-42.4	-49.1	7.6	1.95e-01	0	57	0	16777216	56	7720
2026-01-22 22:46:04.67	27.56	8.49	-42.2	-48.3	8.4	3.93e-02	0	57	0	18874368	56	7068
2026-01-22 22:46:05.68	27.63	8.57	-42.3	-48.6	8.1	4.64e-02	0	57	0	20971520	56	7364
2026-01-22 22:46:06.69	27.71	8.64	-42.2	-48.3	8.5	7.09e-02	0	57	0	23068672	56	7055
2026-01-22 22:46:07.70	27.78	8.71	-42.1	-47.9	8.8	2.75e-02	0	57	0	25165824	56	6801
2026-01-22 22:46:08.71	27.86	8.79	-42.1	-47.8	9.0	2.96e-02	0	57	0	26214400	56	6684
2026-01-22 22:46:09.72	27.94	8.86	-42.1	-47.6	9.3	2.62e-02	0	57	0	28311552	56	6529
2026-01-22 22:46:10.73	28.01	8.94	-42.0	-47.4	9.5	1.65e-02	0	57	0	30408704	56	6354
2026-01-22 22:46:11.74	28.09	9.01	-42.2	-47.9	9.0	2.01e-02	0	57	0	32505856	56	6758
2026-01-22 22:46:12.75	28.17	9.09	-42.1	-47.4	9.6	1.52e-02	0	57	0	34603008	56	6376
2026-01-22 22:46:13.76	28.25	9.16	-42.1	-47.4	9.6	1.36e-02	0	57	0	35651584	56	6378
2026-01-22 22:46:14.77	28.32	9.24	-42.1	-47.4	9.7	1.27e-02	0	57	0	37748736	56	6360
2026-01-22 22:46:15.78	28.40	9.32	-42.0	-47.1	10.0	1.00e-02	0	57	0	39845888	56	6143
2026-01-22 22:46:16.79	28.48	9.39	-41.8	-46.9	10.1	6.89e-03	0	57	0	41943040	55	6381
2026-01-22 22:46:17.79	28.56	9.47	-41.8	-46.9	10.0	6.06e-03	0	57	0	44040192	55	6386
2026-01-22 22:46:18.80	28.64	9.55	-41.8	-46.7	10.2	7.42e-03	0	57	0	45088768	55	6242
2026-01-22 22:46:19.81	28.72	9.62	-41.8	-46.9	10.1	6.04e-03	0	57	0	47185920	55	6356
2026-01-22 22:46:20.82	28.80	9.70	-41.8	-46.7	10.3	5.62e-03	0	57	0	49283072	55	6235
2026-01-22 22:46:21.83	28.88	9.78	-41.8	-46.7	10.3	5.62e-03	0	57	0	51380224	55	6260
2026-01-22 22:46:22.84	28.96	9.85	-41.8	-46.7	10.2	6.06e-03	0	57	0	53477376	55	6270
2026-01-22 22:46:23.85	29.04	9.93	-41.8	-46.5	10.6	3.91e-03	0	57	0	54525952	55	6083
2026-01-22 22:46:24.86	29.13	10.01	-41.8	-46.6	10.5	4.78e-03	0	57	0	56623104	55	6168
2026-01-22 22:46:25.87	29.21	10.09	-41.8	-46.5	10.6	3.62e-03	0	57	0	58720256	55	6105
2026-01-22 22:46:26.88	29.29	10.16	-41.9	-46.6	10.5	3.64e-03	0	57	0	60817408	55	6189
2026-01-22 22:46:27.89	29.38	10.24	-41.8	-46.4	10.7	3.15e-03	0	57	0	62914560	55	6032
2026-01-22 22:46:28.89	29.46	10.32	-41.8	-46.4	10.8	2.69e-03	0	57	0	63963136	55	6051
2026-01-22 22:46:29.90	29.54	10.40	-41.8	-46.4	10.8	2.89e-03	0	57	0	66060288	55	6002
2026-01-22 22:46:30.91	29.63	10.48	-41.8	-46.4	10.8	2.14e-03	0	57	0	68157440	55	6030
2026-01-22 22:46:31.92	29.71	10.56	-41.7	-46.2	11.1	1.83e-03	0	57	0	70254592	55	5903
2026-01-22 22:46:32.93	29.80	10.64	-41.7	-46.2	11.1	1.79e-03	0	57	0	72351744	55	5883
2026-01-22 22:46:33.94	29.88	10.72	-41.7	-46.0	11.3	1.33e-03	0	57	0	73400320	55	5741
2026-01-22 22:46:34.95	29.97	10.80	-41.6	-45.9	11.4	9.80e-04	0	58	0	75497472	55	5719
2026-01-22 22:46:35.96	30.06	10.88	-41.6	-45.9	11.5	8.73e-04	0	57	0	77594624	55	5676
2026-01-22 22:46:36.97	30.14	10.96	-41.6	-45.9	11.5	7.82e-04	0	57	0	79691776	55	5686
2026-01-22 22:46:37.98	30.23	11.04	-41.6	-45.8	11.6	6.34e-04	0	57	0	81788928	55	5595
2026-01-22 22:46:38.99	30.32	11.12	-41.5	-45.6	11.7	5.51e-04	0	57	0	82837504	55	5525
2026-01-22 22:46:40.00	30.41	11.20	-41.5	-45.7	11.7	5.44e-04	0	58	0	84934656	55	5530
2026-01-22 22:46:41.01	30.50	11.28	-41.5	-45.6	11.9	5.04e-04	0	57	0	87031808	54	5798
2026-01-22 22:46:42.02	30.59	11.36	-41.5	-45.6	11.8	4.26e-04	0	58	0	89128960	54	5824
2026-01-22 22:46:43.03	30.68	11.44	-41.6	-45.7	11.7	5.87e-04	0	57	0	91226112	54	5913
2026-01-22 22:46:44.04	30.77	11.52	-41.6	-45.8	11.6	7.30e-04	0	58	0	93323264	54	5963
2026-01-22 22:46:45.05	30.86	11.60	-41.6	-45.8	11.6	5.60e-04	0	58	0	94371840	54	5977
2026-01-22 22:46:46.05	30.95	11.69	-41.6	-45.8	11.7	5.13e-04	0	58	0	96468992	54	5956
2026-01-22 22:46:47.06	31.04	11.77	-41.7	-46.0	11.5	7.03e-04	0	58	0	98566144	54	6094
2026-01-22 22:46:48.07	31.13	11.85	-41.7	-46.0	11.5	9.14e-04	0	58	0	100663296	54	6074
2026-01-22 22:46:49.08	31.23	11.93	-41.8	-46.0	11.4	6.58e-04	0	58	0	102760448	54	6126
2026-01-22 22:46:50.09	31.32	12.02	-41.8	-46.2	11.3	1.20e-03	0	58	0	103809024	54	6222
2026-01-22 22:46:51.10	31.42	12.10	-41.9	-46.2	11.2	1.14e-03	0	58	0	105906176	54	6265
2026-01-22 22:46:52.11	31.51	12.18	-41.8	-46.1	11.4	1.00e-03	0	58	0	108003328	54	6172
2026-01-22 22:46:53.12	31.61	12.27	-41.9	-46.3	11.2	1.32e-03	0	58	0	110100480	54	6345
2026-01-22 22:46:54.13	31.70	12.35	-41.9	-46.3	11.2	1.60e-03	0	58	0	112197632	54	6336
2026-01-22 22:46:55.14	31.80	12.43	-41.9	-46.2	11.3	1.03e-03	0	58	0	113246208	54	6269
2026-01-22 22:46:56.15	31.89	12.52	-41.9	-46.3	11.3	1.04e-03	0	58	0	115343360	54	6328
2026-01-22 22:46:57.16	31.99	12.60	-41.8	-46.0	11.6	9.31e-04	0	58	0	117440512	54	6069
2026-01-22 22:46:58.17	32.09	12.69	-41.7	-45.9	11.7	7.51e-04	0	58	0	119537664	54	6007
2026-01-22 22:46:59.18	32.19	12.77	-41.8	-46.1	11.5	7.64e-04	0	58	0	121634816	54	6136
2026-01-22 22:47:00.19	32.29	12.86	-41.7	-45.8	11.8	4.27e-04	0	58	0	122683392	54	5988
2026-01-22 22:47:01.20	32.38	12.94	-41.7	-45.7	11.9	5.03e-04	0	58	0	124780544	54	5903
2026-01-22 22:47:02.21	32.48	13.03	-41.7	-45.8	11.9	3.92e-04	0	58	0	126877696	54	5942
2026-01-22 22:47:03.22	32.58	13.11	-41.6	-45.6	12.0	2.65e-04	0	58	0	128974848	54	5825
2026-01-22 22:47:04.22	32.68	13.20	-41.6	-45.4	12.2	1.82e-04	0	58	0	131072000	54	5701
2026-01-22 22:47:05.23	32.79	13.29	-41.6	-45.5	12.2	2.60e-04	0	58	0	132120576	54	5758
2026-01-22 22:47:06.25	32.89	13.37	-41.5	-45.4	12.2	1.96e-04	0	58	0	134217728	54	5663
2026-01-22 22:47:07.25	32.99	13.46	-41.5	-45.4	12.3	1.91e-04	0	58	0	136314880	54	5674
2026-01-22 22:47:08.26	33.09	13.55	-41.6	-45.4	12.3	1.91e-04	0	58	0	138412032	54	5710
2026-01-22 22:47:09.27	33.20	13.63	-41.4	-45.1	12.6	1.42e-04	0	58	0	140509184	54	5519
2026-01-22 22:47:10.28	33.30	13.72	-41.5	-45.2	12.5	9.91e-05	0	58	0	141557760	54	5555
2026-01-22 22:47:11.29	33.41	13.81	-41.6	-45.4	12.3	1.27e-04	0	58	0	143654912	54	5714
2026-01-22 22:47:12.30	33.51	13.90	-41.4	-45.2	12.5	1.34e-04	0	58	0	145752064	54	5539
2026-01-22 22:47:13.31	33.62	13.98	-41.5	-45.3	12.4	1.33e-04	0	58	0	147849216	54	5603
2026-01-22 22:47:14.32	33.73	14.07	-41.6	-45.5	12.2	1.47e-04	0	58	0	149946368	54	5776
2026-01-22 22:47:15.33	33.83	14.16	-41.5	-45.2	12.5	1.35e-04	0	58	0	150994944	54	5565
2026-01-22 22:47:16.34	33.94	14.25	-41.6	-45.4	12.4	1.22e-04	0	58	0	153092096	54	5669
2026-01-22 22:47:17.35	34.05	14.34	-41.6	-45.4	12.3	1.63e-04	0	58	0	155189248	54	5665
2026-01-22 22:47:18.36	34.16	14.43	-41.7	-45.6	12.1	2.44e-04	0	58	0	157286400	54	5853
2026-01-22 22:47:19.37	34.27	14.52	-41.7	-45.7	12.0	2.24e-04	0	59	0	159383552	54	5911
2026-01-22 22:47:20.37	34.38	14.61	-41.8	-45.9	11.8	3.66e-04	0	58	0	161480704	54	6056
2026-01-22 22:47:21.39	34.49	14.70	-41.9	-46.1	11.6	4.83e-04	0	58	0	162529280	54	6183
2026-01-22 22:47:22.40	34.60	14.79	-41.9	-46.1	11.7	5.08e-04	0	58	0	164626432	54	6153
2026-01-22 22:47:23.41	34.71	14.88	-42.0	-46.3	11.4	8.02e-04	0	58	0	166723584	54	6327
2026-01-22 22:47:24.41	34.83	14.97	-42.0	-46.2	11.6	7.12e-04	0	58	0	168820736	54	6207
2026-01-22 22:47:25.42	34.94	15.06	-42.0	-46.3	11.6	7.64e-04	0	58	0	170917888	54	6280
2026-01-22 22:47:26.43	35.06	15.15	-42.0	-46.3	11.4	9.70e-04	0	58	0	171966464	54	6334
2026-01-22 22:47:27.44	35.17	15.24	-42.0	-46.2	11.5	7.59e-04	0	59	0	174063616	54	6250
2026-01-22 22:47:28.45	35.29	15.33	-41.9	-46.1	11.7	6.09e-04	0	59	0	176160768	54	6161
2026-01-22 22:47:29.46	35.40	15.42	-41.9	-46.0	11.8	7.46e-04	0	58	0	178257920	54	6122
2026-01-22 22:47:30.47	35.52	15.52	-41.9	-45.9	11.9	5.62e-04	0	58	0	180355072	54	6051
2026-01-22 22:47:31.48	35.64	15.61	-41.9	-46.0	11.9	4.39e-04	0	58	0	181403648	54	6070
2026-01-22 22:47:32.49	35.76	15.70	-41.9	-46.0	11.8	4.71e-04	0	59	0	183500800	54	6107
2026-01-22 22:47:33.50	35.88	15.79	-41.9	-45.9	11.9	4.68e-04	0	59	0	185597952	54	6024
2026-01-22 22:47:34.51	36.00	15.89	-41.9	-45.9	11.9	3.24e-04	0	58	0	187695104	54	6046
2026-01-22 22:47:35.52	36.12	15.98	-42.0	-46.1	11.7	4.69e-04	0	59	0	189792256	54	6193
2026-01-22 22:47:36.53	36.24	16.07	-42.0	-46.2	11.7	4.71e-04	0	58	0	190840832	54	6215
2026-01-22 22:47:37.54	36.36	16.17	-42.0	-46.2	11.7	5.93e-04	0	59	0	192937984	54	6216
2026-01-22 22:47:38.55	36.48	16.26	-42.1	-46.4	11.5	7.41e-04	0	58	0	195035136	54	6348
2026-01-22 22:47:39.56	36.61	16.36	-42.1	-46.4	11.5	1.00e-03	0	59	0	197132288	54	6386
2026-01-22 22:47:40.57	36.73	16.45	-42.1	-46.2	11.6	8.73e-04	0	58	0	199229440	54	6259
2026-01-22 22:47:41.58	36.86	16.55	-42.2	-46.5	11.4	7.90e-04	0	59	0	200278016	54	6470
2026-01-22 22:47:42.59	36.98	16.64	-42.2	-46.4	11.4	8.88e-04	0	59	0	202375168	55	6047
2026-01-22 22:47:43.60	37.11	16.74	-42.1	-46.3	11.5	9.35e-04	0	59	0	204472320	55	5975
2026-01-22 22:47:44.61	37.24	16.83	-42.2	-46.5	11.4	1.04e-03	0	59	0	206569472	55	6095
2026-01-22 22:47:45.61	37.36	16.93	-42.1	-46.4	11.4	1.02e-03	0	59	0	208666624	55	6039
2026-01-22 22:47:46.62	37.49	17.02	-42.1	-46.4	11.5	8.10e-04	0	59	0	209715200	55	6018
2026-01-22 22:47:47.63	37.62	17.12	-42.1	-46.3	11.6	8.60e-04	0	59	0	211812352	55	5985
2026-01-22 22:47:48.64	37.75	17.22	-42.1	-46.3	11.6	8.76e-04	0	59	0	213909504	55	5978
2026-01-22 22:47:49.65	37.88	17.31	-42.0	-46.1	11.8	6.50e-04	0	59	0	216006656	55	5811
2026-01-22 22:47:50.66	38.02	17.41	-42.1	-46.3	11.6	5.86e-04	0	59	0	218103808	55	5951
2026-01-22 22:47:51.67	38.15	17.51	-42.1	-46.3	11.7	7.02e-04	0	59	0	219152384	55	5946
2026-01-22 22:47:52.68	38.28	17.60	-42.1	-46.3	11.6	5.56e-04	0	59	0	221249536	55	5942
2026-01-22 22:47:53.69	38.42	17.70	-42.1	-46.3	11.7	7.35e-04	0	59	0	223346688	55	5933
2026-01-22 22:47:54.70	38.55	17.80	-42.1	-46.3	11.7	8.93e-04	0	59	0	225443840	55	5926
2026-01-22 22:47:55.71	38.69	17.90	-42.2	-46.4	11.5	7.04e-04	0	59	0	227540992	55	6037
2026-01-22 22:47:56.71	38.83	18.00	-42.2	-46.5	11.4	8.08e-04	0	59	0	229638144	55	6123
2026-01-22 22:47:57.72	38.97	18.09	-42.3	-46.6	11.4	1.10e-03	0	59	0	230686720	55	6146
2026-01-22 22:47:58.73	39.10	18.19	-42.3	-46.6	11.4	8.78e-04	0	59	0	232783872	55	6164
2026-01-22 22:47:59.74	39.24	18.29	-42.3	-46.7	11.3	9.70e-04	0	59	0	234881024	55	6210
2026-01-22 22:48:00.75	39.39	18.39	-42.3	-46.7	11.2	1.50e-03	0	59	0	236978176	55	6265
2026-01-22 22:48:01.76	39.53	18.49	-42.3	-46.7	11.3	1.17e-03	0	59	0	239075328	55	6256
2026-01-22 22:48:02.77	39.67	18.59	-42.4	-46.8	11.2	1.31e-03	0	59	0	240123904	55	6320
2026-01-22 22:48:03.78	39.81	18.69	-42.4	-47.0	11.0	1.75e-03	0	59	0	242221056	55	6422
2026-01-22 22:48:04.79	39.96	18.79	-42.4	-46.9	11.0	1.60e-03	0	59	0	244318208	55	6378
2026-01-22 22:48:05.80	40.10	18.89	-42.4	-47.0	11.0	1.78e-03	0	59	0	246415360	55	6426
2026-01-22 22:48:06.81	40.25	18.99	-42.4	-46.9	11.1	2.14e-03	0	59	0	248512512	55	6393
2026-01-22 22:48:07.82	40.40	19.09	-42.4	-47.0	11.0	1.65e-03	0	59	0	249561088	55	6439
2026-01-22 22:48:08.83	40.55	19.20	-42.5	-47.0	10.9	1.75e-03	0	59	0	251658240	55	6459
2026-01-22 22:48:09.84	40.69	19.30	-42.5	-47.1	10.8	1.99e-03	0	59	0	253755392	55	6557
2026-01-22 22:48:10.85	40.84	19.40	-42.5	-47.0	11.0	2.14e-03	0	59	0	255852544	55	6470
2026-01-22 22:48:11.86	41.00	19.50	-42.5	-47.2	10.7	2.40e-03	0	59	0	257949696	55	6632
2026-01-22 22:48:12.87	41.15	19.60	-42.5	-47.1	10.9	2.68e-03	0	59	0	258998272	55	6538
2026-01-22 22:48:13.87	41.30	19.71	-42.5	-47.1	10.9	1.74e-03	0	59	0	261095424	55	6512
2026-01-22 22:48:14.88	41.45	19.81	-42.4	-46.8	11.1	1.69e-03	0	59	0	263192576	55	6334
2026-01-22 22:48:15.89	41.61	19.91	-42.3	-46.7	11.3	1.38e-03	0	59	0	265289728	55	6211
2026-01-22 22:48:16.90	41.77	20.01	-42.2	-46.4	11.6	8.53e-04	0	59	0	267386880	55	6005
2026-01-22 22:48:17.91	41.92	20.12	-42.1	-46.2	11.8	5.80e-04	0	59	0	268435456	55	5862
2026-01-22 22:48:18.92	42.08	20.22	-42.0	-46.0	12.0	3.69e-04	0	59	0	270532608	55	5768
2026-01-22 22:48:19.93	42.24	20.32	-42.0	-46.0	12.0	2.84e-04	0	59	0	272629760	55	5753
2026-01-22 22:48:20.94	42.40	20.43	-42.0	-45.9	12.1	2.78e-04	0	59	0	274726912	55	5717
2026-01-22 22:48:21.95	42.56	20.53	-42.0	-45.9	12.1	2.82e-04	0	59	0	276824064	55	5714
2026-01-22 22:48:22.96	42.72	20.64	-42.0	-45.9	12.2	2.93e-04	0	59	0	277872640	55	5677
2026-01-22 22:48:23.97	42.89	20.74	-42.1	-46.1	12.0	2.82e-04	0	59	0	279969792	55	5819
2026-01-22 22:48:24.98	43.05	20.85	-42.0	-45.9	12.2	3.27e-04	0	59	0	282066944	55	5667
2026-01-22 22:48:25.99	43.22	20.95	-42.0	-45.9	12.1	2.40e-04	0	59	0	284164096	55	5722
2026-01-22 22:48:27.00	43.38	21.06	-41.9	-45.7	12.3	2.30e-04	0	59	0	286261248	55	5576
2026-01-22 22:48:28.01	43.55	21.16	-41.9	-45.7	12.4	1.81e-04	0	59	0	287309824	55	5559
2026-01-22 22:48:29.02	43.72	21.27	-41.8	-45.4	12.6	1.07e-04	0	59	0	289406976	55	5395
2026-01-22 22:48:30.03	43.89	21.37	-41.4	-44.8	13.3	5.34e-05	0	59	0	291504128	54	5297
2026-01-22 22:48:31.04	44.06	21.48	-41.5	-44.9	13.2	2.59e-05	0	59	0	293601280	54	5390
2026-01-22 22:48:32.05	44.24	21.59	-41.4	-44.7	13.4	1.29e-05	0	59	0	295698432	54	5232
2026-01-22 22:48:33.06	44.41	21.69	-41.3	-44.5	13.6	9.90e-06	0	59	0	297795584	54	5145
2026-01-22 22:48:34.07	44.58	21.80	-41.2	-44.4	13.7	1.14e-05	0	59	0	298844160	54	5066
2026-01-22 22:48:35.08	44.76	21.91	-41.3	-44.5	13.6	3.00e-06	0	59	0	300941312	54	5133
2026-01-22 22:48:36.09	44.94	22.01	-41.2	-44.4	13.8	6.10e-06	0	59	0	303038464	54	5049
2026-01-22 22:48:37.10	45.12	22.12	-41.2	-44.4	13.7	5.30e-06	0	59	0	305135616	54	5084
2026-01-22 22:48:38.11	45.29	22.23	-41.4	-44.7	13.4	9.10e-06	0	59	0	307232768	54	5279
2026-01-22 22:48:39.12	45.48	22.34	-41.3	-44.6	13.5	9.90e-06	0	59	0	308281344	54	5186
2026-01-22 22:48:40.13	45.66	22.44	-41.3	-44.6	13.5	1.06e-05	0	59	0	310378496	54	5194
2026-01-22 22:48:41.14	45.84	22.55	-41.5	-44.9	13.3	1.29e-05	0	59	0	312475648	54	5349
2026-01-22 22:48:42.15	46.03	22.66	-41.4	-44.8	13.3	1.37e-05	0	59	0	314572800	54	5305
2026-01-22 22:48:43.16	46.21	22.77	-41.4	-44.8	13.4	1.22e-05	0	59	0	316669952	54	5282
2026-01-22 22:48:44.17	46.40	22.88	-41.4	-44.8	13.3	1.67e-05	0	59	0	317718528	54	5330
2026-01-22 22:48:45.18	46.59	22.99	-41.4	-44.7	13.4	1.75e-05	0	59	0	319815680	54	5278
2026-01-22 22:48:46.19	46.78	23.09	-41.4	-44.7	13.5	1.29e-05	0	59	0	321912832	54	5248
2026-01-22 22:48:47.19	46.96	23.20	-41.5	-44.9	13.3	1.98e-05	0	59	0	324009984	54	5354
2026-01-22 22:48:48.20	47.16	23.31	-41.4	-44.8	13.4	9.90e-06	0	59	0	326107136	54	5308
2026-01-22 22:48:49.21	47.35	23.42	-41.4	-44.7	13.5	1.22e-05	0	59	0	327155712	54	5250
2026-01-22 22:48:50.22	47.55	23.53	-41.4	-44.8	13.3	8.30e-06	0	59	0	329252864	54	5298
2026-01-22 22:48:51.23	47.74	23.64	-41.4	-44.8	13.4	2.44e-05	0	59	0	331350016	54	5301
2026-01-22 22:48:52.24	47.94	23.75	-41.4	-44.7	13.5	1.06e-05	0	60	0	333447168	54	5261
2026-01-22 22:48:53.25	48.14	23.86	-41.5	-44.9	13.2	1.44e-05	0	59	0	335544320	54	5375
2026-01-22 22:48:54.26	48.34	23.97	-41.3	-44.6	13.6	1.60e-05	0	59	0	336592896	54	5162
2026-01-22 22:48:55.27	48.54	24.08	-41.4	-44.6	13.5	8.30e-06	0	60	0	338690048	54	5214
2026-01-22 22:48:56.28	48.74	24.19	-41.2	-44.3	13.8	6.80e-06	0	59	0	340787200	54	5034
2026-01-22 22:48:57.29	48.95	24.30	-41.3	-44.5	13.6	5.30e-06	0	59	0	342884352	54	5155
2026-01-22 22:48:58.30	49.15	24.41	-41.2	-44.4	13.8	7.00e-07	0	59	0	344981504	54	5077
2026-01-22 22:48:59.31	49.36	24.52	-41.3	-44.5	13.7	6.10e-06	0	59	0	346030080	54	5123
2026-01-22 22:49:00.32	49.57	24.63	-41.2	-44.4	13.8	6.10e-06	0	60	0	348127232	54	5070
2026-01-22 22:49:01.33	49.78	24.74	-41.3	-44.6	13.6	9.10e-06	0	60	0	350224384	54	5176
2026-01-22 22:49:02.33	49.99	24.85	-41.5	-44.8	13.4	5.30e-06	0	60	0	352321536	54	5325
2026-01-22 22:49:03.34	50.20	24.96	-41.4	-44.8	13.4	2.13e-05	0	60	0	354418688	54	5291
2026-01-22 22:49:04.35	50.41	25.07	-41.6	-45.1	13.1	1.83e-05	0	60	0	355467264	54	5473
2026-01-22 22:49:05.36	50.63	25.18	-41.6	-45.0	13.2	2.36e-05	0	60	0	357564416	54	5427
2026-01-22 22:49:06.37	50.85	25.29	-41.5	-44.9	13.3	2.28e-05	0	59	0	359661568	54	5364
2026-01-22 22:49:07.38	51.07	25.40	-41.5	-44.9	13.3	2.05e-05	0	60	0	361758720	54	5347
2026-01-22 22:49:08.39	51.29	25.51	-41.6	-45.0	13.3	1.37e-05	0	60	0	363855872	54	5408
2026-01-22 22:49:09.40	51.51	25.62	-41.5	-44.9	13.4	1.75e-05	0	59	0	364904448	54	5351
2026-01-22 22:49:10.41	51.73	25.73	-41.5	-44.8	13.4	1.44e-05	0	60	0	367001600	54	5310
2026-01-22 22:49:11.42	51.96	25.84	-41.5	-44.8	13.5	1.60e-05	0	60	0	369098752	54	5306
2026-01-22 22:49:12.43	52.18	25.96	-41.5	-44.8	13.5	9.10e-06	0	59	0	371195904	54	5294
2026-01-22 22:49:13.44	52.41	26.07	-41.5	-44.8	13.5	1.22e-05	0	60	0	373293056	54	5315
2026-01-22 22:49:14.44	52.64	26.18	-41.5	-44.9	13.3	1.52e-05	0	60	0	374341632	54	5381
2026-01-22 22:49:15.46	52.87	26.29	-41.5	-44.8	13.5	7.60e-06	0	60	0	376438784	54	5290
2026-01-22 22:49:16.47	53.11	26.40	-41.6	-45.1	13.1	1.22e-05	0	60	0	378535936	54	5480
2026-01-22 22:49:17.48	53.34	26.51	-41.7	-45.2	13.1	2.51e-05	0	60	0	380633088	54	5581
2026-01-22 22:49:18.48	53.57	26.62	-41.8	-45.4	12.9	4.11e-05	0	60	0	382730240	54	5669
2026-01-22 22:49:19.49	53.81	26.73	-41.7	-45.2	13.1	3.89e-05	0	60	0	383778816	54	5535
2026-01-22 22:49:20.50	54.05	26.84	-41.7	-45.1	13.2	3.35e-05	0	60	0	385875968	54	5506
2026-01-22 22:49:21.51	54.29	26.95	-41.6	-45.1	13.1	3.89e-05	0	60	0	387973120	54	5465
2026-01-22 22:49:22.52	54.53	27.06	-41.7	-45.1	13.1	2.36e-05	0	60	0	390070272	54	5525
2026-01-22 22:49:23.53	54.78	27.17	-41.7	-45.2	13.0	2.05e-05	0	60	0	392167424	54	5592
2026-01-22 22:49:24.54	55.02	27.28	-41.9	-45.6	12.6	5.64e-05	0	60	0	394264576	54	5816
2026-01-22 22:49:25.55	55.27	27.39	-41.9	-45.6	12.7	9.61e-05	0	60	0	395313152	54	5793
2026-01-22 22:49:26.56	55.52	27.50	-42.1	-45.8	12.4	1.33e-04	0	60	0	397410304	54	5988
2026-01-22 22:49:27.57	55.77	27.61	-42.1	-46.0	12.3	1.88e-04	0	60	0	399507456	55	5766
2026-01-22 22:49:28.58	56.02	27.72	-42.3	-46.4	11.9	3.17e-04	0	60	0	401604608	55	6009
2026-01-22 22:49:29.59	56.28	27.83	-42.3	-46.4	11.9	3.89e-04	0	60	0	403701760	55	6028
2026-01-22 22:49:30.59	56.53	27.94	-42.4	-46.6	11.6	5.23e-04	0	60	0	404750336	55	6195
2026-01-22 22:49:31.60	56.79	28.05	-42.5	-46.7	11.4	5.99e-04	0	60	0	406847488	55	6273
2026-01-22 22:49:32.61	57.05	28.16	-42.6	-46.9	11.4	8.03e-04	0	60	0	408944640	55	6367
2026-01-22 22:49:33.62	57.31	28.27	-42.4	-46.6	11.6	8.75e-04	0	60	0	411041792	55	6178
2026-01-22 22:49:34.63	57.57	28.37	-42.4	-46.5	11.8	6.24e-04	0	60	0	413138944	55	6064
2026-01-22 22:49:35.64	57.84	28.48	-42.5	-46.7	11.5	5.93e-04	0	60	0	414187520	55	6267
2026-01-22 22:49:36.65	58.10	28.59	-42.5	-46.8	11.4	6.87e-04	0	60	0	416284672	55	6280
2026-01-22 22:49:37.66	58.37	28.70	-42.7	-47.3	11.0	8.44e-04	0	60	0	418381824	55	6660
2026-01-22 22:49:38.67	58.64	28.81	-43.0	-47.6	10.7	2.71e-03	0	60	0	420478976	56	6570
2026-01-22 22:49:39.68	58.91	28.91	-43.1	-48.0	10.4	4.30e-03	0	60	0	422576128	56	6865
2026-01-22 22:49:40.69	59.19	29.02	-43.3	-48.4	9.9	6.23e-03	0	60	0	423624704	57	6778
2026-01-22 22:49:41.70	59.46	29.13	-43.4	-48.8	9.5	1.12e-02	0	60	0	425721856	57	7119
2026-01-22 22:49:42.71	59.74	29.24	-43.5	-49.1	9.2	1.92e-02	0	60	0	427819008	57	7313
2026-01-22 22:49:43.71	60.02	29.34	-43.6	-49.2	9.0	1.81e-02	0	60	0	429916160	57	7449
2026-01-22 22:49:44.72	60.30	29.45	-43.5	-49.0	9.3	1.93e-02	0	60	0	432013312	57	7280
2026-01-22 22:49:45.73	60.58	29.55	-43.5	-49.0	9.4	1.60e-02	0	60	0	433061888	57	7218
2026-01-22 22:49:46.74	60.86	29.66	-43.5	-48.9	9.4	1.83e-02	0	60	0	435159040	57	7196
2026-01-22 22:49:47.75	61.15	29.76	-43.4	-48.7	9.7	1.42e-02	0	60	0	437256192	57	6980
2026-01-22 22:49:48.76	61.44	29.87	-43.4	-48.8	9.5	1.36e-02	0	60	0	439353344	57	7076
2026-01-22 22:49:49.77	61.73	29.97	-43.5	-49.2	9.2	1.63e-02	0	60	0	441450496	57	7375
2026-01-22 22:49:50.78	62.02	30.07	-43.5	-49.1	9.2	1.91e-02	0	60	0	442499072	57	7299
2026-01-22 22:49:51.79	62.31	30.18	-43.5	-49.1	9.2	1.88e-02	0	60	0	444596224	57	7355
2026-01-22 22:49:52.80	62.61	30.28	-43.7	-49.6	8.7	2.60e-02	0	60	0	446693376	57	7797
2026-01-22 22:49:53.81	62.91	30.38	-43.8	-49.8	8.6	3.43e-02	0	60	0	448790528	58	7472
2026-01-22 22:49:54.82	63.21	30.49	-44.0	-50.5	7.8	6.40e-02	0	60	0	450887680	58	8148
2026-01-22 22:49:55.83	63.51	30.59	-44.0	-50.7	7.6	8.05e-02	0	60	0	451936256	58	8330
2026-01-22 22:49:56.84	63.81	30.69	-44.0	-50.8	7.6	8.91e-02	0	60	0	454033408	58	8387
2026-01-22 22:49:57.85	64.11	30.79	-44.0	-50.5	7.9	8.40e-02	0	60	0	456130560	58	8094
2026-01-22 22:49:58.85	64.42	30.89	-43.8	-49.9	8.5	5.90e-02	0	60	0	458227712	58	7590
2026-01-22 22:49:59.86	64.73	30.99	-43.8	-49.9	8.4	4.54e-02	0	60	0	460324864	58	7589
2026-01-22 22:50:00.87	65.04	31.09	-43.8	-50.0	8.4	4.34e-02	0	60	0	462422016	58	7666
2026-01-22 22:50:01.88	65.35	31.18	-43.8	-50.0	8.4	4.59e-02	0	60	0	463470592	58	7687
2026-01-22 22:50:02.89	65.66	31.28	-44.0	-50.6	7.8	6.12e-02	0	60	0	465567744	58	8213
2026-01-22 22:50:03.90	65.98	31.38	-44.1	-50.9	7.5	8.87e-02	0	60	0	467664896	58	8470
2026-01-22 22:50:04.91	66.30	31.47	-44.0	-50.4	7.9	6.95e-02	0	60	0	469762048	58	8073
2026-01-22 22:50:05.92	66.62	31.57	-43.8	-49.9	8.5	6.24e-02	0	60	0	471859200	58	7571
2026-01-22 22:50:06.93	66.94	31.67	-43.8	-49.8	8.5	4.98e-02	0	60	0	472907776	58	7504
2026-01-22 22:50:07.94	67.26	31.76	-43.8	-50.0	8.3	4.15e-02	0	60	0	475004928	58	7645
2026-01-22 22:50:08.95	67.59	31.85	-43.7	-49.4	9.1	3.49e-02	0	60	0	477102080	58	7145
2026-01-22 22:50:09.96	67.92	31.95	-43.4	-48.7	9.7	1.68e-02	0	60	0	479199232	58	6606
2026-01-22 22:50:10.97	68.24	32.04	-43.4	-48.6	9.8	7.47e-03	0	60	0	481296384	58	6503
2026-01-22 22:50:11.98	68.58	32.13	-43.1	-47.7	10.7	4.79e-03	0	60	0	482344960	58	5888
2026-01-22 22:50:12.99	68.91	32.22	-43.1	-47.8	10.7	3.78e-03	0	60	0	484442112	58	5939
2026-01-22 22:50:14.00	69.24	32.31	-43.4	-48.5	10.1	4.89e-03	0	60	0	486539264	58	6422
2026-01-22 22:50:15.01	69.58	32.40	-43.7	-49.6	8.8	2.16e-02	0	60	0	488636416	58	7300
2026-01-22 22:50:16.01	69.91	32.49	-44.0	-50.4	8.0	4.69e-02	0	60	0	490733568	58	7994
2026-01-22 22:50:17.02	70.25	32.58	-44.0	-50.5	7.8	7.34e-02	0	60	0	491782144	58	8171
2026-01-22 22:50:18.03	70.60	32.66	-43.9	-50.1	8.3	5.45e-02	0	60	0	493879296	58	7724
2026-01-22 22:50:19.04	70.94	32.75	-43.8	-49.9	8.5	4.46e-02	0	60	0	495976448	58	7586
2026-01-22 22:50:20.05	71.29	32.83	-43.5	-48.9	9.5	2.31e-02	0	60	0	498073600	58	6773
2026-01-22 22:50:21.06	71.63	32.92	-43.4	-48.5	9.9	8.46e-03	0	60	0	500170752	58	6453
2026-01-22 22:50:22.07	71.98	33.00	-43.3	-48.1	10.3	5.58e-03	0	60	0	501219328	58	6199
2026-01-22 22:50:23.08	72.33	33.08	-43.4	-48.4	10.1	6.52e-03	0	60	0	503316480	58	6377
2026-01-22 22:50:24.09	72.69	33.16	-43.7	-49.5	8.9	1.81e-02	0	60	0	505413632	58	7232
2026-01-22 22:50:25.10	73.04	33.25	-44.0	-50.3	8.2	4.96e-02	0	60	0	507510784	58	7907
2026-01-22 22:50:26.11	73.40	33.32	-44.0	-50.4	7.8	8.10e-02	0	60	0	509607936	58	8070
2026-01-22 22:50:27.12	73.75	33.40	-44.0	-50.3	8.0	7.36e-02	0	60	0	510656512	58	7971
2026-01-22 22:50:28.13	74.11	33.48	-43.8	-49.8	8.5	4.80e-02	0	60	0	512753664	58	7538
2026-01-22 22:50:29.14	74.47	33.56	-44.0	-50.4	8.0	5.64e-02	0	60	0	514850816	58	7992
2026-01-22 22:50:30.15	74.84	33.63	-44.1	-50.8	7.7	8.07e-02	0	60	0	516947968	58	8391
2026-01-22 22:50:31.15	75.20	33.71	-44.1	-50.9	7.6	1.11e-01	0	60	0	519045120	58	8513
2026-01-22 22:50:32.16	75.56	33.78	-44.1	-50.9	7.5	1.07e-01	0	60	0	520093696	58	8469
2026-01-22 22:50:33.17	75.93	33.85	-44.1	-50.8	7.6	8.45e-02	0	60	0	522190848	58	8407
2026-01-22 22:50:34.18	76.30	33.92	-44.2	-51.2	7.3	1.32e-01	0	60	0	524288000	59	8272
2026-01-22 22:50:35.19	76.67	33.99	-44.2	-51.1	7.3	1.50e-01	0	60	0	526385152	59	8198
2026-01-22 22:50:36.20	77.05	34.06	-44.3	-51.9	6.6	2.02e-01	0	60	0	528482304	59	9054
2026-01-22 22:50:37.21	77.42	34.13	-44.4	-52.2	6.3	2.73e-01	0	60	0	530579456	59	9294
2026-01-22 22:50:38.22	77.79	34.19	-44.2	-51.4	7.1	2.27e-01	0	60	0	531628032	59	8491
2026-01-22 22:50:39.23	78.17	34.26	-44.5	-53.1	5.6	6.00e-01	0	60	0	533725184	60	9772
2026-01-22 22:50:40.24	78.55	34.32	-44.6	-54.0	5.0	1.34e-01	0	60	0	535822336	60	10901
2026-01-22 22:50:41.25	78.93	34.38	-44.7	-54.3	4.3	1.21e+00	0	60	104	536870912	60	11241
2026-01-22 22:50:42.26	79.31	34.45	-45.0	-58.0	3.8	8.82e-01	0	60	104	536870912	60	17200
2026-01-22 22:50:43.27	79.69	34.50	-44.1	-51.0	7.6	7.37e-01	0	60	0	536870912	60	7662
2026-01-22 22:50:44.28	80.08	34.56	-44.0	-50.7	7.8	9.67e-02	0	60	0	538968064	60	7389
2026-01-22 22:50:45.29	80.46	34.62	-43.8	-49.6	8.9	4.97e-02	0	60	0	541065216	59	6918
2026-01-22 22:50:46.30	80.85	34.68	-43.7	-49.4	9.1	1.94e-02	0	60	0	543162368	59	6726
2026-01-22 22:50:47.31	81.24	34.73	-43.8	-49.7	8.7	2.48e-02	0	60	0	544210944	59	6987
2026-01-22 22:50:48.32	81.63	34.78	-44.0	-50.3	8.1	5.43e-02	0	60	0	546308096	59	7520
2026-01-22 22:50:49.33	82.02	34.84	-44.0	-50.5	7.8	8.58e-02	0	60	0	548405248	59	7710
2026-01-22 22:50:50.34	82.41	34.89	-43.8	-49.7	8.8	4.55e-02	0	60	0	550502400	59	6965
2026-01-22 22:50:51.35	82.81	34.94	-43.6	-49.0	9.5	2.28e-02	0	60	0	552599552	59	6457
2026-01-22 22:50:52.36	83.20	34.98	-43.7	-49.4	9.1	1.66e-02	0	60	0	553648128	59	6732
2026-01-22 22:50:53.37	83.60	35.03	-43.7	-49.4	9.0	1.94e-02	0	60	0	555745280	59	6778
2026-01-22 22:50:54.38	83.99	35.08	-43.8	-49.6	8.8	2.78e-02	0	60	0	557842432	59	6937
2026-01-22 22:50:55.39	84.39	35.12	-43.9	-50.0	8.5	3.48e-02	0	60	0	559939584	59	7237
2026-01-22 22:50:56.40	84.79	35.16	-43.8	-49.7	8.7	3.19e-02	0	60	0	562036736	59	7018
2026-01-22 22:50:57.41	85.19	35.20	-43.9	-49.9	8.5	4.06e-02	0	60	0	564133888	59	7145
2026-01-22 22:50:58.42	85.59	35.24	-43.7	-49.5	8.9	3.34e-02	0	60	0	565182464	59	6875
2026-01-22 22:50:59.43	85.99	35.28	-43.6	-49.2	9.2	2.74e-02	0	60	0	567279616	59	6613
2026-01-22 22:51:00.44	86.39	35.31	-43.6	-49.2	9.2	1.93e-02	0	60	0	569376768	59	6594
2026-01-22 22:51:01.45	86.80	35.35	-43.8	-49.6	8.8	2.06e-02	0	60	0	571473920	59	6929
2026-01-22 22:51:02.46	87.20	35.38	-43.9	-49.9	8.6	2.72e-02	0	60	0	573571072	59	7197
2026-01-22 22:51:03.47	87.61	35.41	-44.0	-50.6	7.9	5.89e-02	0	60	0	574619648	59	7734
2026-01-22 22:51:04.48	88.01	35.44	-44.0	-50.6	7.8	7.99e-02	0	60	0	576716800	59	7731
2026-01-22 22:51:05.49	88.42	35.47	-44.1	-50.7	7.8	8.92e-02	0	60	0	578813952	59	7820
2026-01-22 22:51:06.50	88.83	35.50	-44.1	-51.0	7.6	9.63e-02	0	60	0	580911104	59	8090
2026-01-22 22:51:07.52	89.24	35.52	-44.2	-51.0	7.4	1.09e-01	0	60	0	583008256	59	8145
2026-01-22 22:51:08.53	89.65	35.55	-44.3	-51.5	7.0	1.32e-01	0	60	0	584056832	59	8607
2026-01-22 22:51:09.53	90.05	35.57	-44.3	-51.7	6.8	1.25e-01	0	60	0	586153984	59	8838
2026-01-22 22:51:10.55	90.46	35.59	-44.1	-50.6	7.8	9.89e-02	0	60	0	588251136	59	7778
2026-01-22 22:51:11.56	90.87	35.61	-43.9	-50.2	8.3	6.64e-02	0	60	0	590348288	59	7395
2026-01-22 22:51:12.56	91.28	35.63	-43.9	-49.9	8.7	3.79e-02	0	60	0	592445440	59	7122
2026-01-22 22:51:13.57	91.69	35.64	-44.0	-50.3	8.2	3.96e-02	0	60	0	593494016	59	7460
2026-01-22 22:51:14.58	92.10	35.66	-44.1	-50.7	7.7	6.14e-02	0	60	0	595591168	59	7855
2026-01-22 22:51:15.59	92.52	35.67	-44.1	-50.7	7.8	8.86e-02	0	60	0	597688320	59	7864
2026-01-22 22:51:16.60	92.93	35.68	-44.2	-51.3	7.1	1.33e-01	0	60	0	599785472	59	8440
2026-01-22 22:51:17.61	93.34	35.69	-44.3	-51.5	7.0	1.44e-01	0	60	0	601882624	59	8655
2026-01-22 22:51:18.62	93.75	35.70	-44.2	-51.3	7.2	1.52e-01	0	60	0	602931200	59	8385
2026-01-22 22:51:19.63	94.17	35.70	-44.1	-50.7	7.8	1.11e-01	0	60	0	605028352	59	7816
2026-01-22 22:51:20.64	94.58	35.71	-43.9	-49.9	8.5	5.43e-02	0	60	0	607125504	59	7188
2026-01-22 22:51:21.65	94.99	35.71	-43.7	-49.3	9.2	2.48e-02	0	60	0	609222656	59	6650
2026-01-22 22:51:22.66	95.40	35.71	-43.5	-48.6	9.9	9.64e-03	0	60	0	611319808	58	6538
2026-01-22 22:51:23.67	95.82	35.71	-43.2	-48.1	10.4	6.09e-03	0	60	0	612368384	58	6141
2026-01-22 22:51:24.68	96.23	35.71	-43.3	-48.3	10.3	4.60e-03	0	60	0	614465536	58	6287
2026-01-22 22:51:25.69	96.64	35.70	-43.4	-48.5	10.0	5.39e-03	0	60	0	616562688	58	6489
2026-01-22 22:51:26.70	97.06	35.70	-43.6	-49.0	9.5	9.91e-03	0	60	0	618659840	58	6851
2026-01-22 22:51:27.71	97.47	35.69	-43.9	-49.9	8.5	1.96e-02	0	60	0	620756992	58	7604
2026-01-22 22:51:28.72	97.88	35.68	-44.2	-51.3	7.2	1.00e-01	0	60	0	621805568	59	8380
2026-01-22 22:51:29.73	98.29	35.67	-44.5	-52.8	6.0	2.74e-01	0	60	0	623902720	59	10048
2026-01-22 22:51:30.74	98.71	35.66	-44.6	-52.9	5.8	3.88e-01	0	60	0	625999872	59	10139
2026-01-22 22:51:31.75	99.12	35.65	-44.3	-51.8	6.7	3.11e-01	0	60	0	628097024	59	8937
2026-01-22 22:51:32.76	99.53	35.63	-43.9	-50.1	8.4	7.14e-02	0	60	0	630194176	59	7295
2026-01-22 22:51:33.77	99.94	35.61	-43.8	-49.8	8.7	3.80e-02	0	60	0	631242752	59	7099
2026-01-22 22:51:34.77	100.35	35.59	-43.8	-49.6	8.8	3.43e-02	0	60	0	633339904	59	6940
2026-01-22 22:51:35.78	100.76	35.57	-44.0	-50.4	8.1	4.22e-02	0	60	0	635437056	59	7582
2026-01-22 22:51:36.79	101.16	35.55	-43.9	-49.9	8.5	4.12e-02	0	60	0	637534208	59	7160
2026-01-22 22:51:37.80	101.57	35.53	-43.6	-49.2	9.4	2.80e-02	0	60	0	639631360	59	6573
2026-01-22 22:51:38.81	101.98	35.50	-43.7	-49.5	9.0	2.57e-02	0	60	0	641728512	59	6834
2026-01-22 22:51:39.82	102.39	35.48	-43.9	-50.2	8.3	3.94e-02	0	60	0	642777088	59	7386
2026-01-22 22:51:40.83	102.80	35.45	-44.3	-51.5	7.0	1.02e-01	0	60	0	644874240	59	8578
2026-01-22 22:51:41.84	103.20	35.42	-44.3	-52.0	6.4	2.28e-01	0	60	0	646971392	59	9141
2026-01-22 22:51:42.85	103.61	35.39	-44.3	-51.7	6.5	2.25e-01	0	60	0	649068544	59	8857
2026-01-22 22:51:43.86	104.01	35.36	-44.0	-50.4	8.0	1.05e-01	0	60	0	651165696	59	7565
2026-01-22 22:51:44.87	104.42	35.32	-43.8	-49.7	8.6	5.67e-02	0	60	0	652214272	59	7019
2026-01-22 22:51:45.88	104.82	35.29	-43.9	-50.1	8.2	4.24e-02	0	60	0	654311424	59	7348
2026-01-22 22:51:46.89	105.22	35.25	-44.2	-51.1	7.4	1.10e-01	0	60	0	656408576	59	8191
2026-01-22 22:51:47.89	105.62	35.21	-44.2	-51.4	7.1	1.68e-01	0	60	0	658505728	59	8480
2026-01-22 22:51:48.90	106.02	35.17	-44.1	-50.6	7.7	9.16e-02	0	60	0	660602880	59	7786
2026-01-22 22:51:49.91	106.42	35.13	-44.0	-50.3	8.1	7.07e-02	0	60	0	661651456	59	7500
2026-01-22 22:51:50.92	106.82	35.09	-44.1	-51.0	7.4	9.46e-02	0	60	0	663748608	59	8176
2026-01-22 22:51:51.93	107.22	35.04	-44.5	-52.5	6.1	2.51e-01	0	61	0	665845760	59	9703
2026-01-22 22:51:52.94	107.61	34.99	-44.4	-52.3	6.2	2.96e-01	0	60	0	667942912	59	9428
2026-01-22 22:51:53.95	108.01	34.95	-44.3	-51.7	6.7	2.62e-01	0	60	0	670040064	59	8857
2026-01-22 22:51:54.96	108.40	34.90	-44.2	-51.3	7.1	1.50e-01	0	60	0	671088640	59	8431
2026-01-22 22:51:55.97	108.80	34.85	-44.5	-52.7	6.1	2.33e-01	0	60	0	673185792	59	9867
2026-01-22 22:51:56.98	109.19	34.80	-44.9	-56.5	4.2	3.64e-01	0	60	0	675282944	60	14420
2026-01-22 22:51:57.99	109.58	34.74	-45.2	-59.9	3.8	5.98e-01	0	61	104	676331520	60	21496
2026-01-22 22:51:59.00	109.97	34.69	-45.0	-57.1	3.9	1.39e+00	0	61	104	676331520	60	15422
2026-01-22 22:52:00.01	110.36	34.63	-44.9	-56.8	4.1	4.10e-01	0	60	0	676331520	60	14998
2026-01-22 22:52:01.02	110.74	34.58	-44.4	-52.7	6.0	9.35e-01	0	61	0	677380096	60	9362
2026-01-22 22:52:02.03	111.13	34.52	-44.3	-52.2	6.4	2.55e-01	0	61	0	679477248	60	8850
2026-01-22 22:52:03.04	111.51	34.46	-44.2	-51.8	6.8	2.44e-01	0	60	0	681574400	60	8397
2026-01-22 22:52:04.05	111.89	34.40	-44.0	-50.8	7.8	1.19e-01	0	60	0	683671552	60	7506
2026-01-22 22:52:05.06	112.28	34.33	-43.8	-49.7	8.6	3.50e-02	0	61	0	685768704	59	7000
2026-01-22 22:52:06.07	112.65	34.27	-43.5	-48.8	9.6	1.72e-02	0	60	0	687865856	59	6344
2026-01-22 22:52:07.08	113.03	34.21	-43.4	-48.5	9.9	9.22e-03	0	61	0	688914432	58	6465
2026-01-22 22:52:08.09	113.41	34.14	-43.4	-48.6	9.8	8.38e-03	0	61	0	691011584	58	6533
2026-01-22 22:52:09.10	113.79	34.07	-43.3	-48.4	10.0	8.77e-03	0	61	0	693108736	58	6388
2026-01-22 22:52:10.11	114.16	34.00	-43.2	-48.0	10.4	6.40e-03	0	60	0	695205888	58	6112
2026-01-22 22:52:11.12	114.53	33.93	-43.2	-48.0	10.5	3.00e-03	0	61	0	697303040	58	6085
2026-01-22 22:52:12.13	114.90	33.86	-43.3	-48.2	10.3	5.25e-03	0	61	0	698351616	58	6254
2026-01-22 22:52:13.14	115.27	33.79	-43.7	-49.4	9.1	1.23e-02	0	61	0	700448768	58	7198
2026-01-22 22:52:14.15	115.64	33.72	-43.9	-50.0	8.4	3.35e-02	0	61	0	702545920	58	7716
2026-01-22 22:52:15.16	116.00	33.64	-43.9	-50.0	8.3	4.65e-02	0	60	0	704643072	58	7638
2026-01-22 22:52:16.17	116.37	33.57	-43.5	-48.9	9.6	1.99e-02	0	61	0	706740224	58	6746
2026-01-22 22:52:17.18	116.73	33.49	-43.5	-48.8	9.7	1.16e-02	0	60	0	707788800	58	6692
2026-01-22 22:52:18.19	117.09	33.41	-43.6	-49.0	9.4	1.27e-02	0	61	0	709885952	58	6827
2026-01-22 22:52:19.20	117.45	33.34	-43.6	-49.2	9.3	1.82e-02	0	61	0	711983104	58	6990
2026-01-22 22:52:20.21	117.81	33.26	-43.8	-49.8	8.7	2.63e-02	0	61	0	714080256	58	7528
2026-01-22 22:52:21.22	118.16	33.18	-43.8	-49.6	8.8	2.67e-02	0	61	0	716177408	58	7350
2026-01-22 22:52:22.22	118.51	33.10	-43.5	-48.7	9.7	1.45e-02	0	61	0	717225984	58	6628
2026-01-22 22:52:23.23	118.87	33.01	-43.2	-48.0	10.5	5.01e-03	0	60	0	719323136	58	6110
2026-01-22 22:52:24.24	119.22	32.93	-43.1	-47.8	10.7	2.65e-03	0	61	0	721420288	58	5984
2026-01-22 22:52:25.25	119.56	32.85	-43.1	-47.7	10.9	2.08e-03	0	60	0	723517440	58	5866
2026-01-22 22:52:26.26	119.91	32.76	-43.4	-48.6	10.0	4.72e-03	0	61	0	725614592	58	6506
2026-01-22 22:52:27.27	120.26	32.67	-43.4	-48.6	9.9	7.70e-03	0	60	0	726663168	58	6567
2026-01-22 22:52:28.28	120.60	32.59	-43.2	-48.0	10.5	4.39e-03	0	61	0	728760320	58	6129
2026-01-22 22:52:29.29	120.94	32.50	-43.3	-48.1	10.4	3.49e-03	0	60	0	730857472	58	6181
2026-01-22 22:52:30.30	121.28	32.41	-43.6	-49.0	9.5	6.00e-03	0	61	0	732954624	58	6827
2026-01-22 22:52:31.31	121.62	32.32	-44.0	-50.7	7.8	5.22e-02	0	61	0	735051776	58	8309
2026-01-22 22:52:32.32	121.95	32.23	-44.3	-51.9	6.7	1.67e-01	0	61	0	736100352	59	8996
2026-01-22 22:52:33.33	122.29	32.14	-44.2	-51.4	7.2	1.86e-01	0	61	0	738197504	59	8475
2026-01-22 22:52:34.34	122.62	32.05	-43.6	-49.1	9.4	2.84e-02	0	61	0	740294656	59	6510
2026-01-22 22:52:35.35	122.95	31.96	-42.9	-47.4	11.2	3.48e-03	0	61	0	742391808	57	6013
2026-01-22 22:52:36.36	123.28	31.86	-42.2	-45.8	12.8	2.08e-04	0	61	0	744488960	56	5338
2026-01-22 22:52:37.37	123.61	31.77	-42.2	-45.8	12.9	4.95e-05	0	61	0	745537536	56	5294
2026-01-22 22:52:38.38	123.93	31.67	-42.7	-46.8	11.7	2.51e-04	0	61	0	747634688	56	5977
2026-01-22 22:52:39.38	124.25	31.58	-42.9	-47.4	11.2	1.21e-03	0	61	0	749731840	56	6367
2026-01-22 22:52:40.39	124.57	31.48	-42.8	-47.0	11.6	9.22e-04	0	61	0	751828992	56	6114
2026-01-22 22:52:41.40	124.89	31.39	-42.3	-46.0	12.6	1.53e-04	0	60	0	753926144	56	5452
2026-01-22 22:52:42.41	125.21	31.29	-41.8	-45.2	13.3	2.05e-05	0	60	0	756023296	55	5221
2026-01-22 22:52:43.42	125.53	31.19	-41.8	-45.2	13.3	1.83e-05	0	61	0	757071872	55	5238
2026-01-22 22:52:44.43	125.84	31.09	-42.3	-46.3	12.2	1.01e-04	0	61	0	759169024	55	5941
2026-01-22 22:52:45.44	126.15	30.99	-42.5	-46.7	11.7	3.65e-04	0	61	0	761266176	55	6251
2026-01-22 22:52:46.45	126.46	30.89	-42.5	-46.6	11.8	4.03e-04	0	61	0	763363328	55	6192
2026-01-22 22:52:47.46	126.77	30.79	-41.9	-45.5	12.9	8.39e-05	0	61	0	765460480	55	5432
2026-01-22 22:52:48.47	127.08	30.69	-41.5	-44.8	13.7	8.30e-06	0	60	0	766509056	55	5006
2026-01-22 22:52:49.48	127.38	30.59	-41.4	-44.6	13.8	3.80e-06	0	61	0	768606208	54	5203
2026-01-22 22:52:50.49	127.68	30.49	-41.9	-45.4	13.1	1.60e-05	0	61	0	770703360	54	5668
2026-01-22 22:52:51.50	127.98	30.39	-42.6	-46.9	11.5	2.29e-04	0	61	0	772800512	55	6416
2026-01-22 22:52:52.51	128.28	30.28	-43.0	-47.7	10.8	1.36e-03	0	60	0	774897664	56	6630
2026-01-22 22:52:53.52	128.58	30.18	-42.9	-47.4	11.2	1.80e-03	0	61	0	775946240	56	6402
2026-01-22 22:52:54.53	128.87	30.08	-42.1	-45.7	12.8	2.80e-04	0	61	0	778043392	56	5279
2026-01-22 22:52:55.54	129.17	29.97	-41.5	-44.7	13.7	8.30e-06	0	61	0	780140544	55	4937
2026-01-22 22:52:56.55	129.46	29.87	-41.6	-45.0	13.5	5.30e-06	0	60	0	782237696	54	5410
2026-01-22 22:52:57.55	129.74	29.76	-42.1	-45.9	12.5	4.88e-05	0	61	0	784334848	54	6041
2026-01-22 22:52:58.56	130.03	29.66	-43.0	-47.6	11.0	5.48e-04	0	61	0	785383424	56	6530
2026-01-22 22:52:59.57	130.32	29.55	-42.9	-47.4	11.1	2.00e-03	0	61	0	787480576	56	6365
2026-01-22 22:53:00.58	130.60	29.44	-42.5	-46.5	12.0	5.77e-04	0	61	0	789577728	56	5783
2026-01-22 22:53:01.59	130.88	29.34	-42.0	-45.5	13.0	7.85e-05	0	61	0	791674880	56	5152
2026-01-22 22:53:02.60	131.16	29.23	-41.8	-45.3	13.2	1.14e-05	0	61	0	793772032	55	5287
2026-01-22 22:53:03.61	131.44	29.12	-42.0	-45.6	12.8	6.33e-05	0	61	0	794820608	55	5505
2026-01-22 22:53:04.62	131.72	29.02	-42.4	-46.4	12.0	1.98e-04	0	61	0	796917760	55	6054
2026-01-22 22:53:05.63	131.99	28.91	-43.1	-48.0	10.5	1.12e-03	0	61	0	799014912	56	6826
2026-01-22 22:53:06.63	132.26	28.80	-43.1	-47.8	10.7	3.28e-03	0	61	0	801112064	56	6669
2026-01-22 22:53:07.64	132.53	28.69	-42.8	-47.1	11.5	8.75e-04	0	60	0	803209216	56	6163
2026-01-22 22:53:08.65	132.80	28.58	-42.5	-46.6	12.0	3.71e-04	0	61	0	804257792	56	5792
2026-01-22 22:53:09.66	133.07	28.48	-42.3	-46.0	12.6	1.06e-04	0	60	0	806354944	56	5421
2026-01-22 22:53:10.67	133.34	28.37	-42.3	-46.0	12.6	1.14e-04	0	61	0	808452096	56	5431
2026-01-22 22:53:11.68	133.60	28.26	-42.5	-46.5	12.0	1.95e-04	0	61	0	810549248	56	5778
2026-01-22 22:53:12.69	133.86	28.15	-42.5	-46.5	12.1	4.54e-04	0	61	0	812646400	56	5749
2026-01-22 22:53:13.70	134.12	28.04	-42.3	-46.1	12.5	1.49e-04	0	61	0	813694976	56	5479
2026-01-22 22:53:14.71	134.38	27.93	-41.6	-45.0	13.4	1.90e-05	0	60	0	815792128	55	5115
2026-01-22 22:53:15.72	134.64	27.82	-41.2	-44.2	14.2	6.80e-06	0	61	0	817889280	54	4975
2026-01-22 22:53:16.73	134.90	27.71	-41.0	-43.9	14.6	0.00e+00	0	61	0	819986432	54	4789
2026-01-22 22:53:17.74	135.15	27.60	-41.5	-44.8	13.7	0.00e+00	0	60	0	822083584	54	5287
2026-01-22 22:53:18.75	135.40	27.49	-42.2	-46.0	12.4	4.80e-05	0	61	0	823132160	54	6105
2026-01-22 22:53:19.76	135.65	27.38	-42.9	-47.3	11.2	1.39e-03	0	61	0	825229312	56	6346
2026-01-22 22:53:20.76	135.90	27.27	-42.9	-47.5	11.0	2.07e-03	0	60	0	827326464	56	6434
2026-01-22 22:53:21.77	136.14	27.16	-42.5	-46.6	11.9	9.06e-04	0	61	0	829423616	56	5832
2026-01-22 22:53:22.78	136.39	27.04	-42.3	-46.1	12.4	1.80e-04	0	61	0	831520768	56	5507
2026-01-22 22:53:23.79	136.63	26.93	-42.2	-45.8	12.6	1.13e-04	0	61	0	832569344	56	5326
2026-01-22 22:53:24.80	136.88	26.82	-42.2	-45.8	12.7	6.48e-05	0	61	0	834666496	56	5324
2026-01-22 22:53:25.81	137.12	26.71	-42.1	-45.8	12.7	7.78e-05	0	61	0	836763648	56	5296
2026-01-22 22:53:26.82	137.35	26.60	-42.3	-46.2	12.3	1.20e-04	0	60	0	838860800	56	5559
2026-01-22 22:53:27.83	137.59	26.49	-41.7	-45.1	13.2	1.02e-04	0	61	0	840957952	55	5191
2026-01-22 22:53:28.84	137.83	26.38	-41.2	-44.2	14.2	6.80e-06	0	61	0	842006528	54	4949
2026-01-22 22:53:29.85	138.06	26.26	-40.9	-43.8	14.6	1.50e-06	0	61	0	844103680	53	4994
2026-01-22 22:53:30.86	138.29	26.15	-40.8	-43.6	14.8	0.00e+00	0	61	0	846200832	53	4871
2026-01-22 22:53:31.87	138.52	26.04	-40.8	-43.6	14.7	0.00e+00	0	61	0	848297984	53	4913
2026-01-22 22:53:32.88	138.75	25.93	-41.0	-44.0	14.3	7.00e-07	0	61	0	850395136	53	5114
2026-01-22 22:53:33.89	138.98	25.82	-41.3	-44.5	13.8	3.00e-06	0	61	0	852492288	53	5436
2026-01-22 22:53:34.90	139.21	25.71	-41.7	-45.1	13.3	5.30e-06	0	61	0	853540864	53	5797
2026-01-22 22:53:35.91	139.43	25.60	-41.8	-45.4	12.9	2.97e-05	0	61	0	855638016	54	5674
2026-01-22 22:53:36.92	139.65	25.48	-41.8	-45.3	13.0	5.11e-05	0	61	0	857735168	54	5656
2026-01-22 22:53:37.93	139.87	25.37	-41.6	-44.9	13.4	2.51e-05	0	61	0	859832320	54	5385
2026-01-22 22:53:38.94	140.09	25.26	-41.4	-44.7	13.7	6.80e-06	0	61	0	861929472	54	5232
2026-01-22 22:53:39.95	140.31	25.15	-41.4	-44.6	13.7	1.50e-06	0	61	0	862978048	54	5190
2026-01-22 22:53:40.96	140.53	25.04	-41.6	-44.9	13.5	6.80e-06	0	61	0	865075200	54	5377
2026-01-22 22:53:41.97	140.74	24.93	-41.8	-45.3	13.0	1.75e-05	0	61	0	867172352	54	5615
2026-01-22 22:53:42.98	140.96	24.82	-42.0	-45.6	12.7	8.23e-05	0	61	0	869269504	54	5852
2026-01-22 22:53:43.99	141.17	24.70	-42.0	-45.7	12.6	8.62e-05	0	61	0	871366656	54	5857
2026-01-22 22:53:45.00	141.38	24.59	-41.8	-45.4	12.9	5.64e-05	0	61	0	872415232	54	5702
2026-01-22 22:53:46.01	141.59	24.48	-41.6	-44.9	13.4	1.83e-05	0	61	0	874512384	54	5380
2026-01-22 22:53:47.02	141.80	24.37	-41.1	-44.1	14.2	9.10e-06	0	61	0	876609536	54	4883
2026-01-22 22:53:48.03	142.00	24.26	-40.8	-43.7	14.6	7.00e-07	0	61	0	878706688	53	4947
2026-01-22 22:53:49.03	142.21	24.15	-40.8	-43.6	14.7	0.00e+00	0	61	0	880803840	53	4879
2026-01-22 22:53:50.04	142.41	24.04	-40.7	-43.5	14.8	0.00e+00	0	61	0	881852416	53	4853
2026-01-22 22:53:51.05	142.61	23.93	-40.8	-43.6	14.7	0.00e+00	0	61	0	883949568	53	4891
2026-01-22 22:53:52.06	142.81	23.82	-40.9	-43.8	14.5	7.00e-07	0	61	0	886046720	53	5032
2026-01-22 22:53:53.07	143.01	23.71	-41.2	-44.3	14.0	7.00e-07	0	61	0	888143872	53	5314
2026-01-22 22:53:54.08	143.21	23.60	-41.4	-44.7	13.6	3.00e-06	0	61	0	890241024	53	5571
2026-01-22 22:53:55.09	143.41	23.49	-41.3	-44.5	13.8	6.80e-06	0	61	0	891289600	53	5441
2026-01-22 22:53:56.10	143.60	23.38	-41.2	-44.3	13.9	1.50e-06	0	61	0	893386752	53	5333
2026-01-22 22:53:57.11	143.80	23.27	-41.2	-44.2	14.0	7.00e-07	0	61	0	895483904	53	5274
2026-01-22 22:53:58.12	143.99	23.16	-40.9	-43.8	14.5	2.20e-06	0	61	0	897581056	53	5012
2026-01-22 22:53:59.12	144.18	23.05	-40.8	-43.7	14.6	7.00e-07	0	61	0	899678208	53	4933
2026-01-22 22:54:00.13	144.37	22.94	-40.8	-43.6	14.7	7.00e-07	0	61	0	900726784	53	4901
2026-01-22 22:54:01.14	144.56	22.83	-40.7	-43.5	14.8	0.00e+00	0	61	0	902823936	53	4851
2026-01-22 22:54:02.15	144.75	22.72	-40.9	-43.9	14.4	1.50e-06	0	60	0	904921088	53	5044
2026-01-22 22:54:03.16	144.93	22.61	-41.1	-44.1	14.2	7.00e-07	0	61	0	907018240	53	5182
2026-01-22 22:54:04.17	145.12	22.50	-41.2	-44.3	13.9	2.20e-06	0	61	0	909115392	53	5335
2026-01-22 22:54:05.18	145.30	22.39	-41.4	-44.6	13.6	5.30e-06	0	61	0	910163968	53	5495
2026-01-22 22:54:06.19	145.48	22.29	-41.3	-44.5	13.7	5.30e-06	0	61	0	912261120	53	5444
2026-01-22 22:54:07.20	145.67	22.18	-41.3	-44.5	13.8	1.06e-05	0	60	0	914358272	53	5403
2026-01-22 22:54:08.20	145.84	22.07	-41.2	-44.4	13.9	1.50e-06	0	61	0	916455424	53	5352
2026-01-22 22:54:09.21	146.02	21.96	-41.1	-44.2	14.1	3.80e-06	0	61	0	918552576	53	5246
2026-01-22 22:54:10.22	146.20	21.85	-41.1	-44.1	14.1	2.20e-06	0	61	0	920649728	53	5205
2026-01-22 22:54:11.23	146.38	21.75	-41.1	-44.2	14.1	1.50e-06	0	61	0	921698304	53	5223
2026-01-22 22:54:12.25	146.55	21.64	-41.1	-44.1	14.2	2.20e-06	0	61	0	923795456	53	5201
2026-01-22 22:54:13.25	146.73	21.53	-41.1	-44.2	14.1	0.00e+00	0	61	0	925892608	53	5235
2026-01-22 22:54:14.26	146.90	21.42	-41.3	-44.4	13.8	7.00e-07	0	61	0	927989760	53	5401
2026-01-22 22:54:15.27	147.07	21.32	-41.2	-44.4	13.9	3.00e-06	0	61	0	930086912	53	5358
2026-01-22 22:54:16.28	147.24	21.21	-41.3	-44.5	13.8	2.20e-06	0	61	0	931135488	53	5417
2026-01-22 22:54:17.29	147.41	21.10	-41.4	-44.6	13.6	4.50e-06	0	61	0	933232640	53	5501
2026-01-22 22:54:18.30	147.58	21.00	-41.2	-44.4	13.8	6.10e-06	0	61	0	935329792	53	5386
2026-01-22 22:54:19.31	147.75	20.89	-41.4	-44.7	13.6	1.22e-05	0	61	0	937426944	53	5536
2026-01-22 22:54:20.32	147.91	20.79	-41.3	-44.5	13.7	1.14e-05	0	61	0	939524096	53	5420
2026-01-22 22:54:21.33	148.08	20.68	-41.4	-44.7	13.5	6.10e-06	0	61	0	940572672	53	5580
2026-01-22 22:54:22.34	148.24	20.57	-41.4	-44.6	13.6	7.60e-06	0	61	0	942669824	53	5508
2026-01-22 22:54:23.35	148.40	20.47	-41.3	-44.6	13.7	3.80e-06	0	61	0	944766976	53	5469
2026-01-22 22:54:24.36	148.57	20.36	-41.4	-44.7	13.5	7.60e-06	0	61	0	946864128	53	5560
2026-01-22 22:54:25.37	148.73	20.26	-41.4	-44.7	13.5	1.29e-05	0	61	0	948961280	53	5535
2026-01-22 22:54:26.38	148.89	20.15	-41.3	-44.4	13.8	3.00e-06	0	60	0	950009856	53	5402
2026-01-22 22:54:27.38	149.04	20.05	-41.3	-44.5	13.7	6.80e-06	0	61	0	952107008	53	5444
2026-01-22 22:54:28.40	149.20	19.95	-41.2	-44.4	13.9	3.00e-06	0	61	0	954204160	53	5349
2026-01-22 22:54:29.41	149.36	19.84	-41.3	-44.6	13.6	5.30e-06	0	61	0	956301312	53	5493
2026-01-22 22:54:30.41	149.51	19.74	-41.3	-44.6	13.6	9.90e-06	0	61	0	958398464	53	5482
2026-01-22 22:54:31.42	149.67	19.64	-41.4	-44.8	13.5	1.37e-05	0	61	0	959447040	53	5604
2026-01-22 22:54:32.44	149.82	19.53	-41.7	-45.3	12.9	4.42e-05	0	61	0	961544192	54	5638
2026-01-22 22:54:33.45	149.97	19.43	-41.8	-45.4	12.7	5.11e-05	0	61	0	963641344	54	5714
2026-01-22 22:54:34.45	150.12	19.33	-41.9	-45.6	12.6	9.23e-05	0	61	0	965738496	54	5849
2026-01-22 22:54:35.46	150.27	19.22	-42.1	-46.0	12.2	2.53e-04	0	61	0	967835648	54	6078
2026-01-22 22:54:36.47	150.42	19.12	-42.0	-45.9	12.3	1.43e-04	0	61	0	968884224	54	6010
2026-01-22 22:54:37.48	150.57	19.02	-42.2	-46.3	11.9	2.08e-04	0	61	0	970981376	54	6290
2026-01-22 22:54:38.49	150.72	18.92	-42.1	-46.1	12.0	3.75e-04	0	61	0	973078528	55	5842
2026-01-22 22:54:39.50	150.87	18.82	-42.1	-46.0	12.2	2.60e-04	0	61	0	975175680	55	5778
2026-01-22 22:54:40.51	151.01	18.71	-42.3	-46.4	11.7	3.00e-04	0	61	0	977272832	55	6054
2026-01-22 22:54:41.52	151.16	18.61	-42.2	-46.3	11.8	4.03e-04	0	61	0	978321408	55	5978
2026-01-22 22:54:42.53	151.30	18.51	-42.4	-46.6	11.5	6.32e-04	0	61	0	980418560	55	6179
2026-01-22 22:54:43.54	151.44	18.41	-42.5	-47.0	11.1	1.62e-03	0	61	0	982515712	55	6446
2026-01-22 22:54:44.55	151.58	18.31	-42.6	-47.2	10.9	2.14e-03	0	61	0	984612864	55	6621
2026-01-22 22:54:45.56	151.73	18.21	-43.0	-48.0	10.3	3.36e-03	0	61	0	986710016	56	6808
2026-01-22 22:54:46.57	151.87	18.11	-42.9	-47.8	10.5	5.15e-03	0	61	0	987758592	56	6649
2026-01-22 22:54:47.58	152.00	18.01	-43.0	-48.0	10.2	4.97e-03	0	61	0	989855744	56	6877
2026-01-22 22:54:48.59	152.14	17.91	-42.9	-47.8	10.4	5.81e-03	0	60	0	991952896	56	6697
2026-01-22 22:54:49.60	152.28	17.81	-42.7	-47.4	10.9	2.66e-03	0	61	0	994050048	56	6348
2026-01-22 22:54:50.61	152.42	17.71	-42.5	-46.8	11.4	1.41e-03	0	61	0	996147200	56	5974
2026-01-22 22:54:51.61	152.55	17.62	-42.4	-46.6	11.6	8.69e-04	0	61	0	998244352	56	5800
2026-01-22 22:54:52.62	152.69	17.52	-42.4	-46.6	11.7	5.55e-04	0	61	0	999292928	56	5822
2026-01-22 22:54:53.63	152.82	17.42	-42.3	-46.3	11.9	3.29e-04	0	61	0	1001390080	56	5648
2026-01-22 22:54:54.64	152.95	17.32	-42.2	-46.2	12.1	2.49e-04	0	61	0	1003487232	56	5532
2026-01-22 22:54:55.65	153.09	17.22	-42.2	-46.2	12.1	2.70e-04	0	61	0	1005584384	56	5542
2026-01-22 22:54:56.66	153.22	17.13	-42.3	-46.3	12.0	2.04e-04	0	61	0	1007681536	56	5607
2026-01-22 22:54:57.67	153.35	17.03	-42.3	-46.3	11.9	2.96e-04	0	61	0	1008730112	56	5652
2026-01-22 22:54:58.68	153.48	16.93	-42.3	-46.4	11.9	4.39e-04	0	61	0	1010827264	56	5703
2026-01-22 22:54:59.69	153.61	16.84	-42.4	-46.6	11.6	7.46e-04	0	61	0	1012924416	56	5812
2026-01-22 22:55:00.70	153.73	16.74	-42.4	-46.5	11.7	5.02e-04	0	61	0	1015021568	56	5781
2026-01-22 22:55:01.71	153.86	16.64	-42.4	-46.7	11.6	5.80e-04	0	61	0	1017118720	56	5861
2026-01-22 22:55:02.72	153.99	16.55	-42.4	-46.5	11.7	4.87e-04	0	61	0	1018167296	56	5782
2026-01-22 22:55:03.73	154.12	16.45	-42.3	-46.5	11.7	6.95e-04	0	61	0	1020264448	56	5759
2026-01-22 22:55:04.74	154.24	16.36	-42.3	-46.5	11.8	7.06e-04	0	61	0	1022361600	56	5737
2026-01-22 22:55:05.75	154.36	16.26	-42.3	-46.5	11.7	5.00e-04	0	61	0	1024458752	56	5733
2026-01-22 22:55:06.76	154.49	16.16	-42.3	-46.3	11.9	3.29e-04	0	61	0	1026555904	56	5644
2026-01-22 22:55:07.77	154.61	16.07	-42.2	-46.2	12.0	3.27e-04	0	60	0	1027604480	56	5560
2026-01-22 22:55:08.78	154.73	15.98	-42.2	-46.3	11.9	4.14e-04	0	61	0	1029701632	56	5599
2026-01-22 22:55:09.79	154.85	15.88	-42.2	-46.2	12.0	2.78e-04	0	61	0	1031798784	56	5573
2026-01-22 22:55:10.79	154.97	15.79	-42.2	-46.3	11.9	4.00e-04	0	61	0	1033895936	56	5639
2026-01-22 22:55:11.80	155.09	15.69	-42.2	-46.2	11.9	3.79e-04	0	61	0	1035993088	56	5569
2026-01-22 22:55:12.81	155.21	15.60	-42.2	-46.2	12.0	3.94e-04	0	61	0	1037041664	56	5563
2026-01-22 22:55:13.82	155.33	15.51	-42.2	-46.3	11.8	4.16e-04	0	61	0	1039138816	56	5626
2026-01-22 22:55:14.83	155.45	15.41	-42.3	-46.4	11.8	3.75e-04	0	61	0	1041235968	56	5690
2026-01-22 22:55:15.84	155.57	15.32	-42.3	-46.4	11.8	4.38e-04	0	61	0	1043333120	56	5690
2026-01-22 22:55:16.85	155.68	15.23	-42.3	-46.4	11.8	5.20e-04	0	61	0	1045430272	56	5693
2026-01-22 22:55:17.86	155.80	15.14	-42.3	-46.5	11.7	5.07e-04	0	61	0	1046478848	56	5755
2026-01-22 22:55:18.87	155.91	15.04	-42.3	-46.5	11.6	6.36e-04	0	61	0	1048576000	56	5747
2026-01-22 22:55:19.87	156.03	14.95	-42.2	-46.3	11.9	5.00e-04	0	61	0	1050673152	56	5612
2026-01-22 22:55:20.89	156.14	14.86	-42.1	-46.2	12.0	4.65e-04	0	61	0	1052770304	56	5538
2026-01-22 22:55:21.90	156.25	14.77	-42.1	-46.2	12.0	3.72e-04	0	61	0	1054867456	56	5535
2026-01-22 22:55:22.91	156.37	14.68	-42.1	-46.2	12.0	2.95e-04	0	61	0	1055916032	56	5548
2026-01-22 22:55:23.92	156.48	14.59	-42.1	-46.1	12.0	2.99e-04	0	61	0	1058013184	56	5503
2026-01-22 22:55:24.93	156.59	14.50	-42.1	-46.1	12.0	4.21e-04	0	61	0	1060110336	56	5514
2026-01-22 22:55:25.94	156.70	14.41	-42.1	-46.1	12.0	3.48e-04	0	61	0	1062207488	56	5473
2026-01-22 22:55:26.94	156.81	14.32	-42.2	-46.2	11.9	3.62e-04	0	61	0	1064304640	56	5575
2026-01-22 22:55:27.95	156.92	14.23	-42.1	-46.1	12.0	3.55e-04	0	61	0	1066401792	56	5471
2026-01-22 22:55:28.96	157.02	14.14	-42.2	-46.3	11.8	3.93e-04	0	61	0	1067450368	56	5608
2026-01-22 22:55:29.97	157.13	14.05	-42.3	-46.4	11.7	5.69e-04	0	61	0	1069547520	56	5712
2026-01-22 22:55:30.98	157.24	13.96	-42.4	-46.8	11.2	8.08e-04	0	61	0	1071644672	56	5983
2026-01-22 22:55:31.99	157.35	13.87	-42.5	-47.0	11.0	1.02e-03	0	61	0	1073741824	56	6111
2026-01-22 22:55:33.00	157.45	13.78	-42.6	-47.2	10.8	2.47e-03	0	61	0	1075838976	56	6249
2026-01-22 22:55:34.01	157.56	13.69	-42.6	-47.3	10.7	3.34e-03	0	61	0	1076887552	56	6307
2026-01-22 22:55:35.02	157.66	13.60	-42.8	-47.7	10.3	4.02e-03	0	61	0	1078984704	56	6598
2026-01-22 22:55:36.03	157.77	13.52	-42.8	-47.8	10.1	5.92e-03	0	61	0	1081081856	56	6711
2026-01-22 22:55:37.04	157.87	13.43	-42.9	-48.3	9.7	9.00e-03	0	61	0	1083179008	56	7048
2026-01-22 22:55:38.05	157.97	13.34	-42.9	-48.2	9.7	1.24e-02	0	61	0	1084227584	56	7027
2026-01-22 22:55:39.06	158.07	13.25	-43.0	-48.3	9.6	1.14e-02	0	61	0	1086324736	56	7104
2026-01-22 22:55:40.07	158.18	13.17	-43.0	-48.5	9.4	1.32e-02	0	61	0	1088421888	56	7258
2026-01-22 22:55:41.08	158.28	13.08	-42.9	-48.1	9.8	1.22e-02	0	61	0	1090519040	56	6942
2026-01-22 22:55:42.09	158.38	12.99	-42.9	-48.1	9.9	1.15e-02	0	61	0	1092616192	56	6920
2026-01-22 22:55:43.10	158.48	12.91	-42.9	-48.1	9.8	1.02e-02	0	61	0	1094713344	56	6881
2026-01-22 22:55:44.11	158.58	12.82	-42.8	-47.8	10.1	7.22e-03	0	61	0	1095761920	56	6706
2026-01-22 22:55:45.12	158.68	12.73	-42.7	-47.5	10.4	5.17e-03	0	61	0	1097859072	56	6478
2026-01-22 22:55:46.13	158.78	12.65	-42.6	-47.4	10.5	3.43e-03	0	61	0	1099956224	56	6410
2026-01-22 22:55:47.14	158.87	12.56	-42.5	-47.1	10.8	2.63e-03	0	61	0	1102053376	56	6149
2026-01-22 22:55:48.15	158.97	12.48	-42.4	-47.0	10.9	2.28e-03	0	61	0	1104150528	56	6114
2026-01-22 22:55:49.16	159.07	12.39	-42.3	-46.8	11.1	1.67e-03	0	61	0	1105199104	56	5946
2026-01-22 22:55:50.17	159.16	12.31	-42.3	-46.6	11.3	1.33e-03	0	61	0	1107296256	56	5855
2026-01-22 22:55:51.18	159.26	12.22	-42.3	-46.7	11.2	1.18e-03	0	61	0	1109393408	56	5882
2026-01-22 22:55:52.18	159.35	12.14	-42.2	-46.6	11.3	1.19e-03	0	61	0	1111490560	56	5836
2026-01-22 22:55:53.19	159.45	12.06	-42.2	-46.6	11.3	1.14e-03	0	61	0	1113587712	56	5844
2026-01-22 22:55:54.20	159.54	11.97	-42.3	-46.7	11.2	1.37e-03	0	61	0	1114636288	56	5895
2026-01-22 22:55:55.21	159.64	11.89	-42.2	-46.6	11.2	1.25e-03	0	61	0	1116733440	56	5844
2026-01-22 22:55:56.22	159.73	11.81	-42.1	-46.5	11.4	1.04e-03	0	61	0	1118830592	56	5724
2026-01-22 22:55:57.23	159.82	11.72	-42.2	-46.5	11.4	9.82e-04	0	61	0	1120927744	56	5751
2026-01-22 22:55:58.24	159.91	11.64	-42.2	-46.7	11.2	1.33e-03	0	61	0	1123024896	56	5857
2026-01-22 22:55:59.25	160.00	11.56	-42.2	-46.7	11.1	1.48e-03	0	61	0	1124073472	56	5880
2026-01-22 22:56:00.26	160.10	11.47	-42.3	-46.8	11.0	1.21e-03	0	61	0	1126170624	56	5969
2026-01-22 22:56:01.27	160.19	11.39	-42.3	-46.9	10.9	1.70e-03	0	61	0	1128267776	56	6009
2026-01-22 22:56:02.28	160.28	11.31	-42.2	-46.7	11.0	2.19e-03	0	61	0	1130364928	56	5880
2026-01-22 22:56:03.29	160.37	11.23	-42.3	-46.8	11.0	1.88e-03	0	61	0	1132462080	56	5946
2026-01-22 22:56:04.30	160.45	11.14	-42.2	-46.8	11.0	2.23e-03	0	61	0	1133510656	56	5946
2026-01-22 22:56:05.31	160.54	11.06	-42.1	-46.4	11.3	1.21e-03	0	60	0	1135607808	56	5717
2026-01-22 22:56:06.32	160.63	10.98	-42.2	-46.6	11.0	1.42e-03	0	61	0	1137704960	56	5835
2026-01-22 22:56:07.33	160.72	10.90	-42.2	-46.7	11.0	1.76e-03	0	61	0	1139802112	56	5885
2026-01-22 22:56:08.34	160.81	10.82	-42.3	-46.9	10.8	1.64e-03	0	61	0	1141899264	56	6060
2026-01-22 22:56:09.35	160.89	10.74	-42.3	-46.8	10.9	2.30e-03	0	61	0	1142947840	56	5975
