passes_logs/2026/01/22/R2.0S_Moscow/R2.0S_Moscow__20260122_095401_FENGYUN_3D_rec.log

#Pass ID: 20260122_095401_FENGYUN 3D
#Satellite: FENGYUN 3D
#Configuration: FENGYUN 3D
#almurnet v.1.7.20251203
#Start time: 2026-01-22 09:54:02

#Version: 2.2.20231116
#Station: R2.0S_Moscow
#Location: 37.707566 lon 55.798166 lat
#TLE: 1 43010U 17072A   26021.48744220  .00000253  00000+0  14133-3 0  9991
#TLE: 2 43010  98.9948 353.4037 0002485  97.2578 262.8880 14.19697766424177

#Time	Az	El	Level	Level2	SNR	BER	BlckErr	Temp	State	Recorded	gain1	gain2
2026-01-22 09:54:02.50	99.07	2.06	-39.1	-51.4	3.8	8.46e-01	0	51	0	0	50	14307
2026-01-22 09:54:03.50	98.99	2.12	-40.0	-51.9	3.8	8.45e-01	0	51	104	0	51	14340
2026-01-22 09:54:04.51	98.91	2.17	-40.2	-52.0	3.8	8.46e-01	0	51	104	0	50	15332
2026-01-22 09:54:05.52	98.83	2.22	-39.6	-51.9	3.9	8.48e-01	0	51	104	0	51	14315
2026-01-22 09:54:06.54	98.74	2.27	-40.5	-52.0	3.8	8.45e-01	0	51	104	0	51	14535
2026-01-22 09:54:07.55	98.66	2.33	-39.2	-51.8	3.8	8.46e-01	0	51	104	0	50	15016
2026-01-22 09:54:08.56	98.58	2.38	-39.1	-51.8	3.8	8.45e-01	0	51	104	0	50	15040
2026-01-22 09:54:09.57	98.49	2.43	-40.4	-52.0	3.8	8.46e-01	0	51	104	0	51	14505
2026-01-22 09:54:10.58	98.41	2.49	-40.4	-52.0	3.8	8.47e-01	0	52	104	0	51	14505
2026-01-22 09:54:11.59	98.33	2.54	-39.5	-51.7	3.8	8.47e-01	0	51	104	0	50	14826
2026-01-22 09:54:12.60	98.24	2.59	-40.4	-52.0	3.8	8.46e-01	0	52	104	0	51	14527
2026-01-22 09:54:13.61	98.16	2.64	-40.4	-52.0	3.8	8.46e-01	0	52	104	0	51	14509
2026-01-22 09:54:14.62	98.07	2.70	-40.4	-52.0	3.8	8.47e-01	0	52	104	0	51	14525
2026-01-22 09:54:15.63	97.98	2.75	-39.8	-51.9	3.8	8.46e-01	0	52	104	0	50	15221
2026-01-22 09:54:16.65	97.90	2.80	-39.7	-51.8	3.8	8.46e-01	0	52	104	0	51	14200
2026-01-22 09:54:17.66	97.81	2.86	-40.2	-52.0	3.8	8.47e-01	0	52	104	0	51	14390
2026-01-22 09:54:18.67	97.72	2.91	-40.1	-51.9	3.8	8.47e-01	0	52	104	0	50	15179
2026-01-22 09:54:19.68	97.64	2.96	-39.5	-51.9	3.8	8.47e-01	0	52	104	0	50	15066
2026-01-22 09:54:20.69	97.55	3.02	-39.6	-51.8	3.8	8.46e-01	0	52	104	0	50	15025
2026-01-22 09:54:21.70	97.46	3.07	-40.4	-52.1	3.8	8.46e-01	0	52	104	0	51	14561
2026-01-22 09:54:22.71	97.37	3.12	-40.4	-52.0	3.8	8.46e-01	0	52	104	0	51	14509
2026-01-22 09:54:23.72	97.29	3.18	-40.4	-52.0	3.8	8.46e-01	0	52	104	0	51	14496
2026-01-22 09:54:24.73	97.20	3.23	-40.2	-52.0	3.8	8.46e-01	0	52	104	0	51	14458
2026-01-22 09:54:25.74	97.11	3.28	-40.3	-52.0	3.8	8.47e-01	0	53	104	0	51	14501
2026-01-22 09:54:26.75	97.02	3.34	-39.7	-51.9	3.8	8.45e-01	0	53	104	0	51	14256
2026-01-22 09:54:27.76	96.93	3.39	-40.4	-52.1	3.8	8.46e-01	0	53	104	0	51	14548
2026-01-22 09:54:28.77	96.84	3.44	-40.4	-52.0	3.8	8.45e-01	0	53	104	0	51	14523
2026-01-22 09:54:29.78	96.75	3.50	-40.3	-52.0	3.8	8.47e-01	0	53	104	0	51	14465
2026-01-22 09:54:30.79	96.66	3.55	-40.4	-52.0	3.8	8.46e-01	0	53	104	0	51	14526
2026-01-22 09:54:31.80	96.57	3.61	-40.4	-52.0	3.9	8.46e-01	0	53	104	0	51	14526
2026-01-22 09:54:32.81	96.48	3.66	-40.4	-52.0	3.8	8.45e-01	0	53	104	0	51	14495
2026-01-22 09:54:33.82	96.38	3.71	-40.3	-52.0	3.8	8.47e-01	0	53	104	0	51	14482
2026-01-22 09:54:34.84	96.29	3.77	-40.2	-51.9	3.8	8.46e-01	0	53	104	0	51	14336
2026-01-22 09:54:35.85	96.20	3.82	-40.2	-52.0	3.8	8.47e-01	0	53	104	0	51	14457
2026-01-22 09:54:36.85	96.11	3.87	-39.9	-51.9	3.8	8.46e-01	0	53	104	0	50	15088
2026-01-22 09:54:37.86	96.01	3.93	-39.4	-51.8	3.8	8.46e-01	0	53	104	0	50	15023
2026-01-22 09:54:38.87	95.92	3.98	-40.4	-52.0	3.8	8.46e-01	0	53	104	0	51	14504
2026-01-22 09:54:39.88	95.83	4.04	-40.4	-52.0	3.8	8.45e-01	0	54	104	0	51	14486
2026-01-22 09:54:40.89	95.73	4.09	-40.4	-52.1	3.8	8.46e-01	0	53	104	0	51	14542
2026-01-22 09:54:41.90	95.64	4.15	-40.2	-51.9	3.8	8.47e-01	0	54	104	0	51	14347
2026-01-22 09:54:42.92	95.54	4.20	-40.4	-52.1	3.8	8.46e-01	0	54	104	0	51	14560
2026-01-22 09:54:43.93	95.45	4.25	-40.4	-52.0	3.8	8.45e-01	0	54	104	0	51	14480
2026-01-22 09:54:44.93	95.35	4.31	-40.4	-52.1	3.8	8.46e-01	0	54	104	0	51	14563
2026-01-22 09:54:45.94	95.26	4.36	-40.3	-52.0	3.8	8.46e-01	0	54	104	0	51	14461
2026-01-22 09:54:46.96	95.16	4.42	-40.3	-52.0	3.8	8.47e-01	0	54	104	0	51	14485
2026-01-22 09:54:47.97	95.06	4.47	-39.9	-51.8	3.8	8.46e-01	0	54	104	0	51	14206
2026-01-22 09:54:48.98	94.97	4.53	-40.4	-52.0	3.8	8.46e-01	0	54	104	0	51	14527
2026-01-22 09:54:49.99	94.87	4.58	-40.4	-52.0	3.8	8.45e-01	0	54	104	0	51	14491
2026-01-22 09:54:51.00	94.77	4.63	-40.4	-52.0	3.8	8.45e-01	0	54	104	0	51	14498
2026-01-22 09:54:52.01	94.67	4.69	-40.2	-51.9	3.8	8.46e-01	0	54	104	0	51	14289
2026-01-22 09:54:53.02	94.57	4.74	-39.8	-51.9	3.8	8.45e-01	0	54	104	0	51	14219
2026-01-22 09:54:54.03	94.47	4.80	-39.9	-51.9	3.8	8.46e-01	0	54	104	0	51	14211
2026-01-22 09:54:55.04	94.37	4.85	-40.4	-52.0	3.8	8.46e-01	0	54	104	0	51	14486
2026-01-22 09:54:56.05	94.28	4.91	-40.4	-52.0	3.8	8.46e-01	0	54	104	0	51	14475
2026-01-22 09:54:57.06	94.18	4.96	-40.4	-52.0	3.8	8.46e-01	0	54	104	0	51	14519
2026-01-22 09:54:58.08	94.07	5.02	-40.4	-52.0	3.8	8.46e-01	0	54	104	0	51	14534
2026-01-22 09:54:59.09	93.97	5.07	-40.4	-52.0	3.8	8.46e-01	0	54	104	0	51	14460
2026-01-22 09:55:00.10	93.87	5.13	-40.4	-52.0	3.8	8.46e-01	0	54	104	0	51	14429
2026-01-22 09:55:01.11	93.77	5.18	-39.0	-51.5	3.9	8.45e-01	0	54	104	0	50	14526
2026-01-22 09:55:02.12	93.67	5.24	-40.3	-51.9	3.8	8.47e-01	0	55	104	0	51	14308
2026-01-22 09:55:03.13	93.57	5.29	-39.7	-51.8	3.8	8.46e-01	0	55	104	0	50	15051
2026-01-22 09:55:04.14	93.46	5.35	-40.3	-52.0	3.8	8.46e-01	0	55	104	0	51	14451
2026-01-22 09:55:05.15	93.36	5.40	-40.2	-51.9	3.8	8.45e-01	0	55	104	0	51	14373
2026-01-22 09:55:06.16	93.26	5.45	-40.4	-52.0	3.8	8.47e-01	0	55	104	0	51	14461
2026-01-22 09:55:07.17	93.15	5.51	-40.3	-51.9	3.8	8.45e-01	0	55	104	0	51	14369
2026-01-22 09:55:08.18	93.05	5.56	-40.3	-52.0	3.8	8.47e-01	0	55	104	0	51	14451
2026-01-22 09:55:09.19	92.94	5.62	-40.4	-52.0	3.8	8.47e-01	0	55	104	0	51	14411
2026-01-22 09:55:10.20	92.84	5.67	-40.3	-52.0	3.8	8.47e-01	0	55	104	0	51	14455
2026-01-22 09:55:11.21	92.73	5.73	-40.4	-52.0	3.8	8.46e-01	0	55	104	0	51	14430
2026-01-22 09:55:12.22	92.63	5.78	-38.8	-51.8	3.8	8.45e-01	0	55	104	0	49	15844
2026-01-22 09:55:13.23	92.52	5.84	-40.4	-52.0	3.8	8.45e-01	0	55	104	0	51	14453
2026-01-22 09:55:14.24	92.41	5.89	-40.4	-52.0	3.8	8.47e-01	0	55	104	0	51	14432
2026-01-22 09:55:15.25	92.31	5.95	-40.4	-52.0	3.8	8.47e-01	0	55	104	0	51	14472
2026-01-22 09:55:16.26	92.20	6.01	-40.4	-52.0	3.9	8.45e-01	0	55	104	0	51	14436
2026-01-22 09:55:17.27	92.09	6.06	-40.4	-52.0	3.8	8.47e-01	0	55	104	0	51	14452
2026-01-22 09:55:18.28	91.98	6.12	-40.4	-52.0	3.8	8.46e-01	0	55	104	0	51	14466
2026-01-22 09:55:19.29	91.87	6.17	-40.4	-52.0	3.8	8.46e-01	0	55	104	0	51	14439
2026-01-22 09:55:20.30	91.76	6.23	-40.4	-52.0	3.8	8.47e-01	0	55	104	0	51	14434
2026-01-22 09:55:21.31	91.65	6.28	-40.4	-52.0	3.8	8.46e-01	0	56	104	0	51	14485
2026-01-22 09:55:22.32	91.54	6.34	-39.0	-51.7	3.8	8.46e-01	0	55	104	0	50	14754
2026-01-22 09:55:23.34	91.43	6.39	-39.8	-51.9	3.8	8.47e-01	0	55	104	0	50	15151
2026-01-22 09:55:24.35	91.32	6.45	-40.4	-52.0	3.8	8.48e-01	0	56	104	0	51	14497
2026-01-22 09:55:25.36	91.21	6.50	-40.3	-52.0	3.8	8.46e-01	0	56	104	0	51	14459
2026-01-22 09:55:26.37	91.10	6.56	-40.3	-52.0	3.8	8.46e-01	0	56	104	0	51	14478
2026-01-22 09:55:27.38	90.98	6.61	-40.4	-52.0	3.8	8.47e-01	0	55	104	0	51	14465
2026-01-22 09:55:28.39	90.87	6.67	-40.4	-51.9	3.8	8.46e-01	0	56	104	0	51	14352
2026-01-22 09:55:29.40	90.76	6.72	-40.4	-52.0	3.8	8.46e-01	0	56	104	0	51	14397
2026-01-22 09:55:30.41	90.64	6.78	-40.4	-52.0	3.8	8.46e-01	0	56	104	0	51	14435
2026-01-22 09:55:31.42	90.53	6.84	-40.4	-52.0	3.8	8.46e-01	0	56	104	0	51	14457
2026-01-22 09:55:32.43	90.42	6.89	-40.4	-52.0	3.8	8.45e-01	0	56	104	0	51	14483
2026-01-22 09:55:33.44	90.30	6.95	-40.3	-52.0	3.8	8.47e-01	0	56	104	0	51	14381
2026-01-22 09:55:34.45	90.19	7.00	-40.4	-52.0	3.8	8.46e-01	0	56	104	0	51	14450
2026-01-22 09:55:35.46	90.07	7.06	-40.4	-52.0	3.8	8.45e-01	0	56	104	0	51	14430
2026-01-22 09:55:36.47	89.95	7.11	-40.4	-52.0	3.8	8.45e-01	0	56	104	0	51	14438
2026-01-22 09:55:37.48	89.84	7.17	-38.8	-51.2	3.8	8.45e-01	0	56	104	0	50	13940
2026-01-22 09:55:38.49	89.72	7.22	-38.4	-51.8	3.8	8.45e-01	0	56	104	0	51	14152
2026-01-22 09:55:39.50	89.60	7.28	-39.7	-51.9	3.8	8.46e-01	0	56	104	0	50	15204
2026-01-22 09:55:40.51	89.48	7.33	-40.4	-52.0	3.8	8.46e-01	0	56	104	0	51	14481
2026-01-22 09:55:41.53	89.36	7.39	-40.4	-52.0	3.8	8.47e-01	0	56	104	0	51	14488
2026-01-22 09:55:42.54	89.24	7.45	-40.1	-51.9	3.8	8.46e-01	0	56	104	0	51	14373
2026-01-22 09:55:43.55	89.12	7.50	-40.0	-51.9	3.8	8.47e-01	0	56	104	0	51	14294
2026-01-22 09:55:44.56	89.00	7.56	-39.1	-51.7	3.9	8.46e-01	0	56	104	0	50	14759
2026-01-22 09:55:45.57	88.88	7.61	-40.4	-52.0	3.8	8.46e-01	0	56	104	0	51	14511
2026-01-22 09:55:46.58	88.76	7.67	-40.4	-52.0	3.8	8.46e-01	0	56	104	0	51	14459
2026-01-22 09:55:47.59	88.64	7.72	-39.4	-51.7	3.9	8.45e-01	0	56	104	0	50	14809
2026-01-22 09:55:48.60	88.52	7.78	-40.4	-52.0	3.8	8.47e-01	0	56	104	0	51	14435
2026-01-22 09:55:49.61	88.40	7.83	-39.1	-51.6	3.8	8.45e-01	0	56	104	0	50	14652
2026-01-22 09:55:50.62	88.27	7.89	-40.4	-52.0	3.8	8.47e-01	0	56	104	0	51	14526
2026-01-22 09:55:51.63	88.15	7.95	-39.9	-51.9	3.8	8.46e-01	0	56	104	0	50	15151
2026-01-22 09:55:52.64	88.03	8.00	-40.3	-52.0	3.8	8.47e-01	0	56	104	0	51	14432
2026-01-22 09:55:53.65	87.90	8.06	-41.1	-52.7	3.8	8.46e-01	0	56	104	0	52	14868
2026-01-22 09:55:54.66	87.78	8.11	-40.1	-52.1	3.8	8.45e-01	0	57	104	0	51	14706
2026-01-22 09:55:55.67	87.65	8.17	-40.5	-52.1	3.8	8.47e-01	0	57	104	0	51	14560
2026-01-22 09:55:56.68	87.53	8.22	-40.6	-52.2	3.8	8.48e-01	0	56	104	0	51	14797
2026-01-22 09:55:57.69	87.40	8.28	-40.4	-51.9	3.9	8.47e-01	0	57	104	0	51	14315
2026-01-22 09:55:58.70	87.27	8.33	-40.3	-51.9	3.9	8.46e-01	0	57	104	0	51	14302
2026-01-22 09:55:59.71	87.15	8.39	-40.3	-51.9	3.8	8.46e-01	0	57	104	0	51	14308
2026-01-22 09:56:00.72	87.02	8.44	-40.3	-51.9	3.8	8.47e-01	0	57	104	0	51	14325
2026-01-22 09:56:01.73	86.89	8.50	-40.3	-51.9	3.8	8.46e-01	0	57	104	0	51	14322
2026-01-22 09:56:02.74	86.76	8.56	-40.3	-51.9	3.8	8.46e-01	0	57	104	0	51	14352
2026-01-22 09:56:03.75	86.63	8.61	-40.3	-52.1	3.8	8.46e-01	0	57	104	0	51	14696
2026-01-22 09:56:04.76	86.50	8.67	-40.6	-52.2	3.8	8.45e-01	0	57	104	0	51	14811
2026-01-22 09:56:05.77	86.37	8.72	-40.4	-52.1	3.8	8.47e-01	0	57	104	0	51	14555
2026-01-22 09:56:06.77	86.24	8.78	-40.0	-52.1	3.9	8.46e-01	0	57	104	0	50	15520
2026-01-22 09:56:07.78	86.11	8.83	-40.4	-51.9	3.9	8.46e-01	0	57	104	0	50	15122
2026-01-22 09:56:08.79	85.98	8.89	-40.4	-52.0	3.8	8.45e-01	0	57	104	0	51	14379
2026-01-22 09:56:09.80	85.85	8.94	-40.3	-51.9	3.8	8.45e-01	0	57	104	0	51	14372
2026-01-22 09:56:10.81	85.72	9.00	-40.4	-52.0	3.8	8.47e-01	0	57	104	0	51	14477
2026-01-22 09:56:11.82	85.58	9.05	-40.3	-51.9	3.8	8.46e-01	0	57	104	0	51	14357
2026-01-22 09:56:12.83	85.45	9.11	-40.4	-52.0	3.8	8.45e-01	0	57	104	0	51	14396
2026-01-22 09:56:13.84	85.31	9.16	-40.3	-51.9	3.8	8.47e-01	0	57	104	0	51	14354
2026-01-22 09:56:14.85	85.18	9.22	-40.4	-52.0	3.8	8.45e-01	0	57	104	0	51	14374
2026-01-22 09:56:15.86	85.04	9.27	-40.5	-52.1	3.8	8.46e-01	0	57	104	0	51	14633
2026-01-22 09:56:16.87	84.91	9.33	-39.8	-51.8	3.8	8.45e-01	0	57	104	0	50	14986
2026-01-22 09:56:17.88	84.77	9.38	-40.5	-52.1	3.8	8.46e-01	0	57	104	0	51	14634
2026-01-22 09:56:18.89	84.64	9.44	-40.4	-52.1	3.8	8.45e-01	0	57	104	0	51	14562
2026-01-22 09:56:19.90	84.50	9.49	-40.3	-51.9	3.8	8.47e-01	0	57	104	0	51	14281
2026-01-22 09:56:20.91	84.36	9.55	-40.2	-52.0	3.8	8.45e-01	0	57	104	0	51	14435
2026-01-22 09:56:21.92	84.22	9.60	-39.6	-51.8	3.8	8.48e-01	0	57	104	0	51	14202
2026-01-22 09:56:22.93	84.08	9.66	-40.3	-52.0	3.8	8.45e-01	0	57	104	0	51	14433
2026-01-22 09:56:23.94	83.94	9.71	-40.3	-52.0	3.8	8.45e-01	0	57	104	0	51	14403
2026-01-22 09:56:24.95	83.80	9.77	-39.5	-51.7	3.8	8.47e-01	0	57	104	0	50	14870
2026-01-22 09:56:25.96	83.66	9.82	-40.4	-52.0	3.8	8.47e-01	0	57	104	0	51	14507
2026-01-22 09:56:26.97	83.52	9.88	-40.5	-52.2	3.8	8.47e-01	0	57	104	0	51	14735
2026-01-22 09:56:27.97	83.38	9.93	-40.3	-51.9	3.8	8.46e-01	0	57	104	0	51	14365
2026-01-22 09:56:28.98	83.24	9.99	-40.3	-51.9	3.8	8.47e-01	0	57	104	0	51	14363
2026-01-22 09:56:29.99	83.10	10.04	-40.2	-51.9	3.8	8.45e-01	0	57	104	0	51	14370
2026-01-22 09:56:31.00	82.95	10.10	-40.4	-52.1	3.8	8.47e-01	0	58	104	0	51	14599
2026-01-22 09:56:32.01	82.81	10.15	-40.2	-51.9	3.8	8.46e-01	0	57	104	0	51	14223
2026-01-22 09:56:33.02	82.67	10.20	-40.3	-52.0	3.8	8.46e-01	0	58	104	0	51	14427
2026-01-22 09:56:34.03	82.52	10.26	-40.4	-52.0	3.8	8.46e-01	0	58	104	0	51	14451
2026-01-22 09:56:35.04	82.38	10.31	-40.5	-52.1	3.8	8.46e-01	0	58	104	0	51	14590
2026-01-22 09:56:36.05	82.23	10.37	-40.2	-51.9	3.8	8.45e-01	0	57	104	0	51	14212
2026-01-22 09:56:37.06	82.08	10.42	-40.4	-52.0	3.8	8.46e-01	0	57	104	0	51	14468
2026-01-22 09:56:38.07	81.94	10.48	-40.3	-51.9	3.8	8.46e-01	0	57	104	0	51	14350
2026-01-22 09:56:39.08	81.79	10.53	-40.5	-52.1	3.8	8.46e-01	0	58	104	0	51	14585
2026-01-22 09:56:40.09	81.64	10.58	-40.3	-51.9	3.8	8.45e-01	0	57	104	0	51	14273
2026-01-22 09:56:41.10	81.49	10.64	-40.4	-52.1	3.8	8.46e-01	0	58	104	0	51	14566
2026-01-22 09:56:42.11	81.34	10.69	-40.3	-51.9	3.8	8.45e-01	0	58	104	0	51	14346
2026-01-22 09:56:43.12	81.19	10.74	-40.6	-52.2	3.8	8.47e-01	0	58	104	0	51	14712
2026-01-22 09:56:44.13	81.04	10.80	-40.3	-52.0	3.8	8.46e-01	0	58	104	0	51	14415
2026-01-22 09:56:45.14	80.89	10.85	-40.5	-52.2	3.8	8.47e-01	0	58	104	0	51	14752
2026-01-22 09:56:46.15	80.74	10.91	-40.4	-52.0	3.8	8.46e-01	0	58	104	0	51	14500
2026-01-22 09:56:47.16	80.59	10.96	-40.5	-52.2	3.8	8.47e-01	0	58	104	0	51	14733
2026-01-22 09:56:48.17	80.43	11.01	-40.4	-52.1	3.8	8.47e-01	0	58	104	0	51	14562
2026-01-22 09:56:49.17	80.28	11.07	-40.4	-52.2	3.8	8.45e-01	0	58	104	0	51	14750
2026-01-22 09:56:50.18	80.13	11.12	-40.4	-52.1	3.8	8.45e-01	0	58	104	0	51	14550
2026-01-22 09:56:51.19	79.97	11.17	-40.7	-52.3	3.8	8.46e-01	0	58	104	0	51	14950
2026-01-22 09:56:52.20	79.82	11.22	-40.4	-52.1	3.8	8.46e-01	0	58	104	0	51	14600
2026-01-22 09:56:53.21	79.66	11.28	-40.6	-52.2	3.8	8.46e-01	0	58	104	0	51	14840
2026-01-22 09:56:54.22	79.51	11.33	-40.5	-52.2	3.8	8.45e-01	0	58	104	0	51	14718
2026-01-22 09:56:55.23	79.35	11.38	-40.6	-52.2	3.8	8.47e-01	0	58	104	0	52	14029
2026-01-22 09:56:56.24	79.19	11.44	-40.5	-52.1	3.8	8.45e-01	0	58	104	0	52	13857
2026-01-22 09:56:57.25	79.04	11.49	-40.6	-52.2	3.8	8.46e-01	0	58	104	0	52	14002
2026-01-22 09:56:58.26	78.88	11.54	-40.5	-52.1	3.8	8.46e-01	0	58	104	0	52	13835
2026-01-22 09:56:59.27	78.72	11.59	-40.6	-52.3	3.8	8.46e-01	0	58	104	0	52	14062
2026-01-22 09:57:00.28	78.56	11.65	-40.7	-52.3	3.8	8.46e-01	0	58	104	0	52	14097
2026-01-22 09:57:01.29	78.40	11.70	-40.7	-52.4	3.8	8.47e-01	0	58	104	0	52	14251
2026-01-22 09:57:02.30	78.24	11.75	-40.5	-52.2	3.8	8.47e-01	0	58	104	0	52	13892
2026-01-22 09:57:03.31	78.08	11.80	-40.7	-52.4	3.8	8.46e-01	0	58	104	0	52	14281
2026-01-22 09:57:04.32	77.92	11.85	-40.8	-52.5	3.8	8.47e-01	0	58	104	0	52	14394
2026-01-22 09:57:05.33	77.75	11.91	-40.8	-52.5	3.8	8.45e-01	0	58	104	0	52	14376
2026-01-22 09:57:06.34	77.59	11.96	-40.7	-52.3	3.8	8.46e-01	0	58	104	0	52	14148
2026-01-22 09:57:07.35	77.43	12.01	-40.8	-52.5	3.8	8.46e-01	0	58	104	0	52	14402
2026-01-22 09:57:08.35	77.26	12.06	-41.0	-52.6	3.8	8.46e-01	0	58	104	0	52	14637
2026-01-22 09:57:09.37	77.10	12.11	-40.9	-52.5	3.8	8.46e-01	0	58	104	0	52	14467
2026-01-22 09:57:10.37	76.93	12.16	-40.8	-52.4	3.8	8.46e-01	0	58	104	0	52	14327
2026-01-22 09:57:11.38	76.77	12.21	-40.9	-52.5	3.8	8.47e-01	0	58	104	0	52	14470
2026-01-22 09:57:12.40	76.60	12.26	-41.0	-52.6	3.8	8.46e-01	0	58	104	0	52	14659
2026-01-22 09:57:13.41	76.43	12.31	-41.0	-52.6	3.8	8.45e-01	0	58	104	0	52	14625
2026-01-22 09:57:14.42	76.27	12.37	-40.9	-52.5	3.8	8.46e-01	0	58	104	0	52	14402
2026-01-22 09:57:15.42	76.10	12.42	-41.0	-52.6	3.8	8.46e-01	0	58	104	0	52	14667
2026-01-22 09:57:16.43	75.93	12.47	-41.0	-52.6	3.8	8.45e-01	0	58	104	0	52	14627
2026-01-22 09:57:17.44	75.76	12.52	-41.1	-52.7	3.8	8.46e-01	0	58	104	0	52	14821
2026-01-22 09:57:18.45	75.59	12.57	-41.0	-52.6	3.8	8.45e-01	0	58	104	0	52	14655
2026-01-22 09:57:19.46	75.42	12.62	-41.1	-52.8	3.8	8.47e-01	0	58	104	0	53	14099
2026-01-22 09:57:20.47	75.25	12.67	-41.2	-52.8	3.8	8.45e-01	0	58	104	0	53	14116
2026-01-22 09:57:21.48	75.08	12.72	-41.2	-52.8	3.8	8.46e-01	0	58	104	0	53	14153
2026-01-22 09:57:22.49	74.91	12.76	-41.2	-52.8	3.8	8.46e-01	0	58	104	0	53	14103
2026-01-22 09:57:23.50	74.73	12.81	-41.3	-52.9	3.8	8.47e-01	0	58	104	0	53	14213
2026-01-22 09:57:24.50	74.56	12.86	-41.2	-52.7	3.8	8.47e-01	0	59	104	0	53	14035
2026-01-22 09:57:25.51	74.39	12.91	-41.2	-52.8	3.8	8.47e-01	0	58	104	0	53	14151
2026-01-22 09:57:26.52	74.21	12.96	-41.3	-52.9	3.8	8.45e-01	0	58	104	0	53	14248
2026-01-22 09:57:27.53	74.04	13.01	-41.2	-52.8	3.8	8.46e-01	0	58	104	0	53	14091
2026-01-22 09:57:28.54	73.86	13.06	-41.0	-52.6	3.8	8.46e-01	0	58	104	0	53	13775
2026-01-22 09:57:29.56	73.68	13.11	-41.1	-52.7	3.8	8.45e-01	0	58	104	0	53	13956
2026-01-22 09:57:30.57	73.51	13.15	-41.2	-52.8	3.8	8.46e-01	0	59	104	0	53	14049
2026-01-22 09:57:31.58	73.33	13.20	-41.0	-52.6	3.8	8.45e-01	0	58	104	0	53	13846
2026-01-22 09:57:32.58	73.15	13.25	-41.0	-52.6	3.8	8.47e-01	0	59	104	0	53	13824
2026-01-22 09:57:33.59	72.97	13.30	-41.0	-52.6	3.8	8.46e-01	0	59	104	0	53	13807
2026-01-22 09:57:34.60	72.80	13.34	-41.1	-52.7	3.8	8.47e-01	0	58	104	0	53	13917
2026-01-22 09:57:35.61	72.62	13.39	-41.0	-52.6	3.8	8.46e-01	0	59	104	0	53	13753
2026-01-22 09:57:36.62	72.44	13.44	-41.2	-52.7	3.8	8.46e-01	0	59	104	0	53	14023
2026-01-22 09:57:37.63	72.25	13.49	-41.0	-52.6	3.8	8.46e-01	0	59	104	0	53	13845
2026-01-22 09:57:38.64	72.07	13.53	-41.1	-52.6	3.8	8.46e-01	0	58	104	0	53	13812
2026-01-22 09:57:39.65	71.89	13.58	-41.1	-52.7	3.8	8.46e-01	0	59	104	0	53	14002
2026-01-22 09:57:40.65	71.71	13.63	-41.3	-52.9	3.8	8.46e-01	0	59	104	0	53	14299
2026-01-22 09:57:41.67	71.52	13.67	-41.2	-52.6	3.8	8.46e-01	0	59	104	0	53	13776
2026-01-22 09:57:42.67	71.34	13.72	-41.2	-52.3	3.8	8.47e-01	0	59	104	0	53	13410
2026-01-22 09:57:43.68	71.16	13.76	-41.3	-52.9	3.8	8.47e-01	0	59	104	0	53	14231
2026-01-22 09:57:44.69	70.97	13.81	-41.4	-52.2	3.8	8.46e-01	0	59	104	0	53	13153
2026-01-22 09:57:45.70	70.79	13.85	-41.3	-52.7	3.8	8.45e-01	0	59	104	0	53	14037
2026-01-22 09:57:46.71	70.60	13.90	-41.4	-51.7	3.8	8.45e-01	0	59	104	0	53	12378
2026-01-22 09:57:47.72	70.41	13.94	-41.3	-50.5	3.9	8.45e-01	0	59	104	0	53	10871
2026-01-22 09:57:48.73	70.23	13.99	-41.0	-48.6	4.6	8.26e-01	0	59	0	0	53	8662
2026-01-22 09:57:49.74	70.04	14.03	-40.6	-46.9	5.5	7.46e-01	0	59	0	0	53	7187
2026-01-22 09:57:50.75	69.85	14.08	-40.4	-46.0	6.2	3.38e-01	0	59	0	5242880	52	6864
2026-01-22 09:57:51.76	69.66	14.12	-40.4	-46.2	6.1	3.27e-01	0	59	0	10485760	52	6960
2026-01-22 09:57:52.77	69.47	14.16	-40.4	-45.9	6.4	2.92e-01	0	59	0	15728640	52	6729
2026-01-22 09:57:53.78	69.28	14.21	-41.3	-48.4	4.8	3.23e-01	0	59	0	20971520	53	8522
2026-01-22 09:57:54.79	69.09	14.25	-41.1	-50.2	4.1	3.91e-01	0	59	0	23068672	52	11079
2026-01-22 09:57:55.80	68.90	14.29	-40.3	-45.6	6.6	8.03e-01	0	59	104	23068672	52	6545
2026-01-22 09:57:56.81	68.71	14.34	-40.5	-46.1	6.3	5.68e-02	0	59	0	28311552	51	7302
2026-01-22 09:57:57.82	68.52	14.38	-38.6	-41.9	10.4	9.68e-02	0	59	0	31457280	49	5092
2026-01-22 09:57:58.83	68.32	14.42	-38.2	-41.2	11.2	2.23e-03	0	59	0	37748736	48	4948
2026-01-22 09:57:59.84	68.13	14.46	-38.0	-40.9	11.6	1.17e-03	0	59	0	42991616	48	4766
2026-01-22 09:58:00.85	67.94	14.50	-37.8	-40.6	11.9	8.11e-04	0	59	0	48234496	47	4900
2026-01-22 09:58:01.86	67.74	14.55	-37.8	-40.5	12.2	3.71e-04	0	59	0	54525952	47	4843
2026-01-22 09:58:02.87	67.55	14.59	-37.8	-40.3	12.5	1.90e-04	0	59	0	59768832	47	4748
2026-01-22 09:58:03.88	67.35	14.63	-37.8	-40.4	12.5	1.68e-04	0	59	0	66060288	47	4796
2026-01-22 09:58:04.89	67.16	14.67	-37.7	-40.2	12.7	9.72e-05	0	59	0	71303168	47	4693
2026-01-22 09:58:05.90	66.96	14.71	-37.8	-40.3	12.8	1.04e-04	0	59	0	76546048	47	4710
2026-01-22 09:58:06.91	66.76	14.75	-37.5	-39.8	13.4	2.86e-05	0	59	0	82837504	47	4459
2026-01-22 09:58:07.92	66.56	14.79	-37.6	-39.9	13.5	1.83e-05	0	59	0	88080384	46	4797
2026-01-22 09:58:08.93	66.37	14.83	-37.7	-40.0	13.4	1.83e-05	0	59	0	94371840	46	4834
2026-01-22 09:58:09.94	66.17	14.87	-37.8	-40.2	13.3	2.97e-05	0	59	0	99614720	46	4947
2026-01-22 09:58:10.94	65.97	14.91	-37.9	-40.2	13.3	2.28e-05	0	59	0	105906176	46	4980
2026-01-22 09:58:11.96	65.77	14.95	-38.0	-40.3	13.3	3.77e-05	0	59	0	111149056	46	5041
2026-01-22 09:58:12.96	65.57	14.98	-38.1	-40.4	13.2	1.94e-05	0	59	0	117440512	46	5093
2026-01-22 09:58:13.97	65.37	15.02	-38.1	-40.4	13.4	2.51e-05	0	59	0	122683392	46	5076
2026-01-22 09:58:14.99	65.16	15.06	-38.0	-40.3	13.6	1.02e-05	0	59	0	127926272	46	5011
2026-01-22 09:58:15.99	64.96	15.10	-38.0	-40.2	13.8	6.80e-06	0	59	0	134217728	46	4971
2026-01-22 09:58:17.00	64.76	15.14	-37.9	-40.0	14.0	5.70e-06	0	59	0	139460608	46	4857
2026-01-22 09:58:18.01	64.56	15.17	-37.7	-39.8	14.3	2.20e-06	0	59	0	145752064	46	4709
2026-01-22 09:58:19.02	64.36	15.21	-37.6	-39.6	14.5	2.20e-06	0	59	0	150994944	46	4646
2026-01-22 09:58:20.03	64.15	15.25	-37.5	-39.5	14.6	0.00e+00	0	59	0	156237824	46	4594
2026-01-22 09:58:21.04	63.95	15.28	-37.5	-39.6	14.6	0.00e+00	0	59	0	162529280	46	4606
2026-01-22 09:58:22.05	63.74	15.32	-37.8	-40.0	14.2	1.10e-06	0	59	0	167772160	46	4818
2026-01-22 09:58:23.06	63.54	15.35	-37.7	-39.8	14.5	1.10e-06	0	59	0	174063616	46	4729
2026-01-22 09:58:24.07	63.33	15.39	-37.8	-39.8	14.5	1.10e-06	0	59	0	179306496	46	4757
2026-01-22 09:58:25.08	63.12	15.42	-37.8	-39.8	14.6	2.20e-06	0	59	0	184549376	46	4740
2026-01-22 09:58:26.09	62.92	15.46	-37.8	-39.9	14.6	1.10e-06	0	59	0	190840832	46	4776
2026-01-22 09:58:27.10	62.71	15.49	-37.9	-39.9	14.5	0.00e+00	0	59	0	196083712	46	4803
2026-01-22 09:58:28.11	62.50	15.52	-37.8	-39.9	14.6	1.10e-06	0	59	0	202375168	46	4776
2026-01-22 09:58:29.12	62.29	15.56	-37.7	-39.7	14.7	1.10e-06	0	59	0	207618048	46	4698
2026-01-22 09:58:30.13	62.09	15.59	-37.8	-39.8	14.6	0.00e+00	0	59	0	213909504	46	4755
2026-01-22 09:58:31.14	61.88	15.62	-37.8	-39.8	14.7	0.00e+00	0	59	0	219152384	46	4725
2026-01-22 09:58:32.15	61.67	15.66	-37.8	-39.9	14.6	3.40e-06	0	59	0	224395264	46	4768
2026-01-22 09:58:33.16	61.46	15.69	-37.8	-39.8	14.7	0.00e+00	0	59	0	230686720	46	4734
2026-01-22 09:58:34.17	61.25	15.72	-37.7	-39.7	14.8	0.00e+00	0	59	0	235929600	46	4682
2026-01-22 09:58:35.18	61.04	15.75	-37.7	-39.7	14.8	0.00e+00	0	59	0	242221056	46	4687
2026-01-22 09:58:36.19	60.82	15.78	-37.7	-39.7	14.9	0.00e+00	0	59	0	247463936	46	4668
2026-01-22 09:58:37.20	60.61	15.81	-37.8	-39.8	14.9	0.00e+00	0	59	0	252706816	46	4706
2026-01-22 09:58:38.21	60.40	15.84	-37.7	-39.7	14.9	0.00e+00	0	59	0	258998272	46	4656
2026-01-22 09:58:39.22	60.19	15.87	-37.7	-39.7	14.9	0.00e+00	0	59	0	264241152	46	4697
2026-01-22 09:58:40.23	59.97	15.90	-37.7	-39.7	14.9	0.00e+00	0	59	0	270532608	46	4691
2026-01-22 09:58:41.23	59.76	15.93	-37.8	-39.8	14.8	0.00e+00	0	59	0	275775488	46	4729
2026-01-22 09:58:42.24	59.55	15.96	-37.9	-39.9	14.7	0.00e+00	0	59	0	281018368	46	4790
2026-01-22 09:58:43.25	59.33	15.99	-37.9	-40.0	14.7	1.10e-06	0	59	0	287309824	46	4820
2026-01-22 09:58:44.26	59.12	16.02	-37.8	-39.8	14.9	0.00e+00	0	59	0	292552704	46	4720
2026-01-22 09:58:45.27	58.90	16.05	-37.8	-39.8	14.8	0.00e+00	0	59	0	298844160	46	4741
2026-01-22 09:58:46.28	58.69	16.07	-37.8	-39.8	14.9	1.10e-06	0	59	0	304087040	46	4747
2026-01-22 09:58:47.29	58.47	16.10	-37.8	-39.8	14.8	0.00e+00	0	59	0	310378496	46	4750
2026-01-22 09:58:48.30	58.25	16.13	-37.7	-39.7	15.0	0.00e+00	0	59	0	315621376	46	4670
2026-01-22 09:58:49.31	58.04	16.15	-37.6	-39.6	15.1	0.00e+00	0	59	0	321912832	46	4609
2026-01-22 09:58:50.32	57.82	16.18	-37.6	-39.5	15.2	0.00e+00	0	59	0	327155712	46	4576
2026-01-22 09:58:51.33	57.60	16.20	-37.6	-39.5	15.2	0.00e+00	0	59	0	332398592	46	4577
2026-01-22 09:58:52.34	57.39	16.23	-37.5	-39.5	15.2	0.00e+00	0	59	0	338690048	46	4559
2026-01-22 09:58:53.35	57.17	16.25	-37.5	-39.4	15.3	0.00e+00	0	59	0	343932928	46	4527
2026-01-22 09:58:54.36	56.95	16.28	-37.6	-39.5	15.2	0.00e+00	0	59	0	350224384	46	4562
2026-01-22 09:58:55.37	56.73	16.30	-37.8	-39.7	15.3	0.00e+00	0	59	0	355467264	46	4656
2026-01-22 09:58:56.38	56.51	16.33	-37.8	-39.7	15.2	0.00e+00	0	59	0	360710144	46	4669
2026-01-22 09:58:57.39	56.29	16.35	-37.9	-39.7	15.2	0.00e+00	0	59	0	367001600	46	4671
2026-01-22 09:58:58.40	56.07	16.37	-37.9	-39.7	15.2	0.00e+00	0	59	0	372244480	46	4677
2026-01-22 09:58:59.40	55.85	16.39	-37.8	-39.6	15.4	0.00e+00	0	59	0	378535936	46	4600
2026-01-22 09:59:00.41	55.63	16.42	-37.8	-39.6	15.3	0.00e+00	0	59	0	383778816	46	4634
2026-01-22 09:59:01.42	55.41	16.44	-37.8	-39.6	15.4	0.00e+00	0	59	0	389021696	46	4623
2026-01-22 09:59:02.43	55.19	16.46	-37.8	-39.6	15.4	0.00e+00	0	59	0	395313152	46	4632
2026-01-22 09:59:03.44	54.97	16.48	-37.7	-39.5	15.4	0.00e+00	0	59	0	400556032	46	4584
2026-01-22 09:59:04.45	54.75	16.50	-37.7	-39.4	15.5	0.00e+00	0	59	0	406847488	46	4532
2026-01-22 09:59:05.46	54.52	16.52	-37.6	-39.4	15.6	0.00e+00	0	59	0	412090368	46	4513
2026-01-22 09:59:06.47	54.30	16.54	-37.6	-39.4	15.6	0.00e+00	0	59	0	418381824	46	4515
2026-01-22 09:59:07.48	54.08	16.56	-37.6	-39.3	15.6	0.00e+00	0	59	0	423624704	46	4487
2026-01-22 09:59:08.49	53.86	16.57	-37.5	-39.2	15.7	0.00e+00	0	59	0	428867584	46	4430
2026-01-22 09:59:09.50	53.63	16.59	-37.4	-39.1	15.8	0.00e+00	0	59	0	435159040	46	4380
2026-01-22 09:59:10.51	53.41	16.61	-37.5	-39.2	15.8	0.00e+00	0	59	0	440401920	46	4417
2026-01-22 09:59:11.52	53.18	16.63	-37.5	-39.3	15.7	0.00e+00	0	59	0	446693376	46	4463
2026-01-22 09:59:12.53	52.96	16.64	-37.6	-39.4	15.6	0.00e+00	0	59	0	451936256	46	4504
2026-01-22 09:59:13.54	52.74	16.66	-37.7	-39.4	15.6	0.00e+00	0	59	0	457179136	46	4527
2026-01-22 09:59:14.55	52.51	16.68	-37.7	-39.4	15.6	0.00e+00	0	59	0	463470592	46	4536
2026-01-22 09:59:15.56	52.29	16.69	-37.7	-39.4	15.6	0.00e+00	0	59	0	468713472	46	4530
2026-01-22 09:59:16.57	52.06	16.71	-37.6	-39.4	15.7	0.00e+00	0	59	0	475004928	46	4498
2026-01-22 09:59:17.58	51.84	16.72	-37.6	-39.4	15.6	0.00e+00	0	59	0	480247808	46	4497
2026-01-22 09:59:18.59	51.61	16.74	-37.7	-39.5	15.5	0.00e+00	0	59	0	485490688	46	4585
2026-01-22 09:59:19.60	51.39	16.75	-37.7	-39.5	15.5	0.00e+00	0	59	0	491782144	46	4581
2026-01-22 09:59:20.61	51.16	16.76	-37.8	-39.5	15.5	0.00e+00	0	60	0	497025024	46	4592
2026-01-22 09:59:21.62	50.93	16.78	-37.7	-39.5	15.5	0.00e+00	0	59	0	503316480	46	4586
2026-01-22 09:59:22.63	50.71	16.79	-37.8	-39.6	15.4	0.00e+00	0	59	0	508559360	46	4620
2026-01-22 09:59:23.64	50.48	16.80	-37.8	-39.6	15.5	0.00e+00	0	59	0	514850816	46	4611
2026-01-22 09:59:24.65	50.25	16.81	-37.7	-39.5	15.5	0.00e+00	0	59	0	520093696	46	4565
2026-01-22 09:59:25.66	50.03	16.82	-37.7	-39.4	15.6	0.00e+00	0	59	0	526385152	46	4529
2026-01-22 09:59:26.67	49.80	16.83	-37.7	-39.4	15.6	0.00e+00	0	59	0	531628032	46	4524
2026-01-22 09:59:27.68	49.57	16.84	-37.6	-39.3	15.7	0.00e+00	0	59	0	536870912	46	4478
2026-01-22 09:59:28.69	49.35	16.85	-37.6	-39.3	15.7	0.00e+00	0	60	0	543162368	46	4491
2026-01-22 09:59:29.70	49.12	16.86	-37.6	-39.3	15.7	0.00e+00	0	59	0	548405248	46	4474
2026-01-22 09:59:30.71	48.89	16.87	-37.5	-39.3	15.7	0.00e+00	0	59	0	554696704	46	4452
2026-01-22 09:59:31.72	48.66	16.88	-37.4	-39.1	16.0	0.00e+00	0	59	0	559939584	46	4355
2026-01-22 09:59:32.73	48.44	16.89	-37.4	-39.1	16.0	0.00e+00	0	59	0	565182464	46	4355
2026-01-22 09:59:33.74	48.21	16.89	-37.4	-39.1	15.9	0.00e+00	0	59	0	571473920	46	4359
2026-01-22 09:59:34.75	47.98	16.90	-37.4	-39.0	16.0	0.00e+00	0	59	0	576716800	46	4330
2026-01-22 09:59:35.76	47.75	16.91	-37.3	-39.0	16.0	0.00e+00	0	59	0	583008256	46	4320
2026-01-22 09:59:36.77	47.52	16.91	-37.3	-39.0	16.0	0.00e+00	0	60	0	588251136	46	4323
2026-01-22 09:59:37.78	47.29	16.92	-37.4	-39.1	15.9	0.00e+00	0	59	0	593494016	46	4383
2026-01-22 09:59:38.79	47.07	16.92	-37.5	-39.2	15.8	0.00e+00	0	59	0	599785472	46	4408
2026-01-22 09:59:39.79	46.84	16.93	-37.6	-39.3	15.8	0.00e+00	0	59	0	605028352	46	4451
2026-01-22 09:59:40.80	46.61	16.93	-37.6	-39.3	15.7	0.00e+00	0	59	0	611319808	46	4487
2026-01-22 09:59:41.81	46.38	16.94	-37.6	-39.3	15.7	0.00e+00	0	59	0	616562688	46	4480
2026-01-22 09:59:42.82	46.15	16.94	-37.6	-39.3	15.7	0.00e+00	0	59	0	622854144	46	4487
2026-01-22 09:59:43.83	45.93	16.94	-37.6	-39.3	15.7	0.00e+00	0	59	0	628097024	46	4483
2026-01-22 09:59:44.84	45.70	16.94	-37.6	-39.3	15.7	0.00e+00	0	59	0	633339904	46	4460
2026-01-22 09:59:45.85	45.47	16.95	-37.7	-39.4	15.6	0.00e+00	0	59	0	639631360	46	4509
2026-01-22 09:59:46.86	45.24	16.95	-37.7	-39.5	15.6	0.00e+00	0	59	0	644874240	46	4556
2026-01-22 09:59:47.87	45.01	16.95	-37.7	-39.5	15.6	0.00e+00	0	59	0	651165696	46	4549
2026-01-22 09:59:48.88	44.78	16.95	-37.8	-39.6	15.5	0.00e+00	0	59	0	656408576	46	4604
2026-01-22 09:59:49.88	44.56	16.95	-37.7	-39.5	15.6	0.00e+00	0	59	0	661651456	46	4567
2026-01-22 09:59:50.90	44.33	16.95	-37.7	-39.4	15.6	0.00e+00	0	59	0	667942912	46	4526
2026-01-22 09:59:51.91	44.10	16.95	-37.7	-39.5	15.6	0.00e+00	0	60	0	673185792	46	4567
2026-01-22 09:59:52.92	43.87	16.95	-37.8	-39.5	15.5	0.00e+00	0	60	0	679477248	46	4597
2026-01-22 09:59:53.93	43.64	16.94	-37.6	-39.4	15.7	0.00e+00	0	59	0	684720128	46	4508
2026-01-22 09:59:54.94	43.41	16.94	-37.6	-39.4	15.7	0.00e+00	0	60	0	689963008	46	4495
2026-01-22 09:59:55.95	43.18	16.94	-37.6	-39.3	15.7	0.00e+00	0	59	0	696254464	46	4479
2026-01-22 09:59:56.96	42.95	16.94	-37.6	-39.3	15.7	0.00e+00	0	59	0	701497344	46	4475
2026-01-22 09:59:57.97	42.73	16.93	-37.5	-39.2	15.9	0.00e+00	0	59	0	707788800	46	4411
2026-01-22 09:59:58.98	42.50	16.93	-37.6	-39.3	15.8	0.00e+00	0	59	0	713031680	46	4446
2026-01-22 09:59:59.99	42.27	16.92	-37.5	-39.2	15.8	0.00e+00	0	60	0	719323136	46	4429
2026-01-22 10:00:01.00	42.04	16.92	-37.5	-39.2	15.8	0.00e+00	0	59	0	724566016	46	4436
2026-01-22 10:00:02.01	41.81	16.91	-37.5	-39.2	15.8	0.00e+00	0	59	0	730857472	46	4436
2026-01-22 10:00:03.02	41.58	16.91	-37.5	-39.2	15.8	0.00e+00	0	60	0	736100352	46	4425
2026-01-22 10:00:04.03	41.36	16.90	-37.5	-39.2	15.9	0.00e+00	0	60	0	741343232	46	4394
2026-01-22 10:00:05.03	41.13	16.89	-37.5	-39.2	15.9	0.00e+00	0	60	0	747634688	46	4415
2026-01-22 10:00:06.04	40.90	16.89	-37.5	-39.2	15.8	0.00e+00	0	60	0	752877568	46	4439
2026-01-22 10:00:07.05	40.68	16.88	-37.5	-39.2	15.8	0.00e+00	0	59	0	759169024	46	4418
2026-01-22 10:00:08.06	40.45	16.87	-37.5	-39.2	15.8	0.00e+00	0	59	0	764411904	46	4423
2026-01-22 10:00:09.07	40.22	16.86	-37.5	-39.2	15.9	0.00e+00	0	60	0	769654784	46	4413
2026-01-22 10:00:10.08	39.99	16.85	-37.5	-39.2	15.9	0.00e+00	0	60	0	775946240	46	4408
2026-01-22 10:00:11.09	39.77	16.84	-37.6	-39.3	15.8	0.00e+00	0	60	0	781189120	46	4462
2026-01-22 10:00:12.10	39.54	16.83	-37.6	-39.3	15.7	0.00e+00	0	60	0	787480576	46	4483
2026-01-22 10:00:13.11	39.31	16.82	-37.6	-39.3	15.7	0.00e+00	0	59	0	792723456	46	4474
2026-01-22 10:00:14.12	39.09	16.81	-37.6	-39.4	15.7	0.00e+00	0	59	0	797966336	46	4502
2026-01-22 10:00:15.13	38.86	16.80	-37.7	-39.4	15.6	0.00e+00	0	60	0	804257792	46	4532
2026-01-22 10:00:16.15	38.63	16.79	-37.6	-39.4	15.7	0.00e+00	0	59	0	809500672	46	4521
2026-01-22 10:00:17.16	38.41	16.77	-37.7	-39.4	15.6	0.00e+00	0	60	0	815792128	46	4526
2026-01-22 10:00:18.17	38.18	16.76	-37.6	-39.4	15.6	0.00e+00	0	60	0	821035008	46	4517
2026-01-22 10:00:19.18	37.95	16.75	-37.5	-39.3	15.8	0.00e+00	0	60	0	827326464	46	4442
2026-01-22 10:00:20.18	37.73	16.73	-37.6	-39.3	15.7	0.00e+00	0	59	0	832569344	46	4475
2026-01-22 10:00:21.19	37.51	16.72	-37.6	-39.4	15.7	0.00e+00	0	59	0	837812224	46	4503
2026-01-22 10:00:22.20	37.28	16.70	-37.6	-39.4	15.7	0.00e+00	0	59	0	844103680	46	4503
2026-01-22 10:00:23.21	37.06	16.69	-37.6	-39.3	15.8	0.00e+00	0	60	0	849346560	46	4463
2026-01-22 10:00:24.22	36.83	16.67	-37.6	-39.3	15.7	0.00e+00	0	60	0	855638016	46	4475
2026-01-22 10:00:25.23	36.61	16.66	-37.7	-39.5	15.6	0.00e+00	0	60	0	860880896	46	4551
2026-01-22 10:00:26.24	36.38	16.64	-37.8	-39.5	15.5	0.00e+00	0	60	0	866123776	46	4581
2026-01-22 10:00:27.25	36.16	16.62	-37.7	-39.5	15.5	0.00e+00	0	60	0	872415232	46	4583
2026-01-22 10:00:28.26	35.94	16.61	-37.7	-39.5	15.6	0.00e+00	0	60	0	877658112	46	4559
2026-01-22 10:00:29.27	35.71	16.59	-37.8	-39.5	15.5	0.00e+00	0	60	0	883949568	46	4582
2026-01-22 10:00:30.27	35.49	16.57	-37.8	-39.5	15.5	0.00e+00	0	60	0	889192448	46	4585
2026-01-22 10:00:31.29	35.27	16.55	-37.7	-39.5	15.6	1.10e-06	0	60	0	894435328	46	4547
2026-01-22 10:00:32.30	35.04	16.53	-37.6	-39.3	15.7	0.00e+00	0	60	0	900726784	46	4474
2026-01-22 10:00:33.31	34.82	16.51	-37.6	-39.3	15.7	0.00e+00	0	59	0	905969664	46	4475
2026-01-22 10:00:34.32	34.60	16.49	-37.7	-39.5	15.5	0.00e+00	0	60	0	912261120	46	4561
2026-01-22 10:00:35.32	34.38	16.47	-37.7	-39.5	15.5	0.00e+00	0	60	0	917504000	46	4572
2026-01-22 10:00:36.33	34.16	16.45	-37.8	-39.5	15.5	0.00e+00	0	59	0	923795456	46	4595
2026-01-22 10:00:37.34	33.94	16.43	-37.7	-39.5	15.6	0.00e+00	0	60	0	929038336	46	4558
2026-01-22 10:00:38.35	33.72	16.41	-37.8	-39.5	15.5	0.00e+00	0	60	0	934281216	46	4597
2026-01-22 10:00:39.36	33.50	16.39	-37.8	-39.6	15.4	0.00e+00	0	60	0	940572672	46	4634
2026-01-22 10:00:40.37	33.28	16.37	-37.8	-39.6	15.4	0.00e+00	0	60	0	945815552	46	4624
2026-01-22 10:00:41.38	33.06	16.34	-37.7	-39.5	15.5	0.00e+00	0	60	0	952107008	46	4585
2026-01-22 10:00:42.39	32.84	16.32	-37.7	-39.5	15.5	0.00e+00	0	60	0	957349888	46	4558
2026-01-22 10:00:43.40	32.62	16.30	-37.8	-39.5	15.5	0.00e+00	0	60	0	963641344	46	4586
2026-01-22 10:00:44.41	32.40	16.27	-37.8	-39.5	15.5	0.00e+00	0	60	0	968884224	46	4585
2026-01-22 10:00:45.42	32.18	16.25	-37.7	-39.5	15.5	0.00e+00	0	60	0	974127104	46	4594
2026-01-22 10:00:46.43	31.97	16.22	-37.7	-39.5	15.5	0.00e+00	0	60	0	980418560	46	4563
2026-01-22 10:00:47.44	31.75	16.20	-37.7	-39.4	15.6	0.00e+00	0	60	0	985661440	46	4529
2026-01-22 10:00:48.45	31.53	16.17	-37.6	-39.4	15.6	0.00e+00	0	60	0	991952896	46	4513
2026-01-22 10:00:49.46	31.31	16.15	-37.7	-39.4	15.5	0.00e+00	0	60	0	997195776	46	4540
2026-01-22 10:00:50.47	31.10	16.12	-37.7	-39.5	15.5	0.00e+00	0	60	0	1002438656	46	4576
2026-01-22 10:00:51.48	30.88	16.09	-37.7	-39.4	15.6	0.00e+00	0	60	0	1008730112	46	4511
2026-01-22 10:00:52.49	30.67	16.07	-37.7	-39.5	15.5	0.00e+00	0	60	0	1013972992	46	4569
2026-01-22 10:00:53.51	30.45	16.04	-37.7	-39.5	15.5	0.00e+00	0	60	0	1020264448	46	4577
2026-01-22 10:00:54.51	30.24	16.01	-37.8	-39.6	15.4	0.00e+00	0	60	0	1025507328	46	4636
2026-01-22 10:00:55.53	30.02	15.98	-37.9	-39.7	15.3	0.00e+00	0	60	0	1031798784	46	4682
2026-01-22 10:00:56.54	29.81	15.96	-37.9	-39.7	15.3	0.00e+00	0	60	0	1037041664	46	4673
2026-01-22 10:00:57.55	29.59	15.93	-37.9	-39.7	15.3	0.00e+00	0	60	0	1042284544	46	4691
2026-01-22 10:00:58.56	29.38	15.90	-37.9	-39.7	15.3	0.00e+00	0	60	0	1048576000	46	4675
2026-01-22 10:00:59.57	29.17	15.87	-37.9	-39.7	15.3	0.00e+00	0	60	0	1053818880	46	4696
2026-01-22 10:01:00.58	28.96	15.84	-37.9	-39.6	15.4	0.00e+00	0	60	0	1060110336	46	4651
2026-01-22 10:01:01.59	28.74	15.81	-37.8	-39.7	15.3	0.00e+00	0	60	0	1065353216	46	4655
2026-01-22 10:01:02.59	28.53	15.78	-37.9	-39.8	15.2	0.00e+00	0	60	0	1070596096	46	4719
2026-01-22 10:01:03.60	28.32	15.75	-38.0	-39.8	15.2	0.00e+00	0	60	0	1076887552	46	4735
2026-01-22 10:01:04.61	28.11	15.71	-38.0	-39.8	15.2	0.00e+00	0	60	0	1082130432	46	4725
2026-01-22 10:01:05.62	27.90	15.68	-37.8	-39.6	15.3	0.00e+00	0	60	0	1088421888	46	4639
2026-01-22 10:01:06.63	27.69	15.65	-37.7	-39.4	15.6	0.00e+00	0	60	0	1093664768	46	4526
2026-01-22 10:01:07.64	27.48	15.62	-37.7	-39.5	15.4	0.00e+00	0	60	0	1098907648	46	4567
2026-01-22 10:01:08.65	27.28	15.59	-37.8	-39.6	15.3	0.00e+00	0	60	0	1105199104	46	4636
2026-01-22 10:01:09.66	27.07	15.55	-37.8	-39.6	15.4	0.00e+00	0	60	0	1110441984	46	4641
2026-01-22 10:01:10.67	26.86	15.52	-37.8	-39.6	15.3	0.00e+00	0	60	0	1116733440	46	4645
2026-01-22 10:01:11.67	26.66	15.49	-37.9	-39.8	15.2	0.00e+00	0	60	0	1121976320	46	4708
2026-01-22 10:01:12.68	26.45	15.45	-38.0	-39.8	15.2	0.00e+00	0	60	0	1128267776	46	4731
2026-01-22 10:01:13.69	26.24	15.42	-38.0	-39.8	15.1	0.00e+00	0	60	0	1133510656	46	4758
2026-01-22 10:01:14.70	26.04	15.38	-37.9	-39.8	15.1	0.00e+00	0	60	0	1139802112	46	4724
2026-01-22 10:01:15.71	25.83	15.35	-38.0	-39.8	15.1	0.00e+00	0	60	0	1145044992	46	4757
2026-01-22 10:01:16.72	25.63	15.31	-37.9	-39.8	15.1	0.00e+00	0	60	0	1150287872	46	4718
2026-01-22 10:01:17.73	25.42	15.28	-38.0	-39.8	15.1	0.00e+00	0	60	0	1156579328	46	4737
2026-01-22 10:01:18.74	25.22	15.24	-38.0	-39.8	15.1	0.00e+00	0	60	0	1161822208	46	4748
2026-01-22 10:01:19.75	25.02	15.20	-38.0	-39.9	15.1	0.00e+00	0	60	0	1168113664	46	4764
2026-01-22 10:01:20.76	24.81	15.17	-38.1	-39.9	15.0	0.00e+00	0	60	0	1173356544	46	4802
2026-01-22 10:01:21.77	24.61	15.13	-38.1	-40.0	15.0	0.00e+00	0	60	0	1178599424	46	4816
2026-01-22 10:01:22.78	24.41	15.09	-38.0	-39.9	15.0	0.00e+00	0	60	0	1184890880	46	4786
2026-01-22 10:01:23.79	24.21	15.05	-38.1	-39.9	14.9	0.00e+00	0	60	0	1190133760	46	4810
2026-01-22 10:01:24.80	24.01	15.02	-38.1	-40.0	14.9	0.00e+00	0	60	0	1195376640	46	4837
2026-01-22 10:01:25.81	23.81	14.98	-38.1	-40.0	14.9	0.00e+00	0	60	0	1201668096	46	4831
2026-01-22 10:01:26.82	23.61	14.94	-38.1	-40.0	14.9	0.00e+00	0	60	0	1206910976	46	4844
2026-01-22 10:01:27.83	23.41	14.90	-38.1	-40.1	14.8	0.00e+00	0	60	0	1213202432	46	4877
2026-01-22 10:01:28.84	23.21	14.86	-38.1	-40.0	14.8	1.10e-06	0	60	0	1218445312	46	4848
2026-01-22 10:01:29.84	23.01	14.82	-38.1	-40.0	14.9	1.10e-06	0	60	0	1224736768	46	4845
2026-01-22 10:01:30.85	22.82	14.78	-38.1	-40.0	14.8	0.00e+00	0	60	0	1229979648	46	4857
2026-01-22 10:01:31.86	22.62	14.74	-38.1	-40.0	14.9	0.00e+00	0	60	0	1236271104	46	4826
2026-01-22 10:01:32.87	22.42	14.70	-38.1	-40.0	14.8	0.00e+00	0	60	0	1241513984	46	4845
2026-01-22 10:01:33.88	22.23	14.66	-38.2	-40.1	14.7	0.00e+00	0	60	0	1246756864	46	4903
2026-01-22 10:01:34.89	22.03	14.62	-38.2	-40.1	14.7	0.00e+00	0	60	0	1253048320	46	4918
2026-01-22 10:01:35.90	21.84	14.58	-38.1	-40.0	14.8	0.00e+00	0	60	0	1258291200	46	4843
2026-01-22 10:01:36.91	21.64	14.54	-38.1	-40.0	14.8	0.00e+00	0	60	0	1264582656	46	4861
2026-01-22 10:01:37.92	21.45	14.50	-38.1	-40.0	14.8	0.00e+00	0	60	0	1269825536	46	4861
2026-01-22 10:01:38.93	21.26	14.46	-38.1	-40.0	14.8	0.00e+00	0	60	0	1275068416	46	4866
2026-01-22 10:01:39.94	21.06	14.42	-38.1	-40.0	14.8	0.00e+00	0	60	0	1281359872	46	4842
2026-01-22 10:01:40.95	20.87	14.37	-38.2	-40.1	14.7	0.00e+00	0	60	0	1286602752	46	4926
2026-01-22 10:01:41.96	20.68	14.33	-38.2	-40.2	14.6	0.00e+00	0	60	0	1292894208	47	4671
2026-01-22 10:01:42.97	20.49	14.29	-38.2	-40.2	14.6	0.00e+00	0	60	0	1298137088	47	4674
2026-01-22 10:01:43.99	20.30	14.24	-38.2	-40.2	14.6	1.10e-06	0	60	0	1303379968	47	4684
2026-01-22 10:01:45.00	20.11	14.20	-38.3	-40.2	14.5	1.10e-06	0	60	0	1309671424	47	4698
2026-01-22 10:01:46.00	19.92	14.16	-38.3	-40.2	14.5	2.20e-06	0	60	0	1314914304	47	4702
2026-01-22 10:01:47.01	19.73	14.12	-38.2	-40.2	14.6	0.00e+00	0	60	0	1321205760	47	4671
2026-01-22 10:01:48.02	19.54	14.07	-38.3	-40.3	14.5	3.40e-06	0	60	0	1326448640	47	4720
2026-01-22 10:01:49.03	19.35	14.03	-38.4	-40.4	14.3	4.50e-06	0	60	0	1332740096	47	4813
2026-01-22 10:01:50.04	19.17	13.98	-38.5	-40.5	14.2	2.20e-06	0	60	0	1337982976	47	4870
2026-01-22 10:01:51.05	18.98	13.94	-38.5	-40.6	14.1	8.00e-06	0	60	0	1343225856	47	4891
2026-01-22 10:01:52.06	18.79	13.89	-38.5	-40.6	14.1	2.20e-06	0	60	0	1349517312	47	4911
2026-01-22 10:01:53.07	18.61	13.85	-38.4	-40.5	14.2	4.50e-06	0	60	0	1354760192	47	4830
2026-01-22 10:01:54.08	18.42	13.80	-38.3	-40.3	14.4	0.00e+00	0	60	0	1361051648	47	4755
2026-01-22 10:01:55.09	18.24	13.76	-38.3	-40.3	14.4	0.00e+00	0	60	0	1366294528	47	4753
2026-01-22 10:01:56.10	18.06	13.71	-38.4	-40.5	14.2	2.20e-06	0	60	0	1371537408	47	4824
2026-01-22 10:01:57.11	17.87	13.67	-38.5	-40.6	14.1	3.40e-06	0	60	0	1377828864	47	4905
2026-01-22 10:01:58.12	17.69	13.62	-38.5	-40.5	14.1	2.20e-06	0	60	0	1383071744	47	4863
2026-01-22 10:01:59.13	17.51	13.57	-38.4	-40.5	14.1	3.40e-06	0	60	0	1389363200	47	4853
2026-01-22 10:02:00.14	17.33	13.53	-38.5	-40.5	14.1	2.20e-06	0	60	0	1394606080	47	4860
2026-01-22 10:02:01.15	17.15	13.48	-38.5	-40.6	14.1	3.40e-06	0	60	0	1399848960	47	4876
2026-01-22 10:02:02.16	16.97	13.43	-38.5	-40.6	14.0	6.80e-06	0	60	0	1406140416	47	4921
2026-01-22 10:02:03.17	16.79	13.39	-38.6	-40.8	13.9	4.50e-06	0	60	0	1411383296	47	4987
2026-01-22 10:02:04.18	16.61	13.34	-38.7	-40.8	13.8	9.10e-06	0	60	0	1417674752	47	5017
2026-01-22 10:02:05.19	16.43	13.29	-38.8	-41.0	13.7	8.00e-06	0	60	0	1422917632	48	4844
2026-01-22 10:02:06.20	16.25	13.25	-38.8	-40.9	13.8	5.70e-06	0	60	0	1429209088	48	4798
2026-01-22 10:02:07.21	16.08	13.20	-38.8	-40.9	13.8	1.14e-05	0	60	0	1434451968	48	4785
2026-01-22 10:02:08.22	15.90	13.15	-38.7	-40.8	13.9	5.70e-06	0	60	0	1440743424	48	4740
2026-01-22 10:02:09.23	15.72	13.10	-38.7	-40.8	13.8	1.02e-05	0	60	0	1445986304	48	4749
2026-01-22 10:02:10.23	15.55	13.05	-38.8	-41.0	13.7	1.25e-05	0	60	0	1451229184	48	4822
2026-01-22 10:02:11.24	15.38	13.01	-38.6	-40.7	13.9	9.10e-06	0	60	0	1457520640	48	4698
2026-01-22 10:02:12.25	15.20	12.96	-38.7	-40.9	13.8	8.00e-06	0	60	0	1462763520	48	4773
2026-01-22 10:02:13.26	15.03	12.91	-38.8	-41.0	13.7	1.37e-05	0	60	0	1469054976	48	4833
2026-01-22 10:02:14.27	14.85	12.86	-38.7	-40.8	13.8	5.70e-06	0	60	0	1474297856	48	4732
2026-01-22 10:02:15.28	14.68	12.81	-38.7	-40.8	13.8	4.50e-06	0	60	0	1479540736	48	4726
2026-01-22 10:02:16.29	14.51	12.76	-38.6	-40.7	13.8	5.70e-06	0	60	0	1485832192	48	4704
2026-01-22 10:02:17.30	14.34	12.71	-38.5	-40.6	13.9	6.80e-06	0	60	0	1491075072	48	4602
2026-01-22 10:02:18.31	14.17	12.66	-38.5	-40.6	13.9	1.48e-05	0	60	0	1497366528	48	4626
2026-01-22 10:02:19.32	14.00	12.61	-38.5	-40.7	13.8	5.70e-06	0	60	0	1502609408	48	4657
2026-01-22 10:02:20.33	13.83	12.56	-38.6	-40.7	13.7	8.00e-06	0	60	0	1507852288	48	4671
2026-01-22 10:02:21.34	13.66	12.51	-38.6	-40.8	13.6	1.14e-05	0	60	0	1514143744	48	4740
2026-01-22 10:02:22.35	13.49	12.46	-38.7	-40.9	13.5	1.60e-05	0	60	0	1519386624	48	4785
2026-01-22 10:02:23.36	13.32	12.41	-38.7	-40.9	13.4	2.17e-05	0	60	0	1525678080	48	4791
2026-01-22 10:02:24.37	13.16	12.36	-38.7	-40.9	13.3	4.23e-05	0	60	0	1530920960	48	4807
2026-01-22 10:02:25.38	12.99	12.31	-38.5	-40.7	13.5	1.71e-05	0	60	0	1536163840	48	4678
2026-01-22 10:02:26.39	12.82	12.26	-38.5	-40.7	13.5	1.14e-05	0	60	0	1542455296	48	4672
2026-01-22 10:02:27.40	12.66	12.21	-38.6	-40.8	13.3	1.83e-05	0	60	0	1547698176	48	4744
2026-01-22 10:02:28.40	12.49	12.16	-38.5	-40.8	13.2	2.86e-05	0	60	0	1553989632	48	4737
2026-01-22 10:02:29.41	12.33	12.11	-38.6	-40.9	13.1	4.80e-05	0	60	0	1559232512	48	4796
2026-01-22 10:02:30.42	12.17	12.06	-38.7	-41.1	12.8	8.69e-05	0	60	0	1565523968	48	4915
2026-01-22 10:02:31.43	12.00	12.01	-38.7	-41.2	12.6	1.44e-04	0	60	0	1570766848	48	4949
2026-01-22 10:02:32.44	11.84	11.95	-38.8	-41.2	12.6	1.60e-04	0	60	0	1576009728	48	4975
2026-01-22 10:02:33.45	11.68	11.90	-38.6	-41.0	12.7	1.48e-04	0	60	0	1582301184	48	4858
2026-01-22 10:02:34.46	11.52	11.85	-38.5	-41.0	12.6	1.29e-04	0	60	0	1587544064	48	4827
2026-01-22 10:02:35.47	11.36	11.80	-38.5	-41.0	12.4	1.85e-04	0	60	0	1593835520	48	4850
2026-01-22 10:02:36.48	11.20	11.75	-38.5	-41.0	12.4	1.83e-04	0	60	0	1599078400	48	4852
2026-01-22 10:02:37.49	11.04	11.70	-38.8	-41.4	11.9	4.04e-04	0	60	0	1604321280	48	5088
2026-01-22 10:02:38.50	10.88	11.64	-38.9	-41.7	11.4	1.13e-03	0	60	0	1610612736	48	5275
2026-01-22 10:02:39.51	10.72	11.59	-39.1	-42.0	11.1	1.93e-03	0	60	0	1615855616	48	5436
2026-01-22 10:02:40.52	10.56	11.54	-39.5	-42.8	10.0	7.31e-03	0	60	0	1622147072	49	5638
2026-01-22 10:02:41.53	10.40	11.49	-39.8	-43.5	9.2	1.95e-02	0	60	0	1627389952	50	5758
2026-01-22 10:02:42.54	10.25	11.43	-40.0	-44.0	8.6	4.04e-02	0	60	0	1632632832	50	6066
2026-01-22 10:02:43.55	10.09	11.38	-40.2	-44.6	7.9	6.89e-02	0	60	0	1638924288	50	6495
2026-01-22 10:02:44.56	9.93	11.33	-40.5	-45.4	7.0	1.62e-01	0	60	0	1644167168	51	6781
2026-01-22 10:02:45.57	9.78	11.28	-40.6	-46.0	6.4	2.50e-01	0	60	0	1650458624	51	7242
2026-01-22 10:02:46.58	9.63	11.22	-40.6	-46.6	5.8	4.06e-01	0	60	0	1655701504	52	7303
2026-01-22 10:02:47.59	9.47	11.17	-40.8	-47.1	5.4	7.04e-01	0	60	0	1658847232	52	7772
2026-01-22 10:02:48.60	9.32	11.12	-40.8	-47.7	5.0	7.43e-01	0	60	0	1659895808	52	8309
2026-01-22 10:02:49.61	9.17	11.07	-41.3	-48.5	4.7	8.00e-01	0	60	0	1659895808	53	8580
2026-01-22 10:02:50.62	9.01	11.01	-40.9	-52.3	3.8	8.05e-01	0	60	104	1660944384	53	13369
2026-01-22 10:02:51.63	8.86	10.96	-40.8	-51.7	3.8	8.46e-01	0	60	104	1660944384	53	12460
2026-01-22 10:02:52.64	8.71	10.91	-41.2	-50.2	4.1	8.45e-01	0	60	104	1660944384	53	10416
2026-01-22 10:02:53.65	8.56	10.85	-41.4	-51.1	3.8	8.46e-01	0	60	104	1660944384	54	10976
2026-01-22 10:02:54.66	8.41	10.80	-41.2	-50.7	3.8	8.45e-01	0	60	104	1660944384	54	10525
2026-01-22 10:02:55.67	8.26	10.74	-41.1	-50.9	3.8	8.45e-01	0	60	104	1660944384	54	10741
2026-01-22 10:02:56.68	8.11	10.69	-41.1	-51.4	3.8	8.45e-01	0	60	104	1660944384	54	11407
2026-01-22 10:02:57.68	7.96	10.64	-41.2	-51.4	3.8	8.46e-01	0	60	104	1660944384	54	11391
2026-01-22 10:02:58.69	7.82	10.58	-40.4	-52.0	3.8	8.46e-01	0	60	104	1660944384	52	13669
2026-01-22 10:02:59.70	7.67	10.53	-40.7	-52.1	3.8	8.46e-01	0	60	104	1660944384	52	13738
2026-01-22 10:03:00.71	7.52	10.48	-41.2	-52.0	3.8	8.46e-01	0	60	104	1660944384	52	13676
2026-01-22 10:03:01.72	7.38	10.42	-41.0	-52.1	3.8	8.46e-01	0	60	104	1660944384	53	13080
2026-01-22 10:03:02.73	7.23	10.37	-40.9	-52.4	3.8	8.47e-01	0	60	104	1660944384	53	13532
2026-01-22 10:03:03.74	7.09	10.31	-40.9	-52.4	3.8	8.46e-01	0	60	104	1660944384	53	13508
2026-01-22 10:03:04.75	6.94	10.26	-40.7	-52.3	3.8	8.46e-01	0	60	104	1660944384	53	13377
2026-01-22 10:03:05.76	6.80	10.21	-40.8	-52.4	3.8	8.45e-01	0	60	104	1660944384	53	13444
2026-01-22 10:03:06.77	6.65	10.15	-40.1	-51.7	3.8	8.47e-01	0	60	104	1660944384	52	13121
2026-01-22 10:03:07.78	6.51	10.10	-40.0	-51.6	3.8	8.46e-01	0	60	104	1660944384	51	13781
2026-01-22 10:03:08.79	6.37	10.04	-40.1	-51.6	3.8	8.46e-01	0	60	104	1660944384	51	13872
2026-01-22 10:03:09.80	6.23	9.99	-40.0	-51.6	3.8	8.46e-01	0	60	104	1660944384	51	13771
2026-01-22 10:03:10.81	6.09	9.93	-40.0	-51.5	3.8	8.47e-01	0	60	104	1660944384	51	13714
2026-01-22 10:03:11.82	5.95	9.88	-40.0	-51.6	3.8	8.45e-01	0	60	104	1660944384	51	13727
2026-01-22 10:03:12.83	5.81	9.83	-40.0	-51.5	3.8	8.46e-01	0	60	104	1660944384	51	13715
2026-01-22 10:03:13.84	5.67	9.77	-40.0	-51.5	3.8	8.47e-01	0	60	104	1660944384	51	13700
2026-01-22 10:03:14.85	5.53	9.72	-40.5	-52.2	3.8	8.45e-01	0	60	104	1660944384	51	14713
2026-01-22 10:03:15.86	5.39	9.66	-40.0	-51.6	3.8	8.46e-01	0	60	104	1660944384	51	13876
2026-01-22 10:03:16.87	5.25	9.61	-40.1	-51.7	3.8	8.46e-01	0	60	104	1660944384	51	13946
2026-01-22 10:03:17.88	5.11	9.55	-40.0	-51.6	3.8	8.46e-01	0	60	104	1660944384	51	13797
2026-01-22 10:03:18.89	4.98	9.50	-40.0	-51.6	3.8	8.47e-01	0	60	104	1660944384	51	13769
2026-01-22 10:03:19.90	4.84	9.44	-40.0	-51.6	3.8	8.47e-01	0	60	104	1660944384	51	13758
2026-01-22 10:03:20.91	4.70	9.39	-40.0	-51.6	3.8	8.46e-01	0	60	104	1660944384	51	13762
2026-01-22 10:03:21.92	4.57	9.33	-40.0	-51.5	3.8	8.46e-01	0	60	104	1660944384	51	13713
2026-01-22 10:03:22.92	4.44	9.28	-40.3	-51.9	3.8	8.45e-01	0	60	104	1660944384	51	14244
2026-01-22 10:03:23.93	4.30	9.22	-40.0	-51.6	3.8	8.45e-01	0	60	104	1660944384	51	13844
2026-01-22 10:03:24.94	4.17	9.17	-40.0	-51.6	3.8	8.46e-01	0	60	104	1660944384	51	13879
2026-01-22 10:03:25.95	4.03	9.11	-40.3	-51.9	3.8	8.48e-01	0	60	104	1660944384	51	14215
2026-01-22 10:03:26.96	3.90	9.06	-40.0	-51.6	3.8	8.47e-01	0	60	104	1660944384	51	13814
2026-01-22 10:03:27.97	3.77	9.00	-40.0	-51.6	3.8	8.46e-01	0	60	104	1660944384	51	13737
2026-01-22 10:03:28.98	3.64	8.95	-40.0	-51.6	3.8	8.47e-01	0	60	104	1660944384	51	13835
2026-01-22 10:03:29.99	3.51	8.89	-40.2	-51.7	3.8	8.46e-01	0	60	104	1660944384	51	14041
2026-01-22 10:03:31.00	3.38	8.84	-40.0	-51.6	3.8	8.47e-01	0	60	104	1660944384	51	13816
2026-01-22 10:03:32.01	3.25	8.78	-40.0	-51.6	3.8	8.46e-01	0	60	104	1660944384	51	13749
2026-01-22 10:03:33.02	3.12	8.73	-40.0	-51.6	3.8	8.46e-01	0	60	104	1660944384	51	13846
2026-01-22 10:03:34.03	2.99	8.67	-40.1	-51.7	3.8	8.46e-01	0	60	104	1660944384	51	13950
2026-01-22 10:03:35.04	2.86	8.62	-40.0	-51.5	3.8	8.47e-01	0	60	104	1660944384	51	13705
2026-01-22 10:03:36.05	2.73	8.56	-40.1	-51.6	3.8	8.46e-01	0	60	104	1660944384	51	13861
2026-01-22 10:03:37.05	2.60	8.51	-40.0	-51.5	3.8	8.46e-01	0	60	104	1660944384	51	13720
2026-01-22 10:03:38.06	2.48	8.45	-40.1	-51.7	3.8	8.47e-01	0	60	104	1660944384	51	13966
2026-01-22 10:03:39.07	2.35	8.40	-40.0	-51.5	3.8	8.46e-01	0	60	104	1660944384	51	13720
2026-01-22 10:03:40.09	2.22	8.34	-40.0	-51.6	3.8	8.46e-01	0	60	104	1660944384	51	13842
2026-01-22 10:03:41.09	2.10	8.29	-39.9	-51.5	3.8	8.45e-01	0	60	104	1660944384	51	13688
2026-01-22 10:03:42.10	1.97	8.23	-40.1	-51.7	3.8	8.46e-01	0	60	104	1660944384	51	13913
2026-01-22 10:03:43.11	1.85	8.17	-40.0	-51.6	3.8	8.47e-01	0	60	104	1660944384	51	13799
2026-01-22 10:03:44.12	1.72	8.12	-40.0	-51.6	3.8	8.45e-01	0	60	104	1660944384	51	13749
2026-01-22 10:03:45.13	1.60	8.06	-40.0	-51.6	3.8	8.47e-01	0	60	104	1660944384	51	13818
2026-01-22 10:03:46.15	1.48	8.01	-40.0	-51.6	3.8	8.47e-01	0	60	104	1660944384	51	13811
2026-01-22 10:03:47.16	1.35	7.95	-41.0	-52.6	3.8	8.46e-01	0	60	104	1660944384	52	14640
2026-01-22 10:03:48.17	1.23	7.90	-44.5	-56.1	3.8	8.46e-01	0	60	104	1660944384	59	14641
2026-01-22 10:03:49.18	1.11	7.84	-44.9	-56.8	3.8	8.47e-01	0	60	104	1660944384	60	14880
2026-01-22 10:03:50.19	0.99	7.79	-45.1	-57.0	3.8	8.46e-01	0	60	104	1660944384	60	15237
2026-01-22 10:03:51.20	0.87	7.73	-45.2	-57.0	3.8	8.46e-01	0	60	104	1660944384	61	14505
2026-01-22 10:03:52.21	0.75	7.68	-45.3	-57.1	3.8	8.46e-01	0	60	104	1660944384	61	14669
2026-01-22 10:03:53.22	0.63	7.62	-45.4	-57.2	3.8	8.46e-01	0	60	104	1660944384	61	14747
2026-01-22 10:03:54.23	0.51	7.57	-45.3	-57.2	3.8	8.46e-01	0	60	104	1660944384	61	14772
2026-01-22 10:03:55.24	0.39	7.51	-45.0	-57.1	3.8	8.47e-01	0	60	104	1660944384	61	14600
2026-01-22 10:03:56.25	0.27	7.45	-45.4	-57.1	3.8	8.47e-01	0	60	104	1660944384	61	14675
2026-01-22 10:03:57.26	0.15	7.40	-45.3	-57.1	3.9	8.47e-01	0	60	104	1660944384	61	14589
2026-01-22 10:03:58.27	0.03	7.34	-45.3	-57.0	3.8	8.46e-01	0	60	104	1660944384	61	14451
2026-01-22 10:03:59.28	359.92	7.29	-45.3	-57.0	3.8	8.45e-01	0	60	104	1660944384	61	14481
2026-01-22 10:04:00.29	359.80	7.23	-45.3	-57.0	3.8	8.46e-01	0	60	104	1660944384	61	14454
2026-01-22 10:04:01.30	359.68	7.18	-45.3	-57.0	3.8	8.46e-01	0	60	104	1660944384	61	14449
2026-01-22 10:04:02.31	359.57	7.12	-45.2	-56.9	3.8	8.45e-01	0	60	104	1660944384	61	14270
2026-01-22 10:04:03.32	359.45	7.07	-45.2	-56.8	3.8	8.46e-01	0	60	104	1660944384	61	14176
2026-01-22 10:04:04.34	359.34	7.01	-44.8	-56.9	3.8	8.46e-01	0	60	104	1660944384	61	14255
2026-01-22 10:04:05.35	359.22	6.96	-45.2	-56.9	3.8	8.46e-01	0	60	104	1660944384	61	14290
2026-01-22 10:04:06.36	359.11	6.90	-45.2	-56.9	3.8	8.46e-01	0	60	104	1660944384	60	15143
2026-01-22 10:04:07.37	358.99	6.85	-45.2	-56.9	3.8	8.46e-01	0	60	104	1660944384	60	15134
2026-01-22 10:04:08.38	358.88	6.79	-45.2	-56.9	3.8	8.47e-01	0	60	104	1660944384	60	15129
2026-01-22 10:04:09.39	358.77	6.73	-45.2	-56.9	3.8	8.47e-01	0	60	104	1660944384	60	15113
2026-01-22 10:04:10.40	358.66	6.68	-45.2	-56.9	3.8	8.46e-01	0	60	104	1660944384	60	15152
2026-01-22 10:04:11.41	358.54	6.62	-45.2	-56.9	3.8	8.45e-01	0	60	104	1660944384	60	15077
2026-01-22 10:04:12.42	358.43	6.57	-45.2	-56.9	3.8	8.47e-01	0	60	104	1660944384	60	15112
2026-01-22 10:04:13.43	358.32	6.51	-45.2	-56.9	3.8	8.46e-01	0	60	104	1660944384	60	15108
2026-01-22 10:04:14.44	358.21	6.46	-45.2	-56.9	3.8	8.46e-01	0	60	104	1660944384	60	15144
2026-01-22 10:04:15.46	358.10	6.40	-45.2	-56.9	3.8	8.46e-01	0	60	104	1660944384	60	15103
2026-01-22 10:04:16.46	357.99	6.35	-45.2	-56.9	3.8	8.47e-01	0	60	104	1660944384	60	15115
2026-01-22 10:04:17.48	357.88	6.29	-45.2	-56.9	3.8	8.48e-01	0	60	104	1660944384	60	15147
2026-01-22 10:04:18.49	357.77	6.24	-45.2	-56.9	3.8	8.46e-01	0	60	104	1660944384	60	15139
2026-01-22 10:04:19.50	357.67	6.18	-45.1	-56.9	3.8	8.47e-01	0	60	104	1660944384	60	15094
2026-01-22 10:04:20.51	357.56	6.13	-45.1	-56.8	3.8	8.45e-01	0	60	104	1660944384	60	15028
2026-01-22 10:04:21.52	357.45	6.07	-45.2	-56.8	3.8	8.45e-01	0	60	104	1660944384	60	15048
2026-01-22 10:04:22.53	357.34	6.02	-45.1	-56.8	3.8	8.46e-01	0	60	104	1660944384	60	15050
2026-01-22 10:04:23.54	357.24	5.96	-45.1	-56.9	3.8	8.46e-01	0	60	104	1660944384	60	15064
2026-01-22 10:04:24.55	357.13	5.91	-45.1	-56.8	3.8	8.45e-01	0	60	104	1660944384	60	15051
2026-01-22 10:04:25.56	357.02	5.85	-45.1	-56.8	3.8	8.46e-01	0	60	104	1660944384	60	15013
2026-01-22 10:04:26.57	356.92	5.80	-45.1	-56.8	3.8	8.46e-01	0	60	104	1660944384	60	15001
2026-01-22 10:04:27.58	356.81	5.74	-45.1	-56.8	3.8	8.46e-01	0	60	104	1660944384	60	15041
2026-01-22 10:04:28.60	356.71	5.69	-45.1	-56.8	3.8	8.46e-01	0	60	104	1660944384	60	14967
2026-01-22 10:04:29.61	356.60	5.63	-45.1	-56.8	3.8	8.46e-01	0	60	104	1660944384	60	14942
2026-01-22 10:04:30.62	356.50	5.58	-45.1	-56.8	3.8	8.46e-01	0	60	104	1660944384	60	15029
2026-01-22 10:04:31.63	356.40	5.52	-45.1	-56.8	3.8	8.45e-01	0	60	104	1660944384	60	15031
2026-01-22 10:04:32.64	356.29	5.47	-45.1	-56.8	3.8	8.46e-01	0	60	104	1660944384	60	14972
2026-01-22 10:04:33.65	356.19	5.41	-45.1	-56.8	3.8	8.48e-01	0	60	104	1660944384	60	14975
2026-01-22 10:04:34.66	356.09	5.36	-45.1	-56.8	3.8	8.46e-01	0	60	104	1660944384	60	14937
2026-01-22 10:04:35.67	355.99	5.30	-45.1	-56.8	3.8	8.46e-01	0	60	104	1660944384	60	15022
2026-01-22 10:04:36.68	355.89	5.25	-45.0	-56.8	3.8	8.45e-01	0	60	104	1660944384	60	15003
2026-01-22 10:04:37.69	355.79	5.19	-45.1	-56.8	3.8	8.46e-01	0	60	104	1660944384	60	14930
2026-01-22 10:04:38.70	355.69	5.14	-45.1	-56.8	3.8	8.46e-01	0	60	104	1660944384	60	14915
2026-01-22 10:04:39.71	355.58	5.09	-45.1	-56.8	3.8	8.44e-01	0	60	104	1660944384	60	14978
2026-01-22 10:04:40.72	355.49	5.03	-45.1	-56.8	3.8	8.46e-01	0	60	104	1660944384	60	14937
2026-01-22 10:04:41.73	355.39	4.98	-45.1	-56.8	3.8	8.46e-01	0	60	104	1660944384	60	14971
2026-01-22 10:04:42.74	355.29	4.92	-45.0	-56.8	3.8	8.45e-01	0	60	104	1660944384	60	14960
2026-01-22 10:04:43.75	355.19	4.87	-45.1	-56.8	3.8	8.47e-01	0	60	104	1660944384	60	14955
2026-01-22 10:04:44.76	355.09	4.81	-44.6	-56.8	3.8	8.46e-01	0	61	104	1660944384	60	14925
2026-01-22 10:04:45.77	354.99	4.76	-45.1	-56.8	3.8	8.46e-01	0	60	104	1660944384	60	14931
2026-01-22 10:04:46.78	354.89	4.70	-45.1	-56.8	3.8	8.45e-01	0	60	104	1660944384	60	14882
2026-01-22 10:04:47.80	354.80	4.65	-45.0	-56.8	3.8	8.46e-01	0	60	104	1660944384	60	14941
2026-01-22 10:04:48.81	354.70	4.59	-45.1	-56.7	3.8	8.47e-01	0	60	104	1660944384	60	14878
2026-01-22 10:04:49.82	354.60	4.54	-45.1	-56.7	3.8	8.46e-01	0	60	104	1660944384	60	14877
2026-01-22 10:04:50.83	354.51	4.49	-45.1	-56.8	3.8	8.47e-01	0	60	104	1660944384	60	14905
2026-01-22 10:04:51.84	354.41	4.43	-45.0	-56.7	3.8	8.46e-01	0	60	104	1660944384	60	14809
2026-01-22 10:04:52.85	354.32	4.38	-45.1	-56.8	3.8	8.46e-01	0	60	104	1660944384	60	14906
2026-01-22 10:04:53.86	354.22	4.32	-45.1	-56.8	3.8	8.46e-01	0	60	104	1660944384	60	14905
2026-01-22 10:04:54.87	354.13	4.27	-45.0	-56.8	3.8	8.45e-01	0	60	104	1660944384	60	14924
2026-01-22 10:04:55.88	354.03	4.22	-45.1	-56.8	3.8	8.46e-01	0	60	104	1660944384	60	14921
2026-01-22 10:04:56.89	353.94	4.16	-45.1	-56.8	3.8	8.46e-01	0	60	104	1660944384	60	14903
2026-01-22 10:04:57.90	353.85	4.11	-45.0	-56.8	3.8	8.46e-01	0	61	104	1660944384	60	14969
2026-01-22 10:04:58.91	353.75	4.05	-45.1	-56.7	3.8	8.45e-01	0	60	104	1660944384	60	14839
2026-01-22 10:04:59.92	353.66	4.00	-45.1	-56.8	3.8	8.45e-01	0	60	104	1660944384	60	14941
2026-01-22 10:05:00.93	353.57	3.95	-45.1	-56.8	3.8	8.45e-01	0	60	104	1660944384	60	14883
2026-01-22 10:05:01.94	353.48	3.89	-45.0	-56.8	3.8	8.45e-01	0	60	104	1660944384	60	14885
2026-01-22 10:05:02.95	353.38	3.84	-45.0	-56.8	3.8	8.45e-01	0	60	104	1660944384	60	14887
2026-01-22 10:05:03.96	353.29	3.78	-45.0	-56.8	3.8	8.45e-01	0	60	104	1660944384	60	14971
2026-01-22 10:05:04.97	353.20	3.73	-45.0	-56.8	3.8	8.46e-01	0	60	104	1660944384	60	14911
2026-01-22 10:05:05.98	353.11	3.68	-45.1	-56.8	3.8	8.46e-01	0	60	104	1660944384	60	14904
2026-01-22 10:05:06.99	353.02	3.62	-45.0	-56.8	3.8	8.46e-01	0	60	104	1660944384	60	14880
2026-01-22 10:05:08.00	352.93	3.57	-44.9	-56.7	3.8	8.47e-01	0	61	104	1660944384	60	14857
2026-01-22 10:05:09.02	352.84	3.52	-45.0	-56.8	3.8	8.45e-01	0	60	104	1660944384	60	14909
2026-01-22 10:05:10.03	352.75	3.46	-45.0	-56.8	3.8	8.46e-01	0	60	104	1660944384	60	14913
2026-01-22 10:05:11.03	352.66	3.41	-45.1	-56.8	3.8	8.46e-01	0	60	104	1660944384	60	14960
2026-01-22 10:05:12.04	352.57	3.36	-45.0	-56.8	3.8	8.47e-01	0	60	104	1660944384	60	14917
2026-01-22 10:05:13.06	352.49	3.30	-45.0	-56.8	3.8	8.46e-01	0	60	104	1660944384	60	14898
2026-01-22 10:05:14.06	352.40	3.25	-44.9	-56.8	3.8	8.46e-01	0	60	104	1660944384	60	14891
2026-01-22 10:05:15.08	352.31	3.19	-45.0	-56.7	3.8	8.47e-01	0	60	104	1660944384	60	14869
2026-01-22 10:05:16.08	352.22	3.14	-45.1	-56.8	3.8	8.46e-01	0	60	104	1660944384	60	14977
2026-01-22 10:05:17.10	352.14	3.09	-45.0	-56.7	3.8	8.46e-01	0	60	104	1660944384	60	14864
2026-01-22 10:05:18.11	352.05	3.03	-45.1	-56.7	3.8	8.47e-01	0	60	104	1660944384	60	14857
2026-01-22 10:05:19.12	351.96	2.98	-45.0	-56.7	3.8	8.45e-01	0	60	104	1660944384	60	14873
2026-01-22 10:05:20.13	351.88	2.93	-45.0	-56.8	3.8	8.47e-01	0	60	104	1660944384	60	14925
2026-01-22 10:05:21.14	351.79	2.88	-45.0	-56.7	3.8	8.47e-01	0	61	104	1660944384	60	14841
2026-01-22 10:05:22.15	351.71	2.82	-45.1	-56.8	3.8	8.46e-01	0	60	104	1660944384	60	14968
2026-01-22 10:05:23.16	351.62	2.77	-45.0	-56.8	3.8	8.46e-01	0	60	104	1660944384	60	14967
2026-01-22 10:05:24.17	351.54	2.72	-45.1	-56.8	3.8	8.46e-01	0	60	104	1660944384	60	14922
2026-01-22 10:05:25.18	351.45	2.66	-45.1	-56.8	3.8	8.46e-01	0	61	104	1660944384	60	14927
2026-01-22 10:05:26.19	351.37	2.61	-45.1	-56.7	3.8	8.47e-01	0	61	104	1660944384	60	14878
2026-01-22 10:05:27.20	351.28	2.56	-45.0	-56.8	3.8	8.46e-01	0	60	104	1660944384	60	14904
2026-01-22 10:05:28.21	351.20	2.50	-45.1	-56.8	3.8	8.46e-01	0	60	104	1660944384	60	14927
2026-01-22 10:05:29.22	351.12	2.45	-45.1	-56.8	3.8	8.47e-01	0	60	104	1660944384	60	14925
2026-01-22 10:05:30.23	351.04	2.40	-44.7	-56.7	3.8	8.47e-01	0	60	104	1660944384	60	14860
2026-01-22 10:05:31.24	350.95	2.35	-45.1	-56.8	3.8	8.45e-01	0	61	104	1660944384	60	14880
2026-01-22 10:05:32.25	350.87	2.29	-45.1	-56.8	3.8	8.47e-01	0	60	104	1660944384	60	14917
2026-01-22 10:05:33.26	350.79	2.24	-45.1	-56.8	3.8	8.45e-01	0	60	104	1660944384	60	14901
2026-01-22 10:05:34.27	350.71	2.19	-45.0	-56.8	3.8	8.46e-01	0	60	104	1660944384	60	14895
2026-01-22 10:05:35.28	350.63	2.14	-45.1	-56.8	3.8	8.46e-01	0	60	104	1660944384	60	14892
2026-01-22 10:05:36.29	350.55	2.08	-45.1	-56.8	3.8	8.46e-01	0	61	104	1660944384	60	14932
2026-01-22 10:05:37.30	350.46	2.03	-45.0	-56.8	3.8	8.47e-01	0	60	104	1660944384	60	14959
2026-01-22 10:05:38.31	350.38	1.98	-45.0	-56.8	3.8	8.46e-01	0	60	104	1660944384	60	14891
2026-01-22 10:05:39.32	350.30	1.93	-45.0	-56.8	3.8	8.46e-01	0	60	104	1660944384	60	14903

#Closed at: 2026-01-22 10:05:39
#Recorded file [1660 MB]: D:/lorett/data/31039_260122_125402.dat