passes_logs/2026/01/22/R2.0S_Moscow/R2.0S_Moscow__20260122_014119_FENGYUN_3D_rec.log

#Pass ID: 20260122_014119_FENGYUN 3D
#Satellite: FENGYUN 3D
#Configuration: FENGYUN 3D
#almurnet v.1.7.20251203
#Start time: 2026-01-22 01:41:21

#Version: 2.2.20231116
#Station: R2.0S_Moscow
#Location: 37.707566 lon 55.798166 lat
#TLE: 1 43010U 17072A   26021.48744220  .00000253  00000+0  14133-3 0  9991
#TLE: 2 43010  98.9948 353.4037 0002485  97.2578 262.8880 14.19697766424177

#Time	Az	El	Level	Level2	SNR	BER	BlckErr	Temp	State	Recorded	gain1	gain2
2026-01-22 01:41:21.17	16.96	2.13	-42.3	-54.0	3.8	8.46e-01	0	49	0	0	56	13658
2026-01-22 01:41:22.18	16.96	2.19	-42.3	-54.0	3.8	8.47e-01	0	49	104	0	56	13638
2026-01-22 01:41:23.19	16.97	2.26	-42.3	-54.0	3.8	8.46e-01	0	49	104	0	56	13627
2026-01-22 01:41:24.21	16.98	2.32	-42.3	-54.0	3.8	8.46e-01	0	49	104	0	56	13644
2026-01-22 01:41:25.22	16.99	2.39	-42.4	-54.0	3.8	8.45e-01	0	49	104	0	56	13637
2026-01-22 01:41:26.22	16.99	2.45	-42.3	-54.0	3.8	8.45e-01	0	49	104	0	56	13642
2026-01-22 01:41:27.23	17.00	2.52	-42.3	-54.0	3.8	8.46e-01	0	49	104	0	56	13620
2026-01-22 01:41:28.24	17.01	2.59	-42.3	-54.0	3.8	8.45e-01	0	49	104	0	56	13661
2026-01-22 01:41:29.25	17.02	2.65	-42.3	-54.0	3.8	8.46e-01	0	49	104	0	56	13634
2026-01-22 01:41:30.26	17.03	2.72	-42.3	-54.0	3.8	8.46e-01	0	49	104	0	56	13657
2026-01-22 01:41:31.27	17.03	2.78	-42.3	-54.0	3.8	8.47e-01	0	49	104	0	56	13618
2026-01-22 01:41:32.28	17.04	2.85	-42.3	-54.0	3.8	8.45e-01	0	50	104	0	56	13613
2026-01-22 01:41:33.29	17.05	2.92	-42.3	-54.0	3.8	8.46e-01	0	50	104	0	56	13669
2026-01-22 01:41:34.30	17.06	2.98	-42.3	-54.0	3.8	8.47e-01	0	50	104	0	56	13632
2026-01-22 01:41:35.31	17.06	3.05	-42.3	-54.0	3.8	8.45e-01	0	50	104	0	56	13571
2026-01-22 01:41:36.32	17.07	3.12	-42.3	-54.0	3.8	8.45e-01	0	50	104	0	56	13667
2026-01-22 01:41:37.33	17.08	3.18	-42.3	-54.0	3.8	8.46e-01	0	50	104	0	56	13647
2026-01-22 01:41:38.34	17.09	3.25	-42.3	-54.0	3.8	8.46e-01	0	50	104	0	56	13612
2026-01-22 01:41:39.35	17.09	3.32	-42.3	-54.0	3.8	8.46e-01	0	50	104	0	56	13641
2026-01-22 01:41:40.36	17.10	3.39	-42.3	-54.0	3.8	8.48e-01	0	50	104	0	56	13615
2026-01-22 01:41:41.37	17.11	3.45	-42.3	-54.0	3.8	8.46e-01	0	50	104	0	56	13620
2026-01-22 01:41:42.38	17.12	3.52	-42.3	-54.0	3.8	8.46e-01	0	50	104	0	56	13638
2026-01-22 01:41:43.40	17.13	3.59	-42.3	-54.0	3.8	8.47e-01	0	50	104	0	56	13625
2026-01-22 01:41:44.41	17.13	3.66	-42.3	-54.0	3.8	8.45e-01	0	50	104	0	56	13636
2026-01-22 01:41:45.42	17.14	3.73	-42.3	-54.0	3.8	8.46e-01	0	50	104	0	56	13581
2026-01-22 01:41:46.43	17.15	3.79	-42.3	-54.0	3.8	8.46e-01	0	50	104	0	56	13617
2026-01-22 01:41:47.44	17.16	3.86	-42.3	-54.0	3.8	8.46e-01	0	50	104	0	56	13631
2026-01-22 01:41:48.45	17.17	3.93	-42.3	-54.0	3.8	8.47e-01	0	50	104	0	56	13663
2026-01-22 01:41:49.46	17.17	4.00	-42.3	-54.0	3.8	8.48e-01	0	51	104	0	56	13659
2026-01-22 01:41:50.47	17.18	4.07	-42.3	-54.0	3.8	8.46e-01	0	51	104	0	56	13650
2026-01-22 01:41:51.48	17.19	4.14	-42.3	-54.0	3.8	8.45e-01	0	50	104	0	56	13656
2026-01-22 01:41:52.49	17.20	4.21	-42.3	-54.0	3.8	8.47e-01	0	51	104	0	56	13592
2026-01-22 01:41:53.50	17.21	4.28	-42.3	-54.0	3.8	8.46e-01	0	51	104	0	56	13610
2026-01-22 01:41:54.51	17.21	4.35	-42.3	-54.0	3.8	8.47e-01	0	51	104	0	56	13665
2026-01-22 01:41:55.52	17.22	4.42	-42.3	-54.0	3.8	8.45e-01	0	51	104	0	56	13641
2026-01-22 01:41:56.53	17.23	4.49	-42.3	-54.0	3.8	8.46e-01	0	51	104	0	56	13582
2026-01-22 01:41:57.54	17.24	4.56	-42.3	-54.0	3.8	8.46e-01	0	51	104	0	56	13595
2026-01-22 01:41:58.55	17.25	4.63	-42.3	-54.0	3.8	8.46e-01	0	51	104	0	56	13624
2026-01-22 01:41:59.56	17.25	4.70	-42.3	-54.0	3.8	8.46e-01	0	51	104	0	56	13609
2026-01-22 01:42:00.58	17.26	4.77	-42.3	-54.0	3.8	8.45e-01	0	51	104	0	56	13623
2026-01-22 01:42:01.59	17.27	4.84	-42.3	-54.0	3.8	8.47e-01	0	51	104	0	56	13634
2026-01-22 01:42:02.60	17.28	4.92	-42.3	-53.9	3.8	8.47e-01	0	51	104	0	56	13561
2026-01-22 01:42:03.61	17.29	4.99	-42.3	-54.0	3.8	8.46e-01	0	51	104	0	56	13664
2026-01-22 01:42:04.62	17.29	5.06	-42.3	-54.0	3.8	8.46e-01	0	52	104	0	56	13616
2026-01-22 01:42:05.63	17.30	5.13	-42.3	-54.0	3.8	8.47e-01	0	51	104	0	56	13644
2026-01-22 01:42:06.64	17.31	5.20	-42.3	-54.0	3.8	8.46e-01	0	52	104	0	56	13659
2026-01-22 01:42:07.65	17.32	5.28	-42.3	-54.0	3.8	8.45e-01	0	52	104	0	56	13592
2026-01-22 01:42:08.66	17.33	5.35	-42.3	-54.0	3.8	8.46e-01	0	52	104	0	56	13610
2026-01-22 01:42:09.67	17.34	5.42	-42.3	-54.0	3.8	8.47e-01	0	52	104	0	56	13644
2026-01-22 01:42:10.68	17.34	5.49	-42.3	-54.0	3.8	8.46e-01	0	52	104	0	56	13609
2026-01-22 01:42:11.69	17.35	5.57	-42.3	-54.0	3.8	8.46e-01	0	52	104	0	56	13638
2026-01-22 01:42:12.70	17.36	5.64	-42.3	-54.0	3.8	8.47e-01	0	52	104	0	56	13616
2026-01-22 01:42:13.71	17.37	5.71	-42.3	-54.0	3.8	8.46e-01	0	52	104	0	56	13604
2026-01-22 01:42:14.72	17.38	5.79	-42.3	-54.0	3.8	8.46e-01	0	52	104	0	56	13578
2026-01-22 01:42:15.74	17.39	5.86	-42.3	-54.0	3.8	8.47e-01	0	52	104	0	56	13589
2026-01-22 01:42:16.75	17.39	5.94	-42.3	-53.9	3.8	8.46e-01	0	52	104	0	56	13512
2026-01-22 01:42:17.76	17.40	6.01	-42.3	-53.9	3.8	8.46e-01	0	52	104	0	56	13449
2026-01-22 01:42:18.77	17.41	6.09	-42.3	-53.8	3.8	8.48e-01	0	52	104	0	56	13413
2026-01-22 01:42:19.78	17.42	6.16	-42.3	-53.8	3.8	8.47e-01	0	52	104	0	56	13409
2026-01-22 01:42:20.79	17.43	6.24	-42.3	-53.8	3.8	8.46e-01	0	52	104	0	56	13315
2026-01-22 01:42:21.80	17.44	6.31	-42.3	-53.8	3.8	8.46e-01	0	52	104	0	56	13369
2026-01-22 01:42:22.81	17.44	6.39	-42.3	-53.8	3.8	8.45e-01	0	52	104	0	56	13354
2026-01-22 01:42:23.82	17.45	6.46	-42.3	-53.8	3.8	8.46e-01	0	52	104	0	56	13357
2026-01-22 01:42:24.83	17.46	6.54	-42.3	-53.8	3.8	8.46e-01	0	52	104	0	56	13395
2026-01-22 01:42:25.84	17.47	6.62	-42.3	-53.8	3.8	8.45e-01	0	53	104	0	56	13357
2026-01-22 01:42:26.85	17.48	6.69	-42.3	-53.9	3.8	8.45e-01	0	53	104	0	56	13428
2026-01-22 01:42:27.86	17.49	6.77	-42.3	-53.8	3.8	8.46e-01	0	53	104	0	56	13375
2026-01-22 01:42:28.87	17.50	6.85	-42.3	-53.8	3.8	8.46e-01	0	53	104	0	56	13282
2026-01-22 01:42:29.88	17.50	6.92	-42.3	-53.6	3.8	8.46e-01	0	53	104	0	56	13109
2026-01-22 01:42:30.89	17.51	7.00	-42.3	-53.6	3.8	8.46e-01	0	53	104	0	56	13065
2026-01-22 01:42:31.91	17.52	7.08	-42.3	-53.5	3.8	8.46e-01	0	53	104	0	56	12942
2026-01-22 01:42:32.92	17.53	7.16	-42.3	-53.4	3.8	8.47e-01	0	53	104	0	56	12713
2026-01-22 01:42:33.93	17.54	7.24	-42.2	-53.1	3.8	8.46e-01	0	53	104	0	56	12368
2026-01-22 01:42:34.94	17.55	7.31	-42.2	-52.7	3.8	8.45e-01	0	53	104	0	56	11802
2026-01-22 01:42:35.95	17.56	7.39	-42.1	-52.1	3.8	8.45e-01	0	53	104	0	56	10906
2026-01-22 01:42:36.96	17.57	7.47	-42.0	-51.3	4.0	8.45e-01	0	53	104	0	56	10012
2026-01-22 01:42:37.97	17.58	7.55	-41.7	-50.1	4.2	8.37e-01	0	53	0	0	55	9246
2026-01-22 01:42:38.98	17.58	7.63	-41.5	-48.9	4.7	8.16e-01	0	53	0	0	55	8007
2026-01-22 01:42:39.99	17.59	7.71	-41.2	-47.5	5.4	7.45e-01	0	53	0	0	54	7261
2026-01-22 01:42:41.00	17.60	7.79	-40.8	-46.3	6.3	3.78e-01	0	53	0	4194304	53	6681
2026-01-22 01:42:42.01	17.61	7.87	-40.3	-45.0	7.4	1.64e-01	0	53	0	10485760	52	6121
2026-01-22 01:42:43.02	17.62	7.95	-40.0	-44.2	8.4	7.77e-02	0	53	0	15728640	51	5869
2026-01-22 01:42:44.03	17.63	8.03	-39.7	-43.5	9.1	3.18e-02	0	53	0	20971520	51	5450
2026-01-22 01:42:45.04	17.64	8.11	-40.5	-44.7	8.3	2.99e-02	0	53	0	27262976	51	6269
2026-01-22 01:42:46.05	17.65	8.19	-40.3	-43.7	9.9	5.43e-03	0	53	0	32505856	51	5563
2026-01-22 01:42:47.06	17.66	8.27	-41.4	-50.9	3.9	4.44e-01	0	54	104	36700160	53	11404
2026-01-22 01:42:48.07	17.67	8.35	-42.0	-49.1	4.7	7.74e-01	0	53	0	36700160	54	8708
2026-01-22 01:42:49.08	17.67	8.44	-40.6	-44.2	9.3	3.00e-03	0	53	0	40894464	51	5895
2026-01-22 01:42:50.09	17.68	8.52	-39.5	-42.5	11.2	1.81e-03	0	54	0	47185920	51	4817
2026-01-22 01:42:51.10	17.69	8.60	-39.4	-42.1	11.5	1.50e-03	0	54	0	52428800	50	4919
2026-01-22 01:42:52.11	17.70	8.68	-39.2	-41.9	11.8	6.86e-04	0	54	0	58720256	50	4777
2026-01-22 01:42:53.12	17.71	8.77	-39.1	-41.8	12.1	4.77e-04	0	54	0	63963136	50	4709
2026-01-22 01:42:54.13	17.72	8.85	-39.2	-41.7	12.1	3.64e-04	0	54	0	69206016	50	4702
2026-01-22 01:42:55.14	17.73	8.93	-39.5	-42.2	11.7	8.95e-04	0	54	0	75497472	50	4943
2026-01-22 01:42:56.15	17.74	9.02	-39.3	-41.9	11.9	6.90e-04	0	54	0	80740352	50	4807
2026-01-22 01:42:57.16	17.75	9.10	-39.1	-41.7	12.1	3.92e-04	0	54	0	87031808	50	4692
2026-01-22 01:42:58.17	17.76	9.19	-39.3	-41.9	12.1	3.62e-04	0	54	0	92274688	50	4788
2026-01-22 01:42:59.18	17.77	9.27	-39.4	-42.1	11.9	6.89e-04	0	54	0	97517568	50	4886
2026-01-22 01:43:00.19	17.78	9.36	-39.2	-41.6	12.4	3.04e-04	0	54	0	103809024	50	4638
2026-01-22 01:43:01.20	17.79	9.44	-39.4	-42.0	12.1	3.33e-04	0	54	0	109051904	50	4864
2026-01-22 01:43:02.21	17.80	9.53	-39.4	-42.0	12.1	4.58e-04	0	54	0	115343360	50	4823
2026-01-22 01:43:03.22	17.81	9.61	-39.2	-41.6	12.5	2.30e-04	0	54	0	120586240	50	4649
2026-01-22 01:43:04.23	17.82	9.70	-39.4	-42.0	12.1	2.73e-04	0	54	0	126877696	50	4868
2026-01-22 01:43:05.24	17.82	9.78	-39.3	-41.9	12.3	3.49e-04	0	54	0	132120576	50	4763
2026-01-22 01:43:06.25	17.83	9.87	-39.4	-42.0	12.2	2.07e-04	0	54	0	137363456	50	4829
2026-01-22 01:43:07.26	17.84	9.96	-39.3	-41.8	12.4	2.88e-04	0	54	0	143654912	50	4745
2026-01-22 01:43:08.27	17.85	10.05	-39.2	-41.7	12.6	1.09e-04	0	54	0	148897792	50	4671
2026-01-22 01:43:09.27	17.86	10.13	-39.2	-41.6	12.8	1.13e-04	0	54	0	155189248	50	4616
2026-01-22 01:43:10.28	17.87	10.22	-39.2	-41.6	12.8	8.69e-05	0	54	0	160432128	50	4634
2026-01-22 01:43:11.30	17.88	10.31	-39.1	-41.5	12.9	9.04e-05	0	54	0	165675008	50	4563
2026-01-22 01:43:12.31	17.89	10.40	-39.2	-41.6	12.9	9.84e-05	0	54	0	171966464	50	4608
2026-01-22 01:43:13.32	17.90	10.49	-39.3	-41.7	12.8	9.49e-05	0	54	0	177209344	50	4684
2026-01-22 01:43:14.33	17.91	10.58	-39.2	-41.5	13.0	6.86e-05	0	54	0	183500800	50	4597
2026-01-22 01:43:15.34	17.92	10.67	-39.1	-41.4	13.1	6.40e-05	0	55	0	188743680	50	4520
2026-01-22 01:43:16.34	17.93	10.76	-39.2	-41.6	12.9	5.95e-05	0	55	0	193986560	50	4602
2026-01-22 01:43:17.35	17.94	10.85	-39.2	-41.6	12.9	5.60e-05	0	54	0	200278016	50	4632
2026-01-22 01:43:18.36	17.95	10.94	-39.1	-41.4	13.1	4.00e-05	0	54	0	205520896	50	4520
2026-01-22 01:43:19.37	17.96	11.03	-39.2	-41.5	13.0	7.78e-05	0	54	0	211812352	50	4569
2026-01-22 01:43:20.38	17.97	11.12	-39.1	-41.4	13.2	6.63e-05	0	54	0	217055232	50	4535
2026-01-22 01:43:21.39	17.98	11.21	-39.1	-41.5	13.1	4.00e-05	0	54	0	223346688	50	4554
2026-01-22 01:43:22.40	17.99	11.30	-39.2	-41.5	13.1	6.86e-05	0	55	0	228589568	50	4594
2026-01-22 01:43:23.41	18.00	11.39	-39.2	-41.5	13.1	4.23e-05	0	54	0	234881024	50	4593
2026-01-22 01:43:24.42	18.01	11.49	-39.2	-41.5	13.1	5.14e-05	0	55	0	240123904	50	4594
2026-01-22 01:43:25.42	18.02	11.58	-39.1	-41.4	13.2	2.86e-05	0	55	0	245366784	50	4540
2026-01-22 01:43:26.43	18.03	11.67	-39.1	-41.4	13.3	3.77e-05	0	55	0	251658240	50	4533
2026-01-22 01:43:27.43	18.04	11.76	-39.2	-41.5	13.2	3.08e-05	0	55	0	256901120	50	4558
2026-01-22 01:43:28.44	18.06	11.86	-39.2	-41.5	13.1	3.66e-05	0	55	0	262144000	50	4594
2026-01-22 01:43:29.44	18.07	11.95	-39.2	-41.5	13.2	3.43e-05	0	55	0	268435456	50	4571
2026-01-22 01:43:30.45	18.08	12.05	-39.1	-41.4	13.3	4.34e-05	0	55	0	273678336	50	4522
2026-01-22 01:43:31.45	18.09	12.14	-39.2	-41.4	13.3	2.51e-05	0	55	0	278921216	50	4545
2026-01-22 01:43:32.46	18.10	12.24	-39.1	-41.3	13.4	2.86e-05	0	55	0	285212672	50	4486
2026-01-22 01:43:33.46	18.11	12.33	-39.1	-41.4	13.4	1.25e-05	0	55	0	290455552	50	4499
2026-01-22 01:43:34.47	18.12	12.43	-39.2	-41.4	13.3	1.71e-05	0	55	0	296747008	50	4526
2026-01-22 01:43:35.47	18.13	12.52	-39.2	-41.4	13.4	1.83e-05	0	55	0	301989888	50	4530
2026-01-22 01:43:36.48	18.14	12.62	-39.2	-41.4	13.3	3.66e-05	0	55	0	308281344	50	4540
2026-01-22 01:43:37.48	18.15	12.72	-39.2	-41.5	13.3	2.51e-05	0	55	0	313524224	50	4561
2026-01-22 01:43:38.49	18.16	12.82	-39.0	-41.2	13.6	2.28e-05	0	55	0	318767104	50	4410
2026-01-22 01:43:39.50	18.17	12.91	-39.0	-41.3	13.5	9.10e-06	0	55	0	325058560	50	4442
2026-01-22 01:43:40.50	18.18	13.01	-38.9	-41.1	13.6	1.14e-05	0	55	0	330301440	49	4643
2026-01-22 01:43:41.51	18.19	13.11	-39.0	-41.2	13.6	6.80e-06	0	55	0	335544320	49	4652
2026-01-22 01:43:42.51	18.20	13.21	-39.0	-41.2	13.6	9.10e-06	0	55	0	341835776	49	4652
2026-01-22 01:43:43.52	18.22	13.31	-38.9	-41.1	13.7	8.00e-06	0	55	0	347078656	49	4614
2026-01-22 01:43:44.53	18.23	13.41	-38.9	-41.0	13.8	1.02e-05	0	55	0	353370112	49	4584
2026-01-22 01:43:45.54	18.24	13.51	-38.8	-41.0	13.8	6.80e-06	0	55	0	358612992	49	4573
2026-01-22 01:43:46.54	18.25	13.61	-38.8	-41.0	13.8	6.80e-06	0	55	0	363855872	49	4563
2026-01-22 01:43:47.55	18.26	13.71	-38.9	-41.0	13.8	1.37e-05	0	55	0	370147328	49	4585
2026-01-22 01:43:48.56	18.27	13.81	-38.8	-40.9	13.9	1.10e-06	0	55	0	375390208	49	4506
2026-01-22 01:43:49.56	18.28	13.91	-38.8	-40.9	13.9	2.20e-06	0	55	0	381681664	49	4542
2026-01-22 01:43:50.57	18.29	14.02	-38.7	-40.8	14.1	4.50e-06	0	55	0	386924544	49	4467
2026-01-22 01:43:51.57	18.31	14.12	-38.7	-40.8	14.1	4.50e-06	0	55	0	393216000	49	4460
2026-01-22 01:43:52.58	18.32	14.22	-38.6	-40.6	14.3	2.20e-06	0	55	0	398458880	49	4353
2026-01-22 01:43:53.58	18.33	14.33	-38.5	-40.6	14.3	1.10e-06	0	55	0	403701760	49	4345
2026-01-22 01:43:54.59	18.34	14.43	-38.5	-40.4	14.5	1.10e-06	0	55	0	409993216	48	4540
2026-01-22 01:43:55.59	18.35	14.53	-38.5	-40.5	14.5	0.00e+00	0	55	0	415236096	48	4554
2026-01-22 01:43:56.60	18.36	14.64	-38.4	-40.4	14.5	3.40e-06	0	55	0	420478976	48	4519
2026-01-22 01:43:57.60	18.38	14.74	-38.4	-40.4	14.6	1.10e-06	0	55	0	426770432	48	4509
2026-01-22 01:43:58.61	18.39	14.85	-38.5	-40.5	14.5	0.00e+00	0	55	0	432013312	48	4561
2026-01-22 01:43:59.61	18.40	14.96	-38.5	-40.4	14.5	2.20e-06	0	55	0	438304768	48	4533
2026-01-22 01:44:00.61	18.41	15.06	-38.4	-40.3	14.7	0.00e+00	0	55	0	443547648	48	4480
2026-01-22 01:44:01.62	18.42	15.17	-38.3	-40.2	14.8	0.00e+00	0	55	0	448790528	48	4427
2026-01-22 01:44:02.62	18.43	15.28	-38.4	-40.3	14.7	1.10e-06	0	55	0	455081984	48	4449
2026-01-22 01:44:03.63	18.45	15.39	-38.3	-40.2	14.8	2.20e-06	0	55	0	460324864	48	4418
2026-01-22 01:44:04.63	18.46	15.50	-38.3	-40.2	14.8	0.00e+00	0	55	0	466616320	48	4421
2026-01-22 01:44:05.63	18.47	15.60	-38.3	-40.1	14.9	1.10e-06	0	56	0	471859200	48	4384
2026-01-22 01:44:06.64	18.48	15.71	-38.3	-40.1	14.9	0.00e+00	0	55	0	477102080	48	4383
2026-01-22 01:44:07.65	18.50	15.83	-38.1	-40.0	15.0	0.00e+00	0	56	0	483393536	48	4307
2026-01-22 01:44:08.65	18.51	15.94	-38.2	-40.0	15.0	0.00e+00	0	56	0	488636416	48	4327
2026-01-22 01:44:09.66	18.52	16.05	-38.1	-39.9	15.1	0.00e+00	0	56	0	494927872	48	4271
2026-01-22 01:44:10.66	18.53	16.16	-38.1	-39.9	15.2	0.00e+00	0	55	0	500170752	48	4277
2026-01-22 01:44:11.67	18.55	16.27	-38.1	-40.0	15.1	0.00e+00	0	55	0	505413632	48	4292
2026-01-22 01:44:12.68	18.56	16.38	-38.1	-39.9	15.1	0.00e+00	0	56	0	511705088	48	4290
2026-01-22 01:44:13.69	18.57	16.50	-37.9	-39.6	15.3	0.00e+00	0	55	0	516947968	47	4387
2026-01-22 01:44:14.69	18.58	16.61	-37.8	-39.6	15.3	0.00e+00	0	56	0	522190848	47	4390
2026-01-22 01:44:15.69	18.60	16.73	-37.8	-39.6	15.4	0.00e+00	0	56	0	528482304	47	4380
2026-01-22 01:44:16.70	18.61	16.84	-37.9	-39.7	15.3	0.00e+00	0	55	0	533725184	47	4395
2026-01-22 01:44:17.70	18.62	16.96	-37.7	-39.5	15.5	0.00e+00	0	56	0	540016640	47	4301
2026-01-22 01:44:18.71	18.63	17.07	-37.8	-39.6	15.4	0.00e+00	0	56	0	545259520	47	4356
2026-01-22 01:44:19.72	18.65	17.19	-37.8	-39.5	15.5	0.00e+00	0	56	0	551550976	47	4317
2026-01-22 01:44:20.72	18.66	17.31	-37.8	-39.5	15.5	0.00e+00	0	56	0	556793856	47	4325
2026-01-22 01:44:21.73	18.67	17.42	-37.7	-39.4	15.6	0.00e+00	0	56	0	562036736	47	4281
2026-01-22 01:44:22.74	18.69	17.54	-37.7	-39.4	15.6	0.00e+00	0	56	0	568328192	47	4285
2026-01-22 01:44:23.74	18.70	17.66	-37.6	-39.4	15.7	0.00e+00	0	56	0	573571072	47	4245
2026-01-22 01:44:24.75	18.71	17.78	-37.7	-39.4	15.6	0.00e+00	0	56	0	578813952	47	4281
2026-01-22 01:44:25.76	18.73	17.90	-37.6	-39.4	15.8	0.00e+00	0	56	0	585105408	47	4244
2026-01-22 01:44:26.77	18.74	18.02	-37.7	-39.4	15.7	0.00e+00	0	56	0	590348288	47	4263
2026-01-22 01:44:27.77	18.75	18.14	-37.7	-39.4	15.7	0.00e+00	0	56	0	596639744	47	4289
2026-01-22 01:44:28.78	18.77	18.27	-37.6	-39.3	15.8	0.00e+00	0	56	0	601882624	47	4212
2026-01-22 01:44:29.79	18.78	18.39	-37.6	-39.3	15.8	0.00e+00	0	56	0	607125504	47	4226
2026-01-22 01:44:30.79	18.80	18.51	-37.6	-39.3	15.8	0.00e+00	0	56	0	613416960	47	4224
2026-01-22 01:44:31.80	18.81	18.64	-37.6	-39.3	15.9	0.00e+00	0	56	0	618659840	47	4213
2026-01-22 01:44:32.80	18.82	18.76	-37.6	-39.3	15.8	0.00e+00	0	56	0	624951296	47	4238
2026-01-22 01:44:33.81	18.84	18.88	-37.6	-39.3	15.9	0.00e+00	0	56	0	630194176	47	4200
2026-01-22 01:44:34.82	18.85	19.01	-37.5	-39.2	16.0	0.00e+00	0	56	0	636485632	47	4164
2026-01-22 01:44:35.82	18.87	19.14	-37.6	-39.3	15.9	0.00e+00	0	56	0	641728512	47	4220
2026-01-22 01:44:36.84	18.88	19.26	-37.6	-39.4	15.8	0.00e+00	0	56	0	646971392	47	4243
2026-01-22 01:44:37.85	18.90	19.39	-37.5	-39.2	16.0	0.00e+00	0	56	0	653262848	47	4160
2026-01-22 01:44:38.86	18.91	19.52	-37.5	-39.2	16.0	0.00e+00	0	56	0	658505728	47	4166
2026-01-22 01:44:39.86	18.93	19.65	-37.5	-39.2	16.0	0.00e+00	0	56	0	664797184	47	4174
2026-01-22 01:44:40.87	18.94	19.78	-37.5	-39.2	16.0	0.00e+00	0	56	0	670040064	47	4178
2026-01-22 01:44:41.89	18.95	19.91	-37.6	-39.2	16.0	0.00e+00	0	56	0	675282944	47	4186
2026-01-22 01:44:42.90	18.97	20.04	-37.4	-39.1	16.2	0.00e+00	0	56	0	681574400	46	4355
2026-01-22 01:44:43.91	18.98	20.18	-37.3	-39.0	16.2	0.00e+00	0	56	0	686817280	46	4307
2026-01-22 01:44:44.92	19.00	20.31	-37.4	-39.0	16.3	0.00e+00	0	56	0	693108736	46	4312
2026-01-22 01:44:45.93	19.02	20.44	-37.4	-39.0	16.3	0.00e+00	0	56	0	698351616	46	4317
2026-01-22 01:44:46.94	19.03	20.58	-37.3	-39.0	16.3	0.00e+00	0	56	0	703594496	46	4306
2026-01-22 01:44:47.95	19.05	20.71	-37.3	-38.9	16.3	0.00e+00	0	56	0	709885952	46	4280
2026-01-22 01:44:48.96	19.06	20.85	-37.3	-38.9	16.3	0.00e+00	0	56	0	715128832	46	4280
2026-01-22 01:44:49.97	19.08	20.98	-37.3	-38.9	16.3	0.00e+00	0	56	0	721420288	46	4283
2026-01-22 01:44:50.98	19.09	21.12	-37.2	-38.8	16.4	0.00e+00	0	56	0	726663168	46	4232
2026-01-22 01:44:51.98	19.11	21.26	-37.3	-38.9	16.4	0.00e+00	0	56	0	732954624	46	4244
2026-01-22 01:44:53.00	19.12	21.40	-37.1	-38.7	16.6	0.00e+00	0	56	0	738197504	46	4155
2026-01-22 01:44:54.01	19.14	21.54	-37.0	-38.6	16.7	0.00e+00	0	56	0	743440384	46	4122
2026-01-22 01:44:55.01	19.16	21.68	-37.1	-38.6	16.7	0.00e+00	0	56	0	749731840	46	4139
2026-01-22 01:44:56.02	19.17	21.82	-37.0	-38.5	16.8	0.00e+00	0	56	0	754974720	46	4079
2026-01-22 01:44:57.03	19.19	21.96	-36.9	-38.5	16.8	0.00e+00	0	56	0	761266176	45	4302
2026-01-22 01:44:58.04	19.21	22.10	-36.8	-38.3	17.0	0.00e+00	0	56	0	766509056	45	4238
2026-01-22 01:44:59.05	19.22	22.25	-36.8	-38.3	17.0	0.00e+00	0	56	0	771751936	45	4221
2026-01-22 01:45:00.06	19.24	22.39	-36.8	-38.4	16.9	0.00e+00	0	56	0	778043392	45	4243
2026-01-22 01:45:01.07	19.26	22.54	-36.7	-38.2	17.1	0.00e+00	0	56	0	783286272	45	4171
2026-01-22 01:45:02.08	19.27	22.68	-36.7	-38.2	17.1	0.00e+00	0	56	0	789577728	45	4182
2026-01-22 01:45:03.09	19.29	22.83	-36.7	-38.2	17.2	0.00e+00	0	56	0	794820608	45	4150
2026-01-22 01:45:04.10	19.31	22.98	-36.6	-38.1	17.2	0.00e+00	0	56	0	800063488	45	4107
2026-01-22 01:45:05.11	19.33	23.12	-36.6	-38.0	17.3	0.00e+00	0	56	0	806354944	45	4091
2026-01-22 01:45:06.12	19.34	23.27	-36.6	-38.1	17.2	0.00e+00	0	56	0	811597824	45	4126
2026-01-22 01:45:07.13	19.36	23.42	-36.6	-38.1	17.2	0.00e+00	0	56	0	817889280	45	4140
2026-01-22 01:45:08.14	19.38	23.57	-36.6	-38.1	17.3	0.00e+00	0	56	0	823132160	45	4108
2026-01-22 01:45:09.15	19.40	23.73	-36.6	-38.1	17.2	0.00e+00	0	56	0	829423616	45	4133
2026-01-22 01:45:10.16	19.41	23.88	-36.6	-38.1	17.2	0.00e+00	0	56	0	834666496	45	4125
2026-01-22 01:45:11.17	19.43	24.03	-36.7	-38.2	17.2	0.00e+00	0	56	0	840957952	45	4149
2026-01-22 01:45:12.18	19.45	24.19	-36.7	-38.2	17.1	0.00e+00	0	56	0	846200832	45	4186
2026-01-22 01:45:13.19	19.47	24.34	-36.7	-38.2	17.1	0.00e+00	0	56	0	851443712	45	4178
2026-01-22 01:45:14.20	19.49	24.50	-36.7	-38.2	17.1	0.00e+00	0	56	0	857735168	45	4187
2026-01-22 01:45:15.21	19.51	24.66	-36.8	-38.3	17.1	0.00e+00	0	56	0	862978048	45	4214
2026-01-22 01:45:16.22	19.53	24.82	-36.8	-38.3	17.0	0.00e+00	0	56	0	869269504	45	4231
2026-01-22 01:45:17.23	19.54	24.98	-36.9	-38.4	17.0	0.00e+00	0	56	0	874512384	45	4267
2026-01-22 01:45:18.24	19.56	25.14	-36.8	-38.3	17.0	0.00e+00	0	57	0	879755264	45	4233
2026-01-22 01:45:19.25	19.58	25.30	-36.8	-38.3	17.1	0.00e+00	0	56	0	886046720	45	4205
2026-01-22 01:45:20.26	19.60	25.46	-36.7	-38.2	17.2	0.00e+00	0	56	0	891289600	45	4150
2026-01-22 01:45:21.28	19.62	25.63	-36.6	-38.1	17.3	0.00e+00	0	56	0	897581056	45	4126
2026-01-22 01:45:22.29	19.64	25.79	-36.6	-38.1	17.3	0.00e+00	0	57	0	902823936	45	4102
2026-01-22 01:45:23.30	19.66	25.96	-36.5	-37.9	17.5	0.00e+00	0	57	0	908066816	44	4261
2026-01-22 01:45:24.31	19.68	26.12	-36.5	-37.9	17.5	0.00e+00	0	56	0	914358272	44	4277
2026-01-22 01:45:25.32	19.70	26.29	-36.4	-37.8	17.6	0.00e+00	0	56	0	919601152	44	4231
2026-01-22 01:45:26.33	19.72	26.46	-36.4	-37.8	17.6	0.00e+00	0	56	0	925892608	44	4218
2026-01-22 01:45:27.33	19.74	26.63	-36.3	-37.8	17.6	0.00e+00	0	56	0	931135488	44	4200
2026-01-22 01:45:28.35	19.76	26.80	-36.3	-37.7	17.7	0.00e+00	0	56	0	937426944	44	4163
2026-01-22 01:45:29.36	19.79	26.97	-36.3	-37.7	17.7	0.00e+00	0	57	0	942669824	44	4186
2026-01-22 01:45:30.37	19.81	27.14	-36.2	-37.6	17.8	0.00e+00	0	56	0	948961280	44	4142
2026-01-22 01:45:31.38	19.83	27.32	-36.3	-37.7	17.8	0.00e+00	0	56	0	954204160	44	4156
2026-01-22 01:45:32.39	19.85	27.49	-36.3	-37.8	17.7	0.00e+00	0	56	0	959447040	44	4199
2026-01-22 01:45:33.40	19.87	27.67	-36.4	-37.9	17.6	0.00e+00	0	56	0	965738496	44	4250
2026-01-22 01:45:34.40	19.89	27.84	-36.4	-37.9	17.6	0.00e+00	0	57	0	970981376	44	4257
2026-01-22 01:45:35.41	19.92	28.02	-36.5	-37.9	17.5	0.00e+00	0	56	0	977272832	44	4289
2026-01-22 01:45:36.42	19.94	28.20	-36.6	-38.0	17.4	0.00e+00	0	57	0	982515712	44	4332
2026-01-22 01:45:37.44	19.96	28.39	-36.6	-38.0	17.4	0.00e+00	0	57	0	987758592	44	4323
2026-01-22 01:45:38.45	19.98	28.57	-36.6	-38.0	17.4	0.00e+00	0	57	0	994050048	44	4334
2026-01-22 01:45:39.46	20.01	28.75	-36.4	-37.9	17.6	0.00e+00	0	57	0	999292928	44	4249
2026-01-22 01:45:40.47	20.03	28.94	-36.4	-37.8	17.7	0.00e+00	0	57	0	1005584384	44	4212
2026-01-22 01:45:41.48	20.05	29.12	-36.4	-37.8	17.6	0.00e+00	0	56	0	1010827264	44	4241
2026-01-22 01:45:42.49	20.08	29.31	-36.3	-37.7	17.7	0.00e+00	0	57	0	1016070144	44	4188
2026-01-22 01:45:43.50	20.10	29.50	-36.3	-37.7	17.8	0.00e+00	0	57	0	1022361600	44	4168
2026-01-22 01:45:44.51	20.13	29.69	-36.3	-37.7	17.7	0.00e+00	0	57	0	1027604480	44	4168
2026-01-22 01:45:45.52	20.15	29.88	-36.3	-37.8	17.7	0.00e+00	0	56	0	1033895936	44	4194
2026-01-22 01:45:46.53	20.17	30.07	-36.3	-37.7	17.8	0.00e+00	0	57	0	1039138816	44	4159
2026-01-22 01:45:47.54	20.20	30.26	-36.3	-37.7	17.7	0.00e+00	0	57	0	1045430272	44	4183
2026-01-22 01:45:48.55	20.22	30.46	-36.4	-37.8	17.7	0.00e+00	0	57	0	1050673152	44	4213
2026-01-22 01:45:49.56	20.25	30.65	-36.4	-37.8	17.6	0.00e+00	0	57	0	1056964608	44	4239
2026-01-22 01:45:50.57	20.28	30.85	-36.4	-37.8	17.7	0.00e+00	0	57	0	1062207488	44	4204
2026-01-22 01:45:51.58	20.30	31.05	-36.4	-37.8	17.7	0.00e+00	0	57	0	1067450368	44	4205
2026-01-22 01:45:52.59	20.33	31.25	-36.3	-37.7	17.8	0.00e+00	0	57	0	1073741824	44	4165
2026-01-22 01:45:53.60	20.35	31.45	-36.3	-37.7	17.7	0.00e+00	0	57	0	1078984704	44	4181
2026-01-22 01:45:54.61	20.38	31.65	-36.3	-37.7	17.8	0.00e+00	0	57	0	1085276160	44	4171
2026-01-22 01:45:55.62	20.41	31.86	-36.3	-37.7	17.8	0.00e+00	0	57	0	1090519040	44	4171
2026-01-22 01:45:56.63	20.44	32.06	-36.3	-37.7	17.8	0.00e+00	0	57	0	1095761920	44	4172
2026-01-22 01:45:57.64	20.46	32.27	-36.3	-37.7	17.8	0.00e+00	0	57	0	1102053376	44	4173
2026-01-22 01:45:58.64	20.49	32.48	-36.3	-37.8	17.8	0.00e+00	0	57	0	1107296256	44	4194
2026-01-22 01:45:59.65	20.52	32.69	-36.3	-37.7	17.7	0.00e+00	0	57	0	1112539136	44	4184
2026-01-22 01:46:00.66	20.55	32.90	-36.4	-37.8	17.7	0.00e+00	0	57	0	1118830592	44	4213
2026-01-22 01:46:01.67	20.58	33.11	-36.4	-37.8	17.7	0.00e+00	0	57	0	1124073472	44	4217
2026-01-22 01:46:02.68	20.61	33.33	-36.3	-37.7	17.8	0.00e+00	0	57	0	1130364928	44	4151
2026-01-22 01:46:03.69	20.64	33.54	-36.2	-37.5	18.0	0.00e+00	0	57	0	1135607808	44	4094
2026-01-22 01:46:04.70	20.67	33.76	-35.8	-37.1	18.2	0.00e+00	0	57	0	1141899264	43	4121
2026-01-22 01:46:05.71	20.70	33.98	-35.7	-37.0	18.3	0.00e+00	0	57	0	1147142144	43	4078
2026-01-22 01:46:06.72	20.73	34.20	-35.6	-36.9	18.4	0.00e+00	0	57	0	1153433600	43	4029
2026-01-22 01:46:07.73	20.76	34.42	-35.4	-36.7	18.6	0.00e+00	0	57	0	1158676480	42	4191
2026-01-22 01:46:08.74	20.79	34.64	-35.4	-36.6	18.7	0.00e+00	0	57	0	1163919360	42	4137
2026-01-22 01:46:09.75	20.82	34.87	-35.4	-36.7	18.6	0.00e+00	0	57	0	1170210816	42	4167
2026-01-22 01:46:10.76	20.85	35.10	-35.6	-36.9	18.5	0.00e+00	0	57	0	1175453696	42	4254
2026-01-22 01:46:11.77	20.89	35.33	-35.7	-37.0	18.4	0.00e+00	0	57	0	1181745152	42	4312
2026-01-22 01:46:12.78	20.92	35.56	-35.7	-37.1	18.3	0.00e+00	0	57	0	1186988032	42	4356
2026-01-22 01:46:13.79	20.95	35.79	-35.8	-37.2	18.2	0.00e+00	0	57	0	1192230912	42	4403
2026-01-22 01:46:14.80	20.99	36.02	-35.9	-37.2	18.1	0.00e+00	0	57	0	1198522368	42	4441
2026-01-22 01:46:15.81	21.02	36.26	-35.7	-37.0	18.3	0.00e+00	0	57	0	1203765248	42	4339
2026-01-22 01:46:16.82	21.06	36.49	-35.5	-36.8	18.6	0.00e+00	0	57	0	1210056704	42	4209
2026-01-22 01:46:17.83	21.09	36.73	-35.4	-36.7	18.6	0.00e+00	0	57	0	1215299584	42	4180
2026-01-22 01:46:18.84	21.13	36.97	-35.4	-36.8	18.6	0.00e+00	0	57	0	1220542464	42	4195
2026-01-22 01:46:19.85	21.16	37.22	-35.5	-36.9	18.5	0.00e+00	0	57	0	1226833920	42	4250
2026-01-22 01:46:20.86	21.20	37.46	-35.5	-36.8	18.5	0.00e+00	0	57	0	1232076800	42	4242
2026-01-22 01:46:21.87	21.24	37.71	-35.5	-36.8	18.5	0.00e+00	0	57	0	1238368256	42	4232
2026-01-22 01:46:22.88	21.27	37.95	-35.5	-36.8	18.5	0.00e+00	0	57	0	1243611136	42	4232
2026-01-22 01:46:23.89	21.31	38.20	-35.6	-36.9	18.5	0.00e+00	0	57	0	1249902592	42	4279
2026-01-22 01:46:24.90	21.35	38.46	-35.8	-37.1	18.3	0.00e+00	0	57	0	1255145472	42	4378
2026-01-22 01:46:25.91	21.39	38.71	-35.9	-37.3	18.1	0.00e+00	0	57	0	1261436928	42	4460
2026-01-22 01:46:26.92	21.43	38.96	-36.0	-37.4	18.0	0.00e+00	0	57	0	1266679808	42	4515
2026-01-22 01:46:27.93	21.47	39.22	-36.0	-37.4	18.0	0.00e+00	0	57	0	1271922688	42	4497
2026-01-22 01:46:28.94	21.51	39.48	-36.0	-37.4	18.0	0.00e+00	0	57	0	1278214144	42	4494
2026-01-22 01:46:29.95	21.55	39.74	-36.0	-37.4	17.9	0.00e+00	0	57	0	1283457024	42	4535
2026-01-22 01:46:30.96	21.59	40.01	-36.0	-37.4	18.0	0.00e+00	0	57	0	1289748480	42	4517
2026-01-22 01:46:31.97	21.64	40.27	-35.9	-37.3	18.1	0.00e+00	0	57	0	1294991360	42	4469
2026-01-22 01:46:32.98	21.68	40.54	-36.0	-37.3	18.0	0.00e+00	0	57	0	1300234240	42	4485
2026-01-22 01:46:33.99	21.72	40.81	-36.0	-37.3	18.0	0.00e+00	0	57	0	1306525696	42	4481
2026-01-22 01:46:35.00	21.77	41.08	-35.9	-37.2	18.2	0.00e+00	0	57	0	1311768576	42	4429
2026-01-22 01:46:36.01	21.82	41.35	-35.9	-37.3	18.1	0.00e+00	0	57	0	1318060032	42	4450
2026-01-22 01:46:37.02	21.86	41.63	-35.8	-37.1	18.2	0.00e+00	0	57	0	1323302912	42	4380
2026-01-22 01:46:38.03	21.91	41.90	-35.8	-37.1	18.3	0.00e+00	0	57	0	1328545792	42	4354
2026-01-22 01:46:39.04	21.96	42.18	-35.9	-37.3	18.1	0.00e+00	0	57	0	1334837248	42	4447
2026-01-22 01:46:40.04	22.00	42.46	-36.0	-37.4	18.0	0.00e+00	0	57	0	1340080128	42	4525
2026-01-22 01:46:41.05	22.05	42.75	-36.1	-37.5	17.9	0.00e+00	0	57	0	1346371584	42	4557
2026-01-22 01:46:42.06	22.10	43.03	-36.0	-37.4	18.0	0.00e+00	0	57	0	1351614464	42	4500
2026-01-22 01:46:43.07	22.15	43.32	-36.1	-37.5	17.9	0.00e+00	0	57	0	1357905920	42	4556
2026-01-22 01:46:44.08	22.21	43.61	-36.2	-37.6	17.8	0.00e+00	0	57	0	1363148800	42	4618
2026-01-22 01:46:45.09	22.26	43.90	-36.4	-37.8	17.6	0.00e+00	0	57	0	1368391680	43	4455
2026-01-22 01:46:46.11	22.31	44.20	-36.5	-37.9	17.5	0.00e+00	0	57	0	1374683136	43	4518
2026-01-22 01:46:47.12	22.37	44.50	-36.5	-38.0	17.4	0.00e+00	0	57	0	1379926016	43	4564
2026-01-22 01:46:48.13	22.42	44.79	-36.6	-38.1	17.4	0.00e+00	0	57	0	1386217472	43	4612
2026-01-22 01:46:49.14	22.48	45.10	-36.4	-37.9	17.3	0.00e+00	0	57	0	1391460352	43	4522
2026-01-22 01:46:50.15	22.54	45.40	-36.1	-37.6	17.5	0.00e+00	0	57	0	1396703232	43	4367
2026-01-22 01:46:51.16	22.59	45.71	-35.9	-37.4	17.8	0.00e+00	0	57	0	1402994688	43	4256
2026-01-22 01:46:52.17	22.65	46.01	-36.0	-37.5	17.7	0.00e+00	0	57	0	1408237568	43	4303
2026-01-22 01:46:53.18	22.71	46.32	-36.1	-37.6	17.5	0.00e+00	0	57	0	1414529024	43	4365
2026-01-22 01:46:54.19	22.78	46.64	-36.1	-37.6	17.5	0.00e+00	0	57	0	1419771904	43	4381
2026-01-22 01:46:55.20	22.84	46.95	-36.2	-37.7	17.4	0.00e+00	0	57	0	1425014784	43	4416
2026-01-22 01:46:56.20	22.90	47.27	-36.2	-37.8	17.4	0.00e+00	0	57	0	1431306240	43	4457
2026-01-22 01:46:57.21	22.97	47.59	-36.0	-37.5	17.6	0.00e+00	0	57	0	1436549120	43	4337
2026-01-22 01:46:58.22	23.03	47.91	-36.0	-37.5	17.7	0.00e+00	0	57	0	1442840576	43	4305
2026-01-22 01:46:59.23	23.10	48.23	-36.1	-37.6	17.6	0.00e+00	0	57	0	1448083456	43	4359
2026-01-22 01:47:00.24	23.17	48.56	-36.2	-37.7	17.5	0.00e+00	0	57	0	1454374912	43	4421
2026-01-22 01:47:01.25	23.24	48.89	-36.2	-37.7	17.5	0.00e+00	0	57	0	1459617792	43	4421
2026-01-22 01:47:02.26	23.31	49.22	-36.2	-37.7	17.5	0.00e+00	0	57	0	1465909248	43	4409
2026-01-22 01:47:03.27	23.39	49.56	-36.3	-37.8	17.5	0.00e+00	0	57	0	1471152128	43	4451
2026-01-22 01:47:04.28	23.46	49.89	-36.4	-38.0	17.3	0.00e+00	0	57	0	1476395008	43	4551
2026-01-22 01:47:05.29	23.54	50.23	-36.5	-38.1	17.2	0.00e+00	0	57	0	1482686464	43	4607
2026-01-22 01:47:06.30	23.62	50.57	-36.4	-37.9	17.3	0.00e+00	0	57	0	1487929344	43	4545
2026-01-22 01:47:07.31	23.70	50.92	-36.4	-37.9	17.3	0.00e+00	0	57	0	1494220800	43	4519
2026-01-22 01:47:08.32	23.78	51.27	-36.6	-38.1	17.1	0.00e+00	0	57	0	1499463680	43	4634
2026-01-22 01:47:09.33	23.86	51.62	-36.9	-38.6	16.8	0.00e+00	0	57	0	1504706560	44	4607
2026-01-22 01:47:10.34	23.95	51.97	-37.1	-38.7	16.7	0.00e+00	0	57	0	1510998016	44	4662
2026-01-22 01:47:11.35	24.04	52.32	-37.1	-38.8	16.6	0.00e+00	0	57	0	1516240896	44	4717
2026-01-22 01:47:12.36	24.13	52.68	-37.3	-39.0	16.4	0.00e+00	0	57	0	1521483776	45	4586
2026-01-22 01:47:13.36	24.22	53.04	-37.5	-39.3	16.1	0.00e+00	0	57	0	1527775232	45	4743
2026-01-22 01:47:14.37	24.31	53.40	-37.5	-39.3	16.1	0.00e+00	0	57	0	1533018112	45	4725
2026-01-22 01:47:15.38	24.41	53.76	-37.5	-39.2	16.1	0.00e+00	0	57	0	1539309568	45	4684
2026-01-22 01:47:16.39	24.51	54.13	-37.5	-39.2	16.1	0.00e+00	0	57	0	1544552448	45	4696
2026-01-22 01:47:17.40	24.61	54.50	-37.3	-39.0	16.4	0.00e+00	0	57	0	1550843904	45	4555
2026-01-22 01:47:18.41	24.71	54.87	-37.2	-38.8	16.5	0.00e+00	0	57	0	1556086784	45	4481
2026-01-22 01:47:19.42	24.82	55.25	-37.2	-38.8	16.5	0.00e+00	0	57	0	1562378240	45	4484
2026-01-22 01:47:20.44	24.93	55.63	-37.2	-38.9	16.5	0.00e+00	0	57	0	1567621120	45	4520
2026-01-22 01:47:21.44	25.04	56.00	-37.4	-39.1	16.3	0.00e+00	0	57	0	1572864000	45	4635
2026-01-22 01:47:22.45	25.16	56.39	-37.5	-39.2	16.2	0.00e+00	0	57	0	1579155456	45	4686
2026-01-22 01:47:23.46	25.27	56.77	-37.3	-39.0	16.4	0.00e+00	0	57	0	1584398336	45	4572
2026-01-22 01:47:24.47	25.40	57.16	-37.2	-38.9	16.5	0.00e+00	0	57	0	1590689792	45	4515
2026-01-22 01:47:25.48	25.52	57.55	-37.3	-39.0	16.4	0.00e+00	0	57	0	1595932672	45	4571
2026-01-22 01:47:26.49	25.65	57.94	-37.0	-38.6	16.8	0.00e+00	0	57	0	1601175552	45	4348
2026-01-22 01:47:27.50	25.78	58.34	-36.7	-38.2	17.1	0.00e+00	0	57	0	1607467008	45	4182
2026-01-22 01:47:28.51	25.92	58.74	-36.5	-38.0	17.3	0.00e+00	0	57	0	1612709888	44	4321
2026-01-22 01:47:29.52	26.06	59.14	-36.4	-37.9	17.4	0.00e+00	0	57	0	1619001344	44	4278
2026-01-22 01:47:30.53	26.20	59.54	-36.3	-37.8	17.5	0.00e+00	0	57	0	1624244224	44	4238
2026-01-22 01:47:31.54	26.35	59.95	-36.3	-37.8	17.5	0.00e+00	0	57	0	1629487104	44	4221
2026-01-22 01:47:32.55	26.50	60.35	-36.3	-37.8	17.5	0.00e+00	0	57	0	1635778560	44	4230
2026-01-22 01:47:33.56	26.66	60.76	-36.4	-37.9	17.5	0.00e+00	0	57	0	1641021440	44	4251
2026-01-22 01:47:34.57	26.83	61.18	-36.1	-37.5	17.9	0.00e+00	0	57	0	1647312896	44	4063
2026-01-22 01:47:35.58	27.00	61.59	-36.1	-37.5	17.9	0.00e+00	0	57	0	1652555776	44	4064
2026-01-22 01:47:36.59	27.17	62.01	-36.3	-37.8	17.5	0.00e+00	0	57	0	1658847232	44	4235
2026-01-22 01:47:37.60	27.35	62.43	-36.5	-38.1	17.3	0.00e+00	0	57	0	1664090112	44	4341
2026-01-22 01:47:38.61	27.54	62.85	-36.1	-37.6	17.7	0.00e+00	0	57	0	1670381568	44	4111
2026-01-22 01:47:39.62	27.73	63.28	-35.5	-36.9	18.2	0.00e+00	0	57	0	1675624448	43	4041
2026-01-22 01:47:40.63	27.93	63.71	-35.5	-36.9	18.3	0.00e+00	0	57	0	1680867328	42	4259
2026-01-22 01:47:41.64	28.14	64.14	-35.5	-36.9	18.2	0.00e+00	0	57	0	1687158784	42	4280
2026-01-22 01:47:42.65	28.35	64.57	-35.4	-36.8	18.3	0.00e+00	0	57	0	1692401664	42	4222
2026-01-22 01:47:43.66	28.58	65.00	-35.0	-36.4	18.7	0.00e+00	0	57	0	1698693120	42	4023
2026-01-22 01:47:44.67	28.81	65.44	-35.1	-36.4	18.6	0.00e+00	0	57	0	1703936000	41	4285
2026-01-22 01:47:45.68	29.05	65.87	-35.4	-36.9	18.2	0.00e+00	0	57	0	1709178880	41	4507
2026-01-22 01:47:46.69	29.30	66.31	-35.4	-36.8	18.2	0.00e+00	0	57	0	1715470336	41	4485
2026-01-22 01:47:47.70	29.56	66.76	-35.4	-36.8	18.2	0.00e+00	0	57	0	1720713216	41	4484
2026-01-22 01:47:48.71	29.84	67.20	-35.4	-36.9	18.2	0.00e+00	0	57	0	1727004672	41	4495
2026-01-22 01:47:49.72	30.12	67.65	-35.3	-36.7	18.3	0.00e+00	0	57	0	1732247552	41	4416
2026-01-22 01:47:50.73	30.42	68.09	-35.1	-36.5	18.6	0.00e+00	0	57	0	1737490432	41	4298
2026-01-22 01:47:51.74	30.73	68.54	-35.1	-36.5	18.6	0.00e+00	0	57	0	1743781888	41	4308
2026-01-22 01:47:52.75	31.05	69.00	-35.4	-36.8	18.2	0.00e+00	0	57	0	1749024768	41	4484
2026-01-22 01:47:53.76	31.39	69.45	-35.3	-36.8	18.2	0.00e+00	0	57	0	1755316224	41	4448
2026-01-22 01:47:54.77	31.75	69.90	-34.9	-36.2	18.7	0.00e+00	0	57	0	1760559104	41	4190
2026-01-22 01:47:55.78	32.12	70.36	-34.9	-36.2	18.7	0.00e+00	0	57	0	1766850560	41	4182
2026-01-22 01:47:56.79	32.52	70.82	-34.8	-36.1	18.8	0.00e+00	0	57	0	1772093440	41	4132
2026-01-22 01:47:57.80	32.93	71.27	-35.0	-36.4	18.6	0.00e+00	0	57	0	1777336320	41	4258
2026-01-22 01:47:58.81	33.36	71.73	-35.1	-36.5	18.5	0.00e+00	0	57	0	1783627776	41	4306
2026-01-22 01:47:59.82	33.82	72.19	-34.9	-36.3	18.6	0.00e+00	0	57	0	1788870656	41	4229
2026-01-22 01:48:00.83	34.30	72.66	-34.8	-36.1	18.9	0.00e+00	0	57	0	1795162112	41	4108
2026-01-22 01:48:01.84	34.82	73.12	-34.6	-35.9	19.1	0.00e+00	0	57	0	1800404992	41	4017
2026-01-22 01:48:02.85	35.36	73.58	-34.6	-35.9	19.0	0.00e+00	0	57	0	1805647872	41	4029
2026-01-22 01:48:03.86	35.93	74.04	-34.2	-35.5	19.4	0.00e+00	0	58	0	1811939328	40	4060
2026-01-22 01:48:04.87	36.54	74.51	-34.4	-35.7	19.2	0.00e+00	0	57	0	1817182208	40	4184
2026-01-22 01:48:05.88	37.19	74.97	-34.4	-35.8	19.1	0.00e+00	0	57	0	1823473664	40	4211
2026-01-22 01:48:06.89	37.88	75.43	-34.5	-35.9	19.0	0.00e+00	0	57	0	1828716544	40	4250
2026-01-22 01:48:07.90	38.62	75.89	-34.4	-35.7	19.2	0.00e+00	0	57	0	1833959424	40	4168
2026-01-22 01:48:08.91	39.41	76.36	-34.1	-35.3	19.5	0.00e+00	0	57	0	1840250880	40	3998
2026-01-22 01:48:09.92	40.26	76.82	-33.9	-35.1	19.8	0.00e+00	0	57	0	1845493760	39	4124
2026-01-22 01:48:10.93	41.17	77.27	-33.8	-35.0	19.9	0.00e+00	0	57	0	1851785216	39	4056
2026-01-22 01:48:11.94	42.14	77.73	-34.0	-35.3	19.6	0.00e+00	0	58	0	1857028096	39	4208
2026-01-22 01:48:12.95	43.20	78.18	-34.0	-35.3	19.6	0.00e+00	0	57	0	1863319552	39	4228
2026-01-22 01:48:13.96	44.34	78.64	-33.7	-35.0	19.9	0.00e+00	0	57	0	1868562432	39	4053
2026-01-22 01:48:14.97	45.58	79.08	-33.6	-34.9	20.0	0.00e+00	0	57	0	1874853888	39	4005
2026-01-22 01:48:15.98	46.93	79.53	-33.5	-34.7	20.1	0.00e+00	0	57	0	1880096768	39	3958
2026-01-22 01:48:16.99	48.39	79.97	-33.5	-34.7	20.1	0.00e+00	0	57	0	1885339648	38	4171
2026-01-22 01:48:17.99	49.98	80.39	-33.4	-34.6	20.2	0.00e+00	0	58	0	1891631104	38	4117
2026-01-22 01:48:19.00	51.73	80.82	-33.1	-34.3	20.4	0.00e+00	0	57	0	1896873984	38	3995
2026-01-22 01:48:20.01	53.65	81.24	-33.2	-34.5	20.3	0.00e+00	0	57	0	1903165440	38	4053
2026-01-22 01:48:21.02	55.76	81.64	-33.2	-34.4	20.4	0.00e+00	0	58	0	1908408320	38	4019
2026-01-22 01:48:22.03	58.09	82.04	-33.1	-34.3	20.4	0.00e+00	0	57	0	1913651200	38	4000
2026-01-22 01:48:23.04	60.66	82.42	-33.2	-34.4	20.3	0.00e+00	0	57	0	1919942656	38	4042
2026-01-22 01:48:24.05	63.50	82.79	-33.3	-34.5	20.3	0.00e+00	0	57	0	1925185536	38	4075
2026-01-22 01:48:25.06	66.63	83.13	-33.5	-34.7	20.0	0.00e+00	0	57	0	1931476992	38	4189
2026-01-22 01:48:26.07	70.09	83.46	-33.4	-34.7	20.0	0.00e+00	0	57	0	1936719872	38	4169
2026-01-22 01:48:27.08	73.90	83.75	-33.5	-34.8	19.9	0.00e+00	0	58	0	1941962752	38	4221
2026-01-22 01:48:28.09	78.07	84.02	-33.3	-34.6	20.1	0.00e+00	0	57	0	1948254208	38	4099
2026-01-22 01:48:29.10	82.62	84.26	-33.2	-34.4	20.3	0.00e+00	0	57	0	1953497088	38	4033
2026-01-22 01:48:30.11	87.51	84.46	-33.5	-34.8	19.9	0.00e+00	0	57	0	1959788544	38	4194
2026-01-22 01:48:31.12	92.73	84.61	-33.4	-34.7	20.0	0.00e+00	0	57	0	1965031424	38	4157
2026-01-22 01:48:32.13	98.21	84.72	-33.4	-34.7	20.0	0.00e+00	0	57	0	1971322880	38	4149
2026-01-22 01:48:33.14	103.86	84.77	-33.3	-34.5	20.2	0.00e+00	0	57	0	1976565760	38	4096
2026-01-22 01:48:34.15	109.58	84.78	-33.4	-34.6	20.1	0.00e+00	0	57	0	1981808640	38	4114
2026-01-22 01:48:35.16	115.25	84.73	-33.4	-34.7	20.0	0.00e+00	0	57	0	1988100096	38	4162
2026-01-22 01:48:36.17	120.77	84.64	-33.6	-34.8	20.0	0.00e+00	0	57	0	1993342976	38	4218
2026-01-22 01:48:37.18	126.05	84.49	-33.6	-34.9	19.9	0.00e+00	0	57	0	1999634432	38	4260
2026-01-22 01:48:38.19	131.03	84.30	-33.5	-34.8	20.0	0.00e+00	0	57	0	2004877312	38	4194
2026-01-22 01:48:39.20	135.65	84.08	-33.1	-34.4	20.3	0.00e+00	0	57	0	2010120192	38	4005
2026-01-22 01:48:40.21	139.90	83.82	-33.1	-34.3	20.4	0.00e+00	0	57	0	2016411648	38	3981
2026-01-22 01:48:41.22	143.79	83.52	-33.1	-34.3	20.4	0.00e+00	0	57	0	2021654528	38	3985
2026-01-22 01:48:42.23	147.32	83.20	-33.1	-34.3	20.4	0.00e+00	0	57	0	2027945984	38	3967
2026-01-22 01:48:43.24	150.53	82.86	-33.1	-34.3	20.4	0.00e+00	0	57	0	2033188864	38	3974
2026-01-22 01:48:44.25	153.43	82.50	-33.2	-34.4	20.3	0.00e+00	0	58	0	2038431744	38	4024
2026-01-22 01:48:45.26	156.06	82.12	-33.2	-34.4	20.3	0.00e+00	0	58	0	2044723200	38	4048
2026-01-22 01:48:46.27	158.44	81.73	-33.2	-34.4	20.3	0.00e+00	0	57	0	2049966080	38	4036
2026-01-22 01:48:47.28	160.59	81.32	-33.3	-34.5	20.3	0.00e+00	0	58	0	2056257536	38	4067
2026-01-22 01:48:48.29	162.56	80.91	-33.4	-34.6	20.1	0.00e+00	0	58	0	2061500416	38	4130
2026-01-22 01:48:49.30	164.34	80.48	-33.3	-34.5	20.3	0.00e+00	0	57	0	2067791872	38	4064
2026-01-22 01:48:50.31	165.97	80.05	-33.4	-34.6	20.1	0.00e+00	0	58	0	2073034752	38	4145
2026-01-22 01:48:51.32	167.47	79.61	-33.6	-34.8	20.0	0.00e+00	0	58	0	2079326208	38	4234
2026-01-22 01:48:52.33	168.83	79.17	-33.6	-34.8	20.0	0.00e+00	0	58	0	2084569088	38	4232
2026-01-22 01:48:53.34	170.09	78.72	-33.6	-34.9	19.9	0.00e+00	0	57	0	2089811968	38	4271
2026-01-22 01:48:54.35	171.26	78.27	-33.9	-35.2	19.6	0.00e+00	0	58	0	2096103424	38	4431
2026-01-22 01:48:55.36	172.33	77.82	-33.9	-35.2	19.6	0.00e+00	0	57	0	2101346304	38	4409
2026-01-22 01:48:56.37	173.32	77.36	-34.1	-35.4	19.5	0.00e+00	0	57	0	2107637760	38	4503
2026-01-22 01:48:57.38	174.25	76.90	-33.9	-35.2	19.6	0.00e+00	0	57	0	2112880640	38	4410
2026-01-22 01:48:58.39	175.11	76.44	-33.9	-35.2	19.6	0.00e+00	0	57	0	2118123520	38	4400
2026-01-22 01:48:59.40	175.91	75.98	-34.3	-35.6	19.3	0.00e+00	0	57	0	2124414976	39	4378
2026-01-22 01:49:00.41	176.66	75.52	-34.8	-36.3	18.6	0.00e+00	0	57	0	2129657856	40	4447
2026-01-22 01:49:01.42	177.36	75.05	-34.4	-35.7	19.1	0.00e+00	0	57	0	2135949312	40	4159
2026-01-22 01:49:02.43	178.01	74.59	-34.3	-35.6	19.2	0.00e+00	0	58	0	2141192192	40	4113
2026-01-22 01:49:03.44	178.63	74.13	-34.5	-35.8	19.0	0.00e+00	0	58	0	2146435072	40	4231
2026-01-22 01:49:04.45	179.21	73.66	-34.3	-35.6	19.2	0.00e+00	0	58	0	2152726528	40	4142
2026-01-22 01:49:05.45	179.76	73.20	-34.2	-35.5	19.3	0.00e+00	0	58	0	2157969408	40	4073
2026-01-22 01:49:06.46	180.27	72.74	-34.7	-36.0	18.9	0.00e+00	0	57	0	2164260864	40	4315
2026-01-22 01:49:07.47	180.76	72.28	-34.9	-36.2	18.6	0.00e+00	0	58	0	2169503744	40	4435
2026-01-22 01:49:08.48	181.23	71.82	-34.9	-36.2	18.7	0.00e+00	0	58	0	2175795200	40	4441
2026-01-22 01:49:09.49	181.67	71.36	-34.8	-36.1	18.8	0.00e+00	0	57	0	2181038080	40	4372
2026-01-22 01:49:10.50	182.08	70.90	-34.8	-36.1	18.8	0.00e+00	0	57	0	2186280960	40	4371
2026-01-22 01:49:11.51	182.48	70.44	-34.9	-36.2	18.8	0.00e+00	0	57	0	2192572416	40	4415
2026-01-22 01:49:12.52	182.86	69.98	-34.9	-36.2	18.8	0.00e+00	0	58	0	2197815296	40	4429
2026-01-22 01:49:13.53	183.22	69.53	-34.9	-36.3	18.7	0.00e+00	0	57	0	2204106752	40	4468
2026-01-22 01:49:14.54	183.56	69.07	-34.9	-36.3	18.7	0.00e+00	0	58	0	2209349632	40	4449
2026-01-22 01:49:15.55	183.89	68.62	-34.9	-36.3	18.7	0.00e+00	0	57	0	2214592512	40	4463
2026-01-22 01:49:16.56	184.20	68.17	-35.0	-36.3	18.6	0.00e+00	0	57	0	2220883968	40	4483
2026-01-22 01:49:17.57	184.50	67.72	-35.2	-36.7	18.3	0.00e+00	0	58	0	2226126848	41	4396
2026-01-22 01:49:18.58	184.79	67.27	-35.1	-36.6	18.4	0.00e+00	0	57	0	2232418304	41	4352
2026-01-22 01:49:19.59	185.06	66.83	-34.8	-36.1	18.8	0.00e+00	0	58	0	2237661184	41	4135
2026-01-22 01:49:20.60	185.33	66.38	-34.9	-36.2	18.7	0.00e+00	0	58	0	2242904064	41	4184
2026-01-22 01:49:21.61	185.58	65.94	-35.2	-36.6	18.3	0.00e+00	0	58	0	2249195520	41	4389
2026-01-22 01:49:22.62	185.82	65.50	-35.2	-36.6	18.3	0.00e+00	0	57	0	2254438400	41	4361
2026-01-22 01:49:23.63	186.06	65.06	-35.1	-36.4	18.5	0.00e+00	0	57	0	2260729856	41	4285
2026-01-22 01:49:24.63	186.28	64.63	-35.1	-36.5	18.5	0.00e+00	0	58	0	2265972736	41	4307
2026-01-22 01:49:25.64	186.50	64.20	-35.0	-36.3	18.8	0.00e+00	0	58	0	2272264192	41	4194
2026-01-22 01:49:26.65	186.71	63.77	-35.0	-36.3	18.8	0.00e+00	0	58	0	2277507072	41	4196
2026-01-22 01:49:27.66	186.91	63.34	-35.2	-36.6	18.5	0.00e+00	0	58	0	2283798528	41	4347
2026-01-22 01:49:28.67	187.10	62.91	-35.5	-36.9	18.2	0.00e+00	0	58	0	2289041408	41	4503
2026-01-22 01:49:29.68	187.29	62.49	-35.4	-36.8	18.2	0.00e+00	0	58	0	2294284288	41	4481
2026-01-22 01:49:30.69	187.47	62.07	-35.4	-36.8	18.2	0.00e+00	0	58	0	2300575744	41	4470
2026-01-22 01:49:31.70	187.65	61.65	-35.5	-36.9	18.2	0.00e+00	0	58	0	2305818624	41	4496
2026-01-22 01:49:32.71	187.82	61.23	-35.5	-36.9	18.2	0.00e+00	0	58	0	2312110080	41	4509
2026-01-22 01:49:33.72	187.98	60.82	-35.5	-36.9	18.1	0.00e+00	0	57	0	2317352960	41	4522
2026-01-22 01:49:34.73	188.14	60.40	-35.4	-36.7	18.3	0.00e+00	0	58	0	2322595840	41	4433
2026-01-22 01:49:35.74	188.30	59.99	-35.5	-37.0	18.1	0.00e+00	0	58	0	2328887296	41	4554
2026-01-22 01:49:36.75	188.45	59.59	-35.4	-36.8	18.2	0.00e+00	0	58	0	2334130176	41	4484
2026-01-22 01:49:37.76	188.59	59.18	-35.7	-37.1	18.0	0.00e+00	0	58	0	2339373056	41	4632
2026-01-22 01:49:38.77	188.73	58.78	-36.1	-37.6	17.6	0.00e+00	0	57	0	2345664512	42	4599
2026-01-22 01:49:39.78	188.87	58.38	-36.0	-37.5	17.6	0.00e+00	0	57	0	2350907392	42	4552
2026-01-22 01:49:40.78	189.00	57.99	-35.9	-37.3	17.7	0.00e+00	0	58	0	2357198848	42	4488
2026-01-22 01:49:41.79	189.13	57.59	-35.9	-37.4	17.7	0.00e+00	0	58	0	2362441728	42	4519
2026-01-22 01:49:42.80	189.26	57.20	-36.2	-37.8	17.3	0.00e+00	0	58	0	2368733184	43	4452
2026-01-22 01:49:43.81	189.38	56.81	-36.2	-37.8	17.3	0.00e+00	0	58	0	2373976064	43	4455
2026-01-22 01:49:44.82	189.50	56.42	-36.2	-37.7	17.4	0.00e+00	0	57	0	2380267520	43	4413
2026-01-22 01:49:45.83	189.61	56.04	-36.3	-37.8	17.3	0.00e+00	0	58	0	2385510400	43	4483
2026-01-22 01:49:46.84	189.73	55.66	-36.6	-38.1	17.0	0.00e+00	0	58	0	2390753280	43	4650
2026-01-22 01:49:47.85	189.84	55.28	-37.1	-38.7	16.6	0.00e+00	0	58	0	2397044736	44	4701
2026-01-22 01:49:48.86	189.94	54.90	-37.1	-38.8	16.6	0.00e+00	0	58	0	2402287616	44	4708
2026-01-22 01:49:49.87	190.05	54.53	-37.1	-38.7	16.6	0.00e+00	0	58	0	2408579072	44	4668
2026-01-22 01:49:50.88	190.15	54.15	-37.1	-38.7	16.6	0.00e+00	0	58	0	2413821952	44	4670
2026-01-22 01:49:51.89	190.25	53.78	-37.1	-38.8	16.5	0.00e+00	0	58	0	2419064832	44	4710
2026-01-22 01:49:52.90	190.34	53.42	-37.0	-38.6	16.6	0.00e+00	0	58	0	2425356288	44	4640
2026-01-22 01:49:53.91	190.44	53.05	-36.9	-38.5	16.7	0.00e+00	0	58	0	2430599168	44	4598
2026-01-22 01:49:54.92	190.53	52.69	-36.9	-38.5	16.8	0.00e+00	0	58	0	2436890624	44	4568
2026-01-22 01:49:55.93	190.62	52.33	-36.9	-38.4	16.8	0.00e+00	0	58	0	2442133504	44	4542
2026-01-22 01:49:56.94	190.71	51.98	-36.8	-38.4	16.9	0.00e+00	0	58	0	2447376384	44	4498
2026-01-22 01:49:57.95	190.79	51.62	-36.7	-38.3	17.0	0.00e+00	0	57	0	2453667840	44	4447
2026-01-22 01:49:58.96	190.88	51.27	-36.6	-38.1	17.2	0.00e+00	0	57	0	2458910720	44	4386
2026-01-22 01:49:59.97	190.96	50.92	-36.5	-38.1	17.2	0.00e+00	0	58	0	2465202176	44	4350
2026-01-22 01:50:00.98	191.04	50.58	-36.5	-38.1	17.2	0.00e+00	0	58	0	2470445056	44	4366
2026-01-22 01:50:01.99	191.12	50.23	-36.5	-38.1	17.2	0.00e+00	0	58	0	2476736512	44	4357
2026-01-22 01:50:03.00	191.20	49.89	-36.3	-37.9	17.4	0.00e+00	0	58	0	2481979392	44	4247
2026-01-22 01:50:04.01	191.27	49.55	-36.3	-37.8	17.5	0.00e+00	0	58	0	2488270848	44	4225
2026-01-22 01:50:05.02	191.35	49.22	-36.3	-37.8	17.5	0.00e+00	0	58	0	2493513728	44	4224
2026-01-22 01:50:06.02	191.42	48.89	-36.3	-37.8	17.5	0.00e+00	0	57	0	2498756608	44	4239
2026-01-22 01:50:07.03	191.49	48.56	-36.3	-37.8	17.5	0.00e+00	0	58	0	2505048064	44	4216
2026-01-22 01:50:08.04	191.56	48.23	-36.2	-37.7	17.6	0.00e+00	0	58	0	2510290944	44	4170
2026-01-22 01:50:09.05	191.62	47.90	-36.1	-37.6	17.6	0.00e+00	0	58	0	2515533824	44	4142
2026-01-22 01:50:10.06	191.69	47.58	-35.7	-37.1	17.9	0.00e+00	0	58	0	2521825280	43	4143
2026-01-22 01:50:11.07	191.76	47.26	-35.6	-37.0	18.1	0.00e+00	0	58	0	2527068160	43	4082
2026-01-22 01:50:12.08	191.82	46.94	-35.7	-37.1	18.0	0.00e+00	0	58	0	2533359616	43	4106
2026-01-22 01:50:13.09	191.88	46.62	-35.6	-37.0	18.1	0.00e+00	0	58	0	2538602496	43	4071
2026-01-22 01:50:14.11	191.95	46.30	-35.7	-37.1	18.0	0.00e+00	0	58	0	2543845376	43	4115
2026-01-22 01:50:15.11	192.01	45.99	-35.6	-37.0	18.1	0.00e+00	0	58	0	2550136832	43	4077
2026-01-22 01:50:16.12	192.07	45.68	-35.6	-37.1	18.0	0.00e+00	0	57	0	2555379712	43	4114
2026-01-22 01:50:17.14	192.12	45.37	-35.6	-37.0	18.0	0.00e+00	0	58	0	2561671168	43	4092
2026-01-22 01:50:18.15	192.18	45.07	-35.7	-37.2	17.9	0.00e+00	0	58	0	2566914048	43	4146
2026-01-22 01:50:19.15	192.24	44.77	-35.6	-37.1	17.9	0.00e+00	0	58	0	2573205504	43	4112
2026-01-22 01:50:20.17	192.29	44.46	-35.6	-37.0	17.9	0.00e+00	0	58	0	2578448384	43	4098
2026-01-22 01:50:21.18	192.35	44.17	-35.6	-37.0	18.0	0.00e+00	0	58	0	2584739840	43	4096
2026-01-22 01:50:22.19	192.40	43.87	-35.5	-36.9	18.0	0.00e+00	0	58	0	2589982720	43	4051
2026-01-22 01:50:23.19	192.45	43.58	-35.5	-36.9	18.1	0.00e+00	0	58	0	2595225600	43	4024
2026-01-22 01:50:24.20	192.50	43.29	-35.5	-37.0	18.0	0.00e+00	0	58	0	2601517056	42	4299
2026-01-22 01:50:25.21	192.55	43.00	-35.6	-37.1	17.9	0.00e+00	0	58	0	2606759936	42	4362
2026-01-22 01:50:26.22	192.60	42.71	-35.7	-37.3	17.7	0.00e+00	0	58	0	2613051392	42	4443
2026-01-22 01:50:27.23	192.65	42.43	-35.7	-37.2	17.7	0.00e+00	0	58	0	2618294272	42	4424
2026-01-22 01:50:28.24	192.70	42.14	-35.8	-37.3	17.7	0.00e+00	0	58	0	2623537152	42	4446
2026-01-22 01:50:29.25	192.75	41.86	-35.7	-37.2	17.8	0.00e+00	0	58	0	2629828608	42	4408
2026-01-22 01:50:30.26	192.80	41.58	-35.7	-37.2	17.8	0.00e+00	0	58	0	2635071488	42	4405
2026-01-22 01:50:31.27	192.84	41.31	-35.8	-37.3	17.7	0.00e+00	0	58	0	2641362944	42	4453
2026-01-22 01:50:32.28	192.89	41.03	-35.6	-37.1	17.9	0.00e+00	0	58	0	2646605824	42	4353
2026-01-22 01:50:33.29	192.93	40.76	-35.6	-37.1	17.9	0.00e+00	0	58	0	2651848704	42	4356
2026-01-22 01:50:34.30	192.98	40.49	-35.6	-37.0	18.0	0.00e+00	0	58	0	2658140160	42	4331
2026-01-22 01:50:35.31	193.02	40.22	-35.4	-36.8	18.2	0.00e+00	0	58	0	2663383040	42	4197
2026-01-22 01:50:36.33	193.06	39.95	-35.4	-36.8	18.1	0.00e+00	0	58	0	2669674496	42	4221
2026-01-22 01:50:37.34	193.10	39.69	-35.4	-36.9	18.1	0.00e+00	0	58	0	2674917376	42	4247
2026-01-22 01:50:38.34	193.14	39.43	-35.3	-36.8	18.2	0.00e+00	0	58	0	2681208832	42	4198
2026-01-22 01:50:39.35	193.18	39.17	-35.4	-36.8	18.1	0.00e+00	0	58	0	2686451712	42	4230
2026-01-22 01:50:40.36	193.22	38.91	-35.5	-37.0	18.0	0.00e+00	0	58	0	2692743168	42	4321
2026-01-22 01:50:41.37	193.26	38.65	-35.5	-37.0	18.0	0.00e+00	0	58	0	2697986048	42	4301
2026-01-22 01:50:42.38	193.30	38.40	-35.3	-36.8	18.1	0.00e+00	0	58	0	2703228928	42	4215
2026-01-22 01:50:43.39	193.34	38.14	-35.2	-36.7	18.2	0.00e+00	0	58	0	2709520384	42	4155
2026-01-22 01:50:44.40	193.38	37.89	-35.1	-36.5	18.4	0.00e+00	0	58	0	2714763264	42	4058
2026-01-22 01:50:45.41	193.42	37.64	-35.0	-36.3	18.5	0.00e+00	0	58	0	2721054720	42	4004
2026-01-22 01:50:46.42	193.45	37.40	-34.9	-36.3	18.6	0.00e+00	0	58	0	2726297600	41	4213
2026-01-22 01:50:47.43	193.49	37.15	-35.0	-36.3	18.5	0.00e+00	0	58	0	2731540480	41	4242
2026-01-22 01:50:48.43	193.53	36.91	-35.0	-36.4	18.5	0.00e+00	0	58	0	2737831936	41	4273
2026-01-22 01:50:49.44	193.56	36.67	-35.2	-36.6	18.3	0.00e+00	0	58	0	2743074816	41	4356
2026-01-22 01:50:50.45	193.60	36.43	-35.2	-36.7	18.2	0.00e+00	0	58	0	2748317696	41	4403
2026-01-22 01:50:51.46	193.63	36.19	-35.3	-36.8	18.1	0.00e+00	0	58	0	2754609152	41	4461
2026-01-22 01:50:52.48	193.66	35.95	-35.3	-36.8	18.1	0.00e+00	0	58	0	2759852032	41	4483
2026-01-22 01:50:53.49	193.70	35.72	-35.3	-36.8	18.1	0.00e+00	0	58	0	2766143488	41	4453
2026-01-22 01:50:54.50	193.73	35.48	-35.2	-36.7	18.2	0.00e+00	0	58	0	2771386368	41	4413
2026-01-22 01:50:55.50	193.76	35.25	-35.1	-36.6	18.3	0.00e+00	0	58	0	2777677824	41	4364
2026-01-22 01:50:56.51	193.80	35.02	-35.1	-36.5	18.3	0.00e+00	0	58	0	2782920704	41	4310
2026-01-22 01:50:57.53	193.83	34.79	-35.0	-36.4	18.4	0.00e+00	0	58	0	2789212160	41	4276
2026-01-22 01:50:58.53	193.86	34.57	-35.0	-36.4	18.4	0.00e+00	0	58	0	2794455040	41	4282
2026-01-22 01:50:59.54	193.89	34.34	-35.1	-36.5	18.4	0.00e+00	0	58	0	2799697920	41	4307
2026-01-22 01:51:00.55	193.92	34.12	-35.2	-36.6	18.2	0.00e+00	0	57	0	2805989376	41	4377
2026-01-22 01:51:01.57	193.95	33.90	-35.3	-36.8	18.1	0.00e+00	0	58	0	2811232256	41	4452
2026-01-22 01:51:02.57	193.98	33.68	-35.4	-36.9	18.0	0.00e+00	0	57	0	2817523712	41	4502
2026-01-22 01:51:03.59	194.01	33.46	-35.5	-37.0	17.9	0.00e+00	0	58	0	2822766592	41	4560
2026-01-22 01:51:04.59	194.04	33.24	-35.6	-37.1	17.8	0.00e+00	0	58	0	2828009472	41	4615
2026-01-22 01:51:05.60	194.07	33.03	-35.7	-37.2	17.7	0.00e+00	0	58	0	2834300928	41	4671
2026-01-22 01:51:06.61	194.10	32.81	-35.7	-37.3	17.6	0.00e+00	0	58	0	2839543808	42	4448
2026-01-22 01:51:07.62	194.13	32.60	-35.8	-37.3	17.5	0.00e+00	0	58	0	2845835264	42	4488
2026-01-22 01:51:08.64	194.15	32.39	-35.8	-37.4	17.5	0.00e+00	0	58	0	2851078144	42	4496
2026-01-22 01:51:09.65	194.18	32.18	-35.8	-37.3	17.5	0.00e+00	0	58	0	2856321024	42	4492
2026-01-22 01:51:10.66	194.21	31.97	-35.8	-37.4	17.5	0.00e+00	0	58	0	2862612480	42	4494
2026-01-22 01:51:11.67	194.24	31.76	-35.8	-37.4	17.5	0.00e+00	0	58	0	2867855360	42	4495
2026-01-22 01:51:12.68	194.26	31.56	-35.8	-37.3	17.5	0.00e+00	0	58	0	2874146816	42	4479
2026-01-22 01:51:13.69	194.29	31.36	-35.8	-37.4	17.5	0.00e+00	0	58	0	2879389696	42	4494
2026-01-22 01:51:14.70	194.31	31.15	-35.7	-37.2	17.6	0.00e+00	0	58	0	2885681152	42	4430
2026-01-22 01:51:15.71	194.34	30.95	-35.6	-37.2	17.7	0.00e+00	0	58	0	2890924032	42	4393
2026-01-22 01:51:16.72	194.37	30.75	-35.6	-37.1	17.8	0.00e+00	0	58	0	2897215488	42	4371
2026-01-22 01:51:17.73	194.39	30.55	-35.6	-37.1	17.8	0.00e+00	0	58	0	2902458368	42	4351
2026-01-22 01:51:18.74	194.42	30.36	-35.7	-37.2	17.7	0.00e+00	0	58	0	2907701248	42	4396
2026-01-22 01:51:19.75	194.44	30.16	-35.6	-37.1	17.8	0.00e+00	0	58	0	2913992704	42	4371
2026-01-22 01:51:20.76	194.47	29.97	-35.6	-37.1	17.8	0.00e+00	0	58	0	2919235584	42	4344
2026-01-22 01:51:21.77	194.49	29.77	-35.6	-37.0	17.8	0.00e+00	0	58	0	2925527040	42	4338
2026-01-22 01:51:22.77	194.51	29.58	-35.6	-37.1	17.8	0.00e+00	0	58	0	2930769920	42	4351
2026-01-22 01:51:23.78	194.54	29.39	-35.7	-37.2	17.7	0.00e+00	0	58	0	2936012800	42	4411
2026-01-22 01:51:24.79	194.56	29.21	-35.7	-37.2	17.6	0.00e+00	0	58	0	2942304256	42	4437
2026-01-22 01:51:25.80	194.58	29.02	-35.7	-37.3	17.6	0.00e+00	0	58	0	2947547136	42	4449
2026-01-22 01:51:26.80	194.61	28.83	-35.8	-37.3	17.6	0.00e+00	0	58	0	2952790016	42	4457
2026-01-22 01:51:27.80	194.63	28.65	-35.9	-37.4	17.5	0.00e+00	0	58	0	2959081472	42	4514
2026-01-22 01:51:28.81	194.65	28.47	-35.8	-37.4	17.5	0.00e+00	0	58	0	2964324352	42	4500
2026-01-22 01:51:29.82	194.67	28.28	-35.8	-37.3	17.6	0.00e+00	0	58	0	2970615808	42	4462
2026-01-22 01:51:30.82	194.70	28.10	-35.6	-37.1	17.7	0.00e+00	0	58	0	2975858688	42	4390
2026-01-22 01:51:31.83	194.72	27.92	-35.6	-37.1	17.8	0.00e+00	0	58	0	2982150144	42	4375
2026-01-22 01:51:32.83	194.74	27.74	-35.6	-37.1	17.7	0.00e+00	0	58	0	2987393024	42	4377
2026-01-22 01:51:33.84	194.76	27.57	-35.6	-37.1	17.8	0.00e+00	0	58	0	2992635904	42	4368
2026-01-22 01:51:34.85	194.78	27.39	-35.6	-37.1	17.8	0.00e+00	0	58	0	2998927360	42	4361
2026-01-22 01:51:35.85	194.80	27.21	-35.6	-37.1	17.7	0.00e+00	0	58	0	3004170240	42	4371
2026-01-22 01:51:36.86	194.82	27.04	-35.6	-37.1	17.8	0.00e+00	0	58	0	3010461696	42	4361
2026-01-22 01:51:37.87	194.84	26.87	-35.6	-37.0	17.8	0.00e+00	0	58	0	3015704576	42	4329
2026-01-22 01:51:38.88	194.87	26.69	-35.5	-37.0	17.9	0.00e+00	0	58	0	3020947456	42	4293
2026-01-22 01:51:39.88	194.89	26.52	-35.6	-37.0	17.8	0.00e+00	0	58	0	3027238912	42	4331
2026-01-22 01:51:40.89	194.91	26.35	-35.6	-37.1	17.8	0.00e+00	0	58	0	3032481792	42	4359
2026-01-22 01:51:41.90	194.93	26.18	-35.7	-37.2	17.7	0.00e+00	0	58	0	3037724672	42	4403
2026-01-22 01:51:42.90	194.95	26.02	-35.7	-37.1	17.7	0.00e+00	0	58	0	3044016128	42	4385
2026-01-22 01:51:43.90	194.96	25.85	-35.7	-37.3	17.6	0.00e+00	0	58	0	3049259008	42	4446
2026-01-22 01:51:44.91	194.98	25.68	-35.8	-37.3	17.5	0.00e+00	0	58	0	3055550464	42	4484
2026-01-22 01:51:45.92	195.00	25.52	-35.8	-37.3	17.5	0.00e+00	0	58	0	3060793344	42	4477
2026-01-22 01:51:46.93	195.02	25.36	-35.9	-37.5	17.4	0.00e+00	0	58	0	3067084800	42	4546
2026-01-22 01:51:47.94	195.04	25.19	-35.9	-37.4	17.4	0.00e+00	0	58	0	3072327680	42	4538
2026-01-22 01:51:48.95	195.06	25.03	-35.9	-37.5	17.4	0.00e+00	0	58	0	3077570560	42	4556
2026-01-22 01:51:49.96	195.08	24.87	-36.0	-37.6	17.3	0.00e+00	0	58	0	3083862016	42	4605
2026-01-22 01:51:50.97	195.10	24.71	-36.0	-37.5	17.3	0.00e+00	0	58	0	3089104896	42	4590
2026-01-22 01:51:51.97	195.12	24.55	-36.0	-37.6	17.2	0.00e+00	0	58	0	3095396352	42	4632
2026-01-22 01:51:52.98	195.13	24.39	-36.1	-37.7	17.1	0.00e+00	0	58	0	3100639232	42	4675
2026-01-22 01:51:53.99	195.15	24.23	-36.1	-37.7	17.1	0.00e+00	0	58	0	3105882112	42	4677
2026-01-22 01:51:55.00	195.17	24.08	-36.1	-37.7	17.1	0.00e+00	0	58	0	3112173568	42	4658
2026-01-22 01:51:56.01	195.19	23.92	-36.2	-37.7	17.1	0.00e+00	0	58	0	3117416448	42	4695
2026-01-22 01:51:57.02	195.20	23.77	-36.1	-37.7	17.1	0.00e+00	0	58	0	3123707904	42	4664
2026-01-22 01:51:58.04	195.22	23.61	-36.1	-37.7	17.1	0.00e+00	0	58	0	3128950784	42	4675
2026-01-22 01:51:59.05	195.24	23.46	-36.2	-37.8	17.0	0.00e+00	0	58	0	3134193664	43	4481
2026-01-22 01:52:00.06	195.26	23.31	-36.2	-37.8	17.0	0.00e+00	0	57	0	3140485120	43	4484
2026-01-22 01:52:01.07	195.27	23.16	-36.1	-37.7	17.1	0.00e+00	0	58	0	3145728000	43	4439
2026-01-22 01:52:02.08	195.29	23.01	-36.3	-37.9	17.0	0.00e+00	0	58	0	3152019456	43	4503
2026-01-22 01:52:03.09	195.31	22.86	-36.3	-37.9	16.9	0.00e+00	0	58	0	3157262336	43	4545
2026-01-22 01:52:04.10	195.32	22.71	-36.3	-37.9	16.9	0.00e+00	0	58	0	3163553792	43	4525
2026-01-22 01:52:05.11	195.34	22.56	-36.3	-37.9	16.9	0.00e+00	0	58	0	3168796672	43	4512
2026-01-22 01:52:06.12	195.36	22.42	-36.3	-37.9	16.9	0.00e+00	0	58	0	3175088128	43	4536
2026-01-22 01:52:07.13	195.37	22.27	-36.4	-38.0	16.8	0.00e+00	0	58	0	3180331008	43	4564
2026-01-22 01:52:08.14	195.39	22.12	-36.4	-38.0	16.8	0.00e+00	0	58	0	3185573888	43	4592
2026-01-22 01:52:09.15	195.41	21.98	-36.4	-38.1	16.8	0.00e+00	0	58	0	3191865344	43	4614
2026-01-22 01:52:10.16	195.42	21.84	-36.4	-38.1	16.8	0.00e+00	0	58	0	3197108224	43	4603
2026-01-22 01:52:11.17	195.44	21.69	-36.5	-38.1	16.7	0.00e+00	0	58	0	3203399680	43	4643
2026-01-22 01:52:12.18	195.45	21.55	-36.5	-38.1	16.7	0.00e+00	0	58	0	3208642560	43	4640
2026-01-22 01:52:13.19	195.47	21.41	-36.5	-38.1	16.7	0.00e+00	0	58	0	3213885440	43	4643
2026-01-22 01:52:14.20	195.48	21.27	-36.5	-38.1	16.7	0.00e+00	0	58	0	3220176896	43	4650
2026-01-22 01:52:15.20	195.50	21.13	-36.5	-38.2	16.6	0.00e+00	0	58	0	3225419776	43	4681
2026-01-22 01:52:16.21	195.51	21.00	-36.6	-38.2	16.6	0.00e+00	0	58	0	3231711232	43	4693
2026-01-22 01:52:17.22	195.53	20.86	-36.6	-38.2	16.6	0.00e+00	0	58	0	3236954112	43	4697
2026-01-22 01:52:18.23	195.54	20.72	-36.5	-38.2	16.6	0.00e+00	0	58	0	3242196992	43	4683
2026-01-22 01:52:19.24	195.56	20.58	-36.6	-38.2	16.6	0.00e+00	0	58	0	3248488448	43	4695
2026-01-22 01:52:20.25	195.57	20.45	-36.5	-38.2	16.6	0.00e+00	0	58	0	3253731328	43	4672
2026-01-22 01:52:21.26	195.59	20.31	-36.6	-38.2	16.6	0.00e+00	0	58	0	3260022784	43	4692
2026-01-22 01:52:22.27	195.60	20.18	-36.6	-38.3	16.6	0.00e+00	0	58	0	3265265664	43	4722
2026-01-22 01:52:23.28	195.62	20.05	-36.7	-38.3	16.5	0.00e+00	0	58	0	3271557120	43	4758
2026-01-22 01:52:24.29	195.63	19.91	-36.7	-38.3	16.5	0.00e+00	0	58	0	3276800000	43	4744
2026-01-22 01:52:25.30	195.65	19.78	-36.7	-38.3	16.5	0.00e+00	0	58	0	3282042880	43	4750
2026-01-22 01:52:26.31	195.66	19.65	-36.6	-38.3	16.5	0.00e+00	0	58	0	3288334336	43	4730
2026-01-22 01:52:27.32	195.67	19.52	-36.7	-38.3	16.5	0.00e+00	0	58	0	3293577216	43	4752
2026-01-22 01:52:28.33	195.69	19.39	-36.7	-38.4	16.4	0.00e+00	0	58	0	3299868672	43	4765
2026-01-22 01:52:29.34	195.70	19.26	-36.7	-38.4	16.4	0.00e+00	0	58	0	3305111552	43	4766
2026-01-22 01:52:30.35	195.72	19.13	-36.9	-38.6	16.4	0.00e+00	0	58	0	3310354432	44	4621
2026-01-22 01:52:31.36	195.73	19.00	-36.9	-38.6	16.3	0.00e+00	0	58	0	3316645888	44	4635
2026-01-22 01:52:32.37	195.74	18.88	-37.0	-38.7	16.3	0.00e+00	0	58	0	3321888768	44	4682
2026-01-22 01:52:33.38	195.76	18.75	-37.0	-38.7	16.2	0.00e+00	0	58	0	3328180224	44	4692
2026-01-22 01:52:34.39	195.77	18.62	-37.0	-38.7	16.3	0.00e+00	0	58	0	3333423104	44	4661
2026-01-22 01:52:35.40	195.78	18.50	-37.0	-38.7	16.2	0.00e+00	0	58	0	3338665984	44	4705
2026-01-22 01:52:36.41	195.80	18.37	-37.1	-38.8	16.2	0.00e+00	0	57	0	3344957440	44	4743
2026-01-22 01:52:37.42	195.81	18.25	-37.0	-38.8	16.2	0.00e+00	0	58	0	3350200320	44	4715
2026-01-22 01:52:38.43	195.82	18.12	-37.1	-38.8	16.1	0.00e+00	0	58	0	3356491776	44	4743
2026-01-22 01:52:39.44	195.84	18.00	-37.2	-38.9	16.0	0.00e+00	0	58	0	3361734656	44	4796
2026-01-22 01:52:40.45	195.85	17.88	-37.3	-39.0	16.0	0.00e+00	0	58	0	3368026112	45	4591
2026-01-22 01:52:41.45	195.86	17.76	-37.2	-39.0	16.0	0.00e+00	0	58	0	3373268992	45	4552
2026-01-22 01:52:42.46	195.87	17.64	-37.3	-39.1	15.9	0.00e+00	0	58	0	3378511872	45	4610
2026-01-22 01:52:43.47	195.89	17.52	-37.2	-39.0	15.9	0.00e+00	0	58	0	3384803328	45	4587
2026-01-22 01:52:44.48	195.90	17.40	-37.3	-39.1	15.8	0.00e+00	0	58	0	3390046208	45	4642
2026-01-22 01:52:45.50	195.91	17.28	-37.4	-39.2	15.7	0.00e+00	0	58	0	3396337664	45	4686
2026-01-22 01:52:46.51	195.93	17.16	-37.4	-39.3	15.7	0.00e+00	0	58	0	3401580544	45	4713
2026-01-22 01:52:47.52	195.94	17.04	-37.4	-39.3	15.7	0.00e+00	0	58	0	3407872000	45	4706
2026-01-22 01:52:48.53	195.95	16.92	-37.4	-39.3	15.7	0.00e+00	0	58	0	3413114880	45	4718
2026-01-22 01:52:49.54	195.96	16.81	-37.5	-39.4	15.6	0.00e+00	0	58	0	3418357760	45	4765
2026-01-22 01:52:50.55	195.97	16.69	-37.5	-39.4	15.5	0.00e+00	0	58	0	3424649216	45	4770
2026-01-22 01:52:51.56	195.99	16.57	-37.6	-39.5	15.4	0.00e+00	0	58	0	3429892096	45	4839
2026-01-22 01:52:52.57	196.00	16.46	-37.6	-39.5	15.4	0.00e+00	0	58	0	3436183552	45	4862
2026-01-22 01:52:53.58	196.01	16.34	-37.7	-39.6	15.4	0.00e+00	0	58	0	3441426432	46	4611
2026-01-22 01:52:54.59	196.02	16.23	-37.7	-39.6	15.3	0.00e+00	0	58	0	3446669312	46	4629
2026-01-22 01:52:55.60	196.03	16.12	-37.8	-39.7	15.3	0.00e+00	0	58	0	3452960768	46	4660
2026-01-22 01:52:56.60	196.05	16.00	-37.8	-39.7	15.2	0.00e+00	0	58	0	3458203648	46	4689
2026-01-22 01:52:57.61	196.06	15.89	-37.9	-39.9	15.1	0.00e+00	0	58	0	3464495104	46	4772
