passes_logs/2026/01/30/planumMaritime01/planumMaritime01__20260130_062039_METEOR-M2_3_rec.log

#Pass ID: 20260130_062039_METEOR-M2 3
#Satellite: METEOR-M2 3
#Configuration: METEOR-M2 3
#Start time: 2026-01-30 06:20:44.914637

#LorettStation: 1.0.0 05.05.2024
#Station: planumMaritime01
#Location: 37.49445 lon 55.92918 lat
#TLE: 1 57166U 23091A   26029.54066941  .00000028  00000+0  31266-4 0  9995
#TLE: 2 57166  98.6304  87.2284 0003554 198.5989 161.5061 14.24033160134781

#Time	Az	El	Level	SNR
2026-01-30 06:20:47.076184	31.7	10.2	-76.7	0.0
2026-01-30 06:20:48.200097	31.9	10.2	-76.6	0.0
2026-01-30 06:20:49.325170	32.0	10.3	-76.0	0.0
2026-01-30 06:20:50.447773	32.1	10.4	-77.7	0.0
2026-01-30 06:20:51.572364	32.2	10.5	-76.1	0.0
2026-01-30 06:20:52.699212	32.3	10.6	-78.5	0.0
2026-01-30 06:20:53.821904	32.4	10.7	-72.1	0.0
2026-01-30 06:20:54.946363	32.5	10.8	-74.5	0.0
2026-01-30 06:20:56.068564	32.6	10.8	-72.0	0.0
2026-01-30 06:20:57.193032	32.7	10.9	-71.4	0.0
2026-01-30 06:20:58.316764	32.9	11.0	-69.5	0.0
2026-01-30 06:20:59.441183	33.0	11.1	-66.4	0.0
2026-01-30 06:21:00.564654	33.1	11.2	-66.2	0.0
2026-01-30 06:21:01.691009	33.2	11.3	-64.2	0.0
2026-01-30 06:21:02.813861	33.3	11.4	-67.0	0.0
2026-01-30 06:21:03.938424	33.4	11.4	-66.4	0.0
2026-01-30 06:21:05.061344	33.6	11.5	-65.7	0.0
2026-01-30 06:21:06.184341	33.7	11.6	-64.3	0.0
2026-01-30 06:21:07.308773	33.8	11.7	-65.8	0.0
2026-01-30 06:21:08.432247	33.9	11.8	-67.3	0.0
2026-01-30 06:21:09.557352	34.0	11.9	-62.9	0.0
2026-01-30 06:21:10.681922	34.2	12.0	-63.3	0.0
2026-01-30 06:21:11.806394	34.3	12.0	-67.8	0.0
2026-01-30 06:21:12.928480	34.4	12.1	-66.5	0.0
2026-01-30 06:21:14.050943	34.5	12.2	-69.4	0.0
2026-01-30 06:21:15.175037	34.6	12.3	-67.4	0.0
2026-01-30 06:21:16.298644	34.8	12.4	-63.8	0.0
2026-01-30 06:21:17.422579	34.9	12.5	-68.0	0.0
2026-01-30 06:21:18.545813	35.0	12.6	-68.6	0.0
2026-01-30 06:21:19.670694	35.1	12.7	-67.6	0.0
2026-01-30 06:21:20.795640	35.3	12.8	-69.0	0.0
2026-01-30 06:21:21.917098	35.4	12.9	-66.4	0.0
2026-01-30 06:21:23.042068	35.5	12.9	-68.5	0.0
2026-01-30 06:21:24.165636	35.7	13.0	-69.8	0.0
2026-01-30 06:21:25.289377	35.8	13.1	-68.7	0.0
2026-01-30 06:21:26.413719	35.9	13.2	-67.3	0.0
2026-01-30 06:21:27.538445	36.1	13.3	-70.1	0.0
2026-01-30 06:21:28.661343	36.2	13.4	-70.1	0.0
2026-01-30 06:21:29.784187	36.3	13.5	-64.4	0.0
2026-01-30 06:21:30.908717	36.5	13.6	-66.1	0.0
2026-01-30 06:21:32.033049	36.6	13.7	-69.5	0.0
2026-01-30 06:21:33.156809	36.7	13.8	-69.6	0.0
2026-01-30 06:21:34.278865	36.9	13.9	-67.8	0.0
2026-01-30 06:21:35.402177	37.0	13.9	-69.9	0.0
2026-01-30 06:21:36.526230	37.1	14.0	-70.0	0.0
2026-01-30 06:21:37.649114	37.3	14.1	-64.2	0.0
2026-01-30 06:21:38.773497	37.4	14.2	-66.8	0.0
2026-01-30 06:21:39.897455	37.6	14.3	-66.8	0.0
2026-01-30 06:21:41.021817	37.7	14.4	-64.7	0.0
2026-01-30 06:21:42.145168	37.9	14.5	-69.0	0.0
2026-01-30 06:21:43.268403	38.0	14.6	-67.6	0.0
2026-01-30 06:21:44.390909	38.1	14.7	-68.7	0.0
2026-01-30 06:21:45.514489	38.3	14.8	-70.0	0.0
2026-01-30 06:21:46.638654	38.4	14.9	-70.8	0.0
2026-01-30 06:21:47.763010	38.6	15.0	-69.9	0.0
2026-01-30 06:21:48.887872	38.7	15.1	-69.1	0.0
2026-01-30 06:21:50.011907	38.9	15.2	-70.8	0.0
2026-01-30 06:21:51.134091	39.0	15.3	-70.1	0.0
2026-01-30 06:21:52.256707	39.2	15.4	-71.7	0.0
2026-01-30 06:21:53.380641	39.3	15.5	-69.0	0.0
2026-01-30 06:21:54.504633	39.5	15.5	-70.0	0.0
2026-01-30 06:21:55.628112	39.6	15.6	-67.9	0.0
2026-01-30 06:21:56.751931	39.8	15.7	-69.7	0.0
2026-01-30 06:21:57.875641	40.0	15.8	-71.6	0.0
2026-01-30 06:21:59.003209	40.1	15.9	-70.1	0.0
2026-01-30 06:22:00.128980	40.3	16.0	-69.9	0.0
2026-01-30 06:22:01.253064	40.4	16.1	-70.5	0.0
2026-01-30 06:22:02.376169	40.6	16.2	-67.8	0.0
2026-01-30 06:22:03.502836	40.8	16.3	-71.4	0.0
2026-01-30 06:22:04.632201	40.9	16.4	-71.9	0.0
2026-01-30 06:22:05.756244	41.1	16.5	-71.7	0.0
2026-01-30 06:22:06.880289	41.2	16.6	-72.8	0.0
2026-01-30 06:22:08.003166	41.4	16.7	-72.1	0.0
2026-01-30 06:22:09.126548	41.6	16.8	-71.2	0.0
2026-01-30 06:22:10.252977	41.7	16.9	-71.8	0.0
2026-01-30 06:22:11.378938	41.9	17.0	-73.0	0.0
2026-01-30 06:22:12.503071	42.1	17.1	-72.2	0.0
2026-01-30 06:22:13.626852	42.3	17.2	-70.3	0.0
2026-01-30 06:22:14.750793	42.4	17.3	-71.3	0.0
2026-01-30 06:22:15.874159	42.6	17.4	-71.3	0.0
2026-01-30 06:22:16.998891	42.8	17.5	-71.4	0.0
2026-01-30 06:22:18.122347	43.0	17.6	-70.2	0.0
2026-01-30 06:22:19.245644	43.1	17.7	-71.9	0.0
2026-01-30 06:22:20.369906	43.3	17.8	-73.9	0.0
2026-01-30 06:22:21.494328	43.5	17.9	-72.7	0.0
2026-01-30 06:22:22.621026	43.7	18.0	-72.4	0.0
2026-01-30 06:22:23.744989	43.8	18.1	-66.8	0.0
2026-01-30 06:22:24.867421	44.0	18.2	-72.7	0.0
2026-01-30 06:22:25.991918	44.2	18.3	-70.7	0.0
2026-01-30 06:22:27.115158	44.4	18.4	-72.6	0.0
2026-01-30 06:22:28.239081	44.6	18.5	-71.7	0.0
2026-01-30 06:22:29.364898	44.8	18.6	-72.0	0.0
2026-01-30 06:22:30.490096	45.0	18.7	-73.1	0.0
2026-01-30 06:22:31.615490	45.2	18.8	-72.9	0.0
2026-01-30 06:22:32.739431	45.3	18.9	-74.0	1.7
2026-01-30 06:22:33.862180	45.5	19.0	-73.0	0.0
2026-01-30 06:22:34.987607	45.7	19.1	-72.8	0.0
2026-01-30 06:22:36.112406	45.9	19.2	-73.1	0.0
2026-01-30 06:22:37.235380	46.1	19.3	-68.6	0.0
2026-01-30 06:22:38.360261	46.3	19.4	-71.2	0.0
2026-01-30 06:22:39.486225	46.5	19.5	-73.6	0.0
2026-01-30 06:22:40.610055	46.7	19.6	-73.8	1.3
2026-01-30 06:22:41.734638	46.9	19.7	-74.0	0.0
2026-01-30 06:22:42.857791	47.1	19.8	-74.4	1.3
2026-01-30 06:22:43.981942	47.3	19.9	-74.5	0.4
2026-01-30 06:22:45.109023	47.5	20.0	-74.3	1.3
2026-01-30 06:22:46.233013	47.7	20.1	-73.7	0.0
2026-01-30 06:22:47.358244	47.9	20.2	-75.0	0.4
2026-01-30 06:22:48.482067	48.2	20.4	-71.7	0.0
2026-01-30 06:22:49.604735	48.4	20.5	-73.3	0.4
2026-01-30 06:22:50.730681	48.6	20.6	-75.0	4.0
2026-01-30 06:22:51.855620	48.8	20.7	-74.5	0.0
2026-01-30 06:22:52.978334	49.0	20.8	-75.5	0.0
2026-01-30 06:22:54.101116	49.2	20.9	-73.6	1.7
2026-01-30 06:22:55.223418	49.4	21.0	-74.8	1.6
2026-01-30 06:22:56.348566	49.7	21.1	-73.4	0.0
2026-01-30 06:22:57.469966	49.9	21.2	-74.1	0.0
2026-01-30 06:22:58.592919	50.1	21.3	-74.0	0.0
2026-01-30 06:22:59.715086	50.3	21.4	-74.9	2.3
2026-01-30 06:23:00.839000	50.5	21.5	-73.2	0.0
2026-01-30 06:23:01.963136	50.8	21.6	-73.5	0.0
2026-01-30 06:23:03.088001	51.0	21.7	-74.2	2.3
2026-01-30 06:23:04.213252	51.2	21.8	-73.2	0.0
2026-01-30 06:23:05.335652	51.5	21.9	-74.4	0.0
2026-01-30 06:23:06.461219	51.7	22.0	-75.5	1.4
2026-01-30 06:23:07.586273	51.9	22.1	-75.1	0.0
2026-01-30 06:23:08.708588	52.2	22.2	-74.6	1.4
2026-01-30 06:23:09.831685	52.4	22.3	-74.6	0.0
2026-01-30 06:23:10.956401	52.6	22.4	-72.9	0.0
2026-01-30 06:23:12.078543	52.9	22.5	-74.8	2.4
2026-01-30 06:23:13.202882	53.1	22.6	-75.2	1.6
2026-01-30 06:23:14.326279	53.4	22.7	-74.0	3.0
2026-01-30 06:23:15.450423	53.6	22.8	-76.0	2.0
2026-01-30 06:23:16.572840	53.9	22.9	-75.3	0.9
2026-01-30 06:23:17.695816	54.1	23.0	-74.4	3.2
2026-01-30 06:23:18.819890	54.4	23.1	-75.4	0.0
2026-01-30 06:23:19.942073	54.6	23.2	-74.4	2.1
2026-01-30 06:23:21.064553	54.9	23.3	-75.6	1.4
2026-01-30 06:23:22.190992	55.1	23.4	-74.3	2.5
2026-01-30 06:23:23.316926	55.4	23.5	-74.6	1.7
2026-01-30 06:23:24.439964	55.6	23.6	-75.0	0.0
2026-01-30 06:23:25.564537	55.9	23.7	-74.5	3.7
2026-01-30 06:23:26.688562	56.1	23.8	-75.9	4.1
2026-01-30 06:23:27.811101	56.4	23.9	-75.8	4.4
2026-01-30 06:23:28.933253	56.7	24.0	-74.8	2.5
2026-01-30 06:23:30.056994	56.9	24.1	-75.6	5.0
2026-01-30 06:23:31.181891	57.2	24.2	-75.2	2.6
2026-01-30 06:23:32.305585	57.5	24.3	-74.6	2.5
2026-01-30 06:23:33.428129	57.8	24.4	-75.7	4.6
2026-01-30 06:23:34.550845	58.0	24.5	-74.0	2.5
2026-01-30 06:23:35.673593	58.3	24.6	-74.3	3.4
2026-01-30 06:23:36.798374	58.6	24.7	-75.5	4.8
2026-01-30 06:23:37.922131	58.9	24.8	-74.9	2.5
2026-01-30 06:23:39.043795	59.1	24.9	-74.6	2.9
2026-01-30 06:23:40.166284	59.4	25.0	-74.3	1.2
2026-01-30 06:23:41.289104	59.7	25.1	-75.5	2.7
2026-01-30 06:23:42.410294	60.0	25.2	-75.0	5.3
2026-01-30 06:23:43.535470	60.3	25.3	-73.2	2.4
2026-01-30 06:23:44.657894	60.6	25.4	-74.5	1.7
2026-01-30 06:23:45.782203	60.8	25.5	-74.6	3.5
2026-01-30 06:23:46.907559	61.1	25.6	-75.4	3.6
2026-01-30 06:23:48.030516	61.4	25.7	-75.2	4.6
2026-01-30 06:23:49.151152	61.7	25.8	-75.4	4.1
2026-01-30 06:23:50.275202	62.0	25.9	-75.9	5.4
2026-01-30 06:23:51.397760	62.3	26.0	-74.8	3.9
2026-01-30 06:23:52.520490	62.6	26.1	-74.5	0.0
2026-01-30 06:23:53.644671	62.9	26.2	-74.8	3.0
2026-01-30 06:23:54.768382	63.2	26.3	-75.8	5.8
2026-01-30 06:23:55.892385	63.5	26.3	-74.3	0.0
2026-01-30 06:23:57.019566	63.8	26.4	-75.5	4.3
2026-01-30 06:23:58.144766	64.2	26.5	-74.7	2.6
2026-01-30 06:23:59.268711	64.5	26.6	-75.0	5.7
2026-01-30 06:24:00.392681	64.8	26.7	-75.2	5.3
2026-01-30 06:24:01.517204	65.1	26.8	-74.3	3.7
2026-01-30 06:24:02.640469	65.4	26.9	-75.6	5.8
2026-01-30 06:24:03.762624	65.7	27.0	-75.6	4.0
2026-01-30 06:24:04.886106	66.0	27.1	-75.7	6.3
2026-01-30 06:24:06.011053	66.4	27.1	-75.6	5.2
2026-01-30 06:24:07.133739	66.7	27.2	-75.4	4.7
2026-01-30 06:24:08.257436	67.0	27.3	-75.6	3.6
2026-01-30 06:24:09.380165	67.3	27.4	-73.3	0.9
2026-01-30 06:24:10.506052	67.7	27.5	-75.6	5.5
2026-01-30 06:24:11.629661	68.0	27.6	-73.5	0.5
2026-01-30 06:24:12.751900	68.3	27.6	-74.2	3.5
2026-01-30 06:24:13.878258	68.7	27.7	-74.9	5.7
2026-01-30 06:24:15.002893	69.0	27.8	-75.0	4.3
2026-01-30 06:24:16.124151	69.3	27.9	-75.2	5.8
2026-01-30 06:24:17.249631	69.7	28.0	-75.0	4.3
2026-01-30 06:24:18.373130	70.0	28.0	-76.3	4.4
2026-01-30 06:24:19.498037	70.4	28.1	-75.4	6.0
2026-01-30 06:24:20.621964	70.7	28.2	-75.3	5.8
2026-01-30 06:24:21.743813	71.0	28.3	-72.5	3.9
2026-01-30 06:24:22.866244	71.4	28.3	-73.3	0.0
2026-01-30 06:24:23.991445	71.7	28.4	-74.8	4.4
2026-01-30 06:24:25.115830	72.1	28.5	-75.3	7.3
2026-01-30 06:24:26.240762	72.4	28.6	-74.9	4.6
2026-01-30 06:24:27.362383	72.8	28.6	-75.2	3.3
2026-01-30 06:24:28.486518	73.1	28.7	-74.8	5.3
2026-01-30 06:24:29.609586	73.5	28.8	-75.9	7.4
2026-01-30 06:24:30.734360	73.9	28.8	-75.9	7.4
2026-01-30 06:24:31.857814	74.2	28.9	-74.1	3.4
2026-01-30 06:24:32.981432	74.6	29.0	-75.8	6.5
2026-01-30 06:24:34.104864	74.9	29.0	-75.7	6.7
2026-01-30 06:24:35.230200	75.3	29.1	-75.2	7.8
2026-01-30 06:24:36.355142	75.7	29.2	-75.6	6.2
2026-01-30 06:24:37.478622	76.0	29.2	-76.3	8.0
2026-01-30 06:24:38.605083	76.4	29.3	-75.3	5.3
2026-01-30 06:24:39.728431	76.8	29.3	-75.9	6.4
2026-01-30 06:24:40.853768	77.1	29.4	-75.7	8.1
2026-01-30 06:24:41.977049	77.5	29.5	-74.7	5.4
2026-01-30 06:24:43.101584	77.9	29.5	-74.7	1.9
2026-01-30 06:24:44.226531	78.3	29.6	-75.0	5.1
2026-01-30 06:24:45.353203	78.6	29.6	-75.6	7.2
2026-01-30 06:24:46.476564	79.0	29.7	-75.2	6.7
2026-01-30 06:24:47.600523	79.4	29.7	-75.4	6.5
2026-01-30 06:24:48.727152	79.8	29.8	-75.8	6.6
2026-01-30 06:24:49.854167	80.2	29.8	-76.0	8.2
2026-01-30 06:24:50.976153	80.5	29.9	-76.1	5.9
2026-01-30 06:24:52.102481	80.9	29.9	-75.7	6.2
2026-01-30 06:24:53.226646	81.3	30.0	-76.5	7.6
2026-01-30 06:24:54.349413	81.7	30.0	-76.5	6.6
2026-01-30 06:24:55.472843	82.1	30.0	-76.2	7.1
2026-01-30 06:24:56.596913	82.5	30.1	-76.3	4.6
2026-01-30 06:24:57.721156	82.8	30.1	-75.8	6.9
2026-01-30 06:24:58.844162	83.2	30.2	-76.6	9.1
2026-01-30 06:24:59.966679	83.6	30.2	-76.8	4.0
2026-01-30 06:25:01.088652	84.0	30.2	-75.9	5.3
2026-01-30 06:25:02.210719	84.4	30.3	-75.9	6.6
2026-01-30 06:25:03.335583	84.8	30.3	-76.6	6.8
2026-01-30 06:25:04.458973	85.2	30.3	-77.1	8.3
2026-01-30 06:25:05.582419	85.6	30.4	-76.6	6.9
2026-01-30 06:25:06.704949	86.0	30.4	-76.6	6.6
2026-01-30 06:25:07.829652	86.4	30.4	-77.4	8.8
2026-01-30 06:25:08.954052	86.8	30.4	-76.8	7.3
2026-01-30 06:25:10.077570	87.2	30.5	-77.0	6.9
2026-01-30 06:25:11.201049	87.6	30.5	-76.8	7.9
2026-01-30 06:25:12.323682	87.9	30.5	-77.3	9.2
2026-01-30 06:25:13.447223	88.3	30.5	-75.9	5.2
2026-01-30 06:25:14.571251	88.7	30.5	-77.4	8.8
2026-01-30 06:25:15.695298	89.1	30.5	-76.6	7.0
2026-01-30 06:25:16.817015	89.5	30.6	-76.1	6.7
2026-01-30 06:25:17.944197	89.9	30.6	-76.7	7.4
2026-01-30 06:25:19.067632	90.3	30.6	-76.3	6.6
2026-01-30 06:25:20.190120	90.7	30.6	-76.6	6.7
2026-01-30 06:25:21.314411	91.1	30.6	-77.7	8.5
2026-01-30 06:25:22.436193	91.5	30.6	-77.6	9.1
2026-01-30 06:25:23.560368	91.9	30.6	-77.6	9.0
2026-01-30 06:25:24.686590	92.3	30.6	-77.9	10.4
2026-01-30 06:25:25.812403	92.7	30.6	-77.5	8.5
2026-01-30 06:25:26.934230	93.1	30.6	-77.2	9.1
2026-01-30 06:25:28.059279	93.5	30.6	-77.1	8.7
2026-01-30 06:25:29.182646	93.9	30.6	-77.9	9.7
2026-01-30 06:25:30.307758	94.3	30.6	-77.6	8.6
2026-01-30 06:25:31.430681	94.7	30.6	-77.6	9.7
2026-01-30 06:25:32.554722	95.1	30.6	-77.1	8.8
2026-01-30 06:25:33.677233	95.5	30.6	-77.8	10.2
2026-01-30 06:25:34.803037	95.9	30.6	-77.8	9.0
2026-01-30 06:25:35.928486	96.3	30.6	-77.5	7.4
2026-01-30 06:25:37.052507	96.7	30.6	-77.6	9.6
2026-01-30 06:25:38.178701	97.1	30.6	-77.6	7.6
2026-01-30 06:25:39.304740	97.5	30.5	-77.8	9.4
2026-01-30 06:25:40.429643	97.9	30.5	-77.5	9.3
2026-01-30 06:25:41.553638	98.3	30.5	-77.3	8.6
2026-01-30 06:25:42.677628	98.7	30.5	-77.1	8.0
2026-01-30 06:25:43.804905	99.1	30.5	-77.7	10.1
2026-01-30 06:25:44.926646	99.5	30.4	-77.8	10.0
2026-01-30 06:25:46.049933	99.9	30.4	-77.3	8.6
2026-01-30 06:25:47.172965	100.3	30.4	-77.7	9.1
2026-01-30 06:25:48.295250	100.7	30.4	-77.9	9.2
2026-01-30 06:25:49.419648	101.1	30.3	-77.8	9.2
2026-01-30 06:25:50.543110	101.5	30.3	-77.5	9.6
2026-01-30 06:25:51.664553	101.9	30.3	-77.5	9.7
2026-01-30 06:25:52.790175	102.3	30.2	-77.5	9.9
2026-01-30 06:25:53.916192	102.7	30.2	-77.3	9.8
2026-01-30 06:25:55.038379	103.1	30.2	-77.5	9.7
2026-01-30 06:25:56.162931	103.5	30.1	-77.9	9.8
2026-01-30 06:25:57.286010	103.8	30.1	-77.3	9.9
2026-01-30 06:25:58.409081	104.2	30.1	-77.9	11.1
2026-01-30 06:25:59.535017	104.6	30.0	-78.2	11.1
2026-01-30 06:26:00.658237	105.0	30.0	-77.4	11.0
2026-01-30 06:26:01.784185	105.4	29.9	-77.4	10.6
2026-01-30 06:26:02.907159	105.8	29.9	-77.9	11.4
2026-01-30 06:26:04.031747	106.2	29.8	-77.4	10.2
2026-01-30 06:26:05.157725	106.5	29.8	-77.5	10.6
2026-01-30 06:26:06.280939	106.9	29.7	-77.9	10.6
2026-01-30 06:26:07.404773	107.3	29.7	-77.8	10.8
2026-01-30 06:26:08.529838	107.7	29.6	-78.0	10.8
2026-01-30 06:26:09.653685	108.1	29.6	-77.8	10.6
2026-01-30 06:26:10.780928	108.4	29.5	-77.7	10.3
2026-01-30 06:26:11.906690	108.8	29.5	-78.0	11.2
2026-01-30 06:26:13.029380	109.2	29.4	-78.2	10.5
2026-01-30 06:26:14.153829	109.5	29.4	-78.1	10.4
2026-01-30 06:26:15.278978	109.9	29.3	-78.1	9.5
2026-01-30 06:26:16.404308	110.3	29.2	-78.1	9.5
2026-01-30 06:26:17.528675	110.7	29.2	-78.3	10.6
2026-01-30 06:26:18.654990	111.0	29.1	-78.3	10.4
2026-01-30 06:26:19.777794	111.4	29.1	-78.2	10.4
2026-01-30 06:26:20.900702	111.8	29.0	-78.5	10.7
2026-01-30 06:26:22.024853	112.1	28.9	-78.1	10.5
2026-01-30 06:26:23.148638	112.5	28.9	-78.4	11.3
2026-01-30 06:26:24.272103	112.8	28.8	-77.8	9.5
2026-01-30 06:26:25.396509	113.2	28.7	-78.2	10.9
2026-01-30 06:26:26.519437	113.5	28.7	-78.1	9.6
2026-01-30 06:26:27.641916	113.9	28.6	-77.8	9.7
2026-01-30 06:26:28.764970	114.3	28.5	-78.0	9.8
2026-01-30 06:26:29.890362	114.6	28.4	-78.2	11.4
2026-01-30 06:26:31.014519	115.0	28.4	-77.8	10.8
2026-01-30 06:26:32.140344	115.3	28.3	-78.0	10.8
2026-01-30 06:26:33.263688	115.7	28.2	-77.9	10.7
2026-01-30 06:26:34.387250	116.0	28.1	-78.2	10.9
2026-01-30 06:26:35.513886	116.3	28.1	-78.1	11.3
2026-01-30 06:26:36.640853	116.7	28.0	-77.9	9.6
2026-01-30 06:26:37.765872	117.0	27.9	-78.2	10.2
2026-01-30 06:26:38.890329	117.4	27.8	-77.8	9.3
2026-01-30 06:26:40.014872	117.7	27.8	-77.9	8.3
2026-01-30 06:26:41.140339	118.0	27.7	-78.0	10.2
2026-01-30 06:26:42.267359	118.4	27.6	-77.5	8.6
2026-01-30 06:26:43.393882	118.7	27.5	-77.6	10.3
2026-01-30 06:26:44.516341	119.0	27.4	-77.9	10.6
2026-01-30 06:26:45.640886	119.4	27.3	-77.8	10.8
2026-01-30 06:26:46.762314	119.7	27.3	-78.1	10.2
2026-01-30 06:26:47.887489	120.0	27.2	-77.8	9.8
2026-01-30 06:26:49.011757	120.3	27.1	-77.6	10.3
2026-01-30 06:26:50.134627	120.7	27.0	-78.0	10.2
2026-01-30 06:26:51.259280	121.0	26.9	-77.5	9.4
2026-01-30 06:26:52.382964	121.3	26.8	-77.8	9.5
2026-01-30 06:26:53.507220	121.6	26.7	-77.8	10.1
2026-01-30 06:26:54.632931	121.9	26.6	-77.9	9.7
2026-01-30 06:26:55.756270	122.3	26.5	-78.1	10.9
2026-01-30 06:26:56.879751	122.6	26.5	-77.8	9.5
2026-01-30 06:26:58.003579	122.9	26.4	-77.9	8.9
2026-01-30 06:26:59.127278	123.2	26.3	-77.8	8.6
2026-01-30 06:27:00.253014	123.5	26.2	-77.7	8.8
2026-01-30 06:27:01.376121	123.8	26.1	-77.9	9.3
2026-01-30 06:27:02.499694	124.1	26.0	-77.3	8.8
2026-01-30 06:27:03.623776	124.4	25.9	-77.7	8.0
2026-01-30 06:27:04.748636	124.7	25.8	-77.5	7.9
2026-01-30 06:27:05.869917	125.0	25.7	-77.7	9.1
2026-01-30 06:27:06.993774	125.3	25.6	-77.2	7.9
2026-01-30 06:27:08.118269	125.6	25.5	-77.7	8.9
2026-01-30 06:27:09.244525	125.9	25.4	-78.0	9.8
2026-01-30 06:27:10.370280	126.2	25.3	-78.1	9.3
2026-01-30 06:27:11.495455	126.5	25.2	-78.2	8.8
2026-01-30 06:27:12.618558	126.7	25.1	-78.0	8.7
2026-01-30 06:27:13.743305	127.0	25.0	-78.2	9.1
2026-01-30 06:27:14.869395	127.3	24.9	-78.3	9.8
2026-01-30 06:27:15.992792	127.6	24.8	-78.0	9.1
2026-01-30 06:27:17.117821	127.9	24.7	-78.0	9.8
2026-01-30 06:27:18.242785	128.2	24.6	-78.7	9.7
2026-01-30 06:27:19.366354	128.4	24.5	-78.4	9.4
2026-01-30 06:27:20.491283	128.7	24.4	-78.5	8.6
2026-01-30 06:27:21.614260	129.0	24.3	-78.1	9.0
2026-01-30 06:27:22.740294	129.2	24.2	-78.4	8.8
2026-01-30 06:27:23.861888	129.5	24.1	-78.3	9.0
2026-01-30 06:27:24.988697	129.8	24.0	-78.2	8.9
2026-01-30 06:27:26.113286	130.1	23.9	-78.6	10.3
2026-01-30 06:27:27.237318	130.3	23.8	-78.5	9.3
2026-01-30 06:27:28.360626	130.6	23.7	-78.6	9.5
2026-01-30 06:27:29.484740	130.8	23.6	-78.1	9.0
2026-01-30 06:27:30.606217	131.1	23.5	-78.1	9.4
2026-01-30 06:27:31.730783	131.4	23.4	-78.0	8.9
2026-01-30 06:27:32.855331	131.6	23.3	-78.5	9.8
2026-01-30 06:27:33.979027	131.9	23.2	-78.4	9.3
2026-01-30 06:27:35.103686	132.1	23.1	-78.0	8.7
2026-01-30 06:27:36.227198	132.4	23.0	-77.8	9.3
2026-01-30 06:27:37.351644	132.6	22.9	-78.2	8.7
2026-01-30 06:27:38.474528	132.9	22.8	-78.0	8.8
2026-01-30 06:27:39.598618	133.1	22.7	-77.9	9.3
2026-01-30 06:27:40.722585	133.4	22.6	-77.7	9.6
2026-01-30 06:27:41.845646	133.6	22.5	-77.7	9.5
2026-01-30 06:27:42.969540	133.9	22.4	-77.5	9.4
2026-01-30 06:27:44.096552	134.1	22.3	-77.9	10.3
2026-01-30 06:27:45.222666	134.3	22.2	-78.0	10.3
2026-01-30 06:27:46.345935	134.6	22.1	-78.0	9.6
2026-01-30 06:27:47.468110	134.8	22.0	-78.2	9.8
2026-01-30 06:27:48.590041	135.0	21.9	-77.7	9.7
2026-01-30 06:27:49.713002	135.3	21.8	-77.9	10.5
2026-01-30 06:27:50.840423	135.5	21.7	-77.6	9.4
2026-01-30 06:27:51.963078	135.7	21.6	-78.1	9.4
2026-01-30 06:27:53.085743	136.0	21.5	-77.9	9.5
2026-01-30 06:27:54.209649	136.2	21.4	-77.7	9.4
2026-01-30 06:27:55.332306	136.4	21.3	-77.8	9.1
2026-01-30 06:27:56.456396	136.6	21.1	-78.0	9.3
2026-01-30 06:27:57.580247	136.9	21.0	-77.9	9.6
2026-01-30 06:27:58.705577	137.1	20.9	-77.8	9.3
2026-01-30 06:27:59.830593	137.3	20.8	-78.0	9.4
2026-01-30 06:28:00.954012	137.5	20.7	-78.1	9.1
2026-01-30 06:28:02.078962	137.7	20.6	-78.1	10.0
2026-01-30 06:28:03.203435	137.9	20.5	-78.2	9.8
2026-01-30 06:28:04.327333	138.2	20.4	-78.4	9.6
2026-01-30 06:28:05.450514	138.4	20.3	-78.2	9.0
2026-01-30 06:28:06.576594	138.6	20.2	-78.3	8.8
2026-01-30 06:28:07.700565	138.8	20.1	-78.3	9.1
2026-01-30 06:28:08.825426	139.0	20.0	-78.5	9.1
2026-01-30 06:28:09.947389	139.2	19.9	-77.9	9.1
2026-01-30 06:28:11.072506	139.4	19.8	-78.2	9.4
2026-01-30 06:28:12.198233	139.6	19.7	-78.2	8.6
2026-01-30 06:28:13.322849	139.8	19.6	-78.2	9.2
2026-01-30 06:28:14.447428	140.0	19.5	-78.2	8.5
2026-01-30 06:28:15.572191	140.2	19.4	-78.2	8.8
2026-01-30 06:28:16.696239	140.4	19.3	-78.0	9.6
2026-01-30 06:28:17.820498	140.6	19.2	-78.3	8.7
2026-01-30 06:28:18.946251	140.8	19.1	-77.9	6.8
2026-01-30 06:28:20.070360	141.0	19.0	-78.5	8.6
2026-01-30 06:28:21.194996	141.2	18.9	-78.6	8.3
2026-01-30 06:28:22.316510	141.4	18.8	-78.6	8.7
2026-01-30 06:28:23.439993	141.6	18.7	-78.4	8.4
2026-01-30 06:28:24.563966	141.8	18.6	-78.6	7.7
2026-01-30 06:28:25.691678	142.0	18.5	-78.4	7.6
2026-01-30 06:28:26.816886	142.1	18.4	-78.2	7.6
2026-01-30 06:28:27.940298	142.3	18.3	-78.3	8.1
2026-01-30 06:28:29.062955	142.5	18.2	-78.0	8.0
2026-01-30 06:28:30.189608	142.7	18.0	-78.4	8.4
2026-01-30 06:28:31.315357	142.9	17.9	-77.9	7.1
2026-01-30 06:28:32.440383	143.1	17.8	-78.6	8.3
2026-01-30 06:28:33.563874	143.2	17.7	-78.0	6.8
2026-01-30 06:28:34.686070	143.4	17.6	-78.1	6.3
2026-01-30 06:28:35.809672	143.6	17.5	-78.7	7.2
2026-01-30 06:28:36.936118	143.8	17.4	-78.8	7.1
2026-01-30 06:28:38.060077	144.0	17.3	-78.2	6.8
2026-01-30 06:28:39.186265	144.1	17.2	-78.5	6.2
2026-01-30 06:28:40.311394	144.3	17.1	-78.2	6.2
2026-01-30 06:28:41.433134	144.5	17.0	-77.7	4.4
2026-01-30 06:28:42.558414	144.6	16.9	-78.6	6.5
2026-01-30 06:28:43.680236	144.8	16.8	-79.5	6.0
2026-01-30 06:28:44.802160	145.0	16.7	-79.1	6.2
2026-01-30 06:28:45.924202	145.1	16.6	-77.6	4.0
2026-01-30 06:28:47.046403	145.3	16.5	-79.0	5.2
2026-01-30 06:28:48.170644	145.5	16.4	-77.2	3.9
2026-01-30 06:28:49.292460	145.6	16.3	-78.2	4.2
2026-01-30 06:28:50.414480	145.8	16.2	-77.6	4.4
2026-01-30 06:28:51.540043	146.0	16.1	-76.6	4.0
2026-01-30 06:28:52.664588	146.1	16.0	-77.2	4.8
2026-01-30 06:28:53.786858	146.3	16.0	-76.9	2.5
2026-01-30 06:28:54.910254	146.4	15.9	-78.2	4.1
2026-01-30 06:28:56.034169	146.6	15.8	-77.6	2.9
2026-01-30 06:28:57.158076	146.8	15.7	-76.5	0.0
2026-01-30 06:28:58.282884	146.9	15.6	-76.8	1.4
2026-01-30 06:28:59.406918	147.1	15.5	-77.6	3.3
2026-01-30 06:29:00.532436	147.2	15.4	-77.9	3.4
2026-01-30 06:29:01.655659	147.4	15.3	-77.4	3.1
2026-01-30 06:29:02.780049	147.5	15.2	-77.8	1.4
2026-01-30 06:29:03.904315	147.7	15.1	-76.3	1.4
2026-01-30 06:29:05.027076	147.8	15.0	-77.6	2.4
2026-01-30 06:29:06.149642	148.0	14.9	-78.1	3.5
2026-01-30 06:29:07.274001	148.1	14.8	-77.9	2.3
2026-01-30 06:29:08.399466	148.3	14.7	-78.0	4.1
2026-01-30 06:29:09.521753	148.4	14.6	-75.8	0.0
2026-01-30 06:29:10.644964	148.6	14.5	-77.6	0.0
2026-01-30 06:29:11.769477	148.7	14.4	-77.3	2.1
2026-01-30 06:29:12.893794	148.9	14.3	-76.5	1.0
2026-01-30 06:29:14.018249	149.0	14.2	-77.8	2.8
2026-01-30 06:29:15.142738	149.1	14.1	-77.6	4.3
2026-01-30 06:29:16.266547	149.3	14.0	-76.8	3.1
2026-01-30 06:29:17.391404	149.4	13.9	-78.0	3.8
2026-01-30 06:29:18.514863	149.6	13.8	-78.0	3.2
2026-01-30 06:29:19.640408	149.7	13.7	-78.1	4.1
2026-01-30 06:29:20.767212	149.8	13.7	-78.1	5.6
2026-01-30 06:29:21.890911	150.0	13.6	-77.2	0.3
2026-01-30 06:29:23.014539	150.1	13.5	-79.2	4.5
2026-01-30 06:29:24.135963	150.3	13.4	-78.5	4.7
2026-01-30 06:29:25.259647	150.4	13.3	-79.0	4.3
2026-01-30 06:29:26.382484	150.5	13.2	-78.7	3.7
2026-01-30 06:29:27.506367	150.7	13.1	-79.1	6.8
2026-01-30 06:29:28.628483	150.8	13.0	-79.5	5.0
2026-01-30 06:29:29.752246	150.9	12.9	-79.8	4.1
2026-01-30 06:29:30.876669	151.0	12.8	-78.6	4.2
2026-01-30 06:29:32.000374	151.2	12.7	-78.5	5.7
2026-01-30 06:29:33.123950	151.3	12.6	-79.5	3.5
2026-01-30 06:29:34.247024	151.4	12.6	-78.5	4.7
2026-01-30 06:29:35.374433	151.6	12.5	-79.9	5.1
2026-01-30 06:29:36.499506	151.7	12.4	-79.9	5.7
2026-01-30 06:29:37.622437	151.8	12.3	-79.8	7.0
2026-01-30 06:29:38.745642	151.9	12.2	-80.7	4.9
2026-01-30 06:29:39.870089	152.1	12.1	-80.7	4.5
2026-01-30 06:29:40.992614	152.2	12.0	-80.5	6.4
2026-01-30 06:29:42.119548	152.3	11.9	-80.5	3.4
2026-01-30 06:29:43.244215	152.4	11.8	-80.3	4.8
2026-01-30 06:29:44.366344	152.6	11.7	-80.6	4.3
2026-01-30 06:29:45.490677	152.7	11.7	-80.1	4.4
2026-01-30 06:29:46.615515	152.8	11.6	-79.9	5.5
2026-01-30 06:29:47.739393	152.9	11.5	-80.5	5.2
2026-01-30 06:29:48.863289	153.0	11.4	-80.8	5.3
2026-01-30 06:29:49.985699	153.1	11.3	-80.0	5.3
2026-01-30 06:29:51.109315	153.3	11.2	-80.9	5.2
2026-01-30 06:29:52.231210	153.4	11.1	-79.5	4.2
2026-01-30 06:29:53.355638	153.5	11.0	-79.7	6.0
2026-01-30 06:29:54.479735	153.6	11.0	-80.3	6.3
2026-01-30 06:29:55.602650	153.7	10.9	-79.1	5.6
2026-01-30 06:29:56.727269	153.8	10.8	-78.2	4.6
2026-01-30 06:29:57.851157	154.0	10.7	-77.2	0.0
2026-01-30 06:29:58.977113	154.1	10.6	-80.5	3.9
2026-01-30 06:30:00.100267	154.2	10.5	-81.8	0.0
2026-01-30 06:30:01.223560	154.3	10.4	-81.5	0.0
2026-01-30 06:30:02.345868	154.4	10.4	-82.4	0.0
2026-01-30 06:30:03.468253	154.5	10.3	-82.0	0.0
2026-01-30 06:30:04.592408	154.6	10.2	-82.3	0.0
2026-01-30 06:30:05.715961	154.7	10.1	-82.9	0.0
2026-01-30 06:30:06.841593	154.8	10.0	-82.7	0.0
#Closed at: 2026-01-30 06:20:39.921762