passes_logs/2026/01/04/R4.6S_Anadyr_2ch/R4.6S_Anadyr_2ch__20260104_155118_FENGYUN_3D_rec.log

#Pass ID: 20260104_155118_FENGYUN 3D
#Satellite: FENGYUN 3D
#Configuration: FENGYUN 3D
#almurnet v.1.7.20251203
#Start time: 2026-01-04 15:51:22

#Version: 2.2.20231116
#Station: R4.6S_Anadyr_2ch
#Location: 177.4865 lon 64.73178 lat
#TLE: 1 43010U 17072A   25350.96693137  .00000321  00000+0  17364-3 0  9993
#TLE: 2 43010  98.9888 317.3403 0001146 169.6565 190.4634 14.19686173419132

#Time	Az	El	Level	Level2	SNR	BER	BlckErr	Temp	State	Recorded	gain1	gain2
2026-01-04 15:51:22.16	19.72	0.20	-52.2	-63.1	3.3	8.40e-01	0	36	0	0	60	69907
2026-01-04 15:51:23.16	19.76	0.26	-52.1	-64.5	3.6	8.45e-01	0	36	104	0	60	81489
2026-01-04 15:51:24.17	19.79	0.32	-52.4	-64.8	3.6	8.45e-01	0	36	104	0	60	84282
2026-01-04 15:51:25.18	19.82	0.37	-52.9	-65.2	3.6	8.45e-01	0	36	104	0	60	88590
2026-01-04 15:51:26.19	19.85	0.43	-52.3	-64.6	3.6	8.46e-01	0	36	104	0	60	83193
2026-01-04 15:51:27.20	19.89	0.49	-52.0	-64.3	3.6	8.46e-01	0	36	104	0	60	80039
2026-01-04 15:51:28.21	19.92	0.55	-51.8	-64.2	3.6	8.46e-01	0	36	104	0	60	79168
2026-01-04 15:51:29.23	19.95	0.61	-51.8	-64.1	3.6	8.47e-01	0	36	104	0	60	77941
2026-01-04 15:51:30.23	19.99	0.67	-51.8	-64.1	3.6	8.46e-01	0	36	104	0	60	78232
2026-01-04 15:51:31.25	20.02	0.73	-51.7	-64.1	3.6	8.45e-01	0	36	104	0	60	78425
2026-01-04 15:51:32.26	20.06	0.79	-51.7	-64.1	3.6	8.45e-01	0	36	104	0	60	77788
2026-01-04 15:51:33.27	20.09	0.85	-51.7	-64.0	3.6	8.46e-01	0	36	104	0	60	77680
2026-01-04 15:51:34.28	20.12	0.91	-51.6	-63.9	3.6	8.45e-01	0	36	104	0	60	76688
2026-01-04 15:51:35.29	20.16	0.97	-51.5	-63.9	3.6	8.45e-01	0	36	104	0	60	76182
2026-01-04 15:51:36.30	20.19	1.03	-51.4	-63.7	3.6	8.45e-01	0	36	104	0	60	74843
2026-01-04 15:51:37.31	20.23	1.09	-51.3	-63.7	3.6	8.45e-01	0	36	104	0	60	74707
2026-01-04 15:51:38.32	20.26	1.15	-51.1	-63.5	3.6	8.46e-01	0	36	104	0	60	72822
2026-01-04 15:51:39.33	20.30	1.21	-51.1	-63.4	3.6	8.45e-01	0	36	104	0	60	72245
2026-01-04 15:51:40.34	20.33	1.27	-50.9	-63.1	3.6	8.45e-01	0	36	104	0	60	69881
2026-01-04 15:51:41.35	20.37	1.33	-50.5	-62.8	3.6	8.44e-01	0	36	104	0	60	67542
2026-01-04 15:51:42.36	20.40	1.39	-50.4	-62.7	3.6	8.45e-01	0	36	104	0	60	66295
2026-01-04 15:51:43.37	20.44	1.45	-50.3	-62.6	3.6	8.46e-01	0	36	104	0	60	65849
2026-01-04 15:51:44.38	20.47	1.52	-50.3	-62.6	3.6	8.45e-01	0	36	104	0	60	65941
2026-01-04 15:51:45.40	20.51	1.58	-50.3	-62.6	3.6	8.44e-01	0	36	104	0	60	65921
2026-01-04 15:51:46.41	20.54	1.64	-50.3	-62.6	3.6	8.46e-01	0	36	104	0	60	65925
2026-01-04 15:51:47.42	20.58	1.70	-50.3	-62.6	3.6	8.44e-01	0	36	104	0	60	66110
2026-01-04 15:51:48.43	20.61	1.76	-50.3	-62.6	3.6	8.45e-01	0	36	104	0	60	65582
2026-01-04 15:51:49.44	20.65	1.82	-50.3	-62.5	3.6	8.45e-01	0	36	104	0	60	65135
2026-01-04 15:51:50.45	20.68	1.88	-50.3	-62.5	3.6	8.46e-01	0	36	104	0	60	64843
2026-01-04 15:51:51.46	20.72	1.95	-50.3	-62.5	3.6	8.45e-01	0	36	104	0	60	64695
2026-01-04 15:51:52.47	20.76	2.01	-50.3	-62.4	3.6	8.45e-01	0	36	104	0	60	64374
2026-01-04 15:51:53.49	20.79	2.07	-50.3	-62.5	3.6	8.46e-01	0	36	104	0	60	65207
2026-01-04 15:51:54.49	20.83	2.13	-50.3	-62.5	3.6	8.46e-01	0	36	104	0	60	65123
2026-01-04 15:51:55.51	20.87	2.20	-50.3	-62.5	3.6	8.46e-01	0	36	104	0	60	65295
2026-01-04 15:51:56.52	20.90	2.26	-50.3	-62.5	3.6	8.44e-01	0	36	104	0	60	65365
2026-01-04 15:51:57.53	20.94	2.32	-50.3	-62.6	3.6	8.47e-01	0	36	104	0	60	65662
2026-01-04 15:51:58.54	20.98	2.38	-50.3	-62.6	3.6	8.45e-01	0	36	104	0	60	65566
2026-01-04 15:51:59.55	21.02	2.45	-50.3	-62.6	3.6	8.45e-01	0	36	104	0	60	65879
2026-01-04 15:52:00.56	21.05	2.51	-50.3	-62.6	3.6	8.45e-01	0	36	104	0	60	66068
2026-01-04 15:52:01.57	21.09	2.57	-50.3	-62.4	3.6	8.45e-01	0	36	104	0	60	64572
2026-01-04 15:52:02.58	21.13	2.64	-50.3	-61.9	3.6	8.45e-01	0	36	104	0	60	60765
2026-01-04 15:52:03.59	21.17	2.70	-50.2	-60.9	3.6	8.45e-01	0	36	104	0	60	54170
2026-01-04 15:52:04.60	21.20	2.76	-50.1	-60.6	3.6	8.44e-01	0	36	104	0	60	52333
2026-01-04 15:52:05.62	21.24	2.83	-50.1	-59.8	3.7	8.43e-01	0	36	104	0	60	47831
2026-01-04 15:52:06.63	21.28	2.89	-50.0	-59.6	3.9	8.41e-01	0	36	104	0	60	46328
2026-01-04 15:52:07.64	21.32	2.96	-50.2	-60.8	3.6	8.45e-01	0	36	104	0	60	53432
2026-01-04 15:52:08.65	21.36	3.02	-50.2	-61.2	3.6	8.46e-01	0	36	104	0	60	55851
2026-01-04 15:52:09.66	21.40	3.09	-49.8	-58.1	4.8	8.40e-01	0	36	0	0	60	39296
2026-01-04 15:52:10.67	21.43	3.15	-49.0	-53.5	7.5	2.68e-01	0	36	0	3145728	60	23193
2026-01-04 15:52:11.68	21.47	3.21	-47.1	-49.9	11.7	7.53e-03	0	36	0	9437184	60	15185
2026-01-04 15:52:12.69	21.51	3.28	-45.4	-47.3	14.4	1.02e-05	0	36	0	14680064	60	11355
2026-01-04 15:52:13.70	21.55	3.34	-43.0	-44.3	17.5	0.00e+00	0	36	0	20971520	60	8020
2026-01-04 15:52:14.71	21.59	3.41	-42.5	-43.7	18.0	0.00e+00	0	36	0	26214400	60	7462
2026-01-04 15:52:15.73	21.63	3.48	-41.3	-42.3	19.5	0.00e+00	0	36	0	32505856	60	6382
2026-01-04 15:52:16.74	21.67	3.54	-40.2	-41.1	20.3	0.00e+00	0	36	0	37748736	58	6218
2026-01-04 15:52:17.75	21.71	3.61	-40.6	-41.6	20.0	0.00e+00	0	36	0	42991616	58	6572
2026-01-04 15:52:18.76	21.75	3.67	-40.0	-40.9	20.7	0.00e+00	0	36	0	49283072	58	6071
2026-01-04 15:52:19.77	21.79	3.74	-39.9	-40.9	20.7	0.00e+00	0	36	0	54525952	58	6042
2026-01-04 15:52:20.78	21.83	3.80	-40.8	-41.8	19.7	0.00e+00	0	36	0	60817408	58	6698
2026-01-04 15:52:21.79	21.87	3.87	-42.0	-43.1	18.7	0.00e+00	0	36	0	66060288	60	6990
2026-01-04 15:52:22.80	21.91	3.94	-43.1	-44.5	17.0	0.00e+00	0	36	0	71303168	60	8149
2026-01-04 15:52:23.81	21.95	4.00	-45.0	-46.8	14.6	0.00e+00	0	36	0	77594624	60	10623
2026-01-04 15:52:24.83	21.99	4.07	-39.6	-40.5	21.1	0.00e+00	0	36	0	82837504	58	5801
2026-01-04 15:52:25.84	22.04	4.14	-49.1	-54.8	5.7	2.29e-03	0	36	0	89128960	60	26824
2026-01-04 15:52:26.85	22.08	4.20	-49.4	-55.3	5.3	5.95e-05	0	36	0	93323264	60	28314
2026-01-04 15:52:27.86	22.12	4.27	-42.8	-44.0	18.1	0.00e+00	0	37	0	97517568	60	7714
2026-01-04 15:52:28.87	22.16	4.34	-50.1	-60.3	3.6	1.63e-01	0	37	104	101711872	60	50737
2026-01-04 15:52:29.88	22.20	4.40	-42.2	-43.4	19.3	9.10e-06	0	36	0	101711872	60	7178
2026-01-04 15:52:30.89	22.24	4.47	-42.2	-43.3	18.5	0.00e+00	0	36	0	108003328	60	7153
2026-01-04 15:52:31.90	22.29	4.54	-41.2	-42.2	19.3	0.00e+00	0	37	0	113246208	60	6317
2026-01-04 15:52:32.91	22.33	4.61	-41.6	-42.6	19.5	0.00e+00	0	37	0	119537664	60	6593
2026-01-04 15:52:33.92	22.37	4.68	-41.0	-41.9	20.1	0.00e+00	0	36	0	124780544	60	6092
2026-01-04 15:52:34.94	22.41	4.74	-40.6	-41.6	20.2	0.00e+00	0	37	0	131072000	60	5847
2026-01-04 15:52:35.95	22.46	4.81	-40.5	-41.4	20.6	0.00e+00	0	36	0	136314880	60	5730
2026-01-04 15:52:36.96	22.50	4.88	-40.7	-41.6	20.3	0.00e+00	0	36	0	141557760	60	5881
2026-01-04 15:52:37.97	22.54	4.95	-40.9	-41.9	20.5	0.00e+00	0	37	0	147849216	58	6805
2026-01-04 15:52:38.98	22.59	5.02	-39.2	-40.1	21.9	0.00e+00	0	36	0	153092096	58	5528
2026-01-04 15:52:39.99	22.63	5.09	-39.3	-40.2	21.8	0.00e+00	0	37	0	159383552	56	6254
2026-01-04 15:52:41.00	22.67	5.16	-39.3	-40.2	21.9	0.00e+00	0	37	0	164626432	56	6246
2026-01-04 15:52:42.01	22.72	5.23	-39.4	-40.3	21.7	0.00e+00	0	37	0	169869312	56	6320
2026-01-04 15:52:43.02	22.76	5.30	-39.6	-40.5	21.3	0.00e+00	0	36	0	176160768	56	6470
2026-01-04 15:52:44.03	22.81	5.37	-39.0	-39.8	22.4	0.00e+00	0	36	0	181403648	56	5985
2026-01-04 15:52:45.04	22.85	5.44	-38.9	-39.7	22.0	0.00e+00	0	36	0	187695104	56	5919
2026-01-04 15:52:46.06	22.90	5.51	-38.6	-39.4	22.4	0.00e+00	0	37	0	192937984	56	5754
2026-01-04 15:52:47.07	22.94	5.58	-38.3	-39.1	22.8	0.00e+00	0	37	0	198180864	56	5517
2026-01-04 15:52:48.08	22.99	5.65	-38.2	-39.0	22.8	0.00e+00	0	36	0	204472320	54	6108
2026-01-04 15:52:49.09	23.03	5.72	-38.4	-39.2	22.6	0.00e+00	0	36	0	209715200	54	6271
2026-01-04 15:52:50.10	23.08	5.79	-38.6	-39.4	22.5	0.00e+00	0	37	0	216006656	54	6450
2026-01-04 15:52:51.11	23.12	5.86	-38.0	-38.7	23.1	0.00e+00	0	37	0	221249536	54	5956
2026-01-04 15:52:52.12	23.17	5.93	-38.7	-39.5	22.3	0.00e+00	0	36	0	227540992	54	6506
2026-01-04 15:52:53.13	23.21	6.00	-38.7	-39.5	22.4	0.00e+00	0	36	0	232783872	54	6527
2026-01-04 15:52:54.14	23.26	6.07	-38.3	-39.1	22.7	0.00e+00	0	37	0	239075328	54	6231
2026-01-04 15:52:55.16	23.31	6.14	-38.2	-39.0	23.0	0.00e+00	0	36	0	244318208	54	6138
2026-01-04 15:52:56.17	23.35	6.22	-37.9	-38.7	23.3	0.00e+00	0	37	0	249561088	54	5926
2026-01-04 15:52:57.18	23.40	6.29	-38.1	-39.0	22.9	0.00e+00	0	37	0	255852544	54	6104
2026-01-04 15:52:58.19	23.45	6.36	-38.4	-39.2	22.6	0.00e+00	0	37	0	261095424	54	6254
2026-01-04 15:52:59.20	23.50	6.43	-38.2	-39.0	23.0	0.00e+00	0	37	0	267386880	54	6145
2026-01-04 15:53:00.21	23.54	6.51	-38.1	-38.9	23.0	0.00e+00	0	37	0	272629760	54	6036
2026-01-04 15:53:01.22	23.59	6.58	-38.0	-38.8	23.1	0.00e+00	0	37	0	278921216	54	6003
2026-01-04 15:53:02.23	23.64	6.65	-38.2	-38.9	23.0	0.00e+00	0	37	0	284164096	54	6101
2026-01-04 15:53:03.24	23.69	6.72	-37.8	-38.6	23.3	0.00e+00	0	37	0	289406976	54	5862
2026-01-04 15:53:04.26	23.74	6.80	-37.8	-38.6	23.4	0.00e+00	0	37	0	295698432	54	5844
2026-01-04 15:53:05.27	23.78	6.87	-37.7	-38.5	23.4	0.00e+00	0	37	0	300941312	54	5779
2026-01-04 15:53:06.28	23.83	6.95	-37.8	-38.6	23.3	0.00e+00	0	37	0	307232768	54	5872
2026-01-04 15:53:07.29	23.88	7.02	-38.0	-38.8	23.1	0.00e+00	0	37	0	312475648	54	6004
2026-01-04 15:53:08.30	23.93	7.09	-38.0	-38.8	23.2	0.00e+00	0	37	0	317718528	54	5989
2026-01-04 15:53:09.31	23.98	7.17	-37.9	-38.7	23.2	0.00e+00	0	37	0	324009984	54	5930
2026-01-04 15:53:10.32	24.03	7.24	-38.2	-39.0	23.1	0.00e+00	0	37	0	329252864	54	6112
2026-01-04 15:53:11.33	24.08	7.32	-37.8	-38.6	23.4	0.00e+00	0	37	0	335544320	54	5860
2026-01-04 15:53:12.34	24.13	7.39	-37.8	-38.6	23.4	0.00e+00	0	37	0	340787200	54	5830
2026-01-04 15:53:13.36	24.18	7.47	-37.8	-38.6	23.4	0.00e+00	0	37	0	347078656	54	5853
2026-01-04 15:53:14.37	24.23	7.54	-37.8	-38.5	23.6	0.00e+00	0	37	0	352321536	54	5819
2026-01-04 15:53:15.38	24.28	7.62	-37.6	-38.4	23.6	0.00e+00	0	37	0	358612992	54	5743
2026-01-04 15:53:16.39	24.33	7.69	-37.8	-38.6	23.4	0.00e+00	0	37	0	363855872	54	5859
2026-01-04 15:53:17.40	24.39	7.77	-37.9	-38.7	23.4	0.00e+00	0	37	0	369098752	54	5919
2026-01-04 15:53:18.41	24.44	7.85	-37.8	-38.6	23.5	0.00e+00	0	37	0	375390208	54	5834
2026-01-04 15:53:19.42	24.49	7.92	-37.8	-38.5	23.5	0.00e+00	0	37	0	380633088	54	5809
2026-01-04 15:53:20.43	24.54	8.00	-37.5	-38.2	23.8	0.00e+00	0	37	0	386924544	54	5600
2026-01-04 15:53:21.44	24.59	8.08	-37.5	-38.3	23.8	0.00e+00	0	37	0	392167424	54	5650
2026-01-04 15:53:22.46	24.65	8.15	-37.5	-38.3	23.8	0.00e+00	0	37	0	397410304	54	5656
2026-01-04 15:53:23.46	24.70	8.23	-37.6	-38.3	23.7	0.00e+00	0	37	0	403701760	54	5663
2026-01-04 15:53:24.48	24.75	8.31	-37.9	-38.6	23.5	0.00e+00	0	37	0	408944640	54	5885
2026-01-04 15:53:25.49	24.81	8.39	-38.1	-38.8	23.2	0.00e+00	0	37	0	415236096	54	6028
2026-01-04 15:53:26.50	24.86	8.46	-37.3	-38.0	24.0	0.00e+00	0	37	0	420478976	54	5483
2026-01-04 15:53:27.51	24.91	8.54	-37.4	-38.1	23.9	0.00e+00	0	37	0	425721856	54	5555
2026-01-04 15:53:28.52	24.97	8.62	-37.2	-38.0	24.1	0.00e+00	0	37	0	432013312	52	6139
2026-01-04 15:53:29.53	25.02	8.70	-37.5	-38.2	23.9	0.00e+00	0	37	0	437256192	52	6316
2026-01-04 15:53:30.54	25.08	8.78	-37.2	-38.0	24.1	0.00e+00	0	37	0	443547648	52	6113
2026-01-04 15:53:31.56	25.13	8.86	-37.3	-38.0	24.1	0.00e+00	0	37	0	448790528	52	6150
2026-01-04 15:53:32.57	25.19	8.94	-37.5	-38.3	24.0	0.00e+00	0	37	0	455081984	52	6325
2026-01-04 15:53:33.58	25.24	9.02	-37.7	-38.4	23.7	0.00e+00	0	37	0	460324864	52	6425
2026-01-04 15:53:34.59	25.30	9.10	-37.3	-38.0	24.0	0.00e+00	0	37	0	466616320	52	6170
2026-01-04 15:53:35.60	25.36	9.18	-37.5	-38.2	23.9	0.00e+00	0	37	0	471859200	52	6305
2026-01-04 15:53:36.61	25.41	9.26	-37.6	-38.4	23.9	0.00e+00	0	37	0	477102080	52	6391
2026-01-04 15:53:37.62	25.47	9.34	-37.5	-38.2	23.9	0.00e+00	0	37	0	483393536	52	6283
2026-01-04 15:53:38.63	25.53	9.42	-37.3	-38.1	24.1	0.00e+00	0	37	0	488636416	52	6179
2026-01-04 15:53:39.64	25.58	9.50	-37.2	-37.9	24.2	0.00e+00	0	37	0	494927872	52	6074
2026-01-04 15:53:40.65	25.64	9.58	-37.0	-37.8	24.4	0.00e+00	0	37	0	500170752	52	5974
2026-01-04 15:53:41.67	25.70	9.66	-37.1	-37.8	24.3	0.00e+00	0	37	0	505413632	52	6032
2026-01-04 15:53:42.68	25.76	9.74	-37.0	-37.7	24.4	0.00e+00	0	37	0	511705088	52	5960
2026-01-04 15:53:43.69	25.82	9.83	-37.1	-37.8	24.4	0.00e+00	0	37	0	516947968	52	5992
2026-01-04 15:53:44.70	25.88	9.91	-36.9	-37.6	24.5	0.00e+00	0	37	0	523239424	52	5887
2026-01-04 15:53:45.71	25.93	9.99	-37.0	-37.7	24.5	0.00e+00	0	37	0	528482304	52	5903
2026-01-04 15:53:46.72	25.99	10.07	-36.9	-37.6	24.5	0.00e+00	0	37	0	534773760	52	5891
2026-01-04 15:53:47.73	26.05	10.16	-36.9	-37.6	24.6	0.00e+00	0	37	0	540016640	52	5847
2026-01-04 15:53:48.74	26.11	10.24	-36.8	-37.5	24.6	0.00e+00	0	37	0	545259520	52	5792
2026-01-04 15:53:49.75	26.17	10.32	-36.9	-37.6	24.6	0.00e+00	0	37	0	551550976	52	5841
2026-01-04 15:53:50.77	26.24	10.41	-36.6	-37.3	24.8	0.00e+00	0	37	0	556793856	52	5658
2026-01-04 15:53:51.78	26.30	10.49	-36.6	-37.2	24.8	0.00e+00	0	37	0	563085312	52	5619
2026-01-04 15:53:52.79	26.36	10.58	-36.7	-37.4	24.7	0.00e+00	0	37	0	568328192	52	5727
2026-01-04 15:53:53.80	26.42	10.66	-36.9	-37.6	24.5	0.00e+00	0	37	0	574619648	52	5890
2026-01-04 15:53:55.08	26.50	10.77	-36.8	-37.5	24.6	0.00e+00	0	37	0	579862528	52	5793
2026-01-04 15:53:55.80	26.54	10.83	-36.7	-37.3	24.8	0.00e+00	0	37	0	584056832	52	5694
2026-01-04 15:53:57.10	26.62	10.94	-36.5	-37.2	24.9	0.00e+00	0	37	0	591396864	52	5606
2026-01-04 15:53:57.82	26.67	11.00	-36.6	-37.3	24.8	0.00e+00	0	37	0	595591168	52	5683
2026-01-04 15:53:59.12	26.75	11.11	-36.4	-37.1	25.0	0.00e+00	0	37	0	602931200	52	5510
2026-01-04 15:53:59.85	26.80	11.17	-36.6	-37.3	24.8	0.00e+00	0	37	0	607125504	52	5635
2026-01-04 15:54:01.15	26.88	11.28	-36.6	-37.2	24.9	0.00e+00	0	37	0	614465536	52	5625
2026-01-04 15:54:01.87	26.92	11.34	-36.4	-37.1	25.0	0.00e+00	0	37	0	617611264	52	5510
2026-01-04 15:54:03.17	27.01	11.46	-36.4	-37.1	24.9	0.00e+00	0	37	0	624951296	52	5551
2026-01-04 15:54:03.89	27.05	11.52	-36.4	-37.1	25.0	0.00e+00	0	37	0	629145600	52	5511
2026-01-04 15:54:05.19	27.14	11.63	-36.3	-37.0	25.1	0.00e+00	0	37	0	636485632	52	5460
2026-01-04 15:54:05.91	27.18	11.69	-36.4	-37.1	25.0	0.00e+00	0	37	0	640679936	52	5516
2026-01-04 15:54:07.21	27.27	11.81	-36.3	-37.0	25.1	0.00e+00	0	37	0	648019968	52	5487
2026-01-04 15:54:07.93	27.32	11.87	-36.7	-37.4	24.8	0.00e+00	0	37	0	652214272	52	5697
2026-01-04 15:54:09.23	27.40	11.98	-36.6	-37.2	24.9	0.00e+00	0	37	0	659554304	52	5619
2026-01-04 15:54:09.96	27.45	12.05	-36.5	-37.1	25.0	0.00e+00	0	37	0	663748608	52	5560
2026-01-04 15:54:11.26	27.54	12.16	-36.7	-37.4	24.8	0.00e+00	0	37	0	671088640	52	5729
2026-01-04 15:54:11.98	27.59	12.23	-36.9	-37.6	24.6	0.00e+00	0	37	0	675282944	52	5870
2026-01-04 15:54:13.28	27.68	12.34	-36.9	-37.6	24.5	0.00e+00	0	37	0	682622976	52	5841
2026-01-04 15:54:14.00	27.73	12.41	-36.7	-37.4	24.8	0.00e+00	0	37	0	686817280	52	5708
2026-01-04 15:54:15.30	27.81	12.52	-36.7	-37.4	24.7	0.00e+00	0	37	0	694157312	52	5713
2026-01-04 15:54:16.02	27.86	12.59	-36.9	-37.6	24.6	0.00e+00	0	37	0	697303040	52	5839
2026-01-04 15:54:17.32	27.95	12.71	-36.6	-37.3	24.8	0.00e+00	0	37	0	704643072	52	5643
2026-01-04 15:54:18.04	28.00	12.77	-36.8	-37.5	24.8	0.00e+00	0	37	0	708837376	52	5804
2026-01-04 15:54:19.34	28.10	12.89	-36.6	-37.3	24.8	0.00e+00	0	37	0	716177408	52	5676
2026-01-04 15:54:20.07	28.15	12.95	-36.5	-37.3	24.8	0.00e+00	0	37	0	720371712	52	5639
2026-01-04 15:54:21.37	28.24	13.07	-36.5	-37.2	25.0	0.00e+00	0	37	0	727711744	52	5597
2026-01-04 15:54:22.09	28.29	13.14	-36.5	-37.2	25.0	0.00e+00	0	37	0	731906048	52	5611
2026-01-04 15:54:23.39	28.38	13.26	-36.4	-37.1	25.1	0.00e+00	0	37	0	739246080	52	5527
2026-01-04 15:54:24.11	28.44	13.33	-36.2	-36.9	25.2	0.00e+00	0	37	0	743440384	52	5412
2026-01-04 15:54:25.41	28.53	13.45	-36.2	-36.9	25.3	0.00e+00	0	37	0	750780416	52	5428
2026-01-04 15:54:26.13	28.58	13.51	-36.2	-36.9	25.3	0.00e+00	0	37	0	753926144	52	5427
2026-01-04 15:54:27.43	28.68	13.63	-36.2	-36.9	25.2	0.00e+00	0	37	0	761266176	52	5399
2026-01-04 15:54:28.15	28.73	13.70	-36.2	-36.9	25.2	0.00e+00	0	37	0	765460480	52	5427
2026-01-04 15:54:29.45	28.83	13.82	-36.1	-36.8	25.4	0.00e+00	0	37	0	772800512	50	6003
2026-01-04 15:54:30.17	28.88	13.89	-36.2	-36.9	25.3	0.00e+00	0	37	0	776994816	50	6048
2026-01-04 15:54:31.47	28.98	14.01	-36.3	-36.9	25.2	0.00e+00	0	37	0	784334848	50	6098
2026-01-04 15:54:32.20	29.04	14.08	-36.2	-36.8	25.3	0.00e+00	0	37	0	788529152	50	6032
2026-01-04 15:54:33.50	29.14	14.21	-36.0	-36.6	25.6	0.00e+00	0	37	0	795869184	50	5888
2026-01-04 15:54:34.22	29.19	14.28	-36.0	-36.7	25.6	0.00e+00	0	37	0	800063488	50	5920
2026-01-04 15:54:35.52	29.29	14.40	-36.0	-36.6	25.6	0.00e+00	0	37	0	807403520	50	5893
2026-01-04 15:54:36.24	29.35	14.47	-35.9	-36.6	25.7	0.00e+00	0	37	0	811597824	50	5829
2026-01-04 15:54:37.54	29.45	14.60	-35.9	-36.5	25.6	0.00e+00	0	37	0	818937856	50	5823
2026-01-04 15:54:38.26	29.51	14.67	-35.8	-36.5	25.6	0.00e+00	0	37	0	823132160	50	5789
2026-01-04 15:54:39.56	29.61	14.79	-35.8	-36.4	25.7	0.00e+00	0	37	0	830472192	50	5761
2026-01-04 15:54:40.28	29.67	14.86	-35.8	-36.5	25.7	0.00e+00	0	37	0	833617920	50	5809
2026-01-04 15:54:41.58	29.77	14.99	-35.8	-36.5	25.8	0.00e+00	0	37	0	840957952	50	5785
2026-01-04 15:54:42.31	29.83	15.06	-35.9	-36.5	25.6	0.00e+00	0	37	0	845152256	50	5827
2026-01-04 15:54:43.61	29.93	15.19	-35.8	-36.5	25.6	0.00e+00	0	37	0	852492288	50	5810
2026-01-04 15:54:44.33	29.99	15.26	-35.9	-36.5	25.7	0.00e+00	0	37	0	856686592	50	5819
2026-01-04 15:54:45.63	30.10	15.39	-35.5	-36.1	26.0	0.00e+00	0	37	0	864026624	50	5550
2026-01-04 15:54:46.35	30.16	15.46	-35.5	-36.2	25.9	0.00e+00	0	37	0	868220928	50	5569
2026-01-04 15:54:47.65	30.27	15.59	-35.4	-36.1	26.1	0.00e+00	0	37	0	875560960	50	5524
2026-01-04 15:54:48.37	30.33	15.67	-35.4	-36.1	26.0	0.00e+00	0	37	0	879755264	50	5540
2026-01-04 15:54:49.67	30.44	15.80	-35.3	-36.0	26.1	0.00e+00	0	37	0	887095296	50	5472
2026-01-04 15:54:50.39	30.50	15.87	-35.5	-36.2	26.0	0.00e+00	0	37	0	891289600	50	5573
2026-01-04 15:54:51.69	30.61	16.00	-35.5	-36.1	26.1	0.00e+00	0	37	0	898629632	50	5564
2026-01-04 15:54:52.42	30.67	16.08	-35.4	-36.0	26.1	0.00e+00	0	37	0	902823936	50	5490
2026-01-04 15:54:53.72	30.78	16.21	-35.4	-36.0	26.2	0.00e+00	0	37	0	910163968	50	5495
2026-01-04 15:54:54.44	30.85	16.28	-35.4	-36.1	26.1	0.00e+00	0	37	0	914358272	50	5507
2026-01-04 15:54:55.74	30.96	16.42	-35.3	-36.0	26.2	0.00e+00	0	37	0	921698304	50	5470
2026-01-04 15:54:56.46	31.02	16.49	-35.2	-35.8	26.3	0.00e+00	0	37	0	924844032	50	5375
2026-01-04 15:54:57.76	31.14	16.63	-35.3	-36.0	26.2	0.00e+00	0	37	0	932184064	48	6106
2026-01-04 15:54:58.49	31.21	16.70	-35.3	-36.0	26.2	0.00e+00	0	37	0	936378368	48	6116
2026-01-04 15:54:59.79	31.32	16.84	-35.2	-35.9	26.3	0.00e+00	0	37	0	943718400	48	6041
2026-01-04 15:55:00.51	31.39	16.91	-35.3	-35.9	26.2	0.00e+00	0	37	0	947912704	48	6057
2026-01-04 15:55:01.80	31.51	17.05	-35.2	-35.9	26.2	0.00e+00	0	37	0	955252736	48	6043
2026-01-04 15:55:02.53	31.57	17.13	-35.1	-35.8	26.4	0.00e+00	0	37	0	959447040	48	5981
2026-01-04 15:55:03.83	31.69	17.27	-35.2	-35.8	26.4	0.00e+00	0	37	0	966787072	48	6024
2026-01-04 15:55:04.55	31.76	17.34	-35.1	-35.8	26.4	0.00e+00	0	37	0	970981376	48	5993
2026-01-04 15:55:05.85	31.88	17.48	-35.2	-35.9	26.3	0.00e+00	0	37	0	978321408	48	6052
2026-01-04 15:55:06.57	31.95	17.56	-35.1	-35.7	26.5	0.00e+00	0	37	0	981467136	48	5956
2026-01-04 15:55:07.87	32.07	17.70	-35.0	-35.6	26.5	0.00e+00	0	37	0	988807168	48	5896
2026-01-04 15:55:08.59	32.14	17.78	-34.9	-35.6	26.5	0.00e+00	0	37	0	993001472	48	5839
2026-01-04 15:55:09.89	32.27	17.92	-34.8	-35.5	26.6	0.00e+00	0	37	0	1000341504	48	5816
2026-01-04 15:55:10.61	32.34	18.00	-34.7	-35.4	26.7	0.00e+00	0	37	0	1004535808	48	5720
2026-01-04 15:55:11.91	32.46	18.14	-34.6	-35.3	26.8	0.00e+00	0	37	0	1011875840	48	5652
2026-01-04 15:55:12.63	32.54	18.22	-34.7	-35.3	26.7	0.00e+00	0	37	0	1016070144	48	5676
2026-01-04 15:55:13.93	32.66	18.36	-34.5	-35.1	26.8	0.00e+00	0	37	0	1023410176	48	5566
2026-01-04 15:55:14.66	32.74	18.44	-34.6	-35.2	26.9	0.00e+00	0	37	0	1027604480	48	5621
2026-01-04 15:55:15.96	32.87	18.59	-34.6	-35.3	26.7	0.00e+00	0	37	0	1034944512	48	5635
2026-01-04 15:55:16.68	32.94	18.67	-34.7	-35.4	26.8	0.00e+00	0	37	0	1039138816	48	5713
2026-01-04 15:55:17.98	33.07	18.81	-34.5	-35.1	26.8	0.00e+00	0	37	0	1046478848	48	5560
2026-01-04 15:55:18.70	33.15	18.90	-34.7	-35.3	26.8	0.00e+00	0	37	0	1050673152	48	5672
2026-01-04 15:55:20.00	33.28	19.04	-34.6	-35.2	26.8	0.00e+00	0	37	0	1058013184	48	5611
2026-01-04 15:55:20.72	33.36	19.12	-34.6	-35.3	26.8	0.00e+00	0	37	0	1061158912	48	5658
2026-01-04 15:55:22.02	33.49	19.27	-34.7	-35.3	26.7	0.00e+00	0	37	0	1068498944	48	5691
2026-01-04 15:55:22.75	33.57	19.35	-34.6	-35.3	26.8	0.00e+00	0	37	0	1072693248	48	5638
2026-01-04 15:55:24.05	33.71	19.50	-34.6	-35.3	26.8	0.00e+00	0	37	0	1080033280	48	5657
2026-01-04 15:55:24.77	33.78	19.59	-34.5	-35.1	26.9	0.00e+00	0	37	0	1084227584	48	5561
2026-01-04 15:55:26.07	33.93	19.74	-34.5	-35.1	26.9	0.00e+00	0	37	0	1091567616	48	5554
2026-01-04 15:55:26.79	34.00	19.82	-34.6	-35.2	26.9	0.00e+00	0	37	0	1095761920	48	5594
2026-01-04 15:55:28.09	34.15	19.97	-34.4	-35.1	26.9	0.00e+00	0	37	0	1103101952	48	5510
2026-01-04 15:55:28.81	34.23	20.06	-34.4	-35.0	27.0	0.00e+00	0	37	0	1107296256	48	5493
2026-01-04 15:55:30.11	34.37	20.21	-34.4	-35.0	27.0	0.00e+00	0	37	0	1114636288	48	5466
2026-01-04 15:55:30.83	34.45	20.29	-34.4	-35.0	27.0	0.00e+00	0	37	0	1118830592	48	5477
2026-01-04 15:55:32.13	34.60	20.45	-34.4	-35.1	26.9	0.00e+00	0	37	0	1126170624	48	5506
2026-01-04 15:55:32.85	34.68	20.53	-34.6	-35.2	26.8	0.00e+00	0	37	0	1130364928	48	5598
2026-01-04 15:55:34.15	34.83	20.69	-34.4	-35.1	27.0	0.00e+00	0	37	0	1137704960	48	5527
2026-01-04 15:55:34.87	34.91	20.77	-34.4	-35.0	27.0	0.00e+00	0	37	0	1140850688	48	5493
2026-01-04 15:55:36.17	35.06	20.93	-34.6	-35.2	26.8	0.00e+00	0	37	0	1148190720	48	5600
2026-01-04 15:55:36.89	35.15	21.02	-34.5	-35.2	26.9	0.00e+00	0	37	0	1152385024	48	5567
2026-01-04 15:55:38.20	35.30	21.18	-34.6	-35.2	26.8	0.00e+00	0	37	0	1159725056	48	5627
2026-01-04 15:55:38.92	35.39	21.26	-34.7	-35.4	26.7	0.00e+00	0	37	0	1163919360	48	5717
2026-01-04 15:55:40.22	35.54	21.42	-34.5	-35.2	26.9	0.00e+00	0	37	0	1171259392	48	5575
2026-01-04 15:55:40.94	35.63	21.51	-34.5	-35.2	26.8	0.00e+00	0	37	0	1175453696	48	5592
2026-01-04 15:55:42.24	35.79	21.67	-34.5	-35.1	26.9	0.00e+00	0	37	0	1182793728	48	5548
2026-01-04 15:55:42.96	35.88	21.76	-34.6	-35.2	26.9	0.00e+00	0	37	0	1186988032	48	5623
2026-01-04 15:55:44.26	36.04	21.92	-34.4	-35.0	27.0	0.00e+00	0	37	0	1194328064	48	5485
2026-01-04 15:55:44.98	36.13	22.01	-34.3	-34.9	27.1	0.00e+00	0	37	0	1197473792	48	5424
2026-01-04 15:55:46.28	36.29	22.17	-34.3	-34.9	27.1	0.00e+00	0	37	0	1204813824	48	5395
2026-01-04 15:55:47.01	36.38	22.26	-34.3	-35.0	27.0	0.00e+00	0	37	0	1209008128	48	5441
2026-01-04 15:55:48.31	36.55	22.43	-34.2	-34.9	27.2	0.00e+00	0	37	0	1216348160	48	5383
2026-01-04 15:55:49.03	36.64	22.52	-34.3	-34.9	27.1	0.00e+00	0	37	0	1220542464	48	5425
2026-01-04 15:55:50.33	36.81	22.68	-34.2	-34.9	27.1	0.00e+00	0	37	0	1227882496	48	5383
2026-01-04 15:55:51.05	36.90	22.78	-34.2	-34.8	27.2	0.00e+00	0	37	0	1232076800	48	5340
2026-01-04 15:55:52.35	37.08	22.94	-34.1	-34.7	27.2	0.00e+00	0	37	0	1239416832	46	5964
2026-01-04 15:55:53.07	37.17	23.04	-34.1	-34.7	27.2	0.00e+00	0	37	0	1243611136	46	5945
2026-01-04 15:55:54.37	37.34	23.20	-34.0	-34.6	27.4	0.00e+00	0	37	0	1250951168	46	5850
2026-01-04 15:55:55.10	37.44	23.30	-33.9	-34.5	27.3	0.00e+00	0	37	0	1255145472	46	5828
2026-01-04 15:55:56.39	37.62	23.46	-33.7	-34.4	27.5	0.00e+00	0	37	0	1262485504	46	5707
2026-01-04 15:55:57.11	37.72	23.56	-33.9	-34.5	27.6	0.00e+00	0	37	0	1266679808	46	5800
2026-01-04 15:55:58.41	37.90	23.73	-33.8	-34.5	27.5	0.00e+00	0	37	0	1274019840	46	5783
2026-01-04 15:55:59.13	38.00	23.82	-33.9	-34.5	27.5	0.00e+00	0	37	0	1277165568	46	5792
2026-01-04 15:56:00.43	38.18	24.00	-33.9	-34.5	27.5	0.00e+00	0	37	0	1284505600	46	5797
2026-01-04 15:56:01.16	38.28	24.09	-33.8	-34.4	27.5	0.00e+00	0	37	0	1288699904	46	5746
2026-01-04 15:56:02.46	38.47	24.26	-33.7	-34.4	27.6	0.00e+00	0	37	0	1296039936	46	5710
2026-01-04 15:56:03.18	38.57	24.36	-33.7	-34.4	27.6	0.00e+00	0	37	0	1300234240	46	5714
2026-01-04 15:56:04.48	38.76	24.53	-33.6	-34.2	27.7	0.00e+00	0	37	0	1307574272	46	5614
2026-01-04 15:56:05.20	38.87	24.63	-33.6	-34.3	27.6	0.00e+00	0	37	0	1311768576	46	5647
2026-01-04 15:56:06.50	39.06	24.81	-33.5	-34.1	27.8	0.00e+00	0	37	0	1319108608	46	5544
2026-01-04 15:56:07.22	39.17	24.90	-33.5	-34.1	27.7	0.00e+00	0	37	0	1323302912	46	5517
2026-01-04 15:56:08.53	39.36	25.08	-33.4	-34.0	27.8	0.00e+00	0	37	0	1330642944	46	5497
2026-01-04 15:56:09.25	39.47	25.18	-33.3	-34.0	27.9	0.00e+00	0	37	0	1334837248	46	5445
2026-01-04 15:56:10.55	39.67	25.36	-33.2	-33.8	28.1	0.00e+00	0	37	0	1342177280	46	5365
2026-01-04 15:56:11.27	39.78	25.46	-33.1	-33.7	28.1	0.00e+00	0	37	0	1346371584	44	5925
2026-01-04 15:56:12.57	39.98	25.64	-33.2	-33.8	28.0	0.00e+00	0	37	0	1353711616	44	5990
2026-01-04 15:56:13.29	40.10	25.74	-33.3	-33.9	27.9	0.00e+00	0	37	0	1357905920	44	6083
2026-01-04 15:56:14.59	40.30	25.92	-33.4	-34.0	27.9	0.00e+00	0	37	0	1365245952	44	6152
2026-01-04 15:56:15.31	40.42	26.02	-33.3	-33.9	27.9	0.00e+00	0	37	0	1368391680	44	6076
2026-01-04 15:56:16.61	40.63	26.20	-33.4	-34.0	27.8	0.00e+00	0	37	0	1375731712	44	6162
2026-01-04 15:56:17.33	40.74	26.30	-33.4	-34.1	27.8	0.00e+00	0	37	0	1379926016	44	6174
2026-01-04 15:56:18.64	40.96	26.49	-33.4	-34.0	27.9	0.00e+00	0	37	0	1387266048	44	6158
2026-01-04 15:56:19.36	41.08	26.59	-33.4	-34.0	28.0	0.00e+00	0	37	0	1391460352	44	6119
2026-01-04 15:56:20.66	41.29	26.77	-33.4	-34.1	27.9	0.00e+00	0	37	0	1398800384	44	6201
2026-01-04 15:56:21.38	41.41	26.88	-33.5	-34.1	27.8	0.00e+00	0	37	0	1402994688	44	6220
2026-01-04 15:56:22.68	41.64	27.06	-33.4	-34.1	27.9	0.00e+00	0	37	0	1410334720	44	6178
2026-01-04 15:56:23.40	41.76	27.17	-33.3	-34.0	28.0	0.00e+00	0	37	0	1414529024	44	6104
2026-01-04 15:56:24.70	41.98	27.35	-33.4	-34.0	28.0	0.00e+00	0	37	0	1421869056	44	6144
2026-01-04 15:56:25.43	42.11	27.46	-33.2	-33.8	28.1	0.00e+00	0	37	0	1425014784	44	6000
2026-01-04 15:56:26.73	42.34	27.65	-33.0	-33.5	28.3	0.00e+00	0	37	0	1432354816	44	5828
2026-01-04 15:56:27.45	42.47	27.75	-33.0	-33.6	28.3	0.00e+00	0	37	0	1436549120	44	5839
2026-01-04 15:56:28.75	42.70	27.94	-33.0	-33.6	28.2	0.00e+00	0	37	0	1443889152	44	5886
2026-01-04 15:56:29.47	42.83	28.05	-33.1	-33.7	28.1	0.00e+00	0	37	0	1448083456	44	5964
2026-01-04 15:56:30.77	43.07	28.24	-33.0	-33.6	28.3	0.00e+00	0	37	0	1455423488	44	5847
2026-01-04 15:56:31.49	43.20	28.35	-32.9	-33.6	28.3	0.00e+00	0	37	0	1459617792	44	5841
2026-01-04 15:56:32.79	43.44	28.54	-33.1	-33.7	28.1	0.00e+00	0	37	0	1466957824	44	5935
2026-01-04 15:56:33.51	43.57	28.65	-33.2	-33.8	28.0	0.00e+00	0	37	0	1471152128	44	5987
2026-01-04 15:56:34.81	43.82	28.84	-33.2	-33.8	27.9	0.00e+00	0	37	0	1478492160	44	6003
2026-01-04 15:56:35.53	43.96	28.95	-33.2	-33.9	27.8	0.00e+00	0	37	0	1482686464	44	6044
2026-01-04 15:56:36.83	44.21	29.14	-33.1	-33.7	28.0	0.00e+00	0	37	0	1490026496	44	5943
2026-01-04 15:56:37.56	44.35	29.25	-33.1	-33.7	28.0	0.00e+00	0	37	0	1494220800	44	5929
2026-01-04 15:56:38.86	44.60	29.45	-33.0	-33.6	28.1	0.00e+00	0	37	0	1501560832	44	5882
2026-01-04 15:56:39.58	44.75	29.56	-33.1	-33.7	28.2	0.00e+00	0	37	0	1504706560	44	5954
2026-01-04 15:56:40.88	45.01	29.76	-33.1	-33.7	28.1	0.00e+00	0	37	0	1512046592	44	5943
2026-01-04 15:56:41.60	45.15	29.87	-33.2	-33.8	28.0	0.00e+00	0	37	0	1516240896	44	5986
2026-01-04 15:56:42.90	45.42	30.06	-33.0	-33.6	28.1	0.00e+00	0	37	0	1523580928	44	5891
2026-01-04 15:56:43.62	45.56	30.17	-33.0	-33.7	28.2	0.00e+00	0	37	0	1527775232	44	5904
2026-01-04 15:56:44.93	45.83	30.38	-33.0	-33.6	28.2	0.00e+00	0	37	0	1535115264	44	5867
2026-01-04 15:56:45.65	45.99	30.49	-33.0	-33.5	28.2	0.00e+00	0	37	0	1539309568	44	5822
2026-01-04 15:56:46.95	46.26	30.69	-33.0	-33.6	28.2	0.00e+00	0	37	0	1546649600	44	5877
2026-01-04 15:56:47.67	46.41	30.80	-33.0	-33.6	28.2	0.00e+00	0	37	0	1550843904	44	5881
2026-01-04 15:56:48.97	46.69	31.00	-33.0	-33.6	28.2	0.00e+00	0	37	0	1558183936	44	5896
2026-01-04 15:56:49.69	46.85	31.11	-33.1	-33.7	28.2	0.00e+00	0	37	0	1562378240	44	5931
2026-01-04 15:56:50.99	47.14	31.32	-33.3	-33.9	28.0	0.00e+00	0	37	0	1569718272	44	6092
2026-01-04 15:56:51.71	47.30	31.43	-33.4	-34.0	28.0	0.00e+00	0	37	0	1573912576	44	6157
2026-01-04 15:56:53.01	47.59	31.63	-33.5	-34.1	28.0	0.00e+00	0	37	0	1581252608	44	6239
2026-01-04 15:56:53.74	47.75	31.75	-33.2	-33.8	28.0	0.00e+00	0	37	0	1584398336	44	6027
2026-01-04 15:56:55.04	48.05	31.95	-33.4	-34.0	28.1	0.00e+00	0	37	0	1591738368	44	6120
2026-01-04 15:56:55.76	48.21	32.07	-33.2	-33.8	28.0	0.00e+00	0	37	0	1595932672	44	6007
2026-01-04 15:56:57.06	48.52	32.27	-33.0	-33.7	28.1	0.00e+00	0	37	0	1603272704	44	5912
2026-01-04 15:56:57.78	48.68	32.39	-32.9	-33.5	28.1	0.00e+00	0	37	0	1607467008	44	5773
2026-01-04 15:56:59.08	48.99	32.59	-32.9	-33.6	28.2	0.00e+00	0	37	0	1614807040	44	5831
2026-01-04 15:56:59.80	49.16	32.71	-32.9	-33.5	28.2	0.00e+00	0	37	0	1619001344	44	5817
2026-01-04 15:57:01.10	49.48	32.92	-32.9	-33.5	28.2	0.00e+00	0	37	0	1626341376	44	5788
2026-01-04 15:57:01.82	49.65	33.03	-32.9	-33.5	28.3	0.00e+00	0	37	0	1630535680	44	5807
2026-01-04 15:57:03.12	49.98	33.24	-33.1	-33.7	28.2	0.00e+00	0	37	0	1637875712	44	5955
2026-01-04 15:57:03.85	50.16	33.36	-33.1	-33.8	28.1	0.00e+00	0	37	0	1642070016	44	5972
2026-01-04 15:57:05.14	50.48	33.56	-33.0	-33.6	28.2	0.00e+00	0	37	0	1649410048	44	5889
2026-01-04 15:57:05.87	50.67	33.68	-33.0	-33.6	28.2	0.00e+00	0	37	0	1652555776	44	5887
2026-01-04 15:57:07.17	51.00	33.89	-32.8	-33.4	28.3	0.00e+00	0	37	0	1659895808	44	5752
2026-01-04 15:57:07.89	51.19	34.01	-32.7	-33.3	28.4	0.00e+00	0	37	0	1664090112	44	5690
2026-01-04 15:57:09.19	51.53	34.22	-32.7	-33.3	28.3	0.00e+00	0	37	0	1671430144	44	5663
2026-01-04 15:57:09.91	51.72	34.33	-32.7	-33.3	28.4	0.00e+00	0	37	0	1675624448	44	5653
2026-01-04 15:57:11.21	52.06	34.55	-32.8	-33.4	28.3	0.00e+00	0	37	0	1682964480	44	5749
2026-01-04 15:57:11.94	52.26	34.66	-32.8	-33.5	28.3	0.00e+00	0	37	0	1687158784	44	5789
2026-01-04 15:57:13.23	52.61	34.87	-32.9	-33.6	28.2	0.00e+00	0	37	0	1694498816	44	5845
2026-01-04 15:57:13.96	52.81	34.99	-32.9	-33.6	28.2	0.00e+00	0	37	0	1698693120	44	5842
2026-01-04 15:57:15.26	53.17	35.20	-32.9	-33.6	28.2	0.00e+00	0	37	0	1706033152	44	5839
2026-01-04 15:57:15.98	53.37	35.32	-33.2	-33.8	28.1	0.00e+00	0	37	0	1710227456	44	5992
2026-01-04 15:57:17.28	53.74	35.53	-33.0	-33.6	28.2	0.00e+00	0	37	0	1717567488	44	5883
2026-01-04 15:57:18.00	53.95	35.65	-32.8	-33.4	28.4	0.00e+00	0	37	0	1721761792	44	5707
2026-01-04 15:57:19.30	54.32	35.86	-32.7	-33.3	28.4	0.00e+00	0	37	0	1729101824	44	5676
2026-01-04 15:57:20.02	54.53	35.98	-32.6	-33.2	28.5	0.00e+00	0	37	0	1732247552	44	5613
2026-01-04 15:57:21.32	54.92	36.19	-32.7	-33.3	28.3	0.00e+00	0	37	0	1739587584	44	5684
2026-01-04 15:57:22.05	55.13	36.31	-32.9	-33.5	28.2	0.00e+00	0	37	0	1743781888	44	5796
2026-01-04 15:57:23.35	55.52	36.52	-32.8	-33.4	28.2	0.00e+00	0	37	0	1751121920	44	5747
2026-01-04 15:57:24.07	55.74	36.64	-32.9	-33.5	28.2	0.00e+00	0	37	0	1755316224	44	5814
2026-01-04 15:57:25.37	56.14	36.85	-32.7	-33.3	28.5	0.00e+00	0	37	0	1762656256	44	5643
2026-01-04 15:57:26.09	56.36	36.97	-32.5	-33.2	28.6	0.00e+00	0	37	0	1766850560	44	5581
2026-01-04 15:57:27.39	56.77	37.18	-32.5	-33.1	28.6	0.00e+00	0	37	0	1774190592	44	5537
2026-01-04 15:57:28.11	57.00	37.30	-32.5	-33.1	28.5	0.00e+00	0	37	0	1778384896	44	5539
2026-01-04 15:57:29.41	57.41	37.51	-32.4	-33.1	28.7	0.00e+00	0	37	0	1785724928	44	5508
2026-01-04 15:57:30.13	57.64	37.63	-32.4	-33.1	28.6	0.00e+00	0	37	0	1789919232	44	5506
2026-01-04 15:57:31.43	58.07	37.84	-32.6	-33.3	28.5	0.00e+00	0	37	0	1797259264	44	5655
2026-01-04 15:57:32.16	58.31	37.96	-32.8	-33.4	28.3	0.00e+00	0	37	0	1801453568	44	5722
2026-01-04 15:57:33.46	58.74	38.17	-32.8	-33.4	28.4	0.00e+00	0	37	0	1808793600	44	5748
2026-01-04 15:57:34.18	58.98	38.28	-32.6	-33.2	28.5	0.00e+00	0	37	0	1811939328	44	5603
2026-01-04 15:57:35.48	59.42	38.49	-32.5	-33.2	28.6	0.00e+00	0	37	0	1819279360	44	5596
2026-01-04 15:57:36.20	59.67	38.61	-32.4	-33.0	28.6	0.00e+00	0	37	0	1823473664	44	5464
2026-01-04 15:57:37.50	60.11	38.81	-32.5	-33.1	28.6	0.00e+00	0	37	0	1830813696	44	5540
2026-01-04 15:57:38.22	60.37	38.93	-32.6	-33.2	28.5	0.00e+00	0	37	0	1835008000	44	5592
2026-01-04 15:57:39.52	60.82	39.14	-32.5	-33.1	28.6	0.00e+00	0	37	0	1842348032	44	5562
2026-01-04 15:57:40.25	61.08	39.25	-32.5	-33.1	28.6	0.00e+00	0	37	0	1846542336	44	5562
2026-01-04 15:57:41.54	61.55	39.46	-32.7	-33.3	28.4	0.00e+00	0	37	0	1853882368	44	5648
2026-01-04 15:57:42.27	61.81	39.57	-32.8	-33.5	28.4	0.00e+00	0	37	0	1858076672	44	5767
2026-01-04 15:57:43.57	62.29	39.78	-32.7	-33.3	28.4	0.00e+00	0	37	0	1865416704	44	5688
2026-01-04 15:57:44.29	62.55	39.89	-32.7	-33.3	28.4	0.00e+00	0	37	0	1869611008	44	5659
2026-01-04 15:57:45.59	63.04	40.09	-32.7	-33.3	28.3	0.00e+00	0	37	0	1875902464	44	5686
2026-01-04 15:57:46.31	63.31	40.21	-32.7	-33.4	28.3	0.00e+00	0	37	0	1880096768	44	5703
2026-01-04 15:57:47.61	63.80	40.41	-32.7	-33.3	28.3	0.00e+00	0	37	0	1887436800	44	5685
2026-01-04 15:57:48.33	64.08	40.52	-32.8	-33.4	28.4	0.00e+00	0	37	0	1891631104	44	5746
2026-01-04 15:57:49.63	64.58	40.72	-32.7	-33.3	28.4	0.00e+00	0	37	0	1898971136	44	5673
2026-01-04 15:57:50.36	64.87	40.83	-32.7	-33.3	28.3	0.00e+00	0	37	0	1903165440	44	5677
2026-01-04 15:57:51.66	65.38	41.03	-32.7	-33.4	28.3	0.00e+00	0	37	0	1910505472	44	5711
2026-01-04 15:57:52.38	65.67	41.13	-32.6	-33.2	28.5	0.00e+00	0	37	0	1914699776	44	5607
2026-01-04 15:57:53.68	66.19	41.33	-32.7	-33.4	28.4	0.00e+00	0	37	0	1922039808	44	5704
2026-01-04 15:57:54.40	66.49	41.44	-32.8	-33.4	28.3	0.00e+00	0	37	0	1926234112	44	5710
2026-01-04 15:57:55.70	67.02	41.63	-32.6	-33.2	28.5	0.00e+00	0	37	0	1933574144	44	5590
2026-01-04 15:57:56.42	67.32	41.73	-32.5	-33.1	28.6	0.00e+00	0	37	0	1937768448	44	5516
2026-01-04 15:57:57.72	67.86	41.92	-32.5	-33.1	28.6	0.00e+00	0	37	0	1945108480	44	5551
2026-01-04 15:57:58.44	68.16	42.03	-32.4	-33.0	28.7	0.00e+00	0	37	0	1949302784	44	5501
2026-01-04 15:57:59.74	68.72	42.22	-32.5	-33.1	28.7	0.00e+00	0	37	0	1956642816	44	5552
2026-01-04 15:58:00.46	69.03	42.32	-32.5	-33.1	28.6	0.00e+00	0	37	0	1959788544	44	5551
2026-01-04 15:58:01.76	69.59	42.50	-32.5	-33.1	28.6	0.00e+00	0	37	0	1967128576	44	5563
2026-01-04 15:58:02.48	69.90	42.60	-32.7	-33.3	28.4	0.00e+00	0	37	0	1971322880	44	5655
2026-01-04 15:58:03.79	70.48	42.78	-32.5	-33.2	28.6	0.00e+00	0	37	0	1978662912	44	5567
2026-01-04 15:58:04.51	70.80	42.88	-32.5	-33.1	28.6	0.00e+00	0	37	0	1982857216	44	5523
2026-01-04 15:58:05.81	71.38	43.06	-32.6	-33.2	28.5	0.00e+00	0	37	0	1990197248	44	5617
2026-01-04 15:58:06.53	71.71	43.16	-32.5	-33.1	28.5	0.00e+00	0	37	0	1994391552	44	5541
2026-01-04 15:58:07.83	72.30	43.33	-32.8	-33.4	28.3	0.00e+00	0	37	0	2001731584	44	5734
2026-01-04 15:58:08.55	72.63	43.42	-32.8	-33.5	28.3	0.00e+00	0	37	0	2005925888	44	5764
2026-01-04 15:58:09.85	73.23	43.59	-32.9	-33.5	28.3	0.00e+00	0	37	0	2013265920	44	5781
2026-01-04 15:58:10.57	73.57	43.68	-32.9	-33.5	28.3	0.00e+00	0	37	0	2017460224	44	5802
2026-01-04 15:58:11.87	74.18	43.85	-33.0	-33.7	28.1	0.00e+00	0	37	0	2024800256	44	5913
2026-01-04 15:58:12.60	74.53	43.94	-32.8	-33.4	28.3	0.00e+00	0	37	0	2028994560	44	5760
2026-01-04 15:58:13.90	75.15	44.10	-32.7	-33.4	28.3	0.00e+00	0	37	0	2036334592	44	5699
2026-01-04 15:58:14.62	75.49	44.19	-32.9	-33.5	28.3	0.00e+00	0	37	0	2039480320	44	5793
2026-01-04 15:58:15.92	76.13	44.34	-33.1	-33.8	28.0	0.00e+00	0	37	0	2046820352	44	5975
2026-01-04 15:58:16.64	76.48	44.43	-33.8	-34.5	27.6	0.00e+00	0	37	0	2051014656	44	6472
2026-01-04 15:58:17.94	77.12	44.58	-33.7	-34.4	27.7	0.00e+00	0	37	0	2058354688	44	6400
2026-01-04 15:58:18.66	77.48	44.66	-33.4	-34.0	27.9	0.00e+00	0	37	0	2062548992	44	6124
2026-01-04 15:58:19.96	78.13	44.80	-33.0	-33.6	28.3	0.00e+00	0	37	0	2069889024	44	5879
2026-01-04 15:58:20.68	78.49	44.88	-33.2	-33.8	28.1	0.00e+00	0	37	0	2074083328	44	5992
2026-01-04 15:58:21.98	79.15	45.02	-32.8	-33.5	28.3	0.00e+00	0	37	0	2081423360	44	5766
2026-01-04 15:58:22.71	79.52	45.10	-32.9	-33.5	28.3	0.00e+00	0	37	0	2085617664	44	5772
2026-01-04 15:58:24.01	80.19	45.23	-32.8	-33.4	28.4	0.00e+00	0	37	0	2092957696	44	5727
2026-01-04 15:58:24.73	80.56	45.30	-32.8	-33.4	28.3	0.00e+00	0	37	0	2096103424	44	5742
2026-01-04 15:58:26.03	81.23	45.43	-32.8	-33.4	28.3	0.00e+00	0	37	0	2103443456	44	5735
2026-01-04 15:58:26.75	81.61	45.50	-32.9	-33.5	28.2	0.00e+00	0	37	0	2107637760	44	5815
2026-01-04 15:58:28.05	82.30	45.62	-33.1	-33.7	28.2	0.00e+00	0	37	0	2114977792	44	5911
2026-01-04 15:58:28.77	82.68	45.69	-33.2	-33.9	28.0	0.00e+00	0	37	0	2119172096	44	6083
2026-01-04 15:58:30.08	83.37	45.80	-33.3	-34.0	27.9	0.00e+00	0	37	0	2126512128	44	6131
2026-01-04 15:58:30.80	83.76	45.86	-33.1	-33.6	28.1	0.00e+00	0	37	0	2130706432	44	5885
2026-01-04 15:58:32.10	84.46	45.97	-32.9	-33.5	28.2	0.00e+00	0	37	0	2138046464	44	5820
2026-01-04 15:58:32.82	84.85	46.03	-32.9	-33.5	28.2	0.00e+00	0	37	0	2142240768	44	5811
2026-01-04 15:58:34.12	85.56	46.13	-32.8	-33.4	28.3	0.00e+00	0	37	0	2149580800	44	5707
2026-01-04 15:58:34.84	85.95	46.19	-32.9	-33.5	28.2	0.00e+00	0	37	0	2153775104	44	5795
2026-01-04 15:58:36.14	86.67	46.28	-33.4	-34.0	27.9	0.00e+00	0	37	0	2161115136	44	6119
2026-01-04 15:58:36.86	87.06	46.33	-33.2	-33.8	28.0	0.00e+00	0	37	0	2165309440	44	6005
2026-01-04 15:58:38.16	87.78	46.42	-33.0	-33.6	28.2	0.00e+00	0	37	0	2172649472	44	5874
2026-01-04 15:58:38.88	88.18	46.47	-32.8	-33.4	28.4	0.00e+00	0	37	0	2175795200	44	5753
2026-01-04 15:58:40.19	88.92	46.55	-32.7	-33.4	28.4	0.00e+00	0	37	0	2183135232	44	5701
2026-01-04 15:58:40.91	89.32	46.59	-32.7	-33.4	28.4	0.00e+00	0	37	0	2187329536	44	5726
2026-01-04 15:58:42.21	90.05	46.66	-32.7	-33.3	28.5	0.00e+00	0	37	0	2194669568	44	5636
2026-01-04 15:58:42.93	90.46	46.70	-32.8	-33.4	28.4	0.00e+00	0	37	0	2198863872	44	5716
2026-01-04 15:58:44.23	91.20	46.76	-33.1	-33.7	28.1	0.00e+00	0	37	0	2206203904	44	5929
2026-01-04 15:58:44.95	91.61	46.80	-33.2	-33.8	28.1	0.00e+00	0	37	0	2210398208	44	5993
2026-01-04 15:58:46.25	92.35	46.86	-33.0	-33.6	28.2	0.00e+00	0	37	0	2217738240	44	5874
2026-01-04 15:58:46.97	92.76	46.88	-33.1	-33.8	28.2	0.00e+00	0	37	0	2221932544	44	5977
2026-01-04 15:58:48.27	93.50	46.93	-32.9	-33.5	28.2	0.00e+00	0	37	0	2229272576	44	5813
2026-01-04 15:58:48.99	93.92	46.96	-33.1	-33.7	28.2	0.00e+00	0	37	0	2233466880	44	5946
2026-01-04 15:58:50.29	94.67	47.00	-33.1	-33.8	28.1	0.00e+00	0	37	0	2240806912	44	6013
2026-01-04 15:58:51.02	95.09	47.02	-33.2	-33.8	28.0	0.00e+00	0	37	0	2245001216	44	6017
2026-01-04 15:58:52.32	95.84	47.05	-32.8	-33.4	28.4	0.00e+00	0	37	0	2252341248	44	5746
2026-01-04 15:58:53.04	96.26	47.07	-32.8	-33.4	28.4	0.00e+00	0	37	0	2256535552	44	5739
2026-01-04 15:58:54.34	97.01	47.10	-32.6	-33.3	28.4	0.00e+00	0	37	0	2263875584	44	5639
2026-01-04 15:58:55.06	97.43	47.11	-32.8	-33.5	28.4	0.00e+00	0	37	0	2267021312	44	5777
2026-01-04 15:58:56.36	98.18	47.12	-33.1	-33.7	28.1	0.00e+00	0	37	0	2274361344	44	5920
2026-01-04 15:58:57.08	98.60	47.13	-33.1	-33.7	28.2	0.00e+00	0	37	0	2278555648	44	5935
2026-01-04 15:58:58.38	99.36	47.14	-32.9	-33.5	28.2	0.00e+00	0	37	0	2285895680	44	5781
2026-01-04 15:58:59.11	99.78	47.14	-33.1	-33.7	28.1	0.00e+00	0	37	0	2290089984	44	5939
2026-01-04 15:59:00.41	100.54	47.14	-33.1	-33.8	28.1	0.00e+00	0	37	0	2297430016	44	5972
2026-01-04 15:59:01.13	100.96	47.14	-33.0	-33.6	28.2	0.00e+00	0	37	0	2301624320	44	5888
2026-01-04 15:59:02.43	101.72	47.13	-32.6	-33.3	28.4	0.00e+00	0	37	0	2308964352	44	5678
2026-01-04 15:59:03.15	102.14	47.12	-32.7	-33.4	28.4	0.00e+00	0	37	0	2313158656	44	5714
2026-01-04 15:59:04.45	102.89	47.11	-32.8	-33.4	28.3	0.00e+00	0	37	0	2320498688	44	5758
2026-01-04 15:59:05.17	103.31	47.10	-33.0	-33.6	28.3	0.00e+00	0	37	0	2323644416	44	5850
2026-01-04 15:59:06.47	104.06	47.07	-32.9	-33.5	28.3	0.00e+00	0	37	0	2330984448	44	5805
2026-01-04 15:59:07.19	104.48	47.06	-32.9	-33.6	28.2	0.00e+00	0	37	0	2335178752	44	5866
2026-01-04 15:59:08.49	105.23	47.02	-32.9	-33.5	28.2	0.00e+00	0	37	0	2342518784	44	5812
2026-01-04 15:59:09.22	105.66	47.00	-32.8	-33.4	28.3	0.00e+00	0	37	0	2346713088	44	5748
2026-01-04 15:59:10.52	106.40	46.96	-32.9	-33.6	28.0	0.00e+00	0	37	0	2354053120	44	5836
2026-01-04 15:59:11.24	106.82	46.94	-33.0	-33.5	28.0	0.00e+00	0	37	0	2358247424	44	5825
2026-01-04 15:59:12.54	107.56	46.89	-33.0	-33.5	28.0	0.00e+00	0	37	0	2365587456	44	5822
2026-01-04 15:59:13.26	107.98	46.86	-32.7	-33.4	28.1	0.00e+00	0	37	0	2369781760	44	5700
2026-01-04 15:59:14.56	108.72	46.80	-33.1	-33.7	28.0	0.00e+00	0	37	0	2377121792	44	5952
2026-01-04 15:59:15.28	109.13	46.77	-33.0	-33.7	28.1	0.00e+00	0	37	0	2381316096	44	5927
2026-01-04 15:59:16.58	109.87	46.70	-33.0	-33.6	28.2	0.00e+00	0	37	0	2388656128	44	5888
2026-01-04 15:59:17.31	110.28	46.66	-33.0	-33.6	28.2	0.00e+00	0	37	0	2392850432	44	5871
2026-01-04 15:59:18.60	111.01	46.59	-33.3	-33.9	28.2	0.00e+00	0	37	0	2400190464	44	6047
2026-01-04 15:59:19.33	111.42	46.55	-33.1	-33.7	28.3	0.00e+00	0	37	0	2403336192	44	5939
2026-01-04 15:59:20.63	112.14	46.47	-32.7	-33.3	28.4	0.00e+00	0	37	0	2410676224	44	5655
2026-01-04 15:59:21.35	112.55	46.42	-32.8	-33.3	28.4	0.00e+00	0	37	0	2414870528	44	5680
2026-01-04 15:59:22.65	113.27	46.33	-33.1	-33.7	28.1	0.00e+00	0	37	0	2422210560	44	5912
2026-01-04 15:59:23.37	113.67	46.28	-33.0	-33.6	28.2	0.00e+00	0	37	0	2426404864	44	5892
2026-01-04 15:59:24.67	114.38	46.19	-32.8	-33.4	28.4	0.00e+00	0	37	0	2433744896	44	5753
2026-01-04 15:59:25.40	114.78	46.13	-32.9	-33.6	28.2	0.00e+00	0	37	0	2437939200	44	5840
2026-01-04 15:59:26.69	115.48	46.03	-33.2	-33.8	28.0	0.00e+00	0	37	0	2445279232	44	6021
2026-01-04 15:59:27.42	115.88	45.97	-33.3	-33.9	28.0	0.00e+00	0	37	0	2449473536	44	6064
2026-01-04 15:59:28.72	116.58	45.87	-33.2	-33.9	28.1	0.00e+00	0	37	0	2456813568	44	6073
2026-01-04 15:59:29.44	116.97	45.80	-33.2	-33.8	28.0	0.00e+00	0	37	0	2461007872	44	5982
2026-01-04 15:59:30.74	117.66	45.69	-33.3	-33.9	28.2	0.00e+00	0	37	0	2468347904	44	6079
2026-01-04 15:59:31.46	118.04	45.62	-33.3	-33.9	27.9	0.00e+00	0	37	0	2472542208	44	6076
2026-01-04 15:59:32.76	118.73	45.50	-33.3	-33.9	27.8	0.00e+00	0	37	0	2479882240	44	6088
2026-01-04 15:59:33.48	119.11	45.43	-33.4	-34.0	27.9	0.00e+00	0	37	0	2483027968	44	6169
2026-01-04 15:59:34.78	119.78	45.31	-33.7	-34.3	27.7	0.00e+00	0	37	0	2490368000	44	6390
2026-01-04 15:59:35.50	120.16	45.23	-34.0	-34.7	27.4	0.00e+00	0	37	0	2494562304	44	6647
2026-01-04 15:59:36.80	120.82	45.10	-33.8	-34.5	27.7	0.00e+00	0	37	0	2501902336	44	6485
2026-01-04 15:59:37.52	121.19	45.02	-33.7	-34.3	27.8	0.00e+00	0	37	0	2506096640	44	6358
2026-01-04 15:59:38.82	121.85	44.88	-34.2	-35.0	27.5	0.00e+00	0	37	0	2513436672	44	6849
2026-01-04 15:59:39.55	122.22	44.80	-34.1	-34.7	27.6	0.00e+00	0	37	0	2517630976	46	5912
2026-01-04 15:59:40.85	122.87	44.66	-33.0	-33.7	28.2	0.00e+00	0	37	0	2524971008	46	5288
2026-01-04 15:59:41.57	123.23	44.58	-33.1	-33.7	28.3	0.00e+00	0	37	0	2529165312	44	5942
2026-01-04 15:59:42.87	123.87	44.43	-33.1	-33.7	28.2	0.00e+00	0	37	0	2536505344	44	5902
2026-01-04 15:59:43.59	124.22	44.34	-33.2	-33.9	28.0	0.00e+00	0	37	0	2540699648	44	6054
2026-01-04 15:59:44.89	124.86	44.19	-33.3	-34.0	28.0	0.00e+00	0	37	0	2548039680	44	6172
2026-01-04 15:59:45.62	125.21	44.10	-33.5	-34.1	27.9	0.00e+00	0	37	0	2551185408	44	6239
2026-01-04 15:59:46.92	125.83	43.94	-33.4	-34.1	28.0	0.00e+00	0	37	0	2558525440	44	6175
2026-01-04 15:59:47.64	126.18	43.85	-33.5	-34.1	28.0	0.00e+00	0	37	0	2562719744	44	6245
2026-01-04 15:59:48.94	126.79	43.68	-33.9	-34.6	27.6	0.00e+00	0	37	0	2570059776	44	6588
2026-01-04 15:59:49.66	127.13	43.59	-34.4	-35.1	27.3	0.00e+00	0	37	0	2574254080	46	6183
2026-01-04 15:59:50.96	127.73	43.42	-34.1	-34.8	27.5	0.00e+00	0	37	0	2581594112	46	5975
2026-01-04 15:59:51.68	128.06	43.33	-33.5	-34.1	28.0	0.00e+00	0	37	0	2585788416	46	5549
2026-01-04 15:59:52.98	128.65	43.15	-33.1	-33.6	28.3	0.00e+00	0	37	0	2593128448	44	5876
2026-01-04 15:59:53.70	128.98	43.06	-33.1	-33.7	28.2	0.00e+00	0	37	0	2597322752	44	5961
2026-01-04 15:59:55.00	129.56	42.88	-33.2	-33.8	28.2	0.00e+00	0	37	0	2604662784	44	6016
2026-01-04 15:59:55.72	129.89	42.78	-33.0	-33.6	28.2	0.00e+00	0	37	0	2608857088	44	5874
2026-01-04 15:59:57.02	130.46	42.60	-33.0	-33.7	28.3	0.00e+00	0	37	0	2616197120	44	5931
2026-01-04 15:59:57.75	130.78	42.50	-32.8	-33.4	28.4	0.00e+00	0	37	0	2620391424	44	5700
2026-01-04 15:59:59.05	131.34	42.31	-33.0	-33.7	28.3	0.00e+00	0	37	0	2627731456	44	5903
2026-01-04 15:59:59.77	131.65	42.21	-33.2	-33.8	28.1	0.00e+00	0	37	0	2630877184	44	5977
2026-01-04 16:00:01.07	132.21	42.02	-33.2	-33.9	28.0	0.00e+00	0	37	0	2638217216	44	6081
2026-01-04 16:00:01.79	132.51	41.92	-33.1	-33.8	28.2	0.00e+00	0	37	0	2642411520	44	5992
2026-01-04 16:00:03.09	133.06	41.73	-32.9	-33.5	28.4	0.00e+00	0	37	0	2649751552	44	5827
2026-01-04 16:00:03.81	133.35	41.62	-32.8	-33.4	28.4	0.00e+00	0	37	0	2653945856	44	5721
2026-01-04 16:00:05.11	133.89	41.43	-32.9	-33.5	28.3	0.00e+00	0	37	0	2661285888	44	5763
2026-01-04 16:00:05.83	134.18	41.32	-32.9	-33.4	28.4	0.00e+00	0	37	0	2665480192	44	5739
2026-01-04 16:00:07.14	134.71	41.12	-33.0	-33.6	28.2	0.00e+00	0	37	0	2672820224	44	5836
2026-01-04 16:00:07.86	135.00	41.01	-33.0	-33.5	28.2	0.00e+00	0	37	0	2677014528	44	5808
2026-01-04 16:00:09.16	135.51	40.82	-33.0	-33.7	28.3	0.00e+00	0	37	0	2684354560	44	5899
2026-01-04 16:00:09.88	135.80	40.71	-33.0	-33.6	28.4	0.00e+00	0	37	0	2688548864	44	5868
2026-01-04 16:00:11.18	136.30	40.51	-32.7	-33.3	28.5	0.00e+00	0	37	0	2695888896	44	5667
2026-01-04 16:00:11.90	136.58	40.39	-32.7	-33.4	28.4	0.00e+00	0	37	0	2700083200	44	5711
2026-01-04 16:00:13.20	137.08	40.19	-32.9	-33.4	28.4	0.00e+00	0	37	0	2706374656	44	5749
2026-01-04 16:00:13.92	137.35	40.08	-33.0	-33.5	28.3	0.00e+00	0	37	0	2710568960	44	5811
2026-01-04 16:00:15.22	137.83	39.88	-33.0	-33.6	28.2	0.00e+00	0	37	0	2717908992	44	5836
2026-01-04 16:00:15.94	138.10	39.76	-33.1	-33.6	28.2	0.00e+00	0	37	0	2722103296	44	5885
2026-01-04 16:00:17.25	138.58	39.55	-32.9	-33.5	28.3	0.00e+00	0	37	0	2729443328	44	5827
2026-01-04 16:00:17.97	138.84	39.44	-32.9	-33.5	28.3	0.00e+00	0	37	0	2733637632	44	5779
2026-01-04 16:00:19.27	139.31	39.23	-33.0	-33.7	28.3	0.00e+00	0	37	0	2740977664	44	5903
2026-01-04 16:00:19.99	139.57	39.12	-32.8	-33.4	28.5	0.00e+00	0	37	0	2745171968	44	5716
2026-01-04 16:00:21.29	140.03	38.91	-33.0	-33.5	28.4	0.00e+00	0	37	0	2752512000	44	5809
2026-01-04 16:00:22.01	140.28	38.79	-32.7	-33.4	28.4	0.00e+00	0	37	0	2756706304	44	5746
2026-01-04 16:00:23.31	140.73	38.59	-32.9	-33.5	28.4	0.00e+00	0	37	0	2764046336	44	5792
2026-01-04 16:00:24.03	140.98	38.47	-32.8	-33.5	28.4	0.00e+00	0	37	0	2767192064	44	5781
2026-01-04 16:00:25.33	141.42	38.26	-32.7	-33.4	28.4	0.00e+00	0	37	0	2774532096	44	5737
2026-01-04 16:00:26.06	141.66	38.14	-32.8	-33.3	28.6	0.00e+00	0	37	0	2778726400	44	5675
2026-01-04 16:00:27.36	142.10	37.93	-32.6	-33.1	28.5	0.00e+00	0	37	0	2786066432	44	5560
2026-01-04 16:00:28.08	142.33	37.81	-32.5	-33.0	28.5	0.00e+00	0	37	0	2790260736	44	5500
2026-01-04 16:00:29.38	142.76	37.60	-32.6	-33.1	28.7	0.00e+00	0	37	0	2797600768	44	5526
2026-01-04 16:00:30.10	142.99	37.48	-32.4	-33.0	28.7	0.00e+00	0	37	0	2801795072	44	5457
2026-01-04 16:00:31.40	143.40	37.27	-32.5	-33.1	28.6	0.00e+00	0	37	0	2809135104	44	5560
2026-01-04 16:00:32.12	143.63	37.15	-32.5	-33.1	28.5	0.00e+00	0	37	0	2813329408	44	5520
2026-01-04 16:00:33.42	144.04	36.94	-32.6	-33.1	28.6	0.00e+00	0	37	0	2820669440	44	5546
2026-01-04 16:00:34.15	144.27	36.82	-32.4	-33.0	28.6	0.00e+00	0	37	0	2824863744	44	5462
2026-01-04 16:00:35.44	144.66	36.61	-32.5	-33.1	28.7	0.00e+00	0	37	0	2832203776	44	5565
2026-01-04 16:00:36.17	144.89	36.49	-32.4	-32.9	28.7	0.00e+00	0	37	0	2836398080	44	5424
2026-01-04 16:00:37.47	145.28	36.28	-32.5	-33.0	28.6	0.00e+00	0	37	0	2843738112	44	5484
2026-01-04 16:00:38.19	145.49	36.16	-32.6	-33.3	28.3	0.00e+00	0	37	0	2847932416	44	5686
2026-01-04 16:00:39.49	145.88	35.95	-32.8	-33.3	28.4	0.00e+00	0	37	0	2855272448	44	5685
2026-01-04 16:00:40.21	146.09	35.83	-33.0	-33.7	28.0	0.00e+00	0	37	0	2858418176	44	5938
2026-01-04 16:00:41.51	146.46	35.61	-32.9	-33.5	27.9	0.00e+00	0	37	0	2865758208	44	5806
2026-01-04 16:00:42.23	146.67	35.50	-32.9	-33.7	28.1	0.00e+00	0	37	0	2869952512	44	5903
2026-01-04 16:00:43.53	147.04	35.28	-32.6	-33.3	28.4	0.00e+00	0	37	0	2877292544	44	5671
2026-01-04 16:00:44.26	147.24	35.16	-32.6	-33.2	28.4	0.00e+00	0	37	0	2881486848	44	5585
2026-01-04 16:00:45.56	147.60	34.95	-32.5	-33.0	28.4	0.00e+00	0	37	0	2888826880	44	5495
2026-01-04 16:00:46.28	147.80	34.83	-32.5	-33.0	28.5	0.00e+00	0	37	0	2893021184	44	5480
2026-01-04 16:00:47.58	148.16	34.62	-32.5	-33.1	28.4	0.00e+00	0	37	0	2900361216	44	5503
2026-01-04 16:00:48.30	148.35	34.50	-32.6	-33.3	28.4	0.00e+00	0	37	0	2904555520	44	5670
2026-01-04 16:00:49.60	148.70	34.29	-33.0	-33.7	28.1	0.00e+00	0	37	0	2911895552	44	5952
2026-01-04 16:00:50.32	148.89	34.17	-32.9	-33.6	28.3	0.00e+00	0	37	0	2916089856	44	5857
2026-01-04 16:00:51.62	149.23	33.96	-32.7	-33.5	28.3	0.00e+00	0	37	0	2922381312	44	5763
2026-01-04 16:00:52.35	149.42	33.84	-32.7	-33.3	28.4	0.00e+00	0	37	0	2927624192	44	5636
2026-01-04 16:00:53.64	149.75	33.64	-32.8	-33.5	28.4	0.00e+00	0	37	0	2933915648	44	5775
2026-01-04 16:00:54.37	149.94	33.52	-32.9	-33.6	28.3	0.00e+00	0	37	0	2938109952	44	5863
2026-01-04 16:00:55.67	150.26	33.31	-32.9	-33.5	28.3	0.00e+00	0	37	0	2945449984	44	5800
2026-01-04 16:00:56.39	150.44	33.19	-33.2	-33.8	28.1	0.00e+00	0	37	0	2949644288	44	5988
2026-01-04 16:00:57.69	150.76	32.98	-33.2	-33.9	28.1	0.00e+00	0	37	0	2956984320	44	6079
2026-01-04 16:00:58.41	150.94	32.87	-33.0	-33.8	28.2	0.00e+00	0	37	0	2961178624	44	5967
2026-01-04 16:00:59.71	151.26	32.66	-32.9	-33.6	28.2	0.00e+00	0	37	0	2968518656	44	5877
2026-01-04 16:01:00.43	151.43	32.54	-33.0	-33.6	28.2	0.00e+00	0	37	0	2972712960	44	5834
2026-01-04 16:01:01.73	151.74	32.33	-32.8	-33.5	28.1	0.00e+00	0	37	0	2980052992	44	5806
2026-01-04 16:01:02.45	151.91	32.22	-32.7	-33.2	28.4	0.00e+00	0	37	0	2984247296	44	5624
2026-01-04 16:01:03.75	152.21	32.01	-32.9	-33.6	28.3	0.00e+00	0	37	0	2991587328	44	5834
2026-01-04 16:01:04.47	152.38	31.90	-32.8	-33.5	28.2	0.00e+00	0	37	0	2994733056	44	5776
2026-01-04 16:01:05.78	152.68	31.69	-32.8	-33.4	28.2	0.00e+00	0	37	0	3002073088	44	5731
2026-01-04 16:01:06.50	152.84	31.58	-32.9	-33.6	28.1	0.00e+00	0	37	0	3006267392	44	5847
2026-01-04 16:01:07.80	153.13	31.37	-32.8	-33.4	28.2	0.00e+00	0	37	0	3013607424	44	5723
2026-01-04 16:01:08.52	153.29	31.26	-32.8	-33.4	28.1	0.00e+00	0	37	0	3017801728	44	5723
2026-01-04 16:01:09.82	153.58	31.05	-32.9	-33.4	28.2	0.00e+00	0	37	0	3025141760	44	5725
2026-01-04 16:01:10.54	153.73	30.94	-32.9	-33.6	28.2	0.00e+00	0	37	0	3029336064	44	5852
2026-01-04 16:01:11.84	154.01	30.74	-32.9	-33.4	28.3	0.00e+00	0	37	0	3036676096	44	5735
2026-01-04 16:01:12.56	154.17	30.62	-32.9	-33.5	28.2	0.00e+00	0	37	0	3040870400	44	5763
2026-01-04 16:01:13.86	154.44	30.42	-33.0	-33.6	28.2	0.00e+00	0	37	0	3048210432	44	5848
2026-01-04 16:01:14.59	154.59	30.31	-32.9	-33.5	28.2	0.00e+00	0	37	0	3052404736	44	5792
2026-01-04 16:01:15.89	154.86	30.11	-32.9	-33.4	28.2	0.00e+00	0	37	0	3059744768	44	5730
2026-01-04 16:01:16.61	155.01	30.00	-32.9	-33.6	28.3	0.00e+00	0	37	0	3063939072	44	5835
2026-01-04 16:01:17.91	155.28	29.80	-32.7	-33.3	28.3	0.00e+00	0	37	0	3071279104	44	5653
2026-01-04 16:01:18.63	155.42	29.69	-32.7	-33.4	28.3	0.00e+00	0	37	0	3074424832	44	5761
2026-01-04 16:01:19.93	155.68	29.49	-32.8	-33.3	28.3	0.00e+00	0	37	0	3081764864	44	5683
2026-01-04 16:01:20.65	155.83	29.38	-32.8	-33.4	28.3	0.00e+00	0	37	0	3085959168	44	5712
2026-01-04 16:01:21.95	156.08	29.18	-32.8	-33.5	28.2	0.00e+00	0	37	0	3093299200	44	5783
2026-01-04 16:01:22.68	156.22	29.07	-32.8	-33.5	28.2	0.00e+00	0	37	0	3097493504	44	5820
2026-01-04 16:01:23.97	156.47	28.88	-33.1	-33.8	28.0	0.00e+00	0	37	0	3104833536	44	6003
2026-01-04 16:01:24.70	156.61	28.77	-33.0	-33.7	28.1	0.00e+00	0	37	0	3109027840	44	5956
2026-01-04 16:01:26.00	156.86	28.57	-33.3	-34.0	28.0	0.00e+00	0	37	0	3116367872	44	6125
2026-01-04 16:01:26.72	156.99	28.46	-33.3	-34.0	28.0	0.00e+00	0	37	0	3120562176	44	6119
2026-01-04 16:01:28.02	157.23	28.27	-33.5	-34.1	27.7	0.00e+00	0	37	0	3127902208	44	6211
2026-01-04 16:01:28.74	157.37	28.16	-33.4	-34.0	27.9	0.00e+00	0	37	0	3132096512	44	6144
2026-01-04 16:01:30.04	157.60	27.97	-33.5	-34.3	27.8	0.00e+00	0	37	0	3139436544	44	6320
2026-01-04 16:01:30.76	157.73	27.87	-33.4	-34.1	27.8	0.00e+00	0	37	0	3143630848	44	6213
2026-01-04 16:01:32.06	157.97	27.67	-33.3	-33.9	28.1	0.00e+00	0	37	0	3149922304	44	6038
2026-01-04 16:01:32.78	158.09	27.57	-33.0	-33.7	28.2	0.00e+00	0	37	0	3154116608	44	5917
2026-01-04 16:01:34.08	158.32	27.38	-32.9	-33.5	28.3	0.00e+00	0	37	0	3161456640	44	5778
2026-01-04 16:01:34.81	158.45	27.27	-33.0	-33.5	28.1	0.00e+00	0	37	0	3165650944	44	5790
2026-01-04 16:01:36.10	158.67	27.09	-33.0	-33.5	28.2	0.00e+00	0	37	0	3172990976	44	5810
2026-01-04 16:01:36.83	158.80	26.98	-33.0	-33.7	28.1	0.00e+00	0	37	0	3177185280	44	5924
2026-01-04 16:01:38.13	159.02	26.79	-32.8	-33.4	28.3	0.00e+00	0	37	0	3184525312	44	5709
2026-01-04 16:01:38.85	159.14	26.69	-32.9	-33.4	28.2	0.00e+00	0	37	0	3188719616	44	5737
2026-01-04 16:01:40.15	159.36	26.50	-33.1	-33.6	28.2	0.00e+00	0	37	0	3196059648	44	5866
2026-01-04 16:01:40.87	159.47	26.40	-33.0	-33.5	28.3	0.00e+00	0	37	0	3200253952	44	5806
2026-01-04 16:01:42.17	159.69	26.22	-33.2	-33.7	28.2	0.00e+00	0	37	0	3207593984	44	5955
2026-01-04 16:01:42.90	159.81	26.11	-33.0	-33.6	28.2	0.00e+00	0	37	0	3211788288	44	5848
2026-01-04 16:01:44.19	160.01	25.93	-33.1	-33.6	28.2	0.00e+00	0	37	0	3219128320	44	5890
2026-01-04 16:01:44.92	160.13	25.83	-33.1	-33.7	28.1	0.00e+00	0	37	0	3222274048	44	5923
2026-01-04 16:01:46.22	160.34	25.65	-33.2	-33.7	28.0	0.00e+00	0	37	0	3229614080	44	5961
2026-01-04 16:01:46.94	160.45	25.55	-33.1	-33.7	27.9	0.00e+00	0	37	0	3233808384	44	5944
2026-01-04 16:01:48.24	160.65	25.37	-33.3	-33.9	27.9	0.00e+00	0	37	0	3241148416	44	6091
2026-01-04 16:01:48.96	160.76	25.27	-33.3	-33.9	27.9	0.00e+00	0	37	0	3245342720	44	6043
2026-01-04 16:01:50.26	160.96	25.09	-33.4	-34.0	27.8	0.00e+00	0	37	0	3252682752	44	6115
2026-01-04 16:01:50.99	161.07	24.99	-33.2	-34.0	27.8	0.00e+00	0	37	0	3256877056	44	6118
2026-01-04 16:01:52.29	161.27	24.81	-33.1	-33.7	27.9	0.00e+00	0	37	0	3264217088	44	5935
2026-01-04 16:01:53.01	161.37	24.71	-33.1	-33.9	27.9	0.00e+00	0	37	0	3268411392	44	6035
2026-01-04 16:01:54.31	161.57	24.54	-33.1	-33.7	28.0	0.00e+00	0	37	0	3275751424	44	5904
2026-01-04 16:01:55.03	161.67	24.44	-33.1	-33.7	28.0	0.00e+00	0	37	0	3279945728	44	5898
2026-01-04 16:01:56.33	161.86	24.26	-33.3	-33.9	27.9	0.00e+00	0	37	0	3287285760	44	6093
2026-01-04 16:01:57.05	161.96	24.17	-33.1	-33.8	28.1	0.00e+00	0	37	0	3291480064	44	6022
2026-01-04 16:01:58.35	162.15	23.99	-33.1	-33.7	28.0	0.00e+00	0	37	0	3298820096	44	5923
2026-01-04 16:01:59.07	162.25	23.90	-33.2	-33.7	27.9	0.00e+00	0	37	0	3301965824	44	5936
2026-01-04 16:02:00.37	162.43	23.72	-33.3	-33.9	28.0	0.00e+00	0	37	0	3309305856	44	6041
2026-01-04 16:02:01.10	162.54	23.63	-33.3	-33.9	27.9	0.00e+00	0	37	0	3313500160	44	6049
2026-01-04 16:02:02.40	162.72	23.46	-33.4	-33.9	27.9	0.00e+00	0	37	0	3320840192	44	6078
2026-01-04 16:02:03.12	162.81	23.36	-33.3	-34.0	27.9	0.00e+00	0	37	0	3325034496	44	6153
2026-01-04 16:02:04.42	162.99	23.19	-33.4	-34.0	27.8	0.00e+00	0	37	0	3332374528	44	6143
2026-01-04 16:02:05.14	163.09	23.10	-33.4	-34.1	27.8	0.00e+00	0	37	0	3336568832	44	6221
2026-01-04 16:02:06.44	163.26	22.93	-33.4	-34.0	27.8	0.00e+00	0	37	0	3343908864	44	6132
2026-01-04 16:02:07.16	163.36	22.84	-33.6	-34.3	27.7	0.00e+00	0	37	0	3348103168	44	6350
2026-01-04 16:02:08.46	163.53	22.67	-33.6	-34.2	27.7	0.00e+00	0	37	0	3355443200	44	6275
2026-01-04 16:02:09.19	163.62	22.58	-33.6	-34.2	27.7	0.00e+00	0	37	0	3358588928	44	6267
2026-01-04 16:02:10.49	163.79	22.41	-33.7	-34.3	27.6	0.00e+00	0	37	0	3365928960	44	6320
2026-01-04 16:02:11.21	163.89	22.32	-33.7	-34.2	27.5	0.00e+00	0	37	0	3370123264	44	6304
2026-01-04 16:02:12.51	164.05	22.15	-33.8	-34.4	27.5	0.00e+00	0	37	0	3377463296	44	6427
2026-01-04 16:02:13.23	164.14	22.06	-33.8	-34.3	27.5	0.00e+00	0	37	0	3381657600	44	6377
2026-01-04 16:02:14.53	164.30	21.90	-33.8	-34.4	27.5	0.00e+00	0	37	0	3388997632	44	6438
2026-01-04 16:02:15.25	164.39	21.81	-33.9	-34.5	27.4	0.00e+00	0	37	0	3393191936	44	6474
2026-01-04 16:02:16.55	164.56	21.65	-33.9	-34.5	27.3	0.00e+00	0	37	0	3400531968	44	6487
2026-01-04 16:02:17.28	164.64	21.56	-34.0	-34.6	27.3	0.00e+00	0	37	0	3404726272	44	6600
2026-01-04 16:02:18.58	164.80	21.40	-34.0	-34.6	27.3	0.00e+00	0	37	0	3412066304	44	6560
2026-01-04 16:02:19.30	164.89	21.31	-34.2	-34.8	27.1	0.00e+00	0	37	0	3416260608	46	5998
2026-01-04 16:02:20.60	165.05	21.15	-34.6	-35.1	27.0	0.00e+00	0	37	0	3423600640	46	6243
2026-01-04 16:02:21.32	165.13	21.06	-34.3	-34.9	27.2	0.00e+00	0	37	0	3427794944	46	6068
2026-01-04 16:02:22.62	165.28	20.90	-34.1	-34.7	27.3	0.00e+00	0	37	0	3435134976	46	5907
2026-01-04 16:02:23.34	165.37	20.81	-34.1	-34.8	27.3	0.00e+00	0	37	0	3439329280	46	5996
2026-01-04 16:02:24.64	165.52	20.66	-34.1	-34.8	27.3	0.00e+00	0	37	0	3446669312	46	5971
2026-01-04 16:02:25.36	165.60	20.57	-34.0	-34.7	27.2	0.00e+00	0	37	0	3449815040	46	5960
2026-01-04 16:02:26.66	165.75	20.42	-34.0	-34.6	27.3	0.00e+00	0	37	0	3457155072	46	5842
2026-01-04 16:02:27.39	165.83	20.33	-34.1	-34.8	27.2	0.00e+00	0	37	0	3461349376	46	5993
2026-01-04 16:02:28.69	165.98	20.17	-34.2	-34.7	27.2	0.00e+00	0	37	0	3468689408	46	5941
2026-01-04 16:02:29.41	166.06	20.09	-34.0	-34.6	27.4	0.00e+00	0	37	0	3472883712	46	5836
2026-01-04 16:02:30.71	166.20	19.93	-34.1	-34.7	27.3	0.00e+00	0	37	0	3480223744	46	5904
2026-01-04 16:02:31.43	166.28	19.85	-34.2	-34.7	27.2	0.00e+00	0	37	0	3484418048	46	5960
2026-01-04 16:02:32.73	166.43	19.70	-34.1	-34.7	27.2	0.00e+00	0	37	0	3491758080	46	5936
2026-01-04 16:02:33.45	166.50	19.61	-34.1	-34.7	27.2	0.00e+00	0	37	0	3495952384	46	5941
2026-01-04 16:02:34.75	166.64	19.46	-34.2	-34.8	27.1	0.00e+00	0	37	0	3503292416	46	6017
2026-01-04 16:02:35.47	166.72	19.38	-34.3	-34.9	27.1	0.00e+00	0	37	0	3507486720	46	6039
2026-01-04 16:02:36.77	166.86	19.23	-34.4	-35.0	27.0	0.00e+00	0	37	0	3514826752	46	6119
2026-01-04 16:02:37.50	166.94	19.15	-34.4	-35.0	27.0	0.00e+00	0	37	0	3519021056	46	6106
2026-01-04 16:02:38.79	167.07	19.00	-34.5	-35.2	26.9	0.00e+00	0	37	0	3526361088	46	6304
2026-01-04 16:02:39.52	167.15	18.92	-34.6	-35.3	26.8	0.00e+00	0	37	0	3529506816	46	6357
2026-01-04 16:02:40.82	167.28	18.77	-34.5	-35.1	26.9	0.00e+00	0	37	0	3536846848	46	6185
2026-01-04 16:02:41.54	167.35	18.69	-34.4	-35.1	27.0	0.00e+00	0	37	0	3541041152	46	6199
2026-01-04 16:02:42.84	167.49	18.54	-34.4	-35.1	26.9	0.00e+00	0	37	0	3548381184	46	6240
2026-01-04 16:02:43.56	167.56	18.46	-34.4	-35.1	26.9	0.00e+00	0	37	0	3552575488	46	6218
2026-01-04 16:02:44.86	167.69	18.31	-34.5	-35.0	26.9	0.00e+00	0	37	0	3559915520	46	6151
2026-01-04 16:02:45.58	167.76	18.23	-34.6	-35.2	26.8	0.00e+00	0	37	0	3564109824	46	6258
2026-01-04 16:02:46.88	167.89	18.09	-34.7	-35.3	26.7	0.00e+00	0	37	0	3571449856	46	6350
2026-01-04 16:02:47.61	167.96	18.01	-34.6	-35.2	26.8	0.00e+00	0	37	0	3575644160	46	6259
2026-01-04 16:02:48.91	168.09	17.87	-34.6	-35.2	26.7	0.00e+00	0	37	0	3582984192	46	6263
2026-01-04 16:02:49.63	168.16	17.79	-34.7	-35.2	26.7	0.00e+00	0	37	0	3586129920	46	6300
2026-01-04 16:02:50.93	168.28	17.64	-34.8	-35.3	26.6	0.00e+00	0	37	0	3593469952	46	6385
2026-01-04 16:02:51.65	168.35	17.57	-34.8	-35.4	26.7	0.00e+00	0	37	0	3597664256	46	6440
2026-01-04 16:02:52.95	168.47	17.43	-34.7	-35.3	26.7	0.00e+00	0	37	0	3605004288	46	6323
2026-01-04 16:02:53.67	168.54	17.35	-34.8	-35.4	26.6	0.00e+00	0	37	0	3609198592	46	6413
2026-01-04 16:02:54.97	168.66	17.21	-34.8	-35.4	26.6	0.00e+00	0	37	0	3616538624	46	6438
2026-01-04 16:02:55.69	168.73	17.13	-34.9	-35.5	26.6	0.00e+00	0	37	0	3620732928	46	6478
2026-01-04 16:02:57.00	168.85	16.99	-34.9	-35.5	26.5	0.00e+00	0	37	0	3628072960	46	6507
2026-01-04 16:02:57.72	168.92	16.91	-35.0	-35.6	26.4	0.00e+00	0	37	0	3632267264	46	6558
