passes_logs/2026/01/04/R4.6S_Anadyr_2ch/R4.6S_Anadyr_2ch__20260104_200942_NOAA_20_JPSS-1_rec.log

#Pass ID: 20260104_200942_NOAA 20 (JPSS-1)
#Satellite: NOAA 20 (JPSS-1)
#Configuration: NOAA 20
#almurnet v.1.7.20251203
#Start time: 2026-01-04 20:09:45

#Version: 2.2.20231116
#Station: R4.6S_Anadyr_2ch
#Location: 177.4865 lon 64.73178 lat
#TLE: 1 43013U 17073A   25350.93759711  .00000080  00000+0  58734-4 0  9994
#TLE: 2 43013  98.7603 287.1885 0002156  81.1496 278.9924 14.19526878418610

#Time	Az	El	Level	Level2	SNR	BER	BlckErr	Temp	State	Recorded	gain1	gain2
2026-01-04 20:09:45.14	64.95	0.12	-51.7	-66.9	3.4	1.51e+00	0	25	0	0	60	108244
2026-01-04 20:09:46.15	64.88	0.17	-52.2	-67.7	3.6	1.51e+00	0	26	104	0	60	118361
2026-01-04 20:09:47.16	64.80	0.22	-51.6	-67.1	3.6	1.51e+00	0	26	104	0	60	110437
2026-01-04 20:09:48.17	64.73	0.27	-51.6	-67.1	3.6	1.51e+00	0	26	104	0	60	110729
2026-01-04 20:09:49.19	64.65	0.32	-51.4	-67.0	3.6	1.51e+00	0	26	104	0	60	109076
2026-01-04 20:09:50.19	64.58	0.37	-51.6	-67.1	3.6	1.51e+00	0	26	104	0	60	110359
2026-01-04 20:09:51.21	64.50	0.42	-52.1	-67.6	3.5	1.51e+00	0	26	104	0	60	117526
2026-01-04 20:09:52.22	64.42	0.47	-51.6	-67.2	3.6	1.51e+00	0	26	104	0	60	111696
2026-01-04 20:09:53.23	64.35	0.52	-51.4	-67.0	3.6	1.51e+00	0	26	104	0	60	109010
2026-01-04 20:09:54.24	64.27	0.57	-51.3	-66.9	3.6	1.51e+00	0	26	104	0	60	107299
2026-01-04 20:09:55.25	64.19	0.62	-51.2	-66.8	3.6	1.51e+00	0	26	104	0	60	106815
2026-01-04 20:09:56.26	64.11	0.67	-51.1	-66.7	3.6	1.51e+00	0	26	104	0	60	105436
2026-01-04 20:09:57.27	64.04	0.72	-51.1	-66.6	3.6	1.51e+00	0	26	104	0	60	104555
2026-01-04 20:09:58.28	63.96	0.77	-50.9	-66.4	3.6	1.51e+00	0	26	104	0	60	102184
2026-01-04 20:09:59.29	63.88	0.82	-50.6	-66.1	3.6	1.51e+00	0	26	104	0	60	98707
2026-01-04 20:10:00.31	63.80	0.87	-50.1	-65.6	3.6	1.51e+00	0	26	104	0	60	93190
2026-01-04 20:10:01.32	63.72	0.92	-49.7	-65.2	3.6	1.51e+00	0	26	104	0	60	89087
2026-01-04 20:10:02.33	63.64	0.97	-49.7	-65.2	3.6	1.51e+00	0	26	104	0	60	88719
2026-01-04 20:10:03.34	63.56	1.02	-49.7	-65.2	3.6	1.51e+00	0	26	104	0	60	88937
2026-01-04 20:10:04.35	63.48	1.07	-49.7	-65.2	3.6	1.51e+00	0	26	104	0	60	88990
2026-01-04 20:10:05.36	63.40	1.12	-49.7	-65.2	3.6	1.51e+00	0	26	104	0	60	88711
2026-01-04 20:10:06.37	63.32	1.17	-49.7	-65.2	3.6	1.51e+00	0	26	104	0	60	88660
2026-01-04 20:10:07.38	63.24	1.22	-49.7	-65.2	3.6	1.51e+00	0	26	104	0	60	88779
2026-01-04 20:10:08.39	63.16	1.27	-49.7	-65.2	3.6	1.51e+00	0	26	104	0	60	88758
2026-01-04 20:10:09.40	63.08	1.33	-49.7	-65.3	3.6	1.51e+00	0	26	104	0	60	89325
2026-01-04 20:10:10.41	63.00	1.38	-49.7	-65.2	3.6	1.51e+00	0	26	104	0	60	89006
2026-01-04 20:10:11.42	62.92	1.43	-49.7	-65.3	3.6	1.51e+00	0	26	104	0	60	89529
2026-01-04 20:10:12.43	62.83	1.48	-49.7	-65.2	3.6	1.51e+00	0	26	104	0	60	89108
2026-01-04 20:10:13.44	62.75	1.53	-49.7	-65.2	3.6	1.51e+00	0	26	104	0	60	88896
2026-01-04 20:10:14.46	62.67	1.58	-49.7	-65.2	3.6	1.51e+00	0	26	104	0	60	89037
2026-01-04 20:10:15.47	62.58	1.63	-49.7	-65.2	3.6	1.51e+00	0	26	104	0	60	89030
2026-01-04 20:10:16.48	62.50	1.68	-49.7	-65.2	3.6	1.51e+00	0	26	104	0	60	88647
2026-01-04 20:10:17.49	62.42	1.73	-49.7	-65.2	3.6	1.51e+00	0	26	104	0	60	88643
2026-01-04 20:10:18.50	62.33	1.78	-49.7	-65.2	3.6	1.51e+00	0	27	104	0	60	89107
2026-01-04 20:10:19.51	62.25	1.83	-49.7	-65.2	3.6	1.51e+00	0	27	104	0	60	88961
2026-01-04 20:10:20.52	62.16	1.88	-49.7	-65.2	3.6	1.51e+00	0	26	104	0	60	88877
2026-01-04 20:10:21.53	62.08	1.93	-49.7	-65.2	3.6	1.51e+00	0	26	104	0	60	88789
2026-01-04 20:10:22.54	62.00	1.98	-49.7	-65.2	3.6	1.51e+00	0	27	104	0	60	88345
2026-01-04 20:10:23.55	61.91	2.03	-49.7	-65.0	3.6	1.51e+00	0	27	104	0	60	86333
2026-01-04 20:10:24.56	61.82	2.09	-49.7	-65.0	3.6	1.51e+00	0	27	104	0	60	86922
2026-01-04 20:10:25.57	61.74	2.14	-49.7	-64.9	3.6	1.51e+00	0	27	104	0	60	85965
2026-01-04 20:10:26.58	61.65	2.19	-49.7	-65.0	3.6	1.51e+00	0	26	104	0	60	86418
2026-01-04 20:10:27.59	61.57	2.24	-49.7	-65.1	3.6	1.51e+00	0	26	104	0	60	88154
2026-01-04 20:10:28.61	61.48	2.29	-49.7	-65.2	3.6	1.51e+00	0	27	104	0	60	88772
2026-01-04 20:10:29.62	61.39	2.34	-49.7	-65.3	3.6	1.51e+00	0	27	104	0	60	89436
2026-01-04 20:10:30.63	61.30	2.39	-49.7	-65.2	3.6	1.51e+00	0	27	104	0	60	88837
2026-01-04 20:10:31.64	61.21	2.44	-49.7	-65.1	3.6	1.51e+00	0	27	104	0	60	87575
2026-01-04 20:10:32.65	61.13	2.49	-49.7	-65.1	3.6	1.51e+00	0	27	104	0	60	88137
2026-01-04 20:10:33.66	61.04	2.54	-49.7	-65.2	3.6	1.51e+00	0	27	104	0	60	89112
2026-01-04 20:10:34.67	60.95	2.60	-49.7	-65.1	3.6	1.51e+00	0	27	104	0	60	88061
2026-01-04 20:10:35.68	60.86	2.65	-49.7	-64.5	3.6	1.51e+00	0	27	104	0	60	81647
2026-01-04 20:10:36.70	60.77	2.70	-49.7	-64.3	3.5	1.51e+00	0	27	104	0	60	80258
2026-01-04 20:10:37.71	60.68	2.75	-49.7	-64.0	3.6	1.51e+00	0	27	104	0	60	77015
2026-01-04 20:10:38.72	60.59	2.80	-49.7	-64.8	3.6	1.51e+00	0	27	104	0	60	85198
2026-01-04 20:10:39.73	60.50	2.85	-49.7	-64.8	3.6	1.51e+00	0	27	104	0	60	85005
2026-01-04 20:10:40.74	60.41	2.90	-49.6	-62.6	3.8	1.50e+00	0	27	104	0	60	65586
2026-01-04 20:10:41.75	60.32	2.96	-49.4	-60.1	4.9	1.43e+00	0	27	104	0	60	49184
2026-01-04 20:10:42.76	60.23	3.01	-49.1	-57.0	6.2	2.86e-01	0	27	0	1048576	60	34357
2026-01-04 20:10:43.77	60.13	3.06	-49.5	-58.8	4.1	8.07e-02	0	27	0	3145728	60	42664
2026-01-04 20:10:44.78	60.04	3.11	-49.8	-65.3	3.6	1.49e+00	0	27	104	3145728	60	89495
2026-01-04 20:10:45.79	59.95	3.16	-48.9	-56.7	4.5	1.51e+00	0	27	104	3145728	60	33335
2026-01-04 20:10:46.81	59.86	3.21	-45.2	-47.5	17.3	2.53e-03	0	27	0	3145728	60	11527
2026-01-04 20:10:47.82	59.76	3.26	-49.6	-64.4	3.6	1.15e-01	0	27	104	4194304	60	80487
2026-01-04 20:10:48.83	59.67	3.32	-45.4	-47.7	16.2	1.51e+00	90	27	104	4194304	60	11876
2026-01-04 20:10:49.84	59.58	3.37	-45.2	-47.4	17.0	0.00e+00	0	27	0	4194304	60	11398
2026-01-04 20:10:50.85	59.48	3.42	-45.6	-47.9	16.5	0.00e+00	0	27	0	6291456	60	12158
2026-01-04 20:10:51.86	59.39	3.47	-45.5	-47.9	16.5	0.00e+00	0	27	0	8388608	60	12044
2026-01-04 20:10:52.87	59.29	3.52	-45.2	-47.4	17.0	0.00e+00	0	27	0	10485760	60	11464
2026-01-04 20:10:53.88	59.20	3.57	-46.0	-48.5	16.1	0.00e+00	0	27	0	11534336	60	13035
2026-01-04 20:10:54.89	59.10	3.63	-45.6	-47.9	16.7	0.00e+00	0	27	0	13631488	60	12082
2026-01-04 20:10:55.91	59.01	3.68	-45.3	-47.6	16.7	0.00e+00	0	27	0	15728640	60	11661
2026-01-04 20:10:56.92	58.91	3.73	-45.4	-47.6	16.9	0.00e+00	0	27	0	17825792	60	11672
2026-01-04 20:10:57.93	58.81	3.78	-45.6	-47.9	16.6	0.00e+00	0	27	0	19922944	60	12121
2026-01-04 20:10:58.94	58.72	3.83	-45.1	-47.3	17.2	0.00e+00	0	27	0	20971520	60	11238
2026-01-04 20:10:59.95	58.62	3.88	-44.6	-46.6	18.0	0.00e+00	0	27	0	23068672	60	10374
2026-01-04 20:11:00.96	58.52	3.94	-44.9	-46.9	17.6	0.00e+00	0	27	0	25165824	60	10848
2026-01-04 20:11:01.97	58.42	3.99	-44.9	-46.9	17.6	0.00e+00	0	27	0	27262976	60	10750
2026-01-04 20:11:02.98	58.33	4.04	-44.7	-46.7	17.8	0.00e+00	0	27	0	29360128	60	10537
2026-01-04 20:11:03.99	58.23	4.09	-45.1	-47.3	17.2	0.00e+00	0	27	0	30408704	60	11271
2026-01-04 20:11:05.00	58.13	4.14	-45.3	-47.5	17.1	0.00e+00	0	27	0	32505856	60	11518
2026-01-04 20:11:06.02	58.03	4.20	-45.7	-48.1	16.5	0.00e+00	0	27	0	34603008	60	12374
2026-01-04 20:11:07.03	57.93	4.25	-45.1	-47.1	17.1	0.00e+00	0	27	0	36700160	60	11084
2026-01-04 20:11:08.04	57.83	4.30	-45.1	-47.3	17.2	0.00e+00	0	27	0	38797312	60	11249
2026-01-04 20:11:09.05	57.73	4.35	-45.0	-47.0	17.6	0.00e+00	0	27	0	39845888	60	10943
2026-01-04 20:11:10.06	57.63	4.40	-45.3	-47.4	17.2	0.00e+00	0	27	0	41943040	60	11437
2026-01-04 20:11:11.07	57.53	4.46	-45.2	-47.3	17.3	0.00e+00	0	27	0	44040192	60	11355
2026-01-04 20:11:12.08	57.42	4.51	-44.8	-46.8	17.8	0.00e+00	0	27	0	46137344	60	10669
2026-01-04 20:11:13.09	57.32	4.56	-44.7	-46.7	18.0	0.00e+00	0	27	0	48234496	60	10493
2026-01-04 20:11:14.11	57.22	4.61	-44.8	-46.7	18.0	0.00e+00	0	27	0	49283072	60	10560
2026-01-04 20:11:15.12	57.12	4.66	-44.7	-46.6	18.0	0.00e+00	0	27	0	51380224	60	10436
2026-01-04 20:11:16.13	57.01	4.72	-44.8	-46.7	17.9	0.00e+00	0	27	0	53477376	60	10576
2026-01-04 20:11:17.14	56.91	4.77	-44.8	-46.8	17.9	0.00e+00	0	27	0	55574528	60	10635
2026-01-04 20:11:18.15	56.81	4.82	-44.7	-46.6	18.1	0.00e+00	0	27	0	57671680	60	10424
2026-01-04 20:11:19.16	56.70	4.87	-44.8	-46.7	17.9	0.00e+00	0	27	0	59768832	60	10511
2026-01-04 20:11:20.17	56.60	4.93	-44.5	-46.4	18.2	0.00e+00	0	27	0	60817408	60	10136
2026-01-04 20:11:21.18	56.49	4.98	-44.7	-46.6	18.1	0.00e+00	0	27	0	62914560	60	10383
2026-01-04 20:11:22.19	56.39	5.03	-44.0	-45.7	18.8	0.00e+00	0	27	0	65011712	60	9390
2026-01-04 20:11:23.20	56.28	5.08	-44.7	-46.5	18.2	0.00e+00	0	27	0	67108864	60	10364
2026-01-04 20:11:24.22	56.17	5.13	-44.1	-45.8	18.8	0.00e+00	0	27	0	69206016	60	9497
2026-01-04 20:11:25.23	56.07	5.19	-44.0	-45.7	19.0	0.00e+00	0	27	0	70254592	60	9376
2026-01-04 20:11:26.24	55.96	5.24	-44.2	-45.9	18.5	0.00e+00	0	27	0	72351744	60	9592
2026-01-04 20:11:27.25	55.85	5.29	-44.0	-45.7	18.8	0.00e+00	0	27	0	74448896	60	9345
2026-01-04 20:11:28.26	55.74	5.34	-44.3	-46.1	18.6	0.00e+00	0	27	0	76546048	60	9843
2026-01-04 20:11:29.27	55.64	5.40	-44.2	-45.9	18.7	0.00e+00	0	27	0	78643200	60	9653
2026-01-04 20:11:30.28	55.53	5.45	-44.4	-46.2	18.5	0.00e+00	0	27	0	79691776	60	9921
2026-01-04 20:11:31.29	55.42	5.50	-44.3	-46.0	18.6	0.00e+00	0	27	0	81788928	60	9774
2026-01-04 20:11:32.30	55.31	5.55	-44.1	-45.8	18.8	0.00e+00	0	27	0	83886080	60	9518
2026-01-04 20:11:33.32	55.20	5.61	-44.1	-45.8	18.7	0.00e+00	0	27	0	85983232	60	9474
2026-01-04 20:11:34.33	55.09	5.66	-44.2	-45.9	18.9	0.00e+00	0	27	0	88080384	60	9571
2026-01-04 20:11:35.34	54.98	5.71	-44.4	-46.1	18.7	0.00e+00	0	27	0	89128960	60	9892
2026-01-04 20:11:36.35	54.87	5.76	-44.4	-46.2	18.5	0.00e+00	0	27	0	91226112	60	9929
2026-01-04 20:11:37.36	54.76	5.81	-43.9	-45.5	19.2	0.00e+00	0	27	0	93323264	60	9159
2026-01-04 20:11:38.37	54.64	5.87	-43.8	-45.4	19.3	0.00e+00	0	27	0	95420416	60	9051
2026-01-04 20:11:39.38	54.53	5.92	-43.9	-45.4	19.3	0.00e+00	0	27	0	97517568	60	9124
2026-01-04 20:11:40.39	54.42	5.97	-43.8	-45.3	19.4	0.00e+00	0	27	0	98566144	60	8999
2026-01-04 20:11:41.40	54.31	6.02	-43.7	-45.2	19.5	0.00e+00	0	27	0	100663296	60	8900
2026-01-04 20:11:42.42	54.19	6.08	-43.4	-44.9	19.8	0.00e+00	0	27	0	102760448	60	8597
2026-01-04 20:11:43.43	54.08	6.13	-43.7	-45.2	19.5	0.00e+00	0	27	0	104857600	60	8912
2026-01-04 20:11:44.44	53.96	6.18	-43.4	-44.9	19.8	0.00e+00	0	27	0	106954752	60	8543
2026-01-04 20:11:45.45	53.85	6.23	-43.5	-45.0	19.7	0.00e+00	0	27	0	109051904	60	8700
2026-01-04 20:11:46.46	53.73	6.28	-43.3	-44.7	20.0	0.00e+00	0	27	0	110100480	60	8387
2026-01-04 20:11:47.47	53.62	6.34	-43.5	-45.0	19.8	0.00e+00	0	27	0	112197632	60	8648
2026-01-04 20:11:48.48	53.50	6.39	-43.5	-45.0	19.7	0.00e+00	0	27	0	114294784	60	8696
2026-01-04 20:11:49.49	53.39	6.44	-44.0	-45.6	19.3	0.00e+00	0	27	0	116391936	60	9291
2026-01-04 20:11:50.50	53.27	6.49	-43.5	-45.0	19.8	0.00e+00	0	27	0	118489088	60	8700
2026-01-04 20:11:51.52	53.15	6.55	-43.5	-44.9	19.9	0.00e+00	0	27	0	119537664	60	8600
2026-01-04 20:11:52.53	53.03	6.60	-43.6	-45.2	19.7	0.00e+00	0	27	0	121634816	60	8825
2026-01-04 20:11:53.54	52.91	6.65	-43.7	-45.3	19.6	0.00e+00	0	27	0	123731968	60	8931
2026-01-04 20:11:54.55	52.80	6.70	-44.2	-45.9	18.9	0.00e+00	0	27	0	125829120	60	9576
2026-01-04 20:11:55.56	52.68	6.76	-43.8	-45.4	19.5	0.00e+00	0	27	0	127926272	60	9081
2026-01-04 20:11:56.57	52.56	6.81	-43.6	-45.1	19.7	0.00e+00	0	27	0	128974848	60	8792
2026-01-04 20:11:57.58	52.44	6.86	-43.7	-45.2	19.7	0.00e+00	0	27	0	131072000	60	8838
2026-01-04 20:11:58.59	52.32	6.91	-44.0	-45.6	19.3	0.00e+00	0	27	0	133169152	60	9332
2026-01-04 20:11:59.60	52.20	6.96	-43.9	-45.4	19.5	0.00e+00	0	27	0	135266304	60	9105
2026-01-04 20:12:00.61	52.08	7.02	-43.7	-45.2	19.6	0.00e+00	0	27	0	137363456	60	8912
2026-01-04 20:12:01.62	51.95	7.07	-43.7	-45.2	19.7	0.00e+00	0	27	0	138412032	60	8868
2026-01-04 20:12:02.63	51.83	7.12	-43.8	-45.3	19.6	0.00e+00	0	27	0	140509184	60	8993
2026-01-04 20:12:03.65	51.71	7.17	-43.8	-45.4	19.6	0.00e+00	0	27	0	142606336	60	9039
2026-01-04 20:12:04.66	51.59	7.22	-43.6	-45.1	19.8	0.00e+00	0	27	0	144703488	60	8740
2026-01-04 20:12:05.67	51.46	7.28	-43.6	-45.0	19.8	0.00e+00	0	27	0	146800640	60	8719
2026-01-04 20:12:06.68	51.34	7.33	-43.4	-44.9	20.0	0.00e+00	0	27	0	148897792	60	8565
2026-01-04 20:12:07.69	51.21	7.38	-43.5	-44.9	20.0	0.00e+00	0	27	0	149946368	60	8593
2026-01-04 20:12:08.70	51.09	7.43	-43.5	-44.9	19.9	0.00e+00	0	27	0	152043520	60	8582
2026-01-04 20:12:09.71	50.96	7.48	-43.6	-45.0	19.9	0.00e+00	0	27	0	154140672	60	8705
2026-01-04 20:12:10.72	50.84	7.54	-43.5	-45.0	19.9	0.00e+00	0	27	0	156237824	60	8679
2026-01-04 20:12:11.73	50.71	7.59	-43.4	-44.8	20.1	0.00e+00	0	27	0	158334976	60	8466
2026-01-04 20:12:12.74	50.59	7.64	-43.5	-45.0	20.0	0.00e+00	0	27	0	159383552	60	8644
2026-01-04 20:12:13.76	50.46	7.69	-43.4	-44.9	20.0	0.00e+00	0	27	0	161480704	60	8530
2026-01-04 20:12:14.77	50.33	7.74	-43.4	-44.8	20.1	0.00e+00	0	27	0	163577856	60	8469
2026-01-04 20:12:15.78	50.20	7.80	-43.7	-45.1	19.8	0.00e+00	0	27	0	165675008	60	8814
2026-01-04 20:12:16.79	50.07	7.85	-43.5	-45.0	20.0	0.00e+00	0	27	0	167772160	60	8659
2026-01-04 20:12:17.80	49.94	7.90	-43.3	-44.7	20.1	0.00e+00	0	27	0	168820736	60	8368
2026-01-04 20:12:18.81	49.81	7.95	-43.3	-44.7	20.2	0.00e+00	0	27	0	170917888	60	8393
2026-01-04 20:12:19.82	49.68	8.00	-43.4	-44.8	20.1	0.00e+00	0	27	0	173015040	60	8470
2026-01-04 20:12:20.83	49.55	8.05	-43.3	-44.7	20.2	0.00e+00	0	27	0	175112192	60	8352
2026-01-04 20:12:21.84	49.42	8.11	-43.4	-44.8	20.1	0.00e+00	0	27	0	177209344	60	8489
2026-01-04 20:12:22.85	49.29	8.16	-43.5	-45.0	20.0	0.00e+00	0	27	0	178257920	60	8643
2026-01-04 20:12:23.87	49.16	8.21	-43.1	-44.5	20.4	0.00e+00	0	27	0	180355072	60	8177
2026-01-04 20:12:24.88	49.03	8.26	-43.4	-44.8	20.1	0.00e+00	0	27	0	182452224	60	8447
2026-01-04 20:12:25.89	48.89	8.31	-43.3	-44.7	20.3	0.00e+00	0	27	0	184549376	60	8335
2026-01-04 20:12:26.90	48.76	8.36	-43.3	-44.8	20.2	0.00e+00	0	27	0	186646528	60	8442
2026-01-04 20:12:27.91	48.63	8.42	-43.2	-44.6	20.4	0.00e+00	0	27	0	188743680	60	8283
2026-01-04 20:12:28.92	48.49	8.47	-43.2	-44.6	20.3	0.00e+00	0	27	0	189792256	60	8316
2026-01-04 20:12:29.93	48.36	8.52	-43.2	-44.6	20.4	0.00e+00	0	27	0	191889408	60	8272
2026-01-04 20:12:30.94	48.22	8.57	-43.1	-44.5	20.4	0.00e+00	0	27	0	193986560	60	8198
2026-01-04 20:12:31.96	48.09	8.62	-43.1	-44.5	20.4	0.00e+00	0	27	0	196083712	60	8195
2026-01-04 20:12:32.97	47.95	8.67	-43.2	-44.6	20.3	0.00e+00	0	27	0	198180864	60	8264
2026-01-04 20:12:33.98	47.81	8.72	-43.0	-44.3	20.6	0.00e+00	0	27	0	199229440	60	8027
2026-01-04 20:12:34.99	47.68	8.77	-43.0	-44.3	20.6	0.00e+00	0	27	0	201326592	60	8038
2026-01-04 20:12:36.00	47.54	8.82	-42.9	-44.2	20.8	0.00e+00	0	27	0	203423744	60	7889
2026-01-04 20:12:37.01	47.40	8.88	-42.8	-44.0	20.8	0.00e+00	0	27	0	205520896	60	7772
2026-01-04 20:12:38.02	47.26	8.93	-43.1	-44.4	20.6	0.00e+00	0	27	0	207618048	60	8112
2026-01-04 20:12:39.03	47.12	8.98	-42.9	-44.2	20.8	0.00e+00	0	27	0	208666624	60	7873
2026-01-04 20:12:40.04	46.98	9.03	-43.1	-44.5	20.5	0.00e+00	0	27	0	210763776	60	8147
2026-01-04 20:12:41.05	46.84	9.08	-43.0	-44.3	20.7	0.00e+00	0	27	0	212860928	60	8007
2026-01-04 20:12:42.07	46.70	9.13	-43.1	-44.5	20.6	0.00e+00	0	27	0	214958080	60	8141
2026-01-04 20:12:43.08	46.56	9.18	-43.2	-44.5	20.6	0.00e+00	0	27	0	217055232	60	8203
2026-01-04 20:12:44.09	46.42	9.23	-43.1	-44.4	20.5	0.00e+00	0	27	0	218103808	60	8119
2026-01-04 20:12:45.10	46.28	9.28	-43.0	-44.3	20.7	0.00e+00	0	27	0	220200960	60	7970
2026-01-04 20:12:46.11	46.13	9.33	-43.1	-44.4	20.6	0.00e+00	0	27	0	222298112	60	8113
2026-01-04 20:12:47.12	45.99	9.38	-43.1	-44.4	20.6	0.00e+00	0	27	0	224395264	60	8116
2026-01-04 20:12:48.13	45.85	9.43	-43.1	-44.5	20.6	0.00e+00	0	27	0	226492416	60	8161
2026-01-04 20:12:49.14	45.70	9.48	-43.3	-44.7	20.3	0.00e+00	0	27	0	227540992	60	8373
2026-01-04 20:12:50.15	45.56	9.53	-43.3	-44.7	20.4	0.00e+00	0	27	0	229638144	60	8366
2026-01-04 20:12:51.17	45.41	9.58	-43.1	-44.4	20.7	0.00e+00	0	27	0	231735296	60	8097
2026-01-04 20:12:52.18	45.27	9.63	-43.4	-44.8	20.3	0.00e+00	0	27	0	233832448	60	8504
2026-01-04 20:12:53.19	45.12	9.68	-43.0	-44.3	20.8	0.00e+00	0	27	0	235929600	60	8002
2026-01-04 20:12:54.20	44.98	9.73	-43.2	-44.6	20.6	0.00e+00	0	27	0	236978176	60	8281
2026-01-04 20:12:55.21	44.83	9.78	-42.9	-44.2	20.9	0.00e+00	0	27	0	239075328	60	7925
2026-01-04 20:12:56.22	44.68	9.83	-42.6	-43.9	21.2	0.00e+00	0	27	0	241172480	60	7631
2026-01-04 20:12:57.23	44.53	9.88	-42.7	-44.0	21.0	0.00e+00	0	27	0	243269632	60	7727
2026-01-04 20:12:58.24	44.38	9.93	-42.8	-44.1	21.0	0.00e+00	0	27	0	245366784	60	7823
2026-01-04 20:12:59.26	44.23	9.98	-42.8	-44.1	20.9	0.00e+00	0	27	0	246415360	60	7801
2026-01-04 20:13:00.27	44.08	10.03	-42.6	-43.8	21.3	0.00e+00	0	27	0	248512512	60	7568
2026-01-04 20:13:01.28	43.93	10.08	-42.6	-43.9	21.2	0.00e+00	0	27	0	250609664	60	7613
2026-01-04 20:13:02.29	43.78	10.13	-42.4	-43.6	21.4	0.00e+00	0	27	0	252706816	60	7385
2026-01-04 20:13:03.30	43.63	10.17	-42.4	-43.6	21.5	0.00e+00	0	27	0	254803968	60	7360
2026-01-04 20:13:04.31	43.48	10.22	-42.2	-43.4	21.6	0.00e+00	0	27	0	256901120	60	7201
2026-01-04 20:13:05.32	43.33	10.27	-42.2	-43.3	21.6	0.00e+00	0	27	0	257949696	60	7167
2026-01-04 20:13:06.33	43.18	10.32	-42.2	-43.4	21.6	0.00e+00	0	27	0	260046848	60	7222
2026-01-04 20:13:07.34	43.02	10.37	-42.2	-43.4	21.5	0.00e+00	0	27	0	262144000	60	7187
2026-01-04 20:13:08.35	42.87	10.42	-42.1	-43.3	21.7	0.00e+00	0	27	0	264241152	60	7114
2026-01-04 20:13:09.36	42.71	10.47	-42.0	-43.1	21.9	0.00e+00	0	27	0	266338304	60	6968
2026-01-04 20:13:10.37	42.56	10.51	-41.9	-43.0	22.1	0.00e+00	0	27	0	267386880	60	6876
2026-01-04 20:13:11.39	42.40	10.56	-41.8	-42.9	22.2	0.00e+00	0	27	0	269484032	60	6785
2026-01-04 20:13:12.40	42.25	10.61	-41.6	-42.7	22.3	0.00e+00	0	27	0	271581184	60	6652
2026-01-04 20:13:13.41	42.09	10.66	-41.7	-42.7	22.2	0.00e+00	0	27	0	273678336	60	6686
2026-01-04 20:13:14.42	41.93	10.71	-41.8	-42.9	22.1	0.00e+00	0	27	0	275775488	60	6781
2026-01-04 20:13:15.43	41.78	10.75	-41.8	-42.9	22.1	0.00e+00	0	27	0	276824064	60	6811
2026-01-04 20:13:16.44	41.62	10.80	-41.6	-42.7	22.3	0.00e+00	0	27	0	278921216	60	6644
2026-01-04 20:13:17.45	41.46	10.85	-41.6	-42.6	22.4	0.00e+00	0	27	0	281018368	60	6597
2026-01-04 20:13:18.46	41.30	10.90	-41.6	-42.6	22.3	0.00e+00	0	27	0	283115520	60	6592
2026-01-04 20:13:19.47	41.14	10.94	-41.5	-42.6	22.4	0.00e+00	0	27	0	285212672	60	6551
2026-01-04 20:13:20.48	40.98	10.99	-41.5	-42.6	22.4	0.00e+00	0	27	0	286261248	60	6569
2026-01-04 20:13:21.50	40.82	11.04	-41.6	-42.7	22.3	0.00e+00	0	27	0	288358400	60	6653
2026-01-04 20:13:22.51	40.66	11.08	-41.5	-42.6	22.4	0.00e+00	0	27	0	290455552	60	6555
2026-01-04 20:13:23.52	40.50	11.13	-41.7	-42.8	22.3	0.00e+00	0	27	0	292552704	60	6718
2026-01-04 20:13:24.53	40.33	11.18	-41.4	-42.5	22.6	0.00e+00	0	27	0	294649856	60	6503
2026-01-04 20:13:25.54	40.17	11.22	-41.3	-42.3	22.6	0.00e+00	0	27	0	296747008	60	6383
2026-01-04 20:13:26.55	40.01	11.27	-41.4	-42.5	22.6	0.00e+00	0	27	0	297795584	60	6486
2026-01-04 20:13:27.56	39.85	11.32	-41.3	-42.3	22.5	0.00e+00	0	27	0	299892736	60	6379
2026-01-04 20:13:28.57	39.68	11.36	-41.3	-42.4	22.6	0.00e+00	0	27	0	301989888	60	6395
2026-01-04 20:13:29.58	39.52	11.41	-41.1	-42.1	22.9	0.00e+00	0	27	0	304087040	60	6243
2026-01-04 20:13:30.59	39.35	11.45	-41.2	-42.2	22.8	0.00e+00	0	27	0	306184192	60	6279
2026-01-04 20:13:31.61	39.18	11.50	-41.1	-42.1	22.9	0.00e+00	0	27	0	307232768	60	6221
2026-01-04 20:13:32.62	39.02	11.54	-41.1	-42.1	22.9	0.00e+00	0	27	0	309329920	60	6210
2026-01-04 20:13:33.63	38.85	11.59	-41.0	-42.1	23.0	0.00e+00	0	27	0	311427072	60	6176
2026-01-04 20:13:34.64	38.68	11.63	-40.9	-41.9	23.1	0.00e+00	0	27	0	313524224	60	6100
2026-01-04 20:13:35.65	38.52	11.68	-41.1	-42.1	23.0	0.00e+00	0	27	0	315621376	60	6203
2026-01-04 20:13:36.66	38.35	11.72	-41.0	-42.0	23.0	0.00e+00	0	27	0	316669952	60	6113
2026-01-04 20:13:37.67	38.18	11.77	-40.8	-41.8	23.2	0.00e+00	0	27	0	318767104	60	6012
2026-01-04 20:13:38.68	38.01	11.81	-40.8	-41.8	23.2	0.00e+00	0	27	0	320864256	60	5999
2026-01-04 20:13:39.70	37.84	11.86	-40.7	-41.7	23.3	0.00e+00	0	27	0	322961408	60	5946
2026-01-04 20:13:40.71	37.67	11.90	-40.7	-41.7	23.1	0.00e+00	0	27	0	325058560	60	5918
2026-01-04 20:13:41.72	37.50	11.94	-40.6	-41.6	23.3	0.00e+00	0	27	0	326107136	60	5830
2026-01-04 20:13:42.73	37.32	11.99	-40.6	-41.6	23.3	0.00e+00	0	27	0	328204288	60	5855
2026-01-04 20:13:43.74	37.15	12.03	-40.7	-41.6	23.3	0.00e+00	0	27	0	330301440	60	5883
2026-01-04 20:13:44.75	36.98	12.08	-40.6	-41.6	23.3	0.00e+00	0	27	0	332398592	60	5847
2026-01-04 20:13:45.76	36.81	12.12	-40.6	-41.6	23.4	0.00e+00	0	27	0	334495744	60	5846
2026-01-04 20:13:46.77	36.63	12.16	-40.6	-41.6	23.3	0.00e+00	0	27	0	336592896	60	5865
2026-01-04 20:13:47.78	36.46	12.20	-40.7	-41.7	23.3	0.00e+00	0	27	0	337641472	60	5936
2026-01-04 20:13:48.79	36.29	12.25	-40.9	-41.8	23.3	0.00e+00	0	27	0	339738624	60	6023
2026-01-04 20:13:49.81	36.11	12.29	-40.8	-41.7	23.3	0.00e+00	0	27	0	341835776	60	5942
2026-01-04 20:13:50.82	35.93	12.33	-40.8	-41.8	23.1	0.00e+00	0	27	0	343932928	60	6019
2026-01-04 20:13:51.83	35.76	12.37	-40.9	-41.9	23.1	0.00e+00	0	27	0	346030080	60	6078
2026-01-04 20:13:52.84	35.58	12.42	-40.9	-41.9	23.1	0.00e+00	0	27	0	347078656	60	6063
2026-01-04 20:13:53.85	35.40	12.46	-41.1	-42.1	23.1	0.00e+00	0	27	0	349175808	60	6225
2026-01-04 20:13:54.86	35.23	12.50	-41.1	-42.1	23.0	0.00e+00	0	27	0	351272960	60	6188
2026-01-04 20:13:55.87	35.05	12.54	-41.1	-42.2	22.9	0.00e+00	0	27	0	353370112	60	6250
2026-01-04 20:13:56.88	34.87	12.58	-41.1	-42.1	22.9	0.00e+00	0	27	0	355467264	60	6241
2026-01-04 20:13:57.89	34.69	12.62	-41.1	-42.1	23.0	0.00e+00	0	27	0	356515840	60	6210
2026-01-04 20:13:58.90	34.51	12.66	-41.0	-42.0	23.1	0.00e+00	0	27	0	358612992	60	6125
2026-01-04 20:13:59.92	34.33	12.70	-41.1	-42.1	22.9	0.00e+00	0	27	0	360710144	60	6220
2026-01-04 20:14:00.93	34.15	12.74	-41.2	-42.2	22.8	0.00e+00	0	27	0	362807296	60	6306
2026-01-04 20:14:01.94	33.97	12.78	-41.2	-42.3	22.8	0.00e+00	0	27	0	364904448	60	6318
2026-01-04 20:14:02.95	33.79	12.82	-41.3	-42.3	22.9	0.00e+00	0	27	0	365953024	60	6378
2026-01-04 20:14:03.96	33.60	12.86	-41.5	-42.5	22.8	0.00e+00	0	27	0	368050176	60	6520
2026-01-04 20:14:04.97	33.42	12.90	-41.1	-42.1	23.0	0.00e+00	0	27	0	370147328	60	6206
2026-01-04 20:14:05.98	33.24	12.94	-41.2	-42.2	22.9	0.00e+00	0	27	0	372244480	60	6314
2026-01-04 20:14:06.99	33.05	12.98	-41.0	-42.1	23.0	0.00e+00	0	27	0	374341632	60	6174
2026-01-04 20:14:08.01	32.87	13.02	-41.0	-42.0	23.1	0.00e+00	0	27	0	375390208	60	6146
2026-01-04 20:14:09.02	32.68	13.06	-41.0	-42.0	23.0	0.00e+00	0	27	0	377487360	60	6165
2026-01-04 20:14:10.03	32.50	13.09	-41.1	-42.2	23.0	0.00e+00	0	27	0	379584512	60	6250
2026-01-04 20:14:11.04	32.31	13.13	-41.1	-42.1	22.9	0.00e+00	0	27	0	381681664	60	6182
2026-01-04 20:14:12.05	32.13	13.17	-41.2	-42.2	22.9	0.00e+00	0	27	0	383778816	60	6272
2026-01-04 20:14:13.06	31.94	13.21	-40.9	-41.9	23.1	0.00e+00	0	27	0	385875968	60	6075
2026-01-04 20:14:14.07	31.75	13.25	-40.9	-41.9	23.2	0.00e+00	0	27	0	386924544	60	6047
2026-01-04 20:14:15.08	31.57	13.28	-41.0	-41.9	23.1	0.00e+00	0	27	0	389021696	60	6089
2026-01-04 20:14:16.09	31.38	13.32	-41.0	-42.0	23.1	0.00e+00	0	27	0	391118848	60	6142
2026-01-04 20:14:17.11	31.19	13.36	-40.9	-41.9	23.1	0.00e+00	0	27	0	393216000	60	6081
2026-01-04 20:14:18.12	31.00	13.39	-40.9	-41.9	23.2	0.00e+00	0	27	0	395313152	60	6060
2026-01-04 20:14:19.13	30.81	13.43	-40.9	-41.9	23.2	0.00e+00	0	27	0	396361728	60	6050
2026-01-04 20:14:20.14	30.62	13.46	-40.8	-41.7	23.3	0.00e+00	0	27	0	398458880	60	5951
2026-01-04 20:14:21.15	30.43	13.50	-40.8	-41.8	23.2	0.00e+00	0	27	0	400556032	60	6009
2026-01-04 20:14:22.16	30.24	13.53	-41.0	-42.0	23.2	0.00e+00	0	27	0	402653184	60	6116
2026-01-04 20:14:23.17	30.05	13.57	-40.9	-41.8	23.3	0.00e+00	0	27	0	404750336	60	6027
2026-01-04 20:14:24.18	29.86	13.60	-40.9	-41.8	23.2	0.00e+00	0	27	0	405798912	60	6028
2026-01-04 20:14:25.19	29.67	13.64	-40.8	-41.8	23.1	0.00e+00	0	27	0	407896064	60	5979
2026-01-04 20:14:26.20	29.47	13.67	-40.8	-41.7	22.4	0.00e+00	0	27	0	409993216	60	5941
2026-01-04 20:14:27.22	29.28	13.71	-41.0	-41.9	23.2	0.00e+00	0	27	0	412090368	60	6099
2026-01-04 20:14:28.23	29.08	13.74	-40.9	-41.9	23.1	0.00e+00	0	27	0	414187520	60	6078
2026-01-04 20:14:29.24	28.89	13.77	-40.7	-41.6	23.4	0.00e+00	0	27	0	415236096	60	5870
2026-01-04 20:14:30.25	28.70	13.81	-40.7	-41.7	23.3	0.00e+00	0	27	0	417333248	60	5907
2026-01-04 20:14:31.26	28.50	13.84	-40.6	-41.6	23.2	0.00e+00	0	27	0	419430400	60	5871
2026-01-04 20:14:32.27	28.31	13.87	-40.5	-41.5	23.6	0.00e+00	0	27	0	421527552	60	5776
2026-01-04 20:14:33.28	28.11	13.90	-40.5	-41.4	23.6	0.00e+00	0	27	0	423624704	60	5738
2026-01-04 20:14:34.29	27.92	13.93	-40.5	-41.4	23.6	0.00e+00	0	27	0	424673280	60	5735
2026-01-04 20:14:35.30	27.72	13.97	-40.5	-41.5	23.5	0.00e+00	0	27	0	426770432	60	5773
2026-01-04 20:14:36.32	27.52	14.00	-40.6	-41.5	23.5	0.00e+00	0	27	0	428867584	60	5806
2026-01-04 20:14:37.33	27.32	14.03	-40.5	-41.5	23.5	0.00e+00	0	27	0	430964736	60	5796
2026-01-04 20:14:38.34	27.13	14.06	-40.5	-41.4	23.6	0.00e+00	0	27	0	433061888	60	5735
2026-01-04 20:14:39.35	26.93	14.09	-40.4	-41.3	23.7	0.00e+00	0	27	0	434110464	60	5656
2026-01-04 20:14:40.36	26.73	14.12	-40.4	-41.3	23.7	0.00e+00	0	27	0	436207616	60	5653
2026-01-04 20:14:41.37	26.53	14.15	-40.6	-41.6	23.5	0.00e+00	0	27	0	438304768	60	5835
2026-01-04 20:14:42.38	26.33	14.18	-40.6	-41.6	23.5	0.00e+00	0	27	0	440401920	60	5860
2026-01-04 20:14:43.39	26.13	14.21	-40.7	-41.7	23.4	0.00e+00	0	27	0	442499072	60	5919
2026-01-04 20:14:44.40	25.93	14.24	-40.6	-41.6	23.5	0.00e+00	0	27	0	444596224	60	5836
2026-01-04 20:14:45.42	25.73	14.26	-40.5	-41.4	23.6	0.00e+00	0	27	0	445644800	60	5760
2026-01-04 20:14:46.43	25.53	14.29	-40.4	-41.4	23.6	0.00e+00	0	27	0	447741952	60	5705
2026-01-04 20:14:47.44	25.33	14.32	-40.5	-41.5	23.6	0.00e+00	0	27	0	449839104	60	5784
2026-01-04 20:14:48.45	25.12	14.35	-40.6	-41.6	23.4	0.00e+00	0	27	0	451936256	60	5855
2026-01-04 20:14:49.46	24.92	14.38	-40.7	-41.6	23.4	0.00e+00	0	27	0	454033408	60	5887
2026-01-04 20:14:50.47	24.72	14.40	-40.7	-41.7	23.4	0.00e+00	0	27	0	455081984	60	5926
2026-01-04 20:14:51.48	24.52	14.43	-40.7	-41.6	23.4	0.00e+00	0	27	0	457179136	60	5880
2026-01-04 20:14:52.49	24.31	14.45	-40.9	-41.9	22.8	0.00e+00	0	27	0	459276288	60	6080
2026-01-04 20:14:53.50	24.11	14.48	-40.8	-41.8	23.3	0.00e+00	0	27	0	461373440	60	5988
2026-01-04 20:14:54.51	23.91	14.51	-40.8	-41.8	23.2	0.00e+00	0	27	0	463470592	60	6008
2026-01-04 20:14:55.53	23.70	14.53	-40.9	-41.9	23.2	0.00e+00	0	27	0	464519168	60	6092
2026-01-04 20:14:56.54	23.50	14.56	-41.0	-42.0	23.1	0.00e+00	0	27	0	466616320	60	6111
2026-01-04 20:14:57.55	23.29	14.58	-41.1	-42.1	23.0	0.00e+00	0	27	0	468713472	60	6198
2026-01-04 20:14:58.56	23.09	14.60	-41.0	-41.9	23.1	0.00e+00	0	27	0	470810624	60	6093
2026-01-04 20:14:59.57	22.88	14.63	-41.0	-42.0	23.2	0.00e+00	0	27	0	472907776	60	6104
2026-01-04 20:15:00.58	22.68	14.65	-40.9	-41.9	23.2	0.00e+00	0	27	0	473956352	60	6083
2026-01-04 20:15:01.59	22.47	14.67	-41.0	-42.0	23.2	0.00e+00	0	27	0	476053504	60	6141
2026-01-04 20:15:02.60	22.26	14.70	-41.1	-42.1	23.0	0.00e+00	0	27	0	478150656	60	6234
2026-01-04 20:15:03.62	22.05	14.72	-41.3	-42.3	22.9	0.00e+00	0	27	0	480247808	60	6385
2026-01-04 20:15:04.63	21.85	14.74	-41.4	-42.5	22.6	0.00e+00	0	27	0	482344960	60	6497
2026-01-04 20:15:05.64	21.64	14.76	-41.3	-42.4	22.7	0.00e+00	0	27	0	484442112	60	6413
2026-01-04 20:15:06.65	21.43	14.79	-41.5	-42.5	22.7	0.00e+00	0	27	0	485490688	60	6510
2026-01-04 20:15:07.66	21.22	14.81	-41.6	-42.7	22.4	0.00e+00	0	27	0	487587840	60	6659
2026-01-04 20:15:08.67	21.02	14.83	-41.5	-42.5	22.7	0.00e+00	0	27	0	489684992	60	6512
2026-01-04 20:15:09.68	20.81	14.85	-41.4	-42.4	22.7	0.00e+00	0	27	0	491782144	60	6456
2026-01-04 20:15:10.69	20.60	14.87	-41.6	-42.7	22.5	0.00e+00	0	27	0	493879296	60	6624
2026-01-04 20:15:11.71	20.39	14.89	-41.3	-42.3	22.8	0.00e+00	0	27	0	494927872	60	6349
2026-01-04 20:15:12.72	20.18	14.91	-41.3	-42.3	22.8	0.00e+00	0	27	0	497025024	60	6358
2026-01-04 20:15:13.73	19.97	14.92	-41.3	-42.3	22.8	0.00e+00	0	27	0	499122176	60	6364
2026-01-04 20:15:14.74	19.76	14.94	-41.3	-42.3	22.6	0.00e+00	0	27	0	501219328	60	6376
2026-01-04 20:15:15.75	19.55	14.96	-41.5	-42.6	22.7	0.00e+00	0	27	0	503316480	60	6550
2026-01-04 20:15:16.76	19.34	14.98	-41.3	-42.4	22.8	0.00e+00	0	27	0	504365056	60	6409
2026-01-04 20:15:17.77	19.13	15.00	-41.1	-42.1	23.0	0.00e+00	0	27	0	506462208	60	6201
2026-01-04 20:15:18.78	18.92	15.01	-40.9	-41.9	23.2	0.00e+00	0	27	0	508559360	60	6043
2026-01-04 20:15:19.79	18.70	15.03	-41.0	-41.9	23.1	0.00e+00	0	27	0	510656512	60	6086
2026-01-04 20:15:20.81	18.49	15.04	-40.8	-41.7	23.4	0.00e+00	0	27	0	512753664	60	5950
2026-01-04 20:15:21.82	18.28	15.06	-40.9	-41.8	23.3	0.00e+00	0	27	0	513802240	60	6020
2026-01-04 20:15:22.83	18.07	15.08	-40.9	-41.8	23.3	0.00e+00	0	27	0	515899392	60	6027
2026-01-04 20:15:23.84	17.86	15.09	-41.1	-42.1	23.0	0.00e+00	0	27	0	517996544	60	6216
2026-01-04 20:15:24.85	17.64	15.11	-41.0	-42.0	23.2	0.00e+00	0	27	0	520093696	60	6127
2026-01-04 20:15:25.86	17.43	15.12	-41.1	-42.1	23.0	0.00e+00	0	27	0	522190848	60	6221
2026-01-04 20:15:26.87	17.22	15.13	-41.1	-42.1	23.1	0.00e+00	0	27	0	524288000	60	6181
2026-01-04 20:15:27.88	17.01	15.15	-41.0	-41.9	23.0	0.00e+00	0	27	0	525336576	60	6094
2026-01-04 20:15:28.89	16.79	15.16	-41.1	-42.1	23.1	0.00e+00	0	27	0	527433728	60	6215
2026-01-04 20:15:29.90	16.58	15.17	-41.2	-42.2	22.8	0.00e+00	0	27	0	529530880	60	6261
2026-01-04 20:15:30.91	16.37	15.18	-40.9	-41.8	23.2	0.00e+00	0	27	0	531628032	60	6025
2026-01-04 20:15:31.93	16.15	15.20	-41.0	-42.0	23.1	0.00e+00	0	27	0	533725184	60	6109
2026-01-04 20:15:32.94	15.94	15.21	-41.1	-42.1	23.0	0.00e+00	0	27	0	534773760	60	6203
2026-01-04 20:15:33.95	15.72	15.22	-41.1	-42.1	22.9	0.00e+00	0	27	0	536870912	60	6200
2026-01-04 20:15:34.96	15.51	15.23	-41.1	-42.1	23.0	0.00e+00	0	27	0	538968064	60	6180
2026-01-04 20:15:35.97	15.29	15.24	-41.2	-42.2	22.7	0.00e+00	0	27	0	541065216	60	6280
2026-01-04 20:15:36.98	15.08	15.25	-41.1	-42.1	23.0	0.00e+00	0	27	0	543162368	60	6179
2026-01-04 20:15:37.99	14.86	15.26	-40.9	-41.9	23.2	0.00e+00	0	27	0	544210944	60	6087
2026-01-04 20:15:39.00	14.65	15.27	-40.9	-41.9	23.2	0.00e+00	0	27	0	546308096	60	6089
2026-01-04 20:15:40.01	14.44	15.28	-41.1	-42.2	22.9	0.00e+00	0	27	0	548405248	60	6255
2026-01-04 20:15:41.03	14.22	15.29	-41.1	-42.1	22.9	0.00e+00	0	27	0	550502400	60	6216
2026-01-04 20:15:42.04	14.00	15.29	-41.2	-42.3	22.8	0.00e+00	0	27	0	552599552	60	6319
2026-01-04 20:15:43.05	13.79	15.30	-41.3	-42.3	22.9	0.00e+00	0	27	0	553648128	60	6337
2026-01-04 20:15:44.06	13.57	15.31	-41.3	-42.3	22.9	0.00e+00	0	27	0	555745280	60	6342
2026-01-04 20:15:45.07	13.36	15.31	-41.1	-42.2	23.0	0.00e+00	0	27	0	557842432	60	6249
2026-01-04 20:15:46.08	13.14	15.32	-41.0	-41.9	23.2	0.00e+00	0	27	0	559939584	60	6084
2026-01-04 20:15:47.09	12.93	15.33	-40.9	-41.9	23.2	0.00e+00	0	27	0	562036736	60	6035
2026-01-04 20:15:48.10	12.71	15.33	-40.9	-41.9	23.2	0.00e+00	0	27	0	563085312	60	6076
2026-01-04 20:15:49.12	12.49	15.34	-41.1	-42.1	23.1	0.00e+00	0	27	0	565182464	60	6240
2026-01-04 20:15:50.13	12.28	15.34	-41.2	-42.2	22.9	0.00e+00	0	27	0	567279616	60	6296
2026-01-04 20:15:51.14	12.06	15.34	-41.4	-42.4	22.7	0.00e+00	0	27	0	569376768	60	6460
2026-01-04 20:15:52.15	11.85	15.35	-41.5	-42.6	22.7	0.00e+00	0	27	0	571473920	60	6542
2026-01-04 20:15:53.16	11.63	15.35	-41.5	-42.5	22.6	0.00e+00	0	27	0	573571072	60	6520
2026-01-04 20:15:54.17	11.41	15.35	-41.2	-42.2	22.9	0.00e+00	0	27	0	574619648	60	6296
2026-01-04 20:15:55.18	11.20	15.36	-40.9	-41.9	23.1	0.00e+00	0	27	0	576716800	60	6087
2026-01-04 20:15:56.19	10.98	15.36	-41.0	-42.0	23.1	0.00e+00	0	27	0	578813952	60	6145
2026-01-04 20:15:57.20	10.77	15.36	-41.3	-42.3	23.0	0.00e+00	0	27	0	580911104	60	6346
2026-01-04 20:15:58.21	10.55	15.36	-41.6	-42.6	22.8	0.00e+00	0	27	0	583008256	60	6581
2026-01-04 20:15:59.23	10.33	15.36	-41.2	-42.3	22.9	0.00e+00	0	27	0	584056832	60	6329
2026-01-04 20:16:00.24	10.12	15.36	-41.3	-42.3	22.8	0.00e+00	0	27	0	586153984	60	6383
2026-01-04 20:16:01.25	9.90	15.36	-41.3	-42.3	22.9	0.00e+00	0	27	0	588251136	60	6357
2026-01-04 20:16:02.26	9.68	15.36	-41.1	-42.1	23.0	0.00e+00	0	27	0	590348288	60	6182
2026-01-04 20:16:03.27	9.47	15.36	-41.1	-42.1	22.9	0.00e+00	0	27	0	592445440	60	6232
2026-01-04 20:16:04.28	9.25	15.36	-41.1	-42.1	22.6	0.00e+00	0	27	0	593494016	60	6225
2026-01-04 20:16:05.29	9.04	15.36	-41.1	-42.1	22.6	0.00e+00	0	27	0	595591168	60	6212
2026-01-04 20:16:06.30	8.82	15.36	-41.0	-41.9	23.1	0.00e+00	0	27	0	597688320	60	6099
2026-01-04 20:16:07.32	8.60	15.36	-40.8	-41.8	23.3	0.00e+00	0	27	0	599785472	60	6000
2026-01-04 20:16:08.33	8.39	15.35	-40.9	-41.9	23.0	0.00e+00	0	27	0	601882624	60	6067
2026-01-04 20:16:09.34	8.17	15.35	-41.1	-42.1	22.9	0.00e+00	0	27	0	602931200	60	6221
2026-01-04 20:16:10.35	7.95	15.35	-41.2	-42.2	22.9	0.00e+00	0	27	0	605028352	60	6312
2026-01-04 20:16:11.36	7.74	15.34	-41.3	-42.3	22.8	0.00e+00	0	27	0	607125504	60	6342
2026-01-04 20:16:12.37	7.52	15.34	-41.3	-42.4	22.8	0.00e+00	0	27	0	609222656	60	6416
2026-01-04 20:16:13.38	7.31	15.33	-41.5	-42.5	22.7	0.00e+00	0	27	0	611319808	60	6514
2026-01-04 20:16:14.39	7.09	15.33	-41.3	-42.3	22.8	0.00e+00	0	27	0	612368384	60	6378
2026-01-04 20:16:15.40	6.88	15.32	-41.3	-42.3	22.8	0.00e+00	0	27	0	614465536	60	6332
2026-01-04 20:16:16.41	6.66	15.31	-41.3	-42.3	22.8	0.00e+00	0	27	0	616562688	60	6376
2026-01-04 20:16:17.43	6.44	15.31	-41.2	-42.3	22.8	0.00e+00	0	27	0	618659840	60	6331
2026-01-04 20:16:18.44	6.23	15.30	-41.4	-42.4	22.8	0.00e+00	0	27	0	620756992	60	6439
2026-01-04 20:16:19.45	6.01	15.29	-41.3	-42.4	22.7	0.00e+00	0	27	0	621805568	60	6404
2026-01-04 20:16:20.46	5.80	15.29	-41.3	-42.3	22.8	0.00e+00	0	27	0	623902720	60	6371
2026-01-04 20:16:21.47	5.58	15.28	-41.2	-42.2	22.9	0.00e+00	0	27	0	625999872	60	6251
2026-01-04 20:16:22.48	5.37	15.27	-41.2	-42.2	22.9	0.00e+00	0	27	0	628097024	60	6249
2026-01-04 20:16:23.49	5.15	15.26	-41.1	-42.1	22.9	0.00e+00	0	27	0	630194176	60	6238
2026-01-04 20:16:24.50	4.94	15.25	-41.1	-42.1	22.9	0.00e+00	0	27	0	632291328	60	6226
2026-01-04 20:16:25.52	4.72	15.24	-41.2	-42.2	23.0	0.00e+00	0	27	0	633339904	60	6255
2026-01-04 20:16:26.53	4.51	15.23	-41.2	-42.2	22.9	0.00e+00	0	27	0	635437056	60	6265
2026-01-04 20:16:27.54	4.29	15.22	-41.1	-42.1	22.9	0.00e+00	0	27	0	637534208	60	6231
2026-01-04 20:16:28.55	4.08	15.21	-41.2	-42.2	22.7	0.00e+00	0	27	0	639631360	60	6292
2026-01-04 20:16:29.56	3.87	15.20	-41.3	-42.3	22.7	0.00e+00	0	27	0	641728512	60	6390
2026-01-04 20:16:30.57	3.65	15.19	-41.4	-42.5	22.8	0.00e+00	0	27	0	642777088	60	6469
2026-01-04 20:16:31.58	3.44	15.17	-41.9	-43.0	22.1	0.00e+00	0	27	0	644874240	60	6892
2026-01-04 20:16:32.59	3.23	15.16	-41.3	-42.4	22.7	0.00e+00	0	27	0	646971392	60	6414
2026-01-04 20:16:33.61	3.01	15.15	-41.3	-42.3	22.8	0.00e+00	0	27	0	649068544	60	6380
2026-01-04 20:16:34.62	2.80	15.14	-41.2	-42.2	22.9	0.00e+00	0	27	0	651165696	60	6317
2026-01-04 20:16:35.63	2.59	15.12	-41.4	-42.4	22.7	0.00e+00	0	27	0	652214272	60	6454
2026-01-04 20:16:36.64	2.37	15.11	-41.3	-42.4	22.8	0.00e+00	0	27	0	654311424	60	6393
2026-01-04 20:16:37.65	2.16	15.09	-40.9	-41.9	22.9	0.00e+00	0	27	0	656408576	60	6059
2026-01-04 20:16:38.66	1.95	15.08	-40.9	-41.9	23.1	0.00e+00	0	27	0	658505728	60	6076
2026-01-04 20:16:39.67	1.74	15.06	-41.0	-42.0	23.1	0.00e+00	0	27	0	660602880	60	6124
2026-01-04 20:16:40.68	1.53	15.05	-40.9	-41.9	23.2	0.00e+00	0	27	0	661651456	60	6063
2026-01-04 20:16:41.70	1.31	15.03	-40.8	-41.8	23.2	0.00e+00	0	27	0	663748608	60	6015
2026-01-04 20:16:42.71	1.10	15.01	-40.9	-41.9	23.2	0.00e+00	0	27	0	665845760	60	6041
2026-01-04 20:16:43.72	0.89	15.00	-40.9	-41.9	23.2	0.00e+00	0	27	0	667942912	60	6096
2026-01-04 20:16:44.73	0.68	14.98	-40.8	-41.7	23.2	0.00e+00	0	27	0	670040064	60	5953
2026-01-04 20:16:45.74	0.47	14.96	-40.8	-41.7	23.3	0.00e+00	0	27	0	672137216	60	5960
2026-01-04 20:16:46.75	0.26	14.95	-40.7	-41.6	23.3	0.00e+00	0	27	0	673185792	60	5885
2026-01-04 20:16:47.76	0.05	14.93	-40.6	-41.6	23.4	0.00e+00	0	27	0	675282944	60	5833
2026-01-04 20:16:48.77	359.84	14.91	-40.8	-41.8	23.3	0.00e+00	0	27	0	677380096	60	5971
2026-01-04 20:16:49.78	359.63	14.89	-40.7	-41.7	23.3	0.00e+00	0	27	0	679477248	60	5938
2026-01-04 20:16:50.80	359.42	14.87	-40.8	-41.8	23.2	0.00e+00	0	27	0	681574400	60	5990
2026-01-04 20:16:51.81	359.21	14.85	-40.8	-41.8	23.2	0.00e+00	0	27	0	682622976	60	5973
2026-01-04 20:16:52.82	359.00	14.83	-40.8	-41.8	23.3	0.00e+00	0	27	0	684720128	60	5994
2026-01-04 20:16:53.83	358.79	14.81	-40.7	-41.6	23.3	0.00e+00	0	27	0	686817280	60	5891
2026-01-04 20:16:54.84	358.59	14.79	-40.9	-41.9	23.2	0.00e+00	0	27	0	688914432	60	6064
2026-01-04 20:16:55.85	358.38	14.77	-40.8	-41.8	23.1	0.00e+00	0	27	0	691011584	60	5988
2026-01-04 20:16:56.86	358.17	14.75	-40.8	-41.8	23.2	0.00e+00	0	27	0	692060160	60	6009
2026-01-04 20:16:57.87	357.96	14.72	-40.8	-41.7	23.3	0.00e+00	0	27	0	694157312	60	5955
2026-01-04 20:16:58.88	357.76	14.70	-40.7	-41.7	23.2	0.00e+00	0	27	0	696254464	60	5928
2026-01-04 20:16:59.90	357.55	14.68	-40.7	-41.7	23.3	0.00e+00	0	27	0	698351616	60	5926
2026-01-04 20:17:00.91	357.34	14.66	-40.8	-41.8	23.2	0.00e+00	0	27	0	700448768	60	6007
2026-01-04 20:17:01.92	357.14	14.63	-41.0	-42.0	23.1	0.00e+00	0	27	0	701497344	60	6107
2026-01-04 20:17:02.93	356.93	14.61	-41.1	-42.1	23.0	0.00e+00	0	27	0	703594496	60	6178
2026-01-04 20:17:03.94	356.73	14.58	-41.3	-42.3	22.7	0.00e+00	0	27	0	705691648	60	6340
2026-01-04 20:17:04.95	356.52	14.56	-41.0	-42.0	22.9	0.00e+00	0	27	0	707788800	60	6155
2026-01-04 20:17:05.96	356.32	14.54	-41.1	-42.1	22.8	0.00e+00	0	27	0	709885952	60	6233
2026-01-04 20:17:06.97	356.11	14.51	-41.2	-42.2	23.0	0.00e+00	0	27	0	710934528	60	6317
2026-01-04 20:17:07.98	355.91	14.49	-41.1	-42.1	22.9	0.00e+00	0	27	0	713031680	60	6244
2026-01-04 20:17:08.99	355.71	14.46	-41.0	-41.9	23.0	0.00e+00	0	27	0	715128832	60	6101
2026-01-04 20:17:10.01	355.50	14.43	-41.0	-41.9	23.0	0.00e+00	0	27	0	717225984	60	6100
2026-01-04 20:17:11.02	355.30	14.41	-41.3	-42.4	22.5	0.00e+00	0	27	0	719323136	60	6394
2026-01-04 20:17:12.03	355.10	14.38	-41.2	-42.2	22.9	0.00e+00	0	27	0	721420288	60	6280
2026-01-04 20:17:13.04	354.89	14.35	-41.5	-42.6	22.8	0.00e+00	0	27	0	722468864	60	6541
2026-01-04 20:17:14.05	354.69	14.33	-41.2	-42.3	22.8	0.00e+00	0	27	0	724566016	60	6324
2026-01-04 20:17:15.06	354.49	14.30	-41.1	-42.1	22.9	0.00e+00	0	27	0	726663168	60	6206
2026-01-04 20:17:16.07	354.29	14.27	-41.1	-42.1	22.9	0.00e+00	0	27	0	728760320	60	6199
2026-01-04 20:17:17.08	354.09	14.24	-41.2	-42.2	22.8	0.00e+00	0	27	0	730857472	60	6295
2026-01-04 20:17:18.09	353.89	14.21	-41.2	-42.2	22.9	0.00e+00	0	27	0	731906048	60	6275
2026-01-04 20:17:19.11	353.69	14.18	-41.3	-42.3	22.9	0.00e+00	0	27	0	734003200	60	6351
2026-01-04 20:17:20.12	353.49	14.15	-41.2	-42.2	22.8	0.00e+00	0	27	0	736100352	60	6296
2026-01-04 20:17:21.13	353.29	14.12	-41.3	-42.3	22.7	0.00e+00	0	27	0	738197504	60	6352
2026-01-04 20:17:22.14	353.09	14.09	-41.2	-42.2	22.7	0.00e+00	0	27	0	740294656	60	6306
2026-01-04 20:17:23.15	352.90	14.06	-41.1	-42.1	22.9	0.00e+00	0	27	0	741343232	60	6215
2026-01-04 20:17:24.16	352.70	14.03	-41.1	-42.2	22.9	0.00e+00	0	27	0	743440384	60	6246
2026-01-04 20:17:25.17	352.50	14.00	-40.8	-41.8	23.2	0.00e+00	0	27	0	745537536	60	5970
2026-01-04 20:17:26.18	352.30	13.97	-40.8	-41.8	23.3	0.00e+00	0	27	0	747634688	60	5997
2026-01-04 20:17:27.20	352.11	13.94	-40.7	-41.7	23.2	0.00e+00	0	27	0	749731840	60	5926
2026-01-04 20:17:28.21	351.91	13.91	-40.7	-41.7	23.3	0.00e+00	0	27	0	750780416	60	5912
2026-01-04 20:17:29.22	351.71	13.88	-40.7	-41.7	23.3	0.00e+00	0	27	0	752877568	60	5907
2026-01-04 20:17:30.23	351.52	13.84	-40.8	-41.8	23.2	0.00e+00	0	27	0	754974720	60	5972
2026-01-04 20:17:31.24	351.33	13.81	-40.8	-41.8	23.0	0.00e+00	0	27	0	757071872	60	5974
2026-01-04 20:17:32.25	351.13	13.78	-40.9	-41.9	23.1	0.00e+00	0	27	0	759169024	60	6047
2026-01-04 20:17:33.26	350.94	13.75	-40.8	-41.8	23.2	0.00e+00	0	27	0	761266176	60	5995
2026-01-04 20:17:34.27	350.74	13.71	-40.9	-41.9	23.3	0.00e+00	0	27	0	762314752	60	6043
2026-01-04 20:17:35.28	350.55	13.68	-40.8	-41.8	22.9	0.00e+00	0	27	0	764411904	60	5983
2026-01-04 20:17:36.30	350.36	13.64	-41.1	-42.1	22.8	7.00e-07	0	27	0	766509056	60	6222
2026-01-04 20:17:37.31	350.17	13.61	-41.1	-42.2	22.9	0.00e+00	0	27	0	768606208	60	6253
2026-01-04 20:17:38.32	349.97	13.58	-40.6	-41.6	23.1	0.00e+00	0	27	0	770703360	60	5840
2026-01-04 20:17:39.33	349.78	13.54	-40.8	-41.7	23.2	0.00e+00	0	27	0	771751936	60	5963
2026-01-04 20:17:40.34	349.59	13.51	-40.9	-41.9	22.9	0.00e+00	0	27	0	773849088	60	6037
2026-01-04 20:17:41.35	349.40	13.47	-41.3	-42.4	22.8	0.00e+00	0	27	0	775946240	60	6401
2026-01-04 20:17:42.36	349.21	13.43	-41.4	-42.4	22.7	0.00e+00	0	27	0	778043392	60	6424
2026-01-04 20:17:43.37	349.02	13.40	-41.1	-42.1	22.9	0.00e+00	0	27	0	780140544	60	6238
2026-01-04 20:17:44.38	348.84	13.36	-41.2	-42.3	22.8	0.00e+00	0	27	0	781189120	60	6331
2026-01-04 20:17:45.40	348.65	13.33	-41.2	-42.2	22.5	0.00e+00	0	27	0	783286272	60	6292
2026-01-04 20:17:46.41	348.46	13.29	-40.9	-41.9	23.0	0.00e+00	0	27	0	785383424	60	6081
2026-01-04 20:17:47.42	348.27	13.25	-41.1	-42.0	22.9	0.00e+00	0	27	0	787480576	60	6169
2026-01-04 20:17:48.43	348.08	13.22	-41.1	-42.1	22.9	0.00e+00	0	27	0	789577728	60	6211
2026-01-04 20:17:49.44	347.90	13.18	-41.6	-42.6	22.5	0.00e+00	0	27	0	790626304	60	6599
2026-01-04 20:17:50.45	347.71	13.14	-41.0	-42.0	22.9	0.00e+00	0	27	0	792723456	60	6156
2026-01-04 20:17:51.46	347.53	13.10	-41.3	-42.4	22.6	0.00e+00	0	27	0	794820608	60	6397
2026-01-04 20:17:52.47	347.34	13.06	-41.1	-42.1	23.1	0.00e+00	0	27	0	796917760	60	6175
2026-01-04 20:17:53.48	347.16	13.03	-41.0	-42.0	23.0	0.00e+00	0	27	0	799014912	60	6147
2026-01-04 20:17:54.49	346.97	12.99	-41.4	-42.5	22.8	0.00e+00	0	27	0	800063488	60	6469
2026-01-04 20:17:55.50	346.79	12.95	-41.0	-42.0	23.1	0.00e+00	0	27	0	802160640	60	6113
2026-01-04 20:17:56.52	346.60	12.91	-40.9	-41.9	23.1	0.00e+00	0	27	0	804257792	60	6038
2026-01-04 20:17:57.53	346.42	12.87	-40.9	-41.9	23.0	0.00e+00	0	27	0	806354944	60	6090
2026-01-04 20:17:58.54	346.24	12.83	-40.8	-41.8	23.1	0.00e+00	0	27	0	808452096	60	5983
2026-01-04 20:17:59.55	346.06	12.79	-41.1	-42.1	23.0	0.00e+00	0	27	0	809500672	60	6183
2026-01-04 20:18:00.56	345.88	12.75	-40.9	-41.8	23.2	0.00e+00	0	27	0	811597824	60	6021
2026-01-04 20:18:01.57	345.70	12.71	-41.0	-41.9	23.1	0.00e+00	0	27	0	813694976	60	6093
2026-01-04 20:18:02.58	345.52	12.67	-41.2	-42.3	22.7	0.00e+00	0	27	0	815792128	60	6327
2026-01-04 20:18:03.59	345.34	12.63	-41.2	-42.3	22.8	0.00e+00	0	27	0	817889280	60	6322
2026-01-04 20:18:04.60	345.16	12.59	-41.3	-42.3	22.7	0.00e+00	0	27	0	818937856	60	6382
2026-01-04 20:18:05.62	344.98	12.55	-41.5	-42.6	22.5	0.00e+00	0	27	0	821035008	60	6572
2026-01-04 20:18:06.63	344.80	12.51	-41.5	-42.5	22.5	0.00e+00	0	27	0	823132160	60	6517
2026-01-04 20:18:07.64	344.62	12.47	-41.6	-42.7	22.2	0.00e+00	0	27	0	825229312	60	6654
2026-01-04 20:18:08.65	344.45	12.42	-41.7	-42.8	22.3	0.00e+00	0	27	0	827326464	60	6694
2026-01-04 20:18:09.66	344.27	12.38	-41.7	-42.8	22.2	0.00e+00	0	27	0	829423616	60	6729
2026-01-04 20:18:10.67	344.09	12.34	-42.0	-43.2	21.9	0.00e+00	0	27	0	830472192	60	7032
2026-01-04 20:18:11.68	343.92	12.30	-41.7	-42.8	22.2	0.00e+00	0	27	0	832569344	60	6700
2026-01-04 20:18:12.69	343.74	12.26	-41.8	-42.9	22.2	0.00e+00	0	27	0	834666496	60	6819
2026-01-04 20:18:13.70	343.57	12.21	-41.8	-42.9	22.2	0.00e+00	0	27	0	836763648	60	6817
2026-01-04 20:18:14.72	343.39	12.17	-42.0	-43.1	22.0	0.00e+00	0	27	0	838860800	60	6965
2026-01-04 20:18:15.73	343.22	12.13	-42.0	-43.1	21.9	0.00e+00	0	27	0	839909376	60	6993
2026-01-04 20:18:16.74	343.05	12.09	-42.0	-43.2	21.8	0.00e+00	0	27	0	842006528	60	7040
2026-01-04 20:18:17.75	342.88	12.04	-42.3	-43.4	21.4	0.00e+00	0	27	0	844103680	60	7250
2026-01-04 20:18:18.76	342.70	12.00	-42.5	-43.7	21.2	0.00e+00	0	27	0	846200832	60	7488
2026-01-04 20:18:19.77	342.53	11.95	-42.7	-43.9	21.3	0.00e+00	0	27	0	848297984	60	7648
2026-01-04 20:18:20.78	342.36	11.91	-42.7	-44.0	21.1	0.00e+00	0	27	0	849346560	60	7705
2026-01-04 20:18:21.80	342.19	11.87	-43.4	-44.8	20.8	0.00e+00	0	27	0	851443712	60	8432
2026-01-04 20:18:22.81	342.02	11.82	-43.1	-44.4	20.4	0.00e+00	0	27	0	853540864	60	8131
2026-01-04 20:18:23.82	341.85	11.78	-43.4	-44.8	20.3	0.00e+00	0	27	0	855638016	60	8487
2026-01-04 20:18:24.83	341.68	11.73	-44.4	-46.1	19.1	0.00e+00	0	27	0	857735168	60	9809
2026-01-04 20:18:25.84	341.52	11.69	-44.3	-46.0	19.0	0.00e+00	0	27	0	858783744	60	9746
2026-01-04 20:18:26.85	341.35	11.64	-44.3	-45.9	19.1	0.00e+00	0	27	0	860880896	60	9617
2026-01-04 20:18:27.86	341.18	11.60	-43.7	-45.2	19.5	0.00e+00	0	27	0	862978048	60	8919
2026-01-04 20:18:28.87	341.01	11.55	-43.9	-45.5	19.8	0.00e+00	0	27	0	865075200	60	9150
2026-01-04 20:18:29.88	340.85	11.51	-43.7	-45.2	20.0	0.00e+00	0	27	0	867172352	60	8840
2026-01-04 20:18:30.90	340.68	11.46	-43.0	-44.4	20.6	0.00e+00	0	27	0	869269504	60	8046
2026-01-04 20:18:31.91	340.52	11.42	-43.0	-44.4	20.5	0.00e+00	0	27	0	870318080	60	8094
2026-01-04 20:18:32.92	340.35	11.37	-43.2	-44.6	20.6	0.00e+00	0	27	0	872415232	60	8276
2026-01-04 20:18:33.93	340.19	11.33	-43.1	-44.4	20.7	0.00e+00	0	27	0	874512384	60	8124
2026-01-04 20:18:34.94	340.02	11.28	-43.2	-44.5	20.6	0.00e+00	0	27	0	876609536	60	8230
2026-01-04 20:18:35.95	339.86	11.23	-43.1	-44.5	20.6	0.00e+00	0	27	0	878706688	60	8150
2026-01-04 20:18:36.96	339.70	11.19	-43.2	-44.7	20.4	0.00e+00	0	27	0	879755264	60	8341
2026-01-04 20:18:37.97	339.54	11.14	-43.6	-45.1	20.0	0.00e+00	0	27	0	881852416	60	8791
2026-01-04 20:18:38.98	339.38	11.10	-43.8	-45.3	19.6	0.00e+00	0	27	0	883949568	60	8974
2026-01-04 20:18:39.99	339.21	11.05	-43.6	-45.2	19.9	0.00e+00	0	27	0	886046720	60	8825
2026-01-04 20:18:41.01	339.05	11.00	-43.6	-45.2	19.9	0.00e+00	0	27	0	888143872	60	8822
2026-01-04 20:18:42.02	338.89	10.95	-44.1	-45.7	19.7	0.00e+00	0	27	0	889192448	60	9385
2026-01-04 20:18:43.03	338.73	10.91	-44.2	-45.8	19.3	0.00e+00	0	27	0	891289600	60	9492
2026-01-04 20:18:44.04	338.57	10.86	-43.7	-45.1	20.0	0.00e+00	0	27	0	893386752	60	8811
2026-01-04 20:18:45.05	338.42	10.81	-43.6	-45.1	19.9	0.00e+00	0	27	0	895483904	60	8786
2026-01-04 20:18:46.06	338.26	10.77	-43.5	-44.9	20.1	0.00e+00	0	27	0	897581056	60	8602
2026-01-04 20:18:47.07	338.10	10.72	-43.6	-45.1	19.9	0.00e+00	0	27	0	898629632	60	8741
2026-01-04 20:18:48.08	337.94	10.67	-43.7	-45.2	19.8	0.00e+00	0	27	0	900726784	60	8898
2026-01-04 20:18:49.09	337.79	10.62	-43.9	-45.5	19.7	0.00e+00	0	27	0	902823936	60	9132
2026-01-04 20:18:50.10	337.63	10.58	-43.8	-45.3	19.8	0.00e+00	0	27	0	904921088	60	8961
2026-01-04 20:18:51.12	337.48	10.53	-43.8	-45.4	19.8	0.00e+00	0	27	0	907018240	60	9046
2026-01-04 20:18:52.13	337.32	10.48	-44.1	-45.7	19.2	0.00e+00	0	27	0	909115392	60	9347
2026-01-04 20:18:53.14	337.17	10.43	-44.1	-45.7	19.4	0.00e+00	0	27	0	910163968	60	9377
2026-01-04 20:18:54.15	337.01	10.38	-44.0	-45.6	19.3	0.00e+00	0	27	0	912261120	60	9315
2026-01-04 20:18:55.16	336.86	10.33	-43.9	-45.5	19.6	0.00e+00	0	27	0	914358272	60	9153
2026-01-04 20:18:56.17	336.71	10.29	-44.0	-45.5	19.5	0.00e+00	0	27	0	916455424	60	9223
2026-01-04 20:18:57.18	336.56	10.24	-43.9	-45.5	19.6	0.00e+00	0	27	0	918552576	60	9152
2026-01-04 20:18:58.19	336.41	10.19	-44.1	-45.7	19.2	0.00e+00	0	27	0	919601152	60	9421
2026-01-04 20:18:59.20	336.25	10.14	-43.9	-45.5	19.5	0.00e+00	0	27	0	921698304	60	9201
2026-01-04 20:19:00.22	336.10	10.09	-43.9	-45.4	19.6	0.00e+00	0	27	0	923795456	60	9075
2026-01-04 20:19:01.23	335.95	10.04	-43.8	-45.4	19.7	0.00e+00	0	27	0	925892608	60	9034
2026-01-04 20:19:02.24	335.80	9.99	-44.0	-45.5	19.6	0.00e+00	0	27	0	927989760	60	9185
2026-01-04 20:19:03.25	335.65	9.94	-43.9	-45.5	19.3	0.00e+00	0	27	0	929038336	60	9193
2026-01-04 20:19:04.26	335.51	9.89	-43.9	-45.5	19.6	0.00e+00	0	27	0	931135488	60	9164
2026-01-04 20:19:05.27	335.36	9.84	-44.2	-45.8	19.3	0.00e+00	0	27	0	933232640	60	9540
2026-01-04 20:19:06.28	335.21	9.79	-44.2	-45.9	19.2	0.00e+00	0	27	0	935329792	60	9578
2026-01-04 20:19:07.29	335.06	9.74	-43.8	-45.4	19.6	0.00e+00	0	27	0	937426944	60	9071
2026-01-04 20:19:08.31	334.92	9.69	-44.0	-45.5	19.6	0.00e+00	0	27	0	938475520	60	9215
2026-01-04 20:19:09.32	334.77	9.65	-43.8	-45.3	19.8	0.00e+00	0	27	0	940572672	60	8988
2026-01-04 20:19:10.33	334.62	9.60	-43.7	-45.1	19.8	0.00e+00	0	27	0	942669824	60	8817
2026-01-04 20:19:11.34	334.48	9.55	-43.8	-45.2	20.0	0.00e+00	0	27	0	944766976	60	8913
2026-01-04 20:19:12.35	334.34	9.50	-43.9	-45.4	19.6	0.00e+00	0	27	0	946864128	60	9110
2026-01-04 20:19:13.36	334.19	9.45	-43.7	-45.1	20.0	0.00e+00	0	27	0	948961280	60	8818
2026-01-04 20:19:14.37	334.05	9.40	-43.5	-44.9	20.1	0.00e+00	0	27	0	950009856	60	8578
2026-01-04 20:19:15.38	333.91	9.35	-43.4	-44.8	20.1	0.00e+00	0	27	0	952107008	60	8427
2026-01-04 20:19:16.39	333.76	9.30	-43.5	-44.9	20.1	0.00e+00	0	27	0	954204160	60	8574
2026-01-04 20:19:17.41	333.62	9.24	-43.6	-45.1	20.1	0.00e+00	0	27	0	956301312	60	8726
2026-01-04 20:19:18.42	333.48	9.19	-43.5	-44.9	20.1	0.00e+00	0	27	0	958398464	60	8543
2026-01-04 20:19:19.43	333.34	9.14	-43.3	-44.7	20.2	0.00e+00	0	27	0	959447040	60	8413
2026-01-04 20:19:20.44	333.20	9.09	-43.4	-44.9	20.2	0.00e+00	0	27	0	961544192	60	8532
2026-01-04 20:19:21.45	333.06	9.04	-43.7	-45.1	20.1	0.00e+00	0	27	0	963641344	60	8796
2026-01-04 20:19:22.46	332.92	8.99	-43.3	-44.7	20.3	0.00e+00	0	27	0	965738496	60	8346
2026-01-04 20:19:23.47	332.78	8.94	-43.2	-44.6	20.4	0.00e+00	0	27	0	967835648	60	8299
2026-01-04 20:19:24.48	332.64	8.89	-43.1	-44.5	20.3	0.00e+00	0	27	0	968884224	60	8199
2026-01-04 20:19:25.49	332.50	8.84	-43.0	-44.3	20.5	0.00e+00	0	27	0	970981376	60	8022
2026-01-04 20:19:26.51	332.36	8.79	-43.0	-44.3	20.5	0.00e+00	0	27	0	973078528	60	8018
2026-01-04 20:19:27.52	332.23	8.74	-43.2	-44.6	20.4	0.00e+00	0	27	0	975175680	60	8260
2026-01-04 20:19:28.53	332.09	8.69	-43.1	-44.4	20.5	0.00e+00	0	27	0	977272832	60	8112
2026-01-04 20:19:29.54	331.96	8.64	-43.0	-44.4	20.5	0.00e+00	0	27	0	978321408	60	8046
2026-01-04 20:19:30.55	331.82	8.58	-42.7	-44.0	20.9	0.00e+00	0	27	0	980418560	60	7724
2026-01-04 20:19:31.56	331.68	8.53	-42.9	-44.2	20.8	0.00e+00	0	27	0	982515712	60	7888
2026-01-04 20:19:32.57	331.55	8.48	-42.9	-44.2	20.8	0.00e+00	0	27	0	984612864	60	7888
2026-01-04 20:19:33.58	331.42	8.43	-43.0	-44.3	21.0	0.00e+00	0	27	0	986710016	60	7965
2026-01-04 20:19:34.59	331.28	8.38	-42.6	-43.9	21.2	0.00e+00	0	27	0	987758592	60	7613
2026-01-04 20:19:35.60	331.15	8.33	-42.3	-43.5	21.3	0.00e+00	0	27	0	989855744	60	7329
2026-01-04 20:19:36.62	331.02	8.28	-42.5	-43.7	21.1	0.00e+00	0	27	0	991952896	60	7498
2026-01-04 20:19:37.63	330.88	8.23	-42.5	-43.7	21.3	0.00e+00	0	27	0	994050048	60	7430
2026-01-04 20:19:38.64	330.75	8.17	-42.2	-43.4	21.5	0.00e+00	0	27	0	996147200	60	7230
2026-01-04 20:19:39.65	330.62	8.12	-42.5	-43.7	21.4	0.00e+00	0	27	0	997195776	60	7458
2026-01-04 20:19:40.66	330.49	8.07	-42.4	-43.6	21.6	0.00e+00	0	27	0	999292928	60	7414
2026-01-04 20:19:41.67	330.36	8.02	-42.5	-43.7	21.6	0.00e+00	0	27	0	1001390080	60	7506
2026-01-04 20:19:42.68	330.23	7.97	-42.2	-43.4	21.2	0.00e+00	0	27	0	1003487232	60	7237
2026-01-04 20:19:43.69	330.10	7.92	-42.0	-43.2	21.7	0.00e+00	0	27	0	1005584384	60	7032
2026-01-04 20:19:44.71	329.97	7.86	-42.1	-43.3	21.5	0.00e+00	0	27	0	1006632960	60	7120
2026-01-04 20:19:45.72	329.84	7.81	-42.0	-43.1	21.6	0.00e+00	0	27	0	1008730112	60	7002
2026-01-04 20:19:46.73	329.72	7.76	-42.0	-43.2	21.6	0.00e+00	0	27	0	1010827264	60	7054
2026-01-04 20:19:47.74	329.59	7.71	-41.9	-43.0	21.7	0.00e+00	0	27	0	1012924416	60	6895
2026-01-04 20:19:48.75	329.46	7.66	-41.8	-42.9	21.7	0.00e+00	0	27	0	1015021568	60	6846
2026-01-04 20:19:49.76	329.33	7.61	-41.9	-43.0	21.7	0.00e+00	0	27	0	1017118720	60	6918
2026-01-04 20:19:50.77	329.21	7.55	-41.8	-43.0	21.7	0.00e+00	0	27	0	1018167296	60	6869
2026-01-04 20:19:51.78	329.08	7.50	-41.9	-43.1	21.5	0.00e+00	0	27	0	1020264448	60	6969
2026-01-04 20:19:52.79	328.96	7.45	-41.6	-42.7	21.7	0.00e+00	0	27	0	1022361600	60	6667
2026-01-04 20:19:53.80	328.83	7.40	-41.7	-42.8	21.7	0.00e+00	0	27	0	1024458752	60	6768
2026-01-04 20:19:54.82	328.71	7.35	-41.4	-42.5	22.3	0.00e+00	0	27	0	1026555904	60	6499
2026-01-04 20:19:55.83	328.58	7.29	-41.3	-42.4	22.2	0.00e+00	0	27	0	1027604480	60	6447
2026-01-04 20:19:56.84	328.46	7.24	-41.9	-43.0	21.6	0.00e+00	0	27	0	1029701632	60	6921
2026-01-04 20:19:57.85	328.34	7.19	-42.1	-43.3	21.6	0.00e+00	0	27	0	1031798784	60	7125
2026-01-04 20:19:58.86	328.22	7.14	-41.8	-42.9	21.8	0.00e+00	0	27	0	1033895936	60	6821
2026-01-04 20:19:59.87	328.09	7.09	-41.7	-42.9	21.4	0.00e+00	0	27	0	1035993088	60	6785
2026-01-04 20:20:00.88	327.97	7.03	-41.8	-42.9	21.7	0.00e+00	0	27	0	1037041664	60	6824
2026-01-04 20:20:01.89	327.85	6.98	-41.9	-43.0	21.8	0.00e+00	0	27	0	1039138816	60	6879
2026-01-04 20:20:02.90	327.73	6.93	-41.8	-42.9	21.8	0.00e+00	0	27	0	1041235968	60	6810
2026-01-04 20:20:03.91	327.61	6.88	-42.2	-43.3	21.5	0.00e+00	0	27	0	1043333120	60	7170
2026-01-04 20:20:04.93	327.49	6.83	-41.9	-43.1	21.8	0.00e+00	0	27	0	1045430272	60	6969
2026-01-04 20:20:05.94	327.37	6.77	-41.9	-43.0	21.9	0.00e+00	0	27	0	1046478848	60	6906
2026-01-04 20:20:06.95	327.25	6.72	-41.9	-43.1	21.8	0.00e+00	0	27	0	1048576000	60	6944
2026-01-04 20:20:07.96	327.13	6.67	-42.1	-43.3	21.5	0.00e+00	0	27	0	1050673152	60	7137
2026-01-04 20:20:08.97	327.02	6.62	-41.8	-42.9	21.8	0.00e+00	0	27	0	1052770304	60	6829
2026-01-04 20:20:09.98	326.90	6.57	-41.8	-42.9	21.9	0.00e+00	0	27	0	1054867456	60	6839
2026-01-04 20:20:10.99	326.78	6.51	-42.0	-43.2	21.4	0.00e+00	0	27	0	1056964608	60	7063
2026-01-04 20:20:12.00	326.67	6.46	-41.8	-42.9	21.8	0.00e+00	0	27	0	1058013184	60	6846
2026-01-04 20:20:13.01	326.55	6.41	-42.2	-43.5	21.2	0.00e+00	0	27	0	1060110336	60	7254
2026-01-04 20:20:14.03	326.43	6.36	-42.2	-43.4	21.4	0.00e+00	0	27	0	1062207488	60	7217
2026-01-04 20:20:15.04	326.32	6.30	-42.4	-43.6	21.5	0.00e+00	0	27	0	1064304640	60	7354
2026-01-04 20:20:16.05	326.20	6.25	-42.0	-43.2	21.6	0.00e+00	0	27	0	1066401792	60	7014
2026-01-04 20:20:17.06	326.09	6.20	-42.7	-44.0	21.0	0.00e+00	0	27	0	1067450368	60	7759
2026-01-04 20:20:18.07	325.97	6.15	-42.3	-43.5	21.1	0.00e+00	0	27	0	1069547520	60	7332
2026-01-04 20:20:19.08	325.86	6.09	-42.4	-43.7	21.1	0.00e+00	0	27	0	1071644672	60	7463
2026-01-04 20:20:20.09	325.75	6.04	-42.8	-44.1	20.9	0.00e+00	0	27	0	1073741824	60	7807
2026-01-04 20:20:21.10	325.63	5.99	-42.4	-43.7	20.9	0.00e+00	0	27	0	1075838976	60	7452
2026-01-04 20:20:22.11	325.52	5.94	-42.7	-44.0	21.0	0.00e+00	0	27	0	1076887552	60	7691
2026-01-04 20:20:23.12	325.41	5.89	-42.3	-43.6	21.2	0.00e+00	0	27	0	1078984704	60	7353
2026-01-04 20:20:24.14	325.30	5.83	-42.3	-43.6	21.2	0.00e+00	0	27	0	1081081856	60	7342
2026-01-04 20:20:25.15	325.19	5.78	-42.4	-43.7	21.1	0.00e+00	0	27	0	1083179008	60	7463
2026-01-04 20:20:26.16	325.08	5.73	-42.5	-43.7	21.2	0.00e+00	0	27	0	1085276160	60	7474
2026-01-04 20:20:27.17	324.96	5.68	-42.7	-44.0	20.9	0.00e+00	0	27	0	1086324736	60	7707
2026-01-04 20:20:28.18	324.85	5.62	-42.2	-43.4	21.4	0.00e+00	0	27	0	1088421888	60	7205
2026-01-04 20:20:29.19	324.75	5.57	-42.3	-43.6	21.1	0.00e+00	0	27	0	1090519040	60	7374
2026-01-04 20:20:30.20	324.64	5.52	-42.2	-43.4	21.3	0.00e+00	0	27	0	1092616192	60	7248
2026-01-04 20:20:31.21	324.53	5.47	-42.2	-43.4	21.2	0.00e+00	0	27	0	1094713344	60	7242
2026-01-04 20:20:32.22	324.42	5.42	-42.5	-43.7	21.2	0.00e+00	0	27	0	1096810496	60	7505
2026-01-04 20:20:33.24	324.31	5.36	-42.6	-43.9	20.9	0.00e+00	0	27	0	1097859072	60	7659
2026-01-04 20:20:34.25	324.20	5.31	-42.9	-44.2	21.0	0.00e+00	0	27	0	1099956224	60	7886
2026-01-04 20:20:35.26	324.10	5.26	-42.7	-44.0	21.0	0.00e+00	0	27	0	1102053376	60	7745
2026-01-04 20:20:36.27	323.99	5.21	-42.8	-44.1	20.6	0.00e+00	0	27	0	1104150528	60	7822
2026-01-04 20:20:37.28	323.88	5.15	-42.6	-43.8	21.0	0.00e+00	0	27	0	1106247680	60	7585
2026-01-04 20:20:38.29	323.78	5.10	-43.0	-44.3	20.5	0.00e+00	0	27	0	1107296256	60	8020
2026-01-04 20:20:39.30	323.67	5.05	-42.9	-44.3	20.6	0.00e+00	0	27	0	1109393408	60	8000
2026-01-04 20:20:40.31	323.57	5.00	-43.0	-44.4	20.4	0.00e+00	0	27	0	1111490560	60	8106
2026-01-04 20:20:41.32	323.46	4.95	-43.4	-44.9	20.0	0.00e+00	0	27	0	1113587712	60	8529
2026-01-04 20:20:42.33	323.36	4.89	-42.8	-44.1	20.6	0.00e+00	0	27	0	1115684864	60	7812
2026-01-04 20:20:43.34	323.25	4.84	-43.5	-44.9	20.1	0.00e+00	0	27	0	1116733440	60	8603
2026-01-04 20:20:44.35	323.15	4.79	-43.3	-44.7	20.1	0.00e+00	0	27	0	1118830592	60	8345
2026-01-04 20:20:45.37	323.04	4.74	-43.5	-45.0	19.6	0.00e+00	0	27	0	1120927744	60	8685
2026-01-04 20:20:46.38	322.94	4.69	-44.0	-45.5	19.6	0.00e+00	0	27	0	1123024896	60	9223
2026-01-04 20:20:47.39	322.84	4.63	-43.6	-45.1	19.7	0.00e+00	0	27	0	1125122048	60	8732
2026-01-04 20:20:48.40	322.74	4.58	-43.4	-44.8	20.0	0.00e+00	0	27	0	1126170624	60	8500
2026-01-04 20:20:49.41	322.64	4.53	-43.7	-45.1	20.2	0.00e+00	0	27	0	1128267776	60	8821
2026-01-04 20:20:50.42	322.53	4.48	-43.3	-44.6	20.1	0.00e+00	0	27	0	1130364928	60	8320
2026-01-04 20:20:51.43	322.43	4.43	-43.6	-45.1	19.7	0.00e+00	0	27	0	1132462080	60	8806
2026-01-04 20:20:52.44	322.33	4.37	-43.1	-44.5	20.1	0.00e+00	0	27	0	1134559232	60	8233
2026-01-04 20:20:53.46	322.23	4.32	-43.7	-45.3	19.6	0.00e+00	0	27	0	1135607808	60	8935
2026-01-04 20:20:54.47	322.13	4.27	-43.5	-44.9	20.0	0.00e+00	0	27	0	1137704960	60	8599
2026-01-04 20:20:55.48	322.03	4.22	-43.8	-45.2	19.8	0.00e+00	0	27	0	1139802112	60	8919
2026-01-04 20:20:56.49	321.93	4.17	-43.6	-45.2	19.6	0.00e+00	0	27	0	1141899264	60	8856
2026-01-04 20:20:57.50	321.83	4.11	-44.0	-45.6	19.2	0.00e+00	0	27	0	1143996416	60	9341
2026-01-04 20:20:58.51	321.74	4.06	-43.9	-45.6	19.3	0.00e+00	0	27	0	1146093568	60	9239
2026-01-04 20:20:59.52	321.64	4.01	-44.2	-45.7	19.4	0.00e+00	0	27	0	1147142144	60	9410
2026-01-04 20:21:00.53	321.54	3.96	-44.1	-45.7	19.0	0.00e+00	0	27	0	1149239296	60	9427
2026-01-04 20:21:01.54	321.44	3.91	-43.5	-45.1	19.5	0.00e+00	0	27	0	1151336448	60	8731
2026-01-04 20:21:02.55	321.35	3.86	-43.8	-45.3	19.6	0.00e+00	0	27	0	1153433600	60	8988
2026-01-04 20:21:03.57	321.25	3.80	-44.2	-45.8	18.9	0.00e+00	0	27	0	1155530752	60	9536
2026-01-04 20:21:04.58	321.15	3.75	-44.4	-46.0	19.0	0.00e+00	0	27	0	1156579328	60	9708
2026-01-04 20:21:05.59	321.06	3.70	-44.2	-45.8	19.2	0.00e+00	0	27	0	1158676480	60	9561
2026-01-04 20:21:06.60	320.96	3.65	-44.5	-46.2	19.1	0.00e+00	0	27	0	1160773632	60	9926
2026-01-04 20:21:07.61	320.86	3.60	-44.5	-46.3	18.7	0.00e+00	0	27	0	1162870784	60	10041
2026-01-04 20:21:08.62	320.77	3.55	-44.7	-46.4	18.7	0.00e+00	0	27	0	1164967936	60	10166
2026-01-04 20:21:09.63	320.68	3.49	-44.1	-45.8	18.8	0.00e+00	0	27	0	1166016512	60	9543
2026-01-04 20:21:10.63	320.58	3.44	-44.0	-45.7	18.9	0.00e+00	0	27	0	1168113664	60	9417
2026-01-04 20:21:11.64	320.49	3.39	-44.3	-46.1	18.7	0.00e+00	0	27	0	1170210816	60	9827
2026-01-04 20:21:12.65	320.39	3.34	-44.4	-46.2	18.6	0.00e+00	0	27	0	1172307968	60	9933
2026-01-04 20:21:13.66	320.30	3.29	-44.6	-46.4	18.4	0.00e+00	0	27	0	1174405120	60	10224
2026-01-04 20:21:14.68	320.21	3.24	-45.0	-46.7	18.3	0.00e+00	0	27	0	1175453696	60	10598
2026-01-04 20:21:15.69	320.12	3.18	-44.2	-45.9	18.7	0.00e+00	0	27	0	1177550848	60	9602
2026-01-04 20:21:16.70	320.02	3.13	-44.5	-46.2	18.6	0.00e+00	0	27	0	1179648000	60	9998
2026-01-04 20:21:17.71	319.93	3.08	-44.4	-46.2	18.5	0.00e+00	0	27	0	1181745152	60	9920
2026-01-04 20:21:18.72	319.84	3.03	-50.5	-65.9	3.5	0.00e+00	0	27	104	1182793728	60	96678
2026-01-04 20:21:19.73	319.75	2.98	-51.0	-66.4	3.6	1.51e+00	0	27	104	1182793728	60	102258
2026-01-04 20:21:20.74	319.66	2.93	-51.2	-66.7	3.6	1.51e+00	0	27	104	1182793728	60	104957
2026-01-04 20:21:21.75	319.57	2.88	-51.6	-67.1	3.6	1.51e+00	0	27	104	1182793728	60	110245
2026-01-04 20:21:22.77	319.48	2.82	-51.4	-67.0	3.6	1.51e+00	0	27	104	1182793728	60	108657
2026-01-04 20:21:23.78	319.39	2.77	-51.6	-67.1	3.6	1.51e+00	0	27	104	1182793728	60	110182
2026-01-04 20:21:24.79	319.30	2.72	-51.5	-67.0	3.6	1.51e+00	0	27	104	1182793728	60	109760
2026-01-04 20:21:25.80	319.21	2.67	-51.5	-67.0	3.6	1.51e+00	0	27	104	1182793728	60	109459
2026-01-04 20:21:26.81	319.12	2.62	-51.5	-67.1	3.6	1.51e+00	0	27	104	1182793728	60	109871
