passes_logs/2026/01/04/R4.6S_Anadyr_2ch/R4.6S_Anadyr_2ch__20260104_071608_FENGYUN_3E_rec.log

#Pass ID: 20260104_071608_FENGYUN 3E
#Satellite: FENGYUN 3E
#Configuration: FENGYUN 3E
#almurnet v.1.7.20251203
#Start time: 2026-01-04 07:16:09

#Version: 2.2.20231116
#Station: R4.6S_Anadyr_2ch
#Location: 177.4865 lon 64.73178 lat
#TLE: 1 49008U 21062A   25350.97288215  .00000176  00000+0  10353-3 0  9997
#TLE: 2 49008  98.7477 351.4440 0000638 234.3856 125.7261 14.19881381230726

#Time	Az	El	Level	Level2	SNR	BER	BlckErr	Temp	State	Recorded	gain1	gain2
2026-01-04 07:16:09.23	230.15	0.03	-54.0	-65.1	3.5	8.46e-01	0	34	0	0	60	88729
2026-01-04 07:16:10.23	230.23	0.07	-54.0	-65.7	3.6	8.44e-01	0	35	104	0	60	94693
2026-01-04 07:16:11.24	230.32	0.12	-54.2	-65.8	3.6	8.46e-01	0	35	104	0	60	96505
2026-01-04 07:16:12.25	230.41	0.17	-54.6	-66.2	3.5	8.45e-01	0	35	104	0	60	100712
2026-01-04 07:16:13.26	230.49	0.21	-54.8	-66.4	3.6	8.45e-01	0	35	104	0	60	102655
2026-01-04 07:16:14.27	230.58	0.26	-54.5	-66.2	3.6	8.46e-01	0	35	104	0	60	100156
2026-01-04 07:16:15.28	230.66	0.30	-54.6	-66.3	3.6	8.45e-01	0	35	104	0	60	101438
2026-01-04 07:16:16.30	230.75	0.35	-54.7	-66.4	3.6	8.45e-01	0	35	104	0	60	102819
2026-01-04 07:16:17.31	230.84	0.40	-54.8	-66.5	3.6	8.45e-01	0	36	104	0	60	103852
2026-01-04 07:16:18.32	230.93	0.44	-54.8	-66.5	3.6	8.45e-01	0	36	104	0	60	103831
2026-01-04 07:16:19.33	231.01	0.49	-54.5	-66.1	3.6	8.45e-01	0	36	104	0	60	99290
2026-01-04 07:16:20.34	231.10	0.53	-54.4	-66.0	3.6	8.46e-01	0	35	104	0	60	98523
2026-01-04 07:16:21.35	231.19	0.58	-54.3	-65.9	3.6	8.46e-01	0	36	104	0	60	97373
2026-01-04 07:16:22.36	231.28	0.63	-54.2	-65.8	3.6	8.45e-01	0	36	104	0	60	96377
2026-01-04 07:16:23.37	231.37	0.67	-53.9	-65.5	3.6	8.45e-01	0	36	104	0	60	93025
2026-01-04 07:16:24.38	231.46	0.72	-54.0	-65.7	3.6	8.44e-01	0	36	104	0	60	94824
2026-01-04 07:16:25.40	231.55	0.77	-54.5	-66.1	3.6	8.45e-01	0	36	104	0	60	99942
2026-01-04 07:16:26.40	231.63	0.81	-54.7	-66.3	3.6	8.44e-01	0	36	104	0	60	102272
2026-01-04 07:16:27.42	231.72	0.86	-54.1	-65.7	3.6	8.46e-01	0	36	104	0	60	94786
2026-01-04 07:16:28.43	231.81	0.90	-54.6	-66.2	3.6	8.44e-01	0	36	104	0	60	100953
2026-01-04 07:16:29.44	231.90	0.95	-54.6	-66.2	3.6	8.45e-01	0	36	104	0	60	100942
2026-01-04 07:16:30.45	231.99	1.00	-54.5	-66.1	3.6	8.47e-01	0	36	104	0	60	99754
2026-01-04 07:16:31.46	232.09	1.04	-54.3	-66.0	3.6	8.45e-01	0	36	104	0	60	97958
2026-01-04 07:16:32.47	232.18	1.09	-53.7	-65.3	3.6	8.45e-01	0	36	104	0	60	90874
2026-01-04 07:16:33.48	232.27	1.13	-54.7	-66.3	3.6	8.45e-01	0	36	104	0	60	101941
2026-01-04 07:16:34.49	232.36	1.18	-53.8	-65.4	3.6	8.45e-01	0	36	104	0	60	92339
2026-01-04 07:16:35.50	232.45	1.23	-53.9	-65.4	3.6	8.46e-01	0	36	104	0	60	92320
2026-01-04 07:16:36.51	232.54	1.27	-54.9	-66.5	3.6	8.45e-01	0	36	104	0	60	104402
2026-01-04 07:16:37.53	232.64	1.32	-54.9	-66.5	3.6	8.45e-01	0	36	104	0	60	104287
2026-01-04 07:16:38.54	232.73	1.37	-54.3	-65.9	3.6	8.45e-01	0	36	104	0	60	97152
2026-01-04 07:16:39.55	232.82	1.41	-54.5	-66.1	3.6	8.45e-01	0	36	104	0	60	99874
2026-01-04 07:16:40.56	232.91	1.46	-54.8	-66.4	3.6	8.45e-01	0	36	104	0	60	102990
2026-01-04 07:16:41.57	233.01	1.51	-55.2	-66.8	3.6	8.44e-01	0	36	104	0	60	108267
2026-01-04 07:16:42.58	233.10	1.55	-54.4	-65.9	3.6	8.45e-01	0	36	104	0	60	97506
2026-01-04 07:16:43.59	233.20	1.60	-54.9	-66.5	3.6	8.46e-01	0	36	104	0	60	104157
2026-01-04 07:16:44.60	233.29	1.65	-54.3	-65.9	3.6	8.44e-01	0	36	104	0	60	97390
2026-01-04 07:16:45.61	233.38	1.69	-54.9	-66.5	3.6	8.45e-01	0	36	104	0	60	104124
2026-01-04 07:16:46.62	233.48	1.74	-54.9	-66.6	3.6	8.44e-01	0	36	104	0	60	105113
2026-01-04 07:16:47.63	233.57	1.78	-54.6	-66.2	3.6	8.45e-01	0	36	104	0	60	100602
2026-01-04 07:16:48.64	233.67	1.83	-54.0	-65.6	3.6	8.46e-01	0	36	104	0	60	94240
2026-01-04 07:16:49.65	233.76	1.88	-54.9	-66.5	3.6	8.45e-01	0	36	104	0	60	104320
2026-01-04 07:16:50.66	233.86	1.92	-54.7	-66.3	3.6	8.45e-01	0	36	104	0	60	102362
2026-01-04 07:16:51.68	233.96	1.97	-55.1	-66.6	3.6	8.44e-01	0	36	104	0	60	105996
2026-01-04 07:16:52.69	234.05	2.02	-54.7	-66.3	3.6	8.45e-01	0	36	104	0	60	102410
2026-01-04 07:16:53.70	234.15	2.06	-53.9	-65.5	3.6	8.45e-01	0	36	104	0	60	92638
2026-01-04 07:16:54.70	234.25	2.11	-54.6	-66.2	3.6	8.45e-01	0	36	104	0	60	101251
2026-01-04 07:16:55.72	234.35	2.16	-54.9	-66.5	3.6	8.44e-01	0	36	104	0	60	103977
2026-01-04 07:16:56.73	234.44	2.20	-54.8	-66.4	3.6	8.46e-01	0	36	104	0	60	103021
2026-01-04 07:16:57.74	234.54	2.25	-54.4	-66.0	3.6	8.45e-01	0	36	104	0	60	98168
2026-01-04 07:16:58.75	234.64	2.30	-54.7	-66.3	3.6	8.45e-01	0	36	104	0	60	102017
2026-01-04 07:16:59.76	234.74	2.34	-54.9	-66.5	3.6	8.46e-01	0	36	104	0	60	104047
2026-01-04 07:17:00.75	234.84	2.39	-54.8	-66.4	3.6	8.45e-01	0	36	104	0	60	102913
2026-01-04 07:17:01.76	234.93	2.44	-54.4	-66.0	3.6	8.45e-01	0	36	104	0	60	98286
2026-01-04 07:17:02.77	235.03	2.48	-54.9	-66.5	3.6	8.47e-01	0	36	104	0	60	104350
2026-01-04 07:17:03.78	235.13	2.53	-53.6	-65.3	3.6	8.45e-01	0	36	104	0	60	90553
2026-01-04 07:17:04.79	235.23	2.58	-54.3	-66.0	3.6	8.46e-01	0	36	104	0	60	97987
2026-01-04 07:17:05.80	235.33	2.62	-55.4	-67.0	3.6	8.46e-01	0	36	104	0	60	110006
2026-01-04 07:17:06.81	235.43	2.67	-54.5	-66.1	3.6	8.45e-01	0	36	104	0	60	99709
2026-01-04 07:17:07.82	235.54	2.72	-54.8	-66.4	3.6	8.44e-01	0	36	104	0	60	103520
2026-01-04 07:17:08.83	235.64	2.76	-55.2	-66.8	3.6	8.45e-01	0	36	104	0	60	107974
2026-01-04 07:17:09.85	235.74	2.81	-54.7	-66.4	3.6	8.46e-01	0	36	104	0	60	102622
2026-01-04 07:17:10.86	235.84	2.86	-54.3	-65.9	3.6	8.45e-01	0	36	104	0	60	97479
2026-01-04 07:17:11.87	235.94	2.90	-54.7	-66.3	3.6	8.45e-01	0	36	104	0	60	102342
2026-01-04 07:17:12.88	236.05	2.95	-54.7	-66.3	3.6	8.46e-01	0	36	104	0	60	102055
2026-01-04 07:17:13.89	236.15	3.00	-54.7	-66.3	3.6	8.46e-01	0	36	104	0	60	101685
2026-01-04 07:17:14.90	236.25	3.04	-53.9	-65.5	3.6	8.45e-01	0	36	104	0	60	92410
2026-01-04 07:17:15.91	236.36	3.09	-54.9	-66.5	3.6	8.45e-01	0	36	104	0	60	104305
2026-01-04 07:17:16.92	236.46	3.14	-54.1	-65.7	3.6	8.45e-01	0	36	104	0	60	95210
2026-01-04 07:17:17.93	236.56	3.18	-54.3	-66.0	3.6	8.45e-01	0	36	104	0	60	98366
2026-01-04 07:17:18.94	236.67	3.23	-54.3	-65.9	3.6	8.45e-01	0	36	104	0	60	97536
2026-01-04 07:17:19.95	236.77	3.28	-54.9	-66.5	3.6	8.45e-01	0	36	104	0	60	104237
2026-01-04 07:17:20.96	236.88	3.32	-54.3	-66.0	3.6	8.44e-01	0	36	104	0	60	98413
2026-01-04 07:17:21.98	236.98	3.37	-54.6	-66.2	3.6	8.45e-01	0	36	104	0	60	100646
2026-01-04 07:17:22.99	237.09	3.42	-54.1	-65.7	3.6	8.46e-01	0	36	104	0	60	95542
2026-01-04 07:17:24.00	237.20	3.47	-55.2	-66.8	3.6	8.45e-01	0	36	104	0	60	107702
2026-01-04 07:17:25.00	237.30	3.51	-54.5	-66.0	3.6	8.44e-01	0	36	104	0	60	98950
2026-01-04 07:17:26.02	237.41	3.56	-54.4	-66.1	3.6	8.44e-01	0	36	104	0	60	99584
2026-01-04 07:17:27.03	237.52	3.61	-54.1	-65.7	3.6	8.45e-01	0	36	104	0	60	95223
2026-01-04 07:17:28.04	237.62	3.65	-54.1	-65.7	3.6	8.45e-01	0	36	104	0	60	95181
2026-01-04 07:17:29.05	237.73	3.70	-53.9	-65.5	3.6	8.45e-01	0	36	104	0	60	92779
2026-01-04 07:17:30.06	237.84	3.75	-54.1	-65.8	3.6	8.45e-01	0	36	104	0	60	96177
2026-01-04 07:17:31.07	237.95	3.79	-54.4	-66.0	3.6	8.45e-01	0	36	104	0	60	98230
2026-01-04 07:17:32.08	238.06	3.84	-53.5	-65.1	3.6	8.46e-01	0	36	104	0	60	88823
2026-01-04 07:17:33.09	238.16	3.89	-54.0	-65.7	3.6	8.46e-01	0	36	104	0	60	94946
2026-01-04 07:17:34.11	238.27	3.93	-53.9	-65.6	3.6	8.45e-01	0	36	104	0	60	93724
2026-01-04 07:17:35.11	238.38	3.98	-54.0	-65.6	3.6	8.45e-01	0	36	104	0	60	93984
2026-01-04 07:17:36.13	238.49	4.03	-53.9	-65.6	3.6	8.44e-01	0	36	104	0	60	93632
2026-01-04 07:17:37.14	238.60	4.07	-54.5	-66.0	3.6	8.45e-01	0	36	104	0	60	98968
2026-01-04 07:17:38.15	238.72	4.12	-54.8	-66.4	3.6	8.45e-01	0	36	104	0	60	103300
2026-01-04 07:17:39.16	238.83	4.17	-54.0	-65.6	3.6	8.45e-01	0	36	104	0	60	93808
2026-01-04 07:17:40.17	238.94	4.21	-54.5	-66.2	3.6	8.44e-01	0	36	104	0	60	101287
2026-01-04 07:17:41.18	239.05	4.26	-55.1	-66.7	3.6	8.45e-01	0	37	104	0	60	106504
2026-01-04 07:17:42.19	239.16	4.31	-55.2	-66.7	3.6	8.45e-01	0	36	104	0	60	107197
2026-01-04 07:17:43.20	239.27	4.35	-54.3	-65.8	3.6	8.45e-01	0	36	104	0	60	96681
2026-01-04 07:17:44.21	239.39	4.40	-54.3	-65.9	3.6	8.45e-01	0	36	104	0	60	96905
2026-01-04 07:17:45.23	239.50	4.45	-53.9	-65.6	3.6	8.45e-01	0	36	104	0	60	93669
2026-01-04 07:17:46.24	239.61	4.49	-54.4	-66.0	3.6	8.46e-01	0	36	104	0	60	98640
2026-01-04 07:17:47.25	239.73	4.54	-53.8	-65.4	3.6	8.46e-01	0	36	104	0	60	91982
2026-01-04 07:17:48.26	239.84	4.59	-54.4	-66.1	3.6	8.45e-01	0	36	104	0	60	99968
2026-01-04 07:17:49.27	239.96	4.63	-54.3	-65.9	3.6	8.44e-01	0	36	104	0	60	97382
2026-01-04 07:17:50.28	240.07	4.68	-54.6	-66.3	3.6	8.46e-01	0	37	104	0	60	101537
2026-01-04 07:17:51.29	240.19	4.73	-54.1	-65.8	3.6	8.45e-01	0	36	104	0	60	95647
2026-01-04 07:17:52.30	240.30	4.77	-54.5	-66.2	3.6	8.46e-01	0	36	104	0	60	100183
2026-01-04 07:17:53.31	240.42	4.82	-54.5	-66.1	3.6	8.45e-01	0	36	104	0	60	99687
2026-01-04 07:17:54.32	240.53	4.87	-54.1	-65.7	3.6	8.45e-01	0	36	104	0	60	95540
2026-01-04 07:17:55.33	240.65	4.91	-54.3	-66.0	3.6	8.46e-01	0	36	104	0	60	98280
2026-01-04 07:17:56.34	240.77	4.96	-54.4	-66.0	3.6	8.45e-01	0	36	104	0	60	98691
2026-01-04 07:17:57.36	240.89	5.01	-54.6	-66.2	3.6	8.45e-01	0	36	104	0	60	100972
2026-01-04 07:17:58.36	241.00	5.05	-54.7	-66.3	3.6	8.44e-01	0	37	104	0	60	101798
2026-01-04 07:17:59.37	241.12	5.10	-54.4	-66.0	3.6	8.45e-01	0	36	104	0	60	98373
2026-01-04 07:18:00.38	241.24	5.15	-55.0	-66.6	3.6	8.45e-01	0	36	104	0	60	105788
2026-01-04 07:18:01.39	241.36	5.19	-54.2	-65.9	3.6	8.47e-01	0	36	104	0	60	97011
2026-01-04 07:18:02.40	241.48	5.24	-55.0	-66.7	3.6	8.46e-01	0	37	104	0	60	106414
2026-01-04 07:18:03.41	241.60	5.29	-54.3	-66.0	3.6	8.46e-01	0	37	104	0	60	98066
2026-01-04 07:18:04.42	241.72	5.33	-54.2	-65.8	3.6	8.46e-01	0	36	104	0	60	96321
2026-01-04 07:18:05.43	241.84	5.38	-55.2	-66.8	3.6	8.46e-01	0	36	104	0	60	108148
2026-01-04 07:18:06.44	241.96	5.42	-54.9	-66.5	3.6	8.45e-01	0	37	104	0	60	104802
2026-01-04 07:18:07.46	242.08	5.47	-54.6	-66.6	3.6	8.45e-01	0	37	104	0	60	105941
2026-01-04 07:18:08.47	242.20	5.52	-54.1	-65.9	3.6	8.46e-01	0	37	104	0	60	97620
2026-01-04 07:18:09.48	242.32	5.56	-54.0	-65.7	3.6	8.46e-01	0	37	104	0	60	95214
2026-01-04 07:18:10.49	242.44	5.61	-54.3	-66.1	3.6	8.45e-01	0	36	104	0	60	99930
2026-01-04 07:18:11.50	242.57	5.66	-54.7	-66.5	3.6	8.45e-01	0	36	104	0	60	104720
2026-01-04 07:18:12.51	242.69	5.70	-55.3	-67.1	3.6	8.45e-01	0	36	104	0	60	111187
2026-01-04 07:18:13.52	242.81	5.75	-54.6	-66.3	3.6	8.45e-01	0	36	104	0	60	102163
2026-01-04 07:18:14.53	242.93	5.80	-54.9	-66.5	3.6	8.46e-01	0	37	104	0	60	104691
2026-01-04 07:18:15.54	243.06	5.84	-53.9	-65.6	3.6	8.45e-01	0	36	104	0	60	93679
2026-01-04 07:18:16.55	243.18	5.89	-53.6	-65.2	3.6	8.44e-01	0	36	104	0	60	89409
2026-01-04 07:18:17.56	243.31	5.93	-54.3	-65.9	3.6	8.46e-01	0	37	104	0	60	97819
2026-01-04 07:18:18.57	243.43	5.98	-54.3	-65.9	3.6	8.46e-01	0	37	104	0	60	97060
2026-01-04 07:18:19.58	243.56	6.03	-54.0	-65.6	3.6	8.46e-01	0	37	104	0	60	94054
2026-01-04 07:18:20.59	243.68	6.07	-53.2	-64.8	3.6	8.46e-01	0	37	104	0	60	85474
2026-01-04 07:18:21.60	243.81	6.12	-52.6	-64.2	3.6	8.45e-01	0	37	104	0	60	80052
2026-01-04 07:18:22.62	243.94	6.16	-52.3	-63.7	3.6	8.46e-01	0	37	104	0	60	75934
2026-01-04 07:18:23.63	244.06	6.21	-46.7	-48.5	14.7	1.10e-06	0	37	104	0	60	13195
2026-01-04 07:18:24.64	244.19	6.26	-43.8	-45.1	14.8	0.00e+00	0	37	0	5242880	60	8897
2026-01-04 07:18:25.65	244.32	6.30	-51.7	-61.4	3.6	8.45e-01	0	37	104	6291456	60	57935
2026-01-04 07:18:26.66	244.45	6.35	-48.9	-52.4	11.6	7.41e-01	0	37	104	6291456	60	20633
2026-01-04 07:18:27.67	244.58	6.39	-45.3	-46.8	15.1	0.00e+00	0	37	0	12582912	60	10808
2026-01-04 07:18:28.68	244.70	6.44	-44.6	-45.9	16.1	4.34e-05	0	37	0	19922944	60	9711
2026-01-04 07:18:29.69	244.83	6.48	-47.6	-49.7	12.3	3.12e-04	0	37	0	27262976	60	15112
2026-01-04 07:18:30.70	244.96	6.53	-47.6	-49.6	12.5	1.17e-04	0	37	0	34603008	60	14937
2026-01-04 07:18:31.71	245.09	6.58	-47.3	-49.4	11.9	8.58e-05	0	37	0	41943040	60	14520
2026-01-04 07:18:32.72	245.22	6.62	-46.3	-48.0	14.4	5.63e-04	0	37	0	49283072	60	12415
2026-01-04 07:18:33.73	245.35	6.67	-46.5	-48.3	14.3	2.17e-05	0	37	0	56623104	60	12823
2026-01-04 07:18:34.74	245.49	6.71	-46.0	-47.7	14.1	1.10e-06	0	37	0	63963136	60	11979
2026-01-04 07:18:35.75	245.62	6.76	-47.0	-49.1	14.9	6.80e-06	0	37	0	71303168	60	14027
2026-01-04 07:18:36.76	245.75	6.80	-44.6	-46.0	15.2	0.00e+00	0	37	0	78643200	60	9802
2026-01-04 07:18:37.77	245.88	6.85	-45.7	-47.2	14.7	0.00e+00	0	37	0	84934656	60	11267
2026-01-04 07:18:38.79	246.02	6.89	-45.3	-46.7	15.4	0.00e+00	0	37	0	92274688	60	10715
2026-01-04 07:18:39.79	246.15	6.94	-45.2	-46.7	15.3	0.00e+00	0	37	0	100663296	60	10708
2026-01-04 07:18:40.81	246.28	6.98	-46.4	-48.1	14.1	2.20e-06	0	37	0	106954752	60	12558
2026-01-04 07:18:41.82	246.42	7.03	-44.3	-45.6	16.0	0.00e+00	0	37	0	114294784	60	9396
2026-01-04 07:18:42.83	246.55	7.07	-43.9	-45.1	16.5	0.00e+00	0	37	0	121634816	60	8922
2026-01-04 07:18:43.84	246.69	7.12	-44.0	-45.3	16.1	0.00e+00	0	37	0	128974848	60	9127
2026-01-04 07:18:44.85	246.82	7.16	-42.7	-43.8	17.8	0.00e+00	0	37	0	136314880	60	7678
2026-01-04 07:18:45.86	246.96	7.21	-43.9	-45.2	17.4	0.00e+00	0	37	0	143654912	60	8931
2026-01-04 07:18:46.87	247.09	7.25	-42.9	-44.0	17.2	0.00e+00	0	37	0	150994944	60	7845
2026-01-04 07:18:47.88	247.23	7.30	-42.7	-43.8	17.0	0.00e+00	0	37	0	158334976	60	7658
2026-01-04 07:18:48.89	247.37	7.34	-41.8	-42.8	17.8	0.00e+00	0	37	0	165675008	60	6777
2026-01-04 07:18:49.90	247.50	7.39	-43.3	-44.5	17.6	0.00e+00	0	37	0	173015040	60	8247
2026-01-04 07:18:50.91	247.64	7.43	-43.4	-44.5	17.5	0.00e+00	0	37	0	180355072	60	8290
2026-01-04 07:18:51.92	247.78	7.48	-43.2	-44.3	17.9	0.00e+00	0	37	0	187695104	60	8117
2026-01-04 07:18:52.93	247.92	7.52	-42.8	-43.9	17.9	0.00e+00	0	37	0	195035136	60	7720
2026-01-04 07:18:53.95	248.06	7.57	-43.2	-44.3	17.6	0.00e+00	0	37	0	202375168	60	8117
2026-01-04 07:18:54.96	248.20	7.61	-42.6	-43.7	17.9	0.00e+00	0	37	0	209715200	60	7557
2026-01-04 07:18:55.96	248.33	7.65	-42.7	-43.7	18.3	0.00e+00	0	37	0	217055232	60	7575
2026-01-04 07:18:56.98	248.48	7.70	-42.9	-44.0	18.1	0.00e+00	0	37	0	224395264	60	7783
2026-01-04 07:18:57.99	248.62	7.74	-42.4	-43.4	19.1	0.00e+00	0	37	0	231735296	60	7307
2026-01-04 07:18:59.00	248.76	7.79	-42.1	-43.1	19.1	0.00e+00	0	37	0	239075328	60	7018
2026-01-04 07:19:00.01	248.90	7.83	-41.8	-42.8	19.0	0.00e+00	0	37	0	246415360	60	6778
2026-01-04 07:19:01.01	249.04	7.87	-40.7	-41.6	19.7	0.00e+00	0	37	0	252706816	60	5930
2026-01-04 07:19:02.02	249.18	7.92	-40.7	-41.6	19.8	0.00e+00	0	37	0	260046848	60	5928
2026-01-04 07:19:03.03	249.32	7.96	-40.7	-41.5	19.6	0.00e+00	0	37	0	267386880	60	5892
2026-01-04 07:19:04.04	249.47	8.00	-40.5	-41.4	19.9	0.00e+00	0	37	0	274726912	60	5771
2026-01-04 07:19:05.06	249.61	8.05	-41.5	-42.4	19.5	0.00e+00	0	37	0	282066944	60	6515
2026-01-04 07:19:06.07	249.75	8.09	-40.9	-41.8	19.9	0.00e+00	0	37	0	289406976	60	6069
2026-01-04 07:19:07.08	249.90	8.14	-41.0	-42.0	20.0	0.00e+00	0	37	0	296747008	60	6183
2026-01-04 07:19:08.09	250.04	8.18	-41.0	-41.9	19.5	0.00e+00	0	37	0	304087040	60	6122
2026-01-04 07:19:09.10	250.19	8.22	-40.3	-41.1	20.1	0.00e+00	0	37	0	311427072	60	5624
2026-01-04 07:19:10.11	250.33	8.27	-40.4	-41.2	20.1	0.00e+00	0	37	0	318767104	58	6383
2026-01-04 07:19:11.12	250.48	8.31	-40.7	-41.6	19.9	0.00e+00	0	37	0	326107136	58	6636
2026-01-04 07:19:12.13	250.63	8.35	-40.6	-41.5	19.9	0.00e+00	0	37	0	333447168	60	5875
2026-01-04 07:19:13.14	250.77	8.39	-39.8	-40.6	20.3	0.00e+00	0	37	0	340787200	58	5942
2026-01-04 07:19:14.15	250.92	8.44	-39.2	-40.0	20.8	0.00e+00	0	37	0	348127232	58	5555
2026-01-04 07:19:15.16	251.07	8.48	-39.6	-40.5	20.5	0.00e+00	0	37	0	355467264	56	6553
2026-01-04 07:19:16.17	251.21	8.52	-39.7	-40.6	20.2	0.00e+00	0	37	0	362807296	56	6642
2026-01-04 07:19:17.18	251.36	8.57	-39.4	-40.2	20.6	0.00e+00	0	37	0	370147328	58	5660
2026-01-04 07:19:18.19	251.51	8.61	-39.4	-40.3	20.4	0.00e+00	0	37	0	377487360	58	5696
2026-01-04 07:19:19.20	251.66	8.65	-39.3	-40.2	20.7	0.00e+00	0	37	0	384827392	58	5642
2026-01-04 07:19:20.21	251.81	8.69	-38.6	-39.4	20.9	0.00e+00	0	37	0	392167424	56	5805
2026-01-04 07:19:21.22	251.96	8.73	-38.3	-39.1	21.3	0.00e+00	0	37	0	399507456	56	5616
2026-01-04 07:19:22.23	252.11	8.78	-37.5	-38.2	21.6	0.00e+00	0	37	0	405798912	54	5694
2026-01-04 07:19:23.25	252.26	8.82	-37.5	-38.3	21.6	0.00e+00	0	37	0	414187520	54	5724
2026-01-04 07:19:24.26	252.41	8.86	-37.5	-38.3	21.7	0.00e+00	0	37	0	421527552	54	5715
2026-01-04 07:19:25.27	252.57	8.90	-37.5	-38.2	21.8	0.00e+00	0	37	0	427819008	54	5689
2026-01-04 07:19:26.28	252.72	8.94	-37.3	-38.0	21.9	0.00e+00	0	37	0	435159040	54	5563
2026-01-04 07:19:27.29	252.87	8.99	-37.2	-37.9	21.9	0.00e+00	0	37	0	443547648	54	5477
2026-01-04 07:19:28.30	253.02	9.03	-37.3	-38.0	22.0	0.00e+00	0	37	0	449839104	54	5542
2026-01-04 07:19:29.31	253.18	9.07	-37.1	-37.9	22.0	0.00e+00	0	37	0	457179136	52	6120
2026-01-04 07:19:30.32	253.33	9.11	-37.2	-37.9	22.1	0.00e+00	0	37	0	464519168	52	6128
2026-01-04 07:19:31.33	253.48	9.15	-37.1	-37.9	22.0	0.00e+00	0	37	0	471859200	52	6122
2026-01-04 07:19:32.34	253.64	9.19	-37.4	-38.1	21.9	0.00e+00	0	37	0	479199232	52	6303
2026-01-04 07:19:33.36	253.79	9.23	-37.4	-38.1	21.9	0.00e+00	0	37	0	486539264	52	6314
2026-01-04 07:19:34.37	253.95	9.27	-37.3	-38.0	21.9	0.00e+00	0	37	0	493879296	52	6211
2026-01-04 07:19:35.38	254.11	9.32	-37.3	-38.0	21.7	0.00e+00	0	37	0	501219328	52	6244
2026-01-04 07:19:36.39	254.26	9.36	-37.2	-38.0	21.9	0.00e+00	0	37	0	508559360	52	6193
2026-01-04 07:19:37.40	254.42	9.40	-37.0	-37.7	21.9	0.00e+00	0	37	0	515899392	52	6026
2026-01-04 07:19:38.41	254.58	9.44	-37.1	-37.8	21.9	0.00e+00	0	37	0	523239424	52	6097
2026-01-04 07:19:39.42	254.73	9.48	-37.0	-37.7	22.0	0.00e+00	0	37	0	530579456	52	6025
2026-01-04 07:19:40.43	254.89	9.52	-37.0	-37.8	22.0	0.00e+00	0	37	0	537919488	52	6038
2026-01-04 07:19:41.44	255.05	9.56	-37.0	-37.7	22.1	0.00e+00	0	37	0	545259520	52	6023
2026-01-04 07:19:42.46	255.21	9.60	-37.1	-37.8	22.1	0.00e+00	0	37	0	552599552	52	6072
2026-01-04 07:19:43.47	255.37	9.64	-37.0	-37.7	22.1	0.00e+00	0	37	0	559939584	52	5996
2026-01-04 07:19:44.48	255.53	9.68	-37.0	-37.7	22.1	0.00e+00	0	37	0	567279616	52	6024
2026-01-04 07:19:45.49	255.69	9.72	-37.1	-37.8	22.1	0.00e+00	0	37	0	573571072	52	6077
2026-01-04 07:19:46.50	255.85	9.75	-37.1	-37.8	22.2	0.00e+00	0	37	0	581959680	52	6085
2026-01-04 07:19:47.51	256.01	9.79	-37.0	-37.8	22.3	0.00e+00	0	37	0	589299712	52	6054
2026-01-04 07:19:48.52	256.17	9.83	-37.1	-37.9	22.2	0.00e+00	0	37	0	595591168	52	6113
2026-01-04 07:19:49.53	256.33	9.87	-37.1	-37.8	22.2	0.00e+00	0	37	0	602931200	52	6056
2026-01-04 07:19:50.54	256.49	9.91	-37.2	-38.0	22.2	0.00e+00	0	37	0	611319808	52	6181
2026-01-04 07:19:51.55	256.66	9.95	-37.0	-37.7	22.2	0.00e+00	0	37	0	617611264	52	5983
2026-01-04 07:19:52.56	256.82	9.99	-37.1	-37.8	22.2	0.00e+00	0	37	0	624951296	52	6069
2026-01-04 07:19:53.57	256.98	10.03	-36.9	-37.7	22.4	0.00e+00	0	37	0	632291328	52	5969
2026-01-04 07:19:54.58	257.15	10.06	-37.1	-37.8	22.3	0.00e+00	0	37	0	639631360	52	6080
2026-01-04 07:19:55.59	257.31	10.10	-36.9	-37.6	22.3	0.00e+00	0	37	0	646971392	52	5964
2026-01-04 07:19:56.61	257.48	10.14	-36.9	-37.7	22.2	0.00e+00	0	37	0	654311424	52	5965
2026-01-04 07:19:57.62	257.64	10.18	-36.8	-37.5	22.3	0.00e+00	0	37	0	661651456	52	5896
2026-01-04 07:19:58.63	257.81	10.22	-37.0	-37.8	22.2	0.00e+00	0	37	0	668991488	52	6035
2026-01-04 07:19:59.64	257.97	10.25	-36.8	-37.5	22.2	0.00e+00	0	37	0	676331520	52	5895
2026-01-04 07:20:00.65	258.14	10.29	-36.8	-37.5	22.3	0.00e+00	0	37	0	683671552	52	5886
2026-01-04 07:20:01.66	258.31	10.33	-36.9	-37.6	22.3	0.00e+00	0	37	0	691011584	52	5923
2026-01-04 07:20:02.67	258.47	10.36	-36.7	-37.5	22.3	0.00e+00	0	37	0	698351616	52	5835
2026-01-04 07:20:03.69	258.64	10.40	-36.6	-37.3	22.4	0.00e+00	0	37	0	705691648	52	5754
2026-01-04 07:20:04.70	258.81	10.44	-36.5	-37.2	22.4	0.00e+00	0	37	0	713031680	52	5671
2026-01-04 07:20:05.71	258.98	10.48	-36.6	-37.3	22.4	0.00e+00	0	37	0	720371712	52	5757
2026-01-04 07:20:06.72	259.15	10.51	-36.6	-37.4	22.3	0.00e+00	0	37	0	727711744	52	5766
2026-01-04 07:20:07.73	259.32	10.55	-36.5	-37.2	22.4	0.00e+00	0	37	0	735051776	52	5652
2026-01-04 07:20:08.74	259.49	10.58	-36.6	-37.3	22.3	0.00e+00	0	37	0	742391808	52	5743
2026-01-04 07:20:09.75	259.66	10.62	-36.6	-37.3	22.3	0.00e+00	0	37	0	749731840	52	5740
2026-01-04 07:20:10.76	259.83	10.66	-36.7	-37.5	22.1	0.00e+00	0	37	0	757071872	52	5842
2026-01-04 07:20:11.77	260.00	10.69	-36.7	-37.4	22.3	0.00e+00	0	37	0	764411904	52	5808
2026-01-04 07:20:12.78	260.17	10.73	-36.9	-37.6	22.3	0.00e+00	0	37	0	770703360	52	5933
2026-01-04 07:20:13.79	260.34	10.76	-36.5	-37.2	22.3	0.00e+00	0	37	0	779091968	52	5692
2026-01-04 07:20:14.81	260.51	10.80	-36.6	-37.3	22.4	0.00e+00	0	37	0	786432000	52	5714
2026-01-04 07:20:15.82	260.68	10.83	-36.6	-37.3	22.4	0.00e+00	0	37	0	792723456	52	5728
2026-01-04 07:20:16.83	260.86	10.87	-36.7	-37.4	22.4	0.00e+00	0	37	0	800063488	52	5818
2026-01-04 07:20:17.84	261.03	10.90	-36.6	-37.4	22.3	0.00e+00	0	37	0	808452096	52	5783
2026-01-04 07:20:18.85	261.20	10.93	-36.8	-37.6	22.4	0.00e+00	0	37	0	814743552	52	5898
2026-01-04 07:20:19.86	261.38	10.97	-36.8	-37.5	22.4	0.00e+00	0	37	0	822083584	52	5889
2026-01-04 07:20:20.87	261.55	11.00	-36.9	-37.6	22.2	0.00e+00	0	37	0	829423616	52	5929
2026-01-04 07:20:21.88	261.73	11.04	-37.0	-37.7	22.3	0.00e+00	0	37	0	836763648	52	6005
2026-01-04 07:20:22.89	261.90	11.07	-37.0	-37.7	22.0	0.00e+00	0	37	0	844103680	52	6029
2026-01-04 07:20:23.90	262.08	11.10	-37.5	-38.3	22.3	0.00e+00	0	37	0	851443712	52	6397
2026-01-04 07:20:24.91	262.25	11.14	-37.3	-38.0	22.4	0.00e+00	0	37	0	858783744	52	6235
2026-01-04 07:20:25.92	262.43	11.17	-37.3	-38.1	22.2	0.00e+00	0	37	0	866123776	54	5592
2026-01-04 07:20:26.94	262.61	11.20	-37.6	-38.3	22.6	0.00e+00	0	37	0	873463808	52	6439
2026-01-04 07:20:27.95	262.78	11.23	-37.6	-38.3	22.0	0.00e+00	0	37	0	880803840	54	5711
2026-01-04 07:20:28.96	262.96	11.27	-37.0	-37.7	22.6	0.00e+00	0	37	0	888143872	52	5981
2026-01-04 07:20:29.97	263.14	11.30	-37.2	-37.9	22.6	0.00e+00	0	37	0	895483904	52	6140
2026-01-04 07:20:30.98	263.32	11.33	-37.3	-38.0	22.4	0.00e+00	0	37	0	902823936	52	6238
2026-01-04 07:20:31.99	263.49	11.36	-37.2	-37.9	22.5	0.00e+00	0	37	0	910163968	52	6110
2026-01-04 07:20:33.00	263.67	11.39	-37.0	-37.7	22.5	0.00e+00	0	37	0	917504000	52	5978
2026-01-04 07:20:34.01	263.85	11.42	-37.2	-37.9	22.4	0.00e+00	0	37	0	924844032	52	6151
2026-01-04 07:20:35.02	264.03	11.46	-37.0	-37.8	22.5	0.00e+00	0	37	0	932184064	52	6051
2026-01-04 07:20:36.04	264.21	11.49	-37.2	-37.9	22.3	0.00e+00	0	37	0	939524096	52	6157
2026-01-04 07:20:37.05	264.39	11.52	-37.2	-37.9	22.5	0.00e+00	0	37	0	946864128	52	6122
2026-01-04 07:20:38.06	264.57	11.55	-37.3	-38.0	22.6	0.00e+00	0	37	0	954204160	52	6220
2026-01-04 07:20:39.07	264.75	11.58	-37.3	-38.0	22.3	0.00e+00	0	37	0	960495616	52	6240
2026-01-04 07:20:40.08	264.94	11.61	-36.5	-37.2	22.7	0.00e+00	0	37	0	967835648	52	5676
2026-01-04 07:20:41.09	265.12	11.64	-36.7	-37.4	22.6	0.00e+00	0	37	0	976224256	52	5773
2026-01-04 07:20:42.10	265.30	11.67	-38.3	-38.9	22.5	0.00e+00	0	37	0	982515712	54	6164
2026-01-04 07:20:43.11	265.48	11.70	-37.8	-38.4	22.8	0.00e+00	0	37	0	989855744	54	5826
2026-01-04 07:20:44.12	265.66	11.73	-37.1	-37.7	22.6	0.00e+00	0	37	0	997195776	54	5371
2026-01-04 07:20:45.14	265.85	11.76	-37.7	-38.4	22.5	0.00e+00	0	37	0	1004535808	54	5774
2026-01-04 07:20:46.15	266.03	11.78	-37.8	-38.6	22.1	0.00e+00	0	37	0	1011875840	54	5913
2026-01-04 07:20:47.16	266.22	11.81	-36.9	-37.6	22.3	0.00e+00	0	37	0	1019215872	52	5928
2026-01-04 07:20:48.17	266.40	11.84	-37.6	-38.3	22.0	0.00e+00	0	37	0	1026555904	52	6452
2026-01-04 07:20:49.18	266.58	11.87	-37.2	-38.0	22.1	0.00e+00	0	37	0	1033895936	52	6177
2026-01-04 07:20:50.19	266.77	11.90	-37.1	-37.9	22.1	0.00e+00	0	37	0	1041235968	52	6134
2026-01-04 07:20:51.20	266.95	11.92	-38.1	-38.9	21.9	0.00e+00	0	37	0	1048576000	52	6898
2026-01-04 07:20:52.21	267.14	11.95	-36.8	-37.6	22.4	0.00e+00	0	37	0	1055916032	52	5901
2026-01-04 07:20:53.22	267.33	11.98	-37.0	-37.7	22.5	0.00e+00	0	37	0	1063256064	52	6019
2026-01-04 07:20:54.23	267.51	12.00	-37.1	-37.8	22.4	0.00e+00	0	37	0	1070596096	52	6094
2026-01-04 07:20:55.24	267.70	12.03	-37.5	-38.2	22.6	0.00e+00	0	37	0	1077936128	52	6374
2026-01-04 07:20:56.25	267.88	12.06	-36.9	-37.6	22.6	0.00e+00	0	37	0	1085276160	52	5944
2026-01-04 07:20:57.26	268.07	12.08	-37.2	-37.9	22.3	0.00e+00	0	37	0	1092616192	52	6166
2026-01-04 07:20:58.27	268.26	12.11	-37.3	-38.0	22.3	0.00e+00	0	37	0	1099956224	52	6216
2026-01-04 07:20:59.28	268.45	12.13	-39.8	-40.6	21.8	0.00e+00	0	37	0	1107296256	54	7429
2026-01-04 07:21:00.30	268.64	12.16	-38.4	-39.2	22.2	0.00e+00	0	37	0	1114636288	54	6336
2026-01-04 07:21:01.31	268.82	12.19	-38.4	-39.2	22.3	0.00e+00	0	37	0	1121976320	54	6327
2026-01-04 07:21:02.32	269.01	12.21	-38.7	-39.4	22.0	0.00e+00	0	37	0	1129316352	54	6536
2026-01-04 07:21:03.33	269.20	12.23	-37.6	-38.4	22.2	0.00e+00	0	37	0	1135607808	54	5763
2026-01-04 07:21:04.34	269.39	12.26	-37.2	-38.0	22.2	0.00e+00	0	37	0	1143996416	54	5513
2026-01-04 07:21:05.35	269.58	12.28	-37.2	-37.9	22.4	0.00e+00	0	37	0	1151336448	52	6156
2026-01-04 07:21:06.36	269.77	12.31	-37.5	-38.2	22.4	0.00e+00	0	37	0	1157627904	52	6377
2026-01-04 07:21:07.37	269.96	12.33	-36.7	-37.4	22.6	0.00e+00	0	37	0	1164967936	52	5807
2026-01-04 07:21:08.38	270.15	12.35	-36.5	-37.3	22.6	0.00e+00	0	37	0	1172307968	52	5697
2026-01-04 07:21:09.39	270.34	12.38	-36.7	-37.4	22.6	0.00e+00	0	37	0	1179648000	52	5820
2026-01-04 07:21:10.40	270.53	12.40	-36.7	-37.4	22.6	0.00e+00	0	37	0	1186988032	52	5796
2026-01-04 07:21:11.41	270.72	12.42	-36.4	-37.2	22.6	0.00e+00	0	37	0	1194328064	52	5631
2026-01-04 07:21:12.43	270.92	12.44	-36.4	-37.1	22.6	0.00e+00	0	37	0	1201668096	52	5628
2026-01-04 07:21:13.44	271.11	12.47	-36.2	-36.9	22.6	0.00e+00	0	37	0	1209008128	52	5460
2026-01-04 07:21:14.44	271.30	12.49	-37.2	-38.0	22.2	0.00e+00	0	37	0	1216348160	52	6192
2026-01-04 07:21:15.46	271.49	12.51	-37.0	-37.8	22.6	0.00e+00	0	37	0	1223688192	52	6037
2026-01-04 07:21:16.47	271.69	12.53	-36.9	-37.6	22.6	0.00e+00	0	37	0	1231028224	52	5909
2026-01-04 07:21:17.48	271.88	12.55	-36.5	-37.2	22.7	0.00e+00	0	37	0	1238368256	52	5654
2026-01-04 07:21:18.49	272.07	12.57	-36.7	-37.4	22.7	0.00e+00	0	37	0	1245708288	52	5777
2026-01-04 07:21:19.50	272.26	12.59	-36.7	-37.4	22.8	0.00e+00	0	37	0	1253048320	52	5786
2026-01-04 07:21:20.51	272.46	12.61	-36.3	-37.0	22.9	0.00e+00	0	37	0	1260388352	52	5534
2026-01-04 07:21:21.52	272.65	12.63	-36.4	-37.0	22.8	0.00e+00	0	37	0	1267728384	52	5565
2026-01-04 07:21:22.53	272.85	12.65	-36.5	-37.2	22.7	0.00e+00	0	37	0	1275068416	52	5661
2026-01-04 07:21:23.54	273.04	12.67	-36.6	-37.3	22.7	0.00e+00	0	37	0	1282408448	52	5731
2026-01-04 07:21:24.55	273.23	12.69	-36.9	-37.6	22.7	0.00e+00	0	37	0	1289748480	52	5920
2026-01-04 07:21:25.56	273.43	12.71	-36.7	-37.4	22.7	0.00e+00	0	37	0	1297088512	52	5805
2026-01-04 07:21:26.57	273.62	12.73	-36.3	-37.0	22.8	0.00e+00	0	37	0	1304428544	52	5526
2026-01-04 07:21:27.58	273.82	12.74	-36.3	-37.0	22.8	0.00e+00	0	37	0	1310720000	52	5546
2026-01-04 07:21:28.59	274.02	12.76	-37.1	-37.8	22.6	0.00e+00	0	37	0	1319108608	52	6103
2026-01-04 07:21:29.60	274.21	12.78	-37.0	-37.7	22.5	0.00e+00	0	37	0	1325400064	52	6014
2026-01-04 07:21:30.61	274.41	12.80	-36.7	-37.4	22.7	0.00e+00	0	37	0	1332740096	52	5789
2026-01-04 07:21:31.62	274.60	12.81	-36.6	-37.4	22.6	0.00e+00	0	37	0	1340080128	52	5777
2026-01-04 07:21:32.64	274.80	12.83	-36.9	-37.6	22.7	0.00e+00	0	37	0	1347420160	52	5948
2026-01-04 07:21:33.65	275.00	12.84	-36.8	-37.5	22.7	0.00e+00	0	37	0	1354760192	52	5862
2026-01-04 07:21:34.66	275.19	12.86	-36.4	-37.1	22.8	0.00e+00	0	37	0	1362100224	52	5578
2026-01-04 07:21:35.67	275.39	12.88	-36.5	-37.2	22.9	0.00e+00	0	37	0	1369440256	52	5652
2026-01-04 07:21:36.68	275.59	12.89	-36.4	-37.1	22.8	0.00e+00	0	37	0	1376780288	52	5596
2026-01-04 07:21:37.69	275.79	12.91	-36.2	-36.9	22.9	0.00e+00	0	37	0	1384120320	52	5492
2026-01-04 07:21:38.70	275.98	12.92	-37.0	-37.8	22.7	0.00e+00	0	37	0	1391460352	52	6042
2026-01-04 07:21:39.71	276.18	12.94	-37.2	-37.9	22.7	0.00e+00	0	37	0	1398800384	52	6148
2026-01-04 07:21:40.72	276.38	12.95	-36.7	-37.4	22.5	0.00e+00	0	37	0	1406140416	52	5812
2026-01-04 07:21:41.73	276.58	12.96	-36.6	-37.3	22.6	0.00e+00	0	37	0	1413480448	52	5720
2026-01-04 07:21:42.74	276.78	12.98	-36.2	-36.9	22.8	0.00e+00	0	37	0	1420820480	52	5496
2026-01-04 07:21:43.75	276.97	12.99	-36.4	-37.1	22.7	0.00e+00	0	37	0	1428160512	52	5596
2026-01-04 07:21:44.76	277.17	13.00	-36.1	-36.8	22.8	0.00e+00	0	37	0	1435500544	52	5392
2026-01-04 07:21:45.77	277.37	13.02	-36.3	-37.0	22.8	0.00e+00	0	37	0	1442840576	52	5559
2026-01-04 07:21:46.78	277.57	13.03	-36.2	-36.9	22.8	0.00e+00	0	37	0	1450180608	52	5472
2026-01-04 07:21:47.79	277.77	13.04	-36.5	-37.2	22.8	0.00e+00	0	37	0	1457520640	52	5679
2026-01-04 07:21:48.80	277.97	13.05	-36.4	-37.1	22.9	0.00e+00	0	37	0	1464860672	52	5613
2026-01-04 07:21:49.81	278.17	13.06	-36.3	-37.0	22.9	0.00e+00	0	37	0	1472200704	52	5514
2026-01-04 07:21:50.82	278.37	13.07	-36.3	-37.0	22.9	0.00e+00	0	37	0	1478492160	52	5510
2026-01-04 07:21:51.84	278.57	13.09	-36.9	-37.6	22.7	0.00e+00	0	37	0	1485832192	52	5964
2026-01-04 07:21:52.85	278.77	13.10	-37.1	-37.8	22.9	0.00e+00	0	37	0	1494220800	52	6052
2026-01-04 07:21:53.86	278.97	13.11	-36.9	-37.6	22.8	0.00e+00	0	37	0	1500512256	52	5948
2026-01-04 07:21:54.87	279.17	13.12	-37.0	-37.7	22.7	0.00e+00	0	37	0	1507852288	52	5980
2026-01-04 07:21:55.88	279.37	13.13	-36.9	-37.6	22.5	0.00e+00	0	37	0	1515192320	52	5947
2026-01-04 07:21:56.89	279.57	13.13	-36.8	-37.6	22.5	0.00e+00	0	37	0	1522532352	52	5908
2026-01-04 07:21:57.90	279.77	13.14	-36.8	-37.5	22.6	0.00e+00	0	37	0	1529872384	52	5836
2026-01-04 07:21:58.91	279.97	13.15	-36.6	-37.3	22.6	0.00e+00	0	37	0	1537212416	52	5752
2026-01-04 07:21:59.92	280.17	13.16	-36.6	-37.3	22.7	0.00e+00	0	37	0	1544552448	52	5732
2026-01-04 07:22:00.93	280.37	13.17	-36.6	-37.3	22.6	0.00e+00	0	37	0	1551892480	52	5725
2026-01-04 07:22:01.94	280.57	13.18	-36.5	-37.2	22.6	0.00e+00	0	37	0	1559232512	52	5661
2026-01-04 07:22:02.95	280.77	13.18	-36.0	-36.7	22.9	0.00e+00	0	37	0	1566572544	52	5355
2026-01-04 07:22:03.96	280.98	13.19	-36.1	-36.8	22.8	0.00e+00	0	37	0	1573912576	50	6086
2026-01-04 07:22:04.97	281.18	13.20	-35.9	-36.7	22.9	0.00e+00	0	37	0	1581252608	50	5966
2026-01-04 07:22:05.98	281.38	13.20	-36.3	-37.1	22.8	0.00e+00	0	37	0	1588592640	50	6255
2026-01-04 07:22:07.00	281.58	13.21	-36.8	-37.5	22.7	0.00e+00	0	37	0	1595932672	50	6587
2026-01-04 07:22:08.01	281.78	13.21	-36.3	-37.1	22.7	0.00e+00	0	37	0	1603272704	50	6257
2026-01-04 07:22:09.02	281.98	13.22	-36.6	-37.4	22.7	0.00e+00	0	37	0	1610612736	50	6480
2026-01-04 07:22:10.03	282.18	13.23	-37.0	-37.7	22.5	0.00e+00	0	37	0	1617952768	50	6753
2026-01-04 07:22:11.04	282.39	13.23	-37.0	-37.7	22.5	0.00e+00	0	37	0	1625292800	52	6006
2026-01-04 07:22:12.05	282.59	13.23	-37.0	-37.8	22.4	0.00e+00	0	37	0	1632632832	52	6048
2026-01-04 07:22:13.06	282.79	13.24	-36.9	-37.6	22.5	0.00e+00	0	37	0	1639972864	52	5935
2026-01-04 07:22:14.07	282.99	13.24	-37.5	-38.3	22.2	0.00e+00	0	37	0	1647312896	52	6402
2026-01-04 07:22:15.08	283.19	13.25	-36.8	-37.5	22.7	0.00e+00	0	37	0	1653604352	52	5865
2026-01-04 07:22:16.09	283.39	13.25	-37.2	-37.8	22.8	0.00e+00	0	37	0	1661992960	52	6099
2026-01-04 07:22:17.10	283.60	13.25	-36.8	-37.5	22.9	0.00e+00	0	37	0	1668284416	52	5840
2026-01-04 07:22:18.11	283.80	13.25	-36.8	-37.5	23.0	0.00e+00	0	37	0	1675624448	52	5832
2026-01-04 07:22:19.12	284.00	13.26	-37.1	-37.8	22.8	0.00e+00	0	37	0	1682964480	52	6062
2026-01-04 07:22:20.13	284.20	13.26	-36.9	-37.7	22.9	0.00e+00	0	37	0	1690304512	52	5966
2026-01-04 07:22:21.14	284.40	13.26	-36.8	-37.5	22.8	0.00e+00	0	37	0	1697644544	52	5850
2026-01-04 07:22:22.15	284.61	13.26	-37.1	-37.8	22.8	0.00e+00	0	37	0	1704984576	52	6070
2026-01-04 07:22:23.16	284.81	13.26	-37.0	-37.7	22.7	0.00e+00	0	37	0	1712324608	52	6032
2026-01-04 07:22:24.17	285.01	13.26	-37.0	-37.7	22.4	0.00e+00	0	37	0	1719664640	52	6033
2026-01-04 07:22:25.18	285.21	13.26	-37.6	-38.3	22.6	0.00e+00	0	37	0	1727004672	54	5714
2026-01-04 07:22:26.19	285.41	13.26	-36.9	-37.6	22.6	0.00e+00	0	37	0	1734344704	52	5929
2026-01-04 07:22:27.20	285.62	13.26	-36.7	-37.4	22.6	0.00e+00	0	37	0	1741684736	52	5778
2026-01-04 07:22:28.21	285.82	13.26	-36.8	-37.5	22.7	0.00e+00	0	37	0	1749024768	52	5845
2026-01-04 07:22:29.22	286.02	13.26	-37.0	-37.7	22.8	0.00e+00	0	37	0	1756364800	52	5990
2026-01-04 07:22:30.23	286.22	13.26	-37.0	-37.7	22.8	0.00e+00	0	37	0	1763704832	52	5999
2026-01-04 07:22:31.25	286.43	13.26	-36.4	-37.1	22.9	0.00e+00	0	37	0	1771044864	52	5616
2026-01-04 07:22:32.26	286.63	13.25	-36.2	-36.9	22.8	0.00e+00	0	37	0	1778384896	52	5474
2026-01-04 07:22:33.27	286.83	13.25	-36.1	-36.7	23.0	0.00e+00	0	37	0	1785724928	50	6029
2026-01-04 07:22:34.28	287.03	13.25	-36.5	-37.2	22.8	0.00e+00	0	37	0	1793064960	50	6359
2026-01-04 07:22:35.29	287.23	13.25	-36.2	-36.9	22.9	0.00e+00	0	37	0	1800404992	50	6148
2026-01-04 07:22:36.30	287.43	13.24	-36.3	-37.0	22.8	0.00e+00	0	37	0	1807745024	50	6213
2026-01-04 07:22:37.31	287.64	13.24	-36.2	-36.9	22.8	0.00e+00	0	37	0	1815085056	50	6122
2026-01-04 07:22:38.32	287.84	13.24	-36.1	-36.8	22.8	0.00e+00	0	37	0	1821376512	50	6090
2026-01-04 07:22:39.33	288.04	13.23	-36.3	-37.0	22.9	0.00e+00	0	37	0	1828716544	50	6229
2026-01-04 07:22:40.34	288.24	13.23	-36.5	-37.1	22.8	0.00e+00	0	37	0	1837105152	50	6309
2026-01-04 07:22:41.36	288.44	13.22	-36.4	-37.1	22.8	0.00e+00	0	37	0	1843396608	50	6252
2026-01-04 07:22:42.37	288.65	13.22	-36.2	-36.9	22.8	0.00e+00	0	37	0	1850736640	50	6137
2026-01-04 07:22:43.38	288.85	13.21	-35.9	-36.6	22.9	0.00e+00	0	37	0	1858076672	50	5952
2026-01-04 07:22:44.39	289.05	13.20	-36.3	-37.0	22.7	0.00e+00	0	37	0	1865416704	50	6211
2026-01-04 07:22:45.40	289.25	13.20	-36.6	-37.3	22.7	0.00e+00	0	37	0	1872756736	50	6447
2026-01-04 07:22:46.41	289.45	13.19	-36.4	-37.1	22.7	0.00e+00	0	37	0	1880096768	50	6286
2026-01-04 07:22:47.42	289.65	13.18	-36.4	-37.1	22.7	0.00e+00	0	37	0	1887436800	50	6271
2026-01-04 07:22:48.43	289.85	13.18	-36.3	-37.1	22.7	0.00e+00	0	37	0	1894776832	50	6257
2026-01-04 07:22:49.44	290.05	13.17	-36.2	-36.9	22.5	0.00e+00	0	37	0	1902116864	50	6144
2026-01-04 07:22:50.46	290.25	13.16	-36.1	-36.8	22.6	0.00e+00	0	37	0	1909456896	50	6077
2026-01-04 07:22:51.47	290.46	13.15	-36.1	-36.9	22.5	0.00e+00	0	37	0	1916796928	50	6123
2026-01-04 07:22:52.48	290.66	13.15	-36.3	-37.0	22.6	0.00e+00	0	37	0	1924136960	50	6240
2026-01-04 07:22:53.49	290.86	13.14	-36.2	-36.9	22.6	0.00e+00	0	37	0	1931476992	50	6126
2026-01-04 07:22:54.50	291.06	13.13	-36.1	-36.7	22.6	0.00e+00	0	37	0	1938817024	50	6031
2026-01-04 07:22:55.51	291.26	13.12	-36.1	-36.8	22.7	0.00e+00	0	37	0	1946157056	50	6071
2026-01-04 07:22:56.52	291.46	13.11	-36.2	-36.9	22.7	0.00e+00	0	37	0	1953497088	50	6114
2026-01-04 07:22:57.54	291.66	13.10	-35.9	-36.7	22.8	0.00e+00	0	37	0	1960837120	50	5969
2026-01-04 07:22:58.55	291.86	13.09	-35.9	-36.6	22.7	0.00e+00	0	37	0	1968177152	50	5960
2026-01-04 07:22:59.56	292.06	13.08	-36.0	-36.7	22.7	0.00e+00	0	37	0	1975517184	50	5993
2026-01-04 07:23:00.57	292.26	13.07	-36.0	-36.7	22.6	0.00e+00	0	37	0	1982857216	50	5967
2026-01-04 07:23:01.58	292.45	13.05	-36.0	-36.7	22.7	0.00e+00	0	37	0	1990197248	50	6016
2026-01-04 07:23:02.59	292.65	13.04	-36.2	-36.9	22.7	0.00e+00	0	37	0	1997537280	50	6120
2026-01-04 07:23:03.60	292.85	13.03	-35.9	-36.6	22.8	0.00e+00	0	37	0	2004877312	50	5952
2026-01-04 07:23:04.61	293.05	13.02	-35.9	-36.6	22.9	0.00e+00	0	37	0	2012217344	50	5937
2026-01-04 07:23:05.62	293.25	13.01	-35.8	-36.5	23.0	0.00e+00	0	37	0	2018508800	50	5854
2026-01-04 07:23:06.63	293.45	12.99	-35.8	-36.5	23.0	0.00e+00	0	37	0	2025848832	50	5867
2026-01-04 07:23:07.64	293.65	12.98	-35.8	-36.5	23.0	0.00e+00	0	37	0	2034237440	50	5872
2026-01-04 07:23:08.66	293.85	12.97	-35.8	-36.4	23.1	0.00e+00	0	37	0	2040528896	50	5824
2026-01-04 07:23:09.66	294.04	12.95	-35.8	-36.5	23.0	0.00e+00	0	37	0	2047868928	50	5864
2026-01-04 07:23:10.67	294.24	12.94	-36.1	-36.8	22.7	0.00e+00	0	37	0	2055208960	50	6038
2026-01-04 07:23:11.68	294.44	12.92	-36.3	-37.0	22.6	0.00e+00	0	37	0	2062548992	50	6212
2026-01-04 07:23:12.69	294.63	12.91	-36.3	-37.0	22.5	0.00e+00	0	37	0	2069889024	50	6224
2026-01-04 07:23:13.70	294.83	12.90	-36.5	-37.2	22.4	0.00e+00	0	37	0	2077229056	50	6368
2026-01-04 07:23:14.72	295.03	12.88	-36.3	-37.0	22.5	0.00e+00	0	37	0	2084569088	50	6229
2026-01-04 07:23:15.73	295.23	12.86	-36.3	-37.1	22.5	0.00e+00	0	37	0	2091909120	50	6257
2026-01-04 07:23:16.74	295.42	12.85	-36.5	-37.3	22.5	0.00e+00	0	37	0	2099249152	50	6400
2026-01-04 07:23:17.75	295.62	12.83	-36.2	-36.9	22.5	0.00e+00	0	37	0	2106589184	50	6172
2026-01-04 07:23:18.76	295.82	12.82	-36.2	-36.9	22.7	0.00e+00	0	37	0	2113929216	50	6149
2026-01-04 07:23:19.77	296.01	12.80	-37.5	-38.2	22.3	0.00e+00	0	37	0	2121269248	52	6374
2026-01-04 07:23:20.78	296.21	12.78	-37.5	-38.2	22.4	0.00e+00	0	37	0	2128609280	54	5657
2026-01-04 07:23:21.79	296.40	12.76	-36.3	-37.0	22.9	0.00e+00	0	37	0	2135949312	52	5503
2026-01-04 07:23:22.80	296.60	12.75	-36.2	-36.9	23.0	0.00e+00	0	37	0	2143289344	50	6107
2026-01-04 07:23:23.81	296.79	12.73	-36.1	-36.8	22.9	0.00e+00	0	37	0	2150629376	50	6097
2026-01-04 07:23:24.82	296.99	12.71	-36.5	-37.2	22.8	0.00e+00	0	37	0	2157969408	50	6325
2026-01-04 07:23:25.83	297.18	12.69	-36.6	-37.3	22.5	0.00e+00	0	37	0	2164260864	50	6404
2026-01-04 07:23:26.84	297.38	12.67	-36.8	-37.5	22.4	0.00e+00	0	37	0	2172649472	50	6603
2026-01-04 07:23:27.86	297.57	12.65	-36.7	-37.5	22.4	0.00e+00	0	37	0	2179989504	50	6548
2026-01-04 07:23:28.87	297.77	12.64	-36.6	-37.3	22.4	0.00e+00	0	37	0	2186280960	50	6427
2026-01-04 07:23:29.88	297.96	12.62	-36.5	-37.3	22.3	0.00e+00	0	37	0	2193620992	50	6410
2026-01-04 07:23:30.89	298.15	12.60	-36.5	-37.2	22.4	0.00e+00	0	37	0	2202009600	50	6388
2026-01-04 07:23:31.90	298.34	12.58	-37.4	-38.2	22.0	0.00e+00	0	37	0	2208301056	50	7137
2026-01-04 07:23:32.91	298.54	12.56	-36.8	-37.5	22.3	0.00e+00	0	37	0	2215641088	52	5896
2026-01-04 07:23:33.92	298.73	12.54	-36.7	-37.4	22.4	0.00e+00	0	37	0	2222981120	52	5810
2026-01-04 07:23:34.93	298.92	12.51	-36.6	-37.3	22.4	0.00e+00	0	37	0	2230321152	52	5755
2026-01-04 07:23:35.94	299.11	12.49	-36.6	-37.3	22.4	0.00e+00	0	37	0	2237661184	52	5759
2026-01-04 07:23:36.95	299.31	12.47	-36.4	-37.1	22.6	0.00e+00	0	37	0	2245001216	52	5614
2026-01-04 07:23:37.96	299.50	12.45	-36.4	-37.1	22.6	0.00e+00	0	37	0	2252341248	52	5629
2026-01-04 07:23:38.97	299.69	12.43	-36.3	-37.0	22.7	0.00e+00	0	37	0	2259681280	52	5537
2026-01-04 07:23:39.98	299.88	12.41	-36.3	-37.0	22.6	0.00e+00	0	37	0	2267021312	52	5551
2026-01-04 07:23:40.99	300.07	12.38	-36.3	-37.0	22.6	0.00e+00	0	37	0	2274361344	52	5548
2026-01-04 07:23:42.00	300.26	12.36	-36.2	-36.9	22.5	0.00e+00	0	37	0	2281701376	52	5467
2026-01-04 07:23:43.01	300.45	12.34	-36.2	-36.9	22.6	0.00e+00	0	37	0	2289041408	52	5494
2026-01-04 07:23:44.02	300.64	12.31	-36.2	-36.9	22.5	0.00e+00	0	37	0	2296381440	52	5459
2026-01-04 07:23:45.04	300.83	12.29	-36.5	-37.2	22.5	0.00e+00	0	37	0	2303721472	52	5657
2026-01-04 07:23:46.05	301.02	12.27	-36.5	-37.3	22.5	0.00e+00	0	37	0	2311061504	52	5719
2026-01-04 07:23:47.06	301.21	12.24	-36.7	-37.4	22.4	0.00e+00	0	37	0	2318401536	52	5795
2026-01-04 07:23:48.07	301.40	12.22	-36.6	-37.3	22.4	0.00e+00	0	37	0	2325741568	52	5752
2026-01-04 07:23:49.08	301.58	12.19	-36.7	-37.4	22.4	0.00e+00	0	37	0	2333081600	52	5822
2026-01-04 07:23:50.09	301.77	12.17	-36.6	-37.3	22.5	0.00e+00	0	37	0	2340421632	52	5743
2026-01-04 07:23:51.10	301.96	12.14	-36.6	-37.4	22.5	0.00e+00	0	37	0	2347761664	52	5778
2026-01-04 07:23:51.86	302.10	12.12	-36.8	-37.5	22.3	0.00e+00	0	37	0	2355101696	52	5881
2026-01-04 07:23:53.16	302.34	12.09	-36.4	-37.2	22.5	0.00e+00	0	37	0	2363490304	52	5635
2026-01-04 07:23:53.88	302.47	12.07	-36.5	-37.2	22.4	0.00e+00	0	37	0	2368733184	52	5685
2026-01-04 07:23:55.18	302.71	12.04	-36.6	-37.3	22.6	0.00e+00	0	37	0	2378170368	52	5746
2026-01-04 07:23:55.90	302.85	12.02	-36.6	-37.3	22.5	0.00e+00	0	37	0	2383413248	52	5758
2026-01-04 07:23:57.20	303.08	11.99	-36.7	-37.5	22.4	0.00e+00	0	37	0	2392850432	52	5843
2026-01-04 07:23:57.92	303.22	11.97	-36.7	-37.3	25.2	0.00e+00	0	37	0	2398093312	52	5715
2026-01-04 07:23:59.22	303.45	11.93	-36.8	-37.4	25.0	0.00e+00	0	37	0	2407530496	52	5792
2026-01-04 07:23:59.94	303.59	11.91	-37.0	-37.5	24.9	0.00e+00	0	37	0	2412773376	52	5861
2026-01-04 07:24:01.24	303.82	11.88	-36.8	-37.4	25.0	0.00e+00	0	37	0	2422210560	52	5767
2026-01-04 07:24:01.96	303.95	11.86	-37.0	-37.5	24.8	0.00e+00	0	37	0	2427453440	52	5866
2026-01-04 07:24:03.26	304.19	11.82	-36.6	-37.2	24.8	0.00e+00	0	37	0	2436890624	52	5640
2026-01-04 07:24:03.98	304.32	11.80	-36.8	-37.3	24.8	0.00e+00	0	37	0	2442133504	52	5741
2026-01-04 07:24:05.28	304.56	11.77	-36.8	-37.4	24.8	0.00e+00	0	37	0	2451570688	52	5792
2026-01-04 07:24:06.01	304.69	11.74	-37.0	-37.5	24.6	0.00e+00	0	37	0	2456813568	52	5886
2026-01-04 07:24:07.30	304.92	11.71	-36.8	-37.4	24.9	0.00e+00	0	37	0	2466250752	52	5772
2026-01-04 07:24:08.03	305.05	11.69	-36.8	-37.4	24.9	0.00e+00	0	37	0	2471493632	52	5775
2026-01-04 07:24:09.33	305.29	11.65	-36.7	-37.3	24.9	0.00e+00	0	37	0	2480930816	52	5721
2026-01-04 07:24:10.05	305.42	11.63	-36.8	-37.4	24.8	0.00e+00	0	37	0	2486173696	52	5789
2026-01-04 07:24:11.35	305.65	11.59	-36.6	-37.2	25.0	0.00e+00	0	37	0	2495610880	52	5640
2026-01-04 07:24:12.07	305.78	11.57	-36.5	-37.0	25.1	0.00e+00	0	37	0	2500853760	52	5563
2026-01-04 07:24:13.37	306.01	11.53	-36.7	-37.2	24.9	0.00e+00	0	37	0	2510290944	52	5687
2026-01-04 07:24:14.10	306.14	11.51	-36.6	-37.1	25.0	0.00e+00	0	37	0	2515533824	52	5601
2026-01-04 07:24:15.39	306.37	11.47	-36.6	-37.1	25.0	0.00e+00	0	37	0	2524971008	52	5622
2026-01-04 07:24:16.12	306.50	11.45	-36.6	-37.2	25.2	0.00e+00	0	37	0	2529165312	52	5655
2026-01-04 07:24:17.41	306.72	11.41	-36.7	-37.3	24.9	0.00e+00	0	37	0	2538602496	52	5731
2026-01-04 07:24:18.14	306.85	11.38	-36.8	-37.3	24.9	0.00e+00	0	37	0	2544893952	52	5753
2026-01-04 07:24:19.44	307.08	11.34	-36.5	-37.1	25.1	0.00e+00	0	37	0	2554331136	52	5600
2026-01-04 07:24:20.16	307.21	11.32	-36.6	-37.1	25.1	0.00e+00	0	37	0	2558525440	52	5607
2026-01-04 07:24:21.46	307.44	11.28	-36.7	-37.3	24.8	0.00e+00	0	37	0	2567962624	52	5713
2026-01-04 07:24:22.18	307.56	11.26	-36.6	-37.1	25.0	0.00e+00	0	37	0	2573205504	52	5618
2026-01-04 07:24:23.48	307.79	11.22	-36.8	-37.4	24.8	0.00e+00	0	37	0	2582642688	52	5786
2026-01-04 07:24:24.20	307.92	11.19	-36.7	-37.3	24.8	0.00e+00	0	37	0	2587885568	52	5740
2026-01-04 07:24:25.50	308.14	11.15	-36.8	-37.4	24.8	0.00e+00	0	37	0	2597322752	52	5773
2026-01-04 07:24:26.23	308.27	11.13	-36.8	-37.3	24.7	0.00e+00	0	37	0	2602565632	52	5757
2026-01-04 07:24:27.52	308.49	11.08	-37.0	-37.6	24.6	0.00e+00	0	37	0	2612002816	52	5926
2026-01-04 07:24:28.25	308.62	11.06	-36.9	-37.5	24.8	0.00e+00	0	37	0	2617245696	52	5856
2026-01-04 07:24:29.55	308.84	11.02	-36.9	-37.5	24.7	0.00e+00	0	37	0	2626682880	52	5844
2026-01-04 07:24:30.27	308.97	10.99	-37.0	-37.6	24.6	0.00e+00	0	37	0	2631925760	52	5919
2026-01-04 07:24:31.57	309.19	10.95	-37.0	-37.6	24.6	0.00e+00	0	37	0	2641362944	52	5905
2026-01-04 07:24:32.29	309.31	10.93	-37.1	-37.7	24.5	0.00e+00	0	37	0	2646605824	52	5980
2026-01-04 07:24:33.59	309.53	10.88	-37.5	-38.1	24.4	0.00e+00	0	37	0	2656043008	52	6264
2026-01-04 07:24:34.31	309.66	10.86	-37.1	-37.7	24.6	0.00e+00	0	37	0	2661285888	52	5988
2026-01-04 07:24:35.61	309.88	10.81	-37.1	-37.7	24.6	0.00e+00	0	37	0	2670723072	52	6003
2026-01-04 07:24:36.34	310.00	10.79	-37.1	-37.6	24.6	0.00e+00	0	37	0	2675965952	52	5954
2026-01-04 07:24:37.63	310.22	10.74	-37.5	-38.1	24.4	0.00e+00	0	37	0	2685403136	52	6270
2026-01-04 07:24:38.36	310.34	10.72	-37.6	-38.2	24.4	0.00e+00	0	37	0	2690646016	52	6357
2026-01-04 07:24:39.66	310.56	10.67	-37.4	-38.0	24.3	0.00e+00	0	37	0	2700083200	52	6219
2026-01-04 07:24:40.38	310.68	10.65	-37.3	-37.9	24.5	0.00e+00	0	37	0	2704277504	52	6126
2026-01-04 07:24:41.68	310.90	10.60	-37.5	-38.0	24.3	0.00e+00	0	37	0	2713714688	52	6225
2026-01-04 07:24:42.40	311.02	10.58	-37.7	-38.2	24.3	0.00e+00	0	37	0	2720006144	52	6375
2026-01-04 07:24:43.70	311.24	10.53	-37.7	-38.3	24.5	0.00e+00	0	37	0	2728394752	52	6395
2026-01-04 07:24:44.42	311.36	10.51	-37.8	-38.3	24.7	0.00e+00	0	37	0	2733637632	52	6451
2026-01-04 07:24:45.72	311.57	10.46	-37.3	-37.9	24.5	0.00e+00	0	37	0	2743074816	54	5455
2026-01-04 07:24:46.45	311.69	10.43	-37.6	-38.2	24.5	0.00e+00	0	37	0	2748317696	54	5637
2026-01-04 07:24:47.75	311.91	10.39	-37.6	-38.1	24.3	0.00e+00	0	37	0	2757754880	54	5604
2026-01-04 07:24:48.47	312.03	10.36	-37.8	-38.3	24.3	0.00e+00	0	37	0	2762997760	54	5736
2026-01-04 07:24:49.77	312.24	10.31	-37.7	-38.3	24.3	0.00e+00	0	37	0	2772434944	54	5717
2026-01-04 07:24:50.49	312.36	10.29	-38.3	-38.9	23.4	0.00e+00	0	37	0	2777677824	54	6105
2026-01-04 07:24:51.79	312.57	10.24	-38.0	-38.6	24.2	0.00e+00	0	37	0	2787115008	54	5914
2026-01-04 07:24:52.51	312.69	10.21	-38.1	-38.7	24.0	0.00e+00	0	37	0	2792357888	54	6000
2026-01-04 07:24:53.81	312.90	10.16	-37.8	-38.4	24.0	0.00e+00	0	37	0	2801795072	54	5802
2026-01-04 07:24:54.53	313.02	10.14	-37.9	-38.5	23.9	0.00e+00	0	37	0	2807037952	54	5855
2026-01-04 07:24:55.83	313.23	10.09	-37.3	-37.9	24.3	0.00e+00	0	37	0	2816475136	54	5461
2026-01-04 07:24:56.55	313.35	10.06	-37.6	-38.1	24.3	0.00e+00	0	37	0	2821718016	54	5614
2026-01-04 07:24:57.85	313.55	10.01	-37.4	-38.0	24.4	0.00e+00	0	37	0	2831155200	54	5505
2026-01-04 07:24:58.57	313.67	9.98	-37.1	-37.7	24.5	0.00e+00	0	37	0	2836398080	54	5338
2026-01-04 07:24:59.87	313.88	9.94	-37.3	-37.9	24.2	0.00e+00	0	37	0	2845835264	54	5448
2026-01-04 07:25:00.59	313.99	9.91	-37.2	-37.7	24.4	0.00e+00	0	37	0	2851078144	52	6021
2026-01-04 07:25:01.89	314.20	9.86	-36.9	-37.4	24.7	0.00e+00	0	37	0	2860515328	52	5811
2026-01-04 07:25:02.62	314.32	9.83	-37.0	-37.5	24.6	0.00e+00	0	37	0	2865758208	52	5885
2026-01-04 07:25:03.92	314.52	9.78	-37.2	-37.7	24.6	0.00e+00	0	37	0	2875195392	52	6020
2026-01-04 07:25:04.64	314.64	9.75	-37.1	-37.7	24.5	0.00e+00	0	37	0	2880438272	52	5979
2026-01-04 07:25:05.94	314.84	9.70	-37.2	-37.8	24.5	0.00e+00	0	37	0	2889875456	52	6041
2026-01-04 07:25:06.66	314.96	9.67	-37.3	-37.8	24.5	0.00e+00	0	37	0	2894069760	52	6097
2026-01-04 07:25:07.96	315.16	9.62	-37.6	-38.2	24.4	0.00e+00	0	37	0	2903506944	52	6327
2026-01-04 07:25:08.68	315.27	9.60	-38.2	-38.8	24.0	0.00e+00	0	37	0	2909798400	52	6792
2026-01-04 07:25:09.98	315.48	9.54	-38.5	-39.1	23.8	0.00e+00	0	37	0	2919235584	56	5622
2026-01-04 07:25:10.70	315.59	9.52	-38.8	-39.4	23.8	0.00e+00	0	37	0	2923429888	56	5804
2026-01-04 07:25:12.00	315.79	9.47	-38.2	-38.8	24.0	0.00e+00	0	37	0	2932867072	56	5406
2026-01-04 07:25:12.73	315.90	9.44	-38.4	-39.0	23.5	0.00e+00	0	37	0	2938109952	56	5510
2026-01-04 07:25:14.03	316.11	9.38	-38.4	-39.0	23.8	0.00e+00	0	37	0	2947547136	56	5536
2026-01-04 07:25:14.75	316.22	9.36	-38.3	-38.9	23.8	0.00e+00	0	37	0	2952790016	56	5451
2026-01-04 07:25:16.04	316.42	9.30	-38.0	-38.5	24.0	0.00e+00	0	37	0	2962227200	54	5896
2026-01-04 07:25:16.77	316.53	9.28	-38.1	-38.7	23.8	0.00e+00	0	37	0	2967470080	54	5967
2026-01-04 07:25:18.07	316.73	9.22	-38.2	-38.8	24.0	0.00e+00	0	37	0	2976907264	54	6055
2026-01-04 07:25:18.79	316.84	9.19	-38.3	-38.9	24.0	0.00e+00	0	37	0	2982150144	54	6131
2026-01-04 07:25:20.09	317.03	9.14	-38.5	-39.1	23.5	0.00e+00	0	37	0	2991587328	54	6291
2026-01-04 07:25:20.81	317.14	9.11	-38.4	-38.9	23.7	0.00e+00	0	37	0	2996830208	54	6166
2026-01-04 07:25:22.11	317.34	9.06	-39.0	-39.6	23.2	0.00e+00	0	37	0	3006267392	54	6658
2026-01-04 07:25:22.83	317.45	9.03	-38.6	-39.2	23.2	0.00e+00	0	37	0	3011510272	54	6326
2026-01-04 07:25:24.13	317.64	8.98	-38.6	-39.2	23.2	0.00e+00	0	37	0	3020947456	54	6362
2026-01-04 07:25:24.85	317.75	8.95	-38.8	-39.4	23.1	0.00e+00	0	37	0	3026190336	54	6500
2026-01-04 07:25:26.15	317.95	8.90	-38.9	-39.5	23.2	0.00e+00	0	37	0	3035627520	56	5845
2026-01-04 07:25:26.87	318.05	8.87	-38.7	-39.3	23.3	0.00e+00	0	37	0	3040870400	56	5728
2026-01-04 07:25:28.17	318.25	8.81	-39.0	-39.6	23.3	0.00e+00	0	37	0	3049259008	56	5962
2026-01-04 07:25:28.89	318.35	8.78	-38.3	-38.9	23.6	0.00e+00	0	37	0	3055550464	56	5462
2026-01-04 07:25:30.19	318.55	8.73	-38.1	-38.7	23.7	0.00e+00	0	37	0	3064987648	56	5328
2026-01-04 07:25:30.91	318.65	8.70	-38.5	-39.1	23.5	0.00e+00	0	37	0	3069181952	56	5584
2026-01-04 07:25:32.21	318.84	8.64	-38.5	-39.1	23.4	0.00e+00	0	37	0	3078619136	56	5588
2026-01-04 07:25:32.94	318.95	8.61	-38.9	-39.5	23.2	0.00e+00	0	37	0	3083862016	56	5882
2026-01-04 07:25:34.24	319.14	8.56	-38.4	-39.0	23.5	0.00e+00	0	37	0	3093299200	56	5558
2026-01-04 07:25:34.96	319.25	8.53	-38.7	-39.3	23.3	0.00e+00	0	37	0	3098542080	56	5743
2026-01-04 07:25:36.26	319.44	8.48	-38.4	-39.0	23.5	0.00e+00	0	37	0	3107979264	56	5557
2026-01-04 07:25:36.98	319.54	8.45	-38.3	-38.8	23.7	0.00e+00	0	37	0	3113222144	56	5438
2026-01-04 07:25:38.28	319.73	8.39	-38.6	-39.2	23.3	0.00e+00	0	37	0	3122659328	56	5686
2026-01-04 07:25:39.00	319.83	8.36	-38.3	-38.8	23.6	0.00e+00	0	37	0	3127902208	56	5435
2026-01-04 07:25:40.30	320.02	8.31	-38.5	-39.1	23.3	0.00e+00	0	37	0	3137339392	56	5581
2026-01-04 07:25:41.02	320.12	8.27	-38.6	-39.1	23.3	0.00e+00	0	37	0	3142582272	56	5625
2026-01-04 07:25:42.32	320.31	8.22	-38.5	-39.1	23.6	0.00e+00	0	37	0	3152019456	56	5572
2026-01-04 07:25:43.05	320.41	8.19	-38.8	-39.4	23.3	0.00e+00	0	37	0	3157262336	56	5786
2026-01-04 07:25:44.35	320.60	8.13	-38.7	-39.3	23.2	0.00e+00	0	37	0	3166699520	56	5710
2026-01-04 07:25:45.07	320.70	8.10	-38.9	-39.5	23.2	0.00e+00	0	37	0	3171942400	56	5847
2026-01-04 07:25:46.37	320.89	8.05	-38.5	-39.1	23.4	0.00e+00	0	37	0	3181379584	56	5569
2026-01-04 07:25:47.09	320.99	8.02	-38.7	-39.3	23.1	0.00e+00	0	37	0	3186622464	56	5750
2026-01-04 07:25:48.39	321.17	7.96	-38.7	-39.3	23.2	0.00e+00	0	37	0	3196059648	56	5708
2026-01-04 07:25:49.11	321.27	7.93	-38.4	-39.0	23.4	0.00e+00	0	37	0	3201302528	56	5557
2026-01-04 07:25:50.41	321.45	7.87	-38.5	-39.1	23.4	0.00e+00	0	37	0	3210739712	56	5580
2026-01-04 07:25:51.14	321.55	7.84	-38.5	-39.1	23.4	0.00e+00	0	37	0	3215982592	56	5595
2026-01-04 07:25:52.43	321.73	7.79	-38.6	-39.2	23.4	0.00e+00	0	37	0	3225419776	56	5656
2026-01-04 07:25:53.16	321.84	7.75	-39.2	-39.9	23.3	0.00e+00	0	37	0	3230662656	56	6112
2026-01-04 07:25:54.46	322.01	7.70	-39.5	-40.1	23.5	0.00e+00	0	37	0	3240099840	58	5619
2026-01-04 07:25:55.18	322.11	7.67	-39.8	-40.4	23.5	0.00e+00	0	37	0	3244294144	56	6467
2026-01-04 07:25:56.48	322.29	7.61	-39.5	-40.1	23.6	0.00e+00	0	37	0	3253731328	56	6261
2026-01-04 07:25:57.20	322.39	7.58	-39.2	-39.7	23.7	0.00e+00	0	37	0	3258974208	56	6023
2026-01-04 07:25:58.50	322.57	7.52	-38.9	-39.4	23.4	0.00e+00	0	37	0	3268411392	56	5826
2026-01-04 07:25:59.22	322.67	7.49	-38.8	-39.4	23.7	0.00e+00	0	37	0	3273654272	56	5800
2026-01-04 07:26:00.52	322.84	7.43	-38.7	-39.2	23.7	0.00e+00	0	37	0	3283091456	56	5682
2026-01-04 07:26:01.25	322.94	7.40	-38.7	-39.3	23.6	0.00e+00	0	37	0	3288334336	56	5724
2026-01-04 07:26:02.55	323.12	7.35	-39.2	-39.8	23.6	0.00e+00	0	37	0	3297771520	56	6075
2026-01-04 07:26:03.27	323.22	7.31	-39.4	-40.0	23.6	0.00e+00	0	37	0	3303014400	56	6211
2026-01-04 07:26:04.57	323.39	7.26	-38.9	-39.5	23.5	0.00e+00	0	37	0	3312451584	56	5857
2026-01-04 07:26:05.29	323.49	7.23	-39.2	-39.8	23.3	0.00e+00	0	37	0	3317694464	56	6041
2026-01-04 07:26:06.59	323.66	7.17	-39.3	-39.9	23.3	0.00e+00	0	37	0	3327131648	56	6136
2026-01-04 07:26:07.31	323.76	7.14	-39.3	-39.9	23.2	0.00e+00	0	37	0	3332374528	56	6156
2026-01-04 07:26:08.61	323.93	7.08	-39.3	-39.9	23.0	0.00e+00	0	37	0	3341811712	56	6168
2026-01-04 07:26:09.33	324.02	7.05	-39.6	-40.2	22.9	0.00e+00	0	37	0	3347054592	56	6347
2026-01-04 07:26:10.63	324.20	6.99	-39.5	-40.1	22.9	0.00e+00	0	37	0	3356491776	56	6309
2026-01-04 07:26:11.36	324.29	6.96	-40.0	-40.6	23.0	0.00e+00	0	37	0	3361734656	56	6678
2026-01-04 07:26:12.66	324.46	6.90	-40.1	-40.7	22.8	0.00e+00	0	37	0	3371171840	58	6017
2026-01-04 07:26:13.38	324.56	6.87	-40.6	-41.3	22.3	0.00e+00	0	37	0	3376414720	60	5722
2026-01-04 07:26:14.68	324.73	6.81	-40.3	-40.9	22.7	0.00e+00	0	37	0	3385851904	60	5499
2026-01-04 07:26:15.40	324.82	6.78	-40.2	-40.8	22.8	0.00e+00	0	37	0	3391094784	58	6082
2026-01-04 07:26:16.70	324.99	6.72	-40.4	-41.0	22.9	0.00e+00	0	37	0	3400531968	58	6237
2026-01-04 07:26:17.43	325.08	6.69	-40.7	-41.4	22.6	0.00e+00	0	37	0	3405774848	60	5775
2026-01-04 07:26:18.72	325.25	6.63	-41.1	-41.7	22.2	0.00e+00	0	37	0	3414163456	60	5985
2026-01-04 07:26:19.45	325.34	6.60	-40.3	-40.9	22.8	0.00e+00	0	37	0	3420454912	60	5468
2026-01-04 07:26:20.75	325.51	6.54	-39.5	-40.1	23.0	0.00e+00	0	37	0	3429892096	58	5576
2026-01-04 07:26:21.47	325.60	6.51	-40.3	-40.9	23.2	0.00e+00	0	37	0	3434086400	58	6140
2026-01-04 07:26:22.77	325.77	6.45	-39.3	-39.9	23.3	0.00e+00	0	37	0	3443523584	58	5479
2026-01-04 07:26:23.49	325.86	6.42	-39.0	-39.6	23.3	0.00e+00	0	37	0	3448766464	56	5915
2026-01-04 07:26:24.79	326.02	6.36	-39.0	-39.6	23.3	0.00e+00	0	37	0	3458203648	56	5957
2026-01-04 07:26:25.51	326.11	6.33	-38.8	-39.4	23.3	0.00e+00	0	37	0	3463446528	56	5796
2026-01-04 07:26:26.81	326.28	6.27	-39.4	-39.9	23.2	0.00e+00	0	37	0	3472883712	56	6173
2026-01-04 07:26:27.54	326.37	6.23	-39.0	-39.6	23.4	0.00e+00	0	37	0	3478126592	56	5953
2026-01-04 07:26:28.84	326.53	6.18	-39.4	-40.0	23.0	0.00e+00	0	37	0	3487563776	56	6178
2026-01-04 07:26:29.56	326.62	6.14	-39.2	-39.8	23.3	0.00e+00	0	37	0	3492806656	56	6076
2026-01-04 07:26:30.86	326.78	6.09	-38.8	-39.4	23.1	0.00e+00	0	37	0	3502243840	56	5804
2026-01-04 07:26:31.58	326.87	6.05	-38.9	-39.5	23.2	0.00e+00	0	37	0	3507486720	56	5858
2026-01-04 07:26:32.88	327.03	5.99	-39.2	-39.8	22.8	0.00e+00	0	37	0	3516923904	56	6094
2026-01-04 07:26:33.60	327.12	5.96	-39.0	-39.7	22.7	0.00e+00	0	37	0	3522166784	56	5969
2026-01-04 07:26:34.90	327.28	5.90	-39.5	-40.1	22.9	0.00e+00	0	37	0	3531603968	56	6289
2026-01-04 07:26:35.62	327.37	5.87	-39.3	-39.9	22.6	0.00e+00	0	37	0	3536846848	56	6135
2026-01-04 07:26:36.92	327.53	5.81	-38.9	-39.5	22.7	0.00e+00	0	37	0	3546284032	56	5868
2026-01-04 07:26:37.65	327.62	5.78	-39.3	-40.0	22.6	0.00e+00	0	37	0	3551526912	56	6205
2026-01-04 07:26:38.95	327.77	5.72	-39.7	-40.4	22.5	0.00e+00	0	37	0	3560964096	56	6473
2026-01-04 07:26:39.67	327.86	5.69	-39.9	-40.5	22.4	0.00e+00	0	37	0	3566206976	56	6575
2026-01-04 07:26:40.97	328.02	5.63	-39.5	-40.1	22.7	0.00e+00	0	37	0	3575644160	56	6273
2026-01-04 07:26:41.69	328.10	5.60	-39.8	-40.5	22.3	0.00e+00	0	37	0	3580887040	58	5834
2026-01-04 07:26:42.99	328.26	5.54	-39.6	-40.2	22.2	0.00e+00	0	37	0	3590324224	58	5685
2026-01-04 07:26:43.71	328.35	5.50	-39.5	-40.1	22.2	0.00e+00	0	37	0	3595567104	58	5618
2026-01-04 07:26:45.01	328.50	5.45	-39.4	-40.0	22.4	0.00e+00	0	37	0	3605004288	58	5544
2026-01-04 07:26:45.73	328.59	5.41	-39.5	-40.1	22.2	0.00e+00	0	37	0	3610247168	58	5596
2026-01-04 07:26:47.03	328.74	5.35	-39.4	-40.0	22.4	0.00e+00	0	37	0	3619684352	58	5555
2026-01-04 07:26:47.76	328.83	5.32	-39.2	-39.8	22.3	0.00e+00	0	37	0	3623878656	58	5416
2026-01-04 07:26:49.06	328.98	5.26	-39.2	-39.8	22.3	0.00e+00	0	37	0	3633315840	58	5406
2026-01-04 07:26:49.78	329.06	5.23	-38.9	-39.6	22.5	0.00e+00	0	37	0	3638558720	56	5906
2026-01-04 07:26:51.08	329.22	5.17	-39.7	-40.3	22.1	0.00e+00	0	37	0	3647995904	56	6428
2026-01-04 07:26:51.80	329.30	5.14	-39.6	-40.2	22.4	0.00e+00	0	37	0	3653238784	56	6372
2026-01-04 07:26:53.10	329.45	5.08	-39.5	-40.1	22.3	0.00e+00	0	37	0	3662675968	56	6311
2026-01-04 07:26:53.82	329.54	5.04	-39.5	-40.1	22.5	0.00e+00	0	37	0	3667918848	56	6306
2026-01-04 07:26:55.12	329.69	4.98	-39.8	-40.5	22.2	0.00e+00	0	37	0	3677356032	56	6563
2026-01-04 07:26:55.84	329.77	4.95	-39.7	-40.4	22.3	0.00e+00	0	37	0	3682598912	56	6476
2026-01-04 07:26:57.15	329.92	4.89	-40.5	-41.1	22.0	0.00e+00	0	37	0	3692036096	58	6291
2026-01-04 07:26:57.87	330.00	4.86	-39.9	-40.5	22.4	0.00e+00	0	37	0	3697278976	58	5847
2026-01-04 07:26:59.17	330.15	4.80	-39.9	-40.5	22.5	0.00e+00	0	37	0	3706716160	58	5885
2026-01-04 07:26:59.89	330.23	4.77	-39.5	-40.2	22.5	0.00e+00	0	37	0	3711959040	58	5653
2026-01-04 07:27:01.19	330.38	4.71	-40.0	-40.6	22.1	0.00e+00	0	37	0	3721396224	58	5934
2026-01-04 07:27:01.91	330.46	4.67	-39.9	-40.6	22.2	0.00e+00	0	37	0	3726639104	58	5906
2026-01-04 07:27:03.21	330.61	4.62	-40.0	-40.6	22.2	0.00e+00	0	37	0	3736076288	58	5946
2026-01-04 07:27:03.93	330.69	4.58	-40.1	-40.7	22.0	0.00e+00	0	37	0	3741319168	58	5999
2026-01-04 07:27:05.24	330.84	4.52	-39.9	-40.6	22.0	0.00e+00	0	37	0	3750756352	58	5920
2026-01-04 07:27:05.96	330.92	4.49	-40.6	-41.3	21.7	0.00e+00	0	37	0	3755999232	58	6447
2026-01-04 07:27:07.26	331.06	4.43	-40.0	-40.7	21.7	0.00e+00	0	37	0	3765436416	58	5977
2026-01-04 07:27:07.98	331.14	4.40	-40.2	-40.9	21.9	0.00e+00	0	37	0	3769630720	60	5463
2026-01-04 07:27:09.28	331.29	4.34	-40.9	-41.6	21.4	0.00e+00	0	37	0	3779067904	60	5953
2026-01-04 07:27:10.00	331.37	4.30	-40.9	-41.6	21.3	0.00e+00	0	37	0	3785359360	60	5963
2026-01-04 07:27:11.30	331.51	4.24	-40.4	-41.1	21.3	0.00e+00	0	37	0	3794796544	60	5601
2026-01-04 07:27:12.02	331.59	4.21	-40.3	-41.0	21.2	0.00e+00	0	37	0	3798990848	60	5531
2026-01-04 07:27:13.32	331.73	4.15	-41.0	-41.7	20.5	0.00e+00	0	37	0	3808428032	60	5999
2026-01-04 07:27:14.05	331.81	4.12	-41.3	-42.1	20.1	0.00e+00	0	37	0	3813670912	60	6256
2026-01-04 07:27:15.35	331.95	4.06	-42.0	-42.8	19.7	0.00e+00	0	37	0	3823108096	60	6813
2026-01-04 07:27:16.07	332.03	4.03	-42.0	-42.8	19.1	0.00e+00	0	38	0	3828350976	60	6839
2026-01-04 07:27:17.37	332.17	3.97	-42.4	-43.3	18.8	0.00e+00	0	37	0	3837788160	60	7213
2026-01-04 07:27:18.09	332.25	3.93	-42.6	-43.5	18.0	0.00e+00	0	37	0	3843031040	60	7395
2026-01-04 07:27:19.39	332.39	3.87	-43.2	-44.3	16.6	0.00e+00	0	37	0	3852468224	60	8119
2026-01-04 07:27:20.11	332.47	3.84	-43.3	-44.5	16.5	0.00e+00	0	37	0	3857711104	60	8276
2026-01-04 07:27:21.41	332.60	3.78	-44.7	-46.3	14.4	0.00e+00	0	37	0	3867148288	60	10174
2026-01-04 07:27:22.13	332.68	3.75	-45.5	-47.4	13.1	1.14e-05	0	37	0	3872391168	60	11508
2026-01-04 07:27:23.43	332.82	3.69	-47.0	-49.4	11.1	1.10e-03	0	38	0	3881828352	60	14636
2026-01-04 07:27:24.16	332.90	3.66	-46.8	-49.8	9.3	7.84e-03	0	37	0	3887071232	60	15294
2026-01-04 07:27:25.46	333.03	3.60	-47.9	-51.7	7.2	9.94e-02	0	37	0	3896508416	60	19077
2026-01-04 07:27:26.18	333.11	3.56	-48.9	-54.0	5.1	5.18e-01	0	37	0	3900702720	60	24808
2026-01-04 07:27:27.48	333.25	3.50	-48.5	-55.0	4.1	8.08e-01	0	37	0	3901751296	60	27640
2026-01-04 07:27:28.20	333.32	3.47	-48.8	-57.6	3.7	8.37e-01	0	37	104	3901751296	60	37282
2026-01-04 07:27:29.50	333.46	3.41	-48.2	-58.1	3.6	8.45e-01	0	37	104	3901751296	60	39683
2026-01-04 07:27:30.22	333.53	3.38	-48.2	-58.4	3.6	8.44e-01	0	37	104	3901751296	60	41044
2026-01-04 07:27:31.52	333.67	3.32	-48.2	-59.0	3.6	8.46e-01	0	37	104	3901751296	60	43971
2026-01-04 07:27:32.24	333.74	3.29	-47.9	-59.0	3.6	8.46e-01	0	38	104	3901751296	60	43827
2026-01-04 07:27:33.55	333.88	3.23	-48.0	-59.4	3.6	8.45e-01	0	38	104	3901751296	60	46025
2026-01-04 07:27:34.27	333.95	3.19	-48.2	-59.7	3.6	8.46e-01	0	38	104	3901751296	60	47419
2026-01-04 07:27:35.57	334.08	3.13	-48.1	-59.8	3.6	8.46e-01	0	38	104	3901751296	60	48001
2026-01-04 07:27:36.29	334.16	3.10	-48.3	-59.9	3.6	8.43e-01	0	38	104	3901751296	60	48559
2026-01-04 07:27:37.59	334.29	3.04	-48.4	-60.0	3.6	8.45e-01	0	38	104	3901751296	60	49183
2026-01-04 07:27:38.31	334.36	3.01	-48.6	-60.1	3.6	8.44e-01	0	37	104	3901751296	60	49886
2026-01-04 07:27:39.61	334.50	2.95	-48.3	-59.8	3.6	8.46e-01	0	38	104	3901751296	60	48452
2026-01-04 07:27:40.33	334.57	2.91	-48.7	-60.3	3.6	8.45e-01	0	37	104	3901751296	60	50963
2026-01-04 07:27:41.63	334.70	2.86	-48.9	-60.5	3.6	8.46e-01	0	38	104	3901751296	60	52046
2026-01-04 07:27:42.36	334.77	2.82	-48.7	-60.4	3.6	8.44e-01	0	37	104	3901751296	60	51505
2026-01-04 07:27:43.66	334.90	2.76	-52.8	-64.5	3.6	8.45e-01	0	38	104	3901751296	60	83127
2026-01-04 07:27:44.38	334.97	2.73	-53.4	-65.1	3.6	8.45e-01	0	38	104	3901751296	60	88735
2026-01-04 07:27:45.68	335.10	2.67	-53.1	-64.8	3.6	8.45e-01	0	38	104	3901751296	60	85297
2026-01-04 07:27:46.40	335.18	2.64	-52.7	-64.8	3.6	8.45e-01	0	38	104	3901751296	60	85710
2026-01-04 07:27:47.70	335.30	2.58	-52.4	-64.3	3.6	8.45e-01	0	38	104	3901751296	60	81220
