passes_logs/2026/01/04/R4.6S_Anadyr_2ch/R4.6S_Anadyr_2ch__20260104_232631_NOAA_20_JPSS-1_rec.log

#Pass ID: 20260104_232631_NOAA 20 (JPSS-1)
#Satellite: NOAA 20 (JPSS-1)
#Configuration: NOAA 20
#almurnet v.1.7.20251203
#Start time: 2026-01-04 23:26:34

#Version: 2.2.20231116
#Station: R4.6S_Anadyr_2ch
#Location: 177.4865 lon 64.73178 lat
#TLE: 1 43013U 17073A   25350.93759711  .00000080  00000+0  58734-4 0  9994
#TLE: 2 43013  98.7603 287.1885 0002156  81.1496 278.9924 14.19526878418610

#Time	Az	El	Level	Level2	SNR	BER	BlckErr	Temp	State	Recorded	gain1	gain2
2026-01-04 23:26:34.10	137.18	0.16	-51.5	-66.6	3.5	1.51e+00	0	27	0	0	60	104069
2026-01-04 23:26:35.11	137.16	0.22	-51.8	-67.2	3.6	1.51e+00	0	28	104	0	60	111617
2026-01-04 23:26:36.12	137.14	0.28	-52.2	-67.6	3.6	1.51e+00	0	28	104	0	60	116417
2026-01-04 23:26:37.13	137.13	0.34	-51.7	-67.1	3.6	1.51e+00	0	29	104	0	60	110484
2026-01-04 23:26:38.14	137.11	0.40	-51.5	-66.9	3.6	1.51e+00	0	29	104	0	60	108158
2026-01-04 23:26:39.15	137.09	0.46	-51.6	-66.9	3.6	1.51e+00	0	29	104	0	60	108443
2026-01-04 23:26:40.16	137.07	0.53	-51.5	-66.9	3.6	1.51e+00	0	29	104	0	60	108054
2026-01-04 23:26:41.17	137.05	0.59	-51.3	-66.7	3.6	1.51e+00	0	29	104	0	60	105524
2026-01-04 23:26:42.19	137.03	0.65	-51.3	-66.7	3.6	1.51e+00	0	29	104	0	60	106012
2026-01-04 23:26:43.20	137.01	0.71	-51.1	-66.6	3.6	1.51e+00	0	29	104	0	60	104087
2026-01-04 23:26:44.21	136.99	0.77	-51.2	-66.6	3.6	1.51e+00	0	29	104	0	60	104045
2026-01-04 23:26:45.22	136.97	0.83	-51.1	-66.4	3.6	1.51e+00	0	29	104	0	60	101962
2026-01-04 23:26:46.23	136.96	0.89	-51.0	-66.4	3.6	1.51e+00	0	29	104	0	60	102056
2026-01-04 23:26:47.24	136.94	0.96	-50.9	-66.3	3.6	1.51e+00	0	29	104	0	60	100881
2026-01-04 23:26:48.25	136.92	1.02	-50.5	-65.9	3.6	1.51e+00	0	29	104	0	60	96203
2026-01-04 23:26:49.26	136.90	1.08	-50.3	-65.6	3.6	1.51e+00	0	29	104	0	60	92770
2026-01-04 23:26:50.27	136.88	1.14	-49.9	-65.3	3.6	1.51e+00	0	29	104	0	60	89410
2026-01-04 23:26:51.28	136.86	1.21	-49.8	-65.2	3.6	1.51e+00	0	29	104	0	60	88714
2026-01-04 23:26:52.29	136.84	1.27	-49.8	-65.1	3.6	1.51e+00	0	29	104	0	60	87988
2026-01-04 23:26:53.30	136.82	1.33	-49.7	-65.1	3.6	1.51e+00	0	29	104	0	60	87920
2026-01-04 23:26:54.31	136.80	1.39	-49.7	-65.1	3.6	1.51e+00	0	29	104	0	60	87580
2026-01-04 23:26:55.32	136.78	1.46	-49.8	-65.2	3.6	1.51e+00	0	29	104	0	60	88647
2026-01-04 23:26:56.33	136.76	1.52	-49.8	-65.2	3.6	1.51e+00	0	29	104	0	60	88589
2026-01-04 23:26:57.34	136.74	1.58	-49.7	-65.1	3.6	1.51e+00	0	29	104	0	60	88173
2026-01-04 23:26:58.35	136.72	1.65	-49.7	-65.1	3.6	1.51e+00	0	29	104	0	60	88028
2026-01-04 23:26:59.37	136.70	1.71	-49.7	-65.1	3.6	1.51e+00	0	29	104	0	60	88027
2026-01-04 23:27:00.37	136.68	1.77	-49.7	-64.9	3.6	1.51e+00	0	29	104	0	60	85817
2026-01-04 23:27:01.39	136.65	1.84	-49.7	-64.9	3.6	1.51e+00	0	29	104	0	60	85946
2026-01-04 23:27:02.40	136.63	1.90	-49.8	-64.8	3.6	1.51e+00	0	29	104	0	60	84507
2026-01-04 23:27:03.41	136.61	1.97	-49.8	-65.0	3.6	1.51e+00	0	29	104	0	60	86531
2026-01-04 23:27:04.42	136.59	2.03	-49.8	-64.9	3.6	1.51e+00	0	29	104	0	60	85809
2026-01-04 23:27:05.43	136.57	2.09	-49.7	-64.5	3.6	1.51e+00	0	29	104	0	60	81641
2026-01-04 23:27:06.44	136.55	2.16	-49.7	-64.9	3.6	1.51e+00	0	29	104	0	60	85389
2026-01-04 23:27:07.45	136.53	2.22	-49.8	-65.1	3.6	1.51e+00	0	29	104	0	60	87426
2026-01-04 23:27:08.46	136.51	2.29	-49.8	-65.2	3.6	1.51e+00	0	29	104	0	60	88331
2026-01-04 23:27:09.47	136.48	2.35	-49.7	-65.1	3.6	1.51e+00	0	29	104	0	60	87705
2026-01-04 23:27:10.48	136.46	2.42	-49.7	-65.0	3.6	1.51e+00	0	29	104	0	60	86685
2026-01-04 23:27:11.49	136.44	2.48	-49.7	-64.9	3.6	1.51e+00	0	29	104	0	60	85711
2026-01-04 23:27:12.51	136.42	2.55	-49.7	-64.9	3.6	1.51e+00	0	29	104	0	60	85298
2026-01-04 23:27:13.52	136.40	2.61	-49.7	-64.6	3.6	1.51e+00	0	29	104	0	60	82794
2026-01-04 23:27:14.53	136.38	2.68	-49.7	-64.3	3.6	1.51e+00	0	29	104	0	60	79663
2026-01-04 23:27:15.54	136.35	2.75	-49.6	-64.1	3.6	1.51e+00	0	29	104	0	60	78450
2026-01-04 23:27:16.55	136.33	2.81	-49.6	-63.5	3.6	1.51e+00	0	29	104	0	60	73104
2026-01-04 23:27:17.56	136.31	2.88	-49.6	-63.7	3.6	1.51e+00	0	29	104	0	60	74875
2026-01-04 23:27:18.57	136.29	2.94	-49.6	-63.8	3.6	1.51e+00	0	29	104	0	60	75468
2026-01-04 23:27:19.59	136.26	3.01	-49.6	-64.2	3.6	1.51e+00	0	29	104	0	60	79068
2026-01-04 23:27:20.60	136.24	3.08	-49.6	-64.9	3.6	1.51e+00	0	29	104	0	60	85994
2026-01-04 23:27:21.61	136.22	3.14	-49.7	-64.6	3.6	1.51e+00	0	29	104	0	60	83108
2026-01-04 23:27:22.62	136.19	3.21	-49.4	-59.9	4.1	1.51e+00	0	29	104	0	60	48202
2026-01-04 23:27:23.63	136.17	3.28	-49.4	-59.5	5.6	8.14e-01	92	29	104	0	60	45976
2026-01-04 23:27:24.64	136.15	3.34	-48.8	-55.4	8.0	2.15e-01	92	29	0	1048576	60	28687
2026-01-04 23:27:25.65	136.12	3.41	-47.8	-52.1	12.5	1.45e-03	92	29	0	3145728	60	19565
2026-01-04 23:27:26.66	136.10	3.48	-47.0	-50.5	13.7	2.89e-05	92	29	0	5242880	60	16340
2026-01-04 23:27:27.67	136.08	3.55	-45.8	-48.4	15.7	0.00e+00	92	29	0	7340032	60	12788
2026-01-04 23:27:28.68	136.05	3.62	-45.6	-48.0	16.4	0.00e+00	6	29	0	8388608	60	12253
2026-01-04 23:27:29.69	136.03	3.68	-45.2	-47.4	16.6	0.00e+00	92	29	0	10485760	60	11475
2026-01-04 23:27:30.70	136.01	3.75	-45.5	-47.9	15.8	0.00e+00	92	29	0	12582912	60	12167
2026-01-04 23:27:31.72	135.98	3.82	-49.9	-63.8	3.6	4.09e-03	0	29	104	13631488	60	75198
2026-01-04 23:27:32.73	135.96	3.89	-47.5	-51.6	6.1	1.51e+00	30	29	104	13631488	60	18569
2026-01-04 23:27:33.74	135.93	3.96	-48.1	-53.0	5.0	7.35e-04	92	29	0	13631488	60	21814
2026-01-04 23:27:34.75	135.91	4.03	-49.0	-56.2	4.7	1.50e+00	0	29	104	13631488	60	31564
2026-01-04 23:27:35.76	135.88	4.10	-44.1	-45.9	16.3	4.13e-01	0	29	104	13631488	60	9580
2026-01-04 23:27:36.77	135.86	4.16	-44.1	-45.9	18.6	4.88e-05	90	29	0	14680064	60	9594
2026-01-04 23:27:37.78	135.83	4.23	-43.4	-44.9	19.2	0.00e+00	11	29	0	16777216	60	8615
2026-01-04 23:27:38.79	135.81	4.30	-44.1	-45.9	18.3	0.00e+00	92	29	0	18874368	60	9654
2026-01-04 23:27:39.80	135.78	4.37	-44.1	-45.9	18.6	0.00e+00	92	29	0	20971520	60	9651
2026-01-04 23:27:40.81	135.76	4.44	-43.9	-45.6	19.0	0.00e+00	90	29	0	22020096	60	9255
2026-01-04 23:27:41.82	135.73	4.51	-43.5	-45.1	19.4	0.00e+00	92	29	0	24117248	60	8740
2026-01-04 23:27:42.83	135.71	4.58	-42.4	-43.8	20.4	0.00e+00	6	29	0	26214400	60	7523
2026-01-04 23:27:43.84	135.68	4.65	-42.7	-44.0	20.3	0.00e+00	92	29	0	28311552	60	7765
2026-01-04 23:27:44.85	135.66	4.72	-42.6	-44.0	20.6	0.00e+00	36	29	0	30408704	60	7695
2026-01-04 23:27:45.87	135.63	4.79	-42.2	-43.5	20.8	0.00e+00	92	29	0	32505856	60	7304
2026-01-04 23:27:46.88	135.60	4.87	-42.4	-43.7	21.1	0.00e+00	92	29	0	33554432	60	7426
2026-01-04 23:27:47.89	135.58	4.94	-42.4	-43.7	20.5	0.00e+00	56	29	0	35651584	60	7423
2026-01-04 23:27:48.90	135.55	5.01	-42.1	-43.3	20.8	0.00e+00	92	29	0	37748736	60	7163
2026-01-04 23:27:49.91	135.52	5.08	-42.2	-43.4	20.9	0.00e+00	7	29	0	39845888	60	7229
2026-01-04 23:27:50.92	135.50	5.15	-43.0	-44.4	20.1	0.00e+00	92	29	0	41943040	60	8082
2026-01-04 23:27:51.93	135.47	5.22	-41.9	-43.2	21.2	0.00e+00	0	29	0	42991616	60	7028
2026-01-04 23:27:52.94	135.44	5.30	-42.2	-43.4	20.9	0.00e+00	91	29	0	45088768	60	7250
2026-01-04 23:27:53.95	135.42	5.37	-42.3	-43.6	20.9	0.00e+00	92	29	0	47185920	60	7381
2026-01-04 23:27:54.96	135.39	5.44	-42.1	-43.3	21.1	0.00e+00	92	29	0	49283072	60	7150
2026-01-04 23:27:55.97	135.36	5.51	-42.8	-44.2	20.2	0.00e+00	92	29	0	51380224	60	7868
2026-01-04 23:27:56.99	135.33	5.59	-42.6	-43.9	20.6	0.00e+00	92	29	0	52428800	60	7657
2026-01-04 23:27:58.00	135.31	5.66	-42.4	-43.7	21.0	0.00e+00	92	29	0	54525952	60	7459
2026-01-04 23:27:59.01	135.28	5.73	-42.1	-43.4	21.3	0.00e+00	0	29	0	56623104	60	7191
2026-01-04 23:28:00.02	135.25	5.81	-41.8	-43.0	21.4	0.00e+00	92	29	0	58720256	60	6891
2026-01-04 23:28:01.03	135.22	5.88	-41.8	-43.0	21.6	0.00e+00	87	29	0	60817408	60	6884
2026-01-04 23:28:02.04	135.19	5.95	-41.6	-42.7	21.7	0.00e+00	92	29	0	61865984	60	6689
2026-01-04 23:28:03.05	135.16	6.03	-41.6	-42.7	21.9	0.00e+00	90	29	0	63963136	60	6649
2026-01-04 23:28:04.06	135.14	6.10	-41.6	-42.7	21.8	0.00e+00	81	29	0	66060288	60	6678
2026-01-04 23:28:05.07	135.11	6.18	-41.6	-42.7	21.7	0.00e+00	92	29	0	68157440	60	6681
2026-01-04 23:28:06.09	135.08	6.25	-41.6	-42.7	21.8	0.00e+00	0	29	0	70254592	60	6662
2026-01-04 23:28:07.10	135.05	6.33	-41.5	-42.7	22.0	0.00e+00	92	29	0	72351744	60	6619
2026-01-04 23:28:08.11	135.02	6.40	-42.1	-43.3	21.4	0.00e+00	16	29	0	73400320	60	7120
2026-01-04 23:28:09.12	134.99	6.48	-41.5	-42.7	21.9	0.00e+00	92	29	0	75497472	60	6619
2026-01-04 23:28:10.13	134.96	6.55	-41.6	-42.8	21.8	0.00e+00	92	29	0	77594624	60	6727
2026-01-04 23:28:11.14	134.93	6.63	-41.6	-42.7	21.9	0.00e+00	92	29	0	79691776	60	6656
2026-01-04 23:28:12.15	134.90	6.70	-41.3	-42.4	22.1	0.00e+00	92	29	0	81788928	60	6399
2026-01-04 23:28:13.16	134.87	6.78	-41.1	-42.2	22.2	0.00e+00	25	29	0	82837504	60	6297
2026-01-04 23:28:14.17	134.84	6.85	-41.2	-42.3	22.2	0.00e+00	90	29	0	84934656	60	6379
2026-01-04 23:28:15.19	134.81	6.93	-41.1	-42.2	22.3	0.00e+00	0	29	0	87031808	60	6256
2026-01-04 23:28:16.20	134.78	7.01	-41.2	-42.2	22.3	0.00e+00	92	29	0	89128960	60	6302
2026-01-04 23:28:17.21	134.75	7.09	-41.3	-42.4	22.2	0.00e+00	92	29	0	91226112	60	6409
2026-01-04 23:28:18.22	134.71	7.16	-41.1	-42.2	22.4	0.00e+00	91	29	0	92274688	60	6273
2026-01-04 23:28:19.23	134.68	7.24	-41.0	-42.1	22.4	0.00e+00	92	29	0	94371840	60	6193
2026-01-04 23:28:20.24	134.65	7.32	-41.2	-42.3	22.3	0.00e+00	4	29	0	96468992	60	6319
2026-01-04 23:28:21.25	134.62	7.40	-41.6	-42.7	22.0	0.00e+00	92	29	0	98566144	60	6689
2026-01-04 23:28:22.26	134.59	7.47	-41.3	-42.4	22.2	0.00e+00	84	29	0	100663296	60	6443
2026-01-04 23:28:23.27	134.56	7.55	-41.4	-42.5	22.1	0.00e+00	92	29	0	101711872	60	6536
2026-01-04 23:28:24.28	134.52	7.63	-41.1	-42.2	22.4	0.00e+00	68	29	0	103809024	60	6257
2026-01-04 23:28:25.30	134.49	7.71	-41.1	-42.2	22.3	0.00e+00	92	29	0	105906176	60	6304
2026-01-04 23:28:26.31	134.46	7.79	-41.3	-42.4	22.2	0.00e+00	90	29	0	108003328	60	6418
2026-01-04 23:28:27.32	134.43	7.87	-41.2	-42.3	22.3	0.00e+00	0	29	0	110100480	60	6367
2026-01-04 23:28:28.33	134.39	7.95	-41.4	-42.5	22.1	0.00e+00	92	29	0	112197632	60	6486
2026-01-04 23:28:29.34	134.36	8.03	-41.1	-42.2	22.4	0.00e+00	0	29	0	113246208	60	6297
2026-01-04 23:28:30.35	134.33	8.11	-41.0	-42.1	22.6	0.00e+00	92	29	0	115343360	60	6186
2026-01-04 23:28:31.36	134.29	8.19	-41.0	-42.1	22.5	0.00e+00	12	29	0	117440512	60	6222
2026-01-04 23:28:32.37	134.26	8.27	-41.1	-42.1	22.5	0.00e+00	92	29	0	119537664	60	6219
2026-01-04 23:28:33.38	134.23	8.35	-40.8	-41.8	22.7	0.00e+00	91	29	0	121634816	60	5997
2026-01-04 23:28:34.40	134.19	8.43	-41.1	-42.1	22.5	0.00e+00	8	30	0	122683392	60	6227
2026-01-04 23:28:35.41	134.16	8.51	-41.0	-42.0	22.5	0.00e+00	92	29	0	124780544	60	6156
2026-01-04 23:28:36.42	134.12	8.59	-40.8	-41.8	22.8	0.00e+00	0	30	0	126877696	60	6023
2026-01-04 23:28:37.43	134.09	8.68	-40.9	-41.9	22.7	0.00e+00	91	29	0	128974848	60	6072
2026-01-04 23:28:38.44	134.05	8.76	-40.5	-41.5	23.1	0.00e+00	2	29	0	131072000	60	5795
2026-01-04 23:28:39.45	134.02	8.84	-40.8	-41.8	22.8	0.00e+00	92	29	0	132120576	60	5989
2026-01-04 23:28:40.46	133.98	8.92	-41.1	-42.1	22.6	0.00e+00	92	29	0	134217728	60	6218
2026-01-04 23:28:41.47	133.95	9.01	-40.8	-41.8	22.8	0.00e+00	91	29	0	136314880	60	5999
2026-01-04 23:28:42.48	133.91	9.09	-41.0	-42.1	22.6	0.00e+00	92	29	0	138412032	60	6191
2026-01-04 23:28:43.49	133.87	9.17	-40.9	-42.0	22.7	0.00e+00	0	30	0	140509184	60	6122
2026-01-04 23:28:44.50	133.84	9.26	-41.6	-42.8	21.7	0.00e+00	92	30	0	141557760	60	6694
2026-01-04 23:28:45.52	133.80	9.34	-41.4	-42.4	22.3	0.00e+00	0	29	0	143654912	60	6446
2026-01-04 23:28:46.53	133.76	9.42	-41.2	-42.3	22.5	0.00e+00	92	29	0	145752064	60	6321
2026-01-04 23:28:47.54	133.73	9.51	-40.9	-42.0	22.6	0.00e+00	92	29	0	147849216	60	6120
2026-01-04 23:28:48.55	133.69	9.59	-40.9	-41.9	22.8	0.00e+00	92	29	0	149946368	60	6088
2026-01-04 23:28:49.56	133.65	9.68	-41.1	-42.2	22.5	0.00e+00	92	29	0	150994944	60	6249
2026-01-04 23:28:50.57	133.61	9.76	-40.9	-41.9	22.8	0.00e+00	85	29	0	153092096	60	6092
2026-01-04 23:28:51.58	133.58	9.85	-40.9	-41.9	22.9	0.00e+00	92	30	0	155189248	60	6067
2026-01-04 23:28:52.59	133.54	9.93	-41.0	-42.0	22.8	0.00e+00	0	29	0	157286400	60	6140
2026-01-04 23:28:53.60	133.50	10.02	-40.8	-41.7	23.1	0.00e+00	92	29	0	159383552	60	5950
2026-01-04 23:28:54.61	133.46	10.11	-40.7	-41.7	23.1	0.00e+00	10	29	0	160432128	60	5898
2026-01-04 23:28:55.62	133.42	10.19	-40.7	-41.6	23.2	0.00e+00	90	29	0	162529280	60	5891
2026-01-04 23:28:56.63	133.38	10.28	-40.7	-41.6	23.1	0.00e+00	92	29	0	164626432	60	5880
2026-01-04 23:28:57.64	133.34	10.37	-40.9	-41.9	23.1	0.00e+00	92	29	0	166723584	60	6040
2026-01-04 23:28:58.65	133.30	10.45	-40.5	-41.5	23.2	0.00e+00	92	29	0	168820736	60	5776
2026-01-04 23:28:59.67	133.26	10.54	-40.6	-41.6	23.3	0.00e+00	11	29	0	170917888	60	5850
2026-01-04 23:29:00.67	133.22	10.63	-40.5	-41.4	23.4	0.00e+00	92	30	0	171966464	60	5749
2026-01-04 23:29:01.69	133.18	10.72	-40.8	-41.8	23.2	0.00e+00	0	29	0	174063616	60	5982
2026-01-04 23:29:02.70	133.14	10.81	-40.5	-41.4	23.4	0.00e+00	92	29	0	176160768	60	5728
2026-01-04 23:29:03.71	133.10	10.90	-40.4	-41.3	23.6	0.00e+00	92	30	0	178257920	60	5654
2026-01-04 23:29:04.72	133.06	10.99	-40.5	-41.5	23.3	0.00e+00	92	30	0	180355072	60	5791
2026-01-04 23:29:05.73	133.02	11.08	-40.4	-41.3	23.6	0.00e+00	90	30	0	181403648	60	5685
2026-01-04 23:29:06.74	132.97	11.17	-40.3	-41.2	23.6	0.00e+00	7	30	0	183500800	60	5616
2026-01-04 23:29:07.75	132.93	11.26	-40.5	-41.4	23.5	0.00e+00	92	30	0	185597952	60	5734
2026-01-04 23:29:08.76	132.89	11.35	-40.4	-41.3	23.6	0.00e+00	5	30	0	187695104	60	5658
2026-01-04 23:29:09.77	132.85	11.44	-40.4	-41.3	23.6	0.00e+00	90	29	0	189792256	60	5684
2026-01-04 23:29:10.78	132.80	11.53	-40.6	-41.5	23.4	0.00e+00	91	29	0	190840832	60	5803
2026-01-04 23:29:11.80	132.76	11.62	-40.4	-41.3	23.6	0.00e+00	92	29	0	192937984	60	5660
2026-01-04 23:29:12.81	132.72	11.71	-40.5	-41.4	23.4	0.00e+00	92	30	0	195035136	60	5726
2026-01-04 23:29:13.82	132.67	11.81	-40.5	-41.4	23.5	0.00e+00	92	30	0	197132288	60	5744
2026-01-04 23:29:14.83	132.63	11.90	-40.4	-41.3	23.6	0.00e+00	92	29	0	199229440	60	5643
2026-01-04 23:29:15.84	132.58	11.99	-40.6	-41.5	23.6	0.00e+00	0	29	0	200278016	60	5808
2026-01-04 23:29:16.85	132.54	12.08	-40.4	-41.4	23.5	0.00e+00	92	30	0	202375168	60	5706
2026-01-04 23:29:17.86	132.49	12.18	-40.5	-41.4	23.6	0.00e+00	0	29	0	204472320	60	5731
2026-01-04 23:29:18.87	132.45	12.27	-40.6	-41.5	23.5	0.00e+00	92	30	0	206569472	60	5789
2026-01-04 23:29:19.88	132.40	12.37	-40.3	-41.3	23.7	0.00e+00	90	30	0	208666624	60	5634
2026-01-04 23:29:20.90	132.36	12.46	-40.8	-41.7	23.3	0.00e+00	92	30	0	209715200	60	5947
2026-01-04 23:29:21.91	132.31	12.56	-40.3	-41.2	23.7	0.00e+00	92	30	0	211812352	60	5630
2026-01-04 23:29:22.92	132.26	12.65	-40.3	-41.3	23.7	0.00e+00	8	29	0	213909504	60	5634
2026-01-04 23:29:23.93	132.22	12.75	-40.3	-41.2	23.7	0.00e+00	92	30	0	216006656	60	5608
2026-01-04 23:29:24.94	132.17	12.84	-40.3	-41.2	23.8	0.00e+00	0	29	0	218103808	60	5577
2026-01-04 23:29:25.95	132.12	12.94	-40.2	-41.2	23.7	0.00e+00	92	30	0	220200960	60	5572
2026-01-04 23:29:26.96	132.07	13.04	-40.4	-41.3	23.7	0.00e+00	92	29	0	221249536	60	5667
2026-01-04 23:29:27.97	132.03	13.13	-40.4	-41.3	23.7	0.00e+00	92	30	0	223346688	60	5656
2026-01-04 23:29:28.98	131.98	13.23	-40.4	-41.3	23.7	0.00e+00	92	30	0	225443840	60	5692
2026-01-04 23:29:29.99	131.93	13.33	-40.5	-41.4	23.6	0.00e+00	0	30	0	227540992	60	5718
2026-01-04 23:29:31.00	131.88	13.43	-40.3	-41.2	23.8	0.00e+00	92	30	0	229638144	60	5596
2026-01-04 23:29:32.02	131.83	13.53	-40.2	-41.1	23.8	0.00e+00	86	30	0	230686720	58	6231
2026-01-04 23:29:33.03	131.78	13.63	-40.3	-41.2	23.7	0.00e+00	92	29	0	232783872	58	6264
2026-01-04 23:29:34.04	131.73	13.73	-40.4	-41.3	23.5	0.00e+00	90	30	0	234881024	58	6346
2026-01-04 23:29:35.05	131.68	13.83	-40.5	-41.5	23.4	0.00e+00	92	30	0	236978176	58	6470
2026-01-04 23:29:36.06	131.63	13.93	-40.6	-41.5	23.4	0.00e+00	92	30	0	239075328	58	6532
2026-01-04 23:29:37.07	131.58	14.03	-40.4	-41.3	23.6	0.00e+00	8	30	0	240123904	58	6372
2026-01-04 23:29:38.08	131.52	14.13	-40.0	-40.9	23.9	0.00e+00	92	30	0	242221056	58	6077
2026-01-04 23:29:39.09	131.47	14.23	-40.0	-40.9	24.0	0.00e+00	0	30	0	244318208	58	6059
2026-01-04 23:29:40.10	131.42	14.33	-40.1	-41.1	23.8	0.00e+00	92	30	0	246415360	58	6185
2026-01-04 23:29:41.12	131.37	14.43	-40.6	-41.5	23.6	0.00e+00	92	30	0	248512512	58	6528
2026-01-04 23:29:42.13	131.31	14.54	-40.5	-41.4	23.6	0.00e+00	90	30	0	249561088	58	6448
2026-01-04 23:29:43.14	131.26	14.64	-40.1	-41.0	23.7	0.00e+00	92	30	0	251658240	58	6126
2026-01-04 23:29:44.15	131.20	14.74	-40.2	-41.1	23.7	0.00e+00	90	30	0	253755392	58	6187
2026-01-04 23:29:45.16	131.15	14.84	-40.1	-41.0	24.0	0.00e+00	91	30	0	255852544	58	6127
2026-01-04 23:29:46.17	131.10	14.95	-40.1	-41.0	23.9	0.00e+00	1	30	0	257949696	58	6116
2026-01-04 23:29:47.18	131.04	15.05	-39.9	-40.8	24.0	0.00e+00	92	29	0	260046848	58	6020
2026-01-04 23:29:48.19	130.98	15.16	-40.3	-41.2	23.8	0.00e+00	3	30	0	261095424	58	6264
2026-01-04 23:29:49.20	130.93	15.26	-40.1	-41.0	23.9	0.00e+00	92	30	0	263192576	58	6124
2026-01-04 23:29:50.21	130.87	15.37	-40.2	-41.2	23.7	0.00e+00	90	29	0	265289728	58	6250
2026-01-04 23:29:51.22	130.81	15.48	-40.0	-40.9	24.0	0.00e+00	92	30	0	267386880	58	6074
2026-01-04 23:29:52.23	130.76	15.58	-40.1	-40.9	24.0	0.00e+00	92	30	0	269484032	58	6102
2026-01-04 23:29:53.25	130.70	15.69	-40.2	-41.1	24.0	0.00e+00	92	30	0	270532608	58	6183
2026-01-04 23:29:54.26	130.64	15.80	-40.1	-41.0	24.0	0.00e+00	90	30	0	272629760	58	6136
2026-01-04 23:29:55.27	130.58	15.91	-40.0	-40.8	24.0	0.00e+00	0	30	0	274726912	58	6031
2026-01-04 23:29:56.28	130.52	16.01	-40.0	-40.9	24.0	0.00e+00	90	30	0	276824064	58	6063
2026-01-04 23:29:57.29	130.46	16.12	-39.9	-40.8	24.0	0.00e+00	92	30	0	278921216	58	5985
2026-01-04 23:29:58.30	130.40	16.23	-40.1	-40.9	23.9	0.00e+00	92	30	0	279969792	58	6102
2026-01-04 23:29:59.31	130.34	16.34	-39.9	-40.8	24.0	0.00e+00	92	30	0	282066944	58	6017
2026-01-04 23:30:00.32	130.28	16.45	-39.9	-40.8	24.1	0.00e+00	92	30	0	284164096	58	5987
2026-01-04 23:30:01.34	130.22	16.57	-39.8	-40.7	24.2	0.00e+00	92	30	0	286261248	58	5912
2026-01-04 23:30:02.35	130.16	16.68	-39.8	-40.7	24.1	0.00e+00	0	30	0	288358400	58	5927
2026-01-04 23:30:03.36	130.09	16.79	-39.9	-40.8	24.1	0.00e+00	92	30	0	289406976	58	5971
2026-01-04 23:30:04.37	130.03	16.90	-39.9	-40.8	24.0	0.00e+00	92	30	0	291504128	58	6007
2026-01-04 23:30:05.38	129.97	17.01	-40.1	-41.0	24.0	0.00e+00	92	30	0	293601280	58	6111
2026-01-04 23:30:06.39	129.90	17.13	-40.3	-41.2	23.7	0.00e+00	92	30	0	295698432	58	6283
2026-01-04 23:30:07.40	129.84	17.24	-40.5	-41.5	23.5	0.00e+00	92	30	0	297795584	58	6500
2026-01-04 23:30:08.41	129.78	17.35	-40.3	-41.3	23.9	0.00e+00	90	30	0	298844160	58	6323
2026-01-04 23:30:09.42	129.71	17.47	-40.3	-41.2	23.8	0.00e+00	86	30	0	300941312	58	6256
2026-01-04 23:30:10.44	129.64	17.58	-40.0	-40.9	24.0	0.00e+00	92	30	0	303038464	58	6091
2026-01-04 23:30:11.45	129.58	17.70	-40.1	-41.0	23.8	0.00e+00	0	30	0	305135616	58	6166
2026-01-04 23:30:12.46	129.51	17.82	-39.9	-40.8	24.1	0.00e+00	92	30	0	307232768	58	6019
2026-01-04 23:30:13.47	129.44	17.93	-39.9	-40.7	24.1	0.00e+00	92	30	0	309329920	58	5959
2026-01-04 23:30:14.48	129.37	18.05	-39.9	-40.8	24.1	0.00e+00	91	30	0	310378496	58	5985
2026-01-04 23:30:15.49	129.30	18.17	-40.2	-41.1	23.9	0.00e+00	92	30	0	312475648	58	6200
2026-01-04 23:30:16.50	129.24	18.29	-40.0	-40.9	24.0	0.00e+00	6	30	0	314572800	58	6068
2026-01-04 23:30:17.51	129.17	18.40	-39.8	-40.7	24.2	0.00e+00	91	30	0	316669952	58	5924
2026-01-04 23:30:18.52	129.10	18.52	-39.9	-40.8	24.1	0.00e+00	0	30	0	318767104	58	5973
2026-01-04 23:30:19.53	129.02	18.64	-40.0	-40.8	24.1	0.00e+00	91	30	0	319815680	58	6026
2026-01-04 23:30:20.55	128.95	18.77	-39.9	-40.8	24.1	0.00e+00	91	30	0	321912832	58	6021
2026-01-04 23:30:21.56	128.88	18.89	-39.9	-40.7	24.1	0.00e+00	91	30	0	324009984	58	5948
2026-01-04 23:30:22.57	128.81	19.01	-40.1	-41.0	24.0	0.00e+00	91	30	0	326107136	58	6113
2026-01-04 23:30:23.58	128.73	19.13	-40.1	-41.0	24.0	0.00e+00	89	30	0	328204288	58	6133
2026-01-04 23:30:24.59	128.66	19.25	-40.2	-41.1	23.9	0.00e+00	92	30	0	329252864	58	6230
2026-01-04 23:30:25.60	128.59	19.37	-40.2	-41.1	24.0	0.00e+00	5	30	0	331350016	58	6211
2026-01-04 23:30:26.61	128.51	19.50	-40.0	-40.9	24.0	0.00e+00	92	30	0	333447168	58	6049
2026-01-04 23:30:27.62	128.43	19.62	-39.9	-40.7	24.2	0.00e+00	92	30	0	335544320	58	5963
2026-01-04 23:30:28.63	128.36	19.75	-40.0	-40.9	23.9	0.00e+00	92	30	0	337641472	58	6083
2026-01-04 23:30:29.64	128.28	19.87	-40.0	-40.9	24.1	0.00e+00	92	30	0	338690048	58	6067
2026-01-04 23:30:30.66	128.20	20.00	-40.2	-41.1	23.9	0.00e+00	92	30	0	340787200	58	6211
2026-01-04 23:30:31.67	128.12	20.13	-40.2	-41.1	24.0	0.00e+00	92	30	0	342884352	58	6194
2026-01-04 23:30:32.68	128.04	20.25	-40.0	-40.9	24.0	0.00e+00	6	30	0	344981504	58	6074
2026-01-04 23:30:33.69	127.96	20.38	-40.2	-41.1	23.9	0.00e+00	92	30	0	347078656	58	6196
2026-01-04 23:30:34.70	127.88	20.51	-40.2	-41.1	23.9	0.00e+00	74	30	0	348127232	58	6218
2026-01-04 23:30:35.71	127.80	20.64	-40.2	-41.1	24.0	0.00e+00	92	30	0	350224384	58	6208
2026-01-04 23:30:36.72	127.72	20.77	-40.3	-41.2	23.7	0.00e+00	92	30	0	352321536	58	6268
2026-01-04 23:30:37.73	127.64	20.90	-41.1	-42.0	23.3	0.00e+00	92	30	0	354418688	60	6171
2026-01-04 23:30:38.74	127.56	21.03	-40.2	-41.1	24.0	0.00e+00	92	30	0	356515840	60	5548
2026-01-04 23:30:39.75	127.47	21.16	-40.3	-41.2	23.9	0.00e+00	0	30	0	357564416	60	5611
2026-01-04 23:30:40.76	127.39	21.29	-40.3	-41.3	23.8	0.00e+00	92	30	0	359661568	60	5637
2026-01-04 23:30:41.78	127.30	21.42	-40.5	-41.4	23.7	0.00e+00	87	30	0	361758720	60	5727
2026-01-04 23:30:42.79	127.21	21.56	-40.5	-41.4	23.7	0.00e+00	92	30	0	363855872	60	5747
2026-01-04 23:30:43.80	127.13	21.69	-40.7	-41.6	23.5	0.00e+00	92	30	0	365953024	60	5869
2026-01-04 23:30:44.81	127.04	21.83	-40.7	-41.7	23.5	0.00e+00	92	30	0	368050176	60	5925
2026-01-04 23:30:45.82	126.95	21.96	-40.8	-41.8	23.4	0.00e+00	90	30	0	369098752	60	5972
2026-01-04 23:30:46.83	126.86	22.10	-41.0	-42.0	23.3	0.00e+00	0	30	0	371195904	60	6115
2026-01-04 23:30:47.84	126.77	22.23	-40.7	-41.6	23.5	0.00e+00	90	30	0	373293056	60	5891
2026-01-04 23:30:48.85	126.68	22.37	-40.9	-41.9	23.0	0.00e+00	0	30	0	375390208	60	6080
2026-01-04 23:30:49.86	126.59	22.51	-40.8	-41.8	23.4	0.00e+00	91	30	0	377487360	60	5995
2026-01-04 23:30:50.87	126.49	22.65	-40.9	-41.8	23.4	0.00e+00	91	30	0	378535936	60	6030
2026-01-04 23:30:51.89	126.40	22.79	-41.3	-42.3	22.9	0.00e+00	91	30	0	380633088	60	6337
2026-01-04 23:30:52.90	126.30	22.93	-41.4	-42.4	22.9	0.00e+00	92	30	0	382730240	60	6451
2026-01-04 23:30:53.91	126.21	23.07	-41.3	-42.3	23.0	0.00e+00	2	30	0	384827392	60	6347
2026-01-04 23:30:54.92	126.11	23.21	-41.5	-42.5	22.8	0.00e+00	92	30	0	386924544	60	6475
2026-01-04 23:30:55.93	126.02	23.35	-41.6	-42.6	22.8	0.00e+00	0	30	0	387973120	60	6579
2026-01-04 23:30:56.94	125.92	23.49	-41.5	-42.5	22.9	0.00e+00	91	30	0	390070272	60	6467
2026-01-04 23:30:57.95	125.82	23.63	-41.6	-42.6	22.6	0.00e+00	90	30	0	392167424	60	6599
2026-01-04 23:30:58.96	125.72	23.78	-41.7	-42.7	22.5	0.00e+00	92	30	0	394264576	60	6684
2026-01-04 23:30:59.97	125.62	23.92	-41.6	-42.6	22.7	0.00e+00	92	30	0	396361728	60	6581
2026-01-04 23:31:00.98	125.52	24.07	-41.9	-43.0	22.4	0.00e+00	92	30	0	397410304	60	6856
2026-01-04 23:31:02.00	125.41	24.21	-41.8	-42.8	22.6	0.00e+00	92	30	0	399507456	60	6734
2026-01-04 23:31:03.01	125.31	24.36	-41.8	-42.9	22.6	0.00e+00	3	30	0	401604608	60	6783
2026-01-04 23:31:04.02	125.20	24.51	-41.8	-42.8	22.6	0.00e+00	90	30	0	403701760	60	6746
2026-01-04 23:31:05.03	125.10	24.66	-41.7	-42.8	22.6	0.00e+00	75	30	0	405798912	60	6724
2026-01-04 23:31:06.04	124.99	24.80	-41.8	-42.9	22.6	0.00e+00	92	30	0	407896064	60	6784
2026-01-04 23:31:07.05	124.88	24.95	-41.9	-43.0	22.3	0.00e+00	90	30	0	408944640	60	6855
2026-01-04 23:31:08.06	124.77	25.10	-41.9	-43.0	22.3	0.00e+00	31	30	0	411041792	60	6892
2026-01-04 23:31:09.07	124.66	25.25	-42.1	-43.2	22.2	0.00e+00	91	30	0	413138944	60	7010
2026-01-04 23:31:10.08	124.55	25.41	-42.0	-43.1	22.1	0.00e+00	7	30	0	415236096	60	6990
2026-01-04 23:31:11.09	124.44	25.56	-42.1	-43.3	22.3	0.00e+00	90	30	0	417333248	60	7116
2026-01-04 23:31:12.11	124.33	25.71	-41.8	-42.8	22.6	0.00e+00	0	30	0	418381824	60	6762
2026-01-04 23:31:13.12	124.21	25.87	-42.1	-43.2	22.1	0.00e+00	92	30	0	420478976	60	7049
2026-01-04 23:31:14.13	124.10	26.02	-42.0	-43.1	22.3	0.00e+00	92	30	0	422576128	60	6955
2026-01-04 23:31:15.14	123.98	26.18	-42.3	-43.4	22.0	0.00e+00	48	30	0	424673280	60	7184
2026-01-04 23:31:16.15	123.86	26.33	-42.2	-43.2	22.2	0.00e+00	90	30	0	426770432	60	7088
2026-01-04 23:31:17.16	123.74	26.49	-42.1	-43.2	22.3	0.00e+00	78	30	0	427819008	60	7012
2026-01-04 23:31:18.17	123.62	26.65	-42.2	-43.3	22.1	0.00e+00	90	30	0	429916160	60	7132
2026-01-04 23:31:19.18	123.50	26.81	-42.3	-43.3	22.1	0.00e+00	0	30	0	432013312	60	7168
2026-01-04 23:31:20.19	123.38	26.97	-42.3	-43.4	21.9	0.00e+00	90	30	0	434110464	60	7240
2026-01-04 23:31:21.21	123.25	27.13	-42.5	-43.6	21.8	0.00e+00	92	30	0	436207616	60	7370
2026-01-04 23:31:22.22	123.13	27.29	-42.4	-43.5	21.9	0.00e+00	92	30	0	437256192	60	7289
2026-01-04 23:31:23.23	123.00	27.45	-42.9	-44.0	21.4	0.00e+00	92	30	0	439353344	60	7759
2026-01-04 23:31:24.24	122.87	27.61	-42.9	-44.1	21.5	0.00e+00	0	30	0	441450496	60	7797
2026-01-04 23:31:25.25	122.74	27.78	-42.7	-43.8	21.6	0.00e+00	92	30	0	443547648	60	7555
2026-01-04 23:31:26.26	122.61	27.94	-42.5	-43.7	21.8	0.00e+00	76	30	0	445644800	60	7443
2026-01-04 23:31:27.27	122.48	28.10	-42.7	-43.9	21.6	0.00e+00	92	30	0	447741952	60	7607
2026-01-04 23:31:28.28	122.34	28.27	-42.9	-44.0	21.4	0.00e+00	92	30	0	448790528	60	7770
2026-01-04 23:31:29.29	122.21	28.44	-42.9	-44.1	21.3	0.00e+00	92	30	0	450887680	60	7827
2026-01-04 23:31:30.30	122.07	28.60	-42.7	-43.9	21.5	0.00e+00	92	30	0	452984832	60	7614
2026-01-04 23:31:31.32	121.93	28.77	-43.0	-44.2	21.4	0.00e+00	0	30	0	455081984	60	7909
2026-01-04 23:31:32.33	121.79	28.94	-42.5	-43.6	21.8	0.00e+00	92	30	0	457179136	60	7416
2026-01-04 23:31:33.34	121.65	29.11	-42.8	-43.9	21.5	0.00e+00	3	30	0	458227712	60	7667
2026-01-04 23:31:34.35	121.51	29.28	-42.7	-43.9	21.5	0.00e+00	90	30	0	460324864	60	7621
2026-01-04 23:31:35.36	121.37	29.45	-43.0	-44.2	21.3	0.00e+00	2	30	0	462422016	60	7927
2026-01-04 23:31:36.37	121.22	29.63	-42.8	-44.0	21.6	0.00e+00	91	30	0	464519168	60	7734
2026-01-04 23:31:37.38	121.08	29.80	-42.1	-43.2	22.2	0.00e+00	92	30	0	466616320	60	7066
2026-01-04 23:31:38.39	120.93	29.97	-42.0	-43.1	22.3	0.00e+00	91	30	0	467664896	60	6942
2026-01-04 23:31:39.40	120.78	30.15	-41.9	-42.9	22.5	0.00e+00	91	30	0	469762048	60	6831
2026-01-04 23:31:40.41	120.62	30.32	-41.8	-42.8	22.7	0.00e+00	77	30	0	471859200	60	6724
2026-01-04 23:31:41.42	120.47	30.50	-41.9	-42.9	22.5	0.00e+00	92	30	0	473956352	60	6806
2026-01-04 23:31:42.43	120.31	30.68	-41.8	-42.9	22.6	0.00e+00	73	30	0	476053504	60	6788
2026-01-04 23:31:43.45	120.16	30.86	-42.3	-43.3	22.1	0.00e+00	92	30	0	477102080	60	7169
2026-01-04 23:31:44.46	120.00	31.04	-42.0	-43.1	22.3	0.00e+00	92	30	0	479199232	60	6968
2026-01-04 23:31:45.47	119.84	31.22	-42.1	-43.1	22.2	0.00e+00	91	30	0	481296384	60	7007
2026-01-04 23:31:46.48	119.67	31.40	-42.4	-43.5	22.0	0.00e+00	92	30	0	483393536	60	7313
2026-01-04 23:31:47.49	119.51	31.58	-42.5	-43.6	22.0	0.00e+00	11	30	0	485490688	60	7390
2026-01-04 23:31:48.50	119.34	31.76	-42.5	-43.6	21.8	0.00e+00	92	30	0	486539264	60	7421
2026-01-04 23:31:49.51	119.17	31.94	-42.5	-43.6	21.9	0.00e+00	0	30	0	488636416	60	7379
2026-01-04 23:31:50.52	119.00	32.13	-42.6	-43.8	21.7	0.00e+00	92	30	0	490733568	60	7509
2026-01-04 23:31:51.53	118.83	32.31	-42.8	-43.9	21.6	0.00e+00	92	30	0	492830720	60	7649
2026-01-04 23:31:52.55	118.66	32.50	-42.9	-44.0	21.4	0.00e+00	92	30	0	494927872	60	7768
2026-01-04 23:31:53.56	118.48	32.69	-43.1	-44.2	21.3	0.00e+00	92	30	0	495976448	60	7948
2026-01-04 23:31:54.57	118.30	32.88	-43.1	-44.3	21.3	0.00e+00	90	30	0	498073600	60	8031
2026-01-04 23:31:55.58	118.12	33.06	-43.2	-44.4	21.2	0.00e+00	92	30	0	500170752	60	8085
2026-01-04 23:31:56.59	117.94	33.25	-43.0	-44.2	21.4	0.00e+00	90	30	0	502267904	60	7895
2026-01-04 23:31:57.60	117.75	33.44	-43.1	-44.3	21.2	0.00e+00	92	30	0	504365056	60	8004
2026-01-04 23:31:58.61	117.57	33.63	-43.2	-44.4	21.2	0.00e+00	0	30	0	505413632	60	8123
2026-01-04 23:31:59.62	117.38	33.82	-43.2	-44.4	21.0	0.00e+00	92	30	0	507510784	60	8126
2026-01-04 23:32:00.63	117.19	34.02	-43.8	-45.2	20.4	0.00e+00	92	30	0	509607936	60	8831
2026-01-04 23:32:01.64	116.99	34.21	-43.9	-45.3	20.3	0.00e+00	90	30	0	511705088	60	8984
2026-01-04 23:32:02.66	116.79	34.41	-44.2	-45.6	20.0	0.00e+00	92	30	0	513802240	60	9292
2026-01-04 23:32:03.67	116.60	34.60	-44.2	-45.6	20.1	0.00e+00	0	30	0	515899392	60	9333
2026-01-04 23:32:04.68	116.40	34.80	-44.3	-45.8	19.9	0.00e+00	92	30	0	516947968	60	9466
2026-01-04 23:32:05.69	116.19	34.99	-44.3	-45.7	19.9	0.00e+00	0	30	0	519045120	60	9436
2026-01-04 23:32:06.70	115.99	35.19	-44.2	-45.6	20.1	0.00e+00	92	30	0	521142272	60	9265
2026-01-04 23:32:07.71	115.78	35.39	-44.0	-45.3	20.2	0.00e+00	92	30	0	523239424	60	9020
2026-01-04 23:32:08.72	115.57	35.59	-44.1	-45.5	20.2	0.00e+00	92	30	0	525336576	60	9133
2026-01-04 23:32:09.73	115.35	35.79	-44.3	-45.7	20.0	0.00e+00	92	30	0	526385152	60	9410
2026-01-04 23:32:10.75	115.13	35.99	-43.9	-45.3	20.3	0.00e+00	6	30	0	528482304	60	8991
2026-01-04 23:32:11.76	114.92	36.19	-43.7	-45.1	20.6	0.00e+00	90	30	0	530579456	60	8755
2026-01-04 23:32:12.77	114.69	36.39	-44.0	-45.4	20.4	0.00e+00	4	30	0	532676608	60	9103
2026-01-04 23:32:13.78	114.47	36.60	-43.6	-44.9	20.9	0.00e+00	90	30	0	534773760	60	8571
2026-01-04 23:32:14.79	114.24	36.80	-43.4	-44.6	21.0	0.00e+00	92	30	0	535822336	60	8279
2026-01-04 23:32:15.80	114.01	37.01	-43.5	-44.8	20.9	0.00e+00	92	30	0	537919488	60	8447
2026-01-04 23:32:16.81	113.78	37.21	-43.2	-44.4	21.1	0.00e+00	92	30	0	540016640	60	8092
2026-01-04 23:32:17.82	113.54	37.42	-43.3	-44.5	21.1	0.00e+00	80	30	0	542113792	60	8232
2026-01-04 23:32:18.83	113.30	37.62	-43.2	-44.4	21.4	0.00e+00	92	30	0	544210944	60	8108
2026-01-04 23:32:19.84	113.06	37.83	-43.2	-44.4	21.2	0.00e+00	88	30	0	545259520	60	8127
2026-01-04 23:32:20.85	112.81	38.04	-43.1	-44.3	21.3	0.00e+00	92	30	0	547356672	60	8035
2026-01-04 23:32:21.87	112.56	38.25	-42.9	-44.1	21.4	0.00e+00	83	30	0	549453824	60	7799
2026-01-04 23:32:22.88	112.31	38.46	-43.1	-44.3	21.3	0.00e+00	92	30	0	551550976	60	7978
2026-01-04 23:32:23.89	112.06	38.67	-43.0	-44.2	21.3	0.00e+00	92	30	0	553648128	60	7942
2026-01-04 23:32:24.90	111.80	38.88	-43.3	-44.6	20.9	0.00e+00	92	30	0	555745280	60	8264
2026-01-04 23:32:25.91	111.53	39.09	-43.3	-44.5	21.1	0.00e+00	90	30	0	556793856	60	8173
2026-01-04 23:32:26.92	111.27	39.30	-43.6	-44.9	20.8	0.00e+00	7	30	0	558891008	60	8574
2026-01-04 23:32:27.93	111.00	39.51	-43.8	-45.1	20.4	0.00e+00	90	30	0	560988160	60	8749
2026-01-04 23:32:28.94	110.73	39.73	-44.0	-45.3	20.5	0.00e+00	0	30	0	563085312	60	8997
2026-01-04 23:32:29.95	110.45	39.94	-44.2	-45.7	19.9	0.00e+00	90	30	0	565182464	60	9387
2026-01-04 23:32:30.96	110.17	40.15	-44.6	-46.1	19.8	0.00e+00	92	30	0	566231040	60	9847
2026-01-04 23:32:31.97	109.89	40.37	-44.7	-46.3	19.1	0.00e+00	90	30	0	568328192	60	10093
2026-01-04 23:32:32.99	109.60	40.59	-44.0	-45.5	20.0	0.00e+00	91	30	0	570425344	60	9143
2026-01-04 23:32:34.00	109.31	40.80	-43.8	-45.2	20.5	0.00e+00	0	30	0	572522496	60	8854
2026-01-04 23:32:35.01	109.01	41.02	-43.4	-44.7	21.1	0.00e+00	92	30	0	574619648	60	8398
2026-01-04 23:32:36.02	108.71	41.23	-43.0	-44.2	21.4	0.00e+00	75	30	0	575668224	60	7892
2026-01-04 23:32:37.03	108.41	41.45	-43.2	-44.4	21.1	0.00e+00	92	30	0	577765376	60	8125
2026-01-04 23:32:38.04	108.10	41.67	-43.0	-44.2	21.4	0.00e+00	91	30	0	579862528	60	7927
2026-01-04 23:32:39.05	107.79	41.88	-43.1	-44.3	21.3	0.00e+00	91	30	0	581959680	60	7996
2026-01-04 23:32:40.06	107.47	42.10	-42.9	-44.0	21.5	0.00e+00	91	30	0	584056832	60	7751
2026-01-04 23:32:41.07	107.15	42.32	-42.8	-44.0	21.5	0.00e+00	0	30	0	585105408	60	7730
2026-01-04 23:32:42.09	106.82	42.54	-42.6	-43.8	21.7	0.00e+00	91	30	0	587202560	60	7539
2026-01-04 23:32:43.10	106.50	42.76	-42.5	-43.6	22.0	0.00e+00	0	30	0	589299712	60	7379
2026-01-04 23:32:44.11	106.16	42.98	-42.3	-43.4	22.1	0.00e+00	90	30	0	591396864	60	7201
2026-01-04 23:32:45.12	105.82	43.20	-42.5	-43.6	21.8	0.00e+00	92	30	0	593494016	60	7368
2026-01-04 23:32:46.13	105.48	43.41	-42.9	-44.1	21.5	0.00e+00	92	30	0	595591168	60	7845
2026-01-04 23:32:47.14	105.13	43.63	-43.3	-44.5	21.1	0.00e+00	92	30	0	596639744	60	8198
2026-01-04 23:32:48.15	104.78	43.85	-43.6	-44.9	20.8	0.00e+00	7	30	0	598736896	60	8541
2026-01-04 23:32:49.16	104.42	44.07	-43.6	-44.9	20.7	0.00e+00	92	30	0	600834048	60	8529
2026-01-04 23:32:50.17	104.06	44.29	-43.7	-45.1	20.5	0.00e+00	2	30	0	602931200	60	8757
2026-01-04 23:32:51.18	103.69	44.51	-43.6	-44.9	20.8	0.00e+00	92	30	0	605028352	60	8576
2026-01-04 23:32:52.20	103.32	44.73	-43.2	-44.4	21.2	0.00e+00	92	30	0	606076928	60	8123
2026-01-04 23:32:53.21	102.94	44.95	-43.4	-44.6	21.0	0.00e+00	92	30	0	608174080	60	8327
2026-01-04 23:32:54.22	102.55	45.17	-43.4	-44.7	20.9	0.00e+00	92	30	0	610271232	60	8351
2026-01-04 23:32:55.23	102.17	45.38	-43.3	-44.6	21.1	0.00e+00	77	30	0	612368384	60	8267
2026-01-04 23:32:56.24	101.77	45.60	-43.4	-44.7	20.9	0.00e+00	90	30	0	614465536	60	8363
2026-01-04 23:32:57.25	101.37	45.82	-43.3	-44.6	21.0	0.00e+00	0	30	0	615514112	60	8247
2026-01-04 23:32:58.26	100.97	46.04	-43.2	-44.4	21.1	0.00e+00	90	30	0	617611264	60	8087
2026-01-04 23:32:59.27	100.56	46.25	-43.4	-44.7	20.9	0.00e+00	5	30	0	619708416	60	8344
2026-01-04 23:33:00.28	100.14	46.47	-43.7	-45.1	20.4	0.00e+00	92	30	0	621805568	60	8742
2026-01-04 23:33:01.30	99.72	46.68	-43.7	-45.1	20.5	0.00e+00	92	30	0	623902720	60	8760
2026-01-04 23:33:02.31	99.29	46.90	-43.6	-44.9	20.8	0.00e+00	60	30	0	624951296	60	8591
2026-01-04 23:33:03.32	98.85	47.11	-43.6	-44.9	20.7	0.00e+00	92	30	0	627048448	60	8544
2026-01-04 23:33:04.33	98.41	47.33	-43.3	-44.6	21.1	0.00e+00	0	30	0	629145600	60	8271
2026-01-04 23:33:05.34	97.97	47.54	-43.2	-44.4	21.1	0.00e+00	92	30	0	631242752	60	8127
2026-01-04 23:33:06.35	97.52	47.75	-42.9	-44.1	21.5	0.00e+00	0	30	0	633339904	60	7834
2026-01-04 23:33:07.36	97.06	47.96	-42.7	-43.8	21.8	0.00e+00	92	30	0	634388480	60	7568
2026-01-04 23:33:08.37	96.59	48.17	-42.6	-43.7	21.7	0.00e+00	92	30	0	636485632	60	7493
2026-01-04 23:33:09.39	96.12	48.38	-42.7	-43.9	21.6	0.00e+00	88	30	0	638582784	60	7644
2026-01-04 23:33:10.40	95.64	48.59	-42.7	-43.9	21.7	0.00e+00	92	30	0	640679936	60	7628
2026-01-04 23:33:11.41	95.16	48.79	-42.4	-43.5	21.7	0.00e+00	82	30	0	642777088	60	7319
2026-01-04 23:33:12.42	94.67	49.00	-42.1	-43.2	22.2	0.00e+00	92	30	0	644874240	60	7037
2026-01-04 23:33:13.43	94.17	49.20	-41.9	-43.0	22.5	0.00e+00	76	30	0	645922816	60	6876
2026-01-04 23:33:14.44	93.66	49.41	-41.6	-42.6	22.8	0.00e+00	92	30	0	648019968	60	6604
2026-01-04 23:33:15.45	93.15	49.61	-41.3	-42.3	23.1	0.00e+00	5	30	0	650117120	60	6359
2026-01-04 23:33:16.46	92.64	49.80	-41.2	-42.2	23.2	0.00e+00	92	30	0	652214272	60	6292
2026-01-04 23:33:17.48	92.11	50.00	-40.8	-41.7	23.6	0.00e+00	90	30	0	654311424	60	5917
2026-01-04 23:33:18.49	91.58	50.20	-40.4	-41.3	24.0	0.00e+00	7	30	0	655360000	60	5641
2026-01-04 23:33:19.50	91.04	50.39	-40.2	-41.1	24.0	0.00e+00	92	30	0	657457152	60	5536
2026-01-04 23:33:20.51	90.49	50.58	-40.2	-41.1	24.1	0.00e+00	5	30	0	659554304	58	6176
2026-01-04 23:33:21.52	89.94	50.77	-40.0	-40.9	24.4	0.00e+00	92	30	0	661651456	58	6038
2026-01-04 23:33:22.53	89.38	50.96	-40.0	-40.9	24.2	0.00e+00	19	30	0	663748608	58	6055
2026-01-04 23:33:23.54	88.82	51.15	-40.0	-40.9	24.2	0.00e+00	24	30	0	664797184	58	6072
2026-01-04 23:33:24.55	88.25	51.33	-40.3	-41.1	24.0	0.00e+00	92	30	0	666894336	58	6232
2026-01-04 23:33:25.56	87.67	51.51	-40.6	-41.5	23.5	0.00e+00	7	30	0	668991488	58	6506
2026-01-04 23:33:26.57	87.08	51.69	-40.6	-41.5	23.9	0.00e+00	92	30	0	671088640	58	6469
2026-01-04 23:33:27.58	86.49	51.87	-40.2	-41.0	24.2	0.00e+00	78	30	0	673185792	58	6168
2026-01-04 23:33:28.60	85.88	52.04	-40.2	-41.1	23.9	0.00e+00	92	30	0	674234368	58	6218
2026-01-04 23:33:29.61	85.27	52.21	-40.3	-41.1	23.9	0.00e+00	12	30	0	676331520	58	6237
2026-01-04 23:33:30.62	84.66	52.38	-40.4	-41.2	24.0	0.00e+00	92	30	0	678428672	58	6302
2026-01-04 23:33:31.63	84.04	52.54	-40.2	-41.1	24.1	0.00e+00	90	30	0	680525824	58	6212
2026-01-04 23:33:32.64	83.41	52.71	-40.5	-41.4	23.8	0.00e+00	92	30	0	682622976	58	6462
2026-01-04 23:33:33.65	82.77	52.87	-40.6	-41.5	23.8	0.00e+00	90	30	0	683671552	58	6497
2026-01-04 23:33:34.66	82.13	53.02	-40.9	-41.8	23.4	0.00e+00	90	30	0	685768704	58	6758
2026-01-04 23:33:35.67	81.48	53.17	-40.9	-41.9	23.4	0.00e+00	90	30	0	687865856	58	6805
2026-01-04 23:33:36.68	80.82	53.32	-41.1	-42.1	22.9	0.00e+00	12	30	0	689963008	58	6973
2026-01-04 23:33:37.69	80.16	53.47	-40.9	-41.9	23.3	0.00e+00	92	30	0	692060160	58	6785
2026-01-04 23:33:38.70	79.49	53.61	-40.1	-41.0	24.1	0.00e+00	75	30	0	693108736	58	6156
2026-01-04 23:33:39.72	78.81	53.75	-40.3	-41.2	24.0	0.00e+00	0	30	0	695205888	58	6289
2026-01-04 23:33:40.73	78.13	53.88	-40.3	-41.1	24.1	0.00e+00	92	30	0	697303040	58	6244
2026-01-04 23:33:41.74	77.44	54.01	-39.7	-40.6	24.6	0.00e+00	12	30	0	699400192	58	5850
2026-01-04 23:33:42.75	76.74	54.14	-39.5	-40.3	24.7	0.00e+00	92	30	0	701497344	58	5657
2026-01-04 23:33:43.76	76.04	54.26	-39.1	-39.8	25.1	0.00e+00	4	30	0	703594496	56	6023
2026-01-04 23:33:44.77	75.33	54.38	-39.3	-40.1	24.9	0.00e+00	92	30	0	704643072	56	6222
2026-01-04 23:33:45.78	74.62	54.50	-39.4	-40.2	24.9	0.00e+00	12	30	0	706740224	56	6273
2026-01-04 23:33:46.79	73.90	54.61	-39.3	-40.2	24.9	0.00e+00	1	30	0	708837376	56	6251
2026-01-04 23:33:47.80	73.18	54.71	-39.3	-40.1	24.9	0.00e+00	92	30	0	710934528	56	6213
2026-01-04 23:33:48.82	72.44	54.82	-39.5	-40.3	24.7	0.00e+00	0	30	0	713031680	58	5672
2026-01-04 23:33:49.83	71.71	54.91	-39.5	-40.3	24.8	0.00e+00	90	30	0	714080256	58	5683
2026-01-04 23:33:50.84	70.97	55.01	-39.0	-39.8	25.2	0.00e+00	75	30	0	716177408	56	6019
2026-01-04 23:33:51.85	70.23	55.09	-38.9	-39.7	25.1	0.00e+00	92	30	0	718274560	56	5955
2026-01-04 23:33:52.86	69.48	55.18	-38.8	-39.6	25.6	0.00e+00	81	30	0	720371712	56	5847
2026-01-04 23:33:53.87	68.73	55.26	-38.7	-39.5	25.6	0.00e+00	55	30	0	722468864	56	5796
2026-01-04 23:33:54.88	67.97	55.33	-38.7	-39.5	25.7	0.00e+00	92	30	0	723517440	56	5763
2026-01-04 23:33:55.89	67.21	55.40	-38.3	-39.1	25.8	0.00e+00	0	30	0	725614592	56	5505
2026-01-04 23:33:56.90	66.44	55.46	-38.4	-39.2	25.7	0.00e+00	92	30	0	727711744	56	5585
2026-01-04 23:33:57.91	65.68	55.52	-38.2	-38.9	25.9	0.00e+00	0	30	0	729808896	54	6095
2026-01-04 23:33:58.92	64.91	55.58	-38.5	-39.3	25.4	0.00e+00	92	30	0	731906048	54	6360
2026-01-04 23:33:59.94	64.13	55.62	-38.5	-39.3	25.7	0.00e+00	0	30	0	732954624	54	6348
2026-01-04 23:34:00.95	63.35	55.67	-37.8	-38.5	26.1	0.00e+00	92	30	0	735051776	54	5788
2026-01-04 23:34:01.96	62.57	55.71	-37.9	-38.7	26.0	0.00e+00	92	30	0	737148928	54	5917
2026-01-04 23:34:02.97	61.79	55.74	-38.2	-38.9	25.8	0.00e+00	0	30	0	739246080	54	6103
2026-01-04 23:34:03.98	61.01	55.77	-37.9	-38.7	25.9	0.00e+00	90	30	0	741343232	54	5911
2026-01-04 23:34:04.99	60.23	55.79	-38.1	-38.8	25.5	0.00e+00	75	30	0	743440384	54	6004
2026-01-04 23:34:06.00	59.44	55.81	-38.6	-39.3	25.6	0.00e+00	90	30	0	744488960	54	6385
2026-01-04 23:34:07.01	58.66	55.82	-38.7	-39.5	25.3	0.00e+00	6	30	0	746586112	54	6487
2026-01-04 23:34:08.02	57.87	55.83	-38.7	-39.5	25.4	0.00e+00	92	30	0	748683264	54	6473
2026-01-04 23:34:09.03	57.09	55.83	-38.9	-39.7	23.9	0.00e+00	63	30	0	750780416	54	6688
2026-01-04 23:34:10.04	56.30	55.83	-39.3	-40.1	25.1	0.00e+00	0	30	0	752877568	56	6201
2026-01-04 23:34:11.05	55.51	55.82	-38.6	-39.3	25.6	0.00e+00	92	30	0	753926144	56	5676
2026-01-04 23:34:12.06	54.73	55.80	-39.0	-39.8	25.0	0.00e+00	0	30	0	756023296	56	5974
2026-01-04 23:34:13.07	53.95	55.78	-38.7	-39.5	25.4	0.00e+00	92	30	0	758120448	56	5785
2026-01-04 23:34:14.08	53.16	55.76	-38.7	-39.5	25.6	0.00e+00	0	30	0	760217600	56	5810
2026-01-04 23:34:15.10	52.37	55.73	-38.7	-39.5	25.3	0.00e+00	92	30	0	762314752	56	5798
2026-01-04 23:34:16.11	51.60	55.69	-38.6	-39.4	25.6	0.00e+00	0	30	0	763363328	56	5700
2026-01-04 23:34:17.12	50.82	55.65	-38.3	-39.1	25.5	0.00e+00	80	30	0	765460480	56	5531
2026-01-04 23:34:18.13	50.04	55.61	-38.2	-39.0	25.9	0.00e+00	92	30	0	767557632	54	6121
2026-01-04 23:34:19.14	49.27	55.56	-37.3	-38.0	26.7	0.00e+00	0	30	0	769654784	54	5460
2026-01-04 23:34:20.15	48.50	55.50	-37.2	-37.9	26.5	0.00e+00	92	30	0	771751936	52	6083
2026-01-04 23:34:21.16	47.74	55.44	-37.4	-38.1	26.5	0.00e+00	0	30	0	772800512	52	6234
2026-01-04 23:34:22.17	46.97	55.37	-37.1	-37.8	26.6	0.00e+00	92	30	0	774897664	52	5993
2026-01-04 23:34:23.19	46.21	55.30	-37.1	-37.8	26.8	0.00e+00	0	30	0	776994816	52	6011
2026-01-04 23:34:24.20	45.45	55.23	-36.8	-37.5	26.7	0.00e+00	90	30	0	779091968	52	5790
2026-01-04 23:34:25.21	44.70	55.15	-36.7	-37.4	26.9	0.00e+00	92	30	0	781189120	52	5718
2026-01-04 23:34:26.22	43.96	55.06	-36.9	-37.6	26.8	0.00e+00	2	30	0	783286272	52	5869
2026-01-04 23:34:27.23	43.22	54.97	-37.2	-37.9	26.6	0.00e+00	92	30	0	784334848	52	6099
2026-01-04 23:34:28.24	42.48	54.88	-37.7	-38.5	26.2	0.00e+00	0	30	0	786432000	52	6481
2026-01-04 23:34:29.25	41.75	54.78	-38.0	-38.8	26.3	0.00e+00	92	30	0	788529152	54	5965
2026-01-04 23:34:30.26	41.02	54.68	-38.2	-38.9	26.1	0.00e+00	73	30	0	790626304	54	6063
2026-01-04 23:34:31.27	40.30	54.57	-38.1	-38.9	26.1	0.00e+00	91	30	0	792723456	54	6046
2026-01-04 23:34:32.29	39.58	54.46	-38.2	-39.0	25.7	0.00e+00	63	30	0	793772032	54	6121
2026-01-04 23:34:33.30	38.87	54.34	-38.9	-39.7	25.3	0.00e+00	0	30	0	795869184	54	6673
2026-01-04 23:34:34.31	38.16	54.22	-39.3	-40.1	24.9	0.00e+00	91	30	0	797966336	56	6241
2026-01-04 23:34:35.32	37.47	54.10	-39.2	-40.0	25.0	0.00e+00	0	30	0	800063488	56	6162
2026-01-04 23:34:36.33	36.77	53.97	-39.1	-39.9	25.1	0.00e+00	92	30	0	802160640	56	6056
2026-01-04 23:34:37.34	36.09	53.84	-39.4	-40.2	24.7	0.00e+00	0	30	0	803209216	56	6302
2026-01-04 23:34:38.35	35.41	53.70	-39.8	-40.7	24.7	0.00e+00	91	30	0	805306368	58	5923
2026-01-04 23:34:39.36	34.74	53.56	-39.8	-40.7	24.8	0.00e+00	6	30	0	807403520	58	5900
2026-01-04 23:34:40.37	34.07	53.42	-39.4	-40.2	24.8	0.00e+00	5	30	0	809500672	58	5624
2026-01-04 23:34:41.38	33.41	53.27	-39.1	-39.9	25.2	0.00e+00	92	30	0	811597824	56	6102
2026-01-04 23:34:42.39	32.76	53.12	-39.1	-39.9	25.2	0.00e+00	0	30	0	812646400	56	6072
2026-01-04 23:34:43.41	32.11	52.97	-39.2	-40.0	25.0	0.00e+00	92	30	0	814743552	56	6133
2026-01-04 23:34:44.42	31.47	52.81	-39.2	-40.0	25.2	0.00e+00	77	30	0	816840704	56	6119
2026-01-04 23:34:45.43	30.84	52.65	-39.1	-39.9	25.1	0.00e+00	92	30	0	818937856	56	6078
2026-01-04 23:34:46.44	30.21	52.49	-39.0	-39.8	25.3	0.00e+00	3	30	0	821035008	56	5975
2026-01-04 23:34:47.45	29.59	52.32	-39.2	-40.0	25.2	0.00e+00	51	30	0	822083584	56	6105
2026-01-04 23:34:48.46	28.98	52.15	-39.3	-40.1	24.8	0.00e+00	92	30	0	824180736	56	6236
2026-01-04 23:34:49.47	28.38	51.98	-39.6	-40.5	24.7	0.00e+00	2	30	0	826277888	56	6473
2026-01-04 23:34:50.48	27.78	51.81	-39.8	-40.6	24.6	0.00e+00	92	30	0	828375040	56	6606
2026-01-04 23:34:51.49	27.19	51.63	-40.0	-40.9	23.0	0.00e+00	0	30	0	830472192	56	6811
2026-01-04 23:34:52.50	26.61	51.45	-40.1	-40.9	24.7	0.00e+00	92	30	0	831520768	58	6071
2026-01-04 23:34:53.51	26.03	51.27	-40.0	-40.9	24.2	0.00e+00	6	30	0	833617920	58	6042
2026-01-04 23:34:54.52	25.46	51.09	-40.7	-41.6	23.7	0.00e+00	92	30	0	835715072	58	6566
2026-01-04 23:34:55.53	24.90	50.90	-41.5	-42.5	23.0	0.00e+00	90	30	0	837812224	60	6522
2026-01-04 23:34:56.55	24.34	50.71	-41.5	-42.5	23.1	0.00e+00	5	30	0	839909376	60	6480
2026-01-04 23:34:57.56	23.79	50.52	-41.1	-42.1	23.3	0.00e+00	92	30	0	840957952	60	6197
2026-01-04 23:34:58.57	23.25	50.33	-41.2	-42.1	23.2	0.00e+00	82	30	0	843055104	60	6243
2026-01-04 23:34:59.58	22.72	50.14	-41.9	-42.9	22.5	0.00e+00	90	30	0	845152256	60	6847
2026-01-04 23:35:00.59	22.19	49.94	-42.4	-43.5	22.0	0.00e+00	81	30	0	847249408	60	7273
2026-01-04 23:35:01.60	21.67	49.74	-42.9	-44.1	21.5	0.00e+00	90	30	0	849346560	60	7803
2026-01-04 23:35:02.61	21.16	49.55	-42.9	-44.1	21.5	0.00e+00	0	30	0	851443712	60	7851
2026-01-04 23:35:03.62	20.65	49.34	-43.4	-44.7	20.9	0.00e+00	0	30	0	852492288	60	8383
2026-01-04 23:35:04.64	20.14	49.14	-43.6	-44.9	20.7	0.00e+00	92	30	0	854589440	60	8536
2026-01-04 23:35:05.65	19.65	48.94	-43.9	-45.3	20.2	0.00e+00	0	30	0	856686592	60	8987
2026-01-04 23:35:06.66	19.16	48.73	-44.3	-45.7	19.9	0.00e+00	92	30	0	858783744	60	9402
2026-01-04 23:35:07.67	18.68	48.53	-44.2	-45.7	20.1	0.00e+00	6	30	0	860880896	60	9352
2026-01-04 23:35:08.68	18.21	48.32	-43.8	-45.1	20.6	0.00e+00	92	30	0	861929472	60	8734
2026-01-04 23:35:09.69	17.74	48.11	-44.4	-45.8	19.8	0.00e+00	0	30	0	864026624	60	9536
2026-01-04 23:35:10.70	17.28	47.90	-44.8	-46.4	19.3	0.00e+00	5	30	0	866123776	60	10155
2026-01-04 23:35:11.71	16.83	47.69	-44.3	-45.8	19.8	0.00e+00	92	30	0	868220928	60	9472
2026-01-04 23:35:12.72	16.38	47.48	-43.8	-45.2	20.5	0.00e+00	6	30	0	870318080	60	8837
2026-01-04 23:35:13.74	15.93	47.27	-43.6	-44.9	20.4	0.00e+00	90	30	0	871366656	60	8569
2026-01-04 23:35:14.75	15.49	47.05	-43.4	-44.7	21.0	0.00e+00	5	30	0	873463808	60	8351
2026-01-04 23:35:15.76	15.06	46.84	-43.6	-44.8	21.1	0.00e+00	91	30	0	875560960	60	8495
2026-01-04 23:35:16.77	14.64	46.63	-43.7	-45.0	20.5	0.00e+00	5	30	0	877658112	60	8715
2026-01-04 23:35:17.78	14.22	46.41	-44.0	-45.3	20.4	0.00e+00	77	30	0	879755264	60	9001
2026-01-04 23:35:18.79	13.80	46.20	-43.5	-44.7	20.9	0.00e+00	92	30	0	880803840	60	8421
2026-01-04 23:35:19.80	13.40	45.98	-43.3	-44.5	21.3	0.00e+00	6	30	0	882900992	60	8169
2026-01-04 23:35:20.81	12.99	45.76	-42.9	-44.0	21.4	0.00e+00	92	30	0	884998144	60	7762
2026-01-04 23:35:21.82	12.60	45.55	-43.1	-44.3	21.2	0.00e+00	0	30	0	887095296	60	8042
2026-01-04 23:35:22.84	12.20	45.33	-42.8	-44.0	21.7	0.00e+00	92	30	0	889192448	60	7725
2026-01-04 23:35:23.85	11.82	45.11	-43.0	-44.1	21.7	0.00e+00	76	30	0	891289600	60	7853
2026-01-04 23:35:24.86	11.44	44.89	-42.9	-44.1	21.5	0.00e+00	92	30	0	892338176	60	7804
2026-01-04 23:35:25.87	11.06	44.68	-43.2	-44.4	21.2	0.00e+00	92	30	0	894435328	60	8126
2026-01-04 23:35:26.88	10.69	44.46	-42.9	-44.1	21.5	0.00e+00	0	30	0	896532480	60	7792
2026-01-04 23:35:27.89	10.33	44.24	-42.5	-43.6	21.9	0.00e+00	90	30	0	898629632	60	7396
2026-01-04 23:35:28.90	9.97	44.02	-42.0	-43.1	22.2	0.00e+00	0	30	0	900726784	60	6933
2026-01-04 23:35:29.91	9.61	43.80	-42.4	-43.5	22.0	0.00e+00	90	30	0	901775360	60	7273
2026-01-04 23:35:30.92	9.26	43.59	-42.7	-43.8	21.7	0.00e+00	0	30	0	903872512	60	7591
2026-01-04 23:35:31.94	8.91	43.37	-42.8	-43.9	21.7	0.00e+00	61	30	0	905969664	60	7646
2026-01-04 23:35:32.95	8.57	43.15	-42.7	-43.9	21.7	0.00e+00	5	30	0	908066816	60	7603
2026-01-04 23:35:33.96	8.24	42.93	-42.6	-43.8	21.9	0.00e+00	0	30	0	910163968	60	7515
2026-01-04 23:35:34.97	7.91	42.71	-42.5	-43.6	21.8	0.00e+00	92	30	0	911212544	60	7414
2026-01-04 23:35:35.98	7.58	42.49	-42.6	-43.8	21.8	0.00e+00	78	30	0	913309696	60	7527
2026-01-04 23:35:36.99	7.26	42.28	-43.0	-44.2	21.4	0.00e+00	92	30	0	915406848	60	7910
2026-01-04 23:35:38.00	6.94	42.06	-43.1	-44.4	21.2	0.00e+00	4	30	0	917504000	60	8055
2026-01-04 23:35:39.01	6.63	41.84	-43.3	-44.6	21.0	0.00e+00	91	30	0	919601152	60	8252
2026-01-04 23:35:40.02	6.32	41.63	-43.3	-44.5	21.1	0.00e+00	0	30	0	920649728	60	8183
2026-01-04 23:35:41.03	6.01	41.41	-43.5	-44.7	20.9	0.00e+00	78	30	0	922746880	60	8391
2026-01-04 23:35:42.05	5.71	41.19	-43.0	-44.1	21.4	0.00e+00	91	30	0	924844032	60	7857
2026-01-04 23:35:43.06	5.41	40.98	-43.1	-44.3	21.3	0.00e+00	75	30	0	926941184	60	7982
2026-01-04 23:35:44.07	5.12	40.76	-43.1	-44.3	21.3	0.00e+00	92	30	0	929038336	60	7977
2026-01-04 23:35:45.08	4.83	40.55	-43.1	-44.3	21.2	0.00e+00	0	30	0	931135488	60	7999
2026-01-04 23:35:46.09	4.54	40.34	-43.6	-44.8	20.8	0.00e+00	92	30	0	932184064	60	8521
2026-01-04 23:35:47.10	4.26	40.12	-43.4	-44.7	21.1	0.00e+00	0	30	0	934281216	60	8351
2026-01-04 23:35:48.11	3.98	39.91	-43.0	-44.2	21.3	0.00e+00	26	30	0	936378368	60	7873
2026-01-04 23:35:49.12	3.71	39.70	-42.8	-44.0	21.6	0.00e+00	92	30	0	938475520	60	7724
2026-01-04 23:35:50.13	3.44	39.48	-42.7	-43.9	21.6	0.00e+00	5	30	0	940572672	60	7602
2026-01-04 23:35:51.14	3.17	39.27	-42.7	-43.8	21.7	0.00e+00	92	30	0	941621248	60	7530
2026-01-04 23:35:52.15	2.91	39.06	-42.6	-43.7	21.8	0.00e+00	2	30	0	943718400	60	7495
2026-01-04 23:35:53.17	2.64	38.85	-42.6	-43.7	21.8	0.00e+00	92	30	0	945815552	60	7458
2026-01-04 23:35:54.17	2.39	38.64	-42.8	-43.9	21.6	0.00e+00	0	30	0	947912704	60	7652
2026-01-04 23:35:55.19	2.13	38.43	-43.1	-44.3	21.3	0.00e+00	89	30	0	950009856	60	8042
2026-01-04 23:35:56.20	1.88	38.22	-43.3	-44.5	20.9	0.00e+00	0	30	0	951058432	60	8223
2026-01-04 23:35:57.21	1.64	38.02	-43.5	-44.8	20.9	0.00e+00	75	30	0	953155584	60	8461
2026-01-04 23:35:58.22	1.39	37.81	-43.4	-44.6	20.9	0.00e+00	92	30	0	955252736	60	8314
2026-01-04 23:35:59.23	1.15	37.60	-43.1	-44.3	21.2	0.00e+00	76	30	0	957349888	60	7979
2026-01-04 23:36:00.24	0.92	37.40	-42.8	-44.0	21.5	0.00e+00	90	30	0	959447040	60	7703
2026-01-04 23:36:01.25	0.68	37.19	-43.0	-44.2	21.3	0.00e+00	0	30	0	960495616	60	7892
2026-01-04 23:36:02.26	0.45	36.99	-43.1	-44.3	21.2	0.00e+00	0	30	0	962592768	60	7997
2026-01-04 23:36:03.27	0.22	36.79	-42.9	-44.1	21.4	0.00e+00	0	30	0	964689920	60	7786
2026-01-04 23:36:04.28	359.99	36.58	-42.7	-43.8	21.6	0.00e+00	0	30	0	966787072	60	7573
2026-01-04 23:36:05.30	359.77	36.38	-42.6	-43.8	21.8	0.00e+00	92	30	0	968884224	60	7518
2026-01-04 23:36:06.31	359.55	36.18	-42.8	-44.0	21.5	0.00e+00	0	30	0	969932800	60	7744
2026-01-04 23:36:07.32	359.33	35.98	-42.9	-44.1	21.4	0.00e+00	92	30	0	972029952	60	7836
2026-01-04 23:36:08.33	359.12	35.78	-43.1	-44.4	21.0	0.00e+00	0	30	0	974127104	60	8082
2026-01-04 23:36:09.34	358.91	35.58	-43.4	-44.8	20.6	0.00e+00	2	30	0	976224256	60	8443
2026-01-04 23:36:10.35	358.70	35.38	-44.0	-45.4	20.4	0.00e+00	0	30	0	978321408	60	9059
2026-01-04 23:36:11.36	358.49	35.18	-43.8	-45.2	20.5	0.00e+00	0	30	0	979369984	60	8858
2026-01-04 23:36:12.37	358.28	34.99	-44.2	-45.6	20.1	0.00e+00	92	30	0	981467136	60	9270
2026-01-04 23:36:13.38	358.08	34.79	-43.7	-45.1	20.6	0.00e+00	78	30	0	983564288	60	8744
2026-01-04 23:36:14.40	357.88	34.60	-43.4	-44.7	20.9	0.00e+00	92	30	0	985661440	60	8345
2026-01-04 23:36:15.41	357.68	34.40	-43.2	-44.5	21.3	0.00e+00	2	30	0	987758592	60	8147
2026-01-04 23:36:16.42	357.49	34.21	-42.9	-44.1	21.4	0.00e+00	0	30	0	989855744	60	7862
2026-01-04 23:36:17.43	357.30	34.02	-42.9	-44.0	21.5	0.00e+00	0	30	0	990904320	60	7768
2026-01-04 23:36:18.44	357.11	33.82	-43.1	-44.3	21.3	0.00e+00	0	30	0	993001472	60	8001
2026-01-04 23:36:19.45	356.92	33.63	-42.9	-44.1	21.3	0.00e+00	76	30	0	995098624	60	7847
2026-01-04 23:36:20.46	356.73	33.44	-43.4	-44.7	20.9	0.00e+00	78	30	0	997195776	60	8424
2026-01-04 23:36:21.47	356.55	33.26	-43.8	-45.2	20.5	0.00e+00	92	30	0	999292928	60	8901
2026-01-04 23:36:22.48	356.37	33.07	-44.0	-45.5	20.2	0.00e+00	6	30	0	1000341504	60	9147
2026-01-04 23:36:23.49	356.19	32.88	-43.8	-45.2	20.3	0.00e+00	71	30	0	1002438656	60	8864
2026-01-04 23:36:24.50	356.01	32.69	-43.9	-45.3	20.4	0.00e+00	0	30	0	1004535808	60	8995
2026-01-04 23:36:25.52	355.84	32.51	-43.4	-44.7	20.8	0.00e+00	5	30	0	1006632960	60	8372
2026-01-04 23:36:26.53	355.66	32.32	-43.4	-44.8	20.7	0.00e+00	8	30	0	1008730112	60	8427
2026-01-04 23:36:27.54	355.49	32.14	-43.6	-44.9	20.7	0.00e+00	5	30	0	1009778688	60	8550
2026-01-04 23:36:28.55	355.32	31.95	-43.7	-45.0	20.7	0.00e+00	91	30	0	1011875840	60	8684
2026-01-04 23:36:29.56	355.16	31.77	-43.7	-45.0	20.5	0.00e+00	2	30	0	1013972992	60	8659
2026-01-04 23:36:30.57	354.99	31.59	-43.3	-44.5	21.0	0.00e+00	91	30	0	1016070144	60	8225
2026-01-04 23:36:31.58	354.83	31.41	-43.1	-44.3	21.2	0.00e+00	2	30	0	1018167296	60	8025
2026-01-04 23:36:32.59	354.67	31.23	-43.1	-44.4	21.1	0.00e+00	82	30	0	1019215872	60	8057
2026-01-04 23:36:33.61	354.51	31.05	-42.8	-44.0	21.5	0.00e+00	5	30	0	1021313024	60	7716
2026-01-04 23:36:34.62	354.35	30.87	-42.7	-43.9	21.6	0.00e+00	0	30	0	1023410176	60	7643
2026-01-04 23:36:35.63	354.19	30.69	-42.6	-43.8	21.6	0.00e+00	92	30	0	1025507328	60	7576
2026-01-04 23:36:36.64	354.04	30.52	-42.7	-43.9	21.6	0.00e+00	0	30	0	1027604480	60	7615
2026-01-04 23:36:37.65	353.88	30.34	-42.7	-44.0	21.5	0.00e+00	90	30	0	1028653056	60	7690
2026-01-04 23:36:38.66	353.73	30.17	-42.8	-44.0	21.3	0.00e+00	85	30	0	1030750208	60	7737
2026-01-04 23:36:39.67	353.58	29.99	-43.0	-44.2	21.3	0.00e+00	8	30	0	1032847360	60	7936
2026-01-04 23:36:40.68	353.44	29.82	-43.0	-44.2	21.3	0.00e+00	0	30	0	1034944512	60	7929
2026-01-04 23:36:41.69	353.29	29.65	-43.0	-44.3	21.2	0.00e+00	0	30	0	1037041664	60	7959
2026-01-04 23:36:42.70	353.15	29.48	-43.1	-44.4	21.1	0.00e+00	61	30	0	1039138816	60	8068
2026-01-04 23:36:43.72	353.00	29.31	-43.0	-44.3	21.1	0.00e+00	7	30	0	1040187392	60	8010
2026-01-04 23:36:44.73	352.86	29.14	-43.1	-44.4	21.1	0.00e+00	92	30	0	1042284544	60	8108
2026-01-04 23:36:45.74	352.72	28.97	-43.2	-44.5	20.9	0.00e+00	6	30	0	1044381696	60	8193
2026-01-04 23:36:46.75	352.58	28.80	-43.0	-44.2	21.2	0.00e+00	92	30	0	1046478848	60	7899
2026-01-04 23:36:47.76	352.45	28.63	-43.1	-44.3	21.2	0.00e+00	7	30	0	1048576000	60	8035
2026-01-04 23:36:48.77	352.31	28.47	-42.9	-44.1	21.4	0.00e+00	77	30	0	1049624576	60	7801
2026-01-04 23:36:49.78	352.18	28.30	-42.7	-43.9	21.4	0.00e+00	92	30	0	1051721728	60	7627
2026-01-04 23:36:50.79	352.04	28.14	-42.7	-43.8	21.5	0.00e+00	4	30	0	1053818880	60	7588
2026-01-04 23:36:51.80	351.91	27.97	-42.7	-43.9	21.4	0.00e+00	92	30	0	1055916032	60	7606
2026-01-04 23:36:52.82	351.78	27.81	-42.7	-43.9	21.4	0.00e+00	0	30	0	1058013184	60	7679
2026-01-04 23:36:53.83	351.65	27.64	-42.4	-43.5	21.9	0.00e+00	92	30	0	1059061760	60	7310
2026-01-04 23:36:54.84	351.53	27.48	-42.3	-43.5	22.0	0.00e+00	0	30	0	1061158912	60	7269
2026-01-04 23:36:55.85	351.40	27.32	-42.2	-43.3	22.1	0.00e+00	80	30	0	1063256064	60	7162
2026-01-04 23:36:56.86	351.28	27.16	-42.4	-43.5	22.1	0.00e+00	81	30	0	1065353216	60	7316
2026-01-04 23:36:57.87	351.15	27.00	-42.0	-43.2	22.2	0.00e+00	2	30	0	1067450368	60	7025
2026-01-04 23:36:58.88	351.03	26.84	-42.0	-43.1	22.2	0.00e+00	92	30	0	1068498944	60	6969
2026-01-04 23:36:59.89	350.91	26.69	-41.9	-43.0	22.4	0.00e+00	0	30	0	1070596096	60	6919
2026-01-04 23:37:00.90	350.79	26.53	-41.9	-43.0	22.3	0.00e+00	90	30	0	1072693248	60	6890
2026-01-04 23:37:01.91	350.67	26.37	-41.9	-43.0	22.4	0.00e+00	0	30	0	1074790400	60	6867
2026-01-04 23:37:02.92	350.56	26.22	-41.9	-43.0	22.2	0.00e+00	0	30	0	1076887552	60	6897
2026-01-04 23:37:03.93	350.44	26.06	-41.9	-43.0	22.3	0.00e+00	2	30	0	1078984704	60	6888
2026-01-04 23:37:04.95	350.32	25.91	-41.8	-42.9	22.5	0.00e+00	2	30	0	1080033280	60	6793
2026-01-04 23:37:05.96	350.21	25.76	-41.8	-42.9	22.4	0.00e+00	82	30	0	1082130432	60	6803
2026-01-04 23:37:06.97	350.10	25.60	-41.8	-42.8	22.5	0.00e+00	2	30	0	1084227584	60	6738
2026-01-04 23:37:07.98	349.99	25.45	-41.7	-42.8	22.6	0.00e+00	90	29	0	1086324736	60	6697
2026-01-04 23:37:08.99	349.88	25.30	-41.8	-42.8	22.5	0.00e+00	79	29	0	1088421888	60	6728
2026-01-04 23:37:10.00	349.77	25.15	-41.7	-42.7	22.6	0.00e+00	21	29	0	1089470464	60	6647
2026-01-04 23:37:11.01	349.66	25.00	-41.8	-42.8	22.6	0.00e+00	1	30	0	1091567616	60	6767
2026-01-04 23:37:12.02	349.55	24.85	-41.5	-42.6	22.7	0.00e+00	79	30	0	1093664768	60	6557
2026-01-04 23:37:13.03	349.45	24.70	-41.6	-42.7	22.6	0.00e+00	73	30	0	1095761920	60	6620
2026-01-04 23:37:14.04	349.34	24.56	-41.7	-42.8	22.5	0.00e+00	0	30	0	1097859072	60	6736
2026-01-04 23:37:15.05	349.24	24.41	-41.8	-42.8	22.5	0.00e+00	91	30	0	1098907648	60	6763
2026-01-04 23:37:16.06	349.13	24.27	-41.9	-43.0	22.4	0.00e+00	79	30	0	1101004800	60	6851
2026-01-04 23:37:17.07	349.03	24.12	-42.0	-43.1	21.9	0.00e+00	0	29	0	1103101952	60	6968
2026-01-04 23:37:18.08	348.93	23.98	-42.0	-43.1	22.3	7.00e-07	0	30	0	1105199104	60	6979
2026-01-04 23:37:19.10	348.83	23.83	-42.1	-43.2	22.3	0.00e+00	0	30	0	1107296256	60	7067
2026-01-04 23:37:20.11	348.73	23.69	-42.0	-43.1	22.2	0.00e+00	0	30	0	1108344832	60	7004
2026-01-04 23:37:21.12	348.63	23.55	-42.1	-43.2	22.1	0.00e+00	2	30	0	1110441984	60	7081
2026-01-04 23:37:22.13	348.54	23.40	-41.8	-42.9	22.3	0.00e+00	92	30	0	1112539136	60	6824
2026-01-04 23:37:23.14	348.44	23.26	-41.9	-43.0	22.4	0.00e+00	0	30	0	1114636288	60	6871
2026-01-04 23:37:24.15	348.34	23.12	-42.4	-43.6	21.9	0.00e+00	92	30	0	1116733440	60	7346
2026-01-04 23:37:25.16	348.25	22.98	-42.0	-43.1	22.1	0.00e+00	0	30	0	1117782016	60	6970
2026-01-04 23:37:26.17	348.16	22.84	-41.8	-42.8	22.5	0.00e+00	0	30	0	1119879168	60	6750
2026-01-04 23:37:27.18	348.06	22.71	-41.7	-42.7	22.7	0.00e+00	0	30	0	1121976320	60	6649
2026-01-04 23:37:28.20	347.97	22.57	-41.7	-42.7	22.4	0.00e+00	1	30	0	1124073472	60	6684
2026-01-04 23:37:29.21	347.88	22.43	-41.7	-42.8	22.5	0.00e+00	92	30	0	1126170624	60	6711
2026-01-04 23:37:30.22	347.79	22.29	-41.6	-42.6	22.4	0.00e+00	0	30	0	1128267776	60	6573
2026-01-04 23:37:31.23	347.70	22.16	-41.4	-42.4	22.7	0.00e+00	92	30	0	1129316352	60	6449
2026-01-04 23:37:32.24	347.61	22.02	-41.5	-42.5	22.7	0.00e+00	0	30	0	1131413504	60	6483
2026-01-04 23:37:33.25	347.52	21.89	-41.5	-42.6	22.8	0.00e+00	81	29	0	1133510656	60	6551
2026-01-04 23:37:34.26	347.44	21.76	-41.6	-42.7	22.7	0.00e+00	0	29	0	1135607808	60	6619
2026-01-04 23:37:35.27	347.35	21.62	-41.3	-42.4	22.8	0.00e+00	0	30	0	1137704960	60	6399
2026-01-04 23:37:36.28	347.26	21.49	-41.2	-42.2	22.9	0.00e+00	92	30	0	1138753536	60	6276
2026-01-04 23:37:37.29	347.18	21.36	-41.3	-42.3	22.9	0.00e+00	0	30	0	1140850688	60	6323
2026-01-04 23:37:38.31	347.09	21.23	-41.2	-42.3	22.9	0.00e+00	92	30	0	1142947840	60	6319
2026-01-04 23:37:39.32	347.01	21.09	-41.2	-42.2	22.9	0.00e+00	0	30	0	1145044992	60	6308
2026-01-04 23:37:40.33	346.93	20.96	-41.4	-42.4	22.7	0.00e+00	92	30	0	1147142144	60	6463
2026-01-04 23:37:41.34	346.85	20.84	-41.5	-42.5	22.7	0.00e+00	0	30	0	1148190720	60	6508
2026-01-04 23:37:42.35	346.77	20.71	-41.4	-42.4	22.7	0.00e+00	0	30	0	1150287872	60	6457
2026-01-04 23:37:43.36	346.69	20.58	-41.3	-42.4	22.9	0.00e+00	0	29	0	1152385024	60	6391
2026-01-04 23:37:44.37	346.61	20.45	-41.6	-42.6	22.7	0.00e+00	80	30	0	1154482176	60	6588
2026-01-04 23:37:45.38	346.53	20.32	-41.8	-42.9	22.6	0.00e+00	92	30	0	1156579328	60	6779
2026-01-04 23:37:46.39	346.45	20.20	-41.7	-42.8	22.4	0.00e+00	0	30	0	1157627904	60	6696
2026-01-04 23:37:47.40	346.37	20.07	-41.7	-42.7	22.6	0.00e+00	0	30	0	1159725056	60	6668
2026-01-04 23:37:48.42	346.29	19.95	-41.5	-42.6	22.6	0.00e+00	82	29	0	1161822208	60	6573
2026-01-04 23:37:49.43	346.22	19.82	-41.4	-42.4	22.8	0.00e+00	81	30	0	1163919360	60	6443
2026-01-04 23:37:50.44	346.14	19.70	-41.3	-42.3	22.9	0.00e+00	81	30	0	1166016512	60	6344
2026-01-04 23:37:51.45	346.07	19.57	-41.3	-42.3	22.9	0.00e+00	81	30	0	1167065088	60	6381
2026-01-04 23:37:52.46	345.99	19.45	-41.2	-42.2	22.9	0.00e+00	92	30	0	1169162240	60	6316
2026-01-04 23:37:53.47	345.92	19.33	-41.3	-42.4	22.7	0.00e+00	5	29	0	1171259392	60	6399
2026-01-04 23:37:54.48	345.84	19.21	-41.3	-42.4	22.9	0.00e+00	6	30	0	1173356544	60	6391
2026-01-04 23:37:55.49	345.77	19.08	-41.2	-42.2	23.0	0.00e+00	5	30	0	1175453696	60	6257
2026-01-04 23:37:56.50	345.70	18.96	-41.2	-42.2	22.9	0.00e+00	5	30	0	1176502272	60	6293
2026-01-04 23:37:57.51	345.63	18.84	-41.2	-42.1	22.8	0.00e+00	6	30	0	1178599424	60	6241
2026-01-04 23:37:58.53	345.56	18.72	-41.1	-42.0	23.0	0.00e+00	6	30	0	1180696576	60	6172
2026-01-04 23:37:59.54	345.49	18.60	-41.2	-42.2	23.0	0.00e+00	91	30	0	1182793728	60	6255
2026-01-04 23:38:00.55	345.42	18.48	-41.2	-42.2	22.9	0.00e+00	0	30	0	1184890880	60	6275
2026-01-04 23:38:01.56	345.35	18.37	-41.2	-42.2	22.8	0.00e+00	92	30	0	1185939456	60	6311
2026-01-04 23:38:02.57	345.28	18.25	-41.3	-42.3	22.8	0.00e+00	0	30	0	1188036608	60	6375
2026-01-04 23:38:03.58	345.21	18.13	-41.2	-42.2	22.9	0.00e+00	0	29	0	1190133760	60	6292
2026-01-04 23:38:04.59	345.14	18.01	-41.4	-42.4	22.7	0.00e+00	0	30	0	1192230912	60	6433
2026-01-04 23:38:05.60	345.08	17.90	-42.0	-43.0	22.2	0.00e+00	85	29	0	1194328064	60	6926
