passes_logs/2026/01/04/R4.6S_Anadyr_2ch/R4.6S_Anadyr_2ch__20260104_163752_AQUA_rec.log

#Pass ID: 20260104_163752_AQUA
#Satellite: AQUA
#Configuration: AQUA
#almurnet v.1.7.20251203
#Start time: 2026-01-04 16:37:54

#Version: 2.2.20231116
#Station: R4.6S_Anadyr_2ch
#Location: 177.4865 lon 64.73178 lat
#TLE: 1 27424U 02022A   25351.00450321  .00000925  00000+0  19503-3 0  9992
#TLE: 2 27424  98.4041 311.9529 0001248 113.7180 322.1616 14.61819266256652

#Time	Az	El	Level	Level2	SNR	BER	BlckErr	Temp	State	Recorded	gain1	gain2
2026-01-04 16:37:54.95	20.07	0.18	-53.9	-70.2	3.2	3.02e+01	0	34	0	0	60	167413
2026-01-04 16:37:55.96	20.07	0.24	-53.4	-71.2	3.5	3.02e+01	0	34	104	0	60	188069
2026-01-04 16:37:56.97	20.06	0.30	-54.6	-72.3	3.5	3.02e+01	0	34	104	0	60	213354
2026-01-04 16:37:57.98	20.06	0.36	-53.5	-71.2	3.5	3.02e+01	0	34	104	0	60	189565
2026-01-04 16:37:58.99	20.05	0.43	-54.0	-71.8	3.5	3.02e+01	0	34	104	0	60	201180
2026-01-04 16:38:00.00	20.05	0.49	-53.3	-71.1	3.5	3.02e+01	0	34	104	0	60	186374
2026-01-04 16:38:01.01	20.04	0.55	-53.0	-70.8	3.5	3.02e+01	0	34	104	0	60	180130
2026-01-04 16:38:02.02	20.04	0.61	-53.3	-71.1	3.5	3.02e+01	0	34	104	0	60	186465
2026-01-04 16:38:03.03	20.03	0.68	-53.9	-71.7	3.5	3.02e+01	0	34	104	0	60	200286
2026-01-04 16:38:04.04	20.03	0.74	-53.1	-70.8	3.5	3.02e+01	0	34	104	0	60	181018
2026-01-04 16:38:05.05	20.02	0.81	-53.7	-71.4	3.5	3.02e+01	0	34	104	0	60	193594
2026-01-04 16:38:06.06	20.02	0.87	-54.2	-72.0	3.5	3.02e+01	0	34	104	0	60	206730
2026-01-04 16:38:07.07	20.01	0.93	-54.5	-72.3	3.6	3.02e+01	0	34	104	0	60	214475
2026-01-04 16:38:08.08	20.01	1.00	-53.5	-71.3	3.5	3.02e+01	0	34	104	0	60	190927
2026-01-04 16:38:09.09	20.00	1.06	-53.9	-71.7	3.5	3.02e+01	0	34	104	0	60	198866
2026-01-04 16:38:10.10	20.00	1.13	-53.6	-71.4	3.5	3.02e+01	0	34	104	0	60	193356
2026-01-04 16:38:11.11	19.99	1.19	-53.7	-71.6	3.5	3.02e+01	0	34	104	0	60	196709
2026-01-04 16:38:12.12	19.99	1.26	-53.1	-70.9	3.5	3.02e+01	0	34	104	0	60	182366
2026-01-04 16:38:13.14	19.98	1.32	-53.0	-70.8	3.5	3.02e+01	0	34	104	0	60	179450
2026-01-04 16:38:14.14	19.98	1.39	-52.4	-70.2	3.5	3.02e+01	0	34	104	0	60	167557
2026-01-04 16:38:15.16	19.97	1.45	-53.3	-71.1	3.5	3.02e+01	0	34	104	0	60	186894
2026-01-04 16:38:16.17	19.96	1.52	-53.8	-71.6	3.5	3.02e+01	0	34	104	0	60	197135
2026-01-04 16:38:17.18	19.96	1.58	-53.5	-71.3	3.5	3.02e+01	0	34	104	0	60	190767
2026-01-04 16:38:18.19	19.95	1.65	-53.9	-71.8	3.5	3.02e+01	0	34	104	0	60	201279
2026-01-04 16:38:19.20	19.95	1.71	-52.9	-70.7	3.5	3.02e+01	0	34	104	0	60	178084
2026-01-04 16:38:20.21	19.94	1.78	-53.7	-71.5	3.5	3.02e+01	0	34	104	0	60	194357
2026-01-04 16:38:21.22	19.93	1.85	-53.7	-71.6	3.5	3.02e+01	0	34	104	0	60	196400
2026-01-04 16:38:22.23	19.93	1.91	-53.2	-70.9	3.5	3.02e+01	0	34	104	0	60	182717
2026-01-04 16:38:23.24	19.92	1.98	-53.4	-71.2	3.5	3.02e+01	0	34	104	0	60	187825
2026-01-04 16:38:24.25	19.92	2.05	-53.9	-71.7	3.5	3.02e+01	0	34	104	0	60	200687
2026-01-04 16:38:25.26	19.91	2.11	-53.5	-71.3	3.5	3.02e+01	0	34	104	0	60	191593
2026-01-04 16:38:26.27	19.90	2.18	-53.2	-71.0	3.5	3.02e+01	0	34	104	0	60	183592
2026-01-04 16:38:27.28	19.90	2.25	-53.4	-71.1	3.5	3.02e+01	0	34	104	0	60	187158
2026-01-04 16:38:28.30	19.89	2.31	-53.2	-71.0	3.5	3.02e+01	0	34	104	0	60	184050
2026-01-04 16:38:29.31	19.89	2.38	-53.1	-70.8	3.5	3.02e+01	0	34	104	0	60	180843
2026-01-04 16:38:30.32	19.88	2.45	-52.7	-70.5	3.5	3.02e+01	0	34	104	0	60	174321
2026-01-04 16:38:31.33	19.87	2.52	-54.0	-71.9	3.5	3.02e+01	0	34	104	0	60	203211
2026-01-04 16:38:32.34	19.87	2.59	-53.4	-71.2	3.5	3.02e+01	0	34	104	0	60	187501
2026-01-04 16:38:33.35	19.86	2.65	-53.9	-71.7	3.5	3.02e+01	0	34	104	0	60	199564
2026-01-04 16:38:34.36	19.85	2.72	-52.5	-70.4	3.5	3.02e+01	0	34	104	0	60	171260
2026-01-04 16:38:35.37	19.85	2.79	-52.8	-70.7	3.5	3.02e+01	0	34	104	0	60	176981
2026-01-04 16:38:36.38	19.84	2.86	-53.2	-71.0	3.5	3.02e+01	0	34	104	0	60	183317
2026-01-04 16:38:37.39	19.83	2.93	-53.7	-71.5	3.5	3.02e+01	0	34	104	0	60	194011
2026-01-04 16:38:38.41	19.83	3.00	-52.9	-70.7	3.5	3.02e+01	0	34	104	0	60	177011
2026-01-04 16:38:39.42	19.82	3.07	-52.5	-70.3	3.5	3.02e+01	0	34	104	0	60	170371
2026-01-04 16:38:40.43	19.81	3.14	-53.5	-71.3	3.5	3.02e+01	0	34	104	0	60	191098
2026-01-04 16:38:41.44	19.80	3.21	-53.2	-71.1	3.5	3.02e+01	0	34	104	0	60	186502
2026-01-04 16:38:42.45	19.80	3.28	-53.7	-71.5	3.5	3.02e+01	0	34	104	0	60	195526
2026-01-04 16:38:43.46	19.79	3.35	-53.2	-71.1	3.5	3.02e+01	0	34	104	0	60	185680
2026-01-04 16:38:44.47	19.78	3.42	-52.5	-70.4	3.5	3.02e+01	0	34	104	0	60	171051
2026-01-04 16:38:45.48	19.78	3.49	-52.9	-70.7	3.5	3.02e+01	0	34	104	0	60	177935
2026-01-04 16:38:46.50	19.77	3.56	-52.7	-70.4	3.5	3.02e+01	0	34	104	0	60	172067
2026-01-04 16:38:47.51	19.76	3.63	-52.3	-70.1	3.5	3.02e+01	0	34	104	0	60	166329
2026-01-04 16:38:48.52	19.75	3.70	-52.2	-70.1	3.5	3.02e+01	0	34	104	0	60	165629
2026-01-04 16:38:49.53	19.75	3.77	-52.1	-70.1	3.5	3.02e+01	0	35	104	0	60	166348
2026-01-04 16:38:50.54	19.74	3.85	-52.0	-69.9	3.5	3.02e+01	0	34	104	0	60	162267
2026-01-04 16:38:51.55	19.73	3.92	-52.0	-69.8	3.5	3.02e+01	0	35	104	0	60	160529
2026-01-04 16:38:52.56	19.72	3.99	-51.6	-69.6	3.5	3.02e+01	0	34	104	0	60	156075
2026-01-04 16:38:53.58	19.72	4.06	-51.6	-69.4	3.5	3.02e+01	0	35	104	0	60	154012
2026-01-04 16:38:54.58	19.71	4.14	-51.0	-69.2	3.5	3.02e+01	0	35	104	0	60	149124
2026-01-04 16:38:55.60	19.70	4.21	-51.0	-69.0	3.5	3.02e+01	0	35	104	0	60	146494
2026-01-04 16:38:56.60	19.69	4.28	-50.9	-68.8	3.5	3.02e+01	0	34	104	0	60	143265
2026-01-04 16:38:57.62	19.68	4.35	-50.6	-68.3	3.5	3.02e+01	0	35	104	0	60	135326
2026-01-04 16:38:58.63	19.68	4.43	-50.6	-68.3	3.5	3.02e+01	0	34	104	0	60	134699
2026-01-04 16:38:59.64	19.67	4.50	-50.6	-68.4	3.5	3.02e+01	0	35	104	0	60	136107
2026-01-04 16:39:00.65	19.66	4.58	-50.5	-68.4	3.5	3.02e+01	0	35	104	0	60	135834
2026-01-04 16:39:01.66	19.65	4.65	-50.6	-68.3	3.5	3.02e+01	0	34	104	0	60	135229
2026-01-04 16:39:02.67	19.64	4.72	-50.6	-68.4	3.5	3.02e+01	0	35	104	0	60	136954
2026-01-04 16:39:03.68	19.63	4.80	-50.5	-68.3	3.5	3.02e+01	0	34	104	0	60	135741
2026-01-04 16:39:04.69	19.63	4.87	-50.6	-68.4	3.5	3.02e+01	0	35	104	0	60	136313
2026-01-04 16:39:05.70	19.62	4.95	-50.6	-67.8	3.5	3.02e+01	0	35	104	0	60	127709
2026-01-04 16:39:06.71	19.61	5.02	-50.6	-67.3	3.5	3.02e+01	0	35	104	0	60	120904
2026-01-04 16:39:07.72	19.60	5.10	-50.5	-67.1	3.5	3.02e+01	0	35	104	0	60	117711
2026-01-04 16:39:08.74	19.59	5.17	-50.5	-66.8	3.5	3.02e+01	0	35	104	0	60	113300
2026-01-04 16:39:09.75	19.58	5.25	-50.5	-66.1	3.5	3.02e+01	0	35	104	0	60	104997
2026-01-04 16:39:10.75	19.57	5.33	-50.5	-66.4	3.5	3.02e+01	0	35	104	0	60	107855
2026-01-04 16:39:11.77	19.56	5.40	-50.6	-67.2	3.5	3.02e+01	0	35	104	0	60	118514
2026-01-04 16:39:12.78	19.55	5.48	-50.6	-67.4	3.5	3.02e+01	0	35	104	0	60	122023
2026-01-04 16:39:13.79	19.55	5.56	-50.5	-68.0	3.5	3.02e+01	0	35	104	0	60	130797
2026-01-04 16:39:14.80	19.54	5.63	-50.6	-68.3	3.5	3.02e+01	0	35	104	0	60	134603
2026-01-04 16:39:15.81	19.53	5.71	-50.6	-68.3	3.5	3.02e+01	0	35	104	0	60	135462
2026-01-04 16:39:16.82	19.52	5.79	-50.6	-68.2	3.5	3.02e+01	0	35	104	0	60	133598
2026-01-04 16:39:17.83	19.51	5.87	-50.5	-67.9	3.5	3.02e+01	0	35	104	0	60	128889
2026-01-04 16:39:18.84	19.50	5.94	-50.5	-67.5	3.5	3.02e+01	0	35	104	0	60	123466
2026-01-04 16:39:19.85	19.49	6.02	-50.6	-67.5	3.5	3.02e+01	0	35	104	0	60	122542
2026-01-04 16:39:20.86	19.48	6.10	-50.6	-67.0	3.6	3.02e+01	0	35	104	0	60	116270
2026-01-04 16:39:21.87	19.47	6.18	-50.5	-65.1	4.0	3.02e+01	0	35	104	0	60	93673
2026-01-04 16:39:22.88	19.46	6.26	-50.4	-64.1	3.7	3.02e+01	0	35	104	0	60	83489
2026-01-04 16:39:23.90	19.45	6.34	-50.3	-62.9	3.8	3.02e+01	0	35	104	0	60	72720
2026-01-04 16:39:24.91	19.44	6.42	-50.3	-62.3	5.6	3.02e+01	17	35	0	0	60	67428
2026-01-04 16:39:25.92	19.43	6.50	-50.2	-62.4	5.5	3.02e+01	52	35	104	524288	60	68733
2026-01-04 16:39:26.93	19.42	6.58	-50.3	-63.5	4.7	3.02e+01	0	35	104	524288	60	77430
2026-01-04 16:39:27.94	19.41	6.66	-50.3	-63.0	5.1	3.02e+01	0	35	104	524288	60	73589
2026-01-04 16:39:28.95	19.40	6.74	-50.1	-59.8	7.5	3.02e+01	88	35	0	1048576	60	50793
2026-01-04 16:39:29.96	19.39	6.82	-49.7	-57.5	9.5	3.02e+01	59	35	0	2621440	60	39123
2026-01-04 16:39:30.97	19.38	6.90	-48.9	-54.5	12.2	3.02e+01	59	35	0	4718592	60	27566
2026-01-04 16:39:31.98	19.37	6.99	-47.5	-51.3	16.3	3.02e+01	47	35	0	6815744	60	19054
2026-01-04 16:39:32.99	19.35	7.07	-47.6	-51.4	17.2	3.02e+01	55	35	0	8388608	60	19374
2026-01-04 16:39:34.00	19.34	7.15	-44.8	-47.1	19.6	3.02e+01	59	35	0	10485760	60	11731
2026-01-04 16:39:35.02	19.33	7.23	-44.0	-46.1	21.5	3.02e+01	59	35	0	12582912	60	10455
2026-01-04 16:39:36.03	19.32	7.32	-45.1	-47.5	21.2	3.02e+01	60	35	0	14155776	60	12352
2026-01-04 16:39:37.04	19.31	7.40	-43.9	-46.0	21.1	3.02e+01	57	35	0	16252928	60	10360
2026-01-04 16:39:38.05	19.30	7.48	-44.3	-46.4	21.7	3.02e+01	61	35	0	17825792	60	10863
2026-01-04 16:39:39.06	19.29	7.57	-44.2	-46.3	21.4	3.02e+01	62	34	0	19922944	60	10746
2026-01-04 16:39:40.07	19.28	7.65	-45.4	-48.0	19.3	3.02e+01	45	35	0	22020096	60	13003
2026-01-04 16:39:41.08	19.26	7.74	-43.4	-45.3	23.4	3.02e+01	58	35	0	23592960	60	9555
2026-01-04 16:39:42.09	19.25	7.82	-48.1	-52.3	16.4	3.02e+01	63	35	0	25690112	60	21275
2026-01-04 16:39:43.10	19.24	7.91	-50.3	-63.9	3.7	3.02e+01	0	35	104	26738688	60	81641
2026-01-04 16:39:44.12	19.23	7.99	-43.7	-45.7	22.4	3.02e+01	60	35	0	26738688	60	9994
2026-01-04 16:39:45.13	19.22	8.08	-50.4	-63.3	4.9	3.02e+01	0	35	104	27787264	60	75959
2026-01-04 16:39:46.14	19.20	8.16	-45.3	-47.7	20.7	3.02e+01	57	35	0	28311552	60	12571
2026-01-04 16:39:47.15	19.19	8.25	-44.0	-45.9	21.8	3.02e+01	58	35	0	29884416	60	10297
2026-01-04 16:39:48.16	19.18	8.34	-43.7	-45.6	22.2	3.02e+01	49	34	0	31981568	60	9921
2026-01-04 16:39:49.17	19.17	8.42	-43.6	-45.5	22.6	3.02e+01	55	34	0	34078720	60	9788
2026-01-04 16:39:50.18	19.15	8.51	-43.9	-45.9	22.7	3.02e+01	47	35	0	35651584	60	10227
2026-01-04 16:39:51.19	19.14	8.60	-44.1	-46.2	21.7	3.02e+01	61	35	0	37748736	60	10547
2026-01-04 16:39:52.20	19.13	8.69	-44.9	-47.1	20.7	3.02e+01	50	34	0	39321600	60	11801
2026-01-04 16:39:53.22	19.12	8.78	-44.2	-46.3	21.9	3.02e+01	45	35	0	41418752	60	10675
2026-01-04 16:39:54.23	19.10	8.86	-42.5	-44.1	23.8	3.02e+01	58	35	0	43515904	60	8362
2026-01-04 16:39:55.24	19.09	8.95	-44.3	-46.4	22.5	3.02e+01	61	35	0	45088768	60	10854
2026-01-04 16:39:56.25	19.08	9.04	-41.7	-43.2	24.8	3.02e+01	57	35	0	47185920	60	7536
2026-01-04 16:39:57.26	19.06	9.13	-42.7	-44.4	23.5	3.02e+01	61	35	0	49283072	60	8646
2026-01-04 16:39:58.27	19.05	9.22	-41.6	-43.2	24.9	3.02e+01	45	35	0	50855936	60	7502
2026-01-04 16:39:59.28	19.04	9.31	-42.1	-43.7	24.7	3.02e+01	59	35	0	52953088	60	7966
2026-01-04 16:40:00.29	19.02	9.40	-41.5	-43.0	25.2	3.02e+01	57	35	0	54525952	60	7300
2026-01-04 16:40:01.30	19.01	9.50	-41.7	-43.2	24.8	3.02e+01	44	35	0	56623104	60	7543
2026-01-04 16:40:02.32	19.00	9.59	-41.1	-42.5	25.6	3.02e+01	56	34	0	58720256	60	6954
2026-01-04 16:40:03.33	18.98	9.68	-41.3	-42.8	25.3	3.02e+01	62	35	0	60293120	60	7151
2026-01-04 16:40:04.34	18.97	9.77	-40.5	-41.9	26.2	3.02e+01	61	35	0	62390272	60	6427
2026-01-04 16:40:05.35	18.95	9.86	-40.6	-42.0	25.9	3.02e+01	58	34	0	64487424	60	6544
2026-01-04 16:40:06.36	18.94	9.96	-40.6	-42.0	25.9	3.02e+01	54	35	0	66060288	60	6523
2026-01-04 16:40:07.37	18.92	10.05	-40.2	-41.6	26.4	3.02e+01	59	35	0	68157440	60	6232
2026-01-04 16:40:08.38	18.91	10.15	-40.4	-41.8	26.2	3.02e+01	59	34	0	69730304	60	6373
2026-01-04 16:40:09.39	18.89	10.24	-40.2	-41.6	26.4	3.02e+01	53	34	0	71827456	60	6209
2026-01-04 16:40:10.41	18.88	10.34	-40.6	-42.1	25.9	3.02e+01	60	35	0	73924608	60	6593
2026-01-04 16:40:11.42	18.86	10.43	-40.3	-41.7	26.6	3.02e+01	61	34	0	75497472	60	6331
2026-01-04 16:40:12.43	18.85	10.53	-40.4	-41.8	26.3	3.02e+01	60	34	0	77594624	60	6416
2026-01-04 16:40:13.44	18.83	10.62	-40.3	-41.7	26.4	3.02e+01	58	34	0	79167488	60	6339
2026-01-04 16:40:14.45	18.82	10.72	-39.6	-40.9	27.1	3.02e+01	54	34	0	81264640	60	5783
2026-01-04 16:40:15.46	18.80	10.81	-39.7	-41.1	27.0	3.02e+01	59	35	0	83361792	60	5880
2026-01-04 16:40:16.47	18.79	10.91	-39.5	-40.8	27.2	3.02e+01	60	35	0	84934656	60	5701
2026-01-04 16:40:17.48	18.77	11.01	-39.5	-40.8	27.3	3.02e+01	47	34	0	87031808	60	5686
2026-01-04 16:40:18.49	18.75	11.11	-39.4	-40.7	27.2	3.02e+01	59	35	0	89128960	60	5606
2026-01-04 16:40:19.50	18.74	11.21	-39.3	-40.6	27.3	3.02e+01	54	35	0	90701824	60	5549
2026-01-04 16:40:20.52	18.72	11.31	-39.7	-41.1	27.2	3.02e+01	58	35	0	92798976	58	6582
2026-01-04 16:40:21.53	18.70	11.41	-39.7	-41.1	27.1	3.02e+01	55	34	0	94371840	58	6594
2026-01-04 16:40:22.54	18.69	11.51	-39.5	-40.8	27.1	3.02e+01	49	34	0	96468992	58	6396
2026-01-04 16:40:23.55	18.67	11.61	-39.8	-41.1	26.7	3.02e+01	63	35	0	98566144	58	6633
2026-01-04 16:40:24.56	18.65	11.71	-39.6	-40.9	27.2	3.02e+01	58	34	0	100139008	58	6457
2026-01-04 16:40:25.57	18.64	11.81	-39.1	-40.4	27.5	3.02e+01	60	34	0	102236160	58	6129
2026-01-04 16:40:26.58	18.62	11.91	-39.3	-40.6	27.6	3.02e+01	59	35	0	104333312	58	6244
2026-01-04 16:40:27.59	18.60	12.01	-39.3	-40.6	27.4	3.02e+01	46	35	0	105906176	58	6241
2026-01-04 16:40:28.61	18.58	12.11	-39.0	-40.3	27.6	3.02e+01	59	34	0	108003328	58	6052
2026-01-04 16:40:29.62	18.57	12.22	-39.4	-40.7	27.4	3.02e+01	61	34	0	109576192	58	6303
2026-01-04 16:40:30.63	18.55	12.32	-39.1	-40.4	27.7	3.02e+01	41	34	0	111673344	58	6115
2026-01-04 16:40:31.64	18.53	12.43	-39.2	-40.5	27.6	3.02e+01	62	35	0	113770496	58	6180
2026-01-04 16:40:32.65	18.51	12.53	-39.1	-40.4	27.7	3.02e+01	57	35	0	115343360	58	6094
2026-01-04 16:40:33.66	18.49	12.63	-39.2	-40.6	27.6	3.02e+01	59	35	0	117440512	58	6209
2026-01-04 16:40:34.67	18.48	12.74	-38.9	-40.1	27.9	3.02e+01	59	35	0	119013376	58	5925
2026-01-04 16:40:35.68	18.46	12.85	-38.9	-40.2	27.8	3.02e+01	55	35	0	121110528	58	5931
2026-01-04 16:40:36.69	18.44	12.95	-39.1	-40.4	27.7	3.02e+01	57	35	0	123207680	58	6125
2026-01-04 16:40:37.70	18.42	13.06	-39.1	-40.4	27.8	3.02e+01	59	35	0	124780544	58	6075
2026-01-04 16:40:38.72	18.40	13.17	-39.4	-40.7	27.7	3.02e+01	51	35	0	126877696	58	6336
2026-01-04 16:40:39.73	18.38	13.28	-39.0	-40.3	27.8	3.02e+01	58	35	0	128974848	58	6015
2026-01-04 16:40:40.74	18.36	13.39	-39.6	-41.0	27.5	3.02e+01	57	35	0	130547712	58	6511
2026-01-04 16:40:41.75	18.34	13.49	-39.4	-40.6	27.5	3.02e+01	59	35	0	132644864	58	6277
2026-01-04 16:40:42.76	18.32	13.60	-39.1	-40.4	27.5	3.02e+01	59	35	0	134217728	58	6084
2026-01-04 16:40:43.77	18.30	13.71	-39.0	-40.2	27.9	3.02e+01	45	34	0	136314880	58	5992
2026-01-04 16:40:44.78	18.28	13.83	-39.3	-40.6	27.6	3.02e+01	61	35	0	138412032	58	6255
2026-01-04 16:40:45.79	18.26	13.94	-39.4	-40.7	27.4	3.02e+01	58	34	0	139984896	58	6342
2026-01-04 16:40:46.80	18.24	14.05	-39.1	-40.4	27.6	3.02e+01	42	35	0	142082048	58	6122
2026-01-04 16:40:47.82	18.22	14.16	-39.6	-40.9	27.3	3.02e+01	59	35	0	144179200	58	6446
2026-01-04 16:40:48.83	18.19	14.28	-40.0	-41.3	27.0	3.02e+01	59	35	0	145752064	58	6783
2026-01-04 16:40:49.84	18.17	14.39	-39.8	-41.1	27.4	3.02e+01	54	35	0	147849216	58	6648
2026-01-04 16:40:50.85	18.15	14.50	-39.2	-40.5	27.6	3.02e+01	61	35	0	149422080	58	6153
2026-01-04 16:40:51.86	18.13	14.62	-39.3	-40.6	27.6	3.02e+01	52	34	0	151519232	58	6215
2026-01-04 16:40:52.87	18.11	14.73	-39.1	-40.4	27.8	3.02e+01	61	35	0	153616384	58	6092
2026-01-04 16:40:53.88	18.08	14.85	-39.2	-40.5	27.9	3.02e+01	58	34	0	155189248	58	6168
2026-01-04 16:40:54.89	18.06	14.97	-38.9	-40.2	28.1	3.02e+01	58	35	0	157286400	58	5947
2026-01-04 16:40:55.91	18.04	15.08	-38.4	-39.6	28.6	3.02e+01	61	34	0	158859264	58	5587
2026-01-04 16:40:56.92	18.02	15.20	-38.4	-39.6	28.6	3.02e+01	52	35	0	160956416	56	6259
2026-01-04 16:40:57.93	17.99	15.32	-38.5	-39.8	28.3	3.02e+01	58	35	0	163053568	56	6355
2026-01-04 16:40:58.94	17.97	15.44	-38.2	-39.5	28.7	3.02e+01	60	35	0	164626432	56	6162
2026-01-04 16:40:59.95	17.94	15.56	-38.5	-39.8	28.5	3.02e+01	46	35	0	166723584	56	6382
2026-01-04 16:41:00.96	17.92	15.68	-38.4	-39.6	28.6	3.02e+01	59	35	0	168296448	56	6254
2026-01-04 16:41:01.97	17.90	15.80	-38.4	-39.6	28.7	3.02e+01	57	35	0	170393600	56	6259
2026-01-04 16:41:02.98	17.87	15.92	-38.4	-39.6	28.6	3.02e+01	60	35	0	172490752	56	6244
2026-01-04 16:41:03.99	17.85	16.05	-38.4	-39.6	28.6	3.02e+01	59	35	0	174063616	56	6271
2026-01-04 16:41:05.00	17.82	16.17	-38.5	-39.8	28.5	3.02e+01	59	35	0	176160768	56	6368
2026-01-04 16:41:06.01	17.80	16.29	-38.3	-39.6	28.7	3.02e+01	57	35	0	178257920	56	6234
2026-01-04 16:41:07.02	17.77	16.42	-38.3	-39.6	28.7	3.02e+01	62	35	0	179830784	56	6233
2026-01-04 16:41:08.04	17.75	16.54	-38.3	-39.5	28.7	3.02e+01	49	35	0	181927936	56	6173
2026-01-04 16:41:09.05	17.72	16.67	-38.3	-39.5	28.8	3.02e+01	54	35	0	183500800	56	6167
2026-01-04 16:41:10.06	17.69	16.80	-38.1	-39.4	28.9	3.02e+01	59	34	0	185597952	56	6076
2026-01-04 16:41:11.07	17.67	16.92	-38.2	-39.4	28.8	3.02e+01	58	35	0	187695104	56	6126
2026-01-04 16:41:12.08	17.64	17.05	-38.2	-39.4	28.8	3.02e+01	59	34	0	189267968	56	6134
2026-01-04 16:41:13.09	17.61	17.18	-38.2	-39.4	28.9	3.02e+01	52	35	0	191365120	56	6085
2026-01-04 16:41:14.10	17.58	17.31	-38.1	-39.3	29.0	3.02e+01	60	35	0	192937984	56	6053
2026-01-04 16:41:15.11	17.56	17.44	-38.1	-39.4	28.9	3.02e+01	61	35	0	195035136	56	6074
2026-01-04 16:41:16.12	17.53	17.57	-38.1	-39.3	28.9	3.02e+01	50	35	0	197132288	56	6054
2026-01-04 16:41:17.13	17.50	17.70	-38.2	-39.4	28.9	3.02e+01	57	35	0	198705152	56	6120
2026-01-04 16:41:18.14	17.47	17.84	-38.2	-39.4	28.8	3.02e+01	61	35	0	200802304	56	6121
2026-01-04 16:41:19.16	17.44	17.97	-38.4	-39.7	28.6	3.02e+01	61	35	0	202375168	56	6308
2026-01-04 16:41:20.17	17.41	18.11	-38.2	-39.4	28.7	3.02e+01	55	35	0	204472320	56	6114
2026-01-04 16:41:21.18	17.38	18.24	-38.1	-39.4	28.9	3.02e+01	54	34	0	206569472	56	6074
2026-01-04 16:41:22.19	17.35	18.38	-38.2	-39.4	29.0	3.02e+01	60	34	0	208142336	56	6084
2026-01-04 16:41:23.20	17.32	18.51	-37.9	-39.2	29.1	3.02e+01	57	35	0	210239488	56	5931
2026-01-04 16:41:24.21	17.29	18.65	-37.9	-39.2	29.1	3.02e+01	50	35	0	212336640	56	5932
2026-01-04 16:41:25.22	17.26	18.79	-38.0	-39.2	29.1	3.02e+01	53	35	0	213909504	56	5975
2026-01-04 16:41:26.23	17.23	18.93	-38.0	-39.3	29.0	3.02e+01	44	35	0	216006656	56	6000
2026-01-04 16:41:27.24	17.20	19.07	-38.0	-39.3	29.0	3.02e+01	59	35	0	217579520	56	5998
2026-01-04 16:41:28.25	17.17	19.21	-37.8	-39.0	29.2	3.02e+01	60	34	0	219676672	56	5851
2026-01-04 16:41:29.27	17.14	19.35	-37.7	-38.9	29.4	3.02e+01	44	35	0	221773824	56	5734
2026-01-04 16:41:30.28	17.10	19.49	-37.7	-38.9	29.3	3.02e+01	54	35	0	223346688	56	5779
2026-01-04 16:41:31.29	17.07	19.64	-37.8	-39.0	29.3	3.02e+01	58	35	0	225443840	56	5810
2026-01-04 16:41:32.30	17.04	19.78	-37.7	-38.8	29.3	3.02e+01	60	34	0	227016704	56	5724
2026-01-04 16:41:33.31	17.00	19.93	-37.9	-39.1	29.3	3.02e+01	57	35	0	229113856	56	5911
2026-01-04 16:41:34.32	16.97	20.07	-37.6	-38.8	29.5	3.02e+01	56	35	0	231211008	56	5668
2026-01-04 16:41:35.33	16.93	20.22	-37.6	-38.8	29.4	3.02e+01	58	35	0	232783872	56	5699
2026-01-04 16:41:36.34	16.90	20.37	-37.4	-38.6	29.6	3.02e+01	59	35	0	234881024	56	5578
2026-01-04 16:41:37.36	16.86	20.52	-37.4	-38.6	29.6	3.02e+01	44	35	0	236978176	56	5551
2026-01-04 16:41:38.37	16.83	20.67	-37.7	-38.9	29.3	3.02e+01	57	35	0	238551040	54	6458
2026-01-04 16:41:39.38	16.79	20.82	-37.3	-38.5	29.6	3.02e+01	61	35	0	240648192	54	6189
2026-01-04 16:41:40.39	16.76	20.97	-37.5	-38.6	29.5	3.02e+01	60	35	0	242221056	54	6277
2026-01-04 16:41:41.40	16.72	21.13	-37.5	-38.7	29.5	3.02e+01	60	35	0	244318208	54	6307
2026-01-04 16:41:42.41	16.68	21.28	-37.2	-38.4	29.8	3.02e+01	62	35	0	246415360	54	6099
2026-01-04 16:41:43.42	16.64	21.44	-37.4	-38.6	29.6	3.02e+01	58	35	0	247988224	54	6216
2026-01-04 16:41:44.43	16.60	21.59	-37.4	-38.6	29.5	3.02e+01	61	35	0	250085376	54	6254
2026-01-04 16:41:45.44	16.57	21.75	-37.3	-38.5	29.7	3.02e+01	44	35	0	252182528	54	6136
2026-01-04 16:41:46.46	16.53	21.91	-37.2	-38.4	29.7	3.02e+01	59	35	0	253755392	54	6098
2026-01-04 16:41:47.46	16.49	22.07	-37.3	-38.5	29.6	3.02e+01	60	34	0	255852544	54	6152
2026-01-04 16:41:48.48	16.45	22.23	-37.3	-38.5	29.6	3.02e+01	59	35	0	257425408	54	6187
2026-01-04 16:41:49.49	16.41	22.39	-37.3	-38.5	29.7	3.02e+01	55	35	0	259522560	54	6173
2026-01-04 16:41:50.50	16.37	22.55	-37.4	-38.6	29.6	3.02e+01	57	35	0	261619712	54	6232
2026-01-04 16:41:51.51	16.32	22.72	-37.7	-38.9	29.6	3.02e+01	58	35	0	263192576	54	6472
2026-01-04 16:41:52.52	16.28	22.88	-37.7	-38.9	29.4	3.02e+01	59	35	0	265289728	54	6442
2026-01-04 16:41:53.53	16.24	23.05	-37.6	-38.8	29.4	3.02e+01	53	35	0	266862592	54	6396
2026-01-04 16:41:54.54	16.20	23.21	-37.9	-39.1	29.2	3.02e+01	61	35	0	268959744	54	6616
2026-01-04 16:41:55.56	16.15	23.38	-37.5	-38.7	29.6	3.02e+01	44	35	0	271056896	54	6302
2026-01-04 16:41:56.57	16.11	23.55	-37.5	-38.7	29.6	3.02e+01	62	35	0	272629760	54	6307
2026-01-04 16:41:57.58	16.06	23.72	-37.7	-38.9	29.3	3.02e+01	61	35	0	274726912	54	6444
2026-01-04 16:41:58.59	16.02	23.90	-37.7	-38.9	29.5	3.02e+01	48	35	0	276824064	54	6446
2026-01-04 16:41:59.60	15.97	24.07	-37.7	-38.9	29.3	3.02e+01	59	35	0	278396928	54	6460
2026-01-04 16:42:00.61	15.93	24.24	-37.6	-38.8	29.3	3.02e+01	58	35	0	280494080	54	6393
2026-01-04 16:42:01.62	15.88	24.42	-37.9	-39.1	29.3	3.02e+01	58	35	0	282066944	54	6585
2026-01-04 16:42:02.63	15.83	24.60	-37.7	-38.9	29.3	3.02e+01	62	35	0	284164096	54	6465
2026-01-04 16:42:03.64	15.78	24.77	-37.7	-39.0	29.4	3.02e+01	53	34	0	286261248	54	6499
2026-01-04 16:42:04.65	15.73	24.95	-37.4	-38.6	29.6	3.02e+01	58	35	0	287834112	54	6260
2026-01-04 16:42:05.67	15.68	25.14	-37.4	-38.6	29.7	3.02e+01	60	35	0	289931264	54	6214
2026-01-04 16:42:06.68	15.63	25.32	-37.5	-38.7	29.5	3.02e+01	47	35	0	292028416	54	6293
2026-01-04 16:42:07.69	15.58	25.50	-37.4	-38.6	29.7	3.02e+01	57	35	0	293601280	54	6220
2026-01-04 16:42:08.70	15.53	25.69	-37.6	-38.7	29.6	3.02e+01	59	35	0	295698432	54	6341
2026-01-04 16:42:09.71	15.48	25.87	-37.3	-38.5	29.7	3.02e+01	59	35	0	297271296	54	6179
2026-01-04 16:42:10.72	15.43	26.06	-37.6	-38.8	29.7	3.02e+01	57	35	0	299368448	54	6375
2026-01-04 16:42:11.73	15.37	26.25	-37.7	-38.9	29.5	3.02e+01	45	35	0	301465600	54	6483
2026-01-04 16:42:12.74	15.32	26.44	-37.6	-38.8	29.6	3.02e+01	58	35	0	303038464	54	6392
2026-01-04 16:42:13.75	15.26	26.63	-37.7	-38.9	29.5	3.02e+01	60	35	0	305135616	54	6433
2026-01-04 16:42:14.77	15.21	26.83	-37.6	-38.8	29.5	3.02e+01	45	35	0	306708480	54	6408
2026-01-04 16:42:15.78	15.15	27.02	-37.7	-38.9	29.5	3.02e+01	59	35	0	308805632	54	6475
2026-01-04 16:42:16.79	15.09	27.22	-37.8	-39.0	29.3	3.02e+01	58	34	0	310902784	54	6568
2026-01-04 16:42:17.80	15.04	27.41	-37.9	-39.1	29.3	3.02e+01	59	35	0	312475648	54	6625
2026-01-04 16:42:18.81	14.98	27.61	-37.9	-39.1	29.2	3.02e+01	62	35	0	314572800	54	6575
2026-01-04 16:42:19.82	14.92	27.81	-38.0	-39.2	29.2	3.02e+01	60	35	0	316669952	54	6688
2026-01-04 16:42:20.83	14.86	28.02	-38.0	-39.2	29.2	3.02e+01	59	35	0	318242816	54	6683
2026-01-04 16:42:21.84	14.80	28.22	-38.0	-39.2	29.2	3.02e+01	63	35	0	320339968	54	6709
2026-01-04 16:42:22.86	14.73	28.43	-38.0	-39.2	29.2	3.02e+01	55	35	0	321912832	54	6681
2026-01-04 16:42:23.87	14.67	28.63	-37.9	-39.1	29.2	3.02e+01	58	35	0	324009984	54	6628
2026-01-04 16:42:24.88	14.61	28.84	-37.8	-39.0	29.4	3.02e+01	53	35	0	326107136	54	6534
2026-01-04 16:42:25.89	14.54	29.05	-37.8	-39.0	29.5	3.02e+01	57	34	0	327680000	54	6507
2026-01-04 16:42:26.90	14.47	29.27	-37.9	-39.0	29.5	3.02e+01	60	35	0	329777152	54	6571
2026-01-04 16:42:27.91	14.41	29.48	-37.8	-38.9	29.4	3.02e+01	52	35	0	331350016	54	6490
2026-01-04 16:42:28.92	14.34	29.69	-37.8	-39.0	29.4	3.02e+01	61	35	0	333447168	54	6561
2026-01-04 16:42:29.93	14.27	29.91	-37.9	-39.1	29.4	3.02e+01	55	34	0	335544320	54	6602
2026-01-04 16:42:30.94	14.20	30.13	-37.8	-39.0	29.4	3.02e+01	59	35	0	337117184	54	6516
2026-01-04 16:42:31.95	14.13	30.35	-38.0	-39.2	29.3	3.02e+01	60	35	0	339214336	54	6716
2026-01-04 16:42:32.97	14.06	30.58	-38.0	-39.2	29.4	3.02e+01	51	35	0	341311488	54	6657
2026-01-04 16:42:33.98	13.98	30.80	-38.1	-39.3	29.2	3.02e+01	59	35	0	342884352	54	6767
2026-01-04 16:42:34.99	13.91	31.03	-38.0	-39.2	29.2	3.02e+01	58	35	0	344981504	54	6689
2026-01-04 16:42:36.00	13.83	31.25	-38.0	-39.2	29.2	3.02e+01	46	35	0	346554368	54	6696
2026-01-04 16:42:37.01	13.76	31.48	-38.0	-39.2	29.3	3.02e+01	60	35	0	348651520	54	6684
2026-01-04 16:42:38.02	13.68	31.72	-37.9	-39.1	29.3	3.02e+01	61	35	0	350748672	54	6601
2026-01-04 16:42:39.03	13.60	31.95	-37.9	-39.1	29.2	3.02e+01	59	35	0	352321536	54	6648
2026-01-04 16:42:40.04	13.52	32.18	-37.8	-39.0	29.4	3.02e+01	59	35	0	354418688	54	6542
2026-01-04 16:42:41.06	13.44	32.42	-37.9	-39.1	29.3	3.02e+01	52	34	0	355991552	54	6578
2026-01-04 16:42:42.07	13.36	32.66	-38.0	-39.2	29.2	3.02e+01	57	35	0	358088704	54	6677
2026-01-04 16:42:43.08	13.27	32.90	-38.4	-39.6	28.9	3.02e+01	59	34	0	360185856	56	6277
2026-01-04 16:42:44.09	13.19	33.15	-38.7	-39.9	29.0	3.02e+01	45	35	0	361758720	56	6462
2026-01-04 16:42:45.10	13.10	33.39	-38.6	-39.8	29.0	3.02e+01	60	35	0	363855872	56	6404
2026-01-04 16:42:46.11	13.01	33.64	-38.5	-39.7	28.9	3.02e+01	61	35	0	365953024	56	6348
2026-01-04 16:42:47.12	12.92	33.89	-38.7	-39.9	28.7	3.02e+01	61	35	0	367525888	56	6451
2026-01-04 16:42:48.13	12.83	34.14	-38.6	-39.8	28.8	3.02e+01	59	34	0	369623040	56	6407
2026-01-04 16:42:49.14	12.74	34.39	-38.3	-39.5	29.1	3.02e+01	50	35	0	371195904	56	6173
2026-01-04 16:42:50.16	12.64	34.65	-38.6	-39.8	28.8	3.02e+01	60	34	0	373293056	56	6390
2026-01-04 16:42:51.17	12.55	34.91	-38.3	-39.5	29.1	3.02e+01	62	35	0	375390208	56	6144
2026-01-04 16:42:52.18	12.45	35.17	-38.4	-39.6	29.2	3.02e+01	49	34	0	376963072	56	6213
2026-01-04 16:42:53.19	12.35	35.43	-38.1	-39.3	29.1	3.02e+01	59	34	0	379060224	56	6032
2026-01-04 16:42:54.20	12.25	35.70	-38.0	-39.2	29.3	3.02e+01	45	34	0	380633088	56	5979
2026-01-04 16:42:55.21	12.15	35.96	-37.9	-39.1	29.3	3.02e+01	60	34	0	382730240	56	5903
2026-01-04 16:42:56.22	12.04	36.23	-38.1	-39.3	29.3	3.02e+01	60	34	0	384827392	56	6026
2026-01-04 16:42:57.23	11.94	36.50	-38.0	-39.2	29.5	3.02e+01	43	35	0	386400256	56	5967
2026-01-04 16:42:58.24	11.83	36.78	-37.8	-39.0	29.5	3.02e+01	59	35	0	388497408	56	5832
2026-01-04 16:42:59.25	11.72	37.05	-38.0	-39.2	29.5	3.02e+01	62	35	0	390070272	56	5969
2026-01-04 16:43:00.27	11.61	37.34	-38.1	-39.3	29.3	3.02e+01	58	34	0	392167424	56	6012
2026-01-04 16:43:01.28	11.49	37.62	-38.1	-39.3	29.3	3.02e+01	52	35	0	394264576	56	6032
2026-01-04 16:43:02.29	11.38	37.90	-38.0	-39.2	29.3	3.02e+01	56	34	0	395837440	56	5974
2026-01-04 16:43:03.30	11.26	38.18	-38.0	-39.2	29.3	3.02e+01	59	35	0	397934592	56	5994
2026-01-04 16:43:04.31	11.14	38.47	-38.3	-39.5	29.0	3.02e+01	58	34	0	400031744	56	6196
2026-01-04 16:43:05.32	11.01	38.76	-38.4	-39.6	29.1	3.02e+01	54	34	0	401604608	56	6215
2026-01-04 16:43:06.33	10.89	39.06	-38.2	-39.5	29.1	3.02e+01	63	35	0	403701760	56	6137
2026-01-04 16:43:07.34	10.76	39.35	-38.1	-39.3	29.2	3.02e+01	60	34	0	405274624	56	6029
2026-01-04 16:43:08.35	10.63	39.65	-37.7	-38.9	29.6	3.02e+01	58	35	0	407371776	56	5743
2026-01-04 16:43:09.37	10.50	39.95	-37.4	-38.6	29.9	3.02e+01	58	35	0	409468928	56	5568
2026-01-04 16:43:10.38	10.36	40.26	-37.6	-38.8	29.6	3.02e+01	46	34	0	411041792	56	5703
2026-01-04 16:43:11.39	10.22	40.56	-37.6	-38.7	29.8	3.02e+01	60	35	0	413138944	56	5650
2026-01-04 16:43:12.40	10.08	40.87	-37.3	-38.5	29.9	3.02e+01	60	35	0	414711808	54	6149
2026-01-04 16:43:13.41	9.94	41.18	-37.4	-38.6	29.9	3.02e+01	44	35	0	416808960	54	6227
2026-01-04 16:43:14.42	9.79	41.49	-37.7	-38.9	29.7	3.02e+01	57	35	0	418906112	54	6448
2026-01-04 16:43:15.43	9.64	41.81	-37.9	-39.1	29.5	3.02e+01	59	34	0	420478976	54	6586
2026-01-04 16:43:16.44	9.49	42.13	-37.9	-39.1	29.3	3.02e+01	60	34	0	422576128	54	6609
2026-01-04 16:43:17.45	9.33	42.45	-37.6	-38.8	29.7	3.02e+01	58	34	0	424673280	54	6369
2026-01-04 16:43:18.47	9.17	42.78	-37.7	-38.9	29.7	3.02e+01	57	35	0	426246144	54	6456
2026-01-04 16:43:19.48	9.01	43.10	-37.4	-38.5	29.6	3.02e+01	57	34	0	428343296	54	6187
2026-01-04 16:43:20.49	8.85	43.43	-37.3	-38.4	29.9	3.02e+01	53	34	0	429916160	54	6109
2026-01-04 16:43:21.50	8.68	43.77	-37.2	-38.4	29.9	3.02e+01	54	34	0	432013312	54	6084
2026-01-04 16:43:22.51	8.50	44.10	-37.1	-38.3	30.1	3.02e+01	57	35	0	434110464	54	6036
2026-01-04 16:43:23.52	8.33	44.44	-37.3	-38.5	30.1	3.02e+01	52	34	0	435683328	54	6137
2026-01-04 16:43:24.53	8.14	44.78	-37.5	-38.7	29.9	3.02e+01	61	35	0	437780480	54	6293
2026-01-04 16:43:25.54	7.96	45.12	-37.5	-38.7	29.8	3.02e+01	60	34	0	439877632	54	6320
2026-01-04 16:43:26.56	7.77	45.47	-37.5	-38.7	29.9	3.02e+01	47	34	0	441450496	54	6315
2026-01-04 16:43:27.57	7.57	45.82	-37.4	-38.6	29.9	3.02e+01	60	35	0	443547648	54	6214
2026-01-04 16:43:28.58	7.38	46.17	-37.3	-38.5	29.9	3.02e+01	59	34	0	445120512	54	6188
2026-01-04 16:43:29.59	7.17	46.53	-37.3	-38.5	29.9	3.02e+01	59	34	0	447217664	54	6159
2026-01-04 16:43:30.60	6.96	46.88	-37.6	-38.7	29.9	3.02e+01	61	35	0	449314816	54	6338
2026-01-04 16:43:31.61	6.75	47.25	-37.9	-39.1	29.5	3.02e+01	46	35	0	450887680	54	6613
2026-01-04 16:43:32.62	6.53	47.61	-37.8	-39.0	29.6	3.02e+01	58	34	0	452984832	54	6552
2026-01-04 16:43:33.63	6.31	47.97	-37.7	-38.9	29.5	3.02e+01	61	35	0	454557696	54	6473
2026-01-04 16:43:34.64	6.08	48.34	-37.9	-39.1	29.6	3.02e+01	45	35	0	456654848	54	6597
2026-01-04 16:43:35.65	5.85	48.71	-38.4	-39.6	29.2	3.02e+01	60	34	0	458752000	56	6269
2026-01-04 16:43:36.66	5.61	49.09	-38.9	-40.1	28.9	3.02e+01	53	34	0	460324864	56	6641
2026-01-04 16:43:37.68	5.36	49.47	-38.6	-39.8	28.9	3.02e+01	56	35	0	462422016	56	6414
2026-01-04 16:43:38.69	5.11	49.85	-38.6	-39.9	28.7	3.02e+01	57	35	0	464519168	56	6426
2026-01-04 16:43:39.70	4.85	50.23	-38.8	-40.1	28.4	3.02e+01	55	34	0	466092032	56	6578
2026-01-04 16:43:40.71	4.58	50.62	-38.5	-39.7	28.7	3.02e+01	56	35	0	468189184	56	6319
2026-01-04 16:43:41.72	4.31	51.00	-38.4	-39.6	28.9	3.02e+01	56	35	0	469762048	56	6246
2026-01-04 16:43:42.73	4.03	51.39	-38.9	-40.1	28.7	3.02e+01	46	34	0	471859200	56	6605
2026-01-04 16:43:43.74	3.74	51.79	-39.3	-40.5	28.4	3.02e+01	59	35	0	473956352	56	6945
2026-01-04 16:43:44.75	3.44	52.18	-39.2	-40.4	28.4	3.02e+01	60	35	0	475529216	58	6095
2026-01-04 16:43:45.76	3.14	52.58	-39.6	-40.9	28.2	3.02e+01	59	35	0	477626368	58	6470
2026-01-04 16:43:46.77	2.82	52.98	-39.3	-40.5	28.2	3.02e+01	59	35	0	479723520	58	6189
2026-01-04 16:43:47.78	2.50	53.39	-39.0	-40.2	28.5	3.02e+01	54	34	0	481296384	58	5978
2026-01-04 16:43:48.80	2.17	53.79	-38.9	-40.1	28.6	3.02e+01	62	34	0	483393536	58	5876
2026-01-04 16:43:49.81	1.83	54.20	-39.2	-40.5	28.2	3.02e+01	56	34	0	484966400	58	6175
2026-01-04 16:43:50.82	1.48	54.61	-39.3	-40.5	28.2	3.02e+01	45	34	0	487063552	58	6179
2026-01-04 16:43:51.83	1.11	55.03	-39.3	-40.6	28.2	3.02e+01	59	34	0	489160704	58	6207
2026-01-04 16:43:52.84	0.74	55.44	-39.5	-40.8	28.2	3.02e+01	52	34	0	490733568	58	6361
2026-01-04 16:43:53.85	0.36	55.86	-39.5	-40.8	28.1	3.02e+01	59	35	0	492830720	58	6414
2026-01-04 16:43:54.86	359.96	56.28	-39.6	-40.9	28.0	3.02e+01	61	35	0	494403584	58	6439
2026-01-04 16:43:55.87	359.56	56.70	-39.7	-41.0	27.8	3.02e+01	53	34	0	496500736	58	6560
2026-01-04 16:43:56.88	359.13	57.12	-39.7	-41.0	27.8	3.02e+01	57	34	0	498597888	58	6545
2026-01-04 16:43:57.89	358.70	57.55	-40.1	-41.4	27.5	3.02e+01	59	34	0	500170752	58	6837
2026-01-04 16:43:58.90	358.25	57.97	-39.8	-41.1	27.7	3.02e+01	52	34	0	502267904	58	6634
2026-01-04 16:43:59.92	357.78	58.40	-39.7	-41.0	27.9	3.02e+01	58	35	0	504365056	58	6519
2026-01-04 16:44:00.93	357.31	58.83	-39.6	-40.9	27.8	3.02e+01	53	35	0	505937920	58	6460
2026-01-04 16:44:01.94	356.81	59.26	-40.0	-41.3	27.5	3.02e+01	60	34	0	508035072	58	6754
2026-01-04 16:44:02.95	356.30	59.70	-40.0	-41.2	27.5	3.02e+01	56	34	0	509607936	58	6724
2026-01-04 16:44:03.96	355.77	60.13	-39.9	-41.2	27.5	3.02e+01	45	35	0	511705088	58	6704
2026-01-04 16:44:04.97	355.22	60.56	-38.7	-39.9	28.8	3.02e+01	62	34	0	513802240	58	5768
2026-01-04 16:44:05.98	354.66	61.00	-38.8	-40.1	28.6	3.02e+01	56	34	0	515375104	58	5888
2026-01-04 16:44:06.99	354.07	61.43	-39.0	-40.2	28.6	3.02e+01	61	35	0	517472256	58	5969
2026-01-04 16:44:08.00	353.46	61.87	-38.4	-39.6	29.0	3.02e+01	60	34	0	519045120	58	5559
2026-01-04 16:44:09.02	352.83	62.30	-38.3	-39.6	29.2	3.02e+01	51	34	0	521142272	56	6208
2026-01-04 16:44:10.03	352.17	62.74	-38.4	-39.6	29.2	3.02e+01	58	34	0	523239424	56	6230
2026-01-04 16:44:11.04	351.50	63.17	-38.3	-39.5	29.1	3.02e+01	61	34	0	524812288	56	6196
2026-01-04 16:44:12.05	350.79	63.61	-38.5	-39.7	29.0	3.02e+01	49	34	0	526909440	56	6349
2026-01-04 16:44:13.06	350.06	64.04	-38.5	-39.7	29.0	3.02e+01	58	35	0	528482304	56	6316
2026-01-04 16:44:14.07	349.30	64.47	-37.8	-39.0	29.5	3.02e+01	59	34	0	530579456	56	5840
2026-01-04 16:44:15.08	348.52	64.90	-38.2	-39.4	29.2	3.02e+01	60	34	0	532676608	56	6134
2026-01-04 16:44:16.09	347.70	65.33	-38.5	-39.8	28.8	3.02e+01	58	34	0	534249472	56	6352
2026-01-04 16:44:17.10	346.85	65.75	-38.7	-39.9	28.8	3.02e+01	55	35	0	536346624	56	6486
2026-01-04 16:44:18.11	345.96	66.18	-38.2	-39.4	29.4	3.02e+01	59	35	0	538443776	56	6131
2026-01-04 16:44:19.12	345.04	66.60	-38.9	-40.2	28.8	3.02e+01	59	34	0	540016640	56	6650
2026-01-04 16:44:20.14	344.08	67.02	-38.8	-40.1	28.9	3.02e+01	50	34	0	542113792	56	6595
2026-01-04 16:44:21.15	343.08	67.43	-38.6	-39.8	28.9	3.02e+01	57	34	0	543686656	56	6378
2026-01-04 16:44:22.16	342.04	67.84	-38.3	-39.5	29.2	3.02e+01	55	34	0	545783808	56	6145
2026-01-04 16:44:23.17	340.97	68.24	-38.5	-39.8	29.2	3.02e+01	58	34	0	547880960	56	6352
2026-01-04 16:44:24.18	339.84	68.64	-38.7	-39.9	28.8	3.02e+01	60	34	0	549453824	56	6491
2026-01-04 16:44:25.19	338.67	69.03	-38.2	-39.4	29.2	3.02e+01	53	34	0	551550976	56	6123
2026-01-04 16:44:26.20	337.46	69.41	-38.1	-39.3	29.4	3.02e+01	58	34	0	553123840	56	6030
2026-01-04 16:44:27.21	336.19	69.79	-38.7	-39.9	28.8	3.02e+01	57	34	0	555220992	56	6483
2026-01-04 16:44:28.22	334.87	70.16	-38.4	-39.6	29.1	3.02e+01	59	34	0	557318144	56	6270
2026-01-04 16:44:29.23	333.50	70.52	-37.8	-39.0	29.7	3.02e+01	60	34	0	558891008	56	5806
2026-01-04 16:44:30.24	332.08	70.87	-38.0	-39.2	29.5	3.02e+01	45	34	0	560988160	56	5938
2026-01-04 16:44:31.25	330.60	71.21	-39.0	-40.3	28.4	3.02e+01	58	34	0	562561024	56	6729
2026-01-04 16:44:32.27	329.04	71.54	-38.9	-40.2	29.3	3.02e+01	57	34	0	564658176	56	6668
2026-01-04 16:44:33.28	327.45	71.86	-38.0	-39.2	29.8	3.02e+01	45	34	0	566755328	56	5978
2026-01-04 16:44:34.29	325.79	72.16	-37.7	-38.9	29.8	3.02e+01	56	34	0	568328192	56	5739
2026-01-04 16:44:35.30	324.07	72.45	-37.7	-38.9	29.7	3.02e+01	60	34	0	570425344	56	5777
2026-01-04 16:44:36.31	322.30	72.72	-37.3	-38.5	30.0	3.02e+01	59	34	0	572522496	56	5513
2026-01-04 16:44:37.32	320.46	72.98	-37.2	-38.4	30.0	3.02e+01	57	34	0	574095360	54	6088
2026-01-04 16:44:38.33	318.57	73.23	-37.3	-38.5	30.0	3.02e+01	62	34	0	576192512	54	6161
2026-01-04 16:44:39.34	316.62	73.45	-37.2	-38.4	30.1	3.02e+01	60	34	0	577765376	54	6108
2026-01-04 16:44:40.36	314.60	73.66	-38.0	-39.2	29.3	3.02e+01	58	34	0	579862528	54	6701
2026-01-04 16:44:41.37	312.54	73.85	-37.9	-39.1	29.7	3.02e+01	45	34	0	581959680	54	6592
2026-01-04 16:44:42.38	310.44	74.01	-37.4	-38.6	30.0	3.02e+01	61	34	0	583532544	54	6220
2026-01-04 16:44:43.39	308.29	74.16	-38.0	-39.2	29.2	3.02e+01	61	34	0	585629696	54	6668
2026-01-04 16:44:44.40	306.11	74.29	-38.4	-39.7	29.1	3.02e+01	58	34	0	587726848	56	6281
2026-01-04 16:44:45.41	303.89	74.39	-38.2	-39.4	29.3	3.02e+01	60	34	0	589299712	56	6114
2026-01-04 16:44:46.42	301.64	74.47	-38.1	-39.3	29.1	3.02e+01	47	34	0	591396864	56	6054
2026-01-04 16:44:47.43	299.38	74.53	-38.8	-40.1	28.5	3.02e+01	60	34	0	592969728	56	6596
2026-01-04 16:44:48.44	297.10	74.56	-38.5	-39.7	28.7	3.02e+01	58	34	0	595066880	56	6290
2026-01-04 16:44:49.45	294.81	74.57	-38.7	-39.9	28.9	3.02e+01	45	34	0	597164032	56	6463
2026-01-04 16:44:50.47	292.50	74.55	-38.7	-39.9	28.9	3.02e+01	58	34	0	598736896	56	6468
2026-01-04 16:44:51.48	290.22	74.52	-39.1	-40.3	28.5	3.02e+01	60	34	0	600834048	58	6056
2026-01-04 16:44:52.49	287.96	74.45	-38.8	-40.0	28.8	3.02e+01	57	34	0	602406912	58	5848
2026-01-04 16:44:53.50	285.71	74.37	-38.9	-40.1	28.7	3.02e+01	49	34	0	604504064	58	5918
2026-01-04 16:44:54.51	283.50	74.26	-38.7	-40.0	28.8	3.02e+01	53	34	0	606601216	58	5794
2026-01-04 16:44:55.52	281.32	74.13	-39.3	-40.6	28.2	3.02e+01	58	34	0	608174080	58	6246
2026-01-04 16:44:56.53	279.18	73.98	-39.3	-40.6	28.2	3.02e+01	58	34	0	610271232	58	6220
2026-01-04 16:44:57.54	277.09	73.81	-40.7	-42.1	26.3	3.02e+01	59	34	0	612368384	58	7450
2026-01-04 16:44:58.55	275.04	73.62	-41.6	-43.0	25.9	3.02e+01	58	34	0	613941248	60	7362
2026-01-04 16:44:59.56	273.05	73.41	-40.5	-41.8	27.3	3.02e+01	47	34	0	616038400	60	6421
2026-01-04 16:45:00.57	271.11	73.18	-40.2	-41.5	27.4	3.02e+01	59	34	0	617611264	60	6186
2026-01-04 16:45:01.59	269.20	72.93	-40.7	-42.0	26.4	3.02e+01	61	34	0	619708416	60	6569
2026-01-04 16:45:02.60	267.38	72.67	-41.5	-42.9	26.2	3.02e+01	48	34	0	621805568	60	7230
2026-01-04 16:45:03.61	265.62	72.39	-41.5	-42.8	26.3	3.02e+01	61	34	0	623378432	60	7189
2026-01-04 16:45:04.62	263.91	72.10	-41.8	-43.2	25.9	3.02e+01	62	34	0	625475584	60	7497
2026-01-04 16:45:05.63	262.26	71.79	-42.8	-44.4	24.8	3.02e+01	58	34	0	627572736	60	8627
2026-01-04 16:45:06.64	260.68	71.47	-42.1	-43.5	26.0	3.02e+01	59	34	0	629145600	60	7794
2026-01-04 16:45:07.65	259.15	71.14	-42.7	-44.2	25.0	3.02e+01	60	34	0	631242752	60	8430
2026-01-04 16:45:08.66	257.68	70.80	-42.3	-43.7	26.0	3.02e+01	58	34	0	632815616	60	7960
2026-01-04 16:45:09.67	256.26	70.45	-42.0	-43.4	25.7	3.02e+01	59	34	0	634912768	60	7718
2026-01-04 16:45:10.69	254.88	70.08	-42.7	-44.2	25.0	3.02e+01	48	34	0	637009920	60	8440
2026-01-04 16:45:11.70	253.58	69.71	-43.1	-44.7	25.4	3.02e+01	58	34	0	638582784	60	8876
2026-01-04 16:45:12.71	252.32	69.33	-43.2	-44.8	25.0	3.02e+01	52	34	0	640679936	60	9031
2026-01-04 16:45:13.72	251.11	68.95	-42.7	-44.2	25.3	3.02e+01	58	34	0	642252800	60	8468
2026-01-04 16:45:14.73	249.95	68.55	-42.8	-44.3	24.9	3.02e+01	56	34	0	644349952	60	8550
2026-01-04 16:45:15.74	248.83	68.15	-43.4	-45.0	24.5	3.02e+01	45	34	0	646447104	60	9232
2026-01-04 16:45:16.75	247.76	67.75	-42.5	-44.0	24.9	3.02e+01	60	34	0	648019968	60	8195
2026-01-04 16:45:17.76	246.73	67.34	-44.3	-46.1	23.8	3.02e+01	57	34	0	650117120	60	10440
2026-01-04 16:45:18.77	245.75	66.93	-44.1	-45.9	23.7	3.02e+01	44	35	0	652214272	60	10199
2026-01-04 16:45:19.78	244.79	66.51	-43.7	-45.3	24.2	3.02e+01	61	34	0	653787136	60	9582
2026-01-04 16:45:20.79	243.88	66.09	-43.3	-44.8	25.0	3.02e+01	55	34	0	655884288	60	9063
2026-01-04 16:45:21.81	242.99	65.66	-44.2	-45.9	24.2	3.02e+01	59	34	0	657457152	60	10265
2026-01-04 16:45:22.82	242.15	65.23	-43.5	-45.0	25.3	3.02e+01	60	34	0	659554304	60	9256
2026-01-04 16:45:23.83	241.34	64.80	-43.5	-45.1	24.9	3.02e+01	56	34	0	661651456	60	9340
2026-01-04 16:45:24.84	240.55	64.37	-42.9	-44.5	25.2	3.02e+01	55	34	0	663224320	60	8681
2026-01-04 16:45:25.85	239.80	63.94	-43.3	-44.8	25.5	3.02e+01	60	34	0	665321472	60	9009
2026-01-04 16:45:26.86	239.08	63.51	-44.1	-45.8	24.8	3.02e+01	61	34	0	666894336	60	10069
2026-01-04 16:45:27.87	238.38	63.07	-43.1	-44.5	25.6	3.02e+01	58	34	0	668991488	60	8728
2026-01-04 16:45:28.88	237.70	62.64	-43.3	-44.9	24.8	3.02e+01	50	34	0	671088640	60	9173
2026-01-04 16:45:29.89	237.05	62.20	-42.6	-44.1	25.6	3.02e+01	61	35	0	672661504	60	8311
2026-01-04 16:45:30.90	236.43	61.77	-43.0	-44.5	24.8	3.02e+01	60	34	0	674758656	60	8749
2026-01-04 16:45:31.92	235.82	61.33	-42.6	-44.1	25.5	3.02e+01	46	34	0	676855808	60	8348
2026-01-04 16:45:32.93	235.23	60.89	-43.6	-45.2	24.2	3.02e+01	60	34	0	678428672	60	9454
2026-01-04 16:45:33.94	234.67	60.45	-42.6	-44.0	25.9	3.02e+01	58	34	0	680525824	60	8216
2026-01-04 16:45:34.95	234.13	60.02	-43.3	-44.8	25.0	3.02e+01	62	34	0	682098688	60	9028
2026-01-04 16:45:35.96	233.60	59.59	-44.3	-46.0	24.3	3.02e+01	56	34	0	684195840	60	10360
2026-01-04 16:45:36.97	233.09	59.15	-42.3	-43.7	26.1	3.02e+01	52	34	0	686292992	60	7956
2026-01-04 16:45:37.98	232.60	58.72	-43.3	-44.8	24.8	3.02e+01	57	34	0	687865856	60	9006
2026-01-04 16:45:39.00	232.12	58.29	-42.7	-44.2	25.7	3.02e+01	58	34	0	689963008	60	8387
2026-01-04 16:45:40.00	231.66	57.86	-44.1	-45.7	24.8	3.02e+01	53	34	0	691535872	60	9954
2026-01-04 16:45:41.02	231.21	57.43	-43.8	-45.4	24.8	3.02e+01	60	34	0	693633024	60	9641
2026-01-04 16:45:42.03	230.78	57.01	-44.7	-46.4	24.1	3.02e+01	63	34	0	695730176	60	10852
2026-01-04 16:45:43.04	230.36	56.58	-44.1	-45.6	24.4	3.02e+01	58	34	0	697303040	60	9841
2026-01-04 16:45:44.05	229.96	56.16	-43.3	-44.8	25.1	3.02e+01	61	34	0	699400192	60	9073
2026-01-04 16:45:45.06	229.56	55.74	-43.5	-45.0	25.6	3.02e+01	58	34	0	700973056	60	9278
2026-01-04 16:45:46.07	229.18	55.32	-43.4	-44.9	25.3	3.02e+01	60	34	0	703070208	60	9098
2026-01-04 16:45:47.08	228.81	54.91	-43.7	-45.2	25.4	3.02e+01	62	34	0	705167360	60	9497
2026-01-04 16:45:48.09	228.45	54.50	-43.4	-44.9	25.5	3.02e+01	47	34	0	706740224	60	9165
2026-01-04 16:45:49.11	228.10	54.08	-42.9	-44.4	25.3	3.02e+01	60	34	0	708837376	60	8654
2026-01-04 16:45:50.12	227.76	53.67	-43.0	-44.5	25.5	3.02e+01	56	34	0	710934528	60	8692
2026-01-04 16:45:51.13	227.43	53.27	-43.5	-45.0	24.9	3.02e+01	53	34	0	712507392	60	9276
2026-01-04 16:45:52.14	227.11	52.86	-44.2	-45.8	24.6	3.02e+01	59	34	0	714604544	60	10143
2026-01-04 16:45:53.15	226.80	52.46	-43.3	-44.9	25.1	3.02e+01	52	34	0	716177408	60	9113
2026-01-04 16:45:54.16	226.49	52.06	-43.8	-45.3	24.9	3.02e+01	60	34	0	718274560	60	9565
2026-01-04 16:45:55.17	226.20	51.66	-44.5	-46.1	24.5	3.02e+01	60	34	0	720371712	60	10511
2026-01-04 16:45:56.18	225.91	51.27	-44.9	-46.6	23.7	3.02e+01	58	34	0	721944576	60	11163
2026-01-04 16:45:57.19	225.63	50.88	-43.5	-45.1	24.1	3.02e+01	60	34	0	724041728	60	9298
2026-01-04 16:45:58.20	225.36	50.49	-44.2	-45.9	24.2	3.02e+01	57	34	0	725614592	60	10271
2026-01-04 16:45:59.21	225.10	50.11	-43.8	-45.4	24.3	3.02e+01	56	34	0	727711744	60	9673
2026-01-04 16:46:00.22	224.84	49.72	-43.9	-45.6	23.8	3.02e+01	61	34	0	729808896	60	9888
2026-01-04 16:46:01.24	224.58	49.34	-44.8	-46.5	23.9	3.02e+01	54	34	0	731381760	60	10996
2026-01-04 16:46:02.25	224.34	48.96	-43.6	-45.1	25.3	3.02e+01	60	34	0	733478912	60	9367
2026-01-04 16:46:03.26	224.10	48.59	-44.6	-46.5	23.3	3.02e+01	60	34	0	735051776	60	10928
2026-01-04 16:46:04.27	223.86	48.22	-44.7	-46.4	24.1	3.02e+01	60	34	0	737148928	60	10866
2026-01-04 16:46:05.28	223.64	47.85	-44.1	-45.8	23.8	3.02e+01	57	35	0	739246080	60	10159
2026-01-04 16:46:06.29	223.41	47.48	-44.5	-46.1	24.4	3.02e+01	56	34	0	740818944	60	10488
2026-01-04 16:46:07.30	223.20	47.12	-44.9	-46.7	23.7	3.02e+01	57	34	0	742916096	60	11168
2026-01-04 16:46:08.31	222.99	46.76	-44.1	-45.8	24.2	3.02e+01	57	34	0	745013248	60	10117
2026-01-04 16:46:09.32	222.78	46.40	-43.9	-45.3	25.3	3.02e+01	53	34	0	746586112	60	9611
2026-01-04 16:46:10.33	222.58	46.04	-43.3	-44.8	25.0	3.02e+01	62	34	0	748683264	60	9056
2026-01-04 16:46:11.34	222.38	45.69	-43.4	-44.9	25.2	3.02e+01	57	34	0	750256128	60	9174
2026-01-04 16:46:12.35	222.18	45.34	-43.1	-44.7	25.3	3.02e+01	60	34	0	752353280	60	8871
2026-01-04 16:46:13.37	221.99	44.99	-42.0	-43.4	26.4	3.02e+01	59	34	0	754450432	60	7698
2026-01-04 16:46:14.38	221.81	44.65	-41.3	-42.6	26.8	3.02e+01	46	34	0	756023296	60	7007
2026-01-04 16:46:15.39	221.63	44.31	-42.1	-43.5	26.3	3.02e+01	56	34	0	758120448	60	7809
2026-01-04 16:46:16.40	221.45	43.97	-41.5	-42.9	27.0	3.02e+01	58	34	0	760217600	60	7224
2026-01-04 16:46:17.41	221.28	43.63	-40.7	-42.0	27.3	3.02e+01	52	34	0	761790464	60	6565
2026-01-04 16:46:18.42	221.11	43.30	-41.3	-42.7	27.1	3.02e+01	59	34	0	763887616	60	7075
2026-01-04 16:46:19.43	220.94	42.97	-41.4	-42.8	26.5	3.02e+01	60	34	0	765460480	60	7138
2026-01-04 16:46:20.44	220.78	42.64	-41.5	-42.9	26.2	3.02e+01	56	34	0	767557632	60	7263
2026-01-04 16:46:21.46	220.62	42.31	-40.8	-42.0	27.8	3.02e+01	60	34	0	769654784	60	6573
2026-01-04 16:46:22.46	220.47	42.00	-40.8	-42.1	27.1	3.02e+01	54	34	0	771227648	60	6610
2026-01-04 16:46:23.48	220.31	41.67	-41.4	-42.8	26.8	3.02e+01	59	34	0	773324800	60	7132
2026-01-04 16:46:24.49	220.17	41.36	-41.1	-42.5	27.4	3.02e+01	60	34	0	774897664	60	6888
2026-01-04 16:46:25.50	220.02	41.04	-41.0	-42.4	26.9	3.02e+01	49	34	0	776994816	60	6814
2026-01-04 16:46:26.51	219.88	40.73	-39.3	-40.5	27.9	3.02e+01	60	34	0	779091968	60	5473
2026-01-04 16:46:27.52	219.74	40.42	-39.6	-40.9	28.2	3.02e+01	53	34	0	780664832	58	6435
2026-01-04 16:46:28.53	219.60	40.12	-39.0	-40.2	28.3	3.02e+01	61	34	0	782761984	58	5967
2026-01-04 16:46:29.54	219.46	39.81	-38.9	-40.2	28.6	3.02e+01	50	34	0	784859136	58	5956
2026-01-04 16:46:30.56	219.33	39.51	-38.2	-39.3	29.5	3.02e+01	50	34	0	786432000	56	6054
2026-01-04 16:46:31.57	219.20	39.21	-37.7	-38.9	29.6	3.02e+01	63	34	0	788529152	56	5729
2026-01-04 16:46:32.58	219.07	38.92	-37.9	-39.0	29.6	3.02e+01	58	34	0	790102016	56	5848
2026-01-04 16:46:33.59	218.95	38.62	-38.0	-39.2	29.5	3.02e+01	61	34	0	792199168	56	5931
2026-01-04 16:46:34.60	218.82	38.33	-37.6	-38.8	29.9	3.02e+01	59	34	0	794296320	56	5674
2026-01-04 16:46:35.61	218.70	38.04	-37.6	-38.8	29.8	3.02e+01	47	34	0	795869184	56	5666
2026-01-04 16:46:36.62	218.58	37.76	-36.7	-37.8	30.6	3.02e+01	56	34	0	797966336	54	5712
2026-01-04 16:46:37.63	218.47	37.48	-36.6	-37.7	30.6	3.02e+01	58	34	0	800063488	52	6343
2026-01-04 16:46:38.64	218.35	37.19	-37.1	-38.3	30.2	3.02e+01	47	34	0	801636352	52	6727
2026-01-04 16:46:39.65	218.24	36.92	-37.2	-38.3	30.2	3.02e+01	61	34	0	803733504	52	6797
2026-01-04 16:46:40.67	218.13	36.64	-37.3	-38.5	30.1	3.02e+01	61	34	0	805306368	52	6924
2026-01-04 16:46:41.68	218.02	36.36	-37.4	-38.6	29.8	3.02e+01	60	34	0	807403520	54	6234
2026-01-04 16:46:42.69	217.92	36.09	-37.7	-38.9	29.6	3.02e+01	58	34	0	809500672	54	6454
2026-01-04 16:46:43.70	217.81	35.82	-37.3	-38.4	30.2	3.02e+01	57	34	0	811073536	54	6124
2026-01-04 16:46:44.71	217.71	35.55	-38.0	-39.1	29.8	3.02e+01	61	34	0	813170688	54	6633
2026-01-04 16:46:45.72	217.61	35.29	-38.1	-39.3	29.5	3.02e+01	54	34	0	814743552	54	6793
2026-01-04 16:46:46.73	217.51	35.03	-38.4	-39.6	29.2	3.02e+01	44	34	0	816840704	56	6251
2026-01-04 16:46:47.75	217.41	34.76	-38.0	-39.2	29.7	3.02e+01	59	34	0	818937856	56	5927
2026-01-04 16:46:48.76	217.32	34.51	-37.9	-39.0	29.7	3.02e+01	57	34	0	820510720	56	5849
2026-01-04 16:46:49.77	217.22	34.25	-38.0	-39.2	29.4	3.02e+01	58	34	0	822607872	56	5948
2026-01-04 16:46:50.78	217.13	34.00	-37.8	-39.0	29.5	3.02e+01	58	34	0	824705024	56	5822
2026-01-04 16:46:51.79	217.04	33.74	-37.6	-38.7	29.7	3.02e+01	58	34	0	826277888	56	5658
2026-01-04 16:46:52.80	216.95	33.49	-37.7	-38.8	29.6	3.02e+01	59	34	0	828375040	56	5717
2026-01-04 16:46:53.81	216.86	33.25	-38.1	-39.3	29.3	3.02e+01	59	34	0	829947904	56	6056
2026-01-04 16:46:54.82	216.77	33.00	-38.0	-39.3	29.1	3.02e+01	62	34	0	832045056	56	6010
2026-01-04 16:46:55.84	216.69	32.76	-37.7	-38.9	29.5	3.02e+01	57	34	0	834142208	56	5748
2026-01-04 16:46:56.85	216.60	32.51	-37.5	-38.7	29.8	3.02e+01	53	34	0	835715072	56	5632
2026-01-04 16:46:57.86	216.52	32.27	-37.5	-38.7	29.9	3.02e+01	59	34	0	837812224	56	5604
2026-01-04 16:46:58.87	216.44	32.04	-37.6	-38.8	29.7	3.02e+01	59	34	0	839909376	56	5711
2026-01-04 16:46:59.88	216.36	31.80	-37.6	-38.8	29.8	3.02e+01	53	34	0	841482240	56	5671
2026-01-04 16:47:00.89	216.28	31.57	-37.9	-39.1	29.5	3.02e+01	59	34	0	843579392	56	5884
2026-01-04 16:47:01.90	216.20	31.34	-38.1	-39.3	29.4	3.02e+01	57	34	0	845152256	56	6064
2026-01-04 16:47:02.91	216.13	31.11	-37.8	-38.9	29.5	3.02e+01	58	34	0	847249408	56	5782
2026-01-04 16:47:03.92	216.05	30.88	-37.9	-39.1	29.6	3.02e+01	65	34	0	849346560	56	5892
2026-01-04 16:47:04.93	215.98	30.65	-38.2	-39.4	29.4	3.02e+01	48	34	0	850919424	56	6080
2026-01-04 16:47:05.94	215.90	30.43	-38.2	-39.4	29.3	3.02e+01	58	34	0	853016576	56	6116
2026-01-04 16:47:06.95	215.83	30.20	-38.2	-39.4	29.3	3.02e+01	58	34	0	854589440	56	6074
2026-01-04 16:47:07.97	215.76	29.98	-38.4	-39.5	29.3	3.02e+01	44	34	0	856686592	56	6196
2026-01-04 16:47:08.98	215.69	29.76	-38.9	-40.1	28.9	3.02e+01	60	34	0	858783744	56	6607
2026-01-04 16:47:09.99	215.62	29.55	-39.1	-40.4	28.7	3.02e+01	58	34	0	860356608	56	6829
2026-01-04 16:47:11.00	215.55	29.33	-39.2	-40.4	28.5	3.02e+01	58	34	0	862453760	58	6124
2026-01-04 16:47:12.01	215.48	29.12	-39.2	-40.5	28.3	3.02e+01	63	34	0	864026624	58	6150
2026-01-04 16:47:13.02	215.42	28.90	-39.3	-40.5	28.0	3.02e+01	53	34	0	866123776	58	6175
2026-01-04 16:47:14.03	215.35	28.69	-39.4	-40.6	28.4	3.02e+01	58	34	0	868220928	58	6244
2026-01-04 16:47:15.04	215.29	28.48	-39.1	-40.3	28.4	3.02e+01	59	34	0	869793792	58	6045
2026-01-04 16:47:16.05	215.23	28.28	-39.3	-40.5	28.3	3.02e+01	51	34	0	871890944	58	6197
2026-01-04 16:47:17.06	215.16	28.07	-39.9	-41.2	27.9	3.02e+01	57	34	0	873988096	58	6667
2026-01-04 16:47:18.07	215.10	27.87	-39.9	-41.1	27.8	3.02e+01	61	34	0	875560960	58	6645
2026-01-04 16:47:19.09	215.04	27.66	-39.8	-41.1	28.0	3.02e+01	60	34	0	877658112	58	6580
2026-01-04 16:47:20.10	214.98	27.46	-39.9	-41.2	27.8	3.02e+01	63	34	0	879230976	58	6708
2026-01-04 16:47:21.11	214.92	27.26	-40.0	-41.3	27.6	3.02e+01	51	34	0	881328128	58	6799
2026-01-04 16:47:22.12	214.86	27.06	-40.1	-41.4	27.5	3.02e+01	58	34	0	883425280	58	6864
2026-01-04 16:47:23.13	214.81	26.87	-40.3	-41.6	27.2	3.02e+01	61	34	0	884998144	58	7038
2026-01-04 16:47:24.14	214.75	26.67	-40.1	-41.4	27.4	3.02e+01	45	34	0	887095296	60	6066
2026-01-04 16:47:25.15	214.69	26.48	-39.7	-40.9	28.0	3.02e+01	56	34	0	888668160	60	5786
2026-01-04 16:47:26.16	214.64	26.29	-39.5	-40.7	28.3	3.02e+01	47	34	0	890765312	60	5657
2026-01-04 16:47:27.17	214.58	26.10	-39.3	-40.5	28.5	3.02e+01	58	34	0	892862464	58	6180
2026-01-04 16:47:28.18	214.53	25.91	-39.4	-40.6	28.4	3.02e+01	59	34	0	894435328	58	6269
2026-01-04 16:47:29.20	214.48	25.72	-39.2	-40.5	28.3	3.02e+01	53	34	0	896532480	58	6150
2026-01-04 16:47:30.21	214.42	25.53	-39.5	-40.8	28.4	3.02e+01	59	34	0	898105344	58	6351
2026-01-04 16:47:31.22	214.37	25.35	-39.3	-40.5	28.6	3.02e+01	59	34	0	900202496	58	6170
2026-01-04 16:47:32.23	214.32	25.16	-39.1	-40.4	28.6	3.02e+01	59	34	0	902299648	58	6084
2026-01-04 16:47:33.24	214.27	24.98	-38.8	-40.1	28.9	3.02e+01	59	34	0	903872512	58	5862
2026-01-04 16:47:34.25	214.22	24.80	-38.9	-40.1	28.8	3.02e+01	45	34	0	905969664	58	5868
2026-01-04 16:47:35.26	214.17	24.62	-38.8	-40.0	28.8	3.02e+01	58	34	0	908066816	58	5834
2026-01-04 16:47:36.27	214.12	24.44	-38.8	-40.1	28.5	3.02e+01	58	34	0	909639680	58	5865
2026-01-04 16:47:37.28	214.08	24.27	-38.4	-39.6	29.1	3.02e+01	45	34	0	911736832	58	5549
2026-01-04 16:47:38.30	214.03	24.09	-38.4	-39.6	29.3	3.02e+01	58	34	0	913309696	56	6209
2026-01-04 16:47:39.31	213.98	23.91	-38.1	-39.3	29.4	3.02e+01	59	34	0	915406848	56	6042
2026-01-04 16:47:40.32	213.93	23.74	-38.0	-39.1	29.4	3.02e+01	62	34	0	917504000	56	5924
2026-01-04 16:47:41.33	213.89	23.57	-37.9	-39.1	29.6	3.02e+01	56	34	0	919076864	56	5891
2026-01-04 16:47:42.34	213.84	23.40	-38.2	-39.4	29.6	3.02e+01	62	34	0	921174016	56	6089
2026-01-04 16:47:43.35	213.80	23.23	-37.9	-39.1	29.6	3.02e+01	57	34	0	922746880	56	5926
2026-01-04 16:47:44.36	213.76	23.06	-37.8	-39.0	29.6	3.02e+01	60	34	0	924844032	56	5809
2026-01-04 16:47:45.37	213.71	22.89	-37.6	-38.8	29.8	3.02e+01	55	34	0	926941184	56	5679
2026-01-04 16:47:46.38	213.67	22.73	-37.3	-38.5	27.8	3.02e+01	60	34	0	928514048	56	5471
2026-01-04 16:47:47.39	213.63	22.56	-37.3	-38.5	30.0	3.02e+01	58	34	0	930611200	54	6137
2026-01-04 16:47:48.40	213.58	22.40	-37.1	-38.2	30.1	3.02e+01	58	34	0	932708352	54	5978
2026-01-04 16:47:49.41	213.54	22.24	-37.4	-38.6	29.9	3.02e+01	59	34	0	934281216	54	6220
2026-01-04 16:47:50.42	213.50	22.07	-37.5	-38.7	29.7	3.02e+01	56	34	0	936378368	54	6317
2026-01-04 16:47:51.43	213.46	21.91	-37.3	-38.4	30.0	3.02e+01	59	34	0	937951232	54	6125
2026-01-04 16:47:52.45	213.42	21.75	-37.5	-38.7	29.8	3.02e+01	60	34	0	940048384	54	6311
2026-01-04 16:47:53.46	213.38	21.59	-37.5	-38.7	29.9	3.02e+01	47	34	0	942145536	54	6332
2026-01-04 16:47:54.47	213.34	21.44	-37.5	-38.7	29.9	3.02e+01	59	34	0	943718400	54	6313
2026-01-04 16:47:55.48	213.30	21.28	-37.3	-38.5	29.8	3.02e+01	59	34	0	945815552	54	6182
2026-01-04 16:47:56.49	213.27	21.12	-37.3	-38.4	30.0	3.02e+01	58	34	0	947912704	54	6124
2026-01-04 16:47:57.50	213.23	20.97	-37.5	-38.7	29.8	3.02e+01	60	34	0	949485568	54	6298
2026-01-04 16:47:58.51	213.19	20.82	-37.3	-38.5	30.0	3.02e+01	50	34	0	951582720	54	6164
2026-01-04 16:47:59.52	213.15	20.67	-37.7	-38.9	29.8	3.02e+01	61	34	0	953155584	54	6458
2026-01-04 16:48:00.53	213.12	20.51	-37.5	-38.7	29.8	3.02e+01	59	34	0	955252736	54	6324
2026-01-04 16:48:01.54	213.08	20.36	-37.5	-38.6	29.7	3.02e+01	56	34	0	957349888	54	6270
2026-01-04 16:48:02.56	213.05	20.21	-37.4	-38.6	29.8	3.02e+01	52	34	0	958922752	54	6255
2026-01-04 16:48:03.57	213.01	20.06	-37.5	-38.7	29.7	3.02e+01	46	34	0	961019904	54	6340
2026-01-04 16:48:04.58	212.98	19.92	-37.8	-39.0	29.6	3.02e+01	59	34	0	962592768	54	6529
2026-01-04 16:48:05.59	212.94	19.77	-37.9	-39.1	29.5	3.02e+01	55	34	0	964689920	54	6613
2026-01-04 16:48:06.60	212.91	19.63	-38.1	-39.3	29.2	3.02e+01	48	34	0	966787072	54	6797
2026-01-04 16:48:07.61	212.87	19.48	-37.8	-39.0	28.8	3.02e+01	56	34	0	968359936	54	6534
2026-01-04 16:48:08.62	212.84	19.34	-37.8	-38.9	29.5	3.02e+01	60	34	0	970457088	54	6491
2026-01-04 16:48:09.63	212.81	19.19	-37.6	-38.8	29.4	3.02e+01	60	34	0	972554240	54	6395
2026-01-04 16:48:10.64	212.77	19.05	-37.5	-38.7	29.6	3.02e+01	58	34	0	974127104	54	6284
2026-01-04 16:48:11.66	212.74	18.91	-37.5	-38.7	29.7	3.02e+01	47	34	0	976224256	54	6305
2026-01-04 16:48:12.67	212.71	18.77	-37.6	-38.8	29.6	3.02e+01	60	34	0	977797120	54	6395
2026-01-04 16:48:13.68	212.68	18.63	-37.7	-38.9	29.6	3.02e+01	58	34	0	979894272	54	6450
2026-01-04 16:48:14.69	212.65	18.49	-37.9	-39.0	29.4	3.02e+01	45	34	0	981991424	54	6568
2026-01-04 16:48:15.70	212.62	18.35	-38.2	-39.4	29.3	3.02e+01	61	34	0	983564288	54	6882
2026-01-04 16:48:16.71	212.59	18.22	-38.2	-39.4	29.3	3.02e+01	61	34	0	985661440	56	6084
2026-01-04 16:48:17.72	212.56	18.08	-38.4	-39.6	29.1	3.02e+01	60	34	0	987234304	56	6224
2026-01-04 16:48:18.73	212.53	17.95	-38.1	-39.3	29.3	3.02e+01	59	34	0	989331456	56	6043
2026-01-04 16:48:19.74	212.50	17.81	-38.2	-39.4	29.2	3.02e+01	56	34	0	991428608	56	6111
2026-01-04 16:48:20.75	212.47	17.68	-38.3	-39.5	29.2	3.02e+01	59	34	0	993001472	56	6175
2026-01-04 16:48:21.76	212.44	17.55	-38.3	-39.5	29.2	3.02e+01	58	34	0	995098624	56	6171
2026-01-04 16:48:22.77	212.41	17.41	-38.2	-39.4	29.3	3.02e+01	45	34	0	997195776	56	6091
2026-01-04 16:48:23.78	212.38	17.28	-38.5	-39.7	28.8	3.02e+01	59	34	0	998768640	56	6339
2026-01-04 16:48:24.79	212.35	17.15	-38.7	-39.9	28.8	3.02e+01	61	34	0	1000865792	56	6464
2026-01-04 16:48:25.81	212.32	17.02	-38.5	-39.7	29.1	3.02e+01	59	34	0	1002438656	56	6342
2026-01-04 16:48:26.82	212.30	16.89	-38.7	-39.9	29.0	3.02e+01	61	34	0	1004535808	56	6447
2026-01-04 16:48:27.83	212.27	16.76	-38.5	-39.7	29.0	3.02e+01	58	34	0	1006632960	56	6347
2026-01-04 16:48:28.84	212.24	16.64	-38.5	-39.7	28.9	3.02e+01	62	34	0	1008205824	56	6336
2026-01-04 16:48:29.85	212.21	16.51	-38.5	-39.7	29.1	3.02e+01	61	34	0	1010302976	56	6319
2026-01-04 16:48:30.86	212.19	16.38	-38.5	-39.7	28.9	3.02e+01	61	34	0	1012400128	56	6315
2026-01-04 16:48:31.87	212.16	16.26	-38.6	-39.8	29.0	3.02e+01	61	34	0	1013972992	56	6373
2026-01-04 16:48:32.88	212.14	16.13	-38.5	-39.7	29.2	3.02e+01	46	34	0	1016070144	56	6299
2026-01-04 16:48:33.90	212.11	16.01	-38.5	-39.7	29.2	3.02e+01	59	34	0	1017643008	56	6316
2026-01-04 16:48:34.91	212.08	15.89	-38.4	-39.6	29.3	3.02e+01	59	34	0	1019740160	56	6262
2026-01-04 16:48:35.92	212.06	15.76	-38.4	-39.6	29.2	3.02e+01	46	34	0	1021837312	56	6212
2026-01-04 16:48:36.93	212.03	15.64	-38.5	-39.7	29.1	3.02e+01	57	34	0	1023410176	56	6279
2026-01-04 16:48:37.94	212.01	15.52	-38.4	-39.6	29.2	3.02e+01	60	34	0	1025507328	56	6229
2026-01-04 16:48:38.95	211.98	15.40	-38.6	-39.8	28.9	3.02e+01	60	34	0	1027080192	56	6396
2026-01-04 16:48:39.96	211.96	15.28	-39.0	-40.3	28.7	3.02e+01	60	34	0	1029177344	56	6741
2026-01-04 16:48:40.97	211.94	15.16	-39.0	-40.3	29.0	3.02e+01	49	34	0	1031274496	56	6743
2026-01-04 16:48:41.98	211.91	15.04	-38.7	-39.9	28.8	3.02e+01	61	34	0	1032847360	56	6498
2026-01-04 16:48:43.00	211.89	14.92	-38.8	-40.1	28.8	3.02e+01	57	34	0	1034944512	56	6579
2026-01-04 16:48:44.01	211.87	14.80	-38.6	-39.8	28.9	3.02e+01	50	34	0	1036517376	56	6420
2026-01-04 16:48:45.02	211.84	14.69	-38.6	-39.8	28.9	3.02e+01	59	34	0	1038614528	56	6386
2026-01-04 16:48:46.03	211.82	14.57	-38.6	-39.9	28.8	3.02e+01	61	34	0	1040711680	56	6447
2026-01-04 16:48:47.04	211.80	14.46	-38.5	-39.7	29.0	3.02e+01	59	34	0	1042284544	56	6342
2026-01-04 16:48:48.05	211.77	14.34	-38.7	-39.9	29.0	3.02e+01	61	34	0	1044381696	56	6477
2026-01-04 16:48:49.06	211.75	14.23	-39.0	-40.3	28.7	3.02e+01	50	34	0	1045954560	56	6733
2026-01-04 16:48:50.07	211.73	14.11	-38.6	-39.9	28.8	3.02e+01	58	34	0	1048051712	56	6440
2026-01-04 16:48:51.08	211.71	14.00	-38.9	-40.1	28.8	3.02e+01	61	34	0	1050148864	56	6638
2026-01-04 16:48:52.09	211.69	13.89	-38.9	-40.2	28.9	3.02e+01	45	34	0	1051721728	58	5942
2026-01-04 16:48:53.11	211.66	13.77	-39.1	-40.3	28.7	3.02e+01	58	34	0	1053818880	58	6051
2026-01-04 16:48:54.12	211.64	13.66	-39.3	-40.5	28.6	3.02e+01	57	34	0	1055916032	58	6178
2026-01-04 16:48:55.13	211.62	13.55	-39.0	-40.2	28.8	3.02e+01	62	34	0	1057488896	58	5970
2026-01-04 16:48:56.14	211.60	13.44	-38.7	-39.9	29.0	3.02e+01	56	34	0	1059586048	58	5762
2026-01-04 16:48:57.15	211.58	13.33	-38.5	-39.7	29.1	3.02e+01	50	34	0	1061158912	58	5657
2026-01-04 16:48:58.16	211.56	13.22	-38.4	-39.6	29.0	3.02e+01	57	34	0	1063256064	58	5549
2026-01-04 16:48:59.17	211.54	13.11	-38.6	-39.8	29.1	3.02e+01	61	34	0	1065353216	58	5678
2026-01-04 16:49:00.18	211.52	13.01	-38.5	-39.8	29.0	3.02e+01	50	34	0	1066926080	56	6358
2026-01-04 16:49:01.19	211.50	12.90	-38.4	-39.6	29.1	3.02e+01	57	34	0	1069023232	56	6271
2026-01-04 16:49:02.20	211.48	12.79	-38.7	-39.9	28.8	3.02e+01	59	34	0	1070596096	56	6487
2026-01-04 16:49:03.22	211.46	12.68	-38.5	-39.7	29.1	3.02e+01	60	34	0	1072693248	56	6338
2026-01-04 16:49:04.23	211.44	12.58	-38.5	-39.7	29.0	3.02e+01	59	34	0	1074790400	56	6301
2026-01-04 16:49:05.24	211.42	12.47	-38.5	-39.7	29.2	3.02e+01	45	34	0	1076363264	56	6331
2026-01-04 16:49:06.25	211.40	12.37	-38.6	-39.8	29.2	3.02e+01	60	34	0	1078460416	56	6403
2026-01-04 16:49:07.26	211.38	12.26	-38.6	-39.8	29.0	3.02e+01	61	34	0	1080557568	56	6377
2026-01-04 16:49:08.27	211.36	12.16	-38.0	-39.2	29.3	3.02e+01	57	34	0	1082130432	56	5973
2026-01-04 16:49:09.28	211.35	12.05	-38.2	-39.4	29.1	3.02e+01	59	34	0	1084227584	56	6092
2026-01-04 16:49:10.29	211.33	11.95	-38.2	-39.4	29.2	3.02e+01	45	34	0	1085800448	56	6081
2026-01-04 16:49:11.30	211.31	11.85	-38.1	-39.3	29.2	3.02e+01	57	34	0	1087897600	56	6030
2026-01-04 16:49:12.31	211.29	11.75	-38.1	-39.2	29.2	3.02e+01	59	34	0	1089994752	56	5994
2026-01-04 16:49:13.32	211.27	11.64	-38.4	-39.6	29.1	3.02e+01	53	34	0	1091567616	56	6207
2026-01-04 16:49:14.34	211.26	11.54	-38.2	-39.4	29.3	3.02e+01	57	34	0	1093664768	56	6081
2026-01-04 16:49:15.35	211.24	11.44	-38.5	-39.7	29.0	3.02e+01	62	34	0	1095237632	56	6300
2026-01-04 16:49:16.36	211.22	11.34	-38.3	-39.5	29.2	3.02e+01	60	34	0	1097334784	56	6156
2026-01-04 16:49:17.37	211.20	11.24	-38.4	-39.6	29.1	3.02e+01	59	34	0	1099431936	56	6236
2026-01-04 16:49:18.38	211.19	11.14	-38.4	-39.6	29.0	3.02e+01	46	34	0	1101004800	56	6268
2026-01-04 16:49:19.39	211.17	11.04	-38.5	-39.7	28.8	3.02e+01	52	34	0	1103101952	56	6321
2026-01-04 16:49:20.40	211.15	10.94	-38.9	-40.1	28.8	3.02e+01	61	34	0	1105199104	56	6610
2026-01-04 16:49:21.41	211.14	10.85	-38.3	-39.5	29.1	3.02e+01	48	34	0	1106771968	56	6187
2026-01-04 16:49:22.42	211.12	10.75	-38.4	-39.6	29.1	3.02e+01	61	34	0	1108869120	56	6227
2026-01-04 16:49:23.43	211.10	10.65	-38.4	-39.6	28.9	3.02e+01	58	34	0	1110441984	56	6267
2026-01-04 16:49:24.45	211.09	10.55	-38.3	-39.5	29.0	3.02e+01	57	34	0	1112539136	56	6205
2026-01-04 16:49:25.46	211.07	10.46	-38.4	-39.6	29.1	3.02e+01	56	34	0	1114636288	56	6251
2026-01-04 16:49:26.47	211.05	10.36	-38.3	-39.5	29.2	3.02e+01	55	34	0	1116209152	56	6171
2026-01-04 16:49:27.48	211.04	10.26	-38.2	-39.4	29.3	3.02e+01	59	34	0	1118306304	56	6086
2026-01-04 16:49:28.49	211.02	10.17	-38.1	-39.3	29.3	3.02e+01	60	34	0	1120403456	56	6029
2026-01-04 16:49:29.50	211.01	10.07	-38.2	-39.4	29.2	3.02e+01	47	34	0	1121976320	56	6109
