passes_logs/2026/01/04/R4.6S_Anadyr_2ch/R4.6S_Anadyr_2ch__20260104_145035_SUOMI_NPP_rec.log

#Pass ID: 20260104_145035_SUOMI NPP
#Satellite: SUOMI NPP
#Configuration: NPP
#almurnet v.1.7.20251203
#Start time: 2026-01-04 14:50:37

#Version: 2.2.20231116
#Station: R4.6S_Anadyr_2ch
#Location: 177.4865 lon 64.73178 lat
#TLE: 1 37849U 11061A   25350.92281687  .00000071  00000+0  54882-4 0  9996
#TLE: 2 37849  98.7777 288.2268 0002366 112.8570 247.2856 14.19515404732588

#Time	Az	El	Level	Level2	SNR	BER	BlckErr	Temp	State	Recorded	gain1	gain2
2026-01-04 14:50:37.12	20.65	0.10	-53.4	-66.3	3.4	1.51e+00	0	34	0	0	60	97270
2026-01-04 14:50:38.12	20.65	0.16	-52.7	-68.3	3.6	1.51e+00	0	35	104	0	60	126713
2026-01-04 14:50:39.13	20.65	0.22	-52.4	-68.0	3.6	1.51e+00	0	35	104	0	60	121884
2026-01-04 14:50:40.15	20.66	0.29	-52.3	-67.9	3.6	1.51e+00	0	35	104	0	60	120850
2026-01-04 14:50:41.16	20.66	0.35	-52.2	-67.8	3.6	1.51e+00	0	35	104	0	60	119515
2026-01-04 14:50:42.17	20.66	0.41	-52.2	-67.8	3.6	1.51e+00	0	35	104	0	60	120094
2026-01-04 14:50:43.18	20.67	0.47	-52.2	-67.7	3.6	1.51e+00	0	35	104	0	60	118966
2026-01-04 14:50:44.19	20.67	0.53	-52.1	-67.7	3.6	1.51e+00	0	35	104	0	60	118460
2026-01-04 14:50:45.20	20.67	0.59	-52.0	-67.6	3.5	1.51e+00	0	35	104	0	60	116578
2026-01-04 14:50:46.22	20.68	0.65	-52.0	-67.6	3.6	1.51e+00	0	35	104	0	60	116344
2026-01-04 14:50:47.23	20.68	0.71	-51.7	-67.3	3.6	1.51e+00	0	35	104	0	60	112549
2026-01-04 14:50:48.24	20.68	0.78	-51.5	-67.1	3.6	1.51e+00	0	35	104	0	60	109871
2026-01-04 14:50:49.25	20.69	0.84	-51.4	-66.9	3.6	1.51e+00	0	35	104	0	60	108314
2026-01-04 14:50:50.26	20.69	0.90	-51.1	-66.7	3.6	1.51e+00	0	35	104	0	60	105456
2026-01-04 14:50:51.27	20.69	0.96	-50.9	-66.5	3.6	1.51e+00	0	35	104	0	60	102919
2026-01-04 14:50:52.28	20.70	1.02	-50.6	-66.2	3.6	1.51e+00	0	35	104	0	60	99335
2026-01-04 14:50:53.29	20.70	1.09	-50.7	-66.2	3.6	1.51e+00	0	35	104	0	60	99177
2026-01-04 14:50:54.30	20.70	1.15	-50.6	-66.2	3.6	1.51e+00	0	35	104	0	60	99338
2026-01-04 14:50:55.31	20.70	1.21	-50.7	-66.2	3.6	1.51e+00	0	35	104	0	60	99056
2026-01-04 14:50:56.32	20.71	1.27	-50.7	-66.1	3.6	1.51e+00	0	35	104	0	60	98691
2026-01-04 14:50:57.34	20.71	1.34	-50.6	-66.1	3.6	1.51e+00	0	35	104	0	60	98717
2026-01-04 14:50:58.35	20.71	1.40	-50.6	-66.1	3.6	1.51e+00	0	35	104	0	60	98174
2026-01-04 14:50:59.36	20.72	1.46	-50.6	-66.1	3.6	1.51e+00	0	35	104	0	60	97972
2026-01-04 14:51:00.37	20.72	1.53	-50.6	-66.1	3.6	1.51e+00	0	35	104	0	60	98187
2026-01-04 14:51:01.38	20.72	1.59	-50.6	-66.1	3.6	1.51e+00	0	35	104	0	60	98046
2026-01-04 14:51:02.39	20.73	1.65	-50.6	-66.0	3.6	1.51e+00	0	35	104	0	60	97785
2026-01-04 14:51:03.40	20.73	1.72	-50.6	-66.2	3.6	1.51e+00	0	35	104	0	60	99354
2026-01-04 14:51:04.41	20.73	1.78	-50.6	-66.2	3.6	1.51e+00	0	35	104	0	60	99629
2026-01-04 14:51:05.42	20.74	1.85	-50.6	-66.2	3.6	1.51e+00	0	35	104	0	60	99486
2026-01-04 14:51:06.43	20.74	1.91	-50.6	-66.2	3.6	1.51e+00	0	36	104	0	60	99318
2026-01-04 14:51:07.44	20.74	1.97	-50.6	-66.1	3.6	1.51e+00	0	36	104	0	60	98783
2026-01-04 14:51:08.45	20.75	2.04	-50.6	-66.2	3.6	1.51e+00	0	35	104	0	60	99076
2026-01-04 14:51:09.46	20.75	2.10	-50.6	-66.1	3.6	1.51e+00	0	36	104	0	60	98732
2026-01-04 14:51:10.47	20.75	2.17	-50.6	-66.1	3.5	1.51e+00	0	35	104	0	60	98170
2026-01-04 14:51:11.48	20.75	2.23	-50.6	-65.9	3.6	1.51e+00	0	36	104	0	60	96073
2026-01-04 14:51:12.49	20.76	2.30	-50.6	-65.6	3.6	1.51e+00	0	36	104	0	60	92788
2026-01-04 14:51:13.50	20.76	2.36	-50.6	-65.2	3.5	1.51e+00	0	36	104	0	60	89105
2026-01-04 14:51:14.52	20.76	2.43	-50.6	-65.2	3.6	1.51e+00	0	36	104	0	60	88704
2026-01-04 14:51:15.53	20.77	2.49	-50.6	-65.0	3.6	1.51e+00	0	36	104	0	60	86800
2026-01-04 14:51:16.54	20.77	2.56	-50.6	-64.9	3.6	1.51e+00	0	35	104	0	60	86178
2026-01-04 14:51:17.55	20.77	2.63	-50.6	-65.3	3.6	1.51e+00	0	35	104	0	60	89419
2026-01-04 14:51:18.56	20.78	2.69	-50.6	-65.0	3.6	1.51e+00	0	36	104	0	60	87127
2026-01-04 14:51:19.57	20.78	2.76	-50.5	-63.7	3.6	1.51e+00	0	36	104	0	60	74833
2026-01-04 14:51:20.58	20.78	2.82	-50.4	-61.8	4.4	1.42e+00	4	36	104	0	60	59681
2026-01-04 14:51:21.59	20.79	2.89	-50.3	-59.3	5.2	8.80e-01	0	35	0	1048576	60	45092
2026-01-04 14:51:22.60	20.79	2.96	-50.1	-58.5	5.7	2.64e-01	0	36	0	3145728	60	40912
2026-01-04 14:51:23.61	20.79	3.02	-49.4	-55.4	8.8	4.70e-02	13	36	0	5242880	60	28607
2026-01-04 14:51:24.62	20.79	3.09	-49.1	-54.4	10.4	1.95e-02	0	36	0	6291456	60	25694
2026-01-04 14:51:25.63	20.80	3.16	-48.5	-52.8	12.2	1.68e-03	15	36	0	8388608	60	21399
2026-01-04 14:51:26.65	20.80	3.23	-48.2	-52.2	12.6	1.96e-04	0	36	0	10485760	60	19973
2026-01-04 14:51:27.66	20.80	3.29	-48.0	-51.8	13.1	5.03e-05	90	36	0	12582912	60	18965
2026-01-04 14:51:28.67	20.81	3.36	-47.9	-51.5	13.4	3.96e-05	0	36	0	14680064	60	18398
2026-01-04 14:51:29.68	20.81	3.43	-48.2	-52.2	12.8	5.64e-05	0	36	0	15728640	60	19849
2026-01-04 14:51:30.69	20.81	3.50	-48.1	-51.9	12.9	4.50e-05	16	36	0	17825792	60	19223
2026-01-04 14:51:31.70	20.81	3.56	-48.2	-52.2	12.8	6.02e-05	0	36	0	19922944	60	19908
2026-01-04 14:51:32.71	20.82	3.63	-48.7	-53.5	11.1	5.21e-04	15	36	0	22020096	60	22965
2026-01-04 14:51:33.72	20.82	3.70	-46.9	-49.6	15.5	2.01e-04	0	36	0	24117248	60	14677
2026-01-04 14:51:34.73	20.82	3.77	-46.5	-49.0	15.9	0.00e+00	37	36	0	25165824	60	13771
2026-01-04 14:51:35.74	20.83	3.84	-50.4	-61.1	3.6	3.22e-01	0	36	104	27262976	60	55656
2026-01-04 14:51:36.76	20.83	3.91	-47.0	-49.7	5.9	1.48e+00	0	36	104	27262976	60	14963
2026-01-04 14:51:37.77	20.83	3.98	-50.2	-59.8	3.5	0.00e+00	15	36	0	27262976	60	47488
2026-01-04 14:51:38.78	20.83	4.05	-47.5	-50.8	5.9	1.46e+00	0	36	104	27262976	60	16965
2026-01-04 14:51:39.79	20.84	4.12	-46.7	-49.3	15.8	0.00e+00	18	36	0	27262976	60	14253
2026-01-04 14:51:40.80	20.84	4.19	-46.3	-48.7	16.5	0.00e+00	0	36	0	29360128	60	13262
2026-01-04 14:51:41.81	20.84	4.25	-46.2	-48.6	16.7	0.00e+00	92	36	0	30408704	60	13069
2026-01-04 14:51:42.82	20.85	4.32	-46.3	-48.7	16.5	0.00e+00	0	36	0	32505856	60	13262
2026-01-04 14:51:43.83	20.85	4.39	-46.6	-49.2	15.8	0.00e+00	0	36	0	34603008	60	14017
2026-01-04 14:51:44.84	20.85	4.47	-45.8	-47.8	17.5	0.00e+00	0	36	0	36700160	60	12031
2026-01-04 14:51:45.85	20.85	4.54	-45.5	-47.6	17.4	0.00e+00	0	36	0	38797312	60	11633
2026-01-04 14:51:46.87	20.86	4.61	-45.9	-48.0	17.5	0.00e+00	70	36	0	39845888	60	12311
2026-01-04 14:51:47.88	20.86	4.68	-46.3	-48.6	16.5	0.00e+00	0	36	0	41943040	60	13132
2026-01-04 14:51:48.89	20.86	4.75	-46.2	-48.5	16.8	0.00e+00	92	36	0	44040192	60	12913
2026-01-04 14:51:49.90	20.87	4.82	-45.9	-48.0	16.8	0.00e+00	0	36	0	46137344	60	12199
2026-01-04 14:51:50.91	20.87	4.89	-46.3	-48.6	17.1	0.00e+00	0	36	0	48234496	60	13166
2026-01-04 14:51:51.92	20.87	4.96	-45.9	-48.0	17.0	0.00e+00	0	36	0	49283072	60	12271
2026-01-04 14:51:52.93	20.87	5.04	-45.7	-47.7	17.3	0.00e+00	0	36	0	51380224	60	11874
2026-01-04 14:51:53.94	20.88	5.11	-46.2	-48.4	17.0	0.00e+00	19	36	0	53477376	60	12778
2026-01-04 14:51:54.96	20.88	5.18	-46.0	-48.1	17.2	0.00e+00	0	36	0	55574528	60	12347
2026-01-04 14:51:55.97	20.88	5.25	-46.1	-48.2	17.2	0.00e+00	42	36	0	57671680	60	12519
2026-01-04 14:51:56.98	20.89	5.33	-45.9	-48.0	17.5	0.00e+00	0	36	0	58720256	60	12179
2026-01-04 14:51:57.99	20.89	5.40	-45.8	-47.8	17.9	0.00e+00	0	36	0	60817408	60	12021
2026-01-04 14:51:59.00	20.89	5.47	-45.5	-47.5	17.5	0.00e+00	0	36	0	62914560	60	11533
2026-01-04 14:52:00.01	20.89	5.54	-45.6	-47.5	17.9	0.00e+00	0	36	0	65011712	60	11622
2026-01-04 14:52:01.02	20.90	5.62	-45.5	-47.4	18.0	0.00e+00	0	36	0	67108864	60	11397
2026-01-04 14:52:02.03	20.90	5.69	-45.3	-47.1	18.3	0.00e+00	0	36	0	69206016	60	11033
2026-01-04 14:52:03.04	20.90	5.77	-45.1	-46.9	18.4	0.00e+00	0	36	0	70254592	60	10837
2026-01-04 14:52:04.05	20.90	5.84	-45.3	-47.1	18.3	0.00e+00	0	36	0	72351744	60	11015
2026-01-04 14:52:05.06	20.91	5.91	-45.2	-47.0	18.3	0.00e+00	73	36	0	74448896	60	10918
2026-01-04 14:52:06.08	20.91	5.99	-45.1	-46.9	18.6	0.00e+00	0	36	0	76546048	60	10775
2026-01-04 14:52:07.09	20.91	6.06	-45.3	-47.2	18.3	0.00e+00	0	36	0	78643200	60	11118
2026-01-04 14:52:08.10	20.91	6.14	-45.5	-47.4	17.9	0.00e+00	15	36	0	79691776	60	11492
2026-01-04 14:52:09.11	20.92	6.21	-45.0	-46.7	18.6	0.00e+00	0	36	0	81788928	60	10605
2026-01-04 14:52:10.12	20.92	6.29	-45.3	-47.2	18.2	0.00e+00	85	36	0	83886080	60	11165
2026-01-04 14:52:11.13	20.92	6.36	-45.3	-47.1	18.3	0.00e+00	0	36	0	85983232	60	11079
2026-01-04 14:52:12.14	20.92	6.44	-45.2	-47.0	18.3	0.00e+00	91	36	0	88080384	60	10965
2026-01-04 14:52:13.15	20.93	6.52	-45.0	-46.8	18.5	0.00e+00	16	36	0	89128960	60	10609
2026-01-04 14:52:14.16	20.93	6.59	-45.0	-46.7	18.6	0.00e+00	0	36	0	91226112	60	10601
2026-01-04 14:52:15.18	20.93	6.67	-44.9	-46.7	18.7	0.00e+00	0	36	0	93323264	60	10490
2026-01-04 14:52:16.19	20.93	6.75	-45.2	-47.0	18.4	0.00e+00	0	36	0	95420416	60	10948
2026-01-04 14:52:17.20	20.94	6.82	-45.3	-47.1	18.4	0.00e+00	18	36	0	97517568	60	10999
2026-01-04 14:52:18.21	20.94	6.90	-45.0	-46.7	18.6	0.00e+00	0	36	0	98566144	60	10583
2026-01-04 14:52:19.22	20.94	6.98	-45.0	-46.8	18.6	0.00e+00	91	36	0	100663296	60	10623
2026-01-04 14:52:20.23	20.94	7.06	-44.8	-46.5	18.9	0.00e+00	0	36	0	102760448	60	10330
2026-01-04 14:52:21.24	20.95	7.13	-44.9	-46.6	18.8	0.00e+00	0	36	0	104857600	60	10442
2026-01-04 14:52:22.25	20.95	7.21	-45.0	-46.7	18.7	0.00e+00	0	36	0	106954752	60	10583
2026-01-04 14:52:23.27	20.95	7.29	-44.9	-46.6	18.9	0.00e+00	0	36	0	108003328	60	10453
2026-01-04 14:52:24.28	20.95	7.37	-45.1	-46.9	18.6	0.00e+00	68	36	0	110100480	60	10748
2026-01-04 14:52:25.29	20.96	7.45	-44.9	-46.5	18.7	0.00e+00	0	36	0	112197632	60	10357
2026-01-04 14:52:26.30	20.96	7.53	-45.3	-47.1	18.5	0.00e+00	91	36	0	114294784	60	10999
2026-01-04 14:52:27.31	20.96	7.61	-45.3	-47.1	18.4	0.00e+00	0	36	0	116391936	60	11071
2026-01-04 14:52:28.32	20.96	7.69	-44.9	-46.5	18.9	0.00e+00	0	36	0	117440512	60	10351
2026-01-04 14:52:29.33	20.97	7.77	-44.9	-46.6	18.8	0.00e+00	0	36	0	119537664	60	10370
2026-01-04 14:52:30.34	20.97	7.85	-45.0	-46.7	18.8	0.00e+00	0	36	0	121634816	60	10510
2026-01-04 14:52:31.35	20.97	7.93	-45.3	-47.1	18.4	0.00e+00	22	36	0	123731968	60	11094
2026-01-04 14:52:32.37	20.97	8.01	-45.1	-46.8	18.9	0.00e+00	0	36	0	125829120	60	10718
2026-01-04 14:52:33.38	20.98	8.09	-44.7	-46.3	19.2	0.00e+00	72	36	0	126877696	60	10078
2026-01-04 14:52:34.39	20.98	8.17	-44.7	-46.4	19.1	0.00e+00	0	36	0	128974848	60	10170
2026-01-04 14:52:35.40	20.98	8.25	-44.8	-46.4	19.1	0.00e+00	0	36	0	131072000	60	10236
2026-01-04 14:52:36.41	20.98	8.33	-44.9	-46.6	19.0	0.00e+00	0	36	0	133169152	60	10402
2026-01-04 14:52:37.42	20.99	8.41	-44.7	-46.4	19.2	0.00e+00	0	36	0	135266304	60	10130
2026-01-04 14:52:38.43	20.99	8.50	-44.5	-46.1	19.4	0.00e+00	74	36	0	137363456	60	9874
2026-01-04 14:52:39.44	20.99	8.58	-44.5	-46.1	19.4	0.00e+00	0	36	0	138412032	60	9841
2026-01-04 14:52:40.45	20.99	8.66	-44.8	-46.5	19.1	0.00e+00	91	36	0	140509184	60	10283
2026-01-04 14:52:41.46	20.99	8.75	-44.4	-46.0	19.4	0.00e+00	0	36	0	142606336	60	9698
2026-01-04 14:52:42.47	21.00	8.83	-45.0	-46.7	18.8	0.00e+00	89	36	0	144703488	60	10512
2026-01-04 14:52:43.48	21.00	8.91	-44.7	-46.4	19.1	0.00e+00	0	36	0	146800640	60	10152
2026-01-04 14:52:44.49	21.00	9.00	-44.6	-46.2	19.3	0.00e+00	0	36	0	147849216	60	9951
2026-01-04 14:52:45.51	21.00	9.08	-44.5	-46.1	19.4	0.00e+00	15	36	0	149946368	60	9827
2026-01-04 14:52:46.52	21.01	9.17	-44.3	-45.8	19.7	0.00e+00	0	36	0	152043520	60	9493
2026-01-04 14:52:47.53	21.01	9.25	-44.2	-45.7	19.7	0.00e+00	92	36	0	154140672	60	9419
2026-01-04 14:52:48.54	21.01	9.33	-44.5	-46.0	19.5	0.00e+00	0	36	0	156237824	60	9739
2026-01-04 14:52:49.55	21.01	9.42	-44.4	-45.9	19.6	0.00e+00	48	36	0	157286400	60	9589
2026-01-04 14:52:50.56	21.01	9.51	-44.3	-45.8	19.6	0.00e+00	0	36	0	159383552	60	9540
2026-01-04 14:52:51.57	21.02	9.59	-44.2	-45.6	19.9	0.00e+00	0	36	0	161480704	60	9342
2026-01-04 14:52:52.58	21.02	9.68	-44.2	-45.7	19.8	0.00e+00	20	36	0	163577856	60	9399
2026-01-04 14:52:53.59	21.02	9.76	-44.3	-45.8	19.7	0.00e+00	0	36	0	165675008	60	9516
2026-01-04 14:52:54.61	21.02	9.85	-44.1	-45.6	19.9	0.00e+00	21	36	0	166723584	60	9261
2026-01-04 14:52:55.62	21.02	9.94	-44.2	-45.6	19.9	0.00e+00	0	36	0	168820736	60	9324
2026-01-04 14:52:56.63	21.03	10.03	-44.2	-45.6	20.0	0.00e+00	92	36	0	170917888	60	9326
2026-01-04 14:52:57.64	21.03	10.11	-43.9	-45.4	20.1	0.00e+00	0	36	0	173015040	60	9041
2026-01-04 14:52:58.65	21.03	10.20	-43.9	-45.3	20.2	0.00e+00	0	36	0	175112192	60	8997
2026-01-04 14:52:59.66	21.03	10.29	-43.9	-45.3	20.2	0.00e+00	0	36	0	177209344	60	8952
2026-01-04 14:53:00.67	21.04	10.38	-43.9	-45.3	20.3	0.00e+00	0	36	0	178257920	60	8973
2026-01-04 14:53:01.68	21.04	10.47	-43.9	-45.3	20.2	0.00e+00	21	36	0	180355072	60	8936
2026-01-04 14:53:02.69	21.04	10.56	-43.7	-45.0	20.5	0.00e+00	0	36	0	182452224	60	8707
2026-01-04 14:53:03.70	21.04	10.65	-44.0	-45.4	20.1	0.00e+00	92	36	0	184549376	60	9103
2026-01-04 14:53:04.72	21.04	10.74	-43.7	-45.1	20.4	0.00e+00	0	36	0	186646528	60	8773
2026-01-04 14:53:05.73	21.04	10.83	-43.6	-45.0	20.5	0.00e+00	0	36	0	187695104	60	8666
2026-01-04 14:53:06.74	21.05	10.92	-43.6	-44.9	20.5	0.00e+00	0	36	0	189792256	60	8616
2026-01-04 14:53:07.75	21.05	11.01	-43.8	-45.2	20.6	0.00e+00	0	36	0	191889408	60	8885
2026-01-04 14:53:08.76	21.05	11.10	-43.6	-45.0	20.5	0.00e+00	20	36	0	193986560	60	8663
2026-01-04 14:53:09.77	21.05	11.19	-43.5	-44.9	20.7	0.00e+00	0	36	0	196083712	60	8536
2026-01-04 14:53:10.78	21.05	11.28	-43.4	-44.7	20.7	0.00e+00	92	36	0	197132288	60	8396
2026-01-04 14:53:11.79	21.06	11.38	-43.4	-44.7	20.8	0.00e+00	0	36	0	199229440	60	8414
2026-01-04 14:53:12.80	21.06	11.47	-43.4	-44.8	20.7	0.00e+00	0	36	0	201326592	60	8426
2026-01-04 14:53:13.81	21.06	11.56	-43.3	-44.6	20.9	0.00e+00	0	36	0	203423744	60	8264
2026-01-04 14:53:14.83	21.06	11.66	-43.4	-44.7	20.9	0.00e+00	0	36	0	205520896	60	8341
2026-01-04 14:53:15.84	21.06	11.75	-43.2	-44.5	20.9	0.00e+00	72	36	0	206569472	60	8186
2026-01-04 14:53:16.85	21.07	11.84	-43.2	-44.5	21.0	0.00e+00	0	36	0	208666624	60	8165
2026-01-04 14:53:17.86	21.07	11.94	-43.2	-44.4	21.1	0.00e+00	92	36	0	210763776	60	8124
2026-01-04 14:53:18.87	21.07	12.03	-42.9	-44.2	21.3	0.00e+00	0	36	0	212860928	60	7878
2026-01-04 14:53:19.88	21.07	12.13	-43.1	-44.3	21.2	0.00e+00	0	36	0	214958080	60	8026
2026-01-04 14:53:20.89	21.07	12.22	-43.3	-44.6	21.1	0.00e+00	0	36	0	217055232	60	8266
2026-01-04 14:53:21.90	21.07	12.32	-43.0	-44.3	21.3	0.00e+00	0	36	0	218103808	60	7961
2026-01-04 14:53:22.91	21.08	12.42	-43.1	-44.4	21.1	0.00e+00	23	36	0	220200960	60	8092
2026-01-04 14:53:23.93	21.08	12.51	-43.0	-44.3	21.2	0.00e+00	0	36	0	222298112	60	7960
2026-01-04 14:53:24.94	21.08	12.61	-42.9	-44.1	21.4	0.00e+00	90	36	0	224395264	60	7824
2026-01-04 14:53:25.95	21.08	12.71	-42.9	-44.1	21.4	0.00e+00	0	36	0	226492416	60	7774
2026-01-04 14:53:26.96	21.08	12.81	-43.0	-44.2	21.3	0.00e+00	0	36	0	227540992	60	7919
2026-01-04 14:53:27.97	21.08	12.90	-42.7	-43.9	21.6	0.00e+00	0	36	0	229638144	60	7606
2026-01-04 14:53:28.98	21.08	13.00	-42.9	-44.1	21.4	0.00e+00	0	36	0	231735296	60	7839
2026-01-04 14:53:29.99	21.09	13.10	-42.6	-43.7	21.7	0.00e+00	0	36	0	233832448	60	7500
2026-01-04 14:53:31.00	21.09	13.20	-42.8	-44.0	21.7	0.00e+00	0	36	0	235929600	60	7724
2026-01-04 14:53:32.01	21.09	13.30	-42.6	-43.7	21.7	0.00e+00	30	36	0	236978176	60	7492
2026-01-04 14:53:33.03	21.09	13.40	-42.6	-43.8	21.7	0.00e+00	0	36	0	239075328	60	7520
2026-01-04 14:53:34.04	21.09	13.50	-42.4	-43.5	21.8	0.00e+00	33	36	0	241172480	60	7334
2026-01-04 14:53:35.05	21.09	13.60	-42.5	-43.6	21.8	0.00e+00	0	36	0	243269632	60	7399
2026-01-04 14:53:36.06	21.09	13.71	-42.2	-43.3	22.0	0.00e+00	0	36	0	245366784	60	7136
2026-01-04 14:53:37.07	21.10	13.81	-42.2	-43.3	22.0	0.00e+00	0	36	0	246415360	60	7165
2026-01-04 14:53:38.08	21.10	13.91	-42.1	-43.1	22.2	0.00e+00	0	36	0	248512512	60	7002
2026-01-04 14:53:39.09	21.10	14.01	-41.9	-43.0	22.3	0.00e+00	64	36	0	250609664	60	6877
2026-01-04 14:53:40.10	21.10	14.12	-42.1	-43.1	22.1	0.00e+00	0	36	0	252706816	60	7007
2026-01-04 14:53:41.11	21.10	14.22	-42.2	-43.3	22.2	0.00e+00	90	36	0	254803968	60	7111
2026-01-04 14:53:42.13	21.10	14.33	-42.1	-43.2	22.1	0.00e+00	0	36	0	255852544	60	7060
2026-01-04 14:53:43.14	21.10	14.43	-42.4	-43.5	22.1	0.00e+00	0	36	0	257949696	60	7291
2026-01-04 14:53:44.15	21.11	14.53	-41.9	-42.9	22.4	0.00e+00	9	36	0	260046848	60	6817
2026-01-04 14:53:45.16	21.11	14.64	-41.9	-42.9	22.5	0.00e+00	26	36	0	262144000	60	6842
2026-01-04 14:53:46.17	21.11	14.75	-41.8	-42.8	22.5	0.00e+00	92	36	0	264241152	60	6744
2026-01-04 14:53:47.18	21.11	14.85	-41.7	-42.7	22.5	0.00e+00	0	36	0	266338304	60	6683
2026-01-04 14:53:48.19	21.11	14.96	-41.8	-42.8	22.6	0.00e+00	92	36	0	267386880	60	6725
2026-01-04 14:53:49.20	21.11	15.07	-41.8	-42.8	22.5	0.00e+00	0	36	0	269484032	60	6723
2026-01-04 14:53:50.21	21.11	15.17	-41.8	-42.9	22.6	0.00e+00	0	36	0	271581184	60	6779
2026-01-04 14:53:51.23	21.11	15.28	-41.9	-43.0	22.4	0.00e+00	0	36	0	273678336	60	6856
2026-01-04 14:53:52.24	21.11	15.39	-41.7	-42.7	22.5	0.00e+00	0	36	0	275775488	60	6648
2026-01-04 14:53:53.25	21.12	15.50	-41.8	-42.8	22.5	0.00e+00	25	36	0	276824064	60	6748
2026-01-04 14:53:54.24	21.12	15.61	-41.8	-42.8	22.3	0.00e+00	0	36	0	278921216	60	6755
2026-01-04 14:53:55.25	21.12	15.72	-41.8	-42.8	22.6	0.00e+00	91	36	0	281018368	60	6743
2026-01-04 14:53:56.27	21.12	15.83	-41.7	-42.8	22.2	0.00e+00	0	36	0	283115520	60	6711
2026-01-04 14:53:57.28	21.12	15.94	-41.4	-42.4	22.5	0.00e+00	0	36	0	285212672	60	6433
2026-01-04 14:53:58.29	21.12	16.06	-41.7	-42.7	22.3	0.00e+00	0	36	0	286261248	60	6665
2026-01-04 14:53:59.30	21.12	16.17	-41.7	-42.7	22.4	0.00e+00	0	36	0	288358400	60	6688
2026-01-04 14:54:00.31	21.12	16.28	-41.7	-42.7	22.7	0.00e+00	23	36	0	290455552	60	6660
2026-01-04 14:54:01.32	21.12	16.39	-41.7	-42.7	22.6	0.00e+00	0	36	0	292552704	60	6656
2026-01-04 14:54:02.34	21.12	16.51	-41.6	-42.6	22.7	0.00e+00	73	36	0	294649856	60	6593
2026-01-04 14:54:03.35	21.12	16.62	-41.5	-42.5	22.8	0.00e+00	0	36	0	295698432	60	6495
2026-01-04 14:54:04.36	21.13	16.74	-41.6	-42.7	22.8	0.00e+00	0	36	0	297795584	60	6637
2026-01-04 14:54:05.37	21.13	16.85	-41.5	-42.5	22.9	0.00e+00	0	36	0	299892736	60	6484
2026-01-04 14:54:06.38	21.13	16.97	-41.5	-42.5	22.9	0.00e+00	0	36	0	301989888	60	6539
2026-01-04 14:54:07.39	21.13	17.09	-41.5	-42.5	22.9	0.00e+00	32	36	0	304087040	60	6512
2026-01-04 14:54:08.40	21.13	17.20	-41.5	-42.5	22.9	0.00e+00	0	36	0	305135616	60	6525
2026-01-04 14:54:09.41	21.13	17.32	-41.4	-42.5	22.8	0.00e+00	90	36	0	307232768	60	6485
2026-01-04 14:54:10.42	21.13	17.44	-41.2	-42.2	23.1	0.00e+00	0	36	0	309329920	60	6285
2026-01-04 14:54:11.43	21.13	17.56	-41.4	-42.4	22.9	0.00e+00	0	36	0	311427072	60	6408
2026-01-04 14:54:12.45	21.13	17.68	-41.3	-42.3	23.0	0.00e+00	0	36	0	313524224	60	6374
2026-01-04 14:54:13.46	21.13	17.80	-41.1	-42.1	23.2	0.00e+00	0	36	0	314572800	60	6240
2026-01-04 14:54:14.47	21.13	17.92	-41.5	-42.5	22.9	0.00e+00	0	36	0	316669952	60	6511
2026-01-04 14:54:15.48	21.13	18.04	-41.3	-42.3	23.1	0.00e+00	0	36	0	318767104	60	6336
2026-01-04 14:54:16.49	21.13	18.16	-41.2	-42.2	23.2	0.00e+00	67	36	0	320864256	60	6297
2026-01-04 14:54:17.50	21.13	18.29	-41.8	-42.9	22.7	0.00e+00	0	36	0	322961408	60	6804
2026-01-04 14:54:18.51	21.13	18.41	-41.5	-42.5	23.0	0.00e+00	0	36	0	325058560	60	6527
2026-01-04 14:54:19.53	21.13	18.53	-41.4	-42.5	23.1	0.00e+00	0	36	0	326107136	60	6465
2026-01-04 14:54:20.53	21.13	18.66	-41.4	-42.4	23.0	0.00e+00	0	36	0	328204288	60	6451
2026-01-04 14:54:21.55	21.13	18.78	-41.5	-42.5	23.0	0.00e+00	0	36	0	330301440	60	6510
2026-01-04 14:54:22.56	21.13	18.91	-41.6	-42.7	22.8	0.00e+00	0	36	0	332398592	60	6616
2026-01-04 14:54:23.57	21.13	19.04	-41.5	-42.6	22.9	0.00e+00	68	36	0	334495744	60	6546
2026-01-04 14:54:24.58	21.13	19.16	-41.7	-42.7	22.8	0.00e+00	0	36	0	335544320	60	6655
2026-01-04 14:54:25.59	21.13	19.29	-41.6	-42.6	22.8	0.00e+00	92	36	0	337641472	60	6587
2026-01-04 14:54:26.60	21.13	19.42	-41.6	-42.6	22.8	0.00e+00	0	36	0	339738624	60	6583
2026-01-04 14:54:27.61	21.13	19.55	-41.6	-42.7	22.8	0.00e+00	0	36	0	341835776	60	6623
2026-01-04 14:54:28.62	21.13	19.68	-41.7	-42.8	22.7	0.00e+00	0	36	0	343932928	60	6738
2026-01-04 14:54:29.64	21.13	19.81	-41.6	-42.6	22.9	0.00e+00	0	36	0	344981504	60	6598
2026-01-04 14:54:30.65	21.13	19.94	-41.7	-42.8	22.8	0.00e+00	92	36	0	347078656	60	6719
2026-01-04 14:54:31.66	21.13	20.07	-41.6	-42.7	22.9	0.00e+00	0	36	0	349175808	60	6638
2026-01-04 14:54:32.67	21.13	20.20	-41.7	-42.7	22.8	0.00e+00	92	36	0	351272960	60	6669
2026-01-04 14:54:33.68	21.13	20.34	-41.5	-42.6	23.0	0.00e+00	0	36	0	353370112	60	6550
2026-01-04 14:54:34.69	21.13	20.47	-41.6	-42.6	22.9	0.00e+00	0	36	0	354418688	60	6603
2026-01-04 14:54:35.70	21.13	20.61	-41.5	-42.5	23.0	0.00e+00	0	36	0	356515840	60	6526
2026-01-04 14:54:36.71	21.13	20.74	-41.6	-42.6	22.9	0.00e+00	0	36	0	358612992	60	6597
2026-01-04 14:54:37.72	21.13	20.88	-41.5	-42.6	23.0	0.00e+00	81	36	0	360710144	60	6567
2026-01-04 14:54:38.73	21.13	21.01	-41.6	-42.6	23.0	0.00e+00	0	36	0	362807296	60	6585
2026-01-04 14:54:39.75	21.13	21.15	-41.6	-42.6	22.8	0.00e+00	71	36	0	364904448	60	6600
2026-01-04 14:54:40.76	21.13	21.29	-41.6	-42.7	22.8	0.00e+00	0	36	0	365953024	60	6635
2026-01-04 14:54:41.77	21.13	21.43	-41.7	-42.7	22.9	0.00e+00	0	36	0	368050176	60	6691
2026-01-04 14:54:42.78	21.13	21.57	-41.6	-42.6	22.8	0.00e+00	0	36	0	370147328	60	6614
2026-01-04 14:54:43.79	21.13	21.71	-41.9	-43.0	22.6	0.00e+00	0	36	0	372244480	60	6871
2026-01-04 14:54:44.80	21.13	21.85	-41.9	-43.0	22.6	0.00e+00	27	36	0	374341632	60	6889
2026-01-04 14:54:45.81	21.13	21.99	-41.9	-43.0	22.6	0.00e+00	0	36	0	375390208	60	6873
2026-01-04 14:54:46.82	21.13	22.14	-42.0	-43.1	22.6	0.00e+00	90	36	0	377487360	60	6944
2026-01-04 14:54:47.84	21.13	22.28	-41.6	-42.6	22.9	0.00e+00	0	36	0	379584512	60	6609
2026-01-04 14:54:48.85	21.13	22.43	-41.8	-42.8	22.7	0.00e+00	0	36	0	381681664	60	6738
2026-01-04 14:54:49.86	21.13	22.57	-41.7	-42.8	22.8	0.00e+00	0	36	0	383778816	60	6695
2026-01-04 14:54:50.87	21.13	22.72	-41.6	-42.7	22.9	0.00e+00	0	36	0	384827392	60	6627
2026-01-04 14:54:51.88	21.12	22.86	-41.6	-42.7	22.8	0.00e+00	47	36	0	386924544	60	6617
2026-01-04 14:54:52.89	21.12	23.01	-41.6	-42.6	22.8	0.00e+00	0	36	0	389021696	60	6586
2026-01-04 14:54:53.90	21.12	23.16	-41.8	-42.8	22.7	0.00e+00	81	36	0	391118848	60	6765
2026-01-04 14:54:54.91	21.12	23.31	-41.7	-42.7	22.8	0.00e+00	0	36	0	393216000	60	6658
2026-01-04 14:54:55.92	21.12	23.46	-41.4	-42.4	23.0	0.00e+00	3	36	0	394264576	60	6415
2026-01-04 14:54:56.93	21.12	23.61	-41.7	-42.7	23.0	0.00e+00	0	36	0	396361728	60	6658
2026-01-04 14:54:57.94	21.12	23.76	-41.8	-42.8	22.7	0.00e+00	0	36	0	398458880	60	6754
2026-01-04 14:54:58.96	21.12	23.92	-41.5	-42.5	22.9	0.00e+00	27	36	0	400556032	60	6531
2026-01-04 14:54:59.97	21.12	24.07	-41.6	-42.6	23.0	0.00e+00	0	36	0	402653184	60	6550
2026-01-04 14:55:00.98	21.11	24.23	-41.7	-42.7	22.9	0.00e+00	90	36	0	404750336	60	6621
2026-01-04 14:55:01.99	21.11	24.38	-41.8	-42.8	22.7	0.00e+00	0	36	0	405798912	60	6718
2026-01-04 14:55:03.00	21.11	24.54	-41.6	-42.6	22.9	0.00e+00	28	36	0	407896064	60	6559
2026-01-04 14:55:04.01	21.11	24.70	-41.5	-42.5	23.0	0.00e+00	0	36	0	409993216	60	6486
2026-01-04 14:55:05.02	21.11	24.86	-41.4	-42.4	23.2	0.00e+00	0	36	0	412090368	60	6408
2026-01-04 14:55:06.03	21.11	25.02	-41.2	-42.2	23.2	0.00e+00	0	36	0	414187520	60	6254
2026-01-04 14:55:07.04	21.10	25.18	-41.1	-42.1	23.4	0.00e+00	0	36	0	415236096	60	6194
2026-01-04 14:55:08.06	21.10	25.34	-41.1	-42.0	23.5	0.00e+00	0	36	0	417333248	60	6139
2026-01-04 14:55:09.07	21.10	25.50	-41.1	-42.1	23.3	0.00e+00	24	36	0	419430400	60	6177
2026-01-04 14:55:10.08	21.10	25.67	-41.1	-42.0	23.3	0.00e+00	91	36	0	421527552	60	6147
2026-01-04 14:55:11.09	21.10	25.83	-41.2	-42.1	23.3	0.00e+00	0	36	0	423624704	60	6240
2026-01-04 14:55:12.10	21.09	26.00	-41.5	-42.4	23.1	0.00e+00	0	36	0	424673280	60	6447
2026-01-04 14:55:13.11	21.09	26.16	-41.6	-42.6	23.0	0.00e+00	0	36	0	426770432	60	6560
2026-01-04 14:55:14.12	21.09	26.33	-41.9	-42.9	22.8	0.00e+00	0	36	0	428867584	60	6804
2026-01-04 14:55:15.13	21.09	26.50	-41.8	-42.8	22.7	0.00e+00	27	36	0	430964736	60	6754
2026-01-04 14:55:16.14	21.09	26.67	-41.8	-42.8	22.8	0.00e+00	0	36	0	433061888	60	6696
2026-01-04 14:55:17.16	21.08	26.84	-41.8	-42.8	22.7	0.00e+00	92	36	0	434110464	60	6741
2026-01-04 14:55:18.17	21.08	27.02	-41.6	-42.5	23.0	0.00e+00	0	36	0	436207616	60	6513
2026-01-04 14:55:19.18	21.08	27.19	-41.6	-42.6	23.0	0.00e+00	0	36	0	438304768	60	6576
2026-01-04 14:55:20.19	21.08	27.36	-41.5	-42.5	22.9	0.00e+00	0	36	0	440401920	60	6482
2026-01-04 14:55:21.20	21.07	27.54	-41.5	-42.4	23.0	0.00e+00	0	36	0	442499072	60	6429
2026-01-04 14:55:22.21	21.07	27.72	-41.7	-42.7	22.8	0.00e+00	87	36	0	443547648	60	6654
2026-01-04 14:55:23.22	21.07	27.89	-41.9	-42.8	22.6	0.00e+00	0	36	0	445644800	60	6768
2026-01-04 14:55:24.23	21.06	28.07	-42.0	-43.0	22.5	0.00e+00	92	36	0	447741952	60	6917
2026-01-04 14:55:25.24	21.06	28.25	-42.9	-44.1	21.7	0.00e+00	0	36	0	449839104	60	7785
2026-01-04 14:55:26.25	21.06	28.43	-42.6	-43.7	21.9	0.00e+00	0	36	0	451936256	60	7483
2026-01-04 14:55:27.27	21.06	28.62	-42.9	-44.1	21.7	0.00e+00	0	36	0	454033408	60	7791
2026-01-04 14:55:28.28	21.05	28.80	-43.3	-44.5	21.4	0.00e+00	0	36	0	455081984	60	8174
2026-01-04 14:55:29.29	21.05	28.99	-43.2	-44.4	21.5	0.00e+00	27	36	0	457179136	60	8101
2026-01-04 14:55:30.30	21.05	29.17	-43.4	-44.7	21.2	0.00e+00	0	36	0	459276288	60	8336
2026-01-04 14:55:31.31	21.04	29.36	-43.5	-44.8	21.1	0.00e+00	91	36	0	461373440	60	8460
2026-01-04 14:55:32.32	21.04	29.55	-43.5	-44.8	21.0	0.00e+00	0	36	0	463470592	60	8456
2026-01-04 14:55:33.33	21.03	29.74	-44.2	-45.6	20.7	0.00e+00	0	36	0	464519168	60	9272
2026-01-04 14:55:34.34	21.03	29.93	-43.5	-44.7	21.2	0.00e+00	0	36	0	466616320	60	8414
2026-01-04 14:55:35.36	21.03	30.12	-43.6	-44.9	21.2	0.00e+00	0	36	0	468713472	60	8574
2026-01-04 14:55:36.37	21.02	30.32	-43.5	-44.8	20.9	0.00e+00	43	36	0	470810624	60	8471
2026-01-04 14:55:37.38	21.02	30.51	-43.8	-45.2	20.9	0.00e+00	0	36	0	472907776	60	8847
2026-01-04 14:55:38.39	21.02	30.71	-43.7	-45.1	20.7	0.00e+00	92	36	0	473956352	60	8732
2026-01-04 14:55:39.40	21.01	30.91	-43.7	-45.0	20.9	0.00e+00	0	36	0	476053504	60	8652
2026-01-04 14:55:40.41	21.01	31.11	-44.0	-45.4	20.6	0.00e+00	60	36	0	478150656	60	9057
2026-01-04 14:55:41.42	21.00	31.31	-44.3	-45.7	20.3	0.00e+00	0	36	0	480247808	60	9443
2026-01-04 14:55:42.43	21.00	31.51	-44.0	-45.4	20.5	0.00e+00	0	36	0	482344960	60	9062
2026-01-04 14:55:43.44	20.99	31.71	-43.5	-44.8	21.1	0.00e+00	51	36	0	483393536	60	8462
2026-01-04 14:55:44.45	20.99	31.92	-43.5	-44.7	21.2	0.00e+00	0	36	0	485490688	60	8418
2026-01-04 14:55:45.47	20.98	32.12	-43.3	-44.6	21.5	0.00e+00	92	36	0	487587840	60	8242
2026-01-04 14:55:46.48	20.98	32.33	-43.4	-44.6	21.2	0.00e+00	0	36	0	489684992	60	8318
2026-01-04 14:55:47.49	20.97	32.54	-43.6	-44.9	21.1	0.00e+00	91	36	0	491782144	60	8531
2026-01-04 14:55:48.50	20.97	32.75	-43.4	-44.6	21.3	0.00e+00	0	36	0	492830720	60	8328
2026-01-04 14:55:49.51	20.96	32.96	-43.8	-45.1	20.8	0.00e+00	24	36	0	494927872	60	8793
2026-01-04 14:55:50.52	20.96	33.18	-43.7	-45.0	20.8	0.00e+00	24	36	0	497025024	60	8667
2026-01-04 14:55:51.53	20.95	33.39	-43.3	-44.5	21.2	0.00e+00	0	36	0	499122176	60	8161
2026-01-04 14:55:52.54	20.95	33.61	-43.2	-44.4	21.8	0.00e+00	90	36	0	501219328	60	8054
2026-01-04 14:55:53.56	20.94	33.83	-42.8	-44.0	21.8	0.00e+00	0	36	0	502267904	60	7695
2026-01-04 14:55:54.57	20.93	34.05	-42.2	-43.2	22.5	0.00e+00	90	36	0	504365056	60	7056
2026-01-04 14:55:55.58	20.93	34.27	-42.3	-43.4	22.4	0.00e+00	0	36	0	506462208	60	7195
2026-01-04 14:55:56.59	20.92	34.49	-41.9	-42.9	22.8	0.00e+00	0	36	0	508559360	60	6831
2026-01-04 14:55:57.60	20.91	34.72	-41.7	-42.7	22.9	0.00e+00	9	36	0	510656512	60	6636
2026-01-04 14:55:58.61	20.91	34.94	-41.6	-42.6	23.0	0.00e+00	0	36	0	512753664	60	6571
2026-01-04 14:55:59.62	20.90	35.17	-41.3	-42.3	23.1	0.00e+00	92	36	0	513802240	60	6332
2026-01-04 14:56:00.63	20.89	35.40	-41.3	-42.3	23.4	0.00e+00	0	36	0	515899392	60	6364
2026-01-04 14:56:01.65	20.89	35.63	-41.0	-41.9	23.3	0.00e+00	92	36	0	517996544	60	6071
2026-01-04 14:56:02.66	20.88	35.86	-40.7	-41.6	23.9	0.00e+00	0	36	0	520093696	60	5855
2026-01-04 14:56:03.67	20.87	36.10	-40.5	-41.4	24.0	0.00e+00	0	36	0	522190848	60	5730
2026-01-04 14:56:04.68	20.87	36.34	-40.4	-41.3	23.9	0.00e+00	0	36	0	523239424	60	5668
2026-01-04 14:56:05.69	20.86	36.57	-40.0	-40.9	24.1	0.00e+00	0	36	0	525336576	58	6088
2026-01-04 14:56:06.70	20.85	36.81	-40.2	-41.1	24.1	0.00e+00	24	36	0	527433728	58	6189
2026-01-04 14:56:07.71	20.84	37.05	-40.1	-41.0	24.1	0.00e+00	0	36	0	529530880	58	6104
2026-01-04 14:56:08.72	20.83	37.30	-40.2	-41.2	24.1	0.00e+00	92	36	0	531628032	58	6250
2026-01-04 14:56:09.73	20.83	37.54	-40.4	-41.3	23.9	0.00e+00	0	36	0	532676608	58	6355
2026-01-04 14:56:10.75	20.82	37.79	-40.4	-41.3	23.9	0.00e+00	0	36	0	534773760	58	6368
2026-01-04 14:56:11.76	20.81	38.04	-40.2	-41.1	24.0	0.00e+00	0	36	0	536870912	58	6217
2026-01-04 14:56:12.77	20.80	38.29	-40.1	-41.0	24.2	0.00e+00	0	36	0	538968064	58	6141
2026-01-04 14:56:13.78	20.79	38.54	-39.9	-40.7	24.1	0.00e+00	31	36	0	541065216	58	5956
2026-01-04 14:56:14.79	20.78	38.80	-40.0	-40.8	24.3	0.00e+00	0	36	0	542113792	58	6024
2026-01-04 14:56:15.80	20.77	39.05	-39.6	-40.5	24.4	0.00e+00	92	36	0	544210944	58	5771
2026-01-04 14:56:16.81	20.76	39.31	-40.4	-41.3	23.9	0.00e+00	0	36	0	546308096	58	6347
2026-01-04 14:56:17.82	20.75	39.57	-40.3	-41.2	23.9	0.00e+00	0	36	0	548405248	58	6312
2026-01-04 14:56:18.83	20.74	39.83	-41.0	-42.0	23.6	0.00e+00	0	36	0	550502400	58	6850
2026-01-04 14:56:19.85	20.73	40.10	-40.6	-41.5	23.8	0.00e+00	0	36	0	552599552	58	6502
2026-01-04 14:56:20.86	20.72	40.37	-40.8	-41.8	23.5	0.00e+00	59	36	0	553648128	58	6705
2026-01-04 14:56:21.87	20.71	40.63	-40.5	-41.4	23.7	0.00e+00	0	36	0	555745280	58	6428
2026-01-04 14:56:22.88	20.70	40.90	-40.3	-41.2	23.9	0.00e+00	92	36	0	557842432	58	6270
2026-01-04 14:56:23.89	20.69	41.18	-40.8	-41.8	23.1	0.00e+00	0	36	0	559939584	58	6757
2026-01-04 14:56:24.90	20.67	41.45	-40.5	-41.5	23.5	0.00e+00	51	36	0	562036736	58	6465
2026-01-04 14:56:25.91	20.66	41.73	-40.6	-41.5	23.6	0.00e+00	0	36	0	563085312	58	6533
2026-01-04 14:56:26.92	20.65	42.00	-40.6	-41.5	23.7	0.00e+00	0	36	0	565182464	58	6518
2026-01-04 14:56:27.93	20.64	42.29	-40.6	-41.6	23.8	0.00e+00	32	36	0	567279616	58	6555
2026-01-04 14:56:28.95	20.62	42.57	-40.7	-41.6	23.6	0.00e+00	0	36	0	569376768	58	6606
2026-01-04 14:56:29.96	20.61	42.86	-40.7	-41.6	23.6	0.00e+00	29	36	0	571473920	58	6580
2026-01-04 14:56:30.97	20.60	43.14	-40.9	-41.9	23.5	0.00e+00	0	36	0	572522496	58	6816
2026-01-04 14:56:31.98	20.58	43.43	-40.2	-41.1	24.0	0.00e+00	74	36	0	574619648	58	6231
2026-01-04 14:56:32.99	20.57	43.72	-40.9	-41.8	23.7	0.00e+00	0	36	0	576716800	58	6732
2026-01-04 14:56:34.00	20.56	44.02	-41.0	-42.0	23.4	0.00e+00	0	36	0	578813952	58	6855
2026-01-04 14:56:35.01	20.54	44.31	-41.5	-42.5	23.2	0.00e+00	3	36	0	580911104	60	6491
2026-01-04 14:56:36.02	20.53	44.61	-41.8	-42.8	22.9	0.00e+00	0	36	0	581959680	60	6722
2026-01-04 14:56:37.03	20.51	44.91	-42.0	-43.0	22.4	0.00e+00	1	36	0	584056832	60	6920
2026-01-04 14:56:38.04	20.49	45.21	-42.9	-44.1	21.9	0.00e+00	0	36	0	586153984	60	7831
2026-01-04 14:56:39.06	20.48	45.52	-43.2	-44.4	21.5	0.00e+00	92	36	0	588251136	60	8137
2026-01-04 14:56:40.07	20.46	45.83	-43.5	-44.8	21.3	0.00e+00	0	36	0	590348288	60	8450
2026-01-04 14:56:41.08	20.44	46.14	-43.2	-44.5	21.6	0.00e+00	0	36	0	592445440	60	8159
2026-01-04 14:56:42.09	20.43	46.45	-42.9	-44.1	21.8	0.00e+00	32	36	0	593494016	60	7776
2026-01-04 14:56:43.10	20.41	46.76	-42.7	-43.9	22.1	0.00e+00	0	36	0	595591168	60	7609
2026-01-04 14:56:44.11	20.39	47.08	-42.8	-43.9	21.8	0.00e+00	29	36	0	597688320	60	7679
2026-01-04 14:56:45.12	20.37	47.40	-43.3	-44.5	21.4	0.00e+00	0	36	0	599785472	60	8185
2026-01-04 14:56:46.13	20.35	47.72	-43.6	-44.9	21.0	0.00e+00	90	36	0	601882624	60	8593
2026-01-04 14:56:47.15	20.33	48.05	-43.8	-45.2	20.3	0.00e+00	0	36	0	602931200	60	8877
2026-01-04 14:56:48.16	20.31	48.38	-44.0	-45.4	20.4	0.00e+00	0	36	0	605028352	60	9031
2026-01-04 14:56:49.17	20.29	48.70	-43.5	-44.7	21.3	0.00e+00	3	36	0	607125504	60	8422
2026-01-04 14:56:50.18	20.27	49.04	-42.7	-43.8	21.9	0.00e+00	0	36	0	609222656	60	7571
2026-01-04 14:56:51.19	20.25	49.37	-42.5	-43.7	22.1	0.00e+00	51	36	0	611319808	60	7432
2026-01-04 14:56:52.20	20.23	49.71	-42.5	-43.7	22.2	0.00e+00	0	36	0	612368384	60	7424
2026-01-04 14:56:53.21	20.20	50.05	-42.2	-43.3	22.5	0.00e+00	58	36	0	614465536	60	7099
2026-01-04 14:56:54.22	20.18	50.39	-41.3	-42.3	23.2	0.00e+00	0	36	0	616562688	60	6383
2026-01-04 14:56:55.23	20.15	50.73	-40.9	-41.8	23.5	0.00e+00	0	37	0	618659840	60	6031
2026-01-04 14:56:56.24	20.13	51.08	-40.4	-41.3	23.9	0.00e+00	0	36	0	620756992	60	5667
2026-01-04 14:56:57.26	20.10	51.43	-40.6	-41.5	23.7	0.00e+00	0	36	0	621805568	60	5792
2026-01-04 14:56:58.27	20.08	51.78	-40.7	-41.7	23.6	0.00e+00	56	36	0	623902720	60	5919
2026-01-04 14:56:59.28	20.05	52.14	-41.0	-42.0	23.4	0.00e+00	0	36	0	625999872	60	6168
2026-01-04 14:57:00.29	20.02	52.49	-41.0	-42.1	23.3	0.00e+00	48	36	0	628097024	60	6178
2026-01-04 14:57:01.30	19.99	52.85	-40.7	-41.7	23.5	0.00e+00	0	36	0	630194176	60	5900
2026-01-04 14:57:02.31	19.96	53.22	-39.4	-40.2	24.8	0.00e+00	27	36	0	631242752	58	5630
2026-01-04 14:57:03.32	19.93	53.58	-39.0	-39.7	25.0	0.00e+00	0	36	0	633339904	56	5952
2026-01-04 14:57:04.33	19.90	53.95	-39.1	-39.9	24.8	0.00e+00	0	36	0	635437056	56	6080
2026-01-04 14:57:05.35	19.87	54.32	-39.4	-40.2	24.6	0.00e+00	81	36	0	637534208	56	6247
2026-01-04 14:57:06.36	19.84	54.69	-39.9	-40.8	24.2	0.00e+00	0	36	0	639631360	56	6712
2026-01-04 14:57:07.37	19.80	55.07	-40.2	-41.1	24.1	0.00e+00	92	36	0	641728512	58	6212
2026-01-04 14:57:08.38	19.77	55.45	-40.0	-40.9	24.1	0.00e+00	0	36	0	642777088	58	6097
2026-01-04 14:57:09.39	19.73	55.83	-39.7	-40.6	24.4	0.00e+00	0	36	0	644874240	58	5865
2026-01-04 14:57:10.40	19.69	56.21	-40.1	-41.0	24.2	0.00e+00	0	36	0	646971392	58	6155
2026-01-04 14:57:11.41	19.66	56.60	-40.3	-41.2	24.2	0.00e+00	0	36	0	649068544	58	6266
2026-01-04 14:57:12.42	19.62	56.99	-40.1	-40.9	23.9	0.00e+00	25	36	0	651165696	58	6099
2026-01-04 14:57:13.43	19.58	57.38	-40.1	-40.9	24.2	0.00e+00	0	36	0	652214272	58	6087
2026-01-04 14:57:14.44	19.53	57.77	-40.4	-41.3	23.7	0.00e+00	91	36	0	654311424	58	6377
2026-01-04 14:57:15.46	19.49	58.18	-41.2	-42.2	23.3	0.00e+00	0	36	0	656408576	58	7068
2026-01-04 14:57:16.47	19.45	58.58	-42.3	-43.4	22.3	0.00e+00	49	36	0	658505728	60	7253
2026-01-04 14:57:17.48	19.40	58.98	-42.6	-43.8	22.1	0.00e+00	0	36	0	660602880	60	7554
2026-01-04 14:57:18.49	19.35	59.38	-41.9	-43.1	22.6	0.00e+00	0	36	0	661651456	60	6928
2026-01-04 14:57:19.50	19.30	59.79	-41.7	-42.8	22.7	0.00e+00	0	36	0	663748608	60	6703
2026-01-04 14:57:20.51	19.25	60.20	-42.1	-43.1	22.5	0.00e+00	0	36	0	665845760	60	7005
2026-01-04 14:57:21.52	19.20	60.61	-41.9	-43.0	22.6	0.00e+00	92	36	0	667942912	60	6869
2026-01-04 14:57:22.53	19.14	61.03	-41.3	-42.2	23.4	0.00e+00	0	36	0	670040064	60	6316
2026-01-04 14:57:23.54	19.08	61.45	-40.3	-41.2	24.2	0.00e+00	88	36	0	671088640	60	5571
2026-01-04 14:57:24.55	19.03	61.87	-39.8	-40.6	24.3	0.00e+00	0	36	0	673185792	58	5873
2026-01-04 14:57:25.56	18.96	62.29	-39.3	-40.1	24.8	0.00e+00	0	36	0	675282944	56	6230
2026-01-04 14:57:26.57	18.90	62.72	-38.5	-39.3	25.3	0.00e+00	0	36	0	677380096	56	5644
2026-01-04 14:57:27.58	18.83	63.15	-38.4	-39.1	25.4	0.00e+00	0	36	0	679477248	56	5561
2026-01-04 14:57:28.60	18.76	63.59	-38.5	-39.2	25.2	0.00e+00	85	36	0	680525824	54	6296
2026-01-04 14:57:29.61	18.69	64.02	-38.9	-39.7	24.5	0.00e+00	0	36	0	682622976	54	6672
2026-01-04 14:57:30.62	18.62	64.46	-39.7	-40.6	24.4	0.00e+00	92	36	0	684720128	56	6559
2026-01-04 14:57:31.63	18.54	64.90	-39.5	-40.4	24.6	0.00e+00	0	36	0	686817280	56	6408
2026-01-04 14:57:32.64	18.46	65.34	-39.4	-40.2	24.0	0.00e+00	0	36	0	688914432	56	6316
2026-01-04 14:57:33.65	18.38	65.78	-40.0	-40.9	24.3	0.00e+00	0	36	0	689963008	56	6781
2026-01-04 14:57:34.66	18.29	66.23	-41.0	-42.0	23.3	0.00e+00	0	36	0	692060160	58	6896
2026-01-04 14:57:35.67	18.20	66.68	-41.4	-42.4	23.2	0.00e+00	26	36	0	694157312	60	6435
2026-01-04 14:57:36.68	18.10	67.13	-41.2	-42.1	23.2	0.00e+00	0	36	0	696254464	60	6230
2026-01-04 14:57:37.70	18.00	67.59	-42.2	-43.2	22.6	0.00e+00	92	36	0	698351616	60	7041
2026-01-04 14:57:38.71	17.90	68.04	-43.4	-44.6	21.4	0.00e+00	0	36	0	700448768	60	8245
2026-01-04 14:57:39.72	17.79	68.50	-43.5	-44.7	21.2	0.00e+00	0	36	0	701497344	60	8364
2026-01-04 14:57:40.73	17.67	68.96	-44.6	-46.0	20.0	0.00e+00	0	36	0	703594496	60	9698
2026-01-04 14:57:41.74	17.55	69.43	-46.3	-48.3	18.0	0.00e+00	0	36	0	705691648	60	12624
2026-01-04 14:57:42.75	17.42	69.89	-47.1	-49.4	17.8	0.00e+00	58	36	0	707788800	60	14440
2026-01-04 14:57:43.76	17.29	70.36	-46.4	-48.4	18.6	0.00e+00	0	36	0	709885952	60	12775
2026-01-04 14:57:44.77	17.15	70.83	-45.4	-47.0	18.8	0.00e+00	48	36	0	710934528	60	10947
2026-01-04 14:57:45.79	17.00	71.31	-45.8	-47.6	18.8	0.00e+00	0	36	0	713031680	60	11661
2026-01-04 14:57:46.80	16.84	71.78	-45.8	-47.7	18.5	0.00e+00	0	36	0	715128832	60	11785
2026-01-04 14:57:47.81	16.67	72.26	-45.3	-47.0	19.2	0.00e+00	0	36	0	717225984	60	10969
2026-01-04 14:57:48.82	16.50	72.73	-44.3	-45.8	20.1	0.00e+00	0	36	0	719323136	60	9489
2026-01-04 14:57:49.83	16.31	73.21	-43.6	-44.9	21.1	0.00e+00	31	36	0	720371712	60	8570
2026-01-04 14:57:50.84	16.11	73.69	-43.0	-44.2	21.7	0.00e+00	0	36	0	722468864	60	7865
2026-01-04 14:57:51.85	15.90	74.18	-43.1	-44.4	21.5	0.00e+00	58	36	0	724566016	60	8063
2026-01-04 14:57:52.86	15.67	74.66	-43.7	-45.0	21.0	0.00e+00	0	36	0	726663168	60	8705
2026-01-04 14:57:53.87	15.43	75.15	-43.1	-44.3	21.6	0.00e+00	0	36	0	728760320	60	7969
2026-01-04 14:57:54.88	15.17	75.64	-43.6	-44.9	21.0	0.00e+00	0	36	0	729808896	60	8540
2026-01-04 14:57:55.90	14.89	76.13	-45.1	-46.7	19.2	0.00e+00	0	36	0	731906048	60	10590
2026-01-04 14:57:56.91	14.59	76.62	-46.0	-47.8	18.8	0.00e+00	33	36	0	734003200	60	12024
2026-01-04 14:57:57.92	14.26	77.11	-44.9	-46.4	19.9	0.00e+00	0	36	0	736100352	60	10240
2026-01-04 14:57:58.93	13.91	77.61	-46.1	-48.0	18.2	0.00e+00	70	36	0	738197504	60	12214
2026-01-04 14:57:59.94	13.53	78.10	-47.4	-49.9	16.6	0.00e+00	0	36	0	740294656	60	15277
2026-01-04 14:58:00.95	13.11	78.60	-45.8	-47.6	18.9	0.00e+00	92	36	0	741343232	60	11678
2026-01-04 14:58:01.96	12.66	79.09	-44.7	-46.2	19.8	0.00e+00	0	36	0	743440384	60	9925
2026-01-04 14:58:02.97	12.16	79.59	-43.7	-44.9	21.1	0.00e+00	0	36	0	745537536	60	8620
2026-01-04 14:58:03.98	11.61	80.09	-42.5	-43.5	22.3	0.00e+00	0	36	0	747634688	60	7313
2026-01-04 14:58:04.99	10.99	80.59	-44.2	-45.5	20.3	0.00e+00	0	36	0	749731840	60	9236
2026-01-04 14:58:06.01	10.31	81.09	-45.2	-46.8	19.5	0.00e+00	91	36	0	750780416	60	10663
2026-01-04 14:58:07.02	9.54	81.59	-43.4	-44.7	21.4	0.00e+00	0	36	0	752877568	60	8336
2026-01-04 14:58:08.03	8.68	82.08	-42.6	-43.7	22.3	0.00e+00	73	36	0	754974720	60	7455
2026-01-04 14:58:09.04	7.70	82.58	-41.8	-42.8	22.9	0.00e+00	0	36	0	757071872	60	6758
2026-01-04 14:58:10.05	6.58	83.07	-40.9	-41.8	23.8	0.00e+00	0	36	0	759169024	60	5985
2026-01-04 14:58:11.06	5.29	83.56	-39.9	-40.8	24.3	0.00e+00	0	36	0	760217600	58	5975
2026-01-04 14:58:12.07	3.78	84.05	-40.3	-41.1	24.2	0.00e+00	0	36	0	762314752	58	6213
2026-01-04 14:58:13.08	2.00	84.54	-40.4	-41.2	24.2	0.00e+00	53	37	0	764411904	58	6302
2026-01-04 14:58:14.10	359.85	85.02	-40.5	-41.4	23.8	0.00e+00	0	36	0	766509056	58	6447
2026-01-04 14:58:15.11	357.27	85.49	-40.6	-41.5	23.9	0.00e+00	92	37	0	768606208	58	6473
2026-01-04 14:58:16.12	354.08	85.95	-40.8	-41.6	23.8	0.00e+00	0	36	0	769654784	58	6582
2026-01-04 14:58:17.13	350.10	86.40	-42.8	-44.0	22.1	0.00e+00	29	36	0	771751936	60	7685
2026-01-04 14:58:18.14	345.01	86.82	-42.7	-43.8	22.1	0.00e+00	0	37	0	773849088	60	7566
2026-01-04 14:58:19.15	338.44	87.21	-44.1	-45.4	20.5	0.00e+00	0	36	0	775946240	60	9104
2026-01-04 14:58:20.16	329.87	87.55	-47.3	-49.9	17.1	0.00e+00	92	36	0	778043392	60	15222
2026-01-04 14:58:21.17	318.85	87.83	-44.1	-45.5	20.8	0.00e+00	0	36	0	779091968	60	9195
2026-01-04 14:58:22.18	305.34	88.00	-43.8	-45.2	21.0	0.00e+00	92	36	0	781189120	60	8832
2026-01-04 14:58:23.20	290.15	88.04	-44.6	-46.3	19.9	0.00e+00	4	36	0	783286272	60	10072
2026-01-04 14:58:24.21	275.48	87.95	-42.0	-43.1	22.9	0.00e+00	0	36	0	785383424	60	6961
2026-01-04 14:58:25.22	262.81	87.74	-42.6	-43.7	22.5	0.00e+00	0	37	0	787480576	60	7458
2026-01-04 14:58:26.23	252.71	87.44	-44.3	-45.6	20.8	0.00e+00	0	36	0	789577728	60	9274
2026-01-04 14:58:27.24	244.92	87.08	-43.2	-44.3	21.9	0.00e+00	56	36	0	790626304	60	8005
2026-01-04 14:58:28.25	238.93	86.67	-41.1	-42.0	22.9	0.00e+00	0	37	0	792723456	60	6170
2026-01-04 14:58:29.26	234.28	86.24	-41.0	-41.9	23.6	0.00e+00	68	36	0	794820608	60	6052
2026-01-04 14:58:30.27	230.61	85.79	-41.1	-42.0	23.5	0.00e+00	0	36	0	796917760	60	6169
2026-01-04 14:58:31.28	227.67	85.32	-41.3	-42.3	23.0	0.00e+00	0	36	0	799014912	60	6346
2026-01-04 14:58:32.30	225.24	84.84	-40.6	-41.5	23.8	0.00e+00	0	36	0	800063488	60	5813
2026-01-04 14:58:33.31	223.24	84.36	-40.2	-41.1	24.2	0.00e+00	0	36	0	802160640	60	5508
2026-01-04 14:58:34.32	221.57	83.88	-39.7	-40.5	24.7	0.00e+00	42	36	0	804257792	58	5794
2026-01-04 14:58:35.33	220.14	83.38	-40.2	-41.1	24.1	0.00e+00	0	36	0	806354944	58	6195
2026-01-04 14:58:36.34	218.92	82.89	-40.5	-41.3	24.0	0.00e+00	72	36	0	808452096	58	6382
2026-01-04 14:58:37.35	217.85	82.40	-41.8	-42.8	22.9	0.00e+00	0	36	0	809500672	60	6714
2026-01-04 14:58:38.36	216.92	81.90	-42.4	-43.4	22.3	0.00e+00	0	36	0	811597824	60	7246
2026-01-04 14:58:39.37	216.09	81.40	-41.2	-42.1	23.4	0.00e+00	0	36	0	813694976	60	6210
2026-01-04 14:58:40.38	215.36	80.91	-41.8	-42.8	22.9	0.00e+00	0	36	0	815792128	60	6700
2026-01-04 14:58:41.39	214.70	80.41	-40.5	-41.4	23.9	0.00e+00	25	36	0	817889280	60	5707
2026-01-04 14:58:42.41	214.11	79.91	-41.4	-42.4	23.0	0.00e+00	0	36	0	818937856	60	6420
2026-01-04 14:58:43.42	213.58	79.41	-42.7	-43.8	21.7	0.00e+00	65	36	0	821035008	60	7579
2026-01-04 14:58:44.43	213.09	78.91	-42.7	-43.8	22.1	0.00e+00	0	36	0	823132160	60	7546
2026-01-04 14:58:45.44	212.65	78.41	-41.7	-42.7	23.2	0.00e+00	86	36	0	825229312	60	6638
2026-01-04 14:58:46.45	212.25	77.92	-40.5	-41.4	24.0	0.00e+00	0	36	0	827326464	60	5730
2026-01-04 14:58:47.46	211.88	77.42	-40.7	-41.6	23.6	0.00e+00	0	36	0	828375040	60	5875
2026-01-04 14:58:48.47	211.54	76.93	-40.7	-41.5	23.8	0.00e+00	0	36	0	830472192	60	5809
2026-01-04 14:58:49.48	211.22	76.44	-41.0	-41.9	23.5	0.00e+00	0	37	0	832569344	60	6055
2026-01-04 14:58:50.49	210.93	75.95	-41.7	-42.7	23.0	0.00e+00	92	36	0	834666496	60	6621
2026-01-04 14:58:51.50	210.66	75.46	-42.2	-43.3	22.5	0.00e+00	0	36	0	836763648	60	7114
2026-01-04 14:58:52.52	210.40	74.96	-41.3	-42.3	23.1	0.00e+00	91	36	0	838860800	60	6355
2026-01-04 14:58:53.53	210.17	74.48	-41.7	-42.8	22.9	0.00e+00	0	36	0	839909376	60	6696
2026-01-04 14:58:54.54	209.94	73.99	-42.2	-43.3	22.4	0.00e+00	0	36	0	842006528	60	7113
2026-01-04 14:58:55.55	209.74	73.51	-42.8	-43.9	21.9	0.00e+00	0	36	0	844103680	60	7643
2026-01-04 14:58:56.56	209.54	73.03	-43.5	-44.8	21.1	0.00e+00	0	36	0	846200832	60	8467
2026-01-04 14:58:57.57	209.36	72.55	-44.7	-46.2	19.7	0.00e+00	90	36	0	848297984	60	9915
2026-01-04 14:58:58.58	209.19	72.07	-46.0	-47.9	18.4	0.00e+00	0	36	0	849346560	60	12094
2026-01-04 14:58:59.59	209.02	71.60	-46.4	-48.5	18.0	0.00e+00	90	36	0	851443712	60	12952
2026-01-04 14:59:00.61	208.87	71.12	-46.0	-48.0	17.8	0.00e+00	0	36	0	853540864	60	12237
2026-01-04 14:59:01.62	208.72	70.64	-47.7	-50.8	15.4	0.00e+00	0	36	0	855638016	60	16881
2026-01-04 14:59:02.63	208.58	70.17	-45.8	-47.6	18.6	0.00e+00	0	36	0	857735168	60	11651
2026-01-04 14:59:03.64	208.45	69.71	-44.0	-45.3	20.7	0.00e+00	0	36	0	858783744	60	8937
2026-01-04 14:59:04.65	208.32	69.24	-45.0	-46.6	19.4	0.00e+00	92	36	0	860880896	60	10446
2026-01-04 14:59:05.66	208.21	68.78	-44.2	-45.5	20.5	0.00e+00	0	36	0	862978048	60	9178
2026-01-04 14:59:06.67	208.09	68.32	-42.8	-43.9	22.2	0.00e+00	90	37	0	865075200	60	7636
2026-01-04 14:59:07.68	207.98	67.86	-43.2	-44.4	21.3	0.00e+00	0	36	0	867172352	60	8078
2026-01-04 14:59:08.69	207.88	67.40	-43.0	-44.2	21.5	0.00e+00	0	36	0	868220928	60	7876
2026-01-04 14:59:09.71	207.78	66.94	-41.7	-42.6	23.0	0.00e+00	0	36	0	870318080	60	6600
2026-01-04 14:59:10.72	207.69	66.49	-40.8	-41.7	23.6	0.00e+00	0	36	0	872415232	60	5938
2026-01-04 14:59:11.73	207.60	66.04	-41.0	-41.9	23.2	0.00e+00	29	36	0	874512384	60	6090
2026-01-04 14:59:12.74	207.51	65.60	-40.9	-41.8	23.9	0.00e+00	0	36	0	876609536	60	6020
2026-01-04 14:59:13.75	207.43	65.15	-40.5	-41.4	24.1	0.00e+00	92	36	0	877658112	60	5732
2026-01-04 14:59:14.76	207.35	64.71	-41.3	-42.3	23.1	0.00e+00	0	36	0	879755264	60	6345
2026-01-04 14:59:15.77	207.27	64.27	-41.3	-42.3	23.3	0.00e+00	0	36	0	881852416	60	6361
2026-01-04 14:59:16.78	207.20	63.84	-40.6	-41.5	23.9	0.00e+00	0	36	0	883949568	60	5788
2026-01-04 14:59:17.79	207.13	63.40	-41.5	-42.5	23.3	0.00e+00	0	36	0	886046720	60	6488
2026-01-04 14:59:18.80	207.06	62.97	-41.6	-42.7	23.1	0.00e+00	47	36	0	887095296	60	6639
2026-01-04 14:59:19.82	206.99	62.54	-39.9	-40.8	24.4	0.00e+00	0	37	0	889192448	60	5359
2026-01-04 14:59:20.83	206.93	62.11	-39.3	-40.1	24.8	0.00e+00	92	36	0	891289600	56	6224
2026-01-04 14:59:21.84	206.87	61.69	-40.8	-41.8	23.6	0.00e+00	0	36	0	893386752	58	6727
2026-01-04 14:59:22.85	206.81	61.27	-42.0	-43.1	22.7	0.00e+00	0	36	0	895483904	60	6953
2026-01-04 14:59:23.86	206.75	60.85	-42.0	-43.1	22.8	0.00e+00	0	36	0	897581056	60	6963
2026-01-04 14:59:24.87	206.70	60.43	-41.9	-42.9	22.9	0.00e+00	0	36	0	898629632	60	6802
2026-01-04 14:59:25.88	206.65	60.02	-41.2	-42.1	23.3	0.00e+00	50	36	0	900726784	60	6231
2026-01-04 14:59:26.90	206.60	59.60	-41.2	-42.1	23.5	0.00e+00	0	36	0	902823936	60	6237
2026-01-04 14:59:27.91	206.55	59.20	-41.6	-42.5	23.2	0.00e+00	90	36	0	904921088	60	6536
2026-01-04 14:59:28.92	206.50	58.79	-41.4	-42.3	23.2	0.00e+00	0	37	0	907018240	60	6360
2026-01-04 14:59:29.93	206.45	58.39	-40.5	-41.4	23.7	0.00e+00	0	36	0	908066816	60	5722
2026-01-04 14:59:30.94	206.41	57.99	-40.8	-41.7	23.6	0.00e+00	0	36	0	910163968	60	5909
2026-01-04 14:59:31.95	206.37	57.59	-40.2	-41.0	24.2	0.00e+00	0	36	0	912261120	60	5466
2026-01-04 14:59:32.96	206.32	57.20	-39.9	-40.7	24.4	0.00e+00	3	36	0	914358272	58	5916
2026-01-04 14:59:33.97	206.28	56.81	-39.9	-40.7	24.4	0.00e+00	0	36	0	916455424	58	5953
2026-01-04 14:59:34.98	206.24	56.42	-39.2	-40.0	24.7	0.00e+00	92	37	0	917504000	58	5491
2026-01-04 14:59:36.00	206.21	56.03	-38.8	-39.6	25.2	0.00e+00	0	36	0	919601152	56	5851
2026-01-04 14:59:37.01	206.17	55.64	-38.7	-39.5	25.2	0.00e+00	46	36	0	921698304	56	5769
2026-01-04 14:59:38.02	206.13	55.26	-39.0	-39.8	25.0	0.00e+00	0	36	0	923795456	56	6024
2026-01-04 14:59:39.03	206.10	54.88	-40.0	-40.9	24.1	0.00e+00	0	36	0	925892608	56	6770
2026-01-04 14:59:40.04	206.06	54.51	-40.8	-41.8	23.6	0.00e+00	0	36	0	926941184	58	6698
2026-01-04 14:59:41.05	206.03	54.14	-41.1	-42.1	23.4	0.00e+00	0	36	0	929038336	60	6211
2026-01-04 14:59:42.06	206.00	53.77	-41.0	-41.9	23.6	0.00e+00	0	36	0	931135488	60	6084
2026-01-04 14:59:43.07	205.97	53.40	-40.2	-41.1	24.0	0.00e+00	0	37	0	933232640	60	5516
2026-01-04 14:59:44.08	205.94	53.03	-41.3	-42.3	23.2	0.00e+00	83	36	0	935329792	60	6361
2026-01-04 14:59:45.09	205.91	52.67	-43.1	-44.4	21.4	0.00e+00	0	36	0	937426944	60	8116
2026-01-04 14:59:46.11	205.88	52.31	-43.8	-45.2	20.6	0.00e+00	0	36	0	938475520	60	8907
2026-01-04 14:59:47.12	205.85	51.95	-43.9	-45.4	20.6	0.00e+00	0	36	0	940572672	60	9064
2026-01-04 14:59:48.13	205.83	51.60	-44.0	-45.5	20.5	0.00e+00	31	37	0	942669824	60	9144
2026-01-04 14:59:49.14	205.80	51.25	-42.7	-43.9	22.1	0.00e+00	92	36	0	944766976	60	7624
2026-01-04 14:59:50.15	205.77	50.90	-42.2	-43.3	22.5	0.00e+00	0	36	0	946864128	60	7148
2026-01-04 14:59:51.16	205.75	50.55	-42.5	-43.6	22.1	0.00e+00	92	36	0	947912704	60	7353
2026-01-04 14:59:52.17	205.72	50.21	-43.7	-45.1	20.8	0.00e+00	0	36	0	950009856	60	8724
2026-01-04 14:59:53.18	205.70	49.86	-43.0	-44.2	21.4	0.00e+00	0	36	0	952107008	60	7920
2026-01-04 14:59:54.19	205.68	49.53	-42.9	-44.0	21.5	0.00e+00	0	36	0	954204160	60	7721
2026-01-04 14:59:55.20	205.65	49.19	-44.7	-46.3	20.0	0.00e+00	0	36	0	956301312	60	10027
2026-01-04 14:59:56.22	205.63	48.85	-46.9	-49.3	16.9	0.00e+00	29	36	0	957349888	60	14184
2026-01-04 14:59:57.23	205.61	48.52	-46.0	-48.0	18.3	0.00e+00	0	37	0	959447040	60	12275
2026-01-04 14:59:58.24	205.59	48.19	-44.5	-46.0	20.1	0.00e+00	75	37	0	961544192	60	9782
2026-01-04 14:59:59.25	205.57	47.86	-42.4	-43.5	22.4	0.00e+00	0	36	0	963641344	60	7309
2026-01-04 15:00:00.26	205.55	47.54	-41.3	-42.3	23.2	0.00e+00	0	37	0	965738496	60	6344
2026-01-04 15:00:01.27	205.53	47.22	-41.7	-42.7	22.9	0.00e+00	0	36	0	966787072	60	6619
2026-01-04 15:00:02.28	205.51	46.90	-42.5	-43.6	22.1	0.00e+00	0	36	0	968884224	60	7371
2026-01-04 15:00:03.29	205.49	46.58	-42.4	-43.5	22.1	0.00e+00	43	36	0	970981376	60	7258
2026-01-04 15:00:04.31	205.48	46.27	-43.0	-44.1	21.6	0.00e+00	0	36	0	973078528	60	7855
2026-01-04 15:00:05.32	205.46	45.95	-44.8	-46.4	19.2	0.00e+00	90	36	0	975175680	60	10171
2026-01-04 15:00:06.33	205.44	45.64	-46.2	-48.5	17.3	0.00e+00	0	36	0	977272832	60	13014
2026-01-04 15:00:07.34	205.42	45.34	-47.3	-50.1	16.1	0.00e+00	36	36	0	978321408	60	15662
2026-01-04 15:00:08.35	205.41	45.03	-46.4	-48.7	18.1	0.00e+00	2	36	0	980418560	60	13226
2026-01-04 15:00:09.36	205.39	44.73	-45.1	-46.7	19.4	0.00e+00	0	37	0	982515712	60	10600
2026-01-04 15:00:10.37	205.38	44.43	-42.6	-43.8	21.9	0.00e+00	43	36	0	984612864	60	7515
2026-01-04 15:00:11.38	205.36	44.13	-42.3	-43.4	22.3	0.00e+00	0	37	0	986710016	60	7218
2026-01-04 15:00:12.40	205.35	43.83	-42.0	-43.0	22.7	0.00e+00	92	36	0	987758592	60	6906
2026-01-04 15:00:13.41	205.33	43.54	-42.4	-43.5	22.3	0.00e+00	0	37	0	989855744	60	7302
2026-01-04 15:00:14.42	205.32	43.25	-42.2	-43.2	22.6	0.00e+00	0	37	0	991952896	60	7057
2026-01-04 15:00:15.43	205.30	42.96	-42.7	-43.8	22.1	0.00e+00	0	37	0	994050048	60	7538
2026-01-04 15:00:16.44	205.29	42.67	-43.6	-44.9	21.0	0.00e+00	0	36	0	996147200	60	8608
2026-01-04 15:00:17.45	205.28	42.39	-44.2	-45.7	20.2	0.00e+00	42	37	0	997195776	60	9399
2026-01-04 15:00:18.46	205.26	42.11	-44.8	-46.5	19.5	0.00e+00	0	37	0	999292928	60	10310
2026-01-04 15:00:19.47	205.25	41.82	-45.0	-46.7	19.6	0.00e+00	92	37	0	1001390080	60	10575
2026-01-04 15:00:20.48	205.24	41.55	-44.6	-46.2	20.3	0.00e+00	0	37	0	1003487232	60	9917
2026-01-04 15:00:21.50	205.23	41.27	-42.7	-43.8	22.0	0.00e+00	62	37	0	1005584384	60	7572
2026-01-04 15:00:22.51	205.21	40.99	-42.5	-43.6	22.1	0.00e+00	0	37	0	1006632960	60	7371
2026-01-04 15:00:23.52	205.20	40.72	-42.2	-43.2	22.6	0.00e+00	0	36	0	1008730112	60	7079
2026-01-04 15:00:24.53	205.19	40.45	-42.1	-43.1	22.6	0.00e+00	24	37	0	1010827264	60	6986
2026-01-04 15:00:25.54	205.18	40.18	-41.8	-42.7	22.9	0.00e+00	0	36	0	1012924416	60	6692
2026-01-04 15:00:26.55	205.17	39.92	-42.2	-43.2	22.5	0.00e+00	21	37	0	1015021568	60	7063
2026-01-04 15:00:27.56	205.16	39.65	-42.3	-43.4	22.2	0.00e+00	0	37	0	1017118720	60	7234
2026-01-04 15:00:28.58	205.15	39.39	-43.3	-44.6	21.2	0.00e+00	92	37	0	1018167296	60	8267
2026-01-04 15:00:29.59	205.14	39.13	-44.8	-46.4	19.6	0.00e+00	0	37	0	1020264448	60	10179
2026-01-04 15:00:30.60	205.13	38.87	-45.4	-47.1	19.2	0.00e+00	28	37	0	1022361600	60	11067
2026-01-04 15:00:31.61	205.12	38.62	-44.9	-46.5	19.6	0.00e+00	9	37	0	1024458752	60	10256
2026-01-04 15:00:32.62	205.11	38.36	-45.2	-46.8	19.3	0.00e+00	0	37	0	1026555904	60	10717
2026-01-04 15:00:33.63	205.10	38.11	-44.9	-46.4	19.6	0.00e+00	23	37	0	1027604480	60	10242
2026-01-04 15:00:34.64	205.09	37.86	-43.5	-44.8	21.3	0.00e+00	0	37	0	1029701632	60	8440
2026-01-04 15:00:35.65	205.08	37.61	-43.2	-44.4	21.5	0.00e+00	90	37	0	1031798784	60	8104
2026-01-04 15:00:36.66	205.07	37.36	-43.0	-44.2	21.6	0.00e+00	0	37	0	1033895936	60	7942
2026-01-04 15:00:37.67	205.06	37.12	-42.5	-43.7	22.0	0.00e+00	0	37	0	1035993088	60	7445
2026-01-04 15:00:38.68	205.05	36.88	-42.9	-44.1	21.8	0.00e+00	0	37	0	1037041664	60	7852
2026-01-04 15:00:39.70	205.05	36.63	-43.5	-44.7	21.2	0.00e+00	0	37	0	1039138816	60	8415
2026-01-04 15:00:40.71	205.04	36.39	-42.5	-43.6	22.2	0.00e+00	69	37	0	1041235968	60	7355
2026-01-04 15:00:41.72	205.03	36.15	-42.2	-43.2	22.6	0.00e+00	0	37	0	1043333120	60	7071
2026-01-04 15:00:42.73	205.02	35.92	-42.6	-43.7	22.0	0.00e+00	91	36	0	1045430272	60	7505
2026-01-04 15:00:43.74	205.01	35.68	-42.4	-43.6	22.1	0.00e+00	0	37	0	1046478848	60	7340
2026-01-04 15:00:44.75	205.01	35.45	-43.0	-44.3	21.7	0.00e+00	0	37	0	1048576000	60	7968
2026-01-04 15:00:45.76	205.00	35.22	-43.9	-45.3	20.7	0.00e+00	0	37	0	1050673152	60	8997
2026-01-04 15:00:46.77	204.99	34.99	-45.1	-46.7	19.4	0.00e+00	0	37	0	1052770304	60	10517
2026-01-04 15:00:47.78	204.99	34.76	-46.2	-48.2	17.6	0.00e+00	61	37	0	1054867456	60	12581
2026-01-04 15:00:48.80	204.98	34.54	-47.7	-50.5	15.1	0.00e+00	0	37	0	1055916032	60	16240
2026-01-04 15:00:49.81	204.97	34.31	-48.4	-51.7	14.5	0.00e+00	80	37	0	1058013184	60	18851
2026-01-04 15:00:50.82	204.97	34.09	-48.1	-51.3	15.1	7.00e-07	0	37	0	1060110336	60	17846
2026-01-04 15:00:51.83	204.96	33.87	-47.5	-50.2	16.2	0.00e+00	0	37	0	1062207488	60	15780
2026-01-04 15:00:52.84	204.95	33.65	-46.3	-48.4	18.1	0.00e+00	30	37	0	1064304640	60	12791
2026-01-04 15:00:53.85	204.95	33.43	-45.7	-47.5	18.7	0.00e+00	0	36	0	1065353216	60	11537
2026-01-04 15:00:54.86	204.94	33.21	-44.5	-46.0	20.2	0.00e+00	44	37	0	1067450368	60	9740
2026-01-04 15:00:55.87	204.93	33.00	-43.3	-44.6	21.3	0.00e+00	0	37	0	1069547520	60	8237
2026-01-04 15:00:56.88	204.93	32.78	-42.5	-43.6	22.0	0.00e+00	91	36	0	1071644672	60	7395
2026-01-04 15:00:57.90	204.92	32.57	-42.6	-43.7	22.0	0.00e+00	0	37	0	1073741824	60	7481
2026-01-04 15:00:58.91	204.92	32.36	-42.9	-44.0	21.6	0.00e+00	0	36	0	1074790400	60	7763
2026-01-04 15:00:59.92	204.91	32.15	-43.4	-44.6	21.1	0.00e+00	0	37	0	1076887552	60	8265
2026-01-04 15:01:00.93	204.91	31.94	-43.5	-44.8	20.9	0.00e+00	0	37	0	1078984704	60	8441
2026-01-04 15:01:01.94	204.90	31.74	-43.9	-45.2	20.8	0.00e+00	28	37	0	1081081856	60	8841
2026-01-04 15:01:02.95	204.90	31.53	-44.0	-45.3	20.7	0.00e+00	0	37	0	1083179008	60	9005
2026-01-04 15:01:03.96	204.89	31.33	-43.8	-45.1	20.9	0.00e+00	25	37	0	1085276160	60	8790
2026-01-04 15:01:04.97	204.89	31.13	-43.7	-45.0	20.9	0.00e+00	0	37	0	1086324736	60	8658
2026-01-04 15:01:05.98	204.88	30.93	-43.4	-44.7	21.1	0.00e+00	2	37	0	1088421888	60	8340
2026-01-04 15:01:07.00	204.88	30.73	-42.8	-43.9	21.8	0.00e+00	0	37	0	1090519040	60	7666
2026-01-04 15:01:08.01	204.87	30.53	-43.0	-44.2	21.6	0.00e+00	0	37	0	1092616192	60	7917
2026-01-04 15:01:09.02	204.87	30.33	-43.7	-44.9	21.1	0.00e+00	0	37	0	1094713344	60	8610
2026-01-04 15:01:10.03	204.86	30.14	-44.2	-45.6	20.3	0.00e+00	0	37	0	1095761920	60	9311
2026-01-04 15:01:11.04	204.86	29.94	-44.8	-46.3	19.7	0.00e+00	77	37	0	1097859072	60	10016
2026-01-04 15:01:12.05	204.86	29.75	-45.4	-47.0	19.0	0.00e+00	0	37	0	1099956224	60	10973
2026-01-04 15:01:13.06	204.85	29.56	-46.1	-47.9	18.3	0.00e+00	87	37	0	1102053376	60	12146
2026-01-04 15:01:14.07	204.85	29.37	-46.2	-48.1	17.8	0.00e+00	0	37	0	1104150528	60	12384
2026-01-04 15:01:15.09	204.84	29.18	-45.7	-47.4	18.8	0.00e+00	24	37	0	1105199104	60	11424
2026-01-04 15:01:16.10	204.84	28.99	-45.1	-46.7	19.7	0.00e+00	0	36	0	1107296256	60	10547
2026-01-04 15:01:17.11	204.84	28.81	-44.1	-45.4	20.7	0.00e+00	0	37	0	1109393408	60	9092
2026-01-04 15:01:18.12	204.83	28.62	-43.2	-44.4	21.6	0.00e+00	20	37	0	1111490560	60	8067
2026-01-04 15:01:19.13	204.83	28.44	-42.5	-43.6	22.2	0.00e+00	0	37	0	1113587712	60	7391
2026-01-04 15:01:20.14	204.82	28.26	-41.8	-42.8	22.7	0.00e+00	92	37	0	1114636288	60	6764
2026-01-04 15:01:21.15	204.82	28.08	-41.6	-42.6	22.9	0.00e+00	0	37	0	1116733440	60	6556
2026-01-04 15:01:22.16	204.82	27.90	-41.0	-42.0	23.4	0.00e+00	24	37	0	1118830592	60	6141
2026-01-04 15:01:23.17	204.81	27.72	-40.9	-41.8	23.5	0.00e+00	0	37	0	1120927744	60	6004
2026-01-04 15:01:24.19	204.81	27.54	-40.8	-41.7	23.5	0.00e+00	0	37	0	1123024896	60	5930
2026-01-04 15:01:25.20	204.81	27.36	-40.6	-41.5	23.8	0.00e+00	29	36	0	1125122048	60	5780
2026-01-04 15:01:26.21	204.81	27.18	-40.6	-41.4	23.7	0.00e+00	0	36	0	1126170624	60	5756
2026-01-04 15:01:27.22	204.80	27.01	-40.6	-41.4	23.8	0.00e+00	82	37	0	1128267776	60	5755
2026-01-04 15:01:28.23	204.80	26.84	-40.9	-41.8	23.6	0.00e+00	0	37	0	1130364928	60	5968
2026-01-04 15:01:29.24	204.80	26.67	-40.6	-41.5	23.7	0.00e+00	0	37	0	1132462080	60	5772
2026-01-04 15:01:30.25	204.79	26.49	-40.6	-41.5	23.6	0.00e+00	0	37	0	1134559232	60	5793
2026-01-04 15:01:31.26	204.79	26.32	-40.8	-41.7	23.5	0.00e+00	0	37	0	1135607808	60	5931
2026-01-04 15:01:32.27	204.79	26.16	-40.8	-41.8	23.5	0.00e+00	62	37	0	1137704960	60	5965
2026-01-04 15:01:33.29	204.79	25.99	-41.1	-42.1	23.2	0.00e+00	0	37	0	1139802112	60	6192
2026-01-04 15:01:34.30	204.78	25.82	-41.1	-42.1	23.2	0.00e+00	53	37	0	1141899264	60	6199
2026-01-04 15:01:35.31	204.78	25.65	-41.4	-42.4	23.0	0.00e+00	0	37	0	1143996416	60	6422
2026-01-04 15:01:36.32	204.78	25.49	-41.6	-42.6	22.8	0.00e+00	0	37	0	1145044992	60	6592
2026-01-04 15:01:37.33	204.78	25.33	-41.5	-42.5	22.9	0.00e+00	0	37	0	1147142144	60	6503
2026-01-04 15:01:38.34	204.77	25.16	-41.7	-42.7	22.8	0.00e+00	0	37	0	1149239296	60	6640
2026-01-04 15:01:39.35	204.77	25.00	-41.3	-42.3	23.1	0.00e+00	27	37	0	1151336448	60	6360
2026-01-04 15:01:40.36	204.77	24.84	-41.2	-42.2	23.2	0.00e+00	0	37	0	1153433600	60	6265
2026-01-04 15:01:41.37	204.77	24.68	-40.9	-41.9	23.5	0.00e+00	92	37	0	1154482176	60	6055
2026-01-04 15:01:42.39	204.77	24.52	-40.8	-41.8	23.5	0.00e+00	0	37	0	1156579328	60	5996
2026-01-04 15:01:43.40	204.76	24.36	-40.6	-41.6	23.6	0.00e+00	70	37	0	1158676480	60	5839
2026-01-04 15:01:44.41	204.76	24.21	-40.7	-41.7	23.6	0.00e+00	0	37	0	1160773632	60	5901
2026-01-04 15:01:45.42	204.76	24.05	-40.7	-41.7	23.6	0.00e+00	0	37	0	1162870784	60	5898
2026-01-04 15:01:46.43	204.76	23.89	-40.8	-41.7	23.6	0.00e+00	61	37	0	1164967936	60	5943
2026-01-04 15:01:47.44	204.76	23.74	-40.9	-41.9	23.5	0.00e+00	0	37	0	1166016512	60	6044
2026-01-04 15:01:48.45	204.75	23.59	-41.1	-42.1	23.2	0.00e+00	92	37	0	1168113664	60	6225
2026-01-04 15:01:49.46	204.75	23.43	-41.5	-42.5	22.9	0.00e+00	0	37	0	1170210816	60	6533
2026-01-04 15:01:50.47	204.75	23.28	-42.1	-43.2	22.4	0.00e+00	72	36	0	1172307968	60	7010
2026-01-04 15:01:51.48	204.75	23.13	-42.3	-43.4	22.5	0.00e+00	0	37	0	1174405120	60	7216
2026-01-04 15:01:52.50	204.75	22.98	-42.1	-43.2	22.3	0.00e+00	0	37	0	1175453696	60	7064
2026-01-04 15:01:53.51	204.75	22.83	-42.3	-43.4	22.3	0.00e+00	0	37	0	1177550848	60	7194
2026-01-04 15:01:54.52	204.74	22.69	-42.2	-43.3	22.3	0.00e+00	0	37	0	1179648000	60	7125
2026-01-04 15:01:55.53	204.74	22.54	-42.2	-43.2	22.4	0.00e+00	90	37	0	1181745152	60	7083
2026-01-04 15:01:56.54	204.74	22.39	-41.6	-42.7	22.8	0.00e+00	0	36	0	1183842304	60	6628
2026-01-04 15:01:57.55	204.74	22.25	-41.4	-42.4	23.0	0.00e+00	61	37	0	1184890880	60	6435
2026-01-04 15:01:58.56	204.74	22.10	-41.1	-42.1	23.2	0.00e+00	0	36	0	1186988032	60	6194
2026-01-04 15:01:59.57	204.74	21.96	-41.1	-42.0	23.3	0.00e+00	0	37	0	1189085184	60	6164
2026-01-04 15:02:00.59	204.74	21.81	-41.1	-42.1	23.3	0.00e+00	0	37	0	1191182336	60	6187
2026-01-04 15:02:01.60	204.74	21.67	-40.8	-41.7	23.5	0.00e+00	0	36	0	1193279488	60	5915
2026-01-04 15:02:02.61	204.73	21.53	-40.5	-41.4	23.7	0.00e+00	92	37	0	1194328064	60	5758
2026-01-04 15:02:03.62	204.73	21.39	-40.5	-41.4	23.8	0.00e+00	0	37	0	1196425216	60	5707
2026-01-04 15:02:04.63	204.73	21.25	-40.5	-41.4	23.8	0.00e+00	82	37	0	1198522368	60	5724
2026-01-04 15:02:05.64	204.73	21.11	-40.7	-41.7	23.5	0.00e+00	0	37	0	1200619520	60	5918
2026-01-04 15:02:06.65	204.73	20.97	-40.9	-41.8	23.6	0.00e+00	0	37	0	1202716672	60	6012
2026-01-04 15:02:07.66	204.73	20.84	-41.2	-42.2	23.2	0.00e+00	0	37	0	1203765248	60	6252
2026-01-04 15:02:08.67	204.73	20.70	-41.1	-42.1	23.2	0.00e+00	0	37	0	1205862400	60	6211
2026-01-04 15:02:09.68	204.73	20.56	-41.0	-42.0	23.3	0.00e+00	57	37	0	1207959552	60	6133
2026-01-04 15:02:10.70	204.73	20.43	-41.2	-42.3	23.1	0.00e+00	0	36	0	1210056704	60	6318
2026-01-04 15:02:11.71	204.73	20.29	-41.3	-42.3	23.0	0.00e+00	91	37	0	1212153856	60	6326
2026-01-04 15:02:12.72	204.73	20.16	-41.5	-42.5	22.9	0.00e+00	0	37	0	1214251008	60	6479
