passes_logs/2026/01/04/R4.6S_Anadyr_2ch/R4.6S_Anadyr_2ch__20260104_230601_SUOMI_NPP_rec.log

#Pass ID: 20260104_230601_SUOMI NPP
#Satellite: SUOMI NPP
#Configuration: NPP
#almurnet v.1.7.20251203
#Start time: 2026-01-04 23:06:04

#Version: 2.2.20231116
#Station: R4.6S_Anadyr_2ch
#Location: 177.4865 lon 64.73178 lat
#TLE: 1 37849U 11061A   25350.92281687  .00000071  00000+0  54882-4 0  9996
#TLE: 2 37849  98.7777 288.2268 0002366 112.8570 247.2856 14.19515404732588

#Time	Az	El	Level	Level2	SNR	BER	BlckErr	Temp	State	Recorded	gain1	gain2
2026-01-04 23:06:04.59	127.17	0.18	-52.1	-66.0	3.3	1.54e+00	0	28	0	0	60	96875
2026-01-04 23:06:05.60	127.14	0.24	-51.7	-67.0	3.6	1.51e+00	0	28	104	0	60	109549
2026-01-04 23:06:06.61	127.11	0.30	-51.3	-66.8	3.6	1.51e+00	0	29	104	0	60	106553
2026-01-04 23:06:07.62	127.08	0.36	-51.4	-66.8	3.6	1.51e+00	0	29	104	0	60	106336
2026-01-04 23:06:08.63	127.05	0.42	-51.3	-66.8	3.6	1.51e+00	0	29	104	0	60	106241
2026-01-04 23:06:09.64	127.02	0.48	-51.3	-66.7	3.6	1.51e+00	0	28	104	0	60	105035
2026-01-04 23:06:10.65	126.99	0.54	-51.3	-66.7	3.6	1.51e+00	0	29	104	0	60	104971
2026-01-04 23:06:11.66	126.96	0.60	-51.2	-66.6	3.6	1.51e+00	0	29	104	0	60	104494
2026-01-04 23:06:12.67	126.93	0.66	-51.2	-66.5	3.6	1.51e+00	0	29	104	0	60	103444
2026-01-04 23:06:13.68	126.90	0.72	-51.1	-66.5	3.6	1.51e+00	0	29	104	0	60	103151
2026-01-04 23:06:14.70	126.87	0.78	-50.6	-66.4	3.6	1.51e+00	0	29	104	0	60	101452
2026-01-04 23:06:15.71	126.84	0.84	-50.8	-66.2	3.6	1.51e+00	0	29	104	0	60	99763
2026-01-04 23:06:16.72	126.81	0.90	-50.7	-66.1	3.6	1.51e+00	0	29	104	0	60	97996
2026-01-04 23:06:17.73	126.78	0.96	-50.2	-65.5	3.6	1.51e+00	0	29	104	0	60	92298
2026-01-04 23:06:18.74	126.75	1.02	-49.7	-65.0	3.6	1.51e+00	0	29	104	0	60	86922
2026-01-04 23:06:19.75	126.72	1.08	-49.7	-65.0	3.6	1.51e+00	0	29	104	0	60	86823
2026-01-04 23:06:20.76	126.68	1.14	-49.7	-65.1	3.6	1.51e+00	0	29	104	0	60	87412
2026-01-04 23:06:21.77	126.65	1.20	-49.7	-65.1	3.6	1.51e+00	0	29	104	0	60	87312
2026-01-04 23:06:22.78	126.62	1.27	-49.7	-65.0	3.6	1.51e+00	0	29	104	0	60	86908
2026-01-04 23:06:23.79	126.59	1.33	-49.7	-65.0	3.5	1.51e+00	0	29	104	0	60	86486
2026-01-04 23:06:24.81	126.56	1.39	-49.7	-65.0	3.6	1.51e+00	0	29	104	0	60	86614
2026-01-04 23:06:25.82	126.53	1.45	-49.7	-65.0	3.6	1.51e+00	0	29	104	0	60	86521
2026-01-04 23:06:26.83	126.49	1.51	-49.7	-65.0	3.6	1.51e+00	0	29	104	0	60	86843
2026-01-04 23:06:27.84	126.46	1.58	-49.7	-65.0	3.6	1.51e+00	0	29	104	0	60	86585
2026-01-04 23:06:28.85	126.43	1.64	-49.7	-65.0	3.6	1.51e+00	0	29	104	0	60	87171
2026-01-04 23:06:29.86	126.40	1.70	-49.6	-65.0	3.6	1.51e+00	0	29	104	0	60	86878
2026-01-04 23:06:30.87	126.37	1.76	-49.6	-65.0	3.6	1.51e+00	0	29	104	0	60	87036
2026-01-04 23:06:31.88	126.33	1.82	-49.7	-65.0	3.6	1.51e+00	0	29	104	0	60	86786
2026-01-04 23:06:32.89	126.30	1.89	-49.7	-64.9	3.6	1.51e+00	0	29	104	0	60	85394
2026-01-04 23:06:33.90	126.27	1.95	-49.6	-64.9	3.6	1.51e+00	0	29	104	0	60	85509
2026-01-04 23:06:34.91	126.23	2.01	-49.7	-64.8	3.6	1.51e+00	0	29	104	0	60	84933
2026-01-04 23:06:35.92	126.20	2.08	-49.7	-64.8	3.6	1.51e+00	0	29	104	0	60	84768
2026-01-04 23:06:36.93	126.17	2.14	-49.7	-64.9	3.6	1.51e+00	0	29	104	0	60	85845
2026-01-04 23:06:37.94	126.13	2.20	-49.6	-65.0	3.6	1.51e+00	0	29	104	0	60	86845
2026-01-04 23:06:38.95	126.10	2.27	-49.7	-65.1	3.6	1.51e+00	0	29	104	0	60	87220
2026-01-04 23:06:39.97	126.07	2.33	-49.7	-65.1	3.6	1.51e+00	0	29	104	0	60	87474
2026-01-04 23:06:40.98	126.03	2.39	-49.7	-65.1	3.6	1.51e+00	0	29	104	0	60	88013
2026-01-04 23:06:41.99	126.00	2.46	-49.7	-65.0	3.6	1.51e+00	0	29	104	0	60	87202
2026-01-04 23:06:43.00	125.96	2.52	-49.7	-65.0	3.6	1.51e+00	0	29	104	0	60	86330
2026-01-04 23:06:44.01	125.93	2.59	-49.7	-64.9	3.6	1.51e+00	0	29	104	0	60	86156
2026-01-04 23:06:45.02	125.89	2.65	-49.7	-64.9	3.6	1.51e+00	0	29	104	0	60	85676
2026-01-04 23:06:46.03	125.86	2.72	-49.7	-64.8	3.6	1.51e+00	0	29	104	0	60	84737
2026-01-04 23:06:47.04	125.82	2.78	-49.7	-64.2	3.6	1.51e+00	0	29	104	0	60	78905
2026-01-04 23:06:48.05	125.79	2.84	-49.6	-64.3	3.6	1.51e+00	0	29	104	0	60	79944
2026-01-04 23:06:49.06	125.75	2.91	-49.6	-64.1	3.6	1.51e+00	0	29	104	0	60	78045
2026-01-04 23:06:50.07	125.72	2.97	-49.6	-64.4	3.5	1.51e+00	0	29	104	0	60	81386
2026-01-04 23:06:51.08	125.68	3.04	-49.7	-64.8	3.6	1.51e+00	0	29	104	0	60	85074
2026-01-04 23:06:52.09	125.65	3.10	-49.7	-65.0	3.6	1.51e+00	0	29	104	0	60	86476
2026-01-04 23:06:53.10	125.61	3.17	-49.6	-63.1	3.6	1.51e+00	0	29	104	0	60	69364
2026-01-04 23:06:54.12	125.57	3.24	-49.4	-60.7	4.3	1.16e+00	90	29	104	0	60	52966
2026-01-04 23:06:55.13	125.54	3.30	-49.0	-57.4	6.4	8.29e-01	0	29	104	0	60	36042
2026-01-04 23:06:56.14	125.50	3.37	-48.7	-55.4	8.0	6.98e-02	90	29	0	1048576	60	28571
2026-01-04 23:06:57.15	125.46	3.43	-47.9	-52.6	11.6	1.76e-02	0	29	0	2097152	60	20863
2026-01-04 23:06:58.16	125.43	3.50	-47.2	-51.1	12.2	1.25e-03	91	29	0	4194304	60	17520
2026-01-04 23:06:59.17	125.39	3.57	-46.8	-50.3	13.6	4.77e-04	92	29	0	6291456	60	15923
2026-01-04 23:07:00.18	125.35	3.63	-47.3	-51.2	12.6	1.83e-05	0	29	0	8388608	60	17702
2026-01-04 23:07:01.19	125.31	3.70	-50.0	-65.0	3.6	1.10e+00	0	29	104	8388608	60	87067
2026-01-04 23:07:02.20	125.28	3.77	-49.6	-62.8	3.8	1.51e+00	0	29	104	8388608	60	67469
2026-01-04 23:07:03.21	125.24	3.83	-49.1	-58.0	6.0	3.44e-01	92	29	104	8388608	60	38868
2026-01-04 23:07:04.22	125.20	3.90	-42.9	-44.4	19.5	0.00e+00	0	29	0	9437184	60	8090
2026-01-04 23:07:05.24	125.16	3.97	-49.6	-64.4	3.6	1.51e+00	0	29	104	10485760	60	81385
2026-01-04 23:07:06.25	125.12	4.04	-43.6	-45.2	17.6	1.04e+00	64	29	104	10485760	60	8916
2026-01-04 23:07:07.26	125.09	4.10	-43.5	-45.2	18.7	0.00e+00	0	29	0	11534336	60	8886
2026-01-04 23:07:08.27	125.05	4.17	-43.7	-45.4	18.6	0.00e+00	91	29	0	12582912	60	9127
2026-01-04 23:07:09.28	125.01	4.24	-44.0	-45.8	18.4	0.00e+00	0	29	0	14680064	60	9484
2026-01-04 23:07:10.29	124.97	4.31	-43.4	-45.1	18.9	0.00e+00	90	29	0	16777216	60	8748
2026-01-04 23:07:11.30	124.93	4.37	-43.4	-45.0	19.0	0.00e+00	0	29	0	18874368	60	8644
2026-01-04 23:07:12.31	124.89	4.44	-43.5	-45.2	19.0	0.00e+00	91	29	0	20971520	60	8857
2026-01-04 23:07:13.32	124.85	4.51	-43.2	-44.8	19.2	0.00e+00	92	29	0	22020096	60	8491
2026-01-04 23:07:14.34	124.81	4.58	-43.5	-45.2	19.0	0.00e+00	0	29	0	24117248	60	8838
2026-01-04 23:07:15.35	124.77	4.65	-43.0	-44.5	19.4	0.00e+00	92	29	0	26214400	60	8193
2026-01-04 23:07:16.36	124.73	4.72	-42.9	-44.4	19.7	0.00e+00	0	29	0	28311552	60	8046
2026-01-04 23:07:17.37	124.69	4.79	-43.1	-44.6	19.4	0.00e+00	91	29	0	30408704	60	8274
2026-01-04 23:07:18.38	124.65	4.86	-43.1	-44.7	19.4	0.00e+00	0	29	0	31457280	60	8343
2026-01-04 23:07:19.39	124.61	4.93	-43.5	-45.2	19.0	0.00e+00	91	29	0	33554432	60	8835
2026-01-04 23:07:20.40	124.56	5.00	-43.4	-45.0	19.1	0.00e+00	48	29	0	35651584	60	8667
2026-01-04 23:07:21.41	124.52	5.07	-43.4	-45.0	19.0	0.00e+00	0	29	0	37748736	60	8698
2026-01-04 23:07:22.42	124.48	5.14	-43.7	-45.4	18.8	0.00e+00	91	29	0	39845888	60	9057
2026-01-04 23:07:23.43	124.44	5.21	-43.3	-45.0	19.0	0.00e+00	0	29	0	41943040	60	8636
2026-01-04 23:07:24.45	124.40	5.28	-43.1	-44.6	19.5	0.00e+00	92	29	0	42991616	60	8305
2026-01-04 23:07:25.46	124.35	5.35	-43.3	-44.9	19.0	0.00e+00	0	29	0	45088768	60	8564
2026-01-04 23:07:26.47	124.31	5.42	-43.3	-44.8	19.2	0.00e+00	91	29	0	47185920	60	8510
2026-01-04 23:07:27.48	124.27	5.49	-42.9	-44.3	19.8	0.00e+00	0	29	0	49283072	60	8018
2026-01-04 23:07:28.49	124.23	5.56	-42.8	-44.3	19.7	0.00e+00	90	29	0	51380224	60	8021
2026-01-04 23:07:29.50	124.18	5.63	-43.2	-44.7	19.4	0.00e+00	91	29	0	52428800	60	8388
2026-01-04 23:07:30.51	124.14	5.70	-43.0	-44.5	19.6	0.00e+00	0	29	0	54525952	60	8175
2026-01-04 23:07:31.52	124.10	5.77	-43.0	-44.5	19.6	0.00e+00	91	29	0	56623104	60	8227
2026-01-04 23:07:32.54	124.05	5.85	-43.1	-44.6	19.4	0.00e+00	0	29	0	58720256	60	8304
2026-01-04 23:07:33.55	124.01	5.92	-42.7	-44.2	19.9	0.00e+00	91	29	0	60817408	60	7881
2026-01-04 23:07:34.56	123.96	5.99	-43.4	-45.0	19.4	0.00e+00	0	29	0	61865984	60	8664
2026-01-04 23:07:35.57	123.92	6.06	-43.0	-44.5	19.8	0.00e+00	92	29	0	63963136	60	8232
2026-01-04 23:07:36.58	123.87	6.13	-42.9	-44.4	19.8	0.00e+00	92	29	0	66060288	60	8057
2026-01-04 23:07:37.59	123.83	6.21	-43.0	-44.5	19.9	0.00e+00	0	29	0	68157440	60	8166
2026-01-04 23:07:38.60	123.78	6.28	-42.8	-44.3	20.0	0.00e+00	55	29	0	70254592	60	7975
2026-01-04 23:07:39.61	123.74	6.35	-43.0	-44.5	19.9	0.00e+00	0	29	0	71303168	60	8155
2026-01-04 23:07:40.62	123.69	6.43	-42.9	-44.4	20.0	0.00e+00	80	29	0	73400320	60	8064
2026-01-04 23:07:41.63	123.65	6.50	-42.9	-44.3	20.0	0.00e+00	0	29	0	75497472	60	8021
2026-01-04 23:07:42.64	123.60	6.57	-42.8	-44.2	20.1	0.00e+00	92	29	0	77594624	60	7933
2026-01-04 23:07:43.66	123.55	6.65	-42.8	-44.2	20.1	0.00e+00	92	29	0	79691776	60	7912
2026-01-04 23:07:44.67	123.51	6.72	-42.8	-44.2	20.1	0.00e+00	0	29	0	81788928	60	7914
2026-01-04 23:07:45.68	123.46	6.80	-42.8	-44.2	20.0	0.00e+00	46	29	0	82837504	60	7948
2026-01-04 23:07:46.69	123.41	6.87	-42.9	-44.3	19.9	0.00e+00	0	29	0	84934656	60	7960
2026-01-04 23:07:47.70	123.36	6.94	-42.7	-44.1	20.3	0.00e+00	92	29	0	87031808	60	7790
2026-01-04 23:07:48.71	123.32	7.02	-42.7	-44.0	20.3	0.00e+00	0	29	0	89128960	60	7765
2026-01-04 23:07:49.72	123.27	7.09	-42.7	-44.0	20.3	0.00e+00	92	29	0	91226112	60	7767
2026-01-04 23:07:50.73	123.22	7.17	-42.6	-43.9	20.5	0.00e+00	92	30	0	92274688	60	7659
2026-01-04 23:07:51.75	123.17	7.25	-42.7	-44.1	20.3	0.00e+00	0	30	0	94371840	60	7824
2026-01-04 23:07:52.76	123.12	7.32	-42.5	-43.9	20.5	0.00e+00	57	30	0	96468992	60	7620
2026-01-04 23:07:53.77	123.07	7.40	-42.6	-44.0	20.4	0.00e+00	0	30	0	98566144	60	7720
2026-01-04 23:07:54.78	123.02	7.47	-42.4	-43.7	20.5	0.00e+00	92	30	0	100663296	60	7505
2026-01-04 23:07:55.79	122.97	7.55	-42.6	-43.9	20.5	0.00e+00	0	29	0	101711872	60	7637
2026-01-04 23:07:56.80	122.92	7.63	-42.5	-43.8	20.5	0.00e+00	92	30	0	103809024	60	7566
2026-01-04 23:07:57.81	122.87	7.70	-42.3	-43.6	20.8	0.00e+00	43	30	0	105906176	60	7366
2026-01-04 23:07:58.82	122.82	7.78	-42.4	-43.7	20.8	0.00e+00	0	30	0	108003328	60	7425
2026-01-04 23:07:59.83	122.77	7.86	-42.4	-43.7	20.7	0.00e+00	90	30	0	110100480	60	7452
2026-01-04 23:08:00.84	122.72	7.93	-42.3	-43.6	20.8	0.00e+00	0	30	0	111149056	60	7339
2026-01-04 23:08:01.86	122.67	8.01	-42.3	-43.6	20.9	0.00e+00	92	30	0	113246208	60	7374
2026-01-04 23:08:02.87	122.62	8.09	-42.3	-43.6	20.8	0.00e+00	0	30	0	115343360	60	7386
2026-01-04 23:08:03.88	122.57	8.17	-42.5	-43.8	20.7	0.00e+00	90	30	0	117440512	60	7519
2026-01-04 23:08:04.89	122.51	8.24	-42.3	-43.5	20.9	0.00e+00	27	29	0	119537664	60	7324
2026-01-04 23:08:05.90	122.46	8.32	-42.2	-43.4	21.0	0.00e+00	6	30	0	120586240	60	7229
2026-01-04 23:08:06.91	122.41	8.40	-42.1	-43.3	21.1	0.00e+00	90	30	0	122683392	60	7140
2026-01-04 23:08:07.92	122.35	8.48	-42.0	-43.2	21.3	0.00e+00	0	30	0	124780544	60	7053
2026-01-04 23:08:08.93	122.30	8.56	-41.9	-43.1	21.4	0.00e+00	92	30	0	126877696	60	6936
2026-01-04 23:08:09.94	122.25	8.64	-41.9	-43.0	21.5	0.00e+00	0	30	0	128974848	60	6920
2026-01-04 23:08:10.95	122.19	8.72	-43.0	-44.3	20.3	0.00e+00	92	30	0	130023424	60	8044
2026-01-04 23:08:11.97	122.14	8.80	-41.6	-42.7	21.7	0.00e+00	0	30	0	132120576	60	6692
2026-01-04 23:08:12.98	122.08	8.88	-42.2	-43.4	21.1	0.00e+00	91	30	0	134217728	60	7221
2026-01-04 23:08:13.99	122.03	8.96	-41.8	-42.9	21.5	0.00e+00	90	30	0	136314880	60	6825
2026-01-04 23:08:15.00	121.97	9.04	-41.9	-43.0	21.5	0.00e+00	0	29	0	138412032	60	6922
2026-01-04 23:08:16.01	121.92	9.12	-42.5	-43.8	20.9	0.00e+00	92	30	0	140509184	60	7563
2026-01-04 23:08:17.02	121.86	9.20	-42.2	-43.5	21.2	0.00e+00	0	30	0	141557760	60	7259
2026-01-04 23:08:18.03	121.81	9.28	-41.9	-43.0	21.4	0.00e+00	92	30	0	143654912	60	6925
2026-01-04 23:08:19.04	121.75	9.36	-42.1	-43.3	21.3	0.00e+00	0	29	0	145752064	60	7147
2026-01-04 23:08:20.06	121.69	9.44	-42.3	-43.5	21.0	0.00e+00	86	30	0	147849216	60	7336
2026-01-04 23:08:21.07	121.63	9.53	-42.2	-43.4	21.2	0.00e+00	92	30	0	149946368	60	7189
2026-01-04 23:08:22.08	121.58	9.61	-41.6	-42.7	21.7	0.00e+00	0	29	0	150994944	60	6684
2026-01-04 23:08:23.09	121.52	9.69	-41.8	-42.9	21.7	0.00e+00	54	29	0	153092096	60	6816
2026-01-04 23:08:24.10	121.46	9.77	-41.8	-42.9	21.7	0.00e+00	0	30	0	155189248	60	6844
2026-01-04 23:08:25.11	121.40	9.85	-41.8	-42.9	21.6	0.00e+00	92	30	0	157286400	60	6842
2026-01-04 23:08:26.12	121.34	9.94	-41.8	-43.0	21.6	0.00e+00	0	30	0	159383552	60	6867
2026-01-04 23:08:27.13	121.28	10.02	-41.9	-43.0	21.5	0.00e+00	92	30	0	160432128	60	6924
2026-01-04 23:08:28.14	121.22	10.10	-42.1	-43.3	21.3	0.00e+00	92	29	0	162529280	60	7162
2026-01-04 23:08:29.16	121.16	10.19	-42.1	-43.3	21.3	0.00e+00	0	30	0	164626432	60	7144
2026-01-04 23:08:30.17	121.10	10.27	-42.0	-43.2	21.4	0.00e+00	71	30	0	166723584	60	7077
2026-01-04 23:08:31.18	121.04	10.36	-41.9	-43.1	21.5	0.00e+00	0	30	0	168820736	60	6963
2026-01-04 23:08:32.19	120.98	10.44	-41.8	-42.9	21.7	0.00e+00	90	30	0	169869312	60	6815
2026-01-04 23:08:33.20	120.92	10.53	-42.0	-43.2	21.4	0.00e+00	0	30	0	171966464	60	7012
2026-01-04 23:08:34.21	120.86	10.61	-41.7	-42.8	21.8	0.00e+00	92	30	0	174063616	60	6767
2026-01-04 23:08:35.22	120.79	10.70	-41.5	-42.6	21.9	0.00e+00	92	29	0	176160768	60	6565
2026-01-04 23:08:36.23	120.73	10.78	-41.7	-42.8	21.9	0.00e+00	0	30	0	178257920	60	6765
2026-01-04 23:08:37.24	120.67	10.87	-41.7	-42.8	21.8	0.00e+00	92	30	0	179306496	60	6730
2026-01-04 23:08:38.26	120.60	10.95	-41.4	-42.4	22.1	0.00e+00	0	29	0	181403648	60	6464
2026-01-04 23:08:39.27	120.54	11.04	-41.4	-42.5	22.1	0.00e+00	92	30	0	183500800	60	6512
2026-01-04 23:08:40.28	120.48	11.13	-41.4	-42.5	22.1	0.00e+00	0	29	0	185597952	60	6471
2026-01-04 23:08:41.29	120.41	11.21	-41.7	-42.8	21.9	0.00e+00	92	30	0	187695104	60	6711
2026-01-04 23:08:42.30	120.35	11.30	-41.6	-42.7	21.9	0.00e+00	92	30	0	189792256	60	6633
2026-01-04 23:08:43.31	120.28	11.39	-41.5	-42.6	22.0	0.00e+00	0	30	0	190840832	60	6540
2026-01-04 23:08:44.32	120.21	11.48	-41.4	-42.5	22.2	0.00e+00	92	30	0	192937984	60	6500
2026-01-04 23:08:45.33	120.15	11.56	-41.6	-42.7	21.9	0.00e+00	0	29	0	195035136	60	6645
2026-01-04 23:08:46.34	120.08	11.65	-41.3	-42.4	22.1	0.00e+00	92	30	0	197132288	60	6435
2026-01-04 23:08:47.35	120.01	11.74	-41.3	-42.4	22.2	0.00e+00	0	30	0	199229440	60	6403
2026-01-04 23:08:48.37	119.95	11.83	-41.0	-42.0	22.4	0.00e+00	92	30	0	200278016	60	6127
2026-01-04 23:08:49.38	119.88	11.92	-41.2	-42.2	22.4	0.00e+00	62	30	0	202375168	60	6280
2026-01-04 23:08:50.39	119.81	12.01	-41.2	-42.3	22.2	0.00e+00	92	30	0	204472320	60	6327
2026-01-04 23:08:51.40	119.74	12.10	-41.0	-42.1	22.4	0.00e+00	92	30	0	206569472	60	6180
2026-01-04 23:08:52.41	119.67	12.19	-41.1	-42.2	22.3	0.00e+00	0	29	0	208666624	60	6290
2026-01-04 23:08:53.42	119.60	12.28	-41.3	-42.4	22.2	0.00e+00	58	30	0	209715200	60	6409
2026-01-04 23:08:54.43	119.53	12.37	-41.2	-42.3	22.3	0.00e+00	0	30	0	211812352	60	6320
2026-01-04 23:08:55.44	119.46	12.46	-41.2	-42.3	22.2	0.00e+00	92	30	0	213909504	60	6332
2026-01-04 23:08:56.45	119.39	12.55	-41.4	-42.5	22.1	0.00e+00	51	30	0	216006656	60	6496
2026-01-04 23:08:57.47	119.32	12.64	-41.1	-42.2	22.4	0.00e+00	10	30	0	218103808	60	6288
2026-01-04 23:08:58.48	119.25	12.73	-41.5	-42.6	22.0	0.00e+00	92	30	0	219152384	60	6562
2026-01-04 23:08:59.49	119.17	12.83	-41.3	-42.3	22.3	0.00e+00	0	29	0	221249536	60	6386
2026-01-04 23:09:00.50	119.10	12.92	-41.0	-42.0	22.5	0.00e+00	92	30	0	223346688	60	6136
2026-01-04 23:09:01.51	119.03	13.01	-40.9	-41.9	22.6	0.00e+00	0	30	0	225443840	60	6071
2026-01-04 23:09:02.52	118.95	13.10	-40.9	-42.0	22.5	0.00e+00	92	30	0	227540992	60	6115
2026-01-04 23:09:03.53	118.88	13.20	-41.0	-42.0	22.6	0.00e+00	33	30	0	228589568	60	6171
2026-01-04 23:09:04.54	118.80	13.29	-41.1	-42.2	22.4	0.00e+00	92	30	0	230686720	60	6260
2026-01-04 23:09:05.56	118.73	13.38	-41.2	-42.2	22.3	0.00e+00	92	30	0	232783872	60	6306
2026-01-04 23:09:06.57	118.65	13.48	-41.3	-42.4	22.3	0.00e+00	0	29	0	234881024	60	6405
2026-01-04 23:09:07.58	118.58	13.57	-41.4	-42.5	22.1	0.00e+00	77	30	0	236978176	60	6537
2026-01-04 23:09:08.59	118.50	13.67	-41.4	-42.6	22.1	0.00e+00	0	30	0	239075328	60	6546
2026-01-04 23:09:09.60	118.42	13.76	-41.1	-42.2	22.3	0.00e+00	92	30	0	240123904	60	6266
2026-01-04 23:09:10.61	118.34	13.86	-41.0	-42.1	22.5	0.00e+00	0	30	0	242221056	60	6197
2026-01-04 23:09:11.62	118.26	13.95	-41.0	-42.1	22.3	0.00e+00	92	30	0	244318208	60	6224
2026-01-04 23:09:12.63	118.19	14.05	-40.8	-41.8	22.5	0.00e+00	92	30	0	246415360	60	6030
2026-01-04 23:09:13.64	118.11	14.15	-40.8	-41.8	22.6	0.00e+00	0	30	0	248512512	60	6032
2026-01-04 23:09:14.65	118.03	14.24	-41.1	-42.2	22.3	0.00e+00	92	30	0	249561088	60	6275
2026-01-04 23:09:15.67	117.94	14.34	-41.1	-42.1	22.5	0.00e+00	0	30	0	251658240	60	6241
2026-01-04 23:09:16.68	117.86	14.44	-41.3	-42.4	22.2	0.00e+00	91	30	0	253755392	60	6392
2026-01-04 23:09:17.69	117.78	14.54	-41.5	-42.6	22.2	0.00e+00	0	30	0	255852544	60	6586
2026-01-04 23:09:18.70	117.70	14.63	-41.5	-42.6	22.0	0.00e+00	92	30	0	257949696	60	6588
2026-01-04 23:09:19.71	117.62	14.73	-41.6	-42.7	22.0	0.00e+00	90	30	0	258998272	60	6648
2026-01-04 23:09:20.72	117.53	14.83	-41.7	-42.9	21.9	0.00e+00	0	30	0	261095424	60	6798
2026-01-04 23:09:21.73	117.45	14.93	-41.8	-42.9	21.9	0.00e+00	90	30	0	263192576	60	6820
2026-01-04 23:09:22.74	117.37	15.03	-41.5	-42.7	22.0	0.00e+00	0	30	0	265289728	60	6621
2026-01-04 23:09:23.76	117.28	15.13	-41.1	-42.1	22.6	0.00e+00	91	30	0	267386880	60	6211
2026-01-04 23:09:24.77	117.19	15.23	-41.3	-42.3	22.3	0.00e+00	0	30	0	268435456	60	6370
2026-01-04 23:09:25.78	117.11	15.33	-41.0	-42.1	22.4	0.00e+00	90	30	0	270532608	60	6179
2026-01-04 23:09:26.79	117.02	15.43	-41.3	-42.4	22.3	0.00e+00	91	30	0	272629760	60	6417
2026-01-04 23:09:27.80	116.93	15.53	-41.6	-42.7	22.0	0.00e+00	41	30	0	274726912	60	6681
2026-01-04 23:09:28.81	116.84	15.63	-41.5	-42.6	22.2	0.00e+00	91	30	0	276824064	60	6597
2026-01-04 23:09:29.82	116.76	15.73	-41.3	-42.4	22.4	0.00e+00	0	30	0	278921216	60	6436
2026-01-04 23:09:30.83	116.67	15.84	-41.3	-42.5	22.2	0.00e+00	85	30	0	279969792	60	6468
2026-01-04 23:09:31.85	116.58	15.94	-41.3	-42.4	22.4	0.00e+00	0	29	0	282066944	60	6399
2026-01-04 23:09:32.86	116.49	16.04	-41.2	-42.3	22.3	0.00e+00	92	30	0	284164096	60	6346
2026-01-04 23:09:33.87	116.39	16.15	-41.1	-42.2	22.4	0.00e+00	83	30	0	286261248	60	6274
2026-01-04 23:09:34.88	116.30	16.25	-41.0	-42.0	22.6	0.00e+00	86	30	0	288358400	60	6111
2026-01-04 23:09:35.89	116.21	16.35	-41.1	-42.1	22.5	0.00e+00	91	30	0	289406976	60	6205
2026-01-04 23:09:36.90	116.12	16.46	-40.8	-41.7	22.8	0.00e+00	0	30	0	291504128	60	5960
2026-01-04 23:09:37.91	116.02	16.56	-40.8	-41.8	22.7	0.00e+00	91	30	0	293601280	60	6012
2026-01-04 23:09:38.92	115.93	16.67	-41.1	-42.1	22.5	0.00e+00	0	30	0	295698432	60	6211
2026-01-04 23:09:39.93	115.83	16.77	-41.1	-42.1	22.5	0.00e+00	91	30	0	297795584	60	6217
2026-01-04 23:09:40.95	115.74	16.88	-41.2	-42.2	22.5	0.00e+00	51	30	0	298844160	60	6285
2026-01-04 23:09:41.96	115.64	16.99	-41.2	-42.3	22.5	0.00e+00	0	30	0	300941312	60	6321
2026-01-04 23:09:42.97	115.54	17.09	-41.5	-42.6	22.1	0.00e+00	92	30	0	303038464	60	6597
2026-01-04 23:09:43.98	115.44	17.20	-41.4	-42.5	22.2	0.00e+00	0	30	0	305135616	60	6505
2026-01-04 23:09:44.99	115.34	17.31	-41.1	-42.1	22.6	0.00e+00	87	30	0	307232768	60	6217
2026-01-04 23:09:46.00	115.24	17.41	-41.3	-42.4	22.4	0.00e+00	0	30	0	308281344	60	6405
2026-01-04 23:09:47.01	115.14	17.52	-40.9	-41.9	22.7	0.00e+00	92	30	0	310378496	60	6059
2026-01-04 23:09:48.02	115.04	17.63	-40.8	-41.9	22.8	0.00e+00	52	30	0	312475648	60	6040
2026-01-04 23:09:49.03	114.94	17.74	-40.8	-41.9	22.7	0.00e+00	92	30	0	314572800	60	6043
2026-01-04 23:09:50.05	114.84	17.85	-41.0	-42.0	22.5	0.00e+00	91	30	0	316669952	60	6167
2026-01-04 23:09:51.06	114.73	17.96	-40.9	-41.9	22.8	0.00e+00	0	30	0	318767104	60	6070
2026-01-04 23:09:52.07	114.63	18.07	-41.1	-42.2	22.5	0.00e+00	39	30	0	319815680	60	6261
2026-01-04 23:09:53.08	114.53	18.18	-40.9	-41.9	22.7	0.00e+00	0	30	0	321912832	60	6100
2026-01-04 23:09:54.09	114.42	18.29	-40.9	-42.0	22.6	0.00e+00	91	30	0	324009984	60	6111
2026-01-04 23:09:55.10	114.31	18.40	-41.0	-42.0	22.7	0.00e+00	0	30	0	326107136	60	6131
2026-01-04 23:09:56.11	114.21	18.51	-41.1	-42.2	22.5	0.00e+00	91	30	0	328204288	60	6264
2026-01-04 23:09:57.12	114.10	18.62	-41.1	-42.1	22.5	0.00e+00	92	30	0	329252864	60	6217
2026-01-04 23:09:58.13	113.99	18.74	-41.1	-42.1	22.6	0.00e+00	0	30	0	331350016	60	6235
2026-01-04 23:09:59.15	113.88	18.85	-41.2	-42.3	22.5	0.00e+00	62	30	0	333447168	60	6344
2026-01-04 23:10:00.16	113.77	18.96	-41.2	-42.3	22.5	0.00e+00	0	30	0	335544320	60	6331
2026-01-04 23:10:01.17	113.66	19.08	-41.1	-42.1	22.5	0.00e+00	92	30	0	337641472	60	6241
2026-01-04 23:10:02.18	113.54	19.19	-41.4	-42.4	22.3	0.00e+00	0	30	0	338690048	60	6444
2026-01-04 23:10:03.19	113.43	19.31	-41.2	-42.2	22.5	0.00e+00	90	30	0	340787200	60	6286
2026-01-04 23:10:04.20	113.32	19.42	-41.7	-42.8	22.1	0.00e+00	92	30	0	342884352	60	6707
2026-01-04 23:10:05.21	113.20	19.54	-41.3	-42.3	22.4	0.00e+00	0	30	0	344981504	60	6333
2026-01-04 23:10:06.22	113.09	19.65	-41.2	-42.3	22.3	0.00e+00	92	30	0	347078656	60	6328
2026-01-04 23:10:07.23	112.97	19.77	-41.1	-42.1	22.3	0.00e+00	0	30	0	348127232	60	6206
2026-01-04 23:10:08.25	112.85	19.88	-41.3	-42.3	22.4	0.00e+00	92	30	0	350224384	60	6347
2026-01-04 23:10:09.26	112.73	20.00	-41.1	-42.1	22.5	0.00e+00	0	30	0	352321536	60	6220
2026-01-04 23:10:10.27	112.61	20.12	-41.2	-42.2	22.7	0.00e+00	92	30	0	354418688	60	6309
2026-01-04 23:10:11.28	112.49	20.24	-41.2	-42.2	22.5	0.00e+00	90	30	0	356515840	60	6293
2026-01-04 23:10:12.29	112.37	20.35	-40.7	-41.7	22.9	0.00e+00	0	30	0	357564416	60	5939
2026-01-04 23:10:13.30	112.25	20.47	-40.8	-41.8	22.6	0.00e+00	90	30	0	359661568	60	6004
2026-01-04 23:10:14.31	112.13	20.59	-41.4	-42.4	22.3	0.00e+00	0	30	0	361758720	60	6464
2026-01-04 23:10:15.32	112.00	20.71	-41.0	-42.0	22.6	0.00e+00	92	30	0	363855872	60	6172
2026-01-04 23:10:16.33	111.88	20.83	-41.1	-42.1	22.5	0.00e+00	0	30	0	365953024	60	6209
2026-01-04 23:10:17.34	111.75	20.95	-41.1	-42.1	22.5	0.00e+00	92	30	0	367001600	60	6210
2026-01-04 23:10:18.35	111.62	21.07	-41.1	-42.1	22.6	0.00e+00	54	30	0	369098752	60	6199
2026-01-04 23:10:19.36	111.50	21.19	-41.2	-42.3	22.4	0.00e+00	0	30	0	371195904	60	6321
2026-01-04 23:10:20.37	111.37	21.31	-41.6	-42.7	22.1	0.00e+00	92	30	0	373293056	60	6632
2026-01-04 23:10:21.39	111.24	21.44	-41.6	-42.8	22.0	0.00e+00	0	30	0	375390208	60	6706
2026-01-04 23:10:22.40	111.10	21.56	-41.7	-42.9	21.9	0.00e+00	92	30	0	376438784	60	6788
2026-01-04 23:10:23.41	110.97	21.68	-42.0	-43.1	21.7	0.00e+00	0	30	0	378535936	60	6999
2026-01-04 23:10:24.42	110.84	21.81	-41.8	-43.0	21.8	0.00e+00	92	30	0	380633088	60	6869
2026-01-04 23:10:25.43	110.70	21.93	-41.8	-43.0	21.9	0.00e+00	92	30	0	382730240	60	6870
2026-01-04 23:10:26.44	110.57	22.05	-41.3	-42.4	22.4	0.00e+00	0	30	0	384827392	60	6426
2026-01-04 23:10:27.45	110.43	22.18	-41.2	-42.3	22.5	0.00e+00	90	30	0	386924544	60	6353
2026-01-04 23:10:28.46	110.29	22.30	-41.3	-42.4	22.4	0.00e+00	0	30	0	387973120	60	6424
2026-01-04 23:10:29.47	110.15	22.43	-41.4	-42.5	22.3	0.00e+00	55	30	0	390070272	60	6515
2026-01-04 23:10:30.48	110.01	22.55	-41.3	-42.4	22.4	0.00e+00	0	30	0	392167424	60	6431
2026-01-04 23:10:31.50	109.87	22.68	-41.5	-42.7	22.1	0.00e+00	92	30	0	394264576	60	6623
2026-01-04 23:10:32.51	109.73	22.81	-41.6	-42.8	22.1	0.00e+00	90	30	0	396361728	60	6698
2026-01-04 23:10:33.52	109.59	22.93	-41.7	-42.8	22.1	0.00e+00	92	30	0	397410304	60	6717
2026-01-04 23:10:34.53	109.44	23.06	-41.2	-42.2	22.4	0.00e+00	92	30	0	399507456	60	6289
2026-01-04 23:10:35.54	109.29	23.19	-41.8	-42.9	21.9	0.00e+00	0	30	0	401604608	60	6824
2026-01-04 23:10:36.55	109.15	23.32	-42.2	-43.4	21.7	0.00e+00	92	30	0	403701760	60	7180
2026-01-04 23:10:37.56	109.00	23.45	-42.2	-43.4	21.6	0.00e+00	0	30	0	405798912	60	7216
2026-01-04 23:10:38.57	108.85	23.58	-41.9	-43.1	21.7	0.00e+00	92	30	0	406847488	60	6948
2026-01-04 23:10:39.58	108.70	23.71	-41.9	-43.1	22.0	0.00e+00	50	30	0	408944640	60	6984
2026-01-04 23:10:40.60	108.54	23.84	-42.1	-43.3	21.6	0.00e+00	92	30	0	411041792	60	7101
2026-01-04 23:10:41.61	108.39	23.97	-41.7	-42.9	22.0	0.00e+00	92	30	0	413138944	60	6788
2026-01-04 23:10:42.62	108.24	24.10	-41.4	-42.4	22.3	0.00e+00	0	30	0	415236096	60	6460
2026-01-04 23:10:43.63	108.08	24.23	-41.5	-42.6	22.2	0.00e+00	62	30	0	416284672	60	6542
2026-01-04 23:10:44.64	107.92	24.36	-41.0	-42.0	22.7	0.00e+00	0	30	0	418381824	60	6147
2026-01-04 23:10:45.65	107.76	24.49	-41.1	-42.2	22.5	0.00e+00	92	30	0	420478976	60	6267
2026-01-04 23:10:46.66	107.60	24.63	-41.2	-42.3	22.5	0.00e+00	49	30	0	422576128	60	6334
2026-01-04 23:10:47.67	107.44	24.76	-41.0	-42.0	22.6	0.00e+00	92	30	0	424673280	60	6168
2026-01-04 23:10:48.68	107.28	24.89	-41.5	-42.6	22.3	0.00e+00	90	30	0	426770432	60	6559
2026-01-04 23:10:49.69	107.11	25.03	-41.3	-42.4	22.3	0.00e+00	0	30	0	427819008	60	6413
2026-01-04 23:10:50.70	106.95	25.16	-41.6	-42.7	22.1	0.00e+00	62	30	0	429916160	60	6657
2026-01-04 23:10:51.72	106.78	25.30	-41.6	-42.6	21.7	0.00e+00	0	30	0	432013312	60	6603
2026-01-04 23:10:52.73	106.61	25.43	-41.7	-42.8	22.1	0.00e+00	92	30	0	434110464	60	6754
2026-01-04 23:10:53.74	106.44	25.57	-42.0	-43.1	21.7	0.00e+00	33	30	0	436207616	60	6990
2026-01-04 23:10:54.75	106.27	25.70	-41.8	-42.9	22.0	0.00e+00	90	30	0	437256192	60	6839
2026-01-04 23:10:55.76	106.09	25.84	-41.4	-42.5	22.3	0.00e+00	92	30	0	439353344	60	6507
2026-01-04 23:10:56.77	105.92	25.98	-41.4	-42.5	22.4	0.00e+00	44	30	0	441450496	60	6502
2026-01-04 23:10:57.78	105.74	26.11	-41.5	-42.5	22.2	0.00e+00	92	30	0	443547648	60	6521
2026-01-04 23:10:58.79	105.57	26.25	-41.6	-42.7	22.2	0.00e+00	0	30	0	445644800	60	6660
2026-01-04 23:10:59.80	105.39	26.39	-41.3	-42.4	22.3	0.00e+00	92	30	0	446693376	60	6430
2026-01-04 23:11:00.81	105.21	26.53	-41.5	-42.5	22.0	0.00e+00	0	30	0	448790528	60	6509
2026-01-04 23:11:01.82	105.02	26.67	-41.7	-42.8	22.0	0.00e+00	92	30	0	450887680	60	6693
2026-01-04 23:11:02.84	104.84	26.81	-42.0	-43.1	21.9	0.00e+00	92	30	0	452984832	60	6971
2026-01-04 23:11:03.85	104.65	26.95	-41.5	-42.6	22.1	0.00e+00	53	30	0	455081984	60	6588
2026-01-04 23:11:04.86	104.46	27.09	-41.8	-42.9	22.1	0.00e+00	92	30	0	456130560	60	6778
2026-01-04 23:11:05.87	104.27	27.23	-41.9	-43.0	21.9	0.00e+00	0	30	0	458227712	60	6880
2026-01-04 23:11:06.88	104.08	27.37	-42.0	-43.2	22.0	0.00e+00	90	30	0	460324864	60	7044
2026-01-04 23:11:07.89	103.89	27.51	-42.3	-43.6	21.4	0.00e+00	0	30	0	462422016	60	7345
2026-01-04 23:11:08.90	103.70	27.65	-42.3	-43.5	21.4	0.00e+00	90	30	0	464519168	60	7264
2026-01-04 23:11:09.91	103.50	27.79	-41.7	-42.8	22.0	0.00e+00	88	30	0	466616320	60	6769
2026-01-04 23:11:10.92	103.30	27.93	-41.6	-42.7	22.2	0.00e+00	68	30	0	467664896	60	6664
2026-01-04 23:11:11.94	103.10	28.08	-41.9	-43.0	21.8	0.00e+00	92	30	0	469762048	60	6925
2026-01-04 23:11:12.95	102.90	28.22	-42.2	-43.4	21.6	0.00e+00	0	30	0	471859200	60	7216
2026-01-04 23:11:13.96	102.70	28.36	-42.9	-44.2	20.8	0.00e+00	92	30	0	473956352	60	7900
2026-01-04 23:11:14.97	102.49	28.51	-43.2	-44.6	20.6	0.00e+00	0	30	0	476053504	60	8235
2026-01-04 23:11:15.98	102.28	28.65	-43.0	-44.3	20.7	0.00e+00	92	30	0	477102080	60	8000
2026-01-04 23:11:16.99	102.07	28.79	-43.3	-44.7	20.7	0.00e+00	0	30	0	479199232	60	8362
2026-01-04 23:11:18.00	101.86	28.94	-42.6	-43.8	21.1	0.00e+00	92	30	0	481296384	60	7581
2026-01-04 23:11:19.01	101.65	29.08	-43.2	-44.5	20.8	0.00e+00	92	30	0	483393536	60	8198
2026-01-04 23:11:20.02	101.44	29.23	-43.6	-45.0	20.2	0.00e+00	0	30	0	485490688	60	8696
2026-01-04 23:11:21.04	101.22	29.37	-44.0	-45.5	19.7	0.00e+00	91	30	0	486539264	60	9132
2026-01-04 23:11:22.05	101.00	29.52	-44.5	-46.2	19.1	0.00e+00	0	30	0	488636416	60	9999
2026-01-04 23:11:23.06	100.78	29.67	-44.6	-46.4	18.9	0.00e+00	92	30	0	490733568	60	10151
2026-01-04 23:11:24.07	100.55	29.81	-44.4	-46.0	19.3	0.00e+00	0	30	0	492830720	60	9759
2026-01-04 23:11:25.08	100.33	29.96	-44.6	-46.3	19.0	0.00e+00	91	30	0	494927872	60	10027
2026-01-04 23:11:26.09	100.10	30.10	-44.4	-46.0	19.4	0.00e+00	92	30	0	495976448	60	9688
2026-01-04 23:11:27.10	99.87	30.25	-44.0	-45.5	19.9	0.00e+00	0	30	0	498073600	60	9155
2026-01-04 23:11:28.11	99.64	30.40	-43.9	-45.4	19.7	0.00e+00	92	30	0	500170752	60	9069
2026-01-04 23:11:29.12	99.41	30.54	-44.1	-45.6	19.7	0.00e+00	0	30	0	502267904	60	9280
2026-01-04 23:11:30.13	99.18	30.69	-44.1	-45.6	19.6	0.00e+00	92	30	0	504365056	60	9250
2026-01-04 23:11:31.15	98.94	30.84	-44.6	-46.3	19.1	0.00e+00	0	30	0	505413632	60	10014
2026-01-04 23:11:32.16	98.70	30.99	-44.9	-46.6	18.5	0.00e+00	90	30	0	507510784	60	10442
2026-01-04 23:11:33.17	98.45	31.14	-45.4	-47.3	18.1	0.00e+00	92	30	0	509607936	60	11357
2026-01-04 23:11:34.18	98.21	31.28	-44.8	-46.5	18.5	0.00e+00	0	30	0	511705088	60	10352
2026-01-04 23:11:35.19	97.96	31.43	-44.0	-45.4	19.9	0.00e+00	53	30	0	513802240	60	9107
2026-01-04 23:11:36.20	97.71	31.58	-43.4	-44.7	20.3	0.00e+00	0	30	0	514850816	60	8366
2026-01-04 23:11:37.21	97.46	31.73	-43.7	-45.1	20.2	0.00e+00	92	30	0	516947968	60	8749
2026-01-04 23:11:38.22	97.21	31.88	-43.4	-44.8	20.2	0.00e+00	0	30	0	519045120	60	8463
2026-01-04 23:11:39.23	96.95	32.03	-43.7	-45.1	20.0	0.00e+00	92	30	0	521142272	60	8812
2026-01-04 23:11:40.24	96.70	32.18	-44.3	-45.9	19.5	0.00e+00	48	30	0	523239424	60	9611
2026-01-04 23:11:41.26	96.43	32.33	-44.3	-46.0	19.4	0.00e+00	0	30	0	525336576	60	9674
2026-01-04 23:11:42.27	96.17	32.48	-43.9	-45.5	19.8	0.00e+00	92	30	0	526385152	60	9142
2026-01-04 23:11:43.28	95.91	32.62	-43.4	-44.8	20.4	0.00e+00	0	30	0	528482304	60	8467
2026-01-04 23:11:44.29	95.64	32.77	-42.9	-44.2	21.0	0.00e+00	92	30	0	530579456	60	7877
2026-01-04 23:11:45.30	95.37	32.92	-42.2	-43.4	21.7	0.00e+00	0	30	0	532676608	60	7185
2026-01-04 23:11:46.31	95.09	33.07	-41.9	-43.0	22.0	0.00e+00	92	30	0	534773760	60	6878
2026-01-04 23:11:47.32	94.82	33.22	-41.9	-43.0	22.2	0.00e+00	92	30	0	535822336	60	6886
2026-01-04 23:11:48.33	94.54	33.37	-42.2	-43.3	21.9	0.00e+00	0	30	0	537919488	60	7106
2026-01-04 23:11:49.34	94.26	33.52	-42.1	-43.2	21.6	0.00e+00	92	30	0	540016640	60	7067
2026-01-04 23:11:50.35	93.98	33.67	-42.5	-43.7	21.5	0.00e+00	0	30	0	542113792	60	7440
2026-01-04 23:11:51.36	93.69	33.82	-42.6	-43.8	21.3	0.00e+00	92	30	0	544210944	60	7528
2026-01-04 23:11:52.38	93.40	33.97	-43.2	-44.5	20.6	0.00e+00	0	30	0	545259520	60	8223
2026-01-04 23:11:53.39	93.11	34.11	-42.9	-44.2	20.9	0.00e+00	92	30	0	547356672	60	7946
2026-01-04 23:11:54.40	92.82	34.26	-42.9	-44.2	21.0	0.00e+00	57	30	0	549453824	60	7912
2026-01-04 23:11:55.41	92.52	34.41	-42.5	-43.7	21.4	0.00e+00	0	30	0	551550976	60	7457
2026-01-04 23:11:56.42	92.22	34.56	-42.8	-44.0	21.1	0.00e+00	86	30	0	553648128	60	7724
2026-01-04 23:11:57.43	91.92	34.71	-42.8	-44.0	21.4	0.00e+00	0	30	0	554696704	60	7710
2026-01-04 23:11:58.44	91.61	34.86	-42.5	-43.7	21.5	0.00e+00	90	30	0	556793856	60	7462
2026-01-04 23:11:59.45	91.31	35.00	-42.6	-43.8	21.2	0.00e+00	0	30	0	558891008	60	7556
2026-01-04 23:12:00.46	91.00	35.15	-42.4	-43.6	21.5	0.00e+00	92	30	0	560988160	60	7378
2026-01-04 23:12:01.47	90.68	35.30	-42.5	-43.7	21.5	0.00e+00	0	30	0	563085312	60	7432
2026-01-04 23:12:02.48	90.37	35.44	-43.0	-44.3	20.7	0.00e+00	4	30	0	564133888	60	8027
2026-01-04 23:12:03.49	90.05	35.59	-43.4	-44.8	20.6	0.00e+00	92	30	0	566231040	60	8452
2026-01-04 23:12:04.51	89.72	35.74	-43.2	-44.6	20.7	0.00e+00	0	30	0	568328192	60	8258
2026-01-04 23:12:05.52	89.40	35.88	-42.9	-44.3	20.8	0.00e+00	92	30	0	570425344	60	7962
2026-01-04 23:12:06.53	89.07	36.03	-43.2	-44.5	20.6	0.00e+00	0	30	0	572522496	60	8172
2026-01-04 23:12:07.54	88.74	36.17	-43.7	-45.2	20.1	0.00e+00	92	30	0	574619648	60	8877
2026-01-04 23:12:08.55	88.41	36.32	-44.1	-45.7	19.6	0.00e+00	0	30	0	575668224	60	9422
2026-01-04 23:12:09.56	88.07	36.46	-44.1	-45.7	19.7	0.00e+00	37	30	0	577765376	60	9392
2026-01-04 23:12:10.57	87.73	36.60	-44.4	-46.1	19.7	0.00e+00	92	30	0	579862528	60	9795
2026-01-04 23:12:11.58	87.39	36.75	-44.2	-45.8	19.6	0.00e+00	0	30	0	581959680	60	9458
2026-01-04 23:12:12.59	87.05	36.89	-44.4	-46.1	19.3	0.00e+00	51	30	0	584056832	60	9830
2026-01-04 23:12:13.61	86.69	37.03	-44.3	-45.9	19.5	0.00e+00	0	30	0	585105408	60	9576
2026-01-04 23:12:14.62	86.34	37.17	-43.8	-45.2	20.1	0.00e+00	90	30	0	587202560	60	8898
2026-01-04 23:12:15.63	85.99	37.31	-43.5	-44.8	20.3	0.00e+00	0	30	0	589299712	60	8463
2026-01-04 23:12:16.64	85.63	37.45	-43.4	-44.7	20.4	0.00e+00	75	30	0	591396864	60	8384
2026-01-04 23:12:17.65	85.27	37.59	-43.6	-45.1	20.1	0.00e+00	91	30	0	593494016	60	8762
2026-01-04 23:12:18.66	84.91	37.73	-43.3	-44.7	20.5	0.00e+00	0	30	0	594542592	60	8333
2026-01-04 23:12:19.67	84.54	37.87	-42.6	-43.9	21.1	0.00e+00	77	30	0	596639744	60	7638
2026-01-04 23:12:20.68	84.17	38.00	-42.4	-43.6	21.5	0.00e+00	0	30	0	598736896	60	7386
2026-01-04 23:12:21.69	83.80	38.14	-42.0	-43.2	21.8	0.00e+00	92	30	0	600834048	60	7030
2026-01-04 23:12:22.71	83.42	38.27	-42.4	-43.5	21.7	0.00e+00	0	30	0	602931200	60	7312
2026-01-04 23:12:23.72	83.04	38.41	-42.6	-43.8	20.9	0.00e+00	72	30	0	603979776	60	7529
2026-01-04 23:12:24.73	82.65	38.54	-42.4	-43.6	21.5	0.00e+00	92	30	0	606076928	60	7345
2026-01-04 23:12:25.74	82.27	38.67	-42.3	-43.5	21.5	0.00e+00	0	30	0	608174080	60	7324
2026-01-04 23:12:26.75	81.88	38.80	-42.1	-43.3	21.7	0.00e+00	47	30	0	610271232	60	7090
2026-01-04 23:12:27.76	81.49	38.93	-41.5	-42.5	22.4	0.00e+00	0	30	0	612368384	60	6512
2026-01-04 23:12:28.77	81.09	39.06	-41.3	-42.3	22.7	0.00e+00	92	30	0	614465536	60	6355
2026-01-04 23:12:29.78	80.69	39.19	-41.2	-42.3	22.7	0.00e+00	0	30	0	615514112	60	6324
2026-01-04 23:12:30.79	80.29	39.32	-41.4	-42.4	22.4	0.00e+00	72	30	0	617611264	60	6441
2026-01-04 23:12:31.80	79.89	39.44	-40.9	-41.9	22.7	0.00e+00	54	30	0	619708416	60	6088
2026-01-04 23:12:32.81	79.48	39.57	-41.4	-42.4	22.5	0.00e+00	0	30	0	621805568	60	6459
2026-01-04 23:12:33.82	79.07	39.69	-41.2	-42.3	22.5	0.00e+00	73	30	0	623902720	60	6360
2026-01-04 23:12:34.84	78.65	39.81	-40.8	-41.8	23.0	0.00e+00	0	30	0	624951296	60	5982
2026-01-04 23:12:35.85	78.24	39.93	-40.9	-41.9	22.8	0.00e+00	92	30	0	627048448	60	6076
2026-01-04 23:12:36.86	77.82	40.05	-41.0	-42.1	22.5	0.00e+00	0	30	0	629145600	60	6201
2026-01-04 23:12:37.87	77.39	40.17	-40.8	-41.9	22.8	0.00e+00	77	30	0	631242752	60	6037
2026-01-04 23:12:38.88	76.97	40.29	-40.8	-41.9	22.8	0.00e+00	55	30	0	633339904	60	6037
2026-01-04 23:12:39.89	76.54	40.40	-40.8	-41.8	22.9	0.00e+00	0	30	0	634388480	60	6031
2026-01-04 23:12:40.90	76.10	40.52	-41.0	-42.1	22.6	0.00e+00	46	30	0	636485632	60	6231
2026-01-04 23:12:41.91	75.67	40.63	-41.6	-42.8	22.1	0.00e+00	0	30	0	638582784	60	6765
2026-01-04 23:12:42.92	75.23	40.74	-42.5	-43.8	21.7	0.00e+00	70	30	0	640679936	60	7586
2026-01-04 23:12:43.93	74.79	40.85	-41.7	-42.8	22.3	0.00e+00	0	30	0	642777088	60	6764
2026-01-04 23:12:44.95	74.34	40.96	-40.8	-41.9	23.3	0.00e+00	90	30	0	643825664	60	6064
2026-01-04 23:12:45.96	73.89	41.06	-40.4	-41.4	23.3	0.00e+00	57	30	0	645922816	60	5746
2026-01-04 23:12:46.97	73.44	41.17	-39.6	-40.6	23.7	0.00e+00	0	30	0	648019968	58	5841
2026-01-04 23:12:47.98	72.99	41.27	-39.4	-40.3	23.9	0.00e+00	66	30	0	650117120	58	5689
2026-01-04 23:12:48.99	72.53	41.37	-39.2	-40.0	24.3	0.00e+00	0	30	0	652214272	56	6141
2026-01-04 23:12:50.00	72.08	41.47	-39.0	-39.9	24.3	0.00e+00	90	30	0	653262848	56	6035
2026-01-04 23:12:51.01	71.61	41.57	-38.9	-39.7	24.6	0.00e+00	0	30	0	655360000	56	5900
2026-01-04 23:12:52.02	71.15	41.66	-39.1	-39.9	24.4	0.00e+00	90	30	0	657457152	56	6074
2026-01-04 23:12:53.03	70.68	41.75	-39.1	-39.9	24.1	0.00e+00	0	30	0	659554304	56	6051
2026-01-04 23:12:54.04	70.21	41.84	-39.6	-40.4	24.0	0.00e+00	0	30	0	661651456	56	6460
2026-01-04 23:12:55.06	69.74	41.93	-40.1	-41.0	23.5	0.00e+00	39	30	0	663748608	56	6921
2026-01-04 23:12:56.07	69.26	42.02	-40.7	-41.7	23.0	0.00e+00	0	30	0	664797184	58	6691
2026-01-04 23:12:57.08	68.78	42.11	-41.5	-42.7	22.4	0.00e+00	36	30	0	666894336	60	6621
2026-01-04 23:12:58.09	68.30	42.19	-42.0	-43.3	21.7	0.00e+00	0	30	0	668991488	60	7119
2026-01-04 23:12:59.10	67.82	42.27	-41.6	-42.7	22.3	0.00e+00	90	30	0	671088640	60	6652
2026-01-04 23:13:00.11	67.34	42.35	-40.9	-42.0	22.4	0.00e+00	0	30	0	673185792	60	6122
2026-01-04 23:13:01.12	66.85	42.43	-41.5	-42.6	22.3	0.00e+00	0	30	0	674234368	60	6562
2026-01-04 23:13:02.13	66.36	42.50	-42.1	-43.3	21.6	0.00e+00	51	30	0	676331520	60	7133
2026-01-04 23:13:03.14	65.87	42.57	-42.1	-43.3	22.0	0.00e+00	0	30	0	678428672	60	7104
2026-01-04 23:13:04.15	65.37	42.64	-41.2	-42.2	22.6	0.00e+00	18	30	0	680525824	60	6284
2026-01-04 23:13:05.16	64.88	42.71	-40.9	-41.9	22.9	0.00e+00	0	30	0	682622976	60	6044
2026-01-04 23:13:06.17	64.38	42.78	-40.8	-41.8	22.9	0.00e+00	92	30	0	683671552	60	6015
2026-01-04 23:13:07.18	63.88	42.84	-41.2	-42.2	22.6	0.00e+00	0	30	0	685768704	60	6311
2026-01-04 23:13:08.20	63.37	42.90	-41.0	-42.1	22.8	0.00e+00	0	30	0	687865856	60	6178
2026-01-04 23:13:09.21	62.87	42.96	-41.0	-42.1	22.7	0.00e+00	92	30	0	689963008	60	6179
2026-01-04 23:13:10.22	62.36	43.02	-42.1	-43.3	21.7	0.00e+00	0	30	0	692060160	60	7144
2026-01-04 23:13:11.23	61.85	43.07	-42.5	-43.7	21.5	0.00e+00	84	30	0	693108736	60	7487
2026-01-04 23:13:12.24	61.34	43.12	-41.6	-42.7	22.5	0.00e+00	0	30	0	695205888	60	6639
2026-01-04 23:13:13.25	60.83	43.17	-40.7	-41.6	23.3	0.00e+00	92	30	0	697303040	60	5887
2026-01-04 23:13:14.26	60.32	43.21	-40.7	-41.6	23.2	0.00e+00	0	30	0	699400192	60	5877
2026-01-04 23:13:15.27	59.81	43.26	-40.8	-41.8	22.9	0.00e+00	34	30	0	701497344	60	6020
2026-01-04 23:13:16.29	59.29	43.30	-41.1	-42.1	22.7	0.00e+00	92	30	0	702545920	60	6205
2026-01-04 23:13:17.30	58.77	43.34	-41.5	-42.6	22.4	0.00e+00	0	30	0	704643072	60	6573
2026-01-04 23:13:18.31	58.25	43.37	-42.1	-43.3	21.7	0.00e+00	58	30	0	706740224	60	7137
2026-01-04 23:13:19.32	57.74	43.41	-42.3	-43.5	21.5	0.00e+00	0	30	0	708837376	60	7307
2026-01-04 23:13:20.33	57.22	43.44	-42.2	-43.3	21.9	0.00e+00	92	30	0	710934528	60	7168
2026-01-04 23:13:21.34	56.70	43.46	-42.1	-43.4	21.7	0.00e+00	0	30	0	711983104	60	7172
2026-01-04 23:13:22.35	56.17	43.49	-42.4	-43.7	21.5	0.00e+00	91	30	0	714080256	60	7444
2026-01-04 23:13:23.36	55.65	43.51	-42.2	-43.4	21.6	0.00e+00	55	30	0	716177408	60	7211
2026-01-04 23:13:24.37	55.13	43.53	-42.1	-43.2	21.8	0.00e+00	0	30	0	718274560	60	7079
2026-01-04 23:13:25.39	54.60	43.55	-41.8	-43.0	22.0	0.00e+00	27	30	0	720371712	60	6879
2026-01-04 23:13:26.39	54.08	43.56	-42.6	-43.9	21.3	0.00e+00	0	30	0	722468864	60	7624
2026-01-04 23:13:27.41	53.55	43.57	-43.1	-44.6	20.4	0.00e+00	92	30	0	723517440	60	8247
2026-01-04 23:13:28.42	53.03	43.58	-42.9	-44.3	20.9	0.00e+00	0	30	0	725614592	60	7995
2026-01-04 23:13:29.43	52.50	43.59	-42.0	-43.2	21.8	0.00e+00	68	30	0	727711744	60	7018
2026-01-04 23:13:30.44	51.98	43.59	-41.5	-42.6	22.3	0.00e+00	58	30	0	729808896	60	6589
2026-01-04 23:13:31.45	51.45	43.60	-41.4	-42.4	22.5	0.00e+00	0	30	0	731906048	60	6409
2026-01-04 23:13:32.46	50.93	43.59	-42.2	-43.4	21.6	0.00e+00	32	30	0	732954624	60	7188
2026-01-04 23:13:33.47	50.40	43.59	-42.6	-43.8	21.4	0.00e+00	0	30	0	735051776	60	7565
2026-01-04 23:13:34.48	49.88	43.58	-42.8	-44.0	20.6	0.00e+00	92	30	0	737148928	60	7764
2026-01-04 23:13:35.49	49.35	43.57	-43.3	-44.7	20.3	0.00e+00	0	30	0	739246080	60	8380
2026-01-04 23:13:36.51	48.82	43.56	-43.5	-44.9	20.4	0.00e+00	78	30	0	741343232	60	8570
2026-01-04 23:13:37.52	48.30	43.54	-43.5	-44.9	20.3	0.00e+00	51	30	0	742391808	60	8558
2026-01-04 23:13:38.53	47.78	43.53	-43.7	-45.2	20.1	0.00e+00	0	30	0	744488960	60	8920
2026-01-04 23:13:39.54	47.26	43.51	-43.9	-45.6	19.7	0.00e+00	38	30	0	746586112	60	9253
2026-01-04 23:13:40.55	46.73	43.48	-43.9	-45.5	19.8	0.00e+00	0	30	0	748683264	60	9199
2026-01-04 23:13:41.56	46.21	43.46	-43.4	-44.8	20.3	0.00e+00	92	30	0	750780416	60	8471
2026-01-04 23:13:42.57	45.69	43.43	-43.2	-44.6	20.6	0.00e+00	0	30	0	751828992	60	8241
2026-01-04 23:13:43.58	45.17	43.40	-43.6	-45.1	20.2	0.00e+00	75	30	0	753926144	60	8783
2026-01-04 23:13:44.59	44.66	43.36	-43.5	-45.0	20.3	0.00e+00	0	30	0	756023296	60	8644
2026-01-04 23:13:45.60	44.14	43.33	-43.1	-44.4	20.7	0.00e+00	0	30	0	758120448	60	8109
2026-01-04 23:13:46.61	43.62	43.29	-43.3	-44.7	20.2	0.00e+00	69	30	0	760217600	60	8421
2026-01-04 23:13:47.62	43.11	43.25	-44.5	-46.2	19.3	0.00e+00	0	30	0	762314752	60	10001
2026-01-04 23:13:48.64	42.59	43.20	-44.3	-46.1	19.3	0.00e+00	52	30	0	763363328	60	9810
2026-01-04 23:13:49.65	42.08	43.16	-44.4	-46.0	19.5	0.00e+00	0	30	0	765460480	60	9723
2026-01-04 23:13:50.66	41.57	43.11	-44.2	-45.8	19.5	0.00e+00	67	30	0	767557632	60	9460
2026-01-04 23:13:51.67	41.06	43.06	-44.5	-46.2	19.1	0.00e+00	41	30	0	769654784	60	9903
2026-01-04 23:13:52.68	40.55	43.00	-44.0	-45.6	19.6	0.00e+00	0	30	0	771751936	60	9329
2026-01-04 23:13:53.69	40.05	42.95	-44.3	-46.0	19.3	0.00e+00	92	30	0	772800512	60	9680
2026-01-04 23:13:54.70	39.55	42.89	-44.3	-46.0	19.1	0.00e+00	0	30	0	774897664	60	9764
2026-01-04 23:13:55.71	39.05	42.83	-44.7	-46.6	18.8	0.00e+00	54	30	0	776994816	60	10426
2026-01-04 23:13:56.73	38.54	42.76	-42.8	-44.1	21.0	0.00e+00	0	30	0	779091968	60	7810
2026-01-04 23:13:57.74	38.04	42.70	-41.1	-42.2	22.5	0.00e+00	90	30	0	781189120	60	6293
2026-01-04 23:13:58.75	37.55	42.63	-40.8	-41.8	22.8	0.00e+00	0	30	0	782237696	60	6029
2026-01-04 23:13:59.76	37.06	42.56	-41.5	-42.6	22.2	0.00e+00	0	30	0	784334848	60	6573
2026-01-04 23:14:00.77	36.57	42.49	-41.5	-42.5	22.4	0.00e+00	90	30	0	786432000	60	6524
2026-01-04 23:14:01.78	36.08	42.41	-41.2	-42.3	22.7	0.00e+00	0	30	0	788529152	60	6345
2026-01-04 23:14:02.79	35.59	42.33	-40.8	-41.8	22.9	0.00e+00	29	30	0	790626304	60	6020
2026-01-04 23:14:03.80	35.11	42.25	-40.3	-41.2	23.4	0.00e+00	0	30	0	791674880	60	5617
2026-01-04 23:14:04.82	34.62	42.17	-39.5	-40.3	24.0	0.00e+00	92	30	0	793772032	58	5676
2026-01-04 23:14:05.82	34.15	42.09	-39.8	-40.7	23.6	0.00e+00	0	30	0	795869184	58	5948
2026-01-04 23:14:06.84	33.67	42.00	-40.2	-41.2	23.3	0.00e+00	55	30	0	797966336	58	6262
2026-01-04 23:14:07.85	33.19	41.92	-40.0	-40.9	23.5	0.00e+00	56	30	0	800063488	58	6093
2026-01-04 23:14:08.86	32.72	41.83	-39.8	-40.7	23.8	0.00e+00	0	30	0	802160640	58	5955
2026-01-04 23:14:09.87	32.25	41.73	-39.5	-40.4	23.9	0.00e+00	56	30	0	803209216	58	5699
2026-01-04 23:14:10.88	31.79	41.64	-39.4	-40.3	24.1	0.00e+00	0	30	0	805306368	58	5631
2026-01-04 23:14:11.89	31.32	41.55	-39.8	-40.7	23.7	0.00e+00	56	30	0	807403520	58	5945
2026-01-04 23:14:12.90	30.86	41.45	-40.1	-41.0	23.4	0.00e+00	0	30	0	809500672	58	6172
2026-01-04 23:14:13.91	30.41	41.35	-40.8	-41.8	22.9	0.00e+00	0	30	0	811597824	58	6755
2026-01-04 23:14:14.92	29.95	41.25	-40.6	-41.6	22.9	0.00e+00	92	30	0	812646400	58	6564
2026-01-04 23:14:15.94	29.50	41.15	-40.3	-41.3	23.4	0.00e+00	0	30	0	814743552	58	6348
2026-01-04 23:14:16.95	29.05	41.04	-39.2	-40.0	24.2	0.00e+00	2	30	0	816840704	58	5473
2026-01-04 23:14:17.96	28.60	40.94	-38.9	-39.7	24.6	0.00e+00	0	30	0	818937856	56	5930
2026-01-04 23:14:18.97	28.16	40.83	-38.6	-39.4	24.6	0.00e+00	65	30	0	821035008	56	5742
2026-01-04 23:14:19.98	27.72	40.72	-38.1	-38.9	25.0	0.00e+00	0	30	0	822083584	54	6058
2026-01-04 23:14:20.99	27.28	40.61	-38.1	-38.9	25.1	0.00e+00	63	30	0	824180736	54	6095
2026-01-04 23:14:22.00	26.85	40.50	-38.6	-39.4	24.6	0.00e+00	58	30	0	826277888	54	6451
2026-01-04 23:14:23.01	26.42	40.38	-39.4	-40.2	24.0	0.00e+00	0	30	0	828375040	56	6306
2026-01-04 23:14:24.02	25.99	40.27	-39.0	-39.8	24.5	0.00e+00	74	30	0	830472192	56	6012
2026-01-04 23:14:25.04	25.56	40.15	-38.8	-39.7	24.5	0.00e+00	0	30	0	831520768	56	5901
2026-01-04 23:14:26.05	25.14	40.03	-38.9	-39.8	24.4	0.00e+00	80	30	0	833617920	56	5967
2026-01-04 23:14:27.06	24.72	39.91	-38.2	-39.0	24.8	0.00e+00	0	30	0	835715072	56	5488
2026-01-04 23:14:28.07	24.30	39.79	-38.4	-39.2	25.1	0.00e+00	28	30	0	837812224	56	5572
2026-01-04 23:14:29.08	23.89	39.67	-37.9	-38.7	25.2	0.00e+00	0	30	0	839909376	54	5899
2026-01-04 23:14:30.09	23.48	39.55	-38.7	-39.6	24.4	0.00e+00	0	30	0	840957952	54	6573
2026-01-04 23:14:31.10	23.08	39.42	-39.4	-40.4	23.9	0.00e+00	92	30	0	843055104	56	6406
2026-01-04 23:14:32.11	22.67	39.30	-38.9	-39.8	24.5	0.00e+00	0	30	0	845152256	56	5985
2026-01-04 23:14:33.12	22.27	39.17	-38.3	-39.1	25.0	0.00e+00	40	30	0	847249408	56	5538
2026-01-04 23:14:34.13	21.88	39.04	-38.4	-39.2	24.6	0.00e+00	0	30	0	849346560	56	5627
2026-01-04 23:14:35.15	21.48	38.91	-38.3	-39.0	24.7	0.00e+00	92	30	0	850395136	54	6162
2026-01-04 23:14:36.16	21.09	38.78	-38.6	-39.4	24.6	0.00e+00	51	30	0	852492288	54	6405
2026-01-04 23:14:37.17	20.70	38.65	-38.4	-39.2	24.7	0.00e+00	33	30	0	854589440	54	6291
2026-01-04 23:14:38.18	20.32	38.52	-38.9	-39.7	24.4	0.00e+00	90	30	0	856686592	54	6664
2026-01-04 23:14:39.19	19.94	38.39	-39.8	-40.7	23.7	0.00e+00	0	30	0	858783744	56	6675
2026-01-04 23:14:40.20	19.56	38.25	-40.5	-41.5	23.1	0.00e+00	92	30	0	859832320	58	6488
2026-01-04 23:14:41.21	19.19	38.12	-40.3	-41.3	23.4	0.00e+00	0	30	0	861929472	58	6365
2026-01-04 23:14:42.22	18.82	37.98	-40.0	-40.9	23.8	0.00e+00	90	30	0	864026624	58	6080
2026-01-04 23:14:43.23	18.45	37.85	-40.3	-41.3	23.4	0.00e+00	0	30	0	866123776	58	6333
2026-01-04 23:14:44.25	18.08	37.71	-40.8	-41.8	22.8	0.00e+00	0	30	0	868220928	58	6758
2026-01-04 23:14:45.26	17.72	37.57	-41.3	-42.4	22.5	0.00e+00	92	30	0	870318080	60	6420
2026-01-04 23:14:46.27	17.36	37.43	-40.4	-41.4	23.3	0.00e+00	0	30	0	871366656	60	5740
2026-01-04 23:14:47.28	17.00	37.29	-40.1	-41.0	23.5	0.00e+00	83	30	0	873463808	58	6163
2026-01-04 23:14:48.29	16.65	37.15	-40.8	-41.9	22.8	0.00e+00	0	30	0	875560960	58	6796
2026-01-04 23:14:49.30	16.30	37.01	-41.2	-42.3	22.6	0.00e+00	91	30	0	877658112	60	6342
2026-01-04 23:14:50.31	15.95	36.87	-40.9	-42.0	23.0	0.00e+00	0	30	0	879755264	60	6113
2026-01-04 23:14:51.32	15.61	36.73	-40.3	-41.2	23.4	0.00e+00	0	30	0	880803840	60	5603
2026-01-04 23:14:52.33	15.27	36.59	-40.2	-41.1	23.3	0.00e+00	90	30	0	882900992	58	6239
2026-01-04 23:14:53.34	14.93	36.44	-40.3	-41.2	23.2	0.00e+00	0	30	0	884998144	58	6312
2026-01-04 23:14:54.36	14.59	36.30	-40.5	-41.5	23.3	0.00e+00	56	30	0	887095296	58	6469
2026-01-04 23:14:55.37	14.26	36.15	-39.7	-40.6	24.0	0.00e+00	0	30	0	889192448	58	5841
2026-01-04 23:14:56.38	13.93	36.01	-39.8	-40.7	23.9	0.00e+00	92	30	0	890241024	58	5958
2026-01-04 23:14:57.39	13.61	35.87	-40.0	-40.9	23.6	0.00e+00	0	30	0	892338176	58	6063
2026-01-04 23:14:58.40	13.28	35.72	-40.2	-41.1	23.5	0.00e+00	14	30	0	894435328	58	6198
2026-01-04 23:14:59.41	12.96	35.58	-39.9	-40.8	23.7	0.00e+00	58	30	0	896532480	58	5970
2026-01-04 23:15:00.42	12.64	35.43	-39.8	-40.6	23.7	0.00e+00	0	30	0	898629632	58	5868
2026-01-04 23:15:01.43	12.33	35.28	-40.1	-41.0	23.5	0.00e+00	81	30	0	899678208	58	6115
2026-01-04 23:15:02.45	12.02	35.14	-40.8	-41.7	22.9	0.00e+00	0	30	0	901775360	58	6679
2026-01-04 23:15:03.46	11.71	34.99	-41.6	-42.6	22.1	0.00e+00	0	30	0	903872512	60	6615
2026-01-04 23:15:04.47	11.40	34.84	-41.5	-42.5	22.3	0.00e+00	0	30	0	905969664	60	6523
2026-01-04 23:15:05.48	11.10	34.69	-41.4	-42.3	22.4	0.00e+00	0	30	0	908066816	60	6387
2026-01-04 23:15:06.49	10.80	34.55	-40.6	-41.4	23.1	0.00e+00	50	30	0	910163968	60	5757
2026-01-04 23:15:07.50	10.50	34.40	-41.0	-41.9	22.8	0.00e+00	0	30	0	911212544	60	6100
2026-01-04 23:15:08.51	10.21	34.25	-41.6	-42.7	22.3	0.00e+00	83	30	0	913309696	60	6624
2026-01-04 23:15:09.52	9.91	34.10	-42.0	-43.1	22.1	0.00e+00	0	30	0	915406848	60	6954
2026-01-04 23:15:10.53	9.62	33.96	-42.1	-43.2	21.7	0.00e+00	0	30	0	917504000	60	7075
2026-01-04 23:15:11.55	9.33	33.81	-43.0	-44.3	20.9	0.00e+00	0	30	0	919601152	60	8028
2026-01-04 23:15:12.56	9.05	33.66	-44.6	-46.3	19.0	0.00e+00	33	30	0	920649728	60	10089
2026-01-04 23:15:13.57	8.77	33.51	-45.5	-47.5	17.8	0.00e+00	49	30	0	922746880	60	11603
2026-01-04 23:15:14.58	8.49	33.36	-44.7	-46.5	18.9	0.00e+00	0	30	0	924844032	60	10268
2026-01-04 23:15:15.59	8.21	33.21	-43.5	-44.8	20.4	0.00e+00	92	30	0	926941184	60	8507
2026-01-04 23:15:16.60	7.94	33.06	-43.0	-44.3	20.9	0.00e+00	0	30	0	929038336	60	7993
2026-01-04 23:15:17.61	7.67	32.92	-43.1	-44.4	20.7	0.00e+00	0	30	0	930086912	60	8095
2026-01-04 23:15:18.62	7.40	32.77	-44.2	-45.8	19.3	0.00e+00	0	30	0	932184064	60	9486
2026-01-04 23:15:19.63	7.13	32.62	-44.5	-46.2	19.0	0.00e+00	0	30	0	934281216	60	9977
2026-01-04 23:15:20.65	6.87	32.47	-44.9	-46.7	18.7	0.00e+00	0	30	0	936378368	60	10545
2026-01-04 23:15:21.66	6.60	32.32	-44.2	-45.8	19.4	0.00e+00	0	30	0	938475520	60	9486
2026-01-04 23:15:22.67	6.35	32.17	-43.9	-45.4	19.7	0.00e+00	63	30	0	939524096	60	9118
2026-01-04 23:15:23.68	6.09	32.02	-43.2	-44.5	20.6	0.00e+00	0	30	0	941621248	60	8215
2026-01-04 23:15:24.69	5.83	31.88	-43.2	-44.5	20.7	0.00e+00	92	30	0	943718400	60	8141
2026-01-04 23:15:25.70	5.58	31.73	-42.9	-44.1	21.2	0.00e+00	0	30	0	945815552	60	7780
2026-01-04 23:15:26.71	5.33	31.58	-42.5	-43.6	21.4	0.00e+00	0	30	0	947912704	60	7381
2026-01-04 23:15:27.72	5.09	31.43	-42.6	-43.7	21.3	0.00e+00	0	30	0	950009856	60	7499
2026-01-04 23:15:28.73	4.84	31.28	-43.0	-44.2	20.9	0.00e+00	0	30	0	951058432	60	7919
2026-01-04 23:15:29.74	4.60	31.14	-43.6	-44.9	20.3	0.00e+00	52	30	0	953155584	60	8584
2026-01-04 23:15:30.75	4.36	30.99	-43.2	-44.4	20.8	0.00e+00	0	30	0	955252736	60	8132
2026-01-04 23:15:31.77	4.12	30.84	-42.5	-43.7	21.5	0.00e+00	92	30	0	957349888	60	7446
2026-01-04 23:15:32.78	3.88	30.69	-41.7	-42.8	22.0	0.00e+00	0	30	0	959447040	60	6697
2026-01-04 23:15:33.79	3.65	30.55	-41.9	-43.0	21.9	0.00e+00	0	30	0	960495616	60	6895
2026-01-04 23:15:34.80	3.41	30.40	-42.4	-43.6	21.5	0.00e+00	0	30	0	962592768	60	7347
2026-01-04 23:15:35.81	3.18	30.25	-42.7	-43.9	21.1	0.00e+00	0	30	0	964689920	60	7628
2026-01-04 23:15:36.82	2.96	30.11	-43.3	-44.7	20.6	0.00e+00	82	30	0	966787072	60	8371
2026-01-04 23:15:37.83	2.73	29.96	-43.3	-44.7	20.5	0.00e+00	0	30	0	968884224	60	8331
2026-01-04 23:15:38.84	2.51	29.82	-43.1	-44.4	21.0	0.00e+00	51	30	0	969932800	60	8054
2026-01-04 23:15:39.86	2.28	29.67	-42.7	-43.9	21.2	0.00e+00	0	30	0	972029952	60	7622
2026-01-04 23:15:40.87	2.06	29.52	-42.0	-43.1	21.6	0.00e+00	0	30	0	974127104	60	6975
2026-01-04 23:15:41.88	1.85	29.38	-41.8	-42.9	22.0	0.00e+00	0	30	0	976224256	60	6825
2026-01-04 23:15:42.89	1.63	29.24	-41.6	-42.7	22.2	0.00e+00	0	30	0	978321408	60	6645
2026-01-04 23:15:43.90	1.42	29.09	-42.4	-43.6	21.3	0.00e+00	21	30	0	979369984	60	7389
2026-01-04 23:15:44.91	1.21	28.95	-41.8	-42.9	22.0	0.00e+00	0	30	0	981467136	60	6835
2026-01-04 23:15:45.92	1.00	28.80	-41.9	-43.1	21.9	0.00e+00	92	30	0	983564288	60	6958
2026-01-04 23:15:46.93	0.79	28.66	-42.1	-43.2	21.7	0.00e+00	0	30	0	985661440	60	7076
2026-01-04 23:15:47.94	0.58	28.52	-42.2	-43.4	21.3	0.00e+00	0	30	0	987758592	60	7180
2026-01-04 23:15:48.95	0.38	28.37	-42.1	-43.2	21.8	0.00e+00	0	30	0	988807168	60	7070
2026-01-04 23:15:49.96	0.18	28.23	-42.4	-43.7	21.3	0.00e+00	0	30	0	990904320	60	7432
2026-01-04 23:15:50.98	359.98	28.09	-42.3	-43.4	21.5	0.00e+00	19	30	0	993001472	60	7238
2026-01-04 23:15:51.99	359.78	27.95	-42.6	-43.8	21.1	0.00e+00	0	30	0	995098624	60	7545
2026-01-04 23:15:53.00	359.58	27.81	-42.4	-43.6	21.0	0.00e+00	92	30	0	997195776	60	7372
2026-01-04 23:15:54.01	359.38	27.66	-42.0	-43.1	21.8	0.00e+00	0	30	0	999292928	60	6983
2026-01-04 23:15:55.02	359.19	27.52	-42.1	-43.2	21.7	0.00e+00	0	30	0	1000341504	60	7067
2026-01-04 23:15:56.03	359.00	27.38	-41.8	-42.9	22.0	0.00e+00	0	30	0	1002438656	60	6805
2026-01-04 23:15:57.04	358.81	27.24	-41.5	-42.6	22.2	0.00e+00	0	30	0	1004535808	60	6553
2026-01-04 23:15:58.05	358.62	27.10	-41.3	-42.3	22.5	0.00e+00	8	30	0	1006632960	60	6345
2026-01-04 23:15:59.06	358.44	26.96	-41.1	-42.2	22.5	0.00e+00	0	30	0	1008730112	60	6250
2026-01-04 23:16:00.07	358.25	26.83	-40.5	-41.5	23.1	0.00e+00	92	30	0	1009778688	60	5784
2026-01-04 23:16:01.09	358.07	26.69	-41.1	-42.1	22.6	0.00e+00	0	30	0	1011875840	60	6235
2026-01-04 23:16:02.10	357.88	26.55	-41.5	-42.5	22.4	0.00e+00	74	30	0	1013972992	60	6524
2026-01-04 23:16:03.11	357.70	26.41	-41.8	-42.9	22.0	0.00e+00	0	30	0	1016070144	60	6803
2026-01-04 23:16:04.12	357.53	26.27	-42.3	-43.5	21.4	0.00e+00	0	30	0	1018167296	60	7267
2026-01-04 23:16:05.13	357.35	26.14	-42.9	-44.2	21.0	0.00e+00	3	30	0	1019215872	60	7903
2026-01-04 23:16:06.14	357.17	26.00	-42.4	-43.6	21.5	0.00e+00	0	30	0	1021313024	60	7354
2026-01-04 23:16:07.15	357.00	25.86	-42.1	-43.3	21.6	0.00e+00	18	30	0	1023410176	60	7093
2026-01-04 23:16:08.16	356.83	25.73	-41.8	-42.9	21.9	0.00e+00	0	30	0	1025507328	60	6810
2026-01-04 23:16:09.17	356.66	25.59	-41.1	-42.1	22.6	0.00e+00	64	30	0	1027604480	60	6215
2026-01-04 23:16:10.19	356.49	25.46	-41.0	-42.0	22.7	0.00e+00	0	30	0	1028653056	60	6126
2026-01-04 23:16:11.20	356.32	25.32	-40.5	-41.4	23.2	0.00e+00	0	30	0	1030750208	60	5734
2026-01-04 23:16:12.21	356.15	25.19	-40.6	-41.6	23.0	0.00e+00	0	30	0	1032847360	60	5870
2026-01-04 23:16:13.22	355.99	25.05	-40.5	-41.5	23.1	0.00e+00	0	30	0	1034944512	60	5768
2026-01-04 23:16:14.23	355.82	24.92	-41.0	-42.0	22.6	0.00e+00	90	30	0	1037041664	60	6169
2026-01-04 23:16:15.24	355.66	24.79	-41.3	-42.3	22.5	0.00e+00	0	30	0	1038090240	60	6350
2026-01-04 23:16:16.25	355.50	24.65	-41.9	-43.0	21.8	0.00e+00	72	30	0	1040187392	60	6892
2026-01-04 23:16:17.26	355.34	24.52	-41.7	-42.8	22.1	0.00e+00	0	30	0	1042284544	60	6713
2026-01-04 23:16:18.27	355.18	24.39	-41.5	-42.6	21.9	0.00e+00	0	30	0	1044381696	60	6594
2026-01-04 23:16:19.28	355.03	24.26	-41.6	-42.7	22.0	0.00e+00	0	30	0	1046478848	60	6688
2026-01-04 23:16:20.30	354.87	24.13	-41.8	-42.9	21.8	0.00e+00	0	30	0	1047527424	60	6812
2026-01-04 23:16:21.31	354.72	24.00	-42.1	-43.3	21.6	0.00e+00	54	30	0	1049624576	60	7150
2026-01-04 23:16:22.32	354.56	23.87	-42.4	-43.6	21.3	0.00e+00	0	30	0	1051721728	60	7388
2026-01-04 23:16:23.33	354.41	23.74	-43.0	-44.3	20.7	0.00e+00	92	30	0	1053818880	60	8002
2026-01-04 23:16:24.34	354.26	23.61	-43.0	-44.4	20.7	0.00e+00	0	30	0	1055916032	60	8047
2026-01-04 23:16:25.35	354.11	23.48	-43.3	-44.7	20.4	0.00e+00	0	30	0	1056964608	60	8330
2026-01-04 23:16:26.36	353.97	23.35	-43.2	-44.6	20.5	0.00e+00	0	30	0	1059061760	60	8263
2026-01-04 23:16:27.37	353.82	23.22	-43.3	-44.6	20.6	0.00e+00	0	30	0	1061158912	60	8306
2026-01-04 23:16:28.38	353.67	23.10	-43.0	-44.2	20.8	0.00e+00	37	30	0	1063256064	60	7922
2026-01-04 23:16:29.40	353.53	22.97	-42.3	-43.4	21.5	0.00e+00	0	30	0	1065353216	60	7247
2026-01-04 23:16:30.41	353.39	22.84	-41.9	-43.0	22.0	0.00e+00	92	30	0	1067450368	60	6895
2026-01-04 23:16:31.42	353.24	22.72	-41.6	-42.7	22.0	0.00e+00	0	30	0	1068498944	60	6635
2026-01-04 23:16:32.43	353.10	22.59	-41.3	-42.4	22.4	0.00e+00	0	30	0	1070596096	60	6413
2026-01-04 23:16:33.44	352.96	22.47	-41.0	-42.0	22.6	0.00e+00	0	30	0	1072693248	60	6142
2026-01-04 23:16:34.45	352.83	22.34	-40.9	-41.9	22.7	0.00e+00	0	30	0	1074790400	60	6092
2026-01-04 23:16:35.46	352.69	22.22	-40.8	-41.8	22.7	0.00e+00	18	30	0	1076887552	60	5998
2026-01-04 23:16:36.47	352.55	22.09	-40.9	-41.9	22.7	0.00e+00	0	30	0	1077936128	60	6049
2026-01-04 23:16:37.48	352.42	21.97	-40.9	-41.9	22.7	0.00e+00	92	30	0	1080033280	60	6055
2026-01-04 23:16:38.49	352.29	21.85	-41.0	-42.1	22.6	0.00e+00	0	30	0	1082130432	60	6193
2026-01-04 23:16:39.51	352.15	21.72	-41.1	-42.1	22.4	0.00e+00	0	30	0	1084227584	60	6214
2026-01-04 23:16:40.52	352.02	21.60	-41.1	-42.1	22.5	0.00e+00	0	30	0	1086324736	60	6245
2026-01-04 23:16:41.53	351.89	21.48	-41.3	-42.4	22.3	0.00e+00	0	30	0	1087373312	60	6423
2026-01-04 23:16:42.54	351.76	21.36	-41.6	-42.7	22.0	0.00e+00	47	30	0	1089470464	60	6643
2026-01-04 23:16:43.55	351.63	21.24	-41.4	-42.5	22.2	0.00e+00	0	30	0	1091567616	60	6527
2026-01-04 23:16:44.56	351.50	21.12	-41.6	-42.7	22.1	0.00e+00	92	30	0	1093664768	60	6647
2026-01-04 23:16:45.57	351.38	21.00	-41.6	-42.8	22.1	0.00e+00	0	30	0	1095761920	60	6696
2026-01-04 23:16:46.58	351.25	20.88	-41.5	-42.6	22.2	0.00e+00	0	30	0	1096810496	60	6566
2026-01-04 23:16:47.59	351.13	20.76	-41.0	-42.0	22.6	0.00e+00	0	30	0	1098907648	60	6147
2026-01-04 23:16:48.61	351.00	20.64	-41.0	-42.0	22.6	0.00e+00	0	30	0	1101004800	60	6138
2026-01-04 23:16:49.62	350.88	20.52	-41.0	-42.0	22.6	0.00e+00	11	30	0	1103101952	60	6157
2026-01-04 23:16:50.63	350.76	20.40	-41.0	-42.1	22.4	0.00e+00	0	30	0	1105199104	60	6191
2026-01-04 23:16:51.64	350.64	20.28	-41.3	-42.3	22.3	0.00e+00	47	30	0	1107296256	60	6384
2026-01-04 23:16:52.65	350.52	20.17	-41.6	-42.8	21.9	0.00e+00	0	30	0	1108344832	60	6701
2026-01-04 23:16:53.66	350.40	20.05	-42.0	-43.2	21.5	0.00e+00	21	30	0	1110441984	60	7051
2026-01-04 23:16:54.67	350.28	19.93	-42.5	-43.7	21.1	0.00e+00	0	30	0	1112539136	60	7477
2026-01-04 23:16:55.68	350.17	19.82	-42.9	-44.2	20.7	0.00e+00	0	30	0	1114636288	60	7909
2026-01-04 23:16:56.69	350.05	19.70	-43.5	-44.9	20.1	0.00e+00	0	30	0	1116733440	60	8603
2026-01-04 23:16:57.71	349.94	19.58	-43.5	-44.9	20.0	0.00e+00	0	30	0	1117782016	60	8598
2026-01-04 23:16:58.72	349.82	19.47	-43.6	-45.0	19.9	0.00e+00	42	30	0	1119879168	60	8702
2026-01-04 23:16:59.73	349.71	19.36	-43.4	-44.9	20.2	0.00e+00	0	30	0	1121976320	60	8549
2026-01-04 23:17:00.74	349.60	19.24	-43.3	-44.7	20.4	0.00e+00	92	30	0	1124073472	60	8338
2026-01-04 23:17:01.75	349.49	19.13	-43.0	-44.4	20.6	0.00e+00	0	30	0	1126170624	60	8071
2026-01-04 23:17:02.76	349.38	19.02	-42.7	-44.0	20.8	0.00e+00	0	30	0	1127219200	60	7756
2026-01-04 23:17:03.77	349.27	18.90	-42.6	-43.9	21.0	0.00e+00	17	30	0	1129316352	60	7672
2026-01-04 23:17:04.78	349.16	18.79	-42.3	-43.5	21.3	0.00e+00	0	30	0	1131413504	60	7337
2026-01-04 23:17:05.79	349.05	18.68	-42.2	-43.4	21.4	0.00e+00	49	30	0	1133510656	60	7201
2026-01-04 23:17:06.80	348.94	18.57	-42.2	-43.4	21.4	0.00e+00	0	30	0	1135607808	60	7190
2026-01-04 23:17:07.81	348.83	18.46	-41.9	-43.1	21.7	0.00e+00	51	30	0	1136656384	60	6947
2026-01-04 23:17:08.82	348.73	18.35	-41.7	-42.9	21.9	0.00e+00	0	30	0	1138753536	60	6811
2026-01-04 23:17:09.83	348.62	18.24	-41.6	-42.7	22.0	0.00e+00	0	30	0	1140850688	60	6673
2026-01-04 23:17:10.85	348.52	18.12	-41.5	-42.6	22.1	0.00e+00	0	30	0	1142947840	60	6571
2026-01-04 23:17:11.86	348.42	18.01	-41.4	-42.5	22.1	0.00e+00	0	30	0	1145044992	60	6480
2026-01-04 23:17:12.87	348.31	17.91	-41.4	-42.5	22.1	0.00e+00	46	30	0	1147142144	60	6495
2026-01-04 23:17:13.88	348.21	17.80	-41.4	-42.5	22.1	0.00e+00	0	30	0	1148190720	60	6465
2026-01-04 23:17:14.89	348.11	17.69	-41.3	-42.3	22.1	0.00e+00	50	30	0	1150287872	60	6387
2026-01-04 23:17:15.90	348.01	17.58	-41.4	-42.5	22.1	0.00e+00	0	30	0	1152385024	60	6516
2026-01-04 23:17:16.91	347.91	17.47	-41.3	-42.4	22.3	0.00e+00	0	30	0	1154482176	60	6440
2026-01-04 23:17:17.92	347.81	17.37	-41.5	-42.6	22.0	0.00e+00	0	30	0	1156579328	60	6560
2026-01-04 23:17:18.93	347.71	17.26	-41.7	-42.8	21.9	0.00e+00	0	30	0	1157627904	60	6732
2026-01-04 23:17:19.95	347.62	17.15	-41.6	-42.7	22.0	0.00e+00	51	30	0	1159725056	60	6624
2026-01-04 23:17:20.96	347.52	17.05	-41.9	-43.1	21.7	0.00e+00	0	30	0	1161822208	60	6939
2026-01-04 23:17:21.97	347.42	16.94	-41.9	-43.0	21.7	0.00e+00	56	30	0	1163919360	60	6887
2026-01-04 23:17:22.98	347.33	16.83	-41.7	-42.9	21.8	0.00e+00	0	30	0	1166016512	60	6783
2026-01-04 23:17:23.99	347.23	16.73	-41.9	-43.1	21.7	0.00e+00	7	30	0	1167065088	60	6956
2026-01-04 23:17:25.00	347.14	16.62	-41.8	-43.0	21.7	0.00e+00	0	30	0	1169162240	60	6854
2026-01-04 23:17:26.01	347.05	16.52	-41.7	-42.9	21.8	0.00e+00	0	30	0	1171259392	60	6771
2026-01-04 23:17:27.02	346.95	16.42	-41.9	-43.1	21.5	0.00e+00	52	30	0	1173356544	60	6955
2026-01-04 23:17:28.04	346.86	16.31	-42.1	-43.3	21.6	0.00e+00	0	30	0	1175453696	60	7151
2026-01-04 23:17:29.05	346.77	16.21	-41.9	-43.0	21.7	0.00e+00	50	30	0	1176502272	60	6912
2026-01-04 23:17:30.06	346.68	16.11	-41.8	-43.0	21.9	0.00e+00	0	30	0	1178599424	60	6851
2026-01-04 23:17:31.07	346.59	16.00	-42.0	-43.2	21.5	0.00e+00	0	30	0	1180696576	60	7030
2026-01-04 23:17:32.08	346.50	15.90	-41.9	-43.1	21.5	0.00e+00	0	30	0	1182793728	60	6990
2026-01-04 23:17:33.09	346.41	15.80	-42.1	-43.3	21.4	0.00e+00	0	30	0	1184890880	60	7134
2026-01-04 23:17:34.10	346.32	15.70	-42.4	-43.6	21.1	0.00e+00	0	30	0	1185939456	60	7418
2026-01-04 23:17:35.11	346.24	15.60	-42.6	-43.9	20.9	0.00e+00	0	30	0	1188036608	60	7636
2026-01-04 23:17:36.12	346.15	15.50	-42.8	-44.1	20.6	0.00e+00	24	30	0	1190133760	60	7830
2026-01-04 23:17:37.13	346.06	15.40	-42.9	-44.3	20.5	0.00e+00	0	30	0	1192230912	60	8003
2026-01-04 23:17:38.15	345.98	15.30	-43.1	-44.5	20.3	0.00e+00	78	30	0	1194328064	60	8228
2026-01-04 23:17:39.16	345.89	15.20	-43.2	-44.6	20.2	0.00e+00	0	30	0	1196425216	60	8319
