passes_logs/2026/01/04/R4.6S_Anadyr_2ch/R4.6S_Anadyr_2ch__20260104_151122_NOAA_20_JPSS-1_rec.log

#Pass ID: 20260104_151122_NOAA 20 (JPSS-1)
#Satellite: NOAA 20 (JPSS-1)
#Configuration: NOAA 20
#almurnet v.1.7.20251203
#Start time: 2026-01-04 15:11:23

#Version: 2.2.20231116
#Station: R4.6S_Anadyr_2ch
#Location: 177.4865 lon 64.73178 lat
#TLE: 1 43013U 17073A   25350.93759711  .00000080  00000+0  58734-4 0  9994
#TLE: 2 43013  98.7603 287.1885 0002156  81.1496 278.9924 14.19526878418610

#Time	Az	El	Level	Level2	SNR	BER	BlckErr	Temp	State	Recorded	gain1	gain2
2026-01-04 15:11:23.52	21.61	0.03	-52.0	-67.1	3.5	1.51e+00	0	34	0	0	60	110685
2026-01-04 15:11:24.53	21.60	0.09	-52.2	-67.6	3.6	1.51e+00	0	35	104	0	60	116798
2026-01-04 15:11:25.54	21.59	0.15	-52.2	-67.5	3.6	1.51e+00	0	35	104	0	60	115995
2026-01-04 15:11:26.55	21.58	0.22	-52.2	-67.6	3.6	1.51e+00	0	35	104	0	60	117231
2026-01-04 15:11:27.56	21.57	0.28	-52.3	-67.7	3.6	1.51e+00	0	35	104	0	60	118412
2026-01-04 15:11:28.58	21.56	0.34	-52.1	-67.5	3.6	1.51e+00	0	35	104	0	60	115911
2026-01-04 15:11:29.59	21.55	0.40	-52.0	-67.4	3.6	1.51e+00	0	35	104	0	60	114448
2026-01-04 15:11:30.60	21.54	0.46	-52.0	-67.4	3.6	1.51e+00	0	35	104	0	60	114153
2026-01-04 15:11:31.61	21.53	0.52	-51.9	-67.3	3.6	1.51e+00	0	35	104	0	60	113436
2026-01-04 15:11:32.62	21.53	0.58	-51.9	-67.3	3.6	1.51e+00	0	35	104	0	60	112722
2026-01-04 15:11:33.63	21.52	0.64	-51.8	-67.3	3.6	1.51e+00	0	35	104	0	60	112393
2026-01-04 15:11:34.64	21.51	0.70	-51.8	-67.2	3.6	1.51e+00	0	35	104	0	60	111582
2026-01-04 15:11:35.65	21.50	0.77	-51.7	-67.1	3.6	1.51e+00	0	36	104	0	60	110809
2026-01-04 15:11:36.66	21.49	0.83	-51.7	-67.1	3.6	1.51e+00	0	36	104	0	60	109956
2026-01-04 15:11:37.67	21.48	0.89	-51.6	-67.0	3.6	1.51e+00	0	35	104	0	60	108803
2026-01-04 15:11:38.69	21.47	0.95	-51.3	-66.7	3.6	1.51e+00	0	35	104	0	60	105353
2026-01-04 15:11:39.70	21.46	1.01	-51.1	-66.5	3.6	1.51e+00	0	36	104	0	60	102960
2026-01-04 15:11:40.71	21.45	1.08	-51.0	-66.4	3.6	1.51e+00	0	36	104	0	60	101819
2026-01-04 15:11:41.72	21.44	1.14	-50.8	-66.2	3.5	1.51e+00	0	36	104	0	60	100012
2026-01-04 15:11:42.73	21.43	1.20	-50.4	-65.8	3.6	1.51e+00	0	36	104	0	60	95346
2026-01-04 15:11:43.74	21.42	1.26	-50.4	-65.7	3.6	1.51e+00	0	36	104	0	60	93624
2026-01-04 15:11:44.75	21.41	1.33	-50.4	-65.6	3.6	1.51e+00	0	36	104	0	60	92436
2026-01-04 15:11:45.76	21.40	1.39	-50.4	-65.4	3.6	1.51e+00	0	36	104	0	60	91291
2026-01-04 15:11:46.77	21.39	1.45	-50.4	-65.5	3.6	1.51e+00	0	36	104	0	60	91721
2026-01-04 15:11:47.78	21.38	1.51	-50.4	-65.3	3.6	1.51e+00	0	36	104	0	60	90040
2026-01-04 15:11:48.80	21.37	1.58	-50.4	-65.4	3.6	1.51e+00	0	36	104	0	60	90654
2026-01-04 15:11:49.81	21.36	1.64	-50.4	-65.6	3.6	1.51e+00	0	36	104	0	60	92757
2026-01-04 15:11:50.82	21.35	1.71	-50.4	-65.6	3.6	1.51e+00	0	36	104	0	60	93047
2026-01-04 15:11:51.83	21.34	1.77	-50.4	-65.7	3.6	1.51e+00	0	36	104	0	60	94500
2026-01-04 15:11:52.84	21.33	1.83	-50.4	-65.8	3.5	1.51e+00	0	36	104	0	60	94682
2026-01-04 15:11:53.85	21.32	1.90	-50.4	-65.8	3.6	1.51e+00	0	36	104	0	60	94703
2026-01-04 15:11:54.86	21.31	1.96	-50.4	-65.7	3.6	1.51e+00	0	36	104	0	60	94085
2026-01-04 15:11:55.88	21.30	2.03	-50.4	-65.7	3.6	1.51e+00	0	36	104	0	60	93866
2026-01-04 15:11:56.89	21.29	2.09	-50.4	-65.6	3.6	1.51e+00	0	36	104	0	60	92953
2026-01-04 15:11:57.90	21.28	2.15	-50.4	-65.6	3.6	1.51e+00	0	36	104	0	60	92940
2026-01-04 15:11:58.91	21.27	2.22	-50.4	-65.4	3.6	1.51e+00	0	36	104	0	60	91035
2026-01-04 15:11:59.92	21.26	2.28	-50.4	-65.2	3.6	1.51e+00	0	36	104	0	60	88345
2026-01-04 15:12:00.93	21.25	2.35	-50.3	-64.9	3.6	1.51e+00	0	36	104	0	60	85551
2026-01-04 15:12:01.94	21.24	2.41	-50.3	-64.8	3.6	1.51e+00	0	36	104	0	60	84359
2026-01-04 15:12:02.95	21.23	2.48	-50.3	-64.6	3.6	1.51e+00	0	36	104	0	60	82776
2026-01-04 15:12:03.96	21.22	2.54	-50.3	-64.6	3.6	1.51e+00	0	36	104	0	60	82764
2026-01-04 15:12:04.97	21.20	2.61	-50.3	-64.6	3.6	1.51e+00	0	36	104	0	60	83166
2026-01-04 15:12:05.98	21.19	2.68	-50.4	-65.0	3.6	1.51e+00	0	36	104	0	60	86881
2026-01-04 15:12:07.00	21.18	2.74	-50.3	-64.9	3.6	1.51e+00	0	36	104	0	60	86046
2026-01-04 15:12:08.01	21.17	2.81	-50.3	-64.4	3.6	1.51e+00	0	36	104	0	60	80504
2026-01-04 15:12:09.02	21.16	2.87	-50.2	-62.5	3.9	1.48e+00	0	36	0	0	60	64697
2026-01-04 15:12:10.03	21.15	2.94	-50.0	-59.0	5.0	8.23e-01	4	36	0	1048576	60	43265
2026-01-04 15:12:11.04	21.14	3.01	-49.7	-57.0	6.8	3.52e-01	8	36	0	3145728	60	34476
2026-01-04 15:12:12.05	21.12	3.07	-49.3	-55.5	8.7	1.22e-01	0	36	0	5242880	60	28880
2026-01-04 15:12:13.06	21.11	3.14	-49.2	-54.9	9.4	3.15e-02	0	36	0	7340032	60	27180
2026-01-04 15:12:14.07	21.10	3.21	-48.8	-53.7	10.8	4.27e-03	0	36	0	8388608	60	23703
2026-01-04 15:12:15.08	21.09	3.28	-48.6	-53.2	11.3	1.62e-03	0	36	0	10485760	60	22269
2026-01-04 15:12:16.09	21.08	3.34	-48.4	-52.7	11.8	2.87e-04	92	36	0	12582912	60	21100
2026-01-04 15:12:17.11	21.07	3.41	-48.3	-52.4	12.2	4.56e-04	82	36	0	14680064	60	20438
2026-01-04 15:12:18.12	21.05	3.48	-48.5	-52.9	11.8	1.03e-04	92	36	0	16777216	60	21639
2026-01-04 15:12:19.13	21.04	3.55	-48.6	-53.2	11.3	7.48e-04	0	36	0	17825792	60	22317
2026-01-04 15:12:20.14	21.03	3.61	-49.2	-55.0	9.2	7.33e-03	0	36	0	19922944	60	27571
2026-01-04 15:12:21.15	21.02	3.68	-50.3	-60.4	4.0	3.52e-01	40	36	0	22020096	60	51325
2026-01-04 15:12:22.16	21.01	3.75	-49.7	-56.2	10.0	2.12e-01	81	36	0	23068672	60	31434
2026-01-04 15:12:23.17	20.99	3.82	-50.2	-65.0	3.6	1.43e+00	0	36	104	24117248	60	87182
2026-01-04 15:12:24.18	20.98	3.89	-44.7	-46.5	17.3	1.30e+00	0	36	104	24117248	60	10311
2026-01-04 15:12:25.20	20.97	3.96	-50.5	-65.4	3.6	1.51e+00	0	36	104	24117248	60	90878
2026-01-04 15:12:26.21	20.96	4.03	-44.7	-46.5	17.8	7.15e-01	0	36	104	24117248	60	10297
2026-01-04 15:12:27.22	20.94	4.09	-44.9	-46.7	18.4	0.00e+00	0	36	0	25165824	60	10559
2026-01-04 15:12:28.23	20.93	4.16	-44.7	-46.5	18.5	0.00e+00	0	36	0	26214400	60	10293
2026-01-04 15:12:29.24	20.92	4.23	-44.9	-46.7	18.4	0.00e+00	0	36	0	28311552	60	10553
2026-01-04 15:12:30.25	20.90	4.30	-44.8	-46.5	18.6	0.00e+00	19	36	0	30408704	60	10339
2026-01-04 15:12:31.26	20.89	4.37	-44.5	-46.2	18.8	0.00e+00	0	36	0	32505856	60	9970
2026-01-04 15:12:32.27	20.88	4.44	-44.8	-46.5	18.6	0.00e+00	92	36	0	34603008	60	10342
2026-01-04 15:12:33.28	20.87	4.51	-44.9	-46.7	18.7	0.00e+00	0	36	0	35651584	60	10552
2026-01-04 15:12:34.30	20.85	4.58	-44.8	-46.6	18.6	0.00e+00	2	36	0	37748736	60	10412
2026-01-04 15:12:35.30	20.84	4.65	-45.0	-46.8	18.3	0.00e+00	0	36	0	39845888	60	10718
2026-01-04 15:12:36.32	20.82	4.73	-45.2	-47.1	18.0	0.00e+00	78	36	0	41943040	60	11037
2026-01-04 15:12:37.33	20.81	4.80	-45.3	-47.1	18.3	0.00e+00	0	36	0	44040192	60	11105
2026-01-04 15:12:38.34	20.80	4.87	-45.1	-47.0	18.4	0.00e+00	78	36	0	46137344	60	10867
2026-01-04 15:12:39.35	20.78	4.94	-44.9	-46.7	18.3	0.00e+00	91	36	0	47185920	60	10494
2026-01-04 15:12:40.36	20.77	5.01	-45.0	-46.7	18.6	0.00e+00	80	36	0	49283072	60	10557
2026-01-04 15:12:41.37	20.76	5.08	-44.7	-46.4	18.6	0.00e+00	92	36	0	51380224	60	10214
2026-01-04 15:12:42.38	20.74	5.15	-44.4	-46.0	19.3	0.00e+00	0	36	0	53477376	60	9676
2026-01-04 15:12:43.39	20.73	5.23	-44.4	-46.0	19.1	0.00e+00	5	36	0	55574528	60	9772
2026-01-04 15:12:44.41	20.71	5.30	-44.8	-46.4	18.7	0.00e+00	0	36	0	56623104	60	10228
2026-01-04 15:12:45.42	20.70	5.37	-44.5	-46.1	18.9	0.00e+00	5	36	0	58720256	60	9879
2026-01-04 15:12:46.43	20.69	5.44	-44.9	-46.6	19.0	0.00e+00	72	36	0	60817408	60	10373
2026-01-04 15:12:47.44	20.67	5.52	-44.7	-46.4	18.9	0.00e+00	0	36	0	62914560	60	10177
2026-01-04 15:12:48.45	20.66	5.59	-44.3	-45.9	19.3	0.00e+00	92	36	0	65011712	60	9581
2026-01-04 15:12:49.46	20.64	5.66	-44.2	-45.7	19.5	0.00e+00	5	36	0	66060288	60	9434
2026-01-04 15:12:50.47	20.63	5.74	-44.2	-45.8	19.3	0.00e+00	0	36	0	68157440	60	9470
2026-01-04 15:12:51.48	20.61	5.81	-44.0	-45.4	19.9	0.00e+00	0	36	0	70254592	60	9118
2026-01-04 15:12:52.49	20.60	5.88	-44.2	-45.7	19.6	0.00e+00	86	36	0	72351744	60	9386
2026-01-04 15:12:53.51	20.58	5.96	-43.8	-45.2	20.0	0.00e+00	84	36	0	74448896	60	8896
2026-01-04 15:12:54.52	20.57	6.03	-44.1	-45.6	19.8	0.00e+00	0	36	0	75497472	60	9240
2026-01-04 15:12:55.53	20.55	6.11	-43.7	-45.1	20.2	0.00e+00	90	36	0	77594624	60	8800
2026-01-04 15:12:56.54	20.54	6.18	-44.1	-45.6	19.9	0.00e+00	85	36	0	79691776	60	9289
2026-01-04 15:12:57.55	20.52	6.26	-44.2	-45.7	19.7	0.00e+00	64	36	0	81788928	60	9377
2026-01-04 15:12:58.56	20.51	6.33	-44.0	-45.4	19.8	0.00e+00	1	36	0	83886080	60	9112
2026-01-04 15:12:59.57	20.49	6.41	-43.9	-45.4	20.0	0.00e+00	83	36	0	84934656	60	9060
2026-01-04 15:13:00.58	20.47	6.48	-44.0	-45.5	20.0	0.00e+00	22	36	0	87031808	60	9132
2026-01-04 15:13:01.59	20.46	6.56	-43.9	-45.3	20.0	0.00e+00	7	36	0	89128960	60	9007
2026-01-04 15:13:02.60	20.44	6.64	-43.8	-45.2	20.2	0.00e+00	92	36	0	91226112	60	8903
2026-01-04 15:13:03.62	20.43	6.71	-43.8	-45.2	20.2	0.00e+00	2	36	0	93323264	60	8875
2026-01-04 15:13:04.63	20.41	6.79	-44.0	-45.4	20.2	0.00e+00	92	36	0	95420416	60	9070
2026-01-04 15:13:05.64	20.39	6.87	-43.9	-45.4	20.0	0.00e+00	0	36	0	96468992	60	9050
2026-01-04 15:13:06.65	20.38	6.94	-43.9	-45.3	20.0	0.00e+00	0	36	0	98566144	60	9019
2026-01-04 15:13:07.66	20.36	7.02	-43.8	-45.2	20.2	0.00e+00	5	36	0	100663296	60	8888
2026-01-04 15:13:08.67	20.35	7.10	-43.5	-44.9	20.4	0.00e+00	7	36	0	102760448	60	8524
2026-01-04 15:13:09.68	20.33	7.17	-43.6	-45.0	20.4	0.00e+00	92	36	0	104857600	60	8672
2026-01-04 15:13:10.69	20.31	7.25	-43.6	-45.0	20.2	0.00e+00	81	36	0	105906176	60	8680
2026-01-04 15:13:11.70	20.29	7.33	-43.7	-45.1	20.3	0.00e+00	92	36	0	108003328	60	8741
2026-01-04 15:13:12.72	20.28	7.41	-43.5	-44.9	20.5	0.00e+00	81	36	0	110100480	60	8523
2026-01-04 15:13:13.73	20.26	7.49	-43.5	-44.9	20.6	0.00e+00	0	36	0	112197632	60	8553
2026-01-04 15:13:14.74	20.24	7.57	-43.5	-44.9	20.5	0.00e+00	0	36	0	114294784	60	8531
2026-01-04 15:13:15.75	20.23	7.65	-43.4	-44.7	20.6	0.00e+00	0	36	0	115343360	60	8410
2026-01-04 15:13:16.76	20.21	7.72	-43.6	-44.9	20.3	0.00e+00	86	36	0	117440512	60	8608
2026-01-04 15:13:17.77	20.19	7.80	-43.5	-44.8	20.6	0.00e+00	81	36	0	119537664	60	8450
2026-01-04 15:13:18.78	20.17	7.88	-43.9	-45.3	20.2	0.00e+00	92	36	0	121634816	60	8942
2026-01-04 15:13:19.79	20.16	7.96	-43.4	-44.7	20.6	0.00e+00	0	36	0	123731968	60	8405
2026-01-04 15:13:20.80	20.14	8.04	-43.4	-44.7	20.7	0.00e+00	84	36	0	124780544	60	8365
2026-01-04 15:13:21.82	20.12	8.13	-43.7	-45.1	20.4	0.00e+00	0	36	0	126877696	60	8732
2026-01-04 15:13:22.83	20.10	8.21	-43.2	-44.4	20.9	0.00e+00	0	36	0	128974848	60	8134
2026-01-04 15:13:23.84	20.08	8.29	-43.2	-44.5	20.9	0.00e+00	11	36	0	131072000	60	8210
2026-01-04 15:13:24.85	20.06	8.37	-43.3	-44.6	20.6	0.00e+00	0	36	0	133169152	60	8322
2026-01-04 15:13:25.86	20.05	8.45	-43.5	-44.9	20.5	0.00e+00	92	36	0	135266304	60	8550
2026-01-04 15:13:26.87	20.03	8.53	-43.3	-44.6	20.8	0.00e+00	0	36	0	136314880	60	8304
2026-01-04 15:13:27.88	20.01	8.61	-43.2	-44.5	20.9	0.00e+00	92	36	0	138412032	60	8166
2026-01-04 15:13:28.89	19.99	8.70	-43.1	-44.3	21.1	0.00e+00	80	36	0	140509184	60	8031
2026-01-04 15:13:29.91	19.97	8.78	-42.9	-44.2	21.2	0.00e+00	81	36	0	142606336	60	7874
2026-01-04 15:13:30.91	19.95	8.86	-43.2	-44.4	21.0	0.00e+00	0	36	0	144703488	60	8109
2026-01-04 15:13:31.93	19.93	8.95	-42.9	-44.1	21.3	0.00e+00	81	36	0	145752064	60	7818
2026-01-04 15:13:32.94	19.91	9.03	-43.0	-44.2	21.2	0.00e+00	92	36	0	147849216	60	7899
2026-01-04 15:13:33.95	19.89	9.11	-43.0	-44.2	21.2	0.00e+00	0	36	0	149946368	60	7949
2026-01-04 15:13:34.96	19.87	9.20	-43.0	-44.2	21.2	0.00e+00	90	36	0	152043520	60	7908
2026-01-04 15:13:35.97	19.85	9.28	-43.1	-44.3	21.1	0.00e+00	0	36	0	154140672	60	8025
2026-01-04 15:13:36.98	19.83	9.37	-43.0	-44.2	21.4	0.00e+00	80	36	0	155189248	60	7875
2026-01-04 15:13:38.00	19.81	9.45	-43.1	-44.3	21.2	0.00e+00	1	36	0	157286400	60	8039
2026-01-04 15:13:39.01	19.79	9.54	-42.9	-44.1	21.3	0.00e+00	2	36	0	159383552	60	7851
2026-01-04 15:13:40.02	19.77	9.62	-42.5	-43.6	21.8	0.00e+00	62	36	0	161480704	60	7380
2026-01-04 15:13:41.03	19.75	9.71	-42.7	-43.9	21.8	0.00e+00	0	36	0	163577856	60	7619
2026-01-04 15:13:42.04	19.73	9.79	-43.0	-44.3	21.2	0.00e+00	91	36	0	164626432	60	7958
2026-01-04 15:13:43.05	19.71	9.88	-42.8	-44.0	21.5	0.00e+00	0	36	0	166723584	60	7695
2026-01-04 15:13:44.06	19.69	9.97	-42.9	-44.1	21.4	0.00e+00	0	36	0	168820736	60	7845
2026-01-04 15:13:45.07	19.67	10.05	-42.8	-44.0	21.4	0.00e+00	2	36	0	170917888	60	7757
2026-01-04 15:13:46.08	19.65	10.14	-42.8	-43.9	21.7	0.00e+00	0	36	0	173015040	60	7654
2026-01-04 15:13:47.09	19.62	10.23	-42.8	-43.9	21.6	0.00e+00	0	36	0	175112192	60	7663
2026-01-04 15:13:48.11	19.60	10.32	-42.6	-43.7	21.9	0.00e+00	81	36	0	176160768	60	7460
2026-01-04 15:13:49.12	19.58	10.40	-42.5	-43.7	21.8	0.00e+00	91	36	0	178257920	60	7440
2026-01-04 15:13:50.13	19.56	10.49	-42.7	-43.8	21.7	0.00e+00	0	36	0	180355072	60	7573
2026-01-04 15:13:51.14	19.54	10.58	-42.5	-43.6	21.9	0.00e+00	91	36	0	182452224	60	7409
2026-01-04 15:13:52.15	19.51	10.67	-42.5	-43.6	21.9	0.00e+00	81	36	0	184549376	60	7397
2026-01-04 15:13:53.16	19.49	10.76	-42.6	-43.7	21.9	0.00e+00	0	36	0	185597952	60	7496
2026-01-04 15:13:54.17	19.47	10.85	-42.6	-43.7	21.9	0.00e+00	0	36	0	187695104	60	7480
2026-01-04 15:13:55.18	19.45	10.94	-42.4	-43.5	22.0	0.00e+00	0	36	0	189792256	60	7329
2026-01-04 15:13:56.20	19.42	11.03	-42.4	-43.5	22.0	0.00e+00	92	36	0	191889408	60	7260
2026-01-04 15:13:57.21	19.40	11.12	-42.4	-43.5	22.1	0.00e+00	0	36	0	193986560	60	7255
2026-01-04 15:13:58.22	19.38	11.21	-42.4	-43.4	22.1	0.00e+00	92	36	0	195035136	60	7248
2026-01-04 15:13:59.23	19.35	11.30	-42.3	-43.3	22.2	0.00e+00	0	37	0	197132288	60	7160
2026-01-04 15:14:00.24	19.33	11.39	-42.4	-43.5	22.0	0.00e+00	0	37	0	199229440	60	7298
2026-01-04 15:14:01.25	19.30	11.49	-42.3	-43.4	22.3	0.00e+00	0	36	0	201326592	60	7187
2026-01-04 15:14:02.26	19.28	11.58	-42.2	-43.3	22.3	0.00e+00	0	36	0	203423744	60	7141
2026-01-04 15:14:03.27	19.26	11.67	-42.2	-43.3	22.3	0.00e+00	90	36	0	204472320	60	7127
2026-01-04 15:14:04.28	19.23	11.76	-42.3	-43.3	22.2	0.00e+00	0	36	0	206569472	60	7153
2026-01-04 15:14:05.29	19.21	11.86	-42.3	-43.3	22.2	0.00e+00	90	36	0	208666624	60	7159
2026-01-04 15:14:06.30	19.18	11.95	-42.3	-43.3	22.3	0.00e+00	81	36	0	210763776	60	7149
2026-01-04 15:14:07.31	19.16	12.05	-42.1	-43.1	22.5	0.00e+00	81	36	0	212860928	60	6981
2026-01-04 15:14:08.32	19.13	12.14	-42.1	-43.1	22.5	0.00e+00	81	36	0	213909504	60	6971
2026-01-04 15:14:09.33	19.11	12.23	-42.0	-43.1	22.5	0.00e+00	0	36	0	216006656	60	6947
2026-01-04 15:14:10.34	19.08	12.33	-42.0	-43.0	22.6	0.00e+00	82	36	0	218103808	60	6880
2026-01-04 15:14:11.35	19.06	12.43	-42.1	-43.2	22.5	0.00e+00	2	36	0	220200960	60	7051
2026-01-04 15:14:12.37	19.03	12.52	-41.8	-42.8	22.8	0.00e+00	92	36	0	222298112	60	6764
2026-01-04 15:14:13.38	19.00	12.62	-42.1	-43.2	22.5	0.00e+00	80	36	0	223346688	60	7017
2026-01-04 15:14:14.39	18.98	12.71	-41.9	-42.9	22.7	0.00e+00	63	36	0	225443840	60	6844
2026-01-04 15:14:15.40	18.95	12.81	-42.0	-43.1	22.6	0.00e+00	6	36	0	227540992	60	6935
2026-01-04 15:14:16.41	18.92	12.91	-41.7	-42.7	22.9	0.00e+00	5	36	0	229638144	60	6689
2026-01-04 15:14:17.42	18.90	13.01	-41.8	-42.8	22.8	0.00e+00	4	36	0	231735296	60	6715
2026-01-04 15:14:18.43	18.87	13.10	-41.7	-42.7	23.0	0.00e+00	0	36	0	232783872	60	6668
2026-01-04 15:14:19.45	18.84	13.20	-41.8	-42.9	22.8	0.00e+00	92	37	0	234881024	60	6776
2026-01-04 15:14:20.46	18.82	13.30	-42.0	-43.0	22.5	0.00e+00	0	36	0	236978176	60	6876
2026-01-04 15:14:21.47	18.79	13.40	-42.1	-43.1	22.4	0.00e+00	92	36	0	239075328	60	7002
2026-01-04 15:14:22.48	18.76	13.50	-41.9	-42.9	22.7	0.00e+00	0	36	0	241172480	60	6817
2026-01-04 15:14:23.49	18.73	13.60	-41.9	-43.0	22.7	0.00e+00	87	36	0	243269632	60	6851
2026-01-04 15:14:24.50	18.70	13.70	-41.7	-42.7	23.0	0.00e+00	0	36	0	244318208	60	6620
2026-01-04 15:14:25.51	18.67	13.80	-41.3	-42.2	23.4	0.00e+00	6	36	0	246415360	60	6303
2026-01-04 15:14:26.52	18.65	13.91	-41.4	-42.4	23.2	0.00e+00	92	36	0	248512512	60	6407
2026-01-04 15:14:27.53	18.62	14.01	-41.4	-42.4	23.2	0.00e+00	86	36	0	250609664	60	6435
2026-01-04 15:14:28.54	18.59	14.11	-41.5	-42.5	23.0	0.00e+00	92	37	0	252706816	60	6504
2026-01-04 15:14:29.56	18.56	14.21	-41.5	-42.5	23.1	0.00e+00	86	37	0	253755392	60	6522
2026-01-04 15:14:30.57	18.53	14.32	-41.7	-42.7	22.9	0.00e+00	0	37	0	255852544	60	6648
2026-01-04 15:14:31.58	18.50	14.42	-41.6	-42.6	22.9	0.00e+00	0	36	0	257949696	60	6593
2026-01-04 15:14:32.59	18.47	14.52	-41.5	-42.5	23.1	0.00e+00	6	36	0	260046848	60	6515
2026-01-04 15:14:33.60	18.44	14.63	-41.1	-42.1	23.5	0.00e+00	70	37	0	262144000	60	6183
2026-01-04 15:14:34.61	18.41	14.73	-41.3	-42.3	23.4	0.00e+00	4	36	0	263192576	60	6347
2026-01-04 15:14:35.62	18.38	14.84	-41.0	-41.9	23.6	0.00e+00	92	36	0	265289728	60	6096
2026-01-04 15:14:36.63	18.34	14.94	-41.1	-42.1	23.6	0.00e+00	7	37	0	267386880	60	6182
2026-01-04 15:14:37.64	18.31	15.05	-41.0	-42.0	23.6	0.00e+00	7	37	0	269484032	60	6115
2026-01-04 15:14:38.66	18.28	15.16	-41.0	-42.0	23.6	0.00e+00	7	37	0	271581184	60	6109
2026-01-04 15:14:39.67	18.25	15.26	-41.0	-41.9	23.7	0.00e+00	7	37	0	272629760	60	6067
2026-01-04 15:14:40.68	18.22	15.37	-40.9	-41.8	23.8	0.00e+00	5	37	0	274726912	60	6028
2026-01-04 15:14:41.69	18.18	15.48	-40.8	-41.7	23.9	0.00e+00	0	37	0	276824064	60	5957
2026-01-04 15:14:42.70	18.15	15.59	-40.9	-41.9	23.6	0.00e+00	92	36	0	278921216	60	6043
2026-01-04 15:14:43.71	18.12	15.70	-40.8	-41.7	23.9	0.00e+00	82	37	0	281018368	60	5932
2026-01-04 15:14:44.72	18.09	15.81	-41.0	-42.0	23.6	0.00e+00	92	37	0	283115520	60	6104
2026-01-04 15:14:45.73	18.05	15.92	-41.1	-42.0	23.6	0.00e+00	0	37	0	284164096	60	6133
2026-01-04 15:14:46.74	18.02	16.03	-41.0	-41.9	23.6	0.00e+00	81	37	0	286261248	60	6048
2026-01-04 15:14:47.75	17.98	16.14	-41.1	-42.1	23.6	0.00e+00	14	37	0	288358400	60	6177
2026-01-04 15:14:48.76	17.95	16.25	-40.6	-41.5	24.0	0.00e+00	81	36	0	290455552	60	5807
2026-01-04 15:14:49.78	17.91	16.36	-40.7	-41.6	23.9	0.00e+00	92	36	0	292552704	60	5848
2026-01-04 15:14:50.79	17.88	16.47	-40.7	-41.6	24.0	0.00e+00	0	37	0	293601280	60	5829
2026-01-04 15:14:51.80	17.84	16.59	-40.8	-41.7	23.9	0.00e+00	92	37	0	295698432	60	5943
2026-01-04 15:14:52.81	17.81	16.70	-40.7	-41.6	24.1	0.00e+00	0	37	0	297795584	60	5829
2026-01-04 15:14:53.82	17.77	16.81	-40.5	-41.4	24.1	0.00e+00	0	37	0	299892736	60	5726
2026-01-04 15:14:54.83	17.74	16.93	-40.6	-41.5	24.2	0.00e+00	0	37	0	301989888	60	5771
2026-01-04 15:14:55.84	17.70	17.04	-40.5	-41.4	24.2	0.00e+00	2	36	0	303038464	60	5711
2026-01-04 15:14:56.85	17.66	17.16	-40.5	-41.4	24.1	0.00e+00	92	37	0	305135616	60	5731
2026-01-04 15:14:57.86	17.63	17.27	-40.5	-41.4	24.0	0.00e+00	2	37	0	307232768	60	5737
2026-01-04 15:14:58.87	17.59	17.39	-40.7	-41.6	23.9	0.00e+00	92	37	0	309329920	60	5839
2026-01-04 15:14:59.89	17.55	17.51	-40.5	-41.3	24.2	0.00e+00	0	37	0	311427072	60	5679
2026-01-04 15:15:00.90	17.51	17.63	-40.6	-41.5	24.2	0.00e+00	3	37	0	312475648	60	5800
2026-01-04 15:15:01.91	17.47	17.74	-40.3	-41.1	24.4	0.00e+00	81	37	0	314572800	60	5560
2026-01-04 15:15:02.92	17.44	17.86	-40.4	-41.3	24.4	0.00e+00	81	37	0	316669952	60	5647
2026-01-04 15:15:03.93	17.40	17.98	-40.2	-41.1	24.3	0.00e+00	2	37	0	318767104	60	5528
2026-01-04 15:15:04.94	17.36	18.10	-40.3	-41.2	24.4	0.00e+00	0	37	0	320864256	60	5574
2026-01-04 15:15:05.95	17.32	18.22	-40.3	-41.2	24.3	0.00e+00	91	37	0	322961408	60	5585
2026-01-04 15:15:06.96	17.28	18.34	-40.1	-41.0	24.6	0.00e+00	0	37	0	324009984	58	6105
2026-01-04 15:15:07.97	17.24	18.47	-40.1	-41.0	24.5	0.00e+00	92	36	0	326107136	58	6127
2026-01-04 15:15:08.98	17.20	18.59	-40.1	-41.0	24.5	0.00e+00	82	37	0	328204288	58	6104
2026-01-04 15:15:10.00	17.15	18.71	-40.3	-41.1	24.4	0.00e+00	0	37	0	330301440	58	6227
2026-01-04 15:15:11.01	17.11	18.83	-40.3	-41.1	24.4	0.00e+00	0	37	0	332398592	58	6236
2026-01-04 15:15:12.02	17.07	18.96	-40.2	-41.1	24.5	0.00e+00	0	37	0	333447168	58	6204
2026-01-04 15:15:13.03	17.03	19.08	-40.0	-40.9	24.6	0.00e+00	92	37	0	335544320	58	6046
2026-01-04 15:15:14.04	16.99	19.21	-40.3	-41.1	24.5	0.00e+00	0	37	0	337641472	58	6229
2026-01-04 15:15:15.05	16.94	19.33	-40.0	-40.9	24.7	0.00e+00	34	37	0	339738624	58	6051
2026-01-04 15:15:16.06	16.90	19.46	-40.1	-40.9	24.6	0.00e+00	0	37	0	341835776	58	6062
2026-01-04 15:15:17.07	16.86	19.59	-40.1	-40.9	24.6	0.00e+00	0	37	0	342884352	58	6076
2026-01-04 15:15:18.08	16.81	19.72	-40.0	-40.8	24.6	0.00e+00	0	37	0	344981504	58	5991
2026-01-04 15:15:19.09	16.77	19.84	-40.1	-40.9	24.6	0.00e+00	81	37	0	347078656	58	6079
2026-01-04 15:15:20.11	16.72	19.97	-40.1	-41.0	24.4	0.00e+00	92	37	0	349175808	58	6105
2026-01-04 15:15:21.12	16.68	20.10	-39.9	-40.7	24.7	0.00e+00	0	37	0	351272960	58	5919
2026-01-04 15:15:22.13	16.63	20.23	-39.9	-40.7	24.7	0.00e+00	92	37	0	352321536	58	5954
2026-01-04 15:15:23.14	16.58	20.36	-39.9	-40.7	24.7	0.00e+00	0	37	0	354418688	58	5930
2026-01-04 15:15:24.15	16.54	20.50	-39.9	-40.7	24.8	0.00e+00	0	37	0	356515840	58	5953
2026-01-04 15:15:25.16	16.49	20.63	-39.9	-40.7	24.7	0.00e+00	0	37	0	358612992	58	5937
2026-01-04 15:15:26.17	16.44	20.76	-39.9	-40.8	24.7	0.00e+00	81	37	0	360710144	58	5967
2026-01-04 15:15:27.18	16.39	20.90	-39.8	-40.6	24.8	0.00e+00	66	37	0	361758720	58	5863
2026-01-04 15:15:28.19	16.35	21.03	-39.9	-40.7	24.7	0.00e+00	0	37	0	363855872	58	5948
2026-01-04 15:15:29.20	16.30	21.16	-39.8	-40.7	24.8	0.00e+00	90	37	0	365953024	58	5900
2026-01-04 15:15:30.22	16.25	21.30	-39.9	-40.7	24.7	0.00e+00	0	37	0	368050176	58	5964
2026-01-04 15:15:31.23	16.20	21.44	-39.6	-40.4	25.0	0.00e+00	0	37	0	370147328	58	5752
2026-01-04 15:15:32.24	16.15	21.58	-39.8	-40.6	24.7	0.00e+00	0	37	0	372244480	58	5879
2026-01-04 15:15:33.25	16.10	21.71	-39.8	-40.7	24.8	0.00e+00	0	37	0	373293056	58	5898
2026-01-04 15:15:34.26	16.04	21.85	-39.6	-40.4	24.9	0.00e+00	0	37	0	375390208	58	5754
2026-01-04 15:15:35.27	15.99	21.99	-39.7	-40.5	25.0	0.00e+00	0	37	0	377487360	58	5777
2026-01-04 15:15:36.28	15.94	22.13	-39.7	-40.5	24.9	0.00e+00	92	37	0	379584512	58	5775
2026-01-04 15:15:37.29	15.89	22.27	-39.7	-40.5	24.9	0.00e+00	82	37	0	381681664	58	5804
2026-01-04 15:15:38.30	15.83	22.41	-39.7	-40.5	25.0	0.00e+00	55	37	0	382730240	58	5801
2026-01-04 15:15:39.32	15.78	22.56	-39.6	-40.3	25.1	0.00e+00	2	37	0	384827392	58	5695
2026-01-04 15:15:40.33	15.72	22.70	-39.6	-40.4	25.1	0.00e+00	81	37	0	386924544	58	5728
2026-01-04 15:15:41.34	15.67	22.84	-39.6	-40.5	25.0	0.00e+00	73	37	0	389021696	58	5763
2026-01-04 15:15:42.35	15.61	22.99	-39.7	-40.5	24.9	0.00e+00	81	37	0	391118848	58	5822
2026-01-04 15:15:43.36	15.56	23.13	-39.5	-40.3	25.0	0.00e+00	90	37	0	392167424	58	5690
2026-01-04 15:15:44.37	15.50	23.28	-39.7	-40.5	25.0	0.00e+00	0	37	0	394264576	58	5784
2026-01-04 15:15:45.38	15.44	23.43	-39.6	-40.5	25.0	0.00e+00	92	37	0	396361728	58	5763
2026-01-04 15:15:46.39	15.39	23.58	-39.7	-40.5	25.0	0.00e+00	0	37	0	398458880	58	5793
2026-01-04 15:15:47.40	15.33	23.72	-39.6	-40.4	25.0	0.00e+00	6	37	0	400556032	58	5727
2026-01-04 15:15:48.42	15.27	23.87	-39.6	-40.5	25.0	0.00e+00	6	37	0	401604608	58	5766
2026-01-04 15:15:49.43	15.21	24.03	-39.8	-40.6	24.9	0.00e+00	0	37	0	403701760	58	5864
2026-01-04 15:15:50.44	15.15	24.18	-39.8	-40.6	24.9	0.00e+00	44	37	0	405798912	58	5890
2026-01-04 15:15:51.45	15.09	24.33	-39.9	-40.7	24.8	0.00e+00	0	37	0	407896064	58	5959
2026-01-04 15:15:52.46	15.03	24.48	-39.9	-40.7	24.8	0.00e+00	92	37	0	409993216	58	5943
2026-01-04 15:15:53.47	14.96	24.63	-40.0	-40.8	24.7	0.00e+00	5	37	0	411041792	58	6019
2026-01-04 15:15:54.48	14.90	24.79	-40.3	-41.2	24.4	0.00e+00	1	37	0	413138944	58	6273
2026-01-04 15:15:55.49	14.84	24.94	-40.2	-41.0	24.4	0.00e+00	0	37	0	415236096	58	6167
2026-01-04 15:15:56.50	14.77	25.10	-40.3	-41.1	24.5	0.00e+00	0	37	0	417333248	58	6229
2026-01-04 15:15:57.52	14.71	25.26	-40.4	-41.2	24.4	0.00e+00	6	37	0	419430400	58	6296
2026-01-04 15:15:58.53	14.64	25.42	-40.6	-41.4	24.2	0.00e+00	86	37	0	420478976	58	6462
2026-01-04 15:15:59.54	14.58	25.58	-40.6	-41.5	24.1	0.00e+00	92	37	0	422576128	58	6517
2026-01-04 15:16:00.55	14.51	25.74	-40.7	-41.6	24.0	0.00e+00	0	37	0	424673280	58	6568
2026-01-04 15:16:01.56	14.44	25.90	-40.9	-41.8	23.9	0.00e+00	92	37	0	426770432	58	6712
2026-01-04 15:16:02.57	14.37	26.06	-41.0	-41.9	23.6	0.00e+00	85	37	0	428867584	58	6826
2026-01-04 15:16:03.58	14.30	26.22	-41.0	-42.0	23.5	0.00e+00	82	37	0	430964736	58	6854
2026-01-04 15:16:04.59	14.23	26.39	-41.1	-42.0	23.6	0.00e+00	3	37	0	432013312	58	6885
2026-01-04 15:16:05.60	14.16	26.55	-41.2	-42.1	23.6	0.00e+00	6	37	0	434110464	60	6222
2026-01-04 15:16:06.61	14.09	26.72	-41.3	-42.2	23.6	0.00e+00	92	37	0	436207616	60	6307
2026-01-04 15:16:07.62	14.02	26.88	-41.4	-42.3	23.5	0.00e+00	7	37	0	438304768	60	6380
2026-01-04 15:16:08.63	13.95	27.05	-41.5	-42.5	23.3	0.00e+00	92	37	0	440401920	60	6470
2026-01-04 15:16:09.65	13.87	27.22	-41.7	-42.7	23.1	0.00e+00	1	37	0	441450496	60	6653
2026-01-04 15:16:10.66	13.80	27.39	-41.8	-42.8	22.9	0.00e+00	2	37	0	443547648	60	6762
2026-01-04 15:16:11.67	13.72	27.56	-42.0	-43.0	22.9	0.00e+00	6	37	0	445644800	60	6880
2026-01-04 15:16:12.68	13.65	27.73	-42.1	-43.1	22.8	0.00e+00	2	37	0	447741952	60	6945
2026-01-04 15:16:13.69	13.57	27.90	-42.2	-43.3	22.7	0.00e+00	92	37	0	449839104	60	7093
2026-01-04 15:16:14.70	13.49	28.08	-42.4	-43.4	22.5	0.00e+00	2	37	0	450887680	60	7244
2026-01-04 15:16:15.71	13.41	28.25	-42.5	-43.6	22.3	0.00e+00	91	37	0	452984832	60	7372
2026-01-04 15:16:16.72	13.33	28.43	-42.7	-43.8	22.2	0.00e+00	0	37	0	455081984	60	7519
2026-01-04 15:16:17.73	13.25	28.60	-43.1	-44.2	21.8	0.00e+00	80	37	0	457179136	60	7940
2026-01-04 15:16:18.75	13.17	28.78	-43.2	-44.3	21.6	0.00e+00	0	37	0	459276288	60	8038
2026-01-04 15:16:19.76	13.09	28.96	-43.3	-44.5	21.7	0.00e+00	81	37	0	460324864	60	8172
2026-01-04 15:16:20.77	13.00	29.14	-43.2	-44.4	21.6	0.00e+00	81	37	0	462422016	60	8064
2026-01-04 15:16:21.78	12.92	29.32	-43.3	-44.5	21.5	0.00e+00	0	37	0	464519168	60	8190
2026-01-04 15:16:22.79	12.83	29.51	-43.5	-44.7	21.4	0.00e+00	91	37	0	466616320	60	8357
2026-01-04 15:16:23.80	12.75	29.69	-43.5	-44.7	21.3	0.00e+00	0	37	0	468713472	60	8360
2026-01-04 15:16:24.81	12.66	29.87	-43.6	-44.8	21.2	0.00e+00	92	37	0	470810624	60	8471
2026-01-04 15:16:25.82	12.57	30.06	-43.7	-44.9	21.2	0.00e+00	0	37	0	471859200	60	8545
2026-01-04 15:16:26.83	12.48	30.25	-43.7	-44.9	20.9	0.00e+00	0	37	0	473956352	60	8618
2026-01-04 15:16:27.85	12.39	30.43	-43.7	-45.0	21.1	0.00e+00	4	37	0	476053504	60	8665
2026-01-04 15:16:28.86	12.30	30.62	-43.9	-45.2	20.9	0.00e+00	2	37	0	478150656	60	8867
2026-01-04 15:16:29.87	12.20	30.81	-44.0	-45.3	20.8	0.00e+00	92	37	0	480247808	60	8952
2026-01-04 15:16:30.88	12.11	31.00	-43.9	-45.2	20.9	0.00e+00	2	37	0	481296384	60	8834
2026-01-04 15:16:31.89	12.01	31.20	-44.0	-45.3	20.8	0.00e+00	92	37	0	483393536	60	8957
2026-01-04 15:16:32.90	11.92	31.39	-44.2	-45.5	20.6	0.00e+00	79	37	0	485490688	60	9226
2026-01-04 15:16:33.91	11.82	31.59	-44.3	-45.6	20.5	0.00e+00	2	37	0	487587840	60	9330
2026-01-04 15:16:34.92	11.72	31.78	-44.3	-45.7	20.4	0.00e+00	0	37	0	489684992	60	9402
2026-01-04 15:16:35.93	11.62	31.98	-44.6	-46.0	20.1	0.00e+00	82	37	0	490733568	60	9720
2026-01-04 15:16:36.94	11.52	32.18	-44.7	-46.2	19.9	0.00e+00	90	37	0	492830720	60	9932
2026-01-04 15:16:37.96	11.41	32.38	-44.9	-46.4	19.7	0.00e+00	0	37	0	494927872	60	10137
2026-01-04 15:16:38.97	11.31	32.58	-44.9	-46.4	19.7	0.00e+00	92	37	0	497025024	60	10203
2026-01-04 15:16:39.98	11.20	32.78	-45.0	-46.5	19.7	0.00e+00	0	37	0	499122176	60	10265
2026-01-04 15:16:40.99	11.10	32.98	-45.0	-46.5	19.6	0.00e+00	0	37	0	500170752	60	10277
2026-01-04 15:16:42.00	10.99	33.19	-45.2	-46.8	19.4	0.00e+00	0	37	0	502267904	60	10629
2026-01-04 15:16:43.01	10.88	33.39	-45.4	-47.0	19.3	0.00e+00	0	37	0	504365056	60	10864
2026-01-04 15:16:44.02	10.77	33.60	-45.2	-46.7	19.5	0.00e+00	92	37	0	506462208	60	10606
2026-01-04 15:16:45.03	10.65	33.81	-45.0	-46.5	19.7	0.00e+00	0	37	0	508559360	60	10282
2026-01-04 15:16:46.04	10.54	34.02	-44.9	-46.4	19.7	0.00e+00	92	37	0	509607936	60	10164
2026-01-04 15:16:47.05	10.42	34.23	-44.9	-46.3	19.8	0.00e+00	0	37	0	511705088	60	10099
2026-01-04 15:16:48.07	10.31	34.44	-44.8	-46.2	20.0	0.00e+00	37	37	0	513802240	60	9935
2026-01-04 15:16:49.08	10.19	34.66	-44.6	-46.0	20.2	0.00e+00	0	37	0	515899392	60	9722
2026-01-04 15:16:50.09	10.07	34.87	-44.6	-46.0	20.3	0.00e+00	0	37	0	517996544	60	9675
2026-01-04 15:16:51.10	9.94	35.09	-44.3	-45.7	20.5	0.00e+00	92	37	0	520093696	60	9393
2026-01-04 15:16:52.11	9.82	35.31	-44.3	-45.6	20.3	0.00e+00	78	37	0	521142272	60	9334
2026-01-04 15:16:53.12	9.69	35.53	-44.3	-45.6	20.5	0.00e+00	92	37	0	523239424	60	9299
2026-01-04 15:16:54.13	9.57	35.75	-44.4	-45.8	20.5	0.00e+00	3	37	0	525336576	60	9528
2026-01-04 15:16:55.14	9.44	35.97	-44.2	-45.6	20.6	0.00e+00	89	37	0	527433728	60	9260
2026-01-04 15:16:56.15	9.31	36.19	-44.2	-45.5	20.7	0.00e+00	0	37	0	529530880	60	9158
2026-01-04 15:16:57.16	9.17	36.41	-44.2	-45.6	20.6	0.00e+00	79	37	0	530579456	60	9255
2026-01-04 15:16:58.17	9.04	36.64	-44.5	-45.9	20.3	0.00e+00	0	37	0	532676608	60	9571
2026-01-04 15:16:59.19	8.90	36.87	-44.5	-45.9	20.2	0.00e+00	0	37	0	534773760	60	9596
2026-01-04 15:17:00.20	8.76	37.10	-45.0	-46.6	19.6	0.00e+00	92	37	0	536870912	60	10397
2026-01-04 15:17:01.21	8.62	37.33	-45.0	-46.5	19.5	0.00e+00	0	37	0	538968064	60	10304
2026-01-04 15:17:02.22	8.48	37.56	-44.9	-46.4	19.7	0.00e+00	91	37	0	540016640	60	10199
2026-01-04 15:17:03.23	8.33	37.79	-44.9	-46.4	19.8	0.00e+00	0	37	0	542113792	60	10140
2026-01-04 15:17:04.24	8.19	38.03	-44.9	-46.4	19.6	0.00e+00	0	37	0	544210944	60	10241
2026-01-04 15:17:05.25	8.04	38.26	-45.2	-46.7	19.6	0.00e+00	0	37	0	546308096	60	10555
2026-01-04 15:17:06.26	7.89	38.50	-45.1	-46.7	19.6	0.00e+00	0	37	0	548405248	60	10528
2026-01-04 15:17:07.27	7.73	38.74	-45.1	-46.7	19.3	0.00e+00	92	37	0	549453824	60	10552
2026-01-04 15:17:08.28	7.58	38.98	-45.2	-46.8	19.4	0.00e+00	0	37	0	551550976	60	10634
2026-01-04 15:17:09.30	7.42	39.22	-44.9	-46.4	19.8	0.00e+00	92	37	0	553648128	60	10195
2026-01-04 15:17:10.31	7.26	39.46	-44.9	-46.4	19.8	0.00e+00	0	37	0	555745280	60	10166
2026-01-04 15:17:11.32	7.09	39.71	-44.6	-46.0	20.2	0.00e+00	81	37	0	557842432	60	9685
2026-01-04 15:17:12.33	6.93	39.95	-44.7	-46.1	20.1	0.00e+00	0	37	0	558891008	60	9874
2026-01-04 15:17:13.34	6.76	40.20	-44.4	-45.8	20.4	0.00e+00	2	37	0	560988160	60	9523
2026-01-04 15:17:14.35	6.59	40.45	-44.2	-45.5	20.6	0.00e+00	78	37	0	563085312	60	9176
2026-01-04 15:17:15.36	6.41	40.70	-44.1	-45.5	20.6	0.00e+00	0	37	0	565182464	60	9143
2026-01-04 15:17:16.37	6.24	40.95	-44.0	-45.2	20.9	0.00e+00	92	37	0	567279616	60	8910
2026-01-04 15:17:17.38	6.06	41.20	-43.7	-45.0	21.2	0.00e+00	0	37	0	568328192	60	8645
2026-01-04 15:17:18.39	5.88	41.46	-43.6	-44.8	21.2	0.00e+00	6	37	0	570425344	60	8451
2026-01-04 15:17:19.41	5.69	41.71	-43.6	-44.8	21.3	0.00e+00	5	37	0	572522496	60	8507
2026-01-04 15:17:20.42	5.50	41.97	-43.5	-44.6	21.5	0.00e+00	5	37	0	574619648	60	8323
2026-01-04 15:17:21.43	5.31	42.23	-43.4	-44.6	21.5	0.00e+00	0	37	0	576716800	60	8247
2026-01-04 15:17:22.44	5.11	42.49	-43.0	-44.2	21.8	0.00e+00	4	37	0	578813952	60	7867
2026-01-04 15:17:23.45	4.92	42.75	-43.1	-44.2	21.9	0.00e+00	92	37	0	579862528	60	7935
2026-01-04 15:17:24.46	4.72	43.01	-43.2	-44.4	21.7	0.00e+00	5	37	0	581959680	60	8047
2026-01-04 15:17:25.47	4.51	43.28	-43.1	-44.3	21.6	0.00e+00	90	37	0	584056832	60	7966
2026-01-04 15:17:26.48	4.30	43.54	-42.8	-43.9	22.1	0.00e+00	6	37	0	586153984	60	7667
2026-01-04 15:17:27.50	4.09	43.81	-42.4	-43.4	22.6	0.00e+00	84	37	0	588251136	60	7244
2026-01-04 15:17:28.51	3.87	44.08	-42.3	-43.4	22.7	0.00e+00	73	37	0	589299712	60	7186
2026-01-04 15:17:29.52	3.66	44.35	-42.2	-43.3	22.6	0.00e+00	5	37	0	591396864	60	7098
2026-01-04 15:17:30.53	3.43	44.62	-42.2	-43.2	22.7	0.00e+00	81	37	0	593494016	60	7088
2026-01-04 15:17:31.54	3.21	44.90	-42.0	-43.0	22.9	0.00e+00	0	37	0	595591168	60	6902
2026-01-04 15:17:32.55	2.98	45.17	-41.9	-42.9	23.0	0.00e+00	92	37	0	597688320	60	6798
2026-01-04 15:17:33.56	2.74	45.45	-41.7	-42.7	23.2	0.00e+00	0	37	0	598736896	60	6650
2026-01-04 15:17:34.57	2.50	45.72	-41.7	-42.6	23.1	0.00e+00	86	37	0	600834048	60	6614
2026-01-04 15:17:35.58	2.26	46.00	-41.7	-42.6	23.2	0.00e+00	87	37	0	602931200	60	6606
2026-01-04 15:17:36.60	2.01	46.28	-41.6	-42.6	23.3	0.00e+00	0	37	0	605028352	60	6567
2026-01-04 15:17:37.61	1.76	46.56	-41.5	-42.5	23.4	0.00e+00	75	37	0	607125504	60	6474
2026-01-04 15:17:38.62	1.50	46.85	-41.5	-42.4	23.5	0.00e+00	0	37	0	608174080	60	6459
2026-01-04 15:17:39.63	1.24	47.13	-41.6	-42.5	23.3	0.00e+00	91	37	0	610271232	60	6521
2026-01-04 15:17:40.64	0.97	47.41	-41.7	-42.7	23.1	0.00e+00	0	37	0	612368384	60	6632
2026-01-04 15:17:41.65	0.70	47.70	-41.8	-42.8	23.0	0.00e+00	92	37	0	614465536	60	6744
2026-01-04 15:17:42.66	0.42	47.99	-42.0	-43.0	22.9	0.00e+00	7	37	0	616562688	60	6899
2026-01-04 15:17:43.67	0.14	48.28	-41.9	-42.9	23.1	0.00e+00	6	37	0	617611264	60	6810
2026-01-04 15:17:44.68	359.85	48.57	-42.0	-43.0	22.9	0.00e+00	9	37	0	619708416	60	6923
2026-01-04 15:17:45.70	359.56	48.86	-42.0	-43.0	22.6	0.00e+00	3	37	0	621805568	60	6903
2026-01-04 15:17:46.71	359.26	49.15	-42.1	-43.1	22.6	0.00e+00	90	37	0	623902720	60	6997
2026-01-04 15:17:47.72	358.96	49.44	-41.8	-42.8	23.0	0.00e+00	79	37	0	625999872	60	6703
2026-01-04 15:17:48.73	358.65	49.74	-41.6	-42.5	23.3	0.00e+00	92	37	0	628097024	60	6533
2026-01-04 15:17:49.74	358.33	50.03	-41.4	-42.3	23.5	0.00e+00	76	37	0	629145600	60	6373
2026-01-04 15:17:50.75	358.01	50.33	-41.2	-42.2	23.7	0.00e+00	0	37	0	631242752	60	6265
2026-01-04 15:17:51.76	357.68	50.62	-41.0	-41.9	23.9	0.00e+00	81	37	0	633339904	60	6050
2026-01-04 15:17:52.77	357.34	50.92	-40.5	-41.4	24.3	0.00e+00	0	37	0	635437056	60	5721
2026-01-04 15:17:53.78	357.00	51.22	-40.0	-40.8	24.7	0.00e+00	91	37	0	637534208	58	6012
2026-01-04 15:17:54.79	356.65	51.52	-39.9	-40.7	24.8	0.00e+00	0	37	0	638582784	58	5951
2026-01-04 15:17:55.81	356.29	51.82	-39.6	-40.4	25.1	0.00e+00	92	37	0	640679936	58	5735
2026-01-04 15:17:56.82	355.93	52.12	-39.6	-40.4	25.1	0.00e+00	0	37	0	642777088	58	5754
2026-01-04 15:17:57.83	355.56	52.42	-39.8	-40.6	24.9	0.00e+00	0	37	0	644874240	58	5888
2026-01-04 15:17:58.84	355.18	52.72	-40.1	-41.0	24.7	0.00e+00	0	37	0	646971392	58	6120
2026-01-04 15:17:59.85	354.79	53.03	-40.2	-41.0	24.5	0.00e+00	4	37	0	648019968	58	6157
2026-01-04 15:18:00.86	354.39	53.33	-39.7	-40.5	24.9	0.00e+00	82	37	0	650117120	58	5825
2026-01-04 15:18:01.87	353.99	53.63	-40.0	-40.8	24.6	0.00e+00	0	37	0	652214272	58	6033
2026-01-04 15:18:02.88	353.58	53.94	-40.3	-41.2	24.3	0.00e+00	92	37	0	654311424	58	6252
2026-01-04 15:18:03.89	353.16	54.24	-40.4	-41.2	24.4	0.00e+00	5	37	0	656408576	58	6313
2026-01-04 15:18:04.91	352.72	54.55	-40.4	-41.3	24.2	0.00e+00	81	37	0	657457152	58	6352
2026-01-04 15:18:05.92	352.28	54.85	-41.1	-42.0	23.7	0.00e+00	0	37	0	659554304	58	6856
2026-01-04 15:18:06.93	351.83	55.15	-41.5	-42.4	23.4	0.00e+00	81	37	0	661651456	60	6446
2026-01-04 15:18:07.94	351.37	55.46	-42.1	-43.1	22.8	0.00e+00	82	37	0	663748608	60	6950
2026-01-04 15:18:08.95	350.90	55.76	-42.7	-43.8	22.0	0.00e+00	0	37	0	665845760	60	7574
2026-01-04 15:18:09.96	350.42	56.06	-43.5	-44.7	21.3	0.00e+00	92	37	0	667942912	60	8339
2026-01-04 15:18:10.97	349.93	56.37	-44.7	-46.1	19.9	0.00e+00	3	37	0	668991488	60	9859
2026-01-04 15:18:11.98	349.43	56.67	-45.2	-46.7	19.4	0.00e+00	92	37	0	671088640	60	10547
2026-01-04 15:18:12.99	348.92	56.97	-45.9	-47.7	18.5	0.00e+00	0	37	0	673185792	60	11782
2026-01-04 15:18:14.01	348.39	57.28	-46.0	-47.8	18.3	0.00e+00	0	37	0	675282944	60	12019
2026-01-04 15:18:15.02	347.86	57.58	-45.7	-47.4	18.5	0.00e+00	0	37	0	677380096	60	11446
2026-01-04 15:18:16.03	347.31	57.88	-45.1	-46.6	19.7	0.00e+00	0	37	0	678428672	60	10390
2026-01-04 15:18:17.04	346.75	58.18	-44.6	-46.0	20.2	0.00e+00	90	37	0	680525824	60	9751
2026-01-04 15:18:18.05	346.17	58.47	-43.7	-44.9	21.2	0.00e+00	0	37	0	682622976	60	8572
2026-01-04 15:18:19.06	345.59	58.77	-43.3	-44.5	21.5	0.00e+00	66	37	0	684720128	60	8203
2026-01-04 15:18:20.07	344.99	59.07	-42.8	-43.9	22.1	0.00e+00	2	37	0	686817280	60	7633
2026-01-04 15:18:21.08	344.38	59.36	-42.7	-43.8	22.0	0.00e+00	2	37	0	687865856	60	7552
2026-01-04 15:18:22.09	343.75	59.65	-43.0	-44.2	21.8	0.00e+00	0	37	0	689963008	60	7894
2026-01-04 15:18:23.11	343.10	59.94	-42.5	-43.6	22.4	0.00e+00	77	37	0	692060160	60	7368
2026-01-04 15:18:24.12	342.44	60.23	-41.7	-42.7	23.2	0.00e+00	92	37	0	694157312	60	6653
2026-01-04 15:18:25.13	341.77	60.52	-41.1	-42.0	23.8	0.00e+00	4	37	0	696254464	60	6134
2026-01-04 15:18:26.14	341.09	60.80	-40.3	-41.1	24.5	0.00e+00	92	37	0	697303040	60	5530
2026-01-04 15:18:27.15	340.39	61.08	-39.7	-40.5	24.2	0.00e+00	0	37	0	699400192	58	5770
2026-01-04 15:18:28.16	339.67	61.36	-39.6	-40.4	25.0	0.00e+00	76	37	0	701497344	58	5720
2026-01-04 15:18:29.17	338.93	61.64	-39.2	-40.0	25.4	0.00e+00	74	37	0	703594496	56	6124
2026-01-04 15:18:30.18	338.18	61.91	-39.2	-39.9	25.3	0.00e+00	0	37	0	705691648	56	6091
2026-01-04 15:18:31.19	337.41	62.18	-38.9	-39.7	25.7	0.00e+00	59	37	0	707788800	56	5919
2026-01-04 15:18:32.21	336.62	62.45	-38.7	-39.5	25.8	0.00e+00	0	37	0	708837376	56	5766
2026-01-04 15:18:33.22	335.82	62.71	-39.1	-39.9	25.4	0.00e+00	92	37	0	710934528	56	6061
2026-01-04 15:18:34.23	335.00	62.97	-39.5	-40.3	25.1	0.00e+00	0	37	0	713031680	56	6376
2026-01-04 15:18:35.24	334.16	63.22	-39.6	-40.4	25.1	0.00e+00	0	37	0	715128832	56	6427
2026-01-04 15:18:36.25	333.31	63.47	-39.7	-40.5	25.1	0.00e+00	0	37	0	717225984	56	6488
2026-01-04 15:18:37.26	332.43	63.72	-39.7	-40.6	25.0	0.00e+00	0	37	0	718274560	56	6546
2026-01-04 15:18:38.27	331.54	63.96	-39.8	-40.6	24.9	0.00e+00	0	37	0	720371712	56	6567
2026-01-04 15:18:39.28	330.63	64.19	-39.7	-40.5	24.9	0.00e+00	2	37	0	722468864	56	6528
2026-01-04 15:18:40.29	329.70	64.42	-39.8	-40.6	24.8	0.00e+00	92	37	0	724566016	56	6600
2026-01-04 15:18:41.30	328.75	64.65	-40.2	-41.0	24.6	0.00e+00	0	37	0	726663168	58	6136
2026-01-04 15:18:42.31	327.78	64.87	-40.1	-40.9	24.7	0.00e+00	92	37	0	727711744	58	6094
2026-01-04 15:18:43.32	326.80	65.08	-40.3	-41.1	24.4	0.00e+00	0	37	0	729808896	58	6240
2026-01-04 15:18:44.33	325.79	65.29	-40.4	-41.2	24.5	0.00e+00	79	37	0	731906048	58	6286
2026-01-04 15:18:45.35	324.76	65.49	-40.7	-41.5	24.2	0.00e+00	81	37	0	734003200	58	6513
2026-01-04 15:18:46.36	323.72	65.68	-41.6	-42.5	23.5	0.00e+00	78	37	0	736100352	60	6513
2026-01-04 15:18:47.37	322.66	65.87	-42.1	-43.1	22.8	0.00e+00	92	37	0	737148928	60	7005
2026-01-04 15:18:48.38	321.58	66.05	-42.9	-44.0	22.0	0.00e+00	0	37	0	739246080	60	7753
2026-01-04 15:18:49.39	320.48	66.22	-43.0	-44.1	22.0	0.00e+00	92	37	0	741343232	60	7831
2026-01-04 15:18:50.40	319.37	66.38	-42.3	-43.3	22.6	0.00e+00	0	37	0	743440384	60	7126
2026-01-04 15:18:51.41	318.24	66.54	-42.1	-43.1	22.7	0.00e+00	5	37	0	745537536	60	6980
2026-01-04 15:18:52.42	317.09	66.69	-42.6	-43.7	22.4	0.00e+00	0	37	0	746586112	60	7457
2026-01-04 15:18:53.43	315.93	66.83	-42.6	-43.7	22.3	0.00e+00	5	37	0	748683264	60	7461
2026-01-04 15:18:54.45	314.74	66.96	-42.9	-44.0	22.0	0.00e+00	92	37	0	750780416	60	7753
2026-01-04 15:18:55.46	313.55	67.08	-43.1	-44.3	21.8	0.00e+00	4	37	0	752877568	60	7990
2026-01-04 15:18:56.47	312.34	67.20	-43.2	-44.4	21.7	0.00e+00	92	37	0	754974720	60	8090
2026-01-04 15:18:57.48	311.13	67.30	-43.1	-44.3	21.7	0.00e+00	3	37	0	756023296	60	7955
2026-01-04 15:18:58.49	309.90	67.39	-42.9	-44.1	22.1	0.00e+00	4	37	0	758120448	60	7786
2026-01-04 15:18:59.50	308.66	67.48	-43.0	-44.1	22.1	0.00e+00	84	37	0	760217600	60	7846
2026-01-04 15:19:00.50	307.42	67.55	-42.6	-43.7	22.4	0.00e+00	5	37	0	762314752	60	7451
2026-01-04 15:19:01.51	306.16	67.62	-42.7	-43.8	22.4	0.00e+00	0	37	0	764411904	60	7526
2026-01-04 15:19:02.52	304.89	67.67	-42.7	-43.8	22.3	0.00e+00	4	37	0	765460480	60	7511
2026-01-04 15:19:03.53	303.62	67.72	-43.0	-44.1	22.0	0.00e+00	92	37	0	767557632	60	7791
2026-01-04 15:19:04.55	302.33	67.75	-43.1	-44.2	21.8	0.00e+00	0	37	0	769654784	60	7946
2026-01-04 15:19:05.56	301.05	67.78	-43.2	-44.3	21.8	0.00e+00	4	37	0	771751936	60	7992
2026-01-04 15:19:06.57	299.77	67.79	-42.9	-44.0	22.1	0.00e+00	86	37	0	773849088	60	7733
2026-01-04 15:19:07.58	298.48	67.80	-42.7	-43.8	22.2	0.00e+00	0	37	0	775946240	60	7530
2026-01-04 15:19:08.59	297.20	67.79	-43.1	-44.2	21.9	0.00e+00	0	37	0	776994816	60	7901
2026-01-04 15:19:09.60	295.92	67.77	-43.4	-44.6	21.4	0.00e+00	6	37	0	779091968	60	8286
2026-01-04 15:19:10.61	294.64	67.75	-43.9	-45.1	21.1	0.00e+00	92	37	0	781189120	60	8807
2026-01-04 15:19:11.62	293.36	67.71	-43.9	-45.2	20.9	0.00e+00	0	37	0	783286272	60	8840
2026-01-04 15:19:12.63	292.09	67.66	-43.7	-44.9	21.2	0.00e+00	92	37	0	785383424	60	8551
2026-01-04 15:19:13.64	290.82	67.61	-43.4	-44.6	21.7	0.00e+00	5	37	0	786432000	60	8268
2026-01-04 15:19:14.65	289.57	67.54	-42.8	-43.9	22.4	0.00e+00	6	37	0	788529152	60	7627
2026-01-04 15:19:15.66	288.32	67.46	-42.6	-43.7	22.4	0.00e+00	0	37	0	790626304	60	7456
2026-01-04 15:19:16.67	287.08	67.38	-42.7	-43.8	22.4	0.00e+00	7	37	0	792723456	60	7535
2026-01-04 15:19:17.68	285.85	67.28	-42.6	-43.7	22.5	0.00e+00	92	37	0	794820608	60	7447
2026-01-04 15:19:18.70	284.62	67.17	-42.5	-43.5	22.5	0.00e+00	6	37	0	795869184	60	7327
2026-01-04 15:19:19.71	283.42	67.06	-42.5	-43.5	22.7	0.00e+00	92	37	0	797966336	60	7309
2026-01-04 15:19:20.72	282.23	66.93	-42.5	-43.6	22.5	0.00e+00	75	37	0	800063488	60	7347
2026-01-04 15:19:21.73	281.06	66.80	-42.2	-43.2	23.0	0.00e+00	4	37	0	802160640	60	7017
2026-01-04 15:19:22.74	279.90	66.66	-42.4	-43.4	22.7	0.00e+00	76	37	0	804257792	60	7183
2026-01-04 15:19:23.75	278.75	66.51	-42.5	-43.5	22.6	0.00e+00	0	37	0	805306368	60	7313
2026-01-04 15:19:24.76	277.63	66.35	-42.1	-43.0	23.1	0.00e+00	59	37	0	807403520	60	6913
2026-01-04 15:19:25.77	276.51	66.19	-42.0	-42.9	23.2	0.00e+00	76	37	0	809500672	60	6826
2026-01-04 15:19:26.78	275.42	66.01	-41.8	-42.8	23.2	0.00e+00	90	37	0	811597824	60	6716
2026-01-04 15:19:27.80	274.34	65.83	-41.3	-42.2	23.7	0.00e+00	0	37	0	813694976	60	6298
2026-01-04 15:19:28.81	273.28	65.64	-40.4	-41.2	24.6	0.00e+00	90	37	0	815792128	60	5602
2026-01-04 15:19:29.82	272.24	65.45	-40.8	-41.6	24.2	0.00e+00	0	37	0	816840704	60	5876
2026-01-04 15:19:30.83	271.22	65.25	-40.4	-41.2	24.6	0.00e+00	0	37	0	818937856	60	5620
2026-01-04 15:19:31.84	270.22	65.04	-40.4	-41.2	24.5	0.00e+00	0	37	0	821035008	60	5616
2026-01-04 15:19:32.85	269.23	64.82	-39.7	-40.5	25.2	0.00e+00	2	37	0	823132160	58	5774
2026-01-04 15:19:33.86	268.27	64.60	-39.6	-40.4	25.2	0.00e+00	91	37	0	825229312	58	5748
2026-01-04 15:19:34.87	267.32	64.38	-39.3	-40.1	25.4	0.00e+00	2	37	0	826277888	58	5537
2026-01-04 15:19:35.89	266.39	64.14	-39.4	-40.2	25.4	0.00e+00	92	37	0	828375040	58	5607
2026-01-04 15:19:36.90	265.48	63.91	-39.6	-40.4	25.3	0.00e+00	81	37	0	830472192	58	5732
2026-01-04 15:19:37.91	264.59	63.66	-39.8	-40.6	25.2	0.00e+00	82	37	0	832569344	58	5843
2026-01-04 15:19:38.92	263.72	63.42	-39.7	-40.4	25.2	0.00e+00	0	37	0	834666496	58	5755
2026-01-04 15:19:39.93	262.86	63.17	-39.9	-40.7	25.0	0.00e+00	0	37	0	835715072	58	5904
2026-01-04 15:19:40.94	262.03	62.91	-40.6	-41.5	24.3	0.00e+00	92	37	0	837812224	58	6479
2026-01-04 15:19:41.95	261.21	62.65	-41.5	-42.4	23.5	0.00e+00	0	37	0	839909376	60	6450
2026-01-04 15:19:42.96	260.41	62.39	-42.1	-43.1	22.9	0.00e+00	90	37	0	842006528	60	7002
2026-01-04 15:19:43.97	259.63	62.12	-42.4	-43.4	22.7	0.00e+00	79	37	0	844103680	60	7240
2026-01-04 15:19:44.98	258.86	61.85	-42.7	-43.8	22.4	0.00e+00	0	37	0	845152256	60	7550
2026-01-04 15:19:45.99	258.12	61.58	-42.5	-43.6	22.5	0.00e+00	0	37	0	847249408	60	7348
2026-01-04 15:19:47.01	257.38	61.30	-42.3	-43.3	22.5	0.00e+00	0	37	0	849346560	60	7158
2026-01-04 15:19:48.02	256.66	61.02	-42.4	-43.5	22.5	0.00e+00	92	37	0	851443712	60	7257
2026-01-04 15:19:49.03	255.96	60.74	-43.4	-44.6	21.5	0.00e+00	0	37	0	853540864	60	8248
2026-01-04 15:19:50.04	255.28	60.45	-44.3	-45.6	20.5	0.00e+00	92	37	0	855638016	60	9306
2026-01-04 15:19:51.05	254.61	60.16	-44.7	-46.1	20.2	0.00e+00	5	37	0	856686592	60	9817
2026-01-04 15:19:52.06	253.96	59.88	-45.1	-46.6	19.8	0.00e+00	51	37	0	858783744	60	10383
2026-01-04 15:19:53.07	253.32	59.58	-45.0	-46.5	19.9	0.00e+00	5	37	0	860880896	60	10310
2026-01-04 15:19:54.08	252.69	59.29	-44.7	-46.1	20.4	0.00e+00	2	37	0	862978048	60	9867
2026-01-04 15:19:55.10	252.07	58.99	-44.1	-45.4	20.9	0.00e+00	0	37	0	865075200	60	9051
2026-01-04 15:19:56.11	251.48	58.70	-44.0	-45.3	21.0	0.00e+00	74	37	0	866123776	60	8935
2026-01-04 15:19:57.12	250.89	58.40	-44.0	-45.3	20.9	0.00e+00	92	37	0	868220928	60	8931
2026-01-04 15:19:58.13	250.32	58.10	-43.6	-44.8	21.4	0.00e+00	74	37	0	870318080	60	8448
2026-01-04 15:19:59.14	249.76	57.80	-43.5	-44.7	21.6	0.00e+00	92	37	0	872415232	60	8389
2026-01-04 15:20:00.15	249.22	57.50	-43.4	-44.5	21.9	0.00e+00	73	37	0	874512384	60	8180
2026-01-04 15:20:01.16	248.68	57.20	-42.7	-43.7	22.7	0.00e+00	82	37	0	875560960	60	7446
2026-01-04 15:20:02.17	248.16	56.90	-42.2	-43.2	23.1	0.00e+00	0	37	0	877658112	60	7027
2026-01-04 15:20:03.18	247.65	56.60	-41.7	-42.7	23.2	0.00e+00	0	37	0	879755264	60	6645
2026-01-04 15:20:04.20	247.15	56.29	-41.7	-42.6	23.4	0.00e+00	92	37	0	881852416	60	6595
2026-01-04 15:20:05.21	246.66	55.98	-41.7	-42.6	23.5	0.00e+00	0	37	0	883949568	60	6591
2026-01-04 15:20:06.22	246.18	55.68	-41.4	-42.4	23.7	0.00e+00	92	37	0	884998144	60	6396
2026-01-04 15:20:07.23	245.71	55.38	-41.2	-42.1	23.8	0.00e+00	0	37	0	887095296	60	6182
2026-01-04 15:20:08.24	245.25	55.07	-41.2	-42.1	23.8	0.00e+00	0	37	0	889192448	60	6196
2026-01-04 15:20:09.25	244.81	54.77	-41.2	-42.1	23.8	0.00e+00	0	37	0	891289600	60	6199
2026-01-04 15:20:10.26	244.37	54.46	-41.2	-42.1	23.7	0.00e+00	0	37	0	893386752	60	6227
2026-01-04 15:20:11.27	243.94	54.16	-41.0	-41.9	23.8	0.00e+00	90	37	0	894435328	60	6085
2026-01-04 15:20:12.28	243.52	53.85	-41.2	-42.1	23.7	0.00e+00	0	37	0	896532480	60	6205
2026-01-04 15:20:13.30	243.10	53.55	-41.4	-42.3	23.4	0.00e+00	92	37	0	898629632	60	6349
2026-01-04 15:20:14.31	242.70	53.24	-41.5	-42.4	23.3	0.00e+00	0	37	0	900726784	60	6462
2026-01-04 15:20:15.32	242.31	52.94	-41.5	-42.5	23.3	0.00e+00	24	37	0	902823936	60	6498
2026-01-04 15:20:16.33	241.92	52.64	-41.7	-42.7	23.1	0.00e+00	5	37	0	903872512	60	6636
2026-01-04 15:20:17.34	241.54	52.33	-42.0	-43.0	23.0	0.00e+00	3	37	0	905969664	60	6876
2026-01-04 15:20:18.35	241.17	52.03	-41.9	-42.9	23.0	0.00e+00	29	37	0	908066816	60	6822
2026-01-04 15:20:19.36	240.81	51.73	-41.7	-42.6	23.3	0.00e+00	0	37	0	910163968	60	6592
2026-01-04 15:20:20.37	240.45	51.43	-41.9	-42.9	22.9	0.00e+00	92	37	0	912261120	60	6800
2026-01-04 15:20:21.38	240.10	51.13	-42.1	-43.1	22.9	0.00e+00	0	37	0	913309696	60	6948
2026-01-04 15:20:22.40	239.76	50.83	-42.3	-43.3	22.6	0.00e+00	90	37	0	915406848	60	7132
2026-01-04 15:20:23.41	239.42	50.53	-42.6	-43.7	22.3	0.00e+00	0	37	0	917504000	60	7455
2026-01-04 15:20:24.42	239.10	50.23	-42.8	-43.9	22.1	0.00e+00	0	37	0	919601152	60	7665
2026-01-04 15:20:25.43	238.77	49.94	-42.8	-43.9	22.2	0.00e+00	0	37	0	921698304	60	7625
2026-01-04 15:20:26.44	238.46	49.64	-42.7	-43.8	22.2	0.00e+00	6	37	0	923795456	60	7566
2026-01-04 15:20:27.45	238.15	49.35	-42.4	-43.5	22.4	0.00e+00	92	37	0	924844032	60	7283
2026-01-04 15:20:28.46	237.85	49.06	-42.5	-43.6	22.2	0.00e+00	3	37	0	926941184	60	7389
2026-01-04 15:20:29.47	237.55	48.76	-42.8	-43.8	22.1	0.00e+00	91	37	0	929038336	60	7591
2026-01-04 15:20:30.48	237.26	48.47	-42.9	-44.0	22.0	0.00e+00	7	37	0	931135488	60	7685
2026-01-04 15:20:31.50	236.97	48.18	-42.8	-43.9	22.0	0.00e+00	83	37	0	933232640	60	7639
2026-01-04 15:20:32.51	236.69	47.89	-42.8	-43.9	22.1	0.00e+00	83	37	0	934281216	60	7630
2026-01-04 15:20:33.52	236.41	47.60	-42.5	-43.6	22.4	0.00e+00	2	37	0	936378368	60	7356
2026-01-04 15:20:34.53	236.14	47.32	-42.5	-43.6	22.2	0.00e+00	91	37	0	938475520	60	7357
2026-01-04 15:20:35.54	235.87	47.03	-42.6	-43.7	22.3	0.00e+00	85	37	0	940572672	60	7464
2026-01-04 15:20:36.55	235.61	46.75	-42.6	-43.7	22.3	0.00e+00	91	37	0	942669824	60	7482
2026-01-04 15:20:37.56	235.36	46.47	-42.4	-43.5	22.4	0.00e+00	0	37	0	943718400	60	7272
2026-01-04 15:20:38.57	235.10	46.18	-42.6	-43.7	22.2	0.00e+00	0	37	0	945815552	60	7485
2026-01-04 15:20:39.58	234.86	45.90	-43.0	-44.1	21.8	0.00e+00	0	37	0	947912704	60	7820
2026-01-04 15:20:40.60	234.61	45.62	-43.4	-44.6	21.5	0.00e+00	0	37	0	950009856	60	8301
2026-01-04 15:20:41.61	234.37	45.35	-43.4	-44.6	21.4	0.00e+00	6	37	0	952107008	60	8250
2026-01-04 15:20:42.62	234.14	45.07	-43.4	-44.7	21.2	0.00e+00	6	37	0	953155584	60	8359
2026-01-04 15:20:43.63	233.91	44.80	-43.7	-44.9	21.3	0.00e+00	92	37	0	955252736	60	8600
2026-01-04 15:20:44.64	233.68	44.52	-43.3	-44.6	21.5	0.00e+00	6	37	0	957349888	60	8240
2026-01-04 15:20:45.65	233.46	44.25	-43.3	-44.5	21.4	0.00e+00	67	37	0	959447040	60	8209
2026-01-04 15:20:46.66	233.24	43.98	-43.3	-44.6	21.4	0.00e+00	3	37	0	961544192	60	8242
2026-01-04 15:20:47.67	233.03	43.71	-43.6	-44.8	21.1	0.00e+00	4	37	0	963641344	60	8478
2026-01-04 15:20:48.68	232.82	43.44	-43.8	-45.1	20.8	0.00e+00	5	37	0	964689920	60	8811
2026-01-04 15:20:49.70	232.61	43.17	-43.7	-45.0	21.0	0.00e+00	77	37	0	966787072	60	8671
2026-01-04 15:20:50.71	232.40	42.91	-43.9	-45.2	20.6	0.00e+00	90	37	0	968884224	60	8879
2026-01-04 15:20:51.72	232.20	42.65	-44.3	-45.7	20.3	0.00e+00	79	37	0	970981376	60	9393
2026-01-04 15:20:52.73	232.00	42.38	-45.0	-46.6	19.5	0.00e+00	90	37	0	973078528	60	10479
2026-01-04 15:20:53.74	231.81	42.12	-45.0	-46.6	19.4	0.00e+00	78	37	0	974127104	60	10446
2026-01-04 15:20:54.75	231.62	41.86	-45.2	-46.9	19.3	0.00e+00	0	37	0	976224256	60	10767
2026-01-04 15:20:55.76	231.43	41.61	-45.5	-47.2	18.9	0.00e+00	81	37	0	978321408	60	11146
2026-01-04 15:20:56.77	231.25	41.35	-45.5	-47.2	18.7	0.00e+00	0	37	0	980418560	60	11169
2026-01-04 15:20:57.78	231.06	41.10	-45.6	-47.4	18.7	0.00e+00	92	37	0	982515712	60	11388
2026-01-04 15:20:58.80	230.88	40.84	-45.9	-47.8	18.3	0.00e+00	0	37	0	983564288	60	11959
2026-01-04 15:20:59.81	230.71	40.59	-45.8	-47.6	18.5	0.00e+00	90	37	0	985661440	60	11694
2026-01-04 15:21:00.81	230.53	40.34	-45.4	-47.1	19.0	0.00e+00	2	37	0	987758592	60	11000
2026-01-04 15:21:01.82	230.36	40.09	-45.6	-47.3	18.8	0.00e+00	75	37	0	989855744	60	11360
2026-01-04 15:21:02.83	230.20	39.85	-45.5	-47.2	18.9	0.00e+00	2	37	0	991952896	60	11194
2026-01-04 15:21:03.85	230.03	39.60	-45.1	-46.8	19.3	0.00e+00	2	37	0	993001472	60	10610
2026-01-04 15:21:04.86	229.86	39.35	-45.0	-46.6	19.5	0.00e+00	92	37	0	995098624	60	10463
2026-01-04 15:21:05.87	229.70	39.11	-44.7	-46.2	19.8	0.00e+00	0	37	0	997195776	60	10000
2026-01-04 15:21:06.88	229.55	38.87	-44.3	-45.7	20.4	0.00e+00	92	37	0	999292928	60	9452
2026-01-04 15:21:07.89	229.39	38.63	-44.3	-45.7	20.3	0.00e+00	0	37	0	1001390080	60	9417
2026-01-04 15:21:08.90	229.24	38.39	-43.8	-45.2	20.8	0.00e+00	82	37	0	1003487232	60	8870
2026-01-04 15:21:09.91	229.09	38.15	-44.0	-45.4	20.7	0.00e+00	81	37	0	1004535808	60	9035
2026-01-04 15:21:10.92	228.94	37.92	-44.0	-45.4	20.6	0.00e+00	82	37	0	1006632960	60	9096
2026-01-04 15:21:11.93	228.79	37.68	-44.0	-45.4	20.7	0.00e+00	0	37	0	1008730112	60	9043
2026-01-04 15:21:12.94	228.64	37.45	-44.2	-45.6	20.5	0.00e+00	0	37	0	1010827264	60	9279
2026-01-04 15:21:13.96	228.50	37.21	-43.9	-45.3	20.8	0.00e+00	92	37	0	1012924416	60	8970
2026-01-04 15:21:14.97	228.36	36.98	-43.7	-45.0	21.0	0.00e+00	0	37	0	1013972992	60	8718
2026-01-04 15:21:15.98	228.22	36.76	-43.6	-45.0	21.0	0.00e+00	92	37	0	1016070144	60	8656
2026-01-04 15:21:16.99	228.08	36.53	-43.8	-45.1	20.8	0.00e+00	2	37	0	1018167296	60	8815
2026-01-04 15:21:18.00	227.95	36.30	-43.7	-45.0	21.0	0.00e+00	0	37	0	1020264448	60	8664
2026-01-04 15:21:19.01	227.82	36.08	-43.8	-45.2	20.9	0.00e+00	0	37	0	1022361600	60	8865
2026-01-04 15:21:20.02	227.69	35.85	-43.8	-45.1	20.8	0.00e+00	0	37	0	1023410176	60	8782
2026-01-04 15:21:21.04	227.56	35.63	-44.0	-45.4	20.6	0.00e+00	92	37	0	1025507328	60	9092
2026-01-04 15:21:22.05	227.43	35.41	-43.7	-45.1	20.9	0.00e+00	0	37	0	1027604480	60	8772
2026-01-04 15:21:23.06	227.30	35.19	-43.9	-45.2	20.8	0.00e+00	92	37	0	1029701632	60	8885
2026-01-04 15:21:24.07	227.18	34.97	-44.0	-45.3	20.7	0.00e+00	2	37	0	1031798784	60	9021
2026-01-04 15:21:25.08	227.06	34.76	-43.9	-45.3	20.7	0.00e+00	4	37	0	1032847360	60	8960
2026-01-04 15:21:26.09	226.94	34.54	-43.8	-45.1	20.7	0.00e+00	0	37	0	1034944512	60	8806
2026-01-04 15:21:27.10	226.82	34.33	-43.8	-45.1	20.8	0.00e+00	79	37	0	1037041664	60	8775
2026-01-04 15:21:28.11	226.70	34.11	-44.0	-45.3	20.6	0.00e+00	90	37	0	1039138816	60	9023
2026-01-04 15:21:29.12	226.58	33.90	-43.7	-45.1	20.9	0.00e+00	80	37	0	1041235968	60	8740
2026-01-04 15:21:30.14	226.47	33.69	-43.8	-45.1	20.8	0.00e+00	90	37	0	1042284544	60	8815
2026-01-04 15:21:31.15	226.36	33.48	-43.7	-44.9	21.0	0.00e+00	0	37	0	1044381696	60	8593
2026-01-04 15:21:32.16	226.24	33.28	-43.5	-44.8	21.2	0.00e+00	0	37	0	1046478848	60	8466
2026-01-04 15:21:33.17	226.13	33.07	-43.6	-44.8	21.1	0.00e+00	79	37	0	1048576000	60	8500
2026-01-04 15:21:34.18	226.03	32.86	-43.4	-44.6	21.3	0.00e+00	80	37	0	1050673152	60	8328
2026-01-04 15:21:35.19	225.92	32.66	-43.5	-44.8	21.1	0.00e+00	89	37	0	1052770304	60	8472
2026-01-04 15:21:36.20	225.81	32.46	-43.6	-44.9	20.9	0.00e+00	0	37	0	1053818880	60	8570
2026-01-04 15:21:37.21	225.71	32.26	-43.8	-45.1	20.8	0.00e+00	92	37	0	1055916032	60	8770
2026-01-04 15:21:38.22	225.61	32.06	-44.2	-45.5	20.4	0.00e+00	0	37	0	1058013184	60	9232
2026-01-04 15:21:39.23	225.50	31.86	-44.0	-45.3	20.5	0.00e+00	68	37	0	1060110336	60	9027
2026-01-04 15:21:40.24	225.40	31.66	-44.2	-45.6	20.4	0.00e+00	0	37	0	1062207488	60	9279
2026-01-04 15:21:41.25	225.30	31.47	-44.3	-45.7	20.3	0.00e+00	0	37	0	1063256064	60	9382
2026-01-04 15:21:42.27	225.20	31.27	-44.4	-45.8	20.2	0.00e+00	0	37	0	1065353216	60	9512
2026-01-04 15:21:43.28	225.11	31.08	-44.4	-45.8	20.2	0.00e+00	2	37	0	1067450368	60	9492
2026-01-04 15:21:44.29	225.01	30.88	-44.5	-45.9	20.1	0.00e+00	92	37	0	1069547520	60	9603
2026-01-04 15:21:45.30	224.92	30.69	-44.5	-45.9	20.0	0.00e+00	79	37	0	1071644672	60	9647
2026-01-04 15:21:46.31	224.82	30.50	-44.6	-46.1	19.8	0.00e+00	92	37	0	1072693248	60	9848
2026-01-04 15:21:47.32	224.73	30.31	-44.6	-46.1	19.9	0.00e+00	0	37	0	1074790400	60	9829
2026-01-04 15:21:48.33	224.64	30.12	-44.7	-46.2	19.8	0.00e+00	80	37	0	1076887552	60	9961
2026-01-04 15:21:49.34	224.55	29.94	-45.0	-46.5	19.4	0.00e+00	84	37	0	1078984704	60	10313
2026-01-04 15:21:50.36	224.46	29.75	-45.1	-46.7	19.4	0.00e+00	81	37	0	1081081856	60	10524
2026-01-04 15:21:51.37	224.37	29.57	-45.1	-46.7	19.3	0.00e+00	92	37	0	1082130432	60	10499
2026-01-04 15:21:52.38	224.29	29.38	-45.2	-46.8	19.0	0.00e+00	79	37	0	1084227584	60	10698
2026-01-04 15:21:53.39	224.20	29.20	-45.3	-47.0	18.9	0.00e+00	92	37	0	1086324736	60	10948
2026-01-04 15:21:54.40	224.12	29.02	-45.2	-46.9	19.1	0.00e+00	6	37	0	1088421888	60	10761
2026-01-04 15:21:55.41	224.03	28.84	-45.2	-46.9	19.1	0.00e+00	5	37	0	1090519040	60	10828
2026-01-04 15:21:56.42	223.95	28.66	-45.0	-46.6	19.3	0.00e+00	0	37	0	1091567616	60	10467
2026-01-04 15:21:57.43	223.87	28.48	-45.1	-46.7	19.3	0.00e+00	0	37	0	1093664768	60	10494
2026-01-04 15:21:58.44	223.79	28.31	-45.0	-46.6	19.3	0.00e+00	90	37	0	1095761920	60	10367
2026-01-04 15:21:59.45	223.71	28.13	-45.0	-46.6	19.3	0.00e+00	0	37	0	1097859072	60	10419
2026-01-04 15:22:00.46	223.63	27.95	-44.8	-46.3	19.6	0.00e+00	92	37	0	1099956224	60	10047
2026-01-04 15:22:01.47	223.55	27.78	-44.6	-46.0	19.9	0.00e+00	7	37	0	1101004800	60	9747
2026-01-04 15:22:02.49	223.47	27.61	-44.6	-46.1	19.9	0.00e+00	0	37	0	1103101952	60	9790
2026-01-04 15:22:03.50	223.39	27.43	-44.3	-45.7	20.3	0.00e+00	0	37	0	1105199104	60	9345
2026-01-04 15:22:04.51	223.32	27.26	-44.3	-45.8	20.1	0.00e+00	85	37	0	1107296256	60	9456
2026-01-04 15:22:05.52	223.24	27.09	-44.2	-45.6	20.3	0.00e+00	0	37	0	1109393408	60	9319
2026-01-04 15:22:06.53	223.17	26.93	-44.4	-45.8	20.2	0.00e+00	0	37	0	1111490560	60	9472
2026-01-04 15:22:07.54	223.10	26.76	-44.5	-45.9	20.0	0.00e+00	92	37	0	1112539136	60	9636
2026-01-04 15:22:08.55	223.02	26.59	-44.3	-45.6	20.2	0.00e+00	0	37	0	1114636288	60	9340
2026-01-04 15:22:09.56	222.95	26.43	-44.2	-45.6	20.3	0.00e+00	92	37	0	1116733440	60	9262
2026-01-04 15:22:10.57	222.88	26.26	-44.3	-45.7	20.2	0.00e+00	0	37	0	1118830592	60	9367
2026-01-04 15:22:11.58	222.81	26.10	-44.3	-45.7	20.2	0.00e+00	2	37	0	1120927744	60	9402
2026-01-04 15:22:12.60	222.74	25.93	-44.0	-45.4	20.6	0.00e+00	0	37	0	1121976320	60	9045
2026-01-04 15:22:13.61	222.67	25.77	-43.9	-45.2	20.7	0.00e+00	0	37	0	1124073472	60	8844
2026-01-04 15:22:14.62	222.60	25.61	-43.7	-45.0	20.9	0.00e+00	92	37	0	1126170624	60	8660
2026-01-04 15:22:15.63	222.54	25.45	-43.6	-44.9	21.0	0.00e+00	0	37	0	1128267776	60	8576
2026-01-04 15:22:16.64	222.47	25.29	-43.6	-44.9	20.9	0.00e+00	92	37	0	1130364928	60	8537
2026-01-04 15:22:17.65	222.40	25.13	-43.6	-44.8	21.1	0.00e+00	0	37	0	1131413504	60	8507
2026-01-04 15:22:18.66	222.34	24.97	-43.4	-44.6	21.2	0.00e+00	7	37	0	1133510656	60	8290
2026-01-04 15:22:19.67	222.28	24.82	-43.4	-44.7	21.1	0.00e+00	0	37	0	1135607808	60	8347
2026-01-04 15:22:20.68	222.21	24.66	-43.4	-44.7	21.1	0.00e+00	7	37	0	1137704960	60	8336
2026-01-04 15:22:21.70	222.15	24.51	-43.2	-44.4	21.4	0.00e+00	53	37	0	1139802112	60	8088
2026-01-04 15:22:22.71	222.09	24.35	-43.3	-44.4	21.3	0.00e+00	81	37	0	1140850688	60	8135
2026-01-04 15:22:23.72	222.02	24.20	-43.1	-44.3	21.5	0.00e+00	90	37	0	1142947840	60	8008
2026-01-04 15:22:24.73	221.96	24.05	-43.0	-44.2	21.7	0.00e+00	80	37	0	1145044992	60	7869
2026-01-04 15:22:25.74	221.90	23.90	-43.0	-44.1	21.6	0.00e+00	0	37	0	1147142144	60	7855
2026-01-04 15:22:26.75	221.84	23.75	-43.0	-44.1	21.7	0.00e+00	80	37	0	1149239296	60	7828
2026-01-04 15:22:27.76	221.78	23.60	-43.0	-44.2	21.7	0.00e+00	0	37	0	1151336448	60	7865
2026-01-04 15:22:28.77	221.72	23.45	-42.9	-44.1	21.7	0.00e+00	0	37	0	1152385024	60	7816
2026-01-04 15:22:29.78	221.67	23.30	-42.8	-43.9	21.8	0.00e+00	80	37	0	1154482176	60	7667
2026-01-04 15:22:30.80	221.61	23.15	-42.7	-43.8	22.0	0.00e+00	92	37	0	1156579328	60	7554
2026-01-04 15:22:31.81	221.55	23.00	-42.7	-43.8	22.0	0.00e+00	0	37	0	1158676480	60	7534
2026-01-04 15:22:32.82	221.49	22.86	-42.7	-43.9	21.9	0.00e+00	92	37	0	1160773632	60	7602
2026-01-04 15:22:33.83	221.44	22.71	-42.6	-43.7	22.0	0.00e+00	0	37	0	1161822208	60	7500
2026-01-04 15:22:34.84	221.38	22.57	-42.5	-43.6	22.1	0.00e+00	2	37	0	1163919360	60	7397
2026-01-04 15:22:35.85	221.33	22.43	-42.4	-43.5	22.2	0.00e+00	0	37	0	1166016512	60	7267
2026-01-04 15:22:36.86	221.27	22.28	-42.4	-43.5	22.2	0.00e+00	2	37	0	1168113664	60	7281
2026-01-04 15:22:37.87	221.22	22.14	-42.6	-43.7	22.0	0.00e+00	92	37	0	1170210816	60	7453
2026-01-04 15:22:38.88	221.17	22.00	-42.4	-43.5	22.3	0.00e+00	2	37	0	1171259392	60	7298
2026-01-04 15:22:39.90	221.11	21.86	-42.1	-43.1	22.6	0.00e+00	91	37	0	1173356544	60	6957
2026-01-04 15:22:40.91	221.06	21.72	-42.2	-43.3	22.3	0.00e+00	0	37	0	1175453696	60	7107
2026-01-04 15:22:41.92	221.01	21.58	-42.1	-43.1	22.4	0.00e+00	82	37	0	1177550848	60	6996
2026-01-04 15:22:42.93	220.96	21.44	-42.1	-43.1	22.3	0.00e+00	4	37	0	1179648000	60	7003
2026-01-04 15:22:43.94	220.91	21.31	-42.0	-43.0	22.4	0.00e+00	82	37	0	1180696576	60	6890
2026-01-04 15:22:44.95	220.86	21.17	-42.0	-43.0	22.6	0.00e+00	92	37	0	1182793728	60	6927
2026-01-04 15:22:45.96	220.81	21.03	-42.1	-43.1	22.6	0.00e+00	81	37	0	1184890880	60	6966
2026-01-04 15:22:46.97	220.76	20.90	-42.1	-43.1	22.5	0.00e+00	92	37	0	1186988032	60	6977
2026-01-04 15:22:47.98	220.71	20.76	-42.0	-43.0	22.6	0.00e+00	0	37	0	1189085184	60	6889
2026-01-04 15:22:49.00	220.66	20.63	-41.9	-42.9	22.7	0.00e+00	92	37	0	1191182336	60	6805
2026-01-04 15:22:50.01	220.61	20.50	-41.9	-42.9	22.7	0.00e+00	0	37	0	1192230912	60	6828
2026-01-04 15:22:51.02	220.56	20.36	-41.9	-42.9	22.7	0.00e+00	0	37	0	1194328064	60	6804
2026-01-04 15:22:52.03	220.52	20.23	-41.9	-42.9	22.7	0.00e+00	87	37	0	1196425216	60	6811
2026-01-04 15:22:53.04	220.47	20.10	-42.0	-43.0	22.5	0.00e+00	2	37	0	1198522368	60	6917
2026-01-04 15:22:54.05	220.42	19.97	-42.1	-43.1	22.5	0.00e+00	92	37	0	1200619520	60	6998
2026-01-04 15:22:55.06	220.38	19.84	-42.1	-43.2	22.5	0.00e+00	0	37	0	1201668096	60	7012
2026-01-04 15:22:56.07	220.33	19.71	-42.1	-43.1	22.5	0.00e+00	92	37	0	1203765248	60	6981
2026-01-04 15:22:57.08	220.29	19.58	-42.0	-43.1	22.5	0.00e+00	1	37	0	1205862400	60	6959
2026-01-04 15:22:58.10	220.24	19.45	-42.1	-43.2	22.4	0.00e+00	0	37	0	1207959552	60	7059
