passes_logs/2026/01/04/R4.6S_Anadyr_2ch/R4.6S_Anadyr_2ch__20260104_205844_FENGYUN_3E_rec.log

#Pass ID: 20260104_205844_FENGYUN 3E
#Satellite: FENGYUN 3E
#Configuration: FENGYUN 3E
#almurnet v.1.7.20251203
#Start time: 2026-01-04 20:58:45

#Version: 2.2.20231116
#Station: R4.6S_Anadyr_2ch
#Location: 177.4865 lon 64.73178 lat
#TLE: 1 49008U 21062A   25350.97288215  .00000176  00000+0  10353-3 0  9997
#TLE: 2 49008  98.7477 351.4440 0000638 234.3856 125.7261 14.19881381230726

#Time	Az	El	Level	Level2	SNR	BER	BlckErr	Temp	State	Recorded	gain1	gain2
2026-01-04 20:58:45.85	27.32	0.10	-52.0	-67.2	3.5	1.51e+00	0	25	0	0	60	111352
2026-01-04 20:58:46.86	27.27	0.16	-52.4	-64.0	3.6	8.45e-01	0	26	104	0	60	78487
2026-01-04 20:58:47.87	27.23	0.22	-52.6	-64.3	3.6	8.45e-01	0	26	104	0	60	80651
2026-01-04 20:58:48.88	27.18	0.27	-52.4	-64.1	3.6	8.45e-01	0	26	104	0	60	78743
2026-01-04 20:58:49.89	27.14	0.33	-51.4	-63.1	3.6	8.45e-01	0	27	104	0	60	70115
2026-01-04 20:58:50.91	27.09	0.39	-51.4	-63.0	3.6	8.47e-01	0	27	104	0	60	69858
2026-01-04 20:58:51.92	27.04	0.44	-51.2	-62.8	3.6	8.45e-01	0	27	104	0	60	68214
2026-01-04 20:58:52.93	27.00	0.50	-51.1	-62.7	3.6	8.45e-01	0	27	104	0	60	67425
2026-01-04 20:58:53.94	26.95	0.56	-51.4	-63.1	3.6	8.45e-01	0	27	104	0	60	70314
2026-01-04 20:58:54.95	26.90	0.62	-51.1	-62.7	3.6	8.44e-01	0	27	104	0	60	67533
2026-01-04 20:58:55.96	26.85	0.67	-50.9	-62.6	3.6	8.45e-01	0	27	104	0	60	66182
2026-01-04 20:58:56.97	26.81	0.73	-50.8	-62.4	3.6	8.45e-01	0	27	104	0	60	64988
2026-01-04 20:58:57.98	26.76	0.79	-50.7	-62.3	3.6	8.46e-01	0	27	104	0	60	64130
2026-01-04 20:58:58.99	26.71	0.85	-50.5	-62.1	3.6	8.45e-01	0	27	104	0	60	63081
2026-01-04 20:59:00.00	26.66	0.90	-50.5	-62.1	3.6	8.46e-01	0	27	104	0	60	62604
2026-01-04 20:59:01.02	26.61	0.96	-50.3	-61.9	3.6	8.45e-01	0	27	104	0	60	61484
2026-01-04 20:59:02.03	26.56	1.02	-49.8	-61.4	3.6	8.45e-01	0	27	104	0	60	57820
2026-01-04 20:59:03.04	26.51	1.08	-49.8	-61.3	3.6	8.46e-01	0	27	104	0	60	57584
2026-01-04 20:59:04.05	26.47	1.14	-49.3	-60.9	3.6	8.44e-01	0	27	104	0	60	54972
2026-01-04 20:59:05.06	26.42	1.19	-49.3	-60.9	3.6	8.45e-01	0	27	104	0	60	54595
2026-01-04 20:59:06.07	26.37	1.25	-49.3	-60.9	3.6	8.45e-01	0	27	104	0	60	54945
2026-01-04 20:59:07.08	26.32	1.31	-49.3	-60.9	3.6	8.45e-01	0	27	104	0	60	54939
2026-01-04 20:59:08.09	26.27	1.37	-49.3	-60.9	3.6	8.45e-01	0	27	104	0	60	54762
2026-01-04 20:59:09.10	26.22	1.43	-49.3	-60.9	3.6	8.45e-01	0	27	104	0	60	54476
2026-01-04 20:59:10.11	26.17	1.49	-49.2	-60.8	3.6	8.45e-01	0	27	104	0	60	54308
2026-01-04 20:59:11.12	26.12	1.55	-49.2	-60.9	3.6	8.45e-01	0	27	104	0	60	54543
2026-01-04 20:59:12.13	26.07	1.60	-49.2	-60.8	3.5	8.46e-01	0	27	104	0	60	54314
2026-01-04 20:59:13.15	26.01	1.66	-49.2	-60.8	3.6	8.45e-01	0	27	104	0	60	54382
2026-01-04 20:59:14.16	25.96	1.72	-49.3	-60.9	3.6	8.45e-01	0	27	104	0	60	54796
2026-01-04 20:59:15.17	25.91	1.78	-49.3	-61.0	3.6	8.44e-01	0	27	104	0	60	55539
2026-01-04 20:59:16.18	25.86	1.84	-49.3	-61.0	3.6	8.45e-01	0	27	104	0	60	55388
2026-01-04 20:59:17.19	25.81	1.90	-49.3	-61.0	3.6	8.44e-01	0	27	104	0	60	55065
2026-01-04 20:59:18.20	25.75	1.96	-49.3	-60.9	3.6	8.46e-01	0	27	104	0	60	54910
2026-01-04 20:59:19.21	25.70	2.02	-49.3	-60.9	3.6	8.45e-01	0	27	104	0	60	54806
2026-01-04 20:59:20.22	25.65	2.08	-49.3	-60.9	3.6	8.45e-01	0	27	104	0	60	54508
2026-01-04 20:59:21.23	25.60	2.14	-49.2	-60.7	3.6	8.45e-01	0	27	104	0	60	53241
2026-01-04 20:59:22.24	25.54	2.20	-49.2	-60.7	3.6	8.45e-01	0	27	104	0	60	53161
2026-01-04 20:59:23.25	25.49	2.26	-49.2	-60.5	3.6	8.46e-01	0	27	104	0	60	52337
2026-01-04 20:59:24.26	25.44	2.32	-49.2	-60.4	3.6	8.45e-01	0	27	104	0	60	51416
2026-01-04 20:59:25.28	25.38	2.38	-49.2	-60.6	3.6	8.45e-01	0	27	104	0	60	52789
2026-01-04 20:59:26.29	25.33	2.44	-49.3	-60.8	3.6	8.45e-01	0	27	104	0	60	54184
2026-01-04 20:59:27.30	25.27	2.50	-49.3	-61.0	3.6	8.46e-01	0	27	104	0	60	55201
2026-01-04 20:59:28.31	25.22	2.56	-49.3	-60.9	3.6	8.45e-01	0	27	104	0	60	54951
2026-01-04 20:59:29.32	25.17	2.62	-49.3	-60.9	3.6	8.46e-01	0	27	104	0	60	54742
2026-01-04 20:59:30.33	25.11	2.68	-49.3	-60.9	3.6	8.46e-01	0	27	104	0	60	54481
2026-01-04 20:59:31.34	25.05	2.74	-49.3	-60.9	3.6	8.46e-01	0	27	104	0	60	54730
2026-01-04 20:59:32.35	25.00	2.80	-49.3	-61.0	3.6	8.45e-01	0	27	104	0	60	55195
2026-01-04 20:59:33.36	24.94	2.86	-49.3	-60.7	3.6	8.46e-01	0	27	104	0	60	53708
2026-01-04 20:59:34.37	24.89	2.93	-49.2	-60.3	3.6	8.45e-01	0	27	104	0	60	50937
2026-01-04 20:59:35.39	24.83	2.99	-49.1	-59.2	3.5	8.45e-01	0	27	104	0	60	45107
2026-01-04 20:59:36.40	24.77	3.05	-49.2	-60.0	3.6	8.45e-01	0	27	104	0	60	49077
2026-01-04 20:59:37.41	24.72	3.11	-49.2	-60.4	3.6	8.46e-01	0	27	104	0	60	51769
2026-01-04 20:59:38.42	24.66	3.17	-49.2	-60.7	3.6	8.46e-01	0	28	104	0	60	53241
2026-01-04 20:59:39.43	24.60	3.23	-49.2	-60.5	3.6	8.45e-01	0	27	104	0	60	52471
2026-01-04 20:59:40.44	24.55	3.30	-49.1	-58.9	3.6	8.45e-01	0	27	104	0	60	43270
2026-01-04 20:59:41.45	24.49	3.36	-48.2	-54.1	5.3	7.69e-01	0	27	0	0	60	24974
2026-01-04 20:59:42.46	24.43	3.42	-47.5	-51.4	7.2	8.69e-02	0	27	0	6291456	60	18391
2026-01-04 20:59:43.47	24.37	3.48	-46.7	-49.8	9.5	2.58e-02	0	27	0	13631488	60	15246
2026-01-04 20:59:44.49	24.31	3.54	-45.9	-48.4	11.2	4.17e-03	0	27	0	20971520	60	12948
2026-01-04 20:59:45.50	24.25	3.61	-46.1	-48.7	11.2	4.52e-03	0	27	0	28311552	60	13449
2026-01-04 20:59:46.51	24.20	3.67	-45.3	-47.5	11.7	5.13e-04	0	27	0	35651584	60	11738
2026-01-04 20:59:47.52	24.14	3.73	-49.0	-55.5	3.8	6.29e-01	0	27	0	41943040	60	29424
2026-01-04 20:59:48.53	24.08	3.79	-45.3	-47.7	11.5	1.61e-01	0	28	104	41943040	60	11948
2026-01-04 20:59:49.54	24.02	3.86	-41.2	-42.2	18.7	3.82e-02	0	28	0	45088768	60	6381
2026-01-04 20:59:50.55	23.96	3.92	-47.5	-52.2	4.4	0.00e+00	0	28	0	52428800	60	20105
2026-01-04 20:59:51.56	23.90	3.98	-45.1	-47.3	5.9	8.45e-01	0	28	104	52428800	60	11459
2026-01-04 20:59:52.57	23.83	4.05	-37.9	-38.5	21.3	0.00e+00	0	27	0	52428800	54	5879
2026-01-04 20:59:53.58	23.77	4.11	-37.9	-38.6	21.2	0.00e+00	0	27	0	59768832	54	5947
2026-01-04 20:59:54.60	23.71	4.17	-38.4	-39.1	20.8	0.00e+00	0	27	0	67108864	54	6254
2026-01-04 20:59:55.61	23.65	4.24	-38.2	-38.9	21.1	0.00e+00	0	27	0	74448896	54	6170
2026-01-04 20:59:56.62	23.59	4.30	-37.0	-37.6	22.2	0.00e+00	0	27	0	81788928	54	5313
2026-01-04 20:59:57.63	23.53	4.36	-37.5	-38.2	21.7	0.00e+00	0	27	0	89128960	52	6357
2026-01-04 20:59:58.64	23.46	4.43	-37.9	-38.6	21.5	0.00e+00	0	28	0	96468992	52	6653
2026-01-04 20:59:59.65	23.40	4.49	-37.3	-37.9	22.0	0.00e+00	0	28	0	103809024	52	6136
2026-01-04 21:00:00.67	23.34	4.56	-38.0	-38.7	21.2	0.00e+00	0	28	0	111149056	54	5988
2026-01-04 21:00:01.68	23.27	4.62	-37.2	-37.9	22.1	0.00e+00	0	27	0	118489088	54	5456
2026-01-04 21:00:02.69	23.21	4.68	-37.4	-38.1	21.9	0.00e+00	0	28	0	125829120	54	5597
2026-01-04 21:00:03.70	23.15	4.75	-37.3	-37.9	22.0	0.00e+00	0	28	0	132120576	54	5493
2026-01-04 21:00:04.71	23.08	4.81	-37.8	-38.5	21.5	0.00e+00	0	28	0	139460608	54	5841
2026-01-04 21:00:05.72	23.02	4.88	-37.9	-38.6	21.6	0.00e+00	0	28	0	147849216	54	5900
2026-01-04 21:00:06.73	22.95	4.94	-36.8	-37.4	22.4	0.00e+00	0	28	0	154140672	52	5802
2026-01-04 21:00:07.74	22.89	5.01	-37.3	-38.0	22.3	0.00e+00	0	28	0	161480704	52	6182
2026-01-04 21:00:08.75	22.82	5.07	-37.1	-37.8	22.2	0.00e+00	0	28	0	168820736	52	6054
2026-01-04 21:00:09.76	22.76	5.14	-36.5	-37.1	22.8	0.00e+00	0	28	0	176160768	52	5582
2026-01-04 21:00:10.78	22.69	5.20	-36.8	-37.4	22.7	0.00e+00	0	28	0	183500800	52	5785
2026-01-04 21:00:11.79	22.62	5.27	-37.7	-38.4	21.7	0.00e+00	0	28	0	190840832	52	6465
2026-01-04 21:00:12.80	22.56	5.33	-36.7	-37.3	22.9	0.00e+00	0	28	0	198180864	52	5749
2026-01-04 21:00:13.81	22.49	5.40	-37.5	-38.2	21.6	0.00e+00	0	28	0	205520896	52	6352
2026-01-04 21:00:14.82	22.42	5.47	-37.9	-38.5	21.7	0.00e+00	0	28	0	212860928	54	5891
2026-01-04 21:00:15.83	22.36	5.53	-37.5	-38.2	22.0	0.00e+00	0	28	0	220200960	54	5633
2026-01-04 21:00:16.84	22.29	5.60	-37.6	-38.3	21.7	0.00e+00	0	28	0	227540992	54	5704
2026-01-04 21:00:17.85	22.22	5.66	-37.6	-38.3	21.9	0.00e+00	0	28	0	234881024	54	5706
2026-01-04 21:00:18.86	22.15	5.73	-37.2	-37.9	22.1	0.00e+00	0	28	0	242221056	54	5467
2026-01-04 21:00:19.87	22.08	5.80	-37.1	-37.7	22.4	0.00e+00	0	28	0	249561088	52	5981
2026-01-04 21:00:20.89	22.01	5.86	-36.6	-37.2	22.7	0.00e+00	0	28	0	256901120	52	5649
2026-01-04 21:00:21.90	21.94	5.93	-36.7	-37.3	22.8	0.00e+00	0	28	0	264241152	52	5712
2026-01-04 21:00:22.91	21.87	6.00	-36.9	-37.5	22.5	0.00e+00	0	28	0	271581184	52	5847
2026-01-04 21:00:23.92	21.80	6.06	-36.8	-37.5	22.5	0.00e+00	0	28	0	278921216	52	5831
2026-01-04 21:00:24.93	21.73	6.13	-37.0	-37.6	22.6	0.00e+00	0	28	0	286261248	52	5909
2026-01-04 21:00:25.94	21.66	6.20	-36.7	-37.3	22.8	0.00e+00	0	28	0	293601280	52	5719
2026-01-04 21:00:26.95	21.59	6.27	-36.8	-37.4	22.8	0.00e+00	0	28	0	300941312	52	5802
2026-01-04 21:00:27.96	21.52	6.33	-36.7	-37.3	22.8	0.00e+00	0	28	0	307232768	52	5754
2026-01-04 21:00:28.97	21.44	6.40	-36.9	-37.5	22.5	0.00e+00	0	28	0	315621376	52	5875
2026-01-04 21:00:29.98	21.37	6.47	-36.3	-36.9	23.1	0.00e+00	0	28	0	322961408	52	5489
2026-01-04 21:00:31.00	21.30	6.54	-36.1	-36.7	23.3	0.00e+00	0	28	0	329252864	50	5982
2026-01-04 21:00:32.01	21.23	6.60	-36.3	-36.9	22.9	0.00e+00	0	28	0	336592896	50	6156
2026-01-04 21:00:33.02	21.15	6.67	-36.6	-37.2	22.8	0.00e+00	0	28	0	344981504	50	6351
2026-01-04 21:00:34.03	21.08	6.74	-36.4	-37.0	23.0	0.00e+00	0	28	0	351272960	50	6235
2026-01-04 21:00:35.04	21.00	6.81	-36.5	-37.1	23.0	0.00e+00	0	28	0	358612992	50	6269
2026-01-04 21:00:36.05	20.93	6.88	-36.0	-36.6	23.3	0.00e+00	0	28	0	365953024	50	5946
2026-01-04 21:00:37.06	20.86	6.95	-36.1	-36.7	23.4	0.00e+00	0	28	0	373293056	50	5995
2026-01-04 21:00:38.07	20.78	7.01	-36.4	-36.9	23.1	0.00e+00	0	28	0	380633088	50	6173
2026-01-04 21:00:39.09	20.70	7.08	-36.2	-36.8	23.3	0.00e+00	0	28	0	387973120	50	6044
2026-01-04 21:00:40.10	20.63	7.15	-36.1	-36.7	23.3	0.00e+00	0	28	0	395313152	50	5973
2026-01-04 21:00:41.11	20.55	7.22	-36.5	-37.1	22.9	0.00e+00	0	28	0	402653184	50	6263
2026-01-04 21:00:42.12	20.47	7.29	-36.1	-36.7	23.1	0.00e+00	0	28	0	409993216	50	6011
2026-01-04 21:00:43.13	20.40	7.36	-36.0	-36.6	23.4	0.00e+00	0	28	0	417333248	50	5931
2026-01-04 21:00:44.14	20.32	7.43	-36.0	-36.6	23.3	0.00e+00	0	28	0	424673280	50	5912
2026-01-04 21:00:45.15	20.24	7.50	-36.2	-36.7	23.2	0.00e+00	0	28	0	432013312	50	6026
2026-01-04 21:00:46.16	20.16	7.57	-36.2	-36.8	23.2	0.00e+00	0	28	0	439353344	50	6085
2026-01-04 21:00:47.17	20.08	7.64	-36.6	-37.2	22.7	0.00e+00	0	28	0	446693376	50	6351
2026-01-04 21:00:48.18	20.01	7.71	-36.4	-37.0	23.1	0.00e+00	0	28	0	454033408	50	6184
2026-01-04 21:00:49.20	19.92	7.78	-35.7	-36.3	23.8	0.00e+00	0	28	0	461373440	50	5707
2026-01-04 21:00:50.21	19.84	7.85	-36.1	-36.7	23.5	0.00e+00	0	28	0	468713472	50	5972
2026-01-04 21:00:51.22	19.76	7.92	-36.1	-36.7	23.5	0.00e+00	0	28	0	476053504	50	5967
2026-01-04 21:00:52.23	19.68	7.99	-36.3	-36.9	23.2	0.00e+00	0	28	0	483393536	50	6107
2026-01-04 21:00:53.24	19.60	8.06	-35.9	-36.5	23.6	0.00e+00	0	28	0	490733568	50	5830
2026-01-04 21:00:54.25	19.52	8.13	-35.9	-36.5	23.6	0.00e+00	0	28	0	497025024	50	5867
2026-01-04 21:00:55.26	19.44	8.21	-35.7	-36.3	23.8	0.00e+00	0	28	0	504365056	50	5722
2026-01-04 21:00:56.27	19.36	8.28	-36.0	-36.6	23.5	0.00e+00	0	28	0	512753664	50	5960
2026-01-04 21:00:57.28	19.27	8.35	-36.0	-36.6	23.5	0.00e+00	0	28	0	519045120	50	5929
2026-01-04 21:00:58.30	19.19	8.42	-36.1	-36.6	23.5	0.00e+00	0	28	0	526385152	50	5964
2026-01-04 21:00:59.31	19.11	8.49	-36.3	-36.9	23.4	0.00e+00	0	28	0	533725184	50	6146
2026-01-04 21:01:00.32	19.02	8.56	-36.3	-37.0	23.4	0.00e+00	0	28	0	541065216	50	6175
2026-01-04 21:01:01.33	18.94	8.64	-36.2	-36.8	23.4	0.00e+00	0	28	0	548405248	50	6044
2026-01-04 21:01:02.34	18.85	8.71	-36.1	-36.7	23.5	0.00e+00	0	28	0	555745280	50	6010
2026-01-04 21:01:03.35	18.77	8.78	-36.0	-36.6	23.8	0.00e+00	0	28	0	563085312	50	5923
2026-01-04 21:01:04.36	18.68	8.85	-36.0	-36.6	23.7	0.00e+00	0	28	0	570425344	50	5956
2026-01-04 21:01:05.37	18.59	8.93	-35.5	-36.0	24.2	0.00e+00	0	28	0	577765376	50	5545
2026-01-04 21:01:06.38	18.51	9.00	-35.5	-36.1	24.2	0.00e+00	0	28	0	585105408	50	5590
2026-01-04 21:01:07.39	18.42	9.07	-35.5	-36.1	24.1	0.00e+00	0	28	0	592445440	50	5605
2026-01-04 21:01:08.41	18.33	9.14	-35.5	-36.1	24.2	0.00e+00	0	28	0	599785472	50	5597
2026-01-04 21:01:09.42	18.24	9.22	-35.4	-35.9	24.3	0.00e+00	0	28	0	607125504	50	5478
2026-01-04 21:01:10.43	18.15	9.29	-35.6	-36.1	24.2	0.00e+00	0	28	0	614465536	50	5601
2026-01-04 21:01:11.44	18.07	9.36	-35.6	-36.1	24.3	0.00e+00	0	28	0	621805568	50	5600
2026-01-04 21:01:12.45	17.98	9.44	-35.5	-36.0	24.3	0.00e+00	0	28	0	629145600	50	5550
2026-01-04 21:01:13.46	17.89	9.51	-35.9	-36.4	24.0	0.00e+00	0	28	0	636485632	50	5818
2026-01-04 21:01:14.47	17.80	9.59	-35.5	-36.1	24.2	0.00e+00	0	28	0	643825664	50	5603
2026-01-04 21:01:15.48	17.70	9.66	-35.5	-36.0	24.3	0.00e+00	0	28	0	651165696	50	5540
2026-01-04 21:01:16.50	17.61	9.73	-35.5	-36.1	24.3	0.00e+00	0	28	0	658505728	50	5592
2026-01-04 21:01:17.51	17.52	9.81	-35.4	-35.9	24.5	0.00e+00	0	28	0	665845760	50	5482
2026-01-04 21:01:18.52	17.43	9.88	-35.4	-35.9	24.5	0.00e+00	0	28	0	673185792	50	5496
2026-01-04 21:01:19.53	17.33	9.96	-35.6	-36.1	24.2	0.00e+00	0	28	0	680525824	50	5615
2026-01-04 21:01:20.54	17.24	10.03	-35.5	-36.1	24.3	0.00e+00	0	28	0	687865856	50	5589
2026-01-04 21:01:21.55	17.15	10.11	-35.6	-36.2	24.2	0.00e+00	0	28	0	694157312	50	5631
2026-01-04 21:01:22.56	17.05	10.18	-35.5	-36.0	24.4	0.00e+00	0	28	0	701497344	50	5553
2026-01-04 21:01:23.57	16.96	10.26	-35.4	-36.0	24.4	0.00e+00	0	28	0	709885952	50	5531
2026-01-04 21:01:24.58	16.86	10.33	-35.4	-35.9	24.5	0.00e+00	0	28	0	716177408	50	5477
2026-01-04 21:01:25.59	16.77	10.41	-35.4	-36.0	24.4	0.00e+00	0	28	0	723517440	50	5513
2026-01-04 21:01:26.61	16.67	10.49	-35.4	-36.0	24.4	0.00e+00	0	28	0	730857472	50	5508
2026-01-04 21:01:27.62	16.57	10.56	-35.5	-36.1	24.3	0.00e+00	0	28	0	738197504	50	5571
2026-01-04 21:01:28.63	16.47	10.64	-35.7	-36.3	24.4	0.00e+00	0	28	0	745537536	50	5711
2026-01-04 21:01:29.64	16.38	10.71	-35.5	-36.1	24.4	0.00e+00	0	28	0	752877568	50	5568
2026-01-04 21:01:30.65	16.28	10.79	-35.6	-36.2	24.2	0.00e+00	0	28	0	760217600	50	5640
2026-01-04 21:01:31.66	16.18	10.87	-35.6	-36.2	24.3	0.00e+00	0	28	0	767557632	50	5645
2026-01-04 21:01:32.67	16.08	10.94	-35.6	-36.1	24.3	0.00e+00	0	28	0	774897664	50	5624
2026-01-04 21:01:33.68	15.98	11.02	-35.5	-36.1	24.3	0.00e+00	0	28	0	782237696	50	5570
2026-01-04 21:01:34.69	15.88	11.10	-35.3	-35.8	24.6	0.00e+00	0	28	0	789577728	48	6100
2026-01-04 21:01:35.70	15.78	11.17	-35.3	-35.8	24.7	0.00e+00	0	28	0	796917760	48	6079
2026-01-04 21:01:36.72	15.67	11.25	-35.1	-35.7	24.8	0.00e+00	0	28	0	804257792	48	5966
2026-01-04 21:01:37.73	15.57	11.33	-35.3	-35.8	24.7	0.00e+00	0	28	0	811597824	48	6056
2026-01-04 21:01:38.74	15.47	11.41	-35.2	-35.7	24.7	0.00e+00	0	28	0	818937856	48	6006
2026-01-04 21:01:39.75	15.36	11.48	-34.9	-35.4	25.0	0.00e+00	0	28	0	826277888	48	5785
2026-01-04 21:01:40.76	15.26	11.56	-34.9	-35.4	25.0	0.00e+00	0	28	0	833617920	48	5798
2026-01-04 21:01:41.77	15.16	11.64	-34.9	-35.4	25.0	0.00e+00	0	28	0	840957952	48	5814
2026-01-04 21:01:42.78	15.05	11.72	-34.9	-35.4	25.0	0.00e+00	0	28	0	848297984	48	5809
2026-01-04 21:01:43.79	14.94	11.80	-35.0	-35.5	25.0	0.00e+00	0	28	0	855638016	48	5883
2026-01-04 21:01:44.81	14.84	11.87	-35.0	-35.5	24.8	0.00e+00	0	28	0	861929472	48	5895
2026-01-04 21:01:45.82	14.73	11.95	-34.8	-35.3	25.2	0.00e+00	0	28	0	870318080	48	5712
2026-01-04 21:01:46.83	14.62	12.03	-34.8	-35.4	25.1	0.00e+00	0	28	0	877658112	48	5772
2026-01-04 21:01:47.84	14.51	12.11	-34.8	-35.3	25.1	0.00e+00	0	28	0	883949568	48	5745
2026-01-04 21:01:48.85	14.41	12.19	-34.7	-35.2	25.2	0.00e+00	0	28	0	891289600	48	5678
2026-01-04 21:01:49.86	14.30	12.27	-34.7	-35.2	25.2	0.00e+00	0	28	0	898629632	48	5668
2026-01-04 21:01:50.87	14.19	12.35	-34.7	-35.2	25.2	0.00e+00	0	28	0	905969664	48	5671
2026-01-04 21:01:51.88	14.08	12.43	-34.7	-35.2	25.2	0.00e+00	0	28	0	913309696	48	5655
2026-01-04 21:01:52.89	13.96	12.51	-34.7	-35.2	25.2	0.00e+00	0	28	0	920649728	48	5653
2026-01-04 21:01:53.90	13.85	12.59	-34.7	-35.2	25.2	0.00e+00	0	28	0	927989760	48	5672
2026-01-04 21:01:54.91	13.74	12.67	-34.5	-35.0	25.3	0.00e+00	0	28	0	935329792	48	5556
2026-01-04 21:01:55.92	13.63	12.75	-34.7	-35.3	25.2	0.00e+00	0	28	0	942669824	48	5714
2026-01-04 21:01:56.94	13.51	12.83	-34.8	-35.3	25.1	0.00e+00	0	28	0	950009856	48	5722
2026-01-04 21:01:57.95	13.40	12.91	-34.9	-35.4	25.0	0.00e+00	0	28	0	957349888	48	5782
2026-01-04 21:01:58.96	13.28	12.99	-34.7	-35.2	25.2	0.00e+00	0	28	0	964689920	48	5688
2026-01-04 21:01:59.97	13.17	13.07	-34.5	-35.1	25.3	0.00e+00	0	28	0	972029952	48	5573
2026-01-04 21:02:00.98	13.05	13.15	-34.7	-35.2	25.2	0.00e+00	0	28	0	979369984	48	5669
2026-01-04 21:02:01.99	12.93	13.23	-34.5	-35.1	25.4	0.00e+00	0	28	0	986710016	48	5573
2026-01-04 21:02:03.00	12.81	13.31	-34.5	-35.0	25.4	0.00e+00	0	28	0	994050048	48	5519
2026-01-04 21:02:04.01	12.70	13.39	-34.6	-35.1	25.3	0.00e+00	0	28	0	1001390080	48	5589
2026-01-04 21:02:05.02	12.58	13.47	-34.5	-35.0	25.3	0.00e+00	0	28	0	1008730112	48	5557
2026-01-04 21:02:06.04	12.46	13.56	-34.6	-35.2	25.4	0.00e+00	0	28	0	1016070144	48	5640
2026-01-04 21:02:07.05	12.34	13.64	-34.3	-34.8	25.4	0.00e+00	0	28	0	1023410176	48	5420
2026-01-04 21:02:08.06	12.21	13.72	-34.6	-35.1	25.3	0.00e+00	0	28	0	1030750208	48	5622
2026-01-04 21:02:09.07	12.09	13.80	-34.3	-34.8	25.6	0.00e+00	0	28	0	1038090240	48	5423
2026-01-04 21:02:10.08	11.97	13.88	-34.3	-34.8	25.6	0.00e+00	0	28	0	1045430272	48	5399
2026-01-04 21:02:11.09	11.85	13.97	-34.2	-34.7	25.6	0.00e+00	0	28	0	1052770304	48	5344
2026-01-04 21:02:12.10	11.72	14.05	-34.6	-35.1	25.5	0.00e+00	0	28	0	1059061760	48	5595
2026-01-04 21:02:13.11	11.60	14.13	-34.2	-34.7	25.7	0.00e+00	0	28	0	1066401792	48	5366
2026-01-04 21:02:14.13	11.47	14.22	-34.2	-34.7	25.7	0.00e+00	0	28	0	1074790400	48	5339
2026-01-04 21:02:15.14	11.35	14.30	-34.2	-34.7	25.7	0.00e+00	0	28	0	1081081856	48	5344
2026-01-04 21:02:16.15	11.22	14.38	-34.3	-34.8	25.6	0.00e+00	0	28	0	1088421888	46	6066
2026-01-04 21:02:17.16	11.09	14.46	-34.1	-34.6	25.8	0.00e+00	0	28	0	1095761920	46	5932
2026-01-04 21:02:18.17	10.96	14.55	-33.9	-34.4	26.0	0.00e+00	0	28	0	1103101952	46	5779
2026-01-04 21:02:19.18	10.83	14.63	-34.2	-34.8	25.6	0.00e+00	0	28	0	1110441984	46	6041
2026-01-04 21:02:20.19	10.70	14.71	-34.1	-34.6	25.7	0.00e+00	0	28	0	1117782016	46	5963
2026-01-04 21:02:21.20	10.57	14.80	-34.5	-35.0	25.6	0.00e+00	0	28	0	1125122048	46	6210
2026-01-04 21:02:22.21	10.44	14.88	-34.0	-34.5	25.9	0.00e+00	0	28	0	1132462080	46	5869
2026-01-04 21:02:23.22	10.31	14.97	-33.9	-34.5	25.9	0.00e+00	0	28	0	1139802112	46	5830
2026-01-04 21:02:24.24	10.18	15.05	-34.2	-34.7	25.8	0.00e+00	0	28	0	1147142144	46	6023
2026-01-04 21:02:25.25	10.04	15.14	-34.2	-34.7	25.7	0.00e+00	0	28	0	1154482176	46	6009
2026-01-04 21:02:26.26	9.91	15.22	-34.1	-34.6	25.8	0.00e+00	0	28	0	1161822208	46	5961
2026-01-04 21:02:27.27	9.77	15.30	-34.0	-34.5	25.9	0.00e+00	0	28	0	1169162240	46	5835
2026-01-04 21:02:28.28	9.64	15.39	-34.1	-34.6	25.9	0.00e+00	0	28	0	1176502272	46	5959
2026-01-04 21:02:29.29	9.50	15.47	-34.0	-34.5	25.9	0.00e+00	0	28	0	1183842304	46	5862
2026-01-04 21:02:30.30	9.36	15.56	-34.3	-34.8	25.7	0.00e+00	0	28	0	1191182336	46	6052
2026-01-04 21:02:31.31	9.23	15.64	-34.3	-34.8	25.6	0.00e+00	0	28	0	1198522368	46	6081
2026-01-04 21:02:32.32	9.09	15.73	-34.2	-34.8	25.7	0.00e+00	0	28	0	1205862400	46	6034
2026-01-04 21:02:33.33	8.95	15.81	-34.1	-34.7	25.8	0.00e+00	0	28	0	1213202432	46	5970
2026-01-04 21:02:34.35	8.80	15.90	-34.2	-34.7	25.7	0.00e+00	0	28	0	1220542464	46	6008
2026-01-04 21:02:35.36	8.66	15.99	-34.3	-34.8	25.7	0.00e+00	0	28	0	1226833920	46	6048
2026-01-04 21:02:36.37	8.52	16.07	-34.3	-34.8	25.5	0.00e+00	0	28	0	1235222528	46	6050
2026-01-04 21:02:37.38	8.38	16.16	-34.1	-34.6	25.8	0.00e+00	0	28	0	1242562560	46	5939
2026-01-04 21:02:38.39	8.23	16.24	-34.1	-34.6	25.9	0.00e+00	0	28	0	1248854016	46	5927
2026-01-04 21:02:39.40	8.09	16.33	-33.9	-34.5	26.0	0.00e+00	0	28	0	1256194048	46	5829
2026-01-04 21:02:40.41	7.94	16.41	-33.9	-34.4	26.1	0.00e+00	0	28	0	1263534080	46	5796
2026-01-04 21:02:41.42	7.80	16.50	-33.6	-34.1	26.2	0.00e+00	0	28	0	1270874112	46	5609
2026-01-04 21:02:42.43	7.65	16.59	-33.4	-33.9	26.4	0.00e+00	0	28	0	1278214144	46	5486
2026-01-04 21:02:43.44	7.50	16.67	-33.4	-33.9	26.5	0.00e+00	0	28	0	1285554176	46	5472
2026-01-04 21:02:44.46	7.35	16.76	-33.4	-33.9	26.4	0.00e+00	0	28	0	1292894208	46	5456
2026-01-04 21:02:45.47	7.20	16.85	-33.2	-33.7	26.6	0.00e+00	0	28	0	1300234240	46	5322
2026-01-04 21:02:46.48	7.05	16.93	-33.2	-33.7	26.6	0.00e+00	0	28	0	1307574272	46	5324
2026-01-04 21:02:47.49	6.90	17.02	-33.2	-33.7	26.6	0.00e+00	0	28	0	1314914304	46	5355
2026-01-04 21:02:48.50	6.74	17.11	-33.2	-33.7	26.6	0.00e+00	0	28	0	1322254336	46	5337
2026-01-04 21:02:49.51	6.59	17.19	-33.2	-33.7	26.5	0.00e+00	0	28	0	1329594368	46	5369
2026-01-04 21:02:50.52	6.44	17.28	-33.3	-33.8	26.4	0.00e+00	0	28	0	1336934400	46	5400
2026-01-04 21:02:51.54	6.28	17.37	-33.6	-34.1	26.4	0.00e+00	0	28	0	1344274432	46	5573
2026-01-04 21:02:52.55	6.12	17.46	-33.7	-34.2	26.3	0.00e+00	0	28	0	1351614464	46	5675
2026-01-04 21:02:53.56	5.96	17.54	-33.6	-34.1	25.8	0.00e+00	0	28	0	1358954496	46	5623
2026-01-04 21:02:54.57	5.81	17.63	-34.0	-34.5	26.0	0.00e+00	0	28	0	1366294528	46	5839
2026-01-04 21:02:55.58	5.65	17.72	-33.6	-34.1	26.1	0.00e+00	0	28	0	1373634560	46	5602
2026-01-04 21:02:56.59	5.49	17.81	-33.6	-34.1	26.2	0.00e+00	0	28	0	1380974592	46	5628
2026-01-04 21:02:57.60	5.33	17.89	-33.6	-34.1	26.4	0.00e+00	0	28	0	1388314624	46	5589
2026-01-04 21:02:58.61	5.16	17.98	-33.5	-34.0	26.3	0.00e+00	0	28	0	1395654656	46	5539
2026-01-04 21:02:59.62	5.00	18.07	-33.6	-34.1	26.3	0.00e+00	0	28	0	1402994688	46	5567
2026-01-04 21:03:00.64	4.83	18.16	-33.7	-34.2	26.3	0.00e+00	0	28	0	1410334720	46	5681
2026-01-04 21:03:01.65	4.67	18.25	-33.6	-34.1	26.2	0.00e+00	0	28	0	1417674752	46	5593
2026-01-04 21:03:02.66	4.50	18.33	-33.2	-33.7	26.6	0.00e+00	0	28	0	1423966208	46	5321
2026-01-04 21:03:03.67	4.34	18.42	-33.1	-33.6	26.7	0.00e+00	0	28	0	1432354816	44	5939
2026-01-04 21:03:04.68	4.17	18.51	-33.2	-33.7	26.6	0.00e+00	0	28	0	1439694848	44	5970
2026-01-04 21:03:05.69	4.00	18.60	-33.1	-33.5	26.6	0.00e+00	0	28	0	1445986304	44	5895
2026-01-04 21:03:06.70	3.83	18.69	-33.0	-33.5	26.7	0.00e+00	0	28	0	1453326336	44	5873
2026-01-04 21:03:07.72	3.66	18.78	-33.1	-33.6	26.6	0.00e+00	0	28	0	1461714944	44	5905
2026-01-04 21:03:08.73	3.49	18.86	-33.2	-33.7	26.6	0.00e+00	0	28	0	1468006400	44	5965
2026-01-04 21:03:09.74	3.31	18.95	-33.1	-33.6	26.6	0.00e+00	0	28	0	1475346432	44	5939
2026-01-04 21:03:10.75	3.14	19.04	-33.2	-33.7	26.6	0.00e+00	0	28	0	1482686464	44	6006
2026-01-04 21:03:11.76	2.96	19.13	-33.2	-33.7	26.6	0.00e+00	0	28	0	1490026496	44	5984
2026-01-04 21:03:12.77	2.79	19.22	-33.2	-33.7	26.6	0.00e+00	0	28	0	1497366528	44	6019
2026-01-04 21:03:13.78	2.61	19.31	-33.3	-33.8	26.6	0.00e+00	0	28	0	1504706560	44	6049
2026-01-04 21:03:14.79	2.43	19.40	-33.1	-33.6	26.7	0.00e+00	0	28	0	1512046592	44	5902
2026-01-04 21:03:15.81	2.25	19.49	-33.1	-33.6	26.7	0.00e+00	0	28	0	1519386624	44	5923
2026-01-04 21:03:16.82	2.07	19.57	-33.0	-33.5	26.8	0.00e+00	0	28	0	1526726656	44	5878
2026-01-04 21:03:17.83	1.89	19.66	-33.0	-33.5	26.7	0.00e+00	0	28	0	1534066688	44	5864
2026-01-04 21:03:18.84	1.71	19.75	-33.0	-33.5	26.8	0.00e+00	0	28	0	1541406720	44	5833
2026-01-04 21:03:19.85	1.52	19.84	-33.1	-33.6	26.8	0.00e+00	0	28	0	1548746752	44	5937
2026-01-04 21:03:20.86	1.34	19.93	-33.1	-33.6	26.7	0.00e+00	0	28	0	1556086784	44	5927
2026-01-04 21:03:21.87	1.15	20.02	-32.8	-33.3	26.9	0.00e+00	0	28	0	1563426816	44	5750
2026-01-04 21:03:22.89	0.96	20.11	-32.9	-33.4	26.9	0.00e+00	0	28	0	1570766848	44	5816
2026-01-04 21:03:23.90	0.78	20.19	-32.7	-33.1	26.9	0.00e+00	0	28	0	1578106880	44	5616
2026-01-04 21:03:24.91	0.59	20.28	-32.8	-33.3	26.9	0.00e+00	0	28	0	1585446912	44	5706
2026-01-04 21:03:25.92	0.40	20.37	-32.9	-33.4	26.8	0.00e+00	0	28	0	1592786944	44	5783
2026-01-04 21:03:26.93	0.21	20.46	-33.0	-33.5	26.8	0.00e+00	0	28	0	1600126976	44	5831
2026-01-04 21:03:27.94	0.01	20.55	-33.0	-33.4	26.8	0.00e+00	0	28	0	1607467008	44	5825
2026-01-04 21:03:28.95	359.82	20.64	-32.9	-33.4	26.8	0.00e+00	0	28	0	1613758464	44	5769
2026-01-04 21:03:29.97	359.62	20.73	-32.9	-33.4	26.8	0.00e+00	0	28	0	1622147072	44	5800
2026-01-04 21:03:30.98	359.43	20.82	-32.9	-33.4	26.7	0.00e+00	0	28	0	1629487104	44	5800
2026-01-04 21:03:31.99	359.23	20.90	-33.1	-33.6	26.8	0.00e+00	0	28	0	1635778560	44	5899
2026-01-04 21:03:33.00	359.03	20.99	-33.0	-33.5	26.7	0.00e+00	0	28	0	1643118592	44	5882
2026-01-04 21:03:34.01	358.83	21.08	-33.1	-33.6	26.7	0.00e+00	0	28	0	1650458624	44	5938
2026-01-04 21:03:35.02	358.63	21.17	-33.2	-33.7	26.6	0.00e+00	0	28	0	1657798656	44	5988
2026-01-04 21:03:36.03	358.43	21.26	-33.2	-33.7	26.6	0.00e+00	0	28	0	1665138688	44	5993
2026-01-04 21:03:37.04	358.23	21.34	-33.3	-33.8	26.5	0.00e+00	0	28	0	1672478720	44	6043
2026-01-04 21:03:38.05	358.02	21.43	-33.3	-33.7	26.6	0.00e+00	0	28	0	1679818752	44	6032
2026-01-04 21:03:39.06	357.82	21.52	-33.3	-33.8	26.5	0.00e+00	0	28	0	1687158784	44	6073
2026-01-04 21:03:40.08	357.61	21.61	-33.3	-33.8	26.6	0.00e+00	0	28	0	1694498816	44	6058
2026-01-04 21:03:41.09	357.40	21.70	-33.3	-33.8	26.6	0.00e+00	0	28	0	1701838848	44	6054
2026-01-04 21:03:42.10	357.19	21.78	-33.0	-33.5	26.8	0.00e+00	0	28	0	1709178880	44	5837
2026-01-04 21:03:43.11	356.98	21.87	-32.9	-33.4	26.9	0.00e+00	0	28	0	1716518912	44	5786
2026-01-04 21:03:44.12	356.77	21.96	-32.9	-33.4	26.8	0.00e+00	0	28	0	1723858944	44	5778
2026-01-04 21:03:45.13	356.56	22.05	-32.8	-33.3	26.9	0.00e+00	0	28	0	1731198976	44	5740
2026-01-04 21:03:46.14	356.35	22.13	-32.7	-33.2	26.9	0.00e+00	0	28	0	1738539008	44	5676
2026-01-04 21:03:47.15	356.13	22.22	-33.0	-33.5	26.9	0.00e+00	0	28	0	1745879040	44	5833
2026-01-04 21:03:48.17	355.91	22.31	-32.9	-33.4	26.8	0.00e+00	0	28	0	1753219072	44	5819
2026-01-04 21:03:49.18	355.70	22.39	-32.9	-33.4	26.9	0.00e+00	0	29	0	1760559104	44	5805
2026-01-04 21:03:50.19	355.48	22.48	-33.0	-33.5	26.7	0.00e+00	0	28	0	1767899136	44	5860
2026-01-04 21:03:51.20	355.26	22.57	-33.0	-33.5	26.8	0.00e+00	0	28	0	1775239168	44	5839
2026-01-04 21:03:52.21	355.04	22.65	-33.0	-33.5	26.6	0.00e+00	0	28	0	1782579200	44	5871
2026-01-04 21:03:53.22	354.82	22.74	-33.0	-33.5	26.7	0.00e+00	0	28	0	1789919232	44	5841
2026-01-04 21:03:54.23	354.59	22.83	-33.2	-33.7	26.7	0.00e+00	0	28	0	1797259264	44	5985
2026-01-04 21:03:55.24	354.37	22.91	-33.1	-33.6	26.7	0.00e+00	0	28	0	1804599296	44	5907
2026-01-04 21:03:56.25	354.14	23.00	-33.0	-33.5	26.8	0.00e+00	0	29	0	1810890752	44	5832
2026-01-04 21:03:57.26	353.92	23.08	-32.8	-33.3	27.0	0.00e+00	0	28	0	1818230784	44	5704
2026-01-04 21:03:58.28	353.68	23.17	-32.9	-33.3	27.0	0.00e+00	0	28	0	1826619392	44	5738
2026-01-04 21:03:59.29	353.45	23.25	-32.6	-33.1	27.2	0.00e+00	0	28	0	1832910848	44	5575
2026-01-04 21:04:00.30	353.22	23.34	-32.4	-32.9	27.4	0.00e+00	0	28	0	1840250880	44	5446
2026-01-04 21:04:01.31	352.99	23.42	-32.3	-32.7	27.4	0.00e+00	0	28	0	1847590912	44	5370
2026-01-04 21:04:02.32	352.76	23.51	-32.4	-32.8	27.4	0.00e+00	0	28	0	1854930944	44	5428
2026-01-04 21:04:03.33	352.52	23.59	-32.3	-32.7	27.5	0.00e+00	0	28	0	1862270976	44	5363
2026-01-04 21:04:04.34	352.29	23.67	-32.2	-32.7	27.5	0.00e+00	0	28	0	1869611008	44	5332
2026-01-04 21:04:05.35	352.05	23.76	-32.2	-32.6	27.5	0.00e+00	0	28	0	1876951040	44	5313
2026-01-04 21:04:06.36	351.81	23.84	-32.2	-32.6	27.4	0.00e+00	0	28	0	1884291072	44	5314
2026-01-04 21:04:07.37	351.57	23.92	-32.3	-32.8	27.4	0.00e+00	0	29	0	1891631104	44	5396
2026-01-04 21:04:08.39	351.33	24.01	-32.3	-32.8	27.4	0.00e+00	0	28	0	1898971136	44	5378
2026-01-04 21:04:09.40	351.09	24.09	-32.1	-32.6	27.5	0.00e+00	0	28	0	1906311168	44	5300
2026-01-04 21:04:10.41	350.84	24.17	-32.2	-32.7	27.4	0.00e+00	0	28	0	1913651200	44	5324
2026-01-04 21:04:11.42	350.60	24.25	-32.3	-32.8	27.3	0.00e+00	0	28	0	1920991232	44	5427
2026-01-04 21:04:12.43	350.35	24.33	-32.3	-32.7	27.4	0.00e+00	0	28	0	1928331264	44	5370
2026-01-04 21:04:13.44	350.10	24.41	-32.3	-32.8	27.3	0.00e+00	0	28	0	1935671296	44	5403
2026-01-04 21:04:14.45	349.85	24.49	-32.5	-33.0	27.4	0.00e+00	0	28	0	1943011328	44	5517
2026-01-04 21:04:15.46	349.60	24.58	-32.1	-32.6	27.5	0.00e+00	0	28	0	1950351360	44	5299
2026-01-04 21:04:16.47	349.35	24.66	-32.1	-32.6	27.6	0.00e+00	0	28	0	1957691392	44	5257
2026-01-04 21:04:17.49	349.10	24.74	-32.1	-32.6	27.4	0.00e+00	0	28	0	1965031424	44	5292
2026-01-04 21:04:18.50	348.84	24.81	-32.2	-32.6	27.5	0.00e+00	0	28	0	1972371456	42	5949
2026-01-04 21:04:19.51	348.59	24.89	-32.3	-32.7	27.5	0.00e+00	0	28	0	1978662912	42	6020
2026-01-04 21:04:20.52	348.33	24.97	-32.3	-32.8	27.4	0.00e+00	0	28	0	1987051520	42	6041
2026-01-04 21:04:21.53	348.07	25.05	-32.1	-32.6	27.5	0.00e+00	0	28	0	1994391552	42	5923
2026-01-04 21:04:22.54	347.81	25.13	-32.1	-32.5	27.6	0.00e+00	0	29	0	2000683008	42	5894
2026-01-04 21:04:23.55	347.55	25.20	-32.3	-32.7	27.5	0.00e+00	0	29	0	2008023040	42	6023
2026-01-04 21:04:24.56	347.29	25.28	-32.3	-32.8	27.5	0.00e+00	0	29	0	2016411648	42	6081
2026-01-04 21:04:25.58	347.02	25.36	-32.2	-32.7	27.5	0.00e+00	0	28	0	2022703104	42	5991
2026-01-04 21:04:26.58	346.76	25.43	-32.3	-32.8	27.5	0.00e+00	0	29	0	2030043136	42	6040
2026-01-04 21:04:27.60	346.49	25.51	-32.2	-32.7	27.5	0.00e+00	0	29	0	2037383168	42	6016
2026-01-04 21:04:28.61	346.23	25.58	-32.5	-33.0	27.1	0.00e+00	0	29	0	2044723200	42	6175
2026-01-04 21:04:29.62	345.96	25.66	-32.4	-32.9	27.3	0.00e+00	0	29	0	2052063232	42	6148
2026-01-04 21:04:30.63	345.69	25.73	-32.9	-33.4	27.0	0.00e+00	0	29	0	2059403264	44	5790
2026-01-04 21:04:31.64	345.42	25.81	-32.6	-33.1	27.0	0.00e+00	0	29	0	2066743296	44	5618
2026-01-04 21:04:32.65	345.15	25.88	-32.9	-33.3	27.0	0.00e+00	0	28	0	2074083328	44	5760
2026-01-04 21:04:33.66	344.87	25.95	-32.8	-33.3	27.0	0.00e+00	0	29	0	2081423360	44	5742
2026-01-04 21:04:34.67	344.60	26.02	-32.6	-33.1	27.3	0.00e+00	0	29	0	2088763392	44	5600
2026-01-04 21:04:35.69	344.32	26.10	-32.6	-33.1	27.2	0.00e+00	0	29	0	2096103424	44	5576
2026-01-04 21:04:36.70	344.04	26.17	-32.4	-32.9	27.3	0.00e+00	0	29	0	2103443456	44	5476
2026-01-04 21:04:37.71	343.76	26.24	-32.5	-33.0	27.2	0.00e+00	0	28	0	2110783488	44	5518
2026-01-04 21:04:38.72	343.48	26.31	-32.3	-32.8	27.4	0.00e+00	0	28	0	2118123520	44	5425
2026-01-04 21:04:39.73	343.20	26.38	-32.3	-32.8	27.5	0.00e+00	0	28	0	2125463552	44	5420
2026-01-04 21:04:40.74	342.92	26.45	-32.1	-32.6	27.6	0.00e+00	0	28	0	2132803584	44	5273
2026-01-04 21:04:41.75	342.64	26.51	-32.1	-32.6	27.7	0.00e+00	0	29	0	2140143616	42	5903
2026-01-04 21:04:42.76	342.35	26.58	-32.2	-32.6	27.6	0.00e+00	0	29	0	2147483648	42	5964
2026-01-04 21:04:43.78	342.06	26.65	-32.3	-32.8	27.5	0.00e+00	0	28	0	2154823680	42	6083
2026-01-04 21:04:44.79	341.78	26.71	-32.5	-32.9	27.4	0.00e+00	0	28	0	2162163712	42	6160
2026-01-04 21:04:45.80	341.49	26.78	-32.6	-33.1	27.3	0.00e+00	0	28	0	2169503744	42	6264
2026-01-04 21:04:46.81	341.20	26.84	-32.4	-32.9	27.3	0.00e+00	0	28	0	2175795200	42	6135
2026-01-04 21:04:47.82	340.91	26.91	-32.3	-32.7	27.5	0.00e+00	0	29	0	2184183808	42	6019
2026-01-04 21:04:48.83	340.62	26.97	-32.2	-32.7	27.5	0.00e+00	0	28	0	2191523840	42	5991
2026-01-04 21:04:49.84	340.32	27.03	-32.3	-32.8	27.4	0.00e+00	0	29	0	2197815296	42	6079
2026-01-04 21:04:50.85	340.03	27.10	-32.5	-32.9	27.4	0.00e+00	0	28	0	2205155328	42	6163
2026-01-04 21:04:51.86	339.74	27.16	-32.6	-33.0	27.3	0.00e+00	0	28	0	2212495360	42	6237
2026-01-04 21:04:52.87	339.44	27.22	-32.4	-32.9	27.5	0.00e+00	0	29	0	2219835392	42	6105
2026-01-04 21:04:53.89	339.14	27.28	-32.5	-32.9	27.4	0.00e+00	0	29	0	2227175424	42	6156
2026-01-04 21:04:54.90	338.84	27.34	-32.7	-33.1	27.2	0.00e+00	0	29	0	2234515456	42	6308
2026-01-04 21:04:55.91	338.54	27.40	-32.2	-32.7	27.5	0.00e+00	0	29	0	2241855488	42	5979
2026-01-04 21:04:56.92	338.24	27.46	-32.4	-32.8	27.4	0.00e+00	0	29	0	2249195520	42	6099
2026-01-04 21:04:57.93	337.94	27.51	-33.1	-33.6	26.9	0.00e+00	0	28	0	2256535552	42	6660
2026-01-04 21:04:58.94	337.63	27.57	-32.6	-33.1	27.3	0.00e+00	0	29	0	2263875584	44	5597
2026-01-04 21:04:59.95	337.33	27.62	-33.0	-33.5	26.9	0.00e+00	0	29	0	2271215616	44	5864
2026-01-04 21:05:00.96	337.02	27.68	-33.1	-33.5	27.0	1.10e-06	0	28	0	2278555648	44	5882
2026-01-04 21:05:01.97	336.72	27.73	-32.6	-33.1	27.1	0.00e+00	0	29	0	2285895680	44	5571
2026-01-04 21:05:02.98	336.41	27.79	-32.0	-32.5	27.7	0.00e+00	0	28	0	2293235712	42	5856
2026-01-04 21:05:04.00	336.10	27.84	-32.1	-32.5	27.7	0.00e+00	0	29	0	2300575744	42	5892
2026-01-04 21:05:05.01	335.79	27.89	-32.1	-32.6	27.7	0.00e+00	0	29	0	2307915776	42	5931
2026-01-04 21:05:06.02	335.48	27.94	-32.0	-32.5	27.7	0.00e+00	0	28	0	2315255808	42	5858
2026-01-04 21:05:07.03	335.17	27.99	-32.1	-32.6	27.6	0.00e+00	0	29	0	2322595840	42	5936
2026-01-04 21:05:08.04	334.85	28.04	-32.0	-32.4	27.8	0.00e+00	0	29	0	2329935872	42	5810
2026-01-04 21:05:09.05	334.54	28.09	-31.9	-32.3	27.8	0.00e+00	0	29	0	2337275904	42	5746
2026-01-04 21:05:10.06	334.23	28.13	-31.8	-32.3	27.8	0.00e+00	0	29	0	2343567360	42	5723
2026-01-04 21:05:11.07	333.91	28.18	-32.0	-32.4	27.8	0.00e+00	0	29	0	2351955968	42	5810
2026-01-04 21:05:12.08	333.60	28.23	-32.2	-32.6	27.7	0.00e+00	0	28	0	2359296000	42	5954
2026-01-04 21:05:13.09	333.28	28.27	-32.2	-32.7	27.6	0.00e+00	0	29	0	2365587456	42	6016
2026-01-04 21:05:14.11	332.96	28.31	-32.1	-32.5	27.7	0.00e+00	0	29	0	2372927488	42	5892
2026-01-04 21:05:15.12	332.64	28.36	-32.1	-32.6	27.7	0.00e+00	0	29	0	2381316096	42	5948
2026-01-04 21:05:16.13	332.32	28.40	-32.0	-32.5	27.7	0.00e+00	0	29	0	2387607552	42	5876
2026-01-04 21:05:17.14	332.00	28.44	-32.0	-32.4	27.8	0.00e+00	0	28	0	2394947584	42	5820
2026-01-04 21:05:18.15	331.68	28.48	-32.0	-32.5	27.7	0.00e+00	0	28	0	2402287616	42	5840
2026-01-04 21:05:19.16	331.36	28.52	-32.0	-32.5	27.8	0.00e+00	0	29	0	2409627648	42	5841
2026-01-04 21:05:20.17	331.03	28.56	-32.3	-32.8	27.7	0.00e+00	0	29	0	2416967680	42	6057
2026-01-04 21:05:21.19	330.71	28.59	-32.1	-32.6	27.7	0.00e+00	0	29	0	2424307712	42	5935
2026-01-04 21:05:22.20	330.38	28.63	-32.1	-32.5	27.7	0.00e+00	0	29	0	2431647744	42	5896
2026-01-04 21:05:23.21	330.06	28.66	-32.4	-32.9	27.5	0.00e+00	0	28	0	2438987776	42	6114
2026-01-04 21:05:24.22	329.73	28.70	-32.3	-32.8	27.6	0.00e+00	0	28	0	2446327808	42	6041
2026-01-04 21:05:25.23	329.40	28.73	-32.7	-33.2	27.2	0.00e+00	0	29	0	2453667840	42	6320
2026-01-04 21:05:26.24	329.08	28.76	-32.8	-33.3	27.1	0.00e+00	0	28	0	2461007872	42	6444
2026-01-04 21:05:27.25	328.75	28.79	-32.9	-33.5	26.9	0.00e+00	0	29	0	2468347904	42	6548
2026-01-04 21:05:28.26	328.42	28.82	-33.3	-33.8	26.8	0.00e+00	0	28	0	2475687936	44	6097
2026-01-04 21:05:29.27	328.09	28.85	-32.7	-33.2	27.2	0.00e+00	0	29	0	2483027968	44	5656
2026-01-04 21:05:30.29	327.76	28.88	-32.4	-32.8	27.5	0.00e+00	0	28	0	2490368000	44	5434
2026-01-04 21:05:31.30	327.43	28.91	-32.4	-32.9	27.4	0.00e+00	0	29	0	2497708032	44	5445
2026-01-04 21:05:32.31	327.10	28.93	-32.2	-32.6	27.7	0.00e+00	0	29	0	2505048064	44	5296
2026-01-04 21:05:33.32	326.77	28.96	-32.1	-32.6	27.8	0.00e+00	0	29	0	2512388096	42	5911
2026-01-04 21:05:34.33	326.43	28.98	-32.1	-32.6	27.7	0.00e+00	0	29	0	2519728128	42	5927
2026-01-04 21:05:35.34	326.10	29.00	-32.0	-32.5	27.8	0.00e+00	0	29	0	2527068160	42	5847
2026-01-04 21:05:36.35	325.77	29.03	-32.2	-32.7	27.6	0.00e+00	0	29	0	2534408192	42	5968
2026-01-04 21:05:37.36	325.44	29.05	-32.4	-32.9	27.5	0.00e+00	0	29	0	2540699648	42	6135
2026-01-04 21:05:38.37	325.10	29.07	-32.5	-32.9	27.3	0.00e+00	0	29	0	2549088256	42	6172
2026-01-04 21:05:39.39	324.76	29.08	-32.4	-32.9	27.5	0.00e+00	0	29	0	2556428288	42	6143
2026-01-04 21:05:40.40	324.43	29.10	-32.5	-33.0	27.5	0.00e+00	0	29	0	2562719744	42	6194
2026-01-04 21:05:41.41	324.10	29.12	-32.8	-33.3	27.4	0.00e+00	0	29	0	2570059776	42	6391
2026-01-04 21:05:42.42	323.76	29.13	-33.0	-33.5	27.1	0.00e+00	0	29	0	2578448384	42	6553
2026-01-04 21:05:43.43	323.42	29.15	-33.2	-33.7	26.8	0.00e+00	0	29	0	2584739840	44	5986
2026-01-04 21:05:44.44	323.09	29.16	-32.7	-33.2	27.2	0.00e+00	0	29	0	2592079872	44	5671
2026-01-04 21:05:45.45	322.75	29.17	-32.7	-33.2	27.3	0.00e+00	0	29	0	2599419904	44	5686
2026-01-04 21:05:46.46	322.42	29.18	-32.6	-33.1	27.3	0.00e+00	0	29	0	2606759936	44	5583
2026-01-04 21:05:47.48	322.08	29.19	-32.7	-33.2	27.3	0.00e+00	0	29	0	2614099968	44	5662
2026-01-04 21:05:48.49	321.74	29.20	-32.3	-32.8	27.6	0.00e+00	0	29	0	2621440000	44	5416
2026-01-04 21:05:49.50	321.40	29.21	-32.5	-33.0	27.4	0.00e+00	0	29	0	2628780032	44	5541
2026-01-04 21:05:50.51	321.07	29.21	-32.2	-32.6	27.8	0.00e+00	0	29	0	2636120064	44	5311
2026-01-04 21:05:51.52	320.73	29.22	-32.4	-32.8	27.5	0.00e+00	0	29	0	2643460096	44	5432
2026-01-04 21:05:52.53	320.39	29.22	-32.6	-33.1	27.4	0.00e+00	0	29	0	2650800128	44	5591
2026-01-04 21:05:53.54	320.06	29.23	-32.3	-32.8	27.5	0.00e+00	0	29	0	2658140160	44	5393
2026-01-04 21:05:54.55	319.72	29.23	-32.3	-32.8	27.7	0.00e+00	0	29	0	2665480192	44	5385
2026-01-04 21:05:55.56	319.38	29.23	-32.2	-32.7	27.6	0.00e+00	0	29	0	2672820224	44	5316
2026-01-04 21:05:56.57	319.04	29.23	-32.3	-32.7	27.6	0.00e+00	0	29	0	2680160256	44	5375
2026-01-04 21:05:57.58	318.71	29.23	-32.1	-32.6	27.8	0.00e+00	0	29	0	2687500288	44	5257
2026-01-04 21:05:58.60	318.36	29.22	-32.1	-32.5	27.8	0.00e+00	0	29	0	2694840320	42	5896
2026-01-04 21:05:59.61	318.03	29.22	-31.9	-32.3	27.9	0.00e+00	0	29	0	2702180352	42	5759
2026-01-04 21:06:00.62	317.69	29.22	-31.9	-32.4	28.0	0.00e+00	0	28	0	2709520384	42	5784
2026-01-04 21:06:01.63	317.35	29.21	-31.9	-32.4	28.0	0.00e+00	0	29	0	2716860416	42	5791
2026-01-04 21:06:02.64	317.02	29.20	-32.1	-32.6	27.7	0.00e+00	0	28	0	2724200448	42	5944
2026-01-04 21:06:03.65	316.68	29.19	-32.6	-33.1	27.5	0.00e+00	0	29	0	2730491904	42	6267
2026-01-04 21:06:04.66	316.34	29.18	-32.2	-32.7	27.7	0.00e+00	0	29	0	2737831936	42	5999
2026-01-04 21:06:05.67	316.01	29.17	-32.2	-32.6	27.8	0.00e+00	0	29	0	2746220544	42	5961
2026-01-04 21:06:06.68	315.67	29.16	-32.0	-32.5	27.8	0.00e+00	0	29	0	2752512000	42	5869
2026-01-04 21:06:07.70	315.33	29.15	-32.2	-32.7	27.7	0.00e+00	0	29	0	2759852032	42	5969
2026-01-04 21:06:08.71	315.00	29.14	-32.2	-32.7	27.7	0.00e+00	0	29	0	2767192064	42	6000
2026-01-04 21:06:09.72	314.66	29.12	-32.5	-33.0	27.5	0.00e+00	0	29	0	2774532096	42	6213
2026-01-04 21:06:10.73	314.32	29.11	-32.1	-32.6	27.8	0.00e+00	0	29	0	2781872128	42	5912
2026-01-04 21:06:11.74	313.99	29.09	-32.2	-32.7	27.7	0.00e+00	0	29	0	2789212160	42	6000
2026-01-04 21:06:12.75	313.66	29.07	-32.4	-32.8	27.6	0.00e+00	0	29	0	2796552192	42	6095
2026-01-04 21:06:13.76	313.32	29.05	-32.3	-32.8	27.4	0.00e+00	0	29	0	2803892224	42	6069
2026-01-04 21:06:14.77	312.99	29.03	-32.0	-32.5	27.7	0.00e+00	0	29	0	2811232256	42	5836
2026-01-04 21:06:15.79	312.65	29.01	-32.1	-32.6	27.6	0.00e+00	0	29	0	2818572288	42	5945
2026-01-04 21:06:16.80	312.32	28.99	-32.2	-32.7	27.2	0.00e+00	0	29	0	2825912320	42	5984
2026-01-04 21:06:17.81	311.99	28.96	-32.1	-32.6	27.7	0.00e+00	0	29	0	2833252352	42	5908
2026-01-04 21:06:18.82	311.66	28.94	-32.2	-32.6	27.7	0.00e+00	0	29	0	2840592384	42	5948
2026-01-04 21:06:19.83	311.32	28.91	-32.4	-32.8	27.4	0.00e+00	0	28	0	2847932416	42	6103
2026-01-04 21:06:20.84	310.99	28.89	-32.2	-32.7	27.6	0.00e+00	0	28	0	2855272448	42	5988
2026-01-04 21:06:21.85	310.66	28.86	-32.3	-32.8	27.7	0.00e+00	0	28	0	2862612480	42	6054
2026-01-04 21:06:22.86	310.33	28.83	-32.3	-32.8	27.7	0.00e+00	0	28	0	2869952512	42	6049
2026-01-04 21:06:23.87	310.00	28.80	-32.2	-32.7	27.7	0.00e+00	0	29	0	2877292544	42	6015
2026-01-04 21:06:24.88	309.68	28.77	-32.4	-32.9	27.9	0.00e+00	0	29	0	2884632576	42	6127
2026-01-04 21:06:25.89	309.35	28.74	-32.3	-32.8	27.8	0.00e+00	0	29	0	2891972608	42	6071
2026-01-04 21:06:26.91	309.02	28.71	-32.1	-32.6	27.8	0.00e+00	0	29	0	2899312640	42	5954
2026-01-04 21:06:27.92	308.69	28.67	-32.3	-32.8	27.7	0.00e+00	0	28	0	2906652672	42	6035
2026-01-04 21:06:28.93	308.37	28.64	-32.3	-32.8	27.7	0.00e+00	0	29	0	2913992704	42	6070
2026-01-04 21:06:29.94	308.04	28.60	-32.5	-33.0	27.5	0.00e+00	0	29	0	2921332736	42	6237
2026-01-04 21:06:30.95	307.72	28.57	-32.4	-32.8	27.6	0.00e+00	0	29	0	2927624192	42	6090
2026-01-04 21:06:31.96	307.39	28.53	-32.5	-33.0	27.6	0.00e+00	0	28	0	2934964224	42	6192
2026-01-04 21:06:32.97	307.07	28.49	-32.5	-33.0	27.5	0.00e+00	0	28	0	2943352832	42	6234
2026-01-04 21:06:33.98	306.75	28.45	-32.3	-32.7	27.7	0.00e+00	0	28	0	2949644288	42	6022
2026-01-04 21:06:34.99	306.43	28.41	-32.1	-32.6	27.8	0.00e+00	0	28	0	2956984320	42	5907
2026-01-04 21:06:36.00	306.11	28.37	-32.1	-32.5	27.9	0.00e+00	0	29	0	2964324352	42	5874
2026-01-04 21:06:37.02	305.78	28.33	-32.0	-32.5	27.9	0.00e+00	0	29	0	2971664384	42	5850
2026-01-04 21:06:38.03	305.47	28.28	-32.0	-32.4	28.0	0.00e+00	0	29	0	2979004416	42	5809
2026-01-04 21:06:39.04	305.15	28.24	-32.1	-32.6	27.9	0.00e+00	0	28	0	2986344448	42	5919
2026-01-04 21:06:40.05	304.83	28.19	-32.1	-32.6	27.9	0.00e+00	0	29	0	2993684480	42	5905
2026-01-04 21:06:41.06	304.52	28.15	-32.1	-32.6	27.8	0.00e+00	0	29	0	3001024512	42	5935
2026-01-04 21:06:42.07	304.20	28.10	-32.2	-32.7	27.8	0.00e+00	0	29	0	3008364544	42	5968
2026-01-04 21:06:43.08	303.89	28.05	-32.3	-32.8	27.7	0.00e+00	0	29	0	3015704576	42	6079
2026-01-04 21:06:44.09	303.57	28.00	-32.2	-32.7	27.8	0.00e+00	0	29	0	3023044608	42	5972
2026-01-04 21:06:45.10	303.26	27.95	-32.2	-32.7	27.7	0.00e+00	0	29	0	3030384640	42	6016
2026-01-04 21:06:46.11	302.95	27.90	-32.3	-32.7	27.7	0.00e+00	0	29	0	3037724672	42	6021
2026-01-04 21:06:47.13	302.64	27.85	-32.2	-32.7	27.7	0.00e+00	0	29	0	3045064704	42	6019
2026-01-04 21:06:48.14	302.33	27.80	-32.5	-33.0	27.6	0.00e+00	0	29	0	3052404736	42	6194
2026-01-04 21:06:49.15	302.02	27.75	-32.7	-33.1	27.6	0.00e+00	0	29	0	3059744768	42	6309
2026-01-04 21:06:50.16	301.71	27.69	-32.6	-33.1	27.7	0.00e+00	0	29	0	3067084800	44	5572
2026-01-04 21:06:51.17	301.41	27.64	-32.4	-32.9	27.6	0.00e+00	0	29	0	3074424832	44	5443
2026-01-04 21:06:52.18	301.10	27.58	-32.4	-32.9	27.4	0.00e+00	0	29	0	3081764864	44	5458
2026-01-04 21:06:53.19	300.80	27.53	-32.3	-32.8	27.7	0.00e+00	0	29	0	3089104896	44	5388
2026-01-04 21:06:54.20	300.49	27.47	-32.3	-32.7	27.6	0.00e+00	0	29	0	3095396352	44	5366
2026-01-04 21:06:55.21	300.19	27.41	-32.3	-32.7	27.6	0.00e+00	0	29	0	3102736384	44	5375
2026-01-04 21:06:56.22	299.89	27.35	-32.3	-32.7	27.9	0.00e+00	0	29	0	3111124992	44	5370
2026-01-04 21:06:57.23	299.59	27.30	-32.2	-32.7	27.9	0.00e+00	0	29	0	3117416448	44	5341
2026-01-04 21:06:58.25	299.29	27.23	-32.3	-32.7	27.9	0.00e+00	0	29	0	3124756480	42	6028
2026-01-04 21:06:59.25	298.99	27.17	-32.2	-32.6	27.9	0.00e+00	0	28	0	3132096512	42	5938
2026-01-04 21:07:00.27	298.70	27.11	-32.3	-32.8	27.8	0.00e+00	0	29	0	3139436544	42	6070
2026-01-04 21:07:01.28	298.40	27.05	-32.1	-32.6	27.9	0.00e+00	0	29	0	3146776576	42	5927
2026-01-04 21:07:02.29	298.11	26.99	-32.2	-32.7	27.7	0.00e+00	0	29	0	3154116608	42	5984
2026-01-04 21:07:03.30	297.81	26.92	-32.1	-32.5	27.9	0.00e+00	0	29	0	3161456640	42	5879
2026-01-04 21:07:04.31	297.52	26.86	-32.3	-32.8	27.8	0.00e+00	0	29	0	3168796672	42	6050
2026-01-04 21:07:05.32	297.23	26.80	-32.3	-32.7	27.7	0.00e+00	0	29	0	3176136704	42	6027
2026-01-04 21:07:06.33	296.94	26.73	-32.4	-32.9	27.7	0.00e+00	0	29	0	3183476736	42	6123
2026-01-04 21:07:07.34	296.65	26.66	-32.4	-32.9	27.7	0.00e+00	0	29	0	3190816768	42	6136
2026-01-04 21:07:08.35	296.37	26.60	-32.7	-33.2	27.6	0.00e+00	0	29	0	3198156800	42	6368
2026-01-04 21:07:09.36	296.08	26.53	-32.5	-33.0	27.7	0.00e+00	0	29	0	3205496832	42	6225
2026-01-04 21:07:10.38	295.79	26.46	-32.5	-33.0	27.8	0.00e+00	0	29	0	3212836864	42	6197
2026-01-04 21:07:11.39	295.51	26.39	-32.4	-32.9	27.7	0.00e+00	0	29	0	3220176896	42	6130
2026-01-04 21:07:12.40	295.23	26.32	-32.2	-32.6	27.9	0.00e+00	0	29	0	3227516928	42	5952
2026-01-04 21:07:13.41	294.95	26.25	-32.6	-33.0	27.9	0.00e+00	0	29	0	3234856960	42	6228
2026-01-04 21:07:14.42	294.67	26.18	-32.3	-32.8	27.7	0.00e+00	0	29	0	3242196992	42	6082
2026-01-04 21:07:15.43	294.39	26.11	-32.4	-32.8	27.9	0.00e+00	0	29	0	3249537024	42	6084
2026-01-04 21:07:16.44	294.11	26.04	-32.1	-32.6	27.9	0.00e+00	0	29	0	3256877056	42	5932
2026-01-04 21:07:17.45	293.84	25.97	-32.3	-32.8	27.9	0.00e+00	0	29	0	3264217088	42	6067
2026-01-04 21:07:18.47	293.56	25.90	-32.4	-32.9	27.8	0.00e+00	0	29	0	3271557120	42	6120
2026-01-04 21:07:19.48	293.29	25.82	-32.5	-32.9	27.6	0.00e+00	0	29	0	3278897152	42	6173
2026-01-04 21:07:20.49	293.02	25.75	-32.2	-32.7	27.9	0.00e+00	0	29	0	3286237184	42	6005
2026-01-04 21:07:21.50	292.74	25.68	-32.2	-32.7	27.8	0.00e+00	0	29	0	3292528640	42	5970
2026-01-04 21:07:22.51	292.48	25.60	-32.6	-33.1	27.8	0.00e+00	0	29	0	3299868672	42	6296
2026-01-04 21:07:23.52	292.21	25.53	-32.2	-32.7	27.8	0.00e+00	0	29	0	3308257280	42	6010
2026-01-04 21:07:24.53	291.94	25.45	-32.2	-32.7	27.8	0.00e+00	0	29	0	3314548736	42	5970
2026-01-04 21:07:25.54	291.67	25.37	-32.1	-32.6	27.8	0.00e+00	0	29	0	3321888768	42	5908
2026-01-04 21:07:26.55	291.41	25.30	-32.2	-32.7	27.8	0.00e+00	0	29	0	3329228800	42	5973
2026-01-04 21:07:27.56	291.15	25.22	-32.2	-32.7	27.8	0.00e+00	0	29	0	3336568832	42	5972
2026-01-04 21:07:28.57	290.89	25.14	-32.5	-32.9	27.6	0.00e+00	0	29	0	3343908864	42	6158
2026-01-04 21:07:29.59	290.62	25.07	-32.5	-33.0	27.5	0.00e+00	0	29	0	3351248896	42	6191
2026-01-04 21:07:30.60	290.36	24.99	-32.6	-33.1	27.7	0.00e+00	0	29	0	3358588928	42	6306
2026-01-04 21:07:31.61	290.11	24.91	-32.6	-33.1	27.6	0.00e+00	0	29	0	3365928960	42	6280
2026-01-04 21:07:32.62	289.85	24.83	-33.1	-33.5	27.5	0.00e+00	0	29	0	3373268992	42	6608
2026-01-04 21:07:33.63	289.59	24.75	-32.5	-33.0	27.6	0.00e+00	0	29	0	3380609024	44	5516
2026-01-04 21:07:34.64	289.34	24.67	-32.9	-33.4	27.5	0.00e+00	0	29	0	3387949056	44	5791
2026-01-04 21:07:35.65	289.09	24.59	-32.8	-33.2	27.6	0.00e+00	0	29	0	3395289088	44	5684
2026-01-04 21:07:36.66	288.84	24.51	-32.7	-33.2	27.7	0.00e+00	0	29	0	3402629120	44	5676
2026-01-04 21:07:37.67	288.59	24.43	-32.4	-32.9	27.7	0.00e+00	0	29	0	3409969152	44	5465
2026-01-04 21:07:38.68	288.34	24.35	-32.5	-33.0	27.7	0.00e+00	0	29	0	3417309184	44	5533
2026-01-04 21:07:39.70	288.09	24.27	-32.6	-33.1	27.6	0.00e+00	0	29	0	3424649216	44	5619
2026-01-04 21:07:40.71	287.84	24.18	-32.5	-33.0	27.6	0.00e+00	0	29	0	3431989248	44	5536
2026-01-04 21:07:41.72	287.60	24.10	-32.6	-33.1	27.6	0.00e+00	0	29	0	3439329280	44	5588
2026-01-04 21:07:42.73	287.35	24.02	-32.2	-32.9	23.8	0.00e+00	0	29	0	3446669312	44	5479
2026-01-04 21:07:43.74	287.11	23.94	-32.4	-33.0	23.9	0.00e+00	0	29	0	3454009344	44	5544
2026-01-04 21:07:44.75	286.87	23.85	-32.2	-32.9	23.9	0.00e+00	0	29	0	3460300800	42	6126
2026-01-04 21:07:45.76	286.63	23.77	-32.1	-32.7	23.9	0.00e+00	0	29	0	3467640832	42	6028
2026-01-04 21:07:46.77	286.39	23.69	-32.1	-32.8	23.8	0.00e+00	0	29	0	3476029440	42	6037
2026-01-04 21:07:47.79	286.15	23.60	-32.2	-32.8	23.8	0.00e+00	0	29	0	3482320896	42	6096
2026-01-04 21:07:48.80	285.92	23.52	-32.1	-32.8	23.7	0.00e+00	0	29	0	3489660928	42	6062
2026-01-04 21:07:49.81	285.68	23.43	-32.1	-32.7	23.7	0.00e+00	0	29	0	3497000960	42	6028
2026-01-04 21:07:50.82	285.45	23.35	-32.1	-32.8	23.6	0.00e+00	0	29	0	3504340992	42	6069
2026-01-04 21:07:51.83	285.22	23.27	-32.1	-32.8	23.6	0.00e+00	0	29	0	3511681024	42	6055
2026-01-04 21:07:52.84	284.98	23.18	-32.3	-33.0	23.6	0.00e+00	0	29	0	3519021056	42	6195
2026-01-04 21:07:53.85	284.75	23.09	-32.1	-32.8	23.7	0.00e+00	0	29	0	3526361088	42	6042
2026-01-04 21:07:54.86	284.53	23.01	-32.1	-32.8	23.7	0.00e+00	0	29	0	3533701120	42	6054
2026-01-04 21:07:55.87	284.30	22.92	-32.2	-32.9	23.5	0.00e+00	0	29	0	3541041152	42	6125
2026-01-04 21:07:56.89	284.07	22.84	-32.0	-32.7	23.7	0.00e+00	0	29	0	3548381184	42	6016
2026-01-04 21:07:57.90	283.85	22.75	-32.2	-32.9	23.5	0.00e+00	0	29	0	3555721216	42	6139
2026-01-04 21:07:58.91	283.62	22.66	-32.1	-32.8	23.5	0.00e+00	0	29	0	3563061248	42	6042
2026-01-04 21:07:59.92	283.40	22.58	-32.2	-32.9	23.4	0.00e+00	0	29	0	3570401280	42	6160
2026-01-04 21:08:00.93	283.18	22.49	-32.4	-33.1	23.5	0.00e+00	0	29	0	3577741312	42	6305
2026-01-04 21:08:01.94	282.96	22.40	-32.0	-32.7	23.5	0.00e+00	0	29	0	3585081344	42	6015
2026-01-04 21:08:02.95	282.74	22.32	-32.1	-32.8	23.5	0.00e+00	0	29	0	3592421376	42	6082
2026-01-04 21:08:03.96	282.53	22.23	-32.1	-32.8	23.4	0.00e+00	0	29	0	3599761408	42	6074
2026-01-04 21:08:04.97	282.31	22.14	-32.2	-32.9	23.4	0.00e+00	0	29	0	3607101440	42	6130
2026-01-04 21:08:05.98	282.10	22.06	-32.1	-32.8	23.4	0.00e+00	0	29	0	3614441472	42	6051
2026-01-04 21:08:07.00	281.88	21.97	-32.1	-32.8	23.4	0.00e+00	0	29	0	3621781504	42	6055
2026-01-04 21:08:08.01	281.67	21.88	-32.3	-33.0	23.4	0.00e+00	0	29	0	3629121536	42	6224
2026-01-04 21:08:09.02	281.46	21.79	-32.1	-32.8	23.5	0.00e+00	0	29	0	3636461568	42	6044
2026-01-04 21:08:10.03	281.25	21.70	-32.1	-32.8	23.6	0.00e+00	0	29	0	3643801600	42	6039
2026-01-04 21:08:11.04	281.04	21.62	-32.1	-32.8	23.7	0.00e+00	0	29	0	3651141632	42	6051
2026-01-04 21:08:12.05	280.83	21.53	-32.1	-32.7	23.8	0.00e+00	0	29	0	3657433088	42	6017
2026-01-04 21:08:13.06	280.62	21.44	-32.1	-32.7	23.8	0.00e+00	0	29	0	3665821696	42	6022
2026-01-04 21:08:14.08	280.42	21.35	-32.1	-32.8	23.8	0.00e+00	0	29	0	3673161728	42	6067
2026-01-04 21:08:15.09	280.21	21.26	-32.1	-32.8	23.9	0.00e+00	0	29	0	3679453184	42	6057
2026-01-04 21:08:16.10	280.01	21.17	-32.3	-33.0	23.9	0.00e+00	0	29	0	3686793216	42	6177
2026-01-04 21:08:17.11	279.81	21.09	-32.3	-33.0	23.8	0.00e+00	0	29	0	3694133248	42	6212
2026-01-04 21:08:18.12	279.61	21.00	-32.6	-33.3	23.7	0.00e+00	0	29	0	3701473280	42	6420
2026-01-04 21:08:19.13	279.41	20.91	-32.5	-33.2	23.7	0.00e+00	0	29	0	3708813312	42	6340
2026-01-04 21:08:20.14	279.21	20.82	-32.5	-33.2	23.7	0.00e+00	0	29	0	3716153344	42	6374
2026-01-04 21:08:21.15	279.01	20.73	-32.6	-33.2	23.7	0.00e+00	0	29	0	3723493376	42	6378
2026-01-04 21:08:22.16	278.82	20.64	-32.6	-33.2	23.7	0.00e+00	0	29	0	3730833408	42	6383
2026-01-04 21:08:23.18	278.62	20.55	-32.6	-33.2	23.8	0.00e+00	0	29	0	3738173440	42	6372
2026-01-04 21:08:24.19	278.43	20.46	-32.4	-33.0	23.9	0.00e+00	0	29	0	3745513472	42	6240
2026-01-04 21:08:25.20	278.24	20.38	-32.7	-33.4	23.7	0.00e+00	0	29	0	3752853504	42	6483
2026-01-04 21:08:26.21	278.05	20.29	-32.6	-33.3	23.7	0.00e+00	0	29	0	3760193536	42	6439
2026-01-04 21:08:27.22	277.86	20.20	-32.5	-33.1	23.7	0.00e+00	0	29	0	3767533568	42	6298
2026-01-04 21:08:28.23	277.67	20.11	-32.5	-33.2	23.7	0.00e+00	0	29	0	3774873600	42	6337
2026-01-04 21:08:29.24	277.48	20.02	-32.6	-33.2	23.6	0.00e+00	0	29	0	3782213632	42	6383
2026-01-04 21:08:30.25	277.29	19.93	-32.9	-33.5	23.7	0.00e+00	0	29	0	3789553664	42	6608
2026-01-04 21:08:31.26	277.11	19.84	-32.6	-33.2	23.7	0.00e+00	0	29	0	3796893696	42	6385
2026-01-04 21:08:32.28	276.92	19.75	-32.6	-33.3	23.7	0.00e+00	0	29	0	3804233728	42	6414
2026-01-04 21:08:33.29	276.74	19.66	-32.5	-33.2	23.8	0.00e+00	0	28	0	3811573760	42	6331
2026-01-04 21:08:34.30	276.55	19.57	-32.4	-33.0	23.9	0.00e+00	0	29	0	3818913792	42	6243
2026-01-04 21:08:35.31	276.37	19.49	-32.4	-33.1	23.8	0.00e+00	0	29	0	3825205248	42	6275
2026-01-04 21:08:36.32	276.19	19.40	-32.3	-33.0	23.7	0.00e+00	0	29	0	3833593856	42	6213
2026-01-04 21:08:37.33	276.01	19.31	-32.5	-33.2	23.6	0.00e+00	0	29	0	3840933888	42	6324
2026-01-04 21:08:38.34	275.83	19.22	-32.5	-33.2	23.6	0.00e+00	0	29	0	3847225344	42	6327
2026-01-04 21:08:39.35	275.66	19.13	-32.5	-33.2	23.5	0.00e+00	0	29	0	3854565376	42	6344
2026-01-04 21:08:40.36	275.48	19.04	-32.6	-33.2	23.5	0.00e+00	0	29	0	3861905408	42	6388
2026-01-04 21:08:41.38	275.30	18.95	-32.6	-33.3	23.4	0.00e+00	0	29	0	3869245440	42	6436
2026-01-04 21:08:42.39	275.13	18.86	-32.8	-33.4	23.4	0.00e+00	0	29	0	3876585472	42	6536
2026-01-04 21:08:43.40	274.96	18.77	-32.9	-33.6	23.4	0.00e+00	0	29	0	3883925504	42	6647
2026-01-04 21:08:44.41	274.79	18.69	-32.9	-33.6	23.5	0.00e+00	0	29	0	3891265536	42	6642
2026-01-04 21:08:45.42	274.61	18.60	-32.8	-33.5	23.5	0.00e+00	0	29	0	3898605568	42	6560
2026-01-04 21:08:46.43	274.44	18.51	-32.8	-33.5	23.5	0.00e+00	0	29	0	3905945600	42	6559
2026-01-04 21:08:47.44	274.28	18.42	-33.0	-33.7	23.4	0.00e+00	0	29	0	3913285632	44	5992
2026-01-04 21:08:48.45	274.11	18.33	-33.1	-33.8	23.4	0.00e+00	0	29	0	3920625664	44	6088
2026-01-04 21:08:49.47	273.94	18.24	-32.9	-33.6	23.4	0.00e+00	0	29	0	3927965696	44	5955
2026-01-04 21:08:50.48	273.77	18.15	-32.9	-33.6	23.4	0.00e+00	0	29	0	3935305728	44	5941
2026-01-04 21:08:51.49	273.61	18.07	-33.1	-33.8	23.3	0.00e+00	0	29	0	3942645760	44	6054
2026-01-04 21:08:52.50	273.44	17.98	-33.2	-33.9	23.1	0.00e+00	0	29	0	3949985792	44	6147
2026-01-04 21:08:53.51	273.28	17.89	-33.4	-34.0	23.2	0.00e+00	0	29	0	3957325824	44	6244
2026-01-04 21:08:54.52	273.12	17.80	-33.8	-34.5	23.1	0.00e+00	0	29	0	3964665856	44	6582
2026-01-04 21:08:55.53	272.96	17.71	-33.5	-34.2	23.1	0.00e+00	0	29	0	3972005888	44	6342
2026-01-04 21:08:56.55	272.80	17.63	-33.6	-34.3	23.0	0.00e+00	0	29	0	3979345920	44	6416
2026-01-04 21:08:57.56	272.64	17.54	-33.4	-34.1	23.1	0.00e+00	0	29	0	3986685952	44	6263
2026-01-04 21:08:58.57	272.48	17.45	-33.6	-34.3	23.1	0.00e+00	0	29	0	3994025984	44	6404
2026-01-04 21:08:59.58	272.32	17.36	-33.7	-34.4	23.1	0.00e+00	0	29	0	4001366016	44	6508
2026-01-04 21:09:00.59	272.16	17.28	-33.5	-34.2	23.2	0.00e+00	0	29	0	4008706048	44	6333
2026-01-04 21:09:01.60	272.01	17.19	-33.8	-34.5	23.0	0.00e+00	0	29	0	4016046080	44	6563
2026-01-04 21:09:02.61	271.85	17.10	-33.6	-34.2	23.2	0.00e+00	0	29	0	4022337536	44	6381
2026-01-04 21:09:03.62	271.70	17.01	-34.0	-34.6	23.1	0.00e+00	0	29	0	4030726144	44	6688
2026-01-04 21:09:04.63	271.55	16.93	-33.8	-34.5	23.1	0.00e+00	0	29	0	4038066176	46	5862
2026-01-04 21:09:05.64	271.39	16.84	-33.3	-33.9	23.4	0.00e+00	0	29	0	4044357632	46	5487
2026-01-04 21:09:06.65	271.24	16.75	-33.4	-34.0	23.4	0.00e+00	0	29	0	4051697664	46	5550
2026-01-04 21:09:07.66	271.09	16.67	-33.4	-34.1	23.3	0.00e+00	0	29	0	4059037696	46	5577
2026-01-04 21:09:08.67	270.94	16.58	-33.4	-34.1	23.4	0.00e+00	0	29	0	4066377728	46	5573
2026-01-04 21:09:09.68	270.80	16.49	-33.6	-34.3	23.3	0.00e+00	0	29	0	4073717760	46	5696
2026-01-04 21:09:10.70	270.65	16.41	-33.5	-34.2	23.3	0.00e+00	0	29	0	4081057792	46	5637
2026-01-04 21:09:11.71	270.50	16.32	-33.7	-34.3	23.2	0.00e+00	0	29	0	4088397824	46	5759
2026-01-04 21:09:12.72	270.35	16.23	-33.7	-34.4	23.1	0.00e+00	0	29	0	4095737856	46	5798
2026-01-04 21:09:13.73	270.21	16.15	-33.8	-34.4	23.2	0.00e+00	0	29	0	4103077888	46	5828
2026-01-04 21:09:14.74	270.06	16.06	-33.9	-34.5	23.2	0.00e+00	0	29	0	4110417920	46	5891
2026-01-04 21:09:15.75	269.92	15.97	-33.9	-34.5	23.2	0.00e+00	0	29	0	4117757952	46	5887
2026-01-04 21:09:16.76	269.78	15.89	-33.8	-34.5	23.1	0.00e+00	0	29	0	4125097984	46	5869
2026-01-04 21:09:17.77	269.64	15.80	-33.6	-34.3	23.3	0.00e+00	0	29	0	4132438016	46	5713
2026-01-04 21:09:18.79	269.49	15.72	-33.7	-34.4	23.2	0.00e+00	0	29	0	4139778048	46	5782
2026-01-04 21:09:19.80	269.35	15.63	-33.7	-34.4	22.9	0.00e+00	0	29	0	4147118080	46	5772
2026-01-04 21:09:20.81	269.22	15.55	-33.7	-34.4	23.0	0.00e+00	0	29	0	4154458112	46	5804
2026-01-04 21:09:21.82	269.08	15.46	-33.8	-34.5	22.9	0.00e+00	0	29	0	4161798144	46	5839
2026-01-04 21:09:22.83	268.94	15.38	-33.9	-34.6	22.8	0.00e+00	0	29	0	4169138176	46	5929
2026-01-04 21:09:23.84	268.80	15.29	-33.8	-34.5	22.7	0.00e+00	0	29	0	4176478208	46	5860
2026-01-04 21:09:24.85	268.67	15.21	-33.9	-34.6	22.8	0.00e+00	0	29	0	4183818240	46	5925
2026-01-04 21:09:25.86	268.53	15.12	-34.0	-34.7	22.7	0.00e+00	0	29	0	4190109696	46	5986
2026-01-04 21:09:26.87	268.40	15.04	-34.0	-34.8	22.7	0.00e+00	0	29	0	4198498304	46	6044
2026-01-04 21:09:27.89	268.26	14.95	-34.1	-34.8	22.7	0.00e+00	0	29	0	4205838336	46	6046
2026-01-04 21:09:28.90	268.13	14.87	-33.9	-34.6	22.8	0.00e+00	0	29	0	4212129792	46	5930
2026-01-04 21:09:29.91	268.00	14.78	-34.0	-34.7	22.8	0.00e+00	0	29	0	4219469824	46	5982
2026-01-04 21:09:30.92	267.87	14.70	-34.0	-34.7	22.8	0.00e+00	0	29	0	4227858432	46	6009
2026-01-04 21:09:31.93	267.73	14.62	-34.0	-34.7	22.8	0.00e+00	0	29	0	4234149888	46	6009
2026-01-04 21:09:32.94	267.60	14.53	-34.0	-34.7	22.8	0.00e+00	0	29	0	4241489920	46	6026
2026-01-04 21:09:33.95	267.48	14.45	-34.0	-34.7	22.9	0.00e+00	0	29	0	4248829952	46	5981
2026-01-04 21:09:34.96	267.35	14.36	-34.3	-35.0	22.7	0.00e+00	0	29	0	4256169984	46	6229
2026-01-04 21:09:35.97	267.22	14.28	-34.4	-35.1	22.6	0.00e+00	0	29	0	4263510016	46	6280
2026-01-04 21:09:36.99	267.09	14.20	-34.4	-35.2	22.6	0.00e+00	0	29	0	4270850048	46	6320
2026-01-04 21:09:38.00	266.96	14.11	-34.3	-35.1	22.6	0.00e+00	0	29	0	4278190080	46	6250
2026-01-04 21:09:39.01	266.84	14.03	-34.5	-35.2	22.5	0.00e+00	0	29	0	4285530112	46	6350
2026-01-04 21:09:40.02	266.71	13.95	-34.5	-35.3	22.5	0.00e+00	0	29	0	4292870144	46	6415
2026-01-04 21:09:41.03	266.59	13.87	-34.5	-35.2	22.5	0.00e+00	0	29	0	4300210176	46	6352
2026-01-04 21:09:42.04	266.47	13.78	-34.6	-35.4	22.4	0.00e+00	0	29	0	4307550208	46	6465
2026-01-04 21:09:43.05	266.34	13.70	-34.8	-35.5	22.4	0.00e+00	0	29	0	4314890240	46	6580
2026-01-04 21:09:44.06	266.22	13.62	-34.7	-35.4	22.4	0.00e+00	0	29	0	4322230272	46	6523
2026-01-04 21:09:45.07	266.10	13.54	-34.7	-35.4	22.4	0.00e+00	0	29	0	4329570304	46	6529
2026-01-04 21:09:46.08	265.98	13.46	-34.8	-35.6	22.3	0.00e+00	0	29	0	4336910336	46	6648
2026-01-04 21:09:47.10	265.86	13.37	-34.5	-35.3	22.4	0.00e+00	0	29	0	4344250368	46	6404
2026-01-04 21:09:48.11	265.74	13.29	-34.6	-35.3	22.4	0.00e+00	0	29	0	4351590400	46	6461
2026-01-04 21:09:49.12	265.62	13.21	-34.7	-35.4	22.4	0.00e+00	0	29	0	4358930432	46	6490
2026-01-04 21:09:50.13	265.50	13.13	-34.7	-35.5	22.4	0.00e+00	0	29	0	4366270464	46	6551
2026-01-04 21:09:51.14	265.39	13.05	-34.8	-35.6	22.4	0.00e+00	0	29	0	4373610496	46	6631
2026-01-04 21:09:52.15	265.27	12.97	-34.7	-35.5	22.5	0.00e+00	0	29	0	4380950528	46	6547
2026-01-04 21:09:53.16	265.15	12.89	-35.0	-35.8	22.5	0.00e+00	0	29	0	4387241984	48	6034
2026-01-04 21:09:54.17	265.04	12.81	-35.0	-35.8	22.4	0.00e+00	0	29	0	4395630592	48	6043
2026-01-04 21:09:55.19	264.92	12.72	-34.5	-35.2	22.5	0.00e+00	0	29	0	4402970624	48	5679
2026-01-04 21:09:56.20	264.81	12.64	-34.5	-35.2	22.7	0.00e+00	0	29	0	4409262080	48	5683
2026-01-04 21:09:57.21	264.69	12.56	-34.5	-35.2	22.7	0.00e+00	0	29	0	4416602112	48	5642
2026-01-04 21:09:58.22	264.58	12.48	-34.5	-35.2	22.6	0.00e+00	0	29	0	4424990720	48	5687
2026-01-04 21:09:59.23	264.47	12.40	-34.4	-35.1	22.8	0.00e+00	0	29	0	4431282176	48	5580
2026-01-04 21:10:00.24	264.36	12.32	-34.4	-35.1	22.7	0.00e+00	0	29	0	4438622208	48	5619
2026-01-04 21:10:01.25	264.25	12.24	-34.5	-35.2	22.8	0.00e+00	0	29	0	4445962240	48	5641
2026-01-04 21:10:02.26	264.14	12.16	-34.4	-35.1	22.8	0.00e+00	0	29	0	4453302272	48	5623
2026-01-04 21:10:03.27	264.03	12.09	-34.6	-35.3	22.7	0.00e+00	0	29	0	4460642304	48	5739
2026-01-04 21:10:04.29	263.92	12.01	-34.6	-35.3	22.5	0.00e+00	0	29	0	4467982336	48	5743
2026-01-04 21:10:05.30	263.81	11.93	-34.5	-35.2	22.8	0.00e+00	0	29	0	4475322368	48	5645
2026-01-04 21:10:06.31	263.70	11.85	-34.6	-35.3	22.7	0.00e+00	0	29	0	4482662400	48	5727
2026-01-04 21:10:07.32	263.59	11.77	-34.7	-35.4	22.5	0.00e+00	0	29	0	4490002432	48	5806
2026-01-04 21:10:08.33	263.49	11.69	-34.6	-35.3	22.6	0.00e+00	0	29	0	4497342464	48	5750
2026-01-04 21:10:09.34	263.38	11.61	-34.6	-35.3	22.6	0.00e+00	0	29	0	4504682496	48	5735
2026-01-04 21:10:10.35	263.28	11.53	-34.7	-35.4	22.6	0.00e+00	0	29	0	4512022528	48	5825
2026-01-04 21:10:11.36	263.17	11.46	-34.6	-35.3	22.7	0.00e+00	0	29	0	4519362560	48	5720
2026-01-04 21:10:12.37	263.07	11.38	-34.8	-35.5	22.5	0.00e+00	0	29	0	4526702592	48	5859
2026-01-04 21:10:13.39	262.96	11.30	-34.6	-35.3	22.6	0.00e+00	0	29	0	4534042624	48	5734
2026-01-04 21:10:14.40	262.86	11.22	-34.6	-35.4	22.6	0.00e+00	0	29	0	4541382656	48	5772
2026-01-04 21:10:15.41	262.75	11.14	-34.7	-35.4	22.5	0.00e+00	0	29	0	4548722688	48	5798
2026-01-04 21:10:16.42	262.65	11.07	-34.9	-35.6	22.3	0.00e+00	0	29	0	4556062720	48	5913
2026-01-04 21:10:17.43	262.55	10.99	-34.9	-35.6	22.3	0.00e+00	0	29	0	4563402752	48	5964
2026-01-04 21:10:18.44	262.45	10.91	-34.7	-35.5	22.4	0.00e+00	0	29	0	4570742784	48	5842
2026-01-04 21:10:19.45	262.35	10.84	-34.8	-35.6	22.3	0.00e+00	0	29	0	4577034240	48	5916
2026-01-04 21:10:20.46	262.25	10.76	-35.1	-35.8	22.1	0.00e+00	0	29	0	4584374272	48	6066
