passes_logs/2026/01/04/R4.6S_Anadyr_2ch/R4.6S_Anadyr_2ch__20260104_010451_SUOMI_NPP_rec.log

#Pass ID: 20260104_010451_SUOMI NPP
#Satellite: SUOMI NPP
#Configuration: NPP
#almurnet v.1.7.20251203
#Start time: 2026-01-04 01:04:52

#Version: 2.2.20231116
#Station: R4.6S_Anadyr_2ch
#Location: 177.4865 lon 64.73178 lat
#TLE: 1 37849U 11061A   25350.92281687  .00000071  00000+0  54882-4 0  9996
#TLE: 2 37849  98.7777 288.2268 0002366 112.8570 247.2856 14.19515404732588

#Time	Az	El	Level	Level2	SNR	BER	BlckErr	Temp	State	Recorded	gain1	gain2
2026-01-04 01:04:52.84	176.29	0.08	-53.3	-66.0	3.4	1.52e+00	0	35	0	0	60	94703
2026-01-04 01:04:53.85	176.32	0.14	-54.0	-69.5	3.6	1.51e+00	0	36	104	0	60	145767
2026-01-04 01:04:54.86	176.35	0.20	-53.9	-69.4	3.6	1.51e+00	0	36	104	0	60	143703
2026-01-04 01:04:55.87	176.37	0.26	-53.9	-69.4	3.6	1.51e+00	0	36	104	0	60	143384
2026-01-04 01:04:56.88	176.40	0.32	-54.2	-69.7	3.5	1.51e+00	0	36	104	0	60	149770
2026-01-04 01:04:57.89	176.43	0.38	-54.1	-69.5	3.6	1.51e+00	0	36	104	0	60	146052
2026-01-04 01:04:58.90	176.46	0.44	-53.5	-69.0	3.6	1.51e+00	0	36	104	0	60	136745
2026-01-04 01:04:59.91	176.49	0.50	-53.0	-68.5	3.6	1.51e+00	0	36	104	0	60	129902
2026-01-04 01:05:00.92	176.51	0.56	-52.8	-68.3	3.6	1.51e+00	0	36	104	0	60	126375
2026-01-04 01:05:01.94	176.54	0.62	-52.6	-68.1	3.6	1.51e+00	0	36	104	0	60	124195
2026-01-04 01:05:02.95	176.57	0.68	-52.4	-68.0	3.6	1.51e+00	0	36	104	0	60	122715
2026-01-04 01:05:03.96	176.60	0.74	-52.5	-68.0	3.6	1.51e+00	0	36	104	0	60	121803
2026-01-04 01:05:04.97	176.63	0.80	-52.4	-67.8	3.6	1.51e+00	0	36	104	0	60	120033
2026-01-04 01:05:05.98	176.66	0.86	-52.3	-67.8	3.6	1.51e+00	0	36	104	0	60	119274
2026-01-04 01:05:06.99	176.68	0.93	-52.2	-67.6	3.6	1.51e+00	0	36	104	0	60	116432
2026-01-04 01:05:08.00	176.71	0.99	-51.8	-67.2	3.6	1.51e+00	0	36	104	0	60	112122
2026-01-04 01:05:09.01	176.74	1.05	-52.1	-67.5	3.6	1.51e+00	0	36	104	0	60	115523
2026-01-04 01:05:10.02	176.77	1.11	-51.9	-67.3	3.6	1.51e+00	0	36	104	0	60	112839
2026-01-04 01:05:11.04	176.80	1.17	-51.7	-67.1	3.6	1.51e+00	0	36	104	0	60	110253
2026-01-04 01:05:12.05	176.83	1.23	-51.9	-67.4	3.6	1.51e+00	0	36	104	0	60	114198
2026-01-04 01:05:13.06	176.86	1.29	-52.1	-67.5	3.6	1.51e+00	0	36	104	0	60	115712
2026-01-04 01:05:14.07	176.89	1.36	-52.1	-67.5	3.6	1.51e+00	0	36	104	0	60	115676
2026-01-04 01:05:15.08	176.92	1.42	-52.0	-67.5	3.6	1.51e+00	0	37	104	0	60	114986
2026-01-04 01:05:16.09	176.95	1.48	-52.0	-67.4	3.6	1.51e+00	0	36	104	0	60	114778
2026-01-04 01:05:17.10	176.98	1.54	-52.2	-67.6	3.6	1.51e+00	0	36	104	0	60	116937
2026-01-04 01:05:18.11	177.01	1.61	-52.3	-67.7	3.6	1.51e+00	0	36	104	0	60	118623
2026-01-04 01:05:19.12	177.04	1.67	-52.1	-67.6	3.6	1.51e+00	0	37	104	0	60	116382
2026-01-04 01:05:20.13	177.07	1.73	-51.9	-67.3	3.6	1.51e+00	0	37	104	0	60	112867
2026-01-04 01:05:21.15	177.10	1.79	-51.6	-67.0	3.6	1.51e+00	0	37	104	0	60	109023
2026-01-04 01:05:22.15	177.13	1.86	-51.6	-67.0	3.6	1.51e+00	0	37	104	0	60	108622
2026-01-04 01:05:23.16	177.16	1.92	-51.6	-66.9	3.6	1.51e+00	0	37	104	0	60	108524
2026-01-04 01:05:24.17	177.19	1.98	-51.5	-66.9	3.6	1.51e+00	0	37	104	0	60	107439
2026-01-04 01:05:25.19	177.22	2.05	-51.4	-66.8	3.6	1.51e+00	0	37	104	0	60	106723
2026-01-04 01:05:26.20	177.25	2.11	-51.5	-66.9	3.6	1.51e+00	0	37	104	0	60	107618
2026-01-04 01:05:27.21	177.28	2.17	-51.5	-66.8	3.6	1.51e+00	0	37	104	0	60	106253
2026-01-04 01:05:28.22	177.31	2.24	-51.4	-66.7	3.6	1.51e+00	0	37	104	0	60	105209
2026-01-04 01:05:29.23	177.35	2.30	-51.4	-66.8	3.6	1.51e+00	0	37	104	0	60	106173
2026-01-04 01:05:30.24	177.38	2.37	-51.4	-66.8	3.6	1.51e+00	0	37	104	0	60	106174
2026-01-04 01:05:31.25	177.41	2.43	-51.3	-66.7	3.6	1.51e+00	0	37	104	0	60	105161
2026-01-04 01:05:32.26	177.44	2.49	-51.3	-66.4	3.6	1.51e+00	0	37	104	0	60	101437
2026-01-04 01:05:33.27	177.47	2.56	-51.4	-65.9	3.6	1.51e+00	0	37	104	0	60	95802
2026-01-04 01:05:34.28	177.50	2.62	-51.5	-65.4	3.6	1.51e+00	0	37	104	0	60	90569
2026-01-04 01:05:35.29	177.54	2.69	-51.4	-64.8	3.6	1.50e+00	0	37	104	0	60	84779
2026-01-04 01:05:36.30	177.57	2.75	-51.5	-64.9	3.6	1.50e+00	0	37	104	0	60	86061
2026-01-04 01:05:37.31	177.60	2.82	-51.5	-65.4	3.6	1.50e+00	0	37	104	0	60	90962
2026-01-04 01:05:38.32	177.63	2.88	-51.7	-66.3	3.6	1.51e+00	0	37	104	0	60	100441
2026-01-04 01:05:39.33	177.66	2.95	-51.7	-65.7	3.6	1.51e+00	0	37	104	0	60	94398
2026-01-04 01:05:40.34	177.70	3.01	-51.4	-63.1	4.2	1.50e+00	0	37	104	0	60	69875
2026-01-04 01:05:41.36	177.73	3.08	-51.0	-58.5	7.0	3.95e-01	0	37	0	0	60	40857
2026-01-04 01:05:42.37	177.76	3.15	-50.1	-54.9	11.0	1.84e-02	92	37	0	2097152	60	27100
2026-01-04 01:05:43.38	177.80	3.21	-49.3	-53.1	13.2	5.31e-04	0	37	0	4194304	60	22110
2026-01-04 01:05:44.39	177.83	3.28	-48.4	-51.4	14.8	7.60e-06	92	37	0	6291456	60	18017
2026-01-04 01:05:45.40	177.86	3.35	-47.8	-50.2	16.4	0.00e+00	0	37	0	7340032	60	15802
2026-01-04 01:05:46.41	177.90	3.41	-46.6	-48.6	17.9	0.00e+00	92	37	0	9437184	60	13101
2026-01-04 01:05:47.42	177.93	3.48	-46.1	-47.9	18.2	0.00e+00	90	37	0	11534336	60	12164
2026-01-04 01:05:48.43	177.96	3.55	-45.4	-47.1	18.9	0.00e+00	0	37	0	13631488	60	11034
2026-01-04 01:05:49.44	178.00	3.61	-45.6	-47.2	18.7	0.00e+00	90	37	0	15728640	60	11197
2026-01-04 01:05:50.45	178.03	3.68	-45.7	-47.4	18.5	0.00e+00	0	37	0	16777216	60	11388
2026-01-04 01:05:51.46	178.07	3.75	-47.7	-50.2	15.8	6.79e-05	92	37	0	18874368	60	15856
2026-01-04 01:05:52.47	178.10	3.81	-48.6	-51.2	17.7	1.24e-01	30	37	0	20971520	60	17797
2026-01-04 01:05:53.49	178.13	3.88	-49.2	-52.9	12.8	1.37e-05	92	37	0	23068672	60	21457
2026-01-04 01:05:54.50	178.17	3.95	-47.9	-50.2	17.7	1.83e-01	92	37	0	25165824	60	15694
2026-01-04 01:05:55.51	178.20	4.02	-48.8	-52.1	14.4	5.13e-02	0	37	0	26214400	60	19553
2026-01-04 01:05:56.52	178.24	4.09	-45.9	-47.7	18.2	0.00e+00	92	37	0	28311552	60	11869
2026-01-04 01:05:57.53	178.27	4.15	-45.7	-47.4	18.3	0.00e+00	0	37	0	30408704	60	11452
2026-01-04 01:05:58.54	178.31	4.22	-46.0	-47.8	18.1	0.00e+00	92	37	0	32505856	60	11978
2026-01-04 01:05:59.55	178.34	4.29	-45.7	-47.5	18.3	0.00e+00	0	37	0	34603008	60	11542
2026-01-04 01:06:00.56	178.38	4.36	-45.9	-47.6	18.4	0.00e+00	92	37	0	36700160	60	11728
2026-01-04 01:06:01.58	178.42	4.43	-45.9	-47.7	18.5	0.00e+00	92	37	0	37748736	60	11839
2026-01-04 01:06:02.59	178.45	4.50	-45.3	-46.9	19.2	0.00e+00	0	37	0	39845888	60	10807
2026-01-04 01:06:03.60	178.49	4.57	-45.4	-47.1	19.0	0.00e+00	45	37	0	41943040	60	10990
2026-01-04 01:06:04.61	178.52	4.64	-45.6	-47.3	18.7	0.00e+00	0	37	0	44040192	60	11339
2026-01-04 01:06:05.62	178.56	4.71	-45.5	-47.1	18.9	0.00e+00	90	37	0	46137344	60	11078
2026-01-04 01:06:06.63	178.60	4.78	-45.2	-46.8	19.3	0.00e+00	0	37	0	47185920	60	10607
2026-01-04 01:06:07.64	178.63	4.85	-45.4	-47.0	18.7	0.00e+00	90	37	0	49283072	60	10866
2026-01-04 01:06:08.65	178.67	4.92	-45.5	-47.1	19.1	0.00e+00	92	37	0	51380224	60	11092
2026-01-04 01:06:09.66	178.71	4.99	-45.7	-47.4	18.8	0.00e+00	0	37	0	53477376	60	11372
2026-01-04 01:06:10.67	178.74	5.06	-45.4	-47.0	19.2	0.00e+00	91	37	0	55574528	60	10944
2026-01-04 01:06:11.69	178.78	5.13	-45.8	-47.4	19.0	0.00e+00	0	37	0	56623104	60	11434
2026-01-04 01:06:12.70	178.82	5.20	-45.8	-47.4	18.9	0.00e+00	92	37	0	58720256	60	11452
2026-01-04 01:06:13.71	178.85	5.27	-45.7	-47.3	18.9	0.00e+00	0	37	0	60817408	60	11260
2026-01-04 01:06:14.72	178.89	5.34	-46.2	-47.9	18.9	0.00e+00	92	37	0	62914560	60	12099
2026-01-04 01:06:15.73	178.93	5.41	-45.9	-47.6	18.8	0.00e+00	92	37	0	65011712	60	11684
2026-01-04 01:06:16.74	178.97	5.48	-45.8	-47.4	18.9	0.00e+00	0	37	0	66060288	60	11425
2026-01-04 01:06:17.75	179.01	5.55	-46.1	-47.7	18.7	0.00e+00	92	37	0	68157440	60	11893
2026-01-04 01:06:18.76	179.04	5.63	-46.0	-47.6	18.9	0.00e+00	0	37	0	70254592	60	11717
2026-01-04 01:06:19.77	179.08	5.70	-45.7	-47.3	19.1	0.00e+00	92	37	0	72351744	60	11245
2026-01-04 01:06:20.79	179.12	5.77	-46.2	-47.9	18.7	0.00e+00	0	37	0	74448896	60	12045
2026-01-04 01:06:21.80	179.16	5.84	-46.3	-47.9	19.0	0.00e+00	92	37	0	75497472	60	12149
2026-01-04 01:06:22.81	179.20	5.92	-45.5	-47.0	19.4	0.00e+00	36	37	0	77594624	60	10961
2026-01-04 01:06:23.82	179.24	5.99	-45.3	-46.8	19.4	0.00e+00	0	37	0	79691776	60	10620
2026-01-04 01:06:24.83	179.28	6.06	-45.1	-46.6	19.8	0.00e+00	92	37	0	81788928	60	10380
2026-01-04 01:06:25.84	179.32	6.14	-44.9	-46.3	19.7	0.00e+00	0	37	0	83886080	60	10080
2026-01-04 01:06:26.85	179.36	6.21	-44.9	-46.3	19.9	0.00e+00	61	37	0	84934656	60	10082
2026-01-04 01:06:27.86	179.40	6.28	-44.7	-46.1	20.0	0.00e+00	0	37	0	87031808	60	9843
2026-01-04 01:06:28.87	179.44	6.36	-44.9	-46.3	20.0	0.00e+00	92	37	0	89128960	60	10098
2026-01-04 01:06:29.88	179.48	6.43	-44.9	-46.3	20.1	0.00e+00	0	37	0	91226112	60	10026
2026-01-04 01:06:30.89	179.52	6.50	-44.8	-46.1	20.2	0.00e+00	92	37	0	93323264	60	9881
2026-01-04 01:06:31.90	179.56	6.58	-44.8	-46.1	20.1	0.00e+00	92	37	0	95420416	60	9888
2026-01-04 01:06:32.91	179.60	6.65	-44.8	-46.1	20.0	0.00e+00	0	37	0	96468992	60	9891
2026-01-04 01:06:33.93	179.64	6.73	-44.7	-46.0	20.2	0.00e+00	80	37	0	98566144	60	9742
2026-01-04 01:06:34.94	179.68	6.80	-44.5	-45.9	20.3	0.00e+00	0	37	0	100663296	60	9575
2026-01-04 01:06:35.95	179.73	6.88	-44.4	-45.7	20.3	0.00e+00	92	37	0	102760448	60	9358
2026-01-04 01:06:36.96	179.77	6.95	-44.2	-45.5	20.7	0.00e+00	39	37	0	104857600	60	9149
2026-01-04 01:06:37.97	179.81	7.03	-44.2	-45.5	20.9	0.00e+00	92	37	0	105906176	60	9133
2026-01-04 01:06:38.98	179.85	7.11	-44.0	-45.2	20.9	0.00e+00	92	37	0	108003328	60	8918
2026-01-04 01:06:39.99	179.89	7.18	-44.1	-45.4	20.9	0.00e+00	0	37	0	110100480	60	9053
2026-01-04 01:06:41.00	179.94	7.26	-44.0	-45.3	20.9	0.00e+00	90	37	0	112197632	60	8936
2026-01-04 01:06:42.01	179.98	7.34	-44.1	-45.3	21.1	0.00e+00	0	37	0	114294784	60	8987
2026-01-04 01:06:43.03	180.02	7.41	-44.5	-45.7	21.1	0.00e+00	92	37	0	115343360	60	9437
2026-01-04 01:06:44.04	180.06	7.49	-44.0	-45.2	21.3	0.00e+00	0	37	0	117440512	60	8885
2026-01-04 01:06:45.05	180.11	7.57	-44.7	-45.9	21.0	0.00e+00	92	37	0	119537664	60	9665
2026-01-04 01:06:46.06	180.15	7.64	-44.1	-45.3	21.2	0.00e+00	92	37	0	121634816	60	8994
2026-01-04 01:06:47.07	180.20	7.72	-44.0	-45.2	21.1	0.00e+00	0	37	0	123731968	60	8921
2026-01-04 01:06:48.08	180.24	7.80	-44.1	-45.3	20.8	0.00e+00	91	37	0	124780544	60	8996
2026-01-04 01:06:49.09	180.28	7.88	-44.0	-45.2	21.1	0.00e+00	0	37	0	126877696	60	8870
2026-01-04 01:06:50.10	180.33	7.96	-44.0	-45.2	21.3	0.00e+00	92	37	0	128974848	60	8895
2026-01-04 01:06:51.11	180.37	8.04	-43.7	-44.9	21.1	0.00e+00	0	37	0	131072000	60	8580
2026-01-04 01:06:52.12	180.42	8.11	-43.9	-45.1	21.2	0.00e+00	92	37	0	133169152	60	8744
2026-01-04 01:06:53.14	180.46	8.19	-43.7	-44.9	21.3	0.00e+00	90	37	0	134217728	60	8543
2026-01-04 01:06:54.15	180.51	8.27	-43.8	-44.9	21.3	0.00e+00	0	37	0	136314880	60	8608
2026-01-04 01:06:55.16	180.55	8.35	-44.0	-45.1	21.5	0.00e+00	63	37	0	138412032	60	8799
2026-01-04 01:06:56.17	180.60	8.43	-44.2	-45.4	21.3	0.00e+00	0	37	0	140509184	60	9067
2026-01-04 01:06:57.18	180.64	8.51	-44.4	-45.6	21.0	0.00e+00	90	37	0	142606336	60	9314
2026-01-04 01:06:58.19	180.69	8.59	-44.2	-45.4	21.0	0.00e+00	0	37	0	144703488	60	9115
2026-01-04 01:06:59.20	180.74	8.67	-44.2	-45.4	21.3	0.00e+00	92	37	0	145752064	60	9066
2026-01-04 01:07:00.21	180.78	8.75	-43.9	-45.0	21.5	0.00e+00	77	37	0	147849216	60	8699
2026-01-04 01:07:01.22	180.83	8.83	-43.7	-44.8	21.5	0.00e+00	0	37	0	149946368	60	8503
2026-01-04 01:07:02.23	180.88	8.92	-43.8	-45.0	21.4	0.00e+00	92	37	0	152043520	60	8671
2026-01-04 01:07:03.25	180.93	9.00	-44.1	-45.3	21.3	0.00e+00	28	37	0	154140672	60	8971
2026-01-04 01:07:04.26	180.97	9.08	-44.3	-45.5	21.2	0.00e+00	93	37	0	155189248	60	9156
2026-01-04 01:07:05.27	181.02	9.16	-44.5	-45.7	21.3	0.00e+00	0	37	0	157286400	60	9428
2026-01-04 01:07:06.28	181.07	9.24	-44.2	-45.3	21.5	0.00e+00	91	37	0	159383552	60	9009
2026-01-04 01:07:07.29	181.12	9.33	-43.9	-45.1	21.5	0.00e+00	61	37	0	161480704	60	8733
2026-01-04 01:07:08.30	181.17	9.41	-44.1	-45.3	21.5	0.00e+00	20	37	0	163577856	60	8996
2026-01-04 01:07:09.31	181.22	9.49	-44.2	-45.3	21.7	0.00e+00	92	37	0	164626432	60	9021
2026-01-04 01:07:10.32	181.26	9.58	-44.2	-45.3	21.7	0.00e+00	0	37	0	166723584	60	9025
2026-01-04 01:07:11.33	181.31	9.66	-44.1	-45.3	21.6	0.00e+00	91	37	0	168820736	60	8945
2026-01-04 01:07:12.35	181.36	9.74	-44.0	-45.1	21.8	0.00e+00	0	37	0	170917888	60	8754
2026-01-04 01:07:13.36	181.41	9.83	-44.1	-45.2	21.5	0.00e+00	91	37	0	173015040	60	8892
2026-01-04 01:07:14.37	181.46	9.91	-43.6	-44.7	21.9	0.00e+00	17	37	0	174063616	60	8416
2026-01-04 01:07:15.38	181.52	10.00	-43.5	-44.6	21.8	0.00e+00	92	37	0	176160768	60	8282
2026-01-04 01:07:16.39	181.57	10.08	-44.2	-45.3	21.8	0.00e+00	92	37	0	178257920	60	9021
2026-01-04 01:07:17.40	181.62	10.17	-44.3	-45.5	21.8	0.00e+00	0	37	0	180355072	60	9138
2026-01-04 01:07:18.41	181.67	10.25	-44.3	-45.4	21.9	0.00e+00	69	37	0	182452224	60	9107
2026-01-04 01:07:19.42	181.72	10.34	-44.0	-45.1	21.9	0.00e+00	0	37	0	184549376	60	8757
2026-01-04 01:07:20.43	181.77	10.42	-43.4	-44.5	22.0	0.00e+00	92	37	0	185597952	60	8158
2026-01-04 01:07:21.44	181.82	10.51	-43.8	-44.9	21.9	0.00e+00	25	37	0	187695104	60	8597
2026-01-04 01:07:22.45	181.88	10.60	-43.3	-44.3	22.0	0.00e+00	92	37	0	189792256	60	8041
2026-01-04 01:07:23.47	181.93	10.68	-43.5	-44.6	21.9	0.00e+00	92	37	0	191889408	60	8294
2026-01-04 01:07:24.48	181.98	10.77	-43.5	-44.6	22.0	0.00e+00	0	37	0	193986560	60	8273
2026-01-04 01:07:25.49	182.04	10.86	-43.7	-44.9	21.8	0.00e+00	62	37	0	195035136	60	8546
2026-01-04 01:07:26.50	182.09	10.95	-43.5	-44.6	22.0	0.00e+00	0	37	0	197132288	60	8315
2026-01-04 01:07:27.51	182.14	11.03	-43.2	-44.3	21.9	0.00e+00	90	37	0	199229440	60	8037
2026-01-04 01:07:28.52	182.20	11.12	-43.4	-44.5	21.9	0.00e+00	9	37	0	201326592	60	8164
2026-01-04 01:07:29.53	182.25	11.21	-43.2	-44.3	22.0	0.00e+00	90	37	0	203423744	60	8009
2026-01-04 01:07:30.54	182.31	11.30	-43.1	-44.2	22.0	0.00e+00	92	37	0	204472320	60	7942
2026-01-04 01:07:31.55	182.36	11.39	-43.2	-44.3	21.9	0.00e+00	0	37	0	206569472	60	8007
2026-01-04 01:07:32.56	182.42	11.48	-42.9	-44.0	22.2	0.00e+00	92	37	0	208666624	60	7717
2026-01-04 01:07:33.58	182.47	11.57	-43.1	-44.2	22.1	0.00e+00	0	37	0	210763776	60	7904
2026-01-04 01:07:34.59	182.53	11.66	-43.0	-44.1	22.1	0.00e+00	92	37	0	212860928	60	7789
2026-01-04 01:07:35.60	182.59	11.75	-43.1	-44.2	22.2	0.00e+00	0	37	0	213909504	60	7882
2026-01-04 01:07:36.61	182.64	11.84	-43.3	-44.4	22.1	0.00e+00	92	37	0	216006656	60	8051
2026-01-04 01:07:37.62	182.70	11.93	-43.0	-44.1	22.2	0.00e+00	90	37	0	218103808	60	7804
2026-01-04 01:07:38.63	182.76	12.02	-43.2	-44.3	22.2	0.00e+00	0	37	0	220200960	60	7971
2026-01-04 01:07:39.64	182.82	12.11	-42.9	-44.0	22.4	0.00e+00	90	37	0	222298112	60	7714
2026-01-04 01:07:40.65	182.87	12.21	-43.0	-44.1	22.3	0.00e+00	0	37	0	224395264	60	7795
2026-01-04 01:07:41.66	182.93	12.30	-43.2	-44.3	22.2	0.00e+00	92	37	0	225443840	60	7991
2026-01-04 01:07:42.67	182.99	12.39	-43.0	-44.0	22.4	0.00e+00	0	37	0	227540992	60	7727
2026-01-04 01:07:43.69	183.05	12.49	-42.8	-43.8	22.4	0.00e+00	90	37	0	229638144	60	7586
2026-01-04 01:07:44.70	183.11	12.58	-42.9	-43.9	22.5	0.00e+00	77	37	0	231735296	60	7663
2026-01-04 01:07:45.71	183.17	12.67	-43.2	-44.2	22.5	0.00e+00	0	37	0	233832448	60	7916
2026-01-04 01:07:46.72	183.23	12.77	-42.7	-43.7	22.7	0.00e+00	92	37	0	234881024	60	7494
2026-01-04 01:07:47.73	183.29	12.86	-43.1	-44.1	22.5	0.00e+00	0	37	0	236978176	60	7816
2026-01-04 01:07:48.74	183.35	12.96	-43.0	-44.0	22.4	0.00e+00	92	37	0	239075328	60	7728
2026-01-04 01:07:49.75	183.41	13.05	-42.6	-43.6	22.7	0.00e+00	0	37	0	241172480	60	7412
2026-01-04 01:07:50.76	183.48	13.15	-42.5	-43.5	22.6	0.00e+00	92	37	0	243269632	60	7311
2026-01-04 01:07:51.78	183.54	13.24	-42.6	-43.6	22.8	0.00e+00	82	37	0	244318208	60	7391
2026-01-04 01:07:52.79	183.60	13.34	-42.5	-43.5	22.8	0.00e+00	63	37	0	246415360	60	7301
2026-01-04 01:07:53.80	183.66	13.43	-42.6	-43.6	22.7	0.00e+00	90	37	0	248512512	60	7363
2026-01-04 01:07:54.81	183.73	13.53	-42.4	-43.3	23.0	0.00e+00	0	37	0	250609664	60	7131
2026-01-04 01:07:55.82	183.79	13.63	-42.4	-43.4	22.9	0.00e+00	69	37	0	252706816	60	7207
2026-01-04 01:07:56.83	183.85	13.73	-42.7	-43.7	22.8	0.00e+00	0	37	0	253755392	60	7440
2026-01-04 01:07:57.84	183.92	13.82	-42.5	-43.5	22.9	0.00e+00	90	37	0	255852544	60	7289
2026-01-04 01:07:58.85	183.98	13.92	-42.5	-43.5	22.9	0.00e+00	40	37	0	257949696	60	7270
2026-01-04 01:07:59.87	184.05	14.02	-42.4	-43.3	23.1	0.00e+00	14	37	0	260046848	60	7147
2026-01-04 01:08:00.88	184.11	14.12	-42.4	-43.3	22.9	0.00e+00	92	37	0	262144000	60	7148
2026-01-04 01:08:01.89	184.18	14.22	-42.9	-43.9	22.5	0.00e+00	0	37	0	263192576	60	7638
2026-01-04 01:08:02.90	184.25	14.32	-42.1	-43.1	23.0	0.00e+00	80	37	0	265289728	60	6928
2026-01-04 01:08:03.91	184.31	14.42	-42.6	-43.6	23.1	0.00e+00	0	37	0	267386880	60	7353
2026-01-04 01:08:04.92	184.38	14.52	-42.5	-43.5	23.0	0.00e+00	92	37	0	269484032	60	7319
2026-01-04 01:08:05.93	184.45	14.62	-42.5	-43.4	22.9	0.00e+00	0	37	0	271581184	60	7251
2026-01-04 01:08:06.94	184.52	14.72	-42.4	-43.3	23.0	0.00e+00	92	37	0	272629760	60	7145
2026-01-04 01:08:07.95	184.59	14.82	-42.1	-43.1	23.1	0.00e+00	92	37	0	274726912	60	6940
2026-01-04 01:08:08.96	184.65	14.93	-42.0	-42.9	23.3	0.00e+00	0	37	0	276824064	60	6778
2026-01-04 01:08:09.98	184.73	15.03	-42.2	-43.1	23.3	0.00e+00	92	37	0	278921216	60	6997
2026-01-04 01:08:10.99	184.80	15.13	-42.1	-43.1	23.3	0.00e+00	0	37	0	281018368	60	6935
2026-01-04 01:08:12.00	184.87	15.24	-42.0	-42.9	23.2	0.00e+00	90	37	0	282066944	60	6846
2026-01-04 01:08:13.01	184.94	15.34	-41.8	-42.7	23.4	0.00e+00	0	37	0	284164096	60	6666
2026-01-04 01:08:14.02	185.01	15.44	-41.7	-42.6	23.4	0.00e+00	92	37	0	286261248	60	6614
2026-01-04 01:08:15.03	185.08	15.55	-41.8	-42.7	23.3	0.00e+00	92	37	0	288358400	60	6662
2026-01-04 01:08:16.04	185.15	15.65	-41.5	-42.4	23.5	0.00e+00	0	37	0	290455552	60	6437
2026-01-04 01:08:17.05	185.22	15.76	-41.6	-42.5	23.3	0.00e+00	92	37	0	292552704	60	6483
2026-01-04 01:08:18.06	185.30	15.86	-41.5	-42.4	23.4	0.00e+00	0	37	0	293601280	60	6416
2026-01-04 01:08:19.08	185.37	15.97	-41.6	-42.6	23.3	0.00e+00	64	37	0	295698432	60	6551
2026-01-04 01:08:20.09	185.45	16.08	-41.6	-42.5	23.5	0.00e+00	8	37	0	297795584	60	6478
2026-01-04 01:08:21.10	185.52	16.18	-41.6	-42.6	23.2	0.00e+00	92	37	0	299892736	60	6545
2026-01-04 01:08:22.11	185.60	16.29	-41.7	-42.6	23.3	0.00e+00	81	37	0	301989888	60	6595
2026-01-04 01:08:23.12	185.67	16.40	-41.6	-42.6	23.3	0.00e+00	0	37	0	303038464	60	6554
2026-01-04 01:08:24.13	185.75	16.51	-41.7	-42.6	23.3	0.00e+00	92	37	0	305135616	60	6583
2026-01-04 01:08:25.14	185.83	16.62	-41.8	-42.8	23.2	0.00e+00	0	37	0	307232768	60	6719
2026-01-04 01:08:26.15	185.90	16.72	-41.9	-42.8	23.2	0.00e+00	92	37	0	309329920	60	6765
2026-01-04 01:08:27.16	185.98	16.83	-41.9	-42.9	23.1	0.00e+00	0	37	0	311427072	60	6783
2026-01-04 01:08:28.17	186.06	16.94	-41.9	-42.8	23.1	0.00e+00	92	37	0	312475648	60	6754
2026-01-04 01:08:29.19	186.14	17.06	-41.6	-42.5	23.3	0.00e+00	92	37	0	314572800	60	6522
2026-01-04 01:08:30.20	186.22	17.17	-41.6	-42.5	23.3	0.00e+00	33	37	0	316669952	60	6513
2026-01-04 01:08:31.21	186.30	17.28	-41.7	-42.7	23.2	0.00e+00	92	37	0	318767104	60	6656
2026-01-04 01:08:32.22	186.38	17.39	-41.2	-42.1	23.8	0.00e+00	0	37	0	320864256	60	6212
2026-01-04 01:08:33.23	186.46	17.50	-41.2	-42.1	23.8	0.00e+00	90	37	0	321912832	60	6174
2026-01-04 01:08:34.24	186.54	17.61	-41.1	-42.0	23.8	0.00e+00	0	37	0	324009984	60	6142
2026-01-04 01:08:35.25	186.62	17.73	-41.1	-41.9	23.8	0.00e+00	90	37	0	326107136	60	6098
2026-01-04 01:08:36.26	186.71	17.84	-41.0	-41.9	23.8	0.00e+00	79	37	0	328204288	60	6066
2026-01-04 01:08:37.27	186.79	17.96	-41.1	-42.0	23.8	0.00e+00	89	37	0	330301440	60	6108
2026-01-04 01:08:38.29	186.88	18.07	-40.8	-41.7	24.0	0.00e+00	92	37	0	332398592	60	5926
2026-01-04 01:08:39.30	186.96	18.19	-40.9	-41.8	24.0	0.00e+00	0	37	0	333447168	60	5984
2026-01-04 01:08:40.31	187.05	18.30	-40.9	-41.7	23.9	0.00e+00	92	37	0	335544320	60	5963
2026-01-04 01:08:41.32	187.13	18.42	-40.7	-41.6	24.1	0.00e+00	0	37	0	337641472	60	5837
2026-01-04 01:08:42.33	187.22	18.53	-40.9	-41.8	23.9	0.00e+00	92	37	0	339738624	60	6005
2026-01-04 01:08:43.34	187.31	18.65	-40.9	-41.7	23.8	0.00e+00	45	37	0	341835776	60	5948
2026-01-04 01:08:44.35	187.39	18.77	-41.0	-41.9	23.8	0.00e+00	6	37	0	342884352	60	6064
2026-01-04 01:08:45.36	187.48	18.89	-41.0	-41.8	23.9	0.00e+00	90	37	0	344981504	60	6025
2026-01-04 01:08:46.37	187.57	19.01	-41.1	-42.0	23.8	0.00e+00	0	37	0	347078656	60	6144
2026-01-04 01:08:47.39	187.66	19.13	-41.2	-42.1	23.8	0.00e+00	92	37	0	349175808	60	6215
2026-01-04 01:08:48.39	187.75	19.24	-41.2	-42.1	23.7	0.00e+00	0	37	0	351272960	60	6191
2026-01-04 01:08:49.41	187.84	19.37	-41.3	-42.2	23.8	0.00e+00	90	37	0	352321536	60	6271
2026-01-04 01:08:50.42	187.94	19.49	-41.4	-42.3	23.6	0.00e+00	46	37	0	354418688	60	6369
2026-01-04 01:08:51.43	188.03	19.61	-41.4	-42.3	23.7	0.00e+00	90	37	0	356515840	60	6339
2026-01-04 01:08:52.44	188.12	19.73	-41.3	-42.2	23.6	0.00e+00	92	37	0	358612992	60	6307
2026-01-04 01:08:53.45	188.22	19.85	-41.5	-42.4	23.6	0.00e+00	0	37	0	360710144	60	6459
2026-01-04 01:08:54.46	188.31	19.97	-41.6	-42.5	23.4	0.00e+00	87	37	0	361758720	60	6536
2026-01-04 01:08:55.47	188.41	20.10	-41.6	-42.6	23.5	0.00e+00	0	37	0	363855872	60	6557
2026-01-04 01:08:56.48	188.50	20.22	-41.4	-42.3	23.4	0.00e+00	92	37	0	365953024	60	6387
2026-01-04 01:08:57.49	188.60	20.34	-41.3	-42.2	23.7	0.00e+00	0	37	0	368050176	60	6280
2026-01-04 01:08:58.50	188.70	20.47	-41.3	-42.2	23.6	0.00e+00	90	37	0	370147328	60	6285
2026-01-04 01:08:59.51	188.80	20.59	-41.5	-42.4	23.6	0.00e+00	92	37	0	372244480	60	6430
2026-01-04 01:09:00.53	188.90	20.72	-41.1	-42.0	23.9	0.00e+00	0	37	0	373293056	60	6126
2026-01-04 01:09:01.54	189.00	20.85	-40.8	-41.7	24.1	0.00e+00	92	37	0	375390208	60	5938
2026-01-04 01:09:02.55	189.10	20.98	-40.6	-41.5	24.1	0.00e+00	0	37	0	377487360	60	5786
2026-01-04 01:09:03.56	189.20	21.10	-40.4	-41.2	24.2	0.00e+00	92	37	0	379584512	60	5621
2026-01-04 01:09:04.57	189.30	21.23	-40.5	-41.3	24.4	0.00e+00	17	37	0	381681664	60	5684
2026-01-04 01:09:05.58	189.41	21.36	-40.5	-41.4	24.2	0.00e+00	92	37	0	382730240	60	5723
2026-01-04 01:09:06.59	189.51	21.49	-40.5	-41.4	24.3	0.00e+00	90	37	0	384827392	60	5732
2026-01-04 01:09:07.60	189.61	21.62	-40.4	-41.3	24.3	0.00e+00	0	37	0	386924544	60	5661
2026-01-04 01:09:08.61	189.72	21.75	-40.5	-41.4	24.3	0.00e+00	51	37	0	389021696	60	5734
2026-01-04 01:09:09.62	189.83	21.88	-40.7	-41.5	24.2	0.00e+00	0	37	0	391118848	60	5820
2026-01-04 01:09:10.63	189.93	22.01	-40.5	-41.4	24.3	0.00e+00	90	37	0	392167424	60	5698
2026-01-04 01:09:11.64	190.04	22.14	-40.7	-41.5	24.2	0.00e+00	0	37	0	394264576	60	5824
2026-01-04 01:09:12.65	190.15	22.28	-40.5	-41.3	24.4	0.00e+00	92	37	0	396361728	60	5691
2026-01-04 01:09:13.66	190.26	22.41	-40.3	-41.1	24.5	0.00e+00	92	37	0	398458880	60	5531
2026-01-04 01:09:14.68	190.38	22.55	-40.4	-41.2	24.4	0.00e+00	0	37	0	400556032	58	6303
2026-01-04 01:09:15.69	190.49	22.68	-40.0	-40.8	24.6	0.00e+00	92	37	0	401604608	58	5997
2026-01-04 01:09:16.70	190.60	22.82	-39.9	-40.7	24.7	0.00e+00	0	37	0	403701760	58	5916
2026-01-04 01:09:17.71	190.71	22.95	-39.9	-40.7	24.7	0.00e+00	92	37	0	405798912	58	5947
2026-01-04 01:09:18.72	190.83	23.09	-40.0	-40.7	24.2	0.00e+00	0	37	0	407896064	58	5964
2026-01-04 01:09:19.73	190.95	23.22	-39.9	-40.7	24.7	0.00e+00	92	37	0	409993216	58	5934
2026-01-04 01:09:20.74	191.06	23.36	-39.9	-40.7	24.7	0.00e+00	92	37	0	411041792	58	5950
2026-01-04 01:09:21.75	191.18	23.50	-39.8	-40.6	24.8	0.00e+00	0	37	0	413138944	58	5891
2026-01-04 01:09:22.76	191.30	23.64	-39.8	-40.6	24.8	0.00e+00	92	37	0	415236096	58	5885
2026-01-04 01:09:23.77	191.42	23.78	-40.0	-40.8	24.7	0.00e+00	0	37	0	417333248	58	5995
2026-01-04 01:09:24.79	191.54	23.92	-39.9	-40.7	24.8	0.00e+00	91	37	0	419430400	58	5941
2026-01-04 01:09:25.79	191.66	24.06	-39.8	-40.6	24.9	0.00e+00	0	37	0	420478976	58	5857
2026-01-04 01:09:26.80	191.78	24.20	-40.4	-41.2	24.5	0.00e+00	91	37	0	422576128	58	6280
2026-01-04 01:09:27.81	191.91	24.34	-40.1	-40.9	24.6	0.00e+00	42	37	0	424673280	58	6084
2026-01-04 01:09:28.83	192.04	24.49	-40.6	-41.4	24.4	0.00e+00	0	37	0	426770432	58	6434
2026-01-04 01:09:29.84	192.16	24.63	-40.6	-41.4	24.5	0.00e+00	92	37	0	428867584	58	6445
2026-01-04 01:09:30.85	192.29	24.77	-40.8	-41.7	24.1	0.00e+00	0	37	0	429916160	58	6631
2026-01-04 01:09:31.86	192.42	24.92	-41.0	-41.9	24.1	0.00e+00	84	37	0	432013312	60	6056
2026-01-04 01:09:32.87	192.55	25.06	-40.5	-41.3	24.4	0.00e+00	33	37	0	434110464	60	5693
2026-01-04 01:09:33.88	192.68	25.21	-41.0	-41.9	24.1	0.00e+00	91	37	0	436207616	60	6045
2026-01-04 01:09:34.89	192.81	25.36	-41.1	-42.0	24.0	0.00e+00	0	37	0	438304768	60	6134
2026-01-04 01:09:35.90	192.94	25.50	-41.1	-42.0	23.9	0.00e+00	0	37	0	440401920	60	6108
2026-01-04 01:09:36.91	193.08	25.65	-41.3	-42.2	23.9	0.00e+00	90	37	0	441450496	60	6253
2026-01-04 01:09:37.93	193.22	25.80	-41.6	-42.5	23.7	0.00e+00	0	37	0	443547648	60	6504
2026-01-04 01:09:38.94	193.35	25.95	-41.7	-42.7	23.5	0.00e+00	91	37	0	445644800	60	6627
2026-01-04 01:09:39.95	193.49	26.10	-41.6	-42.5	23.5	0.00e+00	0	37	0	447741952	60	6514
2026-01-04 01:09:40.96	193.63	26.25	-42.1	-43.0	23.3	0.00e+00	90	37	0	449839104	60	6912
2026-01-04 01:09:41.97	193.77	26.40	-41.6	-42.5	23.5	0.00e+00	0	37	0	450887680	60	6496
2026-01-04 01:09:42.98	193.91	26.55	-41.8	-42.7	23.4	0.00e+00	41	37	0	452984832	60	6668
2026-01-04 01:09:43.99	194.06	26.71	-41.6	-42.5	23.6	0.00e+00	92	37	0	455081984	60	6510
2026-01-04 01:09:45.00	194.20	26.86	-41.8	-42.7	23.4	0.00e+00	0	37	0	457179136	60	6643
2026-01-04 01:09:46.01	194.35	27.01	-41.8	-42.7	23.5	0.00e+00	45	37	0	459276288	60	6634
2026-01-04 01:09:47.02	194.49	27.17	-41.6	-42.6	23.7	0.00e+00	0	37	0	460324864	60	6546
2026-01-04 01:09:48.04	194.65	27.32	-41.9	-42.8	23.5	0.00e+00	70	37	0	462422016	60	6736
2026-01-04 01:09:49.05	194.80	27.48	-41.7	-42.6	23.7	0.00e+00	0	37	0	464519168	60	6546
2026-01-04 01:09:50.06	194.95	27.64	-42.0	-42.9	23.5	0.00e+00	0	37	0	466616320	60	6801
2026-01-04 01:09:51.07	195.10	27.79	-41.8	-42.7	23.5	0.00e+00	84	37	0	468713472	60	6670
2026-01-04 01:09:52.08	195.26	27.95	-42.1	-43.0	23.3	0.00e+00	0	37	0	469762048	60	6904
2026-01-04 01:09:53.09	195.41	28.11	-42.1	-43.1	23.3	0.00e+00	53	37	0	471859200	60	6953
2026-01-04 01:09:54.10	195.57	28.27	-42.2	-43.2	23.2	0.00e+00	0	37	0	473956352	60	7013
2026-01-04 01:09:55.11	195.73	28.43	-42.1	-43.1	23.2	0.00e+00	92	37	0	476053504	60	6929
2026-01-04 01:09:56.12	195.89	28.59	-42.3	-43.3	23.2	0.00e+00	0	37	0	478150656	60	7134
2026-01-04 01:09:57.13	196.05	28.75	-42.6	-43.6	22.9	0.00e+00	83	37	0	479199232	60	7365
2026-01-04 01:09:58.14	196.22	28.91	-42.3	-43.2	22.9	0.00e+00	26	37	0	481296384	60	7064
2026-01-04 01:09:59.16	196.38	29.08	-43.1	-44.1	22.4	0.00e+00	0	37	0	483393536	60	7862
2026-01-04 01:10:00.17	196.55	29.24	-43.4	-44.5	22.1	0.00e+00	78	37	0	485490688	60	8179
2026-01-04 01:10:01.18	196.72	29.41	-43.9	-45.0	21.4	0.00e+00	0	38	0	487587840	60	8709
2026-01-04 01:10:02.19	196.89	29.57	-44.2	-45.4	21.4	0.00e+00	92	37	0	489684992	60	9057
2026-01-04 01:10:03.20	197.06	29.74	-44.4	-45.6	21.1	0.00e+00	0	37	0	490733568	60	9289
2026-01-04 01:10:04.21	197.24	29.90	-44.6	-45.9	20.8	0.00e+00	92	37	0	492830720	60	9634
2026-01-04 01:10:05.22	197.41	30.07	-44.5	-45.7	21.1	0.00e+00	92	37	0	494927872	60	9383
2026-01-04 01:10:06.23	197.59	30.24	-44.7	-45.9	21.0	0.00e+00	0	37	0	497025024	60	9651
2026-01-04 01:10:07.24	197.77	30.41	-44.8	-46.1	21.2	0.00e+00	83	37	0	499122176	60	9786
2026-01-04 01:10:08.26	197.95	30.58	-44.8	-46.1	20.8	0.00e+00	0	37	0	500170752	60	9824
2026-01-04 01:10:09.27	198.13	30.75	-44.5	-45.8	21.0	0.00e+00	89	37	0	502267904	60	9482
2026-01-04 01:10:10.28	198.32	30.92	-44.4	-45.6	21.2	0.00e+00	0	37	0	504365056	60	9275
2026-01-04 01:10:11.29	198.51	31.09	-44.8	-46.0	21.0	0.00e+00	90	37	0	506462208	60	9733
2026-01-04 01:10:12.30	198.69	31.26	-44.5	-45.7	21.2	0.00e+00	48	37	0	508559360	60	9402
2026-01-04 01:10:13.31	198.89	31.43	-44.1	-45.2	21.6	0.00e+00	0	37	0	509607936	60	8922
2026-01-04 01:10:14.32	199.08	31.61	-43.9	-45.1	21.6	0.00e+00	92	37	0	511705088	60	8733
2026-01-04 01:10:15.33	199.27	31.78	-43.9	-45.1	21.6	0.00e+00	0	37	0	513802240	60	8726
2026-01-04 01:10:16.34	199.47	31.95	-43.3	-44.4	22.0	0.00e+00	92	37	0	515899392	60	8094
2026-01-04 01:10:17.35	199.67	32.13	-43.3	-44.4	22.0	0.00e+00	0	37	0	517996544	60	8083
2026-01-04 01:10:18.36	199.87	32.30	-43.1	-44.1	22.2	0.00e+00	92	37	0	519045120	60	7840
2026-01-04 01:10:19.38	200.07	32.48	-43.4	-44.5	22.0	0.00e+00	46	37	0	521142272	60	8182
2026-01-04 01:10:20.39	200.28	32.66	-43.4	-44.5	21.8	0.00e+00	0	38	0	523239424	60	8166
2026-01-04 01:10:21.40	200.49	32.84	-43.8	-44.9	21.7	0.00e+00	92	37	0	525336576	60	8567
2026-01-04 01:10:22.41	200.70	33.02	-43.8	-44.9	21.5	0.00e+00	0	37	0	527433728	60	8599
2026-01-04 01:10:23.42	200.91	33.20	-43.9	-45.1	21.5	0.00e+00	70	37	0	529530880	60	8734
2026-01-04 01:10:24.43	201.12	33.38	-44.1	-45.3	21.4	0.00e+00	0	37	0	530579456	60	8964
2026-01-04 01:10:25.44	201.34	33.56	-43.7	-44.9	21.7	0.00e+00	90	37	0	532676608	60	8549
2026-01-04 01:10:26.45	201.56	33.74	-43.1	-44.1	22.4	0.00e+00	0	37	0	534773760	60	7852
2026-01-04 01:10:27.46	201.78	33.92	-43.0	-44.0	22.6	0.00e+00	92	37	0	536870912	60	7712
2026-01-04 01:10:28.48	202.01	34.10	-42.6	-43.5	22.9	0.00e+00	92	37	0	538968064	60	7326
2026-01-04 01:10:29.49	202.23	34.28	-42.3	-43.3	23.1	0.00e+00	0	37	0	540016640	60	7090
2026-01-04 01:10:30.50	202.46	34.47	-42.6	-43.6	22.9	0.00e+00	87	37	0	542113792	60	7408
2026-01-04 01:10:31.51	202.69	34.65	-42.6	-43.6	22.3	0.00e+00	0	37	0	544210944	60	7421
2026-01-04 01:10:32.52	202.93	34.84	-43.2	-44.3	22.3	0.00e+00	90	37	0	546308096	60	8008
2026-01-04 01:10:33.53	203.16	35.02	-43.4	-44.6	21.8	0.00e+00	0	37	0	548405248	60	8261
2026-01-04 01:10:34.54	203.40	35.21	-43.9	-45.1	21.6	0.00e+00	92	37	0	549453824	60	8752
2026-01-04 01:10:35.55	203.65	35.39	-43.9	-45.0	21.4	0.00e+00	92	37	0	551550976	60	8714
2026-01-04 01:10:36.57	203.89	35.58	-43.5	-44.7	22.0	0.00e+00	0	37	0	553648128	60	8340
2026-01-04 01:10:37.58	204.14	35.77	-43.5	-44.6	22.0	0.00e+00	92	37	0	555745280	60	8235
2026-01-04 01:10:38.59	204.39	35.96	-43.2	-44.2	22.4	0.00e+00	0	37	0	557842432	60	7928
2026-01-04 01:10:39.60	204.64	36.14	-42.9	-43.9	22.6	0.00e+00	79	37	0	558891008	60	7623
2026-01-04 01:10:40.61	204.90	36.33	-42.3	-43.2	23.0	0.00e+00	0	37	0	560988160	60	7088
2026-01-04 01:10:41.62	205.16	36.52	-42.2	-43.1	23.1	0.00e+00	92	37	0	563085312	60	6974
2026-01-04 01:10:42.63	205.42	36.71	-42.4	-43.4	22.9	0.00e+00	40	37	0	565182464	60	7220
2026-01-04 01:10:43.64	205.69	36.90	-42.0	-43.0	23.1	0.00e+00	0	37	0	567279616	60	6858
2026-01-04 01:10:44.65	205.95	37.09	-42.3	-43.2	23.0	0.00e+00	90	37	0	569376768	60	7078
2026-01-04 01:10:45.66	206.22	37.28	-42.1	-43.1	23.1	0.00e+00	33	37	0	570425344	60	6941
2026-01-04 01:10:46.68	206.50	37.48	-42.1	-43.0	23.3	0.00e+00	92	37	0	572522496	60	6906
2026-01-04 01:10:47.69	206.78	37.67	-41.9	-42.8	23.3	0.00e+00	0	37	0	574619648	60	6769
2026-01-04 01:10:48.70	207.06	37.86	-41.5	-42.4	23.7	0.00e+00	92	37	0	576716800	60	6451
2026-01-04 01:10:49.71	207.34	38.05	-41.4	-42.2	23.7	0.00e+00	48	37	0	578813952	60	6313
2026-01-04 01:10:50.72	207.63	38.25	-41.4	-42.3	23.7	0.00e+00	0	37	0	579862528	60	6349
2026-01-04 01:10:51.73	207.92	38.44	-41.5	-42.5	23.6	0.00e+00	92	37	0	581959680	60	6474
2026-01-04 01:10:52.74	208.21	38.63	-41.0	-41.9	24.0	0.00e+00	0	37	0	584056832	60	6086
2026-01-04 01:10:53.75	208.51	38.83	-40.8	-41.6	24.2	0.00e+00	92	37	0	586153984	60	5877
2026-01-04 01:10:54.76	208.81	39.02	-40.6	-41.4	24.3	0.00e+00	0	37	0	588251136	60	5744
2026-01-04 01:10:55.77	209.12	39.21	-40.2	-41.0	24.5	0.00e+00	92	37	0	589299712	58	6157
2026-01-04 01:10:56.79	209.43	39.41	-39.8	-40.6	24.7	0.00e+00	44	38	0	591396864	58	5868
2026-01-04 01:10:57.80	209.74	39.60	-40.2	-41.0	24.6	0.00e+00	14	37	0	593494016	58	6108
2026-01-04 01:10:58.81	210.06	39.80	-40.5	-41.3	24.2	0.00e+00	90	37	0	595591168	58	6379
2026-01-04 01:10:59.81	210.37	39.99	-41.1	-41.9	23.9	0.00e+00	0	37	0	597688320	58	6840
2026-01-04 01:11:00.83	210.70	40.19	-41.1	-42.0	24.0	0.00e+00	64	38	0	598736896	58	6914
2026-01-04 01:11:01.84	211.02	40.38	-41.0	-41.8	24.1	0.00e+00	0	37	0	600834048	60	5994
2026-01-04 01:11:02.85	211.35	40.58	-41.2	-42.1	23.9	0.00e+00	90	37	0	602931200	60	6183
2026-01-04 01:11:03.86	211.69	40.77	-41.6	-42.5	23.7	0.00e+00	0	37	0	605028352	60	6493
2026-01-04 01:11:04.87	212.03	40.97	-41.3	-42.2	23.7	0.00e+00	90	37	0	607125504	60	6296
2026-01-04 01:11:05.88	212.37	41.16	-41.7	-42.6	23.6	0.00e+00	92	37	0	608174080	60	6568
2026-01-04 01:11:06.89	212.72	41.36	-41.8	-42.7	23.6	0.00e+00	0	37	0	610271232	60	6626
2026-01-04 01:11:07.90	213.07	41.55	-41.6	-42.5	23.8	0.00e+00	91	37	0	612368384	60	6504
2026-01-04 01:11:08.91	213.42	41.75	-41.4	-42.3	23.9	0.00e+00	0	37	0	614465536	60	6323
2026-01-04 01:11:09.93	213.79	41.94	-41.5	-42.4	23.9	0.00e+00	91	37	0	616562688	60	6432
2026-01-04 01:11:10.94	214.15	42.14	-41.5	-42.4	23.9	0.00e+00	0	37	0	617611264	60	6401
2026-01-04 01:11:11.95	214.52	42.33	-41.6	-42.4	23.9	0.00e+00	92	37	0	619708416	60	6448
2026-01-04 01:11:12.96	214.89	42.52	-41.8	-42.7	23.6	0.00e+00	92	37	0	621805568	60	6622
2026-01-04 01:11:13.97	215.27	42.72	-42.2	-43.1	23.1	0.00e+00	0	37	0	623902720	60	7005
2026-01-04 01:11:14.98	215.65	42.91	-42.5	-43.5	22.8	0.00e+00	92	37	0	625999872	60	7296
2026-01-04 01:11:15.99	216.03	43.10	-43.0	-44.0	22.4	0.00e+00	0	37	0	627048448	60	7739
2026-01-04 01:11:17.00	216.42	43.29	-42.5	-43.5	23.0	0.00e+00	91	37	0	629145600	60	7283
2026-01-04 01:11:18.02	216.82	43.49	-41.9	-42.8	23.5	0.00e+00	0	37	0	631242752	60	6723
2026-01-04 01:11:19.03	217.22	43.68	-41.4	-42.2	23.8	0.00e+00	91	37	0	633339904	60	6290
2026-01-04 01:11:20.04	217.63	43.87	-41.4	-42.3	23.6	0.00e+00	91	37	0	635437056	60	6366
2026-01-04 01:11:21.05	218.03	44.06	-41.4	-42.2	23.7	0.00e+00	0	38	0	637534208	60	6316
2026-01-04 01:11:22.06	218.45	44.25	-41.7	-42.6	23.4	0.00e+00	16	37	0	638582784	60	6612
2026-01-04 01:11:23.07	218.87	44.43	-42.3	-43.3	23.0	0.00e+00	0	37	0	640679936	60	7108
2026-01-04 01:11:24.08	219.29	44.62	-43.1	-44.2	22.3	0.00e+00	91	37	0	642777088	60	7883
2026-01-04 01:11:25.09	219.72	44.81	-43.2	-44.3	22.1	0.00e+00	0	37	0	644874240	60	8019
2026-01-04 01:11:26.10	220.15	44.99	-43.0	-44.0	22.3	0.00e+00	90	37	0	646971392	60	7732
2026-01-04 01:11:27.11	220.59	45.18	-42.8	-43.8	22.7	0.00e+00	15	37	0	648019968	60	7540
2026-01-04 01:11:28.13	221.04	45.36	-42.4	-43.4	22.4	0.00e+00	0	37	0	650117120	60	7242
2026-01-04 01:11:29.14	221.49	45.55	-42.5	-43.5	22.6	0.00e+00	91	37	0	652214272	60	7286
2026-01-04 01:11:30.15	221.94	45.73	-42.9	-43.9	22.3	0.00e+00	0	37	0	654311424	60	7669
2026-01-04 01:11:31.16	222.40	45.91	-43.1	-44.1	22.1	0.00e+00	92	37	0	656408576	60	7842
2026-01-04 01:11:32.17	222.87	46.09	-43.4	-44.6	22.0	0.00e+00	0	37	0	657457152	60	8235
2026-01-04 01:11:33.18	223.34	46.27	-43.1	-44.2	22.0	0.00e+00	92	37	0	659554304	60	7868
2026-01-04 01:11:34.19	223.81	46.44	-42.7	-43.7	22.5	0.00e+00	88	37	0	661651456	60	7479
2026-01-04 01:11:35.20	224.29	46.62	-42.8	-43.8	22.4	0.00e+00	0	37	0	663748608	60	7571
2026-01-04 01:11:36.21	224.78	46.79	-43.0	-44.0	22.4	0.00e+00	92	37	0	665845760	60	7748
2026-01-04 01:11:37.22	225.27	46.96	-43.0	-44.1	22.3	0.00e+00	0	37	0	666894336	60	7796
2026-01-04 01:11:38.24	225.77	47.14	-43.0	-44.1	22.2	0.00e+00	92	37	0	668991488	60	7780
2026-01-04 01:11:39.25	226.27	47.31	-42.8	-43.8	22.6	0.00e+00	33	37	0	671088640	60	7588
2026-01-04 01:11:40.26	226.78	47.47	-42.3	-43.2	23.1	0.00e+00	91	37	0	673185792	60	7050
2026-01-04 01:11:41.27	227.29	47.64	-41.7	-42.6	23.4	0.00e+00	48	37	0	675282944	60	6560
2026-01-04 01:11:42.28	227.81	47.80	-41.4	-42.2	23.4	0.00e+00	90	37	0	677380096	60	6317
2026-01-04 01:11:43.29	228.33	47.96	-41.4	-42.3	23.7	0.00e+00	92	37	0	678428672	60	6357
2026-01-04 01:11:44.30	228.86	48.12	-42.1	-43.0	23.2	0.00e+00	0	38	0	680525824	60	6902
2026-01-04 01:11:45.31	229.39	48.28	-42.0	-42.9	23.2	0.00e+00	92	38	0	682622976	60	6821
2026-01-04 01:11:46.32	229.93	48.44	-42.3	-43.2	23.4	0.00e+00	0	37	0	684720128	60	7084
2026-01-04 01:11:47.33	230.48	48.59	-42.4	-43.3	22.8	0.00e+00	92	37	0	686817280	60	7136
2026-01-04 01:11:48.34	231.03	48.74	-42.7	-43.7	22.7	0.00e+00	0	38	0	687865856	60	7456
2026-01-04 01:11:49.35	231.58	48.89	-42.4	-43.4	22.5	0.00e+00	77	37	0	689963008	60	7242
2026-01-04 01:11:50.36	232.14	49.04	-42.9	-43.9	22.3	0.00e+00	92	37	0	692060160	60	7675
2026-01-04 01:11:51.38	232.71	49.19	-42.4	-43.4	23.0	0.00e+00	0	37	0	694157312	60	7232
2026-01-04 01:11:52.39	233.29	49.33	-42.8	-43.8	22.6	0.00e+00	91	37	0	696254464	60	7549
2026-01-04 01:11:53.40	233.86	49.47	-42.8	-43.8	22.6	0.00e+00	0	38	0	697303040	60	7582
2026-01-04 01:11:54.41	234.44	49.60	-42.9	-43.9	22.5	0.00e+00	92	37	0	699400192	60	7659
2026-01-04 01:11:55.42	235.03	49.74	-42.6	-43.6	22.7	0.00e+00	0	38	0	701497344	60	7343
2026-01-04 01:11:56.43	235.62	49.87	-42.6	-43.6	22.7	0.00e+00	92	37	0	703594496	60	7370
2026-01-04 01:11:57.44	236.22	50.00	-43.1	-44.1	22.3	0.00e+00	92	37	0	705691648	60	7815
2026-01-04 01:11:58.45	236.82	50.12	-43.7	-44.9	21.6	0.00e+00	0	37	0	706740224	60	8603
2026-01-04 01:11:59.47	237.43	50.25	-43.7	-44.8	21.6	0.00e+00	92	37	0	708837376	60	8519
2026-01-04 01:12:00.48	238.04	50.37	-43.2	-44.3	22.3	0.00e+00	0	37	0	710934528	60	8008
2026-01-04 01:12:01.49	238.66	50.48	-43.1	-44.1	22.1	0.00e+00	92	38	0	713031680	60	7860
2026-01-04 01:12:02.50	239.28	50.60	-43.1	-44.2	22.1	0.00e+00	9	37	0	715128832	60	7902
2026-01-04 01:12:03.51	239.91	50.71	-42.7	-43.7	22.7	0.00e+00	92	37	0	717225984	60	7472
2026-01-04 01:12:04.52	240.54	50.81	-43.3	-44.3	22.2	0.00e+00	92	37	0	718274560	60	8036
2026-01-04 01:12:05.53	241.17	50.91	-44.2	-45.5	21.2	0.00e+00	0	37	0	720371712	60	9148
2026-01-04 01:12:06.54	241.81	51.01	-44.6	-46.0	21.0	0.00e+00	41	37	0	722468864	60	9714
2026-01-04 01:12:07.55	242.45	51.11	-43.6	-44.7	22.0	0.00e+00	0	37	0	724566016	60	8401
2026-01-04 01:12:08.56	243.10	51.20	-43.6	-44.8	21.7	0.00e+00	74	37	0	726663168	60	8448
2026-01-04 01:12:09.58	243.76	51.29	-43.6	-44.8	21.9	0.00e+00	0	37	0	727711744	60	8474
2026-01-04 01:12:10.59	244.41	51.38	-43.0	-44.1	22.3	0.00e+00	92	37	0	729808896	60	7786
2026-01-04 01:12:11.60	245.07	51.46	-41.8	-42.7	23.5	0.00e+00	92	37	0	731906048	60	6664
2026-01-04 01:12:12.61	245.73	51.54	-42.3	-43.3	23.5	0.00e+00	0	37	0	734003200	60	7105
2026-01-04 01:12:13.62	246.40	51.61	-42.3	-43.3	23.3	0.00e+00	89	37	0	736100352	60	7092
2026-01-04 01:12:14.63	247.06	51.68	-42.5	-43.4	23.8	0.00e+00	0	37	0	737148928	60	7217
2026-01-04 01:12:15.64	247.73	51.75	-41.2	-42.0	24.4	0.00e+00	92	37	0	739246080	60	6141
2026-01-04 01:12:16.65	248.41	51.81	-41.5	-42.3	24.3	0.00e+00	0	37	0	741343232	60	6343
2026-01-04 01:12:17.66	249.08	51.87	-41.9	-42.9	23.8	0.00e+00	92	37	0	743440384	60	6775
2026-01-04 01:12:18.67	249.76	51.93	-42.3	-43.2	23.2	0.00e+00	80	37	0	745537536	60	7073
2026-01-04 01:12:19.69	250.45	51.98	-42.3	-43.3	23.1	0.00e+00	0	37	0	746586112	60	7154
2026-01-04 01:12:20.70	251.14	52.02	-42.5	-43.5	23.0	0.00e+00	69	37	0	748683264	60	7320
2026-01-04 01:12:21.71	251.82	52.07	-42.2	-43.2	23.5	0.00e+00	0	37	0	750780416	60	7017
2026-01-04 01:12:22.72	252.51	52.10	-41.5	-42.4	24.0	0.00e+00	92	37	0	752877568	60	6408
2026-01-04 01:12:23.73	253.20	52.14	-40.7	-41.5	24.2	0.00e+00	0	37	0	754974720	60	5795
2026-01-04 01:12:24.74	253.89	52.17	-41.2	-42.1	23.9	0.00e+00	92	37	0	756023296	60	6185
2026-01-04 01:12:25.75	254.58	52.19	-41.9	-42.9	23.3	0.00e+00	90	37	0	758120448	60	6786
2026-01-04 01:12:26.76	255.27	52.21	-42.2	-43.1	23.2	0.00e+00	0	37	0	760217600	60	6991
2026-01-04 01:12:27.77	255.97	52.23	-41.9	-42.8	23.4	0.00e+00	90	37	0	762314752	60	6728
2026-01-04 01:12:28.78	256.66	52.24	-42.6	-43.6	22.8	0.00e+00	0	37	0	764411904	60	7417
2026-01-04 01:12:29.80	257.36	52.25	-42.8	-43.9	22.4	0.00e+00	91	37	0	765460480	60	7600
2026-01-04 01:12:30.81	258.06	52.26	-42.0	-42.9	23.4	0.00e+00	0	37	0	767557632	60	6828
2026-01-04 01:12:31.82	258.76	52.26	-41.3	-42.1	23.9	0.00e+00	92	37	0	769654784	60	6236
2026-01-04 01:12:32.83	259.45	52.25	-41.7	-42.6	23.5	0.00e+00	46	37	0	771751936	60	6550
2026-01-04 01:12:33.84	260.15	52.24	-42.6	-43.7	22.6	0.00e+00	0	37	0	773849088	60	7428
2026-01-04 01:12:34.85	260.84	52.23	-42.4	-43.4	23.0	0.00e+00	48	37	0	775946240	60	7203
2026-01-04 01:12:35.86	261.53	52.21	-41.1	-42.0	24.1	0.00e+00	0	37	0	776994816	60	6152
2026-01-04 01:12:36.88	262.23	52.19	-41.3	-42.2	23.8	0.00e+00	92	37	0	779091968	60	6277
2026-01-04 01:12:37.89	262.92	52.16	-41.6	-42.5	23.5	0.00e+00	0	37	0	781189120	60	6528
2026-01-04 01:12:38.90	263.61	52.13	-42.3	-43.3	23.0	0.00e+00	92	37	0	783286272	60	7142
2026-01-04 01:12:39.91	264.30	52.10	-42.5	-43.6	22.8	0.00e+00	42	37	0	785383424	60	7342
2026-01-04 01:12:40.92	264.99	52.06	-42.5	-43.4	22.8	0.00e+00	33	37	0	786432000	60	7247
2026-01-04 01:12:41.93	265.68	52.02	-41.5	-42.4	23.8	0.00e+00	92	37	0	788529152	60	6407
2026-01-04 01:12:42.94	266.36	51.97	-40.4	-41.2	24.6	0.00e+00	0	37	0	790626304	60	5567
2026-01-04 01:12:43.95	267.04	51.92	-40.6	-41.4	24.1	0.00e+00	47	37	0	792723456	60	5750
2026-01-04 01:12:44.96	267.72	51.87	-41.1	-42.0	23.9	0.00e+00	0	37	0	794820608	60	6116
2026-01-04 01:12:45.97	268.39	51.81	-41.0	-41.9	24.1	0.00e+00	92	37	0	795869184	60	6056
2026-01-04 01:12:46.99	269.07	51.75	-40.4	-41.2	24.5	0.00e+00	0	37	0	797966336	60	5616
2026-01-04 01:12:47.99	269.74	51.68	-40.8	-41.6	24.2	0.00e+00	0	37	0	800063488	60	5876
2026-01-04 01:12:49.01	270.41	51.61	-41.4	-42.3	23.6	0.00e+00	92	37	0	802160640	60	6368
2026-01-04 01:12:50.02	271.08	51.53	-41.6	-42.5	23.7	0.00e+00	0	37	0	804257792	60	6486
2026-01-04 01:12:51.03	271.74	51.46	-41.3	-42.2	23.9	0.00e+00	90	37	0	805306368	60	6280
2026-01-04 01:12:52.04	272.39	51.37	-40.0	-40.8	24.7	0.00e+00	0	37	0	807403520	58	5996
2026-01-04 01:12:53.05	273.05	51.29	-39.9	-40.7	24.8	0.00e+00	70	37	0	809500672	58	5898
2026-01-04 01:12:54.06	273.70	51.20	-40.9	-41.7	24.2	0.00e+00	0	37	0	811597824	58	6666
2026-01-04 01:12:55.07	274.34	51.11	-41.2	-42.1	23.6	0.00e+00	0	37	0	813694976	60	6212
2026-01-04 01:12:56.08	274.98	51.01	-41.1	-42.0	24.1	0.00e+00	92	37	0	814743552	60	6133
2026-01-04 01:12:57.10	275.63	50.91	-41.3	-42.1	24.0	0.00e+00	0	37	0	816840704	60	6244
2026-01-04 01:12:58.11	276.26	50.80	-41.9	-42.9	23.4	0.00e+00	14	37	0	818937856	60	6789
2026-01-04 01:12:59.12	276.89	50.70	-41.4	-42.2	23.8	0.00e+00	0	37	0	821035008	60	6306
2026-01-04 01:13:00.13	277.51	50.59	-41.4	-42.3	23.7	0.00e+00	19	37	0	823132160	60	6375
2026-01-04 01:13:01.14	278.13	50.48	-42.0	-42.9	23.1	0.00e+00	0	37	0	825229312	60	6820
2026-01-04 01:13:02.15	278.75	50.36	-42.7	-43.8	22.7	0.00e+00	57	37	0	826277888	60	7514
2026-01-04 01:13:03.16	279.36	50.24	-43.0	-44.0	22.5	0.00e+00	90	37	0	828375040	60	7728
2026-01-04 01:13:04.17	279.96	50.12	-43.8	-44.9	21.8	0.00e+00	0	37	0	830472192	60	8552
2026-01-04 01:13:05.18	280.56	49.99	-44.4	-45.6	21.2	0.00e+00	61	37	0	832569344	60	9343
2026-01-04 01:13:06.19	281.16	49.86	-44.4	-45.7	21.2	0.00e+00	0	37	0	834666496	60	9348
2026-01-04 01:13:07.20	281.75	49.73	-44.1	-45.3	21.5	0.00e+00	91	37	0	835715072	60	8972
2026-01-04 01:13:08.21	282.34	49.60	-43.4	-44.5	22.2	0.00e+00	0	37	0	837812224	60	8170
2026-01-04 01:13:09.23	282.92	49.46	-42.5	-43.5	23.0	0.00e+00	92	37	0	839909376	60	7267
2026-01-04 01:13:10.24	283.50	49.32	-42.1	-43.0	23.4	0.00e+00	44	37	0	842006528	60	6880
2026-01-04 01:13:11.25	284.07	49.18	-41.7	-42.6	23.7	0.00e+00	0	37	0	844103680	60	6554
2026-01-04 01:13:12.26	284.63	49.04	-41.5	-42.3	23.8	0.00e+00	85	37	0	845152256	60	6388
2026-01-04 01:13:13.27	285.19	48.89	-41.1	-42.0	24.2	0.00e+00	0	37	0	847249408	60	6116
2026-01-04 01:13:14.28	285.74	48.74	-41.6	-42.5	23.5	0.00e+00	92	37	0	849346560	60	6531
2026-01-04 01:13:15.29	286.29	48.59	-42.9	-43.9	22.6	0.00e+00	0	37	0	851443712	60	7657
2026-01-04 01:13:16.30	286.84	48.44	-43.7	-44.8	21.8	0.00e+00	92	37	0	853540864	60	8507
2026-01-04 01:13:17.31	287.37	48.28	-44.5	-45.7	21.4	0.00e+00	92	37	0	854589440	60	9390
2026-01-04 01:13:18.32	287.91	48.12	-44.0	-45.1	21.6	0.00e+00	0	37	0	856686592	60	8812
2026-01-04 01:13:19.34	288.44	47.96	-45.0	-46.2	20.8	0.00e+00	57	37	0	858783744	60	9972
2026-01-04 01:13:20.35	288.96	47.80	-45.5	-46.9	20.0	0.00e+00	0	37	0	860880896	60	10769
2026-01-04 01:13:21.36	289.48	47.64	-46.8	-48.6	18.8	0.00e+00	92	37	0	862978048	60	13129
2026-01-04 01:13:22.37	289.99	47.47	-46.6	-48.3	18.9	0.00e+00	0	37	0	865075200	60	12683
2026-01-04 01:13:23.38	290.49	47.30	-46.5	-48.1	19.7	0.00e+00	92	37	0	866123776	60	12361
2026-01-04 01:13:24.39	290.99	47.14	-45.6	-47.0	20.2	0.00e+00	0	37	0	868220928	60	10862
2026-01-04 01:13:25.40	291.49	46.97	-46.3	-47.7	19.9	0.00e+00	0	37	0	870318080	60	11868
2026-01-04 01:13:26.41	291.98	46.79	-47.2	-48.9	18.3	0.00e+00	61	37	0	872415232	60	13559
2026-01-04 01:13:27.42	292.46	46.62	-46.4	-47.9	19.4	0.00e+00	0	37	0	874512384	60	12125
2026-01-04 01:13:28.44	292.95	46.44	-45.0	-46.3	20.8	0.00e+00	92	37	0	875560960	60	10032
2026-01-04 01:13:29.45	293.42	46.27	-46.0	-47.5	19.5	0.00e+00	0	37	0	877658112	60	11539
2026-01-04 01:13:30.46	293.89	46.09	-48.3	-50.5	16.3	0.00e+00	89	37	0	879755264	60	16423
2026-01-04 01:13:31.47	294.35	45.91	-50.4	-54.3	12.4	2.36e-05	42	37	0	881852416	60	25382
2026-01-04 01:13:32.48	294.81	45.73	-48.6	-51.0	16.9	0.00e+00	0	37	0	883949568	60	17335
2026-01-04 01:13:33.49	295.26	45.55	-47.1	-48.9	18.3	0.00e+00	90	37	0	884998144	60	13563
2026-01-04 01:13:34.50	295.71	45.37	-46.6	-48.2	19.1	0.00e+00	0	37	0	887095296	60	12603
2026-01-04 01:13:35.51	296.15	45.19	-47.6	-49.6	17.6	0.00e+00	91	37	0	889192448	60	14756
2026-01-04 01:13:36.52	296.59	45.00	-48.0	-50.1	17.1	0.00e+00	0	37	0	891289600	60	15678
2026-01-04 01:13:37.53	297.02	44.82	-47.0	-48.9	18.3	0.00e+00	91	37	0	893386752	60	13552
2026-01-04 01:13:38.54	297.45	44.63	-46.4	-48.0	19.3	0.00e+00	0	37	0	894435328	60	12258
2026-01-04 01:13:39.55	297.87	44.44	-45.2	-46.5	20.5	0.00e+00	0	37	0	896532480	60	10353
2026-01-04 01:13:40.56	298.29	44.26	-44.6	-45.8	21.2	0.00e+00	92	37	0	898629632	60	9493
2026-01-04 01:13:41.57	298.70	44.07	-43.2	-44.2	22.5	0.00e+00	0	37	0	900726784	60	7897
2026-01-04 01:13:42.59	299.11	43.88	-42.5	-43.5	23.0	0.00e+00	71	37	0	902823936	60	7279
2026-01-04 01:13:43.60	299.52	43.69	-42.5	-43.4	23.0	0.00e+00	0	37	0	903872512	60	7188
2026-01-04 01:13:44.61	299.91	43.50	-42.7	-43.7	23.1	0.00e+00	86	37	0	905969664	60	7456
2026-01-04 01:13:45.62	300.31	43.31	-42.3	-43.2	23.4	0.00e+00	0	37	0	908066816	60	7070
2026-01-04 01:13:46.63	300.70	43.12	-42.6	-43.5	23.1	0.00e+00	6	37	0	910163968	60	7323
2026-01-04 01:13:47.64	301.08	42.93	-42.1	-43.0	23.6	0.00e+00	92	37	0	912261120	60	6907
2026-01-04 01:13:48.65	301.46	42.73	-41.2	-42.0	24.2	0.00e+00	0	37	0	914358272	60	6163
2026-01-04 01:13:49.66	301.84	42.54	-41.1	-41.9	24.1	0.00e+00	45	37	0	915406848	60	6095
2026-01-04 01:13:50.67	302.21	42.35	-41.8	-42.7	23.6	0.00e+00	0	37	0	917504000	60	6667
2026-01-04 01:13:51.69	302.58	42.15	-42.5	-43.5	23.1	0.00e+00	92	37	0	919601152	60	7276
2026-01-04 01:13:52.70	302.94	41.96	-42.2	-43.1	23.4	0.00e+00	0	37	0	921698304	60	6966
2026-01-04 01:13:53.71	303.30	41.77	-41.8	-42.6	23.7	0.00e+00	57	37	0	923795456	60	6601
2026-01-04 01:13:54.72	303.65	41.57	-41.3	-42.2	24.1	0.00e+00	44	37	0	924844032	60	6258
2026-01-04 01:13:55.73	304.00	41.38	-41.5	-42.3	24.1	0.00e+00	0	38	0	926941184	60	6378
2026-01-04 01:13:56.74	304.35	41.19	-42.3	-43.2	23.3	0.00e+00	40	37	0	929038336	60	7043
2026-01-04 01:13:57.75	304.69	40.99	-43.2	-44.2	22.7	0.00e+00	0	37	0	931135488	60	7901
2026-01-04 01:13:58.76	305.03	40.80	-43.8	-44.9	22.1	0.00e+00	80	37	0	933232640	60	8594
2026-01-04 01:13:59.77	305.36	40.60	-43.7	-44.9	21.9	0.00e+00	0	37	0	934281216	60	8525
2026-01-04 01:14:00.76	305.69	40.41	-43.6	-44.7	22.4	0.00e+00	56	37	0	936378368	60	8377
2026-01-04 01:14:01.77	306.01	40.22	-43.3	-44.3	22.9	0.00e+00	0	37	0	938475520	60	7987
2026-01-04 01:14:02.78	306.33	40.03	-43.4	-44.4	22.5	0.00e+00	0	37	0	940572672	60	8108
2026-01-04 01:14:03.79	306.65	39.83	-44.3	-45.4	21.5	0.00e+00	92	37	0	942669824	60	9108
2026-01-04 01:14:04.80	306.97	39.64	-45.6	-47.0	20.2	0.00e+00	0	37	0	943718400	60	10970
2026-01-04 01:14:05.81	307.28	39.45	-45.9	-47.4	20.0	0.00e+00	79	37	0	945815552	60	11367
2026-01-04 01:14:06.82	307.59	39.25	-45.1	-46.4	20.8	0.00e+00	0	37	0	947912704	60	10148
2026-01-04 01:14:07.83	307.89	39.06	-44.8	-45.9	21.9	0.00e+00	92	37	0	950009856	60	9648
2026-01-04 01:14:08.84	308.19	38.87	-44.4	-45.4	22.2	0.00e+00	0	37	0	952107008	60	9075
2026-01-04 01:14:09.85	308.49	38.67	-44.9	-46.0	21.4	0.00e+00	0	37	0	953155584	60	9757
2026-01-04 01:14:10.87	308.78	38.48	-45.9	-47.2	20.5	0.00e+00	92	37	0	955252736	60	11215
2026-01-04 01:14:11.88	309.07	38.29	-46.9	-48.5	19.2	0.00e+00	0	37	0	957349888	60	12957
2026-01-04 01:14:12.89	309.36	38.10	-46.0	-47.4	20.4	0.00e+00	66	37	0	959447040	60	11454
2026-01-04 01:14:13.90	309.64	37.90	-44.8	-46.0	21.4	0.00e+00	0	37	0	961544192	60	9737
2026-01-04 01:14:14.91	309.92	37.71	-43.7	-44.8	22.3	0.00e+00	68	37	0	962592768	60	8446
2026-01-04 01:14:15.92	310.20	37.52	-43.4	-44.4	22.6	0.00e+00	0	37	0	964689920	60	8136
2026-01-04 01:14:16.93	310.47	37.33	-43.1	-44.1	22.7	0.00e+00	0	37	0	966787072	60	7845
2026-01-04 01:14:17.94	310.74	37.14	-44.3	-45.5	21.5	0.00e+00	90	37	0	968884224	60	9166
2026-01-04 01:14:18.95	311.01	36.95	-46.4	-48.0	19.4	0.00e+00	0	37	0	970981376	60	12193
2026-01-04 01:14:19.96	311.28	36.76	-47.0	-48.8	18.9	0.00e+00	69	37	0	973078528	60	13381
2026-01-04 01:14:20.98	311.54	36.57	-45.7	-47.2	20.1	0.00e+00	0	37	0	974127104	60	11190
2026-01-04 01:14:21.99	311.80	36.39	-44.5	-45.7	21.7	0.00e+00	92	37	0	976224256	60	9353
2026-01-04 01:14:23.00	312.05	36.20	-43.4	-44.4	22.5	0.00e+00	0	37	0	978321408	60	8135
2026-01-04 01:14:24.01	312.31	36.01	-43.1	-44.1	23.0	0.00e+00	0	37	0	980418560	60	7774
2026-01-04 01:14:25.02	312.56	35.82	-43.0	-44.0	22.9	0.00e+00	92	37	0	982515712	60	7706
2026-01-04 01:14:26.03	312.80	35.64	-43.9	-44.9	22.3	0.00e+00	0	37	0	983564288	60	8578
2026-01-04 01:14:27.04	313.05	35.45	-45.9	-47.3	20.0	0.00e+00	46	37	0	985661440	60	11300
2026-01-04 01:14:28.05	313.29	35.27	-47.2	-48.8	19.5	0.00e+00	0	37	0	987758592	60	13428
2026-01-04 01:14:29.06	313.53	35.08	-45.9	-47.3	20.2	0.00e+00	61	37	0	989855744	60	11329
2026-01-04 01:14:30.07	313.76	34.90	-44.2	-45.3	22.1	0.00e+00	0	37	0	991952896	60	8964
2026-01-04 01:14:31.09	314.00	34.71	-42.3	-43.2	23.5	0.00e+00	49	37	0	993001472	60	7030
2026-01-04 01:14:32.10	314.23	34.53	-41.8	-42.6	23.9	0.00e+00	72	37	0	995098624	60	6576
2026-01-04 01:14:33.11	314.46	34.35	-42.0	-42.8	23.8	0.00e+00	0	37	0	997195776	60	6741
2026-01-04 01:14:34.12	314.69	34.16	-43.0	-44.0	22.6	0.00e+00	18	37	0	999292928	60	7713
2026-01-04 01:14:35.13	314.91	33.98	-44.5	-45.6	21.2	0.00e+00	0	37	0	1001390080	60	9280
2026-01-04 01:14:36.14	315.13	33.80	-46.1	-47.6	19.2	0.00e+00	33	37	0	1002438656	60	11751
2026-01-04 01:14:37.15	315.35	33.62	-47.8	-50.0	17.2	0.00e+00	0	37	0	1004535808	60	15380
2026-01-04 01:14:38.16	315.56	33.44	-46.8	-48.6	18.4	0.00e+00	90	37	0	1006632960	60	13173
2026-01-04 01:14:39.17	315.78	33.26	-45.6	-47.0	20.1	0.00e+00	44	37	0	1008730112	60	10864
2026-01-04 01:14:40.19	315.99	33.08	-44.1	-45.3	21.5	0.00e+00	0	37	0	1010827264	60	8962
2026-01-04 01:14:41.20	316.20	32.91	-43.2	-44.2	22.3	0.00e+00	72	37	0	1011875840	60	7927
2026-01-04 01:14:42.21	316.41	32.73	-42.7	-43.6	22.6	0.00e+00	0	37	0	1013972992	60	7412
2026-01-04 01:14:43.22	316.61	32.55	-43.2	-44.2	22.2	0.00e+00	92	37	0	1016070144	60	7889
2026-01-04 01:14:44.23	316.82	32.38	-44.1	-45.2	21.7	0.00e+00	0	37	0	1018167296	60	8893
2026-01-04 01:14:45.24	317.02	32.20	-45.3	-46.6	20.4	0.00e+00	92	37	0	1020264448	60	10451
2026-01-04 01:14:46.25	317.22	32.03	-46.9	-48.7	18.6	0.00e+00	46	37	0	1022361600	60	13236
2026-01-04 01:14:47.26	317.41	31.86	-47.9	-50.2	17.1	0.00e+00	0	37	0	1023410176	60	15764
2026-01-04 01:14:48.27	317.61	31.68	-48.9	-51.8	15.6	0.00e+00	47	37	0	1025507328	60	19012
2026-01-04 01:14:49.28	317.80	31.51	-48.3	-50.8	16.8	0.00e+00	0	37	0	1027604480	60	16897
2026-01-04 01:14:50.30	317.99	31.34	-46.7	-48.5	18.7	0.00e+00	91	37	0	1029701632	60	12978
2026-01-04 01:14:51.31	318.18	31.17	-45.3	-46.8	20.1	0.00e+00	0	37	0	1031798784	60	10654
2026-01-04 01:14:52.32	318.37	31.00	-44.3	-45.5	21.4	0.00e+00	72	37	0	1032847360	60	9154
2026-01-04 01:14:53.33	318.55	30.83	-43.7	-44.7	22.0	0.00e+00	0	37	0	1034944512	60	8416
2026-01-04 01:14:54.34	318.74	30.66	-43.7	-44.7	22.1	0.00e+00	0	37	0	1037041664	60	8410
2026-01-04 01:14:55.35	318.92	30.49	-43.5	-44.5	22.3	0.00e+00	44	37	0	1039138816	60	8199
2026-01-04 01:14:56.36	319.10	30.32	-44.5	-45.7	21.3	0.00e+00	0	37	0	1041235968	60	9386
2026-01-04 01:14:57.37	319.27	30.16	-45.1	-46.4	20.6	0.00e+00	92	37	0	1042284544	60	10193
2026-01-04 01:14:58.38	319.45	29.99	-45.4	-46.8	20.4	0.00e+00	0	37	0	1044381696	60	10636
2026-01-04 01:14:59.40	319.63	29.82	-45.5	-46.8	20.4	0.00e+00	92	37	0	1046478848	60	10726
2026-01-04 01:15:00.41	319.80	29.66	-45.5	-46.9	20.6	0.00e+00	9	37	0	1048576000	60	10764
2026-01-04 01:15:01.42	319.97	29.49	-44.8	-46.0	21.2	0.00e+00	0	37	0	1050673152	60	9749
2026-01-04 01:15:02.43	320.14	29.33	-44.4	-45.5	21.4	0.00e+00	86	37	0	1051721728	60	9206
2026-01-04 01:15:03.44	320.30	29.17	-44.4	-45.5	21.7	0.00e+00	0	37	0	1053818880	60	9176
2026-01-04 01:15:04.45	320.47	29.01	-43.6	-44.6	22.2	0.00e+00	92	37	0	1055916032	60	8314
2026-01-04 01:15:05.46	320.63	28.84	-44.0	-45.1	21.9	0.00e+00	0	37	0	1058013184	60	8796
2026-01-04 01:15:06.47	320.80	28.68	-44.1	-45.2	21.8	0.00e+00	92	37	0	1060110336	60	8889
2026-01-04 01:15:07.49	320.96	28.52	-45.0	-46.1	21.5	0.00e+00	0	37	0	1061158912	60	9896
2026-01-04 01:15:08.50	321.12	28.36	-45.0	-46.2	21.2	0.00e+00	0	37	0	1063256064	60	9993
2026-01-04 01:15:09.51	321.28	28.20	-45.0	-46.2	21.4	0.00e+00	61	37	0	1065353216	60	9925
2026-01-04 01:15:10.52	321.43	28.05	-44.6	-45.8	21.3	0.00e+00	0	37	0	1067450368	60	9468
2026-01-04 01:15:11.53	321.59	27.89	-44.6	-45.7	22.0	0.00e+00	90	37	0	1069547520	60	9366
2026-01-04 01:15:12.54	321.74	27.73	-43.7	-44.7	22.4	0.00e+00	0	37	0	1070596096	60	8411
2026-01-04 01:15:13.55	321.89	27.58	-43.6	-44.7	22.3	0.00e+00	72	37	0	1072693248	60	8386
2026-01-04 01:15:14.56	322.04	27.42	-43.4	-44.4	22.6	0.00e+00	0	37	0	1074790400	60	8064
2026-01-04 01:15:15.58	322.19	27.27	-43.3	-44.3	22.6	0.00e+00	0	37	0	1076887552	60	8019
2026-01-04 01:15:16.59	322.34	27.11	-43.3	-44.3	22.7	0.00e+00	92	37	0	1078984704	60	7986
2026-01-04 01:15:17.60	322.49	26.96	-42.9	-44.0	22.8	0.00e+00	0	37	0	1081081856	60	7690
2026-01-04 01:15:18.61	322.63	26.81	-43.0	-44.0	22.9	0.00e+00	35	37	0	1082130432	60	7704
2026-01-04 01:15:19.62	322.77	26.65	-42.8	-43.8	22.9	0.00e+00	0	37	0	1084227584	60	7580
2026-01-04 01:15:20.63	322.92	26.50	-43.0	-44.0	22.8	0.00e+00	63	37	0	1086324736	60	7717
2026-01-04 01:15:21.64	323.06	26.35	-42.7	-43.7	23.1	0.00e+00	0	37	0	1088421888	60	7454
2026-01-04 01:15:22.65	323.20	26.20	-42.6	-43.6	23.1	0.00e+00	24	37	0	1090519040	60	7374
2026-01-04 01:15:23.66	323.34	26.05	-42.6	-43.5	23.2	0.00e+00	41	37	0	1091567616	60	7287
2026-01-04 01:15:24.67	323.47	25.91	-42.0	-42.9	23.5	0.00e+00	0	37	0	1093664768	60	6812
2026-01-04 01:15:25.68	323.61	25.76	-42.4	-43.4	23.2	0.00e+00	33	37	0	1095761920	60	7176
2026-01-04 01:15:26.69	323.74	25.61	-42.1	-43.0	23.6	0.00e+00	0	37	0	1097859072	60	6875
2026-01-04 01:15:27.70	323.88	25.46	-42.5	-43.5	23.1	0.00e+00	57	37	0	1099956224	60	7265
2026-01-04 01:15:28.71	324.01	25.32	-42.7	-43.7	23.0	0.00e+00	0	37	0	1101004800	60	7427
2026-01-04 01:15:29.73	324.14	25.17	-42.6	-43.6	23.0	0.00e+00	0	37	0	1103101952	60	7366
2026-01-04 01:15:30.74	324.27	25.03	-42.8	-43.8	22.8	0.00e+00	42	37	0	1105199104	60	7534
2026-01-04 01:15:31.75	324.40	24.88	-42.7	-43.7	22.8	0.00e+00	0	37	0	1107296256	60	7483
2026-01-04 01:15:32.76	324.53	24.74	-42.7	-43.8	22.7	0.00e+00	70	37	0	1109393408	60	7509
2026-01-04 01:15:33.77	324.65	24.60	-43.0	-44.1	22.4	0.00e+00	0	37	0	1110441984	60	7784
2026-01-04 01:15:34.78	324.78	24.46	-42.7	-43.7	23.1	0.00e+00	7	37	0	1112539136	60	7495
2026-01-04 01:15:35.79	324.90	24.31	-42.1	-43.0	23.4	0.00e+00	0	37	0	1114636288	60	6903
2026-01-04 01:15:36.80	325.03	24.17	-42.0	-42.9	23.4	0.00e+00	0	37	0	1116733440	60	6796
2026-01-04 01:15:37.81	325.15	24.03	-42.6	-43.5	23.4	0.00e+00	42	37	0	1118830592	60	7267
2026-01-04 01:15:38.82	325.27	23.89	-42.4	-43.4	23.3	0.00e+00	0	37	0	1120927744	60	7198
2026-01-04 01:15:39.83	325.39	23.76	-42.3	-43.2	23.3	0.00e+00	91	37	0	1121976320	60	7036
2026-01-04 01:15:40.85	325.51	23.62	-42.6	-43.6	23.0	0.00e+00	0	37	0	1124073472	60	7360
2026-01-04 01:15:41.86	325.63	23.48	-43.1	-44.1	22.7	0.00e+00	0	37	0	1126170624	60	7816
2026-01-04 01:15:42.87	325.75	23.34	-43.1	-44.2	22.5	0.00e+00	0	37	0	1128267776	60	7873
2026-01-04 01:15:43.88	325.86	23.21	-42.9	-43.9	22.6	0.00e+00	0	37	0	1130364928	60	7608
2026-01-04 01:15:44.89	325.98	23.07	-43.4	-44.5	22.1	0.00e+00	0	37	0	1131413504	60	8145
2026-01-04 01:15:45.90	326.09	22.93	-43.3	-44.4	22.2	0.00e+00	0	37	0	1133510656	60	8129
2026-01-04 01:15:46.91	326.20	22.80	-43.7	-44.8	22.0	0.00e+00	42	37	0	1135607808	60	8470
2026-01-04 01:15:47.92	326.32	22.67	-43.9	-45.1	21.9	0.00e+00	0	37	0	1137704960	60	8748
2026-01-04 01:15:48.93	326.43	22.53	-43.6	-44.7	22.1	0.00e+00	58	37	0	1139802112	60	8370
2026-01-04 01:15:49.94	326.54	22.40	-43.3	-44.5	22.2	0.00e+00	0	37	0	1140850688	60	8150
2026-01-04 01:15:50.96	326.65	22.27	-43.8	-45.0	21.8	0.00e+00	0	37	0	1142947840	60	8675
2026-01-04 01:15:51.97	326.76	22.13	-43.3	-44.5	22.1	0.00e+00	0	37	0	1145044992	60	8139
2026-01-04 01:15:52.98	326.87	22.00	-43.3	-44.4	22.2	0.00e+00	0	37	0	1147142144	60	8122
2026-01-04 01:15:53.99	326.97	21.87	-43.2	-44.3	22.4	0.00e+00	42	37	0	1149239296	60	7968
2026-01-04 01:15:55.00	327.08	21.74	-42.7	-43.7	22.8	0.00e+00	0	37	0	1150287872	60	7436
2026-01-04 01:15:56.01	327.18	21.61	-43.1	-44.1	22.6	0.00e+00	69	37	0	1152385024	60	7834
2026-01-04 01:15:57.02	327.29	21.49	-42.8	-43.8	23.0	0.00e+00	0	37	0	1154482176	60	7551
2026-01-04 01:15:58.03	327.39	21.36	-42.7	-43.7	23.1	0.00e+00	0	37	0	1156579328	60	7483
2026-01-04 01:15:59.04	327.50	21.23	-43.0	-44.0	22.8	0.00e+00	0	37	0	1158676480	60	7742
2026-01-04 01:16:00.05	327.60	21.10	-42.5	-43.4	23.1	0.00e+00	0	37	0	1160773632	60	7243
2026-01-04 01:16:01.06	327.70	20.98	-42.7	-43.7	22.8	0.00e+00	37	37	0	1161822208	60	7443
2026-01-04 01:16:02.07	327.80	20.85	-43.3	-44.3	22.4	0.00e+00	0	37	0	1163919360	60	8044
2026-01-04 01:16:03.08	327.90	20.73	-43.2	-44.3	22.3	0.00e+00	22	37	0	1166016512	60	7989
2026-01-04 01:16:04.09	328.00	20.60	-44.0	-45.2	21.8	0.00e+00	0	37	0	1168113664	60	8835
2026-01-04 01:16:05.10	328.10	20.48	-44.2	-45.4	21.8	0.00e+00	0	37	0	1170210816	60	9108
2026-01-04 01:16:06.12	328.19	20.35	-44.4	-45.6	21.4	0.00e+00	0	37	0	1171259392	60	9284
2026-01-04 01:16:07.13	328.29	20.23	-44.9	-46.2	20.8	0.00e+00	0	37	0	1173356544	60	9912
2026-01-04 01:16:08.14	328.39	20.11	-45.1	-46.4	20.6	0.00e+00	5	37	0	1175453696	60	10146
2026-01-04 01:16:09.15	328.48	19.98	-45.0	-46.3	20.9	0.00e+00	0	37	0	1177550848	60	10030
2026-01-04 01:16:10.16	328.58	19.86	-45.2	-46.5	20.7	0.00e+00	79	37	0	1179648000	60	10362
2026-01-04 01:16:11.17	328.67	19.74	-45.3	-46.6	20.9	0.00e+00	0	37	0	1180696576	60	10458
2026-01-04 01:16:12.18	328.76	19.62	-44.2	-45.4	21.4	0.00e+00	8	37	0	1182793728	60	9043
2026-01-04 01:16:13.19	328.86	19.50	-44.1	-45.3	21.5	0.00e+00	0	37	0	1184890880	60	8951
2026-01-04 01:16:14.20	328.95	19.38	-43.8	-45.0	21.9	0.00e+00	0	37	0	1186988032	60	8671
2026-01-04 01:16:15.21	329.04	19.26	-43.3	-44.4	22.1	0.00e+00	75	37	0	1189085184	60	8126
2026-01-04 01:16:16.22	329.13	19.14	-42.9	-44.0	22.5	0.00e+00	0	37	0	1190133760	60	7728
2026-01-04 01:16:17.24	329.22	19.02	-42.8	-43.9	22.7	0.00e+00	92	37	0	1192230912	60	7611
2026-01-04 01:16:18.25	329.31	18.91	-42.7	-43.7	22.9	0.00e+00	0	37	0	1194328064	60	7459
2026-01-04 01:16:19.26	329.40	18.79	-42.9	-43.9	22.8	0.00e+00	0	37	0	1196425216	60	7665
2026-01-04 01:16:20.27	329.48	18.67	-42.9	-43.8	23.0	0.00e+00	0	37	0	1198522368	60	7582
2026-01-04 01:16:21.28	329.57	18.56	-42.4	-43.4	22.7	0.00e+00	0	37	0	1199570944	60	7239
2026-01-04 01:16:22.29	329.66	18.44	-42.4	-43.4	22.9	0.00e+00	43	37	0	1201668096	60	7231
