passes_logs/2026/01/04/R4.6S_Anadyr_2ch/R4.6S_Anadyr_2ch__20260104_173142_FENGYUN_3D_rec.log

#Pass ID: 20260104_173142_FENGYUN 3D
#Satellite: FENGYUN 3D
#Configuration: FENGYUN 3D
#almurnet v.1.7.20251203
#Start time: 2026-01-04 17:31:43

#Version: 2.2.20231116
#Station: R4.6S_Anadyr_2ch
#Location: 177.4865 lon 64.73178 lat
#TLE: 1 43010U 17072A   25350.96693137  .00000321  00000+0  17364-3 0  9993
#TLE: 2 43010  98.9888 317.3403 0001146 169.6565 190.4634 14.19686173419132

#Time	Az	El	Level	Level2	SNR	BER	BlckErr	Temp	State	Recorded	gain1	gain2
2026-01-04 17:31:43.12	22.94	0.05	-41.5	-43.0	6.5	3.02e+01	41	28	0	0	60	7346
2026-01-04 17:31:44.13	22.93	0.11	-52.7	-65.1	3.6	8.45e-01	0	29	104	0	60	87718
2026-01-04 17:31:45.14	22.91	0.17	-52.3	-64.7	3.6	8.45e-01	0	29	104	0	60	83299
2026-01-04 17:31:46.15	22.90	0.23	-52.9	-65.3	3.6	8.46e-01	0	29	104	0	60	89857
2026-01-04 17:31:47.16	22.88	0.29	-53.5	-65.8	3.6	8.45e-01	0	29	104	0	60	95088
2026-01-04 17:31:48.17	22.86	0.35	-53.6	-66.0	3.6	8.45e-01	0	29	104	0	60	96959
2026-01-04 17:31:49.18	22.85	0.41	-54.0	-66.4	3.6	8.45e-01	0	29	104	0	60	102231
2026-01-04 17:31:50.19	22.83	0.47	-53.0	-65.4	3.6	8.46e-01	0	30	104	0	60	90491
2026-01-04 17:31:51.20	22.82	0.53	-53.8	-66.1	3.6	8.44e-01	0	30	104	0	60	98746
2026-01-04 17:31:52.21	22.80	0.59	-52.6	-64.9	3.6	8.45e-01	0	30	104	0	60	85904
2026-01-04 17:31:53.22	22.78	0.65	-52.4	-64.8	3.6	8.45e-01	0	29	104	0	60	84412
2026-01-04 17:31:54.24	22.77	0.71	-52.3	-64.6	3.6	8.45e-01	0	30	104	0	60	83274
2026-01-04 17:31:55.25	22.75	0.77	-51.7	-64.1	3.6	8.46e-01	0	30	104	0	60	78473
2026-01-04 17:31:56.26	22.73	0.83	-51.8	-64.1	3.6	8.45e-01	0	30	104	0	60	78280
2026-01-04 17:31:57.27	22.72	0.90	-51.6	-64.0	3.6	8.44e-01	0	30	104	0	60	77260
2026-01-04 17:31:58.28	22.70	0.96	-51.6	-64.0	3.6	8.45e-01	0	30	104	0	60	77226
2026-01-04 17:31:59.29	22.68	1.02	-51.5	-63.9	3.6	8.45e-01	0	30	104	0	60	76339
2026-01-04 17:32:00.30	22.67	1.08	-51.5	-63.8	3.6	8.46e-01	0	30	104	0	60	75704
2026-01-04 17:32:01.31	22.65	1.14	-51.2	-63.5	3.6	8.45e-01	0	30	104	0	60	73367
2026-01-04 17:32:02.32	22.63	1.21	-51.1	-63.5	3.6	8.45e-01	0	30	104	0	60	72908
2026-01-04 17:32:03.33	22.61	1.27	-50.9	-63.3	3.6	8.46e-01	0	30	104	0	60	71196
2026-01-04 17:32:04.34	22.60	1.33	-50.8	-63.2	3.6	8.46e-01	0	30	104	0	60	70217
2026-01-04 17:32:05.35	22.58	1.39	-50.4	-62.7	3.6	8.45e-01	0	30	104	0	60	66780
2026-01-04 17:32:06.36	22.56	1.45	-50.2	-62.5	3.6	8.46e-01	0	30	104	0	60	64972
2026-01-04 17:32:07.37	22.54	1.52	-50.1	-62.4	3.6	8.46e-01	0	30	104	0	60	64387
2026-01-04 17:32:08.39	22.53	1.58	-50.1	-62.4	3.6	8.45e-01	0	30	104	0	60	64206
2026-01-04 17:32:09.40	22.51	1.64	-50.1	-62.4	3.6	8.44e-01	0	30	104	0	60	64348
2026-01-04 17:32:10.41	22.49	1.71	-50.0	-62.3	3.6	8.45e-01	0	30	104	0	60	63877
2026-01-04 17:32:11.42	22.47	1.77	-50.0	-62.3	3.6	8.46e-01	0	30	104	0	60	63723
2026-01-04 17:32:12.43	22.45	1.83	-50.1	-62.4	3.6	8.45e-01	0	30	104	0	60	64172
2026-01-04 17:32:13.44	22.44	1.90	-50.1	-62.3	3.6	8.46e-01	0	30	104	0	60	63189
2026-01-04 17:32:14.45	22.42	1.96	-50.1	-61.9	3.6	8.45e-01	0	30	104	0	60	60946
2026-01-04 17:32:15.46	22.40	2.03	-50.1	-62.0	3.6	8.45e-01	0	30	104	0	60	61229
2026-01-04 17:32:16.47	22.38	2.09	-50.1	-61.8	3.6	8.45e-01	0	30	104	0	60	59802
2026-01-04 17:32:17.48	22.36	2.15	-50.1	-61.9	3.6	8.45e-01	0	30	104	0	60	60435
2026-01-04 17:32:18.49	22.34	2.22	-50.1	-61.9	3.6	8.46e-01	0	30	104	0	60	60380
2026-01-04 17:32:19.50	22.32	2.28	-50.1	-61.9	3.6	8.45e-01	0	30	104	0	60	60406
2026-01-04 17:32:20.51	22.30	2.35	-50.2	-62.3	3.6	8.45e-01	0	30	104	0	60	63264
2026-01-04 17:32:21.53	22.29	2.41	-50.2	-62.4	3.5	8.45e-01	0	30	104	0	60	63933
2026-01-04 17:32:22.54	22.27	2.48	-50.1	-62.5	3.6	8.45e-01	0	30	104	0	60	64741
2026-01-04 17:32:23.55	22.25	2.54	-50.1	-62.4	3.6	8.46e-01	0	30	104	0	60	64642
2026-01-04 17:32:24.56	22.23	2.61	-50.1	-62.4	3.6	8.46e-01	0	30	104	0	60	64187
2026-01-04 17:32:25.56	22.21	2.67	-50.1	-62.2	3.6	8.46e-01	0	30	104	0	60	62789
2026-01-04 17:32:26.57	22.19	2.74	-50.2	-62.0	3.6	8.44e-01	0	30	104	0	60	61387
2026-01-04 17:32:27.58	22.17	2.80	-50.1	-61.6	3.5	8.45e-01	0	30	104	0	60	58636
2026-01-04 17:32:28.60	22.15	2.87	-50.1	-61.5	3.6	8.44e-01	0	30	104	0	60	57770
2026-01-04 17:32:29.61	22.13	2.93	-50.1	-61.2	3.6	8.45e-01	0	30	104	0	60	56078
2026-01-04 17:32:30.62	22.11	3.00	-50.0	-60.7	3.6	8.45e-01	0	30	104	0	60	52829
2026-01-04 17:32:31.63	22.09	3.07	-49.9	-60.2	3.6	8.44e-01	0	30	104	0	60	49770
2026-01-04 17:32:32.64	22.07	3.13	-49.9	-59.9	3.7	8.42e-01	0	30	104	0	60	48144
2026-01-04 17:32:33.65	22.05	3.20	-49.9	-59.6	3.9	8.41e-01	0	30	104	0	60	46517
2026-01-04 17:32:34.66	22.03	3.27	-49.9	-60.4	3.6	8.45e-01	0	30	104	0	60	51257
2026-01-04 17:32:35.67	22.01	3.33	-50.0	-61.1	3.6	8.43e-01	0	30	104	0	60	55050
2026-01-04 17:32:36.68	21.99	3.40	-49.9	-60.1	3.6	8.45e-01	0	31	104	0	60	49178
2026-01-04 17:32:37.69	21.97	3.47	-49.8	-58.9	3.8	8.39e-01	0	30	104	0	60	43006
2026-01-04 17:32:38.70	21.94	3.53	-49.0	-54.9	7.1	6.46e-01	0	30	0	0	60	26999
2026-01-04 17:32:39.71	21.92	3.60	-48.1	-51.9	9.9	4.52e-02	0	30	0	5242880	60	19227
2026-01-04 17:32:40.72	21.90	3.67	-47.1	-50.2	11.5	2.15e-03	0	30	0	10485760	60	15694
2026-01-04 17:32:41.74	21.88	3.74	-45.8	-48.0	13.1	1.12e-04	0	30	0	16777216	60	12223
2026-01-04 17:32:42.75	21.86	3.81	-44.7	-46.5	14.7	0.00e+00	0	30	0	22020096	60	10299
2026-01-04 17:32:43.76	21.84	3.87	-43.5	-45.0	16.8	0.00e+00	0	30	0	28311552	60	8633
2026-01-04 17:32:44.77	21.82	3.94	-44.7	-46.4	15.4	0.00e+00	0	30	0	33554432	60	10224
2026-01-04 17:32:45.78	21.79	4.01	-42.8	-44.1	15.7	0.00e+00	0	30	0	38797312	60	7804
2026-01-04 17:32:46.79	21.77	4.08	-42.4	-43.7	17.5	0.00e+00	0	30	0	45088768	60	7433
2026-01-04 17:32:47.80	21.75	4.15	-44.0	-45.5	16.0	0.00e+00	0	30	0	50331648	60	9214
2026-01-04 17:32:48.81	21.73	4.22	-50.1	-61.5	3.6	7.59e-01	0	30	104	54525952	60	57908
2026-01-04 17:32:49.83	21.71	4.29	-48.6	-53.4	5.1	8.36e-01	0	30	104	54525952	60	22852
2026-01-04 17:32:50.84	21.68	4.36	-49.7	-58.1	3.4	3.75e-01	0	30	0	54525952	60	39101
2026-01-04 17:32:51.85	21.66	4.43	-38.9	-39.7	20.3	8.00e-06	0	30	104	54525952	56	5919
2026-01-04 17:32:52.86	21.64	4.49	-50.1	-62.0	3.6	7.32e-05	0	30	104	58720256	60	61570
2026-01-04 17:32:53.87	21.62	4.56	-38.4	-39.2	22.4	6.80e-06	0	30	0	58720256	56	5582
2026-01-04 17:32:54.88	21.59	4.63	-39.0	-39.8	21.8	0.00e+00	0	30	0	63963136	56	6015
2026-01-04 17:32:55.89	21.57	4.70	-38.7	-39.5	22.1	0.00e+00	0	30	0	70254592	56	5819
2026-01-04 17:32:56.90	21.55	4.77	-38.9	-39.7	21.9	0.00e+00	0	30	0	75497472	56	5922
2026-01-04 17:32:57.91	21.52	4.85	-38.8	-39.6	21.9	0.00e+00	0	30	0	80740352	56	5844
2026-01-04 17:32:58.92	21.50	4.92	-38.8	-39.7	22.1	0.00e+00	0	30	0	87031808	56	5910
2026-01-04 17:32:59.93	21.48	4.99	-38.6	-39.4	21.9	0.00e+00	0	30	0	92274688	54	6421
2026-01-04 17:33:00.95	21.45	5.06	-39.0	-39.8	21.9	0.00e+00	0	30	0	98566144	56	6009
2026-01-04 17:33:01.96	21.43	5.13	-38.9	-39.7	21.9	0.00e+00	0	30	0	103809024	56	5919
2026-01-04 17:33:02.97	21.41	5.20	-38.7	-39.6	22.1	0.00e+00	0	30	0	109051904	56	5832
2026-01-04 17:33:03.98	21.38	5.27	-38.7	-39.5	22.1	0.00e+00	0	30	0	115343360	56	5823
2026-01-04 17:33:04.99	21.36	5.34	-38.1	-38.9	22.3	0.00e+00	0	30	0	120586240	54	6086
2026-01-04 17:33:06.00	21.33	5.42	-38.6	-39.4	22.2	0.00e+00	0	30	0	126877696	54	6398
2026-01-04 17:33:07.01	21.31	5.49	-38.3	-39.1	22.3	0.00e+00	0	30	0	132120576	54	6201
2026-01-04 17:33:08.02	21.28	5.56	-38.6	-39.4	22.2	0.00e+00	0	30	0	138412032	56	5725
2026-01-04 17:33:09.03	21.26	5.63	-39.1	-39.9	21.8	0.00e+00	0	30	0	143654912	56	6074
2026-01-04 17:33:10.05	21.23	5.71	-38.9	-39.8	21.6	0.00e+00	0	30	0	149946368	56	5978
2026-01-04 17:33:11.06	21.21	5.78	-39.4	-40.3	21.5	0.00e+00	0	30	0	155189248	56	6324
2026-01-04 17:33:12.07	21.18	5.85	-38.7	-39.5	21.8	0.00e+00	0	30	0	160432128	56	5799
2026-01-04 17:33:13.08	21.16	5.93	-38.8	-39.6	22.2	0.00e+00	0	30	0	166723584	56	5841
2026-01-04 17:33:14.09	21.13	6.00	-38.7	-39.5	21.9	0.00e+00	0	30	0	171966464	56	5799
2026-01-04 17:33:15.10	21.11	6.07	-38.2	-39.0	22.5	0.00e+00	0	30	0	178257920	56	5481
2026-01-04 17:33:16.11	21.08	6.15	-38.7	-39.5	22.0	0.00e+00	0	30	0	183500800	56	5790
2026-01-04 17:33:17.12	21.05	6.22	-38.5	-39.3	22.5	0.00e+00	0	30	0	188743680	56	5658
2026-01-04 17:33:18.13	21.03	6.30	-39.1	-39.9	21.8	0.00e+00	0	30	0	195035136	56	6090
2026-01-04 17:33:19.14	21.00	6.37	-38.9	-39.7	21.9	0.00e+00	0	30	0	200278016	56	5935
2026-01-04 17:33:20.15	20.98	6.45	-38.5	-39.3	22.4	0.00e+00	0	30	0	206569472	56	5654
2026-01-04 17:33:21.16	20.95	6.52	-38.3	-39.2	22.4	0.00e+00	0	30	0	211812352	56	5577
2026-01-04 17:33:22.18	20.92	6.60	-38.5	-39.2	22.4	0.00e+00	0	30	0	217055232	56	5619
2026-01-04 17:33:23.19	20.89	6.67	-38.3	-39.1	22.5	0.00e+00	0	30	0	223346688	54	6188
2026-01-04 17:33:24.20	20.87	6.75	-38.3	-39.1	22.6	0.00e+00	0	30	0	228589568	54	6182
2026-01-04 17:33:25.21	20.84	6.82	-38.6	-39.4	22.4	0.00e+00	0	30	0	234881024	54	6395
2026-01-04 17:33:26.22	20.81	6.90	-38.1	-38.9	22.7	0.00e+00	0	30	0	240123904	54	6087
2026-01-04 17:33:27.23	20.79	6.98	-37.9	-38.7	23.0	0.00e+00	0	30	0	246415360	54	5912
2026-01-04 17:33:28.24	20.76	7.05	-38.3	-39.0	22.7	0.00e+00	0	30	0	251658240	54	6171
2026-01-04 17:33:29.25	20.73	7.13	-37.9	-38.7	23.0	0.00e+00	0	30	0	257949696	54	5931
2026-01-04 17:33:30.26	20.70	7.21	-37.9	-38.6	23.0	0.00e+00	0	30	0	263192576	54	5891
2026-01-04 17:33:31.28	20.67	7.28	-37.7	-38.5	23.2	0.00e+00	0	30	0	268435456	54	5779
2026-01-04 17:33:32.29	20.64	7.36	-37.6	-38.3	23.4	0.00e+00	0	30	0	274726912	54	5677
2026-01-04 17:33:33.30	20.62	7.44	-37.7	-38.4	23.1	0.00e+00	0	30	0	279969792	54	5759
2026-01-04 17:33:34.31	20.59	7.52	-37.7	-38.5	23.2	0.00e+00	0	30	0	286261248	54	5767
2026-01-04 17:33:35.32	20.56	7.60	-37.8	-38.6	23.3	0.00e+00	0	30	0	291504128	54	5840
2026-01-04 17:33:36.33	20.53	7.67	-37.7	-38.5	23.3	0.00e+00	0	30	0	296747008	54	5779
2026-01-04 17:33:37.34	20.50	7.75	-37.5	-38.2	23.5	0.00e+00	0	30	0	303038464	54	5619
2026-01-04 17:33:38.35	20.47	7.83	-37.5	-38.2	23.5	0.00e+00	0	30	0	308281344	54	5607
2026-01-04 17:33:39.36	20.44	7.91	-37.6	-38.4	23.4	0.00e+00	0	30	0	314572800	54	5711
2026-01-04 17:33:40.38	20.41	7.99	-37.8	-38.6	23.3	0.00e+00	0	30	0	319815680	54	5831
2026-01-04 17:33:41.39	20.38	8.07	-37.9	-38.6	23.3	0.00e+00	0	31	0	326107136	54	5879
2026-01-04 17:33:42.40	20.35	8.15	-37.7	-38.5	23.4	0.00e+00	0	30	0	331350016	54	5781
2026-01-04 17:33:43.41	20.32	8.23	-37.6	-38.4	23.6	0.00e+00	0	31	0	336592896	54	5697
2026-01-04 17:33:44.42	20.29	8.31	-37.8	-38.6	23.3	0.00e+00	0	30	0	342884352	54	5850
2026-01-04 17:33:45.43	20.26	8.39	-37.4	-38.2	23.6	0.00e+00	0	30	0	348127232	54	5576
2026-01-04 17:33:46.44	20.23	8.47	-37.8	-38.6	23.5	0.00e+00	0	31	0	354418688	54	5866
2026-01-04 17:33:47.45	20.20	8.55	-37.5	-38.3	23.7	0.00e+00	0	30	0	359661568	54	5634
2026-01-04 17:33:48.46	20.16	8.63	-37.8	-38.6	23.5	0.00e+00	0	30	0	365953024	54	5840
2026-01-04 17:33:49.47	20.13	8.71	-37.4	-38.1	23.8	0.00e+00	0	30	0	371195904	54	5562
2026-01-04 17:33:50.49	20.10	8.80	-37.6	-38.3	23.5	0.00e+00	0	30	0	377487360	54	5669
2026-01-04 17:33:51.50	20.07	8.88	-37.4	-38.1	23.7	0.00e+00	0	30	0	382730240	54	5541
2026-01-04 17:33:52.51	20.04	8.96	-37.5	-38.3	23.5	0.00e+00	0	30	0	387973120	54	5642
2026-01-04 17:33:53.52	20.00	9.04	-37.3	-38.0	23.5	0.00e+00	0	31	0	394264576	54	5492
2026-01-04 17:33:54.53	19.97	9.13	-37.5	-38.3	23.7	0.00e+00	0	30	0	399507456	54	5640
2026-01-04 17:33:55.54	19.94	9.21	-37.2	-38.0	24.0	0.00e+00	0	30	0	405798912	52	6112
2026-01-04 17:33:56.55	19.90	9.29	-37.0	-37.8	24.1	0.00e+00	0	30	0	411041792	52	5967
2026-01-04 17:33:57.56	19.87	9.38	-37.1	-37.9	24.0	0.00e+00	0	30	0	416284672	52	6036
2026-01-04 17:33:58.58	19.84	9.46	-37.1	-37.8	24.1	0.00e+00	0	31	0	422576128	52	6012
2026-01-04 17:33:59.59	19.80	9.55	-37.2	-37.9	24.0	0.00e+00	0	31	0	427819008	52	6099
2026-01-04 17:34:00.60	19.77	9.63	-37.1	-37.8	24.0	0.00e+00	0	31	0	434110464	52	6025
2026-01-04 17:34:01.61	19.74	9.71	-36.8	-37.6	24.4	0.00e+00	0	31	0	439353344	52	5845
2026-01-04 17:34:02.62	19.70	9.80	-36.9	-37.7	24.2	0.00e+00	0	31	0	444596224	52	5912
2026-01-04 17:34:03.63	19.67	9.88	-36.9	-37.7	24.1	0.00e+00	0	31	0	450887680	52	5907
2026-01-04 17:34:04.64	19.63	9.97	-36.6	-37.2	24.5	0.00e+00	0	30	0	456130560	52	5622
2026-01-04 17:34:05.65	19.60	10.06	-37.0	-37.7	24.2	0.00e+00	0	31	0	462422016	52	5962
2026-01-04 17:34:06.66	19.56	10.14	-36.9	-37.6	24.4	0.00e+00	0	30	0	467664896	52	5837
2026-01-04 17:34:07.67	19.53	10.23	-36.7	-37.5	24.4	0.00e+00	0	31	0	473956352	52	5775
2026-01-04 17:34:08.69	19.49	10.32	-36.8	-37.5	24.3	0.00e+00	0	30	0	479199232	52	5802
2026-01-04 17:34:09.70	19.45	10.40	-36.9	-37.6	24.1	0.00e+00	0	31	0	485490688	52	5889
2026-01-04 17:34:10.71	19.42	10.49	-36.8	-37.5	24.5	0.00e+00	0	31	0	490733568	52	5806
2026-01-04 17:34:11.72	19.38	10.58	-36.5	-37.2	24.7	0.00e+00	0	31	0	495976448	52	5584
2026-01-04 17:34:12.73	19.34	10.67	-36.7	-37.4	24.5	0.00e+00	0	30	0	502267904	52	5717
2026-01-04 17:34:13.74	19.31	10.75	-36.7	-37.4	24.4	0.00e+00	0	30	0	507510784	52	5710
2026-01-04 17:34:14.75	19.27	10.84	-36.8	-37.5	24.4	0.00e+00	0	30	0	513802240	52	5783
2026-01-04 17:34:15.76	19.23	10.93	-37.0	-37.7	24.2	0.00e+00	0	30	0	519045120	52	5951
2026-01-04 17:34:16.78	19.19	11.02	-36.9	-37.6	24.2	0.00e+00	0	30	0	524288000	52	5871
2026-01-04 17:34:17.79	19.16	11.11	-37.0	-37.7	24.0	0.00e+00	0	31	0	530579456	52	5962
2026-01-04 17:34:18.80	19.12	11.20	-37.4	-38.1	23.8	0.00e+00	0	30	0	535822336	52	6210
2026-01-04 17:34:19.81	19.08	11.29	-37.0	-37.7	24.1	0.00e+00	0	31	0	542113792	52	5919
2026-01-04 17:34:20.82	19.04	11.38	-36.9	-37.6	24.1	0.00e+00	0	31	0	547356672	52	5876
2026-01-04 17:34:21.83	19.00	11.47	-37.7	-38.4	23.2	0.00e+00	0	31	0	552599552	54	5744
2026-01-04 17:34:22.84	18.96	11.56	-37.3	-38.0	24.2	0.00e+00	0	31	0	558891008	52	6135
2026-01-04 17:34:23.85	18.92	11.65	-37.3	-38.0	24.3	0.00e+00	0	31	0	564133888	52	6115
2026-01-04 17:34:24.86	18.88	11.75	-37.3	-38.0	24.1	0.00e+00	0	31	0	570425344	52	6128
2026-01-04 17:34:25.88	18.84	11.84	-36.9	-37.7	24.4	0.00e+00	0	31	0	575668224	52	5899
2026-01-04 17:34:26.89	18.80	11.93	-37.1	-37.8	24.2	0.00e+00	0	31	0	581959680	52	6032
2026-01-04 17:34:27.90	18.76	12.02	-37.2	-37.9	24.0	0.00e+00	0	31	0	587202560	52	6072
2026-01-04 17:34:28.91	18.72	12.12	-37.0	-37.7	24.4	0.00e+00	0	31	0	593494016	52	5923
2026-01-04 17:34:29.92	18.68	12.21	-37.7	-38.5	23.7	0.00e+00	0	31	0	598736896	52	6465
2026-01-04 17:34:30.93	18.64	12.30	-37.3	-38.0	24.0	0.00e+00	0	31	0	605028352	52	6140
2026-01-04 17:34:31.94	18.60	12.40	-36.8	-37.5	24.5	0.00e+00	0	31	0	610271232	52	5789
2026-01-04 17:34:32.95	18.55	12.49	-36.7	-37.4	24.5	0.00e+00	0	31	0	615514112	52	5734
2026-01-04 17:34:33.96	18.51	12.59	-37.1	-37.9	24.5	0.00e+00	0	31	0	621805568	52	6048
2026-01-04 17:34:34.97	18.47	12.68	-36.9	-37.6	24.4	0.00e+00	0	31	0	627048448	52	5890
2026-01-04 17:34:35.99	18.43	12.78	-37.8	-38.6	23.6	0.00e+00	0	31	0	633339904	52	6583
2026-01-04 17:34:37.00	18.38	12.87	-37.5	-38.2	24.0	0.00e+00	0	31	0	638582784	52	6303
2026-01-04 17:34:38.01	18.34	12.97	-37.0	-37.8	24.3	0.00e+00	0	31	0	643825664	52	5979
2026-01-04 17:34:39.02	18.29	13.07	-37.2	-37.9	24.2	0.00e+00	0	31	0	650117120	52	6086
2026-01-04 17:34:40.03	18.25	13.16	-37.2	-37.9	24.4	0.00e+00	0	31	0	655360000	52	6059
2026-01-04 17:34:41.04	18.21	13.26	-36.8	-37.5	24.4	0.00e+00	0	31	0	661651456	52	5775
2026-01-04 17:34:42.05	18.16	13.36	-36.7	-37.4	24.6	0.00e+00	0	31	0	666894336	52	5708
2026-01-04 17:34:43.06	18.12	13.46	-36.6	-37.3	24.9	0.00e+00	0	31	0	672137216	52	5652
2026-01-04 17:34:44.07	18.07	13.55	-36.5	-37.2	24.6	0.00e+00	0	31	0	678428672	52	5597
2026-01-04 17:34:45.09	18.02	13.65	-36.8	-37.5	24.6	0.00e+00	0	31	0	683671552	52	5807
2026-01-04 17:34:46.10	17.98	13.75	-36.4	-37.1	24.8	0.00e+00	0	31	0	689963008	52	5521
2026-01-04 17:34:47.11	17.93	13.85	-36.4	-37.1	24.9	0.00e+00	0	31	0	695205888	52	5535
2026-01-04 17:34:48.12	17.88	13.95	-36.8	-37.5	24.6	0.00e+00	0	30	0	701497344	52	5789
2026-01-04 17:34:49.13	17.84	14.05	-37.0	-37.7	24.4	0.00e+00	0	31	0	706740224	52	5930
2026-01-04 17:34:50.14	17.79	14.15	-36.6	-37.3	24.4	0.00e+00	0	31	0	713031680	52	5643
2026-01-04 17:34:51.15	17.74	14.25	-36.8	-37.6	24.3	0.00e+00	0	31	0	718274560	52	5835
2026-01-04 17:34:52.16	17.69	14.36	-36.7	-37.4	24.7	0.00e+00	0	31	0	723517440	52	5723
2026-01-04 17:34:53.18	17.64	14.46	-36.6	-37.3	24.6	0.00e+00	0	31	0	729808896	52	5682
2026-01-04 17:34:54.19	17.59	14.56	-36.6	-37.3	24.7	0.00e+00	0	31	0	735051776	52	5664
2026-01-04 17:34:55.20	17.54	14.66	-35.9	-36.6	25.3	0.00e+00	0	31	0	741343232	50	5842
2026-01-04 17:34:56.21	17.49	14.77	-36.5	-37.2	24.9	0.00e+00	0	31	0	746586112	50	6295
2026-01-04 17:34:57.22	17.44	14.87	-36.6	-37.3	24.4	0.00e+00	0	31	0	751828992	50	6320
2026-01-04 17:34:58.23	17.39	14.97	-36.6	-37.3	25.3	0.00e+00	0	31	0	758120448	52	5635
2026-01-04 17:34:59.24	17.34	15.08	-36.1	-36.8	25.2	0.00e+00	0	31	0	763363328	50	5993
2026-01-04 17:35:00.25	17.29	15.18	-36.2	-37.0	24.7	0.00e+00	0	31	0	769654784	50	6108
2026-01-04 17:35:01.26	17.24	15.29	-36.1	-36.7	25.2	0.00e+00	0	30	0	774897664	50	5958
2026-01-04 17:35:02.28	17.19	15.39	-36.1	-36.8	25.0	0.00e+00	0	31	0	780140544	50	6006
2026-01-04 17:35:03.29	17.14	15.50	-35.9	-36.5	25.5	0.00e+00	0	31	0	786432000	50	5810
2026-01-04 17:35:04.30	17.08	15.61	-35.6	-36.3	25.6	0.00e+00	0	31	0	791674880	50	5666
2026-01-04 17:35:05.31	17.03	15.71	-35.4	-36.1	25.8	0.00e+00	0	31	0	797966336	50	5517
2026-01-04 17:35:06.32	16.98	15.82	-35.4	-36.1	25.9	0.00e+00	0	31	0	803209216	50	5508
2026-01-04 17:35:07.33	16.92	15.93	-36.2	-36.9	25.2	0.00e+00	0	31	0	809500672	50	6064
2026-01-04 17:35:08.34	16.87	16.04	-35.8	-36.4	25.7	0.00e+00	0	31	0	814743552	50	5737
2026-01-04 17:35:09.35	16.81	16.15	-35.3	-36.0	25.9	0.00e+00	0	30	0	821035008	50	5449
2026-01-04 17:35:10.37	16.76	16.26	-35.5	-36.1	25.7	0.00e+00	0	31	0	826277888	50	5557
2026-01-04 17:35:11.38	16.70	16.37	-35.3	-35.9	26.1	0.00e+00	0	30	0	831520768	50	5434
2026-01-04 17:35:12.39	16.64	16.48	-35.1	-35.7	26.1	0.00e+00	0	31	0	837812224	48	5949
2026-01-04 17:35:13.40	16.59	16.59	-35.4	-36.1	25.9	0.00e+00	0	31	0	843055104	48	6179
2026-01-04 17:35:14.41	16.53	16.70	-35.1	-35.8	26.2	0.00e+00	0	31	0	849346560	48	5975
2026-01-04 17:35:15.42	16.47	16.81	-34.9	-35.6	26.3	0.00e+00	0	31	0	854589440	48	5835
2026-01-04 17:35:16.43	16.41	16.92	-34.9	-35.6	26.1	0.00e+00	0	30	0	859832320	48	5842
2026-01-04 17:35:17.44	16.36	17.03	-34.9	-35.5	26.4	0.00e+00	0	31	0	866123776	48	5797
2026-01-04 17:35:18.45	16.30	17.15	-34.8	-35.4	26.4	0.00e+00	0	30	0	871366656	48	5755
2026-01-04 17:35:19.46	16.24	17.26	-34.8	-35.4	26.4	0.00e+00	0	31	0	877658112	48	5755
2026-01-04 17:35:20.48	16.18	17.38	-34.8	-35.5	26.3	0.00e+00	0	31	0	882900992	48	5786
2026-01-04 17:35:21.49	16.12	17.49	-34.8	-35.4	26.4	0.00e+00	0	31	0	889192448	48	5729
2026-01-04 17:35:22.50	16.05	17.61	-34.7	-35.3	26.5	0.00e+00	0	31	0	894435328	48	5677
2026-01-04 17:35:23.51	15.99	17.72	-34.9	-35.5	26.3	0.00e+00	0	31	0	899678208	48	5816
2026-01-04 17:35:24.52	15.93	17.84	-35.0	-35.7	26.3	0.00e+00	0	30	0	905969664	48	5933
2026-01-04 17:35:25.53	15.87	17.95	-34.7	-35.3	26.5	0.00e+00	0	30	0	911212544	48	5668
2026-01-04 17:35:26.54	15.81	18.07	-34.6	-35.3	26.6	0.00e+00	0	31	0	917504000	48	5655
2026-01-04 17:35:27.55	15.74	18.19	-34.6	-35.3	26.6	0.00e+00	0	30	0	922746880	48	5661
2026-01-04 17:35:28.56	15.68	18.31	-34.6	-35.2	26.6	0.00e+00	0	31	0	929038336	48	5627
2026-01-04 17:35:29.57	15.61	18.43	-34.8	-35.5	26.4	0.00e+00	0	31	0	934281216	48	5771
2026-01-04 17:35:30.59	15.55	18.55	-34.9	-35.6	26.6	0.00e+00	0	31	0	940572672	48	5841
2026-01-04 17:35:31.60	15.48	18.67	-34.7	-35.4	26.5	0.00e+00	0	31	0	945815552	48	5702
2026-01-04 17:35:32.61	15.42	18.79	-34.6	-35.2	26.6	0.00e+00	0	30	0	951058432	48	5618
2026-01-04 17:35:33.62	15.35	18.91	-34.8	-35.4	26.5	0.00e+00	0	30	0	957349888	48	5732
2026-01-04 17:35:34.63	15.28	19.03	-34.6	-35.3	26.7	0.00e+00	0	30	0	962592768	48	5635
2026-01-04 17:35:35.64	15.21	19.15	-34.5	-35.1	26.7	0.00e+00	0	31	0	968884224	48	5564
2026-01-04 17:35:36.65	15.15	19.27	-34.7	-35.3	26.6	0.00e+00	0	31	0	974127104	48	5680
2026-01-04 17:35:37.66	15.08	19.40	-34.4	-35.1	26.8	0.00e+00	0	30	0	979369984	48	5512
2026-01-04 17:35:38.68	15.01	19.52	-34.3	-35.0	26.8	0.00e+00	0	31	0	985661440	48	5482
2026-01-04 17:35:39.69	14.94	19.64	-34.3	-35.0	26.9	0.00e+00	0	31	0	990904320	48	5447
2026-01-04 17:35:40.70	14.86	19.77	-34.4	-35.0	26.8	0.00e+00	0	31	0	997195776	48	5466
2026-01-04 17:35:41.71	14.79	19.89	-34.4	-35.0	26.8	0.00e+00	0	31	0	1002438656	48	5461
2026-01-04 17:35:42.72	14.72	20.02	-34.5	-35.1	26.8	0.00e+00	0	31	0	1007681536	48	5513
2026-01-04 17:35:43.73	14.65	20.15	-34.6	-35.3	26.7	0.00e+00	0	31	0	1013972992	48	5631
2026-01-04 17:35:44.74	14.58	20.27	-34.4	-35.0	27.0	0.00e+00	0	30	0	1019215872	48	5500
2026-01-04 17:35:45.75	14.50	20.40	-34.4	-35.0	26.9	0.00e+00	0	31	0	1025507328	48	5491
2026-01-04 17:35:46.76	14.43	20.53	-34.4	-35.0	26.8	0.00e+00	0	30	0	1030750208	48	5487
2026-01-04 17:35:47.78	14.35	20.66	-34.4	-35.0	26.9	0.00e+00	0	30	0	1037041664	48	5466
2026-01-04 17:35:48.79	14.27	20.79	-34.5	-35.1	26.9	0.00e+00	0	31	0	1042284544	48	5538
2026-01-04 17:35:49.80	14.20	20.92	-34.3	-35.0	27.0	0.00e+00	0	31	0	1048576000	48	5448
2026-01-04 17:35:50.81	14.12	21.05	-34.4	-35.0	26.9	0.00e+00	0	31	0	1053818880	48	5471
2026-01-04 17:35:51.82	14.04	21.18	-34.2	-34.8	27.0	0.00e+00	0	31	0	1059061760	48	5360
2026-01-04 17:35:52.83	13.96	21.31	-34.1	-34.7	27.1	0.00e+00	0	31	0	1065353216	46	5947
2026-01-04 17:35:53.84	13.88	21.45	-34.1	-34.7	27.1	0.00e+00	0	31	0	1070596096	46	5953
2026-01-04 17:35:54.85	13.80	21.58	-34.2	-34.8	26.9	0.00e+00	0	30	0	1076887552	46	6030
2026-01-04 17:35:55.86	13.72	21.71	-34.0	-34.7	27.1	0.00e+00	0	31	0	1082130432	46	5914
2026-01-04 17:35:56.88	13.64	21.85	-34.0	-34.6	27.1	0.00e+00	0	30	0	1087373312	46	5896
2026-01-04 17:35:57.89	13.56	21.98	-33.9	-34.6	27.2	0.00e+00	0	31	0	1093664768	46	5837
2026-01-04 17:35:58.90	13.48	22.12	-34.0	-34.7	27.1	0.00e+00	0	31	0	1098907648	46	5897
2026-01-04 17:35:59.91	13.39	22.26	-33.8	-34.5	27.3	0.00e+00	0	31	0	1105199104	46	5763
2026-01-04 17:36:00.92	13.31	22.39	-33.9	-34.5	27.3	0.00e+00	0	31	0	1110441984	46	5776
2026-01-04 17:36:01.93	13.22	22.53	-34.0	-34.5	27.3	0.00e+00	0	31	0	1115684864	46	5826
2026-01-04 17:36:02.94	13.14	22.67	-33.9	-34.5	27.3	0.00e+00	0	31	0	1121976320	46	5812
2026-01-04 17:36:03.95	13.05	22.81	-33.7	-34.4	27.4	0.00e+00	0	31	0	1127219200	46	5700
2026-01-04 17:36:04.96	12.96	22.95	-34.0	-34.6	27.2	0.00e+00	0	31	0	1133510656	46	5839
2026-01-04 17:36:05.97	12.87	23.09	-33.6	-34.3	27.4	0.00e+00	0	31	0	1138753536	46	5634
2026-01-04 17:36:06.98	12.78	23.23	-33.7	-34.4	27.4	0.00e+00	0	30	0	1145044992	46	5696
2026-01-04 17:36:07.99	12.69	23.37	-33.7	-34.3	27.5	0.00e+00	0	31	0	1150287872	46	5679
2026-01-04 17:36:09.00	12.60	23.52	-33.6	-34.2	27.5	0.00e+00	0	31	0	1156579328	46	5624
2026-01-04 17:36:10.02	12.51	23.66	-33.6	-34.2	27.5	0.00e+00	0	30	0	1161822208	46	5604
2026-01-04 17:36:11.03	12.41	23.81	-33.7	-34.3	27.4	0.00e+00	0	31	0	1167065088	46	5658
2026-01-04 17:36:12.04	12.32	23.95	-33.6	-34.2	27.5	0.00e+00	0	31	0	1173356544	46	5597
2026-01-04 17:36:13.05	12.23	24.10	-34.0	-34.6	27.4	0.00e+00	0	31	0	1178599424	46	5880
2026-01-04 17:36:14.06	12.13	24.24	-33.8	-34.5	27.2	0.00e+00	0	31	0	1184890880	46	5787
2026-01-04 17:36:15.07	12.03	24.39	-33.7	-34.3	27.4	0.00e+00	0	31	0	1190133760	46	5689
2026-01-04 17:36:16.08	11.94	24.54	-33.7	-34.3	27.4	0.00e+00	0	31	0	1195376640	46	5695
2026-01-04 17:36:17.09	11.84	24.69	-34.1	-34.7	27.4	0.00e+00	0	31	0	1201668096	46	5939
2026-01-04 17:36:18.10	11.74	24.83	-33.7	-34.3	27.5	0.00e+00	0	31	0	1206910976	46	5664
2026-01-04 17:36:19.12	11.64	24.99	-33.6	-34.2	27.6	0.00e+00	0	31	0	1213202432	46	5583
2026-01-04 17:36:20.13	11.53	25.14	-33.6	-34.2	27.7	0.00e+00	0	31	0	1218445312	46	5596
2026-01-04 17:36:21.14	11.43	25.29	-33.2	-33.8	27.8	0.00e+00	0	31	0	1224736768	46	5374
2026-01-04 17:36:22.15	11.33	25.44	-33.4	-34.0	27.8	0.00e+00	0	31	0	1229979648	46	5453
2026-01-04 17:36:23.16	11.22	25.59	-33.2	-33.8	27.8	0.00e+00	0	31	0	1235222528	46	5366
2026-01-04 17:36:24.17	11.12	25.75	-33.4	-34.0	27.7	0.00e+00	0	31	0	1241513984	44	6164
2026-01-04 17:36:25.18	11.01	25.90	-33.2	-33.9	27.9	0.00e+00	0	31	0	1246756864	44	6035
2026-01-04 17:36:26.19	10.90	26.06	-33.2	-33.8	27.9	0.00e+00	0	31	0	1253048320	44	5975
2026-01-04 17:36:27.20	10.79	26.21	-33.2	-33.8	27.9	0.00e+00	0	31	0	1258291200	44	6009
2026-01-04 17:36:28.21	10.68	26.37	-33.2	-33.8	27.9	0.00e+00	0	31	0	1264582656	44	6002
2026-01-04 17:36:29.22	10.57	26.53	-33.5	-34.0	27.7	0.00e+00	0	31	0	1269825536	46	5495
2026-01-04 17:36:30.24	10.46	26.69	-33.3	-33.9	27.8	0.00e+00	0	31	0	1276116992	44	6082
2026-01-04 17:36:31.25	10.35	26.85	-33.3	-33.9	28.0	0.00e+00	0	31	0	1281359872	44	6068
2026-01-04 17:36:32.26	10.23	27.01	-33.0	-33.6	27.9	0.00e+00	0	31	0	1286602752	44	5884
2026-01-04 17:36:33.27	10.12	27.17	-33.2	-33.8	28.0	0.00e+00	0	31	0	1292894208	44	6031
2026-01-04 17:36:34.28	10.00	27.33	-33.2	-33.8	28.2	0.00e+00	0	31	0	1298137088	44	6007
2026-01-04 17:36:35.29	9.88	27.49	-32.9	-33.5	28.1	0.00e+00	0	31	0	1304428544	44	5796
2026-01-04 17:36:36.30	9.76	27.66	-33.2	-33.8	27.9	0.00e+00	0	31	0	1309671424	44	6020
2026-01-04 17:36:37.31	9.64	27.82	-32.8	-33.4	28.2	0.00e+00	0	31	0	1314914304	44	5744
2026-01-04 17:36:38.32	9.52	27.99	-32.9	-33.5	28.1	0.00e+00	0	31	0	1321205760	44	5815
2026-01-04 17:36:39.33	9.39	28.15	-32.9	-33.5	28.1	0.00e+00	0	31	0	1326448640	44	5820
2026-01-04 17:36:40.34	9.27	28.32	-32.8	-33.4	28.1	0.00e+00	0	31	0	1332740096	44	5761
2026-01-04 17:36:41.35	9.14	28.49	-32.7	-33.4	28.1	0.00e+00	0	31	0	1337982976	44	5699
2026-01-04 17:36:42.36	9.02	28.66	-32.8	-33.4	28.2	0.00e+00	0	31	0	1343225856	44	5741
2026-01-04 17:36:43.38	8.89	28.83	-32.9	-33.5	28.1	0.00e+00	0	31	0	1349517312	44	5788
2026-01-04 17:36:44.39	8.76	29.00	-32.9	-33.5	28.1	0.00e+00	0	31	0	1354760192	44	5810
2026-01-04 17:36:45.40	8.62	29.17	-33.0	-33.6	27.9	0.00e+00	0	31	0	1361051648	44	5874
2026-01-04 17:36:46.41	8.49	29.34	-33.0	-33.6	28.1	0.00e+00	0	31	0	1366294528	44	5860
2026-01-04 17:36:47.42	8.36	29.51	-33.1	-33.7	28.2	0.00e+00	0	31	0	1372585984	44	5917
2026-01-04 17:36:48.43	8.22	29.69	-33.1	-33.7	28.0	0.00e+00	0	31	0	1377828864	44	5916
2026-01-04 17:36:49.44	8.08	29.86	-32.9	-33.5	28.2	0.00e+00	0	31	0	1384120320	44	5817
2026-01-04 17:36:50.45	7.94	30.04	-32.6	-33.3	28.4	0.00e+00	0	31	0	1389363200	44	5652
2026-01-04 17:36:51.46	7.80	30.21	-32.7	-33.3	28.4	0.00e+00	0	31	0	1394606080	44	5643
2026-01-04 17:36:52.47	7.66	30.39	-32.9	-33.5	28.3	0.00e+00	0	31	0	1400897536	44	5764
2026-01-04 17:36:53.49	7.51	30.57	-32.8	-33.4	28.4	0.00e+00	0	31	0	1406140416	44	5718
2026-01-04 17:36:54.50	7.37	30.75	-32.7	-33.3	28.3	0.00e+00	0	31	0	1412431872	44	5670
2026-01-04 17:36:55.51	7.22	30.93	-32.6	-33.2	28.3	0.00e+00	0	31	0	1417674752	44	5607
2026-01-04 17:36:56.52	7.07	31.11	-33.0	-33.6	28.1	0.00e+00	0	31	0	1422917632	44	5873
2026-01-04 17:36:57.53	6.92	31.29	-33.5	-34.1	27.7	0.00e+00	0	31	0	1429209088	44	6182
2026-01-04 17:36:58.54	6.77	31.48	-32.9	-33.6	28.0	0.00e+00	0	31	0	1434451968	44	5838
2026-01-04 17:36:59.55	6.61	31.66	-33.0	-33.6	28.1	0.00e+00	0	31	0	1440743424	44	5863
2026-01-04 17:37:00.56	6.46	31.85	-32.9	-33.5	28.3	0.00e+00	0	31	0	1445986304	44	5802
2026-01-04 17:37:01.57	6.30	32.03	-32.7	-33.3	28.4	0.00e+00	0	31	0	1451229184	44	5652
2026-01-04 17:37:02.58	6.14	32.22	-32.9	-33.5	28.2	0.00e+00	0	31	0	1457520640	44	5799
2026-01-04 17:37:03.59	5.98	32.40	-32.8	-33.4	28.3	0.00e+00	0	31	0	1462763520	44	5725
2026-01-04 17:37:04.60	5.82	32.59	-32.7	-33.3	28.2	0.00e+00	0	31	0	1469054976	44	5666
2026-01-04 17:37:05.61	5.65	32.78	-32.3	-32.9	28.5	0.00e+00	0	30	0	1474297856	44	5402
2026-01-04 17:37:06.63	5.48	32.97	-32.6	-33.2	28.3	0.00e+00	0	31	0	1480589312	44	5623
2026-01-04 17:37:07.64	5.31	33.16	-33.0	-33.6	28.2	0.00e+00	0	31	0	1485832192	44	5843
2026-01-04 17:37:08.65	5.14	33.36	-32.8	-33.4	27.9	0.00e+00	0	31	0	1492123648	44	5752
2026-01-04 17:37:09.66	4.97	33.55	-32.9	-33.5	28.2	0.00e+00	0	31	0	1497366528	44	5801
2026-01-04 17:37:10.67	4.79	33.74	-33.1	-33.7	27.9	0.00e+00	0	31	0	1502609408	44	5934
2026-01-04 17:37:11.68	4.61	33.94	-33.0	-33.6	28.2	0.00e+00	0	31	0	1508900864	44	5861
2026-01-04 17:37:12.69	4.43	34.13	-32.7	-33.3	28.3	0.00e+00	0	30	0	1514143744	44	5650
2026-01-04 17:37:13.70	4.25	34.33	-32.8	-33.4	28.4	0.00e+00	0	31	0	1520435200	44	5726
2026-01-04 17:37:14.71	4.07	34.53	-32.6	-33.3	28.4	0.00e+00	0	31	0	1525678080	44	5636
2026-01-04 17:37:15.72	3.88	34.73	-32.8	-33.4	28.4	0.00e+00	0	31	0	1530920960	44	5736
2026-01-04 17:37:16.73	3.69	34.92	-32.6	-33.2	28.4	0.00e+00	0	31	0	1537212416	44	5604
2026-01-04 17:37:17.74	3.50	35.13	-32.7	-33.4	28.3	0.00e+00	0	31	0	1542455296	44	5717
2026-01-04 17:37:18.75	3.30	35.33	-32.5	-33.2	28.5	0.00e+00	0	31	0	1548746752	44	5567
2026-01-04 17:37:19.76	3.11	35.53	-32.4	-33.0	28.5	0.00e+00	0	31	0	1553989632	44	5494
2026-01-04 17:37:20.78	2.91	35.73	-32.2	-32.8	28.7	0.00e+00	0	31	0	1559232512	44	5370
2026-01-04 17:37:21.79	2.70	35.94	-32.5	-33.1	28.5	0.00e+00	0	31	0	1565523968	44	5555
2026-01-04 17:37:22.80	2.50	36.14	-32.5	-33.1	28.3	0.00e+00	0	31	0	1570766848	44	5520
2026-01-04 17:37:23.81	2.29	36.35	-32.9	-33.5	28.1	0.00e+00	0	31	0	1577058304	44	5803
2026-01-04 17:37:24.82	2.08	36.55	-32.8	-33.4	28.4	0.00e+00	0	31	0	1582301184	44	5743
2026-01-04 17:37:25.83	1.87	36.76	-32.4	-33.1	28.5	0.00e+00	0	31	0	1588592640	44	5511
2026-01-04 17:37:26.84	1.66	36.97	-32.4	-33.0	28.6	0.00e+00	0	31	0	1593835520	44	5478
2026-01-04 17:37:27.85	1.44	37.18	-32.8	-33.4	28.6	0.00e+00	0	31	0	1600126976	44	5724
2026-01-04 17:37:28.86	1.22	37.39	-32.8	-33.4	28.2	0.00e+00	0	31	0	1605369856	44	5719
2026-01-04 17:37:29.88	0.99	37.60	-32.8	-33.4	28.4	0.00e+00	0	31	0	1610612736	44	5720
2026-01-04 17:37:30.89	0.77	37.81	-32.8	-33.4	28.3	0.00e+00	0	31	0	1616904192	44	5706
2026-01-04 17:37:31.90	0.54	38.02	-32.9	-33.5	28.1	0.00e+00	0	31	0	1622147072	44	5767
2026-01-04 17:37:32.91	0.30	38.24	-33.2	-33.8	28.1	0.00e+00	0	31	0	1628438528	44	6032
2026-01-04 17:37:33.92	0.07	38.45	-33.0	-33.6	28.2	0.00e+00	0	31	0	1633681408	44	5851
2026-01-04 17:37:34.93	359.83	38.67	-33.6	-34.2	27.7	0.00e+00	0	31	0	1638924288	44	6295
2026-01-04 17:37:35.94	359.59	38.88	-33.1	-33.7	28.2	0.00e+00	0	31	0	1645215744	44	5963
2026-01-04 17:37:36.95	359.34	39.10	-33.3	-33.9	28.1	0.00e+00	0	31	0	1650458624	44	6090
2026-01-04 17:37:37.96	359.09	39.31	-33.4	-34.0	27.9	0.00e+00	0	31	0	1656750080	44	6154
2026-01-04 17:37:38.98	358.84	39.53	-32.7	-33.2	28.5	0.00e+00	0	31	0	1661992960	44	5610
2026-01-04 17:37:39.99	358.58	39.75	-32.6	-33.2	28.7	0.00e+00	0	31	0	1668284416	44	5597
2026-01-04 17:37:41.00	358.32	39.97	-32.9	-33.5	28.3	0.00e+00	0	31	0	1673527296	44	5791
2026-01-04 17:37:42.01	358.06	40.19	-32.8	-33.4	28.5	0.00e+00	0	31	0	1678770176	44	5727
2026-01-04 17:37:43.02	357.80	40.41	-32.8	-33.3	28.3	0.00e+00	0	31	0	1685061632	44	5676
2026-01-04 17:37:44.03	357.53	40.63	-32.9	-33.5	28.4	0.00e+00	0	31	0	1690304512	44	5768
2026-01-04 17:37:45.04	357.25	40.85	-33.1	-33.7	28.2	0.00e+00	0	31	0	1696595968	44	5944
2026-01-04 17:37:46.05	356.97	41.08	-33.0	-33.6	28.3	0.00e+00	0	31	0	1701838848	44	5848
2026-01-04 17:37:47.06	356.69	41.30	-32.9	-33.4	28.4	0.00e+00	0	31	0	1708130304	44	5761
2026-01-04 17:37:48.07	356.41	41.52	-33.0	-33.6	28.2	0.00e+00	0	31	0	1713373184	44	5888
2026-01-04 17:37:49.09	356.11	41.75	-33.1	-33.7	28.2	0.00e+00	0	31	0	1719664640	44	5963
2026-01-04 17:37:50.10	355.82	41.97	-33.1	-33.7	28.2	0.00e+00	0	31	0	1724907520	44	5912
2026-01-04 17:37:51.11	355.52	42.20	-32.8	-33.4	28.3	0.00e+00	0	31	0	1730150400	44	5706
2026-01-04 17:37:52.12	355.22	42.43	-33.0	-33.6	28.2	0.00e+00	0	31	0	1736441856	44	5841
2026-01-04 17:37:53.13	354.91	42.65	-33.0	-33.7	28.1	0.00e+00	0	31	0	1741684736	44	5909
2026-01-04 17:37:54.14	354.60	42.88	-32.9	-33.5	28.3	0.00e+00	0	31	0	1747976192	44	5819
2026-01-04 17:37:55.15	354.29	43.10	-33.0	-33.6	28.4	0.00e+00	0	31	0	1753219072	44	5895
2026-01-04 17:37:56.16	353.97	43.33	-33.0	-33.7	28.1	0.00e+00	0	31	0	1758461952	44	5934
2026-01-04 17:37:57.17	353.64	43.56	-33.3	-33.9	28.2	0.00e+00	0	31	0	1764753408	44	6085
2026-01-04 17:37:58.19	353.31	43.79	-33.4	-34.0	28.0	0.00e+00	0	31	0	1769996288	44	6113
2026-01-04 17:37:59.20	352.98	44.02	-33.1	-33.7	28.1	0.00e+00	0	31	0	1776287744	44	5929
2026-01-04 17:38:00.21	352.64	44.25	-33.0	-33.6	28.3	0.00e+00	0	31	0	1781530624	44	5847
2026-01-04 17:38:01.22	352.29	44.48	-33.1	-33.7	28.2	0.00e+00	0	31	0	1786773504	44	5921
2026-01-04 17:38:02.23	351.95	44.70	-33.5	-34.1	27.8	0.00e+00	0	31	0	1793064960	44	6237
2026-01-04 17:38:03.24	351.59	44.93	-33.4	-34.1	27.8	0.00e+00	0	31	0	1798307840	46	5508
2026-01-04 17:38:04.25	351.23	45.16	-33.5	-34.1	27.9	0.00e+00	0	31	0	1804599296	46	5548
2026-01-04 17:38:05.26	350.87	45.39	-33.7	-34.3	28.1	0.00e+00	0	31	0	1809842176	46	5681
2026-01-04 17:38:06.28	350.50	45.62	-33.8	-34.4	28.1	0.00e+00	0	31	0	1816133632	46	5742
2026-01-04 17:38:07.28	350.12	45.85	-33.1	-33.7	28.2	0.00e+00	0	31	0	1821376512	44	5964
2026-01-04 17:38:08.30	349.74	46.08	-33.2	-33.8	28.1	0.00e+00	0	31	0	1827667968	44	5980
2026-01-04 17:38:09.31	349.35	46.31	-32.8	-33.4	28.2	0.00e+00	0	31	0	1832910848	44	5755
2026-01-04 17:38:10.32	348.96	46.54	-32.7	-33.3	28.3	0.00e+00	0	31	0	1838153728	44	5667
2026-01-04 17:38:11.33	348.56	46.77	-32.9	-33.5	28.2	0.00e+00	0	31	0	1844445184	44	5801
2026-01-04 17:38:12.34	348.16	46.99	-33.1	-33.7	28.1	0.00e+00	0	31	0	1849688064	44	5916
2026-01-04 17:38:13.35	347.75	47.22	-33.3	-33.9	27.9	0.00e+00	0	31	0	1855979520	44	6095
2026-01-04 17:38:14.36	347.33	47.45	-33.2	-33.8	28.1	0.00e+00	0	31	0	1861222400	44	5994
2026-01-04 17:38:15.37	346.91	47.68	-33.4	-34.0	28.1	0.00e+00	0	31	0	1866465280	44	6145
2026-01-04 17:38:16.38	346.48	47.90	-33.4	-34.0	27.9	0.00e+00	0	31	0	1872756736	44	6104
2026-01-04 17:38:17.39	346.05	48.13	-34.0	-34.6	27.9	0.00e+00	0	31	0	1877999616	44	6577
2026-01-04 17:38:18.41	345.60	48.35	-34.4	-35.0	27.4	0.00e+00	0	31	0	1884291072	46	6163
2026-01-04 17:38:19.42	345.15	48.58	-34.5	-35.1	27.3	0.00e+00	0	31	0	1889533952	46	6219
2026-01-04 17:38:20.43	344.70	48.80	-34.4	-35.0	27.5	0.00e+00	0	31	0	1894776832	46	6162
2026-01-04 17:38:21.44	344.24	49.03	-34.1	-34.7	27.6	0.00e+00	0	31	0	1901068288	48	5286
2026-01-04 17:38:22.45	343.77	49.25	-33.8	-34.5	27.6	0.00e+00	0	31	0	1906311168	46	5785
2026-01-04 17:38:23.46	343.30	49.47	-33.9	-34.5	27.6	0.00e+00	0	31	0	1912602624	46	5822
2026-01-04 17:38:24.47	342.82	49.69	-34.3	-34.9	27.7	0.00e+00	0	31	0	1917845504	46	6038
2026-01-04 17:38:25.48	342.33	49.91	-33.9	-34.5	27.7	0.00e+00	0	31	0	1924136960	46	5811
2026-01-04 17:38:26.49	341.83	50.12	-33.8	-34.4	27.5	0.00e+00	0	31	0	1929379840	46	5718
2026-01-04 17:38:27.50	341.33	50.34	-34.2	-34.8	27.4	0.00e+00	0	31	0	1935671296	46	6003
2026-01-04 17:38:28.51	340.82	50.55	-34.8	-35.4	27.1	0.00e+00	0	31	0	1940914176	48	5728
2026-01-04 17:38:29.53	340.30	50.77	-34.7	-35.3	27.1	0.00e+00	0	31	0	1946157056	48	5695
2026-01-04 17:38:30.54	339.77	50.98	-35.2	-35.9	26.5	0.00e+00	0	31	0	1952448512	48	6035
2026-01-04 17:38:31.55	339.24	51.19	-36.1	-36.7	27.0	0.00e+00	0	31	0	1957691392	48	6656
2026-01-04 17:38:32.56	338.70	51.40	-34.8	-35.5	26.8	0.00e+00	0	31	0	1963982848	48	5780
2026-01-04 17:38:33.57	338.15	51.61	-34.1	-34.7	27.5	0.00e+00	0	31	0	1969225728	46	5938
2026-01-04 17:38:34.58	337.60	51.81	-34.7	-35.3	27.0	0.00e+00	0	31	0	1974468608	48	5644
2026-01-04 17:38:35.59	337.03	52.01	-34.2	-34.9	26.9	0.00e+00	0	31	0	1980760064	48	5384
2026-01-04 17:38:36.60	336.46	52.21	-34.7	-35.3	27.4	0.00e+00	0	31	0	1986002944	48	5664
2026-01-04 17:38:37.61	335.88	52.41	-34.4	-35.0	27.4	0.00e+00	0	31	0	1992294400	48	5452
2026-01-04 17:38:38.63	335.29	52.61	-34.5	-35.2	27.3	0.00e+00	0	31	0	1997537280	48	5594
2026-01-04 17:38:39.64	334.70	52.80	-34.1	-34.7	27.4	0.00e+00	0	31	0	2003828736	46	5944
2026-01-04 17:38:40.65	334.10	53.00	-34.1	-34.7	27.4	0.00e+00	0	31	0	2009071616	46	5934
2026-01-04 17:38:41.66	333.49	53.18	-34.7	-35.3	27.0	0.00e+00	0	31	0	2014314496	46	6389
2026-01-04 17:38:42.67	332.87	53.37	-34.5	-35.1	27.3	0.00e+00	0	31	0	2020605952	48	5559
2026-01-04 17:38:43.68	332.24	53.55	-34.9	-35.5	27.0	0.00e+00	0	31	0	2025848832	48	5783
2026-01-04 17:38:44.69	331.61	53.73	-34.6	-35.2	27.2	0.00e+00	0	31	0	2032140288	48	5630
2026-01-04 17:38:45.70	330.97	53.91	-34.4	-35.0	27.4	0.00e+00	0	31	0	2037383168	48	5485
2026-01-04 17:38:46.71	330.32	54.09	-34.3	-35.0	27.4	0.00e+00	0	31	0	2043674624	48	5444
2026-01-04 17:38:47.73	329.65	54.26	-34.2	-34.8	27.4	0.00e+00	0	30	0	2048917504	46	6019
2026-01-04 17:38:48.74	328.99	54.43	-34.2	-34.7	27.5	0.00e+00	0	30	0	2055208960	46	5964
2026-01-04 17:38:49.75	328.31	54.59	-34.7	-35.3	27.3	0.00e+00	0	31	0	2060451840	46	6384
2026-01-04 17:38:50.76	327.63	54.75	-34.1	-34.8	27.7	0.00e+00	0	31	0	2065694720	46	5992
2026-01-04 17:38:51.77	326.94	54.91	-34.1	-34.7	27.7	0.00e+00	0	31	0	2071986176	46	5942
2026-01-04 17:38:52.78	326.24	55.06	-34.2	-34.8	27.6	0.00e+00	0	31	0	2077229056	46	6011
2026-01-04 17:38:53.79	325.54	55.21	-34.6	-35.3	27.3	0.00e+00	0	30	0	2083520512	46	6363
2026-01-04 17:38:54.80	324.83	55.36	-34.8	-35.4	27.5	0.00e+00	0	31	0	2088763392	48	5742
2026-01-04 17:38:55.81	324.11	55.50	-34.6	-35.2	27.4	0.00e+00	0	31	0	2094006272	48	5602
2026-01-04 17:38:56.82	323.38	55.64	-34.6	-35.2	27.7	0.00e+00	0	31	0	2100297728	46	6315
2026-01-04 17:38:57.83	322.65	55.77	-34.3	-34.9	27.5	0.00e+00	0	30	0	2105540608	48	5415
2026-01-04 17:38:58.85	321.90	55.90	-34.1	-34.6	27.7	0.00e+00	0	31	0	2111832064	48	5240
2026-01-04 17:38:59.86	321.16	56.03	-34.4	-35.0	27.6	0.00e+00	0	30	0	2117074944	46	6137
2026-01-04 17:39:00.87	320.40	56.15	-33.6	-34.2	27.8	0.00e+00	0	31	0	2122317824	46	5591
2026-01-04 17:39:01.88	319.64	56.26	-34.1	-34.6	27.9	0.00e+00	0	31	0	2128609280	46	5892
2026-01-04 17:39:02.89	318.88	56.37	-34.5	-35.1	27.8	0.00e+00	0	31	0	2133852160	46	6214
2026-01-04 17:39:03.90	318.10	56.48	-34.1	-34.7	27.8	0.00e+00	0	31	0	2140143616	46	5944
2026-01-04 17:39:04.91	317.33	56.58	-34.1	-34.6	28.2	0.00e+00	0	31	0	2145386496	46	5875
2026-01-04 17:39:05.92	316.54	56.68	-35.0	-35.6	27.7	0.00e+00	0	30	0	2151677952	46	6547
2026-01-04 17:39:06.93	315.75	56.77	-35.7	-36.3	27.2	0.00e+00	0	30	0	2156920832	50	5677
2026-01-04 17:39:07.94	314.96	56.85	-34.7	-35.3	27.5	0.00e+00	0	31	0	2163212288	48	5669
2026-01-04 17:39:08.96	314.15	56.93	-34.0	-34.6	27.8	0.00e+00	0	31	0	2168455168	46	5876
2026-01-04 17:39:09.97	313.35	57.01	-33.9	-34.5	27.8	0.00e+00	0	31	0	2173698048	46	5804
2026-01-04 17:39:10.98	312.54	57.08	-33.6	-34.3	27.7	0.00e+00	0	31	0	2179989504	46	5640
2026-01-04 17:39:11.99	311.73	57.14	-34.3	-34.9	27.9	0.00e+00	0	31	0	2185232384	46	6079
2026-01-04 17:39:13.00	310.91	57.20	-33.6	-34.2	28.1	0.00e+00	0	31	0	2191523840	46	5567
2026-01-04 17:39:14.01	310.09	57.26	-33.8	-34.4	27.9	0.00e+00	0	31	0	2196766720	46	5742
2026-01-04 17:39:15.02	309.27	57.30	-34.6	-35.2	27.7	0.00e+00	0	30	0	2202009600	48	5590
2026-01-04 17:39:16.03	308.44	57.35	-35.0	-35.6	27.5	0.00e+00	0	31	0	2208301056	48	5866
2026-01-04 17:39:17.04	307.62	57.38	-35.3	-36.0	27.4	0.00e+00	0	31	0	2213543936	48	6126
2026-01-04 17:39:18.05	306.79	57.41	-34.9	-35.5	27.4	0.00e+00	0	31	0	2219835392	48	5822
2026-01-04 17:39:19.06	305.96	57.44	-34.7	-35.4	27.5	0.00e+00	0	31	0	2225078272	48	5696
2026-01-04 17:39:20.07	305.12	57.46	-34.1	-34.7	27.8	0.00e+00	0	31	0	2230321152	46	5949
2026-01-04 17:39:21.08	304.29	57.47	-34.1	-34.7	27.9	0.00e+00	0	30	0	2236612608	46	5913
2026-01-04 17:39:22.10	303.45	57.48	-34.8	-35.5	27.7	0.00e+00	0	31	0	2241855488	46	6492
2026-01-04 17:39:23.11	302.61	57.48	-35.4	-36.1	27.6	0.00e+00	0	31	0	2248146944	46	7007
2026-01-04 17:39:24.12	301.78	57.48	-34.9	-35.5	27.5	0.00e+00	0	31	0	2253389824	48	5806
2026-01-04 17:39:25.13	300.94	57.47	-34.2	-34.8	27.6	0.00e+00	0	31	0	2259681280	48	5340
2026-01-04 17:39:26.14	300.11	57.45	-34.7	-35.3	27.8	0.00e+00	0	31	0	2264924160	46	6344
2026-01-04 17:39:27.15	299.28	57.43	-34.6	-35.1	27.6	0.00e+00	0	31	0	2271215616	46	6222
2026-01-04 17:39:28.16	298.44	57.41	-34.6	-35.3	27.7	0.00e+00	0	31	0	2276458496	46	6327
2026-01-04 17:39:29.17	297.61	57.37	-34.4	-35.0	27.4	0.00e+00	0	31	0	2281701376	48	5471
2026-01-04 17:39:30.19	296.78	57.33	-35.1	-35.7	27.4	0.00e+00	0	31	0	2287992832	48	5933
2026-01-04 17:39:31.20	295.95	57.29	-34.5	-35.1	27.4	0.00e+00	0	30	0	2293235712	48	5530
2026-01-04 17:39:32.21	295.13	57.24	-34.3	-34.9	27.5	0.00e+00	0	31	0	2299527168	48	5388
2026-01-04 17:39:33.22	294.31	57.19	-35.0	-35.5	27.5	0.00e+00	0	31	0	2304770048	48	5810
2026-01-04 17:39:34.23	293.50	57.13	-35.3	-35.9	27.5	0.00e+00	0	31	0	2310012928	46	6790
2026-01-04 17:39:35.24	292.69	57.06	-34.0	-34.6	27.0	0.00e+00	0	30	0	2316304384	46	5849
2026-01-04 17:39:36.25	291.88	56.99	-34.0	-34.7	27.5	0.00e+00	0	31	0	2321547264	48	5291
2026-01-04 17:39:37.26	291.08	56.91	-34.0	-34.7	27.5	0.00e+00	0	31	0	2327838720	46	5909
2026-01-04 17:39:38.27	290.28	56.83	-33.9	-34.5	27.7	0.00e+00	0	30	0	2333081600	46	5783
2026-01-04 17:39:39.29	289.48	56.74	-33.7	-34.3	27.8	0.00e+00	0	31	0	2339373056	46	5677
2026-01-04 17:39:40.30	288.69	56.65	-34.0	-34.6	27.6	0.00e+00	0	31	0	2344615936	46	5879
2026-01-04 17:39:41.31	287.91	56.55	-34.4	-35.1	27.3	0.00e+00	0	31	0	2349858816	46	6224
2026-01-04 17:39:42.32	287.13	56.45	-34.4	-35.1	27.5	0.00e+00	0	31	0	2356150272	46	6220
2026-01-04 17:39:43.33	286.36	56.34	-34.9	-35.6	27.6	0.00e+00	0	30	0	2361393152	46	6546
2026-01-04 17:39:44.34	285.59	56.23	-34.3	-34.9	27.8	0.00e+00	0	31	0	2367684608	46	6103
2026-01-04 17:39:45.35	284.83	56.11	-34.2	-34.8	27.7	0.00e+00	0	31	0	2372927488	46	5998
2026-01-04 17:39:46.36	284.08	55.99	-34.0	-34.7	27.6	0.00e+00	0	31	0	2379218944	48	5290
2026-01-04 17:39:47.38	283.33	55.86	-34.6	-35.3	27.8	0.00e+00	0	30	0	2384461824	46	6360
2026-01-04 17:39:48.39	282.59	55.73	-35.7	-36.3	27.4	0.00e+00	0	30	0	2390753280	48	6322
2026-01-04 17:39:49.40	281.86	55.60	-34.9	-35.6	27.5	0.00e+00	0	31	0	2395996160	48	5856
2026-01-04 17:39:50.41	281.13	55.46	-35.2	-35.8	27.4	0.00e+00	0	31	0	2401239040	48	6004
2026-01-04 17:39:51.42	280.41	55.31	-34.9	-35.5	27.8	0.00e+00	0	31	0	2407530496	46	6504
2026-01-04 17:39:52.43	279.70	55.17	-35.4	-36.0	27.4	0.00e+00	0	31	0	2412773376	48	6123
2026-01-04 17:39:53.44	279.00	55.02	-35.3	-35.8	27.8	0.00e+00	0	30	0	2419064832	48	6026
2026-01-04 17:39:54.45	278.31	54.86	-35.2	-35.8	27.8	0.00e+00	0	30	0	2424307712	46	6704
2026-01-04 17:39:55.46	277.62	54.70	-34.7	-35.3	28.0	0.00e+00	0	30	0	2429550592	48	5651
2026-01-04 17:39:56.47	276.94	54.54	-33.3	-33.8	28.2	0.00e+00	0	31	0	2435842048	46	5356
2026-01-04 17:39:57.48	276.27	54.37	-34.7	-35.3	28.1	0.00e+00	0	30	0	2441084928	46	6367
2026-01-04 17:39:58.49	275.60	54.21	-34.3	-34.9	26.5	0.00e+00	0	30	0	2447376384	48	5425
2026-01-04 17:39:59.51	274.94	54.03	-34.7	-35.4	27.9	0.00e+00	0	30	0	2452619264	46	6405
2026-01-04 17:40:00.52	274.29	53.86	-33.2	-33.7	28.1	0.00e+00	0	31	0	2457862144	46	5303
2026-01-04 17:40:01.53	273.65	53.68	-34.5	-35.2	28.0	0.00e+00	0	31	0	2464153600	46	6256
2026-01-04 17:40:02.54	273.02	53.50	-34.3	-34.8	27.9	0.00e+00	0	31	0	2469396480	46	6001
2026-01-04 17:40:03.55	272.39	53.31	-33.9	-34.5	27.8	0.00e+00	0	31	0	2475687936	46	5816
2026-01-04 17:40:04.56	271.78	53.12	-33.8	-34.3	27.8	0.00e+00	0	31	0	2480930816	46	5688
2026-01-04 17:40:05.57	271.17	52.93	-34.4	-35.0	27.8	0.00e+00	0	30	0	2487222272	46	6129
2026-01-04 17:40:06.58	270.57	52.74	-34.2	-34.9	27.8	0.00e+00	0	30	0	2492465152	46	6055
2026-01-04 17:40:07.60	269.97	52.54	-34.4	-35.0	28.0	0.00e+00	0	30	0	2498756608	46	6137
2026-01-04 17:40:08.61	269.38	52.35	-34.9	-35.6	27.7	0.00e+00	0	31	0	2503999488	46	6587
2026-01-04 17:40:09.62	268.81	52.15	-33.5	-34.1	28.0	0.00e+00	0	31	0	2509242368	46	5534
2026-01-04 17:40:10.63	268.24	51.95	-33.9	-34.5	28.1	0.00e+00	0	30	0	2515533824	46	5763
2026-01-04 17:40:11.64	267.67	51.74	-33.4	-34.0	28.3	0.00e+00	0	31	0	2520776704	46	5444
2026-01-04 17:40:12.65	267.12	51.54	-33.8	-34.3	28.0	0.00e+00	0	30	0	2527068160	46	5648
2026-01-04 17:40:13.66	266.57	51.33	-34.0	-34.6	27.7	0.00e+00	0	30	0	2532311040	46	5846
2026-01-04 17:40:14.67	266.04	51.12	-34.4	-35.0	27.8	0.00e+00	0	31	0	2537553920	46	6165
2026-01-04 17:40:15.68	265.51	50.91	-34.8	-35.5	27.9	0.00e+00	0	30	0	2543845376	46	6481
2026-01-04 17:40:16.69	264.98	50.69	-34.7	-35.3	27.6	0.00e+00	0	31	0	2549088256	46	6389
2026-01-04 17:40:17.70	264.47	50.48	-34.4	-35.0	27.7	0.00e+00	0	31	0	2555379712	48	5457
2026-01-04 17:40:18.72	263.95	50.26	-34.8	-35.3	27.8	0.00e+00	0	31	0	2560622592	48	5693
2026-01-04 17:40:19.73	263.45	50.05	-34.7	-35.3	27.7	0.00e+00	0	30	0	2565865472	48	5666
2026-01-04 17:40:20.74	262.96	49.83	-35.0	-35.7	27.7	0.00e+00	0	30	0	2572156928	48	5934
2026-01-04 17:40:21.75	262.47	49.61	-34.6	-35.3	28.0	0.00e+00	0	30	0	2577399808	48	5660
2026-01-04 17:40:22.76	261.99	49.39	-34.1	-34.6	28.3	0.00e+00	0	31	0	2583691264	48	5218
2026-01-04 17:40:23.77	261.51	49.17	-34.9	-35.5	28.4	0.00e+00	0	30	0	2588934144	46	6535
2026-01-04 17:40:24.78	261.05	48.94	-33.8	-34.5	28.0	0.00e+00	0	30	0	2595225600	46	5799
2026-01-04 17:40:25.79	260.59	48.72	-33.6	-34.3	28.0	0.00e+00	0	31	0	2600468480	46	5652
2026-01-04 17:40:26.80	260.13	48.49	-33.5	-34.0	27.9	0.00e+00	0	31	0	2606759936	46	5457
2026-01-04 17:40:27.82	259.68	48.27	-33.7	-34.3	28.0	0.00e+00	0	31	0	2612002816	46	5688
2026-01-04 17:40:28.83	259.24	48.04	-33.7	-34.2	27.7	0.00e+00	0	31	0	2617245696	46	5611
2026-01-04 17:40:29.84	258.81	47.81	-33.9	-34.5	27.9	0.00e+00	0	31	0	2623537152	46	5771
2026-01-04 17:40:30.85	258.38	47.59	-33.6	-34.2	28.0	0.00e+00	0	31	0	2628780032	46	5619
2026-01-04 17:40:31.86	257.96	47.36	-33.8	-34.3	28.2	0.00e+00	0	30	0	2635071488	46	5695
2026-01-04 17:40:32.87	257.55	47.13	-34.0	-34.7	28.0	0.00e+00	0	30	0	2640314368	46	5934
2026-01-04 17:40:33.88	257.14	46.90	-33.7	-34.4	28.5	0.00e+00	0	31	0	2645557248	46	5714
2026-01-04 17:40:34.89	256.74	46.67	-32.8	-33.4	28.5	0.00e+00	0	31	0	2651848704	44	5722
2026-01-04 17:40:35.90	256.34	46.45	-33.8	-34.5	28.5	0.00e+00	0	31	0	2657091584	44	6494
2026-01-04 17:40:36.91	255.95	46.22	-33.3	-33.9	28.5	0.00e+00	0	31	0	2663383040	44	6088
2026-01-04 17:40:37.93	255.56	45.98	-33.0	-33.7	28.4	0.00e+00	0	30	0	2668625920	44	5904
2026-01-04 17:40:38.94	255.18	45.75	-32.7	-33.4	28.4	0.00e+00	0	30	0	2674917376	44	5710
2026-01-04 17:40:39.95	254.80	45.52	-32.8	-33.5	28.3	0.00e+00	0	30	0	2680160256	44	5806
2026-01-04 17:40:40.96	254.43	45.30	-32.9	-33.6	28.3	0.00e+00	0	30	0	2685403136	44	5864
2026-01-04 17:40:41.97	254.07	45.07	-33.0	-33.7	28.3	0.00e+00	0	30	0	2691694592	44	5902
2026-01-04 17:40:42.98	253.71	44.84	-32.9	-33.5	28.3	0.00e+00	0	31	0	2696937472	44	5765
2026-01-04 17:40:43.99	253.36	44.61	-33.3	-33.8	28.4	0.00e+00	0	31	0	2703228928	44	5985
2026-01-04 17:40:45.00	253.01	44.38	-32.9	-33.4	28.4	0.00e+00	0	31	0	2708471808	44	5755
2026-01-04 17:40:46.01	252.67	44.15	-32.7	-33.3	28.5	0.00e+00	0	31	0	2714763264	44	5660
2026-01-04 17:40:47.02	252.33	43.92	-32.9	-33.5	28.7	0.00e+00	0	31	0	2720006144	44	5815
2026-01-04 17:40:48.03	252.00	43.69	-32.6	-33.2	28.7	0.00e+00	0	30	0	2726297600	44	5608
2026-01-04 17:40:49.04	251.67	43.46	-32.7	-33.4	28.4	0.00e+00	0	30	0	2731540480	44	5722
2026-01-04 17:40:50.06	251.34	43.23	-33.2	-33.9	27.8	0.00e+00	0	31	0	2736783360	44	6060
2026-01-04 17:40:51.07	251.02	43.00	-33.7	-34.4	28.1	0.00e+00	0	31	0	2743074816	44	6433
2026-01-04 17:40:52.08	250.71	42.77	-33.1	-33.8	28.2	0.00e+00	0	31	0	2748317696	44	6015
2026-01-04 17:40:53.09	250.40	42.55	-33.1	-33.6	28.1	0.00e+00	0	31	0	2754609152	44	5886
2026-01-04 17:40:54.10	250.09	42.32	-32.8	-33.5	28.0	0.00e+00	0	30	0	2759852032	44	5792
2026-01-04 17:40:55.11	249.79	42.09	-32.5	-33.1	28.3	0.00e+00	0	31	0	2765094912	44	5559
2026-01-04 17:40:56.12	249.49	41.87	-32.4	-32.9	28.3	0.00e+00	0	31	0	2771386368	44	5420
2026-01-04 17:40:57.13	249.20	41.64	-32.6	-33.1	28.2	0.00e+00	0	31	0	2776629248	44	5548
2026-01-04 17:40:58.14	248.91	41.42	-32.6	-33.3	28.4	0.00e+00	0	30	0	2782920704	44	5640
2026-01-04 17:40:59.15	248.63	41.19	-32.4	-33.1	28.5	0.00e+00	0	30	0	2788163584	44	5526
2026-01-04 17:41:00.17	248.34	40.97	-32.5	-33.1	28.5	0.00e+00	0	31	0	2793406464	44	5506
2026-01-04 17:41:01.18	248.07	40.75	-32.6	-33.1	28.5	0.00e+00	0	30	0	2799697920	44	5555
2026-01-04 17:41:02.19	247.79	40.52	-32.7	-33.4	28.5	0.00e+00	0	31	0	2804940800	44	5702
2026-01-04 17:41:03.20	247.52	40.30	-32.7	-33.2	28.5	0.00e+00	0	31	0	2811232256	44	5618
2026-01-04 17:41:04.21	247.26	40.08	-32.5	-33.0	28.5	0.00e+00	0	30	0	2816475136	44	5475
2026-01-04 17:41:05.22	246.99	39.86	-32.7	-33.2	28.3	0.00e+00	0	30	0	2821718016	44	5597
2026-01-04 17:41:06.23	246.74	39.64	-32.7	-33.3	28.5	0.00e+00	0	30	0	2828009472	44	5640
2026-01-04 17:41:07.24	246.48	39.42	-32.5	-33.1	28.7	0.00e+00	0	30	0	2833252352	44	5504
2026-01-04 17:41:08.25	246.23	39.20	-32.4	-32.9	28.6	0.00e+00	0	31	0	2839543808	44	5425
2026-01-04 17:41:09.26	245.98	38.99	-32.9	-33.5	28.4	0.00e+00	0	31	0	2844786688	44	5823
2026-01-04 17:41:10.27	245.74	38.77	-32.4	-33.1	28.6	0.00e+00	0	31	0	2851078144	44	5540
2026-01-04 17:41:11.29	245.49	38.55	-32.1	-32.7	28.8	0.00e+00	0	31	0	2856321024	42	5960
2026-01-04 17:41:12.30	245.25	38.34	-32.2	-32.7	28.7	0.00e+00	0	31	0	2862612480	42	5919
2026-01-04 17:41:13.31	245.02	38.12	-32.2	-32.7	28.6	0.00e+00	0	31	0	2867855360	42	5947
2026-01-04 17:41:14.32	244.79	37.91	-32.7	-33.2	28.4	0.00e+00	0	30	0	2873098240	42	6302
2026-01-04 17:41:15.33	244.56	37.69	-33.1	-33.6	28.2	0.00e+00	0	30	0	2879389696	42	6577
2026-01-04 17:41:16.34	244.33	37.48	-32.6	-33.1	28.6	0.00e+00	0	30	0	2884632576	42	6207
2026-01-04 17:41:17.35	244.11	37.27	-32.4	-32.9	28.5	0.00e+00	0	31	0	2890924032	42	6062
2026-01-04 17:41:18.36	243.89	37.06	-32.7	-33.3	28.4	0.00e+00	0	30	0	2896166912	42	6338
2026-01-04 17:41:19.37	243.67	36.85	-32.9	-33.4	28.0	0.00e+00	0	31	0	2901409792	44	5735
2026-01-04 17:41:20.38	243.45	36.64	-33.1	-33.8	28.0	0.00e+00	0	31	0	2907701248	44	5988
2026-01-04 17:41:21.39	243.24	36.44	-32.9	-33.6	28.0	0.00e+00	0	31	0	2912944128	44	5861
2026-01-04 17:41:22.41	243.03	36.23	-33.6	-34.3	28.2	0.00e+00	0	30	0	2919235584	44	6372
2026-01-04 17:41:23.42	242.82	36.02	-32.9	-33.6	27.9	0.00e+00	0	31	0	2924478464	44	5847
2026-01-04 17:41:24.43	242.62	35.82	-33.1	-33.8	28.2	0.00e+00	0	30	0	2929721344	44	6000
2026-01-04 17:41:25.44	242.42	35.61	-32.6	-33.3	28.5	0.00e+00	0	30	0	2936012800	44	5636
2026-01-04 17:41:26.45	242.22	35.41	-32.6	-33.1	28.5	0.00e+00	0	30	0	2941255680	44	5555
2026-01-04 17:41:27.46	242.02	35.21	-32.6	-33.3	28.3	0.00e+00	0	30	0	2947547136	44	5662
2026-01-04 17:41:28.47	241.83	35.01	-32.5	-33.0	28.6	0.00e+00	0	30	0	2952790016	44	5479
2026-01-04 17:41:29.48	241.64	34.80	-32.3	-33.0	28.5	0.00e+00	0	31	0	2959081472	44	5441
2026-01-04 17:41:30.49	241.45	34.60	-32.3	-33.0	28.5	0.00e+00	0	31	0	2964324352	44	5449
2026-01-04 17:41:31.51	241.26	34.40	-32.4	-33.1	28.5	0.00e+00	0	31	0	2970615808	44	5541
2026-01-04 17:41:32.52	241.08	34.21	-32.5	-33.0	28.4	0.00e+00	0	31	0	2975858688	44	5481
2026-01-04 17:41:33.53	240.89	34.01	-32.6	-33.2	28.4	0.00e+00	0	31	0	2981101568	44	5575
2026-01-04 17:41:34.54	240.71	33.81	-32.6	-33.2	28.3	0.00e+00	0	31	0	2987393024	44	5588
2026-01-04 17:41:35.55	240.54	33.62	-32.6	-33.2	28.4	0.00e+00	0	31	0	2992635904	44	5581
2026-01-04 17:41:36.56	240.36	33.42	-32.8	-33.3	28.4	0.00e+00	0	31	0	2998927360	44	5681
2026-01-04 17:41:37.57	240.19	33.23	-32.5	-33.0	28.5	0.00e+00	0	31	0	3004170240	44	5499
2026-01-04 17:41:38.58	240.02	33.04	-32.5	-33.1	28.5	0.00e+00	0	31	0	3010461696	44	5564
2026-01-04 17:41:39.60	239.84	32.85	-32.6	-33.3	28.4	0.00e+00	0	30	0	3015704576	44	5663
2026-01-04 17:41:40.61	239.68	32.66	-32.5	-33.2	28.6	0.00e+00	0	30	0	3020947456	44	5586
2026-01-04 17:41:41.62	239.51	32.47	-32.3	-33.0	28.6	0.00e+00	0	30	0	3027238912	44	5469
2026-01-04 17:41:42.63	239.35	32.28	-32.4	-33.0	28.5	0.00e+00	0	30	0	3032481792	44	5492
2026-01-04 17:41:43.64	239.19	32.09	-32.5	-33.2	28.5	0.00e+00	0	30	0	3038773248	44	5586
2026-01-04 17:41:44.65	239.03	31.90	-32.6	-33.1	28.5	0.00e+00	0	30	0	3044016128	44	5532
2026-01-04 17:41:45.66	238.87	31.72	-32.7	-33.2	28.4	0.00e+00	0	30	0	3049259008	44	5627
2026-01-04 17:41:46.67	238.71	31.53	-32.9	-33.4	28.5	0.00e+00	0	31	0	3055550464	44	5731
2026-01-04 17:41:47.68	238.56	31.35	-33.0	-33.5	28.2	0.00e+00	0	30	0	3060793344	44	5804
2026-01-04 17:41:48.69	238.41	31.16	-33.3	-33.8	28.3	0.00e+00	0	31	0	3067084800	44	6033
2026-01-04 17:41:49.70	238.26	30.98	-33.3	-33.8	28.2	0.00e+00	0	31	0	3072327680	44	6005
2026-01-04 17:41:50.71	238.11	30.80	-32.9	-33.5	28.3	0.00e+00	0	31	0	3078619136	44	5794
2026-01-04 17:41:51.73	237.96	30.62	-33.0	-33.5	28.3	0.00e+00	0	30	0	3083862016	44	5817
2026-01-04 17:41:52.74	237.81	30.44	-32.8	-33.5	28.3	0.00e+00	0	31	0	3090153472	44	5774
2026-01-04 17:41:53.75	237.67	30.26	-32.7	-33.4	28.2	0.00e+00	0	30	0	3095396352	44	5712
2026-01-04 17:41:54.76	237.53	30.08	-33.3	-33.9	28.0	0.00e+00	0	30	0	3100639232	44	6095
2026-01-04 17:41:55.77	237.38	29.91	-33.0	-33.5	28.1	0.00e+00	0	30	0	3106930688	44	5798
2026-01-04 17:41:56.78	237.25	29.73	-33.1	-33.6	28.3	0.00e+00	0	30	0	3112173568	44	5884
2026-01-04 17:41:57.79	237.11	29.56	-33.0	-33.6	28.2	0.00e+00	0	30	0	3118465024	44	5843
2026-01-04 17:41:58.80	236.97	29.38	-33.3	-33.8	28.3	0.00e+00	0	31	0	3123707904	44	5991
2026-01-04 17:41:59.81	236.84	29.21	-33.3	-33.8	28.1	0.00e+00	0	31	0	3128950784	44	5996
2026-01-04 17:42:00.82	236.70	29.04	-33.0	-33.5	28.1	0.00e+00	0	30	0	3135242240	44	5809
2026-01-04 17:42:01.83	236.57	28.86	-33.3	-33.9	28.2	0.00e+00	0	31	0	3140485120	44	6052
2026-01-04 17:42:02.85	236.44	28.69	-33.2	-33.7	28.1	0.00e+00	0	30	0	3146776576	44	5963
2026-01-04 17:42:03.86	236.31	28.52	-33.9	-34.4	28.1	0.00e+00	0	30	0	3152019456	46	5761
2026-01-04 17:42:04.87	236.18	28.35	-33.5	-34.0	27.9	0.00e+00	0	31	0	3157262336	46	5465
2026-01-04 17:42:05.88	236.06	28.19	-33.5	-34.1	27.8	0.00e+00	0	31	0	3163553792	46	5525
2026-01-04 17:42:06.89	235.93	28.02	-33.3	-33.8	27.8	0.00e+00	0	31	0	3168796672	46	5352
2026-01-04 17:42:07.90	235.81	27.85	-33.3	-33.9	27.8	0.00e+00	0	30	0	3175088128	44	6044
2026-01-04 17:42:08.91	235.69	27.69	-33.0	-33.6	27.9	0.00e+00	0	31	0	3180331008	44	5831
2026-01-04 17:42:09.92	235.57	27.52	-33.1	-33.8	27.9	0.00e+00	0	31	0	3186622464	44	5965
2026-01-04 17:42:10.94	235.45	27.36	-32.9	-33.6	27.9	0.00e+00	0	31	0	3191865344	44	5868
2026-01-04 17:42:11.94	235.33	27.19	-33.1	-33.7	27.9	0.00e+00	0	30	0	3198156800	44	5963
2026-01-04 17:42:12.96	235.21	27.03	-33.4	-34.1	27.9	0.00e+00	0	30	0	3203399680	44	6203
2026-01-04 17:42:13.97	235.09	26.87	-33.2	-33.9	27.8	0.00e+00	0	31	0	3208642560	44	6093
2026-01-04 17:42:14.98	234.98	26.71	-33.1	-33.8	27.9	0.00e+00	0	31	0	3214934016	44	5986
2026-01-04 17:42:15.99	234.86	26.55	-33.4	-34.1	27.6	0.00e+00	0	30	0	3220176896	44	6239
2026-01-04 17:42:17.00	234.75	26.39	-33.3	-34.0	27.6	0.00e+00	0	31	0	3226468352	44	6106
2026-01-04 17:42:18.01	234.64	26.23	-32.9	-33.6	27.8	0.00e+00	0	30	0	3231711232	44	5882
2026-01-04 17:42:19.02	234.53	26.08	-33.1	-33.8	27.7	0.00e+00	0	31	0	3236954112	44	5994
2026-01-04 17:42:20.04	234.42	25.92	-33.1	-33.8	27.8	0.00e+00	0	30	0	3243245568	44	6000
2026-01-04 17:42:21.05	234.31	25.76	-33.3	-33.8	27.6	0.00e+00	0	30	0	3248488448	44	6005
2026-01-04 17:42:22.06	234.21	25.61	-33.3	-33.9	27.5	0.00e+00	0	30	0	3254779904	44	6061
2026-01-04 17:42:23.07	234.10	25.45	-33.0	-33.6	27.6	0.00e+00	0	30	0	3260022784	44	5855
2026-01-04 17:42:24.08	234.00	25.30	-32.9	-33.6	27.8	0.00e+00	0	30	0	3265265664	44	5882
2026-01-04 17:42:25.09	233.89	25.15	-32.8	-33.3	28.0	0.00e+00	0	30	0	3271557120	44	5695
2026-01-04 17:42:26.10	233.79	25.00	-32.9	-33.5	28.0	0.00e+00	0	30	0	3276800000	44	5773
2026-01-04 17:42:27.11	233.69	24.84	-32.9	-33.5	27.9	0.00e+00	0	30	0	3283091456	44	5769
2026-01-04 17:42:28.12	233.59	24.69	-33.1	-33.7	27.8	0.00e+00	0	30	0	3288334336	44	5920
2026-01-04 17:42:29.13	233.49	24.54	-33.0	-33.5	27.7	0.00e+00	0	30	0	3294625792	44	5804
2026-01-04 17:42:30.14	233.39	24.40	-33.0	-33.6	27.9	0.00e+00	0	30	0	3299868672	44	5830
2026-01-04 17:42:31.15	233.29	24.25	-32.9	-33.6	27.8	0.00e+00	0	31	0	3306160128	44	5872
2026-01-04 17:42:32.16	233.19	24.10	-33.0	-33.7	27.9	0.00e+00	0	30	0	3311403008	44	5927
2026-01-04 17:42:33.17	233.10	23.95	-33.2	-33.9	27.8	0.00e+00	0	31	0	3316645888	44	6053
2026-01-04 17:42:34.19	233.00	23.81	-33.0	-33.7	27.8	0.00e+00	0	30	0	3322937344	44	5958
2026-01-04 17:42:35.19	232.91	23.66	-33.1	-33.8	27.8	0.00e+00	0	30	0	3328180224	44	6003
2026-01-04 17:42:36.20	232.81	23.52	-33.4	-34.0	27.6	0.00e+00	0	30	0	3334471680	44	6168
2026-01-04 17:42:37.22	232.72	23.37	-33.5	-34.2	27.4	0.00e+00	0	30	0	3339714560	44	6294
2026-01-04 17:42:38.23	232.63	23.23	-33.5	-34.0	27.6	0.00e+00	0	30	0	3344957440	44	6141
2026-01-04 17:42:39.24	232.54	23.09	-33.5	-34.0	27.6	0.00e+00	0	30	0	3351248896	44	6167
2026-01-04 17:42:40.25	232.45	22.95	-33.6	-34.1	27.6	0.00e+00	0	31	0	3356491776	44	6244
2026-01-04 17:42:41.26	232.36	22.81	-33.7	-34.2	27.5	0.00e+00	0	30	0	3362783232	44	6299
2026-01-04 17:42:42.27	232.27	22.67	-33.5	-34.1	27.3	0.00e+00	0	30	0	3368026112	44	6204
2026-01-04 17:42:43.28	232.19	22.53	-33.8	-34.4	27.3	0.00e+00	0	30	0	3374317568	44	6431
2026-01-04 17:42:44.29	232.10	22.39	-33.7	-34.3	27.2	0.00e+00	0	31	0	3379560448	44	6326
2026-01-04 17:42:45.30	232.01	22.25	-33.6	-34.3	27.4	0.00e+00	0	31	0	3384803328	44	6341
2026-01-04 17:42:46.31	231.93	22.11	-33.5	-34.2	27.4	0.00e+00	0	30	0	3391094784	44	6293
2026-01-04 17:42:47.33	231.84	21.97	-33.2	-33.9	27.6	0.00e+00	0	30	0	3396337664	44	6090
2026-01-04 17:42:48.34	231.76	21.84	-33.3	-34.0	27.5	0.00e+00	0	31	0	3402629120	44	6158
2026-01-04 17:42:49.35	231.68	21.70	-33.4	-34.1	27.5	0.00e+00	0	31	0	3407872000	44	6219
2026-01-04 17:42:50.36	231.59	21.57	-33.5	-34.2	27.3	0.00e+00	0	31	0	3414163456	44	6301
2026-01-04 17:42:51.37	231.51	21.43	-34.4	-35.1	27.1	0.00e+00	0	31	0	3419406336	44	6952
2026-01-04 17:42:52.38	231.43	21.30	-33.7	-34.2	27.3	0.00e+00	0	31	0	3424649216	46	5621
2026-01-04 17:42:53.39	231.35	21.17	-34.0	-34.6	27.2	0.00e+00	0	30	0	3430940672	46	5856
2026-01-04 17:42:54.40	231.27	21.04	-33.7	-34.2	27.5	0.00e+00	0	31	0	3436183552	46	5613
2026-01-04 17:42:55.42	231.20	20.90	-33.8	-34.3	27.1	0.00e+00	0	31	0	3442475008	46	5662
2026-01-04 17:42:56.43	231.12	20.77	-33.6	-34.2	27.1	0.00e+00	0	31	0	3447717888	46	5575
2026-01-04 17:42:57.44	231.04	20.64	-33.7	-34.2	27.4	0.00e+00	0	31	0	3454009344	46	5613
2026-01-04 17:42:58.45	230.96	20.51	-33.6	-34.2	27.5	0.00e+00	0	31	0	3459252224	46	5567
2026-01-04 17:42:59.46	230.89	20.38	-33.9	-34.5	27.4	0.00e+00	0	31	0	3464495104	46	5790
2026-01-04 17:43:00.47	230.81	20.26	-33.6	-34.1	27.4	0.00e+00	0	30	0	3470786560	46	5540
2026-01-04 17:43:01.48	230.74	20.13	-33.6	-34.1	27.5	0.00e+00	0	31	0	3476029440	46	5551
2026-01-04 17:43:02.49	230.67	20.00	-33.7	-34.2	27.4	0.00e+00	0	30	0	3482320896	46	5621
2026-01-04 17:43:03.50	230.59	19.87	-33.6	-34.1	27.5	0.00e+00	0	30	0	3487563776	46	5566
2026-01-04 17:43:04.51	230.52	19.75	-33.8	-34.3	27.4	0.00e+00	0	30	0	3492806656	46	5693
2026-01-04 17:43:05.53	230.45	19.62	-33.8	-34.4	27.3	0.00e+00	0	31	0	3499098112	46	5697
2026-01-04 17:43:06.54	230.38	19.50	-33.8	-34.3	27.4	0.00e+00	0	30	0	3504340992	46	5685
2026-01-04 17:43:07.55	230.31	19.37	-33.8	-34.4	27.3	0.00e+00	0	30	0	3510632448	46	5696
2026-01-04 17:43:08.56	230.24	19.25	-34.0	-34.5	27.2	0.00e+00	0	30	0	3515875328	46	5822
2026-01-04 17:43:09.57	230.17	19.12	-33.9	-34.4	27.1	0.00e+00	0	30	0	3522166784	46	5758
2026-01-04 17:43:10.58	230.10	19.00	-33.9	-34.5	27.1	0.00e+00	0	30	0	3527409664	46	5792
2026-01-04 17:43:11.59	230.03	18.88	-34.1	-34.6	27.0	0.00e+00	0	30	0	3533701120	46	5895
2026-01-04 17:43:12.60	229.96	18.76	-34.3	-34.8	27.0	0.00e+00	0	30	0	3538944000	46	6022
2026-01-04 17:43:13.61	229.89	18.64	-34.4	-35.0	26.5	0.00e+00	0	30	0	3544186880	46	6115
2026-01-04 17:43:14.62	229.83	18.52	-34.6	-35.2	26.7	0.00e+00	0	30	0	3550478336	46	6287
2026-01-04 17:43:15.64	229.76	18.40	-34.7	-35.2	26.6	0.00e+00	0	30	0	3555721216	46	6308
2026-01-04 17:43:16.65	229.70	18.28	-34.6	-35.2	26.8	0.00e+00	0	30	0	3562012672	46	6277
2026-01-04 17:43:17.66	229.63	18.16	-35.1	-35.6	26.4	0.00e+00	0	30	0	3567255552	46	6612
2026-01-04 17:43:18.67	229.57	18.04	-34.8	-35.4	26.5	0.00e+00	0	30	0	3572498432	46	6406
