passes_logs/2026/01/04/R4.6S_Anadyr_2ch/R4.6S_Anadyr_2ch__20260104_024726_SUOMI_NPP_rec.log

#Pass ID: 20260104_024726_SUOMI NPP
#Satellite: SUOMI NPP
#Configuration: NPP
#almurnet v.1.7.20251203
#Start time: 2026-01-04 02:47:29

#Version: 2.2.20231116
#Station: R4.6S_Anadyr_2ch
#Location: 177.4865 lon 64.73178 lat
#TLE: 1 37849U 11061A   25350.92281687  .00000071  00000+0  54882-4 0  9996
#TLE: 2 37849  98.7777 288.2268 0002366 112.8570 247.2856 14.19515404732588

#Time	Az	El	Level	Level2	SNR	BER	BlckErr	Temp	State	Recorded	gain1	gain2
2026-01-04 02:47:29.55	222.53	0.16	-53.9	-67.9	3.3	1.54e+00	0	35	0	0	60	121178
2026-01-04 02:47:30.55	222.61	0.20	-53.5	-68.9	3.6	1.51e+00	0	35	104	0	60	135698
2026-01-04 02:47:31.57	222.69	0.25	-53.2	-68.7	3.6	1.51e+00	0	35	104	0	60	133249
2026-01-04 02:47:32.58	222.76	0.30	-53.3	-68.7	3.6	1.51e+00	0	35	104	0	60	132579
2026-01-04 02:47:33.59	222.84	0.35	-53.1	-68.6	3.6	1.51e+00	0	35	104	0	60	130960
2026-01-04 02:47:34.60	222.92	0.40	-53.1	-68.5	3.6	1.51e+00	0	35	104	0	60	129612
2026-01-04 02:47:35.61	223.00	0.45	-52.9	-68.5	3.6	1.51e+00	0	36	104	0	60	129937
2026-01-04 02:47:36.62	223.08	0.50	-53.0	-68.7	3.6	1.51e+00	0	35	104	0	60	132166
2026-01-04 02:47:37.63	223.16	0.55	-52.9	-68.7	3.6	1.51e+00	0	36	104	0	60	133442
2026-01-04 02:47:38.64	223.24	0.60	-52.9	-68.5	3.6	1.51e+00	0	36	104	0	60	129075
2026-01-04 02:47:39.65	223.33	0.65	-52.9	-68.3	3.6	1.51e+00	0	36	104	0	60	126924
2026-01-04 02:47:40.66	223.41	0.69	-52.7	-68.2	3.6	1.51e+00	0	36	104	0	60	124882
2026-01-04 02:47:41.67	223.49	0.74	-52.4	-67.7	3.5	1.51e+00	0	36	104	0	60	118962
2026-01-04 02:47:42.68	223.57	0.79	-51.8	-67.3	3.6	1.51e+00	0	35	104	0	60	112547
2026-01-04 02:47:43.69	223.65	0.84	-50.5	-65.9	3.6	1.51e+00	0	36	104	0	60	96402
2026-01-04 02:47:44.70	223.73	0.89	-50.4	-65.8	3.6	1.51e+00	0	36	104	0	60	95049
2026-01-04 02:47:45.71	223.82	0.94	-50.4	-65.8	3.6	1.51e+00	0	36	104	0	60	94907
2026-01-04 02:47:46.72	223.90	0.99	-50.4	-65.7	3.6	1.51e+00	0	36	104	0	60	94346
2026-01-04 02:47:47.73	223.98	1.04	-50.4	-65.8	3.6	1.51e+00	0	36	104	0	60	95203
2026-01-04 02:47:48.74	224.06	1.09	-50.4	-65.7	3.6	1.51e+00	0	36	104	0	60	94504
2026-01-04 02:47:49.75	224.15	1.14	-50.4	-65.8	3.6	1.51e+00	0	36	104	0	60	94797
2026-01-04 02:47:50.76	224.23	1.19	-50.4	-65.8	3.6	1.51e+00	0	36	104	0	60	94837
2026-01-04 02:47:51.78	224.32	1.24	-50.4	-65.9	3.6	1.51e+00	0	36	104	0	60	96012
2026-01-04 02:47:52.79	224.40	1.29	-50.4	-65.8	3.6	1.51e+00	0	36	104	0	60	95563
2026-01-04 02:47:53.80	224.49	1.34	-50.4	-65.8	3.6	1.51e+00	0	36	104	0	60	95093
2026-01-04 02:47:54.81	224.57	1.39	-50.4	-65.8	3.6	1.51e+00	0	36	104	0	60	95223
2026-01-04 02:47:55.82	224.66	1.44	-50.3	-65.8	3.6	1.51e+00	0	35	104	0	60	94819
2026-01-04 02:47:56.83	224.74	1.49	-50.3	-65.8	3.6	1.51e+00	0	36	104	0	60	94596
2026-01-04 02:47:57.84	224.83	1.53	-50.3	-65.7	3.6	1.51e+00	0	36	104	0	60	93984
2026-01-04 02:47:58.85	224.91	1.58	-50.3	-65.7	3.6	1.51e+00	0	36	104	0	60	93987
2026-01-04 02:47:59.86	225.00	1.63	-50.3	-65.7	3.6	1.51e+00	0	36	104	0	60	94021
2026-01-04 02:48:00.87	225.08	1.68	-50.3	-65.7	3.6	1.51e+00	0	36	104	0	60	94359
2026-01-04 02:48:01.88	225.17	1.73	-50.3	-65.8	3.6	1.51e+00	0	36	104	0	60	94703
2026-01-04 02:48:02.89	225.26	1.78	-50.3	-65.7	3.6	1.51e+00	0	36	104	0	60	93896
2026-01-04 02:48:03.90	225.35	1.83	-50.3	-65.7	3.6	1.51e+00	0	36	104	0	60	93748
2026-01-04 02:48:04.91	225.43	1.88	-50.3	-65.7	3.6	1.51e+00	0	36	104	0	60	93987
2026-01-04 02:48:05.93	225.52	1.93	-50.3	-65.7	3.6	1.51e+00	0	36	104	0	60	93976
2026-01-04 02:48:06.94	225.61	1.98	-50.4	-65.8	3.6	1.51e+00	0	36	104	0	60	94965
2026-01-04 02:48:07.95	225.70	2.03	-50.5	-65.8	3.6	1.51e+00	0	36	104	0	60	95265
2026-01-04 02:48:08.96	225.79	2.08	-50.4	-65.7	3.6	1.51e+00	0	36	104	0	60	94523
2026-01-04 02:48:09.97	225.88	2.13	-50.4	-65.8	3.6	1.51e+00	0	36	104	0	60	95010
2026-01-04 02:48:10.98	225.97	2.18	-50.4	-65.8	3.6	1.51e+00	0	36	104	0	60	95136
2026-01-04 02:48:11.99	226.06	2.24	-50.4	-65.7	3.6	1.51e+00	0	36	104	0	60	94347
2026-01-04 02:48:13.00	226.15	2.29	-50.3	-65.7	3.6	1.51e+00	0	36	104	0	60	94085
2026-01-04 02:48:14.02	226.24	2.34	-50.3	-65.6	3.6	1.51e+00	0	36	104	0	60	92384
2026-01-04 02:48:15.03	226.33	2.39	-50.3	-65.5	3.6	1.51e+00	0	36	104	0	60	91869
2026-01-04 02:48:16.04	226.42	2.44	-50.2	-65.2	3.6	1.51e+00	0	36	104	0	60	89201
2026-01-04 02:48:17.05	226.51	2.49	-50.3	-65.2	3.6	1.51e+00	0	36	104	0	60	88474
2026-01-04 02:48:18.06	226.60	2.54	-50.3	-65.0	3.6	1.51e+00	0	36	104	0	60	86889
2026-01-04 02:48:19.07	226.69	2.59	-50.2	-64.1	3.6	1.51e+00	0	36	104	0	60	78520
2026-01-04 02:48:20.08	226.78	2.64	-50.1	-62.9	3.6	1.50e+00	0	36	104	0	60	68372
2026-01-04 02:48:21.09	226.88	2.69	-50.1	-61.0	4.0	1.37e+00	76	36	0	0	60	54566
2026-01-04 02:48:22.10	226.97	2.74	-49.9	-59.0	4.8	9.81e-01	68	36	0	1048576	60	43499
2026-01-04 02:48:23.11	227.06	2.79	-49.9	-58.3	5.5	5.54e-01	0	36	0	3145728	60	39903
2026-01-04 02:48:24.12	227.15	2.84	-49.8	-57.5	6.3	3.22e-01	92	36	0	5242880	60	36728
2026-01-04 02:48:25.13	227.25	2.89	-49.7	-57.4	6.2	2.24e-01	92	36	0	7340032	60	36286
2026-01-04 02:48:26.14	227.34	2.94	-49.7	-57.1	7.0	1.63e-01	92	36	0	9437184	60	34858
2026-01-04 02:48:27.15	227.44	2.99	-49.9	-58.1	6.2	3.05e-01	90	36	0	11534336	60	39029
2026-01-04 02:48:28.17	227.53	3.04	-50.0	-58.1	5.6	3.65e-01	33	36	0	12582912	60	39285
2026-01-04 02:48:29.18	227.63	3.09	-50.0	-58.1	5.7	4.98e-01	92	36	0	14680064	60	39239
2026-01-04 02:48:30.19	227.72	3.15	-50.4	-64.8	3.6	1.50e+00	0	36	104	15728640	60	84604
2026-01-04 02:48:31.20	227.82	3.20	-50.1	-64.0	3.6	1.51e+00	0	36	104	15728640	60	77568
2026-01-04 02:48:32.21	227.91	3.25	-50.0	-58.3	6.5	1.29e+00	0	36	104	15728640	60	40075
2026-01-04 02:48:33.22	228.01	3.30	-49.8	-56.9	7.3	1.47e-01	92	36	0	16777216	60	34080
2026-01-04 02:48:34.23	228.10	3.35	-49.7	-56.2	8.0	7.81e-02	90	36	0	18874368	60	31453
2026-01-04 02:48:35.24	228.20	3.40	-49.8	-56.6	7.7	7.69e-02	23	36	0	19922944	60	32862
2026-01-04 02:48:36.25	228.30	3.45	-49.7	-56.5	7.7	7.77e-02	92	36	0	22020096	60	32479
2026-01-04 02:48:37.26	228.39	3.50	-49.8	-56.7	7.8	6.72e-02	0	36	0	24117248	60	33287
2026-01-04 02:48:38.27	228.49	3.55	-49.8	-56.4	7.4	1.14e-01	92	36	0	26214400	60	32251
2026-01-04 02:48:39.28	228.59	3.60	-49.8	-56.4	7.9	1.02e-01	7	36	0	28311552	60	32202
2026-01-04 02:48:40.30	228.69	3.66	-49.9	-56.9	7.4	8.73e-02	92	36	0	29360128	60	33986
2026-01-04 02:48:41.31	228.79	3.71	-49.9	-56.9	7.3	1.15e-01	92	36	0	31457280	60	33975
2026-01-04 02:48:42.32	228.89	3.76	-49.9	-56.9	7.6	1.00e-01	0	36	0	33554432	60	34002
2026-01-04 02:48:43.33	228.99	3.81	-49.9	-57.0	7.2	1.06e-01	92	36	0	35651584	60	34537
2026-01-04 02:48:44.34	229.08	3.86	-49.9	-57.0	7.2	1.45e-01	0	36	0	37748736	60	34664
2026-01-04 02:48:45.35	229.18	3.91	-50.0	-57.1	7.0	1.50e-01	90	36	0	38797312	60	35027
2026-01-04 02:48:46.37	229.29	3.96	-50.0	-57.2	6.9	1.23e-01	0	36	0	40894464	60	35248
2026-01-04 02:48:47.38	229.39	4.01	-49.9	-56.8	7.5	9.70e-02	90	36	0	42991616	60	33775
2026-01-04 02:48:48.39	229.49	4.07	-49.9	-56.6	7.7	9.91e-02	92	36	0	45088768	60	32993
2026-01-04 02:48:49.39	229.59	4.12	-50.0	-56.9	7.4	7.79e-02	37	36	0	47185920	60	34281
2026-01-04 02:48:50.41	229.69	4.17	-50.0	-57.0	7.2	1.21e-01	92	36	0	48234496	60	34516
2026-01-04 02:48:51.42	229.79	4.22	-50.0	-57.2	7.2	1.07e-01	0	36	0	50331648	60	35124
2026-01-04 02:48:52.43	229.89	4.27	-49.9	-56.7	7.5	1.23e-01	92	36	0	52428800	60	33502
2026-01-04 02:48:53.44	230.00	4.32	-50.0	-56.9	7.3	1.06e-01	0	36	0	54525952	60	34118
2026-01-04 02:48:54.45	230.10	4.37	-50.0	-57.1	7.1	1.10e-01	92	36	0	56623104	60	34870
2026-01-04 02:48:55.46	230.20	4.43	-50.0	-57.1	7.0	1.16e-01	91	36	0	58720256	60	35088
2026-01-04 02:48:56.48	230.31	4.48	-50.1	-57.2	7.1	1.32e-01	92	36	0	59768832	60	35301
2026-01-04 02:48:57.49	230.41	4.53	-50.1	-57.4	6.7	1.56e-01	92	36	0	61865984	60	36188
2026-01-04 02:48:58.50	230.52	4.58	-50.2	-57.8	6.6	1.67e-01	0	36	0	63963136	60	37834
2026-01-04 02:48:59.51	230.62	4.63	-50.1	-57.4	6.6	1.69e-01	92	36	0	66060288	60	36108
2026-01-04 02:49:00.52	230.73	4.68	-50.3	-57.8	6.5	2.05e-01	0	36	0	68157440	60	37734
2026-01-04 02:49:01.53	230.83	4.74	-50.3	-57.8	6.5	2.11e-01	92	36	0	69206016	60	37897
2026-01-04 02:49:02.54	230.94	4.79	-50.3	-57.7	6.7	1.93e-01	0	36	0	71303168	60	37486
2026-01-04 02:49:03.55	231.04	4.84	-50.3	-57.8	6.6	2.18e-01	92	36	0	73400320	60	37748
2026-01-04 02:49:04.56	231.15	4.89	-50.5	-58.1	6.3	2.31e-01	92	36	0	75497472	60	39012
2026-01-04 02:49:05.57	231.26	4.94	-50.5	-58.1	6.4	2.22e-01	0	36	0	77594624	60	39209
2026-01-04 02:49:06.58	231.36	4.99	-50.5	-58.2	6.3	2.48e-01	87	36	0	78643200	60	39834
2026-01-04 02:49:07.59	231.47	5.05	-50.6	-58.3	6.2	2.62e-01	0	36	0	80740352	60	39881
2026-01-04 02:49:08.60	231.58	5.10	-50.6	-58.6	6.0	2.62e-01	90	36	0	82837504	60	41602
2026-01-04 02:49:09.62	231.69	5.15	-50.6	-58.1	6.5	2.39e-01	90	36	0	84934656	60	39402
2026-01-04 02:49:10.62	231.80	5.20	-50.6	-58.4	6.3	2.32e-01	92	36	0	87031808	60	40397
2026-01-04 02:49:11.64	231.91	5.25	-50.6	-58.2	6.3	2.41e-01	91	36	0	88080384	60	39661
2026-01-04 02:49:12.65	232.02	5.30	-50.6	-58.1	6.5	1.98e-01	0	36	0	90177536	60	39344
2026-01-04 02:49:13.66	232.13	5.36	-50.6	-58.2	6.4	2.10e-01	91	36	0	92274688	60	39769
2026-01-04 02:49:14.67	232.24	5.41	-50.7	-58.1	6.6	1.83e-01	0	36	0	94371840	60	39165
2026-01-04 02:49:15.68	232.35	5.46	-50.6	-58.2	6.5	1.89e-01	91	36	0	96468992	60	39663
2026-01-04 02:49:16.69	232.46	5.51	-50.6	-57.9	6.8	1.87e-01	0	36	0	97517568	60	38464
2026-01-04 02:49:17.70	232.57	5.56	-50.6	-57.7	7.1	1.81e-01	90	36	0	99614720	60	37509
2026-01-04 02:49:18.71	232.68	5.62	-50.6	-57.8	7.0	1.27e-01	92	36	0	101711872	60	37729
2026-01-04 02:49:19.72	232.79	5.67	-50.7	-57.7	7.2	1.27e-01	0	36	0	103809024	60	37557
2026-01-04 02:49:20.74	232.91	5.72	-50.6	-57.6	7.4	1.24e-01	92	36	0	105906176	60	37021
2026-01-04 02:49:21.75	233.02	5.77	-50.7	-57.7	7.1	1.04e-01	0	36	0	106954752	60	37372
2026-01-04 02:49:22.76	233.13	5.82	-50.7	-57.5	7.7	9.08e-02	92	36	0	109051904	60	36357
2026-01-04 02:49:23.77	233.24	5.88	-50.7	-57.4	7.7	9.44e-02	7	36	0	111149056	60	36295
2026-01-04 02:49:24.78	233.36	5.93	-50.7	-57.6	7.7	7.47e-02	92	36	0	113246208	60	36845
2026-01-04 02:49:25.79	233.47	5.98	-50.7	-57.3	7.8	6.65e-02	92	36	0	115343360	60	35590
2026-01-04 02:49:26.80	233.59	6.03	-50.8	-57.4	7.9	6.41e-02	92	36	0	116391936	60	35957
2026-01-04 02:49:27.81	233.70	6.08	-50.8	-57.4	7.9	6.72e-02	92	36	0	118489088	60	36055
2026-01-04 02:49:28.83	233.82	6.14	-50.8	-57.3	8.0	5.87e-02	0	36	0	120586240	60	35895
2026-01-04 02:49:29.84	233.94	6.19	-50.8	-57.3	8.0	6.87e-02	92	36	0	122683392	60	35914
2026-01-04 02:49:30.85	234.05	6.24	-50.7	-57.3	8.0	5.99e-02	25	36	0	124780544	60	35645
2026-01-04 02:49:31.86	234.17	6.29	-50.7	-57.1	8.2	5.38e-02	92	36	0	126877696	60	34944
2026-01-04 02:49:32.87	234.29	6.34	-50.7	-57.1	8.0	5.59e-02	90	36	0	127926272	60	34917
2026-01-04 02:49:33.88	234.40	6.40	-50.7	-57.2	8.0	5.78e-02	92	36	0	130023424	60	35268
2026-01-04 02:49:34.89	234.52	6.45	-50.8	-57.1	8.3	5.27e-02	90	36	0	132120576	60	35108
2026-01-04 02:49:35.90	234.64	6.50	-50.7	-57.1	8.3	4.17e-02	0	36	0	134217728	60	34898
2026-01-04 02:49:36.91	234.76	6.55	-50.6	-56.8	8.6	3.40e-02	92	36	0	136314880	60	33630
2026-01-04 02:49:37.93	234.88	6.61	-50.6	-56.7	8.5	3.97e-02	0	36	0	137363456	60	33524
2026-01-04 02:49:38.94	235.00	6.66	-50.5	-56.5	8.9	2.87e-02	90	36	0	139460608	60	32551
2026-01-04 02:49:39.95	235.12	6.71	-50.5	-56.6	8.8	2.66e-02	7	36	0	141557760	60	33128
2026-01-04 02:49:40.96	235.24	6.76	-50.5	-56.5	8.8	3.00e-02	90	36	0	143654912	60	32762
2026-01-04 02:49:41.97	235.36	6.81	-50.5	-56.3	9.1	2.73e-02	92	36	0	145752064	60	31973
2026-01-04 02:49:42.98	235.48	6.87	-50.5	-56.1	9.5	1.66e-02	0	36	0	146800640	60	31135
2026-01-04 02:49:43.99	235.60	6.92	-50.6	-56.3	9.4	1.75e-02	92	36	0	148897792	60	31703
2026-01-04 02:49:45.00	235.72	6.97	-50.5	-56.1	9.6	1.07e-02	0	36	0	150994944	60	31022
2026-01-04 02:49:46.01	235.85	7.02	-50.5	-56.0	9.8	1.39e-02	92	36	0	153092096	60	30679
2026-01-04 02:49:47.02	235.97	7.07	-50.5	-56.1	9.8	1.07e-02	0	36	0	155189248	60	31160
2026-01-04 02:49:48.03	236.09	7.13	-50.5	-55.9	10.0	9.66e-03	92	36	0	156237824	60	30551
2026-01-04 02:49:49.04	236.22	7.18	-50.3	-55.4	10.6	7.04e-03	92	36	0	158334976	60	28571
2026-01-04 02:49:50.05	236.34	7.23	-50.4	-55.4	10.6	3.01e-03	0	36	0	160432128	60	28794
2026-01-04 02:49:51.06	236.47	7.28	-50.3	-55.2	10.9	2.72e-03	92	36	0	162529280	60	27952
2026-01-04 02:49:52.08	236.59	7.33	-50.2	-55.0	11.0	2.20e-03	0	36	0	164626432	60	27562
2026-01-04 02:49:53.09	236.72	7.39	-50.1	-54.8	11.1	1.61e-03	92	36	0	165675008	60	26816
2026-01-04 02:49:54.10	236.84	7.44	-50.0	-54.7	11.2	1.35e-03	3	36	0	167772160	60	26583
2026-01-04 02:49:55.11	236.97	7.49	-50.0	-54.5	11.6	1.45e-03	92	36	0	169869312	60	25969
2026-01-04 02:49:56.12	237.10	7.54	-50.0	-54.6	11.6	6.17e-04	92	36	0	171966464	60	26156
2026-01-04 02:49:57.13	237.22	7.59	-49.8	-54.1	12.0	9.43e-04	0	36	0	174063616	60	24679
2026-01-04 02:49:58.14	237.35	7.65	-49.8	-53.8	12.5	1.25e-04	90	36	0	176160768	60	23861
2026-01-04 02:49:59.15	237.48	7.70	-49.7	-53.7	12.5	9.99e-05	6	36	0	177209344	60	23694
2026-01-04 02:50:00.16	237.61	7.75	-49.3	-53.0	13.4	6.02e-05	92	36	0	179306496	60	21730
2026-01-04 02:50:01.18	237.74	7.80	-49.1	-52.5	13.7	9.10e-06	0	36	0	181403648	60	20594
2026-01-04 02:50:02.19	237.87	7.85	-49.0	-52.4	14.0	6.10e-06	92	36	0	183500800	60	20338
2026-01-04 02:50:03.20	238.00	7.91	-48.9	-52.2	14.0	5.30e-06	92	36	0	185597952	60	19797
2026-01-04 02:50:04.21	238.13	7.96	-48.8	-52.1	14.1	3.80e-06	0	36	0	186646528	60	19549
2026-01-04 02:50:05.22	238.26	8.01	-48.5	-51.6	14.6	1.50e-06	92	36	0	188743680	60	18438
2026-01-04 02:50:06.23	238.39	8.06	-48.6	-51.7	14.6	7.00e-07	0	36	0	190840832	60	18828
2026-01-04 02:50:07.24	238.52	8.11	-48.6	-51.6	14.5	0.00e+00	92	36	0	192937984	60	18544
2026-01-04 02:50:08.25	238.65	8.17	-48.7	-51.6	14.6	0.00e+00	0	36	0	195035136	60	18588
2026-01-04 02:50:09.27	238.79	8.22	-48.9	-51.8	14.8	0.00e+00	90	36	0	196083712	60	18944
2026-01-04 02:50:10.27	238.92	8.27	-48.6	-51.4	15.2	0.00e+00	92	36	0	198180864	60	18026
2026-01-04 02:50:11.28	239.05	8.32	-48.4	-51.1	15.4	0.00e+00	0	36	0	200278016	60	17570
2026-01-04 02:50:12.30	239.19	8.37	-48.3	-51.0	15.5	0.00e+00	91	36	0	202375168	60	17318
2026-01-04 02:50:13.31	239.32	8.42	-48.4	-51.0	15.6	0.00e+00	0	36	0	204472320	60	17347
2026-01-04 02:50:14.32	239.46	8.48	-48.3	-50.9	15.6	0.00e+00	91	36	0	205520896	60	17091
2026-01-04 02:50:15.33	239.59	8.53	-48.3	-50.8	16.1	0.00e+00	0	36	0	207618048	60	16914
2026-01-04 02:50:16.34	239.73	8.58	-49.0	-51.4	15.7	4.50e-06	91	36	0	209715200	60	18086
2026-01-04 02:50:17.35	239.86	8.63	-49.3	-51.8	16.1	0.00e+00	9	36	0	211812352	60	18969
2026-01-04 02:50:18.36	240.00	8.68	-49.0	-51.3	16.4	0.00e+00	92	36	0	213909504	60	17996
2026-01-04 02:50:19.37	240.14	8.73	-48.4	-50.7	16.6	0.00e+00	91	36	0	216006656	60	16714
2026-01-04 02:50:20.38	240.28	8.79	-48.2	-50.4	16.8	0.00e+00	0	36	0	217055232	60	16141
2026-01-04 02:50:21.39	240.41	8.84	-48.0	-50.2	17.0	0.00e+00	92	36	0	219152384	60	15733
2026-01-04 02:50:22.40	240.55	8.89	-47.8	-50.0	16.9	0.00e+00	0	36	0	221249536	60	15393
2026-01-04 02:50:23.41	240.69	8.94	-47.5	-49.6	16.8	0.00e+00	92	36	0	223346688	60	14719
2026-01-04 02:50:24.43	240.83	8.99	-47.5	-49.6	17.3	0.00e+00	90	36	0	225443840	60	14679
2026-01-04 02:50:25.44	240.97	9.04	-47.2	-49.1	17.8	0.00e+00	92	36	0	226492416	60	13932
2026-01-04 02:50:26.45	241.11	9.09	-47.0	-48.9	17.7	0.00e+00	92	36	0	228589568	60	13632
2026-01-04 02:50:27.46	241.25	9.14	-47.0	-48.9	17.8	0.00e+00	0	36	0	230686720	60	13626
2026-01-04 02:50:28.47	241.40	9.20	-46.8	-48.7	18.0	0.00e+00	92	36	0	232783872	60	13346
2026-01-04 02:50:29.48	241.54	9.25	-46.5	-48.4	18.0	0.00e+00	0	36	0	234881024	60	12832
2026-01-04 02:50:30.49	241.68	9.30	-46.6	-48.5	18.1	0.00e+00	90	36	0	235929600	60	13023
2026-01-04 02:50:31.50	241.82	9.35	-46.7	-48.6	17.8	0.00e+00	4	36	0	238026752	60	13187
2026-01-04 02:50:32.51	241.97	9.40	-46.3	-48.1	18.4	0.00e+00	61	36	0	240123904	60	12390
2026-01-04 02:50:33.53	242.11	9.45	-46.0	-47.7	18.7	0.00e+00	92	36	0	242221056	60	11783
2026-01-04 02:50:34.54	242.26	9.50	-45.6	-47.1	19.3	0.00e+00	0	36	0	244318208	60	11094
2026-01-04 02:50:35.55	242.40	9.55	-45.9	-47.5	19.3	0.00e+00	92	36	0	245366784	60	11544
2026-01-04 02:50:36.56	242.55	9.60	-45.4	-46.9	19.8	0.00e+00	0	36	0	247463936	60	10776
2026-01-04 02:50:37.57	242.69	9.65	-45.1	-46.4	20.1	0.00e+00	90	36	0	249561088	60	10223
2026-01-04 02:50:38.58	242.84	9.70	-44.9	-46.2	20.2	0.00e+00	5	36	0	251658240	60	9984
2026-01-04 02:50:39.59	242.98	9.75	-44.7	-46.1	20.3	0.00e+00	90	36	0	253755392	60	9791
2026-01-04 02:50:40.60	243.13	9.81	-44.9	-46.3	20.2	0.00e+00	92	36	0	254803968	60	10097
2026-01-04 02:50:41.61	243.28	9.86	-44.3	-45.6	20.5	0.00e+00	0	36	0	256901120	60	9302
2026-01-04 02:50:42.63	243.43	9.91	-44.3	-45.6	20.8	0.00e+00	92	36	0	258998272	60	9313
2026-01-04 02:50:43.64	243.58	9.96	-44.3	-45.5	20.9	0.00e+00	0	36	0	261095424	60	9195
2026-01-04 02:50:44.65	243.73	10.01	-44.4	-45.7	20.9	0.00e+00	92	36	0	263192576	60	9386
2026-01-04 02:50:45.66	243.88	10.06	-43.9	-45.1	21.3	0.00e+00	0	36	0	264241152	60	8792
2026-01-04 02:50:46.67	244.03	10.11	-43.7	-44.8	21.5	0.00e+00	92	36	0	266338304	60	8484
2026-01-04 02:50:47.68	244.18	10.16	-43.5	-44.6	21.7	0.00e+00	92	36	0	268435456	60	8314
2026-01-04 02:50:48.69	244.33	10.21	-43.2	-44.2	22.0	0.00e+00	0	36	0	270532608	60	7936
2026-01-04 02:50:49.70	244.48	10.26	-43.2	-44.2	22.2	0.00e+00	80	36	0	272629760	60	7941
2026-01-04 02:50:50.71	244.63	10.31	-42.9	-43.9	22.4	0.00e+00	0	36	0	274726912	60	7667
2026-01-04 02:50:51.72	244.78	10.36	-42.9	-44.0	22.4	0.00e+00	85	36	0	275775488	60	7699
2026-01-04 02:50:52.74	244.94	10.41	-43.0	-44.1	22.2	0.00e+00	0	36	0	277872640	60	7797
2026-01-04 02:50:53.75	245.09	10.46	-43.1	-44.2	22.2	0.00e+00	92	36	0	279969792	60	7877
2026-01-04 02:50:54.76	245.25	10.51	-43.1	-44.2	22.2	0.00e+00	91	36	0	282066944	60	7903
2026-01-04 02:50:55.77	245.40	10.55	-43.0	-44.1	22.3	0.00e+00	0	36	0	284164096	60	7782
2026-01-04 02:50:56.78	245.56	10.60	-43.3	-44.3	22.0	0.00e+00	78	36	0	285212672	60	8033
2026-01-04 02:50:57.79	245.71	10.65	-43.2	-44.3	22.0	0.00e+00	0	36	0	287309824	60	7966
2026-01-04 02:50:58.80	245.87	10.70	-43.6	-44.6	22.2	0.00e+00	90	36	0	289406976	60	8303
2026-01-04 02:50:59.81	246.03	10.75	-44.0	-45.1	22.2	0.00e+00	0	36	0	291504128	60	8741
2026-01-04 02:51:00.82	246.18	10.80	-43.6	-44.7	22.4	0.00e+00	92	36	0	293601280	60	8364
2026-01-04 02:51:01.84	246.34	10.85	-43.8	-44.8	22.5	0.00e+00	91	36	0	294649856	60	8470
2026-01-04 02:51:02.85	246.50	10.90	-43.6	-44.6	22.1	0.00e+00	30	36	0	296747008	60	8298
2026-01-04 02:51:03.86	246.66	10.95	-43.9	-44.9	22.6	0.00e+00	92	36	0	298844160	60	8596
2026-01-04 02:51:04.87	246.82	11.00	-43.7	-44.7	22.7	0.00e+00	0	36	0	300941312	60	8411
2026-01-04 02:51:05.88	246.98	11.04	-44.1	-45.1	22.7	0.00e+00	90	36	0	303038464	60	8802
2026-01-04 02:51:06.89	247.14	11.09	-43.7	-44.6	22.8	0.00e+00	0	36	0	304087040	60	8327
2026-01-04 02:51:07.90	247.30	11.14	-43.1	-44.1	22.8	0.00e+00	90	36	0	306184192	60	7825
2026-01-04 02:51:08.91	247.46	11.19	-43.1	-44.1	22.8	0.00e+00	28	36	0	308281344	60	7781
2026-01-04 02:51:09.92	247.62	11.24	-42.9	-43.9	22.7	0.00e+00	90	36	0	310378496	60	7641
2026-01-04 02:51:10.94	247.79	11.28	-42.8	-43.9	22.6	0.00e+00	92	36	0	312475648	60	7599
2026-01-04 02:51:11.95	247.95	11.33	-43.5	-44.5	22.2	0.00e+00	0	36	0	313524224	60	8154
2026-01-04 02:51:12.96	248.11	11.38	-43.5	-44.5	22.8	0.00e+00	77	36	0	315621376	60	8207
2026-01-04 02:51:13.97	248.28	11.43	-43.9	-44.8	22.8	0.00e+00	0	36	0	317718528	60	8516
2026-01-04 02:51:14.98	248.44	11.48	-43.7	-44.7	22.7	0.00e+00	92	36	0	319815680	60	8339
2026-01-04 02:51:15.99	248.61	11.52	-43.4	-44.4	22.7	0.00e+00	62	36	0	321912832	60	8047
2026-01-04 02:51:17.00	248.77	11.57	-43.3	-44.3	22.6	0.00e+00	92	36	0	324009984	60	8021
2026-01-04 02:51:18.01	248.94	11.62	-43.5	-44.5	22.6	0.00e+00	92	36	0	325058560	60	8220
2026-01-04 02:51:19.02	249.10	11.66	-43.3	-44.3	22.6	0.00e+00	0	36	0	327155712	60	7994
2026-01-04 02:51:20.04	249.27	11.71	-43.5	-44.4	22.7	0.00e+00	60	36	0	329252864	60	8128
2026-01-04 02:51:21.05	249.44	11.76	-43.6	-44.6	22.7	0.00e+00	0	36	0	331350016	60	8247
2026-01-04 02:51:22.06	249.61	11.80	-43.5	-44.5	22.7	0.00e+00	91	36	0	333447168	60	8190
2026-01-04 02:51:23.07	249.78	11.85	-43.5	-44.5	22.8	0.00e+00	18	36	0	334495744	60	8175
2026-01-04 02:51:24.08	249.94	11.90	-43.1	-44.0	23.0	0.00e+00	92	36	0	336592896	60	7735
2026-01-04 02:51:25.09	250.11	11.94	-43.1	-44.1	22.8	0.00e+00	90	36	0	338690048	60	7797
2026-01-04 02:51:26.10	250.28	11.99	-43.2	-44.1	22.9	0.00e+00	0	36	0	340787200	60	7852
2026-01-04 02:51:27.11	250.45	12.04	-43.5	-44.5	22.5	0.00e+00	67	36	0	342884352	60	8226
2026-01-04 02:51:28.12	250.63	12.08	-43.6	-44.6	22.4	0.00e+00	0	36	0	343932928	60	8279
2026-01-04 02:51:29.13	250.80	12.13	-43.8	-44.8	22.4	0.00e+00	92	36	0	346030080	60	8510
2026-01-04 02:51:30.14	250.97	12.17	-44.1	-45.1	22.2	0.00e+00	7	36	0	348127232	60	8792
2026-01-04 02:51:31.16	251.14	12.22	-44.1	-45.1	22.4	0.00e+00	92	36	0	350224384	60	8800
2026-01-04 02:51:32.17	251.32	12.26	-43.4	-44.5	22.3	0.00e+00	90	36	0	352321536	60	8150
2026-01-04 02:51:33.18	251.49	12.31	-43.5	-44.5	22.3	0.00e+00	0	36	0	353370112	60	8195
2026-01-04 02:51:34.19	251.66	12.35	-43.3	-44.3	22.4	0.00e+00	91	36	0	355467264	60	8040
2026-01-04 02:51:35.20	251.84	12.40	-43.3	-44.4	22.5	0.00e+00	0	36	0	357564416	60	8056
2026-01-04 02:51:36.21	252.01	12.44	-43.5	-44.5	22.1	0.00e+00	92	36	0	359661568	60	8196
2026-01-04 02:51:37.22	252.19	12.49	-43.8	-44.9	22.3	0.00e+00	10	36	0	361758720	60	8556
2026-01-04 02:51:38.23	252.37	12.53	-43.9	-45.0	22.1	0.00e+00	91	36	0	363855872	60	8691
2026-01-04 02:51:39.25	252.54	12.58	-44.1	-45.2	22.0	0.00e+00	91	36	0	364904448	60	8916
2026-01-04 02:51:40.26	252.72	12.62	-44.2	-45.3	22.1	0.00e+00	0	36	0	367001600	60	8967
2026-01-04 02:51:41.27	252.90	12.66	-44.0	-45.1	21.9	0.00e+00	91	36	0	369098752	60	8815
2026-01-04 02:51:42.28	253.08	12.71	-44.0	-45.1	21.9	0.00e+00	0	36	0	371195904	60	8759
2026-01-04 02:51:43.29	253.26	12.75	-44.2	-45.3	21.7	0.00e+00	84	36	0	373293056	60	8966
2026-01-04 02:51:44.30	253.44	12.79	-44.2	-45.3	21.7	0.00e+00	0	36	0	374341632	60	9023
2026-01-04 02:51:45.31	253.62	12.84	-43.8	-44.9	21.7	0.00e+00	92	36	0	376438784	60	8596
2026-01-04 02:51:46.32	253.80	12.88	-43.6	-44.7	22.1	0.00e+00	92	36	0	378535936	60	8392
2026-01-04 02:51:47.33	253.98	12.92	-43.4	-44.5	22.0	0.00e+00	0	36	0	380633088	60	8191
2026-01-04 02:51:48.35	254.16	12.96	-43.9	-45.0	21.7	0.00e+00	92	36	0	382730240	60	8633
2026-01-04 02:51:49.36	254.34	13.01	-44.2	-45.3	22.0	0.00e+00	0	36	0	383778816	60	8930
2026-01-04 02:51:50.37	254.52	13.05	-43.9	-45.0	22.2	0.00e+00	78	36	0	385875968	60	8669
2026-01-04 02:51:51.38	254.71	13.09	-44.1	-45.2	22.0	0.00e+00	0	36	0	387973120	60	8895
2026-01-04 02:51:52.39	254.89	13.13	-43.8	-44.9	21.9	0.00e+00	92	36	0	390070272	60	8578
2026-01-04 02:51:53.40	255.07	13.17	-43.7	-44.8	21.9	0.00e+00	64	36	0	392167424	60	8490
2026-01-04 02:51:54.41	255.26	13.21	-43.9	-45.0	22.0	0.00e+00	24	36	0	393216000	60	8648
2026-01-04 02:51:55.43	255.44	13.26	-43.7	-44.8	21.9	0.00e+00	90	36	0	395313152	60	8510
2026-01-04 02:51:56.44	255.63	13.30	-44.2	-45.4	21.6	0.00e+00	0	36	0	397410304	60	9071
2026-01-04 02:51:57.45	255.82	13.34	-44.1	-45.3	21.7	0.00e+00	87	36	0	399507456	60	8939
2026-01-04 02:51:58.46	256.00	13.38	-44.0	-45.2	21.5	0.00e+00	0	36	0	401604608	60	8846
2026-01-04 02:51:59.47	256.19	13.42	-44.0	-45.2	21.4	0.00e+00	92	36	0	403701760	60	8830
2026-01-04 02:52:00.48	256.38	13.46	-44.0	-45.2	21.3	0.00e+00	28	36	0	404750336	60	8830
2026-01-04 02:52:01.49	256.56	13.50	-43.9	-45.0	21.5	0.00e+00	63	36	0	406847488	60	8683
2026-01-04 02:52:02.50	256.75	13.54	-44.0	-45.1	21.4	0.00e+00	92	36	0	408944640	60	8821
2026-01-04 02:52:03.51	256.94	13.58	-43.8	-44.9	21.5	0.00e+00	0	36	0	411041792	60	8608
2026-01-04 02:52:04.52	257.13	13.62	-43.9	-45.1	21.5	0.00e+00	92	36	0	413138944	60	8771
2026-01-04 02:52:05.54	257.32	13.66	-44.0	-45.2	21.4	0.00e+00	0	36	0	414187520	60	8901
2026-01-04 02:52:06.55	257.51	13.69	-44.2	-45.4	21.3	0.00e+00	91	36	0	416284672	60	9089
2026-01-04 02:52:07.56	257.70	13.73	-44.8	-46.0	21.1	0.00e+00	5	36	0	418381824	60	9769
2026-01-04 02:52:08.57	257.89	13.77	-44.8	-46.0	20.9	0.00e+00	71	36	0	420478976	60	9785
2026-01-04 02:52:09.58	258.08	13.81	-44.9	-46.2	20.9	0.00e+00	92	36	0	422576128	60	9917
2026-01-04 02:52:10.59	258.28	13.85	-44.7	-46.0	20.9	0.00e+00	0	36	0	423624704	60	9711
2026-01-04 02:52:11.60	258.47	13.89	-44.8	-46.1	20.9	0.00e+00	71	36	0	425721856	60	9848
2026-01-04 02:52:12.61	258.66	13.92	-45.3	-46.6	20.6	0.00e+00	0	36	0	427819008	60	10462
2026-01-04 02:52:13.62	258.86	13.96	-45.6	-47.0	19.8	0.00e+00	91	36	0	429916160	60	10945
2026-01-04 02:52:14.63	259.05	14.00	-45.1	-46.4	20.8	0.00e+00	49	36	0	432013312	60	10192
2026-01-04 02:52:15.65	259.25	14.03	-45.6	-46.9	20.5	0.00e+00	91	36	0	433061888	60	10793
2026-01-04 02:52:16.66	259.44	14.07	-46.1	-47.5	20.0	0.00e+00	90	36	0	435159040	60	11609
2026-01-04 02:52:17.67	259.64	14.11	-45.7	-47.1	20.1	0.00e+00	0	36	0	437256192	60	10988
2026-01-04 02:52:18.68	259.83	14.14	-45.5	-46.8	20.5	0.00e+00	75	36	0	439353344	60	10680
2026-01-04 02:52:19.69	260.03	14.18	-45.7	-47.0	20.6	0.00e+00	0	36	0	441450496	60	10948
2026-01-04 02:52:20.70	260.22	14.21	-45.7	-47.0	20.7	0.00e+00	86	36	0	442499072	60	10965
2026-01-04 02:52:21.71	260.42	14.25	-45.1	-46.3	21.2	0.00e+00	0	36	0	444596224	60	10122
2026-01-04 02:52:22.72	260.62	14.28	-44.5	-45.6	21.3	0.00e+00	90	36	0	446693376	60	9315
2026-01-04 02:52:23.73	260.82	14.32	-44.4	-45.6	21.2	0.00e+00	91	36	0	448790528	60	9249
2026-01-04 02:52:24.75	261.02	14.35	-44.3	-45.5	21.2	0.00e+00	0	36	0	450887680	60	9190
2026-01-04 02:52:25.76	261.22	14.39	-44.2	-45.4	21.1	0.00e+00	76	37	0	451936256	60	9085
2026-01-04 02:52:26.77	261.42	14.42	-44.5	-45.7	20.9	0.00e+00	0	36	0	454033408	60	9451
2026-01-04 02:52:27.78	261.62	14.45	-45.4	-46.7	20.5	0.00e+00	90	36	0	456130560	60	10557
2026-01-04 02:52:28.79	261.82	14.49	-45.3	-46.6	20.7	0.00e+00	9	36	0	458227712	60	10404
2026-01-04 02:52:29.80	262.02	14.52	-46.6	-48.0	20.3	0.00e+00	92	36	0	460324864	60	12220
2026-01-04 02:52:30.81	262.22	14.55	-45.5	-46.7	20.8	0.00e+00	92	36	0	462422016	60	10584
2026-01-04 02:52:31.82	262.42	14.58	-45.2	-46.4	20.6	0.00e+00	0	36	0	463470592	60	10207
2026-01-04 02:52:32.83	262.62	14.62	-44.8	-46.0	21.1	0.00e+00	92	36	0	465567744	60	9695
2026-01-04 02:52:33.85	262.83	14.65	-44.7	-45.9	21.4	0.00e+00	0	37	0	467664896	60	9565
2026-01-04 02:52:34.86	263.03	14.68	-44.4	-45.5	21.5	0.00e+00	88	36	0	469762048	60	9200
2026-01-04 02:52:35.87	263.23	14.71	-44.5	-45.6	21.4	0.00e+00	9	36	0	471859200	60	9341
2026-01-04 02:52:36.88	263.44	14.74	-44.2	-45.4	21.6	0.00e+00	92	36	0	472907776	60	9063
2026-01-04 02:52:37.89	263.64	14.77	-44.3	-45.4	21.8	0.00e+00	92	36	0	475004928	60	9105
2026-01-04 02:52:38.90	263.84	14.80	-43.8	-44.9	22.1	0.00e+00	0	36	0	477102080	60	8567
2026-01-04 02:52:39.91	264.05	14.83	-43.1	-44.1	22.6	0.00e+00	74	36	0	479199232	60	7786
2026-01-04 02:52:40.92	264.25	14.86	-42.9	-43.9	22.7	0.00e+00	0	36	0	481296384	60	7611
2026-01-04 02:52:41.94	264.46	14.89	-43.2	-44.2	22.9	0.00e+00	92	36	0	482344960	60	7889
2026-01-04 02:52:42.95	264.67	14.92	-43.4	-44.4	22.8	0.00e+00	0	36	0	484442112	60	8084
2026-01-04 02:52:43.96	264.87	14.95	-42.9	-43.9	22.8	0.00e+00	92	37	0	486539264	60	7610
2026-01-04 02:52:44.97	265.08	14.98	-43.0	-43.9	22.7	0.00e+00	92	36	0	488636416	60	7682
2026-01-04 02:52:45.98	265.29	15.01	-43.0	-44.0	22.7	0.00e+00	33	36	0	490733568	60	7757
2026-01-04 02:52:46.99	265.50	15.03	-42.9	-43.9	22.6	0.00e+00	92	36	0	491782144	60	7631
2026-01-04 02:52:48.00	265.70	15.06	-42.9	-43.9	22.7	0.00e+00	0	36	0	493879296	60	7675
2026-01-04 02:52:49.01	265.91	15.09	-42.9	-43.9	22.7	0.00e+00	72	37	0	495976448	60	7664
2026-01-04 02:52:50.02	266.12	15.12	-43.0	-44.0	22.6	0.00e+00	0	37	0	498073600	60	7729
2026-01-04 02:52:51.03	266.33	15.14	-43.1	-44.1	22.4	0.00e+00	92	37	0	500170752	60	7815
2026-01-04 02:52:52.05	266.54	15.17	-43.0	-44.0	22.4	0.00e+00	0	36	0	501219328	60	7757
2026-01-04 02:52:53.06	266.75	15.19	-43.2	-44.3	22.6	0.00e+00	92	37	0	503316480	60	7970
2026-01-04 02:52:54.07	266.96	15.22	-43.5	-44.5	22.5	0.00e+00	92	37	0	505413632	60	8166
2026-01-04 02:52:55.08	267.17	15.24	-43.6	-44.6	22.7	0.00e+00	0	37	0	507510784	60	8303
2026-01-04 02:52:56.09	267.38	15.27	-44.0	-45.0	22.7	0.00e+00	62	37	0	509607936	60	8632
2026-01-04 02:52:57.10	267.59	15.29	-43.3	-44.3	22.7	0.00e+00	0	37	0	511705088	60	8032
2026-01-04 02:52:58.11	267.80	15.32	-43.6	-44.7	22.3	0.00e+00	92	37	0	512753664	60	8350
2026-01-04 02:52:59.12	268.01	15.34	-43.7	-44.8	21.9	0.00e+00	8	37	0	514850816	60	8443
2026-01-04 02:53:00.14	268.23	15.37	-44.1	-45.2	21.9	0.00e+00	92	37	0	516947968	60	8892
2026-01-04 02:53:01.14	268.44	15.39	-43.8	-44.9	21.9	0.00e+00	92	37	0	519045120	60	8547
2026-01-04 02:53:02.16	268.65	15.41	-43.8	-44.9	22.1	0.00e+00	0	37	0	521142272	60	8567
2026-01-04 02:53:03.17	268.87	15.43	-43.6	-44.7	22.1	0.00e+00	90	37	0	522190848	60	8345
2026-01-04 02:53:04.18	269.08	15.46	-43.1	-44.1	22.6	0.00e+00	25	37	0	524288000	60	7857
2026-01-04 02:53:05.19	269.29	15.48	-43.0	-44.0	22.8	0.00e+00	92	37	0	526385152	60	7692
2026-01-04 02:53:06.20	269.51	15.50	-42.9	-43.9	22.8	0.00e+00	13	37	0	528482304	60	7644
2026-01-04 02:53:07.21	269.72	15.52	-43.2	-44.2	22.6	0.00e+00	92	37	0	530579456	60	7940
2026-01-04 02:53:08.22	269.94	15.54	-43.3	-44.3	22.3	0.00e+00	92	37	0	531628032	60	8033
2026-01-04 02:53:09.23	270.15	15.56	-43.5	-44.6	22.1	0.00e+00	0	37	0	533725184	60	8261
2026-01-04 02:53:10.25	270.37	15.58	-43.8	-44.9	21.8	0.00e+00	90	37	0	535822336	60	8536
2026-01-04 02:53:11.26	270.58	15.60	-43.8	-44.9	21.8	0.00e+00	0	36	0	537919488	60	8621
2026-01-04 02:53:12.27	270.80	15.62	-43.9	-45.0	21.9	0.00e+00	91	37	0	540016640	60	8688
2026-01-04 02:53:13.28	271.01	15.64	-43.7	-44.8	21.5	0.00e+00	11	37	0	541065216	60	8470
2026-01-04 02:53:14.29	271.23	15.66	-43.6	-44.7	22.1	0.00e+00	91	37	0	543162368	60	8363
2026-01-04 02:53:15.30	271.45	15.68	-43.9	-45.0	22.0	0.00e+00	90	37	0	545259520	60	8703
2026-01-04 02:53:16.31	271.66	15.69	-44.2	-45.4	21.5	0.00e+00	0	36	0	547356672	60	9051
2026-01-04 02:53:17.32	271.88	15.71	-44.8	-46.0	20.8	0.00e+00	92	37	0	549453824	60	9755
2026-01-04 02:53:18.33	272.10	15.73	-45.2	-46.5	20.7	0.00e+00	0	37	0	551550976	60	10316
2026-01-04 02:53:19.35	272.32	15.74	-44.5	-45.7	21.3	0.00e+00	91	37	0	552599552	60	9423
2026-01-04 02:53:20.36	272.53	15.76	-43.9	-44.9	22.0	0.00e+00	0	36	0	554696704	60	8615
2026-01-04 02:53:21.37	272.75	15.78	-43.5	-44.5	22.5	0.00e+00	92	37	0	556793856	60	8171
2026-01-04 02:53:22.38	272.97	15.79	-42.8	-43.7	23.0	0.00e+00	92	37	0	558891008	60	7493
2026-01-04 02:53:23.39	273.19	15.81	-42.8	-43.8	22.9	0.00e+00	0	37	0	560988160	60	7531
2026-01-04 02:53:24.40	273.41	15.82	-42.9	-43.9	22.7	0.00e+00	75	37	0	562036736	60	7611
2026-01-04 02:53:25.41	273.63	15.84	-43.2	-44.3	22.4	0.00e+00	0	37	0	564133888	60	7955
2026-01-04 02:53:26.42	273.84	15.85	-43.4	-44.5	22.3	0.00e+00	92	37	0	566231040	60	8160
2026-01-04 02:53:27.43	274.06	15.86	-43.6	-44.7	22.1	0.00e+00	0	37	0	568328192	60	8348
2026-01-04 02:53:28.45	274.28	15.88	-43.4	-44.5	22.3	0.00e+00	92	37	0	570425344	60	8182
2026-01-04 02:53:29.46	274.50	15.89	-42.9	-44.0	22.5	0.00e+00	4	37	0	571473920	60	7693
2026-01-04 02:53:30.47	274.72	15.90	-42.8	-43.8	22.8	0.00e+00	28	37	0	573571072	60	7511
2026-01-04 02:53:31.48	274.94	15.91	-42.3	-43.3	23.0	0.00e+00	91	37	0	575668224	60	7134
2026-01-04 02:53:32.49	275.16	15.93	-42.4	-43.4	23.0	0.00e+00	0	37	0	577765376	60	7183
2026-01-04 02:53:33.50	275.38	15.94	-42.6	-43.6	22.8	0.00e+00	87	37	0	579862528	60	7361
2026-01-04 02:53:34.51	275.60	15.95	-43.0	-44.0	22.6	0.00e+00	0	37	0	580911104	60	7695
2026-01-04 02:53:35.52	275.82	15.96	-43.2	-44.2	22.5	0.00e+00	92	37	0	583008256	60	7900
2026-01-04 02:53:36.53	276.04	15.97	-43.2	-44.3	22.5	0.00e+00	7	37	0	585105408	60	7970
2026-01-04 02:53:37.55	276.27	15.98	-43.0	-44.1	22.6	0.00e+00	0	37	0	587202560	60	7774
2026-01-04 02:53:38.56	276.49	15.99	-43.8	-44.8	22.2	0.00e+00	90	37	0	589299712	60	8507
2026-01-04 02:53:39.57	276.71	16.00	-43.1	-44.1	22.6	0.00e+00	0	37	0	591396864	60	7833
2026-01-04 02:53:40.58	276.93	16.01	-43.4	-44.4	22.5	0.00e+00	89	37	0	592445440	60	8124
2026-01-04 02:53:41.59	277.15	16.01	-43.7	-44.8	22.1	0.00e+00	0	37	0	594542592	60	8497
2026-01-04 02:53:42.60	277.37	16.02	-44.1	-45.2	21.8	0.00e+00	92	37	0	596639744	60	8888
2026-01-04 02:53:43.61	277.59	16.03	-44.4	-45.5	21.6	0.00e+00	8	37	0	598736896	60	9218
2026-01-04 02:53:44.62	277.81	16.04	-44.6	-45.7	21.5	0.00e+00	77	37	0	600834048	60	9432
2026-01-04 02:53:45.64	278.04	16.04	-44.0	-45.1	21.8	0.00e+00	92	37	0	601882624	60	8743
2026-01-04 02:53:46.65	278.26	16.05	-43.9	-45.0	21.8	0.00e+00	0	37	0	603979776	60	8675
2026-01-04 02:53:47.66	278.48	16.05	-43.7	-44.8	21.9	0.00e+00	92	37	0	606076928	60	8497
2026-01-04 02:53:48.67	278.70	16.06	-44.0	-45.1	21.6	0.00e+00	0	37	0	608174080	60	8764
2026-01-04 02:53:49.68	278.92	16.06	-44.1	-45.3	21.4	0.00e+00	92	37	0	610271232	60	8963
2026-01-04 02:53:50.69	279.15	16.07	-45.0	-46.3	20.8	0.00e+00	0	37	0	611319808	60	10041
2026-01-04 02:53:51.70	279.37	16.07	-44.7	-46.0	20.9	0.00e+00	92	37	0	613416960	60	9775
2026-01-04 02:53:52.71	279.59	16.08	-44.6	-45.9	20.7	0.00e+00	92	37	0	615514112	60	9616
2026-01-04 02:53:53.72	279.81	16.08	-44.8	-46.1	21.2	0.00e+00	0	37	0	617611264	60	9821
2026-01-04 02:53:54.73	280.03	16.08	-44.4	-45.6	21.4	0.00e+00	92	37	0	619708416	60	9286
2026-01-04 02:53:55.74	280.26	16.08	-44.9	-46.2	21.1	0.00e+00	0	36	0	620756992	60	9914
2026-01-04 02:53:56.75	280.48	16.09	-44.7	-45.9	21.3	0.00e+00	70	36	0	622854144	60	9624
2026-01-04 02:53:57.76	280.70	16.09	-44.9	-46.2	20.6	0.00e+00	11	37	0	624951296	60	9958
2026-01-04 02:53:58.77	280.92	16.09	-44.3	-45.5	21.1	0.00e+00	92	37	0	627048448	60	9166
2026-01-04 02:53:59.79	281.15	16.09	-44.5	-45.7	21.3	0.00e+00	92	37	0	629145600	60	9450
2026-01-04 02:54:00.80	281.37	16.09	-45.4	-46.7	20.4	0.00e+00	0	37	0	630194176	60	10566
2026-01-04 02:54:01.81	281.59	16.09	-44.8	-46.0	21.3	0.00e+00	13	37	0	632291328	60	9702
2026-01-04 02:54:02.82	281.81	16.09	-44.4	-45.6	20.7	0.00e+00	0	37	0	634388480	60	9294
2026-01-04 02:54:03.83	282.04	16.09	-43.5	-44.6	22.3	0.00e+00	53	37	0	636485632	60	8277
2026-01-04 02:54:04.84	282.26	16.09	-44.0	-45.0	22.1	0.00e+00	0	37	0	638582784	60	8704
2026-01-04 02:54:05.85	282.48	16.09	-43.6	-44.7	22.1	0.00e+00	92	37	0	639631360	60	8366
2026-01-04 02:54:06.86	282.70	16.08	-43.6	-44.6	22.0	0.00e+00	91	37	0	641728512	60	8320
2026-01-04 02:54:07.87	282.92	16.08	-43.4	-44.5	22.2	0.00e+00	0	37	0	643825664	60	8202
2026-01-04 02:54:08.88	283.15	16.08	-43.2	-44.3	22.3	0.00e+00	91	37	0	645922816	60	7964
2026-01-04 02:54:09.89	283.37	16.08	-42.9	-44.0	22.4	0.00e+00	0	37	0	648019968	60	7691
2026-01-04 02:54:10.90	283.59	16.07	-43.0	-44.0	22.5	0.00e+00	70	37	0	649068544	60	7763
2026-01-04 02:54:11.92	283.81	16.07	-43.1	-44.1	22.4	0.00e+00	0	37	0	651165696	60	7796
2026-01-04 02:54:12.93	284.04	16.06	-43.0	-44.0	22.5	0.00e+00	92	37	0	653262848	60	7763
2026-01-04 02:54:13.94	284.26	16.06	-43.0	-44.0	22.4	0.00e+00	90	37	0	655360000	60	7752
2026-01-04 02:54:14.95	284.48	16.05	-43.3	-44.4	22.0	0.00e+00	0	37	0	657457152	60	8098
2026-01-04 02:54:15.96	284.70	16.05	-43.4	-44.5	22.0	0.00e+00	7	37	0	659554304	60	8140
2026-01-04 02:54:16.97	284.92	16.04	-43.3	-44.4	21.8	0.00e+00	0	37	0	660602880	60	8099
2026-01-04 02:54:17.98	285.14	16.04	-42.9	-44.0	22.5	0.00e+00	59	37	0	662700032	60	7698
2026-01-04 02:54:18.99	285.36	16.03	-42.6	-43.6	22.7	0.00e+00	0	37	0	664797184	60	7370
2026-01-04 02:54:20.00	285.59	16.02	-42.7	-43.7	22.7	0.00e+00	92	37	0	666894336	60	7440
2026-01-04 02:54:21.01	285.81	16.01	-42.8	-43.8	22.6	0.00e+00	71	36	0	668991488	60	7558
2026-01-04 02:54:22.03	286.03	16.01	-43.0	-44.1	22.5	0.00e+00	0	37	0	670040064	60	7794
2026-01-04 02:54:23.04	286.25	16.00	-43.8	-44.9	22.0	0.00e+00	87	37	0	672137216	60	8591
2026-01-04 02:54:24.05	286.47	15.99	-43.7	-44.8	22.0	0.00e+00	0	37	0	674234368	60	8500
2026-01-04 02:54:25.06	286.69	15.98	-43.6	-44.7	22.2	0.00e+00	92	37	0	676331520	60	8334
2026-01-04 02:54:26.07	286.91	15.97	-43.2	-44.2	22.3	0.00e+00	0	37	0	678428672	60	7906
2026-01-04 02:54:27.08	287.13	15.96	-42.8	-43.8	22.7	0.00e+00	92	37	0	679477248	60	7584
2026-01-04 02:54:28.09	287.35	15.95	-42.8	-43.8	22.8	0.00e+00	10	37	0	681574400	60	7532
2026-01-04 02:54:29.10	287.57	15.94	-43.1	-44.1	22.7	0.00e+00	0	37	0	683671552	60	7830
2026-01-04 02:54:30.11	287.79	15.93	-43.0	-44.0	22.6	0.00e+00	92	37	0	685768704	60	7763
2026-01-04 02:54:31.12	288.01	15.91	-43.1	-44.1	22.5	0.00e+00	20	37	0	687865856	60	7812
2026-01-04 02:54:32.14	288.23	15.90	-43.4	-44.4	22.6	0.00e+00	92	37	0	688914432	60	8137
2026-01-04 02:54:33.15	288.45	15.89	-43.3	-44.4	22.3	0.00e+00	0	37	0	691011584	60	8051
2026-01-04 02:54:34.16	288.67	15.88	-43.6	-44.7	22.0	0.00e+00	92	37	0	693108736	60	8397
2026-01-04 02:54:35.17	288.89	15.86	-43.7	-44.8	21.9	0.00e+00	10	37	0	695205888	60	8479
2026-01-04 02:54:36.18	289.11	15.85	-43.3	-44.4	22.1	0.00e+00	0	37	0	697303040	60	8080
2026-01-04 02:54:37.19	289.33	15.84	-43.7	-44.8	22.2	0.00e+00	90	37	0	699400192	60	8491
2026-01-04 02:54:38.20	289.55	15.82	-43.3	-44.4	22.4	0.00e+00	0	37	0	700448768	60	8086
2026-01-04 02:54:39.22	289.77	15.81	-43.3	-44.3	22.4	0.00e+00	90	37	0	702545920	60	8029
2026-01-04 02:54:40.23	289.98	15.79	-43.3	-44.4	22.2	0.00e+00	0	37	0	704643072	60	8054
2026-01-04 02:54:41.24	290.20	15.78	-42.9	-43.9	22.7	0.00e+00	92	37	0	706740224	60	7641
2026-01-04 02:54:42.25	290.42	15.76	-42.9	-43.9	22.6	0.00e+00	0	37	0	708837376	60	7606
2026-01-04 02:54:43.26	290.64	15.74	-42.9	-43.9	22.6	0.00e+00	0	37	0	709885952	60	7622
2026-01-04 02:54:44.27	290.85	15.73	-43.0	-44.1	22.4	0.00e+00	92	37	0	711983104	60	7779
2026-01-04 02:54:45.28	291.07	15.71	-43.0	-44.1	22.3	0.00e+00	0	37	0	714080256	60	7821
2026-01-04 02:54:46.29	291.29	15.69	-43.2	-44.2	22.3	0.00e+00	92	37	0	716177408	60	7939
2026-01-04 02:54:47.30	291.50	15.68	-43.5	-44.6	21.9	0.00e+00	0	37	0	718274560	60	8246
2026-01-04 02:54:48.31	291.72	15.66	-43.6	-44.7	22.1	0.00e+00	91	37	0	719323136	60	8408
2026-01-04 02:54:49.33	291.94	15.64	-43.3	-44.4	22.0	0.00e+00	0	37	0	721420288	60	8097
2026-01-04 02:54:50.34	292.15	15.62	-43.3	-44.4	22.0	0.00e+00	36	37	0	723517440	60	8106
2026-01-04 02:54:51.35	292.37	15.60	-43.6	-44.7	22.0	0.00e+00	92	37	0	725614592	60	8402
2026-01-04 02:54:52.36	292.58	15.58	-43.8	-44.9	21.7	0.00e+00	0	37	0	727711744	60	8587
2026-01-04 02:54:53.37	292.80	15.56	-43.4	-44.4	22.1	0.00e+00	31	37	0	728760320	60	8126
2026-01-04 02:54:54.38	293.01	15.54	-42.9	-44.0	22.4	0.00e+00	0	37	0	730857472	60	7711
2026-01-04 02:54:55.39	293.22	15.52	-42.8	-43.8	22.5	0.00e+00	90	37	0	732954624	60	7566
2026-01-04 02:54:56.40	293.44	15.50	-42.7	-43.7	22.7	0.00e+00	0	37	0	735051776	60	7466
2026-01-04 02:54:57.41	293.65	15.48	-42.9	-43.9	22.5	0.00e+00	75	37	0	737148928	60	7620
2026-01-04 02:54:58.43	293.87	15.46	-42.4	-43.3	23.1	0.00e+00	92	37	0	739246080	60	7145
2026-01-04 02:54:59.44	294.08	15.44	-42.1	-43.0	23.1	0.00e+00	0	37	0	740294656	60	6923
2026-01-04 02:55:00.45	294.29	15.41	-41.7	-42.6	23.6	0.00e+00	92	37	0	742391808	60	6567
2026-01-04 02:55:01.46	294.50	15.39	-41.9	-42.8	23.7	0.00e+00	0	37	0	744488960	60	6737
2026-01-04 02:55:02.47	294.72	15.37	-42.9	-43.9	23.5	0.00e+00	92	37	0	746586112	60	7641
2026-01-04 02:55:03.48	294.93	15.34	-42.5	-43.4	23.5	0.00e+00	0	37	0	748683264	60	7215
2026-01-04 02:55:04.49	295.14	15.32	-42.2	-43.1	23.3	0.00e+00	92	37	0	749731840	60	6982
2026-01-04 02:55:05.50	295.35	15.30	-42.5	-43.4	23.3	0.00e+00	92	37	0	751828992	60	7223
2026-01-04 02:55:06.51	295.56	15.27	-41.9	-42.7	23.5	0.00e+00	0	37	0	753926144	60	6692
2026-01-04 02:55:07.53	295.77	15.25	-41.8	-42.7	23.6	0.00e+00	92	37	0	756023296	60	6648
2026-01-04 02:55:08.54	295.98	15.22	-42.3	-43.2	23.2	0.00e+00	0	37	0	758120448	60	7052
2026-01-04 02:55:09.55	296.19	15.20	-41.8	-42.7	23.6	0.00e+00	84	37	0	759169024	60	6648
2026-01-04 02:55:10.56	296.40	15.17	-42.1	-43.1	23.4	0.00e+00	0	37	0	761266176	60	6930
2026-01-04 02:55:11.57	296.61	15.14	-42.2	-43.1	23.2	0.00e+00	73	37	0	763363328	60	7007
2026-01-04 02:55:12.58	296.82	15.12	-42.5	-43.4	22.9	0.00e+00	43	37	0	765460480	60	7242
2026-01-04 02:55:13.59	297.03	15.09	-42.9	-43.9	22.6	0.00e+00	0	37	0	767557632	60	7623
2026-01-04 02:55:14.60	297.23	15.06	-42.7	-43.7	22.7	0.00e+00	33	37	0	768606208	60	7433
2026-01-04 02:55:15.61	297.44	15.04	-42.8	-43.7	22.9	0.00e+00	0	37	0	770703360	60	7507
2026-01-04 02:55:16.62	297.65	15.01	-42.6	-43.6	22.9	0.00e+00	73	37	0	772800512	60	7395
2026-01-04 02:55:17.64	297.86	14.98	-42.4	-43.4	23.1	0.00e+00	0	37	0	774897664	60	7200
2026-01-04 02:55:18.65	298.06	14.95	-42.3	-43.3	23.2	0.00e+00	90	37	0	776994816	60	7099
2026-01-04 02:55:19.66	298.27	14.92	-42.5	-43.4	22.9	0.00e+00	10	37	0	779091968	60	7231
2026-01-04 02:55:20.67	298.47	14.89	-42.5	-43.4	23.0	0.00e+00	0	37	0	780140544	60	7235
2026-01-04 02:55:21.68	298.68	14.87	-42.5	-43.4	23.0	0.00e+00	72	37	0	782237696	60	7245
2026-01-04 02:55:22.69	298.88	14.84	-42.5	-43.5	22.9	0.00e+00	0	37	0	784334848	60	7266
2026-01-04 02:55:23.70	299.09	14.81	-42.5	-43.4	22.9	0.00e+00	71	37	0	786432000	60	7251
2026-01-04 02:55:24.71	299.29	14.78	-42.1	-43.1	23.2	0.00e+00	0	37	0	788529152	60	6947
2026-01-04 02:55:25.72	299.49	14.75	-41.9	-42.8	23.4	0.00e+00	75	37	0	789577728	60	6735
2026-01-04 02:55:26.74	299.70	14.71	-41.6	-42.5	23.5	0.00e+00	9	37	0	791674880	60	6511
2026-01-04 02:55:27.75	299.90	14.68	-42.0	-42.9	23.5	0.00e+00	0	37	0	793772032	60	6840
2026-01-04 02:55:28.76	300.10	14.65	-41.6	-42.5	23.8	0.00e+00	82	37	0	795869184	60	6509
2026-01-04 02:55:29.77	300.30	14.62	-41.7	-42.6	23.7	0.00e+00	0	37	0	797966336	60	6551
2026-01-04 02:55:30.78	300.51	14.59	-41.6	-42.5	23.7	0.00e+00	64	37	0	799014912	60	6486
2026-01-04 02:55:31.79	300.71	14.56	-41.5	-42.4	23.7	0.00e+00	0	37	0	801112064	60	6407
2026-01-04 02:55:32.80	300.91	14.52	-41.4	-42.2	23.9	0.00e+00	90	37	0	803209216	60	6302
2026-01-04 02:55:33.81	301.11	14.49	-42.0	-42.9	23.5	0.00e+00	6	37	0	805306368	60	6802
2026-01-04 02:55:34.83	301.31	14.46	-42.1	-43.0	23.5	0.00e+00	0	37	0	807403520	60	6876
2026-01-04 02:55:35.84	301.51	14.42	-42.3	-43.3	23.1	0.00e+00	92	37	0	808452096	60	7119
2026-01-04 02:55:36.85	301.71	14.39	-42.3	-43.3	23.3	0.00e+00	0	37	0	810549248	60	7096
2026-01-04 02:55:37.86	301.90	14.36	-42.3	-43.3	23.2	0.00e+00	69	37	0	812646400	60	7100
2026-01-04 02:55:38.87	302.10	14.32	-42.4	-43.3	23.0	0.00e+00	0	37	0	814743552	60	7156
2026-01-04 02:55:39.88	302.30	14.29	-42.4	-43.4	22.8	0.00e+00	84	37	0	816840704	60	7197
2026-01-04 02:55:40.89	302.50	14.25	-42.8	-43.8	23.1	0.00e+00	0	37	0	817889280	60	7560
2026-01-04 02:55:41.90	302.69	14.22	-42.7	-43.7	23.0	0.00e+00	0	37	0	819986432	60	7467
2026-01-04 02:55:42.91	302.89	14.18	-42.6	-43.6	22.9	0.00e+00	44	37	0	822083584	60	7360
2026-01-04 02:55:43.93	303.09	14.15	-43.0	-44.0	23.0	0.00e+00	0	37	0	824180736	60	7754
2026-01-04 02:55:44.94	303.28	14.11	-42.7	-43.7	22.6	0.00e+00	92	37	0	826277888	60	7490
2026-01-04 02:55:45.95	303.48	14.08	-42.6	-43.5	23.1	0.00e+00	0	37	0	827326464	60	7310
2026-01-04 02:55:46.96	303.67	14.04	-43.0	-44.0	22.4	0.00e+00	92	37	0	829423616	60	7751
2026-01-04 02:55:47.97	303.86	14.00	-42.8	-43.7	22.8	0.00e+00	0	37	0	831520768	60	7483
2026-01-04 02:55:48.98	304.06	13.97	-42.7	-43.7	22.9	0.00e+00	85	37	0	833617920	60	7478
2026-01-04 02:55:49.99	304.25	13.93	-42.4	-43.3	23.0	0.00e+00	90	37	0	835715072	60	7137
2026-01-04 02:55:51.00	304.44	13.89	-42.5	-43.5	22.6	0.00e+00	0	37	0	836763648	60	7308
2026-01-04 02:55:52.01	304.63	13.86	-42.3	-43.3	23.2	0.00e+00	63	37	0	838860800	60	7099
2026-01-04 02:55:53.02	304.83	13.82	-42.0	-43.0	23.1	0.00e+00	0	37	0	840957952	60	6886
2026-01-04 02:55:54.04	305.02	13.78	-42.3	-43.2	23.2	0.00e+00	60	37	0	843055104	60	7058
2026-01-04 02:55:55.05	305.21	13.74	-42.5	-43.5	22.6	0.00e+00	0	37	0	845152256	60	7260
2026-01-04 02:55:56.06	305.40	13.70	-41.9	-42.9	23.4	0.00e+00	44	37	0	847249408	60	6779
2026-01-04 02:55:57.07	305.59	13.67	-42.0	-42.9	23.1	0.00e+00	43	37	0	848297984	60	6817
2026-01-04 02:55:58.08	305.78	13.63	-42.3	-43.3	22.9	0.00e+00	0	37	0	850395136	60	7147
2026-01-04 02:55:59.09	305.97	13.59	-43.4	-44.5	22.6	0.00e+00	69	37	0	852492288	60	8190
2026-01-04 02:56:00.10	306.15	13.55	-42.6	-43.6	22.8	0.00e+00	0	37	0	854589440	60	7394
2026-01-04 02:56:01.11	306.34	13.51	-43.3	-44.3	22.6	0.00e+00	92	37	0	856686592	60	8025
2026-01-04 02:56:02.12	306.53	13.47	-43.4	-44.4	22.0	0.00e+00	20	37	0	857735168	60	8118
2026-01-04 02:56:03.13	306.71	13.43	-43.3	-44.3	22.6	0.00e+00	82	37	0	859832320	60	8028
2026-01-04 02:56:04.15	306.90	13.39	-43.0	-44.0	22.7	0.00e+00	0	37	0	861929472	60	7705
2026-01-04 02:56:05.16	307.09	13.35	-42.8	-43.8	22.5	0.00e+00	0	37	0	864026624	60	7521
2026-01-04 02:56:06.17	307.27	13.31	-42.7	-43.8	22.6	0.00e+00	36	37	0	866123776	60	7519
2026-01-04 02:56:07.18	307.46	13.27	-43.0	-44.0	22.4	0.00e+00	0	37	0	867172352	60	7738
2026-01-04 02:56:08.19	307.64	13.23	-43.2	-44.3	22.2	0.00e+00	87	37	0	869269504	60	7966
2026-01-04 02:56:09.20	307.83	13.19	-43.7	-44.8	21.8	0.00e+00	0	37	0	871366656	60	8460
2026-01-04 02:56:10.21	308.01	13.15	-43.7	-44.8	21.8	0.00e+00	90	37	0	873463808	60	8476
2026-01-04 02:56:11.22	308.19	13.11	-43.6	-44.7	21.6	0.00e+00	10	37	0	875560960	60	8390
2026-01-04 02:56:12.23	308.37	13.06	-43.9	-45.0	21.9	0.00e+00	0	37	0	876609536	60	8687
2026-01-04 02:56:13.25	308.56	13.02	-44.2	-45.3	21.6	0.00e+00	65	37	0	878706688	60	9005
2026-01-04 02:56:14.26	308.74	12.98	-44.5	-45.7	21.5	0.00e+00	0	37	0	880803840	60	9408
2026-01-04 02:56:15.27	308.92	12.94	-45.2	-46.5	20.1	0.00e+00	62	37	0	882900992	60	10260
2026-01-04 02:56:16.28	309.10	12.89	-45.1	-46.4	20.8	0.00e+00	0	37	0	884998144	60	10176
2026-01-04 02:56:17.29	309.28	12.85	-44.3	-45.4	21.8	0.00e+00	92	37	0	887095296	60	9089
2026-01-04 02:56:18.30	309.46	12.81	-44.6	-45.7	21.5	0.00e+00	11	37	0	888143872	60	9405
2026-01-04 02:56:19.31	309.63	12.77	-44.8	-46.0	21.3	0.00e+00	0	37	0	890241024	60	9756
2026-01-04 02:56:20.33	309.81	12.72	-45.1	-46.4	21.0	0.00e+00	90	37	0	892338176	60	10187
2026-01-04 02:56:21.34	309.99	12.68	-45.5	-46.9	20.4	0.00e+00	0	37	0	894435328	60	10741
2026-01-04 02:56:22.35	310.17	12.64	-45.5	-46.8	20.1	0.00e+00	90	37	0	896532480	60	10729
2026-01-04 02:56:23.36	310.35	12.59	-45.6	-46.9	20.3	0.00e+00	0	37	0	897581056	60	10845
2026-01-04 02:56:24.37	310.52	12.55	-45.1	-46.4	20.7	0.00e+00	63	37	0	899678208	60	10239
2026-01-04 02:56:25.38	310.70	12.51	-45.3	-46.7	20.7	0.00e+00	0	37	0	901775360	60	10486
2026-01-04 02:56:26.39	310.87	12.46	-44.8	-46.0	21.3	0.00e+00	22	37	0	903872512	60	9693
2026-01-04 02:56:27.40	311.05	12.42	-44.0	-45.1	21.6	0.00e+00	91	37	0	905969664	60	8766
2026-01-04 02:56:28.41	311.22	12.37	-43.6	-44.7	22.0	0.00e+00	0	37	0	907018240	60	8408
2026-01-04 02:56:29.42	311.39	12.33	-43.2	-44.3	22.2	0.00e+00	88	37	0	909115392	60	7975
2026-01-04 02:56:30.44	311.57	12.28	-43.6	-44.7	22.1	0.00e+00	0	37	0	911212544	60	8338
2026-01-04 02:56:31.45	311.74	12.24	-43.7	-44.8	21.9	0.00e+00	71	37	0	913309696	60	8447
2026-01-04 02:56:32.46	311.91	12.19	-44.3	-45.5	21.8	0.00e+00	0	37	0	915406848	60	9162
2026-01-04 02:56:33.47	312.08	12.15	-45.0	-46.1	21.5	0.00e+00	0	37	0	916455424	60	9884
2026-01-04 02:56:34.48	312.25	12.10	-44.9	-46.1	21.3	0.00e+00	91	37	0	918552576	60	9898
2026-01-04 02:56:35.49	312.43	12.06	-45.1	-46.3	20.8	0.00e+00	0	37	0	920649728	60	10100
2026-01-04 02:56:36.50	312.60	12.01	-44.8	-46.1	20.9	0.00e+00	5	37	0	922746880	60	9808
2026-01-04 02:56:37.51	312.76	11.97	-45.1	-46.3	20.7	0.00e+00	0	37	0	924844032	60	10118
2026-01-04 02:56:38.52	312.93	11.92	-44.9	-46.2	20.6	0.00e+00	70	37	0	925892608	60	9994
2026-01-04 02:56:39.54	313.10	11.87	-45.0	-46.4	20.5	0.00e+00	0	37	0	927989760	60	10139
2026-01-04 02:56:40.55	313.27	11.83	-45.1	-46.5	20.2	0.00e+00	57	37	0	930086912	60	10307
2026-01-04 02:56:41.56	313.44	11.78	-45.3	-46.7	20.2	0.00e+00	90	37	0	932184064	60	10518
2026-01-04 02:56:42.57	313.60	11.74	-45.3	-46.7	20.2	0.00e+00	0	37	0	934281216	60	10574
2026-01-04 02:56:43.58	313.77	11.69	-44.5	-45.8	20.9	0.00e+00	9	37	0	936378368	60	9521
2026-01-04 02:56:44.59	313.94	11.64	-44.5	-45.8	20.9	0.00e+00	0	37	0	937426944	60	9488
2026-01-04 02:56:45.60	314.10	11.60	-44.4	-45.7	20.8	0.00e+00	90	37	0	939524096	60	9401
2026-01-04 02:56:46.61	314.27	11.55	-44.1	-45.3	21.1	0.00e+00	0	37	0	941621248	60	8957
2026-01-04 02:56:47.62	314.43	11.50	-44.1	-45.3	21.4	0.00e+00	74	37	0	943718400	60	8958
2026-01-04 02:56:48.64	314.60	11.46	-43.6	-44.7	21.8	0.00e+00	92	37	0	945815552	60	8422
2026-01-04 02:56:49.65	314.76	11.41	-43.8	-45.0	21.6	0.00e+00	0	37	0	946864128	60	8627
2026-01-04 02:56:50.66	314.92	11.36	-43.9	-45.1	21.4	0.00e+00	7	37	0	948961280	60	8807
2026-01-04 02:56:51.67	315.08	11.31	-44.1	-45.3	21.2	0.00e+00	0	37	0	951058432	60	8998
2026-01-04 02:56:52.68	315.25	11.27	-44.3	-45.5	21.1	0.00e+00	62	37	0	953155584	60	9184
2026-01-04 02:56:53.69	315.41	11.22	-44.1	-45.3	21.2	0.00e+00	0	37	0	955252736	60	9011
2026-01-04 02:56:54.70	315.57	11.17	-44.2	-45.4	21.1	0.00e+00	92	37	0	956301312	60	9129
2026-01-04 02:56:55.71	315.73	11.12	-44.6	-45.8	21.3	0.00e+00	81	37	0	958398464	60	9488
2026-01-04 02:56:56.72	315.89	11.08	-44.4	-45.6	21.3	0.00e+00	0	37	0	960495616	60	9326
2026-01-04 02:56:57.73	316.05	11.03	-44.4	-45.6	21.6	0.00e+00	83	37	0	962592768	60	9271
2026-01-04 02:56:58.74	316.21	10.98	-44.1	-45.2	21.6	0.00e+00	0	37	0	964689920	60	8915
2026-01-04 02:56:59.75	316.36	10.93	-44.3	-45.5	21.5	0.00e+00	92	37	0	965738496	60	9138
2026-01-04 02:57:00.76	316.52	10.88	-44.2	-45.4	21.3	0.00e+00	0	37	0	967835648	60	9069
2026-01-04 02:57:01.77	316.68	10.83	-45.0	-46.2	21.2	0.00e+00	0	37	0	969932800	60	9983
2026-01-04 02:57:02.79	316.84	10.79	-44.8	-46.0	21.2	0.00e+00	0	37	0	972029952	60	9710
2026-01-04 02:57:03.80	316.99	10.74	-45.1	-46.3	21.0	0.00e+00	0	37	0	974127104	60	10127
2026-01-04 02:57:04.81	317.15	10.69	-45.3	-46.6	20.7	0.00e+00	38	37	0	976224256	60	10408
2026-01-04 02:57:05.82	317.30	10.64	-45.1	-46.4	20.6	0.00e+00	0	37	0	977272832	60	10187
2026-01-04 02:57:06.83	317.46	10.59	-44.9	-46.2	20.4	0.00e+00	84	37	0	979369984	60	10004
2026-01-04 02:57:07.84	317.61	10.54	-44.8	-46.1	20.4	0.00e+00	0	37	0	981467136	60	9851
2026-01-04 02:57:08.85	317.77	10.49	-44.7	-46.1	20.6	0.00e+00	0	37	0	983564288	60	9816
2026-01-04 02:57:09.86	317.92	10.44	-44.7	-46.0	20.6	0.00e+00	9	37	0	985661440	60	9716
2026-01-04 02:57:10.87	318.07	10.39	-44.6	-45.9	20.7	0.00e+00	0	37	0	986710016	60	9629
2026-01-04 02:57:11.89	318.22	10.34	-44.6	-45.9	20.5	0.00e+00	16	37	0	988807168	60	9647
2026-01-04 02:57:12.90	318.38	10.30	-44.4	-45.7	20.9	0.00e+00	0	37	0	990904320	60	9399
2026-01-04 02:57:13.91	318.53	10.25	-44.1	-45.4	21.2	0.00e+00	90	37	0	993001472	60	9046
2026-01-04 02:57:14.92	318.68	10.20	-44.0	-45.2	21.4	0.00e+00	0	37	0	995098624	60	8896
2026-01-04 02:57:15.93	318.83	10.15	-43.9	-45.1	21.5	0.00e+00	0	37	0	996147200	60	8767
2026-01-04 02:57:16.94	318.98	10.10	-43.8	-44.9	21.5	0.00e+00	0	37	0	998244352	60	8585
2026-01-04 02:57:17.95	319.13	10.05	-43.6	-44.7	21.7	0.00e+00	0	37	0	1000341504	60	8396
2026-01-04 02:57:18.96	319.28	10.00	-43.4	-44.5	21.8	0.00e+00	79	37	0	1002438656	60	8181
2026-01-04 02:57:19.98	319.43	9.95	-43.2	-44.3	21.9	0.00e+00	0	37	0	1004535808	60	8039
2026-01-04 02:57:20.99	319.57	9.90	-43.4	-44.5	21.8	0.00e+00	92	37	0	1005584384	60	8165
2026-01-04 02:57:22.00	319.72	9.85	-43.4	-44.5	21.9	0.00e+00	0	37	0	1007681536	60	8168
2026-01-04 02:57:23.01	319.87	9.80	-43.5	-44.6	21.8	0.00e+00	0	37	0	1009778688	60	8291
2026-01-04 02:57:24.02	320.01	9.75	-43.5	-44.7	21.9	0.00e+00	0	37	0	1011875840	60	8343
2026-01-04 02:57:25.03	320.16	9.70	-43.6	-44.7	21.9	0.00e+00	0	37	0	1013972992	60	8370
2026-01-04 02:57:26.04	320.30	9.65	-43.9	-45.0	21.7	0.00e+00	0	37	0	1015021568	60	8676
2026-01-04 02:57:27.05	320.45	9.60	-43.8	-44.9	21.6	0.00e+00	0	37	0	1017118720	60	8589
2026-01-04 02:57:28.06	320.59	9.55	-43.6	-44.7	21.6	0.00e+00	62	37	0	1019215872	60	8379
2026-01-04 02:57:29.07	320.74	9.50	-44.0	-45.1	21.5	0.00e+00	0	37	0	1021313024	60	8813
2026-01-04 02:57:30.09	320.88	9.45	-43.9	-45.0	21.6	0.00e+00	7	37	0	1023410176	60	8719
2026-01-04 02:57:31.10	321.02	9.40	-43.8	-44.9	21.6	0.00e+00	0	37	0	1024458752	60	8607
2026-01-04 02:57:32.11	321.17	9.35	-43.5	-44.6	21.8	0.00e+00	0	37	0	1026555904	60	8325
2026-01-04 02:57:33.12	321.31	9.29	-43.6	-44.7	21.9	0.00e+00	92	37	0	1028653056	60	8354
2026-01-04 02:57:34.13	321.45	9.24	-43.6	-44.7	21.8	0.00e+00	0	37	0	1030750208	60	8406
2026-01-04 02:57:35.14	321.59	9.19	-43.4	-44.5	22.0	0.00e+00	92	37	0	1032847360	60	8232
2026-01-04 02:57:36.15	321.73	9.14	-43.2	-44.3	21.9	0.00e+00	10	37	0	1033895936	60	8018
2026-01-04 02:57:37.16	321.87	9.09	-43.5	-44.6	21.8	0.00e+00	4	37	0	1035993088	60	8301
2026-01-04 02:57:38.18	322.01	9.04	-43.6	-44.7	21.6	0.00e+00	0	37	0	1038090240	60	8379
2026-01-04 02:57:39.19	322.15	8.99	-43.5	-44.7	21.5	0.00e+00	27	37	0	1040187392	60	8331
2026-01-04 02:57:40.20	322.29	8.94	-43.6	-44.7	21.6	0.00e+00	8	37	0	1042284544	60	8420
2026-01-04 02:57:41.21	322.43	8.89	-43.4	-44.5	21.7	0.00e+00	0	37	0	1044381696	60	8230
2026-01-04 02:57:42.22	322.57	8.84	-43.5	-44.7	21.6	0.00e+00	84	37	0	1045430272	60	8376
2026-01-04 02:57:43.23	322.70	8.79	-44.3	-45.5	21.1	0.00e+00	0	37	0	1047527424	60	9211
2026-01-04 02:57:44.24	322.84	8.74	-45.1	-46.3	21.2	0.00e+00	32	37	0	1049624576	60	10037
2026-01-04 02:57:45.26	322.98	8.68	-44.5	-45.7	21.5	0.00e+00	0	37	0	1051721728	60	9379
2026-01-04 02:57:46.26	323.11	8.63	-45.5	-46.8	20.9	0.00e+00	0	37	0	1053818880	60	10659
2026-01-04 02:57:47.28	323.25	8.58	-44.3	-45.4	21.7	0.00e+00	0	37	0	1054867456	60	9096
2026-01-04 02:57:48.29	323.38	8.53	-44.2	-45.4	21.8	0.00e+00	0	37	0	1056964608	60	9037
2026-01-04 02:57:49.30	323.52	8.48	-44.4	-45.5	21.8	0.00e+00	94	37	0	1059061760	60	9234
2026-01-04 02:57:50.31	323.65	8.43	-44.5	-45.7	21.9	0.00e+00	0	37	0	1061158912	60	9347
2026-01-04 02:57:51.32	323.79	8.38	-44.7	-45.8	21.9	0.00e+00	92	37	0	1063256064	60	9529
2026-01-04 02:57:52.33	323.92	8.33	-43.8	-44.9	21.9	0.00e+00	0	37	0	1064304640	60	8599
2026-01-04 02:57:53.34	324.05	8.28	-43.8	-45.0	21.8	0.00e+00	0	37	0	1066401792	60	8623
2026-01-04 02:57:54.35	324.18	8.22	-45.6	-46.8	21.2	0.00e+00	0	37	0	1068498944	60	10701
2026-01-04 02:57:55.36	324.32	8.17	-44.6	-45.8	21.7	0.00e+00	0	37	0	1070596096	60	9492
2026-01-04 02:57:56.37	324.45	8.12	-44.2	-45.3	21.5	0.00e+00	8	37	0	1072693248	60	9018
2026-01-04 02:57:57.39	324.58	8.07	-44.1	-45.2	21.6	0.00e+00	0	37	0	1073741824	60	8915
2026-01-04 02:57:58.40	324.71	8.02	-44.0	-45.2	21.3	0.00e+00	71	37	0	1075838976	60	8871
2026-01-04 02:57:59.41	324.84	7.97	-44.4	-45.7	21.3	0.00e+00	0	37	0	1077936128	60	9349
2026-01-04 02:58:00.42	324.97	7.92	-44.2	-45.4	21.5	0.00e+00	0	37	0	1080033280	60	9102
2026-01-04 02:58:01.43	325.10	7.86	-44.0	-45.2	21.5	0.00e+00	0	37	0	1082130432	60	8884
2026-01-04 02:58:02.44	325.23	7.81	-44.1	-45.3	21.3	0.00e+00	0	37	0	1084227584	60	9021
2026-01-04 02:58:03.45	325.35	7.76	-44.1	-45.3	21.3	0.00e+00	91	37	0	1085276160	60	8976
2026-01-04 02:58:04.46	325.48	7.71	-44.6	-45.8	21.3	0.00e+00	0	37	0	1087373312	60	9541
2026-01-04 02:58:05.48	325.61	7.66	-44.8	-46.1	21.2	0.00e+00	87	37	0	1089470464	60	9799
2026-01-04 02:58:06.49	325.74	7.61	-45.1	-46.4	21.1	0.00e+00	0	37	0	1091567616	60	10138
2026-01-04 02:58:07.50	325.86	7.56	-45.1	-46.3	21.1	0.00e+00	0	37	0	1093664768	60	10096
2026-01-04 02:58:08.51	325.99	7.50	-45.1	-46.3	21.1	0.00e+00	0	37	0	1094713344	60	10079
2026-01-04 02:58:09.52	326.12	7.45	-44.8	-46.0	21.0	0.00e+00	0	37	0	1096810496	60	9755
2026-01-04 02:58:10.53	326.24	7.40	-45.0	-46.2	21.0	0.00e+00	2	37	0	1098907648	60	9979
2026-01-04 02:58:11.54	326.37	7.35	-44.6	-45.8	21.1	0.00e+00	0	37	0	1101004800	60	9554
2026-01-04 02:58:12.55	326.49	7.30	-44.8	-46.0	21.1	0.00e+00	91	37	0	1103101952	60	9780
2026-01-04 02:58:13.56	326.61	7.25	-44.9	-46.1	21.0	0.00e+00	0	37	0	1104150528	60	9858
2026-01-04 02:58:14.58	326.74	7.19	-44.9	-46.1	21.2	0.00e+00	0	37	0	1106247680	60	9793
2026-01-04 02:58:15.59	326.86	7.14	-44.7	-45.9	21.5	0.00e+00	0	37	0	1108344832	60	9582
2026-01-04 02:58:16.60	326.98	7.09	-44.5	-45.6	21.6	0.00e+00	0	37	0	1110441984	60	9250
2026-01-04 02:58:17.61	327.11	7.04	-44.5	-45.6	21.5	0.00e+00	86	37	0	1112539136	60	9316
2026-01-04 02:58:18.62	327.23	6.99	-45.5	-46.7	21.3	0.00e+00	0	37	0	1113587712	60	10550
2026-01-04 02:58:19.63	327.35	6.94	-44.9	-46.1	21.3	0.00e+00	92	37	0	1115684864	60	9870
2026-01-04 02:58:20.64	327.47	6.88	-44.8	-46.0	21.0	0.00e+00	0	37	0	1117782016	60	9709
2026-01-04 02:58:21.65	327.59	6.83	-45.1	-46.4	21.1	0.00e+00	44	37	0	1119879168	60	10148
2026-01-04 02:58:22.66	327.71	6.78	-44.6	-45.8	21.1	0.00e+00	0	37	0	1121976320	60	9528
2026-01-04 02:58:23.67	327.83	6.73	-44.9	-46.2	21.0	0.00e+00	0	37	0	1124073472	60	9996
2026-01-04 02:58:24.69	327.95	6.68	-45.4	-46.6	21.0	0.00e+00	18	37	0	1125122048	60	10398
2026-01-04 02:58:25.70	328.07	6.63	-45.2	-46.4	20.9	0.00e+00	0	37	0	1127219200	60	10188
2026-01-04 02:58:26.71	328.19	6.57	-45.3	-46.6	20.9	0.00e+00	73	37	0	1129316352	60	10397
2026-01-04 02:58:27.72	328.31	6.52	-45.4	-46.6	20.9	0.00e+00	0	37	0	1131413504	60	10473
2026-01-04 02:58:28.73	328.43	6.47	-44.8	-46.0	20.9	0.00e+00	0	37	0	1133510656	60	9763
2026-01-04 02:58:29.74	328.54	6.42	-44.7	-46.0	20.9	0.00e+00	0	37	0	1134559232	60	9680
2026-01-04 02:58:30.75	328.66	6.37	-44.5	-45.8	20.9	0.00e+00	0	37	0	1136656384	60	9456
2026-01-04 02:58:31.76	328.78	6.32	-44.8	-46.0	20.9	0.00e+00	2	37	0	1138753536	60	9781
2026-01-04 02:58:32.78	328.89	6.27	-44.6	-45.9	20.7	0.00e+00	0	37	0	1140850688	60	9650
2026-01-04 02:58:33.79	329.01	6.21	-44.6	-45.9	20.7	0.00e+00	73	37	0	1142947840	60	9592
2026-01-04 02:58:34.80	329.13	6.16	-44.6	-45.9	20.2	0.00e+00	0	37	0	1143996416	60	9600
2026-01-04 02:58:35.81	329.24	6.11	-45.8	-47.3	19.9	0.00e+00	92	37	0	1146093568	60	11244
2026-01-04 02:58:36.82	329.36	6.06	-45.3	-46.7	20.1	0.00e+00	0	37	0	1148190720	60	10576
2026-01-04 02:58:37.83	329.47	6.01	-45.3	-46.7	20.1	0.00e+00	0	37	0	1150287872	60	10515
2026-01-04 02:58:38.84	329.58	5.96	-45.1	-46.5	20.1	0.00e+00	0	37	0	1152385024	60	10329
2026-01-04 02:58:39.85	329.70	5.90	-45.6	-47.0	19.8	0.00e+00	0	37	0	1153433600	60	10979
2026-01-04 02:58:40.86	329.81	5.85	-45.1	-46.6	19.9	0.00e+00	92	37	0	1155530752	60	10382
2026-01-04 02:58:41.87	329.92	5.80	-45.4	-46.9	19.6	0.00e+00	0	37	0	1157627904	60	10821
2026-01-04 02:58:42.88	330.03	5.75	-45.7	-47.2	19.5	0.00e+00	92	37	0	1159725056	60	11187
2026-01-04 02:58:43.90	330.15	5.70	-45.5	-47.0	19.4	0.00e+00	0	37	0	1161822208	60	10913
2026-01-04 02:58:44.91	330.26	5.65	-45.8	-47.4	19.3	0.00e+00	0	37	0	1163919360	60	11391
2026-01-04 02:58:45.92	330.37	5.60	-45.7	-47.3	19.5	0.00e+00	0	37	0	1164967936	60	11277
2026-01-04 02:58:46.93	330.48	5.54	-45.9	-47.5	19.3	0.00e+00	0	37	0	1167065088	60	11506
2026-01-04 02:58:47.94	330.59	5.49	-46.5	-48.2	19.0	0.00e+00	6	37	0	1169162240	60	12563
2026-01-04 02:58:48.95	330.70	5.44	-46.2	-47.9	19.0	0.00e+00	0	37	0	1171259392	60	12078
2026-01-04 02:58:49.96	330.81	5.39	-46.3	-47.9	19.3	0.00e+00	86	37	0	1173356544	60	12137
2026-01-04 02:58:50.98	330.92	5.34	-46.4	-48.0	19.4	0.00e+00	0	37	0	1174405120	60	12228
2026-01-04 02:58:51.99	331.03	5.29	-46.4	-48.1	19.2	0.00e+00	0	37	0	1176502272	60	12367
2026-01-04 02:58:53.00	331.14	5.24	-46.0	-47.6	19.1	0.00e+00	0	37	0	1178599424	60	11720
2026-01-04 02:58:54.01	331.25	5.18	-45.9	-47.6	18.8	0.00e+00	0	37	0	1180696576	60	11630
2026-01-04 02:58:55.02	331.36	5.13	-46.0	-47.6	19.0	0.00e+00	63	37	0	1182793728	60	11703
2026-01-04 02:58:56.03	331.46	5.08	-46.7	-48.5	18.7	0.00e+00	0	37	0	1183842304	60	12919
2026-01-04 02:58:57.04	331.57	5.03	-47.0	-48.8	18.4	0.00e+00	56	37	0	1185939456	60	13412
2026-01-04 02:58:58.05	331.68	4.98	-46.9	-48.7	18.4	0.00e+00	0	37	0	1188036608	60	13319
2026-01-04 02:58:59.06	331.78	4.93	-47.0	-48.8	18.2	0.00e+00	0	37	0	1190133760	60	13459
2026-01-04 02:59:00.07	331.89	4.88	-46.8	-48.7	17.9	0.00e+00	0	37	0	1192230912	60	13247
2026-01-04 02:59:01.09	332.00	4.83	-47.1	-49.1	17.7	0.00e+00	0	37	0	1193279488	60	13855
