passes_logs/2026/01/04/R4.6S_Anadyr_2ch/R4.6S_Anadyr_2ch__20260104_045651_AQUA_rec.log

#Pass ID: 20260104_045651_AQUA
#Satellite: AQUA
#Configuration: AQUA
#almurnet v.1.7.20251203
#Start time: 2026-01-04 04:56:52

#Version: 2.2.20231116
#Station: R4.6S_Anadyr_2ch
#Location: 177.4865 lon 64.73178 lat
#TLE: 1 27424U 02022A   25351.00450321  .00000925  00000+0  19503-3 0  9992
#TLE: 2 27424  98.4041 311.9529 0001248 113.7180 322.1616 14.61819266256652

#Time	Az	El	Level	Level2	SNR	BER	BlckErr	Temp	State	Recorded	gain1	gain2
2026-01-04 04:56:52.44	242.67	0.04	-53.9	-65.0	3.5	8.45e-01	0	34	0	0	60	87533
2026-01-04 04:56:53.44	242.78	0.09	-55.0	-72.9	3.5	3.05e+01	0	35	104	0	60	228230
2026-01-04 04:56:54.45	242.89	0.13	-54.7	-72.6	3.5	3.05e+01	0	35	104	0	60	220471
2026-01-04 04:56:55.46	243.00	0.17	-54.8	-72.6	3.5	3.05e+01	0	35	104	0	60	220333
2026-01-04 04:56:56.47	243.11	0.21	-55.7	-73.5	3.5	3.05e+01	0	35	104	0	60	246032
2026-01-04 04:56:57.48	243.22	0.25	-55.5	-73.4	3.5	3.05e+01	0	36	104	0	60	242140
2026-01-04 04:56:58.49	243.33	0.29	-55.4	-73.3	3.5	3.05e+01	0	36	104	0	60	240558
2026-01-04 04:56:59.51	243.44	0.33	-55.3	-73.2	3.5	3.05e+01	0	36	104	0	60	236839
2026-01-04 04:57:00.52	243.55	0.37	-55.8	-73.7	3.5	3.05e+01	0	36	104	0	60	251153
2026-01-04 04:57:01.53	243.66	0.42	-54.8	-72.7	3.5	3.05e+01	0	36	104	0	60	225040
2026-01-04 04:57:02.54	243.77	0.46	-55.0	-72.9	3.5	3.05e+01	0	36	104	0	60	229539
2026-01-04 04:57:03.55	243.88	0.50	-55.4	-73.3	3.5	3.05e+01	0	36	104	0	60	238948
2026-01-04 04:57:04.56	243.99	0.54	-55.3	-73.2	3.5	3.05e+01	0	36	104	0	60	235941
2026-01-04 04:57:05.57	244.11	0.58	-55.9	-73.8	3.5	3.05e+01	0	36	104	0	60	253751
2026-01-04 04:57:06.58	244.22	0.62	-55.6	-73.5	3.5	3.05e+01	0	36	104	0	60	244351
2026-01-04 04:57:07.59	244.33	0.66	-54.9	-72.8	3.5	3.05e+01	0	36	104	0	60	225362
2026-01-04 04:57:08.61	244.45	0.70	-55.1	-73.1	3.5	3.05e+01	0	36	104	0	60	233543
2026-01-04 04:57:09.62	244.56	0.74	-55.3	-73.1	3.5	3.05e+01	0	36	104	0	60	234620
2026-01-04 04:57:10.63	244.67	0.79	-55.1	-72.9	3.5	3.05e+01	0	36	104	0	60	229189
2026-01-04 04:57:11.64	244.79	0.83	-55.3	-73.2	3.5	3.05e+01	0	36	104	0	60	236300
2026-01-04 04:57:12.65	244.90	0.87	-54.5	-72.4	3.5	3.05e+01	0	36	104	0	60	215808
2026-01-04 04:57:13.66	245.02	0.91	-55.1	-72.9	3.5	3.05e+01	0	36	104	0	60	230163
2026-01-04 04:57:14.67	245.13	0.95	-54.3	-72.2	3.5	3.05e+01	0	36	104	0	60	210970
2026-01-04 04:57:15.68	245.25	0.99	-54.7	-72.5	3.5	3.05e+01	0	36	104	0	60	219438
2026-01-04 04:57:16.69	245.36	1.03	-54.8	-72.7	3.5	3.05e+01	0	36	104	0	60	223408
2026-01-04 04:57:17.70	245.48	1.07	-55.0	-72.9	3.5	3.05e+01	0	36	104	0	60	229343
2026-01-04 04:57:18.71	245.60	1.11	-55.0	-72.9	3.5	3.05e+01	0	36	104	0	60	228373
2026-01-04 04:57:19.72	245.71	1.15	-55.3	-73.1	3.5	3.05e+01	0	36	104	0	60	234671
2026-01-04 04:57:20.74	245.83	1.19	-55.3	-73.1	3.5	3.05e+01	0	36	104	0	60	235737
2026-01-04 04:57:21.75	245.95	1.24	-55.1	-73.0	3.5	3.05e+01	0	36	104	0	60	233182
2026-01-04 04:57:22.76	246.07	1.28	-55.2	-73.0	3.5	3.05e+01	0	36	104	0	60	232785
2026-01-04 04:57:23.77	246.19	1.32	-55.5	-73.4	3.5	3.05e+01	0	36	104	0	60	242135
2026-01-04 04:57:24.78	246.30	1.36	-55.0	-72.9	3.5	3.05e+01	0	36	104	0	60	228643
2026-01-04 04:57:25.79	246.42	1.40	-55.2	-73.1	3.5	3.05e+01	0	36	104	0	60	233698
2026-01-04 04:57:26.80	246.54	1.44	-55.0	-72.9	3.5	3.05e+01	0	36	104	0	60	228663
2026-01-04 04:57:27.81	246.66	1.48	-55.2	-73.1	3.5	3.05e+01	0	36	104	0	60	235115
2026-01-04 04:57:28.82	246.78	1.52	-55.4	-73.3	3.5	3.05e+01	0	36	104	0	60	239115
2026-01-04 04:57:29.83	246.90	1.56	-54.6	-72.5	3.5	3.05e+01	0	36	104	0	60	219208
2026-01-04 04:57:30.84	247.02	1.60	-55.5	-73.4	3.5	3.05e+01	0	36	104	0	60	243616
2026-01-04 04:57:31.85	247.14	1.64	-55.1	-73.0	3.5	3.05e+01	0	36	104	0	60	230824
2026-01-04 04:57:32.86	247.27	1.68	-55.6	-73.4	3.5	3.05e+01	0	36	104	0	60	243659
2026-01-04 04:57:33.87	247.39	1.72	-55.7	-73.5	3.5	3.05e+01	0	36	104	0	60	245835
2026-01-04 04:57:34.89	247.51	1.76	-55.3	-73.2	3.5	3.05e+01	0	36	104	0	60	237064
2026-01-04 04:57:35.90	247.63	1.80	-55.7	-73.5	3.5	3.05e+01	0	36	104	0	60	245478
2026-01-04 04:57:36.91	247.76	1.84	-54.7	-72.6	3.5	3.05e+01	0	36	104	0	60	220501
2026-01-04 04:57:37.92	247.88	1.88	-54.6	-72.6	3.4	3.05e+01	0	36	104	0	60	220489
2026-01-04 04:57:38.93	248.00	1.92	-55.1	-72.9	3.5	3.05e+01	0	36	104	0	60	230344
2026-01-04 04:57:39.94	248.13	1.96	-54.7	-72.6	3.5	3.05e+01	0	36	104	0	60	221255
2026-01-04 04:57:40.95	248.25	2.00	-55.4	-73.3	3.5	3.05e+01	0	36	104	0	60	239366
2026-01-04 04:57:41.96	248.38	2.04	-54.2	-72.3	3.5	3.05e+01	0	36	104	0	60	212800
2026-01-04 04:57:42.97	248.50	2.08	-55.6	-73.8	3.5	3.05e+01	0	36	104	0	60	254050
2026-01-04 04:57:43.98	248.63	2.12	-55.1	-73.1	3.5	3.05e+01	0	36	104	0	60	233701
2026-01-04 04:57:44.99	248.75	2.16	-55.2	-73.1	3.5	3.05e+01	0	36	104	0	60	233697
2026-01-04 04:57:46.00	248.88	2.20	-55.8	-73.8	3.5	3.05e+01	0	36	104	0	60	253989
2026-01-04 04:57:47.01	249.00	2.24	-55.8	-73.8	3.5	3.05e+01	0	36	104	0	60	254221
2026-01-04 04:57:48.02	249.13	2.28	-55.4	-73.4	3.5	3.05e+01	0	36	104	0	60	243032
2026-01-04 04:57:49.03	249.26	2.32	-56.2	-74.1	3.5	3.05e+01	0	36	104	0	60	262075
2026-01-04 04:57:50.04	249.39	2.36	-55.6	-73.4	3.5	3.05e+01	0	36	104	0	60	243861
2026-01-04 04:57:51.05	249.51	2.40	-55.7	-73.6	3.5	3.05e+01	0	36	104	0	60	249232
2026-01-04 04:57:52.06	249.64	2.44	-55.6	-73.4	3.5	3.05e+01	0	36	104	0	60	244180
2026-01-04 04:57:53.08	249.77	2.48	-54.9	-72.8	3.5	3.05e+01	0	36	104	0	60	226042
2026-01-04 04:57:54.09	249.90	2.52	-54.1	-72.0	3.5	3.05e+01	0	36	104	0	60	206102
2026-01-04 04:57:55.10	250.03	2.56	-54.0	-71.9	3.5	3.05e+01	0	36	104	0	60	204217
2026-01-04 04:57:56.11	250.16	2.60	-53.7	-71.6	3.5	3.05e+01	0	36	104	0	60	198303
2026-01-04 04:57:57.12	250.29	2.64	-53.8	-71.7	3.5	3.05e+01	0	36	104	0	60	198668
2026-01-04 04:57:58.13	250.42	2.68	-52.9	-70.8	3.5	3.05e+01	0	36	104	0	60	180449
2026-01-04 04:57:59.14	250.55	2.72	-52.5	-70.5	3.5	3.05e+01	0	36	104	0	60	173469
2026-01-04 04:58:00.15	250.68	2.76	-52.4	-70.4	3.5	3.05e+01	0	36	104	0	60	171216
2026-01-04 04:58:01.17	250.81	2.80	-52.0	-69.9	3.5	3.05e+01	0	36	104	0	60	162023
2026-01-04 04:58:02.18	250.95	2.84	-51.7	-69.6	3.5	3.05e+01	0	36	104	0	60	157302
2026-01-04 04:58:03.19	251.08	2.88	-51.6	-69.5	3.5	3.05e+01	0	36	104	0	60	155019
2026-01-04 04:58:04.20	251.21	2.92	-51.6	-69.5	3.5	3.05e+01	0	36	104	0	60	154881
2026-01-04 04:58:05.21	251.34	2.95	-51.6	-69.5	3.5	3.05e+01	0	36	104	0	60	154876
2026-01-04 04:58:06.22	251.48	2.99	-51.6	-69.5	3.5	3.05e+01	0	36	104	0	60	154530
2026-01-04 04:58:07.23	251.61	3.03	-51.6	-69.5	3.5	3.05e+01	0	36	104	0	60	154423
2026-01-04 04:58:08.24	251.74	3.07	-51.6	-69.5	3.5	3.05e+01	0	36	104	0	60	154133
2026-01-04 04:58:09.25	251.88	3.11	-51.6	-69.5	3.5	3.05e+01	0	36	104	0	60	154739
2026-01-04 04:58:10.26	252.01	3.15	-51.7	-69.6	3.5	3.05e+01	0	36	104	0	60	156607
2026-01-04 04:58:11.28	252.15	3.19	-52.1	-70.0	3.5	3.05e+01	0	36	104	0	60	163338
2026-01-04 04:58:12.29	252.29	3.23	-52.0	-69.9	3.5	3.05e+01	0	36	104	0	60	161945
2026-01-04 04:58:13.30	252.42	3.26	-51.9	-69.8	3.5	3.05e+01	0	36	104	0	60	160558
2026-01-04 04:58:14.31	252.56	3.30	-51.8	-69.7	3.5	3.05e+01	0	36	104	0	60	158908
2026-01-04 04:58:15.32	252.69	3.34	-51.7	-69.5	3.5	3.05e+01	0	36	104	0	60	155215
2026-01-04 04:58:16.33	252.83	3.38	-51.6	-69.5	3.5	3.05e+01	0	36	104	0	60	154841
2026-01-04 04:58:17.34	252.97	3.42	-51.7	-69.5	3.5	3.05e+01	0	36	104	0	60	155804
2026-01-04 04:58:18.35	253.11	3.46	-51.6	-69.4	3.5	3.05e+01	0	36	104	0	60	153191
2026-01-04 04:58:19.36	253.24	3.49	-51.6	-69.3	3.5	3.05e+01	0	36	104	0	60	151870
2026-01-04 04:58:20.37	253.38	3.53	-51.5	-69.4	3.5	3.05e+01	0	36	104	0	60	153701
2026-01-04 04:58:21.38	253.52	3.57	-51.5	-69.4	3.5	3.05e+01	0	36	104	0	60	153985
2026-01-04 04:58:22.39	253.66	3.61	-51.6	-69.5	3.5	3.05e+01	0	36	104	0	60	154292
2026-01-04 04:58:23.40	253.80	3.65	-51.7	-69.5	3.5	3.05e+01	0	36	104	0	60	155020
2026-01-04 04:58:24.41	253.94	3.68	-51.6	-69.5	3.5	3.05e+01	0	36	104	0	60	155385
2026-01-04 04:58:25.43	254.08	3.72	-51.6	-69.5	3.5	3.05e+01	0	37	104	0	60	154319
2026-01-04 04:58:26.44	254.22	3.76	-51.5	-69.4	3.5	3.05e+01	0	36	104	0	60	153693
2026-01-04 04:58:27.45	254.36	3.80	-51.6	-69.5	3.5	3.05e+01	0	36	104	0	60	154272
2026-01-04 04:58:28.46	254.51	3.83	-51.7	-69.5	3.5	3.05e+01	0	36	104	0	60	155719
2026-01-04 04:58:29.47	254.65	3.87	-51.7	-69.5	3.5	3.05e+01	0	37	104	0	60	155707
2026-01-04 04:58:30.48	254.79	3.91	-51.7	-69.6	3.5	3.05e+01	0	36	104	0	60	156217
2026-01-04 04:58:31.49	254.93	3.95	-51.6	-69.4	3.5	3.05e+01	0	37	104	0	60	153076
2026-01-04 04:58:32.50	255.08	3.98	-51.6	-69.2	3.5	3.05e+01	0	37	104	0	60	150161
2026-01-04 04:58:33.51	255.22	4.02	-51.6	-69.2	3.5	3.05e+01	0	36	104	0	60	149636
2026-01-04 04:58:34.53	255.37	4.06	-51.6	-69.1	3.5	3.05e+01	0	37	104	0	60	148238
2026-01-04 04:58:35.54	255.51	4.09	-51.6	-69.3	3.5	3.05e+01	0	37	104	0	60	151074
2026-01-04 04:58:36.55	255.65	4.13	-51.5	-69.3	3.5	3.05e+01	0	37	104	0	60	152327
2026-01-04 04:58:37.56	255.80	4.17	-51.6	-69.5	3.5	3.05e+01	0	37	104	0	60	154680
2026-01-04 04:58:38.57	255.94	4.20	-51.6	-69.4	3.5	3.05e+01	0	37	104	0	60	154069
2026-01-04 04:58:39.58	256.09	4.24	-51.6	-69.5	3.5	3.05e+01	0	37	104	0	60	154611
2026-01-04 04:58:40.59	256.24	4.28	-51.6	-69.3	3.5	3.05e+01	0	37	104	0	60	150734
2026-01-04 04:58:41.60	256.38	4.31	-51.5	-69.4	3.5	3.05e+01	0	37	104	0	60	152672
2026-01-04 04:58:42.61	256.53	4.35	-51.5	-69.3	3.5	3.05e+01	0	37	104	0	60	151378
2026-01-04 04:58:43.62	256.68	4.39	-51.5	-69.4	3.5	3.05e+01	0	37	104	0	60	153830
2026-01-04 04:58:44.63	256.83	4.42	-51.5	-69.3	3.5	3.05e+01	0	37	104	0	60	151418
2026-01-04 04:58:45.64	256.97	4.46	-51.6	-69.0	3.5	3.05e+01	0	37	104	0	60	146809
2026-01-04 04:58:46.65	257.12	4.49	-51.6	-69.2	3.5	3.05e+01	0	37	104	0	60	149394
2026-01-04 04:58:47.67	257.27	4.53	-51.5	-68.8	3.5	3.05e+01	0	37	104	0	60	143534
2026-01-04 04:58:48.68	257.42	4.57	-51.5	-67.9	3.5	3.05e+01	0	37	104	0	60	128959
2026-01-04 04:58:49.69	257.57	4.60	-51.4	-66.6	3.9	3.05e+01	0	37	104	0	60	111160
2026-01-04 04:58:50.70	257.72	4.64	-51.4	-67.1	3.7	3.05e+01	0	37	104	0	60	117034
2026-01-04 04:58:51.71	257.87	4.67	-51.5	-67.0	3.6	3.05e+01	0	37	104	0	60	115812
2026-01-04 04:58:52.72	258.02	4.71	-50.7	-58.9	9.6	3.05e+01	0	37	0	0	60	45645
2026-01-04 04:58:53.73	258.17	4.74	-49.2	-53.8	14.9	3.05e+01	0	37	0	2097152	60	25362
2026-01-04 04:58:54.74	258.32	4.78	-48.6	-52.5	16.6	3.05e+01	0	37	0	3670016	60	21921
2026-01-04 04:58:55.75	258.48	4.81	-47.7	-51.0	18.3	3.05e+01	0	37	0	5767168	60	18332
2026-01-04 04:58:56.77	258.63	4.85	-48.1	-51.5	14.8	3.05e+01	0	37	0	7340032	60	19545
2026-01-04 04:58:57.78	258.78	4.88	-51.4	-65.7	3.7	3.05e+01	0	37	104	8912896	60	99508
2026-01-04 04:58:58.79	258.94	4.92	-43.3	-45.0	24.4	3.05e+01	0	37	0	8912896	60	9281
2026-01-04 04:58:59.80	259.09	4.95	-48.2	-51.6	17.3	3.05e+01	0	37	0	11010048	60	19829
2026-01-04 04:59:00.81	259.24	4.99	-45.5	-47.7	21.2	3.05e+01	0	37	0	12582912	60	12637
2026-01-04 04:59:01.82	259.40	5.02	-43.7	-45.5	23.6	3.05e+01	0	37	0	14680064	60	9758
2026-01-04 04:59:02.83	259.55	5.05	-43.6	-45.2	23.7	3.05e+01	0	37	0	16252928	60	9500
2026-01-04 04:59:03.84	259.71	5.09	-44.0	-45.7	23.6	3.05e+01	0	36	0	18350080	60	10062
2026-01-04 04:59:04.85	259.86	5.12	-43.6	-45.3	23.9	3.05e+01	0	37	0	20447232	60	9593
2026-01-04 04:59:05.86	260.02	5.16	-43.2	-44.8	24.2	3.05e+01	0	37	0	22020096	60	9039
2026-01-04 04:59:06.88	260.18	5.19	-43.1	-44.7	24.3	3.05e+01	0	37	0	24117248	60	8916
2026-01-04 04:59:07.89	260.33	5.22	-43.0	-44.6	24.5	3.05e+01	0	37	0	25690112	60	8825
2026-01-04 04:59:08.90	260.49	5.26	-43.1	-44.8	24.2	3.05e+01	0	37	0	27787264	60	8974
2026-01-04 04:59:09.91	260.65	5.29	-42.9	-44.5	24.7	3.05e+01	0	36	0	29884416	60	8698
2026-01-04 04:59:10.92	260.80	5.32	-43.0	-44.5	24.6	3.05e+01	0	37	0	31457280	60	8748
2026-01-04 04:59:11.93	260.96	5.36	-42.9	-44.4	24.6	3.05e+01	0	37	0	33554432	60	8610
2026-01-04 04:59:12.94	261.12	5.39	-43.1	-44.7	24.6	3.05e+01	0	37	0	35127296	60	8872
2026-01-04 04:59:13.95	261.28	5.42	-43.1	-44.7	24.5	3.05e+01	0	37	0	37224448	60	8881
2026-01-04 04:59:14.96	261.44	5.46	-42.9	-44.5	24.8	3.05e+01	0	37	0	39321600	60	8690
2026-01-04 04:59:15.98	261.60	5.49	-42.7	-44.3	24.9	3.05e+01	0	37	0	40894464	60	8485
2026-01-04 04:59:16.99	261.76	5.52	-43.0	-44.6	24.7	3.05e+01	0	36	0	42991616	60	8777
2026-01-04 04:59:18.00	261.92	5.55	-42.9	-44.5	24.8	3.05e+01	0	37	0	45088768	60	8684
2026-01-04 04:59:19.01	262.08	5.59	-43.0	-44.7	24.7	3.05e+01	0	37	0	46661632	60	8877
2026-01-04 04:59:20.02	262.24	5.62	-43.1	-44.7	24.6	3.05e+01	0	37	0	48758784	60	8910
2026-01-04 04:59:21.03	262.40	5.65	-42.9	-44.4	24.7	3.05e+01	0	37	0	50331648	60	8665
2026-01-04 04:59:22.04	262.56	5.68	-42.6	-44.1	25.0	3.05e+01	0	37	0	52428800	60	8354
2026-01-04 04:59:23.05	262.73	5.71	-42.5	-44.0	25.0	3.05e+01	0	37	0	54525952	60	8268
2026-01-04 04:59:24.06	262.89	5.75	-42.4	-43.9	25.1	3.05e+01	0	37	0	56098816	60	8133
2026-01-04 04:59:25.08	263.05	5.78	-42.4	-43.9	25.2	3.05e+01	0	37	0	58195968	60	8097
2026-01-04 04:59:26.08	263.22	5.81	-42.5	-44.1	25.1	3.05e+01	0	37	0	59768832	60	8286
2026-01-04 04:59:27.10	263.38	5.84	-42.5	-44.0	25.2	3.05e+01	0	37	0	61865984	60	8214
2026-01-04 04:59:28.11	263.54	5.87	-42.5	-44.1	25.0	3.05e+01	0	37	0	63963136	60	8298
2026-01-04 04:59:29.12	263.71	5.90	-42.6	-44.1	25.0	3.05e+01	0	37	0	65536000	60	8316
2026-01-04 04:59:30.13	263.87	5.93	-42.6	-44.2	25.0	3.05e+01	0	37	0	67633152	60	8410
2026-01-04 04:59:31.14	264.04	5.96	-42.7	-44.2	25.0	3.05e+01	0	37	0	69206016	60	8410
2026-01-04 04:59:32.15	264.20	5.99	-42.6	-44.1	25.0	3.05e+01	0	37	0	71303168	60	8304
2026-01-04 04:59:33.16	264.37	6.02	-42.2	-43.7	25.4	3.05e+01	0	37	0	73400320	60	7978
2026-01-04 04:59:34.17	264.54	6.05	-42.4	-43.9	25.3	3.05e+01	0	37	0	74973184	60	8100
2026-01-04 04:59:35.19	264.70	6.08	-42.4	-43.9	25.3	3.05e+01	0	37	0	77070336	60	8124
2026-01-04 04:59:36.20	264.87	6.11	-42.4	-43.9	25.3	3.05e+01	0	37	0	79167488	60	8109
2026-01-04 04:59:37.21	265.04	6.14	-42.4	-44.0	25.3	3.05e+01	0	37	0	80740352	60	8196
2026-01-04 04:59:38.22	265.21	6.17	-42.1	-43.6	25.6	3.05e+01	0	37	0	82837504	60	7847
2026-01-04 04:59:39.23	265.37	6.20	-42.2	-43.7	25.4	3.05e+01	0	37	0	84410368	60	7941
2026-01-04 04:59:40.24	265.54	6.23	-42.3	-43.8	25.4	3.05e+01	0	37	0	86507520	60	8066
2026-01-04 04:59:41.25	265.71	6.26	-42.7	-44.3	24.9	3.05e+01	0	37	0	88604672	60	8477
2026-01-04 04:59:42.26	265.88	6.29	-42.6	-44.1	25.0	3.05e+01	0	37	0	90177536	60	8355
2026-01-04 04:59:43.28	266.05	6.32	-42.3	-43.7	25.4	3.05e+01	0	37	0	92274688	60	7991
2026-01-04 04:59:44.29	266.22	6.35	-42.2	-43.6	25.5	3.05e+01	0	37	0	94371840	60	7895
2026-01-04 04:59:45.30	266.39	6.38	-42.0	-43.5	25.6	3.05e+01	0	37	0	95944704	60	7731
2026-01-04 04:59:46.31	266.56	6.40	-42.1	-43.6	25.7	3.05e+01	0	37	0	98041856	60	7854
2026-01-04 04:59:47.32	266.73	6.43	-42.3	-43.7	25.5	3.05e+01	0	37	0	99614720	60	7957
2026-01-04 04:59:48.33	266.90	6.46	-42.3	-43.7	25.5	3.05e+01	0	37	0	101711872	60	7984
2026-01-04 04:59:49.34	267.07	6.49	-42.0	-43.5	25.7	3.05e+01	0	37	0	103809024	60	7741
2026-01-04 04:59:50.35	267.25	6.51	-42.0	-43.5	25.7	3.05e+01	0	37	0	105381888	60	7785
2026-01-04 04:59:51.36	267.42	6.54	-42.2	-43.7	25.4	3.05e+01	0	37	0	107479040	60	7941
2026-01-04 04:59:52.38	267.59	6.57	-41.9	-43.4	25.7	3.05e+01	0	37	0	109051904	60	7670
2026-01-04 04:59:53.39	267.76	6.60	-42.0	-43.5	25.7	3.05e+01	0	37	0	111149056	60	7727
2026-01-04 04:59:54.40	267.94	6.62	-41.9	-43.4	25.8	3.05e+01	0	37	0	113246208	60	7674
2026-01-04 04:59:55.41	268.11	6.65	-42.0	-43.5	25.7	3.05e+01	0	37	0	114819072	60	7726
2026-01-04 04:59:56.42	268.28	6.68	-41.8	-43.3	25.9	3.05e+01	0	37	0	116916224	60	7566
2026-01-04 04:59:57.43	268.46	6.70	-41.8	-43.3	25.9	3.05e+01	0	37	0	119013376	60	7591
2026-01-04 04:59:58.44	268.63	6.73	-41.9	-43.4	25.7	3.05e+01	0	37	0	120586240	60	7661
2026-01-04 04:59:59.45	268.81	6.75	-41.7	-43.1	26.0	3.05e+01	0	36	0	122683392	60	7435
2026-01-04 05:00:00.47	268.98	6.78	-41.7	-43.1	26.0	3.05e+01	0	37	0	124256256	60	7454
2026-01-04 05:00:01.48	269.16	6.81	-41.8	-43.3	25.9	3.05e+01	0	37	0	126353408	60	7551
2026-01-04 05:00:02.49	269.34	6.83	-41.8	-43.3	25.9	3.05e+01	0	37	0	128450560	60	7567
2026-01-04 05:00:03.50	269.51	6.86	-41.9	-43.4	25.8	3.05e+01	0	37	0	130023424	60	7640
2026-01-04 05:00:04.51	269.69	6.88	-41.8	-43.2	25.9	3.05e+01	0	37	0	132120576	60	7513
2026-01-04 05:00:05.52	269.86	6.91	-42.1	-43.6	25.7	3.05e+01	0	37	0	134217728	60	7872
2026-01-04 05:00:06.53	270.04	6.93	-41.8	-43.2	25.9	3.05e+01	0	37	0	135790592	60	7527
2026-01-04 05:00:07.54	270.22	6.96	-41.7	-43.2	26.0	3.05e+01	0	37	0	137887744	60	7472
2026-01-04 05:00:08.55	270.40	6.98	-41.7	-43.1	26.0	3.05e+01	0	37	0	139460608	60	7453
2026-01-04 05:00:09.57	270.58	7.00	-41.8	-43.3	25.9	3.05e+01	0	37	0	141557760	60	7557
2026-01-04 05:00:10.58	270.75	7.03	-41.9	-43.4	25.9	3.05e+01	0	37	0	143654912	60	7635
2026-01-04 05:00:11.59	270.93	7.05	-41.8	-43.2	26.0	3.05e+01	0	37	0	145227776	60	7546
2026-01-04 05:00:12.60	271.11	7.07	-41.9	-43.3	25.8	3.05e+01	0	37	0	147324928	60	7605
2026-01-04 05:00:13.61	271.29	7.10	-41.9	-43.3	25.9	3.05e+01	0	37	0	148897792	60	7593
2026-01-04 05:00:14.62	271.47	7.12	-41.9	-43.4	25.9	3.05e+01	0	37	0	150994944	60	7654
2026-01-04 05:00:15.63	271.65	7.14	-41.9	-43.4	25.9	3.05e+01	0	37	0	153092096	60	7635
2026-01-04 05:00:16.64	271.83	7.17	-41.7	-43.1	26.1	3.05e+01	0	37	0	154664960	60	7414
2026-01-04 05:00:17.65	272.01	7.19	-41.8	-43.3	25.9	3.05e+01	0	37	0	156762112	60	7558
2026-01-04 05:00:18.67	272.19	7.21	-41.6	-43.0	26.2	3.05e+01	0	37	0	158859264	60	7334
2026-01-04 05:00:19.68	272.37	7.23	-41.7	-43.1	26.2	3.05e+01	0	37	0	160432128	60	7409
2026-01-04 05:00:20.69	272.55	7.25	-44.7	-46.3	25.8	3.05e+01	0	37	0	162529280	60	10782
2026-01-04 05:00:21.70	272.74	7.28	-43.3	-44.7	25.5	3.05e+01	0	37	0	164102144	60	8893
2026-01-04 05:00:22.71	272.92	7.30	-42.4	-43.8	26.0	3.05e+01	0	37	0	166199296	60	8058
2026-01-04 05:00:23.72	273.10	7.32	-42.1	-43.5	26.1	3.05e+01	0	37	0	167772160	60	7781
2026-01-04 05:00:24.73	273.28	7.34	-41.8	-43.2	26.2	3.05e+01	0	37	0	169869312	60	7507
2026-01-04 05:00:25.74	273.46	7.36	-41.7	-43.1	26.3	3.05e+01	0	37	0	171966464	60	7431
2026-01-04 05:00:26.75	273.65	7.38	-41.9	-43.4	26.1	3.05e+01	0	37	0	173539328	60	7651
2026-01-04 05:00:27.77	273.83	7.40	-41.6	-43.1	26.3	3.05e+01	0	37	0	175636480	60	7377
2026-01-04 05:00:28.78	274.02	7.42	-41.6	-43.0	26.4	3.05e+01	0	37	0	177209344	60	7334
2026-01-04 05:00:29.79	274.20	7.44	-41.6	-43.0	26.2	3.05e+01	0	37	0	179306496	60	7372
2026-01-04 05:00:30.80	274.38	7.46	-41.8	-43.2	26.2	3.05e+01	0	37	0	181403648	60	7511
2026-01-04 05:00:31.81	274.57	7.48	-42.0	-43.3	26.3	3.05e+01	0	37	0	182976512	60	7619
2026-01-04 05:00:32.82	274.75	7.50	-41.8	-43.2	26.4	3.05e+01	0	37	0	185073664	60	7520
2026-01-04 05:00:33.83	274.94	7.52	-41.7	-43.1	26.5	3.05e+01	0	37	0	187170816	60	7423
2026-01-04 05:00:34.84	275.12	7.54	-41.7	-43.1	26.5	3.05e+01	0	37	0	188743680	60	7418
2026-01-04 05:00:35.85	275.31	7.56	-41.7	-43.1	26.4	3.05e+01	0	37	0	190840832	60	7381
2026-01-04 05:00:36.86	275.49	7.57	-41.8	-43.2	26.3	3.05e+01	0	37	0	192413696	60	7481
2026-01-04 05:00:37.88	275.68	7.59	-41.5	-42.9	26.5	3.05e+01	0	37	0	194510848	60	7264
2026-01-04 05:00:38.89	275.86	7.61	-41.7	-43.1	26.3	3.05e+01	0	37	0	196608000	60	7408
2026-01-04 05:00:39.90	276.05	7.63	-41.9	-43.3	26.2	3.05e+01	0	37	0	198180864	60	7613
2026-01-04 05:00:40.91	276.24	7.64	-42.1	-43.5	25.9	3.05e+01	0	37	0	200278016	60	7775
2026-01-04 05:00:41.92	276.42	7.66	-42.0	-43.5	26.1	3.05e+01	0	37	0	202375168	60	7731
2026-01-04 05:00:42.93	276.61	7.68	-42.2	-43.6	26.0	3.05e+01	0	37	0	203948032	60	7830
2026-01-04 05:00:43.94	276.80	7.70	-42.0	-43.4	26.0	3.05e+01	0	37	0	206045184	60	7670
2026-01-04 05:00:44.95	276.98	7.71	-42.1	-43.5	26.3	3.05e+01	0	37	0	207618048	60	7752
2026-01-04 05:00:45.96	277.17	7.73	-41.9	-43.3	26.1	3.05e+01	0	37	0	209715200	60	7591
2026-01-04 05:00:46.98	277.36	7.74	-41.6	-43.0	26.5	3.05e+01	0	37	0	211812352	60	7299
2026-01-04 05:00:47.99	277.55	7.76	-41.6	-43.0	26.5	3.05e+01	0	37	0	213385216	60	7348
2026-01-04 05:00:49.00	277.74	7.78	-42.0	-43.4	26.2	3.05e+01	0	37	0	215482368	60	7666
2026-01-04 05:00:50.01	277.92	7.79	-41.7	-43.1	26.5	3.05e+01	0	37	0	217055232	60	7411
2026-01-04 05:00:51.02	278.11	7.81	-41.7	-43.1	26.4	3.05e+01	0	37	0	219152384	60	7438
2026-01-04 05:00:52.03	278.30	7.82	-41.5	-42.8	26.7	3.05e+01	0	37	0	221249536	60	7206
2026-01-04 05:00:53.04	278.49	7.83	-41.7	-43.1	26.4	3.05e+01	0	37	0	222822400	60	7388
2026-01-04 05:00:54.05	278.68	7.85	-41.6	-43.0	26.6	3.05e+01	0	37	0	224919552	60	7323
2026-01-04 05:00:55.06	278.87	7.86	-41.6	-42.9	26.7	3.05e+01	0	37	0	227016704	60	7289
2026-01-04 05:00:56.07	279.06	7.88	-41.5	-42.9	26.7	3.05e+01	0	37	0	228589568	60	7223
2026-01-04 05:00:57.08	279.25	7.89	-41.4	-42.8	26.8	3.05e+01	0	37	0	230686720	60	7146
2026-01-04 05:00:58.10	279.44	7.90	-41.4	-42.7	26.8	3.05e+01	0	37	0	232259584	60	7115
2026-01-04 05:00:59.11	279.63	7.92	-41.6	-43.0	26.7	3.05e+01	0	37	0	234356736	60	7330
2026-01-04 05:01:00.12	279.82	7.93	-41.4	-42.8	26.7	3.05e+01	0	37	0	236453888	60	7187
2026-01-04 05:01:01.13	280.01	7.94	-41.6	-43.0	26.7	3.05e+01	0	37	0	238026752	60	7302
2026-01-04 05:01:02.14	280.20	7.95	-41.6	-43.0	26.6	3.05e+01	0	37	0	240123904	60	7297
2026-01-04 05:01:03.15	280.39	7.97	-41.8	-43.2	26.5	3.05e+01	0	37	0	242221056	60	7465
2026-01-04 05:01:04.16	280.58	7.98	-41.8	-43.2	26.3	3.05e+01	0	37	0	243793920	60	7521
2026-01-04 05:01:05.17	280.77	7.99	-41.4	-42.8	26.8	3.05e+01	0	37	0	245891072	60	7147
2026-01-04 05:01:06.19	280.97	8.00	-41.6	-43.0	26.5	3.05e+01	0	37	0	247463936	60	7300
2026-01-04 05:01:07.20	281.16	8.01	-41.4	-42.7	26.8	3.05e+01	0	37	0	249561088	60	7111
2026-01-04 05:01:08.21	281.35	8.02	-41.6	-43.0	26.6	3.05e+01	0	37	0	251658240	60	7315
2026-01-04 05:01:09.22	281.54	8.03	-41.3	-42.7	26.9	3.05e+01	0	37	0	253231104	60	7065
2026-01-04 05:01:10.23	281.73	8.04	-41.3	-42.7	26.7	3.05e+01	0	37	0	255328256	60	7062
2026-01-04 05:01:11.24	281.92	8.05	-41.2	-42.6	26.8	3.05e+01	0	37	0	256901120	60	6999
2026-01-04 05:01:12.25	282.12	8.06	-41.1	-42.5	27.0	3.05e+01	0	37	0	258998272	60	6896
2026-01-04 05:01:13.26	282.31	8.07	-41.1	-42.4	27.0	3.05e+01	0	37	0	261095424	60	6868
2026-01-04 05:01:14.27	282.50	8.08	-41.1	-42.4	26.9	3.05e+01	0	37	0	262668288	60	6872
2026-01-04 05:01:15.28	282.69	8.09	-41.1	-42.5	27.0	3.05e+01	0	37	0	264765440	60	6896
2026-01-04 05:01:16.30	282.89	8.10	-41.2	-42.6	26.8	3.05e+01	0	37	0	266338304	60	7020
2026-01-04 05:01:17.31	283.08	8.11	-41.4	-42.7	26.9	3.05e+01	0	37	0	268435456	60	7119
2026-01-04 05:01:18.32	283.27	8.12	-41.1	-42.4	27.1	3.05e+01	0	37	0	270532608	60	6855
2026-01-04 05:01:19.33	283.46	8.12	-41.2	-42.5	27.0	3.05e+01	0	37	0	272105472	60	6931
2026-01-04 05:01:20.34	283.66	8.13	-41.3	-42.6	26.9	3.05e+01	0	37	0	274202624	60	7010
2026-01-04 05:01:21.35	283.85	8.14	-41.3	-42.7	26.9	3.05e+01	0	37	0	276299776	60	7077
2026-01-04 05:01:22.36	284.04	8.15	-41.1	-42.5	27.1	3.05e+01	0	37	0	277872640	60	6900
2026-01-04 05:01:23.37	284.24	8.15	-41.2	-42.5	27.0	3.05e+01	0	37	0	279969792	60	6931
2026-01-04 05:01:24.38	284.43	8.16	-41.2	-42.6	27.0	3.05e+01	0	37	0	281542656	60	6987
2026-01-04 05:01:25.40	284.62	8.17	-41.3	-42.7	26.9	3.05e+01	0	37	0	283639808	60	7055
2026-01-04 05:01:26.41	284.82	8.17	-41.2	-42.6	27.0	3.05e+01	0	37	0	285736960	60	6989
2026-01-04 05:01:27.42	285.01	8.18	-41.1	-42.5	27.0	3.05e+01	0	37	0	287309824	60	6895
2026-01-04 05:01:28.43	285.21	8.18	-41.1	-42.4	27.1	3.05e+01	0	37	0	289406976	60	6873
2026-01-04 05:01:29.44	285.40	8.19	-41.3	-42.6	27.0	3.05e+01	0	37	0	290979840	60	7000
2026-01-04 05:01:30.45	285.59	8.19	-41.3	-42.7	26.9	3.05e+01	0	37	0	293076992	60	7065
2026-01-04 05:01:31.46	285.79	8.20	-41.1	-42.5	27.0	3.05e+01	0	37	0	295174144	60	6913
2026-01-04 05:01:32.47	285.98	8.20	-41.1	-42.5	26.9	3.05e+01	0	37	0	296747008	60	6904
2026-01-04 05:01:33.48	286.17	8.21	-41.7	-43.1	26.7	3.05e+01	0	37	0	298844160	60	7439
2026-01-04 05:01:34.49	286.37	8.21	-41.4	-42.7	27.0	3.05e+01	0	37	0	300417024	60	7092
2026-01-04 05:01:35.50	286.56	8.22	-41.5	-42.8	27.2	3.05e+01	0	37	0	302514176	60	7189
2026-01-04 05:01:36.51	286.76	8.22	-41.5	-42.9	27.2	3.05e+01	0	37	0	304611328	60	7232
2026-01-04 05:01:37.53	286.95	8.22	-41.2	-42.5	27.2	3.05e+01	0	37	0	306184192	60	6921
2026-01-04 05:01:38.54	287.15	8.22	-41.3	-42.6	27.1	3.05e+01	0	37	0	308281344	60	7009
2026-01-04 05:01:39.55	287.34	8.23	-41.2	-42.6	27.1	3.05e+01	0	37	0	310378496	60	6966
2026-01-04 05:01:40.56	287.54	8.23	-41.1	-42.4	27.4	3.05e+01	0	37	0	311951360	60	6840
2026-01-04 05:01:41.57	287.73	8.23	-41.4	-42.8	27.1	3.05e+01	0	37	0	314048512	60	7151
2026-01-04 05:01:42.58	287.92	8.23	-41.3	-42.6	27.1	3.05e+01	0	37	0	315621376	60	7031
2026-01-04 05:01:43.59	288.12	8.24	-41.1	-42.4	27.3	3.05e+01	0	37	0	317718528	60	6861
2026-01-04 05:01:44.60	288.31	8.24	-41.2	-42.5	27.1	3.05e+01	0	37	0	319815680	60	6962
2026-01-04 05:01:45.62	288.51	8.24	-41.5	-42.8	27.0	3.05e+01	0	37	0	321388544	60	7176
2026-01-04 05:01:46.63	288.70	8.24	-41.3	-42.7	27.1	3.05e+01	0	37	0	323485696	60	7044
2026-01-04 05:01:47.64	288.90	8.24	-41.2	-42.5	27.3	3.05e+01	0	37	0	325058560	60	6932
2026-01-04 05:01:48.65	289.09	8.24	-41.1	-42.5	27.3	3.05e+01	0	37	0	327155712	60	6890
2026-01-04 05:01:49.66	289.29	8.24	-41.2	-42.5	27.2	3.05e+01	0	37	0	329252864	60	6918
2026-01-04 05:01:50.67	289.48	8.24	-40.9	-42.3	27.2	3.05e+01	0	37	0	330825728	60	6733
2026-01-04 05:01:51.68	289.67	8.24	-41.3	-42.6	27.1	3.05e+01	0	37	0	332922880	60	7041
2026-01-04 05:01:52.69	289.87	8.24	-41.2	-42.5	27.1	3.05e+01	0	37	0	335020032	60	6931
2026-01-04 05:01:53.71	290.06	8.24	-41.3	-42.6	27.4	3.05e+01	0	37	0	336592896	60	6992
2026-01-04 05:01:54.72	290.26	8.23	-41.1	-42.4	27.2	3.05e+01	0	37	0	338690048	60	6862
2026-01-04 05:01:55.73	290.45	8.23	-41.1	-42.4	27.4	3.05e+01	0	37	0	340262912	60	6846
2026-01-04 05:01:56.74	290.65	8.23	-41.0	-42.3	27.3	3.05e+01	0	37	0	342360064	60	6785
2026-01-04 05:01:57.75	290.84	8.23	-41.1	-42.4	27.1	3.05e+01	0	37	0	344457216	60	6839
2026-01-04 05:01:58.76	291.04	8.23	-41.1	-42.5	27.1	3.05e+01	0	37	0	346030080	60	6887
2026-01-04 05:01:59.77	291.23	8.22	-40.9	-42.2	27.3	3.05e+01	0	37	0	348127232	60	6697
2026-01-04 05:02:00.78	291.42	8.22	-40.9	-42.2	27.3	3.05e+01	0	37	0	350224384	60	6690
2026-01-04 05:02:01.79	291.62	8.22	-40.8	-42.1	27.5	3.05e+01	0	37	0	351797248	60	6609
2026-01-04 05:02:02.80	291.81	8.21	-40.8	-42.1	27.4	3.05e+01	0	37	0	353894400	60	6629
2026-01-04 05:02:03.81	292.01	8.21	-40.9	-42.3	27.3	3.05e+01	0	37	0	355467264	60	6732
2026-01-04 05:02:04.82	292.20	8.21	-40.9	-42.3	27.2	3.05e+01	0	37	0	357564416	60	6736
2026-01-04 05:02:05.84	292.39	8.20	-40.8	-42.2	27.3	3.05e+01	0	37	0	359661568	60	6668
2026-01-04 05:02:06.85	292.59	8.20	-40.9	-42.2	27.2	3.05e+01	0	37	0	361234432	60	6709
2026-01-04 05:02:07.86	292.78	8.19	-40.9	-42.2	27.2	3.05e+01	0	37	0	363331584	60	6688
2026-01-04 05:02:08.87	292.98	8.19	-40.7	-42.0	27.3	3.05e+01	0	37	0	364904448	60	6570
2026-01-04 05:02:09.88	293.17	8.18	-40.8	-42.1	27.3	3.05e+01	0	37	0	367001600	60	6643
2026-01-04 05:02:10.89	293.36	8.18	-41.1	-42.4	27.2	3.05e+01	0	37	0	369098752	60	6860
2026-01-04 05:02:11.90	293.56	8.17	-41.1	-42.4	27.0	3.05e+01	0	37	0	370671616	60	6856
2026-01-04 05:02:12.91	293.75	8.16	-40.7	-42.0	27.4	3.05e+01	0	37	0	372768768	60	6520
2026-01-04 05:02:13.92	293.94	8.16	-40.8	-42.1	27.3	3.05e+01	0	37	0	374865920	60	6642
2026-01-04 05:02:14.94	294.14	8.15	-41.0	-42.3	27.3	3.05e+01	0	37	0	376438784	60	6773
2026-01-04 05:02:15.95	294.33	8.14	-40.9	-42.2	27.3	3.05e+01	0	37	0	378535936	60	6707
2026-01-04 05:02:16.96	294.52	8.14	-40.7	-42.0	27.4	3.05e+01	0	37	0	380108800	60	6555
2026-01-04 05:02:17.97	294.72	8.13	-40.9	-42.3	27.4	3.05e+01	0	37	0	382205952	60	6729
2026-01-04 05:02:18.98	294.91	8.12	-41.0	-42.4	27.3	3.05e+01	0	37	0	384303104	60	6812
2026-01-04 05:02:19.99	295.10	8.11	-40.8	-42.1	27.6	3.05e+01	0	37	0	385875968	60	6592
2026-01-04 05:02:21.00	295.29	8.10	-40.8	-42.1	27.4	3.05e+01	0	37	0	387973120	60	6632
2026-01-04 05:02:22.01	295.49	8.10	-40.8	-42.1	27.4	3.05e+01	0	37	0	390070272	60	6594
2026-01-04 05:02:23.03	295.68	8.09	-40.9	-42.2	27.4	3.05e+01	0	37	0	391643136	60	6714
2026-01-04 05:02:24.04	295.87	8.08	-41.0	-42.3	27.4	3.05e+01	0	37	0	393740288	60	6779
2026-01-04 05:02:25.05	296.06	8.07	-41.7	-43.1	27.1	3.05e+01	0	37	0	395313152	60	7407
2026-01-04 05:02:26.06	296.25	8.06	-41.3	-42.6	27.2	3.05e+01	0	37	0	397410304	60	7018
2026-01-04 05:02:27.07	296.45	8.05	-41.3	-42.6	27.2	3.05e+01	0	37	0	399507456	60	7034
2026-01-04 05:02:28.08	296.64	8.04	-41.2	-42.5	27.2	3.05e+01	0	37	0	401080320	60	6950
2026-01-04 05:02:29.10	296.83	8.03	-41.2	-42.5	27.3	3.05e+01	0	37	0	403177472	60	6910
2026-01-04 05:02:30.11	297.02	8.02	-41.3	-42.6	27.5	3.05e+01	0	37	0	404750336	60	7020
2026-01-04 05:02:31.12	297.21	8.01	-41.1	-42.4	27.6	3.05e+01	0	37	0	406847488	60	6882
2026-01-04 05:02:32.13	297.40	8.00	-40.8	-42.1	27.6	3.05e+01	0	37	0	408944640	60	6616
2026-01-04 05:02:33.14	297.59	7.99	-41.3	-42.6	27.3	3.05e+01	0	37	0	410517504	60	7032
2026-01-04 05:02:34.15	297.79	7.97	-41.2	-42.6	27.4	3.05e+01	0	37	0	412614656	60	6965
2026-01-04 05:02:35.16	297.98	7.96	-41.5	-42.8	27.3	3.05e+01	0	37	0	414711808	60	7186
2026-01-04 05:02:36.17	298.17	7.95	-41.3	-42.6	27.4	3.05e+01	0	37	0	416284672	60	6982
2026-01-04 05:02:37.18	298.36	7.94	-41.5	-42.8	27.3	3.05e+01	0	37	0	418381824	60	7177
2026-01-04 05:02:38.19	298.55	7.92	-41.5	-42.8	27.3	3.05e+01	0	37	0	419954688	60	7176
2026-01-04 05:02:39.21	298.74	7.91	-41.2	-42.5	27.5	3.05e+01	0	37	0	422051840	60	6908
2026-01-04 05:02:40.22	298.93	7.90	-41.0	-42.3	27.5	3.05e+01	0	37	0	424148992	60	6764
2026-01-04 05:02:41.23	299.12	7.89	-41.0	-42.3	27.5	3.05e+01	0	37	0	425721856	60	6772
2026-01-04 05:02:42.24	299.31	7.87	-41.0	-42.3	27.5	3.05e+01	0	37	0	427819008	60	6781
2026-01-04 05:02:43.25	299.49	7.86	-41.1	-42.4	27.3	3.05e+01	0	37	0	429391872	60	6867
2026-01-04 05:02:44.26	299.68	7.84	-41.1	-42.4	27.4	3.05e+01	0	37	0	431489024	60	6834
2026-01-04 05:02:45.27	299.87	7.83	-40.9	-42.2	27.3	3.05e+01	0	37	0	433586176	60	6726
2026-01-04 05:02:46.28	300.06	7.82	-41.2	-42.5	27.2	3.05e+01	0	37	0	435159040	60	6948
2026-01-04 05:02:47.29	300.25	7.80	-41.6	-42.9	27.1	3.05e+01	0	37	0	437256192	60	7264
2026-01-04 05:02:48.31	300.44	7.79	-41.3	-42.6	27.3	3.05e+01	0	37	0	439353344	60	7033
2026-01-04 05:02:49.31	300.62	7.77	-41.1	-42.4	27.3	3.05e+01	0	37	0	440926208	60	6818
2026-01-04 05:02:50.33	300.81	7.75	-41.4	-42.7	26.9	3.05e+01	0	37	0	443023360	60	7118
2026-01-04 05:02:51.34	301.00	7.74	-41.3	-42.7	27.4	3.05e+01	0	37	0	444596224	60	7046
2026-01-04 05:02:52.35	301.19	7.72	-40.9	-42.2	27.5	3.05e+01	0	37	0	446693376	60	6696
2026-01-04 05:02:53.36	301.37	7.71	-40.9	-42.2	27.5	3.05e+01	0	37	0	448790528	60	6670
2026-01-04 05:02:54.37	301.56	7.69	-40.8	-42.1	27.4	3.05e+01	0	37	0	450363392	60	6605
2026-01-04 05:02:55.38	301.75	7.67	-40.8	-42.1	27.4	3.05e+01	0	37	0	452460544	60	6619
2026-01-04 05:02:56.39	301.93	7.66	-40.8	-42.2	27.4	3.05e+01	0	37	0	454033408	60	6660
2026-01-04 05:02:57.40	302.12	7.64	-41.0	-42.3	27.3	3.05e+01	0	37	0	456130560	60	6785
2026-01-04 05:02:58.41	302.30	7.62	-40.9	-42.2	27.4	3.05e+01	0	37	0	458227712	60	6713
2026-01-04 05:02:59.43	302.49	7.60	-41.0	-42.3	27.2	3.05e+01	0	37	0	459800576	60	6750
2026-01-04 05:03:00.44	302.68	7.59	-40.9	-42.2	27.2	3.05e+01	0	37	0	461897728	60	6710
2026-01-04 05:03:01.45	302.86	7.57	-41.0	-42.4	27.1	3.05e+01	0	37	0	463994880	60	6823
2026-01-04 05:03:02.46	303.05	7.55	-41.1	-42.4	27.2	3.05e+01	0	37	0	465567744	60	6871
2026-01-04 05:03:03.47	303.23	7.53	-40.9	-42.2	27.4	3.05e+01	0	37	0	467664896	60	6692
2026-01-04 05:03:04.48	303.42	7.51	-41.0	-42.3	27.2	3.05e+01	0	37	0	469237760	60	6752
2026-01-04 05:03:05.49	303.60	7.49	-41.1	-42.4	27.4	3.05e+01	0	37	0	471334912	60	6826
2026-01-04 05:03:06.50	303.78	7.47	-40.9	-42.2	27.5	3.05e+01	0	37	0	473432064	60	6664
2026-01-04 05:03:07.51	303.97	7.46	-41.0	-42.3	27.3	3.05e+01	0	37	0	475004928	60	6770
2026-01-04 05:03:08.53	304.15	7.44	-41.0	-42.3	27.4	3.05e+01	0	37	0	477102080	60	6744
2026-01-04 05:03:09.54	304.33	7.42	-41.5	-42.9	26.9	3.05e+01	0	37	0	478674944	60	7208
2026-01-04 05:03:10.55	304.52	7.40	-41.2	-42.5	27.5	3.05e+01	0	37	0	480772096	60	6919
2026-01-04 05:03:11.56	304.70	7.38	-41.4	-42.7	27.4	3.05e+01	0	37	0	482869248	60	7119
2026-01-04 05:03:12.57	304.88	7.36	-41.0	-42.3	27.6	3.05e+01	0	37	0	484442112	60	6751
2026-01-04 05:03:13.58	305.06	7.33	-41.0	-42.3	27.4	3.05e+01	0	37	0	486539264	60	6779
2026-01-04 05:03:14.59	305.24	7.31	-41.0	-42.4	27.2	3.05e+01	0	37	0	488112128	60	6817
2026-01-04 05:03:15.60	305.43	7.29	-40.8	-42.1	27.4	3.05e+01	0	37	0	490209280	60	6619
2026-01-04 05:03:16.62	305.61	7.27	-40.9	-42.2	27.5	3.05e+01	0	37	0	492306432	60	6683
2026-01-04 05:03:17.63	305.79	7.25	-40.9	-42.2	27.2	3.05e+01	0	37	0	493879296	60	6699
2026-01-04 05:03:18.64	305.97	7.23	-41.6	-42.9	27.0	3.05e+01	0	37	0	495976448	60	7278
2026-01-04 05:03:19.65	306.15	7.21	-41.2	-42.6	27.4	3.05e+01	0	37	0	497549312	60	6965
2026-01-04 05:03:20.66	306.33	7.18	-41.4	-42.7	27.3	3.05e+01	0	37	0	499646464	60	7096
2026-01-04 05:03:21.67	306.51	7.16	-41.4	-42.7	27.1	3.05e+01	0	37	0	501743616	60	7065
2026-01-04 05:03:22.68	306.69	7.14	-41.4	-42.7	27.0	3.05e+01	0	37	0	503316480	60	7096
2026-01-04 05:03:23.69	306.87	7.12	-41.1	-42.4	27.3	3.05e+01	0	37	0	505413632	60	6835
2026-01-04 05:03:24.70	307.05	7.09	-41.2	-42.5	27.2	3.05e+01	0	37	0	507510784	60	6958
2026-01-04 05:03:25.71	307.22	7.07	-41.3	-42.6	27.3	3.05e+01	0	37	0	509083648	60	7029
2026-01-04 05:03:26.72	307.40	7.05	-41.6	-43.0	27.0	3.05e+01	0	37	0	511180800	60	7345
2026-01-04 05:03:27.73	307.58	7.02	-41.4	-42.8	27.2	3.05e+01	0	37	0	512753664	60	7129
2026-01-04 05:03:28.75	307.76	7.00	-41.3	-42.7	27.2	3.05e+01	0	37	0	514850816	60	7048
2026-01-04 05:03:29.76	307.94	6.97	-41.2	-42.5	27.3	3.05e+01	0	37	0	516947968	60	6914
2026-01-04 05:03:30.77	308.11	6.95	-41.6	-42.9	26.8	3.05e+01	0	37	0	518520832	60	7290
2026-01-04 05:03:31.78	308.29	6.93	-41.4	-42.7	27.3	3.05e+01	0	37	0	520617984	60	7115
2026-01-04 05:03:32.79	308.47	6.90	-41.4	-42.8	27.0	3.05e+01	0	37	0	522715136	60	7130
2026-01-04 05:03:33.80	308.64	6.88	-41.4	-42.7	27.2	3.05e+01	0	37	0	524288000	60	7114
2026-01-04 05:03:34.81	308.82	6.85	-41.5	-42.8	27.3	3.05e+01	0	37	0	526385152	60	7189
2026-01-04 05:03:35.82	308.99	6.83	-41.8	-43.1	27.1	3.05e+01	0	37	0	527958016	60	7449
2026-01-04 05:03:36.83	309.17	6.80	-41.9	-43.2	27.2	3.05e+01	0	37	0	530055168	60	7496
2026-01-04 05:03:37.84	309.34	6.78	-41.5	-42.9	27.3	3.05e+01	0	37	0	532152320	60	7218
2026-01-04 05:03:38.86	309.52	6.75	-41.3	-42.6	27.3	3.05e+01	0	37	0	533725184	60	6994
2026-01-04 05:03:39.87	309.69	6.72	-41.2	-42.5	27.2	3.05e+01	0	37	0	535822336	60	6932
2026-01-04 05:03:40.88	309.87	6.70	-41.6	-42.9	27.2	3.05e+01	0	37	0	537395200	60	7247
2026-01-04 05:03:41.89	310.04	6.67	-41.3	-42.6	27.2	3.05e+01	0	37	0	539492352	60	7007
2026-01-04 05:03:42.90	310.21	6.65	-41.2	-42.5	27.3	3.05e+01	0	37	0	541589504	60	6959
2026-01-04 05:03:43.91	310.38	6.62	-41.2	-42.5	27.2	3.05e+01	0	37	0	543162368	60	6935
2026-01-04 05:03:44.92	310.56	6.59	-41.1	-42.4	27.4	3.05e+01	0	37	0	545259520	60	6876
2026-01-04 05:03:45.93	310.73	6.57	-41.1	-42.4	27.3	3.05e+01	0	37	0	547356672	60	6806
2026-01-04 05:03:46.94	310.90	6.54	-41.5	-42.8	27.3	3.05e+01	0	37	0	548929536	60	7186
2026-01-04 05:03:47.95	311.07	6.51	-41.5	-42.8	27.0	3.05e+01	0	37	0	551026688	60	7207
2026-01-04 05:03:48.97	311.24	6.48	-41.8	-43.2	27.1	3.05e+01	0	37	0	552599552	60	7498
2026-01-04 05:03:49.98	311.41	6.46	-41.3	-42.7	27.4	3.05e+01	0	37	0	554696704	60	7046
2026-01-04 05:03:50.99	311.58	6.43	-41.3	-42.6	27.2	3.05e+01	0	37	0	556793856	60	7024
2026-01-04 05:03:52.00	311.75	6.40	-41.5	-42.9	27.2	3.05e+01	0	37	0	558366720	60	7255
2026-01-04 05:03:53.01	311.92	6.37	-41.4	-42.8	27.2	3.05e+01	0	37	0	560463872	60	7155
2026-01-04 05:03:54.02	312.09	6.35	-42.0	-43.3	26.6	3.05e+01	0	37	0	562561024	60	7605
2026-01-04 05:03:55.03	312.26	6.32	-42.1	-43.5	26.8	3.05e+01	0	37	0	564133888	60	7724
2026-01-04 05:03:56.04	312.43	6.29	-41.4	-42.7	26.9	3.05e+01	0	37	0	566231040	60	7113
2026-01-04 05:03:57.05	312.60	6.26	-41.1	-42.4	27.3	3.05e+01	0	37	0	567803904	60	6861
2026-01-04 05:03:58.07	312.77	6.23	-41.3	-42.7	27.2	3.05e+01	0	37	0	569901056	60	7053
2026-01-04 05:03:59.08	312.94	6.20	-42.6	-44.0	26.6	3.05e+01	0	37	0	571998208	60	8253
2026-01-04 05:04:00.09	313.10	6.17	-41.9	-43.3	27.2	3.05e+01	0	37	0	573571072	60	7610
2026-01-04 05:04:01.10	313.27	6.14	-41.7	-43.1	27.1	3.05e+01	0	37	0	575668224	60	7437
2026-01-04 05:04:02.11	313.44	6.11	-41.5	-42.9	26.9	3.05e+01	0	37	0	577241088	60	7239
2026-01-04 05:04:03.12	313.60	6.08	-41.3	-42.7	27.1	3.05e+01	0	37	0	579338240	60	7052
2026-01-04 05:04:04.13	313.77	6.05	-41.1	-42.5	27.1	3.05e+01	0	37	0	581435392	60	6913
2026-01-04 05:04:05.14	313.93	6.02	-41.3	-42.7	27.2	3.05e+01	0	37	0	583008256	60	7055
2026-01-04 05:04:06.15	314.10	5.99	-41.4	-42.8	27.2	3.05e+01	0	37	0	585105408	60	7180
2026-01-04 05:04:07.17	314.26	5.96	-41.4	-42.8	27.2	3.05e+01	0	37	0	587202560	60	7167
2026-01-04 05:04:08.18	314.43	5.93	-41.7	-43.1	27.2	3.05e+01	0	37	0	588775424	60	7384
2026-01-04 05:04:09.19	314.59	5.90	-41.6	-43.0	27.1	3.05e+01	0	37	0	590872576	60	7349
2026-01-04 05:04:10.20	314.75	5.87	-41.8	-43.2	27.0	3.05e+01	0	37	0	592445440	60	7475
2026-01-04 05:04:11.21	314.92	5.84	-41.6	-43.0	27.0	3.05e+01	0	37	0	594542592	60	7297
2026-01-04 05:04:12.22	315.08	5.81	-41.5	-42.9	27.1	3.05e+01	0	37	0	596639744	60	7238
2026-01-04 05:04:13.23	315.24	5.78	-41.8	-43.2	27.0	3.05e+01	0	37	0	598212608	60	7496
2026-01-04 05:04:14.24	315.40	5.75	-41.6	-43.0	26.9	3.05e+01	0	37	0	600309760	60	7365
2026-01-04 05:04:15.25	315.57	5.72	-41.5	-43.0	27.0	3.05e+01	0	37	0	602406912	60	7303
2026-01-04 05:04:16.26	315.73	5.69	-41.7	-43.1	27.0	3.05e+01	0	37	0	603979776	60	7389
2026-01-04 05:04:17.28	315.89	5.65	-41.5	-42.9	27.0	3.05e+01	0	37	0	606076928	60	7232
2026-01-04 05:04:18.29	316.05	5.62	-41.4	-42.8	27.0	3.05e+01	0	37	0	607649792	60	7187
2026-01-04 05:04:19.30	316.21	5.59	-41.4	-42.8	27.1	3.05e+01	0	37	0	609746944	60	7178
2026-01-04 05:04:20.31	316.37	5.56	-41.5	-42.9	27.2	3.05e+01	0	37	0	611844096	60	7243
2026-01-04 05:04:21.32	316.53	5.53	-41.5	-42.8	27.1	3.05e+01	0	37	0	613416960	60	7198
2026-01-04 05:04:22.33	316.69	5.49	-41.5	-43.0	27.0	3.05e+01	0	37	0	615514112	60	7296
2026-01-04 05:04:23.34	316.85	5.46	-41.5	-42.9	27.0	3.05e+01	0	37	0	617086976	60	7223
2026-01-04 05:04:24.35	317.01	5.43	-41.3	-42.7	26.9	3.05e+01	0	37	0	619184128	60	7084
2026-01-04 05:04:25.36	317.16	5.40	-41.1	-42.5	27.0	3.05e+01	0	37	0	621281280	60	6945
2026-01-04 05:04:26.37	317.32	5.36	-41.4	-42.8	26.9	3.05e+01	0	37	0	622854144	60	7159
2026-01-04 05:04:27.38	317.48	5.33	-41.4	-42.8	26.8	3.05e+01	0	37	0	624951296	60	7152
2026-01-04 05:04:28.39	317.63	5.30	-41.4	-42.9	26.8	3.05e+01	0	37	0	626524160	60	7214
2026-01-04 05:04:29.40	317.79	5.26	-41.4	-42.8	26.8	3.05e+01	0	37	0	628621312	60	7158
2026-01-04 05:04:30.41	317.95	5.23	-41.4	-42.8	26.9	3.05e+01	0	37	0	630718464	60	7141
2026-01-04 05:04:31.43	318.10	5.20	-41.8	-43.2	26.5	3.05e+01	0	37	0	632291328	60	7541
2026-01-04 05:04:32.44	318.26	5.16	-41.4	-42.8	27.0	3.05e+01	0	37	0	634388480	60	7196
2026-01-04 05:04:33.45	318.41	5.13	-41.4	-42.8	26.9	3.05e+01	0	37	0	636485632	60	7146
2026-01-04 05:04:34.46	318.57	5.10	-41.3	-42.7	27.0	3.05e+01	0	37	0	638058496	60	7102
2026-01-04 05:04:35.47	318.72	5.06	-41.5	-42.9	26.8	3.05e+01	0	37	0	640155648	60	7270
2026-01-04 05:04:36.48	318.88	5.03	-41.2	-42.7	26.9	3.05e+01	0	37	0	641728512	60	7061
2026-01-04 05:04:37.49	319.03	4.99	-41.2	-42.6	26.8	3.05e+01	0	37	0	643825664	60	7031
2026-01-04 05:04:38.50	319.18	4.96	-41.2	-42.6	26.9	3.05e+01	0	37	0	645922816	60	6978
2026-01-04 05:04:39.52	319.34	4.93	-41.4	-42.8	26.8	3.05e+01	0	37	0	647495680	60	7143
2026-01-04 05:04:40.53	319.49	4.89	-41.5	-42.9	26.7	3.05e+01	0	37	0	649592832	60	7223
2026-01-04 05:04:41.54	319.64	4.86	-41.9	-43.3	26.7	3.05e+01	0	37	0	651165696	60	7627
2026-01-04 05:04:42.55	319.79	4.82	-41.5	-42.9	26.6	3.05e+01	0	37	0	653262848	60	7212
2026-01-04 05:04:43.56	319.94	4.79	-41.4	-42.8	26.9	3.05e+01	0	37	0	655360000	60	7128
2026-01-04 05:04:44.57	320.09	4.75	-41.6	-43.0	26.7	3.05e+01	0	37	0	656932864	60	7349
2026-01-04 05:04:45.58	320.24	4.72	-41.8	-43.2	26.4	3.05e+01	0	37	0	659030016	60	7493
2026-01-04 05:04:46.59	320.39	4.68	-41.6	-43.0	26.7	3.05e+01	0	37	0	660602880	60	7299
2026-01-04 05:04:47.60	320.54	4.65	-41.6	-43.0	26.7	3.05e+01	0	37	0	662700032	60	7319
2026-01-04 05:04:48.62	320.70	4.61	-41.3	-42.7	26.8	3.05e+01	0	37	0	664797184	60	7054
2026-01-04 05:04:49.63	320.84	4.58	-41.2	-42.6	26.8	3.05e+01	0	37	0	666370048	60	7000
2026-01-04 05:04:50.64	320.99	4.54	-41.5	-42.9	26.6	3.05e+01	0	37	0	668467200	60	7231
2026-01-04 05:04:51.65	321.14	4.51	-41.5	-42.9	26.6	3.05e+01	0	37	0	670564352	60	7282
2026-01-04 05:04:52.66	321.29	4.47	-41.3	-42.7	26.7	3.05e+01	0	37	0	672137216	60	7080
2026-01-04 05:04:53.67	321.44	4.43	-41.4	-42.8	26.7	3.05e+01	0	37	0	674234368	60	7176
2026-01-04 05:04:54.68	321.58	4.40	-41.3	-42.7	26.8	3.05e+01	0	37	0	675807232	60	7073
2026-01-04 05:04:55.69	321.73	4.36	-41.4	-42.8	26.5	3.05e+01	0	37	0	677904384	60	7182
2026-01-04 05:04:56.70	321.87	4.33	-41.7	-43.1	26.3	3.05e+01	0	37	0	680001536	60	7445
2026-01-04 05:04:57.71	322.02	4.29	-41.7	-43.1	26.3	3.05e+01	0	37	0	681574400	60	7405
2026-01-04 05:04:58.73	322.17	4.25	-41.7	-43.1	26.6	3.05e+01	0	37	0	683671552	60	7392
2026-01-04 05:04:59.74	322.31	4.22	-41.8	-43.2	26.4	3.05e+01	0	37	0	685244416	60	7479
2026-01-04 05:05:00.75	322.46	4.18	-41.8	-43.2	26.3	3.05e+01	0	37	0	687341568	60	7519
2026-01-04 05:05:01.76	322.60	4.15	-41.5	-42.9	26.6	3.05e+01	0	37	0	689438720	60	7281
2026-01-04 05:05:02.77	322.74	4.11	-41.6	-43.1	26.4	3.05e+01	0	37	0	691011584	60	7385
2026-01-04 05:05:03.78	322.89	4.07	-41.8	-43.2	26.2	3.05e+01	0	37	0	693108736	60	7507
2026-01-04 05:05:04.79	323.03	4.04	-41.7	-43.1	26.4	3.05e+01	0	37	0	695205888	60	7406
2026-01-04 05:05:05.80	323.17	4.00	-41.7	-43.1	26.3	3.05e+01	0	37	0	696778752	60	7431
2026-01-04 05:05:06.82	323.32	3.96	-41.8	-43.2	26.4	3.05e+01	0	37	0	698875904	60	7484
2026-01-04 05:05:07.83	323.46	3.92	-41.9	-43.3	26.1	3.05e+01	0	37	0	700448768	60	7615
2026-01-04 05:05:08.84	323.60	3.89	-42.1	-43.5	26.2	3.05e+01	0	37	0	702545920	60	7812
2026-01-04 05:05:09.85	323.74	3.85	-42.5	-44.0	25.8	3.05e+01	0	37	0	704643072	60	8212
2026-01-04 05:05:10.86	323.88	3.81	-42.5	-43.9	25.7	3.05e+01	0	37	0	706215936	60	8102
2026-01-04 05:05:11.87	324.02	3.78	-42.8	-44.2	26.1	3.05e+01	0	37	0	708313088	60	8430
2026-01-04 05:05:12.88	324.16	3.74	-42.6	-44.1	25.9	3.05e+01	0	37	0	710410240	60	8286
2026-01-04 05:05:13.89	324.30	3.70	-43.0	-44.5	25.4	3.05e+01	0	37	0	711983104	60	8707
2026-01-04 05:05:14.90	324.44	3.66	-42.1	-43.6	26.4	3.05e+01	0	37	0	714080256	60	7815
2026-01-04 05:05:15.92	324.58	3.63	-42.4	-43.8	26.2	3.05e+01	0	37	0	715653120	60	8082
2026-01-04 05:05:16.93	324.72	3.59	-42.0	-43.4	25.9	3.05e+01	0	37	0	717750272	60	7708
2026-01-04 05:05:17.94	324.86	3.55	-42.1	-43.5	26.4	3.05e+01	0	37	0	719847424	60	7783
2026-01-04 05:05:18.95	325.00	3.51	-41.8	-43.2	26.4	3.05e+01	0	37	0	721420288	60	7502
2026-01-04 05:05:19.96	325.14	3.48	-41.9	-43.3	26.3	3.05e+01	0	37	0	723517440	60	7623
2026-01-04 05:05:20.97	325.27	3.44	-42.3	-43.8	26.1	3.05e+01	0	37	0	725090304	60	8035
2026-01-04 05:05:21.98	325.41	3.40	-42.7	-44.2	25.8	3.05e+01	0	37	0	727187456	60	8413
2026-01-04 05:05:22.99	325.55	3.36	-42.4	-43.9	25.9	3.05e+01	0	37	0	729284608	60	8106
2026-01-04 05:05:24.00	325.68	3.32	-42.2	-43.7	26.0	3.05e+01	0	37	0	730857472	60	7912
2026-01-04 05:05:25.01	325.82	3.29	-42.1	-43.5	26.1	3.05e+01	0	37	0	732954624	60	7762
2026-01-04 05:05:26.03	325.95	3.25	-42.1	-43.5	26.1	3.05e+01	0	37	0	735051776	60	7789
2026-01-04 05:05:27.04	326.09	3.21	-41.9	-43.3	26.1	3.05e+01	0	37	0	736624640	60	7584
2026-01-04 05:05:28.05	326.22	3.17	-41.8	-43.2	26.3	3.05e+01	0	37	0	738721792	60	7546
2026-01-04 05:05:29.06	326.36	3.13	-42.0	-43.4	26.2	3.05e+01	0	37	0	740294656	60	7673
2026-01-04 05:05:30.07	326.49	3.09	-42.1	-43.6	25.9	3.05e+01	0	37	0	742391808	60	7869
2026-01-04 05:05:31.08	326.62	3.06	-42.3	-43.8	26.1	3.05e+01	0	37	0	744488960	60	7997
2026-01-04 05:05:32.09	326.76	3.02	-42.3	-43.8	26.0	3.05e+01	0	37	0	746061824	60	8040
2026-01-04 05:05:33.10	326.89	2.98	-42.4	-43.8	26.2	3.05e+01	0	37	0	748158976	60	8076
2026-01-04 05:05:34.11	327.02	2.94	-42.2	-43.7	26.1	3.05e+01	0	37	0	750256128	60	7920
2026-01-04 05:05:35.13	327.15	2.90	-41.8	-43.2	26.3	3.05e+01	0	37	0	751828992	60	7505
2026-01-04 05:05:36.14	327.29	2.86	-42.4	-43.8	26.0	3.05e+01	0	37	0	753926144	60	8072
2026-01-04 05:05:37.15	327.42	2.82	-42.1	-43.5	26.2	3.05e+01	0	37	0	755499008	60	7768
2026-01-04 05:05:38.16	327.55	2.79	-42.7	-44.1	26.2	3.05e+01	0	37	0	757596160	60	8352
2026-01-04 05:05:39.17	327.68	2.75	-42.8	-44.2	26.0	3.05e+01	0	37	0	759693312	60	8462
2026-01-04 05:05:40.18	327.81	2.71	-42.8	-44.3	25.6	3.05e+01	0	37	0	761266176	60	8482
2026-01-04 05:05:41.19	327.94	2.67	-43.0	-44.5	25.7	3.05e+01	0	37	0	763363328	60	8708
2026-01-04 05:05:42.20	328.07	2.63	-43.0	-44.5	25.7	3.05e+01	0	37	0	764936192	60	8760
2026-01-04 05:05:43.21	328.20	2.59	-43.4	-44.9	25.6	3.05e+01	0	37	0	767033344	60	9103
2026-01-04 05:05:44.22	328.33	2.55	-43.1	-44.5	25.5	3.05e+01	0	37	0	769130496	60	8765
2026-01-04 05:05:45.24	328.45	2.51	-42.6	-44.1	25.8	3.05e+01	0	37	0	770703360	60	8338
2026-01-04 05:05:46.25	328.58	2.47	-42.9	-44.3	25.7	3.05e+01	0	37	0	772800512	60	8566
2026-01-04 05:05:47.26	328.71	2.43	-43.3	-44.8	25.8	3.05e+01	0	37	0	774897664	60	9008
2026-01-04 05:05:48.27	328.84	2.39	-42.8	-44.2	25.8	3.05e+01	0	37	0	776470528	60	8460
2026-01-04 05:05:49.28	328.96	2.35	-42.7	-44.1	25.9	3.05e+01	0	37	0	778567680	60	8339
2026-01-04 05:05:50.29	329.09	2.32	-43.5	-45.0	25.8	3.05e+01	0	37	0	780140544	60	9222
2026-01-04 05:05:51.30	329.22	2.28	-43.4	-44.8	25.7	3.05e+01	0	37	0	782237696	60	9048
2026-01-04 05:05:52.31	329.34	2.24	-43.6	-45.1	25.6	3.05e+01	0	37	0	784334848	60	9383
2026-01-04 05:05:53.33	329.47	2.20	-43.6	-45.1	25.5	3.05e+01	0	37	0	785907712	60	9336
2026-01-04 05:05:54.34	329.59	2.16	-43.7	-45.2	25.4	3.05e+01	0	37	0	788004864	60	9458
2026-01-04 05:05:55.35	329.72	2.12	-43.7	-45.3	25.7	3.05e+01	0	37	0	789577728	60	9505
2026-01-04 05:05:56.36	329.84	2.08	-43.1	-44.7	25.6	3.05e+01	0	37	0	791674880	60	8871
2026-01-04 05:05:57.37	329.97	2.04	-43.3	-44.9	25.5	3.05e+01	0	37	0	793772032	60	9114
2026-01-04 05:05:58.38	330.09	2.00	-43.6	-45.2	25.3	3.05e+01	0	37	0	795344896	60	9416
2026-01-04 05:05:59.39	330.21	1.96	-43.8	-45.4	25.6	3.05e+01	0	37	0	797442048	60	9616
2026-01-04 05:06:00.40	330.34	1.92	-43.2	-44.7	25.5	3.05e+01	0	37	0	799539200	60	8960
2026-01-04 05:06:01.41	330.46	1.88	-43.1	-44.6	25.5	3.05e+01	0	37	0	801112064	60	8862
2026-01-04 05:06:02.42	330.58	1.84	-43.8	-45.3	25.3	3.05e+01	0	37	0	803209216	60	9595
2026-01-04 05:06:03.43	330.70	1.80	-43.3	-44.8	25.5	3.05e+01	0	37	0	804782080	60	8981
2026-01-04 05:06:04.45	330.83	1.76	-43.4	-44.9	25.1	3.05e+01	0	37	0	806879232	60	9111
2026-01-04 05:06:05.46	330.95	1.72	-44.0	-54.5	3.4	3.05e+01	0	37	104	808452096	60	27646
2026-01-04 05:06:06.47	331.07	1.68	-43.9	-54.3	3.4	3.05e+01	0	37	104	808452096	60	27041
2026-01-04 05:06:07.48	331.19	1.64	-43.8	-54.2	3.6	3.05e+01	0	37	104	808452096	60	26514
2026-01-04 05:06:08.49	331.31	1.60	-43.6	-54.0	3.6	3.05e+01	0	37	104	808452096	60	25910
2026-01-04 05:06:09.50	331.43	1.56	-43.9	-54.2	3.6	3.05e+01	0	37	104	808452096	60	26694
2026-01-04 05:06:10.51	331.55	1.52	-44.6	-55.0	3.6	3.05e+01	0	37	104	808452096	60	29183
2026-01-04 05:06:11.53	331.67	1.48	-52.3	-69.4	3.5	3.05e+01	0	37	104	808452096	60	152657
2026-01-04 05:06:12.54	331.79	1.44	-47.0	-58.1	3.6	3.05e+01	0	37	104	808452096	60	41716
2026-01-04 05:06:13.55	331.91	1.40	-47.7	-59.2	3.4	3.05e+01	0	37	104	808452096	60	47321
2026-01-04 05:06:14.56	332.02	1.36	-46.4	-57.4	3.6	3.05e+01	0	37	104	808452096	60	38642
2026-01-04 05:06:15.57	332.14	1.32	-46.1	-57.1	3.6	3.05e+01	0	37	104	808452096	60	37322
2026-01-04 05:06:16.58	332.26	1.28	-46.4	-57.6	3.4	3.05e+01	0	37	104	808452096	60	39572
2026-01-04 05:06:17.59	332.38	1.24	-52.6	-70.2	3.5	3.05e+01	0	37	104	808452096	60	167199
2026-01-04 05:06:18.60	332.49	1.20	-52.9	-70.9	3.5	3.05e+01	0	37	104	808452096	60	181285
2026-01-04 05:06:19.61	332.61	1.16	-53.2	-71.0	3.5	3.05e+01	0	37	104	808452096	60	184617
2026-01-04 05:06:20.62	332.73	1.12	-53.2	-71.2	3.5	3.05e+01	0	37	104	808452096	60	188313
2026-01-04 05:06:21.63	332.84	1.08	-52.9	-71.1	3.5	3.05e+01	0	37	104	808452096	60	186246
2026-01-04 05:06:22.64	332.96	1.04	-52.7	-71.0	3.5	3.05e+01	0	37	104	808452096	60	185069
2026-01-04 05:06:23.66	333.07	0.99	-52.6	-71.0	3.5	3.05e+01	0	37	104	808452096	60	184210
2026-01-04 05:06:24.67	333.19	0.95	-52.5	-71.0	3.5	3.05e+01	0	37	104	808452096	60	184182
2026-01-04 05:06:25.68	333.30	0.91	-52.7	-70.9	3.5	3.05e+01	0	37	104	808452096	60	182721
2026-01-04 05:06:26.69	333.42	0.87	-52.7	-71.0	3.5	3.05e+01	0	37	104	808452096	60	183637
2026-01-04 05:06:27.70	333.53	0.83	-53.4	-71.3	3.5	3.05e+01	0	37	104	808452096	60	191718
2026-01-04 05:06:28.71	333.65	0.79	-53.4	-71.4	3.5	3.05e+01	0	37	104	808452096	60	193770
2026-01-04 05:06:29.72	333.76	0.75	-53.4	-71.2	3.5	3.05e+01	0	37	104	808452096	60	189403
2026-01-04 05:06:30.73	333.87	0.71	-53.2	-71.2	3.5	3.05e+01	0	37	104	808452096	60	189467
2026-01-04 05:06:31.74	333.98	0.67	-53.7	-71.6	3.5	3.05e+01	0	37	104	808452096	60	197949
2026-01-04 05:06:32.75	334.10	0.63	-53.3	-71.5	3.5	3.05e+01	0	37	104	808452096	60	194250
2026-01-04 05:06:33.76	334.21	0.59	-53.8	-71.7	3.5	3.05e+01	0	37	104	808452096	60	199460
2026-01-04 05:06:34.77	334.32	0.55	-54.1	-71.9	3.5	3.05e+01	0	37	104	808452096	60	204015
2026-01-04 05:06:35.78	334.43	0.51	-53.6	-71.4	3.5	3.05e+01	0	37	104	808452096	60	192792
2026-01-04 05:06:36.80	334.54	0.47	-53.9	-71.7	3.5	3.05e+01	0	37	104	808452096	60	200327
2026-01-04 05:06:37.81	334.65	0.43	-54.1	-71.9	3.5	3.05e+01	0	37	104	808452096	60	205265
2026-01-04 05:06:38.82	334.76	0.38	-54.2	-72.0	3.5	3.05e+01	0	37	104	808452096	60	207529
2026-01-04 05:06:39.83	334.87	0.34	-54.0	-71.8	3.5	3.05e+01	0	37	104	808452096	60	202555
2026-01-04 05:06:40.84	334.98	0.30	-53.9	-71.7	3.5	3.05e+01	0	37	104	808452096	60	200409
2026-01-04 05:06:41.85	335.09	0.26	-53.9	-71.7	3.5	3.05e+01	0	37	104	808452096	60	200287
2026-01-04 05:06:42.87	335.20	0.22	-54.0	-71.7	3.5	3.05e+01	0	37	104	808452096	60	200482
2026-01-04 05:06:43.88	335.31	0.18	-54.6	-72.4	3.5	3.05e+01	0	37	104	808452096	60	216629
2026-01-04 05:06:44.89	335.42	0.14	-54.1	-71.9	3.4	3.05e+01	0	37	104	808452096	60	204632
2026-01-04 05:06:45.90	335.53	0.10	-53.6	-71.4	3.5	3.05e+01	0	37	104	808452096	60	192269
2026-01-04 05:06:46.91	335.64	0.06	-54.2	-72.0	3.5	3.05e+01	0	37	104	808452096	60	207008
2026-01-04 05:06:47.92	335.74	0.02	-53.9	-71.7	3.5	3.05e+01	0	37	104	808452096	60	200640
2026-01-04 05:06:48.93	335.85	-0.02	-54.5	-72.3	3.5	3.05e+01	0	37	104	808452096	60	212890
2026-01-04 05:06:49.94	335.96	-0.06	-54.1	-71.9	3.5	3.05e+01	0	37	104	808452096	60	205351

#Closed at: 2026-01-04 05:06:50
#Recorded file [808 MB]: D:/lorett/data/35034_260104_075652.dat