passes_logs/2026/01/04/R4.6S_Anadyr_2ch/R4.6S_Anadyr_2ch__20260104_142059_NOAA_21_JPSS-2_rec.log

#Pass ID: 20260104_142059_NOAA 21 (JPSS-2)
#Satellite: NOAA 21 (JPSS-2)
#Configuration: NOAA-21
#almurnet v.1.7.20251203
#Start time: 2026-01-04 14:21:02

#Version: 2.2.20231116
#Station: R4.6S_Anadyr_2ch
#Location: 177.4865 lon 64.73178 lat
#TLE: 1 54234U 22150A   25350.97269056  .00000057  00000+0  47676-4 0  9992
#TLE: 2 54234  98.7466 287.2282 0002043  29.8355 330.2937 14.19525482160692

#Time	Az	El	Level	Level2	SNR	BER	BlckErr	Temp	State	Recorded	gain1	gain2
2026-01-04 14:21:02.98	19.83	0.21	-54.2	-65.9	3.3	1.54e+00	0	35	0	0	60	93079
2026-01-04 14:21:03.99	19.85	0.27	-53.5	-66.8	3.5	1.52e+00	0	35	104	0	60	103121
2026-01-04 14:21:05.00	19.87	0.33	-52.4	-65.7	3.5	1.52e+00	0	35	104	0	60	91041
2026-01-04 14:21:06.01	19.88	0.39	-52.3	-65.6	3.5	1.52e+00	0	35	104	0	60	89797
2026-01-04 14:21:07.02	19.90	0.45	-52.3	-65.5	3.5	1.51e+00	0	35	104	0	60	89294
2026-01-04 14:21:08.03	19.91	0.51	-52.2	-65.5	3.5	1.52e+00	0	35	104	0	60	88752
2026-01-04 14:21:09.04	19.93	0.57	-52.1	-65.4	3.5	1.52e+00	0	35	104	0	60	87818
2026-01-04 14:21:10.05	19.94	0.63	-52.1	-65.3	3.5	1.52e+00	0	35	104	0	60	87365
2026-01-04 14:21:11.06	19.96	0.69	-52.0	-65.2	3.5	1.51e+00	0	36	104	0	60	86550
2026-01-04 14:21:12.08	19.98	0.75	-51.8	-65.0	3.5	1.52e+00	0	36	104	0	60	84313
2026-01-04 14:21:13.09	19.99	0.81	-51.7	-64.9	3.5	1.52e+00	0	36	104	0	60	83143
2026-01-04 14:21:14.10	20.01	0.88	-51.5	-64.7	3.5	1.52e+00	0	36	104	0	60	81196
2026-01-04 14:21:15.11	20.02	0.94	-51.4	-64.5	3.5	1.52e+00	0	36	104	0	60	79288
2026-01-04 14:21:16.11	20.04	1.00	-51.1	-64.2	3.5	1.51e+00	0	36	104	0	60	77124
2026-01-04 14:21:17.13	20.05	1.06	-50.8	-64.0	3.5	1.52e+00	0	36	104	0	60	74656
2026-01-04 14:21:18.14	20.07	1.12	-50.8	-63.9	3.5	1.51e+00	0	36	104	0	60	74029
2026-01-04 14:21:19.15	20.09	1.19	-50.7	-63.9	3.5	1.52e+00	0	36	104	0	60	74125
2026-01-04 14:21:20.16	20.10	1.25	-50.7	-63.8	3.5	1.52e+00	0	36	104	0	60	73746
2026-01-04 14:21:21.17	20.12	1.31	-50.7	-63.9	3.5	1.52e+00	0	36	104	0	60	73904
2026-01-04 14:21:22.18	20.14	1.37	-50.7	-63.8	3.5	1.52e+00	0	36	104	0	60	73373
2026-01-04 14:21:23.19	20.15	1.44	-50.7	-63.8	3.5	1.52e+00	0	36	104	0	60	73490
2026-01-04 14:21:24.20	20.17	1.50	-50.7	-63.8	3.5	1.52e+00	0	36	104	0	60	73651
2026-01-04 14:21:25.21	20.19	1.56	-50.7	-63.8	3.5	1.51e+00	0	36	104	0	60	73160
2026-01-04 14:21:26.22	20.20	1.62	-50.7	-63.8	3.5	1.52e+00	0	36	104	0	60	72941
2026-01-04 14:21:27.23	20.22	1.69	-50.7	-63.8	3.5	1.52e+00	0	36	104	0	60	72961
2026-01-04 14:21:28.24	20.23	1.75	-50.7	-63.9	3.5	1.52e+00	0	36	104	0	60	73869
2026-01-04 14:21:29.25	20.25	1.81	-50.8	-63.9	3.5	1.52e+00	0	36	104	0	60	74127
2026-01-04 14:21:30.26	20.27	1.88	-50.7	-63.9	3.5	1.52e+00	0	36	104	0	60	74249
2026-01-04 14:21:31.27	20.28	1.94	-50.7	-63.9	3.5	1.52e+00	0	36	104	0	60	74437
2026-01-04 14:21:32.28	20.30	2.00	-50.7	-63.9	3.5	1.52e+00	0	36	104	0	60	74114
2026-01-04 14:21:33.29	20.32	2.07	-50.7	-63.9	3.5	1.52e+00	0	36	104	0	60	74380
2026-01-04 14:21:34.30	20.34	2.13	-50.7	-64.0	3.5	1.52e+00	0	36	104	0	60	74610
2026-01-04 14:21:35.31	20.35	2.20	-50.7	-63.9	3.5	1.52e+00	0	36	104	0	60	74123
2026-01-04 14:21:36.32	20.37	2.26	-50.7	-63.8	3.5	1.52e+00	0	36	104	0	60	73620
2026-01-04 14:21:37.34	20.39	2.33	-50.7	-63.5	3.5	1.52e+00	0	36	104	0	60	71113
2026-01-04 14:21:38.35	20.40	2.39	-50.7	-63.0	3.5	1.51e+00	0	36	104	0	60	67143
2026-01-04 14:21:39.36	20.42	2.46	-50.6	-62.4	3.5	1.52e+00	0	36	104	0	60	62491
2026-01-04 14:21:40.37	20.44	2.52	-50.6	-61.8	3.5	1.51e+00	0	36	104	0	60	58510
2026-01-04 14:21:41.38	20.46	2.59	-50.6	-61.8	3.7	1.50e+00	0	36	104	0	60	58357
2026-01-04 14:21:42.39	20.47	2.65	-50.6	-61.8	3.7	1.49e+00	0	36	104	0	60	58206
2026-01-04 14:21:43.40	20.49	2.72	-50.6	-61.9	3.7	1.51e+00	0	36	104	0	60	58896
2026-01-04 14:21:44.42	20.51	2.78	-50.5	-61.7	3.8	1.50e+00	0	36	104	0	60	57757
2026-01-04 14:21:45.43	20.53	2.85	-50.4	-60.0	4.4	1.48e+00	8	36	104	0	60	47302
2026-01-04 14:21:46.44	20.54	2.92	-49.8	-57.2	6.5	1.26e+00	0	36	104	0	60	34107
2026-01-04 14:21:47.45	20.56	2.98	-48.6	-52.8	9.9	4.35e-02	0	36	0	1048576	60	20717
2026-01-04 14:21:48.46	20.58	3.05	-47.9	-51.4	11.9	1.31e-03	0	36	0	4194304	60	17646
2026-01-04 14:21:49.47	20.60	3.11	-47.0	-49.8	14.2	2.05e-05	0	36	0	7340032	60	14589
2026-01-04 14:21:50.48	20.61	3.18	-45.9	-48.1	15.1	1.50e-06	0	36	0	10485760	60	12043
2026-01-04 14:21:51.49	20.63	3.25	-44.9	-46.8	15.8	0.00e+00	0	36	0	13631488	60	10414
2026-01-04 14:21:52.50	20.65	3.31	-44.6	-46.4	16.6	0.00e+00	0	36	0	16777216	60	9892
2026-01-04 14:21:53.51	20.67	3.38	-44.0	-45.7	17.6	0.00e+00	0	36	0	19922944	60	9076
2026-01-04 14:21:54.53	20.69	3.45	-43.4	-45.0	18.1	0.00e+00	0	36	0	23068672	60	8401
2026-01-04 14:21:55.54	20.70	3.52	-43.8	-45.4	17.7	0.00e+00	0	36	0	26214400	60	8856
2026-01-04 14:21:56.55	20.72	3.58	-43.5	-45.1	17.9	0.00e+00	0	36	0	29360128	60	8533
2026-01-04 14:21:57.56	20.74	3.65	-44.2	-45.9	17.2	0.00e+00	0	36	0	32505856	60	9359
2026-01-04 14:21:58.57	20.76	3.72	-45.8	-48.0	15.0	0.00e+00	0	36	0	35651584	60	11897
2026-01-04 14:21:59.58	20.78	3.79	-43.6	-45.2	18.4	0.00e+00	0	36	0	38797312	60	8576
2026-01-04 14:22:00.59	20.79	3.86	-42.7	-44.1	18.1	0.00e+00	0	36	0	41943040	60	7634
2026-01-04 14:22:01.60	20.81	3.92	-45.2	-47.2	14.2	0.00e+00	0	36	0	45088768	60	10867
2026-01-04 14:22:02.61	20.83	3.99	-47.2	-50.4	14.9	1.44e-01	0	36	104	46137344	60	15667
2026-01-04 14:22:03.63	20.85	4.06	-44.9	-46.8	11.2	0.00e+00	0	36	0	48234496	60	10366
2026-01-04 14:22:04.64	20.87	4.13	-50.2	-58.9	4.6	1.50e+00	0	36	104	48234496	60	41796
2026-01-04 14:22:05.65	20.89	4.20	-45.3	-47.5	15.9	0.00e+00	0	36	0	48234496	60	11198
2026-01-04 14:22:06.66	20.91	4.27	-45.3	-47.3	15.9	0.00e+00	0	36	0	51380224	60	10968
2026-01-04 14:22:07.67	20.93	4.34	-44.8	-46.6	17.0	0.00e+00	0	36	0	54525952	60	10142
2026-01-04 14:22:08.68	20.94	4.41	-45.0	-47.0	16.5	0.00e+00	0	36	0	57671680	60	10552
2026-01-04 14:22:09.69	20.96	4.48	-44.4	-46.1	17.4	0.00e+00	0	36	0	60817408	60	9530
2026-01-04 14:22:10.70	20.98	4.55	-45.4	-47.4	16.3	0.00e+00	0	36	0	63963136	60	11091
2026-01-04 14:22:11.71	21.00	4.62	-45.4	-47.3	16.5	0.00e+00	0	36	0	67108864	60	11019
2026-01-04 14:22:12.72	21.02	4.69	-44.2	-45.9	17.5	0.00e+00	0	36	0	70254592	60	9334
2026-01-04 14:22:13.73	21.04	4.76	-44.1	-45.7	17.4	0.00e+00	0	36	0	73400320	60	9153
2026-01-04 14:22:14.74	21.06	4.83	-44.3	-45.9	17.8	0.00e+00	0	36	0	76546048	60	9366
2026-01-04 14:22:15.76	21.08	4.90	-45.0	-46.8	16.4	0.00e+00	0	36	0	79691776	60	10404
2026-01-04 14:22:16.77	21.10	4.97	-45.7	-47.8	15.7	0.00e+00	0	36	0	82837504	60	11590
2026-01-04 14:22:17.78	21.12	5.04	-45.7	-47.7	16.0	0.00e+00	0	36	0	85983232	60	11502
2026-01-04 14:22:18.79	21.14	5.11	-45.0	-46.8	16.6	0.00e+00	0	36	0	89128960	60	10355
2026-01-04 14:22:19.80	21.16	5.19	-44.9	-46.7	16.8	0.00e+00	0	36	0	92274688	60	10262
2026-01-04 14:22:20.81	21.18	5.26	-44.2	-45.9	17.5	0.00e+00	0	36	0	95420416	60	9349
2026-01-04 14:22:21.82	21.20	5.33	-44.5	-46.3	17.3	0.00e+00	0	36	0	98566144	60	9754
2026-01-04 14:22:22.83	21.22	5.40	-43.4	-44.8	18.6	0.00e+00	0	36	0	101711872	60	8261
2026-01-04 14:22:23.84	21.24	5.47	-43.4	-44.9	18.5	0.00e+00	0	36	0	104857600	60	8280
2026-01-04 14:22:24.85	21.26	5.55	-43.5	-45.0	18.5	0.00e+00	0	36	0	108003328	60	8450
2026-01-04 14:22:25.87	21.28	5.62	-43.3	-44.8	18.4	0.00e+00	0	36	0	111149056	60	8200
2026-01-04 14:22:26.88	21.30	5.69	-43.5	-45.0	18.9	0.00e+00	0	36	0	114294784	60	8390
2026-01-04 14:22:27.89	21.32	5.77	-42.9	-44.3	19.2	0.00e+00	0	36	0	117440512	60	7748
2026-01-04 14:22:28.90	21.34	5.84	-43.2	-44.7	18.8	0.00e+00	0	36	0	120586240	60	8112
2026-01-04 14:22:29.91	21.36	5.91	-42.4	-43.7	19.7	0.00e+00	0	36	0	123731968	60	7262
2026-01-04 14:22:30.92	21.38	5.99	-41.4	-42.6	20.7	0.00e+00	0	36	0	126877696	60	6376
2026-01-04 14:22:31.93	21.40	6.06	-41.4	-42.6	20.8	0.00e+00	0	36	0	130023424	60	6351
2026-01-04 14:22:32.94	21.42	6.14	-40.7	-41.9	21.4	0.00e+00	0	36	0	133169152	60	5870
2026-01-04 14:22:33.95	21.44	6.21	-41.2	-42.4	20.9	0.00e+00	0	36	0	136314880	60	6249
2026-01-04 14:22:34.97	21.46	6.29	-40.9	-42.1	21.1	0.00e+00	0	36	0	139460608	60	6019
2026-01-04 14:22:35.98	21.48	6.36	-41.3	-42.5	20.8	0.00e+00	0	36	0	142606336	60	6307
2026-01-04 14:22:36.99	21.51	6.43	-41.0	-42.1	21.1	0.00e+00	0	36	0	145752064	60	6040
2026-01-04 14:22:38.00	21.53	6.51	-41.0	-42.1	21.2	0.00e+00	0	36	0	148897792	60	6062
2026-01-04 14:22:39.01	21.55	6.59	-41.1	-42.3	21.0	0.00e+00	0	36	0	152043520	60	6169
2026-01-04 14:22:40.02	21.57	6.66	-41.2	-42.4	20.9	0.00e+00	0	36	0	155189248	60	6221
2026-01-04 14:22:41.03	21.59	6.74	-40.8	-41.9	21.3	0.00e+00	0	36	0	158334976	60	5895
2026-01-04 14:22:42.04	21.61	6.81	-40.9	-42.0	21.3	0.00e+00	0	36	0	161480704	60	5958
2026-01-04 14:22:43.05	21.63	6.89	-41.0	-42.1	21.2	0.00e+00	0	36	0	164626432	60	6044
2026-01-04 14:22:44.06	21.66	6.97	-41.0	-42.1	21.1	0.00e+00	0	36	0	167772160	60	6043
2026-01-04 14:22:45.07	21.68	7.04	-40.6	-41.8	21.5	0.00e+00	0	36	0	170917888	60	5797
2026-01-04 14:22:46.08	21.70	7.12	-40.7	-41.8	21.5	0.00e+00	0	36	0	174063616	60	5804
2026-01-04 14:22:47.10	21.72	7.20	-40.6	-41.7	21.5	0.00e+00	0	36	0	177209344	60	5742
2026-01-04 14:22:48.11	21.74	7.28	-40.5	-41.5	21.7	0.00e+00	0	36	0	180355072	60	5657
2026-01-04 14:22:49.12	21.77	7.35	-40.5	-41.6	21.6	0.00e+00	0	36	0	183500800	60	5696
2026-01-04 14:22:50.13	21.79	7.43	-40.4	-41.5	21.8	0.00e+00	0	37	0	186646528	60	5601
2026-01-04 14:22:51.14	21.81	7.51	-40.3	-41.4	21.8	0.00e+00	0	37	0	189792256	60	5550
2026-01-04 14:22:52.15	21.83	7.59	-40.6	-41.7	21.6	0.00e+00	0	37	0	192937984	60	5760
2026-01-04 14:22:53.16	21.85	7.67	-40.4	-41.5	21.6	0.00e+00	0	37	0	196083712	60	5640
2026-01-04 14:22:54.17	21.88	7.75	-40.7	-41.8	21.6	0.00e+00	0	37	0	199229440	60	5830
2026-01-04 14:22:55.18	21.90	7.83	-40.3	-41.4	21.9	0.00e+00	0	37	0	202375168	60	5536
2026-01-04 14:22:56.19	21.92	7.90	-40.5	-41.6	21.8	0.00e+00	0	36	0	205520896	60	5671
2026-01-04 14:22:57.21	21.95	7.99	-40.2	-41.3	21.9	0.00e+00	0	37	0	208666624	60	5513
2026-01-04 14:22:58.22	21.97	8.07	-40.0	-41.1	22.1	0.00e+00	0	37	0	211812352	58	6050
2026-01-04 14:22:59.23	21.99	8.15	-40.0	-41.1	22.0	0.00e+00	0	37	0	214958080	58	6029
2026-01-04 14:23:00.24	22.02	8.23	-40.3	-41.4	22.0	0.00e+00	0	37	0	218103808	58	6226
2026-01-04 14:23:01.25	22.04	8.31	-40.1	-41.2	22.0	0.00e+00	0	37	0	221249536	58	6094
2026-01-04 14:23:02.26	22.06	8.39	-40.0	-41.0	22.2	0.00e+00	0	36	0	224395264	58	5972
2026-01-04 14:23:03.27	22.09	8.47	-40.2	-41.2	22.0	0.00e+00	0	37	0	227540992	58	6131
2026-01-04 14:23:04.29	22.11	8.55	-40.2	-41.2	22.0	0.00e+00	0	37	0	230686720	58	6133
2026-01-04 14:23:05.30	22.13	8.63	-40.5	-41.6	21.7	0.00e+00	0	37	0	233832448	58	6365
2026-01-04 14:23:06.31	22.16	8.71	-40.3	-41.4	22.0	0.00e+00	0	37	0	236978176	58	6230
2026-01-04 14:23:07.32	22.18	8.80	-40.5	-41.6	21.7	0.00e+00	0	37	0	240123904	58	6363
2026-01-04 14:23:08.33	22.20	8.88	-39.9	-40.9	22.2	0.00e+00	0	37	0	243269632	58	5911
2026-01-04 14:23:09.34	22.23	8.96	-40.1	-41.1	22.2	0.00e+00	0	37	0	246415360	58	6034
2026-01-04 14:23:10.35	22.25	9.05	-39.8	-40.9	22.4	0.00e+00	0	37	0	249561088	58	5883
2026-01-04 14:23:11.36	22.28	9.13	-39.8	-40.9	22.4	0.00e+00	0	36	0	252706816	58	5888
2026-01-04 14:23:12.37	22.30	9.21	-39.8	-40.8	22.5	0.00e+00	0	36	0	255852544	58	5837
2026-01-04 14:23:13.38	22.33	9.30	-39.9	-40.9	22.4	0.00e+00	0	37	0	258998272	58	5897
2026-01-04 14:23:14.40	22.35	9.38	-39.7	-40.8	22.4	0.00e+00	0	37	0	262144000	58	5798
2026-01-04 14:23:15.41	22.38	9.47	-39.8	-40.8	22.4	0.00e+00	0	36	0	265289728	58	5833
2026-01-04 14:23:16.42	22.40	9.55	-39.9	-40.9	22.4	0.00e+00	0	37	0	268435456	58	5892
2026-01-04 14:23:17.43	22.43	9.64	-40.1	-41.1	22.2	0.00e+00	0	37	0	271581184	58	6043
2026-01-04 14:23:18.44	22.45	9.72	-39.7	-40.7	22.5	0.00e+00	0	37	0	274726912	58	5786
2026-01-04 14:23:19.45	22.48	9.81	-39.9	-40.9	22.4	0.00e+00	0	37	0	278921216	58	5892
2026-01-04 14:23:20.46	22.50	9.89	-39.5	-40.6	22.7	0.00e+00	0	37	0	282066944	58	5662
2026-01-04 14:23:21.47	22.53	9.98	-39.6	-40.6	22.7	0.00e+00	0	37	0	284164096	58	5695
2026-01-04 14:23:22.48	22.55	10.07	-39.4	-40.4	22.7	0.00e+00	0	37	0	287309824	58	5584
2026-01-04 14:23:23.49	22.58	10.15	-39.3	-40.3	22.9	0.00e+00	0	36	0	290455552	58	5507
2026-01-04 14:23:24.51	22.61	10.24	-39.3	-40.3	22.8	0.00e+00	0	37	0	294649856	58	5525
2026-01-04 14:23:25.52	22.63	10.33	-39.4	-40.4	22.8	0.00e+00	0	37	0	297795584	58	5578
2026-01-04 14:23:26.53	22.66	10.42	-39.4	-40.4	22.9	0.00e+00	0	37	0	300941312	58	5546
2026-01-04 14:23:27.54	22.68	10.50	-39.4	-40.5	22.7	0.00e+00	0	37	0	304087040	58	5608
2026-01-04 14:23:28.55	22.71	10.59	-39.2	-40.2	22.9	0.00e+00	0	37	0	307232768	58	5446
2026-01-04 14:23:29.56	22.74	10.68	-39.3	-40.3	22.8	0.00e+00	0	37	0	310378496	58	5521
2026-01-04 14:23:30.57	22.76	10.77	-39.3	-40.3	22.8	0.00e+00	0	37	0	313524224	58	5496
2026-01-04 14:23:31.58	22.79	10.86	-39.1	-40.1	23.0	0.00e+00	0	36	0	316669952	56	6041
2026-01-04 14:23:32.59	22.82	10.95	-39.1	-40.1	23.0	0.00e+00	0	36	0	319815680	56	6022
2026-01-04 14:23:33.60	22.85	11.04	-39.1	-40.1	23.0	0.00e+00	0	37	0	322961408	56	6033
2026-01-04 14:23:34.62	22.87	11.13	-39.1	-40.1	23.0	0.00e+00	0	37	0	326107136	56	6009
2026-01-04 14:23:35.63	22.90	11.22	-39.2	-40.2	23.0	0.00e+00	0	37	0	329252864	56	6078
2026-01-04 14:23:36.64	22.93	11.31	-39.1	-40.1	23.0	0.00e+00	0	37	0	332398592	56	6015
2026-01-04 14:23:37.65	22.96	11.40	-39.4	-40.4	22.8	0.00e+00	0	37	0	335544320	56	6240
2026-01-04 14:23:38.66	22.98	11.49	-39.2	-40.3	22.8	0.00e+00	0	37	0	338690048	56	6141
2026-01-04 14:23:39.67	23.01	11.59	-39.2	-40.2	22.9	0.00e+00	0	36	0	341835776	56	6078
2026-01-04 14:23:40.68	23.04	11.68	-39.2	-40.2	23.0	0.00e+00	0	37	0	344981504	56	6075
2026-01-04 14:23:41.69	23.07	11.77	-39.2	-40.2	22.9	0.00e+00	0	37	0	348127232	56	6118
2026-01-04 14:23:42.70	23.10	11.86	-38.9	-39.8	23.2	0.00e+00	0	37	0	351272960	56	5847
2026-01-04 14:23:43.72	23.13	11.96	-39.3	-40.3	22.8	0.00e+00	0	37	0	354418688	56	6194
2026-01-04 14:23:44.73	23.15	12.05	-38.8	-39.8	23.2	0.00e+00	0	36	0	357564416	56	5809
2026-01-04 14:23:45.74	23.18	12.15	-39.1	-40.1	23.0	0.00e+00	0	37	0	360710144	56	6003
2026-01-04 14:23:46.75	23.21	12.24	-38.9	-39.9	23.1	0.00e+00	0	37	0	363855872	56	5885
2026-01-04 14:23:47.76	23.24	12.33	-38.7	-39.6	23.3	0.00e+00	0	37	0	367001600	56	5711
2026-01-04 14:23:48.77	23.27	12.43	-38.8	-39.8	23.2	0.00e+00	0	37	0	370147328	56	5792
2026-01-04 14:23:49.78	23.30	12.53	-38.8	-39.7	23.2	0.00e+00	0	37	0	373293056	56	5779
2026-01-04 14:23:50.80	23.33	12.62	-38.6	-39.6	23.3	0.00e+00	0	37	0	376438784	56	5699
2026-01-04 14:23:51.81	23.36	12.72	-38.6	-39.5	23.4	0.00e+00	0	37	0	379584512	56	5653
2026-01-04 14:23:52.82	23.39	12.82	-38.7	-39.7	23.3	0.00e+00	0	37	0	382730240	56	5767
2026-01-04 14:23:53.77	23.42	12.91	-38.7	-39.6	23.4	0.00e+00	0	37	0	385875968	56	5715
2026-01-04 14:23:54.78	23.45	13.00	-38.6	-39.6	23.4	0.00e+00	0	37	0	389021696	56	5701
2026-01-04 14:23:55.79	23.48	13.10	-38.6	-39.6	23.5	0.00e+00	0	37	0	392167424	56	5661
2026-01-04 14:23:56.80	23.51	13.20	-38.6	-39.6	23.5	0.00e+00	0	37	0	395313152	56	5660
2026-01-04 14:23:57.81	23.54	13.30	-38.6	-39.5	23.4	0.00e+00	0	37	0	398458880	56	5638
2026-01-04 14:23:58.82	23.57	13.40	-38.7	-39.7	23.4	0.00e+00	0	37	0	401604608	56	5767
2026-01-04 14:23:59.83	23.60	13.50	-38.5	-39.5	23.6	0.00e+00	0	37	0	404750336	56	5615
2026-01-04 14:24:00.84	23.64	13.60	-38.5	-39.5	23.5	0.00e+00	0	37	0	407896064	56	5610
2026-01-04 14:24:01.86	23.67	13.70	-38.5	-39.4	23.6	0.00e+00	0	37	0	411041792	56	5575
2026-01-04 14:24:02.87	23.70	13.80	-38.5	-39.5	23.5	0.00e+00	0	37	0	414187520	56	5632
2026-01-04 14:24:03.88	23.73	13.90	-38.6	-39.6	23.4	0.00e+00	0	37	0	417333248	56	5688
2026-01-04 14:24:04.89	23.76	14.00	-38.9	-39.9	23.2	0.00e+00	0	37	0	420478976	56	5889
2026-01-04 14:24:05.90	23.80	14.10	-38.7	-39.6	23.5	0.00e+00	0	37	0	423624704	56	5722
2026-01-04 14:24:06.91	23.83	14.20	-38.7	-39.7	23.4	0.00e+00	0	37	0	426770432	56	5761
2026-01-04 14:24:07.92	23.86	14.31	-38.7	-39.6	23.6	0.00e+00	0	37	0	429916160	56	5720
2026-01-04 14:24:08.93	23.89	14.41	-38.5	-39.5	23.6	0.00e+00	0	37	0	433061888	56	5607
2026-01-04 14:24:09.94	23.93	14.51	-38.6	-39.5	23.6	0.00e+00	0	37	0	436207616	56	5647
2026-01-04 14:24:10.96	23.96	14.62	-38.6	-39.5	23.6	0.00e+00	0	37	0	439353344	56	5656
2026-01-04 14:24:11.97	23.99	14.72	-38.6	-39.6	23.6	0.00e+00	0	37	0	442499072	56	5686
2026-01-04 14:24:12.98	24.03	14.83	-38.6	-39.6	23.6	0.00e+00	0	37	0	445644800	56	5662
2026-01-04 14:24:13.99	24.06	14.93	-38.8	-39.7	23.5	0.00e+00	0	37	0	448790528	56	5774
2026-01-04 14:24:15.00	24.10	15.04	-38.7	-39.7	23.6	0.00e+00	0	37	0	451936256	56	5762
2026-01-04 14:24:16.01	24.13	15.14	-38.8	-39.7	23.5	0.00e+00	0	37	0	455081984	56	5791
2026-01-04 14:24:17.02	24.17	15.25	-39.0	-40.0	23.5	0.00e+00	0	37	0	458227712	56	5977
2026-01-04 14:24:18.03	24.20	15.36	-38.9	-39.9	23.5	0.00e+00	0	37	0	461373440	56	5893
2026-01-04 14:24:19.04	24.24	15.47	-38.9	-39.9	23.4	0.00e+00	0	37	0	464519168	56	5875
2026-01-04 14:24:20.05	24.27	15.57	-38.9	-39.8	23.5	0.00e+00	0	37	0	467664896	56	5849
2026-01-04 14:24:21.07	24.31	15.68	-38.7	-39.7	23.6	0.00e+00	0	37	0	470810624	56	5742
2026-01-04 14:24:22.08	24.34	15.79	-38.7	-39.7	23.6	0.00e+00	0	37	0	473956352	56	5746
2026-01-04 14:24:23.09	24.38	15.90	-38.8	-39.7	23.5	0.00e+00	0	37	0	477102080	56	5780
2026-01-04 14:24:24.10	24.41	16.01	-38.8	-39.8	23.5	0.00e+00	0	37	0	480247808	56	5802
2026-01-04 14:24:25.11	24.45	16.12	-38.9	-39.9	23.5	0.00e+00	0	37	0	483393536	56	5859
2026-01-04 14:24:26.12	24.49	16.23	-38.8	-39.8	23.5	0.00e+00	0	37	0	486539264	56	5803
2026-01-04 14:24:27.13	24.52	16.34	-38.7	-39.7	23.5	0.00e+00	0	37	0	489684992	56	5728
2026-01-04 14:24:28.14	24.56	16.46	-38.6	-39.6	23.6	0.00e+00	0	37	0	492830720	56	5691
2026-01-04 14:24:29.16	24.60	16.57	-38.6	-39.6	23.6	0.00e+00	0	37	0	495976448	56	5675
2026-01-04 14:24:30.17	24.64	16.68	-38.8	-39.7	23.5	0.00e+00	0	37	0	499122176	56	5780
2026-01-04 14:24:31.18	24.67	16.80	-39.0	-40.0	23.3	0.00e+00	0	37	0	502267904	56	5955
2026-01-04 14:24:32.19	24.71	16.91	-39.2	-40.2	23.2	0.00e+00	0	37	0	505413632	56	6110
2026-01-04 14:24:33.20	24.75	17.03	-39.0	-40.0	23.3	0.00e+00	0	37	0	508559360	56	5932
2026-01-04 14:24:34.21	24.79	17.14	-38.9	-39.9	23.4	0.00e+00	0	37	0	511705088	56	5881
2026-01-04 14:24:35.22	24.83	17.26	-39.1	-40.1	23.3	0.00e+00	0	37	0	514850816	56	6006
2026-01-04 14:24:36.23	24.87	17.37	-38.9	-39.9	23.3	0.00e+00	0	37	0	517996544	56	5901
2026-01-04 14:24:37.24	24.91	17.49	-39.0	-40.0	23.3	0.00e+00	0	37	0	522190848	56	5960
2026-01-04 14:24:38.26	24.95	17.61	-38.8	-39.8	23.5	0.00e+00	0	37	0	525336576	56	5800
2026-01-04 14:24:39.27	24.99	17.72	-38.8	-39.7	23.4	0.00e+00	0	37	0	528482304	56	5781
2026-01-04 14:24:40.28	25.03	17.84	-38.8	-39.8	23.5	0.00e+00	0	37	0	530579456	56	5809
2026-01-04 14:24:41.29	25.07	17.96	-38.8	-39.8	23.5	0.00e+00	0	37	0	534773760	56	5812
2026-01-04 14:24:42.30	25.11	18.08	-38.6	-39.5	23.7	0.00e+00	0	37	0	537919488	56	5632
2026-01-04 14:24:43.31	25.15	18.20	-38.4	-39.4	23.6	0.00e+00	0	37	0	541065216	56	5545
2026-01-04 14:24:44.32	25.19	18.32	-38.5	-39.4	23.7	0.00e+00	0	37	0	544210944	56	5574
2026-01-04 14:24:45.33	25.23	18.44	-38.4	-39.3	23.8	0.00e+00	0	37	0	547356672	56	5513
2026-01-04 14:24:46.34	25.28	18.57	-38.4	-39.4	23.8	0.00e+00	0	37	0	550502400	56	5536
2026-01-04 14:24:47.35	25.32	18.69	-38.4	-39.3	23.8	0.00e+00	0	37	0	553648128	56	5527
2026-01-04 14:24:48.37	25.36	18.81	-38.4	-39.4	23.8	0.00e+00	0	37	0	556793856	56	5534
2026-01-04 14:24:49.38	25.40	18.94	-38.3	-39.2	23.9	0.00e+00	0	37	0	559939584	56	5440
2026-01-04 14:24:50.39	25.45	19.06	-38.3	-39.3	23.9	0.00e+00	0	37	0	563085312	56	5473
2026-01-04 14:24:51.40	25.49	19.18	-38.4	-39.3	23.8	0.00e+00	0	37	0	566231040	56	5508
2026-01-04 14:24:52.41	25.53	19.31	-38.2	-39.2	24.0	0.00e+00	0	37	0	569376768	56	5410
2026-01-04 14:24:53.42	25.58	19.44	-38.3	-39.2	23.9	0.00e+00	0	37	0	572522496	56	5429
2026-01-04 14:24:54.43	25.62	19.56	-38.2	-39.2	24.0	0.00e+00	0	37	0	575668224	56	5407
2026-01-04 14:24:55.44	25.67	19.69	-38.2	-39.1	23.9	0.00e+00	0	37	0	578813952	56	5384
2026-01-04 14:24:56.45	25.71	19.82	-38.1	-39.0	24.0	0.00e+00	0	37	0	581959680	54	5952
2026-01-04 14:24:57.47	25.76	19.95	-38.0	-39.0	24.0	0.00e+00	0	37	0	585105408	54	5930
2026-01-04 14:24:58.48	25.80	20.08	-37.9	-38.9	24.1	0.00e+00	0	37	0	588251136	54	5875
2026-01-04 14:24:59.49	25.85	20.21	-38.0	-38.9	24.0	0.00e+00	0	37	0	591396864	54	5903
2026-01-04 14:25:00.50	25.90	20.34	-38.1	-39.0	24.0	0.00e+00	0	37	0	594542592	54	5949
2026-01-04 14:25:01.51	25.94	20.47	-37.8	-38.7	24.2	0.00e+00	0	37	0	597688320	54	5761
2026-01-04 14:25:02.52	25.99	20.60	-37.9	-38.8	24.2	0.00e+00	0	37	0	600834048	54	5853
2026-01-04 14:25:03.53	26.04	20.73	-37.7	-38.6	24.4	0.00e+00	0	37	0	603979776	54	5691
2026-01-04 14:25:04.54	26.09	20.87	-37.7	-38.6	24.3	0.00e+00	0	37	0	607125504	54	5695
2026-01-04 14:25:05.55	26.14	21.00	-37.7	-38.6	24.4	0.00e+00	0	37	0	610271232	54	5677
2026-01-04 14:25:06.57	26.19	21.14	-37.7	-38.6	24.4	0.00e+00	0	37	0	613416960	54	5687
2026-01-04 14:25:07.58	26.24	21.27	-37.6	-38.5	24.4	0.00e+00	0	37	0	616562688	54	5649
2026-01-04 14:25:08.59	26.28	21.41	-37.7	-38.6	24.4	0.00e+00	0	37	0	619708416	54	5699
2026-01-04 14:25:09.60	26.33	21.54	-37.5	-38.4	24.5	0.00e+00	0	37	0	622854144	54	5572
2026-01-04 14:25:10.61	26.39	21.68	-37.5	-38.4	24.6	0.00e+00	0	37	0	625999872	54	5548
2026-01-04 14:25:11.62	26.44	21.82	-37.3	-38.2	24.7	0.00e+00	0	37	0	629145600	54	5450
2026-01-04 14:25:12.63	26.49	21.96	-37.3	-38.2	24.7	0.00e+00	0	37	0	632291328	54	5420
2026-01-04 14:25:13.64	26.54	22.10	-37.3	-38.2	24.6	0.00e+00	0	37	0	635437056	54	5447
2026-01-04 14:25:14.65	26.59	22.24	-37.4	-38.3	24.6	0.00e+00	0	37	0	638582784	54	5497
2026-01-04 14:25:15.67	26.64	22.38	-37.4	-38.3	24.6	0.00e+00	0	37	0	641728512	54	5500
2026-01-04 14:25:16.68	26.70	22.52	-37.4	-38.3	24.6	0.00e+00	0	37	0	644874240	54	5519
2026-01-04 14:25:17.69	26.75	22.67	-37.4	-38.3	24.6	0.00e+00	0	37	0	648019968	54	5508
2026-01-04 14:25:18.70	26.80	22.81	-37.2	-38.1	24.7	0.00e+00	0	37	0	651165696	52	6011
2026-01-04 14:25:19.71	26.86	22.96	-36.9	-37.8	25.0	0.00e+00	0	37	0	654311424	52	5809
2026-01-04 14:25:20.72	26.91	23.10	-36.9	-37.8	25.0	0.00e+00	0	37	0	657457152	52	5833
2026-01-04 14:25:21.73	26.97	23.25	-36.9	-37.8	25.0	0.00e+00	0	37	0	660602880	52	5838
2026-01-04 14:25:22.74	27.02	23.39	-36.9	-37.7	24.9	0.00e+00	0	37	0	663748608	52	5791
2026-01-04 14:25:23.75	27.08	23.54	-36.9	-37.8	25.0	0.00e+00	0	37	0	666894336	52	5828
2026-01-04 14:25:24.76	27.14	23.69	-37.0	-37.9	24.9	0.00e+00	0	37	0	670040064	52	5873
2026-01-04 14:25:25.78	27.20	23.84	-36.9	-37.7	25.0	0.00e+00	0	37	0	673185792	52	5782
2026-01-04 14:25:26.79	27.25	23.99	-36.7	-37.6	25.0	0.00e+00	0	37	0	676331520	52	5673
2026-01-04 14:25:27.80	27.31	24.14	-36.8	-37.7	25.0	0.00e+00	0	37	0	679477248	52	5766
2026-01-04 14:25:28.81	27.37	24.29	-36.7	-37.6	25.1	0.00e+00	0	37	0	682622976	52	5693
2026-01-04 14:25:29.82	27.43	24.45	-36.9	-37.7	25.1	0.00e+00	0	37	0	685768704	52	5788
2026-01-04 14:25:30.83	27.49	24.60	-36.9	-37.8	25.1	0.00e+00	0	37	0	688914432	52	5829
2026-01-04 14:25:31.84	27.55	24.75	-37.0	-37.9	25.0	0.00e+00	0	37	0	692060160	52	5890
2026-01-04 14:25:32.85	27.61	24.91	-37.1	-37.9	25.0	0.00e+00	0	37	0	695205888	52	5921
2026-01-04 14:25:33.86	27.67	25.07	-37.1	-38.0	24.9	0.00e+00	0	37	0	698351616	52	5953
2026-01-04 14:25:34.87	27.73	25.22	-37.2	-38.1	24.9	0.00e+00	0	37	0	701497344	52	6035
2026-01-04 14:25:35.89	27.80	25.38	-37.2	-38.1	24.9	0.00e+00	0	37	0	704643072	52	6035
2026-01-04 14:25:36.90	27.86	25.54	-37.3	-38.1	24.9	0.00e+00	0	37	0	707788800	52	6056
2026-01-04 14:25:37.91	27.93	25.70	-37.5	-38.4	24.7	0.00e+00	0	37	0	710934528	52	6217
2026-01-04 14:25:38.92	27.99	25.86	-37.7	-38.6	24.6	0.00e+00	0	37	0	714080256	52	6390
2026-01-04 14:25:39.93	28.05	26.02	-37.7	-38.6	24.6	0.00e+00	0	37	0	717225984	52	6401
2026-01-04 14:25:40.94	28.12	26.19	-37.8	-38.7	24.6	0.00e+00	0	37	0	720371712	52	6443
2026-01-04 14:25:41.95	28.19	26.35	-37.8	-38.7	24.5	0.00e+00	0	37	0	723517440	52	6450
2026-01-04 14:25:42.96	28.25	26.51	-37.9	-38.8	24.4	0.00e+00	0	37	0	726663168	52	6513
2026-01-04 14:25:43.98	28.32	26.68	-37.9	-38.8	24.4	0.00e+00	0	37	0	729808896	52	6571
2026-01-04 14:25:44.99	28.39	26.85	-38.0	-38.9	24.3	0.00e+00	0	37	0	732954624	52	6595
2026-01-04 14:25:46.00	28.46	27.02	-38.1	-39.0	24.3	0.00e+00	0	37	0	736100352	52	6704
2026-01-04 14:25:47.01	28.53	27.18	-38.0	-38.9	24.2	0.00e+00	0	37	0	739246080	52	6646
2026-01-04 14:25:48.02	28.60	27.35	-38.2	-39.1	24.2	0.00e+00	0	37	0	742391808	54	6019
2026-01-04 14:25:49.03	28.67	27.52	-38.3	-39.2	24.1	0.00e+00	0	37	0	746586112	54	6102
2026-01-04 14:25:50.05	28.74	27.70	-38.4	-39.3	24.0	0.00e+00	0	37	0	749731840	54	6204
2026-01-04 14:25:51.06	28.82	27.87	-38.4	-39.3	23.9	0.00e+00	0	37	0	751828992	54	6197
2026-01-04 14:25:52.07	28.89	28.04	-38.7	-39.6	23.6	0.00e+00	0	37	0	754974720	54	6407
2026-01-04 14:25:53.08	28.96	28.22	-38.9	-39.8	23.5	0.00e+00	0	37	0	758120448	54	6545
2026-01-04 14:25:54.09	29.04	28.40	-39.0	-40.0	23.5	0.00e+00	0	37	0	762314752	54	6686
2026-01-04 14:25:55.10	29.11	28.57	-39.2	-40.1	23.5	0.00e+00	0	37	0	765460480	56	6045
2026-01-04 14:25:56.11	29.19	28.75	-39.3	-40.3	23.3	0.00e+00	0	37	0	768606208	56	6176
2026-01-04 14:25:57.12	29.27	28.93	-39.3	-40.3	23.2	0.00e+00	0	37	0	771751936	56	6190
2026-01-04 14:25:58.13	29.34	29.11	-39.3	-40.3	23.2	0.00e+00	0	37	0	774897664	56	6173
2026-01-04 14:25:59.14	29.42	29.29	-39.1	-40.1	23.3	0.00e+00	0	37	0	778043392	56	6013
2026-01-04 14:26:00.16	29.50	29.47	-39.0	-40.0	23.4	0.00e+00	0	37	0	781189120	56	5964
2026-01-04 14:26:01.17	29.58	29.66	-38.8	-39.8	23.5	0.00e+00	0	37	0	784334848	56	5803
2026-01-04 14:26:02.18	29.67	29.84	-38.7	-39.7	23.8	0.00e+00	0	37	0	787480576	56	5731
2026-01-04 14:26:03.19	29.75	30.03	-38.6	-39.6	23.8	0.00e+00	0	37	0	790626304	56	5683
2026-01-04 14:26:04.20	29.83	30.22	-38.3	-39.2	24.1	0.00e+00	0	37	0	793772032	56	5453
2026-01-04 14:26:05.21	29.92	30.40	-38.4	-39.3	24.1	0.00e+00	0	37	0	796917760	56	5491
2026-01-04 14:26:06.22	30.00	30.59	-38.3	-39.2	24.2	0.00e+00	0	37	0	800063488	56	5444
2026-01-04 14:26:07.23	30.09	30.78	-38.4	-39.3	24.2	0.00e+00	0	37	0	803209216	54	6181
2026-01-04 14:26:08.24	30.17	30.98	-38.2	-39.2	24.3	0.00e+00	0	37	0	806354944	54	6066
2026-01-04 14:26:09.25	30.26	31.17	-38.3	-39.2	24.3	0.00e+00	0	37	0	809500672	54	6128
2026-01-04 14:26:10.27	30.35	31.36	-38.1	-39.0	24.4	0.00e+00	0	37	0	812646400	54	5959
2026-01-04 14:26:11.28	30.44	31.56	-38.0	-38.9	24.5	0.00e+00	0	37	0	815792128	54	5909
2026-01-04 14:26:12.29	30.53	31.76	-37.9	-38.8	24.4	0.00e+00	0	37	0	818937856	54	5844
2026-01-04 14:26:13.30	30.62	31.95	-38.1	-39.1	24.5	0.00e+00	0	37	0	822083584	54	6004
2026-01-04 14:26:14.31	30.72	32.15	-38.1	-39.0	24.4	0.00e+00	0	37	0	825229312	54	5978
2026-01-04 14:26:15.32	30.81	32.35	-38.2	-39.2	24.3	0.00e+00	0	37	0	828375040	54	6076
2026-01-04 14:26:16.33	30.91	32.56	-38.3	-39.3	24.2	0.00e+00	0	37	0	831520768	54	6152
2026-01-04 14:26:17.34	31.00	32.76	-38.3	-39.2	24.4	0.00e+00	0	37	0	834666496	54	6076
2026-01-04 14:26:18.35	31.10	32.96	-38.3	-39.2	24.2	0.00e+00	0	37	0	837812224	54	6121
2026-01-04 14:26:19.37	31.20	33.17	-38.5	-39.4	24.3	0.00e+00	0	37	0	840957952	54	6273
2026-01-04 14:26:20.38	31.30	33.38	-38.4	-39.4	24.2	0.00e+00	0	37	0	844103680	54	6206
2026-01-04 14:26:21.39	31.40	33.59	-38.5	-39.4	24.0	0.00e+00	0	37	0	847249408	54	6266
2026-01-04 14:26:22.40	31.51	33.80	-38.8	-39.7	24.0	0.00e+00	0	37	0	850395136	54	6474
2026-01-04 14:26:23.41	31.61	34.01	-38.7	-39.6	23.9	0.00e+00	0	37	0	853540864	54	6423
2026-01-04 14:26:24.42	31.71	34.22	-39.1	-40.1	23.6	0.00e+00	0	37	0	856686592	54	6756
2026-01-04 14:26:25.43	31.82	34.43	-39.3	-40.3	23.5	0.00e+00	0	37	0	859832320	56	6142
2026-01-04 14:26:26.44	31.93	34.65	-39.4	-40.4	23.4	0.00e+00	0	37	0	862978048	56	6217
2026-01-04 14:26:27.45	32.04	34.86	-39.5	-40.5	23.3	0.00e+00	0	37	0	866123776	56	6285
2026-01-04 14:26:28.47	32.15	35.08	-39.6	-40.5	23.2	0.00e+00	0	37	0	869269504	56	6333
2026-01-04 14:26:29.48	32.26	35.30	-39.9	-40.9	22.9	0.00e+00	0	37	0	872415232	56	6611
2026-01-04 14:26:30.49	32.38	35.52	-39.8	-40.7	23.0	0.00e+00	0	37	0	875560960	56	6496
2026-01-04 14:26:31.50	32.49	35.75	-39.7	-40.7	23.1	0.00e+00	0	37	0	878706688	56	6443
2026-01-04 14:26:32.51	32.61	35.97	-39.6	-40.5	23.2	0.00e+00	0	37	0	881852416	56	6348
2026-01-04 14:26:33.52	32.73	36.19	-39.6	-40.6	23.2	0.00e+00	0	37	0	884998144	56	6382
2026-01-04 14:26:34.53	32.84	36.42	-39.5	-40.5	23.3	0.00e+00	0	37	0	888143872	56	6312
2026-01-04 14:26:35.54	32.97	36.65	-39.6	-40.5	23.2	0.00e+00	0	37	0	891289600	56	6323
2026-01-04 14:26:36.55	33.09	36.88	-39.5	-40.5	23.2	0.00e+00	0	37	0	894435328	56	6294
2026-01-04 14:26:37.56	33.21	37.11	-39.7	-40.6	23.1	0.00e+00	0	37	0	897581056	56	6404
2026-01-04 14:26:38.57	33.34	37.34	-39.7	-40.6	23.2	0.00e+00	0	37	0	900726784	56	6419
2026-01-04 14:26:39.58	33.47	37.57	-39.5	-40.5	23.3	0.00e+00	0	37	0	903872512	56	6304
2026-01-04 14:26:40.59	33.60	37.81	-39.5	-40.4	23.4	0.00e+00	0	37	0	907018240	56	6232
2026-01-04 14:26:41.61	33.73	38.05	-39.4	-40.4	23.5	0.00e+00	0	37	0	910163968	56	6228
2026-01-04 14:26:42.62	33.86	38.29	-39.5	-40.4	23.4	0.00e+00	0	37	0	913309696	56	6275
2026-01-04 14:26:43.63	34.00	38.53	-39.3	-40.3	23.5	0.00e+00	0	37	0	916455424	56	6154
2026-01-04 14:26:44.64	34.14	38.77	-39.5	-40.5	23.2	0.00e+00	0	37	0	919601152	56	6307
2026-01-04 14:26:45.65	34.28	39.01	-39.8	-40.8	23.3	0.00e+00	0	37	0	922746880	56	6526
2026-01-04 14:26:46.66	34.42	39.25	-39.7	-40.6	23.1	0.00e+00	0	37	0	925892608	56	6395
2026-01-04 14:26:47.67	34.56	39.50	-39.8	-40.8	23.1	0.00e+00	0	37	0	929038336	56	6519
2026-01-04 14:26:48.68	34.71	39.75	-39.8	-40.8	23.0	0.00e+00	0	37	0	932184064	56	6561
2026-01-04 14:26:49.70	34.86	40.00	-40.1	-41.1	22.7	0.00e+00	0	37	0	935329792	58	6055
2026-01-04 14:26:50.71	35.01	40.25	-40.2	-41.2	22.6	0.00e+00	0	37	0	938475520	58	6104
2026-01-04 14:26:51.72	35.16	40.50	-40.2	-41.3	22.6	0.00e+00	0	37	0	941621248	58	6137
2026-01-04 14:26:52.73	35.31	40.76	-40.7	-41.8	22.2	0.00e+00	0	37	0	944766976	58	6536
2026-01-04 14:26:53.74	35.47	41.01	-40.8	-41.9	22.0	0.00e+00	0	37	0	947912704	58	6615
2026-01-04 14:26:54.75	35.63	41.27	-41.4	-42.6	21.6	0.00e+00	0	37	0	951058432	60	6362
2026-01-04 14:26:55.76	35.79	41.53	-41.4	-42.5	21.7	0.00e+00	0	37	0	954204160	60	6325
2026-01-04 14:26:56.77	35.96	41.79	-41.5	-42.6	21.7	0.00e+00	0	37	0	957349888	60	6402
2026-01-04 14:26:57.78	36.13	42.05	-41.9	-43.1	21.2	0.00e+00	0	37	0	960495616	60	6775
2026-01-04 14:26:58.79	36.30	42.31	-41.5	-42.7	21.3	0.00e+00	0	37	0	963641344	60	6427
2026-01-04 14:26:59.81	36.47	42.58	-41.5	-42.7	21.4	0.00e+00	0	37	0	966787072	60	6426
2026-01-04 14:27:00.82	36.65	42.85	-41.6	-42.8	21.2	0.00e+00	0	37	0	969932800	60	6525
2026-01-04 14:27:01.83	36.82	43.12	-41.8	-42.9	21.4	0.00e+00	0	37	0	973078528	60	6619
2026-01-04 14:27:02.84	37.01	43.39	-42.0	-43.1	21.1	0.00e+00	0	37	0	976224256	60	6796
2026-01-04 14:27:03.85	37.19	43.66	-42.0	-43.2	21.2	0.00e+00	0	37	0	979369984	60	6812
2026-01-04 14:27:04.86	37.38	43.93	-41.7	-42.9	21.2	0.00e+00	0	37	0	982515712	60	6608
2026-01-04 14:27:05.87	37.57	44.21	-41.9	-43.1	21.2	0.00e+00	0	37	0	985661440	60	6738
2026-01-04 14:27:06.88	37.76	44.48	-41.4	-42.5	21.4	0.00e+00	0	37	0	989855744	60	6343
2026-01-04 14:27:07.89	37.96	44.76	-41.9	-43.1	21.2	0.00e+00	0	37	0	993001472	60	6740
2026-01-04 14:27:08.91	38.16	45.04	-41.5	-42.6	21.2	0.00e+00	0	37	0	996147200	60	6410
2026-01-04 14:27:09.92	38.37	45.32	-41.3	-42.5	21.2	0.00e+00	0	37	0	998244352	60	6294
2026-01-04 14:27:10.93	38.57	45.61	-41.3	-42.5	21.3	0.00e+00	0	37	0	1001390080	60	6322
2026-01-04 14:27:11.94	38.79	45.89	-41.0	-42.1	21.6	0.00e+00	0	37	0	1005584384	60	6060
2026-01-04 14:27:12.95	39.00	46.18	-40.6	-41.7	22.0	0.00e+00	0	37	0	1008730112	60	5739
2026-01-04 14:27:13.96	39.22	46.47	-40.2	-41.2	22.3	0.00e+00	0	37	0	1011875840	60	5422
2026-01-04 14:27:14.97	39.44	46.76	-40.1	-41.1	22.7	0.00e+00	0	37	0	1015021568	58	6063
2026-01-04 14:27:15.98	39.67	47.05	-40.2	-41.2	22.4	0.00e+00	0	37	0	1018167296	58	6087
2026-01-04 14:27:16.99	39.90	47.34	-40.0	-41.0	22.6	0.00e+00	0	37	0	1021313024	58	5959
2026-01-04 14:27:18.01	40.14	47.64	-39.7	-40.7	23.0	0.00e+00	0	37	0	1024458752	58	5728
2026-01-04 14:27:19.02	40.38	47.93	-39.5	-40.5	23.1	0.00e+00	0	37	0	1027604480	58	5624
2026-01-04 14:27:20.03	40.62	48.23	-39.2	-40.1	23.4	0.00e+00	0	37	0	1030750208	58	5403
2026-01-04 14:27:21.04	40.87	48.53	-39.2	-40.2	23.4	0.00e+00	0	37	0	1033895936	58	5431
2026-01-04 14:27:22.05	41.13	48.83	-39.4	-40.3	23.3	0.00e+00	0	37	0	1037041664	58	5514
2026-01-04 14:27:23.06	41.39	49.13	-39.6	-40.6	23.1	0.00e+00	0	37	0	1040187392	58	5663
2026-01-04 14:27:24.07	41.65	49.43	-39.9	-40.9	22.9	0.00e+00	0	37	0	1043333120	58	5914
2026-01-04 14:27:25.08	41.92	49.73	-39.9	-40.9	22.9	0.00e+00	0	37	0	1046478848	58	5884
2026-01-04 14:27:26.09	42.20	50.04	-40.1	-41.1	22.7	0.00e+00	0	37	0	1049624576	58	6037
2026-01-04 14:27:27.10	42.48	50.35	-40.2	-41.2	22.8	0.00e+00	0	37	0	1052770304	58	6118
2026-01-04 14:27:28.11	42.76	50.66	-40.3	-41.3	22.7	0.00e+00	0	37	0	1055916032	58	6204
2026-01-04 14:27:29.12	43.05	50.96	-40.3	-41.4	22.6	0.00e+00	0	37	0	1059061760	58	6222
2026-01-04 14:27:30.13	43.35	51.28	-40.3	-41.4	22.6	0.00e+00	0	37	0	1062207488	58	6233
2026-01-04 14:27:31.15	43.66	51.59	-40.2	-41.3	22.7	0.00e+00	0	37	0	1065353216	58	6157
2026-01-04 14:27:32.16	43.97	51.90	-39.9	-40.9	23.0	0.00e+00	0	37	0	1068498944	58	5885
2026-01-04 14:27:33.17	44.29	52.22	-39.8	-40.8	22.9	0.00e+00	0	37	0	1071644672	58	5855
2026-01-04 14:27:34.18	44.61	52.54	-39.5	-40.5	23.2	0.00e+00	0	37	0	1074790400	58	5607
2026-01-04 14:27:35.19	44.94	52.85	-39.6	-40.6	23.3	0.00e+00	0	37	0	1077936128	58	5663
2026-01-04 14:27:36.20	45.28	53.17	-39.4	-40.4	23.2	0.00e+00	0	37	0	1081081856	58	5535
2026-01-04 14:27:37.21	45.62	53.49	-39.6	-40.6	23.1	0.00e+00	0	37	0	1084227584	58	5714
2026-01-04 14:27:38.22	45.98	53.81	-39.5	-40.5	23.3	0.00e+00	0	37	0	1087373312	58	5645
2026-01-04 14:27:39.23	46.34	54.13	-39.5	-40.5	23.2	0.00e+00	0	37	0	1090519040	58	5644
2026-01-04 14:27:40.25	46.71	54.46	-39.6	-40.6	23.2	0.00e+00	0	37	0	1093664768	58	5681
2026-01-04 14:27:41.26	47.09	54.78	-39.2	-40.2	23.4	0.00e+00	0	37	0	1096810496	58	5440
2026-01-04 14:27:42.27	47.47	55.10	-38.9	-39.9	23.8	0.00e+00	0	37	0	1099956224	56	5901
2026-01-04 14:27:43.28	47.86	55.43	-38.9	-39.9	23.9	0.00e+00	0	37	0	1103101952	56	5880
2026-01-04 14:27:44.29	48.27	55.75	-38.8	-39.8	23.6	0.00e+00	0	37	0	1106247680	56	5854
2026-01-04 14:27:45.30	48.68	56.08	-38.8	-39.8	23.8	0.00e+00	0	37	0	1109393408	56	5804
2026-01-04 14:27:46.31	49.10	56.40	-38.9	-39.8	23.8	0.00e+00	0	37	0	1112539136	56	5837
2026-01-04 14:27:47.32	49.54	56.73	-38.6	-39.5	23.9	0.00e+00	0	37	0	1115684864	56	5634
2026-01-04 14:27:48.33	49.98	57.05	-38.6	-39.5	24.0	0.00e+00	0	37	0	1118830592	56	5621
2026-01-04 14:27:49.35	50.44	57.38	-38.4	-39.4	24.2	0.00e+00	0	37	0	1121976320	56	5542
2026-01-04 14:27:50.36	50.90	57.71	-38.4	-39.3	24.2	0.00e+00	0	37	0	1125122048	56	5504
2026-01-04 14:27:51.37	51.38	58.04	-38.9	-39.8	24.0	0.00e+00	0	37	0	1128267776	56	5843
2026-01-04 14:27:52.38	51.86	58.37	-38.0	-38.9	24.4	0.00e+00	0	37	0	1131413504	54	5917
2026-01-04 14:27:53.39	52.36	58.69	-37.8	-38.6	24.6	0.00e+00	0	37	0	1134559232	54	5718
2026-01-04 14:27:54.40	52.87	59.02	-37.7	-38.6	24.2	0.00e+00	0	37	0	1137704960	54	5702
2026-01-04 14:27:55.41	53.40	59.35	-37.8	-38.7	24.7	0.00e+00	0	37	0	1140850688	54	5787
2026-01-04 14:27:56.42	53.94	59.67	-37.4	-38.3	24.7	0.00e+00	0	37	0	1143996416	54	5503
2026-01-04 14:27:57.43	54.49	60.00	-37.0	-37.9	25.0	0.00e+00	0	37	0	1147142144	52	5873
2026-01-04 14:27:58.44	55.05	60.32	-36.7	-37.5	25.3	0.00e+00	0	37	0	1150287872	52	5641
2026-01-04 14:27:59.46	55.64	60.65	-36.7	-37.6	25.3	0.00e+00	0	37	0	1153433600	52	5673
2026-01-04 14:28:00.47	56.23	60.97	-37.5	-38.4	24.7	0.00e+00	0	37	0	1156579328	52	6211
2026-01-04 14:28:01.48	56.84	61.29	-37.4	-38.3	25.0	0.00e+00	0	37	0	1159725056	52	6149
2026-01-04 14:28:02.49	57.47	61.61	-37.3	-38.2	25.0	0.00e+00	0	37	0	1162870784	52	6071
2026-01-04 14:28:03.50	58.11	61.93	-36.9	-37.8	25.1	0.00e+00	0	37	0	1166016512	52	5794
2026-01-04 14:28:04.51	58.77	62.25	-36.9	-37.7	25.4	0.00e+00	0	37	0	1169162240	52	5772
2026-01-04 14:28:05.52	59.45	62.56	-36.8	-37.7	25.2	0.00e+00	0	37	0	1172307968	52	5742
2026-01-04 14:28:06.53	60.14	62.88	-36.8	-37.6	25.3	0.00e+00	0	37	0	1175453696	52	5718
2026-01-04 14:28:07.54	60.85	63.19	-36.8	-37.6	25.4	0.00e+00	0	37	0	1178599424	52	5699
2026-01-04 14:28:08.56	61.59	63.50	-36.8	-37.6	25.4	0.00e+00	0	37	0	1181745152	52	5704
2026-01-04 14:28:09.57	62.34	63.81	-36.6	-37.5	25.3	0.00e+00	0	37	0	1184890880	52	5610
2026-01-04 14:28:10.58	63.11	64.11	-36.8	-37.7	24.9	0.00e+00	0	37	0	1188036608	52	5756
2026-01-04 14:28:11.59	63.90	64.41	-36.3	-37.2	25.1	0.00e+00	0	37	0	1191182336	52	5430
2026-01-04 14:28:12.60	64.71	64.71	-35.8	-36.7	25.5	0.00e+00	0	37	0	1194328064	50	5736
2026-01-04 14:28:13.61	65.54	65.00	-36.4	-37.2	25.0	0.00e+00	0	37	0	1197473792	50	6104
2026-01-04 14:28:14.62	66.40	65.29	-36.4	-37.3	25.0	0.00e+00	0	37	0	1200619520	50	6186
2026-01-04 14:28:15.63	67.28	65.58	-36.5	-37.4	25.2	0.00e+00	0	37	0	1203765248	50	6228
2026-01-04 14:28:16.65	68.18	65.87	-36.6	-37.5	25.2	0.00e+00	0	37	0	1206910976	50	6297
2026-01-04 14:28:17.66	69.11	66.14	-37.0	-37.9	25.2	0.00e+00	0	37	0	1210056704	50	6578
2026-01-04 14:28:18.67	70.05	66.42	-36.7	-37.5	25.3	0.00e+00	0	37	0	1213202432	50	6349
2026-01-04 14:28:19.68	71.02	66.68	-36.8	-37.7	25.1	0.00e+00	0	37	0	1216348160	50	6435
2026-01-04 14:28:20.69	72.02	66.95	-37.4	-38.3	24.9	0.00e+00	0	37	0	1219493888	52	6192
2026-01-04 14:28:21.70	73.04	67.20	-37.4	-38.3	24.8	0.00e+00	0	37	0	1222639616	52	6154
2026-01-04 14:28:22.71	74.08	67.45	-36.8	-37.7	25.2	0.00e+00	0	37	0	1225785344	52	5765
2026-01-04 14:28:23.72	75.16	67.70	-37.2	-38.0	25.0	0.00e+00	0	37	0	1228931072	52	5985
2026-01-04 14:28:24.73	76.25	67.94	-37.3	-38.1	25.2	0.00e+00	0	37	0	1232076800	52	6062
2026-01-04 14:28:25.74	77.37	68.17	-36.6	-37.5	25.4	0.00e+00	0	37	0	1236271104	52	5628
2026-01-04 14:28:26.76	78.53	68.39	-36.7	-37.6	25.5	0.00e+00	0	37	0	1239416832	52	5672
2026-01-04 14:28:27.77	79.70	68.61	-36.7	-37.5	25.3	0.00e+00	0	37	0	1242562560	52	5652
2026-01-04 14:28:28.78	80.90	68.82	-36.6	-37.5	25.2	0.00e+00	0	37	0	1244659712	52	5650
2026-01-04 14:28:29.79	82.12	69.02	-36.7	-37.6	25.1	0.00e+00	0	37	0	1248854016	52	5696
2026-01-04 14:28:30.80	83.37	69.21	-36.8	-37.7	25.4	0.00e+00	0	37	0	1251999744	52	5733
2026-01-04 14:28:31.81	84.64	69.39	-36.3	-37.1	25.4	0.00e+00	0	37	0	1255145472	52	5397
2026-01-04 14:28:32.82	85.94	69.57	-36.4	-37.2	25.4	0.00e+00	0	37	0	1258291200	52	5454
2026-01-04 14:28:33.83	87.26	69.73	-36.6	-37.5	25.6	0.00e+00	0	37	0	1261436928	52	5606
2026-01-04 14:28:34.84	88.60	69.89	-36.1	-36.9	25.8	0.00e+00	0	37	0	1264582656	50	5922
2026-01-04 14:28:35.85	89.96	70.03	-36.1	-36.9	25.8	0.00e+00	0	37	0	1267728384	50	5906
2026-01-04 14:28:36.87	91.36	70.16	-36.1	-36.9	25.5	0.00e+00	0	37	0	1270874112	50	5909
2026-01-04 14:28:37.88	92.76	70.29	-36.3	-37.2	25.6	0.00e+00	0	37	0	1274019840	50	6073
2026-01-04 14:28:38.89	94.19	70.40	-36.0	-36.8	25.8	0.00e+00	0	37	0	1277165568	50	5833
2026-01-04 14:28:39.90	95.62	70.50	-36.0	-36.8	25.3	0.00e+00	0	37	0	1280311296	50	5856
2026-01-04 14:28:40.91	97.07	70.59	-36.4	-37.3	24.8	0.00e+00	0	37	0	1283457024	50	6167
2026-01-04 14:28:41.92	98.54	70.67	-36.4	-37.3	25.0	0.00e+00	0	37	0	1286602752	50	6173
2026-01-04 14:28:42.93	100.02	70.73	-36.4	-37.2	25.3	0.00e+00	0	37	0	1289748480	50	6120
2026-01-04 14:28:43.94	101.50	70.79	-36.5	-37.4	24.7	0.00e+00	0	37	0	1292894208	50	6269
2026-01-04 14:28:44.95	103.00	70.83	-36.7	-37.6	25.0	0.00e+00	0	37	0	1296039936	50	6406
2026-01-04 14:28:45.96	104.50	70.86	-37.3	-38.2	25.2	0.00e+00	0	37	0	1299185664	52	6109
2026-01-04 14:28:46.98	106.02	70.87	-36.8	-37.6	25.4	0.00e+00	0	37	0	1302331392	52	5714
2026-01-04 14:28:47.99	107.53	70.88	-36.8	-37.6	25.1	0.00e+00	0	37	0	1305477120	52	5723
2026-01-04 14:28:49.00	109.03	70.87	-36.7	-37.6	25.1	0.00e+00	0	37	0	1308622848	52	5698
2026-01-04 14:28:50.01	110.54	70.85	-37.2	-38.1	24.8	0.00e+00	0	37	0	1311768576	52	6057
2026-01-04 14:28:51.02	112.04	70.82	-37.3	-38.2	24.9	0.00e+00	0	37	0	1314914304	52	6119
2026-01-04 14:28:52.03	113.53	70.77	-37.0	-37.9	24.9	0.00e+00	0	37	0	1318060032	52	5885
2026-01-04 14:28:53.04	115.01	70.72	-36.7	-37.6	25.3	0.00e+00	0	37	0	1321205760	52	5707
2026-01-04 14:28:54.05	116.49	70.65	-36.4	-37.3	25.5	0.00e+00	0	37	0	1324351488	52	5471
2026-01-04 14:28:55.07	117.96	70.57	-36.3	-37.2	25.6	0.00e+00	0	37	0	1327497216	52	5410
2026-01-04 14:28:56.08	119.41	70.47	-36.4	-37.3	25.3	0.00e+00	0	37	0	1330642944	50	6174
2026-01-04 14:28:57.09	120.85	70.37	-36.8	-37.7	25.0	0.00e+00	0	37	0	1333788672	50	6444
2026-01-04 14:28:58.10	122.26	70.25	-37.0	-37.9	24.9	0.00e+00	0	37	0	1336934400	50	6609
2026-01-04 14:28:59.11	123.66	70.13	-37.1	-38.0	25.1	0.00e+00	0	37	0	1340080128	52	5951
2026-01-04 14:29:00.12	125.04	69.99	-37.2	-38.1	25.0	0.00e+00	0	37	0	1343225856	52	6030
2026-01-04 14:29:01.13	126.40	69.85	-37.4	-38.3	25.1	0.00e+00	0	37	0	1346371584	52	6151
2026-01-04 14:29:02.14	127.74	69.69	-37.5	-38.5	25.0	0.00e+00	0	37	0	1349517312	52	6281
2026-01-04 14:29:03.15	129.05	69.52	-37.1	-38.0	25.2	0.00e+00	0	37	0	1352663040	52	5946
2026-01-04 14:29:04.17	130.35	69.34	-36.8	-37.6	25.5	0.00e+00	0	37	0	1355808768	52	5721
2026-01-04 14:29:05.18	131.62	69.16	-36.0	-36.9	25.9	0.00e+00	0	37	0	1358954496	50	5865
2026-01-04 14:29:06.19	132.86	68.96	-35.6	-36.5	26.1	0.00e+00	0	37	0	1362100224	50	5597
2026-01-04 14:29:07.20	134.08	68.76	-35.8	-36.6	26.0	0.00e+00	0	37	0	1365245952	50	5723
2026-01-04 14:29:08.21	135.27	68.55	-36.1	-37.0	25.8	0.00e+00	0	37	0	1368391680	50	5938
2026-01-04 14:29:09.22	136.44	68.33	-36.5	-37.4	25.5	0.00e+00	0	37	0	1371537408	50	6219
2026-01-04 14:29:10.23	137.58	68.10	-36.7	-37.6	25.4	0.00e+00	0	37	0	1374683136	50	6354
2026-01-04 14:29:11.24	138.69	67.87	-36.3	-37.2	25.8	0.00e+00	0	37	0	1377828864	50	6089
2026-01-04 14:29:12.25	139.78	67.63	-36.0	-36.8	25.9	0.00e+00	0	37	0	1380974592	50	5825
2026-01-04 14:29:13.27	140.86	67.38	-35.7	-36.5	25.9	0.00e+00	0	37	0	1384120320	50	5655
2026-01-04 14:29:14.28	141.90	67.13	-35.9	-36.7	25.9	0.00e+00	0	37	0	1387266048	50	5740
2026-01-04 14:29:15.29	142.91	66.87	-36.7	-37.6	25.3	0.00e+00	0	37	0	1390411776	50	6398
2026-01-04 14:29:16.30	143.90	66.60	-36.8	-37.6	25.3	0.00e+00	0	37	0	1393557504	50	6413
2026-01-04 14:29:17.31	144.86	66.34	-36.3	-37.1	25.5	0.00e+00	0	37	0	1396703232	50	6032
2026-01-04 14:29:18.32	145.81	66.06	-35.8	-36.6	25.9	0.00e+00	0	37	0	1399848960	50	5679
2026-01-04 14:29:19.33	146.72	65.78	-36.1	-36.9	25.8	0.00e+00	0	37	0	1402994688	50	5899
2026-01-04 14:29:20.34	147.62	65.50	-36.9	-37.8	25.4	0.00e+00	0	37	0	1406140416	50	6520
2026-01-04 14:29:21.35	148.49	65.21	-37.5	-38.4	24.8	0.00e+00	0	37	0	1409286144	52	6269
2026-01-04 14:29:22.36	149.34	64.92	-38.1	-39.0	23.9	0.00e+00	0	37	0	1412431872	52	6718
2026-01-04 14:29:23.38	150.17	64.62	-37.7	-38.7	24.1	0.00e+00	0	37	0	1415577600	54	5728
2026-01-04 14:29:24.39	150.98	64.32	-36.5	-37.4	25.2	0.00e+00	0	37	0	1418723328	52	5545
2026-01-04 14:29:25.40	151.77	64.02	-35.9	-36.8	25.8	0.00e+00	0	37	0	1421869056	50	5818
2026-01-04 14:29:26.41	152.53	63.71	-36.5	-37.3	25.6	0.00e+00	0	37	0	1425014784	50	6192
2026-01-04 14:29:27.42	153.28	63.40	-37.9	-38.8	24.5	0.00e+00	0	37	0	1428160512	52	6530
2026-01-04 14:29:28.43	154.00	63.09	-39.3	-40.4	23.9	7.00e-07	0	37	0	1431306240	54	6965
2026-01-04 14:29:29.44	154.71	62.78	-39.3	-40.3	23.0	0.00e+00	0	37	0	1434451968	56	6166
2026-01-04 14:29:30.45	155.40	62.47	-37.9	-38.9	23.3	0.00e+00	0	37	0	1437597696	56	5260
2026-01-04 14:29:31.46	156.07	62.15	-36.9	-37.8	25.0	0.00e+00	0	37	0	1440743424	52	5814
2026-01-04 14:29:32.48	156.73	61.83	-36.0	-36.8	26.0	0.00e+00	0	37	0	1443889152	52	5214
2026-01-04 14:29:33.49	157.37	61.51	-36.7	-37.5	25.4	0.00e+00	0	37	0	1447034880	50	6344
2026-01-04 14:29:34.50	157.99	61.19	-37.8	-38.7	25.0	0.00e+00	0	37	0	1450180608	52	6461
2026-01-04 14:29:35.51	158.60	60.86	-39.1	-40.0	23.8	0.00e+00	0	37	0	1453326336	54	6698
2026-01-04 14:29:36.52	159.19	60.54	-39.2	-40.2	23.6	0.00e+00	0	37	0	1456472064	56	6094
2026-01-04 14:29:37.53	159.77	60.22	-38.4	-39.4	23.9	0.00e+00	0	37	0	1459617792	56	5543
2026-01-04 14:29:38.54	160.33	59.89	-37.0	-37.9	24.9	0.00e+00	0	37	0	1463812096	52	5868
2026-01-04 14:29:39.55	160.88	59.56	-37.3	-38.1	24.9	0.00e+00	0	37	0	1465909248	52	6024
2026-01-04 14:29:40.57	161.41	59.23	-37.3	-38.1	25.5	0.00e+00	0	37	0	1469054976	52	6041
2026-01-04 14:29:41.58	161.94	58.91	-37.9	-38.7	24.7	0.00e+00	0	37	0	1472200704	52	6483
2026-01-04 14:29:42.59	162.44	58.58	-39.4	-40.4	23.5	0.00e+00	0	37	0	1476395008	56	6245
2026-01-04 14:29:43.60	162.94	58.25	-40.3	-41.4	22.7	0.00e+00	0	37	0	1479540736	58	6275
2026-01-04 14:29:44.61	163.43	57.92	-39.8	-40.9	22.5	0.00e+00	0	37	0	1482686464	58	5892
2026-01-04 14:29:45.62	163.90	57.59	-39.0	-40.0	22.7	0.00e+00	0	37	0	1485832192	56	5981
2026-01-04 14:29:46.63	164.36	57.27	-39.1	-40.0	23.2	0.00e+00	0	37	0	1488977920	56	5986
2026-01-04 14:29:47.65	164.81	56.94	-37.4	-38.2	25.0	0.00e+00	0	37	0	1492123648	54	5445
2026-01-04 14:29:48.66	165.25	56.61	-37.1	-37.9	25.3	0.00e+00	0	37	0	1495269376	52	5908
2026-01-04 14:29:49.67	165.68	56.28	-38.0	-38.9	24.7	0.00e+00	0	37	0	1498415104	52	6629
2026-01-04 14:29:50.68	166.10	55.95	-40.1	-41.2	22.6	0.00e+00	0	37	0	1501560832	56	6810
2026-01-04 14:29:51.69	166.51	55.63	-41.7	-43.0	21.0	0.00e+00	0	37	0	1504706560	60	6666
2026-01-04 14:29:52.70	166.92	55.30	-42.3	-43.5	22.0	0.00e+00	0	37	0	1507852288	60	7067
2026-01-04 14:29:53.71	167.31	54.98	-41.6	-42.7	21.1	0.00e+00	0	37	0	1510998016	60	6487
2026-01-04 14:29:54.72	167.69	54.65	-39.5	-40.5	22.8	0.00e+00	0	37	0	1514143744	58	5651
2026-01-04 14:29:55.73	168.07	54.33	-38.7	-39.6	24.2	0.00e+00	0	37	0	1517289472	56	5710
2026-01-04 14:29:56.74	168.43	54.01	-38.3	-39.2	24.7	0.00e+00	0	37	0	1520435200	56	5438
2026-01-04 14:29:57.76	168.79	53.68	-39.9	-40.9	23.5	0.00e+00	0	37	0	1523580928	54	7384
2026-01-04 14:29:58.77	169.15	53.36	-39.0	-39.9	24.1	0.00e+00	0	37	0	1526726656	54	6591
2026-01-04 14:29:59.78	169.49	53.04	-40.5	-41.5	22.8	0.00e+00	0	37	0	1529872384	60	5649
2026-01-04 14:30:00.79	169.82	52.72	-41.7	-42.9	21.6	0.00e+00	0	37	0	1533018112	60	6606
2026-01-04 14:30:01.80	170.15	52.41	-42.4	-43.6	21.3	0.00e+00	0	37	0	1536163840	60	7196
2026-01-04 14:30:02.81	170.48	52.09	-41.9	-43.1	21.3	0.00e+00	0	37	0	1539309568	60	6764
2026-01-04 14:30:03.82	170.79	51.77	-41.5	-42.6	21.1	0.00e+00	0	37	0	1542455296	60	6409
2026-01-04 14:30:04.83	171.10	51.46	-40.7	-41.8	21.8	0.00e+00	0	37	0	1545601024	60	5848
2026-01-04 14:30:05.85	171.40	51.14	-40.5	-41.5	22.9	0.00e+00	0	37	0	1548746752	60	5606
2026-01-04 14:30:06.86	171.70	50.83	-39.6	-40.6	23.7	0.00e+00	0	37	0	1551892480	58	5676
2026-01-04 14:30:07.87	171.99	50.52	-39.5	-40.4	23.4	0.00e+00	0	37	0	1555038208	58	5584
2026-01-04 14:30:08.88	172.28	50.21	-40.8	-41.8	22.8	0.00e+00	0	37	0	1558183936	58	6510
2026-01-04 14:30:09.89	172.55	49.91	-41.3	-42.3	22.0	0.00e+00	0	37	0	1561329664	58	6958
2026-01-04 14:30:10.90	172.83	49.60	-41.8	-42.9	21.9	0.00e+00	0	37	0	1564475392	60	6625
2026-01-04 14:30:11.91	173.10	49.29	-42.0	-43.1	21.8	7.00e-07	0	37	0	1567621120	60	6801
2026-01-04 14:30:12.92	173.36	48.99	-42.5	-43.7	21.1	0.00e+00	0	37	0	1570766848	60	7275
2026-01-04 14:30:13.93	173.62	48.69	-42.9	-44.1	21.0	0.00e+00	0	37	0	1573912576	60	7586
2026-01-04 14:30:14.95	173.87	48.39	-41.7	-42.7	22.1	0.00e+00	0	37	0	1577058304	60	6475
2026-01-04 14:30:15.96	174.12	48.09	-40.5	-41.5	22.9	0.00e+00	0	37	0	1580204032	60	5610
2026-01-04 14:30:16.97	174.36	47.79	-40.1	-41.1	22.7	0.00e+00	0	37	0	1583349760	58	6006
2026-01-04 14:30:17.98	174.60	47.49	-40.0	-40.9	23.1	0.00e+00	0	37	0	1586495488	58	5907
2026-01-04 14:30:18.99	174.84	47.20	-40.1	-41.1	22.9	0.00e+00	0	37	0	1589641216	58	6023
2026-01-04 14:30:20.00	175.07	46.91	-40.6	-41.6	22.9	0.00e+00	0	37	0	1592786944	58	6369
2026-01-04 14:30:21.01	175.29	46.62	-40.3	-41.3	22.7	0.00e+00	0	37	0	1595932672	58	6195
2026-01-04 14:30:22.02	175.51	46.33	-40.9	-41.9	22.5	0.00e+00	0	37	0	1599078400	58	6630
2026-01-04 14:30:23.03	175.73	46.04	-41.1	-42.1	22.3	0.00e+00	0	37	0	1602224128	58	6801
2026-01-04 14:30:24.05	175.95	45.75	-41.1	-42.2	22.4	0.00e+00	0	37	0	1605369856	60	6071
2026-01-04 14:30:25.06	176.16	45.46	-41.0	-42.0	22.7	0.00e+00	0	37	0	1608515584	60	5927
2026-01-04 14:30:26.07	176.36	45.18	-41.0	-42.0	22.6	0.00e+00	0	37	0	1611661312	60	5936
2026-01-04 14:30:27.08	176.57	44.90	-41.7	-42.8	22.2	0.00e+00	0	37	0	1614807040	60	6504
2026-01-04 14:30:28.09	176.77	44.62	-42.7	-43.9	21.4	0.00e+00	0	37	0	1617952768	60	7412
2026-01-04 14:30:29.10	176.96	44.34	-43.6	-44.9	20.3	0.00e+00	0	37	0	1621098496	60	8364
2026-01-04 14:30:30.11	177.16	44.06	-43.4	-44.7	20.7	0.00e+00	0	37	0	1624244224	60	8092
2026-01-04 14:30:31.12	177.35	43.79	-42.7	-43.9	20.1	0.00e+00	0	37	0	1627389952	60	7419
2026-01-04 14:30:32.13	177.53	43.51	-42.5	-43.6	20.8	0.00e+00	0	37	0	1630535680	60	7200
2026-01-04 14:30:33.14	177.72	43.24	-42.7	-43.9	21.5	0.00e+00	0	37	0	1633681408	60	7445
2026-01-04 14:30:34.16	177.90	42.97	-42.6	-43.8	21.9	0.00e+00	0	37	0	1636827136	60	7338
2026-01-04 14:30:35.17	178.08	42.70	-42.4	-43.5	21.4	0.00e+00	0	37	0	1639972864	60	7062
2026-01-04 14:30:36.18	178.25	42.43	-43.7	-44.9	20.7	0.00e+00	0	37	0	1643118592	60	8335
2026-01-04 14:30:37.19	178.42	42.17	-42.7	-43.8	21.2	0.00e+00	0	37	0	1646264320	60	7365
2026-01-04 14:30:38.20	178.59	41.90	-43.4	-44.6	20.8	0.00e+00	0	37	0	1649410048	60	8039
2026-01-04 14:30:39.21	178.76	41.64	-42.6	-43.8	21.2	0.00e+00	0	37	0	1652555776	60	7316
2026-01-04 14:30:40.22	178.92	41.38	-41.8	-42.9	21.8	0.00e+00	0	37	0	1655701504	60	6575
2026-01-04 14:30:41.23	179.08	41.12	-42.2	-43.1	22.0	0.00e+00	0	37	0	1658847232	60	6788
2026-01-04 14:30:42.24	179.24	40.86	-41.2	-42.2	22.1	0.00e+00	0	37	0	1661992960	60	6108
2026-01-04 14:30:43.26	179.40	40.61	-42.3	-43.4	22.0	0.00e+00	0	37	0	1665138688	60	6989
2026-01-04 14:30:44.27	179.55	40.35	-41.6	-42.7	21.9	0.00e+00	0	37	0	1668284416	60	6475
2026-01-04 14:30:45.28	179.70	40.10	-43.2	-44.3	21.0	0.00e+00	0	37	0	1671430144	60	7785
2026-01-04 14:30:46.29	179.85	39.85	-42.4	-43.5	21.4	0.00e+00	0	37	0	1674575872	60	7099
2026-01-04 14:30:47.30	180.00	39.60	-42.4	-43.6	21.2	0.00e+00	0	37	0	1677721600	60	7195
2026-01-04 14:30:48.31	180.15	39.35	-42.1	-43.2	21.6	0.00e+00	0	37	0	1680867328	60	6859
2026-01-04 14:30:49.32	180.29	39.10	-41.6	-42.7	21.8	0.00e+00	0	37	0	1684013056	60	6456
2026-01-04 14:30:50.33	180.43	38.86	-41.0	-42.0	22.4	0.00e+00	0	37	0	1687158784	60	5994
2026-01-04 14:30:51.34	180.57	38.62	-40.3	-41.3	22.7	0.00e+00	0	37	0	1690304512	60	5489
2026-01-04 14:30:52.36	180.71	38.37	-40.2	-41.2	22.8	0.00e+00	0	37	0	1693450240	60	5447
2026-01-04 14:30:53.37	180.84	38.13	-39.9	-40.8	22.9	0.00e+00	0	37	0	1696595968	58	5858
2026-01-04 14:30:54.38	180.97	37.89	-39.9	-40.9	22.9	0.00e+00	0	37	0	1699741696	58	5887
2026-01-04 14:30:55.39	181.10	37.66	-39.9	-40.9	23.1	0.00e+00	0	37	0	1703936000	58	5864
2026-01-04 14:30:56.40	181.23	37.42	-40.7	-41.6	23.1	0.00e+00	0	37	0	1707081728	58	6420
2026-01-04 14:30:57.41	181.36	37.19	-40.6	-41.6	23.0	0.00e+00	0	37	0	1709178880	58	6387
2026-01-04 14:30:58.42	181.49	36.95	-40.2	-41.1	23.5	0.00e+00	0	37	0	1712324608	58	6046
2026-01-04 14:30:59.43	181.61	36.72	-39.8	-40.8	23.3	0.00e+00	0	37	0	1716518912	58	5819
2026-01-04 14:31:00.45	181.73	36.49	-40.7	-41.7	22.9	0.00e+00	0	37	0	1719664640	58	6471
2026-01-04 14:31:01.46	181.86	36.26	-40.1	-41.1	22.9	0.00e+00	0	37	0	1722810368	58	6011
2026-01-04 14:31:02.47	181.97	36.03	-39.8	-40.8	23.0	0.00e+00	0	37	0	1725956096	58	5810
2026-01-04 14:31:03.48	182.09	35.81	-40.2	-41.1	22.9	0.00e+00	0	37	0	1729101824	58	6057
2026-01-04 14:31:04.49	182.21	35.59	-40.7	-41.7	23.0	0.00e+00	0	37	0	1732247552	60	5779
2026-01-04 14:31:05.50	182.32	35.36	-40.0	-40.9	23.2	0.00e+00	0	37	0	1735393280	58	5923
2026-01-04 14:31:06.51	182.43	35.14	-40.2	-41.1	23.3	0.00e+00	0	37	0	1738539008	58	6039
2026-01-04 14:31:07.52	182.55	34.92	-40.2	-41.1	23.4	0.00e+00	0	37	0	1741684736	58	6063
2026-01-04 14:31:08.53	182.66	34.71	-39.9	-40.8	23.4	0.00e+00	0	37	0	1744830464	58	5827
2026-01-04 14:31:09.54	182.76	34.49	-40.1	-41.1	23.2	0.00e+00	0	37	0	1747976192	58	6016
2026-01-04 14:31:10.55	182.87	34.27	-40.3	-41.3	22.9	0.00e+00	0	37	0	1751121920	58	6202
2026-01-04 14:31:11.57	182.98	34.06	-40.9	-41.9	22.3	0.00e+00	0	37	0	1754267648	58	6647
2026-01-04 14:31:12.58	183.08	33.84	-41.3	-42.4	22.2	0.00e+00	0	37	0	1757413376	58	6986
2026-01-04 14:31:13.59	183.19	33.63	-41.0	-42.1	22.0	0.00e+00	0	37	0	1760559104	60	6008
2026-01-04 14:31:14.60	183.29	33.42	-40.5	-41.5	22.6	0.00e+00	0	37	0	1763704832	60	5648
2026-01-04 14:31:15.61	183.39	33.22	-40.5	-41.5	22.7	0.00e+00	0	37	0	1766850560	60	5611
2026-01-04 14:31:16.62	183.49	33.01	-40.1	-41.1	23.1	0.00e+00	0	37	0	1769996288	58	6006
2026-01-04 14:31:17.63	183.59	32.80	-40.0	-41.1	23.0	0.00e+00	0	37	0	1773142016	58	5996
2026-01-04 14:31:18.64	183.68	32.60	-39.5	-40.5	23.4	0.00e+00	0	37	0	1776287744	58	5597
2026-01-04 14:31:19.65	183.78	32.39	-39.1	-40.0	23.7	0.00e+00	0	37	0	1779433472	56	5977
2026-01-04 14:31:20.67	183.87	32.19	-38.9	-39.9	23.7	0.00e+00	0	37	0	1782579200	56	5862
2026-01-04 14:31:21.68	183.97	31.99	-39.2	-40.2	23.6	0.00e+00	0	37	0	1785724928	56	6092
2026-01-04 14:31:22.69	184.06	31.79	-38.8	-39.7	23.7	0.00e+00	0	37	0	1788870656	56	5772
2026-01-04 14:31:23.70	184.15	31.59	-38.8	-39.7	23.8	0.00e+00	0	37	0	1792016384	56	5786
2026-01-04 14:31:24.71	184.24	31.40	-38.4	-39.4	23.9	0.00e+00	0	37	0	1795162112	56	5533
2026-01-04 14:31:25.72	184.33	31.20	-38.4	-39.3	24.0	0.00e+00	0	37	0	1798307840	56	5497
2026-01-04 14:31:26.73	184.42	31.01	-39.0	-40.0	23.5	0.00e+00	0	37	0	1801453568	56	5928
2026-01-04 14:31:27.74	184.51	30.81	-38.9	-39.9	23.6	0.00e+00	0	37	0	1804599296	56	5869
2026-01-04 14:31:28.76	184.60	30.62	-39.3	-40.2	23.5	0.00e+00	0	37	0	1807745024	56	6120
2026-01-04 14:31:29.77	184.68	30.43	-39.1	-40.1	23.6	0.00e+00	0	37	0	1810890752	56	6023
2026-01-04 14:31:30.78	184.77	30.24	-38.6	-39.5	24.0	0.00e+00	0	37	0	1814036480	56	5655
2026-01-04 14:31:31.79	184.85	30.05	-39.6	-40.6	23.4	0.00e+00	0	37	0	1817182208	56	6351
2026-01-04 14:31:32.80	184.93	29.86	-39.4	-40.3	23.7	0.00e+00	0	37	0	1820327936	56	6185
2026-01-04 14:31:33.81	185.01	29.68	-38.7	-39.6	23.9	0.00e+00	0	37	0	1823473664	56	5702
2026-01-04 14:31:34.82	185.09	29.49	-38.3	-39.2	24.2	0.00e+00	0	37	0	1826619392	56	5444
2026-01-04 14:31:35.83	185.17	29.31	-38.6	-39.5	23.8	0.00e+00	0	37	0	1829765120	56	5641
2026-01-04 14:31:36.84	185.25	29.12	-38.4	-39.3	24.2	0.00e+00	0	37	0	1832910848	56	5498
2026-01-04 14:31:37.85	185.33	28.94	-38.0	-38.9	24.2	0.00e+00	0	37	0	1836056576	54	5917
2026-01-04 14:31:38.87	185.41	28.76	-38.4	-39.3	24.0	0.00e+00	0	37	0	1839202304	54	6180
2026-01-04 14:31:39.88	185.49	28.58	-37.9	-38.8	24.3	0.00e+00	0	37	0	1842348032	54	5829
2026-01-04 14:31:40.89	185.56	28.40	-37.9	-38.8	24.4	0.00e+00	0	37	0	1845493760	54	5797
2026-01-04 14:31:41.90	185.64	28.23	-37.9	-38.8	24.3	0.00e+00	0	37	0	1848639488	54	5801
2026-01-04 14:31:42.91	185.71	28.05	-38.0	-38.9	24.4	0.00e+00	0	37	0	1851785216	54	5907
2026-01-04 14:31:43.92	185.78	27.88	-38.1	-39.0	24.3	0.00e+00	0	37	0	1854930944	54	5969
2026-01-04 14:31:44.93	185.86	27.70	-37.8	-38.7	24.5	0.00e+00	0	37	0	1858076672	54	5743
2026-01-04 14:31:45.94	185.93	27.53	-37.9	-38.8	24.4	0.00e+00	0	37	0	1861222400	54	5820
2026-01-04 14:31:46.96	186.00	27.36	-37.9	-38.8	24.4	0.00e+00	0	37	0	1864368128	54	5827
2026-01-04 14:31:47.97	186.07	27.18	-38.1	-39.0	24.3	0.00e+00	0	37	0	1867513856	54	5952
2026-01-04 14:31:48.98	186.14	27.01	-38.1	-39.0	24.3	0.00e+00	0	37	0	1870659584	54	5937
2026-01-04 14:31:49.99	186.21	26.85	-37.8	-38.7	24.4	0.00e+00	0	37	0	1873805312	54	5763
2026-01-04 14:31:51.00	186.28	26.68	-37.8	-38.7	24.4	0.00e+00	0	37	0	1876951040	54	5780
2026-01-04 14:31:52.01	186.35	26.51	-37.7	-38.6	24.5	0.00e+00	0	37	0	1880096768	54	5725
2026-01-04 14:31:53.02	186.41	26.35	-37.6	-38.5	24.5	0.00e+00	0	37	0	1883242496	54	5640
2026-01-04 14:31:54.03	186.48	26.18	-37.7	-38.6	24.4	0.00e+00	0	37	0	1886388224	54	5719
2026-01-04 14:31:55.04	186.54	26.02	-37.8	-38.7	24.3	0.00e+00	0	37	0	1889533952	54	5745
2026-01-04 14:31:56.06	186.61	25.85	-37.8	-38.8	24.2	0.00e+00	0	37	0	1892679680	54	5796
2026-01-04 14:31:57.07	186.67	25.69	-37.9	-38.8	24.3	0.00e+00	0	37	0	1895825408	54	5834
2026-01-04 14:31:58.08	186.74	25.53	-38.1	-39.1	24.2	0.00e+00	0	37	0	1898971136	54	5998
2026-01-04 14:31:59.09	186.80	25.37	-38.3	-39.2	24.2	0.00e+00	0	37	0	1902116864	54	6089
2026-01-04 14:32:00.10	186.86	25.21	-38.2	-39.1	24.1	0.00e+00	0	37	0	1905262592	54	6045
2026-01-04 14:32:01.11	186.93	25.05	-38.3	-39.2	24.1	0.00e+00	0	37	0	1908408320	54	6131
2026-01-04 14:32:02.12	186.99	24.89	-38.2	-39.1	24.2	0.00e+00	0	37	0	1911554048	54	6037
2026-01-04 14:32:03.13	187.05	24.74	-37.9	-38.8	24.2	0.00e+00	0	37	0	1914699776	54	5835
2026-01-04 14:32:04.15	187.11	24.58	-37.8	-38.7	24.2	0.00e+00	0	37	0	1917845504	54	5774
2026-01-04 14:32:05.16	187.17	24.43	-37.7	-38.7	24.3	0.00e+00	0	37	0	1920991232	54	5730
2026-01-04 14:32:06.17	187.23	24.27	-37.8	-38.7	24.2	0.00e+00	0	37	0	1924136960	54	5775
2026-01-04 14:32:07.18	187.29	24.12	-37.9	-38.8	23.9	0.00e+00	0	37	0	1927282688	54	5855
2026-01-04 14:32:08.19	187.35	23.97	-38.0	-39.0	23.9	0.00e+00	0	37	0	1930428416	54	5930
2026-01-04 14:32:09.20	187.40	23.82	-38.4	-39.3	23.8	0.00e+00	0	37	0	1933574144	54	6204
2026-01-04 14:32:10.21	187.46	23.67	-38.5	-39.5	23.6	0.00e+00	0	37	0	1936719872	54	6281
2026-01-04 14:32:11.22	187.52	23.52	-39.1	-40.1	23.2	0.00e+00	0	37	0	1939865600	54	6764
2026-01-04 14:32:12.23	187.57	23.37	-38.4	-39.4	23.6	0.00e+00	0	37	0	1944059904	54	6251
2026-01-04 14:32:13.25	187.63	23.22	-38.4	-39.3	23.7	0.00e+00	0	37	0	1947205632	54	6193
2026-01-04 14:32:14.26	187.69	23.07	-38.4	-39.4	23.6	0.00e+00	0	37	0	1950351360	54	6231
2026-01-04 14:32:15.27	187.74	22.93	-38.5	-39.4	23.6	0.00e+00	0	37	0	1953497088	54	6263
2026-01-04 14:32:16.28	187.79	22.78	-38.1	-39.0	23.9	0.00e+00	0	37	0	1955594240	54	5954
2026-01-04 14:32:17.29	187.85	22.64	-38.0	-38.9	24.1	0.00e+00	0	37	0	1959788544	54	5921
2026-01-04 14:32:18.30	187.90	22.49	-37.8	-38.7	24.3	0.00e+00	0	37	0	1962934272	54	5776
2026-01-04 14:32:19.31	187.95	22.35	-37.9	-38.8	24.2	0.00e+00	0	37	0	1966080000	54	5810
2026-01-04 14:32:20.32	188.01	22.21	-37.7	-38.6	24.3	0.00e+00	0	37	0	1969225728	54	5666
2026-01-04 14:32:21.33	188.06	22.07	-37.6	-38.5	24.3	0.00e+00	0	37	0	1972371456	54	5644
2026-01-04 14:32:22.35	188.11	21.92	-37.5	-38.4	24.3	0.00e+00	0	37	0	1975517184	54	5543
2026-01-04 14:32:23.36	188.16	21.78	-37.3	-38.2	24.4	0.00e+00	0	37	0	1978662912	54	5428
2026-01-04 14:32:24.37	188.21	21.64	-37.5	-38.4	24.3	0.00e+00	0	37	0	1981808640	54	5537
2026-01-04 14:32:25.38	188.26	21.51	-37.3	-38.1	24.4	0.00e+00	0	37	0	1984954368	54	5399
2026-01-04 14:32:26.39	188.31	21.37	-37.3	-38.2	24.5	0.00e+00	0	37	0	1988100096	54	5458
2026-01-04 14:32:27.40	188.36	21.23	-37.7	-38.6	24.5	0.00e+00	0	37	0	1991245824	54	5677
2026-01-04 14:32:28.41	188.41	21.09	-38.0	-38.9	24.5	0.00e+00	0	37	0	1994391552	54	5903
2026-01-04 14:32:29.42	188.46	20.96	-38.1	-39.0	24.5	0.00e+00	0	37	0	1997537280	54	5979
2026-01-04 14:32:30.43	188.51	20.82	-38.0	-38.9	24.5	0.00e+00	0	37	0	2000683008	54	5918
2026-01-04 14:32:31.44	188.56	20.69	-38.1	-39.0	24.4	0.00e+00	0	37	0	2003828736	54	5970
2026-01-04 14:32:32.46	188.60	20.56	-38.7	-39.6	24.3	0.00e+00	0	37	0	2006974464	54	6403
2026-01-04 14:32:33.47	188.65	20.42	-38.5	-39.4	24.5	0.00e+00	0	37	0	2010120192	54	6251
2026-01-04 14:32:34.48	188.70	20.29	-38.5	-39.4	24.5	0.00e+00	0	37	0	2013265920	54	6213
2026-01-04 14:32:35.49	188.74	20.16	-39.1	-40.0	24.4	0.00e+00	0	37	0	2016411648	54	6689
2026-01-04 14:32:36.50	188.79	20.03	-38.6	-39.5	24.3	0.00e+00	0	37	0	2019557376	54	6318
2026-01-04 14:32:37.51	188.84	19.90	-38.5	-39.4	24.1	0.00e+00	0	37	0	2022703104	54	6227
2026-01-04 14:32:38.52	188.88	19.77	-38.2	-39.1	24.3	0.00e+00	0	37	0	2025848832	54	6040
2026-01-04 14:32:39.53	188.93	19.64	-38.0	-39.0	24.2	0.00e+00	0	37	0	2028994560	54	5927
