passes_logs/2026/01/04/R4.6S_Anadyr_2ch/R4.6S_Anadyr_2ch__20260104_223649_NOAA_21_JPSS-2_rec.log

#Pass ID: 20260104_223649_NOAA 21 (JPSS-2)
#Satellite: NOAA 21 (JPSS-2)
#Configuration: NOAA-21
#almurnet v.1.7.20251203
#Start time: 2026-01-04 22:36:52

#Version: 2.2.20231116
#Station: R4.6S_Anadyr_2ch
#Location: 177.4865 lon 64.73178 lat
#TLE: 1 54234U 22150A   25350.97269056  .00000057  00000+0  47676-4 0  9992
#TLE: 2 54234  98.7466 287.2282 0002043  29.8355 330.2937 14.19525482160692

#Time	Az	El	Level	Level2	SNR	BER	BlckErr	Temp	State	Recorded	gain1	gain2
2026-01-04 22:36:52.80	117.26	0.20	-50.6	-52.2	5.7	0.00e+00	0	27	0	0	60	68177
2026-01-04 22:36:53.81	117.23	0.26	-51.7	-64.7	3.5	1.52e+00	0	28	104	0	60	81168
2026-01-04 22:36:54.82	117.19	0.32	-51.6	-64.6	3.5	1.52e+00	0	28	104	0	60	80797
2026-01-04 22:36:55.83	117.15	0.37	-51.6	-64.6	3.5	1.52e+00	0	28	104	0	60	80582
2026-01-04 22:36:56.84	117.11	0.43	-51.4	-64.5	3.5	1.52e+00	0	28	104	0	60	79414
2026-01-04 22:36:57.85	117.07	0.49	-51.5	-64.5	3.5	1.52e+00	0	28	104	0	60	79046
2026-01-04 22:36:58.86	117.03	0.55	-51.4	-64.4	3.5	1.52e+00	0	29	104	0	60	78585
2026-01-04 22:36:59.88	116.99	0.61	-51.3	-64.4	3.5	1.51e+00	0	29	104	0	60	78432
2026-01-04 22:37:00.89	116.95	0.67	-51.3	-64.3	3.5	1.52e+00	0	29	104	0	60	77712
2026-01-04 22:37:01.90	116.91	0.73	-51.2	-64.2	3.5	1.52e+00	0	29	104	0	60	76886
2026-01-04 22:37:02.91	116.86	0.79	-51.2	-64.2	3.5	1.52e+00	0	29	104	0	60	77024
2026-01-04 22:37:03.92	116.82	0.85	-51.1	-64.1	3.5	1.52e+00	0	29	104	0	60	76084
2026-01-04 22:37:04.93	116.78	0.91	-50.7	-64.1	3.5	1.52e+00	0	29	104	0	60	75584
2026-01-04 22:37:05.94	116.74	0.97	-50.8	-63.8	3.5	1.52e+00	0	29	104	0	60	73398
2026-01-04 22:37:06.95	116.70	1.03	-50.5	-63.6	3.5	1.52e+00	0	29	104	0	60	71535
2026-01-04 22:37:07.96	116.66	1.08	-49.2	-62.6	3.5	1.52e+00	0	29	104	0	60	63891
2026-01-04 22:37:08.97	116.62	1.14	-49.1	-62.4	3.5	1.52e+00	0	29	104	0	60	62064
2026-01-04 22:37:09.98	116.58	1.20	-49.1	-62.4	3.5	1.52e+00	0	29	104	0	60	62481
2026-01-04 22:37:10.99	116.53	1.26	-49.1	-62.4	3.5	1.52e+00	0	29	104	0	60	62513
2026-01-04 22:37:12.01	116.49	1.33	-49.1	-62.5	3.5	1.52e+00	0	29	104	0	60	62814
2026-01-04 22:37:13.02	116.45	1.39	-49.2	-62.5	3.5	1.52e+00	0	29	104	0	60	63038
2026-01-04 22:37:14.03	116.41	1.45	-49.2	-62.4	3.5	1.52e+00	0	29	104	0	60	62494
2026-01-04 22:37:15.04	116.36	1.51	-49.1	-62.4	3.5	1.52e+00	0	29	104	0	60	62754
2026-01-04 22:37:16.05	116.32	1.57	-49.1	-62.4	3.5	1.52e+00	0	29	104	0	60	62740
2026-01-04 22:37:17.06	116.28	1.63	-49.1	-62.5	3.5	1.52e+00	0	29	104	0	60	62930
2026-01-04 22:37:18.07	116.23	1.69	-49.0	-62.5	3.5	1.51e+00	0	29	104	0	60	62867
2026-01-04 22:37:19.08	116.19	1.75	-48.9	-62.5	3.5	1.51e+00	0	29	104	0	60	62965
2026-01-04 22:37:20.09	116.15	1.81	-49.0	-62.5	3.5	1.52e+00	0	29	104	0	60	62971
2026-01-04 22:37:21.11	116.10	1.87	-49.0	-62.5	3.5	1.52e+00	0	29	104	0	60	62953
2026-01-04 22:37:22.12	116.06	1.93	-49.0	-62.4	3.5	1.52e+00	0	29	104	0	60	62202
2026-01-04 22:37:23.13	116.01	1.99	-49.0	-62.4	3.5	1.52e+00	0	29	104	0	60	62148
2026-01-04 22:37:24.14	115.97	2.06	-49.0	-62.2	3.5	1.52e+00	0	29	104	0	60	61162
2026-01-04 22:37:25.15	115.92	2.12	-49.0	-62.2	3.5	1.52e+00	0	29	104	0	60	60808
2026-01-04 22:37:26.16	115.88	2.18	-49.0	-62.1	3.5	1.52e+00	0	29	104	0	60	60185
2026-01-04 22:37:27.17	115.83	2.24	-49.1	-62.1	3.5	1.52e+00	0	29	104	0	60	60239
2026-01-04 22:37:28.18	115.79	2.30	-49.0	-62.1	3.5	1.52e+00	0	29	104	0	60	60010
2026-01-04 22:37:29.19	115.74	2.37	-49.1	-62.1	3.5	1.52e+00	0	29	104	0	60	60059
2026-01-04 22:37:30.21	115.70	2.43	-49.1	-62.2	3.5	1.52e+00	0	29	104	0	60	60855
2026-01-04 22:37:31.21	115.65	2.49	-49.1	-62.3	3.5	1.52e+00	0	29	104	0	60	62013
2026-01-04 22:37:32.23	115.60	2.55	-49.2	-62.4	3.5	1.52e+00	0	29	104	0	60	62449
2026-01-04 22:37:33.24	115.56	2.62	-49.1	-62.4	3.5	1.51e+00	0	29	104	0	60	62332
2026-01-04 22:37:34.25	115.51	2.68	-49.1	-62.4	3.5	1.52e+00	0	29	104	0	60	62722
2026-01-04 22:37:35.26	115.46	2.74	-49.1	-62.4	3.5	1.52e+00	0	29	104	0	60	62533
2026-01-04 22:37:36.27	115.42	2.80	-49.1	-62.4	3.5	1.52e+00	0	29	104	0	60	62458
2026-01-04 22:37:37.28	115.37	2.87	-49.2	-62.4	3.5	1.52e+00	0	29	104	0	60	62590
2026-01-04 22:37:38.29	115.32	2.93	-49.1	-62.2	3.5	1.52e+00	0	29	104	0	60	61055
2026-01-04 22:37:39.30	115.27	2.99	-49.1	-62.0	3.5	1.52e+00	0	29	104	0	60	59861
2026-01-04 22:37:40.31	115.23	3.06	-49.1	-61.7	3.5	1.52e+00	0	29	104	0	60	57741
2026-01-04 22:37:41.32	115.18	3.12	-49.0	-61.6	3.5	1.52e+00	0	29	104	0	60	56680
2026-01-04 22:37:42.33	115.13	3.18	-49.1	-61.5	3.5	1.51e+00	0	29	104	0	60	56372
2026-01-04 22:37:43.34	115.08	3.25	-49.2	-62.2	3.5	1.52e+00	0	29	104	0	60	61086
2026-01-04 22:37:44.35	115.03	3.31	-49.0	-61.5	3.5	1.52e+00	0	29	104	0	60	56077
2026-01-04 22:37:45.36	114.98	3.38	-48.5	-57.5	5.2	1.51e+00	0	29	104	0	60	35377
2026-01-04 22:37:46.37	114.93	3.44	-48.7	-57.6	4.8	1.41e+00	0	29	104	0	60	36092
2026-01-04 22:37:47.38	114.89	3.50	-48.5	-56.5	4.0	3.82e-01	0	29	104	0	60	31741
2026-01-04 22:37:48.39	114.84	3.57	-46.8	-51.0	10.5	4.81e-03	0	29	0	0	60	16771
2026-01-04 22:37:49.40	114.79	3.63	-46.7	-50.5	10.1	9.37e-04	0	29	0	3145728	60	15914
2026-01-04 22:37:50.41	114.74	3.70	-49.2	-61.7	3.5	1.52e+00	0	29	104	4194304	60	57536
2026-01-04 22:37:51.43	114.68	3.76	-49.7	-62.3	3.6	1.52e+00	0	29	104	4194304	60	61632
2026-01-04 22:37:52.44	114.63	3.83	-47.2	-52.9	11.3	5.29e-03	0	29	104	4194304	60	21020
2026-01-04 22:37:53.45	114.58	3.89	-41.2	-42.6	19.4	0.00e+00	0	29	0	6291456	60	6400
2026-01-04 22:37:54.46	114.53	3.96	-49.1	-60.5	3.6	1.51e+00	0	29	104	8388608	60	50166
2026-01-04 22:37:55.47	114.48	4.02	-41.4	-42.9	19.1	0.00e+00	0	29	0	9437184	60	6593
2026-01-04 22:37:56.48	114.43	4.09	-41.4	-42.9	19.1	0.00e+00	0	29	0	12582912	60	6620
2026-01-04 22:37:57.49	114.38	4.15	-41.0	-42.4	19.6	0.00e+00	0	29	0	15728640	60	6231
2026-01-04 22:37:58.51	114.32	4.22	-40.6	-42.0	20.0	0.00e+00	0	29	0	18874368	60	5938
2026-01-04 22:37:59.52	114.27	4.29	-40.6	-41.9	20.2	0.00e+00	0	29	0	22020096	60	5875
2026-01-04 22:38:00.52	114.22	4.35	-40.8	-42.1	19.9	0.00e+00	0	29	0	25165824	60	6025
2026-01-04 22:38:01.54	114.17	4.42	-40.7	-42.0	20.0	0.00e+00	0	29	0	28311552	60	5953
2026-01-04 22:38:02.55	114.11	4.49	-40.5	-41.7	20.3	0.00e+00	0	29	0	31457280	60	5767
2026-01-04 22:38:03.56	114.06	4.55	-40.6	-41.8	20.2	0.00e+00	0	29	0	34603008	60	5844
2026-01-04 22:38:04.57	114.01	4.62	-40.3	-41.4	20.6	0.00e+00	0	29	0	37748736	60	5587
2026-01-04 22:38:05.58	113.95	4.69	-40.6	-41.8	20.5	0.00e+00	0	29	0	40894464	60	5824
2026-01-04 22:38:06.59	113.90	4.75	-40.7	-41.9	20.2	0.00e+00	0	29	0	44040192	60	5884
2026-01-04 22:38:07.60	113.84	4.82	-40.6	-41.9	20.2	0.00e+00	0	29	0	47185920	60	5864
2026-01-04 22:38:08.62	113.79	4.89	-40.3	-41.4	20.8	0.00e+00	0	29	0	50331648	60	5582
2026-01-04 22:38:09.63	113.73	4.95	-40.4	-41.6	20.6	0.00e+00	0	29	0	53477376	60	5671
2026-01-04 22:38:10.64	113.68	5.02	-40.4	-41.5	20.6	0.00e+00	0	29	0	56623104	60	5650
2026-01-04 22:38:11.65	113.62	5.09	-40.2	-41.4	20.9	0.00e+00	0	29	0	59768832	60	5556
2026-01-04 22:38:12.66	113.57	5.16	-40.2	-41.4	20.8	0.00e+00	0	29	0	62914560	58	6212
2026-01-04 22:38:13.67	113.51	5.22	-39.9	-41.0	21.1	0.00e+00	0	29	0	66060288	58	5967
2026-01-04 22:38:14.68	113.46	5.29	-40.4	-41.6	20.6	0.00e+00	0	29	0	69206016	58	6412
2026-01-04 22:38:15.69	113.40	5.36	-40.1	-41.3	20.9	0.00e+00	0	29	0	72351744	58	6140
2026-01-04 22:38:16.71	113.34	5.43	-40.2	-41.3	20.9	0.00e+00	0	29	0	75497472	58	6205
2026-01-04 22:38:17.72	113.28	5.50	-40.1	-41.3	20.9	0.00e+00	0	29	0	78643200	58	6158
2026-01-04 22:38:18.73	113.23	5.57	-39.9	-41.1	21.0	0.00e+00	0	29	0	81788928	58	6022
2026-01-04 22:38:19.74	113.17	5.64	-40.1	-41.3	20.9	0.00e+00	0	29	0	84934656	58	6179
2026-01-04 22:38:20.75	113.11	5.70	-40.1	-41.3	20.7	0.00e+00	0	29	0	88080384	58	6158
2026-01-04 22:38:21.76	113.05	5.77	-41.0	-42.2	20.3	0.00e+00	0	29	0	91226112	58	6870
2026-01-04 22:38:22.77	112.99	5.84	-40.5	-41.7	20.4	0.00e+00	0	29	0	94371840	58	6434
2026-01-04 22:38:23.78	112.94	5.91	-40.1	-41.3	20.7	0.00e+00	0	29	0	97517568	58	6135
2026-01-04 22:38:24.79	112.88	5.98	-40.0	-41.1	21.1	0.00e+00	0	29	0	100663296	58	6058
2026-01-04 22:38:25.81	112.82	6.05	-40.4	-41.6	20.6	0.00e+00	0	29	0	103809024	58	6379
2026-01-04 22:38:26.82	112.76	6.12	-40.1	-41.3	21.2	0.00e+00	0	29	0	108003328	58	6166
2026-01-04 22:38:27.83	112.70	6.19	-40.6	-41.8	20.5	0.00e+00	0	30	0	110100480	58	6507
2026-01-04 22:38:28.84	112.64	6.26	-40.1	-41.3	20.8	0.00e+00	0	30	0	113246208	58	6156
2026-01-04 22:38:29.85	112.58	6.33	-40.5	-41.7	20.6	0.00e+00	0	29	0	116391936	60	5775
2026-01-04 22:38:30.86	112.52	6.40	-40.6	-41.8	20.6	0.00e+00	0	30	0	119537664	60	5855
2026-01-04 22:38:31.87	112.45	6.47	-40.3	-41.4	20.8	0.00e+00	0	29	0	123731968	58	6276
2026-01-04 22:38:32.88	112.39	6.55	-40.4	-41.6	20.8	0.00e+00	0	29	0	126877696	58	6370
2026-01-04 22:38:33.89	112.33	6.62	-39.9	-41.0	21.2	0.00e+00	0	29	0	130023424	58	5967
2026-01-04 22:38:34.91	112.27	6.69	-39.8	-40.9	21.4	0.00e+00	0	29	0	132120576	58	5884
2026-01-04 22:38:35.92	112.21	6.76	-39.9	-41.1	21.3	0.00e+00	0	29	0	136314880	58	6012
2026-01-04 22:38:36.93	112.14	6.83	-39.9	-41.0	21.2	0.00e+00	0	29	0	139460608	58	5957
2026-01-04 22:38:37.94	112.08	6.90	-39.7	-40.8	21.6	0.00e+00	0	30	0	142606336	58	5819
2026-01-04 22:38:38.95	112.02	6.97	-39.3	-40.4	21.9	0.00e+00	0	29	0	145752064	58	5554
2026-01-04 22:38:39.96	111.95	7.05	-39.7	-40.8	21.5	0.00e+00	0	30	0	148897792	58	5839
2026-01-04 22:38:40.97	111.89	7.12	-39.5	-40.6	21.7	0.00e+00	0	29	0	152043520	58	5688
2026-01-04 22:38:41.98	111.82	7.19	-39.4	-40.5	21.6	0.00e+00	0	30	0	155189248	58	5649
2026-01-04 22:38:42.99	111.76	7.26	-39.1	-40.2	22.1	0.00e+00	0	29	0	158334976	56	6072
2026-01-04 22:38:44.00	111.69	7.34	-39.5	-40.6	21.9	0.00e+00	0	30	0	161480704	56	6376
2026-01-04 22:38:45.01	111.63	7.41	-39.1	-40.2	22.2	0.00e+00	0	29	0	164626432	56	6065
2026-01-04 22:38:46.02	111.56	7.48	-39.1	-40.2	22.1	0.00e+00	0	29	0	167772160	56	6099
2026-01-04 22:38:47.04	111.50	7.56	-39.4	-40.5	21.9	0.00e+00	0	30	0	170917888	56	6294
2026-01-04 22:38:48.05	111.43	7.63	-39.3	-40.4	22.0	0.00e+00	0	30	0	174063616	56	6210
2026-01-04 22:38:49.06	111.36	7.70	-39.2	-40.2	22.0	0.00e+00	0	30	0	177209344	56	6129
2026-01-04 22:38:50.07	111.29	7.78	-39.3	-40.4	21.8	0.00e+00	0	30	0	180355072	56	6262
2026-01-04 22:38:51.08	111.23	7.85	-39.3	-40.4	22.0	0.00e+00	0	30	0	183500800	56	6229
2026-01-04 22:38:52.09	111.16	7.92	-39.0	-40.1	22.3	0.00e+00	0	30	0	186646528	56	5997
2026-01-04 22:38:53.10	111.09	8.00	-38.9	-39.9	22.4	0.00e+00	0	30	0	189792256	56	5917
2026-01-04 22:38:54.11	111.02	8.07	-39.0	-40.1	22.2	0.00e+00	0	29	0	192937984	56	6019
2026-01-04 22:38:55.12	110.95	8.15	-39.2	-40.2	22.1	0.00e+00	0	30	0	196083712	56	6134
2026-01-04 22:38:56.13	110.88	8.22	-39.0	-40.0	22.3	0.00e+00	0	29	0	199229440	56	5975
2026-01-04 22:38:57.15	110.81	8.30	-39.1	-40.1	22.2	0.00e+00	0	29	0	202375168	56	6062
2026-01-04 22:38:58.16	110.74	8.37	-39.0	-40.0	22.3	0.00e+00	0	30	0	205520896	56	5976
2026-01-04 22:38:59.17	110.67	8.45	-38.9	-39.9	22.4	0.00e+00	0	29	0	208666624	56	5902
2026-01-04 22:39:00.18	110.60	8.52	-38.8	-39.8	22.5	0.00e+00	0	30	0	211812352	56	5852
2026-01-04 22:39:01.19	110.53	8.60	-38.7	-39.7	22.7	0.00e+00	0	30	0	214958080	56	5789
2026-01-04 22:39:02.20	110.46	8.67	-38.7	-39.8	22.5	0.00e+00	0	30	0	218103808	56	5822
2026-01-04 22:39:03.21	110.39	8.75	-38.8	-39.9	22.5	0.00e+00	0	30	0	221249536	56	5870
2026-01-04 22:39:04.22	110.31	8.83	-38.6	-39.7	22.7	0.00e+00	0	30	0	224395264	56	5740
2026-01-04 22:39:05.23	110.24	8.90	-38.6	-39.6	22.7	0.00e+00	0	30	0	227540992	56	5711
2026-01-04 22:39:06.25	110.17	8.98	-38.7	-39.7	22.7	0.00e+00	0	30	0	230686720	56	5758
2026-01-04 22:39:07.26	110.09	9.06	-38.5	-39.5	22.8	0.00e+00	0	30	0	233832448	56	5657
2026-01-04 22:39:08.27	110.02	9.13	-38.4	-39.4	23.0	0.00e+00	0	30	0	236978176	56	5548
2026-01-04 22:39:09.28	109.95	9.21	-38.4	-39.5	22.9	0.00e+00	0	30	0	240123904	56	5595
2026-01-04 22:39:10.29	109.87	9.29	-38.4	-39.4	22.9	0.00e+00	0	30	0	243269632	56	5588
2026-01-04 22:39:11.30	109.80	9.37	-38.5	-39.5	22.8	0.00e+00	0	30	0	246415360	56	5634
2026-01-04 22:39:12.31	109.72	9.44	-38.4	-39.4	22.9	0.00e+00	0	29	0	249561088	56	5584
2026-01-04 22:39:13.32	109.64	9.52	-38.1	-39.1	23.1	0.00e+00	0	30	0	252706816	54	6039
2026-01-04 22:39:14.34	109.57	9.60	-37.9	-38.9	23.2	0.00e+00	0	29	0	255852544	54	5926
2026-01-04 22:39:15.35	109.49	9.68	-38.1	-39.1	23.2	0.00e+00	0	30	0	258998272	54	6002
2026-01-04 22:39:16.36	109.41	9.76	-37.9	-38.9	23.1	0.00e+00	0	30	0	262144000	54	5895
2026-01-04 22:39:17.37	109.33	9.84	-38.0	-39.0	23.2	0.00e+00	0	30	0	265289728	54	5931
2026-01-04 22:39:18.38	109.26	9.92	-38.1	-39.1	23.1	0.00e+00	0	29	0	268435456	54	6022
2026-01-04 22:39:19.39	109.18	9.99	-38.1	-39.1	23.2	0.00e+00	0	30	0	271581184	54	6014
2026-01-04 22:39:20.40	109.10	10.07	-37.5	-38.5	23.6	0.00e+00	0	30	0	274726912	54	5617
2026-01-04 22:39:21.41	109.02	10.15	-37.8	-38.8	23.3	0.00e+00	0	30	0	277872640	54	5811
2026-01-04 22:39:22.42	108.94	10.23	-38.0	-38.9	23.2	0.00e+00	0	30	0	281018368	54	5910
2026-01-04 22:39:23.43	108.86	10.31	-38.0	-39.0	23.2	0.00e+00	0	30	0	284164096	54	5958
2026-01-04 22:39:24.44	108.78	10.39	-37.9	-38.8	23.4	0.00e+00	0	30	0	287309824	54	5825
2026-01-04 22:39:25.46	108.69	10.47	-37.6	-38.6	23.5	0.00e+00	0	30	0	290455552	54	5685
2026-01-04 22:39:26.47	108.61	10.56	-37.9	-38.8	23.4	0.00e+00	0	30	0	293601280	54	5837
2026-01-04 22:39:27.48	108.53	10.64	-37.9	-38.9	23.3	0.00e+00	0	30	0	296747008	54	5873
2026-01-04 22:39:28.49	108.45	10.72	-38.2	-39.2	23.1	0.00e+00	0	30	0	299892736	54	6083
2026-01-04 22:39:29.50	108.36	10.80	-37.7	-38.7	23.5	0.00e+00	0	30	0	303038464	54	5752
2026-01-04 22:39:30.51	108.28	10.88	-37.7	-38.7	23.5	0.00e+00	0	30	0	306184192	54	5741
2026-01-04 22:39:31.52	108.20	10.96	-37.9	-38.8	23.3	0.00e+00	0	30	0	309329920	54	5851
2026-01-04 22:39:32.53	108.11	11.04	-37.9	-38.9	23.4	0.00e+00	0	30	0	312475648	54	5895
2026-01-04 22:39:33.54	108.03	11.12	-37.9	-38.9	23.4	0.00e+00	0	30	0	315621376	54	5859
2026-01-04 22:39:34.55	107.94	11.21	-37.7	-38.6	23.6	0.00e+00	0	30	0	318767104	54	5690
2026-01-04 22:39:35.57	107.85	11.29	-37.7	-38.7	23.5	0.00e+00	0	30	0	321912832	54	5745
2026-01-04 22:39:36.58	107.77	11.37	-37.8	-38.7	23.4	0.00e+00	0	30	0	325058560	54	5777
2026-01-04 22:39:37.59	107.68	11.46	-37.8	-38.8	23.4	0.00e+00	0	30	0	328204288	54	5813
2026-01-04 22:39:38.60	107.59	11.54	-37.5	-38.4	23.7	0.00e+00	0	30	0	331350016	54	5569
2026-01-04 22:39:39.61	107.50	11.62	-37.6	-38.6	23.5	0.00e+00	0	30	0	334495744	54	5681
2026-01-04 22:39:40.62	107.41	11.71	-37.6	-38.5	23.6	0.00e+00	0	30	0	337641472	54	5643
2026-01-04 22:39:41.63	107.33	11.79	-37.7	-38.6	23.5	0.00e+00	0	30	0	340787200	54	5708
2026-01-04 22:39:42.64	107.24	11.87	-37.8	-38.8	23.4	0.00e+00	0	30	0	343932928	54	5811
2026-01-04 22:39:43.65	107.15	11.96	-37.7	-38.7	23.5	0.00e+00	0	30	0	347078656	54	5756
2026-01-04 22:39:44.66	107.05	12.04	-38.0	-38.9	23.5	0.00e+00	0	30	0	350224384	54	5914
2026-01-04 22:39:45.68	106.96	12.13	-37.6	-38.6	23.7	0.00e+00	0	30	0	354418688	54	5672
2026-01-04 22:39:46.69	106.87	12.21	-37.8	-38.8	23.4	0.00e+00	0	30	0	356515840	54	5825
2026-01-04 22:39:47.70	106.78	12.30	-37.6	-38.6	23.7	0.00e+00	0	30	0	359661568	54	5678
2026-01-04 22:39:48.71	106.68	12.38	-37.7	-38.7	23.6	0.00e+00	0	30	0	362807296	54	5738
2026-01-04 22:39:49.72	106.59	12.47	-37.9	-38.9	23.5	0.00e+00	0	30	0	367001600	54	5866
2026-01-04 22:39:50.73	106.50	12.55	-37.9	-38.9	23.5	0.00e+00	0	30	0	370147328	54	5863
2026-01-04 22:39:51.74	106.40	12.64	-37.7	-38.7	23.6	0.00e+00	0	30	0	373293056	54	5755
2026-01-04 22:39:52.75	106.31	12.72	-37.6	-38.6	23.7	0.00e+00	0	30	0	376438784	54	5676
2026-01-04 22:39:53.77	106.21	12.81	-37.6	-38.5	23.8	0.00e+00	0	30	0	379584512	54	5648
2026-01-04 22:39:54.78	106.11	12.90	-37.3	-38.3	23.9	0.00e+00	0	30	0	382730240	54	5478
2026-01-04 22:39:55.79	106.02	12.99	-38.0	-39.0	23.4	0.00e+00	0	30	0	385875968	54	5966
2026-01-04 22:39:56.80	105.92	13.07	-37.9	-38.8	23.5	0.00e+00	0	30	0	389021696	54	5825
2026-01-04 22:39:57.81	105.82	13.16	-37.7	-38.6	23.6	0.00e+00	0	30	0	392167424	54	5697
2026-01-04 22:39:58.82	105.72	13.25	-37.3	-38.2	23.9	0.00e+00	0	30	0	395313152	54	5427
2026-01-04 22:39:59.83	105.62	13.33	-37.4	-38.4	23.9	0.00e+00	0	30	0	398458880	54	5545
2026-01-04 22:40:00.84	105.52	13.42	-37.3	-38.2	23.9	0.00e+00	0	30	0	401604608	54	5441
2026-01-04 22:40:01.85	105.42	13.51	-37.5	-38.5	23.7	0.00e+00	0	30	0	404750336	54	5596
2026-01-04 22:40:02.86	105.32	13.60	-37.4	-38.3	23.8	0.00e+00	0	30	0	407896064	54	5505
2026-01-04 22:40:03.88	105.22	13.69	-37.4	-38.4	23.8	0.00e+00	0	30	0	411041792	54	5541
2026-01-04 22:40:04.89	105.11	13.78	-37.4	-38.3	23.9	0.00e+00	0	30	0	414187520	54	5511
2026-01-04 22:40:05.90	105.01	13.87	-37.4	-38.3	23.8	0.00e+00	0	30	0	417333248	54	5519
2026-01-04 22:40:06.91	104.91	13.96	-37.3	-38.3	23.9	0.00e+00	0	30	0	420478976	54	5480
2026-01-04 22:40:07.92	104.80	14.05	-37.4	-38.3	23.9	0.00e+00	0	30	0	423624704	54	5522
2026-01-04 22:40:08.93	104.70	14.14	-37.2	-38.1	24.1	0.00e+00	0	30	0	426770432	54	5382
2026-01-04 22:40:09.94	104.59	14.23	-37.2	-38.1	24.0	0.00e+00	0	30	0	429916160	54	5381
2026-01-04 22:40:10.95	104.49	14.32	-37.3	-38.2	24.0	0.00e+00	0	30	0	433061888	54	5431
2026-01-04 22:40:11.96	104.38	14.41	-37.3	-38.2	24.0	0.00e+00	0	30	0	436207616	52	6109
2026-01-04 22:40:12.97	104.27	14.50	-37.3	-38.2	24.0	0.00e+00	0	30	0	439353344	52	6124
2026-01-04 22:40:13.98	104.16	14.59	-37.7	-38.6	23.6	0.00e+00	0	30	0	442499072	52	6398
2026-01-04 22:40:14.99	104.05	14.68	-37.2	-38.1	24.0	0.00e+00	0	30	0	445644800	52	6063
2026-01-04 22:40:16.01	103.94	14.77	-37.4	-38.3	23.7	0.00e+00	0	30	0	448790528	52	6168
2026-01-04 22:40:17.02	103.83	14.86	-37.4	-38.3	23.9	0.00e+00	0	30	0	451936256	52	6201
2026-01-04 22:40:18.03	103.72	14.95	-37.4	-38.4	23.9	0.00e+00	0	30	0	455081984	52	6206
2026-01-04 22:40:19.04	103.61	15.05	-37.4	-38.4	23.9	0.00e+00	0	30	0	458227712	52	6222
2026-01-04 22:40:20.05	103.50	15.14	-37.4	-38.3	23.9	0.00e+00	0	30	0	461373440	52	6182
2026-01-04 22:40:21.06	103.38	15.23	-37.3	-38.3	23.9	0.00e+00	0	30	0	464519168	52	6151
2026-01-04 22:40:22.07	103.27	15.32	-37.2	-38.1	24.0	0.00e+00	0	30	0	467664896	52	6050
2026-01-04 22:40:23.08	103.15	15.42	-37.3	-38.2	24.0	0.00e+00	0	30	0	470810624	52	6116
2026-01-04 22:40:24.09	103.04	15.51	-37.4	-38.3	23.9	0.00e+00	0	30	0	473956352	52	6194
2026-01-04 22:40:25.10	102.92	15.60	-37.4	-38.4	23.9	0.00e+00	0	30	0	477102080	52	6209
2026-01-04 22:40:26.12	102.80	15.70	-37.5	-38.4	23.8	0.00e+00	0	30	0	480247808	52	6262
2026-01-04 22:40:27.13	102.69	15.79	-37.4	-38.4	24.0	0.00e+00	0	30	0	483393536	52	6208
2026-01-04 22:40:28.14	102.57	15.89	-37.5	-38.4	23.9	0.00e+00	0	30	0	486539264	52	6255
2026-01-04 22:40:29.15	102.45	15.98	-37.5	-38.4	23.9	0.00e+00	0	30	0	489684992	52	6222
2026-01-04 22:40:30.16	102.33	16.08	-37.5	-38.4	23.8	0.00e+00	0	30	0	492830720	52	6242
2026-01-04 22:40:31.17	102.21	16.17	-37.6	-38.5	23.8	0.00e+00	0	30	0	495976448	52	6302
2026-01-04 22:40:32.18	102.09	16.27	-37.6	-38.6	23.8	0.00e+00	0	30	0	499122176	52	6356
2026-01-04 22:40:33.19	101.96	16.36	-37.4	-38.3	23.9	0.00e+00	0	30	0	502267904	52	6189
2026-01-04 22:40:34.21	101.84	16.46	-37.7	-38.6	23.8	0.00e+00	0	30	0	505413632	52	6405
2026-01-04 22:40:35.22	101.72	16.55	-37.5	-38.5	23.6	0.00e+00	0	30	0	508559360	52	6288
2026-01-04 22:40:36.23	101.59	16.65	-37.6	-38.5	23.7	0.00e+00	0	30	0	511705088	52	6341
2026-01-04 22:40:37.24	101.47	16.75	-37.8	-38.8	23.5	0.00e+00	0	30	0	514850816	52	6526
2026-01-04 22:40:38.25	101.34	16.84	-37.8	-38.7	23.5	0.00e+00	0	30	0	517996544	52	6497
2026-01-04 22:40:39.26	101.21	16.94	-37.6	-38.5	23.7	0.00e+00	0	30	0	521142272	52	6338
2026-01-04 22:40:40.27	101.08	17.04	-37.6	-38.6	23.7	0.00e+00	0	30	0	524288000	52	6370
2026-01-04 22:40:41.28	100.95	17.13	-37.6	-38.6	23.7	0.00e+00	0	30	0	527433728	52	6365
2026-01-04 22:40:42.29	100.82	17.23	-37.8	-38.7	23.6	0.00e+00	0	30	0	530579456	52	6472
2026-01-04 22:40:43.31	100.69	17.33	-37.8	-38.7	23.6	0.00e+00	0	30	0	533725184	52	6462
2026-01-04 22:40:44.32	100.56	17.43	-37.8	-38.8	23.6	0.00e+00	0	30	0	536870912	52	6509
2026-01-04 22:40:45.33	100.43	17.53	-37.8	-38.8	23.5	0.00e+00	0	30	0	540016640	52	6532
2026-01-04 22:40:46.34	100.30	17.63	-37.8	-38.7	23.7	0.00e+00	0	30	0	543162368	52	6480
2026-01-04 22:40:47.35	100.16	17.72	-37.8	-38.7	23.6	0.00e+00	0	30	0	546308096	52	6464
2026-01-04 22:40:48.36	100.03	17.82	-38.0	-39.0	23.5	0.00e+00	0	30	0	549453824	52	6677
2026-01-04 22:40:49.37	99.89	17.92	-37.7	-38.6	23.8	0.00e+00	0	30	0	552599552	52	6392
2026-01-04 22:40:50.38	99.75	18.02	-37.6	-38.5	23.8	0.00e+00	0	30	0	555745280	52	6341
2026-01-04 22:40:51.39	99.62	18.12	-37.6	-38.6	23.7	0.00e+00	0	30	0	558891008	52	6351
2026-01-04 22:40:52.41	99.48	18.22	-37.6	-38.6	23.7	0.00e+00	0	30	0	562036736	52	6379
2026-01-04 22:40:53.42	99.34	18.32	-37.6	-38.6	23.7	0.00e+00	0	30	0	565182464	52	6352
2026-01-04 22:40:54.43	99.19	18.42	-37.7	-38.7	23.6	0.00e+00	0	30	0	568328192	52	6431
2026-01-04 22:40:55.44	99.05	18.52	-37.8	-38.8	23.6	0.00e+00	0	30	0	571473920	52	6534
2026-01-04 22:40:56.45	98.91	18.62	-37.8	-38.7	23.6	0.00e+00	0	30	0	574619648	52	6494
2026-01-04 22:40:57.46	98.77	18.73	-37.6	-38.6	23.8	0.00e+00	0	30	0	577765376	52	6369
2026-01-04 22:40:58.47	98.62	18.83	-37.5	-38.4	23.7	0.00e+00	0	30	0	580911104	52	6261
2026-01-04 22:40:59.48	98.48	18.93	-37.6	-38.5	23.9	0.00e+00	0	30	0	584056832	52	6304
2026-01-04 22:41:00.49	98.33	19.03	-37.4	-38.4	24.0	0.00e+00	0	30	0	587202560	52	6221
2026-01-04 22:41:01.50	98.18	19.13	-37.3	-38.2	24.0	0.00e+00	0	30	0	590348288	52	6089
2026-01-04 22:41:02.52	98.03	19.23	-37.2	-38.1	24.2	0.00e+00	0	30	0	594542592	52	6036
2026-01-04 22:41:03.53	97.88	19.34	-37.1	-38.0	24.2	0.00e+00	0	30	0	597688320	52	5962
2026-01-04 22:41:04.54	97.73	19.44	-37.0	-37.9	24.3	0.00e+00	0	30	0	600834048	52	5880
2026-01-04 22:41:05.55	97.58	19.54	-36.9	-37.8	24.4	0.00e+00	0	30	0	602931200	52	5824
2026-01-04 22:41:06.56	97.43	19.65	-36.7	-37.6	24.5	0.00e+00	0	30	0	606076928	52	5690
2026-01-04 22:41:07.57	97.28	19.75	-36.8	-37.7	24.3	0.00e+00	0	30	0	610271232	52	5779
2026-01-04 22:41:08.58	97.12	19.85	-36.7	-37.6	24.4	0.00e+00	0	30	0	613416960	52	5693
2026-01-04 22:41:09.59	96.97	19.96	-36.8	-37.7	24.3	0.00e+00	0	30	0	616562688	52	5782
2026-01-04 22:41:10.60	96.81	20.06	-36.9	-37.9	24.3	0.00e+00	0	30	0	619708416	52	5874
2026-01-04 22:41:11.62	96.65	20.16	-37.0	-37.9	24.2	0.00e+00	0	30	0	622854144	52	5869
2026-01-04 22:41:12.63	96.49	20.27	-36.8	-37.8	24.4	0.00e+00	0	30	0	625999872	52	5797
2026-01-04 22:41:13.64	96.33	20.37	-36.9	-37.8	24.5	0.00e+00	0	30	0	629145600	52	5821
2026-01-04 22:41:14.65	96.17	20.48	-36.8	-37.7	24.5	0.00e+00	0	30	0	632291328	52	5766
2026-01-04 22:41:15.66	96.01	20.58	-36.6	-37.5	24.7	0.00e+00	0	30	0	635437056	52	5610
2026-01-04 22:41:16.67	95.84	20.69	-36.6	-37.5	24.7	0.00e+00	0	30	0	638582784	52	5596
2026-01-04 22:41:17.68	95.68	20.79	-36.5	-37.3	24.8	0.00e+00	0	30	0	641728512	52	5525
2026-01-04 22:41:18.69	95.51	20.90	-36.3	-37.1	24.9	0.00e+00	0	30	0	644874240	52	5391
2026-01-04 22:41:19.70	95.35	21.00	-36.1	-37.0	25.0	0.00e+00	0	30	0	648019968	50	5966
2026-01-04 22:41:20.72	95.18	21.11	-36.1	-37.0	24.9	0.00e+00	0	30	0	651165696	50	5970
2026-01-04 22:41:21.73	95.01	21.22	-36.3	-37.2	24.8	0.00e+00	0	30	0	654311424	50	6067
2026-01-04 22:41:22.74	94.84	21.32	-36.3	-37.2	24.8	0.00e+00	0	30	0	657457152	50	6110
2026-01-04 22:41:23.75	94.67	21.43	-36.2	-37.1	24.9	0.00e+00	0	30	0	660602880	50	6027
2026-01-04 22:41:24.76	94.49	21.53	-36.2	-37.1	25.0	0.00e+00	0	30	0	663748608	50	6040
2026-01-04 22:41:25.77	94.32	21.64	-36.4	-37.3	25.0	0.00e+00	0	30	0	666894336	50	6158
2026-01-04 22:41:26.78	94.14	21.75	-36.3	-37.2	24.7	0.00e+00	0	30	0	670040064	50	6115
2026-01-04 22:41:27.80	93.97	21.86	-36.5	-37.4	24.7	0.00e+00	0	30	0	673185792	50	6253
2026-01-04 22:41:28.80	93.79	21.96	-36.5	-37.4	24.6	0.00e+00	0	30	0	676331520	50	6220
2026-01-04 22:41:29.81	93.61	22.07	-36.6	-37.5	24.6	0.00e+00	0	30	0	679477248	50	6286
2026-01-04 22:41:30.83	93.43	22.18	-36.5	-37.4	24.7	0.00e+00	0	30	0	682622976	50	6250
2026-01-04 22:41:31.84	93.25	22.28	-36.6	-37.5	24.6	0.00e+00	0	30	0	685768704	50	6300
2026-01-04 22:41:32.85	93.07	22.39	-36.1	-37.0	25.0	0.00e+00	0	30	0	688914432	50	5982
2026-01-04 22:41:33.86	92.88	22.50	-36.2	-37.1	24.9	0.00e+00	0	30	0	692060160	50	6028
2026-01-04 22:41:34.87	92.70	22.61	-36.1	-37.0	25.0	0.00e+00	0	30	0	695205888	50	5963
2026-01-04 22:41:35.88	92.51	22.72	-36.0	-36.8	25.1	0.00e+00	0	30	0	698351616	50	5857
2026-01-04 22:41:36.89	92.32	22.82	-36.0	-36.8	25.1	0.00e+00	0	30	0	701497344	50	5855
2026-01-04 22:41:37.91	92.13	22.93	-36.0	-36.8	25.0	0.00e+00	0	30	0	704643072	50	5842
2026-01-04 22:41:38.92	91.94	23.04	-36.1	-37.0	24.8	0.00e+00	0	30	0	707788800	50	5930
2026-01-04 22:41:39.93	91.75	23.15	-36.1	-37.0	24.8	0.00e+00	0	30	0	710934528	50	5984
2026-01-04 22:41:40.94	91.56	23.26	-36.3	-37.2	24.8	0.00e+00	0	30	0	714080256	50	6073
2026-01-04 22:41:41.95	91.36	23.37	-36.4	-37.3	24.7	0.00e+00	0	30	0	717225984	50	6139
2026-01-04 22:41:42.96	91.17	23.48	-36.5	-37.3	24.8	0.00e+00	0	30	0	720371712	50	6203
2026-01-04 22:41:43.97	90.97	23.58	-36.4	-37.3	24.9	0.00e+00	0	30	0	723517440	50	6154
2026-01-04 22:41:44.98	90.77	23.69	-36.1	-37.0	25.1	0.00e+00	0	30	0	726663168	50	5931
2026-01-04 22:41:45.99	90.57	23.80	-36.1	-37.0	25.0	0.00e+00	0	30	0	729808896	50	5942
2026-01-04 22:41:47.00	90.37	23.91	-36.1	-37.0	25.0	0.00e+00	0	30	0	732954624	50	5965
2026-01-04 22:41:48.01	90.16	24.02	-36.2	-37.1	24.9	0.00e+00	0	30	0	736100352	50	6015
2026-01-04 22:41:49.03	89.96	24.13	-36.5	-37.4	24.7	0.00e+00	0	30	0	739246080	50	6206
2026-01-04 22:41:50.04	89.75	24.24	-36.5	-37.4	24.7	0.00e+00	0	30	0	742391808	50	6211
2026-01-04 22:41:51.05	89.55	24.35	-36.4	-37.3	24.7	0.00e+00	0	30	0	745537536	50	6188
2026-01-04 22:41:52.06	89.34	24.46	-36.6	-37.4	24.7	0.00e+00	0	30	0	748683264	50	6276
2026-01-04 22:41:53.07	89.13	24.57	-36.4	-37.3	24.7	0.00e+00	0	30	0	751828992	50	6196
2026-01-04 22:41:54.08	88.91	24.68	-36.5	-37.4	24.8	0.00e+00	0	30	0	754974720	50	6206
2026-01-04 22:41:55.09	88.70	24.79	-36.4	-37.3	24.8	0.00e+00	0	30	0	758120448	50	6183
2026-01-04 22:41:56.11	88.49	24.90	-36.3	-37.1	24.9	0.00e+00	0	30	0	761266176	50	6056
2026-01-04 22:41:57.12	88.27	25.01	-36.4	-37.2	24.8	0.00e+00	0	30	0	764411904	50	6109
2026-01-04 22:41:58.13	88.05	25.12	-36.3	-37.2	24.8	0.00e+00	0	30	0	767557632	50	6070
2026-01-04 22:41:59.14	87.83	25.23	-36.6	-37.5	24.7	0.00e+00	0	30	0	770703360	50	6305
2026-01-04 22:42:00.15	87.61	25.34	-36.5	-37.4	24.7	0.00e+00	0	30	0	773849088	50	6223
2026-01-04 22:42:01.16	87.39	25.45	-36.5	-37.4	24.7	0.00e+00	0	30	0	776994816	50	6252
2026-01-04 22:42:02.17	87.17	25.55	-36.6	-37.5	24.6	0.00e+00	0	30	0	780140544	50	6321
2026-01-04 22:42:03.18	86.94	25.66	-36.8	-37.7	24.5	0.00e+00	0	30	0	783286272	50	6458
2026-01-04 22:42:04.19	86.71	25.77	-36.9	-37.8	24.5	0.00e+00	0	30	0	786432000	50	6557
2026-01-04 22:42:05.21	86.48	25.88	-36.9	-37.8	24.5	0.00e+00	0	30	0	789577728	50	6535
2026-01-04 22:42:06.22	86.25	25.99	-37.0	-37.9	24.5	0.00e+00	0	30	0	792723456	50	6585
2026-01-04 22:42:07.23	86.02	26.10	-37.1	-38.0	24.4	0.00e+00	0	30	0	795869184	52	5955
2026-01-04 22:42:08.24	85.79	26.21	-37.3	-38.3	24.2	0.00e+00	0	30	0	799014912	52	6139
2026-01-04 22:42:09.25	85.55	26.32	-37.6	-38.6	23.9	0.00e+00	0	30	0	802160640	52	6360
2026-01-04 22:42:10.26	85.31	26.43	-37.3	-38.2	24.2	0.00e+00	0	30	0	805306368	52	6109
2026-01-04 22:42:11.27	85.08	26.54	-37.5	-38.4	24.1	0.00e+00	0	30	0	808452096	52	6219
2026-01-04 22:42:12.28	84.84	26.65	-37.1	-38.0	24.3	0.00e+00	0	30	0	811597824	52	5990
2026-01-04 22:42:13.29	84.60	26.75	-37.2	-38.1	24.3	0.00e+00	0	30	0	814743552	52	6057
2026-01-04 22:42:14.30	84.35	26.86	-37.2	-38.2	24.3	0.00e+00	0	30	0	817889280	52	6066
2026-01-04 22:42:15.32	84.10	26.97	-37.0	-37.9	24.4	0.00e+00	0	30	0	822083584	52	5925
2026-01-04 22:42:16.33	83.86	27.08	-37.1	-38.0	24.3	0.00e+00	0	30	0	824180736	52	5987
2026-01-04 22:42:17.34	83.61	27.19	-37.2	-38.1	24.4	0.00e+00	0	30	0	827326464	52	6020
2026-01-04 22:42:18.35	83.36	27.30	-37.4	-38.3	24.2	0.00e+00	0	30	0	830472192	52	6163
2026-01-04 22:42:19.36	83.11	27.40	-37.2	-38.1	24.4	0.00e+00	0	30	0	833617920	52	6031
2026-01-04 22:42:20.37	82.85	27.51	-37.0	-37.9	24.4	0.00e+00	0	30	0	837812224	52	5911
2026-01-04 22:42:21.38	82.60	27.62	-36.9	-37.8	24.6	0.00e+00	0	30	0	840957952	52	5839
2026-01-04 22:42:22.39	82.34	27.72	-36.8	-37.6	24.6	0.00e+00	0	30	0	844103680	52	5724
2026-01-04 22:42:23.41	82.08	27.83	-36.8	-37.7	24.6	0.00e+00	0	30	0	846200832	52	5774
2026-01-04 22:42:24.42	81.82	27.94	-36.6	-37.5	24.7	0.00e+00	0	30	0	850395136	52	5623
2026-01-04 22:42:25.43	81.56	28.05	-36.6	-37.5	24.7	0.00e+00	0	30	0	853540864	52	5607
2026-01-04 22:42:26.44	81.30	28.15	-36.6	-37.5	24.7	0.00e+00	0	30	0	856686592	52	5645
2026-01-04 22:42:27.45	81.03	28.26	-36.6	-37.5	24.6	0.00e+00	0	30	0	859832320	52	5637
2026-01-04 22:42:28.46	80.76	28.36	-36.8	-37.8	24.5	0.00e+00	0	30	0	862978048	52	5796
2026-01-04 22:42:29.47	80.49	28.47	-36.9	-37.8	24.5	0.00e+00	0	30	0	866123776	52	5818
2026-01-04 22:42:30.48	80.22	28.57	-36.9	-37.8	24.6	0.00e+00	0	30	0	869269504	52	5810
2026-01-04 22:42:31.49	79.95	28.68	-36.8	-37.7	24.5	0.00e+00	0	30	0	872415232	52	5772
2026-01-04 22:42:32.50	79.68	28.78	-36.8	-37.7	24.5	0.00e+00	0	30	0	875560960	52	5770
2026-01-04 22:42:33.52	79.40	28.88	-36.9	-37.9	24.4	0.00e+00	0	30	0	878706688	52	5860
2026-01-04 22:42:34.53	79.12	28.99	-37.0	-37.9	24.2	0.00e+00	0	30	0	881852416	52	5893
2026-01-04 22:42:35.54	78.84	29.09	-37.4	-38.4	23.9	0.00e+00	0	30	0	884998144	52	6211
2026-01-04 22:42:36.55	78.56	29.19	-37.6	-38.5	23.8	0.00e+00	0	30	0	888143872	52	6338
2026-01-04 22:42:37.56	78.27	29.30	-37.8	-38.7	23.6	0.00e+00	0	30	0	891289600	52	6486
2026-01-04 22:42:38.57	77.99	29.40	-37.3	-38.2	24.1	0.00e+00	0	30	0	894435328	52	6105
2026-01-04 22:42:39.58	77.70	29.50	-37.1	-38.0	24.4	0.00e+00	0	30	0	897581056	52	5990
2026-01-04 22:42:40.59	77.41	29.60	-36.8	-37.7	24.6	0.00e+00	0	30	0	900726784	52	5775
2026-01-04 22:42:41.60	77.12	29.70	-36.8	-37.8	24.5	0.00e+00	0	30	0	903872512	52	5792
2026-01-04 22:42:42.61	76.83	29.80	-36.8	-37.7	24.6	0.00e+00	0	30	0	907018240	52	5731
2026-01-04 22:42:43.63	76.53	29.90	-36.9	-37.8	24.5	0.00e+00	0	30	0	910163968	52	5815
2026-01-04 22:42:44.64	76.24	30.00	-36.8	-37.7	24.5	0.00e+00	0	30	0	913309696	52	5784
2026-01-04 22:42:45.65	75.94	30.10	-36.6	-37.5	24.7	0.00e+00	0	30	0	916455424	52	5637
2026-01-04 22:42:46.66	75.64	30.19	-36.7	-37.6	24.6	0.00e+00	0	30	0	919601152	52	5660
2026-01-04 22:42:47.67	75.34	30.29	-36.6	-37.5	24.7	0.00e+00	0	30	0	922746880	52	5626
2026-01-04 22:42:48.68	75.03	30.39	-36.7	-37.5	24.6	0.00e+00	0	30	0	925892608	52	5646
2026-01-04 22:42:49.69	74.73	30.48	-36.9	-37.8	24.5	0.00e+00	0	30	0	929038336	52	5794
2026-01-04 22:42:50.71	74.42	30.58	-36.9	-37.8	24.6	0.00e+00	0	30	0	932184064	52	5813
2026-01-04 22:42:51.72	74.11	30.67	-37.0	-37.9	24.5	0.00e+00	0	30	0	935329792	52	5888
2026-01-04 22:42:52.73	73.80	30.77	-37.0	-37.9	24.5	0.00e+00	0	30	0	938475520	52	5905
2026-01-04 22:42:53.74	73.49	30.86	-37.0	-37.9	24.4	0.00e+00	0	30	0	941621248	52	5879
2026-01-04 22:42:54.75	73.17	30.96	-37.1	-38.0	24.4	0.00e+00	0	30	0	944766976	52	5940
2026-01-04 22:42:55.76	72.85	31.05	-37.1	-38.0	24.4	0.00e+00	0	30	0	947912704	52	5954
2026-01-04 22:42:56.77	72.54	31.14	-37.0	-37.9	24.4	0.00e+00	0	30	0	951058432	52	5911
2026-01-04 22:42:57.78	72.22	31.23	-37.0	-37.9	24.5	0.00e+00	0	30	0	954204160	52	5907
2026-01-04 22:42:58.79	71.90	31.32	-37.0	-37.9	24.4	0.00e+00	0	30	0	957349888	52	5896
2026-01-04 22:42:59.80	71.57	31.41	-36.9	-37.8	24.5	0.00e+00	0	30	0	960495616	52	5829
2026-01-04 22:43:00.81	71.25	31.50	-37.0	-37.9	24.5	0.00e+00	0	30	0	963641344	52	5887
2026-01-04 22:43:01.82	70.92	31.58	-37.1	-38.0	24.3	0.00e+00	0	30	0	966787072	52	5962
2026-01-04 22:43:02.84	70.59	31.67	-37.2	-38.1	24.3	0.00e+00	0	30	0	969932800	52	6059
2026-01-04 22:43:03.85	70.26	31.76	-37.4	-38.3	24.1	0.00e+00	0	30	0	973078528	52	6162
2026-01-04 22:43:04.86	69.93	31.84	-37.6	-38.5	24.0	0.00e+00	0	30	0	976224256	52	6331
2026-01-04 22:43:05.87	69.59	31.93	-37.7	-38.6	24.0	0.00e+00	0	30	0	979369984	52	6382
2026-01-04 22:43:06.88	69.26	32.01	-37.8	-38.7	23.9	0.00e+00	0	30	0	982515712	52	6469
2026-01-04 22:43:07.89	68.92	32.09	-37.8	-38.7	23.9	0.00e+00	0	30	0	985661440	52	6449
2026-01-04 22:43:08.90	68.58	32.17	-37.9	-38.8	23.8	0.00e+00	0	30	0	988807168	52	6535
2026-01-04 22:43:09.91	68.24	32.26	-37.8	-38.7	23.9	0.00e+00	0	30	0	991952896	52	6454
2026-01-04 22:43:10.92	67.90	32.34	-37.8	-38.7	24.0	0.00e+00	0	30	0	995098624	52	6474
2026-01-04 22:43:11.94	67.55	32.41	-37.5	-38.4	24.2	0.00e+00	0	30	0	998244352	52	6271
2026-01-04 22:43:12.95	67.20	32.49	-37.6	-38.5	24.0	0.00e+00	0	30	0	1001390080	52	6327
2026-01-04 22:43:13.96	66.85	32.57	-37.8	-38.8	23.9	0.00e+00	0	30	0	1004535808	52	6501
2026-01-04 22:43:14.97	66.51	32.65	-37.6	-38.6	24.0	0.00e+00	0	30	0	1007681536	52	6360
2026-01-04 22:43:15.98	66.15	32.72	-37.3	-38.2	24.2	0.00e+00	0	30	0	1010827264	52	6133
2026-01-04 22:43:16.99	65.80	32.79	-37.3	-38.2	24.2	0.00e+00	0	30	0	1013972992	52	6099
2026-01-04 22:43:18.00	65.45	32.87	-37.5	-38.4	24.1	0.00e+00	0	30	0	1017118720	52	6230
2026-01-04 22:43:19.01	65.09	32.94	-37.6	-38.6	24.0	0.00e+00	0	30	0	1020264448	52	6352
2026-01-04 22:43:20.02	64.74	33.01	-37.8	-38.7	24.0	0.00e+00	0	30	0	1023410176	52	6449
2026-01-04 22:43:21.04	64.37	33.08	-37.7	-38.6	24.1	0.00e+00	0	30	0	1026555904	52	6399
2026-01-04 22:43:22.05	64.01	33.15	-37.5	-38.4	24.1	0.00e+00	0	30	0	1029701632	52	6266
2026-01-04 22:43:23.06	63.65	33.21	-37.7	-38.6	23.9	0.00e+00	0	30	0	1032847360	52	6407
2026-01-04 22:43:24.07	63.29	33.28	-37.7	-38.6	23.9	0.00e+00	0	30	0	1035993088	52	6410
2026-01-04 22:43:25.08	62.92	33.34	-37.8	-38.7	23.9	0.00e+00	0	30	0	1039138816	52	6445
2026-01-04 22:43:26.09	62.56	33.41	-37.8	-38.8	23.8	0.00e+00	0	30	0	1042284544	52	6519
2026-01-04 22:43:27.10	62.19	33.47	-38.0	-38.9	23.7	0.00e+00	0	30	0	1045430272	52	6649
2026-01-04 22:43:28.11	61.82	33.53	-38.1	-39.0	23.6	0.00e+00	0	30	0	1048576000	52	6710
2026-01-04 22:43:29.12	61.45	33.59	-37.9	-38.8	23.7	0.00e+00	0	30	0	1051721728	52	6565
2026-01-04 22:43:30.13	61.08	33.65	-38.0	-39.0	23.7	0.00e+00	0	30	0	1054867456	52	6684
2026-01-04 22:43:31.15	60.70	33.71	-37.8	-38.7	23.8	0.00e+00	0	30	0	1058013184	52	6495
2026-01-04 22:43:32.16	60.33	33.76	-37.9	-38.8	23.8	0.00e+00	0	30	0	1061158912	52	6549
2026-01-04 22:43:33.17	59.95	33.82	-37.5	-38.4	24.1	0.00e+00	0	30	0	1065353216	52	6274
2026-01-04 22:43:34.18	59.58	33.87	-37.4	-38.3	24.1	0.00e+00	0	30	0	1067450368	52	6190
2026-01-04 22:43:35.19	59.20	33.92	-37.4	-38.3	24.1	0.00e+00	0	30	0	1070596096	52	6173
2026-01-04 22:43:36.20	58.82	33.98	-37.6	-38.5	24.0	0.00e+00	0	30	0	1073741824	52	6307
2026-01-04 22:43:37.21	58.44	34.03	-37.6	-38.5	24.0	0.00e+00	0	30	0	1076887552	52	6324
2026-01-04 22:43:38.22	58.06	34.07	-37.7	-38.7	23.8	0.00e+00	0	30	0	1081081856	52	6434
2026-01-04 22:43:39.24	57.67	34.12	-37.7	-38.7	23.8	0.00e+00	0	30	0	1084227584	52	6438
2026-01-04 22:43:40.25	57.29	34.17	-37.9	-38.8	23.6	0.00e+00	0	30	0	1087373312	52	6551
2026-01-04 22:43:41.26	56.90	34.21	-37.9	-38.9	23.7	0.00e+00	0	30	0	1090519040	52	6605
2026-01-04 22:43:42.27	56.52	34.25	-38.1	-39.1	23.4	0.00e+00	0	30	0	1093664768	54	6023
2026-01-04 22:43:43.28	56.13	34.29	-38.3	-39.2	23.3	0.00e+00	0	30	0	1096810496	54	6129
2026-01-04 22:43:44.29	55.74	34.33	-38.0	-39.0	23.5	0.00e+00	0	30	0	1099956224	54	5953
2026-01-04 22:43:45.30	55.35	34.37	-37.8	-38.7	23.8	0.00e+00	0	30	0	1103101952	54	5784
2026-01-04 22:43:46.31	54.96	34.41	-37.9	-38.9	23.7	0.00e+00	0	30	0	1106247680	54	5862
2026-01-04 22:43:47.32	54.57	34.44	-38.0	-38.9	23.6	0.00e+00	0	30	0	1109393408	54	5914
2026-01-04 22:43:48.33	54.18	34.48	-38.0	-39.0	23.6	0.00e+00	0	30	0	1112539136	54	5932
2026-01-04 22:43:49.34	53.79	34.51	-38.1	-39.0	23.5	0.00e+00	0	30	0	1115684864	54	5994
2026-01-04 22:43:50.35	53.40	34.54	-38.0	-38.9	23.7	0.00e+00	0	30	0	1118830592	54	5909
2026-01-04 22:43:51.37	53.00	34.57	-37.9	-38.8	23.6	0.00e+00	0	30	0	1121976320	54	5828
2026-01-04 22:43:52.38	52.60	34.60	-38.0	-39.0	23.6	0.00e+00	0	30	0	1125122048	54	5943
2026-01-04 22:43:53.39	52.21	34.62	-38.2	-39.1	23.7	0.00e+00	0	30	0	1128267776	54	6031
2026-01-04 22:43:54.40	51.81	34.65	-38.1	-39.1	23.7	0.00e+00	0	30	0	1131413504	54	5996
2026-01-04 22:43:55.41	51.42	34.67	-38.0	-38.9	23.7	0.00e+00	0	30	0	1134559232	54	5914
2026-01-04 22:43:56.42	51.02	34.69	-37.9	-38.8	23.8	0.00e+00	0	30	0	1137704960	54	5847
2026-01-04 22:43:57.43	50.62	34.71	-38.2	-39.1	23.6	0.00e+00	0	30	0	1140850688	54	6045
2026-01-04 22:43:58.44	50.23	34.73	-38.3	-39.3	23.4	0.00e+00	0	30	0	1143996416	54	6138
2026-01-04 22:43:59.45	49.83	34.75	-38.4	-39.3	23.4	0.00e+00	0	30	0	1147142144	54	6190
2026-01-04 22:44:00.46	49.43	34.76	-38.6	-39.6	23.2	0.00e+00	0	30	0	1150287872	54	6395
2026-01-04 22:44:01.48	49.03	34.78	-38.6	-39.6	23.2	0.00e+00	0	30	0	1153433600	54	6394
2026-01-04 22:44:02.49	48.63	34.79	-38.5	-39.5	23.3	0.00e+00	0	30	0	1156579328	54	6290
2026-01-04 22:44:03.50	48.23	34.80	-38.5	-39.4	23.2	0.00e+00	0	30	0	1159725056	54	6260
2026-01-04 22:44:04.51	47.83	34.81	-38.3	-39.3	23.3	0.00e+00	0	30	0	1162870784	54	6161
2026-01-04 22:44:05.52	47.43	34.82	-38.3	-39.2	23.4	0.00e+00	0	30	0	1166016512	54	6125
2026-01-04 22:44:06.53	47.03	34.82	-38.1	-39.0	23.7	0.00e+00	0	30	0	1169162240	54	5957
2026-01-04 22:44:07.54	46.63	34.83	-38.0	-38.9	23.8	0.00e+00	0	30	0	1172307968	54	5891
2026-01-04 22:44:08.55	46.23	34.83	-38.1	-39.0	23.7	0.00e+00	0	30	0	1175453696	54	5982
2026-01-04 22:44:09.56	45.83	34.83	-37.9	-38.9	23.8	0.00e+00	0	30	0	1178599424	54	5866
2026-01-04 22:44:10.57	45.43	34.83	-37.9	-38.8	23.9	0.00e+00	0	30	0	1181745152	54	5842
2026-01-04 22:44:11.59	45.03	34.83	-38.1	-39.1	23.5	0.00e+00	0	30	0	1184890880	54	6004
2026-01-04 22:44:12.60	44.63	34.82	-38.4	-39.4	23.0	0.00e+00	0	30	0	1188036608	54	6264
2026-01-04 22:44:13.61	44.23	34.82	-38.5	-39.5	23.2	0.00e+00	0	30	0	1191182336	54	6279
2026-01-04 22:44:14.62	43.83	34.81	-38.7	-39.7	23.1	0.00e+00	0	30	0	1194328064	54	6443
2026-01-04 22:44:15.63	43.43	34.80	-38.8	-39.7	23.0	0.00e+00	0	30	0	1197473792	54	6495
2026-01-04 22:44:16.64	43.03	34.79	-38.6	-39.6	23.2	0.00e+00	0	30	0	1200619520	54	6391
2026-01-04 22:44:17.65	42.63	34.78	-38.4	-39.4	23.3	0.00e+00	0	30	0	1203765248	54	6232
2026-01-04 22:44:18.66	42.23	34.77	-38.5	-39.5	23.2	0.00e+00	0	30	0	1206910976	54	6302
2026-01-04 22:44:19.67	41.83	34.75	-38.3	-39.2	23.4	0.00e+00	0	30	0	1210056704	54	6132
2026-01-04 22:44:20.68	41.43	34.74	-38.1	-39.0	23.6	0.00e+00	0	30	0	1213202432	54	5964
2026-01-04 22:44:21.69	41.04	34.72	-38.2	-39.2	23.4	0.00e+00	0	30	0	1216348160	54	6093
2026-01-04 22:44:22.70	40.64	34.70	-38.3	-39.3	23.3	0.00e+00	0	30	0	1219493888	54	6203
2026-01-04 22:44:23.71	40.24	34.68	-38.4	-39.3	23.3	0.00e+00	0	30	0	1222639616	54	6203
2026-01-04 22:44:24.73	39.84	34.66	-38.4	-39.4	23.3	0.00e+00	0	30	0	1225785344	54	6267
2026-01-04 22:44:25.74	39.45	34.63	-38.3	-39.3	23.4	0.00e+00	0	30	0	1228931072	54	6173
2026-01-04 22:44:26.75	39.05	34.61	-38.2	-39.1	23.5	0.00e+00	0	30	0	1232076800	54	6064
2026-01-04 22:44:27.76	38.66	34.58	-38.2	-39.2	23.5	0.00e+00	0	30	0	1235222528	54	6086
2026-01-04 22:44:28.77	38.26	34.55	-38.5	-39.5	23.2	0.00e+00	0	30	0	1238368256	54	6313
2026-01-04 22:44:29.78	37.87	34.52	-38.5	-39.5	23.2	0.00e+00	0	30	0	1241513984	54	6316
2026-01-04 22:44:30.79	37.48	34.49	-38.6	-39.6	23.2	0.00e+00	0	30	0	1244659712	54	6361
2026-01-04 22:44:31.80	37.09	34.46	-38.4	-39.3	23.4	0.00e+00	0	30	0	1247805440	54	6196
2026-01-04 22:44:32.81	36.70	34.42	-38.3	-39.2	23.5	0.00e+00	0	30	0	1250951168	54	6111
2026-01-04 22:44:33.82	36.31	34.39	-38.1	-39.0	23.6	0.00e+00	0	30	0	1254096896	54	5994
2026-01-04 22:44:34.84	35.92	34.35	-37.9	-38.8	23.8	0.00e+00	0	30	0	1257242624	54	5816
2026-01-04 22:44:35.85	35.53	34.31	-37.8	-38.7	23.8	0.00e+00	0	30	0	1260388352	54	5753
2026-01-04 22:44:36.86	35.14	34.27	-37.9	-38.9	23.8	0.00e+00	0	30	0	1263534080	54	5870
2026-01-04 22:44:37.87	34.76	34.23	-38.1	-39.0	23.6	0.00e+00	0	30	0	1266679808	54	5988
2026-01-04 22:44:38.88	34.37	34.18	-37.8	-38.7	23.9	0.00e+00	0	30	0	1269825536	54	5741
2026-01-04 22:44:39.89	33.99	34.14	-38.1	-39.1	23.6	0.00e+00	0	30	0	1272971264	54	6011
2026-01-04 22:44:40.90	33.60	34.09	-38.0	-38.9	23.8	0.00e+00	0	30	0	1276116992	54	5900
2026-01-04 22:44:41.92	33.22	34.04	-37.6	-38.5	23.9	0.00e+00	0	30	0	1279262720	54	5630
2026-01-04 22:44:42.93	32.84	33.99	-37.6	-38.5	23.8	0.00e+00	0	30	0	1282408448	54	5629
2026-01-04 22:44:43.94	32.46	33.94	-37.5	-38.4	23.9	0.00e+00	0	30	0	1285554176	54	5576
2026-01-04 22:44:44.95	32.08	33.89	-37.7	-38.6	23.8	0.00e+00	0	30	0	1288699904	54	5713
2026-01-04 22:44:45.96	31.71	33.84	-37.8	-38.7	23.7	0.00e+00	0	30	0	1291845632	54	5765
2026-01-04 22:44:46.97	31.33	33.79	-37.8	-38.8	23.7	0.00e+00	0	30	0	1294991360	54	5795
2026-01-04 22:44:47.98	30.96	33.73	-37.9	-38.8	23.6	0.00e+00	0	30	0	1298137088	54	5851
2026-01-04 22:44:48.99	30.58	33.67	-38.0	-38.9	23.6	0.00e+00	0	30	0	1301282816	54	5898
2026-01-04 22:44:50.00	30.21	33.61	-37.9	-38.9	23.6	0.00e+00	0	30	0	1304428544	54	5861
2026-01-04 22:44:51.01	29.84	33.56	-38.0	-39.0	23.7	0.00e+00	0	30	0	1307574272	54	5956
2026-01-04 22:44:52.03	29.47	33.49	-38.0	-39.0	23.6	0.00e+00	0	30	0	1311768576	54	5931
2026-01-04 22:44:53.04	29.10	33.43	-38.2	-39.2	23.6	0.00e+00	0	30	0	1313865728	54	6077
2026-01-04 22:44:54.05	28.74	33.37	-38.2	-39.2	23.5	0.00e+00	0	30	0	1317011456	54	6072
2026-01-04 22:44:55.06	28.37	33.31	-38.3	-39.2	23.4	0.00e+00	0	30	0	1320157184	54	6122
2026-01-04 22:44:56.07	28.01	33.24	-37.9	-38.9	23.7	0.00e+00	0	30	0	1324351488	54	5859
2026-01-04 22:44:57.08	27.65	33.17	-37.8	-38.7	23.7	0.00e+00	0	30	0	1327497216	54	5772
2026-01-04 22:44:58.09	27.29	33.11	-37.8	-38.7	23.7	0.00e+00	0	30	0	1330642944	54	5785
2026-01-04 22:44:59.11	26.92	33.04	-37.6	-38.5	24.0	0.00e+00	0	30	0	1333788672	54	5650
2026-01-04 22:45:00.12	26.57	32.97	-37.6	-38.5	23.9	0.00e+00	0	30	0	1336934400	54	5634
2026-01-04 22:45:01.13	26.21	32.90	-37.7	-38.6	23.9	0.00e+00	0	30	0	1340080128	54	5711
2026-01-04 22:45:02.14	25.86	32.82	-37.9	-38.8	23.8	0.00e+00	0	30	0	1343225856	54	5831
2026-01-04 22:45:03.15	25.51	32.75	-37.9	-38.8	23.7	0.00e+00	0	30	0	1346371584	54	5835
2026-01-04 22:45:04.16	25.16	32.68	-37.7	-38.6	23.9	0.00e+00	0	30	0	1349517312	54	5690
2026-01-04 22:45:05.17	24.81	32.60	-37.5	-38.4	24.0	0.00e+00	0	30	0	1352663040	54	5561
2026-01-04 22:45:06.18	24.46	32.52	-37.3	-38.2	24.2	0.00e+00	0	30	0	1355808768	54	5465
2026-01-04 22:45:07.19	24.11	32.45	-37.1	-38.0	24.4	0.00e+00	0	30	0	1358954496	52	5967
2026-01-04 22:45:08.20	23.77	32.37	-37.1	-38.0	24.4	0.00e+00	0	30	0	1362100224	52	5933
2026-01-04 22:45:09.21	23.43	32.29	-37.2	-38.1	24.3	0.00e+00	0	30	0	1365245952	52	6040
2026-01-04 22:45:10.23	23.08	32.21	-37.5	-38.4	24.1	0.00e+00	0	30	0	1368391680	52	6266
2026-01-04 22:45:11.24	22.74	32.13	-37.9	-38.9	23.7	0.00e+00	0	30	0	1371537408	52	6615
2026-01-04 22:45:12.25	22.41	32.05	-38.1	-39.1	23.5	0.00e+00	0	30	0	1374683136	54	6033
2026-01-04 22:45:13.26	22.07	31.96	-38.1	-39.1	23.5	0.00e+00	0	30	0	1377828864	54	6034
2026-01-04 22:45:14.27	21.74	31.88	-37.8	-38.8	23.7	0.00e+00	0	30	0	1380974592	54	5822
2026-01-04 22:45:15.28	21.41	31.79	-37.5	-38.4	24.0	0.00e+00	0	30	0	1384120320	54	5558
2026-01-04 22:45:16.29	21.08	31.71	-37.4	-38.3	24.0	0.00e+00	0	30	0	1387266048	54	5515
2026-01-04 22:45:17.30	20.75	31.62	-37.3	-38.3	24.1	0.00e+00	0	30	0	1390411776	54	5480
2026-01-04 22:45:18.32	20.42	31.53	-37.4	-38.3	24.1	0.00e+00	0	30	0	1393557504	54	5521
2026-01-04 22:45:19.33	20.09	31.45	-37.7	-38.7	23.9	0.00e+00	0	30	0	1396703232	54	5735
2026-01-04 22:45:20.34	19.77	31.36	-37.9	-38.9	23.6	0.00e+00	0	30	0	1399848960	54	5887
2026-01-04 22:45:21.35	19.45	31.27	-37.8	-38.7	23.6	0.00e+00	0	30	0	1402994688	54	5789
2026-01-04 22:45:22.36	19.13	31.18	-37.6	-38.5	23.6	0.00e+00	0	30	0	1406140416	54	5649
2026-01-04 22:45:23.37	18.81	31.09	-36.9	-37.8	24.3	0.00e+00	0	30	0	1409286144	52	5831
2026-01-04 22:45:24.38	18.49	31.00	-36.6	-37.5	24.5	0.00e+00	0	30	0	1412431872	52	5650
2026-01-04 22:45:25.39	18.18	30.90	-36.5	-37.4	24.7	0.00e+00	0	30	0	1415577600	52	5541
2026-01-04 22:45:26.40	17.87	30.81	-36.5	-37.3	24.9	0.00e+00	0	30	0	1418723328	52	5510
2026-01-04 22:45:27.41	17.56	30.72	-36.8	-37.6	24.6	0.00e+00	0	30	0	1421869056	52	5706
2026-01-04 22:45:28.42	17.25	30.62	-37.3	-38.2	24.2	0.00e+00	0	30	0	1425014784	52	6108
2026-01-04 22:45:29.44	16.94	30.53	-37.9	-38.9	23.7	0.00e+00	0	30	0	1428160512	52	6576
2026-01-04 22:45:30.45	16.63	30.43	-38.1	-39.1	23.5	0.00e+00	0	30	0	1431306240	52	6759
2026-01-04 22:45:31.46	16.33	30.34	-38.0	-39.0	23.5	0.00e+00	0	30	0	1434451968	54	5966
2026-01-04 22:45:32.47	16.03	30.24	-37.6	-38.6	23.9	0.00e+00	0	30	0	1437597696	54	5660
2026-01-04 22:45:33.48	15.73	30.14	-37.3	-38.2	24.2	0.00e+00	0	30	0	1440743424	54	5440
2026-01-04 22:45:34.49	15.43	30.04	-37.0	-37.9	24.5	0.00e+00	0	30	0	1443889152	52	5897
2026-01-04 22:45:35.50	15.14	29.95	-37.0	-37.9	24.5	0.00e+00	0	30	0	1447034880	52	5886
2026-01-04 22:45:36.51	14.84	29.85	-37.0	-37.9	24.4	0.00e+00	0	30	0	1450180608	52	5883
2026-01-04 22:45:37.52	14.55	29.75	-37.2	-38.1	24.3	0.00e+00	0	30	0	1453326336	52	6044
2026-01-04 22:45:38.53	14.26	29.65	-37.3	-38.3	24.2	0.00e+00	0	30	0	1456472064	52	6155
2026-01-04 22:45:39.54	13.97	29.55	-37.5	-38.4	24.1	0.00e+00	0	30	0	1459617792	52	6234
2026-01-04 22:45:40.55	13.68	29.45	-37.2	-38.1	24.2	0.00e+00	0	30	0	1462763520	52	6029
2026-01-04 22:45:41.57	13.40	29.35	-37.3	-38.3	24.1	0.00e+00	0	30	0	1465909248	52	6145
2026-01-04 22:45:42.58	13.11	29.24	-37.3	-38.2	24.1	0.00e+00	0	30	0	1469054976	52	6122
2026-01-04 22:45:43.59	12.83	29.14	-37.5	-38.5	24.1	0.00e+00	0	30	0	1472200704	52	6285
2026-01-04 22:45:44.60	12.55	29.04	-37.6	-38.5	24.0	0.00e+00	0	30	0	1475346432	52	6315
2026-01-04 22:45:45.61	12.27	28.94	-37.8	-38.7	23.9	0.00e+00	0	30	0	1478492160	52	6496
2026-01-04 22:45:46.62	12.00	28.83	-37.4	-38.3	24.2	0.00e+00	0	30	0	1481637888	52	6170
2026-01-04 22:45:47.63	11.72	28.73	-37.4	-38.3	24.2	0.00e+00	0	30	0	1484783616	52	6171
2026-01-04 22:45:48.64	11.45	28.63	-37.3	-38.2	24.3	0.00e+00	0	30	0	1487929344	52	6108
2026-01-04 22:45:49.65	11.18	28.52	-37.1	-38.0	24.4	0.00e+00	0	30	0	1491075072	52	5958
2026-01-04 22:45:50.67	10.91	28.42	-36.9	-37.8	24.5	0.00e+00	0	30	0	1494220800	52	5840
2026-01-04 22:45:51.68	10.64	28.31	-36.6	-37.4	24.8	0.00e+00	0	30	0	1497366528	52	5594
2026-01-04 22:45:52.69	10.38	28.21	-36.8	-37.7	24.7	0.00e+00	0	30	0	1500512256	52	5786
2026-01-04 22:45:53.70	10.11	28.10	-36.4	-37.2	24.8	0.00e+00	0	30	0	1503657984	52	5467
2026-01-04 22:45:54.71	9.85	28.00	-36.7	-37.6	24.6	0.00e+00	0	30	0	1506803712	52	5681
2026-01-04 22:45:55.72	9.59	27.89	-36.8	-37.7	24.6	0.00e+00	0	30	0	1509949440	52	5736
2026-01-04 22:45:56.73	9.33	27.78	-36.9	-37.9	24.4	0.00e+00	0	30	0	1513095168	52	5865
2026-01-04 22:45:57.74	9.08	27.68	-36.9	-37.9	24.4	0.00e+00	0	30	0	1516240896	52	5861
2026-01-04 22:45:58.75	8.82	27.57	-36.8	-37.7	24.5	0.00e+00	0	30	0	1519386624	52	5779
2026-01-04 22:45:59.76	8.57	27.46	-36.6	-37.5	24.7	0.00e+00	0	30	0	1522532352	52	5648
2026-01-04 22:46:00.78	8.31	27.36	-36.9	-37.8	24.5	0.00e+00	0	30	0	1525678080	52	5803
2026-01-04 22:46:01.79	8.06	27.25	-36.6	-37.5	24.7	0.00e+00	0	30	0	1528823808	52	5621
2026-01-04 22:46:02.80	7.82	27.14	-36.7	-37.6	24.6	0.00e+00	0	30	0	1531969536	52	5714
2026-01-04 22:46:03.81	7.57	27.03	-36.7	-37.6	24.6	0.00e+00	0	30	0	1535115264	52	5672
2026-01-04 22:46:04.82	7.33	26.93	-36.9	-37.8	24.5	0.00e+00	0	30	0	1538260992	52	5818
2026-01-04 22:46:05.83	7.08	26.82	-36.8	-37.7	24.7	0.00e+00	0	30	0	1541406720	52	5740
2026-01-04 22:46:06.84	6.84	26.71	-36.7	-37.6	24.6	0.00e+00	0	30	0	1544552448	52	5725
2026-01-04 22:46:07.85	6.60	26.60	-36.7	-37.6	24.7	0.00e+00	0	30	0	1547698176	52	5661
2026-01-04 22:46:08.86	6.36	26.49	-36.6	-37.5	24.7	0.00e+00	0	30	0	1550843904	52	5616
2026-01-04 22:46:09.88	6.12	26.38	-36.6	-37.5	24.5	0.00e+00	0	30	0	1555038208	52	5659
2026-01-04 22:46:10.89	5.89	26.28	-36.6	-37.5	24.6	0.00e+00	0	30	0	1558183936	52	5656
2026-01-04 22:46:11.90	5.66	26.17	-36.7	-37.6	24.6	0.00e+00	0	30	0	1560281088	52	5676
2026-01-04 22:46:12.91	5.43	26.06	-36.8	-37.7	24.5	0.00e+00	0	30	0	1563426816	52	5730
2026-01-04 22:46:13.92	5.20	25.95	-36.8	-37.7	24.4	0.00e+00	0	30	0	1567621120	52	5785
2026-01-04 22:46:14.93	4.97	25.84	-36.6	-37.5	24.7	0.00e+00	0	30	0	1570766848	52	5595
2026-01-04 22:46:15.94	4.74	25.73	-36.5	-37.4	24.8	0.00e+00	0	30	0	1573912576	52	5545
2026-01-04 22:46:16.95	4.52	25.62	-36.6	-37.4	24.8	0.00e+00	0	30	0	1577058304	52	5592
2026-01-04 22:46:17.97	4.29	25.51	-36.5	-37.4	24.8	0.00e+00	0	30	0	1580204032	52	5532
2026-01-04 22:46:18.98	4.07	25.40	-36.7	-37.5	24.8	0.00e+00	0	30	0	1583349760	52	5655
2026-01-04 22:46:19.99	3.85	25.30	-36.6	-37.5	24.7	0.00e+00	0	30	0	1586495488	52	5606
2026-01-04 22:46:21.00	3.63	25.19	-36.9	-37.8	24.5	0.00e+00	0	30	0	1589641216	52	5858
2026-01-04 22:46:22.01	3.41	25.08	-36.8	-37.7	24.6	0.00e+00	0	30	0	1592786944	52	5748
2026-01-04 22:46:23.02	3.20	24.97	-36.9	-37.8	24.5	0.00e+00	0	30	0	1595932672	52	5846
2026-01-04 22:46:24.03	2.98	24.86	-36.9	-37.8	24.5	0.00e+00	0	30	0	1599078400	52	5814
2026-01-04 22:46:25.04	2.77	24.75	-37.0	-37.9	24.5	0.00e+00	0	30	0	1602224128	52	5901
2026-01-04 22:46:26.05	2.56	24.64	-36.5	-37.4	24.8	0.00e+00	0	30	0	1605369856	52	5552
2026-01-04 22:46:27.07	2.34	24.53	-36.3	-37.2	24.8	0.00e+00	0	30	0	1608515584	52	5408
2026-01-04 22:46:28.08	2.14	24.42	-36.2	-37.0	24.9	0.00e+00	0	30	0	1611661312	52	5338
2026-01-04 22:46:29.09	1.93	24.31	-36.0	-36.9	25.0	0.00e+00	0	30	0	1614807040	50	5879
2026-01-04 22:46:30.10	1.72	24.21	-36.0	-36.8	25.0	0.00e+00	0	30	0	1617952768	50	5833
2026-01-04 22:46:31.11	1.52	24.10	-36.0	-36.8	25.1	0.00e+00	0	30	0	1621098496	50	5846
2026-01-04 22:46:32.12	1.32	23.99	-36.0	-36.9	25.1	0.00e+00	0	30	0	1624244224	50	5859
2026-01-04 22:46:33.13	1.12	23.88	-35.9	-36.7	25.2	0.00e+00	0	30	0	1627389952	50	5778
2026-01-04 22:46:34.14	0.92	23.77	-36.0	-36.9	25.1	0.00e+00	0	30	0	1630535680	50	5864
2026-01-04 22:46:35.15	0.72	23.66	-36.1	-36.9	24.9	0.00e+00	0	30	0	1633681408	50	5905
2026-01-04 22:46:36.17	0.52	23.55	-36.2	-37.1	24.8	0.00e+00	0	30	0	1636827136	50	6033
2026-01-04 22:46:37.18	0.32	23.44	-36.4	-37.3	24.5	0.00e+00	0	30	0	1639972864	50	6198
2026-01-04 22:46:38.19	0.13	23.34	-36.6	-37.5	24.3	0.00e+00	0	30	0	1643118592	50	6290
2026-01-04 22:46:39.20	359.94	23.23	-36.6	-37.5	24.4	0.00e+00	0	30	0	1646264320	50	6285
2026-01-04 22:46:40.21	359.75	23.12	-36.5	-37.4	24.5	0.00e+00	0	30	0	1649410048	50	6218
2026-01-04 22:46:41.22	359.55	23.01	-36.7	-37.6	24.4	0.00e+00	0	30	0	1652555776	50	6363
2026-01-04 22:46:42.23	359.37	22.90	-36.5	-37.4	24.6	0.00e+00	0	30	0	1655701504	50	6274
2026-01-04 22:46:43.24	359.18	22.80	-36.6	-37.5	24.6	0.00e+00	0	30	0	1658847232	50	6299
2026-01-04 22:46:44.25	358.99	22.69	-36.6	-37.5	24.6	0.00e+00	0	30	0	1661992960	50	6283
2026-01-04 22:46:45.26	358.81	22.58	-36.6	-37.5	24.6	0.00e+00	0	30	0	1665138688	50	6300
2026-01-04 22:46:46.28	358.62	22.47	-36.6	-37.5	24.5	0.00e+00	0	30	0	1668284416	50	6311
2026-01-04 22:46:47.29	358.44	22.37	-36.5	-37.4	24.6	0.00e+00	0	30	0	1671430144	50	6272
2026-01-04 22:46:48.30	358.26	22.26	-36.7	-37.5	24.5	0.00e+00	0	30	0	1674575872	50	6348
2026-01-04 22:46:49.31	358.08	22.15	-36.4	-37.3	24.8	0.00e+00	0	30	0	1677721600	50	6161
2026-01-04 22:46:50.32	357.90	22.04	-36.6	-37.5	24.6	0.00e+00	0	30	0	1680867328	50	6337
2026-01-04 22:46:51.33	357.72	21.94	-36.4	-37.3	24.7	0.00e+00	0	30	0	1684013056	50	6170
2026-01-04 22:46:52.34	357.55	21.83	-36.5	-37.3	24.7	0.00e+00	0	30	0	1687158784	50	6202
2026-01-04 22:46:53.35	357.37	21.73	-36.4	-37.3	24.8	0.00e+00	0	30	0	1690304512	50	6177
2026-01-04 22:46:54.36	357.20	21.62	-36.5	-37.4	24.6	0.00e+00	0	30	0	1693450240	50	6264
2026-01-04 22:46:55.37	357.03	21.51	-36.7	-37.7	24.5	0.00e+00	0	30	0	1696595968	50	6426
2026-01-04 22:46:56.39	356.85	21.41	-36.8	-37.7	24.5	0.00e+00	0	30	0	1699741696	50	6452
2026-01-04 22:46:57.40	356.68	21.30	-36.9	-37.9	24.3	0.00e+00	0	30	0	1702887424	50	6580
2026-01-04 22:46:58.41	356.51	21.20	-37.2	-38.2	24.1	0.00e+00	0	30	0	1706033152	52	6066
2026-01-04 22:46:59.42	356.35	21.09	-37.2	-38.1	24.2	0.00e+00	0	30	0	1709178880	52	6026
2026-01-04 22:47:00.43	356.18	20.98	-37.2	-38.2	24.1	0.00e+00	0	30	0	1712324608	52	6075
2026-01-04 22:47:01.44	356.02	20.88	-37.3	-38.3	24.2	0.00e+00	0	30	0	1715470336	52	6154
2026-01-04 22:47:02.45	355.85	20.77	-37.2	-38.1	24.2	0.00e+00	0	30	0	1718616064	52	6027
2026-01-04 22:47:03.46	355.69	20.67	-37.1	-38.0	24.2	0.00e+00	0	30	0	1721761792	52	5989
2026-01-04 22:47:04.47	355.53	20.57	-37.0	-37.9	24.2	0.00e+00	0	30	0	1724907520	52	5890
2026-01-04 22:47:05.48	355.37	20.46	-36.8	-37.7	24.4	0.00e+00	0	30	0	1728053248	52	5769
2026-01-04 22:47:06.50	355.20	20.36	-37.0	-37.9	24.4	0.00e+00	0	30	0	1731198976	52	5893
2026-01-04 22:47:07.51	355.05	20.25	-36.8	-37.7	24.4	0.00e+00	0	30	0	1734344704	52	5776
2026-01-04 22:47:08.52	354.89	20.15	-36.8	-37.7	24.5	0.00e+00	0	30	0	1737490432	52	5743
2026-01-04 22:47:09.53	354.73	20.05	-36.8	-37.7	24.5	0.00e+00	0	30	0	1740636160	52	5745
2026-01-04 22:47:10.54	354.58	19.94	-36.7	-37.6	24.5	0.00e+00	0	30	0	1743781888	52	5702
2026-01-04 22:47:11.55	354.42	19.84	-36.8	-37.7	24.5	0.00e+00	0	30	0	1746927616	52	5782
2026-01-04 22:47:12.56	354.27	19.74	-36.8	-37.7	24.5	0.00e+00	0	30	0	1750073344	52	5733
2026-01-04 22:47:13.57	354.12	19.63	-36.9	-37.9	24.4	0.00e+00	0	30	0	1753219072	52	5864
2026-01-04 22:47:14.58	353.97	19.53	-36.7	-37.6	24.4	0.00e+00	0	30	0	1756364800	52	5708
2026-01-04 22:47:15.59	353.82	19.43	-36.7	-37.6	24.4	0.00e+00	0	30	0	1759510528	52	5701
2026-01-04 22:47:16.60	353.67	19.33	-36.7	-37.6	24.4	0.00e+00	0	30	0	1762656256	52	5678
2026-01-04 22:47:17.62	353.52	19.22	-36.7	-37.6	24.3	0.00e+00	0	30	0	1765801984	52	5685
2026-01-04 22:47:18.63	353.37	19.12	-36.6	-37.5	24.4	0.00e+00	0	30	0	1768947712	52	5607
2026-01-04 22:47:19.64	353.22	19.02	-36.6	-37.5	24.3	0.00e+00	0	30	0	1772093440	52	5655
2026-01-04 22:47:20.65	353.08	18.92	-36.9	-37.8	24.1	0.00e+00	0	30	0	1775239168	52	5835
2026-01-04 22:47:21.66	352.94	18.82	-36.8	-37.6	24.2	0.00e+00	0	30	0	1778384896	52	5725
2026-01-04 22:47:22.67	352.79	18.72	-36.6	-37.4	24.3	0.00e+00	0	30	0	1781530624	52	5584
2026-01-04 22:47:23.68	352.65	18.62	-36.5	-37.4	24.4	0.00e+00	0	30	0	1784676352	52	5583
2026-01-04 22:47:24.69	352.51	18.52	-36.6	-37.5	24.4	0.00e+00	0	30	0	1787822080	52	5604
2026-01-04 22:47:25.70	352.37	18.42	-36.4	-37.3	24.4	0.00e+00	0	30	0	1790967808	52	5521
2026-01-04 22:47:26.72	352.23	18.32	-36.5	-37.4	24.5	0.00e+00	0	30	0	1795162112	52	5554
2026-01-04 22:47:27.73	352.09	18.22	-36.7	-37.6	24.3	0.00e+00	0	30	0	1798307840	52	5689
2026-01-04 22:47:28.74	351.95	18.12	-36.8	-37.7	24.2	0.00e+00	0	30	0	1801453568	52	5777
2026-01-04 22:47:29.75	351.82	18.02	-36.9	-37.8	24.2	0.00e+00	0	30	0	1803550720	52	5843
2026-01-04 22:47:30.76	351.68	17.92	-37.0	-38.0	24.1	0.00e+00	0	30	0	1806696448	52	5937
2026-01-04 22:47:31.77	351.55	17.82	-37.1	-38.0	24.0	0.00e+00	0	30	0	1810890752	52	5972
2026-01-04 22:47:32.78	351.41	17.72	-37.1	-38.1	24.0	0.00e+00	0	30	0	1814036480	52	6003
2026-01-04 22:47:33.79	351.28	17.63	-37.2	-38.1	23.9	0.00e+00	0	30	0	1817182208	52	6063
2026-01-04 22:47:34.80	351.15	17.53	-37.2	-38.1	23.9	0.00e+00	0	30	0	1820327936	52	6055
2026-01-04 22:47:35.82	351.01	17.43	-37.3	-38.2	23.8	0.00e+00	0	30	0	1823473664	52	6114
2026-01-04 22:47:36.83	350.88	17.33	-37.4	-38.3	23.8	0.00e+00	0	30	0	1826619392	52	6173
2026-01-04 22:47:37.84	350.75	17.23	-37.1	-38.1	24.0	0.00e+00	0	30	0	1829765120	52	6011
2026-01-04 22:47:38.85	350.63	17.14	-37.2	-38.1	24.0	0.00e+00	0	30	0	1832910848	52	6048
2026-01-04 22:47:39.86	350.50	17.04	-37.3	-38.2	23.9	0.00e+00	0	30	0	1836056576	52	6099
2026-01-04 22:47:40.87	350.37	16.94	-37.2	-38.1	24.0	0.00e+00	0	30	0	1839202304	52	6030
2026-01-04 22:47:41.88	350.25	16.85	-37.3	-38.2	24.1	0.00e+00	0	30	0	1842348032	52	6085
2026-01-04 22:47:42.89	350.12	16.75	-37.3	-38.2	24.0	0.00e+00	0	30	0	1845493760	52	6096
2026-01-04 22:47:43.90	350.00	16.66	-37.4	-38.3	24.0	0.00e+00	0	30	0	1848639488	52	6168
2026-01-04 22:47:44.92	349.87	16.56	-37.4	-38.3	23.9	0.00e+00	0	30	0	1851785216	52	6196
2026-01-04 22:47:45.93	349.75	16.46	-37.5	-38.4	23.8	0.00e+00	0	30	0	1854930944	52	6235
2026-01-04 22:47:46.94	349.63	16.37	-37.6	-38.5	23.8	0.00e+00	0	30	0	1858076672	52	6318
2026-01-04 22:47:47.95	349.50	16.27	-37.6	-38.6	23.8	0.00e+00	0	30	0	1861222400	52	6366
2026-01-04 22:47:48.96	349.38	16.18	-37.7	-38.7	23.6	0.00e+00	0	30	0	1864368128	52	6424
2026-01-04 22:47:49.97	349.26	16.08	-37.8	-38.7	23.6	0.00e+00	0	30	0	1867513856	52	6482
2026-01-04 22:47:50.98	349.15	15.99	-37.8	-38.7	23.6	0.00e+00	0	30	0	1870659584	52	6480
2026-01-04 22:47:51.99	349.03	15.90	-37.9	-38.9	23.5	0.00e+00	0	30	0	1873805312	52	6578
2026-01-04 22:47:53.00	348.91	15.80	-37.9	-38.9	23.4	0.00e+00	0	30	0	1876951040	52	6615
2026-01-04 22:47:54.01	348.79	15.71	-37.9	-38.8	23.5	0.00e+00	0	30	0	1880096768	52	6573
2026-01-04 22:47:55.02	348.68	15.62	-37.9	-38.8	23.4	0.00e+00	0	30	0	1883242496	52	6551
2026-01-04 22:47:56.04	348.56	15.52	-37.9	-38.9	23.4	0.00e+00	0	30	0	1886388224	52	6619
2026-01-04 22:47:57.05	348.45	15.43	-37.9	-38.8	23.5	0.00e+00	0	30	0	1889533952	52	6557
2026-01-04 22:47:58.06	348.33	15.34	-38.0	-38.9	23.3	0.00e+00	0	30	0	1892679680	52	6640
2026-01-04 22:47:59.07	348.22	15.24	-38.0	-39.0	23.2	0.00e+00	0	30	0	1895825408	52	6701
2026-01-04 22:48:00.08	348.11	15.15	-37.9	-38.8	23.3	0.00e+00	0	30	0	1898971136	52	6556
2026-01-04 22:48:01.09	348.00	15.06	-37.7	-38.7	23.5	0.00e+00	0	30	0	1902116864	52	6435
2026-01-04 22:48:02.10	347.89	14.97	-37.8	-38.8	23.4	0.00e+00	0	30	0	1905262592	52	6547
2026-01-04 22:48:03.12	347.78	14.88	-37.8	-38.8	23.4	0.00e+00	0	30	0	1908408320	52	6504
2026-01-04 22:48:04.13	347.67	14.79	-37.7	-38.7	23.5	0.00e+00	0	30	0	1911554048	52	6456
2026-01-04 22:48:05.14	347.56	14.69	-37.7	-38.6	23.5	0.00e+00	0	30	0	1914699776	52	6399
2026-01-04 22:48:06.15	347.45	14.60	-37.6	-38.6	23.6	0.00e+00	0	30	0	1917845504	52	6370
2026-01-04 22:48:07.16	347.34	14.51	-37.5	-38.5	23.7	0.00e+00	0	30	0	1920991232	52	6292
2026-01-04 22:48:08.17	347.24	14.42	-37.6	-38.5	23.7	0.00e+00	0	30	0	1924136960	52	6342
2026-01-04 22:48:09.18	347.13	14.33	-37.6	-38.5	23.7	0.00e+00	0	30	0	1927282688	52	6321
2026-01-04 22:48:10.19	347.02	14.24	-37.8	-38.7	23.5	0.00e+00	0	30	0	1930428416	52	6497
2026-01-04 22:48:11.20	346.92	14.15	-37.8	-38.7	23.5	0.00e+00	0	30	0	1933574144	52	6492
2026-01-04 22:48:12.21	346.82	14.06	-38.0	-39.0	23.3	0.00e+00	0	30	0	1936719872	52	6673
2026-01-04 22:48:13.23	346.71	13.97	-37.9	-38.8	23.5	0.00e+00	0	30	0	1939865600	52	6568
2026-01-04 22:48:14.24	346.61	13.89	-38.1	-39.1	22.7	0.00e+00	0	30	0	1943011328	52	6738
2026-01-04 22:48:15.25	346.51	13.80	-38.1	-39.1	23.2	0.00e+00	0	30	0	1946157056	54	6049
2026-01-04 22:48:16.26	346.41	13.71	-38.2	-39.2	23.1	0.00e+00	0	30	0	1949302784	54	6073
2026-01-04 22:48:17.27	346.30	13.62	-38.2	-39.2	23.1	0.00e+00	0	30	0	1952448512	54	6121
2026-01-04 22:48:18.28	346.20	13.53	-38.4	-39.4	22.9	0.00e+00	0	30	0	1955594240	54	6248
2026-01-04 22:48:19.29	346.10	13.44	-38.1	-39.1	23.1	0.00e+00	0	30	0	1958739968	54	6036
2026-01-04 22:48:20.30	346.01	13.36	-38.1	-39.1	23.0	0.00e+00	0	30	0	1961885696	54	6012
2026-01-04 22:48:21.31	345.91	13.27	-38.0	-39.0	23.0	0.00e+00	0	30	0	1965031424	54	5977
2026-01-04 22:48:22.32	345.81	13.18	-38.0	-39.0	23.1	0.00e+00	0	30	0	1968177152	54	5927
2026-01-04 22:48:23.33	345.71	13.10	-38.0	-39.0	23.0	0.00e+00	0	30	0	1971322880	54	5982
2026-01-04 22:48:24.35	345.62	13.01	-37.7	-38.6	23.2	0.00e+00	0	30	0	1974468608	54	5704
2026-01-04 22:48:25.36	345.52	12.92	-37.7	-38.7	23.3	0.00e+00	0	30	0	1977614336	54	5755
2026-01-04 22:48:26.37	345.42	12.84	-37.6	-38.6	23.4	0.00e+00	0	30	0	1980760064	54	5668
2026-01-04 22:48:27.38	345.33	12.75	-37.7	-38.6	23.4	0.00e+00	0	30	0	1983905792	54	5707
2026-01-04 22:48:28.39	345.23	12.66	-37.7	-38.7	23.5	0.00e+00	0	30	0	1987051520	54	5757
2026-01-04 22:48:29.40	345.14	12.58	-37.7	-38.6	23.4	0.00e+00	0	30	0	1990197248	54	5693
2026-01-04 22:48:30.41	345.05	12.49	-38.0	-38.9	23.2	0.00e+00	0	30	0	1993342976	54	5922
