passes_logs/2026/01/04/R4.6S_Anadyr_2ch/R4.6S_Anadyr_2ch__20260104_003507_NOAA_21_JPSS-2_rec.log

#Pass ID: 20260104_003507_NOAA 21 (JPSS-2)
#Satellite: NOAA 21 (JPSS-2)
#Configuration: NOAA-21
#almurnet v.1.7.20251203
#Start time: 2026-01-04 00:35:57

#Version: 2.2.20231116
#Station: R4.6S_Anadyr_2ch
#Location: 177.4865 lon 64.73178 lat
#TLE: 1 54234U 22150A   25350.97269056  .00000057  00000+0  47676-4 0  9992
#TLE: 2 54234  98.7466 287.2282 0002043  29.8355 330.2937 14.19525482160692

#Time	Az	El	Level	Level2	SNR	BER	BlckErr	Temp	State	Recorded	gain1	gain2
2026-01-04 00:35:57.47	166.30	3.16	-53.6	-64.4	3.4	7.05e-01	0	35	0	0	60	80983
2026-01-04 00:35:58.48	166.32	3.22	-47.1	-50.1	13.8	8.30e-06	123	36	104	0	60	15184
2026-01-04 00:35:59.49	166.33	3.29	-46.1	-48.2	15.5	7.00e-07	123	36	0	2097152	60	12107
2026-01-04 00:36:00.50	166.35	3.36	-45.3	-47.2	16.4	0.00e+00	123	36	0	5242880	60	10785
2026-01-04 00:36:01.51	166.37	3.43	-44.9	-46.6	17.0	0.00e+00	122	36	0	8388608	60	10167
2026-01-04 00:36:02.52	166.38	3.50	-44.3	-45.9	17.8	0.00e+00	123	36	0	11534336	60	9331
2026-01-04 00:36:03.53	166.40	3.56	-44.2	-45.8	17.8	0.00e+00	122	36	0	14680064	60	9217
2026-01-04 00:36:04.54	166.42	3.63	-44.0	-45.6	18.1	0.00e+00	123	36	0	17825792	60	9002
2026-01-04 00:36:05.55	166.44	3.70	-44.6	-46.3	17.3	0.00e+00	122	37	0	20971520	60	9735
2026-01-04 00:36:06.56	166.46	3.77	-45.6	-47.5	16.0	0.00e+00	122	36	0	24117248	60	11259
2026-01-04 00:36:07.57	166.47	3.84	-45.8	-47.7	16.2	1.06e-05	123	36	0	27262976	60	11543
2026-01-04 00:36:08.58	166.49	3.91	-44.2	-45.8	17.9	0.00e+00	123	36	0	30408704	60	9191
2026-01-04 00:36:09.59	166.51	3.98	-49.8	-54.8	10.8	1.10e+00	22	36	104	32505856	60	26161
2026-01-04 00:36:10.60	166.53	4.05	-43.9	-45.4	19.3	7.00e-07	122	36	0	32505856	60	8825
2026-01-04 00:36:11.61	166.54	4.11	-51.3	-60.6	6.6	1.50e+00	123	37	104	34603008	60	50713
2026-01-04 00:36:12.62	166.56	4.18	-43.9	-45.3	18.6	0.00e+00	120	37	0	35651584	60	8746
2026-01-04 00:36:13.63	166.58	4.25	-43.9	-45.4	18.6	0.00e+00	123	37	0	38797312	60	8805
2026-01-04 00:36:14.64	166.60	4.32	-43.8	-45.2	18.9	0.00e+00	121	37	0	41943040	60	8617
2026-01-04 00:36:15.65	166.62	4.39	-44.0	-45.4	18.8	0.00e+00	123	37	0	45088768	60	8821
2026-01-04 00:36:16.66	166.64	4.46	-43.7	-45.1	19.0	0.00e+00	123	37	0	48234496	60	8504
2026-01-04 00:36:17.67	166.65	4.54	-43.6	-45.0	19.2	0.00e+00	123	37	0	51380224	60	8382
2026-01-04 00:36:18.69	166.67	4.61	-43.0	-44.3	19.8	0.00e+00	120	37	0	54525952	60	7778
2026-01-04 00:36:19.70	166.69	4.68	-43.0	-44.3	19.6	0.00e+00	123	37	0	57671680	60	7753
2026-01-04 00:36:20.71	166.71	4.75	-42.8	-44.1	19.9	0.00e+00	122	37	0	60817408	60	7595
2026-01-04 00:36:21.72	166.73	4.82	-42.4	-43.6	20.3	0.00e+00	123	37	0	63963136	60	7160
2026-01-04 00:36:22.73	166.75	4.89	-42.8	-44.0	20.1	0.00e+00	123	37	0	67108864	60	7521
2026-01-04 00:36:23.74	166.77	4.96	-42.5	-43.8	20.1	0.00e+00	123	37	0	70254592	60	7321
2026-01-04 00:36:24.75	166.79	5.04	-42.4	-43.6	20.3	0.00e+00	120	37	0	73400320	60	7139
2026-01-04 00:36:25.76	166.81	5.11	-42.4	-43.6	20.7	0.00e+00	122	37	0	76546048	60	7197
2026-01-04 00:36:26.77	166.82	5.18	-42.5	-43.7	20.6	0.00e+00	123	37	0	79691776	60	7226
2026-01-04 00:36:27.78	166.84	5.25	-42.5	-43.7	20.5	0.00e+00	122	37	0	82837504	60	7287
2026-01-04 00:36:28.79	166.86	5.33	-42.7	-43.9	20.5	0.00e+00	122	37	0	85983232	60	7444
2026-01-04 00:36:29.80	166.88	5.40	-42.2	-43.4	20.6	0.00e+00	123	37	0	89128960	60	7014
2026-01-04 00:36:30.82	166.90	5.47	-42.7	-43.9	20.1	0.00e+00	123	37	0	92274688	60	7453
2026-01-04 00:36:31.83	166.92	5.55	-42.7	-43.9	20.3	0.00e+00	122	37	0	95420416	60	7450
2026-01-04 00:36:32.84	166.94	5.62	-42.3	-43.5	20.6	0.00e+00	122	37	0	98566144	60	7093
2026-01-04 00:36:33.85	166.96	5.69	-42.1	-43.3	20.9	0.00e+00	123	37	0	101711872	60	6887
2026-01-04 00:36:34.86	166.98	5.77	-42.1	-43.3	20.7	0.00e+00	120	37	0	104857600	60	6935
2026-01-04 00:36:35.87	167.00	5.84	-42.1	-43.3	20.5	0.00e+00	122	37	0	108003328	60	6941
2026-01-04 00:36:36.88	167.02	5.91	-41.9	-43.0	20.9	0.00e+00	122	37	0	111149056	60	6718
2026-01-04 00:36:37.89	167.04	5.99	-42.1	-43.3	20.5	0.00e+00	122	37	0	114294784	60	6930
2026-01-04 00:36:38.90	167.06	6.06	-42.0	-43.1	20.8	0.00e+00	123	37	0	117440512	60	6798
2026-01-04 00:36:39.91	167.08	6.14	-42.0	-43.2	20.9	0.00e+00	122	37	0	120586240	60	6833
2026-01-04 00:36:40.93	167.10	6.22	-41.8	-42.9	21.1	0.00e+00	122	37	0	123731968	60	6618
2026-01-04 00:36:41.94	167.12	6.29	-41.9	-43.0	20.9	0.00e+00	122	37	0	127926272	60	6717
2026-01-04 00:36:42.95	167.14	6.37	-42.0	-43.2	21.0	0.00e+00	123	37	0	131072000	60	6825
2026-01-04 00:36:43.96	167.16	6.44	-41.9	-43.1	21.0	0.00e+00	123	37	0	134217728	60	6754
2026-01-04 00:36:44.97	167.18	6.52	-42.1	-43.2	21.1	0.00e+00	123	37	0	136314880	60	6879
2026-01-04 00:36:45.98	167.21	6.59	-41.9	-43.0	21.2	0.00e+00	123	37	0	139460608	60	6717
2026-01-04 00:36:46.99	167.23	6.67	-41.7	-42.8	21.2	0.00e+00	122	37	0	143654912	60	6545
2026-01-04 00:36:48.00	167.25	6.75	-41.5	-42.6	21.4	0.00e+00	123	37	0	146800640	60	6412
2026-01-04 00:36:49.01	167.27	6.82	-41.3	-42.4	21.5	0.00e+00	123	37	0	149946368	60	6261
2026-01-04 00:36:50.02	167.29	6.90	-41.6	-42.7	21.3	0.00e+00	122	37	0	153092096	60	6479
2026-01-04 00:36:51.03	167.31	6.98	-41.4	-42.5	21.5	0.00e+00	122	37	0	156237824	60	6311
2026-01-04 00:36:52.04	167.33	7.06	-41.3	-42.4	21.5	0.00e+00	123	37	0	159383552	60	6242
2026-01-04 00:36:53.06	167.35	7.14	-41.7	-42.8	21.3	0.00e+00	122	37	0	162529280	60	6533
2026-01-04 00:36:54.07	167.38	7.21	-41.1	-42.2	21.7	0.00e+00	123	37	0	165675008	60	6093
2026-01-04 00:36:55.08	167.40	7.29	-41.3	-42.5	21.4	0.00e+00	122	37	0	168820736	60	6279
2026-01-04 00:36:56.09	167.42	7.37	-41.2	-42.3	21.7	0.00e+00	123	37	0	171966464	60	6165
2026-01-04 00:36:57.10	167.44	7.45	-41.4	-42.5	21.7	0.00e+00	123	37	0	175112192	60	6291
2026-01-04 00:36:58.11	167.46	7.53	-41.5	-42.6	21.7	0.00e+00	123	37	0	178257920	60	6360
2026-01-04 00:36:59.12	167.48	7.61	-41.6	-42.7	21.5	0.00e+00	122	37	0	181403648	60	6497
2026-01-04 00:37:00.13	167.51	7.69	-42.3	-43.4	21.6	0.00e+00	123	37	0	184549376	60	7038
2026-01-04 00:37:01.14	167.53	7.77	-42.2	-43.4	21.2	0.00e+00	123	37	0	187695104	60	6969
2026-01-04 00:37:02.15	167.55	7.85	-41.7	-42.8	21.6	0.00e+00	122	37	0	190840832	60	6547
2026-01-04 00:37:03.16	167.57	7.93	-42.4	-43.6	20.8	0.00e+00	122	37	0	193986560	60	7173
2026-01-04 00:37:04.18	167.60	8.01	-41.5	-42.6	21.7	0.00e+00	123	37	0	197132288	60	6370
2026-01-04 00:37:05.19	167.62	8.09	-41.4	-42.5	21.8	0.00e+00	123	37	0	200278016	60	6304
2026-01-04 00:37:06.20	167.64	8.17	-41.0	-42.1	22.0	0.00e+00	122	37	0	203423744	60	6047
2026-01-04 00:37:07.21	167.67	8.25	-41.2	-42.3	22.1	0.00e+00	123	37	0	206569472	60	6142
2026-01-04 00:37:08.22	167.69	8.33	-41.0	-42.1	22.1	0.00e+00	123	37	0	209715200	60	6027
2026-01-04 00:37:09.23	167.71	8.42	-41.0	-42.1	22.2	0.00e+00	123	37	0	212860928	60	6008
2026-01-04 00:37:10.24	167.73	8.50	-41.2	-42.3	22.1	0.00e+00	122	37	0	216006656	60	6152
2026-01-04 00:37:11.26	167.76	8.58	-41.4	-42.5	22.1	0.00e+00	123	37	0	219152384	60	6310
2026-01-04 00:37:12.27	167.78	8.66	-41.2	-42.3	22.3	0.00e+00	123	37	0	222298112	60	6156
2026-01-04 00:37:13.28	167.81	8.75	-40.8	-41.9	22.2	0.00e+00	122	37	0	225443840	60	5873
2026-01-04 00:37:14.29	167.83	8.83	-40.8	-41.9	22.2	0.00e+00	120	37	0	228589568	60	5862
2026-01-04 00:37:15.30	167.85	8.91	-40.8	-41.9	22.4	0.00e+00	118	37	0	231735296	60	5872
2026-01-04 00:37:16.31	167.88	9.00	-40.9	-41.9	22.5	0.00e+00	123	37	0	234881024	60	5891
2026-01-04 00:37:17.32	167.90	9.08	-40.9	-41.9	22.4	0.00e+00	122	37	0	238026752	60	5925
2026-01-04 00:37:18.33	167.93	9.17	-40.8	-41.8	22.5	0.00e+00	122	37	0	241172480	60	5813
2026-01-04 00:37:19.34	167.95	9.25	-40.6	-41.6	22.4	0.00e+00	123	37	0	244318208	60	5700
2026-01-04 00:37:20.35	167.97	9.33	-40.7	-41.7	22.5	0.00e+00	123	37	0	247463936	60	5763
2026-01-04 00:37:21.36	168.00	9.42	-40.6	-41.6	22.6	0.00e+00	123	37	0	250609664	60	5679
2026-01-04 00:37:22.38	168.02	9.51	-40.6	-41.6	22.6	0.00e+00	121	37	0	253755392	60	5696
2026-01-04 00:37:23.39	168.05	9.59	-40.5	-41.5	22.5	0.00e+00	123	37	0	256901120	60	5626
2026-01-04 00:37:24.40	168.07	9.68	-40.6	-41.6	22.6	0.00e+00	123	37	0	260046848	60	5696
2026-01-04 00:37:25.41	168.10	9.76	-40.4	-41.4	22.6	0.00e+00	123	37	0	263192576	60	5592
2026-01-04 00:37:26.42	168.12	9.85	-40.1	-41.1	22.7	0.00e+00	123	37	0	266338304	60	5403
2026-01-04 00:37:27.43	168.15	9.94	-40.0	-41.0	22.8	0.00e+00	123	37	0	269484032	58	5952
2026-01-04 00:37:28.44	168.17	10.03	-40.1	-41.2	22.7	0.00e+00	122	37	0	272629760	58	6071
2026-01-04 00:37:29.45	168.20	10.11	-40.4	-41.4	22.6	0.00e+00	123	37	0	275775488	58	6231
2026-01-04 00:37:30.46	168.23	10.20	-40.1	-41.1	22.7	0.00e+00	123	37	0	278921216	58	6021
2026-01-04 00:37:31.47	168.25	10.29	-40.0	-41.0	22.8	0.00e+00	123	37	0	282066944	58	5983
2026-01-04 00:37:32.49	168.28	10.38	-40.2	-41.2	23.0	0.00e+00	123	37	0	285212672	58	6089
2026-01-04 00:37:33.50	168.30	10.47	-40.3	-41.4	22.8	0.00e+00	123	37	0	288358400	58	6208
2026-01-04 00:37:34.51	168.33	10.56	-40.2	-41.2	22.8	0.00e+00	123	37	0	291504128	58	6072
2026-01-04 00:37:35.52	168.36	10.65	-39.9	-40.9	22.9	0.00e+00	122	37	0	294649856	58	5897
2026-01-04 00:37:36.53	168.38	10.74	-39.9	-40.9	23.0	0.00e+00	123	37	0	297795584	58	5914
2026-01-04 00:37:37.54	168.41	10.83	-39.9	-40.8	23.1	0.00e+00	123	37	0	300941312	58	5857
2026-01-04 00:37:38.55	168.44	10.92	-39.9	-40.9	23.0	0.00e+00	123	37	0	304087040	58	5881
2026-01-04 00:37:39.56	168.46	11.01	-39.9	-40.9	23.0	0.00e+00	123	37	0	307232768	58	5869
2026-01-04 00:37:40.57	168.49	11.10	-40.2	-41.2	23.1	0.00e+00	123	37	0	310378496	58	6099
2026-01-04 00:37:41.58	168.52	11.19	-40.0	-41.0	23.0	0.00e+00	120	37	0	313524224	58	5946
2026-01-04 00:37:42.59	168.54	11.28	-39.9	-40.8	23.2	0.00e+00	123	37	0	316669952	58	5850
2026-01-04 00:37:43.60	168.57	11.37	-39.9	-40.8	23.1	0.00e+00	120	37	0	319815680	58	5849
2026-01-04 00:37:44.61	168.60	11.47	-39.9	-40.9	23.2	0.00e+00	122	37	0	322961408	58	5872
2026-01-04 00:37:45.63	168.63	11.56	-40.1	-41.1	23.1	0.00e+00	120	37	0	326107136	58	6017
2026-01-04 00:37:46.64	168.66	11.65	-40.1	-41.1	22.9	0.00e+00	123	37	0	329252864	58	6011
2026-01-04 00:37:47.65	168.68	11.75	-40.2	-41.2	23.0	0.00e+00	122	37	0	332398592	58	6094
2026-01-04 00:37:48.66	168.71	11.84	-39.8	-40.8	23.3	0.00e+00	123	37	0	335544320	58	5831
2026-01-04 00:37:49.67	168.74	11.93	-40.2	-41.2	23.2	0.00e+00	120	37	0	338690048	58	6114
2026-01-04 00:37:50.68	168.77	12.03	-39.9	-40.9	23.2	0.00e+00	123	37	0	341835776	58	5875
2026-01-04 00:37:51.69	168.80	12.12	-40.1	-41.1	23.2	0.00e+00	122	37	0	344981504	58	6009
2026-01-04 00:37:52.70	168.83	12.22	-40.1	-41.1	23.3	0.00e+00	123	37	0	348127232	58	6015
2026-01-04 00:37:53.71	168.86	12.31	-39.8	-40.8	23.4	0.00e+00	120	37	0	351272960	58	5793
2026-01-04 00:37:54.73	168.89	12.41	-39.6	-40.6	23.4	0.00e+00	122	37	0	354418688	58	5683
2026-01-04 00:37:55.74	168.92	12.51	-39.7	-40.7	23.4	0.00e+00	122	37	0	357564416	58	5768
2026-01-04 00:37:56.75	168.95	12.60	-39.7	-40.7	23.3	0.00e+00	123	37	0	360710144	58	5736
2026-01-04 00:37:57.76	168.98	12.70	-39.8	-40.8	23.3	0.00e+00	120	37	0	363855872	58	5825
2026-01-04 00:37:58.77	169.01	12.80	-39.7	-40.6	23.4	0.00e+00	122	37	0	367001600	58	5713
2026-01-04 00:37:59.78	169.04	12.90	-39.8	-40.8	23.2	0.00e+00	120	37	0	370147328	58	5817
2026-01-04 00:38:00.79	169.07	13.00	-39.5	-40.5	23.5	0.00e+00	122	37	0	374341632	58	5598
2026-01-04 00:38:01.80	169.10	13.09	-39.6	-40.6	23.5	0.00e+00	120	37	0	377487360	58	5682
2026-01-04 00:38:02.81	169.13	13.19	-39.7	-40.7	23.4	0.00e+00	123	37	0	380633088	58	5728
2026-01-04 00:38:03.82	169.16	13.29	-39.8	-40.8	23.4	0.00e+00	121	37	0	382730240	58	5825
2026-01-04 00:38:04.83	169.19	13.39	-39.6	-40.6	23.5	0.00e+00	123	37	0	386924544	58	5687
2026-01-04 00:38:05.84	169.22	13.49	-39.7	-40.7	23.4	0.00e+00	123	37	0	390070272	58	5755
2026-01-04 00:38:06.85	169.25	13.59	-39.4	-40.4	23.5	0.00e+00	123	37	0	393216000	58	5569
2026-01-04 00:38:07.87	169.28	13.70	-39.5	-40.4	23.5	0.00e+00	120	37	0	396361728	58	5593
2026-01-04 00:38:08.88	169.32	13.80	-39.3	-40.3	23.6	0.00e+00	122	37	0	399507456	58	5503
2026-01-04 00:38:09.89	169.35	13.90	-39.2	-40.2	23.6	0.00e+00	122	37	0	402653184	58	5430
2026-01-04 00:38:10.90	169.38	14.00	-39.2	-40.2	23.7	0.00e+00	122	37	0	405798912	58	5418
2026-01-04 00:38:11.91	169.41	14.10	-39.2	-40.2	23.7	0.00e+00	123	37	0	408944640	58	5431
2026-01-04 00:38:12.92	169.45	14.21	-39.2	-40.2	23.6	0.00e+00	122	37	0	412090368	56	6104
2026-01-04 00:38:13.93	169.48	14.31	-39.1	-40.0	23.8	0.00e+00	123	37	0	415236096	56	5955
2026-01-04 00:38:14.94	169.51	14.42	-39.2	-40.1	23.8	0.00e+00	122	37	0	418381824	56	6046
2026-01-04 00:38:15.96	169.54	14.52	-39.0	-40.0	23.9	0.00e+00	123	37	0	421527552	56	5927
2026-01-04 00:38:16.96	169.58	14.63	-39.0	-40.0	23.9	0.00e+00	122	37	0	424673280	56	5937
2026-01-04 00:38:17.98	169.61	14.73	-39.1	-40.0	23.8	0.00e+00	122	37	0	427819008	56	5955
2026-01-04 00:38:18.99	169.65	14.84	-39.1	-40.0	24.0	0.00e+00	123	37	0	430964736	56	5978
2026-01-04 00:38:20.00	169.68	14.94	-39.3	-40.2	23.8	0.00e+00	123	37	0	434110464	56	6087
2026-01-04 00:38:21.01	169.71	15.05	-39.1	-40.0	24.0	0.00e+00	122	37	0	437256192	56	5965
2026-01-04 00:38:22.02	169.75	15.16	-39.2	-40.1	24.0	0.00e+00	122	37	0	440401920	56	6032
2026-01-04 00:38:23.03	169.78	15.27	-39.0	-39.9	24.0	0.00e+00	123	37	0	443547648	56	5914
2026-01-04 00:38:24.04	169.82	15.37	-39.1	-40.0	24.0	0.00e+00	122	37	0	446693376	56	5989
2026-01-04 00:38:25.05	169.85	15.48	-39.2	-40.1	24.0	0.00e+00	120	37	0	449839104	56	6060
2026-01-04 00:38:26.06	169.89	15.59	-39.3	-40.3	23.9	0.00e+00	122	37	0	452984832	56	6143
2026-01-04 00:38:27.07	169.92	15.70	-39.4	-40.3	23.9	0.00e+00	123	37	0	456130560	56	6194
2026-01-04 00:38:28.08	169.96	15.81	-39.1	-40.0	24.1	0.00e+00	122	37	0	459276288	56	5954
2026-01-04 00:38:29.09	170.00	15.92	-39.1	-40.0	24.1	0.00e+00	120	37	0	462422016	56	5966
2026-01-04 00:38:30.11	170.03	16.03	-39.0	-39.9	24.1	0.00e+00	123	37	0	465567744	56	5897
2026-01-04 00:38:31.12	170.07	16.15	-39.0	-40.0	24.0	0.00e+00	120	37	0	468713472	56	5939
2026-01-04 00:38:32.13	170.11	16.26	-39.1	-40.0	24.0	0.00e+00	123	37	0	471859200	56	5948
2026-01-04 00:38:33.14	170.14	16.37	-38.9	-39.8	24.1	0.00e+00	123	37	0	475004928	56	5828
2026-01-04 00:38:34.15	170.18	16.48	-39.1	-40.0	24.0	0.00e+00	123	37	0	478150656	56	5968
2026-01-04 00:38:35.16	170.22	16.60	-39.2	-40.1	24.0	0.00e+00	122	37	0	481296384	56	6031
2026-01-04 00:38:36.17	170.26	16.71	-39.3	-40.3	24.0	0.00e+00	122	37	0	484442112	56	6145
2026-01-04 00:38:37.18	170.30	16.83	-39.2	-40.1	23.9	0.00e+00	122	37	0	487587840	56	6063
2026-01-04 00:38:38.19	170.33	16.94	-39.0	-40.0	24.0	0.00e+00	122	37	0	490733568	56	5927
2026-01-04 00:38:39.20	170.37	17.06	-39.2	-40.1	23.9	0.00e+00	123	37	0	493879296	56	6055
2026-01-04 00:38:40.21	170.41	17.17	-39.0	-40.0	24.0	0.00e+00	122	37	0	497025024	56	5936
2026-01-04 00:38:41.23	170.45	17.29	-38.9	-39.8	24.0	0.00e+00	123	37	0	500170752	56	5846
2026-01-04 00:38:42.24	170.49	17.41	-39.2	-40.1	24.0	0.00e+00	122	37	0	503316480	56	6059
2026-01-04 00:38:43.25	170.53	17.53	-39.1	-40.1	24.1	0.00e+00	120	37	0	506462208	56	5998
2026-01-04 00:38:44.26	170.57	17.65	-38.9	-39.8	24.1	0.00e+00	123	37	0	509607936	56	5839
2026-01-04 00:38:45.27	170.61	17.77	-39.0	-39.9	23.9	0.00e+00	123	37	0	512753664	56	5880
2026-01-04 00:38:46.28	170.65	17.89	-38.9	-39.9	24.0	0.00e+00	123	37	0	515899392	56	5875
2026-01-04 00:38:47.29	170.69	18.01	-39.0	-39.9	23.9	0.00e+00	123	37	0	519045120	56	5905
2026-01-04 00:38:48.30	170.73	18.13	-39.0	-39.9	24.0	0.00e+00	123	38	0	522190848	56	5882
2026-01-04 00:38:49.31	170.78	18.25	-38.9	-39.8	24.1	0.00e+00	120	37	0	525336576	56	5842
2026-01-04 00:38:50.32	170.82	18.37	-38.9	-39.9	24.1	0.00e+00	123	37	0	528482304	56	5860
2026-01-04 00:38:51.34	170.86	18.49	-38.9	-39.8	24.1	0.00e+00	123	37	0	531628032	56	5842
2026-01-04 00:38:52.34	170.90	18.62	-38.8	-39.7	24.0	0.00e+00	122	37	0	534773760	56	5782
2026-01-04 00:38:53.36	170.95	18.74	-38.8	-39.7	24.0	0.00e+00	123	38	0	537919488	56	5770
2026-01-04 00:38:54.37	170.99	18.87	-38.9	-39.8	24.1	0.00e+00	123	37	0	541065216	56	5796
2026-01-04 00:38:55.38	171.03	18.99	-39.0	-39.9	24.0	0.00e+00	120	37	0	544210944	56	5902
2026-01-04 00:38:56.39	171.08	19.12	-39.0	-39.9	24.0	0.00e+00	122	37	0	547356672	56	5886
2026-01-04 00:38:57.40	171.12	19.24	-39.2	-40.1	23.8	0.00e+00	123	37	0	550502400	56	6064
2026-01-04 00:38:58.41	171.16	19.37	-38.9	-39.8	24.0	0.00e+00	119	37	0	553648128	56	5814
2026-01-04 00:38:59.42	171.21	19.50	-39.2	-40.1	23.9	0.00e+00	123	38	0	556793856	56	6039
2026-01-04 00:39:00.43	171.25	19.63	-38.8	-39.7	24.3	0.00e+00	123	37	0	559939584	56	5767
2026-01-04 00:39:01.44	171.30	19.75	-39.0	-39.9	24.2	0.00e+00	123	37	0	563085312	56	5893
2026-01-04 00:39:02.45	171.35	19.88	-38.7	-39.6	24.4	0.00e+00	123	38	0	566231040	56	5703
2026-01-04 00:39:03.47	171.39	20.02	-38.7	-39.6	24.3	0.00e+00	122	37	0	569376768	56	5716
2026-01-04 00:39:04.47	171.44	20.14	-39.3	-40.2	24.2	0.00e+00	123	37	0	572522496	56	6129
2026-01-04 00:39:05.49	171.49	20.28	-39.1	-40.0	24.3	0.00e+00	122	38	0	575668224	56	5975
2026-01-04 00:39:06.50	171.53	20.41	-38.8	-39.7	24.4	0.00e+00	122	38	0	578813952	56	5768
2026-01-04 00:39:07.51	171.58	20.54	-38.7	-39.6	24.4	0.00e+00	123	37	0	581959680	56	5680
2026-01-04 00:39:08.52	171.63	20.68	-38.6	-39.5	24.5	0.00e+00	122	38	0	585105408	56	5638
2026-01-04 00:39:09.53	171.68	20.81	-38.9	-39.8	24.4	0.00e+00	123	38	0	588251136	56	5818
2026-01-04 00:39:10.54	171.73	20.95	-39.0	-39.9	24.4	0.00e+00	120	38	0	591396864	56	5867
2026-01-04 00:39:11.55	171.78	21.08	-39.6	-40.5	24.3	0.00e+00	122	38	0	594542592	56	6344
2026-01-04 00:39:12.56	171.83	21.22	-39.0	-39.9	24.4	0.00e+00	120	37	0	597688320	56	5884
2026-01-04 00:39:13.57	171.88	21.35	-39.0	-39.9	24.4	0.00e+00	123	38	0	600834048	56	5900
2026-01-04 00:39:14.58	171.93	21.49	-38.8	-39.7	24.5	0.00e+00	120	38	0	603979776	56	5772
2026-01-04 00:39:15.59	171.98	21.63	-38.8	-39.7	24.7	0.00e+00	123	38	0	607125504	56	5738
2026-01-04 00:39:16.60	172.03	21.77	-38.8	-39.7	24.7	0.00e+00	120	38	0	610271232	56	5739
2026-01-04 00:39:17.61	172.08	21.91	-38.8	-39.7	24.6	0.00e+00	122	37	0	613416960	56	5782
2026-01-04 00:39:18.62	172.13	22.05	-38.4	-39.3	24.8	0.00e+00	122	37	0	616562688	56	5494
2026-01-04 00:39:19.63	172.18	22.19	-38.1	-39.0	24.8	0.00e+00	123	37	0	620756992	54	5936
2026-01-04 00:39:20.64	172.24	22.34	-38.3	-39.2	24.8	0.00e+00	120	38	0	623902720	54	6092
2026-01-04 00:39:21.65	172.29	22.48	-38.0	-38.9	25.0	0.00e+00	122	38	0	627048448	54	5868
2026-01-04 00:39:22.67	172.35	22.62	-37.9	-38.8	24.8	0.00e+00	120	38	0	629145600	54	5839
2026-01-04 00:39:23.68	172.40	22.77	-38.0	-38.9	24.9	0.00e+00	123	37	0	632291328	54	5869
2026-01-04 00:39:24.69	172.46	22.91	-38.1	-39.0	25.0	0.00e+00	120	37	0	636485632	54	5971
2026-01-04 00:39:25.70	172.51	23.06	-38.1	-39.0	25.1	0.00e+00	123	37	0	639631360	54	5942
2026-01-04 00:39:26.71	172.57	23.21	-37.9	-38.8	25.1	0.00e+00	120	38	0	642777088	54	5798
2026-01-04 00:39:27.72	172.62	23.36	-37.8	-38.6	25.3	0.00e+00	122	37	0	645922816	54	5711
2026-01-04 00:39:28.73	172.68	23.50	-37.5	-38.4	25.3	0.00e+00	122	38	0	649068544	54	5566
2026-01-04 00:39:29.74	172.74	23.65	-37.8	-38.6	25.3	0.00e+00	123	37	0	652214272	54	5719
2026-01-04 00:39:30.75	172.80	23.80	-37.5	-38.4	25.2	0.00e+00	123	37	0	655360000	54	5544
2026-01-04 00:39:31.76	172.85	23.96	-37.4	-38.2	25.3	0.00e+00	122	38	0	658505728	54	5467
2026-01-04 00:39:32.77	172.91	24.11	-37.3	-38.2	25.2	0.00e+00	120	38	0	661651456	54	5434
2026-01-04 00:39:33.78	172.97	24.26	-37.4	-38.3	25.2	0.00e+00	122	37	0	664797184	54	5480
2026-01-04 00:39:34.79	173.03	24.41	-37.5	-38.3	25.2	0.00e+00	122	37	0	667942912	54	5530
2026-01-04 00:39:35.80	173.09	24.57	-37.5	-38.4	25.1	0.00e+00	123	37	0	671088640	54	5562
2026-01-04 00:39:36.81	173.15	24.72	-37.6	-38.4	25.1	0.00e+00	123	37	0	674234368	54	5590
2026-01-04 00:39:37.82	173.22	24.88	-37.5	-38.3	25.0	0.00e+00	123	38	0	677380096	54	5525
2026-01-04 00:39:38.83	173.28	25.04	-37.7	-38.5	25.0	0.00e+00	123	38	0	680525824	54	5645
2026-01-04 00:39:39.84	173.34	25.20	-38.0	-38.8	24.9	0.00e+00	122	38	0	683671552	54	5858
2026-01-04 00:39:40.86	173.41	25.36	-38.1	-39.0	24.8	0.00e+00	120	38	0	686817280	54	5954
2026-01-04 00:39:41.87	173.47	25.52	-38.0	-38.9	24.8	0.00e+00	123	37	0	689963008	54	5887
2026-01-04 00:39:42.88	173.53	25.68	-38.1	-39.0	24.9	0.00e+00	122	37	0	693108736	54	5951
2026-01-04 00:39:43.89	173.60	25.84	-38.3	-39.1	24.8	0.00e+00	123	38	0	696254464	54	6060
2026-01-04 00:39:44.90	173.67	26.00	-38.2	-39.1	24.8	0.00e+00	123	38	0	699400192	54	6056
2026-01-04 00:39:45.91	173.73	26.17	-38.3	-39.1	24.7	0.00e+00	122	38	0	702545920	54	6064
2026-01-04 00:39:46.92	173.80	26.33	-38.5	-39.4	24.6	0.00e+00	122	37	0	705691648	54	6232
2026-01-04 00:39:47.93	173.87	26.50	-38.8	-39.7	24.3	0.00e+00	123	38	0	708837376	54	6452
2026-01-04 00:39:48.94	173.94	26.67	-38.4	-39.3	24.5	0.00e+00	123	38	0	711983104	54	6179
2026-01-04 00:39:49.95	174.01	26.83	-38.6	-39.5	24.5	0.00e+00	122	38	0	715128832	54	6321
2026-01-04 00:39:50.96	174.08	27.00	-38.7	-39.6	24.3	0.00e+00	123	38	0	718274560	54	6359
2026-01-04 00:39:51.97	174.15	27.17	-38.6	-39.5	24.3	0.00e+00	123	38	0	721420288	54	6325
2026-01-04 00:39:52.98	174.22	27.34	-38.8	-39.8	24.2	0.00e+00	122	38	0	724566016	54	6513
2026-01-04 00:39:53.99	174.29	27.52	-39.0	-40.0	23.9	0.00e+00	123	38	0	727711744	54	6662
2026-01-04 00:39:55.01	174.36	27.69	-39.5	-40.4	23.9	0.00e+00	123	38	0	730857472	56	6252
2026-01-04 00:39:56.01	174.44	27.86	-39.6	-40.6	23.8	0.00e+00	123	38	0	734003200	56	6352
2026-01-04 00:39:57.03	174.51	28.04	-39.7	-40.7	23.7	0.00e+00	123	38	0	737148928	56	6450
2026-01-04 00:39:58.03	174.59	28.21	-39.3	-40.2	24.0	0.00e+00	120	37	0	740294656	56	6111
2026-01-04 00:39:59.04	174.66	28.39	-39.2	-40.2	24.1	0.00e+00	122	38	0	743440384	56	6080
2026-01-04 00:40:00.06	174.74	28.57	-39.3	-40.2	23.9	0.00e+00	123	38	0	746586112	56	6109
2026-01-04 00:40:01.07	174.82	28.75	-39.2	-40.1	24.1	0.00e+00	122	38	0	749731840	56	6014
2026-01-04 00:40:02.08	174.90	28.93	-39.2	-40.1	24.1	0.00e+00	122	38	0	752877568	56	6036
2026-01-04 00:40:03.09	174.97	29.11	-39.0	-40.0	24.2	0.00e+00	123	38	0	756023296	56	5930
2026-01-04 00:40:04.10	175.05	29.30	-39.0	-40.0	24.1	0.00e+00	123	38	0	759169024	56	5945
2026-01-04 00:40:05.11	175.14	29.48	-38.8	-39.7	24.2	0.00e+00	122	38	0	762314752	56	5764
2026-01-04 00:40:06.12	175.22	29.67	-38.5	-39.4	24.3	0.00e+00	123	38	0	765460480	56	5592
2026-01-04 00:40:07.13	175.30	29.85	-38.5	-39.4	24.5	0.00e+00	123	38	0	768606208	56	5548
2026-01-04 00:40:08.14	175.38	30.04	-38.5	-39.3	24.5	0.00e+00	123	38	0	771751936	56	5529
2026-01-04 00:40:09.16	175.47	30.23	-38.5	-39.3	24.6	0.00e+00	122	38	0	774897664	56	5529
2026-01-04 00:40:10.16	175.55	30.42	-38.5	-39.4	24.5	0.00e+00	123	38	0	778043392	56	5575
2026-01-04 00:40:11.18	175.64	30.61	-38.8	-39.7	24.4	0.00e+00	123	37	0	781189120	56	5731
2026-01-04 00:40:12.19	175.73	30.80	-39.1	-40.0	24.0	0.00e+00	120	38	0	784334848	56	5955
2026-01-04 00:40:13.20	175.82	31.00	-39.0	-39.9	24.2	0.00e+00	122	37	0	787480576	56	5913
2026-01-04 00:40:14.21	175.91	31.19	-38.9	-39.8	24.2	0.00e+00	123	38	0	790626304	56	5830
2026-01-04 00:40:15.22	176.00	31.39	-39.0	-39.9	24.3	0.00e+00	123	38	0	793772032	56	5889
2026-01-04 00:40:16.23	176.09	31.58	-38.7	-39.7	24.3	0.00e+00	123	38	0	796917760	56	5736
2026-01-04 00:40:17.24	176.18	31.78	-38.8	-39.7	24.2	0.00e+00	123	38	0	800063488	56	5781
2026-01-04 00:40:18.25	176.28	31.98	-39.0	-40.0	24.1	0.00e+00	122	38	0	803209216	56	5951
2026-01-04 00:40:19.26	176.37	32.18	-39.0	-40.0	24.2	0.00e+00	122	38	0	806354944	56	5935
2026-01-04 00:40:20.27	176.47	32.38	-39.4	-40.4	24.0	0.00e+00	122	38	0	809500672	56	6228
2026-01-04 00:40:21.29	176.57	32.59	-39.1	-40.0	24.1	0.00e+00	122	38	0	812646400	56	5969
2026-01-04 00:40:22.29	176.66	32.79	-39.2	-40.1	24.0	0.00e+00	123	38	0	815792128	56	6045
2026-01-04 00:40:23.31	176.76	33.00	-39.0	-40.0	24.2	0.00e+00	123	38	0	818937856	56	5943
2026-01-04 00:40:24.32	176.86	33.21	-39.3	-40.2	24.1	0.00e+00	122	38	0	822083584	56	6131
2026-01-04 00:40:25.33	176.97	33.42	-39.4	-40.3	24.1	0.00e+00	122	38	0	825229312	56	6194
2026-01-04 00:40:26.34	177.07	33.63	-40.0	-40.9	23.8	0.00e+00	120	38	0	828375040	56	6627
2026-01-04 00:40:27.35	177.17	33.84	-40.1	-41.0	23.6	0.00e+00	122	37	0	831520768	58	5968
2026-01-04 00:40:28.36	177.28	34.05	-40.1	-41.1	23.4	0.00e+00	120	38	0	834666496	58	5996
2026-01-04 00:40:29.37	177.39	34.26	-40.0	-41.0	23.4	0.00e+00	122	38	0	837812224	58	5948
2026-01-04 00:40:30.38	177.50	34.48	-40.2	-41.2	23.4	0.00e+00	122	38	0	840957952	58	6099
2026-01-04 00:40:31.40	177.61	34.70	-40.2	-41.2	23.3	0.00e+00	123	38	0	844103680	58	6096
2026-01-04 00:40:32.41	177.72	34.92	-40.6	-41.6	23.0	0.00e+00	120	38	0	847249408	58	6423
2026-01-04 00:40:33.42	177.83	35.14	-40.8	-41.8	22.8	0.00e+00	123	38	0	850395136	58	6542
2026-01-04 00:40:34.43	177.95	35.36	-40.6	-41.6	22.8	0.00e+00	123	38	0	853540864	58	6397
2026-01-04 00:40:35.44	178.06	35.58	-40.6	-41.6	22.8	0.00e+00	122	38	0	856686592	58	6374
2026-01-04 00:40:36.45	178.18	35.80	-40.7	-41.8	22.7	0.00e+00	123	38	0	859832320	58	6510
2026-01-04 00:40:37.46	178.30	36.03	-40.7	-41.7	22.8	0.00e+00	123	38	0	862978048	58	6469
2026-01-04 00:40:38.47	178.42	36.26	-41.3	-42.3	22.5	0.00e+00	122	38	0	866123776	60	6159
2026-01-04 00:40:39.48	178.54	36.48	-41.4	-42.4	22.6	0.00e+00	123	38	0	870318080	60	6229
2026-01-04 00:40:40.49	178.67	36.71	-41.4	-42.4	22.5	0.00e+00	123	38	0	872415232	60	6258
2026-01-04 00:40:41.50	178.79	36.94	-41.2	-42.2	22.8	0.00e+00	123	38	0	875560960	60	6120
2026-01-04 00:40:42.52	178.92	37.18	-41.1	-42.1	22.8	0.00e+00	122	38	0	878706688	60	6036
2026-01-04 00:40:43.53	179.05	37.41	-40.9	-41.9	22.8	0.00e+00	122	38	0	881852416	60	5889
2026-01-04 00:40:44.54	179.18	37.65	-41.3	-42.3	22.5	0.00e+00	120	38	0	886046720	60	6160
2026-01-04 00:40:45.55	179.31	37.89	-41.3	-42.3	22.4	0.00e+00	123	38	0	889192448	60	6180
2026-01-04 00:40:46.56	179.45	38.13	-41.5	-42.5	22.5	0.00e+00	123	38	0	892338176	60	6322
2026-01-04 00:40:47.57	179.59	38.37	-41.5	-42.5	22.5	0.00e+00	123	38	0	895483904	60	6329
2026-01-04 00:40:48.58	179.72	38.61	-41.5	-42.5	22.4	0.00e+00	123	38	0	897581056	60	6315
2026-01-04 00:40:49.59	179.86	38.85	-41.3	-42.3	22.5	0.00e+00	122	38	0	901775360	60	6185
2026-01-04 00:40:50.60	180.01	39.10	-41.8	-42.8	22.2	0.00e+00	123	38	0	904921088	60	6565
2026-01-04 00:40:51.61	180.15	39.34	-41.4	-42.4	22.6	0.00e+00	122	38	0	908066816	60	6258
2026-01-04 00:40:52.62	180.30	39.59	-41.5	-42.5	22.4	0.00e+00	122	38	0	911212544	60	6334
2026-01-04 00:40:53.63	180.45	39.84	-41.2	-42.2	22.5	0.00e+00	122	38	0	914358272	60	6111
2026-01-04 00:40:54.65	180.60	40.09	-41.2	-42.2	22.6	0.00e+00	120	38	0	917504000	60	6103
2026-01-04 00:40:55.66	180.76	40.35	-41.3	-42.3	22.6	0.00e+00	122	38	0	920649728	60	6201
2026-01-04 00:40:56.67	180.91	40.60	-41.1	-42.2	22.6	0.00e+00	121	38	0	923795456	60	6071
2026-01-04 00:40:57.68	181.07	40.86	-41.2	-42.2	22.5	0.00e+00	123	38	0	926941184	60	6088
2026-01-04 00:40:58.69	181.23	41.11	-41.5	-42.6	22.2	0.00e+00	123	38	0	930086912	60	6353
2026-01-04 00:40:59.70	181.39	41.37	-41.2	-42.2	22.4	0.00e+00	122	38	0	933232640	60	6132
2026-01-04 00:41:00.71	181.56	41.63	-40.8	-41.8	22.7	0.00e+00	123	38	0	936378368	60	5834
2026-01-04 00:41:01.72	181.73	41.90	-41.2	-42.2	22.5	0.00e+00	123	38	0	939524096	60	6104
2026-01-04 00:41:02.73	181.90	42.16	-41.3	-42.3	22.5	0.00e+00	120	38	0	942669824	60	6194
2026-01-04 00:41:03.74	182.08	42.43	-41.4	-42.4	22.5	0.00e+00	123	38	0	945815552	60	6243
2026-01-04 00:41:04.75	182.25	42.69	-41.5	-42.5	22.3	0.00e+00	122	38	0	948961280	60	6310
2026-01-04 00:41:05.76	182.43	42.96	-41.7	-42.7	22.1	0.00e+00	122	38	0	952107008	60	6467
2026-01-04 00:41:06.78	182.62	43.24	-41.9	-42.9	22.1	0.00e+00	120	38	0	955252736	60	6639
2026-01-04 00:41:07.79	182.80	43.51	-41.6	-42.6	22.4	0.00e+00	122	38	0	958398464	60	6371
2026-01-04 00:41:08.80	182.99	43.78	-41.4	-42.5	22.3	0.00e+00	123	38	0	961544192	60	6285
2026-01-04 00:41:09.81	183.18	44.06	-41.5	-42.5	22.1	0.00e+00	123	38	0	964689920	60	6322
2026-01-04 00:41:10.82	183.38	44.33	-41.5	-42.5	22.0	0.00e+00	120	38	0	967835648	60	6334
2026-01-04 00:41:11.83	183.58	44.61	-41.6	-42.7	21.7	0.00e+00	122	38	0	970981376	60	6453
2026-01-04 00:41:12.84	183.78	44.89	-41.9	-43.0	21.3	0.00e+00	122	38	0	974127104	60	6717
2026-01-04 00:41:13.85	183.99	45.17	-42.2	-43.3	21.3	0.00e+00	123	38	0	977272832	60	6933
2026-01-04 00:41:14.86	184.20	45.46	-42.1	-43.2	21.4	0.00e+00	122	38	0	980418560	60	6843
2026-01-04 00:41:15.87	184.41	45.74	-42.0	-43.1	21.6	0.00e+00	122	38	0	983564288	60	6750
2026-01-04 00:41:16.88	184.63	46.03	-41.8	-42.9	21.9	0.00e+00	122	38	0	986710016	60	6600
2026-01-04 00:41:17.89	184.85	46.32	-41.5	-42.6	21.9	0.00e+00	122	38	0	989855744	60	6375
2026-01-04 00:41:18.91	185.08	46.61	-41.4	-42.4	22.1	0.00e+00	123	38	0	993001472	60	6256
2026-01-04 00:41:19.92	185.31	46.90	-41.3	-42.4	22.2	0.00e+00	122	38	0	996147200	60	6240
2026-01-04 00:41:20.93	185.54	47.19	-41.4	-42.4	22.1	0.00e+00	123	38	0	999292928	60	6255
2026-01-04 00:41:21.94	185.78	47.49	-41.1	-42.2	22.2	0.00e+00	123	38	0	1002438656	60	6082
2026-01-04 00:41:22.95	186.02	47.78	-41.0	-42.0	22.5	0.00e+00	123	38	0	1005584384	60	5951
2026-01-04 00:41:23.96	186.27	48.08	-41.1	-42.1	22.5	0.00e+00	123	38	0	1008730112	60	6044
2026-01-04 00:41:24.97	186.52	48.38	-41.1	-42.1	22.5	0.00e+00	123	38	0	1011875840	60	6052
2026-01-04 00:41:25.98	186.77	48.68	-40.9	-41.9	22.7	0.00e+00	122	38	0	1015021568	60	5889
2026-01-04 00:41:27.00	187.04	48.98	-40.8	-41.8	22.7	0.00e+00	123	38	0	1018167296	60	5815
2026-01-04 00:41:28.00	187.30	49.28	-40.8	-41.9	22.7	0.00e+00	122	38	0	1021313024	60	5860
2026-01-04 00:41:29.02	187.58	49.59	-40.7	-41.7	22.8	0.00e+00	122	38	0	1024458752	60	5757
2026-01-04 00:41:30.03	187.85	49.90	-41.3	-42.3	22.4	0.00e+00	122	38	0	1027604480	60	6172
2026-01-04 00:41:31.04	188.14	50.20	-41.8	-42.8	22.4	0.00e+00	123	38	0	1030750208	60	6567
2026-01-04 00:41:32.05	188.42	50.51	-41.4	-42.4	22.6	0.00e+00	122	38	0	1033895936	60	6274
2026-01-04 00:41:33.06	188.72	50.82	-41.2	-42.3	22.6	0.00e+00	122	38	0	1037041664	60	6144
2026-01-04 00:41:34.07	189.02	51.13	-41.3	-42.3	22.5	0.00e+00	123	38	0	1040187392	60	6205
2026-01-04 00:41:35.08	189.32	51.45	-41.3	-42.4	22.4	0.00e+00	123	38	0	1043333120	60	6216
2026-01-04 00:41:36.09	189.64	51.76	-40.3	-41.3	23.2	0.00e+00	122	38	0	1046478848	60	5511
2026-01-04 00:41:37.10	189.96	52.07	-40.1	-41.0	23.3	0.00e+00	123	38	0	1049624576	58	5984
2026-01-04 00:41:38.11	190.28	52.39	-40.2	-41.2	23.4	0.00e+00	122	38	0	1052770304	58	6087
2026-01-04 00:41:39.12	190.62	52.71	-40.1	-41.1	23.1	0.00e+00	122	38	0	1055916032	58	6064
2026-01-04 00:41:40.14	190.96	53.03	-40.2	-41.2	23.0	0.00e+00	120	38	0	1059061760	58	6085
2026-01-04 00:41:41.15	191.31	53.35	-39.8	-40.8	23.4	0.00e+00	123	38	0	1062207488	58	5794
2026-01-04 00:41:42.16	191.66	53.67	-39.6	-40.6	23.6	0.00e+00	121	38	0	1065353216	58	5698
2026-01-04 00:41:43.17	192.03	53.99	-39.8	-40.8	23.5	0.00e+00	123	38	0	1068498944	58	5812
2026-01-04 00:41:44.18	192.40	54.31	-40.4	-41.4	23.2	0.00e+00	123	38	0	1071644672	58	6241
2026-01-04 00:41:45.19	192.78	54.63	-40.4	-41.4	23.2	0.00e+00	123	38	0	1074790400	58	6239
2026-01-04 00:41:46.20	193.17	54.96	-39.8	-40.8	23.8	0.00e+00	120	38	0	1077936128	58	5825
2026-01-04 00:41:47.21	193.56	55.28	-39.4	-40.3	24.1	0.00e+00	122	38	0	1081081856	58	5528
2026-01-04 00:41:48.22	193.97	55.60	-39.7	-40.6	24.1	0.00e+00	123	38	0	1084227584	58	5712
2026-01-04 00:41:49.23	194.39	55.93	-39.3	-40.2	24.3	0.00e+00	122	38	0	1087373312	58	5424
2026-01-04 00:41:50.25	194.82	56.26	-39.1	-40.1	24.3	0.00e+00	120	38	0	1090519040	56	6008
2026-01-04 00:41:51.26	195.25	56.58	-39.3	-40.2	24.2	0.00e+00	122	38	0	1093664768	56	6119
2026-01-04 00:41:52.27	195.70	56.91	-38.8	-39.7	24.5	0.00e+00	122	38	0	1096810496	56	5739
2026-01-04 00:41:53.28	196.15	57.24	-38.6	-39.5	24.6	0.00e+00	122	38	0	1099956224	56	5625
2026-01-04 00:41:54.29	196.62	57.56	-38.6	-39.5	24.7	0.00e+00	121	38	0	1103101952	56	5612
2026-01-04 00:41:55.30	197.10	57.89	-38.9	-39.8	24.5	0.00e+00	122	38	0	1106247680	56	5827
2026-01-04 00:41:56.32	197.59	58.22	-38.8	-39.7	24.5	0.00e+00	120	38	0	1109393408	56	5775
2026-01-04 00:41:57.32	198.09	58.54	-38.8	-39.7	24.5	0.00e+00	123	38	0	1112539136	56	5778
2026-01-04 00:41:58.34	198.61	58.87	-39.0	-39.9	24.3	0.00e+00	120	38	0	1116733440	56	5913
2026-01-04 00:41:59.34	199.13	59.19	-38.9	-39.8	24.1	0.00e+00	123	38	0	1118830592	56	5830
2026-01-04 00:42:00.36	199.68	59.52	-39.1	-40.0	24.1	0.00e+00	123	38	0	1121976320	56	5989
2026-01-04 00:42:01.37	200.23	59.85	-39.7	-40.7	24.0	0.00e+00	122	38	0	1125122048	56	6429
2026-01-04 00:42:02.38	200.80	60.17	-39.2	-40.1	24.5	0.00e+00	120	38	0	1128267776	56	6045
2026-01-04 00:42:03.39	201.38	60.49	-38.8	-39.7	24.7	0.00e+00	122	38	0	1132462080	56	5748
2026-01-04 00:42:04.40	201.98	60.82	-38.7	-39.6	24.8	0.00e+00	122	38	0	1135607808	56	5707
2026-01-04 00:42:05.41	202.59	61.14	-38.5	-39.4	25.0	0.00e+00	122	38	0	1138753536	56	5532
2026-01-04 00:42:06.42	203.22	61.46	-38.0	-38.8	25.3	0.00e+00	123	38	0	1141899264	56	5207
2026-01-04 00:42:07.43	203.87	61.77	-38.2	-39.1	25.4	0.00e+00	122	38	0	1143996416	54	6025
2026-01-04 00:42:08.44	204.53	62.09	-38.4	-39.3	25.3	0.00e+00	122	38	0	1148190720	54	6168
2026-01-04 00:42:09.45	205.21	62.40	-37.8	-38.6	25.4	0.00e+00	123	38	0	1151336448	54	5710
2026-01-04 00:42:10.46	205.90	62.72	-38.1	-38.9	25.4	0.00e+00	123	38	0	1154482176	54	5925
2026-01-04 00:42:11.47	206.62	63.03	-37.9	-38.8	25.4	0.00e+00	123	38	0	1157627904	54	5817
2026-01-04 00:42:12.49	207.36	63.34	-37.9	-38.7	25.4	0.00e+00	123	38	0	1160773632	54	5768
2026-01-04 00:42:13.50	208.11	63.64	-37.8	-38.7	25.3	0.00e+00	123	38	0	1163919360	54	5746
2026-01-04 00:42:14.51	208.88	63.94	-38.0	-38.9	25.2	0.00e+00	122	38	0	1167065088	54	5863
2026-01-04 00:42:15.52	209.67	64.24	-38.1	-38.9	25.4	0.00e+00	122	38	0	1170210816	54	5908
2026-01-04 00:42:16.53	210.49	64.54	-37.7	-38.6	25.4	0.00e+00	123	38	0	1173356544	54	5674
2026-01-04 00:42:17.54	211.32	64.83	-37.6	-38.5	25.6	0.00e+00	122	38	0	1176502272	54	5598
2026-01-04 00:42:18.55	212.17	65.12	-37.6	-38.4	25.7	0.00e+00	123	38	0	1179648000	54	5574
2026-01-04 00:42:19.56	213.05	65.41	-37.2	-38.0	25.7	0.00e+00	123	38	0	1182793728	54	5327
2026-01-04 00:42:20.57	213.95	65.69	-37.7	-38.5	25.4	0.00e+00	120	38	0	1185939456	54	5649
2026-01-04 00:42:21.58	214.87	65.96	-38.0	-38.9	25.3	0.00e+00	123	38	0	1189085184	54	5896
2026-01-04 00:42:22.59	215.82	66.23	-37.7	-38.6	25.4	0.00e+00	122	38	0	1192230912	54	5703
2026-01-04 00:42:23.60	216.79	66.50	-37.6	-38.5	25.5	0.00e+00	123	38	0	1195376640	54	5613
2026-01-04 00:42:24.61	217.78	66.76	-37.7	-38.5	25.5	0.00e+00	123	38	0	1198522368	54	5639
2026-01-04 00:42:25.62	218.80	67.01	-37.8	-38.6	25.6	0.00e+00	122	38	0	1201668096	54	5709
2026-01-04 00:42:26.63	219.84	67.26	-38.0	-38.8	25.3	0.00e+00	123	38	0	1204813824	54	5849
2026-01-04 00:42:27.64	220.91	67.51	-38.2	-39.1	25.4	0.00e+00	120	38	0	1207959552	54	6009
2026-01-04 00:42:28.65	222.00	67.74	-37.6	-38.5	25.3	0.00e+00	123	38	0	1211105280	54	5622
2026-01-04 00:42:29.66	223.12	67.97	-37.2	-38.0	25.7	0.00e+00	123	38	0	1214251008	54	5316
2026-01-04 00:42:30.68	224.27	68.20	-37.3	-38.1	25.5	0.00e+00	123	38	0	1217396736	52	6050
2026-01-04 00:42:31.69	225.44	68.41	-37.5	-38.3	25.4	0.00e+00	122	38	0	1220542464	52	6200
2026-01-04 00:42:32.70	226.63	68.62	-37.4	-38.2	25.4	0.00e+00	123	38	0	1223688192	52	6099
2026-01-04 00:42:33.71	227.85	68.81	-37.3	-38.1	25.6	0.00e+00	122	38	0	1226833920	52	6032
2026-01-04 00:42:34.72	229.09	69.00	-37.4	-38.3	25.5	0.00e+00	122	38	0	1229979648	52	6160
2026-01-04 00:42:35.73	230.35	69.18	-38.2	-39.1	25.3	0.00e+00	123	38	0	1233125376	54	6021
2026-01-04 00:42:36.74	231.64	69.36	-38.0	-38.9	25.2	0.00e+00	123	38	0	1236271104	54	5868
2026-01-04 00:42:37.75	232.95	69.52	-37.6	-38.5	25.4	0.00e+00	122	38	0	1239416832	54	5632
2026-01-04 00:42:38.76	234.28	69.67	-39.9	-40.9	24.5	0.00e+00	123	38	0	1242562560	58	5867
2026-01-04 00:42:39.77	235.64	69.81	-38.4	-39.3	25.4	0.00e+00	123	38	0	1245708288	54	6200
2026-01-04 00:42:40.79	237.02	69.94	-38.2	-39.0	25.2	0.00e+00	123	38	0	1248854016	54	5977
2026-01-04 00:42:41.80	238.41	70.07	-38.4	-39.2	25.8	0.00e+00	123	38	0	1251999744	54	6112
2026-01-04 00:42:42.81	239.82	70.18	-37.8	-38.7	25.9	0.00e+00	123	38	0	1255145472	54	5736
2026-01-04 00:42:43.82	241.24	70.27	-37.3	-38.2	25.5	0.00e+00	122	38	0	1258291200	54	5424
2026-01-04 00:42:44.83	242.68	70.36	-37.5	-38.3	25.5	0.00e+00	123	38	0	1261436928	54	5509
2026-01-04 00:42:45.84	244.13	70.44	-38.0	-38.8	25.6	0.00e+00	121	38	0	1264582656	54	5818
2026-01-04 00:42:46.85	245.60	70.50	-38.7	-39.5	25.1	0.00e+00	123	38	0	1267728384	54	6326
2026-01-04 00:42:47.86	247.07	70.56	-38.4	-39.3	25.1	0.00e+00	120	38	0	1270874112	54	6188
2026-01-04 00:42:48.87	248.55	70.60	-39.1	-40.0	25.2	0.00e+00	123	38	0	1274019840	56	5982
2026-01-04 00:42:49.88	250.03	70.62	-38.2	-39.1	25.4	0.00e+00	122	38	0	1277165568	54	6027
2026-01-04 00:42:50.89	251.52	70.64	-37.9	-38.8	25.1	0.00e+00	123	38	0	1280311296	54	5832
2026-01-04 00:42:51.91	253.02	70.64	-39.1	-40.0	25.1	0.00e+00	120	38	0	1283457024	54	6665
2026-01-04 00:42:52.92	254.51	70.64	-38.4	-39.3	25.0	0.00e+00	123	38	0	1286602752	54	6201
2026-01-04 00:42:53.93	256.00	70.62	-37.9	-38.8	25.1	0.00e+00	123	38	0	1289748480	54	5807
2026-01-04 00:42:54.94	257.48	70.58	-38.5	-39.4	25.0	0.00e+00	122	38	0	1292894208	54	6243
2026-01-04 00:42:55.95	258.96	70.54	-38.3	-39.2	24.9	0.00e+00	122	38	0	1296039936	54	6110
2026-01-04 00:42:56.96	260.42	70.48	-38.9	-39.8	25.0	0.00e+00	122	38	0	1299185664	54	6516
2026-01-04 00:42:57.97	261.88	70.41	-38.8	-39.8	24.9	0.00e+00	123	38	0	1302331392	54	6511
2026-01-04 00:42:58.98	263.33	70.33	-38.6	-39.5	25.0	0.00e+00	123	38	0	1305477120	54	6303
2026-01-04 00:42:59.99	264.76	70.24	-38.5	-39.3	25.2	0.00e+00	120	38	0	1308622848	54	6185
2026-01-04 00:43:01.00	266.18	70.14	-37.9	-38.7	25.5	0.00e+00	122	38	0	1311768576	54	5785
2026-01-04 00:43:02.02	267.59	70.02	-38.5	-39.4	25.4	0.00e+00	122	38	0	1314914304	54	6213
2026-01-04 00:43:03.03	268.97	69.90	-38.4	-39.3	24.7	0.00e+00	122	38	0	1318060032	54	6159
2026-01-04 00:43:04.04	270.34	69.76	-39.4	-40.4	24.5	0.00e+00	122	38	0	1321205760	56	6225
2026-01-04 00:43:05.05	271.68	69.62	-39.6	-40.5	24.4	0.00e+00	122	38	0	1324351488	56	6333
2026-01-04 00:43:06.06	273.01	69.46	-39.2	-40.1	24.8	0.00e+00	123	38	0	1327497216	58	5390
2026-01-04 00:43:07.07	274.31	69.30	-38.4	-39.3	25.1	0.00e+00	122	38	0	1330642944	56	5521
2026-01-04 00:43:08.08	275.59	69.12	-38.4	-39.3	25.2	0.00e+00	120	38	0	1333788672	56	5505
2026-01-04 00:43:09.09	276.84	68.94	-39.1	-40.0	24.9	0.00e+00	122	38	0	1336934400	56	5965
2026-01-04 00:43:10.10	278.07	68.75	-38.9	-39.8	24.8	0.00e+00	122	38	0	1340080128	56	5796
2026-01-04 00:43:11.11	279.28	68.55	-38.9	-39.7	25.3	0.00e+00	122	38	0	1343225856	56	5764
2026-01-04 00:43:12.13	280.47	68.33	-38.1	-39.0	25.2	0.00e+00	123	38	0	1346371584	54	5941
2026-01-04 00:43:13.14	281.63	68.12	-38.1	-38.9	25.6	0.00e+00	123	38	0	1349517312	54	5901
2026-01-04 00:43:14.15	282.76	67.89	-37.6	-38.4	25.6	0.00e+00	121	38	0	1352663040	54	5591
2026-01-04 00:43:15.16	283.87	67.66	-37.5	-38.3	25.7	0.00e+00	123	38	0	1355808768	54	5527
2026-01-04 00:43:16.17	284.95	67.42	-37.9	-38.8	25.3	0.00e+00	120	38	0	1358954496	54	5810
2026-01-04 00:43:17.18	286.01	67.18	-38.2	-39.1	25.1	0.00e+00	122	38	0	1362100224	54	5996
2026-01-04 00:43:18.19	287.04	66.93	-37.8	-38.7	25.3	0.00e+00	123	38	0	1365245952	54	5777
2026-01-04 00:43:19.20	288.05	66.67	-37.5	-38.4	25.4	0.00e+00	123	38	0	1368391680	54	5556
2026-01-04 00:43:20.21	289.03	66.41	-37.2	-38.0	25.7	0.00e+00	121	38	0	1371537408	54	5307
2026-01-04 00:43:21.22	289.99	66.14	-37.3	-38.1	25.7	0.00e+00	123	38	0	1374683136	52	6055
2026-01-04 00:43:22.24	290.94	65.87	-37.4	-38.2	25.5	0.00e+00	122	38	0	1378877440	52	6126
2026-01-04 00:43:23.25	291.85	65.59	-38.3	-39.2	25.1	0.00e+00	123	38	0	1382023168	52	6845
2026-01-04 00:43:24.26	292.74	65.31	-37.8	-38.7	25.2	0.00e+00	120	38	0	1385168896	54	5732
2026-01-04 00:43:25.27	293.61	65.02	-37.4	-38.3	25.4	0.00e+00	122	38	0	1387266048	54	5484
2026-01-04 00:43:26.28	294.46	64.74	-37.5	-38.4	25.8	0.00e+00	122	38	0	1390411776	52	6215
2026-01-04 00:43:27.29	295.28	64.44	-37.2	-38.1	25.7	0.00e+00	123	38	0	1394606080	52	6004
2026-01-04 00:43:28.30	296.08	64.15	-37.7	-38.6	25.3	0.00e+00	123	38	0	1397751808	52	6363
2026-01-04 00:43:29.31	296.87	63.85	-38.3	-39.2	24.5	0.00e+00	123	38	0	1400897536	54	6130
2026-01-04 00:43:30.32	297.63	63.54	-38.9	-39.9	24.1	0.00e+00	123	38	0	1404043264	54	6582
2026-01-04 00:43:31.33	298.38	63.24	-38.2	-39.1	24.5	0.00e+00	123	38	0	1407188992	54	6031
2026-01-04 00:43:32.35	299.11	62.93	-37.6	-38.5	25.1	0.00e+00	123	38	0	1410334720	54	5618
2026-01-04 00:43:33.36	299.81	62.62	-37.6	-38.4	25.5	0.00e+00	123	38	0	1413480448	54	5591
2026-01-04 00:43:34.37	300.50	62.31	-37.8	-38.7	25.2	0.00e+00	122	38	0	1416626176	54	5766
2026-01-04 00:43:35.38	301.17	61.99	-38.5	-39.4	24.5	0.00e+00	123	38	0	1419771904	54	6264
2026-01-04 00:43:36.39	301.83	61.68	-39.4	-40.3	24.0	0.00e+00	123	38	0	1422917632	56	6204
2026-01-04 00:43:37.40	302.47	61.36	-39.6	-40.6	23.9	0.00e+00	123	38	0	1426063360	56	6388
2026-01-04 00:43:38.41	303.09	61.04	-38.8	-39.8	24.4	0.00e+00	123	38	0	1429209088	56	5814
2026-01-04 00:43:39.42	303.70	60.72	-38.4	-39.3	24.8	0.00e+00	122	38	0	1432354816	56	5523
2026-01-04 00:43:40.43	304.29	60.40	-38.2	-39.0	25.2	0.00e+00	123	38	0	1435500544	54	5975
2026-01-04 00:43:41.45	304.87	60.07	-38.2	-39.0	25.1	0.00e+00	122	38	0	1438646272	54	5971
2026-01-04 00:43:42.46	305.43	59.75	-39.1	-40.1	24.4	0.00e+00	122	38	0	1441792000	54	6740
2026-01-04 00:43:43.47	305.98	59.43	-40.1	-41.1	23.5	0.00e+00	123	38	0	1444937728	56	6746
2026-01-04 00:43:44.48	306.51	59.10	-41.1	-42.1	22.8	0.00e+00	123	38	0	1448083456	58	6775
2026-01-04 00:43:45.49	307.04	58.78	-40.5	-41.6	22.8	0.00e+00	120	38	0	1451229184	60	5698
2026-01-04 00:43:46.50	307.55	58.45	-38.9	-39.9	23.4	0.00e+00	123	38	0	1454374912	56	5916
2026-01-04 00:43:47.51	308.04	58.13	-38.9	-39.8	24.0	0.00e+00	122	38	0	1457520640	56	5822
2026-01-04 00:43:48.52	308.53	57.80	-37.7	-38.6	25.2	0.00e+00	123	38	0	1460666368	54	5712
2026-01-04 00:43:49.53	309.00	57.48	-38.2	-39.1	25.5	0.00e+00	123	38	0	1463812096	54	5995
2026-01-04 00:43:50.54	309.47	57.15	-39.1	-40.0	24.7	0.00e+00	122	38	0	1466957824	54	6676
2026-01-04 00:43:51.56	309.92	56.82	-39.7	-40.7	23.9	0.00e+00	123	38	0	1470103552	56	6458
2026-01-04 00:43:52.57	310.36	56.50	-40.1	-41.1	23.4	0.00e+00	123	38	0	1473249280	56	6745
2026-01-04 00:43:53.58	310.80	56.17	-40.1	-41.2	22.4	0.00e+00	123	38	0	1476395008	58	6070
2026-01-04 00:43:54.59	311.22	55.85	-39.8	-41.0	22.2	0.00e+00	123	38	0	1479540736	58	5942
2026-01-04 00:43:55.60	311.63	55.52	-39.2	-40.2	23.1	0.00e+00	121	38	0	1482686464	58	5434
2026-01-04 00:43:56.61	312.03	55.20	-38.7	-39.7	24.3	0.00e+00	123	38	0	1485832192	56	5727
2026-01-04 00:43:57.62	312.43	54.88	-38.4	-39.3	24.8	0.00e+00	123	38	0	1488977920	56	5520
2026-01-04 00:43:58.63	312.81	54.56	-39.5	-40.4	24.4	0.00e+00	123	38	0	1492123648	56	6236
2026-01-04 00:43:59.65	313.19	54.23	-40.1	-41.1	23.2	0.00e+00	123	38	0	1495269376	58	6039
2026-01-04 00:44:00.66	313.56	53.91	-41.1	-42.2	22.4	0.00e+00	123	38	0	1498415104	58	6844
2026-01-04 00:44:01.67	313.92	53.59	-41.3	-42.4	22.1	0.00e+00	122	38	0	1501560832	60	6264
2026-01-04 00:44:02.68	314.27	53.27	-41.5	-42.7	21.3	0.00e+00	122	38	0	1504706560	60	6471
2026-01-04 00:44:03.69	314.62	52.96	-41.1	-42.3	21.6	0.00e+00	122	38	0	1507852288	60	6141
2026-01-04 00:44:04.70	314.95	52.64	-39.9	-41.0	23.0	0.00e+00	122	38	0	1510998016	58	5930
2026-01-04 00:44:05.71	315.28	52.33	-39.2	-40.1	24.0	0.00e+00	120	38	0	1514143744	58	5377
2026-01-04 00:44:06.72	315.61	52.01	-39.3	-40.2	24.2	0.00e+00	123	38	0	1517289472	58	5433
2026-01-04 00:44:07.73	315.92	51.70	-39.6	-40.5	23.9	0.00e+00	120	38	0	1520435200	58	5641
2026-01-04 00:44:08.74	316.24	51.39	-40.5	-41.5	23.2	0.00e+00	123	38	0	1523580928	58	6300
2026-01-04 00:44:09.76	316.54	51.07	-41.5	-42.5	22.5	0.00e+00	120	38	0	1526726656	60	6342
2026-01-04 00:44:10.77	316.84	50.76	-42.5	-43.8	21.3	0.00e+00	122	38	0	1529872384	60	7303
2026-01-04 00:44:11.78	317.13	50.45	-43.5	-44.9	20.1	0.00e+00	120	38	0	1533018112	60	8301
2026-01-04 00:44:12.79	317.42	50.15	-43.6	-45.0	20.2	0.00e+00	123	38	0	1536163840	60	8410
2026-01-04 00:44:13.80	317.70	49.84	-43.2	-44.6	20.1	0.00e+00	120	38	0	1539309568	60	7997
2026-01-04 00:44:14.81	317.97	49.54	-42.3	-43.5	21.1	0.00e+00	122	38	0	1542455296	60	7106
2026-01-04 00:44:15.82	318.24	49.24	-41.7	-42.8	22.0	0.00e+00	122	38	0	1545601024	60	6521
2026-01-04 00:44:16.83	318.51	48.93	-41.2	-42.3	22.5	0.00e+00	123	38	0	1548746752	60	6147
2026-01-04 00:44:17.84	318.77	48.63	-41.1	-42.1	22.8	0.00e+00	120	38	0	1551892480	60	6057
2026-01-04 00:44:18.86	319.02	48.33	-41.0	-41.9	23.0	0.00e+00	123	38	0	1555038208	60	5921
2026-01-04 00:44:19.87	319.27	48.04	-40.6	-41.5	23.2	0.00e+00	120	38	0	1558183936	60	5655
2026-01-04 00:44:20.88	319.52	47.74	-40.7	-41.7	23.1	0.00e+00	123	38	0	1561329664	60	5764
2026-01-04 00:44:21.89	319.76	47.45	-41.4	-42.4	22.6	0.00e+00	123	38	0	1564475392	60	6252
2026-01-04 00:44:22.90	320.00	47.15	-41.8	-42.8	22.0	0.00e+00	123	38	0	1567621120	60	6567
2026-01-04 00:44:23.91	320.23	46.86	-42.2	-43.3	21.6	0.00e+00	120	38	0	1570766848	60	6951
2026-01-04 00:44:24.92	320.46	46.57	-42.3	-43.4	21.7	0.00e+00	122	38	0	1573912576	60	7006
2026-01-04 00:44:25.93	320.68	46.29	-42.1	-43.2	21.7	0.00e+00	123	38	0	1577058304	60	6878
2026-01-04 00:44:26.94	320.90	46.00	-41.9	-43.0	21.9	0.00e+00	122	38	0	1580204032	60	6684
2026-01-04 00:44:27.95	321.11	45.71	-41.7	-42.7	22.1	0.00e+00	122	38	0	1583349760	60	6465
2026-01-04 00:44:28.96	321.33	45.43	-41.5	-42.5	22.2	0.00e+00	123	38	0	1586495488	60	6312
2026-01-04 00:44:29.97	321.54	45.15	-41.8	-42.8	22.2	0.00e+00	120	38	0	1589641216	60	6530
2026-01-04 00:44:30.98	321.74	44.87	-41.6	-42.6	22.2	0.00e+00	122	38	0	1592786944	60	6400
2026-01-04 00:44:31.99	321.94	44.59	-42.2	-43.2	21.6	0.00e+00	122	38	0	1595932672	60	6883
2026-01-04 00:44:33.00	322.14	44.31	-42.9	-44.1	21.0	0.00e+00	122	38	0	1599078400	60	7573
2026-01-04 00:44:34.02	322.34	44.04	-43.1	-44.3	20.8	0.00e+00	120	38	0	1602224128	60	7764
2026-01-04 00:44:35.03	322.53	43.76	-42.8	-44.0	21.3	0.00e+00	123	38	0	1605369856	60	7470
2026-01-04 00:44:36.04	322.71	43.49	-42.5	-43.6	21.6	0.00e+00	122	38	0	1608515584	60	7168
2026-01-04 00:44:37.05	322.90	43.22	-41.7	-42.7	22.2	0.00e+00	122	38	0	1611661312	60	6463
2026-01-04 00:44:38.06	323.08	42.95	-41.7	-42.7	22.5	0.00e+00	123	38	0	1614807040	60	6485
2026-01-04 00:44:39.07	323.26	42.69	-41.6	-42.6	22.4	0.00e+00	123	38	0	1617952768	60	6415
2026-01-04 00:44:40.08	323.44	42.42	-42.6	-43.7	21.7	0.00e+00	123	38	0	1622147072	60	7231
2026-01-04 00:44:41.09	323.61	42.16	-43.1	-44.2	21.4	0.00e+00	121	38	0	1625292800	60	7714
2026-01-04 00:44:42.11	323.78	41.89	-42.6	-43.7	21.9	0.00e+00	122	38	0	1628438528	60	7262
2026-01-04 00:44:43.11	323.95	41.63	-42.1	-43.1	21.9	0.00e+00	120	38	0	1631584256	60	6784
2026-01-04 00:44:44.13	324.12	41.37	-42.3	-43.3	22.1	0.00e+00	123	38	0	1633681408	60	6946
2026-01-04 00:44:45.14	324.28	41.11	-42.8	-43.8	22.0	0.00e+00	120	38	0	1637875712	60	7370
2026-01-04 00:44:46.15	324.44	40.86	-44.1	-45.3	21.0	0.00e+00	123	38	0	1641021440	60	8708
2026-01-04 00:44:47.16	324.60	40.60	-43.0	-44.2	21.3	0.00e+00	120	38	0	1644167168	60	7666
2026-01-04 00:44:48.17	324.75	40.35	-44.2	-45.4	20.6	0.00e+00	122	38	0	1647312896	60	8789
2026-01-04 00:44:49.18	324.90	40.10	-43.7	-44.9	21.1	0.00e+00	123	38	0	1650458624	60	8332
2026-01-04 00:44:50.19	325.06	39.85	-43.2	-44.3	21.2	0.00e+00	123	38	0	1653604352	60	7767
2026-01-04 00:44:51.20	325.20	39.60	-43.3	-44.4	21.4	0.00e+00	120	38	0	1656750080	60	7869
2026-01-04 00:44:52.21	325.35	39.36	-43.6	-44.7	21.4	0.00e+00	123	38	0	1659895808	60	8148
2026-01-04 00:44:53.22	325.49	39.11	-42.7	-43.8	21.8	0.00e+00	122	38	0	1663041536	60	7356
2026-01-04 00:44:54.23	325.64	38.87	-42.4	-43.5	22.4	0.00e+00	123	38	0	1666187264	60	7062
2026-01-04 00:44:55.25	325.78	38.62	-41.7	-42.7	23.0	0.00e+00	123	38	0	1669332992	60	6428
2026-01-04 00:44:56.26	325.92	38.38	-41.7	-42.7	23.0	0.00e+00	123	38	0	1672478720	60	6467
2026-01-04 00:44:57.27	326.05	38.14	-41.3	-42.2	23.1	0.00e+00	120	38	0	1675624448	60	6134
2026-01-04 00:44:58.28	326.19	37.91	-41.0	-41.9	23.3	0.00e+00	123	38	0	1678770176	60	5903
2026-01-04 00:44:59.29	326.32	37.67	-40.9	-41.9	23.1	0.00e+00	120	38	0	1681915904	60	5891
2026-01-04 00:45:00.30	326.45	37.44	-41.6	-42.6	22.6	0.00e+00	122	38	0	1685061632	60	6385
2026-01-04 00:45:01.31	326.58	37.20	-41.5	-42.5	22.7	0.00e+00	122	38	0	1688207360	60	6307
2026-01-04 00:45:02.32	326.71	36.97	-41.1	-42.1	23.1	0.00e+00	122	38	0	1691353088	60	6016
2026-01-04 00:45:03.33	326.83	36.74	-40.6	-41.5	23.3	0.00e+00	120	38	0	1694498816	60	5648
2026-01-04 00:45:04.34	326.95	36.51	-40.7	-41.6	23.4	0.00e+00	122	38	0	1697644544	60	5715
2026-01-04 00:45:05.35	327.08	36.29	-40.7	-41.7	23.2	0.00e+00	123	38	0	1700790272	60	5743
2026-01-04 00:45:06.36	327.20	36.06	-40.7	-41.6	23.2	0.00e+00	122	38	0	1703936000	60	5709
2026-01-04 00:45:07.38	327.32	35.84	-40.8	-41.8	23.0	0.00e+00	120	38	0	1707081728	60	5808
2026-01-04 00:45:08.39	327.43	35.61	-40.9	-41.9	22.9	0.00e+00	122	38	0	1710227456	60	5868
2026-01-04 00:45:09.40	327.55	35.39	-41.0	-42.0	22.7	0.00e+00	123	38	0	1713373184	60	5990
2026-01-04 00:45:10.41	327.66	35.17	-41.2	-42.3	22.5	0.00e+00	122	38	0	1716518912	60	6150
2026-01-04 00:45:11.42	327.78	34.95	-41.4	-42.4	22.2	0.00e+00	123	38	0	1719664640	60	6263
2026-01-04 00:45:12.43	327.89	34.74	-42.1	-43.2	21.8	0.00e+00	122	38	0	1722810368	60	6851
2026-01-04 00:45:13.44	328.00	34.52	-42.1	-43.3	21.4	0.00e+00	122	38	0	1725956096	60	6893
2026-01-04 00:45:14.45	328.11	34.31	-41.9	-43.0	20.9	0.00e+00	120	38	0	1729101824	60	6704
2026-01-04 00:45:15.46	328.21	34.10	-41.6	-42.7	21.3	0.00e+00	122	38	0	1732247552	60	6448
2026-01-04 00:45:16.47	328.32	33.88	-41.0	-42.0	22.5	0.00e+00	122	38	0	1735393280	60	5967
2026-01-04 00:45:17.49	328.42	33.67	-41.0	-42.0	22.6	0.00e+00	122	38	0	1738539008	60	5976
2026-01-04 00:45:18.50	328.53	33.46	-40.6	-41.6	23.3	0.00e+00	122	38	0	1741684736	60	5671
2026-01-04 00:45:19.51	328.63	33.26	-39.9	-40.8	23.5	0.00e+00	123	38	0	1744830464	58	5843
2026-01-04 00:45:20.52	328.73	33.05	-39.8	-40.8	24.0	0.00e+00	120	38	0	1747976192	58	5805
2026-01-04 00:45:21.53	328.83	32.85	-39.7	-40.6	23.8	0.00e+00	122	38	0	1751121920	58	5689
2026-01-04 00:45:22.54	328.93	32.64	-39.6	-40.5	23.7	0.00e+00	123	38	0	1754267648	58	5606
2026-01-04 00:45:23.55	329.02	32.44	-39.8	-40.7	24.3	0.00e+00	123	38	0	1757413376	58	5746
2026-01-04 00:45:24.56	329.12	32.24	-40.0	-40.9	24.4	0.00e+00	122	38	0	1760559104	58	5902
2026-01-04 00:45:25.57	329.22	32.04	-40.2	-41.0	24.5	0.00e+00	122	38	0	1763704832	58	5964
2026-01-04 00:45:26.58	329.31	31.84	-40.3	-41.2	24.5	0.00e+00	120	38	0	1766850560	58	6102
2026-01-04 00:45:27.59	329.40	31.64	-39.6	-40.5	24.2	0.00e+00	123	38	0	1769996288	58	5620
2026-01-04 00:45:28.61	329.49	31.45	-39.7	-40.6	24.3	0.00e+00	123	38	0	1773142016	58	5696
2026-01-04 00:45:29.62	329.59	31.25	-39.7	-40.6	24.2	0.00e+00	122	38	0	1776287744	58	5720
2026-01-04 00:45:30.63	329.67	31.06	-40.1	-41.0	24.2	0.00e+00	120	38	0	1779433472	58	5975
2026-01-04 00:45:31.64	329.76	30.87	-40.1	-41.0	24.1	0.00e+00	123	38	0	1782579200	58	5951
2026-01-04 00:45:32.65	329.85	30.68	-40.8	-41.7	24.0	0.00e+00	121	38	0	1785724928	58	6463
2026-01-04 00:45:33.66	329.94	30.49	-40.5	-41.4	23.9	0.00e+00	123	38	0	1788870656	58	6218
2026-01-04 00:45:34.67	330.02	30.30	-40.3	-41.2	23.7	0.00e+00	121	38	0	1792016384	58	6110
2026-01-04 00:45:35.68	330.11	30.11	-40.7	-41.7	23.5	0.00e+00	123	38	0	1795162112	58	6431
2026-01-04 00:45:36.69	330.19	29.92	-40.6	-41.5	23.5	0.00e+00	120	38	0	1798307840	58	6325
2026-01-04 00:45:37.70	330.27	29.74	-40.7	-41.7	23.4	0.00e+00	122	38	0	1801453568	58	6491
2026-01-04 00:45:38.71	330.36	29.55	-40.2	-41.1	23.7	0.00e+00	123	38	0	1804599296	58	6041
2026-01-04 00:45:39.72	330.44	29.37	-40.7	-41.7	23.5	0.00e+00	123	38	0	1807745024	58	6460
2026-01-04 00:45:40.73	330.52	29.19	-40.8	-41.8	22.1	0.00e+00	122	38	0	1810890752	58	6535
2026-01-04 00:45:41.74	330.60	29.01	-40.5	-41.5	23.6	0.00e+00	123	38	0	1814036480	60	5606
2026-01-04 00:45:42.76	330.68	28.83	-40.9	-41.8	23.5	0.00e+00	123	38	0	1817182208	60	5847
2026-01-04 00:45:43.77	330.75	28.65	-40.9	-41.9	23.6	0.00e+00	123	38	0	1820327936	60	5866
2026-01-04 00:45:44.78	330.83	28.47	-40.2	-41.2	23.7	0.00e+00	123	38	0	1823473664	60	5423
2026-01-04 00:45:45.79	330.91	28.30	-40.1	-41.1	23.7	0.00e+00	120	38	0	1826619392	58	6024
2026-01-04 00:45:46.80	330.98	28.12	-39.9	-40.8	23.9	0.00e+00	122	38	0	1829765120	58	5852
2026-01-04 00:45:47.81	331.06	27.95	-39.6	-40.6	23.8	0.00e+00	122	38	0	1832910848	58	5695
2026-01-04 00:45:48.82	331.13	27.77	-40.0	-41.0	23.9	0.00e+00	123	38	0	1836056576	58	5947
2026-01-04 00:45:49.83	331.20	27.60	-40.2	-41.1	24.0	0.00e+00	123	38	0	1839202304	58	6035
2026-01-04 00:45:50.84	331.28	27.43	-40.0	-40.9	24.1	0.00e+00	123	38	0	1842348032	58	5885
2026-01-04 00:45:51.85	331.35	27.26	-39.6	-40.6	24.2	0.00e+00	122	38	0	1845493760	58	5667
2026-01-04 00:45:52.86	331.42	27.09	-39.7	-40.6	24.2	0.00e+00	122	38	0	1848639488	58	5670
2026-01-04 00:45:53.87	331.49	26.92	-39.2	-40.1	24.5	0.00e+00	123	38	0	1851785216	58	5385
2026-01-04 00:45:54.89	331.56	26.75	-39.5	-40.4	24.7	0.00e+00	123	38	0	1854930944	56	6233
2026-01-04 00:45:55.90	331.63	26.59	-38.8	-39.7	24.5	0.00e+00	123	38	0	1858076672	56	5761
2026-01-04 00:45:56.91	331.69	26.42	-38.5	-39.3	24.7	0.00e+00	123	38	0	1861222400	56	5520
2026-01-04 00:45:57.92	331.76	26.26	-38.3	-39.2	24.9	0.00e+00	122	38	0	1864368128	56	5430
2026-01-04 00:45:58.93	331.83	26.10	-38.3	-39.1	25.0	0.00e+00	122	38	0	1867513856	56	5393
2026-01-04 00:45:59.94	331.90	25.93	-38.0	-38.8	25.1	0.00e+00	123	38	0	1871708160	54	5840
2026-01-04 00:46:00.95	331.96	25.77	-38.1	-39.0	25.1	0.00e+00	123	38	0	1874853888	54	5962
2026-01-04 00:46:01.96	332.03	25.61	-38.2	-39.0	25.1	0.00e+00	123	38	0	1876951040	54	5987
2026-01-04 00:46:02.97	332.09	25.45	-38.7	-39.5	25.0	0.00e+00	122	38	0	1880096768	54	6342
2026-01-04 00:46:03.98	332.15	25.30	-38.6	-39.4	24.9	0.00e+00	123	38	0	1884291072	54	6270
2026-01-04 00:46:04.99	332.22	25.14	-39.0	-39.9	24.9	0.00e+00	123	38	0	1887436800	54	6598
2026-01-04 00:46:06.01	332.28	24.98	-38.6	-39.5	24.9	0.00e+00	122	38	0	1890582528	54	6332
2026-01-04 00:46:07.02	332.34	24.82	-38.7	-39.6	24.8	0.00e+00	122	38	0	1893728256	54	6397
2026-01-04 00:46:08.02	332.40	24.67	-38.9	-39.8	24.6	0.00e+00	123	38	0	1896873984	54	6540
2026-01-04 00:46:09.04	332.46	24.52	-39.5	-40.4	24.5	0.00e+00	123	38	0	1900019712	56	6231
2026-01-04 00:46:10.05	332.52	24.36	-38.9	-39.8	24.8	0.00e+00	123	38	0	1903165440	56	5804
2026-01-04 00:46:11.06	332.58	24.21	-38.9	-39.7	24.7	0.00e+00	123	38	0	1906311168	56	5790
2026-01-04 00:46:12.07	332.64	24.06	-38.7	-39.6	24.7	0.00e+00	122	38	0	1909456896	56	5681
2026-01-04 00:46:13.08	332.70	23.91	-38.8	-39.7	24.7	0.00e+00	123	38	0	1912602624	56	5780
2026-01-04 00:46:14.09	332.76	23.76	-38.9	-39.8	24.6	0.00e+00	122	38	0	1915748352	56	5803
2026-01-04 00:46:15.10	332.82	23.61	-38.8	-39.7	24.4	0.00e+00	122	38	0	1918894080	56	5783
2026-01-04 00:46:16.12	332.88	23.46	-39.1	-40.0	24.5	0.00e+00	120	38	0	1922039808	56	5980
2026-01-04 00:46:17.13	332.93	23.31	-39.0	-39.9	24.5	0.00e+00	122	38	0	1925185536	56	5885
2026-01-04 00:46:18.14	332.99	23.17	-39.4	-40.3	24.4	0.00e+00	123	38	0	1928331264	56	6161
2026-01-04 00:46:19.15	333.04	23.02	-39.1	-40.0	24.4	0.00e+00	123	38	0	1931476992	56	5970
2026-01-04 00:46:20.16	333.10	22.88	-39.2	-40.1	24.4	0.00e+00	123	38	0	1934622720	56	6028
2026-01-04 00:46:21.17	333.15	22.73	-39.1	-40.0	24.5	0.00e+00	123	38	0	1937768448	56	5940
2026-01-04 00:46:22.18	333.21	22.59	-39.0	-39.9	24.3	0.00e+00	123	38	0	1940914176	56	5890
2026-01-04 00:46:23.19	333.26	22.45	-38.9	-39.8	24.4	0.00e+00	123	38	0	1944059904	56	5855
2026-01-04 00:46:24.20	333.32	22.31	-38.9	-39.8	24.4	0.00e+00	123	38	0	1947205632	56	5845
2026-01-04 00:46:25.21	333.37	22.17	-38.9	-39.8	24.3	0.00e+00	123	38	0	1950351360	56	5852
2026-01-04 00:46:26.22	333.42	22.03	-39.1	-40.0	24.3	0.00e+00	122	38	0	1953497088	56	5991
2026-01-04 00:46:27.23	333.47	21.89	-39.0	-39.9	24.3	0.00e+00	120	38	0	1956642816	56	5921
2026-01-04 00:46:28.24	333.53	21.75	-39.2	-40.1	24.2	0.00e+00	123	38	0	1959788544	56	6003
2026-01-04 00:46:29.25	333.58	21.61	-39.1	-40.0	24.2	0.00e+00	123	38	0	1962934272	56	5957
2026-01-04 00:46:30.27	333.63	21.47	-39.1	-40.0	24.3	0.00e+00	122	38	0	1966080000	56	5984
2026-01-04 00:46:31.28	333.68	21.34	-39.1	-40.0	24.3	0.00e+00	123	38	0	1969225728	56	5976
2026-01-04 00:46:32.29	333.73	21.20	-38.9	-39.9	24.2	0.00e+00	123	38	0	1972371456	56	5863
2026-01-04 00:46:33.30	333.78	21.06	-38.9	-39.9	24.2	0.00e+00	120	38	0	1975517184	56	5871
2026-01-04 00:46:34.31	333.83	20.93	-39.0	-39.9	24.2	0.00e+00	123	38	0	1978662912	56	5904
2026-01-04 00:46:35.32	333.88	20.80	-39.0	-40.0	24.2	0.00e+00	123	38	0	1981808640	56	5945
2026-01-04 00:46:36.33	333.92	20.66	-39.2	-40.2	24.2	0.00e+00	122	38	0	1984954368	56	6070
2026-01-04 00:46:37.34	333.97	20.53	-39.2	-40.1	24.1	0.00e+00	123	38	0	1988100096	56	6032
2026-01-04 00:46:38.35	334.02	20.40	-39.2	-40.2	24.1	0.00e+00	123	38	0	1991245824	56	6089
2026-01-04 00:46:39.37	334.07	20.27	-39.1	-40.0	24.2	0.00e+00	121	38	0	1994391552	56	5954
2026-01-04 00:46:40.38	334.11	20.14	-39.0	-40.0	24.2	0.00e+00	122	38	0	1997537280	56	5952
2026-01-04 00:46:41.39	334.16	20.01	-39.0	-39.9	24.1	0.00e+00	123	38	0	2000683008	56	5902
2026-01-04 00:46:42.40	334.21	19.88	-39.0	-40.0	24.0	0.00e+00	122	38	0	2003828736	56	5939
2026-01-04 00:46:43.41	334.25	19.75	-39.3	-40.2	24.0	0.00e+00	123	38	0	2006974464	56	6100
2026-01-04 00:46:44.42	334.30	19.62	-38.9	-39.8	24.1	0.00e+00	123	38	0	2010120192	56	5839
2026-01-04 00:46:45.43	334.34	19.50	-39.0	-39.9	24.0	0.00e+00	122	38	0	2013265920	56	5908
2026-01-04 00:46:46.44	334.39	19.37	-39.1	-40.0	23.9	0.00e+00	123	38	0	2016411648	56	5973
2026-01-04 00:46:47.45	334.43	19.24	-39.0	-40.0	24.0	0.00e+00	120	38	0	2019557376	56	5931
2026-01-04 00:46:48.46	334.48	19.12	-39.1	-40.0	24.0	0.00e+00	122	38	0	2022703104	56	5989
2026-01-04 00:46:49.47	334.52	19.00	-39.2	-40.1	23.8	0.00e+00	120	38	0	2025848832	56	6058
2026-01-04 00:46:50.48	334.57	18.87	-39.2	-40.1	23.8	0.00e+00	123	38	0	2028994560	56	6027
2026-01-04 00:46:51.50	334.61	18.75	-39.2	-40.2	23.8	0.00e+00	120	38	0	2032140288	56	6069
2026-01-04 00:46:52.51	334.65	18.62	-39.1	-40.0	23.9	0.00e+00	123	38	0	2035286016	56	5956
2026-01-04 00:46:53.52	334.69	18.50	-38.9	-39.8	23.9	0.00e+00	122	38	0	2038431744	56	5847
2026-01-04 00:46:54.53	334.74	18.38	-39.0	-40.0	23.7	0.00e+00	123	38	0	2041577472	56	5941
2026-01-04 00:46:55.54	334.78	18.26	-38.9	-39.8	24.0	0.00e+00	123	38	0	2044723200	56	5823
2026-01-04 00:46:56.55	334.82	18.14	-38.9	-39.8	23.9	0.00e+00	123	38	0	2047868928	56	5841
2026-01-04 00:46:57.56	334.86	18.02	-39.0	-40.0	23.9	0.00e+00	123	38	0	2051014656	56	5948
2026-01-04 00:46:58.57	334.90	17.90	-39.1	-40.0	23.9	0.00e+00	123	38	0	2054160384	56	5953
2026-01-04 00:46:59.59	334.94	17.78	-39.1	-40.1	23.7	0.00e+00	123	38	0	2057306112	56	6027
2026-01-04 00:47:00.60	334.99	17.66	-39.0	-40.0	23.9	0.00e+00	122	38	0	2060451840	56	5945
2026-01-04 00:47:01.61	335.03	17.55	-39.2	-40.2	23.7	0.00e+00	122	38	0	2063597568	56	6087
2026-01-04 00:47:02.62	335.07	17.43	-39.2	-40.1	23.8	0.00e+00	123	38	0	2066743296	56	6035
2026-01-04 00:47:03.63	335.11	17.31	-39.3	-40.2	23.7	0.00e+00	123	38	0	2069889024	56	6120
2026-01-04 00:47:04.64	335.15	17.20	-39.3	-40.3	23.6	0.00e+00	122	38	0	2073034752	56	6160
2026-01-04 00:47:05.65	335.18	17.08	-39.5	-40.5	23.6	0.00e+00	123	38	0	2076180480	56	6297
2026-01-04 00:47:06.66	335.22	16.97	-39.3	-40.3	23.5	0.00e+00	120	38	0	2079326208	56	6152
2026-01-04 00:47:07.67	335.26	16.85	-39.2	-40.2	23.7	0.00e+00	123	38	0	2082471936	56	6089
2026-01-04 00:47:08.68	335.30	16.74	-39.3	-40.3	23.7	0.00e+00	123	38	0	2085617664	56	6157
2026-01-04 00:47:09.69	335.34	16.63	-39.3	-40.3	23.7	0.00e+00	122	38	0	2088763392	56	6167
