passes_logs/2026/01/04/R4.6S_Anadyr_2ch/R4.6S_Anadyr_2ch__20260104_191831_FENGYUN_3E_rec.log

#Pass ID: 20260104_191831_FENGYUN 3E
#Satellite: FENGYUN 3E
#Configuration: FENGYUN 3E
#almurnet v.1.7.20251203
#Start time: 2026-01-04 19:18:32

#Version: 2.2.20231116
#Station: R4.6S_Anadyr_2ch
#Location: 177.4865 lon 64.73178 lat
#TLE: 1 49008U 21062A   25350.97288215  .00000176  00000+0  10353-3 0  9997
#TLE: 2 49008  98.7477 351.4440 0000638 234.3856 125.7261 14.19881381230726

#Time	Az	El	Level	Level2	SNR	BER	BlckErr	Temp	State	Recorded	gain1	gain2
2026-01-04 19:18:32.90	21.16	0.10	-52.5	-67.6	3.5	1.51e+00	0	25	0	0	60	117255
2026-01-04 19:18:33.91	21.16	0.16	-52.3	-63.9	3.6	8.45e-01	0	26	104	0	60	77609
2026-01-04 19:18:34.92	21.15	0.22	-51.7	-63.2	3.6	8.45e-01	0	26	104	0	60	71482
2026-01-04 19:18:35.93	21.15	0.28	-52.4	-64.0	3.6	8.46e-01	0	26	104	0	60	77752
2026-01-04 19:18:36.94	21.14	0.34	-52.7	-64.2	3.6	8.45e-01	0	26	104	0	60	80102
2026-01-04 19:18:37.96	21.14	0.41	-52.9	-64.4	3.6	8.45e-01	0	26	104	0	60	81591
2026-01-04 19:18:38.97	21.14	0.47	-52.0	-63.5	3.6	8.45e-01	0	26	104	0	60	73862
2026-01-04 19:18:39.98	21.13	0.53	-52.0	-63.4	3.6	8.45e-01	0	26	104	0	60	73152
2026-01-04 19:18:40.99	21.13	0.59	-51.3	-62.9	3.6	8.45e-01	0	26	104	0	60	68791
2026-01-04 19:18:42.00	21.12	0.65	-51.1	-62.7	3.6	8.45e-01	0	26	104	0	60	67359
2026-01-04 19:18:43.01	21.12	0.71	-51.2	-62.7	3.6	8.45e-01	0	26	104	0	60	67663
2026-01-04 19:18:44.02	21.11	0.77	-51.2	-62.7	3.6	8.45e-01	0	26	104	0	60	67481
2026-01-04 19:18:45.03	21.11	0.84	-51.0	-62.6	3.6	8.46e-01	0	27	104	0	60	66877
2026-01-04 19:18:46.04	21.10	0.90	-50.9	-62.5	3.6	8.46e-01	0	26	104	0	60	66003
2026-01-04 19:18:47.05	21.10	0.96	-50.8	-62.4	3.6	8.45e-01	0	26	104	0	60	65203
2026-01-04 19:18:48.06	21.09	1.02	-50.8	-62.3	3.6	8.45e-01	0	26	104	0	60	64425
2026-01-04 19:18:49.07	21.09	1.08	-50.6	-62.2	3.6	8.45e-01	0	27	104	0	60	63218
2026-01-04 19:18:50.08	21.08	1.15	-50.3	-62.0	3.6	8.44e-01	0	27	104	0	60	62144
2026-01-04 19:18:51.09	21.08	1.21	-50.4	-61.9	3.6	8.45e-01	0	27	104	0	60	61530
2026-01-04 19:18:52.11	21.07	1.27	-50.1	-61.6	3.6	8.46e-01	0	26	104	0	60	59138
2026-01-04 19:18:53.12	21.07	1.34	-49.7	-61.2	3.6	8.45e-01	0	26	104	0	60	56779
2026-01-04 19:18:54.13	21.07	1.40	-49.6	-61.1	3.6	8.45e-01	0	27	104	0	60	55804
2026-01-04 19:18:55.14	21.06	1.46	-49.6	-61.1	3.6	8.45e-01	0	27	104	0	60	55942
2026-01-04 19:18:56.15	21.05	1.52	-49.7	-61.1	3.6	8.46e-01	0	27	104	0	60	56023
2026-01-04 19:18:57.16	21.05	1.59	-49.6	-61.0	3.6	8.45e-01	0	27	104	0	60	55482
2026-01-04 19:18:58.17	21.04	1.65	-49.6	-60.9	3.6	8.45e-01	0	27	104	0	60	54917
2026-01-04 19:18:59.18	21.04	1.71	-49.6	-60.8	3.6	8.45e-01	0	27	104	0	60	54096
2026-01-04 19:19:00.19	21.03	1.78	-49.6	-60.5	3.6	8.44e-01	0	27	104	0	60	52324
2026-01-04 19:19:01.20	21.03	1.84	-49.6	-60.3	3.6	8.46e-01	0	27	104	0	60	51088
2026-01-04 19:19:02.21	21.02	1.91	-49.5	-60.2	3.6	8.46e-01	0	27	104	0	60	50722
2026-01-04 19:19:03.22	21.02	1.97	-49.5	-60.1	3.6	8.45e-01	0	27	104	0	60	50007
2026-01-04 19:19:04.23	21.01	2.04	-49.6	-60.6	3.6	8.45e-01	0	27	104	0	60	52695
2026-01-04 19:19:05.25	21.01	2.10	-49.6	-60.6	3.6	8.45e-01	0	27	104	0	60	52984
2026-01-04 19:19:06.26	21.00	2.17	-49.6	-61.0	3.6	8.46e-01	0	27	104	0	60	55133
2026-01-04 19:19:07.27	21.00	2.23	-49.6	-61.0	3.6	8.45e-01	0	27	104	0	60	55056
2026-01-04 19:19:08.28	20.99	2.29	-49.7	-61.0	3.6	8.46e-01	0	27	104	0	60	55467
2026-01-04 19:19:09.29	20.99	2.36	-49.6	-61.0	3.6	8.46e-01	0	27	104	0	60	55414
2026-01-04 19:19:10.30	20.98	2.43	-49.6	-61.0	3.6	8.45e-01	0	27	104	0	60	55068
2026-01-04 19:19:11.31	20.97	2.49	-49.6	-60.8	3.6	8.45e-01	0	27	104	0	60	54272
2026-01-04 19:19:12.32	20.97	2.56	-49.6	-60.8	3.6	8.46e-01	0	27	104	0	60	53904
2026-01-04 19:19:13.33	20.96	2.62	-49.6	-60.5	3.6	8.46e-01	0	27	104	0	60	52178
2026-01-04 19:19:14.34	20.96	2.69	-49.5	-60.2	3.5	8.44e-01	0	27	104	0	60	50237
2026-01-04 19:19:15.35	20.95	2.75	-49.5	-59.5	3.6	8.45e-01	0	27	104	0	60	46300
2026-01-04 19:19:16.37	20.94	2.82	-49.4	-58.9	3.7	8.43e-01	0	27	104	0	60	43612
2026-01-04 19:19:17.38	20.94	2.89	-49.3	-58.0	3.9	8.41e-01	0	27	104	0	60	39278
2026-01-04 19:19:18.39	20.93	2.95	-49.2	-57.6	3.9	8.43e-01	0	27	104	0	60	37561
2026-01-04 19:19:19.40	20.93	3.02	-49.2	-56.3	3.7	8.34e-01	0	27	104	0	60	32108
2026-01-04 19:19:20.41	20.92	3.09	-49.3	-58.5	3.7	8.41e-01	0	27	104	0	60	41414
2026-01-04 19:19:21.42	20.91	3.15	-49.4	-58.7	3.7	8.42e-01	0	27	104	0	60	42321
2026-01-04 19:19:22.43	20.91	3.22	-49.1	-57.1	4.2	8.39e-01	0	27	104	0	60	35270
2026-01-04 19:19:23.44	20.90	3.29	-48.1	-52.2	7.1	2.51e-01	0	27	0	2097152	60	20090
2026-01-04 19:19:24.45	20.90	3.36	-47.3	-50.6	8.5	1.15e-01	0	27	0	8388608	60	16768
2026-01-04 19:19:25.47	20.89	3.42	-46.6	-49.4	10.5	1.61e-02	0	27	0	16777216	60	14510
2026-01-04 19:19:26.48	20.88	3.49	-45.0	-47.0	12.9	4.23e-05	0	27	0	24117248	60	11042
2026-01-04 19:19:27.49	20.88	3.56	-44.1	-45.8	13.7	1.10e-06	0	27	0	30408704	60	9635
2026-01-04 19:19:28.50	20.87	3.63	-43.1	-44.5	16.2	0.00e+00	0	27	0	37748736	60	8238
2026-01-04 19:19:29.51	20.86	3.70	-42.0	-43.2	17.3	0.00e+00	0	27	0	45088768	60	7112
2026-01-04 19:19:30.52	20.86	3.76	-41.5	-42.6	18.0	0.00e+00	0	27	0	52428800	60	6657
2026-01-04 19:19:31.53	20.85	3.83	-42.2	-43.4	16.8	0.00e+00	0	27	0	59768832	60	7304
2026-01-04 19:19:32.54	20.84	3.90	-41.4	-42.5	18.6	0.00e+00	0	27	0	67108864	60	6610
2026-01-04 19:19:33.56	20.84	3.97	-41.1	-42.2	17.8	0.00e+00	0	27	0	74448896	60	6330
2026-01-04 19:19:34.57	20.83	4.04	-42.5	-43.7	16.8	0.00e+00	0	27	0	81788928	60	7595
2026-01-04 19:19:35.58	20.82	4.11	-42.9	-44.2	17.5	0.00e+00	0	27	0	89128960	60	8033
2026-01-04 19:19:36.59	20.82	4.18	-39.6	-40.5	20.2	0.00e+00	0	27	0	96468992	60	5206
2026-01-04 19:19:37.60	20.81	4.25	-40.2	-41.2	18.4	0.00e+00	0	27	0	103809024	56	7118
2026-01-04 19:19:38.61	20.80	4.32	-48.2	-53.3	4.1	0.00e+00	0	27	0	111149056	60	22828
2026-01-04 19:19:39.62	20.79	4.39	-43.8	-45.3	6.0	8.28e-01	0	27	104	111149056	60	9120
2026-01-04 19:19:40.63	20.79	4.46	-46.8	-50.1	5.1	0.00e+00	0	27	0	111149056	60	15846
2026-01-04 19:19:41.64	20.78	4.53	-41.1	-42.1	6.1	8.11e-01	0	27	104	111149056	60	6282
2026-01-04 19:19:42.65	20.77	4.60	-37.6	-38.3	21.6	0.00e+00	0	27	104	111149056	54	5717
2026-01-04 19:19:43.66	20.76	4.67	-37.7	-38.4	21.6	0.00e+00	0	27	0	117440512	54	5789
2026-01-04 19:19:44.67	20.76	4.74	-36.9	-37.6	22.5	0.00e+00	0	27	0	124780544	54	5261
2026-01-04 19:19:45.69	20.75	4.81	-38.1	-38.7	21.4	0.00e+00	0	27	0	132120576	54	6019
2026-01-04 19:19:46.70	20.74	4.88	-37.5	-38.1	21.9	0.00e+00	0	27	0	139460608	54	5607
2026-01-04 19:19:47.71	20.73	4.96	-38.2	-38.9	21.2	0.00e+00	0	27	0	146800640	54	6114
2026-01-04 19:19:48.72	20.73	5.03	-37.9	-38.6	21.5	0.00e+00	0	27	0	154140672	54	5937
2026-01-04 19:19:49.73	20.72	5.10	-37.4	-38.0	22.2	0.00e+00	0	27	0	161480704	54	5547
2026-01-04 19:19:50.74	20.71	5.17	-37.3	-37.9	22.0	0.00e+00	0	27	0	168820736	54	5484
2026-01-04 19:19:51.75	20.70	5.24	-37.5	-38.1	22.0	0.00e+00	0	27	0	176160768	54	5611
2026-01-04 19:19:52.76	20.70	5.32	-37.5	-38.1	22.0	0.00e+00	0	27	0	183500800	52	6302
2026-01-04 19:19:53.77	20.69	5.39	-37.0	-37.6	22.3	0.00e+00	0	27	0	190840832	52	5940
2026-01-04 19:19:54.78	20.68	5.46	-37.1	-37.7	22.4	0.00e+00	0	27	0	198180864	52	6019
2026-01-04 19:19:55.80	20.67	5.54	-37.1	-37.7	22.3	0.00e+00	0	27	0	205520896	52	6000
2026-01-04 19:19:56.81	20.66	5.61	-36.8	-37.4	22.6	0.00e+00	0	27	0	212860928	52	5816
2026-01-04 19:19:57.82	20.66	5.68	-36.8	-37.4	22.8	0.00e+00	0	27	0	220200960	52	5768
2026-01-04 19:19:58.83	20.65	5.76	-36.9	-37.5	22.7	0.00e+00	0	27	0	227540992	52	5843
2026-01-04 19:19:59.84	20.64	5.83	-37.2	-37.8	22.5	0.00e+00	0	27	0	234881024	52	6065
2026-01-04 19:20:00.84	20.63	5.90	-36.7	-37.3	22.9	0.00e+00	0	27	0	242221056	52	5750
2026-01-04 19:20:01.85	20.62	5.98	-36.8	-37.4	22.9	0.00e+00	0	27	0	249561088	52	5789
2026-01-04 19:20:02.86	20.61	6.05	-37.0	-37.6	22.7	0.00e+00	0	27	0	255852544	52	5942
2026-01-04 19:20:03.87	20.61	6.13	-36.6	-37.2	23.1	0.00e+00	0	27	0	264241152	52	5686
2026-01-04 19:20:04.88	20.60	6.20	-36.9	-37.5	22.8	0.00e+00	0	27	0	271581184	52	5880
2026-01-04 19:20:05.89	20.59	6.28	-37.0	-37.6	22.6	0.00e+00	0	27	0	277872640	52	5944
2026-01-04 19:20:06.90	20.58	6.35	-36.8	-37.4	22.9	0.00e+00	0	27	0	285212672	52	5766
2026-01-04 19:20:07.91	20.57	6.43	-36.5	-37.1	23.1	0.00e+00	0	27	0	292552704	52	5593
2026-01-04 19:20:08.92	20.56	6.50	-36.6	-37.2	23.1	0.00e+00	0	27	0	299892736	52	5635
2026-01-04 19:20:09.93	20.55	6.58	-36.6	-37.2	23.3	0.00e+00	0	27	0	307232768	52	5657
2026-01-04 19:20:10.95	20.54	6.66	-36.2	-36.8	23.5	0.00e+00	0	27	0	314572800	52	5385
2026-01-04 19:20:11.96	20.53	6.73	-36.4	-37.0	23.3	0.00e+00	0	27	0	321912832	52	5552
2026-01-04 19:20:12.97	20.53	6.81	-36.3	-36.9	23.3	0.00e+00	0	27	0	329252864	52	5492
2026-01-04 19:20:13.98	20.52	6.89	-36.2	-36.8	23.5	0.00e+00	0	27	0	336592896	52	5407
2026-01-04 19:20:14.99	20.51	6.97	-36.9	-37.5	23.1	0.00e+00	0	27	0	343932928	52	5876
2026-01-04 19:20:16.00	20.50	7.04	-36.2	-36.7	23.6	0.00e+00	0	27	0	351272960	52	5373
2026-01-04 19:20:17.01	20.49	7.12	-36.4	-37.0	23.4	0.00e+00	0	27	0	358612992	52	5511
2026-01-04 19:20:18.02	20.48	7.20	-36.2	-36.8	23.6	0.00e+00	0	27	0	365953024	52	5388
2026-01-04 19:20:19.04	20.47	7.28	-36.2	-36.8	23.5	0.00e+00	0	27	0	373293056	50	6056
2026-01-04 19:20:20.04	20.46	7.35	-36.1	-36.7	23.7	0.00e+00	0	27	0	380633088	50	5988
2026-01-04 19:20:21.05	20.45	7.43	-36.1	-36.7	23.6	0.00e+00	0	27	0	387973120	50	5999
2026-01-04 19:20:22.07	20.44	7.51	-36.2	-36.8	23.6	0.00e+00	0	27	0	395313152	50	6043
2026-01-04 19:20:23.08	20.43	7.59	-36.2	-36.8	23.6	0.00e+00	0	27	0	402653184	50	6050
2026-01-04 19:20:24.08	20.42	7.67	-35.9	-36.4	23.8	0.00e+00	0	27	0	409993216	50	5809
2026-01-04 19:20:25.10	20.41	7.75	-35.9	-36.5	23.9	0.00e+00	0	27	0	417333248	50	5833
2026-01-04 19:20:26.11	20.40	7.83	-35.8	-36.3	24.1	0.00e+00	0	27	0	423624704	50	5735
2026-01-04 19:20:27.12	20.39	7.91	-35.8	-36.4	24.0	0.00e+00	0	27	0	432013312	50	5766
2026-01-04 19:20:28.13	20.38	7.99	-35.9	-36.4	23.9	0.00e+00	0	27	0	439353344	50	5819
2026-01-04 19:20:29.14	20.37	8.07	-35.8	-36.4	24.0	0.00e+00	0	27	0	445644800	50	5762
2026-01-04 19:20:30.15	20.36	8.15	-35.7	-36.2	24.0	0.00e+00	0	27	0	452984832	50	5675
2026-01-04 19:20:31.16	20.35	8.23	-35.8	-36.4	24.3	0.00e+00	0	27	0	460324864	50	5763
2026-01-04 19:20:32.17	20.34	8.32	-35.8	-36.4	24.1	0.00e+00	0	27	0	467664896	50	5797
2026-01-04 19:20:33.18	20.33	8.40	-35.8	-36.4	24.2	0.00e+00	0	27	0	475004928	50	5763
2026-01-04 19:20:34.20	20.31	8.48	-35.9	-36.5	24.0	0.00e+00	0	27	0	482344960	50	5853
2026-01-04 19:20:35.21	20.30	8.56	-35.7	-36.3	24.2	0.00e+00	0	27	0	489684992	50	5734
2026-01-04 19:20:36.22	20.29	8.64	-35.6	-36.1	24.3	0.00e+00	0	27	0	497025024	50	5612
2026-01-04 19:20:37.23	20.28	8.73	-35.5	-36.1	24.3	0.00e+00	0	27	0	504365056	50	5583
2026-01-04 19:20:38.24	20.27	8.81	-35.6	-36.2	24.4	0.00e+00	0	27	0	511705088	50	5633
2026-01-04 19:20:39.25	20.26	8.89	-35.6	-36.2	24.4	0.00e+00	0	27	0	519045120	50	5650
2026-01-04 19:20:40.26	20.25	8.98	-35.4	-35.9	24.3	0.00e+00	0	27	0	526385152	50	5498
2026-01-04 19:20:41.27	20.24	9.06	-35.6	-36.1	24.3	0.00e+00	0	27	0	533725184	50	5611
2026-01-04 19:20:42.29	20.22	9.15	-35.5	-36.1	24.3	0.00e+00	0	27	0	541065216	50	5580
2026-01-04 19:20:43.29	20.21	9.23	-35.4	-35.9	24.5	0.00e+00	0	27	0	548405248	50	5493
2026-01-04 19:20:44.31	20.20	9.31	-35.2	-35.7	24.7	0.00e+00	0	27	0	555745280	50	5368
2026-01-04 19:20:45.32	20.19	9.40	-35.6	-36.2	24.3	0.00e+00	0	27	0	563085312	50	5632
2026-01-04 19:20:46.33	20.18	9.49	-35.5	-36.1	24.3	0.00e+00	0	27	0	570425344	50	5572
2026-01-04 19:20:47.34	20.17	9.57	-35.4	-36.0	24.5	0.00e+00	0	27	0	577765376	50	5533
2026-01-04 19:20:48.35	20.15	9.66	-35.2	-35.7	24.7	0.00e+00	0	27	0	585105408	50	5346
2026-01-04 19:20:49.36	20.14	9.74	-35.4	-36.0	24.5	0.00e+00	0	27	0	592445440	48	6184
2026-01-04 19:20:50.37	20.13	9.83	-35.4	-35.9	24.4	0.00e+00	0	27	0	599785472	48	6164
2026-01-04 19:20:51.38	20.12	9.92	-35.4	-36.0	24.5	0.00e+00	0	27	0	607125504	48	6200
2026-01-04 19:20:52.39	20.10	10.00	-35.3	-35.8	24.6	0.00e+00	0	27	0	614465536	48	6076
2026-01-04 19:20:53.41	20.09	10.09	-35.1	-35.6	24.8	0.00e+00	0	27	0	620756992	48	5953
2026-01-04 19:20:54.42	20.08	10.18	-35.1	-35.6	24.9	0.00e+00	0	27	0	629145600	48	5945
2026-01-04 19:20:55.43	20.07	10.27	-35.3	-35.8	24.6	0.00e+00	0	27	0	636485632	48	6103
2026-01-04 19:20:56.44	20.05	10.35	-35.3	-35.8	24.7	0.00e+00	0	27	0	642777088	48	6096
2026-01-04 19:20:57.45	20.04	10.44	-35.0	-35.6	24.9	0.00e+00	0	27	0	650117120	48	5906
2026-01-04 19:20:58.46	20.03	10.53	-35.2	-35.8	24.6	0.00e+00	0	27	0	657457152	48	6049
2026-01-04 19:20:59.47	20.01	10.62	-35.1	-35.6	24.9	0.00e+00	0	27	0	664797184	48	5938
2026-01-04 19:21:00.49	20.00	10.71	-35.0	-35.5	25.0	0.00e+00	0	27	0	672137216	48	5864
2026-01-04 19:21:01.50	19.99	10.80	-35.1	-35.7	24.8	0.00e+00	0	27	0	679477248	48	5975
2026-01-04 19:21:02.51	19.97	10.89	-34.9	-35.5	24.9	0.00e+00	0	27	0	686817280	48	5860
2026-01-04 19:21:03.52	19.96	10.98	-35.4	-36.0	24.6	0.00e+00	0	27	0	694157312	48	6195
2026-01-04 19:21:04.53	19.95	11.07	-35.3	-35.8	24.7	0.00e+00	0	27	0	701497344	48	6096
2026-01-04 19:21:05.54	19.93	11.16	-34.8	-35.4	25.1	0.00e+00	0	27	0	708837376	48	5778
2026-01-04 19:21:06.55	19.92	11.26	-34.9	-35.5	25.0	0.00e+00	0	27	0	716177408	48	5850
2026-01-04 19:21:07.57	19.90	11.35	-34.9	-35.5	25.0	0.00e+00	0	27	0	723517440	48	5881
2026-01-04 19:21:08.58	19.89	11.44	-35.0	-35.5	24.9	0.00e+00	0	27	0	730857472	48	5887
2026-01-04 19:21:09.59	19.87	11.53	-35.0	-35.6	24.9	0.00e+00	0	27	0	738197504	48	5897
2026-01-04 19:21:10.60	19.86	11.63	-34.9	-35.5	25.1	0.00e+00	0	27	0	745537536	48	5833
2026-01-04 19:21:11.61	19.85	11.72	-35.0	-35.5	24.9	0.00e+00	0	27	0	752877568	48	5892
2026-01-04 19:21:12.62	19.83	11.81	-34.7	-35.3	25.2	0.00e+00	0	27	0	760217600	48	5700
2026-01-04 19:21:13.64	19.82	11.91	-34.9	-35.4	25.1	0.00e+00	0	28	0	767557632	48	5824
2026-01-04 19:21:14.65	19.80	12.00	-34.9	-35.4	25.1	0.00e+00	0	27	0	774897664	48	5787
2026-01-04 19:21:15.66	19.79	12.10	-34.8	-35.4	25.1	0.00e+00	0	27	0	782237696	48	5783
2026-01-04 19:21:16.67	19.77	12.19	-34.7	-35.2	25.3	0.00e+00	0	27	0	789577728	48	5693
2026-01-04 19:21:17.68	19.76	12.29	-34.7	-35.2	25.2	0.00e+00	0	27	0	796917760	48	5648
2026-01-04 19:21:18.69	19.74	12.38	-34.8	-35.3	25.4	0.00e+00	0	27	0	804257792	48	5736
2026-01-04 19:21:19.70	19.72	12.48	-34.8	-35.3	25.1	0.00e+00	0	27	0	810549248	48	5740
2026-01-04 19:21:20.71	19.71	12.58	-35.0	-35.6	24.9	0.00e+00	0	27	0	818937856	48	5908
2026-01-04 19:21:21.73	19.69	12.67	-34.6	-35.1	25.4	0.00e+00	0	27	0	826277888	48	5596
2026-01-04 19:21:22.74	19.68	12.77	-34.6	-35.1	25.4	0.00e+00	0	28	0	832569344	48	5589
2026-01-04 19:21:23.75	19.66	12.87	-34.4	-34.9	25.5	0.00e+00	0	27	0	839909376	48	5487
2026-01-04 19:21:24.76	19.64	12.97	-34.5	-35.0	25.5	0.00e+00	0	28	0	847249408	48	5538
2026-01-04 19:21:25.77	19.63	13.07	-34.5	-35.0	25.5	0.00e+00	0	28	0	854589440	48	5554
2026-01-04 19:21:26.78	19.61	13.17	-34.5	-35.0	25.5	0.00e+00	0	28	0	861929472	48	5539
2026-01-04 19:21:27.79	19.59	13.26	-34.4	-34.9	25.6	0.00e+00	0	28	0	869269504	48	5452
2026-01-04 19:21:28.80	19.58	13.36	-34.4	-35.0	25.5	0.00e+00	0	27	0	876609536	48	5507
2026-01-04 19:21:29.82	19.56	13.47	-34.3	-34.8	25.7	0.00e+00	0	27	0	883949568	48	5394
2026-01-04 19:21:30.83	19.54	13.57	-34.4	-34.9	25.5	0.00e+00	0	28	0	891289600	48	5462
2026-01-04 19:21:31.84	19.53	13.67	-34.3	-34.8	25.6	0.00e+00	0	27	0	898629632	48	5401
2026-01-04 19:21:32.85	19.51	13.77	-34.2	-34.7	25.7	0.00e+00	0	27	0	905969664	48	5367
2026-01-04 19:21:33.86	19.49	13.87	-34.2	-34.8	25.6	0.00e+00	0	28	0	913309696	48	5384
2026-01-04 19:21:34.87	19.47	13.97	-34.3	-34.8	25.6	0.00e+00	0	27	0	920649728	48	5431
2026-01-04 19:21:35.88	19.46	14.08	-34.7	-35.2	25.4	0.00e+00	0	28	0	927989760	48	5673
2026-01-04 19:21:36.89	19.44	14.18	-34.3	-34.8	25.7	0.00e+00	0	27	0	935329792	48	5430
2026-01-04 19:21:37.90	19.42	14.28	-34.4	-34.9	25.6	0.00e+00	0	27	0	942669824	48	5481
2026-01-04 19:21:38.91	19.40	14.39	-34.2	-34.7	25.8	0.00e+00	0	27	0	950009856	48	5348
2026-01-04 19:21:39.92	19.38	14.49	-34.1	-34.6	25.8	0.00e+00	0	27	0	957349888	46	5952
2026-01-04 19:21:40.94	19.36	14.60	-34.1	-34.6	25.8	0.00e+00	0	27	0	964689920	46	5919
2026-01-04 19:21:41.95	19.35	14.70	-34.0	-34.5	25.9	0.00e+00	0	27	0	972029952	46	5832
2026-01-04 19:21:42.96	19.33	14.81	-34.2	-34.7	25.8	0.00e+00	0	27	0	979369984	46	5976
2026-01-04 19:21:43.97	19.31	14.91	-34.0	-34.5	25.9	0.00e+00	0	27	0	986710016	46	5887
2026-01-04 19:21:44.98	19.29	15.02	-34.0	-34.5	25.9	0.00e+00	0	28	0	994050048	46	5840
2026-01-04 19:21:45.99	19.27	15.13	-34.1	-34.6	25.9	0.00e+00	0	28	0	1001390080	46	5940
2026-01-04 19:21:47.00	19.25	15.24	-34.1	-34.7	25.8	0.00e+00	0	27	0	1007681536	46	5968
2026-01-04 19:21:48.01	19.23	15.34	-34.1	-34.6	25.9	0.00e+00	0	28	0	1015021568	46	5961
2026-01-04 19:21:49.02	19.21	15.45	-33.9	-34.4	26.1	0.00e+00	0	28	0	1023410176	46	5765
2026-01-04 19:21:50.04	19.19	15.56	-34.1	-34.6	25.8	0.00e+00	0	28	0	1029701632	46	5948
2026-01-04 19:21:51.05	19.17	15.67	-33.9	-34.4	26.0	0.00e+00	0	28	0	1037041664	46	5822
2026-01-04 19:21:52.06	19.15	15.78	-33.9	-34.4	26.0	0.00e+00	0	28	0	1044381696	46	5818
2026-01-04 19:21:53.07	19.13	15.89	-34.1	-34.6	26.0	0.00e+00	0	28	0	1051721728	46	5938
2026-01-04 19:21:54.08	19.11	16.00	-34.2	-34.7	25.9	0.00e+00	0	28	0	1059061760	46	6014
2026-01-04 19:21:55.09	19.09	16.11	-33.8	-34.3	26.1	0.00e+00	0	28	0	1066401792	46	5758
2026-01-04 19:21:56.10	19.06	16.23	-33.7	-34.3	26.2	0.00e+00	0	28	0	1073741824	46	5697
2026-01-04 19:21:57.11	19.04	16.34	-33.7	-34.2	26.3	0.00e+00	0	28	0	1081081856	46	5645
2026-01-04 19:21:58.12	19.02	16.45	-33.7	-34.2	26.2	0.00e+00	0	28	0	1088421888	46	5684
2026-01-04 19:21:59.14	19.00	16.57	-33.6	-34.1	26.3	0.00e+00	0	28	0	1095761920	46	5586
2026-01-04 19:22:00.15	18.98	16.68	-33.6	-34.1	26.3	0.00e+00	0	28	0	1103101952	46	5583
2026-01-04 19:22:01.16	18.95	16.80	-33.5	-34.0	26.4	0.00e+00	0	28	0	1110441984	46	5541
2026-01-04 19:22:02.17	18.93	16.91	-33.4	-33.9	26.6	0.00e+00	0	28	0	1117782016	46	5446
2026-01-04 19:22:03.18	18.91	17.03	-33.5	-34.0	26.5	0.00e+00	0	28	0	1125122048	46	5549
2026-01-04 19:22:04.19	18.89	17.14	-33.3	-33.8	26.6	0.00e+00	0	28	0	1132462080	46	5413
2026-01-04 19:22:05.20	18.86	17.26	-33.3	-33.8	26.6	0.00e+00	0	28	0	1139802112	46	5379
2026-01-04 19:22:06.21	18.84	17.38	-33.4	-33.9	26.5	0.00e+00	0	28	0	1147142144	46	5442
2026-01-04 19:22:07.22	18.82	17.50	-33.4	-33.9	26.4	0.00e+00	0	28	0	1154482176	46	5460
2026-01-04 19:22:08.24	18.79	17.62	-33.3	-33.8	26.6	0.00e+00	0	28	0	1161822208	46	5393
2026-01-04 19:22:09.25	18.77	17.73	-33.6	-34.1	26.4	0.00e+00	0	28	0	1169162240	46	5613
2026-01-04 19:22:10.26	18.75	17.85	-33.5	-34.0	26.5	0.00e+00	0	28	0	1175453696	46	5523
2026-01-04 19:22:11.27	18.72	17.97	-33.3	-33.8	26.7	0.00e+00	0	28	0	1183842304	46	5425
2026-01-04 19:22:12.28	18.70	18.10	-33.1	-33.6	26.9	0.00e+00	0	28	0	1191182336	46	5257
2026-01-04 19:22:13.29	18.67	18.22	-33.0	-33.5	26.7	0.00e+00	0	28	0	1197473792	44	5883
2026-01-04 19:22:14.30	18.65	18.34	-32.8	-33.2	27.0	0.00e+00	0	28	0	1204813824	44	5695
2026-01-04 19:22:15.31	18.62	18.46	-32.8	-33.3	27.1	0.00e+00	0	28	0	1212153856	44	5739
2026-01-04 19:22:16.32	18.60	18.58	-32.8	-33.3	26.9	0.00e+00	0	28	0	1219493888	44	5732
2026-01-04 19:22:17.33	18.57	18.71	-32.8	-33.3	27.0	0.00e+00	0	28	0	1226833920	44	5722
2026-01-04 19:22:18.34	18.54	18.83	-32.8	-33.3	27.0	0.00e+00	0	28	0	1234173952	44	5745
2026-01-04 19:22:19.36	18.52	18.96	-32.6	-33.1	27.2	0.00e+00	0	28	0	1241513984	44	5572
2026-01-04 19:22:20.37	18.49	19.08	-32.8	-33.3	27.0	0.00e+00	0	28	0	1248854016	44	5713
2026-01-04 19:22:21.38	18.46	19.21	-32.9	-33.3	27.1	0.00e+00	0	28	0	1256194048	44	5761
2026-01-04 19:22:22.39	18.44	19.34	-32.8	-33.3	27.1	0.00e+00	0	28	0	1263534080	44	5732
2026-01-04 19:22:23.40	18.41	19.47	-32.6	-33.1	27.2	0.00e+00	0	28	0	1270874112	44	5575
2026-01-04 19:22:24.41	18.38	19.59	-32.8	-33.3	27.2	0.00e+00	0	28	0	1278214144	44	5712
2026-01-04 19:22:25.42	18.35	19.72	-32.6	-33.1	27.3	0.00e+00	0	28	0	1285554176	44	5579
2026-01-04 19:22:26.43	18.33	19.85	-32.7	-33.2	27.2	0.00e+00	0	28	0	1292894208	44	5635
2026-01-04 19:22:27.45	18.30	19.98	-32.9	-33.3	27.2	0.00e+00	0	28	0	1300234240	44	5761
2026-01-04 19:22:28.46	18.27	20.12	-32.8	-33.3	27.1	0.00e+00	0	28	0	1307574272	44	5707
2026-01-04 19:22:29.47	18.24	20.25	-32.7	-33.2	27.1	0.00e+00	0	28	0	1314914304	44	5656
2026-01-04 19:22:30.48	18.21	20.38	-32.7	-33.2	27.2	0.00e+00	0	28	0	1322254336	44	5642
2026-01-04 19:22:31.49	18.18	20.51	-32.8	-33.3	27.1	0.00e+00	0	28	0	1329594368	44	5724
2026-01-04 19:22:32.50	18.15	20.65	-32.8	-33.3	27.2	0.00e+00	0	28	0	1336934400	44	5724
2026-01-04 19:22:33.51	18.12	20.78	-32.9	-33.4	27.0	0.00e+00	0	28	0	1344274432	44	5777
2026-01-04 19:22:34.52	18.09	20.92	-32.8	-33.3	27.1	0.00e+00	0	28	0	1351614464	44	5706
2026-01-04 19:22:35.53	18.06	21.05	-33.0	-33.5	27.0	0.00e+00	0	28	0	1358954496	44	5861
2026-01-04 19:22:36.55	18.03	21.19	-32.7	-33.2	27.2	0.00e+00	0	28	0	1366294528	44	5679
2026-01-04 19:22:37.56	18.00	21.33	-33.1	-33.6	27.0	0.00e+00	0	28	0	1372585984	44	5954
2026-01-04 19:22:38.57	17.97	21.47	-32.8	-33.3	27.1	0.00e+00	0	28	0	1380974592	44	5724
2026-01-04 19:22:39.58	17.93	21.60	-33.1	-33.5	27.0	0.00e+00	0	28	0	1388314624	44	5895
2026-01-04 19:22:40.59	17.90	21.74	-33.3	-33.8	26.8	0.00e+00	0	28	0	1394606080	44	6039
2026-01-04 19:22:41.60	17.87	21.88	-33.2	-33.7	27.0	0.00e+00	0	28	0	1401946112	44	5983
2026-01-04 19:22:42.61	17.84	22.03	-33.1	-33.5	27.0	0.00e+00	0	28	0	1409286144	44	5888
2026-01-04 19:22:43.63	17.80	22.17	-32.8	-33.3	27.1	0.00e+00	0	28	0	1416626176	44	5719
2026-01-04 19:22:44.64	17.77	22.31	-33.0	-33.4	26.9	0.00e+00	0	28	0	1423966208	44	5828
2026-01-04 19:22:45.65	17.74	22.46	-33.0	-33.5	27.0	0.00e+00	0	28	0	1431306240	44	5835
2026-01-04 19:22:46.66	17.70	22.60	-32.9	-33.3	27.1	0.00e+00	0	28	0	1438646272	44	5755
2026-01-04 19:22:47.67	17.67	22.74	-32.9	-33.4	27.1	0.00e+00	0	28	0	1445986304	44	5780
2026-01-04 19:22:48.68	17.63	22.89	-32.9	-33.4	27.0	0.00e+00	0	28	0	1453326336	44	5783
2026-01-04 19:22:49.69	17.60	23.04	-32.9	-33.4	27.0	0.00e+00	0	28	0	1460666368	44	5806
2026-01-04 19:22:50.70	17.56	23.18	-32.9	-33.4	27.0	0.00e+00	0	28	0	1468006400	44	5823
2026-01-04 19:22:51.71	17.52	23.33	-33.1	-33.6	27.1	0.00e+00	0	28	0	1475346432	44	5900
2026-01-04 19:22:52.72	17.49	23.48	-33.0	-33.5	26.9	0.00e+00	0	28	0	1482686464	44	5859
2026-01-04 19:22:53.74	17.45	23.63	-33.2	-33.7	26.8	0.00e+00	0	28	0	1490026496	44	5969
2026-01-04 19:22:54.75	17.41	23.79	-32.7	-33.2	27.2	0.00e+00	0	28	0	1497366528	44	5663
2026-01-04 19:22:55.76	17.38	23.94	-32.8	-33.3	27.3	0.00e+00	0	28	0	1504706560	44	5737
2026-01-04 19:22:56.77	17.34	24.09	-32.6	-33.1	27.4	0.00e+00	0	28	0	1512046592	44	5599
2026-01-04 19:22:57.78	17.30	24.24	-32.8	-33.2	27.3	0.00e+00	0	28	0	1519386624	44	5682
2026-01-04 19:22:58.79	17.26	24.40	-32.5	-33.0	27.5	0.00e+00	0	28	0	1526726656	44	5513
2026-01-04 19:22:59.80	17.22	24.55	-32.8	-33.3	27.3	0.00e+00	0	28	0	1534066688	44	5696
2026-01-04 19:23:00.81	17.18	24.71	-32.6	-33.1	27.3	0.00e+00	0	28	0	1540358144	44	5568
2026-01-04 19:23:01.82	17.14	24.87	-32.4	-32.9	27.6	0.00e+00	0	28	0	1548746752	44	5452
2026-01-04 19:23:02.84	17.10	25.03	-32.2	-32.7	27.6	0.00e+00	0	28	0	1556086784	44	5334
2026-01-04 19:23:03.85	17.06	25.19	-32.3	-32.8	27.6	0.00e+00	0	28	0	1562378240	44	5415
2026-01-04 19:23:04.86	17.02	25.35	-32.1	-32.6	27.8	0.00e+00	0	28	0	1569718272	44	5291
2026-01-04 19:23:05.87	16.97	25.51	-32.2	-32.7	27.6	0.00e+00	0	28	0	1578106880	42	5982
2026-01-04 19:23:06.88	16.93	25.67	-31.9	-32.4	27.8	0.00e+00	0	28	0	1584398336	42	5792
2026-01-04 19:23:07.89	16.89	25.83	-32.1	-32.6	27.7	0.00e+00	0	28	0	1591738368	42	5924
2026-01-04 19:23:08.90	16.85	26.00	-32.1	-32.6	27.8	0.00e+00	0	28	0	1599078400	42	5927
2026-01-04 19:23:09.91	16.80	26.16	-31.9	-32.4	27.7	0.00e+00	0	28	0	1606418432	42	5792
2026-01-04 19:23:10.93	16.76	26.33	-31.8	-32.3	27.9	0.00e+00	0	28	0	1613758464	42	5726
2026-01-04 19:23:11.94	16.71	26.50	-32.0	-32.4	27.8	0.00e+00	0	28	0	1621098496	42	5815
2026-01-04 19:23:12.95	16.67	26.66	-31.6	-32.0	28.1	0.00e+00	0	28	0	1628438528	42	5553
2026-01-04 19:23:13.96	16.62	26.83	-31.7	-32.2	28.0	0.00e+00	0	28	0	1635778560	42	5652
2026-01-04 19:23:14.97	16.57	27.00	-31.6	-32.1	28.1	0.00e+00	0	28	0	1643118592	42	5576
2026-01-04 19:23:15.98	16.53	27.17	-31.9	-32.3	28.0	0.00e+00	0	28	0	1650458624	42	5760
2026-01-04 19:23:16.99	16.48	27.35	-31.6	-32.1	28.1	0.00e+00	0	28	0	1657798656	42	5569
2026-01-04 19:23:18.00	16.43	27.52	-31.7	-32.1	28.1	0.00e+00	0	28	0	1665138688	42	5625
2026-01-04 19:23:19.01	16.38	27.69	-31.6	-32.1	28.1	0.00e+00	0	28	0	1672478720	42	5602
2026-01-04 19:23:20.02	16.33	27.87	-31.7	-32.1	28.1	0.00e+00	0	28	0	1679818752	42	5619
2026-01-04 19:23:21.04	16.28	28.05	-31.9	-32.4	27.7	0.00e+00	0	28	0	1687158784	42	5800
2026-01-04 19:23:22.05	16.23	28.23	-31.8	-32.2	28.1	0.00e+00	0	28	0	1694498816	42	5680
2026-01-04 19:23:23.06	16.18	28.40	-31.7	-32.1	28.1	0.00e+00	0	28	0	1701838848	42	5623
2026-01-04 19:23:24.07	16.13	28.58	-31.7	-32.2	28.0	0.00e+00	0	28	0	1709178880	42	5631
2026-01-04 19:23:25.08	16.08	28.76	-31.9	-32.4	27.8	0.00e+00	0	28	0	1716518912	42	5792
2026-01-04 19:23:26.09	16.02	28.95	-31.7	-32.2	28.1	0.00e+00	0	28	0	1723858944	42	5652
2026-01-04 19:23:27.10	15.97	29.13	-31.6	-32.1	28.1	0.00e+00	0	28	0	1731198976	42	5614
2026-01-04 19:23:28.11	15.91	29.31	-31.7	-32.1	28.1	0.00e+00	0	28	0	1737490432	42	5609
2026-01-04 19:23:29.12	15.86	29.50	-32.0	-32.5	27.8	0.00e+00	0	28	0	1745879040	42	5846
2026-01-04 19:23:30.14	15.80	29.69	-31.8	-32.3	27.9	0.00e+00	0	28	0	1753219072	42	5707
2026-01-04 19:23:31.15	15.75	29.88	-31.7	-32.2	28.0	0.00e+00	0	28	0	1759510528	42	5676
2026-01-04 19:23:32.16	15.69	30.07	-31.5	-32.0	28.1	0.00e+00	0	28	0	1766850560	42	5520
2026-01-04 19:23:33.17	15.63	30.26	-31.5	-32.0	28.3	0.00e+00	0	28	0	1775239168	42	5528
2026-01-04 19:23:34.18	15.57	30.45	-31.5	-32.0	28.2	0.00e+00	0	28	0	1781530624	42	5531
2026-01-04 19:23:35.19	15.51	30.64	-31.4	-31.9	28.3	0.00e+00	0	28	0	1788870656	42	5460
2026-01-04 19:23:36.20	15.45	30.84	-31.4	-31.9	28.3	0.00e+00	0	28	0	1796210688	42	5463
2026-01-04 19:23:37.21	15.39	31.03	-31.4	-31.9	28.2	0.00e+00	0	28	0	1803550720	42	5444
2026-01-04 19:23:38.22	15.33	31.23	-31.4	-31.9	28.2	0.00e+00	0	28	0	1810890752	42	5443
2026-01-04 19:23:39.24	15.27	31.43	-31.4	-31.9	28.3	0.00e+00	0	28	0	1818230784	42	5463
2026-01-04 19:23:40.25	15.20	31.63	-31.4	-31.9	28.2	0.00e+00	0	28	0	1825570816	42	5471
2026-01-04 19:23:41.26	15.14	31.83	-31.4	-31.9	28.3	0.00e+00	0	28	0	1832910848	42	5478
2026-01-04 19:23:42.27	15.07	32.03	-31.5	-32.0	28.2	0.00e+00	0	28	0	1840250880	42	5511
2026-01-04 19:23:43.28	15.01	32.24	-31.5	-32.0	28.2	0.00e+00	0	28	0	1847590912	42	5522
2026-01-04 19:23:44.29	14.94	32.44	-31.7	-32.2	28.0	0.00e+00	0	28	0	1854930944	42	5649
2026-01-04 19:23:45.30	14.87	32.65	-31.7	-32.2	28.0	0.00e+00	0	28	0	1862270976	42	5646
2026-01-04 19:23:46.31	14.81	32.85	-31.8	-32.3	27.8	0.00e+00	0	28	0	1869611008	42	5747
2026-01-04 19:23:47.32	14.74	33.06	-31.9	-32.4	27.9	0.00e+00	0	28	0	1876951040	42	5801
2026-01-04 19:23:48.33	14.66	33.27	-31.9	-32.4	27.9	0.00e+00	0	28	0	1884291072	42	5772
2026-01-04 19:23:49.35	14.59	33.49	-31.8	-32.3	28.0	0.00e+00	0	28	0	1891631104	42	5718
2026-01-04 19:23:50.36	14.52	33.70	-31.7	-32.2	28.1	0.00e+00	0	28	0	1898971136	42	5675
2026-01-04 19:23:51.37	14.45	33.92	-31.8	-32.3	27.9	0.00e+00	0	28	0	1906311168	42	5715
2026-01-04 19:23:52.38	14.37	34.13	-31.7	-32.2	28.0	0.00e+00	0	28	0	1913651200	42	5672
2026-01-04 19:23:53.39	14.30	34.35	-31.7	-32.2	28.0	0.00e+00	0	28	0	1920991232	42	5668
2026-01-04 19:23:54.40	14.22	34.57	-31.8	-32.3	28.0	0.00e+00	0	28	0	1927282688	42	5708
2026-01-04 19:23:55.72	14.12	34.86	-31.7	-32.2	28.0	0.00e+00	0	28	0	1934622720	42	5676
2026-01-04 19:23:56.44	14.06	35.01	-31.7	-32.2	28.0	0.00e+00	0	28	0	1940914176	42	5651
2026-01-04 19:23:57.74	13.96	35.30	-31.9	-32.4	27.8	0.00e+00	0	28	0	1949302784	42	5808
2026-01-04 19:23:58.47	13.90	35.47	-31.8	-32.3	28.1	0.00e+00	0	28	0	1954545664	42	5714
2026-01-04 19:23:59.76	13.79	35.76	-32.0	-32.5	27.9	0.00e+00	0	28	0	1963982848	42	5851
2026-01-04 19:24:00.49	13.73	35.92	-31.8	-32.2	27.8	0.00e+00	0	28	0	1969225728	42	5690
2026-01-04 19:24:01.79	13.62	36.22	-31.9	-32.4	28.0	0.00e+00	0	28	0	1978662912	42	5798
2026-01-04 19:24:02.51	13.56	36.38	-31.6	-32.1	27.7	0.00e+00	0	28	0	1983905792	42	5578
2026-01-04 19:24:03.81	13.45	36.68	-31.7	-32.2	28.2	0.00e+00	0	28	0	1993342976	42	5667
2026-01-04 19:24:04.53	13.39	36.85	-31.8	-32.3	27.9	0.00e+00	0	28	0	1998585856	42	5700
2026-01-04 19:24:05.83	13.27	37.15	-32.2	-32.7	27.9	0.00e+00	0	28	0	2008023040	42	5994
2026-01-04 19:24:06.56	13.20	37.33	-32.1	-32.6	27.8	0.00e+00	0	28	0	2013265920	42	5942
2026-01-04 19:24:07.86	13.08	37.63	-32.0	-32.5	28.0	0.00e+00	0	28	0	2022703104	42	5837
2026-01-04 19:24:08.58	13.02	37.81	-31.8	-32.3	28.0	0.00e+00	0	28	0	2027945984	42	5702
2026-01-04 19:24:09.88	12.89	38.12	-31.9	-32.3	27.9	0.00e+00	0	28	0	2037383168	42	5752
2026-01-04 19:24:10.60	12.82	38.29	-31.9	-32.4	27.8	0.00e+00	0	28	0	2042626048	42	5778
2026-01-04 19:24:11.90	12.70	38.61	-32.3	-32.8	27.6	0.00e+00	0	28	0	2052063232	42	6077
2026-01-04 19:24:12.62	12.62	38.79	-32.7	-33.2	27.6	0.00e+00	0	28	0	2057306112	42	6324
2026-01-04 19:24:13.92	12.49	39.11	-32.0	-32.5	27.9	0.00e+00	0	28	0	2066743296	42	5849
2026-01-04 19:24:14.64	12.42	39.29	-32.3	-32.8	27.8	0.00e+00	0	28	0	2071986176	42	6057
2026-01-04 19:24:15.94	12.28	39.61	-33.4	-33.9	26.9	0.00e+00	0	28	0	2081423360	44	6114
2026-01-04 19:24:16.67	12.21	39.80	-34.0	-34.5	23.9	0.00e+00	0	28	0	2086666240	46	5839
2026-01-04 19:24:17.97	12.07	40.13	-32.9	-33.4	26.8	0.00e+00	0	28	0	2096103424	44	5769
2026-01-04 19:24:18.69	11.99	40.31	-32.6	-33.0	27.8	0.00e+00	0	28	0	2101346304	44	5566
2026-01-04 19:24:19.99	11.84	40.65	-32.0	-32.5	28.0	0.00e+00	0	28	0	2110783488	42	5869
2026-01-04 19:24:20.71	11.76	40.84	-32.0	-32.4	27.9	0.00e+00	0	28	0	2114977792	42	5824
2026-01-04 19:24:22.01	11.61	41.17	-31.8	-32.3	28.0	0.00e+00	0	28	0	2124414976	42	5738
2026-01-04 19:24:22.73	11.53	41.36	-31.7	-32.2	28.2	0.00e+00	0	28	0	2130706432	42	5641
2026-01-04 19:24:24.03	11.37	41.71	-32.2	-32.6	28.0	0.00e+00	0	28	0	2140143616	42	5955
2026-01-04 19:24:24.76	11.28	41.90	-32.1	-32.6	27.8	0.00e+00	0	28	0	2144337920	42	5903
2026-01-04 19:24:26.06	11.12	42.25	-32.4	-32.9	27.5	0.00e+00	0	28	0	2153775104	42	6160
2026-01-04 19:24:26.78	11.03	42.45	-32.3	-32.8	27.5	0.00e+00	0	28	0	2159017984	42	6089
2026-01-04 19:24:28.08	10.86	42.80	-33.0	-33.5	27.1	0.00e+00	0	28	0	2168455168	42	6590
2026-01-04 19:24:28.80	10.77	43.00	-32.3	-32.8	27.7	0.00e+00	0	28	0	2173698048	42	6079
2026-01-04 19:24:30.10	10.60	43.36	-32.1	-32.5	27.8	0.00e+00	0	28	0	2183135232	42	5894
2026-01-04 19:24:30.82	10.50	43.56	-32.0	-32.5	27.8	0.00e+00	0	28	0	2188378112	42	5831
2026-01-04 19:24:32.12	10.32	43.92	-31.9	-32.4	27.9	0.00e+00	0	28	0	2197815296	42	5786
2026-01-04 19:24:32.84	10.22	44.12	-31.9	-32.4	27.9	0.00e+00	0	28	0	2203058176	42	5803
2026-01-04 19:24:34.14	10.04	44.49	-31.9	-32.3	28.1	0.00e+00	0	28	0	2212495360	42	5747
2026-01-04 19:24:34.87	9.93	44.70	-31.8	-32.3	28.1	0.00e+00	0	28	0	2217738240	42	5737
2026-01-04 19:24:36.17	9.74	45.07	-32.1	-32.5	27.9	0.00e+00	0	28	0	2227175424	42	5889
2026-01-04 19:24:36.89	9.63	45.28	-31.9	-32.4	28.0	0.00e+00	0	28	0	2232418304	42	5783
2026-01-04 19:24:38.19	9.43	45.66	-32.3	-32.7	27.8	0.00e+00	0	28	0	2241855488	42	6024
2026-01-04 19:24:38.91	9.32	45.87	-32.1	-32.6	27.9	0.00e+00	0	28	0	2247098368	42	5913
2026-01-04 19:24:40.21	9.11	46.25	-32.2	-32.6	27.8	0.00e+00	0	28	0	2256535552	42	5946
2026-01-04 19:24:40.93	8.99	46.46	-32.5	-33.0	27.5	0.00e+00	0	28	0	2261778432	42	6235
2026-01-04 19:24:42.23	8.78	46.85	-32.3	-32.8	27.7	0.00e+00	0	28	0	2271215616	42	6051
2026-01-04 19:24:42.96	8.65	47.07	-32.6	-33.1	27.4	0.00e+00	0	28	0	2276458496	42	6261
2026-01-04 19:24:44.26	8.43	47.46	-32.6	-33.1	27.5	0.00e+00	0	28	0	2285895680	42	6274
2026-01-04 19:24:44.98	8.30	47.68	-32.5	-33.0	27.5	0.00e+00	0	28	0	2291138560	44	5542
2026-01-04 19:24:46.28	8.07	48.08	-33.0	-33.4	27.1	0.00e+00	0	28	0	2300575744	44	5826
2026-01-04 19:24:47.00	7.94	48.30	-32.7	-33.2	27.4	0.00e+00	0	28	0	2305818624	44	5645
2026-01-04 19:24:48.30	7.69	48.71	-32.7	-33.2	27.2	0.00e+00	0	28	0	2315255808	44	5660
2026-01-04 19:24:49.02	7.55	48.93	-32.7	-33.2	27.2	0.00e+00	0	28	0	2319450112	44	5670
2026-01-04 19:24:50.32	7.30	49.34	-32.3	-32.8	27.5	0.00e+00	0	28	0	2328887296	44	5433
2026-01-04 19:24:51.04	7.16	49.56	-32.3	-32.7	27.6	0.00e+00	0	28	0	2334130176	44	5376
2026-01-04 19:24:52.34	6.89	49.98	-32.4	-32.9	27.4	0.00e+00	0	28	0	2343567360	44	5445
2026-01-04 19:24:53.07	6.74	50.21	-32.6	-33.0	27.4	0.00e+00	0	28	0	2348810240	44	5564
2026-01-04 19:24:54.37	6.46	50.63	-32.7	-33.2	27.4	0.00e+00	0	28	0	2358247424	44	5670
2026-01-04 19:24:55.09	6.31	50.86	-32.9	-33.3	27.2	0.00e+00	0	28	0	2363490304	44	5761
2026-01-04 19:24:56.39	6.02	51.28	-32.9	-33.3	26.5	0.00e+00	0	28	0	2372927488	44	5758
2026-01-04 19:24:57.11	5.85	51.52	-33.0	-33.5	26.9	0.00e+00	0	28	0	2378170368	44	5887
2026-01-04 19:24:58.41	5.55	51.94	-33.2	-33.7	26.8	0.00e+00	0	28	0	2387607552	44	6013
2026-01-04 19:24:59.13	5.38	52.18	-33.6	-34.1	26.7	0.00e+00	0	28	0	2392850432	44	6255
2026-01-04 19:25:00.43	5.06	52.61	-33.2	-33.7	26.9	0.00e+00	0	28	0	2402287616	44	5995
2026-01-04 19:25:01.15	4.88	52.85	-32.8	-33.2	27.2	0.00e+00	0	28	0	2407530496	44	5675
2026-01-04 19:25:02.45	4.55	53.29	-32.8	-33.3	27.0	0.00e+00	0	28	0	2416967680	44	5715
2026-01-04 19:25:03.18	4.36	53.53	-32.5	-33.0	27.5	0.00e+00	0	28	0	2422210560	44	5535
2026-01-04 19:25:04.48	4.01	53.97	-32.5	-32.9	27.4	0.00e+00	0	28	0	2431647744	44	5487
2026-01-04 19:25:05.20	3.81	54.22	-32.6	-33.0	27.4	0.00e+00	0	28	0	2436890624	44	5563
2026-01-04 19:25:06.50	3.45	54.66	-32.7	-33.2	27.1	0.00e+00	0	28	0	2446327808	44	5668
2026-01-04 19:25:07.22	3.24	54.91	-33.0	-33.5	26.9	0.00e+00	0	28	0	2451570688	44	5842
2026-01-04 19:25:08.52	2.86	55.36	-33.7	-34.2	26.4	0.00e+00	0	28	0	2461007872	44	6346
2026-01-04 19:25:09.24	2.64	55.60	-33.9	-34.4	26.2	0.00e+00	0	28	0	2466250752	46	5791
2026-01-04 19:25:10.54	2.24	56.06	-33.7	-34.2	26.5	0.00e+00	0	28	0	2475687936	46	5672
2026-01-04 19:25:11.27	2.01	56.31	-33.6	-34.2	26.7	0.00e+00	0	28	0	2480930816	46	5631
2026-01-04 19:25:12.57	1.58	56.77	-33.0	-33.4	26.8	0.00e+00	0	28	0	2489319424	44	5811
2026-01-04 19:25:13.29	1.34	57.02	-33.0	-33.4	27.1	0.00e+00	0	28	0	2495610880	44	5809
2026-01-04 19:25:14.59	0.89	57.48	-33.0	-33.5	27.0	0.00e+00	0	28	0	2505048064	44	5864
2026-01-04 19:25:15.31	0.64	57.73	-33.2	-33.7	27.0	0.00e+00	0	28	0	2509242368	44	5999
2026-01-04 19:25:16.61	0.16	58.19	-33.6	-34.1	26.6	0.00e+00	0	28	0	2518679552	44	6305
2026-01-04 19:25:17.33	359.90	58.45	-34.1	-34.6	26.8	0.00e+00	0	28	0	2523922432	46	5917
2026-01-04 19:25:18.63	359.40	58.91	-33.8	-34.3	26.6	0.00e+00	0	28	0	2533359616	46	5708
2026-01-04 19:25:19.35	359.11	59.17	-33.6	-34.1	26.7	0.00e+00	0	28	0	2538602496	46	5623
2026-01-04 19:25:20.65	358.59	59.64	-33.4	-33.9	26.6	0.00e+00	0	28	0	2548039680	46	5488
2026-01-04 19:25:21.38	358.28	59.90	-33.5	-34.0	26.6	0.00e+00	0	28	0	2553282560	46	5545
2026-01-04 19:25:22.68	357.72	60.37	-33.2	-33.7	26.6	0.00e+00	0	28	0	2562719744	44	6011
2026-01-04 19:25:23.40	357.41	60.63	-33.8	-34.3	26.3	0.00e+00	0	28	0	2567962624	44	6459
2026-01-04 19:25:24.70	356.82	61.10	-33.8	-34.3	26.4	0.00e+00	0	28	0	2577399808	44	6417
2026-01-04 19:25:25.42	356.48	61.36	-33.7	-34.2	26.6	0.00e+00	0	28	0	2582642688	44	6390
2026-01-04 19:25:26.72	355.85	61.83	-32.9	-33.4	27.2	0.00e+00	0	28	0	2592079872	44	5810
2026-01-04 19:25:27.44	355.49	62.09	-32.5	-33.0	27.3	0.00e+00	0	28	0	2597322752	44	5524
2026-01-04 19:25:28.74	354.83	62.56	-32.6	-33.1	27.4	0.00e+00	0	28	0	2606759936	44	5590
2026-01-04 19:25:29.47	354.44	62.82	-32.6	-33.0	27.4	0.00e+00	0	28	0	2612002816	44	5541
2026-01-04 19:25:30.77	353.73	63.29	-32.7	-33.1	27.4	0.00e+00	0	28	0	2621440000	44	5627
2026-01-04 19:25:31.49	353.33	63.55	-32.7	-33.2	27.3	0.00e+00	0	28	0	2626682880	44	5665
2026-01-04 19:25:32.79	352.58	64.02	-32.7	-33.1	27.0	0.00e+00	0	28	0	2636120064	44	5620
2026-01-04 19:25:33.51	352.14	64.28	-33.0	-33.5	27.4	0.00e+00	0	28	0	2641362944	42	6580
2026-01-04 19:25:34.81	351.34	64.75	-32.1	-32.6	27.7	0.00e+00	0	28	0	2650800128	42	5946
2026-01-04 19:25:35.53	350.88	65.01	-32.2	-32.6	27.8	0.00e+00	0	28	0	2656043008	42	5945
2026-01-04 19:25:36.83	350.03	65.47	-32.5	-33.0	27.6	0.00e+00	0	28	0	2665480192	42	6185
2026-01-04 19:25:37.55	349.54	65.73	-32.6	-33.1	27.4	0.00e+00	0	28	0	2670723072	42	6259
2026-01-04 19:25:38.85	348.62	66.19	-32.7	-33.2	27.3	0.00e+00	0	28	0	2680160256	44	5653
2026-01-04 19:25:39.58	348.09	66.44	-32.5	-33.0	27.6	0.00e+00	0	28	0	2685403136	44	5508
2026-01-04 19:25:40.88	347.11	66.90	-31.8	-32.3	28.0	0.00e+00	0	28	0	2694840320	42	5728
2026-01-04 19:25:41.60	346.55	67.15	-31.7	-32.1	28.0	0.00e+00	0	28	0	2699034624	42	5627
2026-01-04 19:25:42.90	345.51	67.60	-31.7	-32.2	28.0	0.00e+00	0	28	0	2708471808	42	5638
2026-01-04 19:25:43.62	344.91	67.84	-31.5	-31.9	28.2	0.00e+00	0	28	0	2713714688	42	5491
2026-01-04 19:25:44.92	343.79	68.28	-32.1	-32.6	27.9	0.00e+00	0	28	0	2723151872	42	5929
2026-01-04 19:25:45.64	343.15	68.53	-32.2	-32.6	27.9	0.00e+00	0	28	0	2728394752	42	5960
2026-01-04 19:25:46.94	341.95	68.96	-32.3	-32.7	28.1	0.00e+00	0	28	0	2737831936	42	6032
2026-01-04 19:25:47.67	341.25	69.20	-32.0	-32.4	28.0	0.00e+00	0	28	0	2743074816	42	5820
2026-01-04 19:25:48.96	339.98	69.61	-32.0	-32.5	27.9	0.00e+00	0	28	0	2752512000	42	5878
2026-01-04 19:25:49.69	339.24	69.84	-32.6	-33.1	27.6	0.00e+00	0	28	0	2757754880	42	6259
2026-01-04 19:25:50.99	337.86	70.25	-32.3	-32.8	27.7	0.00e+00	0	28	0	2767192064	42	6086
2026-01-04 19:25:51.71	337.08	70.47	-32.1	-32.5	27.9	0.00e+00	0	28	0	2772434944	42	5895
2026-01-04 19:25:53.01	335.61	70.86	-32.4	-32.9	27.8	0.00e+00	0	28	0	2781872128	42	6161
2026-01-04 19:25:53.73	334.76	71.08	-32.6	-33.1	27.8	0.00e+00	0	28	0	2787115008	42	6268
2026-01-04 19:25:55.03	333.19	71.45	-32.7	-33.2	27.5	0.00e+00	0	28	0	2796552192	44	5683
2026-01-04 19:25:55.75	332.29	71.65	-33.1	-33.6	27.4	0.00e+00	0	28	0	2801795072	44	5944
2026-01-04 19:25:57.05	330.62	72.01	-32.1	-32.5	27.7	0.00e+00	0	28	0	2811232256	44	5253
2026-01-04 19:25:57.78	329.64	72.20	-32.6	-33.1	27.6	0.00e+00	0	28	0	2816475136	44	5604
2026-01-04 19:25:59.08	327.86	72.53	-32.9	-33.4	27.6	0.00e+00	0	28	0	2825912320	44	5809
2026-01-04 19:25:59.80	326.84	72.71	-32.7	-33.1	27.6	0.00e+00	0	28	0	2831155200	44	5626
2026-01-04 19:26:01.10	324.94	73.01	-33.2	-33.6	27.6	0.00e+00	0	28	0	2840592384	44	5956
2026-01-04 19:26:01.82	323.86	73.18	-32.3	-32.8	27.8	0.00e+00	0	28	0	2845835264	44	5428
2026-01-04 19:26:03.12	321.85	73.45	-32.4	-32.9	28.0	0.00e+00	0	28	0	2854223872	42	6105
2026-01-04 19:26:03.84	320.70	73.60	-32.2	-32.6	28.0	0.00e+00	0	28	0	2860515328	42	5960
2026-01-04 19:26:05.14	318.59	73.85	-32.8	-33.3	27.3	0.00e+00	0	28	0	2869952512	42	6427
2026-01-04 19:26:05.86	317.39	73.98	-33.2	-33.6	27.4	0.00e+00	0	28	0	2874146816	44	5937
2026-01-04 19:26:07.16	315.17	74.19	-32.1	-32.5	28.3	0.00e+00	0	28	0	2883584000	42	5881
2026-01-04 19:26:07.89	313.90	74.30	-32.1	-32.6	28.0	0.00e+00	0	28	0	2888826880	42	5905
2026-01-04 19:26:09.19	311.59	74.48	-32.8	-33.3	27.8	0.00e+00	0	28	0	2898264064	42	6406
2026-01-04 19:26:09.91	310.29	74.57	-33.3	-33.7	27.8	0.00e+00	0	28	0	2903506944	44	6029
2026-01-04 19:26:11.21	307.90	74.70	-32.8	-33.3	27.8	0.00e+00	0	28	0	2912944128	44	5724
2026-01-04 19:26:11.93	306.56	74.77	-33.3	-33.8	27.6	0.00e+00	0	28	0	2918187008	44	6036
2026-01-04 19:26:13.23	304.11	74.87	-32.9	-33.4	27.3	0.00e+00	0	28	0	2927624192	46	5147
2026-01-04 19:26:13.95	302.74	74.91	-32.8	-33.3	27.3	0.00e+00	0	28	0	2932867072	44	5739
2026-01-04 19:26:15.25	300.25	74.97	-33.1	-33.6	27.3	0.00e+00	0	28	0	2942304256	44	5937
2026-01-04 19:26:15.98	298.85	74.99	-34.0	-34.4	27.2	0.00e+00	0	28	0	2947547136	44	6532
2026-01-04 19:26:17.28	296.34	75.00	-32.6	-33.0	27.6	0.00e+00	0	28	0	2956984320	44	5565
2026-01-04 19:26:18.00	294.95	74.99	-33.4	-33.8	27.6	0.00e+00	0	28	0	2962227200	44	6101
2026-01-04 19:26:19.30	292.45	74.96	-32.3	-32.8	28.1	0.00e+00	0	28	0	2971664384	44	5390
2026-01-04 19:26:20.02	291.07	74.94	-32.7	-33.2	27.6	1.10e-06	0	28	0	2976907264	42	6365
2026-01-04 19:26:21.32	288.59	74.86	-32.3	-32.8	28.2	0.00e+00	0	28	0	2986344448	42	6042
2026-01-04 19:26:22.04	287.23	74.81	-33.0	-33.5	28.2	0.00e+00	0	28	0	2991587328	44	5842
2026-01-04 19:26:23.34	284.81	74.70	-33.0	-33.5	27.8	0.00e+00	0	28	0	3001024512	44	5833
2026-01-04 19:26:24.06	283.48	74.62	-33.7	-34.2	28.0	0.00e+00	0	28	0	3006267392	44	6330
2026-01-04 19:26:25.36	281.12	74.47	-33.5	-34.0	27.8	0.00e+00	0	28	0	3015704576	44	6195
2026-01-04 19:26:26.09	279.82	74.37	-32.6	-33.0	28.2	0.00e+00	0	28	0	3020947456	44	5544
2026-01-04 19:26:27.39	277.54	74.18	-32.2	-32.7	27.9	0.00e+00	0	28	0	3030384640	42	5970
2026-01-04 19:26:28.11	276.31	74.06	-32.0	-32.5	28.1	0.00e+00	0	28	0	3035627520	42	5836
2026-01-04 19:26:29.41	274.13	73.83	-32.2	-32.7	27.8	0.00e+00	0	28	0	3045064704	42	5972
2026-01-04 19:26:30.13	272.95	73.70	-33.0	-33.5	27.7	0.00e+00	0	28	0	3050307584	42	6568
2026-01-04 19:26:31.43	270.87	73.44	-32.7	-33.2	27.6	0.00e+00	0	28	0	3059744768	42	6355
2026-01-04 19:26:32.15	269.75	73.28	-32.1	-32.6	27.7	0.00e+00	0	28	0	3063939072	42	5914
2026-01-04 19:26:33.45	267.79	72.99	-32.0	-32.5	27.9	0.00e+00	0	28	0	3073376256	42	5875
2026-01-04 19:26:34.18	266.71	72.82	-31.7	-32.2	28.2	0.00e+00	0	28	0	3079667712	42	5648
2026-01-04 19:26:35.48	264.86	72.51	-31.8	-32.3	28.1	0.00e+00	0	28	0	3088056320	42	5712
2026-01-04 19:26:36.20	263.86	72.32	-32.5	-33.0	28.1	0.00e+00	0	28	0	3093299200	42	6194
2026-01-04 19:26:37.50	262.12	71.98	-32.8	-33.3	27.7	0.00e+00	0	28	0	3102736384	44	5750
2026-01-04 19:26:38.22	261.18	71.79	-32.8	-33.3	27.6	0.00e+00	0	28	0	3107979264	44	5713
2026-01-04 19:26:39.52	259.55	71.42	-33.0	-33.6	27.5	0.00e+00	0	28	0	3117416448	44	5901
2026-01-04 19:26:40.24	258.67	71.22	-33.1	-33.6	28.0	0.00e+00	0	28	0	3122659328	44	5909
2026-01-04 19:26:41.54	257.14	70.84	-33.0	-33.5	27.7	0.00e+00	0	28	0	3132096512	44	5887
2026-01-04 19:26:42.26	256.32	70.62	-33.4	-33.8	27.4	0.00e+00	0	28	0	3137339392	44	6094
2026-01-04 19:26:43.56	254.88	70.22	-33.3	-33.8	27.4	0.00e+00	0	28	0	3146776576	44	6081
2026-01-04 19:26:44.29	254.11	69.99	-33.1	-33.6	27.5	0.00e+00	0	28	0	3152019456	44	5945
2026-01-04 19:26:45.59	252.77	69.58	-32.5	-33.0	27.9	0.00e+00	0	28	0	3161456640	44	5530
2026-01-04 19:26:46.31	252.05	69.35	-32.8	-33.3	27.8	0.00e+00	0	28	0	3166699520	44	5735
2026-01-04 19:26:47.61	250.80	68.92	-32.4	-32.9	27.9	0.00e+00	0	28	0	3176136704	44	5442
2026-01-04 19:26:48.33	250.14	68.68	-33.2	-33.7	27.9	0.00e+00	0	28	0	3181379584	44	6023
2026-01-04 19:26:49.63	248.97	68.25	-34.1	-34.6	27.5	0.00e+00	0	28	0	3190816768	44	6631
2026-01-04 19:26:50.35	248.34	68.00	-33.3	-33.7	27.4	0.00e+00	0	28	0	3196059648	44	6028
2026-01-04 19:26:51.65	247.25	67.56	-34.1	-34.5	27.5	0.00e+00	0	28	0	3205496832	44	6614
2026-01-04 19:26:52.37	246.67	67.31	-33.1	-33.7	27.1	0.00e+00	0	28	0	3210739712	44	5977
2026-01-04 19:26:53.67	245.65	66.86	-33.0	-33.4	28.1	0.00e+00	0	28	0	3220176896	44	5823
2026-01-04 19:26:54.40	245.10	66.60	-32.6	-33.1	28.0	0.00e+00	0	28	0	3225419776	44	5587
2026-01-04 19:26:55.70	244.15	66.15	-32.4	-32.9	27.8	0.00e+00	0	28	0	3234856960	44	5467
2026-01-04 19:26:56.42	243.64	65.89	-32.6	-33.0	27.9	0.00e+00	0	28	0	3239051264	44	5548
2026-01-04 19:26:57.72	242.74	65.43	-33.1	-33.6	27.8	0.00e+00	0	28	0	3248488448	44	5931
2026-01-04 19:26:58.44	242.27	65.17	-33.1	-33.5	27.9	0.00e+00	0	28	0	3253731328	44	5891
2026-01-04 19:26:59.74	241.43	64.71	-33.0	-33.5	27.6	0.00e+00	0	28	0	3263168512	44	5842
2026-01-04 19:27:00.46	240.98	64.45	-32.8	-33.3	27.6	0.00e+00	0	28	0	3268411392	44	5713
2026-01-04 19:27:01.76	240.20	63.98	-33.1	-33.6	27.4	0.00e+00	0	28	0	3277848576	44	5904
2026-01-04 19:27:02.48	239.78	63.72	-33.4	-33.9	27.6	0.00e+00	0	28	0	3283091456	44	6168
2026-01-04 19:27:03.78	239.04	63.25	-32.7	-33.2	27.4	0.00e+00	0	28	0	3292528640	44	5655
2026-01-04 19:27:04.51	238.64	62.98	-32.4	-32.8	27.7	0.00e+00	0	28	0	3297771520	44	5434
2026-01-04 19:27:05.81	237.95	62.51	-33.1	-33.6	27.6	0.00e+00	0	28	0	3307208704	44	5948
2026-01-04 19:27:06.53	237.58	62.25	-33.3	-33.7	27.1	0.00e+00	0	28	0	3312451584	44	6033
2026-01-04 19:27:07.83	236.93	61.78	-34.2	-34.7	26.9	0.00e+00	0	28	0	3321888768	44	6741
2026-01-04 19:27:08.55	236.58	61.52	-33.7	-34.3	26.9	0.00e+00	0	28	0	3327131648	46	5702
2026-01-04 19:27:09.85	235.96	61.05	-33.6	-34.1	26.7	0.00e+00	0	28	0	3336568832	46	5612
2026-01-04 19:27:10.57	235.63	60.78	-34.3	-34.8	26.5	0.00e+00	0	28	0	3341811712	46	6054
2026-01-04 19:27:11.87	235.06	60.31	-34.6	-35.1	26.6	0.00e+00	0	28	0	3351248896	46	6311
2026-01-04 19:27:12.60	234.74	60.05	-35.0	-35.5	26.1	0.00e+00	0	28	0	3356491776	46	6605
2026-01-04 19:27:13.89	234.20	59.59	-34.9	-35.4	25.6	0.00e+00	0	28	0	3365928960	48	5798
2026-01-04 19:27:14.62	233.90	59.32	-36.1	-36.7	24.9	0.00e+00	0	28	0	3371171840	50	5988
2026-01-04 19:27:15.92	233.39	58.86	-35.1	-35.6	26.0	0.00e+00	0	28	0	3380609024	48	5928
2026-01-04 19:27:16.64	233.11	58.60	-34.4	-34.9	26.0	0.00e+00	0	28	0	3385851904	48	5482
2026-01-04 19:27:17.94	232.62	58.13	-34.6	-35.1	26.2	0.00e+00	0	28	0	3395289088	48	5625
2026-01-04 19:27:18.66	232.36	57.88	-35.1	-35.6	26.0	0.00e+00	0	28	0	3400531968	48	5925
2026-01-04 19:27:19.96	231.89	57.42	-34.3	-34.8	26.2	0.00e+00	0	28	0	3409969152	48	5383
2026-01-04 19:27:20.68	231.64	57.16	-34.7	-35.2	26.1	0.00e+00	0	28	0	3415212032	48	5670
2026-01-04 19:27:21.98	231.21	56.70	-33.8	-34.2	26.6	0.00e+00	0	28	0	3424649216	46	5693
2026-01-04 19:27:22.71	230.97	56.45	-33.6	-34.1	26.5	0.00e+00	0	28	0	3428843520	46	5595
2026-01-04 19:27:24.00	230.55	55.99	-33.6	-34.1	26.7	0.00e+00	0	28	0	3438280704	46	5568
2026-01-04 19:27:24.73	230.32	55.74	-33.5	-34.0	26.6	0.00e+00	0	28	0	3444572160	46	5552
2026-01-04 19:27:26.03	229.93	55.29	-33.9	-34.4	26.6	0.00e+00	0	28	0	3454009344	46	5787
2026-01-04 19:27:26.75	229.71	55.04	-33.9	-34.4	26.7	0.00e+00	0	28	0	3458203648	46	5804
2026-01-04 19:27:28.05	229.34	54.59	-34.0	-34.5	26.6	0.00e+00	0	28	0	3467640832	46	5873
2026-01-04 19:27:28.77	229.13	54.34	-34.1	-34.6	26.9	0.00e+00	0	28	0	3472883712	46	5908
2026-01-04 19:27:30.07	228.78	53.90	-33.0	-33.5	27.4	0.00e+00	0	28	0	3482320896	46	5232
2026-01-04 19:27:30.79	228.58	53.66	-33.1	-33.6	27.3	0.00e+00	0	28	0	3487563776	44	5903
2026-01-04 19:27:32.09	228.24	53.22	-33.1	-33.6	27.3	0.00e+00	0	28	0	3497000960	44	5903
2026-01-04 19:27:32.81	228.05	52.97	-33.0	-33.5	27.2	0.00e+00	0	28	0	3502243840	44	5881
2026-01-04 19:27:34.11	227.73	52.54	-32.8	-33.3	27.3	0.00e+00	0	28	0	3511681024	44	5701
2026-01-04 19:27:34.84	227.55	52.30	-32.7	-33.2	27.1	0.00e+00	0	28	0	3516923904	44	5672
2026-01-04 19:27:36.14	227.24	51.87	-32.7	-33.2	27.3	0.00e+00	0	28	0	3526361088	44	5632
2026-01-04 19:27:36.86	227.07	51.63	-32.9	-33.4	27.2	0.00e+00	0	28	0	3531603968	44	5763
2026-01-04 19:27:38.16	226.77	51.20	-33.1	-33.6	26.9	0.00e+00	0	28	0	3541041152	44	5910
2026-01-04 19:27:38.88	226.61	50.97	-33.2	-33.7	26.8	0.00e+00	0	28	0	3546284032	44	6011
2026-01-04 19:27:40.18	226.33	50.55	-33.5	-34.0	26.8	0.00e+00	0	28	0	3555721216	44	6188
2026-01-04 19:27:40.90	226.17	50.31	-33.2	-33.7	26.8	0.00e+00	0	28	0	3560964096	44	6028
2026-01-04 19:27:42.20	225.90	49.90	-33.4	-34.0	26.8	0.00e+00	0	28	0	3570401280	44	6179
2026-01-04 19:27:42.93	225.75	49.67	-33.6	-34.1	26.7	0.00e+00	0	28	0	3575644160	44	6269
2026-01-04 19:27:44.23	225.49	49.25	-33.8	-34.3	26.5	0.00e+00	0	28	0	3585081344	44	6397
2026-01-04 19:27:44.95	225.35	49.03	-33.9	-34.4	26.6	0.00e+00	0	28	0	3590324224	44	6466
2026-01-04 19:27:46.25	225.10	48.62	-33.7	-34.2	26.7	0.00e+00	0	28	0	3599761408	44	6347
2026-01-04 19:27:46.97	224.96	48.40	-33.8	-34.3	26.6	0.00e+00	0	28	0	3603955712	44	6400
2026-01-04 19:27:48.27	224.72	47.99	-33.4	-33.9	26.5	0.00e+00	0	28	0	3613392896	44	6123
2026-01-04 19:27:48.99	224.59	47.77	-33.2	-33.7	25.4	0.00e+00	0	28	0	3618635776	44	6027
2026-01-04 19:27:50.29	224.36	47.38	-33.0	-33.4	27.0	0.00e+00	0	28	0	3628072960	44	5826
2026-01-04 19:27:51.02	224.23	47.15	-32.9	-33.4	27.0	0.00e+00	0	28	0	3633315840	44	5822
2026-01-04 19:27:52.32	224.01	46.76	-32.9	-33.4	27.1	0.00e+00	0	28	0	3642753024	44	5820
2026-01-04 19:27:53.04	223.89	46.55	-33.0	-33.5	27.0	0.00e+00	0	28	0	3647995904	44	5886
2026-01-04 19:27:54.34	223.68	46.16	-32.7	-33.2	26.6	0.00e+00	0	28	0	3657433088	44	5677
2026-01-04 19:27:55.06	223.56	45.95	-32.6	-33.1	27.4	0.00e+00	0	28	0	3662675968	44	5569
2026-01-04 19:27:56.36	223.36	45.56	-32.4	-32.9	26.9	0.00e+00	0	28	0	3672113152	44	5455
2026-01-04 19:27:57.08	223.25	45.35	-32.7	-33.2	27.4	0.00e+00	0	28	0	3677356032	44	5631
2026-01-04 19:27:58.38	223.05	44.98	-32.5	-32.9	27.4	0.00e+00	0	28	0	3686793216	44	5497
2026-01-04 19:27:59.10	222.94	44.77	-32.8	-33.3	26.9	0.00e+00	0	28	0	3692036096	44	5697
2026-01-04 19:28:00.40	222.75	44.40	-32.5	-33.0	27.4	0.00e+00	0	28	0	3701473280	44	5541
2026-01-04 19:28:01.13	222.65	44.19	-32.7	-33.2	27.2	0.00e+00	0	28	0	3706716160	44	5666
2026-01-04 19:28:02.43	222.47	43.82	-32.1	-32.6	27.8	0.00e+00	0	28	0	3716153344	42	5948
2026-01-04 19:28:03.15	222.37	43.62	-32.1	-32.6	27.7	0.00e+00	0	28	0	3721396224	42	5903
2026-01-04 19:28:04.45	222.19	43.26	-32.1	-32.6	27.7	0.00e+00	0	28	0	3730833408	42	5924
2026-01-04 19:28:05.17	222.09	43.06	-32.2	-32.7	27.8	0.00e+00	0	28	0	3736076288	42	6003
2026-01-04 19:28:06.47	221.92	42.70	-32.4	-32.9	27.7	0.00e+00	0	28	0	3745513472	42	6137
2026-01-04 19:28:07.19	221.83	42.50	-32.1	-32.6	27.8	0.00e+00	0	28	0	3750756352	42	5951
2026-01-04 19:28:08.49	221.67	42.15	-32.2	-32.7	27.7	0.00e+00	0	28	0	3760193536	42	5981
2026-01-04 19:28:09.22	221.58	41.95	-32.1	-32.6	27.7	0.00e+00	0	28	0	3765436416	42	5930
2026-01-04 19:28:10.51	221.42	41.61	-31.8	-32.3	27.8	0.00e+00	0	28	0	3773825024	42	5713
2026-01-04 19:28:11.24	221.33	41.41	-31.8	-32.3	27.8	0.00e+00	0	28	0	3780116480	42	5705
2026-01-04 19:28:12.54	221.18	41.07	-31.8	-32.3	27.7	0.00e+00	0	28	0	3789553664	42	5735
2026-01-04 19:28:13.26	221.09	40.88	-31.8	-32.3	27.9	0.00e+00	0	28	0	3793747968	42	5726
2026-01-04 19:28:14.56	220.95	40.54	-31.7	-32.2	27.4	0.00e+00	0	28	0	3803185152	42	5661
2026-01-04 19:28:15.28	220.86	40.36	-31.9	-32.4	27.8	0.00e+00	0	28	0	3809476608	42	5784
2026-01-04 19:28:16.58	220.72	40.02	-31.9	-32.4	27.4	0.00e+00	0	28	0	3817865216	42	5779
2026-01-04 19:28:17.30	220.64	39.84	-32.0	-32.5	27.5	0.00e+00	0	28	0	3823108096	42	5874
2026-01-04 19:28:18.60	220.50	39.51	-32.1	-32.6	27.4	0.00e+00	0	28	0	3832545280	42	5948
2026-01-04 19:28:19.33	220.43	39.32	-32.2	-32.7	27.4	0.00e+00	0	28	0	3837788160	42	6009
2026-01-04 19:28:20.63	220.29	39.00	-32.3	-32.8	27.6	0.00e+00	0	28	0	3847225344	42	6040
2026-01-04 19:28:21.35	220.22	38.82	-32.2	-32.7	27.6	0.00e+00	0	28	0	3852468224	42	6008
2026-01-04 19:28:22.65	220.09	38.50	-31.9	-32.4	27.8	0.00e+00	0	28	0	3861905408	42	5778
2026-01-04 19:28:23.37	220.02	38.32	-31.9	-32.4	27.7	0.00e+00	0	28	0	3867148288	42	5770
2026-01-04 19:28:24.67	219.89	38.01	-31.8	-32.3	27.9	0.00e+00	0	28	0	3876585472	42	5731
2026-01-04 19:28:25.39	219.82	37.83	-31.9	-32.4	27.9	0.00e+00	0	28	0	3881828352	42	5769
2026-01-04 19:28:26.69	219.70	37.52	-31.9	-32.3	27.9	0.00e+00	0	28	0	3891265536	42	5747
2026-01-04 19:28:27.42	219.63	37.35	-31.9	-32.4	28.0	0.00e+00	0	28	0	3896508416	42	5774
2026-01-04 19:28:28.71	219.52	37.04	-32.1	-32.6	27.6	0.00e+00	0	28	0	3905945600	42	5922
2026-01-04 19:28:29.44	219.45	36.87	-31.9	-32.3	28.1	0.00e+00	0	28	0	3911188480	42	5747
2026-01-04 19:28:30.74	219.33	36.57	-31.8	-32.3	27.6	0.00e+00	0	28	0	3920625664	42	5731
2026-01-04 19:28:31.46	219.27	36.40	-31.9	-32.4	27.7	0.00e+00	0	28	0	3925868544	42	5817
2026-01-04 19:28:32.76	219.16	36.10	-32.0	-32.5	27.6	0.00e+00	0	28	0	3935305728	42	5851
2026-01-04 19:28:33.48	219.10	35.93	-32.1	-32.6	27.8	0.00e+00	0	28	0	3940548608	42	5930
2026-01-04 19:28:34.78	218.99	35.64	-32.3	-32.8	27.7	0.00e+00	0	28	0	3949985792	42	6048
2026-01-04 19:28:35.50	218.93	35.48	-32.4	-32.9	27.6	0.00e+00	0	28	0	3955228672	42	6156
2026-01-04 19:28:36.80	218.83	35.19	-32.3	-32.8	27.8	0.00e+00	0	28	0	3964665856	42	6063
2026-01-04 19:28:37.52	218.77	35.03	-32.2	-32.6	27.8	0.00e+00	0	28	0	3969908736	42	5956
2026-01-04 19:28:38.82	218.67	34.74	-32.0	-32.5	27.9	0.00e+00	0	28	0	3979345920	42	5829
2026-01-04 19:28:39.55	218.61	34.58	-31.9	-32.4	28.0	0.00e+00	0	28	0	3983540224	42	5762
2026-01-04 19:28:40.85	218.51	34.29	-31.6	-32.1	28.0	0.00e+00	0	28	0	3992977408	42	5602
2026-01-04 19:28:41.57	218.45	34.14	-31.6	-32.0	28.2	0.00e+00	0	28	0	3998220288	42	5557
2026-01-04 19:28:42.87	218.36	33.86	-31.3	-31.8	28.4	0.00e+00	0	28	0	4007657472	42	5386
2026-01-04 19:28:43.59	218.30	33.70	-31.3	-31.8	28.3	0.00e+00	0	28	0	4012900352	42	5404
2026-01-04 19:28:44.89	218.21	33.43	-31.2	-31.6	28.4	0.00e+00	0	28	0	4022337536	42	5314
2026-01-04 19:28:45.61	218.16	33.28	-31.2	-31.7	28.4	0.00e+00	0	28	0	4027580416	42	5325
2026-01-04 19:28:46.91	218.07	33.00	-31.2	-31.7	28.3	0.00e+00	0	28	0	4037017600	42	5332
2026-01-04 19:28:47.64	218.02	32.85	-31.2	-31.7	28.4	0.00e+00	0	28	0	4042260480	42	5352
2026-01-04 19:28:48.94	217.93	32.58	-31.4	-31.8	28.2	0.00e+00	0	28	0	4051697664	42	5435
2026-01-04 19:28:49.66	217.88	32.44	-31.4	-31.8	28.3	0.00e+00	0	28	0	4056940544	42	5435
2026-01-04 19:28:50.96	217.79	32.17	-31.5	-32.0	26.8	0.00e+00	0	28	0	4066377728	42	5506
2026-01-04 19:28:51.68	217.74	32.02	-31.6	-32.1	28.2	0.00e+00	0	28	0	4071620608	42	5572
2026-01-04 19:28:52.98	217.66	31.76	-31.6	-32.1	28.2	0.00e+00	0	28	0	4081057792	42	5612
2026-01-04 19:28:53.70	217.61	31.62	-31.7	-32.2	28.2	0.00e+00	0	28	0	4086300672	42	5660
2026-01-04 19:28:55.00	217.53	31.36	-31.6	-32.1	28.1	0.00e+00	0	28	0	4095737856	42	5619
2026-01-04 19:28:55.73	217.48	31.22	-31.8	-32.2	28.0	0.00e+00	0	28	0	4100980736	42	5694
2026-01-04 19:28:57.03	217.40	30.96	-31.9	-32.4	27.9	0.00e+00	0	28	0	4110417920	42	5783
2026-01-04 19:28:57.75	217.36	30.82	-31.7	-32.2	28.0	0.00e+00	0	28	0	4115660800	42	5652
2026-01-04 19:28:59.05	217.28	30.57	-31.6	-32.1	28.1	0.00e+00	0	28	0	4125097984	42	5579
2026-01-04 19:28:59.77	217.24	30.43	-31.6	-32.0	28.2	0.00e+00	0	28	0	4130340864	42	5550
2026-01-04 19:29:01.07	217.16	30.18	-31.7	-32.2	28.2	0.00e+00	0	28	0	4138729472	42	5641
2026-01-04 19:29:01.79	217.12	30.05	-31.5	-32.0	28.2	0.00e+00	0	28	0	4145020928	42	5515
2026-01-04 19:29:03.09	217.05	29.80	-31.8	-32.2	28.1	0.00e+00	0	28	0	4154458112	42	5684
2026-01-04 19:29:03.82	217.01	29.67	-31.7	-32.1	28.1	0.00e+00	0	28	0	4158652416	42	5624
2026-01-04 19:29:05.11	216.93	29.43	-31.6	-32.0	28.1	0.00e+00	0	28	0	4168089600	42	5560
2026-01-04 19:29:05.84	216.89	29.29	-31.7	-32.2	28.1	0.00e+00	0	28	0	4174381056	42	5670
2026-01-04 19:29:07.14	216.82	29.05	-31.7	-32.2	27.9	0.00e+00	0	28	0	4182769664	42	5679
2026-01-04 19:29:07.86	216.78	28.92	-31.7	-32.2	28.0	0.00e+00	0	28	0	4188012544	42	5637
2026-01-04 19:29:09.16	216.71	28.69	-31.8	-32.3	27.9	0.00e+00	0	28	0	4197449728	42	5707
2026-01-04 19:29:09.88	216.68	28.56	-31.9	-32.4	27.9	0.00e+00	0	28	0	4202692608	42	5794
2026-01-04 19:29:11.18	216.61	28.32	-32.2	-32.7	27.9	0.00e+00	0	28	0	4212129792	42	5988
2026-01-04 19:29:11.90	216.57	28.19	-32.0	-32.5	27.5	0.00e+00	0	28	0	4217372672	42	5848
2026-01-04 19:29:13.21	216.51	27.96	-32.0	-32.4	27.8	0.00e+00	0	28	0	4226809856	42	5826
2026-01-04 19:29:13.93	216.47	27.84	-32.0	-32.5	27.8	0.00e+00	0	28	0	4232052736	42	5864
2026-01-04 19:29:15.23	216.40	27.61	-32.1	-32.6	27.8	0.00e+00	0	28	0	4241489920	42	5932
2026-01-04 19:29:15.95	216.37	27.48	-32.1	-32.6	27.7	0.00e+00	0	28	0	4246732800	42	5897
2026-01-04 19:29:17.25	216.31	27.26	-32.0	-32.5	27.9	0.00e+00	0	28	0	4256169984	42	5879
2026-01-04 19:29:17.97	216.27	27.14	-32.1	-32.5	27.9	0.00e+00	0	28	0	4261412864	42	5886
2026-01-04 19:29:19.27	216.21	26.92	-32.1	-32.6	28.0	0.00e+00	0	28	0	4270850048	42	5907
2026-01-04 19:29:19.99	216.18	26.79	-32.1	-32.6	28.0	0.00e+00	0	28	0	4276092928	42	5924
2026-01-04 19:29:21.29	216.12	26.58	-32.2	-32.7	27.8	0.00e+00	0	28	0	4285530112	42	6011
2026-01-04 19:29:22.01	216.08	26.46	-32.0	-32.5	27.8	0.00e+00	0	28	0	4290772992	42	5839
2026-01-04 19:29:23.31	216.03	26.24	-32.3	-32.7	27.9	0.00e+00	0	28	0	4300210176	42	6008
2026-01-04 19:29:24.04	215.99	26.12	-32.2	-32.7	27.8	0.00e+00	0	28	0	4305453056	42	6011
2026-01-04 19:29:25.34	215.93	25.91	-32.4	-32.8	27.7	0.00e+00	0	28	0	4314890240	42	6091
2026-01-04 19:29:26.06	215.90	25.79	-32.1	-32.6	27.8	0.00e+00	0	28	0	4320133120	42	5923
2026-01-04 19:29:27.36	215.85	25.58	-32.2	-32.7	27.9	0.00e+00	0	28	0	4329570304	42	5984
2026-01-04 19:29:28.08	215.82	25.46	-32.1	-32.6	27.9	0.00e+00	0	28	0	4334813184	42	5921
2026-01-04 19:29:29.38	215.76	25.25	-32.3	-32.8	27.6	0.00e+00	0	28	0	4344250368	42	6072
2026-01-04 19:29:30.10	215.73	25.14	-32.4	-32.9	27.6	0.00e+00	0	28	0	4348444672	42	6110
2026-01-04 19:29:31.40	215.68	24.93	-32.5	-32.9	27.6	0.00e+00	0	28	0	4357881856	42	6169
2026-01-04 19:29:32.12	215.65	24.82	-32.4	-32.8	27.6	0.00e+00	0	28	0	4363124736	42	6090
2026-01-04 19:29:33.42	215.60	24.62	-32.4	-32.8	27.5	0.00e+00	0	28	0	4372561920	42	6099
2026-01-04 19:29:34.15	215.57	24.50	-32.4	-32.8	27.6	0.00e+00	0	28	0	4377804800	42	6087
2026-01-04 19:29:35.44	215.52	24.30	-32.5	-33.0	27.4	0.00e+00	0	28	0	4387241984	42	6191
2026-01-04 19:29:36.17	215.49	24.19	-32.5	-33.0	27.4	0.00e+00	0	28	0	4392484864	42	6179
2026-01-04 19:29:37.47	215.44	23.99	-32.6	-33.1	27.4	0.00e+00	0	28	0	4401922048	42	6271
2026-01-04 19:29:38.19	215.41	23.88	-32.6	-33.1	27.4	0.00e+00	0	28	0	4407164928	42	6278
2026-01-04 19:29:39.49	215.36	23.69	-32.8	-33.3	27.4	0.00e+00	0	28	0	4416602112	42	6416
2026-01-04 19:29:40.21	215.33	23.58	-32.4	-32.8	27.6	0.00e+00	0	28	0	4421844992	42	6097
2026-01-04 19:29:41.51	215.28	23.38	-32.4	-32.9	27.4	0.00e+00	0	28	0	4431282176	42	6155
2026-01-04 19:29:42.23	215.26	23.28	-32.4	-32.9	27.5	0.00e+00	0	28	0	4436525056	42	6112
2026-01-04 19:29:43.53	215.21	23.08	-32.3	-32.8	27.5	0.00e+00	0	28	0	4445962240	42	6043
2026-01-04 19:29:44.26	215.18	22.98	-32.3	-32.7	27.6	0.00e+00	0	28	0	4451205120	42	6026
2026-01-04 19:29:45.55	215.14	22.79	-32.3	-32.8	27.6	0.00e+00	0	28	0	4460642304	42	6047
2026-01-04 19:29:46.28	215.11	22.68	-32.4	-32.8	27.6	0.00e+00	0	28	0	4465885184	42	6093
2026-01-04 19:29:47.58	215.07	22.49	-32.4	-32.8	27.4	0.00e+00	0	28	0	4475322368	42	6103
2026-01-04 19:29:48.30	215.04	22.39	-32.2	-32.7	27.6	0.00e+00	0	28	0	4480565248	42	5989
2026-01-04 19:29:49.60	215.00	22.21	-32.1	-32.5	27.8	0.00e+00	0	28	0	4490002432	42	5882
2026-01-04 19:29:50.32	214.97	22.10	-32.1	-32.6	27.6	0.00e+00	0	28	0	4495245312	42	5931
2026-01-04 19:29:51.62	214.93	21.92	-32.1	-32.6	27.7	0.00e+00	0	28	0	4503633920	42	5924
2026-01-04 19:29:52.34	214.91	21.82	-32.1	-32.5	27.6	0.00e+00	0	28	0	4509925376	42	5879
2026-01-04 19:29:53.64	214.86	21.64	-32.1	-32.6	27.5	0.00e+00	0	28	0	4519362560	42	5930
2026-01-04 19:29:54.37	214.84	21.54	-32.1	-32.6	27.8	0.00e+00	0	28	0	4523556864	42	5908
2026-01-04 19:29:55.67	214.80	21.36	-32.1	-32.6	27.6	0.00e+00	0	28	0	4532994048	42	5927
2026-01-04 19:29:56.39	214.77	21.26	-32.2	-32.7	27.6	0.00e+00	0	28	0	4539285504	42	5968
2026-01-04 19:29:57.69	214.73	21.08	-32.4	-32.8	27.5	0.00e+00	0	28	0	4547674112	42	6099
2026-01-04 19:29:58.41	214.71	20.98	-32.5	-32.9	27.4	0.00e+00	0	28	0	4552916992	42	6162
2026-01-04 19:29:59.71	214.67	20.81	-32.2	-32.6	27.5	0.00e+00	0	28	0	4562354176	42	5963
2026-01-04 19:30:00.43	214.65	20.71	-32.2	-32.7	27.6	0.00e+00	0	28	0	4567597056	42	5982
2026-01-04 19:30:01.73	214.61	20.54	-32.3	-32.8	27.6	0.00e+00	0	28	0	4577034240	42	6050
2026-01-04 19:30:02.45	214.59	20.44	-32.3	-32.7	27.5	0.00e+00	0	28	0	4582277120	42	6014
2026-01-04 19:30:03.75	214.55	20.27	-32.4	-32.9	27.6	0.00e+00	0	28	0	4591714304	42	6142
2026-01-04 19:30:04.48	214.53	20.17	-32.4	-32.8	27.5	0.00e+00	0	28	0	4596957184	42	6091
2026-01-04 19:30:05.78	214.49	20.00	-32.3	-32.8	27.5	0.00e+00	0	28	0	4606394368	42	6078
2026-01-04 19:30:06.50	214.47	19.91	-32.4	-32.9	27.4	0.00e+00	0	28	0	4611637248	42	6154
2026-01-04 19:30:07.80	214.43	19.74	-32.4	-32.9	27.5	0.00e+00	0	28	0	4621074432	42	6159
