passes_logs/2026/01/04/R4.6S_Anadyr_2ch/R4.6S_Anadyr_2ch__20260104_194927_SUOMI_NPP_rec.log

#Pass ID: 20260104_194927_SUOMI NPP
#Satellite: SUOMI NPP
#Configuration: NPP
#almurnet v.1.7.20251203
#Start time: 2026-01-04 19:49:28

#Version: 2.2.20231116
#Station: R4.6S_Anadyr_2ch
#Location: 177.4865 lon 64.73178 lat
#TLE: 1 37849U 11061A   25350.92281687  .00000071  00000+0  54882-4 0  9996
#TLE: 2 37849  98.7777 288.2268 0002366 112.8570 247.2856 14.19515404732588

#Time	Az	El	Level	Level2	SNR	BER	BlckErr	Temp	State	Recorded	gain1	gain2
2026-01-04 19:49:28.43	58.16	0.04	-51.3	-62.4	3.5	8.46e-01	0	24	0	0	60	64813
2026-01-04 19:49:29.44	58.09	0.09	-52.1	-67.6	3.6	1.51e+00	0	25	104	0	60	117290
2026-01-04 19:49:30.45	58.01	0.14	-51.9	-67.3	3.6	1.51e+00	0	25	104	0	60	113502
2026-01-04 19:49:31.46	57.94	0.19	-52.3	-67.7	3.5	1.51e+00	0	26	104	0	60	118775
2026-01-04 19:49:32.47	57.86	0.24	-51.9	-67.4	3.6	1.51e+00	0	26	104	0	60	114471
2026-01-04 19:49:33.48	57.78	0.28	-51.8	-67.3	3.6	1.51e+00	0	26	104	0	60	112572
2026-01-04 19:49:34.50	57.70	0.33	-51.8	-67.2	3.6	1.51e+00	0	26	104	0	60	111841
2026-01-04 19:49:35.51	57.63	0.38	-51.6	-67.1	3.6	1.51e+00	0	26	104	0	60	110975
2026-01-04 19:49:36.52	57.55	0.43	-51.4	-66.9	3.6	1.51e+00	0	26	104	0	60	107952
2026-01-04 19:49:37.53	57.47	0.48	-51.3	-66.8	3.6	1.51e+00	0	26	104	0	60	106916
2026-01-04 19:49:38.54	57.39	0.53	-51.3	-66.8	3.6	1.51e+00	0	26	104	0	60	106538
2026-01-04 19:49:39.55	57.31	0.58	-51.2	-66.7	3.6	1.51e+00	0	26	104	0	60	106050
2026-01-04 19:49:40.56	57.24	0.63	-51.2	-66.6	3.6	1.51e+00	0	26	104	0	60	104744
2026-01-04 19:49:41.58	57.16	0.68	-51.1	-66.5	3.6	1.51e+00	0	26	104	0	60	103219
2026-01-04 19:49:42.59	57.08	0.73	-50.9	-66.4	3.6	1.51e+00	0	26	104	0	60	101441
2026-01-04 19:49:43.60	57.00	0.78	-50.6	-66.1	3.6	1.51e+00	0	26	104	0	60	98340
2026-01-04 19:49:44.61	56.92	0.83	-50.0	-65.5	3.6	1.51e+00	0	26	104	0	60	91702
2026-01-04 19:49:45.62	56.84	0.88	-49.8	-65.3	3.6	1.51e+00	0	26	104	0	60	89278
2026-01-04 19:49:46.63	56.76	0.93	-49.8	-65.3	3.6	1.51e+00	0	26	104	0	60	89263
2026-01-04 19:49:47.64	56.67	0.98	-49.8	-65.3	3.6	1.51e+00	0	26	104	0	60	89277
2026-01-04 19:49:48.65	56.59	1.03	-49.8	-65.2	3.6	1.51e+00	0	26	104	0	60	89107
2026-01-04 19:49:49.66	56.51	1.08	-49.8	-65.2	3.6	1.51e+00	0	26	104	0	60	88805
2026-01-04 19:49:50.67	56.43	1.13	-49.8	-65.2	3.6	1.51e+00	0	26	104	0	60	88658
2026-01-04 19:49:51.68	56.35	1.17	-49.8	-65.2	3.6	1.51e+00	0	26	104	0	60	88526
2026-01-04 19:49:52.69	56.27	1.22	-49.8	-65.2	3.6	1.51e+00	0	26	104	0	60	88896
2026-01-04 19:49:53.71	56.18	1.27	-49.8	-65.3	3.6	1.51e+00	0	26	104	0	60	89313
2026-01-04 19:49:54.71	56.10	1.32	-49.8	-65.2	3.6	1.51e+00	0	26	104	0	60	89181
2026-01-04 19:49:55.72	56.02	1.37	-49.8	-65.2	3.6	1.51e+00	0	26	104	0	60	89060
2026-01-04 19:49:56.74	55.93	1.42	-49.8	-65.2	3.6	1.51e+00	0	26	104	0	60	89154
2026-01-04 19:49:57.75	55.85	1.47	-49.8	-65.2	3.6	1.51e+00	0	26	104	0	60	89218
2026-01-04 19:49:58.76	55.77	1.52	-49.8	-65.2	3.6	1.51e+00	0	26	104	0	60	88861
2026-01-04 19:49:59.77	55.68	1.57	-49.8	-65.2	3.6	1.51e+00	0	26	104	0	60	88443
2026-01-04 19:50:00.78	55.60	1.62	-49.8	-65.2	3.6	1.51e+00	0	26	104	0	60	88621
2026-01-04 19:50:01.79	55.51	1.67	-49.8	-65.2	3.6	1.51e+00	0	26	104	0	60	88610
2026-01-04 19:50:02.80	55.43	1.72	-49.8	-65.2	3.5	1.51e+00	0	26	104	0	60	88564
2026-01-04 19:50:03.81	55.34	1.77	-49.8	-65.2	3.6	1.51e+00	0	26	104	0	60	88841
2026-01-04 19:50:04.82	55.26	1.82	-49.8	-65.2	3.6	1.51e+00	0	26	104	0	60	89144
2026-01-04 19:50:05.83	55.17	1.87	-49.8	-65.3	3.6	1.51e+00	0	26	104	0	60	89466
2026-01-04 19:50:06.84	55.08	1.92	-49.8	-65.2	3.6	1.51e+00	0	26	104	0	60	88839
2026-01-04 19:50:07.85	55.00	1.97	-49.8	-65.2	3.6	1.51e+00	0	26	104	0	60	88338
2026-01-04 19:50:08.86	54.91	2.02	-49.8	-65.1	3.6	1.51e+00	0	26	104	0	60	87375
2026-01-04 19:50:09.87	54.82	2.07	-49.8	-64.9	3.6	1.51e+00	0	26	104	0	60	86133
2026-01-04 19:50:10.88	54.74	2.12	-49.8	-64.8	3.6	1.51e+00	0	26	104	0	60	84403
2026-01-04 19:50:11.89	54.65	2.17	-49.8	-64.9	3.6	1.51e+00	0	26	104	0	60	85285
2026-01-04 19:50:12.90	54.56	2.23	-49.8	-65.1	3.6	1.51e+00	0	26	104	0	60	87448
2026-01-04 19:50:13.91	54.47	2.28	-49.8	-65.2	3.6	1.51e+00	0	26	104	0	60	88808
2026-01-04 19:50:14.92	54.38	2.33	-49.8	-65.2	3.6	1.51e+00	0	26	104	0	60	88992
2026-01-04 19:50:15.94	54.29	2.38	-49.8	-65.2	3.6	1.51e+00	0	26	104	0	60	88529
2026-01-04 19:50:16.95	54.20	2.43	-49.8	-65.1	3.6	1.51e+00	0	26	104	0	60	87535
2026-01-04 19:50:17.96	54.11	2.48	-49.8	-65.1	3.6	1.51e+00	0	26	104	0	60	87356
2026-01-04 19:50:18.97	54.02	2.53	-49.8	-65.2	3.6	1.51e+00	0	26	104	0	60	88751
2026-01-04 19:50:19.98	53.93	2.58	-49.8	-65.2	3.5	1.51e+00	0	26	104	0	60	88287
2026-01-04 19:50:20.99	53.84	2.63	-49.8	-64.6	3.6	1.51e+00	0	26	104	0	60	82789
2026-01-04 19:50:22.00	53.75	2.68	-49.7	-63.9	3.6	1.51e+00	0	26	104	0	60	76586
2026-01-04 19:50:23.02	53.66	2.73	-49.7	-64.1	3.6	1.51e+00	0	26	104	0	60	78474
2026-01-04 19:50:24.02	53.57	2.78	-49.7	-64.8	3.6	1.51e+00	0	26	104	0	60	84856
2026-01-04 19:50:25.04	53.47	2.83	-49.8	-64.9	3.6	1.51e+00	0	26	104	0	60	85376
2026-01-04 19:50:26.05	53.38	2.88	-49.6	-62.5	3.8	1.51e+00	0	26	104	0	60	64812
2026-01-04 19:50:27.06	53.29	2.93	-49.5	-59.4	4.5	1.06e+00	0	26	0	0	60	45397
2026-01-04 19:50:28.07	53.20	2.98	-49.3	-57.5	6.0	5.30e-01	0	26	0	2097152	60	36468
2026-01-04 19:50:29.08	53.10	3.03	-49.8	-64.4	3.6	4.20e-01	0	27	104	3145728	60	81010
2026-01-04 19:50:30.09	53.01	3.08	-49.8	-64.8	3.6	1.51e+00	0	27	104	3145728	60	84803
2026-01-04 19:50:31.10	52.91	3.13	-49.1	-57.3	6.2	1.23e+00	0	27	104	3145728	60	35802
2026-01-04 19:50:32.11	52.82	3.19	-45.5	-47.9	16.5	9.66e-02	0	27	0	4194304	60	12074
2026-01-04 19:50:33.12	52.73	3.24	-49.6	-64.3	3.6	8.95e-01	0	27	104	5242880	60	80450
2026-01-04 19:50:34.13	52.63	3.29	-46.5	-49.6	14.7	1.50e+00	1	26	104	5242880	60	14725
2026-01-04 19:50:35.15	52.53	3.34	-45.7	-48.2	16.1	0.00e+00	0	26	0	5242880	60	12532
2026-01-04 19:50:36.16	52.44	3.39	-45.6	-48.0	16.0	0.00e+00	0	26	0	7340032	60	12299
2026-01-04 19:50:37.17	52.34	3.44	-45.1	-47.3	17.0	0.00e+00	0	27	0	9437184	60	11266
2026-01-04 19:50:38.18	52.25	3.49	-45.0	-47.2	17.1	0.00e+00	0	26	0	11534336	60	11231
2026-01-04 19:50:39.19	52.15	3.54	-44.7	-46.8	17.4	0.00e+00	0	27	0	12582912	60	10676
2026-01-04 19:50:40.20	52.05	3.59	-45.1	-47.3	17.0	0.00e+00	0	27	0	14680064	60	11236
2026-01-04 19:50:41.21	51.95	3.64	-45.1	-47.2	17.1	0.00e+00	0	27	0	16777216	60	11220
2026-01-04 19:50:42.22	51.86	3.69	-45.0	-47.2	16.9	0.00e+00	0	27	0	18874368	60	11156
2026-01-04 19:50:43.24	51.76	3.75	-45.2	-47.5	16.9	0.00e+00	0	26	0	20971520	60	11519
2026-01-04 19:50:44.25	51.66	3.80	-45.4	-47.8	16.5	0.00e+00	0	27	0	22020096	60	11912
2026-01-04 19:50:45.26	51.56	3.85	-45.3	-47.6	16.8	0.00e+00	0	27	0	24117248	60	11644
2026-01-04 19:50:46.27	51.46	3.90	-45.1	-47.3	17.0	0.00e+00	0	27	0	26214400	60	11309
2026-01-04 19:50:47.28	51.36	3.95	-45.0	-47.2	17.3	0.00e+00	0	27	0	28311552	60	11141
2026-01-04 19:50:48.29	51.26	4.00	-45.5	-47.8	16.6	0.00e+00	0	27	0	30408704	60	11989
2026-01-04 19:50:49.30	51.16	4.05	-44.6	-46.6	17.7	0.00e+00	0	27	0	31457280	60	10428
2026-01-04 19:50:50.32	51.06	4.10	-44.6	-46.6	17.8	0.00e+00	0	27	0	33554432	60	10436
2026-01-04 19:50:51.33	50.96	4.15	-44.5	-46.5	17.8	0.00e+00	0	27	0	35651584	60	10261
2026-01-04 19:50:52.34	50.86	4.20	-44.8	-46.8	17.8	0.00e+00	0	27	0	37748736	60	10708
2026-01-04 19:50:53.35	50.76	4.26	-44.5	-46.4	18.0	0.00e+00	0	27	0	39845888	60	10231
2026-01-04 19:50:54.36	50.65	4.31	-44.4	-46.3	18.2	0.00e+00	0	27	0	41943040	60	10054
2026-01-04 19:50:55.37	50.55	4.36	-44.9	-46.9	17.6	0.00e+00	0	27	0	42991616	60	10802
2026-01-04 19:50:56.38	50.45	4.41	-44.7	-46.7	17.7	0.00e+00	0	27	0	45088768	60	10603
2026-01-04 19:50:57.39	50.35	4.46	-44.7	-46.7	17.5	0.00e+00	0	27	0	47185920	60	10541
2026-01-04 19:50:58.40	50.24	4.51	-44.8	-46.8	17.6	0.00e+00	0	27	0	49283072	60	10715
2026-01-04 19:50:59.41	50.14	4.56	-44.7	-46.7	17.8	0.00e+00	0	27	0	51380224	60	10537
2026-01-04 19:51:00.42	50.03	4.61	-44.8	-46.8	17.6	0.00e+00	0	27	0	52428800	60	10703
2026-01-04 19:51:01.44	49.93	4.67	-44.9	-47.0	17.5	0.00e+00	0	27	0	54525952	60	10900
2026-01-04 19:51:02.45	49.82	4.72	-44.9	-46.9	17.6	0.00e+00	0	27	0	56623104	60	10805
2026-01-04 19:51:03.46	49.72	4.77	-44.7	-46.7	18.0	0.00e+00	0	27	0	58720256	60	10516
2026-01-04 19:51:04.47	49.61	4.82	-44.7	-46.6	18.0	0.00e+00	0	27	0	60817408	60	10480
2026-01-04 19:51:05.48	49.50	4.87	-44.7	-46.6	17.8	0.00e+00	0	27	0	61865984	60	10417
2026-01-04 19:51:06.49	49.40	4.92	-46.0	-48.5	16.2	0.00e+00	0	27	0	63963136	60	12919
2026-01-04 19:51:07.50	49.29	4.97	-45.6	-47.9	16.8	0.00e+00	0	27	0	66060288	60	12068
2026-01-04 19:51:08.51	49.18	5.02	-45.3	-47.5	17.1	0.00e+00	0	27	0	68157440	60	11604
2026-01-04 19:51:09.52	49.08	5.07	-45.9	-48.4	16.7	0.00e+00	0	27	0	70254592	60	12871
2026-01-04 19:51:10.53	48.97	5.13	-45.8	-48.2	16.1	0.00e+00	0	27	0	71303168	60	12508
2026-01-04 19:51:11.55	48.86	5.18	-46.3	-49.0	16.2	0.00e+00	0	27	0	73400320	60	13772
2026-01-04 19:51:12.56	48.75	5.23	-46.0	-48.4	16.2	0.00e+00	0	27	0	75497472	60	12889
2026-01-04 19:51:13.57	48.64	5.28	-45.9	-48.3	16.4	0.00e+00	0	27	0	77594624	60	12625
2026-01-04 19:51:14.58	48.53	5.33	-46.1	-48.6	15.8	0.00e+00	0	27	0	79691776	60	13192
2026-01-04 19:51:15.59	48.42	5.38	-46.7	-49.6	15.4	0.00e+00	0	27	0	80740352	60	14726
2026-01-04 19:51:16.60	48.31	5.43	-46.3	-49.0	15.7	0.00e+00	0	27	0	82837504	60	13686
2026-01-04 19:51:17.61	48.20	5.48	-46.3	-49.0	16.1	0.00e+00	0	27	0	84934656	60	13670
2026-01-04 19:51:18.62	48.09	5.54	-45.6	-47.9	17.0	0.00e+00	0	27	0	87031808	60	12041
2026-01-04 19:51:19.63	47.98	5.59	-45.4	-47.5	17.4	0.00e+00	0	27	0	89128960	60	11580
2026-01-04 19:51:20.65	47.86	5.64	-45.1	-47.2	17.2	0.00e+00	0	27	0	90177536	60	11118
2026-01-04 19:51:21.66	47.75	5.69	-44.5	-46.3	18.3	0.00e+00	0	27	0	92274688	60	10084
2026-01-04 19:51:22.67	47.64	5.74	-44.4	-46.3	18.3	0.00e+00	0	27	0	94371840	60	10037
2026-01-04 19:51:23.68	47.52	5.79	-44.1	-45.8	18.6	0.00e+00	0	27	0	96468992	60	9539
2026-01-04 19:51:24.69	47.41	5.84	-43.8	-45.4	19.2	0.00e+00	0	27	0	98566144	60	9091
2026-01-04 19:51:25.70	47.30	5.89	-44.1	-45.7	19.0	0.00e+00	0	27	0	100663296	60	9435
2026-01-04 19:51:26.71	47.18	5.95	-43.7	-45.3	19.2	0.00e+00	0	27	0	101711872	60	8985
2026-01-04 19:51:27.72	47.07	6.00	-43.8	-45.4	19.3	0.00e+00	0	27	0	103809024	60	9111
2026-01-04 19:51:28.73	46.95	6.05	-43.6	-45.2	19.3	0.00e+00	0	27	0	105906176	60	8858
2026-01-04 19:51:29.74	46.83	6.10	-43.8	-45.4	19.2	0.00e+00	0	27	0	108003328	60	9081
2026-01-04 19:51:30.76	46.72	6.15	-43.9	-45.6	19.1	0.00e+00	0	27	0	110100480	60	9241
2026-01-04 19:51:31.77	46.60	6.20	-43.5	-45.0	19.7	0.00e+00	0	27	0	111149056	60	8702
2026-01-04 19:51:32.78	46.48	6.25	-43.6	-45.1	19.4	0.00e+00	0	27	0	113246208	60	8774
2026-01-04 19:51:33.79	46.37	6.30	-43.5	-45.0	19.6	0.00e+00	0	27	0	115343360	60	8663
2026-01-04 19:51:34.80	46.25	6.35	-43.4	-44.9	19.6	0.00e+00	0	27	0	117440512	60	8612
2026-01-04 19:51:35.81	46.13	6.41	-44.0	-45.7	18.9	0.00e+00	0	27	0	119537664	60	9401
2026-01-04 19:51:36.82	46.01	6.46	-44.1	-45.7	18.8	0.00e+00	0	27	0	120586240	60	9412
2026-01-04 19:51:37.83	45.89	6.51	-44.0	-45.6	19.1	0.00e+00	0	27	0	122683392	60	9279
2026-01-04 19:51:38.84	45.77	6.56	-43.8	-45.4	19.1	0.00e+00	0	27	0	124780544	60	9070
2026-01-04 19:51:39.85	45.65	6.61	-43.9	-45.5	19.1	0.00e+00	0	27	0	126877696	60	9206
2026-01-04 19:51:40.87	45.53	6.66	-43.5	-45.1	19.5	0.00e+00	0	27	0	128974848	60	8733
2026-01-04 19:51:41.88	45.41	6.71	-43.7	-45.2	19.5	0.00e+00	0	27	0	130023424	60	8868
2026-01-04 19:51:42.89	45.29	6.76	-43.8	-45.4	19.3	0.00e+00	0	27	0	132120576	60	9085
2026-01-04 19:51:43.90	45.17	6.81	-43.9	-45.6	19.2	0.00e+00	0	27	0	134217728	60	9249
2026-01-04 19:51:44.91	45.04	6.86	-43.9	-45.5	19.3	0.00e+00	0	27	0	136314880	60	9216
2026-01-04 19:51:45.92	44.92	6.92	-43.6	-45.1	19.5	0.00e+00	0	27	0	138412032	60	8818
2026-01-04 19:51:46.93	44.80	6.97	-44.0	-45.6	19.1	0.00e+00	0	27	0	139460608	60	9289
2026-01-04 19:51:47.94	44.67	7.02	-43.8	-45.3	19.3	0.00e+00	0	27	0	141557760	60	9027
2026-01-04 19:51:48.95	44.55	7.07	-43.7	-45.2	19.4	0.00e+00	0	27	0	143654912	60	8895
2026-01-04 19:51:49.96	44.43	7.12	-43.7	-45.3	19.4	0.00e+00	0	27	0	145752064	60	8943
2026-01-04 19:51:50.97	44.30	7.17	-43.7	-45.3	19.4	0.00e+00	0	27	0	147849216	60	8939
2026-01-04 19:51:51.99	44.17	7.22	-43.8	-45.4	19.4	0.00e+00	0	27	0	149946368	60	9106
2026-01-04 19:51:53.00	44.05	7.27	-43.9	-45.5	19.3	0.00e+00	0	27	0	150994944	60	9232
2026-01-04 19:51:54.01	43.92	7.32	-43.9	-45.5	19.3	0.00e+00	0	27	0	153092096	60	9156
2026-01-04 19:51:55.02	43.79	7.37	-43.6	-45.1	19.6	0.00e+00	0	27	0	155189248	60	8792
2026-01-04 19:51:56.03	43.67	7.42	-43.7	-45.3	19.3	0.00e+00	0	27	0	157286400	60	9007
2026-01-04 19:51:57.04	43.54	7.47	-43.5	-45.0	19.7	0.00e+00	0	27	0	159383552	60	8719
2026-01-04 19:51:58.05	43.41	7.52	-43.7	-45.2	19.4	0.00e+00	0	27	0	160432128	60	8881
2026-01-04 19:51:59.06	43.28	7.57	-43.6	-45.2	19.6	0.00e+00	0	27	0	162529280	60	8837
2026-01-04 19:52:00.07	43.15	7.62	-43.5	-45.1	19.8	0.00e+00	0	27	0	164626432	60	8734
2026-01-04 19:52:01.09	43.02	7.68	-43.6	-45.1	19.7	0.00e+00	0	27	0	166723584	60	8762
2026-01-04 19:52:02.10	42.89	7.73	-43.9	-45.5	19.3	0.00e+00	0	27	0	168820736	60	9156
2026-01-04 19:52:03.11	42.76	7.78	-43.8	-45.3	19.5	0.00e+00	0	27	0	169869312	60	8990
2026-01-04 19:52:04.12	42.63	7.83	-43.7	-45.3	19.5	0.00e+00	0	27	0	171966464	60	8931
2026-01-04 19:52:05.13	42.50	7.88	-43.5	-45.0	19.7	0.00e+00	0	27	0	174063616	60	8710
2026-01-04 19:52:06.14	42.37	7.93	-43.4	-44.8	19.9	0.00e+00	0	27	0	176160768	60	8487
2026-01-04 19:52:07.15	42.24	7.98	-43.2	-44.6	20.1	0.00e+00	0	27	0	178257920	60	8250
2026-01-04 19:52:08.16	42.10	8.03	-43.0	-44.4	20.2	0.00e+00	0	27	0	179306496	60	8083
2026-01-04 19:52:09.17	41.97	8.08	-43.4	-44.9	19.9	0.00e+00	0	27	0	181403648	60	8546
2026-01-04 19:52:10.18	41.84	8.13	-43.5	-44.9	19.7	0.00e+00	0	27	0	183500800	60	8597
2026-01-04 19:52:11.20	41.70	8.18	-43.2	-44.6	20.0	0.00e+00	0	27	0	185597952	60	8300
2026-01-04 19:52:12.21	41.57	8.23	-43.1	-44.6	20.1	0.00e+00	0	27	0	187695104	60	8235
2026-01-04 19:52:13.22	41.43	8.28	-43.5	-45.0	19.8	0.00e+00	0	27	0	189792256	60	8693
2026-01-04 19:52:14.23	41.30	8.33	-43.2	-44.6	20.2	0.00e+00	0	27	0	190840832	60	8257
2026-01-04 19:52:15.24	41.16	8.38	-43.4	-44.8	19.8	0.00e+00	0	27	0	192937984	60	8513
2026-01-04 19:52:16.25	41.02	8.43	-43.4	-44.9	19.8	0.00e+00	0	27	0	195035136	60	8610
2026-01-04 19:52:17.26	40.89	8.48	-43.6	-45.2	19.6	0.00e+00	0	27	0	197132288	60	8831
2026-01-04 19:52:18.28	40.75	8.53	-43.6	-45.1	19.6	0.00e+00	0	27	0	199229440	60	8764
2026-01-04 19:52:19.29	40.61	8.57	-43.8	-45.3	19.4	0.00e+00	0	27	0	200278016	60	9025
2026-01-04 19:52:20.30	40.47	8.62	-43.8	-45.4	19.4	0.00e+00	0	27	0	202375168	60	9124
2026-01-04 19:52:21.31	40.33	8.67	-44.0	-45.6	19.3	0.00e+00	0	27	0	204472320	60	9329
2026-01-04 19:52:22.32	40.19	8.72	-43.4	-44.9	19.9	0.00e+00	0	27	0	206569472	60	8534
2026-01-04 19:52:23.33	40.06	8.77	-43.5	-45.1	19.7	0.00e+00	0	27	0	208666624	60	8744
2026-01-04 19:52:24.34	39.91	8.82	-43.5	-45.0	19.7	0.00e+00	0	27	0	209715200	60	8643
2026-01-04 19:52:25.35	39.77	8.87	-43.6	-45.2	19.7	0.00e+00	0	27	0	211812352	60	8825
2026-01-04 19:52:26.36	39.63	8.92	-43.5	-45.1	19.8	0.00e+00	0	27	0	213909504	60	8731
2026-01-04 19:52:27.37	39.49	8.97	-43.8	-45.4	19.5	0.00e+00	0	27	0	216006656	60	9057
2026-01-04 19:52:28.38	39.35	9.02	-43.8	-45.4	19.7	0.00e+00	0	27	0	218103808	60	9038
2026-01-04 19:52:29.39	39.21	9.07	-43.4	-44.9	20.0	0.00e+00	0	27	0	219152384	60	8546
2026-01-04 19:52:30.41	39.06	9.12	-43.2	-44.6	20.2	0.00e+00	0	27	0	221249536	60	8284
2026-01-04 19:52:31.42	38.92	9.16	-43.0	-44.4	20.4	0.00e+00	0	27	0	223346688	60	8060
2026-01-04 19:52:32.43	38.77	9.21	-43.2	-44.6	20.2	0.00e+00	0	27	0	225443840	60	8315
2026-01-04 19:52:33.44	38.63	9.26	-43.4	-44.9	20.0	0.00e+00	0	27	0	227540992	60	8580
2026-01-04 19:52:34.45	38.48	9.31	-42.8	-44.1	20.5	0.00e+00	0	27	0	229638144	60	7853
2026-01-04 19:52:35.46	38.34	9.36	-43.0	-44.3	20.4	0.00e+00	0	27	0	230686720	60	8028
2026-01-04 19:52:36.47	38.19	9.41	-42.9	-44.2	20.5	0.00e+00	0	27	0	232783872	60	7948
2026-01-04 19:52:37.49	38.04	9.45	-42.7	-44.0	20.7	0.00e+00	0	27	0	234881024	60	7699
2026-01-04 19:52:38.50	37.90	9.50	-42.9	-44.3	20.6	0.00e+00	0	27	0	236978176	60	7975
2026-01-04 19:52:39.51	37.75	9.55	-43.0	-44.3	20.5	0.00e+00	0	27	0	239075328	60	8019
2026-01-04 19:52:40.52	37.60	9.60	-43.1	-44.5	20.6	0.00e+00	0	27	0	240123904	60	8151
2026-01-04 19:52:41.53	37.45	9.65	-42.6	-43.9	20.7	0.00e+00	0	27	0	242221056	60	7646
2026-01-04 19:52:42.54	37.30	9.69	-43.1	-44.5	20.6	0.00e+00	0	27	0	244318208	60	8206
2026-01-04 19:52:43.55	37.15	9.74	-42.1	-43.3	21.4	0.00e+00	0	27	0	246415360	60	7118
2026-01-04 19:52:44.56	37.00	9.79	-41.9	-43.1	21.2	0.00e+00	0	27	0	248512512	60	6985
2026-01-04 19:52:45.57	36.85	9.84	-41.5	-42.6	21.9	0.00e+00	0	27	0	249561088	60	6565
2026-01-04 19:52:46.59	36.70	9.88	-41.2	-42.3	22.2	0.00e+00	0	27	0	251658240	60	6362
2026-01-04 19:52:47.60	36.55	9.93	-41.2	-42.3	22.3	0.00e+00	0	27	0	253755392	60	6324
2026-01-04 19:52:48.61	36.40	9.98	-41.3	-42.4	22.2	0.00e+00	0	27	0	255852544	60	6455
2026-01-04 19:52:49.62	36.24	10.02	-41.5	-42.6	21.9	0.00e+00	0	27	0	257949696	60	6592
2026-01-04 19:52:50.63	36.09	10.07	-41.6	-42.7	21.7	0.00e+00	0	27	0	258998272	60	6662
2026-01-04 19:52:51.64	35.94	10.12	-41.6	-42.7	21.9	0.00e+00	0	27	0	261095424	60	6663
2026-01-04 19:52:52.65	35.78	10.16	-41.7	-42.8	21.9	0.00e+00	0	27	0	263192576	60	6764
2026-01-04 19:52:53.67	35.63	10.21	-42.0	-43.2	21.3	0.00e+00	0	27	0	265289728	60	7013
2026-01-04 19:52:54.67	35.47	10.26	-41.9	-43.1	21.5	0.00e+00	0	27	0	267386880	60	6981
2026-01-04 19:52:55.68	35.32	10.30	-42.3	-43.6	21.2	0.00e+00	0	27	0	268435456	60	7381
2026-01-04 19:52:56.70	35.16	10.35	-42.4	-43.7	20.9	0.00e+00	0	27	0	270532608	60	7490
2026-01-04 19:52:57.71	35.00	10.40	-42.4	-43.7	21.1	0.00e+00	0	27	0	272629760	60	7432
2026-01-04 19:52:58.72	34.85	10.44	-42.2	-43.4	21.2	0.00e+00	0	27	0	274726912	60	7225
2026-01-04 19:52:59.73	34.69	10.49	-42.1	-43.3	21.5	0.00e+00	0	27	0	276824064	60	7135
2026-01-04 19:53:00.74	34.53	10.53	-41.7	-42.8	21.8	0.00e+00	0	27	0	277872640	60	6750
2026-01-04 19:53:01.75	34.37	10.58	-41.4	-42.5	22.0	0.00e+00	0	27	0	279969792	60	6506
2026-01-04 19:53:02.76	34.21	10.63	-41.5	-42.6	21.9	0.00e+00	0	27	0	282066944	60	6578
2026-01-04 19:53:03.78	34.05	10.67	-41.4	-42.5	22.1	0.00e+00	0	27	0	284164096	60	6499
2026-01-04 19:53:04.78	33.89	10.72	-41.4	-42.5	22.1	0.00e+00	0	27	0	286261248	60	6527
2026-01-04 19:53:05.80	33.73	10.76	-41.4	-42.5	22.1	0.00e+00	0	27	0	288358400	60	6526
2026-01-04 19:53:06.81	33.57	10.81	-41.1	-42.1	22.4	0.00e+00	0	27	0	289406976	60	6234
2026-01-04 19:53:07.82	33.41	10.85	-40.9	-42.0	22.8	0.00e+00	0	27	0	291504128	60	6114
2026-01-04 19:53:08.83	33.25	10.90	-40.8	-41.8	22.6	0.00e+00	0	27	0	293601280	60	6013
2026-01-04 19:53:09.84	33.08	10.94	-40.6	-41.6	22.8	0.00e+00	0	27	0	295698432	60	5842
2026-01-04 19:53:10.85	32.92	10.98	-40.7	-41.7	22.7	0.00e+00	0	27	0	297795584	60	5933
2026-01-04 19:53:11.86	32.76	11.03	-40.9	-41.9	22.6	0.00e+00	0	27	0	298844160	60	6087
2026-01-04 19:53:12.87	32.59	11.07	-40.8	-41.8	22.6	0.00e+00	0	27	0	300941312	60	5999
2026-01-04 19:53:13.89	32.43	11.12	-40.9	-41.9	22.6	0.00e+00	0	27	0	303038464	60	6074
2026-01-04 19:53:14.89	32.26	11.16	-40.9	-42.0	22.5	0.00e+00	0	27	0	305135616	60	6133
2026-01-04 19:53:15.91	32.10	11.20	-41.0	-42.0	22.5	0.00e+00	0	27	0	307232768	60	6166
2026-01-04 19:53:16.92	31.93	11.25	-41.1	-42.1	22.5	0.00e+00	0	27	0	308281344	60	6220
2026-01-04 19:53:17.93	31.76	11.29	-41.2	-42.3	22.3	0.00e+00	0	27	0	310378496	60	6323
2026-01-04 19:53:18.94	31.60	11.33	-40.7	-41.7	22.6	0.00e+00	0	27	0	312475648	60	5948
2026-01-04 19:53:19.95	31.43	11.38	-40.9	-42.0	22.5	0.00e+00	0	27	0	314572800	60	6112
2026-01-04 19:53:20.96	31.26	11.42	-40.4	-41.4	23.0	0.00e+00	0	27	0	316669952	60	5738
2026-01-04 19:53:21.97	31.09	11.46	-40.6	-41.5	23.0	0.00e+00	0	27	0	317718528	60	5828
2026-01-04 19:53:22.99	30.92	11.50	-40.3	-41.3	23.2	0.00e+00	0	27	0	319815680	58	6322
2026-01-04 19:53:24.00	30.75	11.55	-40.3	-41.2	23.1	0.00e+00	0	27	0	321912832	58	6309
2026-01-04 19:53:25.01	30.58	11.59	-40.3	-41.3	23.0	0.00e+00	0	27	0	324009984	58	6320
2026-01-04 19:53:26.02	30.41	11.63	-40.3	-41.3	23.0	0.00e+00	0	27	0	326107136	58	6341
2026-01-04 19:53:27.03	30.24	11.67	-40.8	-41.8	22.7	0.00e+00	0	27	0	327155712	60	6014
2026-01-04 19:53:28.04	30.07	11.71	-41.1	-42.1	22.5	0.00e+00	0	27	0	329252864	60	6215
2026-01-04 19:53:29.05	29.90	11.75	-41.0	-42.0	22.5	0.00e+00	0	27	0	331350016	60	6156
2026-01-04 19:53:30.06	29.72	11.80	-41.1	-42.1	22.5	0.00e+00	0	27	0	333447168	60	6245
2026-01-04 19:53:31.07	29.55	11.84	-41.1	-42.1	22.5	0.00e+00	0	27	0	335544320	60	6240
2026-01-04 19:53:32.09	29.38	11.88	-41.4	-42.5	22.1	0.00e+00	0	27	0	336592896	60	6519
2026-01-04 19:53:33.10	29.20	11.92	-41.7	-42.8	22.1	0.00e+00	0	27	0	338690048	60	6768
2026-01-04 19:53:34.11	29.03	11.96	-41.5	-42.6	22.1	0.00e+00	0	27	0	340787200	60	6607
2026-01-04 19:53:35.12	28.85	12.00	-41.4	-42.5	22.1	0.00e+00	0	27	0	342884352	60	6508
2026-01-04 19:53:36.13	28.68	12.04	-41.5	-42.6	22.0	0.00e+00	0	27	0	344981504	60	6594
2026-01-04 19:53:37.14	28.50	12.08	-41.3	-42.4	22.3	0.00e+00	0	27	0	347078656	60	6406
2026-01-04 19:53:38.15	28.32	12.12	-41.1	-42.1	22.4	0.00e+00	0	27	0	348127232	60	6228
2026-01-04 19:53:39.16	28.15	12.16	-41.0	-42.1	22.6	0.00e+00	0	27	0	350224384	60	6175
2026-01-04 19:53:40.17	27.97	12.20	-41.0	-42.0	22.6	0.00e+00	0	27	0	352321536	60	6136
2026-01-04 19:53:41.18	27.79	12.24	-41.0	-42.1	22.5	0.00e+00	0	27	0	354418688	60	6183
2026-01-04 19:53:42.20	27.61	12.28	-41.4	-42.5	22.2	0.00e+00	0	27	0	356515840	60	6493
2026-01-04 19:53:43.21	27.43	12.31	-41.4	-42.5	22.2	0.00e+00	0	27	0	357564416	60	6526
2026-01-04 19:53:44.22	27.25	12.35	-41.6	-42.8	22.0	0.00e+00	0	27	0	359661568	60	6712
2026-01-04 19:53:45.23	27.07	12.39	-41.4	-42.5	22.2	0.00e+00	0	27	0	361758720	60	6517
2026-01-04 19:53:46.24	26.89	12.43	-41.4	-42.5	22.2	0.00e+00	0	27	0	363855872	60	6527
2026-01-04 19:53:47.25	26.71	12.47	-41.5	-42.6	22.2	0.00e+00	0	27	0	365953024	60	6568
2026-01-04 19:53:48.26	26.53	12.50	-41.2	-42.3	22.4	0.00e+00	0	27	0	367001600	60	6381
2026-01-04 19:53:49.27	26.35	12.54	-41.0	-42.0	22.6	0.00e+00	0	27	0	369098752	60	6163
2026-01-04 19:53:50.29	26.17	12.58	-40.8	-41.9	22.6	0.00e+00	0	27	0	371195904	60	6039
2026-01-04 19:53:51.30	25.98	12.61	-40.6	-41.6	22.9	0.00e+00	0	27	0	373293056	60	5859
2026-01-04 19:53:52.31	25.80	12.65	-40.6	-41.6	23.0	0.00e+00	0	27	0	375390208	60	5842
2026-01-04 19:53:53.32	25.62	12.69	-40.7	-41.7	22.8	0.00e+00	0	27	0	376438784	60	5928
2026-01-04 19:53:54.33	25.43	12.72	-40.8	-41.8	22.7	0.00e+00	0	27	0	378535936	60	6008
2026-01-04 19:53:55.34	25.25	12.76	-40.9	-41.9	22.7	0.00e+00	0	27	0	380633088	60	6090
2026-01-04 19:53:56.07	25.11	12.79	-40.9	-41.9	22.5	0.00e+00	0	27	0	382730240	60	6103
2026-01-04 19:53:57.37	24.88	12.83	-41.1	-42.1	22.5	0.00e+00	0	27	0	384827392	60	6215
2026-01-04 19:53:58.09	24.74	12.86	-41.0	-42.1	22.5	0.00e+00	0	27	0	386924544	60	6190
2026-01-04 19:53:59.39	24.50	12.90	-40.9	-42.0	22.6	0.00e+00	0	27	0	389021696	60	6114
2026-01-04 19:54:00.12	24.37	12.93	-40.9	-42.0	22.7	0.00e+00	0	27	0	390070272	60	6123
2026-01-04 19:54:01.42	24.13	12.97	-41.0	-42.0	22.6	0.00e+00	0	27	0	393216000	60	6170
2026-01-04 19:54:02.14	23.99	12.99	-40.9	-42.0	22.5	0.00e+00	0	27	0	394264576	60	6108
2026-01-04 19:54:03.44	23.75	13.04	-40.9	-42.0	22.6	0.00e+00	0	27	0	396361728	60	6119
2026-01-04 19:54:04.16	23.62	13.06	-40.8	-41.8	22.6	0.00e+00	0	27	0	397410304	60	6007
2026-01-04 19:54:05.46	23.37	13.10	-40.8	-41.8	22.6	0.00e+00	0	27	0	400556032	60	6023
2026-01-04 19:54:06.18	23.24	13.13	-41.0	-42.0	22.6	0.00e+00	0	27	0	401604608	60	6152
2026-01-04 19:54:07.48	23.00	13.17	-41.4	-42.5	22.1	0.00e+00	0	27	0	403701760	60	6510
2026-01-04 19:54:08.21	22.86	13.19	-41.7	-42.9	21.9	0.00e+00	0	27	0	405798912	60	6837
2026-01-04 19:54:09.51	22.61	13.24	-42.1	-43.3	21.5	0.00e+00	0	27	0	407896064	60	7147
2026-01-04 19:54:10.23	22.48	13.26	-42.1	-43.4	21.5	0.00e+00	0	27	0	408944640	60	7207
2026-01-04 19:54:11.53	22.23	13.30	-42.0	-43.3	21.6	0.00e+00	0	27	0	412090368	60	7093
2026-01-04 19:54:12.25	22.09	13.32	-41.5	-42.6	21.9	0.00e+00	0	27	0	413138944	60	6614
2026-01-04 19:54:13.55	21.85	13.36	-41.1	-42.2	22.4	0.00e+00	0	27	0	415236096	60	6268
2026-01-04 19:54:14.27	21.71	13.38	-40.8	-41.9	22.7	0.00e+00	0	27	0	416284672	60	6066
2026-01-04 19:54:15.57	21.46	13.42	-40.7	-41.7	22.7	0.00e+00	0	27	0	419430400	60	5955
2026-01-04 19:54:16.29	21.32	13.44	-40.6	-41.6	22.9	0.00e+00	0	27	0	420478976	60	5831
2026-01-04 19:54:17.59	21.07	13.48	-40.4	-41.3	23.1	0.00e+00	0	27	0	422576128	60	5682
2026-01-04 19:54:18.31	20.94	13.50	-40.3	-41.2	22.7	0.00e+00	0	27	0	424673280	58	6299
2026-01-04 19:54:19.61	20.68	13.54	-39.7	-40.6	23.6	0.00e+00	0	27	0	426770432	58	5859
2026-01-04 19:54:20.34	20.54	13.56	-39.7	-40.6	23.6	0.00e+00	0	27	0	427819008	58	5832
2026-01-04 19:54:21.64	20.29	13.60	-39.9	-40.8	23.4	0.00e+00	0	27	0	430964736	58	6028
2026-01-04 19:54:22.36	20.15	13.62	-40.1	-41.0	23.3	0.00e+00	0	27	0	432013312	58	6133
2026-01-04 19:54:23.66	19.90	13.66	-40.4	-41.4	23.0	0.00e+00	0	27	0	434110464	58	6425
2026-01-04 19:54:24.38	19.76	13.68	-40.4	-41.4	23.0	0.00e+00	0	27	0	436207616	58	6420
2026-01-04 19:54:25.68	19.51	13.71	-40.5	-41.5	22.9	0.00e+00	0	27	0	438304768	58	6477
2026-01-04 19:54:26.40	19.37	13.73	-39.9	-40.8	23.4	0.00e+00	0	27	0	439353344	58	6001
2026-01-04 19:54:27.70	19.11	13.77	-39.9	-40.8	23.5	0.00e+00	0	27	0	441450496	58	6002
2026-01-04 19:54:28.42	18.97	13.79	-39.9	-40.8	23.4	0.00e+00	0	27	0	443547648	58	5988
2026-01-04 19:54:29.72	18.72	13.82	-39.9	-40.8	23.4	0.00e+00	0	27	0	445644800	58	6026
2026-01-04 19:54:30.44	18.57	13.84	-40.1	-41.0	23.2	0.00e+00	0	27	0	446693376	58	6171
2026-01-04 19:54:31.74	18.32	13.87	-40.3	-41.3	22.8	0.00e+00	0	27	0	449839104	58	6353
2026-01-04 19:54:32.47	18.17	13.89	-40.6	-41.6	22.8	0.00e+00	0	27	0	450887680	58	6593
2026-01-04 19:54:33.76	17.92	13.92	-41.0	-42.1	22.5	0.00e+00	0	27	0	452984832	58	6933
2026-01-04 19:54:34.49	17.77	13.94	-41.2	-42.3	22.4	0.00e+00	0	27	0	455081984	60	6363
2026-01-04 19:54:35.79	17.52	13.97	-41.1	-42.2	22.5	0.00e+00	0	27	0	457179136	60	6291
2026-01-04 19:54:36.51	17.37	13.99	-41.1	-42.1	22.5	0.00e+00	0	27	0	458227712	60	6240
2026-01-04 19:54:37.81	17.11	14.02	-41.5	-42.6	22.2	0.00e+00	0	27	0	461373440	60	6550
2026-01-04 19:54:38.53	16.97	14.04	-41.6	-42.8	22.0	0.00e+00	0	27	0	462422016	60	6706
2026-01-04 19:54:39.83	16.71	14.07	-41.7	-42.8	21.9	0.00e+00	0	27	0	464519168	60	6736
2026-01-04 19:54:40.56	16.56	14.08	-41.8	-43.0	21.8	0.00e+00	0	27	0	465567744	60	6872
2026-01-04 19:54:41.86	16.30	14.11	-41.8	-43.0	21.8	0.00e+00	0	27	0	468713472	60	6853
2026-01-04 19:54:42.58	16.16	14.13	-41.7	-42.8	22.0	0.00e+00	0	27	0	469762048	60	6753
2026-01-04 19:54:43.88	15.90	14.16	-41.7	-42.8	21.5	0.00e+00	0	27	0	471859200	60	6744
2026-01-04 19:54:44.60	15.75	14.17	-41.6	-42.8	22.0	0.00e+00	0	27	0	473956352	60	6694
2026-01-04 19:54:45.90	15.49	14.20	-41.6	-42.7	22.1	0.00e+00	0	27	0	476053504	60	6663
2026-01-04 19:54:46.62	15.35	14.21	-41.8	-43.0	21.7	0.00e+00	0	27	0	477102080	60	6872
2026-01-04 19:54:47.92	15.08	14.24	-42.1	-43.3	21.5	0.00e+00	0	27	0	480247808	60	7135
2026-01-04 19:54:48.64	14.94	14.25	-41.5	-42.6	22.1	0.00e+00	0	27	0	481296384	60	6607
2026-01-04 19:54:49.94	14.67	14.28	-41.4	-42.5	22.2	0.00e+00	0	27	0	483393536	60	6498
2026-01-04 19:54:50.67	14.53	14.29	-41.2	-42.3	22.4	0.00e+00	0	27	0	485490688	60	6356
2026-01-04 19:54:51.97	14.26	14.32	-40.9	-41.9	22.7	0.00e+00	0	27	0	487587840	60	6101
2026-01-04 19:54:52.69	14.11	14.33	-40.8	-41.8	22.7	0.00e+00	0	27	0	488636416	60	6032
2026-01-04 19:54:53.99	13.85	14.35	-40.7	-41.7	22.8	0.00e+00	0	27	0	490733568	60	5946
2026-01-04 19:54:54.71	13.70	14.37	-40.8	-41.7	22.8	0.00e+00	0	27	0	492830720	60	5961
2026-01-04 19:54:56.01	13.44	14.39	-40.6	-41.5	22.9	0.00e+00	0	27	0	494927872	60	5816
2026-01-04 19:54:56.73	13.29	14.40	-40.4	-41.4	23.1	0.00e+00	0	27	0	495976448	60	5705
2026-01-04 19:54:58.03	13.02	14.42	-40.3	-41.2	23.1	0.00e+00	0	27	0	499122176	60	5622
2026-01-04 19:54:58.75	12.88	14.44	-40.1	-41.1	23.2	0.00e+00	0	27	0	500170752	58	6191
2026-01-04 19:55:00.05	12.61	14.46	-40.5	-41.5	22.9	0.00e+00	0	27	0	502267904	58	6471
2026-01-04 19:55:00.78	12.46	14.47	-40.6	-41.6	22.9	0.00e+00	0	27	0	504365056	58	6596
2026-01-04 19:55:02.08	12.19	14.49	-41.0	-42.0	22.6	0.00e+00	0	27	0	506462208	58	6925
2026-01-04 19:55:02.80	12.04	14.50	-40.9	-42.0	22.7	0.00e+00	0	27	0	507510784	58	6867
2026-01-04 19:55:04.10	11.78	14.52	-41.2	-42.2	22.3	0.00e+00	0	27	0	510656512	60	6317
2026-01-04 19:55:04.82	11.63	14.53	-41.2	-42.3	22.4	0.00e+00	0	27	0	511705088	60	6380
2026-01-04 19:55:06.12	11.36	14.55	-41.2	-42.3	22.5	0.00e+00	0	27	0	513802240	60	6318
2026-01-04 19:55:06.85	11.21	14.56	-41.1	-42.1	22.5	0.00e+00	0	27	0	514850816	60	6237
2026-01-04 19:55:08.15	10.94	14.57	-41.0	-42.1	22.6	0.00e+00	0	27	0	517996544	60	6209
2026-01-04 19:55:08.87	10.79	14.58	-40.8	-41.9	22.5	0.00e+00	0	27	0	519045120	60	6036
2026-01-04 19:55:10.17	10.52	14.60	-40.8	-41.8	22.8	0.00e+00	0	27	0	521142272	60	6002
2026-01-04 19:55:10.89	10.37	14.61	-40.7	-41.7	22.8	0.00e+00	0	27	0	523239424	60	5916
2026-01-04 19:55:12.19	10.10	14.62	-41.0	-42.1	22.4	0.00e+00	0	27	0	525336576	60	6203
2026-01-04 19:55:12.91	9.95	14.63	-41.1	-42.2	22.4	0.00e+00	0	27	0	526385152	60	6282
2026-01-04 19:55:14.21	9.68	14.64	-41.3	-42.4	22.3	0.00e+00	0	27	0	529530880	60	6431
2026-01-04 19:55:14.93	9.53	14.65	-41.5	-42.6	22.1	0.00e+00	0	27	0	530579456	60	6556
2026-01-04 19:55:16.23	9.26	14.67	-41.2	-42.3	22.4	0.00e+00	0	27	0	532676608	60	6318
2026-01-04 19:55:16.96	9.11	14.67	-40.9	-42.0	22.7	0.00e+00	0	27	0	534773760	60	6116
2026-01-04 19:55:18.26	8.84	14.68	-41.1	-42.1	22.5	0.00e+00	0	27	0	536870912	60	6232
2026-01-04 19:55:18.98	8.69	14.69	-41.2	-42.2	22.4	0.00e+00	0	27	0	537919488	60	6309
2026-01-04 19:55:20.28	8.42	14.70	-41.0	-42.1	22.4	0.00e+00	0	27	0	541065216	60	6216
2026-01-04 19:55:21.00	8.27	14.71	-40.9	-42.0	22.5	0.00e+00	0	27	0	542113792	60	6122
2026-01-04 19:55:22.30	8.00	14.72	-41.0	-42.0	22.5	0.00e+00	0	27	0	544210944	60	6171
2026-01-04 19:55:23.02	7.85	14.72	-40.9	-42.0	22.7	0.00e+00	0	27	0	545259520	60	6115
2026-01-04 19:55:24.32	7.57	14.73	-40.7	-41.7	22.8	0.00e+00	0	27	0	548405248	60	5946
2026-01-04 19:55:25.04	7.42	14.74	-40.7	-41.8	22.7	0.00e+00	0	27	0	549453824	60	5978
2026-01-04 19:55:26.34	7.15	14.75	-40.6	-41.6	22.9	0.00e+00	0	27	0	551550976	60	5880
2026-01-04 19:55:27.07	7.00	14.75	-41.0	-42.0	22.7	0.00e+00	0	27	0	553648128	60	6157
2026-01-04 19:55:28.37	6.73	14.76	-40.7	-41.7	22.8	0.00e+00	0	27	0	555745280	60	5958
2026-01-04 19:55:29.09	6.57	14.76	-40.8	-41.8	22.8	0.00e+00	0	27	0	556793856	60	6029
2026-01-04 19:55:30.39	6.30	14.77	-40.9	-42.0	22.6	0.00e+00	0	27	0	559939584	60	6124
2026-01-04 19:55:31.11	6.15	14.77	-40.8	-41.8	22.7	0.00e+00	0	27	0	560988160	60	6014
2026-01-04 19:55:32.41	5.88	14.78	-40.9	-41.9	22.6	0.00e+00	0	27	0	563085312	60	6101
2026-01-04 19:55:33.13	5.73	14.78	-40.9	-42.0	22.6	0.00e+00	0	27	0	564133888	60	6116
2026-01-04 19:55:34.43	5.45	14.78	-40.9	-42.0	22.7	0.00e+00	0	27	0	567279616	60	6104
2026-01-04 19:55:35.15	5.30	14.78	-41.0	-42.0	22.6	0.00e+00	0	27	0	568328192	60	6165
2026-01-04 19:55:36.46	5.03	14.79	-41.2	-42.3	22.5	0.00e+00	0	27	0	570425344	60	6350
2026-01-04 19:55:37.18	4.88	14.79	-41.1	-42.2	22.3	0.00e+00	0	27	0	572522496	60	6307
2026-01-04 19:55:38.48	4.60	14.79	-41.2	-42.3	22.4	0.00e+00	0	27	0	574619648	60	6374
2026-01-04 19:55:39.20	4.45	14.79	-41.3	-42.4	22.4	0.00e+00	0	27	0	575668224	60	6412
2026-01-04 19:55:40.50	4.18	14.79	-41.2	-42.3	22.4	0.00e+00	0	27	0	578813952	60	6325
2026-01-04 19:55:41.22	4.03	14.79	-40.9	-41.9	22.6	0.00e+00	0	27	0	579862528	60	6081
2026-01-04 19:55:42.52	3.76	14.79	-40.8	-41.8	22.9	0.00e+00	0	27	0	581959680	60	5984
2026-01-04 19:55:43.24	3.60	14.79	-40.6	-41.6	22.8	0.00e+00	0	27	0	584056832	60	5877
2026-01-04 19:55:44.54	3.33	14.79	-40.5	-41.5	23.0	0.00e+00	0	27	0	586153984	60	5780
2026-01-04 19:55:45.26	3.18	14.79	-40.6	-41.6	22.9	0.00e+00	0	27	0	587202560	60	5860
2026-01-04 19:55:46.56	2.91	14.79	-40.5	-41.5	22.9	0.00e+00	0	27	0	589299712	60	5768
2026-01-04 19:55:47.28	2.76	14.79	-40.7	-41.8	22.8	0.00e+00	0	27	0	591396864	60	5979
2026-01-04 19:55:48.58	2.48	14.78	-40.9	-41.9	22.7	0.00e+00	0	27	0	593494016	60	6081
2026-01-04 19:55:49.31	2.33	14.78	-41.0	-42.1	22.5	0.00e+00	0	27	0	594542592	60	6232
2026-01-04 19:55:50.61	2.06	14.78	-41.0	-42.1	22.4	0.00e+00	0	27	0	597688320	60	6198
2026-01-04 19:55:51.33	1.91	14.78	-41.2	-42.3	22.3	0.00e+00	0	27	0	598736896	60	6343
2026-01-04 19:55:52.63	1.63	14.77	-41.4	-42.5	22.2	0.00e+00	0	27	0	600834048	60	6486
2026-01-04 19:55:53.35	1.48	14.77	-41.3	-42.4	22.2	0.00e+00	0	27	0	602931200	60	6437
2026-01-04 19:55:54.65	1.21	14.76	-41.1	-42.2	22.3	0.00e+00	0	27	0	605028352	60	6265
2026-01-04 19:55:55.37	1.06	14.76	-41.2	-42.2	22.4	0.00e+00	0	27	0	606076928	60	6316
2026-01-04 19:55:56.67	0.79	14.75	-41.3	-42.4	21.6	0.00e+00	0	27	0	609222656	60	6438
2026-01-04 19:55:57.39	0.64	14.75	-41.4	-42.6	21.8	0.00e+00	0	27	0	610271232	60	6546
2026-01-04 19:55:58.69	0.36	14.74	-41.7	-42.8	21.9	0.00e+00	0	27	0	612368384	60	6727
2026-01-04 19:55:59.41	0.21	14.73	-41.6	-42.7	21.9	0.00e+00	0	27	0	613416960	60	6689
2026-01-04 19:56:00.72	359.94	14.73	-42.0	-43.1	21.6	0.00e+00	0	27	0	616562688	60	6996
2026-01-04 19:56:01.44	359.79	14.72	-41.6	-42.8	21.8	0.00e+00	0	27	0	617611264	60	6708
2026-01-04 19:56:02.74	359.52	14.71	-41.3	-42.4	22.2	0.00e+00	0	27	0	619708416	60	6448
2026-01-04 19:56:03.46	359.37	14.70	-41.3	-42.3	22.2	0.00e+00	0	27	0	621805568	60	6387
2026-01-04 19:56:04.76	359.09	14.69	-41.1	-42.1	22.4	0.00e+00	0	27	0	623902720	60	6232
2026-01-04 19:56:05.48	358.94	14.69	-40.7	-41.8	22.7	0.00e+00	0	27	0	624951296	60	5983
2026-01-04 19:56:06.78	358.67	14.68	-40.8	-41.8	22.8	0.00e+00	0	27	0	628097024	60	6011
2026-01-04 19:56:07.51	358.52	14.67	-40.7	-41.8	22.7	0.00e+00	0	27	0	629145600	60	5989
2026-01-04 19:56:08.80	358.25	14.66	-40.6	-41.6	22.9	0.00e+00	0	27	0	631242752	60	5854
2026-01-04 19:56:09.53	358.10	14.65	-40.7	-41.7	22.7	0.00e+00	0	27	0	633339904	60	5914
2026-01-04 19:56:10.83	357.83	14.63	-40.7	-41.7	22.8	0.00e+00	0	27	0	635437056	60	5907
2026-01-04 19:56:11.55	357.68	14.63	-40.9	-41.9	22.6	0.00e+00	0	27	0	636485632	60	6073
2026-01-04 19:56:12.85	357.41	14.61	-41.2	-42.3	22.4	0.00e+00	0	27	0	638582784	60	6360
2026-01-04 19:56:13.57	357.26	14.60	-41.0	-42.1	22.5	0.00e+00	0	27	0	640679936	60	6207
2026-01-04 19:56:14.87	356.99	14.59	-41.0	-42.1	22.5	0.00e+00	0	27	0	642777088	60	6216
2026-01-04 19:56:15.59	356.84	14.58	-41.2	-42.3	22.4	0.00e+00	0	27	0	643825664	60	6322
2026-01-04 19:56:16.89	356.57	14.56	-40.7	-41.7	22.8	0.00e+00	0	27	0	646971392	60	5907
2026-01-04 19:56:17.62	356.42	14.55	-40.5	-41.5	23.0	0.00e+00	0	27	0	648019968	60	5805
2026-01-04 19:56:18.92	356.16	14.53	-40.4	-41.3	23.1	0.00e+00	0	27	0	650117120	58	6381
2026-01-04 19:56:19.64	356.01	14.52	-40.2	-41.1	23.2	0.00e+00	0	27	0	652214272	58	6212
2026-01-04 19:56:20.94	355.74	14.50	-40.0	-40.9	23.2	0.00e+00	0	27	0	654311424	58	6060
2026-01-04 19:56:21.66	355.59	14.49	-40.2	-41.2	23.1	0.00e+00	0	27	0	655360000	58	6277
2026-01-04 19:56:22.96	355.32	14.47	-40.3	-41.3	23.0	0.00e+00	0	27	0	658505728	58	6323
2026-01-04 19:56:23.68	355.18	14.46	-40.2	-41.2	23.2	0.00e+00	0	27	0	659554304	58	6252
2026-01-04 19:56:24.98	354.91	14.44	-40.5	-41.5	23.0	0.00e+00	0	27	0	661651456	58	6484
2026-01-04 19:56:25.70	354.76	14.43	-40.5	-41.4	23.0	0.00e+00	0	27	0	662700032	58	6458
2026-01-04 19:56:27.00	354.50	14.41	-40.5	-41.5	22.8	0.00e+00	0	27	0	665845760	58	6474
2026-01-04 19:56:27.72	354.35	14.40	-40.7	-41.7	22.7	0.00e+00	0	27	0	666894336	58	6668
2026-01-04 19:56:29.02	354.08	14.37	-40.7	-41.7	22.6	0.00e+00	0	27	0	668991488	58	6687
2026-01-04 19:56:29.75	353.93	14.36	-40.9	-42.0	22.5	0.00e+00	0	27	0	671088640	58	6893
2026-01-04 19:56:31.04	353.67	14.34	-41.1	-42.1	22.3	0.00e+00	0	27	0	673185792	58	6990
2026-01-04 19:56:31.77	353.52	14.32	-41.3	-42.4	22.3	0.00e+00	0	27	0	674234368	60	6413
2026-01-04 19:56:33.07	353.26	14.30	-41.0	-42.1	22.4	0.00e+00	0	27	0	677380096	60	6190
2026-01-04 19:56:33.79	353.11	14.29	-41.0	-42.1	22.3	0.00e+00	0	27	0	678428672	60	6214
2026-01-04 19:56:35.09	352.85	14.26	-41.2	-42.3	22.3	0.00e+00	0	27	0	680525824	60	6378
2026-01-04 19:56:35.81	352.70	14.25	-41.3	-42.4	22.5	0.00e+00	0	27	0	682622976	60	6430
2026-01-04 19:56:37.11	352.44	14.22	-41.1	-42.1	22.4	0.00e+00	0	27	0	684720128	60	6245
2026-01-04 19:56:37.83	352.29	14.20	-41.0	-42.0	22.5	0.00e+00	0	27	0	685768704	60	6160
2026-01-04 19:56:39.13	352.03	14.18	-40.9	-42.0	22.6	0.00e+00	0	27	0	688914432	60	6129
2026-01-04 19:56:39.86	351.89	14.16	-41.0	-42.0	22.5	0.00e+00	0	27	0	689963008	60	6160
2026-01-04 19:56:41.15	351.63	14.13	-40.7	-41.7	22.8	0.00e+00	0	27	0	692060160	60	5926
2026-01-04 19:56:41.88	351.48	14.12	-40.6	-41.6	22.9	0.00e+00	0	27	0	693108736	60	5855
2026-01-04 19:56:43.18	351.22	14.09	-40.4	-41.4	23.0	0.00e+00	0	27	0	696254464	60	5747
2026-01-04 19:56:43.90	351.07	14.07	-40.6	-41.6	22.9	0.00e+00	0	27	0	697303040	60	5851
2026-01-04 19:56:45.20	350.82	14.04	-40.4	-41.4	22.9	0.00e+00	0	27	0	699400192	60	5741
2026-01-04 19:56:45.92	350.67	14.03	-40.6	-41.6	22.7	0.00e+00	0	27	0	701497344	60	5846
2026-01-04 19:56:47.22	350.41	14.00	-40.8	-41.8	22.7	0.00e+00	0	27	0	703594496	60	5980
2026-01-04 19:56:47.95	350.27	13.98	-40.7	-41.7	22.7	0.00e+00	0	27	0	704643072	60	5916
2026-01-04 19:56:49.24	350.01	13.95	-40.5	-41.4	23.0	0.00e+00	0	27	0	707788800	60	5753
2026-01-04 19:56:49.97	349.87	13.93	-40.3	-41.3	23.0	0.00e+00	0	27	0	708837376	60	5650
2026-01-04 19:56:51.27	349.61	13.90	-40.6	-41.6	22.9	0.00e+00	0	27	0	710934528	60	5870
2026-01-04 19:56:51.99	349.47	13.88	-40.5	-41.5	23.0	0.00e+00	0	27	0	711983104	60	5795
2026-01-04 19:56:53.29	349.21	13.85	-40.7	-41.7	22.7	0.00e+00	0	27	0	715128832	60	5938
2026-01-04 19:56:54.01	349.07	13.83	-40.8	-41.8	22.6	0.00e+00	0	27	0	716177408	60	6023
2026-01-04 19:56:55.31	348.81	13.79	-41.1	-42.2	22.4	0.00e+00	0	27	0	718274560	60	6263
2026-01-04 19:56:56.03	348.67	13.78	-41.1	-42.1	22.5	0.00e+00	0	27	0	720371712	60	6215
2026-01-04 19:56:57.33	348.42	13.74	-41.2	-42.3	22.3	0.00e+00	0	27	0	722468864	60	6337
2026-01-04 19:56:58.05	348.28	13.72	-41.2	-42.2	22.4	0.00e+00	0	27	0	723517440	60	6308
2026-01-04 19:56:59.35	348.02	13.69	-41.0	-42.1	22.5	0.00e+00	0	27	0	726663168	60	6207
2026-01-04 19:57:00.08	347.88	13.67	-40.9	-42.0	22.5	0.00e+00	0	27	0	727711744	60	6148
2026-01-04 19:57:01.38	347.63	13.63	-41.1	-42.2	22.4	0.00e+00	0	27	0	729808896	60	6252
2026-01-04 19:57:02.10	347.49	13.61	-40.9	-42.0	22.4	0.00e+00	0	27	0	731906048	60	6129
2026-01-04 19:57:03.40	347.24	13.57	-41.0	-42.1	22.5	0.00e+00	0	27	0	734003200	60	6236
2026-01-04 19:57:04.12	347.10	13.55	-41.2	-42.3	22.3	0.00e+00	0	27	0	735051776	60	6339
2026-01-04 19:57:05.42	346.85	13.51	-41.3	-42.4	22.2	0.00e+00	0	27	0	738197504	60	6427
2026-01-04 19:57:06.14	346.71	13.49	-41.1	-42.2	22.4	0.00e+00	0	27	0	739246080	60	6306
2026-01-04 19:57:07.44	346.46	13.45	-41.3	-42.4	22.3	0.00e+00	0	27	0	741343232	60	6445
2026-01-04 19:57:08.16	346.32	13.43	-41.3	-42.4	22.3	0.00e+00	0	27	0	742391808	60	6415
2026-01-04 19:57:09.46	346.08	13.39	-41.2	-42.3	22.4	0.00e+00	0	27	0	745537536	60	6356
2026-01-04 19:57:10.19	345.94	13.37	-41.1	-42.2	22.3	0.00e+00	0	27	0	746586112	60	6262
2026-01-04 19:57:11.49	345.69	13.33	-41.2	-42.3	22.2	0.00e+00	0	27	0	748683264	60	6320
2026-01-04 19:57:12.21	345.55	13.31	-41.0	-42.1	22.5	0.00e+00	0	27	0	750780416	60	6183
2026-01-04 19:57:13.51	345.31	13.27	-41.0	-42.0	22.6	0.00e+00	0	27	0	752877568	60	6149
2026-01-04 19:57:14.23	345.17	13.25	-41.0	-42.1	22.5	0.00e+00	0	27	0	753926144	60	6205
2026-01-04 19:57:15.53	344.92	13.20	-40.7	-41.7	22.7	0.00e+00	0	27	0	757071872	60	5954
2026-01-04 19:57:16.25	344.79	13.18	-41.0	-42.1	22.5	0.00e+00	0	27	0	758120448	60	6187
2026-01-04 19:57:17.55	344.54	13.14	-40.9	-42.0	22.5	0.00e+00	0	27	0	760217600	60	6108
2026-01-04 19:57:18.28	344.41	13.11	-40.9	-41.9	22.6	0.00e+00	0	27	0	762314752	60	6092
2026-01-04 19:57:19.58	344.16	13.07	-41.5	-42.6	21.8	0.00e+00	0	27	0	764411904	60	6610
2026-01-04 19:57:20.30	344.03	13.05	-41.1	-42.2	22.4	0.00e+00	0	27	0	765460480	60	6277
2026-01-04 19:57:21.60	343.79	13.00	-40.7	-41.7	22.9	0.00e+00	0	27	0	767557632	60	5907
2026-01-04 19:57:22.32	343.65	12.98	-40.5	-41.5	22.9	0.00e+00	0	27	0	769654784	60	5796
2026-01-04 19:57:23.62	343.41	12.94	-40.4	-41.4	23.2	0.00e+00	0	27	0	771751936	60	5727
2026-01-04 19:57:24.34	343.28	12.91	-40.0	-41.0	23.3	0.00e+00	0	27	0	772800512	58	6120
2026-01-04 19:57:25.64	343.04	12.87	-40.4	-41.4	22.9	0.00e+00	0	27	0	775946240	58	6450
2026-01-04 19:57:26.36	342.91	12.84	-40.4	-41.4	22.9	0.00e+00	0	27	0	776994816	58	6419
2026-01-04 19:57:27.66	342.67	12.80	-40.2	-41.2	23.0	0.00e+00	0	27	0	779091968	58	6250
2026-01-04 19:57:28.39	342.54	12.77	-40.8	-41.8	22.6	0.00e+00	0	27	0	781189120	58	6742
2026-01-04 19:57:29.69	342.30	12.72	-40.9	-42.0	22.5	0.00e+00	0	27	0	783286272	58	6857
2026-01-04 19:57:30.41	342.17	12.70	-40.8	-41.8	22.1	0.00e+00	0	27	0	784334848	58	6758
2026-01-04 19:57:31.71	341.93	12.65	-41.3	-42.4	22.3	0.00e+00	0	27	0	786432000	60	6449
2026-01-04 19:57:32.43	341.80	12.63	-41.3	-42.4	22.1	0.00e+00	0	27	0	788529152	60	6451
2026-01-04 19:57:33.73	341.57	12.58	-41.3	-42.4	22.1	0.00e+00	0	27	0	790626304	60	6436
2026-01-04 19:57:34.45	341.44	12.55	-41.3	-42.4	22.1	0.00e+00	0	27	0	791674880	60	6401
2026-01-04 19:57:35.75	341.20	12.50	-41.8	-43.0	21.7	0.00e+00	0	27	0	794820608	60	6925
2026-01-04 19:57:36.48	341.07	12.48	-42.2	-43.4	21.5	0.00e+00	0	27	0	795869184	60	7245
2026-01-04 19:57:37.78	340.84	12.43	-41.9	-43.2	21.5	0.00e+00	0	27	0	797966336	60	7024
2026-01-04 19:57:38.50	340.71	12.40	-41.8	-43.0	21.8	0.00e+00	0	27	0	800063488	60	6857
2026-01-04 19:57:39.80	340.48	12.35	-41.7	-42.9	21.8	0.00e+00	0	27	0	802160640	60	6815
2026-01-04 19:57:40.52	340.35	12.33	-41.6	-42.7	21.9	0.00e+00	0	27	0	803209216	60	6673
2026-01-04 19:57:41.82	340.12	12.28	-41.5	-42.6	21.9	0.00e+00	0	27	0	806354944	60	6571
2026-01-04 19:57:42.54	339.99	12.25	-41.4	-42.6	22.0	0.00e+00	0	27	0	807403520	60	6547
2026-01-04 19:57:43.84	339.77	12.20	-41.4	-42.5	22.0	0.00e+00	0	27	0	809500672	60	6534
2026-01-04 19:57:44.56	339.64	12.17	-41.6	-42.7	22.0	0.00e+00	0	27	0	810549248	60	6650
2026-01-04 19:57:45.86	339.41	12.12	-41.5	-42.7	21.7	0.00e+00	0	27	0	813694976	60	6619
2026-01-04 19:57:46.58	339.29	12.09	-41.7	-42.9	21.7	0.00e+00	0	27	0	814743552	60	6818
2026-01-04 19:57:47.88	339.06	12.04	-41.6	-42.8	21.8	0.00e+00	0	27	0	816840704	60	6737
2026-01-04 19:57:48.61	338.93	12.01	-42.1	-43.3	21.4	0.00e+00	0	27	0	818937856	60	7139
2026-01-04 19:57:49.91	338.71	11.96	-41.9	-43.1	21.5	0.00e+00	0	27	0	821035008	60	6992
2026-01-04 19:57:50.63	338.58	11.93	-42.0	-43.2	21.5	0.00e+00	0	27	0	822083584	60	7031
2026-01-04 19:57:51.93	338.36	11.88	-42.3	-43.6	21.5	0.00e+00	0	27	0	825229312	60	7339
2026-01-04 19:57:52.65	338.23	11.85	-42.1	-43.3	21.3	0.00e+00	0	27	0	826277888	60	7100
2026-01-04 19:57:53.95	338.01	11.80	-42.4	-43.7	21.1	0.00e+00	0	27	0	828375040	60	7453
2026-01-04 19:57:54.67	337.89	11.77	-42.5	-43.8	21.0	0.00e+00	0	27	0	830472192	60	7540
2026-01-04 19:57:55.97	337.67	11.72	-43.2	-44.6	20.3	0.00e+00	0	27	0	832569344	60	8291
2026-01-04 19:57:56.69	337.55	11.69	-43.1	-44.5	20.4	0.00e+00	0	27	0	833617920	60	8211
2026-01-04 19:57:57.99	337.33	11.63	-42.8	-44.1	20.7	0.00e+00	0	27	0	836763648	60	7782
2026-01-04 19:57:58.72	337.20	11.60	-43.3	-44.7	20.3	0.00e+00	0	27	0	837812224	60	8374
2026-01-04 19:58:00.02	336.98	11.55	-43.1	-44.5	20.5	0.00e+00	0	27	0	839909376	60	8151
2026-01-04 19:58:00.74	336.86	11.52	-42.2	-43.4	21.3	0.00e+00	0	27	0	840957952	60	7200
2026-01-04 19:58:02.04	336.64	11.46	-41.8	-42.9	21.7	0.00e+00	0	27	0	844103680	60	6828
2026-01-04 19:58:02.76	336.52	11.43	-41.8	-42.8	21.7	0.00e+00	0	27	0	845152256	60	6764
2026-01-04 19:58:04.06	336.31	11.38	-41.3	-42.3	22.2	0.00e+00	0	27	0	847249408	60	6364
2026-01-04 19:58:04.78	336.19	11.35	-41.2	-42.2	22.2	0.00e+00	0	27	0	849346560	60	6276
2026-01-04 19:58:06.08	335.97	11.29	-41.4	-42.4	22.2	0.00e+00	0	27	0	851443712	60	6438
2026-01-04 19:58:06.81	335.85	11.26	-41.4	-42.4	22.0	0.00e+00	0	27	0	852492288	60	6447
2026-01-04 19:58:08.11	335.64	11.21	-41.8	-42.9	21.7	0.00e+00	0	27	0	855638016	60	6839
2026-01-04 19:58:08.83	335.52	11.17	-42.1	-43.2	21.5	0.00e+00	0	27	0	856686592	60	7065
2026-01-04 19:58:10.13	335.31	11.12	-42.5	-43.7	21.1	0.00e+00	0	27	0	858783744	60	7508
2026-01-04 19:58:10.85	335.19	11.09	-42.7	-44.0	20.7	0.00e+00	0	27	0	859832320	60	7744
2026-01-04 19:58:12.15	334.98	11.03	-43.1	-44.5	20.3	0.00e+00	0	27	0	862978048	60	8183
2026-01-04 19:58:12.87	334.86	11.00	-42.9	-44.2	20.5	0.00e+00	0	27	0	864026624	60	7903
2026-01-04 19:58:14.17	334.65	10.94	-43.7	-45.2	19.8	0.00e+00	0	27	0	866123776	60	8890
2026-01-04 19:58:14.89	334.54	10.91	-43.0	-44.3	20.5	0.00e+00	0	27	0	868220928	60	8007
2026-01-04 19:58:16.19	334.33	10.85	-42.8	-44.1	20.7	0.00e+00	0	27	0	870318080	60	7795
2026-01-04 19:58:16.92	334.21	10.82	-42.5	-43.7	20.9	0.00e+00	0	27	0	871366656	60	7473
2026-01-04 19:58:18.22	334.01	10.76	-42.6	-43.8	20.7	0.00e+00	0	27	0	874512384	60	7570
2026-01-04 19:58:18.94	333.89	10.73	-42.3	-43.4	21.3	0.00e+00	0	27	0	875560960	60	7246
2026-01-04 19:58:20.24	333.68	10.67	-42.5	-43.8	20.9	0.00e+00	0	27	0	877658112	60	7519
2026-01-04 19:58:20.96	333.57	10.64	-42.8	-44.0	20.7	0.00e+00	0	27	0	879755264	60	7769
2026-01-04 19:58:22.26	333.37	10.58	-42.8	-44.1	20.6	0.00e+00	0	27	0	881852416	60	7808
2026-01-04 19:58:22.98	333.25	10.55	-43.2	-44.6	20.3	0.00e+00	0	27	0	882900992	60	8272
2026-01-04 19:58:24.28	333.05	10.49	-43.7	-45.2	19.7	0.00e+00	0	27	0	886046720	60	8861
2026-01-04 19:58:25.00	332.94	10.46	-44.0	-45.6	19.3	0.00e+00	0	27	0	887095296	60	9267
2026-01-04 19:58:26.31	332.73	10.40	-44.8	-46.6	18.4	0.00e+00	0	27	0	889192448	60	10390
2026-01-04 19:58:27.03	332.62	10.37	-44.8	-46.6	18.4	0.00e+00	0	27	0	890241024	60	10443
2026-01-04 19:58:28.33	332.42	10.31	-45.1	-47.0	17.9	0.00e+00	0	27	0	893386752	60	10911
2026-01-04 19:58:29.05	332.31	10.27	-44.6	-46.3	18.6	0.00e+00	0	27	0	894435328	60	10108
2026-01-04 19:58:30.35	332.11	10.21	-44.7	-46.5	18.5	0.00e+00	0	27	0	896532480	60	10302
2026-01-04 19:58:31.07	332.00	10.18	-44.3	-46.0	19.0	0.00e+00	0	27	0	898629632	60	9700
2026-01-04 19:58:32.37	331.80	10.12	-44.2	-45.9	18.8	0.00e+00	0	27	0	900726784	60	9600
2026-01-04 19:58:33.09	331.69	10.09	-43.9	-45.5	19.4	0.00e+00	0	27	0	901775360	60	9204
2026-01-04 19:58:34.39	331.50	10.03	-44.1	-45.7	19.3	0.00e+00	0	27	0	904921088	60	9349
2026-01-04 19:58:35.11	331.39	9.99	-43.9	-45.4	19.3	0.00e+00	0	27	0	905969664	60	9110
2026-01-04 19:58:36.42	331.19	9.93	-43.8	-45.3	19.4	0.00e+00	0	27	0	908066816	60	9025
2026-01-04 19:58:37.14	331.08	9.90	-44.0	-45.5	19.4	0.00e+00	0	27	0	910163968	60	9194
2026-01-04 19:58:38.44	330.89	9.84	-43.9	-45.4	19.6	0.00e+00	0	27	0	912261120	60	9065
2026-01-04 19:58:39.16	330.78	9.81	-43.7	-45.2	19.8	0.00e+00	0	27	0	913309696	60	8887
2026-01-04 19:58:40.46	330.59	9.74	-43.7	-45.1	19.8	0.00e+00	0	27	0	915406848	60	8791
2026-01-04 19:58:41.18	330.48	9.71	-43.5	-45.0	19.9	0.00e+00	0	27	0	917504000	60	8641
2026-01-04 19:58:42.48	330.29	9.65	-43.3	-44.7	20.3	0.00e+00	0	27	0	919601152	60	8349
2026-01-04 19:58:43.20	330.18	9.62	-43.5	-45.0	20.0	0.00e+00	0	27	0	920649728	60	8627
2026-01-04 19:58:44.50	329.99	9.55	-43.5	-45.0	20.0	0.00e+00	0	27	0	923795456	60	8628
2026-01-04 19:58:45.22	329.89	9.52	-43.4	-44.8	20.2	0.00e+00	0	27	0	924844032	60	8471
2026-01-04 19:58:46.52	329.70	9.46	-43.5	-44.9	20.0	0.00e+00	0	27	0	926941184	60	8595
2026-01-04 19:58:47.25	329.59	9.42	-43.5	-44.9	20.0	0.00e+00	0	27	0	929038336	60	8605
2026-01-04 19:58:48.54	329.41	9.36	-43.4	-44.9	20.0	0.00e+00	0	27	0	931135488	60	8526
2026-01-04 19:58:49.27	329.30	9.33	-43.5	-44.9	19.9	0.00e+00	0	27	0	932184064	60	8582
2026-01-04 19:58:50.57	329.11	9.26	-43.3	-44.7	20.1	0.00e+00	0	28	0	935329792	60	8341
2026-01-04 19:58:51.29	329.01	9.23	-43.0	-44.3	20.4	0.00e+00	0	27	0	936378368	60	8015
2026-01-04 19:58:52.59	328.82	9.17	-42.9	-44.2	20.4	0.00e+00	0	27	0	938475520	60	7941
2026-01-04 19:58:53.31	328.72	9.13	-42.9	-44.2	20.5	0.00e+00	0	27	0	939524096	60	7908
2026-01-04 19:58:54.61	328.54	9.07	-42.5	-43.8	20.9	0.00e+00	0	27	0	942669824	60	7512
2026-01-04 19:58:55.33	328.44	9.04	-42.4	-43.6	21.0	0.00e+00	0	27	0	943718400	60	7411
2026-01-04 19:58:56.63	328.25	8.97	-42.4	-43.7	20.9	0.00e+00	0	27	0	945815552	60	7445
2026-01-04 19:58:57.36	328.15	8.94	-42.4	-43.6	21.0	0.00e+00	0	27	0	947912704	60	7417
2026-01-04 19:58:58.66	327.97	8.87	-42.4	-43.7	20.9	0.00e+00	0	27	0	950009856	60	7448
2026-01-04 19:58:59.38	327.87	8.84	-42.5	-43.8	20.9	0.00e+00	0	27	0	951058432	60	7549
2026-01-04 19:59:00.68	327.69	8.78	-42.4	-43.7	20.9	0.00e+00	0	28	0	954204160	60	7436
2026-01-04 19:59:01.40	327.59	8.74	-42.4	-43.7	20.9	0.00e+00	0	27	0	955252736	60	7439
2026-01-04 19:59:02.70	327.41	8.68	-42.7	-44.0	20.6	0.00e+00	0	27	0	957349888	60	7708
2026-01-04 19:59:03.42	327.31	8.64	-43.0	-44.4	20.4	0.00e+00	0	27	0	959447040	60	8069
2026-01-04 19:59:04.72	327.13	8.58	-42.6	-43.9	20.8	0.00e+00	0	27	0	961544192	60	7665
2026-01-04 19:59:05.45	327.03	8.54	-42.8	-44.1	20.6	0.00e+00	0	27	0	962592768	60	7790
2026-01-04 19:59:06.75	326.86	8.48	-42.9	-44.3	20.4	0.00e+00	0	27	0	964689920	60	7976
2026-01-04 19:59:07.47	326.76	8.44	-43.0	-44.4	20.1	0.00e+00	0	27	0	966787072	60	8104
2026-01-04 19:59:08.77	326.58	8.38	-42.9	-44.3	20.4	0.00e+00	0	27	0	968884224	60	7996
2026-01-04 19:59:09.49	326.49	8.35	-42.9	-44.3	20.4	0.00e+00	0	27	0	969932800	60	7988
2026-01-04 19:59:10.79	326.31	8.28	-42.8	-44.2	20.4	0.00e+00	0	27	0	973078528	60	7872
2026-01-04 19:59:11.51	326.22	8.25	-42.8	-44.1	20.2	0.00e+00	0	27	0	974127104	60	7856
2026-01-04 19:59:12.81	326.04	8.18	-42.7	-44.0	20.7	0.00e+00	0	27	0	976224256	60	7698
2026-01-04 19:59:13.53	325.95	8.15	-42.7	-44.0	20.6	0.00e+00	0	27	0	978321408	60	7764
2026-01-04 19:59:14.83	325.77	8.08	-42.6	-43.9	20.6	0.00e+00	0	28	0	980418560	60	7645
2026-01-04 19:59:15.56	325.68	8.05	-42.6	-44.0	20.7	0.00e+00	0	27	0	981467136	60	7687
2026-01-04 19:59:16.86	325.51	7.98	-42.6	-44.0	20.7	0.00e+00	0	27	0	983564288	60	7696
2026-01-04 19:59:17.58	325.41	7.95	-42.6	-43.9	20.6	0.00e+00	0	27	0	985661440	60	7668
2026-01-04 19:59:18.88	325.24	7.88	-42.5	-43.8	20.8	0.00e+00	0	27	0	987758592	60	7552
2026-01-04 19:59:19.60	325.15	7.85	-42.5	-43.8	20.7	0.00e+00	0	27	0	988807168	60	7592
2026-01-04 19:59:20.90	324.98	7.78	-42.4	-43.7	20.9	0.00e+00	0	27	0	991952896	60	7478
2026-01-04 19:59:21.62	324.89	7.75	-42.4	-43.7	20.8	0.00e+00	0	27	0	993001472	60	7451
2026-01-04 19:59:22.92	324.72	7.68	-42.1	-43.3	21.2	0.00e+00	0	27	0	995098624	60	7152
2026-01-04 19:59:23.65	324.63	7.64	-41.9	-43.1	21.3	0.00e+00	0	27	0	997195776	60	6929
2026-01-04 19:59:24.94	324.46	7.58	-41.7	-42.9	21.6	0.00e+00	0	27	0	999292928	60	6788
2026-01-04 19:59:25.67	324.37	7.54	-41.3	-42.4	21.7	0.00e+00	0	27	0	1000341504	60	6392
2026-01-04 19:59:26.97	324.21	7.48	-41.6	-42.7	21.5	0.00e+00	0	27	0	1003487232	60	6661
2026-01-04 19:59:27.69	324.12	7.44	-41.4	-42.5	21.9	0.00e+00	0	27	0	1004535808	60	6532
2026-01-04 19:59:28.99	323.95	7.38	-41.2	-42.3	22.1	0.00e+00	0	27	0	1006632960	60	6362
2026-01-04 19:59:29.71	323.86	7.34	-41.3	-42.4	22.0	0.00e+00	0	27	0	1007681536	60	6428
2026-01-04 19:59:31.01	323.70	7.28	-41.9	-43.1	21.5	0.00e+00	0	27	0	1010827264	60	6972
2026-01-04 19:59:31.73	323.61	7.24	-41.5	-42.7	21.7	0.00e+00	0	27	0	1011875840	60	6648
2026-01-04 19:59:33.03	323.45	7.18	-41.6	-42.7	21.6	0.00e+00	0	27	0	1013972992	60	6670
2026-01-04 19:59:33.75	323.36	7.14	-41.7	-42.8	21.7	0.00e+00	0	27	0	1016070144	60	6759
2026-01-04 19:59:35.05	323.20	7.07	-41.8	-43.0	21.5	0.00e+00	0	27	0	1018167296	60	6861
2026-01-04 19:59:35.78	323.11	7.04	-42.0	-43.2	21.3	0.00e+00	0	27	0	1019215872	60	7014
2026-01-04 19:59:37.08	322.95	6.97	-41.5	-42.6	21.7	0.00e+00	0	28	0	1022361600	60	6608
2026-01-04 19:59:37.80	322.86	6.94	-41.4	-42.5	21.8	0.00e+00	0	28	0	1023410176	60	6505
2026-01-04 19:59:39.10	322.70	6.87	-41.4	-42.5	21.8	0.00e+00	0	27	0	1025507328	60	6488
2026-01-04 19:59:39.82	322.62	6.83	-41.3	-42.4	21.8	0.00e+00	0	27	0	1027604480	60	6440
2026-01-04 19:59:41.12	322.46	6.77	-41.3	-42.4	21.9	0.00e+00	0	27	0	1029701632	60	6433
2026-01-04 19:59:41.84	322.37	6.73	-41.3	-42.5	21.8	0.00e+00	0	27	0	1030750208	60	6471
2026-01-04 19:59:43.14	322.22	6.67	-41.7	-42.9	21.5	0.00e+00	0	27	0	1033895936	60	6805
2026-01-04 19:59:43.87	322.13	6.63	-41.5	-42.6	21.7	0.00e+00	0	27	0	1034944512	60	6569
2026-01-04 19:59:45.17	321.98	6.56	-41.7	-42.8	21.5	0.00e+00	0	27	0	1037041664	60	6753
2026-01-04 19:59:45.89	321.89	6.53	-42.0	-43.2	21.3	0.00e+00	0	27	0	1038090240	60	7015
2026-01-04 19:59:47.19	321.74	6.46	-41.9	-43.1	21.3	0.00e+00	0	27	0	1041235968	60	6931
2026-01-04 19:59:47.91	321.65	6.43	-42.3	-43.5	21.1	0.00e+00	0	27	0	1042284544	60	7311
2026-01-04 19:59:49.21	321.50	6.36	-42.1	-43.4	21.1	0.00e+00	0	27	0	1044381696	60	7175
2026-01-04 19:59:49.93	321.42	6.32	-42.3	-43.6	21.0	0.00e+00	0	27	0	1046478848	60	7383
2026-01-04 19:59:51.23	321.27	6.26	-42.1	-43.4	21.0	0.00e+00	0	28	0	1048576000	60	7200
2026-01-04 19:59:51.96	321.18	6.22	-42.3	-43.6	20.8	0.00e+00	0	27	0	1049624576	60	7395
2026-01-04 19:59:53.26	321.03	6.16	-42.0	-43.3	21.0	0.00e+00	0	27	0	1052770304	60	7093
2026-01-04 19:59:53.98	320.95	6.12	-42.2	-43.5	21.0	0.00e+00	0	27	0	1053818880	60	7271
2026-01-04 19:59:55.28	320.80	6.05	-42.5	-43.9	20.8	0.00e+00	0	27	0	1055916032	60	7606
2026-01-04 19:59:56.00	320.72	6.02	-42.3	-43.6	20.9	0.00e+00	0	27	0	1056964608	60	7339
2026-01-04 19:59:57.30	320.57	5.95	-42.4	-43.7	20.8	0.00e+00	0	27	0	1060110336	60	7484
2026-01-04 19:59:58.02	320.49	5.92	-42.6	-43.9	20.6	0.00e+00	0	27	0	1061158912	60	7676
2026-01-04 19:59:59.32	320.34	5.85	-42.6	-43.9	20.8	0.00e+00	0	27	0	1063256064	60	7642
2026-01-04 20:00:00.04	320.26	5.81	-42.6	-43.9	20.7	0.00e+00	0	27	0	1065353216	60	7618
2026-01-04 20:00:01.34	320.11	5.75	-42.7	-44.0	20.4	0.00e+00	0	27	0	1067450368	60	7736
2026-01-04 20:00:02.07	320.03	5.71	-42.7	-44.1	20.4	0.00e+00	0	27	0	1068498944	60	7794
2026-01-04 20:00:03.37	319.89	5.64	-42.7	-44.0	20.3	0.00e+00	0	27	0	1071644672	60	7724
2026-01-04 20:00:04.09	319.81	5.61	-42.7	-44.1	20.3	0.00e+00	0	27	0	1072693248	60	7796
2026-01-04 20:00:05.39	319.66	5.54	-42.4	-43.7	20.7	0.00e+00	0	27	0	1074790400	60	7468
2026-01-04 20:00:06.11	319.58	5.51	-42.4	-43.6	20.8	0.00e+00	0	28	0	1076887552	60	7409
2026-01-04 20:00:07.41	319.44	5.44	-42.5	-43.8	20.6	0.00e+00	0	27	0	1078984704	60	7554
2026-01-04 20:00:08.13	319.36	5.40	-42.3	-43.6	20.8	0.00e+00	0	27	0	1080033280	60	7353
2026-01-04 20:00:09.43	319.22	5.34	-42.2	-43.4	20.9	0.00e+00	0	28	0	1083179008	60	7211
2026-01-04 20:00:10.16	319.14	5.30	-42.4	-43.7	20.4	0.00e+00	0	27	0	1084227584	60	7454
2026-01-04 20:00:11.45	319.00	5.24	-42.1	-43.3	21.2	0.00e+00	0	28	0	1086324736	60	7117
2026-01-04 20:00:12.18	318.92	5.20	-42.1	-43.3	20.9	0.00e+00	0	27	0	1087373312	60	7097
2026-01-04 20:00:13.48	318.78	5.13	-42.4	-43.6	20.9	0.00e+00	0	27	0	1090519040	60	7400
2026-01-04 20:00:14.20	318.71	5.10	-42.3	-43.5	21.0	0.00e+00	0	28	0	1091567616	60	7307
2026-01-04 20:00:15.50	318.57	5.03	-42.2	-43.5	21.1	0.00e+00	0	27	0	1093664768	60	7263
2026-01-04 20:00:16.22	318.49	4.99	-42.2	-43.4	21.1	0.00e+00	0	27	0	1095761920	60	7226
2026-01-04 20:00:17.52	318.35	4.93	-42.4	-43.7	21.0	0.00e+00	0	27	0	1097859072	60	7453
2026-01-04 20:00:18.24	318.28	4.89	-42.2	-43.5	20.8	0.00e+00	0	27	0	1098907648	60	7262
2026-01-04 20:00:19.54	318.14	4.83	-42.5	-43.8	20.7	0.00e+00	0	28	0	1102053376	60	7533
2026-01-04 20:00:20.27	318.07	4.79	-42.6	-43.9	20.4	0.00e+00	0	27	0	1103101952	60	7676
2026-01-04 20:00:21.57	317.93	4.72	-42.8	-44.2	20.3	0.00e+00	0	28	0	1105199104	60	7864
2026-01-04 20:00:22.29	317.85	4.69	-43.1	-44.5	20.1	0.00e+00	0	28	0	1107296256	60	8183
2026-01-04 20:00:23.59	317.72	4.62	-43.4	-44.9	19.8	0.00e+00	0	28	0	1109393408	60	8571
2026-01-04 20:00:24.31	317.65	4.58	-43.5	-45.0	19.5	0.00e+00	0	28	0	1110441984	60	8712
2026-01-04 20:00:25.61	317.51	4.52	-43.5	-45.0	19.6	0.00e+00	0	27	0	1112539136	60	8668
2026-01-04 20:00:26.33	317.44	4.48	-43.9	-45.5	19.1	0.00e+00	0	27	0	1114636288	60	9155
2026-01-04 20:00:27.63	317.31	4.42	-43.4	-44.9	19.5	0.00e+00	0	27	0	1116733440	60	8583
2026-01-04 20:00:28.36	317.23	4.38	-43.7	-45.2	19.6	0.00e+00	0	27	0	1117782016	60	8885
2026-01-04 20:00:29.66	317.10	4.31	-43.3	-44.7	19.7	0.00e+00	0	27	0	1120927744	60	8398
2026-01-04 20:00:30.38	317.03	4.28	-43.7	-45.2	19.8	0.00e+00	0	27	0	1121976320	60	8904
2026-01-04 20:00:31.68	316.90	4.21	-43.6	-45.1	19.7	0.00e+00	0	27	0	1124073472	60	8756
2026-01-04 20:00:32.40	316.82	4.18	-43.2	-44.6	20.3	0.00e+00	0	27	0	1126170624	60	8249
2026-01-04 20:00:33.70	316.69	4.11	-42.3	-43.5	20.8	0.00e+00	0	27	0	1128267776	60	7329
2026-01-04 20:00:34.42	316.62	4.07	-42.5	-43.7	20.7	0.00e+00	0	27	0	1129316352	60	7469
2026-01-04 20:00:35.72	316.49	4.01	-42.3	-43.6	20.8	0.00e+00	0	27	0	1132462080	60	7352
2026-01-04 20:00:36.44	316.42	3.97	-42.0	-43.2	21.2	0.00e+00	0	27	0	1133510656	60	7051
2026-01-04 20:00:37.74	316.29	3.91	-42.8	-44.1	20.8	0.00e+00	0	27	0	1135607808	60	7804
2026-01-04 20:00:38.47	316.22	3.87	-42.2	-43.4	21.1	0.00e+00	0	27	0	1136656384	60	7241
2026-01-04 20:00:39.77	316.09	3.80	-42.3	-43.5	20.7	0.00e+00	0	27	0	1139802112	60	7315
2026-01-04 20:00:40.49	316.02	3.77	-42.6	-43.9	20.6	0.00e+00	0	28	0	1140850688	60	7676
2026-01-04 20:00:41.79	315.90	3.70	-42.8	-44.1	20.4	0.00e+00	0	28	0	1142947840	60	7796
2026-01-04 20:00:42.51	315.83	3.67	-42.4	-43.6	20.8	0.00e+00	0	28	0	1145044992	60	7404
2026-01-04 20:00:43.81	315.70	3.60	-42.6	-43.9	20.5	0.00e+00	0	27	0	1147142144	60	7621
2026-01-04 20:00:44.53	315.63	3.56	-42.6	-44.0	20.5	0.00e+00	0	28	0	1148190720	60	7689
2026-01-04 20:00:45.83	315.51	3.50	-42.9	-44.3	20.3	0.00e+00	0	27	0	1151336448	60	7979
2026-01-04 20:00:46.56	315.44	3.46	-42.9	-44.3	20.0	0.00e+00	0	27	0	1152385024	60	8001
2026-01-04 20:00:47.86	315.32	3.40	-43.4	-44.9	19.6	0.00e+00	0	27	0	1154482176	60	8533
2026-01-04 20:00:48.58	315.25	3.36	-43.8	-45.4	19.3	0.00e+00	0	27	0	1156579328	60	9044
2026-01-04 20:00:49.88	315.13	3.30	-44.4	-46.1	18.7	0.00e+00	0	27	0	1158676480	60	9825
2026-01-04 20:00:50.60	315.06	3.26	-44.2	-45.8	19.0	0.00e+00	0	27	0	1159725056	60	9518
2026-01-04 20:00:51.90	314.94	3.19	-44.4	-46.1	18.8	0.00e+00	0	27	0	1161822208	60	9796
2026-01-04 20:00:52.62	314.87	3.16	-44.2	-45.9	18.6	0.00e+00	0	27	0	1163919360	60	9641
2026-01-04 20:00:53.92	314.75	3.09	-44.4	-46.2	18.5	0.00e+00	0	27	0	1166016512	60	9909
2026-01-04 20:00:54.64	314.68	3.06	-50.6	-66.2	3.6	5.18e-05	0	28	104	1167065088	60	99035
2026-01-04 20:00:55.94	314.56	2.99	-51.3	-66.9	3.6	1.51e+00	0	27	104	1167065088	60	107361
2026-01-04 20:00:56.67	314.49	2.95	-51.4	-66.9	3.6	1.51e+00	0	27	104	1167065088	60	107726
2026-01-04 20:00:57.97	314.37	2.89	-51.6	-67.1	3.6	1.51e+00	0	27	104	1167065088	60	110571
2026-01-04 20:00:58.69	314.31	2.85	-51.6	-67.1	3.6	1.51e+00	0	28	104	1167065088	60	110669
2026-01-04 20:00:59.99	314.19	2.79	-51.5	-67.1	3.6	1.51e+00	0	28	104	1167065088	60	110000
2026-01-04 20:01:00.71	314.12	2.75	-51.5	-67.1	3.6	1.51e+00	0	28	104	1167065088	60	109919
2026-01-04 20:01:02.01	314.01	2.69	-51.5	-67.0	3.6	1.51e+00	0	28	104	1167065088	60	109730
2026-01-04 20:01:02.73	313.94	2.65	-51.5	-67.0	3.6	1.51e+00	0	28	104	1167065088	60	109617
2026-01-04 20:01:04.03	313.83	2.59	-51.4	-66.9	3.6	1.51e+00	0	28	104	1167065088	60	108483
2026-01-04 20:01:04.75	313.76	2.55	-51.4	-67.0	3.6	1.51e+00	0	28	104	1167065088	60	108667
2026-01-04 20:01:06.05	313.65	2.49	-51.4	-66.9	3.6	1.51e+00	0	28	104	1167065088	60	108141
2026-01-04 20:01:06.78	313.58	2.45	-51.4	-66.9	3.6	1.51e+00	0	28	104	1167065088	60	108021
2026-01-04 20:01:08.08	313.47	2.38	-51.5	-67.1	3.6	1.51e+00	0	28	104	1167065088	60	109922
2026-01-04 20:01:08.80	313.40	2.35	-51.3	-66.9	3.6	1.51e+00	0	28	104	1167065088	60	107770
2026-01-04 20:01:10.10	313.29	2.28	-51.6	-67.2	3.6	1.51e+00	0	28	104	1167065088	60	111366
