passes_logs/2026/01/04/R4.6S_Anadyr_2ch/R4.6S_Anadyr_2ch__20260104_053309_FENGYUN_3E_rec.log

#Pass ID: 20260104_053309_FENGYUN 3E
#Satellite: FENGYUN 3E
#Configuration: FENGYUN 3E
#almurnet v.1.7.20251203
#Start time: 2026-01-04 05:33:12

#Version: 2.2.20231116
#Station: R4.6S_Anadyr_2ch
#Location: 177.4865 lon 64.73178 lat
#TLE: 1 49008U 21062A   25350.97288215  .00000176  00000+0  10353-3 0  9997
#TLE: 2 49008  98.7477 351.4440 0000638 234.3856 125.7261 14.19881381230726

#Time	Az	El	Level	Level2	SNR	BER	BlckErr	Temp	State	Recorded	gain1	gain2
2026-01-04 05:33:12.36	183.10	0.17	-54.0	-64.1	3.3	8.39e-01	0	35	0	0	60	78759
2026-01-04 05:33:13.36	183.14	0.23	-54.6	-66.1	3.6	8.45e-01	0	35	104	0	60	99049
2026-01-04 05:33:14.37	183.17	0.29	-54.5	-66.0	3.6	8.45e-01	0	36	104	0	60	98715
2026-01-04 05:33:15.38	183.21	0.35	-54.1	-65.6	3.6	8.45e-01	0	35	104	0	60	94269
2026-01-04 05:33:16.40	183.25	0.41	-54.6	-66.4	3.6	8.45e-01	0	36	104	0	60	103050
2026-01-04 05:33:17.41	183.28	0.47	-54.6	-66.4	3.6	8.45e-01	0	36	104	0	60	102550
2026-01-04 05:33:18.42	183.32	0.53	-54.2	-66.1	3.6	8.46e-01	0	36	104	0	60	99024
2026-01-04 05:33:19.43	183.36	0.59	-54.1	-65.7	3.6	8.45e-01	0	36	104	0	60	95424
2026-01-04 05:33:20.44	183.39	0.65	-54.1	-65.9	3.6	8.45e-01	0	36	104	0	60	96983
2026-01-04 05:33:21.45	183.43	0.71	-54.0	-65.7	3.6	8.44e-01	0	36	104	0	60	94623
2026-01-04 05:33:22.46	183.47	0.77	-54.5	-66.2	3.6	8.45e-01	0	36	104	0	60	100210
2026-01-04 05:33:23.47	183.50	0.83	-54.9	-66.4	3.6	8.46e-01	0	36	104	0	60	102931
2026-01-04 05:33:24.48	183.54	0.89	-53.8	-65.3	3.6	8.45e-01	0	36	104	0	60	90762
2026-01-04 05:33:25.49	183.58	0.95	-53.3	-64.9	3.6	8.46e-01	0	36	104	0	60	86806
2026-01-04 05:33:26.51	183.61	1.01	-54.3	-65.8	3.6	8.44e-01	0	36	104	0	60	96269
2026-01-04 05:33:27.52	183.65	1.07	-54.3	-65.9	3.6	8.46e-01	0	36	104	0	60	96916
2026-01-04 05:33:28.53	183.69	1.13	-54.4	-65.9	3.6	8.45e-01	0	36	104	0	60	97636
2026-01-04 05:33:29.54	183.73	1.19	-52.9	-64.4	3.6	8.45e-01	0	36	104	0	60	82066
2026-01-04 05:33:30.55	183.76	1.25	-51.7	-63.3	3.6	8.46e-01	0	36	104	0	60	72444
2026-01-04 05:33:31.56	183.80	1.31	-51.6	-63.0	3.6	8.45e-01	0	36	104	0	60	69441
2026-01-04 05:33:32.57	183.84	1.37	-51.5	-62.8	3.6	8.45e-01	0	36	104	0	60	68066
2026-01-04 05:33:33.58	183.88	1.43	-52.2	-63.8	3.6	8.45e-01	0	36	104	0	60	76025
2026-01-04 05:33:34.59	183.92	1.49	-52.2	-63.8	3.6	8.44e-01	0	36	104	0	60	76552
2026-01-04 05:33:35.60	183.95	1.56	-52.6	-64.2	3.6	8.44e-01	0	36	104	0	60	80053
2026-01-04 05:33:36.61	183.99	1.62	-52.1	-63.7	3.6	8.45e-01	0	36	104	0	60	75865
2026-01-04 05:33:37.62	184.03	1.68	-52.1	-63.7	3.6	8.46e-01	0	36	104	0	60	75299
2026-01-04 05:33:38.63	184.07	1.74	-52.0	-63.6	3.6	8.45e-01	0	36	104	0	60	74812
2026-01-04 05:33:39.65	184.11	1.80	-52.5	-64.1	3.6	8.46e-01	0	36	104	0	60	78688
2026-01-04 05:33:40.66	184.15	1.86	-52.4	-64.0	3.6	8.46e-01	0	36	104	0	60	78402
2026-01-04 05:33:41.67	184.19	1.93	-52.3	-63.9	3.6	8.45e-01	0	36	104	0	60	77340
2026-01-04 05:33:42.68	184.23	1.99	-52.1	-63.7	3.6	8.44e-01	0	36	104	0	60	75800
2026-01-04 05:33:43.69	184.27	2.05	-52.0	-63.5	3.6	8.45e-01	0	36	104	0	60	74165
2026-01-04 05:33:44.70	184.31	2.11	-52.2	-63.7	3.6	8.46e-01	0	36	104	0	60	75773
2026-01-04 05:33:45.71	184.35	2.18	-52.6	-64.1	3.6	8.45e-01	0	36	104	0	60	78833
2026-01-04 05:33:46.72	184.39	2.24	-52.6	-64.0	3.6	8.45e-01	0	36	104	0	60	78566
2026-01-04 05:33:47.73	184.43	2.30	-52.4	-63.7	3.6	8.46e-01	0	36	104	0	60	75872
2026-01-04 05:33:48.74	184.47	2.36	-51.9	-63.3	3.6	8.46e-01	0	36	104	0	60	72491
2026-01-04 05:33:49.75	184.51	2.43	-51.7	-63.2	3.6	8.45e-01	0	36	104	0	60	71165
2026-01-04 05:33:50.76	184.55	2.49	-51.6	-63.2	3.6	8.44e-01	0	36	104	0	60	71308
2026-01-04 05:33:51.77	184.59	2.55	-52.1	-63.6	3.6	8.46e-01	0	36	104	0	60	75042
2026-01-04 05:33:52.78	184.63	2.62	-51.7	-63.1	3.6	8.47e-01	0	36	104	0	60	70372
2026-01-04 05:33:53.79	184.67	2.68	-51.4	-62.7	3.6	8.45e-01	0	36	104	0	60	67662
2026-01-04 05:33:54.80	184.72	2.74	-51.2	-62.6	3.6	8.44e-01	0	36	104	0	60	66325
2026-01-04 05:33:55.81	184.76	2.81	-51.2	-62.7	3.6	8.45e-01	0	36	104	0	60	67410
2026-01-04 05:33:56.82	184.80	2.87	-51.1	-62.4	3.6	8.46e-01	0	36	104	0	60	64736
2026-01-04 05:33:57.83	184.84	2.94	-51.0	-61.6	3.6	8.45e-01	0	36	104	0	60	59378
2026-01-04 05:33:58.84	184.88	3.00	-50.8	-60.5	3.6	8.45e-01	0	36	104	0	60	52169
2026-01-04 05:33:59.86	184.93	3.07	-50.8	-59.9	3.8	8.43e-01	0	36	104	0	60	48865
2026-01-04 05:34:00.86	184.97	3.13	-50.8	-59.7	3.7	8.39e-01	0	36	104	0	60	47880
2026-01-04 05:34:01.88	185.01	3.20	-50.9	-60.3	3.6	8.42e-01	0	36	104	0	60	51126
2026-01-04 05:34:02.89	185.05	3.26	-51.0	-61.5	3.6	8.46e-01	0	36	104	0	60	58485
2026-01-04 05:34:03.90	185.10	3.33	-50.8	-59.9	3.8	8.45e-01	0	36	104	0	60	48845
2026-01-04 05:34:04.91	185.14	3.39	-50.5	-56.1	4.7	8.30e-01	0	36	0	0	60	31348
2026-01-04 05:34:05.92	185.18	3.46	-48.5	-51.4	10.2	1.56e-01	0	36	0	6291456	60	18232
2026-01-04 05:34:06.93	185.23	3.52	-46.5	-48.2	13.7	1.71e-05	0	36	0	13631488	60	12686
2026-01-04 05:34:07.94	185.27	3.59	-44.7	-45.9	16.1	0.00e+00	0	36	0	20971520	60	9752
2026-01-04 05:34:08.95	185.31	3.65	-42.2	-43.1	18.9	0.00e+00	0	36	0	28311552	60	7057
2026-01-04 05:34:09.96	185.36	3.72	-41.4	-42.2	20.2	0.00e+00	0	36	0	35651584	60	6346
2026-01-04 05:34:10.97	185.40	3.78	-41.5	-42.2	21.3	0.00e+00	0	36	0	42991616	60	6319
2026-01-04 05:34:11.98	185.45	3.85	-40.7	-41.4	21.2	0.00e+00	0	36	0	50331648	60	5810
2026-01-04 05:34:12.99	185.49	3.92	-41.0	-41.8	20.6	0.00e+00	0	36	0	57671680	60	6037
2026-01-04 05:34:14.00	185.54	3.98	-41.9	-42.7	21.1	0.00e+00	0	36	0	65011712	60	6695
2026-01-04 05:34:15.01	185.58	4.05	-44.2	-45.2	18.0	0.00e+00	0	36	0	71303168	60	9015
2026-01-04 05:34:16.02	185.63	4.12	-47.3	-49.0	15.1	9.10e-06	0	36	0	79691776	60	13913
2026-01-04 05:34:17.04	185.67	4.18	-51.8	-58.9	4.3	5.24e-01	0	36	0	85983232	60	43561
2026-01-04 05:34:18.05	185.72	4.25	-51.0	-57.4	4.8	7.89e-01	0	36	0	88080384	60	36394
2026-01-04 05:34:19.06	185.76	4.32	-43.0	-43.9	19.0	0.00e+00	0	36	0	95420416	60	7740
2026-01-04 05:34:20.07	185.81	4.38	-39.9	-40.6	21.4	0.00e+00	0	36	0	102760448	58	5914
2026-01-04 05:34:21.08	185.86	4.45	-40.1	-40.7	22.2	0.00e+00	0	36	0	110100480	58	6015
2026-01-04 05:34:22.09	185.90	4.52	-41.0	-41.6	22.0	0.00e+00	0	36	0	117440512	58	6665
2026-01-04 05:34:23.10	185.95	4.59	-40.7	-41.3	22.4	0.00e+00	0	36	0	124780544	58	6442
2026-01-04 05:34:24.11	186.00	4.66	-40.7	-41.4	22.2	0.00e+00	0	36	0	132120576	60	5762
2026-01-04 05:34:25.12	186.04	4.72	-40.4	-41.1	22.2	0.00e+00	0	36	0	139460608	60	5578
2026-01-04 05:34:26.13	186.09	4.79	-40.8	-41.5	22.3	0.00e+00	0	36	0	146800640	60	5843
2026-01-04 05:34:27.15	186.14	4.86	-41.0	-41.6	22.1	0.00e+00	0	36	0	154140672	60	5949
2026-01-04 05:34:28.15	186.18	4.93	-40.4	-41.1	22.3	0.00e+00	0	36	0	161480704	60	5586
2026-01-04 05:34:29.17	186.23	5.00	-40.0	-40.6	22.6	0.00e+00	0	36	0	168820736	58	5948
2026-01-04 05:34:30.18	186.28	5.07	-39.9	-40.5	22.4	0.00e+00	0	36	0	176160768	58	5888
2026-01-04 05:34:31.19	186.33	5.14	-39.6	-40.2	22.5	0.00e+00	0	36	0	183500800	58	5694
2026-01-04 05:34:32.20	186.38	5.21	-39.8	-40.4	22.7	0.00e+00	0	36	0	190840832	58	5804
2026-01-04 05:34:33.21	186.43	5.28	-39.7	-40.4	22.7	0.00e+00	0	36	0	198180864	58	5790
2026-01-04 05:34:34.22	186.47	5.34	-39.7	-40.4	22.6	0.00e+00	0	36	0	205520896	58	5767
2026-01-04 05:34:35.23	186.52	5.41	-40.6	-41.3	22.4	0.00e+00	0	36	0	212860928	58	6445
2026-01-04 05:34:36.24	186.57	5.48	-39.9	-40.6	22.7	0.00e+00	0	36	0	220200960	58	5924
2026-01-04 05:34:37.25	186.62	5.55	-40.0	-40.7	22.7	0.00e+00	0	36	0	226492416	58	5968
2026-01-04 05:34:38.26	186.67	5.62	-40.5	-41.2	21.7	0.00e+00	0	36	0	233832448	58	6339
2026-01-04 05:34:39.27	186.72	5.70	-40.1	-40.8	22.9	0.00e+00	0	36	0	242221056	58	6054
2026-01-04 05:34:40.28	186.77	5.77	-40.5	-41.1	22.9	0.00e+00	0	36	0	248512512	60	5618
2026-01-04 05:34:41.30	186.82	5.84	-41.3	-42.0	22.8	0.00e+00	0	36	0	255852544	60	6209
2026-01-04 05:34:42.31	186.87	5.91	-40.8	-41.5	22.6	0.00e+00	0	36	0	263192576	60	5862
2026-01-04 05:34:43.32	186.92	5.98	-40.6	-41.2	22.9	0.00e+00	0	36	0	270532608	60	5684
2026-01-04 05:34:44.33	186.98	6.05	-41.1	-41.7	22.5	0.00e+00	0	36	0	277872640	60	6002
2026-01-04 05:34:45.34	187.03	6.12	-41.4	-42.0	22.6	0.00e+00	0	36	0	285212672	60	6239
2026-01-04 05:34:46.35	187.08	6.19	-40.5	-41.2	22.7	0.00e+00	0	36	0	292552704	60	5634
2026-01-04 05:34:47.36	187.13	6.27	-40.8	-41.5	22.7	0.00e+00	0	36	0	299892736	58	6544
2026-01-04 05:34:48.37	187.18	6.34	-40.0	-40.7	22.9	0.00e+00	0	36	0	307232768	60	5324
2026-01-04 05:34:49.38	187.23	6.41	-40.6	-41.3	23.1	0.00e+00	0	36	0	314572800	58	6393
2026-01-04 05:34:50.39	187.29	6.48	-40.9	-41.6	23.0	0.00e+00	0	36	0	321912832	58	6655
2026-01-04 05:34:51.41	187.34	6.56	-40.5	-41.1	23.0	0.00e+00	0	36	0	329252864	58	6315
2026-01-04 05:34:52.42	187.39	6.63	-39.5	-40.2	23.1	0.00e+00	0	36	0	336592896	58	5659
2026-01-04 05:34:53.43	187.45	6.70	-39.9	-40.5	23.1	0.00e+00	0	36	0	343932928	58	5884
2026-01-04 05:34:54.44	187.50	6.77	-40.0	-40.6	23.4	0.00e+00	0	36	0	351272960	58	5951
2026-01-04 05:34:55.45	187.55	6.85	-39.7	-40.3	23.3	0.00e+00	0	36	0	358612992	58	5744
2026-01-04 05:34:56.46	187.61	6.92	-39.8	-40.5	23.2	0.00e+00	0	36	0	365953024	58	5849
2026-01-04 05:34:57.47	187.66	7.00	-39.9	-40.5	23.4	0.00e+00	0	37	0	373293056	58	5882
2026-01-04 05:34:58.48	187.72	7.07	-39.6	-40.2	23.2	0.00e+00	0	36	0	380633088	58	5695
2026-01-04 05:34:59.49	187.77	7.14	-40.9	-41.7	22.6	0.00e+00	0	36	0	387973120	58	6702
2026-01-04 05:35:00.50	187.83	7.22	-41.7	-42.4	21.7	0.00e+00	0	36	0	395313152	60	6520
2026-01-04 05:35:01.52	187.88	7.29	-40.2	-40.8	22.6	0.00e+00	0	36	0	401604608	60	5422
2026-01-04 05:35:02.53	187.94	7.37	-40.3	-41.0	23.0	0.00e+00	0	36	0	409993216	60	5520
2026-01-04 05:35:03.54	187.99	7.44	-40.3	-41.0	23.2	0.00e+00	0	36	0	417333248	60	5537
2026-01-04 05:35:04.55	188.05	7.52	-40.2	-40.9	23.1	0.00e+00	0	36	0	423624704	58	6114
2026-01-04 05:35:05.56	188.11	7.59	-39.9	-40.5	23.4	0.00e+00	0	36	0	430964736	58	5875
2026-01-04 05:35:06.57	188.16	7.67	-40.0	-40.7	23.0	0.00e+00	0	37	0	439353344	58	5986
2026-01-04 05:35:07.58	188.22	7.74	-39.3	-39.9	23.4	0.00e+00	0	37	0	445644800	58	5485
2026-01-04 05:35:08.60	188.28	7.82	-39.2	-39.8	23.4	0.00e+00	0	37	0	452984832	56	6071
2026-01-04 05:35:09.61	188.33	7.90	-39.2	-39.9	23.5	0.00e+00	0	36	0	460324864	56	6110
2026-01-04 05:35:10.62	188.39	7.97	-39.5	-40.2	23.2	0.00e+00	0	36	0	467664896	56	6328
2026-01-04 05:35:11.63	188.45	8.05	-39.9	-40.5	23.5	0.00e+00	0	36	0	475004928	56	6564
2026-01-04 05:35:12.64	188.51	8.13	-40.2	-40.8	23.0	0.00e+00	0	36	0	482344960	56	6829
2026-01-04 05:35:13.65	188.57	8.20	-40.2	-40.8	23.2	0.00e+00	0	36	0	489684992	58	6082
2026-01-04 05:35:14.66	188.63	8.28	-40.3	-40.9	23.5	0.00e+00	0	36	0	497025024	58	6112
2026-01-04 05:35:15.67	188.69	8.36	-41.0	-41.6	23.4	0.00e+00	0	36	0	504365056	58	6652
2026-01-04 05:35:16.68	188.75	8.44	-40.2	-40.9	23.6	0.00e+00	0	36	0	511705088	58	6113
2026-01-04 05:35:17.69	188.81	8.51	-39.7	-40.3	23.8	0.00e+00	0	36	0	519045120	58	5729
2026-01-04 05:35:18.70	188.87	8.59	-39.8	-40.4	23.4	0.00e+00	0	37	0	526385152	58	5810
2026-01-04 05:35:19.71	188.93	8.67	-39.4	-40.0	23.4	0.00e+00	0	36	0	533725184	58	5524
2026-01-04 05:35:20.73	188.99	8.75	-40.0	-40.6	23.3	0.00e+00	0	37	0	541065216	56	6667
2026-01-04 05:35:21.74	189.05	8.83	-39.5	-40.1	23.8	0.00e+00	0	36	0	548405248	56	6272
2026-01-04 05:35:22.75	189.11	8.91	-40.8	-41.4	23.6	0.00e+00	0	37	0	555745280	58	6480
2026-01-04 05:35:23.76	189.17	8.99	-40.2	-40.8	23.8	0.00e+00	0	37	0	563085312	60	5398
2026-01-04 05:35:24.77	189.23	9.06	-40.5	-41.2	23.1	0.00e+00	0	37	0	570425344	58	6320
2026-01-04 05:35:25.78	189.30	9.14	-39.1	-39.7	23.9	0.00e+00	0	36	0	577765376	58	5330
2026-01-04 05:35:26.79	189.36	9.22	-40.3	-40.9	23.9	0.00e+00	0	37	0	585105408	58	6108
2026-01-04 05:35:27.80	189.42	9.30	-39.3	-39.9	24.2	0.00e+00	0	37	0	591396864	58	5470
2026-01-04 05:35:28.81	189.48	9.38	-39.1	-39.7	23.9	0.00e+00	0	36	0	598736896	56	5970
2026-01-04 05:35:29.82	189.55	9.47	-39.2	-39.7	23.8	0.00e+00	0	37	0	607125504	56	6021
2026-01-04 05:35:30.83	189.61	9.55	-39.4	-40.0	24.1	0.00e+00	0	36	0	613416960	56	6174
2026-01-04 05:35:31.85	189.68	9.63	-39.0	-39.6	24.1	0.00e+00	0	36	0	620756992	56	5935
2026-01-04 05:35:32.86	189.74	9.71	-38.8	-39.3	23.9	0.00e+00	0	36	0	628097024	56	5761
2026-01-04 05:35:33.87	189.81	9.79	-38.9	-39.4	24.3	0.00e+00	0	36	0	635437056	56	5804
2026-01-04 05:35:34.88	189.87	9.87	-38.6	-39.1	24.2	0.00e+00	0	36	0	642777088	56	5619
2026-01-04 05:35:35.89	189.94	9.95	-38.5	-39.1	24.2	0.00e+00	0	37	0	650117120	56	5599
2026-01-04 05:35:36.90	190.00	10.04	-37.7	-38.3	24.3	0.00e+00	0	36	0	657457152	54	5703
2026-01-04 05:35:37.91	190.07	10.12	-38.1	-38.7	24.5	0.00e+00	0	36	0	664797184	54	5996
2026-01-04 05:35:38.92	190.14	10.20	-39.4	-40.0	23.9	0.00e+00	0	36	0	672137216	54	6934
2026-01-04 05:35:39.93	190.20	10.28	-38.9	-39.5	24.2	0.00e+00	0	37	0	679477248	56	5853
2026-01-04 05:35:40.94	190.27	10.37	-39.1	-39.7	23.9	0.00e+00	0	37	0	686817280	56	5965
2026-01-04 05:35:41.96	190.34	10.45	-38.8	-39.4	23.7	0.00e+00	0	36	0	694157312	56	5802
2026-01-04 05:35:42.97	190.41	10.53	-38.9	-39.5	24.1	0.00e+00	0	36	0	701497344	56	5864
2026-01-04 05:35:43.98	190.48	10.62	-38.9	-39.5	23.9	0.00e+00	0	36	0	708837376	56	5842
2026-01-04 05:35:44.99	190.54	10.70	-39.2	-39.8	23.9	0.00e+00	0	36	0	716177408	56	6046
2026-01-04 05:35:46.00	190.61	10.79	-38.9	-39.4	23.9	0.00e+00	0	36	0	723517440	56	5811
2026-01-04 05:35:47.01	190.68	10.87	-38.7	-39.3	24.1	0.00e+00	0	36	0	730857472	56	5734
2026-01-04 05:35:48.02	190.75	10.96	-38.0	-38.6	23.9	0.00e+00	0	36	0	738197504	56	5294
2026-01-04 05:35:49.03	190.82	11.04	-38.2	-38.7	24.1	0.00e+00	0	36	0	745537536	54	6026
2026-01-04 05:35:50.04	190.89	11.13	-37.7	-38.3	24.3	0.00e+00	0	36	0	752877568	54	5723
2026-01-04 05:35:51.05	190.97	11.21	-37.3	-37.8	24.3	0.00e+00	0	36	0	760217600	54	5405
2026-01-04 05:35:52.07	191.04	11.30	-37.5	-38.1	24.4	0.00e+00	0	36	0	766509056	54	5567
2026-01-04 05:35:53.08	191.11	11.39	-37.5	-38.0	24.2	0.00e+00	0	36	0	774897664	54	5545
2026-01-04 05:35:54.09	191.18	11.47	-37.8	-38.3	24.4	0.00e+00	0	37	0	782237696	54	5734
2026-01-04 05:35:55.10	191.25	11.56	-37.8	-38.4	24.4	0.00e+00	0	37	0	788529152	54	5800
2026-01-04 05:35:56.11	191.33	11.65	-38.5	-39.0	24.4	0.00e+00	0	36	0	795869184	54	6233
2026-01-04 05:35:57.12	191.40	11.73	-38.9	-39.5	24.0	0.00e+00	0	36	0	804257792	54	6551
2026-01-04 05:35:58.13	191.48	11.82	-39.7	-40.3	23.9	0.00e+00	0	36	0	810549248	58	5743
2026-01-04 05:35:59.14	191.55	11.91	-40.2	-40.9	23.0	0.00e+00	0	36	0	817889280	58	6150
2026-01-04 05:36:00.15	191.62	12.00	-39.6	-40.2	23.0	0.00e+00	0	36	0	825229312	58	5666
2026-01-04 05:36:01.17	191.70	12.09	-38.3	-38.9	24.1	0.00e+00	0	36	0	832569344	56	5444
2026-01-04 05:36:02.18	191.78	12.18	-38.3	-38.9	24.6	0.00e+00	0	36	0	839909376	54	6115
2026-01-04 05:36:03.19	191.85	12.26	-38.5	-39.1	24.2	0.00e+00	0	36	0	847249408	54	6276
2026-01-04 05:36:04.20	191.93	12.35	-38.2	-38.7	24.3	0.00e+00	0	36	0	854589440	54	6032
2026-01-04 05:36:05.21	192.01	12.44	-38.8	-39.4	24.1	0.00e+00	0	37	0	861929472	54	6465
2026-01-04 05:36:06.22	192.08	12.53	-38.1	-38.7	24.8	0.00e+00	0	36	0	869269504	56	5355
2026-01-04 05:36:07.23	192.16	12.62	-38.7	-39.3	24.2	0.00e+00	0	36	0	876609536	54	6431
2026-01-04 05:36:08.24	192.24	12.71	-37.8	-38.3	24.8	0.00e+00	0	36	0	883949568	54	5744
2026-01-04 05:36:09.26	192.32	12.80	-37.2	-37.7	24.8	0.00e+00	0	37	0	891289600	54	5372
2026-01-04 05:36:10.27	192.40	12.90	-37.6	-38.1	24.9	0.00e+00	0	36	0	898629632	54	5603
2026-01-04 05:36:11.28	192.48	12.99	-37.4	-37.9	24.9	0.00e+00	0	36	0	905969664	54	5483
2026-01-04 05:36:12.29	192.56	13.08	-37.1	-37.6	25.1	0.00e+00	0	36	0	913309696	54	5300
2026-01-04 05:36:13.30	192.64	13.17	-37.8	-38.4	25.1	0.00e+00	0	36	0	920649728	54	5781
2026-01-04 05:36:14.31	192.72	13.26	-37.5	-38.1	25.5	0.00e+00	0	37	0	927989760	54	5575
2026-01-04 05:36:15.32	192.80	13.35	-37.5	-38.1	25.0	0.00e+00	0	37	0	935329792	52	6273
2026-01-04 05:36:16.33	192.88	13.45	-37.9	-38.4	25.3	0.00e+00	0	37	0	942669824	52	6523
2026-01-04 05:36:17.34	192.97	13.54	-37.7	-38.3	25.2	0.00e+00	0	36	0	950009856	52	6402
2026-01-04 05:36:18.36	193.05	13.63	-37.6	-38.2	25.6	0.00e+00	0	37	0	956301312	52	6328
2026-01-04 05:36:19.37	193.13	13.73	-38.4	-38.9	25.4	0.00e+00	0	36	0	963641344	54	6168
2026-01-04 05:36:20.38	193.22	13.82	-37.6	-38.1	25.8	0.00e+00	0	37	0	972029952	54	5585
2026-01-04 05:36:21.39	193.30	13.92	-36.9	-37.4	25.8	0.00e+00	0	36	0	978321408	52	5818
2026-01-04 05:36:22.40	193.39	14.01	-36.5	-37.0	25.6	0.00e+00	0	36	0	985661440	52	5536
2026-01-04 05:36:23.41	193.47	14.11	-36.8	-37.3	25.5	0.00e+00	0	36	0	993001472	52	5755
2026-01-04 05:36:24.42	193.56	14.20	-36.7	-37.2	25.8	0.00e+00	0	37	0	1000341504	52	5681
2026-01-04 05:36:25.43	193.65	14.30	-36.4	-36.9	25.9	0.00e+00	0	36	0	1007681536	52	5470
2026-01-04 05:36:26.44	193.73	14.39	-36.3	-36.8	25.5	0.00e+00	0	37	0	1015021568	52	5432
2026-01-04 05:36:27.46	193.82	14.49	-36.3	-36.8	25.7	0.00e+00	0	37	0	1022361600	52	5413
2026-01-04 05:36:28.47	193.91	14.59	-36.6	-37.1	25.6	0.00e+00	0	37	0	1029701632	52	5623
2026-01-04 05:36:29.48	194.00	14.68	-36.5	-37.0	25.7	0.00e+00	0	36	0	1037041664	52	5517
2026-01-04 05:36:30.49	194.09	14.78	-36.3	-36.8	25.6	0.00e+00	0	37	0	1044381696	52	5434
2026-01-04 05:36:31.50	194.18	14.88	-36.5	-37.0	25.5	0.00e+00	0	37	0	1051721728	52	5520
2026-01-04 05:36:32.51	194.27	14.98	-35.9	-36.4	25.8	0.00e+00	0	37	0	1059061760	52	5191
2026-01-04 05:36:33.52	194.36	15.07	-35.8	-36.3	25.9	0.00e+00	0	37	0	1066401792	50	5716
2026-01-04 05:36:34.53	194.45	15.17	-35.7	-36.2	25.9	0.00e+00	0	37	0	1073741824	50	5670
2026-01-04 05:36:35.54	194.55	15.27	-35.7	-36.2	25.8	0.00e+00	0	37	0	1081081856	50	5645
2026-01-04 05:36:36.55	194.64	15.37	-35.7	-36.3	25.9	0.00e+00	0	36	0	1088421888	50	5710
2026-01-04 05:36:37.57	194.73	15.47	-35.6	-36.2	25.9	0.00e+00	0	37	0	1095761920	50	5641
2026-01-04 05:36:38.58	194.83	15.57	-35.8	-36.3	25.9	0.00e+00	0	36	0	1103101952	50	5740
2026-01-04 05:36:39.59	194.92	15.67	-35.9	-36.4	25.7	0.00e+00	0	36	0	1110441984	50	5801
2026-01-04 05:36:40.60	195.02	15.77	-35.9	-36.5	25.9	0.00e+00	0	37	0	1117782016	50	5839
2026-01-04 05:36:41.61	195.11	15.87	-35.9	-36.5	25.9	0.00e+00	0	37	0	1125122048	50	5832
2026-01-04 05:36:42.62	195.21	15.97	-36.3	-36.8	25.8	0.00e+00	0	37	0	1131413504	50	6075
2026-01-04 05:36:43.63	195.31	16.08	-36.3	-36.8	26.0	0.00e+00	0	37	0	1139802112	50	6061
2026-01-04 05:36:44.64	195.40	16.18	-36.5	-37.0	25.9	0.00e+00	0	37	0	1147142144	50	6185
2026-01-04 05:36:45.65	195.50	16.28	-36.3	-36.8	26.0	0.00e+00	0	37	0	1153433600	50	6075
2026-01-04 05:36:46.66	195.60	16.38	-36.1	-36.6	26.0	0.00e+00	0	37	0	1160773632	50	5932
2026-01-04 05:36:47.67	195.70	16.48	-35.9	-36.4	26.1	0.00e+00	0	37	0	1169162240	50	5787
2026-01-04 05:36:48.68	195.80	16.59	-35.8	-36.3	26.1	0.00e+00	0	37	0	1175453696	50	5715
2026-01-04 05:36:49.70	195.90	16.69	-36.1	-36.6	26.2	0.00e+00	0	37	0	1182793728	50	5945
2026-01-04 05:36:50.71	196.01	16.80	-36.5	-37.1	26.1	0.00e+00	0	37	0	1190133760	50	6255
2026-01-04 05:36:51.72	196.11	16.90	-35.5	-36.0	26.3	0.00e+00	0	37	0	1197473792	50	5552
2026-01-04 05:36:52.73	196.21	17.01	-36.1	-36.7	26.4	0.00e+00	0	37	0	1204813824	50	5968
2026-01-04 05:36:53.74	196.32	17.11	-36.0	-36.5	26.5	0.00e+00	0	37	0	1212153856	50	5833
2026-01-04 05:36:54.75	196.42	17.22	-36.4	-36.9	26.5	0.00e+00	0	37	0	1219493888	50	6156
2026-01-04 05:36:55.76	196.53	17.32	-36.0	-36.5	26.5	0.00e+00	0	37	0	1226833920	50	5839
2026-01-04 05:36:56.77	196.63	17.43	-35.6	-36.1	26.8	0.00e+00	0	37	0	1234173952	50	5571
2026-01-04 05:36:57.78	196.74	17.54	-35.4	-35.9	26.7	0.00e+00	0	37	0	1241513984	50	5464
2026-01-04 05:36:58.79	196.85	17.64	-35.3	-35.8	26.7	0.00e+00	0	37	0	1248854016	50	5380
2026-01-04 05:36:59.80	196.95	17.75	-35.6	-36.1	26.7	0.00e+00	0	37	0	1256194048	50	5574
2026-01-04 05:37:00.81	197.06	17.86	-35.6	-36.1	26.8	0.00e+00	0	37	0	1263534080	50	5584
2026-01-04 05:37:01.83	197.17	17.97	-35.3	-35.8	26.9	0.00e+00	0	37	0	1270874112	50	5380
2026-01-04 05:37:02.84	197.28	18.07	-35.6	-36.1	26.9	0.00e+00	0	37	0	1278214144	48	6265
2026-01-04 05:37:03.85	197.39	18.18	-35.1	-35.6	26.7	0.00e+00	0	37	0	1285554176	48	5948
2026-01-04 05:37:04.86	197.51	18.29	-35.1	-35.6	26.9	0.00e+00	0	37	0	1292894208	48	5919
2026-01-04 05:37:05.87	197.62	18.40	-35.0	-35.5	27.0	0.00e+00	0	37	0	1300234240	48	5877
2026-01-04 05:37:06.88	197.73	18.51	-34.7	-35.2	26.9	0.00e+00	0	37	0	1307574272	48	5631
2026-01-04 05:37:07.89	197.85	18.62	-34.6	-35.1	27.0	0.00e+00	0	36	0	1314914304	48	5596
2026-01-04 05:37:08.91	197.96	18.73	-34.6	-35.1	26.9	0.00e+00	0	37	0	1321205760	48	5600
2026-01-04 05:37:09.92	198.08	18.85	-34.6	-35.1	26.9	0.00e+00	0	37	0	1328545792	48	5569
2026-01-04 05:37:10.93	198.20	18.96	-35.5	-36.0	26.8	0.00e+00	0	37	0	1336934400	48	6218
2026-01-04 05:37:11.94	198.31	19.07	-35.9	-36.3	26.9	0.00e+00	0	37	0	1343225856	48	6462
2026-01-04 05:37:12.95	198.43	19.18	-35.4	-35.9	26.9	0.00e+00	0	37	0	1350565888	48	6123
2026-01-04 05:37:13.96	198.55	19.29	-35.2	-35.7	27.0	0.00e+00	0	37	0	1357905920	48	6003
2026-01-04 05:37:14.97	198.67	19.41	-35.1	-35.6	27.0	0.00e+00	0	37	0	1365245952	48	5926
2026-01-04 05:37:15.99	198.79	19.52	-35.1	-35.6	26.9	0.00e+00	0	37	0	1372585984	48	5946
2026-01-04 05:37:17.00	198.92	19.64	-35.0	-35.5	26.9	0.00e+00	0	37	0	1379926016	48	5842
2026-01-04 05:37:18.01	199.04	19.75	-35.0	-35.4	26.9	0.00e+00	0	37	0	1387266048	48	5828
2026-01-04 05:37:19.02	199.16	19.87	-35.0	-35.5	26.9	0.00e+00	0	37	0	1394606080	48	5834
2026-01-04 05:37:20.03	199.29	19.98	-35.1	-35.5	26.9	0.00e+00	0	37	0	1401946112	48	5890
2026-01-04 05:37:21.04	199.41	20.10	-34.8	-35.3	27.0	0.00e+00	0	37	0	1409286144	48	5712
2026-01-04 05:37:22.05	199.54	20.21	-34.8	-35.3	26.7	0.00e+00	0	37	0	1416626176	48	5703
2026-01-04 05:37:23.06	199.66	20.33	-34.6	-35.2	26.5	0.00e+00	0	37	0	1423966208	48	5632
2026-01-04 05:37:24.07	199.79	20.44	-35.3	-35.8	26.7	0.00e+00	0	37	0	1431306240	48	6064
2026-01-04 05:37:25.08	199.92	20.56	-35.0	-35.5	27.0	0.00e+00	0	37	0	1438646272	48	5881
2026-01-04 05:37:26.09	200.05	20.68	-35.3	-35.8	26.9	0.00e+00	0	37	0	1445986304	48	6039
2026-01-04 05:37:27.11	200.18	20.80	-35.2	-35.7	27.0	0.00e+00	0	37	0	1453326336	48	5987
2026-01-04 05:37:28.12	200.32	20.92	-34.9	-35.4	27.0	0.00e+00	0	37	0	1460666368	48	5789
2026-01-04 05:37:29.13	200.45	21.04	-34.9	-35.3	26.9	0.00e+00	0	37	0	1468006400	48	5759
2026-01-04 05:37:30.14	200.58	21.15	-34.6	-35.1	27.1	0.00e+00	0	37	0	1475346432	48	5592
2026-01-04 05:37:31.15	200.72	21.27	-34.6	-35.1	27.0	0.00e+00	0	37	0	1482686464	48	5570
2026-01-04 05:37:32.16	200.85	21.39	-34.8	-35.3	26.8	0.00e+00	0	37	0	1490026496	48	5718
2026-01-04 05:37:33.17	200.99	21.52	-35.0	-35.4	27.0	0.00e+00	0	37	0	1497366528	48	5821
2026-01-04 05:37:34.18	201.13	21.64	-34.7	-35.1	27.0	0.00e+00	0	37	0	1504706560	48	5627
2026-01-04 05:37:35.19	201.27	21.76	-34.5	-35.0	26.9	0.00e+00	0	37	0	1512046592	48	5559
2026-01-04 05:37:36.20	201.41	21.88	-34.4	-34.9	27.1	0.00e+00	0	37	0	1518338048	48	5463
2026-01-04 05:37:37.21	201.55	22.00	-34.4	-34.9	27.1	0.00e+00	0	37	0	1525678080	48	5467
2026-01-04 05:37:38.23	201.69	22.12	-34.8	-35.4	26.9	0.00e+00	0	36	0	1534066688	48	5762
2026-01-04 05:37:39.24	201.84	22.25	-34.6	-35.1	26.9	0.00e+00	0	37	0	1540358144	48	5569
2026-01-04 05:37:40.25	201.98	22.37	-34.4	-34.9	27.2	0.00e+00	0	37	0	1547698176	48	5454
2026-01-04 05:37:41.26	202.13	22.49	-34.4	-34.9	27.1	0.00e+00	0	37	0	1555038208	48	5490
2026-01-04 05:37:42.27	202.27	22.62	-34.4	-34.9	27.1	0.00e+00	0	37	0	1562378240	48	5477
2026-01-04 05:37:43.28	202.42	22.74	-34.5	-35.0	27.2	0.00e+00	0	37	0	1569718272	48	5530
2026-01-04 05:37:44.29	202.57	22.87	-34.4	-34.9	27.2	0.00e+00	0	37	0	1577058304	48	5462
2026-01-04 05:37:45.30	202.72	22.99	-34.2	-34.7	27.2	0.00e+00	0	37	0	1584398336	48	5332
2026-01-04 05:37:46.31	202.87	23.12	-34.3	-34.8	27.2	0.00e+00	0	37	0	1591738368	48	5403
2026-01-04 05:37:47.32	203.02	23.25	-34.1	-34.6	27.3	0.00e+00	0	37	0	1599078400	46	5939
2026-01-04 05:37:48.33	203.18	23.37	-34.2	-34.7	27.4	0.00e+00	0	37	0	1606418432	46	6006
2026-01-04 05:37:49.34	203.33	23.50	-34.0	-34.4	27.2	0.00e+00	0	37	0	1613758464	46	5807
2026-01-04 05:37:50.36	203.49	23.63	-34.3	-34.8	27.2	0.00e+00	0	37	0	1621098496	46	6088
2026-01-04 05:37:51.37	203.65	23.76	-34.2	-34.7	27.4	0.00e+00	0	37	0	1628438528	46	5990
2026-01-04 05:37:52.38	203.81	23.88	-34.2	-34.7	27.3	0.00e+00	0	37	0	1635778560	46	5996
2026-01-04 05:37:53.39	203.97	24.01	-34.1	-34.6	27.4	0.00e+00	0	37	0	1643118592	46	5917
2026-01-04 05:37:54.40	204.13	24.14	-34.1	-34.6	27.4	0.00e+00	0	36	0	1650458624	46	5923
2026-01-04 05:37:55.41	204.29	24.27	-34.2	-34.6	27.5	0.00e+00	0	36	0	1657798656	46	5961
2026-01-04 05:37:56.42	204.45	24.40	-34.5	-34.9	27.3	0.00e+00	0	37	0	1665138688	46	6173
2026-01-04 05:37:57.43	204.62	24.53	-34.7	-35.2	27.4	0.00e+00	0	37	0	1672478720	46	6357
2026-01-04 05:37:58.44	204.79	24.66	-34.7	-35.2	27.4	0.00e+00	0	37	0	1679818752	46	6348
2026-01-04 05:37:59.45	204.95	24.79	-34.9	-35.3	27.4	0.00e+00	0	37	0	1686110208	46	6452
2026-01-04 05:38:00.47	205.13	24.93	-34.5	-35.0	27.3	0.00e+00	0	37	0	1693450240	46	6191
2026-01-04 05:38:01.48	205.30	25.06	-34.2	-34.6	27.4	0.00e+00	0	37	0	1701838848	46	5956
2026-01-04 05:38:02.49	205.47	25.19	-34.1	-34.6	27.3	0.00e+00	0	37	0	1708130304	46	5905
2026-01-04 05:38:03.50	205.64	25.32	-34.3	-34.8	27.1	0.00e+00	0	37	0	1715470336	46	6069
2026-01-04 05:38:04.51	205.82	25.46	-34.2	-34.7	27.2	0.00e+00	0	37	0	1722810368	46	5971
2026-01-04 05:38:05.52	205.99	25.59	-34.2	-34.7	27.4	0.00e+00	0	37	0	1730150400	46	5966
2026-01-04 05:38:06.53	206.17	25.72	-34.2	-34.6	27.4	0.00e+00	0	37	0	1737490432	46	5963
2026-01-04 05:38:07.54	206.35	25.86	-34.3	-34.8	27.4	0.00e+00	0	37	0	1744830464	46	6059
2026-01-04 05:38:08.55	206.53	25.99	-34.1	-34.6	27.4	0.00e+00	0	37	0	1752170496	46	5922
2026-01-04 05:38:09.57	206.71	26.13	-34.0	-34.5	27.5	0.00e+00	0	37	0	1759510528	46	5852
2026-01-04 05:38:10.58	206.90	26.27	-34.1	-34.5	27.5	0.00e+00	0	37	0	1766850560	46	5887
2026-01-04 05:38:11.59	207.08	26.40	-34.0	-34.5	27.5	0.00e+00	0	37	0	1774190592	46	5856
2026-01-04 05:38:12.60	207.27	26.54	-34.1	-34.6	27.5	0.00e+00	0	37	0	1781530624	46	5931
2026-01-04 05:38:13.61	207.46	26.67	-34.1	-34.6	27.4	0.00e+00	0	37	0	1788870656	46	5938
2026-01-04 05:38:14.62	207.65	26.81	-33.9	-34.4	27.6	0.00e+00	0	37	0	1796210688	46	5777
2026-01-04 05:38:15.63	207.84	26.95	-34.2	-34.7	27.5	0.00e+00	0	37	0	1803550720	46	6031
2026-01-04 05:38:16.64	208.03	27.09	-33.9	-34.4	27.7	0.00e+00	0	37	0	1810890752	46	5784
2026-01-04 05:38:17.65	208.23	27.22	-33.7	-34.2	27.7	0.00e+00	0	37	0	1818230784	46	5659
2026-01-04 05:38:18.66	208.42	27.36	-33.3	-33.8	27.9	0.00e+00	0	37	0	1825570816	46	5392
2026-01-04 05:38:19.67	208.62	27.50	-33.1	-33.5	28.1	0.00e+00	0	37	0	1832910848	44	5893
2026-01-04 05:38:20.68	208.82	27.64	-33.0	-33.5	28.2	0.00e+00	0	37	0	1840250880	44	5832
2026-01-04 05:38:21.70	209.03	27.78	-33.2	-33.7	28.1	0.00e+00	0	37	0	1847590912	44	6007
2026-01-04 05:38:22.71	209.23	27.92	-33.3	-33.7	28.1	0.00e+00	0	37	0	1854930944	44	6025
2026-01-04 05:38:23.72	209.43	28.06	-33.5	-34.0	28.0	0.00e+00	0	37	0	1861222400	44	6220
2026-01-04 05:38:24.73	209.64	28.20	-33.6	-34.1	27.9	0.00e+00	0	37	0	1869611008	44	6251
2026-01-04 05:38:25.74	209.85	28.34	-33.9	-34.4	27.9	0.00e+00	0	37	0	1876951040	44	6470
2026-01-04 05:38:26.75	210.06	28.48	-33.6	-34.1	27.9	0.00e+00	0	37	0	1883242496	44	6291
2026-01-04 05:38:27.76	210.27	28.63	-33.6	-34.1	27.9	0.00e+00	0	37	0	1890582528	44	6258
2026-01-04 05:38:28.77	210.49	28.77	-33.5	-34.0	27.8	0.00e+00	0	37	0	1898971136	44	6210
2026-01-04 05:38:29.78	210.70	28.91	-33.3	-33.8	27.9	0.00e+00	0	37	0	1905262592	44	6064
2026-01-04 05:38:30.79	210.92	29.05	-33.5	-34.0	27.9	0.00e+00	0	37	0	1912602624	44	6206
2026-01-04 05:38:31.81	211.14	29.20	-33.7	-34.2	27.6	0.00e+00	0	37	0	1919942656	44	6344
2026-01-04 05:38:32.82	211.36	29.34	-33.4	-33.9	27.8	0.00e+00	0	37	0	1927282688	44	6107
2026-01-04 05:38:33.83	211.59	29.48	-33.8	-34.3	27.8	0.00e+00	0	37	0	1934622720	44	6415
2026-01-04 05:38:34.84	211.81	29.62	-33.9	-34.4	27.8	0.00e+00	0	37	0	1941962752	44	6481
2026-01-04 05:38:35.85	212.04	29.77	-34.0	-34.5	27.7	0.00e+00	0	37	0	1949302784	44	6570
2026-01-04 05:38:36.86	212.27	29.91	-34.2	-34.7	27.5	0.00e+00	0	37	0	1956642816	46	5992
2026-01-04 05:38:37.87	212.50	30.06	-34.2	-34.7	27.4	0.00e+00	0	37	0	1963982848	46	5986
2026-01-04 05:38:38.88	212.73	30.20	-34.2	-34.7	27.4	0.00e+00	0	37	0	1971322880	46	5977
2026-01-04 05:38:39.90	212.97	30.35	-34.4	-34.9	27.5	0.00e+00	0	37	0	1978662912	46	6165
2026-01-04 05:38:40.90	213.21	30.49	-34.3	-34.8	27.7	0.00e+00	0	37	0	1986002944	46	6069
2026-01-04 05:38:41.92	213.45	30.64	-34.5	-35.0	27.2	0.00e+00	0	37	0	1993342976	46	6188
2026-01-04 05:38:42.93	213.69	30.78	-34.0	-34.5	27.6	0.00e+00	0	37	0	2000683008	46	5832
2026-01-04 05:38:43.94	213.93	30.93	-33.9	-34.4	27.5	0.00e+00	0	37	0	2008023040	46	5795
2026-01-04 05:38:44.95	214.18	31.07	-33.8	-34.3	27.6	0.00e+00	0	37	0	2015363072	46	5719
2026-01-04 05:38:45.96	214.43	31.22	-33.7	-34.2	27.6	0.00e+00	0	37	0	2022703104	46	5648
2026-01-04 05:38:46.97	214.68	31.36	-33.8	-34.3	27.9	0.00e+00	0	37	0	2030043136	46	5731
2026-01-04 05:38:47.98	214.93	31.51	-33.6	-34.0	27.9	0.00e+00	0	37	0	2037383168	46	5559
2026-01-04 05:38:49.00	215.19	31.66	-33.5	-34.0	27.9	0.00e+00	0	37	0	2044723200	46	5513
2026-01-04 05:38:50.01	215.45	31.80	-33.5	-34.0	28.0	0.00e+00	0	37	0	2051014656	46	5507
2026-01-04 05:38:51.02	215.70	31.95	-33.7	-34.2	27.8	0.00e+00	0	37	0	2058354688	46	5673
2026-01-04 05:38:52.03	215.97	32.09	-33.8	-34.2	27.7	0.00e+00	0	37	0	2066743296	46	5687
2026-01-04 05:38:53.04	216.23	32.24	-33.4	-33.9	27.7	0.00e+00	0	37	0	2073034752	46	5450
2026-01-04 05:38:54.05	216.50	32.39	-33.3	-33.8	27.9	0.00e+00	0	37	0	2080374784	46	5412
2026-01-04 05:38:55.06	216.77	32.53	-33.4	-33.9	27.8	0.00e+00	0	37	0	2087714816	46	5461
2026-01-04 05:38:56.07	217.04	32.68	-33.3	-33.8	27.7	0.00e+00	0	37	0	2095054848	46	5391
2026-01-04 05:38:57.08	217.31	32.83	-33.3	-33.8	27.9	0.00e+00	0	37	0	2102394880	46	5414
2026-01-04 05:38:58.10	217.59	32.97	-33.3	-33.8	27.9	0.00e+00	0	37	0	2109734912	46	5385
2026-01-04 05:38:59.11	217.87	33.12	-33.3	-33.7	27.7	0.00e+00	0	37	0	2117074944	46	5364
2026-01-04 05:39:00.12	218.15	33.27	-33.3	-33.8	27.8	0.00e+00	0	37	0	2124414976	46	5387
2026-01-04 05:39:01.13	218.43	33.41	-33.0	-33.4	28.1	0.00e+00	0	37	0	2131755008	46	5179
2026-01-04 05:39:02.14	218.72	33.56	-33.2	-33.7	28.0	0.00e+00	0	37	0	2139095040	44	5966
2026-01-04 05:39:03.15	219.01	33.71	-33.2	-33.7	27.9	0.00e+00	0	37	0	2146435072	44	5977
2026-01-04 05:39:04.16	219.30	33.85	-33.4	-33.8	27.8	0.00e+00	0	37	0	2153775104	44	6102
2026-01-04 05:39:05.17	219.59	34.00	-33.3	-33.8	27.8	0.00e+00	0	37	0	2161115136	44	6089
2026-01-04 05:39:06.18	219.89	34.14	-34.1	-34.6	27.9	0.00e+00	0	37	0	2168455168	44	6621
2026-01-04 05:39:07.20	220.19	34.29	-34.8	-35.3	27.6	0.00e+00	0	37	0	2175795200	46	6396
2026-01-04 05:39:08.21	220.49	34.44	-35.3	-35.7	27.5	0.00e+00	0	37	0	2183135232	48	6032
2026-01-04 05:39:09.22	220.79	34.58	-35.2	-35.7	27.4	0.00e+00	0	37	0	2190475264	48	6003
2026-01-04 05:39:10.23	221.10	34.73	-35.3	-35.8	27.1	0.00e+00	0	37	0	2197815296	48	6055
2026-01-04 05:39:11.24	221.41	34.87	-35.5	-36.0	27.7	0.00e+00	0	37	0	2205155328	48	6175
2026-01-04 05:39:12.25	221.72	35.02	-35.7	-36.2	27.4	0.00e+00	0	37	0	2212495360	48	6330
2026-01-04 05:39:13.26	222.04	35.16	-36.1	-36.6	27.5	0.00e+00	0	37	0	2219835392	50	5949
2026-01-04 05:39:14.27	222.35	35.30	-35.3	-35.8	27.5	0.00e+00	0	37	0	2227175424	50	5420
2026-01-04 05:39:15.28	222.68	35.45	-34.8	-35.3	27.7	0.00e+00	0	37	0	2234515456	48	5710
2026-01-04 05:39:16.30	223.00	35.59	-34.7	-35.2	27.9	0.00e+00	0	37	0	2241855488	48	5642
2026-01-04 05:39:17.31	223.33	35.74	-35.5	-35.9	27.7	0.00e+00	0	37	0	2248146944	48	6162
2026-01-04 05:39:18.32	223.66	35.88	-35.3	-35.8	27.7	0.00e+00	0	37	0	2255486976	48	6034
2026-01-04 05:39:19.33	223.99	36.02	-34.3	-34.8	28.0	0.00e+00	0	37	0	2263875584	48	5423
2026-01-04 05:39:20.34	224.32	36.16	-34.2	-34.7	28.0	0.00e+00	0	37	0	2270167040	48	5355
2026-01-04 05:39:21.35	224.66	36.30	-35.6	-36.0	28.0	0.00e+00	0	37	0	2277507072	50	5543
2026-01-04 05:39:22.36	225.00	36.44	-35.3	-35.8	28.1	0.00e+00	0	37	0	2284847104	48	6072
2026-01-04 05:39:23.37	225.34	36.58	-35.0	-35.5	27.9	0.00e+00	0	37	0	2292187136	48	5849
2026-01-04 05:39:24.38	225.69	36.72	-35.1	-35.5	27.9	0.00e+00	0	37	0	2299527168	48	5895
2026-01-04 05:39:25.39	226.04	36.86	-35.0	-35.5	28.0	0.00e+00	0	37	0	2306867200	48	5837
2026-01-04 05:39:26.41	226.39	37.00	-35.2	-35.7	28.1	0.00e+00	0	37	0	2314207232	48	6005
2026-01-04 05:39:27.42	226.75	37.14	-35.0	-35.5	27.9	0.00e+00	0	37	0	2321547264	48	5879
2026-01-04 05:39:28.43	227.11	37.28	-35.0	-35.5	27.9	0.00e+00	0	37	0	2328887296	48	5848
2026-01-04 05:39:29.44	227.47	37.42	-35.2	-35.6	28.0	0.00e+00	0	37	0	2336227328	48	5957
2026-01-04 05:39:30.45	227.83	37.55	-34.6	-35.1	28.0	0.00e+00	0	37	0	2343567360	48	5603
2026-01-04 05:39:31.46	228.20	37.69	-34.7	-35.1	27.9	0.00e+00	0	37	0	2350907392	48	5629
2026-01-04 05:39:32.47	228.57	37.82	-35.0	-35.5	27.6	0.00e+00	0	37	0	2358247424	48	5836
2026-01-04 05:39:33.48	228.94	37.96	-34.4	-34.9	27.6	0.00e+00	0	37	0	2365587456	48	5477
2026-01-04 05:39:34.49	229.32	38.09	-34.9	-35.4	27.4	0.00e+00	0	37	0	2372927488	48	5807
2026-01-04 05:39:35.51	229.70	38.22	-35.1	-35.6	27.3	0.00e+00	0	37	0	2380267520	48	5952
2026-01-04 05:39:36.52	230.08	38.35	-35.2	-35.7	27.5	0.00e+00	0	37	0	2387607552	48	6011
2026-01-04 05:39:37.53	230.46	38.48	-34.6	-35.1	27.7	0.00e+00	0	37	0	2394947584	48	5608
2026-01-04 05:39:38.54	230.85	38.61	-34.5	-35.0	27.7	0.00e+00	0	37	0	2402287616	48	5531
2026-01-04 05:39:39.55	231.24	38.74	-34.2	-34.7	27.7	0.00e+00	0	37	0	2409627648	48	5339
2026-01-04 05:39:40.56	231.64	38.87	-34.1	-34.5	27.9	0.00e+00	0	37	0	2415919104	46	5883
2026-01-04 05:39:41.57	232.03	38.99	-34.0	-34.5	27.9	0.00e+00	0	37	0	2424307712	46	5842
2026-01-04 05:39:42.58	232.43	39.12	-33.6	-34.1	28.0	0.00e+00	0	37	0	2431647744	46	5582
2026-01-04 05:39:43.59	232.84	39.24	-33.5	-34.0	28.0	0.00e+00	0	37	0	2437939200	46	5542
2026-01-04 05:39:44.61	233.25	39.37	-33.6	-34.1	28.0	0.00e+00	0	37	0	2445279232	46	5594
2026-01-04 05:39:45.62	233.66	39.49	-33.7	-34.2	27.9	0.00e+00	0	37	0	2452619264	46	5631
2026-01-04 05:39:46.63	234.07	39.61	-33.7	-34.2	27.8	0.00e+00	0	37	0	2459959296	46	5675
2026-01-04 05:39:47.64	234.48	39.73	-33.9	-34.4	27.7	0.00e+00	0	37	0	2467299328	46	5774
2026-01-04 05:39:48.65	234.90	39.85	-34.7	-35.1	27.5	0.00e+00	0	37	0	2474639360	46	6307
2026-01-04 05:39:49.66	235.32	39.97	-35.5	-36.0	26.9	0.00e+00	0	37	0	2481979392	48	6185
2026-01-04 05:39:50.67	235.75	40.08	-35.3	-35.7	27.5	0.00e+00	0	37	0	2489319424	48	6033
2026-01-04 05:39:51.68	236.17	40.19	-34.7	-35.2	27.4	0.00e+00	0	37	0	2496659456	48	5637
2026-01-04 05:39:52.69	236.60	40.31	-34.5	-34.9	27.7	0.00e+00	0	37	0	2503999488	48	5484
2026-01-04 05:39:53.71	237.04	40.42	-34.4	-34.9	27.8	0.00e+00	0	37	0	2511339520	48	5474
2026-01-04 05:39:54.72	237.48	40.53	-34.2	-34.7	27.7	0.00e+00	0	37	0	2518679552	48	5340
2026-01-04 05:39:55.73	237.92	40.64	-34.6	-35.1	27.5	0.00e+00	0	37	0	2526019584	46	6252
2026-01-04 05:39:56.74	238.36	40.75	-35.0	-35.5	27.4	0.00e+00	0	37	0	2533359616	46	6560
2026-01-04 05:39:57.75	238.80	40.85	-35.7	-36.2	27.2	0.00e+00	0	37	0	2540699648	50	5691
2026-01-04 05:39:58.76	239.25	40.95	-35.4	-35.8	27.3	0.00e+00	0	37	0	2548039680	50	5433
2026-01-04 05:39:59.77	239.70	41.06	-34.8	-35.3	27.7	0.00e+00	0	37	0	2555379712	48	5720
2026-01-04 05:40:00.78	240.15	41.16	-35.3	-35.8	27.5	0.00e+00	0	37	0	2562719744	48	6040
2026-01-04 05:40:01.79	240.61	41.25	-34.2	-34.6	27.9	0.00e+00	0	37	0	2570059776	48	5298
2026-01-04 05:40:02.80	241.07	41.35	-34.1	-34.5	27.8	0.00e+00	0	37	0	2577399808	46	5890
2026-01-04 05:40:03.82	241.53	41.45	-34.7	-35.2	27.5	0.00e+00	0	37	0	2584739840	48	5667
2026-01-04 05:40:04.83	242.00	41.54	-35.4	-35.9	27.7	0.00e+00	0	37	0	2592079872	48	6144
2026-01-04 05:40:05.84	242.46	41.63	-33.9	-34.4	28.0	0.00e+00	0	37	0	2599419904	48	5140
2026-01-04 05:40:06.85	242.93	41.72	-34.4	-34.9	28.1	0.00e+00	0	37	0	2606759936	46	6138
2026-01-04 05:40:07.86	243.40	41.81	-34.6	-35.1	27.9	0.00e+00	0	37	0	2613051392	46	6280
2026-01-04 05:40:08.87	243.88	41.90	-35.2	-35.7	27.8	0.00e+00	0	37	0	2621440000	48	5981
2026-01-04 05:40:09.88	244.35	41.98	-34.4	-34.9	28.0	0.00e+00	0	37	0	2628780032	48	5447
2026-01-04 05:40:10.89	244.83	42.06	-35.8	-36.3	27.7	0.00e+00	0	37	0	2635071488	48	6439
2026-01-04 05:40:11.90	245.32	42.14	-35.1	-35.6	27.7	0.00e+00	0	37	0	2642411520	50	5285
2026-01-04 05:40:12.92	245.80	42.22	-35.0	-35.5	27.7	0.00e+00	0	37	0	2649751552	48	5836
2026-01-04 05:40:13.93	246.29	42.30	-35.3	-35.8	27.1	0.00e+00	0	37	0	2657091584	48	6064
2026-01-04 05:40:14.94	246.78	42.37	-35.7	-36.2	27.8	0.00e+00	0	37	0	2664431616	48	6346
2026-01-04 05:40:15.95	247.27	42.44	-35.6	-36.1	27.7	0.00e+00	0	37	0	2671771648	48	6289
2026-01-04 05:40:16.96	247.76	42.51	-35.3	-35.8	27.7	0.00e+00	0	37	0	2679111680	48	6060
2026-01-04 05:40:17.97	248.25	42.58	-35.5	-36.0	27.7	0.00e+00	0	37	0	2686451712	50	5519
2026-01-04 05:40:18.98	248.75	42.64	-36.0	-36.5	27.8	0.00e+00	0	37	0	2693791744	50	5852
2026-01-04 05:40:19.99	249.25	42.70	-35.5	-35.9	27.9	0.00e+00	0	37	0	2701131776	50	5501
2026-01-04 05:40:21.00	249.75	42.76	-35.2	-35.7	27.8	0.00e+00	0	37	0	2708471808	50	5344
2026-01-04 05:40:22.02	250.26	42.82	-34.5	-34.9	27.9	0.00e+00	0	37	0	2715811840	48	5485
2026-01-04 05:40:23.03	250.76	42.88	-33.9	-34.4	27.9	0.00e+00	0	37	0	2723151872	46	5788
2026-01-04 05:40:24.04	251.27	42.93	-34.3	-34.7	27.7	0.00e+00	0	37	0	2730491904	46	6026
2026-01-04 05:40:25.05	251.77	42.98	-35.0	-35.5	27.6	0.00e+00	0	37	0	2737831936	48	5876
2026-01-04 05:40:26.06	252.28	43.03	-35.2	-35.7	27.5	0.00e+00	0	37	0	2745171968	48	5970
2026-01-04 05:40:27.07	252.79	43.08	-36.2	-36.7	26.9	0.00e+00	0	37	0	2752512000	50	6003
2026-01-04 05:40:28.08	253.30	43.12	-36.7	-37.2	27.2	0.00e+00	0	37	0	2759852032	50	6346
2026-01-04 05:40:29.09	253.82	43.16	-35.7	-36.1	27.3	0.00e+00	0	37	0	2767192064	50	5624
2026-01-04 05:40:30.10	254.33	43.20	-35.7	-36.2	27.2	0.00e+00	0	37	0	2774532096	50	5660
2026-01-04 05:40:31.12	254.85	43.24	-35.8	-36.3	27.5	0.00e+00	0	37	0	2780823552	50	5706
2026-01-04 05:40:32.13	255.37	43.27	-35.4	-35.9	27.4	0.00e+00	0	37	0	2789212160	50	5452
2026-01-04 05:40:33.14	255.89	43.30	-35.4	-35.9	27.2	0.00e+00	0	37	0	2796552192	48	6146
2026-01-04 05:40:34.15	256.40	43.33	-35.8	-36.3	27.2	0.00e+00	0	37	0	2802843648	50	5699
2026-01-04 05:40:35.16	256.92	43.36	-35.5	-36.0	27.4	0.00e+00	0	37	0	2810183680	50	5511
2026-01-04 05:40:36.17	257.44	43.38	-34.9	-35.4	27.5	0.00e+00	0	37	0	2818572288	48	5811
2026-01-04 05:40:37.18	257.96	43.40	-34.6	-35.1	27.8	0.00e+00	0	37	0	2824863744	48	5576
2026-01-04 05:40:38.19	258.49	43.42	-35.1	-35.6	27.4	0.00e+00	0	37	0	2832203776	48	5917
2026-01-04 05:40:39.20	259.01	43.43	-35.3	-35.8	27.5	0.00e+00	0	37	0	2839543808	48	6057
2026-01-04 05:40:40.22	259.53	43.45	-35.2	-35.7	27.5	0.00e+00	0	37	0	2846883840	48	6024
2026-01-04 05:40:41.23	260.06	43.46	-35.1	-35.6	27.5	0.00e+00	0	37	0	2854223872	48	5956
2026-01-04 05:40:42.24	260.58	43.47	-34.7	-35.2	27.6	0.00e+00	0	37	0	2861563904	48	5634
2026-01-04 05:40:43.25	261.10	43.47	-33.9	-34.3	27.7	0.00e+00	0	37	0	2868903936	46	5754
2026-01-04 05:40:44.26	261.63	43.47	-34.1	-34.6	27.6	0.00e+00	0	37	0	2876243968	46	5952
2026-01-04 05:40:45.27	262.15	43.47	-35.2	-35.7	27.3	0.00e+00	0	37	0	2883584000	46	6746
2026-01-04 05:40:46.28	262.67	43.47	-35.5	-36.0	27.3	0.00e+00	0	37	0	2890924032	50	5539
2026-01-04 05:40:47.29	263.20	43.47	-35.7	-36.2	27.3	0.00e+00	0	37	0	2898264064	50	5669
2026-01-04 05:40:48.31	263.72	43.46	-34.7	-35.1	27.4	0.00e+00	0	37	0	2905604096	48	5624
2026-01-04 05:40:49.32	264.25	43.45	-34.3	-34.8	27.6	0.00e+00	0	37	0	2912944128	48	5417
2026-01-04 05:40:50.33	264.77	43.44	-34.9	-35.4	27.3	0.00e+00	0	37	0	2920284160	48	5789
2026-01-04 05:40:51.34	265.29	43.42	-35.3	-35.8	27.4	0.00e+00	0	37	0	2927624192	48	6056
2026-01-04 05:40:52.35	265.81	43.40	-35.0	-35.5	27.3	0.00e+00	0	37	0	2934964224	48	5881
2026-01-04 05:40:53.36	266.33	43.38	-35.1	-35.6	27.2	0.00e+00	0	37	0	2942304256	48	5917
2026-01-04 05:40:54.37	266.85	43.36	-34.6	-35.1	27.3	0.00e+00	0	37	0	2949644288	48	5614
2026-01-04 05:40:55.38	267.37	43.33	-34.6	-35.1	27.1	0.00e+00	0	37	0	2956984320	48	5616
2026-01-04 05:40:56.40	267.90	43.30	-34.7	-35.1	27.4	0.00e+00	0	37	0	2964324352	48	5630
2026-01-04 05:40:57.41	268.41	43.27	-34.7	-35.1	26.9	0.00e+00	0	37	0	2971664384	48	5630
2026-01-04 05:40:58.42	268.93	43.24	-34.6	-35.1	26.7	0.00e+00	0	37	0	2977955840	48	5602
2026-01-04 05:40:59.43	269.44	43.20	-35.0	-35.5	27.2	0.00e+00	0	37	0	2986344448	48	5860
2026-01-04 05:41:00.44	269.96	43.17	-35.3	-35.8	27.2	0.00e+00	0	37	0	2993684480	48	6073
2026-01-04 05:41:01.45	270.47	43.12	-35.3	-35.8	27.5	0.00e+00	0	37	0	2999975936	48	6034
2026-01-04 05:41:02.46	270.98	43.08	-35.0	-35.4	27.3	0.00e+00	0	37	0	3007315968	48	5811
2026-01-04 05:41:03.47	271.49	43.04	-34.9	-35.3	27.5	0.00e+00	0	37	0	3015704576	48	5751
2026-01-04 05:41:04.48	272.00	42.99	-35.0	-35.4	27.5	0.00e+00	0	37	0	3021996032	48	5818
2026-01-04 05:41:05.50	272.51	42.94	-34.9	-35.4	27.4	0.00e+00	0	37	0	3029336064	48	5790
2026-01-04 05:41:06.51	273.02	42.88	-35.3	-35.8	27.4	0.00e+00	0	37	0	3036676096	48	6041
2026-01-04 05:41:07.52	273.52	42.83	-35.2	-35.7	27.3	0.00e+00	0	37	0	3044016128	48	6018
2026-01-04 05:41:08.53	274.02	42.77	-35.6	-36.0	27.2	0.00e+00	0	37	0	3051356160	48	6244
2026-01-04 05:41:09.54	274.52	42.71	-35.8	-36.3	27.1	0.00e+00	0	37	0	3058696192	48	6423
2026-01-04 05:41:10.55	275.02	42.65	-36.1	-36.6	27.2	0.00e+00	0	37	0	3066036224	50	5936
2026-01-04 05:41:11.56	275.52	42.59	-36.2	-36.7	26.4	0.00e+00	0	37	0	3073376256	50	6004
2026-01-04 05:41:12.57	276.01	42.52	-34.9	-35.4	27.3	0.00e+00	0	37	0	3080716288	48	5794
2026-01-04 05:41:13.58	276.50	42.45	-34.5	-35.0	27.5	0.00e+00	0	37	0	3088056320	48	5550
2026-01-04 05:41:14.60	277.00	42.38	-34.5	-35.0	27.5	0.00e+00	0	37	0	3095396352	48	5516
2026-01-04 05:41:15.61	277.48	42.30	-34.4	-34.9	27.3	0.00e+00	0	37	0	3102736384	48	5453
2026-01-04 05:41:16.62	277.97	42.23	-35.3	-35.7	27.4	0.00e+00	0	37	0	3110076416	48	6027
2026-01-04 05:41:17.63	278.45	42.15	-34.7	-35.2	27.5	0.00e+00	0	37	0	3117416448	48	5643
2026-01-04 05:41:18.64	278.93	42.07	-34.4	-34.9	27.2	0.00e+00	0	37	0	3124756480	48	5468
2026-01-04 05:41:19.65	279.41	41.99	-35.0	-35.5	27.6	0.00e+00	0	37	0	3132096512	48	5847
2026-01-04 05:41:20.66	279.89	41.91	-36.1	-36.5	27.5	0.00e+00	0	37	0	3139436544	50	5891
2026-01-04 05:41:21.67	280.36	41.82	-35.7	-36.2	27.6	0.00e+00	0	37	0	3146776576	50	5674
2026-01-04 05:41:22.68	280.83	41.74	-35.1	-35.5	27.5	0.00e+00	0	37	0	3154116608	48	5892
2026-01-04 05:41:23.70	281.31	41.65	-34.5	-35.0	27.7	0.00e+00	0	37	0	3161456640	48	5557
2026-01-04 05:41:24.71	281.77	41.55	-34.1	-34.6	27.5	0.00e+00	0	37	0	3167748096	46	5910
2026-01-04 05:41:25.72	282.24	41.46	-33.8	-34.3	27.9	0.00e+00	0	37	0	3175088128	46	5709
2026-01-04 05:41:26.73	282.70	41.37	-34.0	-34.5	27.8	0.00e+00	0	37	0	3183476736	46	5878
2026-01-04 05:41:27.74	283.15	41.27	-34.1	-34.5	27.6	0.00e+00	0	37	0	3189768192	46	5891
2026-01-04 05:41:28.75	283.61	41.17	-34.4	-34.9	27.5	0.00e+00	0	37	0	3197108224	46	6119
2026-01-04 05:41:29.76	284.06	41.07	-35.1	-35.5	26.9	0.00e+00	0	37	0	3204448256	48	5888
2026-01-04 05:41:30.77	284.51	40.97	-34.9	-35.4	26.8	0.00e+00	0	37	0	3211788288	48	5805
2026-01-04 05:41:31.78	284.96	40.87	-34.6	-35.1	27.2	0.00e+00	0	37	0	3219128320	48	5604
2026-01-04 05:41:32.79	285.40	40.76	-33.8	-34.3	27.7	0.00e+00	0	37	0	3226468352	48	5097
2026-01-04 05:41:33.80	285.84	40.66	-34.3	-34.8	27.3	0.00e+00	0	37	0	3233808384	46	6058
2026-01-04 05:41:34.81	286.28	40.55	-34.2	-34.6	27.5	0.00e+00	0	37	0	3241148416	46	5937
2026-01-04 05:41:35.82	286.72	40.44	-33.7	-34.2	27.6	0.00e+00	0	37	0	3248488448	46	5644
2026-01-04 05:41:36.83	287.15	40.33	-34.4	-34.9	27.2	0.00e+00	0	37	0	3255828480	46	6166
2026-01-04 05:41:37.85	287.58	40.22	-34.0	-34.5	27.6	0.00e+00	0	37	0	3263168512	46	5853
2026-01-04 05:41:38.86	288.01	40.10	-33.8	-34.3	27.8	0.00e+00	0	37	0	3270508544	46	5720
2026-01-04 05:41:39.87	288.43	39.99	-33.6	-34.1	27.9	0.00e+00	0	37	0	3277848576	46	5613
2026-01-04 05:41:40.88	288.85	39.87	-33.5	-34.0	28.0	0.00e+00	0	37	0	3285188608	46	5544
2026-01-04 05:41:41.89	289.27	39.75	-33.5	-34.0	28.0	0.00e+00	0	37	0	3292528640	46	5518
2026-01-04 05:41:42.90	289.69	39.64	-33.5	-34.0	27.9	0.00e+00	0	37	0	3299868672	46	5545
2026-01-04 05:41:43.91	290.10	39.52	-33.4	-33.9	27.9	0.00e+00	0	37	0	3307208704	46	5485
2026-01-04 05:41:44.92	290.51	39.39	-33.7	-34.2	27.7	0.00e+00	0	37	0	3314548736	46	5643
2026-01-04 05:41:45.93	290.91	39.27	-33.6	-34.0	27.8	0.00e+00	0	37	0	3321888768	46	5565
2026-01-04 05:41:46.94	291.32	39.15	-33.9	-34.4	27.5	0.00e+00	0	37	0	3329228800	46	5769
2026-01-04 05:41:47.95	291.71	39.02	-33.8	-34.3	27.5	0.00e+00	0	37	0	3336568832	46	5743
2026-01-04 05:41:48.96	292.11	38.90	-33.9	-34.4	27.7	0.00e+00	0	37	0	3342860288	46	5797
2026-01-04 05:41:49.97	292.50	38.77	-34.0	-34.5	27.7	0.00e+00	0	37	0	3351248896	46	5876
2026-01-04 05:41:50.98	292.89	38.64	-35.3	-35.7	27.5	0.00e+00	0	37	0	3358588928	48	6030
2026-01-04 05:41:52.00	293.29	38.51	-34.5	-35.0	27.5	0.00e+00	0	37	0	3364880384	48	5526
2026-01-04 05:41:53.01	293.67	38.38	-34.9	-35.4	27.5	0.00e+00	0	37	0	3372220416	48	5818
2026-01-04 05:41:54.02	294.05	38.25	-35.6	-36.1	26.7	0.00e+00	0	37	0	3379560448	48	6294
2026-01-04 05:41:55.03	294.43	38.12	-35.5	-36.0	27.3	0.00e+00	0	37	0	3386900480	50	5527
2026-01-04 05:41:56.04	294.81	37.99	-35.2	-35.7	27.5	0.00e+00	0	37	0	3394240512	48	5971
2026-01-04 05:41:57.05	295.18	37.86	-34.3	-34.7	27.8	0.00e+00	0	37	0	3401580544	48	5366
2026-01-04 05:41:58.06	295.55	37.72	-34.6	-35.0	27.9	0.00e+00	0	37	0	3408920576	46	6223
2026-01-04 05:41:59.07	295.91	37.59	-34.1	-34.5	27.8	0.00e+00	0	37	0	3416260608	46	5880
2026-01-04 05:42:00.08	296.28	37.45	-33.7	-34.2	28.0	0.00e+00	0	37	0	3423600640	46	5651
2026-01-04 05:42:01.09	296.64	37.32	-34.0	-34.4	27.9	0.00e+00	0	37	0	3430940672	46	5827
2026-01-04 05:42:02.11	297.00	37.18	-34.3	-34.8	27.7	0.00e+00	0	37	0	3438280704	46	6040
2026-01-04 05:42:03.12	297.35	37.04	-34.5	-35.0	27.8	0.00e+00	0	37	0	3445620736	46	6195
2026-01-04 05:42:04.13	297.70	36.90	-34.2	-34.7	27.7	0.00e+00	0	37	0	3452960768	46	6023
2026-01-04 05:42:05.14	298.05	36.77	-34.7	-35.2	27.6	0.00e+00	0	37	0	3460300800	46	6364
2026-01-04 05:42:06.15	298.40	36.63	-34.4	-34.9	27.9	0.00e+00	0	37	0	3467640832	46	6105
2026-01-04 05:42:07.16	298.74	36.49	-34.2	-34.7	27.9	0.00e+00	0	37	0	3474980864	46	5981
2026-01-04 05:42:08.17	299.08	36.35	-33.5	-34.0	28.0	0.00e+00	0	37	0	3482320896	46	5547
2026-01-04 05:42:09.18	299.42	36.21	-33.6	-34.1	28.0	0.00e+00	0	37	0	3489660928	46	5580
2026-01-04 05:42:10.20	299.75	36.06	-33.6	-34.1	27.9	0.00e+00	0	37	0	3497000960	46	5576
2026-01-04 05:42:11.21	300.09	35.92	-33.4	-33.9	28.0	0.00e+00	0	37	0	3504340992	46	5441
2026-01-04 05:42:12.22	300.41	35.78	-33.5	-33.9	28.1	0.00e+00	0	37	0	3510632448	46	5500
2026-01-04 05:42:13.23	300.74	35.64	-33.4	-33.9	28.2	0.00e+00	0	37	0	3519021056	46	5457
2026-01-04 05:42:14.24	301.06	35.50	-33.6	-34.0	28.1	0.00e+00	0	37	0	3526361088	46	5559
2026-01-04 05:42:15.25	301.38	35.35	-33.6	-34.2	28.1	0.00e+00	0	37	0	3532652544	46	5635
2026-01-04 05:42:16.26	301.70	35.21	-33.8	-34.3	28.0	0.00e+00	0	37	0	3539992576	46	5737
2026-01-04 05:42:17.27	302.01	35.07	-34.3	-34.8	27.2	0.00e+00	0	37	0	3548381184	46	6067
2026-01-04 05:42:18.28	302.33	34.92	-34.0	-34.5	27.8	0.00e+00	0	37	0	3554672640	46	5852
2026-01-04 05:42:19.30	302.64	34.78	-33.9	-34.4	27.8	0.00e+00	0	37	0	3562012672	46	5763
2026-01-04 05:42:20.31	302.94	34.63	-33.7	-34.2	27.9	0.00e+00	0	37	0	3569352704	46	5659
2026-01-04 05:42:21.32	303.25	34.49	-33.7	-34.2	27.9	0.00e+00	0	37	0	3576692736	46	5648
2026-01-04 05:42:22.33	303.55	34.34	-33.7	-34.2	27.8	0.00e+00	0	37	0	3584032768	46	5633
2026-01-04 05:42:23.34	303.85	34.20	-33.6	-34.1	28.0	0.00e+00	0	37	0	3591372800	46	5574
2026-01-04 05:42:24.35	304.14	34.05	-33.4	-33.8	28.0	0.00e+00	0	37	0	3598712832	46	5437
2026-01-04 05:42:25.36	304.44	33.91	-33.3	-33.8	28.1	0.00e+00	0	37	0	3606052864	46	5400
2026-01-04 05:42:26.37	304.73	33.76	-33.6	-34.1	27.9	0.00e+00	0	37	0	3613392896	46	5569
2026-01-04 05:42:27.38	305.01	33.62	-33.8	-34.3	28.0	0.00e+00	0	37	0	3620732928	46	5707
2026-01-04 05:42:28.39	305.30	33.47	-34.2	-34.7	28.0	0.00e+00	0	37	0	3628072960	46	5993
2026-01-04 05:42:29.41	305.59	33.33	-34.8	-35.3	27.6	0.00e+00	0	37	0	3635412992	46	6410
2026-01-04 05:42:30.42	305.87	33.18	-34.4	-34.8	27.8	0.00e+00	0	37	0	3642753024	48	5428
2026-01-04 05:42:31.43	306.14	33.03	-35.1	-35.6	27.5	0.00e+00	0	37	0	3650093056	48	5932
2026-01-04 05:42:32.44	306.42	32.89	-34.9	-35.4	27.3	0.00e+00	0	37	0	3657433088	48	5812
2026-01-04 05:42:33.45	306.69	32.74	-34.8	-35.3	27.1	0.00e+00	0	37	0	3664773120	48	5698
2026-01-04 05:42:34.46	306.96	32.60	-35.0	-35.6	27.4	0.00e+00	0	37	0	3672113152	48	5897
2026-01-04 05:42:35.47	307.23	32.45	-35.1	-35.6	27.0	0.00e+00	0	37	0	3679453184	48	5934
2026-01-04 05:42:36.48	307.50	32.31	-34.9	-35.3	27.2	0.00e+00	0	37	0	3686793216	48	5760
2026-01-04 05:42:37.49	307.76	32.16	-34.9	-35.4	27.2	0.00e+00	0	37	0	3694133248	48	5784
2026-01-04 05:42:38.50	308.02	32.01	-34.6	-35.1	27.2	0.00e+00	0	37	0	3701473280	48	5625
2026-01-04 05:42:39.52	308.29	31.87	-34.2	-34.7	27.2	0.00e+00	0	37	0	3707764736	48	5331
2026-01-04 05:42:40.53	308.54	31.72	-34.5	-35.0	27.5	0.00e+00	0	37	0	3716153344	48	5534
2026-01-04 05:42:41.54	308.80	31.58	-33.8	-34.3	27.7	0.00e+00	0	37	0	3723493376	46	5727
2026-01-04 05:42:42.55	309.05	31.43	-33.7	-34.2	27.8	0.00e+00	0	37	0	3729784832	46	5669
2026-01-04 05:42:43.56	309.30	31.29	-33.5	-34.0	28.0	0.00e+00	0	37	0	3737124864	46	5508
2026-01-04 05:42:44.57	309.55	31.14	-33.5	-34.0	28.0	0.00e+00	0	37	0	3745513472	46	5544
2026-01-04 05:42:45.58	309.79	31.00	-33.7	-34.2	27.9	0.00e+00	0	37	0	3751804928	46	5674
2026-01-04 05:42:46.59	310.04	30.85	-34.0	-34.5	27.8	0.00e+00	0	37	0	3759144960	46	5841
2026-01-04 05:42:47.60	310.28	30.71	-34.0	-34.5	27.7	0.00e+00	0	37	0	3766484992	46	5874
2026-01-04 05:42:48.62	310.52	30.56	-34.3	-34.8	27.6	0.00e+00	0	37	0	3773825024	46	6091
2026-01-04 05:42:49.63	310.76	30.42	-34.3	-34.8	27.6	0.00e+00	0	37	0	3781165056	46	6053
2026-01-04 05:42:50.64	310.99	30.28	-34.4	-34.9	27.5	0.00e+00	0	37	0	3788505088	46	6126
2026-01-04 05:42:51.65	311.23	30.13	-35.0	-35.5	27.7	0.00e+00	0	37	0	3795845120	46	6575
2026-01-04 05:42:52.66	311.46	29.99	-35.5	-36.0	27.4	0.00e+00	0	37	0	3803185152	48	6211
2026-01-04 05:42:53.67	311.69	29.85	-34.8	-35.3	27.7	0.00e+00	0	37	0	3810525184	48	5745
2026-01-04 05:42:54.68	311.92	29.70	-34.6	-35.0	27.7	0.00e+00	0	37	0	3817865216	48	5546
2026-01-04 05:42:55.69	312.14	29.56	-34.6	-35.0	27.8	0.00e+00	0	37	0	3825205248	48	5553
2026-01-04 05:42:56.70	312.36	29.42	-34.8	-35.3	27.7	0.00e+00	0	37	0	3832545280	48	5704
2026-01-04 05:42:57.72	312.59	29.28	-34.8	-35.3	27.7	0.00e+00	0	37	0	3839885312	48	5720
2026-01-04 05:42:58.73	312.81	29.13	-34.5	-34.9	27.4	0.00e+00	0	37	0	3847225344	48	5500
2026-01-04 05:42:59.74	313.03	28.99	-34.8	-35.3	27.4	0.00e+00	0	37	0	3854565376	48	5715
2026-01-04 05:43:00.75	313.24	28.85	-35.3	-35.8	27.2	0.00e+00	0	37	0	3861905408	48	6069
2026-01-04 05:43:01.76	313.45	28.71	-35.6	-36.1	27.4	0.00e+00	0	37	0	3869245440	48	6275
2026-01-04 05:43:02.77	313.67	28.57	-35.1	-35.6	27.4	0.00e+00	0	37	0	3876585472	48	5897
2026-01-04 05:43:03.78	313.88	28.43	-35.8	-36.3	26.9	0.00e+00	0	37	0	3883925504	48	6400
2026-01-04 05:43:04.79	314.09	28.29	-35.1	-35.6	27.4	0.00e+00	0	37	0	3891265536	48	5926
2026-01-04 05:43:05.80	314.29	28.15	-35.1	-35.6	27.6	0.00e+00	0	37	0	3897556992	48	5897
2026-01-04 05:43:06.81	314.50	28.01	-34.7	-35.2	27.5	0.00e+00	0	37	0	3904897024	48	5652
2026-01-04 05:43:07.82	314.70	27.87	-34.6	-35.1	27.6	0.00e+00	0	37	0	3913285632	48	5576
2026-01-04 05:43:08.83	314.90	27.73	-34.6	-35.1	27.6	0.00e+00	0	37	0	3919577088	48	5602
2026-01-04 05:43:09.85	315.10	27.59	-34.3	-34.8	27.6	0.00e+00	0	37	0	3926917120	48	5382
2026-01-04 05:43:10.86	315.30	27.45	-34.3	-34.8	27.5	0.00e+00	0	37	0	3934257152	48	5383
2026-01-04 05:43:11.87	315.50	27.32	-34.2	-34.7	27.5	0.00e+00	0	37	0	3941597184	48	5343
2026-01-04 05:43:12.88	315.69	27.18	-34.3	-34.8	27.4	0.00e+00	0	37	0	3948937216	48	5415
2026-01-04 05:43:13.89	315.89	27.04	-34.5	-35.0	27.3	0.00e+00	0	37	0	3956277248	48	5536
2026-01-04 05:43:14.90	316.08	26.91	-34.6	-35.1	27.2	0.00e+00	0	37	0	3963617280	48	5596
2026-01-04 05:43:15.91	316.27	26.77	-34.4	-34.9	27.2	0.00e+00	0	37	0	3970957312	48	5454
2026-01-04 05:43:16.92	316.46	26.63	-34.5	-35.0	27.2	0.00e+00	0	37	0	3978297344	48	5552
2026-01-04 05:43:17.93	316.64	26.50	-34.5	-35.0	27.2	0.00e+00	0	37	0	3985637376	48	5513
2026-01-04 05:43:18.94	316.83	26.36	-34.8	-35.3	27.3	0.00e+00	0	37	0	3992977408	48	5736
2026-01-04 05:43:19.95	317.01	26.23	-34.5	-35.0	27.3	0.00e+00	0	37	0	4000317440	48	5547
2026-01-04 05:43:20.97	317.20	26.09	-34.4	-34.9	27.2	0.00e+00	0	37	0	4007657472	48	5488
2026-01-04 05:43:21.98	317.38	25.96	-35.3	-35.8	27.0	0.00e+00	0	37	0	4014997504	48	6094
2026-01-04 05:43:22.99	317.56	25.82	-34.8	-35.3	27.1	0.00e+00	0	37	0	4022337536	48	5751
2026-01-04 05:43:24.00	317.73	25.69	-34.9	-35.4	27.3	0.00e+00	0	37	0	4029677568	48	5776
2026-01-04 05:43:25.01	317.91	25.56	-34.7	-35.2	27.3	0.00e+00	0	37	0	4037017600	48	5682
2026-01-04 05:43:26.02	318.09	25.43	-34.6	-35.1	27.0	0.00e+00	0	37	0	4044357632	48	5572
2026-01-04 05:43:27.03	318.26	25.29	-34.7	-35.2	26.7	0.00e+00	0	37	0	4051697664	48	5645
2026-01-04 05:43:28.04	318.43	25.16	-34.5	-35.0	26.9	0.00e+00	0	37	0	4059037696	48	5554
2026-01-04 05:43:29.05	318.60	25.03	-34.9	-35.4	27.2	0.00e+00	0	37	0	4066377728	48	5824
2026-01-04 05:43:30.06	318.77	24.90	-34.8	-35.3	27.0	0.00e+00	0	37	0	4072669184	48	5709
2026-01-04 05:43:31.07	318.94	24.77	-35.2	-35.7	26.9	0.00e+00	0	37	0	4081057792	48	5993
2026-01-04 05:43:32.08	319.11	24.64	-35.2	-35.6	26.7	0.00e+00	0	37	0	4088397824	48	5961
2026-01-04 05:43:33.09	319.27	24.51	-35.1	-35.6	27.0	0.00e+00	0	37	0	4094689280	48	5922
2026-01-04 05:43:34.11	319.44	24.38	-35.2	-35.7	26.9	0.00e+00	0	37	0	4102029312	48	6012
2026-01-04 05:43:35.12	319.60	24.25	-34.8	-35.3	26.8	0.00e+00	0	37	0	4109369344	48	5736
2026-01-04 05:43:36.13	319.76	24.12	-34.6	-35.1	27.3	0.00e+00	0	37	0	4116709376	48	5586
2026-01-04 05:43:37.14	319.92	23.99	-34.4	-34.9	27.3	0.00e+00	0	37	0	4124049408	48	5442
2026-01-04 05:43:38.15	320.08	23.87	-34.6	-35.1	27.2	0.00e+00	0	37	0	4131389440	48	5600
2026-01-04 05:43:39.16	320.24	23.74	-34.3	-34.8	27.5	0.00e+00	0	37	0	4138729472	48	5384
2026-01-04 05:43:40.17	320.39	23.61	-34.4	-34.8	27.1	0.00e+00	0	37	0	4146069504	48	5433
2026-01-04 05:43:41.18	320.55	23.49	-34.1	-34.6	27.4	0.00e+00	0	37	0	4153409536	48	5310
2026-01-04 05:43:42.19	320.70	23.36	-34.7	-35.2	27.2	0.00e+00	0	37	0	4160749568	48	5638
2026-01-04 05:43:43.21	320.86	23.23	-34.6	-35.1	27.4	0.00e+00	0	37	0	4168089600	48	5587
2026-01-04 05:43:44.22	321.01	23.11	-34.2	-34.7	27.4	0.00e+00	0	37	0	4175429632	48	5342
2026-01-04 05:43:45.23	321.16	22.98	-34.3	-34.8	27.5	0.00e+00	0	37	0	4182769664	48	5388
2026-01-04 05:43:46.24	321.31	22.86	-34.5	-35.0	27.4	0.00e+00	0	37	0	4190109696	48	5531
2026-01-04 05:43:47.25	321.46	22.73	-35.0	-35.5	27.3	0.00e+00	0	37	0	4197449728	48	5862
2026-01-04 05:43:48.26	321.60	22.61	-34.9	-35.4	27.3	0.00e+00	0	37	0	4204789760	48	5814
2026-01-04 05:43:49.27	321.75	22.49	-34.8	-35.2	27.1	0.00e+00	0	37	0	4212129792	48	5689
2026-01-04 05:43:50.28	321.89	22.36	-34.8	-35.3	27.3	0.00e+00	0	37	0	4219469824	48	5750
2026-01-04 05:43:51.29	322.04	22.24	-34.7	-35.2	27.1	0.00e+00	0	37	0	4226809856	48	5655
2026-01-04 05:43:52.30	322.18	22.12	-34.9	-35.4	27.1	0.00e+00	0	37	0	4234149888	48	5823
2026-01-04 05:43:53.32	322.32	22.00	-35.1	-35.6	27.1	0.00e+00	0	37	0	4240441344	48	5951
2026-01-04 05:43:54.33	322.46	21.88	-34.8	-35.3	27.1	0.00e+00	0	37	0	4248829952	48	5754
2026-01-04 05:43:55.34	322.60	21.76	-34.9	-35.4	27.1	0.00e+00	0	37	0	4256169984	48	5770
2026-01-04 05:43:56.35	322.74	21.64	-34.7	-35.2	27.2	0.00e+00	0	37	0	4262461440	48	5675
2026-01-04 05:43:57.36	322.88	21.52	-35.0	-35.5	27.2	0.00e+00	0	37	0	4269801472	48	5865
2026-01-04 05:43:58.37	323.01	21.40	-34.9	-35.4	27.2	0.00e+00	0	37	0	4278190080	48	5799
2026-01-04 05:43:59.38	323.15	21.28	-34.6	-35.0	27.3	0.00e+00	0	37	0	4284481536	48	5562
2026-01-04 05:44:00.39	323.28	21.16	-34.3	-34.8	27.3	0.00e+00	0	37	0	4291821568	48	5424
2026-01-04 05:44:01.41	323.42	21.04	-34.6	-35.1	27.3	0.00e+00	0	37	0	4299161600	48	5613
2026-01-04 05:44:02.41	323.55	20.92	-34.5	-35.0	27.2	0.00e+00	0	37	0	4306501632	48	5533
2026-01-04 05:44:03.43	323.68	20.80	-34.3	-34.8	27.3	0.00e+00	0	37	0	4313841664	48	5421
2026-01-04 05:44:04.44	323.81	20.69	-34.4	-34.9	27.2	0.00e+00	0	37	0	4321181696	48	5477
2026-01-04 05:44:05.45	323.94	20.57	-34.6	-35.1	27.0	0.00e+00	0	37	0	4328521728	48	5600
2026-01-04 05:44:06.46	324.07	20.45	-34.8	-35.3	27.0	0.00e+00	0	37	0	4335861760	48	5727
2026-01-04 05:44:07.47	324.20	20.34	-34.9	-35.4	26.9	0.00e+00	0	37	0	4343201792	48	5824
2026-01-04 05:44:08.48	324.32	20.22	-35.3	-35.8	26.9	0.00e+00	0	37	0	4350541824	48	6044
2026-01-04 05:44:09.50	324.45	20.11	-35.4	-35.9	26.7	0.00e+00	0	37	0	4357881856	48	6128
2026-01-04 05:44:10.50	324.57	19.99	-35.4	-35.9	26.7	0.00e+00	0	37	0	4365221888	48	6123
2026-01-04 05:44:11.51	324.70	19.88	-35.5	-36.0	26.5	0.00e+00	0	37	0	4372561920	48	6194
2026-01-04 05:44:12.52	324.82	19.77	-35.4	-35.9	26.6	0.00e+00	0	37	0	4379901952	48	6156
2026-01-04 05:44:13.54	324.94	19.65	-35.3	-35.8	26.8	0.00e+00	0	37	0	4387241984	48	6077
2026-01-04 05:44:14.55	325.07	19.54	-35.5	-35.9	26.4	0.00e+00	0	37	0	4394582016	48	6172
2026-01-04 05:44:15.56	325.19	19.43	-35.2	-35.7	26.6	0.00e+00	0	37	0	4401922048	48	5967
2026-01-04 05:44:16.57	325.31	19.31	-35.2	-35.7	26.8	0.00e+00	0	37	0	4409262080	48	5974
2026-01-04 05:44:17.58	325.42	19.20	-35.3	-35.8	26.7	0.00e+00	0	37	0	4416602112	48	6067
2026-01-04 05:44:18.59	325.54	19.09	-35.5	-36.0	26.7	0.00e+00	0	37	0	4423942144	48	6181
2026-01-04 05:44:19.60	325.66	18.98	-35.4	-35.9	26.6	0.00e+00	0	37	0	4431282176	48	6120
2026-01-04 05:44:20.61	325.78	18.87	-35.6	-36.1	26.5	0.00e+00	0	37	0	4437573632	48	6297
2026-01-04 05:44:21.62	325.89	18.76	-35.6	-36.1	26.6	0.00e+00	0	37	0	4445962240	48	6291
2026-01-04 05:44:22.63	326.01	18.65	-35.7	-36.2	26.5	0.00e+00	0	37	0	4453302272	48	6343
2026-01-04 05:44:23.65	326.12	18.54	-35.4	-35.9	26.6	0.00e+00	0	37	0	4459593728	48	6136
2026-01-04 05:44:24.65	326.23	18.43	-35.5	-36.0	26.5	0.00e+00	0	37	0	4466933760	48	6177
2026-01-04 05:44:25.67	326.35	18.32	-35.5	-36.0	26.5	0.00e+00	0	37	0	4474273792	48	6223
2026-01-04 05:44:26.68	326.46	18.21	-35.7	-36.2	26.6	0.00e+00	0	37	0	4481613824	48	6383
2026-01-04 05:44:27.69	326.57	18.10	-35.9	-36.4	26.5	0.00e+00	0	37	0	4488953856	48	6479
2026-01-04 05:44:28.70	326.68	18.00	-35.4	-35.9	26.6	0.00e+00	0	37	0	4496293888	48	6135
2026-01-04 05:44:29.71	326.79	17.89	-35.3	-35.8	26.5	0.00e+00	0	37	0	4503633920	48	6073
2026-01-04 05:44:30.72	326.90	17.78	-35.4	-35.9	26.4	0.00e+00	0	37	0	4510973952	48	6152
2026-01-04 05:44:31.73	327.00	17.68	-35.6	-36.1	26.4	0.00e+00	0	37	0	4518313984	48	6286
2026-01-04 05:44:32.74	327.11	17.57	-35.6	-36.1	26.4	0.00e+00	0	37	0	4525654016	48	6292
2026-01-04 05:44:33.76	327.22	17.46	-35.8	-36.3	26.3	0.00e+00	0	37	0	4532994048	48	6459
2026-01-04 05:44:34.77	327.32	17.36	-35.4	-35.9	26.3	0.00e+00	0	37	0	4540334080	48	6128
2026-01-04 05:44:35.78	327.43	17.25	-35.6	-36.2	26.2	0.00e+00	0	37	0	4547674112	48	6318
2026-01-04 05:44:36.79	327.53	17.15	-35.5	-36.0	26.2	0.00e+00	0	37	0	4555014144	48	6210
2026-01-04 05:44:37.80	327.64	17.04	-35.5	-36.0	26.1	0.00e+00	0	37	0	4562354176	48	6194
2026-01-04 05:44:38.81	327.74	16.94	-35.7	-36.2	26.2	0.00e+00	0	37	0	4569694208	48	6344
2026-01-04 05:44:39.82	327.84	16.84	-35.7	-36.2	26.1	0.00e+00	0	37	0	4577034240	48	6387
2026-01-04 05:44:40.83	327.94	16.73	-35.8	-36.3	26.1	0.00e+00	0	37	0	4584374272	48	6439
2026-01-04 05:44:41.84	328.04	16.63	-36.1	-36.6	25.9	0.00e+00	0	37	0	4591714304	48	6646
2026-01-04 05:44:42.85	328.14	16.53	-36.1	-36.6	25.7	0.00e+00	0	37	0	4599054336	50	5915
