passes_logs/2026/01/04/R4.6S_Anadyr_2ch/R4.6S_Anadyr_2ch__20260104_133055_NOAA_20_JPSS-1_rec.log

#Pass ID: 20260104_133055_NOAA 20 (JPSS-1)
#Satellite: NOAA 20 (JPSS-1)
#Configuration: NOAA 20
#almurnet v.1.7.20251203
#Start time: 2026-01-04 13:30:57

#Version: 2.2.20231116
#Station: R4.6S_Anadyr_2ch
#Location: 177.4865 lon 64.73178 lat
#TLE: 1 43013U 17073A   25350.93759711  .00000080  00000+0  58734-4 0  9994
#TLE: 2 43013  98.7603 287.1885 0002156  81.1496 278.9924 14.19526878418610

#Time	Az	El	Level	Level2	SNR	BER	BlckErr	Temp	State	Recorded	gain1	gain2
2026-01-04 13:30:57.14	18.91	0.07	-52.2	-67.5	3.5	1.51e+00	0	35	0	0	60	115412
2026-01-04 13:30:58.15	18.95	0.13	-52.5	-68.1	3.6	1.51e+00	0	36	104	0	60	123212
2026-01-04 13:30:59.16	18.99	0.19	-52.7	-68.3	3.6	1.51e+00	0	36	104	0	60	126851
2026-01-04 13:31:00.17	19.03	0.24	-52.5	-68.1	3.6	1.51e+00	0	36	104	0	60	123821
2026-01-04 13:31:01.18	19.07	0.30	-52.3	-67.9	3.6	1.51e+00	0	36	104	0	60	121127
2026-01-04 13:31:02.19	19.11	0.36	-52.3	-67.9	3.5	1.51e+00	0	36	104	0	60	120757
2026-01-04 13:31:03.21	19.15	0.42	-52.2	-67.8	3.6	1.51e+00	0	36	104	0	60	119728
2026-01-04 13:31:04.22	19.20	0.48	-52.2	-67.8	3.6	1.51e+00	0	36	104	0	60	119286
2026-01-04 13:31:05.23	19.24	0.53	-52.2	-67.7	3.6	1.51e+00	0	36	104	0	60	118868
2026-01-04 13:31:06.24	19.28	0.59	-52.1	-67.7	3.5	1.51e+00	0	36	104	0	60	117916
2026-01-04 13:31:07.25	19.32	0.65	-52.0	-67.6	3.6	1.51e+00	0	36	104	0	60	116583
2026-01-04 13:31:08.26	19.36	0.71	-51.9	-67.5	3.6	1.51e+00	0	36	104	0	60	116224
2026-01-04 13:31:09.27	19.40	0.77	-51.9	-67.5	3.6	1.51e+00	0	36	104	0	60	115379
2026-01-04 13:31:10.28	19.45	0.83	-51.8	-67.4	3.6	1.51e+00	0	36	104	0	60	113894
2026-01-04 13:31:11.29	19.49	0.88	-51.6	-67.2	3.6	1.51e+00	0	36	104	0	60	112000
2026-01-04 13:31:12.30	19.53	0.94	-51.5	-67.1	3.6	1.51e+00	0	36	104	0	60	110462
2026-01-04 13:31:13.32	19.58	1.00	-51.3	-66.9	3.6	1.51e+00	0	36	104	0	60	108056
2026-01-04 13:31:14.33	19.62	1.06	-51.0	-66.6	3.6	1.51e+00	0	36	104	0	60	103940
2026-01-04 13:31:15.34	19.66	1.12	-50.6	-66.2	3.6	1.51e+00	0	36	104	0	60	100039
2026-01-04 13:31:16.35	19.70	1.18	-50.6	-66.2	3.6	1.51e+00	0	36	104	0	60	100085
2026-01-04 13:31:17.36	19.75	1.24	-50.6	-66.2	3.6	1.51e+00	0	36	104	0	60	99302
2026-01-04 13:31:18.37	19.79	1.30	-50.6	-66.2	3.6	1.51e+00	0	36	104	0	60	99297
2026-01-04 13:31:19.38	19.83	1.36	-50.6	-66.2	3.6	1.51e+00	0	36	104	0	60	99213
2026-01-04 13:31:20.39	19.88	1.42	-50.6	-66.2	3.6	1.51e+00	0	36	104	0	60	99450
2026-01-04 13:31:21.40	19.92	1.48	-50.6	-66.1	3.6	1.51e+00	0	36	104	0	60	98550
2026-01-04 13:31:22.42	19.97	1.54	-50.6	-66.2	3.6	1.51e+00	0	36	104	0	60	99277
2026-01-04 13:31:23.43	20.01	1.60	-50.6	-66.1	3.6	1.51e+00	0	36	104	0	60	98770
2026-01-04 13:31:24.44	20.06	1.66	-50.6	-66.0	3.6	1.51e+00	0	36	104	0	60	97693
2026-01-04 13:31:25.45	20.10	1.72	-50.6	-66.1	3.6	1.51e+00	0	36	104	0	60	98111
2026-01-04 13:31:26.46	20.15	1.78	-50.6	-66.1	3.6	1.51e+00	0	36	104	0	60	98610
2026-01-04 13:31:27.47	20.19	1.84	-50.6	-66.1	3.6	1.51e+00	0	36	104	0	60	98724
2026-01-04 13:31:28.48	20.24	1.90	-50.6	-66.1	3.6	1.51e+00	0	37	104	0	60	98894
2026-01-04 13:31:29.49	20.28	1.96	-50.6	-66.2	3.6	1.51e+00	0	36	104	0	60	99276
2026-01-04 13:31:30.50	20.33	2.02	-50.6	-66.2	3.6	1.51e+00	0	37	104	0	60	99745
2026-01-04 13:31:31.51	20.37	2.08	-50.6	-66.2	3.6	1.51e+00	0	36	104	0	60	99398
2026-01-04 13:31:32.52	20.42	2.14	-50.6	-66.2	3.6	1.51e+00	0	36	104	0	60	99198
2026-01-04 13:31:33.53	20.46	2.20	-50.6	-66.2	3.6	1.51e+00	0	37	104	0	60	99013
2026-01-04 13:31:34.54	20.51	2.27	-50.6	-66.2	3.6	1.51e+00	0	37	104	0	60	99551
2026-01-04 13:31:35.56	20.56	2.33	-50.6	-66.0	3.6	1.51e+00	0	37	104	0	60	97718
2026-01-04 13:31:36.57	20.60	2.39	-50.6	-65.8	3.6	1.51e+00	0	37	104	0	60	95442
2026-01-04 13:31:37.57	20.65	2.45	-50.6	-65.4	3.6	1.51e+00	0	37	104	0	60	90977
2026-01-04 13:31:38.59	20.70	2.51	-50.6	-65.4	3.6	1.51e+00	0	37	104	0	60	91169
2026-01-04 13:31:39.60	20.74	2.57	-50.6	-65.3	3.6	1.51e+00	0	37	104	0	60	89465
2026-01-04 13:31:40.61	20.79	2.64	-50.6	-65.9	3.6	1.51e+00	0	37	104	0	60	95723
2026-01-04 13:31:41.62	20.84	2.70	-50.6	-66.1	3.6	1.51e+00	0	37	104	0	60	97909
2026-01-04 13:31:42.63	20.88	2.76	-50.6	-64.8	3.6	1.51e+00	0	37	104	0	60	84376
2026-01-04 13:31:43.64	20.93	2.82	-50.4	-61.3	4.8	1.28e+00	0	37	0	0	60	56873
2026-01-04 13:31:44.65	20.98	2.89	-49.8	-56.9	7.4	2.46e-01	0	37	0	1048576	60	34105
2026-01-04 13:31:45.66	21.03	2.95	-48.8	-53.6	11.6	7.74e-03	0	37	0	3145728	60	23300
2026-01-04 13:31:46.67	21.08	3.01	-48.4	-52.6	12.2	1.79e-04	0	37	0	5242880	60	20861
2026-01-04 13:31:47.68	21.12	3.07	-46.8	-49.4	15.5	4.50e-06	0	37	0	6291456	60	14465
2026-01-04 13:31:48.70	21.17	3.14	-46.3	-48.8	16.4	7.00e-07	0	37	0	8388608	60	13397
2026-01-04 13:31:49.71	21.22	3.20	-46.0	-48.3	17.1	0.00e+00	0	37	0	10485760	60	12711
2026-01-04 13:31:50.72	21.27	3.26	-45.6	-47.6	17.0	0.00e+00	0	37	0	12582912	60	11756
2026-01-04 13:31:51.73	21.32	3.33	-45.8	-48.0	17.0	0.00e+00	0	37	0	13631488	60	12255
2026-01-04 13:31:52.74	21.37	3.39	-46.3	-48.8	16.1	0.00e+00	0	37	0	15728640	60	13446
2026-01-04 13:31:53.75	21.42	3.45	-46.8	-49.5	15.7	0.00e+00	0	37	0	17825792	60	14626
2026-01-04 13:31:54.76	21.47	3.52	-47.9	-51.5	13.5	0.00e+00	0	37	0	19922944	60	18362
2026-01-04 13:31:55.77	21.52	3.58	-48.5	-52.8	12.1	7.60e-06	0	37	0	22020096	60	21298
2026-01-04 13:31:56.78	21.57	3.65	-45.4	-47.3	17.6	3.00e-06	0	37	0	24117248	60	11284
2026-01-04 13:31:57.79	21.62	3.71	-45.8	-47.9	17.4	0.00e+00	0	37	0	25165824	60	12095
2026-01-04 13:31:58.80	21.67	3.77	-50.5	-63.3	3.6	0.00e+00	0	37	104	27262976	60	70935
2026-01-04 13:31:59.81	21.72	3.84	-49.8	-57.4	5.0	1.50e+00	29	37	104	27262976	60	36329
2026-01-04 13:32:00.82	21.77	3.90	-49.9	-56.4	7.1	3.87e-03	0	37	0	27262976	60	32272
2026-01-04 13:32:01.84	21.82	3.97	-47.5	-50.3	15.2	5.78e-01	0	37	0	29360128	60	16026
2026-01-04 13:32:02.85	21.87	4.03	-46.8	-49.3	16.0	0.00e+00	0	37	0	30408704	60	14274
2026-01-04 13:32:03.86	21.93	4.10	-46.2	-48.4	16.7	0.00e+00	0	37	0	32505856	60	12768
2026-01-04 13:32:04.87	21.98	4.16	-46.3	-48.5	17.2	0.00e+00	0	37	0	34603008	60	12961
2026-01-04 13:32:05.88	22.03	4.23	-46.5	-48.9	16.5	0.00e+00	0	37	0	36700160	60	13566
2026-01-04 13:32:06.89	22.08	4.29	-45.6	-47.6	17.9	0.00e+00	0	37	0	38797312	60	11659
2026-01-04 13:32:07.90	22.13	4.36	-45.7	-47.6	17.9	0.00e+00	0	37	0	39845888	60	11728
2026-01-04 13:32:08.92	22.19	4.43	-46.1	-48.3	17.2	0.00e+00	0	37	0	41943040	60	12628
2026-01-04 13:32:09.93	22.24	4.49	-45.1	-46.9	18.6	0.00e+00	0	37	0	44040192	60	10775
2026-01-04 13:32:10.94	22.29	4.56	-45.4	-47.2	18.2	0.00e+00	0	37	0	46137344	60	11203
2026-01-04 13:32:11.95	22.35	4.62	-45.4	-47.2	18.4	0.00e+00	0	37	0	48234496	60	11178
2026-01-04 13:32:12.96	22.40	4.69	-45.3	-47.1	18.3	0.00e+00	0	37	0	50331648	60	11035
2026-01-04 13:32:13.97	22.45	4.76	-45.3	-47.1	18.3	0.00e+00	0	37	0	51380224	60	11106
2026-01-04 13:32:14.98	22.51	4.82	-45.6	-47.5	18.0	0.00e+00	0	37	0	53477376	60	11584
2026-01-04 13:32:15.99	22.56	4.89	-45.3	-47.2	18.3	0.00e+00	0	37	0	55574528	60	11114
2026-01-04 13:32:17.01	22.62	4.96	-45.6	-47.5	18.2	0.00e+00	0	37	0	57671680	60	11534
2026-01-04 13:32:18.02	22.67	5.02	-45.3	-47.1	18.4	0.00e+00	0	37	0	59768832	60	11030
2026-01-04 13:32:19.03	22.73	5.09	-45.3	-47.1	18.6	0.00e+00	0	37	0	60817408	60	11036
2026-01-04 13:32:20.04	22.78	5.16	-45.5	-47.4	18.2	0.00e+00	0	37	0	62914560	60	11370
2026-01-04 13:32:21.05	22.84	5.23	-45.4	-47.2	18.5	0.00e+00	0	37	0	65011712	60	11192
2026-01-04 13:32:22.06	22.89	5.29	-44.9	-46.5	19.1	0.00e+00	0	37	0	67108864	60	10314
2026-01-04 13:32:23.07	22.95	5.36	-45.1	-46.9	18.7	0.00e+00	0	37	0	69206016	60	10760
2026-01-04 13:32:24.08	23.00	5.43	-45.1	-46.8	18.8	0.00e+00	0	37	0	70254592	60	10690
2026-01-04 13:32:25.09	23.06	5.50	-45.0	-46.7	18.8	0.00e+00	0	37	0	72351744	60	10503
2026-01-04 13:32:26.10	23.12	5.57	-45.5	-47.3	18.3	0.00e+00	0	37	0	74448896	60	11308
2026-01-04 13:32:27.11	23.17	5.63	-45.1	-46.9	18.8	0.00e+00	0	37	0	76546048	60	10736
2026-01-04 13:32:28.12	23.23	5.70	-45.3	-47.1	18.5	0.00e+00	0	37	0	78643200	60	11056
2026-01-04 13:32:29.14	23.29	5.77	-45.2	-46.9	18.7	0.00e+00	0	37	0	79691776	60	10774
2026-01-04 13:32:30.15	23.34	5.84	-45.1	-46.9	18.8	0.00e+00	0	37	0	81788928	60	10734
2026-01-04 13:32:31.16	23.40	5.91	-45.4	-47.2	18.4	0.00e+00	0	37	0	83886080	60	11153
2026-01-04 13:32:32.17	23.46	5.98	-45.6	-47.4	18.2	0.00e+00	0	37	0	85983232	60	11429
2026-01-04 13:32:33.18	23.52	6.05	-45.3	-47.1	18.7	0.00e+00	0	37	0	88080384	60	11012
2026-01-04 13:32:34.19	23.58	6.12	-45.4	-47.1	18.7	0.00e+00	0	37	0	89128960	60	11078
2026-01-04 13:32:35.20	23.64	6.19	-45.3	-47.1	18.7	0.00e+00	0	37	0	91226112	60	11009
2026-01-04 13:32:36.21	23.69	6.26	-45.1	-46.8	18.9	0.00e+00	0	37	0	93323264	60	10706
2026-01-04 13:32:37.22	23.75	6.33	-45.2	-46.9	18.7	0.00e+00	0	37	0	95420416	60	10839
2026-01-04 13:32:38.23	23.81	6.40	-45.3	-47.0	18.7	0.00e+00	0	37	0	97517568	60	10956
2026-01-04 13:32:39.24	23.87	6.47	-45.4	-47.2	18.6	0.00e+00	0	37	0	98566144	60	11172
2026-01-04 13:32:40.26	23.93	6.54	-45.3	-47.0	19.0	0.00e+00	0	37	0	100663296	60	10957
2026-01-04 13:32:41.27	23.99	6.61	-44.9	-46.6	18.9	0.00e+00	0	37	0	102760448	60	10403
2026-01-04 13:32:42.28	24.05	6.68	-45.2	-47.0	18.8	0.00e+00	0	37	0	104857600	60	10878
2026-01-04 13:32:43.29	24.12	6.75	-45.1	-46.8	18.9	0.00e+00	0	37	0	106954752	60	10656
2026-01-04 13:32:44.30	24.18	6.82	-44.4	-45.8	19.9	0.00e+00	0	37	0	109051904	60	9561
2026-01-04 13:32:45.31	24.24	6.89	-44.4	-45.8	19.9	0.00e+00	0	37	0	110100480	60	9554
2026-01-04 13:32:46.32	24.30	6.97	-44.4	-45.9	19.9	0.00e+00	0	37	0	112197632	60	9596
2026-01-04 13:32:47.33	24.36	7.04	-44.5	-46.1	19.7	0.00e+00	0	37	0	114294784	60	9806
2026-01-04 13:32:48.34	24.42	7.11	-44.4	-45.9	19.9	0.00e+00	0	37	0	116391936	60	9636
2026-01-04 13:32:49.35	24.49	7.18	-44.3	-45.8	20.0	0.00e+00	0	37	0	118489088	60	9465
2026-01-04 13:32:50.36	24.55	7.25	-44.5	-46.0	19.7	0.00e+00	0	37	0	119537664	60	9729
2026-01-04 13:32:51.37	24.61	7.33	-44.2	-45.6	20.1	0.00e+00	0	37	0	121634816	60	9325
2026-01-04 13:32:52.39	24.68	7.40	-44.3	-45.7	20.1	0.00e+00	0	37	0	123731968	60	9398
2026-01-04 13:32:53.40	24.74	7.47	-44.4	-45.8	19.9	0.00e+00	0	37	0	125829120	60	9553
2026-01-04 13:32:54.41	24.80	7.55	-44.3	-45.7	20.0	0.00e+00	0	37	0	127926272	60	9429
2026-01-04 13:32:55.42	24.87	7.62	-44.4	-45.8	19.9	0.00e+00	0	37	0	128974848	60	9536
2026-01-04 13:32:56.43	24.93	7.69	-44.2	-45.6	20.2	0.00e+00	0	37	0	131072000	60	9262
2026-01-04 13:32:57.44	25.00	7.77	-44.2	-45.6	20.2	0.00e+00	0	37	0	133169152	60	9318
2026-01-04 13:32:58.45	25.06	7.84	-43.9	-45.3	20.5	0.00e+00	0	37	0	135266304	60	8959
2026-01-04 13:32:59.46	25.13	7.91	-43.9	-45.3	20.6	0.00e+00	0	37	0	137363456	60	8977
2026-01-04 13:33:00.47	25.19	7.99	-44.0	-45.3	20.5	0.00e+00	0	37	0	138412032	60	9026
2026-01-04 13:33:01.49	25.26	8.06	-44.0	-45.4	20.5	0.00e+00	0	37	0	140509184	60	9044
2026-01-04 13:33:02.50	25.33	8.14	-44.1	-45.4	20.4	0.00e+00	0	37	0	142606336	60	9100
2026-01-04 13:33:03.51	25.39	8.21	-44.3	-45.7	20.2	0.00e+00	0	37	0	144703488	60	9348
2026-01-04 13:33:04.52	25.46	8.29	-43.9	-45.2	20.6	0.00e+00	0	37	0	146800640	60	8894
2026-01-04 13:33:05.53	25.53	8.36	-43.6	-44.8	21.0	0.00e+00	0	37	0	148897792	60	8497
2026-01-04 13:33:06.54	25.60	8.44	-43.7	-45.0	20.8	0.00e+00	0	37	0	149946368	60	8661
2026-01-04 13:33:07.55	25.66	8.51	-43.5	-44.8	21.0	0.00e+00	0	37	0	152043520	60	8483
2026-01-04 13:33:08.56	25.73	8.59	-43.7	-45.0	20.8	0.00e+00	0	37	0	154140672	60	8663
2026-01-04 13:33:09.57	25.80	8.66	-43.7	-44.9	20.9	0.00e+00	0	37	0	156237824	60	8605
2026-01-04 13:33:10.59	25.87	8.74	-43.7	-45.0	20.9	0.00e+00	0	37	0	158334976	60	8624
2026-01-04 13:33:11.60	25.94	8.82	-43.5	-44.8	21.0	0.00e+00	0	37	0	159383552	60	8460
2026-01-04 13:33:12.61	26.01	8.89	-43.3	-44.5	21.3	0.00e+00	0	37	0	161480704	60	8230
2026-01-04 13:33:13.62	26.08	8.97	-43.5	-44.7	21.2	0.00e+00	0	37	0	163577856	60	8412
2026-01-04 13:33:14.63	26.15	9.05	-43.6	-44.9	20.9	0.00e+00	0	37	0	165675008	60	8540
2026-01-04 13:33:15.64	26.22	9.12	-43.4	-44.7	21.1	0.00e+00	0	37	0	167772160	60	8348
2026-01-04 13:33:16.65	26.29	9.20	-43.4	-44.7	21.2	0.00e+00	0	37	0	168820736	60	8339
2026-01-04 13:33:17.66	26.36	9.28	-43.4	-44.6	21.3	0.00e+00	0	37	0	170917888	60	8278
2026-01-04 13:33:18.67	26.43	9.36	-43.3	-44.5	21.4	0.00e+00	0	37	0	173015040	60	8201
2026-01-04 13:33:19.69	26.51	9.43	-43.3	-44.5	21.4	0.00e+00	0	37	0	175112192	60	8175
2026-01-04 13:33:20.70	26.58	9.51	-43.3	-44.5	21.4	0.00e+00	0	37	0	177209344	60	8219
2026-01-04 13:33:21.71	26.65	9.59	-43.5	-44.8	21.2	0.00e+00	0	37	0	178257920	60	8431
2026-01-04 13:33:22.72	26.73	9.67	-43.6	-44.8	21.1	0.00e+00	0	37	0	180355072	60	8479
2026-01-04 13:33:23.73	26.80	9.75	-43.7	-45.0	20.9	0.00e+00	0	37	0	182452224	60	8665
2026-01-04 13:33:24.74	26.87	9.83	-43.8	-45.1	20.8	0.00e+00	0	37	0	184549376	60	8818
2026-01-04 13:33:25.75	26.95	9.91	-43.6	-44.9	21.1	0.00e+00	0	37	0	186646528	60	8578
2026-01-04 13:33:26.76	27.02	9.99	-43.6	-44.9	21.0	0.00e+00	0	37	0	188743680	60	8577
2026-01-04 13:33:27.78	27.10	10.07	-43.1	-44.3	21.7	0.00e+00	0	37	0	189792256	60	8016
2026-01-04 13:33:28.79	27.17	10.15	-42.9	-44.1	21.8	0.00e+00	0	37	0	191889408	60	7800
2026-01-04 13:33:29.80	27.25	10.23	-43.0	-44.1	21.8	0.00e+00	0	37	0	193986560	60	7825
2026-01-04 13:33:30.81	27.33	10.31	-42.9	-44.1	21.8	0.00e+00	0	37	0	196083712	60	7799
2026-01-04 13:33:31.82	27.40	10.39	-42.9	-44.0	21.9	0.00e+00	0	37	0	198180864	60	7760
2026-01-04 13:33:32.83	27.48	10.47	-42.8	-43.9	22.0	0.00e+00	0	37	0	199229440	60	7669
2026-01-04 13:33:33.84	27.56	10.55	-42.5	-43.6	22.3	0.00e+00	0	37	0	201326592	60	7350
2026-01-04 13:33:34.86	27.63	10.63	-42.6	-43.7	22.2	0.00e+00	0	37	0	203423744	60	7462
2026-01-04 13:33:35.87	27.71	10.71	-42.6	-43.6	22.3	0.00e+00	0	37	0	205520896	60	7417
2026-01-04 13:33:36.88	27.79	10.79	-42.4	-43.5	22.4	0.00e+00	0	37	0	207618048	60	7294
2026-01-04 13:33:37.89	27.87	10.87	-42.5	-43.6	22.2	0.00e+00	0	37	0	208666624	60	7407
2026-01-04 13:33:38.90	27.95	10.96	-42.6	-43.7	22.2	0.00e+00	0	37	0	210763776	60	7484
2026-01-04 13:33:39.91	28.03	11.04	-42.5	-43.6	22.4	0.00e+00	0	37	0	212860928	60	7367
2026-01-04 13:33:40.92	28.11	11.12	-42.5	-43.5	22.3	0.00e+00	0	37	0	214958080	60	7328
2026-01-04 13:33:41.93	28.19	11.20	-42.5	-43.6	22.2	0.00e+00	0	37	0	217055232	60	7374
2026-01-04 13:33:42.94	28.27	11.29	-42.5	-43.5	22.3	0.00e+00	0	37	0	218103808	60	7319
2026-01-04 13:33:43.95	28.35	11.37	-42.6	-43.7	22.3	0.00e+00	0	37	0	220200960	60	7423
2026-01-04 13:33:44.96	28.44	11.45	-42.6	-43.7	22.3	0.00e+00	0	37	0	222298112	60	7437
2026-01-04 13:33:45.97	28.52	11.54	-42.7	-43.8	22.1	0.00e+00	0	37	0	224395264	60	7582
2026-01-04 13:33:46.99	28.60	11.62	-42.7	-43.7	22.2	0.00e+00	0	37	0	226492416	60	7503
2026-01-04 13:33:48.00	28.69	11.71	-42.6	-43.7	22.2	0.00e+00	0	37	0	227540992	60	7445
2026-01-04 13:33:49.01	28.77	11.79	-42.6	-43.6	22.3	0.00e+00	0	37	0	229638144	60	7416
2026-01-04 13:33:50.02	28.85	11.87	-42.6	-43.7	22.2	0.00e+00	0	37	0	231735296	60	7498
2026-01-04 13:33:51.03	28.94	11.96	-42.4	-43.5	22.4	0.00e+00	0	37	0	233832448	60	7284
2026-01-04 13:33:52.04	29.02	12.04	-42.4	-43.4	22.4	0.00e+00	0	37	0	235929600	60	7252
2026-01-04 13:33:53.05	29.11	12.13	-42.2	-43.2	22.6	0.00e+00	0	37	0	236978176	60	7079
2026-01-04 13:33:54.06	29.20	12.22	-42.2	-43.3	22.3	0.00e+00	0	37	0	239075328	60	7111
2026-01-04 13:33:55.08	29.28	12.30	-42.5	-43.6	22.4	0.00e+00	0	37	0	241172480	60	7361
2026-01-04 13:33:56.09	29.37	12.39	-42.3	-43.3	22.6	0.00e+00	0	37	0	243269632	60	7124
2026-01-04 13:33:57.10	29.46	12.47	-42.2	-43.2	22.7	0.00e+00	0	37	0	245366784	60	7072
2026-01-04 13:33:58.11	29.55	12.56	-42.2	-43.2	22.6	0.00e+00	0	37	0	247463936	60	7068
2026-01-04 13:33:59.12	29.63	12.65	-42.0	-43.1	22.9	0.00e+00	0	37	0	248512512	60	6934
2026-01-04 13:34:00.13	29.72	12.73	-42.2	-43.2	22.8	0.00e+00	0	37	0	250609664	60	7044
2026-01-04 13:34:01.14	29.81	12.82	-42.0	-43.0	22.9	0.00e+00	0	37	0	252706816	60	6927
2026-01-04 13:34:02.15	29.90	12.91	-42.3	-43.4	22.5	0.00e+00	0	37	0	254803968	60	7172
2026-01-04 13:34:03.16	29.99	13.00	-42.1	-43.1	22.9	0.00e+00	0	37	0	256901120	60	6967
2026-01-04 13:34:04.17	30.08	13.09	-42.1	-43.1	22.8	0.00e+00	0	37	0	257949696	60	6982
2026-01-04 13:34:05.18	30.18	13.17	-41.9	-42.8	23.1	0.00e+00	0	37	0	260046848	60	6760
2026-01-04 13:34:06.19	30.27	13.26	-41.9	-42.9	23.0	0.00e+00	0	37	0	262144000	60	6800
2026-01-04 13:34:07.20	30.36	13.35	-41.9	-42.9	23.0	0.00e+00	0	37	0	264241152	60	6826
2026-01-04 13:34:08.22	30.46	13.44	-41.8	-42.8	23.1	0.00e+00	0	37	0	266338304	60	6737
2026-01-04 13:34:09.23	30.55	13.53	-41.9	-42.9	23.0	0.00e+00	0	37	0	267386880	60	6832
2026-01-04 13:34:10.24	30.64	13.62	-41.8	-42.8	23.1	0.00e+00	0	37	0	269484032	60	6745
2026-01-04 13:34:11.25	30.74	13.71	-41.8	-42.8	23.2	0.00e+00	0	37	0	271581184	60	6693
2026-01-04 13:34:12.26	30.83	13.80	-41.6	-42.6	23.4	0.00e+00	0	37	0	273678336	60	6561
2026-01-04 13:34:13.27	30.93	13.89	-41.7	-42.6	23.3	0.00e+00	0	37	0	275775488	60	6603
2026-01-04 13:34:14.28	31.03	13.98	-41.6	-42.6	23.3	0.00e+00	0	37	0	276824064	60	6580
2026-01-04 13:34:15.29	31.12	14.07	-41.4	-42.4	23.5	0.00e+00	0	37	0	278921216	60	6423
2026-01-04 13:34:16.30	31.22	14.16	-41.5	-42.4	23.4	0.00e+00	0	37	0	281018368	60	6451
2026-01-04 13:34:17.32	31.32	14.26	-41.5	-42.4	23.3	0.00e+00	0	37	0	283115520	60	6459
2026-01-04 13:34:18.33	31.42	14.35	-41.5	-42.5	23.5	0.00e+00	0	37	0	285212672	60	6480
2026-01-04 13:34:19.34	31.52	14.44	-41.7	-42.7	23.3	0.00e+00	0	37	0	286261248	60	6617
2026-01-04 13:34:20.35	31.62	14.53	-41.8	-42.7	23.2	0.00e+00	0	37	0	288358400	60	6670
2026-01-04 13:34:21.36	31.72	14.62	-41.3	-42.3	23.7	0.00e+00	0	37	0	290455552	60	6325
2026-01-04 13:34:22.37	31.82	14.72	-41.4	-42.3	23.6	0.00e+00	0	37	0	292552704	60	6368
2026-01-04 13:34:23.38	31.92	14.81	-41.7	-42.7	23.4	0.00e+00	0	37	0	294649856	60	6631
2026-01-04 13:34:24.39	32.02	14.90	-41.6	-42.6	23.3	0.00e+00	0	37	0	296747008	60	6576
2026-01-04 13:34:25.40	32.13	15.00	-41.6	-42.5	23.4	0.00e+00	0	37	0	297795584	60	6531
2026-01-04 13:34:26.41	32.23	15.09	-41.8	-42.8	23.2	0.00e+00	0	37	0	299892736	60	6703
2026-01-04 13:34:27.42	32.33	15.19	-41.8	-42.8	23.2	0.00e+00	0	37	0	301989888	60	6710
2026-01-04 13:34:28.43	32.44	15.28	-41.8	-42.8	23.2	0.00e+00	0	37	0	304087040	60	6698
2026-01-04 13:34:29.45	32.54	15.38	-41.9	-42.9	23.1	0.00e+00	0	37	0	306184192	60	6776
2026-01-04 13:34:30.46	32.65	15.47	-41.9	-42.9	23.1	0.00e+00	0	37	0	307232768	60	6824
2026-01-04 13:34:31.47	32.76	15.57	-41.8	-42.8	23.2	0.00e+00	0	37	0	309329920	60	6734
2026-01-04 13:34:32.48	32.86	15.66	-41.9	-42.9	23.0	0.00e+00	0	37	0	311427072	60	6828
2026-01-04 13:34:33.49	32.97	15.76	-42.0	-43.0	22.9	0.00e+00	0	37	0	313524224	60	6923
2026-01-04 13:34:34.50	33.08	15.86	-42.1	-43.1	23.0	0.00e+00	0	37	0	315621376	60	6955
2026-01-04 13:34:35.51	33.19	15.95	-42.2	-43.2	22.9	0.00e+00	0	37	0	316669952	60	7055
2026-01-04 13:34:36.52	33.30	16.05	-42.0	-43.0	23.1	0.00e+00	0	37	0	318767104	60	6890
2026-01-04 13:34:37.54	33.41	16.15	-42.0	-43.0	23.0	0.00e+00	0	37	0	320864256	60	6876
2026-01-04 13:34:38.55	33.52	16.24	-42.0	-43.0	23.1	0.00e+00	0	37	0	322961408	60	6877
2026-01-04 13:34:39.56	33.64	16.34	-42.0	-43.0	23.1	0.00e+00	0	37	0	325058560	60	6889
2026-01-04 13:34:40.57	33.75	16.44	-41.9	-42.9	23.1	0.00e+00	0	37	0	326107136	60	6829
2026-01-04 13:34:41.58	33.86	16.54	-42.0	-43.0	23.1	0.00e+00	0	37	0	328204288	60	6874
2026-01-04 13:34:42.59	33.98	16.64	-42.0	-42.9	23.1	0.00e+00	0	37	0	330301440	60	6842
2026-01-04 13:34:43.60	34.09	16.74	-42.0	-43.0	23.0	0.00e+00	0	37	0	332398592	60	6912
2026-01-04 13:34:44.61	34.21	16.84	-42.0	-43.0	23.0	0.00e+00	0	37	0	334495744	60	6920
2026-01-04 13:34:45.62	34.32	16.93	-42.0	-43.0	23.0	0.00e+00	0	37	0	336592896	60	6907
2026-01-04 13:34:46.63	34.44	17.03	-42.0	-42.9	23.1	0.00e+00	0	37	0	337641472	60	6843
2026-01-04 13:34:47.64	34.56	17.13	-42.0	-43.0	23.1	0.00e+00	0	37	0	339738624	60	6866
2026-01-04 13:34:48.66	34.68	17.24	-42.0	-43.0	23.1	0.00e+00	0	37	0	341835776	60	6898
2026-01-04 13:34:49.67	34.80	17.34	-42.1	-43.1	23.1	0.00e+00	0	37	0	343932928	60	6976
2026-01-04 13:34:50.68	34.92	17.44	-42.2	-43.2	22.9	0.00e+00	0	37	0	346030080	60	7025
2026-01-04 13:34:51.69	35.04	17.54	-42.2	-43.2	22.9	0.00e+00	0	37	0	347078656	60	7046
2026-01-04 13:34:52.70	35.16	17.64	-42.2	-43.3	22.9	0.00e+00	0	37	0	349175808	60	7097
2026-01-04 13:34:53.71	35.28	17.74	-42.3	-43.4	22.7	0.00e+00	0	37	0	351272960	60	7193
2026-01-04 13:34:54.72	35.41	17.85	-42.4	-43.5	22.6	0.00e+00	0	37	0	353370112	60	7256
2026-01-04 13:34:55.73	35.53	17.95	-42.7	-43.7	22.3	0.00e+00	0	37	0	355467264	60	7504
2026-01-04 13:34:56.74	35.66	18.05	-42.8	-43.9	22.3	0.00e+00	0	37	0	356515840	60	7614
2026-01-04 13:34:57.76	35.78	18.15	-42.7	-43.8	22.3	0.00e+00	0	37	0	358612992	60	7542
2026-01-04 13:34:58.77	35.91	18.26	-42.9	-44.0	22.3	0.00e+00	0	37	0	360710144	60	7709
2026-01-04 13:34:59.78	36.04	18.36	-42.7	-43.8	22.3	0.00e+00	0	37	0	362807296	60	7536
2026-01-04 13:35:00.79	36.17	18.47	-42.9	-44.0	22.2	0.00e+00	0	37	0	364904448	60	7694
2026-01-04 13:35:01.80	36.30	18.57	-42.9	-44.0	22.2	0.00e+00	0	37	0	365953024	60	7771
2026-01-04 13:35:02.81	36.43	18.67	-42.9	-43.9	22.0	0.00e+00	0	37	0	368050176	60	7683
2026-01-04 13:35:03.82	36.56	18.78	-43.1	-44.2	22.1	0.00e+00	0	37	0	370147328	60	7905
2026-01-04 13:35:04.83	36.69	18.89	-42.9	-44.0	22.1	0.00e+00	0	37	0	372244480	60	7735
2026-01-04 13:35:05.84	36.82	18.99	-43.1	-44.3	21.8	0.00e+00	0	37	0	374341632	60	7979
2026-01-04 13:35:06.86	36.96	19.10	-42.8	-43.9	21.9	0.00e+00	0	37	0	376438784	60	7668
2026-01-04 13:35:07.87	37.09	19.20	-43.1	-44.2	21.9	0.00e+00	0	37	0	377487360	60	7902
2026-01-04 13:35:08.88	37.23	19.31	-42.9	-44.0	22.2	0.00e+00	0	37	0	379584512	60	7699
2026-01-04 13:35:09.89	37.36	19.42	-43.0	-44.1	22.1	0.00e+00	0	37	0	381681664	60	7795
2026-01-04 13:35:10.90	37.50	19.52	-43.0	-44.1	22.1	0.00e+00	0	37	0	383778816	60	7823
2026-01-04 13:35:11.91	37.64	19.63	-43.1	-44.2	22.1	0.00e+00	0	37	0	385875968	60	7909
2026-01-04 13:35:12.92	37.78	19.74	-43.0	-44.2	22.1	0.00e+00	0	37	0	386924544	60	7879
2026-01-04 13:35:13.93	37.92	19.85	-43.0	-44.1	22.1	0.00e+00	0	37	0	389021696	60	7813
2026-01-04 13:35:14.94	38.06	19.96	-43.1	-44.2	22.1	0.00e+00	0	37	0	391118848	60	7885
2026-01-04 13:35:15.95	38.20	20.06	-43.0	-44.1	22.1	0.00e+00	0	37	0	393216000	60	7820
2026-01-04 13:35:16.97	38.34	20.17	-43.1	-44.2	22.1	0.00e+00	0	37	0	395313152	60	7904
2026-01-04 13:35:17.98	38.49	20.28	-42.9	-44.0	22.3	0.00e+00	0	37	0	396361728	60	7700
2026-01-04 13:35:18.99	38.63	20.39	-43.0	-44.1	22.2	0.00e+00	0	37	0	398458880	60	7793
2026-01-04 13:35:20.00	38.78	20.50	-42.9	-44.0	22.1	0.00e+00	0	37	0	400556032	60	7719
2026-01-04 13:35:21.01	38.92	20.61	-42.7	-43.8	22.4	0.00e+00	0	37	0	402653184	60	7543
2026-01-04 13:35:22.02	39.07	20.72	-42.8	-43.8	22.3	0.00e+00	0	37	0	404750336	60	7595
2026-01-04 13:35:23.03	39.22	20.84	-42.7	-43.8	22.5	0.00e+00	0	37	0	405798912	60	7519
2026-01-04 13:35:24.04	39.37	20.95	-42.7	-43.8	22.5	0.00e+00	0	37	0	407896064	60	7520
2026-01-04 13:35:25.05	39.52	21.06	-42.7	-43.7	22.5	0.00e+00	0	37	0	409993216	60	7476
2026-01-04 13:35:26.06	39.67	21.17	-42.7	-43.8	22.5	0.00e+00	0	37	0	412090368	60	7551
2026-01-04 13:35:27.08	39.83	21.28	-42.7	-43.8	22.5	0.00e+00	0	37	0	414187520	60	7518
2026-01-04 13:35:28.09	39.98	21.39	-42.8	-43.8	22.4	0.00e+00	0	37	0	415236096	60	7576
2026-01-04 13:35:29.10	40.14	21.51	-42.8	-43.9	22.3	0.00e+00	0	37	0	417333248	60	7648
2026-01-04 13:35:30.11	40.30	21.62	-42.8	-43.9	22.2	0.00e+00	0	37	0	419430400	60	7644
2026-01-04 13:35:31.12	40.45	21.73	-42.9	-44.0	22.1	0.00e+00	0	37	0	421527552	60	7709
2026-01-04 13:35:32.13	40.61	21.85	-42.9	-44.0	22.1	0.00e+00	0	37	0	423624704	60	7756
2026-01-04 13:35:33.14	40.77	21.96	-42.9	-44.0	22.2	0.00e+00	0	37	0	424673280	60	7726
2026-01-04 13:35:34.16	40.93	22.08	-42.9	-44.0	22.3	0.00e+00	0	37	0	426770432	60	7707
2026-01-04 13:35:35.17	41.10	22.19	-42.8	-43.8	22.4	0.00e+00	0	37	0	428867584	60	7591
2026-01-04 13:35:36.18	41.26	22.31	-42.7	-43.8	22.5	0.00e+00	0	37	0	430964736	60	7559
2026-01-04 13:35:37.19	41.42	22.42	-42.8	-43.9	22.4	0.00e+00	0	37	0	433061888	60	7624
2026-01-04 13:35:38.20	41.59	22.54	-42.7	-43.7	22.6	0.00e+00	0	37	0	434110464	60	7488
2026-01-04 13:35:39.21	41.76	22.65	-42.7	-43.8	22.6	0.00e+00	0	37	0	436207616	60	7524
2026-01-04 13:35:40.22	41.92	22.77	-42.5	-43.5	22.8	0.00e+00	0	37	0	438304768	60	7285
2026-01-04 13:35:41.23	42.09	22.88	-42.4	-43.5	22.7	0.00e+00	0	37	0	440401920	60	7259
2026-01-04 13:35:42.24	42.26	23.00	-42.3	-43.3	22.9	0.00e+00	0	37	0	442499072	60	7169
2026-01-04 13:35:43.25	42.44	23.12	-42.4	-43.4	22.8	0.00e+00	0	37	0	444596224	60	7209
2026-01-04 13:35:44.27	42.61	23.23	-42.4	-43.4	22.7	0.00e+00	0	37	0	445644800	60	7216
2026-01-04 13:35:45.28	42.79	23.35	-42.2	-43.2	23.0	0.00e+00	0	37	0	447741952	60	7078
2026-01-04 13:35:46.29	42.96	23.47	-42.3	-43.3	22.9	0.00e+00	0	37	0	449839104	60	7145
2026-01-04 13:35:47.30	43.14	23.59	-42.2	-43.2	23.0	0.00e+00	0	37	0	451936256	60	7073
2026-01-04 13:35:48.31	43.32	23.70	-42.4	-43.4	22.8	0.00e+00	0	37	0	454033408	60	7215
2026-01-04 13:35:49.32	43.50	23.82	-42.3	-43.3	22.9	0.00e+00	0	37	0	455081984	60	7099
2026-01-04 13:35:50.33	43.68	23.94	-42.2	-43.2	23.0	0.00e+00	0	37	0	457179136	60	7044
2026-01-04 13:35:51.34	43.86	24.06	-42.2	-43.3	23.0	0.00e+00	0	37	0	459276288	60	7094
2026-01-04 13:35:52.35	44.04	24.18	-42.1	-43.1	23.1	0.00e+00	0	37	0	461373440	60	6980
2026-01-04 13:35:53.36	44.23	24.30	-41.9	-42.9	23.3	0.00e+00	0	37	0	463470592	60	6825
2026-01-04 13:35:54.38	44.41	24.42	-42.0	-42.9	23.2	0.00e+00	0	37	0	464519168	60	6838
2026-01-04 13:35:55.39	44.60	24.54	-41.7	-42.6	23.5	0.00e+00	0	37	0	466616320	60	6592
2026-01-04 13:35:56.40	44.79	24.66	-41.6	-42.5	23.7	0.00e+00	0	37	0	468713472	60	6503
2026-01-04 13:35:57.41	44.98	24.78	-41.4	-42.3	23.7	0.00e+00	0	37	0	470810624	60	6376
2026-01-04 13:35:58.42	45.17	24.90	-41.3	-42.2	23.9	0.00e+00	0	37	0	472907776	60	6246
2026-01-04 13:35:59.43	45.37	25.02	-41.3	-42.2	23.9	0.00e+00	0	37	0	473956352	60	6309
2026-01-04 13:36:00.44	45.56	25.14	-41.4	-42.3	23.8	0.00e+00	0	37	0	476053504	60	6352
2026-01-04 13:36:01.45	45.76	25.26	-41.3	-42.2	23.9	0.00e+00	0	37	0	478150656	60	6289
2026-01-04 13:36:02.46	45.96	25.38	-41.3	-42.3	23.8	0.00e+00	0	37	0	480247808	60	6319
2026-01-04 13:36:03.47	46.15	25.50	-41.4	-42.4	23.8	0.00e+00	0	37	0	482344960	60	6392
2026-01-04 13:36:04.48	46.36	25.63	-41.3	-42.2	24.0	0.00e+00	0	37	0	484442112	60	6272
2026-01-04 13:36:05.49	46.56	25.75	-41.4	-42.3	23.7	0.00e+00	0	37	0	485490688	60	6367
2026-01-04 13:36:06.51	46.76	25.87	-41.3	-42.2	23.8	0.00e+00	0	37	0	487587840	60	6307
2026-01-04 13:36:07.52	46.97	25.99	-41.2	-42.1	24.0	0.00e+00	0	37	0	489684992	60	6243
2026-01-04 13:36:08.53	47.18	26.12	-41.3	-42.2	23.9	0.00e+00	0	37	0	491782144	60	6315
2026-01-04 13:36:09.54	47.38	26.24	-41.3	-42.2	23.9	0.00e+00	0	37	0	493879296	60	6267
2026-01-04 13:36:10.55	47.59	26.36	-41.4	-42.3	23.8	0.00e+00	0	37	0	494927872	60	6367
2026-01-04 13:36:11.56	47.80	26.48	-41.5	-42.4	23.7	0.00e+00	0	37	0	497025024	60	6436
2026-01-04 13:36:12.57	48.02	26.61	-41.7	-42.6	23.4	0.00e+00	0	37	0	499122176	60	6604
2026-01-04 13:36:13.58	48.23	26.73	-42.0	-42.9	23.5	0.00e+00	0	37	0	501219328	60	6829
2026-01-04 13:36:14.59	48.45	26.85	-41.9	-42.8	23.3	0.00e+00	0	37	0	503316480	60	6756
2026-01-04 13:36:15.61	48.67	26.98	-41.7	-42.7	23.5	0.00e+00	0	37	0	504365056	60	6648
2026-01-04 13:36:16.62	48.89	27.10	-42.0	-43.0	23.2	0.00e+00	0	37	0	506462208	60	6858
2026-01-04 13:36:17.63	49.11	27.23	-41.8	-42.8	23.4	0.00e+00	0	37	0	508559360	60	6724
2026-01-04 13:36:18.64	49.33	27.35	-41.9	-42.9	23.3	0.00e+00	0	37	0	510656512	60	6803
2026-01-04 13:36:19.65	49.56	27.47	-42.0	-42.9	23.3	0.00e+00	0	37	0	512753664	60	6829
2026-01-04 13:36:20.66	49.78	27.60	-42.2	-43.2	23.0	0.00e+00	0	37	0	513802240	60	7038
2026-01-04 13:36:21.67	50.01	27.72	-42.2	-43.2	23.0	0.00e+00	0	37	0	515899392	60	7065
2026-01-04 13:36:22.68	50.24	27.85	-42.3	-43.3	23.0	0.00e+00	0	37	0	517996544	60	7106
2026-01-04 13:36:23.69	50.47	27.97	-42.2	-43.2	23.1	0.00e+00	0	37	0	520093696	60	7012
2026-01-04 13:36:24.70	50.71	28.10	-42.2	-43.2	23.0	0.00e+00	0	37	0	522190848	60	7047
2026-01-04 13:36:25.72	50.95	28.22	-42.2	-43.2	23.1	0.00e+00	0	37	0	524288000	60	7010
2026-01-04 13:36:26.73	51.18	28.35	-42.2	-43.2	23.0	0.00e+00	0	37	0	525336576	60	7055
2026-01-04 13:36:27.74	51.42	28.47	-42.1	-43.1	23.1	0.00e+00	0	37	0	527433728	60	6957
2026-01-04 13:36:28.75	51.66	28.60	-42.3	-43.3	22.9	0.00e+00	0	37	0	529530880	60	7136
2026-01-04 13:36:29.76	51.91	28.72	-42.6	-43.7	22.7	0.00e+00	0	37	0	531628032	60	7424
2026-01-04 13:36:30.77	52.15	28.84	-42.9	-43.9	22.4	0.00e+00	0	37	0	533725184	60	7676
2026-01-04 13:36:31.78	52.40	28.97	-43.0	-44.1	22.3	0.00e+00	0	37	0	534773760	60	7775
2026-01-04 13:36:32.79	52.64	29.09	-43.0	-44.1	22.3	0.00e+00	0	37	0	536870912	60	7781
2026-01-04 13:36:33.81	52.90	29.22	-43.1	-44.2	22.1	0.00e+00	0	37	0	538968064	60	7902
2026-01-04 13:36:34.82	53.15	29.34	-43.3	-44.5	21.8	0.00e+00	0	37	0	541065216	60	8154
2026-01-04 13:36:35.83	53.40	29.47	-43.5	-44.6	21.7	0.00e+00	0	37	0	543162368	60	8323
2026-01-04 13:36:36.84	53.66	29.59	-43.7	-44.9	21.6	0.00e+00	0	37	0	544210944	60	8582
2026-01-04 13:36:37.85	53.92	29.72	-43.9	-45.2	21.3	0.00e+00	0	37	0	546308096	60	8852
2026-01-04 13:36:38.86	54.18	29.84	-44.0	-45.3	21.2	0.00e+00	0	37	0	548405248	60	8946
2026-01-04 13:36:39.87	54.44	29.97	-44.2	-45.5	21.0	0.00e+00	0	37	0	550502400	60	9197
2026-01-04 13:36:40.88	54.70	30.09	-43.9	-45.1	21.4	0.00e+00	0	37	0	552599552	60	8816
2026-01-04 13:36:41.89	54.97	30.22	-43.8	-45.1	21.4	0.00e+00	0	37	0	553648128	60	8723
2026-01-04 13:36:42.91	55.24	30.34	-43.7	-44.8	21.7	0.00e+00	0	37	0	555745280	60	8506
2026-01-04 13:36:43.92	55.51	30.46	-43.7	-44.9	21.5	0.00e+00	0	37	0	557842432	60	8563
2026-01-04 13:36:44.93	55.78	30.59	-43.8	-44.9	21.5	0.00e+00	0	37	0	559939584	60	8618
2026-01-04 13:36:45.94	56.05	30.71	-44.0	-45.3	21.2	0.00e+00	0	37	0	562036736	60	8935
2026-01-04 13:36:46.95	56.33	30.84	-44.4	-45.8	20.8	0.00e+00	0	37	0	563085312	60	9456
2026-01-04 13:36:47.96	56.61	30.96	-45.1	-46.6	20.0	0.00e+00	0	37	0	565182464	60	10369
2026-01-04 13:36:48.97	56.89	31.08	-45.3	-46.8	19.7	0.00e+00	0	37	0	567279616	60	10705
2026-01-04 13:36:49.98	57.17	31.20	-45.8	-47.5	19.2	0.00e+00	0	37	0	569376768	60	11521
2026-01-04 13:36:51.00	57.46	31.33	-46.1	-47.9	18.7	0.00e+00	0	37	0	571473920	60	12097
2026-01-04 13:36:52.01	57.74	31.45	-46.5	-48.3	18.4	0.00e+00	0	37	0	573571072	60	12655
2026-01-04 13:36:53.02	58.03	31.57	-46.3	-48.1	18.5	0.00e+00	0	37	0	574619648	60	12388
2026-01-04 13:36:54.03	58.32	31.69	-46.4	-48.2	18.5	0.00e+00	0	37	0	576716800	60	12527
2026-01-04 13:36:55.04	58.61	31.82	-46.1	-47.8	18.8	0.00e+00	0	37	0	578813952	60	12019
2026-01-04 13:36:56.05	58.91	31.94	-46.0	-47.7	18.8	0.00e+00	0	37	0	580911104	60	11840
2026-01-04 13:36:57.06	59.21	32.06	-45.6	-47.1	19.3	0.00e+00	0	37	0	583008256	60	11096
2026-01-04 13:36:58.07	59.51	32.18	-45.5	-47.0	19.5	0.00e+00	0	37	0	584056832	60	10931
2026-01-04 13:36:59.08	59.81	32.30	-45.8	-47.4	19.1	0.00e+00	0	37	0	586153984	60	11412
2026-01-04 13:37:00.09	60.11	32.42	-45.9	-47.5	19.1	0.00e+00	0	37	0	588251136	60	11622
2026-01-04 13:37:01.10	60.42	32.54	-46.1	-47.9	18.7	0.00e+00	0	37	0	590348288	60	12061
2026-01-04 13:37:02.12	60.73	32.66	-46.5	-48.3	18.2	0.00e+00	0	37	0	592445440	60	12671
2026-01-04 13:37:03.13	61.04	32.77	-46.7	-48.7	17.9	0.00e+00	0	37	0	593494016	60	13250
2026-01-04 13:37:04.14	61.35	32.89	-46.8	-48.8	17.9	0.00e+00	0	37	0	595591168	60	13475
2026-01-04 13:37:05.15	61.67	33.01	-46.4	-48.3	18.3	0.00e+00	0	37	0	597688320	60	12614
2026-01-04 13:37:06.16	61.98	33.13	-46.0	-47.7	18.9	0.00e+00	0	37	0	599785472	60	11810
2026-01-04 13:37:07.17	62.30	33.24	-45.7	-47.3	19.0	0.00e+00	0	37	0	601882624	60	11259
2026-01-04 13:37:08.18	62.63	33.36	-45.4	-46.9	19.6	0.00e+00	0	37	0	602931200	60	10848
2026-01-04 13:37:09.19	62.95	33.48	-45.4	-46.9	19.8	0.00e+00	0	37	0	605028352	60	10740
2026-01-04 13:37:10.21	63.28	33.59	-45.4	-46.9	19.8	0.00e+00	0	37	0	607125504	60	10756
2026-01-04 13:37:11.22	63.61	33.71	-45.3	-46.8	19.7	0.00e+00	0	37	0	609222656	60	10655
2026-01-04 13:37:12.23	63.94	33.82	-45.2	-46.7	19.8	0.00e+00	0	37	0	611319808	60	10513
2026-01-04 13:37:13.24	64.27	33.93	-45.4	-47.0	19.7	0.00e+00	0	37	0	612368384	60	10868
2026-01-04 13:37:14.25	64.61	34.04	-45.3	-46.7	19.9	0.00e+00	0	37	0	614465536	60	10600
2026-01-04 13:37:15.26	64.94	34.16	-45.4	-46.9	19.7	0.00e+00	0	37	0	616562688	60	10756
2026-01-04 13:37:16.27	65.28	34.27	-45.1	-46.6	19.9	0.00e+00	0	37	0	618659840	60	10423
2026-01-04 13:37:17.28	65.63	34.38	-45.2	-46.7	19.9	0.00e+00	0	37	0	620756992	60	10517
2026-01-04 13:37:18.29	65.97	34.49	-45.0	-46.4	20.1	0.00e+00	0	37	0	621805568	60	10237
2026-01-04 13:37:19.31	66.32	34.60	-45.1	-46.5	20.0	0.00e+00	0	37	0	623902720	60	10358
2026-01-04 13:37:20.32	66.67	34.71	-44.9	-46.4	20.2	0.00e+00	0	37	0	625999872	60	10148
2026-01-04 13:37:21.33	67.02	34.81	-44.7	-46.1	20.5	0.00e+00	0	37	0	628097024	60	9862
2026-01-04 13:37:22.34	67.38	34.92	-44.4	-45.8	20.8	0.00e+00	0	37	0	630194176	60	9468
2026-01-04 13:37:23.35	67.73	35.02	-44.3	-45.6	21.0	0.00e+00	0	37	0	632291328	60	9248
2026-01-04 13:37:24.36	68.09	35.13	-44.0	-45.2	21.2	0.00e+00	0	37	0	633339904	60	8853
2026-01-04 13:37:25.37	68.45	35.23	-44.3	-45.5	20.8	0.00e+00	0	37	0	635437056	60	9237
2026-01-04 13:37:26.38	68.81	35.34	-44.3	-45.6	20.9	0.00e+00	0	37	0	637534208	60	9267
2026-01-04 13:37:27.39	69.18	35.44	-44.5	-45.8	20.7	0.00e+00	0	37	0	639631360	60	9539
2026-01-04 13:37:28.40	69.55	35.54	-44.1	-45.4	21.1	0.00e+00	0	37	0	641728512	60	9053
2026-01-04 13:37:29.42	69.92	35.64	-43.6	-44.8	21.7	0.00e+00	0	37	0	642777088	60	8497
2026-01-04 13:37:30.43	70.29	35.74	-43.1	-44.2	22.3	0.00e+00	0	37	0	644874240	60	7897
2026-01-04 13:37:31.44	70.66	35.84	-42.5	-43.5	22.8	0.00e+00	0	37	0	646971392	60	7313
2026-01-04 13:37:32.45	71.04	35.93	-42.3	-43.3	23.1	0.00e+00	0	37	0	649068544	60	7108
2026-01-04 13:37:33.46	71.42	36.03	-42.2	-43.2	22.8	0.00e+00	0	37	0	651165696	60	7055
2026-01-04 13:37:34.47	71.80	36.13	-42.3	-43.3	22.7	0.00e+00	0	37	0	652214272	60	7145
2026-01-04 13:37:35.48	72.18	36.22	-42.6	-43.6	22.6	0.00e+00	0	37	0	654311424	60	7416
2026-01-04 13:37:36.49	72.57	36.31	-42.6	-43.7	22.6	0.00e+00	0	37	0	656408576	60	7448
2026-01-04 13:37:37.50	72.95	36.40	-42.6	-43.7	22.6	0.00e+00	0	37	0	658505728	60	7440
2026-01-04 13:37:38.52	73.35	36.49	-42.6	-43.6	22.7	0.00e+00	0	37	0	660602880	60	7374
2026-01-04 13:37:39.53	73.74	36.58	-42.6	-43.6	22.7	0.00e+00	0	37	0	661651456	60	7372
2026-01-04 13:37:40.54	74.13	36.67	-42.4	-43.5	22.9	0.00e+00	0	37	0	663748608	60	7263
2026-01-04 13:37:41.55	74.53	36.76	-42.7	-43.7	22.6	0.00e+00	0	37	0	665845760	60	7463
2026-01-04 13:37:42.56	74.93	36.84	-42.9	-44.0	22.4	0.00e+00	0	37	0	667942912	60	7704
2026-01-04 13:37:43.57	75.33	36.93	-43.1	-44.3	22.1	0.00e+00	0	37	0	670040064	60	7969
2026-01-04 13:37:44.58	75.73	37.01	-43.3	-44.5	22.0	0.00e+00	0	37	0	672137216	60	8146
2026-01-04 13:37:45.59	76.13	37.09	-43.4	-44.5	21.8	0.00e+00	0	37	0	673185792	60	8204
2026-01-04 13:37:46.60	76.54	37.17	-43.4	-44.5	21.9	0.00e+00	0	37	0	675282944	60	8229
2026-01-04 13:37:47.62	76.95	37.25	-43.2	-44.4	22.0	0.00e+00	0	37	0	677380096	60	8069
2026-01-04 13:37:48.63	77.36	37.33	-43.2	-44.3	22.1	0.00e+00	0	37	0	679477248	60	7989
2026-01-04 13:37:49.64	77.77	37.40	-43.3	-44.4	22.0	0.00e+00	0	37	0	681574400	60	8059
2026-01-04 13:37:50.65	78.18	37.48	-43.5	-44.6	21.7	0.00e+00	0	37	0	682622976	60	8291
2026-01-04 13:37:51.66	78.60	37.55	-43.4	-44.5	21.9	0.00e+00	0	37	0	684720128	60	8223
2026-01-04 13:37:52.67	79.02	37.62	-43.6	-44.7	21.7	0.00e+00	0	37	0	686817280	60	8421
2026-01-04 13:37:53.68	79.44	37.69	-43.6	-44.8	21.6	0.00e+00	0	37	0	688914432	60	8451
2026-01-04 13:37:54.69	79.86	37.76	-43.5	-44.7	21.6	0.00e+00	0	37	0	691011584	60	8392
2026-01-04 13:37:55.70	80.28	37.83	-43.3	-44.5	22.0	0.00e+00	0	37	0	692060160	60	8143
2026-01-04 13:37:56.72	80.71	37.89	-43.4	-44.5	21.8	0.00e+00	0	37	0	694157312	60	8222
2026-01-04 13:37:57.73	81.13	37.95	-43.8	-45.0	21.4	0.00e+00	0	37	0	696254464	60	8670
2026-01-04 13:37:58.74	81.56	38.02	-44.2	-45.5	21.0	0.00e+00	0	37	0	698351616	60	9165
2026-01-04 13:37:59.75	81.99	38.08	-44.3	-45.6	20.8	0.00e+00	0	37	0	700448768	60	9255
2026-01-04 13:38:00.76	82.42	38.13	-44.3	-45.6	20.9	0.00e+00	0	37	0	701497344	60	9326
2026-01-04 13:38:01.77	82.85	38.19	-44.0	-45.2	21.2	0.00e+00	0	37	0	703594496	60	8922
2026-01-04 13:38:02.78	83.29	38.25	-44.0	-45.2	21.2	0.00e+00	0	37	0	705691648	60	8872
2026-01-04 13:38:03.79	83.72	38.30	-43.8	-45.0	21.5	0.00e+00	0	37	0	707788800	60	8660
2026-01-04 13:38:04.80	84.16	38.35	-43.6	-44.7	21.7	0.00e+00	0	37	0	709885952	60	8422
2026-01-04 13:38:05.81	84.59	38.40	-43.9	-45.1	21.2	0.00e+00	0	37	0	711983104	60	8766
2026-01-04 13:38:06.83	85.04	38.45	-44.3	-45.6	20.8	0.00e+00	0	37	0	713031680	60	9316
2026-01-04 13:38:07.84	85.48	38.49	-44.7	-46.1	20.4	0.00e+00	0	37	0	715128832	60	9818
2026-01-04 13:38:08.85	85.92	38.54	-45.0	-46.4	20.0	0.00e+00	0	37	0	717225984	60	10203
2026-01-04 13:38:09.86	86.36	38.58	-44.8	-46.2	20.4	0.00e+00	0	37	0	719323136	60	9909
2026-01-04 13:38:10.87	86.81	38.62	-44.5	-45.8	20.6	0.00e+00	0	37	0	721420288	60	9540
2026-01-04 13:38:11.88	87.25	38.66	-44.2	-45.5	20.9	0.00e+00	0	37	0	722468864	60	9200
2026-01-04 13:38:12.89	87.70	38.70	-44.5	-45.8	20.7	0.00e+00	0	37	0	724566016	60	9502
2026-01-04 13:38:13.91	88.15	38.73	-44.8	-46.2	20.4	0.00e+00	0	37	0	726663168	60	9908
2026-01-04 13:38:14.92	88.60	38.77	-44.7	-46.1	20.5	0.00e+00	0	37	0	728760320	60	9828
2026-01-04 13:38:15.92	89.04	38.80	-45.1	-46.5	20.0	0.00e+00	0	37	0	730857472	60	10360
2026-01-04 13:38:16.94	89.49	38.83	-45.4	-47.0	19.6	0.00e+00	0	37	0	731906048	60	10887
2026-01-04 13:38:17.95	89.95	38.86	-45.5	-47.1	19.6	0.00e+00	0	37	0	734003200	60	10986
2026-01-04 13:38:18.96	90.40	38.88	-45.5	-47.0	19.6	0.00e+00	0	37	0	736100352	60	10917
2026-01-04 13:38:19.97	90.85	38.90	-45.6	-47.2	19.4	0.00e+00	0	37	0	738197504	60	11116
2026-01-04 13:38:20.98	91.30	38.93	-45.7	-47.2	19.4	0.00e+00	0	37	0	740294656	60	11230
2026-01-04 13:38:21.99	91.75	38.95	-46.0	-47.6	19.0	0.00e+00	0	37	0	741343232	60	11716
2026-01-04 13:38:23.00	92.21	38.96	-45.8	-47.4	19.1	0.00e+00	0	37	0	743440384	60	11455
2026-01-04 13:38:24.01	92.66	38.98	-45.8	-47.4	19.2	0.00e+00	0	37	0	745537536	60	11489
2026-01-04 13:38:25.02	93.12	38.99	-45.4	-46.9	19.7	0.00e+00	0	37	0	747634688	60	10834
2026-01-04 13:38:26.04	93.57	39.00	-45.1	-46.5	19.9	0.00e+00	0	37	0	749731840	60	10360
2026-01-04 13:38:27.05	94.03	39.01	-44.9	-46.3	20.3	0.00e+00	0	37	0	750780416	60	10062
2026-01-04 13:38:28.06	94.49	39.02	-45.1	-46.5	20.0	0.00e+00	0	37	0	752877568	60	10326
2026-01-04 13:38:29.07	94.94	39.03	-44.9	-46.3	20.3	0.00e+00	0	37	0	754974720	60	10075
2026-01-04 13:38:30.08	95.40	39.03	-44.9	-46.3	20.2	0.00e+00	0	37	0	757071872	60	10093
2026-01-04 13:38:31.09	95.85	39.03	-45.0	-46.4	20.1	0.00e+00	0	37	0	759169024	60	10162
2026-01-04 13:38:32.10	96.31	39.03	-44.9	-46.3	20.2	0.00e+00	0	37	0	760217600	60	10018
2026-01-04 13:38:33.11	96.76	39.03	-44.5	-45.9	20.7	0.00e+00	0	37	0	762314752	60	9584
2026-01-04 13:38:34.12	97.22	39.03	-44.2	-45.4	20.9	0.00e+00	0	37	0	764411904	60	9107
2026-01-04 13:38:35.13	97.68	39.02	-43.8	-45.0	21.4	0.00e+00	0	37	0	766509056	60	8663
2026-01-04 13:38:36.14	98.13	39.01	-43.6	-44.8	21.6	0.00e+00	0	37	0	768606208	60	8447
2026-01-04 13:38:37.16	98.59	39.00	-43.5	-44.6	21.8	0.00e+00	0	37	0	770703360	60	8273
2026-01-04 13:38:38.17	99.05	38.99	-43.6	-44.8	21.6	0.00e+00	0	37	0	771751936	60	8449
2026-01-04 13:38:39.18	99.50	38.98	-43.9	-45.1	21.3	0.00e+00	0	37	0	773849088	60	8808
2026-01-04 13:38:40.19	99.95	38.96	-44.2	-45.4	20.9	0.00e+00	0	37	0	775946240	60	9100
2026-01-04 13:38:41.20	100.41	38.94	-44.3	-45.6	20.8	0.00e+00	0	37	0	778043392	60	9278
2026-01-04 13:38:42.21	100.86	38.92	-44.6	-45.9	20.6	0.00e+00	0	37	0	780140544	60	9618
2026-01-04 13:38:43.22	101.31	38.90	-44.5	-45.8	20.7	0.00e+00	0	37	0	781189120	60	9547
2026-01-04 13:38:44.23	101.77	38.88	-44.2	-45.4	21.1	0.00e+00	0	37	0	783286272	60	9110
2026-01-04 13:38:45.24	102.22	38.85	-44.8	-46.2	20.3	0.00e+00	0	37	0	785383424	60	9971
2026-01-04 13:38:46.26	102.67	38.82	-45.2	-46.7	19.8	0.00e+00	0	37	0	787480576	60	10576
2026-01-04 13:38:47.27	103.12	38.79	-45.8	-47.5	19.0	0.00e+00	0	37	0	789577728	60	11506
2026-01-04 13:38:48.28	103.57	38.76	-46.1	-47.9	18.6	0.00e+00	0	37	0	790626304	60	12161
2026-01-04 13:38:49.29	104.02	38.73	-46.3	-48.2	18.4	0.00e+00	0	37	0	792723456	60	12531
2026-01-04 13:38:50.30	104.47	38.69	-46.3	-48.1	18.6	0.00e+00	0	37	0	794820608	60	12415
2026-01-04 13:38:51.31	104.91	38.65	-45.5	-47.0	19.5	0.00e+00	0	37	0	796917760	60	10974
2026-01-04 13:38:52.32	105.36	38.62	-45.3	-46.8	19.8	0.00e+00	0	37	0	799014912	60	10622
2026-01-04 13:38:53.33	105.80	38.57	-45.0	-46.5	20.1	0.00e+00	0	37	0	800063488	60	10272
2026-01-04 13:38:54.34	106.24	38.53	-44.7	-46.0	20.5	0.00e+00	0	37	0	802160640	60	9753
2026-01-04 13:38:55.35	106.69	38.49	-44.1	-45.4	21.1	0.00e+00	0	37	0	804257792	60	9065
2026-01-04 13:38:56.37	107.13	38.44	-44.4	-45.7	20.8	0.00e+00	0	37	0	806354944	60	9376
2026-01-04 13:38:57.38	107.57	38.39	-45.1	-46.5	20.0	0.00e+00	0	37	0	808452096	60	10346
2026-01-04 13:38:58.39	108.01	38.34	-45.2	-46.6	20.0	0.00e+00	0	37	0	809500672	60	10469
2026-01-04 13:38:59.40	108.45	38.29	-44.7	-46.0	20.4	0.00e+00	0	37	0	811597824	60	9764
2026-01-04 13:39:00.41	108.88	38.24	-44.0	-45.2	21.3	0.00e+00	0	37	0	813694976	60	8918
2026-01-04 13:39:01.42	109.31	38.18	-43.6	-44.8	21.7	0.00e+00	0	37	0	815792128	60	8438
2026-01-04 13:39:02.43	109.75	38.12	-43.2	-44.3	22.0	0.00e+00	0	37	0	817889280	60	8045
2026-01-04 13:39:03.44	110.18	38.06	-43.5	-44.7	21.7	0.00e+00	0	37	0	819986432	60	8371
2026-01-04 13:39:04.45	110.61	38.00	-43.2	-44.3	22.1	0.00e+00	0	37	0	821035008	60	8031
2026-01-04 13:39:05.47	111.04	37.94	-42.8	-43.9	22.5	0.00e+00	0	37	0	823132160	60	7642
2026-01-04 13:39:06.48	111.46	37.88	-42.0	-43.0	23.3	0.00e+00	0	37	0	825229312	60	6870
2026-01-04 13:39:07.49	111.89	37.81	-41.9	-42.9	23.4	0.00e+00	0	37	0	827326464	60	6812
2026-01-04 13:39:08.50	112.31	37.75	-42.1	-43.1	23.1	0.00e+00	0	37	0	829423616	60	6995
2026-01-04 13:39:09.51	112.73	37.68	-42.9	-44.0	22.4	0.00e+00	0	37	0	830472192	60	7695
2026-01-04 13:39:10.52	113.15	37.61	-43.0	-44.1	22.2	0.00e+00	0	37	0	832569344	60	7809
2026-01-04 13:39:11.53	113.57	37.54	-42.9	-44.0	22.4	0.00e+00	0	37	0	834666496	60	7707
2026-01-04 13:39:12.54	113.99	37.46	-42.5	-43.5	22.8	0.00e+00	0	37	0	836763648	60	7294
2026-01-04 13:39:13.55	114.40	37.39	-42.2	-43.2	23.2	0.00e+00	0	37	0	838860800	60	7062
2026-01-04 13:39:14.56	114.81	37.31	-42.3	-43.3	23.1	0.00e+00	0	37	0	839909376	60	7093
2026-01-04 13:39:15.57	115.22	37.23	-42.1	-43.1	23.2	0.00e+00	0	37	0	842006528	60	6929
2026-01-04 13:39:16.58	115.63	37.15	-41.5	-42.4	23.7	0.00e+00	0	37	0	844103680	60	6442
2026-01-04 13:39:17.59	116.04	37.07	-41.1	-41.9	24.2	0.00e+00	0	37	0	846200832	60	6102
2026-01-04 13:39:18.61	116.44	36.99	-40.9	-41.7	24.5	0.00e+00	0	37	0	848297984	60	5951
2026-01-04 13:39:19.62	116.85	36.91	-40.2	-41.0	24.9	0.00e+00	0	37	0	849346560	60	5499
2026-01-04 13:39:20.63	117.25	36.82	-40.7	-41.5	24.4	0.00e+00	0	36	0	851443712	60	5828
2026-01-04 13:39:21.64	117.64	36.74	-41.4	-42.4	23.7	0.00e+00	0	37	0	853540864	60	6391
2026-01-04 13:39:22.65	118.04	36.65	-41.8	-42.8	23.5	0.00e+00	0	37	0	855638016	60	6705
2026-01-04 13:39:23.66	118.43	36.56	-41.1	-42.0	24.1	0.00e+00	0	37	0	857735168	60	6112
2026-01-04 13:39:24.67	118.83	36.47	-40.9	-41.7	24.4	0.00e+00	0	37	0	859832320	60	5932
2026-01-04 13:39:25.68	119.22	36.38	-40.7	-41.6	24.5	0.00e+00	0	37	0	860880896	60	5830
2026-01-04 13:39:26.69	119.60	36.29	-40.9	-41.7	24.3	0.00e+00	0	37	0	862978048	60	5928
2026-01-04 13:39:27.70	119.99	36.20	-41.0	-41.8	24.3	0.00e+00	0	37	0	865075200	60	6009
2026-01-04 13:39:28.72	120.38	36.10	-41.0	-41.9	24.1	0.00e+00	0	37	0	867172352	60	6048
2026-01-04 13:39:29.73	120.76	36.01	-40.4	-41.2	24.8	0.00e+00	0	37	0	869269504	60	5604
2026-01-04 13:39:30.74	121.14	35.91	-40.3	-41.2	24.9	0.00e+00	0	37	0	870318080	60	5567
2026-01-04 13:39:31.75	121.51	35.81	-40.7	-41.5	24.6	0.00e+00	0	37	0	872415232	60	5793
2026-01-04 13:39:32.76	121.89	35.71	-41.2	-42.1	24.0	0.00e+00	0	37	0	874512384	60	6189
2026-01-04 13:39:33.77	122.26	35.62	-41.2	-42.1	23.8	0.00e+00	0	37	0	876609536	60	6245
2026-01-04 13:39:34.78	122.63	35.51	-41.1	-42.0	24.2	0.00e+00	0	37	0	878706688	60	6148
2026-01-04 13:39:35.79	123.00	35.41	-40.8	-41.7	24.3	0.00e+00	0	37	0	879755264	60	5911
2026-01-04 13:39:36.81	123.37	35.31	-40.5	-41.3	24.7	0.00e+00	0	37	0	881852416	60	5662
2026-01-04 13:39:37.82	123.73	35.21	-40.9	-41.8	24.3	0.00e+00	0	37	0	883949568	60	5990
2026-01-04 13:39:38.83	124.09	35.10	-41.7	-42.6	23.7	0.00e+00	0	37	0	886046720	60	6602
2026-01-04 13:39:39.84	124.45	35.00	-42.3	-43.3	23.0	0.00e+00	0	37	0	888143872	60	7149
2026-01-04 13:39:40.85	124.81	34.89	-42.3	-43.3	23.0	0.00e+00	0	37	0	889192448	60	7166
2026-01-04 13:39:41.86	125.16	34.78	-42.0	-42.9	23.4	0.00e+00	0	37	0	891289600	60	6839
2026-01-04 13:39:42.87	125.51	34.67	-41.8	-42.8	23.5	0.00e+00	0	37	0	893386752	60	6696
2026-01-04 13:39:43.88	125.86	34.57	-41.8	-42.8	23.4	0.00e+00	0	37	0	895483904	60	6733
2026-01-04 13:39:44.89	126.21	34.46	-42.4	-43.4	22.9	0.00e+00	0	37	0	897581056	60	7206
2026-01-04 13:39:45.90	126.55	34.35	-42.6	-43.7	22.7	0.00e+00	0	37	0	898629632	60	7435
2026-01-04 13:39:46.92	126.90	34.23	-42.1	-43.1	23.2	0.00e+00	0	36	0	900726784	60	6971
2026-01-04 13:39:47.93	127.24	34.12	-41.7	-42.7	23.4	0.00e+00	0	37	0	902823936	60	6620
2026-01-04 13:39:48.94	127.58	34.01	-41.7	-42.6	23.6	0.00e+00	0	37	0	904921088	60	6569
2026-01-04 13:39:49.95	127.91	33.90	-42.1	-43.1	23.1	0.00e+00	0	37	0	907018240	60	6950
2026-01-04 13:39:50.96	128.25	33.78	-43.1	-44.2	22.2	0.00e+00	0	37	0	909115392	60	7920
2026-01-04 13:39:51.97	128.58	33.67	-43.4	-44.5	21.9	0.00e+00	0	37	0	910163968	60	8188
2026-01-04 13:39:52.98	128.91	33.55	-43.2	-44.4	22.0	0.00e+00	0	37	0	912261120	60	8056
2026-01-04 13:39:53.99	129.23	33.44	-43.1	-44.2	22.1	0.00e+00	0	37	0	914358272	60	7882
2026-01-04 13:39:55.00	129.56	33.32	-42.3	-43.3	23.0	0.00e+00	0	37	0	916455424	60	7094
2026-01-04 13:39:56.02	129.88	33.21	-42.8	-43.8	22.5	0.00e+00	0	37	0	918552576	60	7584
2026-01-04 13:39:57.02	130.20	33.09	-43.4	-44.5	21.7	0.00e+00	0	37	0	919601152	60	8230
2026-01-04 13:39:58.04	130.52	32.97	-44.2	-45.5	21.0	0.00e+00	0	37	0	921698304	60	9151
2026-01-04 13:39:59.05	130.84	32.85	-44.1	-45.4	21.1	0.00e+00	0	37	0	923795456	60	9063
2026-01-04 13:40:00.06	131.15	32.73	-43.7	-44.8	21.6	0.00e+00	0	37	0	925892608	60	8519
2026-01-04 13:40:01.07	131.46	32.61	-43.3	-44.4	22.1	0.00e+00	0	37	0	927989760	60	8084
2026-01-04 13:40:02.08	131.77	32.50	-42.7	-43.7	22.4	0.00e+00	0	37	0	929038336	60	7505
2026-01-04 13:40:03.09	132.07	32.38	-43.3	-44.4	21.8	0.00e+00	0	37	0	931135488	60	8100
2026-01-04 13:40:04.10	132.38	32.25	-44.1	-45.4	20.9	0.00e+00	0	37	0	933232640	60	9066
2026-01-04 13:40:05.11	132.68	32.13	-44.3	-45.5	20.8	0.00e+00	0	37	0	935329792	60	9235
2026-01-04 13:40:06.12	132.98	32.01	-43.5	-44.7	21.8	0.00e+00	0	37	0	937426944	60	8348
2026-01-04 13:40:07.13	133.28	31.89	-42.7	-43.7	22.6	0.00e+00	0	37	0	938475520	60	7447
2026-01-04 13:40:08.15	133.58	31.77	-42.1	-43.0	23.3	0.00e+00	0	37	0	940572672	60	6910
2026-01-04 13:40:09.16	133.87	31.65	-42.3	-43.3	23.0	0.00e+00	0	37	0	942669824	60	7108
2026-01-04 13:40:10.17	134.16	31.52	-42.9	-44.0	22.2	0.00e+00	0	37	0	944766976	60	7690
2026-01-04 13:40:11.18	134.45	31.40	-44.1	-45.4	21.0	0.00e+00	0	37	0	946864128	60	9123
2026-01-04 13:40:12.19	134.74	31.28	-44.8	-46.2	20.3	0.00e+00	0	37	0	947912704	60	10011
2026-01-04 13:40:13.20	135.02	31.16	-44.1	-45.4	21.1	0.00e+00	0	37	0	950009856	60	9117
2026-01-04 13:40:14.21	135.30	31.03	-44.0	-45.2	21.3	0.00e+00	0	37	0	952107008	60	8856
2026-01-04 13:40:15.22	135.58	30.91	-43.3	-44.4	21.9	0.00e+00	0	37	0	954204160	60	8053
2026-01-04 13:40:16.23	135.86	30.78	-42.8	-43.9	22.6	0.00e+00	0	37	0	956301312	60	7604
2026-01-04 13:40:17.24	136.14	30.66	-42.9	-43.9	22.4	0.00e+00	0	37	0	957349888	60	7662
2026-01-04 13:40:18.26	136.41	30.54	-43.9	-45.1	21.3	0.00e+00	0	37	0	959447040	60	8792
2026-01-04 13:40:19.27	136.69	30.41	-44.0	-45.3	21.1	0.00e+00	0	37	0	961544192	60	8974
2026-01-04 13:40:20.28	136.96	30.29	-43.4	-44.6	21.9	0.00e+00	0	37	0	963641344	60	8240
2026-01-04 13:40:21.29	137.22	30.16	-42.8	-43.9	22.5	0.00e+00	0	37	0	965738496	60	7607
2026-01-04 13:40:22.30	137.49	30.04	-42.1	-43.1	23.2	0.00e+00	0	37	0	967835648	60	6939
2026-01-04 13:40:23.31	137.75	29.91	-41.5	-42.4	23.7	0.00e+00	0	37	0	968884224	60	6463
2026-01-04 13:40:24.32	138.02	29.79	-42.0	-42.9	23.2	0.00e+00	0	37	0	970981376	60	6834
2026-01-04 13:40:25.33	138.28	29.66	-42.9	-44.0	22.3	0.00e+00	0	37	0	973078528	60	7689
2026-01-04 13:40:26.34	138.53	29.54	-43.4	-44.6	21.7	0.00e+00	0	37	0	975175680	60	8245
2026-01-04 13:40:27.36	138.79	29.41	-42.8	-43.9	22.5	0.00e+00	0	37	0	977272832	60	7630
2026-01-04 13:40:28.37	139.05	29.29	-42.1	-43.1	23.1	0.00e+00	0	37	0	978321408	60	6996
2026-01-04 13:40:29.38	139.30	29.16	-41.7	-42.7	23.7	0.00e+00	0	37	0	980418560	60	6627
2026-01-04 13:40:30.39	139.55	29.03	-41.1	-42.0	24.0	0.00e+00	0	36	0	982515712	60	6139
2026-01-04 13:40:31.40	139.80	28.91	-41.3	-42.2	23.8	0.00e+00	0	37	0	984612864	60	6297
2026-01-04 13:40:32.41	140.04	28.78	-42.1	-43.1	23.1	0.00e+00	0	37	0	986710016	60	6978
2026-01-04 13:40:33.42	140.29	28.66	-42.8	-43.9	22.3	0.00e+00	0	37	0	987758592	60	7647
2026-01-04 13:40:34.43	140.53	28.53	-42.9	-44.1	22.2	0.00e+00	0	37	0	989855744	60	7779
2026-01-04 13:40:35.44	140.77	28.41	-42.5	-43.6	22.6	0.00e+00	0	37	0	991952896	60	7351
2026-01-04 13:40:36.45	141.01	28.28	-42.3	-43.4	22.8	0.00e+00	0	37	0	994050048	60	7186
2026-01-04 13:40:37.47	141.25	28.16	-41.5	-42.4	23.8	0.00e+00	0	37	0	996147200	60	6430
2026-01-04 13:40:38.48	141.49	28.03	-40.8	-41.6	24.4	0.00e+00	0	37	0	997195776	60	5891
2026-01-04 13:40:39.49	141.72	27.91	-40.5	-41.4	24.5	0.00e+00	0	37	0	999292928	60	5715
2026-01-04 13:40:40.50	141.95	27.78	-40.9	-41.8	24.2	0.00e+00	0	37	0	1001390080	60	5987
2026-01-04 13:40:41.51	142.18	27.66	-41.5	-42.4	23.7	0.00e+00	0	37	0	1003487232	60	6439
2026-01-04 13:40:42.52	142.41	27.53	-41.7	-42.6	23.4	0.00e+00	0	37	0	1005584384	60	6606
2026-01-04 13:40:43.53	142.64	27.41	-41.6	-42.6	23.5	0.00e+00	0	37	0	1007681536	60	6588
2026-01-04 13:40:44.54	142.86	27.28	-41.0	-41.9	24.1	0.00e+00	0	37	0	1008730112	60	6036
2026-01-04 13:40:45.55	143.09	27.16	-40.4	-41.3	24.6	0.00e+00	0	37	0	1010827264	60	5637
2026-01-04 13:40:46.56	143.31	27.03	-39.4	-40.2	25.5	0.00e+00	0	37	0	1012924416	58	5612
2026-01-04 13:40:47.57	143.53	26.91	-39.2	-40.0	25.7	0.00e+00	0	37	0	1015021568	58	5460
2026-01-04 13:40:48.59	143.75	26.78	-39.5	-40.2	25.3	0.00e+00	0	37	0	1017118720	58	5629
2026-01-04 13:40:49.60	143.96	26.66	-40.2	-41.0	24.7	0.00e+00	0	37	0	1018167296	58	6147
2026-01-04 13:40:50.61	144.18	26.53	-41.3	-42.2	23.6	0.00e+00	0	37	0	1020264448	60	6291
2026-01-04 13:40:51.62	144.39	26.41	-41.9	-42.9	23.1	0.00e+00	0	37	0	1022361600	60	6800
2026-01-04 13:40:52.63	144.60	26.29	-41.9	-42.9	23.1	0.00e+00	0	37	0	1024458752	60	6782
2026-01-04 13:40:53.64	144.81	26.16	-41.2	-42.2	23.1	0.00e+00	0	36	0	1026555904	60	6266
2026-01-04 13:40:54.65	145.02	26.04	-40.8	-41.7	24.1	0.00e+00	0	37	0	1027604480	60	5900
2026-01-04 13:40:55.66	145.23	25.92	-40.7	-41.6	24.5	0.00e+00	0	37	0	1029701632	60	5844
2026-01-04 13:40:56.67	145.43	25.79	-39.8	-40.6	25.1	0.00e+00	0	37	0	1031798784	58	5871
2026-01-04 13:40:57.68	145.64	25.67	-39.3	-40.0	25.5	0.00e+00	0	37	0	1033895936	58	5476
2026-01-04 13:40:58.69	145.84	25.55	-39.4	-40.2	25.4	0.00e+00	0	37	0	1035993088	58	5573
2026-01-04 13:40:59.71	146.04	25.43	-39.9	-40.7	25.0	0.00e+00	0	37	0	1037041664	58	5912
2026-01-04 13:41:00.72	146.24	25.30	-40.3	-41.2	24.6	0.00e+00	0	37	0	1039138816	58	6270
2026-01-04 13:41:01.73	146.44	25.18	-40.7	-41.5	24.2	0.00e+00	0	37	0	1041235968	58	6532
2026-01-04 13:41:02.74	146.64	25.06	-40.6	-41.5	24.4	0.00e+00	0	37	0	1043333120	58	6471
2026-01-04 13:41:03.75	146.83	24.94	-40.1	-40.9	24.8	0.00e+00	0	37	0	1045430272	58	6075
2026-01-04 13:41:04.76	147.02	24.82	-40.0	-40.8	24.9	0.00e+00	0	37	0	1046478848	58	5999
2026-01-04 13:41:05.77	147.22	24.70	-39.2	-40.0	25.6	0.00e+00	0	37	0	1048576000	58	5479
2026-01-04 13:41:06.78	147.41	24.58	-39.3	-40.0	25.5	0.00e+00	0	37	0	1050673152	58	5492
2026-01-04 13:41:07.79	147.59	24.45	-39.3	-40.1	25.5	0.00e+00	0	37	0	1052770304	58	5506
2026-01-04 13:41:08.80	147.78	24.33	-39.3	-40.1	25.5	0.00e+00	0	37	0	1054867456	58	5504
2026-01-04 13:41:09.82	147.97	24.21	-39.6	-40.4	25.1	0.00e+00	0	37	0	1056964608	58	5756
2026-01-04 13:41:10.83	148.16	24.09	-39.9	-40.7	24.9	0.00e+00	0	37	0	1058013184	58	5926
2026-01-04 13:41:11.84	148.34	23.97	-40.2	-41.1	24.8	0.00e+00	0	37	0	1060110336	58	6175
2026-01-04 13:41:12.85	148.52	23.85	-40.2	-41.1	24.7	0.00e+00	0	37	0	1062207488	58	6211
2026-01-04 13:41:13.86	148.70	23.73	-40.0	-40.8	24.9	0.00e+00	0	37	0	1064304640	58	6019
2026-01-04 13:41:14.87	148.88	23.62	-40.0	-40.8	24.9	0.00e+00	0	37	0	1066401792	58	6018
2026-01-04 13:41:15.88	149.06	23.50	-40.0	-40.8	24.9	0.00e+00	0	37	0	1067450368	58	5990
2026-01-04 13:41:16.89	149.24	23.38	-40.0	-40.9	24.9	0.00e+00	0	37	0	1069547520	58	6047
2026-01-04 13:41:17.90	149.41	23.26	-40.1	-40.9	24.9	0.00e+00	0	37	0	1071644672	58	6083
2026-01-04 13:41:18.92	149.59	23.14	-40.2	-41.1	24.7	0.00e+00	0	37	0	1073741824	58	6198
2026-01-04 13:41:19.93	149.76	23.02	-40.6	-41.5	24.4	0.00e+00	0	37	0	1075838976	58	6481
2026-01-04 13:41:20.94	149.93	22.91	-40.7	-41.6	24.2	0.00e+00	0	37	0	1076887552	58	6581
2026-01-04 13:41:21.95	150.10	22.79	-40.7	-41.6	24.2	0.00e+00	0	36	0	1078984704	58	6548
2026-01-04 13:41:22.96	150.27	22.67	-40.4	-41.3	24.5	0.00e+00	0	37	0	1081081856	58	6331
2026-01-04 13:41:23.97	150.44	22.56	-40.3	-41.2	24.5	0.00e+00	0	36	0	1083179008	58	6264
2026-01-04 13:41:24.98	150.61	22.44	-40.3	-41.1	24.6	0.00e+00	0	37	0	1085276160	58	6204
2026-01-04 13:41:25.99	150.77	22.33	-40.3	-41.1	24.6	0.00e+00	0	37	0	1086324736	58	6235
2026-01-04 13:41:27.01	150.94	22.21	-40.3	-41.1	24.6	0.00e+00	0	36	0	1088421888	58	6228
2026-01-04 13:41:28.02	151.10	22.09	-40.4	-41.3	24.5	0.00e+00	0	37	0	1090519040	58	6327
2026-01-04 13:41:29.03	151.26	21.98	-40.7	-41.5	24.2	0.00e+00	0	36	0	1092616192	58	6532
2026-01-04 13:41:30.04	151.42	21.86	-40.8	-41.7	24.2	0.00e+00	0	37	0	1094713344	58	6642
2026-01-04 13:41:31.05	151.58	21.75	-40.9	-41.8	24.0	0.00e+00	0	36	0	1095761920	58	6752
2026-01-04 13:41:32.06	151.74	21.64	-40.9	-41.8	24.0	0.00e+00	0	37	0	1097859072	58	6736
2026-01-04 13:41:33.07	151.90	21.52	-40.8	-41.7	24.2	0.00e+00	0	37	0	1099956224	58	6660
2026-01-04 13:41:34.08	152.06	21.41	-40.9	-41.8	24.1	0.00e+00	0	37	0	1102053376	58	6741
2026-01-04 13:41:35.09	152.21	21.29	-40.7	-41.6	24.2	0.00e+00	0	37	0	1104150528	58	6599
2026-01-04 13:41:36.10	152.36	21.18	-40.7	-41.5	24.2	0.00e+00	0	37	0	1106247680	58	6534
2026-01-04 13:41:37.12	152.52	21.07	-40.7	-41.6	24.1	0.00e+00	0	37	0	1107296256	58	6594
2026-01-04 13:41:38.13	152.67	20.96	-40.9	-41.8	24.0	0.00e+00	0	37	0	1109393408	58	6751
2026-01-04 13:41:39.14	152.82	20.84	-41.3	-42.3	23.6	0.00e+00	0	37	0	1111490560	60	6327
2026-01-04 13:41:40.15	152.97	20.73	-41.7	-42.6	23.3	0.00e+00	0	37	0	1113587712	60	6606
2026-01-04 13:41:41.16	153.12	20.62	-42.1	-43.1	22.9	0.00e+00	0	37	0	1115684864	60	6963
2026-01-04 13:41:42.17	153.27	20.51	-42.4	-43.4	22.7	0.00e+00	0	37	0	1116733440	60	7228
2026-01-04 13:41:43.18	153.42	20.40	-42.6	-43.7	22.5	0.00e+00	0	37	0	1118830592	60	7428
2026-01-04 13:41:44.19	153.56	20.29	-42.4	-43.5	22.5	0.00e+00	0	37	0	1120927744	60	7308
2026-01-04 13:41:45.20	153.71	20.18	-42.3	-43.4	22.5	0.00e+00	0	37	0	1123024896	60	7223
2026-01-04 13:41:46.22	153.85	20.07	-42.1	-43.1	22.8	0.00e+00	0	37	0	1125122048	60	7000
2026-01-04 13:41:47.23	153.99	19.96	-42.1	-43.2	22.9	0.00e+00	0	36	0	1126170624	60	7018
2026-01-04 13:41:48.24	154.14	19.85	-41.9	-42.9	23.0	0.00e+00	0	37	0	1128267776	60	6811
2026-01-04 13:41:49.25	154.28	19.74	-41.7	-42.7	23.2	0.00e+00	0	37	0	1130364928	60	6658
2026-01-04 13:41:50.26	154.42	19.63	-42.1	-43.1	22.8	0.00e+00	0	37	0	1132462080	60	6967
2026-01-04 13:41:51.27	154.55	19.52	-42.3	-43.3	22.4	0.00e+00	0	37	0	1134559232	60	7143
2026-01-04 13:41:52.28	154.69	19.42	-42.5	-43.6	22.1	0.00e+00	0	37	0	1135607808	60	7351
2026-01-04 13:41:53.29	154.83	19.31	-42.8	-43.9	21.9	0.00e+00	0	37	0	1137704960	60	7642
2026-01-04 13:41:54.30	154.97	19.20	-43.0	-44.1	21.7	0.00e+00	0	37	0	1139802112	60	7840
2026-01-04 13:41:55.32	155.10	19.09	-43.4	-44.6	21.2	0.00e+00	0	37	0	1141899264	60	8294
2026-01-04 13:41:56.33	155.24	18.99	-43.4	-44.6	21.2	0.00e+00	0	37	0	1143996416	60	8313
2026-01-04 13:41:57.34	155.37	18.88	-43.4	-44.7	21.0	0.00e+00	0	37	0	1145044992	60	8380
2026-01-04 13:41:58.35	155.50	18.77	-43.4	-44.7	21.1	0.00e+00	0	37	0	1147142144	60	8337
2026-01-04 13:41:59.36	155.63	18.67	-43.4	-44.6	21.1	0.00e+00	0	37	0	1149239296	60	8328
2026-01-04 13:42:00.37	155.76	18.56	-43.3	-44.5	21.3	0.00e+00	0	36	0	1151336448	60	8194
2026-01-04 13:42:01.38	155.89	18.46	-42.8	-44.0	21.7	0.00e+00	0	37	0	1153433600	60	7722
2026-01-04 13:42:02.39	156.02	18.35	-42.6	-43.8	21.9	0.00e+00	0	37	0	1154482176	60	7531
2026-01-04 13:42:03.40	156.15	18.25	-42.4	-43.4	22.3	0.00e+00	0	37	0	1156579328	60	7248
2026-01-04 13:42:04.42	156.28	18.14	-42.0	-43.0	22.6	0.00e+00	0	37	0	1158676480	60	6921
2026-01-04 13:42:05.43	156.40	18.04	-41.9	-42.9	22.7	0.00e+00	0	37	0	1160773632	60	6818
2026-01-04 13:42:06.44	156.53	17.93	-41.6	-42.6	23.1	0.00e+00	0	37	0	1162870784	60	6553
2026-01-04 13:42:07.45	156.65	17.83	-41.6	-42.6	23.3	0.00e+00	0	37	0	1164967936	60	6541
2026-01-04 13:42:08.46	156.78	17.73	-41.4	-42.4	23.4	0.00e+00	0	37	0	1166016512	60	6422
2026-01-04 13:42:09.47	156.90	17.62	-41.5	-42.5	23.4	0.00e+00	0	37	0	1168113664	60	6486
2026-01-04 13:42:10.48	157.02	17.52	-41.5	-42.4	23.4	0.00e+00	0	37	0	1170210816	60	6441
2026-01-04 13:42:11.49	157.15	17.42	-41.5	-42.5	23.3	0.00e+00	0	37	0	1172307968	60	6475
2026-01-04 13:42:12.50	157.27	17.32	-41.5	-42.5	23.2	0.00e+00	0	37	0	1174405120	60	6470
2026-01-04 13:42:13.52	157.39	17.22	-41.8	-42.8	23.1	0.00e+00	0	37	0	1175453696	60	6710
2026-01-04 13:42:14.53	157.51	17.11	-42.1	-43.1	22.8	0.00e+00	0	37	0	1177550848	60	6956
2026-01-04 13:42:15.54	157.62	17.01	-41.8	-42.8	23.1	0.00e+00	0	37	0	1179648000	60	6728
2026-01-04 13:42:16.55	157.74	16.91	-41.6	-42.6	23.2	0.00e+00	0	37	0	1181745152	60	6586
2026-01-04 13:42:17.56	157.86	16.81	-41.7	-42.7	23.1	0.00e+00	0	37	0	1183842304	60	6642
2026-01-04 13:42:18.57	157.98	16.71	-41.7	-42.6	23.2	0.00e+00	0	37	0	1184890880	60	6594
2026-01-04 13:42:19.58	158.09	16.61	-42.1	-43.1	22.8	0.00e+00	0	37	0	1186988032	60	6997
2026-01-04 13:42:20.59	158.20	16.51	-42.2	-43.2	22.9	0.00e+00	0	37	0	1189085184	60	7055
2026-01-04 13:42:21.61	158.32	16.41	-42.0	-43.0	23.0	0.00e+00	0	37	0	1191182336	60	6873
2026-01-04 13:42:22.62	158.43	16.32	-41.9	-42.9	23.0	0.00e+00	0	37	0	1193279488	60	6821
2026-01-04 13:42:23.63	158.55	16.22	-42.0	-43.0	22.9	0.00e+00	0	37	0	1194328064	60	6869
2026-01-04 13:42:24.64	158.66	16.12	-42.1	-43.1	22.8	0.00e+00	0	37	0	1196425216	60	6960
2026-01-04 13:42:25.65	158.77	16.02	-42.0	-43.0	22.9	0.00e+00	0	37	0	1198522368	60	6854
2026-01-04 13:42:26.66	158.88	15.92	-41.9	-42.9	23.0	0.00e+00	0	37	0	1200619520	60	6812
2026-01-04 13:42:27.67	158.99	15.83	-42.1	-43.1	22.7	0.00e+00	0	37	0	1202716672	60	6956
2026-01-04 13:42:28.68	159.10	15.73	-42.3	-43.3	22.7	0.00e+00	0	36	0	1204813824	60	7130
2026-01-04 13:42:29.69	159.21	15.63	-42.4	-43.5	22.5	0.00e+00	0	37	0	1205862400	60	7298
2026-01-04 13:42:30.70	159.31	15.54	-42.6	-43.6	22.3	0.00e+00	0	37	0	1207959552	60	7419
2026-01-04 13:42:31.71	159.42	15.44	-42.4	-43.5	22.4	0.00e+00	0	37	0	1210056704	60	7274
2026-01-04 13:42:32.72	159.53	15.34	-42.5	-43.6	22.3	0.00e+00	0	37	0	1212153856	60	7340
2026-01-04 13:42:33.73	159.63	15.25	-42.7	-43.8	22.1	0.00e+00	0	37	0	1214251008	60	7547
2026-01-04 13:42:34.74	159.74	15.15	-42.4	-43.5	22.5	0.00e+00	0	37	0	1215299584	60	7271
2026-01-04 13:42:35.75	159.84	15.06	-42.5	-43.6	22.3	0.00e+00	0	37	0	1217396736	60	7340
