passes_logs/2026/01/04/R4.6S_Anadyr_2ch/R4.6S_Anadyr_2ch__20260104_115035_NOAA_20_JPSS-1_rec.log

#Pass ID: 20260104_115035_NOAA 20 (JPSS-1)
#Satellite: NOAA 20 (JPSS-1)
#Configuration: NOAA 20
#almurnet v.1.7.20251203
#Start time: 2026-01-04 11:50:37

#Version: 2.2.20231116
#Station: R4.6S_Anadyr_2ch
#Location: 177.4865 lon 64.73178 lat
#TLE: 1 43013U 17073A   25350.93759711  .00000080  00000+0  58734-4 0  9994
#TLE: 2 43013  98.7603 287.1885 0002156  81.1496 278.9924 14.19526878418610

#Time	Az	El	Level	Level2	SNR	BER	BlckErr	Temp	State	Recorded	gain1	gain2
2026-01-04 11:50:37.72	20.04	0.09	-53.2	-68.4	3.5	1.51e+00	0	35	0	0	60	127913
2026-01-04 11:50:38.73	20.13	0.13	-54.3	-69.7	3.6	1.51e+00	0	36	104	0	60	149233
2026-01-04 11:50:39.74	20.22	0.18	-54.1	-69.6	3.6	1.51e+00	0	36	104	0	60	147082
2026-01-04 11:50:40.76	20.31	0.22	-52.9	-68.4	3.6	1.51e+00	0	36	104	0	60	128510
2026-01-04 11:50:41.77	20.40	0.26	-53.0	-68.4	3.6	1.51e+00	0	36	104	0	60	128870
2026-01-04 11:50:42.78	20.49	0.31	-52.8	-68.3	3.6	1.51e+00	0	36	104	0	60	126513
2026-01-04 11:50:43.79	20.58	0.35	-52.9	-68.3	3.6	1.51e+00	0	36	104	0	60	127369
2026-01-04 11:50:44.80	20.67	0.39	-52.7	-68.2	3.6	1.51e+00	0	36	104	0	60	125376
2026-01-04 11:50:45.81	20.76	0.44	-53.2	-68.7	3.6	1.51e+00	0	36	104	0	60	132806
2026-01-04 11:50:46.82	20.85	0.48	-52.8	-68.3	3.6	1.51e+00	0	36	104	0	60	126399
2026-01-04 11:50:47.83	20.94	0.53	-52.6	-68.1	3.6	1.51e+00	0	36	104	0	60	123803
2026-01-04 11:50:48.84	21.04	0.57	-52.6	-68.0	3.6	1.51e+00	0	36	104	0	60	122267
2026-01-04 11:50:49.85	21.13	0.61	-52.3	-67.9	3.6	1.51e+00	0	36	104	0	60	120566
2026-01-04 11:50:50.87	21.22	0.66	-52.2	-67.7	3.6	1.51e+00	0	36	104	0	60	118634
2026-01-04 11:50:51.88	21.31	0.70	-52.1	-67.6	3.6	1.51e+00	0	36	104	0	60	116318
2026-01-04 11:50:52.89	21.41	0.74	-52.0	-67.4	3.6	1.51e+00	0	36	104	0	60	114675
2026-01-04 11:50:53.90	21.50	0.79	-51.7	-67.2	3.6	1.51e+00	0	36	104	0	60	111197
2026-01-04 11:50:54.91	21.59	0.83	-51.2	-66.6	3.6	1.51e+00	0	36	104	0	60	104519
2026-01-04 11:50:55.92	21.69	0.88	-50.6	-66.0	3.6	1.51e+00	0	36	104	0	60	97510
2026-01-04 11:50:56.93	21.78	0.92	-50.6	-66.0	3.6	1.51e+00	0	36	104	0	60	97344
2026-01-04 11:50:57.94	21.88	0.96	-50.6	-66.0	3.6	1.51e+00	0	36	104	0	60	97374
2026-01-04 11:50:58.95	21.97	1.01	-50.6	-66.0	3.6	1.51e+00	0	36	104	0	60	97477
2026-01-04 11:50:59.96	22.07	1.05	-50.5	-66.0	3.6	1.51e+00	0	36	104	0	60	97141
2026-01-04 11:51:00.97	22.16	1.09	-50.5	-66.0	3.6	1.51e+00	0	36	104	0	60	97163
2026-01-04 11:51:01.98	22.26	1.14	-50.5	-65.9	3.6	1.51e+00	0	36	104	0	60	96577
2026-01-04 11:51:03.00	22.35	1.18	-50.5	-66.0	3.6	1.51e+00	0	36	104	0	60	97109
2026-01-04 11:51:04.01	22.45	1.23	-50.5	-66.0	3.6	1.51e+00	0	36	104	0	60	97045
2026-01-04 11:51:05.02	22.54	1.27	-50.5	-65.9	3.6	1.51e+00	0	36	104	0	60	96386
2026-01-04 11:51:06.03	22.64	1.31	-50.5	-65.9	3.6	1.51e+00	0	36	104	0	60	96530
2026-01-04 11:51:07.04	22.74	1.36	-50.5	-65.9	3.6	1.51e+00	0	36	104	0	60	96685
2026-01-04 11:51:08.05	22.83	1.40	-50.5	-66.0	3.6	1.51e+00	0	36	104	0	60	97171
2026-01-04 11:51:09.06	22.93	1.44	-50.6	-66.0	3.6	1.51e+00	0	36	104	0	60	97553
2026-01-04 11:51:10.07	23.03	1.49	-50.5	-66.0	3.6	1.51e+00	0	36	104	0	60	97266
2026-01-04 11:51:11.08	23.13	1.53	-50.5	-66.0	3.6	1.51e+00	0	36	104	0	60	96740
2026-01-04 11:51:12.09	23.22	1.58	-50.5	-66.0	3.6	1.51e+00	0	36	104	0	60	96784
2026-01-04 11:51:13.11	23.32	1.62	-50.5	-65.9	3.6	1.51e+00	0	36	104	0	60	96617
2026-01-04 11:51:14.12	23.42	1.66	-50.5	-66.0	3.6	1.51e+00	0	36	104	0	60	97264
2026-01-04 11:51:15.13	23.52	1.71	-50.5	-66.0	3.6	1.51e+00	0	36	104	0	60	96933
2026-01-04 11:51:16.14	23.62	1.75	-50.5	-66.0	3.6	1.51e+00	0	36	104	0	60	96902
2026-01-04 11:51:17.15	23.72	1.79	-50.5	-66.0	3.6	1.51e+00	0	36	104	0	60	96895
2026-01-04 11:51:18.16	23.82	1.84	-50.5	-66.0	3.6	1.51e+00	0	36	104	0	60	96754
2026-01-04 11:51:19.17	23.92	1.88	-50.5	-66.0	3.6	1.51e+00	0	36	104	0	60	97227
2026-01-04 11:51:20.18	24.02	1.93	-50.5	-65.9	3.6	1.51e+00	0	36	104	0	60	96622
2026-01-04 11:51:21.19	24.12	1.97	-50.5	-66.0	3.6	1.51e+00	0	36	104	0	60	97175
2026-01-04 11:51:22.20	24.22	2.01	-50.5	-66.0	3.6	1.51e+00	0	36	104	0	60	97059
2026-01-04 11:51:23.21	24.32	2.06	-50.5	-65.9	3.6	1.51e+00	0	36	104	0	60	96445
2026-01-04 11:51:24.22	24.42	2.10	-50.5	-65.9	3.6	1.51e+00	0	37	104	0	60	95905
2026-01-04 11:51:25.23	24.52	2.15	-50.5	-65.9	3.5	1.51e+00	0	37	104	0	60	95781
2026-01-04 11:51:26.24	24.63	2.19	-50.5	-65.9	3.6	1.51e+00	0	37	104	0	60	96134
2026-01-04 11:51:27.25	24.73	2.23	-50.5	-65.9	3.6	1.51e+00	0	36	104	0	60	96691
2026-01-04 11:51:28.26	24.83	2.28	-50.5	-65.9	3.6	1.51e+00	0	37	104	0	60	96429
2026-01-04 11:51:29.27	24.93	2.32	-50.5	-65.9	3.6	1.51e+00	0	36	104	0	60	96412
2026-01-04 11:51:30.28	25.04	2.36	-50.5	-66.0	3.6	1.51e+00	0	37	104	0	60	97135
2026-01-04 11:51:31.29	25.14	2.41	-50.5	-65.7	3.6	1.51e+00	0	37	104	0	60	94384
2026-01-04 11:51:32.30	25.24	2.45	-50.6	-65.9	3.6	1.51e+00	0	37	104	0	60	96213
2026-01-04 11:51:33.32	25.35	2.50	-50.5	-65.2	3.6	1.51e+00	0	37	104	0	60	88977
2026-01-04 11:51:34.33	25.45	2.54	-50.5	-65.2	3.6	1.51e+00	0	37	104	0	60	88360
2026-01-04 11:51:35.34	25.56	2.58	-50.5	-65.6	3.6	1.51e+00	0	37	104	0	60	92409
2026-01-04 11:51:36.35	25.66	2.63	-50.5	-63.9	3.9	1.51e+00	0	37	104	0	60	76625
2026-01-04 11:51:37.36	25.77	2.67	-49.9	-58.0	7.0	6.00e-01	0	37	104	0	60	38782
2026-01-04 11:51:38.37	25.87	2.71	-49.1	-54.2	11.1	7.38e-02	0	37	0	1048576	60	25109
2026-01-04 11:51:39.38	25.98	2.76	-47.1	-50.0	15.0	4.73e-05	0	37	0	3145728	60	15351
2026-01-04 11:51:40.39	26.08	2.80	-46.4	-48.8	16.3	2.20e-06	0	37	0	5242880	60	13495
2026-01-04 11:51:41.40	26.19	2.85	-46.5	-49.0	16.4	0.00e+00	0	37	0	6291456	60	13699
2026-01-04 11:51:42.41	26.30	2.89	-45.2	-47.1	18.0	0.00e+00	0	37	0	8388608	60	11002
2026-01-04 11:51:43.43	26.40	2.93	-46.7	-49.4	15.7	0.00e+00	0	36	0	10485760	60	14316
2026-01-04 11:51:44.44	26.51	2.98	-47.6	-51.0	13.8	0.00e+00	0	37	0	12582912	60	17351
2026-01-04 11:51:45.45	26.62	3.02	-46.9	-49.6	16.2	8.62e-05	0	37	0	14680064	60	14696
2026-01-04 11:51:46.46	26.73	3.06	-48.1	-52.3	9.7	0.00e+00	0	37	0	15728640	60	19991
2026-01-04 11:51:47.47	26.84	3.11	-49.4	-55.8	5.6	1.51e+00	0	37	104	16777216	60	30178
2026-01-04 11:51:48.48	26.94	3.15	-47.6	-50.6	15.0	2.65e-02	0	37	104	16777216	60	16509
2026-01-04 11:51:49.49	27.05	3.19	-46.5	-48.8	13.9	0.00e+00	0	37	0	17825792	60	13499
2026-01-04 11:51:50.50	27.16	3.24	-50.1	-57.5	5.7	1.51e+00	0	37	104	18874368	60	36373
2026-01-04 11:51:51.51	27.27	3.28	-46.5	-48.7	16.7	1.13e+00	0	37	104	18874368	60	13343
2026-01-04 11:51:52.52	27.38	3.33	-45.7	-47.6	18.1	0.00e+00	0	37	0	19922944	60	11724
2026-01-04 11:51:53.53	27.49	3.37	-45.9	-47.9	17.7	0.00e+00	0	37	0	22020096	60	12111
2026-01-04 11:51:54.55	27.60	3.41	-46.1	-48.2	17.5	0.00e+00	0	37	0	24117248	60	12482
2026-01-04 11:51:55.56	27.71	3.46	-46.0	-48.0	17.7	0.00e+00	0	37	0	25165824	60	12308
2026-01-04 11:51:56.57	27.82	3.50	-45.5	-47.4	18.4	0.00e+00	0	37	0	27262976	60	11379
2026-01-04 11:51:57.58	27.93	3.54	-45.2	-47.0	18.6	0.00e+00	0	37	0	29360128	60	10862
2026-01-04 11:51:58.59	28.05	3.59	-45.1	-46.8	18.9	0.00e+00	0	37	0	31457280	60	10645
2026-01-04 11:51:59.60	28.16	3.63	-45.3	-47.0	18.7	0.00e+00	0	37	0	33554432	60	10925
2026-01-04 11:52:00.61	28.27	3.67	-44.9	-46.5	18.8	0.00e+00	0	37	0	34603008	60	10302
2026-01-04 11:52:01.62	28.38	3.72	-45.0	-46.7	19.0	0.00e+00	0	37	0	36700160	60	10497
2026-01-04 11:52:02.63	28.49	3.76	-45.1	-46.7	19.0	0.00e+00	0	37	0	38797312	60	10567
2026-01-04 11:52:03.65	28.61	3.80	-44.5	-45.9	20.0	0.00e+00	0	37	0	40894464	60	9667
2026-01-04 11:52:04.66	28.72	3.85	-44.8	-46.4	19.3	0.00e+00	0	37	0	42991616	60	10171
2026-01-04 11:52:05.67	28.84	3.89	-45.1	-46.7	19.4	0.00e+00	0	37	0	44040192	60	10597
2026-01-04 11:52:06.68	28.95	3.93	-44.5	-45.9	19.8	0.00e+00	0	37	0	46137344	60	9659
2026-01-04 11:52:07.69	29.06	3.98	-44.5	-46.1	19.7	0.00e+00	0	37	0	48234496	60	9790
2026-01-04 11:52:08.70	29.18	4.02	-44.5	-46.0	19.7	0.00e+00	0	37	0	50331648	60	9713
2026-01-04 11:52:09.71	29.29	4.06	-44.8	-46.4	19.3	0.00e+00	0	37	0	52428800	60	10211
2026-01-04 11:52:10.72	29.41	4.11	-44.9	-46.5	19.4	0.00e+00	0	37	0	53477376	60	10251
2026-01-04 11:52:11.74	29.53	4.15	-44.8	-46.3	19.5	0.00e+00	0	37	0	55574528	60	10096
2026-01-04 11:52:12.75	29.64	4.19	-44.7	-46.3	19.4	0.00e+00	0	37	0	57671680	60	10044
2026-01-04 11:52:13.76	29.76	4.24	-45.5	-47.3	18.8	0.00e+00	0	37	0	59768832	60	11301
2026-01-04 11:52:14.77	29.88	4.28	-45.0	-46.6	19.5	0.00e+00	0	37	0	61865984	60	10385
2026-01-04 11:52:15.78	29.99	4.32	-44.4	-45.9	19.9	0.00e+00	0	37	0	62914560	60	9618
2026-01-04 11:52:16.79	30.11	4.37	-44.8	-46.3	19.6	0.00e+00	0	37	0	65011712	60	10063
2026-01-04 11:52:17.80	30.23	4.41	-44.8	-46.3	19.5	0.00e+00	0	37	0	67108864	60	10088
2026-01-04 11:52:18.81	30.35	4.45	-44.7	-46.2	19.4	0.00e+00	0	37	0	69206016	60	9990
2026-01-04 11:52:19.82	30.46	4.50	-45.0	-46.5	19.4	0.00e+00	0	37	0	71303168	60	10350
2026-01-04 11:52:20.83	30.58	4.54	-44.5	-45.9	19.8	0.00e+00	0	37	0	72351744	60	9614
2026-01-04 11:52:21.85	30.70	4.58	-44.9	-46.4	19.7	0.00e+00	0	37	0	74448896	60	10211
2026-01-04 11:52:22.86	30.82	4.63	-44.2	-45.7	20.2	0.00e+00	0	37	0	76546048	60	9345
2026-01-04 11:52:23.87	30.94	4.67	-44.9	-46.5	19.5	0.00e+00	0	37	0	78643200	60	10267
2026-01-04 11:52:24.88	31.06	4.71	-44.6	-46.0	19.7	0.00e+00	0	37	0	80740352	60	9767
2026-01-04 11:52:25.89	31.18	4.75	-44.6	-46.1	19.9	0.00e+00	0	37	0	82837504	60	9849
2026-01-04 11:52:26.90	31.30	4.80	-44.1	-45.5	20.4	0.00e+00	0	37	0	83886080	60	9162
2026-01-04 11:52:27.91	31.42	4.84	-44.2	-45.6	20.4	0.00e+00	0	37	0	85983232	60	9314
2026-01-04 11:52:28.92	31.54	4.88	-44.2	-45.6	20.3	0.00e+00	0	37	0	88080384	60	9314
2026-01-04 11:52:29.93	31.67	4.93	-44.1	-45.4	20.5	0.00e+00	0	37	0	90177536	60	9109
2026-01-04 11:52:30.94	31.79	4.97	-44.1	-45.5	20.4	0.00e+00	0	37	0	92274688	60	9172
2026-01-04 11:52:31.95	31.91	5.01	-44.1	-45.4	20.4	0.00e+00	0	37	0	93323264	60	9110
2026-01-04 11:52:32.96	32.03	5.05	-44.1	-45.4	20.4	0.00e+00	0	37	0	95420416	60	9111
2026-01-04 11:52:33.98	32.16	5.10	-44.1	-45.5	20.3	0.00e+00	0	37	0	97517568	60	9182
2026-01-04 11:52:34.99	32.28	5.14	-44.5	-45.9	20.0	0.00e+00	0	37	0	99614720	60	9634
2026-01-04 11:52:36.00	32.40	5.18	-44.4	-45.8	20.1	0.00e+00	0	37	0	101711872	60	9495
2026-01-04 11:52:37.01	32.53	5.22	-44.0	-45.4	20.5	0.00e+00	0	37	0	102760448	60	9051
2026-01-04 11:52:38.02	32.65	5.27	-44.1	-45.4	20.4	0.00e+00	0	37	0	104857600	60	9098
2026-01-04 11:52:39.03	32.78	5.31	-44.2	-45.6	20.4	0.00e+00	0	37	0	106954752	60	9246
2026-01-04 11:52:40.04	32.90	5.35	-44.2	-45.5	20.4	0.00e+00	0	37	0	109051904	60	9220
2026-01-04 11:52:41.05	33.03	5.39	-44.2	-45.6	20.3	0.00e+00	0	37	0	111149056	60	9265
2026-01-04 11:52:42.06	33.15	5.43	-44.2	-45.6	20.4	0.00e+00	0	37	0	112197632	60	9300
2026-01-04 11:52:43.08	33.28	5.48	-44.1	-45.4	20.5	0.00e+00	0	37	0	114294784	60	9106
2026-01-04 11:52:44.09	33.41	5.52	-44.1	-45.5	20.5	0.00e+00	0	37	0	116391936	60	9134
2026-01-04 11:52:45.10	33.54	5.56	-44.1	-45.5	20.5	0.00e+00	0	37	0	118489088	60	9144
2026-01-04 11:52:46.11	33.66	5.60	-44.4	-45.9	20.3	0.00e+00	0	37	0	120586240	60	9604
2026-01-04 11:52:47.12	33.79	5.65	-44.3	-45.6	20.4	0.00e+00	0	37	0	122683392	60	9334
2026-01-04 11:52:48.13	33.92	5.69	-44.6	-46.0	20.2	0.00e+00	0	37	0	123731968	60	9750
2026-01-04 11:52:49.14	34.05	5.73	-44.4	-45.8	20.1	0.00e+00	0	37	0	125829120	60	9538
2026-01-04 11:52:50.15	34.18	5.77	-44.3	-45.7	20.3	0.00e+00	0	37	0	127926272	60	9345
2026-01-04 11:52:51.16	34.30	5.81	-44.0	-45.4	20.7	0.00e+00	0	37	0	130023424	60	9033
2026-01-04 11:52:52.17	34.43	5.85	-43.9	-45.3	20.6	0.00e+00	0	37	0	132120576	60	8943
2026-01-04 11:52:53.19	34.56	5.90	-43.9	-45.2	20.8	0.00e+00	0	37	0	133169152	60	8858
2026-01-04 11:52:54.20	34.69	5.94	-44.2	-45.5	20.6	0.00e+00	0	37	0	135266304	60	9204
2026-01-04 11:52:55.21	34.82	5.98	-44.0	-45.3	20.5	0.00e+00	0	37	0	137363456	60	9020
2026-01-04 11:52:56.22	34.96	6.02	-44.2	-45.6	20.5	0.00e+00	0	37	0	139460608	60	9247
2026-01-04 11:52:57.23	35.09	6.06	-44.0	-45.3	20.6	0.00e+00	0	37	0	141557760	60	8961
2026-01-04 11:52:58.24	35.22	6.10	-44.1	-45.5	20.5	0.00e+00	0	37	0	142606336	60	9159
2026-01-04 11:52:59.25	35.35	6.15	-44.0	-45.4	20.7	0.00e+00	0	37	0	144703488	60	9028
2026-01-04 11:53:00.26	35.48	6.19	-43.8	-45.1	20.8	0.00e+00	0	37	0	146800640	60	8729
2026-01-04 11:53:01.27	35.61	6.23	-44.1	-45.4	20.7	0.00e+00	0	37	0	148897792	60	9062
2026-01-04 11:53:02.28	35.75	6.27	-44.0	-45.4	20.6	0.00e+00	0	37	0	150994944	60	9057
2026-01-04 11:53:03.30	35.88	6.31	-43.9	-45.2	20.8	0.00e+00	0	37	0	152043520	60	8861
2026-01-04 11:53:04.31	36.02	6.35	-43.7	-45.0	21.0	0.00e+00	0	37	0	154140672	60	8641
2026-01-04 11:53:05.32	36.15	6.39	-43.8	-45.0	20.9	0.00e+00	0	37	0	156237824	60	8711
2026-01-04 11:53:06.33	36.28	6.43	-44.0	-45.4	20.7	0.00e+00	0	37	0	158334976	60	9040
2026-01-04 11:53:07.34	36.42	6.47	-43.8	-45.1	20.8	0.00e+00	0	37	0	160432128	60	8809
2026-01-04 11:53:08.35	36.55	6.52	-44.0	-45.3	20.6	0.00e+00	0	37	0	162529280	60	9015
2026-01-04 11:53:09.36	36.69	6.56	-44.3	-45.7	20.4	0.00e+00	0	37	0	163577856	60	9375
2026-01-04 11:53:10.37	36.83	6.60	-44.1	-45.4	20.6	0.00e+00	0	37	0	165675008	60	9119
2026-01-04 11:53:11.38	36.96	6.64	-44.3	-45.7	20.4	0.00e+00	0	37	0	167772160	60	9419
2026-01-04 11:53:12.40	37.10	6.68	-44.2	-45.5	20.5	0.00e+00	0	37	0	169869312	60	9221
2026-01-04 11:53:13.41	37.24	6.72	-44.3	-45.6	20.5	0.00e+00	0	37	0	171966464	60	9321
2026-01-04 11:53:14.42	37.37	6.76	-44.1	-45.5	20.6	0.00e+00	0	37	0	173015040	60	9147
2026-01-04 11:53:15.43	37.51	6.80	-44.0	-45.3	20.8	0.00e+00	0	37	0	175112192	60	8984
2026-01-04 11:53:16.44	37.65	6.84	-44.1	-45.5	20.6	0.00e+00	0	37	0	177209344	60	9162
2026-01-04 11:53:17.45	37.79	6.88	-44.3	-45.6	20.5	0.00e+00	0	37	0	179306496	60	9339
2026-01-04 11:53:18.46	37.93	6.92	-44.4	-45.8	20.2	0.00e+00	0	37	0	181403648	60	9558
2026-01-04 11:53:19.47	38.07	6.96	-44.2	-45.6	20.5	0.00e+00	0	37	0	182452224	60	9263
2026-01-04 11:53:20.48	38.21	7.00	-44.0	-45.3	20.8	0.00e+00	0	37	0	184549376	60	8937
2026-01-04 11:53:21.49	38.35	7.04	-44.0	-45.3	20.6	0.00e+00	0	37	0	186646528	60	8991
2026-01-04 11:53:22.51	38.49	7.08	-44.6	-46.0	20.2	0.00e+00	0	37	0	188743680	60	9702
2026-01-04 11:53:23.52	38.63	7.12	-44.4	-45.8	20.3	0.00e+00	0	37	0	190840832	60	9483
2026-01-04 11:53:24.53	38.77	7.16	-44.2	-45.5	20.5	0.00e+00	0	37	0	191889408	60	9236
2026-01-04 11:53:25.54	38.91	7.20	-44.3	-45.7	20.4	0.00e+00	0	37	0	193986560	60	9371
2026-01-04 11:53:26.55	39.05	7.24	-44.3	-45.7	20.4	0.00e+00	0	37	0	196083712	60	9427
2026-01-04 11:53:27.56	39.19	7.28	-44.3	-45.6	20.6	0.00e+00	0	37	0	198180864	60	9311
2026-01-04 11:53:28.57	39.34	7.32	-44.4	-45.8	20.3	0.00e+00	0	37	0	200278016	60	9497
2026-01-04 11:53:29.58	39.48	7.35	-44.6	-46.0	20.1	0.00e+00	0	37	0	201326592	60	9762
2026-01-04 11:53:30.59	39.62	7.39	-44.3	-45.7	20.5	0.00e+00	0	37	0	203423744	60	9406
2026-01-04 11:53:31.61	39.77	7.43	-44.4	-45.8	20.4	0.00e+00	0	37	0	205520896	60	9455
2026-01-04 11:53:32.62	39.91	7.47	-44.4	-45.8	20.5	0.00e+00	0	37	0	207618048	60	9479
2026-01-04 11:53:33.63	40.06	7.51	-44.4	-45.8	20.4	0.00e+00	0	37	0	209715200	60	9469
2026-01-04 11:53:34.64	40.20	7.55	-44.5	-45.8	20.4	0.00e+00	0	37	0	211812352	60	9553
2026-01-04 11:53:35.65	40.35	7.59	-44.3	-45.6	20.6	0.00e+00	0	37	0	212860928	60	9304
2026-01-04 11:53:36.66	40.49	7.63	-44.3	-45.6	20.6	0.00e+00	0	37	0	214958080	60	9284
2026-01-04 11:53:37.67	40.64	7.66	-44.0	-45.3	20.8	0.00e+00	0	37	0	217055232	60	8996
2026-01-04 11:53:38.68	40.78	7.70	-44.0	-45.3	20.9	0.00e+00	0	37	0	219152384	60	8931
2026-01-04 11:53:39.69	40.93	7.74	-44.3	-45.6	20.6	0.00e+00	0	37	0	221249536	60	9323
2026-01-04 11:53:40.71	41.08	7.78	-44.1	-45.4	20.8	0.00e+00	0	37	0	222298112	60	9042
2026-01-04 11:53:41.72	41.22	7.82	-44.2	-45.5	20.7	0.00e+00	0	37	0	224395264	60	9193
2026-01-04 11:53:42.73	41.37	7.86	-44.1	-45.4	20.7	0.00e+00	0	37	0	226492416	60	9064
2026-01-04 11:53:43.74	41.52	7.89	-44.3	-45.6	20.6	0.00e+00	0	37	0	228589568	60	9277
2026-01-04 11:53:44.75	41.67	7.93	-44.1	-45.4	20.8	0.00e+00	0	37	0	230686720	60	9110
2026-01-04 11:53:45.76	41.82	7.97	-44.2	-45.5	20.7	0.00e+00	0	37	0	231735296	60	9169
2026-01-04 11:53:46.77	41.97	8.01	-44.2	-45.6	20.6	0.00e+00	0	37	0	233832448	60	9241
2026-01-04 11:53:47.78	42.12	8.04	-44.3	-45.6	20.5	0.00e+00	0	37	0	235929600	60	9280
2026-01-04 11:53:48.79	42.27	8.08	-44.2	-45.5	20.7	0.00e+00	0	37	0	238026752	60	9178
2026-01-04 11:53:49.81	42.42	8.12	-44.3	-45.6	20.2	0.00e+00	0	37	0	240123904	60	9269
2026-01-04 11:53:50.82	42.57	8.16	-44.0	-45.3	20.7	0.00e+00	0	37	0	241172480	60	8987
2026-01-04 11:53:51.83	42.72	8.19	-43.8	-45.1	21.0	0.00e+00	0	37	0	243269632	60	8764
2026-01-04 11:53:52.82	42.87	8.23	-44.0	-45.3	20.9	0.00e+00	0	37	0	245366784	60	8977
2026-01-04 11:53:53.84	43.02	8.27	-43.9	-45.2	20.9	0.00e+00	0	37	0	247463936	60	8901
2026-01-04 11:53:54.85	43.17	8.30	-44.1	-45.4	20.8	0.00e+00	0	37	0	249561088	60	9101
2026-01-04 11:53:55.86	43.33	8.34	-44.1	-45.4	20.9	0.00e+00	0	37	0	250609664	60	9099
2026-01-04 11:53:56.87	43.48	8.37	-44.2	-45.5	20.7	0.00e+00	0	37	0	252706816	60	9160
2026-01-04 11:53:57.88	43.63	8.41	-44.3	-45.6	20.6	0.00e+00	0	37	0	254803968	60	9296
2026-01-04 11:53:58.89	43.79	8.45	-44.4	-45.8	20.4	0.00e+00	0	37	0	256901120	60	9497
2026-01-04 11:53:59.90	43.94	8.48	-44.2	-45.6	20.6	0.00e+00	0	37	0	258998272	60	9241
2026-01-04 11:54:00.92	44.10	8.52	-44.4	-45.8	20.3	0.00e+00	0	37	0	260046848	60	9527
2026-01-04 11:54:01.93	44.25	8.55	-44.3	-45.6	20.7	0.00e+00	0	37	0	262144000	60	9344
2026-01-04 11:54:02.94	44.41	8.59	-44.1	-45.4	20.8	0.00e+00	0	37	0	264241152	60	9089
2026-01-04 11:54:03.95	44.56	8.63	-44.1	-45.4	20.8	0.00e+00	0	37	0	266338304	60	9125
2026-01-04 11:54:04.96	44.72	8.66	-44.1	-45.4	20.8	0.00e+00	0	37	0	268435456	60	9105
2026-01-04 11:54:05.97	44.87	8.70	-44.0	-45.3	20.9	0.00e+00	0	37	0	270532608	60	8970
2026-01-04 11:54:06.98	45.03	8.73	-44.0	-45.3	20.9	0.00e+00	0	37	0	271581184	60	8961
2026-01-04 11:54:07.99	45.19	8.77	-44.0	-45.3	20.9	0.00e+00	0	37	0	273678336	60	9010
2026-01-04 11:54:09.00	45.34	8.80	-44.2	-45.5	20.6	0.00e+00	0	37	0	275775488	60	9182
2026-01-04 11:54:10.02	45.50	8.84	-43.8	-45.0	21.2	0.00e+00	0	37	0	277872640	60	8681
2026-01-04 11:54:11.03	45.66	8.87	-43.8	-45.0	21.2	0.00e+00	0	37	0	279969792	60	8656
2026-01-04 11:54:12.04	45.82	8.90	-43.9	-45.2	21.1	0.00e+00	0	37	0	281018368	60	8832
2026-01-04 11:54:13.05	45.98	8.94	-43.9	-45.2	21.1	0.00e+00	0	37	0	283115520	60	8832
2026-01-04 11:54:14.06	46.14	8.97	-43.9	-45.2	21.0	0.00e+00	0	37	0	285212672	60	8837
2026-01-04 11:54:15.07	46.30	9.01	-43.9	-45.2	21.1	0.00e+00	0	37	0	287309824	60	8829
2026-01-04 11:54:16.08	46.46	9.04	-44.1	-45.4	20.8	0.00e+00	0	37	0	289406976	60	9086
2026-01-04 11:54:17.09	46.62	9.07	-44.1	-45.4	20.9	0.00e+00	0	37	0	290455552	60	9063
2026-01-04 11:54:18.10	46.78	9.11	-44.3	-45.6	20.8	0.00e+00	0	37	0	292552704	60	9271
2026-01-04 11:54:19.11	46.94	9.14	-44.3	-45.6	20.6	0.00e+00	0	37	0	294649856	60	9272
2026-01-04 11:54:20.12	47.10	9.17	-44.4	-45.7	20.6	0.00e+00	0	37	0	296747008	60	9409
2026-01-04 11:54:21.13	47.26	9.21	-44.4	-45.7	20.6	0.00e+00	0	37	0	298844160	60	9435
2026-01-04 11:54:22.15	47.42	9.24	-44.4	-45.8	20.6	0.00e+00	0	37	0	299892736	60	9469
2026-01-04 11:54:23.16	47.59	9.27	-44.4	-45.8	20.5	0.00e+00	0	37	0	301989888	60	9499
2026-01-04 11:54:24.17	47.75	9.31	-44.4	-45.7	20.6	0.00e+00	0	37	0	304087040	60	9381
2026-01-04 11:54:25.18	47.91	9.34	-44.3	-45.6	20.8	0.00e+00	0	37	0	306184192	60	9321
2026-01-04 11:54:26.19	48.07	9.37	-44.1	-45.4	20.9	0.00e+00	0	37	0	308281344	60	9064
2026-01-04 11:54:27.20	48.24	9.40	-44.4	-45.7	20.6	0.00e+00	0	37	0	310378496	60	9370
2026-01-04 11:54:28.21	48.40	9.43	-44.3	-45.6	20.5	0.00e+00	0	37	0	311427072	60	9321
2026-01-04 11:54:29.22	48.57	9.47	-44.4	-45.7	20.5	0.00e+00	0	37	0	313524224	60	9450
2026-01-04 11:54:30.23	48.73	9.50	-44.5	-45.9	20.8	0.00e+00	0	37	0	315621376	60	9593
2026-01-04 11:54:31.24	48.90	9.53	-44.4	-45.7	20.4	0.00e+00	0	37	0	317718528	60	9433
2026-01-04 11:54:32.26	49.06	9.56	-44.3	-45.6	20.9	0.00e+00	0	37	0	319815680	60	9304
2026-01-04 11:54:33.26	49.23	9.59	-44.0	-45.2	21.1	0.00e+00	0	37	0	320864256	60	8869
2026-01-04 11:54:34.28	49.40	9.62	-44.1	-45.4	21.0	0.00e+00	0	37	0	322961408	60	9101
2026-01-04 11:54:35.29	49.56	9.65	-44.1	-45.4	21.0	0.00e+00	0	37	0	325058560	60	9073
2026-01-04 11:54:36.30	49.73	9.68	-44.0	-45.3	21.1	0.00e+00	0	37	0	327155712	60	8931
2026-01-04 11:54:37.31	49.90	9.72	-44.1	-45.4	20.9	0.00e+00	0	37	0	329252864	60	9104
2026-01-04 11:54:38.32	50.06	9.75	-44.1	-45.4	21.0	0.00e+00	0	37	0	330301440	60	9054
2026-01-04 11:54:39.33	50.23	9.78	-44.2	-45.4	20.9	0.00e+00	0	37	0	332398592	60	9129
2026-01-04 11:54:40.34	50.40	9.81	-44.2	-45.5	20.8	0.00e+00	0	37	0	334495744	60	9178
2026-01-04 11:54:41.35	50.57	9.84	-44.1	-45.4	20.9	0.00e+00	0	37	0	336592896	60	9100
2026-01-04 11:54:42.36	50.74	9.86	-44.3	-45.6	20.8	0.00e+00	0	37	0	338690048	60	9255
2026-01-04 11:54:43.38	50.91	9.89	-44.3	-45.6	20.7	0.00e+00	0	37	0	339738624	60	9320
2026-01-04 11:54:44.39	51.08	9.92	-44.4	-45.7	20.6	0.00e+00	0	37	0	341835776	60	9407
2026-01-04 11:54:45.40	51.25	9.95	-44.3	-45.6	20.2	0.00e+00	0	37	0	343932928	60	9303
2026-01-04 11:54:46.41	51.42	9.98	-44.3	-45.6	20.6	0.00e+00	0	37	0	346030080	60	9330
2026-01-04 11:54:47.42	51.59	10.01	-44.4	-45.7	20.7	0.00e+00	0	37	0	348127232	60	9355
2026-01-04 11:54:48.43	51.76	10.04	-44.2	-45.5	20.8	0.00e+00	0	37	0	350224384	60	9221
2026-01-04 11:54:49.44	51.93	10.07	-44.2	-45.5	20.9	0.00e+00	0	37	0	351272960	60	9202
2026-01-04 11:54:50.45	52.10	10.09	-44.2	-45.4	20.9	0.00e+00	0	37	0	353370112	60	9114
2026-01-04 11:54:51.46	52.27	10.12	-44.0	-45.3	21.1	0.00e+00	0	37	0	355467264	60	8927
2026-01-04 11:54:52.47	52.44	10.15	-44.0	-45.3	21.1	0.00e+00	0	37	0	357564416	60	8962
2026-01-04 11:54:53.49	52.62	10.18	-43.9	-45.1	21.3	0.00e+00	0	37	0	359661568	60	8747
2026-01-04 11:54:54.50	52.79	10.21	-43.8	-45.1	21.4	0.00e+00	0	37	0	360710144	60	8732
2026-01-04 11:54:55.51	52.96	10.23	-43.9	-45.1	21.3	0.00e+00	0	37	0	362807296	60	8751
2026-01-04 11:54:56.52	53.14	10.26	-43.9	-45.2	21.2	0.00e+00	0	37	0	364904448	60	8826
2026-01-04 11:54:57.53	53.31	10.29	-44.1	-45.3	21.1	0.00e+00	0	37	0	367001600	60	9015
2026-01-04 11:54:58.54	53.48	10.31	-43.8	-45.0	21.3	0.00e+00	0	37	0	369098752	60	8671
2026-01-04 11:54:59.55	53.66	10.34	-43.9	-45.1	21.2	0.00e+00	0	37	0	370147328	60	8760
2026-01-04 11:55:00.56	53.83	10.36	-44.0	-45.2	21.1	0.00e+00	0	37	0	372244480	60	8891
2026-01-04 11:55:01.58	54.01	10.39	-44.0	-45.2	21.1	0.00e+00	0	37	0	374341632	60	8913
2026-01-04 11:55:02.59	54.19	10.42	-44.1	-45.3	21.0	0.00e+00	0	37	0	376438784	60	9001
2026-01-04 11:55:03.60	54.36	10.44	-44.1	-45.3	21.1	0.00e+00	0	37	0	378535936	60	9001
2026-01-04 11:55:04.61	54.54	10.47	-43.9	-45.2	21.2	0.00e+00	0	37	0	379584512	60	8842
2026-01-04 11:55:05.62	54.71	10.49	-44.0	-45.3	21.1	0.00e+00	0	37	0	381681664	60	8936
2026-01-04 11:55:06.63	54.89	10.52	-43.8	-45.1	21.3	0.00e+00	0	37	0	383778816	60	8738
2026-01-04 11:55:07.64	55.07	10.54	-43.9	-45.1	21.2	0.00e+00	0	37	0	385875968	60	8800
2026-01-04 11:55:08.65	55.24	10.57	-43.8	-45.1	21.3	0.00e+00	0	37	0	387973120	60	8749
2026-01-04 11:55:09.66	55.42	10.59	-43.8	-45.0	21.4	0.00e+00	0	37	0	389021696	60	8661
2026-01-04 11:55:10.67	55.60	10.61	-43.7	-44.9	21.4	0.00e+00	0	37	0	391118848	60	8540
2026-01-04 11:55:11.69	55.78	10.64	-43.5	-44.7	21.7	0.00e+00	0	37	0	393216000	60	8347
2026-01-04 11:55:12.70	55.95	10.66	-43.4	-44.6	21.7	0.00e+00	0	37	0	395313152	60	8287
2026-01-04 11:55:13.71	56.13	10.69	-43.4	-44.6	21.7	0.00e+00	0	37	0	397410304	60	8243
2026-01-04 11:55:14.72	56.31	10.71	-43.5	-44.7	21.6	0.00e+00	0	37	0	398458880	60	8329
2026-01-04 11:55:15.73	56.49	10.73	-43.3	-44.5	21.8	0.00e+00	0	37	0	400556032	60	8172
2026-01-04 11:55:16.74	56.67	10.75	-43.6	-44.7	21.6	0.00e+00	0	37	0	402653184	60	8405
2026-01-04 11:55:17.75	56.85	10.78	-43.7	-44.9	21.5	0.00e+00	0	37	0	404750336	60	8550
2026-01-04 11:55:18.76	57.03	10.80	-43.4	-44.6	21.6	0.00e+00	0	37	0	406847488	60	8261
2026-01-04 11:55:19.77	57.21	10.82	-43.5	-44.7	21.7	0.00e+00	0	37	0	408944640	60	8389
2026-01-04 11:55:20.79	57.39	10.84	-43.8	-45.0	21.3	0.00e+00	0	37	0	409993216	60	8700
2026-01-04 11:55:21.80	57.57	10.86	-43.9	-45.1	21.2	0.00e+00	0	37	0	412090368	60	8793
2026-01-04 11:55:22.81	57.75	10.89	-43.9	-45.1	21.3	0.00e+00	0	37	0	414187520	60	8791
2026-01-04 11:55:23.82	57.93	10.91	-43.9	-45.1	21.3	0.00e+00	0	37	0	416284672	60	8772
2026-01-04 11:55:24.83	58.11	10.93	-43.9	-45.2	21.2	0.00e+00	0	37	0	418381824	60	8844
2026-01-04 11:55:25.84	58.30	10.95	-44.0	-45.3	21.1	0.00e+00	0	37	0	419430400	60	8949
2026-01-04 11:55:26.85	58.48	10.97	-44.2	-45.5	20.9	0.00e+00	0	37	0	421527552	60	9177
2026-01-04 11:55:27.86	58.66	10.99	-44.0	-45.3	21.2	0.00e+00	0	37	0	423624704	60	8960
2026-01-04 11:55:28.87	58.84	11.01	-44.0	-45.3	21.1	0.00e+00	0	37	0	425721856	60	8962
2026-01-04 11:55:29.88	59.02	11.03	-44.2	-45.4	20.9	0.00e+00	0	37	0	427819008	60	9119
2026-01-04 11:55:30.90	59.21	11.05	-44.0	-45.2	21.2	0.00e+00	0	37	0	428867584	60	8919
2026-01-04 11:55:31.91	59.39	11.07	-44.1	-45.4	21.0	0.00e+00	0	37	0	430964736	60	9053
2026-01-04 11:55:32.92	59.58	11.08	-44.1	-45.4	21.1	0.00e+00	0	37	0	433061888	60	9033
2026-01-04 11:55:33.93	59.76	11.10	-44.3	-45.6	20.9	0.00e+00	0	37	0	435159040	60	9269
2026-01-04 11:55:34.94	59.94	11.12	-44.4	-45.7	20.7	0.00e+00	0	37	0	437256192	60	9431
2026-01-04 11:55:35.95	60.13	11.14	-44.5	-45.8	20.7	0.00e+00	0	37	0	438304768	60	9534
2026-01-04 11:55:36.96	60.31	11.16	-44.3	-45.6	20.7	0.00e+00	0	37	0	440401920	60	9328
2026-01-04 11:55:37.97	60.49	11.18	-44.5	-45.9	20.5	0.00e+00	0	37	0	442499072	60	9609
2026-01-04 11:55:38.99	60.68	11.19	-44.5	-45.9	20.6	0.00e+00	0	37	0	444596224	60	9566
2026-01-04 11:55:40.00	60.87	11.21	-44.6	-45.9	20.5	0.00e+00	0	37	0	446693376	60	9626
2026-01-04 11:55:41.01	61.05	11.23	-44.5	-45.8	20.6	0.00e+00	0	37	0	447741952	60	9502
2026-01-04 11:55:42.02	61.24	11.24	-44.5	-45.8	20.6	0.00e+00	0	37	0	449839104	60	9548
2026-01-04 11:55:43.03	61.42	11.26	-44.4	-45.7	20.7	0.00e+00	0	37	0	451936256	60	9452
2026-01-04 11:55:44.04	61.61	11.28	-44.7	-46.1	20.4	0.00e+00	0	37	0	454033408	60	9803
2026-01-04 11:55:45.05	61.79	11.29	-44.6	-45.9	20.5	0.00e+00	0	37	0	456130560	60	9651
2026-01-04 11:55:46.06	61.98	11.31	-44.6	-46.0	20.5	0.00e+00	0	37	0	458227712	60	9729
2026-01-04 11:55:47.07	62.16	11.32	-44.6	-46.0	20.4	0.00e+00	0	37	0	459276288	60	9718
2026-01-04 11:55:48.08	62.35	11.34	-44.7	-46.1	20.3	0.00e+00	0	37	0	461373440	60	9869
2026-01-04 11:55:49.10	62.54	11.35	-44.8	-46.2	20.2	0.00e+00	0	37	0	463470592	60	9963
2026-01-04 11:55:50.11	62.73	11.37	-44.9	-46.3	20.1	0.00e+00	0	37	0	465567744	60	10096
2026-01-04 11:55:51.12	62.91	11.38	-44.8	-46.3	20.2	0.00e+00	0	37	0	467664896	60	10030
2026-01-04 11:55:52.13	63.10	11.40	-44.8	-46.2	20.2	0.00e+00	0	37	0	468713472	60	9988
2026-01-04 11:55:53.14	63.29	11.41	-44.7	-46.1	20.4	0.00e+00	0	37	0	470810624	60	9805
2026-01-04 11:55:54.15	63.47	11.42	-44.6	-46.0	20.4	0.00e+00	0	37	0	472907776	60	9742
2026-01-04 11:55:55.16	63.66	11.44	-44.6	-46.0	20.4	0.00e+00	0	37	0	475004928	60	9704
2026-01-04 11:55:56.17	63.85	11.45	-44.7	-46.0	20.2	0.00e+00	0	37	0	477102080	60	9784
2026-01-04 11:55:57.18	64.04	11.46	-44.5	-45.8	20.6	0.00e+00	0	37	0	478150656	60	9510
2026-01-04 11:55:58.19	64.23	11.47	-44.4	-45.7	20.7	0.00e+00	0	37	0	480247808	60	9401
2026-01-04 11:55:59.21	64.42	11.49	-44.3	-45.6	20.8	0.00e+00	0	37	0	482344960	60	9305
2026-01-04 11:56:00.22	64.60	11.50	-44.3	-45.6	20.8	0.00e+00	0	37	0	484442112	60	9296
2026-01-04 11:56:01.23	64.79	11.51	-44.3	-45.6	20.8	0.00e+00	0	37	0	486539264	60	9302
2026-01-04 11:56:02.24	64.98	11.52	-44.2	-45.5	20.9	0.00e+00	0	37	0	487587840	60	9210
2026-01-04 11:56:03.25	65.17	11.53	-44.4	-45.7	20.6	0.00e+00	0	37	0	489684992	60	9377
2026-01-04 11:56:04.26	65.36	11.54	-44.4	-45.7	20.7	0.00e+00	0	37	0	491782144	60	9431
2026-01-04 11:56:05.27	65.55	11.55	-44.4	-45.7	20.7	0.00e+00	0	37	0	493879296	60	9409
2026-01-04 11:56:06.28	65.74	11.56	-44.5	-45.8	20.5	0.00e+00	0	37	0	495976448	60	9507
2026-01-04 11:56:07.29	65.93	11.57	-44.6	-45.9	20.5	0.00e+00	0	37	0	498073600	60	9659
2026-01-04 11:56:08.30	66.12	11.58	-44.5	-45.9	20.6	0.00e+00	0	37	0	499122176	60	9568
2026-01-04 11:56:09.31	66.31	11.59	-44.3	-45.6	20.8	0.00e+00	0	37	0	501219328	60	9249
2026-01-04 11:56:10.32	66.50	11.60	-44.0	-45.3	21.0	0.00e+00	0	37	0	503316480	60	8974
2026-01-04 11:56:11.34	66.69	11.61	-44.0	-45.3	21.0	0.00e+00	0	37	0	505413632	60	8959
2026-01-04 11:56:12.35	66.88	11.62	-43.9	-45.1	21.2	0.00e+00	0	37	0	507510784	60	8780
2026-01-04 11:56:13.36	67.07	11.63	-43.9	-45.2	21.1	0.00e+00	0	37	0	508559360	60	8827
2026-01-04 11:56:14.37	67.26	11.64	-43.9	-45.1	21.1	0.00e+00	0	37	0	510656512	60	8796
2026-01-04 11:56:15.38	67.45	11.64	-44.1	-45.4	20.9	0.00e+00	0	37	0	512753664	60	9055
2026-01-04 11:56:16.39	67.64	11.65	-44.1	-45.4	20.9	0.00e+00	0	37	0	514850816	60	9052
2026-01-04 11:56:17.40	67.83	11.66	-44.0	-45.3	21.0	0.00e+00	0	37	0	516947968	60	8967
2026-01-04 11:56:18.41	68.02	11.67	-43.9	-45.2	21.1	0.00e+00	0	37	0	517996544	60	8866
2026-01-04 11:56:19.42	68.21	11.67	-43.9	-45.2	21.2	0.00e+00	0	37	0	520093696	60	8853
2026-01-04 11:56:20.44	68.40	11.68	-43.9	-45.1	21.3	0.00e+00	0	37	0	522190848	60	8770
2026-01-04 11:56:21.45	68.59	11.69	-43.8	-45.0	21.2	0.00e+00	0	37	0	524288000	60	8686
2026-01-04 11:56:22.46	68.79	11.69	-43.9	-45.2	21.1	0.00e+00	0	37	0	526385152	60	8877
2026-01-04 11:56:23.47	68.98	11.70	-44.0	-45.3	21.0	0.00e+00	0	37	0	527433728	60	8970
2026-01-04 11:56:24.48	69.17	11.70	-44.0	-45.2	21.1	0.00e+00	0	37	0	529530880	60	8883
2026-01-04 11:56:25.49	69.36	11.71	-43.8	-45.1	21.3	0.00e+00	0	37	0	531628032	60	8724
2026-01-04 11:56:26.50	69.55	11.71	-43.9	-45.1	21.2	0.00e+00	0	37	0	533725184	60	8771
2026-01-04 11:56:27.51	69.74	11.72	-43.9	-45.1	21.3	0.00e+00	0	37	0	535822336	60	8764
2026-01-04 11:56:28.52	69.93	11.72	-43.7	-44.9	21.3	0.00e+00	0	37	0	536870912	60	8618
2026-01-04 11:56:29.53	70.12	11.72	-43.7	-44.9	21.4	0.00e+00	0	37	0	538968064	60	8607
2026-01-04 11:56:30.54	70.31	11.73	-43.6	-44.8	21.6	0.00e+00	0	37	0	541065216	60	8455
2026-01-04 11:56:31.55	70.51	11.73	-43.6	-44.8	21.5	0.00e+00	0	37	0	543162368	60	8444
2026-01-04 11:56:32.57	70.70	11.73	-43.4	-44.6	21.6	0.00e+00	0	37	0	545259520	60	8263
2026-01-04 11:56:33.58	70.89	11.74	-43.3	-44.5	21.8	0.00e+00	0	37	0	547356672	60	8186
2026-01-04 11:56:34.59	71.08	11.74	-43.1	-44.2	22.1	0.00e+00	0	37	0	548405248	60	7941
2026-01-04 11:56:35.60	71.27	11.74	-43.0	-44.1	22.1	0.00e+00	0	37	0	550502400	60	7786
2026-01-04 11:56:36.61	71.47	11.74	-43.0	-44.1	22.1	0.00e+00	0	37	0	552599552	60	7786
2026-01-04 11:56:37.62	71.66	11.74	-42.8	-43.9	22.3	0.00e+00	0	37	0	554696704	60	7659
2026-01-04 11:56:38.63	71.85	11.75	-42.9	-44.0	22.2	0.00e+00	0	37	0	556793856	60	7691
2026-01-04 11:56:39.64	72.04	11.75	-42.9	-44.0	22.2	0.00e+00	0	37	0	557842432	60	7723
2026-01-04 11:56:40.65	72.23	11.75	-42.9	-44.0	22.2	0.00e+00	0	37	0	559939584	60	7753
2026-01-04 11:56:41.66	72.42	11.75	-42.9	-44.1	22.2	0.00e+00	0	37	0	562036736	60	7782
2026-01-04 11:56:42.68	72.62	11.75	-43.0	-44.2	22.0	0.00e+00	0	37	0	564133888	60	7895
2026-01-04 11:56:43.69	72.81	11.75	-42.9	-44.0	22.2	0.00e+00	0	37	0	566231040	60	7739
2026-01-04 11:56:44.70	73.00	11.75	-42.7	-43.8	22.4	0.00e+00	0	37	0	567279616	60	7531
2026-01-04 11:56:45.71	73.19	11.75	-42.9	-44.0	22.2	0.00e+00	0	37	0	569376768	60	7746
2026-01-04 11:56:46.72	73.39	11.74	-42.7	-43.8	22.3	0.00e+00	0	37	0	571473920	60	7514
2026-01-04 11:56:47.73	73.58	11.74	-42.7	-43.7	22.4	0.00e+00	0	37	0	573571072	60	7504
2026-01-04 11:56:48.74	73.77	11.74	-42.6	-43.6	22.5	0.00e+00	0	37	0	575668224	60	7411
2026-01-04 11:56:49.75	73.96	11.74	-42.7	-43.8	22.4	0.00e+00	0	37	0	576716800	60	7532
2026-01-04 11:56:50.76	74.15	11.74	-42.7	-43.8	22.5	0.00e+00	0	37	0	578813952	60	7514
2026-01-04 11:56:51.78	74.35	11.74	-42.6	-43.7	22.5	0.00e+00	0	37	0	580911104	60	7455
2026-01-04 11:56:52.79	74.54	11.73	-42.8	-43.9	22.3	0.00e+00	0	37	0	583008256	60	7676
2026-01-04 11:56:53.80	74.73	11.73	-42.9	-44.0	22.2	0.00e+00	0	37	0	585105408	60	7741
2026-01-04 11:56:54.81	74.92	11.73	-42.7	-43.8	22.5	0.00e+00	0	37	0	586153984	60	7528
2026-01-04 11:56:55.82	75.11	11.72	-42.7	-43.8	22.5	0.00e+00	0	37	0	588251136	60	7524
2026-01-04 11:56:56.83	75.30	11.72	-42.6	-43.6	22.5	0.00e+00	0	37	0	590348288	60	7418
2026-01-04 11:56:57.84	75.49	11.71	-42.8	-43.9	22.3	0.00e+00	0	37	0	592445440	60	7644
2026-01-04 11:56:58.85	75.69	11.71	-42.5	-43.6	22.7	0.00e+00	0	37	0	594542592	60	7360
2026-01-04 11:56:59.86	75.88	11.70	-42.5	-43.6	22.7	0.00e+00	0	37	0	595591168	60	7352
2026-01-04 11:57:00.87	76.07	11.70	-42.5	-43.5	22.7	0.00e+00	0	37	0	597688320	60	7322
2026-01-04 11:57:01.89	76.26	11.69	-42.3	-43.3	22.8	0.00e+00	0	37	0	599785472	60	7167
2026-01-04 11:57:02.90	76.45	11.69	-42.3	-43.4	22.8	0.00e+00	0	37	0	601882624	60	7178
2026-01-04 11:57:03.91	76.64	11.68	-42.4	-43.5	22.8	0.00e+00	0	37	0	603979776	60	7265
2026-01-04 11:57:04.92	76.83	11.68	-42.4	-43.4	22.8	0.00e+00	0	37	0	606076928	60	7200
2026-01-04 11:57:05.93	77.02	11.67	-42.6	-43.6	22.6	0.00e+00	0	37	0	607125504	60	7404
2026-01-04 11:57:06.94	77.22	11.66	-42.6	-43.7	22.5	0.00e+00	0	37	0	609222656	60	7477
2026-01-04 11:57:07.95	77.41	11.66	-42.7	-43.8	22.5	0.00e+00	0	37	0	611319808	60	7526
2026-01-04 11:57:08.96	77.60	11.65	-42.7	-43.8	22.4	0.00e+00	0	37	0	613416960	60	7531
2026-01-04 11:57:09.98	77.79	11.64	-42.7	-43.8	22.4	0.00e+00	0	37	0	615514112	60	7561
2026-01-04 11:57:10.98	77.98	11.63	-42.7	-43.8	22.4	0.00e+00	0	37	0	616562688	60	7513
2026-01-04 11:57:12.00	78.17	11.63	-42.7	-43.7	22.5	0.00e+00	0	37	0	618659840	60	7480
2026-01-04 11:57:13.01	78.36	11.62	-42.9	-43.9	22.3	0.00e+00	0	37	0	620756992	60	7674
2026-01-04 11:57:14.02	78.55	11.61	-43.1	-44.2	22.1	0.00e+00	0	37	0	622854144	60	7889
2026-01-04 11:57:15.03	78.74	11.60	-42.8	-43.9	22.2	0.00e+00	0	37	0	624951296	60	7612
2026-01-04 11:57:16.04	78.93	11.59	-42.8	-43.9	22.2	0.00e+00	0	37	0	625999872	60	7604
2026-01-04 11:57:17.05	79.12	11.58	-42.8	-43.9	22.3	0.00e+00	0	37	0	628097024	60	7616
2026-01-04 11:57:18.06	79.31	11.57	-42.7	-43.8	22.4	0.00e+00	0	37	0	630194176	60	7528
2026-01-04 11:57:19.07	79.50	11.56	-42.5	-43.6	22.5	0.00e+00	0	37	0	632291328	60	7364
2026-01-04 11:57:20.08	79.69	11.55	-42.6	-43.7	22.5	0.00e+00	0	37	0	634388480	60	7452
2026-01-04 11:57:21.09	79.88	11.54	-42.7	-43.7	22.4	0.00e+00	0	37	0	635437056	60	7503
2026-01-04 11:57:22.11	80.07	11.53	-42.6	-43.7	22.5	0.00e+00	0	37	0	637534208	60	7452
2026-01-04 11:57:23.12	80.26	11.52	-42.8	-43.9	22.2	0.00e+00	0	37	0	639631360	60	7652
2026-01-04 11:57:24.13	80.45	11.51	-42.9	-44.0	22.2	0.00e+00	0	37	0	641728512	60	7738
2026-01-04 11:57:25.14	80.64	11.49	-43.1	-44.2	22.2	0.00e+00	0	37	0	643825664	60	7883
2026-01-04 11:57:26.15	80.82	11.48	-43.1	-44.2	22.1	0.00e+00	0	37	0	645922816	60	7919
2026-01-04 11:57:27.16	81.01	11.47	-43.4	-44.5	21.7	0.00e+00	0	37	0	646971392	60	8229
2026-01-04 11:57:28.17	81.20	11.46	-43.4	-44.6	21.7	0.00e+00	0	37	0	649068544	60	8288
2026-01-04 11:57:29.18	81.39	11.44	-43.2	-44.4	21.9	0.00e+00	0	37	0	651165696	60	8070
2026-01-04 11:57:30.19	81.58	11.43	-43.4	-44.6	21.7	0.00e+00	0	37	0	653262848	60	8253
2026-01-04 11:57:31.21	81.77	11.42	-43.3	-44.4	21.8	0.00e+00	0	37	0	655360000	60	8112
2026-01-04 11:57:32.22	81.95	11.40	-43.2	-44.3	22.0	0.00e+00	0	37	0	656408576	60	8013
2026-01-04 11:57:33.23	82.14	11.39	-43.0	-44.1	22.1	0.00e+00	0	37	0	658505728	60	7835
2026-01-04 11:57:34.24	82.33	11.38	-43.0	-44.1	22.2	0.00e+00	0	37	0	660602880	60	7803
2026-01-04 11:57:35.25	82.52	11.36	-42.9	-44.0	22.2	0.00e+00	0	37	0	662700032	60	7694
2026-01-04 11:57:36.26	82.70	11.35	-42.8	-43.8	22.3	0.00e+00	0	37	0	664797184	60	7583
2026-01-04 11:57:37.27	82.89	11.33	-42.8	-43.9	22.2	0.00e+00	0	37	0	665845760	60	7663
2026-01-04 11:57:38.28	83.08	11.32	-42.9	-43.9	22.2	0.00e+00	0	37	0	667942912	60	7675
2026-01-04 11:57:39.29	83.26	11.30	-42.8	-43.9	22.3	0.00e+00	0	37	0	670040064	60	7607
2026-01-04 11:57:40.30	83.45	11.29	-42.8	-43.8	22.2	0.00e+00	0	37	0	672137216	60	7589
2026-01-04 11:57:41.31	83.64	11.27	-42.8	-43.9	22.2	0.00e+00	0	37	0	674234368	60	7599
2026-01-04 11:57:42.33	83.82	11.25	-42.8	-43.9	22.3	0.00e+00	0	37	0	675282944	60	7630
2026-01-04 11:57:43.34	84.01	11.24	-42.8	-43.9	22.2	0.00e+00	0	37	0	677380096	60	7601
2026-01-04 11:57:44.35	84.19	11.22	-42.5	-43.5	22.6	0.00e+00	0	37	0	679477248	60	7308
2026-01-04 11:57:45.36	84.38	11.20	-42.5	-43.6	22.4	0.00e+00	0	37	0	681574400	60	7380
2026-01-04 11:57:46.37	84.56	11.19	-42.6	-43.6	22.6	0.00e+00	0	37	0	683671552	60	7403
2026-01-04 11:57:47.38	84.75	11.17	-42.4	-43.4	22.8	0.00e+00	0	37	0	685768704	60	7219
2026-01-04 11:57:48.39	84.93	11.15	-42.6	-43.6	22.6	0.00e+00	0	37	0	686817280	60	7395
2026-01-04 11:57:49.40	85.12	11.13	-42.5	-43.5	22.6	0.00e+00	0	37	0	688914432	60	7323
2026-01-04 11:57:50.41	85.30	11.11	-42.6	-43.6	22.6	0.00e+00	0	37	0	691011584	60	7418
2026-01-04 11:57:51.42	85.49	11.09	-42.5	-43.5	22.6	0.00e+00	0	37	0	693108736	60	7323
2026-01-04 11:57:52.44	85.67	11.08	-42.4	-43.5	22.8	0.00e+00	0	37	0	695205888	60	7299
2026-01-04 11:57:53.45	85.86	11.06	-42.3	-43.3	22.8	0.00e+00	0	37	0	696254464	60	7165
2026-01-04 11:57:54.46	86.04	11.04	-42.4	-43.4	22.6	0.00e+00	0	37	0	698351616	60	7238
2026-01-04 11:57:55.47	86.22	11.02	-42.3	-43.3	22.9	0.00e+00	0	37	0	700448768	60	7139
2026-01-04 11:57:56.48	86.40	11.00	-42.3	-43.3	22.7	0.00e+00	0	37	0	702545920	60	7136
2026-01-04 11:57:57.49	86.59	10.98	-42.3	-43.4	22.8	0.00e+00	0	37	0	704643072	60	7207
2026-01-04 11:57:58.50	86.77	10.96	-42.0	-43.0	23.0	0.00e+00	0	37	0	705691648	60	6894
2026-01-04 11:57:59.51	86.95	10.94	-42.1	-43.1	23.0	0.00e+00	0	37	0	707788800	60	6957
2026-01-04 11:58:00.52	87.13	10.92	-42.1	-43.2	22.9	0.00e+00	0	37	0	709885952	60	7008
2026-01-04 11:58:01.54	87.32	10.90	-42.3	-43.3	22.8	0.00e+00	0	37	0	711983104	60	7123
2026-01-04 11:58:02.55	87.50	10.87	-42.5	-43.6	22.5	0.00e+00	0	37	0	714080256	60	7369
2026-01-04 11:58:03.56	87.68	10.85	-42.3	-43.3	22.8	0.00e+00	0	37	0	715128832	60	7138
2026-01-04 11:58:04.57	87.86	10.83	-42.4	-43.4	22.7	0.00e+00	0	37	0	717225984	60	7227
2026-01-04 11:58:05.58	88.04	10.81	-42.4	-43.5	22.6	0.00e+00	0	37	0	719323136	60	7300
2026-01-04 11:58:06.59	88.22	10.79	-42.6	-43.7	22.5	0.00e+00	0	37	0	721420288	60	7477
2026-01-04 11:58:07.60	88.40	10.77	-42.3	-43.4	22.8	0.00e+00	0	37	0	723517440	60	7190
2026-01-04 11:58:08.61	88.58	10.74	-42.2	-43.3	22.8	0.00e+00	0	37	0	724566016	60	7143
2026-01-04 11:58:09.62	88.76	10.72	-42.3	-43.4	22.8	0.00e+00	0	37	0	726663168	60	7202
2026-01-04 11:58:10.64	88.94	10.70	-42.2	-43.3	22.8	0.00e+00	0	37	0	728760320	60	7127
2026-01-04 11:58:11.65	89.12	10.67	-42.4	-43.4	22.7	0.00e+00	0	37	0	730857472	60	7213
2026-01-04 11:58:12.66	89.30	10.65	-42.5	-43.5	22.6	0.00e+00	0	37	0	732954624	60	7318
2026-01-04 11:58:13.67	89.48	10.63	-42.5	-43.5	22.6	0.00e+00	0	37	0	734003200	60	7327
2026-01-04 11:58:14.68	89.66	10.60	-42.5	-43.5	22.6	0.00e+00	0	37	0	736100352	60	7321
2026-01-04 11:58:15.69	89.83	10.58	-42.5	-43.6	22.6	0.00e+00	0	37	0	738197504	60	7368
2026-01-04 11:58:16.70	90.01	10.55	-42.3	-43.3	22.8	0.00e+00	0	37	0	740294656	60	7168
2026-01-04 11:58:17.71	90.19	10.53	-42.1	-43.1	22.9	0.00e+00	0	37	0	742391808	60	6993
2026-01-04 11:58:18.72	90.37	10.50	-42.2	-43.3	22.9	0.00e+00	0	37	0	744488960	60	7113
2026-01-04 11:58:19.74	90.54	10.48	-42.0	-43.0	23.0	0.00e+00	0	37	0	745537536	60	6890
2026-01-04 11:58:20.75	90.72	10.45	-42.1	-43.1	23.0	0.00e+00	0	37	0	747634688	60	6992
2026-01-04 11:58:21.76	90.90	10.43	-42.3	-43.3	22.8	0.00e+00	0	37	0	749731840	60	7138
2026-01-04 11:58:22.77	91.07	10.40	-42.3	-43.4	22.7	0.00e+00	0	37	0	751828992	60	7187
2026-01-04 11:58:23.78	91.25	10.38	-42.4	-43.4	22.7	0.00e+00	0	37	0	753926144	60	7247
2026-01-04 11:58:24.79	91.42	10.35	-42.5	-43.5	22.6	0.00e+00	0	37	0	754974720	60	7314
2026-01-04 11:58:25.80	91.60	10.32	-42.6	-43.7	22.6	0.00e+00	0	37	0	757071872	60	7478
2026-01-04 11:58:26.81	91.77	10.30	-42.6	-43.6	22.5	0.00e+00	0	37	0	759169024	60	7390
2026-01-04 11:58:27.82	91.95	10.27	-42.7	-43.8	22.4	0.00e+00	0	37	0	761266176	60	7567
2026-01-04 11:58:28.84	92.12	10.24	-42.6	-43.7	22.5	0.00e+00	0	37	0	763363328	60	7460
2026-01-04 11:58:29.85	92.30	10.22	-42.8	-43.9	22.3	0.00e+00	0	37	0	764411904	60	7669
2026-01-04 11:58:30.86	92.47	10.19	-42.8	-43.9	22.4	0.00e+00	0	37	0	766509056	60	7616
2026-01-04 11:58:31.87	92.64	10.16	-42.7	-43.8	22.2	0.00e+00	0	37	0	768606208	60	7515
2026-01-04 11:58:32.88	92.82	10.13	-43.0	-44.1	22.1	0.00e+00	0	37	0	770703360	60	7796
2026-01-04 11:58:33.89	92.99	10.11	-42.9	-44.0	22.1	0.00e+00	0	37	0	772800512	60	7736
2026-01-04 11:58:34.90	93.16	10.08	-42.9	-44.0	22.1	0.00e+00	0	37	0	773849088	60	7731
2026-01-04 11:58:35.91	93.33	10.05	-43.5	-44.7	21.5	0.00e+00	0	37	0	775946240	60	8352
2026-01-04 11:58:36.92	93.50	10.02	-43.3	-44.4	21.7	0.00e+00	0	37	0	778043392	60	8128
2026-01-04 11:58:37.93	93.67	9.99	-43.3	-44.5	21.6	0.00e+00	0	37	0	780140544	60	8161
2026-01-04 11:58:38.95	93.85	9.96	-43.4	-44.6	21.6	0.00e+00	0	37	0	782237696	60	8290
2026-01-04 11:58:39.96	94.02	9.93	-43.6	-44.8	21.4	0.00e+00	0	37	0	783286272	60	8476
2026-01-04 11:58:40.97	94.19	9.90	-43.9	-45.2	21.1	0.00e+00	0	37	0	785383424	60	8870
2026-01-04 11:58:41.98	94.36	9.88	-43.8	-45.1	21.3	0.00e+00	0	37	0	787480576	60	8726
2026-01-04 11:58:42.99	94.53	9.85	-43.9	-45.2	21.1	0.00e+00	0	37	0	789577728	60	8828
2026-01-04 11:58:44.00	94.70	9.82	-44.1	-45.4	20.9	0.00e+00	0	37	0	791674880	60	9054
2026-01-04 11:58:45.01	94.87	9.79	-44.2	-45.5	20.7	0.00e+00	0	37	0	793772032	60	9220
2026-01-04 11:58:46.02	95.03	9.76	-44.4	-45.7	20.6	0.00e+00	0	37	0	794820608	60	9440
2026-01-04 11:58:47.03	95.20	9.73	-44.5	-45.9	20.4	0.00e+00	0	37	0	796917760	60	9632
2026-01-04 11:58:48.05	95.37	9.69	-44.6	-46.0	20.4	0.00e+00	0	37	0	799014912	60	9758
2026-01-04 11:58:49.06	95.54	9.66	-44.6	-46.0	20.2	0.00e+00	0	37	0	801112064	60	9687
2026-01-04 11:58:50.07	95.71	9.63	-44.7	-46.1	20.2	0.00e+00	0	37	0	803209216	60	9858
2026-01-04 11:58:51.08	95.87	9.60	-44.3	-45.7	20.6	0.00e+00	0	37	0	804257792	60	9385
2026-01-04 11:58:52.09	96.04	9.57	-44.4	-45.7	20.6	0.00e+00	0	37	0	806354944	60	9435
2026-01-04 11:58:53.10	96.21	9.54	-44.3	-45.6	20.6	0.00e+00	0	37	0	808452096	60	9325
2026-01-04 11:58:54.11	96.37	9.51	-44.2	-45.6	20.7	0.00e+00	0	37	0	810549248	60	9285
2026-01-04 11:58:55.12	96.54	9.48	-44.2	-45.6	20.6	0.00e+00	0	37	0	812646400	60	9249
2026-01-04 11:58:56.13	96.70	9.44	-44.3	-45.7	20.5	0.00e+00	0	37	0	813694976	60	9377
2026-01-04 11:58:57.14	96.87	9.41	-44.5	-45.9	20.4	0.00e+00	0	37	0	815792128	60	9622
2026-01-04 11:58:58.16	97.03	9.38	-44.6	-46.0	20.3	0.00e+00	0	37	0	817889280	60	9726
2026-01-04 11:58:59.17	97.20	9.35	-44.5	-45.9	20.3	0.00e+00	0	37	0	819986432	60	9573
2026-01-04 11:59:00.18	97.36	9.31	-44.6	-46.1	20.0	0.00e+00	0	37	0	822083584	60	9832
2026-01-04 11:59:01.19	97.52	9.28	-44.8	-46.2	19.9	0.00e+00	0	37	0	823132160	60	9982
2026-01-04 11:59:02.20	97.69	9.25	-44.8	-46.2	19.9	0.00e+00	0	37	0	825229312	60	10009
2026-01-04 11:59:03.21	97.85	9.22	-45.0	-46.5	19.6	0.00e+00	0	37	0	827326464	60	10318
2026-01-04 11:59:04.22	98.01	9.18	-45.2	-46.8	19.5	0.00e+00	0	37	0	829423616	60	10643
2026-01-04 11:59:05.23	98.17	9.15	-45.4	-47.1	19.2	0.00e+00	0	37	0	831520768	60	11002
2026-01-04 11:59:06.24	98.34	9.12	-45.7	-47.4	19.1	0.00e+00	0	37	0	833617920	60	11366
2026-01-04 11:59:07.25	98.50	9.08	-45.8	-47.5	18.7	0.00e+00	0	37	0	834666496	60	11525
2026-01-04 11:59:08.27	98.66	9.05	-46.1	-47.9	18.6	0.00e+00	0	37	0	836763648	60	12049
2026-01-04 11:59:09.28	98.82	9.01	-46.1	-47.9	18.4	0.00e+00	0	37	0	838860800	60	12077
2026-01-04 11:59:10.29	98.98	8.98	-45.9	-47.7	18.5	0.00e+00	0	37	0	840957952	60	11846
2026-01-04 11:59:11.30	99.14	8.95	-46.0	-47.8	18.5	0.00e+00	0	37	0	843055104	60	12006
2026-01-04 11:59:12.31	99.30	8.91	-45.8	-47.5	18.7	0.00e+00	0	37	0	844103680	60	11602
2026-01-04 11:59:13.32	99.46	8.88	-45.8	-47.5	18.8	0.00e+00	0	37	0	846200832	60	11538
2026-01-04 11:59:14.33	99.62	8.84	-45.5	-47.2	19.1	0.00e+00	0	37	0	848297984	60	11124
2026-01-04 11:59:15.34	99.78	8.81	-45.5	-47.2	19.1	0.00e+00	0	37	0	850395136	60	11115
2026-01-04 11:59:16.35	99.93	8.77	-45.6	-47.3	18.9	0.00e+00	0	37	0	852492288	60	11263
2026-01-04 11:59:17.36	100.09	8.74	-45.6	-47.2	19.1	0.00e+00	0	37	0	853540864	60	11211
2026-01-04 11:59:18.38	100.25	8.70	-45.4	-47.0	19.3	0.00e+00	0	37	0	855638016	60	10887
2026-01-04 11:59:19.39	100.41	8.67	-45.4	-47.1	19.2	0.00e+00	0	37	0	857735168	60	11033
2026-01-04 11:59:20.40	100.56	8.63	-45.4	-47.0	19.3	0.00e+00	0	37	0	859832320	60	10953
2026-01-04 11:59:21.41	100.72	8.60	-45.3	-46.9	19.3	0.00e+00	0	37	0	861929472	60	10797
2026-01-04 11:59:22.42	100.87	8.56	-45.3	-46.9	19.3	0.00e+00	0	37	0	862978048	60	10825
2026-01-04 11:59:23.43	101.03	8.52	-45.4	-47.0	19.3	0.00e+00	0	37	0	865075200	60	10882
2026-01-04 11:59:24.44	101.19	8.49	-45.4	-47.1	19.2	0.00e+00	0	37	0	867172352	60	11032
2026-01-04 11:59:25.46	101.34	8.45	-45.7	-47.4	18.8	0.00e+00	0	37	0	869269504	60	11486
2026-01-04 11:59:26.47	101.50	8.42	-45.7	-47.4	18.9	0.00e+00	0	37	0	871366656	60	11377
2026-01-04 11:59:27.48	101.65	8.38	-45.8	-47.6	18.6	0.00e+00	0	37	0	873463808	60	11647
2026-01-04 11:59:28.49	101.80	8.34	-46.0	-47.8	18.3	0.00e+00	0	37	0	874512384	60	12035
2026-01-04 11:59:29.50	101.96	8.31	-46.1	-48.0	18.2	0.00e+00	0	37	0	876609536	60	12201
2026-01-04 11:59:30.51	102.11	8.27	-45.8	-47.5	18.6	0.00e+00	0	37	0	878706688	60	11596
2026-01-04 11:59:31.52	102.26	8.23	-45.6	-47.2	19.0	0.00e+00	0	37	0	880803840	60	11214
2026-01-04 11:59:32.53	102.41	8.19	-45.5	-47.2	19.0	0.00e+00	0	37	0	882900992	60	11226
2026-01-04 11:59:33.54	102.57	8.16	-45.1	-46.8	19.4	0.00e+00	0	37	0	883949568	60	10607
2026-01-04 11:59:34.55	102.72	8.12	-45.2	-46.9	19.4	0.00e+00	0	37	0	886046720	60	10828
2026-01-04 11:59:35.57	102.87	8.08	-44.9	-46.6	19.5	0.00e+00	0	37	0	888143872	60	10389
2026-01-04 11:59:36.58	103.02	8.05	-45.0	-46.5	19.6	0.00e+00	0	37	0	890241024	60	10351
2026-01-04 11:59:37.59	103.17	8.01	-45.3	-47.0	19.2	0.00e+00	0	37	0	892338176	60	10960
2026-01-04 11:59:38.60	103.32	7.97	-45.3	-46.9	19.3	0.00e+00	0	37	0	893386752	60	10823
2026-01-04 11:59:39.61	103.47	7.93	-45.3	-46.9	19.3	0.00e+00	0	37	0	895483904	60	10736
2026-01-04 11:59:40.62	103.62	7.89	-45.5	-47.2	19.0	0.00e+00	0	37	0	897581056	60	11126
2026-01-04 11:59:41.63	103.77	7.86	-45.5	-47.2	19.0	0.00e+00	0	37	0	899678208	60	11191
2026-01-04 11:59:42.64	103.92	7.82	-45.7	-47.4	18.7	0.00e+00	0	37	0	901775360	60	11444
2026-01-04 11:59:43.65	104.06	7.78	-45.4	-47.1	19.2	0.00e+00	0	37	0	902823936	60	11011
2026-01-04 11:59:44.66	104.21	7.74	-45.2	-46.7	19.4	0.00e+00	0	37	0	904921088	60	10590
2026-01-04 11:59:45.68	104.36	7.70	-45.1	-46.7	19.5	0.00e+00	0	37	0	907018240	60	10497
2026-01-04 11:59:46.69	104.51	7.66	-44.9	-46.4	19.8	0.00e+00	0	37	0	909115392	60	10161
2026-01-04 11:59:47.70	104.65	7.63	-44.5	-45.9	20.2	0.00e+00	0	37	0	911212544	60	9639
2026-01-04 11:59:48.71	104.80	7.59	-44.3	-45.7	20.4	0.00e+00	0	37	0	912261120	60	9358
2026-01-04 11:59:49.72	104.95	7.55	-44.4	-45.7	20.4	0.00e+00	0	37	0	914358272	60	9451
2026-01-04 11:59:50.73	105.09	7.51	-44.3	-45.6	20.5	0.00e+00	0	37	0	916455424	60	9306
2026-01-04 11:59:51.74	105.24	7.47	-44.3	-45.7	20.2	0.00e+00	0	37	0	918552576	60	9438
2026-01-04 11:59:52.75	105.38	7.43	-44.6	-46.0	20.1	0.00e+00	0	37	0	920649728	60	9766
2026-01-04 11:59:53.76	105.52	7.39	-44.7	-46.1	20.1	0.00e+00	0	37	0	921698304	60	9878
2026-01-04 11:59:54.77	105.67	7.35	-44.5	-46.0	20.1	0.00e+00	0	37	0	923795456	60	9679
2026-01-04 11:59:55.78	105.81	7.31	-44.6	-46.0	20.2	0.00e+00	0	37	0	925892608	60	9744
2026-01-04 11:59:56.79	105.95	7.27	-44.7	-46.2	19.8	0.00e+00	0	37	0	927989760	60	9988
2026-01-04 11:59:57.81	106.10	7.23	-44.6	-46.1	20.0	0.00e+00	0	37	0	930086912	60	9867
2026-01-04 11:59:58.82	106.24	7.19	-44.6	-46.0	20.1	0.00e+00	0	37	0	931135488	60	9747
2026-01-04 11:59:59.83	106.38	7.15	-44.4	-45.8	20.3	0.00e+00	0	37	0	933232640	60	9495
2026-01-04 12:00:00.84	106.53	7.11	-44.5	-45.9	20.2	0.00e+00	0	37	0	935329792	60	9672
2026-01-04 12:00:01.85	106.67	7.07	-44.6	-46.1	20.0	0.00e+00	0	37	0	937426944	60	9788
2026-01-04 12:00:02.86	106.81	7.03	-44.6	-46.1	20.0	0.00e+00	0	37	0	939524096	60	9788
2026-01-04 12:00:03.87	106.95	6.99	-44.6	-46.0	20.1	0.00e+00	0	37	0	941621248	60	9762
2026-01-04 12:00:04.88	107.09	6.95	-44.7	-46.2	19.9	0.00e+00	0	37	0	942669824	60	9950
2026-01-04 12:00:05.89	107.23	6.91	-44.7	-46.1	20.0	0.00e+00	0	37	0	944766976	60	9889
2026-01-04 12:00:06.90	107.37	6.87	-44.6	-46.1	19.9	0.00e+00	0	37	0	946864128	60	9885
2026-01-04 12:00:07.92	107.51	6.83	-44.4	-45.9	20.2	0.00e+00	0	37	0	948961280	60	9613
2026-01-04 12:00:08.93	107.65	6.79	-44.2	-45.7	20.4	0.00e+00	0	37	0	951058432	60	9396
2026-01-04 12:00:09.94	107.78	6.75	-44.0	-45.5	20.5	0.00e+00	0	37	0	952107008	60	9203
2026-01-04 12:00:10.95	107.92	6.71	-43.7	-45.1	20.8	0.00e+00	0	37	0	954204160	60	8795
2026-01-04 12:00:11.96	108.06	6.67	-43.7	-45.0	21.0	0.00e+00	0	37	0	956301312	60	8673
2026-01-04 12:00:12.97	108.20	6.63	-43.6	-44.8	21.2	0.00e+00	0	37	0	958398464	60	8510
2026-01-04 12:00:13.98	108.33	6.59	-43.5	-44.8	21.1	0.00e+00	0	37	0	960495616	60	8487
2026-01-04 12:00:14.99	108.47	6.55	-43.4	-44.7	21.3	0.00e+00	0	37	0	961544192	60	8359
2026-01-04 12:00:16.00	108.61	6.51	-43.5	-44.8	21.1	0.00e+00	0	37	0	963641344	60	8491
2026-01-04 12:00:17.01	108.74	6.47	-43.6	-45.0	21.0	0.00e+00	0	37	0	965738496	60	8629
2026-01-04 12:00:18.03	108.88	6.42	-43.6	-44.9	21.0	0.00e+00	0	37	0	967835648	60	8580
2026-01-04 12:00:19.04	109.01	6.38	-43.8	-45.1	20.8	0.00e+00	0	37	0	969932800	60	8795
2026-01-04 12:00:20.05	109.15	6.34	-43.8	-45.1	20.8	0.00e+00	0	37	0	970981376	60	8799
2026-01-04 12:00:21.06	109.28	6.30	-43.9	-45.2	20.8	0.00e+00	0	37	0	973078528	60	8872
2026-01-04 12:00:22.07	109.42	6.26	-43.7	-45.0	21.0	0.00e+00	0	37	0	975175680	60	8659
2026-01-04 12:00:23.08	109.55	6.22	-43.5	-44.8	21.1	0.00e+00	0	37	0	977272832	60	8454
2026-01-04 12:00:24.09	109.68	6.18	-43.6	-44.8	21.1	0.00e+00	0	37	0	979369984	60	8520
2026-01-04 12:00:25.10	109.82	6.13	-43.5	-44.7	21.2	0.00e+00	0	37	0	981467136	60	8412
2026-01-04 12:00:26.11	109.95	6.09	-43.5	-44.7	21.3	0.00e+00	0	37	0	982515712	60	8388
2026-01-04 12:00:27.12	110.08	6.05	-43.5	-44.8	21.2	0.00e+00	0	37	0	984612864	60	8442
2026-01-04 12:00:28.13	110.21	6.01	-43.7	-45.0	21.0	0.00e+00	0	37	0	986710016	60	8698
2026-01-04 12:00:29.15	110.34	5.97	-43.8	-45.2	20.8	0.00e+00	0	37	0	988807168	60	8831
2026-01-04 12:00:30.16	110.48	5.92	-43.8	-45.1	20.8	0.00e+00	0	37	0	990904320	60	8756
2026-01-04 12:00:31.17	110.61	5.88	-44.0	-45.4	20.4	0.00e+00	0	37	0	991952896	60	9087
2026-01-04 12:00:32.18	110.74	5.84	-44.2	-45.6	20.4	0.00e+00	0	37	0	994050048	60	9287
2026-01-04 12:00:33.19	110.87	5.80	-44.1	-45.5	20.3	0.00e+00	0	37	0	996147200	60	9177
2026-01-04 12:00:34.20	111.00	5.76	-44.2	-45.6	20.3	0.00e+00	0	37	0	998244352	60	9245
2026-01-04 12:00:35.21	111.12	5.71	-44.0	-45.4	20.5	0.00e+00	0	37	0	1000341504	60	9087
2026-01-04 12:00:36.23	111.25	5.67	-44.0	-45.4	20.5	0.00e+00	0	37	0	1001390080	60	9079
2026-01-04 12:00:37.23	111.38	5.63	-43.9	-45.2	20.8	0.00e+00	0	37	0	1003487232	60	8897
2026-01-04 12:00:38.25	111.51	5.59	-43.8	-45.1	20.8	0.00e+00	0	37	0	1005584384	60	8789
2026-01-04 12:00:39.26	111.64	5.54	-43.6	-44.8	20.9	0.00e+00	0	37	0	1007681536	60	8515
2026-01-04 12:00:40.27	111.77	5.50	-43.5	-44.8	20.9	0.00e+00	0	37	0	1009778688	60	8452
2026-01-04 12:00:41.28	111.89	5.46	-43.5	-44.8	21.1	0.00e+00	0	37	0	1010827264	60	8463
2026-01-04 12:00:42.29	112.02	5.42	-43.5	-44.7	21.1	0.00e+00	0	37	0	1012924416	60	8386
2026-01-04 12:00:43.30	112.15	5.37	-43.5	-44.8	21.0	0.00e+00	0	37	0	1015021568	60	8475
2026-01-04 12:00:44.31	112.27	5.33	-43.6	-44.9	21.0	0.00e+00	0	37	0	1017118720	60	8583
2026-01-04 12:00:45.32	112.40	5.29	-43.5	-44.8	21.0	0.00e+00	0	37	0	1019215872	60	8460
2026-01-04 12:00:46.33	112.52	5.25	-43.8	-45.1	20.7	0.00e+00	0	37	0	1021313024	60	8791
2026-01-04 12:00:47.34	112.65	5.20	-43.6	-44.9	20.8	0.00e+00	0	37	0	1022361600	60	8605
2026-01-04 12:00:48.35	112.77	5.16	-43.9	-45.3	20.5	0.00e+00	0	37	0	1024458752	60	8975
2026-01-04 12:00:49.37	112.90	5.12	-43.7	-45.0	20.8	0.00e+00	0	37	0	1026555904	60	8715
2026-01-04 12:00:50.38	113.02	5.07	-44.0	-45.3	20.6	0.00e+00	0	37	0	1028653056	60	9024
2026-01-04 12:00:51.39	113.15	5.03	-44.1	-45.5	20.4	0.00e+00	0	37	0	1030750208	60	9141
2026-01-04 12:00:52.40	113.27	4.99	-44.0	-45.4	20.4	0.00e+00	0	37	0	1031798784	60	9028
2026-01-04 12:00:53.41	113.39	4.95	-44.0	-45.4	20.6	0.00e+00	0	37	0	1033895936	60	9039
2026-01-04 12:00:54.42	113.51	4.90	-43.9	-45.2	20.6	0.00e+00	0	37	0	1035993088	60	8859
2026-01-04 12:00:55.43	113.64	4.86	-43.8	-45.1	20.6	0.00e+00	0	37	0	1038090240	60	8789
2026-01-04 12:00:56.44	113.76	4.82	-43.7	-45.0	20.6	0.00e+00	0	37	0	1040187392	60	8697
2026-01-04 12:00:57.45	113.88	4.77	-43.7	-45.1	20.6	0.00e+00	0	37	0	1041235968	60	8737
2026-01-04 12:00:58.46	114.00	4.73	-43.9	-45.2	20.5	0.00e+00	0	37	0	1043333120	60	8895
2026-01-04 12:00:59.48	114.12	4.69	-43.9	-45.3	20.4	0.00e+00	0	37	0	1045430272	60	8961
2026-01-04 12:01:00.49	114.24	4.64	-44.0	-45.4	20.3	0.00e+00	0	37	0	1047527424	60	9107
2026-01-04 12:01:01.50	114.36	4.60	-44.0	-45.4	20.1	0.00e+00	0	37	0	1049624576	60	9116
2026-01-04 12:01:02.51	114.48	4.56	-44.0	-45.4	20.1	0.00e+00	0	37	0	1050673152	60	9120
2026-01-04 12:01:03.52	114.60	4.51	-44.1	-45.5	20.0	0.00e+00	0	37	0	1052770304	60	9206
2026-01-04 12:01:04.53	114.72	4.47	-44.3	-45.8	19.8	0.00e+00	0	37	0	1054867456	60	9551
2026-01-04 12:01:05.54	114.84	4.43	-44.4	-45.9	19.7	0.00e+00	0	37	0	1056964608	60	9591
2026-01-04 12:01:06.55	114.96	4.38	-44.4	-45.9	19.7	0.00e+00	0	37	0	1059061760	60	9641
2026-01-04 12:01:07.56	115.08	4.34	-44.5	-46.0	19.6	0.00e+00	0	37	0	1060110336	60	9764
2026-01-04 12:01:08.57	115.19	4.30	-44.1	-45.5	20.1	0.00e+00	0	37	0	1062207488	60	9175
2026-01-04 12:01:09.59	115.31	4.25	-44.4	-46.0	19.7	0.00e+00	0	37	0	1064304640	60	9679
2026-01-04 12:01:10.60	115.43	4.21	-44.3	-45.7	20.0	0.00e+00	0	37	0	1066401792	60	9450
2026-01-04 12:01:11.61	115.55	4.17	-44.4	-45.9	19.7	0.00e+00	0	37	0	1068498944	60	9604
2026-01-04 12:01:12.62	115.66	4.12	-44.6	-46.2	19.5	0.00e+00	0	37	0	1069547520	60	9910
2026-01-04 12:01:13.63	115.78	4.08	-44.6	-46.2	19.5	0.00e+00	0	37	0	1071644672	60	9905
2026-01-04 12:01:14.64	115.89	4.03	-44.6	-46.1	19.5	0.00e+00	0	37	0	1073741824	60	9870
2026-01-04 12:01:15.65	116.01	3.99	-44.6	-46.1	19.5	0.00e+00	0	37	0	1075838976	60	9888
2026-01-04 12:01:16.66	116.12	3.95	-45.0	-46.7	18.9	0.00e+00	0	37	0	1077936128	60	10512
2026-01-04 12:01:17.67	116.24	3.90	-45.1	-46.8	18.9	0.00e+00	0	37	0	1080033280	60	10607
2026-01-04 12:01:18.68	116.35	3.86	-45.1	-46.8	18.7	0.00e+00	0	37	0	1081081856	60	10629
2026-01-04 12:01:19.70	116.47	3.82	-44.9	-46.5	19.0	0.00e+00	0	37	0	1083179008	60	10364
2026-01-04 12:01:20.71	116.58	3.77	-44.7	-46.3	19.3	0.00e+00	0	37	0	1085276160	60	10059
2026-01-04 12:01:21.72	116.70	3.73	-45.0	-46.6	18.9	0.00e+00	0	37	0	1087373312	60	10474
2026-01-04 12:01:22.73	116.81	3.68	-44.9	-46.5	19.0	0.00e+00	0	37	0	1089470464	60	10355
2026-01-04 12:01:23.74	116.92	3.64	-44.8	-46.5	19.1	0.00e+00	0	37	0	1090519040	60	10284
2026-01-04 12:01:24.75	117.03	3.60	-44.9	-46.6	18.9	0.00e+00	0	37	0	1092616192	60	10454
2026-01-04 12:01:25.76	117.15	3.55	-45.1	-46.9	18.6	0.00e+00	0	37	0	1094713344	60	10755
2026-01-04 12:01:26.77	117.26	3.51	-45.2	-47.0	18.4	0.00e+00	0	37	0	1096810496	60	10898
2026-01-04 12:01:27.78	117.37	3.46	-44.7	-46.4	19.0	0.00e+00	0	37	0	1098907648	60	10138
2026-01-04 12:01:28.80	117.48	3.42	-44.7	-46.4	19.0	0.00e+00	0	37	0	1099956224	60	10223
2026-01-04 12:01:29.81	117.59	3.38	-44.8	-46.6	18.7	0.00e+00	0	37	0	1102053376	60	10412
2026-01-04 12:01:30.82	117.70	3.33	-44.7	-46.4	18.9	0.00e+00	0	37	0	1104150528	60	10204
2026-01-04 12:01:31.83	117.81	3.29	-45.1	-47.0	18.2	0.00e+00	0	37	0	1106247680	60	10928
2026-01-04 12:01:32.84	117.92	3.24	-44.9	-46.7	18.6	0.00e+00	0	37	0	1108344832	60	10487
2026-01-04 12:01:33.85	118.03	3.20	-45.0	-46.8	18.7	0.00e+00	0	37	0	1109393408	60	10674
2026-01-04 12:01:34.86	118.14	3.16	-45.5	-47.5	17.8	0.00e+00	0	37	0	1111490560	60	11596
2026-01-04 12:01:35.87	118.25	3.11	-45.5	-47.5	17.8	0.00e+00	0	37	0	1113587712	60	11571
2026-01-04 12:01:36.89	118.36	3.07	-45.7	-47.7	17.7	0.00e+00	0	37	0	1115684864	60	11787
2026-01-04 12:01:37.89	118.47	3.02	-51.5	-67.1	3.6	1.17e+00	0	37	104	1116733440	60	110776
2026-01-04 12:01:38.91	118.58	2.98	-52.0	-67.5	3.6	1.51e+00	0	37	104	1116733440	60	115160
2026-01-04 12:01:39.92	118.68	2.94	-52.2	-67.8	3.6	1.51e+00	0	37	104	1116733440	60	119232
2026-01-04 12:01:40.93	118.79	2.89	-52.4	-68.0	3.6	1.51e+00	0	37	104	1116733440	60	121840
2026-01-04 12:01:41.94	118.90	2.85	-52.4	-68.0	3.6	1.51e+00	0	37	104	1116733440	60	121925
2026-01-04 12:01:42.95	119.01	2.80	-52.5	-68.0	3.6	1.51e+00	0	37	104	1116733440	60	122814
2026-01-04 12:01:43.96	119.11	2.76	-52.5	-68.1	3.6	1.51e+00	0	37	104	1116733440	60	123421
2026-01-04 12:01:44.97	119.22	2.71	-52.6	-68.1	3.6	1.51e+00	0	37	104	1116733440	60	123947
2026-01-04 12:01:45.99	119.32	2.67	-52.6	-68.2	3.6	1.51e+00	0	38	104	1116733440	60	125315
2026-01-04 12:01:47.00	119.43	2.63	-52.6	-68.2	3.6	1.51e+00	0	37	104	1116733440	60	124840
2026-01-04 12:01:48.01	119.54	2.58	-52.7	-68.2	3.6	1.51e+00	0	37	104	1116733440	60	125181
2026-01-04 12:01:49.02	119.64	2.54	-52.7	-68.2	3.6	1.51e+00	0	37	104	1116733440	60	125436
2026-01-04 12:01:50.03	119.75	2.49	-52.7	-68.4	3.6	1.51e+00	0	37	104	1116733440	60	128549
2026-01-04 12:01:51.04	119.85	2.45	-53.0	-68.6	3.6	1.51e+00	0	37	104	1116733440	60	130767
2026-01-04 12:01:52.05	119.95	2.41	-52.8	-68.3	3.6	1.51e+00	0	37	104	1116733440	60	127325
2026-01-04 12:01:53.07	120.06	2.36	-52.9	-68.4	3.6	1.51e+00	0	37	104	1116733440	60	128608
2026-01-04 12:01:54.08	120.16	2.32	-52.9	-68.4	3.6	1.51e+00	0	37	104	1116733440	60	128180
2026-01-04 12:01:55.09	120.26	2.27	-52.9	-68.4	3.6	1.51e+00	0	38	104	1116733440	60	128411
2026-01-04 12:01:56.10	120.37	2.23	-52.9	-68.4	3.6	1.51e+00	0	37	104	1116733440	60	128544
2026-01-04 12:01:57.11	120.47	2.18	-53.2	-68.7	3.6	1.51e+00	0	37	104	1116733440	60	133478
2026-01-04 12:01:58.12	120.57	2.14	-53.2	-68.7	3.6	1.51e+00	0	37	104	1116733440	60	133066
2026-01-04 12:01:59.13	120.67	2.10	-53.0	-68.5	3.6	1.51e+00	0	37	104	1116733440	60	130305
2026-01-04 12:02:00.14	120.78	2.05	-53.1	-68.7	3.6	1.51e+00	0	37	104	1116733440	60	132024
2026-01-04 12:02:01.15	120.88	2.01	-53.0	-68.6	3.6	1.51e+00	0	37	104	1116733440	60	130494
2026-01-04 12:02:02.16	120.98	1.96	-53.0	-68.5	3.6	1.51e+00	0	37	104	1116733440	60	129434
2026-01-04 12:02:03.17	121.08	1.92	-53.1	-68.6	3.6	1.51e+00	0	37	104	1116733440	60	130991
2026-01-04 12:02:04.19	121.18	1.87	-52.9	-68.4	3.6	1.51e+00	0	37	104	1116733440	60	128943
2026-01-04 12:02:05.20	121.28	1.83	-52.9	-68.5	3.6	1.51e+00	0	37	104	1116733440	60	129126
2026-01-04 12:02:06.20	121.38	1.79	-53.0	-68.5	3.6	1.51e+00	0	37	104	1116733440	60	130194
2026-01-04 12:02:07.22	121.48	1.74	-53.1	-68.7	3.6	1.51e+00	0	37	104	1116733440	60	132371
2026-01-04 12:02:08.23	121.58	1.70	-53.0	-68.6	3.6	1.51e+00	0	37	104	1116733440	60	130495
2026-01-04 12:02:09.24	121.68	1.65	-53.1	-68.6	3.6	1.51e+00	0	37	104	1116733440	60	131052
2026-01-04 12:02:10.25	121.78	1.61	-53.8	-69.3	3.6	1.51e+00	0	37	104	1116733440	60	142726
2026-01-04 12:02:11.26	121.88	1.56	-53.0	-68.6	3.6	1.51e+00	0	37	104	1116733440	60	131384
2026-01-04 12:02:12.27	121.98	1.52	-53.2	-68.7	3.6	1.51e+00	0	37	104	1116733440	60	132511
2026-01-04 12:02:13.28	122.07	1.48	-53.4	-68.9	3.6	1.51e+00	0	37	104	1116733440	60	135683
2026-01-04 12:02:14.29	122.17	1.43	-53.5	-69.0	3.6	1.51e+00	0	37	104	1116733440	60	137224
2026-01-04 12:02:15.30	122.27	1.39	-53.6	-69.1	3.6	1.51e+00	0	37	104	1116733440	60	138413
2026-01-04 12:02:16.31	122.37	1.34	-53.5	-69.0	3.6	1.51e+00	0	37	104	1116733440	60	137797
2026-01-04 12:02:17.33	122.46	1.30	-53.8	-69.3	3.6	1.51e+00	0	37	104	1116733440	60	141809
2026-01-04 12:02:18.34	122.56	1.25	-53.4	-69.0	3.6	1.51e+00	0	37	104	1116733440	60	137380
2026-01-04 12:02:19.35	122.66	1.21	-53.1	-68.7	3.6	1.51e+00	0	37	104	1116733440	60	132010
2026-01-04 12:02:20.36	122.75	1.17	-53.2	-68.7	3.6	1.51e+00	0	37	104	1116733440	60	133288
