passes_logs/2026/01/04/R4.6S_Anadyr_2ch/R4.6S_Anadyr_2ch__20260104_013806_AQUA_rec.log

#Pass ID: 20260104_013806_AQUA
#Satellite: AQUA
#Configuration: AQUA
#almurnet v.1.7.20251203
#Start time: 2026-01-04 01:38:07

#Version: 2.2.20231116
#Station: R4.6S_Anadyr_2ch
#Location: 177.4865 lon 64.73178 lat
#TLE: 1 27424U 02022A   25351.00450321  .00000925  00000+0  19503-3 0  9992
#TLE: 2 27424  98.4041 311.9529 0001248 113.7180 322.1616 14.61819266256652

#Time	Az	El	Level	Level2	SNR	BER	BlckErr	Temp	State	Recorded	gain1	gain2
2026-01-04 01:38:07.87	148.83	0.07	-53.0	-68.1	3.5	1.51e+00	0	34	0	0	60	124379
2026-01-04 01:38:08.88	148.82	0.13	-54.7	-72.5	3.5	3.02e+01	0	35	104	0	60	219708
2026-01-04 01:38:09.89	148.81	0.19	-55.0	-72.9	3.5	3.02e+01	0	35	104	0	60	228581
2026-01-04 01:38:10.90	148.80	0.25	-54.6	-72.4	3.5	3.02e+01	0	36	104	0	60	217005
2026-01-04 01:38:11.91	148.80	0.32	-54.7	-72.5	3.5	3.02e+01	0	35	104	0	60	218369
2026-01-04 01:38:12.92	148.79	0.38	-54.0	-71.9	3.5	3.02e+01	0	36	104	0	60	203331
2026-01-04 01:38:13.93	148.78	0.44	-54.6	-72.5	3.5	3.02e+01	0	36	104	0	60	218558
2026-01-04 01:38:14.94	148.77	0.51	-54.4	-72.3	3.5	3.02e+01	0	36	104	0	60	213251
2026-01-04 01:38:15.96	148.77	0.57	-54.7	-72.6	3.5	3.02e+01	0	36	104	0	60	220613
2026-01-04 01:38:16.97	148.76	0.63	-55.0	-72.8	3.5	3.02e+01	0	36	104	0	60	227216
2026-01-04 01:38:17.98	148.75	0.70	-54.5	-72.4	3.5	3.02e+01	0	36	104	0	60	216144
2026-01-04 01:38:18.99	148.74	0.76	-54.4	-72.2	3.5	3.02e+01	0	36	104	0	60	211551
2026-01-04 01:38:20.00	148.73	0.83	-54.5	-72.2	3.5	3.02e+01	0	36	104	0	60	212474
2026-01-04 01:38:21.01	148.72	0.89	-54.1	-72.0	3.5	3.02e+01	0	36	104	0	60	205803
2026-01-04 01:38:22.02	148.72	0.96	-54.1	-71.9	3.5	3.02e+01	0	36	104	0	60	204937
2026-01-04 01:38:23.03	148.71	1.02	-54.5	-72.4	3.5	3.02e+01	0	36	104	0	60	216241
2026-01-04 01:38:24.04	148.70	1.08	-54.3	-72.2	3.5	3.02e+01	0	36	104	0	60	211402
2026-01-04 01:38:25.05	148.69	1.15	-54.4	-72.3	3.5	3.02e+01	0	36	104	0	60	213438
2026-01-04 01:38:26.06	148.68	1.21	-54.0	-71.8	3.5	3.02e+01	0	36	104	0	60	201889
2026-01-04 01:38:27.07	148.67	1.28	-54.1	-72.0	3.5	3.02e+01	0	36	104	0	60	205872
2026-01-04 01:38:28.08	148.66	1.35	-53.9	-71.7	3.5	3.02e+01	0	36	104	0	60	199375
2026-01-04 01:38:29.09	148.66	1.41	-54.4	-72.3	3.5	3.02e+01	0	36	104	0	60	213507
2026-01-04 01:38:30.10	148.65	1.48	-54.5	-72.3	3.5	3.02e+01	0	36	104	0	60	215108
2026-01-04 01:38:31.11	148.64	1.54	-54.1	-72.0	3.5	3.02e+01	0	36	104	0	60	206375
2026-01-04 01:38:32.12	148.63	1.61	-54.2	-72.1	3.5	3.02e+01	0	36	104	0	60	208697
2026-01-04 01:38:33.13	148.62	1.68	-54.5	-72.4	3.5	3.02e+01	0	36	104	0	60	215561
2026-01-04 01:38:34.14	148.61	1.74	-54.3	-72.2	3.5	3.02e+01	0	36	104	0	60	210340
2026-01-04 01:38:35.15	148.60	1.81	-54.4	-72.2	3.5	3.02e+01	0	36	104	0	60	211670
2026-01-04 01:38:36.16	148.59	1.88	-54.8	-72.6	3.5	3.02e+01	0	36	104	0	60	222224
2026-01-04 01:38:37.17	148.58	1.94	-54.8	-72.6	3.5	3.02e+01	0	36	104	0	60	222301
2026-01-04 01:38:38.18	148.57	2.01	-54.3	-72.1	3.5	3.02e+01	0	36	104	0	60	209359
2026-01-04 01:38:39.19	148.56	2.08	-54.4	-72.2	3.5	3.02e+01	0	36	104	0	60	211358
2026-01-04 01:38:40.21	148.55	2.14	-54.8	-72.6	3.5	3.02e+01	0	36	104	0	60	222545
2026-01-04 01:38:41.22	148.55	2.21	-55.0	-72.8	3.5	3.02e+01	0	36	104	0	60	225929
2026-01-04 01:38:42.23	148.54	2.28	-54.3	-72.2	3.5	3.02e+01	0	36	104	0	60	211292
2026-01-04 01:38:43.24	148.53	2.35	-54.4	-72.3	3.5	3.02e+01	0	36	104	0	60	213282
2026-01-04 01:38:44.25	148.52	2.42	-54.3	-72.1	3.5	3.02e+01	0	36	104	0	60	210130
2026-01-04 01:38:45.26	148.51	2.48	-54.5	-72.3	3.5	3.02e+01	0	36	104	0	60	214797
2026-01-04 01:38:46.27	148.50	2.55	-54.8	-72.7	3.5	3.02e+01	0	36	104	0	60	222829
2026-01-04 01:38:47.28	148.49	2.62	-54.4	-72.3	3.5	3.02e+01	0	36	104	0	60	213500
2026-01-04 01:38:48.29	148.48	2.69	-54.1	-71.9	3.5	3.02e+01	0	36	104	0	60	204043
2026-01-04 01:38:49.30	148.47	2.76	-54.4	-72.2	3.5	3.02e+01	0	36	104	0	60	210755
2026-01-04 01:38:50.31	148.46	2.83	-54.4	-72.2	3.5	3.02e+01	0	36	104	0	60	211174
2026-01-04 01:38:51.32	148.45	2.90	-54.5	-72.3	3.5	3.02e+01	0	36	104	0	60	214197
2026-01-04 01:38:52.33	148.44	2.97	-54.5	-72.4	3.5	3.02e+01	0	36	104	0	60	217562
2026-01-04 01:38:53.34	148.43	3.04	-54.7	-72.7	3.5	3.02e+01	0	36	104	0	60	223189
2026-01-04 01:38:54.35	148.42	3.11	-53.6	-71.5	3.5	3.02e+01	0	36	104	0	60	194009
2026-01-04 01:38:55.36	148.41	3.18	-53.6	-71.5	3.5	3.02e+01	0	36	104	0	60	195344
2026-01-04 01:38:56.37	148.40	3.25	-53.9	-71.7	3.5	3.02e+01	0	36	104	0	60	199337
2026-01-04 01:38:57.38	148.38	3.32	-53.3	-71.1	3.5	3.02e+01	0	36	104	0	60	186302
2026-01-04 01:38:58.39	148.37	3.39	-53.2	-71.1	3.5	3.02e+01	0	36	104	0	60	185265
2026-01-04 01:38:59.40	148.36	3.46	-53.1	-71.0	3.5	3.02e+01	0	36	104	0	60	183295
2026-01-04 01:39:00.41	148.35	3.53	-53.0	-70.8	3.5	3.02e+01	0	36	104	0	60	181044
2026-01-04 01:39:01.42	148.34	3.60	-52.9	-70.7	3.5	3.02e+01	0	36	104	0	60	178942
2026-01-04 01:39:02.43	148.33	3.68	-52.7	-70.5	3.5	3.02e+01	0	36	104	0	60	174199
2026-01-04 01:39:03.44	148.32	3.75	-52.5	-70.4	3.5	3.02e+01	0	36	104	0	60	171533
2026-01-04 01:39:04.45	148.31	3.82	-52.4	-70.2	3.5	3.02e+01	0	36	104	0	60	167668
2026-01-04 01:39:05.47	148.30	3.89	-52.2	-70.1	3.5	3.02e+01	0	36	104	0	60	166476
2026-01-04 01:39:06.48	148.29	3.97	-52.3	-70.1	3.5	3.02e+01	0	36	104	0	60	166563
2026-01-04 01:39:07.49	148.27	4.04	-52.1	-69.8	3.5	3.02e+01	0	36	104	0	60	160785
2026-01-04 01:39:08.50	148.26	4.11	-51.4	-69.2	3.5	3.02e+01	0	36	104	0	60	149013
2026-01-04 01:39:09.51	148.25	4.18	-51.2	-69.3	3.5	3.02e+01	0	36	104	0	60	151163
2026-01-04 01:39:10.52	148.24	4.26	-51.2	-69.2	3.5	3.02e+01	0	36	104	0	60	150043
2026-01-04 01:39:11.53	148.23	4.33	-51.2	-69.2	3.5	3.02e+01	0	36	104	0	60	149441
2026-01-04 01:39:12.54	148.22	4.41	-51.2	-69.2	3.5	3.02e+01	0	37	104	0	60	149357
2026-01-04 01:39:13.55	148.21	4.48	-51.2	-69.1	3.5	3.02e+01	0	36	104	0	60	148858
2026-01-04 01:39:14.57	148.19	4.55	-51.2	-69.0	3.5	3.02e+01	0	36	104	0	60	146754
2026-01-04 01:39:15.58	148.18	4.63	-51.2	-68.7	3.5	3.02e+01	0	37	104	0	60	141777
2026-01-04 01:39:16.59	148.17	4.70	-51.2	-68.8	3.5	3.02e+01	0	37	104	0	60	143284
2026-01-04 01:39:17.60	148.16	4.78	-51.3	-68.7	3.5	3.02e+01	0	37	104	0	60	141121
2026-01-04 01:39:18.61	148.14	4.85	-51.2	-68.6	3.5	3.02e+01	0	37	104	0	60	140157
2026-01-04 01:39:19.62	148.13	4.93	-51.2	-68.5	3.5	3.02e+01	0	36	104	0	60	138156
2026-01-04 01:39:20.63	148.12	5.00	-51.2	-68.6	3.5	3.02e+01	0	36	104	0	60	138938
2026-01-04 01:39:21.64	148.11	5.08	-51.3	-68.6	3.5	3.02e+01	0	37	104	0	60	139856
2026-01-04 01:39:22.65	148.09	5.16	-51.2	-68.3	3.5	3.02e+01	0	37	104	0	60	135187
2026-01-04 01:39:23.66	148.08	5.23	-51.2	-68.6	3.5	3.02e+01	0	37	104	0	60	139302
2026-01-04 01:39:24.67	148.07	5.31	-51.2	-69.1	3.5	3.02e+01	0	37	104	0	60	148404
2026-01-04 01:39:25.68	148.06	5.39	-51.2	-69.2	3.5	3.02e+01	0	37	104	0	60	150261
2026-01-04 01:39:26.69	148.04	5.46	-51.4	-69.4	3.5	3.02e+01	0	37	104	0	60	152481
2026-01-04 01:39:27.70	148.03	5.54	-51.3	-69.4	3.5	3.02e+01	0	37	104	0	60	152621
2026-01-04 01:39:28.71	148.02	5.62	-51.3	-69.3	3.5	3.02e+01	0	37	104	0	60	150939
2026-01-04 01:39:29.72	148.00	5.70	-51.4	-69.2	3.5	3.02e+01	0	37	104	0	60	149968
2026-01-04 01:39:30.73	147.99	5.78	-51.3	-69.0	3.5	3.02e+01	0	37	104	0	60	146566
2026-01-04 01:39:31.74	147.98	5.85	-51.2	-68.9	3.5	3.02e+01	0	37	104	0	60	144573
2026-01-04 01:39:32.75	147.96	5.93	-51.2	-68.8	3.5	3.02e+01	0	37	104	0	60	142429
2026-01-04 01:39:33.76	147.95	6.01	-51.2	-68.8	3.5	3.02e+01	0	37	104	0	60	142185
2026-01-04 01:39:34.77	147.94	6.09	-51.1	-68.6	3.5	3.02e+01	0	37	104	0	60	139420
2026-01-04 01:39:35.78	147.92	6.17	-51.1	-68.4	3.5	3.02e+01	0	37	104	0	60	136027
2026-01-04 01:39:36.79	147.91	6.25	-51.1	-68.1	3.5	3.02e+01	0	37	104	0	60	131741
2026-01-04 01:39:37.80	147.90	6.33	-51.2	-68.2	3.5	3.02e+01	0	37	104	0	60	134022
2026-01-04 01:39:38.82	147.88	6.41	-51.2	-68.4	3.5	3.02e+01	0	37	104	0	60	136997
2026-01-04 01:39:39.82	147.87	6.49	-51.2	-68.2	3.5	3.02e+01	0	37	104	0	60	133175
2026-01-04 01:39:40.84	147.85	6.57	-51.1	-67.6	3.6	3.02e+01	0	37	104	0	60	124857
2026-01-04 01:39:41.85	147.84	6.65	-51.1	-65.4	4.2	3.02e+01	0	37	104	0	60	96533
2026-01-04 01:39:42.86	147.82	6.74	-50.9	-61.9	6.3	3.02e+01	48	37	0	0	60	64493
2026-01-04 01:39:43.87	147.81	6.82	-50.2	-58.1	10.7	3.02e+01	92	37	104	524288	60	41582
2026-01-04 01:39:44.88	147.79	6.90	-50.1	-57.1	11.3	3.02e+01	92	37	0	1572864	60	37093
2026-01-04 01:39:45.89	147.78	6.98	-48.5	-52.6	15.5	3.02e+01	92	37	0	3670016	60	22205
2026-01-04 01:39:46.90	147.76	7.06	-48.1	-51.8	17.3	3.02e+01	91	37	0	5242880	60	20304
2026-01-04 01:39:47.91	147.75	7.15	-46.2	-48.7	19.8	3.02e+01	89	37	0	7340032	60	14125
2026-01-04 01:39:48.92	147.73	7.23	-45.9	-48.4	20.9	3.02e+01	87	37	0	8912896	60	13582
2026-01-04 01:39:49.93	147.72	7.31	-45.2	-47.5	20.8	3.02e+01	90	37	0	11010048	60	12267
2026-01-04 01:39:50.94	147.70	7.40	-45.7	-48.0	20.6	3.02e+01	92	37	0	13107200	60	13074
2026-01-04 01:39:51.96	147.69	7.48	-46.5	-49.2	18.3	3.02e+01	90	37	0	14680064	60	14939
2026-01-04 01:39:52.97	147.67	7.57	-41.9	-43.4	25.5	3.02e+01	91	37	0	16777216	60	7661
2026-01-04 01:39:53.98	147.66	7.65	-51.1	-67.6	3.7	3.02e+01	0	37	104	18350080	60	124179
2026-01-04 01:39:54.99	147.64	7.74	-50.6	-57.7	11.2	3.02e+01	92	37	0	18350080	60	39981
2026-01-04 01:39:56.00	147.62	7.82	-48.8	-53.2	15.4	3.02e+01	90	37	0	20447232	60	23740
2026-01-04 01:39:57.01	147.61	7.91	-42.2	-43.7	25.1	3.02e+01	92	37	0	22020096	60	7969
2026-01-04 01:39:58.02	147.59	7.99	-42.2	-43.7	25.1	3.02e+01	92	37	0	24117248	60	7992
2026-01-04 01:39:59.03	147.58	8.08	-41.5	-43.0	25.9	3.02e+01	92	37	0	25690112	60	7326
2026-01-04 01:40:00.04	147.56	8.17	-41.4	-42.8	25.8	3.02e+01	90	37	0	27787264	60	7183
2026-01-04 01:40:01.05	147.54	8.25	-41.8	-43.3	25.7	3.02e+01	92	37	0	29884416	60	7558
2026-01-04 01:40:02.06	147.53	8.34	-41.7	-43.1	25.9	3.02e+01	89	37	0	31457280	60	7432
2026-01-04 01:40:03.07	147.51	8.43	-41.2	-42.6	26.2	3.02e+01	91	37	0	33554432	60	7015
2026-01-04 01:40:04.08	147.49	8.52	-41.3	-42.7	26.2	3.02e+01	89	37	0	35651584	60	7062
2026-01-04 01:40:05.09	147.47	8.60	-41.2	-42.6	26.3	3.02e+01	92	37	0	37224448	60	6983
2026-01-04 01:40:06.10	147.46	8.69	-41.1	-42.5	26.4	3.02e+01	90	37	0	39321600	60	6941
2026-01-04 01:40:07.12	147.44	8.78	-41.0	-42.4	26.6	3.02e+01	91	37	0	40894464	60	6858
2026-01-04 01:40:08.13	147.42	8.87	-41.2	-42.6	26.4	3.02e+01	89	37	0	42991616	60	7016
2026-01-04 01:40:09.14	147.40	8.96	-41.1	-42.5	26.5	3.02e+01	92	37	0	45088768	60	6939
2026-01-04 01:40:10.15	147.39	9.05	-41.4	-42.8	26.2	3.02e+01	90	37	0	46661632	60	7206
2026-01-04 01:40:11.16	147.37	9.14	-41.4	-42.8	26.2	3.02e+01	92	37	0	48758784	60	7182
2026-01-04 01:40:12.17	147.35	9.23	-41.7	-43.2	25.9	3.02e+01	92	37	0	50331648	60	7476
2026-01-04 01:40:13.18	147.33	9.32	-41.3	-42.7	26.3	3.02e+01	92	37	0	52428800	60	7076
2026-01-04 01:40:14.19	147.31	9.42	-41.0	-42.3	26.7	3.02e+01	92	37	0	54525952	60	6795
2026-01-04 01:40:15.20	147.29	9.51	-40.7	-42.0	26.9	3.02e+01	92	37	0	56098816	60	6566
2026-01-04 01:40:16.22	147.28	9.60	-41.1	-42.5	26.6	3.02e+01	92	37	0	58195968	60	6888
2026-01-04 01:40:17.23	147.26	9.69	-40.5	-41.8	27.1	3.02e+01	92	36	0	60293120	60	6384
2026-01-04 01:40:18.24	147.24	9.79	-40.6	-42.0	26.9	3.02e+01	92	37	0	61865984	60	6528
2026-01-04 01:40:19.25	147.22	9.88	-40.5	-41.9	27.2	3.02e+01	92	37	0	63963136	60	6425
2026-01-04 01:40:20.26	147.20	9.97	-40.7	-42.0	27.1	3.02e+01	92	37	0	65536000	60	6548
2026-01-04 01:40:21.27	147.18	10.07	-40.4	-41.8	27.2	3.02e+01	92	37	0	67633152	60	6364
2026-01-04 01:40:22.28	147.16	10.16	-40.4	-41.8	27.2	3.02e+01	92	37	0	69730304	60	6353
2026-01-04 01:40:23.29	147.14	10.26	-40.3	-41.7	27.3	3.02e+01	92	37	0	71303168	60	6283
2026-01-04 01:40:24.30	147.12	10.35	-40.3	-41.6	27.4	3.02e+01	90	37	0	73400320	60	6247
2026-01-04 01:40:25.31	147.10	10.45	-40.3	-41.7	27.3	3.02e+01	92	37	0	75497472	60	6292
2026-01-04 01:40:26.33	147.08	10.55	-40.5	-41.9	27.3	3.02e+01	90	37	0	77070336	60	6434
2026-01-04 01:40:27.34	147.06	10.64	-40.4	-41.7	27.5	3.02e+01	90	37	0	79167488	60	6301
2026-01-04 01:40:28.35	147.04	10.74	-40.3	-41.6	27.3	3.02e+01	92	37	0	80740352	60	6233
2026-01-04 01:40:29.36	147.02	10.84	-40.2	-41.5	27.5	3.02e+01	92	37	0	82837504	60	6152
2026-01-04 01:40:30.37	147.00	10.94	-40.2	-41.6	27.6	3.02e+01	90	37	0	84934656	60	6211
2026-01-04 01:40:31.38	146.98	11.04	-40.1	-41.5	27.7	3.02e+01	92	37	0	86507520	60	6143
2026-01-04 01:40:32.39	146.95	11.13	-40.2	-41.5	27.6	3.02e+01	92	37	0	88604672	60	6154
2026-01-04 01:40:33.40	146.93	11.23	-40.1	-41.4	27.7	3.02e+01	92	37	0	90177536	60	6083
2026-01-04 01:40:34.41	146.91	11.33	-40.1	-41.4	27.7	3.02e+01	90	37	0	92274688	60	6078
2026-01-04 01:40:35.42	146.89	11.43	-40.2	-41.5	27.6	3.02e+01	92	37	0	94371840	60	6177
2026-01-04 01:40:36.44	146.87	11.53	-40.0	-41.2	27.7	3.02e+01	92	37	0	95944704	60	5994
2026-01-04 01:40:37.45	146.84	11.64	-40.1	-41.4	27.6	3.02e+01	92	37	0	98041856	60	6095
2026-01-04 01:40:38.46	146.82	11.74	-40.1	-41.4	27.7	3.02e+01	92	37	0	100139008	60	6085
2026-01-04 01:40:39.47	146.80	11.84	-39.8	-41.1	28.0	3.02e+01	92	37	0	101711872	60	5912
2026-01-04 01:40:40.48	146.78	11.94	-39.9	-41.2	27.9	3.02e+01	89	37	0	103809024	60	5959
2026-01-04 01:40:41.49	146.75	12.04	-39.9	-41.2	27.8	3.02e+01	92	37	0	105381888	60	5938
2026-01-04 01:40:42.50	146.73	12.15	-39.9	-41.1	28.0	3.02e+01	92	37	0	107479040	60	5923
2026-01-04 01:40:43.51	146.71	12.25	-39.9	-41.2	28.1	3.02e+01	92	37	0	109576192	60	5932
2026-01-04 01:40:44.53	146.68	12.36	-39.9	-41.1	28.0	3.02e+01	92	37	0	111149056	60	5921
2026-01-04 01:40:45.54	146.66	12.46	-39.8	-41.1	28.1	3.02e+01	88	37	0	113246208	60	5874
2026-01-04 01:40:46.55	146.64	12.57	-39.9	-41.2	28.1	3.02e+01	91	37	0	115343360	60	5949
2026-01-04 01:40:47.56	146.61	12.67	-39.9	-41.2	28.0	3.02e+01	92	37	0	116916224	60	5981
2026-01-04 01:40:48.57	146.59	12.78	-39.8	-41.0	28.3	3.02e+01	92	37	0	119013376	60	5837
2026-01-04 01:40:49.58	146.56	12.89	-39.8	-41.1	28.2	3.02e+01	92	37	0	120586240	60	5890
2026-01-04 01:40:50.59	146.54	12.99	-39.7	-40.9	28.3	3.02e+01	92	37	0	122683392	60	5790
2026-01-04 01:40:51.60	146.51	13.10	-39.9	-41.2	28.1	3.02e+01	92	37	0	124780544	60	5931
2026-01-04 01:40:52.61	146.49	13.21	-40.0	-41.3	28.0	3.02e+01	92	37	0	126353408	60	6006
2026-01-04 01:40:53.62	146.46	13.32	-39.4	-40.7	28.5	3.02e+01	91	37	0	128450560	60	5632
2026-01-04 01:40:54.64	146.43	13.43	-39.6	-40.9	28.4	3.02e+01	92	37	0	130023424	60	5754
2026-01-04 01:40:55.65	146.41	13.54	-39.9	-41.2	28.2	3.02e+01	90	37	0	132120576	60	5964
2026-01-04 01:40:56.66	146.38	13.65	-39.7	-41.0	28.3	3.02e+01	91	37	0	134217728	60	5810
2026-01-04 01:40:57.67	146.36	13.76	-39.6	-40.8	28.4	3.02e+01	92	37	0	135790592	60	5710
2026-01-04 01:40:58.68	146.33	13.87	-39.3	-40.5	28.5	3.02e+01	92	37	0	137887744	58	6186
2026-01-04 01:40:59.69	146.30	13.99	-39.6	-40.8	28.3	3.02e+01	90	37	0	139984896	58	6417
2026-01-04 01:41:00.70	146.27	14.10	-39.3	-40.6	28.6	3.02e+01	91	37	0	141557760	58	6213
2026-01-04 01:41:01.71	146.25	14.21	-39.3	-40.6	28.6	3.02e+01	91	37	0	143654912	58	6225
2026-01-04 01:41:02.72	146.22	14.33	-39.5	-40.7	28.5	3.02e+01	92	37	0	145227776	58	6336
2026-01-04 01:41:03.73	146.19	14.44	-39.2	-40.5	28.6	3.02e+01	91	37	0	147324928	58	6163
2026-01-04 01:41:04.74	146.16	14.56	-39.4	-40.7	28.4	3.02e+01	92	37	0	149422080	58	6295
2026-01-04 01:41:05.75	146.13	14.67	-39.4	-40.7	28.5	3.02e+01	87	36	0	150994944	58	6301
2026-01-04 01:41:06.76	146.11	14.79	-39.4	-40.6	28.5	3.02e+01	92	37	0	153092096	58	6255
2026-01-04 01:41:07.77	146.08	14.91	-39.4	-40.7	28.5	3.02e+01	92	37	0	154664960	58	6279
2026-01-04 01:41:08.78	146.05	15.03	-39.4	-40.7	28.6	3.02e+01	92	37	0	156762112	58	6282
2026-01-04 01:41:09.80	146.02	15.14	-39.2	-40.4	28.6	3.02e+01	90	37	0	158859264	58	6118
2026-01-04 01:41:10.81	145.99	15.26	-39.3	-40.5	28.6	3.02e+01	92	37	0	160432128	58	6164
2026-01-04 01:41:11.82	145.96	15.38	-39.4	-40.7	28.5	3.02e+01	90	37	0	162529280	58	6297
2026-01-04 01:41:12.83	145.93	15.50	-39.3	-40.5	28.5	3.02e+01	92	37	0	164102144	58	6187
2026-01-04 01:41:13.84	145.90	15.62	-39.7	-40.9	28.4	3.02e+01	92	37	0	166199296	58	6480
2026-01-04 01:41:14.85	145.87	15.75	-39.2	-40.4	28.7	3.02e+01	92	37	0	168296448	58	6115
2026-01-04 01:41:15.86	145.83	15.87	-39.3	-40.5	28.7	3.02e+01	92	37	0	169869312	58	6171
2026-01-04 01:41:16.87	145.80	15.99	-39.1	-40.3	28.8	3.02e+01	92	37	0	171966464	58	6042
2026-01-04 01:41:17.88	145.77	16.11	-39.4	-40.6	28.6	3.02e+01	90	37	0	174063616	58	6268
2026-01-04 01:41:18.89	145.74	16.24	-39.2	-40.5	28.8	3.02e+01	90	37	0	175636480	58	6145
2026-01-04 01:41:19.91	145.71	16.37	-39.1	-40.4	28.8	3.02e+01	90	37	0	177733632	58	6091
2026-01-04 01:41:20.92	145.67	16.49	-39.1	-40.4	28.9	3.02e+01	92	37	0	179306496	58	6067
2026-01-04 01:41:21.93	145.64	16.62	-39.2	-40.4	28.7	3.02e+01	91	37	0	181403648	58	6109
2026-01-04 01:41:22.94	145.61	16.74	-39.1	-40.3	28.8	3.02e+01	92	37	0	183500800	58	6044
2026-01-04 01:41:23.95	145.57	16.87	-39.0	-40.3	28.8	3.02e+01	92	37	0	185073664	58	5999
2026-01-04 01:41:24.96	145.54	17.00	-39.1	-40.3	28.9	3.02e+01	89	37	0	187170816	58	6022
2026-01-04 01:41:25.97	145.50	17.13	-38.9	-40.1	28.9	3.02e+01	92	37	0	188743680	58	5914
2026-01-04 01:41:26.98	145.47	17.26	-39.1	-40.4	28.8	3.02e+01	92	37	0	190840832	58	6067
2026-01-04 01:41:27.99	145.43	17.39	-39.0	-40.3	28.9	3.02e+01	92	37	0	192937984	58	6016
2026-01-04 01:41:29.00	145.40	17.52	-39.0	-40.2	28.9	3.02e+01	92	37	0	194510848	58	5976
2026-01-04 01:41:30.02	145.36	17.66	-38.9	-40.1	29.0	3.02e+01	92	37	0	196608000	58	5875
2026-01-04 01:41:31.03	145.32	17.79	-38.9	-40.2	29.0	3.02e+01	92	37	0	198180864	58	5928
2026-01-04 01:41:32.04	145.29	17.92	-39.0	-40.2	28.9	3.02e+01	90	37	0	200278016	58	5993
2026-01-04 01:41:33.05	145.25	18.06	-38.9	-40.2	29.0	3.02e+01	92	37	0	202375168	58	5940
2026-01-04 01:41:34.06	145.21	18.19	-38.8	-40.1	29.0	3.02e+01	91	37	0	203948032	58	5869
2026-01-04 01:41:35.07	145.18	18.33	-38.9	-40.1	29.1	3.02e+01	92	37	0	206045184	58	5897
2026-01-04 01:41:36.08	145.14	18.47	-38.8	-40.0	29.1	3.02e+01	91	37	0	208142336	58	5800
2026-01-04 01:41:37.09	145.10	18.60	-38.6	-39.9	29.2	3.02e+01	92	37	0	209715200	58	5732
2026-01-04 01:41:38.10	145.06	18.74	-38.9	-40.1	28.9	3.02e+01	90	37	0	211812352	58	5882
2026-01-04 01:41:39.11	145.02	18.88	-38.6	-39.8	29.2	3.02e+01	91	37	0	213385216	58	5717
2026-01-04 01:41:40.13	144.98	19.02	-38.6	-39.8	29.3	3.02e+01	91	37	0	215482368	58	5669
2026-01-04 01:41:41.14	144.94	19.17	-38.7	-40.0	29.1	3.02e+01	92	37	0	217579520	58	5796
2026-01-04 01:41:42.15	144.90	19.31	-39.2	-40.4	28.6	3.02e+01	92	37	0	219152384	58	6129
2026-01-04 01:41:43.16	144.86	19.45	-39.1	-40.3	29.2	3.02e+01	92	37	0	221249536	58	6026
2026-01-04 01:41:44.17	144.82	19.60	-38.6	-39.8	29.2	3.02e+01	87	37	0	222822400	58	5712
2026-01-04 01:41:45.18	144.77	19.74	-38.5	-39.7	29.4	3.02e+01	92	37	0	224919552	58	5632
2026-01-04 01:41:46.19	144.73	19.89	-38.6	-39.8	29.3	3.02e+01	91	37	0	227016704	58	5668
2026-01-04 01:41:47.20	144.69	20.03	-38.5	-39.7	29.4	3.02e+01	90	37	0	228589568	58	5605
2026-01-04 01:41:48.21	144.65	20.18	-38.5	-39.7	29.3	3.02e+01	92	37	0	230686720	58	5608
2026-01-04 01:41:49.22	144.60	20.33	-38.6	-39.8	29.3	3.02e+01	91	37	0	232783872	58	5672
2026-01-04 01:41:50.24	144.56	20.48	-38.8	-40.0	29.3	3.02e+01	92	37	0	234356736	58	5856
2026-01-04 01:41:51.25	144.51	20.63	-38.7	-39.9	29.3	3.02e+01	91	37	0	236453888	58	5773
2026-01-04 01:41:52.26	144.47	20.78	-38.6	-39.8	29.4	3.02e+01	92	37	0	238026752	58	5722
2026-01-04 01:41:53.27	144.42	20.93	-38.6	-39.8	29.3	3.02e+01	92	37	0	240123904	58	5698
2026-01-04 01:41:54.28	144.37	21.09	-38.8	-40.0	29.3	3.02e+01	92	37	0	242221056	58	5806
2026-01-04 01:41:55.29	144.33	21.24	-38.6	-39.8	29.2	3.02e+01	92	37	0	243793920	58	5724
2026-01-04 01:41:56.30	144.28	21.40	-39.1	-40.3	28.8	3.02e+01	95	36	0	245891072	58	6017
2026-01-04 01:41:57.31	144.23	21.55	-38.8	-40.0	29.1	3.02e+01	92	37	0	247988224	58	5808
2026-01-04 01:41:58.32	144.18	21.71	-38.8	-40.0	29.0	3.02e+01	92	37	0	249561088	58	5851
2026-01-04 01:41:59.33	144.13	21.87	-38.5	-39.7	29.4	3.02e+01	92	37	0	251658240	58	5628
2026-01-04 01:42:00.34	144.08	22.03	-38.5	-39.7	29.4	3.02e+01	89	37	0	253231104	58	5627
2026-01-04 01:42:01.35	144.03	22.19	-38.5	-39.7	29.4	3.02e+01	92	37	0	255328256	58	5622
2026-01-04 01:42:02.36	143.98	22.35	-38.5	-39.7	29.4	3.02e+01	92	37	0	257425408	58	5616
2026-01-04 01:42:03.38	143.93	22.52	-38.5	-39.8	29.3	3.02e+01	85	37	0	258998272	58	5674
2026-01-04 01:42:04.39	143.88	22.68	-38.6	-39.8	29.3	3.02e+01	90	37	0	261095424	58	5703
2026-01-04 01:42:05.40	143.83	22.85	-39.2	-40.4	28.6	3.02e+01	91	37	0	262668288	58	6120
2026-01-04 01:42:06.41	143.77	23.01	-38.6	-39.9	29.3	3.02e+01	91	37	0	264765440	58	5726
2026-01-04 01:42:07.42	143.72	23.18	-38.7	-39.9	29.4	3.02e+01	92	37	0	266862592	58	5772
2026-01-04 01:42:08.43	143.66	23.35	-38.6	-39.8	29.4	3.02e+01	92	37	0	268435456	58	5667
2026-01-04 01:42:09.44	143.61	23.52	-38.5	-39.7	29.5	3.02e+01	91	37	0	270532608	58	5624
2026-01-04 01:42:10.45	143.55	23.69	-38.6	-39.7	29.3	3.02e+01	90	37	0	272629760	58	5657
2026-01-04 01:42:11.46	143.50	23.86	-38.5	-39.7	29.3	3.02e+01	91	37	0	274202624	58	5625
2026-01-04 01:42:12.47	143.44	24.04	-38.6	-39.8	29.4	3.02e+01	91	37	0	276299776	58	5689
2026-01-04 01:42:13.48	143.38	24.21	-38.5	-39.7	29.5	3.02e+01	91	37	0	277872640	58	5609
2026-01-04 01:42:14.49	143.32	24.39	-38.4	-39.6	29.5	3.02e+01	91	37	0	279969792	58	5580
2026-01-04 01:42:15.50	143.26	24.56	-38.4	-39.6	29.5	3.02e+01	92	37	0	282066944	58	5565
2026-01-04 01:42:16.51	143.20	24.74	-38.4	-39.6	29.5	3.02e+01	92	37	0	283639808	58	5593
2026-01-04 01:42:17.53	143.14	24.92	-38.5	-39.7	29.6	3.02e+01	92	37	0	285736960	58	5624
2026-01-04 01:42:18.54	143.08	25.10	-38.9	-40.2	28.8	3.02e+01	89	37	0	287834112	58	5937
2026-01-04 01:42:19.55	143.02	25.29	-38.7	-40.0	29.3	3.02e+01	85	37	0	289406976	58	5793
2026-01-04 01:42:20.56	142.96	25.47	-38.4	-39.6	29.6	3.02e+01	91	37	0	291504128	58	5579
2026-01-04 01:42:21.57	142.89	25.65	-38.7	-39.9	29.3	3.02e+01	90	37	0	293076992	58	5777
2026-01-04 01:42:22.58	142.83	25.84	-38.7	-39.9	28.9	3.02e+01	91	37	0	295174144	58	5734
2026-01-04 01:42:23.59	142.76	26.03	-38.7	-39.9	29.5	3.02e+01	91	37	0	297271296	58	5734
2026-01-04 01:42:24.60	142.69	26.22	-38.7	-39.9	29.5	3.02e+01	90	37	0	298844160	58	5744
2026-01-04 01:42:25.61	142.63	26.41	-38.7	-40.0	29.4	3.02e+01	90	37	0	300941312	58	5796
2026-01-04 01:42:26.62	142.56	26.60	-38.7	-39.9	29.3	3.02e+01	89	37	0	302514176	58	5744
2026-01-04 01:42:27.63	142.49	26.79	-38.9	-40.1	29.2	3.02e+01	91	37	0	304611328	58	5895
2026-01-04 01:42:28.64	142.42	26.99	-38.8	-40.0	29.4	3.02e+01	92	37	0	306708480	58	5812
2026-01-04 01:42:29.65	142.35	27.18	-39.2	-40.4	29.1	3.02e+01	92	37	0	308281344	58	6101
2026-01-04 01:42:30.66	142.28	27.38	-39.2	-40.4	28.9	3.02e+01	92	37	0	310378496	58	6120
2026-01-04 01:42:31.67	142.20	27.58	-38.7	-40.0	29.4	3.02e+01	92	37	0	311951360	58	5799
2026-01-04 01:42:32.69	142.13	27.78	-38.9	-40.1	29.3	3.02e+01	92	37	0	314048512	58	5909
2026-01-04 01:42:33.70	142.05	27.99	-38.6	-39.8	29.5	3.02e+01	92	37	0	316145664	58	5721
2026-01-04 01:42:34.71	141.98	28.19	-38.8	-40.0	29.4	3.02e+01	92	37	0	317718528	58	5817
2026-01-04 01:42:35.72	141.90	28.39	-38.7	-40.0	29.5	3.02e+01	92	37	0	319815680	58	5800
2026-01-04 01:42:36.73	141.82	28.60	-39.0	-40.2	29.0	3.02e+01	90	37	0	321388544	58	5988
2026-01-04 01:42:37.74	141.74	28.81	-38.7	-39.9	29.5	3.02e+01	92	37	0	323485696	58	5738
2026-01-04 01:42:38.75	141.66	29.02	-38.7	-39.9	29.6	3.02e+01	92	37	0	325582848	58	5757
2026-01-04 01:42:39.76	141.58	29.23	-38.8	-40.0	29.5	3.02e+01	92	37	0	327155712	58	5797
2026-01-04 01:42:40.77	141.50	29.45	-38.6	-39.8	29.3	3.02e+01	91	37	0	329252864	58	5693
2026-01-04 01:42:41.78	141.41	29.66	-38.7	-40.0	29.6	3.02e+01	87	37	0	330825728	58	5796
2026-01-04 01:42:42.79	141.33	29.88	-38.6	-39.8	29.6	3.02e+01	92	37	0	332922880	58	5698
2026-01-04 01:42:43.80	141.24	30.10	-38.7	-39.9	29.6	3.02e+01	92	37	0	335020032	58	5752
2026-01-04 01:42:44.81	141.15	30.32	-40.3	-41.5	28.5	3.02e+01	91	37	0	336592896	58	6939
2026-01-04 01:42:45.83	141.07	30.54	-38.9	-40.1	29.4	3.02e+01	91	37	0	338690048	58	5876
2026-01-04 01:42:46.84	140.97	30.76	-38.7	-39.9	29.5	3.02e+01	91	37	0	340787200	58	5727
2026-01-04 01:42:47.85	140.88	30.99	-38.7	-39.9	29.5	3.02e+01	90	37	0	342360064	58	5774
2026-01-04 01:42:48.86	140.79	31.22	-39.0	-40.2	29.3	3.02e+01	92	37	0	344457216	58	5942
2026-01-04 01:42:49.87	140.70	31.45	-38.7	-39.9	29.5	3.02e+01	92	37	0	346030080	58	5740
2026-01-04 01:42:50.88	140.60	31.68	-38.6	-39.8	29.5	3.02e+01	92	37	0	348127232	58	5708
2026-01-04 01:42:51.89	140.50	31.91	-39.0	-40.2	29.3	3.02e+01	89	37	0	350224384	58	5978
2026-01-04 01:42:52.90	140.40	32.14	-38.8	-40.0	29.4	3.02e+01	89	37	0	351797248	58	5842
2026-01-04 01:42:53.92	140.30	32.38	-38.9	-40.1	29.4	3.02e+01	92	37	0	353894400	58	5877
2026-01-04 01:42:54.93	140.20	32.62	-38.9	-40.2	29.2	3.02e+01	90	37	0	355991552	58	5929
2026-01-04 01:42:55.94	140.10	32.86	-39.0	-40.2	29.1	3.02e+01	91	37	0	357564416	58	5987
2026-01-04 01:42:56.95	139.99	33.10	-39.2	-40.5	28.9	3.02e+01	91	37	0	359661568	58	6148
2026-01-04 01:42:57.96	139.89	33.35	-38.9	-40.1	29.3	3.02e+01	84	37	0	361234432	58	5903
2026-01-04 01:42:58.97	139.78	33.59	-38.7	-39.9	29.3	3.02e+01	91	37	0	363331584	58	5785
2026-01-04 01:42:59.98	139.67	33.84	-38.8	-40.0	29.3	3.02e+01	90	37	0	365428736	58	5820
2026-01-04 01:43:00.99	139.56	34.09	-39.0	-40.2	29.3	3.02e+01	92	37	0	367001600	58	5958
2026-01-04 01:43:02.00	139.44	34.34	-38.9	-40.1	29.2	3.02e+01	92	37	0	369098752	58	5868
2026-01-04 01:43:03.01	139.33	34.60	-39.1	-40.3	29.0	3.02e+01	92	37	0	370671616	58	6050
2026-01-04 01:43:04.02	139.21	34.86	-39.0	-40.2	29.3	3.02e+01	90	37	0	372768768	58	5955
2026-01-04 01:43:05.03	139.09	35.11	-38.8	-40.0	29.3	3.02e+01	92	37	0	374865920	58	5827
2026-01-04 01:43:06.04	138.97	35.37	-38.6	-39.8	29.5	3.02e+01	88	37	0	376438784	58	5682
2026-01-04 01:43:07.05	138.84	35.64	-38.5	-39.7	29.5	3.02e+01	92	37	0	378535936	58	5643
2026-01-04 01:43:08.07	138.72	35.91	-38.5	-39.7	29.6	3.02e+01	89	37	0	380633088	58	5599
2026-01-04 01:43:09.08	138.59	36.17	-38.5	-39.7	29.6	3.02e+01	92	37	0	382205952	58	5616
2026-01-04 01:43:10.09	138.46	36.44	-38.5	-39.7	29.6	3.02e+01	92	37	0	384303104	58	5640
2026-01-04 01:43:11.10	138.32	36.71	-38.5	-39.7	29.6	3.02e+01	91	37	0	385875968	58	5629
2026-01-04 01:43:12.11	138.19	36.99	-38.5	-39.7	29.6	3.02e+01	90	37	0	387973120	58	5635
2026-01-04 01:43:13.12	138.05	37.26	-38.4	-39.6	29.8	3.02e+01	92	37	0	390070272	58	5580
2026-01-04 01:43:14.13	137.91	37.54	-38.4	-39.6	29.7	3.02e+01	91	37	0	391643136	58	5557
2026-01-04 01:43:15.14	137.77	37.82	-38.4	-39.6	29.8	3.02e+01	92	37	0	393740288	56	6213
2026-01-04 01:43:16.15	137.63	38.10	-38.3	-39.5	29.8	3.02e+01	90	37	0	395837440	56	6169
2026-01-04 01:43:17.16	137.48	38.39	-38.2	-39.4	29.9	3.02e+01	92	37	0	397410304	56	6114
2026-01-04 01:43:18.17	137.33	38.68	-38.2	-39.4	29.9	3.02e+01	92	37	0	399507456	56	6070
2026-01-04 01:43:19.18	137.17	38.97	-38.1	-39.3	30.0	3.02e+01	92	37	0	401080320	56	6025
2026-01-04 01:43:20.20	137.02	39.26	-38.2	-39.3	30.0	3.02e+01	92	37	0	403177472	56	6059
2026-01-04 01:43:21.21	136.86	39.56	-38.2	-39.4	30.0	3.02e+01	92	37	0	405274624	56	6096
2026-01-04 01:43:22.22	136.70	39.85	-38.4	-39.6	29.7	3.02e+01	90	37	0	406847488	56	6225
2026-01-04 01:43:23.23	136.53	40.15	-38.4	-39.6	29.7	3.02e+01	92	37	0	408944640	56	6246
2026-01-04 01:43:24.24	136.36	40.45	-38.3	-39.5	29.8	3.02e+01	90	37	0	410517504	56	6164
2026-01-04 01:43:25.25	136.19	40.76	-38.0	-39.2	30.1	3.02e+01	92	37	0	412614656	56	5974
2026-01-04 01:43:26.26	136.02	41.07	-37.8	-39.0	30.2	3.02e+01	92	37	0	414711808	56	5824
2026-01-04 01:43:27.27	135.84	41.37	-38.0	-39.2	30.3	3.02e+01	92	37	0	416284672	56	5927
2026-01-04 01:43:28.28	135.66	41.69	-38.0	-39.2	30.2	3.02e+01	92	37	0	418381824	56	5957
2026-01-04 01:43:29.29	135.47	42.00	-38.0	-39.2	30.2	3.02e+01	92	37	0	420478976	56	5957
2026-01-04 01:43:30.30	135.28	42.32	-38.2	-39.3	29.9	3.02e+01	90	37	0	422051840	56	6050
2026-01-04 01:43:31.31	135.09	42.64	-38.3	-39.5	30.1	3.02e+01	92	37	0	424148992	56	6136
2026-01-04 01:43:32.33	134.89	42.96	-38.2	-39.4	30.0	3.02e+01	90	37	0	425721856	56	6095
2026-01-04 01:43:33.34	134.69	43.28	-38.2	-39.4	30.0	3.02e+01	92	37	0	427819008	56	6120
2026-01-04 01:43:34.35	134.48	43.61	-38.3	-39.5	29.8	3.02e+01	90	37	0	429916160	56	6179
2026-01-04 01:43:35.36	134.27	43.94	-38.3	-39.5	30.0	3.02e+01	92	37	0	431489024	56	6183
2026-01-04 01:43:36.37	134.06	44.27	-39.1	-40.3	29.5	3.02e+01	88	37	0	433586176	56	6754
2026-01-04 01:43:37.38	133.84	44.61	-38.7	-39.9	29.6	3.02e+01	92	37	0	435159040	56	6465
2026-01-04 01:43:38.39	133.61	44.94	-38.3	-39.5	29.9	3.02e+01	91	37	0	437256192	56	6168
2026-01-04 01:43:39.40	133.38	45.28	-38.3	-39.4	30.0	3.02e+01	92	37	0	439353344	56	6125
2026-01-04 01:43:40.41	133.15	45.62	-38.2	-39.4	30.0	3.02e+01	90	37	0	440926208	56	6083
2026-01-04 01:43:41.42	132.91	45.97	-38.2	-39.4	30.0	3.02e+01	91	37	0	443023360	56	6117
2026-01-04 01:43:42.43	132.67	46.31	-38.3	-39.5	29.9	3.02e+01	89	37	0	444596224	56	6174
2026-01-04 01:43:43.44	132.42	46.66	-39.0	-40.2	29.5	3.02e+01	92	37	0	446693376	56	6692
2026-01-04 01:43:44.45	132.16	47.01	-38.7	-39.9	29.6	3.02e+01	90	37	0	448790528	56	6425
2026-01-04 01:43:45.46	131.90	47.37	-38.7	-39.9	29.7	3.02e+01	92	37	0	450363392	56	6454
2026-01-04 01:43:46.47	131.63	47.72	-38.7	-39.8	29.6	3.02e+01	92	37	0	452460544	56	6418
2026-01-04 01:43:47.48	131.35	48.08	-38.8	-40.0	29.5	3.02e+01	92	37	0	454033408	56	6510
2026-01-04 01:43:48.49	131.07	48.44	-38.8	-40.0	29.4	3.02e+01	92	37	0	456130560	56	6565
2026-01-04 01:43:49.50	130.78	48.81	-38.9	-40.1	29.5	3.02e+01	92	37	0	458227712	56	6627
2026-01-04 01:43:50.51	130.49	49.17	-39.4	-40.6	28.8	3.02e+01	90	37	0	459800576	58	6222
2026-01-04 01:43:51.52	130.19	49.54	-39.5	-40.7	29.1	3.02e+01	92	37	0	461897728	58	6334
2026-01-04 01:43:52.54	129.87	49.92	-40.3	-41.6	27.7	3.02e+01	92	37	0	463994880	58	6977
2026-01-04 01:43:53.55	129.55	50.29	-40.0	-41.2	28.6	3.02e+01	91	37	0	465567744	60	5975
2026-01-04 01:43:54.56	129.23	50.66	-40.0	-41.3	28.5	3.02e+01	92	37	0	467664896	60	6030
2026-01-04 01:43:55.57	128.89	51.04	-40.0	-41.3	28.5	3.02e+01	85	37	0	469237760	60	5995
2026-01-04 01:43:56.58	128.55	51.42	-40.0	-41.2	28.6	3.02e+01	92	37	0	471334912	60	5948
2026-01-04 01:43:57.59	128.20	51.80	-40.1	-41.3	28.7	3.02e+01	91	37	0	473432064	60	6062
2026-01-04 01:43:58.60	127.84	52.18	-40.1	-41.4	28.3	3.02e+01	95	37	0	475004928	60	6074
2026-01-04 01:43:59.61	127.46	52.57	-40.5	-41.8	28.1	3.02e+01	91	37	0	477102080	60	6401
2026-01-04 01:44:00.63	127.08	52.96	-40.9	-42.2	27.7	3.02e+01	92	37	0	478674944	60	6673
2026-01-04 01:44:01.64	126.69	53.35	-41.2	-42.5	27.5	3.02e+01	90	37	0	480772096	60	6908
2026-01-04 01:44:02.65	126.28	53.74	-41.0	-42.3	27.7	3.02e+01	92	37	0	482869248	60	6727
2026-01-04 01:44:03.66	125.87	54.13	-40.9	-42.2	27.7	3.02e+01	92	37	0	484442112	60	6676
2026-01-04 01:44:04.67	125.44	54.53	-40.1	-41.3	28.3	3.02e+01	92	37	0	486539264	60	6060
2026-01-04 01:44:05.68	125.01	54.92	-40.2	-41.5	28.2	3.02e+01	92	37	0	488636416	60	6156
2026-01-04 01:44:06.69	124.56	55.32	-40.7	-42.0	27.9	3.02e+01	92	37	0	490209280	60	6526
2026-01-04 01:44:07.70	124.09	55.72	-41.3	-42.6	27.2	3.02e+01	90	37	0	492306432	60	7040
2026-01-04 01:44:08.71	123.62	56.11	-40.9	-42.2	27.6	3.02e+01	92	37	0	493879296	60	6667
2026-01-04 01:44:09.73	123.12	56.52	-40.3	-41.5	28.2	3.02e+01	92	37	0	495976448	60	6197
2026-01-04 01:44:10.74	122.61	56.92	-40.0	-41.2	28.5	3.02e+01	92	37	0	498073600	60	5970
2026-01-04 01:44:11.75	122.09	57.32	-40.1	-41.3	28.3	3.02e+01	90	37	0	499646464	60	6045
2026-01-04 01:44:12.76	121.56	57.72	-40.1	-41.4	28.4	3.02e+01	91	37	0	501743616	60	6080
2026-01-04 01:44:13.77	121.00	58.13	-40.0	-41.3	28.7	3.02e+01	90	37	0	503840768	60	6024
2026-01-04 01:44:14.78	120.43	58.53	-40.4	-41.6	27.9	3.02e+01	87	37	0	505413632	60	6268
2026-01-04 01:44:15.79	119.85	58.93	-40.8	-42.1	27.8	3.02e+01	92	37	0	507510784	60	6632
2026-01-04 01:44:16.80	119.24	59.33	-39.9	-41.2	27.5	3.02e+01	92	37	0	509083648	60	5937
2026-01-04 01:44:17.81	118.61	59.74	-40.4	-41.6	27.9	3.02e+01	90	37	0	511180800	60	6268
2026-01-04 01:44:18.82	117.97	60.14	-40.7	-42.0	27.9	3.02e+01	91	37	0	513277952	60	6503
2026-01-04 01:44:19.83	117.30	60.54	-40.0	-41.3	28.4	3.02e+01	91	37	0	514850816	60	6025
2026-01-04 01:44:20.84	116.62	60.94	-39.7	-40.9	28.7	3.02e+01	91	37	0	516947968	60	5789
2026-01-04 01:44:21.85	115.91	61.34	-39.5	-40.7	28.9	3.02e+01	90	37	0	518520832	60	5641
2026-01-04 01:44:22.86	115.17	61.74	-38.9	-40.1	29.4	3.02e+01	91	37	0	520617984	58	5915
2026-01-04 01:44:23.88	114.41	62.14	-38.7	-39.9	29.7	3.02e+01	91	37	0	522715136	58	5766
2026-01-04 01:44:24.89	113.62	62.53	-39.5	-40.7	28.9	3.02e+01	92	37	0	524288000	58	6338
2026-01-04 01:44:25.90	112.82	62.92	-39.4	-40.6	29.0	3.02e+01	91	37	0	526385152	58	6224
2026-01-04 01:44:26.91	111.98	63.31	-39.0	-40.2	29.3	3.02e+01	91	37	0	528482304	58	5951
2026-01-04 01:44:27.91	111.12	63.69	-39.7	-41.0	28.6	3.02e+01	91	37	0	530055168	58	6500
2026-01-04 01:44:28.93	110.22	64.08	-39.4	-40.6	29.1	3.02e+01	92	37	0	532152320	58	6254
2026-01-04 01:44:29.94	109.30	64.46	-38.7	-39.9	29.4	3.02e+01	90	37	0	533725184	58	5761
2026-01-04 01:44:30.94	108.35	64.83	-39.7	-40.9	28.9	3.02e+01	92	37	0	535822336	58	6465
2026-01-04 01:44:31.96	107.36	65.20	-40.2	-41.5	28.1	3.02e+01	89	37	0	537919488	60	6157
2026-01-04 01:44:32.97	106.34	65.57	-39.9	-41.2	28.7	3.02e+01	91	37	0	539492352	60	5932
2026-01-04 01:44:33.98	105.28	65.93	-38.8	-40.0	29.4	3.02e+01	89	37	0	541589504	58	5852
2026-01-04 01:44:34.99	104.20	66.28	-39.0	-40.2	29.4	3.02e+01	91	37	0	543686656	58	5983
2026-01-04 01:44:36.00	103.07	66.63	-39.4	-40.6	29.0	3.02e+01	90	37	0	545259520	58	6234
2026-01-04 01:44:37.01	101.91	66.96	-39.4	-40.7	28.9	3.02e+01	89	37	0	547356672	58	6284
2026-01-04 01:44:38.02	100.71	67.30	-38.7	-39.9	29.6	3.02e+01	92	37	0	548929536	58	5760
2026-01-04 01:44:39.03	99.47	67.62	-38.6	-39.7	29.7	3.02e+01	91	37	0	551026688	58	5649
2026-01-04 01:44:40.04	98.19	67.94	-38.8	-40.0	29.4	3.02e+01	90	37	0	553123840	58	5807
2026-01-04 01:44:41.05	96.87	68.24	-38.9	-40.1	29.4	3.02e+01	90	37	0	554696704	58	5885
2026-01-04 01:44:42.06	95.52	68.54	-38.3	-39.4	29.9	3.02e+01	90	37	0	556793856	56	6129
2026-01-04 01:44:43.07	94.12	68.82	-38.0	-39.2	30.2	3.02e+01	92	37	0	558366720	56	5936
2026-01-04 01:44:44.09	92.66	69.10	-38.2	-39.4	30.0	3.02e+01	91	37	0	560463872	56	6067
2026-01-04 01:44:45.10	91.19	69.36	-38.2	-39.4	29.9	3.02e+01	91	37	0	562561024	56	6082
2026-01-04 01:44:46.11	89.67	69.61	-38.3	-39.5	29.5	3.02e+01	92	37	0	564133888	56	6187
2026-01-04 01:44:47.12	88.11	69.85	-38.1	-39.3	30.2	3.02e+01	91	37	0	566231040	56	6031
2026-01-04 01:44:48.13	86.51	70.07	-38.2	-39.4	30.0	3.02e+01	89	37	0	567803904	56	6077
2026-01-04 01:44:49.14	84.87	70.28	-38.3	-39.4	30.0	3.02e+01	92	37	0	569901056	56	6129
2026-01-04 01:44:50.15	83.20	70.47	-38.2	-39.4	30.0	3.02e+01	92	37	0	571998208	56	6109
2026-01-04 01:44:51.16	81.49	70.65	-38.2	-39.4	30.1	3.02e+01	93	37	0	573571072	56	6106
2026-01-04 01:44:52.17	79.75	70.81	-38.9	-40.1	29.3	3.02e+01	92	37	0	575668224	56	6623
2026-01-04 01:44:53.19	77.97	70.96	-39.0	-40.2	29.0	3.02e+01	91	37	0	577765376	58	5951
2026-01-04 01:44:54.20	76.17	71.09	-38.9	-40.1	29.2	3.02e+01	92	37	0	579338240	58	5923
2026-01-04 01:44:55.21	74.35	71.20	-39.1	-40.3	29.2	3.02e+01	92	37	0	581435392	58	6042
2026-01-04 01:44:56.22	72.51	71.29	-39.2	-40.4	29.2	3.02e+01	87	37	0	583008256	58	6097
2026-01-04 01:44:57.23	70.65	71.36	-39.0	-40.2	29.1	3.02e+01	90	37	0	585105408	58	5936
2026-01-04 01:44:58.24	68.78	71.42	-39.7	-40.9	28.7	3.02e+01	91	37	0	587202560	58	6483
2026-01-04 01:44:59.25	66.90	71.46	-39.6	-40.9	29.0	3.02e+01	92	37	0	588775424	58	6431
2026-01-04 01:45:00.26	65.01	71.47	-39.5	-40.8	28.8	3.02e+01	91	37	0	590872576	58	6366
2026-01-04 01:45:01.28	63.10	71.47	-40.1	-41.4	28.3	3.02e+01	91	37	0	592445440	58	6825
2026-01-04 01:45:02.29	61.21	71.45	-39.8	-41.0	28.6	3.02e+01	92	37	0	594542592	58	6548
2026-01-04 01:45:03.30	59.33	71.41	-39.9	-41.2	28.5	3.02e+01	92	37	0	596639744	58	6662
2026-01-04 01:45:04.31	57.46	71.35	-39.9	-41.2	28.4	3.02e+01	91	37	0	598212608	58	6702
2026-01-04 01:45:05.32	55.61	71.28	-39.6	-40.8	28.8	3.02e+01	91	37	0	600309760	58	6412
2026-01-04 01:45:06.33	53.77	71.18	-39.8	-41.0	28.5	3.02e+01	92	37	0	601882624	58	6546
2026-01-04 01:45:07.34	51.96	71.07	-40.1	-41.4	28.2	3.02e+01	92	37	0	603979776	58	6817
2026-01-04 01:45:08.35	50.17	70.94	-40.3	-41.5	28.2	3.02e+01	92	37	0	606076928	58	6954
2026-01-04 01:45:09.36	48.40	70.79	-40.5	-41.8	27.8	3.02e+01	91	37	0	607649792	60	6392
2026-01-04 01:45:10.37	46.67	70.62	-40.1	-41.3	28.4	3.02e+01	91	37	0	609746944	60	6055
2026-01-04 01:45:11.38	44.97	70.44	-40.9	-42.2	27.5	3.02e+01	91	37	0	611844096	60	6704
2026-01-04 01:45:12.39	43.31	70.25	-40.9	-42.2	27.5	3.02e+01	92	37	0	613416960	60	6666
2026-01-04 01:45:13.40	41.68	70.04	-41.1	-42.4	27.4	3.02e+01	91	37	0	615514112	60	6850
2026-01-04 01:45:14.42	40.07	69.81	-41.4	-42.8	26.8	3.02e+01	92	37	0	617086976	60	7170
2026-01-04 01:45:15.43	38.52	69.57	-41.9	-43.2	26.7	3.02e+01	91	37	0	619184128	60	7508
2026-01-04 01:45:16.44	37.01	69.32	-41.7	-43.1	27.0	3.02e+01	90	37	0	621281280	60	7389
2026-01-04 01:45:17.45	35.54	69.05	-42.5	-43.9	26.1	3.02e+01	92	37	0	622854144	60	8125
2026-01-04 01:45:18.46	34.10	68.78	-42.3	-43.7	26.2	3.02e+01	90	37	0	624951296	60	7978
2026-01-04 01:45:19.47	32.71	68.49	-42.6	-44.1	25.9	3.02e+01	92	37	0	626524160	60	8293
2026-01-04 01:45:20.48	31.36	68.19	-43.9	-45.5	24.5	3.02e+01	90	37	0	628621312	60	9764
2026-01-04 01:45:21.49	30.05	67.89	-43.2	-44.7	25.3	3.02e+01	92	37	0	630718464	60	8944
2026-01-04 01:45:22.50	28.78	67.57	-43.3	-44.9	25.0	3.02e+01	92	37	0	632291328	60	9105
2026-01-04 01:45:23.51	27.55	67.25	-43.8	-45.4	24.8	3.02e+01	92	37	0	634388480	60	9683
2026-01-04 01:45:24.53	26.35	66.91	-42.9	-44.3	25.8	3.02e+01	92	37	0	636485632	60	8566
2026-01-04 01:45:25.54	25.20	66.57	-43.5	-45.0	25.1	3.02e+01	92	37	0	638058496	60	9242
2026-01-04 01:45:26.55	24.08	66.22	-43.1	-44.6	25.6	3.02e+01	92	37	0	640155648	60	8796
2026-01-04 01:45:27.56	23.00	65.87	-42.5	-43.9	26.0	3.02e+01	91	37	0	641728512	60	8113
2026-01-04 01:45:28.57	21.95	65.51	-42.9	-44.4	25.7	3.02e+01	90	37	0	643825664	60	8634
2026-01-04 01:45:29.58	20.94	65.15	-42.4	-43.8	26.2	3.02e+01	92	37	0	645922816	60	8086
2026-01-04 01:45:30.59	19.96	64.78	-43.0	-44.5	25.6	3.02e+01	92	37	0	647495680	60	8744
2026-01-04 01:45:31.60	19.01	64.40	-42.5	-43.9	26.3	3.02e+01	90	37	0	649592832	60	8143
2026-01-04 01:45:32.61	18.09	64.02	-43.6	-45.2	25.0	3.02e+01	91	37	0	651689984	60	9407
2026-01-04 01:45:33.63	17.20	63.64	-43.2	-44.7	25.3	3.02e+01	92	37	0	653262848	60	8868
2026-01-04 01:45:34.63	16.35	63.26	-43.6	-45.1	25.2	3.02e+01	90	37	0	655360000	60	9371
2026-01-04 01:45:35.64	15.52	62.87	-43.3	-44.7	25.5	3.02e+01	92	37	0	656932864	60	8967
2026-01-04 01:45:36.65	14.71	62.48	-43.1	-44.6	25.4	3.02e+01	90	37	0	659030016	60	8843
2026-01-04 01:45:37.66	13.94	62.08	-43.6	-45.1	25.2	3.02e+01	92	37	0	661127168	60	9344
2026-01-04 01:45:38.67	13.18	61.69	-43.7	-45.2	24.6	3.02e+01	90	37	0	662700032	60	9476
2026-01-04 01:45:39.68	12.46	61.29	-42.4	-43.8	26.4	3.02e+01	92	37	0	664797184	60	7997
2026-01-04 01:45:40.69	11.75	60.89	-42.6	-44.0	26.0	3.02e+01	57	37	0	666370048	60	8253
2026-01-04 01:45:41.70	11.07	60.49	-42.8	-44.3	25.8	3.02e+01	56	37	0	668467200	60	8485
2026-01-04 01:45:42.71	10.40	60.09	-42.2	-43.6	26.3	3.02e+01	46	37	0	670564352	60	7873
2026-01-04 01:45:43.72	9.76	59.69	-43.1	-44.6	25.6	3.02e+01	62	37	0	672137216	60	8820
2026-01-04 01:45:44.73	9.14	59.29	-42.8	-44.2	25.7	3.02e+01	59	37	0	674234368	60	8451
2026-01-04 01:45:45.74	8.54	58.89	-43.3	-44.8	25.2	3.02e+01	58	37	0	676331520	60	9028
2026-01-04 01:45:46.75	7.95	58.49	-43.0	-44.5	25.8	3.02e+01	59	37	0	677904384	60	8691
2026-01-04 01:45:47.77	7.38	58.08	-43.3	-44.9	25.1	3.02e+01	52	37	0	680001536	60	9102
2026-01-04 01:45:48.78	6.83	57.68	-43.4	-44.9	25.2	3.02e+01	61	37	0	681574400	60	9171
2026-01-04 01:45:49.79	6.30	57.28	-43.0	-44.5	25.7	3.02e+01	62	37	0	683671552	60	8670
2026-01-04 01:45:50.80	5.78	56.88	-43.8	-45.3	25.0	3.02e+01	43	37	0	685768704	60	9605
2026-01-04 01:45:51.81	5.28	56.48	-43.1	-44.6	25.5	3.02e+01	60	37	0	687341568	60	8826
2026-01-04 01:45:52.82	4.79	56.08	-42.4	-43.8	26.3	3.02e+01	57	37	0	689438720	60	8069
2026-01-04 01:45:53.83	4.32	55.68	-43.4	-44.9	25.1	3.02e+01	59	37	0	691011584	60	9151
2026-01-04 01:45:54.84	3.86	55.28	-43.1	-44.6	25.7	3.02e+01	63	37	0	693108736	60	8852
2026-01-04 01:45:55.85	3.41	54.89	-42.6	-44.0	26.0	3.02e+01	51	37	0	695205888	60	8267
2026-01-04 01:45:56.86	2.98	54.50	-44.4	-46.1	24.1	3.02e+01	56	37	0	696778752	60	10429
2026-01-04 01:45:57.87	2.55	54.10	-43.8	-45.3	24.9	3.02e+01	59	37	0	698875904	60	9569
2026-01-04 01:45:58.88	2.14	53.71	-43.0	-44.5	25.5	3.02e+01	58	37	0	700973056	60	8680
2026-01-04 01:45:59.89	1.74	53.32	-44.6	-46.3	23.9	3.02e+01	59	37	0	702545920	60	10685
2026-01-04 01:46:00.91	1.35	52.93	-44.3	-46.0	24.2	3.02e+01	46	37	0	704643072	60	10358
2026-01-04 01:46:01.92	0.97	52.55	-43.7	-45.2	24.9	3.02e+01	59	37	0	706215936	60	9467
2026-01-04 01:46:02.93	0.60	52.16	-44.4	-46.0	24.3	3.02e+01	57	37	0	708313088	60	10351
2026-01-04 01:46:03.94	0.24	51.78	-44.7	-46.4	23.9	3.02e+01	46	37	0	710410240	60	10846
2026-01-04 01:46:04.95	359.89	51.40	-44.2	-45.8	24.3	3.02e+01	62	37	0	711983104	60	10179
2026-01-04 01:46:05.96	359.55	51.02	-43.9	-45.4	24.7	3.02e+01	60	37	0	714080256	60	9712
2026-01-04 01:46:06.97	359.21	50.65	-44.9	-46.8	23.4	3.02e+01	58	37	0	715653120	60	11303
2026-01-04 01:46:07.98	358.89	50.28	-44.1	-45.6	24.4	3.02e+01	58	37	0	717750272	60	9949
2026-01-04 01:46:08.99	358.57	49.90	-45.2	-47.0	22.7	3.02e+01	61	37	0	719847424	60	11595
2026-01-04 01:46:10.00	358.26	49.53	-44.5	-46.2	24.2	3.02e+01	61	37	0	721420288	60	10556
2026-01-04 01:46:11.02	357.96	49.16	-44.3	-45.9	24.2	3.02e+01	57	37	0	723517440	60	10259
2026-01-04 01:46:12.03	357.67	48.80	-45.2	-47.0	23.4	3.02e+01	51	37	0	725090304	60	11649
2026-01-04 01:46:13.04	357.38	48.44	-44.3	-45.9	24.2	3.02e+01	61	37	0	727187456	60	10282
2026-01-04 01:46:14.05	357.10	48.08	-43.8	-45.4	24.8	3.02e+01	63	37	0	729284608	60	9668
2026-01-04 01:46:15.06	356.83	47.72	-43.7	-45.3	24.9	3.02e+01	59	37	0	730857472	60	9520
2026-01-04 01:46:16.07	356.56	47.37	-44.0	-45.7	24.4	3.02e+01	61	37	0	732954624	60	10017
2026-01-04 01:46:17.08	356.30	47.01	-43.1	-44.5	25.7	3.02e+01	48	37	0	735051776	60	8760
2026-01-04 01:46:18.09	356.04	46.66	-42.7	-44.1	25.9	3.02e+01	57	37	0	736624640	60	8340
2026-01-04 01:46:19.10	355.79	46.32	-42.9	-44.3	25.7	3.02e+01	62	37	0	738721792	60	8539
2026-01-04 01:46:20.11	355.55	45.97	-42.5	-44.0	26.1	3.02e+01	46	37	0	740294656	60	8195
2026-01-04 01:46:21.13	355.31	45.63	-41.9	-43.3	26.9	3.02e+01	57	37	0	742391808	60	7552
2026-01-04 01:46:22.14	355.08	45.29	-41.6	-42.9	26.9	3.02e+01	51	37	0	744488960	60	7282
2026-01-04 01:46:23.15	354.85	44.95	-42.0	-43.3	26.8	3.02e+01	58	37	0	746061824	60	7623
2026-01-04 01:46:24.16	354.62	44.61	-41.5	-42.8	27.1	3.02e+01	59	37	0	748158976	60	7198
2026-01-04 01:46:25.17	354.41	44.28	-41.1	-42.4	27.5	3.02e+01	58	37	0	749731840	60	6823
2026-01-04 01:46:26.18	354.19	43.95	-40.8	-42.1	27.8	3.02e+01	58	37	0	751828992	60	6640
2026-01-04 01:46:27.19	353.98	43.62	-40.8	-42.1	27.7	3.02e+01	61	37	0	753926144	60	6608
2026-01-04 01:46:28.20	353.78	43.30	-41.1	-42.4	27.2	3.02e+01	56	37	0	755499008	60	6857
2026-01-04 01:46:29.22	353.58	42.97	-40.5	-41.7	27.9	3.02e+01	52	37	0	757596160	60	6344
2026-01-04 01:46:30.23	353.38	42.65	-40.1	-41.3	28.4	3.02e+01	47	37	0	759693312	60	6064
2026-01-04 01:46:31.24	353.19	42.34	-40.7	-42.0	27.9	3.02e+01	57	37	0	761266176	60	6504
2026-01-04 01:46:32.25	353.00	42.02	-40.5	-41.7	28.1	3.02e+01	61	37	0	763363328	60	6324
2026-01-04 01:46:33.26	352.82	41.71	-40.5	-41.8	27.7	3.02e+01	46	37	0	764936192	60	6390
2026-01-04 01:46:34.27	352.63	41.40	-39.8	-41.0	28.4	3.02e+01	59	37	0	767033344	60	5823
2026-01-04 01:46:35.28	352.46	41.09	-39.4	-40.6	29.0	3.02e+01	60	37	0	769130496	60	5538
2026-01-04 01:46:36.29	352.28	40.78	-39.5	-40.7	28.9	3.02e+01	58	37	0	770703360	58	6310
2026-01-04 01:46:37.31	352.11	40.48	-39.6	-40.8	28.9	3.02e+01	60	37	0	772800512	58	6403
2026-01-04 01:46:38.31	351.95	40.18	-38.7	-39.9	29.5	3.02e+01	61	37	0	774373376	58	5788
2026-01-04 01:46:39.33	351.78	39.88	-38.7	-39.9	29.7	3.02e+01	61	37	0	776470528	58	5777
2026-01-04 01:46:40.34	351.62	39.58	-38.3	-39.5	30.1	3.02e+01	59	37	0	778567680	56	6156
2026-01-04 01:46:41.35	351.46	39.29	-38.3	-39.5	30.0	3.02e+01	47	37	0	780140544	56	6148
2026-01-04 01:46:42.36	351.31	39.00	-38.4	-39.6	29.9	3.02e+01	63	37	0	782237696	56	6207
2026-01-04 01:46:43.37	351.15	38.71	-38.0	-39.1	30.1	3.02e+01	60	37	0	784334848	56	5908
2026-01-04 01:46:44.38	351.00	38.43	-37.4	-38.5	30.7	3.02e+01	58	37	0	785907712	54	6173
2026-01-04 01:46:45.39	350.86	38.14	-37.7	-38.9	30.2	3.02e+01	60	37	0	788004864	54	6444
2026-01-04 01:46:46.40	350.71	37.86	-38.4	-39.6	29.9	3.02e+01	53	37	0	789577728	56	6232
2026-01-04 01:46:47.42	350.57	37.58	-38.3	-39.5	30.2	3.02e+01	60	37	0	791674880	56	6178
2026-01-04 01:46:48.43	350.43	37.30	-38.2	-39.4	30.2	3.02e+01	63	37	0	793772032	56	6099
2026-01-04 01:46:49.44	350.29	37.03	-38.3	-39.5	29.9	3.02e+01	46	37	0	795344896	56	6135
2026-01-04 01:46:50.45	350.16	36.75	-38.1	-39.3	30.1	3.02e+01	58	37	0	797442048	56	6009
2026-01-04 01:46:51.46	350.03	36.48	-37.9	-39.0	30.3	3.02e+01	61	37	0	799539200	56	5845
2026-01-04 01:46:52.47	349.90	36.22	-38.4	-39.6	29.9	3.02e+01	59	37	0	801112064	56	6208
2026-01-04 01:46:53.48	349.77	35.95	-39.0	-40.2	29.3	3.02e+01	59	37	0	803209216	56	6714
2026-01-04 01:46:54.49	349.65	35.69	-39.2	-40.4	29.0	3.02e+01	50	37	0	804782080	58	6129
2026-01-04 01:46:55.50	349.52	35.42	-39.1	-40.3	29.6	3.02e+01	58	37	0	806879232	58	6021
2026-01-04 01:46:56.52	349.40	35.16	-39.2	-40.4	29.4	3.02e+01	62	37	0	808976384	58	6110
2026-01-04 01:46:57.53	349.28	34.91	-39.3	-40.5	29.4	3.02e+01	48	37	0	810549248	58	6148
2026-01-04 01:46:58.54	349.17	34.65	-38.9	-40.0	29.6	3.02e+01	60	37	0	812646400	58	5845
2026-01-04 01:46:59.55	349.05	34.40	-39.3	-40.5	29.5	3.02e+01	46	37	0	814219264	58	6172
2026-01-04 01:47:00.56	348.94	34.15	-39.6	-40.8	29.2	3.02e+01	61	37	0	816316416	58	6406
2026-01-04 01:47:01.57	348.83	33.90	-39.0	-40.2	29.4	3.02e+01	58	37	0	818413568	58	5949
2026-01-04 01:47:02.58	348.72	33.65	-38.6	-39.8	29.7	3.02e+01	52	37	0	819986432	58	5667
2026-01-04 01:47:03.59	348.61	33.40	-38.8	-40.0	29.6	3.02e+01	62	37	0	822083584	58	5829
2026-01-04 01:47:04.60	348.50	33.16	-38.9	-40.1	29.7	3.02e+01	59	37	0	824180736	58	5890
2026-01-04 01:47:05.61	348.40	32.92	-38.7	-39.9	29.7	3.02e+01	56	37	0	825753600	58	5757
2026-01-04 01:47:06.62	348.30	32.68	-38.6	-39.8	29.8	3.02e+01	59	37	0	827850752	58	5670
2026-01-04 01:47:07.63	348.19	32.44	-38.9	-40.1	29.4	3.02e+01	45	37	0	829423616	58	5915
2026-01-04 01:47:08.64	348.09	32.21	-38.9	-40.1	29.4	3.02e+01	59	37	0	831520768	58	5899
2026-01-04 01:47:09.65	348.00	31.97	-38.9	-40.0	29.4	3.02e+01	59	37	0	833617920	58	5856
2026-01-04 01:47:10.67	347.90	31.74	-38.8	-40.0	29.6	3.02e+01	44	37	0	835190784	58	5811
2026-01-04 01:47:11.68	347.80	31.51	-38.8	-40.1	29.5	3.02e+01	58	37	0	837287936	58	5867
2026-01-04 01:47:12.69	347.71	31.28	-38.9	-40.1	29.5	3.02e+01	59	37	0	838860800	58	5871
2026-01-04 01:47:13.70	347.62	31.06	-39.0	-40.1	29.6	3.02e+01	59	37	0	840957952	58	5917
2026-01-04 01:47:14.71	347.53	30.83	-39.3	-40.6	29.1	3.02e+01	60	37	0	843055104	58	6235
2026-01-04 01:47:15.72	347.44	30.61	-39.6	-40.9	28.9	3.02e+01	48	37	0	844627968	58	6450
2026-01-04 01:47:16.73	347.35	30.39	-39.6	-40.9	28.8	3.02e+01	60	37	0	846725120	58	6451
2026-01-04 01:47:17.74	347.26	30.17	-39.7	-41.0	28.8	3.02e+01	55	37	0	848822272	58	6508
2026-01-04 01:47:18.75	347.18	29.95	-39.8	-41.0	28.7	3.02e+01	45	37	0	850395136	58	6537
2026-01-04 01:47:19.77	347.09	29.73	-40.0	-41.2	28.6	3.02e+01	58	37	0	852492288	58	6719
2026-01-04 01:47:20.78	347.01	29.52	-39.8	-41.1	28.8	3.02e+01	60	37	0	854065152	58	6590
2026-01-04 01:47:21.79	346.92	29.31	-39.9	-41.1	28.9	3.02e+01	59	37	0	856162304	58	6601
2026-01-04 01:47:22.80	346.84	29.10	-40.0	-41.2	28.7	3.02e+01	60	37	0	858259456	58	6683
2026-01-04 01:47:23.81	346.76	28.89	-40.5	-41.7	28.5	3.02e+01	53	37	0	859832320	60	6303
2026-01-04 01:47:24.82	346.69	28.68	-40.6	-41.8	28.2	3.02e+01	60	37	0	861929472	60	6418
2026-01-04 01:47:25.83	346.61	28.47	-40.8	-42.1	27.9	3.02e+01	62	37	0	863502336	60	6649
2026-01-04 01:47:26.84	346.53	28.27	-41.0	-42.3	27.7	3.02e+01	58	37	0	865599488	60	6801
2026-01-04 01:47:27.85	346.46	28.07	-41.1	-42.4	27.8	3.02e+01	58	37	0	867696640	60	6818
2026-01-04 01:47:28.86	346.38	27.86	-40.8	-42.1	28.1	3.02e+01	45	37	0	869269504	60	6596
2026-01-04 01:47:29.87	346.31	27.66	-40.4	-41.7	28.2	3.02e+01	58	37	0	871366656	60	6301
2026-01-04 01:47:30.89	346.23	27.46	-40.7	-41.9	28.3	3.02e+01	59	37	0	873463808	60	6473
2026-01-04 01:47:31.90	346.16	27.27	-40.9	-42.1	27.9	3.02e+01	45	37	0	875036672	60	6648
2026-01-04 01:47:32.91	346.09	27.07	-40.9	-42.2	27.9	3.02e+01	54	37	0	877133824	60	6691
2026-01-04 01:47:33.92	346.02	26.88	-41.1	-42.4	28.0	3.02e+01	60	37	0	878706688	60	6845
2026-01-04 01:47:34.93	345.95	26.69	-40.6	-41.9	28.2	3.02e+01	60	37	0	880803840	60	6462
2026-01-04 01:47:35.94	345.89	26.49	-40.4	-41.7	28.4	3.02e+01	58	37	0	882900992	60	6291
2026-01-04 01:47:36.95	345.82	26.30	-40.2	-41.4	28.7	3.02e+01	48	37	0	884473856	60	6107
2026-01-04 01:47:37.96	345.75	26.12	-40.0	-41.2	28.8	3.02e+01	59	37	0	886571008	60	5989
2026-01-04 01:47:38.98	345.69	25.93	-40.0	-41.2	29.0	3.02e+01	62	37	0	888143872	60	5948
2026-01-04 01:47:39.99	345.62	25.74	-40.2	-41.4	28.8	3.02e+01	50	37	0	890241024	60	6127
2026-01-04 01:47:41.00	345.56	25.56	-40.2	-41.5	28.8	3.02e+01	60	37	0	892338176	60	6169
2026-01-04 01:47:42.01	345.50	25.38	-39.9	-41.2	28.9	3.02e+01	60	37	0	893911040	60	5937
2026-01-04 01:47:43.02	345.44	25.19	-39.6	-40.9	29.0	3.02e+01	61	37	0	896008192	60	5732
2026-01-04 01:47:44.03	345.37	25.01	-39.8	-41.0	29.1	3.02e+01	63	37	0	897581056	60	5838
2026-01-04 01:47:45.04	345.31	24.83	-39.9	-41.1	29.1	3.02e+01	59	37	0	899678208	60	5905
2026-01-04 01:47:46.05	345.25	24.66	-39.2	-40.4	29.3	3.02e+01	59	37	0	901775360	58	6115
2026-01-04 01:47:47.06	345.20	24.48	-39.2	-40.4	29.6	3.02e+01	60	37	0	903348224	58	6111
2026-01-04 01:47:48.08	345.14	24.30	-39.0	-40.2	29.5	3.02e+01	47	37	0	905445376	58	5978
2026-01-04 01:47:49.09	345.08	24.13	-39.2	-40.3	29.5	3.02e+01	59	37	0	907542528	58	6060
2026-01-04 01:47:50.10	345.02	23.96	-38.7	-39.9	29.8	3.02e+01	63	37	0	909115392	58	5744
2026-01-04 01:47:51.11	344.97	23.79	-38.5	-39.7	30.0	3.02e+01	60	37	0	911212544	58	5631
2026-01-04 01:47:52.12	344.91	23.62	-38.6	-39.7	30.0	3.02e+01	58	37	0	912785408	58	5646
2026-01-04 01:47:53.13	344.86	23.45	-38.5	-39.6	30.0	3.02e+01	47	37	0	914882560	58	5592
2026-01-04 01:47:54.14	344.80	23.28	-38.7	-39.9	29.9	3.02e+01	55	37	0	916979712	58	5734
2026-01-04 01:47:55.15	344.75	23.11	-38.5	-39.7	30.0	3.02e+01	59	37	0	918552576	58	5610
2026-01-04 01:47:56.16	344.70	22.95	-38.7	-39.9	30.1	3.02e+01	44	37	0	920649728	58	5738
2026-01-04 01:47:57.17	344.64	22.78	-38.4	-39.6	30.0	3.02e+01	57	37	0	922222592	58	5554
2026-01-04 01:47:58.18	344.59	22.62	-38.7	-39.9	29.9	3.02e+01	46	37	0	924319744	58	5747
2026-01-04 01:47:59.20	344.54	22.45	-38.5	-39.7	30.1	3.02e+01	59	37	0	926416896	58	5641
2026-01-04 01:48:00.20	344.49	22.29	-38.7	-39.9	30.0	3.02e+01	58	37	0	927989760	58	5735
2026-01-04 01:48:01.21	344.44	22.13	-38.8	-40.0	29.9	3.02e+01	52	37	0	930086912	58	5799
2026-01-04 01:48:02.22	344.39	21.98	-38.6	-39.8	29.9	3.02e+01	58	37	0	932184064	58	5687
2026-01-04 01:48:03.23	344.34	21.82	-38.7	-39.9	30.0	3.02e+01	53	37	0	933756928	58	5729
2026-01-04 01:48:04.24	344.30	21.66	-38.6	-39.8	29.9	3.02e+01	58	37	0	935854080	58	5687
2026-01-04 01:48:05.25	344.25	21.50	-38.6	-39.8	29.8	3.02e+01	56	37	0	937426944	58	5693
2026-01-04 01:48:06.27	344.20	21.35	-38.5	-39.7	30.0	3.02e+01	45	37	0	939524096	56	6278
2026-01-04 01:48:07.28	344.16	21.19	-38.3	-39.5	30.1	3.02e+01	60	37	0	941621248	56	6186
2026-01-04 01:48:08.29	344.11	21.04	-38.2	-39.4	30.1	3.02e+01	57	37	0	943194112	56	6079
2026-01-04 01:48:09.30	344.06	20.89	-38.4	-39.6	30.0	3.02e+01	44	37	0	945291264	56	6206
2026-01-04 01:48:10.31	344.02	20.74	-38.4	-39.6	30.1	3.02e+01	60	37	0	946864128	56	6226
2026-01-04 01:48:11.32	343.98	20.59	-38.7	-39.9	30.1	3.02e+01	60	37	0	948961280	56	6425
2026-01-04 01:48:12.33	343.93	20.44	-38.9	-40.1	29.8	3.02e+01	59	37	0	951058432	56	6609
2026-01-04 01:48:13.34	343.89	20.29	-38.6	-39.8	29.9	3.02e+01	63	37	0	952631296	56	6390
2026-01-04 01:48:14.35	343.85	20.14	-38.8	-40.0	29.9	3.02e+01	59	37	0	954728448	56	6516
2026-01-04 01:48:15.37	343.80	20.00	-39.7	-40.9	28.8	3.02e+01	61	37	0	956825600	58	6486
2026-01-04 01:48:16.38	343.76	19.85	-39.1	-40.3	29.9	3.02e+01	60	37	0	958398464	58	6019
2026-01-04 01:48:17.39	343.72	19.71	-39.0	-40.1	29.9	3.02e+01	48	37	0	960495616	58	5909
2026-01-04 01:48:18.40	343.68	19.56	-39.3	-40.4	29.8	3.02e+01	62	37	0	962068480	58	6131
2026-01-04 01:48:19.41	343.64	19.42	-39.0	-40.2	29.8	3.02e+01	60	37	0	964165632	58	5931
2026-01-04 01:48:20.42	343.60	19.28	-39.3	-40.5	30.0	3.02e+01	62	37	0	966262784	58	6171
2026-01-04 01:48:21.43	343.56	19.14	-39.0	-40.2	29.6	3.02e+01	61	37	0	967835648	58	5971
2026-01-04 01:48:22.44	343.52	19.00	-39.4	-40.6	29.4	3.02e+01	46	37	0	969932800	58	6264
2026-01-04 01:48:23.46	343.48	18.86	-39.7	-40.9	29.3	3.02e+01	62	37	0	972029952	58	6491
2026-01-04 01:48:24.47	343.44	18.72	-39.9	-41.2	29.3	3.02e+01	52	37	0	973602816	58	6659
2026-01-04 01:48:25.48	343.40	18.58	-39.8	-41.1	29.3	3.02e+01	47	37	0	975699968	58	6587
2026-01-04 01:48:26.49	343.36	18.45	-39.7	-40.9	29.3	3.02e+01	59	37	0	977272832	58	6451
2026-01-04 01:48:27.50	343.33	18.31	-39.8	-41.0	29.2	3.02e+01	50	37	0	979369984	58	6523
2026-01-04 01:48:28.51	343.29	18.17	-39.6	-40.9	29.2	3.02e+01	57	37	0	981467136	58	6430
2026-01-04 01:48:29.52	343.25	18.04	-39.3	-40.5	29.2	3.02e+01	58	37	0	983040000	58	6172
2026-01-04 01:48:30.53	343.22	17.91	-39.5	-40.8	29.2	3.02e+01	57	37	0	985137152	58	6361
2026-01-04 01:48:31.54	343.18	17.77	-39.8	-41.0	29.1	3.02e+01	60	37	0	986710016	58	6556
2026-01-04 01:48:32.55	343.15	17.64	-39.6	-40.8	29.0	3.02e+01	59	37	0	988807168	58	6413
2026-01-04 01:48:33.56	343.11	17.51	-40.5	-41.7	28.8	3.02e+01	59	37	0	990904320	60	6345
2026-01-04 01:48:34.58	343.08	17.38	-40.3	-41.5	28.4	3.02e+01	61	37	0	992477184	60	6179
2026-01-04 01:48:35.59	343.04	17.25	-40.1	-41.3	29.0	3.02e+01	52	37	0	994574336	60	6045
2026-01-04 01:48:36.60	343.01	17.12	-39.6	-40.8	29.2	3.02e+01	63	37	0	996671488	60	5699
2026-01-04 01:48:37.61	342.97	16.99	-39.6	-40.9	29.2	3.02e+01	61	37	0	998244352	60	5732
2026-01-04 01:48:38.62	342.94	16.87	-39.7	-40.9	29.2	3.02e+01	48	37	0	1000341504	60	5784
2026-01-04 01:48:39.63	342.91	16.74	-39.8	-41.0	28.9	3.02e+01	59	37	0	1001914368	60	5821
2026-01-04 01:48:40.64	342.88	16.61	-39.9	-41.1	28.7	3.02e+01	54	37	0	1004011520	60	5890
2026-01-04 01:48:41.65	342.84	16.49	-39.6	-40.8	29.1	3.02e+01	61	37	0	1006108672	58	6376
2026-01-04 01:48:42.67	342.81	16.36	-39.6	-40.9	29.0	3.02e+01	62	37	0	1007681536	58	6431
2026-01-04 01:48:43.68	342.78	16.24	-39.6	-40.8	29.0	3.02e+01	47	37	0	1009778688	58	6403
2026-01-04 01:48:44.69	342.75	16.11	-39.4	-40.6	28.9	3.02e+01	57	37	0	1011875840	58	6257
2026-01-04 01:48:45.70	342.72	15.99	-39.4	-40.6	28.9	3.02e+01	60	37	0	1013448704	58	6260
2026-01-04 01:48:46.71	342.69	15.87	-39.5	-40.7	28.8	3.02e+01	45	37	0	1015545856	58	6337
2026-01-04 01:48:47.72	342.66	15.75	-39.5	-40.7	28.8	3.02e+01	58	37	0	1017118720	58	6326
2026-01-04 01:48:48.73	342.63	15.63	-39.5	-40.8	28.8	3.02e+01	57	37	0	1019215872	58	6355
2026-01-04 01:48:49.74	342.60	15.51	-39.4	-40.6	28.8	3.02e+01	61	37	0	1021313024	58	6274
2026-01-04 01:48:50.75	342.57	15.39	-39.5	-40.8	28.8	3.02e+01	58	37	0	1022885888	58	6376
2026-01-04 01:48:51.76	342.54	15.27	-39.4	-40.7	28.9	3.02e+01	49	37	0	1024983040	58	6283
2026-01-04 01:48:52.78	342.51	15.15	-39.3	-40.5	29.0	3.02e+01	58	37	0	1026555904	58	6185
2026-01-04 01:48:53.79	342.48	15.03	-39.4	-40.6	29.1	3.02e+01	58	37	0	1028653056	58	6255
2026-01-04 01:48:54.80	342.45	14.92	-39.5	-40.7	28.8	3.02e+01	45	37	0	1030750208	58	6345
2026-01-04 01:48:55.81	342.42	14.80	-39.2	-40.5	29.1	3.02e+01	60	37	0	1032323072	58	6146
2026-01-04 01:48:56.82	342.39	14.69	-39.2	-40.4	29.1	3.02e+01	59	37	0	1034420224	58	6104
2026-01-04 01:48:57.83	342.37	14.57	-39.2	-40.4	29.1	3.02e+01	62	37	0	1035993088	58	6129
2026-01-04 01:48:58.84	342.34	14.46	-39.2	-40.5	29.0	3.02e+01	62	37	0	1038090240	58	6150
2026-01-04 01:48:59.85	342.31	14.34	-39.2	-40.4	29.0	3.02e+01	43	37	0	1040187392	58	6134
2026-01-04 01:49:00.86	342.29	14.23	-39.1	-40.3	29.2	3.02e+01	62	37	0	1041760256	58	6039
2026-01-04 01:49:01.88	342.26	14.12	-39.1	-40.3	29.2	3.02e+01	61	37	0	1043857408	58	6044
2026-01-04 01:49:02.89	342.23	14.00	-39.3	-40.5	29.0	3.02e+01	55	37	0	1045954560	58	6167
2026-01-04 01:49:03.90	342.21	13.89	-39.1	-40.3	29.1	3.02e+01	60	37	0	1047527424	58	5999
2026-01-04 01:49:04.91	342.18	13.78	-39.0	-40.2	29.3	3.02e+01	45	37	0	1049624576	58	5979
2026-01-04 01:49:05.92	342.15	13.67	-39.1	-40.3	29.3	3.02e+01	57	37	0	1051197440	58	6019
2026-01-04 01:49:06.93	342.13	13.56	-39.3	-40.5	29.3	3.02e+01	60	37	0	1053294592	58	6183
2026-01-04 01:49:07.94	342.10	13.45	-39.4	-40.5	29.4	3.02e+01	45	37	0	1055391744	58	6197
2026-01-04 01:49:08.95	342.08	13.34	-39.2	-40.4	29.4	3.02e+01	57	37	0	1056964608	58	6067
2026-01-04 01:49:09.96	342.05	13.24	-39.0	-40.2	29.5	3.02e+01	58	37	0	1059061760	58	5935
2026-01-04 01:49:10.97	342.03	13.13	-39.3	-40.5	29.3	3.02e+01	63	37	0	1060634624	58	6147
2026-01-04 01:49:11.98	342.01	13.02	-39.4	-40.6	29.3	3.02e+01	59	37	0	1062731776	58	6267
2026-01-04 01:49:12.99	341.98	12.91	-39.1	-40.3	29.3	3.02e+01	59	37	0	1064828928	58	6039
2026-01-04 01:49:14.00	341.96	12.81	-39.3	-40.5	29.3	3.02e+01	60	37	0	1066401792	58	6182
2026-01-04 01:49:15.01	341.93	12.70	-39.3	-40.5	29.4	3.02e+01	57	37	0	1068498944	58	6180
2026-01-04 01:49:16.03	341.91	12.60	-39.2	-40.4	29.3	3.02e+01	51	37	0	1070071808	58	6123
2026-01-04 01:49:17.04	341.89	12.49	-39.1	-40.3	29.3	3.02e+01	61	37	0	1072168960	58	6007
2026-01-04 01:49:18.05	341.86	12.39	-39.0	-40.2	29.3	3.02e+01	59	37	0	1074266112	58	5978
2026-01-04 01:49:19.06	341.84	12.28	-39.1	-40.3	29.3	3.02e+01	58	37	0	1075838976	58	6019
2026-01-04 01:49:20.07	341.82	12.18	-39.0	-40.2	29.3	3.02e+01	57	37	0	1077936128	58	5959
2026-01-04 01:49:21.08	341.80	12.08	-39.0	-40.2	29.2	3.02e+01	57	37	0	1080033280	58	5965
2026-01-04 01:49:22.09	341.77	11.98	-39.4	-40.6	29.1	3.02e+01	59	37	0	1081606144	58	6232
2026-01-04 01:49:23.10	341.75	11.87	-39.2	-40.4	29.2	3.02e+01	60	37	0	1083703296	58	6071
2026-01-04 01:49:24.12	341.73	11.77	-39.1	-40.3	29.2	3.02e+01	48	37	0	1085276160	58	6054
2026-01-04 01:49:25.13	341.71	11.67	-39.2	-40.4	29.3	3.02e+01	62	37	0	1087373312	58	6085
2026-01-04 01:49:26.14	341.69	11.57	-39.1	-40.4	29.3	3.02e+01	56	37	0	1089470464	58	6073
2026-01-04 01:49:27.15	341.67	11.47	-39.1	-40.4	29.2	3.02e+01	60	37	0	1091043328	58	6074
2026-01-04 01:49:28.16	341.64	11.37	-39.1	-40.3	29.2	3.02e+01	57	37	0	1093140480	58	6031
2026-01-04 01:49:29.17	341.62	11.27	-39.1	-40.3	29.2	3.02e+01	54	37	0	1094713344	58	6022
2026-01-04 01:49:30.18	341.60	11.17	-39.2	-40.4	29.1	3.02e+01	58	37	0	1096810496	58	6095
2026-01-04 01:49:31.19	341.58	11.08	-39.3	-40.5	29.0	3.02e+01	59	37	0	1098907648	58	6202
2026-01-04 01:49:32.20	341.56	10.98	-39.4	-40.6	29.1	3.02e+01	57	37	0	1100480512	58	6272
2026-01-04 01:49:33.21	341.54	10.88	-39.6	-40.8	28.7	3.02e+01	58	37	0	1102577664	58	6419
2026-01-04 01:49:34.22	341.52	10.78	-39.5	-40.7	29.0	3.02e+01	51	37	0	1104674816	58	6334
2026-01-04 01:49:35.23	341.50	10.69	-39.6	-40.9	28.9	3.02e+01	59	37	0	1106247680	58	6427
2026-01-04 01:49:36.24	341.48	10.59	-39.6	-40.8	29.0	3.02e+01	58	37	0	1108344832	58	6405
2026-01-04 01:49:37.25	341.46	10.50	-39.4	-40.7	29.0	3.02e+01	48	37	0	1109917696	58	6285
2026-01-04 01:49:38.27	341.44	10.40	-39.8	-41.0	28.9	3.02e+01	57	37	0	1112014848	58	6543
2026-01-04 01:49:39.28	341.42	10.30	-39.6	-40.9	29.0	3.02e+01	60	37	0	1114112000	58	6444
