passes_logs/2026/01/04/R4.6S_Anadyr_2ch/R4.6S_Anadyr_2ch__20260104_031612_AQUA_rec.log

#Pass ID: 20260104_031612_AQUA
#Satellite: AQUA
#Configuration: AQUA
#almurnet v.1.7.20251203
#Start time: 2026-01-04 03:16:14

#Version: 2.2.20231116
#Station: R4.6S_Anadyr_2ch
#Location: 177.4865 lon 64.73178 lat
#TLE: 1 27424U 02022A   25351.00450321  .00000925  00000+0  19503-3 0  9992
#TLE: 2 27424  98.4041 311.9529 0001248 113.7180 322.1616 14.61819266256652

#Time	Az	El	Level	Level2	SNR	BER	BlckErr	Temp	State	Recorded	gain1	gain2
2026-01-04 03:16:14.34	192.44	0.10	-54.1	-69.3	3.5	1.51e+00	0	34	0	0	60	141527
2026-01-04 03:16:15.35	192.49	0.15	-55.0	-72.9	3.5	3.02e+01	0	35	104	0	60	228058
2026-01-04 03:16:16.36	192.54	0.21	-54.5	-72.3	3.5	3.02e+01	0	35	104	0	60	214568
2026-01-04 03:16:17.37	192.60	0.27	-55.0	-72.9	3.5	3.02e+01	0	35	104	0	60	228946
2026-01-04 03:16:18.38	192.65	0.33	-55.4	-73.3	3.5	3.02e+01	0	35	104	0	60	239304
2026-01-04 03:16:19.39	192.70	0.39	-55.9	-73.7	3.6	3.02e+01	0	35	104	0	60	252687
2026-01-04 03:16:20.40	192.75	0.45	-54.7	-72.7	3.5	3.02e+01	0	35	104	0	60	223314
2026-01-04 03:16:21.41	192.80	0.51	-55.2	-73.1	3.5	3.02e+01	0	35	104	0	60	233889
2026-01-04 03:16:22.43	192.86	0.57	-54.9	-72.8	3.5	3.02e+01	0	35	104	0	60	227239
2026-01-04 03:16:23.44	192.91	0.63	-54.8	-72.6	3.5	3.02e+01	0	35	104	0	60	222523
2026-01-04 03:16:24.45	192.96	0.69	-54.5	-72.3	3.5	3.02e+01	0	35	104	0	60	214936
2026-01-04 03:16:25.46	193.02	0.75	-54.2	-72.1	3.5	3.02e+01	0	35	104	0	60	209482
2026-01-04 03:16:26.47	193.07	0.81	-55.4	-73.3	3.5	3.02e+01	0	35	104	0	60	240906
2026-01-04 03:16:27.48	193.12	0.87	-55.4	-73.3	3.5	3.02e+01	0	35	104	0	60	239016
2026-01-04 03:16:28.49	193.18	0.93	-55.6	-73.5	3.5	3.02e+01	0	35	104	0	60	245003
2026-01-04 03:16:29.50	193.23	0.99	-55.4	-73.3	3.5	3.02e+01	0	35	104	0	60	239597
2026-01-04 03:16:30.51	193.29	1.05	-55.1	-73.0	3.5	3.02e+01	0	35	104	0	60	231598
2026-01-04 03:16:31.52	193.34	1.11	-55.6	-73.4	3.5	3.02e+01	0	35	104	0	60	243536
2026-01-04 03:16:32.53	193.40	1.17	-55.5	-73.4	3.5	3.02e+01	0	35	104	0	60	242455
2026-01-04 03:16:33.55	193.45	1.23	-55.4	-73.2	3.5	3.02e+01	0	35	104	0	60	238559
2026-01-04 03:16:34.56	193.51	1.29	-55.0	-72.9	3.5	3.02e+01	0	35	104	0	60	229299
2026-01-04 03:16:35.57	193.56	1.35	-54.4	-72.3	3.5	3.02e+01	0	35	104	0	60	212795
2026-01-04 03:16:36.58	193.62	1.41	-54.7	-72.5	3.5	3.02e+01	0	36	104	0	60	219360
2026-01-04 03:16:37.59	193.68	1.48	-54.8	-72.6	3.5	3.02e+01	0	35	104	0	60	222619
2026-01-04 03:16:38.60	193.73	1.54	-54.4	-72.4	3.5	3.02e+01	0	35	104	0	60	216025
2026-01-04 03:16:39.61	193.79	1.60	-54.3	-72.2	3.5	3.02e+01	0	36	104	0	60	212521
2026-01-04 03:16:40.62	193.85	1.66	-54.8	-72.7	3.5	3.02e+01	0	36	104	0	60	223655
2026-01-04 03:16:41.63	193.90	1.72	-55.4	-73.3	3.5	3.02e+01	0	36	104	0	60	239224
2026-01-04 03:16:42.65	193.96	1.79	-55.0	-72.8	3.5	3.02e+01	0	35	104	0	60	226990
2026-01-04 03:16:43.66	194.02	1.85	-55.0	-72.9	3.5	3.02e+01	0	36	104	0	60	228403
2026-01-04 03:16:44.67	194.08	1.91	-54.9	-72.7	3.5	3.02e+01	0	36	104	0	60	224657
2026-01-04 03:16:45.68	194.13	1.97	-54.6	-72.5	3.5	3.02e+01	0	36	104	0	60	219053
2026-01-04 03:16:46.69	194.19	2.03	-53.8	-71.7	3.5	3.02e+01	0	36	104	0	60	199531
2026-01-04 03:16:47.70	194.25	2.10	-54.1	-71.9	3.5	3.02e+01	0	36	104	0	60	205483
2026-01-04 03:16:48.71	194.31	2.16	-54.5	-72.3	3.5	3.02e+01	0	36	104	0	60	214467
2026-01-04 03:16:49.72	194.37	2.22	-54.5	-72.3	3.5	3.02e+01	0	36	104	0	60	213792
2026-01-04 03:16:50.73	194.43	2.28	-55.3	-73.2	3.5	3.02e+01	0	36	104	0	60	236499
2026-01-04 03:16:51.75	194.49	2.35	-54.9	-72.8	3.5	3.02e+01	0	36	104	0	60	225464
2026-01-04 03:16:52.76	194.55	2.41	-54.9	-72.8	3.5	3.02e+01	0	36	104	0	60	226685
2026-01-04 03:16:53.77	194.61	2.48	-55.8	-73.8	3.5	3.02e+01	0	36	104	0	60	253139
2026-01-04 03:16:54.78	194.67	2.54	-55.8	-73.7	3.5	3.02e+01	0	36	104	0	60	250015
2026-01-04 03:16:55.79	194.73	2.60	-55.2	-73.1	3.5	3.02e+01	0	36	104	0	60	234091
2026-01-04 03:16:56.80	194.79	2.67	-54.7	-72.5	3.5	3.02e+01	0	36	104	0	60	219014
2026-01-04 03:16:57.81	194.85	2.73	-54.9	-72.8	3.5	3.02e+01	0	36	104	0	60	225877
2026-01-04 03:16:58.82	194.91	2.79	-55.1	-73.0	3.5	3.02e+01	0	36	104	0	60	230939
2026-01-04 03:16:59.83	194.98	2.86	-55.2	-73.1	3.5	3.02e+01	0	36	104	0	60	234345
2026-01-04 03:17:00.84	195.04	2.92	-55.5	-73.3	3.5	3.02e+01	0	36	104	0	60	240831
2026-01-04 03:17:01.85	195.10	2.99	-55.2	-73.0	3.5	3.02e+01	0	36	104	0	60	232685
2026-01-04 03:17:02.87	195.16	3.05	-55.6	-73.7	3.5	3.02e+01	0	36	104	0	60	250978
2026-01-04 03:17:03.88	195.23	3.12	-55.4	-73.4	3.5	3.02e+01	0	36	104	0	60	242683
2026-01-04 03:17:04.89	195.29	3.18	-55.7	-73.7	3.5	3.02e+01	0	36	104	0	60	250795
2026-01-04 03:17:05.90	195.35	3.25	-55.6	-73.6	3.5	3.02e+01	0	36	104	0	60	247806
2026-01-04 03:17:06.91	195.42	3.31	-54.8	-72.8	3.5	3.02e+01	0	36	104	0	60	227788
2026-01-04 03:17:07.92	195.48	3.38	-55.6	-73.6	3.5	3.02e+01	0	36	104	0	60	247538
2026-01-04 03:17:08.93	195.55	3.44	-54.5	-72.4	3.5	3.02e+01	0	36	104	0	60	217041
2026-01-04 03:17:09.94	195.61	3.51	-54.2	-72.1	3.5	3.02e+01	0	36	104	0	60	208217
2026-01-04 03:17:10.95	195.68	3.57	-54.3	-72.2	3.5	3.02e+01	0	36	104	0	60	210375
2026-01-04 03:17:11.96	195.74	3.64	-53.8	-71.7	3.5	3.02e+01	0	36	104	0	60	199270
2026-01-04 03:17:12.97	195.81	3.71	-53.1	-71.1	3.5	3.02e+01	0	36	104	0	60	186063
2026-01-04 03:17:13.98	195.87	3.77	-53.2	-71.1	3.5	3.02e+01	0	36	104	0	60	185677
2026-01-04 03:17:14.99	195.94	3.84	-52.9	-70.8	3.5	3.02e+01	0	36	104	0	60	179157
2026-01-04 03:17:16.00	196.00	3.90	-52.7	-70.7	3.5	3.02e+01	0	36	104	0	60	176964
2026-01-04 03:17:17.01	196.07	3.97	-52.5	-70.3	3.5	3.02e+01	0	36	104	0	60	169363
2026-01-04 03:17:18.02	196.14	4.04	-52.4	-70.1	3.5	3.02e+01	0	36	104	0	60	166966
2026-01-04 03:17:19.03	196.21	4.11	-52.5	-70.4	3.5	3.02e+01	0	36	104	0	60	171301
2026-01-04 03:17:20.04	196.27	4.17	-52.3	-70.1	3.5	3.02e+01	0	36	104	0	60	165867
2026-01-04 03:17:21.05	196.34	4.24	-52.2	-69.9	3.5	3.02e+01	0	36	104	0	60	162084
2026-01-04 03:17:22.06	196.41	4.31	-52.4	-70.0	3.5	3.02e+01	0	36	104	0	60	163573
2026-01-04 03:17:23.07	196.48	4.37	-52.2	-69.7	3.5	3.02e+01	0	36	104	0	60	159171
2026-01-04 03:17:24.08	196.55	4.44	-52.1	-69.4	3.5	3.02e+01	0	36	104	0	60	153663
2026-01-04 03:17:25.09	196.62	4.51	-52.4	-69.9	3.5	3.02e+01	0	36	104	0	60	161646
2026-01-04 03:17:26.10	196.69	4.58	-52.5	-70.1	3.5	3.02e+01	0	36	104	0	60	166702
2026-01-04 03:17:27.11	196.76	4.65	-52.7	-70.3	3.5	3.02e+01	0	36	104	0	60	170196
2026-01-04 03:17:28.12	196.83	4.72	-52.7	-70.6	3.5	3.02e+01	0	36	104	0	60	175970
2026-01-04 03:17:29.13	196.90	4.78	-53.2	-71.1	3.5	3.02e+01	0	36	104	0	60	185874
2026-01-04 03:17:30.15	196.97	4.85	-53.3	-71.2	3.5	3.02e+01	0	36	104	0	60	188954
2026-01-04 03:17:31.16	197.04	4.92	-53.1	-71.1	3.5	3.02e+01	0	36	104	0	60	186110
2026-01-04 03:17:32.17	197.11	4.99	-53.3	-71.2	3.5	3.02e+01	0	36	104	0	60	188290
2026-01-04 03:17:33.18	197.19	5.06	-52.8	-70.7	3.5	3.02e+01	0	36	104	0	60	177713
2026-01-04 03:17:34.19	197.26	5.13	-52.6	-70.5	3.5	3.02e+01	0	36	104	0	60	173734
2026-01-04 03:17:35.20	197.33	5.20	-52.3	-70.1	3.5	3.02e+01	0	36	104	0	60	166562
2026-01-04 03:17:36.21	197.41	5.27	-52.8	-70.6	3.5	3.02e+01	0	36	104	0	60	175042
2026-01-04 03:17:37.22	197.48	5.34	-53.1	-70.8	3.5	3.02e+01	0	36	104	0	60	180248
2026-01-04 03:17:38.23	197.55	5.41	-52.9	-70.6	3.5	3.02e+01	0	36	104	0	60	176280
2026-01-04 03:17:39.24	197.63	5.48	-52.4	-70.3	3.5	3.02e+01	0	36	104	0	60	169775
2026-01-04 03:17:40.25	197.70	5.55	-52.1	-69.9	3.5	3.02e+01	0	36	104	0	60	162522
2026-01-04 03:17:41.27	197.78	5.62	-52.3	-70.1	3.5	3.02e+01	0	36	104	0	60	165202
2026-01-04 03:17:42.28	197.85	5.69	-52.6	-70.2	3.5	3.02e+01	0	36	104	0	60	167754
2026-01-04 03:17:43.29	197.93	5.76	-52.8	-70.5	3.5	3.02e+01	0	36	104	0	60	174462
2026-01-04 03:17:44.30	198.01	5.83	-52.6	-70.4	3.5	3.02e+01	0	36	104	0	60	172601
2026-01-04 03:17:45.31	198.08	5.91	-52.3	-69.4	3.5	3.02e+01	0	36	104	0	60	153536
2026-01-04 03:17:46.32	198.16	5.98	-52.0	-67.2	3.9	3.02e+01	0	36	104	0	60	118636
2026-01-04 03:17:47.33	198.24	6.05	-51.8	-65.4	3.7	3.02e+01	0	36	104	0	60	96915
2026-01-04 03:17:48.34	198.31	6.12	-51.7	-65.1	4.7	3.02e+01	0	36	104	0	60	92953
2026-01-04 03:17:49.35	198.39	6.19	-51.7	-65.7	4.6	3.02e+01	0	36	104	0	60	99707
2026-01-04 03:17:50.36	198.47	6.26	-52.1	-66.1	4.2	3.02e+01	0	36	104	0	60	105211
2026-01-04 03:17:51.37	198.55	6.34	-52.5	-66.5	4.6	3.02e+01	0	36	104	0	60	109654
2026-01-04 03:17:52.38	198.63	6.41	-51.8	-60.6	8.9	3.02e+01	92	36	0	1048576	60	55666
2026-01-04 03:17:53.40	198.71	6.48	-50.5	-56.1	13.4	3.02e+01	89	36	0	3145728	60	33161
2026-01-04 03:17:54.41	198.79	6.56	-48.4	-51.8	17.5	3.02e+01	92	36	0	4718592	60	20198
2026-01-04 03:17:55.42	198.87	6.63	-46.5	-48.9	20.0	3.02e+01	92	36	0	6815744	60	14509
2026-01-04 03:17:56.43	198.95	6.70	-46.1	-48.4	21.2	3.02e+01	92	36	0	8912896	60	13725
2026-01-04 03:17:57.44	199.03	6.78	-45.2	-47.1	22.0	3.02e+01	92	36	0	10485760	60	11809
2026-01-04 03:17:58.45	199.12	6.85	-44.8	-46.8	22.6	3.02e+01	92	36	0	12582912	60	11311
2026-01-04 03:17:59.46	199.20	6.92	-43.6	-45.2	22.9	3.02e+01	92	36	0	14680064	60	9470
2026-01-04 03:18:00.47	199.28	7.00	-44.7	-46.4	22.9	3.02e+01	92	36	0	16252928	60	10890
2026-01-04 03:18:01.48	199.36	7.07	-45.5	-47.7	21.9	3.02e+01	90	36	104	16777216	60	12634
2026-01-04 03:18:02.49	199.45	7.15	-47.9	-50.6	18.6	3.02e+01	92	36	0	17825792	60	17692
2026-01-04 03:18:03.51	199.53	7.22	-44.5	-46.2	23.9	3.02e+01	92	36	0	19922944	60	10602
2026-01-04 03:18:04.52	199.62	7.30	-46.4	-48.5	21.6	3.02e+01	92	36	0	21495808	60	13861
2026-01-04 03:18:05.53	199.70	7.37	-45.5	-47.4	22.5	3.02e+01	86	36	0	23592960	60	12203
2026-01-04 03:18:06.54	199.79	7.45	-45.0	-46.8	23.2	3.02e+01	92	36	0	25165824	60	11293
2026-01-04 03:18:07.55	199.87	7.52	-44.5	-46.2	23.6	3.02e+01	89	36	0	27262976	60	10625
2026-01-04 03:18:08.56	199.96	7.60	-44.3	-45.9	24.3	3.02e+01	92	36	0	29360128	60	10198
2026-01-04 03:18:09.57	200.05	7.67	-45.7	-47.5	23.0	3.02e+01	92	36	0	30932992	60	12287
2026-01-04 03:18:10.58	200.14	7.75	-44.3	-45.9	24.8	3.02e+01	92	36	0	33030144	60	10231
2026-01-04 03:18:11.60	200.22	7.83	-44.3	-45.8	24.7	3.02e+01	92	36	0	34603008	60	10127
2026-01-04 03:18:12.61	200.31	7.90	-44.5	-46.1	24.6	3.02e+01	92	36	0	36700160	60	10525
2026-01-04 03:18:13.62	200.40	7.98	-44.4	-46.0	24.5	3.02e+01	92	36	0	38797312	60	10384
2026-01-04 03:18:14.63	200.49	8.06	-44.5	-46.1	24.6	3.02e+01	92	36	0	40370176	60	10446
2026-01-04 03:18:15.64	200.58	8.13	-43.9	-45.4	24.8	3.02e+01	92	36	0	42467328	60	9710
2026-01-04 03:18:16.65	200.67	8.21	-43.7	-45.2	25.2	3.02e+01	92	36	0	44040192	60	9481
2026-01-04 03:18:17.66	200.76	8.29	-44.1	-45.7	24.7	3.02e+01	92	36	0	46137344	60	9961
2026-01-04 03:18:18.67	200.85	8.37	-43.6	-45.1	25.2	3.02e+01	92	36	0	48234496	60	9323
2026-01-04 03:18:19.68	200.94	8.44	-44.1	-45.6	25.1	3.02e+01	92	36	0	49807360	60	9923
2026-01-04 03:18:20.69	201.04	8.52	-44.4	-46.0	24.4	3.02e+01	92	36	0	51904512	60	10362
2026-01-04 03:18:21.71	201.13	8.60	-43.5	-45.1	25.0	3.02e+01	92	36	0	54001664	60	9308
2026-01-04 03:18:22.72	201.22	8.68	-43.4	-44.9	25.0	3.02e+01	90	36	0	55574528	60	9148
2026-01-04 03:18:23.73	201.32	8.76	-42.8	-44.3	25.8	3.02e+01	92	36	0	57671680	60	8513
2026-01-04 03:18:24.74	201.41	8.84	-43.2	-44.7	25.5	3.02e+01	92	36	0	59244544	60	8902
2026-01-04 03:18:25.75	201.51	8.92	-43.7	-45.2	25.5	3.02e+01	92	36	0	61341696	60	9445
2026-01-04 03:18:26.76	201.60	9.00	-43.9	-45.4	25.3	3.02e+01	92	36	0	63438848	60	9674
2026-01-04 03:18:27.77	201.70	9.08	-44.0	-45.5	25.0	3.02e+01	92	36	0	65011712	60	9778
2026-01-04 03:18:28.78	201.80	9.16	-43.1	-44.6	25.7	3.02e+01	92	36	0	67108864	60	8823
2026-01-04 03:18:29.79	201.89	9.24	-43.2	-44.6	25.9	3.02e+01	91	36	0	68681728	60	8851
2026-01-04 03:18:30.80	201.99	9.32	-42.8	-44.2	26.3	3.02e+01	89	36	0	70778880	60	8405
2026-01-04 03:18:31.82	202.09	9.40	-42.5	-43.9	26.1	3.02e+01	91	36	0	72876032	60	8172
2026-01-04 03:18:32.83	202.19	9.48	-42.2	-43.6	26.2	3.02e+01	89	36	0	74448896	60	7882
2026-01-04 03:18:33.84	202.29	9.56	-42.4	-43.8	26.3	3.02e+01	92	36	0	76546048	60	8026
2026-01-04 03:18:34.85	202.39	9.64	-42.8	-44.2	26.3	3.02e+01	91	36	0	78118912	60	8409
2026-01-04 03:18:35.86	202.49	9.72	-42.4	-43.9	26.2	3.02e+01	91	36	0	80216064	60	8092
2026-01-04 03:18:36.87	202.59	9.80	-42.0	-43.4	26.5	3.02e+01	92	36	0	82313216	60	7641
2026-01-04 03:18:37.88	202.69	9.89	-42.0	-43.4	26.5	3.02e+01	92	36	0	83886080	60	7644
2026-01-04 03:18:38.89	202.79	9.97	-41.8	-43.2	26.4	3.02e+01	91	36	0	85983232	60	7522
2026-01-04 03:18:39.90	202.90	10.05	-41.7	-43.1	26.6	3.02e+01	90	36	0	88080384	60	7402
2026-01-04 03:18:40.91	203.00	10.13	-42.0	-43.4	26.3	3.02e+01	87	36	0	89653248	60	7673
2026-01-04 03:18:41.92	203.10	10.22	-42.1	-43.5	26.4	3.02e+01	92	36	0	91750400	60	7743
2026-01-04 03:18:42.93	203.21	10.30	-43.0	-44.4	26.3	3.02e+01	92	36	0	93323264	60	8655
2026-01-04 03:18:43.94	203.31	10.38	-42.7	-44.1	26.2	3.02e+01	92	36	0	95420416	60	8342
2026-01-04 03:18:44.95	203.42	10.47	-42.2	-43.6	26.7	3.02e+01	92	36	0	97517568	60	7874
2026-01-04 03:18:45.97	203.53	10.55	-41.9	-43.3	26.7	3.02e+01	90	36	0	99090432	60	7602
2026-01-04 03:18:46.98	203.63	10.63	-41.6	-43.0	26.9	3.02e+01	91	36	0	101187584	60	7296
2026-01-04 03:18:47.99	203.74	10.72	-41.5	-42.9	26.9	3.02e+01	90	36	0	102760448	60	7222
2026-01-04 03:18:49.00	203.85	10.80	-41.4	-42.8	26.8	3.02e+01	89	36	0	104857600	60	7146
2026-01-04 03:18:50.01	203.96	10.89	-41.4	-42.7	26.8	3.02e+01	91	36	0	106954752	60	7092
2026-01-04 03:18:51.02	204.07	10.97	-41.2	-42.6	26.9	3.02e+01	89	36	0	108527616	60	6995
2026-01-04 03:18:52.03	204.18	11.06	-41.3	-42.6	26.8	3.02e+01	90	36	0	110624768	60	7015
2026-01-04 03:18:53.04	204.29	11.14	-41.3	-42.6	26.9	3.02e+01	92	36	0	112721920	60	7037
2026-01-04 03:18:54.05	204.40	11.23	-41.2	-42.6	26.9	3.02e+01	92	36	0	114294784	60	7000
2026-01-04 03:18:55.07	204.52	11.32	-41.5	-42.9	26.6	3.02e+01	92	36	0	116391936	60	7260
2026-01-04 03:18:56.08	204.63	11.40	-41.8	-43.2	26.3	3.02e+01	92	36	0	117964800	60	7492
2026-01-04 03:18:57.09	204.74	11.49	-42.0	-43.4	26.1	3.02e+01	92	36	0	120061952	60	7692
2026-01-04 03:18:58.10	204.86	11.57	-42.4	-43.9	25.9	3.02e+01	92	36	0	122159104	60	8112
2026-01-04 03:18:59.11	204.97	11.66	-42.3	-43.7	26.0	3.02e+01	92	36	0	123731968	60	7992
2026-01-04 03:19:00.12	205.09	11.75	-42.2	-43.6	26.3	3.02e+01	87	36	0	125829120	60	7835
2026-01-04 03:19:01.13	205.21	11.84	-41.2	-42.5	27.1	3.02e+01	90	36	0	127926272	60	6931
2026-01-04 03:19:02.14	205.32	11.92	-41.2	-42.6	27.0	3.02e+01	92	36	0	129499136	60	6967
2026-01-04 03:19:03.15	205.44	12.01	-41.1	-42.5	27.1	3.02e+01	92	36	0	131596288	60	6918
2026-01-04 03:19:04.16	205.56	12.10	-41.4	-42.8	27.0	3.02e+01	92	36	0	133169152	60	7156
2026-01-04 03:19:05.17	205.68	12.19	-41.6	-43.0	26.8	3.02e+01	92	37	0	135266304	60	7315
2026-01-04 03:19:06.18	205.80	12.28	-41.5	-42.9	27.0	3.02e+01	92	36	0	137363456	60	7245
2026-01-04 03:19:07.20	205.92	12.37	-41.0	-42.3	27.4	3.02e+01	92	36	0	138936320	60	6773
2026-01-04 03:19:08.21	206.05	12.46	-40.9	-42.3	27.3	3.02e+01	92	36	0	141033472	60	6737
2026-01-04 03:19:09.22	206.17	12.55	-41.1	-42.4	27.2	3.02e+01	92	36	0	142606336	60	6864
2026-01-04 03:19:10.23	206.29	12.64	-40.9	-42.3	27.3	3.02e+01	92	36	0	144703488	60	6745
2026-01-04 03:19:11.24	206.42	12.73	-41.0	-42.4	27.3	3.02e+01	90	36	0	146800640	60	6820
2026-01-04 03:19:12.25	206.54	12.82	-40.9	-42.3	27.5	3.02e+01	92	36	0	148373504	60	6729
2026-01-04 03:19:13.26	206.67	12.91	-41.0	-42.3	27.4	3.02e+01	92	36	0	150470656	60	6757
2026-01-04 03:19:14.27	206.79	13.00	-40.9	-42.2	27.5	3.02e+01	92	36	0	152567808	60	6690
2026-01-04 03:19:15.28	206.92	13.09	-40.9	-42.2	27.5	3.02e+01	90	36	0	154140672	60	6666
2026-01-04 03:19:16.29	207.05	13.18	-40.8	-42.1	27.5	3.02e+01	92	36	0	156237824	60	6599
2026-01-04 03:19:17.31	207.18	13.27	-41.0	-42.3	27.5	3.02e+01	91	36	0	157810688	60	6748
2026-01-04 03:19:18.32	207.31	13.36	-41.1	-42.4	27.5	3.02e+01	92	36	0	159907840	60	6864
2026-01-04 03:19:19.33	207.44	13.45	-41.0	-42.4	27.4	3.02e+01	86	36	0	162004992	60	6816
2026-01-04 03:19:20.34	207.57	13.55	-41.0	-42.3	27.4	3.02e+01	92	37	0	163577856	60	6753
2026-01-04 03:19:21.35	207.70	13.64	-40.9	-42.2	27.4	3.02e+01	91	36	0	165675008	60	6695
2026-01-04 03:19:22.36	207.84	13.73	-40.9	-42.2	27.4	3.02e+01	92	36	0	167772160	60	6686
2026-01-04 03:19:23.37	207.97	13.83	-40.8	-42.1	27.5	3.02e+01	91	36	0	169345024	60	6599
2026-01-04 03:19:24.38	208.11	13.92	-40.8	-42.1	27.4	3.02e+01	92	37	0	171442176	60	6591
2026-01-04 03:19:25.39	208.24	14.01	-40.6	-41.9	27.6	3.02e+01	91	36	0	173015040	60	6443
2026-01-04 03:19:26.40	208.38	14.11	-40.7	-42.0	27.8	3.02e+01	90	36	0	175112192	60	6544
2026-01-04 03:19:27.42	208.52	14.20	-40.5	-41.8	27.8	3.02e+01	92	36	0	177209344	60	6379
2026-01-04 03:19:28.43	208.66	14.29	-40.6	-41.9	27.8	3.02e+01	92	36	0	178782208	60	6437
2026-01-04 03:19:29.44	208.80	14.39	-40.6	-41.9	27.9	3.02e+01	92	36	0	180879360	60	6478
2026-01-04 03:19:30.45	208.94	14.48	-40.5	-41.8	27.7	3.02e+01	92	37	0	182452224	60	6363
2026-01-04 03:19:31.46	209.08	14.58	-40.7	-42.0	27.8	3.02e+01	92	37	0	184549376	60	6542
2026-01-04 03:19:32.47	209.22	14.67	-40.8	-42.1	27.8	3.02e+01	92	36	0	186646528	60	6624
2026-01-04 03:19:33.48	209.37	14.77	-40.7	-42.0	27.7	3.02e+01	92	37	0	188219392	60	6560
2026-01-04 03:19:34.49	209.51	14.87	-40.7	-42.0	27.7	3.02e+01	92	37	0	190316544	60	6501
2026-01-04 03:19:35.50	209.65	14.96	-40.9	-42.1	27.8	3.02e+01	92	37	0	191889408	60	6646
2026-01-04 03:19:36.51	209.80	15.06	-40.7	-42.0	27.9	3.02e+01	92	37	0	193986560	60	6525
2026-01-04 03:19:37.53	209.95	15.16	-40.4	-41.7	28.0	3.02e+01	91	37	0	196083712	60	6289
2026-01-04 03:19:38.54	210.10	15.25	-40.4	-41.6	28.1	3.02e+01	91	37	0	197656576	60	6269
2026-01-04 03:19:39.55	210.25	15.35	-40.6	-41.9	28.0	3.02e+01	91	37	0	199753728	60	6427
2026-01-04 03:19:40.56	210.40	15.45	-40.3	-41.5	28.2	3.02e+01	90	37	0	201850880	60	6194
2026-01-04 03:19:41.57	210.55	15.55	-40.1	-41.4	28.3	3.02e+01	92	37	0	203423744	60	6087
2026-01-04 03:19:42.58	210.70	15.64	-40.2	-41.5	28.1	3.02e+01	90	37	0	205520896	60	6173
2026-01-04 03:19:43.59	210.85	15.74	-40.1	-41.4	28.2	3.02e+01	92	36	0	207093760	60	6082
2026-01-04 03:19:44.60	211.01	15.84	-40.3	-41.5	28.1	3.02e+01	92	36	0	209190912	60	6184
2026-01-04 03:19:45.61	211.16	15.94	-40.2	-41.5	28.1	3.02e+01	92	36	0	211288064	60	6174
2026-01-04 03:19:46.62	211.32	16.04	-40.3	-41.6	28.2	3.02e+01	92	37	0	212860928	60	6221
2026-01-04 03:19:47.63	211.48	16.14	-40.4	-41.6	28.3	3.02e+01	92	36	0	214958080	60	6249
2026-01-04 03:19:48.65	211.64	16.24	-40.6	-41.9	28.1	3.02e+01	92	37	0	216530944	60	6433
2026-01-04 03:19:49.66	211.80	16.34	-40.6	-41.9	28.3	3.02e+01	92	37	0	218628096	60	6433
2026-01-04 03:19:50.67	211.96	16.44	-40.9	-42.1	28.1	3.02e+01	92	37	0	220725248	60	6627
2026-01-04 03:19:51.68	212.12	16.54	-40.6	-41.9	28.3	3.02e+01	92	36	0	222298112	60	6437
2026-01-04 03:19:52.69	212.28	16.64	-40.9	-42.2	28.0	3.02e+01	92	36	0	224395264	60	6684
2026-01-04 03:19:53.70	212.45	16.74	-40.6	-41.9	28.3	3.02e+01	92	36	0	225968128	60	6447
2026-01-04 03:19:54.71	212.61	16.84	-40.6	-41.9	28.4	3.02e+01	90	36	0	228065280	60	6448
2026-01-04 03:19:55.72	212.78	16.94	-40.8	-42.0	28.1	3.02e+01	92	36	0	230162432	60	6562
2026-01-04 03:19:56.73	212.95	17.04	-41.0	-42.2	28.1	3.02e+01	92	36	0	231735296	60	6715
2026-01-04 03:19:57.75	213.12	17.14	-40.7	-41.9	28.3	3.02e+01	87	36	0	233832448	60	6454
2026-01-04 03:19:58.76	213.29	17.25	-40.7	-42.0	28.3	3.02e+01	92	37	0	235929600	60	6513
2026-01-04 03:19:59.77	213.46	17.35	-40.4	-41.7	28.3	3.02e+01	92	37	0	237502464	60	6298
2026-01-04 03:20:00.78	213.63	17.45	-39.9	-41.2	28.7	3.02e+01	92	37	0	239599616	60	5933
2026-01-04 03:20:01.79	213.80	17.55	-40.0	-41.3	28.6	3.02e+01	92	37	0	241172480	60	6009
2026-01-04 03:20:02.80	213.98	17.66	-40.1	-41.3	28.5	3.02e+01	92	37	0	243269632	60	6060
2026-01-04 03:20:03.81	214.15	17.76	-40.7	-41.9	28.2	3.02e+01	92	37	0	245366784	60	6495
2026-01-04 03:20:04.82	214.33	17.86	-40.2	-41.4	28.2	3.02e+01	89	36	0	246939648	60	6108
2026-01-04 03:20:05.84	214.51	17.97	-40.2	-41.4	28.5	3.02e+01	92	36	0	249036800	60	6101
2026-01-04 03:20:06.85	214.69	18.07	-40.0	-41.2	28.7	3.02e+01	92	36	0	250609664	60	5961
2026-01-04 03:20:07.86	214.87	18.18	-40.0	-41.2	28.5	3.02e+01	92	37	0	252706816	60	5993
2026-01-04 03:20:08.87	215.05	18.28	-40.3	-41.6	28.3	3.02e+01	91	37	0	254803968	60	6228
2026-01-04 03:20:09.88	215.24	18.38	-39.9	-41.1	28.7	3.02e+01	91	36	0	256376832	60	5890
2026-01-04 03:20:10.89	215.42	18.49	-39.9	-41.1	28.7	3.02e+01	90	37	0	258473984	60	5911
2026-01-04 03:20:11.90	215.61	18.59	-39.9	-41.1	28.7	3.02e+01	90	36	0	260571136	60	5912
2026-01-04 03:20:12.91	215.80	18.70	-40.1	-41.4	28.7	3.02e+01	90	37	0	262144000	60	6083
2026-01-04 03:20:13.92	215.98	18.80	-40.7	-41.9	28.8	3.02e+01	92	37	0	264241152	60	6438
2026-01-04 03:20:14.93	216.17	18.91	-40.5	-41.7	28.7	3.02e+01	90	37	0	265814016	60	6350
2026-01-04 03:20:15.95	216.37	19.02	-40.6	-41.8	28.8	3.02e+01	92	37	0	267911168	60	6417
2026-01-04 03:20:16.96	216.56	19.12	-40.8	-42.0	28.7	3.02e+01	91	37	0	270008320	60	6551
2026-01-04 03:20:17.97	216.76	19.23	-40.7	-42.0	28.8	3.02e+01	92	37	0	271581184	60	6499
2026-01-04 03:20:18.98	216.95	19.33	-40.4	-41.6	28.8	3.02e+01	92	37	0	273678336	60	6247
2026-01-04 03:20:19.99	217.15	19.44	-40.2	-41.4	28.8	3.02e+01	91	37	0	275251200	60	6105
2026-01-04 03:20:21.00	217.35	19.55	-39.9	-41.2	28.9	3.02e+01	89	37	0	277348352	60	5934
2026-01-04 03:20:22.01	217.55	19.65	-39.9	-41.1	29.0	3.02e+01	91	37	0	279445504	60	5889
2026-01-04 03:20:23.02	217.75	19.76	-40.2	-41.4	28.8	3.02e+01	89	37	0	281018368	60	6132
2026-01-04 03:20:24.03	217.95	19.87	-40.1	-41.3	28.9	3.02e+01	90	36	0	283115520	60	6020
2026-01-04 03:20:25.05	218.16	19.98	-39.7	-40.9	28.8	3.02e+01	90	37	0	285212672	60	5776
2026-01-04 03:20:26.06	218.36	20.08	-39.9	-41.1	28.7	3.02e+01	92	37	0	286785536	60	5905
2026-01-04 03:20:27.07	218.57	20.19	-39.7	-40.9	28.8	3.02e+01	90	37	0	288882688	60	5773
2026-01-04 03:20:28.08	218.78	20.30	-39.9	-41.2	28.6	3.02e+01	92	37	0	290455552	60	5937
2026-01-04 03:20:29.09	218.99	20.41	-39.4	-40.7	29.0	3.02e+01	92	37	0	292552704	60	5600
2026-01-04 03:20:30.10	219.20	20.51	-39.4	-40.7	28.9	3.02e+01	92	37	0	294649856	60	5614
2026-01-04 03:20:31.11	219.41	20.62	-39.7	-40.9	28.8	3.02e+01	92	37	0	296222720	60	5774
2026-01-04 03:20:32.12	219.63	20.73	-39.7	-40.9	28.8	3.02e+01	92	37	0	298319872	60	5789
2026-01-04 03:20:33.13	219.85	20.84	-39.8	-41.0	28.7	3.02e+01	92	37	0	300417024	60	5822
2026-01-04 03:20:34.14	220.06	20.95	-39.7	-40.9	28.7	3.02e+01	92	37	0	301989888	60	5789
2026-01-04 03:20:35.15	220.28	21.06	-39.8	-41.1	28.8	3.02e+01	92	37	0	304087040	60	5870
2026-01-04 03:20:36.17	220.51	21.17	-40.3	-41.6	28.7	3.02e+01	89	37	0	305659904	60	6209
2026-01-04 03:20:37.18	220.73	21.28	-39.9	-41.1	28.8	3.02e+01	90	37	0	307757056	60	5909
2026-01-04 03:20:38.19	220.95	21.38	-39.7	-40.9	29.0	3.02e+01	92	37	0	309854208	60	5775
2026-01-04 03:20:39.20	221.18	21.49	-39.8	-41.1	29.1	3.02e+01	90	37	0	311427072	60	5865
2026-01-04 03:20:40.21	221.41	21.60	-39.8	-41.1	28.8	3.02e+01	92	37	0	313524224	60	5882
2026-01-04 03:20:41.22	221.64	21.71	-39.9	-41.1	28.7	3.02e+01	92	37	0	315097088	60	5899
2026-01-04 03:20:42.23	221.87	21.82	-39.7	-41.0	28.9	3.02e+01	92	37	0	317194240	60	5810
2026-01-04 03:20:43.24	222.10	21.93	-39.7	-40.9	29.0	3.02e+01	87	37	0	319291392	60	5777
2026-01-04 03:20:44.25	222.33	22.04	-39.7	-40.9	29.1	3.02e+01	92	37	0	320864256	60	5726
2026-01-04 03:20:45.26	222.57	22.15	-39.5	-40.7	29.0	3.02e+01	91	37	0	322961408	60	5652
2026-01-04 03:20:46.27	222.81	22.26	-39.6	-40.8	29.0	3.02e+01	92	37	0	325058560	60	5704
2026-01-04 03:20:47.28	223.05	22.37	-39.9	-41.1	28.8	3.02e+01	92	37	0	326631424	60	5902
2026-01-04 03:20:48.30	223.29	22.48	-39.6	-40.8	29.0	3.02e+01	92	37	0	328728576	60	5677
2026-01-04 03:20:49.31	223.53	22.59	-39.5	-40.8	29.0	3.02e+01	91	37	0	330301440	60	5665
2026-01-04 03:20:50.32	223.78	22.70	-39.4	-40.7	29.1	3.02e+01	92	37	0	332398592	60	5603
2026-01-04 03:20:51.33	224.03	22.81	-39.4	-40.7	29.1	3.02e+01	92	37	0	334495744	60	5595
2026-01-04 03:20:52.34	224.27	22.92	-39.7	-40.9	29.0	3.02e+01	92	37	0	336068608	60	5748
2026-01-04 03:20:53.35	224.52	23.03	-39.7	-40.9	28.9	3.02e+01	92	37	0	338165760	60	5775
2026-01-04 03:20:54.36	224.78	23.14	-39.5	-40.7	29.0	3.02e+01	90	37	0	340262912	60	5657
2026-01-04 03:20:55.37	225.03	23.24	-39.4	-40.7	29.0	3.02e+01	88	37	0	341835776	60	5596
2026-01-04 03:20:56.38	225.29	23.35	-39.2	-40.4	29.2	3.02e+01	90	37	0	343932928	58	6112
2026-01-04 03:20:57.40	225.54	23.46	-39.2	-40.4	29.2	3.02e+01	91	37	0	345505792	58	6134
2026-01-04 03:20:58.41	225.80	23.57	-39.4	-40.7	29.0	3.02e+01	92	37	0	347602944	58	6281
2026-01-04 03:20:59.42	226.07	23.68	-39.3	-40.6	29.1	3.02e+01	92	37	0	349700096	58	6210
2026-01-04 03:21:00.43	226.33	23.79	-39.2	-40.4	29.2	3.02e+01	92	37	0	351272960	58	6068
2026-01-04 03:21:01.44	226.59	23.90	-39.3	-40.5	29.1	3.02e+01	90	37	0	353370112	58	6202
2026-01-04 03:21:02.45	226.86	24.01	-39.4	-40.6	29.0	3.02e+01	92	37	0	354942976	58	6273
2026-01-04 03:21:03.46	227.13	24.12	-39.2	-40.5	29.1	3.02e+01	92	37	0	357040128	58	6140
2026-01-04 03:21:04.47	227.40	24.23	-39.3	-40.6	29.2	3.02e+01	92	37	0	359137280	58	6209
2026-01-04 03:21:05.48	227.67	24.33	-39.2	-40.4	29.3	3.02e+01	91	37	0	360710144	58	6124
2026-01-04 03:21:06.49	227.94	24.44	-39.3	-40.5	29.2	3.02e+01	92	37	0	362807296	58	6168
2026-01-04 03:21:07.50	228.22	24.55	-39.2	-40.5	29.2	3.02e+01	92	37	0	364380160	58	6141
2026-01-04 03:21:08.51	228.50	24.66	-39.7	-40.9	28.8	3.02e+01	92	37	0	366477312	58	6453
2026-01-04 03:21:09.53	228.78	24.77	-39.5	-40.8	28.9	3.02e+01	92	37	0	368574464	58	6358
2026-01-04 03:21:10.54	229.06	24.87	-39.7	-40.9	28.9	3.02e+01	92	37	0	370147328	58	6431
2026-01-04 03:21:11.55	229.35	24.98	-39.5	-40.7	29.0	3.02e+01	92	37	0	372244480	58	6306
2026-01-04 03:21:12.56	229.63	25.09	-39.2	-40.4	29.2	3.02e+01	92	37	0	374341632	58	6088
2026-01-04 03:21:13.57	229.92	25.20	-39.2	-40.4	29.3	3.02e+01	92	37	0	375914496	58	6085
2026-01-04 03:21:14.58	230.21	25.30	-39.2	-40.4	29.1	3.02e+01	92	37	0	378011648	58	6134
2026-01-04 03:21:15.59	230.50	25.41	-39.3	-40.5	29.1	3.02e+01	92	37	0	379584512	58	6153
2026-01-04 03:21:16.60	230.80	25.51	-39.2	-40.4	29.2	3.02e+01	92	37	0	381681664	58	6125
2026-01-04 03:21:17.61	231.09	25.62	-39.3	-40.5	29.2	3.02e+01	92	37	0	383778816	58	6203
2026-01-04 03:21:18.62	231.39	25.72	-39.5	-40.7	29.1	3.02e+01	92	37	0	385351680	58	6316
2026-01-04 03:21:19.64	231.69	25.83	-39.7	-40.9	29.0	3.02e+01	92	37	0	387448832	58	6445
2026-01-04 03:21:20.65	232.00	25.93	-39.8	-41.0	29.0	3.02e+01	92	37	0	389021696	58	6558
2026-01-04 03:21:21.66	232.30	26.04	-40.0	-41.2	29.0	3.02e+01	92	37	0	391118848	58	6702
2026-01-04 03:21:22.67	232.61	26.14	-39.7	-40.9	29.0	3.02e+01	92	37	0	393216000	58	6494
2026-01-04 03:21:23.68	232.91	26.25	-39.9	-41.2	28.8	3.02e+01	92	37	0	394788864	58	6661
2026-01-04 03:21:24.69	233.23	26.35	-39.8	-41.0	28.9	3.02e+01	92	37	0	396886016	58	6557
2026-01-04 03:21:25.70	233.54	26.45	-39.9	-41.2	28.8	3.02e+01	90	37	0	398458880	58	6656
2026-01-04 03:21:26.71	233.85	26.55	-39.8	-41.0	29.0	3.02e+01	92	37	0	400556032	58	6533
2026-01-04 03:21:27.72	234.17	26.65	-40.0	-41.2	28.8	3.02e+01	92	37	0	402653184	58	6724
2026-01-04 03:21:28.73	234.49	26.76	-40.0	-41.2	28.9	3.02e+01	92	37	0	404226048	58	6718
2026-01-04 03:21:29.74	234.81	26.86	-39.7	-40.9	28.9	3.02e+01	90	37	0	406323200	58	6477
2026-01-04 03:21:30.75	235.13	26.96	-39.6	-40.8	29.0	3.02e+01	92	37	0	408420352	58	6420
2026-01-04 03:21:31.76	235.45	27.06	-39.6	-40.9	28.9	3.02e+01	92	37	0	409993216	58	6432
2026-01-04 03:21:32.78	235.78	27.16	-39.7	-41.0	28.9	3.02e+01	91	37	0	412090368	58	6503
2026-01-04 03:21:33.79	236.11	27.25	-39.3	-40.5	29.0	3.02e+01	90	37	0	413663232	58	6192
2026-01-04 03:21:34.80	236.44	27.35	-39.3	-40.5	29.1	3.02e+01	91	37	0	415760384	58	6205
2026-01-04 03:21:35.81	236.78	27.45	-39.5	-40.7	29.0	3.02e+01	91	37	0	417857536	58	6296
2026-01-04 03:21:36.82	237.11	27.54	-39.5	-40.8	28.9	3.02e+01	91	37	0	419430400	58	6372
2026-01-04 03:21:37.83	237.45	27.64	-39.6	-40.8	28.8	3.02e+01	90	37	0	421527552	58	6406
2026-01-04 03:21:38.84	237.79	27.74	-39.4	-40.6	29.0	3.02e+01	91	37	0	423100416	58	6267
2026-01-04 03:21:39.86	238.13	27.83	-39.5	-40.7	28.8	3.02e+01	90	37	0	425197568	58	6339
2026-01-04 03:21:40.87	238.47	27.92	-39.6	-40.8	28.9	3.02e+01	92	37	0	427294720	58	6380
2026-01-04 03:21:41.88	238.82	28.02	-39.5	-40.7	29.0	3.02e+01	92	37	0	428867584	58	6318
2026-01-04 03:21:42.89	239.17	28.11	-39.4	-40.7	29.0	3.02e+01	91	37	0	430964736	58	6288
2026-01-04 03:21:43.90	239.52	28.20	-39.7	-40.9	28.8	3.02e+01	90	37	0	433061888	58	6481
2026-01-04 03:21:44.91	239.87	28.29	-39.6	-40.9	28.9	3.02e+01	92	37	0	434634752	58	6431
2026-01-04 03:21:45.92	240.22	28.38	-39.7	-41.0	28.8	3.02e+01	92	37	0	436731904	58	6500
2026-01-04 03:21:46.93	240.58	28.47	-39.7	-40.9	28.8	3.02e+01	90	37	0	438304768	58	6482
2026-01-04 03:21:47.94	240.93	28.56	-39.9	-41.2	28.7	3.02e+01	92	37	0	440401920	58	6654
2026-01-04 03:21:48.96	241.30	28.65	-39.7	-41.0	28.8	3.02e+01	92	37	0	442499072	58	6531
2026-01-04 03:21:49.97	241.66	28.73	-39.6	-40.9	28.9	3.02e+01	92	37	0	444071936	58	6427
2026-01-04 03:21:50.98	242.02	28.82	-39.8	-41.0	29.0	3.02e+01	90	37	0	446169088	58	6560
2026-01-04 03:21:51.99	242.38	28.90	-39.9	-41.2	28.9	3.02e+01	92	37	0	448266240	58	6661
2026-01-04 03:21:53.00	242.75	28.99	-40.4	-41.6	28.8	3.02e+01	92	37	0	449839104	60	6229
2026-01-04 03:21:54.01	243.12	29.07	-40.3	-41.6	28.8	3.02e+01	89	37	0	451936256	60	6216
2026-01-04 03:21:55.02	243.49	29.15	-40.4	-41.6	28.9	3.02e+01	92	37	0	453509120	60	6230
2026-01-04 03:21:56.03	243.86	29.23	-40.1	-41.4	28.7	3.02e+01	91	37	0	455606272	60	6085
2026-01-04 03:21:57.04	244.24	29.31	-40.3	-41.5	28.7	3.02e+01	92	37	0	457703424	60	6178
2026-01-04 03:21:58.05	244.62	29.39	-40.0	-41.2	28.8	3.02e+01	90	37	0	459276288	60	5951
2026-01-04 03:21:59.06	244.99	29.47	-40.0	-41.2	28.9	3.02e+01	92	37	0	461373440	60	5952
2026-01-04 03:22:00.07	245.37	29.55	-40.2	-41.5	28.7	3.02e+01	90	37	0	462946304	60	6154
2026-01-04 03:22:01.08	245.76	29.62	-40.2	-41.4	28.7	3.02e+01	92	37	0	465043456	60	6114
2026-01-04 03:22:02.09	246.14	29.69	-40.3	-41.6	28.5	3.02e+01	92	37	0	467140608	60	6223
2026-01-04 03:22:03.11	246.53	29.77	-40.2	-41.5	28.5	3.02e+01	92	37	0	468713472	60	6140
2026-01-04 03:22:04.12	246.92	29.84	-39.9	-41.1	28.7	3.02e+01	92	37	0	470810624	60	5906
2026-01-04 03:22:05.13	247.31	29.91	-40.1	-41.3	28.6	3.02e+01	92	37	0	472907776	60	6063
2026-01-04 03:22:06.14	247.70	29.98	-40.0	-41.2	28.7	3.02e+01	90	37	0	474480640	60	5988
2026-01-04 03:22:07.15	248.09	30.05	-40.1	-41.3	28.5	3.02e+01	92	37	0	476577792	60	6042
2026-01-04 03:22:08.16	248.48	30.12	-39.9	-41.1	28.9	3.02e+01	92	37	0	478150656	60	5878
2026-01-04 03:22:09.17	248.88	30.18	-40.2	-41.4	28.6	3.02e+01	92	37	0	480247808	60	6121
2026-01-04 03:22:10.18	249.28	30.25	-40.1	-41.3	28.5	3.02e+01	92	37	0	482344960	60	6049
2026-01-04 03:22:11.20	249.68	30.31	-40.3	-41.6	28.4	3.02e+01	92	37	0	483917824	60	6231
2026-01-04 03:22:12.21	250.08	30.37	-40.0	-41.2	28.5	3.02e+01	92	37	0	486014976	60	5994
2026-01-04 03:22:13.22	250.48	30.43	-40.0	-41.3	28.5	3.02e+01	92	37	0	488112128	60	6021
2026-01-04 03:22:14.23	250.89	30.49	-39.6	-40.8	28.9	3.02e+01	90	37	0	489684992	60	5697
2026-01-04 03:22:15.24	251.29	30.55	-39.7	-40.9	28.8	3.02e+01	92	37	0	491782144	60	5777
2026-01-04 03:22:16.25	251.70	30.61	-39.9	-41.1	28.6	3.02e+01	92	37	0	493355008	60	5893
2026-01-04 03:22:17.26	252.11	30.66	-39.9	-41.1	28.6	3.02e+01	92	37	0	495452160	60	5915
2026-01-04 03:22:18.27	252.52	30.71	-39.8	-41.0	28.7	3.02e+01	90	37	0	497549312	60	5811
2026-01-04 03:22:19.28	252.93	30.77	-40.3	-41.5	28.4	3.02e+01	92	37	0	499122176	60	6195
2026-01-04 03:22:20.30	253.34	30.82	-39.7	-41.0	28.8	3.02e+01	92	37	0	501219328	60	5803
2026-01-04 03:22:21.31	253.76	30.87	-39.7	-40.9	28.9	3.02e+01	92	37	0	502792192	60	5759
2026-01-04 03:22:22.32	254.17	30.91	-39.8	-41.0	28.8	3.02e+01	92	37	0	504889344	60	5809
2026-01-04 03:22:23.33	254.59	30.96	-39.7	-41.0	28.8	3.02e+01	91	37	0	506986496	60	5816
2026-01-04 03:22:24.34	255.01	31.00	-39.6	-40.8	28.9	3.02e+01	90	37	0	508559360	60	5722
2026-01-04 03:22:25.35	255.42	31.05	-39.6	-40.8	28.9	3.02e+01	91	37	0	510656512	60	5715
2026-01-04 03:22:26.36	255.84	31.09	-39.6	-40.8	28.8	3.02e+01	92	37	0	512753664	60	5710
2026-01-04 03:22:27.37	256.26	31.13	-39.7	-40.9	28.8	3.02e+01	92	37	0	514326528	60	5763
2026-01-04 03:22:28.38	256.68	31.17	-39.5	-40.7	28.9	3.02e+01	89	37	0	516423680	60	5636
2026-01-04 03:22:29.39	257.11	31.20	-39.6	-40.8	28.8	3.02e+01	91	37	0	517996544	60	5700
2026-01-04 03:22:30.41	257.53	31.24	-39.5	-40.7	28.9	3.02e+01	92	37	0	520093696	60	5642
2026-01-04 03:22:31.42	257.96	31.27	-39.7	-41.0	28.7	3.02e+01	92	37	0	522190848	60	5808
2026-01-04 03:22:32.43	258.38	31.30	-39.9	-41.1	28.6	3.02e+01	92	37	0	523763712	60	5915
2026-01-04 03:22:33.44	258.81	31.33	-39.6	-40.8	28.9	3.02e+01	92	37	0	525860864	60	5684
2026-01-04 03:22:34.45	259.24	31.36	-39.7	-41.0	28.8	3.02e+01	92	37	0	527433728	60	5806
2026-01-04 03:22:35.46	259.66	31.39	-39.4	-40.6	29.1	3.02e+01	91	37	0	529530880	60	5589
2026-01-04 03:22:36.47	260.09	31.42	-39.5	-40.7	28.8	3.02e+01	92	37	0	531628032	60	5647
2026-01-04 03:22:37.48	260.52	31.44	-39.6	-40.9	28.9	3.02e+01	91	37	0	533200896	60	5736
2026-01-04 03:22:38.49	260.95	31.46	-39.6	-40.9	28.8	3.02e+01	92	37	0	535298048	60	5737
2026-01-04 03:22:39.50	261.38	31.48	-40.2	-41.5	28.5	3.02e+01	92	37	0	536870912	60	6138
2026-01-04 03:22:40.51	261.81	31.50	-39.8	-41.1	28.8	3.02e+01	92	37	0	538968064	60	5859
2026-01-04 03:22:41.53	262.24	31.52	-39.6	-40.8	29.0	3.02e+01	92	37	0	541065216	60	5676
2026-01-04 03:22:42.54	262.68	31.53	-39.6	-40.9	28.9	3.02e+01	92	37	0	542638080	60	5726
2026-01-04 03:22:43.55	263.11	31.54	-39.9	-41.1	28.7	3.02e+01	91	37	0	544735232	60	5905
2026-01-04 03:22:44.56	263.54	31.56	-40.0	-41.2	28.6	3.02e+01	92	37	0	546832384	60	5994
2026-01-04 03:22:45.57	263.97	31.57	-39.9	-41.1	28.8	3.02e+01	91	37	0	548405248	60	5880
2026-01-04 03:22:46.58	264.40	31.57	-40.0	-41.3	28.6	3.02e+01	92	37	0	550502400	60	6009
2026-01-04 03:22:47.59	264.84	31.58	-40.3	-41.5	28.4	3.02e+01	92	37	0	552075264	60	6181
2026-01-04 03:22:48.60	265.27	31.59	-39.9	-41.1	28.8	3.02e+01	92	37	0	554172416	60	5920
2026-01-04 03:22:49.61	265.70	31.59	-39.5	-40.7	29.3	3.02e+01	90	37	0	556269568	60	5611
2026-01-04 03:22:50.63	266.14	31.59	-39.8	-41.0	28.9	3.02e+01	91	37	0	557842432	60	5827
2026-01-04 03:22:51.64	266.57	31.59	-39.5	-40.7	29.2	3.02e+01	91	37	0	559939584	60	5600
2026-01-04 03:22:52.65	267.01	31.59	-39.5	-40.7	29.2	3.02e+01	92	37	0	561512448	60	5640
2026-01-04 03:22:53.66	267.44	31.58	-39.7	-40.9	29.1	3.02e+01	90	37	0	563609600	60	5763
2026-01-04 03:22:54.67	267.87	31.58	-39.6	-40.8	29.3	3.02e+01	92	37	0	565706752	60	5716
2026-01-04 03:22:55.68	268.30	31.57	-39.7	-40.9	29.2	3.02e+01	90	37	0	567279616	60	5749
2026-01-04 03:22:56.69	268.74	31.56	-39.5	-40.7	29.1	3.02e+01	91	37	0	569376768	60	5633
2026-01-04 03:22:57.70	269.17	31.55	-39.2	-40.4	29.4	3.02e+01	92	37	0	570949632	58	6121
2026-01-04 03:22:58.71	269.60	31.54	-39.4	-40.6	29.3	3.02e+01	91	37	0	573046784	58	6265
2026-01-04 03:22:59.73	270.03	31.52	-39.9	-41.2	29.0	3.02e+01	92	37	0	575143936	58	6652
2026-01-04 03:23:00.73	270.46	31.51	-39.9	-41.1	28.9	3.02e+01	92	37	0	576716800	58	6611
2026-01-04 03:23:01.75	270.90	31.49	-39.4	-40.6	29.4	3.02e+01	92	37	0	578813952	58	6230
2026-01-04 03:23:02.76	271.33	31.47	-39.7	-41.0	28.9	3.02e+01	92	37	0	580911104	58	6514
2026-01-04 03:23:03.77	271.75	31.45	-39.4	-40.6	29.4	3.02e+01	92	37	0	582483968	58	6252
2026-01-04 03:23:04.78	272.18	31.42	-39.6	-40.8	29.3	3.02e+01	92	37	0	584581120	58	6366
2026-01-04 03:23:05.79	272.61	31.40	-39.5	-40.7	29.3	3.02e+01	92	37	0	586153984	58	6308
2026-01-04 03:23:06.80	273.04	31.37	-39.3	-40.5	29.4	3.02e+01	92	37	0	588251136	58	6178
2026-01-04 03:23:07.81	273.46	31.35	-39.0	-40.2	29.5	3.02e+01	92	37	0	590348288	58	5974
2026-01-04 03:23:08.82	273.89	31.32	-39.1	-40.3	29.5	3.02e+01	92	37	0	591921152	58	5998
2026-01-04 03:23:09.83	274.32	31.29	-39.3	-40.5	29.3	3.02e+01	92	37	0	594018304	58	6155
2026-01-04 03:23:10.85	274.74	31.25	-39.5	-40.7	29.4	3.02e+01	92	37	0	596115456	58	6324
2026-01-04 03:23:11.86	275.17	31.22	-39.5	-40.7	29.3	3.02e+01	89	37	0	597688320	58	6325
2026-01-04 03:23:12.87	275.59	31.18	-39.4	-40.6	29.6	3.02e+01	92	37	0	599785472	58	6211
2026-01-04 03:23:13.88	276.01	31.14	-39.6	-40.8	29.5	3.02e+01	90	37	0	601358336	58	6352
2026-01-04 03:23:14.89	276.43	31.11	-39.7	-40.8	29.5	3.02e+01	92	37	0	603455488	58	6423
2026-01-04 03:23:15.90	276.85	31.06	-39.4	-40.6	29.5	3.02e+01	91	37	0	605552640	58	6229
2026-01-04 03:23:16.91	277.27	31.02	-39.1	-40.2	29.6	3.02e+01	92	37	0	607125504	58	5993
2026-01-04 03:23:17.92	277.68	30.98	-39.0	-40.1	29.6	3.02e+01	90	37	0	609222656	58	5920
2026-01-04 03:23:18.93	278.10	30.93	-39.2	-40.4	29.6	3.02e+01	92	37	0	610795520	58	6103
2026-01-04 03:23:19.94	278.51	30.89	-39.0	-40.2	29.6	3.02e+01	90	37	0	612892672	58	5983
2026-01-04 03:23:20.95	278.93	30.84	-39.3	-40.5	29.5	3.02e+01	92	37	0	614989824	58	6141
2026-01-04 03:23:21.96	279.34	30.79	-39.2	-40.4	29.3	3.02e+01	91	37	0	616562688	58	6099
2026-01-04 03:23:22.97	279.75	30.74	-39.4	-40.6	29.3	3.02e+01	92	37	0	618659840	58	6271
2026-01-04 03:23:23.99	280.16	30.68	-39.3	-40.4	29.2	3.02e+01	92	37	0	620756992	58	6132
2026-01-04 03:23:25.00	280.57	30.63	-39.4	-40.6	29.4	3.02e+01	92	37	0	622329856	58	6248
2026-01-04 03:23:26.01	280.98	30.57	-39.3	-40.5	29.3	3.02e+01	91	37	0	624427008	58	6138
2026-01-04 03:23:27.02	281.38	30.52	-38.9	-40.1	29.7	3.02e+01	90	37	0	625999872	58	5905
2026-01-04 03:23:28.03	281.79	30.46	-39.3	-40.5	29.5	3.02e+01	91	37	0	628097024	58	6139
2026-01-04 03:23:29.04	282.19	30.40	-38.9	-40.1	29.7	3.02e+01	91	37	0	630194176	58	5861
2026-01-04 03:23:30.05	282.59	30.34	-38.8	-40.0	29.7	3.02e+01	91	37	0	631767040	58	5841
2026-01-04 03:23:31.06	282.99	30.27	-38.7	-39.9	29.9	3.02e+01	92	37	0	633864192	58	5736
2026-01-04 03:23:32.07	283.38	30.21	-38.7	-39.9	29.6	3.02e+01	92	37	0	635961344	58	5743
2026-01-04 03:23:33.08	283.78	30.15	-38.6	-39.8	29.8	3.02e+01	92	37	0	637534208	58	5707
2026-01-04 03:23:34.10	284.18	30.08	-38.8	-40.0	29.7	3.02e+01	91	37	0	639631360	58	5806
2026-01-04 03:23:35.11	284.57	30.01	-38.8	-40.0	29.7	3.02e+01	90	37	0	641204224	58	5849
2026-01-04 03:23:36.12	284.96	29.94	-38.7	-39.9	29.6	3.02e+01	92	37	0	643301376	58	5778
2026-01-04 03:23:37.13	285.35	29.87	-38.8	-39.9	29.9	3.02e+01	90	37	0	645398528	58	5780
2026-01-04 03:23:38.14	285.74	29.80	-38.6	-39.8	30.0	3.02e+01	92	37	0	646971392	58	5701
2026-01-04 03:23:39.15	286.12	29.73	-39.0	-40.3	29.7	3.02e+01	92	37	0	649068544	58	5998
2026-01-04 03:23:40.16	286.51	29.66	-39.2	-40.4	29.5	3.02e+01	92	37	0	650641408	58	6071
2026-01-04 03:23:41.18	286.89	29.58	-39.2	-40.4	29.7	3.02e+01	90	37	0	652738560	58	6098
2026-01-04 03:23:42.19	287.27	29.50	-39.2	-40.4	29.5	3.02e+01	92	37	0	654835712	58	6109
2026-01-04 03:23:43.20	287.65	29.43	-39.2	-40.3	29.7	3.02e+01	92	37	0	656408576	58	6062
2026-01-04 03:23:44.21	288.03	29.35	-39.0	-40.2	29.7	3.02e+01	92	37	0	658505728	58	5958
2026-01-04 03:23:45.22	288.40	29.27	-38.8	-40.0	29.8	3.02e+01	90	37	0	660602880	58	5834
2026-01-04 03:23:46.23	288.77	29.19	-39.2	-40.4	29.4	3.02e+01	92	37	0	662175744	58	6092
2026-01-04 03:23:47.24	289.14	29.11	-38.9	-40.0	29.6	3.02e+01	92	37	0	664272896	58	5856
2026-01-04 03:23:48.25	289.51	29.03	-39.0	-40.2	29.8	3.02e+01	92	37	0	665845760	58	5955
2026-01-04 03:23:49.26	289.88	28.95	-38.7	-39.9	29.5	3.02e+01	90	37	0	667942912	58	5751
2026-01-04 03:23:50.28	290.25	28.86	-38.4	-39.5	30.0	3.02e+01	91	37	0	670040064	58	5513
2026-01-04 03:23:51.29	290.61	28.78	-38.8	-39.9	29.8	3.02e+01	92	37	0	671612928	58	5783
2026-01-04 03:23:52.30	290.97	28.69	-38.4	-39.6	30.0	3.02e+01	91	37	0	673710080	58	5531
2026-01-04 03:23:53.31	291.33	28.60	-38.4	-39.6	30.1	3.02e+01	91	37	0	675807232	56	6234
2026-01-04 03:23:54.32	291.69	28.52	-38.9	-40.0	30.0	3.02e+01	90	37	0	677380096	56	6565
2026-01-04 03:23:55.33	292.04	28.43	-38.7	-39.9	30.0	3.02e+01	91	37	0	679477248	56	6456
2026-01-04 03:23:56.34	292.39	28.34	-38.5	-39.6	30.2	3.02e+01	92	37	0	681050112	56	6264
2026-01-04 03:23:57.36	292.75	28.25	-38.7	-39.9	29.9	3.02e+01	91	37	0	683147264	56	6462
2026-01-04 03:23:58.37	293.10	28.16	-38.5	-39.7	30.1	3.02e+01	91	37	0	685244416	56	6279
2026-01-04 03:23:59.38	293.44	28.07	-38.5	-39.7	30.0	3.02e+01	92	37	0	686817280	56	6299
2026-01-04 03:24:00.39	293.79	27.97	-38.6	-39.7	29.8	3.02e+01	90	37	0	688914432	56	6340
2026-01-04 03:24:01.40	294.13	27.88	-38.5	-39.7	29.7	3.02e+01	91	37	0	690487296	56	6316
2026-01-04 03:24:02.41	294.47	27.79	-38.8	-40.0	29.8	3.02e+01	91	37	0	692584448	56	6499
2026-01-04 03:24:03.42	294.81	27.69	-38.5	-39.7	29.8	3.02e+01	92	37	0	694681600	56	6327
2026-01-04 03:24:04.43	295.15	27.60	-38.4	-39.5	30.1	3.02e+01	89	37	0	696254464	56	6196
2026-01-04 03:24:05.44	295.48	27.50	-38.5	-39.7	30.0	3.02e+01	92	37	0	698351616	56	6291
2026-01-04 03:24:06.45	295.81	27.41	-38.3	-39.5	30.0	3.02e+01	92	37	0	699924480	56	6135
2026-01-04 03:24:07.46	296.14	27.31	-38.4	-39.6	30.1	3.02e+01	92	37	0	702021632	56	6227
2026-01-04 03:24:08.47	296.47	27.21	-38.5	-39.7	29.9	3.02e+01	89	37	0	704118784	56	6300
2026-01-04 03:24:09.48	296.80	27.11	-38.2	-39.4	30.1	3.02e+01	92	37	0	705691648	56	6113
2026-01-04 03:24:10.50	297.13	27.01	-38.2	-39.4	30.1	3.02e+01	92	37	0	707788800	56	6087
2026-01-04 03:24:11.51	297.45	26.91	-38.2	-39.4	30.2	3.02e+01	91	37	0	709361664	56	6092
2026-01-04 03:24:12.52	297.77	26.82	-38.1	-39.3	30.2	3.02e+01	90	37	0	711458816	56	6020
2026-01-04 03:24:13.53	298.09	26.71	-38.3	-39.4	30.1	3.02e+01	91	37	0	713555968	56	6118
2026-01-04 03:24:14.54	298.40	26.61	-38.2	-39.4	30.2	3.02e+01	90	37	0	715128832	56	6110
2026-01-04 03:24:15.55	298.72	26.51	-38.1	-39.3	30.1	3.02e+01	60	37	0	717225984	56	6034
2026-01-04 03:24:16.56	299.03	26.41	-38.3	-39.5	30.1	3.02e+01	58	37	0	719323136	56	6175
2026-01-04 03:24:17.57	299.34	26.31	-38.1	-39.3	30.2	3.02e+01	60	37	0	720896000	56	6036
2026-01-04 03:24:18.58	299.65	26.21	-38.2	-39.3	30.1	3.02e+01	59	37	0	722993152	56	6039
2026-01-04 03:24:19.60	299.96	26.10	-38.2	-39.3	30.2	3.02e+01	53	37	0	724566016	56	6039
2026-01-04 03:24:20.61	300.26	26.00	-38.0	-39.1	30.3	3.02e+01	57	37	0	726663168	56	5908
2026-01-04 03:24:21.62	300.56	25.90	-38.3	-39.5	30.1	3.02e+01	56	37	0	728760320	56	6161
2026-01-04 03:24:22.63	300.86	25.79	-38.6	-39.7	29.9	3.02e+01	52	37	0	730333184	56	6340
2026-01-04 03:24:23.64	301.16	25.69	-38.2	-39.4	30.2	3.02e+01	60	37	0	732430336	56	6087
2026-01-04 03:24:24.65	301.45	25.58	-38.4	-39.6	30.0	3.02e+01	60	37	0	734003200	56	6226
2026-01-04 03:24:25.66	301.75	25.48	-38.1	-39.2	30.3	3.02e+01	57	37	0	736100352	56	5985
2026-01-04 03:24:26.67	302.04	25.37	-38.1	-39.3	30.3	3.02e+01	56	37	0	738197504	56	6003
2026-01-04 03:24:27.69	302.33	25.27	-38.3	-39.4	30.1	3.02e+01	52	37	0	739770368	56	6128
2026-01-04 03:24:28.70	302.62	25.16	-38.4	-39.5	30.0	3.02e+01	58	37	0	741867520	56	6198
2026-01-04 03:24:29.71	302.91	25.05	-38.3	-39.5	30.0	3.02e+01	60	37	0	743964672	56	6151
2026-01-04 03:24:30.72	303.19	24.95	-38.4	-39.6	30.3	3.02e+01	44	37	0	745537536	56	6227
2026-01-04 03:24:31.73	303.47	24.84	-38.4	-39.5	30.1	3.02e+01	61	37	0	747634688	56	6185
2026-01-04 03:24:32.74	303.75	24.73	-38.4	-39.6	29.9	3.02e+01	59	37	0	749207552	56	6238
2026-01-04 03:24:33.75	304.03	24.63	-38.8	-40.0	29.8	3.02e+01	64	37	0	751304704	56	6521
2026-01-04 03:24:34.76	304.31	24.52	-38.8	-39.9	29.7	3.02e+01	59	37	0	753401856	56	6485
2026-01-04 03:24:35.77	304.58	24.41	-38.5	-39.7	30.0	3.02e+01	55	37	0	754974720	56	6291
2026-01-04 03:24:36.78	304.85	24.31	-38.4	-39.6	30.1	3.02e+01	61	37	0	757071872	56	6246
2026-01-04 03:24:37.80	305.12	24.20	-38.3	-39.5	30.1	3.02e+01	63	37	0	758644736	56	6161
2026-01-04 03:24:38.81	305.39	24.09	-38.3	-39.4	30.1	3.02e+01	54	37	0	760741888	56	6127
2026-01-04 03:24:39.82	305.66	23.98	-38.5	-39.7	30.1	3.02e+01	60	37	0	762839040	56	6320
2026-01-04 03:24:40.83	305.92	23.87	-38.8	-40.0	29.7	3.02e+01	44	37	0	764411904	56	6541
2026-01-04 03:24:41.84	306.19	23.76	-39.1	-40.3	29.4	3.02e+01	58	37	0	766509056	56	6772
2026-01-04 03:24:42.85	306.45	23.66	-38.7	-39.8	30.0	3.02e+01	54	37	0	768606208	56	6411
2026-01-04 03:24:43.86	306.71	23.55	-39.2	-40.4	29.4	3.02e+01	47	37	0	770179072	58	6128
2026-01-04 03:24:44.87	306.96	23.44	-39.2	-40.4	29.7	3.02e+01	57	37	0	772276224	58	6084
2026-01-04 03:24:45.88	307.22	23.33	-39.3	-40.5	28.9	3.02e+01	60	37	0	773849088	58	6168
2026-01-04 03:24:46.89	307.47	23.22	-39.1	-40.3	29.9	3.02e+01	56	37	0	775946240	58	6044
2026-01-04 03:24:47.91	307.73	23.11	-39.4	-40.5	30.0	3.02e+01	57	37	0	778043392	58	6189
2026-01-04 03:24:48.92	307.98	23.00	-39.1	-40.3	30.0	3.02e+01	59	37	0	779616256	58	6020
2026-01-04 03:24:49.93	308.22	22.89	-38.9	-40.1	29.9	3.02e+01	59	37	0	781713408	58	5861
2026-01-04 03:24:50.94	308.47	22.79	-38.9	-40.1	29.9	3.02e+01	55	37	0	783286272	58	5899
2026-01-04 03:24:51.95	308.71	22.68	-39.1	-40.3	29.8	3.02e+01	46	37	0	785383424	58	5997
2026-01-04 03:24:52.96	308.96	22.57	-40.1	-41.3	29.3	3.02e+01	61	37	0	787480576	58	6770
2026-01-04 03:24:53.97	309.20	22.46	-39.1	-40.3	29.8	3.02e+01	62	37	0	789053440	58	6015
2026-01-04 03:24:54.98	309.44	22.35	-39.2	-40.4	29.8	3.02e+01	59	37	0	791150592	58	6116
2026-01-04 03:24:55.99	309.68	22.24	-39.2	-40.4	29.6	3.02e+01	60	37	0	793247744	58	6090
2026-01-04 03:24:57.01	309.91	22.13	-39.0	-40.2	29.8	3.02e+01	46	37	0	794820608	58	5968
2026-01-04 03:24:58.02	310.15	22.02	-39.0	-40.2	29.7	3.02e+01	56	37	0	796917760	58	5971
2026-01-04 03:24:59.03	310.38	21.92	-38.6	-39.8	30.0	3.02e+01	55	37	0	798490624	58	5675
2026-01-04 03:25:00.04	310.61	21.81	-38.7	-39.9	30.0	3.02e+01	45	37	0	800587776	58	5739
2026-01-04 03:25:01.05	310.84	21.70	-39.0	-40.2	29.9	3.02e+01	63	37	0	802684928	58	5969
2026-01-04 03:25:02.06	311.07	21.59	-39.4	-40.6	29.8	3.02e+01	54	37	0	804257792	58	6239
2026-01-04 03:25:03.07	311.29	21.48	-39.1	-40.3	29.8	3.02e+01	59	37	0	806354944	58	6016
2026-01-04 03:25:04.08	311.52	21.37	-39.1	-40.2	29.8	3.02e+01	57	37	0	808452096	58	5988
2026-01-04 03:25:05.09	311.74	21.27	-39.1	-40.3	29.7	3.02e+01	54	37	0	810024960	58	6003
2026-01-04 03:25:06.10	311.96	21.16	-39.2	-40.4	29.6	3.02e+01	57	37	0	812122112	58	6088
2026-01-04 03:25:07.11	312.18	21.05	-39.1	-40.3	29.5	3.02e+01	58	37	0	813694976	58	6061
2026-01-04 03:25:08.12	312.40	20.94	-38.8	-40.0	29.8	3.02e+01	53	37	0	815792128	58	5822
2026-01-04 03:25:09.14	312.62	20.83	-38.7	-40.0	29.8	3.02e+01	60	37	0	817889280	58	5793
2026-01-04 03:25:10.15	312.83	20.73	-38.8	-40.0	29.7	3.02e+01	45	37	0	819462144	58	5837
2026-01-04 03:25:11.16	313.05	20.62	-39.0	-40.2	29.7	3.02e+01	59	37	0	821559296	58	5933
2026-01-04 03:25:12.17	313.26	20.51	-39.1	-40.3	29.7	3.02e+01	60	37	0	823132160	58	6022
2026-01-04 03:25:13.18	313.47	20.40	-39.1	-40.4	29.5	3.02e+01	49	37	0	825229312	58	6078
2026-01-04 03:25:14.19	313.68	20.30	-38.8	-40.0	29.8	3.02e+01	57	37	0	827326464	58	5817
2026-01-04 03:25:15.20	313.88	20.19	-38.9	-40.2	29.7	3.02e+01	57	37	0	828899328	58	5930
2026-01-04 03:25:16.21	314.09	20.08	-39.1	-40.3	29.4	3.02e+01	56	37	0	830996480	58	6048
2026-01-04 03:25:17.22	314.29	19.98	-39.4	-40.6	29.4	3.02e+01	58	37	0	833093632	58	6269
2026-01-04 03:25:18.23	314.50	19.87	-39.2	-40.4	29.4	3.02e+01	46	37	0	834666496	58	6098
2026-01-04 03:25:19.24	314.70	19.76	-38.6	-39.8	29.8	3.02e+01	59	37	0	836763648	58	5689
2026-01-04 03:25:20.25	314.90	19.66	-38.7	-39.9	29.9	3.02e+01	57	37	0	838336512	58	5738
2026-01-04 03:25:21.27	315.10	19.55	-38.8	-40.0	29.7	3.02e+01	50	37	0	840433664	58	5817
2026-01-04 03:25:22.28	315.30	19.45	-39.0	-40.3	29.4	3.02e+01	60	37	0	842530816	58	6006
2026-01-04 03:25:23.29	315.49	19.34	-39.4	-40.6	29.6	3.02e+01	60	37	0	844103680	58	6276
2026-01-04 03:25:24.30	315.69	19.23	-39.2	-40.4	29.7	3.02e+01	62	37	0	846200832	58	6124
2026-01-04 03:25:25.31	315.88	19.13	-39.2	-40.4	29.7	3.02e+01	57	37	0	848297984	58	6068
2026-01-04 03:25:26.32	316.07	19.02	-39.2	-40.4	29.6	3.02e+01	47	37	0	849870848	58	6128
2026-01-04 03:25:27.33	316.26	18.92	-39.2	-40.4	29.7	3.02e+01	62	37	0	851968000	58	6116
2026-01-04 03:25:28.34	316.45	18.81	-39.7	-40.8	26.9	3.02e+01	59	37	0	853540864	58	6423
2026-01-04 03:25:29.35	316.64	18.71	-39.9	-41.1	29.8	3.02e+01	51	37	0	855638016	60	5901
2026-01-04 03:25:30.36	316.82	18.61	-40.2	-41.4	29.1	3.02e+01	60	37	0	857735168	60	6113
2026-01-04 03:25:31.38	317.01	18.50	-40.6	-41.8	29.3	3.02e+01	58	37	0	859308032	60	6397
2026-01-04 03:25:32.39	317.19	18.40	-39.8	-41.0	29.5	3.02e+01	57	37	0	861405184	60	5792
2026-01-04 03:25:33.40	317.38	18.29	-39.9	-41.1	29.1	3.02e+01	61	37	0	862978048	58	6613
2026-01-04 03:25:34.41	317.56	18.19	-40.1	-41.4	29.5	3.02e+01	57	37	0	865075200	58	6818
2026-01-04 03:25:35.42	317.74	18.09	-39.8	-41.0	29.3	3.02e+01	60	37	0	867172352	60	5803
2026-01-04 03:25:36.43	317.92	17.98	-40.3	-41.5	28.9	3.02e+01	62	37	0	868745216	60	6144
2026-01-04 03:25:37.44	318.09	17.88	-39.5	-40.7	29.8	3.02e+01	45	37	0	870842368	60	5646
2026-01-04 03:25:38.45	318.27	17.78	-39.7	-40.9	29.9	3.02e+01	57	37	0	872415232	60	5734
2026-01-04 03:25:39.47	318.45	17.68	-40.5	-41.7	29.5	3.02e+01	47	37	0	874512384	60	6314
2026-01-04 03:25:40.48	318.62	17.57	-40.4	-41.6	29.6	3.02e+01	64	37	0	876609536	60	6213
2026-01-04 03:25:41.49	318.79	17.47	-40.6	-41.8	29.6	3.02e+01	60	37	0	878182400	60	6399
2026-01-04 03:25:42.50	318.96	17.37	-40.6	-41.8	29.3	3.02e+01	52	37	0	880279552	60	6407
2026-01-04 03:25:43.51	319.13	17.27	-40.0	-41.2	29.7	3.02e+01	57	37	0	882376704	60	5929
2026-01-04 03:25:44.52	319.30	17.17	-39.9	-41.1	29.5	3.02e+01	57	37	0	883949568	60	5903
2026-01-04 03:25:45.53	319.47	17.07	-39.6	-40.8	29.7	3.02e+01	61	37	0	886046720	60	5700
2026-01-04 03:25:46.54	319.64	16.97	-39.7	-40.9	29.8	3.02e+01	61	37	0	887619584	60	5761
2026-01-04 03:25:47.55	319.80	16.87	-40.0	-41.2	29.5	3.02e+01	46	37	0	889716736	60	5947
2026-01-04 03:25:48.56	319.97	16.77	-40.1	-41.2	29.6	3.02e+01	59	37	0	891813888	60	5980
2026-01-04 03:25:49.57	320.13	16.67	-40.1	-41.3	29.7	3.02e+01	59	37	0	893386752	60	6017
2026-01-04 03:25:50.59	320.29	16.57	-39.6	-40.8	29.8	3.02e+01	50	37	0	895483904	60	5681
2026-01-04 03:25:51.60	320.45	16.47	-39.3	-40.5	29.7	3.02e+01	59	37	0	897056768	60	5484
2026-01-04 03:25:52.61	320.61	16.37	-40.4	-41.5	29.7	3.02e+01	57	37	0	899153920	60	6204
2026-01-04 03:25:53.62	320.77	16.27	-39.5	-40.7	29.7	3.02e+01	57	37	0	901251072	60	5648
2026-01-04 03:25:54.63	320.93	16.17	-39.4	-40.6	29.7	3.02e+01	59	37	0	902823936	60	5568
2026-01-04 03:25:55.64	321.09	16.07	-39.6	-40.8	29.7	3.02e+01	58	37	0	904921088	58	6370
2026-01-04 03:25:56.65	321.24	15.97	-39.8	-41.0	29.7	3.02e+01	56	37	0	906493952	58	6534
2026-01-04 03:25:57.66	321.40	15.88	-39.9	-41.1	29.7	3.02e+01	61	37	0	908591104	60	5914
2026-01-04 03:25:58.67	321.55	15.78	-39.9	-41.0	29.9	3.02e+01	46	37	0	910688256	60	5857
2026-01-04 03:25:59.68	321.70	15.68	-39.8	-40.9	29.9	3.02e+01	52	37	0	912261120	60	5789
2026-01-04 03:26:00.70	321.86	15.58	-40.0	-41.2	29.8	3.02e+01	58	37	0	914358272	60	5956
2026-01-04 03:26:01.71	322.01	15.49	-39.6	-40.9	29.4	3.02e+01	58	37	0	916455424	60	5732
2026-01-04 03:26:02.72	322.16	15.39	-39.5	-40.7	29.8	3.02e+01	62	37	0	918028288	60	5633
2026-01-04 03:26:03.73	322.30	15.29	-39.3	-40.5	29.6	3.02e+01	50	37	0	920125440	58	6146
2026-01-04 03:26:04.74	322.45	15.20	-39.6	-40.8	29.5	3.02e+01	59	37	0	921698304	58	6357
2026-01-04 03:26:05.75	322.60	15.10	-39.6	-40.8	29.0	3.02e+01	59	37	0	923795456	58	6364
2026-01-04 03:26:06.76	322.74	15.01	-39.8	-41.0	29.6	3.02e+01	58	37	0	925892608	60	5839
2026-01-04 03:26:07.77	322.89	14.91	-39.5	-40.7	29.6	3.02e+01	59	37	0	927465472	60	5634
2026-01-04 03:26:08.78	323.03	14.82	-38.9	-40.1	30.0	3.02e+01	63	37	0	929562624	58	5878
2026-01-04 03:26:09.79	323.17	14.72	-38.8	-40.0	30.0	3.02e+01	56	37	0	931135488	58	5838
2026-01-04 03:26:10.80	323.32	14.63	-38.8	-40.0	30.0	3.02e+01	60	37	0	933232640	58	5846
2026-01-04 03:26:11.82	323.46	14.53	-38.7	-39.8	30.0	3.02e+01	46	37	0	935329792	58	5714
2026-01-04 03:26:12.83	323.60	14.44	-38.6	-39.8	29.8	3.02e+01	57	37	0	936902656	58	5706
2026-01-04 03:26:13.84	323.74	14.34	-38.7	-39.9	29.9	3.02e+01	60	37	0	938999808	58	5729
2026-01-04 03:26:14.85	323.87	14.25	-38.7	-39.9	29.8	3.02e+01	57	37	0	941096960	58	5744
2026-01-04 03:26:15.86	324.01	14.16	-38.6	-39.8	29.8	3.02e+01	50	37	0	942669824	58	5678
2026-01-04 03:26:16.87	324.15	14.06	-38.5	-39.6	29.9	3.02e+01	56	37	0	944766976	58	5588
2026-01-04 03:26:17.88	324.28	13.97	-38.5	-39.7	29.9	3.02e+01	58	37	0	946339840	58	5607
2026-01-04 03:26:18.89	324.42	13.88	-38.5	-39.7	29.9	3.02e+01	53	37	0	948436992	58	5616
2026-01-04 03:26:19.90	324.55	13.79	-38.6	-39.8	29.8	3.02e+01	47	37	0	950534144	58	5663
2026-01-04 03:26:20.92	324.69	13.69	-38.5	-39.7	29.8	3.02e+01	59	37	0	952107008	58	5619
2026-01-04 03:26:21.93	324.82	13.60	-38.5	-39.7	29.9	3.02e+01	59	37	0	954204160	58	5634
2026-01-04 03:26:22.94	324.95	13.51	-38.5	-39.7	30.0	3.02e+01	59	37	0	956301312	58	5646
2026-01-04 03:26:23.95	325.08	13.42	-38.6	-39.8	29.8	3.02e+01	60	37	0	957874176	58	5703
2026-01-04 03:26:24.96	325.21	13.33	-39.2	-40.4	29.5	3.02e+01	50	37	0	959971328	58	6118
2026-01-04 03:26:25.97	325.34	13.24	-39.2	-40.5	29.5	3.02e+01	60	37	0	961544192	58	6146
2026-01-04 03:26:26.98	325.46	13.15	-39.1	-40.4	29.5	3.02e+01	60	37	0	963641344	58	6069
2026-01-04 03:26:27.99	325.59	13.06	-39.0	-40.3	29.5	3.02e+01	50	37	0	965738496	58	5997
2026-01-04 03:26:29.00	325.72	12.97	-39.5	-40.7	29.4	3.02e+01	59	37	0	967311360	58	6323
2026-01-04 03:26:30.01	325.84	12.88	-39.3	-40.5	29.6	3.02e+01	63	37	0	969408512	58	6191
2026-01-04 03:26:31.03	325.97	12.79	-39.1	-40.2	29.9	3.02e+01	59	37	0	970981376	58	5991
2026-01-04 03:26:32.04	326.09	12.70	-38.9	-40.0	29.8	3.02e+01	59	37	0	973078528	58	5856
2026-01-04 03:26:33.05	326.22	12.61	-38.8	-39.9	29.9	3.02e+01	47	37	0	975175680	58	5783
2026-01-04 03:26:34.06	326.34	12.52	-38.8	-40.0	29.9	3.02e+01	59	37	0	976748544	58	5799
2026-01-04 03:26:35.07	326.46	12.43	-38.7	-39.9	29.9	3.02e+01	51	37	0	978845696	58	5746
2026-01-04 03:26:36.08	326.58	12.34	-39.0	-40.2	29.8	3.02e+01	45	37	0	980942848	58	5927
2026-01-04 03:26:37.09	326.70	12.26	-39.2	-40.4	29.8	3.02e+01	57	37	0	982515712	58	6081
2026-01-04 03:26:38.10	326.82	12.17	-38.9	-40.1	29.8	3.02e+01	53	37	0	984612864	58	5896
2026-01-04 03:26:39.11	326.94	12.08	-39.1	-40.3	29.7	3.02e+01	59	37	0	986185728	58	6016
2026-01-04 03:26:40.13	327.06	11.99	-38.9	-40.1	29.8	3.02e+01	57	37	0	988282880	58	5919
2026-01-04 03:26:41.14	327.17	11.90	-39.1	-40.3	29.7	3.02e+01	51	37	0	990380032	58	6049
2026-01-04 03:26:42.15	327.29	11.82	-39.0	-40.2	29.7	3.02e+01	60	37	0	991952896	58	5952
2026-01-04 03:26:43.16	327.41	11.73	-39.2	-40.4	29.7	3.02e+01	60	37	0	994050048	58	6109
2026-01-04 03:26:44.17	327.52	11.65	-39.2	-40.4	29.7	3.02e+01	57	37	0	996147200	58	6077
2026-01-04 03:26:45.18	327.64	11.56	-39.4	-40.6	29.7	3.02e+01	62	37	0	997720064	58	6221
2026-01-04 03:26:46.19	327.75	11.47	-39.1	-40.3	29.7	3.02e+01	47	37	0	999817216	58	6005
2026-01-04 03:26:47.20	327.86	11.39	-39.2	-40.4	29.8	3.02e+01	58	37	0	1001390080	58	6071
2026-01-04 03:26:48.22	327.98	11.30	-39.1	-40.3	29.7	3.02e+01	62	37	0	1003487232	58	6035
2026-01-04 03:26:49.22	328.09	11.22	-38.9	-40.1	29.7	3.02e+01	44	37	0	1005584384	58	5908
2026-01-04 03:26:50.24	328.20	11.13	-39.0	-40.2	29.5	3.02e+01	59	37	0	1007157248	58	5973
2026-01-04 03:26:51.25	328.31	11.05	-38.9	-40.1	29.8	3.02e+01	60	37	0	1009254400	58	5912
2026-01-04 03:26:52.26	328.42	10.96	-39.4	-40.6	29.7	3.02e+01	59	37	0	1010827264	58	6246
2026-01-04 03:26:53.27	328.53	10.88	-39.3	-40.5	29.8	3.02e+01	59	37	0	1012924416	58	6177
2026-01-04 03:26:54.28	328.64	10.80	-39.1	-40.3	29.7	3.02e+01	50	37	0	1015021568	58	6044
2026-01-04 03:26:55.29	328.74	10.71	-39.3	-40.5	29.4	3.02e+01	62	37	0	1016594432	58	6201
2026-01-04 03:26:56.30	328.85	10.63	-39.3	-40.5	29.2	3.02e+01	60	37	0	1018691584	58	6188
2026-01-04 03:26:57.31	328.96	10.55	-39.3	-40.5	29.2	3.02e+01	47	37	0	1020788736	58	6162
2026-01-04 03:26:58.33	329.06	10.46	-38.9	-40.1	29.3	3.02e+01	59	37	0	1022361600	58	5923
2026-01-04 03:26:59.34	329.17	10.38	-39.1	-40.3	29.3	3.02e+01	58	37	0	1024458752	58	6029
2026-01-04 03:27:00.35	329.27	10.30	-39.3	-40.5	29.4	3.02e+01	59	37	0	1026031616	58	6154
2026-01-04 03:27:01.36	329.38	10.22	-39.4	-40.6	29.3	3.02e+01	57	37	0	1028128768	58	6225
2026-01-04 03:27:02.37	329.48	10.13	-39.2	-40.3	29.5	3.02e+01	47	37	0	1030225920	58	6059
2026-01-04 03:27:03.38	329.58	10.05	-39.6	-40.9	29.3	3.02e+01	60	37	0	1031798784	58	6427
2026-01-04 03:27:04.39	329.69	9.97	-39.6	-40.8	29.1	3.02e+01	57	37	0	1033895936	58	6403
2026-01-04 03:27:05.40	329.79	9.89	-39.4	-40.6	29.4	3.02e+01	45	37	0	1035468800	58	6245
2026-01-04 03:27:06.41	329.89	9.81	-39.6	-40.8	29.3	3.02e+01	58	37	0	1037565952	58	6393
2026-01-04 03:27:07.42	329.99	9.73	-39.3	-40.5	29.3	3.02e+01	50	37	0	1039663104	58	6148
2026-01-04 03:27:08.43	330.09	9.65	-38.8	-40.0	29.7	3.02e+01	59	37	0	1041235968	58	5844
2026-01-04 03:27:09.44	330.19	9.57	-38.7	-39.9	29.7	3.02e+01	59	37	0	1043333120	58	5772
2026-01-04 03:27:10.45	330.29	9.49	-38.9	-40.1	29.6	3.02e+01	53	37	0	1044905984	58	5882
2026-01-04 03:27:11.46	330.39	9.41	-39.2	-40.4	29.3	3.02e+01	61	37	0	1047003136	58	6116
2026-01-04 03:27:12.48	330.48	9.33	-39.1	-40.3	29.5	3.02e+01	60	37	0	1049100288	58	6008
2026-01-04 03:27:13.49	330.58	9.25	-39.1	-40.3	29.4	3.02e+01	53	37	0	1050673152	58	6058
2026-01-04 03:27:14.50	330.68	9.17	-39.0	-40.2	29.3	3.02e+01	61	37	0	1052770304	58	5974
2026-01-04 03:27:15.51	330.77	9.09	-39.0	-40.2	29.3	3.02e+01	51	37	0	1054867456	58	5947
2026-01-04 03:27:16.52	330.87	9.01	-39.1	-40.3	29.1	3.02e+01	61	37	0	1056440320	58	6039
2026-01-04 03:27:17.53	330.96	8.93	-39.0	-40.2	29.2	3.02e+01	56	37	0	1058537472	58	5958
2026-01-04 03:27:18.54	331.06	8.85	-38.9	-40.1	29.3	3.02e+01	48	37	0	1060110336	58	5892
2026-01-04 03:27:19.55	331.15	8.77	-38.9	-40.2	29.2	3.02e+01	57	37	0	1062207488	58	5927
2026-01-04 03:27:20.56	331.25	8.70	-39.0	-40.2	29.2	3.02e+01	58	37	0	1064304640	58	5973
2026-01-04 03:27:21.58	331.34	8.62	-39.2	-40.5	29.1	3.02e+01	59	37	0	1065877504	58	6146
2026-01-04 03:27:22.59	331.43	8.54	-39.2	-40.4	29.2	3.02e+01	57	37	0	1067974656	58	6116
2026-01-04 03:27:23.60	331.52	8.46	-39.3	-40.6	29.0	3.02e+01	52	37	0	1069547520	58	6216
2026-01-04 03:27:24.61	331.62	8.39	-39.7	-40.9	29.1	3.02e+01	59	37	0	1071644672	58	6475
2026-01-04 03:27:25.62	331.71	8.31	-39.4	-40.6	29.2	3.02e+01	61	37	0	1073741824	58	6233
2026-01-04 03:27:26.63	331.80	8.23	-39.3	-40.5	29.1	3.02e+01	52	37	0	1075314688	58	6154
2026-01-04 03:27:27.64	331.89	8.16	-39.3	-40.5	29.0	3.02e+01	58	37	0	1077411840	58	6197
2026-01-04 03:27:28.65	331.98	8.08	-39.5	-40.7	28.9	3.02e+01	60	37	0	1078984704	58	6339
2026-01-04 03:27:29.66	332.07	8.00	-39.3	-40.5	29.1	3.02e+01	60	37	0	1081081856	58	6205
2026-01-04 03:27:30.67	332.15	7.93	-39.5	-40.7	29.0	3.02e+01	56	37	0	1083179008	58	6315
2026-01-04 03:27:31.68	332.24	7.85	-39.4	-40.6	29.0	3.02e+01	51	37	0	1084751872	58	6255
2026-01-04 03:27:32.69	332.33	7.78	-39.6	-40.8	29.2	3.02e+01	54	37	0	1086849024	58	6388
2026-01-04 03:27:33.70	332.42	7.70	-40.0	-41.2	28.8	3.02e+01	61	37	0	1088946176	58	6694
2026-01-04 03:27:34.72	332.50	7.62	-39.7	-40.9	29.0	3.02e+01	51	37	0	1090519040	58	6445
2026-01-04 03:27:35.73	332.59	7.55	-39.9	-41.1	28.9	3.02e+01	58	37	0	1092616192	58	6623
2026-01-04 03:27:36.74	332.68	7.47	-40.0	-41.2	28.8	3.02e+01	59	37	0	1094189056	58	6677
2026-01-04 03:27:37.75	332.76	7.40	-40.1	-41.4	28.6	3.02e+01	59	37	0	1096286208	58	6814
2026-01-04 03:27:38.76	332.85	7.33	-39.8	-41.0	28.7	3.02e+01	57	37	0	1098383360	58	6553
2026-01-04 03:27:39.77	332.93	7.25	-39.7	-40.9	28.6	3.02e+01	53	37	0	1099956224	58	6483
2026-01-04 03:27:40.78	333.01	7.18	-39.6	-40.9	28.7	3.02e+01	57	37	0	1102053376	58	6439
2026-01-04 03:27:41.79	333.10	7.10	-39.6	-40.8	28.7	3.02e+01	62	37	0	1103626240	58	6418
2026-01-04 03:27:42.80	333.18	7.03	-39.8	-41.1	28.6	3.02e+01	53	37	0	1105723392	58	6594
2026-01-04 03:27:43.82	333.26	6.96	-40.0	-41.3	28.4	3.02e+01	59	37	0	1107820544	58	6777
2026-01-04 03:27:44.83	333.35	6.88	-40.1	-41.4	28.5	3.02e+01	45	37	0	1109393408	58	6815
2026-01-04 03:27:45.84	333.43	6.81	-40.4	-41.7	27.1	3.02e+01	58	37	0	1111490560	58	7111
