passes_logs/2026/01/04/R4.6S_Anadyr_2ch/R4.6S_Anadyr_2ch__20260104_183107_NOAA_20_JPSS-1_rec.log

#Pass ID: 20260104_183107_NOAA 20 (JPSS-1)
#Satellite: NOAA 20 (JPSS-1)
#Configuration: NOAA 20
#almurnet v.1.7.20251203
#Start time: 2026-01-04 18:31:11

#Version: 2.2.20231116
#Station: R4.6S_Anadyr_2ch
#Location: 177.4865 lon 64.73178 lat
#TLE: 1 43013U 17073A   25350.93759711  .00000080  00000+0  58734-4 0  9994
#TLE: 2 43013  98.7603 287.1885 0002156  81.1496 278.9924 14.19526878418610

#Time	Az	El	Level	Level2	SNR	BER	BlckErr	Temp	State	Recorded	gain1	gain2
2026-01-04 18:31:11.27	41.37	0.17	-52.6	-66.5	3.3	1.54e+00	0	27	0	0	60	103146
2026-01-04 18:31:12.27	41.30	0.22	-51.8	-67.2	3.6	1.51e+00	0	27	104	0	60	111187
2026-01-04 18:31:13.29	41.22	0.27	-51.7	-67.1	3.6	1.51e+00	0	28	104	0	60	110910
2026-01-04 18:31:14.30	41.15	0.32	-51.7	-67.1	3.6	1.51e+00	0	28	104	0	60	110426
2026-01-04 18:31:15.31	41.08	0.37	-51.7	-67.1	3.6	1.51e+00	0	27	104	0	60	110417
2026-01-04 18:31:16.32	41.00	0.42	-51.6	-66.9	3.6	1.51e+00	0	28	104	0	60	108318
2026-01-04 18:31:17.33	40.93	0.47	-51.7	-67.1	3.6	1.51e+00	0	28	104	0	60	110342
2026-01-04 18:31:18.34	40.85	0.52	-51.9	-67.3	3.6	1.51e+00	0	28	104	0	60	112947
2026-01-04 18:31:19.35	40.78	0.57	-51.6	-67.0	3.6	1.51e+00	0	28	104	0	60	109453
2026-01-04 18:31:20.36	40.70	0.62	-51.4	-66.8	3.6	1.51e+00	0	28	104	0	60	106086
2026-01-04 18:31:21.38	40.63	0.67	-51.4	-66.8	3.6	1.51e+00	0	28	104	0	60	106370
2026-01-04 18:31:22.39	40.55	0.72	-51.4	-66.7	3.6	1.51e+00	0	28	104	0	60	105629
2026-01-04 18:31:23.40	40.48	0.77	-51.1	-66.4	3.6	1.51e+00	0	28	104	0	60	102324
2026-01-04 18:31:24.41	40.40	0.83	-51.0	-66.3	3.6	1.51e+00	0	28	104	0	60	100771
2026-01-04 18:31:25.42	40.32	0.88	-50.9	-66.2	3.6	1.51e+00	0	28	104	0	60	99676
2026-01-04 18:31:26.43	40.25	0.93	-50.6	-65.9	3.6	1.51e+00	0	28	104	0	60	96673
2026-01-04 18:31:27.44	40.17	0.98	-49.9	-65.2	3.6	1.51e+00	0	28	104	0	60	89093
2026-01-04 18:31:28.46	40.09	1.03	-49.9	-65.2	3.6	1.51e+00	0	28	104	0	60	88993
2026-01-04 18:31:29.46	40.02	1.08	-49.9	-65.2	3.6	1.51e+00	0	28	104	0	60	89223
2026-01-04 18:31:30.48	39.94	1.13	-49.9	-65.2	3.6	1.51e+00	0	28	104	0	60	89115
2026-01-04 18:31:31.49	39.86	1.18	-49.9	-65.3	3.6	1.51e+00	0	28	104	0	60	89638
2026-01-04 18:31:32.50	39.78	1.23	-49.9	-65.3	3.6	1.51e+00	0	28	104	0	60	89505
2026-01-04 18:31:33.51	39.70	1.28	-49.9	-65.3	3.6	1.51e+00	0	28	104	0	60	89453
2026-01-04 18:31:34.52	39.63	1.33	-49.9	-65.3	3.6	1.51e+00	0	28	104	0	60	89539
2026-01-04 18:31:35.53	39.55	1.39	-49.9	-65.2	3.6	1.51e+00	0	28	104	0	60	89235
2026-01-04 18:31:36.54	39.47	1.44	-49.9	-65.2	3.5	1.51e+00	0	28	104	0	60	88771
2026-01-04 18:31:37.55	39.39	1.49	-49.9	-65.2	3.6	1.51e+00	0	28	104	0	60	88934
2026-01-04 18:31:38.57	39.31	1.54	-49.9	-65.2	3.6	1.51e+00	0	28	104	0	60	88437
2026-01-04 18:31:39.58	39.23	1.59	-49.9	-65.2	3.6	1.51e+00	0	28	104	0	60	88577
2026-01-04 18:31:40.59	39.15	1.64	-49.9	-65.2	3.6	1.51e+00	0	28	104	0	60	88842
2026-01-04 18:31:41.60	39.07	1.69	-49.9	-65.3	3.6	1.51e+00	0	28	104	0	60	89390
2026-01-04 18:31:42.61	38.98	1.75	-49.9	-65.2	3.6	1.51e+00	0	28	104	0	60	89161
2026-01-04 18:31:43.62	38.90	1.80	-49.9	-65.2	3.6	1.51e+00	0	28	104	0	60	89097
2026-01-04 18:31:44.63	38.82	1.85	-49.9	-65.3	3.6	1.51e+00	0	28	104	0	60	89528
2026-01-04 18:31:45.64	38.74	1.90	-49.9	-65.2	3.6	1.51e+00	0	28	104	0	60	88364
2026-01-04 18:31:46.65	38.66	1.95	-49.9	-65.1	3.6	1.51e+00	0	28	104	0	60	87404
2026-01-04 18:31:47.66	38.57	2.00	-49.9	-65.0	3.6	1.51e+00	0	28	104	0	60	86292
2026-01-04 18:31:48.67	38.49	2.05	-49.9	-64.9	3.6	1.51e+00	0	28	104	0	60	86152
2026-01-04 18:31:49.68	38.41	2.11	-50.0	-65.1	3.5	1.51e+00	0	28	104	0	60	87322
2026-01-04 18:31:50.70	38.32	2.16	-49.9	-65.0	3.5	1.51e+00	0	28	104	0	60	87044
2026-01-04 18:31:51.71	38.24	2.21	-49.9	-65.2	3.6	1.51e+00	0	28	104	0	60	88995
2026-01-04 18:31:52.72	38.16	2.26	-49.9	-65.3	3.6	1.51e+00	0	28	104	0	60	89423
2026-01-04 18:31:53.73	38.07	2.31	-49.9	-65.2	3.6	1.51e+00	0	28	104	0	60	88440
2026-01-04 18:31:54.74	37.99	2.37	-49.9	-65.1	3.6	1.51e+00	0	28	104	0	60	88036
2026-01-04 18:31:55.75	37.90	2.42	-49.9	-65.1	3.6	1.51e+00	0	28	104	0	60	88178
2026-01-04 18:31:56.76	37.82	2.47	-49.9	-65.3	3.6	1.51e+00	0	28	104	0	60	89459
2026-01-04 18:31:57.77	37.73	2.52	-49.9	-65.1	3.6	1.51e+00	0	28	104	0	60	87732
2026-01-04 18:31:58.78	37.65	2.57	-49.9	-64.6	3.6	1.51e+00	0	28	104	0	60	82684
2026-01-04 18:31:59.80	37.56	2.63	-49.9	-64.3	3.6	1.51e+00	0	28	104	0	60	79856
2026-01-04 18:32:00.81	37.47	2.68	-49.9	-64.4	3.6	1.51e+00	0	28	104	0	60	81136
2026-01-04 18:32:01.81	37.39	2.73	-49.9	-65.2	3.6	1.51e+00	0	28	104	0	60	88227
2026-01-04 18:32:02.83	37.30	2.78	-49.9	-64.4	3.7	1.51e+00	0	28	104	0	60	80704
2026-01-04 18:32:03.84	37.21	2.83	-49.9	-63.8	3.6	1.49e+00	0	28	104	0	60	75626
2026-01-04 18:32:04.85	37.12	2.89	-49.7	-60.7	4.0	1.26e+00	24	28	104	0	60	52944
2026-01-04 18:32:05.86	37.03	2.94	-49.1	-56.0	8.5	3.32e-01	0	28	0	0	60	30879
2026-01-04 18:32:06.87	36.95	2.99	-49.5	-57.7	5.5	2.93e-01	0	28	0	2097152	60	37336
2026-01-04 18:32:07.88	36.86	3.04	-50.1	-65.5	3.6	6.02e-01	0	28	104	3145728	60	91476
2026-01-04 18:32:08.89	36.77	3.10	-46.9	-50.1	14.3	1.50e+00	1	28	104	3145728	60	15592
2026-01-04 18:32:09.90	36.68	3.15	-49.8	-64.7	3.6	1.10e+00	0	28	104	3145728	60	83731
2026-01-04 18:32:10.91	36.59	3.20	-50.0	-63.4	3.6	1.50e+00	0	28	104	3145728	60	71753
2026-01-04 18:32:11.92	36.50	3.25	-46.9	-50.1	13.2	1.40e+00	0	28	104	3145728	60	15643
2026-01-04 18:32:12.94	36.41	3.31	-45.6	-47.8	16.6	0.00e+00	0	28	0	4194304	60	11971
2026-01-04 18:32:13.95	36.32	3.36	-46.3	-49.0	15.6	0.00e+00	0	28	0	5242880	60	13772
2026-01-04 18:32:14.96	36.22	3.41	-46.2	-48.8	16.0	0.00e+00	0	28	0	7340032	60	13433
2026-01-04 18:32:15.97	36.13	3.46	-45.9	-48.3	16.1	0.00e+00	0	28	0	9437184	60	12713
2026-01-04 18:32:16.98	36.04	3.52	-45.9	-48.3	16.6	0.00e+00	0	28	0	11534336	60	12723
2026-01-04 18:32:17.99	35.95	3.57	-45.3	-47.5	17.1	0.00e+00	0	28	0	13631488	60	11543
2026-01-04 18:32:19.00	35.86	3.62	-45.2	-47.3	17.1	0.00e+00	0	28	0	14680064	60	11307
2026-01-04 18:32:20.01	35.76	3.67	-45.1	-47.1	17.8	0.00e+00	0	28	0	16777216	60	11093
2026-01-04 18:32:21.02	35.67	3.73	-45.1	-47.1	17.2	0.00e+00	0	28	0	18874368	60	11054
2026-01-04 18:32:22.03	35.58	3.78	-45.7	-48.0	16.7	0.00e+00	0	28	0	20971520	60	12231
2026-01-04 18:32:23.04	35.48	3.83	-45.5	-47.7	16.9	0.00e+00	0	28	0	23068672	60	11885
2026-01-04 18:32:24.05	35.39	3.89	-44.8	-46.7	17.8	0.00e+00	0	28	0	24117248	60	10508
2026-01-04 18:32:25.06	35.29	3.94	-45.1	-47.2	17.2	0.00e+00	0	28	0	26214400	60	11108
2026-01-04 18:32:26.08	35.20	3.99	-45.8	-48.1	16.8	0.00e+00	0	28	0	28311552	60	12424
2026-01-04 18:32:27.09	35.10	4.04	-45.0	-46.9	17.7	0.00e+00	0	28	0	30408704	60	10835
2026-01-04 18:32:28.10	35.01	4.10	-44.7	-46.5	18.0	0.00e+00	0	28	0	32505856	60	10363
2026-01-04 18:32:29.11	34.91	4.15	-45.0	-46.9	17.6	0.00e+00	0	28	0	33554432	60	10853
2026-01-04 18:32:30.12	34.81	4.20	-45.3	-47.3	17.5	0.00e+00	0	28	0	35651584	60	11335
2026-01-04 18:32:31.13	34.72	4.26	-45.2	-47.2	17.6	0.00e+00	0	28	0	37748736	60	11202
2026-01-04 18:32:32.14	34.62	4.31	-45.1	-47.1	17.7	0.00e+00	0	28	0	39845888	60	11044
2026-01-04 18:32:33.15	34.52	4.36	-45.0	-46.9	17.9	0.00e+00	0	28	0	41943040	60	10828
2026-01-04 18:32:34.17	34.42	4.42	-45.4	-47.4	17.6	0.00e+00	0	28	0	42991616	60	11459
2026-01-04 18:32:35.18	34.33	4.47	-45.2	-47.2	17.7	0.00e+00	0	28	0	45088768	60	11121
2026-01-04 18:32:36.19	34.23	4.52	-45.1	-47.1	17.8	0.00e+00	0	28	0	47185920	60	11017
2026-01-04 18:32:37.20	34.13	4.58	-44.8	-46.7	18.2	0.00e+00	0	28	0	49283072	60	10501
2026-01-04 18:32:38.21	34.03	4.63	-45.0	-46.9	17.7	0.00e+00	0	28	0	51380224	60	10844
2026-01-04 18:32:39.22	33.93	4.68	-44.9	-46.8	17.8	0.00e+00	0	28	0	52428800	60	10702
2026-01-04 18:32:40.23	33.83	4.74	-45.1	-47.1	17.7	0.00e+00	0	28	0	54525952	60	11010
2026-01-04 18:32:41.24	33.73	4.79	-44.7	-46.5	18.2	0.00e+00	0	28	0	56623104	60	10350
2026-01-04 18:32:42.25	33.63	4.84	-44.8	-46.6	18.1	0.00e+00	0	28	0	58720256	60	10437
2026-01-04 18:32:43.26	33.53	4.90	-45.1	-47.0	17.8	0.00e+00	0	28	0	60817408	60	10944
2026-01-04 18:32:44.28	33.42	4.95	-44.9	-46.8	18.1	0.00e+00	0	28	0	62914560	60	10686
2026-01-04 18:32:45.29	33.32	5.00	-44.8	-46.6	18.3	0.00e+00	0	28	0	63963136	60	10453
2026-01-04 18:32:46.30	33.22	5.06	-44.8	-46.6	18.2	0.00e+00	0	28	0	66060288	60	10446
2026-01-04 18:32:47.31	33.12	5.11	-45.1	-47.1	17.8	0.00e+00	0	28	0	68157440	60	10988
2026-01-04 18:32:48.32	33.01	5.16	-44.6	-46.3	18.6	0.00e+00	0	28	0	70254592	60	10102
2026-01-04 18:32:49.33	32.91	5.22	-44.9	-46.7	18.1	0.00e+00	0	28	0	72351744	60	10556
2026-01-04 18:32:50.34	32.81	5.27	-44.8	-46.6	18.3	0.00e+00	0	28	0	73400320	60	10455
2026-01-04 18:32:51.35	32.70	5.32	-44.9	-46.7	18.3	0.00e+00	0	28	0	75497472	60	10521
2026-01-04 18:32:52.36	32.60	5.38	-45.0	-46.8	18.2	0.00e+00	0	28	0	77594624	60	10682
2026-01-04 18:32:53.37	32.49	5.43	-44.9	-46.7	18.2	0.00e+00	0	28	0	79691776	60	10569
2026-01-04 18:32:54.38	32.39	5.48	-44.7	-46.5	18.4	0.00e+00	0	28	0	81788928	60	10252
2026-01-04 18:32:55.39	32.28	5.54	-44.7	-46.5	18.5	0.00e+00	0	28	0	82837504	60	10291
2026-01-04 18:32:56.40	32.17	5.59	-44.9	-46.7	18.2	0.00e+00	0	28	0	84934656	60	10588
2026-01-04 18:32:57.42	32.07	5.64	-44.7	-46.5	18.4	0.00e+00	0	28	0	87031808	60	10303
2026-01-04 18:32:58.43	31.96	5.70	-44.6	-46.4	18.7	0.00e+00	0	28	0	89128960	60	10133
2026-01-04 18:32:59.44	31.85	5.75	-44.8	-46.6	18.4	0.00e+00	0	28	0	91226112	60	10393
2026-01-04 18:33:00.45	31.74	5.81	-44.7	-46.4	18.5	0.00e+00	0	28	0	92274688	60	10235
2026-01-04 18:33:01.46	31.63	5.86	-44.7	-46.4	18.8	0.00e+00	0	28	0	94371840	60	10213
2026-01-04 18:33:02.47	31.53	5.91	-44.6	-46.4	18.8	0.00e+00	0	28	0	96468992	60	10129
2026-01-04 18:33:03.48	31.42	5.97	-44.5	-46.2	18.8	0.00e+00	0	28	0	98566144	60	9957
2026-01-04 18:33:04.49	31.31	6.02	-44.5	-46.2	18.8	0.00e+00	0	28	0	100663296	60	9939
2026-01-04 18:33:05.50	31.20	6.07	-44.7	-46.5	18.6	0.00e+00	0	28	0	102760448	60	10250
2026-01-04 18:33:06.51	31.09	6.13	-44.2	-45.8	19.1	0.00e+00	0	28	0	103809024	60	9556
2026-01-04 18:33:07.53	30.97	6.18	-44.5	-46.2	18.8	0.00e+00	0	28	0	105906176	60	10002
2026-01-04 18:33:08.54	30.86	6.24	-44.2	-45.7	19.2	0.00e+00	0	28	0	108003328	60	9437
2026-01-04 18:33:09.55	30.75	6.29	-44.4	-46.1	18.9	0.00e+00	0	28	0	110100480	60	9801
2026-01-04 18:33:10.56	30.64	6.34	-44.3	-46.0	19.0	0.00e+00	0	28	0	112197632	60	9699
2026-01-04 18:33:11.57	30.53	6.40	-44.2	-45.8	18.7	0.00e+00	0	28	0	113246208	60	9562
2026-01-04 18:33:12.58	30.41	6.45	-43.9	-45.4	19.4	0.00e+00	0	28	0	115343360	60	9074
2026-01-04 18:33:13.59	30.30	6.50	-44.0	-45.6	19.2	0.00e+00	0	28	0	117440512	60	9289
2026-01-04 18:33:14.60	30.19	6.56	-43.9	-45.4	19.6	0.00e+00	0	28	0	119537664	60	9101
2026-01-04 18:33:15.62	30.07	6.61	-44.0	-45.6	19.5	0.00e+00	0	28	0	121634816	60	9258
2026-01-04 18:33:16.63	29.96	6.67	-44.0	-45.6	19.4	0.00e+00	0	28	0	122683392	60	9249
2026-01-04 18:33:17.64	29.84	6.72	-44.2	-45.8	19.2	0.00e+00	0	28	0	124780544	60	9471
2026-01-04 18:33:18.65	29.73	6.77	-43.9	-45.4	19.6	0.00e+00	0	28	0	126877696	60	9065
2026-01-04 18:33:19.66	29.61	6.83	-44.1	-45.7	19.4	0.00e+00	0	28	0	128974848	60	9380
2026-01-04 18:33:20.67	29.49	6.88	-43.7	-45.2	19.7	0.00e+00	0	28	0	131072000	60	8912
2026-01-04 18:33:21.68	29.38	6.93	-44.0	-45.5	19.5	0.00e+00	0	28	0	132120576	60	9230
2026-01-04 18:33:22.69	29.26	6.99	-43.7	-45.2	19.7	0.00e+00	0	28	0	134217728	60	8905
2026-01-04 18:33:23.70	29.14	7.04	-43.7	-45.2	19.7	0.00e+00	0	28	0	136314880	60	8869
2026-01-04 18:33:24.71	29.02	7.10	-43.8	-45.3	19.7	0.00e+00	0	28	0	138412032	60	9013
2026-01-04 18:33:25.73	28.90	7.15	-43.4	-44.8	20.2	0.00e+00	0	28	0	140509184	60	8498
2026-01-04 18:33:26.74	28.78	7.20	-43.6	-45.0	20.0	0.00e+00	0	28	0	142606336	60	8660
2026-01-04 18:33:27.75	28.66	7.26	-43.4	-44.7	20.2	0.00e+00	0	28	0	143654912	60	8404
2026-01-04 18:33:28.76	28.54	7.31	-43.4	-44.8	20.2	0.00e+00	0	28	0	145752064	60	8479
2026-01-04 18:33:29.77	28.42	7.36	-43.5	-44.9	20.1	0.00e+00	0	28	0	147849216	60	8536
2026-01-04 18:33:30.78	28.30	7.42	-43.5	-44.9	20.3	0.00e+00	0	28	0	149946368	60	8539
2026-01-04 18:33:31.79	28.18	7.47	-43.6	-45.0	20.2	0.00e+00	0	28	0	152043520	60	8640
2026-01-04 18:33:32.81	28.06	7.53	-43.7	-45.2	20.0	0.00e+00	0	28	0	153092096	60	8825
2026-01-04 18:33:33.82	27.93	7.58	-43.7	-45.1	20.1	0.00e+00	0	28	0	155189248	60	8762
2026-01-04 18:33:34.83	27.81	7.63	-43.8	-45.3	19.6	0.00e+00	0	28	0	157286400	60	8978
2026-01-04 18:33:35.84	27.69	7.69	-43.7	-45.2	20.0	0.00e+00	0	28	0	159383552	60	8837
2026-01-04 18:33:36.85	27.56	7.74	-43.7	-45.1	20.1	0.00e+00	0	28	0	161480704	60	8821
2026-01-04 18:33:37.86	27.44	7.79	-43.6	-45.0	20.0	0.00e+00	0	28	0	162529280	60	8718
2026-01-04 18:33:38.87	27.32	7.85	-43.7	-45.1	20.0	0.00e+00	0	28	0	164626432	60	8746
2026-01-04 18:33:39.88	27.19	7.90	-43.6	-44.9	20.2	0.00e+00	0	28	0	166723584	60	8598
2026-01-04 18:33:40.90	27.06	7.96	-43.8	-45.2	19.9	0.00e+00	0	28	0	168820736	60	8891
2026-01-04 18:33:41.90	26.94	8.01	-43.7	-45.2	20.1	0.00e+00	0	28	0	170917888	60	8834
2026-01-04 18:33:42.92	26.81	8.06	-43.8	-45.2	20.1	0.00e+00	0	28	0	171966464	60	8876
2026-01-04 18:33:43.93	26.68	8.12	-43.7	-45.2	20.2	0.00e+00	0	28	0	174063616	60	8830
2026-01-04 18:33:44.94	26.56	8.17	-43.4	-44.7	20.4	0.00e+00	0	28	0	176160768	60	8375
2026-01-04 18:33:45.95	26.43	8.22	-43.5	-45.0	20.2	0.00e+00	0	28	0	178257920	60	8626
2026-01-04 18:33:46.96	26.30	8.28	-43.6	-45.0	20.2	0.00e+00	0	28	0	180355072	60	8663
2026-01-04 18:33:47.97	26.17	8.33	-43.4	-44.7	20.5	0.00e+00	0	28	0	181403648	60	8403
2026-01-04 18:33:48.98	26.04	8.38	-43.4	-44.7	20.4	0.00e+00	0	28	0	183500800	60	8396
2026-01-04 18:33:49.99	25.91	8.44	-43.4	-44.7	20.4	0.00e+00	0	28	0	185597952	60	8392
2026-01-04 18:33:51.01	25.78	8.49	-43.3	-44.6	20.5	0.00e+00	0	28	0	187695104	60	8326
2026-01-04 18:33:52.02	25.65	8.54	-43.1	-44.4	20.6	0.00e+00	0	28	0	189792256	60	8133
2026-01-04 18:33:53.03	25.52	8.60	-43.5	-44.9	20.4	0.00e+00	0	28	0	190840832	60	8540
2026-01-04 18:33:54.04	25.38	8.65	-43.4	-44.8	20.5	0.00e+00	0	28	0	192937984	60	8457
2026-01-04 18:33:55.05	25.25	8.70	-43.4	-44.8	20.2	0.00e+00	0	28	0	195035136	60	8430
2026-01-04 18:33:56.06	25.12	8.76	-43.5	-44.8	20.3	0.00e+00	0	28	0	197132288	60	8492
2026-01-04 18:33:57.07	24.99	8.81	-43.2	-44.5	20.6	0.00e+00	0	28	0	199229440	60	8201
2026-01-04 18:33:58.08	24.85	8.86	-43.3	-44.7	20.5	0.00e+00	0	28	0	201326592	60	8332
2026-01-04 18:33:59.09	24.72	8.92	-43.3	-44.6	20.6	0.00e+00	0	28	0	202375168	60	8266
2026-01-04 18:34:00.10	24.58	8.97	-43.1	-44.4	20.7	0.00e+00	0	28	0	204472320	60	8109
2026-01-04 18:34:01.12	24.45	9.02	-43.4	-44.8	20.4	0.00e+00	0	28	0	206569472	60	8472
2026-01-04 18:34:02.13	24.31	9.08	-43.5	-44.9	20.3	0.00e+00	0	28	0	208666624	60	8554
2026-01-04 18:34:03.14	24.17	9.13	-43.2	-44.5	20.5	0.00e+00	0	28	0	210763776	60	8165
2026-01-04 18:34:04.15	24.04	9.18	-43.3	-44.6	20.7	0.00e+00	0	29	0	211812352	60	8261
2026-01-04 18:34:05.16	23.90	9.23	-43.4	-44.7	20.4	0.00e+00	0	28	0	213909504	60	8399
2026-01-04 18:34:06.17	23.76	9.29	-43.6	-45.0	20.2	0.00e+00	0	29	0	216006656	60	8654
2026-01-04 18:34:07.18	23.62	9.34	-43.6	-44.9	20.4	0.00e+00	0	29	0	218103808	60	8614
2026-01-04 18:34:08.19	23.48	9.39	-43.3	-44.7	20.5	0.00e+00	0	28	0	220200960	60	8349
2026-01-04 18:34:09.20	23.34	9.44	-43.3	-44.6	20.7	0.00e+00	0	28	0	221249536	60	8323
2026-01-04 18:34:10.21	23.20	9.50	-43.4	-44.7	20.4	0.00e+00	0	29	0	223346688	60	8388
2026-01-04 18:34:11.23	23.06	9.55	-43.2	-44.5	20.7	0.00e+00	0	29	0	225443840	60	8215
2026-01-04 18:34:12.24	22.92	9.60	-43.4	-44.8	20.4	0.00e+00	0	29	0	227540992	60	8465
2026-01-04 18:34:13.25	22.78	9.65	-43.5	-44.9	20.3	0.00e+00	0	28	0	229638144	60	8560
2026-01-04 18:34:14.26	22.64	9.71	-43.4	-44.8	20.4	0.00e+00	0	29	0	230686720	60	8457
2026-01-04 18:34:15.27	22.49	9.76	-43.1	-44.4	20.8	0.00e+00	0	29	0	232783872	60	8098
2026-01-04 18:34:16.28	22.35	9.81	-43.4	-44.8	20.4	0.00e+00	0	28	0	234881024	60	8429
2026-01-04 18:34:17.29	22.21	9.86	-43.3	-44.6	20.7	0.00e+00	0	28	0	236978176	60	8256
2026-01-04 18:34:18.30	22.06	9.92	-43.3	-44.6	20.5	0.00e+00	0	28	0	239075328	60	8260
2026-01-04 18:34:19.31	21.92	9.97	-44.0	-45.4	20.2	0.00e+00	0	29	0	240123904	60	9067
2026-01-04 18:34:20.33	21.77	10.02	-43.5	-44.9	20.7	0.00e+00	0	28	0	242221056	60	8535
2026-01-04 18:34:21.34	21.63	10.07	-43.4	-44.7	20.5	0.00e+00	0	28	0	244318208	60	8380
2026-01-04 18:34:22.35	21.48	10.12	-43.4	-44.7	20.5	0.00e+00	0	28	0	246415360	60	8411
2026-01-04 18:34:23.36	21.33	10.18	-43.4	-44.7	20.3	0.00e+00	0	28	0	248512512	60	8395
2026-01-04 18:34:24.37	21.19	10.23	-43.3	-44.6	20.7	0.00e+00	0	29	0	250609664	60	8275
2026-01-04 18:34:25.38	21.04	10.28	-43.1	-44.4	20.9	0.00e+00	0	28	0	251658240	60	8048
2026-01-04 18:34:26.39	20.89	10.33	-43.1	-44.4	20.8	0.00e+00	0	28	0	253755392	60	8099
2026-01-04 18:34:27.40	20.74	10.38	-43.1	-44.4	20.8	0.00e+00	0	28	0	255852544	60	8092
2026-01-04 18:34:28.41	20.59	10.43	-43.2	-44.5	20.7	0.00e+00	0	28	0	257949696	60	8146
2026-01-04 18:34:29.42	20.44	10.48	-43.2	-44.5	20.7	0.00e+00	0	28	0	260046848	60	8159
2026-01-04 18:34:30.43	20.29	10.53	-43.2	-44.5	20.9	0.00e+00	0	28	0	261095424	60	8155
2026-01-04 18:34:31.45	20.14	10.59	-43.3	-44.6	20.7	0.00e+00	0	28	0	263192576	60	8253
2026-01-04 18:34:32.46	19.99	10.64	-43.0	-44.3	20.9	0.00e+00	0	29	0	265289728	60	7993
2026-01-04 18:34:33.47	19.83	10.69	-43.1	-44.4	20.7	0.00e+00	0	28	0	267386880	60	8057
2026-01-04 18:34:34.48	19.68	10.74	-43.3	-44.6	20.8	0.00e+00	0	28	0	269484032	60	8254
2026-01-04 18:34:35.49	19.53	10.79	-43.1	-44.3	21.0	0.00e+00	0	28	0	270532608	60	8030
2026-01-04 18:34:36.50	19.37	10.84	-42.9	-44.2	21.0	0.00e+00	0	28	0	272629760	60	7872
2026-01-04 18:34:37.51	19.22	10.89	-43.2	-44.5	20.9	0.00e+00	0	28	0	274726912	60	8158
2026-01-04 18:34:38.53	19.06	10.94	-43.0	-44.2	21.0	0.00e+00	0	28	0	276824064	60	7928
2026-01-04 18:34:39.54	18.91	10.99	-42.8	-44.1	21.2	0.00e+00	0	29	0	278921216	60	7781
2026-01-04 18:34:40.55	18.75	11.04	-42.8	-44.0	21.3	0.00e+00	0	28	0	279969792	60	7723
2026-01-04 18:34:41.56	18.59	11.09	-42.8	-44.0	21.2	0.00e+00	0	29	0	282066944	60	7719
2026-01-04 18:34:42.57	18.44	11.14	-42.6	-43.8	21.3	0.00e+00	0	28	0	284164096	60	7584
2026-01-04 18:34:43.58	18.28	11.19	-42.6	-43.7	21.5	0.00e+00	0	28	0	286261248	60	7494
2026-01-04 18:34:44.59	18.12	11.24	-42.3	-43.5	21.6	0.00e+00	0	28	0	288358400	60	7292
2026-01-04 18:34:45.60	17.96	11.29	-42.3	-43.5	21.7	0.00e+00	0	28	0	289406976	60	7270
2026-01-04 18:34:46.61	17.80	11.34	-42.2	-43.4	21.7	0.00e+00	0	28	0	291504128	60	7206
2026-01-04 18:34:47.62	17.64	11.39	-42.2	-43.4	21.8	0.00e+00	0	28	0	293601280	60	7191
2026-01-04 18:34:48.64	17.48	11.44	-42.7	-43.9	21.2	0.00e+00	0	28	0	295698432	60	7632
2026-01-04 18:34:49.65	17.32	11.49	-42.3	-43.4	21.7	0.00e+00	0	28	0	297795584	60	7209
2026-01-04 18:34:50.66	17.16	11.54	-42.3	-43.4	21.7	0.00e+00	0	28	0	299892736	60	7224
2026-01-04 18:34:51.67	17.00	11.59	-42.2	-43.3	21.8	0.00e+00	0	28	0	300941312	60	7160
2026-01-04 18:34:52.68	16.84	11.63	-42.2	-43.3	21.7	0.00e+00	0	28	0	303038464	60	7151
2026-01-04 18:34:53.69	16.67	11.68	-42.4	-43.5	21.7	0.00e+00	0	28	0	305135616	60	7324
2026-01-04 18:34:54.70	16.51	11.73	-42.1	-43.2	22.0	0.00e+00	0	28	0	307232768	60	7078
2026-01-04 18:34:55.71	16.34	11.78	-42.2	-43.4	21.8	0.00e+00	0	28	0	309329920	60	7203
2026-01-04 18:34:56.72	16.18	11.83	-42.2	-43.3	21.9	0.00e+00	0	28	0	310378496	60	7123
2026-01-04 18:34:57.73	16.01	11.88	-42.3	-43.4	21.7	0.00e+00	0	28	0	312475648	60	7253
2026-01-04 18:34:58.75	15.85	11.93	-42.6	-43.9	21.5	0.00e+00	0	28	0	314572800	60	7600
2026-01-04 18:34:59.76	15.68	11.97	-41.9	-43.0	22.0	0.00e+00	0	28	0	316669952	60	6885
2026-01-04 18:35:00.77	15.51	12.02	-42.0	-43.1	22.0	0.00e+00	0	28	0	318767104	60	6972
2026-01-04 18:35:01.78	15.35	12.07	-42.1	-43.2	22.1	0.00e+00	0	28	0	319815680	60	7052
2026-01-04 18:35:02.79	15.18	12.12	-42.0	-43.1	22.0	0.00e+00	0	29	0	321912832	60	6986
2026-01-04 18:35:03.80	15.01	12.16	-41.9	-43.0	22.1	0.00e+00	0	28	0	324009984	60	6849
2026-01-04 18:35:04.81	14.84	12.21	-41.8	-42.9	22.1	0.00e+00	0	28	0	326107136	60	6793
2026-01-04 18:35:05.82	14.67	12.26	-42.7	-43.9	21.8	0.00e+00	0	28	0	328204288	60	7647
2026-01-04 18:35:06.83	14.50	12.30	-41.8	-42.9	22.4	0.00e+00	0	28	0	329252864	60	6823
2026-01-04 18:35:07.84	14.33	12.35	-41.6	-42.6	22.5	0.00e+00	0	29	0	331350016	60	6612
2026-01-04 18:35:08.85	14.16	12.40	-41.5	-42.5	22.6	0.00e+00	0	29	0	333447168	60	6494
2026-01-04 18:35:09.87	13.98	12.44	-41.6	-42.6	22.4	0.00e+00	0	28	0	335544320	60	6614
2026-01-04 18:35:10.88	13.81	12.49	-42.3	-43.4	21.8	0.00e+00	0	28	0	337641472	60	7233
2026-01-04 18:35:11.89	13.64	12.53	-41.6	-42.7	22.3	0.00e+00	0	28	0	339738624	60	6632
2026-01-04 18:35:12.90	13.47	12.58	-41.7	-42.8	22.6	0.00e+00	0	28	0	340787200	60	6715
2026-01-04 18:35:13.91	13.29	12.63	-42.3	-43.4	21.7	0.00e+00	0	29	0	342884352	60	7233
2026-01-04 18:35:14.92	13.12	12.67	-41.1	-42.1	22.6	0.00e+00	0	28	0	344981504	60	6211
2026-01-04 18:35:15.93	12.94	12.72	-41.1	-42.1	22.3	0.00e+00	0	29	0	347078656	60	6210
2026-01-04 18:35:16.94	12.77	12.76	-41.4	-42.4	22.9	0.00e+00	0	29	0	349175808	60	6409
2026-01-04 18:35:17.95	12.59	12.81	-41.1	-42.1	23.0	0.00e+00	0	28	0	350224384	60	6215
2026-01-04 18:35:18.96	12.41	12.85	-40.9	-41.9	23.2	0.00e+00	0	28	0	352321536	60	6046
2026-01-04 18:35:19.98	12.23	12.90	-40.9	-41.9	23.2	0.00e+00	0	28	0	354418688	60	6062
2026-01-04 18:35:20.99	12.06	12.94	-40.9	-41.8	23.3	0.00e+00	0	28	0	356515840	60	6032
2026-01-04 18:35:22.00	11.88	12.98	-40.8	-41.7	23.4	0.00e+00	0	28	0	358612992	60	5942
2026-01-04 18:35:23.01	11.70	13.03	-40.8	-41.8	23.3	0.00e+00	0	29	0	359661568	60	5986
2026-01-04 18:35:24.02	11.52	13.07	-40.9	-41.8	23.2	0.00e+00	0	29	0	361758720	60	6011
2026-01-04 18:35:25.03	11.34	13.11	-40.8	-41.8	23.1	0.00e+00	0	29	0	363855872	60	6012
2026-01-04 18:35:26.04	11.16	13.16	-41.1	-42.1	23.1	0.00e+00	0	28	0	365953024	60	6202
2026-01-04 18:35:27.05	10.98	13.20	-41.1	-42.1	22.9	0.00e+00	0	28	0	368050176	60	6241
2026-01-04 18:35:28.07	10.79	13.24	-41.0	-42.0	23.2	0.00e+00	0	28	0	369098752	60	6119
2026-01-04 18:35:29.08	10.61	13.29	-41.0	-41.9	23.1	0.00e+00	0	28	0	371195904	60	6094
2026-01-04 18:35:30.09	10.43	13.33	-41.8	-42.9	22.7	0.00e+00	0	28	0	373293056	60	6824
2026-01-04 18:35:31.10	10.24	13.37	-41.6	-42.6	22.4	0.00e+00	0	28	0	375390208	60	6587
2026-01-04 18:35:32.11	10.06	13.41	-41.7	-42.8	22.7	0.00e+00	0	28	0	377487360	60	6720
2026-01-04 18:35:33.12	9.88	13.46	-41.4	-42.5	22.8	0.00e+00	0	28	0	378535936	60	6473
2026-01-04 18:35:34.13	9.69	13.50	-41.4	-42.4	22.8	0.00e+00	0	28	0	380633088	60	6431
2026-01-04 18:35:35.14	9.51	13.54	-41.4	-42.5	22.7	0.00e+00	0	28	0	382730240	60	6485
2026-01-04 18:35:36.15	9.32	13.58	-41.3	-42.4	22.7	0.00e+00	0	28	0	384827392	60	6396
2026-01-04 18:35:37.17	9.13	13.62	-41.3	-42.3	22.8	0.00e+00	0	28	0	386924544	60	6370
2026-01-04 18:35:38.18	8.94	13.66	-41.4	-42.5	22.7	0.00e+00	0	29	0	387973120	60	6479
2026-01-04 18:35:39.19	8.76	13.70	-41.6	-42.7	22.6	0.00e+00	0	29	0	390070272	60	6645
2026-01-04 18:35:40.20	8.57	13.74	-41.3	-42.3	22.8	0.00e+00	0	29	0	392167424	60	6344
2026-01-04 18:35:41.21	8.38	13.78	-41.3	-42.4	22.7	0.00e+00	0	29	0	394264576	60	6410
2026-01-04 18:35:42.22	8.19	13.82	-41.4	-42.4	22.7	0.00e+00	0	28	0	396361728	60	6461
2026-01-04 18:35:43.23	8.00	13.86	-41.3	-42.3	22.8	0.00e+00	0	29	0	398458880	60	6376
2026-01-04 18:35:44.24	7.81	13.90	-41.2	-42.2	23.0	0.00e+00	0	29	0	399507456	60	6266
2026-01-04 18:35:45.25	7.62	13.94	-41.2	-42.2	22.6	0.00e+00	0	28	0	401604608	60	6247
2026-01-04 18:35:46.26	7.43	13.98	-41.2	-42.2	22.9	0.00e+00	0	28	0	403701760	60	6263
2026-01-04 18:35:47.27	7.24	14.02	-41.3	-42.2	22.8	0.00e+00	0	28	0	405798912	60	6316
2026-01-04 18:35:48.29	7.04	14.05	-41.3	-42.3	22.9	0.00e+00	0	29	0	407896064	60	6327
2026-01-04 18:35:49.30	6.85	14.09	-41.4	-42.4	23.0	0.00e+00	0	28	0	408944640	60	6430
2026-01-04 18:35:50.31	6.66	14.13	-41.2	-42.1	23.0	0.00e+00	0	28	0	411041792	60	6239
2026-01-04 18:35:51.32	6.47	14.17	-41.2	-42.2	23.1	0.00e+00	0	29	0	413138944	60	6274
2026-01-04 18:35:52.33	6.27	14.20	-41.3	-42.3	23.1	0.00e+00	0	29	0	415236096	60	6353
2026-01-04 18:35:53.34	6.08	14.24	-41.2	-42.1	23.2	0.00e+00	0	29	0	417333248	60	6242
2026-01-04 18:35:54.35	5.88	14.28	-41.1	-42.1	23.1	0.00e+00	0	28	0	418381824	60	6204
2026-01-04 18:35:55.36	5.69	14.31	-41.2	-42.2	22.9	0.00e+00	0	29	0	420478976	60	6287
2026-01-04 18:35:56.37	5.49	14.35	-41.1	-42.1	23.1	0.00e+00	0	29	0	422576128	60	6197
2026-01-04 18:35:57.38	5.29	14.38	-40.9	-41.9	23.1	0.00e+00	0	29	0	424673280	60	6081
2026-01-04 18:35:58.40	5.09	14.42	-41.1	-42.1	23.1	0.00e+00	0	28	0	426770432	60	6227
2026-01-04 18:35:59.41	4.90	14.46	-41.0	-42.0	22.7	0.00e+00	0	29	0	427819008	60	6116
2026-01-04 18:36:00.42	4.70	14.49	-40.9	-41.9	23.0	0.00e+00	0	29	0	429916160	60	6040
2026-01-04 18:36:01.43	4.50	14.52	-41.4	-42.5	22.7	0.00e+00	0	29	0	432013312	60	6477
2026-01-04 18:36:02.44	4.30	14.56	-41.2	-42.2	23.0	0.00e+00	0	28	0	434110464	60	6287
2026-01-04 18:36:03.45	4.10	14.59	-41.2	-42.2	22.9	0.00e+00	0	28	0	436207616	60	6246
2026-01-04 18:36:04.46	3.90	14.63	-41.3	-42.3	22.8	0.00e+00	0	28	0	437256192	60	6376
2026-01-04 18:36:05.47	3.70	14.66	-41.3	-42.3	22.8	0.00e+00	0	28	0	439353344	60	6358
2026-01-04 18:36:06.49	3.50	14.69	-41.1	-42.1	23.3	0.00e+00	0	29	0	441450496	60	6234
2026-01-04 18:36:07.50	3.30	14.72	-41.0	-42.0	23.1	0.00e+00	0	28	0	443547648	60	6115
2026-01-04 18:36:08.51	3.10	14.76	-40.9	-41.9	23.1	0.00e+00	0	29	0	445644800	60	6084
2026-01-04 18:36:09.52	2.90	14.79	-40.8	-41.8	23.0	0.00e+00	0	29	0	447741952	60	5990
2026-01-04 18:36:10.53	2.69	14.82	-41.6	-42.7	22.6	0.00e+00	0	28	0	448790528	60	6651
2026-01-04 18:36:11.54	2.49	14.85	-41.1	-42.0	23.1	0.00e+00	0	29	0	450887680	60	6163
2026-01-04 18:36:12.55	2.29	14.88	-40.9	-41.9	23.0	0.00e+00	0	28	0	452984832	60	6038
2026-01-04 18:36:13.56	2.08	14.91	-41.1	-42.1	23.0	0.00e+00	0	28	0	455081984	60	6216
2026-01-04 18:36:14.57	1.88	14.94	-41.6	-42.7	22.6	0.00e+00	0	29	0	457179136	60	6616
2026-01-04 18:36:15.59	1.67	14.97	-41.6	-42.6	22.7	0.00e+00	0	29	0	458227712	60	6569
2026-01-04 18:36:16.60	1.47	15.00	-41.8	-42.8	22.7	7.00e-07	0	28	0	460324864	60	6729
2026-01-04 18:36:17.61	1.26	15.03	-41.5	-42.5	22.8	0.00e+00	0	28	0	462422016	60	6520
2026-01-04 18:36:18.62	1.06	15.06	-41.2	-42.2	22.8	7.00e-07	0	28	0	464519168	60	6277
2026-01-04 18:36:19.63	0.85	15.09	-41.4	-42.4	22.7	0.00e+00	0	29	0	466616320	60	6420
2026-01-04 18:36:20.64	0.64	15.12	-41.7	-42.7	22.7	0.00e+00	0	29	0	467664896	60	6660
2026-01-04 18:36:21.65	0.44	15.15	-41.2	-42.2	23.0	0.00e+00	0	28	0	469762048	60	6253
2026-01-04 18:36:22.66	0.23	15.18	-41.2	-42.2	22.8	0.00e+00	0	28	0	471859200	60	6275
2026-01-04 18:36:23.67	0.02	15.20	-40.9	-41.9	23.2	0.00e+00	0	29	0	473956352	60	6078
2026-01-04 18:36:24.69	359.81	15.23	-40.7	-41.7	22.8	0.00e+00	0	29	0	476053504	60	5925
2026-01-04 18:36:25.70	359.60	15.26	-40.9	-41.8	23.2	0.00e+00	0	29	0	477102080	60	6030
2026-01-04 18:36:26.71	359.39	15.28	-40.9	-41.8	23.1	0.00e+00	0	29	0	479199232	60	6012
2026-01-04 18:36:27.72	359.18	15.31	-40.9	-41.8	23.2	0.00e+00	0	29	0	481296384	60	6018
2026-01-04 18:36:28.73	358.97	15.33	-41.0	-42.0	23.0	0.00e+00	0	29	0	483393536	60	6116
2026-01-04 18:36:29.74	358.76	15.36	-41.5	-42.5	22.5	0.00e+00	0	29	0	485490688	60	6516
2026-01-04 18:36:30.75	358.55	15.38	-41.0	-42.0	23.3	0.00e+00	0	29	0	487587840	60	6127
2026-01-04 18:36:31.76	358.34	15.41	-40.9	-41.9	23.5	0.00e+00	0	28	0	488636416	60	6050
2026-01-04 18:36:32.77	358.13	15.43	-40.9	-41.9	23.4	0.00e+00	0	29	0	490733568	60	6057
2026-01-04 18:36:33.78	357.92	15.46	-41.1	-42.0	23.3	0.00e+00	0	29	0	492830720	60	6147
2026-01-04 18:36:34.79	357.71	15.48	-41.0	-42.0	23.3	0.00e+00	0	29	0	494927872	60	6105
2026-01-04 18:36:35.80	357.50	15.50	-41.2	-42.2	23.2	1.50e-06	0	29	0	497025024	60	6299
2026-01-04 18:36:36.81	357.28	15.53	-41.2	-42.2	23.0	0.00e+00	0	29	0	498073600	60	6278
2026-01-04 18:36:37.83	357.07	15.55	-41.3	-42.3	23.1	7.00e-07	0	28	0	500170752	60	6378
2026-01-04 18:36:38.84	356.86	15.57	-41.5	-42.5	22.0	0.00e+00	0	29	0	502267904	60	6476
2026-01-04 18:36:39.85	356.64	15.59	-41.3	-42.3	22.9	0.00e+00	0	29	0	504365056	60	6323
2026-01-04 18:36:40.86	356.43	15.61	-41.5	-42.5	22.9	0.00e+00	0	29	0	506462208	60	6523
2026-01-04 18:36:41.87	356.21	15.63	-41.4	-42.4	22.6	0.00e+00	0	29	0	507510784	60	6428
2026-01-04 18:36:42.88	356.00	15.65	-41.9	-42.9	22.7	0.00e+00	0	29	0	509607936	60	6772
2026-01-04 18:36:43.89	355.79	15.67	-42.3	-43.3	22.6	0.00e+00	0	29	0	511705088	60	7160
2026-01-04 18:36:44.90	355.57	15.69	-42.1	-43.2	22.5	0.00e+00	0	29	0	513802240	60	7035
2026-01-04 18:36:45.92	355.35	15.71	-41.5	-42.5	22.8	0.00e+00	0	29	0	515899392	60	6531
2026-01-04 18:36:46.93	355.14	15.73	-41.3	-42.3	23.1	0.00e+00	0	29	0	516947968	60	6349
2026-01-04 18:36:47.94	354.92	15.75	-41.4	-42.4	23.0	0.00e+00	0	29	0	519045120	60	6433
2026-01-04 18:36:48.95	354.71	15.77	-41.1	-42.1	22.9	0.00e+00	0	29	0	521142272	60	6218
2026-01-04 18:36:49.96	354.49	15.79	-41.1	-42.1	23.1	0.00e+00	0	29	0	523239424	60	6201
2026-01-04 18:36:50.97	354.27	15.80	-41.2	-42.2	23.1	0.00e+00	0	29	0	525336576	60	6257
2026-01-04 18:36:51.98	354.06	15.82	-41.1	-42.1	23.1	0.00e+00	0	29	0	527433728	60	6207
2026-01-04 18:36:52.99	353.84	15.84	-41.3	-42.3	23.0	0.00e+00	0	28	0	528482304	60	6354
2026-01-04 18:36:54.00	353.62	15.85	-41.3	-42.3	23.2	0.00e+00	0	28	0	530579456	60	6322
2026-01-04 18:36:55.02	353.40	15.87	-41.2	-42.2	23.3	0.00e+00	0	29	0	532676608	60	6267
2026-01-04 18:36:56.03	353.19	15.88	-41.2	-42.1	23.2	0.00e+00	0	29	0	534773760	60	6240
2026-01-04 18:36:57.04	352.97	15.90	-41.2	-42.1	23.2	0.00e+00	0	28	0	536870912	60	6237
2026-01-04 18:36:58.05	352.75	15.91	-41.3	-42.3	22.9	7.00e-07	0	28	0	537919488	60	6333
2026-01-04 18:36:59.06	352.53	15.93	-41.4	-42.4	23.0	0.00e+00	0	29	0	540016640	60	6422
2026-01-04 18:37:00.07	352.31	15.94	-41.3	-42.3	22.9	7.00e-07	0	29	0	542113792	60	6350
2026-01-04 18:37:01.08	352.09	15.95	-41.6	-42.6	22.8	0.00e+00	0	28	0	544210944	60	6584
2026-01-04 18:37:02.09	351.87	15.96	-41.5	-42.5	22.9	0.00e+00	0	28	0	546308096	60	6495
2026-01-04 18:37:03.10	351.66	15.98	-41.8	-42.8	22.8	0.00e+00	0	28	0	547356672	60	6732
2026-01-04 18:37:04.12	351.43	15.99	-41.5	-42.5	22.9	0.00e+00	0	28	0	549453824	60	6500
2026-01-04 18:37:05.13	351.21	16.00	-41.5	-42.5	22.9	0.00e+00	0	28	0	551550976	60	6514
2026-01-04 18:37:06.14	350.99	16.01	-41.6	-42.6	22.7	0.00e+00	0	29	0	553648128	60	6577
2026-01-04 18:37:07.15	350.78	16.02	-41.5	-42.5	22.9	0.00e+00	0	29	0	555745280	60	6483
2026-01-04 18:37:08.16	350.56	16.03	-41.3	-42.3	22.9	7.00e-07	0	29	0	556793856	60	6354
2026-01-04 18:37:09.17	350.34	16.04	-41.6	-42.7	22.6	0.00e+00	0	28	0	558891008	60	6642
2026-01-04 18:37:10.18	350.11	16.05	-41.5	-42.5	22.7	0.00e+00	0	28	0	560988160	60	6535
2026-01-04 18:37:11.19	349.89	16.06	-41.8	-42.8	22.5	0.00e+00	0	29	0	563085312	60	6760
2026-01-04 18:37:12.20	349.67	16.07	-41.7	-42.7	22.6	0.00e+00	0	28	0	565182464	60	6647
2026-01-04 18:37:13.21	349.45	16.08	-41.9	-42.9	22.6	0.00e+00	0	29	0	566231040	60	6812
2026-01-04 18:37:14.23	349.23	16.08	-41.7	-42.7	22.8	7.00e-07	0	29	0	568328192	60	6644
2026-01-04 18:37:15.24	349.01	16.09	-42.8	-44.0	21.7	0.00e+00	0	28	0	570425344	60	7702
2026-01-04 18:37:16.25	348.79	16.10	-42.5	-43.7	21.5	3.00e-06	0	28	0	572522496	60	7444
2026-01-04 18:37:17.26	348.57	16.10	-42.0	-43.1	22.6	0.00e+00	0	28	0	574619648	60	6969
2026-01-04 18:37:18.27	348.35	16.11	-41.8	-42.8	22.9	0.00e+00	0	28	0	575668224	60	6743
2026-01-04 18:37:19.28	348.13	16.11	-42.0	-43.0	22.6	0.00e+00	0	28	0	577765376	60	6921
2026-01-04 18:37:20.29	347.90	16.12	-42.0	-43.1	22.5	0.00e+00	0	28	0	579862528	60	6975
2026-01-04 18:37:21.30	347.68	16.12	-41.7	-42.7	22.8	0.00e+00	0	29	0	581959680	60	6675
2026-01-04 18:37:22.31	347.46	16.13	-41.7	-42.7	22.7	0.00e+00	0	28	0	584056832	60	6667
2026-01-04 18:37:23.33	347.24	16.13	-41.7	-42.7	22.4	7.00e-07	0	28	0	585105408	60	6680
2026-01-04 18:37:24.34	347.02	16.13	-42.0	-43.1	22.2	7.00e-07	0	28	0	587202560	60	6964
2026-01-04 18:37:25.35	346.79	16.14	-41.2	-42.2	23.0	0.00e+00	0	28	0	589299712	60	6276
2026-01-04 18:37:26.36	346.57	16.14	-41.3	-42.2	23.2	0.00e+00	0	28	0	591396864	60	6309
2026-01-04 18:37:27.37	346.35	16.14	-42.0	-43.1	22.6	0.00e+00	0	29	0	593494016	60	6943
2026-01-04 18:37:28.38	346.13	16.14	-41.6	-42.6	22.8	0.00e+00	0	28	0	595591168	60	6607
2026-01-04 18:37:29.39	345.91	16.14	-41.6	-42.7	22.7	0.00e+00	0	28	0	596639744	60	6640
2026-01-04 18:37:30.40	345.69	16.14	-41.7	-42.8	22.7	7.00e-07	0	28	0	598736896	60	6695
2026-01-04 18:37:31.41	345.46	16.14	-41.5	-42.6	22.6	1.50e-06	0	28	0	600834048	60	6574
2026-01-04 18:37:32.42	345.24	16.14	-41.8	-42.8	22.7	2.20e-06	0	28	0	602931200	60	6749
2026-01-04 18:37:33.44	345.02	16.14	-42.0	-43.0	22.5	0.00e+00	0	28	0	605028352	60	6915
2026-01-04 18:37:34.45	344.80	16.14	-41.7	-42.7	22.6	0.00e+00	0	28	0	606076928	60	6649
2026-01-04 18:37:35.46	344.58	16.14	-41.7	-42.7	21.8	0.00e+00	0	28	0	608174080	60	6681
2026-01-04 18:37:36.47	344.35	16.14	-42.0	-43.1	22.5	0.00e+00	0	28	0	610271232	60	6951
2026-01-04 18:37:37.48	344.13	16.14	-41.5	-42.5	22.9	0.00e+00	0	29	0	612368384	60	6508
2026-01-04 18:37:38.49	343.91	16.13	-41.9	-43.0	22.5	0.00e+00	0	28	0	614465536	60	6895
2026-01-04 18:37:39.50	343.69	16.13	-41.9	-42.9	22.5	0.00e+00	0	28	0	615514112	60	6805
2026-01-04 18:37:40.51	343.47	16.13	-41.7	-42.7	22.8	0.00e+00	0	28	0	617611264	60	6617
2026-01-04 18:37:41.52	343.25	16.12	-41.7	-42.7	22.6	0.00e+00	0	28	0	619708416	60	6691
2026-01-04 18:37:42.54	343.02	16.12	-41.8	-42.8	22.8	0.00e+00	0	28	0	621805568	60	6740
2026-01-04 18:37:43.55	342.80	16.11	-41.7	-42.7	22.6	0.00e+00	0	28	0	623902720	60	6681
2026-01-04 18:37:44.56	342.58	16.11	-42.1	-43.1	22.3	0.00e+00	0	29	0	624951296	60	6997
2026-01-04 18:37:45.57	342.36	16.10	-42.7	-43.8	21.8	0.00e+00	0	28	0	627048448	60	7583
2026-01-04 18:37:46.58	342.14	16.09	-42.5	-43.5	22.2	0.00e+00	0	29	0	629145600	60	7316
2026-01-04 18:37:47.59	341.92	16.09	-42.4	-43.4	22.3	0.00e+00	0	29	0	631242752	60	7239
2026-01-04 18:37:48.60	341.70	16.08	-42.9	-44.0	22.3	0.00e+00	0	28	0	633339904	60	7705
2026-01-04 18:37:49.61	341.48	16.07	-42.3	-43.4	22.2	0.00e+00	0	28	0	635437056	60	7222
2026-01-04 18:37:50.62	341.25	16.06	-42.7	-43.8	22.1	0.00e+00	0	28	0	636485632	60	7557
2026-01-04 18:37:51.64	341.03	16.06	-42.6	-43.7	21.8	0.00e+00	0	28	0	638582784	60	7471
2026-01-04 18:37:52.65	340.81	16.05	-42.1	-43.1	22.5	0.00e+00	0	28	0	640679936	60	6991
2026-01-04 18:37:53.66	340.59	16.04	-41.5	-42.5	22.8	0.00e+00	0	28	0	642777088	60	6487
2026-01-04 18:37:54.67	340.37	16.03	-42.2	-43.2	22.4	0.00e+00	0	28	0	644874240	60	7075
2026-01-04 18:37:55.68	340.15	16.02	-41.8	-42.8	22.6	7.00e-07	0	28	0	645922816	60	6731
2026-01-04 18:37:56.69	339.93	16.01	-41.9	-42.9	22.7	0.00e+00	0	28	0	648019968	60	6840
2026-01-04 18:37:57.70	339.71	16.00	-41.6	-42.6	22.7	0.00e+00	0	28	0	650117120	60	6599
2026-01-04 18:37:58.71	339.49	15.98	-42.1	-43.2	22.2	7.00e-07	0	28	0	652214272	60	7071
2026-01-04 18:37:59.72	339.27	15.97	-41.9	-43.0	22.3	0.00e+00	0	28	0	654311424	60	6880
2026-01-04 18:38:00.73	339.05	15.96	-41.9	-43.0	22.7	7.00e-07	0	28	0	655360000	60	6874
2026-01-04 18:38:01.75	338.83	15.95	-41.6	-42.6	22.6	0.00e+00	0	29	0	657457152	60	6607
2026-01-04 18:38:02.76	338.61	15.93	-41.2	-42.2	23.0	0.00e+00	0	29	0	659554304	60	6310
2026-01-04 18:38:03.77	338.40	15.92	-41.6	-42.6	23.0	0.00e+00	0	29	0	661651456	60	6591
2026-01-04 18:38:04.78	338.18	15.91	-41.8	-42.8	22.7	0.00e+00	0	29	0	663748608	60	6761
2026-01-04 18:38:05.79	337.96	15.89	-41.8	-42.8	22.9	0.00e+00	0	28	0	664797184	60	6748
2026-01-04 18:38:06.80	337.74	15.88	-41.4	-42.4	23.1	0.00e+00	0	29	0	666894336	60	6424
2026-01-04 18:38:07.81	337.52	15.86	-41.4	-42.4	23.1	0.00e+00	0	29	0	668991488	60	6450
2026-01-04 18:38:08.82	337.31	15.85	-41.4	-42.4	23.0	0.00e+00	0	29	0	671088640	60	6398
2026-01-04 18:38:09.84	337.09	15.83	-41.5	-42.5	23.1	0.00e+00	0	28	0	673185792	60	6476
2026-01-04 18:38:10.85	336.87	15.81	-41.3	-42.2	23.0	0.00e+00	0	29	0	675282944	60	6310
2026-01-04 18:38:11.86	336.65	15.80	-41.5	-42.5	23.1	0.00e+00	0	28	0	676331520	60	6470
2026-01-04 18:38:12.87	336.44	15.78	-41.8	-42.8	23.1	0.00e+00	0	28	0	678428672	60	6740
2026-01-04 18:38:13.88	336.22	15.76	-41.4	-42.4	23.1	0.00e+00	0	28	0	680525824	60	6416
2026-01-04 18:38:14.89	336.00	15.74	-41.5	-42.4	23.2	0.00e+00	0	28	0	682622976	60	6451
2026-01-04 18:38:15.90	335.79	15.73	-41.5	-42.5	23.1	0.00e+00	0	28	0	684720128	60	6496
2026-01-04 18:38:16.91	335.57	15.71	-41.3	-42.2	23.3	0.00e+00	0	28	0	685768704	60	6298
2026-01-04 18:38:17.92	335.36	15.69	-41.2	-42.2	22.9	0.00e+00	0	28	0	687865856	60	6251
2026-01-04 18:38:18.94	335.14	15.67	-41.4	-42.3	23.2	0.00e+00	0	28	0	689963008	60	6388
2026-01-04 18:38:19.95	334.93	15.65	-42.7	-43.7	23.1	0.00e+00	0	29	0	692060160	60	7495
2026-01-04 18:38:20.96	334.71	15.63	-41.8	-42.7	22.7	0.00e+00	0	28	0	694157312	60	6668
2026-01-04 18:38:21.97	334.50	15.61	-42.2	-43.2	22.6	0.00e+00	0	28	0	695205888	60	7078
2026-01-04 18:38:22.98	334.29	15.58	-41.8	-42.8	23.1	0.00e+00	0	28	0	697303040	60	6720
2026-01-04 18:38:23.99	334.07	15.56	-42.2	-43.2	22.7	0.00e+00	0	28	0	699400192	60	7039
2026-01-04 18:38:25.00	333.86	15.54	-42.0	-43.0	22.7	0.00e+00	0	28	0	701497344	60	6907
2026-01-04 18:38:26.01	333.65	15.52	-41.8	-42.8	22.9	0.00e+00	0	28	0	703594496	60	6708
2026-01-04 18:38:27.02	333.43	15.50	-42.1	-43.1	22.7	0.00e+00	0	28	0	704643072	60	6994
2026-01-04 18:38:28.03	333.22	15.47	-42.1	-43.2	22.1	0.00e+00	0	28	0	706740224	60	7064
2026-01-04 18:38:29.04	333.01	15.45	-41.8	-42.8	22.8	0.00e+00	0	28	0	708837376	60	6714
2026-01-04 18:38:30.05	332.80	15.43	-42.2	-43.2	22.4	7.00e-07	0	28	0	710934528	60	7065
2026-01-04 18:38:31.06	332.59	15.40	-42.1	-43.1	23.1	0.00e+00	0	29	0	713031680	60	6989
2026-01-04 18:38:32.07	332.38	15.38	-41.8	-42.9	22.4	0.00e+00	0	28	0	714080256	60	6771
2026-01-04 18:38:33.09	332.16	15.35	-41.8	-42.7	22.7	0.00e+00	0	28	0	716177408	60	6680
2026-01-04 18:38:34.10	331.95	15.33	-41.9	-43.0	22.6	7.00e-07	0	28	0	718274560	60	6862
2026-01-04 18:38:35.11	331.74	15.30	-41.9	-43.0	22.5	0.00e+00	0	28	0	720371712	60	6855
2026-01-04 18:38:36.12	331.54	15.27	-42.4	-43.5	22.2	1.50e-06	0	28	0	722468864	60	7307
2026-01-04 18:38:37.13	331.33	15.25	-42.1	-43.1	22.5	0.00e+00	0	28	0	724566016	60	6945
2026-01-04 18:38:38.14	331.12	15.22	-43.1	-44.3	22.4	0.00e+00	0	28	0	725614592	60	7984
2026-01-04 18:38:39.15	330.91	15.19	-42.0	-43.1	22.4	0.00e+00	0	28	0	727711744	60	6944
2026-01-04 18:38:40.17	330.70	15.17	-41.7	-42.7	22.8	0.00e+00	0	29	0	729808896	60	6672
2026-01-04 18:38:41.18	330.49	15.14	-41.7	-42.8	22.8	0.00e+00	0	28	0	731906048	60	6707
2026-01-04 18:38:42.19	330.29	15.11	-41.9	-42.9	22.7	0.00e+00	0	29	0	734003200	60	6803
2026-01-04 18:38:43.20	330.08	15.08	-42.1	-43.2	22.4	0.00e+00	0	28	0	735051776	60	7030
2026-01-04 18:38:44.21	329.87	15.05	-41.8	-42.9	22.6	0.00e+00	0	29	0	737148928	60	6790
2026-01-04 18:38:45.22	329.67	15.02	-42.3	-43.4	22.1	0.00e+00	0	28	0	739246080	60	7177
2026-01-04 18:38:46.23	329.46	14.99	-42.0	-43.1	22.5	0.00e+00	0	28	0	741343232	60	6973
2026-01-04 18:38:47.24	329.26	14.96	-42.8	-43.9	22.1	0.00e+00	0	28	0	743440384	60	7623
2026-01-04 18:38:48.25	329.05	14.93	-42.1	-43.2	22.2	0.00e+00	0	29	0	744488960	60	7056
2026-01-04 18:38:49.26	328.85	14.90	-42.2	-43.3	21.9	0.00e+00	0	28	0	746586112	60	7129
2026-01-04 18:38:50.27	328.64	14.87	-42.0	-43.0	22.4	0.00e+00	0	29	0	748683264	60	6890
2026-01-04 18:38:51.29	328.44	14.84	-43.2	-44.4	22.4	7.00e-07	0	28	0	750780416	60	8060
2026-01-04 18:38:52.30	328.24	14.81	-43.3	-44.5	21.3	7.00e-07	0	28	0	752877568	60	8215
2026-01-04 18:38:53.31	328.03	14.78	-44.0	-45.3	21.1	1.50e-06	0	28	0	753926144	60	8926
2026-01-04 18:38:54.32	327.83	14.75	-44.3	-45.7	20.4	0.00e+00	0	29	0	756023296	60	9434
2026-01-04 18:38:55.33	327.63	14.71	-43.1	-44.2	21.8	0.00e+00	0	28	0	758120448	60	7938
2026-01-04 18:38:56.34	327.43	14.68	-44.6	-45.9	20.8	0.00e+00	0	29	0	760217600	60	9583
2026-01-04 18:38:57.35	327.23	14.65	-43.5	-44.7	21.5	0.00e+00	0	28	0	762314752	60	8411
2026-01-04 18:38:58.36	327.03	14.61	-42.8	-43.9	22.0	0.00e+00	0	28	0	763363328	60	7627
2026-01-04 18:38:59.38	326.83	14.58	-42.6	-43.6	22.9	0.00e+00	0	28	0	765460480	60	7377
2026-01-04 18:39:00.39	326.63	14.55	-42.2	-43.2	22.3	0.00e+00	0	28	0	767557632	60	7077
2026-01-04 18:39:01.40	326.43	14.51	-42.2	-43.2	22.8	0.00e+00	0	28	0	769654784	60	7072
2026-01-04 18:39:02.41	326.23	14.48	-42.3	-43.3	22.7	7.00e-07	0	28	0	771751936	60	7121
2026-01-04 18:39:03.42	326.03	14.44	-42.3	-43.4	22.1	0.00e+00	0	28	0	772800512	60	7181
2026-01-04 18:39:04.43	325.83	14.41	-41.7	-42.7	22.9	0.00e+00	0	28	0	774897664	60	6624
2026-01-04 18:39:05.44	325.64	14.37	-42.1	-43.1	22.7	0.00e+00	0	28	0	776994816	60	6993
2026-01-04 18:39:06.45	325.44	14.34	-41.9	-42.9	22.6	0.00e+00	0	28	0	779091968	60	6822
2026-01-04 18:39:07.46	325.25	14.30	-43.3	-44.6	21.5	0.00e+00	0	28	0	781189120	60	8240
2026-01-04 18:39:08.48	325.05	14.26	-42.7	-43.7	22.8	0.00e+00	0	28	0	783286272	60	7489
2026-01-04 18:39:09.49	324.85	14.23	-42.1	-43.1	22.8	0.00e+00	0	28	0	784334848	60	6986
2026-01-04 18:39:10.50	324.66	14.19	-41.6	-42.7	22.8	0.00e+00	0	28	0	786432000	60	6619
2026-01-04 18:39:11.51	324.46	14.15	-42.8	-43.9	22.5	0.00e+00	0	28	0	788529152	60	7605
2026-01-04 18:39:12.52	324.27	14.12	-42.6	-43.6	22.6	0.00e+00	0	28	0	790626304	60	7404
2026-01-04 18:39:13.53	324.08	14.08	-42.6	-43.7	22.5	0.00e+00	0	28	0	792723456	60	7448
2026-01-04 18:39:14.54	323.89	14.04	-43.4	-44.4	22.9	0.00e+00	0	28	0	793772032	60	8110
2026-01-04 18:39:15.55	323.69	14.00	-42.0	-43.1	22.7	0.00e+00	0	28	0	795869184	60	6929
2026-01-04 18:39:16.57	323.50	13.96	-42.2	-43.2	22.7	0.00e+00	0	28	0	797966336	60	7038
2026-01-04 18:39:17.58	323.31	13.92	-42.2	-43.3	22.6	0.00e+00	0	28	0	800063488	60	7097
2026-01-04 18:39:18.59	323.12	13.89	-41.7	-42.7	23.1	0.00e+00	0	28	0	802160640	60	6650
2026-01-04 18:39:19.60	322.93	13.85	-42.6	-43.7	22.4	0.00e+00	0	28	0	803209216	60	7428
2026-01-04 18:39:20.61	322.74	13.81	-42.3	-43.3	23.0	0.00e+00	0	28	0	805306368	60	7089
2026-01-04 18:39:21.62	322.55	13.77	-42.1	-43.1	22.7	0.00e+00	0	28	0	807403520	60	6931
2026-01-04 18:39:22.63	322.36	13.73	-43.8	-44.9	22.2	0.00e+00	0	28	0	809500672	60	8603
2026-01-04 18:39:23.64	322.17	13.69	-42.8	-43.9	21.9	0.00e+00	0	28	0	811597824	60	7661
2026-01-04 18:39:24.65	321.99	13.65	-43.2	-44.3	21.9	0.00e+00	0	28	0	812646400	60	7961
2026-01-04 18:39:25.67	321.80	13.61	-44.2	-45.3	21.8	0.00e+00	0	28	0	814743552	60	9000
2026-01-04 18:39:26.68	321.61	13.56	-42.2	-43.2	22.9	0.00e+00	0	28	0	816840704	60	7020
2026-01-04 18:39:27.69	321.43	13.52	-42.9	-43.9	22.9	0.00e+00	0	28	0	818937856	60	7602
2026-01-04 18:39:28.70	321.24	13.48	-42.3	-43.3	22.6	0.00e+00	0	28	0	821035008	60	7114
2026-01-04 18:39:29.71	321.06	13.44	-42.7	-43.8	22.7	0.00e+00	0	28	0	823132160	60	7535
2026-01-04 18:39:30.72	320.87	13.40	-42.2	-43.2	23.0	0.00e+00	0	28	0	824180736	60	7079
2026-01-04 18:39:31.73	320.69	13.36	-42.0	-43.0	23.1	0.00e+00	0	28	0	826277888	60	6879
2026-01-04 18:39:32.74	320.50	13.31	-42.0	-43.0	22.8	7.00e-07	0	28	0	828375040	60	6861
2026-01-04 18:39:33.75	320.32	13.27	-42.6	-43.6	22.6	0.00e+00	0	28	0	830472192	60	7405
2026-01-04 18:39:34.76	320.14	13.23	-42.5	-43.5	22.6	0.00e+00	0	28	0	832569344	60	7301
2026-01-04 18:39:35.78	319.96	13.19	-42.4	-43.5	22.7	0.00e+00	0	28	0	833617920	60	7261
2026-01-04 18:39:36.79	319.77	13.14	-42.6	-43.7	22.2	0.00e+00	0	28	0	835715072	60	7483
2026-01-04 18:39:37.80	319.59	13.10	-42.7	-43.8	22.2	0.00e+00	0	28	0	837812224	60	7522
2026-01-04 18:39:38.81	319.41	13.06	-42.6	-43.7	22.1	0.00e+00	0	28	0	839909376	60	7456
2026-01-04 18:39:39.82	319.23	13.01	-42.7	-43.8	22.1	0.00e+00	0	28	0	842006528	60	7510
2026-01-04 18:39:40.83	319.06	12.97	-44.0	-45.1	21.8	0.00e+00	0	28	0	843055104	60	8756
2026-01-04 18:39:41.84	318.88	12.92	-43.4	-44.6	21.7	0.00e+00	0	28	0	845152256	60	8237
2026-01-04 18:39:42.85	318.70	12.88	-43.1	-44.2	22.0	0.00e+00	0	29	0	847249408	60	7896
2026-01-04 18:39:43.87	318.52	12.83	-43.0	-44.2	21.9	0.00e+00	0	28	0	849346560	60	7867
2026-01-04 18:39:44.88	318.34	12.79	-42.9	-43.9	22.0	0.00e+00	0	28	0	851443712	60	7677
2026-01-04 18:39:45.89	318.17	12.75	-43.1	-44.2	22.0	0.00e+00	0	28	0	852492288	60	7940
2026-01-04 18:39:46.90	317.99	12.70	-42.8	-43.9	21.9	0.00e+00	0	29	0	854589440	60	7656
2026-01-04 18:39:47.91	317.82	12.66	-43.4	-44.5	21.5	0.00e+00	0	28	0	856686592	60	8178
2026-01-04 18:39:48.92	317.64	12.61	-43.6	-44.8	21.5	0.00e+00	0	28	0	858783744	60	8461
2026-01-04 18:39:49.93	317.47	12.56	-43.4	-44.5	21.8	0.00e+00	0	28	0	860880896	60	8216
2026-01-04 18:39:50.94	317.29	12.52	-43.3	-44.5	21.5	0.00e+00	0	28	0	862978048	60	8142
2026-01-04 18:39:51.95	317.12	12.47	-43.3	-44.5	21.7	0.00e+00	0	28	0	864026624	60	8198
2026-01-04 18:39:52.97	316.95	12.43	-44.2	-45.4	21.5	0.00e+00	0	28	0	866123776	60	9086
2026-01-04 18:39:53.98	316.78	12.38	-44.0	-45.2	21.3	0.00e+00	0	28	0	868220928	60	8841
2026-01-04 18:39:54.99	316.60	12.33	-43.9	-45.1	21.2	0.00e+00	0	28	0	870318080	60	8746
2026-01-04 18:39:56.00	316.43	12.29	-43.5	-44.7	21.0	0.00e+00	0	28	0	872415232	60	8403
2026-01-04 18:39:57.01	316.26	12.24	-43.8	-45.1	21.0	0.00e+00	0	28	0	873463808	60	8727
2026-01-04 18:39:58.02	316.09	12.19	-43.7	-45.0	20.8	0.00e+00	0	28	0	875560960	60	8671
2026-01-04 18:39:59.03	315.92	12.15	-43.6	-44.9	20.8	0.00e+00	0	28	0	877658112	60	8575
2026-01-04 18:40:00.04	315.76	12.10	-43.9	-45.2	20.9	0.00e+00	0	28	0	879755264	60	8919
2026-01-04 18:40:01.05	315.59	12.05	-44.2	-45.5	20.9	0.00e+00	0	29	0	881852416	60	9213
2026-01-04 18:40:02.07	315.42	12.00	-44.6	-45.9	20.8	0.00e+00	0	28	0	882900992	60	9644
2026-01-04 18:40:03.08	315.25	11.96	-44.3	-45.6	20.9	0.00e+00	0	28	0	884998144	60	9307
2026-01-04 18:40:04.09	315.08	11.91	-43.5	-44.7	21.1	0.00e+00	0	28	0	887095296	60	8397
2026-01-04 18:40:05.10	314.92	11.86	-43.6	-44.8	21.1	0.00e+00	0	28	0	889192448	60	8490
2026-01-04 18:40:06.11	314.75	11.81	-43.9	-45.1	21.0	0.00e+00	0	28	0	891289600	60	8795
2026-01-04 18:40:07.12	314.59	11.76	-44.5	-45.8	20.9	0.00e+00	0	28	0	892338176	60	9497
2026-01-04 18:40:08.13	314.42	11.71	-44.4	-45.7	20.8	0.00e+00	0	28	0	894435328	60	9424
2026-01-04 18:40:09.14	314.26	11.67	-44.3	-45.6	20.5	0.00e+00	0	29	0	896532480	60	9333
2026-01-04 18:40:10.15	314.10	11.62	-44.6	-46.0	20.5	0.00e+00	0	28	0	898629632	60	9704
2026-01-04 18:40:11.16	313.94	11.57	-44.6	-45.9	20.4	0.00e+00	0	28	0	900726784	60	9657
2026-01-04 18:40:12.18	313.77	11.52	-44.5	-45.9	20.3	0.00e+00	0	28	0	901775360	60	9582
2026-01-04 18:40:13.19	313.61	11.47	-44.5	-45.9	20.2	0.00e+00	0	28	0	903872512	60	9596
2026-01-04 18:40:14.20	313.45	11.42	-45.2	-46.6	20.3	0.00e+00	0	29	0	905969664	60	10373
2026-01-04 18:40:15.21	313.29	11.37	-44.6	-46.0	19.5	0.00e+00	0	28	0	908066816	60	9734
2026-01-04 18:40:16.22	313.13	11.32	-45.1	-46.5	20.2	0.00e+00	0	28	0	910163968	60	10318
2026-01-04 18:40:17.23	312.97	11.27	-44.5	-45.9	20.3	0.00e+00	0	28	0	912261120	60	9594
2026-01-04 18:40:18.24	312.81	11.22	-44.9	-46.3	20.2	0.00e+00	0	28	0	913309696	60	10080
2026-01-04 18:40:19.25	312.65	11.17	-44.8	-46.2	20.4	0.00e+00	0	28	0	915406848	60	9980
2026-01-04 18:40:20.26	312.50	11.12	-44.8	-46.2	20.1	0.00e+00	0	28	0	917504000	60	10007
2026-01-04 18:40:21.28	312.34	11.07	-45.1	-46.6	19.9	0.00e+00	0	28	0	919601152	60	10454
2026-01-04 18:40:22.29	312.18	11.02	-44.6	-46.0	20.2	0.00e+00	0	28	0	921698304	60	9754
2026-01-04 18:40:23.30	312.03	10.97	-44.6	-46.0	20.0	0.00e+00	0	28	0	922746880	60	9762
2026-01-04 18:40:24.31	311.87	10.92	-45.5	-47.0	20.1	0.00e+00	0	28	0	924844032	60	10902
2026-01-04 18:40:25.32	311.71	10.87	-44.9	-46.3	20.0	0.00e+00	0	28	0	926941184	60	10043
2026-01-04 18:40:26.33	311.56	10.82	-45.1	-46.5	20.1	0.00e+00	0	28	0	929038336	60	10294
2026-01-04 18:40:27.34	311.41	10.77	-45.2	-46.6	19.9	0.00e+00	0	28	0	931135488	60	10469
2026-01-04 18:40:28.35	311.25	10.72	-45.0	-46.5	19.9	0.00e+00	0	29	0	932184064	60	10251
2026-01-04 18:40:29.36	311.10	10.67	-45.3	-46.8	20.2	7.00e-07	0	29	0	934281216	60	10619
2026-01-04 18:40:30.37	310.95	10.62	-45.5	-47.0	19.8	0.00e+00	0	28	0	936378368	60	10896
2026-01-04 18:40:31.39	310.80	10.57	-44.9	-46.3	20.1	0.00e+00	0	28	0	938475520	60	10108
2026-01-04 18:40:32.40	310.64	10.52	-44.6	-46.0	20.1	0.00e+00	0	28	0	940572672	60	9689
2026-01-04 18:40:33.41	310.49	10.46	-45.0	-46.4	20.1	0.00e+00	0	28	0	941621248	60	10161
2026-01-04 18:40:34.42	310.34	10.41	-44.9	-46.3	20.1	0.00e+00	0	29	0	943718400	60	10071
2026-01-04 18:40:35.43	310.19	10.36	-45.3	-46.6	19.7	0.00e+00	0	28	0	945815552	60	10474
2026-01-04 18:40:36.44	310.05	10.31	-44.5	-45.9	20.0	0.00e+00	0	28	0	947912704	60	9662
2026-01-04 18:40:37.45	309.90	10.26	-45.1	-46.5	19.9	0.00e+00	0	28	0	950009856	60	10362
2026-01-04 18:40:38.46	309.75	10.21	-44.8	-46.2	20.0	0.00e+00	0	28	0	951058432	60	9983
2026-01-04 18:40:39.47	309.60	10.16	-44.7	-46.2	19.8	0.00e+00	0	28	0	953155584	60	9930
2026-01-04 18:40:40.48	309.45	10.10	-45.4	-46.8	20.2	0.00e+00	0	28	0	955252736	60	10657
2026-01-04 18:40:41.50	309.31	10.05	-45.0	-46.5	20.1	0.00e+00	0	28	0	957349888	60	10282
2026-01-04 18:40:42.51	309.16	10.00	-45.1	-46.5	20.0	0.00e+00	0	28	0	959447040	60	10318
2026-01-04 18:40:43.52	309.02	9.95	-45.2	-46.5	20.2	0.00e+00	0	28	0	960495616	60	10348
2026-01-04 18:40:44.53	308.87	9.90	-45.4	-47.0	19.8	0.00e+00	0	28	0	962592768	60	10900
2026-01-04 18:40:45.54	308.73	9.84	-44.8	-46.2	20.1	0.00e+00	0	28	0	964689920	60	10003
2026-01-04 18:40:46.55	308.58	9.79	-44.9	-46.2	20.3	0.00e+00	0	28	0	966787072	60	9932
2026-01-04 18:40:47.56	308.44	9.74	-45.1	-46.4	20.3	0.00e+00	0	28	0	968884224	60	10224
2026-01-04 18:40:48.57	308.30	9.69	-44.8	-46.2	20.3	0.00e+00	0	28	0	970981376	60	9992
2026-01-04 18:40:49.58	308.16	9.64	-45.3	-46.8	19.9	0.00e+00	0	28	0	972029952	60	10699
2026-01-04 18:40:50.60	308.01	9.58	-45.7	-47.1	20.1	0.00e+00	0	28	0	974127104	60	11036
2026-01-04 18:40:51.61	307.87	9.53	-44.5	-45.8	20.6	0.00e+00	0	28	0	976224256	60	9534
2026-01-04 18:40:52.62	307.73	9.48	-45.9	-47.4	19.7	0.00e+00	0	28	0	978321408	60	11377
2026-01-04 18:40:53.63	307.59	9.43	-44.3	-45.7	20.5	0.00e+00	0	28	0	980418560	60	9345
2026-01-04 18:40:54.64	307.45	9.37	-45.2	-46.6	20.4	0.00e+00	0	28	0	981467136	60	10483
2026-01-04 18:40:55.65	307.31	9.32	-44.3	-45.7	20.7	0.00e+00	0	28	0	983564288	60	9376
2026-01-04 18:40:56.66	307.17	9.27	-44.7	-46.1	19.9	0.00e+00	0	28	0	985661440	60	9804
2026-01-04 18:40:57.67	307.04	9.21	-44.4	-45.7	20.5	0.00e+00	0	28	0	987758592	60	9363
2026-01-04 18:40:58.68	306.90	9.16	-44.0	-45.3	20.8	0.00e+00	0	28	0	989855744	60	9011
2026-01-04 18:40:59.69	306.76	9.11	-43.7	-45.0	20.6	0.00e+00	0	28	0	990904320	60	8664
2026-01-04 18:41:00.71	306.62	9.06	-43.8	-45.1	20.6	0.00e+00	0	28	0	993001472	60	8792
2026-01-04 18:41:01.72	306.49	9.00	-43.4	-44.6	21.1	0.00e+00	0	29	0	995098624	60	8284
2026-01-04 18:41:02.73	306.35	8.95	-43.7	-44.9	21.3	0.00e+00	0	29	0	997195776	60	8589
2026-01-04 18:41:03.74	306.22	8.90	-43.5	-44.7	21.6	0.00e+00	0	28	0	999292928	60	8335
2026-01-04 18:41:04.75	306.08	8.84	-43.2	-44.4	21.8	0.00e+00	0	28	0	1000341504	60	8078
2026-01-04 18:41:05.76	305.95	8.79	-43.0	-44.1	21.6	0.00e+00	0	28	0	1002438656	60	7830
2026-01-04 18:41:06.77	305.82	8.74	-42.6	-43.8	21.9	0.00e+00	0	28	0	1004535808	60	7523
2026-01-04 18:41:07.78	305.68	8.68	-42.5	-43.6	22.0	0.00e+00	0	28	0	1006632960	60	7408
2026-01-04 18:41:08.79	305.55	8.63	-43.2	-44.3	21.8	0.00e+00	0	28	0	1008730112	60	8023
2026-01-04 18:41:09.80	305.42	8.58	-43.0	-44.1	21.8	0.00e+00	0	28	0	1010827264	60	7825
2026-01-04 18:41:10.82	305.28	8.52	-43.4	-44.6	21.8	0.00e+00	0	28	0	1011875840	60	8259
2026-01-04 18:41:11.83	305.15	8.47	-43.4	-44.5	21.7	0.00e+00	0	28	0	1013972992	60	8208
2026-01-04 18:41:12.84	305.02	8.42	-43.4	-44.5	21.9	0.00e+00	0	28	0	1016070144	60	8206
2026-01-04 18:41:13.85	304.89	8.36	-43.3	-44.4	21.9	0.00e+00	0	28	0	1018167296	60	8110
2026-01-04 18:41:14.86	304.76	8.31	-43.3	-44.4	21.9	0.00e+00	0	28	0	1020264448	60	8124
2026-01-04 18:41:15.87	304.63	8.26	-43.1	-44.2	21.9	0.00e+00	0	28	0	1021313024	60	7928
2026-01-04 18:41:16.88	304.51	8.20	-43.5	-44.7	21.6	0.00e+00	0	28	0	1023410176	60	8366
2026-01-04 18:41:17.89	304.38	8.15	-43.8	-44.9	21.5	0.00e+00	0	28	0	1025507328	60	8607
2026-01-04 18:41:18.90	304.25	8.10	-43.8	-44.9	21.7	0.00e+00	0	28	0	1027604480	60	8603
2026-01-04 18:41:19.92	304.12	8.04	-43.5	-44.6	22.0	0.00e+00	0	28	0	1029701632	60	8314
2026-01-04 18:41:20.93	304.00	7.99	-43.2	-44.3	22.1	0.00e+00	0	28	0	1030750208	60	7994
2026-01-04 18:41:21.94	303.87	7.94	-42.6	-43.7	22.2	0.00e+00	0	28	0	1032847360	60	7428
2026-01-04 18:41:22.95	303.74	7.88	-42.6	-43.7	22.0	0.00e+00	0	28	0	1034944512	60	7463
2026-01-04 18:41:23.96	303.62	7.83	-43.0	-44.1	21.9	0.00e+00	0	28	0	1037041664	60	7797
2026-01-04 18:41:24.97	303.49	7.77	-43.0	-44.1	22.1	0.00e+00	0	28	0	1039138816	60	7845
2026-01-04 18:41:25.98	303.37	7.72	-42.5	-43.6	22.2	0.00e+00	0	28	0	1040187392	60	7368
2026-01-04 18:41:26.99	303.25	7.67	-43.1	-44.2	22.3	0.00e+00	0	28	0	1042284544	60	7914
2026-01-04 18:41:28.00	303.12	7.61	-43.5	-44.5	22.3	0.00e+00	0	28	0	1044381696	60	8229
2026-01-04 18:41:29.01	303.00	7.56	-43.4	-44.5	22.0	0.00e+00	0	28	0	1046478848	60	8212
2026-01-04 18:41:30.03	302.88	7.51	-42.8	-43.9	21.9	0.00e+00	0	28	0	1048576000	60	7676
2026-01-04 18:41:31.04	302.75	7.45	-42.8	-43.9	22.1	0.00e+00	0	28	0	1050673152	60	7650
2026-01-04 18:41:32.05	302.63	7.40	-43.1	-44.2	21.3	0.00e+00	0	28	0	1051721728	60	7911
2026-01-04 18:41:33.06	302.51	7.34	-42.9	-44.0	21.7	0.00e+00	0	28	0	1053818880	60	7753
2026-01-04 18:41:34.07	302.39	7.29	-42.5	-43.7	21.8	0.00e+00	0	28	0	1055916032	60	7434
2026-01-04 18:41:35.08	302.27	7.24	-43.3	-44.5	21.6	0.00e+00	0	28	0	1058013184	60	8140
2026-01-04 18:41:36.09	302.15	7.18	-42.7	-43.9	21.9	0.00e+00	0	28	0	1060110336	60	7623
2026-01-04 18:41:37.10	302.03	7.13	-42.9	-44.0	21.8	0.00e+00	0	28	0	1061158912	60	7725
2026-01-04 18:41:38.11	301.91	7.08	-43.1	-44.2	21.9	0.00e+00	0	28	0	1063256064	60	7935
2026-01-04 18:41:39.12	301.79	7.02	-43.2	-44.3	22.1	0.00e+00	0	28	0	1065353216	60	8013
2026-01-04 18:41:40.13	301.68	6.97	-43.4	-44.6	21.9	0.00e+00	0	28	0	1067450368	60	8265
2026-01-04 18:41:41.15	301.56	6.91	-43.2	-44.4	22.1	0.00e+00	0	28	0	1069547520	60	8049
2026-01-04 18:41:42.16	301.44	6.86	-43.8	-44.9	21.7	0.00e+00	0	28	0	1070596096	60	8599
2026-01-04 18:41:43.17	301.32	6.81	-43.2	-44.4	21.6	0.00e+00	0	28	0	1072693248	60	8101
2026-01-04 18:41:44.18	301.21	6.75	-42.9	-44.0	21.6	0.00e+00	0	28	0	1074790400	60	7758
2026-01-04 18:41:45.19	301.09	6.70	-42.3	-43.5	21.8	0.00e+00	0	28	0	1076887552	60	7280
2026-01-04 18:41:46.20	300.98	6.65	-42.2	-43.3	21.8	0.00e+00	0	28	0	1078984704	60	7161
2026-01-04 18:41:47.21	300.86	6.59	-42.2	-43.3	21.8	0.00e+00	0	28	0	1080033280	60	7136
2026-01-04 18:41:48.22	300.75	6.54	-42.3	-43.5	21.5	0.00e+00	0	28	0	1082130432	60	7281
2026-01-04 18:41:49.23	300.63	6.48	-42.5	-43.7	21.5	0.00e+00	0	28	0	1084227584	60	7447
2026-01-04 18:41:50.24	300.52	6.43	-42.5	-43.7	21.5	0.00e+00	0	28	0	1086324736	60	7444
2026-01-04 18:41:51.26	300.41	6.38	-42.3	-43.5	21.7	0.00e+00	0	28	0	1088421888	60	7287
2026-01-04 18:41:52.27	300.29	6.32	-42.7	-43.9	21.4	0.00e+00	0	28	0	1089470464	60	7610
2026-01-04 18:41:53.28	300.18	6.27	-43.1	-44.3	21.3	0.00e+00	0	28	0	1091567616	60	8010
2026-01-04 18:41:54.29	300.07	6.22	-43.0	-44.2	21.2	0.00e+00	0	28	0	1093664768	60	7925
2026-01-04 18:41:55.30	299.96	6.16	-43.0	-44.2	21.3	0.00e+00	0	28	0	1095761920	60	7906
2026-01-04 18:41:56.31	299.85	6.11	-43.0	-44.2	21.4	0.00e+00	0	28	0	1097859072	60	7952
2026-01-04 18:41:57.32	299.74	6.05	-43.0	-44.2	21.6	0.00e+00	0	28	0	1098907648	60	7873
2026-01-04 18:41:58.33	299.63	6.00	-43.2	-44.3	21.7	0.00e+00	0	28	0	1101004800	60	8030
2026-01-04 18:41:59.34	299.52	5.95	-42.8	-43.9	21.4	0.00e+00	0	28	0	1103101952	60	7677
2026-01-04 18:42:00.35	299.41	5.89	-44.3	-45.6	21.4	0.00e+00	0	28	0	1105199104	60	9276
2026-01-04 18:42:01.37	299.30	5.84	-42.8	-44.0	21.4	0.00e+00	0	28	0	1107296256	60	7697
2026-01-04 18:42:02.38	299.19	5.79	-43.0	-44.2	21.4	0.00e+00	0	28	0	1108344832	60	7881
2026-01-04 18:42:03.39	299.08	5.73	-43.2	-44.4	20.9	0.00e+00	0	28	0	1110441984	60	8110
2026-01-04 18:42:04.40	298.97	5.68	-43.5	-44.6	21.7	0.00e+00	0	28	0	1112539136	60	8323
2026-01-04 18:42:05.41	298.87	5.62	-43.9	-45.2	21.5	0.00e+00	0	28	0	1114636288	60	8863
2026-01-04 18:42:06.42	298.76	5.57	-43.9	-45.2	21.0	0.00e+00	0	28	0	1116733440	60	8900
2026-01-04 18:42:07.43	298.65	5.52	-43.8	-45.0	20.9	0.00e+00	0	28	0	1118830592	60	8719
2026-01-04 18:42:08.44	298.55	5.46	-43.7	-45.1	20.3	0.00e+00	0	28	0	1119879168	60	8782
2026-01-04 18:42:09.45	298.44	5.41	-43.5	-44.8	20.5	0.00e+00	0	28	0	1121976320	60	8477
2026-01-04 18:42:10.47	298.34	5.36	-43.4	-44.7	20.5	0.00e+00	0	28	0	1124073472	60	8361
2026-01-04 18:42:11.48	298.23	5.30	-43.4	-44.7	20.3	0.00e+00	0	28	0	1126170624	60	8402
2026-01-04 18:42:12.49	298.13	5.25	-43.6	-44.9	20.5	0.00e+00	0	28	0	1128267776	60	8617
2026-01-04 18:42:13.50	298.02	5.20	-43.9	-45.3	20.4	0.00e+00	0	28	0	1129316352	60	8980
2026-01-04 18:42:14.51	297.92	5.14	-43.6	-44.9	20.4	0.00e+00	0	28	0	1131413504	60	8567
2026-01-04 18:42:15.52	297.81	5.09	-44.0	-45.4	20.3	0.00e+00	0	28	0	1133510656	60	9052
2026-01-04 18:42:16.53	297.71	5.04	-44.7	-46.1	20.4	0.00e+00	0	28	0	1135607808	60	9813
2026-01-04 18:42:17.54	297.61	4.98	-44.1	-45.4	20.4	0.00e+00	0	28	0	1137704960	60	9084
2026-01-04 18:42:18.55	297.51	4.93	-44.3	-45.7	20.2	0.00e+00	0	28	0	1138753536	60	9422
2026-01-04 18:42:19.56	297.41	4.88	-44.5	-45.9	19.9	0.00e+00	0	28	0	1140850688	60	9617
2026-01-04 18:42:20.58	297.30	4.82	-44.1	-45.5	20.4	0.00e+00	0	28	0	1142947840	60	9149
2026-01-04 18:42:21.59	297.20	4.77	-44.0	-45.5	19.9	0.00e+00	0	28	0	1145044992	60	9134
2026-01-04 18:42:22.60	297.10	4.72	-44.2	-45.6	20.1	0.00e+00	0	28	0	1147142144	60	9324
2026-01-04 18:42:23.61	297.00	4.66	-43.9	-45.3	20.1	0.00e+00	0	28	0	1148190720	60	8956
2026-01-04 18:42:24.62	296.90	4.61	-44.1	-45.6	19.8	0.00e+00	0	28	0	1150287872	60	9261
2026-01-04 18:42:25.63	296.80	4.56	-44.1	-45.6	20.0	0.00e+00	0	28	0	1152385024	60	9252
2026-01-04 18:42:26.64	296.70	4.50	-44.2	-45.6	20.1	0.00e+00	0	28	0	1154482176	60	9283
2026-01-04 18:42:27.65	296.60	4.45	-44.0	-45.4	20.1	0.00e+00	0	28	0	1156579328	60	9063
2026-01-04 18:42:28.66	296.51	4.40	-44.2	-45.7	19.6	0.00e+00	0	28	0	1158676480	60	9419
2026-01-04 18:42:29.67	296.41	4.34	-44.3	-45.9	19.4	0.00e+00	0	28	0	1159725056	60	9578
2026-01-04 18:42:30.68	296.31	4.29	-44.1	-45.6	19.7	0.00e+00	0	28	0	1161822208	60	9294
2026-01-04 18:42:31.69	296.21	4.24	-45.6	-47.1	19.0	0.00e+00	0	28	0	1163919360	60	11096
2026-01-04 18:42:32.70	296.12	4.18	-45.1	-46.7	19.4	0.00e+00	0	28	0	1166016512	60	10523
2026-01-04 18:42:33.71	296.02	4.13	-44.7	-46.3	19.1	0.00e+00	0	28	0	1168113664	60	10043
2026-01-04 18:42:34.73	295.92	4.08	-44.7	-46.3	19.1	0.00e+00	0	28	0	1169162240	60	10117
2026-01-04 18:42:35.74	295.83	4.02	-44.9	-46.5	19.0	0.00e+00	0	28	0	1171259392	60	10358
2026-01-04 18:42:36.75	295.73	3.97	-44.7	-46.3	19.3	0.00e+00	0	28	0	1173356544	60	10091
2026-01-04 18:42:37.76	295.64	3.92	-44.4	-46.0	19.2	0.00e+00	0	28	0	1175453696	60	9701
2026-01-04 18:42:38.77	295.54	3.87	-45.4	-47.1	18.9	0.00e+00	0	28	0	1177550848	60	11019
2026-01-04 18:42:39.78	295.45	3.81	-45.2	-46.9	18.9	0.00e+00	0	28	0	1178599424	60	10788
2026-01-04 18:42:40.79	295.35	3.76	-44.9	-46.6	18.8	0.00e+00	0	28	0	1180696576	60	10469
2026-01-04 18:42:41.80	295.26	3.71	-44.8	-46.5	18.6	0.00e+00	0	28	0	1182793728	60	10349
2026-01-04 18:42:42.81	295.17	3.66	-44.4	-46.0	18.9	0.00e+00	0	28	0	1184890880	60	9783
2026-01-04 18:42:43.82	295.07	3.60	-44.8	-46.5	18.4	0.00e+00	0	28	0	1186988032	60	10345
2026-01-04 18:42:44.84	294.98	3.55	-44.6	-46.3	18.7	0.00e+00	0	28	0	1188036608	60	10064
2026-01-04 18:42:45.85	294.89	3.50	-44.4	-46.1	19.0	0.00e+00	0	28	0	1190133760	60	9809
2026-01-04 18:42:46.86	294.80	3.44	-45.1	-46.9	18.6	0.00e+00	0	28	0	1192230912	60	10739
2026-01-04 18:42:47.87	294.70	3.39	-45.1	-46.9	18.2	0.00e+00	0	28	0	1194328064	60	10769
2026-01-04 18:42:48.88	294.61	3.34	-44.9	-46.7	18.3	0.00e+00	0	28	0	1196425216	60	10536
2026-01-04 18:42:49.89	294.52	3.29	-45.1	-46.9	18.1	0.00e+00	0	28	0	1198522368	60	10835
2026-01-04 18:42:50.90	294.43	3.23	-44.7	-46.5	18.3	0.00e+00	0	28	0	1199570944	60	10283
