passes_logs/2026/01/04/R4.6S_Anadyr_2ch/R4.6S_Anadyr_2ch__20260104_214327_TY-42_rec.log

#Pass ID: 20260104_214327_TY-42
#Satellite: TY-42
#Configuration: TY-42_900M
#almurnet v.1.7.20251203
#Start time: 2026-01-04 21:43:57

#Version: 2.2.20231116
#Station: R4.6S_Anadyr_2ch
#Location: 177.4865 lon 64.73178 lat
#TLE: 1 64048U 25103A   25351.20653935  .00008008  00000-0  38191-3 0 09993
#TLE: 2 64048 097.4116 062.1676 0001744 093.8066 035.1511 15.19160500 32445

#Time	Az	El	Level	Level2	SNR	BER	BlckErr	Temp	State	Recorded	gain1	gain2
2026-01-04 21:43:57.23	25.85	1.64	-51.4	-66.7	3.5	1.51e+00	0	27	0	0	60	105411
2026-01-04 21:43:58.24	25.95	1.69	-51.4	-53.8	6.1	0.00e+00	0	28	104	0	60	82314
2026-01-04 21:43:59.25	26.06	1.75	-51.3	-53.8	6.1	0.00e+00	0	28	104	0	60	81791
2026-01-04 21:44:00.26	26.16	1.81	-51.5	-54.0	6.1	0.00e+00	0	28	104	0	60	83397
2026-01-04 21:44:01.27	26.27	1.86	-51.4	-53.8	6.1	0.00e+00	0	28	104	0	60	82303
2026-01-04 21:44:02.29	26.38	1.92	-51.7	-54.2	6.1	0.00e+00	0	28	104	0	60	85356
2026-01-04 21:44:03.30	26.48	1.98	-52.1	-54.5	6.1	0.00e+00	0	28	104	0	60	88824
2026-01-04 21:44:04.31	26.59	2.03	-51.7	-54.2	6.1	0.00e+00	0	28	104	0	60	85448
2026-01-04 21:44:05.32	26.70	2.09	-52.2	-54.7	6.1	0.00e+00	0	28	104	0	60	90803
2026-01-04 21:44:06.33	26.81	2.15	-51.8	-54.3	6.1	0.00e+00	0	28	104	0	60	86435
2026-01-04 21:44:07.34	26.92	2.20	-51.5	-54.1	6.1	0.00e+00	0	28	104	0	60	84508
2026-01-04 21:44:08.35	27.03	2.26	-51.7	-54.1	6.1	0.00e+00	0	28	104	0	60	84779
2026-01-04 21:44:09.36	27.14	2.32	-51.4	-53.9	6.1	0.00e+00	0	28	104	0	60	82899
2026-01-04 21:44:10.37	27.25	2.38	-51.4	-53.9	6.1	0.00e+00	0	28	104	0	60	82822
2026-01-04 21:44:11.38	27.36	2.43	-51.4	-53.9	6.1	0.00e+00	0	28	104	0	60	83131
2026-01-04 21:44:12.40	27.48	2.49	-51.3	-53.8	6.1	0.00e+00	0	29	104	0	60	81784
2026-01-04 21:44:13.41	27.59	2.55	-51.5	-54.0	6.1	0.00e+00	0	28	104	0	60	83734
2026-01-04 21:44:14.42	27.70	2.61	-51.5	-54.0	6.1	0.00e+00	0	29	104	0	60	83819
2026-01-04 21:44:15.43	27.81	2.66	-51.4	-53.8	6.1	0.00e+00	0	29	104	0	60	81874
2026-01-04 21:44:16.44	27.93	2.72	-51.4	-53.8	6.1	0.00e+00	0	29	104	0	60	82060
2026-01-04 21:44:17.45	28.04	2.78	-51.7	-54.1	6.1	0.00e+00	0	29	104	0	60	84829
2026-01-04 21:44:18.46	28.16	2.84	-51.6	-54.1	6.1	0.00e+00	0	29	104	0	60	84787
2026-01-04 21:44:19.48	28.28	2.90	-52.0	-54.5	6.1	0.00e+00	0	29	104	0	60	88566
2026-01-04 21:44:20.49	28.39	2.95	-51.6	-54.1	6.1	0.00e+00	0	29	104	0	60	84910
2026-01-04 21:44:21.50	28.51	3.01	-52.0	-54.5	6.1	0.00e+00	0	29	104	0	60	88953
2026-01-04 21:44:22.51	28.63	3.07	-51.7	-54.2	6.1	0.00e+00	0	29	104	0	60	85854
2026-01-04 21:44:23.52	28.74	3.13	-51.9	-54.4	6.1	0.00e+00	0	29	104	0	60	87342
2026-01-04 21:44:24.53	28.86	3.19	-52.0	-54.4	6.1	0.00e+00	0	29	104	0	60	87939
2026-01-04 21:44:25.54	28.98	3.25	-52.0	-54.5	6.1	0.00e+00	0	29	104	0	60	88337
2026-01-04 21:44:26.55	29.10	3.30	-52.2	-54.6	6.1	0.00e+00	0	29	104	0	60	90044
2026-01-04 21:44:27.56	29.22	3.36	-52.0	-54.5	6.1	0.00e+00	0	29	104	0	60	88955
2026-01-04 21:44:28.57	29.34	3.42	-51.7	-54.2	6.1	0.00e+00	0	29	104	0	60	85666
2026-01-04 21:44:29.59	29.47	3.48	-51.8	-54.3	6.1	0.00e+00	0	29	104	0	60	86619
2026-01-04 21:44:30.60	29.59	3.54	-51.6	-54.1	6.1	0.00e+00	0	29	104	0	60	84631
2026-01-04 21:44:31.61	29.71	3.60	-52.2	-54.6	6.1	0.00e+00	0	29	104	0	60	89386
2026-01-04 21:44:32.62	29.84	3.66	-51.8	-54.3	6.1	0.00e+00	0	29	104	0	60	87180
2026-01-04 21:44:33.63	29.96	3.72	-51.8	-54.3	6.1	0.00e+00	0	29	104	0	60	86662
2026-01-04 21:44:34.64	30.08	3.78	-52.5	-55.0	6.1	0.00e+00	0	29	104	0	60	93567
2026-01-04 21:44:35.65	30.21	3.83	-52.4	-54.9	6.1	0.00e+00	0	29	104	0	60	92550
2026-01-04 21:44:36.66	30.33	3.89	-52.3	-54.7	6.1	0.00e+00	0	29	104	0	60	91085
2026-01-04 21:44:37.67	30.46	3.95	-52.0	-54.5	6.1	0.00e+00	0	29	104	0	60	88261
2026-01-04 21:44:38.68	30.59	4.01	-51.5	-54.0	6.1	0.00e+00	0	29	104	0	60	83549
2026-01-04 21:44:39.69	30.72	4.07	-51.8	-54.3	6.1	0.00e+00	0	29	104	0	60	86452
2026-01-04 21:44:40.70	30.84	4.13	-52.0	-54.5	6.1	0.00e+00	0	29	104	0	60	89046
2026-01-04 21:44:41.71	30.97	4.19	-51.8	-54.2	6.1	0.00e+00	0	29	104	0	60	86210
2026-01-04 21:44:42.73	31.10	4.25	-51.8	-54.2	6.1	0.00e+00	0	29	104	0	60	86161
2026-01-04 21:44:43.74	31.23	4.31	-52.1	-54.6	6.1	0.00e+00	0	29	104	0	60	89330
2026-01-04 21:44:44.75	31.37	4.37	-51.5	-54.0	6.1	0.00e+00	0	29	104	0	60	83971
2026-01-04 21:44:45.76	31.50	4.43	-51.4	-53.9	6.1	0.00e+00	0	29	104	0	60	82566
2026-01-04 21:44:46.77	31.63	4.49	-51.3	-53.8	6.1	0.00e+00	0	29	104	0	60	81750
2026-01-04 21:44:47.78	31.76	4.55	-51.8	-54.2	6.1	0.00e+00	0	29	104	0	60	85942
2026-01-04 21:44:48.79	31.90	4.61	-52.1	-54.5	6.1	0.00e+00	0	29	104	0	60	88969
2026-01-04 21:44:49.80	32.03	4.67	-52.0	-54.4	6.1	0.00e+00	0	29	104	0	60	87920
2026-01-04 21:44:50.81	32.17	4.73	-52.6	-55.1	6.1	0.00e+00	0	29	104	0	60	95449
2026-01-04 21:44:51.82	32.30	4.79	-51.9	-54.4	6.1	0.00e+00	0	29	104	0	60	87606
2026-01-04 21:44:52.84	32.44	4.85	-51.6	-54.1	6.1	0.00e+00	0	29	104	0	60	84722
2026-01-04 21:44:53.85	32.58	4.91	-51.8	-54.3	6.1	0.00e+00	0	30	104	0	60	86796
2026-01-04 21:44:54.86	32.71	4.98	-51.8	-54.3	6.1	0.00e+00	0	29	104	0	60	87004
2026-01-04 21:44:55.87	32.85	5.04	-51.5	-54.0	6.1	0.00e+00	0	29	104	0	60	83775
2026-01-04 21:44:56.88	32.99	5.10	-51.7	-54.2	6.1	0.00e+00	0	29	104	0	60	85668
2026-01-04 21:44:57.89	33.13	5.16	-51.8	-54.3	6.1	0.00e+00	0	30	104	0	60	87201
2026-01-04 21:44:58.90	33.27	5.22	-52.1	-54.6	6.0	0.00e+00	0	30	104	0	60	89557
2026-01-04 21:44:59.91	33.41	5.28	-51.6	-54.1	6.1	0.00e+00	0	30	104	0	60	84917
2026-01-04 21:45:00.92	33.55	5.34	-51.9	-54.5	6.1	0.00e+00	0	29	104	0	60	88485
2026-01-04 21:45:01.94	33.70	5.40	-52.2	-54.7	6.1	0.00e+00	0	30	104	0	60	90506
2026-01-04 21:45:02.95	33.84	5.46	-52.0	-54.5	6.1	0.00e+00	0	30	104	0	60	88839
2026-01-04 21:45:03.96	33.99	5.52	-51.6	-54.1	6.1	0.00e+00	0	29	104	0	60	84817
2026-01-04 21:45:04.97	34.13	5.59	-51.7	-54.1	6.1	0.00e+00	0	29	104	0	60	84711
2026-01-04 21:45:05.98	34.28	5.65	-52.0	-54.4	6.1	0.00e+00	0	30	104	0	60	88164
2026-01-04 21:45:06.99	34.42	5.71	-51.8	-54.3	6.0	0.00e+00	0	30	104	0	60	86995
2026-01-04 21:45:08.00	34.57	5.77	-51.5	-54.0	6.1	0.00e+00	0	30	104	0	60	83543
2026-01-04 21:45:09.01	34.72	5.83	-51.4	-53.9	6.0	0.00e+00	0	30	104	0	60	82900
2026-01-04 21:45:10.02	34.87	5.89	-51.6	-54.1	6.1	0.00e+00	0	30	104	0	60	84474
2026-01-04 21:45:11.03	35.02	5.95	-52.2	-54.7	6.1	0.00e+00	0	30	104	0	60	91105
2026-01-04 21:45:12.04	35.17	6.02	-52.0	-54.5	6.1	0.00e+00	0	30	104	0	60	88283
2026-01-04 21:45:13.05	35.32	6.08	-52.1	-54.6	6.1	0.00e+00	0	30	104	0	60	89681
2026-01-04 21:45:14.07	35.47	6.14	-51.9	-54.4	6.1	0.00e+00	0	30	104	0	60	87976
2026-01-04 21:45:15.07	35.62	6.20	-51.5	-54.0	6.1	0.00e+00	0	30	104	0	60	83733
2026-01-04 21:45:16.09	35.78	6.26	-51.4	-53.9	6.1	0.00e+00	0	30	104	0	60	82681
2026-01-04 21:45:17.10	35.93	6.33	-51.6	-54.1	6.1	0.00e+00	0	30	104	0	60	84653
2026-01-04 21:45:18.11	36.08	6.39	-51.9	-54.4	6.0	0.00e+00	0	30	104	0	60	87909
2026-01-04 21:45:19.12	36.24	6.45	-51.7	-54.1	6.1	0.00e+00	0	30	104	0	60	85125
2026-01-04 21:45:20.13	36.40	6.51	-51.6	-54.1	6.1	0.00e+00	0	30	104	0	60	84951
2026-01-04 21:45:21.14	36.55	6.57	-51.7	-54.1	6.1	0.00e+00	0	30	104	0	60	85161
2026-01-04 21:45:22.15	36.71	6.64	-52.2	-54.7	6.1	0.00e+00	0	30	104	0	60	90492
2026-01-04 21:45:23.16	36.87	6.70	-51.7	-54.1	6.1	0.00e+00	0	30	104	0	60	85173
2026-01-04 21:45:24.17	37.03	6.76	-51.6	-54.1	6.1	0.00e+00	0	30	104	0	60	84715
2026-01-04 21:45:25.19	37.19	6.82	-51.6	-54.1	6.1	0.00e+00	0	30	104	0	60	84928
2026-01-04 21:45:26.20	37.35	6.89	-52.0	-54.5	6.1	0.00e+00	0	30	104	0	60	88443
2026-01-04 21:45:27.21	37.52	6.95	-51.9	-54.4	6.1	0.00e+00	0	30	104	0	60	87384
2026-01-04 21:45:28.22	37.68	7.01	-51.6	-54.1	6.1	0.00e+00	0	30	104	0	60	84529
2026-01-04 21:45:29.23	37.84	7.07	-51.8	-54.3	6.1	0.00e+00	0	30	104	0	60	87040
2026-01-04 21:45:30.24	38.01	7.13	-51.6	-54.1	6.1	0.00e+00	0	30	104	0	60	84841
2026-01-04 21:45:31.25	38.17	7.20	-51.8	-54.3	6.1	0.00e+00	0	30	104	0	60	86569
2026-01-04 21:45:32.26	38.34	7.26	-52.0	-54.5	6.1	0.00e+00	0	30	104	0	60	88445
2026-01-04 21:45:33.27	38.51	7.32	-51.7	-54.2	6.1	0.00e+00	0	30	104	0	60	85494
2026-01-04 21:45:34.28	38.68	7.39	-51.7	-54.1	6.1	0.00e+00	0	30	104	0	60	84939
2026-01-04 21:45:35.29	38.85	7.45	-51.8	-54.3	6.1	0.00e+00	0	30	104	0	60	86404
2026-01-04 21:45:36.31	39.02	7.51	-51.7	-54.2	6.1	0.00e+00	0	30	104	0	60	85383
2026-01-04 21:45:37.32	39.19	7.57	-51.6	-54.0	6.1	0.00e+00	0	30	104	0	60	84157
2026-01-04 21:45:38.33	39.36	7.64	-51.8	-54.3	6.1	0.00e+00	0	30	104	0	60	86488
2026-01-04 21:45:39.34	39.53	7.70	-52.2	-54.6	6.1	0.00e+00	0	30	104	0	60	90245
2026-01-04 21:45:40.35	39.71	7.76	-51.9	-54.4	6.1	0.00e+00	0	30	104	0	60	88065
2026-01-04 21:45:41.36	39.88	7.82	-52.0	-54.4	6.1	0.00e+00	0	30	104	0	60	87983
2026-01-04 21:45:42.37	40.06	7.89	-52.1	-54.6	6.1	0.00e+00	0	30	104	0	60	89449
2026-01-04 21:45:43.38	40.23	7.95	-51.7	-54.1	6.1	0.00e+00	0	30	104	0	60	84873
2026-01-04 21:45:44.39	40.41	8.01	-52.4	-54.8	6.1	0.00e+00	0	30	104	0	60	92286
2026-01-04 21:45:45.40	40.59	8.08	-51.8	-54.2	6.1	0.00e+00	0	30	104	0	60	86170
2026-01-04 21:45:46.42	40.77	8.14	-51.7	-54.2	6.1	0.00e+00	0	30	104	0	60	85954
2026-01-04 21:45:47.43	40.95	8.20	-51.9	-54.4	6.1	0.00e+00	0	30	104	0	60	87600
2026-01-04 21:45:48.44	41.13	8.26	-52.0	-54.5	6.1	0.00e+00	0	30	104	0	60	88667
2026-01-04 21:45:49.45	41.31	8.33	-51.5	-53.9	6.1	0.00e+00	0	30	104	0	60	82940
2026-01-04 21:45:50.46	41.49	8.39	-52.2	-54.7	6.1	0.00e+00	0	30	104	0	60	90816
2026-01-04 21:45:51.47	41.68	8.45	-52.0	-54.5	6.1	0.00e+00	0	30	104	0	60	88313
2026-01-04 21:45:52.48	41.86	8.52	-51.8	-54.3	6.1	0.00e+00	0	30	104	0	60	86362
2026-01-04 21:45:53.49	42.05	8.58	-52.0	-54.5	6.1	0.00e+00	0	30	104	0	60	88387
2026-01-04 21:45:54.50	42.24	8.64	-52.3	-54.8	6.1	0.00e+00	0	30	104	0	60	91910
2026-01-04 21:45:55.51	42.42	8.70	-51.9	-54.4	6.1	0.00e+00	0	30	104	0	60	87545
2026-01-04 21:45:56.52	42.61	8.77	-51.6	-54.1	6.1	0.00e+00	0	30	104	0	60	84318
2026-01-04 21:45:57.53	42.80	8.83	-51.8	-54.3	6.1	0.00e+00	0	30	104	0	60	86525
2026-01-04 21:45:58.54	42.99	8.89	-51.5	-53.9	6.1	0.00e+00	0	30	104	0	60	83137
2026-01-04 21:45:59.55	43.18	8.95	-51.4	-53.9	6.1	0.00e+00	0	30	104	0	60	82395
2026-01-04 21:46:00.56	43.38	9.02	-51.8	-54.3	6.1	0.00e+00	0	30	104	0	60	86453
2026-01-04 21:46:01.58	43.57	9.08	-51.3	-53.8	6.1	0.00e+00	0	30	104	0	60	81943
2026-01-04 21:46:02.59	43.77	9.14	-51.3	-53.8	6.1	0.00e+00	0	30	104	0	60	81552
2026-01-04 21:46:03.60	43.96	9.20	-51.2	-53.7	6.1	0.00e+00	0	30	104	0	60	80931
2026-01-04 21:46:04.61	44.16	9.27	-51.1	-53.6	6.1	0.00e+00	0	30	104	0	60	80158
2026-01-04 21:46:05.62	44.36	9.33	-50.6	-53.2	6.1	0.00e+00	0	30	104	0	60	76106
2026-01-04 21:46:06.63	44.55	9.39	-50.5	-53.1	6.1	0.00e+00	0	30	104	0	60	75464
2026-01-04 21:46:07.64	44.75	9.45	-50.7	-53.2	6.1	0.00e+00	0	30	104	0	60	76474
2026-01-04 21:46:08.65	44.95	9.52	-50.5	-53.0	6.1	0.00e+00	0	30	104	0	60	74585
2026-01-04 21:46:09.66	45.16	9.58	-50.2	-52.8	6.1	0.00e+00	0	30	104	0	60	72761
2026-01-04 21:46:10.68	45.36	9.64	-50.1	-52.6	6.1	0.00e+00	0	30	104	0	60	71441
2026-01-04 21:46:11.69	45.56	9.70	-49.4	-52.0	6.1	0.00e+00	0	30	104	0	60	66286
2026-01-04 21:46:12.70	45.77	9.76	-49.4	-51.9	6.1	0.00e+00	0	30	104	0	60	66005
2026-01-04 21:46:13.71	45.97	9.83	-49.4	-52.0	6.1	0.00e+00	0	30	104	0	60	66735
2026-01-04 21:46:14.72	46.18	9.89	-49.4	-51.9	6.1	0.00e+00	0	30	104	0	60	65541
2026-01-04 21:46:15.73	46.39	9.95	-49.4	-51.9	6.1	0.00e+00	0	30	104	0	60	66104
2026-01-04 21:46:16.74	46.60	10.01	-49.4	-51.9	6.1	0.00e+00	0	30	104	0	60	65417
2026-01-04 21:46:17.75	46.81	10.07	-49.4	-51.9	6.1	0.00e+00	0	30	104	0	60	65796
2026-01-04 21:46:18.76	47.02	10.13	-49.4	-52.0	6.1	0.00e+00	0	30	104	0	60	66281
2026-01-04 21:46:19.78	47.23	10.20	-49.4	-51.9	6.1	0.00e+00	0	31	104	0	60	65744
2026-01-04 21:46:20.79	47.45	10.26	-49.4	-51.9	6.1	0.00e+00	0	31	104	0	60	65986
2026-01-04 21:46:21.80	47.66	10.32	-49.4	-51.9	6.1	0.00e+00	0	31	104	0	60	65948
2026-01-04 21:46:22.81	47.88	10.38	-49.4	-51.9	6.1	0.00e+00	0	30	104	0	60	65695
2026-01-04 21:46:23.82	48.09	10.44	-49.4	-51.9	6.1	0.00e+00	0	31	104	0	60	65799
2026-01-04 21:46:24.83	48.31	10.50	-49.4	-51.9	6.1	0.00e+00	0	30	104	0	60	65549
2026-01-04 21:46:25.84	48.53	10.56	-49.4	-51.9	6.1	0.00e+00	0	30	104	0	60	65539
2026-01-04 21:46:26.85	48.75	10.62	-49.4	-51.9	6.1	0.00e+00	0	30	104	0	60	65634
2026-01-04 21:46:27.86	48.97	10.68	-49.4	-51.9	6.1	0.00e+00	0	31	104	0	60	65501
2026-01-04 21:46:28.87	49.19	10.74	-49.4	-51.9	6.1	0.00e+00	0	30	104	0	60	65658
2026-01-04 21:46:29.89	49.42	10.80	-49.3	-51.9	6.0	0.00e+00	0	30	104	0	60	65605
2026-01-04 21:46:30.90	49.64	10.86	-49.4	-51.9	6.1	0.00e+00	0	30	104	0	60	65970
2026-01-04 21:46:31.91	49.87	10.92	-49.4	-51.9	6.1	0.00e+00	0	31	104	0	60	65760
2026-01-04 21:46:32.92	50.09	10.98	-49.3	-51.9	6.1	0.00e+00	0	30	104	0	60	65560
2026-01-04 21:46:33.93	50.32	11.04	-49.4	-51.9	6.1	0.00e+00	0	30	104	0	60	65604
2026-01-04 21:46:34.94	50.55	11.10	-49.4	-51.9	6.1	0.00e+00	0	30	104	0	60	65643
2026-01-04 21:46:35.95	50.78	11.16	-49.4	-51.9	6.1	0.00e+00	0	30	104	0	60	65584
2026-01-04 21:46:36.96	51.01	11.22	-49.4	-51.9	6.1	0.00e+00	0	30	104	0	60	65978
2026-01-04 21:46:37.97	51.24	11.28	-49.4	-51.9	6.1	0.00e+00	0	30	104	0	60	65416
2026-01-04 21:46:38.98	51.47	11.34	-49.4	-51.8	6.1	0.00e+00	0	31	104	0	60	65358
2026-01-04 21:46:39.99	51.71	11.40	-49.4	-51.9	6.1	0.00e+00	0	30	104	0	60	65761
2026-01-04 21:46:41.00	51.94	11.46	-49.4	-51.9	6.1	0.00e+00	0	31	104	0	60	65748
2026-01-04 21:46:42.01	52.18	11.51	-49.4	-51.9	6.1	0.00e+00	0	31	104	0	60	65746
2026-01-04 21:46:43.02	52.41	11.57	-49.4	-51.9	6.1	0.00e+00	0	31	104	0	60	65885
2026-01-04 21:46:44.03	52.65	11.63	-49.4	-51.9	6.1	0.00e+00	0	31	104	0	60	65895
2026-01-04 21:46:45.04	52.89	11.69	-49.4	-51.9	6.1	0.00e+00	0	31	104	0	60	65734
2026-01-04 21:46:46.05	53.13	11.74	-49.4	-51.9	6.1	0.00e+00	0	31	104	0	60	65827
2026-01-04 21:46:47.06	53.37	11.80	-49.4	-52.0	6.1	0.00e+00	0	31	104	0	60	66340
2026-01-04 21:46:48.07	53.62	11.86	-49.4	-51.9	6.1	0.00e+00	0	31	104	0	60	65913
2026-01-04 21:46:49.08	53.86	11.91	-49.3	-51.8	6.1	0.00e+00	0	31	104	0	60	64977
2026-01-04 21:46:50.09	54.11	11.97	-49.2	-51.7	6.1	0.00e+00	0	31	104	0	60	63998
2026-01-04 21:46:51.10	54.35	12.03	-49.1	-51.5	6.1	0.00e+00	0	31	104	0	60	62948
2026-01-04 21:46:52.12	54.60	12.08	-49.1	-51.5	6.1	0.00e+00	0	31	104	0	60	62971
2026-01-04 21:46:53.13	54.85	12.14	-49.7	-52.1	6.1	0.00e+00	0	31	104	0	60	67419
2026-01-04 21:46:54.14	55.10	12.19	-49.3	-51.9	6.1	0.00e+00	0	31	104	0	60	65443
2026-01-04 21:46:55.15	55.35	12.25	-50.0	-52.5	6.1	0.00e+00	0	31	104	0	60	70491
2026-01-04 21:46:56.16	55.60	12.30	-49.7	-52.2	6.1	0.00e+00	0	31	104	0	60	68324
2026-01-04 21:46:57.17	55.86	12.36	-47.7	-49.4	6.2	0.00e+00	0	31	104	0	60	49546
2026-01-04 21:46:58.18	56.11	12.41	-48.4	-50.4	6.1	0.00e+00	0	31	104	0	60	55029
2026-01-04 21:46:59.19	56.36	12.47	-48.7	-50.7	6.1	0.00e+00	0	31	104	0	60	57357
2026-01-04 21:47:00.20	56.62	12.52	-48.6	-50.7	6.1	0.00e+00	0	31	104	0	60	57263
2026-01-04 21:47:01.21	56.88	12.58	-48.3	-50.2	6.2	0.00e+00	0	31	104	0	60	54310
2026-01-04 21:47:02.22	57.14	12.63	-46.4	-47.7	6.6	0.00e+00	0	31	104	0	60	40761
2026-01-04 21:47:03.24	57.40	12.68	-48.5	-50.4	6.1	0.00e+00	0	31	104	0	60	55482
2026-01-04 21:47:04.25	57.66	12.73	-30.9	-31.2	13.4	0.00e+00	20	31	104	0	40	19290
2026-01-04 21:47:05.26	57.92	12.79	-41.6	-42.1	10.6	0.00e+00	0	31	104	8388608	60	21188
2026-01-04 21:47:06.27	58.18	12.84	-35.7	-36.0	12.3	0.00e+00	1013	31	104	8388608	50	18766
2026-01-04 21:47:07.28	58.45	12.89	-29.8	-30.1	15.9	4.18e-02	0	31	0	100663296	40	16941
2026-01-04 21:47:08.29	58.71	12.94	-30.4	-30.7	15.6	4.18e-02	0	31	0	218103808	40	18181
2026-01-04 21:47:09.30	58.98	12.99	-30.3	-30.6	15.7	6.87e-04	0	31	0	335544320	40	18005
2026-01-04 21:47:10.31	59.25	13.04	-29.3	-29.7	15.9	6.87e-04	0	31	0	444596224	40	16090
2026-01-04 21:47:11.33	59.52	13.09	-29.6	-30.0	15.9	4.03e-04	0	31	0	562036736	40	16722
2026-01-04 21:47:12.34	59.79	13.14	-29.9	-30.3	15.9	4.03e-04	0	31	0	671088640	38	19443
2026-01-04 21:47:13.35	60.06	13.19	-29.3	-29.7	16.0	2.02e-04	0	31	0	788529152	38	18083
2026-01-04 21:47:14.36	60.33	13.24	-29.0	-29.4	16.1	2.02e-04	0	31	0	897581056	38	17495
2026-01-04 21:47:15.37	60.60	13.29	-29.1	-29.5	16.1	2.02e-04	0	31	0	1015021568	38	17789
2026-01-04 21:47:16.38	60.87	13.34	-29.2	-29.6	16.1	1.80e-04	0	31	0	1124073472	38	17955
2026-01-04 21:47:17.39	61.15	13.38	-29.4	-29.8	16.1	1.80e-04	0	31	0	1241513984	38	18364
2026-01-04 21:47:18.40	61.42	13.43	-29.9	-30.3	15.9	2.02e-04	0	31	0	1358954496	38	19384
2026-01-04 21:47:19.41	61.70	13.48	-29.0	-29.4	16.2	2.02e-04	0	31	0	1468006400	38	17477
2026-01-04 21:47:20.42	61.98	13.53	-28.9	-29.3	16.3	2.18e-04	0	31	0	1585446912	38	17349
2026-01-04 21:47:21.43	62.26	13.57	-28.8	-29.3	16.4	2.18e-04	0	31	0	1694498816	38	17213
2026-01-04 21:47:22.45	62.54	13.62	-29.3	-29.7	16.3	8.17e-05	0	31	0	1811939328	38	18123
2026-01-04 21:47:23.46	62.82	13.66	-29.7	-30.2	16.3	8.17e-05	0	31	0	1929379840	38	19113
2026-01-04 21:47:24.47	63.10	13.71	-29.5	-29.9	16.2	1.31e-04	0	31	0	2038431744	38	18574
2026-01-04 21:47:25.48	63.38	13.75	-29.3	-29.7	16.4	1.31e-04	0	31	0	2147483648	38	18209
2026-01-04 21:47:26.49	63.67	13.80	-29.1	-29.5	16.4	1.74e-04	0	31	0	2264924160	38	17789
2026-01-04 21:47:27.50	63.95	13.84	-29.5	-29.9	16.3	1.74e-04	0	31	0	2382364672	38	18593
2026-01-04 21:47:28.51	64.24	13.88	-30.1	-30.5	16.1	2.23e-04	0	31	0	2491416576	38	19867
2026-01-04 21:47:29.52	64.53	13.92	-29.4	-29.9	16.3	2.23e-04	0	31	0	2608857088	40	16447
2026-01-04 21:47:30.54	64.82	13.97	-29.8	-30.3	16.2	2.56e-04	0	31	0	2717908992	40	17302
2026-01-04 21:47:31.55	65.10	14.01	-29.9	-30.4	16.2	2.56e-04	0	31	0	2835349504	40	17408
2026-01-04 21:47:32.56	65.39	14.05	-30.2	-30.6	16.1	3.49e-04	0	31	0	2952790016	40	17970
2026-01-04 21:47:33.57	65.68	14.09	-29.8	-30.2	16.1	3.49e-04	0	31	0	3061841920	40	17183
2026-01-04 21:47:34.58	65.98	14.13	-29.7	-30.1	16.2	3.49e-04	0	31	0	3170893824	40	16994
2026-01-04 21:47:35.59	66.27	14.17	-29.6	-30.0	16.3	3.49e-04	0	31	0	3288334336	40	16788
2026-01-04 21:47:36.60	66.56	14.21	-29.7	-30.2	16.4	3.49e-04	0	31	0	3405774848	40	17049
2026-01-04 21:47:37.61	66.86	14.24	-29.5	-30.0	16.2	1.69e-04	0	31	0	3514826752	40	16652
2026-01-04 21:47:38.63	67.15	14.28	-30.0	-30.5	16.2	1.69e-04	0	31	0	3632267264	40	17637
2026-01-04 21:47:39.64	67.45	14.32	-29.5	-29.9	16.3	1.63e-04	0	31	0	3741319168	40	16571
2026-01-04 21:47:40.65	67.75	14.36	-29.6	-30.0	16.4	1.63e-04	0	31	0	3858759680	40	16755
2026-01-04 21:47:41.66	68.04	14.39	-29.4	-29.9	16.4	1.58e-04	0	31	0	3976200192	40	16474
2026-01-04 21:47:42.67	68.34	14.43	-29.6	-30.0	16.3	1.58e-04	0	31	0	4085252096	40	16734
2026-01-04 21:47:43.68	68.64	14.46	-30.2	-30.7	16.2	2.29e-04	0	31	0	4194304000	40	18030
2026-01-04 21:47:44.69	68.94	14.50	-29.7	-30.1	16.3	2.29e-04	0	31	0	4311744512	40	16911
2026-01-04 21:47:45.70	69.24	14.53	-29.5	-29.9	16.3	2.02e-04	0	31	0	4429185024	40	16591
2026-01-04 21:47:46.71	69.54	14.56	-29.4	-29.8	16.5	2.02e-04	0	31	0	4538236928	40	16348
2026-01-04 21:47:47.72	69.85	14.60	-29.2	-29.6	16.5	2.02e-04	0	31	0	4655677440	40	16039
2026-01-04 21:47:48.74	70.15	14.63	-28.9	-29.3	16.6	9.80e-05	0	31	0	4764729344	38	17351
2026-01-04 21:47:49.75	70.46	14.66	-29.0	-29.4	16.4	9.80e-05	0	31	0	4882169856	38	17591
2026-01-04 21:47:50.76	70.76	14.69	-29.1	-29.5	16.4	1.14e-04	0	31	0	4999610368	38	17694
2026-01-04 21:47:51.77	71.07	14.72	-29.1	-29.5	16.4	1.14e-04	0	31	0	5108662272	38	17758
2026-01-04 21:47:52.78	71.37	14.75	-28.9	-29.3	16.5	1.25e-04	0	31	0	5217714176	38	17383
2026-01-04 21:47:53.79	71.68	14.78	-29.0	-29.5	16.5	1.25e-04	0	31	0	5335154688	38	17667
2026-01-04 21:47:54.80	71.99	14.81	-29.0	-29.4	16.5	1.31e-04	0	31	0	5452595200	38	17501
2026-01-04 21:47:55.81	72.30	14.84	-28.8	-29.2	16.6	1.31e-04	0	31	0	5561647104	38	17193
2026-01-04 21:47:56.82	72.60	14.86	-29.0	-29.4	16.6	7.08e-05	0	31	0	5679087616	38	17569
2026-01-04 21:47:57.83	72.91	14.89	-29.2	-29.6	16.5	7.08e-05	6	31	0	5788139520	38	17982
2026-01-04 21:47:58.85	73.23	14.91	-28.5	-29.0	16.7	7.08e-05	0	31	0	5905580032	38	16719
2026-01-04 21:47:59.86	73.54	14.94	-28.8	-29.2	16.6	6.53e-05	0	31	0	6023020544	38	17198
2026-01-04 21:48:00.87	73.85	14.96	-28.7	-29.2	16.6	6.53e-05	0	31	0	6132072448	38	17125
2026-01-04 21:48:01.88	74.16	14.99	-28.8	-29.3	16.6	4.35e-05	0	31	0	6249512960	38	17211
2026-01-04 21:48:02.89	74.47	15.01	-28.8	-29.2	16.7	4.35e-05	0	31	0	6358564864	38	17167
2026-01-04 21:48:03.90	74.79	15.03	-28.5	-29.0	16.7	4.35e-05	0	31	0	6476005376	38	16700
2026-01-04 21:48:04.91	75.10	15.05	-28.4	-28.9	16.7	2.17e-05	0	31	0	6585057280	38	16469
2026-01-04 21:48:05.92	75.42	15.07	-28.5	-29.0	16.5	2.17e-05	0	31	0	6702497792	38	16693
2026-01-04 21:48:06.94	75.73	15.10	-28.4	-28.8	16.4	7.62e-05	0	31	0	6811549696	38	16396
2026-01-04 21:48:07.95	76.05	15.11	-28.5	-28.9	16.4	7.62e-05	0	31	0	6928990208	38	16570
2026-01-04 21:48:08.96	76.36	15.13	-28.4	-28.8	16.4	7.62e-05	0	31	0	7046430720	38	16400
2026-01-04 21:48:09.97	76.68	15.15	-28.2	-28.7	16.6	8.17e-05	0	31	0	7155482624	38	16124
2026-01-04 21:48:10.98	77.00	15.17	-28.1	-28.6	16.7	8.17e-05	0	32	0	7272923136	38	15872
2026-01-04 21:48:11.99	77.31	15.19	-28.2	-28.7	16.7	3.26e-05	0	31	0	7381975040	38	16162
2026-01-04 21:48:13.00	77.63	15.20	-28.1	-28.6	16.8	3.26e-05	0	31	0	7499415552	38	15935
2026-01-04 21:48:14.01	77.95	15.22	-28.3	-28.8	16.7	2.72e-05	0	31	0	7608467456	38	16300
2026-01-04 21:48:15.02	78.27	15.23	-28.2	-28.7	16.7	2.72e-05	0	32	0	7725907968	38	16125
2026-01-04 21:48:16.04	78.59	15.24	-28.1	-28.6	16.8	2.17e-05	0	31	0	7834959872	38	15985
2026-01-04 21:48:17.05	78.91	15.26	-28.3	-28.7	16.8	2.17e-05	0	32	0	7952400384	38	16214
2026-01-04 21:48:18.06	79.23	15.27	-27.9	-28.4	16.9	2.17e-05	0	32	0	8069840896	36	17487
2026-01-04 21:48:19.07	79.55	15.28	-28.3	-28.7	16.8	5.40e-06	0	32	0	8178892800	36	18190
2026-01-04 21:48:20.08	79.87	15.29	-28.0	-28.4	16.8	5.40e-06	0	32	0	8296333312	36	17544
2026-01-04 21:48:21.09	80.19	15.30	-27.9	-28.4	16.8	2.17e-05	0	32	0	8405385216	36	17483
2026-01-04 21:48:22.10	80.51	15.31	-28.3	-28.8	16.8	2.17e-05	0	32	0	8522825728	36	18279
2026-01-04 21:48:23.11	80.83	15.32	-28.1	-28.6	16.8	2.17e-05	0	32	0	8640266240	36	17903
2026-01-04 21:48:24.12	81.15	15.33	-28.0	-28.5	16.9	1.63e-05	0	32	0	8749318144	36	17639
2026-01-04 21:48:25.13	81.47	15.34	-27.8	-28.2	16.9	1.63e-05	0	32	0	8858370048	36	17201
2026-01-04 21:48:26.15	81.79	15.34	-28.1	-28.6	16.8	1.08e-05	0	32	0	8975810560	36	17925
2026-01-04 21:48:27.16	82.12	15.35	-27.3	-27.8	17.0	1.08e-05	0	32	0	9093251072	36	16277
2026-01-04 21:48:28.17	82.44	15.35	-28.0	-28.5	16.8	1.63e-05	0	32	0	9202302976	36	17607
2026-01-04 21:48:29.18	82.76	15.36	-27.1	-27.6	17.0	1.63e-05	0	32	0	9319743488	36	15888
2026-01-04 21:48:30.19	83.08	15.36	-27.8	-28.3	16.9	1.63e-05	0	32	0	9428795392	36	17281
2026-01-04 21:48:31.20	83.40	15.36	-27.6	-28.1	16.9	1.63e-05	0	32	0	9546235904	36	16862
2026-01-04 21:48:32.21	83.72	15.36	-27.5	-28.0	16.8	1.63e-05	0	32	0	9663676416	36	16639
2026-01-04 21:48:33.22	84.05	15.37	-27.5	-28.0	16.8	5.40e-06	0	32	0	9772728320	36	16637
2026-01-04 21:48:34.23	84.37	15.37	-27.7	-28.1	16.8	5.40e-06	0	32	0	9881780224	36	16992
2026-01-04 21:48:35.24	84.69	15.36	-27.6	-28.1	16.7	2.72e-05	0	32	0	9999220736	36	16819
2026-01-04 21:48:36.25	85.01	15.36	-27.6	-28.0	16.8	2.72e-05	0	32	0	10116661248	36	16795
2026-01-04 21:48:37.26	85.33	15.36	-27.5	-28.0	16.9	1.63e-05	0	32	0	10225713152	36	16747
2026-01-04 21:48:38.28	85.66	15.36	-28.1	-28.6	16.8	1.63e-05	0	32	0	10343153664	36	17942
2026-01-04 21:48:39.29	85.98	15.36	-27.6	-28.1	16.9	1.63e-05	0	32	0	10452205568	36	16967
2026-01-04 21:48:40.30	86.30	15.35	-27.5	-27.9	17.0	1.63e-05	0	32	0	10569646080	36	16601
2026-01-04 21:48:41.31	86.62	15.35	-27.4	-27.8	16.9	0.00e+00	0	32	0	10687086592	36	16402
2026-01-04 21:48:42.32	86.95	15.34	-26.9	-27.4	17.0	0.00e+00	0	32	0	10796138496	34	17448
2026-01-04 21:48:43.33	87.27	15.33	-27.5	-28.0	16.9	0.00e+00	0	32	0	10905190400	34	18726
2026-01-04 21:48:44.34	87.59	15.33	-27.1	-27.6	16.9	0.00e+00	0	32	0	11022630912	34	17897
2026-01-04 21:48:45.35	87.91	15.32	-27.0	-27.5	16.9	5.40e-06	0	32	0	11140071424	34	17754
2026-01-04 21:48:46.36	88.23	15.31	-27.4	-27.8	16.9	5.40e-06	0	32	0	11249123328	34	18390
2026-01-04 21:48:47.37	88.55	15.30	-27.3	-27.7	16.8	1.08e-05	0	32	0	11366563840	34	18215
2026-01-04 21:48:48.39	88.87	15.29	-27.3	-27.8	16.8	1.08e-05	0	32	0	11475615744	34	18225
2026-01-04 21:48:49.40	89.20	15.28	-27.6	-28.1	16.7	1.08e-05	0	32	0	11593056256	34	18988
2026-01-04 21:48:50.41	89.51	15.27	-27.5	-28.0	16.7	2.72e-05	0	32	0	11710496768	34	18745
2026-01-04 21:48:51.42	89.83	15.26	-27.4	-27.9	16.8	2.72e-05	0	32	0	11819548672	34	18598
2026-01-04 21:48:52.43	90.15	15.24	-27.4	-27.8	16.8	1.08e-05	0	32	0	11928600576	34	18377
2026-01-04 21:48:53.44	90.47	15.23	-27.2	-27.7	16.8	1.08e-05	0	32	0	12046041088	34	18066
2026-01-04 21:48:54.45	90.79	15.21	-27.1	-27.6	16.8	2.72e-05	0	32	0	12163481600	34	17817
2026-01-04 21:48:55.46	91.11	15.20	-27.2	-27.7	16.8	2.72e-05	0	32	0	12272533504	34	18043
2026-01-04 21:48:56.47	91.43	15.18	-27.3	-27.8	16.9	2.72e-05	0	32	0	12389974016	34	18234
2026-01-04 21:48:57.49	91.75	15.17	-27.4	-27.8	16.8	1.08e-05	0	32	0	12499025920	34	18417
2026-01-04 21:48:58.50	92.07	15.15	-27.3	-27.7	16.9	1.08e-05	0	32	0	12616466432	34	18154
2026-01-04 21:48:59.51	92.38	15.13	-27.5	-27.9	16.8	1.08e-05	0	32	0	12733906944	34	18630
2026-01-04 21:49:00.52	92.70	15.11	-27.5	-28.0	16.9	1.08e-05	0	32	0	12842958848	34	18741
2026-01-04 21:49:01.53	93.01	15.09	-27.0	-27.5	17.0	5.40e-06	0	32	0	12952010752	34	17740
2026-01-04 21:49:02.54	93.33	15.07	-27.1	-27.6	16.8	5.40e-06	0	32	0	13069451264	34	17903
2026-01-04 21:49:03.55	93.64	15.05	-27.1	-27.6	16.7	5.40e-06	0	32	0	13186891776	34	17825
2026-01-04 21:49:04.56	93.96	15.03	-27.1	-27.5	16.7	5.40e-06	0	32	0	13295943680	34	17794
2026-01-04 21:49:05.57	94.27	15.01	-27.0	-27.4	16.7	5.40e-06	0	32	0	13413384192	34	17557
2026-01-04 21:49:06.59	94.59	14.98	-26.9	-27.4	16.7	5.40e-06	0	32	0	13522436096	34	17513
2026-01-04 21:49:07.60	94.90	14.96	-27.0	-27.5	16.5	5.40e-06	0	32	0	13639876608	34	17622
2026-01-04 21:49:08.61	95.21	14.93	-26.9	-27.3	16.7	2.17e-05	0	32	0	13757317120	34	17327
2026-01-04 21:49:09.62	95.52	14.91	-27.1	-27.6	16.8	2.17e-05	0	32	0	13866369024	34	17846
2026-01-04 21:49:10.63	95.83	14.88	-27.1	-27.5	16.9	2.17e-05	0	32	0	13983809536	34	17795
2026-01-04 21:49:11.64	96.14	14.86	-27.5	-28.0	16.8	5.40e-06	0	32	0	14092861440	34	18725
2026-01-04 21:49:12.65	96.45	14.83	-27.5	-28.0	16.7	5.40e-06	0	32	0	14210301952	34	18651
2026-01-04 21:49:13.66	96.76	14.80	-27.2	-27.7	16.8	5.40e-06	0	32	0	14319353856	34	18077
2026-01-04 21:49:14.67	97.07	14.77	-27.0	-27.5	16.6	5.40e-06	0	32	0	14436794368	34	17737
2026-01-04 21:49:15.68	97.38	14.74	-27.1	-27.6	16.5	5.40e-06	0	32	0	14545846272	34	17852
2026-01-04 21:49:16.69	97.69	14.71	-27.6	-28.1	16.4	5.40e-06	0	32	0	14663286784	34	18921
2026-01-04 21:49:17.70	97.99	14.68	-27.7	-28.1	16.6	5.40e-06	0	32	0	14780727296	34	19051
2026-01-04 21:49:18.71	98.30	14.65	-27.9	-28.3	16.5	3.81e-05	0	32	0	14889779200	34	19484
2026-01-04 21:49:19.73	98.61	14.62	-27.8	-28.2	16.5	3.81e-05	0	32	0	15007219712	34	19248
2026-01-04 21:49:20.73	98.91	14.59	-27.3	-27.7	16.6	3.81e-05	0	32	0	15116271616	34	18205
2026-01-04 21:49:21.74	99.21	14.56	-27.3	-27.8	16.5	2.17e-05	0	32	0	15225323520	34	18320
2026-01-04 21:49:22.75	99.51	14.52	-27.2	-27.7	16.6	2.17e-05	0	32	0	15342764032	34	18113
2026-01-04 21:49:23.76	99.81	14.49	-27.3	-27.7	16.8	3.81e-05	0	32	0	15460204544	34	18211
2026-01-04 21:49:24.77	100.11	14.45	-27.0	-27.4	16.9	3.81e-05	0	32	0	15569256448	34	17602
2026-01-04 21:49:25.79	100.42	14.42	-26.7	-27.2	16.9	1.08e-05	0	32	0	15686696960	34	17067
2026-01-04 21:49:26.80	100.72	14.38	-26.7	-27.1	16.8	1.08e-05	0	32	0	15804137472	34	16996
2026-01-04 21:49:27.81	101.01	14.35	-26.7	-27.2	16.7	1.08e-05	0	32	0	15913189376	34	17121
2026-01-04 21:49:28.82	101.31	14.31	-26.7	-27.2	16.9	5.40e-06	0	32	0	16030629888	34	17108
2026-01-04 21:49:29.83	101.61	14.27	-26.6	-27.1	16.9	5.40e-06	0	32	0	16139681792	34	16862
2026-01-04 21:49:30.84	101.90	14.23	-26.6	-27.1	16.9	5.40e-06	0	32	0	16248733696	34	16924
2026-01-04 21:49:31.85	102.20	14.20	-26.6	-27.1	16.8	5.40e-06	0	32	0	16374562816	34	16848
2026-01-04 21:49:32.86	102.49	14.16	-26.6	-27.0	16.6	5.40e-06	0	32	0	16483614720	34	16796
2026-01-04 21:49:33.87	102.79	14.12	-26.4	-26.9	16.7	5.40e-06	0	32	0	16592666624	34	16473
2026-01-04 21:49:34.89	103.08	14.08	-26.4	-26.8	16.9	5.40e-06	0	32	0	16710107136	34	16412
2026-01-04 21:49:35.90	103.37	14.04	-26.4	-26.8	16.9	0.00e+00	0	32	0	16827547648	34	16395
2026-01-04 21:49:36.91	103.66	13.99	-26.3	-26.7	16.9	0.00e+00	0	32	0	16936599552	34	16216
2026-01-04 21:49:37.92	103.95	13.95	-26.2	-26.7	16.8	0.00e+00	0	32	0	17054040064	34	16080
2026-01-04 21:49:38.93	104.24	13.91	-26.1	-26.5	16.9	0.00e+00	0	32	0	17163091968	32	17754
2026-01-04 21:49:39.94	104.53	13.87	-26.1	-26.6	16.8	5.40e-06	0	32	0	17272143872	32	17829
2026-01-04 21:49:40.95	104.82	13.82	-26.1	-26.6	16.6	5.40e-06	0	32	0	17397972992	32	17901
2026-01-04 21:49:41.96	105.10	13.78	-25.9	-26.4	16.9	0.00e+00	0	32	0	17507024896	32	17549
2026-01-04 21:49:42.97	105.39	13.74	-25.9	-26.4	16.7	0.00e+00	0	32	0	17616076800	32	17502
2026-01-04 21:49:43.99	105.67	13.69	-26.0	-26.4	16.2	0.00e+00	0	32	0	17733517312	32	17601
2026-01-04 21:49:45.00	105.95	13.65	-25.9	-26.4	16.3	1.08e-05	0	32	0	17850957824	32	17467
2026-01-04 21:49:46.01	106.24	13.60	-25.9	-26.4	16.6	1.08e-05	0	32	0	17960009728	32	17550
2026-01-04 21:49:47.02	106.52	13.56	-25.8	-26.3	16.9	1.08e-05	0	32	0	18077450240	32	17330
2026-01-04 21:49:48.03	106.80	13.51	-25.9	-26.3	16.9	0.00e+00	0	32	0	18186502144	32	17371
2026-01-04 21:49:49.04	107.08	13.46	-25.9	-26.4	16.5	0.00e+00	0	32	0	18303942656	32	17401
2026-01-04 21:49:50.05	107.35	13.41	-25.8	-26.3	16.1	0.00e+00	0	32	0	18421383168	32	17238
2026-01-04 21:49:51.06	107.63	13.37	-25.8	-26.2	16.5	0.00e+00	0	32	0	18530435072	32	17161
2026-01-04 21:49:52.07	107.90	13.32	-25.7	-26.2	16.7	0.00e+00	0	32	0	18639486976	32	17038
2026-01-04 21:49:53.08	108.18	13.27	-25.9	-26.4	17.0	0.00e+00	0	32	0	18756927488	32	17430
2026-01-04 21:49:54.10	108.46	13.22	-25.9	-26.3	17.0	0.00e+00	0	32	0	18865979392	32	17376
2026-01-04 21:49:55.11	108.73	13.17	-25.9	-26.4	17.0	5.40e-06	0	32	0	18983419904	32	17416
2026-01-04 21:49:56.12	109.00	13.12	-25.7	-26.2	17.1	5.40e-06	0	32	0	19100860416	32	17130
2026-01-04 21:49:57.13	109.27	13.07	-26.1	-26.6	17.0	0.00e+00	0	32	0	19209912320	32	17817
2026-01-04 21:49:58.14	109.54	13.02	-25.8	-26.3	16.9	0.00e+00	0	32	0	19327352832	32	17258
2026-01-04 21:49:59.15	109.81	12.97	-25.8	-26.3	17.0	0.00e+00	0	32	0	19444793344	32	17218
2026-01-04 21:50:00.16	110.07	12.92	-25.7	-26.2	17.0	0.00e+00	0	32	0	19553845248	32	17143
2026-01-04 21:50:01.17	110.34	12.87	-25.8	-26.2	17.1	0.00e+00	0	32	0	19662897152	32	17190
2026-01-04 21:50:02.18	110.60	12.82	-25.6	-26.1	17.0	0.00e+00	0	32	0	19780337664	32	16946
2026-01-04 21:50:03.19	110.87	12.76	-25.7	-26.2	17.0	0.00e+00	0	32	0	19889389568	32	17054
2026-01-04 21:50:04.20	111.13	12.71	-25.6	-26.0	17.0	0.00e+00	0	32	0	20006830080	32	16784
2026-01-04 21:50:05.21	111.39	12.66	-25.6	-26.0	16.8	0.00e+00	0	32	0	20124270592	32	16809
2026-01-04 21:50:06.22	111.65	12.61	-25.6	-26.0	16.8	0.00e+00	0	32	0	20233322496	32	16792
2026-01-04 21:50:07.24	111.91	12.55	-25.7	-26.2	16.6	0.00e+00	0	32	0	20350763008	32	17094
2026-01-04 21:50:08.25	112.17	12.50	-25.8	-26.3	16.7	0.00e+00	0	32	0	20468203520	32	17227
2026-01-04 21:50:09.26	112.43	12.44	-25.6	-26.1	17.1	0.00e+00	0	32	0	20577255424	32	16868
2026-01-04 21:50:10.27	112.69	12.39	-25.5	-26.0	17.1	0.00e+00	0	32	0	20694695936	32	16775
2026-01-04 21:50:11.28	112.94	12.33	-25.7	-26.1	17.1	0.00e+00	0	32	0	20803747840	32	16973
2026-01-04 21:50:12.29	113.19	12.28	-25.7	-26.2	17.0	0.00e+00	0	32	0	20912799744	32	17005
2026-01-04 21:50:13.30	113.45	12.22	-25.7	-26.2	16.9	0.00e+00	0	32	0	21030240256	32	17095
2026-01-04 21:50:14.31	113.70	12.17	-25.8	-26.3	17.0	0.00e+00	0	32	0	21147680768	32	17272
2026-01-04 21:50:15.32	113.95	12.11	-25.8	-26.2	17.0	0.00e+00	0	32	0	21256732672	32	17200
2026-01-04 21:50:16.34	114.20	12.06	-25.6	-26.1	16.8	0.00e+00	0	32	0	21374173184	32	16869
2026-01-04 21:50:17.35	114.45	12.00	-25.5	-26.0	16.7	0.00e+00	0	32	0	21491613696	32	16722
2026-01-04 21:50:18.36	114.70	11.94	-25.7	-26.1	16.9	5.40e-06	0	32	0	21600665600	32	16931
2026-01-04 21:50:19.37	114.94	11.89	-25.6	-26.1	16.7	5.40e-06	0	32	0	21718106112	32	16857
2026-01-04 21:50:20.38	115.19	11.83	-25.6	-26.0	16.8	0.00e+00	0	32	0	21827158016	32	16809
2026-01-04 21:50:21.39	115.43	11.77	-25.8	-26.2	16.9	0.00e+00	0	32	0	21936209920	32	17157
2026-01-04 21:50:22.40	115.67	11.71	-25.6	-26.1	17.0	0.00e+00	0	32	0	22053650432	32	16913
2026-01-04 21:50:23.41	115.92	11.66	-25.6	-26.1	17.0	0.00e+00	0	32	0	22171090944	32	16849
2026-01-04 21:50:24.42	116.16	11.60	-25.7	-26.1	17.0	0.00e+00	0	32	0	22280142848	32	16963
2026-01-04 21:50:25.43	116.40	11.54	-25.6	-26.1	17.0	0.00e+00	0	32	0	22397583360	32	16925
2026-01-04 21:50:26.45	116.64	11.48	-25.6	-26.0	17.0	0.00e+00	0	32	0	22515023872	32	16752
2026-01-04 21:50:27.46	116.87	11.42	-25.8	-26.3	17.0	0.00e+00	0	32	0	22624075776	32	17218
2026-01-04 21:50:28.47	117.11	11.36	-25.9	-26.3	17.0	0.00e+00	0	32	0	22741516288	32	17331
2026-01-04 21:50:29.48	117.34	11.30	-25.9	-26.4	17.0	0.00e+00	0	32	0	22850568192	32	17428
2026-01-04 21:50:30.49	117.58	11.24	-25.9	-26.3	17.0	0.00e+00	0	32	0	22959620096	32	17352
2026-01-04 21:50:31.50	117.81	11.19	-25.8	-26.3	17.0	0.00e+00	0	32	0	23077060608	32	17213
2026-01-04 21:50:32.51	118.04	11.13	-26.2	-26.6	16.9	0.00e+00	0	32	0	23194501120	32	17867
2026-01-04 21:50:33.53	118.27	11.07	-26.2	-26.6	16.9	0.00e+00	0	32	0	23303553024	32	17946
2026-01-04 21:50:34.54	118.50	11.01	-25.8	-26.2	17.0	0.00e+00	0	32	0	23420993536	32	17114
2026-01-04 21:50:35.55	118.73	10.95	-25.9	-26.3	16.9	0.00e+00	0	32	0	23538434048	32	17400
2026-01-04 21:50:36.56	118.96	10.88	-25.7	-26.2	16.8	0.00e+00	0	32	0	23647485952	32	17053
2026-01-04 21:50:37.57	119.18	10.82	-25.8	-26.3	16.4	5.40e-06	0	32	0	23764926464	32	17266
2026-01-04 21:50:38.58	119.41	10.76	-25.7	-26.2	16.5	5.40e-06	0	32	0	23873978368	32	17063
2026-01-04 21:50:39.59	119.63	10.70	-25.8	-26.3	16.6	5.40e-06	0	32	0	23983030272	32	17208
2026-01-04 21:50:40.60	119.86	10.64	-26.1	-26.5	16.7	1.63e-05	0	32	0	24108859392	32	17763
2026-01-04 21:50:41.61	120.08	10.58	-26.1	-26.5	16.9	1.63e-05	0	32	0	24217911296	32	17724
2026-01-04 21:50:42.63	120.30	10.52	-25.9	-26.3	16.9	1.63e-05	0	32	0	24326963200	32	17400
2026-01-04 21:50:43.64	120.52	10.46	-26.0	-26.4	16.9	1.08e-05	0	32	0	24444403712	32	17537
2026-01-04 21:50:44.65	120.74	10.40	-25.9	-26.4	16.9	0.00e+00	0	32	0	24561844224	32	17466
2026-01-04 21:50:45.66	120.96	10.34	-25.9	-26.4	16.8	0.00e+00	0	32	0	24670896128	32	17486
2026-01-04 21:50:46.67	121.17	10.27	-25.9	-26.3	16.7	0.00e+00	0	32	0	24788336640	32	17381
2026-01-04 21:50:47.68	121.39	10.21	-25.9	-26.4	16.7	0.00e+00	0	32	0	24897388544	32	17410
2026-01-04 21:50:48.69	121.60	10.15	-25.9	-26.3	16.6	0.00e+00	0	32	0	25014829056	32	17394
2026-01-04 21:50:49.70	121.81	10.09	-25.9	-26.4	16.6	0.00e+00	0	32	0	25132269568	32	17430
2026-01-04 21:50:50.71	122.03	10.03	-26.0	-26.4	16.5	0.00e+00	0	32	0	25241321472	32	17537
2026-01-04 21:50:51.73	122.24	9.96	-25.8	-26.2	16.8	0.00e+00	0	32	0	25350373376	32	17160
2026-01-04 21:50:52.74	122.45	9.90	-26.1	-26.6	16.8	5.40e-06	0	32	0	25467813888	32	17897
2026-01-04 21:50:53.75	122.66	9.84	-25.7	-26.2	16.9	5.40e-06	0	32	0	25585254400	32	17071
2026-01-04 21:50:54.76	122.86	9.78	-25.7	-26.2	16.8	5.40e-06	0	32	0	25694306304	32	17024
2026-01-04 21:50:55.77	123.07	9.72	-25.7	-26.1	16.8	0.00e+00	0	32	0	25811746816	32	16935
2026-01-04 21:50:56.78	123.28	9.65	-25.9	-26.4	16.8	0.00e+00	0	32	0	25920798720	32	17425
2026-01-04 21:50:57.79	123.48	9.59	-25.7	-26.2	16.8	0.00e+00	0	32	0	26038239232	32	17026
2026-01-04 21:50:58.80	123.68	9.53	-25.5	-26.0	16.9	0.00e+00	0	32	0	26155679744	32	16624
2026-01-04 21:50:59.81	123.89	9.47	-25.6	-26.0	16.9	0.00e+00	0	32	0	26264731648	32	16730
2026-01-04 21:51:00.82	124.09	9.40	-25.7	-26.1	16.9	0.00e+00	0	32	0	26373783552	32	16977
2026-01-04 21:51:01.84	124.29	9.34	-25.5	-25.9	16.9	0.00e+00	0	32	0	26491224064	32	16561
2026-01-04 21:51:02.85	124.49	9.28	-25.6	-26.0	16.8	0.00e+00	0	32	0	26608664576	32	16770
2026-01-04 21:51:03.86	124.69	9.21	-25.8	-26.2	16.7	0.00e+00	0	32	0	26717716480	32	17169
2026-01-04 21:51:04.87	124.88	9.15	-25.9	-26.3	16.8	0.00e+00	0	32	0	26835156992	32	17340
2026-01-04 21:51:05.88	125.08	9.09	-25.8	-26.2	16.8	0.00e+00	0	32	0	26944208896	32	17167
2026-01-04 21:51:06.89	125.28	9.02	-25.9	-26.4	16.7	0.00e+00	0	32	0	27061649408	32	17464
2026-01-04 21:51:07.90	125.47	8.96	-25.6	-26.0	16.8	5.40e-06	0	32	0	27179089920	32	16768
2026-01-04 21:51:08.91	125.66	8.90	-25.6	-26.0	16.8	5.40e-06	0	32	0	27288141824	32	16728
2026-01-04 21:51:09.92	125.86	8.84	-25.6	-26.0	16.8	0.00e+00	0	32	0	27397193728	32	16725
2026-01-04 21:51:10.93	126.05	8.77	-25.6	-26.1	16.8	0.00e+00	0	32	0	27514634240	32	16839
2026-01-04 21:51:11.95	126.24	8.71	-25.6	-26.0	16.8	0.00e+00	0	32	0	27632074752	32	16758
2026-01-04 21:51:12.96	126.43	8.65	-25.7	-26.1	16.8	5.40e-06	0	32	0	27741126656	32	16998
2026-01-04 21:51:13.97	126.62	8.58	-25.6	-26.1	16.8	5.40e-06	0	32	0	27858567168	32	16867
2026-01-04 21:51:14.98	126.80	8.52	-25.6	-26.1	16.8	0.00e+00	0	32	0	27967619072	32	16843
2026-01-04 21:51:15.99	126.99	8.46	-25.7	-26.2	16.7	0.00e+00	0	32	0	28085059584	32	17068
2026-01-04 21:51:17.00	127.18	8.39	-25.7	-26.2	16.7	0.00e+00	0	32	0	28202500096	32	17031
2026-01-04 21:51:18.01	127.36	8.33	-25.8	-26.2	16.8	0.00e+00	0	32	0	28311552000	32	17141
2026-01-04 21:51:19.02	127.54	8.27	-25.8	-26.2	16.8	0.00e+00	0	32	0	28428992512	32	17115
2026-01-04 21:51:20.03	127.73	8.20	-25.8	-26.2	16.8	0.00e+00	0	32	0	28538044416	32	17117
2026-01-04 21:51:21.04	127.91	8.14	-25.7	-26.2	16.7	0.00e+00	0	32	0	28647096320	32	17046
2026-01-04 21:51:22.06	128.09	8.08	-25.9	-26.3	16.7	0.00e+00	0	32	0	28764536832	32	17313
2026-01-04 21:51:23.07	128.27	8.01	-25.9	-26.4	16.7	0.00e+00	0	32	0	28881977344	32	17408
2026-01-04 21:51:24.08	128.45	7.95	-26.0	-26.4	16.7	0.00e+00	0	32	0	28991029248	32	17563
2026-01-04 21:51:25.09	128.63	7.89	-25.8	-26.2	16.7	0.00e+00	0	32	0	29108469760	32	17134
2026-01-04 21:51:26.10	128.80	7.82	-25.9	-26.3	16.7	0.00e+00	0	32	0	29225910272	32	17368
2026-01-04 21:51:27.11	128.98	7.76	-25.8	-26.3	16.7	0.00e+00	0	32	0	29334962176	32	17218
2026-01-04 21:51:28.12	129.15	7.70	-25.8	-26.2	16.7	0.00e+00	0	32	0	29452402688	32	17082
2026-01-04 21:51:29.13	129.33	7.63	-25.7	-26.1	16.7	0.00e+00	0	32	0	29561454592	32	16980
2026-01-04 21:51:30.14	129.50	7.57	-25.8	-26.2	16.6	0.00e+00	0	32	0	29670506496	32	17045
2026-01-04 21:51:31.15	129.67	7.51	-25.9	-26.3	16.7	0.00e+00	0	32	0	29787947008	32	17247
2026-01-04 21:51:32.16	129.84	7.44	-25.7	-26.1	16.7	0.00e+00	0	32	0	29905387520	32	16871
2026-01-04 21:51:33.17	130.02	7.38	-25.7	-26.1	16.7	0.00e+00	0	32	0	30014439424	32	16919
2026-01-04 21:51:34.18	130.18	7.32	-25.7	-26.1	16.7	0.00e+00	0	32	0	30131879936	32	16903
2026-01-04 21:51:35.19	130.35	7.25	-25.7	-26.2	16.7	0.00e+00	0	32	0	30240931840	32	17016
2026-01-04 21:51:36.20	130.52	7.19	-25.8	-26.2	16.6	5.40e-06	0	32	0	30358372352	32	17182
2026-01-04 21:51:37.21	130.69	7.13	-25.7	-26.1	16.7	5.40e-06	0	32	0	30475812864	32	16964
2026-01-04 21:51:38.22	130.85	7.06	-26.0	-26.4	16.7	1.08e-05	0	32	0	30584864768	32	17470
2026-01-04 21:51:39.24	131.02	7.00	-25.8	-26.2	16.7	1.08e-05	0	32	0	30693916672	32	17034
2026-01-04 21:51:40.25	131.19	6.94	-25.8	-26.2	16.7	0.00e+00	0	32	0	30819745792	32	17108
2026-01-04 21:51:41.26	131.35	6.87	-25.7	-26.1	16.8	0.00e+00	0	32	0	30928797696	32	16930
2026-01-04 21:51:42.27	131.51	6.81	-25.8	-26.2	16.7	0.00e+00	0	32	0	31037849600	32	17084
2026-01-04 21:51:43.28	131.67	6.75	-25.8	-26.2	16.7	0.00e+00	0	32	0	31155290112	32	17094
2026-01-04 21:51:44.29	131.83	6.69	-25.7	-26.1	16.8	0.00e+00	0	32	0	31264342016	32	16898
2026-01-04 21:51:45.30	131.99	6.62	-25.8	-26.2	16.8	5.40e-06	0	32	0	31381782528	32	17180
2026-01-04 21:51:46.31	132.15	6.56	-25.8	-26.2	16.7	5.40e-06	0	32	0	31499223040	32	17066
2026-01-04 21:51:47.32	132.31	6.50	-26.0	-26.4	16.7	5.40e-06	0	32	0	31608274944	32	17448
2026-01-04 21:51:48.33	132.47	6.44	-25.7	-26.1	16.8	0.00e+00	0	32	0	31717326848	32	16932
2026-01-04 21:51:49.34	132.63	6.37	-25.8	-26.2	16.8	0.00e+00	0	32	0	31834767360	32	17130
2026-01-04 21:51:50.36	132.78	6.31	-25.8	-26.2	16.7	0.00e+00	0	32	0	31952207872	32	17169
2026-01-04 21:51:51.37	132.94	6.25	-25.8	-26.2	16.9	0.00e+00	0	32	0	32061259776	32	17138
2026-01-04 21:51:52.38	133.09	6.19	-25.8	-26.2	16.9	0.00e+00	0	32	0	32178700288	32	17148
2026-01-04 21:51:53.39	133.25	6.12	-26.0	-26.5	16.8	0.00e+00	0	32	0	32287752192	32	17631
2026-01-04 21:51:54.40	133.40	6.06	-25.9	-26.3	16.9	0.00e+00	0	32	0	32405192704	32	17338
2026-01-04 21:51:55.41	133.55	6.00	-25.8	-26.2	16.9	0.00e+00	0	32	0	32522633216	32	17035
2026-01-04 21:51:56.42	133.70	5.94	-25.9	-26.3	16.8	0.00e+00	0	32	0	32631685120	32	17253
2026-01-04 21:51:57.43	133.85	5.87	-25.9	-26.3	16.8	5.40e-06	0	32	0	32749125632	32	17262
2026-01-04 21:51:58.45	134.01	5.81	-25.9	-26.3	16.9	5.40e-06	0	32	0	32866566144	32	17320
2026-01-04 21:51:59.46	134.15	5.75	-26.0	-26.4	16.8	5.40e-06	0	32	0	32975618048	32	17481
2026-01-04 21:52:00.47	134.30	5.69	-26.2	-26.5	16.8	5.40e-06	0	32	0	33084669952	32	17793
2026-01-04 21:52:01.48	134.45	5.62	-25.9	-26.3	16.9	0.00e+00	0	32	0	33202110464	32	17237
2026-01-04 21:52:02.49	134.60	5.56	-25.9	-26.3	16.9	0.00e+00	0	32	0	33311162368	32	17318
2026-01-04 21:52:03.50	134.74	5.50	-26.0	-26.4	16.9	0.00e+00	0	32	0	33428602880	32	17518
2026-01-04 21:52:04.51	134.89	5.44	-26.0	-26.4	16.9	0.00e+00	0	32	0	33546043392	32	17573
2026-01-04 21:52:05.53	135.03	5.38	-26.1	-26.5	16.9	0.00e+00	0	32	0	33655095296	32	17675
2026-01-04 21:52:06.54	135.18	5.32	-26.7	-27.1	16.9	0.00e+00	0	32	0	33772535808	32	19006
2026-01-04 21:52:07.55	135.32	5.25	-26.2	-26.6	16.9	0.00e+00	0	32	0	33889976320	32	17929
2026-01-04 21:52:08.56	135.46	5.19	-27.2	-27.6	16.9	0.00e+00	0	32	0	33999028224	32	20029
2026-01-04 21:52:09.57	135.60	5.13	-26.2	-26.6	17.0	0.00e+00	0	32	0	34108080128	34	16003
2026-01-04 21:52:10.58	135.74	5.07	-26.3	-26.7	17.0	0.00e+00	0	32	0	34225520640	34	16133
2026-01-04 21:52:11.59	135.88	5.01	-26.5	-26.9	16.9	0.00e+00	0	32	0	34334572544	34	16523
2026-01-04 21:52:12.60	136.02	4.95	-26.5	-26.9	17.0	0.00e+00	0	32	0	34452013056	34	16544
2026-01-04 21:52:13.61	136.16	4.89	-26.7	-27.1	17.0	0.00e+00	0	32	0	34569453568	34	16915
2026-01-04 21:52:14.63	136.30	4.82	-26.4	-26.8	17.0	0.00e+00	0	32	0	34678505472	34	16326
2026-01-04 21:52:15.64	136.44	4.76	-26.4	-26.8	17.0	0.00e+00	0	32	0	34795945984	34	16332
2026-01-04 21:52:16.65	136.57	4.70	-26.9	-27.3	17.0	0.00e+00	0	32	0	34913386496	34	17382
2026-01-04 21:52:17.66	136.71	4.64	-26.6	-27.0	16.7	0.00e+00	0	32	0	35022438400	34	16808
2026-01-04 21:52:18.67	136.85	4.58	-27.1	-27.4	16.8	0.00e+00	0	32	0	35131490304	34	17597
2026-01-04 21:52:19.68	136.98	4.52	-26.3	-26.7	16.9	0.00e+00	0	32	0	35248930816	34	16225
2026-01-04 21:52:20.69	137.11	4.46	-26.5	-26.9	16.8	0.00e+00	0	32	0	35357982720	34	16559
2026-01-04 21:52:21.70	137.25	4.40	-26.6	-27.0	16.9	0.00e+00	0	32	0	35475423232	34	16696
2026-01-04 21:52:22.71	137.38	4.34	-26.5	-26.9	16.9	0.00e+00	0	32	0	35592863744	34	16497
2026-01-04 21:52:23.72	137.51	4.28	-26.2	-26.6	16.9	0.00e+00	0	32	0	35701915648	34	15953
2026-01-04 21:52:24.74	137.64	4.22	-26.5	-26.9	16.9	0.00e+00	0	32	0	35819356160	34	16460
2026-01-04 21:52:25.75	137.77	4.16	-26.1	-26.5	17.0	0.00e+00	0	32	0	35936796672	34	15814
2026-01-04 21:52:26.76	137.90	4.10	-50.7	-53.2	6.1	0.00e+00	0	32	104	35978739712	60	76645
2026-01-04 21:52:27.77	138.03	4.04	-50.7	-53.2	6.1	0.00e+00	0	32	104	35978739712	60	76527
2026-01-04 21:52:28.78	138.16	3.98	-50.8	-53.2	6.1	5.40e-06	0	32	104	35978739712	60	76659
2026-01-04 21:52:29.79	138.29	3.92	-50.8	-53.2	6.1	5.40e-06	0	32	104	35978739712	60	76412
2026-01-04 21:52:30.80	138.42	3.86	-50.7	-53.2	6.1	5.40e-06	0	32	104	35978739712	60	76827
2026-01-04 21:52:31.81	138.54	3.80	-50.8	-53.2	6.1	5.40e-06	0	32	104	35978739712	60	76705
2026-01-04 21:52:32.82	138.67	3.74	-50.7	-53.2	6.1	5.40e-06	0	32	104	35978739712	60	76597
2026-01-04 21:52:33.83	138.79	3.68	-50.8	-53.3	6.1	5.40e-06	0	32	104	35978739712	60	77163
2026-01-04 21:52:34.84	138.92	3.62	-50.8	-53.3	6.1	5.40e-06	0	32	104	35978739712	60	77232
2026-01-04 21:52:35.85	139.04	3.56	-50.8	-53.3	6.1	5.40e-06	0	32	104	35978739712	60	77232
2026-01-04 21:52:36.87	139.17	3.50	-50.7	-53.2	6.1	5.40e-06	0	32	104	35978739712	60	76471
2026-01-04 21:52:37.88	139.29	3.44	-50.8	-53.3	6.1	5.40e-06	0	32	104	35978739712	60	77603
2026-01-04 21:52:38.89	139.41	3.38	-50.8	-53.2	6.1	5.40e-06	0	32	104	35978739712	60	76834
2026-01-04 21:52:39.90	139.53	3.32	-50.8	-53.3	6.1	5.40e-06	0	32	104	35978739712	60	77524
2026-01-04 21:52:40.91	139.65	3.26	-50.8	-53.2	6.1	0.00e+00	0	32	104	35978739712	60	76833
2026-01-04 21:52:41.92	139.77	3.20	-50.9	-53.3	6.1	0.00e+00	0	32	104	35978739712	60	77495
2026-01-04 21:52:42.93	139.89	3.14	-50.8	-53.3	6.1	0.00e+00	0	32	104	35978739712	60	76849
2026-01-04 21:52:43.94	140.01	3.08	-50.7	-53.2	6.1	0.00e+00	0	32	104	35978739712	60	76527
2026-01-04 21:52:44.95	140.13	3.03	-50.8	-53.3	6.1	0.00e+00	0	32	104	35978739712	60	76869
2026-01-04 21:52:45.96	140.25	2.97	-50.8	-53.3	6.1	0.00e+00	0	32	104	35978739712	60	77299
2026-01-04 21:52:46.97	140.37	2.91	-50.8	-53.3	6.1	0.00e+00	0	32	104	35978739712	60	77240
2026-01-04 21:52:47.98	140.48	2.85	-50.6	-53.1	6.1	0.00e+00	0	32	104	35978739712	60	75503
2026-01-04 21:52:49.00	140.60	2.79	-50.7	-53.2	6.1	0.00e+00	0	32	104	35978739712	60	75979
2026-01-04 21:52:50.01	140.72	2.73	-50.8	-53.3	6.1	0.00e+00	0	32	104	35978739712	60	77235
2026-01-04 21:52:51.02	140.83	2.67	-50.8	-53.2	6.1	0.00e+00	0	32	104	35978739712	60	76782
2026-01-04 21:52:52.03	140.95	2.62	-50.8	-53.3	6.1	0.00e+00	0	32	104	35978739712	60	77167
2026-01-04 21:52:53.04	141.06	2.56	-50.7	-53.2	6.1	0.00e+00	0	32	104	35978739712	60	76383
2026-01-04 21:52:54.05	141.18	2.50	-50.8	-53.3	6.1	0.00e+00	0	32	104	35978739712	60	76852
2026-01-04 21:52:55.06	141.29	2.44	-50.8	-53.2	6.1	0.00e+00	0	32	104	35978739712	60	76829
2026-01-04 21:52:56.07	141.40	2.38	-50.8	-53.3	6.1	0.00e+00	0	32	104	35978739712	60	76897
2026-01-04 21:52:57.08	141.51	2.33	-50.7	-53.2	6.1	0.00e+00	0	32	104	35978739712	60	76607
2026-01-04 21:52:58.09	141.62	2.27	-50.8	-53.3	6.1	0.00e+00	0	32	104	35978739712	60	77441
2026-01-04 21:52:59.10	141.74	2.21	-50.7	-53.2	6.1	0.00e+00	0	32	104	35978739712	60	76487
2026-01-04 21:53:00.12	141.85	2.15	-50.7	-53.2	6.1	0.00e+00	0	32	104	35978739712	60	76479
2026-01-04 21:53:01.13	141.96	2.09	-50.7	-53.2	6.1	0.00e+00	0	32	104	35978739712	60	76826
2026-01-04 21:53:02.14	142.07	2.04	-50.7	-53.2	6.0	0.00e+00	0	32	104	35978739712	60	76632
2026-01-04 21:53:03.15	142.17	1.98	-50.8	-53.3	6.1	0.00e+00	0	32	104	35978739712	60	77054
2026-01-04 21:53:04.16	142.28	1.92	-50.8	-53.3	6.1	0.00e+00	0	32	104	35978739712	60	76915
2026-01-04 21:53:05.17	142.39	1.86	-50.8	-53.2	6.1	0.00e+00	0	32	104	35978739712	60	76749
2026-01-04 21:53:06.18	142.50	1.81	-50.7	-53.3	6.1	0.00e+00	0	32	104	35978739712	60	77000
2026-01-04 21:53:07.19	142.60	1.75	-50.7	-53.2	6.1	0.00e+00	0	32	104	35978739712	60	76637
2026-01-04 21:53:08.21	142.71	1.69	-50.8	-53.2	6.1	0.00e+00	0	32	104	35978739712	60	76611
2026-01-04 21:53:09.21	142.82	1.64	-50.7	-53.3	6.1	0.00e+00	0	32	104	35978739712	60	76845
2026-01-04 21:53:10.23	142.92	1.58	-50.8	-53.2	6.1	0.00e+00	0	32	104	35978739712	60	76543
2026-01-04 21:53:11.24	143.03	1.52	-50.8	-53.2	6.1	0.00e+00	0	32	104	35978739712	60	76507
2026-01-04 21:53:12.25	143.13	1.47	-50.8	-53.2	6.1	0.00e+00	0	32	104	35978739712	60	76524
2026-01-04 21:53:13.26	143.24	1.41	-50.8	-53.2	6.1	0.00e+00	0	32	104	35978739712	60	76722
2026-01-04 21:53:14.27	143.34	1.35	-50.8	-53.2	6.1	0.00e+00	0	32	104	35978739712	60	76819
2026-01-04 21:53:15.28	143.44	1.30	-50.7	-53.2	6.1	0.00e+00	0	32	104	35978739712	60	76691
2026-01-04 21:53:16.29	143.54	1.24	-50.8	-53.2	6.1	0.00e+00	0	32	104	35978739712	60	76626
2026-01-04 21:53:17.30	143.65	1.18	-50.8	-53.2	6.1	0.00e+00	0	32	104	35978739712	60	76757
2026-01-04 21:53:18.31	143.75	1.13	-50.7	-53.2	6.1	0.00e+00	0	32	104	35978739712	60	76680
2026-01-04 21:53:19.32	143.85	1.07	-50.7	-53.2	6.1	0.00e+00	0	32	104	35978739712	60	76156
2026-01-04 21:53:20.34	143.95	1.02	-50.7	-53.2	6.1	0.00e+00	0	32	104	35978739712	60	76227
2026-01-04 21:53:21.35	144.05	0.96	-50.6	-53.1	6.1	0.00e+00	0	32	104	35978739712	60	75671
2026-01-04 21:53:22.36	144.15	0.90	-50.8	-53.3	6.1	0.00e+00	0	32	104	35978739712	60	76856
2026-01-04 21:53:23.37	144.25	0.85	-50.6	-53.1	6.1	0.00e+00	0	32	104	35978739712	60	75686
2026-01-04 21:53:24.38	144.35	0.79	-50.6	-53.1	6.1	0.00e+00	0	32	104	35978739712	60	75587
2026-01-04 21:53:25.39	144.44	0.74	-50.7	-53.1	6.1	0.00e+00	0	32	104	35978739712	60	75952
2026-01-04 21:53:26.40	144.54	0.68	-50.7	-53.2	6.1	0.00e+00	0	32	104	35978739712	60	76553
2026-01-04 21:53:27.41	144.64	0.63	-50.7	-53.2	6.0	0.00e+00	0	32	104	35978739712	60	76109
2026-01-04 21:53:28.42	144.74	0.57	-50.4	-52.9	6.1	0.00e+00	0	32	104	35978739712	60	73990
2026-01-04 21:53:29.44	144.83	0.52	-50.6	-53.0	6.1	0.00e+00	0	32	104	35978739712	60	74877
2026-01-04 21:53:30.45	144.93	0.46	-50.5	-53.0	6.1	0.00e+00	0	32	104	35978739712	60	74881
2026-01-04 21:53:31.46	145.02	0.40	-50.7	-53.1	6.0	0.00e+00	0	32	104	35978739712	60	75689
2026-01-04 21:53:32.47	145.12	0.35	-50.6	-53.1	6.1	0.00e+00	0	32	104	35978739712	60	75589
2026-01-04 21:53:33.48	145.21	0.29	-50.6	-53.1	6.1	0.00e+00	0	32	104	35978739712	60	75664
2026-01-04 21:53:34.49	145.31	0.24	-50.5	-53.0	6.1	0.00e+00	0	32	104	35978739712	60	74941
2026-01-04 21:53:35.50	145.40	0.19	-50.6	-53.1	6.1	0.00e+00	0	32	104	35978739712	60	75412
2026-01-04 21:53:36.51	145.50	0.13	-50.5	-53.0	6.1	0.00e+00	0	32	104	35978739712	60	74578
2026-01-04 21:53:37.52	145.59	0.08	-50.6	-53.1	6.1	0.00e+00	0	32	104	35978739712	60	75309
2026-01-04 21:53:38.53	145.68	0.02	-50.0	-52.6	6.1	0.00e+00	0	32	104	35978739712	60	71651
2026-01-04 21:53:39.55	145.77	-0.03	-50.6	-53.0	6.1	0.00e+00	0	32	104	35978739712	60	75022

#Closed at: 2026-01-04 21:53:40
#Recorded file [35978 MB]: D:/lorett/data/35034_260105_004357.dat