passes_logs/2026/01/04/R4.6S_Anadyr_2ch/R4.6S_Anadyr_2ch__20260104_124032_NOAA_21_JPSS-2_rec.log

#Pass ID: 20260104_124032_NOAA 21 (JPSS-2)
#Satellite: NOAA 21 (JPSS-2)
#Configuration: NOAA-21
#almurnet v.1.7.20251203
#Start time: 2026-01-04 12:40:34

#Version: 2.2.20231116
#Station: R4.6S_Anadyr_2ch
#Location: 177.4865 lon 64.73178 lat
#TLE: 1 54234U 22150A   25350.97269056  .00000057  00000+0  47676-4 0  9992
#TLE: 2 54234  98.7466 287.2282 0002043  29.8355 330.2937 14.19525482160692

#Time	Az	El	Level	Level2	SNR	BER	BlckErr	Temp	State	Recorded	gain1	gain2
2026-01-04 12:40:34.45	18.85	0.11	-53.8	-69.1	3.5	1.51e+00	0	34	0	0	60	138408
2026-01-04 12:40:35.46	18.91	0.16	-53.8	-67.0	3.6	1.52e+00	0	35	104	0	60	105587
2026-01-04 12:40:36.47	18.98	0.21	-53.0	-66.3	3.5	1.52e+00	0	35	104	0	60	97544
2026-01-04 12:40:37.48	19.05	0.27	-52.9	-66.1	3.5	1.51e+00	0	36	104	0	60	95434
2026-01-04 12:40:38.49	19.11	0.32	-52.8	-66.0	3.5	1.51e+00	0	36	104	0	60	94192
2026-01-04 12:40:39.51	19.18	0.37	-52.7	-65.8	3.5	1.52e+00	0	36	104	0	60	92547
2026-01-04 12:40:40.52	19.25	0.42	-52.6	-65.7	3.5	1.52e+00	0	36	104	0	60	91715
2026-01-04 12:40:41.53	19.31	0.48	-52.5	-65.7	3.5	1.52e+00	0	36	104	0	60	90858
2026-01-04 12:40:42.54	19.38	0.53	-52.4	-65.6	3.5	1.52e+00	0	36	104	0	60	90321
2026-01-04 12:40:43.55	19.45	0.58	-52.3	-65.5	3.5	1.52e+00	0	36	104	0	60	89057
2026-01-04 12:40:44.56	19.52	0.63	-52.2	-65.4	3.5	1.52e+00	0	36	104	0	60	88111
2026-01-04 12:40:45.57	19.58	0.69	-52.1	-65.2	3.5	1.52e+00	0	36	104	0	60	86518
2026-01-04 12:40:46.58	19.65	0.74	-51.9	-65.1	3.5	1.52e+00	0	36	104	0	60	85622
2026-01-04 12:40:47.59	19.72	0.79	-51.7	-64.8	3.5	1.52e+00	0	36	104	0	60	82607
2026-01-04 12:40:48.60	19.79	0.84	-51.3	-64.3	3.5	1.52e+00	0	36	104	0	60	78066
2026-01-04 12:40:49.61	19.86	0.90	-50.8	-63.9	3.5	1.52e+00	0	36	104	0	60	74052
2026-01-04 12:40:50.62	19.93	0.95	-50.7	-63.8	3.5	1.52e+00	0	36	104	0	60	73349
2026-01-04 12:40:51.64	20.00	1.00	-50.9	-63.9	3.5	1.52e+00	0	36	104	0	60	74439
2026-01-04 12:40:52.65	20.06	1.06	-50.8	-63.9	3.5	1.52e+00	0	36	104	0	60	74419
2026-01-04 12:40:53.66	20.13	1.11	-50.8	-63.9	3.5	1.52e+00	0	36	104	0	60	73831
2026-01-04 12:40:54.67	20.20	1.16	-50.8	-63.9	3.5	1.51e+00	0	36	104	0	60	74274
2026-01-04 12:40:55.68	20.27	1.22	-50.8	-63.9	3.5	1.52e+00	0	36	104	0	60	73825
2026-01-04 12:40:56.69	20.34	1.27	-50.7	-63.9	3.5	1.52e+00	0	36	104	0	60	74172
2026-01-04 12:40:57.70	20.42	1.32	-50.7	-63.9	3.5	1.52e+00	0	36	104	0	60	73787
2026-01-04 12:40:58.71	20.49	1.38	-50.8	-63.9	3.5	1.52e+00	0	36	104	0	60	74096
2026-01-04 12:40:59.72	20.56	1.43	-50.8	-63.9	3.5	1.52e+00	0	36	104	0	60	74565
2026-01-04 12:41:00.73	20.63	1.48	-50.8	-64.0	3.5	1.52e+00	0	36	104	0	60	74670
2026-01-04 12:41:01.75	20.70	1.54	-50.8	-63.8	3.5	1.52e+00	0	36	104	0	60	73650
2026-01-04 12:41:02.76	20.77	1.59	-50.8	-63.9	3.5	1.52e+00	0	36	104	0	60	74267
2026-01-04 12:41:03.77	20.84	1.65	-50.8	-63.8	3.5	1.52e+00	0	36	104	0	60	73651
2026-01-04 12:41:04.78	20.92	1.70	-50.8	-63.8	3.5	1.52e+00	0	36	104	0	60	73644
2026-01-04 12:41:05.79	20.99	1.75	-50.7	-63.7	3.5	1.52e+00	0	36	104	0	60	72674
2026-01-04 12:41:06.80	21.06	1.81	-50.7	-63.8	3.5	1.52e+00	0	36	104	0	60	73246
2026-01-04 12:41:07.81	21.13	1.86	-50.7	-63.8	3.5	1.52e+00	0	36	104	0	60	73565
2026-01-04 12:41:08.82	21.21	1.92	-50.7	-63.8	3.5	1.52e+00	0	36	104	0	60	73399
2026-01-04 12:41:09.83	21.28	1.97	-50.7	-63.8	3.5	1.52e+00	0	36	104	0	60	73391
2026-01-04 12:41:10.84	21.36	2.03	-50.7	-63.8	3.5	1.52e+00	0	36	104	0	60	72978
2026-01-04 12:41:11.85	21.43	2.08	-50.8	-63.8	3.5	1.52e+00	0	36	104	0	60	73179
2026-01-04 12:41:12.87	21.50	2.13	-50.8	-63.7	3.5	1.52e+00	0	37	104	0	60	72896
2026-01-04 12:41:13.88	21.58	2.19	-50.8	-63.6	3.5	1.52e+00	0	36	104	0	60	71415
2026-01-04 12:41:14.89	21.65	2.24	-50.8	-63.3	3.5	1.51e+00	0	37	104	0	60	69560
2026-01-04 12:41:15.90	21.73	2.30	-50.7	-63.2	3.5	1.51e+00	0	37	104	0	60	68359
2026-01-04 12:41:16.91	21.80	2.35	-50.7	-63.1	3.5	1.51e+00	0	36	104	0	60	67486
2026-01-04 12:41:17.92	21.88	2.41	-50.6	-62.6	3.5	1.52e+00	0	37	104	0	60	63966
2026-01-04 12:41:18.93	21.95	2.46	-50.3	-59.5	3.8	1.51e+00	0	37	104	0	60	44694
2026-01-04 12:41:19.94	22.03	2.52	-49.3	-55.0	7.7	1.37e-01	122	37	0	0	60	26473
2026-01-04 12:41:20.95	22.11	2.57	-48.1	-51.7	11.6	1.86e-03	123	37	0	3145728	60	18246
2026-01-04 12:41:21.97	22.18	2.63	-45.9	-48.2	15.3	0.00e+00	123	37	0	6291456	60	12177
2026-01-04 12:41:22.98	22.26	2.68	-44.7	-46.5	16.5	0.00e+00	122	37	0	9437184	60	10028
2026-01-04 12:41:23.99	22.34	2.74	-42.8	-44.3	18.7	0.00e+00	123	37	0	12582912	60	7737
2026-01-04 12:41:25.00	22.42	2.79	-42.8	-44.2	18.7	0.00e+00	122	37	0	15728640	60	7688
2026-01-04 12:41:26.01	22.49	2.85	-42.8	-44.3	18.7	0.00e+00	123	37	0	18874368	60	7744
2026-01-04 12:41:27.02	22.57	2.90	-43.0	-44.5	18.5	0.00e+00	120	37	0	22020096	60	7956
2026-01-04 12:41:28.03	22.65	2.96	-43.9	-45.5	17.7	0.00e+00	123	37	0	25165824	60	8947
2026-01-04 12:41:29.04	22.73	3.02	-44.9	-46.8	16.1	0.00e+00	123	37	0	28311552	60	10366
2026-01-04 12:41:30.05	22.81	3.07	-46.6	-49.2	14.0	2.28e-05	122	37	0	31457280	60	13665
2026-01-04 12:41:31.06	22.89	3.13	-43.9	-45.5	17.6	0.00e+00	120	37	0	34603008	60	8951
2026-01-04 12:41:32.08	22.97	3.18	-42.2	-43.5	19.5	0.00e+00	122	37	0	37748736	60	7115
2026-01-04 12:41:33.09	23.05	3.24	-50.6	-63.2	3.5	1.52e+00	0	37	104	39845888	60	68676
2026-01-04 12:41:34.10	23.13	3.29	-50.0	-58.1	6.7	7.65e-01	123	37	104	39845888	60	37918
2026-01-04 12:41:35.11	23.21	3.35	-49.1	-53.2	11.5	1.52e-05	123	37	0	40894464	60	21746
2026-01-04 12:41:36.12	23.29	3.41	-44.1	-45.6	18.1	0.00e+00	123	37	0	44040192	60	9043
2026-01-04 12:41:37.13	23.37	3.46	-43.6	-45.1	18.6	0.00e+00	122	37	0	47185920	60	8523
2026-01-04 12:41:38.14	23.45	3.52	-43.7	-45.2	18.3	0.00e+00	122	37	0	50331648	60	8628
2026-01-04 12:41:39.15	23.53	3.58	-43.7	-45.2	18.5	0.00e+00	122	37	0	53477376	60	8578
2026-01-04 12:41:40.16	23.61	3.63	-43.7	-45.2	18.0	0.00e+00	122	37	0	56623104	60	8623
2026-01-04 12:41:41.17	23.69	3.69	-43.9	-45.4	18.4	0.00e+00	122	37	0	59768832	60	8844
2026-01-04 12:41:42.18	23.77	3.74	-43.5	-45.0	18.4	0.00e+00	122	37	0	62914560	60	8427
2026-01-04 12:41:43.20	23.86	3.80	-43.6	-45.1	18.7	0.00e+00	121	37	0	66060288	60	8474
2026-01-04 12:41:44.21	23.94	3.86	-42.5	-43.8	19.6	0.00e+00	123	37	0	69206016	60	7363
2026-01-04 12:41:45.22	24.02	3.91	-42.9	-44.2	19.3	0.00e+00	123	37	0	72351744	60	7716
2026-01-04 12:41:46.23	24.11	3.97	-43.0	-44.4	19.2	0.00e+00	122	37	0	75497472	60	7848
2026-01-04 12:41:47.24	24.19	4.03	-43.7	-45.2	18.5	0.00e+00	123	37	0	78643200	60	8617
2026-01-04 12:41:48.25	24.27	4.09	-43.6	-45.1	18.4	0.00e+00	123	37	0	81788928	60	8496
2026-01-04 12:41:49.26	24.36	4.14	-43.6	-45.1	18.6	0.00e+00	123	37	0	84934656	60	8533
2026-01-04 12:41:50.27	24.44	4.20	-43.8	-45.4	18.3	0.00e+00	122	37	0	88080384	60	8768
2026-01-04 12:41:51.28	24.53	4.26	-44.5	-46.2	17.6	0.00e+00	123	37	0	91226112	60	9645
2026-01-04 12:41:52.30	24.61	4.31	-43.3	-44.7	19.1	0.00e+00	122	37	0	94371840	60	8103
2026-01-04 12:41:53.31	24.70	4.37	-42.5	-43.8	19.7	0.00e+00	122	37	0	97517568	60	7305
2026-01-04 12:41:54.32	24.79	4.43	-42.5	-43.8	19.8	0.00e+00	123	37	0	100663296	60	7321
2026-01-04 12:41:55.33	24.87	4.49	-42.9	-44.3	19.5	0.00e+00	123	37	0	103809024	60	7769
2026-01-04 12:41:56.34	24.96	4.54	-43.2	-44.6	19.0	0.00e+00	120	37	0	106954752	60	8048
2026-01-04 12:41:57.35	25.05	4.60	-42.3	-43.5	20.1	0.00e+00	122	37	0	110100480	60	7095
2026-01-04 12:41:58.36	25.13	4.66	-42.6	-43.9	19.6	0.00e+00	120	37	0	113246208	60	7443
2026-01-04 12:41:59.37	25.22	4.72	-42.3	-43.5	20.0	0.00e+00	123	37	0	116391936	60	7123
2026-01-04 12:42:00.38	25.31	4.77	-42.3	-43.6	20.0	0.00e+00	123	37	0	119537664	60	7168
2026-01-04 12:42:01.39	25.40	4.83	-42.3	-43.6	20.0	0.00e+00	122	37	0	122683392	60	7167
2026-01-04 12:42:02.41	25.49	4.89	-42.3	-43.6	20.0	0.00e+00	123	37	0	125829120	60	7180
2026-01-04 12:42:03.42	25.57	4.95	-42.2	-43.4	20.3	0.00e+00	122	37	0	130023424	60	6997
2026-01-04 12:42:04.43	25.66	5.01	-42.2	-43.5	20.1	0.00e+00	122	37	0	133169152	60	7061
2026-01-04 12:42:05.44	25.75	5.06	-42.2	-43.5	20.1	0.00e+00	122	37	0	136314880	60	7075
2026-01-04 12:42:06.45	25.84	5.12	-42.1	-43.3	20.4	0.00e+00	123	37	0	139460608	60	6948
2026-01-04 12:42:07.46	25.93	5.18	-42.0	-43.3	20.4	0.00e+00	123	37	0	141557760	60	6889
2026-01-04 12:42:08.47	26.02	5.24	-42.2	-43.4	20.3	0.00e+00	122	37	0	145752064	60	7026
2026-01-04 12:42:09.49	26.12	5.30	-42.4	-43.7	20.2	0.00e+00	123	37	0	148897792	60	7233
2026-01-04 12:42:10.50	26.21	5.36	-42.3	-43.6	20.1	0.00e+00	123	37	0	152043520	60	7155
2026-01-04 12:42:11.51	26.30	5.42	-42.3	-43.6	20.2	0.00e+00	122	37	0	155189248	60	7142
2026-01-04 12:42:12.52	26.39	5.47	-42.5	-43.8	19.9	0.00e+00	122	37	0	158334976	60	7354
2026-01-04 12:42:13.53	26.48	5.53	-42.1	-43.4	20.4	0.00e+00	123	37	0	161480704	60	6975
2026-01-04 12:42:14.54	26.57	5.59	-42.2	-43.4	20.3	0.00e+00	123	37	0	164626432	60	7003
2026-01-04 12:42:15.55	26.67	5.65	-42.2	-43.4	20.4	0.00e+00	123	37	0	167772160	60	7031
2026-01-04 12:42:16.56	26.76	5.71	-42.2	-43.4	20.2	0.00e+00	123	37	0	170917888	60	7043
2026-01-04 12:42:17.57	26.85	5.77	-42.0	-43.2	20.6	0.00e+00	122	37	0	174063616	60	6879
2026-01-04 12:42:18.58	26.95	5.83	-42.2	-43.4	20.5	0.00e+00	123	37	0	177209344	60	6990
2026-01-04 12:42:19.60	27.04	5.89	-42.1	-43.4	20.3	0.00e+00	123	37	0	180355072	60	6980
2026-01-04 12:42:20.61	27.14	5.95	-42.3	-43.5	20.2	0.00e+00	122	37	0	183500800	60	7092
2026-01-04 12:42:21.62	27.23	6.01	-42.1	-43.3	20.6	0.00e+00	122	37	0	186646528	60	6892
2026-01-04 12:42:22.63	27.33	6.07	-41.9	-43.1	20.7	0.00e+00	122	37	0	189792256	60	6732
2026-01-04 12:42:23.64	27.42	6.12	-41.7	-42.9	20.8	0.00e+00	123	37	0	192937984	60	6598
2026-01-04 12:42:24.65	27.52	6.18	-41.9	-43.1	20.7	0.00e+00	123	37	0	196083712	60	6777
2026-01-04 12:42:25.66	27.62	6.24	-41.9	-43.1	20.6	0.00e+00	123	37	0	199229440	60	6764
2026-01-04 12:42:26.67	27.71	6.30	-41.9	-43.1	20.7	0.00e+00	120	37	0	202375168	60	6740
2026-01-04 12:42:27.68	27.81	6.36	-41.8	-43.0	20.7	0.00e+00	122	37	0	205520896	60	6684
2026-01-04 12:42:28.70	27.91	6.42	-42.0	-43.2	20.6	0.00e+00	120	37	0	208666624	60	6845
2026-01-04 12:42:29.71	28.01	6.48	-41.9	-43.1	20.7	0.00e+00	122	37	0	211812352	60	6771
2026-01-04 12:42:30.72	28.11	6.54	-41.9	-43.1	20.7	0.00e+00	120	37	0	214958080	60	6778
2026-01-04 12:42:31.73	28.21	6.60	-41.8	-43.0	20.8	0.00e+00	123	37	0	218103808	60	6675
2026-01-04 12:42:32.74	28.30	6.66	-41.9	-43.1	20.7	0.00e+00	121	37	0	221249536	60	6764
2026-01-04 12:42:33.75	28.40	6.72	-41.8	-43.0	20.8	0.00e+00	123	37	0	224395264	60	6702
2026-01-04 12:42:34.76	28.50	6.78	-41.8	-42.9	20.9	0.00e+00	120	37	0	227540992	60	6637
2026-01-04 12:42:35.77	28.60	6.84	-41.6	-42.8	21.1	0.00e+00	122	37	0	230686720	60	6502
2026-01-04 12:42:36.78	28.71	6.90	-41.8	-43.0	20.8	0.00e+00	122	37	0	233832448	60	6675
2026-01-04 12:42:37.79	28.81	6.96	-41.8	-42.9	20.9	0.00e+00	123	37	0	236978176	60	6645
2026-01-04 12:42:38.81	28.91	7.03	-41.8	-43.0	20.9	0.00e+00	123	37	0	240123904	60	6655
2026-01-04 12:42:39.82	29.01	7.09	-41.8	-42.9	20.9	0.00e+00	123	37	0	243269632	60	6631
2026-01-04 12:42:40.83	29.11	7.15	-41.9	-43.1	20.8	0.00e+00	122	37	0	246415360	60	6767
2026-01-04 12:42:41.84	29.22	7.21	-42.0	-43.2	20.7	0.00e+00	123	37	0	249561088	60	6866
2026-01-04 12:42:42.85	29.32	7.27	-41.9	-43.1	20.8	0.00e+00	120	37	0	252706816	60	6786
2026-01-04 12:42:43.86	29.42	7.33	-41.7	-42.9	21.0	0.00e+00	122	37	0	255852544	60	6616
2026-01-04 12:42:44.87	29.53	7.39	-41.7	-42.9	20.9	0.00e+00	123	37	0	258998272	60	6619
2026-01-04 12:42:45.88	29.63	7.45	-42.1	-43.2	20.8	0.00e+00	122	37	0	262144000	60	6875
2026-01-04 12:42:46.89	29.74	7.51	-41.5	-42.6	21.3	0.00e+00	123	37	0	265289728	60	6391
2026-01-04 12:42:47.91	29.84	7.57	-41.4	-42.5	21.3	0.00e+00	122	37	0	268435456	60	6301
2026-01-04 12:42:48.92	29.95	7.64	-41.4	-42.5	21.3	0.00e+00	122	37	0	271581184	60	6326
2026-01-04 12:42:49.93	30.05	7.70	-41.2	-42.3	21.5	0.00e+00	122	37	0	274726912	60	6179
2026-01-04 12:42:50.94	30.16	7.76	-41.4	-42.5	21.4	0.00e+00	123	37	0	277872640	60	6309
2026-01-04 12:42:51.95	30.27	7.82	-41.3	-42.4	21.5	0.00e+00	122	37	0	281018368	60	6226
2026-01-04 12:42:52.96	30.38	7.88	-41.1	-42.2	21.6	0.00e+00	123	37	0	284164096	60	6078
2026-01-04 12:42:53.97	30.48	7.94	-41.1	-42.2	21.6	0.00e+00	120	37	0	287309824	60	6073
2026-01-04 12:42:54.98	30.59	8.00	-41.2	-42.4	21.5	0.00e+00	123	37	0	290455552	60	6210
2026-01-04 12:42:56.00	30.70	8.07	-41.1	-42.3	21.6	0.00e+00	121	37	0	293601280	60	6144
2026-01-04 12:42:57.01	30.81	8.13	-41.2	-42.3	21.5	0.00e+00	122	37	0	296747008	60	6182
2026-01-04 12:42:58.02	30.92	8.19	-41.0	-42.0	21.6	0.00e+00	122	37	0	299892736	60	5993
2026-01-04 12:42:59.03	31.03	8.25	-41.1	-42.2	21.7	0.00e+00	123	37	0	303038464	60	6120
2026-01-04 12:43:00.04	31.14	8.31	-40.8	-41.9	21.8	0.00e+00	120	37	0	306184192	60	5884
2026-01-04 12:43:01.05	31.25	8.38	-41.0	-42.1	21.7	0.00e+00	123	37	0	309329920	60	6044
2026-01-04 12:43:02.06	31.36	8.44	-40.8	-41.8	21.9	0.00e+00	123	37	0	312475648	60	5847
2026-01-04 12:43:03.07	31.47	8.50	-41.0	-42.1	21.8	0.00e+00	123	37	0	315621376	60	6004
2026-01-04 12:43:04.09	31.59	8.56	-40.8	-41.9	22.0	0.00e+00	120	37	0	318767104	60	5879
2026-01-04 12:43:05.09	31.70	8.62	-40.7	-41.8	21.9	0.00e+00	123	37	0	321912832	60	5839
2026-01-04 12:43:06.11	31.81	8.69	-40.6	-41.7	22.1	0.00e+00	120	37	0	325058560	60	5758
2026-01-04 12:43:07.12	31.93	8.75	-40.7	-41.7	22.0	0.00e+00	122	37	0	328204288	60	5791
2026-01-04 12:43:08.13	32.04	8.81	-40.8	-41.8	22.0	0.00e+00	123	37	0	331350016	60	5848
2026-01-04 12:43:09.14	32.16	8.87	-40.8	-41.9	21.9	0.00e+00	123	37	0	334495744	60	5884
2026-01-04 12:43:10.15	32.27	8.94	-40.8	-41.9	21.9	0.00e+00	122	37	0	337641472	60	5877
2026-01-04 12:43:11.16	32.39	9.00	-40.5	-41.6	22.1	0.00e+00	123	37	0	340787200	60	5704
2026-01-04 12:43:12.17	32.50	9.06	-40.5	-41.6	22.3	0.00e+00	120	37	0	343932928	60	5670
2026-01-04 12:43:13.18	32.62	9.12	-40.3	-41.3	22.4	0.00e+00	123	37	0	347078656	60	5527
2026-01-04 12:43:14.20	32.74	9.19	-40.5	-41.6	22.2	0.00e+00	120	37	0	350224384	60	5662
2026-01-04 12:43:15.21	32.86	9.25	-40.4	-41.5	22.3	0.00e+00	123	37	0	353370112	60	5607
2026-01-04 12:43:16.22	32.97	9.31	-40.6	-41.7	22.1	0.00e+00	120	37	0	357564416	60	5737
2026-01-04 12:43:17.23	33.09	9.38	-40.5	-41.6	22.2	0.00e+00	122	37	0	360710144	60	5680
2026-01-04 12:43:18.24	33.21	9.44	-40.5	-41.5	22.3	0.00e+00	121	37	0	362807296	60	5648
2026-01-04 12:43:19.25	33.33	9.50	-40.6	-41.6	22.3	0.00e+00	123	37	0	365953024	60	5705
2026-01-04 12:43:20.26	33.45	9.57	-40.6	-41.7	22.2	0.00e+00	120	37	0	369098752	60	5743
2026-01-04 12:43:21.27	33.57	9.63	-40.5	-41.6	22.3	0.00e+00	123	37	0	373293056	60	5677
2026-01-04 12:43:22.29	33.69	9.69	-40.5	-41.6	22.2	0.00e+00	122	37	0	376438784	60	5696
2026-01-04 12:43:23.30	33.81	9.76	-40.7	-41.7	22.1	0.00e+00	123	37	0	379584512	60	5781
2026-01-04 12:43:24.31	33.94	9.82	-40.4	-41.4	22.4	0.00e+00	120	37	0	382730240	60	5566
2026-01-04 12:43:25.32	34.06	9.88	-40.5	-41.5	22.3	0.00e+00	123	37	0	385875968	60	5624
2026-01-04 12:43:26.33	34.18	9.95	-40.4	-41.5	22.4	0.00e+00	123	37	0	389021696	60	5602
2026-01-04 12:43:27.34	34.30	10.01	-40.0	-41.1	22.7	0.00e+00	123	37	0	392167424	58	6000
2026-01-04 12:43:28.35	34.43	10.07	-40.1	-41.1	22.6	0.00e+00	123	37	0	395313152	58	6026
2026-01-04 12:43:29.36	34.55	10.14	-39.9	-40.9	22.9	0.00e+00	122	37	0	398458880	58	5874
2026-01-04 12:43:30.37	34.68	10.20	-40.1	-41.1	22.7	0.00e+00	122	37	0	401604608	58	6034
2026-01-04 12:43:31.38	34.80	10.26	-39.8	-40.8	23.0	0.00e+00	123	37	0	404750336	58	5799
2026-01-04 12:43:32.40	34.93	10.33	-40.0	-41.0	22.8	0.00e+00	122	37	0	407896064	58	5975
2026-01-04 12:43:33.41	35.06	10.39	-39.5	-40.4	23.2	0.00e+00	123	37	0	411041792	58	5580
2026-01-04 12:43:34.42	35.18	10.46	-39.6	-40.6	23.1	0.00e+00	123	37	0	414187520	58	5699
2026-01-04 12:43:35.43	35.31	10.52	-39.6	-40.6	23.1	0.00e+00	122	37	0	417333248	58	5697
2026-01-04 12:43:36.44	35.44	10.58	-39.9	-40.9	22.8	0.00e+00	122	37	0	420478976	58	5911
2026-01-04 12:43:37.45	35.57	10.65	-39.8	-40.8	23.0	0.00e+00	123	37	0	423624704	58	5813
2026-01-04 12:43:38.46	35.70	10.71	-39.8	-40.8	22.9	0.00e+00	122	37	0	426770432	58	5851
2026-01-04 12:43:39.47	35.83	10.77	-39.8	-40.8	22.8	0.00e+00	120	37	0	429916160	58	5795
2026-01-04 12:43:40.48	35.96	10.84	-39.8	-40.8	22.8	0.00e+00	122	37	0	433061888	58	5855
2026-01-04 12:43:41.49	36.09	10.90	-39.6	-40.6	23.0	0.00e+00	123	37	0	436207616	58	5710
2026-01-04 12:43:42.51	36.22	10.97	-39.6	-40.5	23.2	0.00e+00	123	37	0	439353344	58	5658
2026-01-04 12:43:43.52	36.35	11.03	-39.6	-40.6	23.0	0.00e+00	120	37	0	442499072	58	5710
2026-01-04 12:43:44.53	36.49	11.10	-39.5	-40.5	23.2	0.00e+00	123	37	0	445644800	58	5619
2026-01-04 12:43:45.54	36.62	11.16	-39.5	-40.5	23.1	0.00e+00	123	37	0	448790528	58	5627
2026-01-04 12:43:46.55	36.75	11.22	-39.7	-40.7	22.9	0.00e+00	123	37	0	451936256	58	5763
2026-01-04 12:43:47.56	36.89	11.29	-39.5	-40.5	23.1	0.00e+00	122	37	0	455081984	58	5639
2026-01-04 12:43:48.57	37.02	11.35	-39.6	-40.6	23.1	0.00e+00	123	37	0	458227712	58	5673
2026-01-04 12:43:49.58	37.16	11.42	-39.6	-40.6	23.1	0.00e+00	123	37	0	461373440	58	5701
2026-01-04 12:43:50.59	37.29	11.48	-39.5	-40.5	23.1	0.00e+00	123	37	0	464519168	58	5620
2026-01-04 12:43:51.61	37.43	11.55	-39.7	-40.7	22.9	0.00e+00	120	37	0	467664896	58	5769
2026-01-04 12:43:52.62	37.57	11.61	-39.6	-40.6	23.0	0.00e+00	122	37	0	470810624	58	5684
2026-01-04 12:43:53.63	37.71	11.68	-39.7	-40.7	23.0	0.00e+00	123	37	0	473956352	58	5750
2026-01-04 12:43:54.64	37.85	11.74	-39.7	-40.7	23.0	0.00e+00	123	37	0	477102080	58	5767
2026-01-04 12:43:55.65	37.98	11.80	-39.7	-40.7	22.9	0.00e+00	122	37	0	480247808	58	5787
2026-01-04 12:43:56.66	38.12	11.87	-39.7	-40.7	22.9	0.00e+00	122	37	0	483393536	58	5774
2026-01-04 12:43:57.67	38.26	11.93	-39.8	-40.9	22.9	0.00e+00	123	37	0	486539264	58	5861
2026-01-04 12:43:58.68	38.40	12.00	-39.9	-40.9	22.9	0.00e+00	122	37	0	489684992	58	5879
2026-01-04 12:43:59.69	38.55	12.06	-40.0	-41.0	23.0	0.00e+00	122	37	0	492830720	58	5937
2026-01-04 12:44:00.70	38.69	12.13	-39.9	-40.9	22.9	0.00e+00	123	37	0	495976448	58	5880
2026-01-04 12:44:01.72	38.83	12.19	-39.9	-40.9	22.9	0.00e+00	123	37	0	499122176	58	5886
2026-01-04 12:44:02.73	38.97	12.26	-39.6	-40.6	23.1	0.00e+00	122	37	0	502267904	58	5711
2026-01-04 12:44:03.74	39.12	12.32	-39.6	-40.6	23.1	0.00e+00	123	37	0	505413632	58	5666
2026-01-04 12:44:04.75	39.26	12.39	-39.5	-40.5	23.2	0.00e+00	120	37	0	508559360	58	5610
2026-01-04 12:44:05.76	39.41	12.45	-39.5	-40.5	23.3	0.00e+00	122	37	0	511705088	58	5625
2026-01-04 12:44:06.77	39.55	12.52	-39.6	-40.6	23.2	0.00e+00	120	37	0	514850816	58	5680
2026-01-04 12:44:07.78	39.70	12.58	-39.8	-40.8	23.0	0.00e+00	123	37	0	517996544	58	5796
2026-01-04 12:44:08.80	39.85	12.65	-39.4	-40.4	23.2	0.00e+00	120	37	0	521142272	58	5561
2026-01-04 12:44:09.81	39.99	12.71	-39.5	-40.5	23.2	0.00e+00	122	37	0	524288000	58	5615
2026-01-04 12:44:10.82	40.14	12.78	-39.4	-40.4	23.3	0.00e+00	120	37	0	527433728	58	5563
2026-01-04 12:44:11.83	40.29	12.84	-39.4	-40.4	23.2	0.00e+00	123	37	0	530579456	58	5549
2026-01-04 12:44:12.84	40.44	12.90	-39.3	-40.2	23.4	0.00e+00	123	37	0	533725184	58	5455
2026-01-04 12:44:13.85	40.59	12.97	-39.3	-40.3	23.3	0.00e+00	122	37	0	536870912	58	5515
2026-01-04 12:44:14.86	40.74	13.03	-39.3	-40.3	23.4	0.00e+00	120	37	0	540016640	58	5468
2026-01-04 12:44:15.87	40.89	13.10	-39.4	-40.4	23.3	0.00e+00	122	37	0	543162368	56	6229
2026-01-04 12:44:16.88	41.04	13.16	-39.3	-40.2	23.4	0.00e+00	120	37	0	546308096	56	6128
2026-01-04 12:44:17.89	41.20	13.23	-39.3	-40.3	23.4	0.00e+00	122	37	0	549453824	56	6147
2026-01-04 12:44:18.91	41.35	13.29	-39.3	-40.2	23.4	0.00e+00	121	37	0	552599552	56	6134
2026-01-04 12:44:19.92	41.50	13.36	-39.2	-40.1	23.5	0.00e+00	123	37	0	555745280	56	6060
2026-01-04 12:44:20.93	41.66	13.42	-39.1	-40.1	23.5	0.00e+00	127	37	0	558891008	56	6019
2026-01-04 12:44:21.94	41.81	13.49	-39.2	-40.2	23.4	0.00e+00	122	37	0	562036736	56	6075
2026-01-04 12:44:22.95	41.97	13.55	-39.1	-40.0	23.6	0.00e+00	123	37	0	565182464	56	5983
2026-01-04 12:44:23.96	42.13	13.62	-39.2	-40.2	23.5	0.00e+00	123	37	0	568328192	56	6079
2026-01-04 12:44:24.97	42.28	13.68	-39.4	-40.3	23.3	0.00e+00	122	37	0	571473920	56	6195
2026-01-04 12:44:25.98	42.44	13.75	-39.2	-40.2	23.5	0.00e+00	123	37	0	574619648	56	6103
2026-01-04 12:44:26.99	42.60	13.81	-39.4	-40.3	23.5	0.00e+00	123	37	0	577765376	56	6201
2026-01-04 12:44:28.00	42.76	13.88	-39.3	-40.3	23.3	0.00e+00	123	37	0	580911104	56	6185
2026-01-04 12:44:29.01	42.92	13.94	-39.1	-40.1	23.5	0.00e+00	122	37	0	584056832	56	6026
2026-01-04 12:44:30.02	43.08	14.00	-39.2	-40.2	23.5	0.00e+00	123	37	0	587202560	56	6079
2026-01-04 12:44:31.04	43.24	14.07	-39.1	-40.0	23.6	0.00e+00	122	37	0	590348288	56	5981
2026-01-04 12:44:32.05	43.40	14.13	-39.1	-40.1	23.6	0.00e+00	123	37	0	593494016	56	6023
2026-01-04 12:44:33.06	43.57	14.20	-39.1	-40.0	23.5	0.00e+00	123	37	0	596639744	56	5967
2026-01-04 12:44:34.07	43.73	14.26	-39.2	-40.2	23.4	0.00e+00	120	37	0	600834048	56	6097
2026-01-04 12:44:35.08	43.89	14.33	-39.3	-40.2	23.3	0.00e+00	122	37	0	603979776	56	6126
2026-01-04 12:44:36.09	44.06	14.39	-39.6	-40.5	23.2	0.00e+00	122	37	0	607125504	56	6341
2026-01-04 12:44:37.10	44.22	14.45	-39.3	-40.3	23.4	0.00e+00	122	37	0	609222656	56	6136
2026-01-04 12:44:38.12	44.39	14.52	-39.2	-40.2	23.6	0.00e+00	123	37	0	613416960	56	6077
2026-01-04 12:44:39.13	44.56	14.58	-39.3	-40.2	23.4	0.00e+00	122	37	0	616562688	56	6122
2026-01-04 12:44:40.14	44.72	14.65	-39.2	-40.2	23.4	0.00e+00	122	37	0	619708416	56	6077
2026-01-04 12:44:41.15	44.89	14.71	-39.2	-40.2	23.5	0.00e+00	123	37	0	622854144	56	6070
2026-01-04 12:44:42.16	45.06	14.78	-39.2	-40.1	23.5	0.00e+00	123	37	0	625999872	56	6043
2026-01-04 12:44:43.17	45.23	14.84	-39.2	-40.2	23.6	0.00e+00	122	37	0	629145600	56	6074
2026-01-04 12:44:44.18	45.40	14.90	-39.2	-40.1	23.6	0.00e+00	121	37	0	632291328	56	6038
2026-01-04 12:44:45.19	45.57	14.97	-39.1	-40.1	23.6	0.00e+00	122	37	0	635437056	56	6040
2026-01-04 12:44:46.20	45.74	15.03	-39.1	-40.1	23.6	0.00e+00	120	37	0	638582784	56	6005
2026-01-04 12:44:47.21	45.91	15.09	-38.9	-39.9	23.8	0.00e+00	123	37	0	641728512	56	5862
2026-01-04 12:44:48.22	46.09	15.16	-39.1	-40.0	23.6	0.00e+00	122	37	0	644874240	56	5990
2026-01-04 12:44:49.23	46.26	15.22	-39.0	-39.9	23.8	0.00e+00	123	37	0	648019968	56	5892
2026-01-04 12:44:50.25	46.44	15.28	-39.0	-40.0	23.7	0.00e+00	123	37	0	651165696	56	5963
2026-01-04 12:44:51.25	46.61	15.35	-39.1	-40.1	23.7	0.00e+00	122	37	0	654311424	56	6022
2026-01-04 12:44:52.27	46.79	15.41	-39.0	-40.0	23.7	0.00e+00	123	37	0	657457152	56	5947
2026-01-04 12:44:53.28	46.96	15.47	-39.3	-40.2	23.6	0.00e+00	123	37	0	660602880	56	6107
2026-01-04 12:44:54.29	47.14	15.54	-39.0	-39.9	23.8	0.00e+00	123	37	0	663748608	56	5882
2026-01-04 12:44:55.30	47.32	15.60	-39.0	-40.0	23.7	0.00e+00	123	37	0	666894336	56	5946
2026-01-04 12:44:56.31	47.50	15.66	-39.1	-40.1	23.7	0.00e+00	123	37	0	670040064	56	5995
2026-01-04 12:44:57.32	47.68	15.73	-39.3	-40.2	23.5	0.00e+00	120	37	0	673185792	56	6116
2026-01-04 12:44:58.33	47.86	15.79	-39.1	-40.1	23.6	0.00e+00	122	37	0	676331520	56	6032
2026-01-04 12:44:59.34	48.04	15.85	-39.4	-40.3	23.4	0.00e+00	120	37	0	679477248	56	6201
2026-01-04 12:45:00.36	48.22	15.91	-39.2	-40.2	23.6	0.00e+00	122	37	0	682622976	56	6102
2026-01-04 12:45:01.37	48.40	15.98	-39.4	-40.4	23.4	0.00e+00	123	37	0	685768704	56	6213
2026-01-04 12:45:02.38	48.59	16.04	-39.3	-40.3	23.5	0.00e+00	123	37	0	688914432	56	6169
2026-01-04 12:45:03.39	48.77	16.10	-39.4	-40.4	23.5	0.00e+00	123	37	0	692060160	56	6245
2026-01-04 12:45:04.40	48.96	16.16	-39.3	-40.2	23.6	0.00e+00	123	37	0	695205888	56	6124
2026-01-04 12:45:05.41	49.14	16.22	-39.3	-40.3	23.6	0.00e+00	122	37	0	698351616	56	6142
2026-01-04 12:45:06.42	49.33	16.29	-39.2	-40.1	23.8	0.00e+00	122	37	0	701497344	56	6044
2026-01-04 12:45:07.43	49.51	16.35	-39.2	-40.2	23.7	0.00e+00	123	38	0	704643072	56	6103
2026-01-04 12:45:08.44	49.70	16.41	-39.0	-39.9	23.8	0.00e+00	122	37	0	707788800	56	5891
2026-01-04 12:45:09.46	49.89	16.47	-39.0	-40.0	23.8	0.00e+00	120	37	0	710934528	56	5951
2026-01-04 12:45:10.47	50.08	16.53	-39.1	-40.0	23.7	0.00e+00	122	37	0	714080256	56	5987
2026-01-04 12:45:11.48	50.27	16.59	-39.0	-39.9	23.8	0.00e+00	122	37	0	717225984	56	5922
2026-01-04 12:45:12.49	50.46	16.65	-38.9	-39.9	23.9	0.00e+00	123	37	0	720371712	56	5879
2026-01-04 12:45:13.50	50.65	16.71	-38.8	-39.8	23.9	0.00e+00	122	37	0	723517440	56	5805
2026-01-04 12:45:14.51	50.85	16.77	-38.8	-39.8	23.8	0.00e+00	123	37	0	726663168	56	5820
2026-01-04 12:45:15.52	51.04	16.84	-38.8	-39.8	23.8	0.00e+00	122	37	0	729808896	56	5802
2026-01-04 12:45:16.53	51.23	16.90	-39.0	-40.0	23.7	0.00e+00	120	37	0	732954624	56	5935
2026-01-04 12:45:17.54	51.43	16.96	-39.0	-40.0	23.7	0.00e+00	123	37	0	736100352	56	5940
2026-01-04 12:45:18.55	51.62	17.02	-39.0	-40.0	23.8	0.00e+00	122	37	0	739246080	56	5929
2026-01-04 12:45:19.56	51.82	17.08	-39.0	-40.0	23.7	0.00e+00	123	37	0	742391808	56	5944
2026-01-04 12:45:20.57	52.01	17.14	-39.1	-40.0	23.8	0.00e+00	123	37	0	745537536	56	5992
2026-01-04 12:45:21.58	52.21	17.19	-39.1	-40.0	23.7	0.00e+00	123	37	0	748683264	56	5984
2026-01-04 12:45:22.59	52.41	17.25	-39.0	-40.0	23.8	0.00e+00	120	37	0	751828992	56	5947
2026-01-04 12:45:23.60	52.61	17.31	-39.1	-40.0	23.7	0.00e+00	123	37	0	754974720	56	5980
2026-01-04 12:45:24.61	52.81	17.37	-38.9	-39.8	23.8	0.00e+00	123	37	0	758120448	56	5855
2026-01-04 12:45:25.63	53.01	17.43	-38.9	-39.8	23.9	0.00e+00	122	37	0	761266176	56	5812
2026-01-04 12:45:26.64	53.21	17.49	-38.8	-39.8	23.9	0.00e+00	122	37	0	764411904	56	5798
2026-01-04 12:45:27.65	53.41	17.55	-38.9	-39.9	23.8	0.00e+00	123	37	0	767557632	56	5866
2026-01-04 12:45:28.66	53.62	17.61	-38.7	-39.6	23.9	0.00e+00	123	37	0	770703360	56	5680
2026-01-04 12:45:29.67	53.82	17.66	-38.8	-39.7	23.9	0.00e+00	120	37	0	773849088	56	5759
2026-01-04 12:45:30.68	54.02	17.72	-38.8	-39.7	23.8	0.00e+00	122	37	0	776994816	56	5758
2026-01-04 12:45:31.69	54.23	17.78	-38.7	-39.6	23.9	0.00e+00	120	37	0	780140544	56	5716
2026-01-04 12:45:32.71	54.44	17.84	-38.9	-39.9	23.7	0.00e+00	122	37	0	783286272	56	5894
2026-01-04 12:45:33.72	54.64	17.89	-38.9	-39.9	23.8	0.00e+00	121	38	0	786432000	56	5874
2026-01-04 12:45:34.73	54.85	17.95	-39.1	-40.0	23.8	0.00e+00	123	37	0	789577728	56	5967
2026-01-04 12:45:35.74	55.06	18.01	-38.9	-39.8	24.0	0.00e+00	122	37	0	792723456	56	5817
2026-01-04 12:45:36.75	55.27	18.06	-38.9	-39.9	24.0	0.00e+00	122	38	0	795869184	56	5876
2026-01-04 12:45:37.76	55.48	18.12	-39.0	-39.9	23.8	0.00e+00	120	37	0	799014912	56	5895
2026-01-04 12:45:38.77	55.69	18.18	-39.0	-39.9	23.8	0.00e+00	123	37	0	802160640	56	5894
2026-01-04 12:45:39.78	55.90	18.23	-38.8	-39.7	24.0	0.00e+00	122	37	0	805306368	56	5772
2026-01-04 12:45:40.79	56.11	18.29	-38.6	-39.6	24.1	0.00e+00	123	37	0	808452096	56	5666
2026-01-04 12:45:41.81	56.33	18.34	-38.7	-39.7	24.0	0.00e+00	123	37	0	811597824	56	5744
2026-01-04 12:45:42.82	56.54	18.40	-38.9	-39.8	23.8	0.00e+00	122	37	0	814743552	56	5820
2026-01-04 12:45:43.83	56.75	18.45	-38.9	-39.8	23.9	0.00e+00	123	37	0	817889280	56	5842
2026-01-04 12:45:44.84	56.97	18.51	-39.0	-39.9	23.7	0.00e+00	123	37	0	821035008	56	5907
2026-01-04 12:45:45.85	57.18	18.56	-38.6	-39.6	24.1	0.00e+00	123	38	0	824180736	56	5670
2026-01-04 12:45:46.86	57.40	18.61	-38.9	-39.8	23.9	0.00e+00	120	37	0	827326464	56	5824
2026-01-04 12:45:47.87	57.62	18.67	-38.8	-39.8	23.9	0.00e+00	123	37	0	830472192	56	5805
2026-01-04 12:45:48.88	57.84	18.72	-38.8	-39.7	24.0	0.00e+00	120	37	0	833617920	56	5785
2026-01-04 12:45:49.89	58.05	18.77	-38.7	-39.6	24.1	0.00e+00	122	37	0	836763648	56	5691
2026-01-04 12:45:50.91	58.28	18.83	-38.6	-39.6	24.0	0.00e+00	120	37	0	839909376	56	5671
2026-01-04 12:45:51.92	58.50	18.88	-38.5	-39.4	24.2	0.00e+00	123	37	0	844103680	56	5573
2026-01-04 12:45:52.93	58.72	18.93	-38.4	-39.3	24.2	0.00e+00	120	37	0	847249408	56	5530
2026-01-04 12:45:53.94	58.94	18.98	-38.5	-39.4	24.2	0.00e+00	123	37	0	850395136	56	5549
2026-01-04 12:45:54.95	59.16	19.03	-38.4	-39.3	24.2	0.00e+00	121	37	0	852492288	56	5507
2026-01-04 12:45:55.96	59.38	19.09	-38.5	-39.4	24.1	0.00e+00	122	37	0	855638016	56	5562
2026-01-04 12:45:56.97	59.61	19.14	-38.5	-39.4	24.2	0.00e+00	122	37	0	859832320	56	5577
2026-01-04 12:45:57.98	59.83	19.19	-38.4	-39.3	24.2	0.00e+00	122	37	0	862978048	56	5527
2026-01-04 12:45:59.00	60.06	19.24	-38.5	-39.4	24.2	0.00e+00	123	37	0	866123776	56	5564
2026-01-04 12:46:00.01	60.28	19.29	-38.5	-39.4	24.3	0.00e+00	123	37	0	869269504	56	5549
2026-01-04 12:46:01.02	60.51	19.34	-38.5	-39.4	24.3	0.00e+00	123	37	0	872415232	56	5540
2026-01-04 12:46:02.03	60.74	19.39	-38.3	-39.2	24.3	0.00e+00	122	37	0	875560960	56	5461
2026-01-04 12:46:03.04	60.97	19.43	-38.3	-39.2	24.4	0.00e+00	123	38	0	878706688	56	5449
2026-01-04 12:46:04.05	61.20	19.48	-38.4	-39.3	24.4	0.00e+00	123	37	0	881852416	56	5498
2026-01-04 12:46:05.06	61.43	19.53	-38.5	-39.4	24.1	0.00e+00	123	37	0	884998144	56	5589
2026-01-04 12:46:06.07	61.66	19.58	-38.4	-39.3	24.3	0.00e+00	122	38	0	888143872	56	5516
2026-01-04 12:46:07.08	61.89	19.63	-38.4	-39.3	24.3	0.00e+00	123	37	0	891289600	56	5525
2026-01-04 12:46:08.10	62.12	19.67	-38.3	-39.2	24.5	0.00e+00	123	38	0	894435328	56	5449
2026-01-04 12:46:09.11	62.35	19.72	-38.1	-39.0	24.4	0.00e+00	123	37	0	897581056	54	5990
2026-01-04 12:46:10.12	62.59	19.77	-38.0	-38.9	24.6	0.00e+00	120	37	0	900726784	54	5913
2026-01-04 12:46:11.13	62.82	19.81	-38.0	-39.0	24.5	0.00e+00	123	37	0	903872512	54	5934
2026-01-04 12:46:12.14	63.05	19.86	-37.9	-38.8	24.6	0.00e+00	123	38	0	907018240	54	5854
2026-01-04 12:46:13.15	63.29	19.90	-38.0	-38.9	24.5	0.00e+00	123	37	0	910163968	54	5885
2026-01-04 12:46:14.16	63.53	19.95	-38.2	-39.1	24.4	0.00e+00	125	37	0	913309696	54	6005
2026-01-04 12:46:15.17	63.76	19.99	-38.2	-39.2	24.3	0.00e+00	122	37	0	916455424	54	6067
2026-01-04 12:46:16.18	64.00	20.04	-38.2	-39.2	24.3	0.00e+00	123	37	0	919601152	54	6075
2026-01-04 12:46:17.19	64.24	20.08	-38.1	-39.0	24.5	0.00e+00	123	38	0	922746880	54	5929
2026-01-04 12:46:18.21	64.48	20.12	-38.2	-39.1	24.4	0.00e+00	123	38	0	925892608	54	6023
2026-01-04 12:46:19.22	64.72	20.17	-37.9	-38.8	24.7	0.00e+00	122	38	0	929038336	54	5839
2026-01-04 12:46:20.23	64.96	20.21	-38.0	-38.9	24.6	0.00e+00	123	37	0	932184064	54	5895
2026-01-04 12:46:21.24	65.20	20.25	-37.8	-38.6	24.8	0.00e+00	123	37	0	935329792	54	5716
2026-01-04 12:46:22.25	65.44	20.29	-37.8	-38.7	24.7	0.00e+00	123	37	0	938475520	54	5742
2026-01-04 12:46:23.26	65.68	20.33	-37.8	-38.7	24.7	0.00e+00	122	38	0	941621248	54	5739
2026-01-04 12:46:24.27	65.92	20.37	-38.0	-38.9	24.5	0.00e+00	122	37	0	944766976	54	5892
2026-01-04 12:46:25.28	66.16	20.41	-38.1	-39.0	24.4	0.00e+00	120	38	0	947912704	54	5954
2026-01-04 12:46:26.29	66.41	20.45	-38.0	-38.9	24.6	0.00e+00	122	37	0	951058432	54	5872
2026-01-04 12:46:27.31	66.65	20.49	-37.9	-38.8	24.5	0.00e+00	122	38	0	954204160	54	5857
2026-01-04 12:46:28.32	66.90	20.53	-38.0	-38.9	24.6	0.00e+00	122	37	0	957349888	54	5868
2026-01-04 12:46:29.33	67.15	20.57	-37.9	-38.8	24.7	0.00e+00	123	38	0	960495616	54	5831
2026-01-04 12:46:30.34	67.39	20.61	-38.2	-39.1	24.4	0.00e+00	123	38	0	963641344	54	6051
2026-01-04 12:46:31.35	67.64	20.64	-38.3	-39.2	24.3	0.00e+00	120	37	0	966787072	54	6084
2026-01-04 12:46:32.36	67.88	20.68	-38.0	-38.8	24.5	0.00e+00	123	38	0	969932800	54	5850
2026-01-04 12:46:33.37	68.13	20.72	-37.8	-38.7	24.7	0.00e+00	120	37	0	973078528	54	5750
2026-01-04 12:46:34.38	68.38	20.75	-38.2	-39.1	24.3	0.00e+00	123	37	0	976224256	54	6057
2026-01-04 12:46:35.40	68.63	20.79	-38.4	-39.3	24.1	0.00e+00	123	37	0	979369984	54	6162
2026-01-04 12:46:36.41	68.88	20.82	-38.1	-39.0	24.5	0.00e+00	123	37	0	982515712	54	5956
2026-01-04 12:46:37.42	69.13	20.86	-38.0	-38.9	24.6	0.00e+00	120	38	0	985661440	54	5923
2026-01-04 12:46:38.43	69.38	20.89	-38.1	-39.0	24.5	0.00e+00	123	38	0	988807168	54	5968
2026-01-04 12:46:39.44	69.63	20.93	-37.9	-38.8	24.7	0.00e+00	123	38	0	991952896	54	5823
2026-01-04 12:46:40.45	69.89	20.96	-38.0	-38.9	24.6	0.00e+00	123	38	0	995098624	54	5870
2026-01-04 12:46:41.46	70.14	20.99	-38.1	-39.0	24.4	0.00e+00	120	38	0	998244352	54	5971
2026-01-04 12:46:42.47	70.39	21.02	-38.2	-39.1	24.4	0.00e+00	122	37	0	1001390080	54	6041
2026-01-04 12:46:43.48	70.64	21.05	-38.3	-39.3	24.3	0.00e+00	122	37	0	1004535808	54	6145
2026-01-04 12:46:44.49	70.90	21.08	-38.2	-39.2	24.3	0.00e+00	122	37	0	1007681536	54	6069
2026-01-04 12:46:45.51	71.15	21.12	-38.2	-39.2	24.3	0.00e+00	123	37	0	1010827264	54	6080
2026-01-04 12:46:46.52	71.41	21.15	-38.1	-39.0	24.5	0.00e+00	120	38	0	1013972992	54	5969
2026-01-04 12:46:47.53	71.66	21.17	-38.1	-39.0	24.4	0.00e+00	122	37	0	1017118720	54	5963
2026-01-04 12:46:48.54	71.92	21.20	-37.9	-38.9	24.6	0.00e+00	120	37	0	1020264448	54	5866
2026-01-04 12:46:49.55	72.18	21.23	-38.0	-38.9	24.5	0.00e+00	122	37	0	1023410176	54	5880
2026-01-04 12:46:50.56	72.43	21.26	-38.0	-38.9	24.5	0.00e+00	123	38	0	1026555904	54	5893
2026-01-04 12:46:51.57	72.69	21.29	-38.2	-39.1	24.5	0.00e+00	122	38	0	1029701632	54	6002
2026-01-04 12:46:52.58	72.95	21.31	-38.4	-39.3	24.3	0.00e+00	123	38	0	1032847360	54	6170
2026-01-04 12:46:53.59	73.20	21.34	-38.3	-39.2	24.3	0.00e+00	123	37	0	1035993088	54	6130
2026-01-04 12:46:54.61	73.47	21.36	-38.3	-39.2	24.4	0.00e+00	120	38	0	1039138816	54	6085
2026-01-04 12:46:55.62	73.72	21.39	-37.9	-38.8	24.6	0.00e+00	123	37	0	1042284544	54	5820
2026-01-04 12:46:56.63	73.98	21.41	-38.1	-39.0	24.5	0.00e+00	123	37	0	1045430272	54	5966
2026-01-04 12:46:57.64	74.24	21.44	-38.2	-39.1	24.4	0.00e+00	123	37	0	1048576000	54	6016
2026-01-04 12:46:58.65	74.50	21.46	-38.0	-38.9	24.6	0.00e+00	123	37	0	1051721728	54	5867
2026-01-04 12:46:59.66	74.76	21.48	-38.0	-38.8	24.6	0.00e+00	122	37	0	1054867456	54	5858
2026-01-04 12:47:00.67	75.02	21.51	-37.9	-38.8	24.6	0.00e+00	123	37	0	1058013184	54	5847
2026-01-04 12:47:01.68	75.28	21.53	-38.0	-39.0	24.6	0.00e+00	120	38	0	1061158912	54	5928
2026-01-04 12:47:02.69	75.55	21.55	-38.2	-39.1	24.6	0.00e+00	123	37	0	1064304640	54	6012
2026-01-04 12:47:03.70	75.81	21.57	-38.0	-38.9	24.5	0.00e+00	123	38	0	1067450368	54	5891
2026-01-04 12:47:04.72	76.07	21.59	-38.2	-39.1	24.3	0.00e+00	122	38	0	1071644672	54	6032
2026-01-04 12:47:05.73	76.34	21.61	-38.1	-39.0	24.5	0.00e+00	122	37	0	1074790400	54	5944
2026-01-04 12:47:06.74	76.60	21.63	-38.2	-39.1	24.5	0.00e+00	122	38	0	1076887552	54	6027
2026-01-04 12:47:07.75	76.86	21.64	-38.1	-39.0	24.5	0.00e+00	120	38	0	1080033280	54	5963
2026-01-04 12:47:08.76	77.12	21.66	-38.1	-39.0	24.5	0.00e+00	122	38	0	1083179008	54	5959
2026-01-04 12:47:09.77	77.39	21.68	-38.1	-39.0	24.5	0.00e+00	120	38	0	1087373312	54	5949
2026-01-04 12:47:10.78	77.65	21.69	-38.0	-38.9	24.4	0.00e+00	123	38	0	1090519040	54	5909
2026-01-04 12:47:11.79	77.92	21.71	-38.0	-38.9	24.5	0.00e+00	123	37	0	1093664768	54	5899
2026-01-04 12:47:12.81	78.18	21.73	-38.1	-39.0	24.6	0.00e+00	120	37	0	1096810496	54	5937
2026-01-04 12:47:13.81	78.45	21.74	-37.9	-38.9	24.5	0.00e+00	122	38	0	1098907648	54	5860
2026-01-04 12:47:14.83	78.71	21.75	-38.0	-38.9	24.6	0.00e+00	123	38	0	1103101952	54	5869
2026-01-04 12:47:15.84	78.98	21.77	-37.8	-38.7	24.7	0.00e+00	123	38	0	1106247680	54	5750
2026-01-04 12:47:16.85	79.24	21.78	-37.8	-38.7	24.8	0.00e+00	120	38	0	1109393408	54	5767
2026-01-04 12:47:17.86	79.51	21.79	-37.8	-38.7	24.7	0.00e+00	123	38	0	1112539136	54	5767
2026-01-04 12:47:18.87	79.78	21.80	-37.9	-38.7	24.7	0.00e+00	122	38	0	1115684864	54	5785
2026-01-04 12:47:19.88	80.04	21.81	-37.8	-38.7	24.7	0.00e+00	123	38	0	1118830592	54	5751
2026-01-04 12:47:20.90	80.31	21.82	-37.9	-38.7	24.6	0.00e+00	120	38	0	1121976320	54	5788
2026-01-04 12:47:21.90	80.57	21.83	-38.0	-38.9	24.5	0.00e+00	122	37	0	1125122048	54	5921
2026-01-04 12:47:22.92	80.84	21.84	-37.9	-38.8	24.7	0.00e+00	120	38	0	1128267776	54	5804
2026-01-04 12:47:23.93	81.11	21.85	-37.8	-38.7	24.7	0.00e+00	123	38	0	1131413504	54	5762
2026-01-04 12:47:24.94	81.38	21.86	-38.3	-39.2	24.3	0.00e+00	120	38	0	1134559232	54	6113
2026-01-04 12:47:25.95	81.64	21.87	-37.7	-38.6	24.9	0.00e+00	122	38	0	1137704960	54	5715
2026-01-04 12:47:26.96	81.91	21.87	-37.7	-38.6	24.8	0.00e+00	120	38	0	1140850688	54	5689
2026-01-04 12:47:27.97	82.18	21.88	-38.0	-38.9	24.5	0.00e+00	122	38	0	1143996416	54	5901
2026-01-04 12:47:28.99	82.45	21.88	-38.1	-39.0	24.5	0.00e+00	123	38	0	1147142144	54	5990
2026-01-04 12:47:30.00	82.72	21.89	-38.2	-39.1	24.4	0.00e+00	123	37	0	1150287872	54	6015
2026-01-04 12:47:31.01	82.98	21.89	-38.0	-38.9	24.6	0.00e+00	120	38	0	1153433600	54	5867
2026-01-04 12:47:32.02	83.25	21.89	-38.0	-38.9	24.6	0.00e+00	123	38	0	1156579328	54	5859
2026-01-04 12:47:33.03	83.52	21.90	-37.9	-38.8	24.6	0.00e+00	120	38	0	1159725056	54	5808
2026-01-04 12:47:34.04	83.79	21.90	-38.1	-39.0	24.5	0.00e+00	123	37	0	1162870784	54	5939
2026-01-04 12:47:35.05	84.05	21.90	-38.2	-39.2	24.3	0.00e+00	123	38	0	1166016512	54	6076
2026-01-04 12:47:36.06	84.32	21.90	-37.9	-38.8	24.5	0.00e+00	123	38	0	1169162240	54	5842
2026-01-04 12:47:37.07	84.59	21.90	-38.0	-38.9	24.5	0.00e+00	122	38	0	1172307968	54	5893
2026-01-04 12:47:38.08	84.86	21.90	-38.1	-39.0	24.5	0.00e+00	123	38	0	1175453696	54	5961
2026-01-04 12:47:39.10	85.13	21.90	-38.0	-38.9	24.5	0.00e+00	120	38	0	1178599424	54	5909
2026-01-04 12:47:40.11	85.39	21.90	-37.9	-38.7	24.6	0.00e+00	122	38	0	1181745152	54	5785
2026-01-04 12:47:41.12	85.66	21.90	-37.7	-38.6	24.8	0.00e+00	122	38	0	1184890880	54	5709
2026-01-04 12:47:42.13	85.93	21.89	-37.8	-38.7	24.7	0.00e+00	122	38	0	1188036608	54	5736
2026-01-04 12:47:43.14	86.20	21.89	-37.8	-38.7	24.6	0.00e+00	123	38	0	1191182336	54	5788
2026-01-04 12:47:44.15	86.46	21.88	-37.9	-38.8	24.6	0.00e+00	123	38	0	1194328064	54	5810
2026-01-04 12:47:45.16	86.73	21.88	-38.0	-38.9	24.5	0.00e+00	120	38	0	1197473792	54	5916
2026-01-04 12:47:46.17	87.00	21.87	-37.9	-38.8	24.6	0.00e+00	122	38	0	1200619520	54	5808
2026-01-04 12:47:47.18	87.27	21.87	-37.9	-38.8	24.7	0.00e+00	122	38	0	1203765248	54	5826
2026-01-04 12:47:48.20	87.54	21.86	-37.7	-38.5	24.6	0.00e+00	123	38	0	1206910976	54	5647
2026-01-04 12:47:49.21	87.80	21.85	-37.7	-38.6	24.8	0.00e+00	122	38	0	1210056704	54	5660
2026-01-04 12:47:50.22	88.07	21.85	-37.7	-38.6	24.7	0.00e+00	120	38	0	1213202432	54	5700
2026-01-04 12:47:51.23	88.34	21.84	-37.7	-38.6	24.8	0.00e+00	123	38	0	1216348160	54	5693
2026-01-04 12:47:52.24	88.60	21.83	-37.8	-38.7	24.7	0.00e+00	123	38	0	1219493888	54	5757
2026-01-04 12:47:53.25	88.87	21.82	-37.9	-38.8	24.7	0.00e+00	123	38	0	1222639616	54	5845
2026-01-04 12:47:54.26	89.14	21.81	-38.1	-39.0	24.6	0.00e+00	121	38	0	1225785344	54	5952
2026-01-04 12:47:55.27	89.40	21.80	-37.9	-38.7	24.6	0.00e+00	123	38	0	1228931072	54	5784
2026-01-04 12:47:56.29	89.67	21.78	-38.0	-38.9	24.5	0.00e+00	120	38	0	1232076800	54	5914
2026-01-04 12:47:57.30	89.94	21.77	-37.8	-38.7	24.6	0.00e+00	122	38	0	1235222528	54	5776
2026-01-04 12:47:58.31	90.20	21.76	-37.8	-38.7	24.7	0.00e+00	123	38	0	1238368256	54	5771
2026-01-04 12:47:59.32	90.47	21.74	-38.0	-38.9	24.5	0.00e+00	123	38	0	1241513984	54	5871
2026-01-04 12:48:00.33	90.73	21.73	-37.9	-38.8	24.6	0.00e+00	122	38	0	1244659712	54	5804
2026-01-04 12:48:01.34	91.00	21.72	-37.7	-38.6	24.8	0.00e+00	123	38	0	1247805440	54	5716
2026-01-04 12:48:02.35	91.26	21.70	-37.8	-38.7	24.6	0.00e+00	120	38	0	1250951168	54	5762
2026-01-04 12:48:03.36	91.53	21.68	-37.9	-38.8	24.6	0.00e+00	122	38	0	1254096896	54	5814
2026-01-04 12:48:04.37	91.79	21.67	-38.0	-38.9	24.6	0.00e+00	123	38	0	1257242624	54	5891
2026-01-04 12:48:05.38	92.05	21.65	-38.1	-39.0	24.5	0.00e+00	122	38	0	1260388352	54	5973
2026-01-04 12:48:06.40	92.32	21.63	-37.9	-38.8	24.6	0.00e+00	123	38	0	1263534080	54	5843
2026-01-04 12:48:07.41	92.58	21.61	-38.0	-38.9	24.6	0.00e+00	122	38	0	1266679808	54	5888
2026-01-04 12:48:08.42	92.85	21.59	-38.0	-39.0	24.4	0.00e+00	123	38	0	1269825536	54	5934
2026-01-04 12:48:09.43	93.11	21.58	-37.9	-38.8	24.5	0.00e+00	122	38	0	1272971264	54	5815
2026-01-04 12:48:10.44	93.37	21.56	-38.1	-39.0	24.4	0.00e+00	123	38	0	1276116992	54	5954
2026-01-04 12:48:11.45	93.63	21.53	-38.1	-39.0	24.4	0.00e+00	122	38	0	1279262720	54	5970
2026-01-04 12:48:12.46	93.89	21.51	-37.9	-38.8	24.6	0.00e+00	122	38	0	1282408448	54	5837
2026-01-04 12:48:13.47	94.16	21.49	-37.8	-38.7	24.7	0.00e+00	120	38	0	1285554176	54	5770
2026-01-04 12:48:14.48	94.42	21.47	-37.9	-38.8	24.5	0.00e+00	123	38	0	1288699904	54	5841
2026-01-04 12:48:15.49	94.68	21.45	-38.0	-38.9	24.5	0.00e+00	123	38	0	1291845632	54	5883
2026-01-04 12:48:16.51	94.94	21.42	-37.9	-38.8	24.6	0.00e+00	123	38	0	1294991360	54	5831
2026-01-04 12:48:17.52	95.20	21.40	-38.0	-39.0	24.4	0.00e+00	123	38	0	1298137088	54	5928
2026-01-04 12:48:18.53	95.46	21.37	-38.0	-38.9	24.5	0.00e+00	123	37	0	1301282816	54	5890
2026-01-04 12:48:19.54	95.72	21.35	-37.9	-38.8	24.6	0.00e+00	120	37	0	1304428544	54	5852
2026-01-04 12:48:20.55	95.98	21.32	-37.8	-38.7	24.7	0.00e+00	122	37	0	1307574272	54	5734
2026-01-04 12:48:21.56	96.23	21.29	-37.8	-38.7	24.6	0.00e+00	123	37	0	1310720000	54	5787
2026-01-04 12:48:22.57	96.49	21.27	-37.7	-38.6	24.7	0.00e+00	123	37	0	1314914304	54	5670
2026-01-04 12:48:23.58	96.75	21.24	-37.8	-38.7	24.6	0.00e+00	122	37	0	1318060032	54	5749
2026-01-04 12:48:24.59	97.01	21.21	-37.9	-38.8	24.5	0.00e+00	123	38	0	1320157184	54	5838
2026-01-04 12:48:25.61	97.26	21.18	-38.0	-38.9	24.5	0.00e+00	120	38	0	1323302912	54	5890
2026-01-04 12:48:26.62	97.52	21.15	-38.2	-39.1	24.4	0.00e+00	123	38	0	1327497216	54	6017
2026-01-04 12:48:27.63	97.78	21.12	-37.9	-38.8	24.6	0.00e+00	120	37	0	1330642944	54	5833
2026-01-04 12:48:28.64	98.03	21.09	-37.9	-38.8	24.5	0.00e+00	123	38	0	1333788672	54	5852
2026-01-04 12:48:29.65	98.29	21.06	-37.8	-38.7	24.7	0.00e+00	122	38	0	1336934400	54	5734
2026-01-04 12:48:30.66	98.54	21.03	-37.6	-38.5	24.6	0.00e+00	123	37	0	1340080128	54	5640
2026-01-04 12:48:31.67	98.79	21.00	-37.6	-38.4	24.8	0.00e+00	123	38	0	1343225856	54	5587
2026-01-04 12:48:32.68	99.05	20.97	-37.7	-38.5	24.7	0.00e+00	123	38	0	1346371584	54	5659
2026-01-04 12:48:33.70	99.30	20.93	-37.8	-38.7	24.7	0.00e+00	121	37	0	1349517312	54	5740
2026-01-04 12:48:34.71	99.55	20.90	-37.7	-38.6	24.7	0.00e+00	123	38	0	1352663040	54	5686
2026-01-04 12:48:35.72	99.80	20.87	-37.8	-38.7	24.6	0.00e+00	122	38	0	1355808768	54	5752
2026-01-04 12:48:36.73	100.05	20.83	-37.9	-38.8	24.5	0.00e+00	123	38	0	1358954496	54	5811
2026-01-04 12:48:37.74	100.30	20.80	-37.9	-38.8	24.5	0.00e+00	123	37	0	1362100224	54	5834
2026-01-04 12:48:38.75	100.55	20.76	-38.0	-38.9	24.4	0.00e+00	122	38	0	1365245952	54	5906
2026-01-04 12:48:39.76	100.80	20.73	-37.9	-38.8	24.5	0.00e+00	121	38	0	1368391680	54	5857
2026-01-04 12:48:40.77	101.05	20.69	-38.2	-39.1	24.3	0.00e+00	122	38	0	1371537408	54	6055
2026-01-04 12:48:41.78	101.30	20.65	-38.1	-39.0	24.5	0.00e+00	122	38	0	1374683136	54	5960
2026-01-04 12:48:42.80	101.55	20.62	-37.8	-38.7	24.6	0.00e+00	122	38	0	1377828864	54	5760
2026-01-04 12:48:43.81	101.80	20.58	-37.9	-38.8	24.4	0.00e+00	122	38	0	1380974592	54	5833
2026-01-04 12:48:44.82	102.04	20.54	-37.9	-38.8	24.5	0.00e+00	122	38	0	1384120320	54	5853
2026-01-04 12:48:45.83	102.29	20.50	-38.1	-39.0	24.3	0.00e+00	123	38	0	1387266048	54	5946
2026-01-04 12:48:46.84	102.53	20.46	-37.8	-38.7	24.6	0.00e+00	123	38	0	1390411776	54	5735
2026-01-04 12:48:47.85	102.78	20.42	-38.0	-38.9	24.4	0.00e+00	122	38	0	1393557504	54	5899
2026-01-04 12:48:48.86	103.02	20.38	-38.0	-38.9	24.4	0.00e+00	122	38	0	1396703232	54	5925
2026-01-04 12:48:49.87	103.26	20.34	-38.3	-39.2	24.2	0.00e+00	123	38	0	1399848960	54	6133
2026-01-04 12:48:50.88	103.51	20.30	-38.2	-39.1	24.3	0.00e+00	120	38	0	1402994688	54	6048
2026-01-04 12:48:51.89	103.75	20.26	-38.0	-38.9	24.4	0.00e+00	123	38	0	1406140416	54	5900
2026-01-04 12:48:52.90	103.99	20.22	-37.8	-38.7	24.6	0.00e+00	120	37	0	1409286144	54	5752
2026-01-04 12:48:53.92	104.23	20.17	-37.8	-38.7	24.4	0.00e+00	123	38	0	1412431872	54	5790
2026-01-04 12:48:54.93	104.47	20.13	-38.0	-39.0	24.3	0.00e+00	120	38	0	1415577600	54	5931
2026-01-04 12:48:55.94	104.71	20.09	-38.1	-39.0	24.3	0.00e+00	123	37	0	1418723328	54	5959
2026-01-04 12:48:56.95	104.95	20.04	-37.9	-38.9	24.4	0.00e+00	122	38	0	1421869056	54	5863
2026-01-04 12:48:57.96	105.19	20.00	-38.1	-39.0	24.3	0.00e+00	123	38	0	1425014784	54	5979
2026-01-04 12:48:58.97	105.43	19.96	-37.9	-38.8	24.4	0.00e+00	120	38	0	1428160512	54	5835
2026-01-04 12:48:59.98	105.66	19.91	-38.0	-38.9	24.3	0.00e+00	123	38	0	1431306240	54	5897
2026-01-04 12:49:00.99	105.90	19.87	-38.0	-38.9	24.4	0.00e+00	123	38	0	1434451968	54	5866
2026-01-04 12:49:02.00	106.14	19.82	-37.9	-38.8	24.4	0.00e+00	123	38	0	1437597696	54	5854
2026-01-04 12:49:03.01	106.37	19.77	-37.9	-38.9	24.3	0.00e+00	121	38	0	1440743424	54	5876
2026-01-04 12:49:04.02	106.60	19.73	-38.0	-38.9	24.2	0.00e+00	123	38	0	1443889152	54	5906
2026-01-04 12:49:05.04	106.84	19.68	-38.0	-39.0	24.3	0.00e+00	120	38	0	1447034880	54	5933
2026-01-04 12:49:06.05	107.07	19.63	-38.2	-39.2	24.2	0.00e+00	122	38	0	1450180608	54	6070
2026-01-04 12:49:07.06	107.30	19.59	-38.0	-38.9	24.4	0.00e+00	122	38	0	1453326336	54	5888
2026-01-04 12:49:08.07	107.54	19.54	-38.0	-38.9	24.4	0.00e+00	123	37	0	1456472064	54	5872
2026-01-04 12:49:09.08	107.77	19.49	-38.2	-39.1	24.2	0.00e+00	120	38	0	1459617792	54	6019
2026-01-04 12:49:10.09	108.00	19.44	-38.3	-39.2	24.1	0.00e+00	122	38	0	1462763520	54	6088
2026-01-04 12:49:11.10	108.22	19.39	-38.6	-39.6	23.9	0.00e+00	123	38	0	1465909248	54	6353
2026-01-04 12:49:12.11	108.45	19.34	-38.5	-39.4	24.1	0.00e+00	122	38	0	1469054976	54	6240
2026-01-04 12:49:13.12	108.68	19.29	-38.4	-39.3	24.1	0.00e+00	123	38	0	1472200704	54	6185
2026-01-04 12:49:14.13	108.91	19.24	-38.3	-39.3	24.1	0.00e+00	123	38	0	1475346432	54	6135
2026-01-04 12:49:15.15	109.14	19.19	-38.2	-39.1	24.3	0.00e+00	123	38	0	1478492160	54	6009
2026-01-04 12:49:16.15	109.36	19.14	-38.0	-38.9	24.3	0.00e+00	123	38	0	1481637888	54	5923
2026-01-04 12:49:17.17	109.59	19.09	-37.9	-38.8	24.5	0.00e+00	123	38	0	1484783616	54	5807
2026-01-04 12:49:18.18	109.81	19.04	-38.0	-38.9	24.3	0.00e+00	122	38	0	1487929344	54	5871
2026-01-04 12:49:19.19	110.03	18.99	-38.1	-39.0	24.3	0.00e+00	122	38	0	1491075072	54	5941
2026-01-04 12:49:20.20	110.26	18.94	-38.0	-38.9	24.4	0.00e+00	123	38	0	1494220800	54	5884
2026-01-04 12:49:21.21	110.48	18.88	-37.9	-38.8	24.5	0.00e+00	123	38	0	1497366528	54	5826
2026-01-04 12:49:22.22	110.70	18.83	-38.0	-38.9	24.4	0.00e+00	120	38	0	1500512256	54	5907
2026-01-04 12:49:23.23	110.92	18.78	-38.1	-39.0	24.4	0.00e+00	122	37	0	1503657984	54	5930
2026-01-04 12:49:24.24	111.14	18.73	-38.1	-39.0	24.3	0.00e+00	120	38	0	1506803712	54	5974
2026-01-04 12:49:25.26	111.36	18.67	-38.1	-39.0	24.3	0.00e+00	122	38	0	1509949440	54	5968
2026-01-04 12:49:26.27	111.58	18.62	-38.3	-39.2	24.1	0.00e+00	120	38	0	1513095168	54	6118
2026-01-04 12:49:27.28	111.80	18.56	-38.4	-39.3	24.1	0.00e+00	122	38	0	1516240896	54	6200
2026-01-04 12:49:28.29	112.01	18.51	-38.5	-39.4	24.0	0.00e+00	120	38	0	1519386624	54	6251
2026-01-04 12:49:29.30	112.23	18.46	-38.4	-39.4	24.0	0.00e+00	123	38	0	1522532352	54	6214
2026-01-04 12:49:30.31	112.44	18.40	-38.3	-39.3	24.1	0.00e+00	123	38	0	1525678080	54	6145
2026-01-04 12:49:31.32	112.66	18.35	-38.5	-39.4	24.0	0.00e+00	123	38	0	1528823808	54	6257
2026-01-04 12:49:32.33	112.87	18.29	-38.4	-39.3	24.1	0.00e+00	123	38	0	1531969536	54	6173
2026-01-04 12:49:33.34	113.08	18.23	-38.3	-39.3	24.1	0.00e+00	122	38	0	1535115264	54	6139
2026-01-04 12:49:34.36	113.30	18.18	-38.4	-39.4	24.0	0.00e+00	120	38	0	1538260992	54	6222
2026-01-04 12:49:35.37	113.51	18.12	-38.2	-39.1	24.2	0.00e+00	123	38	0	1541406720	54	6052
2026-01-04 12:49:36.38	113.72	18.07	-38.2	-39.2	24.2	0.00e+00	120	38	0	1544552448	54	6073
2026-01-04 12:49:37.39	113.93	18.01	-38.4	-39.3	24.1	0.00e+00	123	38	0	1547698176	54	6169
2026-01-04 12:49:38.40	114.14	17.95	-38.4	-39.3	24.0	0.00e+00	123	38	0	1550843904	54	6203
2026-01-04 12:49:39.41	114.35	17.89	-38.7	-39.6	23.9	0.00e+00	123	38	0	1553989632	54	6389
2026-01-04 12:49:40.42	114.55	17.84	-38.6	-39.5	23.9	0.00e+00	122	38	0	1558183936	54	6330
2026-01-04 12:49:41.43	114.76	17.78	-38.7	-39.7	23.7	0.00e+00	122	38	0	1561329664	54	6466
2026-01-04 12:49:42.44	114.97	17.72	-38.8	-39.8	23.7	0.00e+00	122	38	0	1564475392	54	6502
2026-01-04 12:49:43.45	115.17	17.66	-38.9	-39.9	23.7	0.00e+00	122	38	0	1566572544	54	6585
2026-01-04 12:49:44.46	115.38	17.61	-38.7	-39.7	23.8	0.00e+00	122	38	0	1569718272	54	6457
2026-01-04 12:49:45.47	115.58	17.55	-38.8	-39.8	23.7	0.00e+00	123	38	0	1573912576	54	6503
2026-01-04 12:49:46.48	115.78	17.49	-38.8	-39.8	23.7	0.00e+00	123	38	0	1577058304	54	6523
2026-01-04 12:49:47.50	115.99	17.43	-38.5	-39.4	24.0	0.00e+00	121	38	0	1580204032	54	6251
2026-01-04 12:49:48.51	116.19	17.37	-38.6	-39.5	23.9	0.00e+00	123	38	0	1583349760	54	6329
2026-01-04 12:49:49.52	116.39	17.31	-38.6	-39.6	23.9	0.00e+00	123	38	0	1586495488	54	6358
2026-01-04 12:49:50.53	116.59	17.25	-38.4	-39.3	24.0	0.00e+00	122	38	0	1589641216	54	6176
2026-01-04 12:49:51.54	116.79	17.19	-38.4	-39.4	23.9	0.00e+00	122	38	0	1592786944	54	6226
2026-01-04 12:49:52.55	116.99	17.13	-38.4	-39.4	23.9	0.00e+00	123	38	0	1595932672	54	6230
2026-01-04 12:49:53.56	117.18	17.07	-38.5	-39.4	24.0	0.00e+00	120	38	0	1599078400	54	6268
2026-01-04 12:49:54.57	117.38	17.01	-38.6	-39.6	23.8	0.00e+00	123	38	0	1602224128	54	6355
2026-01-04 12:49:55.58	117.58	16.95	-38.7	-39.7	23.7	0.00e+00	123	38	0	1605369856	54	6440
2026-01-04 12:49:56.59	117.77	16.89	-38.8	-39.7	23.7	0.00e+00	123	38	0	1608515584	54	6489
2026-01-04 12:49:57.61	117.97	16.83	-38.7	-39.7	23.7	0.00e+00	122	38	0	1611661312	54	6453
2026-01-04 12:49:58.62	118.16	16.77	-38.9	-39.8	23.6	0.00e+00	123	38	0	1614807040	54	6539
2026-01-04 12:49:59.63	118.36	16.71	-38.8	-39.8	23.6	0.00e+00	123	38	0	1617952768	54	6550
2026-01-04 12:50:00.64	118.55	16.65	-38.9	-39.8	23.6	0.00e+00	123	38	0	1621098496	54	6571
2026-01-04 12:50:01.65	118.74	16.59	-38.7	-39.7	23.7	0.00e+00	120	38	0	1624244224	54	6445
2026-01-04 12:50:02.66	118.93	16.52	-38.7	-39.7	23.7	0.00e+00	123	38	0	1627389952	54	6433
2026-01-04 12:50:03.67	119.12	16.46	-38.8	-39.8	23.7	0.00e+00	123	38	0	1630535680	54	6524
2026-01-04 12:50:04.68	119.31	16.40	-38.9	-39.9	23.6	0.00e+00	123	38	0	1633681408	54	6599
2026-01-04 12:50:05.69	119.50	16.34	-38.9	-39.8	23.6	0.00e+00	123	38	0	1636827136	54	6572
2026-01-04 12:50:06.70	119.69	16.28	-38.8	-39.8	23.5	0.00e+00	123	38	0	1639972864	54	6501
2026-01-04 12:50:07.72	119.87	16.21	-38.9	-39.9	23.6	0.00e+00	123	38	0	1643118592	54	6579
2026-01-04 12:50:08.73	120.06	16.15	-38.9	-39.9	23.5	0.00e+00	120	38	0	1646264320	54	6579
2026-01-04 12:50:09.74	120.25	16.09	-38.8	-39.8	23.6	0.00e+00	122	38	0	1649410048	54	6541
2026-01-04 12:50:10.75	120.43	16.03	-38.7	-39.7	23.8	0.00e+00	122	38	0	1652555776	54	6426
2026-01-04 12:50:11.76	120.62	15.97	-38.7	-39.6	23.8	0.00e+00	122	38	0	1655701504	54	6391
2026-01-04 12:50:12.77	120.80	15.90	-38.7	-39.7	23.8	0.00e+00	120	38	0	1658847232	54	6432
2026-01-04 12:50:13.78	120.98	15.84	-38.8	-39.7	23.7	0.00e+00	122	38	0	1661992960	54	6491
2026-01-04 12:50:14.79	121.16	15.78	-38.8	-39.7	23.8	0.00e+00	120	38	0	1665138688	54	6466
2026-01-04 12:50:15.80	121.34	15.71	-38.9	-39.8	23.7	0.00e+00	123	38	0	1668284416	54	6550
2026-01-04 12:50:16.82	121.53	15.65	-39.2	-40.2	23.6	0.00e+00	122	38	0	1671430144	56	6085
2026-01-04 12:50:17.83	121.71	15.59	-39.0	-39.9	23.6	0.00e+00	123	38	0	1674575872	56	5912
2026-01-04 12:50:18.84	121.88	15.52	-39.2	-40.1	23.6	0.00e+00	122	38	0	1677721600	56	6056
2026-01-04 12:50:19.85	122.06	15.46	-39.2	-40.2	23.6	0.00e+00	122	38	0	1680867328	56	6109
2026-01-04 12:50:20.86	122.24	15.40	-39.0	-40.0	23.7	0.00e+00	123	37	0	1684013056	56	5948
2026-01-04 12:50:21.87	122.42	15.33	-38.8	-39.8	23.7	0.00e+00	123	37	0	1687158784	56	5807
2026-01-04 12:50:22.88	122.59	15.27	-38.9	-39.9	23.7	0.00e+00	123	38	0	1690304512	56	5875
2026-01-04 12:50:23.89	122.77	15.20	-39.0	-39.9	23.7	0.00e+00	122	38	0	1693450240	56	5923
2026-01-04 12:50:24.90	122.94	15.14	-38.9	-39.9	23.7	0.00e+00	122	38	0	1696595968	56	5891
2026-01-04 12:50:25.91	123.12	15.08	-39.0	-40.0	23.6	0.00e+00	123	38	0	1699741696	56	5955
2026-01-04 12:50:26.92	123.29	15.01	-38.8	-39.8	23.8	0.00e+00	123	38	0	1702887424	56	5805
2026-01-04 12:50:27.93	123.46	14.95	-38.8	-39.8	23.7	0.00e+00	123	38	0	1706033152	56	5811
2026-01-04 12:50:28.95	123.63	14.88	-38.6	-39.5	24.0	0.00e+00	123	38	0	1709178880	56	5635
2026-01-04 12:50:29.96	123.80	14.82	-38.6	-39.5	24.0	0.00e+00	120	38	0	1712324608	56	5622
2026-01-04 12:50:30.97	123.97	14.76	-38.6	-39.5	23.8	0.00e+00	123	38	0	1715470336	56	5638
2026-01-04 12:50:31.98	124.14	14.69	-38.7	-39.6	23.8	0.00e+00	120	38	0	1718616064	56	5714
2026-01-04 12:50:32.99	124.31	14.63	-38.7	-39.6	23.8	0.00e+00	123	38	0	1721761792	56	5712
2026-01-04 12:50:34.00	124.48	14.56	-38.7	-39.6	23.8	0.00e+00	120	38	0	1724907520	56	5709
2026-01-04 12:50:35.01	124.65	14.50	-38.8	-39.7	23.7	0.00e+00	122	38	0	1728053248	56	5780
2026-01-04 12:50:36.03	124.82	14.43	-38.8	-39.8	23.7	0.00e+00	123	38	0	1731198976	56	5795
2026-01-04 12:50:37.04	124.98	14.37	-39.0	-39.9	23.6	0.00e+00	123	38	0	1734344704	56	5918
2026-01-04 12:50:38.05	125.15	14.30	-39.0	-39.9	23.6	0.00e+00	122	38	0	1737490432	56	5926
2026-01-04 12:50:39.06	125.31	14.24	-39.1	-40.1	23.5	0.00e+00	123	38	0	1740636160	56	6018
2026-01-04 12:50:40.07	125.48	14.17	-39.0	-40.0	23.5	0.00e+00	123	38	0	1743781888	56	5953
2026-01-04 12:50:41.08	125.64	14.11	-39.2	-40.1	23.5	0.00e+00	123	38	0	1746927616	56	6051
2026-01-04 12:50:42.09	125.80	14.04	-39.4	-40.3	23.3	0.00e+00	122	38	0	1750073344	56	6200
2026-01-04 12:50:43.10	125.96	13.98	-39.6	-40.6	23.2	0.00e+00	123	38	0	1753219072	56	6400
2026-01-04 12:50:44.11	126.12	13.91	-39.5	-40.5	23.1	0.00e+00	122	38	0	1756364800	56	6341
2026-01-04 12:50:45.12	126.28	13.85	-39.5	-40.5	23.0	0.00e+00	120	38	0	1759510528	56	6300
2026-01-04 12:50:46.13	126.44	13.78	-39.6	-40.6	23.1	0.00e+00	122	38	0	1762656256	56	6411
2026-01-04 12:50:47.15	126.60	13.72	-39.4	-40.4	23.1	0.00e+00	120	38	0	1765801984	56	6274
2026-01-04 12:50:48.16	126.76	13.65	-39.5	-40.4	23.1	0.00e+00	122	38	0	1768947712	56	6277
2026-01-04 12:50:49.17	126.92	13.59	-39.4	-40.4	23.2	0.00e+00	123	38	0	1772093440	56	6242
2026-01-04 12:50:50.18	127.08	13.52	-39.6	-40.6	23.0	0.00e+00	122	38	0	1775239168	56	6404
2026-01-04 12:50:51.19	127.23	13.46	-39.6	-40.6	22.9	0.00e+00	122	38	0	1778384896	56	6357
2026-01-04 12:50:52.20	127.39	13.39	-39.8	-40.9	22.7	0.00e+00	123	38	0	1781530624	56	6574
2026-01-04 12:50:53.21	127.54	13.33	-39.7	-40.7	22.9	0.00e+00	120	38	0	1784676352	56	6481
2026-01-04 12:50:54.22	127.70	13.26	-39.7	-40.7	22.8	0.00e+00	120	38	0	1787822080	56	6497
2026-01-04 12:50:55.24	127.85	13.20	-40.0	-41.0	22.6	0.00e+00	123	38	0	1790967808	56	6698
2026-01-04 12:50:56.25	128.01	13.13	-39.8	-40.8	22.8	0.00e+00	122	38	0	1794113536	56	6519
2026-01-04 12:50:57.26	128.16	13.07	-40.0	-41.0	22.8	0.00e+00	122	38	0	1797259264	56	6681
2026-01-04 12:50:58.27	128.31	13.00	-39.7	-40.7	23.0	0.00e+00	120	38	0	1801453568	56	6435
2026-01-04 12:50:59.28	128.46	12.94	-39.5	-40.5	23.2	0.00e+00	123	38	0	1804599296	56	6323
2026-01-04 12:51:00.29	128.61	12.87	-39.3	-40.3	23.2	0.00e+00	122	38	0	1807745024	56	6153
2026-01-04 12:51:01.30	128.76	12.81	-39.4	-40.4	23.3	0.00e+00	123	38	0	1809842176	56	6236
2026-01-04 12:51:02.31	128.91	12.74	-39.3	-40.3	23.3	0.00e+00	123	38	0	1812987904	56	6169
2026-01-04 12:51:03.32	129.06	12.68	-39.8	-40.8	22.9	0.00e+00	122	38	0	1817182208	56	6548
2026-01-04 12:51:04.34	129.21	12.61	-39.7	-40.6	23.0	0.00e+00	121	38	0	1820327936	56	6415
2026-01-04 12:51:05.35	129.36	12.54	-39.4	-40.4	23.2	0.00e+00	123	38	0	1823473664	56	6248
2026-01-04 12:51:06.36	129.50	12.48	-39.6	-40.6	22.9	0.00e+00	121	38	0	1826619392	56	6397
2026-01-04 12:51:07.37	129.65	12.41	-39.7	-40.7	22.9	0.00e+00	123	38	0	1829765120	56	6425
2026-01-04 12:51:08.38	129.80	12.35	-39.6	-40.6	23.1	0.00e+00	120	38	0	1832910848	56	6385
2026-01-04 12:51:09.39	129.94	12.28	-39.7	-40.7	22.9	0.00e+00	122	37	0	1836056576	56	6446
2026-01-04 12:51:10.40	130.08	12.22	-39.8	-40.8	22.8	0.00e+00	121	38	0	1839202304	56	6525
2026-01-04 12:51:11.41	130.23	12.15	-39.8	-40.8	22.9	0.00e+00	123	38	0	1842348032	56	6545
2026-01-04 12:51:12.42	130.37	12.09	-39.8	-40.8	22.7	0.00e+00	122	38	0	1845493760	56	6562
2026-01-04 12:51:13.43	130.51	12.02	-39.9	-40.9	22.7	0.00e+00	123	38	0	1848639488	56	6574
2026-01-04 12:51:14.45	130.66	11.96	-39.9	-40.9	22.7	0.00e+00	122	38	0	1851785216	58	5925
2026-01-04 12:51:15.46	130.80	11.89	-40.1	-41.1	22.6	0.00e+00	122	38	0	1854930944	58	6040
2026-01-04 12:51:16.47	130.94	11.83	-40.0	-41.0	22.7	0.00e+00	123	38	0	1858076672	58	5962
2026-01-04 12:51:17.48	131.08	11.76	-40.1	-41.2	22.5	0.00e+00	122	38	0	1861222400	58	6078
2026-01-04 12:51:18.49	131.22	11.70	-40.0	-41.0	22.6	0.00e+00	122	38	0	1864368128	58	5947
2026-01-04 12:51:19.50	131.36	11.63	-40.0	-41.0	22.6	0.00e+00	122	38	0	1867513856	58	5992
2026-01-04 12:51:20.51	131.49	11.57	-39.9	-40.9	22.6	0.00e+00	122	38	0	1870659584	58	5905
2026-01-04 12:51:21.52	131.63	11.50	-40.1	-41.2	22.4	0.00e+00	120	38	0	1873805312	58	6078
2026-01-04 12:51:22.53	131.77	11.44	-40.0	-41.1	22.6	0.00e+00	123	38	0	1876951040	58	6010
2026-01-04 12:51:23.55	131.91	11.37	-40.3	-41.4	22.2	0.00e+00	123	38	0	1880096768	58	6219
2026-01-04 12:51:24.56	132.04	11.31	-40.3	-41.4	22.0	0.00e+00	122	38	0	1883242496	58	6241
2026-01-04 12:51:25.57	132.18	11.24	-40.2	-41.3	22.4	0.00e+00	123	38	0	1886388224	58	6138
2026-01-04 12:51:26.58	132.31	11.18	-40.6	-41.7	22.0	0.00e+00	123	38	0	1889533952	58	6452
2026-01-04 12:51:27.59	132.45	11.11	-40.4	-41.5	22.2	0.00e+00	122	38	0	1892679680	58	6282
2026-01-04 12:51:28.60	132.58	11.05	-40.7	-41.8	21.7	0.00e+00	123	38	0	1895825408	58	6503
2026-01-04 12:51:29.61	132.71	10.98	-40.6	-41.7	22.0	0.00e+00	120	38	0	1898971136	58	6458
2026-01-04 12:51:30.62	132.84	10.92	-40.2	-41.2	22.4	0.00e+00	122	38	0	1902116864	58	6134
2026-01-04 12:51:31.63	132.98	10.85	-40.1	-41.2	22.5	0.00e+00	120	37	0	1905262592	58	6066
2026-01-04 12:51:32.65	133.11	10.79	-40.4	-41.4	22.3	0.00e+00	122	37	0	1908408320	58	6255
2026-01-04 12:51:33.66	133.24	10.72	-40.3	-41.3	22.5	0.00e+00	122	38	0	1911554048	58	6172
2026-01-04 12:51:34.67	133.37	10.66	-40.3	-41.4	22.4	0.00e+00	123	37	0	1914699776	58	6240
2026-01-04 12:51:35.68	133.50	10.59	-40.2	-41.2	22.5	0.00e+00	123	38	0	1917845504	58	6118
2026-01-04 12:51:36.69	133.63	10.53	-40.4	-41.5	22.2	0.00e+00	123	37	0	1920991232	58	6307
2026-01-04 12:51:37.70	133.76	10.46	-40.3	-41.3	22.4	0.00e+00	123	38	0	1924136960	58	6202
2026-01-04 12:51:38.71	133.89	10.40	-40.3	-41.3	22.3	0.00e+00	123	38	0	1927282688	58	6175
2026-01-04 12:51:39.72	134.01	10.34	-40.4	-41.4	22.2	0.00e+00	123	38	0	1930428416	58	6259
2026-01-04 12:51:40.73	134.14	10.27	-40.4	-41.4	22.1	0.00e+00	123	37	0	1933574144	58	6266
2026-01-04 12:51:41.75	134.27	10.21	-40.7	-41.8	21.9	0.00e+00	123	38	0	1936719872	58	6501
2026-01-04 12:51:42.76	134.39	10.14	-40.2	-41.3	22.4	0.00e+00	123	38	0	1939865600	58	6160
2026-01-04 12:51:43.77	134.52	10.08	-40.4	-41.4	22.2	0.00e+00	122	37	0	1943011328	58	6256
2026-01-04 12:51:44.78	134.64	10.01	-40.2	-41.3	22.4	0.00e+00	123	38	0	1946157056	58	6142
2026-01-04 12:51:45.79	134.77	9.95	-40.0	-41.0	22.5	0.00e+00	122	38	0	1949302784	58	5984
2026-01-04 12:51:46.80	134.89	9.89	-40.2	-41.2	22.3	0.00e+00	120	38	0	1952448512	58	6110
2026-01-04 12:51:47.81	135.01	9.82	-39.9	-41.0	22.6	0.00e+00	122	38	0	1955594240	58	5939
2026-01-04 12:51:48.82	135.14	9.76	-40.1	-41.1	22.4	0.00e+00	122	38	0	1958739968	58	6050
2026-01-04 12:51:49.83	135.26	9.69	-40.0	-41.1	22.5	0.00e+00	122	38	0	1961885696	58	5997
2026-01-04 12:51:50.84	135.38	9.63	-40.0	-41.0	22.5	0.00e+00	123	38	0	1965031424	58	5963
2026-01-04 12:51:51.85	135.50	9.57	-40.1	-41.1	22.4	0.00e+00	122	37	0	1968177152	58	6046
2026-01-04 12:51:52.87	135.62	9.50	-40.1	-41.2	22.4	0.00e+00	120	38	0	1971322880	58	6082
2026-01-04 12:51:53.88	135.74	9.44	-40.1	-41.1	22.5	0.00e+00	123	38	0	1974468608	58	6014
2026-01-04 12:51:54.89	135.86	9.38	-40.1	-41.1	22.5	0.00e+00	123	38	0	1977614336	58	6027
2026-01-04 12:51:55.90	135.98	9.31	-39.9	-40.9	22.7	0.00e+00	123	38	0	1980760064	58	5887
2026-01-04 12:51:56.91	136.10	9.25	-39.9	-40.9	22.6	0.00e+00	122	38	0	1983905792	58	5900
2026-01-04 12:51:57.92	136.22	9.19	-39.9	-41.0	22.6	0.00e+00	123	38	0	1987051520	58	5930
