passes_logs/2026/01/04/R4.6S_Anadyr_2ch/R4.6S_Anadyr_2ch__20260104_112955_SUOMI_NPP_rec.log

#Pass ID: 20260104_112955_SUOMI NPP
#Satellite: SUOMI NPP
#Configuration: NPP
#almurnet v.1.7.20251203
#Start time: 2026-01-04 11:29:56

#Version: 2.2.20231116
#Station: R4.6S_Anadyr_2ch
#Location: 177.4865 lon 64.73178 lat
#TLE: 1 37849U 11061A   25350.92281687  .00000071  00000+0  54882-4 0  9996
#TLE: 2 37849  98.7777 288.2268 0002366 112.8570 247.2856 14.19515404732588

#Time	Az	El	Level	Level2	SNR	BER	BlckErr	Temp	State	Recorded	gain1	gain2
2026-01-04 11:29:56.74	21.32	0.05	-53.6	-64.7	3.5	8.45e-01	0	34	0	0	60	84989
2026-01-04 11:29:57.74	21.42	0.08	-53.5	-69.1	3.6	1.51e+00	0	36	104	0	60	139582
2026-01-04 11:29:58.75	21.52	0.12	-52.9	-68.5	3.6	1.51e+00	0	36	104	0	60	129720
2026-01-04 11:29:59.77	21.62	0.16	-52.6	-68.2	3.6	1.51e+00	0	36	104	0	60	125478
2026-01-04 11:30:00.78	21.72	0.20	-52.6	-68.2	3.6	1.51e+00	0	36	104	0	60	124920
2026-01-04 11:30:01.79	21.82	0.23	-52.5	-68.2	3.6	1.51e+00	0	36	104	0	60	124625
2026-01-04 11:30:02.80	21.92	0.27	-52.5	-68.1	3.6	1.51e+00	0	36	104	0	60	123757
2026-01-04 11:30:03.81	22.03	0.31	-52.4	-68.0	3.6	1.51e+00	0	36	104	0	60	122546
2026-01-04 11:30:04.82	22.13	0.35	-52.3	-67.9	3.5	1.51e+00	0	36	104	0	60	120940
2026-01-04 11:30:05.83	22.23	0.39	-52.3	-67.9	3.6	1.51e+00	0	36	104	0	60	120803
2026-01-04 11:30:06.84	22.33	0.42	-52.2	-67.8	3.6	1.51e+00	0	36	104	0	60	119510
2026-01-04 11:30:07.86	22.44	0.46	-52.1	-67.7	3.6	1.51e+00	0	36	104	0	60	117878
2026-01-04 11:30:08.86	22.54	0.50	-52.0	-67.6	3.6	1.51e+00	0	36	104	0	60	116919
2026-01-04 11:30:09.87	22.64	0.54	-51.9	-67.4	3.6	1.51e+00	0	36	104	0	60	114746
2026-01-04 11:30:10.88	22.75	0.57	-51.6	-67.2	3.6	1.51e+00	0	36	104	0	60	111489
2026-01-04 11:30:11.89	22.85	0.61	-51.2	-66.7	3.6	1.51e+00	0	36	104	0	60	105758
2026-01-04 11:30:12.90	22.95	0.65	-50.5	-66.0	3.6	1.51e+00	0	36	104	0	60	97841
2026-01-04 11:30:13.92	23.06	0.69	-50.5	-66.1	3.6	1.51e+00	0	36	104	0	60	97975
2026-01-04 11:30:14.93	23.16	0.72	-50.5	-66.1	3.6	1.51e+00	0	36	104	0	60	98100
2026-01-04 11:30:15.94	23.27	0.76	-50.5	-66.1	3.6	1.51e+00	0	36	104	0	60	98578
2026-01-04 11:30:16.95	23.37	0.80	-50.5	-66.1	3.6	1.51e+00	0	36	104	0	60	97954
2026-01-04 11:30:17.96	23.48	0.84	-50.5	-66.1	3.6	1.51e+00	0	36	104	0	60	97968
2026-01-04 11:30:18.97	23.58	0.87	-50.5	-66.0	3.6	1.51e+00	0	36	104	0	60	97616
2026-01-04 11:30:19.98	23.69	0.91	-50.5	-66.0	3.6	1.51e+00	0	36	104	0	60	97841
2026-01-04 11:30:20.99	23.79	0.95	-50.5	-66.0	3.6	1.51e+00	0	36	104	0	60	97612
2026-01-04 11:30:22.00	23.90	0.99	-50.5	-66.0	3.6	1.51e+00	0	36	104	0	60	97607
2026-01-04 11:30:23.01	24.01	1.02	-50.5	-66.1	3.6	1.51e+00	0	36	104	0	60	98038
2026-01-04 11:30:24.02	24.11	1.06	-50.5	-66.0	3.6	1.51e+00	0	36	104	0	60	97729
2026-01-04 11:30:25.03	24.22	1.10	-50.5	-66.1	3.6	1.51e+00	0	36	104	0	60	98076
2026-01-04 11:30:26.04	24.33	1.14	-50.5	-66.1	3.6	1.51e+00	0	36	104	0	60	98127
2026-01-04 11:30:27.05	24.44	1.17	-50.4	-66.1	3.6	1.51e+00	0	36	104	0	60	97925
2026-01-04 11:30:28.07	24.55	1.21	-50.5	-66.1	3.6	1.51e+00	0	36	104	0	60	97941
2026-01-04 11:30:29.08	24.65	1.25	-50.5	-66.1	3.6	1.51e+00	0	36	104	0	60	97961
2026-01-04 11:30:30.09	24.76	1.28	-50.5	-66.0	3.6	1.51e+00	0	36	104	0	60	97389
2026-01-04 11:30:31.10	24.87	1.32	-50.5	-66.0	3.6	1.51e+00	0	36	104	0	60	97629
2026-01-04 11:30:32.11	24.98	1.36	-50.5	-66.0	3.6	1.51e+00	0	36	104	0	60	97522
2026-01-04 11:30:33.12	25.09	1.39	-50.5	-66.1	3.6	1.51e+00	0	36	104	0	60	98174
2026-01-04 11:30:34.13	25.20	1.43	-50.5	-66.1	3.6	1.51e+00	0	36	104	0	60	98407
2026-01-04 11:30:35.14	25.31	1.47	-50.5	-66.1	3.6	1.51e+00	0	36	104	0	60	97893
2026-01-04 11:30:36.16	25.42	1.51	-50.5	-66.0	3.6	1.51e+00	0	36	104	0	60	97664
2026-01-04 11:30:37.17	25.53	1.54	-50.5	-66.0	3.6	1.51e+00	0	36	104	0	60	97541
2026-01-04 11:30:38.18	25.64	1.58	-50.5	-66.1	3.6	1.51e+00	0	36	104	0	60	98088
2026-01-04 11:30:39.19	25.75	1.62	-50.5	-66.1	3.6	1.51e+00	0	36	104	0	60	97907
2026-01-04 11:30:40.20	25.86	1.65	-50.5	-66.1	3.6	1.51e+00	0	36	104	0	60	98549
2026-01-04 11:30:41.21	25.97	1.69	-50.5	-66.1	3.6	1.51e+00	0	36	104	0	60	98011
2026-01-04 11:30:42.22	26.08	1.73	-50.5	-66.1	3.6	1.51e+00	0	36	104	0	60	97916
2026-01-04 11:30:43.23	26.19	1.76	-50.5	-66.1	3.6	1.51e+00	0	36	104	0	60	97908
2026-01-04 11:30:44.24	26.31	1.80	-50.5	-66.1	3.6	1.51e+00	0	36	104	0	60	98204
2026-01-04 11:30:45.25	26.42	1.84	-50.5	-66.1	3.6	1.51e+00	0	37	104	0	60	98017
2026-01-04 11:30:46.27	26.53	1.87	-50.5	-66.0	3.6	1.51e+00	0	36	104	0	60	97385
2026-01-04 11:30:47.28	26.64	1.91	-50.5	-66.0	3.6	1.51e+00	0	37	104	0	60	97516
2026-01-04 11:30:48.29	26.76	1.95	-50.5	-66.0	3.6	1.51e+00	0	37	104	0	60	97127
2026-01-04 11:30:49.30	26.87	1.98	-50.5	-66.0	3.6	1.51e+00	0	37	104	0	60	97378
2026-01-04 11:30:50.31	26.98	2.02	-50.5	-66.0	3.6	1.51e+00	0	37	104	0	60	97441
2026-01-04 11:30:51.32	27.10	2.06	-50.5	-66.0	3.6	1.51e+00	0	37	104	0	60	97380
2026-01-04 11:30:52.33	27.21	2.09	-50.5	-66.0	3.6	1.51e+00	0	37	104	0	60	96972
2026-01-04 11:30:53.34	27.33	2.13	-50.5	-66.0	3.6	1.51e+00	0	37	104	0	60	97445
2026-01-04 11:30:54.35	27.44	2.16	-50.5	-66.1	3.6	1.51e+00	0	37	104	0	60	97944
2026-01-04 11:30:55.36	27.56	2.20	-50.5	-66.0	3.6	1.51e+00	0	37	104	0	60	97620
2026-01-04 11:30:56.37	27.67	2.24	-50.5	-66.1	3.6	1.51e+00	0	37	104	0	60	98105
2026-01-04 11:30:57.38	27.79	2.27	-50.5	-66.1	3.6	1.51e+00	0	37	104	0	60	97852
2026-01-04 11:30:58.39	27.90	2.31	-50.5	-66.0	3.6	1.51e+00	0	37	104	0	60	97435
2026-01-04 11:30:59.40	28.02	2.34	-50.5	-66.0	3.6	1.51e+00	0	37	104	0	60	96963
2026-01-04 11:31:00.42	28.13	2.38	-50.5	-66.0	3.6	1.51e+00	0	37	104	0	60	96740
2026-01-04 11:31:01.43	28.25	2.42	-50.5	-66.0	3.6	1.51e+00	0	37	104	0	60	96972
2026-01-04 11:31:02.44	28.37	2.45	-50.5	-66.0	3.6	1.51e+00	0	37	104	0	60	97052
2026-01-04 11:31:03.45	28.49	2.49	-50.5	-66.0	3.6	1.51e+00	0	37	104	0	60	97407
2026-01-04 11:31:04.46	28.60	2.52	-50.5	-66.1	3.6	1.51e+00	0	37	104	0	60	98170
2026-01-04 11:31:05.47	28.72	2.56	-50.5	-66.0	3.6	1.51e+00	0	37	104	0	60	97156
2026-01-04 11:31:06.48	28.84	2.60	-50.5	-65.4	3.6	1.51e+00	0	37	104	0	60	90504
2026-01-04 11:31:07.49	28.96	2.63	-50.4	-64.6	3.6	1.51e+00	0	37	104	0	60	83212
2026-01-04 11:31:08.50	29.07	2.67	-50.4	-65.3	3.6	1.51e+00	0	37	104	0	60	89538
2026-01-04 11:31:09.51	29.19	2.70	-50.4	-65.4	3.6	1.51e+00	0	37	104	0	60	90294
2026-01-04 11:31:10.52	29.31	2.74	-50.0	-59.4	5.8	1.49e+00	0	37	104	0	60	45603
2026-01-04 11:31:11.53	29.43	2.77	-48.8	-53.7	11.0	1.10e-01	0	37	0	0	60	23692
2026-01-04 11:31:12.55	29.55	2.81	-47.4	-50.6	14.8	2.67e-05	0	37	0	2097152	60	16585
2026-01-04 11:31:13.56	29.67	2.84	-45.9	-48.3	16.5	0.00e+00	0	37	0	4194304	60	12647
2026-01-04 11:31:14.57	29.79	2.88	-44.8	-46.7	18.1	0.00e+00	0	37	0	6291456	60	10547
2026-01-04 11:31:15.58	29.91	2.91	-45.3	-47.4	17.5	0.00e+00	0	37	0	8388608	60	11407
2026-01-04 11:31:16.59	30.03	2.95	-45.7	-48.0	16.9	0.00e+00	0	37	0	9437184	60	12188
2026-01-04 11:31:17.60	30.15	2.98	-47.4	-50.8	13.5	0.00e+00	0	37	0	11534336	60	16818
2026-01-04 11:31:18.61	30.27	3.02	-46.5	-49.1	16.3	4.27e-05	0	37	0	13631488	60	13915
2026-01-04 11:31:19.62	30.40	3.05	-50.1	-61.4	3.5	1.40e-04	22	37	0	15728640	60	57427
2026-01-04 11:31:20.64	30.52	3.09	-47.1	-50.0	5.9	1.51e+00	0	37	104	15728640	60	15487
2026-01-04 11:31:21.65	30.64	3.12	-47.1	-49.9	16.0	4.33e-02	0	37	0	15728640	60	15181
2026-01-04 11:31:22.66	30.76	3.16	-50.4	-59.5	5.3	0.00e+00	0	37	0	17825792	60	46220
2026-01-04 11:31:23.67	30.89	3.19	-48.7	-53.0	5.9	1.51e+00	0	37	104	17825792	60	21775
2026-01-04 11:31:24.68	31.01	3.23	-46.1	-48.3	16.7	1.31e-02	0	37	104	17825792	60	12748
2026-01-04 11:31:25.69	31.13	3.26	-46.5	-48.9	16.1	0.00e+00	0	37	0	18874368	60	13610
2026-01-04 11:31:26.70	31.25	3.30	-46.9	-49.4	16.3	0.00e+00	0	37	0	20971520	60	14426
2026-01-04 11:31:27.71	31.38	3.33	-46.3	-48.5	16.6	0.00e+00	0	37	0	23068672	60	13044
2026-01-04 11:31:28.72	31.50	3.37	-46.9	-49.4	16.1	0.00e+00	0	37	0	25165824	60	14471
2026-01-04 11:31:29.73	31.63	3.40	-47.1	-49.8	15.8	0.00e+00	0	37	0	26214400	60	15019
2026-01-04 11:31:30.74	31.75	3.44	-47.0	-49.6	15.8	0.00e+00	0	37	0	28311552	60	14736
2026-01-04 11:31:31.76	31.88	3.47	-46.4	-48.7	16.6	0.00e+00	0	37	0	30408704	60	13247
2026-01-04 11:31:32.77	32.00	3.50	-46.5	-48.8	16.7	0.00e+00	0	37	0	32505856	60	13474
2026-01-04 11:31:33.78	32.13	3.54	-47.1	-49.8	15.8	0.00e+00	0	37	0	34603008	60	14983
2026-01-04 11:31:34.79	32.25	3.57	-46.4	-48.7	16.8	0.00e+00	0	37	0	36700160	60	13304
2026-01-04 11:31:35.80	32.38	3.61	-46.4	-48.6	16.9	0.00e+00	0	37	0	37748736	60	13137
2026-01-04 11:31:36.81	32.50	3.64	-46.2	-48.3	17.1	0.00e+00	0	37	0	39845888	60	12715
2026-01-04 11:31:37.82	32.63	3.67	-46.3	-48.5	16.8	0.00e+00	0	37	0	41943040	60	12913
2026-01-04 11:31:38.83	32.76	3.71	-46.4	-48.6	16.9	0.00e+00	0	37	0	44040192	60	13159
2026-01-04 11:31:39.84	32.88	3.74	-46.2	-48.3	16.8	0.00e+00	0	37	0	46137344	60	12657
2026-01-04 11:31:40.86	33.01	3.77	-46.1	-48.3	17.4	0.00e+00	0	37	0	47185920	60	12612
2026-01-04 11:31:41.87	33.14	3.81	-46.7	-49.2	16.1	0.00e+00	0	37	0	49283072	60	13988
2026-01-04 11:31:42.88	33.27	3.84	-46.6	-48.9	16.7	0.00e+00	0	37	0	51380224	60	13586
2026-01-04 11:31:43.89	33.40	3.88	-46.4	-48.7	16.7	0.00e+00	0	37	0	53477376	60	13251
2026-01-04 11:31:44.90	33.52	3.91	-46.5	-48.8	17.0	0.00e+00	0	37	0	55574528	60	13473
2026-01-04 11:31:45.91	33.65	3.94	-46.0	-48.1	17.2	0.00e+00	0	37	0	56623104	60	12395
2026-01-04 11:31:46.92	33.78	3.97	-46.4	-48.6	16.8	0.00e+00	0	37	0	58720256	60	13076
2026-01-04 11:31:47.93	33.91	4.01	-45.5	-47.4	18.1	0.00e+00	0	37	0	60817408	60	11376
2026-01-04 11:31:48.94	34.04	4.04	-45.9	-47.9	17.8	0.00e+00	0	37	0	62914560	60	12066
2026-01-04 11:31:49.95	34.17	4.07	-45.5	-47.3	18.2	0.00e+00	0	37	0	65011712	60	11287
2026-01-04 11:31:50.96	34.30	4.11	-45.1	-46.9	18.6	0.00e+00	0	37	0	66060288	60	10758
2026-01-04 11:31:51.97	34.43	4.14	-45.3	-47.2	18.3	0.00e+00	0	37	0	68157440	60	11120
2026-01-04 11:31:52.99	34.56	4.17	-45.1	-46.8	18.6	0.00e+00	0	37	0	70254592	60	10636
2026-01-04 11:31:54.00	34.69	4.21	-45.2	-46.9	18.6	0.00e+00	0	37	0	72351744	60	10852
2026-01-04 11:31:55.01	34.82	4.24	-45.2	-47.0	18.4	0.00e+00	0	37	0	74448896	60	10977
2026-01-04 11:31:56.02	34.96	4.27	-45.2	-47.0	18.5	0.00e+00	0	37	0	76546048	60	10910
2026-01-04 11:31:57.03	35.09	4.30	-44.8	-46.4	19.1	0.00e+00	0	37	0	77594624	60	10207
2026-01-04 11:31:58.04	35.22	4.33	-45.1	-46.8	18.7	0.00e+00	0	37	0	79691776	60	10715
2026-01-04 11:31:59.05	35.35	4.37	-45.0	-46.7	18.9	0.00e+00	0	37	0	81788928	60	10560
2026-01-04 11:32:00.07	35.49	4.40	-45.1	-46.8	18.7	0.00e+00	0	37	0	83886080	60	10671
2026-01-04 11:32:01.08	35.62	4.43	-45.1	-46.8	18.7	0.00e+00	0	37	0	85983232	60	10698
2026-01-04 11:32:02.09	35.75	4.46	-44.8	-46.4	19.0	0.00e+00	0	37	0	87031808	60	10168
2026-01-04 11:32:03.10	35.89	4.50	-44.9	-46.6	19.0	0.00e+00	0	37	0	89128960	60	10393
2026-01-04 11:32:04.11	36.02	4.53	-44.5	-46.0	19.5	0.00e+00	0	37	0	91226112	60	9735
2026-01-04 11:32:05.12	36.15	4.56	-44.7	-46.3	19.2	0.00e+00	0	37	0	93323264	60	10037
2026-01-04 11:32:06.13	36.29	4.59	-44.8	-46.4	19.3	0.00e+00	0	37	0	95420416	60	10212
2026-01-04 11:32:07.14	36.42	4.62	-45.0	-46.7	19.0	0.00e+00	0	37	0	96468992	60	10529
2026-01-04 11:32:08.15	36.56	4.65	-44.9	-46.6	19.0	0.00e+00	0	37	0	98566144	60	10419
2026-01-04 11:32:09.16	36.69	4.68	-45.1	-46.9	18.8	0.00e+00	0	37	0	100663296	60	10764
2026-01-04 11:32:10.17	36.83	4.72	-44.8	-46.5	18.9	0.00e+00	0	37	0	102760448	60	10262
2026-01-04 11:32:11.19	36.96	4.75	-44.9	-46.5	19.0	0.00e+00	0	37	0	104857600	60	10338
2026-01-04 11:32:12.20	37.10	4.78	-45.3	-47.1	18.4	0.00e+00	0	37	0	105906176	60	11096
2026-01-04 11:32:13.21	37.24	4.81	-45.3	-47.1	18.6	0.00e+00	0	37	0	108003328	60	11013
2026-01-04 11:32:14.22	37.37	4.84	-44.9	-46.6	18.9	0.00e+00	0	37	0	110100480	60	10414
2026-01-04 11:32:15.23	37.51	4.87	-44.9	-46.5	18.9	0.00e+00	0	37	0	112197632	60	10312
2026-01-04 11:32:16.24	37.65	4.90	-44.8	-46.5	19.1	0.00e+00	0	37	0	114294784	60	10262
2026-01-04 11:32:17.25	37.78	4.93	-44.9	-46.6	19.0	0.00e+00	0	37	0	116391936	60	10400
2026-01-04 11:32:18.26	37.92	4.96	-44.7	-46.3	19.3	0.00e+00	0	37	0	117440512	60	10028
2026-01-04 11:32:19.27	38.06	4.99	-44.7	-46.2	19.3	0.00e+00	0	37	0	119537664	60	9991
2026-01-04 11:32:20.29	38.20	5.02	-44.9	-46.6	19.0	0.00e+00	0	37	0	121634816	60	10404
2026-01-04 11:32:21.30	38.34	5.05	-44.7	-46.3	19.2	0.00e+00	0	37	0	123731968	60	10057
2026-01-04 11:32:22.31	38.48	5.08	-44.9	-46.5	18.7	0.00e+00	0	37	0	125829120	60	10342
2026-01-04 11:32:23.32	38.61	5.11	-45.1	-46.8	18.8	0.00e+00	0	37	0	126877696	60	10724
2026-01-04 11:32:24.33	38.75	5.14	-45.0	-46.6	18.9	0.00e+00	0	37	0	128974848	60	10467
2026-01-04 11:32:25.34	38.89	5.17	-44.8	-46.4	19.2	0.00e+00	0	37	0	131072000	60	10204
2026-01-04 11:32:26.35	39.03	5.20	-44.7	-46.3	19.2	0.00e+00	0	37	0	133169152	60	10083
2026-01-04 11:32:27.36	39.17	5.23	-44.7	-46.3	19.4	0.00e+00	0	37	0	135266304	60	10106
2026-01-04 11:32:28.37	39.31	5.26	-44.8	-46.4	19.1	0.00e+00	0	37	0	136314880	60	10237
2026-01-04 11:32:29.39	39.46	5.29	-44.9	-46.5	19.3	0.00e+00	0	37	0	138412032	60	10287
2026-01-04 11:32:30.40	39.60	5.32	-44.7	-46.3	19.3	0.00e+00	0	37	0	140509184	60	10067
2026-01-04 11:32:31.41	39.74	5.35	-44.7	-46.3	19.3	0.00e+00	0	37	0	142606336	60	10033
2026-01-04 11:32:32.42	39.88	5.38	-45.0	-46.7	19.0	0.00e+00	0	37	0	144703488	60	10519
2026-01-04 11:32:33.43	40.02	5.41	-45.1	-46.7	19.0	0.00e+00	0	37	0	145752064	60	10579
2026-01-04 11:32:34.44	40.16	5.44	-45.3	-47.0	18.7	0.00e+00	0	37	0	147849216	60	10970
2026-01-04 11:32:35.45	40.31	5.46	-45.3	-47.1	18.6	0.00e+00	0	37	0	149946368	60	11031
2026-01-04 11:32:36.46	40.45	5.49	-45.3	-47.1	18.6	0.00e+00	0	37	0	152043520	60	11026
2026-01-04 11:32:37.47	40.59	5.52	-45.2	-46.9	18.8	0.00e+00	0	37	0	154140672	60	10783
2026-01-04 11:32:38.48	40.73	5.55	-45.0	-46.6	19.1	0.00e+00	0	37	0	155189248	60	10463
2026-01-04 11:32:39.50	40.88	5.58	-45.1	-46.8	18.9	0.00e+00	0	37	0	157286400	60	10709
2026-01-04 11:32:40.51	41.02	5.61	-44.8	-46.4	19.2	0.00e+00	0	37	0	159383552	60	10204
2026-01-04 11:32:41.52	41.17	5.63	-45.1	-46.8	18.9	0.00e+00	0	37	0	161480704	60	10638
2026-01-04 11:32:42.53	41.31	5.66	-44.9	-46.5	19.2	0.00e+00	0	37	0	163577856	60	10344
2026-01-04 11:32:43.54	41.45	5.69	-44.9	-46.5	19.1	0.00e+00	0	37	0	164626432	60	10327
2026-01-04 11:32:44.55	41.60	5.72	-44.9	-46.5	19.2	0.00e+00	0	37	0	166723584	60	10262
2026-01-04 11:32:45.56	41.74	5.74	-45.0	-46.7	19.0	0.00e+00	0	37	0	168820736	60	10553
2026-01-04 11:32:46.57	41.89	5.77	-45.3	-47.1	18.7	0.00e+00	0	37	0	170917888	60	10988
2026-01-04 11:32:47.58	42.03	5.80	-45.3	-47.0	18.7	0.00e+00	0	37	0	173015040	60	10906
2026-01-04 11:32:48.60	42.18	5.83	-45.4	-47.2	18.6	0.00e+00	0	37	0	174063616	60	11147
2026-01-04 11:32:49.61	42.33	5.85	-45.7	-47.6	18.3	0.00e+00	0	37	0	176160768	60	11690
2026-01-04 11:32:50.62	42.47	5.88	-45.4	-47.2	18.7	0.00e+00	0	37	0	178257920	60	11160
2026-01-04 11:32:51.63	42.62	5.91	-45.6	-47.5	18.3	0.00e+00	0	37	0	180355072	60	11533
2026-01-04 11:32:52.64	42.77	5.93	-45.5	-47.3	18.6	0.00e+00	0	37	0	182452224	60	11245
2026-01-04 11:32:53.65	42.91	5.96	-45.5	-47.3	18.5	0.00e+00	0	37	0	184549376	60	11251
2026-01-04 11:32:54.66	43.06	5.99	-45.4	-47.2	18.6	0.00e+00	0	37	0	185597952	60	11170
2026-01-04 11:32:55.67	43.21	6.01	-45.3	-47.1	18.6	0.00e+00	0	37	0	187695104	60	10988
2026-01-04 11:32:56.68	43.36	6.04	-45.7	-47.5	18.4	0.00e+00	0	37	0	189792256	60	11609
2026-01-04 11:32:57.69	43.50	6.06	-45.4	-47.1	18.6	0.00e+00	0	37	0	191889408	60	11040
2026-01-04 11:32:58.71	43.65	6.09	-45.5	-47.3	18.5	0.00e+00	0	37	0	193986560	60	11236
2026-01-04 11:32:59.72	43.80	6.12	-45.6	-47.4	18.5	0.00e+00	0	37	0	195035136	60	11391
2026-01-04 11:33:00.73	43.95	6.14	-45.4	-47.1	18.7	0.00e+00	0	37	0	197132288	60	11045
2026-01-04 11:33:01.74	44.10	6.17	-45.2	-46.9	18.8	0.00e+00	0	37	0	199229440	60	10836
2026-01-04 11:33:02.75	44.25	6.19	-45.3	-47.0	18.7	0.00e+00	0	37	0	201326592	60	10955
2026-01-04 11:33:03.76	44.40	6.22	-45.3	-47.0	18.7	0.00e+00	0	37	0	203423744	60	10941
2026-01-04 11:33:04.77	44.55	6.24	-45.3	-47.0	18.7	0.00e+00	0	37	0	204472320	60	10862
2026-01-04 11:33:05.78	44.70	6.27	-45.2	-46.9	18.9	0.00e+00	0	37	0	206569472	60	10853
2026-01-04 11:33:06.79	44.85	6.29	-45.0	-46.7	19.1	0.00e+00	0	37	0	208666624	60	10498
2026-01-04 11:33:07.80	45.00	6.32	-45.0	-46.6	19.2	0.00e+00	0	37	0	210763776	60	10430
2026-01-04 11:33:08.81	45.15	6.34	-45.0	-46.6	19.2	0.00e+00	0	37	0	212860928	60	10431
2026-01-04 11:33:09.82	45.30	6.37	-44.7	-46.2	19.5	0.00e+00	0	37	0	213909504	60	9952
2026-01-04 11:33:10.84	45.45	6.39	-45.1	-46.7	18.9	0.00e+00	0	37	0	216006656	60	10565
2026-01-04 11:33:11.85	45.61	6.41	-45.2	-46.8	18.8	0.00e+00	0	37	0	218103808	60	10705
2026-01-04 11:33:12.86	45.76	6.44	-45.4	-47.1	18.7	0.00e+00	0	37	0	220200960	60	11087
2026-01-04 11:33:13.87	45.91	6.46	-45.8	-47.7	18.1	0.00e+00	0	37	0	222298112	60	11894
2026-01-04 11:33:14.88	46.06	6.48	-46.2	-48.2	17.7	0.00e+00	0	37	0	224395264	60	12510
2026-01-04 11:33:15.89	46.21	6.51	-46.2	-48.2	17.6	0.00e+00	0	37	0	225443840	60	12550
2026-01-04 11:33:16.90	46.37	6.53	-46.2	-48.2	17.8	0.00e+00	0	37	0	227540992	60	12479
2026-01-04 11:33:17.91	46.52	6.55	-46.2	-48.2	17.7	0.00e+00	0	37	0	229638144	60	12534
2026-01-04 11:33:18.92	46.67	6.58	-46.1	-48.1	17.7	0.00e+00	0	37	0	231735296	60	12355
2026-01-04 11:33:19.94	46.83	6.60	-46.1	-48.0	17.8	0.00e+00	0	37	0	233832448	60	12272
2026-01-04 11:33:20.95	46.98	6.62	-46.2	-48.2	17.7	0.00e+00	0	37	0	234881024	60	12537
2026-01-04 11:33:21.96	47.14	6.65	-45.8	-47.7	18.1	0.00e+00	0	37	0	236978176	60	11835
2026-01-04 11:33:22.97	47.29	6.67	-45.9	-47.7	18.2	0.00e+00	0	37	0	239075328	60	11881
2026-01-04 11:33:23.98	47.44	6.69	-45.6	-47.4	18.3	0.00e+00	0	37	0	241172480	60	11481
2026-01-04 11:33:24.99	47.60	6.71	-45.7	-47.6	18.1	0.00e+00	0	37	0	243269632	60	11687
2026-01-04 11:33:26.00	47.75	6.73	-46.0	-47.9	17.9	0.00e+00	0	37	0	244318208	60	12089
2026-01-04 11:33:27.01	47.91	6.76	-45.9	-47.8	18.1	0.00e+00	0	37	0	246415360	60	11970
2026-01-04 11:33:28.02	48.06	6.78	-45.1	-46.8	19.0	0.00e+00	0	37	0	248512512	60	10675
2026-01-04 11:33:29.04	48.22	6.80	-45.3	-46.9	18.9	0.00e+00	0	37	0	250609664	60	10849
2026-01-04 11:33:30.05	48.38	6.82	-45.3	-47.0	18.9	0.00e+00	0	37	0	252706816	60	10938
2026-01-04 11:33:31.06	48.53	6.84	-45.4	-47.1	18.8	0.00e+00	0	37	0	253755392	60	10989
2026-01-04 11:33:32.07	48.69	6.86	-45.0	-46.7	19.2	0.00e+00	0	37	0	255852544	60	10486
2026-01-04 11:33:33.08	48.85	6.88	-45.0	-46.6	19.2	0.00e+00	0	37	0	257949696	60	10367
2026-01-04 11:33:34.09	49.00	6.90	-45.0	-46.6	19.3	0.00e+00	0	37	0	260046848	60	10400
2026-01-04 11:33:35.10	49.16	6.92	-44.9	-46.5	19.4	0.00e+00	0	37	0	262144000	60	10298
2026-01-04 11:33:36.11	49.32	6.94	-45.0	-46.6	19.2	0.00e+00	0	37	0	264241152	60	10394
2026-01-04 11:33:37.12	49.47	6.96	-45.2	-46.9	19.0	0.00e+00	0	37	0	265289728	60	10788
2026-01-04 11:33:38.13	49.63	6.98	-45.5	-47.2	18.6	0.00e+00	0	37	0	267386880	60	11215
2026-01-04 11:33:39.15	49.79	7.00	-45.7	-47.5	18.5	0.00e+00	0	37	0	269484032	60	11516
2026-01-04 11:33:40.16	49.95	7.02	-45.9	-47.8	18.2	0.00e+00	0	37	0	271581184	60	11969
2026-01-04 11:33:41.17	50.11	7.04	-46.0	-48.0	17.9	0.00e+00	0	37	0	273678336	60	12219
2026-01-04 11:33:42.18	50.26	7.06	-46.1	-48.0	17.9	0.00e+00	0	37	0	274726912	60	12265
2026-01-04 11:33:43.19	50.42	7.08	-46.0	-48.0	18.0	0.00e+00	0	37	0	276824064	60	12185
2026-01-04 11:33:44.20	50.58	7.10	-45.7	-47.5	18.5	0.00e+00	0	37	0	278921216	60	11572
2026-01-04 11:33:45.21	50.74	7.12	-45.6	-47.3	18.5	0.00e+00	0	37	0	281018368	60	11356
2026-01-04 11:33:46.22	50.90	7.14	-45.4	-47.1	18.8	0.00e+00	0	37	0	283115520	60	10980
2026-01-04 11:33:47.23	51.06	7.16	-45.2	-46.9	19.0	0.00e+00	0	37	0	284164096	60	10759
2026-01-04 11:33:48.25	51.22	7.18	-45.0	-46.5	19.3	0.00e+00	0	37	0	286261248	60	10340
2026-01-04 11:33:49.26	51.38	7.19	-44.8	-46.3	19.5	0.00e+00	0	37	0	288358400	60	10121
2026-01-04 11:33:50.27	51.54	7.21	-44.9	-46.4	19.4	0.00e+00	0	37	0	290455552	60	10212
2026-01-04 11:33:51.28	51.70	7.23	-44.9	-46.4	19.4	0.00e+00	0	37	0	292552704	60	10225
2026-01-04 11:33:52.29	51.86	7.25	-44.9	-46.5	19.5	0.00e+00	0	37	0	293601280	60	10275
2026-01-04 11:33:53.30	52.02	7.26	-44.8	-46.4	19.5	0.00e+00	0	37	0	295698432	60	10176
2026-01-04 11:33:54.31	52.18	7.28	-44.8	-46.3	19.5	0.00e+00	0	37	0	297795584	60	10078
2026-01-04 11:33:55.32	52.34	7.30	-45.0	-46.6	19.3	0.00e+00	0	37	0	299892736	60	10407
2026-01-04 11:33:56.33	52.50	7.32	-44.5	-46.0	19.8	0.00e+00	0	37	0	301989888	60	9750
2026-01-04 11:33:57.35	52.66	7.33	-44.5	-46.0	19.8	0.00e+00	0	37	0	303038464	60	9696
2026-01-04 11:33:58.36	52.83	7.35	-44.4	-45.8	20.0	0.00e+00	0	37	0	305135616	60	9494
2026-01-04 11:33:59.37	52.99	7.36	-44.5	-45.9	19.7	0.00e+00	0	37	0	307232768	60	9620
2026-01-04 11:34:00.38	53.15	7.38	-44.7	-46.2	19.5	0.00e+00	0	37	0	309329920	60	9980
2026-01-04 11:34:01.39	53.31	7.40	-44.5	-46.0	19.7	0.00e+00	0	37	0	311427072	60	9754
2026-01-04 11:34:02.40	53.47	7.41	-44.6	-46.2	19.9	0.00e+00	0	37	0	313524224	60	9904
2026-01-04 11:34:03.41	53.63	7.43	-44.6	-46.0	19.8	0.00e+00	0	37	0	314572800	60	9780
2026-01-04 11:34:04.42	53.80	7.44	-44.5	-45.9	19.8	0.00e+00	0	37	0	316669952	60	9669
2026-01-04 11:34:05.43	53.96	7.46	-44.5	-46.0	19.8	0.00e+00	0	37	0	318767104	60	9733
2026-01-04 11:34:06.45	54.12	7.47	-44.3	-45.7	20.1	0.00e+00	0	37	0	320864256	60	9377
2026-01-04 11:34:07.46	54.29	7.49	-44.0	-45.4	20.4	0.00e+00	0	37	0	322961408	60	9046
2026-01-04 11:34:08.47	54.45	7.50	-44.2	-45.6	20.2	0.00e+00	0	37	0	324009984	60	9243
2026-01-04 11:34:09.48	54.61	7.52	-44.3	-45.7	20.1	0.00e+00	0	37	0	326107136	60	9426
2026-01-04 11:34:10.49	54.78	7.53	-44.3	-45.7	20.2	0.00e+00	0	37	0	328204288	60	9362
2026-01-04 11:34:11.50	54.94	7.55	-44.7	-46.2	19.6	0.00e+00	0	37	0	330301440	60	9942
2026-01-04 11:34:12.51	55.10	7.56	-44.7	-46.2	19.6	0.00e+00	0	37	0	332398592	60	9996
2026-01-04 11:34:13.52	55.27	7.57	-45.0	-46.7	19.3	0.00e+00	0	37	0	333447168	60	10507
2026-01-04 11:34:14.53	55.43	7.59	-45.1	-46.7	19.2	0.00e+00	0	37	0	335544320	60	10571
2026-01-04 11:34:15.55	55.60	7.60	-45.4	-47.1	18.9	0.00e+00	0	37	0	337641472	60	11017
2026-01-04 11:34:16.56	55.76	7.61	-45.3	-47.0	18.9	0.00e+00	0	37	0	339738624	60	10893
2026-01-04 11:34:17.57	55.93	7.63	-45.2	-46.9	19.1	0.00e+00	0	37	0	341835776	60	10779
2026-01-04 11:34:18.58	56.09	7.64	-45.2	-46.9	19.2	0.00e+00	0	37	0	342884352	60	10779
2026-01-04 11:34:19.59	56.25	7.65	-45.1	-46.8	19.2	0.00e+00	0	37	0	344981504	60	10618
2026-01-04 11:34:20.60	56.42	7.66	-45.2	-46.8	19.1	0.00e+00	0	37	0	347078656	60	10694
2026-01-04 11:34:21.61	56.58	7.68	-45.2	-46.8	19.1	0.00e+00	0	37	0	349175808	60	10671
2026-01-04 11:34:22.62	56.75	7.69	-45.3	-47.0	18.9	0.00e+00	0	37	0	351272960	60	10949
2026-01-04 11:34:23.63	56.91	7.70	-45.3	-47.0	18.9	0.00e+00	0	37	0	352321536	60	10976
2026-01-04 11:34:24.64	57.08	7.71	-45.3	-47.0	18.8	0.00e+00	0	37	0	354418688	60	10977
2026-01-04 11:34:25.66	57.25	7.72	-45.4	-47.1	18.9	0.00e+00	0	37	0	356515840	60	11051
2026-01-04 11:34:26.67	57.41	7.73	-45.5	-47.2	18.6	0.00e+00	0	37	0	358612992	60	11204
2026-01-04 11:34:27.68	57.58	7.75	-45.5	-47.2	18.7	0.00e+00	0	37	0	360710144	60	11181
2026-01-04 11:34:28.69	57.74	7.76	-45.5	-47.2	18.7	0.00e+00	0	37	0	361758720	60	11168
2026-01-04 11:34:29.70	57.91	7.77	-45.3	-47.0	18.9	0.00e+00	0	37	0	363855872	60	10976
2026-01-04 11:34:30.71	58.08	7.78	-45.5	-47.3	18.6	0.00e+00	0	37	0	365953024	60	11272
2026-01-04 11:34:31.72	58.24	7.79	-45.7	-47.5	18.3	0.00e+00	0	37	0	368050176	60	11588
2026-01-04 11:34:32.73	58.41	7.80	-45.8	-47.6	18.3	0.00e+00	0	37	0	370147328	60	11711
2026-01-04 11:34:33.74	58.58	7.81	-46.1	-48.0	17.9	0.00e+00	0	37	0	372244480	60	12263
2026-01-04 11:34:34.76	58.74	7.82	-46.3	-48.4	17.7	0.00e+00	0	37	0	373293056	60	12802
2026-01-04 11:34:35.77	58.91	7.83	-46.4	-48.5	17.4	0.00e+00	0	37	0	375390208	60	13033
2026-01-04 11:34:36.78	59.08	7.84	-46.4	-48.4	17.5	0.00e+00	0	37	0	377487360	60	12848
2026-01-04 11:34:37.79	59.24	7.84	-46.2	-48.1	17.8	0.00e+00	0	37	0	379584512	60	12422
2026-01-04 11:34:38.80	59.41	7.85	-46.1	-48.1	18.0	0.00e+00	0	37	0	381681664	60	12373
2026-01-04 11:34:39.81	59.58	7.86	-45.9	-47.7	18.3	0.00e+00	0	37	0	382730240	60	11894
2026-01-04 11:34:40.82	59.75	7.87	-45.8	-47.7	18.3	0.00e+00	0	37	0	384827392	60	11792
2026-01-04 11:34:41.83	59.91	7.88	-45.9	-47.7	18.4	0.00e+00	0	37	0	386924544	60	11841
2026-01-04 11:34:42.84	60.08	7.89	-46.0	-47.9	18.0	0.00e+00	0	37	0	389021696	60	12063
2026-01-04 11:34:43.85	60.25	7.89	-46.1	-48.0	17.9	0.00e+00	0	37	0	391118848	60	12254
2026-01-04 11:34:44.87	60.42	7.90	-46.1	-48.1	17.9	0.00e+00	0	37	0	392167424	60	12325
2026-01-04 11:34:45.88	60.58	7.91	-46.0	-47.9	18.1	0.00e+00	0	37	0	394264576	60	12051
2026-01-04 11:34:46.89	60.75	7.92	-46.0	-47.9	18.1	0.00e+00	0	37	0	396361728	60	12106
2026-01-04 11:34:47.90	60.92	7.92	-45.8	-47.7	18.3	0.00e+00	0	37	0	398458880	60	11807
2026-01-04 11:34:48.91	61.09	7.93	-45.9	-47.7	18.2	0.00e+00	0	37	0	400556032	60	11892
2026-01-04 11:34:49.92	61.26	7.94	-45.7	-47.5	18.4	0.00e+00	0	37	0	401604608	60	11547
2026-01-04 11:34:50.93	61.42	7.94	-45.7	-47.5	18.5	0.00e+00	0	37	0	403701760	60	11551
2026-01-04 11:34:51.94	61.59	7.95	-45.6	-47.3	18.6	0.00e+00	0	37	0	405798912	60	11308
2026-01-04 11:34:52.95	61.76	7.95	-45.7	-47.5	18.5	0.00e+00	0	37	0	407896064	60	11506
2026-01-04 11:34:53.97	61.93	7.96	-45.3	-47.0	18.8	0.00e+00	0	37	0	409993216	60	10940
2026-01-04 11:34:54.98	62.10	7.97	-45.3	-47.0	18.9	0.00e+00	0	37	0	412090368	60	10926
2026-01-04 11:34:55.99	62.27	7.97	-45.5	-47.2	18.8	0.00e+00	0	37	0	413138944	60	11141
2026-01-04 11:34:57.00	62.43	7.98	-45.3	-47.0	18.9	0.00e+00	0	37	0	415236096	60	10916
2026-01-04 11:34:58.01	62.60	7.98	-45.5	-47.2	18.6	0.00e+00	0	37	0	417333248	60	11179
2026-01-04 11:34:59.02	62.77	7.98	-45.5	-47.3	18.7	0.00e+00	0	37	0	419430400	60	11246
2026-01-04 11:35:00.03	62.94	7.99	-45.6	-47.3	18.6	0.00e+00	0	37	0	421527552	60	11343
2026-01-04 11:35:01.04	63.11	7.99	-45.4	-47.1	18.7	0.00e+00	0	37	0	422576128	60	10983
2026-01-04 11:35:02.05	63.28	8.00	-45.3	-47.0	19.0	0.00e+00	0	37	0	424673280	60	10893
2026-01-04 11:35:03.06	63.45	8.00	-45.1	-46.7	19.2	0.00e+00	0	37	0	426770432	60	10592
2026-01-04 11:35:04.07	63.61	8.00	-45.1	-46.7	19.2	0.00e+00	0	37	0	428867584	60	10552
2026-01-04 11:35:05.09	63.78	8.01	-44.8	-46.4	19.5	0.00e+00	0	37	0	430964736	60	10182
2026-01-04 11:35:06.10	63.95	8.01	-44.7	-46.2	19.7	0.00e+00	0	37	0	432013312	60	9938
2026-01-04 11:35:07.11	64.12	8.01	-44.8	-46.3	19.6	0.00e+00	0	37	0	434110464	60	10127
2026-01-04 11:35:08.12	64.29	8.02	-44.7	-46.2	19.6	0.00e+00	0	37	0	436207616	60	10011
2026-01-04 11:35:09.13	64.46	8.02	-44.7	-46.3	19.6	0.00e+00	0	37	0	438304768	60	10016
2026-01-04 11:35:10.14	64.63	8.02	-44.7	-46.2	19.6	0.00e+00	0	37	0	440401920	60	10011
2026-01-04 11:35:11.15	64.80	8.02	-44.7	-46.2	19.6	0.00e+00	0	37	0	441450496	60	9942
2026-01-04 11:35:12.16	64.97	8.03	-44.8	-46.3	19.7	0.00e+00	0	37	0	443547648	60	10065
2026-01-04 11:35:13.17	65.14	8.03	-44.5	-46.0	19.8	0.00e+00	0	37	0	445644800	60	9753
2026-01-04 11:35:14.19	65.31	8.03	-44.4	-45.9	19.9	0.00e+00	0	37	0	447741952	60	9609
2026-01-04 11:35:15.20	65.48	8.03	-44.3	-45.7	20.1	0.00e+00	0	37	0	449839104	60	9448
2026-01-04 11:35:16.21	65.64	8.03	-44.3	-45.8	20.1	0.00e+00	0	37	0	451936256	60	9479
2026-01-04 11:35:17.22	65.81	8.03	-44.3	-45.7	20.1	0.00e+00	0	37	0	452984832	60	9432
2026-01-04 11:35:18.23	65.98	8.03	-44.2	-45.7	20.1	0.00e+00	0	37	0	455081984	60	9383
2026-01-04 11:35:19.24	66.15	8.03	-44.2	-45.6	20.1	0.00e+00	0	37	0	457179136	60	9332
2026-01-04 11:35:20.25	66.32	8.03	-44.4	-45.9	19.9	0.00e+00	0	37	0	459276288	60	9635
2026-01-04 11:35:21.26	66.49	8.03	-44.7	-46.2	19.6	0.00e+00	0	37	0	461373440	60	9992
2026-01-04 11:35:22.27	66.66	8.03	-44.4	-45.8	20.0	0.00e+00	0	37	0	462422016	60	9517
2026-01-04 11:35:23.28	66.83	8.03	-44.8	-46.4	19.5	0.00e+00	0	37	0	464519168	60	10182
2026-01-04 11:35:24.30	67.00	8.03	-44.8	-46.4	19.6	0.00e+00	0	37	0	466616320	60	10130
2026-01-04 11:35:25.31	67.17	8.03	-44.6	-46.1	19.7	0.00e+00	0	37	0	468713472	60	9837
2026-01-04 11:35:26.32	67.34	8.03	-44.2	-45.6	20.3	0.00e+00	0	37	0	470810624	60	9300
2026-01-04 11:35:27.33	67.51	8.03	-44.0	-45.3	20.4	0.00e+00	0	37	0	471859200	60	8989
2026-01-04 11:35:28.34	67.68	8.03	-44.0	-45.3	20.3	0.00e+00	0	37	0	473956352	60	9005
2026-01-04 11:35:29.35	67.84	8.02	-43.9	-45.3	20.4	0.00e+00	0	37	0	476053504	60	8964
2026-01-04 11:35:30.36	68.01	8.02	-44.1	-45.5	20.2	0.00e+00	0	37	0	478150656	60	9175
2026-01-04 11:35:31.37	68.18	8.02	-44.2	-45.7	20.0	0.00e+00	0	37	0	480247808	60	9382
2026-01-04 11:35:32.38	68.35	8.02	-44.4	-45.9	19.9	0.00e+00	0	37	0	481296384	60	9652
2026-01-04 11:35:33.39	68.52	8.02	-44.5	-46.0	19.8	0.00e+00	0	37	0	483393536	60	9696
2026-01-04 11:35:34.40	68.69	8.01	-44.7	-46.3	19.6	0.00e+00	0	37	0	485490688	60	10072
2026-01-04 11:35:35.41	68.86	8.01	-44.5	-46.0	19.8	0.00e+00	0	37	0	487587840	60	9737
2026-01-04 11:35:36.43	69.03	8.01	-44.3	-45.7	20.0	0.00e+00	0	37	0	489684992	60	9434
2026-01-04 11:35:37.44	69.20	8.00	-44.1	-45.5	20.3	0.00e+00	0	37	0	490733568	60	9205
2026-01-04 11:35:38.45	69.37	8.00	-44.0	-45.4	20.3	0.00e+00	0	37	0	492830720	60	9107
2026-01-04 11:35:39.46	69.54	8.00	-44.2	-45.6	20.0	0.00e+00	0	37	0	494927872	60	9315
2026-01-04 11:35:40.47	69.70	7.99	-44.4	-45.9	19.5	0.00e+00	0	37	0	497025024	60	9651
2026-01-04 11:35:41.48	69.87	7.99	-44.1	-45.5	20.1	0.00e+00	0	37	0	499122176	60	9184
2026-01-04 11:35:42.49	70.04	7.98	-44.1	-45.6	20.2	0.00e+00	0	37	0	500170752	60	9259
2026-01-04 11:35:43.50	70.21	7.98	-44.1	-45.5	20.2	0.00e+00	0	37	0	502267904	60	9194
2026-01-04 11:35:44.51	70.38	7.97	-44.1	-45.5	20.1	0.00e+00	0	37	0	504365056	60	9203
2026-01-04 11:35:45.52	70.55	7.97	-43.9	-45.3	20.4	0.00e+00	0	37	0	506462208	60	9013
2026-01-04 11:35:46.53	70.72	7.96	-43.9	-45.3	20.4	0.00e+00	0	37	0	508559360	60	8971
2026-01-04 11:35:47.54	70.88	7.96	-43.9	-45.3	20.5	0.00e+00	0	37	0	509607936	60	8935
2026-01-04 11:35:48.55	71.05	7.95	-43.4	-44.7	20.9	0.00e+00	0	37	0	511705088	60	8401
2026-01-04 11:35:49.56	71.22	7.94	-43.3	-44.6	21.1	0.00e+00	0	37	0	513802240	60	8280
2026-01-04 11:35:50.57	71.39	7.94	-43.2	-44.4	21.2	0.00e+00	0	37	0	515899392	60	8085
2026-01-04 11:35:51.59	71.56	7.93	-43.0	-44.2	21.4	0.00e+00	0	37	0	517996544	60	7863
2026-01-04 11:35:52.60	71.73	7.93	-43.2	-44.5	21.2	0.00e+00	0	37	0	520093696	60	8174
2026-01-04 11:35:53.61	71.89	7.92	-42.8	-44.0	21.5	0.00e+00	0	37	0	521142272	60	7725
2026-01-04 11:35:54.62	72.06	7.91	-42.8	-43.9	21.6	0.00e+00	0	37	0	523239424	60	7657
2026-01-04 11:35:55.63	72.23	7.90	-42.9	-44.1	21.5	0.00e+00	0	37	0	525336576	60	7779
2026-01-04 11:35:56.64	72.40	7.90	-42.9	-44.1	21.5	0.00e+00	0	37	0	527433728	60	7811
2026-01-04 11:35:57.65	72.56	7.89	-43.0	-44.2	21.4	0.00e+00	0	37	0	529530880	60	7910
2026-01-04 11:35:58.66	72.73	7.88	-43.2	-44.4	21.2	0.00e+00	0	37	0	530579456	60	8127
2026-01-04 11:35:59.67	72.90	7.87	-43.5	-44.8	20.9	0.00e+00	0	37	0	532676608	60	8442
2026-01-04 11:36:00.68	73.07	7.86	-43.3	-44.6	21.0	0.00e+00	0	37	0	534773760	60	8234
2026-01-04 11:36:01.70	73.24	7.86	-43.4	-44.7	20.9	0.00e+00	0	37	0	536870912	60	8379
2026-01-04 11:36:02.71	73.40	7.85	-43.4	-44.7	20.9	0.00e+00	0	37	0	538968064	60	8373
2026-01-04 11:36:03.72	73.57	7.84	-43.4	-44.7	20.9	0.00e+00	0	37	0	540016640	60	8377
2026-01-04 11:36:04.73	73.74	7.83	-43.5	-44.8	20.8	0.00e+00	0	37	0	542113792	60	8461
2026-01-04 11:36:05.74	73.90	7.82	-43.4	-44.6	20.9	0.00e+00	0	37	0	544210944	60	8323
2026-01-04 11:36:06.75	74.07	7.81	-43.5	-44.8	20.8	0.00e+00	0	37	0	546308096	60	8472
2026-01-04 11:36:07.76	74.24	7.80	-43.4	-44.7	20.7	0.00e+00	0	37	0	548405248	60	8390
2026-01-04 11:36:08.77	74.40	7.79	-43.6	-45.0	20.7	0.00e+00	0	37	0	549453824	60	8624
2026-01-04 11:36:09.78	74.57	7.78	-43.8	-45.2	20.5	0.00e+00	0	37	0	551550976	60	8858
2026-01-04 11:36:10.79	74.74	7.77	-43.8	-45.1	20.6	0.00e+00	0	37	0	553648128	60	8800
2026-01-04 11:36:11.81	74.91	7.76	-43.6	-44.9	20.7	0.00e+00	0	37	0	555745280	60	8562
2026-01-04 11:36:12.82	75.07	7.75	-43.4	-44.6	21.0	0.00e+00	0	37	0	557842432	60	8328
2026-01-04 11:36:13.83	75.24	7.74	-43.5	-44.8	20.8	0.00e+00	0	37	0	559939584	60	8468
2026-01-04 11:36:14.84	75.40	7.73	-43.4	-44.7	20.9	0.00e+00	0	37	0	560988160	60	8345
2026-01-04 11:36:15.85	75.57	7.72	-43.2	-44.4	21.2	0.00e+00	0	37	0	563085312	60	8105
2026-01-04 11:36:16.86	75.73	7.70	-43.0	-44.2	21.3	0.00e+00	0	37	0	565182464	60	7892
2026-01-04 11:36:17.87	75.90	7.69	-43.2	-44.5	20.9	0.00e+00	0	37	0	567279616	60	8195
2026-01-04 11:36:18.89	76.07	7.68	-43.3	-44.6	20.9	0.00e+00	0	37	0	569376768	60	8265
2026-01-04 11:36:19.90	76.23	7.67	-43.6	-44.9	20.7	0.00e+00	0	37	0	570425344	60	8596
2026-01-04 11:36:20.91	76.40	7.66	-43.5	-44.8	20.9	0.00e+00	0	37	0	572522496	60	8476
2026-01-04 11:36:21.92	76.56	7.64	-43.6	-45.0	20.5	0.00e+00	0	37	0	574619648	60	8641
2026-01-04 11:36:22.93	76.73	7.63	-43.9	-45.3	20.5	0.00e+00	0	37	0	576716800	60	8944
2026-01-04 11:36:23.94	76.89	7.62	-44.0	-45.5	20.2	0.00e+00	0	37	0	578813952	60	9143
2026-01-04 11:36:24.95	77.06	7.61	-44.1	-45.5	20.1	0.00e+00	0	37	0	579862528	60	9224
2026-01-04 11:36:25.96	77.22	7.59	-44.1	-45.5	20.2	0.00e+00	0	37	0	581959680	60	9159
2026-01-04 11:36:26.97	77.39	7.58	-44.4	-45.9	19.9	0.00e+00	0	37	0	584056832	60	9641
2026-01-04 11:36:27.98	77.55	7.57	-44.7	-46.2	19.7	0.00e+00	0	37	0	586153984	60	9947
2026-01-04 11:36:29.00	77.72	7.55	-44.9	-46.5	19.3	0.00e+00	0	37	0	588251136	60	10345
2026-01-04 11:36:30.01	77.88	7.54	-44.7	-46.2	19.5	0.00e+00	0	37	0	589299712	60	9942
2026-01-04 11:36:31.02	78.04	7.52	-44.5	-46.0	19.7	0.00e+00	0	37	0	591396864	60	9699
2026-01-04 11:36:32.03	78.21	7.51	-44.5	-45.9	19.9	0.00e+00	0	37	0	593494016	60	9655
2026-01-04 11:36:33.04	78.37	7.49	-44.2	-45.6	20.3	0.00e+00	0	37	0	595591168	60	9281
2026-01-04 11:36:34.05	78.53	7.48	-44.1	-45.5	20.2	0.00e+00	0	37	0	597688320	60	9167
2026-01-04 11:36:35.06	78.70	7.46	-43.9	-45.3	20.5	0.00e+00	0	37	0	598736896	60	8954
2026-01-04 11:36:36.07	78.86	7.45	-43.9	-45.3	20.6	0.00e+00	0	37	0	600834048	60	8962
2026-01-04 11:36:37.08	79.02	7.43	-43.6	-44.9	20.8	0.00e+00	0	37	0	602931200	60	8569
2026-01-04 11:36:38.09	79.18	7.42	-43.2	-44.5	21.2	0.00e+00	0	37	0	605028352	60	8161
2026-01-04 11:36:39.11	79.35	7.40	-43.3	-44.5	21.1	0.00e+00	0	37	0	607125504	60	8233
2026-01-04 11:36:40.12	79.51	7.39	-42.6	-43.8	21.7	0.00e+00	0	37	0	609222656	60	7543
2026-01-04 11:36:41.13	79.67	7.37	-42.5	-43.7	21.8	0.00e+00	0	37	0	610271232	60	7431
2026-01-04 11:36:42.14	79.84	7.35	-42.2	-43.3	22.2	0.00e+00	0	37	0	612368384	60	7155
2026-01-04 11:36:43.15	80.00	7.34	-42.3	-43.4	22.0	0.00e+00	0	37	0	614465536	60	7194
2026-01-04 11:36:44.16	80.16	7.32	-42.4	-43.5	21.9	0.00e+00	0	37	0	616562688	60	7334
2026-01-04 11:36:45.17	80.32	7.30	-42.5	-43.7	21.9	0.00e+00	0	37	0	618659840	60	7432
2026-01-04 11:36:46.18	80.48	7.29	-42.7	-43.9	21.6	0.00e+00	0	37	0	619708416	60	7667
2026-01-04 11:36:47.19	80.64	7.27	-42.7	-43.9	21.5	0.00e+00	0	37	0	621805568	60	7627
2026-01-04 11:36:48.20	80.80	7.25	-42.7	-43.8	21.7	0.00e+00	0	37	0	623902720	60	7594
2026-01-04 11:36:49.21	80.96	7.23	-42.9	-44.1	21.4	0.00e+00	0	37	0	625999872	60	7833
2026-01-04 11:36:50.23	81.13	7.22	-42.8	-44.0	21.5	0.00e+00	0	37	0	628097024	60	7759
2026-01-04 11:36:51.24	81.29	7.20	-42.7	-43.9	21.8	0.00e+00	0	37	0	629145600	60	7651
2026-01-04 11:36:52.25	81.45	7.18	-42.6	-43.7	21.7	0.00e+00	0	37	0	631242752	60	7483
2026-01-04 11:36:53.26	81.61	7.16	-42.6	-43.8	21.7	0.00e+00	0	37	0	633339904	60	7512
2026-01-04 11:36:54.27	81.77	7.14	-42.5	-43.6	21.9	0.00e+00	0	37	0	635437056	60	7389
2026-01-04 11:36:55.28	81.93	7.13	-42.4	-43.6	21.8	0.00e+00	0	37	0	637534208	60	7372
2026-01-04 11:36:56.29	82.08	7.11	-42.7	-43.8	21.6	0.00e+00	0	37	0	638582784	60	7583
2026-01-04 11:36:57.30	82.24	7.09	-42.6	-43.7	21.6	0.00e+00	0	37	0	640679936	60	7505
2026-01-04 11:36:58.31	82.40	7.07	-42.8	-44.0	21.5	0.00e+00	0	37	0	642777088	60	7756
2026-01-04 11:36:59.32	82.56	7.05	-42.9	-44.1	21.4	0.00e+00	0	37	0	644874240	60	7837
2026-01-04 11:37:00.33	82.72	7.03	-42.9	-44.2	21.4	0.00e+00	0	37	0	646971392	60	7877
2026-01-04 11:37:01.35	82.88	7.01	-43.1	-44.3	21.3	0.00e+00	0	37	0	648019968	60	8002
2026-01-04 11:37:02.36	83.04	6.99	-43.1	-44.4	21.2	0.00e+00	0	37	0	650117120	60	8049
2026-01-04 11:37:03.37	83.20	6.97	-42.9	-44.1	21.5	0.00e+00	0	37	0	652214272	60	7793
2026-01-04 11:37:04.38	83.35	6.95	-42.9	-44.1	21.4	0.00e+00	0	37	0	654311424	60	7835
2026-01-04 11:37:05.39	83.51	6.93	-42.8	-44.1	21.4	0.00e+00	0	37	0	656408576	60	7783
2026-01-04 11:37:06.40	83.67	6.91	-43.0	-44.2	21.3	0.00e+00	0	37	0	658505728	60	7937
2026-01-04 11:37:07.41	83.83	6.89	-42.8	-44.0	21.5	0.00e+00	0	37	0	659554304	60	7771
2026-01-04 11:37:08.42	83.98	6.87	-42.7	-43.9	21.5	0.00e+00	0	37	0	661651456	60	7632
2026-01-04 11:37:09.43	84.14	6.85	-42.4	-43.5	21.9	0.00e+00	0	37	0	663748608	60	7315
2026-01-04 11:37:10.44	84.30	6.83	-42.2	-43.3	22.2	0.00e+00	0	37	0	665845760	60	7146
2026-01-04 11:37:11.46	84.45	6.80	-42.2	-43.3	22.1	0.00e+00	0	37	0	667942912	60	7135
2026-01-04 11:37:12.47	84.61	6.78	-42.0	-43.0	22.3	0.00e+00	0	37	0	668991488	60	6907
2026-01-04 11:37:13.48	84.76	6.76	-42.2	-43.3	22.1	0.00e+00	0	37	0	671088640	60	7109
2026-01-04 11:37:14.49	84.92	6.74	-42.4	-43.5	21.9	0.00e+00	0	37	0	673185792	60	7318
2026-01-04 11:37:15.50	85.08	6.72	-42.5	-43.6	21.9	0.00e+00	0	37	0	675282944	60	7416
2026-01-04 11:37:16.51	85.23	6.69	-42.9	-44.1	21.3	0.00e+00	0	37	0	677380096	60	7785
2026-01-04 11:37:17.52	85.39	6.67	-43.2	-44.5	21.0	0.00e+00	0	37	0	678428672	60	8154
2026-01-04 11:37:18.53	85.54	6.65	-43.2	-44.5	21.0	0.00e+00	0	37	0	680525824	60	8144
2026-01-04 11:37:19.54	85.69	6.63	-43.2	-44.4	21.2	0.00e+00	0	37	0	682622976	60	8087
2026-01-04 11:37:20.56	85.85	6.60	-43.0	-44.2	21.1	0.00e+00	0	37	0	684720128	60	7907
2026-01-04 11:37:21.57	86.00	6.58	-43.2	-44.5	20.8	0.00e+00	0	37	0	686817280	60	8208
2026-01-04 11:37:22.58	86.16	6.56	-42.9	-44.1	21.2	0.00e+00	0	37	0	687865856	60	7802
2026-01-04 11:37:23.59	86.31	6.54	-43.0	-44.3	21.1	0.00e+00	0	37	0	689963008	60	7965
2026-01-04 11:37:24.60	86.47	6.51	-43.1	-44.3	21.3	0.00e+00	0	37	0	692060160	60	7997
2026-01-04 11:37:25.61	86.62	6.49	-43.0	-44.3	21.2	0.00e+00	0	37	0	694157312	60	7981
2026-01-04 11:37:26.62	86.77	6.46	-43.2	-44.5	20.9	0.00e+00	0	37	0	696254464	60	8195
2026-01-04 11:37:27.63	86.92	6.44	-43.2	-44.5	20.9	0.00e+00	0	37	0	697303040	60	8184
2026-01-04 11:37:28.64	87.08	6.42	-43.3	-44.6	20.8	0.00e+00	0	37	0	699400192	60	8313
2026-01-04 11:37:29.65	87.23	6.39	-43.3	-44.6	20.9	0.00e+00	0	37	0	701497344	60	8283
2026-01-04 11:37:30.67	87.38	6.37	-43.6	-44.9	20.7	0.00e+00	0	37	0	703594496	60	8562
2026-01-04 11:37:31.68	87.53	6.34	-43.6	-44.9	20.8	0.00e+00	0	37	0	705691648	60	8568
2026-01-04 11:37:32.69	87.68	6.32	-43.6	-45.0	20.4	0.00e+00	0	37	0	706740224	60	8640
2026-01-04 11:37:33.70	87.84	6.29	-44.2	-45.6	20.0	0.00e+00	0	37	0	708837376	60	9324
2026-01-04 11:37:34.71	87.99	6.27	-44.4	-45.8	19.8	0.00e+00	0	37	0	710934528	60	9560
2026-01-04 11:37:35.72	88.14	6.25	-44.6	-46.1	19.5	0.00e+00	0	37	0	713031680	60	9865
2026-01-04 11:37:36.73	88.29	6.22	-44.9	-46.5	19.3	0.00e+00	0	37	0	715128832	60	10247
2026-01-04 11:37:37.74	88.44	6.19	-44.8	-46.4	19.2	0.00e+00	0	37	0	717225984	60	10243
2026-01-04 11:37:38.75	88.59	6.17	-44.7	-46.2	19.4	0.00e+00	0	37	0	718274560	60	9959
2026-01-04 11:37:39.76	88.74	6.14	-44.7	-46.3	19.4	0.00e+00	0	37	0	720371712	60	10034
2026-01-04 11:37:40.78	88.89	6.12	-44.6	-46.2	19.5	0.00e+00	0	37	0	722468864	60	9907
2026-01-04 11:37:41.79	89.04	6.09	-44.7	-46.3	19.5	0.00e+00	0	37	0	724566016	60	10054
2026-01-04 11:37:42.80	89.19	6.07	-44.7	-46.3	19.3	0.00e+00	0	37	0	726663168	60	10051
2026-01-04 11:37:43.81	89.33	6.04	-44.8	-46.4	19.1	0.00e+00	0	37	0	727711744	60	10200
2026-01-04 11:37:44.82	89.48	6.01	-45.0	-46.7	18.8	0.00e+00	0	37	0	729808896	60	10507
2026-01-04 11:37:45.83	89.63	5.99	-45.0	-46.7	19.0	0.00e+00	0	37	0	731906048	60	10497
2026-01-04 11:37:46.84	89.78	5.96	-44.9	-46.6	19.2	0.00e+00	0	37	0	734003200	60	10409
2026-01-04 11:37:47.85	89.93	5.93	-44.9	-46.6	19.1	0.00e+00	0	37	0	736100352	60	10438
2026-01-04 11:37:48.86	90.07	5.91	-44.8	-46.3	19.3	0.00e+00	0	37	0	737148928	60	10104
2026-01-04 11:37:49.87	90.22	5.88	-44.7	-46.3	19.4	0.00e+00	0	37	0	739246080	60	10015
2026-01-04 11:37:50.89	90.37	5.85	-44.4	-45.8	19.8	0.00e+00	0	37	0	741343232	60	9544
2026-01-04 11:37:51.90	90.51	5.83	-44.3	-45.8	19.8	0.00e+00	0	37	0	743440384	60	9539
2026-01-04 11:37:52.91	90.66	5.80	-44.5	-46.0	19.4	0.00e+00	0	37	0	745537536	60	9772
2026-01-04 11:37:53.92	90.81	5.77	-44.5	-46.1	19.5	0.00e+00	0	37	0	746586112	60	9786
2026-01-04 11:37:54.93	90.95	5.74	-44.3	-45.9	19.7	0.00e+00	0	37	0	748683264	60	9586
2026-01-04 11:37:55.94	91.10	5.72	-44.6	-46.2	19.4	0.00e+00	0	37	0	750780416	60	9937
2026-01-04 11:37:56.95	91.24	5.69	-44.7	-46.4	19.3	0.00e+00	0	37	0	752877568	60	10147
2026-01-04 11:37:57.96	91.39	5.66	-44.9	-46.7	19.0	0.00e+00	0	37	0	754974720	60	10494
2026-01-04 11:37:58.97	91.53	5.63	-45.2	-47.0	18.7	0.00e+00	0	37	0	757071872	60	10895
2026-01-04 11:37:59.98	91.68	5.61	-45.2	-46.9	18.8	0.00e+00	0	37	0	758120448	60	10797
2026-01-04 11:38:00.99	91.82	5.58	-45.3	-47.0	18.6	0.00e+00	0	37	0	760217600	60	10954
2026-01-04 11:38:02.01	91.97	5.55	-45.2	-46.9	18.7	0.00e+00	0	37	0	762314752	60	10789
2026-01-04 11:38:03.02	92.11	5.52	-45.3	-47.1	18.7	0.00e+00	0	37	0	764411904	60	10994
2026-01-04 11:38:04.03	92.25	5.49	-45.5	-47.3	18.4	0.00e+00	0	37	0	766509056	60	11243
2026-01-04 11:38:05.04	92.40	5.46	-45.6	-47.5	18.1	0.00e+00	0	37	0	767557632	60	11590
2026-01-04 11:38:06.05	92.54	5.43	-45.7	-47.6	18.0	0.00e+00	0	37	0	769654784	60	11742
2026-01-04 11:38:07.06	92.68	5.41	-45.9	-47.8	17.9	0.00e+00	0	37	0	771751936	60	12004
2026-01-04 11:38:08.07	92.82	5.38	-46.3	-48.4	17.3	0.00e+00	0	37	0	773849088	60	12889
2026-01-04 11:38:09.09	92.97	5.35	-46.4	-48.5	17.2	0.00e+00	0	37	0	775946240	60	12995
2026-01-04 11:38:10.10	93.11	5.32	-46.5	-48.8	16.9	0.00e+00	0	37	0	776994816	60	13376
2026-01-04 11:38:11.11	93.25	5.29	-46.6	-48.9	16.8	0.00e+00	0	37	0	779091968	60	13542
2026-01-04 11:38:12.12	93.39	5.26	-46.9	-49.3	16.3	0.00e+00	0	37	0	781189120	60	14289
2026-01-04 11:38:13.13	93.53	5.23	-46.7	-49.1	16.6	0.00e+00	0	37	0	783286272	60	13912
2026-01-04 11:38:14.14	93.67	5.20	-46.5	-48.9	16.9	0.00e+00	0	37	0	785383424	60	13534
2026-01-04 11:38:15.15	93.81	5.17	-46.5	-48.8	16.9	0.00e+00	0	37	0	786432000	60	13455
2026-01-04 11:38:16.16	93.95	5.14	-46.3	-48.5	17.4	0.00e+00	0	37	0	788529152	60	12931
2026-01-04 11:38:17.17	94.09	5.11	-45.8	-47.9	17.7	0.00e+00	0	37	0	790626304	60	12060
2026-01-04 11:38:18.19	94.24	5.08	-45.6	-47.5	18.1	0.00e+00	0	37	0	792723456	60	11519
2026-01-04 11:38:19.20	94.37	5.05	-45.6	-47.5	18.1	0.00e+00	0	37	0	794820608	60	11554
2026-01-04 11:38:20.21	94.51	5.02	-45.7	-47.6	18.0	0.00e+00	0	37	0	796917760	60	11705
2026-01-04 11:38:21.22	94.65	4.99	-45.5	-47.4	18.2	0.00e+00	0	37	0	797966336	60	11372
2026-01-04 11:38:22.23	94.79	4.96	-45.5	-47.3	18.3	0.00e+00	0	37	0	800063488	60	11322
2026-01-04 11:38:23.24	94.93	4.93	-45.9	-47.9	17.8	0.00e+00	0	37	0	802160640	60	12047
2026-01-04 11:38:24.25	95.07	4.90	-45.9	-47.9	17.7	0.00e+00	0	37	0	804257792	60	12125
2026-01-04 11:38:25.26	95.20	4.87	-45.6	-47.6	18.0	0.00e+00	0	37	0	806354944	60	11705
2026-01-04 11:38:26.27	95.34	4.83	-45.9	-48.0	17.7	0.00e+00	0	37	0	807403520	60	12252
2026-01-04 11:38:27.28	95.48	4.80	-45.7	-47.7	17.9	0.00e+00	0	37	0	809500672	60	11893
2026-01-04 11:38:28.30	95.62	4.77	-46.1	-48.2	17.5	0.00e+00	0	37	0	811597824	60	12601
2026-01-04 11:38:29.31	95.75	4.74	-46.2	-48.5	17.2	0.00e+00	0	37	0	813694976	60	12933
2026-01-04 11:38:30.32	95.89	4.71	-46.2	-48.4	17.3	0.00e+00	0	37	0	815792128	60	12776
2026-01-04 11:38:31.33	96.03	4.68	-46.2	-48.5	17.2	0.00e+00	0	37	0	816840704	60	12906
2026-01-04 11:38:32.34	96.16	4.65	-46.0	-48.1	17.5	0.00e+00	0	37	0	818937856	60	12341
2026-01-04 11:38:33.35	96.30	4.61	-46.0	-48.2	17.4	0.00e+00	0	37	0	821035008	60	12499
2026-01-04 11:38:34.36	96.43	4.58	-46.0	-48.1	17.4	0.00e+00	0	37	0	823132160	60	12407
2026-01-04 11:38:35.37	96.57	4.55	-46.2	-48.3	17.3	0.00e+00	0	37	0	825229312	60	12688
2026-01-04 11:38:36.39	96.70	4.52	-45.9	-47.9	17.7	0.00e+00	0	37	0	826277888	60	12118
2026-01-04 11:38:37.40	96.84	4.49	-45.6	-47.5	18.0	0.00e+00	0	37	0	828375040	60	11604
2026-01-04 11:38:38.41	96.97	4.45	-45.6	-47.6	17.9	0.00e+00	0	37	0	830472192	60	11745
2026-01-04 11:38:39.42	97.10	4.42	-45.4	-47.4	18.1	0.00e+00	0	37	0	832569344	60	11382
2026-01-04 11:38:40.43	97.24	4.39	-45.2	-47.0	18.5	0.00e+00	0	37	0	834666496	60	10860
2026-01-04 11:38:41.44	97.37	4.36	-45.0	-46.7	18.6	0.00e+00	0	37	0	835715072	60	10574
2026-01-04 11:38:42.45	97.50	4.33	-45.2	-47.0	18.5	0.00e+00	0	37	0	837812224	60	10908
2026-01-04 11:38:43.46	97.64	4.29	-45.1	-46.9	18.6	0.00e+00	0	37	0	839909376	60	10797
2026-01-04 11:38:44.47	97.77	4.26	-45.3	-47.1	18.3	0.00e+00	0	37	0	842006528	60	11018
2026-01-04 11:38:45.48	97.90	4.23	-45.8	-47.8	17.7	0.00e+00	0	37	0	844103680	60	11949
2026-01-04 11:38:46.50	98.03	4.19	-45.6	-47.5	18.1	0.00e+00	0	37	0	845152256	60	11556
2026-01-04 11:38:47.51	98.16	4.16	-45.8	-47.8	17.7	0.00e+00	0	37	0	847249408	60	12010
2026-01-04 11:38:48.52	98.30	4.13	-46.0	-48.1	17.5	0.00e+00	0	37	0	849346560	60	12320
2026-01-04 11:38:49.53	98.43	4.10	-45.9	-48.0	17.5	0.00e+00	0	37	0	851443712	60	12275
2026-01-04 11:38:50.54	98.56	4.06	-45.9	-48.2	17.3	0.00e+00	0	37	0	853540864	60	12480
2026-01-04 11:38:51.55	98.69	4.03	-46.0	-48.2	17.2	0.00e+00	0	37	0	855638016	60	12590
2026-01-04 11:38:52.56	98.82	4.00	-46.0	-48.3	17.2	0.00e+00	0	37	0	856686592	60	12610
2026-01-04 11:38:53.57	98.95	3.96	-45.7	-47.8	17.7	0.00e+00	0	37	0	858783744	60	11930
2026-01-04 11:38:54.59	99.08	3.93	-45.6	-47.5	17.8	0.00e+00	0	37	0	860880896	60	11614
2026-01-04 11:38:55.60	99.21	3.90	-45.3	-47.2	18.3	0.00e+00	0	37	0	862978048	60	11158
2026-01-04 11:38:56.61	99.34	3.86	-45.1	-46.9	18.4	0.00e+00	0	37	0	865075200	60	10778
2026-01-04 11:38:57.62	99.46	3.83	-44.9	-46.7	18.6	0.00e+00	0	37	0	866123776	60	10562
2026-01-04 11:38:58.63	99.59	3.79	-44.6	-46.3	19.0	0.00e+00	0	37	0	868220928	60	10045
2026-01-04 11:38:59.64	99.72	3.76	-44.5	-46.2	19.0	0.00e+00	0	37	0	870318080	60	9947
2026-01-04 11:39:00.65	99.85	3.73	-44.3	-45.9	19.2	0.00e+00	0	37	0	872415232	60	9654
2026-01-04 11:39:01.66	99.98	3.69	-44.7	-46.4	18.6	0.00e+00	0	37	0	874512384	60	10229
2026-01-04 11:39:02.67	100.10	3.66	-44.7	-46.4	18.6	0.00e+00	0	37	0	875560960	60	10180
2026-01-04 11:39:03.68	100.23	3.63	-45.0	-46.8	18.2	0.00e+00	0	37	0	877658112	60	10625
2026-01-04 11:39:04.70	100.36	3.59	-44.5	-46.1	18.9	0.00e+00	0	37	0	879755264	60	9863
2026-01-04 11:39:05.71	100.48	3.56	-44.8	-46.6	18.6	0.00e+00	0	37	0	881852416	60	10461
2026-01-04 11:39:06.72	100.61	3.52	-45.0	-46.9	18.3	0.00e+00	0	37	0	883949568	60	10820
2026-01-04 11:39:07.73	100.73	3.49	-44.9	-46.8	18.3	0.00e+00	0	37	0	884998144	60	10697
2026-01-04 11:39:08.74	100.86	3.45	-44.9	-47.1	18.1	0.00e+00	0	37	0	887095296	60	10988
2026-01-04 11:39:09.75	100.99	3.42	-44.6	-46.7	18.3	0.00e+00	0	37	0	889192448	60	10521
2026-01-04 11:39:10.76	101.11	3.38	-44.6	-47.2	17.8	0.00e+00	0	37	0	891289600	60	11201
2026-01-04 11:39:11.77	101.24	3.35	-44.5	-47.2	17.8	0.00e+00	0	37	0	893386752	60	11172
2026-01-04 11:39:12.78	101.36	3.31	-44.4	-47.0	17.9	0.00e+00	0	37	0	894435328	60	10946
2026-01-04 11:39:13.80	101.48	3.28	-45.3	-47.5	17.6	0.00e+00	0	37	0	896532480	60	11573
2026-01-04 11:39:14.81	101.61	3.24	-45.4	-47.5	17.6	0.00e+00	0	37	0	898629632	60	11597
2026-01-04 11:39:15.82	101.73	3.21	-45.6	-47.7	17.3	0.00e+00	0	37	0	900726784	60	11836
2026-01-04 11:39:16.83	101.86	3.18	-45.6	-47.7	17.3	0.00e+00	0	37	0	902823936	60	11780
2026-01-04 11:39:17.84	101.98	3.14	-45.4	-47.5	17.6	0.00e+00	0	37	0	904921088	60	11542
2026-01-04 11:39:18.85	102.10	3.10	-45.4	-47.7	17.3	0.00e+00	0	37	0	905969664	60	11777
2026-01-04 11:39:19.86	102.22	3.07	-45.3	-47.3	17.8	0.00e+00	0	37	0	908066816	60	11335
2026-01-04 11:39:20.87	102.35	3.03	-51.5	-67.0	3.6	1.06e+00	0	37	104	909115392	60	108568
2026-01-04 11:39:21.88	102.47	3.00	-51.9	-67.4	3.6	1.51e+00	0	37	104	909115392	60	114358
2026-01-04 11:39:22.89	102.59	2.96	-52.1	-67.6	3.6	1.51e+00	0	37	104	909115392	60	116923
2026-01-04 11:39:23.90	102.71	2.93	-52.3	-67.8	3.6	1.51e+00	0	37	104	909115392	60	119697
2026-01-04 11:39:24.92	102.83	2.89	-52.3	-67.9	3.6	1.51e+00	0	37	104	909115392	60	121114
2026-01-04 11:39:25.93	102.95	2.86	-52.4	-67.9	3.6	1.51e+00	0	37	104	909115392	60	121486
2026-01-04 11:39:26.94	103.07	2.82	-52.4	-67.9	3.6	1.51e+00	0	37	104	909115392	60	121251
2026-01-04 11:39:27.95	103.19	2.79	-52.4	-67.9	3.6	1.51e+00	0	37	104	909115392	60	121532
2026-01-04 11:39:28.96	103.31	2.75	-52.5	-67.9	3.6	1.51e+00	0	37	104	909115392	60	121238
2026-01-04 11:39:29.97	103.43	2.71	-52.5	-68.0	3.6	1.51e+00	0	37	104	909115392	60	122033
2026-01-04 11:39:30.98	103.55	2.68	-52.5	-67.9	3.5	1.51e+00	0	37	104	909115392	60	121598
2026-01-04 11:39:32.00	103.67	2.64	-52.4	-67.9	3.6	1.51e+00	0	38	104	909115392	60	121771
2026-01-04 11:39:33.01	103.79	2.61	-52.5	-68.0	3.6	1.51e+00	0	38	104	909115392	60	122027
2026-01-04 11:39:34.02	103.91	2.57	-52.6	-68.0	3.6	1.51e+00	0	38	104	909115392	60	123024
2026-01-04 11:39:35.03	104.03	2.54	-52.6	-68.0	3.6	1.51e+00	0	38	104	909115392	60	122939
2026-01-04 11:39:36.04	104.15	2.50	-52.5	-68.0	3.6	1.51e+00	0	38	104	909115392	60	122591
2026-01-04 11:39:37.05	104.26	2.46	-52.5	-68.0	3.6	1.51e+00	0	38	104	909115392	60	122382
2026-01-04 11:39:38.06	104.38	2.43	-52.6	-68.1	3.6	1.51e+00	0	37	104	909115392	60	123210
2026-01-04 11:39:39.07	104.50	2.39	-52.8	-68.3	3.6	1.51e+00	0	38	104	909115392	60	126793
2026-01-04 11:39:40.08	104.61	2.35	-52.8	-68.2	3.6	1.51e+00	0	38	104	909115392	60	125971
2026-01-04 11:39:41.09	104.73	2.32	-52.7	-68.1	3.6	1.51e+00	0	37	104	909115392	60	124458
2026-01-04 11:39:42.11	104.85	2.28	-52.7	-68.1	3.6	1.51e+00	0	37	104	909115392	60	124517
2026-01-04 11:39:43.12	104.96	2.25	-52.7	-68.2	3.5	1.51e+00	0	37	104	909115392	60	125085
2026-01-04 11:39:44.13	105.08	2.21	-52.7	-68.2	3.6	1.51e+00	0	37	104	909115392	60	124773
2026-01-04 11:39:45.14	105.20	2.17	-52.6	-68.1	3.6	1.51e+00	0	38	104	909115392	60	123831
2026-01-04 11:39:46.15	105.31	2.14	-52.7	-68.1	3.6	1.51e+00	0	37	104	909115392	60	124586
2026-01-04 11:39:47.16	105.43	2.10	-52.8	-68.3	3.6	1.51e+00	0	38	104	909115392	60	126688
2026-01-04 11:39:48.17	105.54	2.06	-52.8	-68.2	3.6	1.51e+00	0	38	104	909115392	60	125930
2026-01-04 11:39:49.18	105.65	2.03	-52.8	-68.3	3.6	1.51e+00	0	37	104	909115392	60	126370
2026-01-04 11:39:50.19	105.77	1.99	-52.9	-68.4	3.6	1.51e+00	0	38	104	909115392	60	127775
2026-01-04 11:39:51.20	105.88	1.95	-53.1	-68.5	3.6	1.51e+00	0	37	104	909115392	60	130389
2026-01-04 11:39:52.21	106.00	1.92	-53.2	-68.6	3.6	1.51e+00	0	37	104	909115392	60	131556
2026-01-04 11:39:53.22	106.11	1.88	-52.8	-68.3	3.6	1.51e+00	0	38	104	909115392	60	127012
2026-01-04 11:39:54.23	106.22	1.84	-53.0	-68.4	3.6	1.51e+00	0	37	104	909115392	60	128896
2026-01-04 11:39:55.24	106.34	1.81	-52.8	-68.3	3.6	1.51e+00	0	38	104	909115392	60	126955
2026-01-04 11:39:56.26	106.45	1.77	-52.7	-68.2	3.6	1.51e+00	0	38	104	909115392	60	125505
2026-01-04 11:39:57.27	106.56	1.73	-52.9	-68.4	3.6	1.51e+00	0	38	104	909115392	60	128245
2026-01-04 11:39:58.28	106.67	1.69	-52.8	-68.3	3.6	1.51e+00	0	38	104	909115392	60	126997
2026-01-04 11:39:59.29	106.78	1.66	-52.8	-68.2	3.6	1.51e+00	0	38	104	909115392	60	125787
2026-01-04 11:40:00.30	106.90	1.62	-52.7	-68.2	3.6	1.51e+00	0	38	104	909115392	60	125583
2026-01-04 11:40:01.31	107.01	1.58	-53.1	-68.6	3.6	1.51e+00	0	37	104	909115392	60	130705
2026-01-04 11:40:02.32	107.12	1.55	-53.2	-68.6	3.6	1.51e+00	0	38	104	909115392	60	131828
2026-01-04 11:40:03.33	107.23	1.51	-53.0	-68.4	3.5	1.51e+00	0	38	104	909115392	60	128890
2026-01-04 11:40:04.34	107.34	1.47	-53.1	-68.6	3.6	1.51e+00	0	38	104	909115392	60	130775
2026-01-04 11:40:05.35	107.45	1.43	-53.2	-68.7	3.6	1.51e+00	0	38	104	909115392	60	133208
2026-01-04 11:40:06.36	107.56	1.40	-53.3	-68.8	3.6	1.51e+00	0	38	104	909115392	60	134967
2026-01-04 11:40:07.37	107.67	1.36	-53.1	-68.6	3.6	1.51e+00	0	37	104	909115392	60	130836
2026-01-04 11:40:08.39	107.78	1.32	-53.1	-68.6	3.6	1.51e+00	0	38	104	909115392	60	130942
2026-01-04 11:40:09.40	107.89	1.28	-53.0	-68.5	3.6	1.51e+00	0	38	104	909115392	60	129108
2026-01-04 11:40:10.41	108.00	1.25	-53.2	-68.7	3.6	1.51e+00	0	38	104	909115392	60	132733
2026-01-04 11:40:11.42	108.11	1.21	-53.1	-68.6	3.6	1.51e+00	0	38	104	909115392	60	131038
2026-01-04 11:40:12.43	108.21	1.17	-53.4	-68.9	3.6	1.51e+00	0	38	104	909115392	60	135622
2026-01-04 11:40:13.44	108.32	1.13	-53.2	-68.7	3.6	1.51e+00	0	38	104	909115392	60	132796
2026-01-04 11:40:14.45	108.43	1.10	-53.3	-68.8	3.6	1.51e+00	0	37	104	909115392	60	133901
2026-01-04 11:40:15.46	108.54	1.06	-53.1	-68.6	3.5	1.51e+00	0	37	104	909115392	60	130657
2026-01-04 11:40:16.47	108.64	1.02	-53.3	-68.8	3.6	1.51e+00	0	38	104	909115392	60	134323
2026-01-04 11:40:17.48	108.75	0.98	-53.2	-68.7	3.6	1.51e+00	0	38	104	909115392	60	132371
2026-01-04 11:40:18.49	108.86	0.95	-53.3	-68.8	3.6	1.51e+00	0	38	104	909115392	60	134690
2026-01-04 11:40:19.51	108.96	0.91	-53.2	-68.7	3.6	1.51e+00	0	38	104	909115392	60	132886
2026-01-04 11:40:20.52	109.07	0.87	-53.1	-68.5	3.6	1.51e+00	0	38	104	909115392	60	129942
2026-01-04 11:40:21.53	109.18	0.83	-53.3	-68.8	3.6	1.51e+00	0	37	104	909115392	60	133797
2026-01-04 11:40:22.54	109.28	0.79	-53.0	-68.5	3.6	1.51e+00	0	38	104	909115392	60	130130
2026-01-04 11:40:23.55	109.39	0.76	-53.4	-68.9	3.5	1.51e+00	0	38	104	909115392	60	136561
2026-01-04 11:40:24.56	109.49	0.72	-53.3	-68.8	3.6	1.51e+00	0	38	104	909115392	60	133795
2026-01-04 11:40:25.57	109.60	0.68	-53.3	-68.8	3.6	1.51e+00	0	38	104	909115392	60	133620
2026-01-04 11:40:26.58	109.70	0.64	-53.0	-68.5	3.6	1.51e+00	0	38	104	909115392	60	129464
2026-01-04 11:40:27.59	109.81	0.61	-53.4	-68.8	3.6	1.51e+00	0	38	104	909115392	60	134512
2026-01-04 11:40:28.61	109.91	0.57	-53.7	-69.1	3.6	1.51e+00	0	37	104	909115392	60	139546
2026-01-04 11:40:29.62	110.02	0.53	-53.3	-68.8	3.6	1.51e+00	0	38	104	909115392	60	134330
2026-01-04 11:40:30.63	110.12	0.49	-53.5	-69.0	3.5	1.51e+00	0	38	104	909115392	60	137988
2026-01-04 11:40:31.64	110.22	0.45	-53.1	-68.5	3.6	1.51e+00	0	38	104	909115392	60	130136
2026-01-04 11:40:32.65	110.33	0.42	-53.4	-68.9	3.5	1.51e+00	0	38	104	909115392	60	135260
2026-01-04 11:40:33.66	110.43	0.38	-53.5	-68.9	3.6	1.51e+00	0	38	104	909115392	60	136558
2026-01-04 11:40:34.67	110.53	0.34	-53.0	-68.5	3.6	1.51e+00	0	38	104	909115392	60	129116
2026-01-04 11:40:35.68	110.63	0.30	-53.6	-69.0	3.6	1.51e+00	0	38	104	909115392	60	138087
2026-01-04 11:40:36.69	110.74	0.26	-53.9	-69.4	3.6	1.51e+00	0	38	104	909115392	60	143084
2026-01-04 11:40:37.70	110.84	0.22	-53.4	-68.9	3.6	1.51e+00	0	38	104	909115392	60	136022
2026-01-04 11:40:38.72	110.94	0.19	-53.8	-69.2	3.6	1.51e+00	0	37	104	909115392	60	141112
2026-01-04 11:40:39.72	111.04	0.15	-53.6	-69.1	3.6	1.51e+00	0	38	104	909115392	60	138359
2026-01-04 11:40:40.74	111.14	0.11	-53.4	-68.8	3.6	1.51e+00	0	37	104	909115392	60	135007
2026-01-04 11:40:41.75	111.24	0.07	-53.8	-69.4	3.6	1.51e+00	0	37	104	909115392	60	143276
2026-01-04 11:40:42.76	111.35	0.03	-53.4	-68.8	3.6	1.51e+00	0	37	104	909115392	60	134401
2026-01-04 11:40:43.77	111.45	-0.01	-53.3	-68.7	3.6	1.51e+00	0	37	104	909115392	60	132855
2026-01-04 11:40:44.78	111.55	-0.04	-52.9	-68.4	3.6	1.51e+00	0	38	104	909115392	60	127574
2026-01-04 11:40:45.79	111.65	-0.08	-53.3	-68.8	3.6	1.51e+00	0	37	104	909115392	60	133940

#Closed at: 2026-01-04 11:40:46
#Recorded file [909 MB]: D:/lorett/data/35034_260104_142956.dat