passes_logs/2026/01/04/R4.6S_Anadyr_2ch/R4.6S_Anadyr_2ch__20260104_181520_AQUA_rec.log

#Pass ID: 20260104_181520_AQUA
#Satellite: AQUA
#Configuration: AQUA
#almurnet v.1.7.20251203
#Start time: 2026-01-04 18:15:23

#Version: 2.2.20231116
#Station: R4.6S_Anadyr_2ch
#Location: 177.4865 lon 64.73178 lat
#TLE: 1 27424U 02022A   25351.00450321  .00000925  00000+0  19503-3 0  9992
#TLE: 2 27424  98.4041 311.9529 0001248 113.7180 322.1616 14.61819266256652

#Time	Az	El	Level	Level2	SNR	BER	BlckErr	Temp	State	Recorded	gain1	gain2
2026-01-04 18:15:23.47	23.90	0.17	-53.2	-69.7	3.3	3.02e+01	0	28	0	0	60	157910
2026-01-04 18:15:24.47	23.84	0.23	-53.6	-71.6	3.5	3.02e+01	0	28	104	0	60	196321
2026-01-04 18:15:25.48	23.79	0.28	-52.9	-70.8	3.5	3.02e+01	0	28	104	0	60	179429
2026-01-04 18:15:26.50	23.73	0.34	-53.1	-71.1	3.5	3.02e+01	0	28	104	0	60	185496
2026-01-04 18:15:27.51	23.68	0.40	-53.7	-71.6	3.6	3.02e+01	0	28	104	0	60	197693
2026-01-04 18:15:28.52	23.62	0.46	-54.0	-71.9	3.5	3.02e+01	0	28	104	0	60	205314
2026-01-04 18:15:29.53	23.57	0.52	-54.3	-72.2	3.6	3.02e+01	0	28	104	0	60	211242
2026-01-04 18:15:30.54	23.51	0.58	-52.4	-70.3	3.5	3.02e+01	0	28	104	0	60	170140
2026-01-04 18:15:31.55	23.46	0.63	-53.8	-71.7	3.5	3.02e+01	0	28	104	0	60	199146
2026-01-04 18:15:32.56	23.40	0.69	-54.1	-71.9	3.6	3.02e+01	0	28	104	0	60	204070
2026-01-04 18:15:33.57	23.34	0.75	-52.9	-70.7	3.6	3.02e+01	0	28	104	0	60	178756
2026-01-04 18:15:34.58	23.29	0.81	-52.5	-70.4	3.5	3.02e+01	0	28	104	0	60	171236
2026-01-04 18:15:35.59	23.23	0.87	-53.7	-71.6	3.5	3.02e+01	0	28	104	0	60	197956
2026-01-04 18:15:36.60	23.17	0.93	-53.4	-71.3	3.5	3.02e+01	0	29	104	0	60	189918
2026-01-04 18:15:37.61	23.11	0.99	-53.8	-71.7	3.5	3.02e+01	0	28	104	0	60	199499
2026-01-04 18:15:38.63	23.05	1.05	-52.6	-70.5	3.5	3.02e+01	0	28	104	0	60	173990
2026-01-04 18:15:39.64	23.00	1.11	-53.3	-71.3	3.5	3.02e+01	0	28	104	0	60	189647
2026-01-04 18:15:40.65	22.94	1.17	-53.2	-71.2	3.5	3.02e+01	0	28	104	0	60	187579
2026-01-04 18:15:41.66	22.88	1.22	-52.8	-70.8	3.5	3.02e+01	0	29	104	0	60	178992
2026-01-04 18:15:42.67	22.82	1.28	-53.3	-71.3	3.5	3.02e+01	0	29	104	0	60	189656
2026-01-04 18:15:43.68	22.76	1.34	-53.9	-71.8	3.5	3.02e+01	0	29	104	0	60	202494
2026-01-04 18:15:44.69	22.70	1.40	-52.6	-70.5	3.5	3.02e+01	0	29	104	0	60	174754
2026-01-04 18:15:45.70	22.64	1.46	-52.8	-70.6	3.5	3.02e+01	0	29	104	0	60	176259
2026-01-04 18:15:46.71	22.58	1.52	-52.3	-70.3	3.5	3.02e+01	0	29	104	0	60	169486
2026-01-04 18:15:47.73	22.52	1.58	-53.4	-71.3	3.6	3.02e+01	0	29	104	0	60	191714
2026-01-04 18:15:48.74	22.46	1.64	-53.4	-71.3	3.6	3.02e+01	0	29	104	0	60	190923
2026-01-04 18:15:49.75	22.40	1.70	-53.7	-71.6	3.5	3.02e+01	0	29	104	0	60	197545
2026-01-04 18:15:50.76	22.33	1.77	-52.9	-70.8	3.5	3.02e+01	0	29	104	0	60	180550
2026-01-04 18:15:51.77	22.27	1.83	-53.3	-71.2	3.5	3.02e+01	0	29	104	0	60	188154
2026-01-04 18:15:52.78	22.21	1.89	-53.5	-71.4	3.5	3.02e+01	0	29	104	0	60	193543
2026-01-04 18:15:53.79	22.15	1.95	-52.5	-70.5	3.5	3.02e+01	0	29	104	0	60	173383
2026-01-04 18:15:54.80	22.08	2.01	-52.8	-70.8	3.5	3.02e+01	0	29	104	0	60	179645
2026-01-04 18:15:55.81	22.02	2.07	-53.1	-71.0	3.5	3.02e+01	0	29	104	0	60	184741
2026-01-04 18:15:56.82	21.96	2.13	-52.5	-70.4	3.5	3.02e+01	0	29	104	0	60	171981
2026-01-04 18:15:57.84	21.89	2.19	-53.8	-71.7	3.5	3.02e+01	0	29	104	0	60	199356
2026-01-04 18:15:58.85	21.83	2.25	-52.6	-70.5	3.5	3.02e+01	0	29	104	0	60	174112
2026-01-04 18:15:59.86	21.77	2.32	-53.0	-70.9	3.5	3.02e+01	0	29	104	0	60	182160
2026-01-04 18:16:00.87	21.70	2.38	-52.7	-70.6	3.5	3.02e+01	0	29	104	0	60	176260
2026-01-04 18:16:01.88	21.64	2.44	-53.1	-71.0	3.5	3.02e+01	0	29	104	0	60	184188
2026-01-04 18:16:02.89	21.57	2.50	-53.2	-71.1	3.5	3.02e+01	0	29	104	0	60	185788
2026-01-04 18:16:03.90	21.51	2.56	-52.7	-70.6	3.5	3.02e+01	0	29	104	0	60	176632
2026-01-04 18:16:04.91	21.44	2.62	-53.0	-70.9	3.5	3.02e+01	0	29	104	0	60	182209
2026-01-04 18:16:05.92	21.37	2.69	-52.7	-70.6	3.4	3.02e+01	0	29	104	0	60	175966
2026-01-04 18:16:06.94	21.31	2.75	-53.1	-71.0	3.5	3.02e+01	0	29	104	0	60	183690
2026-01-04 18:16:07.95	21.24	2.81	-52.6	-70.6	3.5	3.02e+01	0	29	104	0	60	176165
2026-01-04 18:16:08.96	21.17	2.87	-53.7	-71.7	3.5	3.02e+01	0	29	104	0	60	199400
2026-01-04 18:16:09.97	21.10	2.94	-53.0	-70.8	3.5	3.02e+01	0	29	104	0	60	180553
2026-01-04 18:16:10.98	21.04	3.00	-52.5	-70.3	3.5	3.02e+01	0	29	104	0	60	170443
2026-01-04 18:16:11.99	20.97	3.06	-51.9	-69.7	3.5	3.02e+01	0	29	104	0	60	159356
2026-01-04 18:16:13.00	20.90	3.13	-52.1	-70.0	3.5	3.02e+01	0	29	104	0	60	164701
2026-01-04 18:16:14.01	20.83	3.19	-52.3	-70.2	3.5	3.02e+01	0	29	104	0	60	167619
2026-01-04 18:16:15.02	20.76	3.25	-52.2	-70.1	3.5	3.02e+01	0	29	104	0	60	165978
2026-01-04 18:16:16.04	20.69	3.32	-52.1	-70.3	3.5	3.02e+01	0	29	104	0	60	168983
2026-01-04 18:16:17.05	20.62	3.38	-52.3	-70.2	3.5	3.02e+01	0	29	104	0	60	168293
2026-01-04 18:16:18.06	20.55	3.44	-51.9	-69.8	3.5	3.02e+01	0	29	104	0	60	160324
2026-01-04 18:16:19.07	20.48	3.51	-51.7	-69.5	3.5	3.02e+01	0	29	104	0	60	155648
2026-01-04 18:16:20.08	20.41	3.57	-51.6	-69.5	3.5	3.02e+01	0	29	104	0	60	155325
2026-01-04 18:16:21.09	20.34	3.63	-51.4	-69.3	3.5	3.02e+01	0	29	104	0	60	150632
2026-01-04 18:16:22.10	20.27	3.70	-51.1	-69.0	3.5	3.02e+01	0	29	104	0	60	146332
2026-01-04 18:16:23.11	20.20	3.76	-51.0	-68.9	3.5	3.02e+01	0	29	104	0	60	144364
2026-01-04 18:16:24.12	20.12	3.83	-50.9	-68.9	3.5	3.02e+01	0	29	104	0	60	143830
2026-01-04 18:16:25.13	20.05	3.89	-50.6	-68.6	3.5	3.02e+01	0	29	104	0	60	139700
2026-01-04 18:16:26.14	19.98	3.96	-50.4	-68.3	3.5	3.02e+01	0	29	104	0	60	134674
2026-01-04 18:16:27.15	19.90	4.02	-50.4	-68.2	3.5	3.02e+01	0	29	104	0	60	133713
2026-01-04 18:16:28.16	19.83	4.09	-50.3	-68.2	3.5	3.02e+01	0	29	104	0	60	133204
2026-01-04 18:16:29.17	19.76	4.15	-50.3	-68.2	3.5	3.02e+01	0	29	104	0	60	133246
2026-01-04 18:16:30.18	19.68	4.22	-50.3	-68.1	3.5	3.02e+01	0	29	104	0	60	132427
2026-01-04 18:16:31.19	19.61	4.28	-50.4	-68.2	3.5	3.02e+01	0	29	104	0	60	133277
2026-01-04 18:16:32.20	19.53	4.35	-50.3	-68.2	3.5	3.02e+01	0	29	104	0	60	132880
2026-01-04 18:16:33.21	19.46	4.41	-50.3	-68.2	3.5	3.02e+01	0	29	104	0	60	133231
2026-01-04 18:16:34.23	19.38	4.48	-50.3	-68.1	3.5	3.02e+01	0	29	104	0	60	131994
2026-01-04 18:16:35.24	19.30	4.54	-50.3	-68.2	3.5	3.02e+01	0	29	104	0	60	133272
2026-01-04 18:16:36.25	19.22	4.61	-50.3	-68.1	3.5	3.02e+01	0	29	104	0	60	132377
2026-01-04 18:16:37.26	19.15	4.68	-50.4	-68.2	3.5	3.02e+01	0	29	104	0	60	133491
2026-01-04 18:16:38.27	19.07	4.74	-50.3	-68.2	3.5	3.02e+01	0	29	104	0	60	132760
2026-01-04 18:16:39.28	18.99	4.81	-50.4	-68.2	3.5	3.02e+01	0	29	104	0	60	133884
2026-01-04 18:16:40.29	18.91	4.88	-50.3	-68.2	3.5	3.02e+01	0	29	104	0	60	133224
2026-01-04 18:16:41.30	18.83	4.94	-50.3	-68.2	3.5	3.02e+01	0	29	104	0	60	133142
2026-01-04 18:16:42.31	18.75	5.01	-50.3	-68.1	3.5	3.02e+01	0	29	104	0	60	132226
2026-01-04 18:16:43.32	18.67	5.08	-50.3	-68.2	3.5	3.02e+01	0	29	104	0	60	132697
2026-01-04 18:16:44.33	18.59	5.14	-50.3	-68.2	3.5	3.02e+01	0	29	104	0	60	132725
2026-01-04 18:16:45.34	18.51	5.21	-50.3	-68.1	3.5	3.02e+01	0	29	104	0	60	131834
2026-01-04 18:16:46.35	18.43	5.28	-50.3	-68.0	3.5	3.02e+01	0	29	104	0	60	130822
2026-01-04 18:16:47.36	18.35	5.35	-50.3	-68.0	3.5	3.02e+01	0	29	104	0	60	130311
2026-01-04 18:16:48.38	18.27	5.41	-50.3	-68.0	3.5	3.02e+01	0	29	104	0	60	129909
2026-01-04 18:16:49.39	18.19	5.48	-50.3	-68.2	3.5	3.02e+01	0	29	104	0	60	132777
2026-01-04 18:16:50.40	18.10	5.55	-50.3	-68.1	3.5	3.02e+01	0	29	104	0	60	132232
2026-01-04 18:16:51.41	18.02	5.62	-50.3	-68.1	3.5	3.02e+01	0	29	104	0	60	132477
2026-01-04 18:16:52.42	17.94	5.69	-50.4	-68.2	3.5	3.02e+01	0	29	104	0	60	134149
2026-01-04 18:16:53.43	17.85	5.75	-50.4	-68.3	3.5	3.02e+01	0	29	104	0	60	134354
2026-01-04 18:16:54.44	17.77	5.82	-50.4	-68.2	3.5	3.02e+01	0	29	104	0	60	133827
2026-01-04 18:16:55.45	17.68	5.89	-50.4	-68.2	3.5	3.02e+01	0	29	104	0	60	133744
2026-01-04 18:16:56.46	17.60	5.96	-50.3	-68.0	3.5	3.02e+01	0	29	104	0	60	130352
2026-01-04 18:16:57.47	17.51	6.03	-50.3	-67.7	3.5	3.02e+01	0	29	104	0	60	126034
2026-01-04 18:16:58.49	17.42	6.10	-50.3	-67.4	3.5	3.02e+01	0	29	104	0	60	122174
2026-01-04 18:16:59.50	17.34	6.17	-50.3	-67.3	3.5	3.02e+01	0	29	104	0	60	120665
2026-01-04 18:17:00.51	17.25	6.24	-50.3	-67.9	3.5	3.02e+01	0	29	104	0	60	128309
2026-01-04 18:17:01.52	17.16	6.31	-50.3	-67.7	3.5	3.02e+01	0	29	104	0	60	126200
2026-01-04 18:17:02.53	17.07	6.37	-50.1	-66.7	3.5	3.02e+01	0	29	104	0	60	111788
2026-01-04 18:17:03.54	16.98	6.44	-49.9	-65.8	3.5	3.02e+01	0	29	104	0	60	101679
2026-01-04 18:17:04.55	16.89	6.51	-48.4	-61.6	3.5	3.02e+01	0	29	104	0	60	62488
2026-01-04 18:17:05.56	16.80	6.58	-47.0	-59.2	3.4	3.02e+01	0	29	104	0	60	47134
2026-01-04 18:17:06.57	16.71	6.65	-48.2	-61.1	3.5	3.02e+01	0	29	104	0	60	59107
2026-01-04 18:17:07.58	16.62	6.72	-48.9	-62.7	3.5	3.02e+01	0	29	104	0	60	70818
2026-01-04 18:17:08.60	16.53	6.80	-50.5	-68.0	3.5	3.02e+01	0	29	104	0	60	129720
2026-01-04 18:17:09.61	16.44	6.87	-43.6	-54.5	3.6	3.02e+01	0	29	104	0	60	27501
2026-01-04 18:17:10.62	16.35	6.94	-50.3	-67.6	3.5	3.02e+01	0	29	104	0	60	124542
2026-01-04 18:17:11.63	16.25	7.01	-45.2	-56.4	3.6	3.02e+01	0	29	104	0	60	34181
2026-01-04 18:17:12.64	16.16	7.08	-41.2	-51.7	3.5	3.02e+01	0	29	104	0	60	19913
2026-01-04 18:17:13.65	16.07	7.15	-42.4	-53.1	3.5	3.02e+01	0	29	104	0	60	23351
2026-01-04 18:17:14.66	15.97	7.22	-40.8	-51.2	3.5	3.02e+01	0	29	104	0	60	18926
2026-01-04 18:17:15.67	15.88	7.29	-41.6	-52.1	3.5	3.02e+01	0	29	104	0	60	20924
2026-01-04 18:17:16.68	15.78	7.37	-41.6	-52.1	3.5	3.02e+01	0	29	104	0	60	20982
2026-01-04 18:17:17.69	15.69	7.44	-41.0	-51.4	3.5	3.02e+01	0	29	104	0	60	19244
2026-01-04 18:17:18.70	15.59	7.51	-40.8	-51.3	3.5	3.02e+01	0	29	104	0	60	19055
2026-01-04 18:17:19.71	15.49	7.58	-50.5	-67.9	3.5	3.02e+01	0	29	104	0	60	128660
2026-01-04 18:17:20.73	15.39	7.65	-47.3	-59.4	3.5	3.02e+01	0	29	104	0	60	48685
2026-01-04 18:17:21.74	15.30	7.73	-43.9	-54.8	3.5	3.02e+01	0	29	104	0	60	28474
2026-01-04 18:17:22.75	15.20	7.80	-43.5	-54.3	3.5	3.02e+01	0	29	104	0	60	26987
2026-01-04 18:17:23.76	15.10	7.87	-42.8	-53.5	3.5	3.02e+01	0	29	104	0	60	24598
2026-01-04 18:17:24.77	15.00	7.94	-42.3	-52.9	3.5	3.02e+01	0	29	104	0	60	22964
2026-01-04 18:17:25.78	14.90	8.02	-42.8	-53.6	3.6	3.02e+01	0	29	104	0	60	24727
2026-01-04 18:17:26.79	14.80	8.09	-40.7	-51.1	3.5	3.02e+01	0	29	104	0	60	18692
2026-01-04 18:17:27.80	14.70	8.16	-40.5	-50.9	3.5	3.02e+01	0	29	104	0	60	18279
2026-01-04 18:17:28.81	14.59	8.24	-50.5	-68.0	3.5	3.02e+01	0	29	104	0	60	129966
2026-01-04 18:17:29.82	14.49	8.31	-49.1	-62.6	3.6	3.02e+01	0	29	104	0	60	70297
2026-01-04 18:17:30.83	14.39	8.39	-46.9	-58.7	3.5	3.02e+01	0	29	104	0	60	44935
2026-01-04 18:17:31.85	14.28	8.46	-44.8	-55.8	3.5	3.02e+01	0	29	104	0	60	32086
2026-01-04 18:17:32.86	14.18	8.53	-43.7	-54.6	3.5	3.02e+01	0	29	104	0	60	27857
2026-01-04 18:17:33.87	14.07	8.61	-43.6	-54.5	3.5	3.02e+01	0	29	104	0	60	27441
2026-01-04 18:17:34.88	13.97	8.68	-43.1	-53.8	3.5	3.02e+01	0	29	104	0	60	25569
2026-01-04 18:17:35.89	13.86	8.76	-49.9	-65.1	3.5	3.02e+01	0	29	104	0	60	93217
2026-01-04 18:17:36.90	13.75	8.83	-50.1	-65.8	3.5	3.02e+01	0	29	104	0	60	100836
2026-01-04 18:17:37.91	13.65	8.91	-50.1	-65.4	3.5	3.02e+01	0	29	104	0	60	96696
2026-01-04 18:17:38.92	13.54	8.98	-44.5	-55.5	3.5	3.02e+01	0	29	104	0	60	31047
2026-01-04 18:17:39.93	13.43	9.06	-50.6	-67.8	3.5	3.02e+01	0	29	104	0	60	127767
2026-01-04 18:17:40.94	13.32	9.13	-47.4	-59.5	3.6	3.02e+01	0	29	104	0	60	48767
2026-01-04 18:17:41.95	13.21	9.21	-48.2	-60.7	3.5	3.02e+01	0	29	104	0	60	56303
2026-01-04 18:17:42.96	13.10	9.28	-45.7	-57.0	3.5	3.02e+01	0	29	104	0	60	36863
2026-01-04 18:17:43.97	12.99	9.36	-45.5	-56.7	3.5	3.02e+01	0	29	104	0	60	35573
2026-01-04 18:17:44.98	12.88	9.44	-50.8	-68.4	3.5	3.02e+01	0	29	104	0	60	135775
2026-01-04 18:17:45.99	12.76	9.51	-50.6	-67.1	3.4	3.02e+01	0	29	104	0	60	117602
2026-01-04 18:17:47.00	12.65	9.59	-50.3	-66.6	3.5	3.02e+01	0	29	104	0	60	110520
2026-01-04 18:17:48.01	12.54	9.66	-39.8	-50.1	3.5	3.02e+01	0	29	104	0	60	16666
2026-01-04 18:17:49.02	12.42	9.74	-50.7	-68.5	3.5	3.02e+01	0	29	104	0	60	137676
2026-01-04 18:17:50.03	12.31	9.82	-39.6	-49.9	3.5	3.02e+01	0	29	104	0	60	16301
2026-01-04 18:17:51.05	12.19	9.90	-40.0	-50.3	3.5	3.02e+01	0	29	104	0	60	17065
2026-01-04 18:17:52.06	12.07	9.97	-39.9	-50.3	3.5	3.02e+01	0	29	104	0	60	16910
2026-01-04 18:17:53.07	11.96	10.05	-39.7	-50.0	3.5	3.02e+01	0	29	104	0	60	16430
2026-01-04 18:17:54.08	11.84	10.13	-50.4	-66.3	3.5	3.02e+01	0	29	104	0	60	107600
2026-01-04 18:17:55.09	11.72	10.20	-40.4	-50.8	3.5	3.02e+01	0	29	104	0	60	17969
2026-01-04 18:17:56.10	11.60	10.28	-50.8	-68.2	3.5	3.02e+01	0	29	104	0	60	133984
2026-01-04 18:17:57.11	11.48	10.36	-48.3	-61.0	3.5	3.02e+01	0	29	104	0	60	58282
2026-01-04 18:17:58.12	11.36	10.44	-47.5	-59.7	3.5	3.02e+01	0	29	104	0	60	49888
2026-01-04 18:17:59.13	11.24	10.52	-43.4	-54.2	3.5	3.02e+01	0	29	104	0	60	26623
2026-01-04 18:18:00.14	11.12	10.60	-42.4	-52.9	3.5	3.02e+01	0	29	104	0	60	23043
2026-01-04 18:18:01.15	10.99	10.67	-41.8	-52.3	3.5	3.02e+01	0	29	104	0	60	21493
2026-01-04 18:18:02.16	10.87	10.75	-42.3	-52.9	3.5	3.02e+01	0	29	104	0	60	22900
2026-01-04 18:18:03.18	10.74	10.83	-43.1	-53.8	3.5	3.02e+01	0	29	104	0	60	25343
2026-01-04 18:18:04.19	10.62	10.91	-49.6	-64.1	3.5	3.02e+01	0	29	104	0	60	82831
2026-01-04 18:18:05.20	10.49	10.99	-49.2	-63.0	3.5	3.02e+01	0	29	104	0	60	72978
2026-01-04 18:18:06.21	10.37	11.07	-40.1	-50.5	3.6	3.02e+01	0	29	104	0	60	17330
2026-01-04 18:18:07.22	10.24	11.15	-50.7	-67.8	3.5	3.02e+01	0	29	104	0	60	126927
2026-01-04 18:18:08.23	10.11	11.23	-42.5	-53.1	3.5	3.02e+01	0	29	104	0	60	23501
2026-01-04 18:18:09.24	9.98	11.31	-43.1	-53.8	3.5	3.02e+01	0	29	104	0	60	25362
2026-01-04 18:18:10.25	9.85	11.39	-42.4	-52.9	3.5	3.02e+01	0	29	104	0	60	23037
2026-01-04 18:18:11.27	9.72	11.47	-42.4	-53.0	3.5	3.02e+01	0	29	104	0	60	23218
2026-01-04 18:18:12.28	9.59	11.55	-50.2	-66.0	3.6	3.02e+01	0	29	104	0	60	104084
2026-01-04 18:18:13.29	9.46	11.63	-40.2	-50.6	3.5	3.02e+01	0	29	104	0	60	17540
2026-01-04 18:18:14.30	9.32	11.71	-50.8	-68.3	3.5	3.02e+01	0	29	104	0	60	134376
2026-01-04 18:18:15.31	9.19	11.79	-44.3	-55.3	3.5	3.02e+01	0	29	104	0	60	30235
2026-01-04 18:18:16.32	9.05	11.87	-44.1	-55.0	3.5	3.02e+01	0	29	104	0	60	29305
2026-01-04 18:18:17.33	8.92	11.95	-39.4	-49.7	3.5	3.02e+01	0	29	104	0	58	17830
2026-01-04 18:18:18.34	8.78	12.03	-39.3	-49.6	3.5	3.02e+01	0	29	104	0	58	17639
2026-01-04 18:18:19.35	8.65	12.11	-39.3	-49.6	3.5	3.02e+01	0	29	104	0	58	17617
2026-01-04 18:18:20.36	8.51	12.20	-39.6	-49.9	3.5	3.02e+01	0	29	104	0	58	18211
2026-01-04 18:18:21.37	8.37	12.28	-40.1	-50.4	3.5	3.02e+01	0	29	104	0	60	17286
2026-01-04 18:18:22.38	8.23	12.36	-40.0	-50.3	3.5	3.02e+01	0	29	104	0	58	19035
2026-01-04 18:18:23.39	8.09	12.44	-51.0	-68.3	3.5	3.02e+01	0	29	104	0	60	135697
2026-01-04 18:18:24.40	7.95	12.52	-39.9	-50.2	3.5	3.02e+01	0	29	104	0	60	16892
2026-01-04 18:18:25.41	7.81	12.60	-45.0	-56.1	3.5	3.02e+01	0	29	104	0	60	32997
2026-01-04 18:18:26.42	7.66	12.69	-42.5	-53.2	3.5	3.02e+01	0	29	104	0	60	23621
2026-01-04 18:18:27.43	7.52	12.77	-41.6	-52.1	3.5	3.02e+01	0	29	104	0	60	20825
2026-01-04 18:18:28.44	7.37	12.85	-41.7	-52.2	3.5	3.02e+01	0	29	104	0	60	21105
2026-01-04 18:18:29.46	7.23	12.94	-40.6	-50.9	3.6	3.02e+01	0	29	104	0	60	18309
2026-01-04 18:18:30.47	7.08	13.02	-41.5	-51.9	3.5	3.02e+01	0	29	104	0	60	20343
2026-01-04 18:18:31.48	6.93	13.10	-45.9	-57.2	3.5	3.02e+01	0	29	104	0	60	37743
2026-01-04 18:18:32.49	6.78	13.18	-45.4	-56.5	3.6	3.02e+01	0	29	104	0	60	34684
2026-01-04 18:18:33.50	6.63	13.27	-46.8	-58.2	3.5	3.02e+01	0	29	104	0	60	42183
2026-01-04 18:18:34.51	6.48	13.35	-51.0	-68.2	3.5	3.02e+01	0	29	104	0	60	133779
2026-01-04 18:18:35.52	6.33	13.43	-47.3	-59.1	3.5	3.02e+01	0	29	104	0	60	46990
2026-01-04 18:18:36.53	6.18	13.52	-46.1	-57.4	3.5	3.02e+01	0	29	104	0	60	38612
2026-01-04 18:18:37.54	6.03	13.60	-46.8	-58.4	3.5	3.02e+01	0	29	104	0	60	43052
2026-01-04 18:18:38.55	5.87	13.69	-50.7	-68.7	3.5	3.02e+01	0	29	104	0	60	142013
2026-01-04 18:18:39.56	5.72	13.77	-51.0	-68.9	3.5	3.02e+01	0	29	104	0	60	145454
2026-01-04 18:18:40.57	5.56	13.85	-44.6	-55.5	3.5	3.02e+01	0	29	104	0	60	30987
2026-01-04 18:18:41.58	5.41	13.94	-39.1	-49.3	3.6	3.02e+01	0	29	104	0	60	15194
2026-01-04 18:18:42.60	5.25	14.02	-48.3	-60.9	3.5	3.02e+01	0	29	104	0	60	57587
2026-01-04 18:18:43.61	5.09	14.11	-44.7	-55.8	3.5	3.02e+01	0	29	104	0	60	32156
2026-01-04 18:18:44.62	4.93	14.19	-39.2	-49.6	3.5	3.02e+01	0	29	104	0	58	17504
2026-01-04 18:18:45.63	4.77	14.28	-39.0	-49.3	3.5	3.02e+01	0	29	104	0	58	16977
2026-01-04 18:18:46.64	4.60	14.36	-39.1	-49.4	3.5	3.02e+01	0	29	104	0	58	17098
2026-01-04 18:18:47.65	4.44	14.45	-46.9	-58.6	3.5	3.02e+01	0	29	104	0	60	44180
2026-01-04 18:18:48.66	4.28	14.53	-40.0	-50.3	3.6	3.02e+01	0	29	104	0	60	17025
2026-01-04 18:18:49.67	4.11	14.62	-50.9	-68.2	3.5	3.02e+01	0	29	104	0	60	133584
2026-01-04 18:18:50.68	3.95	14.70	-47.8	-59.9	3.5	3.02e+01	0	29	104	0	60	51253
2026-01-04 18:18:51.69	3.78	14.79	-42.3	-52.9	3.5	3.02e+01	0	29	104	0	60	22824
2026-01-04 18:18:52.71	3.61	14.87	-42.5	-53.1	3.5	3.02e+01	0	29	104	0	60	23399
2026-01-04 18:18:53.72	3.44	14.96	-41.4	-51.8	3.5	3.02e+01	0	29	104	0	60	20139
2026-01-04 18:18:54.73	3.27	15.04	-41.6	-52.1	3.5	3.02e+01	0	29	104	0	60	20902
2026-01-04 18:18:55.74	3.10	15.13	-41.4	-51.8	3.5	3.02e+01	0	29	104	0	60	20216
2026-01-04 18:18:56.75	2.93	15.21	-39.0	-49.3	3.5	3.02e+01	0	29	104	0	60	15187
2026-01-04 18:18:57.76	2.75	15.30	-47.5	-59.5	3.5	3.02e+01	0	29	104	0	60	49006
2026-01-04 18:18:58.77	2.58	15.39	-44.5	-55.4	3.5	3.02e+01	0	29	104	0	60	30443
2026-01-04 18:18:59.79	2.40	15.47	-43.0	-53.7	3.5	3.02e+01	0	29	104	0	60	25227
2026-01-04 18:19:00.80	2.22	15.56	-50.7	-66.8	3.5	3.02e+01	0	29	104	0	60	112948
2026-01-04 18:19:01.81	2.05	15.64	-42.0	-52.5	3.5	3.02e+01	0	29	104	0	60	21985
2026-01-04 18:19:02.82	1.87	15.73	-38.8	-49.1	3.5	3.02e+01	0	29	104	0	58	16647
2026-01-04 18:19:03.83	1.69	15.82	-40.2	-50.5	3.5	3.02e+01	0	29	104	0	58	19523
2026-01-04 18:19:04.84	1.51	15.90	-40.0	-50.4	3.5	3.02e+01	0	29	104	0	60	17105
2026-01-04 18:19:05.85	1.32	15.99	-50.3	-65.3	3.5	3.02e+01	0	29	104	0	60	95460
2026-01-04 18:19:06.86	1.14	16.08	-47.6	-59.6	3.5	3.02e+01	0	29	104	0	60	49719
2026-01-04 18:19:07.87	0.96	16.16	-48.5	-61.2	3.5	3.02e+01	0	29	104	0	60	59339
2026-01-04 18:19:08.89	0.77	16.25	-41.6	-52.0	3.5	3.02e+01	0	29	104	0	60	20764
2026-01-04 18:19:09.90	0.58	16.34	-51.0	-67.9	3.5	3.02e+01	0	29	104	0	60	129302
2026-01-04 18:19:10.91	0.39	16.42	-40.8	-51.1	3.5	3.02e+01	0	29	104	0	60	18706
2026-01-04 18:19:11.92	0.20	16.51	-39.6	-49.9	3.5	3.02e+01	0	29	104	0	60	16261
2026-01-04 18:19:12.93	0.01	16.60	-39.7	-50.0	3.6	3.02e+01	0	29	104	0	58	18362
2026-01-04 18:19:13.94	359.82	16.68	-38.6	-48.9	3.5	3.02e+01	0	29	104	0	58	16257
2026-01-04 18:19:14.95	359.63	16.77	-48.0	-60.3	3.5	3.02e+01	0	29	104	0	60	53502
2026-01-04 18:19:15.96	359.44	16.86	-40.3	-50.7	3.5	3.02e+01	0	29	104	0	60	17880
2026-01-04 18:19:16.97	359.24	16.94	-50.9	-67.3	3.5	3.02e+01	0	29	104	0	60	120875
2026-01-04 18:19:17.98	359.04	17.03	-47.0	-58.8	3.5	3.02e+01	0	29	104	0	60	45128
2026-01-04 18:19:18.99	358.85	17.12	-49.2	-62.7	3.5	3.02e+01	0	29	104	0	60	70535
2026-01-04 18:19:20.00	358.65	17.20	-43.5	-54.2	3.5	3.02e+01	0	29	104	0	60	26644
2026-01-04 18:19:21.02	358.44	17.29	-42.8	-53.4	3.5	3.02e+01	0	29	104	0	60	24383
2026-01-04 18:19:22.03	358.24	17.38	-42.9	-53.5	3.5	3.02e+01	0	29	104	0	60	24561
2026-01-04 18:19:23.04	358.04	17.46	-44.9	-55.8	3.5	3.02e+01	0	29	104	0	60	31999
2026-01-04 18:19:24.05	357.84	17.55	-40.7	-51.1	3.5	3.02e+01	0	29	104	0	60	18595
2026-01-04 18:19:25.06	357.63	17.64	-49.6	-63.2	3.5	3.02e+01	0	29	104	0	60	74920
2026-01-04 18:19:26.07	357.43	17.72	-46.2	-57.4	3.5	3.02e+01	0	29	104	0	60	38705
2026-01-04 18:19:27.08	357.22	17.81	-42.7	-53.2	3.5	3.02e+01	0	29	104	0	60	23611
2026-01-04 18:19:28.09	357.01	17.90	-50.7	-66.8	3.4	3.02e+01	0	29	104	0	60	113754
2026-01-04 18:19:29.10	356.80	17.98	-42.1	-44.0	5.2	3.02e+01	0	29	104	0	60	8244
2026-01-04 18:19:30.11	356.59	18.07	-41.8	-43.7	22.7	3.02e+01	0	29	104	0	60	7922
2026-01-04 18:19:31.13	356.37	18.16	-39.5	-40.8	27.6	3.02e+01	0	29	0	1048576	60	5703
2026-01-04 18:19:32.14	356.16	18.24	-41.1	-42.6	25.3	3.02e+01	0	29	0	3145728	60	6994
2026-01-04 18:19:33.15	355.94	18.33	-41.2	-42.7	26.4	3.02e+01	0	29	0	5242880	60	7065
2026-01-04 18:19:34.16	355.72	18.42	-41.0	-42.4	26.9	3.02e+01	0	29	0	6815744	60	6852
2026-01-04 18:19:35.17	355.51	18.50	-40.4	-41.7	26.9	3.02e+01	0	29	0	8912896	60	6350
2026-01-04 18:19:36.18	355.29	18.59	-42.5	-44.1	24.3	3.02e+01	0	29	0	11010048	60	8292
2026-01-04 18:19:37.19	355.07	18.67	-40.4	-41.7	26.7	3.02e+01	0	29	0	12582912	60	6345
2026-01-04 18:19:38.20	354.84	18.76	-38.8	-40.1	28.0	3.02e+01	0	29	0	14680064	58	5894
2026-01-04 18:19:39.22	354.62	18.85	-39.3	-40.6	28.2	3.02e+01	0	29	0	16252928	56	7030
2026-01-04 18:19:40.23	354.39	18.93	-39.4	-40.7	27.7	3.02e+01	0	29	0	18350080	58	6318
2026-01-04 18:19:41.24	354.17	19.02	-39.5	-40.8	27.5	3.02e+01	0	29	0	20447232	60	5670
2026-01-04 18:19:42.25	353.94	19.10	-40.0	-41.3	27.2	3.02e+01	0	29	0	22020096	60	6061
2026-01-04 18:19:43.26	353.71	19.19	-39.8	-41.2	26.9	3.02e+01	0	29	0	24117248	58	6651
2026-01-04 18:19:44.27	353.48	19.27	-39.2	-40.4	27.4	3.02e+01	0	29	0	25690112	60	5450
2026-01-04 18:19:45.28	353.25	19.36	-39.6	-40.9	27.3	3.02e+01	0	29	0	27787264	58	6456
2026-01-04 18:19:46.29	353.02	19.44	-40.3	-41.7	27.7	3.02e+01	0	29	0	29884416	60	6326
2026-01-04 18:19:47.30	352.78	19.53	-39.6	-41.0	27.6	3.02e+01	0	29	0	31457280	58	6522
2026-01-04 18:19:48.32	352.54	19.61	-39.0	-40.3	27.9	3.02e+01	0	29	0	33554432	58	6018
2026-01-04 18:19:49.33	352.30	19.70	-41.1	-42.6	26.7	3.02e+01	0	29	0	35651584	60	6967
2026-01-04 18:19:50.34	352.07	19.78	-40.0	-41.3	27.2	3.02e+01	0	29	0	37224448	60	6010
2026-01-04 18:19:51.35	351.83	19.86	-39.9	-41.3	27.2	3.02e+01	0	29	0	39321600	58	6736
2026-01-04 18:19:52.36	351.58	19.95	-39.8	-41.2	27.2	3.02e+01	0	29	0	40894464	60	5943
2026-01-04 18:19:53.37	351.34	20.03	-40.0	-41.4	26.9	3.02e+01	0	29	0	42991616	60	6097
2026-01-04 18:19:54.39	351.09	20.12	-40.9	-42.4	25.9	3.02e+01	0	29	0	45088768	60	6808
2026-01-04 18:19:55.40	350.85	20.20	-39.9	-41.2	26.5	3.02e+01	0	29	0	46661632	60	5984
2026-01-04 18:19:56.41	350.60	20.28	-40.7	-42.1	25.8	3.02e+01	0	29	0	48758784	60	6597
2026-01-04 18:19:57.42	350.35	20.36	-40.9	-42.3	26.6	3.02e+01	0	29	0	50855936	60	6764
2026-01-04 18:19:58.43	350.10	20.45	-40.8	-42.2	26.2	3.02e+01	0	29	0	52428800	60	6658
2026-01-04 18:19:59.44	349.85	20.53	-38.7	-40.0	28.1	3.02e+01	0	29	0	54525952	58	5829
2026-01-04 18:20:00.43	349.60	20.61	-40.0	-41.4	26.7	3.02e+01	0	29	0	56098816	58	6842
2026-01-04 18:20:01.44	349.35	20.69	-39.5	-40.8	27.9	3.02e+01	0	29	0	58195968	58	6368
2026-01-04 18:20:02.46	349.09	20.77	-39.8	-41.1	28.3	3.02e+01	0	29	0	60293120	58	6599
2026-01-04 18:20:03.47	348.83	20.85	-39.7	-41.0	27.5	3.02e+01	0	29	0	61865984	58	6547
2026-01-04 18:20:04.48	348.58	20.93	-39.5	-40.7	27.2	3.02e+01	0	29	0	63963136	58	6341
2026-01-04 18:20:05.49	348.32	21.01	-39.7	-41.0	27.5	3.02e+01	0	29	0	65536000	58	6525
2026-01-04 18:20:06.50	348.05	21.09	-38.7	-40.0	28.3	3.02e+01	0	29	0	67633152	56	6545
2026-01-04 18:20:07.51	347.79	21.17	-38.1	-39.3	28.8	3.02e+01	0	29	0	69730304	56	6063
2026-01-04 18:20:08.52	347.53	21.25	-38.6	-39.8	28.7	3.02e+01	0	29	0	71303168	56	6399
2026-01-04 18:20:09.54	347.26	21.33	-39.3	-40.6	28.1	3.02e+01	0	29	0	73400320	56	7001
2026-01-04 18:20:10.55	346.99	21.41	-38.5	-39.7	28.7	3.02e+01	0	29	0	75497472	56	6346
2026-01-04 18:20:11.56	346.72	21.49	-38.0	-39.3	28.5	3.02e+01	0	29	0	77070336	56	6015
2026-01-04 18:20:12.57	346.45	21.57	-38.5	-39.7	28.6	3.02e+01	0	29	0	79167488	56	6346
2026-01-04 18:20:13.58	346.18	21.64	-38.7	-39.9	28.5	3.02e+01	0	29	0	80740352	56	6488
2026-01-04 18:20:14.59	345.91	21.72	-37.9	-39.1	28.5	3.02e+01	0	29	0	82837504	56	5877
2026-01-04 18:20:15.60	345.63	21.80	-38.3	-39.6	28.5	3.02e+01	0	29	0	84934656	56	6206
2026-01-04 18:20:16.61	345.36	21.87	-38.7	-39.9	29.1	3.02e+01	0	29	0	86507520	56	6467
2026-01-04 18:20:17.62	345.08	21.95	-38.1	-39.4	28.5	3.02e+01	0	29	0	88604672	56	6067
2026-01-04 18:20:18.64	344.80	22.02	-37.9	-39.1	29.0	3.02e+01	0	29	0	90701824	56	5881
2026-01-04 18:20:19.65	344.52	22.10	-38.2	-39.4	28.7	3.02e+01	0	29	0	92274688	56	6106
2026-01-04 18:20:20.66	344.24	22.17	-38.2	-39.4	28.7	3.02e+01	0	29	0	94371840	56	6111
2026-01-04 18:20:21.67	343.95	22.25	-37.6	-38.8	29.2	3.02e+01	0	29	0	95944704	56	5684
2026-01-04 18:20:22.68	343.67	22.32	-37.7	-38.9	29.4	3.02e+01	0	29	0	98041856	56	5734
2026-01-04 18:20:23.69	343.38	22.39	-38.6	-39.8	28.7	3.02e+01	0	29	0	100139008	56	6386
2026-01-04 18:20:24.70	343.09	22.47	-39.0	-40.3	28.1	3.02e+01	0	29	0	101711872	58	6022
2026-01-04 18:20:25.71	342.81	22.54	-37.9	-39.1	28.9	3.02e+01	0	29	0	103809024	56	5869
2026-01-04 18:20:26.72	342.52	22.61	-39.0	-40.2	28.3	3.02e+01	0	29	0	105381888	56	6714
2026-01-04 18:20:27.74	342.22	22.68	-38.0	-39.2	29.1	3.02e+01	0	29	0	107479040	56	5962
2026-01-04 18:20:28.75	341.93	22.75	-38.3	-39.5	28.9	3.02e+01	0	29	0	109576192	56	6198
2026-01-04 18:20:29.76	341.63	22.82	-37.9	-39.1	29.1	3.02e+01	0	29	0	111149056	56	5868
2026-01-04 18:20:30.77	341.34	22.89	-37.7	-38.9	29.2	3.02e+01	0	29	0	113246208	56	5743
2026-01-04 18:20:31.78	341.04	22.96	-37.8	-39.0	29.1	3.02e+01	0	29	0	115343360	56	5835
2026-01-04 18:20:32.79	340.74	23.03	-38.0	-39.3	28.8	3.02e+01	0	29	0	116916224	56	6007
2026-01-04 18:20:33.80	340.44	23.09	-37.9	-39.1	29.1	3.02e+01	0	29	0	119013376	56	5872
2026-01-04 18:20:34.82	340.14	23.16	-37.6	-38.8	29.3	3.02e+01	0	29	0	120586240	56	5711
2026-01-04 18:20:35.83	339.83	23.23	-37.6	-38.8	29.3	3.02e+01	0	29	0	122683392	56	5697
2026-01-04 18:20:36.84	339.53	23.29	-37.5	-38.7	29.3	3.02e+01	0	29	0	124780544	56	5654
2026-01-04 18:20:37.85	339.23	23.35	-37.9	-39.1	28.9	3.02e+01	0	29	0	126353408	56	5902
2026-01-04 18:20:38.86	338.92	23.42	-38.0	-39.3	28.8	3.02e+01	0	29	0	128450560	56	6000
2026-01-04 18:20:39.87	338.61	23.48	-37.9	-39.1	29.0	3.02e+01	0	29	0	130023424	56	5877
2026-01-04 18:20:40.88	338.30	23.54	-38.4	-39.7	28.3	3.02e+01	0	29	0	132120576	56	6281
2026-01-04 18:20:41.89	337.99	23.61	-38.5	-39.7	28.8	3.02e+01	0	29	0	134217728	56	6343
2026-01-04 18:20:42.90	337.68	23.67	-38.9	-40.2	28.4	3.02e+01	0	29	0	135790592	56	6702
2026-01-04 18:20:43.91	337.37	23.73	-39.0	-40.2	28.6	3.02e+01	0	29	0	137887744	56	6719
2026-01-04 18:20:44.92	337.05	23.79	-39.6	-40.9	27.5	3.02e+01	0	29	0	139460608	58	6430
2026-01-04 18:20:45.94	336.73	23.85	-38.9	-40.2	28.4	3.02e+01	0	29	0	141557760	58	5927
2026-01-04 18:20:46.95	336.42	23.90	-38.8	-40.1	28.3	3.02e+01	0	29	0	143654912	58	5877
2026-01-04 18:20:47.96	336.10	23.96	-39.2	-40.5	27.8	3.02e+01	0	29	0	145227776	58	6158
2026-01-04 18:20:48.97	335.78	24.02	-38.8	-40.1	28.3	3.02e+01	0	29	0	147324928	58	5870
2026-01-04 18:20:49.98	335.46	24.07	-39.0	-40.3	28.1	3.02e+01	0	29	0	149422080	58	6031
2026-01-04 18:20:50.99	335.13	24.13	-39.0	-40.3	28.4	3.02e+01	0	29	0	150994944	56	6733
2026-01-04 18:20:52.00	334.81	24.18	-38.4	-39.6	28.8	3.02e+01	0	29	0	153092096	56	6277
2026-01-04 18:20:53.02	334.48	24.24	-38.6	-39.8	28.4	3.02e+01	0	29	0	154664960	56	6391
2026-01-04 18:20:54.03	334.16	24.29	-39.1	-40.4	28.6	3.02e+01	0	29	0	156762112	58	6069
2026-01-04 18:20:55.04	333.83	24.34	-40.3	-41.7	26.2	3.02e+01	0	29	0	158859264	58	7064
2026-01-04 18:20:56.05	333.51	24.39	-39.3	-40.6	28.2	3.02e+01	0	29	0	160432128	60	5550
2026-01-04 18:20:57.06	333.18	24.44	-39.5	-40.8	28.1	3.02e+01	0	29	0	162529280	58	6400
2026-01-04 18:20:58.07	332.85	24.49	-38.7	-39.9	28.6	3.02e+01	0	29	0	164102144	56	6475
2026-01-04 18:20:59.08	332.52	24.54	-38.7	-40.0	28.4	3.02e+01	0	29	0	166199296	58	5815
2026-01-04 18:21:00.09	332.18	24.58	-39.0	-40.3	28.1	3.02e+01	0	29	0	168296448	58	6056
2026-01-04 18:21:01.10	331.85	24.63	-38.5	-39.7	28.6	3.02e+01	0	29	0	169869312	56	6344
2026-01-04 18:21:02.12	331.51	24.68	-38.8	-40.1	28.5	3.02e+01	0	29	0	171966464	56	6608
2026-01-04 18:21:03.13	331.18	24.72	-38.7	-40.0	28.2	3.02e+01	0	29	0	173539328	56	6526
2026-01-04 18:21:04.14	330.84	24.76	-39.1	-40.4	28.2	3.02e+01	0	29	0	175636480	56	6831
2026-01-04 18:21:05.15	330.51	24.81	-38.5	-39.7	28.7	3.02e+01	0	29	0	177733632	56	6330
2026-01-04 18:21:06.16	330.17	24.85	-38.8	-40.1	28.4	3.02e+01	0	29	0	179306496	56	6593
2026-01-04 18:21:07.17	329.83	24.89	-38.2	-39.4	28.5	3.02e+01	0	29	0	181403648	56	6097
2026-01-04 18:21:08.18	329.49	24.93	-40.4	-41.7	26.6	3.02e+01	0	29	0	183500800	58	7113
2026-01-04 18:21:09.19	329.15	24.96	-38.7	-40.0	28.2	3.02e+01	0	29	0	185073664	58	5797
2026-01-04 18:21:10.20	328.81	25.00	-38.8	-40.0	28.0	3.02e+01	0	29	0	187170816	58	5835
2026-01-04 18:21:11.21	328.46	25.04	-39.4	-40.7	28.2	3.02e+01	0	29	0	188743680	58	6316
2026-01-04 18:21:12.22	328.12	25.07	-38.7	-40.0	28.1	3.02e+01	0	29	0	190840832	58	5799
2026-01-04 18:21:13.24	327.77	25.11	-39.6	-41.0	27.4	3.02e+01	0	29	0	192937984	58	6506
2026-01-04 18:21:14.25	327.43	25.14	-39.4	-40.7	27.8	3.02e+01	0	29	0	194510848	58	6306
2026-01-04 18:21:15.26	327.08	25.17	-39.2	-40.5	27.9	3.02e+01	0	29	0	196608000	58	6186
2026-01-04 18:21:16.27	326.74	25.20	-38.9	-40.2	28.4	3.02e+01	0	29	0	198705152	58	5960
2026-01-04 18:21:17.28	326.39	25.23	-38.3	-39.5	27.2	3.02e+01	0	29	0	200278016	58	5481
2026-01-04 18:21:18.29	326.04	25.26	-38.5	-39.8	28.2	3.02e+01	0	29	0	202375168	56	6370
2026-01-04 18:21:19.30	325.70	25.29	-39.0	-40.3	28.2	3.02e+01	0	29	0	203948032	56	6733
2026-01-04 18:21:20.31	325.35	25.32	-39.1	-40.3	28.3	3.02e+01	0	29	0	206045184	56	6781
2026-01-04 18:21:21.32	325.00	25.34	-38.0	-39.2	29.1	3.02e+01	0	29	0	208142336	56	5943
2026-01-04 18:21:22.34	324.64	25.37	-38.1	-39.3	29.2	3.02e+01	0	29	0	209715200	56	6011
2026-01-04 18:21:23.35	324.29	25.39	-38.1	-39.3	28.8	3.02e+01	0	29	0	211812352	56	6017
2026-01-04 18:21:24.36	323.94	25.41	-38.2	-39.5	29.0	3.02e+01	0	29	0	213385216	56	6149
2026-01-04 18:21:25.37	323.59	25.44	-38.6	-39.8	28.8	3.02e+01	0	29	0	215482368	56	6407
2026-01-04 18:21:26.38	323.24	25.46	-38.4	-39.7	28.7	3.02e+01	0	29	0	217579520	56	6278
2026-01-04 18:21:27.39	322.88	25.47	-38.0	-39.2	29.1	3.02e+01	0	29	0	219152384	56	5980
2026-01-04 18:21:28.40	322.53	25.49	-38.0	-39.2	28.9	3.02e+01	0	29	0	221249536	56	5974
2026-01-04 18:21:29.41	322.18	25.51	-38.3	-39.5	29.0	3.02e+01	0	29	0	223346688	56	6164
2026-01-04 18:21:30.42	321.82	25.52	-38.3	-39.5	29.0	3.02e+01	0	29	0	224919552	56	6195
2026-01-04 18:21:31.43	321.47	25.54	-38.3	-39.5	29.1	3.02e+01	0	29	0	227016704	56	6199
2026-01-04 18:21:32.45	321.11	25.55	-38.6	-39.9	28.9	3.02e+01	0	29	0	228589568	56	6447
2026-01-04 18:21:33.46	320.76	25.56	-38.2	-39.4	29.0	3.02e+01	0	29	0	230686720	56	6112
2026-01-04 18:21:34.47	320.40	25.57	-38.8	-40.1	28.5	3.02e+01	0	29	0	232783872	56	6580
2026-01-04 18:21:35.48	320.05	25.58	-38.8	-40.1	28.2	3.02e+01	0	29	0	234356736	56	6600
2026-01-04 18:21:36.49	319.69	25.59	-38.7	-39.9	28.8	3.02e+01	0	29	0	236453888	56	6480
2026-01-04 18:21:37.50	319.33	25.60	-39.8	-41.1	28.2	3.02e+01	0	29	0	238551040	60	5888
2026-01-04 18:21:38.51	318.98	25.61	-38.5	-39.7	28.5	3.02e+01	0	29	0	240123904	58	5647
2026-01-04 18:21:39.52	318.62	25.61	-38.6	-39.8	28.9	3.02e+01	0	29	0	242221056	58	5693
2026-01-04 18:21:40.53	318.27	25.62	-38.8	-40.1	28.9	3.02e+01	0	29	0	243793920	56	6583
2026-01-04 18:21:41.55	317.91	25.62	-38.8	-40.0	28.8	3.02e+01	0	29	0	245891072	56	6524
2026-01-04 18:21:42.56	317.55	25.62	-38.7	-40.0	28.6	3.02e+01	0	29	0	247988224	56	6509
2026-01-04 18:21:43.57	317.19	25.62	-38.6	-39.8	28.6	3.02e+01	0	29	0	249561088	56	6408
2026-01-04 18:21:44.58	316.84	25.62	-38.6	-39.8	28.7	3.02e+01	0	29	0	251658240	56	6413
2026-01-04 18:21:45.59	316.48	25.62	-38.5	-39.8	28.7	3.02e+01	0	29	0	253231104	56	6357
2026-01-04 18:21:46.60	316.12	25.61	-38.8	-40.0	28.5	3.02e+01	0	29	0	255328256	56	6563
2026-01-04 18:21:47.61	315.77	25.61	-39.0	-40.3	28.2	3.02e+01	0	29	0	257425408	56	6748
2026-01-04 18:21:48.63	315.41	25.60	-39.4	-40.7	28.1	3.02e+01	0	29	0	258998272	56	7125
2026-01-04 18:21:49.64	315.05	25.60	-39.3	-40.6	27.9	3.02e+01	0	29	0	261095424	58	6215
2026-01-04 18:21:50.65	314.70	25.59	-39.1	-40.4	28.0	3.02e+01	0	29	0	263192576	58	6066
2026-01-04 18:21:51.66	314.34	25.58	-39.4	-40.6	28.1	3.02e+01	0	29	0	264765440	58	6273
2026-01-04 18:21:52.67	313.99	25.57	-40.0	-41.4	28.4	3.02e+01	0	29	0	266862592	58	6807
2026-01-04 18:21:53.68	313.63	25.56	-39.4	-40.7	28.5	3.02e+01	0	29	0	268435456	58	6283
2026-01-04 18:21:54.69	313.28	25.55	-39.1	-40.3	28.7	3.02e+01	0	29	0	270532608	58	6049
2026-01-04 18:21:55.70	312.92	25.53	-39.5	-40.8	28.0	3.02e+01	0	29	0	272629760	58	6358
2026-01-04 18:21:56.71	312.57	25.52	-39.6	-40.9	28.1	3.02e+01	0	29	0	274202624	58	6440
2026-01-04 18:21:57.73	312.21	25.50	-38.7	-39.9	28.8	3.02e+01	0	29	0	276299776	58	5782
2026-01-04 18:21:58.74	311.86	25.49	-39.0	-40.3	28.7	3.02e+01	0	29	0	278396928	58	6010
2026-01-04 18:21:59.75	311.50	25.47	-39.2	-40.4	28.6	3.02e+01	0	29	0	279969792	58	6105
2026-01-04 18:22:00.76	311.15	25.45	-39.0	-40.3	28.3	3.02e+01	0	29	0	282066944	58	6028
2026-01-04 18:22:01.77	310.80	25.43	-39.8	-41.1	27.8	3.02e+01	0	29	0	283639808	58	6596
2026-01-04 18:22:02.78	310.45	25.41	-39.0	-40.2	28.4	3.02e+01	0	29	0	285736960	58	5988
2026-01-04 18:22:03.79	310.09	25.38	-40.6	-41.9	27.6	3.02e+01	0	29	0	287834112	60	6468
2026-01-04 18:22:04.80	309.74	25.36	-39.1	-40.4	28.5	3.02e+01	0	29	0	289406976	60	5412
2026-01-04 18:22:05.81	309.39	25.33	-39.1	-40.3	28.7	3.02e+01	0	29	0	291504128	58	6043
2026-01-04 18:22:06.83	309.04	25.31	-39.1	-40.4	28.7	3.02e+01	0	29	0	293076992	58	6083
2026-01-04 18:22:07.84	308.69	25.28	-39.0	-40.3	28.9	3.02e+01	0	29	0	295174144	58	6004
2026-01-04 18:22:08.85	308.34	25.25	-38.8	-40.0	28.7	3.02e+01	0	29	0	297271296	58	5820
2026-01-04 18:22:09.86	308.00	25.22	-38.7	-39.9	29.2	3.02e+01	0	29	0	298844160	56	6438
2026-01-04 18:22:10.87	307.65	25.19	-38.7	-39.9	29.2	3.02e+01	0	29	0	300941312	56	6453
2026-01-04 18:22:11.88	307.30	25.16	-38.9	-40.1	29.0	3.02e+01	0	29	0	302514176	56	6606
2026-01-04 18:22:12.89	306.96	25.13	-39.0	-40.2	28.8	3.02e+01	0	29	0	304611328	58	5961
2026-01-04 18:22:13.90	306.61	25.09	-38.6	-39.8	29.0	3.02e+01	0	29	0	306708480	58	5683
2026-01-04 18:22:14.91	306.27	25.06	-39.6	-40.9	29.0	3.02e+01	0	29	0	308281344	58	6427
2026-01-04 18:22:15.92	305.93	25.02	-38.6	-39.8	29.3	3.02e+01	0	29	0	310378496	58	5702
2026-01-04 18:22:16.94	305.58	24.99	-38.9	-40.2	28.7	3.02e+01	0	29	0	312475648	58	5937
2026-01-04 18:22:17.95	305.24	24.95	-39.6	-40.8	28.8	3.02e+01	0	29	0	314048512	58	6405
2026-01-04 18:22:18.96	304.90	24.91	-40.0	-41.3	28.7	3.02e+01	0	29	0	316145664	58	6735
2026-01-04 18:22:19.97	304.56	24.87	-38.9	-40.1	29.0	3.02e+01	0	29	0	317718528	58	5876
2026-01-04 18:22:20.98	304.22	24.83	-39.3	-40.6	28.8	3.02e+01	0	29	0	319815680	58	6208
2026-01-04 18:22:21.99	303.88	24.79	-38.5	-39.7	29.1	3.02e+01	0	29	0	321912832	58	5619
2026-01-04 18:22:23.00	303.54	24.75	-38.9	-40.1	28.9	3.02e+01	0	29	0	323485696	56	6601
2026-01-04 18:22:24.01	303.21	24.70	-39.3	-40.6	28.9	3.02e+01	0	29	0	325582848	58	6209
2026-01-04 18:22:25.02	302.87	24.66	-38.8	-40.0	28.8	3.02e+01	0	29	0	327155712	58	5833
2026-01-04 18:22:26.03	302.54	24.61	-38.9	-40.1	28.9	3.02e+01	0	29	0	329252864	58	5896
2026-01-04 18:22:27.05	302.20	24.56	-39.1	-40.3	28.5	3.02e+01	0	29	0	331350016	58	6050
2026-01-04 18:22:28.06	301.87	24.52	-39.7	-40.9	28.6	3.02e+01	0	29	0	332922880	58	6464
2026-01-04 18:22:29.07	301.54	24.47	-39.9	-41.2	28.2	3.02e+01	0	29	0	335020032	58	6682
2026-01-04 18:22:30.08	301.21	24.42	-38.6	-39.8	29.3	3.02e+01	0	29	0	336592896	58	5694
2026-01-04 18:22:31.09	300.88	24.37	-39.6	-40.8	28.7	3.02e+01	0	29	0	338690048	58	6398
2026-01-04 18:22:32.10	300.55	24.32	-39.1	-40.3	28.8	3.02e+01	0	29	0	340787200	58	6036
2026-01-04 18:22:33.11	300.23	24.27	-39.4	-40.7	28.8	3.02e+01	0	29	0	342360064	58	6280
2026-01-04 18:22:34.12	299.90	24.21	-39.6	-40.8	28.7	3.02e+01	0	29	0	344457216	60	5694
2026-01-04 18:22:35.14	299.57	24.16	-39.7	-40.9	28.7	3.02e+01	0	29	0	346554368	60	5768
2026-01-04 18:22:36.15	299.25	24.10	-39.1	-40.4	28.7	3.02e+01	0	29	0	348127232	58	6093
2026-01-04 18:22:37.16	298.93	24.05	-39.2	-40.4	28.8	3.02e+01	0	29	0	350224384	58	6094
2026-01-04 18:22:38.17	298.61	23.99	-38.4	-39.6	29.2	3.02e+01	0	29	0	351797248	58	5578
2026-01-04 18:22:39.18	298.29	23.94	-39.2	-40.5	28.5	3.02e+01	0	29	0	353894400	58	6152
2026-01-04 18:22:40.19	297.97	23.88	-40.0	-41.3	28.2	3.02e+01	0	29	0	355991552	60	6031
2026-01-04 18:22:41.20	297.65	23.82	-40.8	-42.1	28.5	3.02e+01	0	29	0	357564416	60	6580
2026-01-04 18:22:42.21	297.34	23.76	-40.0	-41.2	28.0	3.02e+01	0	29	0	359661568	60	5988
2026-01-04 18:22:43.23	297.02	23.70	-40.6	-41.9	27.8	3.02e+01	0	29	0	361234432	60	6484
2026-01-04 18:22:44.24	296.70	23.64	-39.2	-40.4	28.5	3.02e+01	0	29	0	363331584	58	6134
2026-01-04 18:22:45.25	296.39	23.58	-39.4	-40.6	28.7	3.02e+01	0	29	0	365428736	58	6211
2026-01-04 18:22:46.26	296.08	23.52	-40.3	-41.6	28.7	3.02e+01	0	29	0	367001600	58	7005
2026-01-04 18:22:47.27	295.77	23.45	-39.5	-40.8	28.8	3.02e+01	0	29	0	369098752	58	6377
2026-01-04 18:22:48.28	295.46	23.39	-39.6	-40.8	29.0	3.02e+01	0	29	0	371195904	58	6414
2026-01-04 18:22:49.29	295.16	23.33	-39.9	-41.1	28.3	3.02e+01	0	29	0	372768768	58	6648
2026-01-04 18:22:50.30	294.85	23.26	-39.8	-41.0	27.9	3.02e+01	0	29	0	374865920	58	6568
2026-01-04 18:22:51.31	294.55	23.19	-39.2	-40.4	28.9	3.02e+01	0	29	0	376438784	60	5415
2026-01-04 18:22:52.32	294.24	23.13	-39.4	-40.7	28.0	3.02e+01	0	29	0	378535936	60	5610
2026-01-04 18:22:53.34	293.94	23.06	-41.0	-42.4	26.8	3.02e+01	0	29	0	380633088	60	6820
2026-01-04 18:22:54.35	293.64	22.99	-40.2	-41.5	27.9	3.02e+01	0	29	0	382205952	60	6141
2026-01-04 18:22:55.36	293.34	22.93	-40.8	-42.1	27.2	3.02e+01	0	29	0	384303104	60	6606
2026-01-04 18:22:56.37	293.04	22.86	-41.1	-42.4	27.5	3.02e+01	0	29	0	386400256	60	6875
2026-01-04 18:22:57.38	292.75	22.79	-40.0	-41.3	28.3	3.02e+01	0	29	0	387973120	60	5998
2026-01-04 18:22:58.39	292.45	22.72	-40.6	-42.0	26.6	3.02e+01	0	29	0	390070272	60	6553
2026-01-04 18:22:59.40	292.16	22.65	-41.8	-43.3	26.3	3.02e+01	0	29	0	391643136	60	7624
2026-01-04 18:23:00.42	291.87	22.57	-38.8	-39.9	29.0	3.02e+01	0	29	0	393740288	58	5774
2026-01-04 18:23:01.43	291.58	22.50	-39.8	-41.0	28.7	3.02e+01	0	29	0	395837440	60	5821
2026-01-04 18:23:02.44	291.29	22.43	-39.4	-40.6	28.6	3.02e+01	0	29	0	397410304	58	6228
2026-01-04 18:23:03.45	291.00	22.36	-40.9	-42.2	27.9	3.02e+01	0	29	0	399507456	60	6687
2026-01-04 18:23:04.46	290.71	22.29	-41.8	-43.2	27.4	3.02e+01	0	29	0	401080320	60	7544
2026-01-04 18:23:05.47	290.43	22.21	-38.7	-39.9	28.8	3.02e+01	0	29	0	403177472	56	6425
2026-01-04 18:23:06.48	290.14	22.14	-38.8	-40.0	28.9	3.02e+01	0	29	0	405274624	58	5807
2026-01-04 18:23:07.49	289.86	22.06	-39.9	-41.2	27.7	3.02e+01	0	29	0	406847488	58	6708
2026-01-04 18:23:08.50	289.58	21.99	-40.1	-41.4	28.5	3.02e+01	0	29	0	408944640	58	6847
2026-01-04 18:23:09.51	289.30	21.91	-41.7	-43.1	27.2	3.02e+01	0	29	0	411041792	60	7407
2026-01-04 18:23:10.52	289.03	21.84	-39.0	-40.2	28.5	3.02e+01	0	29	0	412614656	58	5944
2026-01-04 18:23:11.54	288.75	21.76	-39.6	-40.9	28.2	3.02e+01	0	29	0	414711808	60	5732
2026-01-04 18:23:12.55	288.47	21.68	-41.3	-42.7	27.6	3.02e+01	0	29	0	416284672	60	7088
2026-01-04 18:23:13.56	288.20	21.60	-39.6	-40.9	28.6	3.02e+01	0	29	0	418381824	60	5727
2026-01-04 18:23:14.57	287.93	21.53	-40.0	-41.3	28.1	3.02e+01	0	29	0	420478976	60	6019
2026-01-04 18:23:15.58	287.66	21.45	-39.8	-41.0	28.3	3.02e+01	0	29	0	422051840	60	5830
2026-01-04 18:23:16.59	287.39	21.37	-40.0	-41.4	27.6	3.02e+01	0	29	0	424148992	60	6075
2026-01-04 18:23:17.60	287.12	21.29	-38.9	-40.2	28.4	3.02e+01	0	29	0	425721856	56	6701
2026-01-04 18:23:18.61	286.85	21.21	-38.7	-39.9	28.8	3.02e+01	0	29	0	427819008	58	5742
2026-01-04 18:23:19.63	286.59	21.13	-39.2	-40.5	28.2	3.02e+01	0	29	0	429916160	56	6903
2026-01-04 18:23:20.64	286.32	21.05	-39.0	-40.2	28.4	3.02e+01	0	29	0	431489024	58	5992
2026-01-04 18:23:21.65	286.06	20.97	-39.5	-40.8	28.1	3.02e+01	0	29	0	433586176	58	6416
2026-01-04 18:23:22.66	285.80	20.89	-39.7	-41.0	28.1	3.02e+01	0	29	0	435683328	60	5814
2026-01-04 18:23:23.67	285.54	20.81	-40.1	-41.4	28.2	3.02e+01	0	29	0	437256192	60	6070
2026-01-04 18:23:24.68	285.29	20.73	-39.2	-40.4	29.0	3.02e+01	0	29	0	439353344	60	5453
2026-01-04 18:23:25.69	285.03	20.65	-40.1	-41.4	28.0	3.02e+01	0	29	0	440926208	58	6856
2026-01-04 18:23:26.70	284.77	20.56	-38.8	-40.0	29.0	3.02e+01	0	29	0	443023360	58	5845
2026-01-04 18:23:27.71	284.52	20.48	-39.4	-40.6	28.0	3.02e+01	0	29	0	445120512	58	6264
2026-01-04 18:23:28.73	284.27	20.40	-39.2	-40.5	28.1	3.02e+01	0	29	0	446693376	58	6186
2026-01-04 18:23:29.74	284.02	20.32	-38.5	-39.7	28.4	3.02e+01	0	29	0	448790528	58	5645
2026-01-04 18:23:30.75	283.77	20.23	-39.9	-41.2	28.2	3.02e+01	0	29	0	450887680	58	6716
2026-01-04 18:23:31.76	283.52	20.15	-39.2	-40.4	28.9	3.02e+01	0	29	0	452460544	58	6116
2026-01-04 18:23:32.77	283.28	20.07	-40.5	-41.8	28.1	3.02e+01	0	29	0	454557696	60	6374
2026-01-04 18:23:33.78	283.03	19.98	-39.8	-41.0	28.2	3.02e+01	0	29	0	456130560	58	6552
2026-01-04 18:23:34.79	282.79	19.90	-39.1	-40.4	28.9	3.02e+01	0	29	0	458227712	58	6065
2026-01-04 18:23:35.80	282.55	19.82	-39.8	-41.1	28.0	3.02e+01	0	29	0	460324864	58	6614
2026-01-04 18:23:36.81	282.31	19.73	-39.6	-40.9	27.8	3.02e+01	0	29	0	461897728	58	6454
2026-01-04 18:23:37.83	282.06	19.65	-40.2	-41.6	27.6	3.02e+01	0	29	0	463994880	60	6239
2026-01-04 18:23:38.84	281.83	19.56	-38.7	-39.9	28.8	3.02e+01	0	29	0	465567744	58	5732
2026-01-04 18:23:39.85	281.59	19.48	-40.0	-41.5	27.2	3.02e+01	0	29	0	467664896	58	6887
2026-01-04 18:23:40.86	281.36	19.39	-38.4	-39.5	28.9	3.02e+01	0	29	0	469762048	56	6205
2026-01-04 18:23:41.87	281.12	19.31	-40.1	-41.5	27.0	3.02e+01	0	29	0	471334912	58	6893
2026-01-04 18:23:42.88	280.89	19.22	-38.8	-39.9	28.7	3.02e+01	0	29	0	473432064	56	6482
2026-01-04 18:23:43.89	280.66	19.14	-39.8	-41.1	27.5	3.02e+01	0	29	0	475529216	58	6633
2026-01-04 18:23:44.90	280.43	19.05	-38.8	-40.0	28.3	3.02e+01	0	29	0	477102080	56	6523
2026-01-04 18:23:45.91	280.20	18.97	-39.4	-40.7	27.8	3.02e+01	0	29	0	479199232	58	6304
2026-01-04 18:23:46.93	279.97	18.88	-38.6	-39.8	28.8	3.02e+01	0	29	0	480772096	58	5699
2026-01-04 18:23:47.94	279.75	18.79	-38.9	-40.2	28.3	3.02e+01	0	29	0	482869248	58	5932
2026-01-04 18:23:48.95	279.52	18.71	-38.7	-39.9	28.5	3.02e+01	0	29	0	484966400	58	5755
2026-01-04 18:23:49.96	279.30	18.62	-39.3	-40.6	28.2	3.02e+01	0	29	0	486539264	58	6227
2026-01-04 18:23:50.97	279.08	18.53	-39.0	-40.2	28.2	3.02e+01	0	29	0	488636416	58	5989
2026-01-04 18:23:51.98	278.86	18.45	-39.4	-40.7	27.8	3.02e+01	0	29	0	490209280	58	6320
2026-01-04 18:23:52.99	278.64	18.36	-39.0	-40.2	28.6	3.02e+01	0	29	0	492306432	58	5982
2026-01-04 18:23:54.00	278.43	18.28	-39.9	-41.2	27.3	3.02e+01	0	29	0	494403584	58	6702
2026-01-04 18:23:55.01	278.21	18.19	-38.7	-39.9	28.8	3.02e+01	0	29	0	495976448	58	5752
2026-01-04 18:23:56.02	278.00	18.10	-39.6	-40.8	28.3	3.02e+01	0	29	0	498073600	58	6406
2026-01-04 18:23:57.03	277.78	18.02	-38.9	-40.1	28.6	3.02e+01	0	29	0	500170752	58	5904
2026-01-04 18:23:58.04	277.57	17.93	-39.2	-40.5	28.1	3.02e+01	0	29	0	501743616	58	6178
2026-01-04 18:23:59.06	277.36	17.84	-39.1	-40.3	28.7	3.02e+01	0	29	0	503840768	58	6060
2026-01-04 18:24:00.07	277.15	17.75	-39.3	-40.6	28.3	3.02e+01	0	29	0	505413632	58	6267
2026-01-04 18:24:01.08	276.94	17.67	-38.9	-40.2	28.3	3.02e+01	0	29	0	507510784	58	5949
2026-01-04 18:24:02.09	276.73	17.58	-38.6	-39.8	28.9	3.02e+01	0	29	0	509607936	58	5665
2026-01-04 18:24:03.10	276.53	17.49	-39.2	-40.5	28.5	3.02e+01	0	29	0	511180800	58	6139
2026-01-04 18:24:04.11	276.32	17.41	-38.8	-40.0	28.5	3.02e+01	0	29	0	513277952	58	5847
2026-01-04 18:24:05.12	276.12	17.32	-38.8	-40.1	28.8	3.02e+01	0	29	0	514850816	56	6598
2026-01-04 18:24:06.14	275.92	17.23	-38.7	-39.9	28.7	3.02e+01	0	29	0	516947968	58	5744
2026-01-04 18:24:07.15	275.72	17.14	-39.6	-40.9	28.1	3.02e+01	0	29	0	519045120	58	6433
2026-01-04 18:24:08.16	275.52	17.06	-38.7	-39.9	28.5	3.02e+01	0	29	0	520617984	58	5753
2026-01-04 18:24:09.17	275.32	16.97	-38.4	-39.6	29.1	3.02e+01	0	29	0	522715136	56	6238
2026-01-04 18:24:10.18	275.12	16.88	-39.1	-40.4	28.5	3.02e+01	0	29	0	524812288	56	6863
2026-01-04 18:24:11.19	274.93	16.80	-38.5	-39.7	28.8	3.02e+01	0	29	0	526385152	56	6299
2026-01-04 18:24:12.20	274.73	16.71	-38.4	-39.5	29.2	3.02e+01	0	29	0	528482304	56	6205
2026-01-04 18:24:13.21	274.54	16.62	-38.9	-40.2	28.6	3.02e+01	0	29	0	530055168	56	6704
2026-01-04 18:24:14.22	274.35	16.54	-38.6	-39.8	28.8	3.02e+01	0	29	0	532152320	56	6403
2026-01-04 18:24:15.23	274.16	16.45	-38.5	-39.7	28.8	3.02e+01	0	29	0	534249472	56	6349
2026-01-04 18:24:16.25	273.97	16.36	-39.1	-40.4	28.5	3.02e+01	0	29	0	535822336	56	6857
2026-01-04 18:24:17.26	273.78	16.27	-38.5	-39.7	29.0	3.02e+01	0	29	0	537919488	56	6339
2026-01-04 18:24:18.27	273.59	16.19	-38.7	-39.9	29.0	3.02e+01	0	29	0	539492352	56	6443
2026-01-04 18:24:19.28	273.40	16.10	-38.7	-40.0	28.8	3.02e+01	0	29	0	541589504	56	6510
2026-01-04 18:24:20.29	273.22	16.01	-38.8	-40.0	28.7	3.02e+01	0	29	0	543686656	56	6538
2026-01-04 18:24:21.30	273.04	15.93	-38.9	-40.2	28.7	3.02e+01	0	29	0	545259520	56	6662
2026-01-04 18:24:22.31	272.85	15.84	-38.5	-39.7	28.7	3.02e+01	0	29	0	547356672	56	6296
2026-01-04 18:24:23.32	272.67	15.75	-39.1	-40.3	26.1	3.02e+01	0	29	0	548929536	56	6792
2026-01-04 18:24:24.33	272.49	15.67	-39.2	-40.5	28.3	3.02e+01	0	29	0	551026688	58	6154
2026-01-04 18:24:25.34	272.31	15.58	-38.6	-39.8	28.8	3.02e+01	0	29	0	553123840	58	5697
2026-01-04 18:24:26.36	272.13	15.49	-38.9	-40.1	28.6	3.02e+01	0	29	0	554696704	58	5903
2026-01-04 18:24:27.37	271.96	15.41	-38.7	-40.0	28.5	3.02e+01	0	29	0	556793856	58	5797
2026-01-04 18:24:28.38	271.78	15.32	-38.8	-40.0	28.7	3.02e+01	0	29	0	558891008	58	5831
2026-01-04 18:24:29.39	271.60	15.24	-38.6	-39.8	28.9	3.02e+01	0	29	0	560463872	58	5676
2026-01-04 18:24:30.40	271.43	15.15	-39.0	-40.2	28.8	3.02e+01	0	29	0	562561024	58	5960
2026-01-04 18:24:31.41	271.26	15.06	-39.0	-40.3	28.9	3.02e+01	0	29	0	564133888	58	5997
2026-01-04 18:24:32.42	271.09	14.98	-38.8	-40.0	28.9	3.02e+01	0	29	0	566231040	58	5819
2026-01-04 18:24:33.43	270.92	14.89	-38.3	-39.5	29.2	3.02e+01	0	29	0	568328192	56	6165
2026-01-04 18:24:34.44	270.75	14.81	-38.8	-40.0	28.8	3.02e+01	0	29	0	569901056	56	6545
2026-01-04 18:24:35.46	270.58	14.72	-39.2	-40.4	28.7	3.02e+01	0	29	0	571998208	56	6866
2026-01-04 18:24:36.47	270.41	14.63	-38.7	-39.9	28.8	3.02e+01	0	29	0	573571072	56	6475
2026-01-04 18:24:37.48	270.24	14.55	-38.4	-39.6	28.8	3.02e+01	0	29	0	575668224	56	6248
2026-01-04 18:24:38.49	270.08	14.46	-38.0	-39.2	29.1	3.02e+01	0	29	0	577765376	56	5962
2026-01-04 18:24:39.50	269.91	14.38	-38.4	-39.6	29.0	3.02e+01	0	29	0	579338240	56	6244
2026-01-04 18:24:40.51	269.75	14.29	-38.9	-40.1	28.6	3.02e+01	0	29	0	581435392	56	6645
2026-01-04 18:24:41.52	269.59	14.21	-38.9	-40.2	28.4	3.02e+01	0	29	0	583532544	56	6697
2026-01-04 18:24:42.53	269.43	14.12	-38.6	-39.8	28.9	3.02e+01	0	29	0	585105408	56	6412
2026-01-04 18:24:43.54	269.27	14.04	-38.3	-39.5	29.0	3.02e+01	0	29	0	587202560	56	6188
2026-01-04 18:24:44.56	269.11	13.95	-38.3	-39.5	29.1	3.02e+01	0	29	0	588775424	56	6188
2026-01-04 18:24:45.57	268.95	13.87	-38.7	-40.0	28.7	3.02e+01	0	29	0	590872576	56	6520
2026-01-04 18:24:46.58	268.79	13.79	-38.7	-40.0	28.7	3.02e+01	0	29	0	592969728	56	6517
2026-01-04 18:24:47.59	268.63	13.70	-38.5	-39.7	28.8	3.02e+01	0	29	0	594542592	56	6321
2026-01-04 18:24:48.60	268.48	13.62	-40.2	-41.5	23.7	3.02e+01	0	29	0	596639744	56	7740
2026-01-04 18:24:49.61	268.32	13.53	-39.2	-40.4	28.9	3.02e+01	0	29	0	598736896	58	6117
2026-01-04 18:24:50.62	268.17	13.45	-39.6	-40.8	28.2	3.02e+01	0	29	0	600309760	58	6388
2026-01-04 18:24:51.63	268.02	13.36	-39.0	-40.3	28.6	3.02e+01	0	29	0	602406912	58	6020
2026-01-04 18:24:52.64	267.87	13.28	-38.7	-40.0	28.7	3.02e+01	0	29	0	603979776	58	5807
2026-01-04 18:24:53.65	267.72	13.20	-38.5	-39.7	28.9	3.02e+01	0	29	0	606076928	56	6318
2026-01-04 18:24:54.67	267.56	13.11	-38.4	-39.6	28.9	3.02e+01	0	29	0	608174080	56	6258
2026-01-04 18:24:55.68	267.42	13.03	-39.2	-40.4	29.1	3.02e+01	0	29	0	609746944	58	6098
2026-01-04 18:24:56.69	267.27	12.95	-38.8	-40.0	28.2	3.02e+01	0	29	0	611844096	58	5851
2026-01-04 18:24:57.70	267.12	12.86	-39.0	-40.3	28.6	3.02e+01	0	29	0	613416960	58	6015
2026-01-04 18:24:58.71	266.97	12.78	-38.4	-39.6	29.0	3.02e+01	0	29	0	615514112	58	5554
2026-01-04 18:24:59.72	266.83	12.70	-38.4	-39.6	29.0	3.02e+01	0	29	0	617611264	56	6276
2026-01-04 18:25:00.73	266.69	12.62	-38.8	-40.0	28.9	3.02e+01	0	29	0	619184128	56	6512
2026-01-04 18:25:01.74	266.54	12.53	-38.7	-39.9	28.8	3.02e+01	0	29	0	621281280	56	6450
2026-01-04 18:25:02.75	266.40	12.45	-39.2	-40.4	28.4	3.02e+01	0	29	0	623378432	58	6127
2026-01-04 18:25:03.77	266.26	12.37	-38.9	-40.2	28.7	3.02e+01	0	29	0	624951296	58	5938
2026-01-04 18:25:04.78	266.12	12.29	-38.8	-40.0	28.8	3.02e+01	0	29	0	627048448	58	5824
2026-01-04 18:25:05.79	265.98	12.20	-38.5	-39.7	28.8	3.02e+01	0	29	0	628621312	58	5651
2026-01-04 18:25:06.80	265.84	12.12	-38.8	-40.0	28.7	3.02e+01	0	29	0	630718464	56	6526
2026-01-04 18:25:07.81	265.70	12.04	-38.7	-39.9	28.5	3.02e+01	0	29	0	632815616	56	6488
2026-01-04 18:25:08.82	265.56	11.96	-38.7	-39.9	28.7	3.02e+01	0	29	0	634388480	56	6480
2026-01-04 18:25:09.83	265.42	11.88	-38.7	-40.0	28.6	3.02e+01	0	29	0	636485632	56	6500
2026-01-04 18:25:10.84	265.29	11.80	-38.4	-39.6	28.9	3.02e+01	0	29	0	638582784	56	6232
2026-01-04 18:25:11.85	265.15	11.72	-38.8	-40.0	28.5	3.02e+01	0	29	0	640155648	56	6529
2026-01-04 18:25:12.87	265.02	11.63	-39.1	-40.3	28.6	3.02e+01	0	29	0	642252800	56	6766
2026-01-04 18:25:13.88	264.88	11.55	-39.4	-40.6	28.6	3.02e+01	0	29	0	643825664	58	6276
2026-01-04 18:25:14.89	264.75	11.47	-39.1	-40.3	28.6	3.02e+01	0	29	0	645922816	58	6046
2026-01-04 18:25:15.90	264.62	11.39	-38.6	-39.8	28.7	3.02e+01	0	29	0	648019968	58	5683
2026-01-04 18:25:16.91	264.49	11.31	-39.2	-40.4	28.3	3.02e+01	0	29	0	649592832	58	6123
2026-01-04 18:25:17.92	264.36	11.23	-39.1	-40.3	28.2	3.02e+01	0	29	0	651689984	58	6031
2026-01-04 18:25:18.93	264.23	11.15	-38.6	-39.8	28.6	3.02e+01	0	29	0	653262848	58	5719
2026-01-04 18:25:19.94	264.10	11.07	-38.6	-39.9	28.6	3.02e+01	0	29	0	655360000	58	5728
2026-01-04 18:25:20.95	263.97	10.99	-38.6	-39.9	28.5	3.02e+01	0	29	0	657457152	58	5729
2026-01-04 18:25:21.97	263.84	10.91	-39.5	-40.8	27.9	3.02e+01	0	29	0	659030016	58	6357
2026-01-04 18:25:22.98	263.72	10.83	-38.9	-40.1	28.6	3.02e+01	0	29	0	661127168	58	5910
2026-01-04 18:25:23.99	263.59	10.76	-38.8	-40.0	28.7	3.02e+01	0	29	0	663224320	58	5830
2026-01-04 18:25:25.00	263.47	10.68	-38.8	-40.0	28.7	3.02e+01	0	29	0	664797184	58	5845
2026-01-04 18:25:26.01	263.34	10.60	-39.1	-40.3	28.5	3.02e+01	0	29	0	666894336	58	6053
2026-01-04 18:25:27.02	263.22	10.52	-39.4	-40.7	28.4	3.02e+01	0	29	0	668467200	58	6326
2026-01-04 18:25:28.03	263.10	10.44	-38.7	-39.9	28.6	3.02e+01	0	29	0	670564352	58	5777
2026-01-04 18:25:29.04	262.98	10.36	-38.5	-39.7	28.6	3.02e+01	0	29	0	672661504	58	5655
2026-01-04 18:25:30.05	262.86	10.28	-38.5	-39.7	28.6	3.02e+01	0	29	0	674234368	58	5652
2026-01-04 18:25:31.06	262.73	10.21	-38.7	-40.0	28.6	3.02e+01	0	29	0	676331520	58	5792
2026-01-04 18:25:32.07	262.61	10.13	-38.8	-40.1	28.5	3.02e+01	0	29	0	677904384	58	5873
2026-01-04 18:25:33.08	262.50	10.05	-39.0	-40.2	28.4	3.02e+01	0	29	0	680001536	58	5986
2026-01-04 18:25:34.09	262.38	9.97	-38.8	-40.1	28.2	3.02e+01	0	29	0	682098688	58	5884
2026-01-04 18:25:35.11	262.26	9.89	-39.1	-40.4	28.3	3.02e+01	0	29	0	683671552	58	6092
2026-01-04 18:25:36.12	262.14	9.82	-38.9	-40.1	28.4	3.02e+01	0	29	0	685768704	58	5886
2026-01-04 18:25:37.13	262.03	9.74	-38.7	-40.0	28.5	3.02e+01	0	29	0	687341568	58	5805
2026-01-04 18:25:38.14	261.91	9.66	-39.0	-40.3	28.2	3.02e+01	0	29	0	689438720	58	6008
2026-01-04 18:25:39.15	261.79	9.59	-38.9	-40.2	28.4	3.02e+01	0	29	0	691535872	58	5963
2026-01-04 18:25:40.16	261.68	9.51	-38.8	-40.0	28.4	3.02e+01	0	29	0	693108736	58	5843
2026-01-04 18:25:41.17	261.57	9.43	-38.8	-40.0	28.3	3.02e+01	0	29	0	695205888	58	5855
2026-01-04 18:25:42.19	261.45	9.36	-38.9	-40.2	28.4	3.02e+01	0	29	0	697303040	58	5952
2026-01-04 18:25:43.20	261.34	9.28	-38.9	-40.1	28.3	3.02e+01	0	29	0	698875904	58	5910
2026-01-04 18:25:44.21	261.23	9.20	-39.0	-40.2	28.2	3.02e+01	0	29	0	700973056	58	5980
2026-01-04 18:25:45.22	261.12	9.13	-39.1	-40.4	28.2	3.02e+01	0	29	0	702545920	58	6070
2026-01-04 18:25:46.23	261.01	9.05	-39.2	-40.4	28.4	3.02e+01	0	29	0	704643072	58	6124
2026-01-04 18:25:47.24	260.90	8.98	-38.8	-40.1	28.3	3.02e+01	0	29	0	706740224	58	5883
2026-01-04 18:25:48.25	260.79	8.90	-39.1	-40.4	28.1	3.02e+01	0	29	0	708313088	58	6097
2026-01-04 18:25:49.26	260.68	8.83	-38.9	-40.2	28.2	3.02e+01	0	29	0	710410240	58	5931
2026-01-04 18:25:50.27	260.57	8.75	-39.5	-40.8	28.0	3.02e+01	0	29	0	711983104	58	6405
2026-01-04 18:25:51.28	260.46	8.68	-39.2	-40.5	28.1	3.02e+01	0	29	0	714080256	58	6160
2026-01-04 18:25:52.30	260.36	8.60	-39.2	-40.5	27.8	3.02e+01	0	29	0	716177408	58	6161
2026-01-04 18:25:53.31	260.25	8.53	-39.5	-40.8	27.8	3.02e+01	0	29	0	717750272	58	6385
2026-01-04 18:25:54.32	260.15	8.45	-39.2	-40.5	27.9	3.02e+01	0	29	0	719847424	58	6137
2026-01-04 18:25:55.33	260.04	8.38	-39.1	-40.4	27.9	3.02e+01	0	29	0	721944576	58	6092
2026-01-04 18:25:56.34	259.94	8.30	-39.2	-40.4	28.2	3.02e+01	0	29	0	723517440	58	6113
2026-01-04 18:25:57.35	259.83	8.23	-39.0	-40.3	28.3	3.02e+01	0	29	0	725614592	58	6021
2026-01-04 18:25:58.36	259.73	8.16	-39.5	-40.8	27.8	3.02e+01	0	29	0	727187456	58	6410
2026-01-04 18:25:59.37	259.63	8.08	-39.0	-40.2	28.2	3.02e+01	0	29	0	729284608	58	5983
2026-01-04 18:26:00.38	259.52	8.01	-39.1	-40.4	27.9	3.02e+01	0	29	0	731381760	58	6094
2026-01-04 18:26:01.39	259.42	7.94	-39.2	-40.5	27.9	3.02e+01	0	29	0	732954624	58	6183
2026-01-04 18:26:02.41	259.32	7.86	-39.4	-40.7	27.9	3.02e+01	0	29	0	735051776	58	6339
2026-01-04 18:26:03.42	259.22	7.79	-39.4	-40.7	27.7	3.02e+01	0	29	0	736624640	58	6283
2026-01-04 18:26:04.43	259.12	7.72	-39.2	-40.5	27.9	3.02e+01	0	29	0	738721792	58	6172
2026-01-04 18:26:05.44	259.02	7.64	-39.2	-40.5	27.8	3.02e+01	0	29	0	740818944	58	6142
2026-01-04 18:26:06.45	258.92	7.57	-38.8	-40.0	28.2	3.02e+01	0	29	0	742391808	58	5854
2026-01-04 18:26:07.46	258.83	7.50	-39.0	-40.3	28.0	3.02e+01	0	29	0	744488960	58	6019
2026-01-04 18:26:08.47	258.73	7.43	-39.1	-40.4	28.1	3.02e+01	0	29	0	746061824	58	6084
2026-01-04 18:26:09.48	258.63	7.35	-39.1	-40.3	28.1	3.02e+01	0	29	0	748158976	58	6041
2026-01-04 18:26:10.49	258.53	7.28	-38.9	-40.2	28.1	3.02e+01	0	29	0	750256128	58	5935
2026-01-04 18:26:11.50	258.44	7.21	-39.5	-40.8	28.0	3.02e+01	0	29	0	751828992	58	6411
2026-01-04 18:26:12.52	258.34	7.14	-39.5	-40.8	27.9	3.02e+01	0	29	0	753926144	58	6355
2026-01-04 18:26:13.53	258.25	7.07	-39.6	-40.9	27.6	3.02e+01	0	29	0	756023296	58	6461
2026-01-04 18:26:14.54	258.15	7.00	-39.5	-40.7	27.8	3.02e+01	0	29	0	757596160	58	6347
2026-01-04 18:26:15.55	258.06	6.92	-39.2	-40.5	27.9	3.02e+01	0	29	0	759693312	58	6175
2026-01-04 18:26:16.56	257.97	6.85	-39.0	-40.2	27.9	3.02e+01	0	29	0	761266176	58	5980
2026-01-04 18:26:17.57	257.87	6.78	-39.1	-40.4	27.9	3.02e+01	0	29	0	763363328	58	6081
2026-01-04 18:26:18.58	257.78	6.71	-39.1	-40.3	27.9	3.02e+01	0	29	0	765460480	58	6055
2026-01-04 18:26:19.59	257.69	6.64	-39.5	-40.8	27.8	3.02e+01	0	29	0	767033344	58	6398
2026-01-04 18:26:20.61	257.60	6.57	-39.7	-41.0	27.7	3.02e+01	0	29	0	769130496	58	6546
2026-01-04 18:26:21.62	257.51	6.50	-39.9	-41.2	27.3	3.02e+01	0	29	0	771227648	58	6723
2026-01-04 18:26:22.63	257.42	6.43	-39.7	-41.0	27.5	3.02e+01	0	29	0	772800512	58	6519
2026-01-04 18:26:23.64	257.33	6.36	-39.7	-41.1	27.6	3.02e+01	0	29	0	774897664	58	6576
2026-01-04 18:26:24.65	257.24	6.29	-39.5	-40.8	27.6	3.02e+01	0	29	0	776470528	58	6400
2026-01-04 18:26:25.66	257.15	6.22	-39.5	-40.8	27.5	3.02e+01	0	29	0	778567680	58	6380
2026-01-04 18:26:26.67	257.06	6.15	-39.8	-41.1	27.2	3.02e+01	0	29	0	780664832	58	6624
2026-01-04 18:26:27.68	256.97	6.08	-39.6	-40.9	27.4	3.02e+01	0	29	0	782237696	58	6484
2026-01-04 18:26:28.69	256.88	6.01	-39.7	-41.0	27.3	3.02e+01	0	29	0	784334848	58	6517
2026-01-04 18:26:29.70	256.80	5.94	-39.7	-41.1	27.1	3.02e+01	0	29	0	785907712	58	6595
2026-01-04 18:26:30.72	256.71	5.87	-39.4	-40.7	27.5	3.02e+01	0	29	0	788004864	58	6324
2026-01-04 18:26:31.73	256.62	5.80	-39.4	-40.8	27.3	3.02e+01	0	29	0	790102016	58	6377
2026-01-04 18:26:32.74	256.54	5.74	-39.6	-40.9	27.1	3.02e+01	0	29	0	791674880	58	6479
2026-01-04 18:26:33.75	256.45	5.67	-39.6	-40.9	27.4	3.02e+01	0	29	0	793772032	58	6469
2026-01-04 18:26:34.76	256.37	5.60	-39.3	-40.6	27.6	3.02e+01	0	29	0	795869184	58	6226
2026-01-04 18:26:35.77	256.28	5.53	-39.3	-40.6	27.5	3.02e+01	0	29	0	797442048	58	6215
2026-01-04 18:26:36.78	256.20	5.46	-39.3	-40.6	27.4	3.02e+01	0	29	0	799539200	58	6239
2026-01-04 18:26:37.79	256.12	5.39	-39.2	-40.5	27.5	3.02e+01	0	29	0	801112064	58	6165
2026-01-04 18:26:38.80	256.03	5.33	-39.5	-40.8	27.3	3.02e+01	0	29	0	803209216	58	6389
2026-01-04 18:26:39.81	255.95	5.26	-39.4	-40.7	27.3	3.02e+01	0	29	0	805306368	58	6312
2026-01-04 18:26:40.83	255.87	5.19	-39.7	-41.0	27.1	3.02e+01	0	29	0	806879232	58	6534
2026-01-04 18:26:41.84	255.79	5.12	-39.4	-40.7	27.3	3.02e+01	0	29	0	808976384	58	6298
2026-01-04 18:26:42.85	255.71	5.06	-39.5	-40.9	27.2	3.02e+01	0	29	0	811073536	58	6436
2026-01-04 18:26:43.86	255.63	4.99	-39.5	-40.8	27.1	3.02e+01	0	29	0	812646400	58	6416
2026-01-04 18:26:44.87	255.55	4.92	-39.5	-40.8	27.2	3.02e+01	0	29	0	814743552	58	6379
2026-01-04 18:26:45.88	255.47	4.86	-39.4	-40.7	27.3	3.02e+01	0	29	0	816316416	58	6349
2026-01-04 18:26:46.89	255.39	4.79	-39.7	-41.0	27.1	3.02e+01	0	29	0	818413568	58	6526
2026-01-04 18:26:47.90	255.31	4.72	-39.6	-40.9	27.1	3.02e+01	0	29	0	820510720	58	6494
2026-01-04 18:26:48.91	255.23	4.66	-39.5	-40.8	27.2	3.02e+01	0	29	0	822083584	58	6423
2026-01-04 18:26:49.93	255.15	4.59	-39.7	-41.0	27.3	3.02e+01	0	29	0	824180736	58	6512
2026-01-04 18:26:50.94	255.07	4.52	-40.1	-41.5	26.8	3.02e+01	0	29	0	825753600	58	6922
2026-01-04 18:26:51.95	254.99	4.46	-40.0	-41.3	26.9	3.02e+01	0	29	0	827850752	58	6797
2026-01-04 18:26:52.96	254.92	4.39	-40.1	-41.5	26.9	3.02e+01	0	29	0	829947904	60	6146
2026-01-04 18:26:53.97	254.84	4.32	-40.5	-41.8	26.6	3.02e+01	0	29	0	831520768	60	6416
2026-01-04 18:26:54.98	254.76	4.26	-40.6	-42.0	26.7	3.02e+01	0	29	0	833617920	60	6544
2026-01-04 18:26:55.99	254.69	4.19	-40.7	-42.1	26.6	3.02e+01	0	29	0	835715072	60	6614
2026-01-04 18:26:57.00	254.61	4.13	-40.3	-41.6	26.7	3.02e+01	0	29	0	837287936	60	6271
2026-01-04 18:26:58.01	254.54	4.06	-40.3	-41.7	26.7	3.02e+01	0	29	0	839385088	60	6314
2026-01-04 18:26:59.03	254.46	4.00	-40.1	-41.5	26.8	3.02e+01	0	29	0	840957952	60	6135
2026-01-04 18:27:00.04	254.39	3.93	-40.3	-41.6	26.8	3.02e+01	0	29	0	843055104	60	6268
2026-01-04 18:27:01.05	254.31	3.87	-39.9	-41.2	26.9	3.02e+01	0	29	0	845152256	60	5968
2026-01-04 18:27:02.06	254.24	3.80	-40.1	-41.4	26.5	3.02e+01	0	29	0	846725120	60	6109
2026-01-04 18:27:03.07	254.17	3.74	-40.1	-41.5	26.7	3.02e+01	0	29	0	848822272	60	6149
2026-01-04 18:27:04.08	254.09	3.67	-40.4	-41.8	26.4	3.02e+01	0	29	0	850919424	60	6379
2026-01-04 18:27:05.09	254.02	3.61	-40.5	-41.9	26.2	3.02e+01	0	29	0	852492288	60	6485
2026-01-04 18:27:06.10	253.95	3.55	-40.5	-41.9	26.3	3.02e+01	0	29	0	854589440	60	6461
2026-01-04 18:27:07.11	253.88	3.48	-40.5	-41.9	26.3	3.02e+01	0	29	0	856162304	60	6436
2026-01-04 18:27:08.12	253.80	3.42	-40.9	-42.3	26.1	3.02e+01	0	29	0	858259456	60	6755
2026-01-04 18:27:09.13	253.73	3.35	-40.7	-42.1	26.2	3.02e+01	0	29	0	860356608	60	6576
2026-01-04 18:27:10.15	253.66	3.29	-40.3	-41.7	26.4	3.02e+01	0	29	0	861929472	60	6328
2026-01-04 18:27:11.16	253.59	3.23	-41.0	-42.4	26.2	3.02e+01	0	29	0	864026624	60	6844
2026-01-04 18:27:12.17	253.52	3.16	-40.9	-42.3	26.3	3.02e+01	0	29	0	865599488	60	6776
2026-01-04 18:27:13.18	253.45	3.10	-40.5	-41.9	26.4	3.02e+01	0	29	0	867696640	60	6444
2026-01-04 18:27:14.19	253.38	3.04	-40.4	-41.8	26.5	3.02e+01	0	29	0	869793792	60	6376
2026-01-04 18:27:15.20	253.31	2.97	-40.4	-41.8	26.4	3.02e+01	0	29	0	871366656	60	6384
2026-01-04 18:27:16.21	253.24	2.91	-40.4	-41.8	26.4	3.02e+01	0	29	0	873463808	60	6379
