passes_logs/2026/01/04/R4.6S_Anadyr_2ch/R4.6S_Anadyr_2ch__20260104_212733_SUOMI_NPP_rec.log

#Pass ID: 20260104_212733_SUOMI NPP
#Satellite: SUOMI NPP
#Configuration: NPP
#almurnet v.1.7.20251203
#Start time: 2026-01-04 21:27:36

#Version: 2.2.20231116
#Station: R4.6S_Anadyr_2ch
#Location: 177.4865 lon 64.73178 lat
#TLE: 1 37849U 11061A   25350.92281687  .00000071  00000+0  54882-4 0  9996
#TLE: 2 37849  98.7777 288.2268 0002366 112.8570 247.2856 14.19515404732588

#Time	Az	El	Level	Level2	SNR	BER	BlckErr	Temp	State	Recorded	gain1	gain2
2026-01-04 21:27:36.17	89.33	0.14	-51.0	-62.2	3.6	8.45e-01	0	26	0	0	60	63705
2026-01-04 21:27:37.18	89.27	0.19	-51.6	-67.1	3.6	1.51e+00	0	27	104	0	60	110340
2026-01-04 21:27:38.19	89.21	0.25	-51.4	-67.0	3.6	1.51e+00	0	27	104	0	60	109163
2026-01-04 21:27:39.20	89.15	0.30	-51.4	-67.0	3.6	1.51e+00	0	27	104	0	60	108947
2026-01-04 21:27:40.21	89.08	0.35	-51.4	-67.0	3.6	1.51e+00	0	27	104	0	60	108869
2026-01-04 21:27:41.23	89.02	0.41	-51.5	-67.1	3.6	1.51e+00	0	27	104	0	60	109810
2026-01-04 21:27:42.24	88.96	0.46	-51.3	-66.9	3.6	1.51e+00	0	27	104	0	60	108009
2026-01-04 21:27:43.25	88.89	0.51	-51.3	-66.9	3.6	1.51e+00	0	27	104	0	60	107903
2026-01-04 21:27:44.26	88.83	0.57	-51.2	-66.8	3.6	1.51e+00	0	27	104	0	60	106453
2026-01-04 21:27:45.27	88.76	0.62	-51.1	-66.7	3.6	1.51e+00	0	27	104	0	60	105279
2026-01-04 21:27:46.28	88.70	0.68	-51.1	-66.6	3.6	1.51e+00	0	27	104	0	60	104342
2026-01-04 21:27:47.29	88.63	0.73	-50.5	-66.4	3.6	1.51e+00	0	27	104	0	60	101671
2026-01-04 21:27:48.30	88.57	0.78	-50.7	-66.2	3.6	1.51e+00	0	27	104	0	60	99742
2026-01-04 21:27:49.32	88.50	0.84	-49.9	-65.6	3.6	1.51e+00	0	27	104	0	60	92562
2026-01-04 21:27:50.33	88.44	0.89	-49.4	-65.1	3.6	1.51e+00	0	27	104	0	60	87746
2026-01-04 21:27:51.34	88.37	0.95	-49.4	-65.1	3.6	1.51e+00	0	27	104	0	60	87236
2026-01-04 21:27:52.35	88.31	1.00	-49.4	-65.0	3.6	1.51e+00	0	27	104	0	60	87163
2026-01-04 21:27:53.36	88.24	1.06	-49.4	-65.0	3.6	1.51e+00	0	27	104	0	60	87075
2026-01-04 21:27:54.37	88.17	1.11	-49.4	-65.0	3.6	1.51e+00	0	28	104	0	60	87049
2026-01-04 21:27:55.38	88.11	1.17	-49.4	-65.0	3.6	1.51e+00	0	28	104	0	60	86977
2026-01-04 21:27:56.39	88.04	1.22	-49.4	-65.1	3.6	1.51e+00	0	28	104	0	60	87537
2026-01-04 21:27:57.40	87.97	1.27	-49.4	-65.0	3.6	1.51e+00	0	28	104	0	60	87065
2026-01-04 21:27:58.41	87.90	1.33	-49.4	-65.0	3.6	1.51e+00	0	28	104	0	60	87034
2026-01-04 21:27:59.42	87.84	1.38	-49.4	-65.0	3.6	1.51e+00	0	28	104	0	60	86906
2026-01-04 21:28:00.43	87.77	1.44	-49.4	-65.0	3.6	1.51e+00	0	28	104	0	60	86857
2026-01-04 21:28:01.44	87.70	1.49	-49.4	-65.0	3.6	1.51e+00	0	28	104	0	60	86212
2026-01-04 21:28:02.45	87.63	1.55	-49.4	-65.0	3.6	1.51e+00	0	28	104	0	60	86951
2026-01-04 21:28:03.46	87.56	1.60	-49.4	-65.1	3.6	1.51e+00	0	28	104	0	60	87223
2026-01-04 21:28:04.47	87.49	1.66	-49.4	-65.0	3.6	1.51e+00	0	28	104	0	60	87015
2026-01-04 21:28:05.49	87.42	1.71	-49.4	-65.1	3.6	1.51e+00	0	28	104	0	60	87215
2026-01-04 21:28:06.50	87.35	1.77	-49.4	-65.0	3.6	1.51e+00	0	28	104	0	60	86910
2026-01-04 21:28:07.51	87.28	1.83	-49.5	-65.0	3.6	1.51e+00	0	28	104	0	60	86706
2026-01-04 21:28:08.52	87.21	1.88	-49.4	-65.0	3.6	1.51e+00	0	28	104	0	60	86692
2026-01-04 21:28:09.53	87.14	1.94	-49.4	-64.9	3.6	1.51e+00	0	28	104	0	60	85708
2026-01-04 21:28:10.54	87.07	1.99	-49.4	-64.9	3.6	1.51e+00	0	28	104	0	60	85913
2026-01-04 21:28:11.55	87.00	2.05	-49.3	-64.8	3.6	1.51e+00	0	28	104	0	60	84648
2026-01-04 21:28:12.56	86.93	2.10	-49.4	-64.6	3.6	1.51e+00	0	28	104	0	60	83270
2026-01-04 21:28:13.57	86.86	2.16	-49.4	-64.8	3.6	1.51e+00	0	28	104	0	60	84934
2026-01-04 21:28:14.58	86.78	2.21	-49.4	-64.9	3.6	1.51e+00	0	28	104	0	60	85306
2026-01-04 21:28:15.59	86.71	2.27	-49.4	-65.0	3.6	1.51e+00	0	28	104	0	60	86564
2026-01-04 21:28:16.60	86.64	2.33	-49.4	-65.0	3.6	1.51e+00	0	28	104	0	60	86956
2026-01-04 21:28:17.61	86.57	2.38	-49.4	-65.0	3.6	1.51e+00	0	28	104	0	60	86660
2026-01-04 21:28:18.63	86.49	2.44	-49.4	-64.8	3.6	1.51e+00	0	28	104	0	60	85077
2026-01-04 21:28:19.64	86.42	2.50	-49.4	-65.0	3.6	1.51e+00	0	28	104	0	60	86289
2026-01-04 21:28:20.65	86.35	2.55	-49.4	-65.1	3.6	1.51e+00	0	28	104	0	60	87709
2026-01-04 21:28:21.66	86.27	2.61	-49.4	-65.0	3.6	1.51e+00	0	28	104	0	60	86305
2026-01-04 21:28:22.67	86.20	2.66	-49.4	-64.6	3.6	1.51e+00	0	28	104	0	60	82740
2026-01-04 21:28:23.68	86.12	2.72	-49.4	-63.9	3.6	1.51e+00	0	28	104	0	60	76166
2026-01-04 21:28:24.69	86.05	2.78	-49.4	-64.0	3.6	1.51e+00	0	28	104	0	60	76974
2026-01-04 21:28:25.70	85.97	2.83	-49.4	-64.4	3.6	1.51e+00	0	28	104	0	60	81295
2026-01-04 21:28:26.71	85.90	2.89	-49.4	-64.8	3.6	1.51e+00	0	28	104	0	60	84394
2026-01-04 21:28:27.72	85.82	2.95	-49.5	-63.4	3.6	1.51e+00	0	28	104	0	60	72046
2026-01-04 21:28:28.73	85.74	3.00	-49.4	-61.8	3.7	1.50e+00	0	28	104	0	60	59688
2026-01-04 21:28:29.74	85.67	3.06	-49.2	-59.0	5.0	6.48e-01	0	28	0	0	60	43430
2026-01-04 21:28:30.75	85.59	3.12	-48.9	-56.3	7.1	2.23e-01	0	28	0	2097152	60	31709
2026-01-04 21:28:31.77	85.51	3.17	-49.9	-65.0	3.6	2.79e-01	0	28	104	3145728	60	86296
2026-01-04 21:28:32.78	85.44	3.23	-49.5	-64.9	3.6	1.51e+00	0	28	104	3145728	60	86071
2026-01-04 21:28:33.79	85.36	3.29	-48.7	-56.1	7.6	1.04e+00	0	28	104	3145728	60	31288
2026-01-04 21:28:34.80	85.28	3.35	-44.7	-46.9	17.1	1.31e-02	0	28	0	3145728	60	10773
2026-01-04 21:28:35.81	85.20	3.40	-49.7	-64.4	3.6	2.44e-05	0	28	104	5242880	60	80731
2026-01-04 21:28:36.82	85.12	3.46	-45.8	-48.8	16.7	1.42e+00	0	28	104	5242880	60	13379
2026-01-04 21:28:37.83	85.05	3.52	-43.8	-45.7	18.2	0.00e+00	0	28	0	5242880	60	9407
2026-01-04 21:28:38.84	84.97	3.57	-44.9	-47.1	17.1	0.00e+00	0	28	0	7340032	60	11071
2026-01-04 21:28:39.85	84.89	3.63	-44.8	-47.0	17.4	0.00e+00	0	28	0	9437184	60	10968
2026-01-04 21:28:40.87	84.81	3.69	-44.7	-46.8	17.3	0.00e+00	0	28	0	11534336	60	10694
2026-01-04 21:28:41.88	84.73	3.75	-45.2	-47.5	16.8	0.00e+00	0	28	0	12582912	60	11576
2026-01-04 21:28:42.89	84.64	3.81	-44.6	-46.7	17.5	0.00e+00	0	28	0	14680064	60	10544
2026-01-04 21:28:43.90	84.56	3.86	-44.8	-46.9	17.4	0.00e+00	0	28	0	16777216	60	10794
2026-01-04 21:28:44.91	84.48	3.92	-44.6	-46.7	17.5	0.00e+00	0	28	0	18874368	60	10555
2026-01-04 21:28:45.92	84.40	3.98	-44.6	-46.7	17.7	0.00e+00	0	28	0	20971520	60	10531
2026-01-04 21:28:46.93	84.32	4.04	-44.2	-46.1	18.4	0.00e+00	0	28	0	22020096	60	9818
2026-01-04 21:28:47.94	84.24	4.10	-44.3	-46.2	18.2	0.00e+00	0	28	0	24117248	60	9940
2026-01-04 21:28:48.95	84.15	4.15	-44.3	-46.2	18.1	0.00e+00	0	28	0	26214400	60	10006
2026-01-04 21:28:49.96	84.07	4.21	-44.4	-46.3	18.6	0.00e+00	0	28	0	28311552	60	10017
2026-01-04 21:28:50.98	83.99	4.27	-44.1	-45.9	18.3	0.00e+00	0	28	0	30408704	60	9587
2026-01-04 21:28:51.99	83.90	4.33	-43.9	-45.6	18.7	0.00e+00	0	28	0	31457280	60	9343
2026-01-04 21:28:53.00	83.82	4.39	-44.4	-46.3	18.1	0.00e+00	0	28	0	33554432	60	10096
2026-01-04 21:28:54.01	83.74	4.45	-44.7	-46.8	17.7	0.00e+00	0	28	0	35651584	60	10682
2026-01-04 21:28:55.02	83.65	4.50	-44.5	-46.5	17.9	0.00e+00	0	28	0	37748736	60	10319
2026-01-04 21:28:56.03	83.57	4.56	-44.4	-46.4	18.1	0.00e+00	0	28	0	39845888	60	10175
2026-01-04 21:28:57.04	83.48	4.62	-44.2	-46.1	18.3	0.00e+00	0	28	0	41943040	60	9894
2026-01-04 21:28:58.06	83.39	4.68	-44.1	-46.0	18.4	0.00e+00	0	28	0	42991616	60	9689
2026-01-04 21:28:59.07	83.31	4.74	-44.0	-45.8	18.6	0.00e+00	0	28	0	45088768	60	9514
2026-01-04 21:29:00.08	83.22	4.80	-44.0	-45.9	18.6	0.00e+00	0	28	0	47185920	60	9592
2026-01-04 21:29:01.09	83.14	4.86	-44.3	-46.2	18.3	0.00e+00	0	28	0	49283072	60	9919
2026-01-04 21:29:02.10	83.05	4.92	-44.1	-45.9	18.5	0.00e+00	0	28	0	51380224	60	9606
2026-01-04 21:29:03.11	82.96	4.98	-43.6	-45.3	18.9	0.00e+00	0	28	0	52428800	60	8939
2026-01-04 21:29:04.12	82.87	5.03	-43.8	-45.5	18.8	0.00e+00	0	28	0	54525952	60	9212
2026-01-04 21:29:05.13	82.78	5.09	-43.9	-45.7	18.8	0.00e+00	0	28	0	56623104	60	9414
2026-01-04 21:29:06.14	82.70	5.15	-43.9	-45.7	18.7	0.00e+00	0	28	0	58720256	60	9370
2026-01-04 21:29:07.15	82.61	5.21	-43.8	-45.6	18.8	0.00e+00	0	28	0	60817408	60	9333
2026-01-04 21:29:08.17	82.52	5.27	-43.8	-45.6	18.9	0.00e+00	0	28	0	61865984	60	9242
2026-01-04 21:29:09.18	82.43	5.33	-43.7	-45.5	19.1	0.00e+00	0	28	0	63963136	60	9170
2026-01-04 21:29:10.19	82.34	5.39	-43.3	-44.9	19.7	0.00e+00	0	28	0	66060288	60	8531
2026-01-04 21:29:11.20	82.25	5.45	-43.2	-44.8	19.8	0.00e+00	0	28	0	68157440	60	8441
2026-01-04 21:29:12.21	82.16	5.51	-43.1	-44.6	19.8	0.00e+00	0	28	0	70254592	60	8307
2026-01-04 21:29:13.22	82.06	5.57	-42.6	-44.0	20.4	0.00e+00	0	28	0	71303168	60	7729
2026-01-04 21:29:14.23	81.97	5.63	-42.8	-44.3	19.8	0.00e+00	0	28	0	73400320	60	7968
2026-01-04 21:29:15.24	81.88	5.69	-43.3	-44.9	19.5	0.00e+00	0	28	0	75497472	60	8602
2026-01-04 21:29:16.25	81.79	5.75	-43.0	-44.5	20.0	0.00e+00	0	28	0	77594624	60	8146
2026-01-04 21:29:17.27	81.69	5.81	-43.1	-44.7	19.9	0.00e+00	0	28	0	79691776	60	8344
2026-01-04 21:29:18.28	81.60	5.87	-42.9	-44.3	20.1	0.00e+00	0	28	0	80740352	60	8040
2026-01-04 21:29:19.29	81.51	5.93	-42.9	-44.3	20.2	0.00e+00	0	28	0	82837504	60	8019
2026-01-04 21:29:20.30	81.41	5.99	-43.0	-44.6	19.8	0.00e+00	0	28	0	84934656	60	8280
2026-01-04 21:29:21.31	81.32	6.05	-43.3	-44.9	19.6	0.00e+00	0	28	0	87031808	60	8578
2026-01-04 21:29:22.32	81.22	6.11	-43.5	-45.2	19.5	0.00e+00	0	28	0	89128960	60	8837
2026-01-04 21:29:23.33	81.13	6.17	-43.0	-44.5	20.1	0.00e+00	0	28	0	90177536	60	8160
2026-01-04 21:29:24.34	81.03	6.23	-43.1	-44.7	19.8	0.00e+00	0	28	0	92274688	60	8399
2026-01-04 21:29:25.35	80.94	6.29	-43.3	-44.9	19.7	0.00e+00	0	28	0	94371840	60	8586
2026-01-04 21:29:26.37	80.84	6.35	-43.4	-45.1	19.5	0.00e+00	0	28	0	96468992	60	8732
2026-01-04 21:29:27.38	80.74	6.42	-43.6	-45.3	19.3	0.00e+00	0	28	0	98566144	60	8943
2026-01-04 21:29:28.39	80.65	6.48	-43.9	-45.8	18.8	0.00e+00	0	28	0	100663296	60	9461
2026-01-04 21:29:29.40	80.55	6.54	-43.6	-45.3	19.3	0.00e+00	0	28	0	101711872	60	9011
2026-01-04 21:29:30.41	80.45	6.60	-43.6	-45.3	19.3	0.00e+00	0	28	0	103809024	60	8995
2026-01-04 21:29:31.42	80.35	6.66	-43.3	-44.9	19.7	0.00e+00	0	28	0	105906176	60	8563
2026-01-04 21:29:32.43	80.25	6.72	-43.2	-44.8	19.7	0.00e+00	0	28	0	108003328	60	8515
2026-01-04 21:29:33.44	80.15	6.78	-43.7	-45.5	19.3	0.00e+00	0	28	0	110100480	60	9155
2026-01-04 21:29:34.45	80.05	6.84	-43.8	-45.5	19.1	0.00e+00	0	28	0	111149056	60	9230
2026-01-04 21:29:35.47	79.95	6.90	-44.3	-46.1	18.7	0.00e+00	0	28	0	113246208	60	9854
2026-01-04 21:29:36.48	79.85	6.96	-43.8	-45.5	19.1	0.00e+00	0	28	0	115343360	60	9190
2026-01-04 21:29:37.49	79.75	7.03	-44.1	-45.9	18.9	0.00e+00	0	28	0	117440512	60	9603
2026-01-04 21:29:38.50	79.65	7.09	-43.8	-45.5	19.3	0.00e+00	0	28	0	119537664	60	9187
2026-01-04 21:29:39.51	79.55	7.15	-43.8	-45.5	19.1	9.90e-06	0	28	0	120586240	60	9218
2026-01-04 21:29:40.52	79.44	7.21	-43.7	-45.3	19.6	0.00e+00	0	28	0	122683392	60	8971
2026-01-04 21:29:41.53	79.34	7.27	-43.2	-44.8	19.7	0.00e+00	0	28	0	124780544	60	8464
2026-01-04 21:29:42.54	79.24	7.33	-43.7	-45.3	19.4	0.00e+00	0	28	0	126877696	60	9008
2026-01-04 21:29:43.55	79.13	7.39	-43.6	-45.3	19.4	0.00e+00	0	28	0	128974848	60	8929
2026-01-04 21:29:44.57	79.03	7.46	-43.1	-44.7	20.0	0.00e+00	0	28	0	130023424	60	8342
2026-01-04 21:29:45.57	78.93	7.52	-42.8	-44.2	20.2	0.00e+00	0	28	0	132120576	60	7951
2026-01-04 21:29:46.59	78.82	7.58	-43.0	-44.5	20.2	0.00e+00	0	28	0	134217728	60	8186
2026-01-04 21:29:47.60	78.71	7.64	-43.0	-44.5	20.1	0.00e+00	0	28	0	136314880	60	8191
2026-01-04 21:29:48.61	78.61	7.70	-43.1	-44.6	20.1	0.00e+00	0	28	0	138412032	60	8242
2026-01-04 21:29:49.62	78.50	7.77	-43.2	-44.7	20.0	0.00e+00	0	28	0	139460608	60	8348
2026-01-04 21:29:50.63	78.39	7.83	-43.2	-44.7	20.0	0.00e+00	0	28	0	141557760	60	8398
2026-01-04 21:29:51.64	78.29	7.89	-43.2	-44.8	20.0	0.00e+00	0	28	0	143654912	60	8456
2026-01-04 21:29:52.65	78.18	7.95	-43.0	-44.5	20.2	0.00e+00	0	28	0	145752064	60	8153
2026-01-04 21:29:53.67	78.07	8.02	-42.7	-44.1	20.5	0.00e+00	0	28	0	147849216	60	7834
2026-01-04 21:29:54.68	77.96	8.08	-42.7	-44.2	20.4	0.00e+00	0	28	0	149946368	60	7871
2026-01-04 21:29:55.69	77.85	8.14	-43.2	-44.7	20.1	0.00e+00	0	28	0	150994944	60	8331
2026-01-04 21:29:56.70	77.74	8.20	-43.3	-44.8	20.0	0.00e+00	0	28	0	153092096	60	8471
2026-01-04 21:29:57.71	77.63	8.27	-43.3	-44.9	19.8	0.00e+00	0	28	0	155189248	60	8558
2026-01-04 21:29:58.72	77.52	8.33	-43.2	-44.7	20.0	0.00e+00	0	28	0	157286400	60	8397
2026-01-04 21:29:59.73	77.41	8.39	-43.5	-45.1	19.7	0.00e+00	0	28	0	159383552	60	8790
2026-01-04 21:30:00.74	77.30	8.45	-43.3	-44.9	19.9	0.00e+00	0	28	0	160432128	60	8613
2026-01-04 21:30:01.75	77.18	8.52	-43.2	-44.8	19.5	0.00e+00	0	28	0	162529280	60	8462
2026-01-04 21:30:02.77	77.07	8.58	-43.3	-44.9	19.7	0.00e+00	0	28	0	164626432	60	8621
2026-01-04 21:30:03.78	76.96	8.64	-43.4	-45.0	19.7	0.00e+00	0	28	0	166723584	60	8645
2026-01-04 21:30:04.79	76.84	8.70	-43.3	-44.9	19.8	0.00e+00	0	28	0	168820736	60	8595
2026-01-04 21:30:05.80	76.73	8.77	-43.3	-45.0	19.7	0.00e+00	0	28	0	169869312	60	8625
2026-01-04 21:30:06.81	76.61	8.83	-43.0	-44.5	20.2	0.00e+00	0	28	0	171966464	60	8221
2026-01-04 21:30:07.82	76.50	8.89	-43.3	-44.9	19.9	0.00e+00	0	28	0	174063616	60	8565
2026-01-04 21:30:08.83	76.38	8.96	-43.2	-44.7	20.1	0.00e+00	0	28	0	176160768	60	8408
2026-01-04 21:30:09.84	76.27	9.02	-43.0	-44.5	20.2	0.00e+00	0	28	0	178257920	60	8217
2026-01-04 21:30:10.85	76.15	9.08	-43.3	-44.9	19.9	0.00e+00	0	28	0	179306496	60	8550
2026-01-04 21:30:11.87	76.03	9.15	-43.4	-45.0	19.7	0.00e+00	0	28	0	181403648	60	8707
2026-01-04 21:30:12.88	75.91	9.21	-42.7	-44.2	20.4	0.00e+00	0	28	0	183500800	60	7870
2026-01-04 21:30:13.89	75.79	9.27	-43.1	-44.6	20.3	0.00e+00	0	28	0	185597952	60	8252
2026-01-04 21:30:14.90	75.68	9.34	-42.9	-44.4	20.3	0.00e+00	0	28	0	187695104	60	8066
2026-01-04 21:30:15.91	75.56	9.40	-43.1	-44.6	20.1	0.00e+00	0	28	0	189792256	60	8243
2026-01-04 21:30:16.92	75.44	9.46	-42.6	-43.9	20.8	0.00e+00	0	28	0	190840832	60	7647
2026-01-04 21:30:17.93	75.32	9.53	-42.4	-43.7	21.0	0.00e+00	0	28	0	192937984	60	7441
2026-01-04 21:30:18.94	75.19	9.59	-42.2	-43.5	21.1	0.00e+00	0	28	0	195035136	60	7288
2026-01-04 21:30:19.95	75.07	9.65	-42.3	-43.5	21.1	0.00e+00	0	28	0	197132288	60	7324
2026-01-04 21:30:20.96	74.95	9.72	-42.6	-43.9	20.8	0.00e+00	0	29	0	199229440	60	7666
2026-01-04 21:30:21.98	74.83	9.78	-42.5	-43.8	20.9	0.00e+00	0	29	0	200278016	60	7580
2026-01-04 21:30:22.99	74.70	9.84	-42.4	-43.7	21.0	0.00e+00	0	28	0	202375168	60	7444
2026-01-04 21:30:24.00	74.58	9.91	-42.2	-43.5	21.1	0.00e+00	0	28	0	204472320	60	7261
2026-01-04 21:30:25.01	74.46	9.97	-42.3	-43.6	21.0	0.00e+00	0	28	0	206569472	60	7420
2026-01-04 21:30:26.02	74.33	10.03	-42.5	-43.9	20.8	0.00e+00	0	28	0	208666624	60	7636
2026-01-04 21:30:27.03	74.20	10.10	-42.5	-43.8	20.9	0.00e+00	0	28	0	209715200	60	7547
2026-01-04 21:30:28.04	74.08	10.16	-42.5	-43.9	20.8	0.00e+00	0	28	0	211812352	60	7601
2026-01-04 21:30:29.05	73.95	10.23	-42.6	-43.9	20.8	0.00e+00	0	28	0	213909504	60	7675
2026-01-04 21:30:30.07	73.82	10.29	-42.7	-44.1	20.6	0.00e+00	0	28	0	216006656	60	7794
2026-01-04 21:30:31.08	73.70	10.35	-42.8	-44.2	20.6	0.00e+00	0	28	0	218103808	60	7872
2026-01-04 21:30:32.09	73.57	10.42	-43.1	-44.6	20.2	0.00e+00	0	28	0	219152384	60	8323
2026-01-04 21:30:33.10	73.44	10.48	-43.3	-44.8	19.8	0.00e+00	0	28	0	221249536	60	8515
2026-01-04 21:30:34.11	73.31	10.54	-43.3	-44.8	20.1	0.00e+00	0	28	0	223346688	60	8448
2026-01-04 21:30:35.12	73.18	10.61	-43.2	-44.7	20.1	0.00e+00	0	28	0	225443840	60	8371
2026-01-04 21:30:36.13	73.05	10.67	-43.1	-44.6	20.2	0.00e+00	0	28	0	227540992	60	8260
2026-01-04 21:30:37.14	72.92	10.74	-43.1	-44.6	20.2	0.00e+00	0	28	0	229638144	60	8259
2026-01-04 21:30:38.15	72.79	10.80	-43.0	-44.5	20.3	0.00e+00	0	28	0	230686720	60	8186
2026-01-04 21:30:39.17	72.65	10.87	-43.0	-44.4	20.4	0.00e+00	0	28	0	232783872	60	8130
2026-01-04 21:30:40.18	72.52	10.93	-43.1	-44.6	20.2	0.00e+00	0	28	0	234881024	60	8302
2026-01-04 21:30:41.19	72.39	10.99	-43.0	-44.4	20.3	0.00e+00	0	28	0	236978176	60	8093
2026-01-04 21:30:42.20	72.25	11.06	-42.9	-44.3	20.2	0.00e+00	0	28	0	239075328	60	8017
2026-01-04 21:30:43.21	72.12	11.12	-42.7	-44.0	20.7	0.00e+00	0	28	0	240123904	60	7757
2026-01-04 21:30:44.22	71.98	11.19	-42.7	-44.0	20.8	0.00e+00	0	28	0	242221056	60	7733
2026-01-04 21:30:45.23	71.85	11.25	-42.5	-43.7	21.1	0.00e+00	0	28	0	244318208	60	7478
2026-01-04 21:30:46.24	71.71	11.31	-42.6	-43.9	20.9	1.50e-06	0	28	0	246415360	60	7613
2026-01-04 21:30:47.25	71.57	11.38	-42.3	-43.5	21.3	0.00e+00	0	29	0	248512512	60	7284
2026-01-04 21:30:48.27	71.43	11.44	-42.2	-43.4	21.3	0.00e+00	0	28	0	249561088	60	7248
2026-01-04 21:30:49.28	71.29	11.51	-42.2	-43.4	21.3	0.00e+00	0	28	0	251658240	60	7247
2026-01-04 21:30:50.29	71.15	11.57	-42.4	-43.7	21.1	0.00e+00	0	28	0	253755392	60	7429
2026-01-04 21:30:51.30	71.02	11.63	-42.3	-43.5	21.2	0.00e+00	0	28	0	255852544	60	7300
2026-01-04 21:30:52.31	70.87	11.70	-42.4	-43.7	21.0	0.00e+00	0	28	0	257949696	60	7423
2026-01-04 21:30:53.32	70.73	11.76	-42.1	-43.3	20.9	0.00e+00	0	29	0	258998272	60	7094
2026-01-04 21:30:54.33	70.59	11.83	-42.4	-43.7	21.1	0.00e+00	0	28	0	261095424	60	7438
2026-01-04 21:30:55.34	70.45	11.89	-42.2	-43.5	21.2	0.00e+00	0	29	0	263192576	60	7282
2026-01-04 21:30:56.36	70.31	11.95	-42.1	-43.3	21.3	0.00e+00	0	28	0	265289728	60	7126
2026-01-04 21:30:57.37	70.16	12.02	-42.3	-43.5	21.2	0.00e+00	0	29	0	267386880	60	7300
2026-01-04 21:30:58.38	70.02	12.08	-42.2	-43.4	21.4	0.00e+00	0	28	0	268435456	60	7197
2026-01-04 21:30:59.39	69.87	12.15	-42.1	-43.4	21.3	0.00e+00	0	28	0	270532608	60	7178
2026-01-04 21:31:00.40	69.73	12.21	-42.2	-43.4	21.2	0.00e+00	0	28	0	272629760	60	7201
2026-01-04 21:31:01.41	69.58	12.27	-42.2	-43.4	21.3	0.00e+00	0	29	0	274726912	60	7252
2026-01-04 21:31:02.42	69.44	12.34	-42.3	-43.6	21.2	0.00e+00	0	28	0	276824064	60	7347
2026-01-04 21:31:03.43	69.29	12.40	-42.2	-43.4	21.2	0.00e+00	0	28	0	277872640	60	7216
2026-01-04 21:31:04.44	69.14	12.47	-42.3	-43.5	21.3	0.00e+00	0	28	0	279969792	60	7266
2026-01-04 21:31:05.45	68.99	12.53	-42.2	-43.4	21.3	0.00e+00	0	28	0	282066944	60	7182
2026-01-04 21:31:06.47	68.84	12.60	-42.3	-43.5	21.3	0.00e+00	0	29	0	284164096	60	7298
2026-01-04 21:31:07.48	68.69	12.66	-42.3	-43.5	21.3	0.00e+00	0	28	0	286261248	60	7277
2026-01-04 21:31:08.49	68.54	12.72	-42.2	-43.4	21.3	0.00e+00	0	29	0	288358400	60	7223
2026-01-04 21:31:09.50	68.39	12.79	-42.5	-43.7	21.0	0.00e+00	0	29	0	289406976	60	7477
2026-01-04 21:31:10.51	68.24	12.85	-42.5	-43.7	21.1	0.00e+00	0	29	0	291504128	60	7476
2026-01-04 21:31:11.52	68.09	12.91	-42.8	-44.1	20.7	0.00e+00	0	28	0	293601280	60	7819
2026-01-04 21:31:12.53	67.93	12.98	-42.9	-44.3	20.6	0.00e+00	0	29	0	295698432	60	7982
2026-01-04 21:31:13.54	67.78	13.04	-42.5	-43.7	21.0	0.00e+00	0	28	0	297795584	60	7489
2026-01-04 21:31:14.55	67.62	13.10	-42.5	-43.7	21.1	0.00e+00	0	29	0	298844160	60	7474
2026-01-04 21:31:15.57	67.47	13.17	-42.6	-43.8	21.0	0.00e+00	0	29	0	300941312	60	7570
2026-01-04 21:31:16.58	67.31	13.23	-42.8	-44.1	20.8	0.00e+00	0	29	0	303038464	60	7816
2026-01-04 21:31:17.59	67.15	13.30	-42.8	-44.2	20.7	0.00e+00	0	29	0	305135616	60	7866
2026-01-04 21:31:18.60	67.00	13.36	-42.8	-44.1	20.7	0.00e+00	0	28	0	307232768	60	7830
2026-01-04 21:31:19.61	66.84	13.42	-42.9	-44.2	20.7	0.00e+00	0	29	0	308281344	60	7912
2026-01-04 21:31:20.62	66.68	13.49	-42.7	-44.0	21.0	0.00e+00	0	29	0	310378496	60	7693
2026-01-04 21:31:21.63	66.52	13.55	-42.6	-43.8	21.1	0.00e+00	0	28	0	312475648	60	7585
2026-01-04 21:31:22.64	66.36	13.61	-42.4	-43.6	21.2	0.00e+00	0	29	0	314572800	60	7403
2026-01-04 21:31:23.65	66.20	13.68	-42.7	-44.0	21.0	0.00e+00	0	28	0	316669952	60	7711
2026-01-04 21:31:24.66	66.04	13.74	-42.6	-43.9	21.0	0.00e+00	0	28	0	317718528	60	7618
2026-01-04 21:31:25.68	65.88	13.80	-42.3	-43.5	21.3	0.00e+00	0	29	0	319815680	60	7315
2026-01-04 21:31:26.69	65.71	13.87	-42.2	-43.4	21.2	0.00e+00	0	28	0	321912832	60	7202
2026-01-04 21:31:27.70	65.55	13.93	-42.3	-43.5	21.2	0.00e+00	0	28	0	324009984	60	7313
2026-01-04 21:31:28.71	65.38	13.99	-42.2	-43.4	21.3	0.00e+00	0	28	0	326107136	60	7238
2026-01-04 21:31:29.72	65.22	14.05	-42.2	-43.4	21.2	0.00e+00	0	29	0	327155712	60	7244
2026-01-04 21:31:30.73	65.05	14.12	-42.3	-43.5	21.2	0.00e+00	0	29	0	329252864	60	7293
2026-01-04 21:31:31.74	64.89	14.18	-42.4	-43.7	21.0	0.00e+00	0	29	0	331350016	60	7432
2026-01-04 21:31:32.75	64.72	14.24	-42.9	-44.2	20.8	0.00e+00	0	29	0	333447168	60	7892
2026-01-04 21:31:33.76	64.55	14.30	-43.0	-44.4	20.6	0.00e+00	0	29	0	335544320	60	8048
2026-01-04 21:31:34.78	64.38	14.37	-43.1	-44.5	20.5	0.00e+00	0	28	0	337641472	60	8179
2026-01-04 21:31:35.79	64.21	14.43	-43.1	-44.5	20.3	0.00e+00	0	28	0	338690048	60	8211
2026-01-04 21:31:36.80	64.04	14.49	-43.0	-44.3	20.6	0.00e+00	0	29	0	340787200	60	8029
2026-01-04 21:31:37.81	63.87	14.55	-42.8	-44.2	20.8	0.00e+00	0	28	0	342884352	60	7905
2026-01-04 21:31:38.82	63.70	14.62	-42.8	-44.2	20.7	0.00e+00	0	29	0	344981504	60	7867
2026-01-04 21:31:39.83	63.53	14.68	-42.6	-43.9	21.0	0.00e+00	0	29	0	347078656	60	7679
2026-01-04 21:31:40.84	63.36	14.74	-42.5	-43.8	21.2	0.00e+00	0	28	0	348127232	60	7595
2026-01-04 21:31:41.85	63.18	14.80	-42.4	-43.7	21.2	0.00e+00	0	29	0	350224384	60	7470
2026-01-04 21:31:42.86	63.01	14.86	-42.2	-43.4	21.4	0.00e+00	0	28	0	352321536	60	7195
2026-01-04 21:31:43.88	62.83	14.92	-42.2	-43.4	21.4	0.00e+00	0	29	0	354418688	60	7219
2026-01-04 21:31:44.89	62.66	14.99	-41.9	-43.0	21.7	0.00e+00	0	29	0	356515840	60	6915
2026-01-04 21:31:45.90	62.48	15.05	-41.5	-42.6	21.9	0.00e+00	0	28	0	357564416	60	6604
2026-01-04 21:31:46.91	62.30	15.11	-41.4	-42.5	22.2	0.00e+00	0	29	0	359661568	60	6481
2026-01-04 21:31:47.92	62.12	15.17	-41.3	-42.4	22.2	0.00e+00	0	28	0	361758720	60	6423
2026-01-04 21:31:48.93	61.95	15.23	-41.3	-42.4	22.0	0.00e+00	0	29	0	363855872	60	6432
2026-01-04 21:31:49.94	61.77	15.29	-41.4	-42.5	22.1	0.00e+00	0	28	0	365953024	60	6535
2026-01-04 21:31:50.95	61.59	15.35	-41.2	-42.3	22.3	0.00e+00	0	28	0	367001600	60	6325
2026-01-04 21:31:51.96	61.40	15.41	-41.2	-42.3	22.4	0.00e+00	0	29	0	369098752	60	6323
2026-01-04 21:31:52.98	61.22	15.47	-40.9	-41.9	22.7	0.00e+00	0	29	0	371195904	60	6077
2026-01-04 21:31:53.99	61.04	15.53	-40.9	-42.0	22.7	0.00e+00	0	29	0	373293056	60	6127
2026-01-04 21:31:55.00	60.86	15.59	-40.7	-41.8	22.7	0.00e+00	0	29	0	375390208	60	5967
2026-01-04 21:31:56.01	60.67	15.65	-40.9	-41.9	22.7	0.00e+00	0	29	0	376438784	60	6068
2026-01-04 21:31:57.02	60.49	15.71	-41.0	-42.1	22.5	0.00e+00	0	29	0	378535936	60	6192
2026-01-04 21:31:58.03	60.30	15.77	-40.8	-41.9	22.7	0.00e+00	0	29	0	380633088	60	6039
2026-01-04 21:31:59.04	60.12	15.83	-41.0	-42.0	22.7	0.00e+00	0	29	0	382730240	60	6167
2026-01-04 21:32:00.05	59.93	15.89	-40.6	-41.6	22.8	0.00e+00	0	29	0	384827392	60	5835
2026-01-04 21:32:01.07	59.74	15.95	-40.5	-41.5	23.0	0.00e+00	0	28	0	386924544	60	5768
2026-01-04 21:32:02.08	59.55	16.01	-40.5	-41.6	22.9	0.00e+00	0	28	0	387973120	60	5836
2026-01-04 21:32:03.09	59.36	16.07	-40.6	-41.6	22.9	0.00e+00	0	28	0	390070272	60	5839
2026-01-04 21:32:04.10	59.17	16.12	-40.3	-41.2	23.2	0.00e+00	0	28	0	392167424	60	5619
2026-01-04 21:32:05.11	58.98	16.18	-40.2	-41.1	23.3	0.00e+00	0	29	0	394264576	60	5564
2026-01-04 21:32:06.12	58.79	16.24	-40.4	-41.4	23.0	0.00e+00	0	29	0	396361728	60	5697
2026-01-04 21:32:07.13	58.60	16.30	-40.5	-41.6	22.9	0.00e+00	0	28	0	397410304	60	5834
2026-01-04 21:32:08.14	58.40	16.36	-40.8	-41.9	22.8	0.00e+00	0	28	0	399507456	60	6051
2026-01-04 21:32:09.15	58.21	16.41	-40.6	-41.6	22.8	0.00e+00	0	28	0	401604608	60	5877
2026-01-04 21:32:10.16	58.02	16.47	-40.6	-41.6	22.8	0.00e+00	0	29	0	403701760	60	5886
2026-01-04 21:32:11.18	57.82	16.53	-40.4	-41.4	23.0	0.00e+00	0	29	0	405798912	60	5706
2026-01-04 21:32:12.19	57.62	16.59	-40.3	-41.2	23.3	7.00e-07	0	29	0	406847488	60	5629
2026-01-04 21:32:13.20	57.43	16.64	-40.1	-41.1	23.3	0.00e+00	0	28	0	408944640	58	6185
2026-01-04 21:32:14.21	57.23	16.70	-40.2	-41.2	23.1	0.00e+00	0	28	0	411041792	58	6287
2026-01-04 21:32:15.22	57.03	16.76	-40.1	-41.1	23.3	0.00e+00	0	29	0	413138944	58	6227
2026-01-04 21:32:16.23	56.83	16.81	-40.1	-41.0	23.3	0.00e+00	0	29	0	415236096	58	6172
2026-01-04 21:32:17.24	56.63	16.87	-39.9	-40.9	23.5	0.00e+00	0	29	0	416284672	58	6036
2026-01-04 21:32:18.25	56.43	16.92	-39.8	-40.7	23.6	0.00e+00	0	28	0	418381824	58	5947
2026-01-04 21:32:19.26	56.23	16.98	-39.7	-40.6	23.6	0.00e+00	0	29	0	420478976	58	5875
2026-01-04 21:32:20.27	56.03	17.03	-39.9	-40.9	23.4	0.00e+00	0	29	0	422576128	58	6050
2026-01-04 21:32:21.29	55.82	17.09	-40.2	-41.1	23.3	0.00e+00	0	28	0	424673280	58	6245
2026-01-04 21:32:22.30	55.62	17.14	-40.3	-41.3	23.1	0.00e+00	0	29	0	426770432	58	6364
2026-01-04 21:32:23.31	55.42	17.20	-40.7	-41.7	22.6	0.00e+00	0	29	0	427819008	58	6692
2026-01-04 21:32:24.32	55.21	17.25	-40.8	-41.8	22.8	0.00e+00	0	29	0	429916160	58	6745
2026-01-04 21:32:25.33	55.01	17.31	-40.7	-41.8	22.7	0.00e+00	0	29	0	432013312	58	6711
2026-01-04 21:32:26.34	54.80	17.36	-40.6	-41.6	22.9	0.00e+00	0	29	0	434110464	58	6603
2026-01-04 21:32:27.35	54.59	17.41	-40.4	-41.4	23.1	0.00e+00	0	29	0	436207616	58	6424
2026-01-04 21:32:28.37	54.38	17.47	-40.2	-41.2	23.3	0.00e+00	0	29	0	437256192	58	6295
2026-01-04 21:32:29.38	54.18	17.52	-40.2	-41.1	23.2	0.00e+00	0	29	0	439353344	58	6243
2026-01-04 21:32:30.39	53.97	17.57	-40.2	-41.2	23.2	0.00e+00	0	29	0	441450496	58	6297
2026-01-04 21:32:31.40	53.76	17.62	-40.4	-41.3	22.6	2.20e-06	0	28	0	443547648	58	6383
2026-01-04 21:32:32.41	53.55	17.68	-40.3	-41.3	23.1	0.00e+00	0	28	0	445644800	58	6378
2026-01-04 21:32:33.42	53.33	17.73	-40.0	-41.0	23.3	0.00e+00	0	29	0	446693376	58	6128
2026-01-04 21:32:34.43	53.12	17.78	-40.0	-41.0	23.5	0.00e+00	0	29	0	448790528	58	6113
2026-01-04 21:32:35.44	52.91	17.83	-39.9	-40.9	23.4	0.00e+00	0	28	0	450887680	58	6069
2026-01-04 21:32:36.45	52.69	17.88	-39.8	-40.7	23.7	0.00e+00	0	28	0	452984832	58	5930
2026-01-04 21:32:37.47	52.48	17.93	-39.5	-40.4	23.9	0.00e+00	0	28	0	455081984	58	5744
2026-01-04 21:32:38.48	52.26	17.98	-39.0	-39.9	24.3	0.00e+00	0	29	0	456130560	56	6035
2026-01-04 21:32:39.49	52.05	18.03	-38.8	-39.6	24.3	0.00e+00	0	29	0	458227712	56	5872
2026-01-04 21:32:40.50	51.83	18.08	-38.9	-39.7	24.4	0.00e+00	0	29	0	460324864	56	5926
2026-01-04 21:32:41.51	51.61	18.13	-38.8	-39.7	24.3	0.00e+00	0	29	0	462422016	56	5908
2026-01-04 21:32:42.52	51.40	18.18	-38.8	-39.6	24.4	0.00e+00	0	29	0	464519168	56	5883
2026-01-04 21:32:43.53	51.18	18.23	-38.8	-39.7	24.3	0.00e+00	0	28	0	465567744	56	5901
2026-01-04 21:32:44.54	50.96	18.27	-38.9	-39.8	24.3	0.00e+00	0	29	0	467664896	56	5971
2026-01-04 21:32:45.55	50.74	18.32	-39.1	-39.9	24.2	0.00e+00	0	29	0	469762048	56	6080
2026-01-04 21:32:46.57	50.51	18.37	-39.2	-40.0	24.1	0.00e+00	0	29	0	471859200	56	6172
2026-01-04 21:32:47.58	50.29	18.42	-39.5	-40.4	23.9	0.00e+00	0	28	0	473956352	56	6411
2026-01-04 21:32:48.59	50.07	18.46	-39.7	-40.6	23.8	0.00e+00	0	29	0	476053504	56	6560
2026-01-04 21:32:49.60	49.85	18.51	-39.6	-40.5	23.9	0.00e+00	0	29	0	477102080	56	6507
2026-01-04 21:32:50.61	49.63	18.56	-39.5	-40.4	24.0	0.00e+00	0	29	0	479199232	56	6405
2026-01-04 21:32:51.62	49.40	18.60	-39.7	-40.6	23.7	0.00e+00	0	29	0	481296384	56	6584
2026-01-04 21:32:52.63	49.18	18.65	-40.0	-40.9	23.6	0.00e+00	0	29	0	483393536	56	6804
2026-01-04 21:32:53.64	48.95	18.69	-40.1	-41.0	23.3	0.00e+00	0	29	0	485490688	56	6904
2026-01-04 21:32:54.65	48.72	18.74	-40.1	-41.1	23.4	0.00e+00	0	29	0	486539264	58	6224
2026-01-04 21:32:55.66	48.50	18.78	-40.2	-41.1	23.3	0.00e+00	0	29	0	488636416	58	6241
2026-01-04 21:32:56.68	48.27	18.82	-39.9	-40.9	23.4	0.00e+00	0	29	0	490733568	58	6044
2026-01-04 21:32:57.69	48.04	18.87	-39.7	-40.6	23.6	0.00e+00	0	29	0	492830720	58	5889
2026-01-04 21:32:58.70	47.81	18.91	-39.8	-40.8	23.5	0.00e+00	0	29	0	494927872	58	5997
2026-01-04 21:32:59.71	47.58	18.95	-39.8	-40.8	23.6	0.00e+00	0	28	0	495976448	58	5985
2026-01-04 21:33:00.72	47.35	19.00	-39.7	-40.7	23.8	0.00e+00	0	29	0	498073600	58	5907
2026-01-04 21:33:01.73	47.12	19.04	-39.4	-40.3	23.9	0.00e+00	0	29	0	500170752	58	5673
2026-01-04 21:33:02.74	46.89	19.08	-39.1	-40.0	24.2	0.00e+00	0	29	0	502267904	56	6108
2026-01-04 21:33:03.75	46.66	19.12	-38.9	-39.7	24.4	0.00e+00	0	29	0	504365056	56	5960
2026-01-04 21:33:04.76	46.42	19.16	-38.9	-39.7	24.2	0.00e+00	0	29	0	505413632	56	5941
2026-01-04 21:33:05.77	46.19	19.20	-39.2	-40.1	24.1	0.00e+00	0	28	0	507510784	56	6184
2026-01-04 21:33:06.79	45.96	19.24	-39.0	-39.9	24.1	0.00e+00	0	29	0	509607936	56	6049
2026-01-04 21:33:07.80	45.72	19.28	-39.1	-39.9	24.2	0.00e+00	0	29	0	511705088	56	6084
2026-01-04 21:33:08.81	45.49	19.32	-38.8	-39.6	24.5	0.00e+00	0	29	0	513802240	56	5862
2026-01-04 21:33:09.82	45.25	19.36	-39.0	-39.8	24.4	0.00e+00	0	29	0	514850816	56	5999
2026-01-04 21:33:10.83	45.01	19.39	-39.0	-39.8	24.4	0.00e+00	0	29	0	516947968	56	6003
2026-01-04 21:33:11.84	44.78	19.43	-39.1	-39.9	24.3	0.00e+00	0	29	0	519045120	56	6091
2026-01-04 21:33:12.85	44.54	19.47	-39.1	-39.9	24.3	0.00e+00	0	29	0	521142272	56	6080
2026-01-04 21:33:13.87	44.30	19.50	-39.1	-39.9	24.2	0.00e+00	0	29	0	523239424	56	6099
2026-01-04 21:33:14.88	44.06	19.54	-39.3	-40.1	24.2	0.00e+00	0	29	0	524288000	56	6229
2026-01-04 21:33:15.89	43.82	19.58	-39.5	-40.4	23.9	0.00e+00	0	29	0	526385152	56	6406
2026-01-04 21:33:16.90	43.58	19.61	-39.8	-40.7	23.5	0.00e+00	0	29	0	528482304	56	6621
2026-01-04 21:33:17.91	43.34	19.64	-39.8	-40.7	23.6	0.00e+00	0	29	0	530579456	56	6639
2026-01-04 21:33:18.92	43.10	19.68	-40.1	-41.1	23.4	0.00e+00	0	29	0	532676608	56	6931
2026-01-04 21:33:19.93	42.86	19.71	-40.1	-41.0	23.4	0.00e+00	0	29	0	534773760	56	6891
2026-01-04 21:33:20.94	42.62	19.75	-40.0	-40.9	23.5	0.00e+00	0	29	0	535822336	58	6056
2026-01-04 21:33:21.95	42.38	19.78	-40.1	-41.1	23.4	0.00e+00	0	29	0	537919488	58	6178
2026-01-04 21:33:22.96	42.13	19.81	-40.5	-41.5	23.1	0.00e+00	0	29	0	540016640	58	6503
2026-01-04 21:33:23.98	41.89	19.84	-40.9	-41.9	22.7	0.00e+00	0	29	0	542113792	58	6793
2026-01-04 21:33:24.99	41.64	19.87	-41.3	-42.4	22.6	0.00e+00	0	29	0	544210944	60	6396
2026-01-04 21:33:26.00	41.40	19.90	-41.4	-42.5	22.3	0.00e+00	0	29	0	545259520	60	6467
2026-01-04 21:33:27.01	41.15	19.93	-41.5	-42.6	22.2	0.00e+00	0	29	0	547356672	60	6601
2026-01-04 21:33:28.02	40.91	19.96	-41.7	-42.8	22.1	0.00e+00	0	29	0	549453824	60	6745
2026-01-04 21:33:29.03	40.66	19.99	-41.7	-42.8	22.1	0.00e+00	0	29	0	551550976	60	6715
2026-01-04 21:33:30.04	40.42	20.02	-41.8	-43.0	21.9	0.00e+00	0	29	0	553648128	60	6867
2026-01-04 21:33:31.05	40.17	20.05	-41.2	-42.3	22.5	0.00e+00	0	29	0	554696704	60	6343
2026-01-04 21:33:32.07	39.92	20.08	-41.2	-42.2	22.5	0.00e+00	0	29	0	556793856	60	6294
2026-01-04 21:33:33.08	39.67	20.10	-41.0	-42.0	23.0	0.00e+00	0	29	0	558891008	60	6142
2026-01-04 21:33:34.09	39.42	20.13	-40.7	-41.7	22.9	0.00e+00	0	29	0	560988160	60	5913
2026-01-04 21:33:35.10	39.18	20.16	-41.1	-42.2	22.6	0.00e+00	0	28	0	563085312	60	6264
2026-01-04 21:33:36.11	38.93	20.18	-41.2	-42.3	22.4	0.00e+00	0	29	0	564133888	60	6362
2026-01-04 21:33:37.12	38.68	20.21	-41.3	-42.4	22.5	0.00e+00	0	29	0	566231040	60	6393
2026-01-04 21:33:38.13	38.43	20.23	-41.4	-42.6	22.2	0.00e+00	0	29	0	568328192	60	6549
2026-01-04 21:33:39.14	38.18	20.25	-41.2	-42.3	22.5	0.00e+00	0	29	0	570425344	60	6354
2026-01-04 21:33:40.15	37.93	20.28	-41.2	-42.3	22.3	0.00e+00	0	29	0	572522496	60	6346
2026-01-04 21:33:41.16	37.68	20.30	-41.2	-42.3	22.5	0.00e+00	0	29	0	574619648	60	6331
2026-01-04 21:33:42.18	37.42	20.32	-41.1	-42.1	22.6	0.00e+00	0	29	0	575668224	60	6244
2026-01-04 21:33:43.18	37.17	20.34	-41.1	-42.2	22.6	0.00e+00	0	29	0	577765376	60	6259
2026-01-04 21:33:44.20	36.92	20.36	-41.1	-42.2	22.5	0.00e+00	0	29	0	579862528	60	6257
2026-01-04 21:33:45.21	36.67	20.38	-41.2	-42.2	22.5	0.00e+00	0	29	0	581959680	60	6299
2026-01-04 21:33:46.22	36.42	20.40	-41.4	-42.5	22.4	0.00e+00	0	29	0	584056832	60	6522
2026-01-04 21:33:47.23	36.16	20.42	-41.7	-42.8	22.0	0.00e+00	0	29	0	585105408	60	6733
2026-01-04 21:33:48.24	35.91	20.44	-41.7	-42.9	22.0	0.00e+00	0	29	0	587202560	60	6789
2026-01-04 21:33:49.25	35.66	20.46	-41.7	-42.8	22.1	0.00e+00	0	29	0	589299712	60	6749
2026-01-04 21:33:50.26	35.40	20.48	-41.5	-42.6	22.1	0.00e+00	0	29	0	591396864	60	6554
2026-01-04 21:33:51.28	35.15	20.49	-41.0	-42.1	22.7	0.00e+00	0	29	0	593494016	60	6179
2026-01-04 21:33:52.29	34.89	20.51	-40.7	-41.7	22.8	0.00e+00	0	29	0	594542592	60	5915
2026-01-04 21:33:53.30	34.64	20.52	-40.5	-41.5	23.0	0.00e+00	0	29	0	596639744	60	5808
2026-01-04 21:33:54.31	34.38	20.54	-40.7	-41.7	22.9	0.00e+00	0	29	0	598736896	60	5924
2026-01-04 21:33:55.32	34.13	20.55	-40.8	-41.8	22.8	0.00e+00	0	29	0	600834048	60	6023
2026-01-04 21:33:56.33	33.87	20.57	-41.1	-42.1	22.5	0.00e+00	0	29	0	602931200	60	6234
2026-01-04 21:33:57.34	33.62	20.58	-41.4	-42.5	22.3	0.00e+00	0	29	0	603979776	60	6513
2026-01-04 21:33:58.35	33.36	20.59	-41.4	-42.5	22.4	0.00e+00	0	29	0	606076928	60	6472
2026-01-04 21:33:59.36	33.10	20.61	-41.5	-42.6	22.2	0.00e+00	0	29	0	608174080	60	6566
2026-01-04 21:34:00.38	32.85	20.62	-41.6	-42.7	22.1	0.00e+00	0	29	0	610271232	60	6632
2026-01-04 21:34:01.39	32.59	20.63	-41.4	-42.5	22.3	0.00e+00	0	29	0	612368384	60	6522
2026-01-04 21:34:02.40	32.33	20.64	-41.4	-42.5	22.3	0.00e+00	0	29	0	614465536	60	6475
2026-01-04 21:34:03.41	32.08	20.65	-41.5	-42.6	22.2	0.00e+00	0	29	0	615514112	60	6563
2026-01-04 21:34:04.42	31.82	20.66	-41.4	-42.5	22.3	0.00e+00	0	29	0	617611264	60	6470
2026-01-04 21:34:05.43	31.56	20.67	-41.4	-42.5	22.2	0.00e+00	0	29	0	619708416	60	6526
2026-01-04 21:34:06.44	31.30	20.67	-41.4	-42.4	22.4	0.00e+00	0	29	0	621805568	60	6462
2026-01-04 21:34:07.45	31.05	20.68	-41.4	-42.5	22.6	0.00e+00	0	29	0	623902720	60	6505
2026-01-04 21:34:08.47	30.79	20.69	-41.3	-42.3	22.5	0.00e+00	0	29	0	624951296	60	6381
2026-01-04 21:34:09.48	30.53	20.69	-41.3	-42.3	22.4	0.00e+00	0	29	0	627048448	60	6362
2026-01-04 21:34:10.49	30.27	20.70	-41.2	-42.2	22.4	0.00e+00	0	29	0	629145600	60	6272
2026-01-04 21:34:11.50	30.02	20.70	-40.7	-41.7	22.9	0.00e+00	0	29	0	631242752	60	5961
2026-01-04 21:34:12.51	29.76	20.71	-40.7	-41.7	23.0	0.00e+00	0	29	0	633339904	60	5920
2026-01-04 21:34:13.52	29.50	20.71	-40.7	-41.7	23.0	0.00e+00	0	29	0	634388480	60	5897
2026-01-04 21:34:14.53	29.24	20.71	-40.7	-41.6	23.0	0.00e+00	0	29	0	636485632	60	5881
2026-01-04 21:34:15.54	28.98	20.72	-40.4	-41.4	23.1	0.00e+00	0	29	0	638582784	60	5722
2026-01-04 21:34:16.55	28.73	20.72	-40.7	-41.7	23.0	0.00e+00	0	29	0	640679936	60	5929
2026-01-04 21:34:17.56	28.47	20.72	-40.6	-41.6	23.0	0.00e+00	0	29	0	642777088	60	5847
2026-01-04 21:34:18.58	28.21	20.72	-40.7	-41.7	22.9	0.00e+00	0	29	0	643825664	60	5946
2026-01-04 21:34:19.59	27.95	20.72	-40.6	-41.6	22.9	0.00e+00	0	29	0	645922816	60	5887
2026-01-04 21:34:20.60	27.69	20.72	-41.1	-42.2	22.6	0.00e+00	0	29	0	648019968	60	6256
2026-01-04 21:34:21.61	27.43	20.72	-41.3	-42.4	22.4	0.00e+00	0	29	0	650117120	60	6445
2026-01-04 21:34:22.62	27.18	20.72	-41.6	-42.7	22.1	0.00e+00	0	29	0	652214272	60	6653
2026-01-04 21:34:23.63	26.92	20.71	-41.6	-42.8	22.0	0.00e+00	0	29	0	653262848	60	6705
2026-01-04 21:34:24.64	26.66	20.71	-41.8	-43.0	21.9	0.00e+00	0	29	0	655360000	60	6859
2026-01-04 21:34:25.65	26.40	20.71	-41.6	-42.7	22.1	0.00e+00	0	29	0	657457152	60	6688
2026-01-04 21:34:26.66	26.15	20.70	-41.2	-42.2	22.5	0.00e+00	0	29	0	659554304	60	6312
2026-01-04 21:34:27.67	25.89	20.70	-40.8	-41.8	22.9	0.00e+00	0	29	0	661651456	60	6014
2026-01-04 21:34:28.68	25.63	20.69	-40.4	-41.3	23.4	0.00e+00	0	29	0	662700032	60	5676
2026-01-04 21:34:29.69	25.37	20.68	-40.0	-40.9	23.4	0.00e+00	0	29	0	664797184	58	6064
2026-01-04 21:34:30.71	25.11	20.68	-39.9	-40.8	22.9	0.00e+00	0	29	0	666894336	58	5973
2026-01-04 21:34:31.72	24.86	20.67	-39.9	-40.8	23.5	0.00e+00	0	29	0	668991488	58	5980
2026-01-04 21:34:32.73	24.60	20.66	-39.6	-40.4	23.8	0.00e+00	0	29	0	671088640	58	5751
2026-01-04 21:34:33.74	24.34	20.65	-39.7	-40.6	23.6	0.00e+00	0	29	0	673185792	58	5848
2026-01-04 21:34:34.75	24.09	20.64	-39.4	-40.3	23.9	0.00e+00	0	29	0	674234368	58	5640
2026-01-04 21:34:35.76	23.83	20.63	-39.5	-40.3	23.9	0.00e+00	0	29	0	676331520	58	5687
2026-01-04 21:34:36.77	23.57	20.62	-39.3	-40.2	24.1	0.00e+00	0	29	0	678428672	58	5580
2026-01-04 21:34:37.78	23.32	20.61	-39.0	-39.8	24.3	0.00e+00	0	29	0	680525824	56	6000
2026-01-04 21:34:38.80	23.06	20.60	-39.0	-39.8	24.3	0.00e+00	0	29	0	682622976	56	6004
2026-01-04 21:34:39.80	22.81	20.59	-39.0	-39.9	24.3	0.00e+00	0	29	0	683671552	56	6064
2026-01-04 21:34:40.82	22.55	20.58	-39.2	-40.1	24.0	0.00e+00	0	29	0	685768704	56	6208
2026-01-04 21:34:41.83	22.29	20.56	-39.3	-40.2	24.1	0.00e+00	0	29	0	687865856	56	6289
2026-01-04 21:34:42.84	22.04	20.55	-39.6	-40.5	23.8	0.00e+00	0	29	0	689963008	56	6484
2026-01-04 21:34:43.85	21.78	20.53	-39.4	-40.3	23.9	0.00e+00	0	29	0	692060160	56	6324
2026-01-04 21:34:44.86	21.53	20.52	-39.2	-40.1	24.1	0.00e+00	0	29	0	693108736	56	6222
2026-01-04 21:34:45.87	21.27	20.50	-39.1	-40.0	24.2	0.00e+00	0	29	0	695205888	56	6108
2026-01-04 21:34:46.88	21.02	20.49	-39.0	-39.9	24.4	0.00e+00	0	29	0	697303040	56	6051
2026-01-04 21:34:47.89	20.77	20.47	-39.0	-39.9	24.2	0.00e+00	0	29	0	699400192	56	6036
2026-01-04 21:34:48.90	20.51	20.45	-39.1	-40.0	24.1	0.00e+00	0	29	0	701497344	56	6135
2026-01-04 21:34:49.91	20.26	20.43	-39.6	-40.5	23.9	0.00e+00	0	29	0	702545920	56	6517
2026-01-04 21:34:50.93	20.00	20.41	-39.3	-40.2	24.1	0.00e+00	0	29	0	704643072	56	6274
2026-01-04 21:34:51.94	19.75	20.39	-39.5	-40.4	23.9	0.00e+00	0	29	0	706740224	56	6418
2026-01-04 21:34:52.95	19.50	20.37	-39.4	-40.3	24.0	0.00e+00	0	29	0	708837376	56	6386
2026-01-04 21:34:53.96	19.25	20.35	-39.3	-40.2	23.9	0.00e+00	0	29	0	710934528	56	6277
2026-01-04 21:34:54.97	19.00	20.33	-39.3	-40.1	24.1	0.00e+00	0	29	0	711983104	56	6231
2026-01-04 21:34:55.98	18.74	20.31	-39.4	-40.3	23.9	0.00e+00	0	29	0	714080256	56	6357
2026-01-04 21:34:56.99	18.49	20.29	-39.6	-40.4	23.8	0.00e+00	0	29	0	716177408	56	6459
2026-01-04 21:34:58.00	18.24	20.27	-39.5	-40.4	23.9	0.00e+00	0	29	0	718274560	56	6424
2026-01-04 21:34:59.02	17.99	20.24	-39.8	-40.7	23.7	0.00e+00	0	29	0	720371712	56	6656
2026-01-04 21:35:00.03	17.74	20.22	-39.7	-40.6	23.8	0.00e+00	0	29	0	722468864	56	6589
2026-01-04 21:35:01.04	17.49	20.19	-39.7	-40.6	23.5	0.00e+00	0	29	0	723517440	56	6600
2026-01-04 21:35:02.05	17.24	20.17	-39.7	-40.6	23.4	0.00e+00	0	29	0	725614592	56	6565
2026-01-04 21:35:03.06	16.99	20.14	-39.8	-40.7	23.8	0.00e+00	0	29	0	727711744	56	6660
2026-01-04 21:35:04.07	16.75	20.12	-39.8	-40.7	23.8	0.00e+00	0	29	0	729808896	56	6618
2026-01-04 21:35:05.08	16.50	20.09	-39.6	-40.5	23.6	0.00e+00	0	29	0	731906048	56	6495
2026-01-04 21:35:06.09	16.25	20.06	-40.2	-41.1	23.3	0.00e+00	0	29	0	732954624	58	6243
2026-01-04 21:35:07.10	16.01	20.04	-40.5	-41.4	23.1	0.00e+00	0	29	0	735051776	58	6459
2026-01-04 21:35:08.12	15.76	20.01	-40.6	-41.6	23.1	0.00e+00	0	29	0	737148928	58	6556
2026-01-04 21:35:09.13	15.51	19.98	-41.1	-42.2	22.2	0.00e+00	0	29	0	739246080	58	7036
2026-01-04 21:35:10.14	15.27	19.95	-40.9	-42.0	22.7	0.00e+00	0	29	0	741343232	60	6123
2026-01-04 21:35:11.15	15.02	19.92	-40.9	-42.0	22.7	0.00e+00	0	29	0	742391808	60	6132
2026-01-04 21:35:12.16	14.78	19.89	-40.9	-41.9	22.7	0.00e+00	0	29	0	744488960	60	6090
2026-01-04 21:35:13.17	14.53	19.86	-40.9	-41.9	22.7	0.00e+00	0	29	0	746586112	60	6064
2026-01-04 21:35:14.18	14.29	19.83	-40.7	-41.7	22.9	0.00e+00	0	29	0	748683264	60	5957
2026-01-04 21:35:15.19	14.05	19.80	-41.0	-42.1	22.6	0.00e+00	0	29	0	750780416	60	6203
2026-01-04 21:35:16.20	13.80	19.77	-40.8	-41.9	22.7	0.00e+00	0	29	0	751828992	60	6040
2026-01-04 21:35:17.21	13.56	19.73	-41.1	-42.2	22.3	0.00e+00	0	29	0	753926144	60	6274
2026-01-04 21:35:18.23	13.32	19.70	-41.7	-42.8	22.2	0.00e+00	0	29	0	756023296	60	6755
2026-01-04 21:35:19.24	13.08	19.67	-41.8	-43.0	21.9	0.00e+00	0	29	0	758120448	60	6863
2026-01-04 21:35:20.25	12.84	19.63	-42.3	-43.6	21.5	0.00e+00	0	29	0	760217600	60	7360
2026-01-04 21:35:21.26	12.60	19.60	-42.1	-43.3	21.7	0.00e+00	0	29	0	762314752	60	7092
2026-01-04 21:35:22.27	12.36	19.56	-41.8	-43.0	21.9	0.00e+00	0	29	0	763363328	60	6877
2026-01-04 21:35:23.28	12.12	19.53	-41.7	-42.8	21.6	2.20e-06	0	29	0	765460480	60	6766
2026-01-04 21:35:24.29	11.88	19.49	-41.8	-43.0	21.8	0.00e+00	0	29	0	767557632	60	6895
2026-01-04 21:35:25.30	11.65	19.45	-42.0	-43.2	21.7	0.00e+00	0	29	0	769654784	60	7016
2026-01-04 21:35:26.32	11.41	19.42	-41.8	-42.9	22.0	0.00e+00	0	29	0	771751936	60	6844
2026-01-04 21:35:27.33	11.17	19.38	-41.8	-42.9	22.0	0.00e+00	0	29	0	772800512	60	6813
2026-01-04 21:35:28.34	10.93	19.34	-41.4	-42.5	22.4	0.00e+00	0	29	0	774897664	60	6478
2026-01-04 21:35:29.35	10.70	19.30	-40.7	-41.7	22.9	0.00e+00	0	29	0	776994816	60	5947
2026-01-04 21:35:30.36	10.46	19.26	-40.6	-41.6	23.0	0.00e+00	0	29	0	779091968	60	5848
2026-01-04 21:35:31.37	10.23	19.22	-40.5	-41.5	23.1	0.00e+00	0	29	0	781189120	60	5763
2026-01-04 21:35:32.38	10.00	19.18	-40.6	-41.6	23.0	0.00e+00	0	29	0	782237696	60	5858
2026-01-04 21:35:33.39	9.77	19.14	-40.7	-41.7	22.9	0.00e+00	0	29	0	784334848	60	5948
2026-01-04 21:35:34.40	9.53	19.10	-40.9	-41.9	22.8	0.00e+00	0	29	0	786432000	60	6063
2026-01-04 21:35:35.41	9.30	19.06	-40.7	-41.7	22.9	0.00e+00	0	29	0	788529152	60	5926
2026-01-04 21:35:36.43	9.07	19.02	-40.9	-41.9	22.7	0.00e+00	0	29	0	790626304	60	6100
2026-01-04 21:35:37.44	8.84	18.98	-40.6	-41.6	22.9	0.00e+00	0	29	0	791674880	60	5858
2026-01-04 21:35:38.45	8.61	18.94	-40.5	-41.4	23.3	0.00e+00	0	29	0	793772032	60	5753
2026-01-04 21:35:39.46	8.38	18.89	-40.5	-41.4	23.1	0.00e+00	0	29	0	795869184	60	5746
2026-01-04 21:35:40.47	8.15	18.85	-40.2	-41.2	23.3	0.00e+00	0	29	0	797966336	60	5568
2026-01-04 21:35:41.48	7.93	18.81	-39.8	-40.7	23.5	0.00e+00	0	29	0	800063488	58	5944
2026-01-04 21:35:42.49	7.70	18.76	-40.0	-40.9	23.5	0.00e+00	0	29	0	802160640	58	6048
2026-01-04 21:35:43.50	7.47	18.72	-39.8	-40.7	23.6	0.00e+00	0	29	0	803209216	58	5915
2026-01-04 21:35:44.51	7.25	18.68	-39.9	-40.8	23.6	0.00e+00	0	29	0	805306368	58	5976
2026-01-04 21:35:45.53	7.02	18.63	-39.6	-40.5	23.8	0.00e+00	0	29	0	807403520	58	5809
2026-01-04 21:35:46.54	6.80	18.58	-39.7	-40.6	23.3	0.00e+00	0	29	0	809500672	58	5880
2026-01-04 21:35:47.55	6.57	18.54	-39.7	-40.6	23.5	0.00e+00	0	29	0	811597824	58	5884
2026-01-04 21:35:48.56	6.35	18.49	-39.8	-40.8	23.5	0.00e+00	0	29	0	812646400	58	5965
2026-01-04 21:35:49.57	6.13	18.45	-40.5	-41.5	23.0	0.00e+00	0	29	0	814743552	58	6470
2026-01-04 21:35:50.58	5.91	18.40	-40.7	-41.7	22.7	0.00e+00	0	29	0	816840704	58	6659
2026-01-04 21:35:51.59	5.69	18.35	-41.4	-42.5	22.4	0.00e+00	0	29	0	818937856	60	6530
2026-01-04 21:35:52.60	5.47	18.31	-41.7	-42.9	21.8	0.00e+00	0	29	0	821035008	60	6797
2026-01-04 21:35:53.61	5.25	18.26	-42.1	-43.3	21.5	0.00e+00	0	29	0	822083584	60	7155
2026-01-04 21:35:54.63	5.03	18.21	-42.0	-43.2	21.7	0.00e+00	0	29	0	824180736	60	7061
2026-01-04 21:35:55.64	4.81	18.16	-42.1	-43.3	21.4	0.00e+00	0	29	0	826277888	60	7141
2026-01-04 21:35:56.65	4.59	18.11	-42.0	-43.2	21.5	0.00e+00	0	29	0	828375040	60	7076
2026-01-04 21:35:57.66	4.37	18.06	-42.4	-43.6	21.1	0.00e+00	0	29	0	830472192	60	7404
2026-01-04 21:35:58.67	4.16	18.01	-42.3	-43.5	21.4	0.00e+00	0	29	0	831520768	60	7318
2026-01-04 21:35:59.68	3.94	17.96	-42.7	-44.1	20.8	0.00e+00	0	29	0	833617920	60	7824
2026-01-04 21:36:00.69	3.73	17.91	-42.7	-44.1	20.9	0.00e+00	0	29	0	835715072	60	7819
2026-01-04 21:36:01.70	3.52	17.86	-42.8	-44.2	20.8	0.00e+00	0	29	0	837812224	60	7873
2026-01-04 21:36:02.71	3.30	17.81	-42.9	-44.3	20.6	0.00e+00	0	29	0	839909376	60	7966
2026-01-04 21:36:03.72	3.09	17.76	-42.9	-44.3	20.7	0.00e+00	0	29	0	840957952	60	7968
2026-01-04 21:36:04.74	2.88	17.71	-42.8	-44.2	20.7	0.00e+00	0	29	0	843055104	60	7880
2026-01-04 21:36:05.75	2.67	17.66	-42.4	-43.6	21.3	0.00e+00	0	29	0	845152256	60	7394
2026-01-04 21:36:06.76	2.46	17.61	-41.8	-43.0	21.8	0.00e+00	0	29	0	847249408	60	6884
2026-01-04 21:36:07.77	2.25	17.55	-41.4	-42.6	22.2	0.00e+00	0	29	0	849346560	60	6558
2026-01-04 21:36:08.78	2.04	17.50	-40.6	-41.7	22.9	0.00e+00	0	29	0	850395136	60	5908
2026-01-04 21:36:09.79	1.83	17.45	-40.6	-41.7	22.9	0.00e+00	0	29	0	852492288	60	5914
2026-01-04 21:36:10.80	1.62	17.40	-40.4	-41.4	23.1	0.00e+00	0	29	0	854589440	60	5700
2026-01-04 21:36:11.81	1.42	17.34	-39.7	-40.6	23.6	0.00e+00	0	29	0	856686592	58	5881
2026-01-04 21:36:12.82	1.21	17.29	-39.7	-40.6	23.4	0.00e+00	0	29	0	858783744	58	5883
2026-01-04 21:36:13.84	1.01	17.23	-39.8	-40.7	23.6	0.00e+00	0	29	0	859832320	58	5932
2026-01-04 21:36:14.85	0.80	17.18	-39.8	-40.8	23.5	0.00e+00	0	29	0	861929472	58	5977
2026-01-04 21:36:15.86	0.60	17.13	-40.1	-41.1	23.2	0.00e+00	0	29	0	864026624	58	6176
2026-01-04 21:36:16.87	0.40	17.07	-40.3	-41.3	23.0	0.00e+00	0	29	0	866123776	58	6374
2026-01-04 21:36:17.88	0.19	17.02	-40.8	-41.8	22.6	0.00e+00	0	29	0	868220928	58	6753
2026-01-04 21:36:18.89	359.99	16.96	-41.0	-42.0	22.5	0.00e+00	0	29	0	870318080	58	6907
2026-01-04 21:36:19.90	359.79	16.91	-41.3	-42.4	22.2	0.00e+00	0	29	0	871366656	60	6421
2026-01-04 21:36:20.91	359.59	16.85	-41.2	-42.3	22.4	0.00e+00	0	29	0	873463808	60	6359
2026-01-04 21:36:21.92	359.39	16.79	-40.6	-41.6	22.8	0.00e+00	0	29	0	875560960	60	5878
2026-01-04 21:36:22.93	359.20	16.74	-40.4	-41.4	23.1	0.00e+00	0	29	0	877658112	60	5745
2026-01-04 21:36:23.94	359.00	16.68	-40.4	-41.4	23.2	0.00e+00	0	29	0	879755264	60	5723
2026-01-04 21:36:24.95	358.80	16.63	-40.0	-41.0	23.2	0.00e+00	0	29	0	880803840	58	6141
2026-01-04 21:36:25.97	358.60	16.57	-40.2	-41.2	23.0	0.00e+00	0	29	0	882900992	58	6252
2026-01-04 21:36:26.98	358.41	16.51	-40.9	-42.0	22.4	0.00e+00	0	29	0	884998144	58	6901
2026-01-04 21:36:27.99	358.21	16.45	-41.3	-42.4	22.2	0.00e+00	0	29	0	887095296	60	6418
2026-01-04 21:36:29.00	358.02	16.40	-41.6	-42.7	21.9	0.00e+00	0	29	0	889192448	60	6687
2026-01-04 21:36:30.01	357.83	16.34	-42.0	-43.3	21.4	0.00e+00	0	29	0	890241024	60	7131
2026-01-04 21:36:31.02	357.64	16.28	-42.3	-43.6	21.2	0.00e+00	0	29	0	892338176	60	7361
2026-01-04 21:36:32.03	357.45	16.22	-42.4	-43.7	21.1	0.00e+00	0	29	0	894435328	60	7466
2026-01-04 21:36:33.04	357.25	16.17	-42.3	-43.6	21.1	0.00e+00	0	29	0	896532480	60	7361
2026-01-04 21:36:34.05	357.06	16.11	-42.1	-43.3	21.5	0.00e+00	0	29	0	898629632	60	7116
2026-01-04 21:36:35.07	356.87	16.05	-41.8	-43.0	21.6	0.00e+00	0	29	0	899678208	60	6897
2026-01-04 21:36:36.08	356.69	15.99	-41.4	-42.5	22.0	0.00e+00	0	29	0	901775360	60	6500
2026-01-04 21:36:37.09	356.50	15.93	-41.2	-42.3	22.2	0.00e+00	0	29	0	903872512	60	6380
2026-01-04 21:36:38.10	356.31	15.87	-41.1	-42.1	22.4	0.00e+00	0	29	0	905969664	60	6242
2026-01-04 21:36:39.11	356.13	15.81	-41.0	-42.1	22.3	0.00e+00	0	29	0	908066816	60	6229
2026-01-04 21:36:40.12	355.94	15.75	-41.0	-42.1	22.5	0.00e+00	0	29	0	910163968	60	6204
2026-01-04 21:36:41.13	355.76	15.70	-41.1	-42.2	22.1	0.00e+00	0	29	0	911212544	60	6304
2026-01-04 21:36:42.14	355.57	15.64	-41.0	-42.1	22.6	0.00e+00	0	29	0	913309696	60	6181
2026-01-04 21:36:43.15	355.39	15.58	-41.0	-42.1	22.3	0.00e+00	0	29	0	915406848	60	6213
2026-01-04 21:36:44.17	355.20	15.52	-41.0	-42.1	22.3	0.00e+00	0	29	0	917504000	60	6228
2026-01-04 21:36:45.18	355.02	15.46	-41.1	-42.2	22.2	0.00e+00	0	29	0	919601152	60	6249
2026-01-04 21:36:46.19	354.84	15.40	-41.1	-42.2	22.4	0.00e+00	0	29	0	920649728	60	6259
2026-01-04 21:36:47.20	354.66	15.33	-41.2	-42.3	22.2	0.00e+00	0	29	0	922746880	60	6336
2026-01-04 21:36:48.21	354.48	15.27	-41.5	-42.6	21.9	0.00e+00	0	29	0	924844032	60	6599
2026-01-04 21:36:49.22	354.30	15.21	-41.8	-43.0	21.6	0.00e+00	0	29	0	926941184	60	6860
2026-01-04 21:36:50.23	354.13	15.15	-42.3	-43.6	21.4	0.00e+00	0	29	0	929038336	60	7348
2026-01-04 21:36:51.24	353.95	15.09	-42.3	-43.7	21.1	0.00e+00	0	29	0	930086912	60	7423
2026-01-04 21:36:52.25	353.77	15.03	-42.1	-43.4	21.3	0.00e+00	0	29	0	932184064	60	7225
2026-01-04 21:36:53.26	353.60	14.97	-42.1	-43.3	21.3	0.00e+00	0	29	0	934281216	60	7131
2026-01-04 21:36:54.28	353.42	14.91	-41.9	-43.2	21.6	0.00e+00	0	29	0	936378368	60	7015
2026-01-04 21:36:55.29	353.25	14.85	-41.7	-42.9	21.7	0.00e+00	0	29	0	938475520	60	6789
2026-01-04 21:36:56.30	353.07	14.79	-41.3	-42.5	22.1	0.00e+00	0	29	0	939524096	60	6475
2026-01-04 21:36:57.31	352.90	14.72	-41.2	-42.4	22.1	0.00e+00	0	29	0	941621248	60	6391
2026-01-04 21:36:58.32	352.73	14.66	-41.3	-42.4	22.2	0.00e+00	0	29	0	943718400	60	6427
2026-01-04 21:36:59.33	352.56	14.60	-41.5	-42.6	22.0	0.00e+00	0	29	0	945815552	60	6582
2026-01-04 21:37:00.34	352.39	14.54	-41.5	-42.6	21.9	0.00e+00	0	29	0	947912704	60	6586
2026-01-04 21:37:01.35	352.22	14.48	-41.5	-42.7	21.9	0.00e+00	0	29	0	950009856	60	6662
2026-01-04 21:37:02.36	352.05	14.42	-41.5	-42.6	21.8	0.00e+00	0	29	0	951058432	60	6612
2026-01-04 21:37:03.38	351.88	14.35	-41.5	-42.6	21.9	0.00e+00	0	29	0	953155584	60	6570
2026-01-04 21:37:04.39	351.71	14.29	-41.5	-42.6	22.0	0.00e+00	0	29	0	955252736	60	6586
2026-01-04 21:37:05.40	351.54	14.23	-41.5	-42.6	21.9	0.00e+00	0	29	0	957349888	60	6576
2026-01-04 21:37:06.41	351.38	14.17	-41.5	-42.7	21.9	0.00e+00	0	29	0	959447040	60	6616
2026-01-04 21:37:07.42	351.21	14.10	-41.4	-42.5	22.1	0.00e+00	0	29	0	960495616	60	6489
2026-01-04 21:37:08.43	351.05	14.04	-41.1	-42.3	22.3	8.30e-06	0	29	0	962592768	60	6324
2026-01-04 21:37:09.44	350.88	13.98	-40.9	-42.0	22.4	0.00e+00	0	29	0	964689920	60	6161
2026-01-04 21:37:10.45	350.72	13.92	-40.9	-42.0	22.3	0.00e+00	0	29	0	966787072	60	6170
2026-01-04 21:37:11.47	350.55	13.85	-40.8	-41.8	22.6	0.00e+00	0	29	0	968884224	60	6027
2026-01-04 21:37:12.48	350.39	13.79	-40.7	-41.8	22.5	0.00e+00	0	29	0	969932800	60	6011
2026-01-04 21:37:13.49	350.23	13.73	-40.6	-41.7	22.5	0.00e+00	0	29	0	972029952	60	5920
2026-01-04 21:37:14.50	350.07	13.66	-40.5	-41.5	22.5	0.00e+00	0	29	0	974127104	60	5817
2026-01-04 21:37:15.51	349.91	13.60	-40.7	-41.7	22.6	0.00e+00	0	29	0	976224256	60	5932
2026-01-04 21:37:16.52	349.75	13.54	-40.6	-41.6	22.6	0.00e+00	0	29	0	978321408	60	5839
2026-01-04 21:37:17.53	349.59	13.47	-40.1	-41.1	23.1	0.00e+00	0	29	0	979369984	58	6191
2026-01-04 21:37:18.54	349.43	13.41	-39.8	-40.7	23.4	0.00e+00	0	29	0	981467136	58	5960
2026-01-04 21:37:19.55	349.28	13.35	-39.5	-40.4	23.6	0.00e+00	0	29	0	983564288	58	5722
2026-01-04 21:37:20.56	349.12	13.28	-39.1	-40.0	23.9	0.00e+00	0	29	0	985661440	56	6119
2026-01-04 21:37:21.58	348.96	13.22	-39.0	-39.8	24.1	0.00e+00	0	29	0	987758592	56	6007
2026-01-04 21:37:22.59	348.81	13.16	-39.3	-40.2	23.8	0.00e+00	0	29	0	989855744	56	6246
2026-01-04 21:37:23.60	348.65	13.09	-39.5	-40.4	23.7	0.00e+00	0	29	0	990904320	56	6412
2026-01-04 21:37:24.61	348.50	13.03	-39.7	-40.6	23.4	0.00e+00	0	29	0	993001472	56	6581
2026-01-04 21:37:25.62	348.35	12.97	-39.7	-40.7	23.3	0.00e+00	0	29	0	995098624	56	6618
2026-01-04 21:37:26.63	348.20	12.90	-40.0	-41.0	23.2	0.00e+00	0	29	0	997195776	56	6853
2026-01-04 21:37:27.64	348.04	12.84	-40.1	-41.1	23.0	0.00e+00	0	29	0	999292928	58	6221
2026-01-04 21:37:28.65	347.89	12.78	-40.2	-41.2	22.9	0.00e+00	0	29	0	1000341504	58	6308
2026-01-04 21:37:29.67	347.74	12.71	-40.3	-41.4	22.8	0.00e+00	0	29	0	1002438656	58	6395
2026-01-04 21:37:30.68	347.59	12.65	-40.3	-41.3	22.9	0.00e+00	0	29	0	1004535808	58	6377
2026-01-04 21:37:31.69	347.44	12.58	-40.6	-41.7	22.4	0.00e+00	0	29	0	1006632960	58	6647
2026-01-04 21:37:32.70	347.29	12.52	-40.9	-42.0	22.2	0.00e+00	0	29	0	1008730112	58	6887
2026-01-04 21:37:33.71	347.15	12.46	-40.6	-41.6	22.5	0.00e+00	0	29	0	1009778688	58	6590
2026-01-04 21:37:34.72	347.00	12.39	-40.3	-41.3	22.8	0.00e+00	0	29	0	1011875840	58	6364
2026-01-04 21:37:35.73	346.85	12.33	-40.4	-41.4	22.7	0.00e+00	0	29	0	1013972992	58	6447
2026-01-04 21:37:36.74	346.71	12.27	-39.9	-40.9	23.1	0.00e+00	0	29	0	1016070144	58	6059
2026-01-04 21:37:37.75	346.56	12.20	-40.0	-40.9	23.0	0.00e+00	0	29	0	1018167296	58	6089
2026-01-04 21:37:38.77	346.42	12.14	-40.1	-41.1	22.9	0.00e+00	0	29	0	1019215872	58	6194
2026-01-04 21:37:39.78	346.27	12.07	-40.2	-41.2	22.9	0.00e+00	0	29	0	1021313024	58	6254
2026-01-04 21:37:40.79	346.13	12.01	-39.8	-40.8	23.3	0.00e+00	0	29	0	1023410176	58	5994
2026-01-04 21:37:41.80	345.99	11.95	-40.2	-41.2	22.9	0.00e+00	0	29	0	1025507328	58	6272
2026-01-04 21:37:42.81	345.84	11.88	-40.1	-41.2	22.8	0.00e+00	0	29	0	1027604480	58	6250
2026-01-04 21:37:43.82	345.70	11.82	-40.7	-41.8	22.4	0.00e+00	0	29	0	1028653056	58	6717
2026-01-04 21:37:44.83	345.56	11.75	-40.7	-41.8	22.4	0.00e+00	0	29	0	1030750208	58	6713
2026-01-04 21:37:45.84	345.42	11.69	-40.8	-41.9	22.1	0.00e+00	0	29	0	1032847360	58	6843
2026-01-04 21:37:46.85	345.28	11.63	-40.8	-41.9	22.2	0.00e+00	0	29	0	1034944512	58	6781
2026-01-04 21:37:47.86	345.14	11.56	-41.3	-42.5	22.0	0.00e+00	0	29	0	1037041664	60	6481
2026-01-04 21:37:48.88	345.00	11.50	-41.4	-42.6	21.9	0.00e+00	0	29	0	1038090240	60	6540
2026-01-04 21:37:49.89	344.87	11.43	-41.6	-42.8	21.6	0.00e+00	0	29	0	1040187392	60	6744
2026-01-04 21:37:50.90	344.73	11.37	-41.6	-42.8	21.6	0.00e+00	0	29	0	1042284544	60	6755
2026-01-04 21:37:51.91	344.59	11.31	-41.4	-42.6	21.8	0.00e+00	0	29	0	1044381696	60	6604
2026-01-04 21:37:52.92	344.46	11.24	-41.2	-42.4	21.8	0.00e+00	0	29	0	1046478848	60	6428
2026-01-04 21:37:53.93	344.32	11.18	-41.1	-42.3	22.0	0.00e+00	0	29	0	1047527424	60	6318
2026-01-04 21:37:54.94	344.19	11.11	-41.0	-42.1	22.1	0.00e+00	0	29	0	1049624576	60	6188
2026-01-04 21:37:55.95	344.05	11.05	-40.9	-42.0	22.3	0.00e+00	0	29	0	1051721728	60	6120
2026-01-04 21:37:56.97	343.92	10.99	-40.4	-41.4	22.4	0.00e+00	0	29	0	1053818880	60	5727
2026-01-04 21:37:57.98	343.79	10.92	-40.1	-41.1	22.5	0.00e+00	0	29	0	1055916032	58	6234
2026-01-04 21:37:58.99	343.65	10.86	-40.2	-41.2	22.6	0.00e+00	0	29	0	1058013184	58	6308
2026-01-04 21:38:00.00	343.52	10.79	-40.2	-41.2	22.7	0.00e+00	0	29	0	1059061760	58	6287
2026-01-04 21:38:01.01	343.39	10.73	-40.4	-41.4	22.7	0.00e+00	0	29	0	1061158912	58	6457
2026-01-04 21:38:02.02	343.26	10.67	-40.0	-41.0	22.7	0.00e+00	0	29	0	1063256064	58	6120
2026-01-04 21:38:03.03	343.13	10.60	-40.2	-41.2	22.7	0.00e+00	0	29	0	1065353216	58	6298
2026-01-04 21:38:04.04	343.00	10.54	-40.7	-41.7	21.8	0.00e+00	0	29	0	1067450368	58	6689
2026-01-04 21:38:05.05	342.87	10.48	-40.9	-42.0	22.0	0.00e+00	0	29	0	1068498944	58	6887
2026-01-04 21:38:06.07	342.74	10.41	-41.7	-42.9	21.4	0.00e+00	0	29	0	1070596096	60	6783
2026-01-04 21:38:07.08	342.62	10.35	-41.6	-42.8	21.3	0.00e+00	0	29	0	1072693248	60	6759
2026-01-04 21:38:08.09	342.49	10.28	-42.0	-43.3	21.0	0.00e+00	0	29	0	1074790400	60	7095
2026-01-04 21:38:09.10	342.36	10.22	-42.0	-43.3	20.9	0.00e+00	0	29	0	1076887552	60	7149
2026-01-04 21:38:10.11	342.24	10.16	-42.0	-43.3	21.0	0.00e+00	0	29	0	1077936128	60	7117
2026-01-04 21:38:11.12	342.11	10.09	-41.8	-43.1	21.2	0.00e+00	0	29	0	1080033280	60	6944
2026-01-04 21:38:12.13	341.99	10.03	-41.6	-42.8	21.5	0.00e+00	0	29	0	1082130432	60	6717
2026-01-04 21:38:13.14	341.86	9.97	-41.5	-42.7	21.5	0.00e+00	0	29	0	1084227584	60	6673
2026-01-04 21:38:14.15	341.74	9.90	-41.4	-42.6	21.6	0.00e+00	0	29	0	1086324736	60	6573
2026-01-04 21:38:15.17	341.61	9.84	-41.3	-42.5	21.7	0.00e+00	0	29	0	1087373312	60	6518
2026-01-04 21:38:16.18	341.49	9.78	-41.2	-42.3	21.7	0.00e+00	0	29	0	1089470464	60	6384
2026-01-04 21:38:17.19	341.37	9.71	-41.3	-42.5	21.6	0.00e+00	0	29	0	1091567616	60	6486
2026-01-04 21:38:18.20	341.25	9.65	-41.3	-42.4	21.6	0.00e+00	0	29	0	1093664768	60	6454
2026-01-04 21:38:19.21	341.13	9.59	-41.4	-42.6	21.5	0.00e+00	0	29	0	1095761920	60	6576
2026-01-04 21:38:20.22	341.01	9.52	-41.4	-42.5	21.6	0.00e+00	0	29	0	1096810496	60	6533
2026-01-04 21:38:21.23	340.89	9.46	-41.2	-42.3	21.8	0.00e+00	0	29	0	1098907648	60	6385
2026-01-04 21:38:22.24	340.77	9.40	-41.4	-42.6	21.4	0.00e+00	0	29	0	1101004800	60	6599
2026-01-04 21:38:23.25	340.65	9.33	-41.9	-43.1	21.1	0.00e+00	0	29	0	1103101952	60	6980
2026-01-04 21:38:24.26	340.53	9.27	-41.6	-42.8	21.4	0.00e+00	0	29	0	1105199104	60	6720
2026-01-04 21:38:25.27	340.41	9.21	-41.5	-42.7	21.5	0.00e+00	0	29	0	1107296256	60	6644
2026-01-04 21:38:26.29	340.30	9.14	-41.8	-43.0	21.2	0.00e+00	0	29	0	1108344832	60	6905
2026-01-04 21:38:27.30	340.18	9.08	-41.9	-43.2	21.0	0.00e+00	0	29	0	1110441984	60	7042
2026-01-04 21:38:28.31	340.06	9.02	-41.9	-43.2	20.9	0.00e+00	0	29	0	1112539136	60	7030
2026-01-04 21:38:29.32	339.95	8.95	-42.2	-43.6	20.5	0.00e+00	0	29	0	1114636288	60	7342
2026-01-04 21:38:30.33	339.83	8.89	-42.2	-43.5	20.7	0.00e+00	0	29	0	1116733440	60	7271
2026-01-04 21:38:31.34	339.72	8.83	-42.4	-43.7	20.6	0.00e+00	0	29	0	1117782016	60	7463
2026-01-04 21:38:32.35	339.60	8.77	-42.3	-43.6	20.6	0.00e+00	0	29	0	1119879168	60	7381
2026-01-04 21:38:33.36	339.49	8.70	-42.6	-44.0	20.2	0.00e+00	0	29	0	1121976320	60	7729
2026-01-04 21:38:34.37	339.38	8.64	-42.4	-43.7	20.5	0.00e+00	0	29	0	1124073472	60	7457
2026-01-04 21:38:35.39	339.26	8.58	-42.4	-43.8	20.6	0.00e+00	0	29	0	1126170624	60	7538
2026-01-04 21:38:36.39	339.15	8.52	-42.2	-43.5	20.7	0.00e+00	0	29	0	1127219200	60	7292
2026-01-04 21:38:37.41	339.04	8.45	-42.0	-43.3	21.0	0.00e+00	0	29	0	1129316352	60	7112
2026-01-04 21:38:38.42	338.93	8.39	-42.2	-43.5	20.8	0.00e+00	0	29	0	1131413504	60	7293
2026-01-04 21:38:39.43	338.82	8.33	-42.0	-43.3	20.8	0.00e+00	0	29	0	1133510656	60	7104
2026-01-04 21:38:40.44	338.71	8.27	-42.1	-43.4	20.8	0.00e+00	0	29	0	1135607808	60	7173
2026-01-04 21:38:41.45	338.60	8.20	-42.4	-43.7	20.4	0.00e+00	0	29	0	1136656384	60	7484
2026-01-04 21:38:42.46	338.49	8.14	-42.3	-43.6	20.6	0.00e+00	0	29	0	1138753536	60	7385
2026-01-04 21:38:43.47	338.38	8.08	-42.6	-44.0	20.2	0.00e+00	0	29	0	1140850688	60	7763
2026-01-04 21:38:44.48	338.27	8.02	-43.0	-44.5	19.8	0.00e+00	0	29	0	1142947840	60	8162
2026-01-04 21:38:45.49	338.17	7.95	-43.2	-44.7	19.6	0.00e+00	0	29	0	1145044992	60	8419
2026-01-04 21:38:46.50	338.06	7.89	-43.3	-44.8	19.5	0.00e+00	0	29	0	1147142144	60	8483
2026-01-04 21:38:47.52	337.95	7.83	-43.3	-44.9	19.4	0.00e+00	0	29	0	1148190720	60	8537
2026-01-04 21:38:48.53	337.84	7.77	-43.2	-44.7	19.6	0.00e+00	0	29	0	1150287872	60	8362
2026-01-04 21:38:49.54	337.74	7.71	-43.3	-44.9	19.5	0.00e+00	0	29	0	1152385024	60	8529
2026-01-04 21:38:50.55	337.63	7.64	-43.3	-44.9	19.4	0.00e+00	0	29	0	1154482176	60	8559
2026-01-04 21:38:51.56	337.53	7.58	-43.1	-44.6	19.6	0.00e+00	0	29	0	1156579328	60	8302
2026-01-04 21:38:52.57	337.42	7.52	-42.9	-44.3	19.9	0.00e+00	0	29	0	1157627904	60	8030
2026-01-04 21:38:53.58	337.32	7.46	-42.8	-44.2	20.0	0.00e+00	0	29	0	1159725056	60	7914
2026-01-04 21:38:54.59	337.22	7.40	-42.7	-44.1	20.1	0.00e+00	0	29	0	1161822208	60	7859
2026-01-04 21:38:55.60	337.11	7.34	-42.9	-44.3	19.9	0.00e+00	0	29	0	1163919360	60	7998
2026-01-04 21:38:56.62	337.01	7.27	-42.7	-44.1	20.1	0.00e+00	0	29	0	1166016512	60	7779
2026-01-04 21:38:57.63	336.91	7.21	-42.7	-44.1	20.0	0.00e+00	0	29	0	1167065088	60	7798
2026-01-04 21:38:58.64	336.81	7.15	-43.0	-44.5	19.8	0.00e+00	0	29	0	1169162240	60	8199
2026-01-04 21:38:59.65	336.70	7.09	-43.2	-44.7	19.6	0.00e+00	0	29	0	1171259392	60	8353
2026-01-04 21:39:00.66	336.60	7.03	-42.8	-44.3	19.9	0.00e+00	0	29	0	1173356544	60	7961
2026-01-04 21:39:01.67	336.50	6.97	-42.9	-44.4	19.8	0.00e+00	0	29	0	1175453696	60	8069
2026-01-04 21:39:02.68	336.40	6.91	-42.7	-44.1	20.0	0.00e+00	0	29	0	1176502272	60	7842
2026-01-04 21:39:03.69	336.30	6.85	-42.5	-43.8	20.3	0.00e+00	0	29	0	1178599424	60	7586
2026-01-04 21:39:04.70	336.20	6.79	-42.7	-44.2	19.8	0.00e+00	0	29	0	1180696576	60	7866
2026-01-04 21:39:05.71	336.11	6.72	-43.0	-44.5	19.7	0.00e+00	0	29	0	1182793728	60	8150
2026-01-04 21:39:06.73	336.01	6.66	-42.8	-44.3	19.7	0.00e+00	0	29	0	1184890880	60	7989
2026-01-04 21:39:07.74	335.91	6.60	-42.7	-44.2	19.8	0.00e+00	0	29	0	1186988032	60	7891
2026-01-04 21:39:08.75	335.81	6.54	-43.0	-44.5	19.7	0.00e+00	0	29	0	1188036608	60	8184
2026-01-04 21:39:09.76	335.71	6.48	-42.9	-44.4	19.5	0.00e+00	0	29	0	1190133760	60	8077
2026-01-04 21:39:10.77	335.62	6.42	-43.2	-44.8	19.2	0.00e+00	0	29	0	1192230912	60	8463
2026-01-04 21:39:11.78	335.52	6.36	-43.1	-44.7	19.2	0.00e+00	0	29	0	1194328064	60	8379
2026-01-04 21:39:12.79	335.43	6.30	-43.2	-44.8	19.0	0.00e+00	0	29	0	1196425216	60	8470
2026-01-04 21:39:13.80	335.33	6.24	-43.1	-44.7	19.0	0.00e+00	0	29	0	1197473792	60	8404
2026-01-04 21:39:14.81	335.24	6.18	-43.5	-45.2	18.6	0.00e+00	0	29	0	1199570944	60	8843
2026-01-04 21:39:15.82	335.14	6.12	-43.6	-45.4	18.3	0.00e+00	0	29	0	1201668096	60	9038
2026-01-04 21:39:16.83	335.05	6.06	-43.7	-45.6	17.8	0.00e+00	0	29	0	1203765248	60	9343
2026-01-04 21:39:17.85	334.95	6.00	-43.8	-45.8	17.5	0.00e+00	0	29	0	1205862400	60	9544
2026-01-04 21:39:18.86	334.86	5.94	-44.0	-46.1	17.2	0.00e+00	0	29	0	1206910976	60	9865
