passes_logs/2026/01/04/R4.6S_Anadyr_2ch/R4.6S_Anadyr_2ch__20260104_035236_FENGYUN_3E_rec.log

#Pass ID: 20260104_035236_FENGYUN 3E
#Satellite: FENGYUN 3E
#Configuration: FENGYUN 3E
#almurnet v.1.7.20251203
#Start time: 2026-01-04 03:52:37

#Version: 2.2.20231116
#Station: R4.6S_Anadyr_2ch
#Location: 177.4865 lon 64.73178 lat
#TLE: 1 49008U 21062A   25350.97288215  .00000176  00000+0  10353-3 0  9997
#TLE: 2 49008  98.7477 351.4440 0000638 234.3856 125.7261 14.19881381230726

#Time	Az	El	Level	Level2	SNR	BER	BlckErr	Temp	State	Recorded	gain1	gain2
2026-01-04 03:52:37.24	140.97	0.05	-53.9	-71.6	3.5	3.02e+01	0	34	0	0	60	197228
2026-01-04 03:52:38.25	140.96	0.11	-54.6	-66.1	3.6	8.45e-01	0	35	104	0	60	99736
2026-01-04 03:52:39.26	140.94	0.17	-53.9	-65.4	3.6	8.46e-01	0	35	104	0	60	91429
2026-01-04 03:52:40.27	140.93	0.23	-53.7	-65.3	3.6	8.46e-01	0	35	104	0	60	90630
2026-01-04 03:52:41.28	140.91	0.29	-54.1	-65.7	3.6	8.44e-01	0	35	104	0	60	94570
2026-01-04 03:52:42.29	140.90	0.35	-53.5	-65.1	3.6	8.45e-01	0	35	104	0	60	88346
2026-01-04 03:52:43.30	140.88	0.41	-53.1	-64.5	3.6	8.44e-01	0	35	104	0	60	83256
2026-01-04 03:52:44.31	140.87	0.47	-52.9	-64.5	3.6	8.46e-01	0	35	104	0	60	82503
2026-01-04 03:52:45.32	140.86	0.53	-52.8	-64.2	3.6	8.45e-01	0	35	104	0	60	79655
2026-01-04 03:52:46.33	140.84	0.60	-53.2	-64.7	3.6	8.47e-01	0	35	104	0	60	84843
2026-01-04 03:52:47.34	140.83	0.66	-53.2	-64.7	3.6	8.44e-01	0	35	104	0	60	84526
2026-01-04 03:52:48.36	140.81	0.72	-53.0	-64.5	3.6	8.43e-01	0	36	104	0	60	82950
2026-01-04 03:52:49.37	140.80	0.78	-52.6	-64.1	3.6	8.46e-01	0	35	104	0	60	78643
2026-01-04 03:52:50.38	140.78	0.84	-52.3	-63.8	3.6	8.46e-01	0	35	104	0	60	76182
2026-01-04 03:52:51.39	140.77	0.91	-52.2	-63.9	3.6	8.45e-01	0	36	104	0	60	76953
2026-01-04 03:52:52.40	140.75	0.97	-52.1	-63.6	3.6	8.45e-01	0	35	104	0	60	74898
2026-01-04 03:52:53.41	140.74	1.03	-52.3	-63.8	3.6	8.44e-01	0	35	104	0	60	76761
2026-01-04 03:52:54.42	140.72	1.09	-51.9	-63.6	3.6	8.45e-01	0	36	104	0	60	74261
2026-01-04 03:52:55.43	140.71	1.15	-50.7	-62.3	3.6	8.45e-01	0	36	104	0	60	64424
2026-01-04 03:52:56.44	140.69	1.22	-50.6	-62.1	3.6	8.44e-01	0	36	104	0	60	63060
2026-01-04 03:52:57.45	140.68	1.28	-49.7	-61.2	3.6	8.45e-01	0	36	104	0	60	56841
2026-01-04 03:52:58.47	140.66	1.34	-49.7	-61.0	3.6	8.45e-01	0	36	104	0	60	55195
2026-01-04 03:52:59.47	140.64	1.41	-49.7	-61.0	3.6	8.47e-01	0	36	104	0	60	55662
2026-01-04 03:53:00.48	140.63	1.47	-49.6	-60.9	3.6	8.45e-01	0	36	104	0	60	54908
2026-01-04 03:53:01.50	140.61	1.53	-49.7	-61.0	3.6	8.45e-01	0	36	104	0	60	55081
2026-01-04 03:53:02.51	140.60	1.60	-49.9	-61.3	3.6	8.46e-01	0	36	104	0	60	57604
2026-01-04 03:53:03.52	140.58	1.66	-49.9	-61.3	3.5	8.45e-01	0	36	104	0	60	57042
2026-01-04 03:53:04.53	140.57	1.72	-49.6	-61.5	3.6	8.46e-01	0	36	104	0	60	58801
2026-01-04 03:53:05.54	140.55	1.79	-49.3	-61.5	3.6	8.46e-01	0	36	104	0	60	58305
2026-01-04 03:53:06.55	140.53	1.85	-49.6	-61.2	3.5	8.46e-01	0	36	104	0	60	56763
2026-01-04 03:53:07.56	140.52	1.92	-48.9	-61.1	3.6	8.46e-01	0	36	104	0	60	56084
2026-01-04 03:53:08.57	140.50	1.98	-49.5	-61.1	3.6	8.44e-01	0	36	104	0	60	56087
2026-01-04 03:53:09.58	140.48	2.05	-49.5	-61.0	3.6	8.45e-01	0	36	104	0	60	55557
2026-01-04 03:53:10.59	140.47	2.11	-49.6	-59.6	3.6	8.44e-01	0	36	104	0	60	47090
2026-01-04 03:53:11.60	140.45	2.17	-49.7	-61.1	3.6	8.46e-01	0	36	104	0	60	55712
2026-01-04 03:53:12.62	140.43	2.24	-49.6	-60.9	3.6	8.46e-01	0	36	104	0	60	54852
2026-01-04 03:53:13.63	140.42	2.31	-49.5	-60.9	3.6	8.45e-01	0	36	104	0	60	54894
2026-01-04 03:53:14.64	140.40	2.37	-49.5	-60.8	3.6	8.46e-01	0	36	104	0	60	54365
2026-01-04 03:53:15.64	140.38	2.44	-49.0	-60.8	3.6	8.45e-01	0	36	104	0	60	54109
2026-01-04 03:53:16.65	140.37	2.50	-48.8	-60.9	3.6	8.46e-01	0	36	104	0	60	55023
2026-01-04 03:53:17.67	140.35	2.57	-49.8	-61.1	3.6	8.46e-01	0	36	104	0	60	55971
2026-01-04 03:53:18.68	140.33	2.63	-49.7	-61.1	3.6	8.46e-01	0	36	104	0	60	55760
2026-01-04 03:53:19.69	140.32	2.70	-49.7	-61.2	3.6	8.45e-01	0	36	104	0	60	56836
2026-01-04 03:53:20.70	140.30	2.76	-49.7	-61.0	3.6	8.46e-01	0	36	104	0	60	55060
2026-01-04 03:53:21.71	140.28	2.83	-49.6	-60.9	3.6	8.45e-01	0	36	104	0	60	54716
2026-01-04 03:53:22.72	140.26	2.90	-49.6	-60.9	3.6	8.43e-01	0	36	104	0	60	54556
2026-01-04 03:53:23.73	140.25	2.96	-49.7	-61.0	3.6	8.46e-01	0	36	104	0	60	55472
2026-01-04 03:53:24.74	140.23	3.03	-49.7	-61.1	3.6	8.45e-01	0	36	104	0	60	55909
2026-01-04 03:53:25.75	140.21	3.10	-49.7	-61.1	3.6	8.46e-01	0	36	104	0	60	55761
2026-01-04 03:53:26.76	140.19	3.16	-49.7	-61.0	3.6	8.45e-01	0	36	104	0	60	55199
2026-01-04 03:53:27.77	140.18	3.23	-49.7	-60.4	3.6	8.45e-01	0	36	104	0	60	51526
2026-01-04 03:53:28.78	140.16	3.30	-49.5	-59.4	3.6	8.45e-01	0	36	104	0	60	46256
2026-01-04 03:53:29.79	140.14	3.37	-49.8	-58.9	3.6	8.43e-01	0	36	104	0	60	43236
2026-01-04 03:53:30.80	140.12	3.43	-49.5	-57.4	4.3	8.30e-01	0	36	104	0	60	36474
2026-01-04 03:53:31.81	140.10	3.50	-49.7	-55.6	5.3	7.77e-01	0	36	0	0	60	29803
2026-01-04 03:53:32.82	140.08	3.57	-48.4	-52.3	7.3	1.99e-01	0	36	0	6291456	60	20400
2026-01-04 03:53:33.83	140.07	3.64	-48.0	-51.6	9.1	5.50e-02	0	36	0	12582912	60	18788
2026-01-04 03:53:34.84	140.05	3.71	-47.5	-50.4	9.7	2.68e-02	0	36	0	19922944	60	16389
2026-01-04 03:53:35.86	140.03	3.78	-47.3	-50.2	10.2	1.10e-02	0	36	0	28311552	60	15968
2026-01-04 03:53:36.87	140.01	3.84	-46.5	-48.9	11.8	1.10e-03	0	36	0	34603008	60	13766
2026-01-04 03:53:37.88	139.99	3.91	-46.5	-48.9	11.8	5.60e-04	0	36	0	41943040	60	13742
2026-01-04 03:53:38.89	139.97	3.98	-45.8	-47.9	12.5	2.35e-04	0	36	0	49283072	60	12312
2026-01-04 03:53:39.90	139.95	4.05	-50.8	-62.1	3.6	8.46e-01	0	36	104	53477376	60	62550
2026-01-04 03:53:40.91	139.93	4.12	-45.4	-47.7	12.7	2.27e-01	0	36	104	53477376	60	11924
2026-01-04 03:53:41.92	139.91	4.19	-48.8	-53.3	6.1	1.51e-02	0	36	0	56623104	60	22895
2026-01-04 03:53:42.93	139.89	4.26	-49.7	-56.0	4.1	6.28e-01	0	36	0	62914560	60	30955
2026-01-04 03:53:43.95	139.87	4.33	-49.3	-55.1	4.4	4.64e-02	0	36	0	68157440	60	28097
2026-01-04 03:53:44.96	139.85	4.40	-44.9	-46.6	14.0	5.95e-04	0	36	0	73400320	60	10588
2026-01-04 03:53:45.97	139.83	4.47	-44.5	-46.2	14.4	5.70e-06	0	36	0	80740352	60	10013
2026-01-04 03:53:46.98	139.81	4.54	-44.2	-45.7	15.0	0.00e+00	0	36	0	88080384	60	9460
2026-01-04 03:53:47.99	139.79	4.61	-43.9	-45.3	14.8	0.00e+00	0	36	0	95420416	60	9129
2026-01-04 03:53:49.00	139.77	4.68	-44.5	-46.1	15.0	0.00e+00	0	36	0	102760448	60	9910
2026-01-04 03:53:50.01	139.75	4.75	-43.7	-45.1	15.4	0.00e+00	0	36	0	110100480	60	8915
2026-01-04 03:53:51.09	139.73	4.83	-43.6	-45.0	15.3	0.00e+00	0	36	0	117440512	60	8785
2026-01-04 03:53:51.96	139.71	4.89	-43.6	-45.0	15.1	0.00e+00	0	36	0	123731968	60	8806
2026-01-04 03:53:53.12	139.69	4.97	-43.3	-44.6	15.9	0.00e+00	0	36	0	132120576	60	8380
2026-01-04 03:53:53.98	139.67	5.04	-43.4	-44.7	16.2	0.00e+00	0	36	0	138412032	60	8474
2026-01-04 03:53:55.14	139.65	5.12	-43.3	-44.7	15.9	0.00e+00	0	36	0	146800640	60	8427
2026-01-04 03:53:56.00	139.63	5.18	-43.1	-44.3	16.6	0.00e+00	0	36	0	153092096	60	8098
2026-01-04 03:53:57.16	139.61	5.26	-42.9	-44.0	16.9	0.00e+00	0	36	0	161480704	60	7815
2026-01-04 03:53:58.03	139.59	5.32	-42.7	-43.8	17.0	0.00e+00	0	36	0	167772160	60	7643
2026-01-04 03:53:59.18	139.56	5.41	-43.0	-44.1	14.5	0.00e+00	0	36	0	176160768	60	7905
2026-01-04 03:54:00.05	139.55	5.47	-42.5	-43.6	17.2	0.00e+00	0	36	0	182452224	60	7483
2026-01-04 03:54:01.20	139.52	5.55	-42.5	-43.6	17.4	0.00e+00	0	36	0	190840832	60	7442
2026-01-04 03:54:02.07	139.50	5.62	-42.4	-43.5	17.6	0.00e+00	0	36	0	196083712	60	7357
2026-01-04 03:54:03.23	139.48	5.70	-42.3	-43.4	17.7	0.00e+00	0	36	0	205520896	60	7263
2026-01-04 03:54:04.09	139.46	5.76	-42.2	-43.3	17.7	0.00e+00	0	36	0	211812352	60	7199
2026-01-04 03:54:05.25	139.43	5.85	-41.8	-42.8	18.2	0.00e+00	0	36	0	219152384	60	6838
2026-01-04 03:54:06.11	139.41	5.91	-41.9	-42.9	18.2	0.00e+00	0	36	0	225443840	60	6863
2026-01-04 03:54:07.27	139.39	6.00	-41.6	-42.6	18.5	0.00e+00	0	37	0	233832448	60	6625
2026-01-04 03:54:08.14	139.37	6.06	-41.5	-42.5	18.7	0.00e+00	0	36	0	240123904	60	6568
2026-01-04 03:54:09.29	139.34	6.15	-41.4	-42.3	18.9	0.00e+00	0	36	0	248512512	60	6462
2026-01-04 03:54:10.16	139.32	6.21	-42.3	-43.2	18.5	0.00e+00	0	36	0	254803968	60	7154
2026-01-04 03:54:11.31	139.30	6.30	-41.4	-42.3	19.3	0.00e+00	0	36	0	263192576	60	6426
2026-01-04 03:54:12.18	139.28	6.36	-41.6	-42.5	19.5	0.00e+00	0	36	0	269484032	60	6560
2026-01-04 03:54:13.34	139.25	6.45	-41.2	-42.0	19.6	0.00e+00	0	36	0	277872640	60	6209
2026-01-04 03:54:14.20	139.23	6.51	-40.9	-41.8	19.9	0.00e+00	0	36	0	284164096	60	6034
2026-01-04 03:54:15.36	139.21	6.60	-41.2	-42.0	20.0	0.00e+00	0	36	0	292552704	60	6240
2026-01-04 03:54:16.22	139.19	6.67	-41.1	-41.9	19.9	0.00e+00	0	36	0	298844160	60	6137
2026-01-04 03:54:17.38	139.16	6.75	-41.4	-42.2	19.9	0.00e+00	0	36	0	307232768	60	6353
2026-01-04 03:54:18.25	139.14	6.82	-40.9	-41.7	20.6	0.00e+00	0	37	0	313524224	60	5996
2026-01-04 03:54:19.40	139.11	6.91	-40.8	-41.5	20.6	0.00e+00	0	37	0	321912832	60	5890
2026-01-04 03:54:20.27	139.09	6.97	-41.4	-42.1	20.0	0.00e+00	0	36	0	328204288	60	6310
2026-01-04 03:54:21.42	139.06	7.06	-41.0	-41.8	20.0	0.00e+00	0	36	0	336592896	60	6080
2026-01-04 03:54:22.29	139.04	7.13	-40.4	-41.2	20.8	0.00e+00	0	36	0	342884352	60	5631
2026-01-04 03:54:23.45	139.01	7.22	-41.2	-42.0	20.1	0.00e+00	0	37	0	351272960	60	6231
2026-01-04 03:54:24.31	138.99	7.28	-40.6	-41.4	20.5	0.00e+00	0	36	0	357564416	60	5772
2026-01-04 03:54:25.47	138.96	7.37	-40.3	-41.1	20.9	0.00e+00	0	37	0	365953024	60	5581
2026-01-04 03:54:26.33	138.94	7.44	-39.3	-39.9	21.8	0.00e+00	0	36	0	372244480	58	5493
2026-01-04 03:54:27.49	138.91	7.53	-39.4	-40.0	21.9	0.00e+00	0	36	0	380633088	58	5555
2026-01-04 03:54:28.35	138.89	7.60	-39.0	-39.6	22.2	0.00e+00	0	36	0	385875968	56	5964
2026-01-04 03:54:29.51	138.86	7.69	-39.0	-39.7	22.1	0.00e+00	0	37	0	394264576	56	5974
2026-01-04 03:54:30.38	138.84	7.76	-39.0	-39.7	22.4	0.00e+00	0	37	0	401604608	56	5983
2026-01-04 03:54:31.53	138.81	7.85	-38.7	-39.3	22.5	0.00e+00	0	37	0	409993216	56	5761
2026-01-04 03:54:32.40	138.79	7.92	-39.0	-39.6	22.3	0.00e+00	0	36	0	415236096	56	5937
2026-01-04 03:54:33.55	138.76	8.01	-38.9	-39.5	22.5	0.00e+00	0	37	0	423624704	56	5894
2026-01-04 03:54:34.42	138.74	8.08	-38.9	-39.6	22.3	0.00e+00	0	37	0	429916160	56	5909
2026-01-04 03:54:35.58	138.71	8.17	-38.5	-39.1	22.7	0.00e+00	0	37	0	438304768	56	5625
2026-01-04 03:54:36.44	138.68	8.24	-38.4	-39.0	22.8	0.00e+00	0	37	0	444596224	56	5537
2026-01-04 03:54:37.60	138.65	8.33	-39.0	-39.6	22.6	0.00e+00	0	37	0	452984832	56	5929
2026-01-04 03:54:38.47	138.63	8.40	-38.5	-39.1	22.7	0.00e+00	0	37	0	459276288	56	5630
2026-01-04 03:54:39.62	138.60	8.50	-40.1	-40.8	21.8	0.00e+00	0	37	0	467664896	60	5423
2026-01-04 03:54:40.49	138.58	8.57	-38.9	-39.5	22.5	0.00e+00	0	37	0	473956352	56	5863
2026-01-04 03:54:41.64	138.54	8.66	-38.9	-39.5	22.5	0.00e+00	0	37	0	482344960	56	5888
2026-01-04 03:54:42.51	138.52	8.73	-38.5	-39.1	23.1	0.00e+00	0	37	0	488636416	56	5618
2026-01-04 03:54:43.66	138.49	8.83	-38.2	-38.8	23.3	0.00e+00	0	37	0	497025024	54	6055
2026-01-04 03:54:44.53	138.47	8.90	-37.7	-38.3	23.4	0.00e+00	0	37	0	503316480	54	5737
2026-01-04 03:54:45.69	138.43	8.99	-37.6	-38.1	23.7	0.00e+00	0	37	0	511705088	54	5616
2026-01-04 03:54:46.55	138.41	9.06	-37.3	-37.9	23.9	0.00e+00	0	37	0	517996544	54	5462
2026-01-04 03:54:47.71	138.38	9.16	-37.4	-37.9	23.8	0.00e+00	0	37	0	526385152	54	5493
2026-01-04 03:54:48.58	138.35	9.23	-37.4	-38.0	23.7	0.00e+00	0	37	0	532676608	54	5515
2026-01-04 03:54:49.73	138.32	9.33	-37.2	-37.7	24.0	0.00e+00	0	37	0	541065216	54	5359
2026-01-04 03:54:50.60	138.29	9.40	-37.1	-37.7	24.1	0.00e+00	0	37	0	547356672	54	5334
2026-01-04 03:54:51.75	138.26	9.50	-37.4	-38.0	23.9	0.00e+00	0	37	0	555745280	54	5537
2026-01-04 03:54:52.62	138.24	9.57	-37.2	-37.8	23.9	0.00e+00	0	37	0	560988160	54	5387
2026-01-04 03:54:53.78	138.20	9.67	-37.0	-37.6	24.2	0.00e+00	0	37	0	570425344	54	5284
2026-01-04 03:54:54.64	138.18	9.74	-37.2	-37.7	24.2	0.00e+00	0	37	0	576716800	52	6025
2026-01-04 03:54:55.80	138.14	9.84	-37.3	-37.9	24.0	0.00e+00	0	37	0	584056832	52	6139
2026-01-04 03:54:56.66	138.12	9.92	-37.1	-37.7	24.2	0.00e+00	0	37	0	590348288	52	5993
2026-01-04 03:54:57.82	138.08	10.02	-37.3	-37.9	24.1	0.00e+00	0	37	0	598736896	52	6130
2026-01-04 03:54:58.69	138.06	10.09	-37.1	-37.6	24.2	0.00e+00	0	37	0	605028352	52	5932
2026-01-04 03:54:59.84	138.02	10.19	-37.1	-37.7	24.2	0.00e+00	0	37	0	613416960	52	5982
2026-01-04 03:55:00.71	137.99	10.27	-36.9	-37.4	24.5	0.00e+00	0	37	0	619708416	52	5815
2026-01-04 03:55:01.86	137.96	10.37	-37.2	-37.7	24.4	0.00e+00	0	37	0	628097024	52	6011
2026-01-04 03:55:02.73	137.93	10.44	-37.3	-37.8	24.2	0.00e+00	0	37	0	634388480	52	6091
2026-01-04 03:55:03.89	137.89	10.54	-36.9	-37.5	24.5	0.00e+00	0	37	0	642777088	52	5831
2026-01-04 03:55:04.75	137.87	10.62	-37.1	-37.7	24.3	0.00e+00	0	37	0	649068544	52	5975
2026-01-04 03:55:05.91	137.83	10.72	-37.1	-37.6	24.4	0.00e+00	0	37	0	657457152	52	5944
2026-01-04 03:55:06.78	137.80	10.80	-37.1	-37.7	24.4	0.00e+00	0	37	0	663748608	52	5983
2026-01-04 03:55:07.93	137.77	10.90	-36.9	-37.5	24.6	0.00e+00	0	37	0	672137216	52	5848
2026-01-04 03:55:08.80	137.74	10.98	-37.3	-37.8	24.3	0.00e+00	0	37	0	678428672	52	6079
2026-01-04 03:55:09.95	137.70	11.08	-37.0	-37.5	24.6	0.00e+00	0	37	0	686817280	52	5874
2026-01-04 03:55:10.82	137.67	11.16	-36.9	-37.5	24.5	0.00e+00	0	37	0	693108736	52	5844
2026-01-04 03:55:11.98	137.63	11.27	-36.7	-37.3	24.6	0.00e+00	0	37	0	701497344	52	5699
2026-01-04 03:55:12.84	137.61	11.34	-36.6	-37.2	24.6	0.00e+00	0	37	0	707788800	52	5661
2026-01-04 03:55:14.00	137.57	11.45	-36.7	-37.3	24.7	0.00e+00	0	37	0	716177408	52	5711
2026-01-04 03:55:14.86	137.54	11.53	-36.7	-37.2	24.7	0.00e+00	0	37	0	722468864	52	5674
2026-01-04 03:55:16.02	137.50	11.63	-36.8	-37.4	24.8	0.00e+00	0	37	0	730857472	52	5768
2026-01-04 03:55:16.88	137.47	11.71	-36.6	-37.2	24.8	0.00e+00	0	37	0	737148928	52	5636
2026-01-04 03:55:18.04	137.43	11.82	-36.8	-37.3	24.9	0.00e+00	0	37	0	745537536	52	5755
2026-01-04 03:55:18.91	137.40	11.90	-36.8	-37.4	24.8	0.00e+00	0	37	0	750780416	52	5785
2026-01-04 03:55:20.06	137.36	12.01	-36.8	-37.3	24.9	0.00e+00	0	37	0	759169024	52	5728
2026-01-04 03:55:20.93	137.33	12.09	-36.6	-37.1	25.0	0.00e+00	0	37	0	766509056	52	5601
2026-01-04 03:55:22.09	137.29	12.20	-36.7	-37.3	24.7	0.00e+00	0	37	0	774897664	52	5704
2026-01-04 03:55:22.95	137.26	12.28	-36.7	-37.3	24.9	0.00e+00	0	37	0	780140544	52	5712
2026-01-04 03:55:24.11	137.22	12.39	-36.6	-37.2	24.9	0.00e+00	0	37	0	788529152	52	5652
2026-01-04 03:55:24.97	137.18	12.47	-36.6	-37.1	24.9	0.00e+00	0	37	0	794820608	52	5587
2026-01-04 03:55:26.13	137.14	12.58	-36.3	-36.8	25.1	0.00e+00	0	37	0	803209216	52	5403
2026-01-04 03:55:27.00	137.11	12.66	-36.3	-36.9	25.1	0.00e+00	0	37	0	809500672	52	5440
2026-01-04 03:55:28.15	137.07	12.77	-36.4	-36.9	25.1	0.00e+00	0	37	0	817889280	52	5461
2026-01-04 03:55:29.02	137.04	12.85	-37.0	-37.5	24.9	0.00e+00	0	37	0	824180736	52	5869
2026-01-04 03:55:30.17	136.99	12.97	-36.8	-37.4	24.9	0.00e+00	0	37	0	832569344	52	5769
2026-01-04 03:55:31.04	136.96	13.05	-36.5	-37.0	25.0	0.00e+00	0	37	0	838860800	52	5549
2026-01-04 03:55:32.19	136.92	13.16	-36.7	-37.3	24.9	0.00e+00	0	37	0	847249408	52	5702
2026-01-04 03:55:33.06	136.88	13.25	-36.2	-36.7	25.3	0.00e+00	0	37	0	853540864	52	5357
2026-01-04 03:55:34.22	136.84	13.36	-36.3	-36.8	25.5	0.00e+00	0	37	0	861929472	52	5402
2026-01-04 03:55:35.08	136.81	13.44	-36.1	-36.6	25.4	0.00e+00	0	37	0	868220928	52	5271
2026-01-04 03:55:36.24	136.76	13.56	-36.0	-36.5	25.4	0.00e+00	0	37	0	876609536	50	5892
2026-01-04 03:55:37.10	136.73	13.64	-36.4	-37.0	25.2	0.00e+00	0	37	0	882900992	50	6187
2026-01-04 03:55:38.26	136.68	13.76	-36.1	-36.6	25.5	0.00e+00	0	37	0	891289600	50	5921
2026-01-04 03:55:39.13	136.65	13.85	-36.2	-36.7	25.4	0.00e+00	0	37	0	897581056	50	6007
2026-01-04 03:55:40.28	136.60	13.96	-35.9	-36.4	25.5	0.00e+00	0	37	0	905969664	50	5828
2026-01-04 03:55:41.15	136.56	14.05	-36.4	-37.0	25.2	0.00e+00	0	37	0	912261120	50	6176
2026-01-04 03:55:42.30	136.52	14.17	-37.1	-37.7	24.5	0.00e+00	0	37	0	920649728	50	6708
2026-01-04 03:55:43.17	136.48	14.26	-36.4	-37.0	25.2	0.00e+00	0	37	0	925892608	52	5505
2026-01-04 03:55:44.33	136.43	14.37	-35.8	-36.3	25.6	0.00e+00	0	37	0	935329792	50	5759
2026-01-04 03:55:45.19	136.40	14.46	-36.3	-36.8	25.2	0.00e+00	0	37	0	941621248	50	6068
2026-01-04 03:55:46.35	136.35	14.58	-36.7	-37.2	24.9	0.00e+00	0	37	0	948961280	52	5664
2026-01-04 03:55:47.21	136.31	14.67	-35.8	-36.3	25.6	0.00e+00	0	37	0	955252736	50	5756
2026-01-04 03:55:48.37	136.26	14.79	-35.5	-36.0	25.8	0.00e+00	0	37	0	963641344	50	5516
2026-01-04 03:55:49.24	136.23	14.88	-35.4	-36.0	25.8	0.00e+00	0	37	0	969932800	50	5504
2026-01-04 03:55:50.39	136.18	15.00	-35.9	-36.4	25.7	0.00e+00	0	37	0	978321408	50	5784
2026-01-04 03:55:51.26	136.14	15.09	-35.5	-36.0	25.9	0.00e+00	0	37	0	984612864	50	5518
2026-01-04 03:55:52.41	136.09	15.21	-35.4	-35.9	25.9	0.00e+00	0	37	0	993001472	50	5469
2026-01-04 03:55:53.28	136.05	15.31	-35.5	-36.1	25.9	0.00e+00	0	37	0	999292928	50	5568
2026-01-04 03:55:54.44	136.00	15.43	-35.2	-35.7	26.1	0.00e+00	0	37	0	1007681536	50	5351
2026-01-04 03:55:55.30	135.96	15.52	-35.3	-35.8	26.0	0.00e+00	0	37	0	1013972992	50	5437
2026-01-04 03:55:56.46	135.91	15.64	-35.2	-35.7	26.0	0.00e+00	0	37	0	1022361600	50	5319
2026-01-04 03:55:57.32	135.87	15.74	-35.3	-35.8	26.0	0.00e+00	0	37	0	1028653056	50	5412
2026-01-04 03:55:58.48	135.81	15.86	-35.7	-36.2	25.8	0.00e+00	0	37	0	1037041664	50	5635
2026-01-04 03:55:59.35	135.77	15.96	-35.0	-35.5	26.3	0.00e+00	0	37	0	1043333120	48	5835
2026-01-04 03:56:00.50	135.72	16.08	-35.6	-36.1	25.9	0.00e+00	0	37	0	1051721728	48	6277
2026-01-04 03:56:01.37	135.68	16.18	-35.7	-36.2	26.0	0.00e+00	0	37	0	1058013184	48	6353
2026-01-04 03:56:02.53	135.62	16.31	-35.5	-36.0	25.9	0.00e+00	0	37	0	1066401792	48	6204
2026-01-04 03:56:03.39	135.58	16.40	-35.8	-36.3	25.7	0.00e+00	0	37	0	1072693248	48	6411
2026-01-04 03:56:04.55	135.53	16.53	-35.4	-35.9	26.0	0.00e+00	0	37	0	1081081856	48	6153
2026-01-04 03:56:05.41	135.48	16.63	-35.4	-35.9	26.3	0.00e+00	0	37	0	1087373312	48	6128
2026-01-04 03:56:06.57	135.43	16.76	-35.4	-35.9	26.1	0.00e+00	0	37	0	1095761920	48	6132
2026-01-04 03:56:07.44	135.38	16.85	-35.2	-35.7	26.2	0.00e+00	0	37	0	1102053376	48	6000
2026-01-04 03:56:08.59	135.33	16.98	-35.1	-35.6	26.3	0.00e+00	0	37	0	1110441984	48	5951
2026-01-04 03:56:09.46	135.28	17.08	-35.1	-35.6	26.4	0.00e+00	0	37	0	1115684864	48	5904
2026-01-04 03:56:10.61	135.22	17.21	-34.9	-35.4	26.3	0.00e+00	0	37	0	1124073472	48	5803
2026-01-04 03:56:11.48	135.18	17.31	-35.0	-35.5	26.4	0.00e+00	0	37	0	1131413504	48	5882
2026-01-04 03:56:12.64	135.12	17.45	-35.0	-35.5	26.4	0.00e+00	0	37	0	1139802112	48	5869
2026-01-04 03:56:13.50	135.08	17.55	-35.2	-35.7	26.1	0.00e+00	0	37	0	1145044992	48	6017
2026-01-04 03:56:14.66	135.02	17.68	-35.0	-35.5	26.4	0.00e+00	0	37	0	1153433600	48	5860
2026-01-04 03:56:15.53	134.97	17.78	-35.4	-36.0	26.3	0.00e+00	0	37	0	1159725056	48	6174
2026-01-04 03:56:16.68	134.91	17.92	-35.6	-36.1	26.3	0.00e+00	0	37	0	1168113664	48	6284
2026-01-04 03:56:17.55	134.86	18.02	-35.4	-35.9	26.4	0.00e+00	0	37	0	1174405120	48	6132
2026-01-04 03:56:18.70	134.80	18.15	-35.4	-35.9	26.4	0.00e+00	0	37	0	1182793728	48	6129
2026-01-04 03:56:19.57	134.75	18.26	-35.3	-35.8	26.4	0.00e+00	0	37	0	1189085184	48	6037
2026-01-04 03:56:20.72	134.69	18.40	-35.2	-35.7	26.6	0.00e+00	0	37	0	1197473792	48	5980
2026-01-04 03:56:21.59	134.64	18.50	-35.1	-35.6	26.5	0.00e+00	0	37	0	1203765248	48	5915
2026-01-04 03:56:22.75	134.58	18.64	-35.4	-35.9	26.4	0.00e+00	0	37	0	1212153856	48	6145
2026-01-04 03:56:23.61	134.53	18.74	-35.3	-35.8	26.6	0.00e+00	0	37	0	1218445312	48	6085
2026-01-04 03:56:24.77	134.46	18.88	-35.2	-35.7	26.4	0.00e+00	0	37	0	1226833920	48	5965
2026-01-04 03:56:25.64	134.41	18.99	-35.2	-35.7	26.5	0.00e+00	0	37	0	1233125376	48	6001
2026-01-04 03:56:26.79	134.34	19.13	-35.0	-35.5	26.5	0.00e+00	0	37	0	1241513984	48	5881
2026-01-04 03:56:27.66	134.29	19.24	-35.1	-35.6	26.5	0.00e+00	0	37	0	1247805440	48	5909
2026-01-04 03:56:28.81	134.23	19.38	-35.2	-35.7	26.4	0.00e+00	0	37	0	1256194048	48	5995
2026-01-04 03:56:29.68	134.17	19.49	-35.3	-35.8	26.5	0.00e+00	0	37	0	1262485504	48	6103
2026-01-04 03:56:30.84	134.11	19.64	-35.4	-35.9	26.5	0.00e+00	0	37	0	1270874112	48	6128
2026-01-04 03:56:31.70	134.05	19.74	-35.3	-35.8	26.3	0.00e+00	0	37	0	1277165568	48	6077
2026-01-04 03:56:32.86	133.98	19.89	-34.9	-35.4	26.6	0.00e+00	0	37	0	1285554176	48	5782
2026-01-04 03:56:33.73	133.93	20.00	-35.1	-35.6	26.4	0.00e+00	0	37	0	1291845632	48	5940
2026-01-04 03:56:34.88	133.86	20.15	-35.1	-35.6	26.5	0.00e+00	0	37	0	1300234240	48	5929
2026-01-04 03:56:35.75	133.80	20.26	-34.8	-35.3	26.7	0.00e+00	0	37	0	1306525696	48	5741
2026-01-04 03:56:36.90	133.73	20.41	-34.9	-35.3	26.6	0.00e+00	0	37	0	1313865728	48	5760
2026-01-04 03:56:37.77	133.68	20.52	-35.1	-35.6	26.5	0.00e+00	0	37	0	1320157184	48	5926
2026-01-04 03:56:38.93	133.60	20.67	-35.1	-35.6	26.5	0.00e+00	0	37	0	1329594368	48	5917
2026-01-04 03:56:39.79	133.55	20.78	-35.2	-35.7	26.3	0.00e+00	0	37	0	1334837248	48	6017
2026-01-04 03:56:40.95	133.47	20.94	-34.9	-35.3	26.6	0.00e+00	0	37	0	1343225856	48	5755
2026-01-04 03:56:41.81	133.41	21.05	-34.7	-35.1	26.7	0.00e+00	0	37	0	1349517312	48	5621
2026-01-04 03:56:42.97	133.34	21.20	-34.6	-35.1	26.7	0.00e+00	0	37	0	1357905920	48	5619
2026-01-04 03:56:43.84	133.28	21.32	-34.4	-34.9	27.0	0.00e+00	0	37	0	1364197376	48	5460
2026-01-04 03:56:44.99	133.20	21.47	-34.4	-34.8	26.9	0.00e+00	0	37	0	1372585984	48	5438
2026-01-04 03:56:45.86	133.14	21.59	-34.2	-34.7	27.0	0.00e+00	0	37	0	1378877440	48	5347
2026-01-04 03:56:47.01	133.06	21.75	-34.5	-35.0	26.8	0.00e+00	0	37	0	1387266048	48	5525
2026-01-04 03:56:47.88	133.00	21.86	-34.9	-35.4	26.7	0.00e+00	0	37	0	1393557504	48	5806
2026-01-04 03:56:49.04	132.92	22.02	-34.2	-34.7	27.1	0.00e+00	0	37	0	1401946112	48	5336
2026-01-04 03:56:49.90	132.86	22.14	-34.4	-34.9	26.9	0.00e+00	0	37	0	1408237568	48	5450
2026-01-04 03:56:51.06	132.77	22.30	-34.6	-35.1	27.1	0.00e+00	0	37	0	1416626176	48	5580
2026-01-04 03:56:51.92	132.71	22.42	-34.5	-35.0	27.0	0.00e+00	0	37	0	1422917632	48	5542
2026-01-04 03:56:53.08	132.63	22.58	-34.5	-34.9	27.3	0.00e+00	0	37	0	1431306240	48	5502
2026-01-04 03:56:53.95	132.56	22.70	-34.9	-35.3	27.2	0.00e+00	0	37	0	1437597696	48	5758
2026-01-04 03:56:55.10	132.48	22.87	-34.7	-35.2	27.0	0.00e+00	0	37	0	1445986304	48	5641
2026-01-04 03:56:55.97	132.41	22.99	-34.3	-34.8	27.3	0.00e+00	0	37	0	1452277760	48	5379
2026-01-04 03:56:57.13	132.32	23.16	-34.4	-34.9	27.4	0.00e+00	0	37	0	1460666368	48	5453
2026-01-04 03:56:57.99	132.26	23.28	-34.3	-34.8	27.4	0.00e+00	0	37	0	1466957824	48	5393
2026-01-04 03:56:59.15	132.17	23.45	-34.9	-35.4	27.1	0.00e+00	0	37	0	1475346432	48	5768
2026-01-04 03:57:00.01	132.10	23.57	-34.5	-35.0	27.0	0.00e+00	0	37	0	1481637888	48	5507
2026-01-04 03:57:01.17	132.01	23.74	-34.4	-34.8	27.1	0.00e+00	0	37	0	1488977920	46	6099
2026-01-04 03:57:02.04	131.94	23.87	-34.0	-34.5	27.2	0.00e+00	0	37	0	1496317952	46	5867
2026-01-04 03:57:03.19	131.85	24.04	-33.9	-34.4	27.5	0.00e+00	0	37	0	1504706560	46	5789
2026-01-04 03:57:04.06	131.78	24.16	-33.8	-34.3	27.3	0.00e+00	0	37	0	1509949440	46	5740
2026-01-04 03:57:05.21	131.68	24.33	-34.3	-34.8	27.2	0.00e+00	0	37	0	1518338048	46	6039
2026-01-04 03:57:06.08	131.61	24.46	-34.2	-34.7	27.2	0.00e+00	0	37	0	1525678080	46	5996
2026-01-04 03:57:07.24	131.51	24.64	-34.5	-35.0	27.0	0.00e+00	0	37	0	1533018112	46	6206
2026-01-04 03:57:08.10	131.44	24.77	-34.2	-34.6	27.3	0.00e+00	0	37	0	1539309568	46	5953
2026-01-04 03:57:09.26	131.34	24.94	-33.9	-34.4	27.4	0.00e+00	0	37	0	1547698176	46	5812
2026-01-04 03:57:10.12	131.27	25.08	-33.9	-34.4	27.4	0.00e+00	0	37	0	1553989632	46	5781
2026-01-04 03:57:11.28	131.17	25.25	-34.1	-34.6	27.5	0.00e+00	0	37	0	1562378240	46	5943
2026-01-04 03:57:12.14	131.09	25.39	-34.0	-34.5	27.5	0.00e+00	0	37	0	1568669696	46	5829
2026-01-04 03:57:13.30	130.99	25.57	-33.8	-34.3	27.6	0.00e+00	0	37	0	1577058304	46	5714
2026-01-04 03:57:14.16	130.91	25.70	-33.9	-34.4	27.5	0.00e+00	0	37	0	1583349760	46	5772
2026-01-04 03:57:15.32	130.81	25.88	-34.0	-34.5	27.2	0.00e+00	0	37	0	1591738368	46	5878
2026-01-04 03:57:16.19	130.73	26.02	-33.6	-34.1	27.4	0.00e+00	0	37	0	1598029824	46	5617
2026-01-04 03:57:17.34	130.62	26.20	-33.7	-34.2	27.6	0.00e+00	0	37	0	1606418432	46	5653
2026-01-04 03:57:18.21	130.54	26.34	-33.8	-34.3	27.6	0.00e+00	0	37	0	1612709888	46	5703
2026-01-04 03:57:19.36	130.43	26.52	-33.8	-34.2	27.6	0.00e+00	0	37	0	1621098496	46	5695
2026-01-04 03:57:20.23	130.35	26.66	-33.9	-34.4	27.6	0.00e+00	0	37	0	1627389952	46	5801
2026-01-04 03:57:21.39	130.23	26.85	-33.9	-34.4	27.7	0.00e+00	0	37	0	1635778560	46	5814
2026-01-04 03:57:22.25	130.15	26.99	-33.9	-34.3	27.8	0.00e+00	0	37	0	1642070016	46	5758
2026-01-04 03:57:23.41	130.04	27.18	-33.9	-34.3	27.7	0.00e+00	0	37	0	1650458624	46	5759
2026-01-04 03:57:24.27	129.95	27.32	-34.0	-34.4	27.6	0.00e+00	0	37	0	1656750080	46	5826
2026-01-04 03:57:25.43	129.83	27.52	-34.0	-34.5	27.6	0.00e+00	0	37	0	1665138688	46	5850
2026-01-04 03:57:26.30	129.74	27.66	-34.0	-34.5	27.6	0.00e+00	0	37	0	1671430144	46	5863
2026-01-04 03:57:27.45	129.63	27.85	-34.2	-34.7	27.6	0.00e+00	0	37	0	1678770176	46	5965
2026-01-04 03:57:28.32	129.53	28.00	-34.8	-35.2	27.3	0.00e+00	0	37	0	1685061632	46	6372
2026-01-04 03:57:29.48	129.41	28.20	-34.6	-35.1	27.3	0.00e+00	0	37	0	1694498816	46	6280
2026-01-04 03:57:30.34	129.32	28.34	-34.4	-34.9	27.5	0.00e+00	0	37	0	1699741696	46	6111
2026-01-04 03:57:31.50	129.20	28.54	-34.6	-35.1	27.1	0.00e+00	0	37	0	1708130304	46	6290
2026-01-04 03:57:32.36	129.10	28.69	-34.4	-34.9	27.1	0.00e+00	0	37	0	1714421760	46	6141
2026-01-04 03:57:33.52	128.97	28.89	-34.8	-35.3	27.1	0.00e+00	0	37	0	1722810368	48	5745
2026-01-04 03:57:34.39	128.88	29.04	-35.0	-35.5	27.0	0.00e+00	0	37	0	1729101824	48	5871
2026-01-04 03:57:35.54	128.75	29.24	-34.6	-35.1	27.0	0.00e+00	0	37	0	1737490432	48	5579
2026-01-04 03:57:36.40	128.65	29.39	-34.4	-34.9	26.9	0.00e+00	0	37	0	1743781888	48	5481
2026-01-04 03:57:37.56	128.52	29.60	-34.7	-35.1	26.8	0.00e+00	0	37	0	1752170496	48	5625
2026-01-04 03:57:38.43	128.42	29.75	-34.5	-35.0	27.3	0.00e+00	0	37	0	1758461952	48	5547
2026-01-04 03:57:39.58	128.28	29.96	-33.9	-34.3	27.6	0.00e+00	0	37	0	1766850560	46	5755
2026-01-04 03:57:40.45	128.18	30.11	-33.6	-34.1	27.6	0.00e+00	0	37	0	1773142016	46	5603
2026-01-04 03:57:41.60	128.04	30.32	-33.8	-34.3	27.5	0.00e+00	0	37	0	1781530624	46	5733
2026-01-04 03:57:42.47	127.93	30.48	-33.8	-34.2	27.5	0.00e+00	0	37	0	1787822080	46	5686
2026-01-04 03:57:43.63	127.79	30.69	-34.1	-34.5	27.6	0.00e+00	0	37	0	1796210688	46	5885
2026-01-04 03:57:44.49	127.68	30.85	-33.9	-34.4	27.6	0.00e+00	0	37	0	1802502144	46	5770
2026-01-04 03:57:45.65	127.53	31.07	-33.8	-34.2	27.7	0.00e+00	0	37	0	1810890752	46	5677
2026-01-04 03:57:46.51	127.43	31.23	-33.4	-33.8	27.8	0.00e+00	0	37	0	1817182208	46	5424
2026-01-04 03:57:47.67	127.27	31.44	-33.0	-33.5	28.1	0.00e+00	0	37	0	1825570816	46	5221
2026-01-04 03:57:48.54	127.16	31.61	-32.9	-33.4	28.2	0.00e+00	0	37	0	1831862272	44	5780
2026-01-04 03:57:49.69	127.01	31.82	-33.0	-33.4	28.1	0.00e+00	0	37	0	1840250880	44	5808
2026-01-04 03:57:50.56	126.89	31.99	-33.1	-33.6	28.2	0.00e+00	0	37	0	1846542336	44	5925
2026-01-04 03:57:51.72	126.73	32.21	-32.9	-33.4	28.2	0.00e+00	0	37	0	1853882368	44	5799
2026-01-04 03:57:52.58	126.62	32.38	-33.0	-33.5	28.1	0.00e+00	0	37	0	1861222400	44	5838
2026-01-04 03:57:53.74	126.46	32.60	-33.0	-33.5	28.0	0.00e+00	0	37	0	1869611008	44	5835
2026-01-04 03:57:54.60	126.33	32.77	-33.7	-34.2	27.8	0.00e+00	0	37	0	1874853888	44	6346
2026-01-04 03:57:55.76	126.17	32.99	-33.7	-34.2	28.0	0.00e+00	0	37	0	1883242496	44	6323
2026-01-04 03:57:56.62	126.04	33.16	-33.6	-34.1	27.8	0.00e+00	0	37	0	1890582528	44	6261
2026-01-04 03:57:57.78	125.88	33.39	-33.5	-34.0	27.7	0.00e+00	0	37	0	1897922560	44	6223
2026-01-04 03:57:58.65	125.75	33.56	-33.9	-34.4	27.6	0.00e+00	0	37	0	1904214016	46	5808
2026-01-04 03:57:59.80	125.57	33.79	-33.5	-34.0	27.9	0.00e+00	0	37	0	1912602624	46	5540
2026-01-04 03:58:00.67	125.44	33.97	-33.9	-34.4	27.6	0.00e+00	0	37	0	1918894080	46	5803
2026-01-04 03:58:01.82	125.27	34.20	-33.8	-34.3	27.8	0.00e+00	0	37	0	1927282688	46	5718
2026-01-04 03:58:02.69	125.13	34.38	-33.9	-34.4	27.8	0.00e+00	0	37	0	1933574144	46	5790
2026-01-04 03:58:03.85	124.95	34.61	-33.9	-34.4	27.6	0.00e+00	0	37	0	1941962752	46	5815
2026-01-04 03:58:04.71	124.81	34.79	-33.5	-34.0	27.8	0.00e+00	0	37	0	1948254208	46	5533
2026-01-04 03:58:05.87	124.62	35.03	-33.7	-34.2	27.9	0.00e+00	0	37	0	1956642816	46	5652
2026-01-04 03:58:06.74	124.48	35.21	-33.4	-33.9	27.9	0.00e+00	0	37	0	1962934272	46	5471
2026-01-04 03:58:07.89	124.29	35.45	-33.9	-34.4	27.7	0.00e+00	0	37	0	1971322880	46	5778
2026-01-04 03:58:08.76	124.14	35.63	-33.7	-34.2	27.7	0.00e+00	0	37	0	1977614336	46	5650
2026-01-04 03:58:09.91	123.95	35.87	-33.5	-34.0	28.0	0.00e+00	0	37	0	1986002944	46	5519
2026-01-04 03:58:10.78	123.80	36.06	-34.0	-34.5	27.7	0.00e+00	0	37	0	1992294400	46	5866
2026-01-04 03:58:11.94	123.59	36.30	-33.6	-34.1	27.8	0.00e+00	0	37	0	2000683008	46	5610
2026-01-04 03:58:12.80	123.44	36.49	-33.5	-34.0	27.9	0.00e+00	0	37	0	2006974464	46	5505
2026-01-04 03:58:13.96	123.23	36.74	-34.3	-34.8	27.3	0.00e+00	0	37	0	2015363072	46	6055
2026-01-04 03:58:14.82	123.07	36.92	-33.5	-33.9	27.9	0.00e+00	0	37	0	2021654528	46	5496
2026-01-04 03:58:15.98	122.86	37.17	-34.7	-35.2	27.4	0.00e+00	0	37	0	2030043136	48	5656
2026-01-04 03:58:16.85	122.70	37.36	-34.3	-34.8	27.5	0.00e+00	0	37	0	2036334592	48	5394
2026-01-04 03:58:18.00	122.48	37.62	-34.4	-34.9	27.3	0.00e+00	0	37	0	2043674624	46	6152
2026-01-04 03:58:18.87	122.31	37.81	-35.0	-35.5	26.6	0.00e+00	0	37	0	2049966080	48	5840
2026-01-04 03:58:20.02	122.09	38.06	-34.7	-35.2	26.7	0.00e+00	0	37	0	2059403264	50	5035
2026-01-04 03:58:20.89	121.91	38.26	-34.6	-35.0	27.4	0.00e+00	0	37	0	2064646144	48	5566
2026-01-04 03:58:22.05	121.68	38.52	-34.4	-34.9	27.2	0.00e+00	0	37	0	2073034752	46	6152
2026-01-04 03:58:22.91	121.51	38.71	-33.9	-34.4	27.4	0.00e+00	0	37	0	2079326208	46	5806
2026-01-04 03:58:24.07	121.27	38.97	-34.0	-34.5	27.4	0.00e+00	0	37	0	2087714816	46	5854
2026-01-04 03:58:24.94	121.08	39.17	-33.9	-34.4	27.7	0.00e+00	0	37	0	2094006272	46	5791
2026-01-04 03:58:26.09	120.84	39.43	-33.8	-34.3	27.5	0.00e+00	0	37	0	2102394880	46	5727
2026-01-04 03:58:26.96	120.65	39.63	-34.0	-34.6	27.2	0.00e+00	0	37	0	2108686336	46	5900
2026-01-04 03:58:28.11	120.40	39.89	-34.2	-34.7	27.2	0.00e+00	0	37	0	2117074944	46	6012
2026-01-04 03:58:28.98	120.21	40.09	-34.5	-35.0	27.0	0.00e+00	0	37	0	2123366400	46	6221
2026-01-04 03:58:30.14	119.94	40.36	-33.9	-34.4	27.5	0.00e+00	0	37	0	2131755008	46	5808
2026-01-04 03:58:31.00	119.75	40.56	-33.9	-34.4	27.5	0.00e+00	0	37	0	2138046464	46	5810
2026-01-04 03:58:32.16	119.48	40.84	-33.7	-34.2	27.8	0.00e+00	0	37	0	2146435072	46	5666
2026-01-04 03:58:33.02	119.28	41.04	-34.3	-34.8	27.4	0.00e+00	0	37	0	2152726528	46	6036
2026-01-04 03:58:34.18	119.00	41.31	-34.0	-34.5	27.3	0.00e+00	0	37	0	2161115136	46	5854
2026-01-04 03:58:35.05	118.79	41.52	-34.1	-34.6	27.4	0.00e+00	0	37	0	2167406592	46	5907
2026-01-04 03:58:36.20	118.50	41.79	-34.4	-34.9	27.2	0.00e+00	0	37	0	2175795200	48	5457
2026-01-04 03:58:37.07	118.29	42.00	-34.0	-34.4	27.5	0.00e+00	0	37	0	2182086656	48	5187
2026-01-04 03:58:38.23	117.99	42.28	-34.1	-34.6	27.4	0.00e+00	0	37	0	2190475264	46	5919
2026-01-04 03:58:39.09	117.77	42.48	-34.7	-35.2	27.2	0.00e+00	0	37	0	2196766720	46	6387
2026-01-04 03:58:40.25	117.47	42.77	-33.7	-34.2	27.8	0.00e+00	0	37	0	2205155328	46	5664
2026-01-04 03:58:41.11	117.24	42.97	-33.6	-34.0	27.9	0.00e+00	0	37	0	2211446784	46	5565
2026-01-04 03:58:42.27	116.93	43.26	-33.5	-33.9	28.1	0.00e+00	0	37	0	2218786816	46	5486
2026-01-04 03:58:43.14	116.69	43.47	-33.8	-34.3	27.6	0.00e+00	0	37	0	2226126848	46	5738
2026-01-04 03:58:44.29	116.37	43.75	-33.7	-34.2	28.0	0.00e+00	0	37	0	2234515456	46	5662
2026-01-04 03:58:45.16	116.12	43.96	-33.7	-34.2	28.1	0.00e+00	0	37	0	2239758336	46	5667
2026-01-04 03:58:46.31	115.79	44.25	-33.6	-34.0	28.0	0.00e+00	0	37	0	2248146944	46	5549
2026-01-04 03:58:47.18	115.54	44.46	-33.7	-34.2	27.7	0.00e+00	0	37	0	2255486976	46	5656
2026-01-04 03:58:48.34	115.19	44.75	-33.7	-34.2	27.7	0.00e+00	0	37	0	2262827008	46	5648
2026-01-04 03:58:49.20	114.93	44.96	-33.9	-34.4	27.6	0.00e+00	0	37	0	2269118464	46	5810
2026-01-04 03:58:50.36	114.58	45.25	-34.7	-35.2	27.4	0.00e+00	0	37	0	2277507072	46	6347
2026-01-04 03:58:51.23	114.31	45.47	-34.3	-34.8	27.3	0.00e+00	0	37	0	2283798528	46	6051
2026-01-04 03:58:52.38	113.94	45.76	-34.1	-34.6	27.6	0.00e+00	0	37	0	2292187136	46	5911
2026-01-04 03:58:53.25	113.66	45.98	-34.2	-34.7	27.5	0.00e+00	0	37	0	2298478592	46	5996
2026-01-04 03:58:54.40	113.29	46.27	-34.1	-34.5	27.3	0.00e+00	0	37	0	2306867200	46	5884
2026-01-04 03:58:55.27	113.00	46.49	-34.0	-34.5	27.5	0.00e+00	0	37	0	2313158656	46	5839
2026-01-04 03:58:56.43	112.61	46.78	-33.9	-34.4	27.7	0.00e+00	0	37	0	2321547264	46	5778
2026-01-04 03:58:57.29	112.31	47.00	-34.2	-34.8	27.4	0.00e+00	0	37	0	2327838720	46	6038
2026-01-04 03:58:58.45	111.91	47.29	-34.8	-35.3	27.5	0.00e+00	0	37	0	2336227328	48	5697
2026-01-04 03:58:59.32	111.60	47.51	-35.2	-35.6	26.9	0.00e+00	0	37	0	2342518784	48	5955
2026-01-04 03:59:00.47	111.18	47.80	-34.9	-35.4	26.9	0.00e+00	0	37	0	2350907392	48	5788
2026-01-04 03:59:01.34	110.87	48.03	-35.0	-35.5	26.8	0.00e+00	0	37	0	2357198848	48	5855
2026-01-04 03:59:02.49	110.44	48.32	-35.1	-35.6	26.9	0.00e+00	0	37	0	2365587456	48	5929
2026-01-04 03:59:03.36	110.11	48.54	-35.5	-36.0	25.6	0.00e+00	0	37	0	2371878912	48	6221
2026-01-04 03:59:04.51	109.66	48.83	-35.6	-36.1	26.6	0.00e+00	0	37	0	2380267520	48	6278
2026-01-04 03:59:05.38	109.32	49.05	-35.4	-35.9	26.5	0.00e+00	0	37	0	2386558976	48	6128
2026-01-04 03:59:06.54	108.86	49.35	-35.7	-36.2	26.4	0.00e+00	0	37	0	2394947584	48	6389
2026-01-04 03:59:07.40	108.51	49.57	-35.6	-36.0	26.4	0.00e+00	0	37	0	2401239040	48	6244
2026-01-04 03:59:08.56	108.03	49.86	-35.3	-35.8	26.6	0.00e+00	0	37	0	2408579072	48	6092
2026-01-04 03:59:09.43	107.67	50.08	-35.3	-35.8	26.6	0.00e+00	0	37	0	2415919104	48	6100
2026-01-04 03:59:10.58	107.18	50.38	-35.2	-35.7	26.5	0.00e+00	0	37	0	2424307712	48	5999
2026-01-04 03:59:11.45	106.80	50.60	-34.8	-35.3	26.7	0.00e+00	0	37	0	2429550592	48	5758
2026-01-04 03:59:12.60	106.29	50.89	-34.7	-35.2	26.9	0.00e+00	0	37	0	2437939200	48	5631
2026-01-04 03:59:13.47	105.90	51.11	-34.5	-34.9	26.9	0.00e+00	0	37	0	2444230656	48	5501
2026-01-04 03:59:14.63	105.37	51.40	-34.7	-35.1	26.8	0.00e+00	0	37	0	2452619264	48	5613
2026-01-04 03:59:15.49	104.97	51.62	-35.1	-35.6	26.8	0.00e+00	0	37	0	2458910720	48	5900
2026-01-04 03:59:16.65	104.42	51.91	-34.9	-35.4	26.8	0.00e+00	0	37	0	2467299328	48	5785
2026-01-04 03:59:17.51	104.01	52.12	-35.0	-35.5	26.7	0.00e+00	0	37	0	2473590784	48	5843
2026-01-04 03:59:18.67	103.44	52.41	-35.2	-35.8	26.5	0.00e+00	0	37	0	2481979392	48	6054
2026-01-04 03:59:19.54	103.01	52.63	-35.2	-35.7	26.6	0.00e+00	0	37	0	2488270848	48	5967
2026-01-04 03:59:20.69	102.42	52.91	-35.2	-35.7	26.4	0.00e+00	0	37	0	2496659456	48	5994
2026-01-04 03:59:21.56	101.98	53.13	-35.6	-36.1	26.3	0.00e+00	0	37	0	2502950912	48	6314
2026-01-04 03:59:22.71	101.37	53.41	-35.4	-36.0	26.5	0.00e+00	0	37	0	2511339520	48	6182
2026-01-04 03:59:23.58	100.91	53.62	-35.4	-35.8	26.8	0.00e+00	0	37	0	2517630976	48	6097
2026-01-04 03:59:24.74	100.28	53.90	-34.4	-34.8	27.2	0.00e+00	0	37	0	2526019584	48	5425
2026-01-04 03:59:25.60	99.81	54.11	-34.3	-34.7	27.2	0.00e+00	0	37	0	2532311040	48	5373
2026-01-04 03:59:26.76	99.16	54.39	-34.6	-35.1	27.0	0.00e+00	0	37	0	2540699648	48	5604
2026-01-04 03:59:27.62	98.66	54.59	-35.2	-35.7	26.8	0.00e+00	0	37	0	2546991104	48	5997
2026-01-04 03:59:28.78	97.99	54.86	-35.2	-35.6	26.8	0.00e+00	0	37	0	2555379712	48	5956
2026-01-04 03:59:29.65	97.48	55.07	-35.5	-36.0	26.6	0.00e+00	0	37	0	2561671168	48	6209
2026-01-04 03:59:30.80	96.79	55.33	-35.1	-35.6	26.9	0.00e+00	0	37	0	2570059776	48	5939
2026-01-04 03:59:31.67	96.26	55.53	-35.0	-35.5	27.1	0.00e+00	0	37	0	2576351232	48	5876
2026-01-04 03:59:32.83	95.54	55.79	-34.7	-35.2	27.1	0.00e+00	0	37	0	2584739840	48	5647
2026-01-04 03:59:33.69	95.00	55.99	-34.8	-35.3	27.1	0.00e+00	0	37	0	2591031296	48	5712
2026-01-04 03:59:34.85	94.25	56.24	-34.7	-35.2	27.0	0.00e+00	0	37	0	2599419904	48	5686
2026-01-04 03:59:35.72	93.69	56.44	-35.4	-35.9	26.7	0.00e+00	0	37	0	2604662784	48	6138
2026-01-04 03:59:36.87	92.93	56.68	-35.6	-36.1	26.2	0.00e+00	0	37	0	2613051392	50	5591
2026-01-04 03:59:37.74	92.34	56.87	-35.8	-36.3	26.3	0.00e+00	0	37	0	2620391424	50	5716
2026-01-04 03:59:38.89	91.56	57.11	-35.7	-36.2	26.0	0.00e+00	0	37	0	2627731456	50	5666
2026-01-04 03:59:39.76	90.96	57.29	-34.9	-35.4	26.9	0.00e+00	0	37	0	2634022912	48	5788
2026-01-04 03:59:40.91	90.15	57.52	-34.7	-35.1	27.1	0.00e+00	0	37	0	2642411520	48	5616
2026-01-04 03:59:41.78	89.52	57.70	-35.1	-35.6	27.1	0.00e+00	0	37	0	2648702976	48	5922
2026-01-04 03:59:42.94	88.68	57.93	-35.3	-35.7	27.0	0.00e+00	0	37	0	2657091584	48	6020
2026-01-04 03:59:43.80	88.05	58.09	-36.0	-36.5	26.0	0.00e+00	0	37	0	2663383040	50	5887
2026-01-04 03:59:44.96	87.18	58.31	-35.8	-36.3	26.5	0.00e+00	0	37	0	2671771648	50	5711
2026-01-04 03:59:45.83	86.53	58.47	-35.4	-35.9	26.6	0.00e+00	0	37	0	2678063104	50	5455
2026-01-04 03:59:46.98	85.64	58.68	-35.6	-36.0	26.5	0.00e+00	0	37	0	2686451712	50	5566
2026-01-04 03:59:47.85	84.97	58.83	-35.5	-36.0	26.3	0.00e+00	0	37	0	2692743168	50	5551
2026-01-04 03:59:49.00	84.06	59.03	-35.3	-35.8	26.5	0.00e+00	0	37	0	2701131776	50	5391
2026-01-04 03:59:49.87	83.36	59.17	-35.3	-35.8	26.3	0.00e+00	0	37	0	2707423232	50	5407
2026-01-04 03:59:51.02	82.43	59.36	-35.4	-35.9	26.3	0.00e+00	0	37	0	2715811840	50	5498
2026-01-04 03:59:51.89	81.72	59.50	-35.6	-36.1	26.2	0.00e+00	0	37	0	2722103296	50	5590
2026-01-04 03:59:53.04	80.77	59.67	-35.6	-36.1	26.2	0.00e+00	0	37	0	2730491904	50	5610
2026-01-04 03:59:53.91	80.04	59.80	-36.1	-36.7	26.0	0.00e+00	0	37	0	2736783360	50	5972
2026-01-04 03:59:55.07	79.05	59.96	-36.0	-36.5	26.0	0.00e+00	0	37	0	2745171968	50	5866
2026-01-04 03:59:55.93	78.32	60.08	-35.7	-36.2	26.3	0.00e+00	0	37	0	2751463424	50	5683
2026-01-04 03:59:57.09	77.31	60.23	-35.3	-35.8	26.5	0.00e+00	0	37	0	2759852032	50	5414
2026-01-04 03:59:57.95	76.56	60.34	-35.2	-35.6	26.5	0.00e+00	0	37	0	2766143488	48	5960
2026-01-04 03:59:59.11	75.53	60.47	-35.4	-35.9	26.7	0.00e+00	0	37	0	2773483520	48	6148
2026-01-04 03:59:59.98	74.76	60.57	-35.8	-36.3	26.5	0.00e+00	0	37	0	2780823552	48	6435
2026-01-04 04:00:01.13	73.72	60.69	-35.6	-36.1	26.6	0.00e+00	0	37	0	2789212160	50	5615
2026-01-04 04:00:02.00	72.93	60.78	-35.1	-35.6	26.7	0.00e+00	0	37	0	2794455040	48	5933
2026-01-04 04:00:03.15	71.88	60.89	-36.0	-36.5	26.0	0.00e+00	0	37	0	2802843648	48	6576
2026-01-04 04:00:04.02	71.08	60.97	-35.0	-35.4	26.7	0.00e+00	0	37	0	2809135104	48	5819
2026-01-04 04:00:05.18	70.00	61.06	-35.3	-35.8	26.3	0.00e+00	0	37	0	2817523712	48	6069
2026-01-04 04:00:06.04	69.20	61.12	-35.5	-36.0	25.9	0.00e+00	0	37	0	2823815168	48	6212
2026-01-04 04:00:07.20	68.11	61.20	-35.4	-35.9	26.3	0.00e+00	0	37	0	2832203776	48	6138
2026-01-04 04:00:08.07	67.29	61.25	-35.4	-35.9	26.3	0.00e+00	0	37	0	2838495232	48	6134
2026-01-04 04:00:09.22	66.20	61.32	-35.6	-36.0	26.2	0.00e+00	0	37	0	2846883840	48	6236
2026-01-04 04:00:10.09	65.37	61.36	-35.0	-35.5	26.5	0.00e+00	0	37	0	2853175296	48	5889
2026-01-04 04:00:11.24	64.27	61.40	-35.2	-35.7	26.6	0.00e+00	0	37	0	2861563904	48	6016
2026-01-04 04:00:12.11	63.44	61.43	-34.8	-35.3	26.7	0.00e+00	0	37	0	2867855360	48	5710
2026-01-04 04:00:13.26	62.34	61.46	-35.4	-35.9	26.2	0.00e+00	0	37	0	2876243968	48	6131
2026-01-04 04:00:14.13	61.50	61.48	-35.5	-36.1	26.3	0.00e+00	0	37	0	2882535424	48	6249
2026-01-04 04:00:15.29	60.38	61.49	-36.2	-36.8	26.3	0.00e+00	0	37	0	2890924032	50	6044
2026-01-04 04:00:16.15	59.55	61.49	-35.7	-36.2	26.4	0.00e+00	0	37	0	2897215488	50	5631
2026-01-04 04:00:17.31	58.44	61.49	-34.9	-35.4	27.2	0.00e+00	0	37	0	2905604096	48	5779
2026-01-04 04:00:18.18	57.60	61.48	-35.6	-36.0	26.7	0.00e+00	0	37	0	2911895552	48	6240
2026-01-04 04:00:19.33	56.49	61.46	-34.9	-35.3	26.9	0.00e+00	0	37	0	2920284160	48	5741
2026-01-04 04:00:20.20	55.66	61.44	-35.1	-35.7	26.3	0.00e+00	0	37	0	2926575616	50	5316
2026-01-04 04:00:21.35	54.55	61.41	-35.5	-36.0	26.4	0.00e+00	0	37	0	2934964224	50	5532
2026-01-04 04:00:22.22	53.72	61.37	-35.4	-35.9	26.7	0.00e+00	0	37	0	2941255680	50	5482
2026-01-04 04:00:23.38	52.62	61.32	-35.5	-36.0	26.3	0.00e+00	0	37	0	2949644288	48	6229
2026-01-04 04:00:24.24	51.80	61.28	-35.0	-35.5	26.9	0.00e+00	0	37	0	2955935744	48	5842
2026-01-04 04:00:25.40	50.71	61.21	-34.9	-35.4	26.6	0.00e+00	0	37	0	2964324352	48	5762
2026-01-04 04:00:26.26	49.90	61.15	-35.6	-36.1	26.6	0.00e+00	0	37	0	2969567232	48	6258
2026-01-04 04:00:27.42	48.81	61.07	-36.2	-36.7	26.1	0.00e+00	0	37	0	2977955840	50	5995
2026-01-04 04:00:28.29	48.01	61.00	-36.6	-37.1	25.7	0.00e+00	0	37	0	2985295872	50	6296
2026-01-04 04:00:29.44	46.95	60.90	-35.2	-35.7	26.2	0.00e+00	0	37	0	2992635904	50	5375
2026-01-04 04:00:30.31	46.15	60.82	-36.1	-36.6	26.1	0.00e+00	0	37	0	2998927360	50	5964
2026-01-04 04:00:31.46	45.10	60.71	-35.2	-35.7	26.6	0.00e+00	0	37	0	3007315968	48	5991
2026-01-04 04:00:32.33	44.32	60.62	-35.0	-35.5	26.6	0.00e+00	0	37	0	3013607424	48	5856
2026-01-04 04:00:33.49	43.28	60.49	-35.5	-36.0	26.2	0.00e+00	0	37	0	3021996032	48	6216
2026-01-04 04:00:34.35	42.52	60.39	-35.7	-36.2	26.2	0.00e+00	0	37	0	3028287488	50	5658
2026-01-04 04:00:35.51	41.50	60.25	-35.6	-36.1	26.5	0.00e+00	0	37	0	3036676096	50	5581
2026-01-04 04:00:36.38	40.75	60.13	-35.8	-36.4	26.1	0.00e+00	0	37	0	3042967552	50	5776
2026-01-04 04:00:37.53	39.76	59.98	-35.9	-36.3	26.8	0.00e+00	0	37	0	3051356160	48	6454
2026-01-04 04:00:38.40	39.02	59.86	-37.1	-37.6	25.6	0.00e+00	0	37	0	3057647616	50	6646
2026-01-04 04:00:39.55	38.05	59.69	-37.0	-37.6	26.0	0.00e+00	0	37	0	3066036224	50	6660
2026-01-04 04:00:40.42	37.33	59.56	-36.6	-37.1	26.1	0.00e+00	0	37	0	3072327680	50	6290
2026-01-04 04:00:41.58	36.38	59.38	-35.6	-36.1	26.6	0.00e+00	0	37	0	3080716288	50	5599
2026-01-04 04:00:42.44	35.68	59.24	-35.5	-36.0	26.5	0.00e+00	0	37	0	3087007744	50	5547
2026-01-04 04:00:43.60	34.75	59.05	-36.1	-36.6	26.4	0.00e+00	0	37	0	3095396352	50	5935
2026-01-04 04:00:44.47	34.07	58.90	-36.2	-36.7	25.7	0.00e+00	0	37	0	3101687808	50	6033
2026-01-04 04:00:45.62	33.17	58.70	-35.4	-35.9	26.9	0.00e+00	0	37	0	3110076416	50	5464
2026-01-04 04:00:46.48	32.51	58.55	-35.3	-35.8	26.7	0.00e+00	0	37	0	3116367872	50	5411
2026-01-04 04:00:47.64	31.63	58.33	-35.2	-35.7	26.9	0.00e+00	0	37	0	3124756480	50	5321
2026-01-04 04:00:48.51	30.98	58.17	-35.3	-35.8	26.8	0.00e+00	0	37	0	3131047936	48	6080
2026-01-04 04:00:49.66	30.13	57.95	-34.9	-35.3	27.0	0.00e+00	0	37	0	3138387968	48	5747
2026-01-04 04:00:50.53	29.49	57.78	-34.6	-35.0	27.1	0.00e+00	0	37	0	3145728000	48	5553
2026-01-04 04:00:51.68	28.67	57.55	-34.6	-35.1	27.0	0.00e+00	0	37	0	3154116608	48	5589
2026-01-04 04:00:52.55	28.06	57.38	-34.7	-35.3	26.9	0.00e+00	0	37	0	3159359488	48	5700
2026-01-04 04:00:53.70	27.26	57.14	-34.9	-35.5	26.7	0.00e+00	0	37	0	3167748096	48	5838
2026-01-04 04:00:54.57	26.66	56.96	-34.8	-35.3	26.4	0.00e+00	0	37	0	3174039552	48	5699
2026-01-04 04:00:55.73	25.88	56.71	-35.5	-36.0	26.6	0.00e+00	0	37	0	3182428160	48	6190
2026-01-04 04:00:56.59	25.31	56.53	-35.8	-36.3	26.0	0.00e+00	0	37	0	3188719616	48	6456
2026-01-04 04:00:57.75	24.55	56.28	-35.6	-36.1	26.6	0.00e+00	0	37	0	3197108224	50	5618
2026-01-04 04:00:58.61	24.00	56.09	-35.7	-36.2	26.8	0.00e+00	0	37	0	3203399680	50	5670
2026-01-04 04:00:59.77	23.27	55.83	-35.2	-35.7	26.9	0.00e+00	0	37	0	3211788288	50	5318
2026-01-04 04:01:00.63	22.73	55.63	-35.3	-35.8	26.7	0.00e+00	0	37	0	3218079744	50	5391
2026-01-04 04:01:01.79	22.02	55.37	-34.9	-35.4	26.7	0.00e+00	0	37	0	3226468352	48	5819
2026-01-04 04:01:02.65	21.51	55.17	-34.7	-35.2	26.9	0.00e+00	0	37	0	3232759808	48	5641
2026-01-04 04:01:03.81	20.82	54.90	-34.9	-35.4	26.9	0.00e+00	0	37	0	3241148416	48	5763
2026-01-04 04:01:04.68	20.31	54.70	-34.8	-35.3	26.9	0.00e+00	0	37	0	3247439872	48	5715
2026-01-04 04:01:05.83	19.66	54.43	-35.1	-35.6	26.7	0.00e+00	0	37	0	3255828480	48	5924
2026-01-04 04:01:06.70	19.17	54.22	-35.0	-35.5	26.7	0.00e+00	0	37	0	3262119936	48	5836
2026-01-04 04:01:07.86	18.53	53.94	-34.6	-35.2	26.9	0.00e+00	0	37	0	3270508544	48	5631
2026-01-04 04:01:08.72	18.06	53.73	-34.6	-35.0	26.9	0.00e+00	0	37	0	3276800000	48	5557
2026-01-04 04:01:09.88	17.44	53.45	-35.0	-35.4	27.0	0.00e+00	0	37	0	3285188608	48	5809
2026-01-04 04:01:10.74	16.99	53.24	-36.7	-37.2	25.8	0.00e+00	0	37	0	3291480064	52	5641
2026-01-04 04:01:11.90	16.39	52.96	-35.6	-36.1	26.6	0.00e+00	0	37	0	3299868672	50	5590
2026-01-04 04:01:12.77	15.94	52.74	-35.2	-35.7	26.5	0.00e+00	0	37	0	3306160128	50	5338
2026-01-04 04:01:13.92	15.37	52.46	-35.2	-35.7	26.5	0.00e+00	0	37	0	3313500160	48	5971
2026-01-04 04:01:14.79	14.94	52.24	-35.9	-36.4	26.1	0.00e+00	0	37	0	3320840192	48	6518
2026-01-04 04:01:15.94	14.39	51.96	-35.8	-36.3	26.7	0.00e+00	0	37	0	3329228800	48	6424
2026-01-04 04:01:16.81	13.98	51.74	-35.7	-36.2	26.3	0.00e+00	0	37	0	3334471680	50	5648
2026-01-04 04:01:17.97	13.43	51.45	-35.1	-35.6	26.8	0.00e+00	0	37	0	3342860288	50	5289
2026-01-04 04:01:18.83	13.04	51.23	-34.8	-35.3	26.8	0.00e+00	0	37	0	3350200320	48	5726
2026-01-04 04:01:19.99	12.52	50.94	-35.5	-36.0	26.5	0.00e+00	0	37	0	3357540352	48	6219
2026-01-04 04:01:20.85	12.14	50.72	-34.8	-35.3	26.9	0.00e+00	0	37	0	3363831808	48	5698
2026-01-04 04:01:22.01	11.63	50.43	-34.7	-35.2	27.0	0.00e+00	0	37	0	3372220416	48	5655
2026-01-04 04:01:22.88	11.26	50.21	-34.8	-35.2	27.1	0.00e+00	0	37	0	3378511872	48	5677
2026-01-04 04:01:24.03	10.78	49.92	-35.2	-35.7	26.8	0.00e+00	0	37	0	3386900480	48	5980
2026-01-04 04:01:24.90	10.42	49.70	-35.0	-35.5	26.6	0.00e+00	0	37	0	3393191936	48	5865
2026-01-04 04:01:26.05	9.95	49.41	-35.2	-35.7	26.8	0.00e+00	0	37	0	3401580544	48	5977
2026-01-04 04:01:26.92	9.60	49.18	-34.8	-35.3	27.0	0.00e+00	0	37	0	3407872000	48	5724
2026-01-04 04:01:28.08	9.14	48.89	-34.6	-35.1	27.3	0.00e+00	0	37	0	3416260608	48	5584
2026-01-04 04:01:28.94	8.81	48.67	-35.1	-35.6	26.6	0.00e+00	0	38	0	3422552064	48	5961
2026-01-04 04:01:30.10	8.37	48.38	-34.5	-35.0	26.9	0.00e+00	0	37	0	3430940672	48	5538
2026-01-04 04:01:30.96	8.05	48.16	-35.3	-35.8	26.4	0.00e+00	0	38	0	3437232128	48	6061
2026-01-04 04:01:32.12	7.62	47.86	-35.6	-36.1	26.7	0.00e+00	0	37	0	3445620736	48	6252
2026-01-04 04:01:32.99	7.31	47.64	-34.7	-35.2	26.8	0.00e+00	0	37	0	3451912192	48	5664
2026-01-04 04:01:34.14	6.90	47.35	-34.3	-34.8	27.2	0.00e+00	0	37	0	3460300800	48	5391
2026-01-04 04:01:35.01	6.59	47.13	-34.4	-34.9	27.2	0.00e+00	0	37	0	3466592256	48	5497
2026-01-04 04:01:36.16	6.20	46.84	-34.0	-34.5	27.5	0.00e+00	0	37	0	3474980864	46	5862
2026-01-04 04:01:37.03	5.90	46.62	-34.3	-34.8	27.3	0.00e+00	0	37	0	3481272320	46	6039
2026-01-04 04:01:38.19	5.52	46.33	-34.2	-34.7	27.2	0.00e+00	0	37	0	3489660928	46	6003
2026-01-04 04:01:39.05	5.24	46.12	-34.1	-34.6	27.4	0.00e+00	0	37	0	3495952384	46	5907
2026-01-04 04:01:40.21	4.86	45.83	-34.4	-34.9	27.1	0.00e+00	0	37	0	3503292416	46	6123
2026-01-04 04:01:41.07	4.59	45.61	-34.4	-34.9	27.1	0.00e+00	0	37	0	3510632448	46	6131
2026-01-04 04:01:42.23	4.23	45.32	-34.1	-34.6	27.3	0.00e+00	0	37	0	3519021056	46	5913
2026-01-04 04:01:43.10	3.96	45.10	-34.0	-34.5	27.4	0.00e+00	0	37	0	3524263936	46	5887
2026-01-04 04:01:44.25	3.61	44.82	-34.1	-34.6	27.5	0.00e+00	0	37	0	3532652544	46	5923
2026-01-04 04:01:45.12	3.36	44.60	-34.0	-34.4	27.1	0.00e+00	0	37	0	3538944000	46	5813
2026-01-04 04:01:46.28	3.02	44.32	-33.9	-34.3	27.8	0.00e+00	0	37	0	3547332608	46	5760
2026-01-04 04:01:47.14	2.77	44.11	-34.0	-34.4	27.3	0.00e+00	0	37	0	3553624064	46	5827
2026-01-04 04:01:48.30	2.44	43.82	-34.5	-35.0	27.6	0.00e+00	0	37	0	3562012672	48	5521
2026-01-04 04:01:49.16	2.20	43.61	-34.7	-35.2	27.8	0.00e+00	0	37	0	3568304128	48	5650
2026-01-04 04:01:50.32	1.88	43.33	-35.3	-35.9	27.4	0.00e+00	0	37	0	3576692736	48	6152
2026-01-04 04:01:51.19	1.65	43.12	-34.4	-34.8	27.6	0.00e+00	0	37	0	3582984192	50	4833
2026-01-04 04:01:52.34	1.34	42.84	-34.3	-34.8	27.7	0.00e+00	0	37	0	3591372800	48	5404
2026-01-04 04:01:53.20	1.11	42.63	-34.7	-35.2	27.8	0.00e+00	0	37	0	3597664256	48	5641
2026-01-04 04:01:54.36	0.81	42.35	-34.2	-34.7	27.6	0.00e+00	0	37	0	3606052864	48	5348
2026-01-04 04:01:55.22	0.59	42.15	-34.2	-34.6	27.4	0.00e+00	0	37	0	3612344320	46	5956
2026-01-04 04:01:56.38	0.30	41.87	-35.5	-36.0	26.6	0.00e+00	0	37	0	3620732928	48	6198
2026-01-04 04:01:57.25	0.09	41.66	-34.4	-34.9	27.4	0.00e+00	0	38	0	3627024384	48	5478
2026-01-04 04:01:58.40	359.81	41.39	-34.2	-34.7	27.6	0.00e+00	0	37	0	3635412992	48	5320
2026-01-04 04:01:59.27	359.60	41.19	-34.0	-34.5	27.5	0.00e+00	0	37	0	3641704448	46	5880
2026-01-04 04:02:00.43	359.33	40.92	-34.7	-35.2	27.1	0.00e+00	0	37	0	3650093056	48	5674
2026-01-04 04:02:01.29	359.13	40.71	-34.7	-35.2	27.4	0.00e+00	0	37	0	3656384512	48	5688
2026-01-04 04:02:02.45	358.86	40.44	-34.5	-35.0	27.5	0.00e+00	0	37	0	3664773120	48	5519
2026-01-04 04:02:03.32	358.67	40.24	-34.7	-35.2	27.3	0.00e+00	0	37	0	3671064576	48	5661
2026-01-04 04:02:04.47	358.41	39.98	-34.8	-35.3	27.3	0.00e+00	0	37	0	3678404608	48	5723
2026-01-04 04:02:05.34	358.22	39.78	-34.5	-35.0	26.3	0.00e+00	0	37	0	3685744640	48	5555
2026-01-04 04:02:06.49	357.97	39.52	-35.4	-36.0	26.6	0.00e+00	0	37	0	3694133248	48	6201
2026-01-04 04:02:07.36	357.79	39.32	-36.0	-36.4	26.7	0.00e+00	0	37	0	3699376128	48	6537
2026-01-04 04:02:08.51	357.54	39.06	-36.0	-36.5	27.0	0.00e+00	0	37	0	3707764736	50	5832
2026-01-04 04:02:09.38	357.36	38.86	-35.0	-35.5	27.6	0.00e+00	0	37	0	3715104768	48	5832
2026-01-04 04:02:10.54	357.13	38.60	-34.3	-34.7	27.5	0.00e+00	0	37	0	3722444800	48	5364
2026-01-04 04:02:11.40	356.95	38.41	-34.2	-34.7	26.9	0.00e+00	0	37	0	3728736256	46	5994
2026-01-04 04:02:12.56	356.72	38.15	-34.7	-35.2	27.4	0.00e+00	0	37	0	3737124864	48	5639
2026-01-04 04:02:13.43	356.55	37.96	-34.7	-35.2	27.4	0.00e+00	0	37	0	3743416320	48	5660
2026-01-04 04:02:14.58	356.33	37.71	-33.9	-34.4	27.8	0.00e+00	0	37	0	3751804928	48	5153
2026-01-04 04:02:15.45	356.17	37.52	-33.6	-34.1	27.9	0.00e+00	0	37	0	3758096384	46	5581
2026-01-04 04:02:16.60	355.95	37.27	-33.8	-34.3	27.4	0.00e+00	0	37	0	3766484992	46	5716
2026-01-04 04:02:17.47	355.79	37.08	-34.0	-34.5	27.7	0.00e+00	0	37	0	3772776448	46	5881
2026-01-04 04:02:18.63	355.58	36.83	-34.0	-34.5	27.3	0.00e+00	0	37	0	3781165056	46	5832
2026-01-04 04:02:19.49	355.42	36.64	-33.8	-34.3	27.3	0.00e+00	0	38	0	3787456512	46	5734
2026-01-04 04:02:20.65	355.22	36.39	-34.1	-34.6	27.1	0.00e+00	0	37	0	3795845120	46	5932
2026-01-04 04:02:21.51	355.07	36.21	-34.1	-34.5	27.6	0.00e+00	0	37	0	3802136576	46	5883
2026-01-04 04:02:22.67	354.87	35.97	-34.0	-34.5	27.0	0.00e+00	0	37	0	3810525184	46	5847
2026-01-04 04:02:23.54	354.72	35.78	-34.2	-34.7	27.7	0.00e+00	0	38	0	3816816640	46	5978
2026-01-04 04:02:24.69	354.52	35.54	-34.5	-35.0	27.6	0.00e+00	0	37	0	3825205248	46	6216
2026-01-04 04:02:25.56	354.38	35.36	-34.3	-34.8	27.7	0.00e+00	0	37	0	3831496704	46	6042
2026-01-04 04:02:26.71	354.19	35.12	-34.4	-34.9	27.3	0.00e+00	0	37	0	3839885312	48	5451
2026-01-04 04:02:27.58	354.05	34.95	-33.5	-34.0	27.7	0.00e+00	0	37	0	3846176768	46	5543
2026-01-04 04:02:28.74	353.86	34.71	-34.0	-34.5	27.4	0.00e+00	0	37	0	3854565376	46	5858
2026-01-04 04:02:29.60	353.73	34.53	-33.4	-33.9	28.2	0.00e+00	0	37	0	3860856832	46	5459
2026-01-04 04:02:30.76	353.55	34.30	-33.7	-34.1	28.1	0.00e+00	0	37	0	3868196864	46	5590
2026-01-04 04:02:31.62	353.41	34.13	-34.0	-34.5	27.4	0.00e+00	0	38	0	3875536896	46	5835
2026-01-04 04:02:32.78	353.24	33.89	-33.3	-33.7	28.0	0.00e+00	0	37	0	3883925504	46	5374
2026-01-04 04:02:33.65	353.11	33.72	-33.2	-33.7	27.7	0.00e+00	0	37	0	3889168384	46	5348
2026-01-04 04:02:34.80	352.94	33.49	-34.2	-34.7	27.7	0.00e+00	0	38	0	3897556992	46	6027
2026-01-04 04:02:35.67	352.81	33.32	-34.6	-35.0	27.9	0.00e+00	0	37	0	3903848448	46	6223
2026-01-04 04:02:36.82	352.64	33.09	-34.3	-34.8	27.6	0.00e+00	0	37	0	3912237056	48	5381
2026-01-04 04:02:37.69	352.52	32.92	-34.8	-35.3	27.5	0.00e+00	0	37	0	3918528512	48	5697
2026-01-04 04:02:38.85	352.36	32.70	-33.8	-34.3	28.0	0.00e+00	0	37	0	3926917120	46	5736
2026-01-04 04:02:39.71	352.24	32.53	-34.3	-34.7	28.0	0.00e+00	0	37	0	3933208576	46	6012
2026-01-04 04:02:40.87	352.08	32.31	-34.3	-34.8	27.8	0.00e+00	0	37	0	3941597184	46	6075
2026-01-04 04:02:41.73	351.96	32.15	-34.6	-35.1	27.7	0.00e+00	0	37	0	3947888640	46	6254
2026-01-04 04:02:42.89	351.81	31.93	-33.8	-34.2	27.9	0.00e+00	0	38	0	3956277248	46	5686
2026-01-04 04:02:43.76	351.69	31.76	-33.5	-33.9	28.0	0.00e+00	0	38	0	3962568704	46	5502
2026-01-04 04:02:44.91	351.54	31.55	-33.7	-34.1	28.1	0.00e+00	0	37	0	3970957312	46	5611
2026-01-04 04:02:45.78	351.43	31.38	-34.1	-34.6	27.5	0.00e+00	0	37	0	3977248768	46	5923
2026-01-04 04:02:46.93	351.28	31.17	-34.1	-34.5	27.8	0.00e+00	0	38	0	3985637376	46	5871
2026-01-04 04:02:47.80	351.17	31.01	-33.6	-34.1	28.0	0.00e+00	0	37	0	3991928832	46	5588
2026-01-04 04:02:48.96	351.03	30.80	-33.9	-34.3	28.1	0.00e+00	0	38	0	4000317440	46	5755
2026-01-04 04:02:49.82	350.92	30.64	-34.8	-35.3	27.5	0.00e+00	0	37	0	4006608896	46	6434
2026-01-04 04:02:50.98	350.78	30.43	-34.3	-34.8	27.0	0.00e+00	0	37	0	4014997504	48	5397
2026-01-04 04:02:51.85	350.67	30.27	-34.6	-35.1	27.9	0.00e+00	0	38	0	4021288960	48	5612
2026-01-04 04:02:53.00	350.54	30.07	-34.7	-35.2	27.7	0.00e+00	0	38	0	4029677568	48	5644
2026-01-04 04:02:53.87	350.43	29.91	-34.6	-35.1	28.0	0.00e+00	0	37	0	4035969024	48	5595
2026-01-04 04:02:55.02	350.30	29.71	-35.1	-35.6	27.4	0.00e+00	0	38	0	4044357632	48	5918
2026-01-04 04:02:55.89	350.20	29.55	-34.6	-35.1	27.6	0.00e+00	0	37	0	4050649088	48	5586
2026-01-04 04:02:57.05	350.07	29.35	-35.0	-35.5	27.4	0.00e+00	0	37	0	4059037696	48	5832
2026-01-04 04:02:57.91	349.97	29.20	-35.3	-35.8	26.8	0.00e+00	0	38	0	4064280576	48	6082
2026-01-04 04:02:59.07	349.84	29.00	-35.1	-35.6	26.9	0.00e+00	0	37	0	4072669184	46	6638
2026-01-04 04:02:59.94	349.75	28.85	-34.8	-35.3	27.4	0.00e+00	0	38	0	4080009216	48	5725
2026-01-04 04:03:01.09	349.62	28.65	-35.1	-35.6	27.0	0.00e+00	0	38	0	4087349248	48	5921
2026-01-04 04:03:01.96	349.53	28.50	-34.8	-35.3	27.4	0.00e+00	0	37	0	4093640704	48	5712
2026-01-04 04:03:03.11	349.41	28.31	-34.8	-35.3	27.2	0.00e+00	0	38	0	4102029312	48	5744
2026-01-04 04:03:03.98	349.32	28.16	-35.0	-35.5	26.7	0.00e+00	0	38	0	4108320768	48	5889
2026-01-04 04:03:05.14	349.19	27.96	-34.8	-35.3	26.9	0.00e+00	0	38	0	4116709376	48	5709
2026-01-04 04:03:06.00	349.11	27.82	-35.4	-35.9	26.8	0.00e+00	0	38	0	4123000832	48	6140
2026-01-04 04:03:07.16	348.99	27.63	-35.4	-35.8	26.9	0.00e+00	0	38	0	4131389440	48	6092
2026-01-04 04:03:08.02	348.90	27.49	-35.9	-36.4	26.1	0.00e+00	0	38	0	4137680896	50	5782
2026-01-04 04:03:09.18	348.79	27.30	-35.0	-35.5	26.9	0.00e+00	0	38	0	4146069504	48	5867
2026-01-04 04:03:10.05	348.70	27.15	-34.9	-35.4	26.9	0.00e+00	0	37	0	4152360960	48	5807
2026-01-04 04:03:11.20	348.59	26.97	-36.5	-37.0	26.2	0.00e+00	0	38	0	4160749568	50	6216
2026-01-04 04:03:12.07	348.50	26.83	-36.1	-36.6	26.3	0.00e+00	0	37	0	4167041024	50	5921
2026-01-04 04:03:13.22	348.39	26.64	-35.2	-35.7	27.1	0.00e+00	0	38	0	4175429632	48	6007
2026-01-04 04:03:14.09	348.31	26.50	-35.2	-35.7	26.7	0.00e+00	0	37	0	4181721088	48	5988
2026-01-04 04:03:15.25	348.20	26.32	-35.1	-35.6	26.9	0.00e+00	0	38	0	4190109696	48	5964
2026-01-04 04:03:16.11	348.12	26.18	-35.0	-35.4	27.4	0.00e+00	0	37	0	4196401152	48	5811
2026-01-04 04:03:17.27	348.02	26.00	-34.2	-34.7	27.5	0.00e+00	0	38	0	4204789760	48	5328
2026-01-04 04:03:18.13	347.94	25.86	-34.6	-35.1	27.3	0.00e+00	0	37	0	4211081216	48	5568
2026-01-04 04:03:19.29	347.84	25.68	-34.3	-34.8	27.4	0.00e+00	0	37	0	4219469824	48	5408
2026-01-04 04:03:20.15	347.76	25.55	-34.0	-34.5	27.9	0.00e+00	0	37	0	4225761280	46	5834
2026-01-04 04:03:21.31	347.66	25.37	-33.8	-34.3	27.7	0.00e+00	0	37	0	4233101312	46	5697
2026-01-04 04:03:22.18	347.58	25.24	-33.7	-34.1	27.7	0.00e+00	0	37	0	4240441344	46	5626
2026-01-04 04:03:23.33	347.48	25.06	-33.7	-34.1	27.5	0.00e+00	0	38	0	4248829952	46	5616
2026-01-04 04:03:24.20	347.41	24.93	-33.8	-34.3	27.5	0.00e+00	0	38	0	4254072832	46	5713
2026-01-04 04:03:25.35	347.31	24.76	-33.4	-33.8	27.8	0.00e+00	0	38	0	4262461440	46	5429
2026-01-04 04:03:26.22	347.24	24.63	-33.4	-33.9	27.7	0.00e+00	0	38	0	4268752896	46	5482
2026-01-04 04:03:27.37	347.15	24.46	-33.6	-34.1	27.5	0.00e+00	0	37	0	4277141504	46	5575
2026-01-04 04:03:28.24	347.07	24.33	-34.0	-34.4	27.3	0.00e+00	0	38	0	4283432960	46	5823
2026-01-04 04:03:29.40	346.98	24.15	-34.1	-34.6	27.1	0.00e+00	0	38	0	4291821568	46	5902
2026-01-04 04:03:30.26	346.91	24.03	-34.0	-34.5	27.2	0.00e+00	0	38	0	4298113024	46	5836
2026-01-04 04:03:31.42	346.82	23.86	-33.7	-34.2	27.4	0.00e+00	0	38	0	4306501632	46	5669
2026-01-04 04:03:32.29	346.75	23.73	-33.7	-34.2	27.5	0.00e+00	0	38	0	4312793088	46	5636
2026-01-04 04:03:33.44	346.66	23.57	-33.8	-34.3	27.4	0.00e+00	0	38	0	4321181696	46	5715
2026-01-04 04:03:34.31	346.59	23.44	-33.8	-34.3	27.5	0.00e+00	0	37	0	4327473152	46	5729
2026-01-04 04:03:35.46	346.51	23.28	-34.0	-34.5	27.4	0.00e+00	0	38	0	4335861760	46	5832
2026-01-04 04:03:36.33	346.44	23.15	-34.2	-34.7	27.4	0.00e+00	0	38	0	4342153216	46	5965
2026-01-04 04:03:37.48	346.36	22.99	-34.4	-34.9	27.4	0.00e+00	0	37	0	4350541824	46	6108
2026-01-04 04:03:38.35	346.29	22.87	-34.4	-34.9	27.2	0.00e+00	0	38	0	4356833280	46	6107
2026-01-04 04:03:39.51	346.21	22.71	-34.7	-35.2	27.0	0.00e+00	0	38	0	4365221888	46	6329
2026-01-04 04:03:40.37	346.14	22.59	-34.5	-35.0	27.2	0.00e+00	0	38	0	4371513344	46	6180
2026-01-04 04:03:41.53	346.06	22.42	-34.7	-35.2	27.2	0.00e+00	0	38	0	4379901952	46	6327
2026-01-04 04:03:42.40	346.00	22.30	-34.5	-35.0	27.2	0.00e+00	0	38	0	4386193408	46	6230
2026-01-04 04:03:43.55	345.92	22.15	-34.1	-34.6	27.4	0.00e+00	0	38	0	4394582016	46	5933
2026-01-04 04:03:44.42	345.85	22.03	-34.0	-34.5	27.4	0.00e+00	0	38	0	4400873472	46	5843
2026-01-04 04:03:45.58	345.77	21.87	-34.1	-34.6	27.1	0.00e+00	0	38	0	4409262080	46	5903
2026-01-04 04:03:46.44	345.72	21.75	-33.9	-34.4	27.4	0.00e+00	0	37	0	4415553536	46	5821
2026-01-04 04:03:47.60	345.64	21.60	-34.1	-34.6	27.2	0.00e+00	0	37	0	4423942144	46	5929
2026-01-04 04:03:48.46	345.58	21.48	-34.2	-34.7	27.1	0.00e+00	0	37	0	4429185024	46	5994
2026-01-04 04:03:49.62	345.50	21.33	-34.0	-34.5	27.1	0.00e+00	0	37	0	4437573632	46	5875
2026-01-04 04:03:50.49	345.44	21.21	-34.1	-34.6	27.2	0.00e+00	0	38	0	4443865088	46	5937
2026-01-04 04:03:51.64	345.37	21.06	-34.5	-35.0	27.1	0.00e+00	0	38	0	4452253696	46	6212
2026-01-04 04:03:52.51	345.31	20.95	-34.3	-34.8	27.2	0.00e+00	0	38	0	4458545152	46	6077
2026-01-04 04:03:53.66	345.24	20.80	-34.4	-34.9	27.1	0.00e+00	0	38	0	4466933760	46	6160
2026-01-04 04:03:54.53	345.18	20.68	-34.4	-34.9	27.2	0.00e+00	0	38	0	4473225216	46	6160
2026-01-04 04:03:55.69	345.11	20.53	-34.5	-34.9	27.1	0.00e+00	0	38	0	4481613824	46	6167
2026-01-04 04:03:56.55	345.05	20.42	-34.6	-35.1	27.0	0.00e+00	0	37	0	4487905280	46	6275
2026-01-04 04:03:57.71	344.98	20.27	-34.7	-35.2	27.0	0.00e+00	0	37	0	4496293888	46	6340
2026-01-04 04:03:58.58	344.93	20.16	-34.7	-35.2	27.0	0.00e+00	0	37	0	4502585344	46	6373
2026-01-04 04:03:59.73	344.86	20.02	-34.6	-35.1	26.8	0.00e+00	0	38	0	4510973952	46	6305
2026-01-04 04:04:00.60	344.81	19.91	-35.2	-35.7	26.5	0.00e+00	0	38	0	4517265408	48	6024
2026-01-04 04:04:01.75	344.74	19.76	-35.7	-36.2	26.5	0.00e+00	0	38	0	4525654016	48	6387
2026-01-04 04:04:02.62	344.68	19.65	-35.1	-35.6	26.5	0.00e+00	0	38	0	4531945472	48	5931
2026-01-04 04:04:03.77	344.62	19.51	-35.8	-36.3	26.6	0.00e+00	0	38	0	4540334080	48	6459
2026-01-04 04:04:04.64	344.57	19.40	-35.3	-35.8	26.6	0.00e+00	0	37	0	4546625536	50	5427
2026-01-04 04:04:05.80	344.50	19.26	-35.3	-35.8	26.7	0.00e+00	0	38	0	4555014144	50	5428
2026-01-04 04:04:06.66	344.45	19.16	-35.2	-35.7	26.5	0.00e+00	0	37	0	4561305600	50	5352
2026-01-04 04:04:07.82	344.38	19.01	-35.4	-36.0	26.4	0.00e+00	0	37	0	4569694208	50	5503
2026-01-04 04:04:08.68	344.33	18.91	-35.8	-36.3	26.5	0.00e+00	0	38	0	4575985664	50	5734
2026-01-04 04:04:09.84	344.27	18.77	-35.7	-36.2	26.5	0.00e+00	0	38	0	4584374272	50	5689
