passes_logs/2026/01/04/R4.6S_Anadyr_2ch/R4.6S_Anadyr_2ch__20260104_020532_FENGYUN_3D_rec.log

#Pass ID: 20260104_020532_FENGYUN 3D
#Satellite: FENGYUN 3D
#Configuration: FENGYUN 3D
#almurnet v.1.7.20251203
#Start time: 2026-01-04 02:05:34

#Version: 2.2.20231116
#Station: R4.6S_Anadyr_2ch
#Location: 177.4865 lon 64.73178 lat
#TLE: 1 43010U 17072A   25350.96693137  .00000321  00000+0  17364-3 0  9993
#TLE: 2 43010  98.9888 317.3403 0001146 169.6565 190.4634 14.19686173419132

#Time	Az	El	Level	Level2	SNR	BER	BlckErr	Temp	State	Recorded	gain1	gain2
2026-01-04 02:05:34.22	152.52	0.12	-52.8	-70.7	3.5	3.02e+01	0	34	0	0	60	178659
2026-01-04 02:05:35.23	152.52	0.18	-55.1	-67.4	3.6	8.45e-01	0	35	104	0	60	113760
2026-01-04 02:05:36.24	152.52	0.24	-55.2	-67.6	3.6	8.45e-01	0	35	104	0	60	117179
2026-01-04 02:05:37.25	152.52	0.30	-54.4	-66.8	3.6	8.46e-01	0	35	104	0	60	106148
2026-01-04 02:05:38.26	152.52	0.37	-54.6	-67.0	3.6	8.44e-01	0	35	104	0	60	109569
2026-01-04 02:05:39.27	152.52	0.43	-54.1	-66.4	3.6	8.44e-01	0	35	104	0	60	101534
2026-01-04 02:05:40.28	152.52	0.49	-54.1	-66.5	3.6	8.45e-01	0	35	104	0	60	103062
2026-01-04 02:05:41.29	152.52	0.55	-54.6	-67.0	3.6	8.46e-01	0	35	104	0	60	109578
2026-01-04 02:05:42.31	152.52	0.61	-54.2	-66.6	3.6	8.44e-01	0	35	104	0	60	104072
2026-01-04 02:05:43.32	152.52	0.67	-54.4	-66.8	3.6	8.45e-01	0	35	104	0	60	106302
2026-01-04 02:05:44.33	152.52	0.74	-53.4	-65.8	3.6	8.45e-01	0	36	104	0	60	94821
2026-01-04 02:05:45.34	152.52	0.80	-53.1	-65.4	3.6	8.45e-01	0	36	104	0	60	91271
2026-01-04 02:05:46.35	152.52	0.86	-52.8	-65.3	3.6	8.46e-01	0	36	104	0	60	89628
2026-01-04 02:05:47.36	152.52	0.92	-53.5	-65.8	3.6	8.46e-01	0	36	104	0	60	94937
2026-01-04 02:05:48.37	152.52	0.99	-52.9	-65.2	3.6	8.45e-01	0	36	104	0	60	88468
2026-01-04 02:05:49.38	152.52	1.05	-52.3	-64.7	3.6	8.45e-01	0	36	104	0	60	83510
2026-01-04 02:05:50.39	152.52	1.11	-51.5	-63.8	3.6	8.46e-01	0	36	104	0	60	75929
2026-01-04 02:05:51.40	152.52	1.18	-51.8	-64.0	3.6	8.46e-01	0	36	104	0	60	77446
2026-01-04 02:05:52.42	152.52	1.24	-51.6	-64.0	3.6	8.45e-01	0	36	104	0	60	77148
2026-01-04 02:05:53.43	152.52	1.30	-51.8	-64.2	3.6	8.46e-01	0	36	104	0	60	79072
2026-01-04 02:05:54.44	152.52	1.37	-52.0	-64.3	3.6	8.43e-01	0	36	104	0	60	80361
2026-01-04 02:05:55.45	152.52	1.43	-51.7	-64.1	3.6	8.45e-01	0	36	104	0	60	78572
2026-01-04 02:05:56.46	152.52	1.49	-52.0	-64.4	3.6	8.45e-01	0	36	104	0	60	81032
2026-01-04 02:05:57.47	152.52	1.56	-51.6	-64.0	3.6	8.47e-01	0	36	104	0	60	77272
2026-01-04 02:05:58.48	152.52	1.62	-51.7	-64.0	3.6	8.45e-01	0	36	104	0	60	77275
2026-01-04 02:05:59.49	152.52	1.69	-52.0	-64.2	3.6	8.45e-01	0	36	104	0	60	79280
2026-01-04 02:06:00.50	152.51	1.75	-51.7	-63.8	3.6	8.45e-01	0	36	104	0	60	75411
2026-01-04 02:06:01.51	152.51	1.81	-51.4	-63.5	3.6	8.45e-01	0	36	104	0	60	72924
2026-01-04 02:06:02.52	152.51	1.88	-51.2	-63.2	3.6	8.44e-01	0	36	104	0	60	70218
2026-01-04 02:06:03.53	152.51	1.94	-51.2	-63.1	3.6	8.47e-01	0	36	104	0	60	69968
2026-01-04 02:06:04.54	152.51	2.01	-51.2	-63.3	3.6	8.45e-01	0	36	104	0	60	71216
2026-01-04 02:06:05.55	152.51	2.07	-51.5	-63.6	3.6	8.45e-01	0	36	104	0	60	73533
2026-01-04 02:06:06.56	152.51	2.14	-51.8	-64.0	3.6	8.45e-01	0	36	104	0	60	77056
2026-01-04 02:06:07.58	152.51	2.20	-51.7	-63.9	3.6	8.44e-01	0	36	104	0	60	76229
2026-01-04 02:06:08.59	152.51	2.27	-51.4	-63.6	3.6	8.46e-01	0	36	104	0	60	73747
2026-01-04 02:06:09.60	152.51	2.34	-51.3	-63.6	3.6	8.44e-01	0	36	104	0	60	73632
2026-01-04 02:06:10.61	152.51	2.40	-51.3	-63.5	3.6	8.44e-01	0	36	104	0	60	72733
2026-01-04 02:06:11.62	152.51	2.47	-51.5	-63.8	3.6	8.46e-01	0	36	104	0	60	75204
2026-01-04 02:06:12.63	152.51	2.53	-51.3	-63.6	3.5	8.45e-01	0	36	104	0	60	73544
2026-01-04 02:06:13.64	152.51	2.60	-51.3	-63.5	3.6	8.46e-01	0	36	104	0	60	72885
2026-01-04 02:06:14.65	152.51	2.67	-51.2	-63.4	3.5	8.45e-01	0	36	104	0	60	72205
2026-01-04 02:06:15.66	152.51	2.73	-51.5	-63.5	3.6	8.45e-01	0	36	104	0	60	73049
2026-01-04 02:06:16.67	152.51	2.80	-51.3	-63.2	3.5	8.45e-01	0	36	104	0	60	70733
2026-01-04 02:06:17.68	152.50	2.87	-51.2	-63.1	3.6	8.46e-01	0	36	104	0	60	69498
2026-01-04 02:06:18.69	152.50	2.93	-51.3	-62.9	3.6	8.46e-01	0	36	104	0	60	67957
2026-01-04 02:06:19.70	152.50	3.00	-51.7	-63.4	3.6	8.45e-01	0	36	104	0	60	71813
2026-01-04 02:06:20.71	152.50	3.07	-51.5	-63.5	3.6	8.45e-01	0	36	104	0	60	72874
2026-01-04 02:06:21.73	152.50	3.14	-51.4	-63.8	3.5	8.45e-01	0	36	104	0	60	75682
2026-01-04 02:06:22.74	152.50	3.20	-51.3	-63.6	3.6	8.45e-01	0	36	104	0	60	73756
2026-01-04 02:06:23.75	152.50	3.27	-50.8	-58.9	3.8	8.45e-01	0	36	104	0	60	43128
2026-01-04 02:06:24.76	152.50	3.34	-50.6	-57.3	5.3	7.99e-01	0	36	0	0	60	35819
2026-01-04 02:06:25.77	152.50	3.41	-50.2	-55.4	5.5	4.48e-01	0	36	0	5242880	60	28829
2026-01-04 02:06:26.78	152.50	3.48	-49.5	-53.7	8.0	4.02e-02	0	36	0	9437184	60	23520
2026-01-04 02:06:27.79	152.50	3.54	-48.5	-51.3	13.4	6.73e-03	0	36	0	15728640	60	17934
2026-01-04 02:06:28.80	152.50	3.61	-47.2	-49.4	13.6	1.10e-06	0	36	0	20971520	60	14455
2026-01-04 02:06:29.81	152.49	3.68	-46.1	-47.9	14.9	1.10e-06	0	36	0	27262976	60	12123
2026-01-04 02:06:30.82	152.49	3.75	-45.4	-47.0	15.7	0.00e+00	0	36	0	32505856	60	10954
2026-01-04 02:06:31.83	152.49	3.82	-45.6	-47.4	15.0	5.70e-06	0	36	0	38797312	60	11388
2026-01-04 02:06:32.84	152.49	3.89	-44.3	-45.7	16.6	0.00e+00	0	36	0	44040192	60	9388
2026-01-04 02:06:33.86	152.49	3.96	-44.4	-45.8	16.7	0.00e+00	0	36	0	49283072	60	9496
2026-01-04 02:06:34.87	152.49	4.03	-44.6	-46.1	16.0	0.00e+00	0	36	0	55574528	60	9866
2026-01-04 02:06:35.88	152.49	4.10	-51.3	-61.6	3.6	6.46e-01	0	36	104	58720256	60	58514
2026-01-04 02:06:36.89	152.49	4.17	-50.6	-57.4	5.6	8.46e-01	0	36	104	58720256	60	36164
2026-01-04 02:06:37.90	152.49	4.24	-51.5	-63.7	3.6	2.24e-01	0	36	104	59768832	60	74594
2026-01-04 02:06:38.91	152.49	4.31	-43.9	-45.2	6.1	8.18e-01	0	36	104	59768832	60	8916
2026-01-04 02:06:39.92	152.48	4.38	-51.3	-62.4	3.6	4.83e-01	0	36	104	59768832	60	64004
2026-01-04 02:06:40.94	152.48	4.45	-43.5	-44.7	18.1	6.77e-03	0	36	0	59768832	60	8403
2026-01-04 02:06:41.95	152.48	4.52	-43.4	-44.7	17.8	0.00e+00	0	36	0	66060288	60	8387
2026-01-04 02:06:42.96	152.48	4.60	-42.3	-43.4	19.3	0.00e+00	0	36	0	71303168	60	7185
2026-01-04 02:06:43.97	152.48	4.67	-42.1	-43.1	20.1	0.00e+00	0	36	0	76546048	60	6961
2026-01-04 02:06:44.98	152.48	4.74	-41.5	-42.4	20.1	0.00e+00	0	36	0	82837504	60	6450
2026-01-04 02:06:45.99	152.48	4.81	-41.0	-42.0	20.8	0.00e+00	0	36	0	88080384	60	6119
2026-01-04 02:06:47.00	152.48	4.88	-41.1	-42.1	20.5	0.00e+00	0	36	0	94371840	60	6181
2026-01-04 02:06:48.02	152.47	4.96	-41.2	-42.2	20.8	0.00e+00	0	36	0	99614720	60	6268
2026-01-04 02:06:49.03	152.47	5.03	-41.0	-41.9	20.9	0.00e+00	0	36	0	104857600	60	6093
2026-01-04 02:06:50.04	152.47	5.10	-41.1	-42.0	20.8	0.00e+00	0	36	0	111149056	60	6146
2026-01-04 02:06:51.05	152.47	5.17	-41.3	-42.2	20.7	0.00e+00	0	36	0	116391936	60	6283
2026-01-04 02:06:52.06	152.47	5.25	-41.4	-42.4	20.5	0.00e+00	0	36	0	122683392	60	6403
2026-01-04 02:06:53.07	152.47	5.32	-41.3	-42.2	20.8	0.00e+00	0	36	0	127926272	60	6281
2026-01-04 02:06:54.08	152.47	5.39	-41.1	-42.0	20.8	0.00e+00	0	36	0	133169152	60	6147
2026-01-04 02:06:55.09	152.46	5.47	-41.0	-41.9	20.9	0.00e+00	0	36	0	139460608	60	6060
2026-01-04 02:06:56.10	152.46	5.54	-40.9	-41.8	21.0	0.00e+00	0	36	0	144703488	60	6011
2026-01-04 02:06:57.11	152.46	5.61	-40.7	-41.6	21.2	0.00e+00	0	36	0	150994944	60	5844
2026-01-04 02:06:58.13	152.46	5.69	-40.8	-41.7	21.1	0.00e+00	0	36	0	156237824	60	5950
2026-01-04 02:06:59.14	152.46	5.76	-40.8	-41.7	21.1	0.00e+00	0	36	0	162529280	60	5954
2026-01-04 02:07:00.15	152.46	5.84	-40.9	-41.7	21.1	0.00e+00	0	36	0	167772160	60	5961
2026-01-04 02:07:01.16	152.46	5.91	-40.7	-41.6	21.2	0.00e+00	0	36	0	174063616	60	5854
2026-01-04 02:07:02.17	152.45	5.99	-41.0	-41.9	20.9	0.00e+00	0	36	0	179306496	60	6054
2026-01-04 02:07:03.18	152.45	6.06	-40.6	-41.5	21.4	0.00e+00	0	36	0	184549376	60	5781
2026-01-04 02:07:04.19	152.45	6.14	-40.6	-41.5	21.2	0.00e+00	0	36	0	190840832	60	5799
2026-01-04 02:07:05.20	152.45	6.21	-40.5	-41.3	21.5	0.00e+00	0	36	0	196083712	60	5680
2026-01-04 02:07:06.21	152.45	6.29	-40.6	-41.5	21.4	0.00e+00	0	36	0	202375168	60	5803
2026-01-04 02:07:07.22	152.45	6.37	-40.4	-41.3	21.6	0.00e+00	0	36	0	207618048	60	5652
2026-01-04 02:07:08.23	152.44	6.44	-40.4	-41.2	21.6	0.00e+00	0	36	0	212860928	60	5624
2026-01-04 02:07:09.24	152.44	6.52	-40.4	-41.3	21.5	0.00e+00	0	36	0	219152384	60	5674
2026-01-04 02:07:10.25	152.44	6.60	-40.5	-41.3	21.6	0.00e+00	0	36	0	224395264	60	5690
2026-01-04 02:07:11.26	152.44	6.67	-40.6	-41.4	21.6	0.00e+00	0	36	0	230686720	60	5756
2026-01-04 02:07:12.28	152.44	6.75	-40.4	-41.3	21.7	0.00e+00	0	36	0	235929600	60	5647
2026-01-04 02:07:13.29	152.43	6.83	-40.3	-41.2	21.9	0.00e+00	0	36	0	242221056	60	5583
2026-01-04 02:07:14.30	152.43	6.91	-40.3	-41.1	21.9	0.00e+00	0	36	0	247463936	60	5547
2026-01-04 02:07:15.31	152.43	6.99	-40.2	-41.1	22.0	0.00e+00	0	36	0	252706816	60	5504
2026-01-04 02:07:16.32	152.43	7.06	-40.1	-41.0	21.9	0.00e+00	0	36	0	258998272	58	6113
2026-01-04 02:07:17.33	152.43	7.14	-40.1	-40.9	22.0	0.00e+00	0	36	0	264241152	58	6079
2026-01-04 02:07:18.34	152.42	7.22	-40.1	-40.9	21.9	0.00e+00	0	36	0	270532608	58	6095
2026-01-04 02:07:19.35	152.42	7.30	-40.2	-41.0	21.9	0.00e+00	0	36	0	275775488	58	6167
2026-01-04 02:07:20.37	152.42	7.38	-40.1	-41.0	22.0	0.00e+00	0	36	0	282066944	58	6134
2026-01-04 02:07:21.38	152.42	7.46	-40.0	-40.8	22.2	0.00e+00	0	36	0	287309824	58	5999
2026-01-04 02:07:22.39	152.42	7.54	-39.9	-40.8	22.2	0.00e+00	0	36	0	293601280	58	5970
2026-01-04 02:07:23.40	152.41	7.62	-39.9	-40.8	22.2	0.00e+00	0	36	0	298844160	58	5967
2026-01-04 02:07:24.41	152.41	7.70	-39.8	-40.7	22.3	0.00e+00	0	36	0	304087040	58	5901
2026-01-04 02:07:25.42	152.41	7.78	-39.8	-40.6	22.5	0.00e+00	0	36	0	310378496	58	5878
2026-01-04 02:07:26.43	152.41	7.86	-39.9	-40.7	22.4	0.00e+00	0	36	0	315621376	58	5923
2026-01-04 02:07:27.44	152.40	7.94	-39.6	-40.4	22.6	0.00e+00	0	36	0	321912832	58	5749
2026-01-04 02:07:28.45	152.40	8.02	-39.8	-40.6	22.4	0.00e+00	0	36	0	327155712	58	5847
2026-01-04 02:07:29.46	152.40	8.11	-39.8	-40.6	22.3	0.00e+00	0	36	0	332398592	58	5890
2026-01-04 02:07:30.48	152.40	8.19	-39.5	-40.3	22.7	0.00e+00	0	36	0	338690048	58	5632
2026-01-04 02:07:31.49	152.39	8.27	-39.3	-40.1	23.0	0.00e+00	0	36	0	343932928	58	5559
2026-01-04 02:07:32.50	152.39	8.35	-39.4	-40.2	22.8	0.00e+00	0	36	0	350224384	58	5591
2026-01-04 02:07:33.51	152.39	8.43	-39.2	-40.0	23.0	0.00e+00	0	36	0	355467264	58	5488
2026-01-04 02:07:34.52	152.39	8.52	-39.3	-40.1	23.0	0.00e+00	0	36	0	360710144	56	6198
2026-01-04 02:07:35.53	152.38	8.60	-39.2	-39.9	23.2	0.00e+00	0	36	0	367001600	56	6081
2026-01-04 02:07:36.54	152.38	8.68	-39.2	-40.0	23.1	0.00e+00	0	36	0	372244480	56	6128
2026-01-04 02:07:37.55	152.38	8.77	-39.1	-39.9	23.3	0.00e+00	0	36	0	378535936	56	6044
2026-01-04 02:07:38.57	152.38	8.85	-39.5	-40.2	22.9	0.00e+00	0	36	0	383778816	56	6311
2026-01-04 02:07:39.58	152.37	8.94	-39.0	-39.8	23.3	0.00e+00	0	36	0	390070272	56	5988
2026-01-04 02:07:40.59	152.37	9.02	-39.4	-40.2	23.0	0.00e+00	0	36	0	395313152	56	6275
2026-01-04 02:07:41.60	152.37	9.11	-39.0	-39.8	23.4	0.00e+00	0	36	0	401604608	56	5988
2026-01-04 02:07:42.61	152.37	9.19	-39.2	-40.0	23.2	0.00e+00	0	36	0	406847488	56	6119
2026-01-04 02:07:43.62	152.36	9.28	-39.2	-40.0	22.9	0.00e+00	0	36	0	412090368	56	6113
2026-01-04 02:07:44.63	152.36	9.36	-39.3	-40.0	23.1	0.00e+00	0	36	0	418381824	56	6159
2026-01-04 02:07:45.64	152.36	9.45	-39.1	-39.9	23.2	0.00e+00	0	36	0	423624704	56	6060
2026-01-04 02:07:46.65	152.35	9.54	-39.0	-39.8	23.5	0.00e+00	0	36	0	429916160	56	5998
2026-01-04 02:07:47.66	152.35	9.62	-39.2	-39.9	23.5	0.00e+00	0	36	0	435159040	56	6100
2026-01-04 02:07:48.67	152.35	9.71	-39.1	-39.8	23.6	0.00e+00	0	36	0	440401920	56	6017
2026-01-04 02:07:49.69	152.34	9.80	-39.2	-39.9	23.4	0.00e+00	0	36	0	446693376	56	6094
2026-01-04 02:07:50.70	152.34	9.88	-39.0	-39.8	23.4	0.00e+00	0	36	0	451936256	56	5980
2026-01-04 02:07:51.71	152.34	9.97	-38.9	-39.6	23.6	0.00e+00	0	36	0	458227712	56	5895
2026-01-04 02:07:52.72	152.34	10.06	-38.9	-39.6	23.7	0.00e+00	0	36	0	463470592	56	5892
2026-01-04 02:07:53.73	152.33	10.15	-38.7	-39.4	23.8	0.00e+00	0	36	0	468713472	56	5754
2026-01-04 02:07:54.74	152.33	10.24	-38.8	-39.5	23.7	0.00e+00	0	36	0	475004928	56	5783
2026-01-04 02:07:55.75	152.33	10.33	-38.9	-39.7	23.5	0.00e+00	0	36	0	480247808	56	5914
2026-01-04 02:07:56.76	152.32	10.42	-39.2	-40.0	23.3	0.00e+00	0	36	0	486539264	56	6136
2026-01-04 02:07:57.77	152.32	10.51	-38.9	-39.7	23.9	0.00e+00	0	36	0	491782144	56	5924
2026-01-04 02:07:58.79	152.32	10.60	-38.7	-39.4	23.9	0.00e+00	0	37	0	498073600	56	5747
2026-01-04 02:07:59.80	152.31	10.69	-38.8	-39.6	23.8	0.00e+00	0	36	0	503316480	56	5852
2026-01-04 02:08:00.81	152.31	10.78	-38.8	-39.5	23.8	0.00e+00	0	36	0	509607936	56	5807
2026-01-04 02:08:01.82	152.31	10.87	-39.4	-40.1	23.5	0.00e+00	0	36	0	514850816	56	6238
2026-01-04 02:08:02.83	152.30	10.96	-39.0	-39.7	23.8	0.00e+00	0	36	0	520093696	56	5949
2026-01-04 02:08:03.84	152.30	11.05	-38.8	-39.5	23.9	0.00e+00	0	36	0	526385152	56	5804
2026-01-04 02:08:04.85	152.29	11.15	-38.8	-39.6	23.6	0.00e+00	0	36	0	531628032	56	5841
2026-01-04 02:08:05.86	152.29	11.24	-39.2	-40.0	23.4	0.00e+00	0	36	0	537919488	56	6127
2026-01-04 02:08:06.88	152.29	11.33	-39.5	-40.3	23.2	0.00e+00	0	36	0	543162368	56	6353
2026-01-04 02:08:07.89	152.28	11.43	-39.2	-40.0	23.6	0.00e+00	0	37	0	549453824	56	6146
2026-01-04 02:08:08.90	152.28	11.52	-39.3	-40.1	23.6	0.00e+00	0	36	0	554696704	56	6178
2026-01-04 02:08:09.91	152.28	11.61	-40.0	-40.8	22.8	0.00e+00	0	36	0	559939584	56	6734
2026-01-04 02:08:10.92	152.27	11.71	-40.0	-40.8	22.8	0.00e+00	0	36	0	566231040	58	6030
2026-01-04 02:08:11.93	152.27	11.80	-39.3	-40.1	23.7	0.00e+00	0	37	0	571473920	58	5524
2026-01-04 02:08:12.94	152.26	11.90	-39.2	-40.0	23.6	0.00e+00	0	36	0	577765376	58	5472
2026-01-04 02:08:13.95	152.26	11.99	-38.7	-39.4	23.9	0.00e+00	0	36	0	583008256	56	5759
2026-01-04 02:08:14.96	152.26	12.09	-38.6	-39.3	24.0	0.00e+00	0	36	0	588251136	56	5658
2026-01-04 02:08:15.98	152.25	12.18	-38.3	-39.0	24.2	0.00e+00	0	36	0	594542592	56	5496
2026-01-04 02:08:16.99	152.25	12.28	-38.4	-39.2	24.3	0.00e+00	0	36	0	599785472	56	5571
2026-01-04 02:08:18.00	152.24	12.38	-38.1	-38.8	24.3	0.00e+00	0	37	0	606076928	54	5992
2026-01-04 02:08:19.01	152.24	12.48	-38.4	-39.1	24.2	0.00e+00	0	37	0	611319808	54	6210
2026-01-04 02:08:20.02	152.23	12.57	-38.1	-38.8	24.3	0.00e+00	0	36	0	617611264	54	6018
2026-01-04 02:08:21.03	152.23	12.67	-37.9	-38.7	24.5	0.00e+00	0	36	0	622854144	54	5898
2026-01-04 02:08:22.04	152.23	12.77	-37.9	-38.6	24.6	0.00e+00	0	36	0	629145600	54	5863
2026-01-04 02:08:23.05	152.22	12.87	-38.1	-38.8	24.6	0.00e+00	0	36	0	634388480	54	6016
2026-01-04 02:08:24.06	152.22	12.97	-38.0	-38.7	24.6	0.00e+00	0	36	0	639631360	54	5905
2026-01-04 02:08:25.08	152.21	13.07	-38.2	-38.9	24.6	0.00e+00	0	37	0	645922816	54	6056
2026-01-04 02:08:26.09	152.21	13.17	-38.3	-38.9	24.7	0.00e+00	0	36	0	651165696	54	6098
2026-01-04 02:08:27.10	152.20	13.27	-38.2	-38.9	24.5	0.00e+00	0	36	0	657457152	54	6081
2026-01-04 02:08:28.11	152.20	13.37	-37.6	-38.3	24.9	0.00e+00	0	36	0	662700032	54	5671
2026-01-04 02:08:29.12	152.19	13.47	-37.6	-38.3	24.8	0.00e+00	0	37	0	667942912	54	5658
2026-01-04 02:08:30.13	152.19	13.57	-37.9	-38.5	24.7	0.00e+00	0	37	0	674234368	54	5826
2026-01-04 02:08:31.14	152.18	13.68	-37.7	-38.3	24.7	0.00e+00	0	36	0	679477248	54	5693
2026-01-04 02:08:32.15	152.18	13.78	-37.6	-38.3	25.0	0.00e+00	0	36	0	685768704	54	5646
2026-01-04 02:08:33.16	152.17	13.88	-37.5	-38.2	25.1	0.00e+00	0	36	0	691011584	54	5584
2026-01-04 02:08:34.17	152.17	13.98	-37.3	-38.0	25.2	0.00e+00	0	36	0	696254464	54	5446
2026-01-04 02:08:35.18	152.16	14.09	-37.2	-37.8	25.3	0.00e+00	0	37	0	702545920	54	5366
2026-01-04 02:08:36.19	152.16	14.19	-37.3	-38.0	25.3	0.00e+00	0	37	0	707788800	52	6126
2026-01-04 02:08:37.20	152.15	14.30	-37.0	-37.7	25.5	0.00e+00	0	36	0	714080256	52	5913
2026-01-04 02:08:38.21	152.15	14.40	-37.0	-37.7	25.5	0.00e+00	0	37	0	719323136	52	5908
2026-01-04 02:08:39.23	152.14	14.51	-37.0	-37.6	25.4	0.00e+00	0	36	0	725614592	52	5889
2026-01-04 02:08:40.24	152.14	14.62	-37.0	-37.6	25.6	0.00e+00	0	37	0	730857472	52	5884
2026-01-04 02:08:41.25	152.13	14.72	-36.9	-37.5	25.6	0.00e+00	0	37	0	737148928	52	5801
2026-01-04 02:08:42.26	152.12	14.83	-36.9	-37.5	25.6	0.00e+00	0	37	0	742391808	52	5821
2026-01-04 02:08:43.27	152.12	14.94	-36.8	-37.5	25.7	0.00e+00	0	36	0	747634688	52	5786
2026-01-04 02:08:44.28	152.11	15.05	-36.9	-37.5	25.7	0.00e+00	0	36	0	753926144	52	5821
2026-01-04 02:08:45.29	152.11	15.15	-36.9	-37.6	25.6	0.00e+00	0	37	0	759169024	52	5839
2026-01-04 02:08:46.30	152.10	15.26	-37.1	-37.7	25.3	0.00e+00	0	36	0	765460480	52	5960
2026-01-04 02:08:47.31	152.10	15.37	-37.1	-37.8	25.8	0.00e+00	0	37	0	770703360	52	5987
2026-01-04 02:08:48.33	152.09	15.48	-37.0	-37.6	25.8	0.00e+00	0	37	0	775946240	52	5859
2026-01-04 02:08:49.34	152.08	15.60	-37.3	-37.9	25.4	0.00e+00	0	36	0	782237696	52	6083
2026-01-04 02:08:50.35	152.08	15.71	-36.9	-37.6	25.8	0.00e+00	0	36	0	787480576	52	5829
2026-01-04 02:08:51.36	152.07	15.82	-37.1	-37.8	25.7	0.00e+00	0	37	0	793772032	52	6013
2026-01-04 02:08:52.37	152.06	15.93	-36.7	-37.4	25.9	0.00e+00	0	36	0	799014912	52	5708
2026-01-04 02:08:53.38	152.06	16.04	-37.1	-37.8	25.2	0.00e+00	0	36	0	804257792	52	5996
2026-01-04 02:08:54.39	152.05	16.16	-37.1	-37.7	25.9	0.00e+00	0	37	0	810549248	52	5934
2026-01-04 02:08:55.40	152.04	16.27	-37.3	-37.9	25.8	0.00e+00	0	37	0	815792128	52	6093
2026-01-04 02:08:56.42	152.04	16.38	-37.2	-37.8	25.8	0.00e+00	0	36	0	822083584	52	6026
2026-01-04 02:08:57.43	152.03	16.50	-37.0	-37.7	25.6	0.00e+00	0	36	0	827326464	52	5910
2026-01-04 02:08:58.44	152.02	16.62	-36.8	-37.5	25.9	0.00e+00	0	37	0	833617920	52	5771
2026-01-04 02:08:59.45	152.02	16.73	-36.9	-37.5	26.0	0.00e+00	0	36	0	838860800	52	5822
2026-01-04 02:09:00.46	152.01	16.85	-37.6	-38.3	25.4	0.00e+00	0	37	0	845152256	52	6332
2026-01-04 02:09:01.47	152.00	16.96	-37.0	-37.7	25.8	0.00e+00	0	37	0	850395136	52	5911
2026-01-04 02:09:02.48	152.00	17.08	-37.2	-37.9	25.6	0.00e+00	0	36	0	856686592	52	6039
2026-01-04 02:09:03.49	151.99	17.20	-36.5	-37.2	26.2	0.00e+00	0	36	0	861929472	52	5590
2026-01-04 02:09:04.50	151.98	17.32	-37.2	-37.9	25.7	0.00e+00	0	36	0	867172352	52	6067
2026-01-04 02:09:05.52	151.98	17.44	-36.6	-37.3	26.4	0.00e+00	0	37	0	873463808	52	5645
2026-01-04 02:09:06.53	151.97	17.56	-36.5	-37.1	26.4	0.00e+00	0	36	0	878706688	52	5541
2026-01-04 02:09:07.54	151.96	17.68	-36.5	-37.2	26.3	0.00e+00	0	36	0	884998144	52	5596
2026-01-04 02:09:08.55	151.95	17.80	-37.1	-37.8	26.2	0.00e+00	0	36	0	890241024	52	5990
2026-01-04 02:09:09.56	151.95	17.92	-36.2	-36.8	26.5	0.00e+00	0	37	0	895483904	52	5364
2026-01-04 02:09:10.57	151.94	18.04	-36.3	-37.0	26.5	0.00e+00	0	36	0	901775360	52	5462
2026-01-04 02:09:11.58	151.93	18.17	-36.6	-37.3	26.3	0.00e+00	0	36	0	907018240	50	6335
2026-01-04 02:09:12.59	151.92	18.29	-36.3	-36.9	26.8	0.00e+00	0	37	0	913309696	50	6080
2026-01-04 02:09:13.60	151.91	18.41	-36.1	-36.7	26.7	0.00e+00	0	36	0	918552576	50	5924
2026-01-04 02:09:14.61	151.91	18.54	-36.0	-36.6	26.6	0.00e+00	0	36	0	923795456	50	5863
2026-01-04 02:09:15.63	151.90	18.67	-36.2	-36.8	26.6	0.00e+00	0	36	0	930086912	50	6004
2026-01-04 02:09:16.64	151.89	18.79	-35.8	-36.5	27.0	0.00e+00	0	36	0	935329792	50	5780
2026-01-04 02:09:17.65	151.88	18.92	-36.1	-36.7	26.9	0.00e+00	0	37	0	941621248	50	5919
2026-01-04 02:09:18.66	151.87	19.05	-35.8	-36.5	27.1	0.00e+00	0	36	0	946864128	50	5767
2026-01-04 02:09:19.67	151.86	19.17	-35.9	-36.5	27.0	0.00e+00	0	36	0	953155584	50	5796
2026-01-04 02:09:20.68	151.86	19.30	-36.3	-36.9	26.7	0.00e+00	0	36	0	958398464	50	6067
2026-01-04 02:09:21.69	151.85	19.43	-36.4	-37.1	26.8	0.00e+00	0	37	0	964689920	50	6181
2026-01-04 02:09:22.70	151.84	19.56	-35.9	-36.5	27.0	0.00e+00	0	37	0	969932800	50	5798
2026-01-04 02:09:23.71	151.83	19.69	-35.6	-36.3	26.8	0.00e+00	0	36	0	975175680	50	5641
2026-01-04 02:09:24.73	151.82	19.82	-35.9	-36.5	27.0	0.00e+00	0	37	0	981467136	50	5793
2026-01-04 02:09:25.74	151.81	19.96	-35.9	-36.5	27.0	0.00e+00	0	37	0	986710016	50	5768
2026-01-04 02:09:26.75	151.80	20.09	-35.7	-36.3	27.0	0.00e+00	0	37	0	993001472	50	5685
2026-01-04 02:09:27.76	151.79	20.22	-35.5	-36.2	27.0	0.00e+00	0	37	0	998244352	50	5568
2026-01-04 02:09:28.77	151.78	20.36	-35.9	-36.5	27.0	0.00e+00	0	37	0	1003487232	50	5797
2026-01-04 02:09:29.78	151.77	20.49	-35.8	-36.4	26.9	0.00e+00	0	37	0	1009778688	50	5727
2026-01-04 02:09:30.79	151.76	20.63	-35.9	-36.6	26.8	0.00e+00	0	37	0	1015021568	50	5843
2026-01-04 02:09:31.80	151.75	20.76	-36.1	-36.7	26.9	0.00e+00	0	37	0	1021313024	50	5942
2026-01-04 02:09:32.82	151.74	20.90	-36.0	-36.6	26.8	0.00e+00	0	37	0	1026555904	50	5860
2026-01-04 02:09:33.83	151.73	21.04	-36.5	-37.1	26.8	0.00e+00	0	37	0	1031798784	50	6200
2026-01-04 02:09:34.84	151.72	21.18	-36.2	-36.8	27.0	0.00e+00	0	36	0	1038090240	50	6016
2026-01-04 02:09:35.85	151.71	21.32	-35.8	-36.4	26.9	0.00e+00	0	36	0	1043333120	50	5730
2026-01-04 02:09:36.86	151.70	21.46	-35.6	-36.3	26.9	0.00e+00	0	37	0	1049624576	50	5636
2026-01-04 02:09:37.87	151.69	21.60	-35.8	-36.4	26.9	0.00e+00	0	37	0	1054867456	50	5731
2026-01-04 02:09:38.88	151.68	21.74	-35.9	-36.6	26.9	0.00e+00	0	36	0	1061158912	50	5832
2026-01-04 02:09:39.89	151.67	21.88	-36.2	-36.8	26.4	0.00e+00	0	37	0	1066401792	50	6012
2026-01-04 02:09:40.90	151.66	22.03	-36.0	-36.6	26.9	0.00e+00	0	37	0	1072693248	50	5894
2026-01-04 02:09:41.91	151.65	22.17	-36.1	-36.8	26.9	0.00e+00	0	37	0	1077936128	50	5993
2026-01-04 02:09:42.92	151.64	22.31	-36.3	-36.9	26.8	0.00e+00	0	37	0	1083179008	50	6098
2026-01-04 02:09:43.93	151.62	22.46	-36.3	-36.9	27.0	0.00e+00	0	36	0	1089470464	50	6053
2026-01-04 02:09:44.95	151.61	22.61	-36.5	-37.1	27.0	0.00e+00	0	36	0	1094713344	50	6212
2026-01-04 02:09:45.96	151.60	22.76	-36.3	-36.9	26.9	0.00e+00	0	36	0	1101004800	50	6065
2026-01-04 02:09:46.97	151.59	22.90	-36.9	-37.6	26.5	0.00e+00	0	36	0	1106247680	50	6547
2026-01-04 02:09:47.98	151.58	23.05	-36.7	-37.3	26.3	0.00e+00	0	36	0	1111490560	52	5688
2026-01-04 02:09:48.99	151.57	23.20	-36.3	-36.9	26.9	0.00e+00	0	37	0	1117782016	50	6068
2026-01-04 02:09:50.00	151.55	23.35	-36.6	-37.2	26.7	0.00e+00	0	36	0	1123024896	52	5606
2026-01-04 02:09:51.01	151.54	23.51	-36.0	-36.6	27.1	0.00e+00	0	37	0	1129316352	50	5852
2026-01-04 02:09:52.02	151.53	23.66	-36.7	-37.3	26.5	0.00e+00	0	37	0	1134559232	50	6390
2026-01-04 02:09:53.03	151.52	23.81	-36.9	-37.6	26.1	0.00e+00	0	36	0	1140850688	50	6564
2026-01-04 02:09:54.04	151.50	23.97	-35.7	-36.3	27.3	0.00e+00	0	36	0	1146093568	50	5641
2026-01-04 02:09:55.06	151.49	24.12	-36.5	-37.2	26.7	0.00e+00	0	37	0	1151336448	50	6281
2026-01-04 02:09:56.07	151.48	24.28	-35.8	-36.4	27.3	0.00e+00	0	37	0	1157627904	50	5713
2026-01-04 02:09:57.08	151.46	24.44	-36.3	-36.9	26.8	0.00e+00	0	37	0	1162870784	50	6093
2026-01-04 02:09:58.09	151.45	24.59	-36.0	-36.6	27.1	0.00e+00	0	37	0	1169162240	50	5865
2026-01-04 02:09:59.10	151.44	24.75	-35.8	-36.4	27.1	0.00e+00	0	36	0	1174405120	50	5726
2026-01-04 02:10:00.11	151.42	24.91	-35.7	-36.2	27.1	0.00e+00	0	37	0	1180696576	50	5629
2026-01-04 02:10:01.12	151.41	25.07	-35.2	-35.8	27.4	0.00e+00	0	36	0	1185939456	50	5351
2026-01-04 02:10:02.13	151.39	25.24	-35.0	-35.7	27.6	0.00e+00	0	37	0	1191182336	48	5924
2026-01-04 02:10:03.14	151.38	25.40	-34.7	-35.3	27.7	0.00e+00	0	36	0	1197473792	48	5674
2026-01-04 02:10:04.15	151.36	25.56	-34.8	-35.4	27.5	0.00e+00	0	37	0	1202716672	48	5750
2026-01-04 02:10:05.16	151.35	25.73	-34.8	-35.4	27.6	0.00e+00	0	37	0	1209008128	48	5746
2026-01-04 02:10:06.17	151.33	25.90	-35.1	-35.7	27.5	0.00e+00	0	37	0	1214251008	48	5905
2026-01-04 02:10:07.18	151.32	26.06	-35.0	-35.6	27.6	0.00e+00	0	37	0	1220542464	48	5893
2026-01-04 02:10:08.19	151.30	26.23	-34.8	-35.4	27.6	0.00e+00	0	37	0	1225785344	48	5709
2026-01-04 02:10:09.20	151.29	26.40	-34.8	-35.4	27.7	0.00e+00	0	36	0	1231028224	48	5728
2026-01-04 02:10:10.22	151.27	26.57	-35.3	-36.0	27.5	0.00e+00	0	36	0	1237319680	48	6114
2026-01-04 02:10:11.23	151.26	26.74	-34.7	-35.3	27.8	0.00e+00	0	36	0	1242562560	48	5644
2026-01-04 02:10:12.24	151.24	26.92	-34.4	-35.0	27.9	0.00e+00	0	36	0	1248854016	48	5459
2026-01-04 02:10:13.25	151.22	27.09	-34.3	-34.9	27.8	0.00e+00	0	37	0	1254096896	48	5432
2026-01-04 02:10:14.26	151.21	27.26	-34.3	-34.9	27.8	0.00e+00	0	37	0	1259339776	48	5421
2026-01-04 02:10:15.27	151.19	27.44	-34.2	-34.9	28.0	0.00e+00	0	36	0	1265631232	48	5379
2026-01-04 02:10:16.28	151.17	27.62	-34.1	-34.7	28.2	0.00e+00	0	36	0	1270874112	46	5914
2026-01-04 02:10:17.29	151.16	27.79	-34.1	-34.7	28.1	0.00e+00	0	37	0	1277165568	46	5908
2026-01-04 02:10:18.30	151.14	27.97	-34.0	-34.6	28.2	0.00e+00	0	36	0	1282408448	46	5858
2026-01-04 02:10:19.31	151.12	28.15	-34.0	-34.6	28.1	0.00e+00	0	36	0	1288699904	46	5846
2026-01-04 02:10:20.33	151.10	28.34	-34.2	-34.8	28.0	0.00e+00	0	36	0	1293942784	46	6010
2026-01-04 02:10:21.34	151.08	28.52	-34.1	-34.7	28.0	0.00e+00	0	37	0	1300234240	46	5922
2026-01-04 02:10:22.35	151.07	28.70	-34.1	-34.7	28.1	0.00e+00	0	37	0	1305477120	46	5960
2026-01-04 02:10:23.36	151.05	28.89	-34.2	-34.8	28.0	0.00e+00	0	37	0	1310720000	46	6027
2026-01-04 02:10:24.37	151.03	29.08	-34.2	-34.8	28.0	0.00e+00	0	37	0	1317011456	46	5996
2026-01-04 02:10:25.38	151.01	29.26	-34.3	-34.9	28.0	0.00e+00	0	37	0	1322254336	46	6056
2026-01-04 02:10:26.39	150.99	29.45	-34.3	-34.9	28.0	0.00e+00	0	37	0	1328545792	46	6063
2026-01-04 02:10:27.40	150.97	29.64	-34.3	-34.9	28.0	0.00e+00	0	36	0	1333788672	46	6056
2026-01-04 02:10:28.41	150.95	29.83	-34.3	-34.9	27.9	0.00e+00	0	37	0	1339031552	46	6086
2026-01-04 02:10:29.42	150.93	30.03	-34.3	-34.9	27.9	0.00e+00	0	37	0	1345323008	46	6088
2026-01-04 02:10:30.44	150.91	30.22	-34.3	-34.9	28.0	0.00e+00	0	37	0	1350565888	46	6065
2026-01-04 02:10:31.45	150.89	30.42	-34.3	-34.9	28.0	0.00e+00	0	37	0	1356857344	46	6084
2026-01-04 02:10:32.46	150.87	30.61	-34.4	-35.0	27.9	0.00e+00	0	37	0	1362100224	46	6148
2026-01-04 02:10:33.47	150.84	30.81	-34.4	-35.1	27.9	0.00e+00	0	37	0	1367343104	46	6187
2026-01-04 02:10:34.48	150.82	31.01	-34.6	-35.2	27.9	0.00e+00	0	37	0	1373634560	46	6303
2026-01-04 02:10:35.49	150.80	31.21	-34.2	-34.8	28.0	0.00e+00	0	37	0	1378877440	46	6018
2026-01-04 02:10:36.50	150.78	31.41	-34.3	-34.9	28.0	0.00e+00	0	36	0	1385168896	46	6050
2026-01-04 02:10:37.51	150.75	31.62	-34.3	-34.9	28.0	0.00e+00	0	37	0	1390411776	46	6097
2026-01-04 02:10:38.53	150.73	31.83	-34.2	-34.8	28.2	0.00e+00	0	37	0	1396703232	46	5984
2026-01-04 02:10:39.54	150.71	32.03	-34.2	-34.8	28.1	0.00e+00	0	36	0	1401946112	46	5973
2026-01-04 02:10:40.55	150.68	32.24	-34.1	-34.7	28.3	0.00e+00	0	36	0	1408237568	46	5918
2026-01-04 02:10:41.56	150.66	32.45	-33.9	-34.5	28.4	0.00e+00	0	37	0	1413480448	46	5779
2026-01-04 02:10:42.57	150.64	32.66	-34.0	-34.6	28.3	0.00e+00	0	36	0	1418723328	46	5840
2026-01-04 02:10:43.58	150.61	32.87	-33.7	-34.3	28.4	0.00e+00	0	36	0	1425014784	46	5658
2026-01-04 02:10:44.59	150.59	33.09	-33.6	-34.2	28.5	0.00e+00	0	37	0	1430257664	46	5611
2026-01-04 02:10:45.60	150.56	33.30	-33.7	-34.3	28.4	0.00e+00	0	36	0	1436549120	46	5643
2026-01-04 02:10:46.61	150.53	33.52	-33.7	-34.4	28.4	0.00e+00	0	36	0	1441792000	46	5698
2026-01-04 02:10:47.62	150.51	33.74	-33.7	-34.4	28.3	0.00e+00	0	36	0	1447034880	46	5703
2026-01-04 02:10:48.64	150.48	33.96	-34.1	-34.8	28.3	0.00e+00	0	37	0	1453326336	46	5965
2026-01-04 02:10:49.65	150.45	34.18	-34.0	-34.6	28.1	0.00e+00	0	36	0	1458569216	46	5833
2026-01-04 02:10:50.66	150.42	34.40	-34.0	-34.6	28.3	0.00e+00	0	37	0	1464860672	46	5871
2026-01-04 02:10:51.67	150.40	34.63	-34.1	-34.7	28.3	0.00e+00	0	37	0	1470103552	46	5922
2026-01-04 02:10:52.68	150.37	34.85	-33.8	-34.4	28.4	0.00e+00	0	36	0	1475346432	46	5743
2026-01-04 02:10:53.69	150.34	35.08	-34.0	-34.6	28.2	0.00e+00	0	37	0	1481637888	46	5854
2026-01-04 02:10:54.70	150.31	35.31	-34.1	-34.7	28.4	0.00e+00	0	37	0	1486880768	46	5903
2026-01-04 02:10:55.71	150.28	35.54	-33.9	-34.5	28.5	0.00e+00	0	37	0	1493172224	46	5789
2026-01-04 02:10:56.72	150.25	35.77	-33.8	-34.4	28.6	0.00e+00	0	37	0	1498415104	46	5716
2026-01-04 02:10:57.74	150.22	36.01	-33.8	-34.4	28.6	0.00e+00	0	37	0	1504706560	46	5708
2026-01-04 02:10:58.75	150.19	36.25	-33.7	-34.3	28.6	0.00e+00	0	37	0	1509949440	46	5676
2026-01-04 02:10:59.76	150.15	36.48	-33.7	-34.3	28.5	0.00e+00	0	37	0	1516240896	46	5682
2026-01-04 02:11:00.77	150.12	36.72	-33.8	-34.4	28.5	0.00e+00	0	37	0	1521483776	46	5706
2026-01-04 02:11:01.78	150.09	36.97	-33.9	-34.5	28.4	0.00e+00	0	37	0	1526726656	46	5800
2026-01-04 02:11:02.79	150.06	37.21	-33.6	-34.2	28.6	0.00e+00	0	37	0	1533018112	46	5610
2026-01-04 02:11:03.80	150.02	37.45	-33.7	-34.3	28.5	0.00e+00	0	37	0	1538260992	46	5657
2026-01-04 02:11:04.81	149.99	37.70	-33.6	-34.3	28.5	0.00e+00	0	37	0	1544552448	46	5634
2026-01-04 02:11:05.82	149.95	37.95	-33.7	-34.3	28.5	0.00e+00	0	37	0	1549795328	46	5644
2026-01-04 02:11:06.84	149.92	38.20	-33.7	-34.3	28.5	0.00e+00	0	37	0	1556086784	46	5688
2026-01-04 02:11:07.85	149.88	38.45	-33.9	-34.5	28.4	0.00e+00	0	37	0	1561329664	46	5814
2026-01-04 02:11:08.86	149.84	38.71	-33.8	-34.4	28.4	0.00e+00	0	36	0	1566572544	46	5732
2026-01-04 02:11:09.87	149.80	38.96	-33.7	-34.3	28.6	0.00e+00	0	37	0	1572864000	46	5675
2026-01-04 02:11:10.88	149.77	39.22	-33.7	-34.3	28.5	0.00e+00	0	37	0	1578106880	46	5664
2026-01-04 02:11:11.89	149.73	39.48	-34.0	-34.6	28.4	0.00e+00	0	37	0	1584398336	46	5884
2026-01-04 02:11:12.90	149.69	39.74	-34.1	-34.7	28.3	0.00e+00	0	37	0	1589641216	46	5938
2026-01-04 02:11:13.91	149.65	40.01	-34.7	-35.3	27.8	0.00e+00	0	37	0	1594884096	46	6367
2026-01-04 02:11:14.92	149.61	40.27	-34.4	-35.0	28.3	0.00e+00	0	37	0	1601175552	48	5464
2026-01-04 02:11:15.94	149.56	40.54	-34.3	-34.9	28.0	0.00e+00	0	37	0	1606418432	48	5415
2026-01-04 02:11:16.95	149.52	40.81	-34.5	-35.1	28.1	0.00e+00	0	37	0	1612709888	48	5531
2026-01-04 02:11:17.96	149.48	41.09	-34.6	-35.2	27.9	0.00e+00	0	37	0	1617952768	48	5582
2026-01-04 02:11:18.97	149.43	41.36	-34.9	-35.5	27.8	0.00e+00	0	37	0	1624244224	48	5793
2026-01-04 02:11:19.98	149.39	41.64	-34.7	-35.4	27.9	0.00e+00	0	37	0	1629487104	48	5698
2026-01-04 02:11:20.99	149.34	41.91	-35.0	-35.7	27.6	0.00e+00	0	37	0	1635778560	48	5898
2026-01-04 02:11:22.00	149.30	42.19	-34.6	-35.3	27.8	0.00e+00	0	37	0	1641021440	48	5638
2026-01-04 02:11:23.01	149.25	42.48	-34.8	-35.4	27.9	0.00e+00	0	37	0	1646264320	48	5728
2026-01-04 02:11:24.02	149.20	42.76	-34.7	-35.3	27.9	0.00e+00	0	37	0	1652555776	48	5658
2026-01-04 02:11:25.03	149.15	43.05	-34.7	-35.3	27.8	0.00e+00	0	37	0	1657798656	48	5693
2026-01-04 02:11:26.05	149.10	43.34	-34.7	-35.3	27.9	0.00e+00	0	37	0	1664090112	48	5666
2026-01-04 02:11:27.06	149.05	43.63	-34.5	-35.1	27.9	0.00e+00	0	37	0	1669332992	48	5560
2026-01-04 02:11:28.07	149.00	43.92	-34.4	-35.0	28.1	0.00e+00	0	37	0	1674575872	48	5465
2026-01-04 02:11:29.08	148.94	44.22	-34.1	-34.7	28.2	0.00e+00	0	37	0	1680867328	46	5941
2026-01-04 02:11:30.09	148.89	44.51	-34.9	-35.5	28.0	0.00e+00	0	37	0	1686110208	46	6487
2026-01-04 02:11:31.10	148.83	44.81	-34.7	-35.2	27.8	0.00e+00	0	37	0	1692401664	46	6317
2026-01-04 02:11:32.11	148.77	45.12	-34.9	-35.5	27.8	0.00e+00	0	37	0	1697644544	46	6514
2026-01-04 02:11:33.12	148.72	45.42	-34.1	-34.7	28.3	0.00e+00	0	37	0	1702887424	46	5908
2026-01-04 02:11:34.14	148.66	45.73	-34.3	-34.9	28.1	0.00e+00	0	37	0	1709178880	46	6099
2026-01-04 02:11:35.15	148.60	46.04	-34.5	-35.2	28.0	0.00e+00	0	37	0	1714421760	46	6253
2026-01-04 02:11:36.16	148.54	46.35	-34.2	-34.8	28.3	0.00e+00	0	37	0	1720713216	46	6014
2026-01-04 02:11:37.17	148.47	46.66	-34.4	-35.0	28.1	0.00e+00	0	37	0	1725956096	46	6147
2026-01-04 02:11:38.18	148.41	46.98	-34.3	-34.9	28.2	0.00e+00	0	37	0	1732247552	46	6061
2026-01-04 02:11:39.19	148.34	47.30	-34.4	-35.1	28.1	0.00e+00	0	37	0	1737490432	46	6199
2026-01-04 02:11:40.20	148.28	47.62	-34.5	-35.1	28.1	0.00e+00	0	37	0	1743781888	46	6198
2026-01-04 02:11:41.21	148.21	47.94	-34.5	-35.1	27.9	0.00e+00	0	37	0	1749024768	46	6230
2026-01-04 02:11:42.22	148.14	48.26	-34.2	-34.8	28.2	0.00e+00	0	37	0	1754267648	46	5991
2026-01-04 02:11:43.23	148.07	48.59	-34.2	-34.8	28.3	0.00e+00	0	37	0	1760559104	46	6032
2026-01-04 02:11:44.25	147.99	48.93	-34.3	-34.9	28.1	0.00e+00	0	37	0	1765801984	46	6054
2026-01-04 02:11:45.26	147.92	49.26	-34.3	-34.9	28.2	0.00e+00	0	37	0	1772093440	46	6088
2026-01-04 02:11:46.27	147.84	49.59	-34.4	-35.0	28.0	0.00e+00	0	37	0	1777336320	46	6161
2026-01-04 02:11:47.28	147.76	49.93	-34.6	-35.2	27.8	0.00e+00	0	37	0	1782579200	46	6286
2026-01-04 02:11:48.29	147.68	50.27	-34.7	-35.3	27.7	0.00e+00	0	37	0	1788870656	46	6390
2026-01-04 02:11:49.30	147.60	50.61	-34.4	-35.0	28.1	0.00e+00	0	37	0	1794113536	46	6167
2026-01-04 02:11:50.31	147.51	50.96	-34.6	-35.2	28.1	0.00e+00	0	37	0	1800404992	46	6250
2026-01-04 02:11:51.32	147.43	51.30	-34.9	-35.5	27.9	0.00e+00	0	37	0	1805647872	46	6512
2026-01-04 02:11:52.34	147.34	51.66	-35.2	-35.8	27.7	0.00e+00	0	37	0	1811939328	48	5972
2026-01-04 02:11:53.35	147.25	52.01	-35.2	-35.9	27.5	0.00e+00	0	37	0	1817182208	48	6037
2026-01-04 02:11:54.36	147.16	52.36	-35.6	-36.2	27.4	0.00e+00	0	37	0	1822425088	48	6315
2026-01-04 02:11:55.37	147.06	52.72	-35.9	-36.5	27.0	0.00e+00	0	37	0	1828716544	48	6518
2026-01-04 02:11:56.38	146.96	53.08	-35.7	-36.4	27.3	0.00e+00	0	37	0	1833959424	50	5708
2026-01-04 02:11:57.39	146.86	53.44	-35.8	-36.5	27.1	0.00e+00	0	37	0	1840250880	50	5776
2026-01-04 02:11:58.40	146.76	53.81	-36.2	-36.9	26.7	0.00e+00	0	37	0	1845493760	50	6063
2026-01-04 02:11:59.41	146.66	54.17	-36.1	-36.7	26.9	0.00e+00	0	37	0	1851785216	50	5936
2026-01-04 02:12:00.42	146.55	54.54	-35.8	-36.4	27.1	0.00e+00	0	37	0	1857028096	50	5737
2026-01-04 02:12:01.43	146.44	54.92	-35.2	-35.8	27.5	0.00e+00	0	37	0	1862270976	50	5372
2026-01-04 02:12:02.44	146.32	55.29	-35.2	-35.9	27.5	0.00e+00	0	37	0	1868562432	48	6040
2026-01-04 02:12:03.45	146.20	55.67	-35.4	-36.1	27.2	0.00e+00	0	37	0	1873805312	48	6185
2026-01-04 02:12:04.46	146.08	56.05	-36.0	-36.7	26.9	0.00e+00	0	37	0	1880096768	48	6635
2026-01-04 02:12:05.47	145.96	56.43	-35.9	-36.5	27.0	0.00e+00	0	37	0	1885339648	48	6491
2026-01-04 02:12:06.48	145.83	56.81	-35.6	-36.2	27.2	0.00e+00	0	37	0	1891631104	48	6279
2026-01-04 02:12:07.49	145.70	57.20	-35.4	-36.0	27.3	0.00e+00	0	37	0	1896873984	48	6151
2026-01-04 02:12:08.51	145.56	57.60	-35.4	-36.1	27.3	0.00e+00	0	37	0	1902116864	48	6175
2026-01-04 02:12:09.52	145.42	57.99	-35.8	-36.4	26.9	0.00e+00	0	37	0	1908408320	48	6447
2026-01-04 02:12:10.53	145.28	58.38	-35.3	-36.0	27.3	0.00e+00	0	37	0	1913651200	48	6144
2026-01-04 02:12:11.54	145.13	58.78	-35.3	-35.9	27.3	0.00e+00	0	37	0	1919942656	48	6097
2026-01-04 02:12:12.55	144.98	59.18	-35.4	-36.0	27.3	0.00e+00	0	37	0	1925185536	48	6147
2026-01-04 02:12:13.56	144.82	59.58	-34.8	-35.4	27.8	0.00e+00	0	37	0	1930428416	48	5759
2026-01-04 02:12:14.57	144.66	59.99	-35.2	-35.8	27.5	0.00e+00	0	37	0	1936719872	48	5976
2026-01-04 02:12:15.58	144.49	60.39	-34.7	-35.4	27.9	0.00e+00	0	37	0	1941962752	48	5699
2026-01-04 02:12:16.59	144.32	60.80	-34.9	-35.5	27.8	0.00e+00	0	37	0	1948254208	48	5821
2026-01-04 02:12:17.60	144.14	61.21	-34.7	-35.3	27.9	0.00e+00	0	37	0	1953497088	48	5693
2026-01-04 02:12:18.61	143.95	61.63	-34.3	-34.9	28.3	0.00e+00	0	37	0	1959788544	48	5404
2026-01-04 02:12:19.63	143.76	62.05	-33.9	-34.5	28.5	0.00e+00	0	37	0	1965031424	46	5770
2026-01-04 02:12:20.64	143.56	62.47	-34.2	-34.8	28.1	0.00e+00	0	37	0	1971322880	46	6010
2026-01-04 02:12:21.65	143.35	62.89	-34.5	-35.2	28.1	0.00e+00	0	37	0	1976565760	46	6255
2026-01-04 02:12:22.66	143.14	63.31	-34.6	-35.2	28.0	0.00e+00	0	37	0	1981808640	46	6296
2026-01-04 02:12:23.67	142.92	63.73	-34.8	-35.4	27.9	0.00e+00	0	37	0	1988100096	48	5747
2026-01-04 02:12:24.68	142.69	64.16	-35.3	-35.9	27.5	0.00e+00	0	37	0	1993342976	48	6068
2026-01-04 02:12:25.69	142.45	64.59	-35.2	-35.9	27.7	0.00e+00	0	37	0	1999634432	48	6048
2026-01-04 02:12:26.70	142.20	65.02	-34.7	-35.3	27.9	0.00e+00	0	37	0	2004877312	48	5667
2026-01-04 02:12:27.71	141.94	65.46	-33.9	-34.4	28.5	0.00e+00	0	37	0	2010120192	46	5757
2026-01-04 02:12:28.73	141.67	65.89	-34.4	-35.0	28.3	0.00e+00	0	37	0	2016411648	46	6114
2026-01-04 02:12:29.74	141.39	66.33	-34.6	-35.3	28.0	0.00e+00	0	37	0	2021654528	46	6336
2026-01-04 02:12:30.75	141.10	66.77	-33.5	-34.1	28.7	0.00e+00	0	37	0	2027945984	46	5517
2026-01-04 02:12:31.76	140.80	67.21	-33.6	-34.2	28.7	0.00e+00	0	37	0	2033188864	46	5618
2026-01-04 02:12:32.77	140.48	67.65	-34.7	-35.3	28.0	0.00e+00	0	37	0	2038431744	46	6351
2026-01-04 02:12:33.78	140.15	68.10	-34.2	-34.8	28.3	0.00e+00	0	37	0	2044723200	46	5998
2026-01-04 02:12:34.79	139.80	68.54	-34.1	-34.7	28.3	0.00e+00	0	37	0	2049966080	46	5921
2026-01-04 02:12:35.80	139.44	68.99	-34.9	-35.5	27.7	0.00e+00	0	37	0	2056257536	46	6530
2026-01-04 02:12:36.81	139.06	69.44	-34.5	-35.1	28.2	0.00e+00	0	37	0	2061500416	46	6237
2026-01-04 02:12:37.82	138.66	69.89	-34.2	-34.8	28.6	0.00e+00	0	37	0	2067791872	46	6006
2026-01-04 02:12:38.84	138.24	70.34	-34.0	-34.6	28.4	0.00e+00	0	37	0	2073034752	46	5852
2026-01-04 02:12:39.85	137.80	70.79	-33.8	-34.4	28.4	0.00e+00	0	37	0	2079326208	46	5735
2026-01-04 02:12:40.86	137.34	71.25	-33.6	-34.2	28.5	0.00e+00	0	37	0	2084569088	46	5586
2026-01-04 02:12:41.87	136.85	71.70	-34.0	-34.6	28.6	0.00e+00	0	37	0	2089811968	46	5860
2026-01-04 02:12:42.88	136.34	72.15	-33.8	-34.4	28.7	0.00e+00	0	37	0	2096103424	46	5722
2026-01-04 02:12:43.89	135.80	72.61	-34.1	-34.7	28.4	0.00e+00	0	37	0	2101346304	46	5914
2026-01-04 02:12:44.90	135.23	73.06	-33.8	-34.4	28.6	0.00e+00	0	37	0	2107637760	46	5711
2026-01-04 02:12:45.91	134.62	73.52	-33.7	-34.3	28.6	0.00e+00	0	37	0	2112880640	46	5658
2026-01-04 02:12:46.92	133.98	73.97	-34.3	-34.9	28.4	0.00e+00	0	37	0	2118123520	46	6042
2026-01-04 02:12:47.94	133.29	74.43	-33.7	-34.2	28.7	0.00e+00	0	37	0	2124414976	46	5622
2026-01-04 02:12:48.95	132.57	74.88	-33.7	-34.4	28.3	0.00e+00	0	37	0	2129657856	46	5696
2026-01-04 02:12:49.96	131.80	75.34	-34.6	-35.2	28.4	0.00e+00	0	37	0	2135949312	46	6304
2026-01-04 02:12:50.97	130.98	75.79	-34.5	-35.1	28.2	0.00e+00	0	37	0	2141192192	46	6233
2026-01-04 02:12:51.98	130.10	76.24	-34.6	-35.2	27.8	0.00e+00	0	37	0	2146435072	46	6287
2026-01-04 02:12:52.99	129.16	76.69	-34.2	-34.8	28.4	0.00e+00	0	37	0	2152726528	46	6004
2026-01-04 02:12:54.00	128.15	77.13	-33.4	-34.0	29.1	0.00e+00	0	37	0	2157969408	46	5452
2026-01-04 02:12:55.01	127.07	77.57	-33.4	-34.0	29.3	0.00e+00	0	37	0	2164260864	44	6136
2026-01-04 02:12:56.02	125.91	78.01	-33.5	-34.1	28.9	0.00e+00	0	37	0	2169503744	44	6179
2026-01-04 02:12:57.03	124.65	78.45	-33.2	-33.8	29.1	0.00e+00	0	37	0	2175795200	44	5971
2026-01-04 02:12:58.05	123.28	78.88	-32.6	-33.2	29.4	0.00e+00	0	37	0	2181038080	44	5590
2026-01-04 02:12:59.06	121.82	79.31	-32.2	-32.8	29.6	0.00e+00	0	37	0	2187329536	44	5356
2026-01-04 02:13:00.07	120.23	79.73	-32.2	-32.8	29.6	0.00e+00	0	37	0	2192572416	42	5991
2026-01-04 02:13:01.08	118.50	80.14	-32.2	-32.7	29.7	0.00e+00	0	37	0	2197815296	42	5950
2026-01-04 02:13:02.09	116.63	80.54	-32.0	-32.6	29.9	0.00e+00	0	37	0	2204106752	42	5856
2026-01-04 02:13:03.10	114.58	80.93	-32.1	-32.6	30.0	0.00e+00	0	37	0	2209349632	42	5895
2026-01-04 02:13:04.11	112.36	81.31	-32.0	-32.6	29.8	0.00e+00	0	37	0	2215641088	42	5860
2026-01-04 02:13:05.12	109.93	81.68	-31.6	-32.2	30.3	0.00e+00	0	37	0	2220883968	42	5569
2026-01-04 02:13:06.14	107.25	82.03	-31.5	-32.1	30.2	0.00e+00	0	37	0	2227175424	42	5528
2026-01-04 02:13:07.15	104.35	82.36	-31.7	-32.3	30.2	0.00e+00	0	37	0	2232418304	42	5675
2026-01-04 02:13:08.16	101.20	82.67	-31.3	-32.0	30.3	0.00e+00	0	37	0	2237661184	42	5451
2026-01-04 02:13:09.17	97.78	82.96	-31.3	-31.9	30.2	0.00e+00	0	37	0	2243952640	42	5405
2026-01-04 02:13:10.18	94.07	83.22	-31.0	-31.6	30.3	0.00e+00	0	37	0	2249195520	40	5883
2026-01-04 02:13:11.19	90.09	83.45	-31.1	-31.6	30.2	0.00e+00	0	37	0	2255486976	40	5891
2026-01-04 02:13:12.20	85.83	83.65	-31.5	-32.1	30.3	0.00e+00	0	37	0	2260729856	40	6225
2026-01-04 02:13:13.21	81.32	83.81	-31.2	-31.8	30.4	0.00e+00	0	37	0	2265972736	40	5972
2026-01-04 02:13:14.22	76.61	83.93	-31.7	-32.3	30.1	0.00e+00	0	37	0	2272264192	40	6385
2026-01-04 02:13:15.24	71.69	84.01	-31.8	-32.4	29.9	0.00e+00	0	37	0	2277507072	40	6448
2026-01-04 02:13:16.25	66.72	84.04	-32.0	-32.6	29.8	0.00e+00	0	37	0	2283798528	42	5869
2026-01-04 02:13:17.26	61.73	84.03	-32.5	-33.1	29.7	0.00e+00	0	37	0	2289041408	42	6224
2026-01-04 02:13:18.27	56.80	83.98	-32.7	-33.3	29.6	0.00e+00	0	37	0	2295332864	42	6363
2026-01-04 02:13:19.28	52.00	83.88	-32.8	-33.4	29.7	0.00e+00	0	37	0	2300575744	42	6410
2026-01-04 02:13:20.29	47.38	83.74	-32.5	-33.1	29.6	0.00e+00	0	37	0	2306867200	42	6195
2026-01-04 02:13:21.30	42.99	83.56	-32.5	-33.0	29.7	0.00e+00	0	37	0	2312110080	42	6138
2026-01-04 02:13:22.31	38.87	83.35	-32.3	-32.9	29.7	0.00e+00	0	37	0	2317352960	42	6069
2026-01-04 02:13:23.32	35.02	83.10	-32.7	-33.3	29.6	0.00e+00	0	37	0	2323644416	42	6343
2026-01-04 02:13:24.33	31.45	82.82	-32.5	-33.1	29.5	0.00e+00	0	37	0	2328887296	42	6218
2026-01-04 02:13:25.34	28.16	82.52	-32.8	-33.3	29.6	0.00e+00	0	37	0	2335178752	42	6366
2026-01-04 02:13:26.35	25.14	82.20	-32.1	-32.7	29.5	0.00e+00	0	37	0	2340421632	42	5910
2026-01-04 02:13:27.36	22.36	81.86	-32.4	-33.0	29.2	0.00e+00	0	37	0	2345664512	42	6155
2026-01-04 02:13:28.38	19.80	81.50	-32.0	-32.7	29.6	0.00e+00	0	37	0	2351955968	42	5901
2026-01-04 02:13:29.39	17.47	81.13	-31.8	-32.4	29.9	0.00e+00	0	37	0	2357198848	42	5734
2026-01-04 02:13:30.40	15.33	80.74	-32.0	-32.6	30.1	0.00e+00	0	37	0	2363490304	42	5895
2026-01-04 02:13:31.41	13.37	80.35	-32.0	-32.6	30.1	0.00e+00	0	37	0	2368733184	42	5829
2026-01-04 02:13:32.42	11.57	79.94	-32.1	-32.7	29.9	0.00e+00	0	37	0	2373976064	42	5944
2026-01-04 02:13:33.43	9.92	79.53	-31.9	-32.5	29.8	0.00e+00	0	37	0	2380267520	42	5796
2026-01-04 02:13:34.44	8.39	79.10	-31.9	-32.4	29.8	0.00e+00	0	37	0	2385510400	42	5717
2026-01-04 02:13:35.45	6.98	78.68	-32.0	-32.6	29.9	0.00e+00	0	37	0	2391801856	42	5870
2026-01-04 02:13:36.46	5.67	78.25	-31.7	-32.3	30.0	0.00e+00	0	37	0	2397044736	42	5634
2026-01-04 02:13:37.48	4.45	77.80	-31.9	-32.4	29.9	0.00e+00	0	37	0	2403336192	42	5735
2026-01-04 02:13:38.49	3.33	77.36	-31.7	-32.3	30.0	0.00e+00	0	37	0	2408579072	42	5657
2026-01-04 02:13:39.50	2.29	76.92	-31.9	-32.5	29.9	0.00e+00	0	37	0	2414870528	42	5805
2026-01-04 02:13:40.51	1.31	76.47	-31.6	-32.2	30.0	0.00e+00	0	37	0	2420113408	42	5593
2026-01-04 02:13:41.52	0.41	76.03	-32.1	-32.6	29.9	0.00e+00	0	37	0	2425356288	42	5885
2026-01-04 02:13:42.53	359.56	75.58	-32.3	-32.9	29.8	0.00e+00	0	37	0	2431647744	42	6079
2026-01-04 02:13:43.54	358.76	75.13	-32.2	-32.8	29.7	0.00e+00	0	37	0	2436890624	42	5979
2026-01-04 02:13:44.55	358.01	74.67	-32.3	-32.9	29.6	0.00e+00	0	37	0	2443182080	42	6052
2026-01-04 02:13:45.56	357.31	74.22	-32.6	-33.2	29.6	0.00e+00	0	37	0	2448424960	42	6305
2026-01-04 02:13:46.57	356.65	73.77	-32.4	-33.0	29.6	0.00e+00	0	37	0	2453667840	42	6134
2026-01-04 02:13:47.58	356.02	73.31	-32.9	-33.5	29.4	0.00e+00	0	37	0	2459959296	44	5765
2026-01-04 02:13:48.60	355.43	72.85	-32.9	-33.6	29.3	0.00e+00	0	37	0	2465202176	44	5845
2026-01-04 02:13:49.61	354.87	72.40	-32.8	-33.4	29.3	0.00e+00	0	37	0	2471493632	44	5751
2026-01-04 02:13:50.62	354.35	71.95	-32.6	-33.1	29.3	0.00e+00	0	37	0	2476736512	44	5516
2026-01-04 02:13:51.63	353.85	71.49	-32.6	-33.2	29.2	0.00e+00	0	37	0	2481979392	44	5594
2026-01-04 02:13:52.64	353.37	71.04	-33.4	-33.9	29.1	0.00e+00	0	37	0	2488270848	44	6092
2026-01-04 02:13:53.65	352.92	70.59	-33.5	-34.1	28.9	0.00e+00	0	37	0	2493513728	44	6196
2026-01-04 02:13:54.66	352.49	70.14	-33.4	-34.1	28.9	0.00e+00	0	37	0	2499805184	44	6209
2026-01-04 02:13:55.67	352.09	69.69	-33.0	-33.5	29.0	0.00e+00	0	37	0	2505048064	44	5823
2026-01-04 02:13:56.69	351.69	69.24	-33.6	-34.3	28.7	0.00e+00	0	37	0	2511339520	44	6377
2026-01-04 02:13:57.70	351.32	68.79	-34.1	-34.8	28.7	0.00e+00	0	37	0	2516582400	46	5996
2026-01-04 02:13:58.71	350.97	68.34	-33.8	-34.5	28.7	0.00e+00	0	37	0	2522873856	46	5767
2026-01-04 02:13:59.72	350.63	67.90	-33.4	-33.9	28.7	0.00e+00	0	37	0	2528116736	46	5413
2026-01-04 02:14:00.71	350.31	67.47	-35.0	-35.7	28.0	0.00e+00	0	37	0	2533359616	46	6635
2026-01-04 02:14:01.73	350.00	67.02	-35.0	-35.5	28.2	0.00e+00	0	37	0	2539651072	48	5819
2026-01-04 02:14:02.74	349.70	66.58	-34.4	-35.0	28.6	0.00e+00	0	37	0	2544893952	46	6133
2026-01-04 02:14:03.75	349.42	66.15	-34.7	-35.3	28.7	0.00e+00	0	37	0	2551185408	46	6338
2026-01-04 02:14:04.76	349.14	65.71	-34.4	-35.0	28.4	0.00e+00	0	37	0	2556428288	46	6173
2026-01-04 02:14:05.77	348.88	65.28	-34.0	-34.6	28.4	0.00e+00	0	37	0	2561671168	46	5834
2026-01-04 02:14:06.78	348.62	64.85	-33.7	-34.3	28.7	0.00e+00	0	37	0	2567962624	46	5640
2026-01-04 02:14:07.79	348.38	64.42	-33.4	-34.0	28.8	0.00e+00	0	37	0	2573205504	46	5485
2026-01-04 02:14:08.80	348.15	63.99	-33.4	-34.1	28.6	0.00e+00	0	37	0	2579496960	46	5550
2026-01-04 02:14:09.82	347.92	63.56	-33.3	-33.8	28.8	0.00e+00	0	37	0	2584739840	46	5368
2026-01-04 02:14:10.83	347.70	63.14	-32.9	-33.4	29.1	0.00e+00	0	37	0	2589982720	44	5704
2026-01-04 02:14:11.84	347.49	62.72	-33.1	-33.6	28.8	0.00e+00	0	37	0	2596274176	44	5836
2026-01-04 02:14:12.85	347.29	62.30	-33.3	-33.9	28.8	0.00e+00	0	37	0	2601517056	44	6034
2026-01-04 02:14:13.86	347.09	61.88	-33.5	-34.2	28.7	0.00e+00	0	37	0	2607808512	44	6296
2026-01-04 02:14:14.87	346.90	61.47	-33.8	-34.3	28.6	0.00e+00	0	37	0	2613051392	44	6375
2026-01-04 02:14:15.88	346.72	61.05	-34.5	-35.2	28.6	0.00e+00	0	37	0	2619342848	46	6247
2026-01-04 02:14:16.89	346.55	60.64	-33.9	-34.4	28.8	0.00e+00	0	37	0	2624585728	46	5745
2026-01-04 02:14:17.90	346.37	60.24	-34.3	-34.9	28.3	0.00e+00	0	37	0	2630877184	46	6038
2026-01-04 02:14:18.91	346.21	59.83	-35.4	-36.1	28.2	0.00e+00	0	37	0	2636120064	46	6966
2026-01-04 02:14:19.92	346.05	59.43	-34.6	-35.3	28.1	0.00e+00	0	37	0	2641362944	48	5691
2026-01-04 02:14:20.94	345.89	59.03	-34.5	-35.2	27.9	0.00e+00	0	37	0	2647654400	48	5590
2026-01-04 02:14:21.95	345.74	58.63	-34.1	-34.7	28.3	0.00e+00	0	37	0	2652897280	46	5899
2026-01-04 02:14:22.96	345.60	58.23	-34.1	-34.6	28.2	0.00e+00	0	37	0	2659188736	46	5872
2026-01-04 02:14:23.97	345.45	57.84	-33.9	-34.5	28.2	0.00e+00	0	37	0	2664431616	46	5812
2026-01-04 02:14:24.98	345.32	57.45	-34.0	-34.5	28.3	0.00e+00	0	37	0	2669674496	46	5792
2026-01-04 02:14:25.99	345.18	57.06	-34.2	-34.9	28.1	0.00e+00	0	37	0	2675965952	46	6084
2026-01-04 02:14:27.00	345.05	56.68	-34.4	-35.0	28.0	0.00e+00	0	37	0	2681208832	46	6104
2026-01-04 02:14:28.01	344.93	56.30	-34.1	-34.7	28.3	0.00e+00	0	37	0	2687500288	46	5901
2026-01-04 02:14:29.03	344.80	55.91	-34.3	-34.8	28.0	0.00e+00	0	37	0	2692743168	46	6030
2026-01-04 02:14:30.04	344.69	55.53	-35.1	-35.8	27.6	0.00e+00	0	37	0	2699034624	46	6722
2026-01-04 02:14:31.05	344.57	55.16	-35.4	-36.1	27.3	0.00e+00	0	37	0	2704277504	48	6188
2026-01-04 02:14:32.06	344.46	54.79	-35.7	-36.2	27.0	0.00e+00	0	37	0	2709520384	48	6310
2026-01-04 02:14:33.07	344.35	54.42	-35.4	-36.0	27.5	0.00e+00	0	37	0	2715811840	48	6167
2026-01-04 02:14:34.08	344.24	54.05	-35.2	-35.8	27.3	0.00e+00	0	37	0	2721054720	48	5979
2026-01-04 02:14:35.09	344.14	53.68	-35.8	-36.4	26.7	0.00e+00	0	37	0	2727346176	48	6407
2026-01-04 02:14:36.10	344.04	53.32	-36.2	-36.8	26.7	0.00e+00	0	37	0	2732589056	50	6031
2026-01-04 02:14:37.11	343.94	52.96	-36.1	-36.8	26.6	0.00e+00	0	37	0	2738880512	50	6027
2026-01-04 02:14:38.13	343.84	52.60	-35.5	-36.1	27.3	0.00e+00	0	37	0	2744123392	50	5504
2026-01-04 02:14:39.14	343.75	52.25	-35.4	-36.0	27.6	0.00e+00	0	37	0	2749366272	50	5502
2026-01-04 02:14:40.15	343.65	51.89	-35.3	-35.8	27.6	0.00e+00	0	37	0	2755657728	50	5342
2026-01-04 02:14:41.16	343.57	51.54	-35.3	-36.0	27.7	0.00e+00	0	37	0	2760900608	50	5462
2026-01-04 02:14:42.17	343.48	51.20	-35.5	-36.0	27.5	0.00e+00	0	37	0	2767192064	50	5492
2026-01-04 02:14:43.18	343.39	50.85	-36.0	-36.7	27.6	0.00e+00	0	37	0	2772434944	50	5953
2026-01-04 02:14:44.19	343.31	50.51	-35.0	-35.7	27.8	0.00e+00	0	37	0	2778726400	48	5904
2026-01-04 02:14:45.20	343.23	50.17	-34.8	-35.3	28.1	0.00e+00	0	37	0	2783969280	48	5686
2026-01-04 02:14:46.21	343.15	49.83	-34.3	-34.9	28.4	0.00e+00	0	37	0	2789212160	48	5429
2026-01-04 02:14:47.23	343.07	49.49	-34.3	-35.0	28.4	0.00e+00	0	37	0	2795503616	46	6130
2026-01-04 02:14:48.24	343.00	49.16	-34.4	-34.9	28.3	0.00e+00	0	37	0	2800746496	46	6097
2026-01-04 02:14:49.25	342.92	48.83	-34.5	-35.1	28.2	0.00e+00	0	37	0	2807037952	46	6179
2026-01-04 02:14:50.26	342.85	48.50	-34.9	-35.5	27.9	0.00e+00	0	37	0	2812280832	48	5783
2026-01-04 02:14:51.27	342.78	48.18	-34.6	-35.3	28.1	0.00e+00	0	37	0	2817523712	48	5638
2026-01-04 02:14:52.28	342.71	47.85	-34.5	-35.2	28.3	0.00e+00	0	37	0	2823815168	48	5599
2026-01-04 02:14:53.29	342.64	47.53	-34.5	-35.0	28.4	0.00e+00	0	37	0	2829058048	48	5468
2026-01-04 02:14:54.30	342.58	47.21	-34.2	-34.9	28.2	0.00e+00	0	37	0	2835349504	48	5416
2026-01-04 02:14:55.31	342.51	46.90	-34.5	-35.0	28.2	0.00e+00	0	37	0	2840592384	48	5477
2026-01-04 02:14:56.33	342.45	46.58	-34.3	-34.8	28.3	0.00e+00	0	37	0	2846883840	48	5350
2026-01-04 02:14:57.34	342.39	46.27	-34.6	-35.2	28.3	0.00e+00	0	37	0	2852126720	48	5624
2026-01-04 02:14:58.35	342.33	45.96	-34.8	-35.5	28.2	0.00e+00	0	37	0	2857369600	48	5807
2026-01-04 02:14:59.36	342.27	45.65	-34.8	-35.5	28.1	0.00e+00	0	37	0	2863661056	48	5771
2026-01-04 02:15:00.37	342.21	45.35	-34.8	-35.3	28.2	0.00e+00	0	37	0	2868903936	48	5676
2026-01-04 02:15:01.38	342.15	45.05	-34.7	-35.3	28.3	0.00e+00	0	37	0	2875195392	48	5658
2026-01-04 02:15:02.39	342.09	44.75	-34.7	-35.3	28.2	0.00e+00	0	37	0	2880438272	48	5690
2026-01-04 02:15:03.40	342.04	44.45	-34.9	-35.5	28.2	0.00e+00	0	37	0	2886729728	48	5795
2026-01-04 02:15:04.41	341.99	44.15	-34.9	-35.5	28.0	0.00e+00	0	37	0	2891972608	48	5824
2026-01-04 02:15:05.43	341.93	43.86	-35.1	-35.8	27.9	0.00e+00	0	37	0	2897215488	48	5975
2026-01-04 02:15:06.44	341.88	43.57	-35.0	-35.7	28.0	0.00e+00	0	37	0	2903506944	48	5905
2026-01-04 02:15:07.45	341.83	43.28	-35.1	-35.8	28.1	0.00e+00	0	37	0	2908749824	48	5966
2026-01-04 02:15:08.46	341.78	42.99	-34.9	-35.4	28.2	0.00e+00	0	37	0	2915041280	48	5740
2026-01-04 02:15:09.47	341.73	42.71	-34.7	-35.2	27.9	0.00e+00	0	37	0	2920284160	48	5613
2026-01-04 02:15:10.48	341.68	42.42	-35.0	-35.5	28.0	0.00e+00	0	37	0	2925527040	48	5773
2026-01-04 02:15:11.49	341.64	42.14	-34.8	-35.3	28.0	0.00e+00	0	37	0	2931818496	48	5663
2026-01-04 02:15:12.50	341.59	41.86	-34.7	-35.4	28.1	0.00e+00	0	37	0	2937061376	48	5719
2026-01-04 02:15:13.51	341.55	41.59	-34.6	-35.3	28.1	0.00e+00	0	37	0	2943352832	48	5688
2026-01-04 02:15:14.52	341.50	41.31	-35.1	-35.8	27.9	0.00e+00	0	37	0	2948595712	48	6002
2026-01-04 02:15:15.54	341.46	41.04	-34.6	-35.3	28.2	0.00e+00	0	37	0	2954887168	48	5635
2026-01-04 02:15:16.55	341.41	40.77	-34.3	-34.8	28.3	0.00e+00	0	37	0	2960130048	48	5354
2026-01-04 02:15:17.56	341.37	40.50	-34.5	-35.0	28.5	0.00e+00	0	37	0	2965372928	48	5460
2026-01-04 02:15:18.57	341.33	40.23	-34.3	-34.8	28.5	0.00e+00	0	37	0	2971664384	48	5339
2026-01-04 02:15:19.58	341.29	39.97	-34.1	-34.6	28.5	0.00e+00	0	37	0	2976907264	46	5864
2026-01-04 02:15:20.59	341.25	39.71	-34.0	-34.5	28.5	0.00e+00	0	37	0	2983198720	46	5815
2026-01-04 02:15:21.60	341.21	39.45	-34.2	-34.7	28.6	0.00e+00	0	37	0	2988441600	46	5928
2026-01-04 02:15:22.61	341.17	39.19	-34.0	-34.6	28.5	0.00e+00	0	37	0	2994733056	46	5894
2026-01-04 02:15:23.62	341.14	38.93	-33.9	-34.4	28.5	0.00e+00	0	37	0	2999975936	46	5747
2026-01-04 02:15:24.64	341.10	38.68	-33.7	-34.2	28.6	0.00e+00	0	37	0	3006267392	46	5602
2026-01-04 02:15:25.65	341.06	38.42	-33.6	-34.1	28.6	0.00e+00	0	37	0	3011510272	46	5552
2026-01-04 02:15:26.66	341.03	38.17	-33.7	-34.4	28.4	0.00e+00	0	37	0	3016753152	46	5733
2026-01-04 02:15:27.67	340.99	37.92	-33.6	-34.3	28.6	0.00e+00	0	37	0	3023044608	46	5674
2026-01-04 02:15:28.68	340.96	37.68	-33.4	-34.1	28.6	0.00e+00	0	37	0	3028287488	46	5559
2026-01-04 02:15:29.69	340.92	37.43	-33.4	-33.9	28.7	0.00e+00	0	37	0	3034578944	46	5419
2026-01-04 02:15:30.70	340.89	37.19	-33.5	-34.2	28.7	0.00e+00	0	37	0	3039821824	46	5567
2026-01-04 02:15:31.71	340.86	36.95	-33.5	-34.1	28.7	0.00e+00	0	37	0	3045064704	46	5503
2026-01-04 02:15:32.72	340.82	36.71	-33.2	-33.7	28.9	0.00e+00	0	37	0	3051356160	46	5273
2026-01-04 02:15:33.74	340.79	36.47	-33.3	-33.8	28.8	0.00e+00	0	37	0	3056599040	46	5320
2026-01-04 02:15:34.75	340.76	36.23	-33.7	-34.2	28.6	0.00e+00	0	37	0	3062890496	46	5607
2026-01-04 02:15:35.76	340.73	35.99	-33.8	-34.3	28.7	0.00e+00	0	37	0	3068133376	46	5668
2026-01-04 02:15:36.77	340.70	35.76	-33.7	-34.2	28.5	0.00e+00	0	37	0	3073376256	46	5620
2026-01-04 02:15:37.78	340.67	35.53	-34.1	-34.6	28.4	0.00e+00	0	37	0	3079667712	46	5871
2026-01-04 02:15:38.79	340.64	35.30	-33.9	-34.4	28.4	0.00e+00	0	37	0	3084910592	46	5723
2026-01-04 02:15:39.80	340.61	35.07	-34.0	-34.5	28.5	0.00e+00	0	37	0	3091202048	46	5809
2026-01-04 02:15:40.81	340.58	34.85	-34.0	-34.5	28.5	0.00e+00	0	37	0	3096444928	46	5795
2026-01-04 02:15:41.82	340.55	34.62	-34.1	-34.6	28.5	0.00e+00	0	37	0	3102736384	46	5865
2026-01-04 02:15:42.84	340.53	34.40	-33.9	-34.5	28.6	0.00e+00	0	37	0	3107979264	46	5781
2026-01-04 02:15:43.85	340.50	34.17	-33.9	-34.4	28.6	0.00e+00	0	37	0	3114270720	46	5713
2026-01-04 02:15:44.86	340.47	33.95	-33.7	-34.2	28.6	0.00e+00	0	37	0	3119513600	46	5600
2026-01-04 02:15:45.87	340.45	33.74	-33.6	-34.1	28.7	0.00e+00	0	37	0	3124756480	46	5563
2026-01-04 02:15:46.88	340.42	33.52	-33.5	-34.1	28.8	0.00e+00	0	37	0	3131047936	46	5504
2026-01-04 02:15:47.89	340.39	33.30	-34.3	-34.8	28.5	0.00e+00	0	37	0	3136290816	46	5981
2026-01-04 02:15:48.90	340.37	33.09	-33.8	-34.3	28.6	0.00e+00	0	37	0	3142582272	46	5680
2026-01-04 02:15:49.91	340.34	32.88	-34.0	-34.5	28.5	0.00e+00	0	37	0	3147825152	46	5790
2026-01-04 02:15:50.92	340.32	32.67	-34.0	-34.5	28.5	0.00e+00	0	37	0	3153068032	46	5797
2026-01-04 02:15:51.93	340.30	32.46	-33.8	-34.3	28.5	0.00e+00	0	37	0	3159359488	46	5695
2026-01-04 02:15:52.95	340.27	32.25	-33.9	-34.4	28.4	0.00e+00	0	37	0	3164602368	46	5754
2026-01-04 02:15:53.96	340.25	32.04	-34.0	-34.5	28.3	0.00e+00	0	37	0	3170893824	46	5803
2026-01-04 02:15:54.97	340.23	31.83	-34.1	-34.6	28.1	0.00e+00	0	37	0	3176136704	46	5890
2026-01-04 02:15:55.98	340.20	31.63	-34.2	-34.8	28.0	0.00e+00	0	37	0	3181379584	46	5973
2026-01-04 02:15:56.99	340.18	31.43	-34.2	-34.7	28.1	0.00e+00	0	37	0	3187671040	46	5957
2026-01-04 02:15:58.00	340.16	31.23	-34.4	-34.9	27.9	0.00e+00	0	37	0	3192913920	46	6095
2026-01-04 02:15:59.01	340.14	31.03	-35.5	-36.0	27.6	0.00e+00	0	37	0	3199205376	48	6161
2026-01-04 02:16:00.02	340.12	30.83	-35.9	-36.5	27.2	0.00e+00	0	37	0	3204448256	50	5808
2026-01-04 02:16:01.03	340.09	30.63	-36.0	-36.5	27.4	0.00e+00	0	37	0	3210739712	50	5825
2026-01-04 02:16:02.04	340.07	30.44	-35.2	-35.8	27.7	0.00e+00	0	37	0	3215982592	48	5970
2026-01-04 02:16:03.05	340.05	30.24	-35.5	-36.0	27.5	0.00e+00	0	37	0	3222274048	48	6167
2026-01-04 02:16:04.06	340.03	30.05	-35.5	-36.1	27.4	0.00e+00	0	37	0	3227516928	48	6187
2026-01-04 02:16:05.07	340.01	29.86	-35.2	-35.8	27.7	0.00e+00	0	37	0	3232759808	48	6005
2026-01-04 02:16:06.08	339.99	29.67	-35.4	-36.0	27.7	0.00e+00	0	37	0	3239051264	48	6118
2026-01-04 02:16:07.09	339.97	29.48	-35.2	-35.7	27.7	0.00e+00	0	37	0	3244294144	48	5944
2026-01-04 02:16:08.10	339.96	29.29	-35.0	-35.5	27.8	0.00e+00	0	37	0	3250585600	48	5821
2026-01-04 02:16:09.12	339.94	29.10	-35.4	-36.0	27.8	0.00e+00	0	37	0	3255828480	48	6139
2026-01-04 02:16:10.13	339.92	28.92	-35.3	-35.8	27.8	0.00e+00	0	37	0	3261071360	48	6033
2026-01-04 02:16:11.14	339.90	28.73	-35.0	-35.5	27.9	0.00e+00	0	37	0	3267362816	48	5799
2026-01-04 02:16:12.15	339.88	28.55	-35.3	-35.8	28.0	0.00e+00	0	37	0	3272605696	48	6007
2026-01-04 02:16:13.16	339.86	28.37	-34.8	-35.4	28.1	0.00e+00	0	37	0	3278897152	48	5701
2026-01-04 02:16:14.17	339.85	28.19	-35.2	-35.7	28.2	0.00e+00	0	37	0	3284140032	48	5929
2026-01-04 02:16:15.18	339.83	28.01	-35.2	-35.7	28.2	0.00e+00	0	37	0	3289382912	48	5959
2026-01-04 02:16:16.19	339.81	27.83	-35.6	-36.1	28.0	0.00e+00	0	37	0	3295674368	48	6233
2026-01-04 02:16:17.20	339.80	27.65	-35.2	-35.7	27.9	0.00e+00	0	37	0	3300917248	48	5917
2026-01-04 02:16:18.21	339.78	27.48	-35.0	-35.6	28.3	0.00e+00	0	37	0	3307208704	48	5837
2026-01-04 02:16:19.23	339.76	27.30	-35.2	-35.7	28.3	0.00e+00	0	37	0	3312451584	48	5931
2026-01-04 02:16:20.24	339.75	27.13	-34.6	-35.2	28.4	0.00e+00	0	37	0	3318743040	48	5575
2026-01-04 02:16:21.25	339.73	26.95	-35.1	-35.6	28.3	0.00e+00	0	37	0	3323985920	48	5883
2026-01-04 02:16:22.26	339.72	26.78	-35.0	-35.5	28.3	0.00e+00	0	37	0	3330277376	48	5803
2026-01-04 02:16:23.27	339.70	26.61	-34.9	-35.4	28.5	0.00e+00	0	37	0	3335520256	48	5723
2026-01-04 02:16:24.28	339.68	26.44	-35.1	-35.6	28.4	0.00e+00	0	37	0	3340763136	48	5875
2026-01-04 02:16:25.29	339.67	26.27	-34.8	-35.4	28.2	0.00e+00	0	37	0	3347054592	48	5714
2026-01-04 02:16:26.30	339.65	26.11	-34.6	-35.1	28.3	0.00e+00	0	37	0	3352297472	48	5557
2026-01-04 02:16:27.31	339.64	25.94	-35.6	-36.1	28.1	0.00e+00	0	37	0	3358588928	48	6232
2026-01-04 02:16:28.32	339.63	25.78	-35.4	-36.0	28.2	0.00e+00	0	37	0	3363831808	48	6115
2026-01-04 02:16:29.34	339.61	25.61	-35.2	-35.7	28.2	0.00e+00	0	37	0	3370123264	48	5944
2026-01-04 02:16:30.35	339.60	25.45	-35.8	-36.3	28.0	0.00e+00	0	37	0	3375366144	48	6367
2026-01-04 02:16:31.36	339.58	25.28	-35.2	-35.7	27.9	0.00e+00	0	37	0	3380609024	48	5929
2026-01-04 02:16:32.37	339.57	25.12	-35.5	-36.0	28.1	0.00e+00	0	37	0	3386900480	48	6144
2026-01-04 02:16:33.38	339.56	24.96	-35.2	-35.8	28.1	0.00e+00	0	37	0	3392143360	48	5977
2026-01-04 02:16:34.39	339.54	24.80	-35.1	-35.7	28.0	0.00e+00	0	37	0	3398434816	48	5921
2026-01-04 02:16:35.40	339.53	24.65	-35.3	-35.8	27.8	0.00e+00	0	37	0	3403677696	48	6015
2026-01-04 02:16:36.41	339.52	24.49	-35.5	-36.1	27.7	0.00e+00	0	37	0	3408920576	48	6182
2026-01-04 02:16:37.42	339.50	24.33	-36.3	-36.9	27.6	0.00e+00	0	37	0	3415212032	48	6796
2026-01-04 02:16:38.43	339.49	24.18	-36.3	-36.8	27.9	0.00e+00	0	37	0	3420454912	50	6032
2026-01-04 02:16:39.45	339.48	24.02	-35.9	-36.6	27.9	0.00e+00	0	37	0	3426746368	50	5867
2026-01-04 02:16:40.46	339.47	23.87	-35.5	-36.2	27.7	0.00e+00	0	37	0	3431989248	50	5579
2026-01-04 02:16:41.47	339.45	23.71	-36.1	-36.7	27.3	0.00e+00	0	37	0	3438280704	50	5963
2026-01-04 02:16:42.48	339.44	23.56	-35.4	-36.1	27.6	0.00e+00	0	37	0	3443523584	50	5562
2026-01-04 02:16:43.49	339.43	23.41	-34.9	-35.6	27.8	0.00e+00	0	37	0	3449815040	48	5830
2026-01-04 02:16:44.50	339.42	23.26	-35.5	-36.2	27.8	0.00e+00	0	37	0	3455057920	48	6276
2026-01-04 02:16:45.51	339.41	23.11	-35.8	-36.5	27.4	0.00e+00	0	37	0	3460300800	50	5792
2026-01-04 02:16:46.52	339.39	22.96	-35.6	-36.2	27.7	0.00e+00	0	37	0	3466592256	50	5625
2026-01-04 02:16:47.53	339.38	22.82	-36.2	-36.9	27.6	0.00e+00	0	37	0	3471835136	50	6091
2026-01-04 02:16:48.55	339.37	22.67	-35.5	-36.1	27.7	0.00e+00	0	37	0	3478126592	50	5559
2026-01-04 02:16:49.56	339.36	22.52	-35.6	-36.3	27.4	0.00e+00	0	37	0	3483369472	50	5647
2026-01-04 02:16:50.57	339.35	22.38	-35.2	-35.8	27.6	0.00e+00	0	37	0	3488612352	50	5375
2026-01-04 02:16:51.58	339.34	22.23	-35.1	-35.6	27.6	0.00e+00	0	37	0	3494903808	48	5859
2026-01-04 02:16:52.59	339.33	22.09	-36.0	-36.6	27.4	0.00e+00	0	37	0	3500146688	48	6547
2026-01-04 02:16:53.60	339.32	21.95	-35.9	-36.4	27.3	0.00e+00	0	37	0	3506438144	50	5744
2026-01-04 02:16:54.61	339.31	21.81	-35.9	-36.5	27.1	0.00e+00	0	37	0	3511681024	50	5770
2026-01-04 02:16:55.62	339.30	21.66	-35.7	-36.3	27.3	0.00e+00	0	37	0	3516923904	50	5631
2026-01-04 02:16:56.64	339.29	21.52	-35.7	-36.2	27.2	0.00e+00	0	37	0	3523215360	50	5618
2026-01-04 02:16:57.65	339.28	21.38	-35.9	-36.4	27.2	0.00e+00	0	37	0	3528458240	50	5742
2026-01-04 02:16:58.66	339.27	21.24	-36.2	-36.7	27.4	0.00e+00	0	37	0	3534749696	50	5960
2026-01-04 02:16:59.67	339.26	21.11	-36.1	-36.7	27.2	0.00e+00	0	37	0	3539992576	50	5923
2026-01-04 02:17:00.68	339.25	20.97	-35.6	-36.2	27.3	0.00e+00	0	37	0	3546284032	50	5573
2026-01-04 02:17:01.69	339.24	20.83	-35.6	-36.2	27.3	0.00e+00	0	37	0	3551526912	50	5576
2026-01-04 02:17:02.70	339.23	20.70	-36.3	-36.8	27.3	0.00e+00	0	37	0	3557818368	50	5986
2026-01-04 02:17:03.71	339.22	20.56	-36.3	-36.9	27.3	0.00e+00	0	37	0	3563061248	50	6037
2026-01-04 02:17:04.72	339.21	20.43	-36.1	-36.7	27.2	0.00e+00	0	37	0	3568304128	50	5919
