passes_logs/2026/01/04/R4.6S_Anadyr_2ch/R4.6S_Anadyr_2ch__20260104_131007_SUOMI_NPP_rec.log

#Pass ID: 20260104_131007_SUOMI NPP
#Satellite: SUOMI NPP
#Configuration: NPP
#almurnet v.1.7.20251203
#Start time: 2026-01-04 13:10:09

#Version: 2.2.20231116
#Station: R4.6S_Anadyr_2ch
#Location: 177.4865 lon 64.73178 lat
#TLE: 1 37849U 11061A   25350.92281687  .00000071  00000+0  54882-4 0  9996
#TLE: 2 37849  98.7777 288.2268 0002366 112.8570 247.2856 14.19515404732588

#Time	Az	El	Level	Level2	SNR	BER	BlckErr	Temp	State	Recorded	gain1	gain2
2026-01-04 13:10:09.75	18.85	0.11	-52.7	-65.6	3.4	1.51e+00	0	34	0	0	60	90145
2026-01-04 13:10:10.76	18.90	0.17	-53.6	-69.2	3.6	1.51e+00	0	35	104	0	60	139985
2026-01-04 13:10:11.77	18.96	0.22	-53.1	-68.7	3.6	1.51e+00	0	36	104	0	60	132875
2026-01-04 13:10:12.78	19.01	0.28	-52.6	-68.2	3.6	1.51e+00	0	36	104	0	60	125255
2026-01-04 13:10:13.79	19.07	0.33	-52.6	-68.1	3.6	1.51e+00	0	36	104	0	60	123937
2026-01-04 13:10:14.80	19.12	0.39	-52.5	-68.1	3.6	1.51e+00	0	36	104	0	60	123479
2026-01-04 13:10:15.81	19.17	0.44	-52.4	-68.0	3.6	1.51e+00	0	36	104	0	60	121983
2026-01-04 13:10:16.82	19.23	0.50	-52.3	-67.9	3.6	1.51e+00	0	36	104	0	60	120519
2026-01-04 13:10:17.83	19.28	0.55	-52.2	-67.8	3.6	1.51e+00	0	36	104	0	60	119526
2026-01-04 13:10:18.84	19.34	0.61	-52.1	-67.7	3.6	1.51e+00	0	36	104	0	60	118016
2026-01-04 13:10:19.86	19.39	0.66	-52.0	-67.6	3.6	1.51e+00	0	36	104	0	60	116933
2026-01-04 13:10:20.86	19.45	0.72	-51.8	-67.4	3.6	1.51e+00	0	36	104	0	60	114468
2026-01-04 13:10:21.87	19.50	0.78	-51.7	-67.3	3.6	1.51e+00	0	36	104	0	60	112434
2026-01-04 13:10:22.88	19.56	0.83	-51.5	-67.0	3.6	1.51e+00	0	36	104	0	60	109507
2026-01-04 13:10:23.89	19.62	0.89	-51.0	-66.5	3.6	1.51e+00	0	36	104	0	60	103075
2026-01-04 13:10:24.90	19.67	0.94	-50.7	-66.2	3.6	1.51e+00	0	36	104	0	60	99173
2026-01-04 13:10:25.91	19.73	1.00	-50.7	-66.2	3.6	1.51e+00	0	36	104	0	60	99296
2026-01-04 13:10:26.92	19.78	1.06	-50.7	-66.2	3.6	1.51e+00	0	36	104	0	60	99957
2026-01-04 13:10:27.93	19.84	1.11	-50.7	-66.2	3.6	1.51e+00	0	36	104	0	60	99942
2026-01-04 13:10:28.94	19.90	1.17	-50.7	-66.2	3.6	1.51e+00	0	36	104	0	60	99932
2026-01-04 13:10:29.95	19.95	1.23	-50.7	-66.2	3.6	1.51e+00	0	36	104	0	60	99983
2026-01-04 13:10:30.97	20.01	1.28	-50.7	-66.3	3.6	1.51e+00	0	36	104	0	60	100141
2026-01-04 13:10:31.98	20.07	1.34	-50.7	-66.3	3.6	1.51e+00	0	36	104	0	60	100365
2026-01-04 13:10:32.99	20.13	1.40	-50.7	-66.3	3.6	1.51e+00	0	36	104	0	60	100219
2026-01-04 13:10:34.00	20.19	1.46	-50.7	-66.2	3.6	1.51e+00	0	36	104	0	60	99939
2026-01-04 13:10:35.01	20.24	1.51	-50.7	-66.2	3.6	1.51e+00	0	36	104	0	60	99178
2026-01-04 13:10:36.02	20.30	1.57	-50.7	-66.2	3.6	1.51e+00	0	36	104	0	60	99085
2026-01-04 13:10:37.03	20.36	1.63	-50.7	-66.0	3.6	1.51e+00	0	36	104	0	60	97488
2026-01-04 13:10:38.04	20.42	1.68	-50.7	-66.1	3.6	1.51e+00	0	36	104	0	60	98667
2026-01-04 13:10:39.05	20.48	1.74	-50.7	-66.0	3.6	1.51e+00	0	36	104	0	60	97766
2026-01-04 13:10:40.06	20.54	1.80	-50.7	-66.1	3.6	1.51e+00	0	36	104	0	60	98496
2026-01-04 13:10:41.08	20.60	1.86	-50.7	-66.2	3.6	1.51e+00	0	36	104	0	60	99356
2026-01-04 13:10:42.09	20.66	1.92	-50.7	-66.2	3.6	1.51e+00	0	36	104	0	60	99717
2026-01-04 13:10:43.10	20.72	1.97	-50.7	-66.2	3.6	1.51e+00	0	36	104	0	60	99397
2026-01-04 13:10:44.11	20.78	2.03	-50.7	-66.2	3.6	1.51e+00	0	36	104	0	60	99483
2026-01-04 13:10:45.12	20.84	2.09	-50.7	-66.1	3.6	1.51e+00	0	36	104	0	60	98981
2026-01-04 13:10:46.13	20.90	2.15	-50.7	-66.2	3.6	1.51e+00	0	36	104	0	60	99434
2026-01-04 13:10:47.14	20.96	2.21	-50.7	-66.0	3.6	1.51e+00	0	36	104	0	60	97334
2026-01-04 13:10:48.15	21.02	2.26	-50.7	-65.9	3.6	1.51e+00	0	36	104	0	60	95979
2026-01-04 13:10:49.16	21.08	2.32	-50.7	-65.5	3.6	1.51e+00	0	36	104	0	60	92144
2026-01-04 13:10:50.17	21.14	2.38	-50.7	-65.4	3.6	1.51e+00	0	36	104	0	60	91105
2026-01-04 13:10:51.19	21.20	2.44	-50.7	-65.9	3.6	1.51e+00	0	36	104	0	60	96570
2026-01-04 13:10:52.20	21.26	2.50	-50.7	-66.0	3.6	1.51e+00	0	36	104	0	60	97364
2026-01-04 13:10:53.21	21.33	2.56	-50.5	-63.4	3.7	1.51e+00	0	36	104	0	60	72106
2026-01-04 13:10:54.22	21.39	2.62	-50.2	-59.3	5.9	8.39e-01	0	36	104	0	60	45049
2026-01-04 13:10:55.23	21.45	2.68	-49.6	-56.0	7.9	8.23e-02	0	36	0	1048576	60	30673
2026-01-04 13:10:56.24	21.51	2.74	-48.6	-52.9	11.7	4.95e-03	0	36	0	3145728	60	21429
2026-01-04 13:10:57.25	21.58	2.79	-47.6	-50.8	14.3	1.90e-05	0	36	0	4194304	60	16870
2026-01-04 13:10:58.26	21.64	2.85	-46.5	-49.0	16.5	7.00e-07	0	36	0	6291456	60	13682
2026-01-04 13:10:59.28	21.70	2.91	-45.2	-47.1	18.0	0.00e+00	0	36	0	8388608	60	11054
2026-01-04 13:11:00.29	21.77	2.97	-46.0	-48.3	16.7	0.00e+00	0	36	0	10485760	60	12680
2026-01-04 13:11:01.30	21.83	3.03	-45.5	-47.6	17.5	0.00e+00	0	36	0	12582912	60	11700
2026-01-04 13:11:02.31	21.89	3.09	-45.9	-48.1	16.9	0.00e+00	0	36	0	13631488	60	12359
2026-01-04 13:11:03.32	21.96	3.15	-47.0	-49.9	15.0	0.00e+00	0	37	0	15728640	60	15327
2026-01-04 13:11:04.33	22.02	3.21	-47.3	-50.3	14.6	0.00e+00	0	36	0	17825792	60	15995
2026-01-04 13:11:05.34	22.09	3.27	-48.5	-52.6	12.0	1.36e-04	0	36	0	19922944	60	20856
2026-01-04 13:11:06.35	22.15	3.33	-46.0	-48.2	16.7	0.00e+00	0	36	0	22020096	60	12543
2026-01-04 13:11:07.36	22.22	3.39	-50.3	-64.7	3.6	8.45e-01	0	36	104	23068672	60	83996
2026-01-04 13:11:08.37	22.28	3.45	-50.5	-58.7	6.3	6.72e-03	0	36	0	23068672	60	41782
2026-01-04 13:11:09.38	22.35	3.51	-46.3	-48.6	17.1	9.48e-03	0	36	0	25165824	60	13189
2026-01-04 13:11:10.39	22.42	3.57	-50.8	-65.5	3.6	1.18e+00	0	36	104	26214400	60	91540
2026-01-04 13:11:11.40	22.48	3.64	-46.9	-49.6	15.4	1.41e+00	0	37	104	26214400	60	14791
2026-01-04 13:11:12.42	22.55	3.70	-46.7	-49.1	16.3	0.00e+00	0	36	0	26214400	60	13922
2026-01-04 13:11:13.43	22.62	3.76	-46.2	-48.5	16.9	0.00e+00	0	37	0	28311552	60	12925
2026-01-04 13:11:14.44	22.68	3.82	-45.5	-47.5	17.9	0.00e+00	0	36	0	30408704	60	11551
2026-01-04 13:11:15.45	22.75	3.88	-46.2	-48.5	16.9	0.00e+00	0	37	0	32505856	60	12920
2026-01-04 13:11:16.46	22.82	3.94	-46.2	-48.4	17.1	0.00e+00	0	37	0	34603008	60	12884
2026-01-04 13:11:17.47	22.88	4.00	-45.7	-47.7	17.7	0.00e+00	0	37	0	35651584	60	11816
2026-01-04 13:11:18.48	22.95	4.06	-45.9	-48.0	17.0	0.00e+00	0	36	0	37748736	60	12242
2026-01-04 13:11:19.49	23.02	4.13	-46.7	-49.1	16.7	0.00e+00	0	37	0	39845888	60	13928
2026-01-04 13:11:20.50	23.09	4.19	-45.4	-47.3	18.1	0.00e+00	0	37	0	41943040	60	11272
2026-01-04 13:11:21.51	23.16	4.25	-45.3	-47.0	18.7	0.00e+00	0	37	0	44040192	60	10956
2026-01-04 13:11:22.53	23.23	4.31	-45.4	-47.3	18.2	0.00e+00	0	36	0	46137344	60	11255
2026-01-04 13:11:23.54	23.30	4.37	-45.0	-46.7	18.8	0.00e+00	0	36	0	47185920	60	10510
2026-01-04 13:11:24.55	23.37	4.44	-44.9	-46.6	19.0	0.00e+00	0	37	0	49283072	60	10454
2026-01-04 13:11:25.56	23.44	4.50	-44.5	-46.1	19.0	0.00e+00	0	37	0	51380224	60	9864
2026-01-04 13:11:26.57	23.51	4.56	-44.8	-46.4	19.0	0.00e+00	0	37	0	53477376	60	10231
2026-01-04 13:11:27.58	23.58	4.62	-44.7	-46.3	19.3	0.00e+00	0	37	0	55574528	60	10072
2026-01-04 13:11:28.59	23.65	4.69	-44.7	-46.3	19.1	0.00e+00	0	37	0	56623104	60	10128
2026-01-04 13:11:29.60	23.72	4.75	-45.1	-46.8	18.8	0.00e+00	0	37	0	58720256	60	10624
2026-01-04 13:11:30.62	23.79	4.81	-44.0	-45.4	20.0	0.00e+00	0	37	0	60817408	60	9125
2026-01-04 13:11:31.63	23.86	4.87	-44.1	-45.6	20.0	0.00e+00	0	37	0	62914560	60	9241
2026-01-04 13:11:32.64	23.94	4.94	-44.1	-45.5	19.9	0.00e+00	0	37	0	65011712	60	9225
2026-01-04 13:11:33.65	24.01	5.00	-44.1	-45.6	20.1	0.00e+00	0	37	0	66060288	60	9258
2026-01-04 13:11:34.66	24.08	5.06	-44.2	-45.7	19.9	0.00e+00	0	37	0	68157440	60	9403
2026-01-04 13:11:35.67	24.15	5.13	-43.6	-44.9	20.5	0.00e+00	0	37	0	70254592	60	8618
2026-01-04 13:11:36.68	24.23	5.19	-43.7	-45.1	20.3	0.00e+00	0	37	0	72351744	60	8742
2026-01-04 13:11:37.69	24.30	5.25	-43.7	-45.1	20.5	0.00e+00	0	37	0	74448896	60	8759
2026-01-04 13:11:38.70	24.37	5.32	-43.5	-44.8	20.5	0.00e+00	0	37	0	75497472	60	8479
2026-01-04 13:11:39.71	24.45	5.38	-43.5	-44.8	20.7	0.00e+00	0	37	0	77594624	60	8498
2026-01-04 13:11:40.73	24.52	5.45	-43.4	-44.7	20.7	0.00e+00	0	37	0	79691776	60	8389
2026-01-04 13:11:41.74	24.60	5.51	-43.5	-44.8	20.7	0.00e+00	0	37	0	81788928	60	8439
2026-01-04 13:11:42.75	24.67	5.57	-43.2	-44.5	21.0	0.00e+00	0	37	0	83886080	60	8184
2026-01-04 13:11:43.76	24.75	5.64	-43.3	-44.6	20.9	0.00e+00	0	37	0	84934656	60	8238
2026-01-04 13:11:44.77	24.82	5.70	-43.3	-44.5	20.8	0.00e+00	0	37	0	87031808	60	8216
2026-01-04 13:11:45.78	24.90	5.77	-43.3	-44.5	20.9	0.00e+00	0	37	0	89128960	60	8220
2026-01-04 13:11:46.79	24.97	5.83	-43.4	-44.7	20.8	0.00e+00	0	37	0	91226112	60	8391
2026-01-04 13:11:47.80	25.05	5.90	-43.5	-44.8	20.6	0.00e+00	0	37	0	93323264	60	8504
2026-01-04 13:11:48.82	25.13	5.96	-43.5	-44.8	20.7	0.00e+00	0	37	0	95420416	60	8442
2026-01-04 13:11:49.83	25.21	6.03	-43.2	-44.4	21.0	0.00e+00	0	37	0	96468992	60	8138
2026-01-04 13:11:50.84	25.28	6.09	-43.4	-44.7	20.9	0.00e+00	0	37	0	98566144	60	8358
2026-01-04 13:11:51.85	25.36	6.16	-43.4	-44.7	20.8	0.00e+00	0	37	0	100663296	60	8381
2026-01-04 13:11:52.86	25.44	6.22	-43.3	-44.5	21.0	0.00e+00	0	37	0	102760448	60	8192
2026-01-04 13:11:53.87	25.52	6.29	-43.1	-44.4	21.1	0.00e+00	0	37	0	104857600	60	8075
2026-01-04 13:11:54.88	25.60	6.35	-43.2	-44.4	21.0	0.00e+00	0	37	0	105906176	60	8089
2026-01-04 13:11:55.89	25.68	6.42	-43.5	-44.8	20.8	0.00e+00	0	37	0	108003328	60	8466
2026-01-04 13:11:56.90	25.75	6.49	-43.2	-44.4	21.1	0.00e+00	0	37	0	110100480	60	8095
2026-01-04 13:11:57.91	25.83	6.55	-43.5	-44.8	20.8	0.00e+00	0	37	0	112197632	60	8457
2026-01-04 13:11:58.93	25.92	6.62	-43.4	-44.7	21.0	0.00e+00	0	37	0	114294784	60	8404
2026-01-04 13:11:59.94	26.00	6.69	-43.2	-44.5	21.0	0.00e+00	0	37	0	115343360	60	8140
2026-01-04 13:12:00.95	26.08	6.75	-43.7	-45.0	20.6	0.00e+00	0	37	0	117440512	60	8679
2026-01-04 13:12:01.96	26.16	6.82	-43.7	-45.0	20.8	0.00e+00	0	37	0	119537664	60	8681
2026-01-04 13:12:02.97	26.24	6.89	-43.2	-44.5	21.1	0.00e+00	0	37	0	121634816	60	8187
2026-01-04 13:12:03.98	26.32	6.95	-43.4	-44.6	21.0	0.00e+00	0	37	0	123731968	60	8314
2026-01-04 13:12:04.99	26.40	7.02	-43.3	-44.6	21.0	0.00e+00	0	37	0	124780544	60	8271
2026-01-04 13:12:06.00	26.49	7.09	-43.2	-44.5	21.0	0.00e+00	0	37	0	126877696	60	8160
2026-01-04 13:12:07.02	26.57	7.15	-43.3	-44.6	21.1	0.00e+00	0	37	0	128974848	60	8264
2026-01-04 13:12:08.03	26.65	7.22	-43.0	-44.2	21.4	0.00e+00	0	37	0	131072000	60	7897
2026-01-04 13:12:09.04	26.74	7.29	-43.3	-44.5	21.0	0.00e+00	0	37	0	133169152	60	8233
2026-01-04 13:12:10.05	26.82	7.36	-43.4	-44.7	21.0	0.00e+00	0	37	0	134217728	60	8363
2026-01-04 13:12:11.06	26.90	7.42	-43.4	-44.7	21.0	0.00e+00	0	37	0	136314880	60	8380
2026-01-04 13:12:12.07	26.99	7.49	-43.1	-44.3	21.3	0.00e+00	0	37	0	138412032	60	8031
2026-01-04 13:12:13.08	27.07	7.56	-43.2	-44.4	21.2	0.00e+00	0	37	0	140509184	60	8121
2026-01-04 13:12:14.09	27.16	7.63	-42.9	-44.0	21.5	0.00e+00	0	37	0	142606336	60	7771
2026-01-04 13:12:15.10	27.25	7.70	-43.0	-44.2	21.4	0.00e+00	0	37	0	143654912	60	7886
2026-01-04 13:12:16.11	27.33	7.76	-43.0	-44.2	21.3	0.00e+00	0	37	0	145752064	60	7869
2026-01-04 13:12:17.13	27.42	7.83	-43.1	-44.3	21.3	0.00e+00	0	37	0	147849216	60	8023
2026-01-04 13:12:18.14	27.51	7.90	-42.8	-43.9	21.7	0.00e+00	0	37	0	149946368	60	7646
2026-01-04 13:12:19.15	27.59	7.97	-42.9	-44.0	21.6	0.00e+00	0	37	0	152043520	60	7755
2026-01-04 13:12:20.16	27.68	8.04	-42.7	-43.9	21.7	0.00e+00	0	37	0	154140672	60	7615
2026-01-04 13:12:21.17	27.77	8.11	-42.6	-43.7	21.7	0.00e+00	0	37	0	155189248	60	7484
2026-01-04 13:12:22.18	27.86	8.18	-42.7	-43.8	21.8	0.00e+00	0	37	0	157286400	60	7535
2026-01-04 13:12:23.19	27.95	8.25	-42.7	-43.9	21.7	0.00e+00	0	37	0	159383552	60	7614
2026-01-04 13:12:24.20	28.04	8.32	-42.7	-43.8	21.7	0.00e+00	0	37	0	161480704	60	7541
2026-01-04 13:12:25.21	28.13	8.39	-42.6	-43.7	21.9	0.00e+00	0	37	0	163577856	60	7495
2026-01-04 13:12:26.23	28.22	8.46	-42.8	-44.0	21.7	0.00e+00	0	37	0	164626432	60	7686
2026-01-04 13:12:27.24	28.31	8.53	-42.7	-43.9	21.7	0.00e+00	0	37	0	166723584	60	7638
2026-01-04 13:12:28.25	28.40	8.60	-42.7	-43.9	21.7	0.00e+00	0	37	0	168820736	60	7609
2026-01-04 13:12:29.26	28.49	8.67	-42.7	-43.8	21.6	0.00e+00	0	37	0	170917888	60	7566
2026-01-04 13:12:30.27	28.58	8.74	-42.8	-43.9	21.7	0.00e+00	0	37	0	173015040	60	7669
2026-01-04 13:12:31.28	28.68	8.81	-42.7	-43.9	21.6	0.00e+00	0	37	0	174063616	60	7596
2026-01-04 13:12:32.29	28.77	8.88	-42.8	-44.0	21.7	0.00e+00	0	37	0	176160768	60	7712
2026-01-04 13:12:33.30	28.86	8.95	-42.6	-43.8	21.8	0.00e+00	0	37	0	178257920	60	7520
2026-01-04 13:12:34.31	28.95	9.02	-42.6	-43.7	21.8	0.00e+00	0	37	0	180355072	60	7456
2026-01-04 13:12:35.32	29.05	9.09	-42.9	-44.1	21.7	0.00e+00	0	37	0	182452224	60	7832
2026-01-04 13:12:36.33	29.14	9.16	-42.7	-43.9	21.7	0.00e+00	0	37	0	183500800	60	7618
2026-01-04 13:12:37.34	29.24	9.23	-42.8	-44.0	21.7	0.00e+00	0	37	0	185597952	60	7739
2026-01-04 13:12:38.36	29.33	9.30	-42.8	-44.0	21.8	0.00e+00	0	37	0	187695104	60	7696
2026-01-04 13:12:39.37	29.43	9.38	-43.0	-44.2	21.4	0.00e+00	0	37	0	189792256	60	7910
2026-01-04 13:12:40.38	29.53	9.45	-42.7	-43.8	21.9	0.00e+00	0	37	0	191889408	60	7583
2026-01-04 13:12:41.39	29.62	9.52	-42.4	-43.6	21.9	0.00e+00	0	37	0	193986560	60	7340
2026-01-04 13:12:42.40	29.72	9.59	-42.5	-43.6	21.9	0.00e+00	0	37	0	195035136	60	7422
2026-01-04 13:12:43.41	29.82	9.66	-42.5	-43.5	22.1	0.00e+00	0	37	0	197132288	60	7336
2026-01-04 13:12:44.42	29.92	9.74	-42.2	-43.3	22.2	0.00e+00	0	37	0	199229440	60	7106
2026-01-04 13:12:45.43	30.01	9.81	-42.3	-43.3	22.2	0.00e+00	0	37	0	201326592	60	7158
2026-01-04 13:12:46.44	30.11	9.88	-42.1	-43.2	22.3	0.00e+00	0	37	0	203423744	60	7022
2026-01-04 13:12:47.45	30.21	9.95	-42.0	-43.1	22.4	0.00e+00	0	37	0	204472320	60	6951
2026-01-04 13:12:48.46	30.31	10.03	-42.2	-43.2	22.3	0.00e+00	0	37	0	206569472	60	7080
2026-01-04 13:12:49.48	30.41	10.10	-42.1	-43.1	22.4	0.00e+00	0	37	0	208666624	60	6977
2026-01-04 13:12:50.49	30.51	10.17	-42.2	-43.3	22.3	0.00e+00	0	37	0	210763776	60	7101
2026-01-04 13:12:51.50	30.62	10.25	-42.1	-43.2	22.3	0.00e+00	0	37	0	212860928	60	7034
2026-01-04 13:12:52.51	30.72	10.32	-42.2	-43.3	22.2	0.00e+00	0	37	0	213909504	60	7140
2026-01-04 13:12:53.52	30.82	10.39	-42.3	-43.4	22.1	0.00e+00	0	37	0	216006656	60	7205
2026-01-04 13:12:54.53	30.92	10.47	-42.6	-43.7	21.9	0.00e+00	0	37	0	218103808	60	7493
2026-01-04 13:12:55.54	31.03	10.54	-42.8	-43.9	21.9	0.00e+00	0	37	0	220200960	60	7647
2026-01-04 13:12:56.55	31.13	10.61	-43.0	-44.2	21.6	0.00e+00	0	37	0	222298112	60	7877
2026-01-04 13:12:57.56	31.23	10.69	-43.0	-44.1	21.5	0.00e+00	0	37	0	223346688	60	7856
2026-01-04 13:12:58.57	31.34	10.76	-42.9	-44.1	21.6	0.00e+00	0	37	0	225443840	60	7807
2026-01-04 13:12:59.59	31.44	10.84	-43.3	-44.5	21.3	0.00e+00	0	37	0	227540992	60	8196
2026-01-04 13:13:00.60	31.55	10.91	-43.2	-44.4	21.3	0.00e+00	0	37	0	229638144	60	8133
2026-01-04 13:13:01.61	31.66	10.99	-43.0	-44.2	21.5	0.00e+00	0	37	0	231735296	60	7924
2026-01-04 13:13:02.62	31.76	11.06	-43.3	-44.5	21.3	0.00e+00	0	37	0	233832448	60	8204
2026-01-04 13:13:03.63	31.87	11.14	-43.1	-44.3	21.5	0.00e+00	0	37	0	234881024	60	8024
2026-01-04 13:13:04.64	31.98	11.21	-43.1	-44.3	21.5	0.00e+00	0	37	0	236978176	60	8043
2026-01-04 13:13:05.65	32.09	11.29	-43.0	-44.1	21.6	0.00e+00	0	37	0	239075328	60	7859
2026-01-04 13:13:06.67	32.20	11.36	-42.9	-44.1	21.6	0.00e+00	0	37	0	241172480	60	7792
2026-01-04 13:13:07.67	32.31	11.44	-43.1	-44.3	21.4	0.00e+00	0	37	0	243269632	60	8016
2026-01-04 13:13:08.69	32.42	11.51	-42.8	-44.0	21.8	0.00e+00	0	37	0	244318208	60	7710
2026-01-04 13:13:09.70	32.53	11.59	-42.6	-43.7	22.1	0.00e+00	0	37	0	246415360	60	7477
2026-01-04 13:13:10.71	32.64	11.66	-42.6	-43.7	21.9	0.00e+00	0	37	0	248512512	60	7499
2026-01-04 13:13:11.72	32.75	11.74	-42.6	-43.8	21.9	0.00e+00	0	37	0	250609664	60	7512
2026-01-04 13:13:12.73	32.86	11.82	-42.4	-43.4	22.2	0.00e+00	0	37	0	252706816	60	7234
2026-01-04 13:13:13.74	32.97	11.89	-42.3	-43.4	22.2	0.00e+00	0	37	0	253755392	60	7233
2026-01-04 13:13:14.75	33.09	11.97	-42.5	-43.6	22.1	0.00e+00	0	37	0	255852544	60	7390
2026-01-04 13:13:15.76	33.20	12.05	-42.3	-43.4	22.3	0.00e+00	0	37	0	257949696	60	7234
2026-01-04 13:13:16.77	33.32	12.12	-42.4	-43.4	22.1	0.00e+00	0	37	0	260046848	60	7244
2026-01-04 13:13:17.78	33.43	12.20	-42.5	-43.5	22.2	0.00e+00	0	37	0	262144000	60	7337
2026-01-04 13:13:18.80	33.55	12.28	-42.2	-43.2	22.4	0.00e+00	0	37	0	263192576	60	7071
2026-01-04 13:13:19.81	33.66	12.36	-42.2	-43.2	22.4	0.00e+00	0	37	0	265289728	60	7053
2026-01-04 13:13:20.82	33.78	12.43	-42.2	-43.3	22.4	0.00e+00	0	37	0	267386880	60	7131
2026-01-04 13:13:21.83	33.90	12.51	-42.1	-43.2	22.5	0.00e+00	0	37	0	269484032	60	7013
2026-01-04 13:13:22.84	34.02	12.59	-42.1	-43.1	22.4	0.00e+00	0	37	0	271581184	60	7005
2026-01-04 13:13:23.85	34.13	12.67	-42.0	-43.1	22.5	0.00e+00	0	37	0	272629760	60	6947
2026-01-04 13:13:24.86	34.25	12.74	-42.1	-43.2	22.4	0.00e+00	0	37	0	274726912	60	7012
2026-01-04 13:13:25.87	34.37	12.82	-42.0	-43.1	22.5	0.00e+00	0	37	0	276824064	60	6950
2026-01-04 13:13:26.88	34.49	12.90	-42.2	-43.3	22.4	0.00e+00	0	37	0	278921216	60	7113
2026-01-04 13:13:27.89	34.62	12.98	-42.2	-43.3	22.4	0.00e+00	0	37	0	281018368	60	7140
2026-01-04 13:13:28.90	34.74	13.06	-42.0	-43.1	22.5	0.00e+00	0	37	0	282066944	60	6955
2026-01-04 13:13:29.91	34.86	13.14	-42.2	-43.3	22.4	0.00e+00	0	37	0	284164096	60	7132
2026-01-04 13:13:30.93	34.98	13.21	-42.2	-43.2	22.4	0.00e+00	0	37	0	286261248	60	7087
2026-01-04 13:13:31.94	35.11	13.29	-42.1	-43.1	22.6	0.00e+00	0	37	0	288358400	60	6972
2026-01-04 13:13:32.95	35.23	13.37	-41.9	-42.9	22.7	0.00e+00	0	37	0	290455552	60	6805
2026-01-04 13:13:33.96	35.36	13.45	-41.6	-42.6	22.8	0.00e+00	0	37	0	291504128	60	6608
2026-01-04 13:13:34.97	35.48	13.53	-41.8	-42.8	22.7	0.00e+00	0	37	0	293601280	60	6763
2026-01-04 13:13:35.98	35.61	13.61	-41.9	-42.9	22.7	0.00e+00	0	37	0	295698432	60	6819
2026-01-04 13:13:36.99	35.73	13.69	-41.9	-42.9	22.6	0.00e+00	0	37	0	297795584	60	6841
2026-01-04 13:13:38.00	35.86	13.77	-41.9	-42.9	22.7	0.00e+00	0	37	0	299892736	60	6832
2026-01-04 13:13:39.01	35.99	13.85	-41.9	-43.0	22.6	0.00e+00	0	37	0	301989888	60	6867
2026-01-04 13:13:40.02	36.12	13.93	-42.1	-43.2	22.4	0.00e+00	0	37	0	303038464	60	7044
2026-01-04 13:13:41.03	36.25	14.01	-42.4	-43.5	22.1	0.00e+00	0	37	0	305135616	60	7259
2026-01-04 13:13:42.04	36.38	14.09	-42.6	-43.7	21.7	0.00e+00	0	37	0	307232768	60	7501
2026-01-04 13:13:43.06	36.51	14.17	-42.7	-43.9	21.4	0.00e+00	0	37	0	309329920	60	7647
2026-01-04 13:13:44.07	36.64	14.25	-42.7	-43.8	21.7	0.00e+00	0	37	0	311427072	60	7566
2026-01-04 13:13:45.08	36.77	14.33	-43.0	-44.2	21.5	0.00e+00	0	37	0	312475648	60	7868
2026-01-04 13:13:46.09	36.91	14.41	-43.1	-44.3	21.6	0.00e+00	0	37	0	314572800	60	8035
2026-01-04 13:13:47.10	37.04	14.49	-42.8	-43.9	21.8	0.00e+00	0	37	0	316669952	60	7667
2026-01-04 13:13:48.11	37.17	14.58	-42.9	-44.1	21.7	0.00e+00	0	37	0	318767104	60	7780
2026-01-04 13:13:49.12	37.31	14.66	-42.8	-44.0	21.7	0.00e+00	0	37	0	320864256	60	7707
2026-01-04 13:13:50.13	37.44	14.74	-42.7	-43.8	21.8	0.00e+00	0	37	0	321912832	60	7584
2026-01-04 13:13:51.14	37.58	14.82	-42.7	-43.9	21.9	0.00e+00	0	37	0	324009984	60	7632
2026-01-04 13:13:52.15	37.72	14.90	-42.6	-43.7	22.0	0.00e+00	0	37	0	326107136	60	7467
2026-01-04 13:13:53.17	37.86	14.98	-42.5	-43.7	22.1	0.00e+00	0	37	0	328204288	60	7432
2026-01-04 13:13:54.18	37.99	15.07	-42.5	-43.6	22.1	0.00e+00	0	37	0	330301440	60	7398
2026-01-04 13:13:55.19	38.13	15.15	-42.5	-43.6	22.2	0.00e+00	0	37	0	331350016	60	7350
2026-01-04 13:13:56.20	38.27	15.23	-42.3	-43.4	22.3	0.00e+00	0	37	0	333447168	60	7180
2026-01-04 13:13:57.21	38.41	15.31	-42.4	-43.5	22.2	0.00e+00	0	37	0	335544320	60	7283
2026-01-04 13:13:58.22	38.56	15.39	-42.2	-43.3	22.4	0.00e+00	0	37	0	337641472	60	7119
2026-01-04 13:13:59.23	38.70	15.48	-42.0	-43.1	22.5	0.00e+00	0	37	0	339738624	60	6960
2026-01-04 13:14:00.24	38.84	15.56	-42.1	-43.1	22.5	0.00e+00	0	37	0	340787200	60	6982
2026-01-04 13:14:01.26	38.99	15.64	-41.9	-42.9	22.7	0.00e+00	0	37	0	342884352	60	6812
2026-01-04 13:14:02.27	39.13	15.72	-41.8	-42.8	22.8	0.00e+00	0	37	0	344981504	60	6715
2026-01-04 13:14:03.28	39.28	15.81	-41.8	-42.8	22.8	0.00e+00	0	37	0	347078656	60	6750
2026-01-04 13:14:04.29	39.42	15.89	-41.7	-42.7	22.9	0.00e+00	0	37	0	349175808	60	6626
2026-01-04 13:14:05.30	39.57	15.97	-41.6	-42.6	22.9	0.00e+00	0	37	0	351272960	60	6597
2026-01-04 13:14:06.31	39.72	16.06	-41.7	-42.7	22.8	0.00e+00	0	37	0	352321536	60	6676
2026-01-04 13:14:07.32	39.87	16.14	-41.6	-42.7	22.9	0.00e+00	0	37	0	354418688	60	6617
2026-01-04 13:14:08.33	40.01	16.22	-41.7	-42.7	22.8	0.00e+00	0	37	0	356515840	60	6681
2026-01-04 13:14:09.34	40.16	16.31	-42.0	-43.1	22.6	0.00e+00	0	37	0	358612992	60	6967
2026-01-04 13:14:10.35	40.32	16.39	-41.6	-42.6	23.0	0.00e+00	0	37	0	360710144	60	6604
2026-01-04 13:14:11.37	40.47	16.48	-41.5	-42.5	23.0	0.00e+00	0	37	0	361758720	60	6532
2026-01-04 13:14:12.38	40.62	16.56	-41.7	-42.7	22.9	0.00e+00	0	37	0	363855872	60	6631
2026-01-04 13:14:13.39	40.77	16.64	-41.4	-42.4	23.1	0.00e+00	0	37	0	365953024	60	6444
2026-01-04 13:14:14.40	40.93	16.73	-41.1	-42.1	23.4	0.00e+00	0	37	0	368050176	60	6187
2026-01-04 13:14:15.41	41.08	16.81	-41.2	-42.1	23.3	0.00e+00	0	37	0	370147328	60	6228
2026-01-04 13:14:16.42	41.24	16.90	-41.2	-42.2	23.3	0.00e+00	0	37	0	371195904	60	6247
2026-01-04 13:14:17.43	41.40	16.98	-41.3	-42.3	23.3	0.00e+00	0	37	0	373293056	60	6340
2026-01-04 13:14:18.44	41.55	17.06	-41.2	-42.2	23.3	0.00e+00	0	37	0	375390208	60	6274
2026-01-04 13:14:19.45	41.71	17.15	-41.5	-42.5	23.2	0.00e+00	0	37	0	377487360	60	6530
2026-01-04 13:14:20.47	41.87	17.23	-41.4	-42.4	23.1	0.00e+00	0	37	0	379584512	60	6403
2026-01-04 13:14:21.48	42.03	17.32	-41.3	-42.3	23.3	0.00e+00	0	37	0	380633088	60	6355
2026-01-04 13:14:22.49	42.19	17.40	-41.3	-42.3	23.2	0.00e+00	0	37	0	382730240	60	6351
2026-01-04 13:14:23.50	42.36	17.49	-41.4	-42.4	23.1	0.00e+00	0	37	0	384827392	60	6452
2026-01-04 13:14:24.51	42.52	17.57	-41.4	-42.3	23.2	0.00e+00	0	37	0	386924544	60	6373
2026-01-04 13:14:25.52	42.68	17.66	-41.5	-42.5	23.1	0.00e+00	0	37	0	389021696	60	6478
2026-01-04 13:14:26.53	42.85	17.74	-41.5	-42.5	23.1	0.00e+00	0	37	0	391118848	60	6518
2026-01-04 13:14:27.54	43.01	17.83	-41.1	-42.0	23.4	0.00e+00	0	37	0	392167424	60	6148
2026-01-04 13:14:28.55	43.18	17.91	-41.2	-42.1	23.2	0.00e+00	0	37	0	394264576	60	6222
2026-01-04 13:14:29.56	43.35	18.00	-41.3	-42.3	23.2	0.00e+00	0	37	0	396361728	60	6356
2026-01-04 13:14:30.58	43.52	18.09	-41.4	-42.3	22.9	0.00e+00	0	37	0	398458880	60	6370
2026-01-04 13:14:31.59	43.69	18.17	-41.0	-41.9	23.3	0.00e+00	0	37	0	400556032	60	6102
2026-01-04 13:14:32.60	43.86	18.26	-41.1	-42.1	23.4	0.00e+00	0	37	0	401604608	60	6191
2026-01-04 13:14:33.61	44.03	18.34	-40.7	-41.6	23.7	0.00e+00	0	37	0	403701760	60	5852
2026-01-04 13:14:34.62	44.20	18.43	-40.7	-41.6	23.8	0.00e+00	0	37	0	405798912	60	5881
2026-01-04 13:14:35.63	44.37	18.51	-40.7	-41.6	23.8	0.00e+00	0	37	0	407896064	60	5896
2026-01-04 13:14:36.64	44.55	18.60	-40.5	-41.4	23.9	0.00e+00	0	37	0	409993216	60	5709
2026-01-04 13:14:37.65	44.72	18.69	-40.7	-41.6	23.8	0.00e+00	0	37	0	411041792	60	5881
2026-01-04 13:14:38.67	44.90	18.77	-40.7	-41.6	23.9	0.00e+00	0	37	0	413138944	60	5837
2026-01-04 13:14:39.68	45.08	18.86	-40.9	-41.8	23.6	0.00e+00	0	37	0	415236096	60	6009
2026-01-04 13:14:40.69	45.25	18.94	-40.7	-41.6	23.9	0.00e+00	0	37	0	417333248	60	5832
2026-01-04 13:14:41.70	45.43	19.03	-40.8	-41.7	23.8	0.00e+00	0	37	0	419430400	60	5931
2026-01-04 13:14:42.71	45.61	19.12	-40.7	-41.6	23.9	0.00e+00	0	37	0	420478976	60	5851
2026-01-04 13:14:43.72	45.79	19.20	-40.8	-41.8	23.7	0.00e+00	0	37	0	422576128	60	5967
2026-01-04 13:14:44.73	45.97	19.29	-41.0	-42.0	23.6	0.00e+00	0	37	0	424673280	60	6136
2026-01-04 13:14:45.74	46.16	19.37	-41.2	-42.1	23.4	0.00e+00	0	37	0	426770432	60	6215
2026-01-04 13:14:46.75	46.34	19.46	-41.4	-42.4	23.4	0.00e+00	0	37	0	428867584	60	6412
2026-01-04 13:14:47.76	46.52	19.55	-41.1	-42.0	23.5	0.00e+00	0	37	0	429916160	60	6158
2026-01-04 13:14:48.78	46.71	19.63	-41.1	-42.1	23.4	0.00e+00	0	37	0	432013312	60	6199
2026-01-04 13:14:49.79	46.90	19.72	-40.7	-41.6	23.8	0.00e+00	0	37	0	434110464	60	5878
2026-01-04 13:14:50.80	47.09	19.80	-40.7	-41.6	23.8	0.00e+00	0	37	0	436207616	60	5889
2026-01-04 13:14:51.81	47.28	19.89	-40.7	-41.6	23.9	0.00e+00	0	37	0	438304768	60	5880
2026-01-04 13:14:52.82	47.47	19.98	-40.8	-41.7	23.8	0.00e+00	0	37	0	440401920	60	5904
2026-01-04 13:14:53.83	47.66	20.06	-40.9	-41.9	23.6	0.00e+00	0	37	0	441450496	60	6034
2026-01-04 13:14:54.84	47.85	20.15	-41.0	-42.0	23.7	0.00e+00	0	37	0	443547648	60	6104
2026-01-04 13:14:55.85	48.04	20.23	-40.9	-41.8	23.6	0.00e+00	0	37	0	445644800	60	6026
2026-01-04 13:14:56.86	48.24	20.32	-41.1	-42.1	23.4	0.00e+00	0	37	0	447741952	60	6204
2026-01-04 13:14:57.87	48.43	20.41	-41.1	-42.0	23.4	0.00e+00	0	37	0	449839104	60	6171
2026-01-04 13:14:58.89	48.63	20.49	-40.8	-41.7	23.8	0.00e+00	0	37	0	450887680	60	5922
2026-01-04 13:14:59.90	48.83	20.58	-40.5	-41.4	23.8	0.00e+00	0	37	0	452984832	60	5741
2026-01-04 13:15:00.91	49.02	20.66	-40.5	-41.4	23.9	0.00e+00	0	37	0	455081984	60	5741
2026-01-04 13:15:01.92	49.22	20.75	-40.7	-41.6	23.7	0.00e+00	0	37	0	457179136	60	5873
2026-01-04 13:15:02.93	49.42	20.84	-40.8	-41.7	23.7	0.00e+00	0	37	0	459276288	60	5950
2026-01-04 13:15:03.94	49.63	20.92	-41.0	-41.9	23.6	0.00e+00	0	37	0	460324864	60	6072
2026-01-04 13:15:04.95	49.83	21.01	-41.0	-41.9	23.4	0.00e+00	0	37	0	462422016	60	6088
2026-01-04 13:15:05.96	50.03	21.09	-40.8	-41.7	23.8	0.00e+00	0	37	0	464519168	60	5907
2026-01-04 13:15:06.98	50.24	21.18	-40.7	-41.6	23.7	0.00e+00	0	37	0	466616320	60	5860
2026-01-04 13:15:07.99	50.44	21.27	-40.6	-41.5	23.8	0.00e+00	0	37	0	468713472	60	5795
2026-01-04 13:15:09.00	50.65	21.35	-40.5	-41.4	24.1	0.00e+00	0	37	0	469762048	60	5716
2026-01-04 13:15:10.01	50.86	21.44	-40.5	-41.3	24.0	0.00e+00	0	37	0	471859200	60	5694
2026-01-04 13:15:11.02	51.07	21.52	-40.7	-41.6	23.8	0.00e+00	0	37	0	473956352	60	5868
2026-01-04 13:15:12.03	51.28	21.61	-40.6	-41.5	23.9	0.00e+00	0	37	0	476053504	60	5825
2026-01-04 13:15:13.04	51.49	21.69	-40.8	-41.7	23.9	0.00e+00	0	37	0	478150656	60	5910
2026-01-04 13:15:14.05	51.70	21.78	-40.7	-41.7	23.8	0.00e+00	0	37	0	479199232	60	5907
2026-01-04 13:15:15.06	51.92	21.86	-40.5	-41.4	23.9	0.00e+00	0	37	0	481296384	60	5736
2026-01-04 13:15:16.08	52.14	21.95	-40.6	-41.5	23.9	0.00e+00	0	37	0	483393536	60	5804
2026-01-04 13:15:17.09	52.35	22.03	-40.6	-41.5	23.9	0.00e+00	0	37	0	485490688	60	5769
2026-01-04 13:15:18.10	52.57	22.12	-40.6	-41.5	23.9	0.00e+00	0	37	0	487587840	60	5762
2026-01-04 13:15:19.11	52.79	22.20	-40.8	-41.7	23.7	0.00e+00	0	37	0	488636416	60	5926
2026-01-04 13:15:20.12	53.01	22.28	-40.9	-41.8	23.5	0.00e+00	0	37	0	490733568	60	5999
2026-01-04 13:15:21.13	53.23	22.37	-40.7	-41.6	23.8	0.00e+00	0	37	0	492830720	60	5862
2026-01-04 13:15:22.14	53.45	22.45	-40.8	-41.7	23.8	0.00e+00	0	37	0	494927872	60	5961
2026-01-04 13:15:23.15	53.67	22.54	-40.6	-41.5	23.9	0.00e+00	0	37	0	497025024	60	5794
2026-01-04 13:15:24.16	53.90	22.62	-40.9	-41.8	23.8	0.00e+00	0	37	0	499122176	60	5989
2026-01-04 13:15:25.17	54.12	22.70	-40.9	-41.9	23.6	0.00e+00	0	37	0	500170752	60	6044
2026-01-04 13:15:26.18	54.35	22.79	-41.0	-42.0	23.4	0.00e+00	0	37	0	502267904	60	6128
2026-01-04 13:15:27.19	54.58	22.87	-41.0	-41.9	23.7	0.00e+00	0	37	0	504365056	60	6078
2026-01-04 13:15:28.20	54.81	22.95	-40.7	-41.6	23.8	0.00e+00	0	37	0	506462208	60	5864
2026-01-04 13:15:29.21	55.04	23.03	-40.8	-41.7	23.8	0.00e+00	0	37	0	508559360	60	5908
2026-01-04 13:15:30.23	55.27	23.12	-40.5	-41.4	24.0	0.00e+00	0	37	0	509607936	60	5741
2026-01-04 13:15:31.24	55.50	23.20	-40.5	-41.3	24.0	0.00e+00	0	37	0	511705088	60	5695
2026-01-04 13:15:32.25	55.74	23.28	-40.6	-41.5	23.9	0.00e+00	0	37	0	513802240	60	5801
2026-01-04 13:15:33.26	55.97	23.36	-40.8	-41.7	23.6	0.00e+00	0	37	0	515899392	60	5915
2026-01-04 13:15:34.27	56.21	23.44	-40.6	-41.5	23.9	0.00e+00	0	37	0	517996544	60	5819
2026-01-04 13:15:35.28	56.45	23.53	-41.0	-42.0	23.6	0.00e+00	0	37	0	519045120	60	6112
2026-01-04 13:15:36.29	56.68	23.61	-41.1	-42.0	23.6	0.00e+00	0	37	0	521142272	60	6156
2026-01-04 13:15:37.30	56.92	23.69	-41.3	-42.3	23.3	0.00e+00	0	37	0	523239424	60	6319
2026-01-04 13:15:38.31	57.17	23.77	-41.5	-42.5	23.1	0.00e+00	0	37	0	525336576	60	6522
2026-01-04 13:15:39.32	57.41	23.85	-41.7	-42.7	23.1	0.00e+00	0	37	0	527433728	60	6662
2026-01-04 13:15:40.33	57.65	23.93	-41.4	-42.4	23.3	0.00e+00	0	37	0	528482304	60	6409
2026-01-04 13:15:41.35	57.90	24.01	-41.3	-42.2	23.5	0.00e+00	0	37	0	530579456	60	6303
2026-01-04 13:15:42.36	58.15	24.09	-41.1	-42.1	23.4	0.00e+00	0	37	0	532676608	60	6201
2026-01-04 13:15:43.37	58.39	24.17	-40.8	-41.7	23.8	0.00e+00	0	37	0	534773760	60	5944
2026-01-04 13:15:44.38	58.64	24.25	-40.9	-41.9	23.7	0.00e+00	0	37	0	536870912	60	6047
2026-01-04 13:15:45.39	58.89	24.32	-40.8	-41.7	23.6	0.00e+00	0	37	0	538968064	60	5963
2026-01-04 13:15:46.40	59.14	24.40	-40.8	-41.7	23.8	0.00e+00	0	37	0	540016640	60	5943
2026-01-04 13:15:47.41	59.39	24.48	-40.7	-41.6	23.9	0.00e+00	0	37	0	542113792	60	5844
2026-01-04 13:15:48.42	59.65	24.56	-40.5	-41.3	24.0	0.00e+00	0	37	0	544210944	60	5683
2026-01-04 13:15:49.44	59.90	24.64	-40.7	-41.6	23.9	0.00e+00	0	37	0	546308096	60	5842
2026-01-04 13:15:50.45	60.16	24.71	-40.7	-41.6	23.8	0.00e+00	0	37	0	548405248	60	5860
2026-01-04 13:15:51.46	60.42	24.79	-40.9	-41.8	23.6	0.00e+00	0	37	0	549453824	60	6014
2026-01-04 13:15:52.47	60.68	24.87	-41.4	-42.4	23.3	0.00e+00	0	37	0	551550976	60	6455
2026-01-04 13:15:53.48	60.93	24.94	-41.5	-42.5	23.2	0.00e+00	0	37	0	553648128	60	6496
2026-01-04 13:15:54.49	61.20	25.02	-41.5	-42.5	23.3	0.00e+00	0	37	0	555745280	60	6519
2026-01-04 13:15:55.51	61.46	25.09	-40.9	-41.8	23.7	0.00e+00	0	37	0	557842432	60	6006
2026-01-04 13:15:56.52	61.72	25.17	-40.5	-41.4	23.7	0.00e+00	0	37	0	558891008	60	5751
2026-01-04 13:15:57.53	61.99	25.24	-40.7	-41.6	23.7	0.00e+00	0	37	0	560988160	60	5885
2026-01-04 13:15:58.54	62.25	25.31	-40.9	-41.8	23.7	0.00e+00	0	37	0	563085312	60	6016
2026-01-04 13:15:59.55	62.52	25.39	-41.4	-42.3	23.3	0.00e+00	0	37	0	565182464	60	6389
2026-01-04 13:16:00.56	62.79	25.46	-41.9	-42.9	22.9	0.00e+00	0	37	0	567279616	60	6837
2026-01-04 13:16:01.57	63.06	25.53	-42.2	-43.3	22.5	0.00e+00	0	37	0	568328192	60	7093
2026-01-04 13:16:02.58	63.33	25.60	-42.3	-43.4	22.5	0.00e+00	0	37	0	570425344	60	7175
2026-01-04 13:16:03.59	63.60	25.68	-42.1	-43.2	22.7	0.00e+00	0	37	0	572522496	60	7027
2026-01-04 13:16:04.60	63.87	25.75	-41.5	-42.4	23.3	0.00e+00	0	37	0	574619648	60	6447
2026-01-04 13:16:05.61	64.15	25.82	-41.6	-42.5	23.1	0.00e+00	0	37	0	576716800	60	6524
2026-01-04 13:16:06.63	64.42	25.89	-41.8	-42.7	23.0	0.00e+00	0	37	0	578813952	60	6692
2026-01-04 13:16:07.64	64.70	25.96	-41.5	-42.5	23.2	0.00e+00	0	37	0	579862528	60	6485
2026-01-04 13:16:08.65	64.98	26.03	-41.5	-42.4	23.1	0.00e+00	0	37	0	581959680	60	6454
2026-01-04 13:16:09.66	65.26	26.09	-41.9	-43.0	22.8	0.00e+00	0	37	0	584056832	60	6853
2026-01-04 13:16:10.67	65.54	26.16	-42.1	-43.1	22.7	0.00e+00	0	37	0	586153984	60	6987
2026-01-04 13:16:11.68	65.82	26.23	-42.2	-43.3	22.6	0.00e+00	0	37	0	588251136	60	7114
2026-01-04 13:16:12.69	66.10	26.30	-42.3	-43.3	22.6	0.00e+00	0	37	0	589299712	60	7144
2026-01-04 13:16:13.70	66.39	26.36	-42.3	-43.4	22.6	0.00e+00	0	37	0	591396864	60	7198
2026-01-04 13:16:14.71	66.67	26.43	-42.4	-43.5	22.5	0.00e+00	0	37	0	593494016	60	7270
2026-01-04 13:16:15.72	66.96	26.49	-42.3	-43.3	22.6	0.00e+00	0	37	0	595591168	60	7159
2026-01-04 13:16:16.74	67.25	26.56	-41.9	-42.9	22.8	0.00e+00	0	37	0	597688320	60	6844
2026-01-04 13:16:17.75	67.53	26.62	-42.1	-43.1	22.8	0.00e+00	0	37	0	598736896	60	6996
2026-01-04 13:16:18.76	67.82	26.68	-41.8	-42.8	22.8	0.00e+00	0	37	0	600834048	60	6712
2026-01-04 13:16:19.77	68.11	26.75	-41.9	-42.9	22.9	0.00e+00	0	37	0	602931200	60	6785
2026-01-04 13:16:20.78	68.41	26.81	-41.8	-42.8	22.9	0.00e+00	0	37	0	605028352	60	6752
2026-01-04 13:16:21.79	68.70	26.87	-41.9	-42.9	22.7	0.00e+00	0	37	0	607125504	60	6842
2026-01-04 13:16:22.80	68.99	26.93	-42.5	-43.5	22.5	0.00e+00	0	37	0	608174080	60	7324
2026-01-04 13:16:23.81	69.29	26.99	-42.7	-43.8	22.1	0.00e+00	0	37	0	610271232	60	7519
2026-01-04 13:16:24.82	69.58	27.05	-42.8	-43.9	22.1	0.00e+00	0	37	0	612368384	60	7650
2026-01-04 13:16:25.83	69.88	27.11	-43.0	-44.2	21.8	0.00e+00	0	37	0	614465536	60	7906
2026-01-04 13:16:26.85	70.18	27.17	-42.3	-43.4	22.5	0.00e+00	0	37	0	616562688	60	7192
2026-01-04 13:16:27.86	70.48	27.22	-42.1	-43.2	22.4	0.00e+00	0	37	0	617611264	60	7027
2026-01-04 13:16:28.87	70.78	27.28	-41.5	-42.4	23.2	0.00e+00	0	37	0	619708416	60	6445
2026-01-04 13:16:29.88	71.08	27.34	-41.3	-42.3	23.3	0.00e+00	0	37	0	621805568	60	6327
2026-01-04 13:16:30.89	71.38	27.39	-41.6	-42.6	23.1	0.00e+00	0	37	0	623902720	60	6549
2026-01-04 13:16:31.90	71.69	27.45	-42.1	-43.1	22.6	0.00e+00	0	37	0	625999872	60	6960
2026-01-04 13:16:32.91	71.99	27.50	-42.8	-44.0	21.9	0.00e+00	0	37	0	627048448	60	7694
2026-01-04 13:16:33.92	72.30	27.55	-43.2	-44.4	21.8	0.00e+00	0	37	0	629145600	60	8086
2026-01-04 13:16:34.93	72.60	27.60	-43.3	-44.5	21.6	0.00e+00	0	37	0	631242752	60	8170
2026-01-04 13:16:35.94	72.91	27.66	-43.3	-44.5	21.5	0.00e+00	0	37	0	633339904	60	8185
2026-01-04 13:16:36.95	73.22	27.71	-43.6	-44.8	21.2	0.00e+00	0	37	0	635437056	60	8474
2026-01-04 13:16:37.97	73.53	27.76	-44.0	-45.3	20.7	0.00e+00	0	37	0	637534208	60	8945
2026-01-04 13:16:38.98	73.84	27.81	-44.6	-46.0	20.1	0.00e+00	0	37	0	638582784	60	9758
2026-01-04 13:16:39.99	74.15	27.85	-45.0	-46.6	19.8	0.00e+00	0	37	0	640679936	60	10368
2026-01-04 13:16:41.00	74.46	27.90	-45.1	-46.7	19.6	0.00e+00	0	37	0	642777088	60	10562
2026-01-04 13:16:42.01	74.78	27.95	-44.6	-46.0	20.3	0.00e+00	0	37	0	644874240	60	9772
2026-01-04 13:16:43.02	75.09	27.99	-44.4	-45.8	20.3	0.00e+00	0	37	0	646971392	60	9522
2026-01-04 13:16:44.03	75.41	28.04	-44.4	-45.8	20.4	0.00e+00	0	37	0	648019968	60	9543
2026-01-04 13:16:45.04	75.72	28.08	-44.9	-46.4	19.9	0.00e+00	0	37	0	650117120	60	10130
2026-01-04 13:16:46.05	76.04	28.13	-45.0	-46.5	19.7	0.00e+00	0	37	0	652214272	60	10356
2026-01-04 13:16:47.07	76.36	28.17	-44.7	-46.2	20.2	0.00e+00	0	37	0	654311424	60	9936
2026-01-04 13:16:48.08	76.68	28.21	-44.5	-45.9	20.4	0.00e+00	0	37	0	656408576	60	9623
2026-01-04 13:16:49.09	77.00	28.25	-43.8	-45.1	20.9	0.00e+00	0	37	0	657457152	60	8752
2026-01-04 13:16:50.10	77.32	28.29	-44.1	-45.4	20.9	0.00e+00	0	37	0	659554304	60	9049
2026-01-04 13:16:51.11	77.64	28.33	-43.9	-45.1	20.9	0.00e+00	0	37	0	661651456	60	8818
2026-01-04 13:16:52.12	77.96	28.37	-44.3	-45.7	20.5	0.00e+00	0	37	0	663748608	60	9372
2026-01-04 13:16:53.13	78.28	28.40	-44.7	-46.1	20.0	0.00e+00	0	37	0	665845760	60	9886
2026-01-04 13:16:54.14	78.60	28.44	-45.0	-46.5	19.8	0.00e+00	0	37	0	666894336	60	10305
2026-01-04 13:16:55.15	78.93	28.48	-44.3	-45.7	20.6	0.00e+00	0	37	0	668991488	60	9431
2026-01-04 13:16:56.16	79.25	28.51	-44.1	-45.4	20.8	0.00e+00	0	37	0	671088640	60	9088
2026-01-04 13:16:57.18	79.58	28.54	-43.7	-45.0	21.1	0.00e+00	0	37	0	673185792	60	8625
2026-01-04 13:16:58.19	79.90	28.58	-43.8	-45.0	21.1	0.00e+00	0	37	0	675282944	60	8714
2026-01-04 13:16:59.20	80.23	28.61	-43.9	-45.1	21.1	0.00e+00	0	37	0	676331520	60	8806
2026-01-04 13:17:00.21	80.56	28.64	-43.5	-44.8	21.3	0.00e+00	0	37	0	678428672	60	8447
2026-01-04 13:17:01.22	80.88	28.67	-43.1	-44.3	21.8	0.00e+00	0	37	0	680525824	60	7998
2026-01-04 13:17:02.23	81.21	28.69	-42.4	-43.5	22.2	0.00e+00	0	37	0	682622976	60	7287
2026-01-04 13:17:03.24	81.54	28.72	-42.4	-43.5	22.4	0.00e+00	0	37	0	684720128	60	7268
2026-01-04 13:17:04.25	81.87	28.75	-42.5	-43.6	22.4	0.00e+00	0	37	0	686817280	60	7359
2026-01-04 13:17:05.26	82.20	28.77	-42.5	-43.6	22.0	0.00e+00	0	37	0	687865856	60	7352
2026-01-04 13:17:06.27	82.53	28.80	-42.6	-43.7	22.2	0.00e+00	0	37	0	689963008	60	7433
2026-01-04 13:17:07.28	82.86	28.82	-42.6	-43.7	22.1	0.00e+00	0	37	0	692060160	60	7491
2026-01-04 13:17:08.29	83.19	28.85	-42.3	-43.4	22.5	0.00e+00	0	37	0	694157312	60	7202
2026-01-04 13:17:09.31	83.53	28.87	-42.6	-43.7	22.2	0.00e+00	0	37	0	696254464	60	7425
2026-01-04 13:17:10.32	83.86	28.89	-42.7	-43.8	22.0	0.00e+00	0	37	0	697303040	60	7557
2026-01-04 13:17:11.33	84.19	28.91	-42.8	-43.9	22.0	0.00e+00	0	37	0	699400192	60	7673
2026-01-04 13:17:12.34	84.52	28.93	-42.5	-43.6	22.3	0.00e+00	0	37	0	701497344	60	7419
2026-01-04 13:17:13.35	84.86	28.94	-42.6	-43.7	22.1	0.00e+00	0	37	0	703594496	60	7487
2026-01-04 13:17:14.36	85.19	28.96	-42.6	-43.7	22.1	0.00e+00	0	37	0	705691648	60	7463
2026-01-04 13:17:15.37	85.52	28.98	-42.2	-43.3	22.4	0.00e+00	0	37	0	706740224	60	7123
2026-01-04 13:17:16.38	85.86	28.99	-42.4	-43.5	22.3	0.00e+00	0	37	0	708837376	60	7306
2026-01-04 13:17:17.39	86.19	29.00	-42.1	-43.1	22.6	0.00e+00	0	37	0	710934528	60	6987
2026-01-04 13:17:18.40	86.53	29.02	-42.4	-43.5	22.2	0.00e+00	0	37	0	713031680	60	7280
2026-01-04 13:17:19.41	86.86	29.03	-42.6	-43.7	22.2	0.00e+00	0	37	0	715128832	60	7425
2026-01-04 13:17:20.43	87.20	29.04	-42.7	-43.8	22.1	0.00e+00	0	37	0	716177408	60	7521
2026-01-04 13:17:21.44	87.54	29.05	-42.7	-43.8	22.1	0.00e+00	0	37	0	718274560	60	7557
2026-01-04 13:17:22.45	87.87	29.05	-42.3	-43.3	22.6	0.00e+00	0	37	0	720371712	60	7163
2026-01-04 13:17:23.46	88.21	29.06	-42.1	-43.1	22.6	0.00e+00	0	37	0	722468864	60	6980
2026-01-04 13:17:24.47	88.54	29.07	-41.8	-42.8	22.8	0.00e+00	0	37	0	724566016	60	6757
2026-01-04 13:17:25.48	88.88	29.07	-42.4	-43.5	22.3	0.00e+00	0	37	0	726663168	60	7304
2026-01-04 13:17:26.49	89.22	29.08	-42.9	-44.1	21.7	0.00e+00	0	37	0	727711744	60	7805
2026-01-04 13:17:27.51	89.56	29.08	-43.5	-44.7	21.3	0.00e+00	0	37	0	729808896	60	8364
2026-01-04 13:17:28.52	89.89	29.08	-43.3	-44.5	21.5	0.00e+00	0	37	0	731906048	60	8189
2026-01-04 13:17:29.53	90.23	29.08	-43.4	-44.7	21.4	0.00e+00	0	37	0	734003200	60	8329
2026-01-04 13:17:30.54	90.57	29.08	-43.4	-44.6	21.5	0.00e+00	0	37	0	736100352	60	8325
2026-01-04 13:17:31.55	90.90	29.08	-43.6	-44.9	21.0	0.00e+00	0	37	0	737148928	60	8547
2026-01-04 13:17:32.56	91.24	29.08	-43.6	-44.9	21.1	0.00e+00	0	37	0	739246080	60	8525
2026-01-04 13:17:33.57	91.57	29.08	-43.2	-44.4	21.5	0.00e+00	0	37	0	741343232	60	8085
2026-01-04 13:17:34.58	91.91	29.07	-42.7	-43.8	22.1	0.00e+00	0	37	0	743440384	60	7531
2026-01-04 13:17:35.59	92.25	29.07	-41.9	-42.9	22.9	0.00e+00	0	37	0	745537536	60	6775
2026-01-04 13:17:36.60	92.58	29.06	-41.6	-42.6	23.0	0.00e+00	0	37	0	746586112	60	6569
2026-01-04 13:17:37.61	92.92	29.05	-41.6	-42.6	23.0	0.00e+00	0	37	0	748683264	60	6579
2026-01-04 13:17:38.63	93.26	29.04	-42.3	-43.4	22.3	0.00e+00	0	37	0	750780416	60	7199
2026-01-04 13:17:39.64	93.59	29.03	-43.0	-44.1	21.6	0.00e+00	0	37	0	752877568	60	7860
2026-01-04 13:17:40.65	93.93	29.02	-43.5	-44.7	21.0	0.00e+00	0	37	0	754974720	60	8343
2026-01-04 13:17:41.66	94.26	29.01	-43.7	-45.0	21.1	0.00e+00	0	37	0	756023296	60	8696
2026-01-04 13:17:42.67	94.60	29.00	-43.8	-45.1	20.9	0.00e+00	0	37	0	758120448	60	8746
2026-01-04 13:17:43.68	94.93	28.98	-43.9	-45.3	20.8	0.00e+00	0	37	0	760217600	60	8927
2026-01-04 13:17:44.69	95.27	28.97	-43.9	-45.2	20.6	0.00e+00	0	37	0	762314752	60	8914
2026-01-04 13:17:45.70	95.60	28.95	-44.0	-45.4	20.7	0.00e+00	0	37	0	764411904	60	9030
2026-01-04 13:17:46.71	95.94	28.94	-43.7	-45.0	21.0	0.00e+00	0	37	0	765460480	60	8649
2026-01-04 13:17:47.73	96.27	28.92	-43.5	-44.7	21.3	0.00e+00	0	37	0	767557632	60	8400
2026-01-04 13:17:48.74	96.60	28.90	-43.2	-44.4	21.5	0.00e+00	0	37	0	769654784	60	8117
2026-01-04 13:17:49.75	96.94	28.88	-43.6	-44.8	21.1	0.00e+00	0	37	0	771751936	60	8502
2026-01-04 13:17:50.76	97.27	28.86	-44.4	-45.8	20.2	0.00e+00	0	37	0	773849088	60	9531
2026-01-04 13:17:51.77	97.60	28.84	-45.5	-47.2	19.1	0.00e+00	0	37	0	775946240	60	11206
2026-01-04 13:17:52.78	97.93	28.81	-46.0	-47.8	18.6	0.00e+00	0	37	0	776994816	60	11985
2026-01-04 13:17:53.79	98.26	28.79	-45.7	-47.5	18.6	0.00e+00	0	37	0	779091968	60	11555
2026-01-04 13:17:54.81	98.60	28.76	-45.9	-47.7	18.7	0.00e+00	0	37	0	781189120	60	11807
2026-01-04 13:17:55.82	98.93	28.74	-45.3	-47.0	19.2	0.00e+00	0	37	0	783286272	60	10878
2026-01-04 13:17:56.83	99.26	28.71	-44.9	-46.5	19.7	0.00e+00	0	37	0	785383424	60	10265
2026-01-04 13:17:57.84	99.58	28.68	-45.0	-46.5	19.4	0.00e+00	0	37	0	786432000	60	10333
2026-01-04 13:17:58.85	99.91	28.65	-45.0	-46.5	19.6	0.00e+00	0	37	0	788529152	60	10340
2026-01-04 13:17:59.86	100.24	28.62	-44.9	-46.4	19.9	0.00e+00	0	37	0	790626304	60	10200
2026-01-04 13:18:00.87	100.57	28.59	-43.8	-45.1	21.0	0.00e+00	0	37	0	792723456	60	8788
2026-01-04 13:18:01.88	100.89	28.56	-43.0	-44.2	21.7	0.00e+00	0	37	0	794820608	60	7902
2026-01-04 13:18:02.89	101.22	28.53	-43.2	-44.4	21.6	0.00e+00	0	37	0	795869184	60	8069
2026-01-04 13:18:03.90	101.54	28.49	-43.3	-44.5	21.4	0.00e+00	0	37	0	797966336	60	8172
2026-01-04 13:18:04.91	101.87	28.46	-44.0	-45.3	20.8	0.00e+00	0	37	0	800063488	60	8979
2026-01-04 13:18:05.92	102.19	28.42	-44.4	-45.8	20.3	0.00e+00	0	37	0	802160640	60	9521
2026-01-04 13:18:06.93	102.51	28.39	-43.9	-45.2	20.7	0.00e+00	0	37	0	804257792	60	8916
2026-01-04 13:18:07.95	102.84	28.35	-43.6	-44.9	21.1	0.00e+00	0	37	0	805306368	60	8584
2026-01-04 13:18:08.96	103.16	28.31	-43.1	-44.3	21.5	0.00e+00	0	37	0	807403520	60	7984
2026-01-04 13:18:09.97	103.48	28.27	-43.2	-44.4	21.5	0.00e+00	0	37	0	809500672	60	8123
2026-01-04 13:18:10.98	103.80	28.23	-43.3	-44.6	21.4	0.00e+00	0	37	0	811597824	60	8238
2026-01-04 13:18:11.99	104.12	28.19	-43.0	-44.2	21.7	0.00e+00	0	37	0	813694976	60	7880
2026-01-04 13:18:13.00	104.44	28.15	-42.7	-43.8	22.1	0.00e+00	0	37	0	814743552	60	7593
2026-01-04 13:18:14.01	104.76	28.10	-42.4	-43.4	22.3	0.00e+00	0	37	0	816840704	60	7244
2026-01-04 13:18:15.02	105.07	28.06	-42.1	-43.2	22.4	0.00e+00	0	37	0	818937856	60	7038
2026-01-04 13:18:16.03	105.39	28.02	-42.1	-43.1	22.3	0.00e+00	0	37	0	821035008	60	6979
2026-01-04 13:18:17.04	105.71	27.97	-42.4	-43.5	22.3	0.00e+00	0	37	0	823132160	60	7267
2026-01-04 13:18:18.06	106.02	27.92	-42.6	-43.8	21.9	0.00e+00	0	37	0	824180736	60	7527
2026-01-04 13:18:19.07	106.34	27.88	-43.3	-44.5	21.3	0.00e+00	0	37	0	826277888	60	8206
2026-01-04 13:18:20.08	106.65	27.83	-43.1	-44.3	21.5	0.00e+00	0	37	0	828375040	60	8005
2026-01-04 13:18:21.09	106.96	27.78	-43.1	-44.2	21.7	0.00e+00	0	37	0	830472192	60	7934
2026-01-04 13:18:22.10	107.27	27.73	-42.3	-43.3	22.5	0.00e+00	0	37	0	832569344	60	7154
2026-01-04 13:18:23.11	107.58	27.68	-42.3	-43.3	22.3	0.00e+00	0	37	0	834666496	60	7168
2026-01-04 13:18:24.12	107.89	27.63	-42.4	-43.4	22.3	0.00e+00	0	37	0	835715072	60	7233
2026-01-04 13:18:25.13	108.20	27.58	-42.5	-43.6	22.1	0.00e+00	0	37	0	837812224	60	7355
2026-01-04 13:18:26.14	108.50	27.53	-42.8	-43.9	21.9	0.00e+00	0	37	0	839909376	60	7668
2026-01-04 13:18:27.15	108.81	27.47	-42.7	-43.8	22.0	0.00e+00	0	37	0	842006528	60	7540
2026-01-04 13:18:28.17	109.12	27.42	-42.5	-43.6	22.2	0.00e+00	0	37	0	844103680	60	7388
2026-01-04 13:18:29.18	109.42	27.36	-42.0	-43.0	22.6	0.00e+00	0	37	0	845152256	60	6892
2026-01-04 13:18:30.19	109.72	27.31	-42.2	-43.2	22.4	0.00e+00	0	37	0	847249408	60	7057
2026-01-04 13:18:31.20	110.02	27.25	-42.1	-43.1	22.6	0.00e+00	0	37	0	849346560	60	6964
2026-01-04 13:18:32.21	110.32	27.19	-42.7	-43.8	21.9	0.00e+00	0	37	0	851443712	60	7560
2026-01-04 13:18:33.22	110.62	27.14	-42.8	-43.9	21.8	0.00e+00	0	37	0	853540864	60	7635
2026-01-04 13:18:34.23	110.92	27.08	-43.0	-44.2	21.6	0.00e+00	0	37	0	854589440	60	7893
2026-01-04 13:18:35.24	111.22	27.02	-43.0	-44.2	21.9	0.00e+00	0	37	0	856686592	60	7896
2026-01-04 13:18:36.26	111.52	26.96	-42.7	-43.8	22.0	0.00e+00	0	37	0	858783744	60	7525
2026-01-04 13:18:37.27	111.81	26.90	-42.8	-43.9	21.9	0.00e+00	0	37	0	860880896	60	7651
2026-01-04 13:18:38.28	112.11	26.84	-43.4	-44.6	21.3	0.00e+00	0	37	0	862978048	60	8297
2026-01-04 13:18:39.29	112.40	26.77	-44.4	-45.8	20.3	0.00e+00	0	37	0	864026624	60	9467
2026-01-04 13:18:40.30	112.69	26.71	-44.6	-46.0	20.1	0.00e+00	0	37	0	866123776	60	9732
2026-01-04 13:18:41.31	112.98	26.65	-44.3	-45.7	20.3	0.00e+00	0	37	0	868220928	60	9386
2026-01-04 13:18:42.32	113.27	26.58	-43.5	-44.8	21.3	0.00e+00	0	37	0	870318080	60	8441
2026-01-04 13:18:43.33	113.56	26.52	-42.9	-44.1	21.7	0.00e+00	0	37	0	872415232	60	7815
2026-01-04 13:18:44.35	113.85	26.45	-42.4	-43.5	22.1	0.00e+00	0	37	0	874512384	60	7318
2026-01-04 13:18:45.36	114.14	26.39	-43.0	-44.2	21.4	0.00e+00	0	37	0	875560960	60	7880
2026-01-04 13:18:46.37	114.42	26.32	-42.8	-44.0	21.8	0.00e+00	0	37	0	877658112	60	7718
2026-01-04 13:18:47.38	114.70	26.26	-42.9	-44.0	21.8	0.00e+00	0	37	0	879755264	60	7746
2026-01-04 13:18:48.39	114.99	26.19	-42.8	-44.0	21.8	0.00e+00	0	37	0	881852416	60	7688
2026-01-04 13:18:49.40	115.27	26.12	-42.8	-43.9	21.9	0.00e+00	0	37	0	883949568	60	7660
2026-01-04 13:18:50.41	115.55	26.05	-42.5	-43.6	22.1	0.00e+00	0	37	0	884998144	60	7375
2026-01-04 13:18:51.42	115.83	25.98	-42.2	-43.3	22.4	0.00e+00	0	37	0	887095296	60	7131
2026-01-04 13:18:52.43	116.11	25.91	-42.7	-43.9	21.9	0.00e+00	0	37	0	889192448	60	7629
2026-01-04 13:18:53.44	116.38	25.84	-42.8	-44.0	21.8	0.00e+00	0	37	0	891289600	60	7728
2026-01-04 13:18:54.46	116.66	25.77	-43.1	-44.3	21.4	0.00e+00	0	37	0	893386752	60	8028
2026-01-04 13:18:55.47	116.93	25.70	-43.2	-44.5	21.3	0.00e+00	0	37	0	894435328	60	8154
2026-01-04 13:18:56.48	117.21	25.63	-42.8	-43.9	21.8	0.00e+00	0	37	0	896532480	60	7653
2026-01-04 13:18:57.49	117.48	25.56	-42.1	-43.2	22.4	0.00e+00	0	37	0	898629632	60	7024
2026-01-04 13:18:58.50	117.75	25.49	-41.8	-42.8	22.5	0.00e+00	0	37	0	900726784	60	6729
2026-01-04 13:18:59.51	118.02	25.41	-41.7	-42.7	22.8	0.00e+00	0	37	0	902823936	60	6636
2026-01-04 13:19:00.50	118.28	25.34	-41.7	-42.7	22.8	0.00e+00	0	37	0	903872512	60	6692
2026-01-04 13:19:01.51	118.55	25.27	-41.9	-43.0	22.6	0.00e+00	0	37	0	905969664	60	6861
2026-01-04 13:19:02.52	118.82	25.19	-41.8	-42.8	22.7	0.00e+00	0	37	0	908066816	60	6755
2026-01-04 13:19:03.53	119.08	25.12	-42.0	-43.1	22.5	0.00e+00	0	37	0	910163968	60	6947
2026-01-04 13:19:04.55	119.35	25.04	-41.7	-42.7	22.8	0.00e+00	0	37	0	912261120	60	6678
2026-01-04 13:19:05.56	119.61	24.97	-41.8	-42.8	22.7	0.00e+00	0	37	0	913309696	60	6740
2026-01-04 13:19:06.57	119.87	24.89	-42.0	-43.1	22.5	0.00e+00	0	37	0	915406848	60	6951
2026-01-04 13:19:07.58	120.13	24.82	-41.8	-42.8	22.8	0.00e+00	0	37	0	917504000	60	6734
2026-01-04 13:19:08.59	120.39	24.74	-42.1	-43.2	22.4	0.00e+00	0	37	0	919601152	60	7016
2026-01-04 13:19:09.60	120.65	24.66	-42.2	-43.3	22.4	0.00e+00	0	37	0	921698304	60	7108
2026-01-04 13:19:10.61	120.90	24.58	-42.0	-43.1	22.5	0.00e+00	0	37	0	922746880	60	6940
2026-01-04 13:19:11.62	121.16	24.51	-41.4	-42.4	23.1	0.00e+00	0	37	0	924844032	60	6400
2026-01-04 13:19:12.63	121.41	24.43	-40.5	-41.4	23.8	0.00e+00	0	37	0	926941184	60	5723
2026-01-04 13:19:13.64	121.66	24.35	-40.3	-41.2	24.0	0.00e+00	0	37	0	929038336	60	5593
2026-01-04 13:19:14.65	121.91	24.27	-40.2	-41.1	24.0	0.00e+00	0	37	0	931135488	60	5524
2026-01-04 13:19:15.66	122.16	24.19	-40.4	-41.3	23.9	0.00e+00	0	37	0	932184064	60	5661
2026-01-04 13:19:16.67	122.41	24.11	-41.3	-42.3	23.1	0.00e+00	0	37	0	934281216	60	6362
2026-01-04 13:19:17.69	122.66	24.03	-41.8	-42.8	22.7	0.00e+00	0	37	0	936378368	60	6749
2026-01-04 13:19:18.70	122.91	23.95	-41.8	-42.9	22.8	0.00e+00	0	37	0	938475520	60	6800
2026-01-04 13:19:19.71	123.15	23.87	-41.5	-42.5	23.0	0.00e+00	0	37	0	940572672	60	6468
2026-01-04 13:19:20.72	123.40	23.79	-40.9	-41.8	23.6	0.00e+00	0	37	0	942669824	60	6006
2026-01-04 13:19:21.73	123.64	23.71	-40.8	-41.7	23.5	0.00e+00	0	37	0	943718400	60	5938
2026-01-04 13:19:22.74	123.88	23.63	-41.0	-42.0	23.3	0.00e+00	0	37	0	945815552	60	6118
2026-01-04 13:19:23.75	124.12	23.55	-41.6	-42.6	22.8	0.00e+00	0	37	0	947912704	60	6599
2026-01-04 13:19:24.77	124.36	23.47	-41.6	-42.6	22.9	0.00e+00	0	37	0	950009856	60	6598
2026-01-04 13:19:25.77	124.60	23.39	-41.8	-42.8	22.7	0.00e+00	0	37	0	952107008	60	6749
2026-01-04 13:19:26.79	124.84	23.30	-41.4	-42.4	23.1	0.00e+00	0	37	0	953155584	60	6436
2026-01-04 13:19:27.80	125.07	23.22	-40.8	-41.7	23.6	0.00e+00	0	37	0	955252736	60	5948
2026-01-04 13:19:28.81	125.31	23.14	-40.7	-41.6	23.6	0.00e+00	0	37	0	957349888	60	5875
2026-01-04 13:19:29.82	125.54	23.05	-40.5	-41.4	23.8	0.00e+00	0	37	0	959447040	60	5728
2026-01-04 13:19:30.83	125.77	22.97	-41.1	-42.1	23.2	0.00e+00	0	37	0	961544192	60	6176
2026-01-04 13:19:31.84	126.00	22.89	-42.0	-43.1	22.4	0.00e+00	0	37	0	962592768	60	6952
2026-01-04 13:19:32.85	126.23	22.80	-42.7	-43.9	21.8	0.00e+00	0	37	0	964689920	60	7631
2026-01-04 13:19:33.86	126.46	22.72	-42.9	-44.2	21.5	0.00e+00	0	37	0	966787072	60	7896
2026-01-04 13:19:34.88	126.69	22.64	-42.7	-43.9	21.7	0.00e+00	0	37	0	968884224	60	7626
2026-01-04 13:19:35.89	126.91	22.55	-41.8	-42.9	22.6	0.00e+00	0	37	0	970981376	60	6796
2026-01-04 13:19:36.90	127.14	22.47	-41.0	-41.9	23.4	0.00e+00	0	37	0	972029952	60	6089
2026-01-04 13:19:37.91	127.36	22.38	-40.6	-41.4	23.6	0.00e+00	0	37	0	974127104	60	5759
2026-01-04 13:19:38.92	127.58	22.30	-40.4	-41.3	23.8	0.00e+00	0	37	0	976224256	60	5664
2026-01-04 13:19:39.93	127.80	22.22	-40.5	-41.4	23.8	0.00e+00	0	37	0	978321408	60	5728
2026-01-04 13:19:40.94	128.02	22.13	-40.5	-41.5	23.6	0.00e+00	0	37	0	980418560	60	5772
2026-01-04 13:19:41.96	128.24	22.04	-40.6	-41.5	23.7	0.00e+00	0	37	0	982515712	60	5807
2026-01-04 13:19:42.97	128.46	21.96	-40.4	-41.4	23.8	0.00e+00	0	37	0	983564288	60	5698
2026-01-04 13:19:43.98	128.68	21.87	-40.5	-41.4	23.7	0.00e+00	0	37	0	985661440	60	5732
2026-01-04 13:19:44.99	128.89	21.79	-40.6	-41.5	23.6	0.00e+00	0	37	0	987758592	60	5790
2026-01-04 13:19:46.00	129.11	21.70	-41.3	-42.2	23.0	0.00e+00	0	37	0	989855744	60	6317
2026-01-04 13:19:47.01	129.32	21.62	-42.0	-43.1	22.3	0.00e+00	0	37	0	991952896	60	6941
2026-01-04 13:19:48.02	129.53	21.53	-43.1	-44.3	21.4	0.00e+00	0	37	0	993001472	60	7997
2026-01-04 13:19:49.03	129.74	21.45	-43.8	-45.2	20.6	0.00e+00	0	37	0	995098624	60	8900
2026-01-04 13:19:50.04	129.95	21.36	-44.4	-45.9	19.9	0.00e+00	0	37	0	997195776	60	9600
2026-01-04 13:19:51.06	130.16	21.27	-44.0	-45.4	20.6	0.00e+00	0	37	0	999292928	60	9065
2026-01-04 13:19:52.07	130.37	21.19	-43.4	-44.7	21.1	0.00e+00	0	37	0	1001390080	60	8334
2026-01-04 13:19:53.08	130.57	21.10	-43.0	-44.2	21.4	0.00e+00	0	37	0	1002438656	60	7905
2026-01-04 13:19:54.09	130.78	21.02	-42.7	-43.8	21.8	0.00e+00	0	37	0	1004535808	60	7566
2026-01-04 13:19:55.10	130.98	20.93	-42.0	-43.1	22.4	0.00e+00	0	37	0	1006632960	60	6970
2026-01-04 13:19:56.11	131.19	20.84	-41.7	-42.8	22.8	0.00e+00	0	37	0	1008730112	60	6705
2026-01-04 13:19:57.12	131.39	20.76	-41.7	-42.7	22.7	0.00e+00	0	37	0	1010827264	60	6684
2026-01-04 13:19:58.13	131.59	20.67	-41.7	-42.7	22.8	0.00e+00	0	37	0	1011875840	60	6645
2026-01-04 13:19:59.14	131.79	20.59	-41.5	-42.5	22.9	0.00e+00	0	37	0	1013972992	60	6496
2026-01-04 13:20:00.15	131.99	20.50	-41.2	-42.2	23.0	0.00e+00	0	37	0	1016070144	60	6276
2026-01-04 13:20:01.16	132.18	20.41	-40.8	-41.7	23.2	0.00e+00	0	37	0	1018167296	60	5935
2026-01-04 13:20:02.17	132.38	20.33	-40.5	-41.5	23.6	0.00e+00	0	37	0	1020264448	60	5764
2026-01-04 13:20:03.18	132.57	20.24	-40.3	-41.2	23.8	0.00e+00	0	37	0	1022361600	60	5620
2026-01-04 13:20:04.19	132.77	20.15	-40.6	-41.5	23.6	0.00e+00	0	37	0	1023410176	60	5802
2026-01-04 13:20:05.20	132.96	20.07	-40.9	-41.8	23.3	0.00e+00	0	37	0	1025507328	60	6027
2026-01-04 13:20:06.22	133.15	19.98	-41.2	-42.2	23.1	0.00e+00	0	37	0	1027604480	60	6267
2026-01-04 13:20:07.23	133.35	19.89	-41.4	-42.4	22.9	0.00e+00	0	37	0	1029701632	60	6428
2026-01-04 13:20:08.24	133.54	19.81	-41.6	-42.6	22.8	0.00e+00	0	37	0	1031798784	60	6589
2026-01-04 13:20:09.25	133.72	19.72	-41.5	-42.6	22.8	0.00e+00	0	37	0	1032847360	60	6556
2026-01-04 13:20:10.26	133.91	19.63	-41.5	-42.5	22.8	0.00e+00	0	37	0	1034944512	60	6490
2026-01-04 13:20:11.27	134.10	19.55	-41.3	-42.3	23.0	0.00e+00	0	37	0	1037041664	60	6371
2026-01-04 13:20:12.28	134.28	19.46	-41.3	-42.3	23.0	0.00e+00	0	37	0	1039138816	60	6340
2026-01-04 13:20:13.30	134.47	19.37	-41.4	-42.4	22.9	0.00e+00	0	37	0	1041235968	60	6426
2026-01-04 13:20:14.31	134.65	19.28	-41.9	-42.9	22.5	0.00e+00	0	37	0	1042284544	60	6815
2026-01-04 13:20:15.32	134.84	19.20	-42.2	-43.3	22.1	0.00e+00	0	37	0	1044381696	60	7163
2026-01-04 13:20:16.33	135.02	19.11	-42.3	-43.5	22.1	0.00e+00	0	37	0	1046478848	60	7255
2026-01-04 13:20:17.34	135.20	19.03	-42.3	-43.4	22.1	0.00e+00	0	37	0	1048576000	60	7215
2026-01-04 13:20:18.35	135.38	18.94	-42.1	-43.2	22.2	0.00e+00	0	37	0	1050673152	60	7051
2026-01-04 13:20:19.36	135.56	18.85	-41.8	-42.9	22.6	0.00e+00	0	37	0	1051721728	60	6778
2026-01-04 13:20:20.37	135.73	18.77	-40.9	-41.8	23.2	0.00e+00	0	37	0	1053818880	60	6029
2026-01-04 13:20:21.38	135.91	18.68	-40.4	-41.3	23.7	0.00e+00	0	37	0	1055916032	60	5661
2026-01-04 13:20:22.39	136.09	18.59	-40.4	-41.3	23.7	0.00e+00	0	37	0	1058013184	60	5661
2026-01-04 13:20:23.41	136.26	18.51	-40.6	-41.5	23.5	0.00e+00	0	37	0	1060110336	60	5793
2026-01-04 13:20:24.42	136.44	18.42	-40.3	-41.2	23.8	0.00e+00	0	37	0	1062207488	60	5598
2026-01-04 13:20:25.43	136.61	18.33	-40.4	-41.3	23.6	0.00e+00	0	37	0	1063256064	60	5680
2026-01-04 13:20:26.44	136.78	18.25	-40.2	-41.1	23.8	0.00e+00	0	37	0	1065353216	60	5516
2026-01-04 13:20:27.45	136.95	18.16	-40.3	-41.2	23.8	0.00e+00	0	37	0	1067450368	60	5588
2026-01-04 13:20:28.46	137.12	18.07	-40.3	-41.2	23.8	0.00e+00	0	37	0	1069547520	60	5596
2026-01-04 13:20:29.47	137.29	17.99	-40.3	-41.2	23.9	0.00e+00	0	37	0	1071644672	60	5569
2026-01-04 13:20:30.48	137.46	17.90	-40.0	-40.9	24.0	0.00e+00	0	37	0	1072693248	58	6041
2026-01-04 13:20:31.49	137.63	17.82	-40.2	-41.0	23.9	0.00e+00	0	37	0	1074790400	58	6167
2026-01-04 13:20:32.50	137.79	17.73	-40.2	-41.1	23.9	0.00e+00	0	37	0	1076887552	58	6197
2026-01-04 13:20:33.52	137.96	17.64	-40.3	-41.2	23.7	0.00e+00	0	37	0	1078984704	58	6254
2026-01-04 13:20:34.53	138.13	17.56	-40.4	-41.3	23.7	0.00e+00	0	37	0	1081081856	58	6340
2026-01-04 13:20:35.54	138.29	17.47	-40.5	-41.4	23.6	0.00e+00	0	37	0	1082130432	58	6453
2026-01-04 13:20:36.55	138.45	17.39	-40.5	-41.4	23.4	0.00e+00	0	37	0	1084227584	58	6458
2026-01-04 13:20:37.56	138.61	17.30	-40.6	-41.6	22.9	0.00e+00	0	37	0	1086324736	58	6549
2026-01-04 13:20:38.57	138.77	17.22	-40.6	-41.5	23.2	0.00e+00	0	37	0	1088421888	58	6535
2026-01-04 13:20:39.58	138.93	17.13	-40.8	-41.8	23.4	0.00e+00	0	37	0	1090519040	58	6705
2026-01-04 13:20:40.60	139.09	17.05	-40.9	-41.9	23.2	0.00e+00	0	37	0	1091567616	58	6795
2026-01-04 13:20:41.61	139.25	16.96	-40.7	-41.6	23.4	0.00e+00	0	37	0	1093664768	58	6593
2026-01-04 13:20:42.62	139.41	16.88	-40.8	-41.8	22.7	0.00e+00	0	37	0	1095761920	58	6725
2026-01-04 13:20:43.63	139.57	16.79	-40.6	-41.5	23.0	0.00e+00	0	37	0	1097859072	58	6539
2026-01-04 13:20:44.64	139.72	16.71	-40.3	-41.2	23.6	0.00e+00	0	37	0	1099956224	58	6300
2026-01-04 13:20:45.65	139.88	16.62	-40.4	-41.3	23.6	0.00e+00	0	37	0	1101004800	58	6363
2026-01-04 13:20:46.66	140.03	16.54	-40.1	-41.0	23.8	0.00e+00	0	37	0	1103101952	58	6145
2026-01-04 13:20:47.67	140.18	16.45	-40.1	-41.0	23.7	0.00e+00	0	37	0	1105199104	58	6170
2026-01-04 13:20:48.68	140.34	16.37	-40.2	-41.1	23.7	0.00e+00	0	37	0	1107296256	58	6189
2026-01-04 13:20:49.69	140.49	16.28	-40.2	-41.1	23.7	0.00e+00	0	37	0	1109393408	58	6219
2026-01-04 13:20:50.70	140.64	16.20	-40.3	-41.2	23.7	0.00e+00	0	37	0	1110441984	58	6309
2026-01-04 13:20:51.72	140.79	16.11	-40.6	-41.5	23.4	0.00e+00	0	37	0	1112539136	58	6528
2026-01-04 13:20:52.73	140.94	16.03	-40.7	-41.6	23.5	0.00e+00	0	37	0	1114636288	58	6576
2026-01-04 13:20:53.74	141.09	15.95	-40.6	-41.5	23.5	0.00e+00	0	37	0	1116733440	58	6531
2026-01-04 13:20:54.75	141.24	15.86	-40.7	-41.7	23.3	0.00e+00	0	37	0	1118830592	58	6627
2026-01-04 13:20:55.76	141.38	15.78	-40.7	-41.6	23.3	0.00e+00	0	37	0	1119879168	58	6594
2026-01-04 13:20:56.77	141.53	15.70	-40.4	-41.3	23.6	0.00e+00	0	37	0	1121976320	58	6379
2026-01-04 13:20:57.78	141.67	15.61	-40.4	-41.3	23.6	0.00e+00	0	37	0	1124073472	58	6344
2026-01-04 13:20:58.80	141.82	15.53	-40.5	-41.4	23.5	0.00e+00	0	37	0	1126170624	58	6437
2026-01-04 13:20:59.81	141.96	15.45	-40.5	-41.4	23.5	0.00e+00	0	37	0	1128267776	58	6421
2026-01-04 13:21:00.82	142.11	15.36	-40.6	-41.5	23.5	0.00e+00	0	37	0	1130364928	58	6515
2026-01-04 13:21:01.83	142.25	15.28	-41.0	-42.0	23.1	0.00e+00	0	37	0	1131413504	58	6863
2026-01-04 13:21:02.84	142.39	15.20	-41.1	-42.0	23.0	0.00e+00	0	37	0	1133510656	58	6911
2026-01-04 13:21:03.85	142.53	15.11	-41.4	-42.4	22.8	0.00e+00	0	37	0	1135607808	60	6433
2026-01-04 13:21:04.87	142.67	15.03	-41.8	-42.9	22.3	0.00e+00	0	37	0	1137704960	60	6791
2026-01-04 13:21:05.88	142.81	14.95	-41.9	-43.0	22.1	0.00e+00	0	37	0	1139802112	60	6895
2026-01-04 13:21:06.89	142.95	14.87	-42.0	-43.1	22.0	0.00e+00	0	37	0	1140850688	60	6988
2026-01-04 13:21:07.90	143.08	14.78	-42.0	-43.2	22.2	0.00e+00	0	37	0	1142947840	60	7009
2026-01-04 13:21:08.91	143.22	14.70	-41.9	-43.0	22.3	0.00e+00	0	37	0	1145044992	60	6888
2026-01-04 13:21:09.92	143.36	14.62	-42.1	-43.3	22.0	0.00e+00	0	37	0	1147142144	60	7090
2026-01-04 13:21:10.93	143.49	14.54	-41.7	-42.8	22.4	0.00e+00	0	37	0	1149239296	60	6732
2026-01-04 13:21:11.94	143.63	14.46	-41.7	-42.8	22.4	0.00e+00	0	37	0	1150287872	60	6712
2026-01-04 13:21:12.95	143.76	14.37	-41.7	-42.7	22.4	0.00e+00	0	37	0	1152385024	60	6664
2026-01-04 13:21:13.96	143.89	14.29	-41.4	-42.4	22.7	0.00e+00	0	37	0	1154482176	60	6422
2026-01-04 13:21:14.97	144.03	14.21	-41.4	-42.4	22.7	0.00e+00	0	37	0	1156579328	60	6423
2026-01-04 13:21:15.98	144.16	14.13	-41.7	-42.7	22.4	0.00e+00	0	37	0	1158676480	60	6657
2026-01-04 13:21:17.00	144.29	14.05	-41.7	-42.7	22.4	0.00e+00	0	37	0	1159725056	60	6671
2026-01-04 13:21:18.01	144.42	13.97	-42.1	-43.2	22.1	0.00e+00	0	37	0	1161822208	60	7039
2026-01-04 13:21:19.02	144.55	13.89	-42.2	-43.3	21.8	0.00e+00	0	37	0	1163919360	60	7165
2026-01-04 13:21:20.03	144.68	13.81	-42.5	-43.7	21.6	0.00e+00	0	37	0	1166016512	60	7473
2026-01-04 13:21:21.04	144.81	13.73	-43.0	-44.2	21.2	0.00e+00	0	37	0	1168113664	60	7931
2026-01-04 13:21:22.05	144.94	13.65	-43.2	-44.5	20.9	0.00e+00	0	37	0	1169162240	60	8178
2026-01-04 13:21:23.06	145.06	13.57	-43.5	-44.9	20.6	0.00e+00	0	37	0	1171259392	60	8527
2026-01-04 13:21:24.07	145.19	13.49	-43.7	-45.1	20.4	0.00e+00	0	37	0	1173356544	60	8794
2026-01-04 13:21:25.08	145.32	13.41	-43.5	-44.8	20.7	0.00e+00	0	37	0	1175453696	60	8462
2026-01-04 13:21:26.09	145.44	13.33	-43.6	-44.9	20.6	0.00e+00	0	37	0	1177550848	60	8572
2026-01-04 13:21:27.11	145.57	13.25	-43.3	-44.5	20.9	0.00e+00	0	37	0	1179648000	60	8229
2026-01-04 13:21:28.12	145.69	13.17	-43.2	-44.4	21.0	0.00e+00	0	37	0	1180696576	60	8121
2026-01-04 13:21:29.13	145.81	13.09	-43.5	-44.8	20.8	0.00e+00	0	37	0	1182793728	60	8474
2026-01-04 13:21:30.14	145.94	13.01	-43.1	-44.4	21.1	0.00e+00	0	37	0	1184890880	60	8083
2026-01-04 13:21:31.15	146.06	12.93	-43.2	-44.5	21.0	0.00e+00	0	37	0	1186988032	60	8207
2026-01-04 13:21:32.16	146.18	12.85	-43.0	-44.2	21.2	0.00e+00	0	37	0	1189085184	60	7927
2026-01-04 13:21:33.17	146.30	12.77	-42.9	-44.2	21.4	0.00e+00	0	37	0	1190133760	60	7877
2026-01-04 13:21:34.18	146.42	12.69	-42.9	-44.1	21.3	0.00e+00	0	37	0	1192230912	60	7782
2026-01-04 13:21:35.19	146.54	12.61	-42.9	-44.2	21.3	0.00e+00	0	37	0	1194328064	60	7870
2026-01-04 13:21:36.20	146.66	12.54	-42.9	-44.1	21.3	0.00e+00	0	37	0	1196425216	60	7778
2026-01-04 13:21:37.21	146.78	12.46	-42.6	-43.8	21.6	0.00e+00	0	37	0	1198522368	60	7550
2026-01-04 13:21:38.23	146.89	12.38	-42.7	-43.9	21.5	0.00e+00	0	37	0	1199570944	60	7637
2026-01-04 13:21:39.24	147.01	12.30	-42.6	-43.7	21.7	0.00e+00	0	37	0	1201668096	60	7503
2026-01-04 13:21:40.25	147.13	12.22	-42.1	-43.3	22.0	0.00e+00	0	37	0	1203765248	60	7094
2026-01-04 13:21:41.26	147.24	12.14	-42.1	-43.2	22.1	0.00e+00	0	37	0	1205862400	60	7029
2026-01-04 13:21:42.27	147.36	12.07	-42.2	-43.4	22.1	0.00e+00	0	37	0	1207959552	60	7176
2026-01-04 13:21:43.28	147.47	11.99	-41.8	-42.9	22.4	0.00e+00	0	37	0	1209008128	60	6818
2026-01-04 13:21:44.29	147.59	11.91	-41.9	-42.9	22.4	0.00e+00	0	37	0	1211105280	60	6822
2026-01-04 13:21:45.31	147.70	11.83	-41.6	-42.6	22.6	0.00e+00	0	37	0	1213202432	60	6602
2026-01-04 13:21:46.32	147.81	11.76	-41.5	-42.5	22.7	0.00e+00	0	37	0	1215299584	60	6504
2026-01-04 13:21:47.33	147.93	11.68	-41.8	-42.8	22.4	0.00e+00	0	37	0	1217396736	60	6721
2026-01-04 13:21:48.34	148.04	11.60	-41.7	-42.7	22.6	0.00e+00	0	37	0	1219493888	60	6657
2026-01-04 13:21:49.35	148.15	11.53	-41.7	-42.7	22.6	0.00e+00	0	37	0	1220542464	60	6657
