passes_logs/2026/01/06/R4.6S_Anadyr/R4.6S_Anadyr__20260106_215954_NOAA_21_JPSS-2_rec.log

#Pass ID: 20260106_215954_NOAA 21 (JPSS-2)
#Satellite: NOAA 21 (JPSS-2)
#Configuration: NOAA-21
#almurnet v.1.7.20251203
#Start time: 2026-01-06 21:59:55

#Version: 2.2.20231116
#Station: R4.6S_Anadyr
#Location: 177.4865 lon 64.73178 lat
#TLE: 1 54234U 22150A   26005.42670836  .00000142  00000+0  88292-4 0  9996
#TLE: 2 54234  98.7490 306.4427 0001045 340.6622  19.4514 14.19532269163451

#Time	Az	El	Level	Level2	SNR	BER	BlckErr	Temp	State	Recorded	gain1	gain2
2026-01-06 21:59:55.57	103.03	0.07	-48.9	-63.8	3.5	1.51e+00	0	31	0	0	60	55886
2026-01-06 21:59:56.58	102.98	0.13	-48.9	-61.7	3.5	1.52e+00	0	32	104	0	60	42777
2026-01-06 21:59:57.59	102.93	0.18	-48.9	-61.8	3.5	1.52e+00	0	32	104	0	60	42993
2026-01-06 21:59:58.60	102.88	0.24	-48.9	-61.7	3.5	1.52e+00	0	32	104	0	60	42835
2026-01-06 21:59:59.61	102.83	0.29	-48.9	-61.7	3.5	1.52e+00	0	32	104	0	60	42857
2026-01-06 22:00:00.62	102.77	0.35	-48.8	-61.8	3.5	1.51e+00	0	32	104	0	60	42936
2026-01-06 22:00:01.63	102.72	0.41	-49.0	-61.8	3.5	1.52e+00	0	33	104	0	60	43044
2026-01-06 22:00:02.64	102.67	0.46	-48.8	-61.8	3.5	1.52e+00	0	33	104	0	60	43309
2026-01-06 22:00:03.65	102.61	0.52	-49.0	-61.8	3.5	1.51e+00	0	33	104	0	60	43312
2026-01-06 22:00:04.66	102.56	0.58	-48.8	-61.8	3.5	1.52e+00	0	33	104	0	60	43015
2026-01-06 22:00:05.67	102.51	0.63	-48.9	-61.8	3.5	1.52e+00	0	33	104	0	60	43283
2026-01-06 22:00:06.68	102.45	0.69	-48.9	-61.8	3.5	1.52e+00	0	33	104	0	60	43178
2026-01-06 22:00:07.68	102.40	0.74	-48.8	-61.7	3.5	1.51e+00	0	33	104	0	60	42602
2026-01-06 22:00:08.70	102.35	0.80	-48.8	-61.6	3.5	1.51e+00	0	33	104	0	60	42289
2026-01-06 22:00:09.71	102.29	0.86	-48.6	-61.5	3.5	1.52e+00	0	33	104	0	60	41562
2026-01-06 22:00:10.72	102.24	0.92	-48.5	-61.3	3.5	1.52e+00	0	33	104	0	60	40879
2026-01-06 22:00:11.73	102.18	0.97	-48.1	-61.0	3.5	1.51e+00	0	33	104	0	60	39239
2026-01-06 22:00:12.74	102.13	1.03	-47.2	-60.2	3.5	1.52e+00	0	33	104	0	60	35766
2026-01-06 22:00:13.75	102.07	1.09	-46.8	-60.1	3.5	1.52e+00	0	33	104	0	60	35506
2026-01-06 22:00:14.76	102.01	1.14	-46.8	-60.1	3.5	1.52e+00	0	33	104	0	60	35649
2026-01-06 22:00:15.77	101.96	1.20	-46.8	-60.1	3.5	1.52e+00	0	33	104	0	60	35343
2026-01-06 22:00:16.77	101.90	1.26	-46.8	-60.0	3.5	1.52e+00	0	33	104	0	60	35163
2026-01-06 22:00:17.78	101.85	1.32	-46.8	-60.0	3.5	1.52e+00	0	33	104	0	60	35033
2026-01-06 22:00:18.79	101.79	1.37	-46.8	-60.0	3.5	1.52e+00	0	33	104	0	60	35133
2026-01-06 22:00:19.80	101.73	1.43	-46.8	-60.0	3.5	1.52e+00	0	33	104	0	60	34944
2026-01-06 22:00:20.82	101.68	1.49	-46.8	-60.0	3.5	1.52e+00	0	33	104	0	60	35185
2026-01-06 22:00:21.82	101.62	1.55	-46.8	-60.0	3.5	1.52e+00	0	33	104	0	60	35263
2026-01-06 22:00:22.84	101.56	1.60	-46.8	-60.1	3.5	1.52e+00	0	33	104	0	60	35420
2026-01-06 22:00:23.84	101.50	1.66	-46.8	-60.2	3.5	1.52e+00	0	33	104	0	60	35743
2026-01-06 22:00:24.86	101.45	1.72	-46.7	-60.1	3.5	1.52e+00	0	33	104	0	60	35449
2026-01-06 22:00:25.87	101.39	1.78	-46.8	-60.2	3.5	1.52e+00	0	33	104	0	60	35780
2026-01-06 22:00:26.88	101.33	1.84	-46.8	-60.1	3.5	1.52e+00	0	33	104	0	60	35657
2026-01-06 22:00:27.89	101.27	1.90	-46.8	-60.1	3.5	1.52e+00	0	33	104	0	60	35614
2026-01-06 22:00:28.90	101.21	1.95	-46.8	-60.1	3.5	1.51e+00	0	33	104	0	60	35532
2026-01-06 22:00:29.90	101.15	2.01	-46.7	-60.1	3.5	1.52e+00	0	33	104	0	60	35589
2026-01-06 22:00:30.92	101.09	2.07	-46.8	-60.0	3.5	1.52e+00	0	33	104	0	60	35144
2026-01-06 22:00:31.93	101.03	2.13	-46.7	-59.9	3.5	1.52e+00	0	33	104	0	60	34810
2026-01-06 22:00:32.94	100.97	2.19	-46.8	-59.9	3.5	1.52e+00	0	33	104	0	60	34499
2026-01-06 22:00:33.95	100.91	2.25	-46.8	-59.8	3.5	1.51e+00	0	33	104	0	60	34317
2026-01-06 22:00:34.96	100.85	2.31	-46.8	-59.9	3.5	1.52e+00	0	33	104	0	60	34545
2026-01-06 22:00:35.96	100.79	2.37	-46.8	-60.0	3.5	1.52e+00	0	33	104	0	60	35158
2026-01-06 22:00:36.97	100.73	2.42	-46.8	-60.1	3.5	1.52e+00	0	33	104	0	60	35655
2026-01-06 22:00:37.98	100.67	2.48	-46.8	-60.1	3.5	1.51e+00	0	33	104	0	60	35592
2026-01-06 22:00:38.99	100.61	2.54	-46.7	-60.1	3.5	1.52e+00	0	33	104	0	60	35461
2026-01-06 22:00:40.00	100.55	2.60	-46.7	-60.1	3.5	1.52e+00	0	33	104	0	60	35507
2026-01-06 22:00:41.01	100.49	2.66	-46.7	-60.1	3.5	1.52e+00	0	33	104	0	60	35589
2026-01-06 22:00:42.02	100.43	2.72	-46.8	-60.1	3.5	1.52e+00	0	33	104	0	60	35690
2026-01-06 22:00:43.03	100.36	2.78	-46.8	-60.0	3.5	1.51e+00	0	33	104	0	60	35272
2026-01-06 22:00:44.04	100.30	2.84	-46.7	-59.8	3.5	1.52e+00	0	33	104	0	60	34178
2026-01-06 22:00:45.05	100.24	2.90	-46.7	-59.3	3.5	1.52e+00	0	33	104	0	60	32347
2026-01-06 22:00:46.06	100.17	2.96	-46.7	-59.2	3.5	1.52e+00	0	33	104	0	60	31965
2026-01-06 22:00:47.07	100.11	3.02	-46.7	-59.5	3.5	1.52e+00	0	33	104	0	60	33316
2026-01-06 22:00:48.08	100.05	3.08	-46.8	-59.8	3.5	1.52e+00	0	33	104	0	60	34416
2026-01-06 22:00:49.09	99.98	3.14	-46.6	-58.0	3.6	1.51e+00	0	33	104	0	60	27802
2026-01-06 22:00:50.10	99.92	3.20	-46.1	-54.3	5.5	6.04e-01	122	33	104	0	60	18295
2026-01-06 22:00:51.11	99.85	3.26	-45.3	-50.3	8.4	1.13e-01	120	33	0	2097152	60	11491
2026-01-06 22:00:52.12	99.79	3.32	-44.2	-47.8	11.3	3.92e-03	123	33	0	5242880	60	8658
2026-01-06 22:00:53.13	99.72	3.38	-43.4	-46.5	12.7	9.99e-05	120	33	0	8388608	60	7376
2026-01-06 22:00:54.14	99.66	3.44	-46.7	-60.2	3.5	1.51e+00	0	33	104	10485760	60	35954
2026-01-06 22:00:55.15	99.59	3.51	-46.4	-59.8	3.5	1.52e+00	0	33	104	10485760	60	34389
2026-01-06 22:00:56.16	99.53	3.57	-42.9	-46.8	13.3	2.63e-04	122	33	104	10485760	58	8640
2026-01-06 22:00:57.16	99.46	3.63	-38.0	-39.3	20.1	0.00e+00	122	33	0	12582912	50	5751
2026-01-06 22:00:58.18	99.39	3.69	-44.7	-58.4	3.5	1.52e+00	0	33	104	13631488	60	29250
2026-01-06 22:00:59.19	99.33	3.75	-39.0	-40.8	18.0	7.62e-01	122	33	104	13631488	52	6104
2026-01-06 22:01:00.20	99.26	3.81	-38.3	-39.7	19.5	0.00e+00	120	33	0	14680064	50	5995
2026-01-06 22:01:01.21	99.19	3.87	-37.9	-39.1	20.1	0.00e+00	123	33	0	17825792	50	5656
2026-01-06 22:01:02.22	99.12	3.94	-37.8	-39.1	20.2	0.00e+00	123	33	0	20971520	48	6282
2026-01-06 22:01:03.22	99.06	4.00	-37.6	-38.9	20.3	0.00e+00	122	33	0	24117248	48	6168
2026-01-06 22:01:04.23	98.99	4.06	-37.8	-39.0	20.2	0.00e+00	123	33	0	27262976	48	6244
2026-01-06 22:01:05.24	98.92	4.12	-37.7	-39.0	20.3	0.00e+00	122	33	0	30408704	48	6227
2026-01-06 22:01:06.25	98.85	4.18	-37.8	-39.0	20.3	0.00e+00	121	33	0	33554432	48	6236
2026-01-06 22:01:07.26	98.78	4.24	-37.9	-39.1	20.2	0.00e+00	122	34	0	36700160	48	6338
2026-01-06 22:01:08.27	98.71	4.31	-37.8	-39.0	20.3	0.00e+00	123	34	0	39845888	48	6216
2026-01-06 22:01:09.28	98.64	4.37	-37.9	-39.1	20.2	0.00e+00	123	33	0	42991616	48	6329
2026-01-06 22:01:10.29	98.57	4.43	-37.9	-39.1	20.2	0.00e+00	123	33	0	46137344	48	6298
2026-01-06 22:01:11.30	98.50	4.49	-37.9	-39.1	20.3	0.00e+00	122	33	0	49283072	48	6323
2026-01-06 22:01:12.31	98.43	4.56	-37.7	-38.9	20.4	0.00e+00	120	33	0	52428800	48	6167
2026-01-06 22:01:13.32	98.36	4.62	-37.7	-38.9	20.4	0.00e+00	122	34	0	55574528	48	6185
2026-01-06 22:01:14.33	98.29	4.68	-37.7	-38.9	20.4	0.00e+00	122	33	0	58720256	48	6182
2026-01-06 22:01:15.34	98.22	4.74	-37.8	-39.1	20.3	0.00e+00	123	34	0	62914560	48	6278
2026-01-06 22:01:16.35	98.14	4.81	-37.9	-39.1	20.3	0.00e+00	122	34	0	66060288	48	6329
2026-01-06 22:01:17.36	98.07	4.87	-37.7	-38.9	20.5	0.00e+00	122	33	0	68157440	48	6189
2026-01-06 22:01:18.37	98.00	4.93	-37.7	-38.9	20.5	0.00e+00	122	34	0	71303168	48	6183
2026-01-06 22:01:19.38	97.93	5.00	-37.8	-39.0	20.5	0.00e+00	120	33	0	75497472	48	6230
2026-01-06 22:01:20.39	97.85	5.06	-37.5	-38.7	20.8	0.00e+00	123	34	0	78643200	48	6046
2026-01-06 22:01:21.40	97.78	5.12	-37.5	-38.6	20.8	0.00e+00	123	34	0	81788928	48	5991
2026-01-06 22:01:22.41	97.71	5.19	-37.4	-38.6	20.9	0.00e+00	122	33	0	84934656	48	5961
2026-01-06 22:01:23.42	97.63	5.25	-37.5	-38.6	20.9	0.00e+00	123	34	0	88080384	48	5982
2026-01-06 22:01:24.43	97.56	5.32	-37.4	-38.6	21.0	0.00e+00	122	34	0	90177536	48	5928
2026-01-06 22:01:25.44	97.48	5.38	-37.3	-38.4	21.1	0.00e+00	123	34	0	94371840	48	5825
2026-01-06 22:01:26.45	97.41	5.44	-37.2	-38.4	21.2	0.00e+00	123	34	0	97517568	48	5801
2026-01-06 22:01:27.46	97.33	5.51	-37.1	-38.2	21.3	0.00e+00	122	34	0	100663296	48	5669
2026-01-06 22:01:28.47	97.25	5.57	-37.2	-38.3	21.2	0.00e+00	123	34	0	103809024	48	5772
2026-01-06 22:01:29.48	97.18	5.64	-37.2	-38.3	21.2	0.00e+00	123	34	0	106954752	48	5748
2026-01-06 22:01:30.49	97.10	5.70	-37.2	-38.3	21.2	0.00e+00	122	34	0	110100480	48	5746
2026-01-06 22:01:31.50	97.02	5.77	-37.1	-38.2	21.3	0.00e+00	122	34	0	113246208	48	5692
2026-01-06 22:01:32.51	96.95	5.83	-37.2	-38.3	21.1	0.00e+00	122	34	0	116391936	48	5790
2026-01-06 22:01:33.52	96.87	5.90	-37.1	-38.2	21.3	0.00e+00	123	34	0	119537664	48	5725
2026-01-06 22:01:34.53	96.79	5.96	-37.1	-38.2	21.3	0.00e+00	123	34	0	122683392	48	5702
2026-01-06 22:01:35.54	96.71	6.03	-36.9	-38.0	21.5	0.00e+00	120	34	0	125829120	48	5563
2026-01-06 22:01:36.55	96.63	6.09	-37.0	-38.1	21.4	0.00e+00	123	34	0	128974848	48	5654
2026-01-06 22:01:37.56	96.55	6.16	-37.1	-38.2	21.2	0.00e+00	123	34	0	132120576	48	5707
2026-01-06 22:01:38.57	96.47	6.22	-37.0	-38.2	21.3	0.00e+00	122	34	0	135266304	48	5673
2026-01-06 22:01:39.58	96.39	6.29	-37.0	-38.1	21.4	0.00e+00	123	34	0	138412032	48	5655
2026-01-06 22:01:40.59	96.31	6.35	-37.0	-38.1	21.4	0.00e+00	123	34	0	141557760	48	5622
2026-01-06 22:01:41.60	96.23	6.42	-37.1	-38.2	21.4	0.00e+00	122	34	0	144703488	48	5665
2026-01-06 22:01:42.61	96.15	6.49	-37.1	-38.2	21.4	0.00e+00	123	34	0	147849216	48	5687
2026-01-06 22:01:43.62	96.07	6.55	-37.1	-38.2	21.3	0.00e+00	123	34	0	150994944	48	5717
2026-01-06 22:01:44.63	95.99	6.62	-37.0	-38.1	21.5	0.00e+00	122	34	0	154140672	48	5624
2026-01-06 22:01:45.65	95.90	6.68	-37.1	-38.2	21.3	0.00e+00	123	34	0	157286400	48	5715
2026-01-06 22:01:46.66	95.82	6.75	-37.1	-38.2	21.3	0.00e+00	123	34	0	160432128	48	5703
2026-01-06 22:01:47.67	95.74	6.82	-37.0	-38.1	21.5	0.00e+00	123	34	0	163577856	48	5645
2026-01-06 22:01:48.68	95.65	6.88	-36.8	-38.0	21.6	0.00e+00	123	34	0	166723584	48	5533
2026-01-06 22:01:49.69	95.57	6.95	-36.8	-37.9	21.6	0.00e+00	123	34	0	169869312	48	5508
2026-01-06 22:01:50.70	95.49	7.02	-37.0	-38.1	21.5	0.00e+00	123	34	0	173015040	48	5618
2026-01-06 22:01:51.71	95.40	7.08	-36.8	-37.9	21.8	0.00e+00	122	34	0	176160768	48	5480
2026-01-06 22:01:52.72	95.32	7.15	-37.0	-38.0	21.6	0.00e+00	123	34	0	179306496	48	5593
2026-01-06 22:01:53.73	95.23	7.22	-36.7	-37.8	21.9	0.00e+00	124	34	0	182452224	46	6088
2026-01-06 22:01:54.74	95.14	7.29	-36.7	-37.8	21.8	0.00e+00	123	34	0	185597952	46	6088
2026-01-06 22:01:55.75	95.06	7.35	-36.9	-38.0	21.7	0.00e+00	122	34	0	188743680	46	6239
2026-01-06 22:01:56.76	94.97	7.42	-36.6	-37.7	21.9	0.00e+00	122	34	0	191889408	46	6012
2026-01-06 22:01:57.77	94.88	7.49	-36.7	-37.7	21.9	0.00e+00	123	34	0	195035136	46	6037
2026-01-06 22:01:58.78	94.80	7.56	-36.5	-37.5	22.1	0.00e+00	123	34	0	198180864	46	5905
2026-01-06 22:01:59.79	94.71	7.62	-36.5	-37.5	22.1	0.00e+00	123	34	0	201326592	46	5909
2026-01-06 22:02:00.80	94.62	7.69	-36.6	-37.6	21.9	0.00e+00	123	34	0	204472320	46	5970
2026-01-06 22:02:01.81	94.53	7.76	-36.4	-37.5	22.1	0.00e+00	122	34	0	207618048	46	5883
2026-01-06 22:02:02.82	94.44	7.83	-36.5	-37.5	22.0	0.00e+00	123	34	0	210763776	46	5914
2026-01-06 22:02:03.83	94.35	7.90	-36.5	-37.5	22.1	0.00e+00	122	34	0	213909504	46	5885
2026-01-06 22:02:04.84	94.26	7.96	-36.4	-37.5	22.2	0.00e+00	123	34	0	217055232	46	5875
2026-01-06 22:02:05.85	94.17	8.03	-36.5	-37.5	22.0	0.00e+00	123	34	0	220200960	46	5915
2026-01-06 22:02:06.86	94.08	8.10	-36.5	-37.5	22.1	0.00e+00	122	34	0	223346688	46	5894
2026-01-06 22:02:07.87	93.99	8.17	-36.2	-37.2	22.4	0.00e+00	123	34	0	226492416	46	5707
2026-01-06 22:02:08.88	93.90	8.24	-36.1	-37.1	22.5	0.00e+00	123	34	0	229638144	46	5621
2026-01-06 22:02:09.88	93.81	8.31	-36.2	-37.2	22.4	0.00e+00	123	34	0	232783872	46	5697
2026-01-06 22:02:10.90	93.71	8.38	-36.1	-37.1	22.5	0.00e+00	122	34	0	235929600	46	5637
2026-01-06 22:02:11.91	93.62	8.45	-36.1	-37.1	22.5	0.00e+00	123	34	0	239075328	46	5614
2026-01-06 22:02:12.91	93.53	8.52	-36.1	-37.1	22.5	0.00e+00	122	34	0	242221056	46	5631
2026-01-06 22:02:13.93	93.43	8.59	-36.0	-37.0	22.7	0.00e+00	123	34	0	245366784	46	5537
2026-01-06 22:02:14.93	93.34	8.65	-35.9	-36.8	22.7	0.00e+00	122	34	0	248512512	46	5461
2026-01-06 22:02:15.94	93.24	8.72	-35.9	-36.9	22.7	0.00e+00	123	34	0	251658240	46	5489
2026-01-06 22:02:16.95	93.15	8.79	-35.8	-36.8	22.7	0.00e+00	123	34	0	254803968	46	5453
2026-01-06 22:02:17.96	93.05	8.86	-35.8	-36.8	22.7	0.00e+00	122	34	0	257949696	46	5429
2026-01-06 22:02:18.97	92.95	8.93	-35.8	-36.8	22.7	0.00e+00	123	34	0	261095424	44	6127
2026-01-06 22:02:19.97	92.86	9.00	-35.8	-36.8	22.7	0.00e+00	122	34	0	264241152	44	6107
2026-01-06 22:02:20.98	92.76	9.07	-35.7	-36.6	22.8	0.00e+00	123	34	0	267386880	44	5989
2026-01-06 22:02:21.99	92.66	9.14	-35.6	-36.6	22.8	0.00e+00	120	34	0	270532608	44	5960
2026-01-06 22:02:23.00	92.56	9.21	-35.6	-36.6	22.9	0.00e+00	122	34	0	273678336	44	5939
2026-01-06 22:02:24.01	92.46	9.29	-35.6	-36.5	23.0	0.00e+00	120	34	0	276824064	44	5914
2026-01-06 22:02:25.01	92.37	9.36	-35.5	-36.5	23.0	0.00e+00	122	34	0	279969792	44	5885
2026-01-06 22:02:26.02	92.27	9.43	-35.7	-36.7	23.0	0.00e+00	122	34	0	283115520	44	5995
2026-01-06 22:02:27.03	92.17	9.50	-35.4	-36.4	23.1	0.00e+00	123	34	0	286261248	44	5826
2026-01-06 22:02:28.04	92.06	9.57	-35.6	-36.5	23.0	0.00e+00	123	34	0	289406976	44	5919
2026-01-06 22:02:29.05	91.96	9.64	-35.4	-36.3	23.2	0.00e+00	122	34	0	292552704	44	5777
2026-01-06 22:02:30.06	91.86	9.71	-35.4	-36.4	23.1	0.00e+00	123	34	0	295698432	44	5836
2026-01-06 22:02:31.07	91.76	9.78	-35.4	-36.4	23.1	0.00e+00	123	34	0	298844160	44	5837
2026-01-06 22:02:32.08	91.66	9.85	-35.4	-36.3	23.2	0.00e+00	123	34	0	301989888	44	5787
2026-01-06 22:02:33.09	91.55	9.93	-35.3	-36.2	23.3	0.00e+00	122	34	0	305135616	44	5716
2026-01-06 22:02:34.10	91.45	10.00	-35.2	-36.2	23.3	0.00e+00	122	34	0	308281344	44	5698
2026-01-06 22:02:35.11	91.34	10.07	-35.3	-36.2	23.2	0.00e+00	122	34	0	311427072	44	5718
2026-01-06 22:02:36.12	91.24	10.14	-35.2	-36.1	23.4	0.00e+00	122	34	0	314572800	44	5644
2026-01-06 22:02:37.13	91.13	10.21	-35.1	-36.0	23.5	0.00e+00	123	34	0	317718528	44	5585
2026-01-06 22:02:38.14	91.03	10.29	-35.1	-36.0	23.4	0.00e+00	122	34	0	320864256	44	5588
2026-01-06 22:02:39.15	90.92	10.36	-34.9	-35.9	23.6	0.00e+00	122	34	0	324009984	44	5485
2026-01-06 22:02:40.16	90.81	10.43	-35.0	-35.9	23.5	0.00e+00	122	34	0	327155712	44	5525
2026-01-06 22:02:41.17	90.71	10.50	-34.9	-35.8	23.6	0.00e+00	123	34	0	330301440	44	5454
2026-01-06 22:02:42.18	90.60	10.58	-34.9	-35.8	23.7	0.00e+00	123	34	0	333447168	44	5428
2026-01-06 22:02:43.19	90.49	10.65	-34.8	-35.8	23.7	0.00e+00	123	34	0	336592896	44	5420
2026-01-06 22:02:44.20	90.38	10.72	-34.8	-35.7	23.8	0.00e+00	123	34	0	339738624	42	6043
2026-01-06 22:02:45.20	90.27	10.79	-34.7	-35.6	23.8	0.00e+00	123	34	0	342884352	42	5971
2026-01-06 22:02:46.21	90.16	10.87	-34.8	-35.7	23.7	0.00e+00	123	34	0	346030080	42	6042
2026-01-06 22:02:47.22	90.05	10.94	-34.8	-35.8	23.6	0.00e+00	120	34	0	349175808	42	6065
2026-01-06 22:02:48.23	89.94	11.01	-34.8	-35.7	23.7	0.00e+00	123	34	0	352321536	42	6020
2026-01-06 22:02:49.23	89.83	11.09	-34.8	-35.8	23.6	0.00e+00	120	34	0	355467264	42	6094
2026-01-06 22:02:50.24	89.71	11.16	-34.8	-35.8	23.7	0.00e+00	123	34	0	358612992	42	6087
2026-01-06 22:02:51.25	89.60	11.23	-34.7	-35.7	23.8	0.00e+00	122	34	0	361758720	42	6023
2026-01-06 22:02:52.26	89.48	11.31	-34.8	-35.8	23.7	0.00e+00	123	34	0	364904448	42	6104
2026-01-06 22:02:53.27	89.37	11.38	-34.7	-35.6	23.9	0.00e+00	123	34	0	368050176	42	5968
2026-01-06 22:02:54.28	89.26	11.46	-34.8	-35.7	23.7	0.00e+00	123	34	0	371195904	42	6027
2026-01-06 22:02:55.29	89.14	11.53	-34.7	-35.6	23.8	0.00e+00	120	34	0	374341632	42	5974
2026-01-06 22:02:56.29	89.02	11.60	-34.6	-35.5	24.0	0.00e+00	123	34	0	377487360	42	5914
2026-01-06 22:02:57.31	88.91	11.68	-34.7	-35.6	23.9	0.00e+00	123	34	0	380633088	42	5960
2026-01-06 22:02:58.31	88.79	11.75	-34.8	-35.7	23.7	0.00e+00	123	34	0	383778816	42	6025
2026-01-06 22:02:59.32	88.67	11.83	-34.9	-35.8	23.7	0.00e+00	122	34	0	386924544	42	6085
2026-01-06 22:03:00.33	88.55	11.90	-34.8	-35.8	23.8	0.00e+00	123	34	0	390070272	42	6071
2026-01-06 22:03:01.34	88.43	11.98	-34.7	-35.6	23.8	0.00e+00	120	34	0	393216000	42	5989
2026-01-06 22:03:02.35	88.31	12.05	-34.8	-35.8	23.7	0.00e+00	122	34	0	396361728	42	6079
2026-01-06 22:03:03.36	88.19	12.13	-34.8	-35.7	23.8	0.00e+00	122	34	0	399507456	42	6025
2026-01-06 22:03:04.37	88.07	12.20	-34.8	-35.8	23.8	0.00e+00	122	34	0	402653184	42	6067
2026-01-06 22:03:05.38	87.95	12.28	-34.8	-35.7	23.8	0.00e+00	123	34	0	405798912	42	6022
2026-01-06 22:03:06.39	87.83	12.35	-34.9	-35.8	23.7	0.00e+00	120	34	0	408944640	42	6127
2026-01-06 22:03:07.40	87.70	12.43	-34.7	-35.6	23.9	0.00e+00	122	34	0	412090368	42	5961
2026-01-06 22:03:08.41	87.58	12.50	-34.6	-35.5	24.0	0.00e+00	119	34	0	415236096	42	5912
2026-01-06 22:03:09.41	87.46	12.58	-34.6	-35.5	24.1	0.00e+00	123	34	0	418381824	42	5875
2026-01-06 22:03:10.42	87.33	12.65	-34.6	-35.5	24.1	0.00e+00	120	34	0	421527552	42	5903
2026-01-06 22:03:11.44	87.20	12.73	-34.5	-35.4	24.0	0.00e+00	123	34	0	425721856	42	5855
2026-01-06 22:03:12.45	87.08	12.81	-34.5	-35.4	24.1	0.00e+00	120	34	0	428867584	42	5823
2026-01-06 22:03:13.46	86.95	12.88	-34.6	-35.5	24.0	0.00e+00	123	34	0	430964736	42	5923
2026-01-06 22:03:14.47	86.82	12.96	-34.6	-35.5	24.0	0.00e+00	120	34	0	434110464	42	5912
2026-01-06 22:03:15.48	86.69	13.03	-34.5	-35.4	24.1	0.00e+00	123	34	0	437256192	42	5829
2026-01-06 22:03:16.49	86.56	13.11	-34.5	-35.4	24.0	0.00e+00	120	34	0	441450496	42	5851
2026-01-06 22:03:17.50	86.43	13.19	-34.5	-35.5	23.9	0.00e+00	123	34	0	444596224	42	5865
2026-01-06 22:03:18.51	86.30	13.26	-34.6	-35.6	23.8	0.00e+00	121	34	0	447741952	42	5953
2026-01-06 22:03:19.52	86.17	13.34	-34.7	-35.6	23.8	0.00e+00	123	34	0	450887680	42	5994
2026-01-06 22:03:20.53	86.04	13.42	-34.9	-35.8	23.7	0.00e+00	120	34	0	452984832	42	6100
2026-01-06 22:03:21.53	85.91	13.49	-34.9	-35.8	23.8	0.00e+00	123	34	0	457179136	42	6115
2026-01-06 22:03:22.54	85.78	13.57	-34.7	-35.6	24.0	0.00e+00	123	34	0	460324864	42	5964
2026-01-06 22:03:23.55	85.64	13.65	-34.7	-35.7	23.9	0.00e+00	122	34	0	463470592	42	6030
2026-01-06 22:03:24.56	85.51	13.72	-34.6	-35.6	24.0	0.00e+00	122	34	0	466616320	42	5956
2026-01-06 22:03:25.57	85.37	13.80	-34.6	-35.6	24.0	0.00e+00	122	34	0	469762048	42	5939
2026-01-06 22:03:26.58	85.24	13.88	-34.7	-35.6	24.0	0.00e+00	123	34	0	472907776	42	5990
2026-01-06 22:03:27.59	85.10	13.95	-34.6	-35.5	24.0	0.00e+00	123	34	0	476053504	42	5916
2026-01-06 22:03:28.60	84.96	14.03	-34.6	-35.5	24.1	0.00e+00	121	34	0	479199232	42	5909
2026-01-06 22:03:29.61	84.82	14.11	-34.5	-35.4	24.2	0.00e+00	123	34	0	482344960	42	5812
2026-01-06 22:03:30.63	84.68	14.19	-34.4	-35.3	24.2	0.00e+00	120	34	0	485490688	42	5728
2026-01-06 22:03:31.64	84.54	14.26	-34.6	-35.5	24.0	0.00e+00	123	34	0	488636416	42	5883
2026-01-06 22:03:32.65	84.40	14.34	-34.4	-35.4	24.1	0.00e+00	120	34	0	491782144	42	5795
2026-01-06 22:03:33.66	84.26	14.42	-34.5	-35.4	24.1	0.00e+00	122	34	0	494927872	42	5844
2026-01-06 22:03:34.67	84.12	14.50	-34.5	-35.4	24.1	0.00e+00	120	34	0	498073600	42	5849
2026-01-06 22:03:35.68	83.98	14.57	-34.6	-35.6	23.9	0.00e+00	120	34	0	501219328	42	5931
2026-01-06 22:03:36.69	83.83	14.65	-34.6	-35.6	24.1	0.00e+00	123	34	0	504365056	42	5930
2026-01-06 22:03:37.70	83.69	14.73	-34.7	-35.6	24.0	0.00e+00	123	34	0	507510784	42	5934
2026-01-06 22:03:38.71	83.54	14.81	-34.5	-35.4	24.1	0.00e+00	123	34	0	510656512	42	5838
2026-01-06 22:03:39.72	83.40	14.89	-34.6	-35.5	24.0	0.00e+00	123	34	0	513802240	42	5890
2026-01-06 22:03:40.73	83.25	14.96	-34.8	-35.7	24.0	0.00e+00	122	34	0	516947968	42	6016
2026-01-06 22:03:41.74	83.10	15.04	-34.8	-35.7	23.9	0.00e+00	122	34	0	520093696	42	6025
2026-01-06 22:03:42.75	82.95	15.12	-34.9	-35.8	23.8	0.00e+00	123	34	0	523239424	42	6112
2026-01-06 22:03:43.76	82.81	15.20	-34.7	-35.6	23.8	0.00e+00	123	34	0	526385152	42	5983
2026-01-06 22:03:44.77	82.66	15.28	-34.7	-35.6	23.9	0.00e+00	122	34	0	529530880	42	5994
2026-01-06 22:03:45.78	82.51	15.36	-34.9	-35.8	23.7	0.00e+00	123	34	0	532676608	42	6112
2026-01-06 22:03:46.79	82.35	15.43	-35.0	-36.0	23.6	0.00e+00	122	34	0	535822336	42	6220
2026-01-06 22:03:47.80	82.20	15.51	-35.1	-36.0	23.6	0.00e+00	122	34	0	538968064	42	6253
2026-01-06 22:03:48.81	82.05	15.59	-35.1	-36.1	23.6	0.00e+00	120	34	0	542113792	42	6300
2026-01-06 22:03:49.82	81.89	15.67	-35.2	-36.2	23.5	0.00e+00	123	34	0	545259520	42	6362
2026-01-06 22:03:50.83	81.74	15.75	-35.2	-36.2	23.5	0.00e+00	122	34	0	548405248	42	6388
2026-01-06 22:03:51.84	81.58	15.83	-35.2	-36.2	23.6	0.00e+00	123	34	0	551550976	42	6356
2026-01-06 22:03:52.85	81.43	15.91	-35.3	-36.2	23.6	0.00e+00	122	34	0	554696704	42	6418
2026-01-06 22:03:53.86	81.27	15.99	-35.2	-36.1	23.7	0.00e+00	122	34	0	557842432	42	6300
2026-01-06 22:03:54.87	81.11	16.06	-35.2	-36.1	23.6	0.00e+00	123	34	0	560988160	42	6336
2026-01-06 22:03:55.88	80.95	16.14	-35.0	-36.0	23.8	0.00e+00	120	34	0	564133888	42	6207
2026-01-06 22:03:56.89	80.79	16.22	-35.1	-36.0	23.7	0.00e+00	122	34	0	567279616	42	6230
2026-01-06 22:03:57.89	80.64	16.30	-35.1	-36.0	23.7	0.00e+00	122	34	0	570425344	42	6242
2026-01-06 22:03:58.90	80.47	16.38	-35.1	-36.0	23.6	0.00e+00	123	34	0	573571072	42	6272
2026-01-06 22:03:59.91	80.31	16.46	-35.1	-36.0	23.7	0.00e+00	123	34	0	576716800	42	6263
2026-01-06 22:04:00.92	80.15	16.54	-35.1	-36.0	23.7	0.00e+00	120	34	0	579862528	42	6249
2026-01-06 22:04:01.93	79.98	16.62	-35.3	-36.2	23.6	0.00e+00	123	34	0	583008256	42	6396
2026-01-06 22:04:02.94	79.82	16.69	-35.1	-36.0	23.7	0.00e+00	120	34	0	586153984	42	6231
2026-01-06 22:04:03.95	79.65	16.77	-35.1	-36.0	23.7	0.00e+00	122	34	0	589299712	42	6238
2026-01-06 22:04:04.96	79.49	16.85	-35.1	-36.0	23.7	0.00e+00	123	34	0	592445440	42	6234
2026-01-06 22:04:05.97	79.32	16.93	-35.0	-36.0	23.7	0.00e+00	123	34	0	595591168	42	6209
2026-01-06 22:04:06.98	79.15	17.01	-35.1	-36.0	23.7	0.00e+00	123	34	0	598736896	42	6262
2026-01-06 22:04:07.99	78.98	17.09	-35.1	-36.0	23.7	0.00e+00	123	34	0	601882624	42	6253
2026-01-06 22:04:09.00	78.81	17.17	-35.3	-36.3	23.7	0.00e+00	120	34	0	605028352	42	6458
2026-01-06 22:04:10.01	78.64	17.25	-34.9	-35.8	23.9	0.00e+00	122	34	0	608174080	42	6121
2026-01-06 22:04:11.02	78.47	17.33	-35.0	-36.0	23.8	0.00e+00	123	34	0	611319808	42	6206
2026-01-06 22:04:12.02	78.30	17.40	-34.8	-35.7	24.0	0.00e+00	123	34	0	614465536	42	6013
2026-01-06 22:04:13.03	78.12	17.48	-34.9	-35.8	23.9	0.00e+00	122	34	0	617611264	42	6106
2026-01-06 22:04:14.04	77.95	17.56	-34.8	-35.7	24.0	0.00e+00	122	34	0	620756992	42	6009
2026-01-06 22:04:15.05	77.77	17.64	-34.7	-35.6	24.0	0.00e+00	120	34	0	623902720	42	5947
2026-01-06 22:04:16.06	77.60	17.72	-34.7	-35.6	24.1	0.00e+00	122	34	0	627048448	42	5961
2026-01-06 22:04:17.06	77.42	17.80	-34.6	-35.6	24.1	0.00e+00	120	34	0	630194176	42	5930
2026-01-06 22:04:18.07	77.24	17.88	-34.6	-35.5	24.1	0.00e+00	122	34	0	633339904	42	5889
2026-01-06 22:04:19.08	77.06	17.96	-34.6	-35.5	24.1	0.00e+00	123	34	0	636485632	42	5923
2026-01-06 22:04:20.09	76.88	18.03	-34.4	-35.3	24.2	0.00e+00	123	34	0	639631360	42	5776
2026-01-06 22:04:21.10	76.70	18.11	-34.3	-35.3	24.3	0.00e+00	120	34	0	642777088	42	5729
2026-01-06 22:04:22.11	76.52	18.19	-34.3	-35.2	24.4	0.00e+00	122	34	0	645922816	42	5702
2026-01-06 22:04:23.12	76.33	18.27	-34.2	-35.0	24.5	0.00e+00	122	34	0	649068544	42	5589
2026-01-06 22:04:24.13	76.15	18.35	-34.3	-35.2	24.3	0.00e+00	123	34	0	652214272	42	5666
2026-01-06 22:04:25.14	75.97	18.43	-34.3	-35.2	24.4	0.00e+00	120	34	0	655360000	42	5704
2026-01-06 22:04:26.15	75.78	18.50	-34.3	-35.2	24.5	0.00e+00	123	34	0	658505728	42	5707
2026-01-06 22:04:27.16	75.59	18.58	-34.2	-35.1	24.4	0.00e+00	120	34	0	661651456	42	5606
2026-01-06 22:04:28.17	75.40	18.66	-34.3	-35.2	24.3	0.00e+00	123	34	0	664797184	42	5710
2026-01-06 22:04:29.18	75.21	18.74	-34.3	-35.2	24.3	0.00e+00	122	34	0	667942912	42	5679
2026-01-06 22:04:30.18	75.03	18.82	-34.3	-35.2	24.4	0.00e+00	123	34	0	671088640	42	5664
2026-01-06 22:04:31.19	74.84	18.89	-34.3	-35.3	24.3	0.00e+00	118	34	0	674234368	42	5727
2026-01-06 22:04:32.20	74.64	18.97	-34.3	-35.2	24.2	0.00e+00	121	34	0	677380096	42	5725
2026-01-06 22:04:33.21	74.45	19.05	-34.4	-35.3	24.2	0.00e+00	123	34	0	680525824	42	5739
2026-01-06 22:04:34.22	74.26	19.13	-34.2	-35.1	24.4	0.00e+00	120	34	0	683671552	42	5646
2026-01-06 22:04:35.23	74.06	19.21	-34.2	-35.1	24.4	0.00e+00	123	34	0	686817280	42	5629
2026-01-06 22:04:36.24	73.87	19.28	-34.2	-35.1	24.6	0.00e+00	123	34	0	689963008	42	5602
2026-01-06 22:04:37.25	73.67	19.36	-34.2	-35.1	24.4	0.00e+00	120	34	0	693108736	42	5641
2026-01-06 22:04:38.26	73.47	19.44	-34.0	-34.9	24.6	0.00e+00	123	34	0	696254464	42	5518
2026-01-06 22:04:39.27	73.27	19.51	-34.2	-35.1	24.5	0.00e+00	121	34	0	699400192	42	5629
2026-01-06 22:04:40.28	73.07	19.59	-34.3	-35.2	24.4	0.00e+00	123	34	0	702545920	42	5701
2026-01-06 22:04:41.29	72.87	19.67	-34.2	-35.1	24.5	0.00e+00	123	34	0	705691648	42	5611
2026-01-06 22:04:42.30	72.67	19.75	-34.2	-35.1	24.4	0.00e+00	123	34	0	708837376	42	5629
2026-01-06 22:04:43.31	72.47	19.82	-34.0	-34.9	24.6	0.00e+00	120	34	0	711983104	42	5473
2026-01-06 22:04:44.31	72.26	19.90	-34.0	-34.9	24.7	0.00e+00	123	34	0	715128832	42	5512
2026-01-06 22:04:45.32	72.06	19.97	-33.9	-34.8	24.7	0.00e+00	123	34	0	718274560	42	5434
2026-01-06 22:04:46.33	71.85	20.05	-33.9	-34.8	24.7	0.00e+00	123	34	0	721420288	42	5440
2026-01-06 22:04:47.34	71.64	20.13	-33.7	-34.6	24.8	0.00e+00	123	34	0	724566016	40	5970
2026-01-06 22:04:48.35	71.44	20.20	-33.6	-34.5	24.8	0.00e+00	122	34	0	727711744	40	5861
2026-01-06 22:04:49.36	71.23	20.28	-33.8	-34.6	24.6	0.00e+00	123	34	0	730857472	40	5991
2026-01-06 22:04:50.37	71.02	20.35	-33.7	-34.6	24.6	0.00e+00	120	34	0	734003200	40	5986
2026-01-06 22:04:51.38	70.81	20.43	-33.7	-34.6	24.7	0.00e+00	122	34	0	737148928	40	5945
2026-01-06 22:04:52.39	70.59	20.50	-33.8	-34.7	24.6	0.00e+00	123	34	0	740294656	40	6019
2026-01-06 22:04:53.40	70.38	20.58	-33.6	-34.5	24.8	0.00e+00	123	34	0	743440384	40	5886
2026-01-06 22:04:54.42	70.16	20.65	-33.7	-34.6	24.7	0.00e+00	120	34	0	746586112	40	5953
2026-01-06 22:04:55.42	69.95	20.73	-33.7	-34.6	24.7	0.00e+00	122	34	0	749731840	40	5973
2026-01-06 22:04:56.44	69.73	20.80	-33.7	-34.6	24.6	0.00e+00	122	34	0	752877568	40	5991
2026-01-06 22:04:57.45	69.51	20.88	-33.9	-34.7	24.7	0.00e+00	123	34	0	756023296	40	6064
2026-01-06 22:04:58.46	69.29	20.95	-33.8	-34.7	24.8	0.00e+00	122	34	0	759169024	40	6000
2026-01-06 22:04:59.47	69.07	21.02	-33.9	-34.8	24.7	0.00e+00	120	34	0	762314752	40	6071
2026-01-06 22:05:00.48	68.85	21.10	-33.8	-34.7	24.8	0.00e+00	123	34	0	765460480	40	6024
2026-01-06 22:05:01.49	68.63	21.17	-33.9	-34.7	24.7	0.00e+00	123	34	0	769654784	40	6055
2026-01-06 22:05:02.50	68.41	21.24	-33.9	-34.8	24.7	0.00e+00	123	34	0	771751936	40	6101
2026-01-06 22:05:03.50	68.19	21.31	-34.0	-34.9	24.7	0.00e+00	120	34	0	774897664	40	6153
2026-01-06 22:05:04.51	67.96	21.39	-34.0	-34.8	24.7	0.00e+00	123	34	0	778043392	40	6126
2026-01-06 22:05:05.52	67.74	21.46	-34.0	-34.9	24.5	0.00e+00	123	34	0	781189120	40	6171
2026-01-06 22:05:06.53	67.51	21.53	-34.0	-34.9	24.6	0.00e+00	123	34	0	785383424	40	6175
2026-01-06 22:05:07.54	67.28	21.60	-34.1	-35.0	24.6	0.00e+00	123	34	0	788529152	40	6251
2026-01-06 22:05:08.55	67.05	21.67	-34.1	-35.0	24.6	0.00e+00	123	34	0	791674880	40	6212
2026-01-06 22:05:09.56	66.82	21.74	-34.1	-35.0	24.5	0.00e+00	122	34	0	794820608	40	6240
2026-01-06 22:05:10.57	66.59	21.81	-34.2	-35.1	24.4	0.00e+00	123	34	0	796917760	40	6292
2026-01-06 22:05:11.58	66.36	21.88	-34.2	-35.1	24.5	0.00e+00	123	34	0	800063488	40	6309
2026-01-06 22:05:12.59	66.12	21.95	-33.9	-34.8	24.7	0.00e+00	123	34	0	804257792	40	6085
2026-01-06 22:05:13.60	65.89	22.02	-33.9	-34.7	24.6	0.00e+00	123	34	0	807403520	40	6064
2026-01-06 22:05:14.61	65.65	22.09	-34.0	-34.9	24.6	0.00e+00	123	34	0	810549248	40	6181
2026-01-06 22:05:15.62	65.42	22.16	-34.0	-34.9	24.7	0.00e+00	120	34	0	813694976	40	6165
2026-01-06 22:05:16.63	65.18	22.23	-34.1	-35.0	24.6	0.00e+00	123	34	0	816840704	40	6244
2026-01-06 22:05:17.64	64.94	22.30	-34.1	-35.0	24.6	0.00e+00	123	34	0	819986432	40	6236
2026-01-06 22:05:18.65	64.70	22.37	-34.0	-34.9	24.7	0.00e+00	123	34	0	823132160	40	6189
2026-01-06 22:05:19.66	64.46	22.44	-33.9	-34.8	24.7	0.00e+00	123	34	0	826277888	40	6092
2026-01-06 22:05:20.67	64.22	22.50	-33.9	-34.8	24.7	0.00e+00	123	34	0	829423616	40	6113
2026-01-06 22:05:21.68	63.97	22.57	-34.1	-35.0	24.6	0.00e+00	122	34	0	832569344	40	6235
2026-01-06 22:05:22.69	63.73	22.64	-33.9	-34.8	24.7	0.00e+00	123	34	0	835715072	40	6115
2026-01-06 22:05:23.70	63.48	22.70	-34.0	-34.9	24.7	0.00e+00	120	34	0	838860800	40	6167
2026-01-06 22:05:24.71	63.24	22.77	-34.0	-34.9	24.6	0.00e+00	122	34	0	842006528	40	6179
2026-01-06 22:05:25.72	62.99	22.83	-33.7	-34.6	24.9	0.00e+00	121	34	0	845152256	40	5952
2026-01-06 22:05:26.73	62.74	22.90	-33.8	-34.7	24.8	0.00e+00	123	34	0	848297984	40	6035
2026-01-06 22:05:27.74	62.49	22.96	-33.6	-34.5	24.9	0.00e+00	122	34	0	851443712	40	5903
2026-01-06 22:05:28.75	62.24	23.03	-33.7	-34.6	24.9	0.00e+00	122	34	0	854589440	40	5932
2026-01-06 22:05:29.76	61.99	23.09	-33.8	-34.7	24.8	0.00e+00	123	34	0	857735168	40	6038
2026-01-06 22:05:30.77	61.74	23.15	-33.7	-34.6	24.9	0.00e+00	123	34	0	860880896	40	5961
2026-01-06 22:05:31.78	61.49	23.22	-33.8	-34.6	24.8	0.00e+00	123	34	0	864026624	40	5982
2026-01-06 22:05:32.79	61.23	23.28	-33.6	-34.5	24.8	0.00e+00	120	34	0	867172352	40	5898
2026-01-06 22:05:33.80	60.98	23.34	-33.7	-34.6	24.7	0.00e+00	123	34	0	870318080	40	5929
2026-01-06 22:05:34.81	60.72	23.40	-33.8	-34.7	24.7	0.00e+00	123	34	0	873463808	40	6007
2026-01-06 22:05:35.82	60.46	23.46	-33.7	-34.6	24.8	0.00e+00	122	34	0	876609536	40	5964
2026-01-06 22:05:36.84	60.20	23.52	-33.7	-34.6	24.8	0.00e+00	120	34	0	879755264	40	5928
2026-01-06 22:05:37.84	59.94	23.58	-33.7	-34.6	24.8	0.00e+00	122	34	0	882900992	40	5970
2026-01-06 22:05:38.85	59.68	23.64	-33.8	-34.7	24.7	0.00e+00	122	34	0	886046720	40	6043
2026-01-06 22:05:39.86	59.42	23.70	-33.9	-34.8	24.7	0.00e+00	122	34	0	889192448	40	6065
2026-01-06 22:05:40.87	59.16	23.76	-34.1	-35.0	24.5	0.00e+00	122	34	0	892338176	40	6230
2026-01-06 22:05:41.88	58.90	23.82	-34.1	-35.0	24.6	0.00e+00	122	34	0	895483904	40	6224
2026-01-06 22:05:42.89	58.63	23.87	-34.1	-35.0	24.6	0.00e+00	120	34	0	898629632	40	6210
2026-01-06 22:05:43.90	58.37	23.93	-34.0	-34.9	24.7	0.00e+00	122	34	0	901775360	40	6182
2026-01-06 22:05:44.91	58.10	23.99	-33.9	-34.8	24.8	0.00e+00	123	34	0	904921088	40	6114
2026-01-06 22:05:45.92	57.83	24.04	-33.9	-34.8	24.8	0.00e+00	122	34	0	908066816	40	6115
2026-01-06 22:05:46.93	57.56	24.10	-33.8	-34.7	24.9	0.00e+00	123	34	0	911212544	40	5996
2026-01-06 22:05:47.94	57.30	24.15	-33.9	-34.7	24.8	0.00e+00	123	34	0	914358272	40	6063
2026-01-06 22:05:48.95	57.03	24.21	-33.8	-34.6	24.9	0.00e+00	120	34	0	917504000	40	5994
2026-01-06 22:05:49.96	56.75	24.26	-33.6	-34.4	25.0	0.00e+00	123	34	0	920649728	40	5852
2026-01-06 22:05:50.97	56.48	24.31	-33.6	-34.5	24.8	0.00e+00	123	34	0	923795456	40	5874
2026-01-06 22:05:51.98	56.21	24.36	-33.6	-34.5	24.8	0.00e+00	122	34	0	926941184	40	5867
2026-01-06 22:05:52.99	55.94	24.41	-33.6	-34.5	24.9	0.00e+00	123	34	0	930086912	40	5885
2026-01-06 22:05:54.00	55.66	24.47	-33.7	-34.5	24.8	0.00e+00	120	34	0	933232640	40	5906
2026-01-06 22:05:55.01	55.39	24.52	-33.7	-34.6	24.8	0.00e+00	122	34	0	936378368	40	5932
2026-01-06 22:05:56.02	55.11	24.57	-33.6	-34.5	24.9	0.00e+00	123	34	0	939524096	40	5859
2026-01-06 22:05:57.03	54.83	24.61	-33.6	-34.4	25.0	0.00e+00	122	34	0	942669824	40	5856
2026-01-06 22:05:58.04	54.55	24.66	-33.5	-34.4	24.9	0.00e+00	121	34	0	945815552	40	5819
2026-01-06 22:05:59.05	54.27	24.71	-33.7	-34.6	24.9	0.00e+00	123	34	0	948961280	40	5939
2026-01-06 22:06:00.06	53.99	24.76	-33.7	-34.6	24.9	0.00e+00	123	34	0	952107008	40	5933
2026-01-06 22:06:01.07	53.71	24.80	-33.7	-34.6	24.9	0.00e+00	122	34	0	955252736	40	5946
2026-01-06 22:06:02.08	53.43	24.85	-33.8	-34.6	24.9	0.00e+00	122	34	0	958398464	40	5986
2026-01-06 22:06:03.09	53.15	24.89	-33.8	-34.7	24.8	0.00e+00	123	34	0	961544192	40	6039
2026-01-06 22:06:04.10	52.87	24.94	-33.8	-34.7	24.7	0.00e+00	122	34	0	964689920	40	6008
2026-01-06 22:06:05.11	52.58	24.98	-33.9	-34.8	24.7	0.00e+00	122	34	0	967835648	40	6078
2026-01-06 22:06:06.12	52.30	25.03	-33.7	-34.6	24.8	0.00e+00	123	34	0	970981376	40	5966
2026-01-06 22:06:07.13	52.01	25.07	-33.5	-34.4	25.0	0.00e+00	123	34	0	974127104	40	5817
2026-01-06 22:06:08.14	51.73	25.11	-33.5	-34.4	25.0	0.00e+00	123	34	0	977272832	40	5802
2026-01-06 22:06:09.15	51.44	25.15	-33.3	-34.2	25.2	0.00e+00	120	34	0	980418560	40	5691
2026-01-06 22:06:10.16	51.15	25.19	-33.2	-34.0	25.2	0.00e+00	122	34	0	983564288	40	5587
2026-01-06 22:06:11.17	50.86	25.23	-33.2	-34.1	25.2	0.00e+00	122	34	0	986710016	40	5604
2026-01-06 22:06:12.18	50.58	25.27	-33.2	-34.0	25.2	0.00e+00	123	34	0	989855744	40	5578
2026-01-06 22:06:13.19	50.29	25.31	-33.2	-34.1	25.1	0.00e+00	123	34	0	993001472	40	5615
2026-01-06 22:06:14.20	49.99	25.34	-33.1	-34.0	25.1	0.00e+00	120	34	0	996147200	40	5559
2026-01-06 22:06:15.20	49.71	25.38	-33.3	-34.1	25.0	0.00e+00	123	34	0	999292928	40	5649
2026-01-06 22:06:16.21	49.41	25.41	-33.3	-34.2	25.1	0.00e+00	122	34	0	1002438656	40	5695
2026-01-06 22:06:17.22	49.12	25.45	-33.5	-34.3	24.9	0.00e+00	122	34	0	1005584384	40	5781
2026-01-06 22:06:18.23	48.83	25.48	-33.6	-34.5	24.8	0.00e+00	123	34	0	1008730112	40	5885
2026-01-06 22:06:19.24	48.54	25.52	-33.8	-34.7	24.8	0.00e+00	123	34	0	1011875840	40	6004
2026-01-06 22:06:20.25	48.24	25.55	-33.8	-34.7	24.8	0.00e+00	120	34	0	1015021568	40	6005
2026-01-06 22:06:21.26	47.95	25.58	-33.9	-34.8	24.8	0.00e+00	122	34	0	1018167296	40	6077
2026-01-06 22:06:22.27	47.65	25.61	-33.9	-34.7	24.9	0.00e+00	122	34	0	1021313024	40	6049
2026-01-06 22:06:23.28	47.35	25.64	-33.6	-34.5	24.9	0.00e+00	122	34	0	1024458752	40	5879
2026-01-06 22:06:24.29	47.06	25.67	-33.7	-34.5	24.8	0.00e+00	123	34	0	1027604480	40	5922
2026-01-06 22:06:25.30	46.76	25.70	-33.6	-34.5	24.8	0.00e+00	122	34	0	1030750208	40	5896
2026-01-06 22:06:26.31	46.46	25.73	-33.6	-34.5	24.9	0.00e+00	120	34	0	1033895936	40	5912
2026-01-06 22:06:27.32	46.16	25.75	-33.7	-34.6	24.9	0.00e+00	122	34	0	1037041664	40	5943
2026-01-06 22:06:28.34	45.86	25.78	-33.7	-34.5	25.0	0.00e+00	122	34	0	1040187392	40	5924
2026-01-06 22:06:29.34	45.57	25.81	-33.5	-34.4	25.0	0.00e+00	123	34	0	1043333120	40	5836
2026-01-06 22:06:30.35	45.27	25.83	-33.6	-34.5	25.0	0.00e+00	120	34	0	1046478848	40	5891
2026-01-06 22:06:31.36	44.97	25.85	-33.6	-34.5	25.0	0.00e+00	123	34	0	1049624576	40	5881
2026-01-06 22:06:32.37	44.67	25.88	-33.7	-34.5	25.0	0.00e+00	122	34	0	1052770304	40	5909
2026-01-06 22:06:33.38	44.37	25.90	-33.6	-34.5	25.0	0.00e+00	122	34	0	1055916032	40	5912
2026-01-06 22:06:34.39	44.06	25.92	-33.6	-34.4	25.1	0.00e+00	122	34	0	1059061760	40	5846
2026-01-06 22:06:35.40	43.76	25.94	-33.7	-34.6	25.0	0.00e+00	120	34	0	1062207488	40	5945
2026-01-06 22:06:36.41	43.46	25.96	-33.9	-34.8	24.8	0.00e+00	123	34	0	1065353216	40	6091
2026-01-06 22:06:37.42	43.16	25.98	-33.8	-34.7	25.0	0.00e+00	120	34	0	1068498944	40	6007
2026-01-06 22:06:38.43	42.85	25.99	-34.0	-34.9	24.8	0.00e+00	123	34	0	1071644672	40	6150
2026-01-06 22:06:39.43	42.55	26.01	-34.1	-35.0	24.6	0.00e+00	123	34	0	1074790400	40	6254
2026-01-06 22:06:40.45	42.25	26.03	-34.0	-34.9	24.7	0.00e+00	122	34	0	1077936128	40	6135
2026-01-06 22:06:41.46	41.94	26.04	-34.0	-34.9	24.8	0.00e+00	122	34	0	1081081856	40	6137
2026-01-06 22:06:42.47	41.64	26.05	-33.6	-34.5	25.0	0.00e+00	123	34	0	1084227584	40	5895
2026-01-06 22:06:43.47	41.34	26.07	-33.4	-34.3	25.2	0.00e+00	123	34	0	1087373312	40	5758
2026-01-06 22:06:44.48	41.03	26.08	-33.5	-34.3	25.1	0.00e+00	123	34	0	1090519040	40	5779
2026-01-06 22:06:45.49	40.73	26.09	-33.5	-34.4	25.1	0.00e+00	120	34	0	1093664768	40	5819
2026-01-06 22:06:46.50	40.42	26.10	-33.7	-34.6	24.9	0.00e+00	122	34	0	1096810496	40	5954
2026-01-06 22:06:47.51	40.12	26.11	-33.8	-34.7	24.9	0.00e+00	120	34	0	1099956224	40	6010
2026-01-06 22:06:48.52	39.81	26.12	-33.9	-34.8	24.8	0.00e+00	122	34	0	1103101952	40	6107
2026-01-06 22:06:49.53	39.51	26.13	-34.0	-34.9	24.7	0.00e+00	120	34	0	1106247680	40	6155
2026-01-06 22:06:50.54	39.20	26.13	-33.8	-34.7	24.8	0.00e+00	123	34	0	1110441984	40	6037
2026-01-06 22:06:51.55	38.90	26.14	-33.9	-34.8	24.8	0.00e+00	123	34	0	1112539136	40	6079
2026-01-06 22:06:52.56	38.59	26.15	-33.7	-34.6	24.9	0.00e+00	122	34	0	1115684864	40	5950
2026-01-06 22:06:53.57	38.29	26.15	-33.8	-34.6	24.9	0.00e+00	122	34	0	1118830592	40	5978
2026-01-06 22:06:54.58	37.98	26.15	-33.8	-34.6	24.9	0.00e+00	123	34	0	1121976320	40	5968
2026-01-06 22:06:55.59	37.67	26.16	-33.9	-34.8	24.8	0.00e+00	120	34	0	1126170624	40	6097
2026-01-06 22:06:56.60	37.37	26.16	-34.0	-34.9	24.8	0.00e+00	123	34	0	1129316352	40	6143
2026-01-06 22:06:57.61	37.06	26.16	-34.1	-34.9	24.7	0.00e+00	120	34	0	1132462080	40	6200
2026-01-06 22:06:58.62	36.76	26.16	-34.1	-35.0	24.7	0.00e+00	123	34	0	1135607808	40	6270
2026-01-06 22:06:59.63	36.45	26.16	-34.0	-34.9	24.8	0.00e+00	120	34	0	1137704960	40	6167
2026-01-06 22:07:00.64	36.14	26.15	-34.2	-35.1	24.6	0.00e+00	123	34	0	1141899264	40	6279
2026-01-06 22:07:01.65	35.84	26.15	-34.2	-35.1	24.6	0.00e+00	122	34	0	1145044992	40	6314
2026-01-06 22:07:02.66	35.53	26.15	-34.0	-34.9	24.8	0.00e+00	123	34	0	1148190720	40	6135
2026-01-06 22:07:03.67	35.23	26.14	-33.7	-34.6	24.9	0.00e+00	123	34	0	1151336448	40	5963
2026-01-06 22:07:04.68	34.92	26.14	-33.6	-34.5	25.0	0.00e+00	123	34	0	1154482176	40	5860
2026-01-06 22:07:05.69	34.61	26.13	-33.3	-34.1	25.3	0.00e+00	122	34	0	1157627904	40	5647
2026-01-06 22:07:06.69	34.31	26.12	-33.4	-34.2	25.2	0.00e+00	123	34	0	1160773632	40	5718
2026-01-06 22:07:07.70	34.01	26.11	-33.4	-34.3	25.2	0.00e+00	123	34	0	1163919360	40	5751
2026-01-06 22:07:08.72	33.70	26.10	-33.4	-34.3	25.2	0.00e+00	123	34	0	1167065088	40	5739
2026-01-06 22:07:09.73	33.39	26.09	-33.4	-34.3	25.2	0.00e+00	122	34	0	1170210816	40	5760
2026-01-06 22:07:10.74	33.09	26.08	-33.5	-34.3	25.1	0.00e+00	123	34	0	1173356544	40	5780
2026-01-06 22:07:11.75	32.78	26.07	-33.5	-34.4	25.1	0.00e+00	122	34	0	1176502272	40	5804
2026-01-06 22:07:12.76	32.48	26.06	-33.7	-34.6	25.0	0.00e+00	123	34	0	1179648000	40	5930
2026-01-06 22:07:13.77	32.18	26.04	-33.7	-34.6	25.0	0.00e+00	123	34	0	1182793728	40	5929
2026-01-06 22:07:14.78	31.87	26.03	-33.8	-34.7	24.9	0.00e+00	123	34	0	1185939456	40	6023
2026-01-06 22:07:15.79	31.57	26.01	-33.8	-34.7	24.9	0.00e+00	122	34	0	1189085184	40	6021
2026-01-06 22:07:16.80	31.27	26.00	-33.8	-34.7	24.9	0.00e+00	122	34	0	1192230912	40	6029
2026-01-06 22:07:17.81	30.96	25.98	-33.8	-34.6	25.0	0.00e+00	122	34	0	1195376640	40	5991
2026-01-06 22:07:18.82	30.66	25.96	-33.8	-34.7	24.8	0.00e+00	123	34	0	1198522368	40	6048
2026-01-06 22:07:19.83	30.36	25.94	-33.7	-34.5	25.0	0.00e+00	122	34	0	1201668096	40	5918
2026-01-06 22:07:20.84	30.06	25.92	-33.9	-34.7	24.9	0.00e+00	122	34	0	1204813824	40	6052
2026-01-06 22:07:21.85	29.76	25.90	-33.9	-34.8	24.9	0.00e+00	122	34	0	1207959552	40	6074
2026-01-06 22:07:22.86	29.46	25.88	-33.9	-34.7	24.8	0.00e+00	123	34	0	1211105280	40	6064
2026-01-06 22:07:23.87	29.15	25.86	-34.0	-34.9	24.8	0.00e+00	122	34	0	1214251008	40	6146
2026-01-06 22:07:24.88	28.85	25.84	-33.9	-34.8	24.7	0.00e+00	120	34	0	1217396736	40	6113
2026-01-06 22:07:25.89	28.56	25.81	-33.8	-34.6	24.9	0.00e+00	122	34	0	1220542464	40	5994
2026-01-06 22:07:26.91	28.25	25.79	-33.8	-34.6	25.0	0.00e+00	123	34	0	1223688192	40	5990
2026-01-06 22:07:27.91	27.96	25.76	-33.6	-34.5	25.0	0.00e+00	123	34	0	1226833920	40	5892
2026-01-06 22:07:28.93	27.66	25.74	-33.6	-34.5	25.1	0.00e+00	123	34	0	1229979648	40	5887
2026-01-06 22:07:29.93	27.36	25.71	-33.8	-34.6	25.0	0.00e+00	123	34	0	1233125376	40	5971
2026-01-06 22:07:30.95	27.06	25.68	-33.7	-34.5	25.0	0.00e+00	120	34	0	1236271104	40	5909
2026-01-06 22:07:31.96	26.77	25.65	-33.6	-34.4	25.0	0.00e+00	122	34	0	1239416832	40	5841
2026-01-06 22:07:32.96	26.47	25.62	-33.6	-34.5	24.9	0.00e+00	123	34	0	1242562560	40	5892
2026-01-06 22:07:33.97	26.18	25.59	-33.7	-34.5	25.0	0.00e+00	123	34	0	1245708288	40	5897
2026-01-06 22:07:34.98	25.88	25.56	-33.6	-34.5	25.0	0.00e+00	120	34	0	1248854016	40	5875
2026-01-06 22:07:35.99	25.59	25.53	-33.6	-34.5	24.8	0.00e+00	123	34	0	1251999744	40	5870
2026-01-06 22:07:37.00	25.29	25.49	-33.6	-34.5	24.7	0.00e+00	122	34	0	1255145472	40	5908
2026-01-06 22:07:38.02	25.00	25.46	-33.6	-34.5	24.8	0.00e+00	122	34	0	1258291200	40	5862
2026-01-06 22:07:39.03	24.71	25.43	-33.4	-34.3	24.8	0.00e+00	123	34	0	1261436928	40	5751
2026-01-06 22:07:40.04	24.41	25.39	-33.4	-34.3	24.8	0.00e+00	122	34	0	1264582656	40	5756
2026-01-06 22:07:41.05	24.12	25.35	-33.4	-34.2	25.0	0.00e+00	123	34	0	1267728384	40	5721
2026-01-06 22:07:42.06	23.83	25.32	-33.4	-34.2	25.0	0.00e+00	122	34	0	1270874112	40	5712
2026-01-06 22:07:43.07	23.54	25.28	-33.5	-34.4	25.0	0.00e+00	122	34	0	1274019840	40	5800
2026-01-06 22:07:44.08	23.25	25.24	-33.5	-34.3	24.9	0.00e+00	122	34	0	1277165568	40	5788
2026-01-06 22:07:45.09	22.97	25.20	-33.4	-34.3	25.0	0.00e+00	123	34	0	1280311296	40	5744
2026-01-06 22:07:46.10	22.68	25.16	-33.5	-34.4	24.9	0.00e+00	120	34	0	1283457024	40	5825
2026-01-06 22:07:47.11	22.39	25.12	-33.3	-34.1	25.2	0.00e+00	122	34	0	1286602752	40	5655
2026-01-06 22:07:48.12	22.11	25.08	-33.3	-34.1	25.1	0.00e+00	123	34	0	1289748480	40	5649
2026-01-06 22:07:49.13	21.82	25.04	-33.3	-34.2	25.1	0.00e+00	123	34	0	1292894208	40	5679
2026-01-06 22:07:50.14	21.54	25.00	-33.5	-34.4	24.9	0.00e+00	122	34	0	1296039936	40	5820
2026-01-06 22:07:51.15	21.25	24.95	-33.6	-34.5	25.0	0.00e+00	123	34	0	1299185664	40	5859
2026-01-06 22:07:52.16	20.97	24.91	-33.6	-34.4	25.0	0.00e+00	123	34	0	1302331392	40	5854
2026-01-06 22:07:53.17	20.69	24.86	-33.6	-34.5	25.0	0.00e+00	123	34	0	1305477120	40	5868
2026-01-06 22:07:54.18	20.41	24.82	-33.6	-34.5	25.0	0.00e+00	123	34	0	1308622848	40	5883
2026-01-06 22:07:55.19	20.13	24.77	-33.5	-34.3	25.1	0.00e+00	122	34	0	1311768576	40	5766
2026-01-06 22:07:56.20	19.85	24.73	-33.5	-34.4	25.1	0.00e+00	120	34	0	1314914304	40	5824
2026-01-06 22:07:57.21	19.57	24.68	-33.5	-34.3	25.1	0.00e+00	120	34	0	1318060032	40	5774
2026-01-06 22:07:58.22	19.29	24.63	-33.5	-34.3	25.1	0.00e+00	123	34	0	1321205760	40	5762
2026-01-06 22:07:59.23	19.01	24.58	-33.3	-34.1	25.3	0.00e+00	122	34	0	1324351488	40	5655
2026-01-06 22:08:00.24	18.74	24.53	-33.5	-34.3	25.1	0.00e+00	123	34	0	1327497216	40	5781
2026-01-06 22:08:01.25	18.46	24.48	-33.6	-34.4	25.0	0.00e+00	120	34	0	1330642944	40	5844
2026-01-06 22:08:02.26	18.19	24.43	-33.7	-34.6	24.9	0.00e+00	123	34	0	1333788672	40	5936
2026-01-06 22:08:03.27	17.91	24.38	-33.8	-34.7	24.9	0.00e+00	122	34	0	1336934400	40	6021
2026-01-06 22:08:04.28	17.64	24.33	-33.9	-34.8	24.8	0.00e+00	123	34	0	1340080128	40	6101
2026-01-06 22:08:05.29	17.37	24.28	-34.0	-34.8	24.8	0.00e+00	122	34	0	1343225856	40	6114
2026-01-06 22:08:06.30	17.10	24.22	-33.9	-34.8	24.7	0.00e+00	123	34	0	1346371584	40	6118
2026-01-06 22:08:07.31	16.83	24.17	-34.0	-34.9	24.7	0.00e+00	123	34	0	1349517312	40	6143
2026-01-06 22:08:08.32	16.56	24.11	-34.0	-34.9	24.6	0.00e+00	122	34	0	1352663040	40	6153
2026-01-06 22:08:09.33	16.29	24.06	-34.1	-35.0	24.6	0.00e+00	120	34	0	1355808768	40	6210
2026-01-06 22:08:10.34	16.03	24.00	-34.1	-35.0	24.6	0.00e+00	123	34	0	1358954496	40	6234
2026-01-06 22:08:11.35	15.76	23.95	-34.0	-34.9	24.7	0.00e+00	120	34	0	1362100224	40	6189
2026-01-06 22:08:12.36	15.50	23.89	-33.9	-34.8	24.7	0.00e+00	123	34	0	1365245952	40	6095
2026-01-06 22:08:13.36	15.23	23.84	-33.9	-34.8	24.7	0.00e+00	120	34	0	1368391680	40	6101
2026-01-06 22:08:14.37	14.97	23.78	-33.9	-34.8	24.8	0.00e+00	123	34	0	1371537408	40	6069
2026-01-06 22:08:15.39	14.71	23.72	-33.8	-34.6	24.9	0.00e+00	120	34	0	1374683136	40	5987
2026-01-06 22:08:16.40	14.44	23.66	-33.8	-34.7	24.9	0.00e+00	123	34	0	1377828864	40	6058
2026-01-06 22:08:17.41	14.18	23.60	-33.8	-34.7	24.8	0.00e+00	122	34	0	1380974592	40	6050
2026-01-06 22:08:18.42	13.93	23.54	-34.1	-35.0	24.7	0.00e+00	122	34	0	1384120320	40	6214
2026-01-06 22:08:19.43	13.67	23.48	-34.2	-35.0	24.6	0.00e+00	123	34	0	1387266048	40	6274
2026-01-06 22:08:20.44	13.41	23.42	-33.9	-34.8	24.8	0.00e+00	123	34	0	1390411776	40	6115
2026-01-06 22:08:21.45	13.15	23.36	-34.0	-34.9	24.7	0.00e+00	120	34	0	1393557504	40	6155
2026-01-06 22:08:22.46	12.90	23.30	-33.8	-34.7	24.7	0.00e+00	122	34	0	1396703232	40	6011
2026-01-06 22:08:23.47	12.64	23.24	-33.7	-34.5	24.7	0.00e+00	123	34	0	1399848960	40	5922
2026-01-06 22:08:24.47	12.39	23.18	-33.5	-34.3	24.8	0.00e+00	123	34	0	1402994688	40	5790
2026-01-06 22:08:25.49	12.14	23.11	-33.3	-34.2	25.0	0.00e+00	122	34	0	1406140416	40	5666
2026-01-06 22:08:26.50	11.89	23.05	-33.3	-34.1	25.0	0.00e+00	123	34	0	1409286144	40	5640
2026-01-06 22:08:27.51	11.64	22.99	-33.3	-34.2	25.1	0.00e+00	123	34	0	1412431872	40	5691
2026-01-06 22:08:28.52	11.39	22.92	-33.6	-34.4	24.9	0.00e+00	123	34	0	1415577600	40	5855
2026-01-06 22:08:29.53	11.14	22.86	-33.8	-34.7	24.8	0.00e+00	122	34	0	1418723328	40	6034
2026-01-06 22:08:30.54	10.90	22.79	-34.0	-34.9	24.7	0.00e+00	123	34	0	1422917632	40	6179
2026-01-06 22:08:31.55	10.65	22.73	-34.1	-35.0	24.7	0.00e+00	123	34	0	1426063360	40	6215
2026-01-06 22:08:32.56	10.40	22.66	-34.1	-35.0	24.5	0.00e+00	123	34	0	1428160512	40	6261
2026-01-06 22:08:33.57	10.16	22.59	-34.0	-34.9	24.7	0.00e+00	120	34	0	1431306240	40	6178
2026-01-06 22:08:34.58	9.92	22.53	-33.9	-34.8	24.7	0.00e+00	123	34	0	1434451968	40	6107
2026-01-06 22:08:35.59	9.68	22.46	-33.8	-34.7	24.8	0.00e+00	123	34	0	1438646272	40	6027
2026-01-06 22:08:36.60	9.44	22.39	-33.6	-34.5	25.0	0.00e+00	122	34	0	1441792000	40	5874
2026-01-06 22:08:37.61	9.20	22.33	-33.5	-34.4	25.0	0.00e+00	123	34	0	1444937728	40	5812
2026-01-06 22:08:38.62	8.96	22.26	-33.3	-34.2	25.2	0.00e+00	122	34	0	1448083456	40	5699
2026-01-06 22:08:39.63	8.72	22.19	-33.5	-34.3	25.1	0.00e+00	123	34	0	1451229184	40	5785
2026-01-06 22:08:40.64	8.48	22.12	-33.4	-34.3	25.2	0.00e+00	123	34	0	1454374912	40	5742
2026-01-06 22:08:41.65	8.25	22.05	-33.5	-34.4	24.9	0.00e+00	123	34	0	1457520640	40	5801
2026-01-06 22:08:42.66	8.01	21.98	-33.6	-34.5	24.9	0.00e+00	123	34	0	1460666368	40	5898
2026-01-06 22:08:43.67	7.78	21.91	-33.6	-34.5	24.9	0.00e+00	123	34	0	1463812096	40	5862
2026-01-06 22:08:44.68	7.55	21.84	-33.5	-34.4	25.0	0.00e+00	123	34	0	1466957824	40	5833
2026-01-06 22:08:45.69	7.32	21.77	-33.5	-34.3	25.1	0.00e+00	123	34	0	1470103552	40	5777
2026-01-06 22:08:46.70	7.09	21.70	-33.3	-34.2	25.2	0.00e+00	123	34	0	1473249280	40	5675
2026-01-06 22:08:47.71	6.86	21.63	-33.3	-34.2	25.2	0.00e+00	122	34	0	1476395008	40	5662
2026-01-06 22:08:48.72	6.63	21.56	-33.4	-34.3	25.2	0.00e+00	123	34	0	1479540736	40	5742
2026-01-06 22:08:49.73	6.40	21.49	-33.6	-34.5	25.0	0.00e+00	123	34	0	1482686464	40	5867
2026-01-06 22:08:50.74	6.18	21.42	-33.7	-34.6	25.0	0.00e+00	120	34	0	1485832192	40	5955
2026-01-06 22:08:51.74	5.96	21.35	-33.8	-34.6	24.9	0.00e+00	123	34	0	1488977920	40	5984
2026-01-06 22:08:52.75	5.73	21.27	-33.6	-34.4	25.1	0.00e+00	123	34	0	1492123648	40	5853
2026-01-06 22:08:53.76	5.51	21.20	-33.6	-34.5	25.0	0.00e+00	123	34	0	1495269376	40	5886
2026-01-06 22:08:54.77	5.29	21.13	-33.4	-34.3	25.2	0.00e+00	123	34	0	1498415104	40	5733
2026-01-06 22:08:55.78	5.07	21.05	-33.3	-34.2	25.2	0.00e+00	123	34	0	1501560832	40	5673
2026-01-06 22:08:56.78	4.85	20.98	-33.3	-34.2	25.2	0.00e+00	120	34	0	1504706560	40	5688
2026-01-06 22:08:57.79	4.63	20.91	-33.2	-34.0	25.3	0.00e+00	123	34	0	1507852288	40	5593
2026-01-06 22:08:58.81	4.41	20.83	-33.2	-34.0	25.4	0.00e+00	122	34	0	1510998016	40	5593
2026-01-06 22:08:59.82	4.20	20.76	-33.5	-34.4	25.1	0.00e+00	123	34	0	1514143744	40	5805
2026-01-06 22:09:00.82	3.98	20.69	-33.6	-34.5	25.0	0.00e+00	120	34	0	1517289472	40	5890
2026-01-06 22:09:01.83	3.77	20.61	-33.9	-34.8	24.8	0.00e+00	123	34	0	1520435200	40	6071
2026-01-06 22:09:02.84	3.56	20.54	-34.0	-34.9	24.7	0.00e+00	123	34	0	1523580928	40	6141
2026-01-06 22:09:03.86	3.34	20.46	-34.3	-35.1	24.7	0.00e+00	122	34	0	1526726656	40	6347
2026-01-06 22:09:04.86	3.13	20.39	-34.0	-34.9	24.7	0.00e+00	122	34	0	1529872384	40	6182
2026-01-06 22:09:05.87	2.92	20.31	-34.1	-35.0	24.6	0.00e+00	123	34	0	1533018112	40	6251
2026-01-06 22:09:06.88	2.72	20.24	-33.9	-34.7	24.8	0.00e+00	122	34	0	1536163840	40	6055
2026-01-06 22:09:07.89	2.51	20.16	-34.0	-34.9	24.7	0.00e+00	120	34	0	1539309568	40	6148
2026-01-06 22:09:08.90	2.30	20.09	-34.0	-34.9	24.7	0.00e+00	123	34	0	1542455296	40	6175
2026-01-06 22:09:09.91	2.09	20.01	-34.0	-34.9	24.7	0.00e+00	122	34	0	1545601024	40	6151
2026-01-06 22:09:10.92	1.89	19.93	-34.0	-34.9	24.7	0.00e+00	122	34	0	1548746752	40	6198
2026-01-06 22:09:11.93	1.69	19.86	-34.0	-34.9	24.7	0.00e+00	122	34	0	1551892480	40	6175
2026-01-06 22:09:12.94	1.48	19.78	-34.0	-34.9	24.6	0.00e+00	122	34	0	1555038208	40	6149
2026-01-06 22:09:13.95	1.28	19.71	-34.1	-35.0	24.6	0.00e+00	123	34	0	1558183936	40	6219
2026-01-06 22:09:14.96	1.08	19.63	-33.9	-34.8	24.7	0.00e+00	123	34	0	1561329664	40	6069
2026-01-06 22:09:15.97	0.88	19.55	-34.0	-34.9	24.7	0.00e+00	122	34	0	1564475392	40	6155
2026-01-06 22:09:16.98	0.68	19.48	-34.1	-35.0	24.6	0.00e+00	123	34	0	1567621120	40	6216
2026-01-06 22:09:17.99	0.49	19.40	-34.1	-35.0	24.6	0.00e+00	123	34	0	1570766848	40	6251
2026-01-06 22:09:19.00	0.29	19.32	-34.1	-35.0	24.6	0.00e+00	122	34	0	1573912576	40	6240
2026-01-06 22:09:20.01	0.09	19.24	-34.0	-34.9	24.7	0.00e+00	122	34	0	1577058304	40	6155
2026-01-06 22:09:21.02	359.90	19.17	-34.0	-34.8	24.8	0.00e+00	123	34	0	1580204032	40	6124
2026-01-06 22:09:22.03	359.71	19.09	-34.2	-35.0	24.6	0.00e+00	123	34	0	1583349760	40	6277
2026-01-06 22:09:23.03	359.51	19.01	-34.3	-35.2	24.5	0.00e+00	122	34	0	1586495488	40	6365
2026-01-06 22:09:24.04	359.32	18.94	-34.5	-35.4	24.4	0.00e+00	122	34	0	1589641216	40	6512
2026-01-06 22:09:25.06	359.13	18.86	-34.6	-35.5	24.3	0.00e+00	123	34	0	1592786944	40	6589
2026-01-06 22:09:26.07	358.94	18.78	-34.7	-35.6	24.2	0.00e+00	123	34	0	1595932672	40	6675
2026-01-06 22:09:27.07	358.75	18.70	-34.7	-35.6	24.1	0.00e+00	122	34	0	1599078400	42	5958
2026-01-06 22:09:28.08	358.57	18.62	-34.7	-35.6	24.1	0.00e+00	122	34	0	1602224128	42	5981
2026-01-06 22:09:29.09	358.38	18.55	-34.8	-35.7	24.0	0.00e+00	123	34	0	1605369856	42	6020
2026-01-06 22:09:30.10	358.19	18.47	-34.6	-35.6	24.1	0.00e+00	123	34	0	1608515584	42	5955
2026-01-06 22:09:31.11	358.01	18.39	-34.7	-35.6	24.1	0.00e+00	123	34	0	1611661312	42	5937
2026-01-06 22:09:32.12	357.83	18.31	-34.8	-35.7	24.0	0.00e+00	122	34	0	1614807040	42	6017
2026-01-06 22:09:33.13	357.64	18.23	-34.6	-35.6	24.2	0.00e+00	123	34	0	1617952768	42	5932
2026-01-06 22:09:34.14	357.46	18.16	-34.8	-35.7	24.0	0.00e+00	122	34	0	1621098496	42	6024
2026-01-06 22:09:35.15	357.28	18.08	-34.6	-35.6	24.1	0.00e+00	122	34	0	1624244224	42	5941
2026-01-06 22:09:36.16	357.10	18.00	-34.8	-35.7	23.9	0.00e+00	122	34	0	1627389952	42	6047
2026-01-06 22:09:37.17	356.92	17.92	-34.7	-35.6	24.0	0.00e+00	123	34	0	1630535680	42	5937
2026-01-06 22:09:38.18	356.74	17.84	-34.7	-35.6	24.0	0.00e+00	122	34	0	1633681408	42	5983
2026-01-06 22:09:39.19	356.57	17.76	-34.7	-35.6	24.0	0.00e+00	122	34	0	1636827136	42	5950
2026-01-06 22:09:40.20	356.39	17.68	-34.5	-35.4	24.2	0.00e+00	120	34	0	1639972864	42	5811
2026-01-06 22:09:41.21	356.21	17.61	-34.5	-35.4	24.2	0.00e+00	123	34	0	1643118592	42	5845
2026-01-06 22:09:42.22	356.04	17.53	-34.5	-35.4	24.2	0.00e+00	122	34	0	1646264320	42	5814
2026-01-06 22:09:43.22	355.87	17.45	-34.5	-35.4	24.2	0.00e+00	122	34	0	1649410048	42	5855
2026-01-06 22:09:44.23	355.70	17.37	-34.4	-35.3	24.3	0.00e+00	123	34	0	1652555776	42	5753
2026-01-06 22:09:45.24	355.52	17.29	-34.5	-35.4	24.3	0.00e+00	123	34	0	1655701504	42	5799
2026-01-06 22:09:46.25	355.35	17.21	-34.2	-35.1	24.4	0.00e+00	123	34	0	1658847232	42	5643
2026-01-06 22:09:47.26	355.18	17.13	-34.1	-35.0	24.6	0.00e+00	123	34	0	1661992960	42	5538
2026-01-06 22:09:48.26	355.02	17.06	-34.0	-34.9	24.7	0.00e+00	122	34	0	1665138688	42	5478
2026-01-06 22:09:49.27	354.85	16.98	-34.1	-34.9	24.6	0.00e+00	123	34	0	1668284416	42	5517
2026-01-06 22:09:50.28	354.68	16.90	-33.9	-34.8	24.7	0.00e+00	121	34	0	1671430144	42	5453
2026-01-06 22:09:51.29	354.51	16.82	-33.9	-34.8	24.7	0.00e+00	122	34	0	1674575872	42	5448
2026-01-06 22:09:52.30	354.35	16.74	-34.0	-34.9	24.6	0.00e+00	122	34	0	1677721600	42	5503
2026-01-06 22:09:53.31	354.19	16.66	-34.1	-35.0	24.5	0.00e+00	122	34	0	1680867328	42	5567
2026-01-06 22:09:54.32	354.02	16.58	-34.3	-35.2	24.4	0.00e+00	122	34	0	1684013056	42	5684
2026-01-06 22:09:55.33	353.86	16.51	-34.4	-35.3	24.3	0.00e+00	123	34	0	1687158784	42	5754
2026-01-06 22:09:56.34	353.70	16.43	-34.5	-35.4	24.3	0.00e+00	122	34	0	1690304512	42	5803
2026-01-06 22:09:57.35	353.54	16.35	-34.5	-35.3	24.1	0.00e+00	123	34	0	1693450240	42	5787
2026-01-06 22:09:58.36	353.38	16.27	-34.6	-35.5	24.0	0.00e+00	123	34	0	1696595968	42	5899
2026-01-06 22:09:59.37	353.22	16.19	-34.7	-35.6	24.0	0.00e+00	123	34	0	1699741696	42	5943
2026-01-06 22:10:00.38	353.06	16.11	-34.5	-35.4	24.1	0.00e+00	120	35	0	1702887424	42	5836
2026-01-06 22:10:01.39	352.90	16.03	-34.5	-35.4	24.1	0.00e+00	122	34	0	1706033152	42	5840
2026-01-06 22:10:02.40	352.74	15.96	-34.6	-35.5	24.1	0.00e+00	122	34	0	1709178880	42	5902
2026-01-06 22:10:03.41	352.59	15.88	-34.2	-35.1	24.5	0.00e+00	121	34	0	1712324608	42	5619
2026-01-06 22:10:04.42	352.43	15.80	-34.1	-35.0	24.5	0.00e+00	122	34	0	1715470336	42	5551
2026-01-06 22:10:05.43	352.28	15.72	-34.2	-35.1	24.4	0.00e+00	123	34	0	1718616064	42	5645
2026-01-06 22:10:06.43	352.13	15.64	-34.3	-35.1	24.4	0.00e+00	122	34	0	1721761792	42	5653
2026-01-06 22:10:07.44	351.97	15.56	-34.5	-35.4	24.3	0.00e+00	120	34	0	1724907520	42	5797
2026-01-06 22:10:08.45	351.82	15.49	-34.7	-35.6	24.1	0.00e+00	123	34	0	1728053248	42	5931
2026-01-06 22:10:09.46	351.67	15.41	-34.8	-35.7	24.0	0.00e+00	123	34	0	1731198976	42	6050
2026-01-06 22:10:10.47	351.52	15.33	-34.9	-35.9	23.9	0.00e+00	122	34	0	1734344704	42	6149
2026-01-06 22:10:11.48	351.37	15.25	-35.0	-36.0	23.7	0.00e+00	120	34	0	1737490432	42	6234
2026-01-06 22:10:12.49	351.22	15.17	-35.2	-36.1	23.7	0.00e+00	123	34	0	1740636160	42	6334
2026-01-06 22:10:13.50	351.08	15.10	-35.1	-36.1	23.7	0.00e+00	123	34	0	1743781888	42	6291
2026-01-06 22:10:14.51	350.93	15.02	-35.1	-36.0	23.5	0.00e+00	123	34	0	1746927616	42	6240
2026-01-06 22:10:15.51	350.78	14.94	-34.8	-35.7	23.7	0.00e+00	123	35	0	1750073344	42	6054
2026-01-06 22:10:16.52	350.64	14.86	-34.9	-35.8	23.5	0.00e+00	123	34	0	1753219072	42	6119
2026-01-06 22:10:17.53	350.49	14.79	-34.5	-35.4	23.9	0.00e+00	122	34	0	1756364800	42	5853
2026-01-06 22:10:18.54	350.35	14.71	-34.5	-35.4	24.0	0.00e+00	122	34	0	1759510528	42	5830
2026-01-06 22:10:19.55	350.21	14.63	-34.5	-35.4	24.1	0.00e+00	123	35	0	1762656256	42	5808
2026-01-06 22:10:20.56	350.06	14.55	-34.6	-35.5	24.1	0.00e+00	122	34	0	1765801984	42	5871
2026-01-06 22:10:21.57	349.92	14.47	-34.6	-35.5	24.1	0.00e+00	122	34	0	1768947712	42	5872
2026-01-06 22:10:22.58	349.78	14.40	-34.6	-35.5	24.1	0.00e+00	123	34	0	1772093440	42	5884
2026-01-06 22:10:23.59	349.64	14.32	-34.8	-35.7	23.9	0.00e+00	122	35	0	1775239168	42	6045
2026-01-06 22:10:24.60	349.50	14.24	-35.1	-36.0	23.8	0.00e+00	122	35	0	1778384896	42	6254
2026-01-06 22:10:25.61	349.36	14.17	-35.3	-36.2	23.5	0.00e+00	123	34	0	1781530624	42	6397
2026-01-06 22:10:26.62	349.23	14.09	-35.6	-36.5	23.2	0.00e+00	123	34	0	1784676352	42	6621
2026-01-06 22:10:27.63	349.09	14.01	-35.7	-36.7	23.1	0.00e+00	120	35	0	1787822080	42	6735
2026-01-06 22:10:28.64	348.95	13.93	-35.7	-36.6	23.1	0.00e+00	122	34	0	1790967808	42	6722
2026-01-06 22:10:29.64	348.82	13.86	-35.6	-36.6	23.1	0.00e+00	123	34	0	1794113536	42	6669
2026-01-06 22:10:30.66	348.68	13.78	-35.6	-36.6	23.1	0.00e+00	122	34	0	1797259264	42	6680
2026-01-06 22:10:31.66	348.55	13.70	-35.6	-36.6	23.1	0.00e+00	122	34	0	1800404992	42	6679
2026-01-06 22:10:32.68	348.41	13.63	-35.3	-36.3	23.3	0.00e+00	123	34	0	1803550720	42	6455
2026-01-06 22:10:33.69	348.28	13.55	-35.0	-36.0	23.5	0.00e+00	123	34	0	1807745024	42	6216
2026-01-06 22:10:34.70	348.15	13.47	-35.1	-36.0	23.5	0.00e+00	122	34	0	1810890752	42	6276
2026-01-06 22:10:35.71	348.02	13.40	-34.9	-35.8	23.7	0.00e+00	123	34	0	1814036480	42	6110
2026-01-06 22:10:36.72	347.89	13.32	-34.9	-35.8	23.7	0.00e+00	123	34	0	1816133632	42	6116
2026-01-06 22:10:37.73	347.76	13.25	-34.9	-35.8	23.8	0.00e+00	122	34	0	1819279360	42	6129
2026-01-06 22:10:38.74	347.63	13.17	-34.9	-35.9	23.8	0.00e+00	122	34	0	1823473664	42	6142
2026-01-06 22:10:39.75	347.50	13.09	-35.1	-36.0	23.6	0.00e+00	123	34	0	1826619392	42	6276
2026-01-06 22:10:40.76	347.37	13.02	-35.1	-36.1	23.6	0.00e+00	122	34	0	1829765120	42	6285
2026-01-06 22:10:41.77	347.24	12.94	-35.3	-36.3	23.5	0.00e+00	122	34	0	1832910848	42	6452
2026-01-06 22:10:42.78	347.12	12.87	-35.5	-36.4	23.4	0.00e+00	123	34	0	1836056576	42	6534
2026-01-06 22:10:43.79	346.99	12.79	-35.5	-36.5	23.2	0.00e+00	122	34	0	1839202304	42	6593
2026-01-06 22:10:44.80	346.86	12.71	-35.7	-36.7	23.1	0.00e+00	123	35	0	1842348032	42	6735
2026-01-06 22:10:45.81	346.74	12.64	-35.6	-36.6	23.1	0.00e+00	122	34	0	1845493760	42	6652
2026-01-06 22:10:46.82	346.62	12.56	-35.4	-36.4	23.2	0.00e+00	122	34	0	1848639488	42	6525
2026-01-06 22:10:47.83	346.49	12.49	-35.4	-36.4	23.2	0.00e+00	122	34	0	1851785216	42	6501
2026-01-06 22:10:48.84	346.37	12.41	-35.5	-36.5	23.0	0.00e+00	123	34	0	1854930944	42	6578
2026-01-06 22:10:49.85	346.25	12.34	-35.1	-36.0	23.4	0.00e+00	123	34	0	1858076672	42	6274
2026-01-06 22:10:50.86	346.13	12.26	-35.1	-36.0	23.4	0.00e+00	122	34	0	1861222400	42	6274
2026-01-06 22:10:51.87	346.01	12.19	-34.9	-35.8	23.7	0.00e+00	123	34	0	1864368128	42	6079
2026-01-06 22:10:52.88	345.89	12.11	-34.6	-35.5	23.9	0.00e+00	122	34	0	1867513856	42	5865
2026-01-06 22:10:53.89	345.77	12.04	-34.8	-35.7	23.9	0.00e+00	123	34	0	1870659584	42	6046
2026-01-06 22:10:54.90	345.65	11.96	-34.5	-35.3	24.1	0.00e+00	123	34	0	1873805312	42	5788
2026-01-06 22:10:55.92	345.53	11.89	-34.5	-35.3	24.1	0.00e+00	122	34	0	1876951040	42	5789
2026-01-06 22:10:56.93	345.41	11.81	-34.6	-35.5	24.1	0.00e+00	122	34	0	1880096768	42	5869
2026-01-06 22:10:57.94	345.29	11.74	-34.7	-35.6	23.9	0.00e+00	122	34	0	1883242496	42	5974
2026-01-06 22:10:58.95	345.18	11.67	-34.9	-35.8	23.7	0.00e+00	122	34	0	1886388224	42	6114
2026-01-06 22:10:59.96	345.06	11.59	-35.2	-36.1	23.6	0.00e+00	123	34	0	1889533952	42	6316
2026-01-06 22:11:00.97	344.94	11.52	-35.4	-36.3	23.4	0.00e+00	122	34	0	1892679680	42	6481
2026-01-06 22:11:01.98	344.83	11.44	-35.6	-36.5	23.2	0.00e+00	123	34	0	1895825408	42	6636
2026-01-06 22:11:02.99	344.72	11.37	-35.7	-36.7	23.1	0.00e+00	122	34	0	1898971136	44	6004
2026-01-06 22:11:04.00	344.60	11.30	-35.9	-36.9	22.8	0.00e+00	120	34	0	1902116864	44	6135
2026-01-06 22:11:05.01	344.49	11.22	-35.9	-36.8	22.9	0.00e+00	123	34	0	1905262592	44	6114
2026-01-06 22:11:06.02	344.38	11.15	-35.8	-36.8	22.9	0.00e+00	122	34	0	1908408320	44	6087
2026-01-06 22:11:07.03	344.27	11.08	-35.9	-36.9	22.7	0.00e+00	120	34	0	1911554048	44	6145
2026-01-06 22:11:08.04	344.15	11.00	-35.8	-36.8	22.8	0.00e+00	122	35	0	1914699776	44	6111
2026-01-06 22:11:09.05	344.04	10.93	-35.5	-36.5	22.9	0.00e+00	123	34	0	1917845504	44	5902
2026-01-06 22:11:10.06	343.93	10.86	-35.7	-36.7	22.8	0.00e+00	120	35	0	1920991232	44	5997
2026-01-06 22:11:11.07	343.82	10.78	-35.3	-36.2	23.1	0.00e+00	122	34	0	1924136960	44	5712
2026-01-06 22:11:12.08	343.72	10.71	-35.4	-36.3	23.1	0.00e+00	120	34	0	1927282688	44	5759
2026-01-06 22:11:13.09	343.61	10.64	-35.1	-36.1	23.4	0.00e+00	123	34	0	1930428416	44	5600
2026-01-06 22:11:14.10	343.50	10.57	-35.0	-36.0	23.5	0.00e+00	122	34	0	1933574144	44	5534
2026-01-06 22:11:15.11	343.39	10.49	-35.0	-35.9	23.5	0.00e+00	120	34	0	1936719872	44	5501
2026-01-06 22:11:16.12	343.28	10.42	-35.0	-36.0	23.5	0.00e+00	123	34	0	1939865600	44	5549
2026-01-06 22:11:17.13	343.18	10.35	-35.1	-36.1	23.5	0.00e+00	120	34	0	1943011328	44	5627
2026-01-06 22:11:18.14	343.07	10.28	-35.2	-36.1	23.4	0.00e+00	123	34	0	1946157056	44	5649
2026-01-06 22:11:19.15	342.97	10.21	-35.3	-36.2	23.4	0.00e+00	122	34	0	1949302784	44	5718
