passes_logs/2026/01/06/R4.6S_Anadyr/R4.6S_Anadyr__20260106_120257_NOAA_21_JPSS-2_rec.log

#Pass ID: 20260106_120257_NOAA 21 (JPSS-2)
#Satellite: NOAA 21 (JPSS-2)
#Configuration: NOAA-21
#almurnet v.1.7.20251203
#Start time: 2026-01-06 12:02:57

#Version: 2.2.20231116
#Station: R4.6S_Anadyr
#Location: 177.4865 lon 64.73178 lat
#TLE: 1 54234U 22150A   26005.42670836  .00000142  00000+0  88292-4 0  9996
#TLE: 2 54234  98.7490 306.4427 0001045 340.6622  19.4514 14.19532269163451

#Time	Az	El	Level	Level2	SNR	BER	BlckErr	Temp	State	Recorded	gain1	gain2
2026-01-06 12:02:57.83	19.45	0.04	-48.7	-59.4	3.5	8.44e-01	0	33	0	0	60	33675
2026-01-06 12:02:58.84	19.53	0.08	-48.6	-61.5	3.5	1.51e+00	0	34	104	0	60	41737
2026-01-06 12:02:59.85	19.61	0.13	-48.7	-61.6	3.5	1.51e+00	0	34	104	0	60	42077
2026-01-06 12:03:00.85	19.70	0.17	-48.6	-61.6	3.5	1.52e+00	0	34	104	0	60	42043
2026-01-06 12:03:01.86	19.78	0.22	-48.7	-61.6	3.5	1.52e+00	0	34	104	0	60	42266
2026-01-06 12:03:02.87	19.86	0.26	-48.7	-61.6	3.5	1.52e+00	0	34	104	0	60	42166
2026-01-06 12:03:03.88	19.95	0.31	-48.8	-61.7	3.5	1.52e+00	0	34	104	0	60	42458
2026-01-06 12:03:04.89	20.03	0.36	-48.8	-61.6	3.5	1.51e+00	0	34	104	0	60	42265
2026-01-06 12:03:05.90	20.12	0.40	-48.7	-61.6	3.5	1.52e+00	0	34	104	0	60	42049
2026-01-06 12:03:06.91	20.20	0.45	-48.7	-61.5	3.5	1.52e+00	0	35	104	0	60	41824
2026-01-06 12:03:07.92	20.29	0.50	-48.6	-61.4	3.5	1.52e+00	0	34	104	0	60	41395
2026-01-06 12:03:08.93	20.37	0.54	-48.5	-61.4	3.5	1.51e+00	0	35	104	0	60	41047
2026-01-06 12:03:09.94	20.46	0.59	-48.3	-61.2	3.5	1.52e+00	0	34	104	0	60	40363
2026-01-06 12:03:10.95	20.55	0.63	-48.3	-61.1	3.5	1.52e+00	0	34	104	0	60	40058
2026-01-06 12:03:11.96	20.63	0.68	-48.1	-61.0	3.5	1.51e+00	0	35	104	0	60	39388
2026-01-06 12:03:12.97	20.72	0.73	-47.9	-60.7	3.5	1.52e+00	0	35	104	0	60	37869
2026-01-06 12:03:13.98	20.81	0.77	-47.4	-60.3	3.5	1.52e+00	0	35	104	0	60	36232
2026-01-06 12:03:14.99	20.89	0.82	-47.2	-60.0	3.5	1.52e+00	0	35	104	0	60	35092
2026-01-06 12:03:16.00	20.98	0.87	-47.2	-60.0	3.5	1.52e+00	0	35	104	0	60	35105
2026-01-06 12:03:17.01	21.07	0.91	-47.2	-60.0	3.5	1.52e+00	0	35	104	0	60	34986
2026-01-06 12:03:18.02	21.16	0.96	-47.1	-60.0	3.5	1.52e+00	0	35	104	0	60	35033
2026-01-06 12:03:19.03	21.25	1.00	-47.2	-60.0	3.5	1.52e+00	0	35	104	0	60	35072
2026-01-06 12:03:20.04	21.33	1.05	-47.1	-59.9	3.5	1.52e+00	0	35	104	0	60	34745
2026-01-06 12:03:21.05	21.42	1.10	-47.1	-59.9	3.5	1.51e+00	0	35	104	0	60	34876
2026-01-06 12:03:22.06	21.51	1.14	-47.1	-59.9	3.5	1.52e+00	0	35	104	0	60	34804
2026-01-06 12:03:23.07	21.60	1.19	-47.1	-60.0	3.5	1.52e+00	0	35	104	0	60	34945
2026-01-06 12:03:24.08	21.69	1.24	-47.1	-59.9	3.5	1.52e+00	0	35	104	0	60	34872
2026-01-06 12:03:25.09	21.78	1.28	-47.1	-60.0	3.5	1.52e+00	0	35	104	0	60	35085
2026-01-06 12:03:26.10	21.87	1.33	-47.1	-60.0	3.5	1.51e+00	0	35	104	0	60	35063
2026-01-06 12:03:27.11	21.96	1.38	-47.1	-60.0	3.5	1.52e+00	0	35	104	0	60	35005
2026-01-06 12:03:28.12	22.05	1.42	-47.1	-60.0	3.5	1.52e+00	0	35	104	0	60	34903
2026-01-06 12:03:29.13	22.14	1.47	-47.1	-59.9	3.5	1.52e+00	0	35	104	0	60	34843
2026-01-06 12:03:30.14	22.23	1.52	-47.1	-60.0	3.5	1.52e+00	0	35	104	0	60	35005
2026-01-06 12:03:31.15	22.33	1.56	-47.2	-59.9	3.5	1.52e+00	0	35	104	0	60	34780
2026-01-06 12:03:32.16	22.42	1.61	-47.1	-60.0	3.5	1.52e+00	0	35	104	0	60	34930
2026-01-06 12:03:33.16	22.51	1.66	-47.1	-59.9	3.5	1.52e+00	0	35	104	0	60	34740
2026-01-06 12:03:34.18	22.60	1.70	-47.1	-59.9	3.5	1.52e+00	0	35	104	0	60	34845
2026-01-06 12:03:35.19	22.69	1.75	-47.1	-60.0	3.5	1.52e+00	0	35	104	0	60	34970
2026-01-06 12:03:36.19	22.79	1.80	-47.1	-59.9	3.5	1.52e+00	0	35	104	0	60	34747
2026-01-06 12:03:37.20	22.88	1.84	-47.1	-60.0	3.5	1.52e+00	0	35	104	0	60	35003
2026-01-06 12:03:38.21	22.97	1.89	-47.1	-59.9	3.5	1.52e+00	0	35	104	0	60	34785
2026-01-06 12:03:39.23	23.07	1.94	-47.1	-59.9	3.5	1.52e+00	0	35	104	0	60	34599
2026-01-06 12:03:40.24	23.16	1.98	-47.1	-59.8	3.5	1.52e+00	0	35	104	0	60	34330
2026-01-06 12:03:41.24	23.25	2.03	-47.1	-59.8	3.5	1.52e+00	0	35	104	0	60	34182
2026-01-06 12:03:42.26	23.35	2.08	-47.1	-59.8	3.5	1.52e+00	0	35	104	0	60	34330
2026-01-06 12:03:43.27	23.44	2.12	-47.1	-59.9	3.5	1.52e+00	0	35	104	0	60	34506
2026-01-06 12:03:44.28	23.54	2.17	-47.1	-59.9	3.5	1.52e+00	0	35	104	0	60	34811
2026-01-06 12:03:45.29	23.64	2.22	-47.1	-59.9	3.5	1.52e+00	0	35	104	0	60	34570
2026-01-06 12:03:46.29	23.73	2.26	-47.1	-59.9	3.5	1.52e+00	0	35	104	0	60	34775
2026-01-06 12:03:47.30	23.83	2.31	-47.1	-59.9	3.5	1.52e+00	0	35	104	0	60	34883
2026-01-06 12:03:48.32	23.92	2.36	-47.1	-59.6	3.5	1.52e+00	0	35	104	0	60	33581
2026-01-06 12:03:49.33	24.02	2.41	-47.0	-58.8	3.5	1.51e+00	0	35	104	0	60	30423
2026-01-06 12:03:50.34	24.12	2.45	-47.0	-58.8	3.5	1.51e+00	0	35	104	0	60	30467
2026-01-06 12:03:51.35	24.21	2.50	-47.1	-59.0	3.5	1.51e+00	0	35	104	0	60	31342
2026-01-06 12:03:52.36	24.31	2.55	-47.0	-58.1	3.5	1.52e+00	0	35	104	0	60	28311
2026-01-06 12:03:53.37	24.41	2.59	-46.1	-52.6	6.7	4.73e-01	120	35	104	0	60	15039
2026-01-06 12:03:54.38	24.51	2.64	-44.4	-47.9	11.2	6.28e-03	123	35	0	2097152	60	8688
2026-01-06 12:03:55.39	24.60	2.69	-42.2	-44.4	14.8	3.89e-05	120	35	0	5242880	58	6553
2026-01-06 12:03:56.40	24.70	2.74	-40.8	-42.5	16.8	0.00e+00	123	35	0	9437184	56	5866
2026-01-06 12:03:57.41	24.80	2.78	-39.2	-40.6	18.5	0.00e+00	123	35	0	12582912	52	5989
2026-01-06 12:03:58.42	24.90	2.83	-38.5	-39.9	19.2	0.00e+00	123	35	0	14680064	50	6136
2026-01-06 12:03:59.43	25.00	2.88	-39.3	-40.7	18.3	0.00e+00	122	35	0	17825792	50	6762
2026-01-06 12:04:00.44	25.10	2.92	-39.7	-41.3	17.8	0.00e+00	122	35	0	20971520	50	7214
2026-01-06 12:04:01.45	25.20	2.97	-41.1	-43.0	16.0	0.00e+00	120	35	0	25165824	54	6974
2026-01-06 12:04:02.45	25.30	3.02	-43.2	-45.8	12.9	0.00e+00	123	35	0	28311552	58	7719
2026-01-06 12:04:03.47	25.40	3.07	-45.1	-49.2	11.3	7.84e-03	123	35	0	31457280	60	10135
2026-01-06 12:04:04.48	25.50	3.11	-46.3	-52.7	4.7	8.26e-01	0	35	104	33554432	60	15210
2026-01-06 12:04:05.49	25.60	3.16	-46.9	-59.1	3.5	1.51e+00	0	35	104	33554432	60	31665
2026-01-06 12:04:06.50	25.71	3.21	-45.8	-51.3	9.0	6.73e-01	122	35	104	33554432	60	12906
2026-01-06 12:04:07.51	25.81	3.25	-41.3	-43.1	16.0	0.00e+00	120	35	0	34603008	56	6345
2026-01-06 12:04:08.52	25.91	3.30	-47.3	-59.7	3.5	1.51e+00	0	35	104	35651584	60	33809
2026-01-06 12:04:09.52	26.01	3.35	-41.3	-43.5	16.0	9.97e-03	123	35	104	35651584	56	6606
2026-01-06 12:04:10.53	26.11	3.40	-41.3	-43.1	17.0	0.00e+00	123	35	0	37748736	56	6327
2026-01-06 12:04:11.54	26.22	3.44	-41.0	-42.7	16.3	0.00e+00	122	35	0	40894464	56	6050
2026-01-06 12:04:12.55	26.32	3.49	-41.3	-43.2	16.8	0.00e+00	122	35	0	44040192	54	7134
2026-01-06 12:04:13.56	26.42	3.54	-41.2	-43.0	16.6	0.00e+00	122	35	0	47185920	54	6988
2026-01-06 12:04:14.57	26.53	3.58	-41.1	-42.8	16.3	0.00e+00	122	35	0	50331648	54	6880
2026-01-06 12:04:15.58	26.63	3.63	-41.7	-43.6	16.3	0.00e+00	123	35	0	53477376	54	7521
2026-01-06 12:04:16.59	26.74	3.68	-41.1	-42.8	16.0	0.00e+00	123	35	0	56623104	56	6125
2026-01-06 12:04:17.60	26.84	3.73	-41.5	-43.4	16.1	0.00e+00	123	35	0	59768832	56	6525
2026-01-06 12:04:18.61	26.95	3.77	-40.6	-42.2	17.3	0.00e+00	122	35	0	62914560	56	5692
2026-01-06 12:04:19.62	27.05	3.82	-39.3	-40.7	18.8	0.00e+00	122	35	0	66060288	52	6034
2026-01-06 12:04:20.63	27.16	3.87	-38.7	-40.0	19.3	0.00e+00	120	35	0	69206016	50	6243
2026-01-06 12:04:21.63	27.26	3.92	-38.6	-39.9	19.4	0.00e+00	123	35	0	72351744	50	6176
2026-01-06 12:04:22.64	27.37	3.96	-38.6	-39.8	19.5	0.00e+00	121	35	0	75497472	50	6130
2026-01-06 12:04:23.65	27.48	4.01	-38.4	-39.6	19.6	0.00e+00	123	35	0	78643200	50	5974
2026-01-06 12:04:24.66	27.59	4.06	-38.5	-39.8	19.7	0.00e+00	120	35	0	81788928	50	6130
2026-01-06 12:04:25.67	27.69	4.10	-38.3	-39.5	19.8	0.00e+00	122	35	0	84934656	50	5922
2026-01-06 12:04:26.68	27.80	4.15	-38.0	-39.2	20.1	0.00e+00	120	35	0	88080384	50	5688
2026-01-06 12:04:27.68	27.91	4.20	-37.6	-38.7	20.5	0.00e+00	122	35	0	91226112	48	6036
2026-01-06 12:04:28.69	28.02	4.25	-37.4	-38.6	20.6	0.00e+00	122	35	0	94371840	48	5939
2026-01-06 12:04:29.70	28.13	4.29	-37.4	-38.6	20.7	0.00e+00	123	35	0	97517568	48	5955
2026-01-06 12:04:30.71	28.24	4.34	-37.3	-38.4	20.8	0.00e+00	123	35	0	100663296	48	5852
2026-01-06 12:04:31.72	28.35	4.39	-37.4	-38.5	20.7	0.00e+00	123	35	0	103809024	48	5926
2026-01-06 12:04:32.74	28.46	4.44	-37.5	-38.6	20.6	0.00e+00	122	35	0	106954752	48	5988
2026-01-06 12:04:33.75	28.57	4.48	-37.2	-38.3	20.9	0.00e+00	123	35	0	110100480	48	5782
2026-01-06 12:04:34.76	28.68	4.53	-37.3	-38.4	20.9	0.00e+00	123	35	0	113246208	48	5832
2026-01-06 12:04:35.77	28.79	4.58	-37.5	-38.7	20.6	0.00e+00	123	35	0	116391936	48	6007
2026-01-06 12:04:36.78	28.90	4.63	-37.4	-38.6	20.7	0.00e+00	122	35	0	119537664	48	5935
2026-01-06 12:04:37.79	29.01	4.67	-37.5	-38.7	20.7	0.00e+00	120	35	0	122683392	48	5996
2026-01-06 12:04:38.80	29.12	4.72	-37.2	-38.3	21.0	0.00e+00	123	35	0	125829120	48	5738
2026-01-06 12:04:39.81	29.24	4.77	-37.3	-38.4	20.9	0.00e+00	122	35	0	128974848	48	5831
2026-01-06 12:04:40.82	29.35	4.81	-37.3	-38.4	20.9	0.00e+00	122	35	0	132120576	48	5849
2026-01-06 12:04:41.83	29.46	4.86	-37.3	-38.5	20.9	0.00e+00	122	35	0	135266304	48	5867
2026-01-06 12:04:42.84	29.58	4.91	-37.1	-38.2	21.1	0.00e+00	120	35	0	138412032	48	5707
2026-01-06 12:04:43.85	29.69	4.96	-37.1	-38.2	21.0	0.00e+00	122	35	0	141557760	48	5699
2026-01-06 12:04:44.86	29.80	5.00	-37.2	-38.4	21.0	0.00e+00	120	35	0	144703488	48	5795
2026-01-06 12:04:45.87	29.92	5.05	-37.3	-38.4	20.8	0.00e+00	122	35	0	147849216	48	5828
2026-01-06 12:04:46.88	30.03	5.10	-37.1	-38.2	21.1	0.00e+00	123	35	0	150994944	48	5689
2026-01-06 12:04:47.88	30.15	5.14	-36.8	-37.9	21.4	0.00e+00	122	35	0	154140672	48	5510
2026-01-06 12:04:48.89	30.26	5.19	-36.9	-38.0	21.4	0.00e+00	123	35	0	157286400	48	5567
2026-01-06 12:04:49.90	30.38	5.24	-36.9	-38.0	21.4	0.00e+00	123	35	0	160432128	48	5557
2026-01-06 12:04:50.91	30.49	5.29	-36.8	-37.9	21.4	0.00e+00	123	35	0	163577856	46	6179
2026-01-06 12:04:51.92	30.61	5.33	-37.0	-38.1	21.3	0.00e+00	122	35	0	166723584	46	6313
2026-01-06 12:04:52.93	30.73	5.38	-36.9	-38.0	21.3	0.00e+00	120	35	0	169869312	46	6245
2026-01-06 12:04:53.94	30.85	5.43	-37.0	-38.1	21.3	0.00e+00	122	35	0	173015040	46	6288
2026-01-06 12:04:54.95	30.96	5.48	-37.0	-38.1	21.3	0.00e+00	120	35	0	176160768	46	6302
2026-01-06 12:04:55.96	31.08	5.52	-37.1	-38.2	21.2	0.00e+00	122	35	0	179306496	46	6375
2026-01-06 12:04:56.97	31.20	5.57	-37.0	-38.1	21.3	0.00e+00	123	35	0	182452224	46	6307
2026-01-06 12:04:57.98	31.32	5.62	-37.1	-38.3	21.3	0.00e+00	123	35	0	185597952	46	6424
2026-01-06 12:04:58.99	31.44	5.66	-37.2	-38.3	21.1	0.00e+00	122	35	0	188743680	46	6434
2026-01-06 12:04:59.99	31.56	5.71	-37.3	-38.5	21.0	0.00e+00	123	35	0	191889408	46	6580
2026-01-06 12:05:01.00	31.68	5.76	-37.2	-38.3	21.2	0.00e+00	123	35	0	195035136	46	6457
2026-01-06 12:05:02.01	31.80	5.81	-37.0	-38.1	21.3	0.00e+00	123	35	0	198180864	46	6347
2026-01-06 12:05:03.02	31.92	5.85	-37.2	-38.3	21.1	0.00e+00	120	36	0	201326592	46	6485
2026-01-06 12:05:04.03	32.04	5.90	-37.2	-38.3	21.1	0.00e+00	122	35	0	204472320	46	6461
2026-01-06 12:05:05.04	32.16	5.95	-37.2	-38.3	21.2	0.00e+00	120	36	0	207618048	46	6431
2026-01-06 12:05:06.05	32.28	5.99	-37.0	-38.1	21.3	0.00e+00	123	35	0	210763776	46	6334
2026-01-06 12:05:07.06	32.40	6.04	-37.1	-38.2	21.3	0.00e+00	122	36	0	213909504	46	6356
2026-01-06 12:05:08.07	32.53	6.09	-37.0	-38.1	21.3	0.00e+00	120	36	0	217055232	46	6332
2026-01-06 12:05:09.08	32.65	6.13	-37.0	-38.1	21.3	0.00e+00	123	35	0	220200960	46	6311
2026-01-06 12:05:10.09	32.77	6.18	-36.9	-38.0	21.5	0.00e+00	123	35	0	223346688	46	6247
2026-01-06 12:05:11.10	32.90	6.23	-36.9	-38.0	21.4	0.00e+00	123	36	0	226492416	46	6254
2026-01-06 12:05:12.11	33.02	6.27	-37.0	-38.1	21.4	0.00e+00	122	36	0	229638144	46	6296
2026-01-06 12:05:13.12	33.14	6.32	-36.9	-38.0	21.5	0.00e+00	120	36	0	232783872	46	6225
2026-01-06 12:05:14.13	33.27	6.37	-37.0	-38.1	21.5	0.00e+00	123	36	0	235929600	46	6278
2026-01-06 12:05:15.14	33.39	6.42	-37.0	-38.1	21.4	0.00e+00	122	36	0	239075328	46	6336
2026-01-06 12:05:16.15	33.52	6.46	-36.8	-37.9	21.6	0.00e+00	123	36	0	242221056	46	6159
2026-01-06 12:05:17.16	33.65	6.51	-36.9	-38.0	21.5	0.00e+00	120	36	0	245366784	46	6232
2026-01-06 12:05:18.17	33.77	6.56	-36.8	-37.9	21.6	0.00e+00	122	36	0	248512512	46	6157
2026-01-06 12:05:19.17	33.90	6.60	-36.7	-37.7	21.7	0.00e+00	123	36	0	251658240	46	6057
2026-01-06 12:05:20.18	34.03	6.65	-36.7	-37.7	21.6	0.00e+00	123	35	0	254803968	46	6064
2026-01-06 12:05:21.19	34.15	6.70	-36.6	-37.7	21.8	0.00e+00	123	36	0	257949696	46	6005
2026-01-06 12:05:22.20	34.28	6.74	-36.6	-37.7	21.8	0.00e+00	120	36	0	261095424	46	6011
2026-01-06 12:05:23.21	34.41	6.79	-36.7	-37.7	21.8	0.00e+00	123	36	0	264241152	46	6051
2026-01-06 12:05:24.22	34.54	6.83	-36.6	-37.6	21.9	0.00e+00	120	36	0	267386880	46	5986
2026-01-06 12:05:25.23	34.67	6.88	-36.6	-37.7	21.8	0.00e+00	123	36	0	270532608	46	6020
2026-01-06 12:05:26.24	34.80	6.93	-36.4	-37.5	22.0	0.00e+00	122	36	0	273678336	46	5874
2026-01-06 12:05:27.25	34.93	6.97	-36.6	-37.7	21.8	0.00e+00	123	36	0	276824064	46	6013
2026-01-06 12:05:28.26	35.06	7.02	-36.4	-37.5	22.0	0.00e+00	123	35	0	279969792	46	5860
2026-01-06 12:05:29.27	35.19	7.07	-36.4	-37.4	22.1	0.00e+00	123	36	0	283115520	46	5834
2026-01-06 12:05:30.28	35.32	7.11	-36.5	-37.5	22.0	0.00e+00	123	36	0	286261248	46	5894
2026-01-06 12:05:31.29	35.45	7.16	-36.2	-37.3	22.2	0.00e+00	122	36	0	289406976	46	5727
2026-01-06 12:05:32.30	35.58	7.21	-36.2	-37.3	22.2	0.00e+00	122	36	0	292552704	46	5739
2026-01-06 12:05:33.30	35.71	7.25	-36.2	-37.2	22.2	0.00e+00	122	36	0	295698432	46	5688
2026-01-06 12:05:34.31	35.85	7.30	-36.2	-37.2	22.2	0.00e+00	122	36	0	298844160	46	5678
2026-01-06 12:05:35.32	35.98	7.34	-36.2	-37.2	22.3	0.00e+00	123	36	0	301989888	46	5680
2026-01-06 12:05:36.34	36.11	7.39	-36.2	-37.2	22.1	0.00e+00	123	35	0	305135616	46	5690
2026-01-06 12:05:37.35	36.25	7.44	-36.3	-37.3	22.2	0.00e+00	122	35	0	309329920	46	5785
2026-01-06 12:05:38.35	36.38	7.48	-36.3	-37.3	22.1	0.00e+00	123	35	0	311427072	46	5783
2026-01-06 12:05:39.36	36.52	7.53	-36.4	-37.4	22.0	0.00e+00	123	36	0	314572800	46	5838
2026-01-06 12:05:40.37	36.65	7.57	-36.4	-37.5	22.0	0.00e+00	122	35	0	317718528	46	5864
2026-01-06 12:05:41.38	36.79	7.62	-36.2	-37.3	22.2	0.00e+00	122	36	0	320864256	46	5729
2026-01-06 12:05:42.39	36.92	7.66	-36.3	-37.3	22.2	0.00e+00	120	36	0	325058560	46	5772
2026-01-06 12:05:43.40	37.06	7.71	-36.2	-37.2	22.2	0.00e+00	123	36	0	328204288	46	5688
2026-01-06 12:05:44.41	37.20	7.76	-36.2	-37.2	22.2	0.00e+00	123	36	0	331350016	46	5696
2026-01-06 12:05:45.42	37.33	7.80	-36.2	-37.3	22.3	0.00e+00	123	36	0	334495744	46	5728
2026-01-06 12:05:46.43	37.47	7.85	-36.2	-37.2	22.3	0.00e+00	122	35	0	336592896	46	5702
2026-01-06 12:05:47.44	37.61	7.89	-36.1	-37.1	22.4	0.00e+00	123	36	0	340787200	46	5636
2026-01-06 12:05:48.45	37.75	7.94	-36.2	-37.2	22.3	0.00e+00	123	36	0	343932928	46	5670
2026-01-06 12:05:49.46	37.89	7.98	-36.1	-37.2	22.4	0.00e+00	123	36	0	347078656	46	5667
2026-01-06 12:05:50.47	38.03	8.03	-36.1	-37.1	22.4	0.00e+00	123	35	0	350224384	46	5630
2026-01-06 12:05:51.48	38.17	8.07	-36.1	-37.1	22.5	0.00e+00	123	36	0	353370112	46	5657
2026-01-06 12:05:52.49	38.31	8.12	-36.0	-37.0	22.5	0.00e+00	123	36	0	356515840	46	5556
2026-01-06 12:05:53.50	38.45	8.16	-35.9	-36.9	22.6	0.00e+00	123	36	0	359661568	46	5518
2026-01-06 12:05:54.51	38.59	8.21	-36.1	-37.1	22.4	0.00e+00	120	36	0	362807296	46	5641
2026-01-06 12:05:55.52	38.73	8.25	-36.0	-37.0	22.5	0.00e+00	122	36	0	365953024	46	5561
2026-01-06 12:05:56.52	38.87	8.30	-35.9	-36.9	22.5	0.00e+00	122	36	0	369098752	46	5500
2026-01-06 12:05:57.53	39.01	8.34	-36.1	-37.2	22.4	0.00e+00	123	36	0	372244480	46	5660
2026-01-06 12:05:58.54	39.15	8.39	-35.9	-36.8	22.6	0.00e+00	123	36	0	375390208	46	5456
2026-01-06 12:05:59.55	39.30	8.43	-36.0	-37.0	22.6	0.00e+00	120	35	0	378535936	46	5535
2026-01-06 12:06:00.56	39.44	8.48	-35.8	-36.7	22.7	0.00e+00	123	35	0	381681664	44	6051
2026-01-06 12:06:01.57	39.58	8.52	-35.9	-36.9	22.5	0.00e+00	120	36	0	384827392	44	6186
2026-01-06 12:06:02.58	39.73	8.57	-35.7	-36.7	22.8	0.00e+00	123	36	0	387973120	44	6025
2026-01-06 12:06:03.59	39.87	8.61	-35.9	-36.9	22.6	0.00e+00	122	36	0	391118848	44	6144
2026-01-06 12:06:04.60	40.02	8.65	-35.8	-36.8	22.7	0.00e+00	123	36	0	394264576	44	6112
2026-01-06 12:06:05.61	40.16	8.70	-35.8	-36.8	22.6	0.00e+00	122	35	0	397410304	44	6075
2026-01-06 12:06:06.62	40.31	8.74	-35.9	-36.9	22.5	0.00e+00	120	36	0	400556032	44	6195
2026-01-06 12:06:07.63	40.46	8.79	-35.8	-36.8	22.6	0.00e+00	123	36	0	403701760	44	6090
2026-01-06 12:06:08.63	40.60	8.83	-35.8	-36.8	22.7	0.00e+00	123	36	0	406847488	44	6115
2026-01-06 12:06:09.64	40.75	8.87	-35.9	-36.9	22.5	0.00e+00	120	36	0	409993216	44	6155
2026-01-06 12:06:10.65	40.90	8.92	-35.8	-36.8	22.6	0.00e+00	122	36	0	413138944	44	6103
2026-01-06 12:06:11.66	41.05	8.96	-35.8	-36.8	22.6	0.00e+00	121	36	0	416284672	44	6110
2026-01-06 12:06:12.67	41.19	9.01	-35.7	-36.7	22.8	0.00e+00	122	36	0	419430400	44	6030
2026-01-06 12:06:13.68	41.34	9.05	-35.7	-36.7	22.8	0.00e+00	120	36	0	422576128	44	6017
2026-01-06 12:06:14.69	41.49	9.09	-35.8	-36.7	22.8	0.00e+00	123	36	0	425721856	44	6050
2026-01-06 12:06:15.70	41.64	9.14	-35.7	-36.7	22.8	0.00e+00	123	36	0	428867584	44	6045
2026-01-06 12:06:16.71	41.79	9.18	-35.8	-36.8	22.7	0.00e+00	123	36	0	432013312	44	6083
2026-01-06 12:06:17.72	41.94	9.22	-35.9	-36.9	22.7	0.00e+00	120	36	0	435159040	44	6174
2026-01-06 12:06:18.73	42.09	9.27	-35.7	-36.7	22.8	0.00e+00	122	36	0	438304768	44	6026
2026-01-06 12:06:19.74	42.25	9.31	-35.9	-37.0	22.6	0.00e+00	123	36	0	441450496	44	6206
2026-01-06 12:06:20.75	42.40	9.35	-36.0	-37.0	22.5	0.00e+00	122	36	0	444596224	44	6242
2026-01-06 12:06:21.76	42.55	9.39	-35.7	-36.7	22.8	0.00e+00	123	36	0	447741952	44	6010
2026-01-06 12:06:22.77	42.70	9.44	-35.8	-36.8	22.8	0.00e+00	123	36	0	450887680	44	6068
2026-01-06 12:06:23.78	42.86	9.48	-35.6	-36.6	22.9	0.00e+00	123	36	0	454033408	44	5933
2026-01-06 12:06:24.79	43.01	9.52	-35.6	-36.6	22.8	0.00e+00	122	36	0	457179136	44	5953
2026-01-06 12:06:25.79	43.16	9.56	-35.6	-36.6	22.9	0.00e+00	123	36	0	460324864	44	5965
2026-01-06 12:06:26.80	43.32	9.61	-35.7	-36.7	22.7	0.00e+00	122	36	0	463470592	44	6022
2026-01-06 12:06:27.81	43.47	9.65	-35.7	-36.7	22.8	0.00e+00	122	36	0	466616320	44	6009
2026-01-06 12:06:28.82	43.63	9.69	-35.7	-36.7	22.8	0.00e+00	123	36	0	469762048	44	6023
2026-01-06 12:06:29.83	43.79	9.73	-35.7	-36.6	22.9	0.00e+00	123	36	0	472907776	44	5990
2026-01-06 12:06:30.84	43.94	9.77	-35.6	-36.6	22.8	0.00e+00	123	36	0	476053504	44	5991
2026-01-06 12:06:31.85	44.10	9.82	-35.7	-36.6	22.9	0.00e+00	123	36	0	479199232	44	5993
2026-01-06 12:06:32.86	44.26	9.86	-35.6	-36.6	22.8	0.00e+00	122	36	0	482344960	44	5963
2026-01-06 12:06:33.87	44.41	9.90	-35.7	-36.7	22.9	0.00e+00	122	36	0	485490688	44	6029
2026-01-06 12:06:34.88	44.57	9.94	-35.9	-36.9	22.7	0.00e+00	123	36	0	488636416	44	6149
2026-01-06 12:06:35.89	44.73	9.98	-35.8	-36.8	22.8	0.00e+00	120	36	0	491782144	44	6117
2026-01-06 12:06:36.90	44.89	10.02	-35.7	-36.7	22.7	0.00e+00	122	36	0	494927872	44	6044
2026-01-06 12:06:37.91	45.05	10.06	-36.0	-36.9	22.8	0.00e+00	123	36	0	498073600	44	6198
2026-01-06 12:06:38.92	45.21	10.10	-35.9	-36.9	22.5	0.00e+00	122	36	0	501219328	44	6194
2026-01-06 12:06:39.93	45.37	10.15	-36.1	-37.1	22.7	0.00e+00	120	36	0	504365056	44	6322
2026-01-06 12:06:40.94	45.53	10.19	-35.8	-36.8	22.6	0.00e+00	123	36	0	507510784	44	6079
2026-01-06 12:06:41.95	45.69	10.23	-35.5	-36.4	23.0	0.00e+00	120	36	0	510656512	44	5858
2026-01-06 12:06:42.96	45.85	10.27	-35.5	-36.5	23.0	0.00e+00	122	36	0	513802240	44	5899
2026-01-06 12:06:43.97	46.01	10.31	-35.3	-36.3	23.2	0.00e+00	123	36	0	516947968	44	5748
2026-01-06 12:06:44.98	46.18	10.35	-35.4	-36.3	23.1	0.00e+00	121	36	0	520093696	44	5783
2026-01-06 12:06:45.99	46.34	10.39	-35.5	-36.4	23.1	0.00e+00	123	36	0	523239424	44	5839
2026-01-06 12:06:47.00	46.50	10.43	-35.7	-36.7	22.9	0.00e+00	123	36	0	526385152	44	6010
2026-01-06 12:06:48.01	46.67	10.47	-35.5	-36.5	22.9	0.00e+00	120	36	0	529530880	44	5898
2026-01-06 12:06:49.01	46.83	10.51	-35.5	-36.5	23.0	0.00e+00	122	36	0	532676608	44	5918
2026-01-06 12:06:50.03	47.00	10.55	-35.6	-36.6	23.0	0.00e+00	122	36	0	535822336	44	5928
2026-01-06 12:06:51.03	47.16	10.58	-35.7	-36.6	22.9	0.00e+00	123	36	0	538968064	44	5989
2026-01-06 12:06:52.05	47.33	10.62	-35.8	-36.8	22.8	0.00e+00	122	36	0	542113792	44	6076
2026-01-06 12:06:53.06	47.49	10.66	-35.8	-36.8	22.9	0.00e+00	121	36	0	545259520	44	6078
2026-01-06 12:06:54.07	47.66	10.70	-35.7	-36.7	22.9	0.00e+00	122	36	0	548405248	44	6047
2026-01-06 12:06:55.08	47.83	10.74	-35.8	-36.8	22.9	0.00e+00	123	36	0	551550976	44	6095
2026-01-06 12:06:56.09	47.99	10.78	-35.7	-36.7	22.9	0.00e+00	122	36	0	554696704	44	6017
2026-01-06 12:06:57.10	48.16	10.82	-35.7	-36.6	22.9	0.00e+00	120	36	0	557842432	44	5979
2026-01-06 12:06:58.11	48.33	10.86	-35.8	-36.8	22.9	0.00e+00	122	36	0	560988160	44	6077
2026-01-06 12:06:59.11	48.49	10.89	-35.5	-36.4	23.2	0.00e+00	120	36	0	564133888	44	5835
2026-01-06 12:07:00.12	48.66	10.93	-35.5	-36.5	23.0	0.00e+00	123	36	0	567279616	44	5890
2026-01-06 12:07:01.13	48.83	10.97	-35.5	-36.5	23.0	0.00e+00	123	36	0	570425344	44	5885
2026-01-06 12:07:02.14	49.00	11.01	-35.6	-36.6	22.9	0.00e+00	123	36	0	573571072	44	5949
2026-01-06 12:07:03.16	49.17	11.04	-35.6	-36.5	23.0	0.00e+00	123	36	0	576716800	44	5916
2026-01-06 12:07:04.16	49.34	11.08	-35.7	-36.6	22.9	0.00e+00	122	36	0	579862528	44	5989
2026-01-06 12:07:05.17	49.51	11.12	-35.7	-36.7	22.9	0.00e+00	122	36	0	583008256	44	6041
2026-01-06 12:07:06.18	49.69	11.16	-35.5	-36.5	23.1	0.00e+00	120	36	0	586153984	44	5869
2026-01-06 12:07:07.19	49.86	11.19	-35.5	-36.5	23.0	0.00e+00	122	36	0	589299712	44	5893
2026-01-06 12:07:08.20	50.03	11.23	-35.5	-36.5	23.1	0.00e+00	120	36	0	592445440	44	5890
2026-01-06 12:07:09.21	50.20	11.26	-35.5	-36.4	23.1	0.00e+00	122	36	0	595591168	44	5855
2026-01-06 12:07:10.22	50.38	11.30	-35.4	-36.3	23.2	0.00e+00	123	36	0	598736896	44	5772
2026-01-06 12:07:11.23	50.55	11.34	-35.5	-36.4	23.0	0.00e+00	123	36	0	601882624	44	5844
2026-01-06 12:07:12.24	50.72	11.37	-35.4	-36.3	23.1	0.00e+00	123	36	0	605028352	44	5780
2026-01-06 12:07:13.25	50.90	11.41	-35.4	-36.4	23.1	0.00e+00	120	36	0	608174080	44	5823
2026-01-06 12:07:14.26	51.07	11.44	-35.5	-36.5	22.9	0.00e+00	123	36	0	611319808	44	5891
2026-01-06 12:07:15.27	51.25	11.48	-35.6	-36.6	23.0	0.00e+00	122	36	0	614465536	44	5935
2026-01-06 12:07:16.28	51.42	11.51	-35.6	-36.5	22.9	0.00e+00	122	36	0	617611264	44	5919
2026-01-06 12:07:17.29	51.60	11.55	-35.4	-36.4	23.0	0.00e+00	122	36	0	620756992	44	5806
2026-01-06 12:07:18.30	51.78	11.58	-35.5	-36.5	23.0	0.00e+00	123	36	0	623902720	44	5887
2026-01-06 12:07:19.31	51.95	11.62	-35.6	-36.6	22.8	0.00e+00	120	36	0	627048448	44	5972
2026-01-06 12:07:20.32	52.13	11.65	-35.8	-36.8	22.7	0.00e+00	123	36	0	630194176	44	6090
2026-01-06 12:07:21.33	52.31	11.69	-35.8	-36.8	22.8	0.00e+00	122	36	0	633339904	44	6112
2026-01-06 12:07:22.34	52.49	11.72	-36.0	-37.0	22.6	0.00e+00	123	36	0	636485632	44	6216
2026-01-06 12:07:23.35	52.66	11.75	-36.0	-37.0	22.6	0.00e+00	123	36	0	639631360	44	6224
2026-01-06 12:07:24.36	52.84	11.79	-35.9	-36.9	22.6	0.00e+00	123	36	0	642777088	44	6146
2026-01-06 12:07:25.37	53.02	11.82	-35.8	-36.8	22.8	0.00e+00	123	36	0	645922816	44	6095
2026-01-06 12:07:26.38	53.20	11.85	-35.8	-36.8	22.8	0.00e+00	120	36	0	649068544	44	6067
2026-01-06 12:07:27.39	53.38	11.89	-35.3	-36.3	23.2	0.00e+00	123	36	0	652214272	44	5759
2026-01-06 12:07:28.40	53.56	11.92	-35.5	-36.4	23.1	0.00e+00	122	36	0	655360000	44	5855
2026-01-06 12:07:29.41	53.74	11.95	-35.4	-36.4	23.1	0.00e+00	120	36	0	658505728	44	5794
2026-01-06 12:07:30.42	53.92	11.99	-35.5	-36.5	23.1	0.00e+00	123	36	0	661651456	44	5868
2026-01-06 12:07:31.43	54.11	12.02	-35.4	-36.4	23.1	0.00e+00	123	36	0	664797184	44	5811
2026-01-06 12:07:32.44	54.29	12.05	-35.4	-36.4	23.2	0.00e+00	122	36	0	667942912	44	5796
2026-01-06 12:07:33.45	54.47	12.08	-35.4	-36.4	23.2	0.00e+00	122	36	0	672137216	44	5795
2026-01-06 12:07:34.46	54.65	12.11	-35.3	-36.3	23.2	0.00e+00	123	36	0	674234368	44	5748
2026-01-06 12:07:35.47	54.84	12.14	-35.4	-36.4	23.2	0.00e+00	122	36	0	677380096	44	5804
2026-01-06 12:07:36.48	55.02	12.17	-35.2	-36.2	23.3	0.00e+00	120	36	0	680525824	44	5695
2026-01-06 12:07:37.49	55.20	12.21	-35.3	-36.3	23.2	0.00e+00	122	36	0	683671552	44	5756
2026-01-06 12:07:38.50	55.39	12.24	-35.3	-36.3	23.2	0.00e+00	122	36	0	687865856	44	5729
2026-01-06 12:07:39.51	55.57	12.27	-35.4	-36.3	23.2	0.00e+00	123	36	0	691011584	44	5784
2026-01-06 12:07:40.52	55.76	12.30	-35.3	-36.3	23.2	0.00e+00	120	36	0	694157312	44	5741
2026-01-06 12:07:41.52	55.94	12.33	-35.4	-36.4	23.1	0.00e+00	122	36	0	697303040	44	5819
2026-01-06 12:07:42.53	56.13	12.36	-35.5	-36.5	23.0	0.00e+00	122	36	0	699400192	44	5874
2026-01-06 12:07:43.54	56.31	12.38	-35.5	-36.5	23.1	0.00e+00	120	36	0	703594496	44	5891
2026-01-06 12:07:44.55	56.50	12.41	-35.3	-36.3	23.2	0.00e+00	122	36	0	706740224	44	5749
2026-01-06 12:07:45.56	56.69	12.44	-35.3	-36.3	23.2	0.00e+00	122	36	0	709885952	44	5753
2026-01-06 12:07:46.57	56.87	12.47	-35.4	-36.4	23.2	0.00e+00	122	36	0	713031680	44	5823
2026-01-06 12:07:47.58	57.06	12.50	-35.3	-36.3	23.2	0.00e+00	120	36	0	716177408	44	5739
2026-01-06 12:07:48.59	57.25	12.53	-35.4	-36.4	23.2	0.00e+00	123	36	0	719323136	44	5800
2026-01-06 12:07:49.60	57.44	12.56	-35.1	-36.1	23.4	0.00e+00	123	36	0	722468864	44	5595
2026-01-06 12:07:50.61	57.62	12.58	-34.9	-35.8	23.6	0.00e+00	123	36	0	725614592	44	5450
2026-01-06 12:07:51.62	57.81	12.61	-35.0	-35.9	23.5	0.00e+00	122	36	0	728760320	44	5496
2026-01-06 12:07:52.63	58.00	12.64	-35.0	-36.0	23.5	0.00e+00	121	36	0	731906048	44	5533
2026-01-06 12:07:53.64	58.19	12.67	-35.1	-36.1	23.3	0.00e+00	123	36	0	735051776	44	5599
2026-01-06 12:07:54.65	58.38	12.69	-35.2	-36.2	23.3	0.00e+00	123	36	0	738197504	44	5684
2026-01-06 12:07:55.66	58.57	12.72	-35.3	-36.2	23.3	0.00e+00	123	36	0	741343232	44	5704
2026-01-06 12:07:56.66	58.76	12.74	-35.4	-36.3	23.2	0.00e+00	123	36	0	744488960	44	5786
2026-01-06 12:07:57.67	58.95	12.77	-35.4	-36.4	23.2	0.00e+00	123	36	0	747634688	44	5808
2026-01-06 12:07:58.68	59.14	12.80	-35.4	-36.3	23.2	0.00e+00	123	36	0	750780416	44	5768
2026-01-06 12:07:59.69	59.33	12.82	-35.4	-36.4	23.3	0.00e+00	123	36	0	753926144	44	5795
2026-01-06 12:08:00.70	59.53	12.85	-35.3	-36.2	23.2	0.00e+00	123	36	0	757071872	44	5709
2026-01-06 12:08:01.71	59.72	12.87	-35.4	-36.4	23.2	0.00e+00	122	36	0	760217600	44	5811
2026-01-06 12:08:02.72	59.91	12.90	-35.3	-36.3	23.1	0.00e+00	122	36	0	763363328	44	5737
2026-01-06 12:08:03.73	60.10	12.92	-35.2	-36.1	23.3	0.00e+00	123	36	0	766509056	44	5648
2026-01-06 12:08:04.74	60.30	12.94	-34.9	-35.9	23.4	0.00e+00	122	36	0	769654784	44	5485
2026-01-06 12:08:05.75	60.49	12.97	-35.0	-35.9	23.3	0.00e+00	120	36	0	772800512	44	5530
2026-01-06 12:08:06.76	60.68	12.99	-35.0	-35.9	23.4	0.00e+00	123	36	0	775946240	44	5523
2026-01-06 12:08:07.77	60.88	13.01	-35.2	-36.1	23.3	0.00e+00	123	36	0	779091968	44	5638
2026-01-06 12:08:08.77	61.07	13.04	-35.0	-36.0	23.4	0.00e+00	123	36	0	782237696	44	5548
2026-01-06 12:08:09.79	61.27	13.06	-34.9	-35.9	23.5	0.00e+00	121	36	0	785383424	44	5498
2026-01-06 12:08:10.79	61.46	13.08	-35.0	-35.9	23.5	0.00e+00	122	36	0	788529152	44	5490
2026-01-06 12:08:11.81	61.66	13.10	-35.0	-35.9	23.6	0.00e+00	122	36	0	791674880	44	5506
2026-01-06 12:08:12.82	61.85	13.13	-34.9	-35.8	23.7	0.00e+00	123	36	0	794820608	44	5425
2026-01-06 12:08:13.83	62.05	13.15	-34.9	-35.8	23.7	0.00e+00	123	36	0	797966336	44	5450
2026-01-06 12:08:14.83	62.24	13.17	-34.9	-35.8	23.6	0.00e+00	123	36	0	801112064	44	5465
2026-01-06 12:08:15.84	62.44	13.19	-35.0	-35.9	23.5	0.00e+00	122	36	0	804257792	44	5512
2026-01-06 12:08:16.85	62.64	13.21	-35.2	-36.1	23.3	0.00e+00	123	36	0	807403520	44	5635
2026-01-06 12:08:17.86	62.83	13.23	-35.2	-36.2	23.2	0.00e+00	123	36	0	810549248	44	5666
2026-01-06 12:08:18.87	63.03	13.25	-35.2	-36.2	23.3	0.00e+00	122	36	0	813694976	44	5692
2026-01-06 12:08:19.88	63.23	13.27	-35.2	-36.2	23.2	0.00e+00	123	36	0	816840704	44	5693
2026-01-06 12:08:20.89	63.43	13.29	-35.2	-36.2	23.3	0.00e+00	123	36	0	819986432	44	5697
2026-01-06 12:08:21.90	63.62	13.31	-35.0	-35.9	23.5	0.00e+00	123	36	0	823132160	44	5530
2026-01-06 12:08:22.91	63.82	13.33	-34.9	-35.8	23.6	0.00e+00	123	36	0	826277888	44	5445
2026-01-06 12:08:23.92	64.02	13.35	-34.9	-35.8	23.6	0.00e+00	123	36	0	829423616	42	6101
2026-01-06 12:08:24.93	64.22	13.37	-34.9	-35.8	23.5	0.00e+00	122	36	0	832569344	42	6111
2026-01-06 12:08:25.94	64.42	13.38	-34.9	-35.9	23.5	0.00e+00	123	36	0	835715072	42	6140
2026-01-06 12:08:26.95	64.62	13.40	-35.0	-36.0	23.4	0.00e+00	122	36	0	838860800	42	6228
2026-01-06 12:08:27.96	64.82	13.42	-34.9	-35.9	23.5	0.00e+00	123	36	0	842006528	42	6160
2026-01-06 12:08:28.97	65.02	13.44	-35.3	-36.2	23.2	0.00e+00	123	36	0	845152256	42	6411
2026-01-06 12:08:29.98	65.22	13.45	-35.1	-36.1	23.3	0.00e+00	123	36	0	848297984	42	6285
2026-01-06 12:08:30.99	65.42	13.47	-34.9	-35.8	23.6	0.00e+00	122	36	0	851443712	42	6130
2026-01-06 12:08:31.99	65.61	13.49	-34.9	-35.9	23.5	0.00e+00	123	36	0	854589440	42	6145
2026-01-06 12:08:33.00	65.81	13.50	-34.9	-35.8	23.5	0.00e+00	122	36	0	857735168	42	6120
2026-01-06 12:08:34.01	66.02	13.52	-34.9	-35.9	23.5	0.00e+00	123	36	0	860880896	42	6150
2026-01-06 12:08:35.02	66.22	13.53	-34.9	-35.8	23.5	0.00e+00	123	36	0	864026624	42	6130
2026-01-06 12:08:36.03	66.42	13.55	-35.0	-36.0	23.5	0.00e+00	122	36	0	867172352	42	6222
2026-01-06 12:08:37.04	66.62	13.56	-35.0	-36.0	23.5	0.00e+00	120	36	0	870318080	42	6247
2026-01-06 12:08:38.05	66.82	13.58	-35.0	-35.9	23.6	0.00e+00	122	36	0	873463808	42	6172
2026-01-06 12:08:39.06	67.02	13.59	-35.0	-36.0	23.5	0.00e+00	120	36	0	876609536	42	6213
2026-01-06 12:08:40.07	67.22	13.60	-35.1	-36.1	23.5	0.00e+00	122	36	0	879755264	42	6284
2026-01-06 12:08:41.08	67.43	13.62	-35.2	-36.1	23.3	0.00e+00	123	36	0	882900992	42	6338
2026-01-06 12:08:42.09	67.63	13.63	-35.1	-36.0	23.5	0.00e+00	120	36	0	886046720	42	6272
2026-01-06 12:08:43.10	67.83	13.64	-35.1	-36.1	23.4	0.00e+00	123	36	0	889192448	42	6290
2026-01-06 12:08:44.11	68.03	13.66	-35.2	-36.1	23.3	0.00e+00	120	36	0	892338176	42	6345
2026-01-06 12:08:45.12	68.24	13.67	-35.0	-36.0	23.4	0.00e+00	123	36	0	895483904	42	6237
2026-01-06 12:08:46.13	68.44	13.68	-35.0	-36.0	23.4	0.00e+00	120	36	0	898629632	42	6238
2026-01-06 12:08:47.14	68.64	13.69	-35.1	-36.0	23.4	0.00e+00	122	36	0	901775360	42	6266
2026-01-06 12:08:48.15	68.85	13.70	-35.1	-36.1	23.4	0.00e+00	123	36	0	904921088	42	6280
2026-01-06 12:08:49.16	69.05	13.71	-35.1	-36.1	23.4	0.00e+00	122	36	0	908066816	42	6324
2026-01-06 12:08:50.17	69.25	13.72	-35.2	-36.2	23.4	0.00e+00	123	36	0	911212544	42	6364
2026-01-06 12:08:51.18	69.46	13.73	-35.2	-36.2	23.2	0.00e+00	123	36	0	914358272	42	6414
2026-01-06 12:08:52.19	69.66	13.74	-35.3	-36.3	23.4	0.00e+00	123	36	0	917504000	42	6440
2026-01-06 12:08:53.19	69.86	13.75	-34.9	-35.8	23.6	0.00e+00	120	36	0	920649728	42	6089
2026-01-06 12:08:54.20	70.07	13.76	-35.0	-36.0	23.5	0.00e+00	120	36	0	923795456	42	6252
2026-01-06 12:08:55.21	70.27	13.77	-34.8	-35.7	23.7	0.00e+00	123	36	0	926941184	42	6055
2026-01-06 12:08:56.22	70.47	13.78	-34.9	-35.8	23.6	0.00e+00	120	36	0	930086912	42	6121
2026-01-06 12:08:57.23	70.68	13.79	-34.9	-35.8	23.7	0.00e+00	122	36	0	933232640	42	6111
2026-01-06 12:08:58.24	70.88	13.80	-34.9	-35.8	23.6	0.00e+00	122	36	0	936378368	42	6133
2026-01-06 12:08:59.25	71.09	13.80	-34.9	-35.8	23.6	0.00e+00	122	36	0	939524096	42	6127
2026-01-06 12:09:00.26	71.29	13.81	-34.9	-35.9	23.6	0.00e+00	123	36	0	942669824	42	6162
2026-01-06 12:09:01.27	71.50	13.82	-34.9	-35.9	23.6	0.00e+00	122	36	0	945815552	42	6176
2026-01-06 12:09:02.28	71.70	13.82	-35.1	-36.1	23.6	0.00e+00	122	36	0	948961280	42	6300
2026-01-06 12:09:03.29	71.91	13.83	-35.0	-35.9	23.6	0.00e+00	122	36	0	952107008	42	6163
2026-01-06 12:09:04.30	72.11	13.84	-35.2	-36.2	23.4	0.00e+00	120	36	0	955252736	42	6377
2026-01-06 12:09:05.31	72.32	13.84	-35.0	-36.0	23.5	0.00e+00	122	36	0	958398464	42	6236
2026-01-06 12:09:06.32	72.52	13.85	-35.1	-36.1	23.4	0.00e+00	120	36	0	961544192	42	6285
2026-01-06 12:09:07.33	72.73	13.85	-35.0	-36.0	23.5	0.00e+00	123	36	0	964689920	42	6237
2026-01-06 12:09:08.34	72.93	13.86	-35.1	-36.0	23.5	0.00e+00	122	36	0	967835648	42	6265
2026-01-06 12:09:09.35	73.14	13.86	-35.2	-36.1	23.5	0.00e+00	122	36	0	970981376	42	6326
2026-01-06 12:09:10.36	73.35	13.87	-34.8	-35.8	23.7	0.00e+00	123	36	0	974127104	42	6082
2026-01-06 12:09:11.37	73.55	13.87	-34.8	-35.7	23.7	0.00e+00	123	36	0	977272832	42	6047
2026-01-06 12:09:12.38	73.76	13.87	-35.0	-36.0	23.7	0.00e+00	123	36	0	980418560	42	6234
2026-01-06 12:09:13.39	73.96	13.87	-34.9	-35.8	23.6	0.00e+00	123	36	0	983564288	42	6085
2026-01-06 12:09:14.40	74.17	13.88	-35.0	-36.0	23.5	0.00e+00	122	36	0	986710016	42	6208
2026-01-06 12:09:15.41	74.37	13.88	-35.0	-36.0	23.4	0.00e+00	123	36	0	989855744	42	6236
2026-01-06 12:09:16.42	74.58	13.88	-35.2	-36.1	23.5	0.00e+00	122	36	0	993001472	42	6334
2026-01-06 12:09:17.43	74.79	13.88	-35.3	-36.3	23.3	0.00e+00	120	36	0	996147200	42	6427
2026-01-06 12:09:18.43	74.99	13.88	-35.2	-36.1	23.3	0.00e+00	123	36	0	999292928	42	6343
2026-01-06 12:09:19.44	75.20	13.88	-34.9	-35.9	23.5	0.00e+00	122	36	0	1002438656	42	6156
2026-01-06 12:09:20.45	75.40	13.89	-35.0	-36.0	23.5	0.00e+00	123	36	0	1005584384	42	6212
2026-01-06 12:09:21.46	75.61	13.89	-34.8	-35.7	23.7	0.00e+00	123	36	0	1008730112	42	6043
2026-01-06 12:09:22.47	75.81	13.88	-34.7	-35.6	23.8	0.00e+00	122	36	0	1011875840	42	5986
2026-01-06 12:09:23.48	76.02	13.88	-34.8	-35.7	23.8	0.00e+00	123	36	0	1015021568	42	6019
2026-01-06 12:09:24.49	76.22	13.88	-34.7	-35.7	23.8	0.00e+00	122	36	0	1018167296	42	6017
2026-01-06 12:09:25.50	76.43	13.88	-34.6	-35.6	23.8	0.00e+00	123	36	0	1021313024	42	5947
2026-01-06 12:09:26.51	76.64	13.88	-34.7	-35.6	23.8	0.00e+00	122	36	0	1024458752	42	5985
2026-01-06 12:09:27.52	76.84	13.88	-34.7	-35.6	23.8	0.00e+00	123	36	0	1027604480	42	5976
2026-01-06 12:09:28.53	77.05	13.88	-34.7	-35.6	23.8	0.00e+00	123	36	0	1030750208	42	5984
2026-01-06 12:09:29.54	77.25	13.87	-34.8	-35.7	23.8	0.00e+00	123	36	0	1033895936	42	6026
2026-01-06 12:09:30.55	77.46	13.87	-34.9	-35.9	23.6	0.00e+00	123	36	0	1038090240	42	6136
2026-01-06 12:09:31.56	77.67	13.87	-35.0	-36.0	23.6	0.00e+00	120	36	0	1040187392	42	6216
2026-01-06 12:09:32.57	77.87	13.86	-35.2	-36.2	23.4	0.00e+00	123	36	0	1043333120	42	6381
2026-01-06 12:09:33.58	78.08	13.86	-35.2	-36.1	23.4	0.00e+00	123	36	0	1046478848	42	6339
2026-01-06 12:09:34.58	78.28	13.86	-35.4	-36.4	23.3	0.00e+00	123	36	0	1049624576	42	6524
2026-01-06 12:09:35.59	78.49	13.85	-35.4	-36.4	23.2	0.00e+00	122	36	0	1053818880	42	6527
2026-01-06 12:09:36.61	78.69	13.85	-35.3	-36.3	23.3	0.00e+00	122	36	0	1056964608	42	6441
2026-01-06 12:09:37.62	78.90	13.84	-35.0	-36.0	23.5	0.00e+00	123	36	0	1060110336	42	6227
2026-01-06 12:09:38.62	79.10	13.84	-35.1	-36.0	23.5	0.00e+00	122	36	0	1062207488	42	6254
2026-01-06 12:09:39.63	79.31	13.83	-35.1	-36.0	23.4	0.00e+00	123	36	0	1065353216	42	6268
2026-01-06 12:09:40.64	79.51	13.82	-35.1	-36.1	23.4	0.00e+00	120	36	0	1069547520	42	6323
2026-01-06 12:09:41.65	79.72	13.82	-35.1	-36.1	23.3	0.00e+00	122	36	0	1072693248	42	6310
2026-01-06 12:09:42.66	79.92	13.81	-35.0	-35.9	23.5	0.00e+00	123	36	0	1075838976	42	6189
2026-01-06 12:09:43.67	80.13	13.80	-35.0	-36.0	23.4	0.00e+00	123	36	0	1078984704	42	6244
2026-01-06 12:09:44.68	80.33	13.79	-35.0	-35.9	23.5	0.00e+00	123	36	0	1082130432	42	6180
2026-01-06 12:09:45.69	80.54	13.79	-34.9	-35.9	23.5	0.00e+00	122	36	0	1085276160	42	6145
2026-01-06 12:09:46.70	80.74	13.78	-35.1	-36.0	23.4	0.00e+00	122	36	0	1088421888	42	6243
2026-01-06 12:09:47.71	80.95	13.77	-34.8	-35.8	23.5	0.00e+00	122	36	0	1091567616	42	6085
2026-01-06 12:09:48.72	81.15	13.76	-34.9	-35.8	23.5	0.00e+00	123	36	0	1094713344	42	6124
2026-01-06 12:09:49.73	81.36	13.75	-35.0	-35.9	23.5	0.00e+00	123	36	0	1097859072	42	6204
2026-01-06 12:09:50.74	81.56	13.74	-35.0	-36.0	23.4	0.00e+00	122	36	0	1101004800	42	6214
2026-01-06 12:09:51.75	81.76	13.73	-35.2	-36.2	23.3	0.00e+00	122	36	0	1104150528	42	6366
2026-01-06 12:09:52.76	81.97	13.72	-34.9	-35.9	23.6	0.00e+00	123	36	0	1107296256	42	6141
2026-01-06 12:09:53.77	82.17	13.71	-35.1	-36.0	23.6	0.00e+00	122	36	0	1110441984	42	6241
2026-01-06 12:09:54.78	82.37	13.70	-34.9	-35.8	23.6	0.00e+00	123	36	0	1113587712	42	6115
2026-01-06 12:09:55.79	82.58	13.69	-34.9	-35.8	23.6	0.00e+00	123	36	0	1116733440	42	6094
2026-01-06 12:09:56.80	82.78	13.68	-34.7	-35.6	23.7	0.00e+00	122	36	0	1119879168	42	5961
2026-01-06 12:09:57.81	82.98	13.67	-34.8	-35.7	23.8	0.00e+00	122	36	0	1123024896	42	6027
2026-01-06 12:09:58.82	83.19	13.65	-34.8	-35.8	23.7	0.00e+00	122	36	0	1126170624	42	6078
2026-01-06 12:09:59.83	83.39	13.64	-34.9	-35.9	23.5	0.00e+00	122	36	0	1129316352	42	6162
2026-01-06 12:10:00.84	83.59	13.63	-35.1	-36.1	23.5	0.00e+00	122	36	0	1132462080	42	6298
2026-01-06 12:10:01.85	83.80	13.61	-35.1	-36.1	23.5	0.00e+00	122	36	0	1135607808	42	6286
2026-01-06 12:10:02.85	84.00	13.60	-35.0	-36.0	23.6	0.00e+00	122	36	0	1138753536	42	6229
2026-01-06 12:10:03.86	84.20	13.59	-35.1	-36.0	23.7	0.00e+00	122	36	0	1141899264	42	6252
2026-01-06 12:10:04.87	84.40	13.57	-35.0	-35.9	23.6	0.00e+00	122	36	0	1145044992	42	6187
2026-01-06 12:10:05.88	84.60	13.56	-34.9	-35.9	23.6	0.00e+00	123	36	0	1148190720	42	6135
2026-01-06 12:10:06.89	84.80	13.54	-34.8	-35.8	23.7	0.00e+00	120	36	0	1151336448	42	6069
2026-01-06 12:10:07.90	85.01	13.53	-34.9	-35.8	23.7	0.00e+00	123	36	0	1154482176	42	6102
2026-01-06 12:10:08.91	85.21	13.51	-34.9	-35.9	23.7	0.00e+00	123	36	0	1157627904	42	6137
2026-01-06 12:10:09.92	85.41	13.50	-34.9	-35.8	23.7	0.00e+00	122	36	0	1160773632	42	6134
2026-01-06 12:10:10.93	85.61	13.48	-34.9	-35.8	23.7	0.00e+00	122	36	0	1163919360	42	6105
2026-01-06 12:10:11.94	85.81	13.47	-34.9	-35.8	23.7	0.00e+00	123	36	0	1167065088	42	6118
2026-01-06 12:10:12.95	86.01	13.45	-34.9	-35.8	23.8	0.00e+00	123	36	0	1170210816	42	6113
2026-01-06 12:10:13.96	86.21	13.43	-34.7	-35.6	23.7	0.00e+00	122	36	0	1173356544	42	5994
2026-01-06 12:10:14.97	86.41	13.41	-34.7	-35.7	23.8	0.00e+00	122	36	0	1176502272	42	6016
2026-01-06 12:10:15.98	86.61	13.40	-34.8	-35.8	23.6	0.00e+00	123	36	0	1179648000	42	6093
2026-01-06 12:10:16.99	86.81	13.38	-34.7	-35.7	23.8	0.00e+00	122	36	0	1182793728	42	6024
2026-01-06 12:10:17.99	87.01	13.36	-34.8	-35.8	23.8	0.00e+00	120	36	0	1185939456	42	6099
2026-01-06 12:10:19.00	87.21	13.34	-34.7	-35.8	23.7	0.00e+00	123	36	0	1189085184	42	6066
2026-01-06 12:10:20.01	87.40	13.32	-34.7	-35.7	23.7	0.00e+00	123	36	0	1192230912	42	6053
2026-01-06 12:10:21.02	87.60	13.30	-34.8	-35.8	23.7	0.00e+00	123	36	0	1195376640	42	6073
2026-01-06 12:10:22.03	87.80	13.28	-34.8	-35.8	23.7	0.00e+00	122	36	0	1198522368	42	6081
2026-01-06 12:10:23.04	88.00	13.27	-34.9	-35.9	23.6	0.00e+00	123	36	0	1201668096	42	6180
2026-01-06 12:10:24.05	88.20	13.25	-34.9	-35.9	23.7	0.00e+00	123	36	0	1204813824	42	6163
2026-01-06 12:10:25.06	88.39	13.22	-34.8	-35.8	23.7	0.00e+00	122	36	0	1207959552	42	6112
2026-01-06 12:10:26.07	88.59	13.20	-35.0	-36.0	23.6	0.00e+00	122	36	0	1211105280	42	6235
2026-01-06 12:10:27.08	88.79	13.18	-35.1	-36.1	23.5	0.00e+00	120	36	0	1214251008	42	6282
2026-01-06 12:10:28.09	88.99	13.16	-35.0	-35.9	23.6	0.00e+00	123	36	0	1217396736	42	6188
2026-01-06 12:10:29.10	89.18	13.14	-35.1	-36.0	23.6	0.00e+00	123	36	0	1220542464	42	6250
2026-01-06 12:10:30.11	89.38	13.12	-34.8	-35.8	23.7	0.00e+00	123	36	0	1223688192	42	6071
2026-01-06 12:10:31.12	89.57	13.10	-34.9	-35.9	23.7	0.00e+00	124	36	0	1226833920	42	6147
2026-01-06 12:10:32.13	89.77	13.07	-34.8	-35.8	23.7	0.00e+00	120	36	0	1229979648	42	6072
2026-01-06 12:10:33.14	89.96	13.05	-34.9	-35.9	23.7	0.00e+00	122	36	0	1233125376	42	6144
2026-01-06 12:10:34.15	90.16	13.03	-34.9	-35.8	23.7	0.00e+00	123	36	0	1236271104	42	6124
2026-01-06 12:10:35.16	90.35	13.01	-35.0	-36.0	23.6	0.00e+00	121	36	0	1239416832	42	6214
2026-01-06 12:10:36.17	90.55	12.98	-34.9	-35.9	23.6	0.00e+00	123	36	0	1242562560	42	6152
2026-01-06 12:10:37.17	90.74	12.96	-35.1	-36.0	23.5	0.00e+00	122	36	0	1245708288	42	6256
2026-01-06 12:10:38.18	90.94	12.94	-35.0	-36.0	23.6	0.00e+00	123	36	0	1248854016	42	6212
2026-01-06 12:10:39.19	91.13	12.91	-35.2	-36.2	23.4	0.00e+00	123	36	0	1251999744	42	6385
2026-01-06 12:10:40.20	91.32	12.89	-35.2	-36.2	23.4	0.00e+00	122	36	0	1255145472	42	6389
2026-01-06 12:10:41.21	91.51	12.86	-35.1	-36.0	23.5	0.00e+00	120	36	0	1258291200	42	6271
2026-01-06 12:10:42.22	91.71	12.84	-35.1	-36.1	23.5	0.00e+00	122	36	0	1261436928	42	6288
2026-01-06 12:10:43.23	91.90	12.81	-35.1	-36.1	23.4	0.00e+00	123	36	0	1264582656	42	6286
2026-01-06 12:10:44.24	92.09	12.79	-35.1	-36.1	23.4	0.00e+00	123	36	0	1267728384	42	6283
2026-01-06 12:10:45.25	92.28	12.76	-35.1	-36.1	23.4	0.00e+00	120	36	0	1270874112	42	6289
2026-01-06 12:10:46.26	92.48	12.73	-35.1	-36.1	23.4	0.00e+00	122	36	0	1274019840	42	6330
2026-01-06 12:10:47.27	92.67	12.71	-35.2	-36.2	23.4	0.00e+00	123	36	0	1277165568	42	6373
2026-01-06 12:10:48.28	92.86	12.68	-35.2	-36.2	23.4	0.00e+00	122	36	0	1280311296	42	6370
2026-01-06 12:10:49.29	93.05	12.65	-35.1	-36.1	23.4	0.00e+00	123	36	0	1283457024	42	6315
2026-01-06 12:10:50.30	93.24	12.63	-35.1	-36.1	23.5	0.00e+00	120	36	0	1286602752	42	6314
2026-01-06 12:10:51.31	93.43	12.60	-35.1	-36.1	23.5	0.00e+00	123	36	0	1289748480	42	6310
2026-01-06 12:10:52.32	93.62	12.57	-35.2	-36.1	23.4	0.00e+00	122	36	0	1292894208	42	6346
2026-01-06 12:10:53.33	93.81	12.54	-35.2	-36.2	23.3	0.00e+00	123	36	0	1296039936	42	6363
2026-01-06 12:10:54.33	93.99	12.52	-35.1	-36.1	23.5	0.00e+00	122	36	0	1299185664	42	6278
2026-01-06 12:10:55.34	94.18	12.49	-35.3	-36.2	23.3	0.00e+00	122	36	0	1302331392	42	6394
2026-01-06 12:10:56.36	94.37	12.46	-35.1	-36.1	23.4	0.00e+00	120	36	0	1305477120	42	6305
2026-01-06 12:10:57.37	94.56	12.43	-35.1	-36.0	23.4	0.00e+00	123	36	0	1308622848	42	6274
2026-01-06 12:10:58.37	94.74	12.40	-35.1	-36.1	23.5	0.00e+00	120	36	0	1311768576	42	6300
2026-01-06 12:10:59.38	94.93	12.37	-35.0	-35.9	23.6	0.00e+00	123	36	0	1314914304	42	6188
2026-01-06 12:11:00.39	95.12	12.34	-35.1	-36.0	23.4	0.00e+00	123	36	0	1318060032	42	6271
2026-01-06 12:11:01.40	95.30	12.31	-35.0	-36.0	23.6	0.00e+00	122	36	0	1321205760	42	6211
2026-01-06 12:11:02.41	95.49	12.28	-35.1	-36.0	23.4	0.00e+00	121	36	0	1324351488	42	6262
2026-01-06 12:11:03.42	95.67	12.25	-35.1	-36.0	23.5	0.00e+00	123	36	0	1327497216	42	6258
2026-01-06 12:11:04.43	95.86	12.22	-35.1	-36.0	23.5	0.00e+00	122	36	0	1330642944	42	6271
2026-01-06 12:11:05.44	96.04	12.19	-35.1	-36.1	23.5	0.00e+00	123	36	0	1333788672	42	6302
2026-01-06 12:11:06.45	96.23	12.16	-35.1	-36.0	23.4	0.00e+00	122	36	0	1336934400	42	6270
2026-01-06 12:11:07.45	96.41	12.13	-35.1	-36.1	23.4	0.00e+00	122	36	0	1340080128	42	6289
2026-01-06 12:11:08.47	96.60	12.10	-35.0	-36.0	23.5	0.00e+00	122	36	0	1343225856	42	6213
2026-01-06 12:11:09.47	96.78	12.07	-34.9	-35.9	23.5	0.00e+00	122	36	0	1346371584	42	6164
2026-01-06 12:11:10.48	96.96	12.03	-34.9	-35.9	23.5	0.00e+00	123	36	0	1349517312	42	6142
2026-01-06 12:11:11.49	97.14	12.00	-34.8	-35.8	23.6	0.00e+00	123	36	0	1352663040	42	6094
2026-01-06 12:11:12.50	97.32	11.97	-34.9	-35.9	23.5	0.00e+00	120	36	0	1355808768	42	6174
2026-01-06 12:11:13.51	97.51	11.94	-35.0	-36.0	23.5	0.00e+00	122	36	0	1358954496	42	6208
2026-01-06 12:11:14.52	97.69	11.90	-35.0	-36.0	23.4	0.00e+00	120	36	0	1362100224	42	6215
2026-01-06 12:11:15.53	97.87	11.87	-34.8	-35.7	23.7	0.00e+00	123	36	0	1365245952	42	6054
2026-01-06 12:11:16.54	98.05	11.84	-34.9	-35.8	23.6	0.00e+00	120	36	0	1368391680	42	6112
2026-01-06 12:11:17.55	98.23	11.80	-34.9	-35.9	23.6	0.00e+00	123	36	0	1371537408	42	6143
2026-01-06 12:11:18.56	98.41	11.77	-34.9	-35.9	23.5	0.00e+00	120	36	0	1374683136	42	6169
2026-01-06 12:11:19.58	98.59	11.74	-35.0	-36.0	23.5	0.00e+00	123	36	0	1377828864	42	6223
2026-01-06 12:11:20.59	98.77	11.70	-35.0	-36.0	23.4	0.00e+00	123	36	0	1380974592	42	6217
2026-01-06 12:11:21.60	98.95	11.67	-35.0	-36.0	23.4	0.00e+00	122	36	0	1384120320	42	6223
2026-01-06 12:11:22.61	99.13	11.63	-35.1	-36.1	23.4	0.00e+00	123	36	0	1387266048	42	6287
2026-01-06 12:11:23.61	99.30	11.60	-35.1	-36.1	23.4	0.00e+00	122	36	0	1390411776	42	6292
2026-01-06 12:11:24.62	99.48	11.56	-35.2	-36.2	23.3	0.00e+00	120	36	0	1393557504	42	6363
2026-01-06 12:11:25.63	99.66	11.53	-35.2	-36.1	23.3	0.00e+00	123	36	0	1396703232	42	6310
2026-01-06 12:11:26.64	99.83	11.49	-35.3	-36.2	23.2	0.00e+00	121	36	0	1400897536	42	6388
2026-01-06 12:11:27.65	100.01	11.46	-35.4	-36.4	23.2	0.00e+00	123	36	0	1402994688	42	6503
2026-01-06 12:11:28.67	100.19	11.42	-35.2	-36.2	23.3	0.00e+00	120	36	0	1406140416	42	6372
2026-01-06 12:11:29.67	100.36	11.39	-35.4	-36.4	23.1	0.00e+00	123	36	0	1409286144	42	6521
2026-01-06 12:11:30.68	100.53	11.35	-35.1	-36.1	23.3	0.00e+00	122	36	0	1412431872	42	6296
2026-01-06 12:11:31.69	100.71	11.32	-35.3	-36.3	23.2	0.00e+00	122	36	0	1415577600	42	6425
2026-01-06 12:11:32.70	100.88	11.28	-35.1	-36.0	23.4	0.00e+00	122	36	0	1419771904	42	6276
2026-01-06 12:11:33.71	101.06	11.24	-35.2	-36.1	23.4	0.00e+00	120	36	0	1422917632	42	6343
2026-01-06 12:11:34.72	101.23	11.21	-35.2	-36.1	23.3	0.00e+00	122	36	0	1425014784	42	6348
2026-01-06 12:11:35.73	101.40	11.17	-35.3	-36.3	23.2	0.00e+00	123	36	0	1428160512	42	6449
2026-01-06 12:11:36.74	101.58	11.13	-35.4	-36.3	23.2	0.00e+00	123	36	0	1431306240	42	6491
2026-01-06 12:11:37.75	101.75	11.09	-35.4	-36.3	23.1	0.00e+00	123	36	0	1435500544	42	6483
2026-01-06 12:11:38.76	101.92	11.06	-35.4	-36.4	23.1	0.00e+00	122	36	0	1438646272	42	6509
2026-01-06 12:11:39.77	102.09	11.02	-35.4	-36.4	23.0	0.00e+00	122	36	0	1441792000	42	6499
2026-01-06 12:11:40.78	102.26	10.98	-35.4	-36.4	23.1	0.00e+00	123	36	0	1444937728	42	6518
2026-01-06 12:11:41.79	102.43	10.94	-35.3	-36.3	23.1	0.00e+00	120	36	0	1448083456	42	6466
2026-01-06 12:11:42.80	102.60	10.91	-35.3	-36.4	23.0	0.00e+00	123	36	0	1451229184	42	6502
2026-01-06 12:11:43.81	102.77	10.87	-35.3	-36.4	22.9	0.00e+00	120	36	0	1454374912	42	6519
2026-01-06 12:11:44.82	102.94	10.83	-35.4	-36.5	22.9	0.00e+00	122	36	0	1457520640	42	6600
2026-01-06 12:11:45.83	103.11	10.79	-35.3	-36.4	23.0	0.00e+00	120	36	0	1460666368	42	6520
2026-01-06 12:11:46.84	103.28	10.75	-35.3	-36.4	23.1	0.00e+00	123	36	0	1463812096	42	6501
2026-01-06 12:11:47.85	103.44	10.71	-35.2	-36.3	23.1	0.00e+00	123	36	0	1466957824	42	6470
2026-01-06 12:11:48.86	103.61	10.67	-35.4	-36.5	23.0	0.00e+00	122	36	0	1470103552	42	6582
2026-01-06 12:11:49.87	103.78	10.64	-35.3	-36.3	23.1	0.00e+00	120	36	0	1473249280	42	6475
2026-01-06 12:11:50.88	103.94	10.60	-35.3	-36.3	23.1	0.00e+00	123	36	0	1476395008	42	6463
2026-01-06 12:11:51.89	104.11	10.56	-35.4	-36.4	23.1	0.00e+00	122	36	0	1479540736	42	6521
2026-01-06 12:11:52.90	104.28	10.52	-35.5	-36.5	23.0	0.00e+00	123	36	0	1482686464	42	6591
2026-01-06 12:11:53.91	104.44	10.48	-35.6	-36.6	22.9	0.00e+00	122	36	0	1485832192	42	6664
2026-01-06 12:11:54.92	104.61	10.44	-35.5	-36.5	22.9	0.00e+00	123	36	0	1488977920	42	6622
2026-01-06 12:11:55.93	104.77	10.40	-35.5	-36.5	23.0	0.00e+00	123	36	0	1492123648	42	6609
2026-01-06 12:11:56.94	104.93	10.36	-35.6	-36.6	22.9	0.00e+00	122	36	0	1495269376	42	6724
2026-01-06 12:11:57.95	105.10	10.32	-35.6	-36.7	22.8	0.00e+00	122	36	0	1498415104	42	6742
2026-01-06 12:11:58.96	105.26	10.28	-35.6	-36.6	22.8	0.00e+00	123	36	0	1501560832	42	6674
2026-01-06 12:11:59.97	105.42	10.24	-35.7	-36.8	22.6	0.00e+00	120	36	0	1504706560	44	6065
2026-01-06 12:12:00.98	105.58	10.20	-35.7	-36.7	22.6	0.00e+00	122	36	0	1507852288	44	6032
2026-01-06 12:12:01.99	105.75	10.15	-35.7	-36.7	22.7	0.00e+00	123	36	0	1510998016	44	6037
2026-01-06 12:12:03.00	105.91	10.11	-35.8	-36.8	22.6	0.00e+00	122	36	0	1514143744	44	6097
2026-01-06 12:12:04.01	106.07	10.07	-35.7	-36.7	22.7	0.00e+00	122	36	0	1517289472	44	6017
2026-01-06 12:12:05.02	106.23	10.03	-35.8	-36.7	22.7	0.00e+00	123	36	0	1520435200	44	6059
2026-01-06 12:12:06.03	106.39	9.99	-35.7	-36.7	22.7	0.00e+00	122	36	0	1523580928	44	6060
2026-01-06 12:12:07.04	106.55	9.95	-35.7	-36.7	22.7	0.00e+00	123	36	0	1526726656	44	6063
2026-01-06 12:12:08.05	106.71	9.91	-35.8	-36.7	22.7	0.00e+00	122	36	0	1529872384	44	6064
2026-01-06 12:12:09.06	106.87	9.86	-35.7	-36.7	22.7	0.00e+00	123	36	0	1533018112	44	6042
2026-01-06 12:12:10.07	107.02	9.82	-35.8	-36.8	22.7	0.00e+00	122	36	0	1536163840	44	6071
2026-01-06 12:12:11.08	107.18	9.78	-35.7	-36.7	22.7	0.00e+00	122	36	0	1539309568	44	6061
2026-01-06 12:12:12.09	107.34	9.74	-35.8	-36.8	22.7	0.00e+00	122	36	0	1542455296	44	6072
2026-01-06 12:12:13.10	107.50	9.70	-35.9	-36.9	22.6	0.00e+00	120	36	0	1545601024	44	6163
2026-01-06 12:12:14.11	107.65	9.65	-35.9	-36.9	22.6	0.00e+00	122	36	0	1548746752	44	6144
2026-01-06 12:12:15.12	107.81	9.61	-35.9	-37.0	22.5	0.00e+00	123	36	0	1551892480	44	6214
2026-01-06 12:12:16.12	107.96	9.57	-35.9	-36.9	22.6	0.00e+00	121	36	0	1555038208	44	6183
2026-01-06 12:12:17.13	108.12	9.53	-35.9	-37.0	22.4	0.00e+00	122	36	0	1558183936	44	6223
2026-01-06 12:12:18.14	108.27	9.48	-35.8	-36.9	22.6	0.00e+00	120	36	0	1561329664	44	6147
2026-01-06 12:12:19.15	108.43	9.44	-35.9	-37.0	22.5	0.00e+00	123	36	0	1564475392	44	6225
2026-01-06 12:12:20.17	108.58	9.40	-36.0	-37.0	22.4	0.00e+00	120	36	0	1567621120	44	6269
2026-01-06 12:12:21.17	108.73	9.36	-36.0	-37.0	22.5	0.00e+00	123	36	0	1570766848	44	6255
2026-01-06 12:12:22.19	108.89	9.31	-35.9	-37.0	22.5	0.00e+00	122	36	0	1573912576	44	6255
2026-01-06 12:12:23.20	109.04	9.27	-36.0	-37.1	22.4	0.00e+00	123	36	0	1577058304	44	6298
2026-01-06 12:12:24.21	109.19	9.22	-35.8	-36.9	22.6	0.00e+00	120	36	0	1580204032	44	6158
2026-01-06 12:12:25.21	109.34	9.18	-35.9	-36.9	22.6	0.00e+00	122	36	0	1583349760	44	6205
2026-01-06 12:12:26.22	109.49	9.14	-35.8	-37.0	22.6	0.00e+00	123	36	0	1586495488	44	6206
2026-01-06 12:12:27.23	109.64	9.09	-35.9	-37.0	22.5	0.00e+00	123	36	0	1589641216	44	6240
2026-01-06 12:12:28.24	109.79	9.05	-36.0	-37.0	22.5	0.00e+00	122	36	0	1592786944	44	6234
2026-01-06 12:12:29.25	109.94	9.01	-36.0	-37.1	22.4	0.00e+00	120	36	0	1595932672	44	6319
2026-01-06 12:12:30.26	110.09	8.96	-36.1	-37.2	22.4	0.00e+00	123	36	0	1599078400	44	6364
2026-01-06 12:12:31.27	110.24	8.92	-35.9	-37.0	22.5	0.00e+00	120	36	0	1602224128	44	6262
2026-01-06 12:12:32.28	110.39	8.87	-36.0	-37.0	22.5	0.00e+00	122	36	0	1605369856	44	6251
2026-01-06 12:12:33.29	110.54	8.83	-36.2	-37.3	22.3	0.00e+00	123	36	0	1608515584	44	6427
2026-01-06 12:12:34.30	110.69	8.79	-36.2	-37.2	22.2	0.00e+00	123	36	0	1611661312	44	6398
2026-01-06 12:12:35.31	110.84	8.74	-36.1	-37.2	22.3	0.00e+00	120	36	0	1614807040	44	6396
2026-01-06 12:12:36.32	110.98	8.70	-36.3	-37.4	22.2	0.00e+00	123	36	0	1617952768	44	6505
2026-01-06 12:12:37.33	111.13	8.65	-36.4	-37.4	22.1	0.00e+00	120	36	0	1621098496	44	6544
2026-01-06 12:12:38.34	111.27	8.61	-36.4	-37.4	22.0	0.00e+00	120	36	0	1624244224	44	6566
2026-01-06 12:12:39.34	111.42	8.56	-36.3	-37.4	22.1	0.00e+00	122	36	0	1627389952	44	6501
2026-01-06 12:12:40.35	111.56	8.52	-36.4	-37.4	22.1	0.00e+00	122	36	0	1630535680	44	6549
2026-01-06 12:12:41.36	111.71	8.47	-36.4	-37.4	22.1	0.00e+00	123	36	0	1633681408	44	6555
2026-01-06 12:12:42.37	111.85	8.43	-36.3	-37.3	22.2	0.00e+00	123	36	0	1636827136	44	6489
2026-01-06 12:12:43.38	112.00	8.38	-36.3	-37.4	22.1	0.00e+00	123	36	0	1639972864	44	6501
2026-01-06 12:12:44.39	112.14	8.34	-36.3	-37.3	22.2	0.00e+00	123	36	0	1643118592	44	6482
2026-01-06 12:12:45.40	112.28	8.29	-36.4	-37.5	22.1	0.00e+00	122	36	0	1646264320	44	6613
2026-01-06 12:12:46.41	112.43	8.25	-36.3	-37.3	22.1	0.00e+00	123	36	0	1649410048	44	6475
2026-01-06 12:12:47.42	112.57	8.20	-36.5	-37.6	22.0	0.00e+00	123	36	0	1652555776	44	6657
2026-01-06 12:12:48.43	112.71	8.16	-36.3	-37.4	22.1	0.00e+00	120	36	0	1655701504	44	6535
2026-01-06 12:12:49.44	112.85	8.11	-36.3	-37.4	22.1	0.00e+00	123	36	0	1658847232	44	6551
2026-01-06 12:12:50.45	112.99	8.07	-36.3	-37.5	22.0	0.00e+00	123	36	0	1661992960	44	6584
2026-01-06 12:12:51.46	113.13	8.02	-36.4	-37.5	21.9	0.00e+00	123	36	0	1665138688	44	6639
2026-01-06 12:12:52.46	113.27	7.98	-36.4	-37.5	21.9	0.00e+00	122	36	0	1668284416	44	6622
2026-01-06 12:12:53.47	113.41	7.93	-36.3	-37.5	22.0	0.00e+00	122	36	0	1671430144	44	6586
2026-01-06 12:12:54.48	113.55	7.88	-36.4	-37.6	21.9	0.00e+00	123	36	0	1674575872	44	6661
2026-01-06 12:12:55.49	113.69	7.84	-36.5	-37.6	21.8	0.00e+00	120	36	0	1677721600	44	6715
2026-01-06 12:12:56.50	113.83	7.79	-36.6	-37.7	21.8	0.00e+00	123	36	0	1680867328	44	6801
2026-01-06 12:12:57.51	113.96	7.75	-36.6	-37.7	21.7	0.00e+00	123	36	0	1684013056	44	6768
2026-01-06 12:12:58.52	114.10	7.70	-36.6	-37.6	21.7	0.00e+00	122	36	0	1687158784	44	6716
2026-01-06 12:12:59.53	114.24	7.65	-36.5	-37.5	21.9	0.00e+00	122	36	0	1690304512	44	6633
2026-01-06 12:13:00.54	114.38	7.61	-36.4	-37.4	22.0	0.00e+00	121	36	0	1693450240	44	6540
2026-01-06 12:13:01.55	114.51	7.56	-36.5	-37.6	21.8	0.00e+00	123	36	0	1696595968	44	6654
2026-01-06 12:13:02.56	114.65	7.52	-36.3	-37.4	22.0	0.00e+00	122	36	0	1699741696	44	6521
2026-01-06 12:13:03.57	114.78	7.47	-36.5	-37.5	21.9	0.00e+00	123	36	0	1702887424	44	6617
2026-01-06 12:13:04.58	114.92	7.42	-36.5	-37.6	21.9	0.00e+00	123	36	0	1706033152	44	6652
2026-01-06 12:13:05.59	115.05	7.38	-36.5	-37.6	21.8	0.00e+00	122	36	0	1709178880	44	6716
2026-01-06 12:13:06.60	115.19	7.33	-36.6	-37.7	21.9	0.00e+00	123	36	0	1712324608	44	6734
2026-01-06 12:13:07.61	115.32	7.28	-36.5	-37.6	21.9	0.00e+00	120	36	0	1715470336	44	6660
2026-01-06 12:13:08.61	115.45	7.24	-36.3	-37.3	22.1	7.00e-07	123	36	0	1718616064	44	6468
2026-01-06 12:13:09.62	115.59	7.19	-36.3	-37.3	22.1	7.00e-07	123	36	0	1721761792	44	6488
2026-01-06 12:13:10.63	115.72	7.14	-36.4	-37.4	22.0	7.00e-07	123	36	0	1724907520	44	6543
2026-01-06 12:13:11.64	115.85	7.10	-36.5	-37.5	21.9	0.00e+00	120	36	0	1728053248	44	6632
2026-01-06 12:13:12.65	115.98	7.05	-36.5	-37.6	21.8	0.00e+00	122	36	0	1731198976	44	6655
2026-01-06 12:13:13.66	116.11	7.00	-36.7	-37.8	21.7	0.00e+00	122	36	0	1734344704	44	6846
2026-01-06 12:13:14.67	116.25	6.96	-36.6	-37.7	21.7	0.00e+00	123	36	0	1737490432	44	6773
2026-01-06 12:13:15.68	116.38	6.91	-36.4	-37.6	21.8	0.00e+00	123	36	0	1740636160	44	6659
2026-01-06 12:13:16.69	116.51	6.86	-36.6	-37.8	21.6	0.00e+00	120	36	0	1743781888	44	6826
2026-01-06 12:13:17.69	116.63	6.82	-36.7	-37.8	21.7	0.00e+00	122	36	0	1746927616	46	6132
2026-01-06 12:13:18.71	116.77	6.77	-36.8	-38.0	21.6	0.00e+00	122	36	0	1750073344	46	6206
2026-01-06 12:13:19.71	116.89	6.72	-36.5	-37.6	21.9	0.00e+00	122	36	0	1753219072	46	5958
2026-01-06 12:13:20.72	117.02	6.68	-36.6	-37.6	21.8	0.00e+00	120	36	0	1756364800	46	5983
2026-01-06 12:13:21.73	117.15	6.63	-36.6	-37.7	21.7	0.00e+00	123	36	0	1759510528	46	6012
2026-01-06 12:13:22.74	117.28	6.58	-36.5	-37.5	21.8	0.00e+00	120	36	0	1763704832	46	5918
2026-01-06 12:13:23.75	117.40	6.54	-36.4	-37.5	21.9	0.00e+00	123	36	0	1765801984	46	5864
2026-01-06 12:13:24.76	117.53	6.49	-36.5	-37.6	21.8	0.00e+00	122	36	0	1768947712	46	5929
2026-01-06 12:13:25.77	117.66	6.44	-36.7	-37.7	21.7	0.00e+00	123	36	0	1772093440	46	6050
2026-01-06 12:13:26.78	117.78	6.39	-36.7	-37.8	21.6	0.00e+00	123	36	0	1775239168	46	6087
2026-01-06 12:13:27.79	117.91	6.35	-36.8	-37.9	21.6	0.00e+00	122	36	0	1778384896	46	6139
2026-01-06 12:13:28.80	118.04	6.30	-36.9	-37.9	21.5	0.00e+00	124	36	0	1782579200	46	6194
2026-01-06 12:13:29.81	118.16	6.25	-36.8	-37.9	21.5	0.00e+00	123	36	0	1785724928	46	6155
2026-01-06 12:13:30.82	118.29	6.21	-36.7	-37.8	21.7	0.00e+00	123	36	0	1787822080	46	6077
2026-01-06 12:13:31.83	118.41	6.16	-36.8	-37.9	21.4	0.00e+00	123	36	0	1790967808	46	6198
2026-01-06 12:13:32.84	118.53	6.11	-37.0	-38.1	21.3	0.00e+00	123	36	0	1794113536	46	6331
2026-01-06 12:13:33.84	118.66	6.06	-37.0	-38.1	21.4	0.00e+00	123	36	0	1798307840	46	6288
2026-01-06 12:13:34.86	118.78	6.02	-36.9	-38.0	21.4	0.00e+00	122	36	0	1801453568	46	6206
2026-01-06 12:13:35.86	118.90	5.97	-37.0	-38.1	21.3	0.00e+00	123	36	0	1804599296	46	6280
2026-01-06 12:13:36.87	119.02	5.92	-37.0	-38.1	21.3	0.00e+00	123	36	0	1807745024	46	6336
2026-01-06 12:13:37.88	119.15	5.87	-37.2	-38.3	21.1	7.00e-07	123	36	0	1810890752	46	6485
2026-01-06 12:13:38.89	119.27	5.83	-37.2	-38.3	21.1	0.00e+00	122	36	0	1812987904	46	6432
2026-01-06 12:13:39.90	119.39	5.78	-37.1	-38.3	21.1	0.00e+00	123	36	0	1817182208	46	6440
2026-01-06 12:13:40.91	119.51	5.73	-37.1	-38.3	21.1	0.00e+00	123	36	0	1820327936	46	6424
2026-01-06 12:13:41.92	119.63	5.68	-37.2	-38.4	21.0	0.00e+00	123	36	0	1823473664	46	6521
2026-01-06 12:13:42.93	119.75	5.64	-37.1	-38.3	21.1	0.00e+00	123	36	0	1826619392	46	6468
2026-01-06 12:13:43.94	119.87	5.59	-37.2	-38.4	21.0	0.00e+00	122	36	0	1829765120	46	6549
2026-01-06 12:13:44.95	119.99	5.54	-37.3	-38.5	20.9	0.00e+00	122	36	0	1832910848	46	6645
2026-01-06 12:13:45.96	120.11	5.49	-37.2	-38.4	20.9	0.00e+00	122	36	0	1836056576	46	6548
2026-01-06 12:13:46.97	120.23	5.45	-37.2	-38.3	21.0	0.00e+00	123	36	0	1839202304	46	6490
2026-01-06 12:13:47.98	120.34	5.40	-37.1	-38.3	21.0	0.00e+00	120	36	0	1842348032	46	6492
2026-01-06 12:13:48.99	120.46	5.35	-37.2	-38.5	20.9	0.00e+00	122	36	0	1845493760	46	6587
2026-01-06 12:13:50.00	120.58	5.30	-37.2	-38.5	20.9	0.00e+00	122	36	0	1848639488	46	6574
2026-01-06 12:13:51.01	120.70	5.25	-37.3	-38.5	20.9	0.00e+00	122	36	0	1851785216	46	6616
2026-01-06 12:13:52.02	120.81	5.21	-37.0	-38.2	21.0	0.00e+00	123	36	0	1854930944	46	6371
2026-01-06 12:13:53.03	120.93	5.16	-37.2	-38.4	20.9	0.00e+00	123	36	0	1858076672	46	6520
2026-01-06 12:13:54.04	121.05	5.11	-37.2	-38.3	20.9	0.00e+00	122	36	0	1861222400	46	6496
2026-01-06 12:13:55.05	121.16	5.06	-37.2	-38.3	20.9	0.00e+00	123	36	0	1864368128	46	6459
2026-01-06 12:13:56.06	121.28	5.02	-37.2	-38.4	20.9	0.00e+00	122	36	0	1867513856	46	6529
2026-01-06 12:13:57.07	121.39	4.97	-37.2	-38.4	20.9	0.00e+00	122	36	0	1870659584	46	6523
2026-01-06 12:13:58.08	121.51	4.92	-37.2	-38.3	21.0	0.00e+00	123	36	0	1873805312	46	6453
2026-01-06 12:13:59.09	121.62	4.87	-37.1	-38.2	21.0	0.00e+00	122	36	0	1876951040	46	6402
2026-01-06 12:14:00.09	121.73	4.83	-37.3	-38.5	20.9	0.00e+00	124	36	0	1880096768	46	6576
2026-01-06 12:14:01.10	121.85	4.78	-37.3	-38.5	20.8	0.00e+00	123	36	0	1883242496	46	6586
2026-01-06 12:14:02.11	121.96	4.73	-37.2	-38.4	20.8	0.00e+00	123	36	0	1886388224	46	6532
2026-01-06 12:14:03.12	122.07	4.68	-37.3	-38.5	20.8	0.00e+00	122	36	0	1889533952	46	6596
2026-01-06 12:14:04.13	122.19	4.63	-37.4	-38.6	20.7	0.00e+00	123	36	0	1892679680	46	6654
2026-01-06 12:14:05.14	122.30	4.59	-37.5	-38.6	20.7	0.00e+00	123	36	0	1895825408	46	6710
2026-01-06 12:14:06.15	122.41	4.54	-37.5	-38.7	20.6	0.00e+00	123	36	0	1898971136	46	6779
2026-01-06 12:14:07.16	122.52	4.49	-37.5	-38.7	20.5	0.00e+00	123	36	0	1902116864	46	6744
2026-01-06 12:14:08.17	122.63	4.44	-37.9	-39.1	20.1	0.00e+00	123	36	0	1905262592	48	6328
2026-01-06 12:14:09.18	122.74	4.40	-37.9	-39.1	20.2	0.00e+00	123	36	0	1908408320	48	6350
2026-01-06 12:14:10.19	122.85	4.35	-37.7	-38.9	20.3	0.00e+00	122	36	0	1911554048	48	6136
2026-01-06 12:14:11.19	122.96	4.30	-37.4	-38.6	20.6	0.00e+00	120	36	0	1914699776	48	5970
2026-01-06 12:14:12.20	123.07	4.25	-37.3	-38.5	20.7	0.00e+00	123	36	0	1917845504	48	5860
2026-01-06 12:14:13.21	123.18	4.20	-37.3	-38.5	20.7	0.00e+00	123	36	0	1920991232	48	5868
2026-01-06 12:14:14.22	123.29	4.16	-37.7	-38.9	20.2	0.00e+00	123	36	0	1924136960	48	6154
2026-01-06 12:14:15.23	123.40	4.11	-37.7	-38.9	20.3	0.00e+00	121	36	0	1927282688	48	6186
2026-01-06 12:14:16.24	123.51	4.06	-37.8	-39.0	20.1	0.00e+00	123	36	0	1930428416	48	6254
2026-01-06 12:14:17.25	123.61	4.01	-37.7	-38.9	20.2	0.00e+00	123	36	0	1933574144	48	6188
2026-01-06 12:14:18.26	123.72	3.97	-37.6	-38.8	20.3	0.00e+00	123	36	0	1936719872	48	6109
2026-01-06 12:14:19.27	123.83	3.92	-37.7	-38.9	20.2	0.00e+00	120	36	0	1939865600	48	6177
2026-01-06 12:14:20.28	123.94	3.87	-37.8	-39.0	20.1	0.00e+00	122	36	0	1943011328	48	6246
2026-01-06 12:14:21.29	124.04	3.82	-38.1	-39.3	19.8	0.00e+00	120	36	0	1946157056	48	6484
2026-01-06 12:14:22.29	124.15	3.77	-37.9	-39.1	19.9	0.00e+00	122	36	0	1949302784	48	6327
2026-01-06 12:14:23.30	124.25	3.73	-38.0	-39.2	19.8	0.00e+00	120	36	0	1952448512	48	6410
