passes_logs/2026/01/06/R4.6S_Anadyr/R4.6S_Anadyr__20260106_175451_AQUA_rec.log

#Pass ID: 20260106_175451_AQUA
#Satellite: AQUA
#Configuration: AQUA
#almurnet v.1.7.20251203
#Start time: 2026-01-06 17:54:53

#Version: 2.2.20231116
#Station: R4.6S_Anadyr
#Location: 177.4865 lon 64.73178 lat
#TLE: 1 27424U 02022A   26004.96787593  .00001598  00000+0  32997-3 0  9996
#TLE: 2 27424  98.4069 331.2279 0002002  90.2377   0.6092 14.61798176259425

#Time	Az	El	Level	Level2	SNR	BER	BlckErr	Temp	State	Recorded	gain1	gain2
2026-01-06 17:54:53.44	22.74	0.12	-48.4	-63.3	3.5	1.51e+00	0	31	0	0	60	52777
2026-01-06 17:54:54.45	22.70	0.18	-48.8	-66.7	3.5	3.02e+01	0	32	104	0	60	82853
2026-01-06 17:54:55.46	22.65	0.24	-48.8	-66.7	3.5	3.02e+01	0	32	104	0	60	83196
2026-01-06 17:54:56.46	22.61	0.30	-48.8	-66.7	3.5	3.02e+01	0	32	104	0	60	83040
2026-01-06 17:54:57.47	22.56	0.36	-48.8	-66.8	3.5	3.02e+01	0	32	104	0	60	83856
2026-01-06 17:54:58.48	22.52	0.42	-48.8	-66.8	3.5	3.02e+01	0	32	104	0	60	83866
2026-01-06 17:54:59.49	22.47	0.48	-48.9	-66.8	3.5	3.02e+01	0	32	104	0	60	84044
2026-01-06 17:55:00.49	22.43	0.54	-48.9	-66.8	3.5	3.02e+01	0	32	104	0	60	84297
2026-01-06 17:55:01.50	22.38	0.60	-48.7	-66.7	3.5	3.02e+01	0	32	104	0	60	83584
2026-01-06 17:55:02.51	22.33	0.66	-48.8	-66.7	3.5	3.02e+01	0	32	104	0	60	82824
2026-01-06 17:55:03.52	22.29	0.72	-48.7	-66.6	3.5	3.02e+01	0	32	104	0	60	82619
2026-01-06 17:55:04.53	22.24	0.78	-48.2	-66.6	3.5	3.02e+01	0	32	104	0	60	81905
2026-01-06 17:55:05.54	22.19	0.84	-48.4	-66.4	3.5	3.02e+01	0	32	104	0	60	80285
2026-01-06 17:55:06.55	22.14	0.90	-48.0	-66.2	3.5	3.02e+01	0	32	104	0	60	78469
2026-01-06 17:55:07.56	22.10	0.96	-48.1	-66.0	3.5	3.02e+01	0	32	104	0	60	76941
2026-01-06 17:55:08.57	22.05	1.02	-47.8	-65.8	3.5	3.02e+01	0	32	104	0	60	75018
2026-01-06 17:55:09.58	22.00	1.08	-47.5	-65.4	3.5	3.02e+01	0	32	104	0	60	71522
2026-01-06 17:55:10.59	21.95	1.14	-47.4	-65.4	3.5	3.02e+01	0	32	104	0	60	71609
2026-01-06 17:55:11.60	21.90	1.20	-47.4	-65.4	3.5	3.02e+01	0	32	104	0	60	71511
2026-01-06 17:55:12.61	21.85	1.27	-47.4	-65.3	3.5	3.02e+01	0	32	104	0	60	70932
2026-01-06 17:55:13.62	21.80	1.33	-47.4	-65.3	3.5	3.02e+01	0	32	104	0	60	70869
2026-01-06 17:55:14.62	21.75	1.39	-47.4	-65.3	3.6	3.02e+01	0	32	104	0	60	70902
2026-01-06 17:55:15.63	21.70	1.45	-47.4	-65.3	3.5	3.02e+01	0	32	104	0	60	71209
2026-01-06 17:55:16.64	21.65	1.51	-47.4	-65.4	3.5	3.02e+01	0	32	104	0	60	71349
2026-01-06 17:55:17.65	21.60	1.57	-47.4	-65.4	3.5	3.02e+01	0	32	104	0	60	71360
2026-01-06 17:55:18.66	21.55	1.63	-47.4	-65.4	3.5	3.02e+01	0	32	104	0	60	71332
2026-01-06 17:55:19.67	21.50	1.70	-47.4	-65.3	3.5	3.02e+01	0	32	104	0	60	70784
2026-01-06 17:55:20.68	21.45	1.76	-47.4	-65.3	3.5	3.02e+01	0	32	104	0	60	71178
2026-01-06 17:55:21.69	21.40	1.82	-47.4	-65.4	3.5	3.02e+01	0	32	104	0	60	71408
2026-01-06 17:55:22.70	21.35	1.88	-47.4	-65.4	3.5	3.02e+01	0	32	104	0	60	71349
2026-01-06 17:55:23.71	21.30	1.95	-47.4	-65.3	3.5	3.02e+01	0	32	104	0	60	71160
2026-01-06 17:55:24.72	21.25	2.01	-47.4	-65.4	3.5	3.02e+01	0	32	104	0	60	71340
2026-01-06 17:55:25.73	21.19	2.07	-47.4	-65.4	3.5	3.02e+01	0	32	104	0	60	71262
2026-01-06 17:55:26.73	21.14	2.13	-47.4	-65.3	3.5	3.02e+01	0	32	104	0	60	71195
2026-01-06 17:55:27.74	21.09	2.20	-47.4	-65.3	3.5	3.02e+01	0	32	104	0	60	70897
2026-01-06 17:55:28.75	21.03	2.26	-47.4	-65.2	3.5	3.02e+01	0	32	104	0	60	70206
2026-01-06 17:55:29.76	20.98	2.32	-47.3	-65.1	3.5	3.02e+01	0	32	104	0	60	69591
2026-01-06 17:55:30.77	20.93	2.39	-47.3	-65.1	3.5	3.02e+01	0	32	104	0	60	69240
2026-01-06 17:55:31.78	20.87	2.45	-47.3	-65.1	3.5	3.02e+01	0	32	104	0	60	68954
2026-01-06 17:55:32.79	20.82	2.52	-47.3	-65.2	3.5	3.02e+01	0	32	104	0	60	69926
2026-01-06 17:55:33.80	20.77	2.58	-47.4	-65.2	3.5	3.02e+01	0	32	104	0	60	70301
2026-01-06 17:55:34.81	20.71	2.64	-47.3	-65.3	3.5	3.02e+01	0	32	104	0	60	71196
2026-01-06 17:55:35.82	20.66	2.71	-47.4	-65.3	3.5	3.02e+01	0	33	104	0	60	71051
2026-01-06 17:55:36.83	20.60	2.77	-47.4	-65.3	3.5	3.02e+01	0	33	104	0	60	70787
2026-01-06 17:55:37.84	20.54	2.84	-47.4	-65.3	3.5	3.02e+01	0	33	104	0	60	70438
2026-01-06 17:55:38.85	20.49	2.90	-47.4	-65.4	3.5	3.02e+01	0	33	104	0	60	71334
2026-01-06 17:55:39.86	20.43	2.97	-47.4	-65.3	3.5	3.02e+01	0	33	104	0	60	70550
2026-01-06 17:55:40.86	20.38	3.03	-47.3	-65.1	3.5	3.02e+01	0	33	104	0	60	69152
2026-01-06 17:55:41.87	20.32	3.10	-47.3	-64.7	3.5	3.02e+01	0	32	104	0	60	66466
2026-01-06 17:55:42.88	20.26	3.16	-47.2	-64.6	3.5	3.02e+01	0	33	104	0	60	65487
2026-01-06 17:55:43.89	20.20	3.23	-47.2	-64.7	3.5	3.02e+01	0	33	104	0	60	65757
2026-01-06 17:55:44.90	20.15	3.29	-47.3	-65.0	3.5	3.02e+01	0	32	104	0	60	68155
2026-01-06 17:55:45.91	20.09	3.36	-47.3	-65.2	3.5	3.02e+01	0	32	104	0	60	69984
2026-01-06 17:55:46.92	20.03	3.42	-47.2	-64.6	3.5	3.02e+01	0	33	104	0	60	65016
2026-01-06 17:55:47.93	19.97	3.49	-46.9	-63.0	3.5	3.02e+01	0	33	104	0	60	54114
2026-01-06 17:55:48.94	19.91	3.56	-46.5	-61.5	3.5	3.02e+01	0	33	104	0	60	45975
2026-01-06 17:55:49.94	19.85	3.62	-45.9	-59.9	3.5	3.02e+01	0	33	104	0	60	38046
2026-01-06 17:55:50.95	19.80	3.69	-45.7	-59.3	3.5	3.02e+01	0	33	104	0	60	35446
2026-01-06 17:55:51.96	19.74	3.75	-47.3	-64.3	3.5	3.02e+01	0	33	104	0	60	63331
2026-01-06 17:55:52.97	19.68	3.82	-47.5	-65.3	3.5	3.02e+01	0	33	104	0	60	70999
2026-01-06 17:55:53.98	19.61	3.89	-47.0	-63.4	3.5	3.02e+01	0	33	104	0	60	56917
2026-01-06 17:55:54.99	19.55	3.95	-37.2	-47.6	3.5	3.02e+01	0	33	104	0	48	18442
2026-01-06 17:55:56.00	19.49	4.02	-47.3	-65.2	3.5	3.02e+01	0	33	104	0	60	70157
2026-01-06 17:55:57.00	19.43	4.09	-37.6	-48.0	3.5	3.02e+01	0	33	104	0	50	17235
2026-01-06 17:55:58.01	19.37	4.16	-37.8	-48.2	3.5	3.02e+01	0	33	104	0	50	17619
2026-01-06 17:55:59.02	19.31	4.22	-37.4	-47.7	3.5	3.02e+01	0	32	104	0	50	16676
2026-01-06 17:56:00.03	19.25	4.29	-37.4	-47.8	3.5	3.02e+01	0	33	104	0	50	16817
2026-01-06 17:56:01.05	19.18	4.36	-46.1	-60.0	3.5	3.02e+01	0	33	104	0	60	38385
2026-01-06 17:56:02.06	19.12	4.43	-38.7	-49.3	3.5	3.02e+01	0	33	104	0	52	17783
2026-01-06 17:56:03.06	19.06	4.50	-47.4	-65.1	3.5	3.02e+01	0	33	104	0	60	68874
2026-01-06 17:56:04.07	18.99	4.56	-47.5	-64.7	3.5	3.02e+01	0	33	104	0	60	65900
2026-01-06 17:56:05.08	18.93	4.63	-41.2	-52.2	3.5	3.02e+01	0	33	104	0	54	22193
2026-01-06 17:56:06.09	18.86	4.70	-39.1	-49.7	3.5	3.02e+01	0	33	104	0	54	16525
2026-01-06 17:56:07.10	18.80	4.77	-38.7	-49.2	3.5	3.02e+01	0	32	104	0	52	17541
2026-01-06 17:56:08.11	18.73	4.84	-38.6	-49.1	3.5	3.02e+01	0	33	104	0	52	17333
2026-01-06 17:56:09.11	18.67	4.91	-37.9	-48.3	3.5	3.02e+01	0	33	104	0	52	15933
2026-01-06 17:56:10.13	18.60	4.98	-38.5	-49.0	3.5	3.02e+01	0	33	104	0	50	19322
2026-01-06 17:56:11.13	18.54	5.05	-38.6	-49.1	3.5	3.02e+01	0	33	104	0	50	19579
2026-01-06 17:56:12.14	18.47	5.12	-47.5	-65.1	3.5	3.02e+01	0	33	104	0	60	68935
2026-01-06 17:56:13.15	18.40	5.19	-46.6	-61.1	3.5	3.02e+01	0	33	104	0	60	43746
2026-01-06 17:56:14.16	18.33	5.26	-40.4	-51.2	3.5	3.02e+01	0	33	104	0	54	19671
2026-01-06 17:56:15.17	18.27	5.33	-38.7	-49.2	3.5	3.02e+01	0	33	104	0	52	17642
2026-01-06 17:56:16.18	18.20	5.40	-38.6	-49.2	3.5	3.02e+01	0	33	104	0	52	17497
2026-01-06 17:56:17.19	18.13	5.47	-38.3	-48.7	3.5	3.02e+01	0	33	104	0	52	16611
2026-01-06 17:56:18.20	18.06	5.54	-37.7	-48.1	3.5	3.02e+01	0	32	104	0	50	17293
2026-01-06 17:56:19.21	17.99	5.61	-37.6	-47.9	3.6	3.02e+01	0	33	104	0	50	17091
2026-01-06 17:56:20.22	17.92	5.68	-38.0	-48.5	3.5	3.02e+01	0	33	104	0	50	18142
2026-01-06 17:56:21.23	17.85	5.75	-47.5	-64.6	3.5	3.02e+01	0	33	104	0	60	65275
2026-01-06 17:56:22.24	17.78	5.82	-46.9	-61.9	3.5	3.02e+01	0	33	104	0	60	47731
2026-01-06 17:56:23.24	17.71	5.89	-42.9	-54.4	3.5	3.02e+01	0	33	104	0	60	20141
2026-01-06 17:56:24.25	17.64	5.97	-40.9	-51.6	3.5	3.02e+01	0	33	104	0	56	18503
2026-01-06 17:56:25.26	17.57	6.04	-41.3	-52.1	3.5	3.02e+01	0	33	104	0	56	19512
2026-01-06 17:56:26.27	17.50	6.11	-40.4	-51.2	3.5	3.02e+01	0	33	104	0	56	17522
2026-01-06 17:56:27.29	17.42	6.18	-40.5	-51.2	3.5	3.02e+01	0	33	104	0	54	19674
2026-01-06 17:56:28.30	17.35	6.26	-46.3	-60.3	3.5	3.02e+01	0	33	104	0	60	39659
2026-01-06 17:56:29.31	17.28	6.33	-45.1	-57.7	3.5	3.02e+01	0	33	104	0	60	29636
2026-01-06 17:56:30.31	17.20	6.40	-47.4	-63.1	3.5	3.02e+01	0	33	104	0	60	55266
2026-01-06 17:56:31.32	17.13	6.47	-41.2	-52.0	3.6	3.02e+01	0	33	104	0	56	19354
2026-01-06 17:56:32.33	17.05	6.55	-47.4	-64.1	3.5	3.02e+01	0	33	104	0	60	62011
2026-01-06 17:56:33.34	16.98	6.62	-42.5	-53.7	3.5	3.02e+01	0	33	104	0	60	18554
2026-01-06 17:56:34.35	16.90	6.69	-41.1	-52.0	3.6	3.02e+01	0	33	104	0	58	17169
2026-01-06 17:56:35.36	16.83	6.77	-40.0	-50.6	3.5	3.02e+01	0	33	104	0	56	16467
2026-01-06 17:56:36.37	16.75	6.84	-40.5	-51.2	3.5	3.02e+01	0	33	104	0	54	19713
2026-01-06 17:56:37.38	16.67	6.92	-44.6	-56.7	3.5	3.02e+01	0	33	104	0	60	26311
2026-01-06 17:56:38.39	16.60	6.99	-39.4	-49.9	3.5	3.02e+01	0	33	104	0	50	21444
2026-01-06 17:56:39.40	16.52	7.07	-47.6	-64.6	3.5	3.02e+01	0	33	104	0	60	65194
2026-01-06 17:56:40.41	16.44	7.14	-41.4	-52.3	3.5	3.02e+01	0	33	104	0	60	15859
2026-01-06 17:56:41.42	16.36	7.22	-38.9	-49.5	3.6	3.02e+01	0	33	104	0	52	18127
2026-01-06 17:56:42.43	16.28	7.29	-37.4	-47.8	3.5	3.02e+01	0	33	104	0	50	16754
2026-01-06 17:56:43.44	16.20	7.37	-37.6	-47.9	3.5	3.02e+01	0	33	104	0	50	17056
2026-01-06 17:56:44.44	16.12	7.44	-36.8	-47.2	3.6	3.02e+01	0	33	104	0	48	17527
2026-01-06 17:56:45.45	16.04	7.52	-36.1	-46.3	3.6	3.02e+01	0	33	104	0	48	15874
2026-01-06 17:56:46.46	15.96	7.59	-36.6	-46.9	3.5	3.02e+01	0	33	104	0	48	16968
2026-01-06 17:56:47.47	15.88	7.67	-40.0	-50.7	3.4	3.02e+01	0	33	104	0	50	23423
2026-01-06 17:56:48.48	15.80	7.75	-47.6	-64.4	3.5	3.02e+01	0	33	104	0	60	63685
2026-01-06 17:56:49.49	15.72	7.82	-41.7	-52.6	3.6	3.02e+01	0	33	104	0	60	16380
2026-01-06 17:56:50.50	15.63	7.90	-40.7	-51.5	3.5	3.02e+01	0	33	104	0	58	16206
2026-01-06 17:56:51.51	15.55	7.98	-39.5	-50.0	3.5	3.02e+01	0	33	104	0	54	17276
2026-01-06 17:56:52.52	15.47	8.05	-39.9	-50.6	3.5	3.02e+01	0	33	104	0	54	18455
2026-01-06 17:56:53.53	15.38	8.13	-39.9	-50.5	3.5	3.02e+01	0	33	104	0	54	18243
2026-01-06 17:56:54.54	15.30	8.21	-37.1	-47.4	3.5	3.02e+01	0	33	104	0	50	16111
2026-01-06 17:56:55.55	15.21	8.29	-40.5	-51.2	3.6	3.02e+01	0	33	104	0	52	22081
2026-01-06 17:56:56.56	15.13	8.36	-44.4	-56.2	3.5	3.02e+01	0	33	104	0	60	24990
2026-01-06 17:56:57.56	15.04	8.44	-44.4	-56.5	3.5	3.02e+01	0	33	104	0	60	25575
2026-01-06 17:56:58.58	14.95	8.52	-46.9	-61.2	3.5	3.02e+01	0	33	104	0	60	44107
2026-01-06 17:56:59.58	14.87	8.60	-47.5	-63.3	3.5	3.02e+01	0	33	104	0	60	56375
2026-01-06 17:57:00.59	14.78	8.68	-40.7	-51.4	3.5	3.02e+01	0	33	104	0	58	15988
2026-01-06 17:57:01.60	14.69	8.76	-41.0	-51.8	3.5	3.02e+01	0	33	104	0	56	18906
2026-01-06 17:57:02.61	14.60	8.84	-40.1	-50.7	3.6	3.02e+01	0	33	104	0	56	16516
2026-01-06 17:57:03.62	14.51	8.91	-46.9	-61.4	3.5	3.02e+01	0	33	104	0	60	45108
2026-01-06 17:57:04.63	14.42	8.99	-42.4	-53.6	3.6	3.02e+01	0	33	104	0	60	18453
2026-01-06 17:57:05.64	14.33	9.07	-46.9	-61.9	3.5	3.02e+01	0	33	104	0	58	53461
2026-01-06 17:57:06.65	14.24	9.15	-47.5	-63.0	3.5	3.02e+01	0	33	104	0	60	54314
2026-01-06 17:57:07.66	14.14	9.24	-36.3	-46.6	3.6	3.02e+01	0	33	104	0	46	18342
2026-01-06 17:57:08.67	14.05	9.32	-37.3	-47.6	3.5	3.02e+01	0	33	104	0	50	16462
2026-01-06 17:57:09.68	13.96	9.40	-37.5	-47.8	3.5	3.02e+01	0	33	104	0	50	16790
2026-01-06 17:57:10.69	13.87	9.48	-36.7	-47.0	3.5	3.02e+01	0	33	104	0	48	17136
2026-01-06 17:57:11.70	13.77	9.56	-36.6	-46.8	3.5	3.02e+01	0	33	104	0	48	16835
2026-01-06 17:57:12.71	13.68	9.64	-36.8	-47.0	3.5	3.02e+01	0	33	104	0	48	17214
2026-01-06 17:57:13.72	13.58	9.72	-44.0	-55.7	3.5	3.02e+01	0	33	104	0	58	26227
2026-01-06 17:57:14.73	13.48	9.80	-47.3	-62.3	3.5	3.02e+01	0	33	104	0	60	50286
2026-01-06 17:57:15.74	13.39	9.89	-41.7	-52.9	3.6	3.02e+01	0	33	104	0	60	16970
2026-01-06 17:57:16.74	13.29	9.97	-47.7	-63.9	3.5	3.02e+01	0	33	104	0	60	60320
2026-01-06 17:57:17.76	13.19	10.05	-43.8	-55.6	3.5	3.02e+01	0	33	104	0	60	23187
2026-01-06 17:57:18.77	13.09	10.13	-40.8	-51.7	3.5	3.02e+01	0	33	104	0	56	18656
2026-01-06 17:57:19.78	12.99	10.22	-40.9	-51.8	3.5	3.02e+01	0	33	104	0	56	18926
2026-01-06 17:57:20.79	12.89	10.30	-40.8	-51.6	3.5	3.02e+01	0	33	104	0	56	18471
2026-01-06 17:57:21.80	12.79	10.38	-43.2	-54.6	3.6	3.02e+01	0	33	104	0	58	23121
2026-01-06 17:57:22.81	12.69	10.47	-37.9	-48.3	3.5	3.02e+01	0	33	104	0	52	15878
2026-01-06 17:57:23.81	12.59	10.55	-47.2	-63.9	3.5	3.02e+01	0	33	104	0	60	60242
2026-01-06 17:57:24.82	12.49	10.63	-47.9	-64.5	3.5	3.02e+01	0	33	104	0	60	64910
2026-01-06 17:57:25.83	12.39	10.72	-40.1	-50.7	3.7	3.02e+01	0	33	104	0	50	23516
2026-01-06 17:57:26.84	12.28	10.80	-39.3	-49.9	3.6	3.02e+01	0	33	104	0	54	16933
2026-01-06 17:57:27.85	12.18	10.89	-39.1	-49.6	3.5	3.02e+01	0	33	104	0	52	18390
2026-01-06 17:57:28.86	12.07	10.97	-38.2	-48.6	3.5	3.02e+01	0	33	104	0	52	16416
2026-01-06 17:57:29.87	11.97	11.06	-37.3	-47.6	3.5	3.02e+01	0	33	104	0	50	16357
2026-01-06 17:57:30.88	11.86	11.15	-35.0	-45.2	3.5	3.02e+01	0	33	104	0	46	15717
2026-01-06 17:57:31.89	11.75	11.23	-45.9	-58.8	3.5	3.02e+01	0	33	104	0	60	33405
2026-01-06 17:57:32.90	11.64	11.32	-48.3	-65.9	3.5	3.02e+01	0	33	104	0	60	76336
2026-01-06 17:57:33.91	11.54	11.40	-40.2	-50.9	3.5	3.02e+01	0	33	104	0	56	17067
2026-01-06 17:57:34.92	11.43	11.49	-47.9	-63.9	3.5	3.02e+01	0	33	104	0	60	60170
2026-01-06 17:57:35.93	11.32	11.58	-41.5	-52.3	3.5	3.02e+01	0	33	104	0	60	15811
2026-01-06 17:57:36.94	11.21	11.66	-39.4	-50.0	3.5	3.02e+01	0	33	104	0	54	17141
2026-01-06 17:57:37.94	11.10	11.75	-39.4	-49.9	3.5	3.02e+01	0	33	104	0	54	16995
2026-01-06 17:57:38.95	10.98	11.84	-39.2	-49.7	3.5	3.02e+01	0	33	104	0	52	18690
2026-01-06 17:57:39.96	10.87	11.93	-47.8	-64.3	3.5	3.02e+01	0	33	104	0	60	63255
2026-01-06 17:57:40.97	10.76	12.01	-36.9	-47.2	3.5	3.02e+01	0	33	104	0	50	15716
2026-01-06 17:57:41.98	10.64	12.10	-48.0	-64.8	3.5	3.02e+01	0	33	104	0	60	67185
2026-01-06 17:57:42.99	10.53	12.19	-47.4	-62.3	3.5	3.02e+01	0	33	104	0	60	50269
2026-01-06 17:57:44.00	10.41	12.28	-38.0	-48.4	3.5	3.02e+01	0	33	104	0	48	20107
2026-01-06 17:57:45.01	10.29	12.37	-36.9	-47.2	3.5	3.02e+01	0	33	104	0	48	17661
2026-01-06 17:57:46.02	10.18	12.46	-36.8	-47.0	3.5	3.02e+01	0	33	104	0	48	17284
2026-01-06 17:57:47.03	10.06	12.55	-36.1	-46.3	3.5	3.02e+01	0	33	104	0	48	15866
2026-01-06 17:57:48.04	9.94	12.64	-35.6	-45.8	3.6	3.02e+01	0	33	104	0	46	16858
2026-01-06 17:57:49.05	9.82	12.73	-37.4	-47.8	3.5	3.02e+01	0	33	104	0	48	18781
2026-01-06 17:57:50.06	9.70	12.82	-36.4	-46.7	3.6	3.02e+01	0	33	104	0	48	16623
2026-01-06 17:57:51.07	9.58	12.91	-48.1	-64.7	3.5	3.02e+01	0	33	104	0	60	66452
2026-01-06 17:57:52.07	9.45	13.00	-47.4	-62.3	3.5	3.02e+01	0	33	104	0	60	49939
2026-01-06 17:57:53.08	9.33	13.09	-41.9	-52.9	3.5	3.02e+01	0	33	104	0	56	21420
2026-01-06 17:57:54.09	9.21	13.18	-38.1	-48.4	3.5	3.02e+01	0	33	104	0	52	16113
2026-01-06 17:57:55.10	9.08	13.27	-38.1	-48.5	3.5	3.02e+01	0	33	104	0	50	18113
2026-01-06 17:57:56.11	8.96	13.36	-38.3	-48.7	3.5	3.02e+01	0	33	104	0	50	18527
2026-01-06 17:57:57.12	8.83	13.46	-38.9	-49.3	3.5	3.02e+01	0	33	104	0	52	17783
2026-01-06 17:57:58.13	8.70	13.55	-38.2	-48.6	3.5	3.02e+01	0	33	104	0	50	18421
2026-01-06 17:57:59.14	8.57	13.64	-47.4	-62.3	3.5	3.02e+01	0	33	104	0	60	50016
2026-01-06 17:58:00.15	8.44	13.73	-48.3	-65.5	3.5	3.02e+01	0	33	104	0	60	72354
2026-01-06 17:58:01.16	8.31	13.83	-37.7	-48.0	3.5	3.02e+01	0	33	104	0	52	15369
2026-01-06 17:58:02.17	8.18	13.92	-47.9	-64.1	3.5	3.02e+01	0	33	104	0	60	61741
2026-01-06 17:58:03.18	8.05	14.01	-39.0	-49.4	3.5	3.02e+01	0	33	104	0	52	18077
2026-01-06 17:58:04.19	7.92	14.11	-37.9	-48.3	3.5	3.02e+01	0	33	104	0	52	15817
2026-01-06 17:58:05.20	7.78	14.20	-36.9	-47.2	3.5	3.02e+01	0	33	104	0	50	15731
2026-01-06 17:58:06.21	7.65	14.30	-37.6	-47.9	3.5	3.02e+01	0	33	104	0	48	19135
2026-01-06 17:58:07.22	7.51	14.39	-48.3	-65.6	3.5	3.02e+01	0	33	104	0	60	73255
2026-01-06 17:58:08.23	7.38	14.49	-35.3	-45.4	3.5	3.02e+01	0	33	104	0	46	16127
2026-01-06 17:58:09.24	7.24	14.58	-47.7	-63.8	3.5	3.02e+01	0	33	104	0	60	59591
2026-01-06 17:58:10.24	7.10	14.68	-43.5	-55.1	3.5	3.02e+01	0	33	104	0	60	21836
2026-01-06 17:58:11.26	6.96	14.77	-39.5	-50.1	3.5	3.02e+01	0	33	104	0	54	17301
2026-01-06 17:58:12.26	6.82	14.87	-36.8	-47.1	3.5	3.02e+01	0	33	104	0	48	17432
2026-01-06 17:58:13.27	6.68	14.96	-36.3	-46.6	3.5	3.02e+01	0	33	104	0	48	16423
2026-01-06 17:58:14.28	6.54	15.06	-36.5	-46.7	3.5	3.02e+01	0	33	104	0	48	16644
2026-01-06 17:58:15.29	6.39	15.16	-36.0	-46.2	3.5	3.02e+01	0	33	104	0	48	15672
2026-01-06 17:58:16.30	6.25	15.25	-35.5	-45.7	3.5	3.02e+01	0	33	104	0	46	16553
2026-01-06 17:58:17.30	6.10	15.35	-36.0	-46.2	3.5	3.02e+01	0	33	104	0	46	17630
2026-01-06 17:58:18.31	5.96	15.45	-47.9	-64.0	3.5	3.02e+01	0	33	104	0	60	61125
2026-01-06 17:58:19.32	5.81	15.54	-40.3	-50.9	3.5	3.02e+01	0	33	104	0	60	13521
2026-01-06 17:58:20.33	5.66	15.64	-41.6	-52.6	3.4	3.02e+01	0	33	104	0	60	16323
2026-01-06 17:58:21.34	5.51	15.74	-38.7	-49.2	3.5	3.02e+01	0	33	104	0	52	17496
2026-01-06 17:58:22.35	5.36	15.84	-38.9	-49.4	3.5	3.02e+01	0	33	104	0	52	17951
2026-01-06 17:58:23.36	5.21	15.94	-38.0	-48.3	3.6	3.02e+01	0	33	104	0	50	17806
2026-01-06 17:58:24.37	5.05	16.03	-36.8	-47.0	3.5	3.02e+01	0	33	104	0	50	15378
2026-01-06 17:58:25.37	4.90	16.13	-37.5	-47.8	3.5	3.02e+01	0	33	104	0	48	18761
2026-01-06 17:58:26.38	4.74	16.23	-44.0	-55.5	3.6	3.02e+01	0	33	104	0	60	22995
2026-01-06 17:58:27.39	4.59	16.33	-44.0	-55.5	3.6	3.02e+01	0	33	104	0	60	23036
2026-01-06 17:58:28.40	4.43	16.43	-37.7	-48.0	3.5	3.02e+01	0	33	104	0	46	21543
2026-01-06 17:58:29.41	4.27	16.53	-48.2	-64.7	3.5	3.02e+01	0	33	104	0	60	65900
2026-01-06 17:58:30.42	4.11	16.63	-38.3	-48.6	3.5	3.02e+01	0	33	104	0	50	18504
2026-01-06 17:58:31.43	3.95	16.73	-37.8	-48.1	3.5	3.02e+01	0	33	104	0	50	17350
2026-01-06 17:58:32.44	3.79	16.83	-37.3	-47.6	3.5	3.02e+01	0	33	104	0	50	16370
2026-01-06 17:58:33.45	3.62	16.93	-36.3	-46.5	3.5	3.02e+01	0	33	104	0	48	16304
2026-01-06 17:58:34.46	3.46	17.03	-39.4	-49.9	3.4	3.02e+01	0	33	104	0	56	15066
2026-01-06 17:58:35.47	3.29	17.14	-42.0	-52.7	4.1	3.02e+01	0	33	104	0	48	33052
2026-01-06 17:58:36.48	3.13	17.24	-47.1	-60.8	3.6	3.02e+01	0	33	104	0	60	42333
2026-01-06 17:58:37.49	2.96	17.34	-36.4	-46.7	3.5	3.02e+01	0	33	104	0	52	13205
2026-01-06 17:58:38.50	2.79	17.44	-40.0	-50.6	3.6	3.02e+01	0	33	104	0	56	16422
2026-01-06 17:58:39.51	2.62	17.54	-38.4	-48.7	3.5	3.02e+01	0	33	104	0	50	18673
2026-01-06 17:58:40.51	2.45	17.65	-37.7	-48.0	3.5	3.02e+01	0	33	104	0	50	17128
2026-01-06 17:58:41.52	2.27	17.75	-36.4	-46.6	3.5	3.02e+01	0	33	104	0	48	16430
2026-01-06 17:58:42.53	2.10	17.85	-35.1	-45.2	3.5	3.02e+01	0	33	104	0	46	15745
2026-01-06 17:58:43.54	1.92	17.95	-35.0	-45.2	3.5	3.02e+01	0	33	104	0	46	15726
2026-01-06 17:58:44.55	1.75	18.06	-44.2	-55.7	3.5	3.02e+01	0	33	104	0	50	41942
2026-01-06 17:58:45.56	1.57	18.16	-47.8	-63.0	3.5	3.02e+01	0	33	104	0	60	54076
2026-01-06 17:58:46.57	1.39	18.26	-36.7	-46.9	3.5	3.02e+01	0	33	104	0	48	16965
2026-01-06 17:58:47.58	1.21	18.37	-40.9	-51.7	3.5	3.02e+01	0	33	104	0	60	14780
2026-01-06 17:58:48.59	1.02	18.47	-39.8	-50.3	3.5	3.02e+01	0	33	104	0	52	20009
2026-01-06 17:58:49.60	0.84	18.58	-38.4	-48.8	3.6	3.02e+01	0	33	104	0	52	16786
2026-01-06 17:58:50.61	0.66	18.68	-37.4	-47.7	3.5	3.02e+01	0	33	104	0	50	16619
2026-01-06 17:58:51.62	0.47	18.79	-37.6	-47.8	3.5	3.02e+01	0	33	104	0	48	18894
2026-01-06 17:58:52.63	0.28	18.89	-35.6	-45.8	3.5	3.02e+01	0	33	104	0	48	14892
2026-01-06 17:58:53.64	0.09	19.00	-46.2	-59.0	3.5	3.02e+01	0	33	104	0	54	48300
2026-01-06 17:58:54.65	359.90	19.10	-46.7	-60.0	3.5	3.02e+01	0	33	104	0	60	38490
2026-01-06 17:58:55.66	359.71	19.21	-38.6	-49.0	3.5	3.02e+01	0	33	104	0	48	21714
2026-01-06 17:58:56.67	359.52	19.31	-38.4	-48.8	3.5	3.02e+01	0	33	104	0	52	16815
2026-01-06 17:58:57.68	359.32	19.42	-37.2	-47.5	3.5	3.02e+01	0	33	104	0	50	16260
2026-01-06 17:58:58.69	359.12	19.52	-35.8	-46.0	3.5	3.02e+01	0	33	104	0	46	17107
2026-01-06 17:58:59.70	358.93	19.63	-35.1	-45.3	3.5	3.02e+01	0	33	104	0	46	15824
2026-01-06 17:59:00.71	358.73	19.74	-36.4	-46.6	3.5	3.02e+01	0	33	104	0	44	20673
2026-01-06 17:59:01.72	358.53	19.84	-35.6	-45.8	3.5	3.02e+01	0	33	104	0	46	16812
2026-01-06 17:59:02.72	358.32	19.95	-48.4	-65.7	3.5	3.02e+01	0	33	104	0	60	74095
2026-01-06 17:59:03.73	358.12	20.05	-41.8	-52.7	3.5	3.02e+01	0	33	104	0	60	16573
2026-01-06 17:59:04.74	357.92	20.16	-37.3	-47.6	3.5	3.02e+01	0	33	104	0	44	23122
2026-01-06 17:59:05.75	357.71	20.27	-36.1	-46.4	3.5	3.02e+01	0	33	104	0	48	15954
2026-01-06 17:59:06.76	357.50	20.37	-35.2	-45.3	3.5	3.02e+01	0	33	104	0	46	15890
2026-01-06 17:59:07.77	357.29	20.48	-34.8	-45.0	3.6	3.02e+01	0	33	104	0	44	17182
2026-01-06 17:59:08.78	357.08	20.59	-34.8	-44.9	3.5	3.02e+01	0	33	104	0	44	17023
2026-01-06 17:59:09.79	356.86	20.69	-39.3	-49.8	3.5	3.02e+01	0	33	104	0	50	21030
2026-01-06 17:59:10.80	356.65	20.80	-35.2	-45.4	3.5	3.02e+01	0	33	104	0	46	16093
2026-01-06 17:59:11.81	356.43	20.91	-48.4	-65.3	3.5	3.02e+01	0	33	104	0	60	71224
2026-01-06 17:59:12.82	356.22	21.02	-43.3	-54.6	3.5	3.02e+01	0	33	104	0	60	20628
2026-01-06 17:59:13.83	356.00	21.12	-43.4	-54.8	3.5	3.02e+01	0	33	104	0	56	26591
2026-01-06 17:59:14.83	355.78	21.23	-37.6	-48.0	3.5	3.02e+01	0	33	104	0	52	15248
2026-01-06 17:59:15.84	355.55	21.34	-37.2	-47.4	3.5	3.02e+01	0	33	104	0	50	16078
2026-01-06 17:59:16.85	355.33	21.45	-36.9	-47.1	3.4	3.02e+01	0	33	104	0	50	15547
2026-01-06 17:59:17.86	355.10	21.55	-35.9	-46.2	3.5	3.02e+01	0	33	104	0	48	15601
2026-01-06 17:59:18.87	354.87	21.66	-37.6	-48.0	3.5	3.02e+01	0	33	104	0	48	19278
2026-01-06 17:59:19.87	354.65	21.77	-35.7	-45.9	3.5	3.02e+01	0	33	104	0	46	17017
2026-01-06 17:59:20.88	354.42	21.88	-48.4	-65.4	3.5	3.02e+01	0	33	104	0	60	71832
2026-01-06 17:59:21.89	354.18	21.98	-42.4	-53.4	3.5	3.02e+01	0	33	104	0	60	18069
2026-01-06 17:59:22.90	353.95	22.09	-44.7	-56.6	3.5	3.02e+01	0	33	104	0	58	29148
2026-01-06 17:59:23.91	353.71	22.20	-37.7	-48.1	3.5	3.02e+01	0	33	104	0	52	15436
2026-01-06 17:59:24.92	353.47	22.31	-37.2	-47.5	3.5	3.02e+01	0	33	104	0	50	16237
2026-01-06 17:59:25.93	353.23	22.42	-36.9	-47.3	3.5	3.02e+01	0	33	104	0	48	17706
2026-01-06 17:59:26.94	352.99	22.52	-36.3	-46.4	3.5	3.02e+01	0	33	104	0	48	16130
2026-01-06 17:59:27.95	352.75	22.63	-43.0	-54.1	3.5	3.02e+01	0	33	104	0	58	21985
2026-01-06 17:59:28.96	352.50	22.74	-36.2	-46.4	3.5	3.02e+01	0	33	104	0	46	18030
2026-01-06 17:59:29.97	352.25	22.85	-48.5	-65.9	3.5	3.02e+01	0	33	104	0	60	76100
2026-01-06 17:59:30.98	352.01	22.95	-41.6	-52.4	3.5	3.02e+01	0	33	104	0	58	18005
2026-01-06 17:59:31.99	351.75	23.06	-47.3	-61.6	3.5	3.02e+01	0	33	104	0	60	46371
2026-01-06 17:59:33.00	351.50	23.17	-37.8	-48.1	3.5	3.02e+01	0	33	104	0	50	17434
2026-01-06 17:59:34.00	351.25	23.28	-37.2	-47.5	3.5	3.02e+01	0	33	104	0	50	16258
2026-01-06 17:59:35.01	350.99	23.38	-37.0	-47.2	3.5	3.02e+01	0	33	104	0	50	15647
2026-01-06 17:59:36.02	350.73	23.49	-36.0	-46.2	3.5	3.02e+01	0	33	104	0	48	15689
2026-01-06 17:59:37.03	350.47	23.60	-41.3	-52.0	3.5	3.02e+01	0	33	104	0	56	19260
2026-01-06 17:59:38.04	350.21	23.70	-36.5	-46.8	3.5	3.02e+01	0	33	104	0	46	18804
2026-01-06 17:59:39.05	349.95	23.81	-48.6	-66.0	3.5	3.02e+01	0	33	104	0	60	77155
2026-01-06 17:59:40.06	349.68	23.92	-41.1	-51.8	3.5	3.02e+01	0	33	104	0	56	18924
2026-01-06 17:59:41.07	349.41	24.02	-48.0	-63.8	3.5	3.02e+01	0	33	104	0	60	59700
2026-01-06 17:59:42.08	349.15	24.13	-37.9	-48.2	3.5	3.02e+01	0	33	104	0	50	17628
2026-01-06 17:59:43.09	348.87	24.24	-36.6	-46.9	3.5	3.02e+01	0	33	104	0	48	16910
2026-01-06 17:59:44.10	348.60	24.34	-35.9	-46.1	3.5	3.02e+01	0	33	104	0	46	17381
2026-01-06 17:59:45.11	348.32	24.45	-35.6	-45.8	3.5	3.02e+01	0	33	104	0	46	16837
2026-01-06 17:59:46.12	348.05	24.55	-43.1	-54.3	3.5	3.02e+01	0	33	104	0	60	19963
2026-01-06 17:59:47.13	347.77	24.66	-35.9	-46.1	3.6	3.02e+01	0	33	104	0	46	17407
2026-01-06 17:59:48.13	347.49	24.76	-48.5	-66.0	3.5	3.02e+01	0	33	104	0	60	76531
2026-01-06 17:59:49.14	347.21	24.87	-40.1	-50.8	3.6	3.02e+01	0	33	104	0	56	16804
2026-01-06 17:59:50.15	346.92	24.97	-48.1	-64.2	3.5	3.02e+01	0	33	104	0	60	62684
2026-01-06 17:59:51.16	346.63	25.07	-37.6	-47.9	3.5	3.02e+01	0	33	104	0	50	17011
2026-01-06 17:59:52.17	346.34	25.18	-37.9	-48.2	3.5	3.02e+01	0	33	104	0	50	17662
2026-01-06 17:59:53.18	346.05	25.28	-36.6	-46.8	3.5	3.02e+01	0	33	104	0	48	16895
2026-01-06 17:59:54.18	345.76	25.38	-35.8	-46.1	3.5	3.02e+01	0	33	104	0	46	17317
2026-01-06 17:59:55.19	345.47	25.48	-39.7	-50.2	3.5	3.02e+01	0	33	104	0	56	15678
2026-01-06 17:59:56.20	345.17	25.59	-35.9	-46.1	3.5	3.02e+01	0	33	104	0	46	17468
2026-01-06 17:59:57.21	344.87	25.69	-48.5	-65.6	3.5	3.02e+01	0	33	104	0	60	73627
2026-01-06 17:59:58.22	344.57	25.79	-37.2	-47.5	3.5	3.02e+01	0	33	104	0	52	14465
2026-01-06 17:59:59.23	344.26	25.89	-47.8	-63.0	3.5	3.02e+01	0	33	104	0	60	54139
2026-01-06 18:00:00.24	343.96	25.99	-35.4	-45.5	3.5	3.02e+01	0	33	104	0	46	16300
2026-01-06 18:00:01.25	343.65	26.09	-35.5	-45.6	3.5	3.02e+01	0	33	104	0	46	16466
2026-01-06 18:00:02.26	343.34	26.19	-35.1	-45.3	3.5	3.02e+01	0	33	104	0	46	15925
2026-01-06 18:00:03.27	343.03	26.29	-34.6	-44.7	3.5	3.02e+01	0	33	104	0	44	16697
2026-01-06 18:00:04.28	342.72	26.39	-43.1	-54.2	3.6	3.02e+01	0	33	104	0	60	19694
2026-01-06 18:00:05.29	342.40	26.48	-35.7	-45.9	3.5	3.02e+01	0	33	104	0	48	15208
2026-01-06 18:00:06.30	342.08	26.58	-48.5	-65.5	3.5	3.02e+01	0	33	104	0	60	72781
2026-01-06 18:00:07.31	341.76	26.68	-38.0	-48.3	3.5	3.02e+01	0	33	104	0	52	15921
2026-01-06 18:00:08.32	341.44	26.77	-48.3	-65.2	3.5	3.02e+01	0	33	104	0	60	70039
2026-01-06 18:00:09.33	341.12	26.87	-40.6	-51.3	3.5	3.02e+01	0	33	104	0	56	17788
2026-01-06 18:00:10.34	340.79	26.97	-39.0	-49.5	3.5	3.02e+01	0	33	104	0	54	16162
2026-01-06 18:00:11.35	340.46	27.06	-37.9	-48.2	3.5	3.02e+01	0	33	104	0	52	15709
2026-01-06 18:00:12.36	340.13	27.15	-37.4	-47.7	3.5	3.02e+01	0	33	104	0	50	16536
2026-01-06 18:00:13.37	339.80	27.25	-44.0	-55.4	3.5	3.02e+01	0	33	104	0	60	22600
2026-01-06 18:00:14.38	339.47	27.34	-38.0	-48.4	3.6	3.02e+01	0	33	104	0	52	16053
2026-01-06 18:00:15.39	339.13	27.43	-46.5	-59.9	3.6	3.02e+01	0	33	104	0	60	38029
2026-01-06 18:00:16.40	338.79	27.52	-35.4	-45.5	3.5	3.02e+01	0	33	104	0	46	16318
2026-01-06 18:00:17.41	338.45	27.61	-48.7	-66.3	3.5	3.02e+01	0	33	104	0	60	79771
2026-01-06 18:00:18.42	338.11	27.70	-38.1	-48.4	3.5	3.02e+01	0	33	104	0	50	17915
2026-01-06 18:00:19.42	337.77	27.79	-37.4	-47.6	3.5	3.02e+01	0	33	104	0	50	16447
2026-01-06 18:00:20.43	337.43	27.87	-36.0	-46.2	3.5	3.02e+01	0	33	104	0	48	15693
2026-01-06 18:00:21.44	337.08	27.96	-34.3	-44.4	3.5	3.02e+01	0	33	104	0	44	16084
2026-01-06 18:00:22.45	336.73	28.05	-37.1	-47.3	3.5	3.02e+01	0	33	104	0	50	15840
2026-01-06 18:00:23.46	336.38	28.13	-37.7	-47.9	3.5	3.02e+01	0	33	104	0	46	21424
2026-01-06 18:00:24.46	336.03	28.22	-46.5	-59.6	3.5	3.02e+01	0	33	104	0	60	36797
2026-01-06 18:00:25.48	335.67	28.30	-37.7	-48.0	3.5	3.02e+01	0	33	104	0	48	19284
2026-01-06 18:00:26.48	335.31	28.38	-43.9	-55.4	3.5	3.02e+01	0	33	104	0	60	22591
2026-01-06 18:00:27.49	334.95	28.46	-37.5	-47.8	3.5	3.02e+01	0	33	104	0	50	16756
2026-01-06 18:00:28.50	334.59	28.54	-36.9	-47.1	3.5	3.02e+01	0	33	104	0	48	17350
2026-01-06 18:00:29.51	334.23	28.62	-37.0	-47.3	3.5	3.02e+01	0	33	104	0	48	17728
2026-01-06 18:00:30.52	333.86	28.70	-41.4	-52.1	3.5	3.02e+01	0	33	104	0	52	24516
2026-01-06 18:00:31.53	333.49	28.78	-46.1	-58.8	3.5	3.02e+01	0	33	104	0	60	33374
2026-01-06 18:00:32.54	333.13	28.85	-38.6	-48.9	3.5	3.02e+01	0	33	104	0	50	19171
2026-01-06 18:00:33.54	332.76	28.93	-42.5	-53.4	3.5	3.02e+01	0	33	104	0	60	18078
2026-01-06 18:00:34.55	332.39	29.00	-41.9	-52.6	3.5	3.02e+01	0	33	104	0	50	29350
2026-01-06 18:00:35.56	332.01	29.08	-48.6	-66.6	3.5	3.02e+01	0	33	104	0	60	82128
2026-01-06 18:00:36.57	331.63	29.15	-46.3	-59.2	3.5	3.02e+01	0	33	104	0	60	34899
2026-01-06 18:00:37.58	331.26	29.22	-46.8	-60.4	3.5	3.02e+01	0	33	104	0	60	40407
2026-01-06 18:00:38.59	330.88	29.29	-44.8	-56.6	3.5	3.02e+01	0	33	104	0	60	26068
2026-01-06 18:00:39.60	330.50	29.36	-36.6	-46.8	3.5	3.02e+01	0	33	104	0	50	14968
2026-01-06 18:00:40.61	330.11	29.42	-44.5	-56.3	3.7	3.02e+01	0	33	104	0	56	31498
2026-01-06 18:00:41.62	329.73	29.49	-37.0	-47.2	3.5	3.02e+01	0	33	104	0	48	17609
2026-01-06 18:00:42.62	329.35	29.55	-37.7	-48.1	3.5	3.02e+01	0	33	104	0	48	19437
2026-01-06 18:00:43.64	328.95	29.62	-40.9	-51.6	3.4	3.02e+01	0	33	104	0	46	32591
2026-01-06 18:00:44.64	328.57	29.68	-44.1	-55.9	3.6	3.02e+01	0	33	104	0	60	24006
2026-01-06 18:00:45.65	328.18	29.74	-37.5	-47.9	3.5	3.02e+01	0	33	104	0	48	19174
2026-01-06 18:00:46.66	327.78	29.80	-36.8	-47.1	3.5	3.02e+01	0	33	104	0	48	17453
2026-01-06 18:00:47.67	327.39	29.86	-36.0	-46.3	3.5	3.02e+01	0	33	104	0	48	15856
2026-01-06 18:00:48.68	327.00	29.91	-41.6	-52.4	3.5	3.02e+01	0	33	104	0	54	22608
2026-01-06 18:00:49.69	326.60	29.97	-41.9	-52.7	3.5	3.02e+01	0	33	104	0	58	18534
2026-01-06 18:00:50.70	326.20	30.02	-43.3	-54.6	3.5	3.02e+01	0	33	104	0	54	29033
2026-01-06 18:00:51.71	325.80	30.08	-37.1	-47.3	3.5	3.02e+01	0	33	104	0	50	15926
2026-01-06 18:00:52.72	325.40	30.13	-47.0	-60.7	3.5	3.02e+01	0	33	104	0	58	47039
2026-01-06 18:00:53.73	325.00	30.18	-39.9	-50.3	3.5	3.02e+01	0	33	104	0	60	12660
2026-01-06 18:00:54.74	324.59	30.22	-36.9	-47.1	3.5	3.02e+01	0	33	104	0	48	17392
2026-01-06 18:00:55.75	324.19	30.27	-35.6	-45.8	3.5	3.02e+01	0	33	104	0	46	16740
2026-01-06 18:00:56.76	323.78	30.32	-35.0	-45.2	3.5	3.02e+01	0	33	104	0	46	15670
2026-01-06 18:00:57.77	323.37	30.36	-37.5	-47.8	3.5	3.02e+01	0	33	104	0	46	21159
2026-01-06 18:00:58.77	322.97	30.40	-37.2	-47.4	3.5	3.02e+01	0	33	104	0	48	18080
2026-01-06 18:00:59.79	322.56	30.44	-47.7	-62.5	3.5	3.02e+01	0	33	104	0	60	51589
2026-01-06 18:01:00.79	322.15	30.48	-45.4	-57.6	3.6	3.02e+01	0	33	104	0	60	29358
2026-01-06 18:01:01.80	321.74	30.52	-48.6	-66.0	3.5	3.02e+01	0	33	104	0	60	77216
2026-01-06 18:01:02.81	321.33	30.56	-45.0	-56.8	3.6	3.02e+01	0	33	104	0	60	26736
2026-01-06 18:01:03.82	320.91	30.59	-45.2	-57.2	6.3	3.02e+01	0	33	104	0	60	27802
2026-01-06 18:01:04.83	320.50	30.62	-44.7	-48.1	18.0	3.02e+01	0	33	104	0	60	9761
2026-01-06 18:01:05.84	320.08	30.65	-45.6	-49.4	17.0	3.02e+01	0	33	0	1048576	60	11388
2026-01-06 18:01:06.85	319.67	30.68	-44.8	-48.0	18.3	3.02e+01	0	33	0	2621440	60	9656
2026-01-06 18:01:07.86	319.25	30.71	-45.3	-48.8	16.9	3.02e+01	0	33	0	4718592	60	10616
2026-01-06 18:01:08.87	318.83	30.74	-45.7	-49.6	15.7	3.02e+01	0	33	0	6815744	60	11676
2026-01-06 18:01:09.88	318.41	30.76	-45.4	-49.1	16.9	3.02e+01	0	33	0	8388608	60	10940
2026-01-06 18:01:10.88	318.00	30.79	-43.6	-46.2	20.4	3.02e+01	0	33	0	10485760	60	7865
2026-01-06 18:01:11.90	317.57	30.81	-42.1	-44.2	22.2	3.02e+01	0	33	0	12058624	60	6213
2026-01-06 18:01:12.90	317.16	30.83	-41.7	-43.7	22.6	3.02e+01	0	33	0	14155776	58	6609
2026-01-06 18:01:13.91	316.74	30.85	-41.1	-42.9	22.9	3.02e+01	0	33	0	16252928	56	6783
2026-01-06 18:01:14.92	316.32	30.86	-41.7	-43.6	21.9	3.02e+01	0	33	0	17825792	56	7363
2026-01-06 18:01:15.93	315.89	30.88	-40.2	-41.9	24.1	3.02e+01	0	33	0	19922944	56	5999
2026-01-06 18:01:16.94	315.47	30.89	-40.6	-42.3	23.4	3.02e+01	0	33	0	21495808	56	6322
2026-01-06 18:01:17.95	315.05	30.90	-39.0	-40.5	25.2	3.02e+01	0	33	0	23592960	52	6485
2026-01-06 18:01:18.96	314.63	30.91	-37.7	-39.0	26.8	3.02e+01	0	33	0	25690112	50	6131
2026-01-06 18:01:19.97	314.20	30.92	-35.7	-37.0	28.8	3.02e+01	0	33	0	27262976	46	6066
2026-01-06 18:01:20.98	313.78	30.92	-34.3	-35.5	29.8	3.02e+01	0	33	0	29360128	44	5762
2026-01-06 18:01:21.99	313.36	30.93	-34.5	-35.7	29.8	3.02e+01	0	33	0	31457280	44	5867
2026-01-06 18:01:23.00	312.94	30.93	-34.4	-35.6	29.8	3.02e+01	0	33	0	33030144	44	5844
2026-01-06 18:01:24.00	312.52	30.93	-34.6	-35.8	29.6	3.02e+01	0	33	0	35127296	42	6662
2026-01-06 18:01:25.01	312.09	30.93	-33.9	-35.1	30.1	3.02e+01	0	33	0	36700160	42	6147
2026-01-06 18:01:26.02	311.67	30.93	-33.8	-34.9	30.3	3.02e+01	0	33	0	38797312	42	6061
2026-01-06 18:01:27.03	311.25	30.93	-33.7	-34.9	30.4	3.02e+01	0	33	0	40894464	44	5356
2026-01-06 18:01:28.04	310.82	30.92	-34.4	-35.7	29.4	3.02e+01	0	33	0	42467328	42	6579
2026-01-06 18:01:29.05	310.40	30.91	-35.2	-36.4	29.1	3.02e+01	0	33	0	44564480	42	7197
2026-01-06 18:01:30.06	309.98	30.90	-34.2	-35.4	29.6	3.02e+01	0	33	0	46137344	42	6384
2026-01-06 18:01:31.07	309.55	30.89	-33.5	-34.7	30.2	3.02e+01	0	33	0	48234496	42	5865
2026-01-06 18:01:32.08	309.13	30.88	-33.6	-34.7	30.6	3.02e+01	0	33	0	50331648	42	5873
2026-01-06 18:01:33.09	308.71	30.87	-34.3	-35.5	29.6	3.02e+01	0	33	0	51904512	44	5747
2026-01-06 18:01:34.10	308.29	30.85	-34.8	-36.1	29.3	3.02e+01	0	33	0	54001664	42	6901
2026-01-06 18:01:35.11	307.87	30.83	-34.6	-35.8	29.6	3.02e+01	0	33	0	56098816	42	6696
2026-01-06 18:01:36.12	307.45	30.81	-33.9	-35.1	30.1	3.02e+01	0	33	0	57671680	42	6152
2026-01-06 18:01:37.13	307.03	30.79	-33.7	-34.8	30.4	3.02e+01	0	33	0	59768832	42	5968
2026-01-06 18:01:38.14	306.61	30.77	-34.3	-35.4	29.5	3.02e+01	0	33	0	61341696	44	5722
2026-01-06 18:01:39.14	306.19	30.74	-34.7	-35.9	29.4	3.02e+01	0	33	0	63438848	42	6804
2026-01-06 18:01:40.15	305.78	30.72	-34.5	-35.7	29.5	3.02e+01	0	33	0	65536000	42	6635
2026-01-06 18:01:41.16	305.36	30.69	-34.0	-35.2	30.1	3.02e+01	0	33	0	67108864	42	6245
2026-01-06 18:01:42.17	304.94	30.66	-33.9	-35.1	30.2	3.02e+01	0	33	0	69206016	44	5478
2026-01-06 18:01:43.18	304.53	30.63	-34.5	-35.7	29.6	3.02e+01	0	33	0	70778880	42	6638
2026-01-06 18:01:44.19	304.11	30.60	-34.5	-35.7	29.8	3.02e+01	0	33	0	72876032	42	6626
2026-01-06 18:01:45.20	303.70	30.56	-34.7	-35.9	29.6	3.02e+01	0	33	0	74448896	42	6763
2026-01-06 18:01:46.21	303.28	30.53	-34.5	-35.8	29.6	3.02e+01	0	33	0	76546048	42	6666
2026-01-06 18:01:47.22	302.87	30.49	-34.6	-35.8	29.5	3.02e+01	0	33	0	78643200	42	6724
2026-01-06 18:01:48.22	302.46	30.45	-34.0	-35.1	30.1	3.02e+01	0	33	0	80216064	44	5529
2026-01-06 18:01:49.23	302.05	30.41	-34.2	-35.3	29.9	3.02e+01	0	33	0	82313216	44	5659
2026-01-06 18:01:50.24	301.64	30.37	-35.0	-36.2	29.1	3.02e+01	0	33	0	84410368	44	6266
2026-01-06 18:01:51.25	301.24	30.33	-34.8	-36.0	29.4	3.02e+01	0	33	0	85983232	44	6129
2026-01-06 18:01:52.26	300.83	30.28	-34.3	-35.5	29.8	3.02e+01	0	33	0	88080384	44	5782
2026-01-06 18:01:53.27	300.42	30.24	-34.3	-35.5	29.9	3.02e+01	0	33	0	89653248	44	5784
2026-01-06 18:01:54.28	300.02	30.19	-34.9	-36.2	29.3	3.02e+01	0	33	0	91750400	44	6221
2026-01-06 18:01:55.29	299.62	30.14	-34.7	-36.0	29.3	3.02e+01	0	33	0	93847552	44	6075
2026-01-06 18:01:56.30	299.21	30.09	-35.0	-36.2	29.3	3.02e+01	0	33	0	95420416	44	6237
2026-01-06 18:01:57.30	298.82	30.04	-36.2	-37.5	28.1	3.02e+01	0	33	0	97517568	46	6469
2026-01-06 18:01:58.31	298.42	29.98	-35.2	-36.4	28.9	3.02e+01	0	33	0	99614720	44	6420
2026-01-06 18:01:59.32	298.02	29.93	-34.9	-36.0	29.3	3.02e+01	0	33	0	101187584	44	6122
2026-01-06 18:02:00.33	297.62	29.87	-36.0	-37.3	27.9	3.02e+01	0	33	0	103284736	46	6287
2026-01-06 18:02:01.33	297.23	29.81	-36.3	-37.7	28.0	3.02e+01	0	33	0	104857600	46	6596
2026-01-06 18:02:02.34	296.84	29.75	-35.2	-36.5	29.1	3.02e+01	0	33	0	106954752	46	5735
2026-01-06 18:02:03.35	296.45	29.69	-34.5	-35.7	29.7	3.02e+01	0	33	0	108527616	44	5870
2026-01-06 18:02:04.36	296.06	29.63	-34.2	-35.3	29.9	3.02e+01	0	33	0	110624768	44	5638
2026-01-06 18:02:05.37	295.67	29.57	-35.1	-36.4	28.6	3.02e+01	0	33	0	112721920	44	6355
2026-01-06 18:02:06.38	295.28	29.50	-34.8	-36.1	29.1	3.02e+01	0	33	0	114294784	42	6890
2026-01-06 18:02:07.39	294.89	29.44	-34.3	-35.4	29.8	3.02e+01	0	33	0	116391936	44	5701
2026-01-06 18:02:08.40	294.51	29.37	-36.0	-37.3	27.2	3.02e+01	0	33	0	117964800	46	6328
2026-01-06 18:02:09.41	294.13	29.30	-35.4	-36.7	28.7	3.02e+01	0	33	0	120061952	44	6596
2026-01-06 18:02:10.42	293.75	29.23	-33.6	-34.7	30.2	3.02e+01	0	33	0	122159104	42	5882
2026-01-06 18:02:11.42	293.37	29.16	-34.6	-35.8	29.3	3.02e+01	0	33	0	123731968	44	5966
2026-01-06 18:02:12.43	292.99	29.09	-35.6	-36.9	28.5	3.02e+01	0	33	0	125829120	44	6793
2026-01-06 18:02:13.44	292.62	29.02	-34.8	-36.0	29.0	3.02e+01	0	33	0	127926272	44	6080
2026-01-06 18:02:14.45	292.24	28.95	-34.5	-35.7	29.3	3.02e+01	0	33	0	129499136	44	5879
2026-01-06 18:02:15.46	291.87	28.87	-35.1	-36.4	29.0	3.02e+01	0	33	0	131596288	44	6366
2026-01-06 18:02:16.47	291.50	28.79	-34.9	-36.1	29.1	3.02e+01	0	33	0	133169152	44	6182
2026-01-06 18:02:17.47	291.14	28.72	-34.7	-35.8	29.3	3.02e+01	0	33	0	135266304	44	5981
2026-01-06 18:02:18.48	290.77	28.64	-35.8	-37.1	28.5	3.02e+01	0	33	0	137363456	44	6909
2026-01-06 18:02:19.49	290.41	28.56	-34.2	-35.3	29.9	3.02e+01	0	33	0	138936320	44	5614
2026-01-06 18:02:20.50	290.04	28.48	-35.4	-36.7	28.4	3.02e+01	0	33	0	141033472	44	6577
2026-01-06 18:02:21.51	289.68	28.40	-34.8	-36.0	29.3	3.02e+01	0	33	0	142606336	44	6097
2026-01-06 18:02:22.52	289.32	28.32	-34.6	-35.8	29.5	3.02e+01	0	33	0	144703488	44	5961
2026-01-06 18:02:23.53	288.97	28.23	-35.6	-36.8	28.8	3.02e+01	0	33	0	146800640	44	6714
2026-01-06 18:02:24.54	288.61	28.15	-35.0	-36.3	29.2	3.02e+01	0	33	0	148373504	44	6287
2026-01-06 18:02:25.54	288.26	28.06	-35.2	-36.4	29.0	3.02e+01	0	33	0	150470656	44	6396
2026-01-06 18:02:26.55	287.91	27.98	-34.8	-36.0	29.4	3.02e+01	0	33	0	152567808	44	6134
2026-01-06 18:02:27.56	287.56	27.89	-35.0	-36.2	29.2	3.02e+01	0	33	0	154140672	44	6211
2026-01-06 18:02:28.58	287.21	27.80	-34.7	-35.9	29.6	3.02e+01	0	33	0	156237824	44	6025
2026-01-06 18:02:29.59	286.86	27.72	-35.0	-36.2	29.3	3.02e+01	0	33	0	157810688	44	6244
2026-01-06 18:02:30.59	286.52	27.63	-34.8	-35.9	29.5	3.02e+01	0	33	0	159907840	44	6051
2026-01-06 18:02:31.60	286.18	27.54	-35.8	-37.1	28.6	3.02e+01	0	33	0	162004992	44	6912
2026-01-06 18:02:32.61	285.84	27.45	-34.9	-36.1	29.2	3.02e+01	0	33	0	163577856	46	5501
2026-01-06 18:02:33.62	285.51	27.35	-34.8	-36.0	29.0	3.02e+01	0	33	0	165675008	44	6124
2026-01-06 18:02:34.63	285.17	27.26	-35.2	-36.5	28.6	3.02e+01	0	33	0	167247872	44	6457
2026-01-06 18:02:35.64	284.84	27.17	-35.1	-36.3	29.0	3.02e+01	0	33	0	169345024	44	6307
2026-01-06 18:02:36.65	284.51	27.08	-36.1	-37.4	28.2	3.02e+01	0	33	0	170917888	46	6375
2026-01-06 18:02:37.66	284.18	26.98	-35.6	-36.9	28.7	3.02e+01	0	33	0	173015040	46	5995
2026-01-06 18:02:38.67	283.85	26.89	-35.0	-36.2	29.2	3.02e+01	0	33	0	175112192	46	5578
2026-01-06 18:02:39.68	283.52	26.79	-35.5	-36.7	28.7	3.02e+01	0	33	0	176685056	46	5909
2026-01-06 18:02:40.69	283.20	26.69	-35.2	-36.4	28.8	3.02e+01	0	33	0	178782208	46	5680
2026-01-06 18:02:41.70	282.88	26.60	-35.1	-36.3	29.1	3.02e+01	0	33	0	180879360	44	6287
2026-01-06 18:02:42.71	282.56	26.50	-35.6	-36.8	28.7	3.02e+01	0	33	0	182452224	44	6726
2026-01-06 18:02:43.72	282.24	26.40	-35.4	-36.7	28.7	3.02e+01	0	33	0	184549376	44	6604
2026-01-06 18:02:44.73	281.93	26.30	-35.1	-36.3	29.1	3.02e+01	0	33	0	186122240	44	6333
2026-01-06 18:02:45.73	281.62	26.21	-35.4	-36.6	28.8	3.02e+01	0	33	0	188219392	44	6549
2026-01-06 18:02:46.74	281.31	26.11	-34.8	-36.0	29.3	3.02e+01	0	33	0	190316544	44	6066
2026-01-06 18:02:47.75	281.00	26.01	-35.4	-36.7	29.0	3.02e+01	0	33	0	191889408	44	6588
2026-01-06 18:02:48.76	280.69	25.91	-35.8	-37.1	28.2	3.02e+01	0	33	0	193986560	44	6891
2026-01-06 18:02:49.77	280.39	25.80	-35.2	-36.4	29.2	3.02e+01	0	33	0	195559424	46	5714
2026-01-06 18:02:50.78	280.08	25.70	-35.3	-36.5	29.1	3.02e+01	0	33	0	197656576	46	5780
2026-01-06 18:02:51.79	279.78	25.60	-35.0	-36.2	29.2	3.02e+01	0	33	0	199753728	46	5558
2026-01-06 18:02:52.80	279.48	25.50	-35.0	-36.2	29.1	3.02e+01	0	33	0	201326592	44	6217
2026-01-06 18:02:53.81	279.19	25.40	-35.6	-36.9	28.6	3.02e+01	0	33	0	203423744	44	6768
2026-01-06 18:02:54.82	278.89	25.29	-35.0	-36.2	29.1	3.02e+01	0	33	0	205520896	44	6249
2026-01-06 18:02:55.83	278.60	25.19	-35.3	-36.5	29.0	3.02e+01	0	33	0	207093760	44	6492
2026-01-06 18:02:56.84	278.31	25.09	-35.7	-37.0	28.6	3.02e+01	0	33	0	209190912	44	6805
2026-01-06 18:02:57.85	278.02	24.98	-35.4	-36.6	28.8	3.02e+01	0	33	0	210763776	44	6533
2026-01-06 18:02:58.85	277.74	24.88	-35.4	-36.6	28.8	3.02e+01	0	33	0	212860928	44	6540
2026-01-06 18:02:59.86	277.45	24.77	-35.8	-37.1	28.4	3.02e+01	0	33	0	214958080	44	6935
2026-01-06 18:03:00.87	277.17	24.67	-36.3	-37.5	27.9	3.02e+01	0	33	0	216530944	46	6495
2026-01-06 18:03:01.88	276.89	24.56	-35.5	-36.7	28.8	3.02e+01	0	33	0	218628096	46	5926
2026-01-06 18:03:02.89	276.61	24.46	-35.8	-37.1	28.5	3.02e+01	0	33	0	220200960	46	6162
2026-01-06 18:03:03.90	276.33	24.35	-35.5	-36.7	28.6	3.02e+01	0	33	0	222298112	46	5914
2026-01-06 18:03:04.91	276.06	24.25	-34.8	-36.0	29.3	3.02e+01	0	33	0	224395264	44	6090
2026-01-06 18:03:05.92	275.78	24.14	-35.3	-36.5	28.8	3.02e+01	0	33	0	225968128	44	6480
2026-01-06 18:03:06.93	275.51	24.03	-35.9	-37.3	28.3	3.02e+01	0	33	0	228065280	46	6290
2026-01-06 18:03:07.94	275.24	23.93	-35.1	-36.3	28.8	3.02e+01	0	33	0	229638144	46	5626
2026-01-06 18:03:08.95	274.98	23.82	-34.9	-36.0	29.3	3.02e+01	0	33	0	231735296	44	6121
2026-01-06 18:03:09.96	274.71	23.71	-35.4	-36.7	28.8	3.02e+01	0	33	0	233832448	44	6578
2026-01-06 18:03:10.97	274.45	23.61	-35.6	-36.9	28.4	3.02e+01	0	33	0	235405312	44	6773
2026-01-06 18:03:11.98	274.19	23.50	-35.2	-36.4	28.8	3.02e+01	0	33	0	237502464	44	6406
2026-01-06 18:03:12.98	273.93	23.39	-34.6	-35.7	29.5	3.02e+01	0	33	0	239075328	44	5910
2026-01-06 18:03:13.99	273.67	23.28	-35.2	-36.5	28.9	3.02e+01	0	33	0	241172480	44	6434
2026-01-06 18:03:15.00	273.42	23.18	-35.7	-37.0	28.4	3.02e+01	0	33	0	243269632	44	6817
2026-01-06 18:03:16.01	273.16	23.07	-35.4	-36.6	28.5	3.02e+01	0	33	0	244842496	44	6571
2026-01-06 18:03:17.02	272.91	22.96	-35.3	-36.5	28.8	3.02e+01	0	33	0	246939648	44	6452
2026-01-06 18:03:18.03	272.66	22.85	-35.5	-36.6	28.7	3.02e+01	0	33	0	249036800	44	6569
2026-01-06 18:03:19.04	272.41	22.74	-36.3	-37.6	27.9	3.02e+01	0	33	0	250609664	46	6568
2026-01-06 18:03:20.05	272.16	22.64	-36.7	-38.0	27.4	3.02e+01	0	33	0	252706816	46	6864
2026-01-06 18:03:21.06	271.92	22.53	-35.6	-36.9	28.3	3.02e+01	0	33	0	254279680	46	5996
2026-01-06 18:03:22.06	271.68	22.42	-34.6	-35.8	29.4	3.02e+01	0	33	0	256376832	44	5928
2026-01-06 18:03:23.07	271.44	22.31	-34.6	-35.7	29.6	3.02e+01	0	33	0	258473984	44	5904
2026-01-06 18:03:24.08	271.20	22.20	-35.0	-36.2	29.1	3.02e+01	0	33	0	260046848	44	6243
2026-01-06 18:03:25.09	270.96	22.10	-35.3	-36.5	28.9	3.02e+01	0	33	0	262144000	44	6480
2026-01-06 18:03:26.10	270.72	21.99	-35.3	-36.6	28.7	3.02e+01	0	33	0	263716864	44	6530
2026-01-06 18:03:27.10	270.49	21.88	-35.4	-36.7	28.6	3.02e+01	0	33	0	265814016	44	6584
2026-01-06 18:03:28.11	270.26	21.77	-35.2	-36.4	29.0	3.02e+01	0	33	0	267911168	44	6365
2026-01-06 18:03:29.12	270.03	21.66	-34.8	-36.0	29.4	3.02e+01	0	33	0	269484032	44	6102
2026-01-06 18:03:30.13	269.80	21.56	-35.0	-36.2	29.2	3.02e+01	0	33	0	271581184	44	6229
2026-01-06 18:03:31.14	269.57	21.45	-35.2	-36.4	29.0	3.02e+01	0	33	0	273154048	44	6421
2026-01-06 18:03:32.15	269.34	21.34	-35.3	-36.5	28.9	3.02e+01	0	33	0	275251200	44	6480
2026-01-06 18:03:33.15	269.12	21.23	-35.3	-36.6	28.8	3.02e+01	0	33	0	277348352	44	6512
2026-01-06 18:03:34.16	268.90	21.12	-35.4	-36.7	28.7	3.02e+01	0	33	0	278921216	44	6588
2026-01-06 18:03:35.17	268.68	21.02	-35.0	-36.3	29.1	3.02e+01	0	33	0	281018368	44	6282
2026-01-06 18:03:36.18	268.46	20.91	-35.1	-36.3	29.1	3.02e+01	0	33	0	282591232	44	6321
2026-01-06 18:03:37.19	268.24	20.80	-34.9	-36.1	29.3	3.02e+01	0	33	0	284688384	44	6136
2026-01-06 18:03:38.20	268.03	20.69	-34.9	-36.1	29.3	3.02e+01	0	33	0	286785536	44	6149
2026-01-06 18:03:39.21	267.81	20.59	-35.1	-36.3	29.1	3.02e+01	0	33	0	288358400	44	6317
2026-01-06 18:03:40.22	267.60	20.48	-35.1	-36.4	29.0	3.02e+01	0	33	0	290455552	44	6356
2026-01-06 18:03:41.23	267.39	20.37	-35.2	-36.4	29.0	3.02e+01	0	33	0	292028416	44	6393
2026-01-06 18:03:42.24	267.18	20.26	-35.1	-36.3	29.0	3.02e+01	0	33	0	294125568	44	6306
2026-01-06 18:03:43.25	266.97	20.16	-35.0	-36.2	29.1	3.02e+01	0	33	0	296222720	44	6230
2026-01-06 18:03:44.26	266.76	20.05	-35.0	-36.2	29.2	3.02e+01	0	33	0	297795584	44	6254
2026-01-06 18:03:45.27	266.56	19.94	-34.9	-36.1	29.2	3.02e+01	0	33	0	299892736	44	6198
2026-01-06 18:03:46.28	266.35	19.84	-35.0	-36.3	29.1	3.02e+01	0	33	0	301989888	44	6291
2026-01-06 18:03:47.29	266.15	19.73	-34.9	-36.2	29.2	3.02e+01	0	33	0	303562752	44	6208
2026-01-06 18:03:48.30	265.95	19.62	-34.9	-36.1	29.2	3.02e+01	0	33	0	305659904	44	6189
2026-01-06 18:03:49.30	265.75	19.52	-35.1	-36.3	29.1	3.02e+01	0	33	0	307232768	44	6292
2026-01-06 18:03:50.31	265.56	19.41	-35.0	-36.2	29.1	3.02e+01	0	33	0	309329920	44	6250
2026-01-06 18:03:51.32	265.36	19.30	-34.9	-36.1	29.3	3.02e+01	0	33	0	311427072	44	6152
2026-01-06 18:03:52.33	265.16	19.20	-34.8	-36.0	29.3	3.02e+01	0	33	0	312999936	44	6125
2026-01-06 18:03:53.34	264.97	19.09	-35.0	-36.2	29.2	3.02e+01	0	33	0	315097088	44	6260
2026-01-06 18:03:54.35	264.78	18.99	-34.9	-36.1	29.3	3.02e+01	0	33	0	316669952	44	6151
2026-01-06 18:03:55.36	264.59	18.88	-35.2	-36.4	29.1	3.02e+01	0	33	0	318767104	44	6392
2026-01-06 18:03:56.37	264.40	18.78	-35.2	-36.4	29.0	3.02e+01	0	33	0	320864256	44	6375
2026-01-06 18:03:57.37	264.21	18.67	-35.2	-36.4	29.0	3.02e+01	0	33	0	322437120	44	6384
2026-01-06 18:03:58.38	264.03	18.57	-35.3	-36.6	28.7	3.02e+01	0	33	0	324534272	44	6532
2026-01-06 18:03:59.39	263.84	18.46	-34.9	-36.1	29.1	3.02e+01	0	33	0	326107136	44	6187
2026-01-06 18:04:00.40	263.66	18.36	-35.0	-36.2	29.1	3.02e+01	0	33	0	328204288	44	6230
2026-01-06 18:04:01.41	263.48	18.25	-34.7	-35.9	29.4	3.02e+01	0	33	0	330301440	44	6016
2026-01-06 18:04:02.42	263.30	18.15	-34.8	-36.0	29.3	3.02e+01	0	33	0	331874304	44	6081
2026-01-06 18:04:03.43	263.12	18.05	-34.8	-36.0	29.3	3.02e+01	0	33	0	333971456	44	6069
2026-01-06 18:04:04.44	262.94	17.94	-34.9	-36.1	29.2	3.02e+01	0	33	0	335544320	44	6172
2026-01-06 18:04:05.45	262.76	17.84	-34.9	-36.1	29.1	3.02e+01	0	33	0	337641472	44	6189
2026-01-06 18:04:06.46	262.58	17.74	-34.9	-36.1	29.2	3.02e+01	0	33	0	339738624	44	6176
2026-01-06 18:04:07.47	262.41	17.63	-35.0	-36.3	29.0	3.02e+01	0	33	0	341311488	44	6284
2026-01-06 18:04:08.48	262.24	17.53	-35.1	-36.3	29.0	3.02e+01	0	33	0	343408640	44	6330
2026-01-06 18:04:09.49	262.06	17.43	-35.1	-36.3	29.0	3.02e+01	0	33	0	345505792	44	6315
2026-01-06 18:04:10.50	261.89	17.32	-35.0	-36.3	29.0	3.02e+01	0	33	0	347078656	44	6284
2026-01-06 18:04:11.51	261.72	17.22	-35.0	-36.2	29.1	3.02e+01	0	33	0	349175808	44	6225
2026-01-06 18:04:12.52	261.56	17.12	-34.9	-36.1	29.1	3.02e+01	0	33	0	350748672	44	6180
2026-01-06 18:04:13.53	261.39	17.02	-34.8	-36.0	29.2	3.02e+01	0	33	0	352845824	44	6119
2026-01-06 18:04:14.54	261.22	16.92	-34.9	-36.1	29.2	3.02e+01	0	33	0	354942976	44	6200
2026-01-06 18:04:15.55	261.06	16.82	-34.9	-36.1	29.1	3.02e+01	0	33	0	356515840	44	6183
2026-01-06 18:04:16.56	260.90	16.71	-35.1	-36.3	29.0	3.02e+01	0	33	0	358612992	44	6315
2026-01-06 18:04:17.57	260.73	16.61	-35.0	-36.3	29.0	3.02e+01	0	33	0	360185856	44	6279
2026-01-06 18:04:18.58	260.57	16.51	-35.0	-36.3	29.0	3.02e+01	0	33	0	362283008	44	6286
2026-01-06 18:04:19.59	260.41	16.41	-35.0	-36.2	29.0	3.02e+01	0	33	0	364380160	44	6267
2026-01-06 18:04:20.60	260.25	16.31	-35.0	-36.2	29.0	3.02e+01	0	33	0	365953024	44	6227
2026-01-06 18:04:21.61	260.10	16.21	-34.9	-36.1	29.1	3.02e+01	0	33	0	368050176	44	6204
2026-01-06 18:04:22.62	259.94	16.11	-35.1	-36.3	28.9	3.02e+01	0	33	0	370147328	44	6320
2026-01-06 18:04:23.63	259.78	16.01	-35.2	-36.4	29.0	3.02e+01	0	33	0	371720192	44	6382
2026-01-06 18:04:24.63	259.63	15.91	-35.0	-36.2	29.0	3.02e+01	0	33	0	373817344	44	6227
2026-01-06 18:04:25.64	259.48	15.82	-34.9	-36.1	29.1	3.02e+01	0	33	0	375390208	44	6158
2026-01-06 18:04:26.65	259.33	15.72	-35.0	-36.2	29.0	3.02e+01	0	33	0	377487360	44	6228
2026-01-06 18:04:27.66	259.18	15.62	-35.0	-36.2	29.0	3.02e+01	0	33	0	379584512	44	6233
2026-01-06 18:04:28.67	259.03	15.52	-35.1	-36.3	28.9	3.02e+01	0	33	0	381157376	44	6318
2026-01-06 18:04:29.68	258.88	15.42	-35.2	-36.5	28.7	3.02e+01	0	33	0	383254528	44	6428
2026-01-06 18:04:30.69	258.73	15.32	-35.1	-36.3	28.9	3.02e+01	0	33	0	384827392	44	6335
2026-01-06 18:04:31.70	258.58	15.23	-35.0	-36.2	28.9	3.02e+01	0	33	0	386924544	44	6258
2026-01-06 18:04:32.71	258.44	15.13	-34.9	-36.1	29.1	3.02e+01	0	33	0	389021696	44	6195
2026-01-06 18:04:33.72	258.29	15.03	-35.0	-36.2	29.0	3.02e+01	0	33	0	390594560	44	6254
2026-01-06 18:04:34.73	258.15	14.94	-34.8	-36.0	29.1	3.02e+01	0	33	0	392691712	44	6128
2026-01-06 18:04:35.74	258.01	14.84	-34.7	-35.9	29.3	3.02e+01	0	33	0	394264576	44	6001
2026-01-06 18:04:36.75	257.86	14.74	-34.8	-36.0	29.2	3.02e+01	0	33	0	396361728	44	6126
2026-01-06 18:04:37.76	257.72	14.65	-34.8	-36.0	29.2	3.02e+01	0	33	0	398458880	44	6102
2026-01-06 18:04:38.77	257.58	14.55	-35.0	-36.2	29.1	3.02e+01	0	33	0	400031744	44	6224
2026-01-06 18:04:39.77	257.45	14.46	-35.1	-36.3	28.9	3.02e+01	0	33	0	402128896	44	6335
2026-01-06 18:04:40.79	257.31	14.36	-35.1	-36.3	29.0	3.02e+01	0	33	0	403701760	44	6333
2026-01-06 18:04:41.80	257.17	14.27	-35.1	-36.4	28.9	3.02e+01	0	33	0	405798912	44	6370
2026-01-06 18:04:42.81	257.03	14.17	-35.2	-36.5	28.8	3.02e+01	0	33	0	407896064	44	6425
2026-01-06 18:04:43.82	256.90	14.08	-35.0	-36.3	29.0	3.02e+01	0	33	0	409468928	44	6287
2026-01-06 18:04:44.83	256.77	13.98	-35.1	-36.3	28.9	3.02e+01	0	33	0	411566080	44	6327
2026-01-06 18:04:45.84	256.63	13.89	-35.0	-36.2	29.0	3.02e+01	0	33	0	413663232	44	6230
2026-01-06 18:04:46.84	256.50	13.80	-35.0	-36.2	29.0	3.02e+01	0	33	0	415236096	44	6269
2026-01-06 18:04:47.85	256.37	13.70	-35.2	-36.4	28.8	3.02e+01	0	33	0	417333248	44	6386
2026-01-06 18:04:48.86	256.24	13.61	-35.1	-36.3	29.0	3.02e+01	0	33	0	418906112	44	6317
2026-01-06 18:04:49.87	256.11	13.52	-35.1	-36.3	28.9	3.02e+01	0	33	0	421003264	44	6339
2026-01-06 18:04:50.88	255.98	13.42	-35.2	-36.5	28.7	3.02e+01	0	33	0	423100416	44	6424
2026-01-06 18:04:51.89	255.85	13.33	-35.1	-36.3	28.9	3.02e+01	0	33	0	424673280	44	6326
2026-01-06 18:04:52.90	255.73	13.24	-35.2	-36.4	28.9	3.02e+01	0	33	0	426770432	44	6379
2026-01-06 18:04:53.91	255.60	13.15	-35.2	-36.4	28.7	3.02e+01	0	33	0	428343296	44	6423
2026-01-06 18:04:54.92	255.48	13.06	-35.2	-36.4	28.9	3.02e+01	0	33	0	430440448	44	6418
2026-01-06 18:04:55.92	255.35	12.97	-35.3	-36.5	28.7	3.02e+01	0	33	0	432537600	44	6454
2026-01-06 18:04:56.94	255.23	12.87	-35.2	-36.4	28.8	3.02e+01	0	33	0	434110464	44	6384
2026-01-06 18:04:57.94	255.11	12.78	-35.3	-36.5	28.7	3.02e+01	0	33	0	436207616	44	6452
2026-01-06 18:04:58.95	254.99	12.69	-35.3	-36.6	28.7	3.02e+01	0	33	0	438304768	44	6500
2026-01-06 18:04:59.96	254.86	12.60	-35.1	-36.4	28.8	3.02e+01	0	33	0	439877632	44	6362
2026-01-06 18:05:00.97	254.74	12.51	-35.4	-36.6	28.5	3.02e+01	0	33	0	441974784	44	6554
2026-01-06 18:05:01.98	254.63	12.42	-35.4	-36.6	28.6	3.02e+01	0	33	0	443547648	44	6548
2026-01-06 18:05:02.99	254.51	12.33	-35.2	-36.4	28.8	3.02e+01	0	33	0	445644800	44	6369
2026-01-06 18:05:04.00	254.39	12.24	-35.3	-36.5	28.7	3.02e+01	0	33	0	447217664	44	6457
2026-01-06 18:05:05.01	254.27	12.15	-35.3	-36.5	28.6	3.02e+01	0	33	0	449314816	44	6478
2026-01-06 18:05:06.02	254.16	12.07	-35.2	-36.4	28.8	3.02e+01	0	33	0	451411968	44	6397
2026-01-06 18:05:07.02	254.04	11.98	-35.2	-36.5	28.7	3.02e+01	0	33	0	452984832	44	6429
2026-01-06 18:05:08.03	253.93	11.89	-35.3	-36.6	28.5	3.02e+01	0	33	0	455081984	44	6500
2026-01-06 18:05:09.04	253.81	11.80	-35.3	-36.6	28.5	3.02e+01	0	33	0	456654848	44	6530
2026-01-06 18:05:10.05	253.70	11.71	-35.5	-36.7	28.4	3.02e+01	0	33	0	458752000	44	6638
2026-01-06 18:05:11.06	253.59	11.63	-35.5	-36.7	28.4	3.02e+01	0	33	0	460849152	44	6634
2026-01-06 18:05:12.07	253.48	11.54	-35.5	-36.8	28.5	3.02e+01	0	33	0	462422016	44	6656
2026-01-06 18:05:13.08	253.36	11.45	-35.6	-36.9	28.3	3.02e+01	0	33	0	464519168	44	6745
2026-01-06 18:05:14.09	253.25	11.36	-35.6	-36.9	28.2	3.02e+01	0	33	0	466616320	44	6765
2026-01-06 18:05:15.10	253.14	11.28	-35.5	-36.8	28.3	3.02e+01	0	33	0	468189184	44	6688
2026-01-06 18:05:16.11	253.04	11.19	-35.6	-36.8	28.2	3.02e+01	0	33	0	470286336	44	6725
2026-01-06 18:05:17.12	252.93	11.10	-35.5	-36.7	28.3	3.02e+01	0	33	0	471859200	44	6627
2026-01-06 18:05:18.13	252.82	11.02	-35.5	-36.7	28.3	3.02e+01	0	33	0	473956352	44	6621
2026-01-06 18:05:19.14	252.71	10.93	-35.4	-36.7	28.5	3.02e+01	0	33	0	476053504	44	6602
2026-01-06 18:05:20.15	252.61	10.85	-35.3	-36.5	28.5	3.02e+01	0	33	0	477626368	44	6494
2026-01-06 18:05:21.16	252.50	10.76	-35.4	-36.6	28.5	3.02e+01	0	33	0	479723520	44	6533
2026-01-06 18:05:22.17	252.40	10.68	-35.5	-36.7	28.4	3.02e+01	0	33	0	481820672	44	6608
2026-01-06 18:05:23.18	252.29	10.59	-35.5	-36.8	28.3	3.02e+01	0	33	0	483393536	44	6668
2026-01-06 18:05:24.19	252.19	10.51	-35.6	-36.9	28.3	3.02e+01	0	33	0	485490688	44	6749
2026-01-06 18:05:25.20	252.09	10.42	-35.6	-36.9	28.2	3.02e+01	0	33	0	487063552	44	6791
2026-01-06 18:05:26.21	251.99	10.34	-35.7	-36.9	28.1	3.02e+01	0	33	0	489160704	44	6804
2026-01-06 18:05:27.22	251.88	10.26	-35.8	-37.0	28.1	3.02e+01	0	33	0	491257856	44	6872
2026-01-06 18:05:28.22	251.78	10.17	-35.9	-37.2	28.0	3.02e+01	0	33	0	492830720	44	6963
2026-01-06 18:05:29.23	251.68	10.09	-35.8	-37.0	28.0	3.02e+01	0	33	0	494927872	44	6879
2026-01-06 18:05:30.25	251.58	10.01	-35.7	-37.0	28.1	3.02e+01	0	33	0	496500736	44	6864
2026-01-06 18:05:31.25	251.49	9.92	-35.9	-37.2	28.0	3.02e+01	0	33	0	498597888	44	6984
2026-01-06 18:05:32.27	251.39	9.84	-35.8	-37.1	28.1	3.02e+01	0	33	0	500695040	44	6898
2026-01-06 18:05:33.28	251.29	9.76	-35.8	-37.1	28.0	3.02e+01	0	33	0	502267904	44	6898
2026-01-06 18:05:34.29	251.19	9.68	-35.8	-37.0	28.1	3.02e+01	0	33	0	504365056	44	6862
2026-01-06 18:05:35.30	251.10	9.59	-35.8	-37.1	28.1	3.02e+01	0	33	0	505937920	44	6893
2026-01-06 18:05:36.30	251.00	9.51	-36.0	-37.3	27.9	3.02e+01	0	33	0	508035072	44	7057
2026-01-06 18:05:37.32	250.90	9.43	-35.8	-37.1	28.1	3.02e+01	0	33	0	510132224	46	6163
2026-01-06 18:05:38.32	250.81	9.35	-36.0	-37.3	27.8	3.02e+01	0	33	0	511705088	46	6330
2026-01-06 18:05:39.33	250.72	9.27	-36.0	-37.3	27.9	3.02e+01	0	33	0	513802240	46	6280
2026-01-06 18:05:40.34	250.62	9.19	-36.1	-37.4	27.8	3.02e+01	0	33	0	515375104	46	6381
2026-01-06 18:05:41.35	250.53	9.11	-36.0	-37.2	27.9	3.02e+01	0	33	0	517472256	46	6277
2026-01-06 18:05:42.36	250.44	9.03	-36.1	-37.3	27.8	3.02e+01	0	33	0	519569408	46	6346
2026-01-06 18:05:43.37	250.35	8.95	-36.0	-37.3	27.8	3.02e+01	0	33	0	521142272	46	6317
2026-01-06 18:05:44.38	250.26	8.87	-36.0	-37.3	27.8	3.02e+01	0	33	0	523239424	46	6323
2026-01-06 18:05:45.39	250.16	8.79	-36.1	-37.4	27.8	3.02e+01	0	33	0	524812288	46	6389
2026-01-06 18:05:46.40	250.07	8.71	-36.1	-37.4	27.8	3.02e+01	0	33	0	526909440	46	6358
2026-01-06 18:05:47.41	249.99	8.63	-36.0	-37.3	27.8	3.02e+01	0	33	0	529006592	46	6341
2026-01-06 18:05:48.42	249.90	8.55	-36.2	-37.5	27.5	3.02e+01	0	33	0	530579456	46	6462
2026-01-06 18:05:49.43	249.81	8.47	-36.2	-37.5	27.6	3.02e+01	0	33	0	532676608	46	6489
2026-01-06 18:05:50.44	249.72	8.39	-36.3	-37.6	27.6	3.02e+01	0	33	0	534773760	46	6526
2026-01-06 18:05:51.44	249.63	8.31	-36.3	-37.6	27.5	3.02e+01	0	33	0	536346624	46	6560
2026-01-06 18:05:52.45	249.55	8.23	-36.3	-37.6	27.4	3.02e+01	0	33	0	538443776	46	6553
2026-01-06 18:05:53.46	249.46	8.16	-36.2	-37.5	27.5	3.02e+01	0	33	0	540016640	46	6478
2026-01-06 18:05:54.47	249.37	8.08	-36.3	-37.6	27.5	3.02e+01	0	33	0	542113792	46	6549
2026-01-06 18:05:55.48	249.29	8.00	-36.4	-37.8	27.3	3.02e+01	0	33	0	544210944	46	6663
2026-01-06 18:05:56.49	249.20	7.92	-36.4	-37.7	27.4	3.02e+01	0	33	0	545783808	46	6601
2026-01-06 18:05:57.50	249.12	7.85	-36.4	-37.7	27.4	3.02e+01	0	33	0	547880960	46	6626
2026-01-06 18:05:58.51	249.04	7.77	-36.5	-37.8	27.3	3.02e+01	0	33	0	549978112	46	6689
2026-01-06 18:05:59.52	248.95	7.69	-36.5	-37.9	27.3	3.02e+01	0	33	0	551550976	46	6729
2026-01-06 18:06:00.53	248.87	7.62	-36.6	-37.9	27.2	3.02e+01	0	33	0	553648128	46	6766
2026-01-06 18:06:01.54	248.79	7.54	-36.5	-37.9	27.3	3.02e+01	0	33	0	555220992	46	6731
2026-01-06 18:06:02.55	248.71	7.46	-36.6	-38.0	27.0	3.02e+01	0	33	0	557318144	46	6817
2026-01-06 18:06:03.56	248.62	7.39	-36.7	-38.1	27.0	3.02e+01	0	33	0	559415296	46	6917
2026-01-06 18:06:04.57	248.54	7.31	-36.7	-38.0	27.0	3.02e+01	0	33	0	560988160	46	6867
2026-01-06 18:06:05.58	248.46	7.24	-36.8	-38.2	26.9	3.02e+01	0	33	0	563085312	46	6986
2026-01-06 18:06:06.59	248.38	7.16	-36.8	-38.2	26.9	3.02e+01	0	33	0	564658176	46	6986
2026-01-06 18:06:07.60	248.30	7.09	-36.9	-38.2	26.8	3.02e+01	0	33	0	566755328	46	7025
2026-01-06 18:06:08.61	248.22	7.01	-37.1	-38.5	26.6	3.02e+01	0	33	0	568852480	48	6430
2026-01-06 18:06:09.62	248.15	6.94	-36.8	-38.2	26.8	3.02e+01	0	33	0	570425344	48	6227
2026-01-06 18:06:10.62	248.07	6.86	-37.0	-38.4	26.7	3.02e+01	0	33	0	572522496	48	6356
2026-01-06 18:06:11.64	247.99	6.79	-36.8	-38.2	26.8	3.02e+01	0	33	0	574095360	48	6255
2026-01-06 18:06:12.64	247.91	6.71	-36.9	-38.2	26.7	3.02e+01	0	33	0	576192512	48	6276
2026-01-06 18:06:13.65	247.84	6.64	-37.0	-38.4	26.6	3.02e+01	0	33	0	578289664	48	6368
2026-01-06 18:06:14.66	247.76	6.56	-37.0	-38.4	26.5	3.02e+01	0	33	0	579862528	48	6405
2026-01-06 18:06:15.67	247.68	6.49	-37.0	-38.4	26.6	3.02e+01	0	33	0	581959680	48	6398
2026-01-06 18:06:16.68	247.61	6.42	-37.3	-38.7	26.3	3.02e+01	0	33	0	583532544	48	6587
2026-01-06 18:06:17.69	247.53	6.34	-37.3	-38.8	26.2	3.02e+01	0	33	0	585629696	48	6650
2026-01-06 18:06:18.70	247.46	6.27	-37.4	-38.8	26.2	3.02e+01	0	33	0	587726848	48	6699
2026-01-06 18:06:19.71	247.39	6.20	-37.6	-39.0	25.9	3.02e+01	0	33	0	589299712	48	6867
2026-01-06 18:06:20.72	247.31	6.13	-37.6	-39.0	25.9	3.02e+01	0	33	0	591396864	48	6865
2026-01-06 18:06:21.73	247.24	6.05	-37.8	-39.3	25.7	3.02e+01	0	33	0	592969728	48	7089
2026-01-06 18:06:22.74	247.16	5.98	-37.8	-39.3	25.6	3.02e+01	0	33	0	595066880	48	7045
2026-01-06 18:06:23.74	247.09	5.91	-37.9	-39.4	25.5	3.02e+01	0	33	0	597164032	48	7150
2026-01-06 18:06:24.75	247.02	5.84	-38.0	-39.5	25.4	3.02e+01	0	33	0	598736896	50	6464
2026-01-06 18:06:25.76	246.95	5.76	-38.1	-39.6	25.3	3.02e+01	0	33	0	600834048	50	6530
2026-01-06 18:06:26.77	246.88	5.69	-38.1	-39.7	25.2	3.02e+01	0	33	0	602931200	50	6590
2026-01-06 18:06:27.78	246.81	5.62	-38.3	-39.8	25.1	3.02e+01	0	33	0	604504064	50	6712
2026-01-06 18:06:28.79	246.74	5.55	-38.3	-39.8	25.1	3.02e+01	0	33	0	606601216	50	6708
2026-01-06 18:06:29.80	246.67	5.48	-38.3	-39.9	25.0	3.02e+01	0	33	0	608174080	50	6771
2026-01-06 18:06:30.81	246.60	5.41	-38.5	-40.1	24.7	3.02e+01	0	33	0	610271232	50	6937
2026-01-06 18:06:31.82	246.53	5.34	-38.6	-40.2	24.7	3.02e+01	0	33	0	612368384	50	6974
2026-01-06 18:06:32.82	246.46	5.27	-38.7	-40.4	24.5	3.02e+01	0	33	0	613941248	50	7136
2026-01-06 18:06:33.83	246.39	5.20	-38.7	-40.3	24.4	3.02e+01	0	33	0	616038400	50	7123
2026-01-06 18:06:34.84	246.32	5.13	-38.7	-40.4	24.4	3.02e+01	0	33	0	617611264	50	7142
2026-01-06 18:06:35.85	246.25	5.06	-38.7	-40.4	24.4	3.02e+01	0	33	0	619708416	50	7128
2026-01-06 18:06:36.86	246.19	4.99	-38.9	-40.6	24.1	3.02e+01	0	33	0	621805568	52	6547
2026-01-06 18:06:37.87	246.12	4.92	-38.9	-40.6	24.2	3.02e+01	0	33	0	623378432	52	6505
2026-01-06 18:06:38.88	246.05	4.85	-39.0	-40.7	24.1	3.02e+01	0	33	0	625475584	52	6605
2026-01-06 18:06:39.88	245.99	4.78	-39.3	-41.0	23.8	3.02e+01	0	33	0	627048448	52	6857
2026-01-06 18:06:40.89	245.92	4.71	-39.4	-41.2	23.5	3.02e+01	0	33	0	629145600	52	7015
2026-01-06 18:06:41.90	245.85	4.64	-39.4	-41.1	23.5	3.02e+01	0	33	0	631242752	52	6955
2026-01-06 18:06:42.91	245.79	4.57	-39.5	-41.3	23.4	3.02e+01	0	33	0	632815616	52	7100
2026-01-06 18:06:43.92	245.72	4.50	-39.7	-41.5	23.3	3.02e+01	0	33	0	634912768	52	7223
2026-01-06 18:06:44.93	245.66	4.43	-39.6	-41.4	23.2	3.02e+01	0	33	0	636485632	52	7206
2026-01-06 18:06:45.94	245.60	4.37	-39.9	-41.8	22.8	3.02e+01	0	33	0	638582784	54	6675
2026-01-06 18:06:46.95	245.53	4.30	-39.8	-41.6	23.0	3.02e+01	0	33	0	640679936	54	6550
2026-01-06 18:06:47.96	245.47	4.23	-39.9	-41.8	22.8	3.02e+01	0	33	0	642252800	54	6674
2026-01-06 18:06:48.97	245.40	4.16	-40.0	-41.9	22.8	3.02e+01	0	33	0	644349952	54	6730
2026-01-06 18:06:49.98	245.34	4.09	-40.1	-42.1	22.5	3.02e+01	0	33	0	646447104	54	6920
2026-01-06 18:06:50.98	245.28	4.03	-40.4	-42.5	22.2	3.02e+01	0	33	0	648019968	54	7208
2026-01-06 18:06:52.00	245.22	3.96	-40.6	-42.7	21.8	3.02e+01	0	33	0	650117120	54	7412
2026-01-06 18:06:53.01	245.15	3.89	-40.9	-43.0	21.6	3.02e+01	0	33	0	651689984	54	7711
2026-01-06 18:06:54.02	245.09	3.82	-40.5	-42.6	21.9	3.02e+01	0	33	0	653787136	54	7341
2026-01-06 18:06:55.02	245.03	3.76	-40.6	-42.7	21.7	3.02e+01	0	33	0	655884288	54	7442
