passes_logs/2026/01/06/R4.6S_Anadyr/R4.6S_Anadyr__20260106_013832_NOAA_21_JPSS-2_rec.log

#Pass ID: 20260106_013832_NOAA 21 (JPSS-2)
#Satellite: NOAA 21 (JPSS-2)
#Configuration: NOAA-21
#almurnet v.1.7.20251203
#Start time: 2026-01-06 01:38:34

#Version: 2.2.20231116
#Station: R4.6S_Anadyr
#Location: 177.4865 lon 64.73178 lat
#TLE: 1 54234U 22150A   26005.42670836  .00000142  00000+0  88292-4 0  9996
#TLE: 2 54234  98.7490 306.4427 0001045 340.6622  19.4514 14.19532269163451

#Time	Az	El	Level	Level2	SNR	BER	BlckErr	Temp	State	Recorded	gain1	gain2
2026-01-06 01:38:34.40	192.77	0.09	-48.8	-66.6	3.5	3.02e+01	0	31	0	0	60	82239
2026-01-06 01:38:35.41	192.82	0.14	-48.6	-61.5	3.5	1.52e+00	0	32	104	0	60	41690
2026-01-06 01:38:36.42	192.87	0.20	-48.6	-61.5	3.5	1.52e+00	0	32	104	0	60	41556
2026-01-06 01:38:37.43	192.91	0.26	-48.6	-61.4	3.5	1.52e+00	0	32	104	0	60	41435
2026-01-06 01:38:38.44	192.96	0.32	-48.6	-61.5	3.5	1.52e+00	0	33	104	0	60	41536
2026-01-06 01:38:39.45	193.01	0.37	-48.6	-61.5	3.5	1.52e+00	0	33	104	0	60	41803
2026-01-06 01:38:40.46	193.05	0.43	-48.5	-61.5	3.5	1.52e+00	0	33	104	0	60	41929
2026-01-06 01:38:41.47	193.10	0.49	-48.6	-61.6	3.5	1.52e+00	0	33	104	0	60	41977
2026-01-06 01:38:42.48	193.15	0.55	-48.7	-61.5	3.5	1.52e+00	0	33	104	0	60	41882
2026-01-06 01:38:43.49	193.20	0.60	-48.6	-61.5	3.5	1.52e+00	0	33	104	0	60	41675
2026-01-06 01:38:44.50	193.25	0.66	-48.6	-61.5	3.5	1.52e+00	0	33	104	0	60	41482
2026-01-06 01:38:45.51	193.29	0.72	-48.4	-61.3	3.5	1.52e+00	0	33	104	0	60	40765
2026-01-06 01:38:46.52	193.34	0.78	-48.4	-61.2	3.5	1.51e+00	0	33	104	0	60	40253
2026-01-06 01:38:47.53	193.39	0.84	-48.2	-61.0	3.5	1.52e+00	0	33	104	0	60	39182
2026-01-06 01:38:48.54	193.44	0.89	-47.9	-60.8	3.5	1.52e+00	0	33	104	0	60	38358
2026-01-06 01:38:49.55	193.49	0.95	-47.7	-60.4	3.5	1.52e+00	0	33	104	0	60	36853
2026-01-06 01:38:50.56	193.54	1.01	-47.3	-60.0	3.5	1.52e+00	0	33	104	0	60	35185
2026-01-06 01:38:51.57	193.59	1.07	-47.3	-60.0	3.5	1.52e+00	0	33	104	0	60	35136
2026-01-06 01:38:52.58	193.64	1.13	-47.3	-60.0	3.5	1.52e+00	0	33	104	0	60	34948
2026-01-06 01:38:53.59	193.69	1.19	-47.3	-60.0	3.5	1.52e+00	0	33	104	0	60	35106
2026-01-06 01:38:54.60	193.74	1.24	-47.3	-60.1	3.5	1.52e+00	0	33	104	0	60	35327
2026-01-06 01:38:55.61	193.79	1.30	-47.3	-60.0	3.5	1.52e+00	0	33	104	0	60	35201
2026-01-06 01:38:56.62	193.84	1.36	-47.3	-60.1	3.5	1.52e+00	0	33	104	0	60	35390
2026-01-06 01:38:57.63	193.89	1.42	-47.3	-60.1	3.5	1.52e+00	0	33	104	0	60	35689
2026-01-06 01:38:58.64	193.94	1.48	-47.3	-60.1	3.5	1.52e+00	0	33	104	0	60	35459
2026-01-06 01:38:59.65	193.99	1.54	-47.3	-60.1	3.5	1.52e+00	0	33	104	0	60	35587
2026-01-06 01:39:00.66	194.04	1.60	-47.3	-60.1	3.5	1.51e+00	0	33	104	0	60	35620
2026-01-06 01:39:01.68	194.09	1.66	-47.3	-60.1	3.5	1.52e+00	0	33	104	0	60	35650
2026-01-06 01:39:02.68	194.14	1.72	-47.3	-60.1	3.5	1.52e+00	0	33	104	0	60	35314
2026-01-06 01:39:03.70	194.19	1.78	-47.3	-60.0	3.5	1.52e+00	0	33	104	0	60	35152
2026-01-06 01:39:04.70	194.25	1.84	-47.3	-60.0	3.5	1.52e+00	0	33	104	0	60	35036
2026-01-06 01:39:05.71	194.30	1.90	-47.3	-59.9	3.5	1.52e+00	0	33	104	0	60	34878
2026-01-06 01:39:06.72	194.35	1.96	-47.3	-59.9	3.5	1.52e+00	0	33	104	0	60	34736
2026-01-06 01:39:07.74	194.40	2.02	-47.3	-60.0	3.5	1.52e+00	0	33	104	0	60	35111
2026-01-06 01:39:08.74	194.45	2.08	-47.3	-60.0	3.5	1.51e+00	0	33	104	0	60	35212
2026-01-06 01:39:09.75	194.51	2.14	-47.3	-60.1	3.5	1.52e+00	0	33	104	0	60	35403
2026-01-06 01:39:10.76	194.56	2.20	-47.3	-60.1	3.5	1.52e+00	0	33	104	0	60	35362
2026-01-06 01:39:11.77	194.61	2.26	-47.3	-60.0	3.5	1.52e+00	0	33	104	0	60	35067
2026-01-06 01:39:12.79	194.67	2.32	-47.3	-60.0	3.5	1.51e+00	0	33	104	0	60	35050
2026-01-06 01:39:13.79	194.72	2.38	-47.3	-60.0	3.5	1.52e+00	0	33	104	0	60	35246
2026-01-06 01:39:14.80	194.77	2.44	-47.3	-60.1	3.5	1.52e+00	0	33	104	0	60	35555
2026-01-06 01:39:15.81	194.83	2.50	-47.3	-60.0	3.5	1.52e+00	0	33	104	0	60	35155
2026-01-06 01:39:16.83	194.88	2.56	-47.3	-59.6	3.5	1.52e+00	0	33	104	0	60	33497
2026-01-06 01:39:17.83	194.94	2.62	-47.2	-58.8	3.5	1.52e+00	0	33	104	0	60	30736
2026-01-06 01:39:18.84	194.99	2.69	-47.2	-58.6	3.6	1.51e+00	0	33	104	0	60	29827
2026-01-06 01:39:19.85	195.05	2.75	-47.2	-58.4	3.5	1.51e+00	0	33	104	0	60	29218
2026-01-06 01:39:20.86	195.10	2.81	-47.2	-58.5	3.5	1.51e+00	0	33	104	0	60	29677
2026-01-06 01:39:21.87	195.16	2.87	-47.3	-59.5	3.5	1.51e+00	0	33	104	0	60	33181
2026-01-06 01:39:22.88	195.21	2.93	-47.2	-58.9	3.5	1.51e+00	0	33	104	0	60	30814
2026-01-06 01:39:23.89	195.27	2.99	-46.8	-55.4	4.9	9.49e-01	123	33	104	0	60	20622
2026-01-06 01:39:24.90	195.32	3.06	-45.9	-50.9	8.0	1.34e-01	123	34	0	2097152	60	12246
2026-01-06 01:39:25.91	195.38	3.12	-44.3	-47.5	11.8	2.99e-03	120	34	0	5242880	60	8347
2026-01-06 01:39:26.92	195.44	3.18	-42.9	-45.3	14.1	1.75e-05	122	34	0	8388608	60	6454
2026-01-06 01:39:27.93	195.49	3.24	-41.8	-43.8	15.5	0.00e+00	121	34	0	11534336	58	6067
2026-01-06 01:39:28.94	195.55	3.31	-40.3	-41.8	17.4	0.00e+00	122	34	0	14680064	54	6121
2026-01-06 01:39:29.95	195.61	3.37	-40.1	-41.7	17.5	0.00e+00	123	34	0	17825792	54	6017
2026-01-06 01:39:30.96	195.66	3.43	-39.8	-41.3	17.9	0.00e+00	123	33	0	20971520	54	5733
2026-01-06 01:39:31.97	195.72	3.49	-40.0	-41.5	17.7	0.00e+00	122	34	0	24117248	54	5913
2026-01-06 01:39:32.98	195.78	3.56	-45.5	-49.8	9.9	2.89e-05	123	33	0	27262976	60	10833
2026-01-06 01:39:33.99	195.84	3.62	-47.0	-58.0	3.5	6.37e-01	0	33	104	29360128	60	27859
2026-01-06 01:39:35.00	195.90	3.68	-39.9	-41.8	17.1	1.41e+00	22	33	104	29360128	50	7642
2026-01-06 01:39:36.01	195.95	3.75	-46.0	-51.0	8.3	1.42e-02	120	34	0	30408704	60	12413
2026-01-06 01:39:37.02	196.01	3.81	-43.3	-45.8	13.5	2.20e-06	122	33	0	33554432	56	8637
2026-01-06 01:39:38.02	196.07	3.87	-39.5	-40.9	18.6	0.00e+00	123	34	0	36700160	52	6172
2026-01-06 01:39:39.04	196.13	3.94	-39.1	-40.5	19.0	0.00e+00	123	34	0	39845888	52	5878
2026-01-06 01:39:40.04	196.19	4.00	-39.1	-40.4	18.9	0.00e+00	123	34	0	42991616	52	5802
2026-01-06 01:39:41.05	196.25	4.07	-38.3	-39.6	19.6	0.00e+00	122	34	0	46137344	50	5940
2026-01-06 01:39:42.06	196.31	4.13	-38.6	-39.9	19.4	0.00e+00	123	34	0	49283072	50	6173
2026-01-06 01:39:43.07	196.37	4.19	-38.6	-39.9	19.5	0.00e+00	122	34	0	52428800	50	6173
2026-01-06 01:39:44.08	196.43	4.26	-38.5	-39.8	19.6	0.00e+00	122	34	0	55574528	50	6072
2026-01-06 01:39:45.09	196.49	4.32	-38.3	-39.5	19.9	0.00e+00	120	34	0	58720256	50	5893
2026-01-06 01:39:46.10	196.55	4.39	-38.2	-39.4	19.9	0.00e+00	122	34	0	61865984	50	5825
2026-01-06 01:39:47.11	196.61	4.45	-37.6	-38.8	20.5	0.00e+00	123	34	0	65011712	48	6075
2026-01-06 01:39:48.12	196.67	4.52	-37.8	-39.0	20.4	0.00e+00	123	33	0	68157440	48	6231
2026-01-06 01:39:49.13	196.74	4.58	-37.6	-38.8	20.6	0.00e+00	122	34	0	71303168	48	6083
2026-01-06 01:39:50.14	196.80	4.65	-37.7	-38.9	20.5	0.00e+00	120	34	0	74448896	48	6146
2026-01-06 01:39:51.15	196.86	4.71	-37.6	-38.7	20.6	0.00e+00	123	34	0	77594624	48	6033
2026-01-06 01:39:52.16	196.92	4.78	-37.8	-39.0	20.4	0.00e+00	122	34	0	80740352	48	6251
2026-01-06 01:39:53.17	196.98	4.84	-37.9	-39.1	20.4	0.00e+00	123	34	0	83886080	48	6317
2026-01-06 01:39:54.18	197.05	4.91	-38.0	-39.2	20.3	0.00e+00	120	34	0	87031808	48	6372
2026-01-06 01:39:55.19	197.11	4.98	-37.3	-38.5	20.9	0.00e+00	123	34	0	90177536	48	5879
2026-01-06 01:39:56.20	197.17	5.04	-37.1	-38.2	21.1	0.00e+00	121	34	0	93323264	48	5681
2026-01-06 01:39:57.20	197.24	5.11	-37.1	-38.2	21.1	0.00e+00	123	34	0	96468992	48	5714
2026-01-06 01:39:58.21	197.30	5.17	-37.0	-38.1	21.2	0.00e+00	123	34	0	99614720	48	5648
2026-01-06 01:39:59.22	197.37	5.24	-37.0	-38.1	21.2	0.00e+00	123	34	0	102760448	48	5645
2026-01-06 01:40:00.23	197.43	5.31	-37.0	-38.1	21.2	0.00e+00	120	34	0	105906176	48	5635
2026-01-06 01:40:01.24	197.50	5.37	-36.9	-38.0	21.3	0.00e+00	123	34	0	109051904	48	5538
2026-01-06 01:40:02.24	197.56	5.44	-37.0	-38.1	21.3	0.00e+00	120	34	0	112197632	48	5625
2026-01-06 01:40:03.25	197.63	5.51	-37.0	-38.1	21.3	0.00e+00	122	34	0	115343360	48	5611
2026-01-06 01:40:04.26	197.69	5.57	-37.0	-38.1	21.3	0.00e+00	122	34	0	118489088	48	5638
2026-01-06 01:40:05.27	197.76	5.64	-37.0	-38.1	21.3	0.00e+00	123	34	0	121634816	48	5617
2026-01-06 01:40:06.28	197.82	5.71	-36.9	-38.0	21.4	0.00e+00	123	34	0	124780544	48	5538
2026-01-06 01:40:07.29	197.89	5.77	-37.0	-38.1	21.3	0.00e+00	120	34	0	127926272	48	5620
2026-01-06 01:40:08.30	197.96	5.84	-37.1	-38.2	21.2	0.00e+00	122	34	0	131072000	48	5678
2026-01-06 01:40:09.31	198.02	5.91	-36.8	-37.8	21.6	0.00e+00	123	34	0	134217728	48	5467
2026-01-06 01:40:10.32	198.09	5.98	-36.9	-38.0	21.4	0.00e+00	122	34	0	137363456	46	6220
2026-01-06 01:40:11.33	198.16	6.05	-36.7	-37.8	21.7	0.00e+00	121	34	0	140509184	46	6101
2026-01-06 01:40:12.34	198.23	6.11	-36.8	-37.9	21.6	0.00e+00	123	34	0	143654912	46	6155
2026-01-06 01:40:13.35	198.30	6.18	-36.7	-37.7	21.7	0.00e+00	123	34	0	146800640	46	6044
2026-01-06 01:40:14.36	198.36	6.25	-36.7	-37.7	21.7	0.00e+00	123	34	0	149946368	46	6060
2026-01-06 01:40:15.37	198.43	6.32	-37.0	-38.1	21.3	0.00e+00	122	34	0	153092096	46	6331
2026-01-06 01:40:16.38	198.50	6.39	-36.7	-37.7	21.7	0.00e+00	123	34	0	156237824	46	6056
2026-01-06 01:40:17.39	198.57	6.46	-36.5	-37.6	21.8	0.00e+00	120	34	0	159383552	46	5929
2026-01-06 01:40:18.39	198.64	6.53	-36.6	-37.7	21.7	0.00e+00	123	34	0	162529280	46	6034
2026-01-06 01:40:19.40	198.71	6.60	-36.5	-37.5	21.9	0.00e+00	121	34	0	165675008	46	5920
2026-01-06 01:40:20.41	198.78	6.67	-36.7	-37.7	21.7	0.00e+00	123	34	0	168820736	46	6050
2026-01-06 01:40:21.42	198.85	6.74	-36.8	-37.9	21.6	0.00e+00	123	34	0	171966464	46	6135
2026-01-06 01:40:22.43	198.92	6.80	-36.5	-37.5	21.9	0.00e+00	122	34	0	175112192	46	5915
2026-01-06 01:40:23.43	199.00	6.87	-36.5	-37.6	21.8	0.00e+00	120	34	0	178257920	46	5944
2026-01-06 01:40:24.44	199.07	6.94	-36.7	-37.8	21.7	0.00e+00	123	34	0	181403648	46	6066
2026-01-06 01:40:25.45	199.14	7.01	-36.3	-37.4	22.0	0.00e+00	120	34	0	184549376	46	5806
2026-01-06 01:40:26.46	199.21	7.08	-36.2	-37.2	22.1	0.00e+00	123	34	0	187695104	46	5704
2026-01-06 01:40:27.47	199.28	7.16	-36.1	-37.1	22.2	0.00e+00	122	34	0	190840832	46	5649
2026-01-06 01:40:28.48	199.36	7.23	-36.3	-37.3	22.1	0.00e+00	120	34	0	193986560	46	5760
2026-01-06 01:40:29.49	199.43	7.30	-36.2	-37.2	22.2	0.00e+00	123	34	0	197132288	46	5682
2026-01-06 01:40:30.50	199.51	7.37	-36.1	-37.1	22.3	0.00e+00	122	34	0	200278016	46	5619
2026-01-06 01:40:31.51	199.58	7.44	-36.1	-37.1	22.3	0.00e+00	123	34	0	203423744	46	5634
2026-01-06 01:40:32.52	199.65	7.51	-36.0	-37.0	22.4	0.00e+00	123	34	0	206569472	46	5592
2026-01-06 01:40:33.53	199.73	7.58	-36.1	-37.1	22.3	0.00e+00	123	34	0	209715200	46	5649
2026-01-06 01:40:34.54	199.80	7.65	-36.0	-37.0	22.4	0.00e+00	122	34	0	212860928	46	5584
2026-01-06 01:40:35.55	199.88	7.73	-36.2	-37.2	22.3	0.00e+00	120	34	0	216006656	46	5689
2026-01-06 01:40:36.56	199.96	7.80	-36.1	-37.1	22.4	0.00e+00	123	34	0	219152384	46	5645
2026-01-06 01:40:37.57	200.03	7.87	-36.1	-37.1	22.3	0.00e+00	119	34	0	222298112	46	5652
2026-01-06 01:40:38.58	200.11	7.94	-36.0	-36.9	22.5	0.00e+00	123	34	0	225443840	46	5529
2026-01-06 01:40:39.59	200.19	8.01	-36.0	-37.0	22.4	0.00e+00	121	34	0	228589568	46	5545
2026-01-06 01:40:40.60	200.26	8.09	-36.0	-37.0	22.4	0.00e+00	122	34	0	231735296	46	5570
2026-01-06 01:40:41.61	200.34	8.16	-36.0	-37.0	22.5	0.00e+00	123	34	0	234881024	46	5569
2026-01-06 01:40:42.62	200.42	8.23	-35.9	-36.9	22.5	0.00e+00	123	34	0	238026752	46	5501
2026-01-06 01:40:43.63	200.50	8.31	-35.9	-36.9	22.6	0.00e+00	123	34	0	241172480	46	5489
2026-01-06 01:40:44.64	200.58	8.38	-35.9	-36.9	22.6	0.00e+00	122	34	0	244318208	46	5503
2026-01-06 01:40:45.65	200.66	8.45	-35.9	-36.9	22.6	0.00e+00	122	34	0	247463936	46	5478
2026-01-06 01:40:46.66	200.74	8.53	-35.9	-36.8	22.6	0.00e+00	122	34	0	250609664	46	5459
2026-01-06 01:40:47.67	200.82	8.60	-35.8	-36.8	22.6	0.00e+00	122	34	0	253755392	46	5454
2026-01-06 01:40:48.68	200.90	8.67	-35.8	-36.8	22.7	0.00e+00	123	34	0	256901120	46	5423
2026-01-06 01:40:49.69	200.98	8.75	-36.0	-36.9	22.6	0.00e+00	123	34	0	260046848	46	5515
2026-01-06 01:40:50.70	201.06	8.82	-35.9	-36.9	22.6	0.00e+00	122	34	0	263192576	46	5500
2026-01-06 01:40:51.71	201.14	8.90	-35.8	-36.8	22.6	0.00e+00	120	34	0	266338304	46	5460
2026-01-06 01:40:52.72	201.22	8.97	-35.7	-36.7	22.8	0.00e+00	122	34	0	269484032	44	6008
2026-01-06 01:40:53.73	201.30	9.05	-35.7	-36.7	22.8	0.00e+00	120	34	0	272629760	44	6003
2026-01-06 01:40:54.74	201.39	9.12	-35.7	-36.7	22.7	0.00e+00	123	34	0	275775488	44	6004
2026-01-06 01:40:55.75	201.47	9.20	-35.6	-36.6	22.8	0.00e+00	123	34	0	278921216	44	5954
2026-01-06 01:40:56.76	201.55	9.27	-35.7	-36.7	22.8	0.00e+00	123	34	0	282066944	44	6022
2026-01-06 01:40:57.77	201.64	9.35	-35.8	-36.8	22.7	0.00e+00	122	34	0	285212672	44	6071
2026-01-06 01:40:58.78	201.72	9.42	-35.9	-36.8	22.7	0.00e+00	123	34	0	288358400	44	6133
2026-01-06 01:40:59.79	201.81	9.50	-35.8	-36.8	22.6	0.00e+00	123	34	0	291504128	44	6097
2026-01-06 01:41:00.80	201.89	9.58	-35.6	-36.5	22.9	0.00e+00	120	34	0	294649856	44	5911
2026-01-06 01:41:01.81	201.98	9.65	-35.7	-36.6	22.8	0.00e+00	123	34	0	297795584	44	5986
2026-01-06 01:41:02.82	202.06	9.73	-35.6	-36.6	22.8	0.00e+00	120	34	0	300941312	44	5951
2026-01-06 01:41:03.83	202.15	9.80	-35.7	-36.7	22.7	0.00e+00	120	34	0	304087040	44	6005
2026-01-06 01:41:04.84	202.24	9.88	-35.7	-36.6	22.8	0.00e+00	123	34	0	307232768	44	5984
2026-01-06 01:41:05.85	202.32	9.96	-35.5	-36.5	22.9	0.00e+00	123	34	0	310378496	44	5911
2026-01-06 01:41:06.86	202.41	10.04	-35.5	-36.5	22.9	0.00e+00	122	34	0	313524224	44	5896
2026-01-06 01:41:07.86	202.50	10.11	-35.5	-36.4	23.0	0.00e+00	123	34	0	316669952	44	5834
2026-01-06 01:41:08.87	202.59	10.19	-35.4	-36.3	23.0	0.00e+00	122	34	0	319815680	44	5789
2026-01-06 01:41:09.88	202.68	10.27	-35.4	-36.4	23.0	0.00e+00	123	34	0	322961408	44	5792
2026-01-06 01:41:10.89	202.77	10.35	-35.6	-36.6	23.0	0.00e+00	122	34	0	326107136	44	5943
2026-01-06 01:41:11.90	202.86	10.42	-35.3	-36.3	23.1	0.00e+00	123	34	0	329252864	44	5743
2026-01-06 01:41:12.91	202.95	10.50	-35.5	-36.4	23.1	0.00e+00	120	34	0	332398592	44	5837
2026-01-06 01:41:13.92	203.04	10.58	-35.3	-36.2	23.2	0.00e+00	123	34	0	336592896	44	5707
2026-01-06 01:41:14.93	203.13	10.66	-35.3	-36.2	23.2	0.00e+00	123	34	0	339738624	44	5724
2026-01-06 01:41:15.94	203.22	10.74	-35.4	-36.4	23.1	0.00e+00	123	34	0	342884352	44	5795
2026-01-06 01:41:16.95	203.31	10.82	-35.4	-36.4	23.0	0.00e+00	120	34	0	344981504	44	5808
2026-01-06 01:41:17.96	203.41	10.90	-35.4	-36.4	23.1	0.00e+00	120	34	0	348127232	44	5804
2026-01-06 01:41:18.96	203.50	10.97	-35.1	-36.1	23.3	0.00e+00	122	34	0	351272960	44	5607
2026-01-06 01:41:19.97	203.59	11.05	-35.2	-36.2	23.2	0.00e+00	120	34	0	355467264	44	5669
2026-01-06 01:41:20.98	203.69	11.13	-35.2	-36.2	23.3	0.00e+00	122	34	0	358612992	44	5664
2026-01-06 01:41:21.99	203.78	11.21	-35.3	-36.2	23.2	0.00e+00	123	34	0	361758720	44	5713
2026-01-06 01:41:23.00	203.88	11.29	-35.3	-36.2	23.2	0.00e+00	123	34	0	364904448	44	5696
2026-01-06 01:41:24.01	203.97	11.37	-35.4	-36.4	23.1	0.00e+00	120	34	0	367001600	44	5816
2026-01-06 01:41:25.02	204.07	11.46	-35.3	-36.2	23.2	0.00e+00	123	34	0	371195904	44	5713
2026-01-06 01:41:26.03	204.17	11.54	-35.0	-36.0	23.4	0.00e+00	121	34	0	374341632	44	5549
2026-01-06 01:41:27.04	204.26	11.62	-35.2	-36.1	23.4	0.00e+00	122	34	0	377487360	44	5650
2026-01-06 01:41:28.05	204.36	11.70	-34.9	-35.9	23.5	0.00e+00	123	34	0	380633088	44	5505
2026-01-06 01:41:29.06	204.46	11.78	-34.9	-35.8	23.5	0.00e+00	123	34	0	383778816	44	5437
2026-01-06 01:41:30.07	204.56	11.86	-34.8	-35.8	23.6	0.00e+00	120	34	0	386924544	44	5420
2026-01-06 01:41:31.08	204.66	11.94	-34.9	-35.8	23.5	0.00e+00	122	34	0	390070272	44	5433
2026-01-06 01:41:32.08	204.76	12.02	-34.8	-35.8	23.6	0.00e+00	122	34	0	393216000	44	5415
2026-01-06 01:41:33.09	204.86	12.11	-34.9	-35.8	23.6	0.00e+00	123	34	0	396361728	44	5439
2026-01-06 01:41:34.10	204.96	12.19	-34.9	-35.8	23.5	0.00e+00	123	34	0	399507456	44	5437
2026-01-06 01:41:35.11	205.06	12.27	-34.9	-35.9	23.5	0.00e+00	123	34	0	402653184	44	5480
2026-01-06 01:41:36.12	205.16	12.35	-34.9	-35.8	23.6	0.00e+00	123	34	0	405798912	44	5438
2026-01-06 01:41:37.13	205.27	12.44	-34.7	-35.7	23.7	0.00e+00	122	34	0	408944640	42	6008
2026-01-06 01:41:38.14	205.37	12.52	-34.8	-35.7	23.7	0.00e+00	122	34	0	412090368	42	6052
2026-01-06 01:41:39.15	205.47	12.60	-34.8	-35.7	23.7	0.00e+00	122	34	0	415236096	42	6054
2026-01-06 01:41:40.16	205.58	12.69	-34.9	-35.8	23.5	0.00e+00	122	34	0	418381824	42	6107
2026-01-06 01:41:41.16	205.68	12.77	-34.7	-35.7	23.7	0.00e+00	122	34	0	421527552	42	6016
2026-01-06 01:41:42.17	205.79	12.85	-34.7	-35.6	23.8	0.00e+00	123	34	0	424673280	42	5958
2026-01-06 01:41:43.18	205.89	12.94	-34.6	-35.5	23.8	0.00e+00	122	34	0	427819008	42	5911
2026-01-06 01:41:44.19	206.00	13.02	-34.6	-35.5	23.8	0.00e+00	122	34	0	430964736	42	5926
2026-01-06 01:41:45.20	206.11	13.11	-34.6	-35.5	23.8	0.00e+00	122	34	0	434110464	42	5906
2026-01-06 01:41:46.21	206.22	13.19	-34.7	-35.6	23.8	0.00e+00	121	34	0	437256192	42	5963
2026-01-06 01:41:47.22	206.32	13.28	-34.6	-35.5	23.8	0.00e+00	123	34	0	440401920	42	5914
2026-01-06 01:41:48.23	206.43	13.36	-34.7	-35.6	23.7	0.00e+00	123	34	0	443547648	42	5969
2026-01-06 01:41:49.24	206.54	13.45	-34.7	-35.6	23.8	0.00e+00	122	34	0	446693376	42	5961
2026-01-06 01:41:50.25	206.65	13.53	-34.7	-35.6	23.7	0.00e+00	122	34	0	449839104	42	5956
2026-01-06 01:41:51.26	206.76	13.62	-34.7	-35.6	23.8	0.00e+00	123	34	0	452984832	42	5992
2026-01-06 01:41:52.27	206.88	13.71	-34.6	-35.5	23.8	0.00e+00	123	34	0	456130560	42	5890
2026-01-06 01:41:53.28	206.99	13.79	-34.7	-35.6	23.7	0.00e+00	122	34	0	459276288	42	5988
2026-01-06 01:41:54.29	207.10	13.88	-34.7	-35.6	23.7	0.00e+00	123	34	0	462422016	42	5991
2026-01-06 01:41:55.30	207.21	13.96	-34.6	-35.6	23.8	0.00e+00	122	34	0	465567744	42	5929
2026-01-06 01:41:56.31	207.33	14.05	-34.7	-35.6	23.7	0.00e+00	123	34	0	468713472	42	5952
2026-01-06 01:41:57.32	207.44	14.14	-34.7	-35.6	23.8	0.00e+00	122	34	0	471859200	42	5970
2026-01-06 01:41:58.33	207.56	14.23	-34.7	-35.6	23.8	0.00e+00	123	34	0	475004928	42	5951
2026-01-06 01:41:59.34	207.67	14.31	-34.6	-35.5	23.8	0.00e+00	123	34	0	478150656	42	5896
2026-01-06 01:42:00.34	207.79	14.40	-34.6	-35.6	23.8	0.00e+00	120	34	0	481296384	42	5952
2026-01-06 01:42:01.35	207.91	14.49	-34.5	-35.5	23.9	0.00e+00	122	34	0	484442112	42	5869
2026-01-06 01:42:02.36	208.02	14.58	-34.5	-35.4	23.9	0.00e+00	122	34	0	487587840	42	5845
2026-01-06 01:42:03.37	208.14	14.66	-34.5	-35.4	23.9	0.00e+00	123	34	0	490733568	42	5855
2026-01-06 01:42:04.38	208.26	14.75	-34.6	-35.6	23.8	0.00e+00	123	34	0	493879296	42	5949
2026-01-06 01:42:05.39	208.38	14.84	-34.6	-35.5	23.8	0.00e+00	122	34	0	497025024	42	5917
2026-01-06 01:42:06.40	208.50	14.93	-34.6	-35.5	23.9	0.00e+00	122	34	0	500170752	42	5882
2026-01-06 01:42:07.41	208.62	15.02	-34.7	-35.6	23.9	0.00e+00	122	34	0	503316480	42	5989
2026-01-06 01:42:08.42	208.75	15.11	-34.7	-35.6	23.9	0.00e+00	123	34	0	506462208	42	5975
2026-01-06 01:42:09.43	208.87	15.20	-34.5	-35.4	24.0	0.00e+00	122	34	0	509607936	42	5846
2026-01-06 01:42:10.44	208.99	15.29	-34.6	-35.5	24.0	0.00e+00	123	34	0	512753664	42	5914
2026-01-06 01:42:11.44	209.12	15.38	-34.6	-35.5	23.9	0.00e+00	120	34	0	515899392	42	5897
2026-01-06 01:42:12.46	209.24	15.47	-34.6	-35.5	23.9	0.00e+00	123	34	0	519045120	42	5925
2026-01-06 01:42:13.46	209.37	15.56	-34.7	-35.6	23.9	0.00e+00	122	34	0	522190848	42	5955
2026-01-06 01:42:14.47	209.49	15.65	-34.6	-35.6	24.0	0.00e+00	121	34	0	525336576	42	5927
2026-01-06 01:42:15.48	209.62	15.74	-34.7	-35.6	23.9	0.00e+00	120	34	0	528482304	42	5963
2026-01-06 01:42:16.49	209.75	15.83	-34.7	-35.6	23.9	0.00e+00	122	34	0	531628032	42	5959
2026-01-06 01:42:17.50	209.88	15.92	-34.7	-35.6	23.9	0.00e+00	123	34	0	534773760	42	5993
2026-01-06 01:42:18.51	210.01	16.01	-34.7	-35.6	23.9	0.00e+00	122	34	0	537919488	42	5966
2026-01-06 01:42:19.52	210.14	16.11	-34.8	-35.7	23.8	0.00e+00	120	34	0	541065216	42	6060
2026-01-06 01:42:20.53	210.27	16.20	-34.7	-35.6	23.9	0.00e+00	122	34	0	544210944	42	5957
2026-01-06 01:42:21.54	210.40	16.29	-34.7	-35.6	24.0	0.00e+00	123	34	0	547356672	42	5939
2026-01-06 01:42:22.55	210.53	16.38	-34.7	-35.7	23.9	0.00e+00	123	34	0	550502400	42	5996
2026-01-06 01:42:23.56	210.66	16.47	-34.6	-35.5	24.0	0.00e+00	123	34	0	553648128	42	5905
2026-01-06 01:42:24.56	210.80	16.57	-34.6	-35.5	24.0	0.00e+00	122	34	0	556793856	42	5918
2026-01-06 01:42:25.57	210.93	16.66	-34.6	-35.5	24.0	0.00e+00	120	34	0	559939584	42	5923
2026-01-06 01:42:26.58	211.07	16.75	-34.6	-35.5	24.0	0.00e+00	122	34	0	563085312	42	5894
2026-01-06 01:42:27.59	211.20	16.85	-34.7	-35.6	23.9	0.00e+00	122	34	0	566231040	42	5940
2026-01-06 01:42:28.60	211.34	16.94	-34.6	-35.5	24.0	0.00e+00	122	34	0	569376768	42	5877
2026-01-06 01:42:29.61	211.48	17.03	-34.6	-35.5	24.0	0.00e+00	123	34	0	572522496	42	5894
2026-01-06 01:42:30.62	211.62	17.13	-34.5	-35.5	24.0	0.00e+00	123	34	0	575668224	42	5860
2026-01-06 01:42:31.63	211.76	17.22	-34.5	-35.4	24.0	0.00e+00	120	34	0	578813952	42	5848
2026-01-06 01:42:32.64	211.90	17.31	-34.4	-35.3	24.1	0.00e+00	123	34	0	581959680	42	5784
2026-01-06 01:42:33.64	212.04	17.41	-34.6	-35.5	24.0	0.00e+00	122	34	0	585105408	42	5880
2026-01-06 01:42:34.65	212.18	17.50	-34.4	-35.3	24.1	0.00e+00	123	34	0	588251136	42	5739
2026-01-06 01:42:35.66	212.33	17.60	-34.4	-35.3	24.2	0.00e+00	123	34	0	591396864	42	5767
2026-01-06 01:42:36.67	212.47	17.69	-34.5	-35.4	24.1	0.00e+00	122	34	0	594542592	42	5827
2026-01-06 01:42:37.68	212.61	17.79	-34.4	-35.3	24.2	0.00e+00	123	34	0	597688320	42	5781
2026-01-06 01:42:38.69	212.76	17.88	-34.3	-35.2	24.3	0.00e+00	122	34	0	600834048	42	5674
2026-01-06 01:42:39.70	212.91	17.98	-34.3	-35.2	24.2	0.00e+00	122	34	0	603979776	42	5710
2026-01-06 01:42:40.71	213.05	18.08	-34.3	-35.2	24.2	0.00e+00	123	34	0	607125504	42	5688
2026-01-06 01:42:41.72	213.20	18.17	-34.4	-35.3	24.0	0.00e+00	123	34	0	610271232	42	5790
2026-01-06 01:42:42.73	213.35	18.27	-34.4	-35.3	24.1	0.00e+00	123	34	0	613416960	42	5746
2026-01-06 01:42:43.74	213.50	18.36	-34.3	-35.2	24.1	0.00e+00	122	34	0	616562688	42	5679
2026-01-06 01:42:44.74	213.65	18.46	-34.5	-35.4	24.0	0.00e+00	123	34	0	619708416	42	5843
2026-01-06 01:42:45.75	213.81	18.56	-34.2	-35.1	24.1	0.00e+00	122	34	0	622854144	42	5652
2026-01-06 01:42:46.76	213.96	18.65	-34.2	-35.1	24.2	0.00e+00	122	34	0	625999872	42	5651
2026-01-06 01:42:47.77	214.11	18.75	-34.2	-35.1	24.3	0.00e+00	122	34	0	629145600	42	5645
2026-01-06 01:42:48.78	214.27	18.85	-34.2	-35.1	24.3	0.00e+00	121	34	0	632291328	42	5605
2026-01-06 01:42:49.79	214.42	18.95	-34.1	-35.0	24.3	0.00e+00	123	34	0	635437056	42	5574
2026-01-06 01:42:50.80	214.58	19.04	-34.2	-35.1	24.3	0.00e+00	122	34	0	638582784	42	5597
2026-01-06 01:42:51.81	214.74	19.14	-34.2	-35.1	24.4	0.00e+00	123	34	0	641728512	42	5620
2026-01-06 01:42:52.82	214.90	19.24	-34.2	-35.2	24.3	0.00e+00	123	34	0	644874240	42	5662
2026-01-06 01:42:53.83	215.06	19.34	-34.2	-35.1	24.3	0.00e+00	123	34	0	648019968	42	5607
2026-01-06 01:42:54.84	215.22	19.44	-34.2	-35.1	24.3	0.00e+00	123	34	0	651165696	42	5608
2026-01-06 01:42:55.85	215.38	19.54	-34.2	-35.2	24.3	0.00e+00	122	34	0	654311424	42	5660
2026-01-06 01:42:56.86	215.54	19.63	-34.2	-35.1	24.2	0.00e+00	120	34	0	657457152	42	5639
2026-01-06 01:42:57.87	215.71	19.73	-34.2	-35.1	24.2	0.00e+00	122	34	0	660602880	42	5642
2026-01-06 01:42:58.88	215.87	19.83	-34.0	-34.9	24.4	0.00e+00	121	34	0	663748608	42	5479
2026-01-06 01:42:59.89	216.04	19.93	-34.0	-34.9	24.4	0.00e+00	123	34	0	666894336	42	5498
2026-01-06 01:43:00.90	216.21	20.03	-33.8	-34.7	24.4	0.00e+00	120	34	0	670040064	42	5404
2026-01-06 01:43:01.91	216.38	20.13	-33.7	-34.6	24.6	0.00e+00	122	34	0	673185792	42	5324
2026-01-06 01:43:02.92	216.54	20.23	-33.8	-34.6	24.5	0.00e+00	123	34	0	676331520	40	5987
2026-01-06 01:43:03.93	216.71	20.33	-33.7	-34.6	24.6	0.00e+00	122	34	0	679477248	40	5950
2026-01-06 01:43:04.93	216.88	20.43	-33.8	-34.7	24.5	0.00e+00	120	34	0	682622976	40	6028
2026-01-06 01:43:05.94	217.06	20.53	-33.7	-34.6	24.5	0.00e+00	123	34	0	685768704	40	5961
2026-01-06 01:43:06.95	217.23	20.63	-33.7	-34.6	24.4	0.00e+00	123	34	0	688914432	40	5956
2026-01-06 01:43:07.96	217.41	20.73	-33.6	-34.5	24.6	0.00e+00	120	34	0	692060160	40	5910
2026-01-06 01:43:08.97	217.58	20.83	-33.7	-34.6	24.4	0.00e+00	123	34	0	695205888	40	5957
2026-01-06 01:43:09.98	217.76	20.93	-33.6	-34.5	24.5	0.00e+00	120	34	0	698351616	40	5869
2026-01-06 01:43:10.99	217.94	21.03	-33.5	-34.5	24.6	0.00e+00	123	34	0	701497344	40	5861
2026-01-06 01:43:12.00	218.12	21.13	-33.3	-34.2	24.8	0.00e+00	123	34	0	704643072	40	5699
2026-01-06 01:43:13.01	218.30	21.23	-33.4	-34.3	24.8	0.00e+00	123	34	0	707788800	40	5736
2026-01-06 01:43:14.02	218.48	21.34	-33.2	-34.1	25.0	0.00e+00	122	34	0	710934528	40	5644
2026-01-06 01:43:15.03	218.66	21.44	-33.3	-34.2	25.0	0.00e+00	122	34	0	714080256	40	5677
2026-01-06 01:43:16.04	218.84	21.54	-33.3	-34.1	25.0	0.00e+00	122	34	0	717225984	40	5656
2026-01-06 01:43:17.04	219.03	21.64	-33.3	-34.2	24.9	0.00e+00	122	34	0	720371712	40	5698
2026-01-06 01:43:18.05	219.21	21.74	-33.4	-34.2	24.9	0.00e+00	123	34	0	723517440	40	5714
2026-01-06 01:43:19.06	219.40	21.84	-33.3	-34.1	25.0	0.00e+00	123	34	0	726663168	40	5655
2026-01-06 01:43:20.07	219.59	21.94	-33.1	-34.0	25.1	0.00e+00	122	34	0	730857472	40	5568
2026-01-06 01:43:21.08	219.78	22.05	-33.2	-34.1	25.0	0.00e+00	123	34	0	732954624	40	5646
2026-01-06 01:43:22.09	219.97	22.15	-33.0	-33.8	25.2	0.00e+00	122	34	0	736100352	40	5463
2026-01-06 01:43:23.10	220.16	22.25	-32.9	-33.8	25.2	0.00e+00	122	34	0	739246080	40	5409
2026-01-06 01:43:24.11	220.36	22.35	-32.9	-33.8	25.2	0.00e+00	122	34	0	742391808	40	5435
2026-01-06 01:43:25.12	220.55	22.46	-33.0	-33.9	25.2	0.00e+00	121	34	0	746586112	40	5505
2026-01-06 01:43:26.13	220.75	22.56	-32.9	-33.7	25.3	0.00e+00	122	34	0	749731840	40	5392
2026-01-06 01:43:27.14	220.94	22.66	-33.1	-34.0	25.1	0.00e+00	123	34	0	752877568	40	5558
2026-01-06 01:43:28.15	221.14	22.76	-32.9	-33.8	25.2	0.00e+00	122	34	0	756023296	40	5453
2026-01-06 01:43:29.16	221.34	22.87	-33.0	-33.9	25.1	0.00e+00	122	34	0	758120448	40	5487
2026-01-06 01:43:30.17	221.54	22.97	-33.0	-33.8	25.1	0.00e+00	123	34	0	762314752	40	5458
2026-01-06 01:43:31.18	221.75	23.07	-32.9	-33.8	25.1	0.00e+00	122	34	0	765460480	40	5418
2026-01-06 01:43:32.19	221.95	23.17	-33.0	-33.9	25.1	0.00e+00	120	34	0	768606208	40	5514
2026-01-06 01:43:33.20	222.15	23.28	-32.8	-33.7	25.1	0.00e+00	122	34	0	771751936	40	5377
2026-01-06 01:43:34.21	222.36	23.38	-32.9	-33.8	25.0	0.00e+00	120	34	0	774897664	40	5451
2026-01-06 01:43:35.22	222.57	23.48	-32.9	-33.8	25.1	0.00e+00	122	34	0	778043392	40	5423
2026-01-06 01:43:36.22	222.77	23.58	-33.1	-34.0	25.0	0.00e+00	123	34	0	781189120	40	5573
2026-01-06 01:43:37.23	222.98	23.69	-32.9	-33.8	25.1	0.00e+00	122	34	0	784334848	40	5446
2026-01-06 01:43:38.24	223.20	23.79	-32.9	-33.8	25.0	0.00e+00	120	34	0	787480576	40	5450
2026-01-06 01:43:39.25	223.41	23.89	-32.8	-33.7	25.1	0.00e+00	123	34	0	790626304	40	5379
2026-01-06 01:43:40.26	223.62	24.00	-32.9	-33.8	25.1	0.00e+00	120	34	0	793772032	40	5406
2026-01-06 01:43:41.27	223.84	24.10	-32.8	-33.7	25.1	0.00e+00	123	34	0	796917760	40	5350
2026-01-06 01:43:42.28	224.06	24.20	-32.9	-33.8	25.0	0.00e+00	122	34	0	800063488	40	5405
2026-01-06 01:43:43.29	224.27	24.31	-32.9	-33.8	25.1	0.00e+00	123	34	0	803209216	40	5424
2026-01-06 01:43:44.30	224.49	24.41	-32.9	-33.8	25.1	0.00e+00	123	34	0	806354944	40	5405
2026-01-06 01:43:45.31	224.72	24.51	-33.0	-33.9	25.0	0.00e+00	123	34	0	809500672	40	5506
2026-01-06 01:43:46.32	224.94	24.61	-33.0	-33.9	25.1	0.00e+00	123	34	0	812646400	40	5508
2026-01-06 01:43:47.33	225.16	24.72	-33.1	-34.0	25.1	0.00e+00	123	34	0	815792128	40	5589
2026-01-06 01:43:48.34	225.39	24.82	-33.2	-34.1	25.1	0.00e+00	123	34	0	818937856	40	5607
2026-01-06 01:43:49.34	225.61	24.92	-33.1	-34.0	25.1	0.00e+00	122	34	0	822083584	40	5546
2026-01-06 01:43:50.35	225.84	25.02	-33.2	-34.0	25.0	0.00e+00	123	34	0	825229312	40	5594
2026-01-06 01:43:51.36	226.07	25.13	-33.2	-34.1	25.1	0.00e+00	120	34	0	828375040	40	5603
2026-01-06 01:43:52.37	226.30	25.23	-33.2	-34.1	24.9	0.00e+00	123	34	0	831520768	40	5601
2026-01-06 01:43:53.38	226.54	25.33	-33.3	-34.2	25.0	0.00e+00	123	34	0	834666496	40	5668
2026-01-06 01:43:54.39	226.77	25.43	-33.3	-34.2	24.9	0.00e+00	122	34	0	837812224	40	5698
2026-01-06 01:43:55.40	227.01	25.54	-33.4	-34.3	24.9	0.00e+00	123	34	0	840957952	40	5755
2026-01-06 01:43:56.41	227.24	25.64	-33.6	-34.5	24.7	0.00e+00	123	34	0	844103680	40	5875
2026-01-06 01:43:57.42	227.48	25.74	-33.7	-34.6	24.7	0.00e+00	123	34	0	847249408	40	5978
2026-01-06 01:43:58.43	227.72	25.84	-33.8	-34.7	24.6	0.00e+00	123	34	0	850395136	40	6027
2026-01-06 01:43:59.44	227.96	25.94	-33.9	-34.8	24.5	0.00e+00	123	34	0	853540864	40	6093
2026-01-06 01:44:00.45	228.21	26.04	-34.0	-34.9	24.5	0.00e+00	122	34	0	856686592	40	6139
2026-01-06 01:44:01.46	228.45	26.15	-34.0	-34.9	24.4	0.00e+00	120	34	0	859832320	40	6163
2026-01-06 01:44:02.47	228.70	26.25	-34.0	-34.9	24.5	0.00e+00	122	34	0	862978048	40	6148
2026-01-06 01:44:03.48	228.95	26.35	-33.8	-34.7	24.7	0.00e+00	123	34	0	866123776	40	6012
2026-01-06 01:44:04.49	229.19	26.45	-33.7	-34.6	24.8	0.00e+00	122	34	0	869269504	40	5957
2026-01-06 01:44:05.50	229.45	26.55	-33.6	-34.4	24.8	0.00e+00	123	34	0	872415232	40	5844
2026-01-06 01:44:06.51	229.70	26.65	-33.6	-34.5	24.9	0.00e+00	123	34	0	875560960	40	5866
2026-01-06 01:44:07.52	229.95	26.75	-33.7	-34.6	24.8	0.00e+00	123	34	0	878706688	40	5928
2026-01-06 01:44:08.53	230.21	26.85	-33.7	-34.6	24.7	0.00e+00	123	34	0	881852416	40	5989
2026-01-06 01:44:09.54	230.46	26.95	-33.7	-34.6	24.7	0.00e+00	122	34	0	884998144	40	5961
2026-01-06 01:44:10.55	230.72	27.05	-33.8	-34.6	24.6	0.00e+00	123	34	0	888143872	40	5986
2026-01-06 01:44:11.56	230.98	27.15	-33.8	-34.7	24.7	0.00e+00	118	34	0	891289600	40	6008
2026-01-06 01:44:12.57	231.25	27.25	-33.9	-34.8	24.6	0.00e+00	123	34	0	894435328	40	6097
2026-01-06 01:44:13.57	231.51	27.35	-34.0	-34.9	24.5	0.00e+00	122	34	0	897581056	40	6160
2026-01-06 01:44:14.58	231.77	27.44	-34.1	-35.0	24.5	0.00e+00	123	34	0	900726784	40	6217
2026-01-06 01:44:15.59	232.04	27.54	-34.1	-35.0	24.5	0.00e+00	123	34	0	903872512	40	6210
2026-01-06 01:44:16.60	232.31	27.64	-34.1	-35.0	24.5	0.00e+00	123	34	0	907018240	40	6265
2026-01-06 01:44:17.61	232.58	27.74	-34.0	-34.8	24.6	0.00e+00	123	34	0	910163968	40	6126
2026-01-06 01:44:18.62	232.85	27.83	-33.9	-34.7	24.7	0.00e+00	120	34	0	913309696	40	6063
2026-01-06 01:44:19.63	233.12	27.93	-33.7	-34.6	24.8	0.00e+00	122	34	0	916455424	40	5935
2026-01-06 01:44:20.64	233.40	28.03	-33.7	-34.6	24.8	0.00e+00	122	34	0	919601152	40	5967
2026-01-06 01:44:21.65	233.67	28.12	-33.7	-34.6	24.8	0.00e+00	123	34	0	922746880	40	5961
2026-01-06 01:44:22.66	233.95	28.22	-33.9	-34.8	24.6	0.00e+00	122	34	0	925892608	40	6065
2026-01-06 01:44:23.67	234.23	28.32	-34.1	-35.0	24.4	0.00e+00	123	34	0	929038336	40	6210
2026-01-06 01:44:24.68	234.51	28.41	-34.2	-35.1	24.3	0.00e+00	123	34	0	932184064	40	6346
2026-01-06 01:44:25.69	234.79	28.50	-34.2	-35.1	24.3	0.00e+00	122	34	0	935329792	40	6299
2026-01-06 01:44:26.70	235.08	28.60	-34.3	-35.2	24.2	0.00e+00	123	34	0	938475520	40	6378
2026-01-06 01:44:27.71	235.36	28.69	-34.1	-35.0	24.3	0.00e+00	123	34	0	941621248	40	6220
2026-01-06 01:44:28.72	235.65	28.79	-34.1	-35.0	24.3	0.00e+00	123	34	0	944766976	40	6275
2026-01-06 01:44:29.73	235.94	28.88	-34.1	-35.0	24.3	0.00e+00	123	34	0	947912704	40	6254
2026-01-06 01:44:30.74	236.23	28.97	-34.1	-35.0	24.5	0.00e+00	123	34	0	951058432	40	6251
2026-01-06 01:44:31.75	236.52	29.06	-34.1	-35.0	24.4	0.00e+00	123	34	0	954204160	40	6275
2026-01-06 01:44:32.76	236.82	29.15	-34.0	-34.9	24.4	0.00e+00	123	34	0	957349888	40	6181
2026-01-06 01:44:33.76	237.11	29.24	-34.0	-34.9	24.5	0.00e+00	122	34	0	960495616	40	6139
2026-01-06 01:44:34.77	237.41	29.33	-34.0	-34.9	24.3	0.00e+00	122	34	0	963641344	40	6175
2026-01-06 01:44:35.78	237.71	29.42	-34.1	-35.0	24.3	0.00e+00	122	34	0	966787072	40	6238
2026-01-06 01:44:36.79	238.01	29.51	-34.3	-35.2	24.2	0.00e+00	123	34	0	969932800	40	6359
2026-01-06 01:44:37.80	238.31	29.60	-34.1	-35.0	24.4	0.00e+00	123	34	0	973078528	40	6229
2026-01-06 01:44:38.81	238.62	29.69	-34.2	-35.1	24.5	0.00e+00	123	34	0	976224256	40	6296
2026-01-06 01:44:39.82	238.92	29.78	-34.0	-34.9	24.6	0.00e+00	122	34	0	979369984	40	6138
2026-01-06 01:44:40.83	239.23	29.86	-33.9	-34.8	24.6	0.00e+00	123	34	0	982515712	40	6118
2026-01-06 01:44:41.84	239.54	29.95	-34.1	-35.0	24.6	0.00e+00	122	34	0	985661440	40	6210
2026-01-06 01:44:42.85	239.85	30.04	-33.7	-34.6	24.8	0.00e+00	123	34	0	988807168	40	5965
2026-01-06 01:44:43.86	240.16	30.12	-33.7	-34.6	24.7	0.00e+00	122	34	0	991952896	40	5977
2026-01-06 01:44:44.87	240.47	30.20	-33.7	-34.6	24.7	0.00e+00	123	34	0	995098624	40	5973
2026-01-06 01:44:45.88	240.79	30.29	-33.8	-34.6	24.7	0.00e+00	123	34	0	998244352	40	5990
2026-01-06 01:44:46.88	241.10	30.37	-33.7	-34.6	24.7	0.00e+00	123	34	0	1001390080	40	5967
2026-01-06 01:44:47.90	241.42	30.45	-33.6	-34.5	24.9	0.00e+00	122	34	0	1004535808	40	5892
2026-01-06 01:44:48.90	241.74	30.53	-33.7	-34.5	24.8	0.00e+00	123	34	0	1007681536	40	5924
2026-01-06 01:44:49.92	242.07	30.61	-33.7	-34.6	24.9	0.00e+00	123	34	0	1010827264	40	5938
2026-01-06 01:44:50.92	242.39	30.69	-33.6	-34.5	25.0	0.00e+00	123	34	0	1013972992	40	5883
2026-01-06 01:44:51.93	242.71	30.77	-33.8	-34.6	24.7	0.00e+00	122	34	0	1017118720	40	5977
2026-01-06 01:44:52.94	243.04	30.85	-33.8	-34.7	24.7	0.00e+00	123	34	0	1020264448	40	5995
2026-01-06 01:44:53.95	243.37	30.93	-33.9	-34.8	24.4	0.00e+00	123	34	0	1023410176	40	6074
2026-01-06 01:44:54.96	243.69	31.01	-34.1	-35.0	24.4	0.00e+00	122	34	0	1026555904	40	6247
2026-01-06 01:44:55.97	244.03	31.08	-34.1	-35.0	24.4	0.00e+00	123	34	0	1029701632	40	6245
2026-01-06 01:44:56.98	244.36	31.16	-33.9	-34.7	24.7	0.00e+00	121	34	0	1032847360	40	6051
2026-01-06 01:44:57.99	244.69	31.23	-33.8	-34.7	24.7	0.00e+00	123	34	0	1035993088	40	6053
2026-01-06 01:44:59.00	245.03	31.30	-33.7	-34.6	24.7	0.00e+00	122	34	0	1039138816	40	5963
2026-01-06 01:45:00.01	245.36	31.38	-33.9	-34.8	24.5	0.00e+00	123	34	0	1042284544	40	6097
2026-01-06 01:45:01.02	245.70	31.45	-34.3	-35.2	24.3	0.00e+00	123	34	0	1045430272	40	6366
2026-01-06 01:45:02.03	246.04	31.52	-34.5	-35.5	24.1	0.00e+00	123	34	0	1048576000	40	6574
2026-01-06 01:45:03.03	246.38	31.59	-34.5	-35.5	24.1	0.00e+00	123	34	0	1051721728	40	6582
2026-01-06 01:45:04.04	246.72	31.66	-34.7	-35.7	24.0	0.00e+00	123	34	0	1054867456	40	6752
2026-01-06 01:45:05.05	247.07	31.72	-34.6	-35.5	24.2	0.00e+00	123	34	0	1058013184	42	5866
2026-01-06 01:45:06.06	247.41	31.79	-34.4	-35.3	24.3	0.00e+00	123	34	0	1061158912	42	5748
2026-01-06 01:45:07.08	247.76	31.86	-34.4	-35.3	24.2	0.00e+00	123	34	0	1064304640	42	5732
2026-01-06 01:45:08.08	248.11	31.92	-34.2	-35.1	24.2	0.00e+00	120	34	0	1067450368	42	5654
2026-01-06 01:45:09.09	248.46	31.98	-34.5	-35.4	24.0	0.00e+00	123	34	0	1070596096	42	5842
2026-01-06 01:45:10.10	248.81	32.05	-34.7	-35.6	24.1	0.00e+00	123	34	0	1073741824	42	5960
2026-01-06 01:45:11.11	249.16	32.11	-34.8	-35.7	24.1	0.00e+00	122	34	0	1076887552	42	6044
2026-01-06 01:45:12.12	249.51	32.17	-34.8	-35.7	24.0	0.00e+00	122	34	0	1080033280	42	6019
2026-01-06 01:45:13.13	249.87	32.23	-34.8	-35.7	23.9	0.00e+00	122	34	0	1083179008	42	6054
2026-01-06 01:45:14.14	250.22	32.29	-34.7	-35.6	23.9	0.00e+00	123	34	0	1086324736	42	5973
2026-01-06 01:45:15.15	250.58	32.35	-34.9	-35.8	23.6	0.00e+00	122	34	0	1089470464	42	6113
2026-01-06 01:45:16.15	250.94	32.40	-34.9	-35.9	23.5	0.00e+00	122	34	0	1092616192	42	6154
2026-01-06 01:45:17.16	251.30	32.46	-34.9	-35.9	23.7	0.00e+00	122	34	0	1095761920	42	6172
2026-01-06 01:45:18.17	251.66	32.51	-34.8	-35.7	24.0	0.00e+00	120	34	0	1098907648	42	6027
2026-01-06 01:45:19.18	252.02	32.56	-34.8	-35.7	24.0	0.00e+00	122	34	0	1102053376	42	6049
2026-01-06 01:45:20.19	252.38	32.62	-34.5	-35.4	24.2	0.00e+00	122	34	0	1105199104	42	5805
2026-01-06 01:45:21.20	252.75	32.67	-34.4	-35.3	24.3	0.00e+00	120	34	0	1108344832	42	5751
2026-01-06 01:45:22.21	253.11	32.72	-34.4	-35.3	24.2	0.00e+00	123	34	0	1111490560	42	5730
2026-01-06 01:45:23.22	253.48	32.76	-34.4	-35.3	24.3	0.00e+00	122	34	0	1115684864	42	5757
2026-01-06 01:45:24.23	253.85	32.81	-34.4	-35.3	24.2	0.00e+00	123	34	0	1118830592	42	5770
2026-01-06 01:45:25.24	254.22	32.86	-34.4	-35.3	24.3	0.00e+00	123	34	0	1120927744	42	5758
2026-01-06 01:45:26.25	254.58	32.90	-34.3	-35.2	24.3	0.00e+00	122	34	0	1124073472	42	5692
2026-01-06 01:45:27.26	254.96	32.94	-34.2	-35.0	24.6	0.00e+00	120	34	0	1127219200	42	5585
2026-01-06 01:45:28.27	255.33	32.99	-34.0	-34.9	24.4	0.00e+00	123	34	0	1131413504	42	5512
2026-01-06 01:45:29.28	255.70	33.03	-34.3	-35.2	24.2	0.00e+00	122	34	0	1134559232	42	5662
2026-01-06 01:45:30.29	256.07	33.07	-34.4	-35.3	24.1	0.00e+00	123	34	0	1137704960	42	5737
2026-01-06 01:45:31.30	256.45	33.11	-34.5	-35.5	24.1	0.00e+00	120	34	0	1140850688	42	5863
2026-01-06 01:45:32.31	256.82	33.14	-34.6	-35.5	24.1	0.00e+00	123	34	0	1143996416	42	5914
2026-01-06 01:45:33.32	257.20	33.18	-34.6	-35.5	24.0	0.00e+00	122	34	0	1147142144	42	5879
2026-01-06 01:45:34.33	257.57	33.21	-34.5	-35.4	24.1	0.00e+00	123	34	0	1150287872	42	5855
2026-01-06 01:45:35.34	257.95	33.25	-34.8	-35.7	23.9	0.00e+00	123	34	0	1153433600	42	6021
2026-01-06 01:45:36.35	258.33	33.28	-34.8	-35.7	23.9	0.00e+00	122	34	0	1156579328	42	6040
2026-01-06 01:45:37.36	258.71	33.31	-34.8	-35.8	24.0	0.00e+00	123	34	0	1159725056	42	6071
2026-01-06 01:45:38.36	259.08	33.34	-34.7	-35.6	24.1	0.00e+00	123	34	0	1162870784	42	5971
2026-01-06 01:45:39.37	259.47	33.36	-34.6	-35.5	24.2	0.00e+00	121	34	0	1166016512	42	5892
2026-01-06 01:45:40.38	259.85	33.39	-34.7	-35.6	24.2	0.00e+00	123	34	0	1169162240	42	5932
2026-01-06 01:45:41.39	260.23	33.42	-34.5	-35.5	24.2	0.00e+00	123	34	0	1172307968	42	5860
2026-01-06 01:45:42.39	260.61	33.44	-34.7	-35.6	24.1	0.00e+00	123	34	0	1175453696	42	5946
2026-01-06 01:45:43.40	260.99	33.46	-34.6	-35.5	24.1	0.00e+00	122	34	0	1178599424	42	5882
2026-01-06 01:45:44.41	261.37	33.48	-34.6	-35.5	24.2	0.00e+00	123	34	0	1181745152	42	5900
2026-01-06 01:45:45.42	261.75	33.50	-34.5	-35.3	24.3	0.00e+00	122	34	0	1184890880	42	5791
2026-01-06 01:45:46.43	262.14	33.52	-34.6	-35.5	24.2	0.00e+00	122	34	0	1188036608	42	5877
2026-01-06 01:45:47.44	262.52	33.54	-34.6	-35.5	24.2	0.00e+00	122	34	0	1191182336	42	5874
2026-01-06 01:45:48.45	262.91	33.55	-34.6	-35.5	24.1	0.00e+00	120	34	0	1194328064	42	5896
2026-01-06 01:45:49.46	263.29	33.57	-34.8	-35.7	23.9	0.00e+00	122	34	0	1197473792	42	6035
2026-01-06 01:45:50.47	263.68	33.58	-34.9	-35.8	23.8	0.00e+00	120	34	0	1200619520	42	6110
2026-01-06 01:45:51.48	264.06	33.59	-35.0	-36.0	23.8	0.00e+00	123	34	0	1203765248	42	6211
2026-01-06 01:45:52.49	264.45	33.60	-35.1	-36.0	23.8	0.00e+00	123	34	0	1206910976	42	6234
2026-01-06 01:45:53.50	264.83	33.61	-35.1	-36.0	23.8	0.00e+00	127	34	0	1210056704	42	6268
2026-01-06 01:45:54.51	265.22	33.62	-35.0	-35.9	23.8	0.00e+00	123	34	0	1213202432	42	6188
2026-01-06 01:45:55.52	265.61	33.62	-34.8	-35.7	24.1	0.00e+00	123	34	0	1216348160	42	6005
2026-01-06 01:45:56.53	265.99	33.63	-34.7	-35.6	23.9	0.00e+00	123	34	0	1219493888	42	5966
2026-01-06 01:45:57.54	266.38	33.63	-34.8	-35.8	23.9	0.00e+00	122	34	0	1222639616	42	6081
2026-01-06 01:45:58.55	266.77	33.63	-34.8	-35.7	24.0	0.00e+00	122	34	0	1225785344	42	6058
2026-01-06 01:45:59.55	267.15	33.63	-34.7	-35.7	24.1	0.00e+00	122	34	0	1228931072	42	6000
2026-01-06 01:46:00.56	267.53	33.63	-34.8	-35.7	24.1	0.00e+00	123	34	0	1232076800	42	6000
2026-01-06 01:46:01.57	267.92	33.62	-34.8	-35.7	23.9	0.00e+00	123	34	0	1235222528	42	6048
2026-01-06 01:46:02.58	268.31	33.62	-34.9	-35.8	23.9	0.00e+00	120	34	0	1238368256	42	6067
2026-01-06 01:46:03.59	268.69	33.61	-35.2	-36.1	23.5	0.00e+00	123	34	0	1241513984	42	6346
2026-01-06 01:46:04.60	269.08	33.61	-35.5	-36.5	23.3	0.00e+00	122	34	0	1244659712	42	6600
2026-01-06 01:46:05.61	269.46	33.60	-35.4	-36.3	23.5	0.00e+00	123	34	0	1247805440	42	6470
2026-01-06 01:46:06.62	269.85	33.59	-35.4	-36.3	23.5	0.00e+00	120	34	0	1250951168	42	6456
2026-01-06 01:46:07.63	270.24	33.58	-35.1	-36.0	23.6	0.00e+00	122	34	0	1254096896	42	6241
2026-01-06 01:46:08.64	270.62	33.56	-35.1	-36.1	23.7	0.00e+00	123	34	0	1257242624	42	6304
2026-01-06 01:46:09.65	271.01	33.55	-35.3	-36.3	23.6	0.00e+00	122	34	0	1260388352	42	6439
2026-01-06 01:46:10.66	271.39	33.53	-34.9	-35.8	23.9	0.00e+00	122	34	0	1263534080	42	6111
2026-01-06 01:46:11.67	271.77	33.52	-34.6	-35.5	24.2	0.00e+00	122	34	0	1266679808	42	5884
2026-01-06 01:46:12.68	272.16	33.50	-34.5	-35.3	24.4	0.00e+00	123	34	0	1269825536	42	5783
2026-01-06 01:46:13.69	272.54	33.48	-34.4	-35.3	24.3	0.00e+00	120	34	0	1272971264	42	5761
2026-01-06 01:46:14.70	272.92	33.46	-34.3	-35.2	24.4	0.00e+00	123	34	0	1276116992	42	5703
2026-01-06 01:46:15.71	273.30	33.43	-34.4	-35.3	24.2	0.00e+00	120	34	0	1279262720	42	5730
2026-01-06 01:46:16.72	273.69	33.41	-34.3	-35.3	24.3	0.00e+00	123	34	0	1282408448	42	5730
2026-01-06 01:46:17.73	274.07	33.38	-34.4	-35.3	24.3	0.00e+00	122	34	0	1285554176	42	5777
2026-01-06 01:46:18.74	274.45	33.36	-34.4	-35.3	24.3	0.00e+00	123	34	0	1288699904	42	5783
2026-01-06 01:46:19.75	274.83	33.33	-34.7	-35.6	24.0	0.00e+00	122	34	0	1291845632	42	5992
2026-01-06 01:46:20.76	275.21	33.30	-34.8	-35.7	24.1	0.00e+00	123	34	0	1294991360	42	6028
2026-01-06 01:46:21.77	275.58	33.27	-34.9	-35.8	24.0	0.00e+00	122	34	0	1298137088	42	6134
2026-01-06 01:46:22.78	275.96	33.24	-35.0	-35.9	23.8	0.00e+00	121	34	0	1301282816	42	6176
2026-01-06 01:46:23.79	276.34	33.20	-35.0	-36.0	23.9	0.00e+00	123	34	0	1304428544	42	6206
2026-01-06 01:46:24.80	276.71	33.17	-35.1	-36.0	23.7	0.00e+00	123	34	0	1307574272	42	6259
2026-01-06 01:46:25.81	277.09	33.13	-35.2	-36.1	23.7	0.00e+00	122	34	0	1310720000	42	6329
2026-01-06 01:46:26.82	277.46	33.10	-34.8	-35.7	23.9	0.00e+00	123	34	0	1313865728	42	6047
2026-01-06 01:46:27.83	277.84	33.06	-34.9	-35.8	23.9	0.00e+00	122	34	0	1317011456	42	6092
2026-01-06 01:46:28.84	278.21	33.02	-34.8	-35.7	24.0	0.00e+00	122	34	0	1320157184	42	6036
2026-01-06 01:46:29.85	278.58	32.98	-34.7	-35.6	24.0	0.00e+00	123	34	0	1323302912	42	5987
2026-01-06 01:46:30.86	278.95	32.93	-34.7	-35.5	24.1	0.00e+00	123	34	0	1326448640	42	5919
2026-01-06 01:46:31.87	279.32	32.89	-34.6	-35.5	24.2	0.00e+00	122	34	0	1329594368	42	5897
2026-01-06 01:46:32.88	279.69	32.84	-34.6	-35.5	24.2	0.00e+00	122	34	0	1332740096	42	5873
2026-01-06 01:46:33.89	280.06	32.80	-34.4	-35.3	24.3	0.00e+00	122	34	0	1335885824	42	5750
2026-01-06 01:46:34.90	280.42	32.75	-34.5	-35.4	24.2	0.00e+00	122	34	0	1339031552	42	5845
2026-01-06 01:46:35.91	280.79	32.70	-34.7	-35.6	24.1	0.00e+00	122	34	0	1342177280	42	5935
2026-01-06 01:46:36.92	281.15	32.65	-34.6	-35.5	24.0	0.00e+00	123	34	0	1345323008	42	5896
2026-01-06 01:46:37.93	281.52	32.60	-34.8	-35.7	23.7	0.00e+00	123	34	0	1348468736	42	6022
2026-01-06 01:46:38.94	281.88	32.55	-34.7	-35.7	23.8	0.00e+00	123	34	0	1351614464	42	6016
2026-01-06 01:46:39.95	282.24	32.50	-34.9	-35.8	23.7	0.00e+00	123	34	0	1354760192	42	6095
2026-01-06 01:46:40.96	282.60	32.44	-34.8	-35.8	23.5	0.00e+00	123	34	0	1357905920	42	6077
2026-01-06 01:46:41.97	282.96	32.39	-34.7	-35.7	23.5	0.00e+00	120	34	0	1361051648	42	6030
2026-01-06 01:46:42.98	283.32	32.33	-34.6	-35.5	23.7	0.00e+00	120	34	0	1364197376	42	5897
2026-01-06 01:46:43.99	283.67	32.27	-34.4	-35.3	24.0	0.00e+00	123	34	0	1367343104	42	5753
2026-01-06 01:46:45.00	284.03	32.22	-34.4	-35.4	23.9	0.00e+00	123	34	0	1370488832	42	5805
2026-01-06 01:46:46.01	284.38	32.16	-34.5	-35.4	23.9	0.00e+00	122	34	0	1373634560	42	5835
2026-01-06 01:46:47.02	284.73	32.09	-34.6	-35.5	23.9	0.00e+00	120	34	0	1376780288	42	5906
2026-01-06 01:46:48.03	285.08	32.03	-34.4	-35.3	24.1	0.00e+00	122	34	0	1379926016	42	5760
2026-01-06 01:46:49.04	285.43	31.97	-34.3	-35.2	24.1	0.00e+00	123	34	0	1383071744	42	5713
2026-01-06 01:46:50.05	285.78	31.91	-34.4	-35.3	23.9	0.00e+00	120	34	0	1386217472	42	5767
2026-01-06 01:46:51.06	286.13	31.84	-34.3	-35.3	23.8	0.00e+00	122	34	0	1389363200	42	5726
2026-01-06 01:46:52.07	286.48	31.78	-34.2	-35.1	23.9	0.00e+00	122	34	0	1392508928	42	5649
2026-01-06 01:46:53.08	286.82	31.71	-34.3	-35.3	24.1	0.00e+00	122	34	0	1395654656	42	5734
2026-01-06 01:46:54.09	287.16	31.64	-34.4	-35.3	24.2	0.00e+00	123	34	0	1398800384	42	5761
2026-01-06 01:46:55.10	287.50	31.57	-34.5	-35.3	24.2	0.00e+00	120	34	0	1401946112	42	5781
2026-01-06 01:46:56.11	287.84	31.50	-34.5	-35.4	24.2	0.00e+00	123	34	0	1405091840	42	5813
2026-01-06 01:46:57.12	288.18	31.43	-34.6	-35.5	24.2	0.00e+00	122	34	0	1408237568	42	5890
2026-01-06 01:46:58.13	288.52	31.36	-34.7	-35.6	24.1	0.00e+00	123	34	0	1411383296	42	5971
2026-01-06 01:46:59.14	288.85	31.29	-34.2	-35.1	24.4	0.00e+00	123	34	0	1414529024	42	5602
2026-01-06 01:47:00.15	289.19	31.21	-34.2	-35.1	24.3	0.00e+00	123	34	0	1417674752	42	5657
2026-01-06 01:47:01.16	289.52	31.14	-34.0	-34.9	24.5	0.00e+00	123	34	0	1420820480	42	5483
2026-01-06 01:47:02.17	289.85	31.07	-34.1	-34.9	24.6	0.00e+00	123	34	0	1423966208	42	5526
2026-01-06 01:47:03.18	290.18	30.99	-34.1	-35.0	24.5	0.00e+00	120	34	0	1427111936	42	5584
2026-01-06 01:47:04.19	290.51	30.91	-34.1	-35.0	24.5	0.00e+00	123	34	0	1430257664	42	5548
2026-01-06 01:47:05.20	290.84	30.84	-34.3	-35.2	24.4	0.00e+00	121	34	0	1433403392	42	5711
2026-01-06 01:47:06.21	291.16	30.76	-34.4	-35.3	24.2	0.00e+00	122	34	0	1436549120	42	5750
2026-01-06 01:47:07.22	291.48	30.68	-34.4	-35.3	24.3	0.00e+00	123	34	0	1439694848	42	5736
2026-01-06 01:47:08.23	291.81	30.60	-34.4	-35.4	24.3	0.00e+00	122	34	0	1442840576	42	5793
2026-01-06 01:47:09.24	292.13	30.52	-34.3	-35.2	24.3	0.00e+00	120	34	0	1445986304	42	5695
2026-01-06 01:47:10.24	292.44	30.44	-34.3	-35.2	24.3	0.00e+00	123	34	0	1449132032	42	5668
2026-01-06 01:47:11.25	292.76	30.36	-34.1	-35.0	24.5	0.00e+00	120	34	0	1452277760	42	5540
2026-01-06 01:47:12.26	293.07	30.27	-34.0	-34.9	24.5	0.00e+00	123	34	0	1455423488	42	5506
2026-01-06 01:47:13.27	293.39	30.19	-33.9	-34.8	24.5	0.00e+00	120	34	0	1459617792	42	5444
2026-01-06 01:47:14.28	293.70	30.11	-34.0	-34.9	24.5	0.00e+00	122	34	0	1461714944	42	5486
2026-01-06 01:47:15.29	294.01	30.02	-33.9	-34.8	24.6	0.00e+00	123	34	0	1464860672	42	5442
2026-01-06 01:47:16.30	294.32	29.94	-33.9	-34.8	24.6	0.00e+00	123	34	0	1468006400	42	5423
2026-01-06 01:47:17.31	294.63	29.85	-34.0	-34.9	24.5	0.00e+00	120	34	0	1471152128	42	5481
2026-01-06 01:47:18.32	294.93	29.76	-34.0	-34.9	24.5	0.00e+00	123	34	0	1475346432	42	5487
2026-01-06 01:47:19.33	295.24	29.68	-33.9	-34.8	24.6	0.00e+00	122	34	0	1478492160	42	5444
2026-01-06 01:47:20.34	295.54	29.59	-34.0	-34.9	24.5	0.00e+00	120	34	0	1481637888	42	5519
2026-01-06 01:47:21.35	295.84	29.50	-34.0	-34.9	24.6	0.00e+00	122	34	0	1483735040	42	5504
2026-01-06 01:47:22.36	296.14	29.41	-33.8	-34.7	24.6	0.00e+00	120	34	0	1486880768	42	5350
2026-01-06 01:47:23.37	296.44	29.32	-33.9	-34.8	24.5	0.00e+00	123	34	0	1491075072	42	5433
2026-01-06 01:47:24.38	296.73	29.23	-33.8	-34.7	24.5	0.00e+00	122	34	0	1494220800	42	5350
2026-01-06 01:47:25.39	297.03	29.14	-33.7	-34.6	24.5	0.00e+00	122	34	0	1497366528	40	5929
2026-01-06 01:47:26.40	297.32	29.05	-33.9	-34.9	24.3	0.00e+00	120	34	0	1500512256	40	6135
2026-01-06 01:47:27.41	297.61	28.96	-34.0	-34.9	24.4	0.00e+00	123	34	0	1503657984	40	6193
2026-01-06 01:47:28.41	297.90	28.87	-34.0	-34.9	24.5	0.00e+00	120	34	0	1506803712	40	6187
2026-01-06 01:47:29.42	298.19	28.78	-33.9	-34.7	24.6	0.00e+00	123	34	0	1509949440	40	6050
2026-01-06 01:47:30.43	298.47	28.68	-33.6	-34.4	24.7	0.00e+00	122	34	0	1513095168	40	5855
2026-01-06 01:47:31.44	298.76	28.59	-33.5	-34.4	24.6	0.00e+00	123	34	0	1516240896	40	5834
2026-01-06 01:47:32.45	299.04	28.50	-33.6	-34.4	24.5	0.00e+00	123	34	0	1519386624	40	5858
2026-01-06 01:47:33.45	299.32	28.40	-33.5	-34.4	24.7	0.00e+00	122	34	0	1522532352	40	5810
2026-01-06 01:47:34.47	299.60	28.31	-33.7	-34.5	24.6	0.00e+00	123	34	0	1525678080	40	5909
2026-01-06 01:47:35.48	299.88	28.21	-33.3	-34.2	24.9	0.00e+00	120	34	0	1528823808	40	5709
2026-01-06 01:47:36.49	300.16	28.12	-33.2	-34.1	25.0	0.00e+00	123	34	0	1531969536	40	5613
2026-01-06 01:47:37.50	300.43	28.02	-33.3	-34.2	24.9	0.00e+00	122	34	0	1535115264	40	5660
2026-01-06 01:47:38.51	300.70	27.93	-33.2	-34.1	25.0	0.00e+00	123	34	0	1538260992	40	5604
2026-01-06 01:47:39.52	300.98	27.83	-33.2	-34.1	25.0	0.00e+00	120	34	0	1541406720	40	5613
2026-01-06 01:47:40.53	301.25	27.73	-33.2	-34.0	25.1	0.00e+00	123	34	0	1544552448	40	5579
2026-01-06 01:47:41.54	301.51	27.64	-33.1	-33.9	25.1	0.00e+00	123	34	0	1547698176	40	5510
2026-01-06 01:47:42.55	301.78	27.54	-33.1	-34.0	25.0	0.00e+00	123	34	0	1550843904	40	5532
2026-01-06 01:47:43.56	302.05	27.44	-33.3	-34.2	24.8	0.00e+00	122	34	0	1553989632	40	5687
2026-01-06 01:47:44.57	302.31	27.35	-33.4	-34.3	24.6	0.00e+00	123	34	0	1557135360	40	5747
2026-01-06 01:47:45.58	302.57	27.25	-33.3	-34.2	24.7	0.00e+00	123	34	0	1560281088	40	5715
2026-01-06 01:47:46.59	302.83	27.15	-33.4	-34.3	24.7	0.00e+00	122	34	0	1563426816	40	5753
2026-01-06 01:47:47.60	303.09	27.05	-33.3	-34.2	25.0	0.00e+00	122	34	0	1566572544	40	5702
2026-01-06 01:47:48.61	303.35	26.95	-33.1	-33.9	25.1	0.00e+00	122	34	0	1569718272	40	5493
2026-01-06 01:47:49.62	303.61	26.85	-33.2	-34.0	25.0	0.00e+00	123	34	0	1572864000	40	5584
2026-01-06 01:47:50.63	303.86	26.75	-33.0	-33.9	25.1	0.00e+00	120	34	0	1576009728	40	5509
2026-01-06 01:47:51.64	304.11	26.65	-33.0	-33.9	25.2	0.00e+00	123	34	0	1579155456	40	5488
2026-01-06 01:47:52.65	304.36	26.55	-33.0	-33.9	25.3	0.00e+00	122	34	0	1582301184	40	5476
2026-01-06 01:47:53.65	304.61	26.45	-33.0	-33.9	25.1	0.00e+00	123	34	0	1585446912	40	5489
2026-01-06 01:47:54.66	304.86	26.35	-33.2	-34.1	25.1	0.00e+00	123	34	0	1588592640	40	5633
2026-01-06 01:47:55.67	305.11	26.25	-33.3	-34.1	25.0	0.00e+00	122	34	0	1591738368	40	5651
2026-01-06 01:47:56.68	305.35	26.15	-33.3	-34.2	25.0	0.00e+00	123	34	0	1594884096	40	5685
2026-01-06 01:47:57.69	305.59	26.05	-33.3	-34.2	25.0	0.00e+00	122	34	0	1598029824	40	5688
2026-01-06 01:47:58.70	305.84	25.95	-33.4	-34.3	25.0	0.00e+00	123	34	0	1601175552	40	5728
2026-01-06 01:47:59.71	306.08	25.85	-33.2	-34.1	24.9	0.00e+00	120	34	0	1604321280	40	5629
2026-01-06 01:48:00.72	306.32	25.75	-33.2	-34.0	25.1	0.00e+00	122	34	0	1607467008	40	5580
2026-01-06 01:48:01.73	306.55	25.65	-33.0	-33.8	25.3	0.00e+00	120	34	0	1610612736	40	5455
2026-01-06 01:48:02.74	306.79	25.55	-33.0	-33.9	25.2	0.00e+00	123	34	0	1613758464	40	5471
2026-01-06 01:48:03.75	307.02	25.44	-33.1	-34.0	25.1	0.00e+00	120	34	0	1616904192	40	5539
2026-01-06 01:48:04.76	307.26	25.34	-33.0	-33.8	25.3	0.00e+00	123	34	0	1620049920	40	5439
2026-01-06 01:48:05.77	307.49	25.24	-33.0	-33.9	25.2	0.00e+00	122	34	0	1623195648	40	5481
2026-01-06 01:48:06.78	307.72	25.14	-33.0	-33.9	25.2	0.00e+00	123	34	0	1626341376	40	5473
2026-01-06 01:48:07.79	307.95	25.04	-33.2	-34.0	25.2	0.00e+00	120	34	0	1629487104	40	5587
2026-01-06 01:48:08.80	308.17	24.94	-33.2	-34.0	25.1	0.00e+00	123	34	0	1632632832	40	5585
2026-01-06 01:48:09.81	308.40	24.83	-33.1	-34.0	25.1	0.00e+00	120	34	0	1635778560	40	5538
2026-01-06 01:48:10.82	308.62	24.73	-33.1	-34.0	25.1	0.00e+00	122	34	0	1638924288	40	5594
2026-01-06 01:48:11.83	308.85	24.63	-33.2	-34.1	25.1	0.00e+00	123	34	0	1642070016	40	5619
2026-01-06 01:48:12.84	309.07	24.53	-33.3	-34.2	25.0	0.00e+00	122	34	0	1645215744	40	5700
2026-01-06 01:48:13.85	309.29	24.43	-33.3	-34.2	25.0	0.00e+00	122	34	0	1648361472	40	5689
2026-01-06 01:48:14.86	309.51	24.32	-33.3	-34.2	25.0	0.00e+00	122	34	0	1651507200	40	5692
2026-01-06 01:48:15.87	309.73	24.22	-33.4	-34.2	24.8	0.00e+00	122	34	0	1654652928	40	5722
2026-01-06 01:48:16.88	309.94	24.12	-33.4	-34.3	24.8	0.00e+00	123	34	0	1657798656	40	5756
2026-01-06 01:48:17.89	310.16	24.02	-33.5	-34.3	24.8	0.00e+00	120	34	0	1660944384	40	5783
2026-01-06 01:48:18.90	310.37	23.91	-33.5	-34.4	24.7	0.00e+00	121	34	0	1664090112	40	5836
2026-01-06 01:48:19.91	310.58	23.81	-33.5	-34.4	24.7	0.00e+00	123	34	0	1667235840	40	5818
2026-01-06 01:48:20.92	310.79	23.71	-33.6	-34.5	24.7	0.00e+00	121	34	0	1670381568	40	5874
2026-01-06 01:48:21.93	311.00	23.61	-33.6	-34.4	24.8	0.00e+00	123	34	0	1673527296	40	5850
2026-01-06 01:48:22.94	311.21	23.51	-33.5	-34.4	24.8	0.00e+00	120	34	0	1676673024	40	5792
2026-01-06 01:48:23.95	311.41	23.40	-33.6	-34.5	24.7	0.00e+00	122	34	0	1679818752	40	5870
2026-01-06 01:48:24.95	311.62	23.30	-33.4	-34.3	24.8	0.00e+00	123	34	0	1682964480	40	5762
2026-01-06 01:48:25.96	311.82	23.20	-33.6	-34.5	24.6	0.00e+00	122	34	0	1686110208	40	5877
2026-01-06 01:48:26.97	312.02	23.10	-33.4	-34.3	24.6	0.00e+00	123	34	0	1689255936	40	5763
2026-01-06 01:48:27.98	312.23	23.00	-33.4	-34.3	24.7	0.00e+00	122	34	0	1692401664	40	5749
2026-01-06 01:48:28.99	312.43	22.89	-33.5	-34.4	24.7	0.00e+00	120	34	0	1695547392	40	5799
2026-01-06 01:48:30.00	312.63	22.79	-33.5	-34.4	24.7	0.00e+00	123	34	0	1698693120	40	5827
2026-01-06 01:48:31.01	312.82	22.69	-33.3	-34.2	24.8	0.00e+00	123	34	0	1701838848	40	5682
2026-01-06 01:48:32.02	313.02	22.59	-33.4	-34.3	24.7	0.00e+00	122	34	0	1704984576	40	5768
2026-01-06 01:48:33.03	313.21	22.49	-33.5	-34.3	24.6	0.00e+00	120	34	0	1708130304	40	5784
2026-01-06 01:48:34.04	313.41	22.39	-33.4	-34.2	24.7	0.00e+00	123	34	0	1711276032	40	5722
2026-01-06 01:48:35.05	313.60	22.28	-33.4	-34.3	24.7	0.00e+00	121	34	0	1714421760	40	5755
2026-01-06 01:48:36.06	313.79	22.18	-33.5	-34.3	24.7	0.00e+00	123	34	0	1717567488	40	5789
2026-01-06 01:48:37.07	313.98	22.08	-33.3	-34.2	24.9	0.00e+00	121	34	0	1720713216	40	5697
2026-01-06 01:48:38.08	314.17	21.98	-33.2	-34.1	24.9	0.00e+00	123	34	0	1723858944	40	5629
2026-01-06 01:48:39.09	314.36	21.88	-33.3	-34.1	24.9	0.00e+00	123	34	0	1727004672	40	5652
2026-01-06 01:48:40.10	314.55	21.78	-33.3	-34.2	24.9	0.00e+00	123	34	0	1730150400	40	5669
2026-01-06 01:48:41.11	314.73	21.68	-33.3	-34.2	24.9	0.00e+00	120	34	0	1733296128	40	5686
2026-01-06 01:48:42.12	314.91	21.58	-33.4	-34.2	24.8	0.00e+00	123	34	0	1736441856	40	5699
2026-01-06 01:48:43.13	315.10	21.48	-33.4	-34.3	24.9	0.00e+00	120	34	0	1739587584	40	5736
2026-01-06 01:48:44.13	315.28	21.38	-33.5	-34.3	24.7	0.00e+00	123	34	0	1742733312	40	5790
2026-01-06 01:48:45.14	315.46	21.28	-33.6	-34.5	24.6	0.00e+00	122	34	0	1745879040	40	5888
2026-01-06 01:48:46.15	315.64	21.17	-33.8	-34.6	24.5	0.00e+00	123	34	0	1749024768	40	5984
2026-01-06 01:48:47.17	315.82	21.07	-34.0	-34.9	24.4	0.00e+00	122	34	0	1752170496	40	6184
2026-01-06 01:48:48.17	315.99	20.97	-34.0	-34.9	24.4	0.00e+00	122	34	0	1755316224	40	6177
2026-01-06 01:48:49.18	316.17	20.87	-34.1	-35.0	24.4	0.00e+00	123	34	0	1758461952	40	6221
2026-01-06 01:48:50.19	316.35	20.77	-34.0	-34.9	24.5	0.00e+00	123	34	0	1761607680	40	6150
2026-01-06 01:48:51.20	316.52	20.67	-34.0	-34.9	24.3	0.00e+00	120	34	0	1764753408	40	6183
2026-01-06 01:48:52.21	316.69	20.58	-34.1	-35.0	24.4	0.00e+00	123	34	0	1767899136	40	6233
2026-01-06 01:48:53.22	316.86	20.48	-34.1	-35.0	24.1	0.00e+00	123	34	0	1771044864	40	6274
2026-01-06 01:48:54.23	317.03	20.38	-34.4	-35.3	24.3	0.00e+00	123	34	0	1774190592	40	6461
2026-01-06 01:48:55.24	317.20	20.28	-34.2	-35.1	24.2	0.00e+00	120	34	0	1777336320	40	6315
2026-01-06 01:48:56.25	317.37	20.18	-34.2	-35.1	24.3	0.00e+00	127	34	0	1780482048	40	6310
2026-01-06 01:48:57.26	317.54	20.08	-34.0	-34.9	24.4	0.00e+00	123	34	0	1783627776	40	6171
2026-01-06 01:48:58.27	317.71	19.98	-33.7	-34.6	24.7	0.00e+00	122	34	0	1786773504	40	5942
2026-01-06 01:48:59.28	317.87	19.88	-33.5	-34.4	24.8	0.00e+00	123	34	0	1789919232	40	5796
2026-01-06 01:49:00.29	318.04	19.78	-33.4	-34.3	24.9	0.00e+00	123	34	0	1793064960	40	5745
2026-01-06 01:49:01.30	318.20	19.69	-33.5	-34.4	24.8	0.00e+00	120	34	0	1796210688	40	5831
2026-01-06 01:49:02.30	318.36	19.59	-33.3	-34.2	25.0	0.00e+00	122	34	0	1799356416	40	5692
2026-01-06 01:49:03.31	318.52	19.49	-33.4	-34.3	24.9	0.00e+00	123	34	0	1802502144	40	5735
2026-01-06 01:49:04.32	318.68	19.39	-33.3	-34.1	25.0	0.00e+00	123	34	0	1805647872	40	5643
2026-01-06 01:49:05.34	318.84	19.29	-33.3	-34.2	25.0	0.00e+00	123	34	0	1808793600	40	5674
2026-01-06 01:49:06.34	319.00	19.20	-33.3	-34.2	24.9	0.00e+00	123	34	0	1811939328	40	5673
2026-01-06 01:49:07.35	319.16	19.10	-33.4	-34.3	24.8	0.00e+00	122	34	0	1815085056	40	5775
2026-01-06 01:49:08.36	319.32	19.00	-33.3	-34.2	24.9	0.00e+00	122	34	0	1818230784	40	5661
2026-01-06 01:49:09.37	319.47	18.91	-33.2	-34.1	24.9	0.00e+00	123	34	0	1822425088	40	5637
2026-01-06 01:49:10.38	319.63	18.81	-33.4	-34.2	24.7	0.00e+00	123	34	0	1824522240	40	5710
2026-01-06 01:49:11.39	319.78	18.71	-33.2	-34.1	24.9	0.00e+00	123	34	0	1827667968	40	5626
2026-01-06 01:49:12.40	319.93	18.62	-33.3	-34.2	24.8	0.00e+00	123	34	0	1830813696	40	5674
2026-01-06 01:49:13.41	320.08	18.52	-33.4	-34.2	24.7	0.00e+00	122	34	0	1833959424	40	5711
2026-01-06 01:49:14.42	320.23	18.43	-33.3	-34.2	24.7	0.00e+00	122	34	0	1838153728	40	5707
2026-01-06 01:49:15.43	320.38	18.33	-33.4	-34.3	24.6	0.00e+00	122	34	0	1841299456	40	5761
2026-01-06 01:49:16.44	320.53	18.23	-33.5	-34.4	24.6	0.00e+00	122	34	0	1844445184	40	5799
2026-01-06 01:49:17.45	320.68	18.14	-33.6	-34.5	24.5	0.00e+00	122	34	0	1846542336	40	5892
2026-01-06 01:49:18.46	320.83	18.04	-33.4	-34.3	24.6	0.00e+00	123	34	0	1849688064	40	5778
2026-01-06 01:49:19.47	320.98	17.95	-33.6	-34.5	24.5	0.00e+00	123	34	0	1853882368	40	5862
2026-01-06 01:49:20.48	321.12	17.85	-33.6	-34.5	24.5	0.00e+00	123	34	0	1857028096	40	5866
2026-01-06 01:49:21.49	321.27	17.76	-33.6	-34.5	24.5	0.00e+00	123	34	0	1860173824	40	5863
2026-01-06 01:49:22.50	321.41	17.67	-33.6	-34.5	24.6	0.00e+00	123	34	0	1863319552	40	5886
2026-01-06 01:49:23.51	321.55	17.57	-33.6	-34.5	24.5	0.00e+00	123	34	0	1866465280	40	5895
2026-01-06 01:49:24.52	321.69	17.48	-33.7	-34.6	24.4	0.00e+00	123	34	0	1869611008	40	5928
2026-01-06 01:49:25.53	321.84	17.38	-33.7	-34.6	24.5	0.00e+00	123	34	0	1872756736	40	5970
2026-01-06 01:49:26.54	321.98	17.29	-33.6	-34.5	24.5	0.00e+00	122	34	0	1875902464	40	5887
2026-01-06 01:49:27.55	322.11	17.20	-33.7	-34.6	24.4	0.00e+00	122	34	0	1879048192	40	5957
2026-01-06 01:49:28.56	322.25	17.10	-33.9	-34.8	24.4	0.00e+00	120	34	0	1882193920	40	6092
2026-01-06 01:49:29.57	322.39	17.01	-33.8	-34.7	24.4	0.00e+00	123	34	0	1885339648	40	6026
2026-01-06 01:49:30.58	322.53	16.92	-34.0	-34.8	24.3	0.00e+00	123	34	0	1888485376	40	6127
2026-01-06 01:49:31.59	322.66	16.83	-34.0	-34.9	24.3	0.00e+00	122	34	0	1891631104	40	6168
2026-01-06 01:49:32.60	322.80	16.73	-34.2	-35.1	24.2	0.00e+00	123	34	0	1894776832	40	6350
2026-01-06 01:49:33.61	322.93	16.64	-34.2	-35.1	24.3	0.00e+00	123	34	0	1897922560	40	6302
2026-01-06 01:49:34.62	323.07	16.55	-34.0	-34.9	24.3	0.00e+00	123	34	0	1901068288	40	6199
2026-01-06 01:49:35.63	323.20	16.46	-34.1	-35.0	24.2	0.00e+00	120	34	0	1904214016	40	6238
2026-01-06 01:49:36.64	323.33	16.37	-34.0	-34.9	24.3	0.00e+00	122	34	0	1907359744	40	6193
2026-01-06 01:49:37.65	323.47	16.27	-34.1	-35.0	24.3	0.00e+00	122	34	0	1910505472	40	6213
2026-01-06 01:49:38.66	323.60	16.18	-34.2	-35.1	24.2	0.00e+00	123	34	0	1913651200	40	6322
2026-01-06 01:49:39.67	323.73	16.09	-34.2	-35.0	24.2	0.00e+00	123	34	0	1916796928	40	6274
2026-01-06 01:49:40.68	323.85	16.00	-34.3	-35.2	24.1	0.00e+00	123	34	0	1919942656	40	6417
2026-01-06 01:49:41.69	323.98	15.91	-34.3	-35.2	24.0	0.00e+00	123	34	0	1923088384	40	6412
2026-01-06 01:49:42.70	324.11	15.82	-34.4	-35.3	24.0	0.00e+00	122	34	0	1926234112	40	6437
2026-01-06 01:49:43.71	324.24	15.73	-34.4	-35.3	24.0	0.00e+00	122	34	0	1929379840	40	6491
2026-01-06 01:49:44.72	324.36	15.64	-34.7	-35.6	23.9	0.00e+00	123	34	0	1932525568	40	6711
2026-01-06 01:49:45.73	324.49	15.55	-34.6	-35.5	23.7	0.00e+00	121	34	0	1935671296	40	6639
2026-01-06 01:49:46.74	324.61	15.46	-34.6	-35.6	23.8	0.00e+00	122	34	0	1938817024	40	6651
2026-01-06 01:49:47.75	324.74	15.37	-34.4	-35.4	23.8	0.00e+00	123	34	0	1941962752	40	6513
2026-01-06 01:49:48.76	324.86	15.28	-34.6	-35.5	23.7	0.00e+00	122	34	0	1945108480	40	6644
2026-01-06 01:49:49.77	324.98	15.19	-34.7	-35.6	23.6	0.00e+00	123	34	0	1948254208	40	6681
2026-01-06 01:49:50.78	325.11	15.11	-34.7	-35.6	23.6	0.00e+00	122	34	0	1951399936	42	5981
2026-01-06 01:49:51.79	325.23	15.02	-34.8	-35.8	23.5	0.00e+00	122	34	0	1954545664	42	6092
