passes_logs/2026/01/06/R4.6S_Anadyr/R4.6S_Anadyr__20260106_173321_SUOMI_NPP_rec.log

#Pass ID: 20260106_173321_SUOMI NPP
#Satellite: SUOMI NPP
#Configuration: NPP
#almurnet v.1.7.20251203
#Start time: 2026-01-06 17:33:24

#Version: 2.2.20231116
#Station: R4.6S_Anadyr
#Location: 177.4865 lon 64.73178 lat
#TLE: 1 37849U 11061A   26004.95404768  .00000136  00000+0  85334-4 0  9991
#TLE: 2 37849  98.7801 307.0898 0002575  80.6707 279.4760 14.19522289735281

#Time	Az	El	Level	Level2	SNR	BER	BlckErr	Temp	State	Recorded	gain1	gain2
2026-01-06 17:33:24.03	32.19	0.14	-48.4	-60.0	3.5	8.43e-01	0	31	0	0	60	36213
2026-01-06 17:33:25.04	32.13	0.19	-48.5	-63.7	3.6	1.51e+00	0	32	104	0	60	55073
2026-01-06 17:33:26.05	32.07	0.24	-48.5	-63.6	3.6	1.51e+00	0	32	104	0	60	54911
2026-01-06 17:33:27.06	32.01	0.30	-48.5	-63.7	3.6	1.51e+00	0	32	104	0	60	55353
2026-01-06 17:33:28.07	31.95	0.35	-48.5	-63.7	3.6	1.51e+00	0	32	104	0	60	55451
2026-01-06 17:33:29.07	31.88	0.40	-48.4	-63.7	3.6	1.51e+00	0	32	104	0	60	55657
2026-01-06 17:33:30.09	31.82	0.46	-48.6	-63.8	3.6	1.51e+00	0	32	104	0	60	55951
2026-01-06 17:33:31.10	31.76	0.51	-48.6	-63.8	3.6	1.51e+00	0	32	104	0	60	56059
2026-01-06 17:33:32.11	31.70	0.57	-48.6	-63.8	3.6	1.51e+00	0	32	104	0	60	55969
2026-01-06 17:33:33.11	31.64	0.62	-48.5	-63.7	3.6	1.51e+00	0	32	104	0	60	55473
2026-01-06 17:33:34.12	31.58	0.67	-48.5	-63.7	3.6	1.51e+00	0	32	104	0	60	55074
2026-01-06 17:33:35.13	31.51	0.73	-48.4	-63.6	3.6	1.51e+00	0	32	104	0	60	54524
2026-01-06 17:33:36.14	31.45	0.78	-48.3	-63.5	3.6	1.51e+00	0	32	104	0	60	54361
2026-01-06 17:33:37.15	31.39	0.84	-48.2	-63.4	3.6	1.51e+00	0	32	104	0	60	53179
2026-01-06 17:33:38.16	31.32	0.89	-48.1	-63.3	3.6	1.51e+00	0	32	104	0	60	52577
2026-01-06 17:33:39.17	31.26	0.95	-47.9	-63.0	3.6	1.51e+00	0	32	104	0	60	51022
2026-01-06 17:33:40.18	31.20	1.00	-47.6	-62.7	3.6	1.51e+00	0	32	104	0	60	49414
2026-01-06 17:33:41.19	31.13	1.06	-47.1	-62.2	3.6	1.51e+00	0	32	104	0	60	46553
2026-01-06 17:33:42.20	31.07	1.11	-47.0	-62.2	3.6	1.51e+00	0	32	104	0	60	46386
2026-01-06 17:33:43.21	31.00	1.17	-47.0	-62.2	3.6	1.51e+00	0	32	104	0	60	46363
2026-01-06 17:33:44.22	30.94	1.22	-47.0	-62.1	3.5	1.51e+00	0	32	104	0	60	46037
2026-01-06 17:33:45.23	30.87	1.28	-47.0	-62.1	3.6	1.51e+00	0	32	104	0	60	46098
2026-01-06 17:33:46.24	30.81	1.33	-47.0	-62.1	3.6	1.51e+00	0	32	104	0	60	46151
2026-01-06 17:33:47.25	30.74	1.39	-47.0	-62.1	3.6	1.51e+00	0	32	104	0	60	45934
2026-01-06 17:33:48.26	30.68	1.44	-47.0	-62.0	3.6	1.51e+00	0	33	104	0	60	45753
2026-01-06 17:33:49.27	30.61	1.50	-47.0	-62.1	3.6	1.51e+00	0	32	104	0	60	45958
2026-01-06 17:33:50.28	30.55	1.55	-47.0	-62.1	3.6	1.51e+00	0	32	104	0	60	45987
2026-01-06 17:33:51.29	30.48	1.61	-47.0	-62.1	3.6	1.51e+00	0	32	104	0	60	45935
2026-01-06 17:33:52.30	30.41	1.66	-47.0	-62.1	3.6	1.51e+00	0	32	104	0	60	45955
2026-01-06 17:33:53.31	30.35	1.72	-47.0	-62.1	3.6	1.51e+00	0	32	104	0	60	46010
2026-01-06 17:33:54.32	30.28	1.77	-47.0	-62.1	3.6	1.51e+00	0	32	104	0	60	46097
2026-01-06 17:33:55.33	30.21	1.83	-47.0	-62.1	3.6	1.51e+00	0	32	104	0	60	46182
2026-01-06 17:33:56.34	30.14	1.89	-47.0	-62.2	3.6	1.51e+00	0	33	104	0	60	46333
2026-01-06 17:33:57.35	30.07	1.94	-47.0	-62.2	3.6	1.51e+00	0	33	104	0	60	46421
2026-01-06 17:33:58.36	30.01	2.00	-47.0	-62.1	3.6	1.51e+00	0	33	104	0	60	46088
2026-01-06 17:33:59.37	29.94	2.05	-47.0	-62.2	3.6	1.51e+00	0	33	104	0	60	46304
2026-01-06 17:34:00.38	29.87	2.11	-47.0	-62.1	3.6	1.51e+00	0	33	104	0	60	46107
2026-01-06 17:34:01.39	29.80	2.17	-47.0	-62.0	3.6	1.51e+00	0	33	104	0	60	45374
2026-01-06 17:34:02.40	29.73	2.22	-47.0	-61.9	3.6	1.51e+00	0	33	104	0	60	45096
2026-01-06 17:34:03.41	29.66	2.28	-47.0	-61.9	3.6	1.51e+00	0	33	104	0	60	45145
2026-01-06 17:34:04.42	29.59	2.33	-47.0	-61.9	3.6	1.51e+00	0	33	104	0	60	45060
2026-01-06 17:34:05.43	29.52	2.39	-47.0	-62.0	3.6	1.51e+00	0	33	104	0	60	45629
2026-01-06 17:34:06.44	29.45	2.45	-47.0	-62.1	3.6	1.51e+00	0	33	104	0	60	46096
2026-01-06 17:34:07.45	29.38	2.50	-47.0	-62.1	3.6	1.51e+00	0	33	104	0	60	46048
2026-01-06 17:34:08.46	29.31	2.56	-47.0	-62.1	3.6	1.51e+00	0	33	104	0	60	46010
2026-01-06 17:34:09.47	29.23	2.62	-47.0	-62.1	3.6	1.51e+00	0	33	104	0	60	45885
2026-01-06 17:34:10.47	29.16	2.67	-47.0	-62.1	3.6	1.51e+00	0	33	104	0	60	46042
2026-01-06 17:34:11.49	29.09	2.73	-47.0	-62.2	3.6	1.51e+00	0	33	104	0	60	46415
2026-01-06 17:34:12.50	29.02	2.79	-47.0	-62.1	3.6	1.51e+00	0	33	104	0	60	45925
2026-01-06 17:34:13.50	28.95	2.84	-47.0	-61.8	3.6	1.51e+00	0	33	104	0	60	44437
2026-01-06 17:34:14.51	28.87	2.90	-46.9	-61.4	3.6	1.51e+00	0	33	104	0	60	42281
2026-01-06 17:34:15.53	28.80	2.96	-46.9	-61.2	3.6	1.51e+00	0	33	104	0	60	41438
2026-01-06 17:34:16.53	28.73	3.01	-46.9	-61.4	3.6	1.51e+00	0	33	104	0	60	42682
2026-01-06 17:34:17.54	28.65	3.07	-47.0	-61.9	3.6	1.51e+00	0	33	104	0	60	44828
2026-01-06 17:34:18.55	28.58	3.13	-46.9	-61.5	3.6	1.51e+00	0	33	104	0	60	42716
2026-01-06 17:34:19.56	28.50	3.19	-46.8	-59.6	3.7	1.51e+00	0	33	104	0	60	34695
2026-01-06 17:34:20.57	28.43	3.24	-46.6	-55.8	5.0	1.06e+00	0	33	0	0	60	22225
2026-01-06 17:34:21.58	28.35	3.30	-46.3	-53.5	6.6	3.38e-01	0	33	0	2097152	60	17120
2026-01-06 17:34:22.59	28.28	3.36	-47.0	-61.8	3.6	1.01e+00	0	33	104	3145728	60	44364
2026-01-06 17:34:23.60	28.20	3.42	-46.1	-52.7	10.2	1.51e+00	0	33	104	3145728	60	15647
2026-01-06 17:34:24.61	28.13	3.47	-46.9	-59.8	3.6	2.20e-06	11	33	104	3145728	60	35526
2026-01-06 17:34:25.62	28.05	3.53	-47.0	-60.0	3.6	1.51e+00	0	33	104	3145728	60	36037
2026-01-06 17:34:26.63	27.97	3.59	-42.5	-44.7	6.0	1.50e+00	0	33	104	3145728	60	6223
2026-01-06 17:34:27.64	27.90	3.65	-41.9	-44.0	17.2	0.00e+00	0	33	0	3145728	58	6406
2026-01-06 17:34:28.65	27.82	3.71	-41.7	-43.6	17.5	0.00e+00	0	33	0	5242880	56	6903
2026-01-06 17:34:29.66	27.74	3.76	-41.5	-43.4	17.8	0.00e+00	0	33	0	7340032	56	6702
2026-01-06 17:34:30.67	27.66	3.82	-41.7	-43.5	17.7	0.00e+00	0	33	0	8388608	56	6844
2026-01-06 17:34:31.68	27.59	3.88	-40.9	-42.6	18.6	0.00e+00	0	33	0	10485760	56	6125
2026-01-06 17:34:32.69	27.51	3.94	-41.0	-42.6	18.5	0.00e+00	0	33	0	12582912	56	6172
2026-01-06 17:34:33.70	27.43	4.00	-40.8	-42.4	18.7	0.00e+00	0	33	0	14680064	56	6022
2026-01-06 17:34:34.71	27.35	4.06	-40.9	-42.5	18.6	0.00e+00	0	33	0	16777216	56	6095
2026-01-06 17:34:35.72	27.27	4.11	-40.5	-42.1	18.9	0.00e+00	0	33	0	17825792	54	6470
2026-01-06 17:34:36.73	27.19	4.17	-40.7	-42.4	18.8	0.00e+00	0	33	0	19922944	54	6693
2026-01-06 17:34:37.74	27.11	4.23	-40.8	-42.4	18.6	0.00e+00	0	33	0	22020096	54	6763
2026-01-06 17:34:38.74	27.03	4.29	-40.6	-42.1	19.0	0.00e+00	0	33	0	24117248	54	6515
2026-01-06 17:34:39.75	26.95	4.35	-40.4	-41.9	19.2	0.00e+00	0	33	0	26214400	54	6372
2026-01-06 17:34:40.76	26.87	4.41	-40.5	-42.1	19.1	0.00e+00	0	33	0	28311552	54	6465
2026-01-06 17:34:41.77	26.78	4.47	-40.5	-42.0	19.1	0.00e+00	0	33	0	29360128	54	6460
2026-01-06 17:34:42.78	26.70	4.53	-40.6	-42.2	19.0	0.00e+00	0	33	0	31457280	54	6544
2026-01-06 17:34:43.79	26.62	4.59	-40.6	-42.2	19.0	0.00e+00	0	33	0	33554432	54	6541
2026-01-06 17:34:44.80	26.54	4.64	-40.6	-42.1	19.2	0.00e+00	0	33	0	35651584	54	6507
2026-01-06 17:34:45.81	26.45	4.70	-40.6	-42.1	19.0	0.00e+00	0	33	0	37748736	54	6534
2026-01-06 17:34:46.82	26.37	4.76	-40.2	-41.7	19.4	0.00e+00	0	33	0	38797312	54	6193
2026-01-06 17:34:47.83	26.29	4.82	-40.4	-41.9	19.1	0.00e+00	0	33	0	40894464	54	6353
2026-01-06 17:34:48.84	26.20	4.88	-40.3	-41.8	19.5	0.00e+00	0	33	0	42991616	54	6282
2026-01-06 17:34:49.84	26.12	4.94	-40.4	-41.9	19.3	0.00e+00	0	33	0	45088768	54	6343
2026-01-06 17:34:50.85	26.03	5.00	-40.5	-42.0	19.2	0.00e+00	0	33	0	47185920	54	6442
2026-01-06 17:34:51.86	25.95	5.06	-40.4	-41.9	19.3	0.00e+00	0	33	0	48234496	54	6351
2026-01-06 17:34:52.87	25.86	5.12	-40.6	-42.1	19.2	0.00e+00	0	33	0	50331648	54	6516
2026-01-06 17:34:53.88	25.78	5.18	-40.6	-42.1	19.1	0.00e+00	0	33	0	52428800	54	6519
2026-01-06 17:34:54.89	25.69	5.24	-40.4	-41.9	19.3	0.00e+00	0	33	0	54525952	54	6377
2026-01-06 17:34:55.90	25.61	5.30	-40.9	-42.5	18.8	0.00e+00	0	33	0	56623104	54	6795
2026-01-06 17:34:56.91	25.52	5.36	-40.8	-42.3	19.0	0.00e+00	0	33	0	57671680	54	6692
2026-01-06 17:34:57.92	25.43	5.42	-40.8	-42.4	18.9	0.00e+00	0	33	0	59768832	54	6749
2026-01-06 17:34:58.93	25.34	5.48	-40.8	-42.5	18.9	0.00e+00	0	33	0	61865984	54	6776
2026-01-06 17:34:59.94	25.25	5.54	-40.9	-42.5	18.8	0.00e+00	0	33	0	63963136	54	6845
2026-01-06 17:35:00.95	25.17	5.60	-40.8	-42.4	18.8	0.00e+00	0	33	0	66060288	54	6749
2026-01-06 17:35:01.96	25.08	5.66	-40.9	-42.6	18.8	0.00e+00	0	33	0	67108864	54	6854
2026-01-06 17:35:02.97	24.99	5.72	-40.8	-42.3	19.0	0.00e+00	0	33	0	69206016	54	6686
2026-01-06 17:35:03.97	24.90	5.78	-40.8	-42.4	19.0	0.00e+00	0	33	0	71303168	54	6693
2026-01-06 17:35:04.98	24.81	5.84	-40.8	-42.4	18.9	0.00e+00	0	33	0	73400320	54	6724
2026-01-06 17:35:05.99	24.72	5.90	-40.7	-42.3	19.1	0.00e+00	0	33	0	75497472	54	6625
2026-01-06 17:35:07.00	24.63	5.96	-40.8	-42.4	18.9	0.00e+00	0	33	0	76546048	54	6724
2026-01-06 17:35:08.01	24.54	6.03	-40.9	-42.5	19.1	0.00e+00	0	33	0	78643200	54	6784
2026-01-06 17:35:09.01	24.45	6.09	-40.7	-42.3	19.1	0.00e+00	0	33	0	80740352	54	6627
2026-01-06 17:35:10.02	24.35	6.15	-40.5	-42.0	19.5	0.00e+00	0	33	0	82837504	54	6430
2026-01-06 17:35:11.03	24.26	6.21	-40.4	-41.9	19.4	0.00e+00	0	33	0	84934656	54	6320
2026-01-06 17:35:12.04	24.17	6.27	-40.4	-41.9	19.5	0.00e+00	0	33	0	85983232	54	6336
2026-01-06 17:35:13.05	24.08	6.33	-40.4	-41.9	19.5	0.00e+00	0	33	0	88080384	54	6320
2026-01-06 17:35:14.06	23.98	6.39	-40.5	-42.0	19.4	0.00e+00	0	33	0	90177536	54	6443
2026-01-06 17:35:15.07	23.89	6.45	-40.3	-41.7	19.7	0.00e+00	0	33	0	92274688	54	6195
2026-01-06 17:35:16.08	23.79	6.51	-40.1	-41.5	20.0	0.00e+00	0	33	0	94371840	54	6049
2026-01-06 17:35:17.09	23.70	6.58	-40.0	-41.4	20.0	0.00e+00	0	33	0	95420416	54	5974
2026-01-06 17:35:18.10	23.60	6.64	-40.0	-41.4	20.0	0.00e+00	0	33	0	97517568	54	5965
2026-01-06 17:35:19.11	23.51	6.70	-40.1	-41.4	20.1	0.00e+00	0	33	0	99614720	54	6006
2026-01-06 17:35:20.12	23.41	6.76	-39.9	-41.2	20.2	0.00e+00	0	33	0	101711872	54	5844
2026-01-06 17:35:21.13	23.31	6.82	-40.0	-41.3	20.0	0.00e+00	0	33	0	103809024	54	5944
2026-01-06 17:35:22.14	23.22	6.89	-39.9	-41.3	20.2	0.00e+00	0	33	0	104857600	54	5910
2026-01-06 17:35:23.15	23.12	6.95	-39.9	-41.2	20.2	0.00e+00	0	33	0	106954752	54	5871
2026-01-06 17:35:24.15	23.02	7.01	-39.7	-41.0	20.4	0.00e+00	0	33	0	109051904	52	6442
2026-01-06 17:35:25.15	22.93	7.07	-39.6	-40.9	20.6	0.00e+00	0	33	0	111149056	52	6343
2026-01-06 17:35:26.15	22.83	7.13	-39.6	-40.9	20.5	0.00e+00	0	33	0	113246208	52	6335
2026-01-06 17:35:27.16	22.73	7.19	-39.7	-40.9	20.5	0.00e+00	0	33	0	114294784	52	6368
2026-01-06 17:35:28.17	22.63	7.26	-39.7	-40.9	20.4	0.00e+00	0	33	0	116391936	52	6366
2026-01-06 17:35:29.18	22.53	7.32	-39.4	-40.6	20.7	0.00e+00	0	33	0	118489088	52	6168
2026-01-06 17:35:30.19	22.43	7.38	-39.4	-40.7	20.7	0.00e+00	0	33	0	120586240	52	6176
2026-01-06 17:35:31.20	22.33	7.44	-39.5	-40.7	20.7	0.00e+00	0	33	0	122683392	52	6191
2026-01-06 17:35:32.21	22.23	7.51	-39.4	-40.6	20.8	0.00e+00	0	33	0	124780544	52	6158
2026-01-06 17:35:33.22	22.12	7.57	-39.5	-40.8	20.7	0.00e+00	0	33	0	125829120	52	6250
2026-01-06 17:35:34.23	22.02	7.63	-39.5	-40.7	20.8	0.00e+00	0	33	0	127926272	52	6209
2026-01-06 17:35:35.24	21.92	7.69	-39.4	-40.6	20.8	0.00e+00	0	33	0	130023424	52	6171
2026-01-06 17:35:36.25	21.82	7.76	-39.5	-40.7	20.7	0.00e+00	0	33	0	132120576	52	6193
2026-01-06 17:35:37.26	21.71	7.82	-39.6	-40.8	20.6	0.00e+00	0	33	0	134217728	52	6314
2026-01-06 17:35:38.27	21.61	7.88	-39.7	-41.0	20.5	0.00e+00	0	33	0	135266304	52	6414
2026-01-06 17:35:39.28	21.50	7.95	-39.7	-40.9	20.7	0.00e+00	0	33	0	137363456	52	6368
2026-01-06 17:35:40.28	21.40	8.01	-39.6	-40.8	20.6	0.00e+00	0	33	0	139460608	52	6308
2026-01-06 17:35:41.29	21.29	8.07	-39.6	-40.8	20.7	0.00e+00	0	33	0	141557760	52	6274
2026-01-06 17:35:42.30	21.19	8.13	-39.5	-40.7	20.7	0.00e+00	0	33	0	143654912	52	6236
2026-01-06 17:35:43.31	21.08	8.20	-39.9	-41.1	20.4	0.00e+00	0	33	0	144703488	52	6533
2026-01-06 17:35:44.32	20.97	8.26	-39.8	-41.1	20.4	0.00e+00	0	33	0	146800640	52	6468
2026-01-06 17:35:45.33	20.87	8.32	-39.8	-41.1	20.6	0.00e+00	0	33	0	148897792	52	6490
2026-01-06 17:35:46.34	20.76	8.39	-40.0	-41.3	20.1	0.00e+00	0	33	0	150994944	52	6692
2026-01-06 17:35:47.35	20.65	8.45	-40.0	-41.3	20.2	0.00e+00	0	33	0	153092096	52	6680
2026-01-06 17:35:48.36	20.54	8.52	-40.0	-41.4	20.1	0.00e+00	0	33	0	154140672	52	6699
2026-01-06 17:35:49.37	20.43	8.58	-40.2	-41.5	20.0	0.00e+00	0	33	0	156237824	52	6829
2026-01-06 17:35:50.38	20.32	8.64	-40.2	-41.6	20.1	0.00e+00	0	33	0	158334976	52	6869
2026-01-06 17:35:51.38	20.21	8.71	-40.4	-41.8	19.8	0.00e+00	0	33	0	160432128	52	7024
2026-01-06 17:35:52.40	20.10	8.77	-40.0	-41.3	20.3	0.00e+00	0	33	0	162529280	52	6688
2026-01-06 17:35:53.41	19.99	8.83	-39.9	-41.2	20.4	0.00e+00	0	33	0	163577856	52	6571
2026-01-06 17:35:54.41	19.88	8.90	-40.0	-41.2	20.4	0.00e+00	0	33	0	165675008	52	6600
2026-01-06 17:35:55.42	19.77	8.96	-39.7	-41.0	20.6	0.00e+00	0	33	0	167772160	52	6405
2026-01-06 17:35:56.43	19.65	9.03	-39.5	-40.7	20.7	0.00e+00	0	33	0	169869312	52	6240
2026-01-06 17:35:57.44	19.54	9.09	-39.6	-40.8	20.8	0.00e+00	0	33	0	171966464	52	6314
2026-01-06 17:35:58.45	19.43	9.15	-39.6	-40.8	20.8	0.00e+00	0	33	0	173015040	52	6260
2026-01-06 17:35:59.46	19.31	9.22	-39.7	-40.9	20.5	0.00e+00	0	33	0	175112192	52	6380
2026-01-06 17:36:00.47	19.20	9.28	-39.8	-41.1	20.2	0.00e+00	0	33	0	177209344	52	6494
2026-01-06 17:36:01.48	19.08	9.35	-39.7	-41.0	20.6	0.00e+00	0	33	0	179306496	52	6402
2026-01-06 17:36:02.49	18.96	9.41	-39.8	-41.1	20.6	0.00e+00	0	33	0	181403648	52	6487
2026-01-06 17:36:03.49	18.85	9.47	-39.5	-40.7	20.9	0.00e+00	0	33	0	182452224	52	6202
2026-01-06 17:36:04.50	18.73	9.54	-39.5	-40.7	20.9	0.00e+00	0	33	0	184549376	52	6237
2026-01-06 17:36:05.51	18.61	9.60	-39.5	-40.7	20.8	0.00e+00	0	33	0	186646528	52	6239
2026-01-06 17:36:06.52	18.50	9.67	-39.5	-40.7	20.9	0.00e+00	0	33	0	188743680	52	6238
2026-01-06 17:36:07.53	18.38	9.73	-39.8	-41.1	20.6	0.00e+00	0	33	0	190840832	52	6490
2026-01-06 17:36:08.54	18.26	9.80	-39.6	-40.9	20.8	0.00e+00	0	33	0	192937984	52	6340
2026-01-06 17:36:09.55	18.14	9.86	-39.7	-40.9	20.7	0.00e+00	0	33	0	193986560	52	6359
2026-01-06 17:36:10.56	18.02	9.93	-39.6	-40.8	20.7	0.00e+00	0	33	0	196083712	52	6315
2026-01-06 17:36:11.57	17.90	9.99	-39.8	-41.1	20.6	0.00e+00	0	33	0	198180864	52	6487
2026-01-06 17:36:12.58	17.78	10.06	-40.1	-41.4	20.2	0.00e+00	0	33	0	200278016	52	6733
2026-01-06 17:36:13.59	17.65	10.12	-40.0	-41.3	20.4	0.00e+00	0	33	0	202375168	52	6692
2026-01-06 17:36:14.60	17.53	10.19	-39.8	-41.2	20.6	0.00e+00	0	33	0	203423744	52	6540
2026-01-06 17:36:15.61	17.41	10.25	-40.0	-41.4	20.3	0.00e+00	0	33	0	205520896	52	6709
2026-01-06 17:36:16.62	17.28	10.32	-39.8	-41.1	20.6	0.00e+00	0	33	0	207618048	52	6491
2026-01-06 17:36:17.63	17.16	10.38	-39.6	-40.8	20.8	0.00e+00	0	33	0	209715200	52	6306
2026-01-06 17:36:18.63	17.04	10.45	-39.5	-40.7	20.8	0.00e+00	0	33	0	211812352	52	6226
2026-01-06 17:36:19.64	16.91	10.51	-39.5	-40.7	20.9	0.00e+00	0	33	0	212860928	52	6221
2026-01-06 17:36:20.65	16.78	10.58	-39.6	-40.8	20.8	0.00e+00	0	33	0	214958080	52	6312
2026-01-06 17:36:21.66	16.66	10.64	-39.5	-40.7	21.0	0.00e+00	0	33	0	217055232	52	6211
2026-01-06 17:36:22.67	16.53	10.71	-39.5	-40.8	20.9	0.00e+00	0	33	0	219152384	52	6259
2026-01-06 17:36:23.68	16.40	10.77	-39.6	-40.9	20.9	0.00e+00	0	33	0	221249536	52	6324
2026-01-06 17:36:24.69	16.28	10.84	-39.5	-40.7	21.0	0.00e+00	0	33	0	222298112	52	6207
2026-01-06 17:36:25.70	16.15	10.90	-39.1	-40.2	21.4	0.00e+00	0	33	0	224395264	52	5887
2026-01-06 17:36:26.71	16.02	10.97	-39.0	-40.2	21.4	0.00e+00	0	33	0	226492416	52	5838
2026-01-06 17:36:27.72	15.89	11.03	-38.9	-40.0	21.5	0.00e+00	0	33	0	228589568	52	5700
2026-01-06 17:36:28.73	15.76	11.10	-38.7	-39.7	21.7	0.00e+00	0	33	0	230686720	50	6241
2026-01-06 17:36:29.74	15.62	11.16	-38.8	-39.9	21.7	0.00e+00	0	33	0	231735296	50	6326
2026-01-06 17:36:30.75	15.49	11.23	-38.7	-39.8	21.8	0.00e+00	0	33	0	233832448	50	6278
2026-01-06 17:36:31.76	15.36	11.30	-38.6	-39.7	21.8	0.00e+00	0	33	0	235929600	50	6225
2026-01-06 17:36:32.77	15.23	11.36	-38.6	-39.6	21.9	0.00e+00	0	33	0	238026752	50	6153
2026-01-06 17:36:33.77	15.09	11.43	-38.5	-39.6	21.9	0.00e+00	0	33	0	240123904	50	6141
2026-01-06 17:36:34.78	14.96	11.49	-38.7	-39.8	21.7	0.00e+00	0	33	0	241172480	50	6260
2026-01-06 17:36:35.80	14.82	11.56	-38.6	-39.7	21.8	0.00e+00	0	33	0	243269632	50	6232
2026-01-06 17:36:36.81	14.69	11.62	-38.8	-39.8	21.8	0.00e+00	0	33	0	245366784	50	6311
2026-01-06 17:36:37.82	14.55	11.69	-38.7	-39.9	21.7	0.00e+00	0	33	0	247463936	50	6320
2026-01-06 17:36:38.83	14.42	11.75	-38.6	-39.6	21.8	0.00e+00	0	33	0	249561088	50	6168
2026-01-06 17:36:39.83	14.28	11.82	-38.6	-39.7	21.9	0.00e+00	0	33	0	250609664	50	6186
2026-01-06 17:36:40.84	14.14	11.89	-38.6	-39.7	21.8	0.00e+00	0	33	0	252706816	50	6231
2026-01-06 17:36:41.85	14.00	11.95	-38.8	-39.9	21.7	0.00e+00	0	33	0	254803968	50	6360
2026-01-06 17:36:42.86	13.86	12.02	-39.0	-40.2	21.5	0.00e+00	0	33	0	256901120	50	6554
2026-01-06 17:36:43.87	13.72	12.08	-39.2	-40.4	21.3	0.00e+00	0	33	0	258998272	50	6714
2026-01-06 17:36:44.88	13.58	12.15	-39.4	-40.6	21.0	0.00e+00	0	33	0	261095424	50	6918
2026-01-06 17:36:45.89	13.44	12.21	-39.3	-40.5	21.1	0.00e+00	0	33	0	262144000	50	6821
2026-01-06 17:36:46.90	13.30	12.28	-39.4	-40.6	21.0	0.00e+00	0	33	0	264241152	50	6920
2026-01-06 17:36:47.91	13.16	12.35	-39.1	-40.3	21.3	0.00e+00	0	33	0	266338304	50	6640
2026-01-06 17:36:48.92	13.01	12.41	-39.2	-40.4	21.3	0.00e+00	0	33	0	268435456	50	6696
2026-01-06 17:36:49.93	12.87	12.48	-39.0	-40.2	21.2	0.00e+00	0	33	0	270532608	50	6550
2026-01-06 17:36:50.93	12.73	12.54	-39.0	-40.2	20.9	0.00e+00	0	33	0	271581184	50	6540
2026-01-06 17:36:51.94	12.58	12.61	-39.1	-40.2	21.3	0.00e+00	0	33	0	273678336	50	6600
2026-01-06 17:36:52.95	12.44	12.67	-39.0	-40.2	21.4	0.00e+00	0	33	0	275775488	50	6545
2026-01-06 17:36:53.96	12.29	12.74	-38.9	-40.0	21.5	0.00e+00	0	33	0	277872640	50	6454
2026-01-06 17:36:54.97	12.14	12.80	-38.8	-39.9	21.6	0.00e+00	0	33	0	278921216	50	6379
2026-01-06 17:36:55.98	11.99	12.87	-38.6	-39.7	21.8	0.00e+00	0	33	0	281018368	50	6202
2026-01-06 17:36:56.99	11.85	12.94	-38.8	-39.9	21.7	0.00e+00	0	33	0	283115520	50	6333
2026-01-06 17:36:58.00	11.70	13.00	-38.6	-39.6	22.1	0.00e+00	0	33	0	285212672	50	6168
2026-01-06 17:36:59.01	11.55	13.07	-38.5	-39.5	22.1	0.00e+00	0	33	0	287309824	50	6086
2026-01-06 17:37:00.01	11.40	13.13	-38.4	-39.4	22.1	0.00e+00	0	33	0	289406976	50	6012
2026-01-06 17:37:01.02	11.25	13.20	-38.4	-39.5	22.1	0.00e+00	0	33	0	290455552	50	6042
2026-01-06 17:37:02.03	11.10	13.26	-38.4	-39.5	22.0	0.00e+00	0	33	0	292552704	50	6058
2026-01-06 17:37:03.04	10.94	13.33	-38.6	-39.7	21.9	0.00e+00	0	33	0	294649856	50	6219
2026-01-06 17:37:04.05	10.79	13.39	-38.5	-39.6	21.9	0.00e+00	0	33	0	296747008	50	6142
2026-01-06 17:37:05.06	10.64	13.46	-38.6	-39.7	21.9	0.00e+00	0	33	0	298844160	50	6202
2026-01-06 17:37:06.07	10.48	13.53	-38.8	-39.9	21.7	0.00e+00	0	33	0	299892736	50	6336
2026-01-06 17:37:07.08	10.33	13.59	-38.8	-39.9	21.7	0.00e+00	0	33	0	301989888	50	6327
2026-01-06 17:37:08.09	10.17	13.66	-38.8	-39.9	21.7	0.00e+00	0	33	0	304087040	50	6387
2026-01-06 17:37:09.10	10.01	13.72	-39.0	-40.2	21.5	0.00e+00	0	33	0	306184192	50	6547
2026-01-06 17:37:10.11	9.85	13.79	-38.9	-40.0	21.5	0.00e+00	0	33	0	308281344	50	6461
2026-01-06 17:37:11.11	9.70	13.85	-39.1	-40.3	21.4	0.00e+00	0	33	0	309329920	50	6627
2026-01-06 17:37:12.12	9.54	13.92	-39.3	-40.5	21.3	0.00e+00	0	33	0	311427072	50	6817
2026-01-06 17:37:13.13	9.38	13.98	-39.2	-40.4	21.3	0.00e+00	0	33	0	313524224	50	6709
2026-01-06 17:37:14.14	9.22	14.05	-39.4	-40.6	21.0	0.00e+00	0	33	0	315621376	50	6893
2026-01-06 17:37:15.15	9.06	14.11	-39.0	-40.2	21.5	0.00e+00	0	33	0	317718528	50	6541
2026-01-06 17:37:16.15	8.90	14.18	-38.9	-40.0	21.6	0.00e+00	0	33	0	318767104	50	6455
2026-01-06 17:37:17.16	8.74	14.24	-39.0	-40.1	21.6	0.00e+00	0	33	0	320864256	50	6504
2026-01-06 17:37:18.17	8.57	14.31	-38.9	-39.9	21.6	0.00e+00	0	33	0	322961408	50	6370
2026-01-06 17:37:19.18	8.41	14.37	-38.9	-40.0	21.6	0.00e+00	0	33	0	325058560	50	6462
2026-01-06 17:37:20.18	8.25	14.43	-39.1	-40.3	21.4	0.00e+00	0	33	0	327155712	50	6646
2026-01-06 17:37:21.19	8.08	14.50	-39.3	-40.4	21.4	0.00e+00	0	33	0	328204288	50	6735
2026-01-06 17:37:22.20	7.91	14.56	-39.4	-40.6	21.2	0.00e+00	0	33	0	330301440	50	6884
2026-01-06 17:37:23.21	7.75	14.63	-39.3	-40.5	21.0	0.00e+00	0	33	0	332398592	50	6822
2026-01-06 17:37:24.22	7.58	14.69	-39.6	-40.9	20.9	0.00e+00	0	33	0	334495744	50	7112
2026-01-06 17:37:25.23	7.41	14.76	-39.3	-40.5	21.3	0.00e+00	0	33	0	336592896	50	6771
2026-01-06 17:37:26.24	7.24	14.82	-39.0	-40.1	21.6	0.00e+00	0	33	0	337641472	50	6535
2026-01-06 17:37:27.25	7.07	14.89	-38.7	-39.8	21.9	0.00e+00	0	33	0	339738624	50	6284
2026-01-06 17:37:28.26	6.90	14.95	-38.7	-39.8	21.8	0.00e+00	0	33	0	341835776	50	6292
2026-01-06 17:37:29.27	6.73	15.01	-38.9	-40.0	21.6	0.00e+00	0	33	0	343932928	50	6417
2026-01-06 17:37:30.28	6.56	15.08	-38.9	-40.0	21.5	0.00e+00	0	33	0	346030080	50	6404
2026-01-06 17:37:31.29	6.38	15.14	-39.2	-40.3	21.3	0.00e+00	0	33	0	347078656	50	6672
2026-01-06 17:37:32.29	6.21	15.20	-39.1	-40.2	21.5	0.00e+00	0	33	0	349175808	50	6586
2026-01-06 17:37:33.30	6.04	15.27	-38.9	-40.0	21.7	0.00e+00	0	33	0	351272960	50	6459
2026-01-06 17:37:34.31	5.86	15.33	-39.0	-40.1	21.5	0.00e+00	0	33	0	353370112	50	6520
2026-01-06 17:37:35.32	5.69	15.40	-39.2	-40.3	21.4	0.00e+00	0	33	0	355467264	50	6648
2026-01-06 17:37:36.33	5.51	15.46	-39.0	-40.1	21.5	0.00e+00	0	33	0	357564416	50	6535
2026-01-06 17:37:37.34	5.33	15.52	-39.1	-40.3	21.6	0.00e+00	0	33	0	358612992	50	6623
2026-01-06 17:37:38.35	5.16	15.59	-39.0	-40.1	21.4	0.00e+00	0	33	0	360710144	50	6511
2026-01-06 17:37:39.36	4.98	15.65	-39.5	-40.7	21.1	0.00e+00	0	33	0	362807296	50	6985
2026-01-06 17:37:40.37	4.80	15.71	-39.6	-40.9	20.9	0.00e+00	0	33	0	364904448	50	7121
2026-01-06 17:37:41.38	4.62	15.77	-39.9	-41.2	20.7	0.00e+00	0	33	0	367001600	52	6543
2026-01-06 17:37:42.39	4.44	15.84	-39.7	-41.0	20.9	0.00e+00	0	33	0	368050176	52	6402
2026-01-06 17:37:43.40	4.25	15.90	-39.5	-40.7	21.2	0.00e+00	0	33	0	370147328	52	6209
2026-01-06 17:37:44.41	4.07	15.96	-39.2	-40.3	21.3	0.00e+00	0	33	0	372244480	52	5944
2026-01-06 17:37:45.42	3.89	16.02	-38.7	-39.8	21.7	0.00e+00	0	33	0	374341632	52	5626
2026-01-06 17:37:46.43	3.70	16.09	-38.8	-40.0	21.6	0.00e+00	0	33	0	376438784	50	6399
2026-01-06 17:37:47.43	3.52	16.15	-38.7	-39.9	22.0	0.00e+00	0	33	0	377487360	50	6318
2026-01-06 17:37:48.45	3.33	16.21	-38.5	-39.5	22.0	0.00e+00	0	33	0	379584512	50	6101
2026-01-06 17:37:49.45	3.15	16.27	-38.6	-39.7	21.9	0.00e+00	0	33	0	381681664	50	6228
2026-01-06 17:37:50.46	2.96	16.33	-38.4	-39.5	22.1	0.00e+00	0	33	0	383778816	50	6076
2026-01-06 17:37:51.47	2.77	16.39	-38.4	-39.4	22.2	0.00e+00	0	33	0	385875968	50	6029
2026-01-06 17:37:52.48	2.58	16.45	-37.9	-38.9	22.7	0.00e+00	0	33	0	386924544	50	5631
2026-01-06 17:37:53.49	2.39	16.51	-37.7	-38.6	22.9	0.00e+00	0	33	0	389021696	48	6168
2026-01-06 17:37:54.50	2.20	16.58	-37.5	-38.5	23.1	0.00e+00	0	33	0	391118848	48	6052
2026-01-06 17:37:55.51	2.01	16.64	-37.6	-38.5	22.9	0.00e+00	0	33	0	393216000	48	6089
2026-01-06 17:37:56.52	1.82	16.70	-37.5	-38.5	22.9	0.00e+00	0	33	0	395313152	48	6068
2026-01-06 17:37:57.53	1.63	16.76	-37.7	-38.6	22.9	0.00e+00	0	33	0	396361728	48	6157
2026-01-06 17:37:58.54	1.43	16.82	-37.7	-38.7	22.8	0.00e+00	0	33	0	398458880	48	6215
2026-01-06 17:37:59.55	1.24	16.88	-37.7	-38.7	22.7	0.00e+00	0	33	0	400556032	48	6187
2026-01-06 17:38:00.55	1.04	16.94	-37.5	-38.5	23.0	0.00e+00	0	33	0	402653184	48	6045
2026-01-06 17:38:01.56	0.85	17.00	-37.3	-38.2	23.1	0.00e+00	0	33	0	404750336	48	5891
2026-01-06 17:38:02.57	0.65	17.05	-37.1	-38.0	23.3	0.00e+00	0	33	0	405798912	48	5728
2026-01-06 17:38:03.58	0.45	17.11	-37.1	-38.0	23.4	0.00e+00	0	33	0	407896064	48	5744
2026-01-06 17:38:04.59	0.25	17.17	-37.1	-38.0	23.3	0.00e+00	0	33	0	409993216	48	5729
2026-01-06 17:38:05.60	0.06	17.23	-37.0	-37.9	23.5	0.00e+00	0	33	0	412090368	48	5672
2026-01-06 17:38:06.61	359.86	17.29	-37.1	-38.0	23.4	0.00e+00	0	33	0	414187520	48	5733
2026-01-06 17:38:07.62	359.65	17.35	-37.4	-38.3	23.3	0.00e+00	0	33	0	415236096	48	5963
2026-01-06 17:38:08.63	359.45	17.41	-37.2	-38.2	23.4	0.00e+00	0	33	0	417333248	48	5831
2026-01-06 17:38:09.64	359.25	17.46	-37.1	-38.0	23.4	0.00e+00	0	33	0	419430400	48	5735
2026-01-06 17:38:10.65	359.05	17.52	-36.9	-37.8	23.5	0.00e+00	0	33	0	421527552	48	5584
2026-01-06 17:38:11.65	358.85	17.58	-36.8	-37.8	23.6	0.00e+00	0	33	0	423624704	48	5568
2026-01-06 17:38:12.66	358.64	17.63	-36.7	-37.6	23.7	0.00e+00	0	33	0	424673280	46	6132
2026-01-06 17:38:13.67	358.44	17.69	-36.8	-37.7	23.5	0.00e+00	0	33	0	426770432	46	6239
2026-01-06 17:38:14.68	358.23	17.75	-36.9	-37.8	23.5	0.00e+00	0	33	0	428867584	46	6269
2026-01-06 17:38:15.69	358.02	17.80	-36.8	-37.7	23.6	0.00e+00	0	33	0	430964736	46	6227
2026-01-06 17:38:16.70	357.81	17.86	-36.6	-37.5	23.7	0.00e+00	0	33	0	433061888	46	6081
2026-01-06 17:38:17.71	357.61	17.92	-36.6	-37.5	23.9	0.00e+00	0	33	0	434110464	46	6080
2026-01-06 17:38:18.72	357.40	17.97	-36.2	-37.0	24.0	0.00e+00	0	33	0	436207616	46	5725
2026-01-06 17:38:19.73	357.19	18.03	-36.2	-37.1	24.1	0.00e+00	0	33	0	438304768	46	5797
2026-01-06 17:38:20.74	356.98	18.08	-36.5	-37.4	23.9	0.00e+00	0	33	0	440401920	46	5972
2026-01-06 17:38:21.75	356.76	18.14	-36.6	-37.5	23.9	0.00e+00	0	33	0	442499072	46	6037
2026-01-06 17:38:22.76	356.55	18.19	-36.7	-37.6	23.7	0.00e+00	0	33	0	443547648	46	6170
2026-01-06 17:38:23.77	356.34	18.24	-37.0	-37.9	23.4	0.00e+00	0	33	0	445644800	46	6382
2026-01-06 17:38:24.78	356.12	18.30	-37.2	-38.1	23.4	0.00e+00	0	33	0	447741952	46	6505
2026-01-06 17:38:25.79	355.91	18.35	-37.0	-37.9	23.4	0.00e+00	0	33	0	449839104	46	6382
2026-01-06 17:38:26.80	355.69	18.41	-36.9	-37.8	23.0	0.00e+00	0	33	0	451936256	46	6279
2026-01-06 17:38:27.81	355.48	18.46	-36.8	-37.8	23.5	0.00e+00	0	33	0	454033408	46	6251
2026-01-06 17:38:28.82	355.26	18.51	-36.8	-37.7	23.6	0.00e+00	0	33	0	455081984	46	6195
2026-01-06 17:38:29.83	355.04	18.56	-37.3	-38.2	23.3	0.00e+00	0	33	0	457179136	46	6577
2026-01-06 17:38:30.84	354.82	18.61	-37.4	-38.3	23.2	0.00e+00	0	33	0	459276288	46	6677
2026-01-06 17:38:31.85	354.60	18.67	-37.6	-38.6	22.9	0.00e+00	0	33	0	461373440	46	6888
2026-01-06 17:38:32.86	354.38	18.72	-37.3	-38.2	23.2	0.00e+00	0	33	0	463470592	48	5875
2026-01-06 17:38:33.87	354.16	18.77	-37.0	-38.0	23.5	0.00e+00	0	33	0	464519168	48	5715
2026-01-06 17:38:34.87	353.94	18.82	-36.8	-37.7	23.7	0.00e+00	0	33	0	466616320	46	6195
2026-01-06 17:38:35.89	353.72	18.87	-36.7	-37.6	23.7	0.00e+00	0	33	0	468713472	46	6133
2026-01-06 17:38:36.89	353.50	18.92	-36.7	-37.6	23.7	0.00e+00	0	33	0	470810624	46	6130
2026-01-06 17:38:37.91	353.27	18.97	-36.6	-37.5	23.8	0.00e+00	0	33	0	472907776	46	6076
2026-01-06 17:38:38.91	353.05	19.02	-36.7	-37.6	23.6	0.00e+00	0	33	0	473956352	46	6135
2026-01-06 17:38:39.92	352.82	19.07	-36.4	-37.3	23.9	0.00e+00	0	33	0	476053504	46	5923
2026-01-06 17:38:40.93	352.60	19.11	-36.2	-37.0	24.2	0.00e+00	0	33	0	478150656	46	5732
2026-01-06 17:38:41.94	352.37	19.16	-35.9	-36.7	24.4	0.00e+00	0	33	0	480247808	46	5532
2026-01-06 17:38:42.95	352.14	19.21	-35.6	-36.4	24.5	0.00e+00	0	33	0	482344960	44	6005
2026-01-06 17:38:43.96	351.92	19.26	-35.3	-36.0	24.8	0.00e+00	0	33	0	483393536	44	5752
2026-01-06 17:38:44.97	351.69	19.30	-35.5	-36.3	24.6	0.00e+00	0	33	0	485490688	44	5958
2026-01-06 17:38:45.98	351.46	19.35	-35.7	-36.5	24.5	0.00e+00	0	33	0	487587840	44	6088
2026-01-06 17:38:46.99	351.23	19.40	-35.9	-36.7	24.3	0.00e+00	0	33	0	489684992	44	6222
2026-01-06 17:38:48.00	351.00	19.44	-36.2	-37.0	24.1	0.00e+00	0	33	0	491782144	44	6450
2026-01-06 17:38:49.00	350.77	19.49	-36.1	-37.0	24.2	0.00e+00	0	33	0	492830720	44	6398
2026-01-06 17:38:50.01	350.53	19.53	-36.2	-37.0	24.2	0.00e+00	0	33	0	494927872	44	6449
2026-01-06 17:38:51.02	350.30	19.58	-35.9	-36.8	24.0	0.00e+00	0	33	0	497025024	44	6268
2026-01-06 17:38:52.03	350.07	19.62	-35.9	-36.7	24.3	0.00e+00	0	33	0	499122176	44	6243
2026-01-06 17:38:53.04	349.83	19.66	-36.0	-36.8	24.3	0.00e+00	0	33	0	501219328	44	6270
2026-01-06 17:38:54.05	349.60	19.71	-36.2	-37.1	24.1	0.00e+00	0	33	0	502267904	44	6468
2026-01-06 17:38:55.06	349.36	19.75	-36.4	-37.3	23.9	0.00e+00	0	33	0	504365056	44	6655
2026-01-06 17:38:56.07	349.13	19.79	-36.4	-37.3	24.0	0.00e+00	0	33	0	506462208	44	6631
2026-01-06 17:38:57.08	348.89	19.84	-36.5	-37.4	23.9	0.00e+00	0	33	0	508559360	44	6704
2026-01-06 17:38:58.09	348.65	19.88	-36.3	-37.2	23.8	0.00e+00	0	33	0	510656512	44	6565
2026-01-06 17:38:59.10	348.41	19.92	-36.3	-37.2	24.0	0.00e+00	0	33	0	511705088	44	6567
2026-01-06 17:39:00.11	348.17	19.96	-36.3	-37.1	24.1	0.00e+00	0	33	0	513802240	44	6516
2026-01-06 17:39:01.12	347.93	20.00	-36.4	-37.3	23.9	0.00e+00	0	33	0	515899392	44	6654
2026-01-06 17:39:02.13	347.69	20.04	-36.4	-37.2	23.1	0.00e+00	0	33	0	517996544	44	6611
2026-01-06 17:39:03.14	347.45	20.08	-36.4	-37.3	23.8	0.00e+00	0	33	0	520093696	44	6633
2026-01-06 17:39:04.15	347.21	20.12	-36.4	-37.3	24.1	0.00e+00	0	33	0	522190848	44	6658
2026-01-06 17:39:05.15	346.97	20.15	-36.0	-36.9	24.2	0.00e+00	0	33	0	523239424	44	6327
2026-01-06 17:39:06.16	346.73	20.19	-35.9	-36.7	24.3	0.00e+00	0	33	0	525336576	44	6230
2026-01-06 17:39:07.17	346.48	20.23	-35.6	-36.4	24.5	0.00e+00	0	33	0	527433728	44	6024
2026-01-06 17:39:08.18	346.24	20.27	-35.5	-36.3	24.7	0.00e+00	0	33	0	529530880	44	5944
2026-01-06 17:39:09.19	346.00	20.30	-35.6	-36.4	24.5	0.00e+00	0	33	0	531628032	44	6018
2026-01-06 17:39:10.20	345.75	20.34	-35.9	-36.7	24.3	0.00e+00	0	33	0	532676608	44	6227
2026-01-06 17:39:11.21	345.50	20.37	-35.9	-36.7	24.4	0.00e+00	0	33	0	534773760	44	6198
2026-01-06 17:39:12.22	345.26	20.41	-35.8	-36.7	24.4	0.00e+00	0	33	0	536870912	44	6176
2026-01-06 17:39:13.23	345.01	20.44	-35.5	-36.3	24.3	0.00e+00	0	33	0	538968064	44	5954
2026-01-06 17:39:14.23	344.77	20.47	-35.6	-36.4	24.6	0.00e+00	0	33	0	541065216	44	5981
2026-01-06 17:39:15.24	344.52	20.51	-35.5	-36.3	24.6	0.00e+00	0	33	0	542113792	44	5959
2026-01-06 17:39:16.25	344.27	20.54	-35.6	-36.4	24.5	0.00e+00	0	34	0	544210944	44	6029
2026-01-06 17:39:17.26	344.02	20.57	-36.1	-36.9	24.3	0.00e+00	0	33	0	546308096	44	6369
2026-01-06 17:39:18.27	343.77	20.60	-36.3	-37.2	24.1	0.00e+00	0	33	0	548405248	44	6545
2026-01-06 17:39:19.27	343.52	20.63	-36.7	-37.6	23.8	0.00e+00	0	33	0	550502400	44	6863
2026-01-06 17:39:20.28	343.27	20.67	-36.8	-37.7	23.7	0.00e+00	0	33	0	551550976	46	6232
2026-01-06 17:39:21.29	343.02	20.70	-37.1	-38.0	23.5	0.00e+00	0	33	0	553648128	46	6452
2026-01-06 17:39:22.30	342.77	20.72	-37.3	-38.2	23.4	0.00e+00	0	33	0	555745280	46	6571
2026-01-06 17:39:23.31	342.52	20.75	-37.1	-38.1	23.2	0.00e+00	0	33	0	557842432	46	6465
2026-01-06 17:39:24.31	342.27	20.78	-37.2	-38.1	23.4	0.00e+00	0	33	0	559939584	46	6521
2026-01-06 17:39:25.32	342.01	20.81	-37.3	-38.2	23.2	0.00e+00	0	33	0	560988160	46	6608
2026-01-06 17:39:26.33	341.76	20.84	-37.9	-38.9	22.7	0.00e+00	0	33	0	563085312	48	6335
2026-01-06 17:39:27.34	341.51	20.86	-38.4	-39.4	22.3	0.00e+00	0	33	0	565182464	48	6767
2026-01-06 17:39:28.35	341.25	20.89	-38.7	-39.8	22.1	0.00e+00	0	33	0	567279616	48	7050
2026-01-06 17:39:29.36	341.00	20.92	-38.6	-39.7	22.2	0.00e+00	0	33	0	569376768	48	6929
2026-01-06 17:39:30.37	340.74	20.94	-38.2	-39.2	22.5	0.00e+00	0	33	0	570425344	48	6595
2026-01-06 17:39:31.38	340.49	20.96	-37.6	-38.6	22.9	0.00e+00	0	33	0	572522496	48	6144
2026-01-06 17:39:32.39	340.23	20.99	-37.4	-38.4	23.2	0.00e+00	0	33	0	574619648	48	5983
2026-01-06 17:39:33.40	339.97	21.01	-37.1	-38.1	23.4	0.00e+00	0	33	0	576716800	48	5769
2026-01-06 17:39:34.41	339.72	21.03	-37.3	-38.2	23.2	0.00e+00	0	33	0	578813952	48	5860
2026-01-06 17:39:35.42	339.46	21.06	-37.3	-38.3	23.2	0.00e+00	0	33	0	579862528	48	5918
2026-01-06 17:39:36.43	339.20	21.08	-37.6	-38.6	22.9	0.00e+00	0	33	0	581959680	48	6143
2026-01-06 17:39:37.44	338.95	21.10	-38.2	-39.2	22.5	0.00e+00	0	33	0	584056832	48	6577
2026-01-06 17:39:38.45	338.69	21.12	-38.3	-39.4	22.3	0.00e+00	0	33	0	586153984	48	6743
2026-01-06 17:39:39.46	338.43	21.14	-38.7	-39.8	22.1	0.00e+00	0	33	0	588251136	48	7034
2026-01-06 17:39:40.47	338.17	21.16	-38.5	-39.6	22.2	0.00e+00	0	33	0	589299712	48	6898
2026-01-06 17:39:41.48	337.91	21.18	-38.1	-39.1	22.7	0.00e+00	0	33	0	591396864	48	6499
2026-01-06 17:39:42.49	337.65	21.19	-37.8	-38.8	22.9	0.00e+00	0	33	0	593494016	48	6286
2026-01-06 17:39:43.49	337.39	21.21	-37.4	-38.3	23.2	0.00e+00	0	34	0	595591168	48	5947
2026-01-06 17:39:44.50	337.13	21.23	-37.5	-38.5	22.8	0.00e+00	0	34	0	597688320	48	6037
2026-01-06 17:39:45.51	336.87	21.24	-37.8	-38.8	22.6	0.00e+00	0	34	0	598736896	48	6302
2026-01-06 17:39:46.51	336.61	21.26	-38.2	-39.3	22.3	0.00e+00	0	33	0	600834048	48	6654
2026-01-06 17:39:47.52	336.35	21.27	-38.5	-39.5	22.2	0.00e+00	0	33	0	602931200	48	6831
2026-01-06 17:39:48.53	336.09	21.29	-37.9	-38.9	22.7	0.00e+00	0	33	0	605028352	48	6352
2026-01-06 17:39:49.54	335.83	21.30	-37.6	-38.6	22.9	0.00e+00	0	33	0	607125504	48	6116
2026-01-06 17:39:50.55	335.57	21.31	-37.4	-38.4	23.1	0.00e+00	0	33	0	608174080	48	5981
2026-01-06 17:39:51.56	335.31	21.33	-37.3	-38.3	23.2	0.00e+00	0	33	0	610271232	48	5916
2026-01-06 17:39:52.57	335.05	21.34	-37.1	-38.0	23.4	0.00e+00	0	33	0	612368384	48	5723
2026-01-06 17:39:53.58	334.78	21.35	-37.2	-38.1	23.2	0.00e+00	0	33	0	614465536	48	5792
2026-01-06 17:39:54.59	334.52	21.36	-37.6	-38.6	22.9	0.00e+00	0	33	0	616562688	48	6120
2026-01-06 17:39:55.59	334.26	21.37	-37.9	-38.9	22.7	0.00e+00	0	33	0	618659840	48	6335
2026-01-06 17:39:56.60	334.00	21.38	-38.3	-39.3	22.3	0.00e+00	0	33	0	619708416	48	6652
2026-01-06 17:39:57.62	333.73	21.38	-38.5	-39.6	22.2	0.00e+00	0	33	0	621805568	48	6872
2026-01-06 17:39:58.62	333.47	21.39	-38.4	-39.4	22.3	0.00e+00	0	33	0	623902720	48	6752
2026-01-06 17:39:59.63	333.21	21.40	-38.3	-39.3	22.3	0.00e+00	0	33	0	625999872	48	6665
2026-01-06 17:40:00.63	332.95	21.41	-38.4	-39.4	22.2	0.00e+00	0	33	0	628097024	48	6752
2026-01-06 17:40:01.64	332.68	21.41	-38.4	-39.5	22.2	0.00e+00	0	33	0	629145600	48	6788
2026-01-06 17:40:02.65	332.42	21.42	-38.4	-39.5	22.4	0.00e+00	0	33	0	631242752	48	6775
2026-01-06 17:40:03.66	332.16	21.42	-38.4	-39.5	22.1	0.00e+00	0	33	0	633339904	48	6812
2026-01-06 17:40:04.67	331.89	21.43	-38.7	-39.7	22.0	0.00e+00	0	33	0	635437056	48	7004
2026-01-06 17:40:05.68	331.63	21.43	-38.7	-39.8	22.0	0.00e+00	0	33	0	637534208	48	7057
2026-01-06 17:40:06.69	331.37	21.43	-38.6	-39.7	22.0	0.00e+00	0	33	0	638582784	48	6950
2026-01-06 17:40:07.70	331.10	21.43	-38.5	-39.6	22.2	0.00e+00	0	34	0	640679936	48	6887
2026-01-06 17:40:08.71	330.84	21.43	-37.8	-38.7	22.8	0.00e+00	0	33	0	642777088	48	6238
2026-01-06 17:40:09.72	330.57	21.44	-37.5	-38.4	23.2	0.00e+00	0	33	0	644874240	48	6011
2026-01-06 17:40:10.73	330.31	21.44	-37.4	-38.3	23.2	0.00e+00	0	33	0	646971392	48	5915
2026-01-06 17:40:11.74	330.05	21.43	-37.0	-37.9	23.5	0.00e+00	0	33	0	648019968	48	5633
2026-01-06 17:40:12.74	329.78	21.43	-36.9	-37.7	23.6	0.00e+00	0	33	0	650117120	48	5535
2026-01-06 17:40:13.75	329.52	21.43	-37.0	-37.9	23.5	0.00e+00	0	34	0	652214272	48	5676
2026-01-06 17:40:14.76	329.26	21.43	-37.1	-38.0	23.4	0.00e+00	0	34	0	654311424	48	5701
2026-01-06 17:40:15.77	328.99	21.43	-37.2	-38.1	23.3	0.00e+00	0	33	0	656408576	48	5785
2026-01-06 17:40:16.78	328.73	21.42	-37.3	-38.2	23.2	0.00e+00	0	34	0	657457152	48	5866
2026-01-06 17:40:17.79	328.47	21.42	-37.4	-38.3	23.2	0.00e+00	0	33	0	659554304	48	5949
2026-01-06 17:40:18.80	328.20	21.41	-37.5	-38.4	23.2	0.00e+00	0	33	0	661651456	48	6017
2026-01-06 17:40:19.81	327.94	21.41	-37.7	-38.7	23.0	0.00e+00	0	33	0	663748608	48	6221
2026-01-06 17:40:20.82	327.67	21.40	-37.8	-38.8	22.8	0.00e+00	0	33	0	665845760	48	6254
2026-01-06 17:40:21.83	327.41	21.39	-37.8	-38.8	22.8	0.00e+00	0	33	0	666894336	48	6250
2026-01-06 17:40:22.84	327.15	21.39	-37.9	-39.0	22.7	0.00e+00	0	33	0	668991488	48	6399
2026-01-06 17:40:23.85	326.89	21.38	-37.5	-38.5	22.4	0.00e+00	0	33	0	671088640	48	6084
2026-01-06 17:40:24.85	326.62	21.37	-37.8	-38.8	22.7	0.00e+00	0	33	0	673185792	48	6281
2026-01-06 17:40:25.86	326.36	21.36	-37.8	-38.8	22.8	0.00e+00	0	33	0	675282944	48	6287
2026-01-06 17:40:26.87	326.10	21.35	-37.7	-38.7	22.9	0.00e+00	0	33	0	676331520	48	6187
2026-01-06 17:40:27.88	325.84	21.34	-37.3	-38.3	23.3	0.00e+00	0	33	0	678428672	48	5903
2026-01-06 17:40:28.89	325.57	21.33	-36.9	-37.8	23.5	0.00e+00	0	33	0	680525824	48	5573
2026-01-06 17:40:29.90	325.31	21.31	-36.4	-37.3	24.0	0.00e+00	0	33	0	682622976	46	5899
2026-01-06 17:40:30.91	325.05	21.30	-36.4	-37.3	24.1	0.00e+00	0	33	0	684720128	46	5898
2026-01-06 17:40:31.92	324.79	21.29	-36.2	-37.1	24.1	0.00e+00	0	33	0	685768704	46	5773
2026-01-06 17:40:32.93	324.53	21.27	-36.4	-37.2	24.1	0.00e+00	0	33	0	687865856	46	5865
2026-01-06 17:40:33.93	324.27	21.26	-36.3	-37.1	24.1	0.00e+00	0	33	0	689963008	46	5803
2026-01-06 17:40:34.94	324.01	21.24	-36.0	-36.8	24.4	0.00e+00	0	33	0	692060160	46	5610
2026-01-06 17:40:35.96	323.75	21.23	-35.8	-36.6	24.5	0.00e+00	0	33	0	694157312	46	5442
2026-01-06 17:40:36.96	323.49	21.21	-35.4	-36.2	24.6	0.00e+00	0	33	0	695205888	44	5876
2026-01-06 17:40:37.97	323.23	21.19	-35.7	-36.5	24.4	0.00e+00	0	33	0	697303040	44	6079
2026-01-06 17:40:38.98	322.97	21.18	-35.9	-36.7	24.3	0.00e+00	0	33	0	699400192	44	6195
2026-01-06 17:40:39.99	322.71	21.16	-36.1	-37.0	24.3	0.00e+00	0	33	0	701497344	44	6398
2026-01-06 17:40:41.00	322.45	21.14	-36.3	-37.2	23.9	0.00e+00	0	33	0	703594496	44	6544
2026-01-06 17:40:42.01	322.19	21.12	-36.1	-36.9	24.3	0.00e+00	0	33	0	704643072	44	6390
2026-01-06 17:40:43.02	321.93	21.10	-36.4	-37.3	23.9	0.00e+00	0	33	0	706740224	44	6642
2026-01-06 17:40:44.03	321.67	21.08	-36.2	-37.1	24.0	0.00e+00	0	33	0	708837376	44	6496
2026-01-06 17:40:45.04	321.42	21.06	-36.0	-36.8	24.3	0.00e+00	0	33	0	710934528	44	6266
2026-01-06 17:40:46.05	321.16	21.04	-36.1	-37.0	24.2	0.00e+00	0	33	0	713031680	44	6414
2026-01-06 17:40:47.06	320.90	21.01	-35.8	-36.6	24.3	0.00e+00	0	33	0	715128832	44	6171
2026-01-06 17:40:48.07	320.64	20.99	-35.7	-36.5	24.5	0.00e+00	0	33	0	716177408	44	6077
2026-01-06 17:40:49.08	320.39	20.97	-35.7	-36.5	24.5	0.00e+00	0	33	0	718274560	44	6072
2026-01-06 17:40:50.09	320.13	20.94	-35.8	-36.6	24.5	0.00e+00	0	33	0	720371712	44	6172
2026-01-06 17:40:51.10	319.88	20.92	-35.7	-36.6	24.6	0.00e+00	0	33	0	722468864	44	6107
2026-01-06 17:40:52.10	319.62	20.89	-35.8	-36.7	24.3	0.00e+00	0	33	0	724566016	44	6189
2026-01-06 17:40:53.11	319.37	20.87	-36.0	-36.9	24.2	0.00e+00	0	33	0	725614592	44	6336
2026-01-06 17:40:54.12	319.12	20.84	-36.0	-36.9	24.1	0.00e+00	0	33	0	727711744	44	6341
2026-01-06 17:40:55.13	318.86	20.81	-36.0	-36.8	24.2	0.00e+00	0	33	0	729808896	44	6301
2026-01-06 17:40:56.14	318.61	20.78	-36.3	-37.1	24.2	0.00e+00	0	33	0	731906048	44	6497
2026-01-06 17:40:57.14	318.36	20.76	-36.1	-36.9	24.2	0.00e+00	0	33	0	734003200	44	6335
2026-01-06 17:40:58.15	318.11	20.73	-36.0	-36.9	24.4	0.00e+00	0	33	0	735051776	44	6332
2026-01-06 17:40:59.16	317.85	20.70	-36.0	-36.8	24.2	0.00e+00	0	33	0	737148928	44	6302
2026-01-06 17:41:00.17	317.60	20.67	-36.2	-37.0	24.2	0.00e+00	0	33	0	739246080	44	6440
2026-01-06 17:41:01.18	317.35	20.64	-36.0	-36.8	24.3	0.00e+00	0	33	0	741343232	44	6271
2026-01-06 17:41:02.19	317.10	20.61	-36.2	-37.0	24.2	0.00e+00	0	33	0	743440384	44	6414
2026-01-06 17:41:03.20	316.85	20.58	-36.2	-37.1	24.2	0.00e+00	0	33	0	744488960	44	6465
2026-01-06 17:41:04.21	316.60	20.54	-36.5	-37.3	24.0	0.00e+00	0	33	0	746586112	44	6658
2026-01-06 17:41:05.22	316.35	20.51	-36.6	-37.5	23.5	0.00e+00	0	33	0	748683264	44	6780
2026-01-06 17:41:06.23	316.11	20.48	-37.3	-38.2	23.3	0.00e+00	0	33	0	750780416	46	6562
2026-01-06 17:41:07.23	315.86	20.44	-37.4	-38.3	23.2	0.00e+00	0	33	0	752877568	46	6662
2026-01-06 17:41:08.24	315.61	20.41	-37.5	-38.5	23.1	0.00e+00	0	34	0	753926144	46	6796
2026-01-06 17:41:09.25	315.37	20.38	-37.6	-38.5	23.1	0.00e+00	0	33	0	756023296	46	6806
2026-01-06 17:41:10.26	315.12	20.34	-37.5	-38.5	23.0	0.00e+00	0	33	0	758120448	46	6796
2026-01-06 17:41:11.27	314.87	20.30	-37.3	-38.2	23.3	0.00e+00	0	33	0	760217600	46	6615
2026-01-06 17:41:12.28	314.63	20.27	-36.9	-37.8	23.7	0.00e+00	0	33	0	762314752	46	6292
2026-01-06 17:41:13.29	314.38	20.23	-37.2	-38.1	23.5	0.00e+00	0	33	0	763363328	46	6491
2026-01-06 17:41:14.30	314.14	20.19	-37.1	-38.1	23.5	0.00e+00	0	33	0	765460480	46	6466
2026-01-06 17:41:15.31	313.90	20.16	-37.3	-38.2	23.3	0.00e+00	0	33	0	767557632	46	6579
2026-01-06 17:41:16.32	313.66	20.12	-37.6	-38.6	23.0	0.00e+00	0	33	0	769654784	46	6873
2026-01-06 17:41:17.33	313.41	20.08	-38.0	-39.0	22.7	0.00e+00	0	33	0	771751936	48	6406
2026-01-06 17:41:18.34	313.17	20.04	-38.1	-39.1	22.5	0.00e+00	0	33	0	772800512	48	6532
2026-01-06 17:41:19.35	312.93	20.00	-38.4	-39.4	22.4	0.00e+00	0	33	0	774897664	48	6767
2026-01-06 17:41:20.35	312.69	19.96	-38.6	-39.7	22.1	0.00e+00	0	33	0	776994816	48	6937
2026-01-06 17:41:21.36	312.45	19.92	-38.7	-39.8	22.0	0.00e+00	0	33	0	779091968	48	7028
2026-01-06 17:41:22.37	312.22	19.88	-38.6	-39.6	22.2	0.00e+00	0	33	0	781189120	50	6155
2026-01-06 17:41:23.38	311.98	19.84	-38.8	-39.8	22.0	0.00e+00	0	33	0	783286272	50	6301
2026-01-06 17:41:24.39	311.74	19.80	-38.8	-39.9	22.0	0.00e+00	0	33	0	784334848	50	6341
2026-01-06 17:41:25.40	311.50	19.75	-38.4	-39.5	22.3	0.00e+00	0	33	0	786432000	50	6038
2026-01-06 17:41:26.41	311.27	19.71	-38.4	-39.4	22.4	0.00e+00	0	33	0	788529152	50	6009
2026-01-06 17:41:27.42	311.03	19.67	-38.1	-39.0	22.6	0.00e+00	0	33	0	790626304	50	5753
2026-01-06 17:41:28.43	310.80	19.62	-37.7	-38.6	23.1	0.00e+00	0	33	0	792723456	50	5461
2026-01-06 17:41:29.44	310.56	19.58	-37.5	-38.5	23.1	0.00e+00	0	33	0	793772032	48	6043
2026-01-06 17:41:30.45	310.33	19.54	-37.7	-38.6	22.9	0.00e+00	0	33	0	795869184	48	6158
2026-01-06 17:41:31.46	310.10	19.49	-37.7	-38.7	22.9	0.00e+00	0	33	0	797966336	48	6195
2026-01-06 17:41:32.47	309.86	19.45	-38.0	-39.0	22.7	0.00e+00	0	33	0	800063488	48	6446
2026-01-06 17:41:33.47	309.63	19.40	-37.8	-38.8	22.8	0.00e+00	0	33	0	802160640	48	6269
2026-01-06 17:41:34.48	309.40	19.35	-37.8	-38.8	22.9	0.00e+00	0	33	0	803209216	48	6260
2026-01-06 17:41:35.49	309.17	19.31	-37.3	-38.2	23.3	0.00e+00	0	33	0	805306368	48	5852
2026-01-06 17:41:36.50	308.94	19.26	-37.2	-38.1	23.5	0.00e+00	0	33	0	807403520	48	5783
2026-01-06 17:41:37.51	308.72	19.21	-37.1	-38.0	23.6	0.00e+00	0	33	0	809500672	48	5711
2026-01-06 17:41:38.52	308.49	19.17	-37.0	-37.8	23.2	0.00e+00	0	33	0	811597824	48	5623
2026-01-06 17:41:39.53	308.26	19.12	-36.6	-37.4	23.8	0.00e+00	0	33	0	812646400	46	6019
2026-01-06 17:41:40.54	308.03	19.07	-36.3	-37.1	24.0	0.00e+00	0	33	0	814743552	46	5805
2026-01-06 17:41:41.55	307.81	19.02	-36.3	-37.1	24.2	0.00e+00	0	33	0	816840704	46	5798
2026-01-06 17:41:42.56	307.58	18.97	-36.1	-36.9	24.2	0.00e+00	0	33	0	818937856	46	5659
2026-01-06 17:41:43.57	307.36	18.92	-36.2	-37.0	24.2	0.00e+00	0	33	0	821035008	46	5703
2026-01-06 17:41:44.58	307.13	18.87	-36.2	-37.0	24.1	0.00e+00	0	33	0	822083584	46	5757
2026-01-06 17:41:45.59	306.91	18.82	-36.3	-37.1	24.2	0.00e+00	0	33	0	824180736	46	5819
2026-01-06 17:41:46.60	306.69	18.77	-36.5	-37.3	23.8	0.00e+00	0	33	0	826277888	46	5964
2026-01-06 17:41:47.61	306.47	18.72	-36.8	-37.6	23.7	0.00e+00	0	33	0	828375040	46	6152
2026-01-06 17:41:48.61	306.25	18.67	-37.0	-37.9	23.5	0.00e+00	0	33	0	830472192	46	6362
2026-01-06 17:41:49.62	306.03	18.62	-37.7	-38.6	23.0	0.00e+00	0	33	0	831520768	46	6876
2026-01-06 17:41:50.64	305.81	18.56	-38.3	-39.3	22.3	0.00e+00	0	33	0	833617920	48	6635
2026-01-06 17:41:51.65	305.59	18.51	-38.4	-39.4	22.3	0.00e+00	0	33	0	835715072	48	6745
2026-01-06 17:41:52.66	305.37	18.46	-38.9	-40.0	21.9	0.00e+00	0	33	0	837812224	50	6411
2026-01-06 17:41:53.66	305.16	18.41	-38.9	-40.0	21.8	0.00e+00	0	33	0	839909376	50	6402
2026-01-06 17:41:54.67	304.94	18.35	-39.0	-40.1	21.8	0.00e+00	0	33	0	840957952	50	6476
2026-01-06 17:41:55.68	304.73	18.30	-39.0	-40.2	21.8	0.00e+00	0	33	0	843055104	50	6540
2026-01-06 17:41:56.69	304.51	18.25	-38.9	-40.0	21.9	0.00e+00	0	33	0	845152256	50	6427
2026-01-06 17:41:57.70	304.30	18.19	-39.4	-40.6	21.4	0.00e+00	0	33	0	847249408	50	6850
2026-01-06 17:41:58.71	304.09	18.14	-39.7	-40.9	21.1	0.00e+00	0	33	0	849346560	50	7122
2026-01-06 17:41:59.72	303.87	18.08	-40.0	-41.3	20.7	0.00e+00	0	33	0	850395136	52	6680
2026-01-06 17:42:00.73	303.66	18.03	-40.2	-41.5	20.6	0.00e+00	0	33	0	852492288	52	6834
2026-01-06 17:42:01.74	303.45	17.97	-40.3	-41.7	20.4	0.00e+00	0	34	0	854589440	52	6944
2026-01-06 17:42:02.74	303.24	17.92	-40.0	-41.2	20.8	0.00e+00	0	33	0	856686592	52	6594
2026-01-06 17:42:03.75	303.03	17.86	-39.7	-40.9	21.1	0.00e+00	0	33	0	858783744	52	6372
2026-01-06 17:42:04.76	302.83	17.81	-39.5	-40.6	21.5	0.00e+00	0	33	0	859832320	52	6169
2026-01-06 17:42:05.77	302.62	17.75	-38.7	-39.8	22.0	0.00e+00	0	33	0	861929472	50	6270
2026-01-06 17:42:06.78	302.41	17.69	-38.6	-39.7	22.2	0.00e+00	0	33	0	864026624	50	6204
2026-01-06 17:42:07.79	302.21	17.64	-37.9	-38.8	22.8	0.00e+00	0	33	0	866123776	50	5612
2026-01-06 17:42:08.80	302.00	17.58	-37.3	-38.2	23.3	0.00e+00	0	33	0	868220928	48	5868
2026-01-06 17:42:09.81	301.80	17.52	-37.3	-38.2	23.2	0.00e+00	0	33	0	869269504	48	5877
2026-01-06 17:42:10.82	301.59	17.46	-37.2	-38.1	23.2	0.00e+00	0	33	0	871366656	48	5810
2026-01-06 17:42:11.83	301.39	17.41	-37.2	-38.1	23.3	0.00e+00	0	33	0	873463808	48	5769
2026-01-06 17:42:12.84	301.19	17.35	-36.9	-37.8	23.6	0.00e+00	0	33	0	875560960	48	5594
2026-01-06 17:42:13.85	300.99	17.29	-36.9	-37.8	23.5	0.00e+00	0	33	0	877658112	46	6251
2026-01-06 17:42:14.86	300.79	17.23	-37.3	-38.2	23.4	0.00e+00	0	33	0	879755264	46	6546
2026-01-06 17:42:15.87	300.59	17.17	-37.4	-38.3	23.3	0.00e+00	0	33	0	880803840	46	6632
2026-01-06 17:42:16.87	300.39	17.11	-37.8	-38.7	22.8	0.00e+00	0	33	0	882900992	46	6979
2026-01-06 17:42:17.88	300.19	17.06	-38.0	-38.9	22.7	0.00e+00	0	33	0	884998144	48	6387
2026-01-06 17:42:18.89	299.99	17.00	-37.9	-38.8	22.8	0.00e+00	0	33	0	887095296	48	6317
2026-01-06 17:42:19.90	299.80	16.94	-37.9	-38.8	22.9	0.00e+00	0	33	0	889192448	48	6288
2026-01-06 17:42:20.91	299.60	16.88	-37.7	-38.6	23.0	0.00e+00	0	33	0	890241024	48	6135
2026-01-06 17:42:21.92	299.41	16.82	-37.0	-37.9	23.5	0.00e+00	0	33	0	892338176	48	5664
2026-01-06 17:42:22.93	299.21	16.76	-36.8	-37.6	23.8	0.00e+00	0	33	0	894435328	46	6159
2026-01-06 17:42:23.94	299.02	16.70	-36.8	-37.7	23.8	0.00e+00	0	33	0	896532480	46	6192
2026-01-06 17:42:24.95	298.83	16.64	-37.1	-38.0	23.5	0.00e+00	0	33	0	898629632	46	6439
2026-01-06 17:42:25.96	298.63	16.58	-37.5	-38.4	23.1	0.00e+00	0	33	0	899678208	46	6754
2026-01-06 17:42:26.97	298.44	16.51	-37.9	-38.8	22.8	0.00e+00	0	33	0	901775360	48	6310
2026-01-06 17:42:27.98	298.25	16.45	-38.3	-39.3	22.3	0.00e+00	0	33	0	903872512	48	6645
2026-01-06 17:42:28.99	298.06	16.39	-38.7	-39.7	21.9	0.00e+00	0	33	0	905969664	50	6228
2026-01-06 17:42:30.00	297.87	16.33	-39.0	-40.1	21.7	0.00e+00	0	33	0	908066816	50	6502
2026-01-06 17:42:31.01	297.69	16.27	-39.1	-40.2	21.5	0.00e+00	0	33	0	909115392	50	6585
2026-01-06 17:42:32.01	297.50	16.21	-39.1	-40.2	21.6	0.00e+00	0	33	0	911212544	50	6586
2026-01-06 17:42:33.02	297.31	16.15	-38.7	-39.7	22.0	0.00e+00	0	33	0	913309696	50	6215
2026-01-06 17:42:34.03	297.13	16.08	-38.4	-39.4	22.4	0.00e+00	0	33	0	915406848	50	5999
2026-01-06 17:42:35.04	296.94	16.02	-38.3	-39.3	22.4	0.00e+00	0	33	0	917504000	50	5912
2026-01-06 17:42:36.06	296.76	15.96	-38.0	-39.0	22.4	0.00e+00	0	33	0	918552576	50	5740
2026-01-06 17:42:37.06	296.58	15.90	-38.1	-39.1	22.5	0.00e+00	0	33	0	920649728	50	5800
2026-01-06 17:42:38.07	296.39	15.84	-38.0	-38.9	22.7	0.00e+00	0	33	0	922746880	50	5684
2026-01-06 17:42:39.08	296.21	15.77	-37.7	-38.6	22.9	0.00e+00	0	33	0	924844032	48	6153
2026-01-06 17:42:40.09	296.03	15.71	-37.6	-38.5	23.0	0.00e+00	0	33	0	926941184	48	6057
2026-01-06 17:42:41.10	295.85	15.65	-37.7	-38.7	22.8	0.00e+00	0	33	0	927989760	48	6187
2026-01-06 17:42:42.11	295.67	15.58	-37.6	-38.6	23.1	0.00e+00	0	33	0	930086912	48	6119
2026-01-06 17:42:43.12	295.49	15.52	-37.6	-38.5	23.1	0.00e+00	0	33	0	932184064	48	6073
2026-01-06 17:42:44.13	295.32	15.46	-37.7	-38.6	23.0	0.00e+00	0	33	0	934281216	48	6163
2026-01-06 17:42:45.14	295.14	15.39	-37.8	-38.7	22.7	0.00e+00	0	33	0	936378368	48	6225
2026-01-06 17:42:46.15	294.96	15.33	-38.0	-39.0	22.6	0.00e+00	0	33	0	937426944	48	6451
2026-01-06 17:42:47.15	294.79	15.27	-38.3	-39.4	22.3	0.00e+00	0	33	0	939524096	48	6705
2026-01-06 17:42:48.16	294.61	15.20	-38.7	-39.7	22.0	0.00e+00	0	33	0	941621248	48	7005
2026-01-06 17:42:49.17	294.44	15.14	-38.7	-39.8	21.9	0.00e+00	0	33	0	943718400	50	6282
2026-01-06 17:42:50.18	294.27	15.08	-38.8	-39.9	21.9	0.00e+00	0	33	0	945815552	50	6385
2026-01-06 17:42:51.19	294.09	15.01	-38.8	-39.9	21.8	0.00e+00	0	33	0	947912704	50	6364
2026-01-06 17:42:52.20	293.92	14.95	-38.6	-39.7	22.0	0.00e+00	0	33	0	948961280	50	6218
2026-01-06 17:42:53.21	293.75	14.88	-38.4	-39.4	22.3	0.00e+00	0	33	0	951058432	50	5969
2026-01-06 17:42:54.22	293.58	14.82	-37.9	-38.9	22.7	0.00e+00	0	33	0	953155584	50	5666
2026-01-06 17:42:55.23	293.41	14.75	-37.8	-38.8	22.8	0.00e+00	0	33	0	955252736	50	5569
2026-01-06 17:42:56.24	293.24	14.69	-37.7	-38.6	22.9	0.00e+00	0	33	0	957349888	48	6172
2026-01-06 17:42:57.25	293.07	14.63	-37.8	-38.8	22.8	0.00e+00	0	33	0	958398464	48	6272
2026-01-06 17:42:58.26	292.90	14.56	-37.7	-38.7	23.0	0.00e+00	0	33	0	960495616	48	6190
2026-01-06 17:42:59.27	292.74	14.50	-37.9	-38.9	22.7	0.00e+00	0	33	0	962592768	48	6364
2026-01-06 17:43:00.28	292.57	14.43	-38.1	-39.1	22.6	0.00e+00	0	33	0	964689920	48	6532
2026-01-06 17:43:01.29	292.41	14.37	-38.3	-39.4	22.3	0.00e+00	0	33	0	966787072	48	6694
2026-01-06 17:43:02.30	292.24	14.30	-38.5	-39.5	22.2	0.00e+00	0	33	0	967835648	48	6807
2026-01-06 17:43:03.30	292.08	14.24	-38.4	-39.4	22.3	0.00e+00	0	33	0	969932800	48	6753
2026-01-06 17:43:04.31	291.92	14.17	-38.4	-39.5	22.2	0.00e+00	0	33	0	972029952	48	6793
2026-01-06 17:43:05.32	291.75	14.11	-38.3	-39.3	22.1	0.00e+00	0	33	0	974127104	48	6685
2026-01-06 17:43:06.33	291.59	14.04	-38.3	-39.3	22.2	0.00e+00	0	33	0	976224256	48	6691
2026-01-06 17:43:07.34	291.43	13.98	-38.0	-39.0	22.5	0.00e+00	0	33	0	977272832	48	6448
2026-01-06 17:43:08.35	291.27	13.91	-37.8	-38.7	22.8	0.00e+00	0	33	0	979369984	48	6233
2026-01-06 17:43:09.36	291.11	13.85	-37.6	-38.5	23.1	0.00e+00	0	33	0	981467136	48	6101
2026-01-06 17:43:10.37	290.95	13.78	-37.4	-38.3	23.1	0.00e+00	0	33	0	983564288	48	5944
2026-01-06 17:43:11.38	290.80	13.72	-37.3	-38.2	23.1	0.00e+00	0	33	0	985661440	48	5874
2026-01-06 17:43:12.39	290.64	13.65	-37.3	-38.2	23.2	0.00e+00	0	33	0	986710016	48	5882
2026-01-06 17:43:13.40	290.48	13.58	-37.2	-38.1	23.3	0.00e+00	0	33	0	988807168	48	5786
2026-01-06 17:43:14.41	290.33	13.52	-37.0	-37.9	23.4	0.00e+00	0	33	0	990904320	48	5676
2026-01-06 17:43:15.41	290.17	13.45	-37.1	-38.0	23.4	0.00e+00	0	33	0	993001472	48	5718
2026-01-06 17:43:16.42	290.02	13.39	-36.8	-37.6	23.6	0.00e+00	0	34	0	995098624	48	5485
2026-01-06 17:43:17.43	289.86	13.32	-36.6	-37.4	23.8	0.00e+00	0	33	0	996147200	46	6002
2026-01-06 17:43:18.44	289.71	13.26	-36.2	-37.0	24.2	0.00e+00	0	34	0	998244352	46	5732
2026-01-06 17:43:19.45	289.56	13.19	-36.1	-36.9	24.1	0.00e+00	0	33	0	1000341504	46	5647
2026-01-06 17:43:20.46	289.41	13.13	-36.0	-36.8	24.2	0.00e+00	0	33	0	1002438656	46	5615
2026-01-06 17:43:21.47	289.26	13.06	-36.3	-37.1	24.1	0.00e+00	0	33	0	1004535808	46	5785
2026-01-06 17:43:22.48	289.11	12.99	-36.4	-37.2	23.9	0.00e+00	0	33	0	1005584384	46	5879
2026-01-06 17:43:23.49	288.96	12.93	-36.2	-37.1	24.1	0.00e+00	0	33	0	1007681536	46	5774
2026-01-06 17:43:24.50	288.81	12.86	-36.4	-37.3	23.8	0.00e+00	0	33	0	1009778688	46	5900
2026-01-06 17:43:25.51	288.66	12.80	-36.7	-37.6	23.7	0.00e+00	0	33	0	1011875840	46	6106
2026-01-06 17:43:26.52	288.51	12.73	-36.9	-37.8	23.4	0.00e+00	0	33	0	1013972992	46	6255
2026-01-06 17:43:27.53	288.36	12.67	-37.1	-38.1	23.3	0.00e+00	0	33	0	1016070144	46	6471
2026-01-06 17:43:28.54	288.22	12.60	-37.4	-38.3	23.1	0.00e+00	0	33	0	1017118720	46	6651
2026-01-06 17:43:29.55	288.07	12.53	-37.5	-38.4	23.0	0.00e+00	0	33	0	1019215872	46	6744
2026-01-06 17:43:30.56	287.93	12.47	-37.4	-38.4	23.0	0.00e+00	0	33	0	1021313024	46	6714
2026-01-06 17:43:31.57	287.78	12.40	-37.5	-38.4	23.0	0.00e+00	0	33	0	1023410176	46	6755
2026-01-06 17:43:32.57	287.64	12.34	-37.5	-38.5	23.0	0.00e+00	0	33	0	1025507328	46	6775
2026-01-06 17:43:33.58	287.50	12.27	-37.3	-38.3	23.1	0.00e+00	0	34	0	1026555904	46	6625
2026-01-06 17:43:34.59	287.35	12.21	-37.2	-38.1	23.3	0.00e+00	0	33	0	1028653056	46	6535
2026-01-06 17:43:35.60	287.21	12.14	-37.0	-37.9	23.4	0.00e+00	0	33	0	1030750208	46	6352
2026-01-06 17:43:36.61	287.07	12.07	-36.8	-37.7	23.6	0.00e+00	0	33	0	1032847360	46	6174
2026-01-06 17:43:37.62	286.93	12.01	-36.5	-37.3	23.9	0.00e+00	0	33	0	1033895936	46	5948
2026-01-06 17:43:38.63	286.79	11.94	-36.5	-37.4	23.8	0.00e+00	0	33	0	1035993088	46	5982
2026-01-06 17:43:39.64	286.65	11.88	-36.5	-37.4	23.9	0.00e+00	0	33	0	1038090240	46	5981
2026-01-06 17:43:40.65	286.51	11.81	-36.5	-37.3	23.8	0.00e+00	0	33	0	1040187392	46	5955
2026-01-06 17:43:41.66	286.37	11.74	-36.6	-37.5	23.7	0.00e+00	0	33	0	1042284544	46	6040
2026-01-06 17:43:42.67	286.24	11.68	-36.8	-37.7	23.5	0.00e+00	0	33	0	1044381696	46	6197
2026-01-06 17:43:43.68	286.10	11.61	-37.1	-38.0	23.3	0.00e+00	0	33	0	1045430272	46	6439
2026-01-06 17:43:44.69	285.96	11.55	-37.3	-38.3	23.1	0.00e+00	0	33	0	1047527424	46	6626
2026-01-06 17:43:45.70	285.83	11.48	-37.5	-38.5	22.9	0.00e+00	0	33	0	1049624576	46	6770
2026-01-06 17:43:46.71	285.69	11.42	-37.5	-38.4	22.7	0.00e+00	0	33	0	1051721728	46	6717
2026-01-06 17:43:47.71	285.56	11.35	-37.8	-38.8	22.7	0.00e+00	0	33	0	1053818880	48	6249
2026-01-06 17:43:48.72	285.43	11.29	-37.8	-38.8	22.5	0.00e+00	0	33	0	1054867456	48	6297
2026-01-06 17:43:49.73	285.29	11.22	-37.8	-38.8	22.6	0.00e+00	0	33	0	1056964608	48	6291
2026-01-06 17:43:50.74	285.16	11.15	-37.9	-38.9	22.5	0.00e+00	0	33	0	1059061760	48	6388
2026-01-06 17:43:51.74	285.03	11.09	-37.9	-38.9	22.4	0.00e+00	0	33	0	1061158912	48	6365
2026-01-06 17:43:52.75	284.90	11.02	-38.2	-39.2	21.9	0.00e+00	0	33	0	1063256064	48	6580
2026-01-06 17:43:53.76	284.77	10.96	-38.0	-39.1	21.9	0.00e+00	0	33	0	1064304640	48	6477
2026-01-06 17:43:54.77	284.64	10.89	-38.1	-39.1	22.3	0.00e+00	0	33	0	1066401792	48	6502
2026-01-06 17:43:55.78	284.51	10.83	-37.8	-38.8	22.6	0.00e+00	0	33	0	1068498944	48	6248
2026-01-06 17:43:56.79	284.38	10.76	-37.2	-38.2	22.9	0.00e+00	0	33	0	1070596096	48	5836
2026-01-06 17:43:57.80	284.25	10.70	-37.0	-37.9	23.3	0.00e+00	0	33	0	1072693248	48	5644
2026-01-06 17:43:58.81	284.13	10.63	-37.0	-37.9	23.3	0.00e+00	0	33	0	1073741824	48	5652
2026-01-06 17:43:59.82	284.00	10.57	-36.9	-37.8	23.3	0.00e+00	0	33	0	1075838976	48	5621
2026-01-06 17:44:00.83	283.87	10.50	-36.6	-37.4	23.7	0.00e+00	0	33	0	1077936128	46	6003
2026-01-06 17:44:01.84	283.75	10.43	-36.5	-37.4	23.8	0.00e+00	0	34	0	1080033280	46	5965
2026-01-06 17:44:02.85	283.62	10.37	-36.5	-37.4	23.7	0.00e+00	0	33	0	1082130432	46	5975
2026-01-06 17:44:03.86	283.50	10.30	-36.8	-37.6	23.4	0.00e+00	0	33	0	1083179008	46	6170
2026-01-06 17:44:04.87	283.37	10.24	-37.1	-38.0	23.4	0.00e+00	0	33	0	1085276160	46	6400
2026-01-06 17:44:05.88	283.25	10.17	-37.2	-38.2	23.1	0.00e+00	0	33	0	1087373312	46	6557
2026-01-06 17:44:06.89	283.13	10.11	-37.7	-38.6	22.8	0.00e+00	0	33	0	1089470464	46	6892
2026-01-06 17:44:07.90	283.00	10.04	-37.8	-38.7	22.7	0.00e+00	0	34	0	1091567616	48	6235
2026-01-06 17:44:08.91	282.88	9.98	-38.1	-39.1	22.3	0.00e+00	0	33	0	1092616192	48	6479
2026-01-06 17:44:09.92	282.76	9.91	-38.1	-39.1	22.3	0.00e+00	0	33	0	1094713344	48	6510
2026-01-06 17:44:10.93	282.64	9.85	-38.2	-39.2	22.2	0.00e+00	0	33	0	1096810496	48	6599
2026-01-06 17:44:11.93	282.52	9.79	-38.3	-39.3	22.1	0.00e+00	0	33	0	1098907648	48	6672
2026-01-06 17:44:12.94	282.40	9.72	-38.2	-39.2	22.2	0.00e+00	0	33	0	1101004800	48	6606
2026-01-06 17:44:13.95	282.28	9.66	-38.0	-39.0	22.4	0.00e+00	0	33	0	1102053376	48	6430
2026-01-06 17:44:14.97	282.16	9.59	-38.0	-39.0	22.4	0.00e+00	0	33	0	1104150528	48	6456
2026-01-06 17:44:15.97	282.04	9.53	-37.9	-38.9	22.5	0.00e+00	0	33	0	1106247680	48	6383
2026-01-06 17:44:16.98	281.93	9.46	-37.6	-38.6	22.7	0.00e+00	0	33	0	1108344832	48	6158
2026-01-06 17:44:17.99	281.81	9.40	-37.8	-38.7	22.5	0.00e+00	0	34	0	1110441984	48	6241
2026-01-06 17:44:19.00	281.69	9.33	-37.6	-38.6	22.7	0.00e+00	0	33	0	1111490560	48	6162
2026-01-06 17:44:20.01	281.58	9.27	-37.8	-38.8	22.5	0.00e+00	0	33	0	1113587712	48	6248
2026-01-06 17:44:21.02	281.46	9.20	-37.8	-38.9	22.4	0.00e+00	0	33	0	1115684864	48	6324
2026-01-06 17:44:22.03	281.35	9.14	-38.0	-39.1	22.3	0.00e+00	0	33	0	1117782016	48	6470
2026-01-06 17:44:23.04	281.23	9.08	-38.2	-39.2	22.2	0.00e+00	0	33	0	1119879168	48	6572
2026-01-06 17:44:24.05	281.12	9.01	-38.0	-39.0	22.3	0.00e+00	0	33	0	1121976320	48	6405
2026-01-06 17:44:25.06	281.00	8.95	-38.3	-39.3	22.0	0.00e+00	0	33	0	1123024896	48	6673
2026-01-06 17:44:26.07	280.89	8.88	-38.4	-39.4	22.0	0.00e+00	0	33	0	1125122048	48	6739
2026-01-06 17:44:27.08	280.78	8.82	-38.4	-39.5	22.0	0.00e+00	0	33	0	1127219200	48	6772
2026-01-06 17:44:28.09	280.67	8.75	-38.6	-39.6	21.8	0.00e+00	0	33	0	1129316352	48	6906
2026-01-06 17:44:29.10	280.55	8.69	-38.6	-39.7	21.8	0.00e+00	0	33	0	1131413504	48	6936
2026-01-06 17:44:30.11	280.44	8.63	-38.8	-39.9	21.5	0.00e+00	0	33	0	1132462080	50	6357
2026-01-06 17:44:31.11	280.33	8.56	-38.7	-39.8	21.6	0.00e+00	0	33	0	1134559232	50	6259
2026-01-06 17:44:32.12	280.22	8.50	-39.0	-40.2	21.3	0.00e+00	0	33	0	1136656384	50	6565
2026-01-06 17:44:33.13	280.11	8.44	-39.1	-40.2	21.3	0.00e+00	0	33	0	1138753536	50	6614
2026-01-06 17:44:34.14	280.01	8.37	-39.1	-40.2	21.1	0.00e+00	0	33	0	1140850688	50	6578
2026-01-06 17:44:35.15	279.90	8.31	-39.2	-40.3	21.1	0.00e+00	0	33	0	1141899264	50	6664
2026-01-06 17:44:36.16	279.79	8.25	-38.9	-40.0	21.4	0.00e+00	0	33	0	1143996416	50	6464
2026-01-06 17:44:37.17	279.68	8.18	-39.0	-40.1	21.3	0.00e+00	0	33	0	1146093568	50	6534
2026-01-06 17:44:38.18	279.57	8.12	-38.9	-40.0	21.5	0.00e+00	0	33	0	1148190720	50	6414
2026-01-06 17:44:39.19	279.47	8.06	-38.8	-39.9	21.5	0.00e+00	0	33	0	1150287872	50	6382
2026-01-06 17:44:40.20	279.36	7.99	-38.6	-39.7	21.7	0.00e+00	0	33	0	1151336448	50	6195
2026-01-06 17:44:41.21	279.26	7.93	-38.8	-39.9	21.5	0.00e+00	0	33	0	1153433600	50	6354
2026-01-06 17:44:42.22	279.15	7.87	-38.6	-39.7	21.7	0.00e+00	0	33	0	1155530752	50	6196
2026-01-06 17:44:43.23	279.05	7.80	-38.9	-40.0	21.4	0.00e+00	0	33	0	1157627904	50	6417
2026-01-06 17:44:44.24	278.94	7.74	-39.1	-40.2	21.2	0.00e+00	0	33	0	1159725056	50	6613
2026-01-06 17:44:45.25	278.84	7.68	-39.1	-40.2	21.2	0.00e+00	0	33	0	1160773632	50	6593
2026-01-06 17:44:46.25	278.74	7.61	-39.6	-40.8	20.7	0.00e+00	0	33	0	1162870784	50	7061
2026-01-06 17:44:47.26	278.63	7.55	-39.7	-41.0	20.6	0.00e+00	0	33	0	1164967936	52	6436
2026-01-06 17:44:48.27	278.53	7.49	-40.0	-41.3	20.3	0.00e+00	0	33	0	1167065088	52	6630
2026-01-06 17:44:49.29	278.43	7.43	-40.1	-41.5	20.2	0.00e+00	0	33	0	1169162240	52	6807
2026-01-06 17:44:50.29	278.33	7.36	-40.3	-41.7	19.9	0.00e+00	0	33	0	1170210816	52	6978
2026-01-06 17:44:51.30	278.23	7.30	-40.3	-41.8	19.8	0.00e+00	0	33	0	1172307968	52	7012
2026-01-06 17:44:52.31	278.13	7.24	-40.1	-41.5	20.2	0.00e+00	0	33	0	1174405120	52	6782
2026-01-06 17:44:53.32	278.03	7.18	-40.2	-41.5	19.9	0.00e+00	0	33	0	1176502272	52	6837
2026-01-06 17:44:54.33	277.93	7.11	-40.0	-41.3	20.3	0.00e+00	0	33	0	1178599424	52	6621
2026-01-06 17:44:55.34	277.83	7.05	-39.8	-41.1	20.4	0.00e+00	0	33	0	1179648000	52	6530
2026-01-06 17:44:56.35	277.73	6.99	-39.5	-40.7	20.8	0.00e+00	0	33	0	1181745152	52	6191
2026-01-06 17:44:57.36	277.63	6.93	-39.3	-40.5	20.9	0.00e+00	0	33	0	1183842304	52	6091
2026-01-06 17:44:58.37	277.53	6.87	-39.2	-40.4	21.0	0.00e+00	0	33	0	1185939456	52	5998
2026-01-06 17:44:59.38	277.43	6.80	-39.0	-40.2	21.2	0.00e+00	0	33	0	1188036608	52	5851
2026-01-06 17:45:00.39	277.34	6.74	-39.1	-40.2	21.2	0.00e+00	0	33	0	1190133760	52	5880
2026-01-06 17:45:01.40	277.24	6.68	-38.9	-40.0	21.3	0.00e+00	0	34	0	1191182336	52	5741
2026-01-06 17:45:02.41	277.14	6.62	-39.1	-40.2	21.0	0.00e+00	0	33	0	1193279488	52	5876
2026-01-06 17:45:03.42	277.05	6.56	-39.3	-40.5	20.9	0.00e+00	0	33	0	1195376640	52	6043
