passes_logs/2026/01/06/R4.6S_Anadyr/R4.6S_Anadyr__20260106_031447_FENGYUN_3E_rec.log

#Pass ID: 20260106_031447_FENGYUN 3E
#Satellite: FENGYUN 3E
#Configuration: FENGYUN 3E
#almurnet v.1.7.20251203
#Start time: 2026-01-06 03:14:49

#Version: 2.2.20231116
#Station: R4.6S_Anadyr
#Location: 177.4865 lon 64.73178 lat
#TLE: 1 49008U 21062A   26005.56299987  .00000339  00000+0  18069-3 0  9991
#TLE: 2 49008  98.7472  10.8019 0001562 158.0357 202.0886 14.19884907233502

#Time	Az	El	Level	Level2	SNR	BER	BlckErr	Temp	State	Recorded	gain1	gain2
2026-01-06 03:14:49.32	125.66	0.13	-48.8	-66.6	3.5	3.02e+01	0	31	0	0	60	82352
2026-01-06 03:14:50.32	125.63	0.19	-48.2	-59.6	3.6	8.45e-01	0	32	104	0	60	34665
2026-01-06 03:14:51.33	125.60	0.25	-48.5	-59.7	3.6	8.45e-01	0	33	104	0	60	34922
2026-01-06 03:14:52.34	125.57	0.30	-48.5	-59.7	3.6	8.45e-01	0	33	104	0	60	34949
2026-01-06 03:14:53.35	125.54	0.36	-48.5	-59.7	3.6	8.46e-01	0	33	104	0	60	34910
2026-01-06 03:14:54.36	125.51	0.42	-48.5	-59.7	3.6	8.46e-01	0	33	104	0	60	35106
2026-01-06 03:14:55.37	125.48	0.48	-48.5	-59.8	3.6	8.44e-01	0	33	104	0	60	35132
2026-01-06 03:14:56.38	125.45	0.54	-48.5	-59.8	3.6	8.46e-01	0	33	104	0	60	35211
2026-01-06 03:14:57.39	125.42	0.60	-48.5	-59.7	3.6	8.45e-01	0	33	104	0	60	35090
2026-01-06 03:14:58.40	125.38	0.66	-48.4	-59.7	3.6	8.45e-01	0	33	104	0	60	34778
2026-01-06 03:14:59.41	125.35	0.72	-48.4	-59.6	3.6	8.45e-01	0	33	104	0	60	34654
2026-01-06 03:15:00.42	125.32	0.78	-48.3	-59.6	3.6	8.47e-01	0	33	104	0	60	34462
2026-01-06 03:15:01.43	125.29	0.84	-48.1	-59.5	3.6	8.46e-01	0	33	104	0	60	34152
2026-01-06 03:15:02.44	125.26	0.90	-48.1	-59.4	3.6	8.45e-01	0	33	104	0	60	33819
2026-01-06 03:15:03.45	125.22	0.97	-47.9	-59.3	3.6	8.47e-01	0	33	104	0	60	33260
2026-01-06 03:15:04.46	125.19	1.03	-47.9	-59.1	3.6	8.46e-01	0	33	104	0	60	32696
2026-01-06 03:15:05.47	125.16	1.09	-47.3	-58.8	3.5	8.45e-01	0	33	104	0	60	31629
2026-01-06 03:15:06.47	125.13	1.15	-47.0	-58.2	3.6	8.45e-01	0	33	104	0	60	29303
2026-01-06 03:15:07.49	125.09	1.21	-46.9	-58.2	3.6	8.45e-01	0	33	104	0	60	29308
2026-01-06 03:15:08.49	125.06	1.27	-46.9	-58.1	3.6	8.45e-01	0	33	104	0	60	29204
2026-01-06 03:15:09.51	125.03	1.33	-46.9	-58.2	3.6	8.44e-01	0	33	104	0	60	29254
2026-01-06 03:15:10.51	124.99	1.39	-46.9	-58.2	3.6	8.45e-01	0	33	104	0	60	29404
2026-01-06 03:15:11.53	124.96	1.45	-46.9	-58.2	3.6	8.44e-01	0	33	104	0	60	29371
2026-01-06 03:15:12.53	124.92	1.52	-46.9	-58.2	3.6	8.46e-01	0	33	104	0	60	29286
2026-01-06 03:15:13.54	124.89	1.58	-46.9	-58.2	3.6	8.45e-01	0	33	104	0	60	29293
2026-01-06 03:15:14.55	124.86	1.64	-46.9	-58.2	3.6	8.45e-01	0	33	104	0	60	29218
2026-01-06 03:15:15.56	124.82	1.70	-46.9	-58.1	3.6	8.45e-01	0	33	104	0	60	29165
2026-01-06 03:15:16.57	124.79	1.76	-46.9	-58.2	3.5	8.45e-01	0	33	104	0	60	29274
2026-01-06 03:15:17.58	124.75	1.83	-46.9	-58.2	3.6	8.46e-01	0	33	104	0	60	29325
2026-01-06 03:15:18.59	124.72	1.89	-46.9	-58.2	3.6	8.45e-01	0	33	104	0	60	29486
2026-01-06 03:15:19.60	124.68	1.95	-46.9	-58.2	3.6	8.46e-01	0	33	104	0	60	29272
2026-01-06 03:15:20.61	124.65	2.01	-46.9	-58.1	3.6	8.45e-01	0	33	104	0	60	28939
2026-01-06 03:15:21.62	124.61	2.08	-46.9	-57.8	3.6	8.45e-01	0	33	104	0	60	28217
2026-01-06 03:15:22.63	124.58	2.14	-46.9	-57.7	3.6	8.45e-01	0	33	104	0	60	27864
2026-01-06 03:15:23.64	124.54	2.20	-46.9	-57.7	3.5	8.45e-01	0	33	104	0	60	27617
2026-01-06 03:15:24.65	124.51	2.27	-46.9	-57.6	3.6	8.45e-01	0	34	104	0	60	27480
2026-01-06 03:15:25.66	124.47	2.33	-46.9	-57.7	3.6	8.44e-01	0	33	104	0	60	27810
2026-01-06 03:15:26.67	124.44	2.39	-46.9	-57.9	3.6	8.46e-01	0	34	104	0	60	28425
2026-01-06 03:15:27.68	124.40	2.46	-46.9	-58.1	3.6	8.44e-01	0	33	104	0	60	29161
2026-01-06 03:15:28.69	124.36	2.52	-46.9	-58.2	3.6	8.46e-01	0	33	104	0	60	29400
2026-01-06 03:15:29.70	124.33	2.58	-46.9	-58.2	3.6	8.44e-01	0	33	104	0	60	29263
2026-01-06 03:15:30.71	124.29	2.65	-46.9	-58.1	3.6	8.45e-01	0	34	104	0	60	28905
2026-01-06 03:15:31.72	124.25	2.71	-46.9	-58.0	3.6	8.45e-01	0	33	104	0	60	28864
2026-01-06 03:15:32.73	124.22	2.78	-46.9	-57.9	3.6	8.45e-01	0	33	104	0	60	28509
2026-01-06 03:15:33.74	124.18	2.84	-46.9	-57.7	3.6	8.45e-01	0	34	104	0	60	27775
2026-01-06 03:15:34.75	124.14	2.91	-46.8	-57.3	3.6	8.46e-01	0	34	104	0	60	26486
2026-01-06 03:15:35.76	124.10	2.97	-46.8	-56.8	3.6	8.45e-01	0	34	104	0	60	24865
2026-01-06 03:15:36.77	124.07	3.04	-46.7	-56.3	3.6	8.45e-01	0	34	104	0	60	23637
2026-01-06 03:15:37.78	124.03	3.10	-46.7	-56.4	3.6	8.45e-01	0	34	104	0	60	23932
2026-01-06 03:15:38.79	123.99	3.17	-46.9	-57.2	3.6	8.46e-01	0	34	104	0	60	26190
2026-01-06 03:15:39.80	123.95	3.23	-46.9	-58.1	3.6	8.45e-01	0	34	104	0	60	29185
2026-01-06 03:15:40.81	123.91	3.30	-46.9	-57.4	3.6	8.46e-01	0	34	104	0	60	26800
2026-01-06 03:15:41.82	123.88	3.36	-46.4	-54.0	4.3	8.36e-01	0	34	104	0	60	18156
2026-01-06 03:15:42.83	123.84	3.43	-45.4	-49.4	7.1	2.67e-01	0	34	0	3145728	60	10628
2026-01-06 03:15:43.84	123.80	3.49	-43.9	-46.6	10.3	1.04e-02	0	34	0	10485760	60	7692
2026-01-06 03:15:44.85	123.76	3.56	-42.5	-44.5	12.5	3.59e-04	0	34	0	17825792	58	6835
2026-01-06 03:15:45.86	123.72	3.62	-41.5	-43.1	14.1	1.02e-05	0	34	0	25165824	56	6506
2026-01-06 03:15:46.87	123.68	3.69	-40.6	-42.0	15.4	0.00e+00	0	34	0	32505856	54	6433
2026-01-06 03:15:47.88	123.64	3.76	-47.3	-58.2	3.6	8.44e-01	0	34	104	35651584	60	29345
2026-01-06 03:15:48.89	123.60	3.82	-39.4	-40.6	17.0	4.84e-01	0	34	104	35651584	56	4884
2026-01-06 03:15:49.90	123.56	3.89	-46.2	-56.4	3.6	8.83e-01	0	34	104	37748736	60	23866
2026-01-06 03:15:50.90	123.52	3.96	-47.0	-58.1	3.6	8.29e-01	0	34	104	37748736	60	28978
2026-01-06 03:15:51.92	123.48	4.02	-38.2	-39.2	17.4	0.00e+00	0	34	0	37748736	48	6563
2026-01-06 03:15:52.93	123.44	4.09	-37.1	-38.0	19.2	0.00e+00	0	34	0	45088768	48	5710
2026-01-06 03:15:53.94	123.40	4.16	-37.1	-37.9	19.5	0.00e+00	0	34	0	52428800	48	5679
2026-01-06 03:15:54.94	123.36	4.23	-35.7	-36.5	20.2	0.00e+00	0	34	0	59768832	46	5404
2026-01-06 03:15:55.96	123.32	4.29	-36.7	-37.6	19.7	0.00e+00	0	34	0	67108864	44	6859
2026-01-06 03:15:56.96	123.27	4.36	-36.2	-37.0	20.2	0.00e+00	0	34	0	74448896	44	6434
2026-01-06 03:15:57.98	123.23	4.43	-35.3	-36.0	21.1	0.00e+00	0	34	0	81788928	44	5736
2026-01-06 03:15:58.99	123.19	4.50	-34.7	-35.3	21.9	0.00e+00	0	34	0	89128960	44	5310
2026-01-06 03:16:00.00	123.15	4.57	-34.8	-35.5	21.9	0.00e+00	0	34	0	96468992	42	6057
2026-01-06 03:16:01.01	123.11	4.63	-34.7	-35.3	22.1	0.00e+00	0	34	0	103809024	42	5947
2026-01-06 03:16:02.02	123.06	4.70	-34.4	-35.0	22.2	0.00e+00	0	34	0	111149056	42	5761
2026-01-06 03:16:03.02	123.02	4.77	-34.4	-35.0	22.4	0.00e+00	0	34	0	117440512	42	5745
2026-01-06 03:16:04.03	122.98	4.84	-34.4	-35.0	22.4	0.00e+00	0	34	0	125829120	42	5715
2026-01-06 03:16:05.04	122.93	4.91	-34.5	-35.1	22.1	0.00e+00	0	34	0	133169152	42	5786
2026-01-06 03:16:06.05	122.89	4.98	-34.1	-34.7	22.6	0.00e+00	0	34	0	139460608	42	5544
2026-01-06 03:16:07.06	122.85	5.05	-34.2	-34.8	22.6	0.00e+00	0	34	0	146800640	42	5593
2026-01-06 03:16:08.07	122.80	5.12	-34.1	-34.7	22.6	0.00e+00	0	34	0	154140672	42	5525
2026-01-06 03:16:09.08	122.76	5.19	-34.1	-34.7	22.6	0.00e+00	0	34	0	161480704	42	5539
2026-01-06 03:16:10.09	122.71	5.26	-34.2	-34.8	22.7	0.00e+00	0	34	0	168820736	42	5580
2026-01-06 03:16:11.10	122.67	5.33	-33.9	-34.5	22.8	0.00e+00	0	34	0	176160768	42	5404
2026-01-06 03:16:12.11	122.63	5.40	-33.9	-34.5	22.9	0.00e+00	0	34	0	183500800	42	5413
2026-01-06 03:16:13.12	122.58	5.47	-34.0	-34.6	22.8	0.00e+00	0	34	0	190840832	42	5465
2026-01-06 03:16:14.13	122.53	5.54	-33.9	-34.5	22.9	0.00e+00	0	34	0	198180864	42	5391
2026-01-06 03:16:15.13	122.49	5.61	-34.0	-34.7	22.7	0.00e+00	0	34	0	205520896	42	5510
2026-01-06 03:16:16.15	122.44	5.68	-34.2	-34.8	22.7	0.00e+00	0	34	0	212860928	42	5619
2026-01-06 03:16:17.15	122.40	5.75	-33.8	-34.4	22.9	0.00e+00	0	34	0	220200960	42	5346
2026-01-06 03:16:18.16	122.35	5.82	-33.7	-34.3	23.0	0.00e+00	0	34	0	227540992	40	5960
2026-01-06 03:16:19.17	122.31	5.89	-33.9	-34.5	22.9	0.00e+00	0	34	0	234881024	40	6063
2026-01-06 03:16:20.18	122.26	5.96	-33.4	-34.0	23.2	0.00e+00	0	34	0	242221056	40	5721
2026-01-06 03:16:21.19	122.21	6.04	-33.6	-34.2	23.1	0.00e+00	0	34	0	249561088	40	5866
2026-01-06 03:16:22.20	122.16	6.11	-33.6	-34.1	23.3	0.00e+00	0	34	0	256901120	40	5826
2026-01-06 03:16:23.21	122.12	6.18	-33.6	-34.2	23.2	0.00e+00	0	34	0	264241152	40	5875
2026-01-06 03:16:24.22	122.07	6.25	-33.7	-34.3	23.1	0.00e+00	0	34	0	270532608	40	5936
2026-01-06 03:16:25.23	122.02	6.33	-33.4	-34.0	23.4	0.00e+00	0	34	0	277872640	40	5729
2026-01-06 03:16:26.24	121.97	6.40	-33.5	-34.0	23.3	0.00e+00	0	34	0	286261248	40	5757
2026-01-06 03:16:27.25	121.92	6.47	-33.6	-34.1	23.3	0.00e+00	0	34	0	292552704	40	5828
2026-01-06 03:16:28.26	121.88	6.54	-33.5	-34.1	23.4	0.00e+00	0	34	0	299892736	40	5773
2026-01-06 03:16:29.27	121.83	6.62	-33.5	-34.1	23.4	0.00e+00	0	34	0	307232768	40	5801
2026-01-06 03:16:30.28	121.78	6.69	-33.5	-34.1	23.4	0.00e+00	0	34	0	314572800	40	5797
2026-01-06 03:16:31.29	121.73	6.76	-33.5	-34.1	23.5	0.00e+00	0	34	0	321912832	40	5784
2026-01-06 03:16:32.30	121.68	6.84	-33.4	-34.0	23.4	0.00e+00	0	34	0	329252864	40	5748
2026-01-06 03:16:33.31	121.63	6.91	-33.4	-34.0	23.5	0.00e+00	0	34	0	336592896	40	5716
2026-01-06 03:16:34.32	121.58	6.99	-33.5	-34.0	23.4	0.00e+00	0	34	0	343932928	40	5760
2026-01-06 03:16:35.33	121.53	7.06	-33.5	-34.1	23.4	0.00e+00	0	34	0	351272960	40	5780
2026-01-06 03:16:36.34	121.48	7.13	-33.3	-33.9	23.6	0.00e+00	0	34	0	358612992	40	5650
2026-01-06 03:16:37.35	121.43	7.21	-33.3	-33.9	23.6	0.00e+00	0	34	0	365953024	40	5643
2026-01-06 03:16:38.36	121.37	7.28	-33.3	-33.9	23.6	0.00e+00	0	34	0	373293056	40	5632
2026-01-06 03:16:39.36	121.32	7.36	-33.5	-34.0	23.5	0.00e+00	0	34	0	380633088	40	5750
2026-01-06 03:16:40.37	121.27	7.43	-33.6	-34.2	23.3	0.00e+00	0	34	0	387973120	40	5853
2026-01-06 03:16:41.38	121.22	7.51	-33.9	-34.5	23.1	0.00e+00	0	34	0	395313152	40	6059
2026-01-06 03:16:42.39	121.17	7.59	-33.5	-34.0	23.4	0.00e+00	0	34	0	402653184	40	5752
2026-01-06 03:16:43.40	121.11	7.66	-33.3	-33.9	23.7	0.00e+00	0	34	0	409993216	40	5671
2026-01-06 03:16:44.41	121.06	7.74	-33.1	-33.6	23.9	0.00e+00	0	34	0	416284672	40	5490
2026-01-06 03:16:45.42	121.01	7.81	-33.1	-33.7	23.8	0.00e+00	0	34	0	423624704	40	5520
2026-01-06 03:16:46.43	120.95	7.89	-33.1	-33.7	23.9	0.00e+00	0	34	0	432013312	40	5505
2026-01-06 03:16:47.44	120.90	7.97	-33.0	-33.6	23.9	0.00e+00	0	34	0	438304768	40	5463
2026-01-06 03:16:48.45	120.85	8.04	-33.2	-33.8	23.9	0.00e+00	0	34	0	445644800	40	5589
2026-01-06 03:16:49.46	120.79	8.12	-32.9	-33.4	24.0	0.00e+00	0	34	0	452984832	40	5376
2026-01-06 03:16:50.47	120.74	8.20	-33.1	-33.6	23.9	0.00e+00	0	34	0	460324864	40	5481
2026-01-06 03:16:51.48	120.68	8.28	-33.0	-33.6	24.2	0.00e+00	0	34	0	467664896	40	5441
2026-01-06 03:16:52.49	120.63	8.35	-33.0	-33.5	24.0	0.00e+00	0	34	0	475004928	40	5438
2026-01-06 03:16:53.50	120.57	8.43	-33.0	-33.6	24.0	0.00e+00	0	34	0	482344960	40	5451
2026-01-06 03:16:54.51	120.51	8.51	-32.9	-33.5	24.0	0.00e+00	0	34	0	489684992	40	5390
2026-01-06 03:16:55.52	120.46	8.59	-32.8	-33.3	24.2	0.00e+00	0	34	0	497025024	40	5312
2026-01-06 03:16:56.53	120.40	8.67	-32.8	-33.4	24.2	0.00e+00	0	34	0	504365056	38	5973
2026-01-06 03:16:57.54	120.34	8.75	-32.8	-33.4	24.2	0.00e+00	0	34	0	511705088	38	5978
2026-01-06 03:16:58.55	120.29	8.83	-32.7	-33.3	24.3	0.00e+00	0	34	0	519045120	38	5910
2026-01-06 03:16:59.56	120.23	8.91	-32.8	-33.3	24.3	0.00e+00	0	34	0	526385152	38	5957
2026-01-06 03:17:00.57	120.17	8.98	-32.7	-33.2	24.4	0.00e+00	0	34	0	533725184	38	5896
2026-01-06 03:17:01.57	120.11	9.06	-32.8	-33.3	24.3	0.00e+00	0	34	0	541065216	38	5943
2026-01-06 03:17:02.58	120.05	9.14	-32.8	-33.4	24.4	0.00e+00	0	34	0	548405248	38	5978
2026-01-06 03:17:03.59	119.99	9.22	-32.6	-33.1	24.4	0.00e+00	0	34	0	555745280	38	5812
2026-01-06 03:17:04.60	119.93	9.30	-32.6	-33.1	24.5	0.00e+00	0	34	0	563085312	38	5816
2026-01-06 03:17:05.61	119.87	9.39	-32.5	-33.0	24.5	0.00e+00	0	34	0	569376768	38	5757
2026-01-06 03:17:06.62	119.81	9.47	-32.6	-33.1	24.4	0.00e+00	0	34	0	576716800	38	5804
2026-01-06 03:17:07.63	119.75	9.55	-32.7	-33.3	24.3	0.00e+00	0	34	0	585105408	38	5909
2026-01-06 03:17:08.64	119.69	9.63	-32.5	-33.0	24.6	0.00e+00	0	34	0	591396864	38	5751
2026-01-06 03:17:09.65	119.63	9.71	-32.4	-32.9	24.7	0.00e+00	0	34	0	598736896	38	5677
2026-01-06 03:17:10.66	119.57	9.79	-32.4	-32.9	24.7	0.00e+00	0	34	0	606076928	38	5673
2026-01-06 03:17:11.67	119.51	9.87	-32.5	-33.1	24.6	0.00e+00	0	34	0	613416960	38	5779
2026-01-06 03:17:12.68	119.45	9.96	-32.6	-33.1	24.8	0.00e+00	0	34	0	620756992	38	5790
2026-01-06 03:17:13.69	119.38	10.04	-32.2	-32.7	24.9	0.00e+00	0	34	0	628097024	38	5520
2026-01-06 03:17:14.70	119.32	10.12	-32.2	-32.8	24.9	0.00e+00	0	34	0	635437056	38	5567
2026-01-06 03:17:15.71	119.26	10.21	-32.2	-32.7	24.9	0.00e+00	0	34	0	642777088	38	5529
2026-01-06 03:17:16.72	119.19	10.29	-32.2	-32.7	25.0	0.00e+00	0	34	0	650117120	38	5529
2026-01-06 03:17:17.73	119.13	10.37	-32.1	-32.6	25.0	0.00e+00	0	34	0	657457152	38	5479
2026-01-06 03:17:18.74	119.06	10.46	-32.1	-32.6	24.9	0.00e+00	0	34	0	664797184	38	5494
2026-01-06 03:17:19.75	119.00	10.54	-32.1	-32.6	24.9	0.00e+00	0	34	0	672137216	38	5494
2026-01-06 03:17:20.76	118.93	10.62	-32.3	-32.8	24.8	0.00e+00	0	34	0	679477248	38	5610
2026-01-06 03:17:21.77	118.87	10.71	-31.9	-32.4	25.0	0.00e+00	0	34	0	686817280	38	5373
2026-01-06 03:17:22.78	118.80	10.79	-32.0	-32.6	25.0	0.00e+00	0	34	0	693108736	38	5441
2026-01-06 03:17:23.78	118.74	10.88	-32.1	-32.6	24.9	0.00e+00	0	34	0	701497344	38	5475
2026-01-06 03:17:24.79	118.67	10.96	-32.0	-32.5	25.0	0.00e+00	0	34	0	708837376	38	5428
2026-01-06 03:17:25.80	118.60	11.05	-32.1	-32.7	25.0	0.00e+00	0	34	0	715128832	38	5515
2026-01-06 03:17:26.81	118.53	11.13	-32.1	-32.6	24.9	0.00e+00	0	34	0	722468864	38	5492
2026-01-06 03:17:27.82	118.47	11.22	-32.1	-32.7	24.9	0.00e+00	0	34	0	729808896	38	5520
2026-01-06 03:17:28.83	118.40	11.31	-32.2	-32.7	24.9	0.00e+00	0	34	0	737148928	38	5565
2026-01-06 03:17:29.84	118.33	11.39	-32.0	-32.5	25.1	0.00e+00	0	34	0	744488960	38	5414
2026-01-06 03:17:30.85	118.26	11.48	-32.1	-32.6	25.1	0.00e+00	0	34	0	751828992	38	5497
2026-01-06 03:17:31.86	118.19	11.57	-32.0	-32.5	25.1	0.00e+00	0	34	0	759169024	38	5406
2026-01-06 03:17:32.87	118.12	11.66	-32.1	-32.6	25.0	0.00e+00	0	34	0	766509056	38	5459
2026-01-06 03:17:33.88	118.05	11.74	-31.8	-32.3	25.2	0.00e+00	0	34	0	773849088	38	5289
2026-01-06 03:17:34.89	117.98	11.83	-32.1	-32.6	25.1	0.00e+00	0	34	0	781189120	38	5464
2026-01-06 03:17:35.90	117.90	11.92	-31.8	-32.4	25.3	0.00e+00	0	34	0	788529152	38	5323
2026-01-06 03:17:36.91	117.83	12.01	-31.8	-32.3	25.3	0.00e+00	0	34	0	795869184	38	5300
2026-01-06 03:17:37.92	117.76	12.10	-31.9	-32.4	25.3	0.00e+00	0	34	0	803209216	36	5993
2026-01-06 03:17:38.93	117.69	12.19	-31.7	-32.2	25.4	0.00e+00	0	34	0	810549248	36	5880
2026-01-06 03:17:39.94	117.61	12.28	-31.7	-32.2	25.3	0.00e+00	0	34	0	817889280	36	5892
2026-01-06 03:17:40.95	117.54	12.36	-31.7	-32.3	25.4	0.00e+00	0	34	0	825229312	36	5906
2026-01-06 03:17:41.96	117.47	12.45	-31.8	-32.3	25.3	0.00e+00	0	34	0	832569344	36	5964
2026-01-06 03:17:42.97	117.39	12.54	-31.7	-32.2	25.4	0.00e+00	0	34	0	839909376	36	5854
2026-01-06 03:17:43.98	117.32	12.64	-31.2	-31.7	25.6	0.00e+00	0	34	0	846200832	36	5553
2026-01-06 03:17:44.99	117.24	12.73	-31.6	-32.1	25.5	0.00e+00	0	34	0	854589440	36	5824
2026-01-06 03:17:46.00	117.16	12.82	-31.5	-32.0	25.6	0.00e+00	0	34	0	861929472	36	5745
2026-01-06 03:17:47.00	117.09	12.91	-31.5	-32.0	25.6	0.00e+00	0	34	0	868220928	36	5742
2026-01-06 03:17:48.02	117.01	13.00	-31.4	-31.9	25.7	0.00e+00	0	34	0	875560960	36	5690
2026-01-06 03:17:49.02	116.93	13.09	-31.5	-32.0	25.6	0.00e+00	0	34	0	882900992	36	5724
2026-01-06 03:17:50.03	116.85	13.18	-31.6	-32.1	25.5	0.00e+00	0	34	0	890241024	36	5813
2026-01-06 03:17:51.04	116.78	13.28	-31.6	-32.1	25.5	0.00e+00	0	34	0	897581056	36	5811
2026-01-06 03:17:52.05	116.70	13.37	-31.6	-32.2	25.5	0.00e+00	0	34	0	904921088	36	5844
2026-01-06 03:17:53.06	116.62	13.46	-31.7	-32.2	25.4	0.00e+00	0	34	0	912261120	36	5861
2026-01-06 03:17:54.07	116.54	13.56	-31.6	-32.1	25.5	0.00e+00	0	34	0	919601152	36	5798
2026-01-06 03:17:55.08	116.45	13.65	-31.7	-32.3	25.4	0.00e+00	0	34	0	926941184	36	5917
2026-01-06 03:17:56.09	116.37	13.74	-31.9	-32.4	25.4	0.00e+00	0	34	0	934281216	36	6018
2026-01-06 03:17:57.10	116.29	13.84	-31.7	-32.3	25.4	0.00e+00	0	34	0	941621248	36	5897
2026-01-06 03:17:58.11	116.21	13.93	-31.3	-31.8	25.8	0.00e+00	0	34	0	948961280	36	5625
2026-01-06 03:17:59.12	116.13	14.03	-31.3	-31.9	26.0	0.00e+00	0	34	0	956301312	36	5631
2026-01-06 03:18:00.12	116.04	14.12	-31.3	-31.8	25.8	0.00e+00	0	34	0	963641344	36	5611
2026-01-06 03:18:01.13	115.96	14.22	-31.3	-31.9	25.8	0.00e+00	0	34	0	970981376	36	5637
2026-01-06 03:18:02.14	115.87	14.31	-31.3	-31.8	25.8	0.00e+00	0	34	0	978321408	36	5622
2026-01-06 03:18:03.15	115.79	14.41	-31.3	-31.8	25.8	0.00e+00	0	34	0	985661440	36	5617
2026-01-06 03:18:04.16	115.70	14.51	-31.2	-31.7	25.9	0.00e+00	0	34	0	993001472	36	5559
2026-01-06 03:18:05.17	115.62	14.60	-31.4	-31.9	25.8	0.00e+00	0	34	0	999292928	36	5686
2026-01-06 03:18:06.18	115.53	14.70	-31.4	-31.9	25.8	0.00e+00	0	34	0	1007681536	36	5649
2026-01-06 03:18:07.19	115.44	14.80	-31.4	-31.9	25.7	0.00e+00	0	34	0	1015021568	36	5671
2026-01-06 03:18:08.20	115.35	14.89	-31.4	-31.9	25.8	0.00e+00	0	34	0	1021313024	36	5665
2026-01-06 03:18:09.21	115.27	14.99	-31.4	-31.9	25.8	0.00e+00	0	34	0	1028653056	36	5666
2026-01-06 03:18:10.22	115.18	15.09	-31.4	-31.9	25.8	0.00e+00	0	34	0	1035993088	36	5659
2026-01-06 03:18:11.23	115.09	15.19	-31.4	-31.9	25.8	0.00e+00	0	34	0	1043333120	36	5652
2026-01-06 03:18:12.24	115.00	15.29	-31.3	-31.8	25.8	0.00e+00	0	34	0	1050673152	36	5609
2026-01-06 03:18:13.25	114.90	15.39	-31.3	-31.8	25.8	0.00e+00	0	34	0	1058013184	36	5622
2026-01-06 03:18:14.26	114.81	15.49	-31.2	-31.8	25.9	0.00e+00	0	34	0	1065353216	36	5575
2026-01-06 03:18:15.27	114.72	15.59	-31.3	-31.8	26.3	0.00e+00	0	34	0	1072693248	36	5591
2026-01-06 03:18:16.28	114.63	15.69	-31.2	-31.8	25.9	0.00e+00	0	34	0	1080033280	36	5569
2026-01-06 03:18:17.28	114.53	15.79	-31.2	-31.7	26.0	0.00e+00	0	34	0	1087373312	36	5545
2026-01-06 03:18:18.30	114.44	15.89	-31.1	-31.6	26.0	0.00e+00	0	34	0	1094713344	36	5482
2026-01-06 03:18:19.31	114.34	15.99	-30.9	-31.4	26.2	0.00e+00	0	34	0	1102053376	36	5371
2026-01-06 03:18:20.31	114.25	16.09	-31.2	-31.7	26.2	0.00e+00	0	34	0	1109393408	36	5538
2026-01-06 03:18:21.33	114.15	16.20	-31.0	-31.5	26.2	0.00e+00	0	34	0	1116733440	36	5404
2026-01-06 03:18:22.34	114.05	16.30	-30.8	-31.3	26.3	0.00e+00	0	34	0	1124073472	36	5266
2026-01-06 03:18:23.34	113.96	16.40	-30.7	-31.2	26.3	0.00e+00	0	34	0	1131413504	34	5895
2026-01-06 03:18:24.35	113.86	16.50	-30.8	-31.3	26.3	0.00e+00	0	34	0	1138753536	34	5922
2026-01-06 03:18:25.36	113.76	16.61	-30.7	-31.2	26.4	0.00e+00	0	34	0	1145044992	34	5858
2026-01-06 03:18:26.37	113.66	16.71	-30.8	-31.3	26.3	0.00e+00	0	34	0	1152385024	34	5953
2026-01-06 03:18:27.38	113.56	16.81	-30.8	-31.3	26.2	0.00e+00	0	34	0	1160773632	34	5930
2026-01-06 03:18:28.39	113.46	16.92	-30.9	-31.4	26.2	0.00e+00	0	34	0	1167065088	34	5971
2026-01-06 03:18:29.40	113.36	17.02	-30.9	-31.4	26.2	0.00e+00	0	34	0	1174405120	34	6027
2026-01-06 03:18:30.41	113.25	17.13	-30.7	-31.2	26.5	0.00e+00	0	34	0	1181745152	34	5893
2026-01-06 03:18:31.42	113.15	17.23	-30.7	-31.2	26.4	0.00e+00	0	34	0	1189085184	34	5888
2026-01-06 03:18:32.43	113.04	17.34	-30.7	-31.2	26.4	0.00e+00	0	34	0	1196425216	34	5883
2026-01-06 03:18:33.44	112.94	17.45	-30.7	-31.2	26.4	0.00e+00	0	34	0	1203765248	34	5858
2026-01-06 03:18:34.45	112.83	17.55	-30.7	-31.2	26.5	0.00e+00	0	34	0	1211105280	34	5863
2026-01-06 03:18:35.46	112.73	17.66	-30.5	-31.0	26.5	0.00e+00	0	34	0	1218445312	34	5748
2026-01-06 03:18:36.47	112.62	17.77	-30.5	-31.0	26.4	0.00e+00	0	34	0	1225785344	34	5709
2026-01-06 03:18:37.48	112.51	17.88	-30.7	-31.2	26.5	0.00e+00	0	34	0	1233125376	34	5830
2026-01-06 03:18:38.48	112.40	17.98	-30.6	-31.1	26.5	0.00e+00	0	34	0	1240465408	34	5804
2026-01-06 03:18:39.49	112.29	18.09	-30.6	-31.1	26.5	0.00e+00	0	34	0	1247805440	34	5805
2026-01-06 03:18:40.50	112.18	18.20	-30.6	-31.1	26.6	0.00e+00	0	34	0	1255145472	34	5778
2026-01-06 03:18:41.51	112.07	18.31	-30.4	-30.9	26.7	0.00e+00	0	34	0	1262485504	34	5634
2026-01-06 03:18:42.52	111.96	18.42	-30.4	-30.9	26.7	0.00e+00	0	34	0	1269825536	34	5658
2026-01-06 03:18:43.53	111.85	18.53	-30.3	-30.8	26.7	0.00e+00	0	34	0	1277165568	34	5617
2026-01-06 03:18:44.54	111.73	18.64	-30.1	-30.6	26.9	0.00e+00	0	34	0	1284505600	34	5489
2026-01-06 03:18:45.55	111.62	18.75	-30.1	-30.6	27.0	0.00e+00	0	34	0	1291845632	34	5444
2026-01-06 03:18:46.56	111.50	18.86	-29.6	-30.1	27.5	0.00e+00	0	34	0	1298137088	34	5152
2026-01-06 03:18:47.57	111.39	18.97	-30.0	-30.5	27.1	0.00e+00	0	34	0	1305477120	32	6052
2026-01-06 03:18:48.58	111.27	19.08	-29.9	-30.4	27.2	0.00e+00	0	34	0	1312817152	32	5970
2026-01-06 03:18:49.59	111.15	19.20	-29.9	-30.4	27.1	0.00e+00	0	34	0	1320157184	32	6006
2026-01-06 03:18:50.60	111.03	19.31	-29.7	-30.2	27.2	0.00e+00	0	34	0	1327497216	32	5867
2026-01-06 03:18:51.61	110.91	19.42	-29.6	-30.1	27.4	0.00e+00	0	34	0	1334837248	32	5795
2026-01-06 03:18:52.62	110.79	19.53	-29.6	-30.1	27.3	0.00e+00	0	34	0	1342177280	32	5807
2026-01-06 03:18:53.63	110.67	19.65	-29.6	-30.1	27.4	0.00e+00	0	34	0	1349517312	32	5805
2026-01-06 03:18:54.64	110.55	19.76	-29.7	-30.2	27.3	0.00e+00	0	34	0	1356857344	32	5829
2026-01-06 03:18:55.65	110.42	19.88	-29.6	-30.1	27.3	0.00e+00	0	34	0	1364197376	32	5797
2026-01-06 03:18:56.66	110.30	19.99	-29.8	-30.2	27.3	0.00e+00	0	34	0	1371537408	32	5883
2026-01-06 03:18:57.67	110.17	20.11	-29.7	-30.2	27.3	0.00e+00	0	34	0	1378877440	32	5830
2026-01-06 03:18:58.68	110.05	20.22	-29.7	-30.2	27.3	0.00e+00	0	34	0	1386217472	32	5867
2026-01-06 03:18:59.69	109.92	20.34	-29.7	-30.1	27.3	0.00e+00	0	34	0	1393557504	32	5828
2026-01-06 03:19:00.70	109.79	20.45	-29.8	-30.3	27.3	0.00e+00	0	34	0	1400897536	32	5928
2026-01-06 03:19:01.71	109.66	20.57	-29.8	-30.3	27.2	0.00e+00	0	34	0	1408237568	32	5907
2026-01-06 03:19:02.71	109.53	20.69	-29.7	-30.2	27.3	0.00e+00	0	34	0	1415577600	32	5849
2026-01-06 03:19:03.72	109.40	20.81	-29.8	-30.2	27.1	0.00e+00	0	34	0	1421869056	32	5886
2026-01-06 03:19:04.73	109.27	20.92	-29.8	-30.3	27.2	0.00e+00	0	34	0	1429209088	32	5912
2026-01-06 03:19:05.74	109.14	21.04	-29.8	-30.3	27.2	0.00e+00	0	34	0	1437597696	32	5940
2026-01-06 03:19:06.75	109.00	21.16	-29.6	-30.1	27.3	0.00e+00	0	34	0	1443889152	32	5773
2026-01-06 03:19:07.76	108.87	21.28	-29.7	-30.1	27.4	0.00e+00	0	34	0	1451229184	32	5818
2026-01-06 03:19:08.77	108.73	21.40	-29.6	-30.0	27.5	0.00e+00	0	34	0	1458569216	32	5754
2026-01-06 03:19:09.78	108.59	21.52	-29.4	-29.9	27.5	0.00e+00	0	34	0	1465909248	32	5671
2026-01-06 03:19:10.79	108.45	21.64	-29.3	-29.8	27.6	0.00e+00	0	34	0	1473249280	32	5568
2026-01-06 03:19:11.80	108.31	21.76	-29.3	-29.7	27.6	0.00e+00	0	34	0	1480589312	32	5547
2026-01-06 03:19:12.81	108.17	21.88	-29.3	-29.7	27.6	0.00e+00	0	34	0	1487929344	32	5558
2026-01-06 03:19:13.82	108.03	22.00	-29.1	-29.5	27.7	0.00e+00	0	34	0	1495269376	32	5437
2026-01-06 03:19:14.83	107.88	22.12	-29.1	-29.5	27.9	0.00e+00	0	34	0	1502609408	32	5419
2026-01-06 03:19:15.84	107.74	22.25	-29.1	-29.6	27.8	0.00e+00	0	34	0	1509949440	32	5476
2026-01-06 03:19:16.85	107.59	22.37	-29.2	-29.7	27.7	0.00e+00	0	34	0	1517289472	32	5535
2026-01-06 03:19:17.86	107.45	22.49	-29.1	-29.6	27.8	0.00e+00	0	34	0	1524629504	32	5442
2026-01-06 03:19:18.86	107.30	22.61	-29.2	-29.7	27.6	0.00e+00	0	34	0	1531969536	32	5516
2026-01-06 03:19:19.87	107.15	22.74	-29.3	-29.8	27.6	0.00e+00	0	34	0	1539309568	32	5568
2026-01-06 03:19:20.88	107.00	22.86	-29.4	-29.9	27.5	0.00e+00	0	34	0	1546649600	32	5661
2026-01-06 03:19:21.89	106.85	22.99	-29.3	-29.8	27.6	0.00e+00	0	34	0	1553989632	32	5607
2026-01-06 03:19:22.90	106.70	23.11	-29.2	-29.6	27.7	0.00e+00	0	34	0	1561329664	32	5491
2026-01-06 03:19:23.90	106.54	23.24	-29.2	-29.7	27.6	0.00e+00	0	34	0	1568669696	32	5534
2026-01-06 03:19:24.91	106.39	23.36	-29.3	-29.8	27.6	0.00e+00	0	34	0	1574961152	32	5597
2026-01-06 03:19:25.92	106.23	23.49	-29.3	-29.8	27.5	0.00e+00	0	34	0	1582301184	32	5605
2026-01-06 03:19:26.93	106.07	23.61	-29.3	-29.8	27.6	0.00e+00	0	34	0	1589641216	32	5580
2026-01-06 03:19:27.94	105.91	23.74	-29.2	-29.7	27.5	0.00e+00	0	34	0	1596981248	32	5547
2026-01-06 03:19:28.95	105.75	23.87	-29.2	-29.7	27.7	0.00e+00	0	34	0	1604321280	32	5526
2026-01-06 03:19:29.96	105.59	23.99	-29.4	-29.8	27.5	0.00e+00	0	34	0	1611661312	32	5618
2026-01-06 03:19:30.97	105.43	24.12	-29.3	-29.8	27.7	0.00e+00	0	34	0	1619001344	32	5587
2026-01-06 03:19:31.98	105.26	24.25	-29.3	-29.8	27.7	0.00e+00	0	34	0	1626341376	32	5602
2026-01-06 03:19:32.99	105.10	24.38	-29.3	-29.8	27.7	0.00e+00	0	34	0	1633681408	32	5587
2026-01-06 03:19:34.00	104.93	24.51	-29.3	-29.8	27.6	0.00e+00	0	34	0	1641021440	32	5596
2026-01-06 03:19:35.01	104.76	24.64	-29.3	-29.8	27.6	0.00e+00	0	34	0	1648361472	32	5620
2026-01-06 03:19:36.02	104.59	24.77	-29.4	-29.9	27.6	0.00e+00	0	34	0	1655701504	32	5651
2026-01-06 03:19:37.03	104.42	24.90	-29.2	-29.6	27.8	0.00e+00	0	34	0	1663041536	32	5492
2026-01-06 03:19:38.04	104.25	25.03	-29.2	-29.7	27.8	0.00e+00	0	34	0	1670381568	32	5503
2026-01-06 03:19:39.04	104.07	25.16	-29.0	-29.5	27.9	0.00e+00	0	34	0	1677721600	30	6070
2026-01-06 03:19:40.05	103.90	25.29	-29.0	-29.5	27.8	0.00e+00	0	34	0	1685061632	30	6054
2026-01-06 03:19:41.06	103.72	25.42	-29.1	-29.5	27.9	0.00e+00	0	34	0	1692401664	30	6096
2026-01-06 03:19:42.07	103.54	25.55	-29.0	-29.5	27.9	0.00e+00	0	34	0	1698693120	30	6065
2026-01-06 03:19:43.08	103.36	25.68	-29.1	-29.6	27.8	0.00e+00	0	34	0	1706033152	30	6113
2026-01-06 03:19:44.09	103.18	25.82	-29.1	-29.6	27.6	0.00e+00	0	34	0	1714421760	30	6167
2026-01-06 03:19:45.10	103.00	25.95	-29.0	-29.5	27.8	0.00e+00	0	34	0	1720713216	30	6074
2026-01-06 03:19:46.11	102.81	26.08	-29.0	-29.5	27.9	0.00e+00	0	34	0	1728053248	30	6070
2026-01-06 03:19:47.12	102.62	26.22	-29.1	-29.6	27.8	0.00e+00	0	34	0	1735393280	30	6155
2026-01-06 03:19:48.13	102.44	26.35	-29.2	-29.7	27.8	0.00e+00	0	34	0	1742733312	30	6224
2026-01-06 03:19:49.14	102.25	26.48	-29.4	-29.9	27.7	0.00e+00	0	34	0	1750073344	30	6325
2026-01-06 03:19:50.14	102.06	26.62	-29.4	-29.9	27.6	0.00e+00	0	34	0	1757413376	30	6364
2026-01-06 03:19:51.16	101.86	26.75	-29.6	-30.0	27.5	0.00e+00	0	34	0	1764753408	30	6451
2026-01-06 03:19:52.17	101.67	26.89	-29.5	-30.0	27.5	0.00e+00	0	34	0	1772093440	30	6439
2026-01-06 03:19:53.18	101.47	27.02	-29.7	-30.1	27.5	0.00e+00	0	34	0	1779433472	30	6534
2026-01-06 03:19:54.18	101.27	27.16	-29.6	-30.1	27.4	0.00e+00	0	34	0	1786773504	30	6496
2026-01-06 03:19:55.19	101.07	27.29	-29.6	-30.1	27.4	0.00e+00	0	34	0	1794113536	32	5771
2026-01-06 03:19:56.20	100.87	27.43	-29.5	-30.0	27.5	0.00e+00	0	34	0	1801453568	32	5727
2026-01-06 03:19:57.21	100.67	27.57	-29.3	-29.8	27.7	0.00e+00	0	34	0	1808793600	32	5594
2026-01-06 03:19:58.22	100.46	27.70	-29.5	-29.9	27.5	0.00e+00	0	34	0	1816133632	32	5683
2026-01-06 03:19:59.23	100.26	27.84	-29.2	-29.7	27.7	0.00e+00	0	34	0	1823473664	32	5516
2026-01-06 03:20:00.24	100.05	27.98	-29.3	-29.8	27.9	0.00e+00	0	34	0	1830813696	32	5584
2026-01-06 03:20:01.25	99.84	28.12	-29.3	-29.8	27.6	0.00e+00	0	34	0	1838153728	32	5611
2026-01-06 03:20:02.26	99.62	28.25	-29.1	-29.6	27.9	0.00e+00	0	34	0	1845493760	32	5445
2026-01-06 03:20:03.27	99.41	28.39	-29.0	-29.5	27.9	0.00e+00	0	34	0	1851785216	32	5417
2026-01-06 03:20:04.28	99.19	28.53	-29.0	-29.5	27.9	0.00e+00	0	34	0	1859125248	32	5402
2026-01-06 03:20:05.29	98.98	28.67	-29.0	-29.5	28.0	0.00e+00	0	34	0	1867513856	32	5379
2026-01-06 03:20:06.30	98.76	28.81	-28.8	-29.3	28.1	0.00e+00	0	34	0	1873805312	32	5283
2026-01-06 03:20:07.31	98.53	28.95	-28.9	-29.4	27.9	0.00e+00	0	34	0	1881145344	32	5324
2026-01-06 03:20:08.32	98.31	29.09	-28.8	-29.3	28.0	0.00e+00	0	34	0	1888485376	32	5291
2026-01-06 03:20:09.33	98.08	29.23	-28.8	-29.3	28.0	0.00e+00	0	34	0	1895825408	32	5281
2026-01-06 03:20:10.34	97.86	29.36	-28.9	-29.4	28.1	0.00e+00	0	34	0	1903165440	30	5990
2026-01-06 03:20:11.35	97.63	29.50	-28.7	-29.2	28.2	0.00e+00	0	34	0	1910505472	30	5841
2026-01-06 03:20:12.36	97.39	29.64	-28.7	-29.2	28.2	0.00e+00	0	34	0	1917845504	30	5859
2026-01-06 03:20:13.37	97.16	29.78	-28.7	-29.1	28.2	0.00e+00	0	34	0	1925185536	30	5814
2026-01-06 03:20:14.38	96.93	29.92	-28.9	-29.4	28.0	0.00e+00	0	34	0	1932525568	30	6008
2026-01-06 03:20:15.38	96.69	30.06	-28.4	-28.9	28.2	0.00e+00	0	34	0	1939865600	30	5672
2026-01-06 03:20:16.39	96.45	30.20	-28.4	-28.9	28.3	0.00e+00	0	34	0	1947205632	30	5653
2026-01-06 03:20:17.40	96.21	30.34	-28.6	-29.0	28.3	0.00e+00	0	34	0	1954545664	30	5744
2026-01-06 03:20:18.41	95.96	30.48	-28.4	-28.9	28.4	0.00e+00	0	34	0	1961885696	30	5643
2026-01-06 03:20:19.42	95.72	30.63	-28.3	-28.8	28.4	0.00e+00	0	34	0	1969225728	30	5576
2026-01-06 03:20:20.43	95.47	30.77	-28.3	-28.8	28.4	0.00e+00	0	34	0	1975517184	30	5572
2026-01-06 03:20:21.43	95.22	30.91	-28.5	-29.0	28.2	0.00e+00	0	34	0	1983905792	30	5707
2026-01-06 03:20:22.44	94.97	31.05	-28.5	-29.0	28.3	0.00e+00	0	34	0	1991245824	30	5696
2026-01-06 03:20:23.45	94.71	31.19	-28.6	-29.1	28.4	0.00e+00	0	34	0	1997537280	30	5763
2026-01-06 03:20:24.45	94.46	31.33	-28.4	-28.9	28.3	0.00e+00	0	34	0	2004877312	30	5671
2026-01-06 03:20:25.46	94.20	31.47	-28.4	-28.9	28.4	0.00e+00	0	34	0	2012217344	30	5658
2026-01-06 03:20:26.47	93.93	31.61	-28.5	-28.9	28.3	0.00e+00	0	34	0	2019557376	30	5680
2026-01-06 03:20:27.48	93.67	31.75	-28.6	-29.0	28.0	0.00e+00	0	34	0	2026897408	30	5747
2026-01-06 03:20:28.49	93.40	31.89	-28.8	-29.2	28.1	0.00e+00	0	34	0	2034237440	30	5879
2026-01-06 03:20:29.50	93.13	32.03	-28.7	-29.2	28.1	0.00e+00	0	34	0	2041577472	30	5867
2026-01-06 03:20:30.51	92.86	32.17	-28.7	-29.2	28.0	0.00e+00	0	34	0	2048917504	30	5835
2026-01-06 03:20:31.52	92.59	32.31	-28.8	-29.2	28.1	0.00e+00	0	34	0	2056257536	30	5896
2026-01-06 03:20:32.53	92.31	32.45	-29.0	-29.5	27.9	0.00e+00	0	34	0	2063597568	30	6060
2026-01-06 03:20:33.54	92.03	32.59	-28.9	-29.4	27.8	0.00e+00	0	34	0	2070937600	30	5976
2026-01-06 03:20:34.55	91.75	32.73	-28.9	-29.3	27.7	0.00e+00	0	34	0	2078277632	30	5961
2026-01-06 03:20:35.56	91.47	32.88	-28.7	-29.2	28.2	0.00e+00	0	34	0	2085617664	30	5858
2026-01-06 03:20:36.57	91.18	33.02	-28.5	-29.0	28.3	0.00e+00	0	34	0	2092957696	30	5696
2026-01-06 03:20:37.58	90.90	33.16	-28.4	-28.9	28.1	0.00e+00	0	34	0	2100297728	30	5652
2026-01-06 03:20:38.59	90.60	33.29	-28.5	-28.9	28.2	0.00e+00	0	34	0	2107637760	30	5686
2026-01-06 03:20:39.60	90.31	33.43	-28.5	-28.9	28.4	0.00e+00	0	34	0	2114977792	30	5694
2026-01-06 03:20:40.61	90.02	33.57	-28.5	-29.0	28.3	0.00e+00	0	34	0	2122317824	30	5716
2026-01-06 03:20:41.62	89.72	33.71	-28.8	-29.3	28.3	0.00e+00	0	34	0	2128609280	30	5898
2026-01-06 03:20:42.63	89.42	33.85	-28.9	-29.4	28.0	0.00e+00	0	34	0	2135949312	30	6000
2026-01-06 03:20:43.64	89.11	33.99	-29.0	-29.5	28.0	0.00e+00	0	34	0	2144337920	30	6042
2026-01-06 03:20:44.65	88.81	34.13	-28.8	-29.3	28.1	0.00e+00	0	34	0	2150629376	30	5897
2026-01-06 03:20:45.66	88.50	34.27	-28.8	-29.3	28.1	0.00e+00	0	34	0	2157969408	30	5944
2026-01-06 03:20:46.67	88.18	34.40	-28.8	-29.3	28.1	0.00e+00	0	34	0	2165309440	30	5942
2026-01-06 03:20:47.68	87.87	34.54	-28.6	-29.1	28.3	0.00e+00	0	34	0	2172649472	30	5784
2026-01-06 03:20:48.69	87.55	34.68	-28.5	-29.0	28.3	0.00e+00	0	34	0	2179989504	30	5731
2026-01-06 03:20:49.70	87.23	34.81	-28.4	-28.9	28.5	0.00e+00	0	34	0	2187329536	30	5638
2026-01-06 03:20:50.71	86.91	34.95	-28.3	-28.8	28.5	0.00e+00	0	34	0	2194669568	30	5571
2026-01-06 03:20:51.72	86.59	35.09	-28.4	-28.9	28.4	0.00e+00	0	34	0	2202009600	30	5637
2026-01-06 03:20:52.73	86.26	35.22	-28.6	-29.0	28.3	0.00e+00	0	34	0	2209349632	30	5758
2026-01-06 03:20:53.74	85.93	35.35	-28.6	-29.1	28.3	0.00e+00	0	34	0	2216689664	30	5807
2026-01-06 03:20:54.75	85.60	35.49	-28.7	-29.1	28.2	0.00e+00	0	34	0	2224029696	30	5816
2026-01-06 03:20:55.76	85.26	35.62	-28.6	-29.1	28.2	0.00e+00	0	34	0	2231369728	30	5811
2026-01-06 03:20:56.77	84.92	35.75	-28.6	-29.1	28.3	0.00e+00	0	34	0	2238709760	30	5802
2026-01-06 03:20:57.78	84.58	35.89	-28.7	-29.2	28.3	0.00e+00	0	34	0	2246049792	30	5832
2026-01-06 03:20:58.78	84.24	36.02	-28.8	-29.2	28.2	0.00e+00	0	34	0	2253389824	30	5883
2026-01-06 03:20:59.79	83.89	36.15	-28.8	-29.3	28.1	0.00e+00	0	34	0	2260729856	30	5905
2026-01-06 03:21:00.80	83.54	36.28	-28.8	-29.3	28.2	0.00e+00	0	34	0	2268069888	30	5899
2026-01-06 03:21:01.81	83.19	36.41	-28.7	-29.2	28.1	0.00e+00	0	34	0	2275409920	30	5872
2026-01-06 03:21:02.82	82.83	36.54	-28.7	-29.1	28.3	0.00e+00	0	34	0	2281701376	30	5820
2026-01-06 03:21:03.83	82.47	36.66	-28.7	-29.2	28.2	0.00e+00	0	34	0	2290089984	30	5864
2026-01-06 03:21:04.84	82.11	36.79	-28.6	-29.1	28.3	0.00e+00	0	34	0	2297430016	30	5792
2026-01-06 03:21:05.85	81.75	36.92	-28.5	-29.0	28.3	0.00e+00	0	34	0	2303721472	30	5705
2026-01-06 03:21:06.86	81.38	37.04	-28.5	-29.0	28.3	0.00e+00	0	34	0	2311061504	30	5714
2026-01-06 03:21:07.87	81.01	37.17	-28.3	-28.7	28.4	0.00e+00	0	34	0	2318401536	30	5554
2026-01-06 03:21:08.88	80.64	37.29	-28.7	-29.2	28.2	0.00e+00	0	34	0	2325741568	30	5840
2026-01-06 03:21:09.89	80.27	37.41	-28.6	-29.1	28.3	0.00e+00	0	34	0	2333081600	30	5766
2026-01-06 03:21:10.89	79.89	37.54	-28.7	-29.2	28.1	0.00e+00	0	34	0	2340421632	30	5871
2026-01-06 03:21:11.90	79.51	37.66	-29.1	-29.5	28.0	0.00e+00	0	34	0	2347761664	30	6095
2026-01-06 03:21:12.91	79.13	37.78	-29.2	-29.7	27.7	0.00e+00	0	34	0	2355101696	30	6224
2026-01-06 03:21:13.92	78.74	37.89	-29.4	-29.9	27.7	0.00e+00	0	34	0	2362441728	30	6348
2026-01-06 03:21:14.93	78.35	38.01	-29.5	-30.0	27.6	0.00e+00	0	34	0	2369781760	30	6400
2026-01-06 03:21:15.94	77.96	38.13	-29.5	-29.9	27.6	0.00e+00	0	34	0	2377121792	30	6380
2026-01-06 03:21:16.95	77.56	38.24	-29.5	-30.0	27.6	0.00e+00	0	34	0	2384461824	30	6428
2026-01-06 03:21:17.96	77.16	38.36	-29.4	-29.9	27.6	0.00e+00	0	34	0	2391801856	32	5635
2026-01-06 03:21:18.97	76.76	38.47	-28.9	-29.4	28.0	0.00e+00	0	34	0	2399141888	32	5333
2026-01-06 03:21:19.98	76.36	38.58	-28.8	-29.2	28.2	0.00e+00	0	34	0	2405433344	32	5227
2026-01-06 03:21:20.99	75.95	38.69	-28.8	-29.3	28.1	0.00e+00	0	34	0	2413821952	30	5921
2026-01-06 03:21:22.00	75.55	38.80	-28.7	-29.2	28.1	0.00e+00	0	34	0	2421161984	30	5855
2026-01-06 03:21:23.01	75.13	38.91	-28.7	-29.2	28.1	0.00e+00	0	34	0	2427453440	30	5867
2026-01-06 03:21:24.02	74.72	39.02	-28.6	-29.1	28.2	0.00e+00	0	34	0	2434793472	30	5805
2026-01-06 03:21:25.03	74.30	39.12	-29.0	-29.5	28.1	0.00e+00	0	34	0	2442133504	30	6037
2026-01-06 03:21:26.04	73.88	39.23	-29.1	-29.6	28.0	0.00e+00	0	34	0	2449473536	30	6134
2026-01-06 03:21:27.05	73.46	39.33	-29.0	-29.4	27.9	0.00e+00	0	34	0	2456813568	30	6032
2026-01-06 03:21:28.06	73.03	39.43	-29.2	-29.7	27.9	0.00e+00	0	34	0	2464153600	30	6203
2026-01-06 03:21:29.07	72.61	39.53	-29.3	-29.8	27.8	0.00e+00	0	34	0	2471493632	30	6280
2026-01-06 03:21:30.08	72.18	39.63	-29.3	-29.8	27.8	0.00e+00	0	34	0	2478833664	30	6268
2026-01-06 03:21:31.09	71.74	39.72	-29.3	-29.8	27.8	0.00e+00	0	34	0	2486173696	30	6272
2026-01-06 03:21:32.10	71.31	39.82	-29.3	-29.7	27.8	0.00e+00	0	34	0	2493513728	30	6226
2026-01-06 03:21:33.11	70.87	39.91	-29.1	-29.6	27.9	0.00e+00	0	34	0	2500853760	30	6115
2026-01-06 03:21:34.12	70.43	40.00	-28.9	-29.4	28.1	0.00e+00	0	34	0	2508193792	30	6016
2026-01-06 03:21:35.13	69.99	40.09	-28.8	-29.3	28.2	0.00e+00	0	34	0	2515533824	30	5912
2026-01-06 03:21:36.14	69.54	40.18	-28.7	-29.2	28.3	0.00e+00	0	34	0	2522873856	30	5831
2026-01-06 03:21:37.15	69.09	40.26	-28.6	-29.0	28.3	0.00e+00	0	34	0	2530213888	30	5741
2026-01-06 03:21:38.15	68.65	40.35	-28.5	-28.9	28.3	0.00e+00	0	34	0	2537553920	30	5688
2026-01-06 03:21:39.16	68.19	40.43	-28.6	-29.1	28.3	0.00e+00	0	34	0	2544893952	30	5786
2026-01-06 03:21:40.17	67.74	40.51	-28.6	-29.1	28.3	0.00e+00	0	34	0	2552233984	30	5777
2026-01-06 03:21:41.18	67.28	40.59	-28.8	-29.2	28.2	0.00e+00	0	34	0	2558525440	30	5896
2026-01-06 03:21:42.18	66.83	40.66	-29.0	-29.4	28.0	0.00e+00	0	34	0	2566914048	30	6020
2026-01-06 03:21:43.19	66.37	40.74	-28.9	-29.4	28.0	0.00e+00	0	34	0	2574254080	30	5970
2026-01-06 03:21:44.20	65.90	40.81	-29.1	-29.5	28.0	0.00e+00	0	34	0	2580545536	30	6094
2026-01-06 03:21:45.21	65.44	40.88	-29.1	-29.6	27.9	0.00e+00	0	34	0	2587885568	30	6156
2026-01-06 03:21:46.22	64.97	40.95	-29.1	-29.6	28.0	0.00e+00	0	34	0	2595225600	30	6116
2026-01-06 03:21:47.23	64.50	41.02	-29.0	-29.5	28.1	0.00e+00	0	34	0	2602565632	30	6036
2026-01-06 03:21:48.24	64.03	41.08	-28.9	-29.4	28.1	0.00e+00	0	34	0	2609905664	30	6017
2026-01-06 03:21:49.25	63.55	41.15	-28.9	-29.3	28.1	0.00e+00	0	34	0	2617245696	30	5957
2026-01-06 03:21:50.26	63.08	41.21	-29.0	-29.4	28.0	0.00e+00	0	34	0	2624585728	30	6009
2026-01-06 03:21:51.27	62.60	41.26	-28.9	-29.3	28.1	0.00e+00	0	34	0	2631925760	30	5954
2026-01-06 03:21:52.28	62.12	41.32	-28.9	-29.4	28.1	0.00e+00	0	34	0	2639265792	30	5976
2026-01-06 03:21:53.29	61.64	41.37	-28.9	-29.3	28.1	0.00e+00	0	34	0	2646605824	30	5949
2026-01-06 03:21:54.30	61.16	41.43	-28.8	-29.3	28.1	0.00e+00	0	34	0	2653945856	30	5912
2026-01-06 03:21:55.31	60.68	41.47	-28.7	-29.2	28.2	0.00e+00	0	34	0	2661285888	30	5859
2026-01-06 03:21:56.31	60.20	41.52	-28.7	-29.1	28.3	0.00e+00	0	35	0	2668625920	30	5823
2026-01-06 03:21:57.32	59.71	41.57	-28.5	-28.9	28.4	0.00e+00	0	34	0	2675965952	30	5687
2026-01-06 03:21:58.33	59.23	41.61	-28.4	-28.8	28.4	0.00e+00	0	34	0	2683305984	30	5611
2026-01-06 03:21:59.34	58.74	41.65	-28.3	-28.7	28.5	0.00e+00	0	34	0	2690646016	30	5560
2026-01-06 03:22:00.35	58.25	41.69	-28.4	-28.8	28.5	0.00e+00	0	34	0	2697986048	30	5628
2026-01-06 03:22:01.36	57.76	41.72	-28.4	-28.9	28.5	0.00e+00	0	35	0	2704277504	30	5666
2026-01-06 03:22:02.37	57.26	41.76	-28.4	-28.9	28.5	0.00e+00	0	34	0	2711617536	30	5666
2026-01-06 03:22:03.38	56.77	41.79	-28.4	-28.9	28.4	0.00e+00	0	34	0	2718957568	30	5634
2026-01-06 03:22:04.39	56.28	41.82	-28.5	-29.0	28.3	0.00e+00	0	34	0	2726297600	30	5717
2026-01-06 03:22:05.40	55.78	41.84	-28.6	-29.1	28.3	0.00e+00	0	34	0	2733637632	30	5771
2026-01-06 03:22:06.41	55.29	41.87	-28.8	-29.2	28.2	0.00e+00	0	34	0	2740977664	30	5892
2026-01-06 03:22:07.42	54.79	41.89	-28.8	-29.3	28.1	0.00e+00	0	34	0	2748317696	30	5942
2026-01-06 03:22:08.43	54.29	41.91	-28.8	-29.2	28.1	0.00e+00	0	34	0	2755657728	30	5896
2026-01-06 03:22:09.44	53.80	41.92	-28.6	-29.0	28.3	0.00e+00	0	34	0	2762997760	30	5744
2026-01-06 03:22:10.44	53.30	41.94	-28.5	-28.9	28.4	0.00e+00	0	34	0	2770337792	30	5679
2026-01-06 03:22:11.45	52.81	41.95	-28.6	-29.0	28.3	0.00e+00	0	34	0	2777677824	30	5751
2026-01-06 03:22:12.46	52.31	41.96	-28.6	-29.1	28.3	0.00e+00	0	34	0	2785017856	30	5777
2026-01-06 03:22:13.47	51.81	41.97	-28.6	-29.1	28.2	0.00e+00	0	34	0	2792357888	30	5783
2026-01-06 03:22:14.48	51.31	41.97	-28.5	-29.0	28.3	0.00e+00	0	34	0	2799697920	30	5727
2026-01-06 03:22:15.49	50.81	41.97	-28.6	-29.0	28.3	0.00e+00	0	34	0	2807037952	30	5744
2026-01-06 03:22:16.50	50.31	41.97	-28.6	-29.0	28.3	0.00e+00	0	34	0	2814377984	30	5748
2026-01-06 03:22:17.51	49.81	41.97	-28.5	-29.0	28.3	0.00e+00	0	34	0	2821718016	30	5728
2026-01-06 03:22:18.52	49.31	41.96	-28.7	-29.1	28.3	0.00e+00	0	34	0	2829058048	30	5818
2026-01-06 03:22:19.53	48.81	41.95	-28.5	-29.0	28.4	0.00e+00	0	34	0	2835349504	30	5727
2026-01-06 03:22:20.54	48.32	41.94	-28.6	-29.1	28.4	0.00e+00	0	34	0	2843738112	30	5781
2026-01-06 03:22:21.55	47.82	41.93	-28.4	-28.9	28.4	0.00e+00	0	34	0	2851078144	30	5660
2026-01-06 03:22:22.56	47.32	41.92	-28.6	-29.0	28.3	0.00e+00	0	34	0	2857369600	30	5748
2026-01-06 03:22:23.57	46.82	41.90	-28.6	-29.0	28.2	0.00e+00	0	34	0	2864709632	30	5748
2026-01-06 03:22:24.58	46.33	41.88	-28.5	-29.0	28.2	0.00e+00	0	34	0	2872049664	30	5726
2026-01-06 03:22:25.59	45.83	41.86	-28.4	-28.9	28.3	0.00e+00	0	34	0	2879389696	30	5675
2026-01-06 03:22:26.60	45.34	41.83	-28.6	-29.0	28.2	0.00e+00	0	34	0	2886729728	30	5757
2026-01-06 03:22:27.61	44.84	41.80	-28.7	-29.2	28.1	0.00e+00	0	34	0	2894069760	30	5843
2026-01-06 03:22:28.62	44.35	41.77	-28.9	-29.3	27.9	0.00e+00	0	34	0	2901409792	30	5955
2026-01-06 03:22:29.62	43.86	41.74	-29.0	-29.4	27.9	0.00e+00	0	34	0	2908749824	30	6007
2026-01-06 03:22:30.63	43.37	41.71	-29.1	-29.6	27.9	0.00e+00	0	34	0	2916089856	30	6121
2026-01-06 03:22:31.64	42.88	41.67	-29.1	-29.6	27.7	0.00e+00	0	34	0	2923429888	30	6118
2026-01-06 03:22:32.65	42.39	41.63	-29.1	-29.6	27.9	0.00e+00	0	34	0	2930769920	30	6122
2026-01-06 03:22:33.66	41.90	41.59	-28.8	-29.2	28.2	0.00e+00	0	34	0	2938109952	30	5881
2026-01-06 03:22:34.67	41.42	41.55	-28.8	-29.3	28.0	0.00e+00	0	34	0	2945449984	30	5923
2026-01-06 03:22:35.68	40.93	41.50	-28.9	-29.4	28.1	0.00e+00	0	34	0	2952790016	30	5972
2026-01-06 03:22:36.69	40.45	41.45	-29.0	-29.5	28.0	0.00e+00	0	34	0	2960130048	30	6043
2026-01-06 03:22:37.70	39.97	41.40	-29.1	-29.6	27.9	0.00e+00	0	34	0	2967470080	30	6145
2026-01-06 03:22:38.71	39.49	41.35	-29.0	-29.5	28.0	0.00e+00	0	34	0	2974810112	30	6076
2026-01-06 03:22:39.72	39.01	41.29	-28.9	-29.3	28.0	0.00e+00	0	34	0	2981101568	30	5945
2026-01-06 03:22:40.73	38.53	41.24	-28.7	-29.2	28.2	0.00e+00	0	34	0	2988441600	30	5836
2026-01-06 03:22:41.74	38.05	41.18	-28.8	-29.3	28.2	0.00e+00	0	34	0	2996830208	30	5902
2026-01-06 03:22:42.75	37.58	41.12	-28.7	-29.2	28.2	0.00e+00	0	34	0	3003121664	30	5838
2026-01-06 03:22:43.76	37.11	41.05	-28.7	-29.2	28.2	0.00e+00	0	34	0	3010461696	30	5836
2026-01-06 03:22:44.77	36.64	40.99	-28.8	-29.2	28.1	0.00e+00	0	34	0	3017801728	30	5887
2026-01-06 03:22:45.78	36.17	40.92	-28.5	-29.0	28.4	0.00e+00	0	35	0	3025141760	30	5734
2026-01-06 03:22:46.78	35.71	40.85	-28.4	-28.9	28.4	0.00e+00	0	34	0	3032481792	30	5644
2026-01-06 03:22:47.79	35.24	40.78	-28.4	-28.9	28.4	0.00e+00	0	34	0	3039821824	30	5661
2026-01-06 03:22:48.81	34.78	40.71	-28.4	-28.9	28.4	0.00e+00	0	34	0	3047161856	30	5663
2026-01-06 03:22:49.81	34.32	40.63	-28.5	-28.9	28.4	0.00e+00	0	34	0	3054501888	30	5673
2026-01-06 03:22:50.82	33.86	40.55	-28.5	-29.0	28.3	0.00e+00	0	35	0	3061841920	30	5738
2026-01-06 03:22:51.83	33.41	40.47	-28.7	-29.2	28.2	0.00e+00	0	34	0	3069181952	30	5866
2026-01-06 03:22:52.84	32.96	40.39	-28.7	-29.2	28.3	0.00e+00	0	34	0	3076521984	30	5860
2026-01-06 03:22:53.85	32.50	40.31	-28.9	-29.3	28.1	0.00e+00	0	34	0	3083862016	30	5949
2026-01-06 03:22:54.86	32.06	40.22	-28.8	-29.2	28.2	0.00e+00	0	34	0	3091202048	30	5874
2026-01-06 03:22:55.87	31.61	40.14	-28.7	-29.2	28.2	0.00e+00	0	34	0	3098542080	30	5855
2026-01-06 03:22:56.88	31.17	40.05	-28.6	-29.0	28.3	0.00e+00	0	34	0	3105882112	30	5751
2026-01-06 03:22:57.89	30.72	39.96	-28.6	-29.1	28.3	0.00e+00	0	34	0	3113222144	30	5789
2026-01-06 03:22:58.90	30.29	39.87	-28.5	-28.9	28.4	0.00e+00	0	34	0	3120562176	30	5683
2026-01-06 03:22:59.91	29.85	39.77	-28.6	-29.1	28.3	0.00e+00	0	34	0	3127902208	30	5794
2026-01-06 03:23:00.92	29.42	39.68	-28.7	-29.1	28.2	0.00e+00	0	34	0	3134193664	30	5822
2026-01-06 03:23:01.93	28.98	39.58	-28.5	-29.0	28.4	0.00e+00	0	34	0	3141533696	30	5714
2026-01-06 03:23:02.94	28.56	39.48	-28.5	-28.9	28.4	0.00e+00	0	34	0	3149922304	30	5691
2026-01-06 03:23:03.95	28.13	39.38	-28.4	-28.8	28.5	0.00e+00	0	34	0	3156213760	30	5624
2026-01-06 03:23:04.96	27.71	39.28	-28.5	-28.9	28.2	0.00e+00	0	34	0	3163553792	30	5688
2026-01-06 03:23:05.97	27.29	39.18	-28.2	-28.7	28.5	0.00e+00	0	34	0	3170893824	30	5538
2026-01-06 03:23:06.98	26.87	39.08	-28.4	-28.8	28.5	0.00e+00	0	34	0	3178233856	30	5622
2026-01-06 03:23:07.99	26.45	38.97	-28.3	-28.8	28.4	0.00e+00	0	34	0	3185573888	30	5578
2026-01-06 03:23:09.00	26.04	38.86	-28.4	-28.9	28.4	0.00e+00	0	34	0	3192913920	30	5639
2026-01-06 03:23:10.01	25.63	38.76	-28.5	-28.9	28.4	0.00e+00	0	35	0	3200253952	30	5687
2026-01-06 03:23:11.02	25.22	38.65	-28.5	-28.9	28.4	0.00e+00	0	35	0	3207593984	30	5672
2026-01-06 03:23:12.03	24.82	38.54	-28.5	-28.9	28.4	0.00e+00	0	34	0	3214934016	30	5682
2026-01-06 03:23:13.04	24.42	38.42	-28.6	-29.0	28.3	0.00e+00	0	34	0	3222274048	30	5754
2026-01-06 03:23:14.05	24.02	38.31	-28.6	-29.0	28.3	0.00e+00	0	34	0	3229614080	30	5759
2026-01-06 03:23:15.06	23.62	38.20	-28.5	-29.0	28.4	0.00e+00	0	34	0	3236954112	30	5710
2026-01-06 03:23:16.07	23.23	38.08	-28.5	-29.0	28.3	0.00e+00	0	35	0	3244294144	30	5740
2026-01-06 03:23:17.08	22.84	37.96	-28.5	-28.9	28.4	0.00e+00	0	34	0	3251634176	30	5672
2026-01-06 03:23:18.09	22.45	37.84	-28.5	-29.0	28.0	0.00e+00	0	34	0	3258974208	30	5731
2026-01-06 03:23:19.10	22.07	37.73	-28.4	-28.9	28.4	0.00e+00	0	35	0	3266314240	30	5640
2026-01-06 03:23:20.11	21.69	37.61	-28.4	-28.8	28.4	0.00e+00	0	35	0	3273654272	30	5620
2026-01-06 03:23:21.12	21.31	37.48	-28.4	-28.8	28.5	0.00e+00	0	35	0	3279945728	30	5611
2026-01-06 03:23:22.13	20.93	37.36	-28.4	-28.9	28.5	0.00e+00	0	34	0	3287285760	30	5640
2026-01-06 03:23:23.14	20.56	37.24	-28.6	-29.1	28.3	0.00e+00	0	35	0	3295674368	30	5769
2026-01-06 03:23:24.15	20.19	37.12	-28.7	-29.1	28.3	0.00e+00	0	35	0	3301965824	30	5815
2026-01-06 03:23:25.16	19.82	36.99	-28.8	-29.2	28.1	0.00e+00	0	35	0	3309305856	30	5885
2026-01-06 03:23:26.17	19.46	36.87	-28.8	-29.3	28.1	0.00e+00	0	35	0	3316645888	30	5911
2026-01-06 03:23:27.17	19.10	36.74	-28.8	-29.2	28.1	0.00e+00	0	34	0	3323985920	30	5884
2026-01-06 03:23:28.18	18.74	36.61	-28.6	-29.0	28.3	0.00e+00	0	35	0	3331325952	30	5756
2026-01-06 03:23:29.19	18.38	36.48	-28.5	-29.0	28.4	0.00e+00	0	35	0	3338665984	30	5718
2026-01-06 03:23:30.20	18.03	36.36	-28.7	-29.1	28.3	0.00e+00	0	34	0	3346006016	30	5816
2026-01-06 03:23:31.21	17.68	36.23	-28.7	-29.2	28.2	0.00e+00	0	35	0	3353346048	30	5860
2026-01-06 03:23:32.22	17.33	36.10	-28.5	-29.0	28.4	0.00e+00	0	35	0	3360686080	30	5699
2026-01-06 03:23:33.23	16.99	35.97	-28.3	-28.7	28.5	0.00e+00	0	35	0	3368026112	30	5558
2026-01-06 03:23:34.24	16.64	35.83	-28.3	-28.8	28.5	0.00e+00	0	35	0	3375366144	30	5582
2026-01-06 03:23:35.25	16.30	35.70	-28.3	-28.8	28.5	0.00e+00	0	35	0	3382706176	30	5584
2026-01-06 03:23:36.26	15.97	35.57	-28.5	-29.0	28.3	0.00e+00	0	35	0	3390046208	30	5699
2026-01-06 03:23:37.27	15.63	35.44	-28.3	-28.8	28.6	0.00e+00	0	35	0	3397386240	30	5586
2026-01-06 03:23:38.28	15.30	35.30	-28.3	-28.8	28.4	0.00e+00	0	35	0	3404726272	30	5582
2026-01-06 03:23:39.29	14.97	35.17	-28.6	-29.2	28.4	0.00e+00	0	35	0	3412066304	30	5835
2026-01-06 03:23:40.30	14.65	35.03	-28.6	-29.1	28.3	0.00e+00	0	34	0	3419406336	30	5785
2026-01-06 03:23:41.31	14.33	34.90	-28.5	-29.0	28.4	0.00e+00	0	35	0	3426746368	30	5744
2026-01-06 03:23:42.32	14.01	34.76	-28.4	-28.9	28.3	0.00e+00	0	35	0	3433037824	30	5677
2026-01-06 03:23:43.33	13.69	34.63	-28.3	-28.8	28.5	0.00e+00	0	35	0	3441426432	30	5595
2026-01-06 03:23:44.34	13.37	34.49	-28.3	-28.7	28.5	0.00e+00	0	35	0	3448766464	30	5542
2026-01-06 03:23:45.35	13.06	34.35	-28.0	-28.5	28.7	0.00e+00	0	35	0	3455057920	30	5393
2026-01-06 03:23:46.36	12.75	34.21	-28.3	-28.7	28.6	0.00e+00	0	34	0	3462397952	30	5549
2026-01-06 03:23:47.37	12.44	34.08	-28.2	-28.7	28.7	0.00e+00	0	34	0	3469737984	30	5505
2026-01-06 03:23:48.38	12.14	33.94	-28.3	-28.7	28.5	0.00e+00	0	35	0	3477078016	30	5544
2026-01-06 03:23:49.39	11.84	33.80	-28.5	-29.0	28.2	0.00e+00	0	35	0	3484418048	30	5726
2026-01-06 03:23:50.40	11.54	33.66	-28.6	-29.1	28.3	0.00e+00	0	35	0	3491758080	30	5773
2026-01-06 03:23:51.41	11.24	33.52	-28.6	-29.0	28.3	0.00e+00	0	34	0	3499098112	30	5754
2026-01-06 03:23:52.42	10.95	33.38	-28.6	-29.1	28.3	0.00e+00	0	34	0	3506438144	30	5787
2026-01-06 03:23:53.43	10.66	33.25	-28.6	-29.0	28.4	0.00e+00	0	34	0	3513778176	30	5757
2026-01-06 03:23:54.44	10.37	33.11	-28.5	-29.0	28.3	0.00e+00	0	34	0	3521118208	30	5730
2026-01-06 03:23:55.45	10.08	32.97	-28.6	-29.0	28.4	0.00e+00	0	34	0	3528458240	30	5761
2026-01-06 03:23:56.46	9.80	32.83	-28.4	-28.8	28.5	0.00e+00	0	34	0	3535798272	30	5620
2026-01-06 03:23:57.47	9.52	32.69	-28.5	-28.9	28.3	0.00e+00	0	34	0	3543138304	30	5666
2026-01-06 03:23:58.48	9.24	32.55	-28.3	-28.7	28.5	0.00e+00	0	34	0	3550478336	30	5552
2026-01-06 03:23:59.49	8.96	32.41	-28.4	-28.8	28.2	0.00e+00	0	34	0	3557818368	30	5611
2026-01-06 03:24:00.49	8.69	32.27	-28.5	-28.9	28.2	0.00e+00	0	35	0	3565158400	30	5694
2026-01-06 03:24:01.50	8.42	32.13	-28.5	-28.9	28.3	0.00e+00	0	35	0	3572498432	30	5683
2026-01-06 03:24:02.51	8.15	31.99	-28.3	-28.8	28.5	0.00e+00	0	34	0	3578789888	30	5569
2026-01-06 03:24:03.52	7.88	31.85	-28.1	-28.5	28.6	0.00e+00	0	34	0	3586129920	30	5430
2026-01-06 03:24:04.53	7.62	31.71	-28.0	-28.5	28.6	0.00e+00	0	34	0	3594518528	30	5413
2026-01-06 03:24:05.54	7.35	31.57	-28.0	-28.4	28.7	0.00e+00	0	34	0	3600809984	30	5377
2026-01-06 03:24:06.55	7.09	31.42	-27.9	-28.4	28.7	0.00e+00	0	34	0	3608150016	30	5319
2026-01-06 03:24:07.56	6.83	31.28	-28.0	-28.5	28.7	0.00e+00	0	34	0	3615490048	30	5403
2026-01-06 03:24:08.57	6.58	31.14	-28.2	-28.6	28.6	0.00e+00	0	35	0	3622830080	30	5477
2026-01-06 03:24:09.58	6.33	31.00	-28.2	-28.7	28.4	0.00e+00	0	34	0	3630170112	30	5527
2026-01-06 03:24:10.59	6.07	30.86	-28.4	-28.8	28.5	0.00e+00	0	34	0	3637510144	30	5623
2026-01-06 03:24:11.60	5.82	30.72	-28.6	-29.0	28.3	0.00e+00	0	35	0	3644850176	30	5753
2026-01-06 03:24:12.61	5.58	30.58	-28.6	-29.0	28.3	0.00e+00	0	34	0	3652190208	30	5750
2026-01-06 03:24:13.62	5.33	30.44	-28.8	-29.2	27.8	0.00e+00	0	34	0	3659530240	30	5871
2026-01-06 03:24:14.62	5.09	30.30	-28.9	-29.3	28.0	0.00e+00	0	34	0	3666870272	30	5961
2026-01-06 03:24:15.63	4.85	30.16	-29.1	-29.5	27.8	0.00e+00	0	35	0	3674210304	30	6095
2026-01-06 03:24:16.64	4.61	30.02	-29.1	-29.6	27.9	0.00e+00	0	35	0	3681550336	30	6129
2026-01-06 03:24:17.65	4.38	29.88	-29.1	-29.6	27.9	0.00e+00	0	34	0	3688890368	30	6136
2026-01-06 03:24:18.66	4.14	29.74	-29.0	-29.5	28.0	0.00e+00	0	34	0	3696230400	30	6034
2026-01-06 03:24:19.67	3.91	29.60	-28.7	-29.2	28.2	0.00e+00	0	34	0	3703570432	30	5859
2026-01-06 03:24:20.68	3.68	29.46	-28.6	-29.1	28.0	0.00e+00	0	35	0	3710910464	30	5784
2026-01-06 03:24:21.69	3.45	29.33	-28.6	-29.1	28.2	0.00e+00	0	35	0	3718250496	30	5795
2026-01-06 03:24:22.70	3.23	29.19	-28.5	-28.9	28.4	0.00e+00	0	35	0	3725590528	30	5674
2026-01-06 03:24:23.71	3.00	29.05	-28.5	-29.0	28.3	0.00e+00	0	35	0	3731881984	30	5720
2026-01-06 03:24:24.72	2.78	28.91	-28.4	-28.9	28.4	0.00e+00	0	35	0	3739222016	30	5636
2026-01-06 03:24:25.73	2.56	28.77	-28.6	-29.0	28.2	0.00e+00	0	35	0	3747610624	30	5755
2026-01-06 03:24:26.74	2.34	28.63	-28.6	-29.1	28.2	0.00e+00	0	35	0	3753902080	30	5771
2026-01-06 03:24:27.75	2.13	28.49	-28.6	-29.1	28.2	0.00e+00	0	34	0	3761242112	30	5775
2026-01-06 03:24:28.75	1.91	28.36	-28.7	-29.2	28.1	0.00e+00	0	34	0	3768582144	30	5846
2026-01-06 03:24:29.76	1.70	28.22	-28.7	-29.2	28.1	0.00e+00	0	34	0	3775922176	30	5832
2026-01-06 03:24:30.78	1.49	28.08	-28.8	-29.2	27.6	0.00e+00	0	35	0	3783262208	30	5881
2026-01-06 03:24:31.78	1.28	27.95	-28.9	-29.3	28.0	0.00e+00	0	35	0	3790602240	30	5949
2026-01-06 03:24:32.79	1.07	27.81	-28.8	-29.3	28.0	0.00e+00	0	35	0	3797942272	30	5910
2026-01-06 03:24:33.80	0.87	27.67	-28.5	-29.0	28.3	0.00e+00	0	35	0	3805282304	30	5725
2026-01-06 03:24:34.81	0.66	27.54	-28.7	-29.1	28.2	0.00e+00	0	35	0	3812622336	30	5824
2026-01-06 03:24:35.82	0.46	27.40	-28.6	-29.1	28.3	0.00e+00	0	35	0	3819962368	30	5776
2026-01-06 03:24:36.83	0.26	27.27	-28.7	-29.1	28.2	0.00e+00	0	35	0	3827302400	30	5811
2026-01-06 03:24:37.84	0.06	27.13	-28.8	-29.2	28.1	0.00e+00	0	35	0	3834642432	30	5877
2026-01-06 03:24:38.85	359.87	26.99	-28.9	-29.4	28.0	0.00e+00	0	35	0	3841982464	30	5972
2026-01-06 03:24:39.86	359.67	26.86	-28.8	-29.3	28.0	0.00e+00	0	34	0	3849322496	30	5936
2026-01-06 03:24:40.87	359.48	26.73	-28.9	-29.4	27.7	0.00e+00	0	35	0	3855613952	30	5990
2026-01-06 03:24:41.88	359.29	26.59	-28.8	-29.2	28.0	0.00e+00	0	35	0	3864002560	30	5894
2026-01-06 03:24:42.89	359.10	26.46	-28.8	-29.2	28.0	0.00e+00	0	35	0	3871342592	30	5891
2026-01-06 03:24:43.90	358.91	26.32	-28.7	-29.2	28.0	0.00e+00	0	34	0	3877634048	30	5864
2026-01-06 03:24:44.91	358.72	26.19	-28.7	-29.2	27.9	0.00e+00	0	35	0	3884974080	30	5835
2026-01-06 03:24:45.92	358.54	26.06	-28.7	-29.1	28.0	0.00e+00	0	35	0	3892314112	30	5824
2026-01-06 03:24:46.93	358.35	25.92	-28.8	-29.3	27.8	0.00e+00	0	35	0	3899654144	30	5911
2026-01-06 03:24:47.94	358.17	25.79	-28.8	-29.3	28.0	0.00e+00	0	35	0	3906994176	30	5913
2026-01-06 03:24:48.95	357.99	25.66	-28.8	-29.2	27.8	0.00e+00	0	34	0	3914334208	30	5891
2026-01-06 03:24:49.96	357.81	25.53	-28.9	-29.4	27.7	0.00e+00	0	34	0	3921674240	30	6014
2026-01-06 03:24:50.97	357.63	25.40	-28.8	-29.2	27.6	0.00e+00	0	35	0	3929014272	30	5894
2026-01-06 03:24:51.98	357.46	25.27	-28.9	-29.4	27.7	0.00e+00	0	35	0	3936354304	30	5989
2026-01-06 03:24:52.99	357.28	25.14	-28.9	-29.4	27.8	0.00e+00	0	35	0	3943694336	30	5978
2026-01-06 03:24:54.00	357.11	25.01	-29.1	-29.5	27.7	0.00e+00	0	35	0	3951034368	30	6078
2026-01-06 03:24:55.01	356.94	24.88	-29.2	-29.6	27.6	0.00e+00	0	35	0	3958374400	30	6158
2026-01-06 03:24:56.02	356.77	24.75	-29.3	-29.8	27.5	0.00e+00	0	35	0	3965714432	30	6248
2026-01-06 03:24:57.03	356.60	24.62	-29.2	-29.7	27.7	0.00e+00	0	35	0	3973054464	30	6216
2026-01-06 03:24:58.03	356.43	24.49	-29.4	-29.8	27.5	0.00e+00	0	35	0	3980394496	30	6309
2026-01-06 03:24:59.04	356.27	24.36	-29.1	-29.5	27.5	0.00e+00	0	35	0	3987734528	30	6087
2026-01-06 03:25:00.05	356.10	24.23	-28.8	-29.3	27.8	0.00e+00	0	35	0	3995074560	30	5932
2026-01-06 03:25:01.06	355.94	24.11	-29.0	-29.5	27.7	0.00e+00	0	35	0	4002414592	30	6035
2026-01-06 03:25:02.07	355.78	23.98	-28.8	-29.3	27.6	0.00e+00	0	34	0	4008706048	30	5919
2026-01-06 03:25:03.08	355.62	23.85	-28.8	-29.2	28.0	0.00e+00	0	34	0	4016046080	30	5867
2026-01-06 03:25:04.09	355.46	23.72	-28.7	-29.2	28.1	0.00e+00	0	35	0	4024434688	30	5846
2026-01-06 03:25:05.10	355.30	23.60	-28.8	-29.2	28.0	0.00e+00	0	35	0	4030726144	30	5884
2026-01-06 03:25:06.11	355.14	23.47	-29.0	-29.4	27.8	0.00e+00	0	35	0	4038066176	30	6029
2026-01-06 03:25:07.12	354.99	23.35	-29.0	-29.5	27.8	0.00e+00	0	35	0	4045406208	30	6060
2026-01-06 03:25:08.13	354.83	23.22	-29.0	-29.5	27.7	0.00e+00	0	35	0	4052746240	30	6060
2026-01-06 03:25:09.14	354.68	23.10	-29.0	-29.5	27.8	0.00e+00	0	35	0	4060086272	30	6080
2026-01-06 03:25:10.15	354.53	22.97	-29.0	-29.5	27.7	0.00e+00	0	35	0	4067426304	30	6065
2026-01-06 03:25:11.16	354.38	22.85	-29.1	-29.5	27.8	0.00e+00	0	35	0	4074766336	30	6084
2026-01-06 03:25:12.17	354.23	22.73	-29.0	-29.5	27.4	0.00e+00	0	35	0	4082106368	30	6038
2026-01-06 03:25:13.18	354.08	22.60	-29.1	-29.5	27.9	0.00e+00	0	35	0	4089446400	30	6085
2026-01-06 03:25:14.18	353.93	22.48	-29.2	-29.6	27.7	0.00e+00	0	35	0	4096786432	30	6156
2026-01-06 03:25:15.19	353.79	22.36	-29.2	-29.6	27.8	0.00e+00	0	35	0	4104126464	30	6173
2026-01-06 03:25:16.20	353.64	22.24	-29.3	-29.8	27.6	0.00e+00	0	35	0	4111466496	30	6272
2026-01-06 03:25:17.21	353.50	22.11	-29.3	-29.8	27.6	0.00e+00	0	35	0	4118806528	30	6256
2026-01-06 03:25:18.23	353.36	21.99	-29.5	-30.0	27.5	0.00e+00	0	35	0	4126146560	30	6399
2026-01-06 03:25:19.24	353.22	21.87	-29.3	-29.8	27.5	0.00e+00	0	35	0	4133486592	30	6287
2026-01-06 03:25:20.25	353.08	21.75	-29.3	-29.8	27.6	0.00e+00	0	35	0	4140826624	30	6283
2026-01-06 03:25:21.26	352.94	21.63	-29.2	-29.7	27.7	0.00e+00	0	35	0	4148166656	30	6185
2026-01-06 03:25:22.27	352.80	21.51	-29.2	-29.6	27.8	0.00e+00	0	35	0	4154458112	30	6155
2026-01-06 03:25:23.28	352.66	21.39	-29.3	-29.8	27.7	0.00e+00	0	34	0	4161798144	30	6284
2026-01-06 03:25:24.29	352.53	21.27	-29.2	-29.6	27.6	0.00e+00	0	35	0	4170186752	30	6162
2026-01-06 03:25:25.30	352.39	21.15	-29.3	-29.8	27.6	0.00e+00	0	35	0	4176478208	30	6288
2026-01-06 03:25:26.31	352.26	21.04	-29.4	-29.9	27.5	0.00e+00	0	34	0	4183818240	30	6333
2026-01-06 03:25:27.32	352.13	20.92	-29.5	-30.0	27.5	0.00e+00	0	34	0	4191158272	30	6426
2026-01-06 03:25:28.33	351.99	20.80	-29.7	-30.2	27.3	0.00e+00	0	34	0	4198498304	30	6547
2026-01-06 03:25:29.33	351.87	20.68	-29.8	-30.3	27.2	0.00e+00	0	34	0	4205838336	32	5931
2026-01-06 03:25:30.34	351.74	20.57	-29.9	-30.4	27.2	0.00e+00	0	34	0	4213178368	32	5976
2026-01-06 03:25:31.35	351.61	20.45	-30.1	-30.5	27.0	0.00e+00	0	35	0	4220518400	32	6103
2026-01-06 03:25:32.36	351.48	20.34	-29.9	-30.4	27.1	0.00e+00	0	35	0	4227858432	32	5999
2026-01-06 03:25:33.37	351.35	20.22	-30.0	-30.5	27.1	0.00e+00	0	35	0	4235198464	32	6046
2026-01-06 03:25:34.38	351.23	20.11	-29.9	-30.4	27.1	0.00e+00	0	35	0	4242538496	32	5989
2026-01-06 03:25:35.39	351.10	19.99	-29.9	-30.3	27.2	0.00e+00	0	35	0	4249878528	32	5957
2026-01-06 03:25:36.41	350.98	19.88	-29.9	-30.4	27.1	0.00e+00	0	35	0	4257218560	32	5992
2026-01-06 03:25:37.42	350.86	19.76	-30.0	-30.5	27.1	0.00e+00	0	35	0	4264558592	32	6035
2026-01-06 03:25:38.43	350.74	19.65	-30.3	-30.8	27.1	0.00e+00	0	35	0	4271898624	32	6268
2026-01-06 03:25:39.44	350.62	19.53	-30.1	-30.6	27.1	0.00e+00	0	35	0	4279238656	32	6140
2026-01-06 03:25:40.45	350.50	19.42	-30.1	-30.6	27.0	0.00e+00	0	35	0	4286578688	32	6121
2026-01-06 03:25:41.46	350.38	19.31	-30.2	-30.7	26.8	0.00e+00	0	35	0	4293918720	32	6194
2026-01-06 03:25:42.47	350.26	19.20	-30.1	-30.6	26.9	0.00e+00	0	35	0	4301258752	32	6131
2026-01-06 03:25:43.48	350.14	19.09	-30.2	-30.7	26.6	0.00e+00	0	35	0	4307550208	32	6215
2026-01-06 03:25:44.49	350.03	18.97	-30.1	-30.6	27.0	0.00e+00	0	35	0	4315938816	32	6142
2026-01-06 03:25:45.50	349.91	18.86	-30.2	-30.7	26.8	0.00e+00	0	34	0	4323278848	32	6219
2026-01-06 03:25:46.51	349.80	18.75	-30.1	-30.6	27.0	0.00e+00	0	34	0	4329570304	32	6127
2026-01-06 03:25:47.52	349.68	18.64	-30.2	-30.7	26.9	0.00e+00	0	35	0	4336910336	32	6210
2026-01-06 03:25:48.53	349.57	18.53	-30.3	-30.8	26.7	0.00e+00	0	35	0	4345298944	32	6288
2026-01-06 03:25:49.54	349.46	18.42	-30.0	-30.5	27.1	0.00e+00	0	35	0	4351590400	32	6036
2026-01-06 03:25:50.55	349.35	18.31	-29.9	-30.4	27.2	0.00e+00	0	35	0	4358930432	32	5976
2026-01-06 03:25:51.56	349.24	18.21	-30.0	-30.5	27.1	0.00e+00	0	34	0	4366270464	32	6052
2026-01-06 03:25:52.57	349.13	18.10	-29.8	-30.3	27.2	0.00e+00	0	35	0	4373610496	32	5918
2026-01-06 03:25:53.58	349.02	17.99	-29.8	-30.3	27.2	0.00e+00	0	35	0	4380950528	32	5940
2026-01-06 03:25:54.59	348.91	17.88	-30.0	-30.4	27.0	0.00e+00	0	35	0	4388290560	32	6026
2026-01-06 03:25:55.60	348.80	17.77	-30.0	-30.5	27.1	0.00e+00	0	35	0	4395630592	32	6059
2026-01-06 03:25:56.61	348.70	17.67	-29.9	-30.4	27.0	0.00e+00	0	35	0	4402970624	32	5975
2026-01-06 03:25:57.62	348.59	17.56	-30.1	-30.6	26.9	0.00e+00	0	35	0	4410310656	32	6121
2026-01-06 03:25:58.63	348.49	17.45	-30.2	-30.7	26.9	0.00e+00	0	35	0	4417650688	32	6192
2026-01-06 03:25:59.64	348.38	17.35	-30.2	-30.7	26.8	0.00e+00	0	35	0	4424990720	32	6206
2026-01-06 03:26:00.64	348.28	17.24	-30.3	-30.8	26.8	0.00e+00	0	35	0	4432330752	32	6291
2026-01-06 03:26:01.66	348.18	17.14	-30.3	-30.8	26.7	0.00e+00	0	34	0	4439670784	32	6273
2026-01-06 03:26:02.66	348.08	17.03	-30.4	-30.9	26.6	0.00e+00	0	35	0	4447010816	32	6340
2026-01-06 03:26:03.67	347.97	16.93	-30.4	-30.9	26.6	0.00e+00	0	35	0	4454350848	32	6354
2026-01-06 03:26:04.68	347.87	16.83	-30.4	-30.9	26.6	0.00e+00	0	35	0	4461690880	32	6346
2026-01-06 03:26:05.69	347.77	16.72	-30.4	-30.9	26.7	0.00e+00	0	35	0	4469030912	32	6372
2026-01-06 03:26:06.70	347.68	16.62	-30.5	-31.0	26.6	0.00e+00	0	35	0	4475322368	32	6411
2026-01-06 03:26:07.71	347.58	16.52	-30.5	-31.0	26.6	0.00e+00	0	35	0	4482662400	32	6393
2026-01-06 03:26:08.72	347.48	16.41	-30.6	-31.1	26.5	0.00e+00	0	35	0	4490002432	32	6466
2026-01-06 03:26:09.73	347.38	16.31	-30.4	-30.9	26.6	0.00e+00	0	35	0	4497342464	32	6378
2026-01-06 03:26:10.74	347.29	16.21	-30.4	-30.9	26.5	0.00e+00	0	35	0	4504682496	32	6353
2026-01-06 03:26:11.75	347.19	16.11	-30.5	-31.0	26.6	0.00e+00	0	35	0	4512022528	32	6428
2026-01-06 03:26:12.75	347.10	16.01	-30.5	-31.0	26.6	0.00e+00	0	35	0	4519362560	32	6427
2026-01-06 03:26:13.76	347.00	15.91	-30.7	-31.2	26.3	0.00e+00	0	34	0	4526702592	32	6571
2026-01-06 03:26:14.77	346.91	15.81	-30.7	-31.2	26.4	0.00e+00	0	34	0	4534042624	32	6543
2026-01-06 03:26:15.78	346.82	15.70	-30.5	-31.0	26.5	0.00e+00	0	34	0	4541382656	32	6421
2026-01-06 03:26:16.79	346.72	15.61	-30.6	-31.1	26.4	0.00e+00	0	35	0	4548722688	32	6537
2026-01-06 03:26:17.80	346.63	15.51	-30.6	-31.1	26.5	0.00e+00	0	35	0	4556062720	32	6498
2026-01-06 03:26:18.81	346.54	15.41	-30.7	-31.2	26.4	0.00e+00	0	35	0	4563402752	32	6560
2026-01-06 03:26:19.82	346.45	15.31	-30.8	-31.3	26.3	0.00e+00	0	35	0	4570742784	34	5934
2026-01-06 03:26:20.83	346.36	15.21	-30.9	-31.3	26.3	0.00e+00	0	35	0	4578082816	34	5958
2026-01-06 03:26:21.84	346.27	15.11	-31.0	-31.5	26.1	0.00e+00	0	35	0	4585422848	34	6037
