passes_logs/2026/01/06/R4.6S_Anadyr/R4.6S_Anadyr__20260106_002703_SUOMI_NPP_rec.log

#Pass ID: 20260106_002703_SUOMI NPP
#Satellite: SUOMI NPP
#Configuration: NPP
#almurnet v.1.7.20251203
#Start time: 2026-01-06 00:27:07

#Version: 2.2.20231116
#Station: R4.6S_Anadyr
#Location: 177.4865 lon 64.73178 lat
#TLE: 1 37849U 11061A   26004.95404768  .00000136  00000+0  85334-4 0  9991
#TLE: 2 37849  98.7801 307.0898 0002575  80.6707 279.4760 14.19522289735281

#Time	Az	El	Level	Level2	SNR	BER	BlckErr	Temp	State	Recorded	gain1	gain2
2026-01-06 00:27:07.34	160.34	0.21	-48.7	-62.5	3.3	1.54e+00	0	32	0	0	60	47964
2026-01-06 00:27:08.34	160.35	0.27	-48.8	-63.9	3.6	1.51e+00	0	32	104	0	60	56801
2026-01-06 00:27:09.35	160.36	0.33	-48.7	-64.0	3.6	1.51e+00	0	32	104	0	60	57069
2026-01-06 00:27:10.36	160.37	0.40	-48.8	-64.0	3.5	1.51e+00	0	32	104	0	60	57299
2026-01-06 00:27:11.37	160.37	0.46	-48.8	-64.0	3.6	1.51e+00	0	32	104	0	60	57524
2026-01-06 00:27:12.38	160.38	0.52	-48.8	-64.0	3.6	1.51e+00	0	32	104	0	60	57132
2026-01-06 00:27:13.39	160.39	0.58	-48.8	-63.9	3.6	1.51e+00	0	32	104	0	60	56830
2026-01-06 00:27:14.40	160.40	0.64	-48.6	-63.8	3.6	1.51e+00	0	32	104	0	60	56024
2026-01-06 00:27:15.41	160.41	0.70	-48.5	-63.7	3.6	1.51e+00	0	32	104	0	60	55532
2026-01-06 00:27:16.42	160.42	0.77	-48.4	-63.5	3.6	1.51e+00	0	32	104	0	60	54263
2026-01-06 00:27:17.43	160.43	0.83	-48.2	-63.4	3.6	1.51e+00	0	32	104	0	60	53169
2026-01-06 00:27:18.44	160.43	0.89	-47.2	-62.3	3.6	1.51e+00	0	32	104	0	60	47286
2026-01-06 00:27:19.45	160.44	0.95	-47.4	-62.6	3.6	1.51e+00	0	32	104	0	60	48508
2026-01-06 00:27:20.46	160.45	1.01	-47.4	-62.6	3.6	1.51e+00	0	32	104	0	60	48691
2026-01-06 00:27:21.47	160.46	1.08	-47.4	-62.5	3.6	1.51e+00	0	32	104	0	60	48311
2026-01-06 00:27:22.48	160.47	1.14	-47.4	-62.5	3.6	1.51e+00	0	33	104	0	60	48422
2026-01-06 00:27:23.49	160.48	1.20	-47.4	-62.5	3.6	1.51e+00	0	32	104	0	60	48171
2026-01-06 00:27:24.50	160.49	1.27	-47.4	-62.4	3.6	1.51e+00	0	33	104	0	60	47906
2026-01-06 00:27:25.51	160.50	1.33	-47.4	-62.4	3.6	1.51e+00	0	33	104	0	60	47797
2026-01-06 00:27:26.52	160.51	1.39	-47.4	-62.4	3.6	1.51e+00	0	33	104	0	60	47634
2026-01-06 00:27:27.53	160.51	1.46	-47.4	-62.3	3.6	1.51e+00	0	32	104	0	60	47164
2026-01-06 00:27:28.54	160.52	1.52	-47.4	-62.3	3.6	1.51e+00	0	33	104	0	60	47247
2026-01-06 00:27:29.55	160.53	1.58	-47.4	-62.3	3.6	1.51e+00	0	33	104	0	60	47243
2026-01-06 00:27:30.56	160.54	1.65	-47.4	-62.3	3.6	1.51e+00	0	33	104	0	60	47109
2026-01-06 00:27:31.57	160.55	1.71	-47.4	-62.3	3.6	1.51e+00	0	33	104	0	60	47367
2026-01-06 00:27:32.58	160.56	1.78	-47.4	-62.4	3.6	1.51e+00	0	33	104	0	60	47762
2026-01-06 00:27:33.58	160.57	1.84	-47.4	-62.5	3.6	1.51e+00	0	33	104	0	60	48184
2026-01-06 00:27:34.60	160.58	1.91	-47.4	-62.5	3.6	1.51e+00	0	33	104	0	60	48237
2026-01-06 00:27:35.61	160.59	1.97	-47.4	-62.6	3.6	1.51e+00	0	33	104	0	60	48508
2026-01-06 00:27:36.62	160.60	2.03	-47.4	-62.6	3.6	1.51e+00	0	33	104	0	60	48513
2026-01-06 00:27:37.62	160.60	2.10	-47.4	-62.5	3.6	1.51e+00	0	33	104	0	60	48087
2026-01-06 00:27:38.64	160.61	2.16	-47.4	-62.4	3.6	1.51e+00	0	33	104	0	60	47874
2026-01-06 00:27:39.64	160.62	2.23	-47.4	-62.4	3.6	1.51e+00	0	33	104	0	60	47402
2026-01-06 00:27:40.66	160.63	2.30	-47.4	-62.3	3.6	1.51e+00	0	33	104	0	60	47122
2026-01-06 00:27:41.67	160.64	2.36	-47.4	-62.1	3.6	1.51e+00	0	33	104	0	60	46211
2026-01-06 00:27:42.68	160.65	2.43	-47.4	-61.9	3.6	1.51e+00	0	33	104	0	60	45243
2026-01-06 00:27:43.69	160.66	2.49	-47.4	-61.7	3.6	1.51e+00	0	33	104	0	60	44184
2026-01-06 00:27:44.70	160.67	2.56	-47.3	-61.4	3.6	1.51e+00	0	33	104	0	60	42702
2026-01-06 00:27:45.71	160.68	2.62	-47.3	-61.2	3.6	1.51e+00	0	33	104	0	60	41682
2026-01-06 00:27:46.72	160.69	2.69	-47.3	-61.5	3.6	1.51e+00	0	33	104	0	60	43028
2026-01-06 00:27:47.73	160.70	2.76	-47.4	-61.7	3.6	1.51e+00	0	33	104	0	60	44177
2026-01-06 00:27:48.74	160.71	2.82	-47.4	-62.0	3.6	1.51e+00	0	33	104	0	60	45697
2026-01-06 00:27:49.75	160.72	2.89	-47.3	-61.6	3.6	1.51e+00	0	33	104	0	60	43442
2026-01-06 00:27:50.76	160.73	2.96	-47.3	-60.0	3.8	1.51e+00	0	33	104	0	60	36197
2026-01-06 00:27:51.76	160.74	3.02	-47.1	-58.0	4.4	1.24e+00	3	33	104	0	60	28781
2026-01-06 00:27:52.78	160.75	3.09	-46.8	-54.5	6.0	3.77e-01	0	33	0	1048576	60	19104
2026-01-06 00:27:53.79	160.76	3.16	-46.4	-52.8	7.9	1.42e-01	0	33	0	3145728	60	15694
2026-01-06 00:27:54.80	160.77	3.23	-46.1	-51.5	9.6	4.14e-02	0	33	0	4194304	60	13603
2026-01-06 00:27:55.81	160.78	3.30	-45.6	-50.2	11.1	3.81e-03	0	33	0	6291456	60	11742
2026-01-06 00:27:56.82	160.79	3.36	-45.3	-49.4	11.9	3.37e-04	0	33	0	8388608	60	10677
2026-01-06 00:27:57.83	160.80	3.43	-45.0	-48.8	12.5	2.17e-04	0	33	0	10485760	60	9949
2026-01-06 00:27:58.83	160.81	3.50	-44.8	-48.5	13.0	3.89e-05	0	33	0	12582912	60	9570
2026-01-06 00:27:59.84	160.82	3.57	-44.6	-48.0	13.2	1.29e-05	0	33	0	13631488	60	9121
2026-01-06 00:28:00.85	160.82	3.64	-44.9	-48.7	12.6	1.06e-04	0	33	0	15728640	60	9867
2026-01-06 00:28:01.86	160.83	3.70	-45.2	-49.3	11.9	2.12e-04	0	33	0	17825792	60	10575
2026-01-06 00:28:02.87	160.84	3.77	-47.4	-59.0	3.5	6.42e-02	25	33	0	19922944	60	32265
2026-01-06 00:28:03.88	160.85	3.84	-47.0	-55.5	6.0	1.36e+00	0	33	104	19922944	60	21545
2026-01-06 00:28:04.89	160.86	3.91	-47.3	-61.7	3.6	6.67e-02	0	33	104	20971520	60	43827
2026-01-06 00:28:05.90	160.87	3.98	-43.8	-46.7	5.9	1.50e+00	0	33	104	20971520	60	7784
2026-01-06 00:28:06.90	160.88	4.05	-47.5	-62.0	3.6	3.42e-04	0	33	104	20971520	60	45700
2026-01-06 00:28:07.91	160.90	4.12	-43.7	-46.5	5.9	1.50e+00	0	33	104	20971520	60	7596
2026-01-06 00:28:08.92	160.91	4.19	-43.1	-45.3	16.2	0.00e+00	0	33	0	20971520	60	6676
2026-01-06 00:28:09.93	160.92	4.26	-42.4	-44.4	17.0	0.00e+00	0	33	0	23068672	58	6757
2026-01-06 00:28:10.94	160.93	4.33	-42.3	-44.3	17.2	0.00e+00	0	33	0	24117248	58	6649
2026-01-06 00:28:11.94	160.94	4.40	-42.2	-44.2	17.3	0.00e+00	0	33	0	26214400	58	6552
2026-01-06 00:28:12.95	160.95	4.47	-42.0	-43.9	17.7	0.00e+00	0	33	0	28311552	58	6355
2026-01-06 00:28:13.96	160.96	4.54	-41.9	-43.7	17.8	0.00e+00	0	33	0	30408704	58	6200
2026-01-06 00:28:14.97	160.97	4.61	-41.3	-42.9	18.6	0.00e+00	0	33	0	32505856	56	6374
2026-01-06 00:28:15.98	160.98	4.69	-41.7	-43.4	18.2	0.00e+00	0	33	0	33554432	56	6737
2026-01-06 00:28:16.99	160.99	4.76	-41.5	-43.1	18.4	0.00e+00	0	33	0	35651584	56	6509
2026-01-06 00:28:18.00	161.00	4.83	-41.4	-43.1	18.4	0.00e+00	0	33	0	37748736	56	6473
2026-01-06 00:28:19.01	161.01	4.90	-41.8	-43.5	18.2	0.00e+00	0	33	0	39845888	56	6816
2026-01-06 00:28:20.02	161.02	4.97	-41.6	-43.3	18.2	0.00e+00	0	33	0	41943040	56	6627
2026-01-06 00:28:21.02	161.03	5.04	-41.9	-43.7	18.0	0.00e+00	0	33	0	42991616	56	6989
2026-01-06 00:28:22.03	161.04	5.12	-41.9	-43.6	18.0	0.00e+00	0	33	0	45088768	56	6910
2026-01-06 00:28:23.04	161.05	5.19	-41.8	-43.5	18.1	0.00e+00	0	33	0	47185920	56	6840
2026-01-06 00:28:24.05	161.06	5.26	-42.1	-43.9	17.9	0.00e+00	0	33	0	49283072	56	7104
2026-01-06 00:28:25.06	161.07	5.34	-41.6	-43.3	18.4	0.00e+00	0	33	0	51380224	56	6669
2026-01-06 00:28:26.06	161.08	5.41	-41.7	-43.4	18.3	0.00e+00	0	33	0	52428800	56	6730
2026-01-06 00:28:27.07	161.09	5.48	-41.5	-43.1	18.5	0.00e+00	0	33	0	54525952	56	6528
2026-01-06 00:28:28.08	161.10	5.55	-41.7	-43.4	18.3	0.00e+00	0	33	0	56623104	56	6717
2026-01-06 00:28:29.09	161.12	5.63	-41.8	-43.5	18.2	0.00e+00	0	33	0	58720256	56	6791
2026-01-06 00:28:30.10	161.13	5.70	-41.5	-43.1	18.7	0.00e+00	0	33	0	60817408	56	6498
2026-01-06 00:28:31.11	161.14	5.78	-41.3	-42.8	18.8	0.00e+00	0	33	0	62914560	56	6314
2026-01-06 00:28:32.12	161.15	5.85	-41.3	-42.9	18.9	0.00e+00	0	33	0	63963136	56	6323
2026-01-06 00:28:33.13	161.16	5.93	-41.3	-42.9	18.8	0.00e+00	0	33	0	66060288	56	6350
2026-01-06 00:28:34.14	161.17	6.00	-41.2	-42.8	18.9	0.00e+00	0	33	0	68157440	56	6275
2026-01-06 00:28:35.15	161.18	6.08	-41.2	-42.7	18.9	0.00e+00	0	33	0	70254592	56	6210
2026-01-06 00:28:36.15	161.19	6.15	-41.2	-42.8	18.9	0.00e+00	0	33	0	72351744	56	6254
2026-01-06 00:28:37.17	161.20	6.23	-41.2	-42.8	19.1	0.00e+00	0	33	0	73400320	56	6253
2026-01-06 00:28:38.17	161.22	6.30	-41.2	-42.8	19.1	0.00e+00	0	33	0	75497472	56	6247
2026-01-06 00:28:39.19	161.23	6.38	-41.0	-42.5	19.2	0.00e+00	0	33	0	77594624	56	6047
2026-01-06 00:28:40.20	161.24	6.46	-41.2	-42.7	19.0	0.00e+00	0	33	0	79691776	56	6243
2026-01-06 00:28:41.21	161.25	6.53	-41.2	-42.7	19.1	0.00e+00	0	33	0	81788928	56	6180
2026-01-06 00:28:42.21	161.26	6.61	-41.2	-42.7	19.1	0.00e+00	0	33	0	82837504	56	6201
2026-01-06 00:28:43.22	161.27	6.69	-41.3	-42.9	18.9	0.00e+00	0	33	0	84934656	56	6334
2026-01-06 00:28:44.23	161.28	6.76	-41.1	-42.6	19.2	0.00e+00	0	33	0	87031808	56	6170
2026-01-06 00:28:45.25	161.30	6.84	-41.3	-42.8	19.0	0.00e+00	0	33	0	89128960	56	6303
2026-01-06 00:28:46.25	161.31	6.92	-41.3	-42.9	19.0	0.00e+00	0	33	0	91226112	56	6340
2026-01-06 00:28:47.26	161.32	7.00	-41.2	-42.7	19.0	0.00e+00	0	33	0	92274688	56	6239
2026-01-06 00:28:48.27	161.33	7.07	-41.2	-42.8	19.1	0.00e+00	0	33	0	94371840	56	6260
2026-01-06 00:28:49.28	161.34	7.15	-41.1	-42.6	19.3	0.00e+00	0	33	0	96468992	56	6112
2026-01-06 00:28:50.29	161.35	7.23	-41.2	-42.7	19.1	0.00e+00	0	33	0	98566144	56	6245
2026-01-06 00:28:51.30	161.37	7.31	-41.1	-42.6	19.4	0.00e+00	0	33	0	100663296	56	6107
2026-01-06 00:28:52.31	161.38	7.39	-41.0	-42.4	19.4	0.00e+00	0	33	0	101711872	56	6006
2026-01-06 00:28:53.32	161.39	7.47	-41.0	-42.5	19.4	0.00e+00	0	33	0	103809024	56	6053
2026-01-06 00:28:54.33	161.40	7.55	-40.8	-42.2	19.6	0.00e+00	0	33	0	105906176	56	5893
2026-01-06 00:28:55.34	161.41	7.63	-40.7	-42.1	19.8	0.00e+00	0	33	0	108003328	54	6536
2026-01-06 00:28:56.35	161.43	7.71	-40.6	-42.0	19.7	0.00e+00	0	33	0	110100480	54	6423
2026-01-06 00:28:57.36	161.44	7.79	-40.6	-42.0	19.8	0.00e+00	0	33	0	111149056	54	6399
2026-01-06 00:28:58.37	161.45	7.87	-40.7	-42.1	19.7	0.00e+00	0	33	0	113246208	54	6507
2026-01-06 00:28:59.38	161.46	7.95	-40.6	-42.0	19.7	0.00e+00	0	33	0	115343360	54	6417
2026-01-06 00:29:00.39	161.47	8.03	-40.7	-42.1	19.7	0.00e+00	0	33	0	117440512	54	6476
2026-01-06 00:29:01.40	161.49	8.11	-40.6	-41.9	19.9	0.00e+00	0	33	0	119537664	54	6378
2026-01-06 00:29:02.41	161.50	8.19	-40.6	-42.0	19.7	0.00e+00	0	33	0	120586240	54	6450
2026-01-06 00:29:03.42	161.51	8.28	-40.5	-41.8	19.9	0.00e+00	0	33	0	122683392	54	6316
2026-01-06 00:29:04.43	161.52	8.36	-40.5	-41.9	19.9	0.00e+00	0	33	0	124780544	54	6323
2026-01-06 00:29:05.44	161.54	8.44	-40.5	-41.9	19.9	0.00e+00	0	33	0	126877696	54	6350
2026-01-06 00:29:06.44	161.55	8.52	-40.6	-42.0	19.8	0.00e+00	0	33	0	128974848	54	6415
2026-01-06 00:29:07.45	161.56	8.61	-40.5	-41.8	20.0	0.00e+00	0	33	0	131072000	54	6284
2026-01-06 00:29:08.46	161.57	8.69	-40.4	-41.8	20.1	0.00e+00	0	33	0	132120576	54	6252
2026-01-06 00:29:09.47	161.59	8.77	-40.4	-41.7	20.1	0.00e+00	0	33	0	134217728	54	6221
2026-01-06 00:29:10.48	161.60	8.86	-40.5	-41.8	20.0	0.00e+00	0	33	0	136314880	54	6293
2026-01-06 00:29:11.49	161.61	8.94	-40.5	-41.8	20.0	0.00e+00	0	33	0	138412032	54	6294
2026-01-06 00:29:12.50	161.62	9.02	-40.4	-41.8	20.1	0.00e+00	0	33	0	140509184	54	6250
2026-01-06 00:29:13.51	161.64	9.11	-40.5	-41.8	20.1	0.00e+00	0	33	0	141557760	54	6282
2026-01-06 00:29:14.52	161.65	9.19	-40.3	-41.6	20.2	0.00e+00	0	33	0	143654912	54	6159
2026-01-06 00:29:15.52	161.66	9.28	-40.1	-41.4	20.4	0.00e+00	0	33	0	145752064	54	5995
2026-01-06 00:29:16.54	161.68	9.37	-40.2	-41.5	20.2	0.00e+00	0	33	0	147849216	54	6095
2026-01-06 00:29:17.54	161.69	9.45	-40.1	-41.4	20.4	0.00e+00	0	33	0	148897792	54	5982
2026-01-06 00:29:18.55	161.70	9.54	-40.2	-41.4	20.4	0.00e+00	0	33	0	150994944	54	6031
2026-01-06 00:29:19.56	161.72	9.62	-40.2	-41.5	20.4	0.00e+00	0	33	0	153092096	54	6078
2026-01-06 00:29:20.56	161.73	9.71	-40.3	-41.6	20.3	0.00e+00	0	33	0	155189248	54	6140
2026-01-06 00:29:21.57	161.74	9.80	-40.1	-41.3	20.5	0.00e+00	0	33	0	157286400	54	5962
2026-01-06 00:29:22.58	161.76	9.88	-39.7	-40.9	20.9	0.00e+00	0	33	0	159383552	52	6365
2026-01-06 00:29:23.59	161.77	9.97	-39.8	-41.0	20.9	0.00e+00	0	33	0	160432128	52	6429
2026-01-06 00:29:24.60	161.78	10.06	-39.7	-40.9	20.9	0.00e+00	0	33	0	162529280	52	6348
2026-01-06 00:29:25.61	161.80	10.15	-39.7	-40.9	20.9	0.00e+00	0	33	0	164626432	52	6325
2026-01-06 00:29:26.62	161.81	10.24	-39.7	-40.9	20.9	0.00e+00	0	33	0	166723584	52	6375
2026-01-06 00:29:27.63	161.82	10.32	-39.7	-40.9	21.0	0.00e+00	0	33	0	168820736	52	6325
2026-01-06 00:29:28.64	161.84	10.41	-39.4	-40.6	21.1	0.00e+00	0	33	0	169869312	52	6140
2026-01-06 00:29:29.65	161.85	10.50	-39.4	-40.5	21.3	0.00e+00	0	33	0	171966464	52	6079
2026-01-06 00:29:30.66	161.87	10.59	-39.4	-40.5	21.3	0.00e+00	0	33	0	174063616	52	6063
2026-01-06 00:29:31.67	161.88	10.68	-39.3	-40.4	21.3	0.00e+00	0	33	0	176160768	52	5998
2026-01-06 00:29:32.68	161.89	10.77	-39.3	-40.5	21.3	0.00e+00	0	33	0	178257920	52	6042
2026-01-06 00:29:33.69	161.91	10.87	-39.1	-40.2	21.4	0.00e+00	0	33	0	179306496	52	5893
2026-01-06 00:29:34.70	161.92	10.96	-39.3	-40.4	21.5	0.00e+00	0	33	0	181403648	52	6001
2026-01-06 00:29:35.70	161.94	11.05	-39.1	-40.2	21.6	0.00e+00	0	33	0	183500800	52	5842
2026-01-06 00:29:36.71	161.95	11.14	-39.1	-40.2	21.5	0.00e+00	0	33	0	185597952	52	5839
2026-01-06 00:29:37.72	161.97	11.23	-38.9	-40.0	21.6	0.00e+00	0	33	0	187695104	52	5751
2026-01-06 00:29:38.73	161.98	11.32	-38.8	-39.9	21.8	0.00e+00	0	33	0	188743680	52	5682
2026-01-06 00:29:39.74	162.00	11.42	-39.0	-40.1	21.6	0.00e+00	0	33	0	190840832	52	5783
2026-01-06 00:29:40.75	162.01	11.51	-39.0	-40.1	21.6	0.00e+00	0	33	0	192937984	52	5806
2026-01-06 00:29:41.76	162.02	11.60	-38.7	-39.8	21.8	0.00e+00	0	33	0	195035136	50	6296
2026-01-06 00:29:42.76	162.04	11.70	-38.7	-39.8	21.8	0.00e+00	0	33	0	197132288	50	6287
2026-01-06 00:29:43.77	162.05	11.79	-38.7	-39.7	21.9	0.00e+00	0	33	0	198180864	50	6241
2026-01-06 00:29:44.78	162.07	11.89	-38.6	-39.6	22.0	0.00e+00	0	33	0	200278016	50	6153
2026-01-06 00:29:45.79	162.08	11.98	-38.6	-39.7	22.0	0.00e+00	0	33	0	202375168	50	6189
2026-01-06 00:29:46.79	162.10	12.08	-38.6	-39.7	22.0	0.00e+00	0	33	0	204472320	50	6188
2026-01-06 00:29:47.80	162.11	12.17	-38.7	-39.8	21.9	0.00e+00	0	33	0	206569472	50	6283
2026-01-06 00:29:48.80	162.13	12.27	-38.6	-39.7	22.1	0.00e+00	0	33	0	207618048	50	6180
2026-01-06 00:29:49.81	162.14	12.36	-38.7	-39.7	21.9	0.00e+00	0	33	0	209715200	50	6240
2026-01-06 00:29:50.82	162.16	12.46	-38.4	-39.4	22.3	0.00e+00	0	33	0	211812352	50	5998
2026-01-06 00:29:51.83	162.18	12.56	-38.3	-39.3	22.2	0.00e+00	0	33	0	213909504	50	5940
2026-01-06 00:29:52.84	162.19	12.66	-38.3	-39.3	22.3	0.00e+00	0	33	0	216006656	50	5964
2026-01-06 00:29:53.85	162.21	12.75	-38.4	-39.4	22.2	0.00e+00	0	33	0	217055232	50	6018
2026-01-06 00:29:54.86	162.22	12.85	-38.0	-39.0	22.6	0.00e+00	0	33	0	219152384	50	5735
2026-01-06 00:29:55.86	162.24	12.95	-38.0	-39.0	22.5	0.00e+00	0	33	0	221249536	50	5742
2026-01-06 00:29:56.87	162.25	13.05	-38.0	-39.0	22.6	0.00e+00	0	33	0	223346688	50	5753
2026-01-06 00:29:57.88	162.27	13.15	-38.0	-39.0	22.6	0.00e+00	0	33	0	225443840	50	5750
2026-01-06 00:29:58.89	162.29	13.25	-37.9	-38.9	22.7	0.00e+00	0	33	0	226492416	50	5638
2026-01-06 00:29:59.90	162.30	13.35	-38.0	-38.9	22.7	0.00e+00	0	33	0	228589568	50	5692
2026-01-06 00:30:00.90	162.32	13.45	-37.7	-38.7	22.8	0.00e+00	0	33	0	230686720	48	6184
2026-01-06 00:30:01.91	162.33	13.55	-37.6	-38.6	22.8	0.00e+00	0	33	0	232783872	48	6124
2026-01-06 00:30:02.92	162.35	13.65	-37.6	-38.6	22.9	0.00e+00	0	33	0	234881024	48	6126
2026-01-06 00:30:03.93	162.37	13.76	-37.5	-38.4	23.0	0.00e+00	0	33	0	235929600	48	6018
2026-01-06 00:30:04.94	162.38	13.86	-37.4	-38.3	23.1	0.00e+00	0	33	0	238026752	48	5951
2026-01-06 00:30:05.95	162.40	13.96	-37.4	-38.4	23.1	0.00e+00	0	33	0	240123904	48	5966
2026-01-06 00:30:06.96	162.42	14.07	-37.3	-38.2	23.1	0.00e+00	0	33	0	242221056	48	5863
2026-01-06 00:30:07.97	162.43	14.17	-37.1	-38.0	23.3	0.00e+00	0	33	0	244318208	48	5754
2026-01-06 00:30:08.98	162.45	14.27	-37.2	-38.1	23.3	0.00e+00	0	33	0	245366784	48	5789
2026-01-06 00:30:09.99	162.47	14.38	-37.1	-38.1	23.3	0.00e+00	0	33	0	247463936	48	5770
2026-01-06 00:30:11.00	162.49	14.48	-37.1	-38.0	23.3	0.00e+00	0	33	0	249561088	48	5750
2026-01-06 00:30:12.01	162.50	14.59	-37.2	-38.1	23.3	0.00e+00	0	33	0	251658240	48	5810
2026-01-06 00:30:13.02	162.52	14.70	-37.0	-37.9	23.4	0.00e+00	0	33	0	253755392	48	5668
2026-01-06 00:30:14.03	162.54	14.80	-36.9	-37.8	23.4	0.00e+00	0	33	0	255852544	48	5623
2026-01-06 00:30:15.04	162.56	14.91	-36.9	-37.8	23.5	0.00e+00	0	33	0	256901120	48	5623
2026-01-06 00:30:16.05	162.57	15.02	-37.0	-37.9	23.4	0.00e+00	0	33	0	258998272	48	5668
2026-01-06 00:30:17.06	162.59	15.13	-36.9	-37.8	23.5	0.00e+00	0	33	0	261095424	48	5627
2026-01-06 00:30:18.06	162.61	15.23	-37.0	-37.9	23.4	0.00e+00	0	33	0	263192576	48	5649
2026-01-06 00:30:19.07	162.63	15.34	-36.9	-37.8	23.5	0.00e+00	0	33	0	265289728	48	5621
2026-01-06 00:30:20.08	162.64	15.45	-36.9	-37.8	23.5	0.00e+00	0	33	0	266338304	48	5628
2026-01-06 00:30:21.09	162.66	15.56	-36.9	-37.8	23.5	0.00e+00	0	34	0	268435456	48	5571
2026-01-06 00:30:22.10	162.68	15.67	-37.1	-38.0	23.5	0.00e+00	0	33	0	270532608	48	5707
2026-01-06 00:30:23.11	162.70	15.79	-37.1	-38.0	23.2	0.00e+00	0	33	0	272629760	48	5760
2026-01-06 00:30:24.12	162.72	15.90	-37.0	-37.9	23.4	0.00e+00	0	33	0	274726912	48	5674
2026-01-06 00:30:25.13	162.74	16.01	-36.8	-37.7	23.2	0.00e+00	0	33	0	275775488	48	5543
2026-01-06 00:30:26.14	162.76	16.12	-37.0	-37.9	23.6	0.00e+00	0	33	0	277872640	48	5671
2026-01-06 00:30:27.15	162.77	16.24	-36.8	-37.7	23.6	0.00e+00	0	33	0	279969792	48	5515
2026-01-06 00:30:28.16	162.79	16.35	-36.8	-37.6	23.8	0.00e+00	0	33	0	282066944	46	6163
2026-01-06 00:30:29.17	162.81	16.46	-36.9	-37.8	23.7	0.00e+00	0	34	0	284164096	46	6251
2026-01-06 00:30:30.18	162.83	16.58	-36.6	-37.5	23.8	0.00e+00	0	33	0	285212672	46	6072
2026-01-06 00:30:31.18	162.85	16.69	-36.7	-37.6	23.7	0.00e+00	0	33	0	287309824	46	6141
2026-01-06 00:30:32.19	162.87	16.81	-37.0	-38.0	23.5	0.00e+00	0	34	0	289406976	46	6395
2026-01-06 00:30:33.20	162.89	16.92	-36.8	-37.7	23.6	0.00e+00	0	33	0	291504128	46	6232
2026-01-06 00:30:34.21	162.91	17.04	-37.0	-37.9	23.5	0.00e+00	0	33	0	293601280	46	6340
2026-01-06 00:30:35.22	162.93	17.16	-36.7	-37.6	23.7	0.00e+00	0	33	0	294649856	46	6138
2026-01-06 00:30:36.23	162.95	17.28	-36.8	-37.7	23.7	0.00e+00	0	33	0	296747008	46	6216
2026-01-06 00:30:37.24	162.97	17.40	-36.5	-37.3	23.9	0.00e+00	0	34	0	298844160	46	5964
2026-01-06 00:30:38.25	162.99	17.52	-36.5	-37.4	23.9	0.00e+00	0	33	0	300941312	46	5972
2026-01-06 00:30:39.26	163.01	17.64	-36.5	-37.4	23.9	0.00e+00	0	34	0	303038464	46	5992
2026-01-06 00:30:40.27	163.03	17.76	-36.4	-37.3	23.9	0.00e+00	0	33	0	304087040	46	5934
2026-01-06 00:30:41.28	163.05	17.88	-36.4	-37.3	24.0	0.00e+00	0	33	0	306184192	46	5925
2026-01-06 00:30:42.29	163.07	18.00	-36.7	-37.5	23.7	0.00e+00	0	33	0	308281344	46	6099
2026-01-06 00:30:43.29	163.09	18.12	-36.4	-37.3	24.0	0.00e+00	0	33	0	310378496	46	5908
2026-01-06 00:30:44.30	163.11	18.24	-36.5	-37.3	24.0	0.00e+00	0	33	0	312475648	46	5940
2026-01-06 00:30:45.31	163.14	18.37	-36.6	-37.4	23.9	0.00e+00	0	34	0	313524224	46	6016
2026-01-06 00:30:46.32	163.16	18.49	-36.5	-37.4	23.9	0.00e+00	0	33	0	315621376	46	5998
2026-01-06 00:30:47.33	163.18	18.61	-36.5	-37.3	23.9	0.00e+00	0	33	0	317718528	46	5959
2026-01-06 00:30:48.34	163.20	18.74	-36.7	-37.6	23.8	0.00e+00	0	33	0	319815680	46	6135
2026-01-06 00:30:49.35	163.22	18.87	-36.8	-37.7	23.6	0.00e+00	0	33	0	321912832	46	6201
2026-01-06 00:30:50.36	163.24	18.99	-36.8	-37.7	23.7	0.00e+00	0	33	0	324009984	46	6193
2026-01-06 00:30:51.37	163.27	19.12	-36.7	-37.6	23.8	0.00e+00	0	33	0	325058560	46	6120
2026-01-06 00:30:52.37	163.29	19.25	-36.7	-37.6	23.7	0.00e+00	0	34	0	327155712	46	6143
2026-01-06 00:30:53.38	163.31	19.37	-36.7	-37.5	23.9	0.00e+00	0	33	0	329252864	46	6091
2026-01-06 00:30:54.39	163.33	19.50	-36.8	-37.7	23.7	0.00e+00	0	34	0	331350016	46	6184
2026-01-06 00:30:55.40	163.36	19.63	-36.8	-37.7	23.7	0.00e+00	0	33	0	333447168	46	6225
2026-01-06 00:30:56.41	163.38	19.76	-36.8	-37.7	23.7	0.00e+00	0	33	0	334495744	46	6180
2026-01-06 00:30:57.42	163.40	19.90	-36.8	-37.7	23.8	0.00e+00	0	34	0	336592896	46	6223
2026-01-06 00:30:58.43	163.42	20.03	-36.9	-37.8	23.6	0.00e+00	0	33	0	338690048	46	6246
2026-01-06 00:30:59.44	163.45	20.16	-36.9	-37.8	23.7	0.00e+00	0	33	0	340787200	46	6278
2026-01-06 00:31:00.45	163.47	20.29	-36.8	-37.6	23.7	0.00e+00	0	34	0	342884352	46	6170
2026-01-06 00:31:01.45	163.50	20.43	-37.0	-37.9	23.6	0.00e+00	0	33	0	343932928	46	6347
2026-01-06 00:31:02.46	163.52	20.56	-37.2	-38.1	23.5	0.00e+00	0	33	0	346030080	46	6480
2026-01-06 00:31:03.47	163.54	20.70	-37.1	-38.0	23.4	0.00e+00	0	34	0	348127232	46	6396
2026-01-06 00:31:04.48	163.57	20.83	-37.2	-38.1	23.5	0.00e+00	0	34	0	350224384	46	6522
2026-01-06 00:31:05.49	163.59	20.97	-37.3	-38.2	23.4	0.00e+00	0	34	0	352321536	46	6580
2026-01-06 00:31:06.50	163.62	21.11	-37.4	-38.3	23.2	0.00e+00	0	34	0	353370112	46	6653
2026-01-06 00:31:07.51	163.64	21.25	-37.6	-38.5	23.2	0.00e+00	0	34	0	355467264	46	6821
2026-01-06 00:31:08.52	163.67	21.39	-37.7	-38.7	22.9	0.00e+00	0	34	0	357564416	48	6195
2026-01-06 00:31:09.53	163.69	21.53	-37.9	-38.9	22.9	0.00e+00	0	34	0	359661568	48	6334
2026-01-06 00:31:10.54	163.72	21.67	-37.7	-38.7	22.9	0.00e+00	0	34	0	361758720	48	6190
2026-01-06 00:31:11.54	163.74	21.81	-37.8	-38.8	22.9	0.00e+00	0	34	0	362807296	48	6261
2026-01-06 00:31:12.55	163.77	21.95	-38.0	-39.0	22.8	0.00e+00	0	33	0	364904448	48	6447
2026-01-06 00:31:13.56	163.79	22.09	-37.9	-38.9	22.8	0.00e+00	0	34	0	367001600	48	6389
2026-01-06 00:31:14.57	163.82	22.24	-38.0	-39.0	22.8	0.00e+00	0	34	0	369098752	48	6461
2026-01-06 00:31:15.58	163.85	22.38	-38.1	-39.1	22.7	0.00e+00	0	33	0	371195904	48	6490
2026-01-06 00:31:16.59	163.87	22.53	-38.1	-39.1	22.7	0.00e+00	0	34	0	372244480	48	6487
2026-01-06 00:31:17.60	163.90	22.67	-38.3	-39.3	22.6	0.00e+00	0	34	0	374341632	48	6672
2026-01-06 00:31:18.61	163.93	22.82	-38.1	-39.1	22.6	0.00e+00	0	34	0	376438784	48	6512
2026-01-06 00:31:19.62	163.96	22.97	-37.9	-39.0	22.7	0.00e+00	0	34	0	378535936	48	6391
2026-01-06 00:31:20.63	163.98	23.12	-38.1	-39.1	22.6	0.00e+00	0	34	0	380633088	48	6520
2026-01-06 00:31:21.64	164.01	23.27	-38.2	-39.2	22.6	0.00e+00	0	34	0	381681664	48	6609
2026-01-06 00:31:22.65	164.04	23.42	-38.2	-39.2	22.5	0.00e+00	0	34	0	383778816	48	6607
2026-01-06 00:31:23.66	164.07	23.57	-38.5	-39.5	22.5	0.00e+00	0	34	0	385875968	48	6827
2026-01-06 00:31:24.67	164.10	23.72	-38.4	-39.4	22.3	0.00e+00	0	34	0	387973120	48	6754
2026-01-06 00:31:25.68	164.12	23.88	-38.4	-39.4	22.4	0.00e+00	0	34	0	390070272	48	6762
2026-01-06 00:31:26.69	164.15	24.03	-38.3	-39.3	22.4	0.00e+00	0	33	0	391118848	48	6658
2026-01-06 00:31:27.69	164.18	24.18	-38.3	-39.3	22.6	0.00e+00	0	33	0	393216000	48	6640
2026-01-06 00:31:28.71	164.21	24.34	-38.2	-39.2	22.5	0.00e+00	0	34	0	395313152	48	6594
2026-01-06 00:31:29.72	164.24	24.50	-38.4	-39.4	22.4	0.00e+00	0	33	0	397410304	48	6731
2026-01-06 00:31:30.72	164.27	24.65	-38.0	-39.0	22.8	0.00e+00	0	34	0	399507456	48	6417
2026-01-06 00:31:31.73	164.30	24.81	-38.1	-39.1	22.7	0.00e+00	0	34	0	400556032	48	6505
2026-01-06 00:31:32.74	164.33	24.97	-38.0	-39.0	22.8	0.00e+00	0	34	0	402653184	48	6415
2026-01-06 00:31:33.75	164.36	25.13	-37.9	-38.9	22.9	0.00e+00	0	34	0	404750336	48	6334
2026-01-06 00:31:34.76	164.39	25.30	-38.2	-39.1	22.7	0.00e+00	0	34	0	406847488	48	6528
2026-01-06 00:31:35.77	164.43	25.46	-38.4	-39.5	22.5	0.00e+00	0	34	0	408944640	48	6783
2026-01-06 00:31:36.78	164.46	25.62	-38.6	-39.7	22.3	0.00e+00	0	34	0	409993216	48	6963
2026-01-06 00:31:37.79	164.49	25.79	-38.5	-39.5	22.4	0.00e+00	0	34	0	412090368	48	6840
2026-01-06 00:31:38.80	164.52	25.95	-38.5	-39.5	22.2	0.00e+00	0	34	0	414187520	48	6830
2026-01-06 00:31:39.81	164.55	26.12	-38.3	-39.3	22.4	0.00e+00	0	34	0	416284672	48	6656
2026-01-06 00:31:40.82	164.59	26.29	-38.3	-39.3	22.5	0.00e+00	0	34	0	418381824	48	6686
2026-01-06 00:31:41.83	164.62	26.46	-38.0	-39.0	22.9	0.00e+00	0	34	0	420478976	48	6419
2026-01-06 00:31:42.84	164.65	26.63	-37.9	-38.8	22.9	0.00e+00	0	34	0	421527552	48	6308
2026-01-06 00:31:43.85	164.69	26.80	-38.0	-39.0	22.9	0.00e+00	0	34	0	423624704	48	6415
2026-01-06 00:31:44.85	164.72	26.97	-37.8	-38.8	23.0	0.00e+00	0	34	0	425721856	48	6257
2026-01-06 00:31:45.86	164.76	27.14	-37.8	-38.8	23.0	0.00e+00	0	34	0	427819008	48	6267
2026-01-06 00:31:46.87	164.79	27.32	-37.9	-38.8	22.9	0.00e+00	0	34	0	429916160	48	6299
2026-01-06 00:31:47.88	164.83	27.49	-37.8	-38.7	22.9	0.00e+00	0	34	0	430964736	48	6212
2026-01-06 00:31:48.89	164.86	27.67	-38.0	-39.0	22.6	0.00e+00	0	34	0	433061888	48	6392
2026-01-06 00:31:49.90	164.90	27.85	-38.0	-39.0	22.8	0.00e+00	0	34	0	435159040	48	6413
2026-01-06 00:31:50.91	164.93	28.02	-38.2	-39.1	22.8	0.00e+00	0	34	0	437256192	48	6537
2026-01-06 00:31:51.92	164.97	28.20	-38.5	-39.6	22.4	0.00e+00	0	34	0	439353344	48	6856
2026-01-06 00:31:52.93	165.01	28.39	-38.1	-39.1	22.7	0.00e+00	0	34	0	440401920	48	6491
2026-01-06 00:31:53.94	165.05	28.57	-38.2	-39.2	22.7	0.00e+00	0	34	0	442499072	48	6562
2026-01-06 00:31:54.95	165.08	28.75	-38.4	-39.4	22.6	0.00e+00	0	34	0	444596224	48	6699
2026-01-06 00:31:55.96	165.12	28.94	-38.1	-39.1	22.9	0.00e+00	0	34	0	446693376	48	6479
2026-01-06 00:31:56.97	165.16	29.12	-38.2	-39.2	22.9	0.00e+00	0	34	0	448790528	48	6545
2026-01-06 00:31:57.98	165.20	29.31	-38.4	-39.4	22.6	0.00e+00	0	34	0	449839104	48	6727
2026-01-06 00:31:58.98	165.24	29.50	-38.1	-39.1	22.8	0.00e+00	0	34	0	451936256	48	6473
2026-01-06 00:31:59.99	165.28	29.69	-38.1	-39.1	22.7	0.00e+00	0	33	0	454033408	48	6521
2026-01-06 00:32:01.00	165.32	29.88	-38.5	-39.5	22.4	0.00e+00	0	33	0	456130560	48	6821
2026-01-06 00:32:02.01	165.36	30.07	-38.6	-39.7	22.4	0.00e+00	0	33	0	458227712	50	6189
2026-01-06 00:32:03.02	165.40	30.26	-38.8	-39.9	22.2	0.00e+00	0	33	0	459276288	50	6334
2026-01-06 00:32:04.03	165.44	30.46	-39.1	-40.2	21.9	0.00e+00	0	34	0	461373440	50	6576
2026-01-06 00:32:05.04	165.48	30.65	-38.9	-40.0	22.1	0.00e+00	0	33	0	463470592	50	6400
2026-01-06 00:32:06.05	165.53	30.85	-38.9	-40.0	21.9	0.00e+00	0	33	0	465567744	50	6396
2026-01-06 00:32:07.06	165.57	31.05	-38.9	-40.0	22.0	0.00e+00	0	33	0	467664896	50	6393
2026-01-06 00:32:08.07	165.61	31.25	-38.3	-39.2	22.6	0.00e+00	0	33	0	468713472	50	5894
2026-01-06 00:32:09.08	165.66	31.45	-39.1	-40.2	21.9	0.00e+00	0	34	0	470810624	50	6576
2026-01-06 00:32:10.09	165.70	31.65	-38.9	-40.0	22.1	0.00e+00	0	34	0	472907776	50	6394
2026-01-06 00:32:11.10	165.74	31.86	-39.1	-40.1	21.9	0.00e+00	0	34	0	475004928	50	6526
2026-01-06 00:32:12.11	165.79	32.06	-39.5	-40.6	21.6	0.00e+00	0	34	0	477102080	50	6920
2026-01-06 00:32:13.11	165.84	32.27	-40.3	-41.5	20.8	0.00e+00	0	33	0	478150656	52	6787
2026-01-06 00:32:14.12	165.88	32.48	-40.2	-41.4	20.9	0.00e+00	0	34	0	480247808	52	6762
2026-01-06 00:32:15.13	165.93	32.69	-40.5	-41.7	20.7	0.00e+00	0	33	0	482344960	52	6964
2026-01-06 00:32:16.14	165.98	32.90	-40.2	-41.4	20.7	0.00e+00	0	34	0	484442112	52	6705
2026-01-06 00:32:17.14	166.02	33.11	-40.2	-41.4	20.6	0.00e+00	0	33	0	486539264	52	6754
2026-01-06 00:32:18.15	166.07	33.32	-40.2	-41.4	20.5	0.00e+00	0	34	0	488636416	52	6718
2026-01-06 00:32:19.16	166.12	33.54	-40.3	-41.6	20.6	0.00e+00	0	34	0	489684992	52	6875
2026-01-06 00:32:20.17	166.17	33.76	-40.2	-41.4	20.9	0.00e+00	0	34	0	491782144	52	6767
2026-01-06 00:32:21.18	166.22	33.97	-40.2	-41.4	20.9	0.00e+00	0	34	0	493879296	52	6724
2026-01-06 00:32:22.19	166.28	34.20	-40.2	-41.4	21.0	0.00e+00	0	34	0	495976448	52	6728
2026-01-06 00:32:23.20	166.33	34.42	-39.5	-40.7	21.3	0.00e+00	0	33	0	498073600	52	6206
2026-01-06 00:32:24.21	166.38	34.64	-39.5	-40.6	21.5	0.00e+00	0	34	0	499122176	52	6168
2026-01-06 00:32:25.22	166.43	34.87	-39.2	-40.3	21.8	0.00e+00	0	34	0	501219328	52	5909
2026-01-06 00:32:26.23	166.49	35.09	-39.0	-40.1	21.9	0.00e+00	0	34	0	503316480	50	6510
2026-01-06 00:32:27.23	166.54	35.32	-38.5	-39.5	22.5	0.00e+00	0	34	0	505413632	50	6066
2026-01-06 00:32:28.25	166.60	35.55	-37.8	-38.8	23.0	0.00e+00	0	34	0	506462208	50	5601
2026-01-06 00:32:29.25	166.65	35.78	-37.9	-38.8	23.1	0.00e+00	0	34	0	508559360	48	6310
2026-01-06 00:32:30.26	166.71	36.01	-37.7	-38.7	23.1	0.00e+00	0	34	0	510656512	48	6225
2026-01-06 00:32:31.27	166.77	36.25	-37.4	-38.3	23.3	0.00e+00	0	34	0	512753664	48	5941
2026-01-06 00:32:32.28	166.83	36.48	-37.5	-38.5	23.4	0.00e+00	0	34	0	514850816	48	6049
2026-01-06 00:32:33.29	166.88	36.72	-37.3	-38.2	23.4	0.00e+00	0	34	0	516947968	48	5864
2026-01-06 00:32:34.30	166.94	36.96	-37.0	-37.9	23.5	0.00e+00	0	34	0	517996544	48	5693
2026-01-06 00:32:35.31	167.01	37.20	-36.7	-37.6	23.9	0.00e+00	0	34	0	520093696	46	6109
2026-01-06 00:32:36.32	167.07	37.45	-36.5	-37.4	24.0	0.00e+00	0	34	0	522190848	46	5968
2026-01-06 00:32:37.33	167.13	37.69	-36.3	-37.1	24.3	0.00e+00	0	34	0	524288000	46	5827
2026-01-06 00:32:38.34	167.19	37.94	-36.2	-37.0	24.4	0.00e+00	0	34	0	526385152	46	5718
2026-01-06 00:32:39.35	167.26	38.19	-35.9	-36.7	24.4	0.00e+00	0	34	0	527433728	46	5535
2026-01-06 00:32:40.36	167.32	38.44	-36.1	-36.9	24.3	0.00e+00	0	34	0	529530880	46	5682
2026-01-06 00:32:41.37	167.39	38.69	-36.2	-37.0	24.3	0.00e+00	0	34	0	531628032	46	5730
2026-01-06 00:32:42.38	167.46	38.95	-36.1	-36.9	24.4	0.00e+00	0	34	0	533725184	46	5647
2026-01-06 00:32:43.39	167.52	39.20	-36.1	-37.0	24.4	0.00e+00	0	34	0	535822336	46	5709
2026-01-06 00:32:44.40	167.59	39.46	-36.2	-37.0	24.2	0.00e+00	0	34	0	536870912	46	5756
2026-01-06 00:32:45.41	167.66	39.72	-36.2	-37.0	24.3	0.00e+00	0	34	0	538968064	46	5711
2026-01-06 00:32:46.42	167.74	39.98	-36.5	-37.3	24.1	0.00e+00	0	34	0	541065216	46	5948
2026-01-06 00:32:47.42	167.81	40.24	-36.7	-37.5	24.0	0.00e+00	0	34	0	543162368	46	6086
2026-01-06 00:32:48.43	167.88	40.51	-37.2	-38.0	23.6	0.00e+00	0	34	0	545259520	46	6454
2026-01-06 00:32:49.44	167.96	40.78	-37.6	-38.5	22.9	0.00e+00	0	34	0	546308096	46	6831
2026-01-06 00:32:50.45	168.03	41.04	-37.4	-38.3	23.3	0.00e+00	0	34	0	548405248	46	6624
2026-01-06 00:32:51.46	168.11	41.32	-37.6	-38.6	23.0	0.00e+00	0	34	0	550502400	48	6105
2026-01-06 00:32:52.47	168.19	41.59	-37.7	-38.6	23.0	0.00e+00	0	34	0	552599552	48	6165
2026-01-06 00:32:53.48	168.27	41.86	-38.2	-39.2	22.6	0.00e+00	0	34	0	554696704	48	6559
2026-01-06 00:32:54.49	168.35	42.14	-38.0	-39.0	22.8	0.00e+00	0	34	0	555745280	48	6427
2026-01-06 00:32:55.50	168.43	42.42	-38.3	-39.3	22.6	0.00e+00	0	34	0	557842432	48	6669
2026-01-06 00:32:56.51	168.51	42.70	-38.3	-39.3	22.6	0.00e+00	0	34	0	559939584	48	6683
2026-01-06 00:32:57.52	168.60	42.99	-37.8	-38.7	23.0	0.00e+00	0	34	0	562036736	48	6219
2026-01-06 00:32:58.53	168.69	43.27	-37.8	-38.8	23.0	0.00e+00	0	34	0	564133888	48	6246
2026-01-06 00:32:59.54	168.77	43.56	-37.5	-38.4	23.2	0.00e+00	0	33	0	565182464	48	6003
2026-01-06 00:33:00.55	168.86	43.85	-37.5	-38.5	23.4	0.00e+00	0	34	0	567279616	48	6045
2026-01-06 00:33:01.56	168.96	44.14	-36.9	-37.8	23.8	0.00e+00	0	34	0	569376768	48	5595
2026-01-06 00:33:02.56	169.05	44.43	-37.3	-38.2	23.4	0.00e+00	0	34	0	571473920	48	5863
2026-01-06 00:33:03.58	169.14	44.73	-37.6	-38.6	23.0	0.00e+00	0	34	0	573571072	48	6141
2026-01-06 00:33:04.58	169.24	45.03	-38.2	-39.2	22.6	0.00e+00	0	34	0	574619648	48	6597
2026-01-06 00:33:05.59	169.34	45.33	-39.0	-40.1	22.0	0.00e+00	0	34	0	576716800	50	6485
2026-01-06 00:33:06.60	169.44	45.63	-39.2	-40.4	21.5	0.00e+00	0	34	0	578813952	50	6732
2026-01-06 00:33:07.61	169.54	45.94	-40.0	-41.2	20.8	0.00e+00	0	34	0	580911104	52	6614
2026-01-06 00:33:08.62	169.64	46.24	-40.6	-42.0	20.3	0.00e+00	0	34	0	583008256	52	7206
2026-01-06 00:33:09.63	169.75	46.55	-41.0	-42.6	20.0	0.00e+00	0	34	0	585105408	54	6862
2026-01-06 00:33:10.64	169.85	46.86	-40.9	-42.3	20.1	0.00e+00	0	34	0	586153984	54	6686
2026-01-06 00:33:11.65	169.96	47.18	-41.0	-42.5	20.4	0.00e+00	0	34	0	588251136	54	6777
2026-01-06 00:33:12.66	170.08	47.49	-40.6	-42.0	20.5	0.00e+00	0	34	0	590348288	54	6446
2026-01-06 00:33:13.66	170.19	47.81	-40.2	-41.5	20.7	0.00e+00	0	34	0	592445440	54	6045
2026-01-06 00:33:14.67	170.30	48.13	-40.0	-41.3	20.7	0.00e+00	0	34	0	594542592	54	5925
2026-01-06 00:33:15.68	170.42	48.45	-39.1	-40.2	21.9	0.00e+00	0	34	0	595591168	52	5834
2026-01-06 00:33:16.69	170.54	48.78	-39.0	-40.1	22.0	0.00e+00	0	34	0	597688320	52	5776
2026-01-06 00:33:17.70	170.67	49.10	-37.9	-38.9	22.9	0.00e+00	0	34	0	599785472	50	5676
2026-01-06 00:33:18.71	170.79	49.43	-37.3	-38.2	23.4	0.00e+00	0	34	0	601882624	48	5872
2026-01-06 00:33:19.72	170.92	49.77	-36.7	-37.5	24.1	0.00e+00	0	34	0	603979776	46	6071
2026-01-06 00:33:20.73	171.05	50.10	-35.9	-36.7	24.6	0.00e+00	0	34	0	605028352	46	5547
2026-01-06 00:33:21.74	171.19	50.44	-35.3	-36.0	24.8	0.00e+00	0	34	0	607125504	44	5759
2026-01-06 00:33:22.75	171.33	50.78	-35.5	-36.3	24.7	0.00e+00	0	34	0	609222656	44	5900
2026-01-06 00:33:23.76	171.47	51.12	-35.4	-36.1	24.8	0.00e+00	0	34	0	611319808	44	5826
2026-01-06 00:33:24.77	171.61	51.46	-35.7	-36.5	24.8	0.00e+00	0	34	0	613416960	44	6079
2026-01-06 00:33:25.77	171.76	51.80	-35.9	-36.7	24.5	0.00e+00	0	34	0	614465536	44	6244
2026-01-06 00:33:26.78	171.91	52.15	-35.9	-36.8	24.4	0.00e+00	0	34	0	616562688	44	6249
2026-01-06 00:33:27.79	172.06	52.50	-35.8	-36.6	24.7	0.00e+00	0	34	0	618659840	44	6125
2026-01-06 00:33:28.80	172.22	52.85	-35.5	-36.3	24.8	0.00e+00	0	34	0	620756992	44	5920
2026-01-06 00:33:29.81	172.38	53.21	-35.8	-36.7	24.6	0.00e+00	0	34	0	622854144	44	6175
2026-01-06 00:33:30.82	172.54	53.57	-35.4	-36.2	24.8	0.00e+00	0	34	0	623902720	44	5847
2026-01-06 00:33:31.83	172.71	53.93	-35.4	-36.2	24.8	0.00e+00	0	33	0	625999872	44	5852
2026-01-06 00:33:32.84	172.88	54.29	-35.4	-36.2	24.9	0.00e+00	0	34	0	628097024	44	5871
2026-01-06 00:33:33.85	173.06	54.65	-35.4	-36.2	25.0	0.00e+00	0	33	0	630194176	44	5870
2026-01-06 00:33:34.86	173.24	55.02	-35.0	-35.8	25.1	0.00e+00	0	34	0	632291328	44	5590
2026-01-06 00:33:35.87	173.43	55.39	-34.8	-35.5	25.3	0.00e+00	0	34	0	633339904	42	6092
2026-01-06 00:33:36.88	173.62	55.76	-34.5	-35.3	25.6	0.00e+00	0	34	0	635437056	42	5897
2026-01-06 00:33:37.89	173.82	56.13	-34.3	-35.0	25.6	0.00e+00	0	34	0	637534208	42	5752
2026-01-06 00:33:38.90	174.02	56.51	-34.2	-34.9	25.6	0.00e+00	0	34	0	639631360	42	5660
2026-01-06 00:33:39.91	174.23	56.88	-34.8	-35.5	25.3	0.00e+00	0	34	0	641728512	42	6094
2026-01-06 00:33:40.91	174.44	57.26	-35.6	-36.4	25.0	0.00e+00	0	34	0	642777088	42	6744
2026-01-06 00:33:41.93	174.66	57.65	-35.7	-36.5	24.7	0.00e+00	0	34	0	644874240	44	6078
2026-01-06 00:33:42.93	174.88	58.03	-35.7	-36.5	24.9	0.00e+00	0	34	0	646971392	44	6040
2026-01-06 00:33:43.95	175.11	58.42	-34.8	-35.5	25.3	0.00e+00	0	34	0	649068544	44	5432
2026-01-06 00:33:44.96	175.35	58.80	-35.0	-35.8	25.3	0.00e+00	0	34	0	651165696	42	6253
2026-01-06 00:33:45.97	175.60	59.19	-35.1	-35.9	25.0	0.00e+00	0	34	0	653262848	42	6352
2026-01-06 00:33:46.98	175.85	59.59	-35.4	-36.2	24.9	0.00e+00	0	34	0	654311424	42	6587
2026-01-06 00:33:47.98	176.11	59.98	-35.6	-36.4	24.8	0.00e+00	0	34	0	656408576	42	6727
2026-01-06 00:33:48.99	176.38	60.37	-35.6	-36.3	24.8	0.00e+00	0	34	0	658505728	44	5964
2026-01-06 00:33:50.00	176.65	60.77	-35.4	-36.2	25.0	0.00e+00	0	34	0	660602880	44	5868
2026-01-06 00:33:51.01	176.94	61.17	-35.0	-35.8	25.1	0.00e+00	0	34	0	662700032	44	5607
2026-01-06 00:33:52.02	177.23	61.57	-34.7	-35.4	25.4	0.00e+00	0	34	0	663748608	44	5377
2026-01-06 00:33:53.03	177.53	61.98	-34.8	-35.5	25.4	0.00e+00	0	34	0	665845760	42	6103
2026-01-06 00:33:54.04	177.85	62.38	-34.8	-35.5	25.4	0.00e+00	0	34	0	667942912	42	6090
2026-01-06 00:33:55.05	178.17	62.79	-34.8	-35.6	25.4	0.00e+00	0	34	0	670040064	42	6167
2026-01-06 00:33:56.06	178.51	63.20	-35.1	-36.0	25.1	0.00e+00	0	34	0	672137216	42	6400
2026-01-06 00:33:57.07	178.86	63.61	-35.0	-35.8	25.2	0.00e+00	0	34	0	673185792	42	6286
2026-01-06 00:33:58.08	179.21	64.02	-35.5	-36.3	24.9	0.00e+00	0	34	0	675282944	42	6626
2026-01-06 00:33:59.09	179.59	64.43	-35.6	-36.4	24.6	0.00e+00	0	34	0	677380096	42	6764
2026-01-06 00:34:00.09	179.97	64.84	-35.7	-36.6	24.6	0.00e+00	0	34	0	679477248	44	6110
2026-01-06 00:34:01.10	180.37	65.26	-35.6	-36.4	24.7	0.00e+00	0	34	0	681574400	44	6010
2026-01-06 00:34:02.11	180.78	65.68	-35.2	-36.0	25.1	0.00e+00	0	34	0	682622976	44	5742
2026-01-06 00:34:03.12	181.21	66.09	-35.1	-35.9	25.2	0.00e+00	0	34	0	684720128	44	5665
2026-01-06 00:34:04.13	181.66	66.51	-35.3	-36.1	25.0	0.00e+00	0	34	0	686817280	44	5780
2026-01-06 00:34:05.14	182.13	66.93	-36.2	-37.0	24.3	0.00e+00	0	34	0	688914432	44	6415
2026-01-06 00:34:06.15	182.61	67.35	-37.6	-38.6	23.2	0.00e+00	0	34	0	691011584	48	6110
2026-01-06 00:34:07.16	183.12	67.77	-38.5	-39.5	22.5	0.00e+00	0	34	0	692060160	48	6812
2026-01-06 00:34:08.17	183.64	68.19	-38.1	-39.1	22.6	0.00e+00	0	34	0	694157312	48	6492
2026-01-06 00:34:09.18	184.19	68.62	-37.3	-38.2	23.6	0.00e+00	0	34	0	696254464	48	5847
2026-01-06 00:34:10.19	184.76	69.04	-37.4	-38.3	23.2	0.00e+00	0	34	0	698351616	48	5941
2026-01-06 00:34:11.20	185.35	69.46	-39.0	-40.1	22.0	0.00e+00	0	34	0	700448768	50	6486
2026-01-06 00:34:12.20	185.97	69.88	-40.9	-42.4	20.2	0.00e+00	0	34	0	701497344	54	6698
2026-01-06 00:34:13.21	186.62	70.30	-41.3	-42.8	19.6	0.00e+00	0	34	0	703594496	54	7031
2026-01-06 00:34:14.22	187.30	70.72	-42.1	-43.9	19.0	0.00e+00	0	34	0	705691648	56	7107
2026-01-06 00:34:15.23	188.01	71.14	-41.4	-42.8	19.7	0.00e+00	0	34	0	707788800	56	6315
2026-01-06 00:34:16.24	188.76	71.55	-41.2	-42.7	19.8	0.00e+00	0	34	0	709885952	56	6204
2026-01-06 00:34:17.25	189.54	71.97	-40.3	-41.5	20.9	0.00e+00	0	34	0	710934528	54	6099
2026-01-06 00:34:18.26	190.37	72.39	-38.5	-39.4	22.8	0.00e+00	0	34	0	713031680	50	6011
2026-01-06 00:34:19.27	191.23	72.80	-37.6	-38.6	23.1	0.00e+00	0	34	0	715128832	48	6128
2026-01-06 00:34:20.28	192.14	73.21	-38.8	-39.9	22.2	0.00e+00	0	34	0	717225984	48	7133
2026-01-06 00:34:21.29	193.10	73.62	-40.0	-41.3	21.1	0.00e+00	0	34	0	719323136	52	6623
2026-01-06 00:34:22.29	194.09	74.02	-39.7	-40.8	21.5	0.00e+00	0	34	0	720371712	52	6300
2026-01-06 00:34:23.30	195.15	74.42	-38.4	-39.4	22.8	0.00e+00	0	34	0	722468864	50	6001
2026-01-06 00:34:24.31	196.27	74.82	-37.8	-38.7	23.1	0.00e+00	0	34	0	724566016	48	6215
2026-01-06 00:34:25.33	197.46	75.21	-38.0	-38.9	23.2	0.00e+00	0	34	0	726663168	48	6341
2026-01-06 00:34:26.34	198.71	75.60	-38.7	-39.7	22.6	0.00e+00	0	34	0	728760320	48	7003
2026-01-06 00:34:27.34	200.01	75.98	-38.3	-39.2	23.0	0.00e+00	0	34	0	729808896	48	6552
2026-01-06 00:34:28.35	201.40	76.35	-39.8	-41.0	21.3	0.00e+00	0	34	0	731906048	52	6417
2026-01-06 00:34:29.36	202.87	76.72	-40.3	-41.6	20.8	0.00e+00	0	34	0	734003200	52	6876
2026-01-06 00:34:30.37	204.43	77.08	-39.4	-40.6	21.7	0.00e+00	0	34	0	736100352	52	6108
2026-01-06 00:34:31.38	206.08	77.43	-38.7	-39.7	22.3	0.00e+00	0	34	0	738197504	50	6207
2026-01-06 00:34:32.39	207.82	77.77	-39.5	-40.6	21.8	0.00e+00	0	34	0	739246080	52	6104
2026-01-06 00:34:33.40	209.66	78.10	-39.0	-40.0	22.3	0.00e+00	0	34	0	741343232	52	5709
2026-01-06 00:34:34.41	211.61	78.42	-38.1	-39.0	22.7	0.00e+00	0	34	0	743440384	50	5731
2026-01-06 00:34:35.42	213.67	78.72	-39.5	-40.6	21.6	0.00e+00	0	34	0	745537536	50	6872
2026-01-06 00:34:36.43	215.84	79.01	-40.7	-42.0	20.4	0.00e+00	0	34	0	747634688	54	6408
2026-01-06 00:34:37.44	218.13	79.29	-40.6	-41.9	20.6	0.00e+00	0	34	0	749731840	54	6332
2026-01-06 00:34:38.44	220.51	79.54	-39.6	-40.8	21.5	0.00e+00	0	34	0	750780416	52	6262
2026-01-06 00:34:39.45	223.03	79.78	-40.1	-41.4	21.5	0.00e+00	0	34	0	752877568	52	6705
2026-01-06 00:34:40.46	225.68	80.00	-40.1	-41.4	21.0	0.00e+00	0	34	0	754974720	52	6766
2026-01-06 00:34:41.47	228.43	80.19	-40.4	-41.9	20.5	0.00e+00	0	34	0	757071872	52	7095
2026-01-06 00:34:42.48	231.29	80.37	-40.8	-42.3	20.0	0.00e+00	0	34	0	759169024	54	6656
2026-01-06 00:34:43.49	234.25	80.52	-41.5	-43.1	19.2	0.00e+00	0	34	0	760217600	54	7306
2026-01-06 00:34:44.50	237.30	80.64	-40.7	-42.0	20.4	0.00e+00	0	34	0	762314752	54	6456
2026-01-06 00:34:45.51	240.43	80.74	-40.0	-41.2	21.2	0.00e+00	0	34	0	764411904	54	5842
2026-01-06 00:34:46.52	243.61	80.81	-40.2	-41.4	20.8	0.00e+00	0	34	0	766509056	52	6727
2026-01-06 00:34:47.53	246.83	80.85	-40.4	-41.8	20.6	0.00e+00	0	34	0	768606208	52	7010
2026-01-06 00:34:48.54	250.07	80.86	-39.2	-40.3	21.9	0.00e+00	0	34	0	769654784	52	5956
2026-01-06 00:34:49.55	253.31	80.85	-39.2	-40.3	21.8	0.00e+00	0	34	0	771751936	52	5905
2026-01-06 00:34:50.55	256.49	80.80	-39.6	-40.8	21.1	0.00e+00	0	34	0	773849088	52	6248
2026-01-06 00:34:51.56	259.67	80.73	-40.2	-41.5	21.1	0.00e+00	0	33	0	775946240	52	6795
2026-01-06 00:34:52.57	262.79	80.63	-39.5	-40.7	21.5	0.00e+00	0	34	0	778043392	52	6219
2026-01-06 00:34:53.58	265.83	80.51	-40.4	-41.7	20.4	0.00e+00	0	34	0	779091968	52	6980
2026-01-06 00:34:54.59	268.78	80.35	-41.6	-43.2	19.3	0.00e+00	0	34	0	781189120	56	6595
2026-01-06 00:34:55.60	271.64	80.18	-39.8	-41.0	21.3	0.00e+00	0	34	0	783286272	52	6409
2026-01-06 00:34:56.61	274.38	79.98	-40.3	-41.5	21.0	0.00e+00	0	34	0	785383424	52	6799
2026-01-06 00:34:57.62	277.01	79.76	-41.9	-43.6	18.9	0.00e+00	0	34	0	787480576	54	7717
2026-01-06 00:34:58.63	279.52	79.52	-42.0	-43.7	19.1	0.00e+00	0	34	0	788529152	56	6973
2026-01-06 00:34:59.64	281.92	79.26	-40.6	-41.9	20.4	0.00e+00	0	34	0	790626304	54	6342
2026-01-06 00:35:00.65	284.19	78.99	-40.2	-41.5	20.8	0.00e+00	0	34	0	792723456	54	6062
2026-01-06 00:35:01.66	286.35	78.69	-39.1	-40.2	21.9	0.00e+00	0	34	0	794820608	52	5883
2026-01-06 00:35:02.66	288.38	78.39	-39.6	-40.8	21.6	0.00e+00	0	34	0	796917760	52	6271
2026-01-06 00:35:03.67	290.32	78.07	-40.5	-41.9	20.5	0.00e+00	0	34	0	797966336	52	7116
2026-01-06 00:35:04.68	292.15	77.74	-39.7	-40.9	20.8	0.00e+00	0	34	0	800063488	54	5674
2026-01-06 00:35:05.69	293.89	77.40	-40.4	-41.6	20.6	0.00e+00	0	34	0	802160640	52	6914
2026-01-06 00:35:06.70	295.52	77.05	-39.7	-40.9	21.4	0.00e+00	0	34	0	804257792	52	6355
2026-01-06 00:35:07.71	297.07	76.69	-36.7	-37.5	24.1	0.00e+00	0	34	0	806354944	48	5383
2026-01-06 00:35:08.72	298.54	76.32	-36.4	-37.2	24.2	0.00e+00	0	34	0	807403520	46	5875
2026-01-06 00:35:09.73	299.92	75.95	-36.9	-37.8	23.7	0.00e+00	0	34	0	809500672	46	6270
2026-01-06 00:35:10.74	301.23	75.57	-37.2	-38.1	23.5	0.00e+00	0	34	0	811597824	46	6502
2026-01-06 00:35:11.75	302.47	75.18	-38.3	-39.4	22.5	0.00e+00	0	34	0	813694976	48	6723
2026-01-06 00:35:12.76	303.64	74.79	-39.3	-40.5	21.5	0.00e+00	0	34	0	815792128	50	6772
2026-01-06 00:35:13.77	304.76	74.39	-40.2	-41.5	20.7	0.00e+00	0	34	0	817889280	52	6784
2026-01-06 00:35:14.78	305.81	73.99	-39.6	-40.8	21.2	0.00e+00	0	34	0	818937856	52	6279
2026-01-06 00:35:15.79	306.81	73.59	-38.1	-39.1	22.9	0.00e+00	0	34	0	821035008	50	5762
2026-01-06 00:35:16.80	307.76	73.18	-35.7	-36.5	24.9	0.00e+00	0	34	0	823132160	44	6055
2026-01-06 00:35:17.81	308.67	72.77	-35.5	-36.2	24.8	0.00e+00	0	34	0	825229312	44	5877
2026-01-06 00:35:18.82	309.53	72.36	-37.3	-38.2	23.4	0.00e+00	0	34	0	827326464	46	6564
2026-01-06 00:35:19.83	310.35	71.94	-38.9	-39.9	22.2	0.00e+00	0	34	0	828375040	50	6383
2026-01-06 00:35:20.84	311.12	71.53	-39.5	-40.6	21.2	0.00e+00	0	34	0	830472192	50	6906
2026-01-06 00:35:21.85	311.87	71.11	-41.3	-42.7	19.6	0.00e+00	0	34	0	832569344	54	6950
2026-01-06 00:35:22.78	312.52	70.72	-40.6	-42.0	20.5	0.00e+00	0	34	0	834666496	54	6425
2026-01-06 00:35:23.79	313.20	70.30	-41.1	-42.5	19.9	0.00e+00	0	34	0	836763648	54	6809
2026-01-06 00:35:24.80	313.85	69.88	-42.3	-44.0	18.6	0.00e+00	0	34	0	837812224	56	7192
2026-01-06 00:35:25.81	314.47	69.46	-41.8	-43.4	19.3	0.00e+00	0	34	0	839909376	56	6736
2026-01-06 00:35:26.81	315.06	69.05	-40.4	-41.7	20.6	0.00e+00	0	34	0	842006528	54	6179
2026-01-06 00:35:27.82	315.63	68.63	-42.1	-43.9	18.9	0.00e+00	0	34	0	844103680	56	7118
2026-01-06 00:35:28.83	316.18	68.21	-43.3	-45.6	16.9	0.00e+00	0	34	0	846200832	58	7720
2026-01-06 00:35:29.84	316.71	67.79	-40.0	-41.3	20.9	0.00e+00	0	34	0	847249408	54	5920
2026-01-06 00:35:30.85	317.21	67.37	-36.6	-37.5	24.1	0.00e+00	0	34	0	849346560	48	5420
2026-01-06 00:35:31.86	317.69	66.95	-35.9	-36.7	24.6	0.00e+00	0	34	0	851443712	46	5549
2026-01-06 00:35:32.87	318.16	66.53	-35.5	-36.3	24.9	0.00e+00	0	34	0	853540864	44	5921
2026-01-06 00:35:33.88	318.60	66.11	-37.1	-38.0	23.8	0.00e+00	0	34	0	855638016	44	7216
2026-01-06 00:35:34.89	319.04	65.69	-37.3	-38.2	23.5	0.00e+00	0	34	0	856686592	46	6606
2026-01-06 00:35:35.90	319.45	65.28	-36.5	-37.4	24.1	0.00e+00	0	34	0	858783744	46	5980
2026-01-06 00:35:36.91	319.85	64.86	-35.7	-36.5	24.8	0.00e+00	0	34	0	860880896	46	5384
2026-01-06 00:35:37.92	320.24	64.45	-34.7	-35.5	25.2	0.00e+00	0	34	0	862978048	42	6068
2026-01-06 00:35:38.93	320.61	64.04	-35.7	-36.5	24.7	0.00e+00	0	34	0	865075200	44	6101
2026-01-06 00:35:39.93	320.96	63.63	-37.4	-38.4	23.3	0.00e+00	0	34	0	866123776	46	6765
2026-01-06 00:35:40.94	321.31	63.22	-36.9	-37.9	23.8	0.00e+00	0	34	0	868220928	46	6341
2026-01-06 00:35:41.95	321.64	62.81	-35.4	-36.2	25.0	0.00e+00	0	34	0	870318080	44	5864
2026-01-06 00:35:42.96	321.97	62.41	-36.2	-37.1	24.3	0.00e+00	0	34	0	872415232	44	6482
2026-01-06 00:35:43.97	322.28	62.00	-37.3	-38.3	23.5	0.00e+00	0	34	0	874512384	46	6658
2026-01-06 00:35:44.97	322.58	61.60	-36.8	-37.7	24.1	0.00e+00	0	34	0	875560960	46	6240
2026-01-06 00:35:45.98	322.88	61.20	-35.7	-36.5	24.7	0.00e+00	0	34	0	877658112	44	6095
2026-01-06 00:35:46.99	323.16	60.80	-36.0	-36.8	24.6	0.00e+00	0	34	0	879755264	44	6304
2026-01-06 00:35:48.00	323.44	60.41	-35.8	-36.6	24.8	0.00e+00	0	34	0	881852416	44	6109
2026-01-06 00:35:49.01	323.71	60.01	-35.3	-36.1	24.9	0.00e+00	0	34	0	883949568	44	5787
2026-01-06 00:35:50.02	323.97	59.62	-36.3	-37.1	24.2	0.00e+00	0	34	0	884998144	44	6509
2026-01-06 00:35:51.03	324.22	59.23	-38.2	-39.2	22.4	0.00e+00	0	34	0	887095296	48	6602
2026-01-06 00:35:52.04	324.46	58.84	-40.2	-41.7	20.6	0.00e+00	0	34	0	889192448	52	6955
2026-01-06 00:35:53.05	324.70	58.45	-39.5	-40.8	21.8	0.00e+00	0	34	0	891289600	52	6273
2026-01-06 00:35:54.06	324.93	58.07	-38.4	-39.5	22.4	0.00e+00	0	34	0	893386752	52	5435
2026-01-06 00:35:55.07	325.16	57.68	-38.3	-39.3	23.0	0.00e+00	0	34	0	894435328	50	5948
2026-01-06 00:35:56.08	325.38	57.30	-37.4	-38.4	23.3	0.00e+00	0	34	0	896532480	48	5966
2026-01-06 00:35:57.09	325.59	56.92	-37.1	-38.0	23.6	0.00e+00	0	34	0	898629632	48	5726
2026-01-06 00:35:58.10	325.80	56.55	-37.0	-37.9	23.9	0.00e+00	0	34	0	900726784	48	5640
2026-01-06 00:35:59.11	326.00	56.17	-36.1	-37.0	24.5	0.00e+00	0	34	0	902823936	46	5719
2026-01-06 00:36:00.11	326.19	55.80	-35.9	-36.8	24.6	0.00e+00	0	34	0	903872512	46	5596
2026-01-06 00:36:01.11	326.38	55.44	-36.1	-37.0	24.4	0.00e+00	0	34	0	905969664	46	5704
2026-01-06 00:36:02.12	326.57	55.07	-35.5	-36.4	24.7	0.00e+00	0	34	0	908066816	44	5992
2026-01-06 00:36:03.13	326.75	54.70	-35.4	-36.2	24.8	0.00e+00	0	34	0	910163968	44	5851
2026-01-06 00:36:04.14	326.93	54.34	-36.2	-37.1	24.3	0.00e+00	0	34	0	912261120	44	6482
2026-01-06 00:36:05.15	327.10	53.98	-36.9	-37.9	23.6	0.00e+00	0	34	0	914358272	46	6336
2026-01-06 00:36:06.15	327.27	53.63	-36.3	-37.2	24.3	0.00e+00	0	34	0	915406848	46	5832
2026-01-06 00:36:07.16	327.44	53.27	-35.5	-36.2	24.9	0.00e+00	0	34	0	917504000	44	5889
2026-01-06 00:36:08.17	327.60	52.92	-35.3	-36.1	25.1	0.00e+00	0	34	0	919601152	44	5794
2026-01-06 00:36:09.18	327.75	52.56	-36.3	-37.2	24.2	0.00e+00	0	34	0	921698304	44	6547
2026-01-06 00:36:10.19	327.91	52.21	-37.0	-38.0	24.0	0.00e+00	0	34	0	923795456	46	6419
2026-01-06 00:36:11.20	328.06	51.87	-37.2	-38.2	23.5	0.00e+00	0	34	0	924844032	46	6576
2026-01-06 00:36:12.21	328.21	51.52	-37.8	-38.7	22.9	0.00e+00	0	34	0	926941184	48	6239
2026-01-06 00:36:13.22	328.35	51.18	-38.6	-39.7	22.1	0.00e+00	0	34	0	929038336	50	6198
2026-01-06 00:36:14.23	328.49	50.84	-39.0	-40.2	21.9	0.00e+00	0	34	0	931135488	50	6602
2026-01-06 00:36:15.24	328.63	50.50	-39.0	-40.2	21.9	0.00e+00	0	34	0	933232640	50	6561
2026-01-06 00:36:16.25	328.76	50.17	-38.7	-39.8	22.1	0.00e+00	0	34	0	934281216	50	6304
2026-01-06 00:36:17.25	328.89	49.84	-38.8	-40.0	22.2	0.00e+00	0	34	0	936378368	50	6408
2026-01-06 00:36:18.26	329.02	49.51	-38.9	-40.0	22.0	0.00e+00	0	34	0	938475520	50	6447
2026-01-06 00:36:19.27	329.15	49.18	-39.2	-40.3	21.9	0.00e+00	0	34	0	940572672	50	6634
2026-01-06 00:36:20.28	329.27	48.85	-39.5	-40.7	21.5	0.00e+00	0	34	0	942669824	52	6211
2026-01-06 00:36:21.29	329.39	48.53	-39.6	-40.7	21.5	0.00e+00	0	34	0	943718400	52	6234
2026-01-06 00:36:22.30	329.51	48.20	-40.1	-41.3	21.1	0.00e+00	0	34	0	945815552	52	6655
2026-01-06 00:36:23.31	329.63	47.88	-39.6	-40.8	21.5	0.00e+00	0	34	0	947912704	52	6272
2026-01-06 00:36:24.32	329.74	47.57	-39.1	-40.3	21.9	0.00e+00	0	34	0	950009856	50	6629
2026-01-06 00:36:25.33	329.85	47.25	-39.4	-40.6	21.6	0.00e+00	0	34	0	952107008	50	6852
2026-01-06 00:36:26.34	329.96	46.94	-41.6	-43.3	19.0	0.00e+00	0	34	0	953155584	54	7434
2026-01-06 00:36:27.35	330.07	46.63	-42.5	-44.6	18.1	0.00e+00	0	34	0	955252736	58	6880
2026-01-06 00:36:28.36	330.18	46.32	-42.3	-44.3	18.4	0.00e+00	0	34	0	957349888	58	6679
2026-01-06 00:36:29.37	330.28	46.01	-42.1	-43.9	18.4	0.00e+00	0	34	0	959447040	58	6355
2026-01-06 00:36:30.37	330.38	45.71	-41.0	-42.5	20.0	0.00e+00	0	34	0	961544192	54	6790
2026-01-06 00:36:31.38	330.48	45.41	-39.8	-41.0	21.3	0.00e+00	0	34	0	962592768	52	6426
2026-01-06 00:36:32.39	330.58	45.11	-38.2	-39.2	22.8	0.00e+00	0	34	0	964689920	50	5892
2026-01-06 00:36:33.40	330.68	44.81	-37.9	-38.9	22.7	0.00e+00	0	34	0	966787072	50	5664
2026-01-06 00:36:34.41	330.77	44.52	-37.3	-38.2	23.6	0.00e+00	0	34	0	968884224	48	5860
2026-01-06 00:36:35.42	330.87	44.23	-36.9	-37.8	23.8	0.00e+00	0	34	0	970981376	48	5591
2026-01-06 00:36:36.43	330.96	43.93	-37.9	-38.9	22.9	0.00e+00	0	34	0	972029952	48	6361
2026-01-06 00:36:37.44	331.05	43.65	-39.4	-40.7	21.6	0.00e+00	0	34	0	974127104	50	6938
2026-01-06 00:36:38.45	331.13	43.36	-40.0	-41.3	21.0	0.00e+00	0	34	0	976224256	52	6661
2026-01-06 00:36:39.45	331.22	43.08	-40.0	-41.4	20.9	0.00e+00	0	34	0	978321408	52	6747
2026-01-06 00:36:40.46	331.31	42.79	-40.2	-41.5	21.2	0.00e+00	0	34	0	980418560	52	6810
2026-01-06 00:36:41.47	331.39	42.51	-38.5	-39.6	22.7	0.00e+00	0	34	0	981467136	50	6112
2026-01-06 00:36:42.48	331.47	42.23	-37.4	-38.3	23.5	0.00e+00	0	34	0	983564288	48	5959
2026-01-06 00:36:43.49	331.55	41.96	-36.2	-37.0	24.5	0.00e+00	0	34	0	985661440	46	5732
2026-01-06 00:36:44.50	331.63	41.68	-36.1	-36.9	24.4	0.00e+00	0	34	0	987758592	46	5674
2026-01-06 00:36:45.51	331.71	41.41	-36.1	-37.0	24.4	0.00e+00	0	34	0	989855744	46	5703
2026-01-06 00:36:46.52	331.79	41.14	-37.4	-38.4	23.7	0.00e+00	0	34	0	990904320	46	6708
2026-01-06 00:36:47.53	331.87	40.87	-37.6	-38.5	23.1	0.00e+00	0	34	0	993001472	48	6088
2026-01-06 00:36:48.54	331.94	40.60	-38.0	-39.0	22.9	0.00e+00	0	34	0	995098624	48	6430
2026-01-06 00:36:49.55	332.02	40.34	-37.9	-38.9	23.1	0.00e+00	0	34	0	997195776	48	6373
2026-01-06 00:36:50.56	332.09	40.08	-37.2	-38.2	23.6	0.00e+00	0	34	0	999292928	48	5867
2026-01-06 00:36:51.57	332.16	39.82	-36.9	-37.9	23.8	0.00e+00	0	34	0	1000341504	48	5631
2026-01-06 00:36:52.58	332.23	39.56	-36.3	-37.1	24.3	0.00e+00	0	34	0	1002438656	46	5811
2026-01-06 00:36:53.59	332.30	39.30	-36.7	-37.5	24.0	0.00e+00	0	34	0	1004535808	46	6082
2026-01-06 00:36:54.60	332.37	39.04	-36.5	-37.4	24.1	0.00e+00	0	34	0	1006632960	46	5980
2026-01-06 00:36:55.61	332.44	38.79	-37.0	-37.8	23.6	0.00e+00	0	34	0	1008730112	46	6316
2026-01-06 00:36:56.62	332.50	38.54	-37.8	-38.7	23.2	0.00e+00	0	34	0	1010827264	48	6236
2026-01-06 00:36:57.63	332.57	38.29	-38.1	-39.1	22.8	0.00e+00	0	34	0	1011875840	48	6492
2026-01-06 00:36:58.64	332.63	38.04	-37.9	-38.8	23.0	0.00e+00	0	34	0	1013972992	48	6316
2026-01-06 00:36:59.65	332.70	37.79	-38.4	-39.4	22.7	0.00e+00	0	34	0	1016070144	48	6736
2026-01-06 00:37:00.65	332.76	37.55	-38.5	-39.6	22.4	0.00e+00	0	34	0	1018167296	48	6866
2026-01-06 00:37:01.67	332.82	37.31	-38.8	-39.9	22.2	0.00e+00	0	34	0	1020264448	50	6382
2026-01-06 00:37:02.67	332.88	37.07	-39.6	-40.8	21.5	0.00e+00	0	34	0	1021313024	50	7066
2026-01-06 00:37:03.68	332.94	36.83	-39.9	-41.2	21.4	0.00e+00	0	34	0	1023410176	52	6540
2026-01-06 00:37:04.69	333.00	36.59	-40.0	-41.4	21.0	0.00e+00	0	34	0	1025507328	52	6726
2026-01-06 00:37:05.70	333.06	36.36	-39.9	-41.2	21.0	0.00e+00	0	34	0	1027604480	52	6597
2026-01-06 00:37:06.71	333.12	36.12	-40.0	-41.3	21.0	0.00e+00	0	34	0	1029701632	52	6654
2026-01-06 00:37:07.72	333.18	35.89	-39.6	-40.8	21.4	0.00e+00	0	34	0	1030750208	52	6313
2026-01-06 00:37:08.73	333.23	35.66	-39.2	-40.4	21.9	0.00e+00	0	34	0	1032847360	52	5973
2026-01-06 00:37:09.74	333.29	35.43	-38.4	-39.5	22.4	0.00e+00	0	34	0	1034944512	50	6043
2026-01-06 00:37:10.75	333.34	35.20	-37.8	-38.7	23.3	0.00e+00	0	34	0	1037041664	50	5529
2026-01-06 00:37:11.76	333.40	34.98	-37.7	-38.6	23.2	0.00e+00	0	34	0	1039138816	48	6152
2026-01-06 00:37:12.77	333.45	34.75	-37.5	-38.4	23.6	0.00e+00	0	34	0	1040187392	48	5997
2026-01-06 00:37:13.78	333.50	34.53	-37.2	-38.1	23.6	0.00e+00	0	34	0	1042284544	48	5795
2026-01-06 00:37:14.78	333.56	34.31	-38.1	-39.0	22.8	0.00e+00	0	34	0	1044381696	48	6464
2026-01-06 00:37:15.79	333.61	34.09	-39.1	-40.1	21.9	0.00e+00	0	34	0	1046478848	50	6537
2026-01-06 00:37:16.80	333.66	33.87	-40.4	-41.7	20.7	0.00e+00	0	34	0	1048576000	52	6963
2026-01-06 00:37:17.81	333.71	33.65	-41.0	-42.4	19.9	0.00e+00	0	34	0	1049624576	54	6729
2026-01-06 00:37:18.82	333.76	33.44	-41.9	-43.5	19.0	0.00e+00	0	34	0	1051721728	56	6848
2026-01-06 00:37:19.83	333.81	33.23	-41.9	-43.6	19.1	0.00e+00	0	34	0	1053818880	56	6871
2026-01-06 00:37:20.84	333.86	33.01	-42.2	-44.0	18.7	0.00e+00	0	34	0	1055916032	56	7177
2026-01-06 00:37:21.85	333.90	32.80	-41.6	-43.1	19.3	0.00e+00	0	34	0	1058013184	56	6518
2026-01-06 00:37:22.86	333.95	32.59	-40.6	-42.0	20.6	0.00e+00	0	34	0	1059061760	54	6396
2026-01-06 00:37:23.87	334.00	32.39	-40.0	-41.2	21.0	0.00e+00	0	34	0	1061158912	54	5873
2026-01-06 00:37:24.88	334.05	32.18	-40.0	-41.3	20.9	0.00e+00	0	34	0	1063256064	54	5903
2026-01-06 00:37:25.89	334.09	31.97	-39.6	-40.8	21.5	0.00e+00	0	34	0	1065353216	52	6260
2026-01-06 00:37:26.90	334.14	31.77	-39.2	-40.2	22.0	0.00e+00	0	34	0	1067450368	52	5886
2026-01-06 00:37:27.91	334.18	31.57	-38.9	-40.0	22.3	0.00e+00	0	34	0	1068498944	50	6417
2026-01-06 00:37:28.92	334.23	31.37	-38.4	-39.4	22.7	0.00e+00	0	34	0	1070596096	50	6009
2026-01-06 00:37:29.93	334.27	31.17	-37.6	-38.5	23.2	0.00e+00	0	34	0	1072693248	48	6102
2026-01-06 00:37:30.94	334.31	30.97	-37.5	-38.4	23.4	0.00e+00	0	34	0	1074790400	48	6014
2026-01-06 00:37:31.95	334.36	30.77	-37.4	-38.2	23.4	0.00e+00	0	34	0	1076887552	48	5895
2026-01-06 00:37:32.96	334.40	30.58	-37.4	-38.3	23.4	0.00e+00	0	34	0	1078984704	48	5940
2026-01-06 00:37:33.97	334.44	30.38	-37.1	-38.0	23.6	0.00e+00	0	34	0	1080033280	48	5739
2026-01-06 00:37:34.98	334.48	30.19	-37.0	-37.8	23.6	0.00e+00	0	34	0	1082130432	48	5628
2026-01-06 00:37:35.99	334.52	30.00	-37.3	-38.2	23.5	0.00e+00	0	34	0	1084227584	48	5840
2026-01-06 00:37:37.00	334.56	29.81	-37.2	-38.1	23.5	0.00e+00	0	34	0	1086324736	48	5799
2026-01-06 00:37:38.01	334.60	29.62	-36.8	-37.7	23.7	0.00e+00	0	34	0	1088421888	48	5506
2026-01-06 00:37:39.02	334.64	29.43	-37.3	-38.2	23.6	0.00e+00	0	34	0	1089470464	48	5871
2026-01-06 00:37:40.03	334.68	29.25	-37.5	-38.4	23.3	0.00e+00	0	34	0	1091567616	48	6017
2026-01-06 00:37:41.04	334.72	29.06	-37.8	-38.7	23.1	0.00e+00	0	34	0	1093664768	48	6219
2026-01-06 00:37:42.05	334.76	28.88	-38.4	-39.4	22.4	0.00e+00	0	34	0	1095761920	48	6749
2026-01-06 00:37:43.06	334.80	28.69	-39.0	-40.1	21.9	0.00e+00	0	34	0	1097859072	50	6512
2026-01-06 00:37:44.07	334.84	28.51	-39.7	-40.8	21.3	0.00e+00	0	34	0	1098907648	50	7053
2026-01-06 00:37:45.08	334.87	28.33	-40.2	-41.4	20.9	0.00e+00	0	34	0	1101004800	52	6745
2026-01-06 00:37:46.09	334.91	28.15	-40.2	-41.5	21.0	0.00e+00	0	34	0	1103101952	52	6774
2026-01-06 00:37:47.10	334.95	27.97	-40.6	-41.8	20.6	0.00e+00	0	34	0	1105199104	52	7079
2026-01-06 00:37:48.11	334.98	27.80	-40.5	-41.8	20.6	0.00e+00	0	34	0	1107296256	52	7016
2026-01-06 00:37:49.12	335.02	27.62	-40.0	-41.3	21.0	0.00e+00	0	34	0	1108344832	52	6616
2026-01-06 00:37:50.12	335.05	27.45	-39.9	-41.0	21.3	0.00e+00	0	34	0	1110441984	52	6461
2026-01-06 00:37:51.13	335.09	27.27	-39.6	-40.7	21.1	0.00e+00	0	34	0	1112539136	52	6236
2026-01-06 00:37:52.14	335.12	27.10	-39.0	-40.1	22.1	0.00e+00	0	34	0	1114636288	52	5810
2026-01-06 00:37:53.15	335.16	26.93	-38.7	-39.8	22.3	0.00e+00	0	34	0	1116733440	50	6281
2026-01-06 00:37:54.16	335.19	26.76	-38.3	-39.3	23.0	0.00e+00	0	34	0	1117782016	50	5961
2026-01-06 00:37:55.17	335.23	26.59	-37.9	-38.9	23.0	0.00e+00	0	34	0	1119879168	50	5664
2026-01-06 00:37:56.18	335.26	26.42	-37.7	-38.6	23.4	0.00e+00	0	34	0	1121976320	48	6163
2026-01-06 00:37:57.19	335.29	26.25	-37.4	-38.3	23.4	0.00e+00	0	34	0	1124073472	48	5944
2026-01-06 00:37:58.20	335.33	26.09	-36.7	-37.6	24.0	0.00e+00	0	34	0	1126170624	48	5474
2026-01-06 00:37:59.21	335.36	25.92	-36.8	-37.7	23.9	0.00e+00	0	34	0	1127219200	46	6199
2026-01-06 00:38:00.21	335.39	25.76	-36.5	-37.3	24.1	0.00e+00	0	34	0	1129316352	46	5957
2026-01-06 00:38:01.22	335.42	25.59	-36.7	-37.6	23.9	0.00e+00	0	34	0	1131413504	46	6146
2026-01-06 00:38:02.23	335.46	25.43	-36.5	-37.4	24.1	0.00e+00	0	34	0	1133510656	46	5971
2026-01-06 00:38:03.24	335.49	25.27	-36.4	-37.3	24.2	0.00e+00	0	34	0	1135607808	46	5903
2026-01-06 00:38:04.25	335.52	25.11	-36.3	-37.2	24.2	0.00e+00	0	34	0	1136656384	46	5846
2026-01-06 00:38:05.26	335.55	24.95	-36.2	-37.1	24.2	0.00e+00	0	34	0	1138753536	46	5774
2026-01-06 00:38:06.28	335.58	24.79	-36.2	-37.0	24.3	0.00e+00	0	34	0	1140850688	46	5746
2026-01-06 00:38:07.29	335.61	24.63	-36.0	-36.8	24.5	0.00e+00	0	34	0	1142947840	46	5612
2026-01-06 00:38:08.29	335.64	24.48	-36.0	-36.9	24.4	0.00e+00	0	34	0	1145044992	46	5642
2026-01-06 00:38:09.30	335.67	24.32	-35.9	-36.7	24.6	0.00e+00	0	34	0	1147142144	46	5559
2026-01-06 00:38:10.32	335.70	24.17	-35.3	-36.1	25.0	0.00e+00	0	34	0	1148190720	44	5803
2026-01-06 00:38:11.33	335.73	24.01	-35.4	-36.2	24.9	0.00e+00	0	34	0	1150287872	44	5892
2026-01-06 00:38:12.34	335.76	23.86	-35.4	-36.2	24.8	0.00e+00	0	34	0	1152385024	44	5843
2026-01-06 00:38:13.35	335.79	23.71	-35.3	-36.1	24.9	0.00e+00	0	34	0	1154482176	44	5810
2026-01-06 00:38:14.36	335.82	23.56	-35.4	-36.2	24.8	0.00e+00	0	34	0	1156579328	44	5866
2026-01-06 00:38:15.37	335.85	23.40	-35.5	-36.3	24.8	0.00e+00	0	34	0	1157627904	44	5956
2026-01-06 00:38:16.37	335.87	23.26	-35.7	-36.5	24.7	0.00e+00	0	34	0	1159725056	44	6090
2026-01-06 00:38:17.38	335.90	23.11	-35.8	-36.6	24.5	0.00e+00	0	34	0	1161822208	44	6143
2026-01-06 00:38:18.40	335.93	22.96	-35.9	-36.7	24.5	0.00e+00	0	34	0	1163919360	44	6195
2026-01-06 00:38:19.41	335.96	22.81	-36.3	-37.1	24.3	0.00e+00	0	34	0	1166016512	44	6503
2026-01-06 00:38:20.42	335.99	22.67	-36.5	-37.4	24.0	0.00e+00	0	34	0	1167065088	44	6705
2026-01-06 00:38:21.42	336.01	22.52	-36.6	-37.4	23.9	0.00e+00	0	34	0	1169162240	44	6752
2026-01-06 00:38:22.43	336.04	22.38	-36.8	-37.6	23.8	0.00e+00	0	34	0	1171259392	46	6168
2026-01-06 00:38:23.44	336.07	22.23	-37.0	-37.9	23.7	0.00e+00	0	34	0	1173356544	46	6338
2026-01-06 00:38:24.45	336.09	22.09	-37.1	-38.0	23.6	0.00e+00	0	34	0	1175453696	46	6452
2026-01-06 00:38:25.46	336.12	21.95	-36.8	-37.6	23.9	0.00e+00	0	34	0	1176502272	46	6173
2026-01-06 00:38:26.47	336.15	21.81	-36.6	-37.5	23.9	0.00e+00	0	34	0	1178599424	46	6058
2026-01-06 00:38:27.48	336.17	21.67	-36.5	-37.4	24.0	0.00e+00	0	34	0	1180696576	46	5971
2026-01-06 00:38:28.49	336.20	21.53	-36.6	-37.4	24.0	0.00e+00	0	34	0	1182793728	46	6028
2026-01-06 00:38:29.50	336.22	21.39	-36.3	-37.1	24.2	0.00e+00	0	34	0	1184890880	46	5814
2026-01-06 00:38:30.51	336.25	21.25	-36.0	-36.8	24.4	0.00e+00	0	34	0	1185939456	46	5616
2026-01-06 00:38:31.51	336.27	21.12	-35.9	-36.7	24.6	0.00e+00	0	34	0	1188036608	46	5527
2026-01-06 00:38:32.52	336.30	20.98	-35.6	-36.4	24.8	0.00e+00	0	34	0	1190133760	44	5983
2026-01-06 00:38:33.53	336.32	20.84	-35.7	-36.5	24.7	0.00e+00	0	34	0	1192230912	44	6058
2026-01-06 00:38:34.54	336.35	20.71	-35.8	-36.6	24.6	0.00e+00	0	34	0	1194328064	44	6144
2026-01-06 00:38:35.55	336.37	20.57	-35.5	-36.2	24.8	0.00e+00	0	34	0	1195376640	44	5888
2026-01-06 00:38:36.56	336.40	20.44	-35.8	-36.6	24.5	0.00e+00	0	34	0	1197473792	44	6108
2026-01-06 00:38:37.57	336.42	20.31	-35.9	-36.7	24.5	0.00e+00	0	34	0	1199570944	44	6199
2026-01-06 00:38:38.58	336.44	20.17	-36.0	-36.8	24.4	0.00e+00	0	34	0	1201668096	44	6296
2026-01-06 00:38:39.59	336.47	20.04	-35.8	-36.6	24.6	0.00e+00	0	34	0	1203765248	44	6129
2026-01-06 00:38:40.60	336.49	19.91	-35.8	-36.6	24.5	0.00e+00	0	34	0	1204813824	44	6153
