passes_logs/2026/01/06/R4.6S_Anadyr/R4.6S_Anadyr__20260106_202035_FENGYUN_3E_rec.log

#Pass ID: 20260106_202035_FENGYUN 3E
#Satellite: FENGYUN 3E
#Configuration: FENGYUN 3E
#almurnet v.1.7.20251203
#Start time: 2026-01-06 20:20:37

#Version: 2.2.20231116
#Station: R4.6S_Anadyr
#Location: 177.4865 lon 64.73178 lat
#TLE: 1 49008U 21062A   26005.56299987  .00000339  00000+0  18069-3 0  9991
#TLE: 2 49008  98.7472  10.8019 0001562 158.0357 202.0886 14.19884907233502

#Time	Az	El	Level	Level2	SNR	BER	BlckErr	Temp	State	Recorded	gain1	gain2
2026-01-06 20:20:37.70	24.41	0.10	-48.5	-63.4	3.5	1.51e+00	0	31	0	0	60	53693
2026-01-06 20:20:38.71	24.38	0.16	-48.4	-59.6	3.6	8.45e-01	0	32	104	0	60	34717
2026-01-06 20:20:39.72	24.35	0.22	-48.5	-59.7	3.6	8.45e-01	0	32	104	0	60	34857
2026-01-06 20:20:40.73	24.32	0.28	-48.5	-59.7	3.6	8.45e-01	0	32	104	0	60	35007
2026-01-06 20:20:41.74	24.29	0.34	-48.5	-59.7	3.6	8.45e-01	0	32	104	0	60	34910
2026-01-06 20:20:42.75	24.25	0.40	-48.4	-59.7	3.6	8.45e-01	0	32	104	0	60	35023
2026-01-06 20:20:43.76	24.22	0.45	-48.6	-59.7	3.6	8.45e-01	0	32	104	0	60	35005
2026-01-06 20:20:44.77	24.19	0.51	-48.2	-59.8	3.6	8.46e-01	0	32	104	0	60	35165
2026-01-06 20:20:45.78	24.16	0.57	-48.2	-59.7	3.6	8.46e-01	0	32	104	0	60	35003
2026-01-06 20:20:46.79	24.12	0.63	-48.3	-59.7	3.6	8.46e-01	0	32	104	0	60	34834
2026-01-06 20:20:47.80	24.09	0.69	-48.3	-59.5	3.6	8.45e-01	0	32	104	0	60	34209
2026-01-06 20:20:48.81	24.06	0.75	-48.3	-59.4	3.6	8.46e-01	0	32	104	0	60	33775
2026-01-06 20:20:49.82	24.03	0.81	-48.1	-59.3	3.6	8.45e-01	0	32	104	0	60	33313
2026-01-06 20:20:50.83	23.99	0.87	-47.6	-59.1	3.6	8.45e-01	0	32	104	0	60	32696
2026-01-06 20:20:51.84	23.96	0.93	-47.7	-58.9	3.6	8.46e-01	0	32	104	0	60	31891
2026-01-06 20:20:52.85	23.93	0.99	-47.5	-58.6	3.6	8.45e-01	0	32	104	0	60	30798
2026-01-06 20:20:53.86	23.89	1.05	-47.1	-58.1	3.6	8.46e-01	0	32	104	0	60	29130
2026-01-06 20:20:54.87	23.86	1.11	-47.0	-58.2	3.6	8.45e-01	0	32	104	0	60	29509
2026-01-06 20:20:55.88	23.82	1.17	-47.0	-58.2	3.6	8.45e-01	0	32	104	0	60	29462
2026-01-06 20:20:56.89	23.79	1.23	-47.0	-58.2	3.6	8.45e-01	0	32	104	0	60	29480
2026-01-06 20:20:57.90	23.76	1.29	-47.0	-58.2	3.6	8.45e-01	0	32	104	0	60	29468
2026-01-06 20:20:58.91	23.72	1.36	-47.0	-58.1	3.6	8.45e-01	0	32	104	0	60	29191
2026-01-06 20:20:59.92	23.69	1.42	-47.0	-58.1	3.6	8.45e-01	0	32	104	0	60	29017
2026-01-06 20:21:00.93	23.65	1.48	-47.0	-58.1	3.6	8.45e-01	0	32	104	0	60	28963
2026-01-06 20:21:01.94	23.62	1.54	-47.0	-58.1	3.6	8.44e-01	0	32	104	0	60	29187
2026-01-06 20:21:02.95	23.58	1.60	-47.0	-58.2	3.6	8.44e-01	0	32	104	0	60	29425
2026-01-06 20:21:03.96	23.55	1.66	-47.0	-58.2	3.6	8.45e-01	0	33	104	0	60	29426
2026-01-06 20:21:04.97	23.51	1.72	-47.0	-58.2	3.6	8.45e-01	0	32	104	0	60	29538
2026-01-06 20:21:05.98	23.48	1.78	-47.0	-58.2	3.6	8.45e-01	0	33	104	0	60	29278
2026-01-06 20:21:06.99	23.44	1.85	-47.0	-58.0	3.6	8.45e-01	0	33	104	0	60	28666
2026-01-06 20:21:08.00	23.40	1.91	-47.0	-57.8	3.6	8.46e-01	0	33	104	0	60	28160
2026-01-06 20:21:09.01	23.37	1.97	-47.0	-57.7	3.6	8.44e-01	0	33	104	0	60	27598
2026-01-06 20:21:10.02	23.33	2.03	-47.0	-57.6	3.6	8.45e-01	0	33	104	0	60	27434
2026-01-06 20:21:11.03	23.30	2.09	-47.0	-57.6	3.6	8.45e-01	0	33	104	0	60	27494
2026-01-06 20:21:12.04	23.26	2.16	-47.0	-57.8	3.6	8.46e-01	0	33	104	0	60	28143
2026-01-06 20:21:13.05	23.22	2.22	-47.0	-58.1	3.6	8.45e-01	0	33	104	0	60	28981
2026-01-06 20:21:14.06	23.18	2.28	-47.0	-58.2	3.6	8.45e-01	0	33	104	0	60	29288
2026-01-06 20:21:15.07	23.15	2.34	-47.0	-58.2	3.6	8.45e-01	0	33	104	0	60	29456
2026-01-06 20:21:16.08	23.11	2.41	-47.0	-58.1	3.6	8.46e-01	0	33	104	0	60	29068
2026-01-06 20:21:17.08	23.07	2.47	-47.0	-58.1	3.6	8.45e-01	0	33	104	0	60	29158
2026-01-06 20:21:18.10	23.04	2.53	-47.0	-58.0	3.6	8.45e-01	0	33	104	0	60	28798
2026-01-06 20:21:19.10	23.00	2.60	-47.0	-58.0	3.6	8.45e-01	0	33	104	0	60	28652
2026-01-06 20:21:20.12	22.96	2.66	-47.0	-57.9	3.6	8.45e-01	0	33	104	0	60	28298
2026-01-06 20:21:21.12	22.92	2.72	-47.0	-57.8	3.6	8.45e-01	0	33	104	0	60	27910
2026-01-06 20:21:22.14	22.88	2.79	-46.9	-57.3	3.6	8.45e-01	0	33	104	0	60	26599
2026-01-06 20:21:23.14	22.84	2.85	-46.9	-57.2	3.6	8.44e-01	0	33	104	0	60	26083
2026-01-06 20:21:24.16	22.81	2.92	-46.9	-57.2	3.6	8.45e-01	0	33	104	0	60	26254
2026-01-06 20:21:25.17	22.77	2.98	-47.0	-57.5	3.6	8.45e-01	0	33	104	0	60	27026
2026-01-06 20:21:26.18	22.73	3.04	-47.0	-58.0	3.6	8.45e-01	0	33	104	0	60	28652
2026-01-06 20:21:27.19	22.69	3.11	-47.0	-58.2	3.6	8.46e-01	0	33	104	0	60	29262
2026-01-06 20:21:28.20	22.65	3.17	-46.9	-57.1	3.6	8.45e-01	0	33	104	0	60	25797
2026-01-06 20:21:29.21	22.61	3.24	-46.6	-54.6	4.1	8.42e-01	0	33	104	0	60	19389
2026-01-06 20:21:30.22	22.57	3.30	-45.9	-50.6	5.6	7.41e-01	0	33	0	0	60	12258
2026-01-06 20:21:31.23	22.53	3.37	-45.2	-48.9	7.4	1.50e-01	0	33	0	6291456	60	10084
2026-01-06 20:21:32.24	22.49	3.43	-44.7	-47.8	8.7	5.76e-02	0	33	0	13631488	60	8822
2026-01-06 20:21:33.25	22.45	3.50	-44.1	-46.8	9.9	1.64e-02	0	33	0	20971520	60	7865
2026-01-06 20:21:34.26	22.41	3.56	-43.9	-46.5	10.3	6.42e-03	0	33	0	28311552	60	7617
2026-01-06 20:21:35.27	22.37	3.63	-44.4	-47.4	8.6	5.91e-03	0	33	0	35651584	60	8497
2026-01-06 20:21:36.27	22.33	3.69	-46.2	-52.5	6.8	8.44e-01	0	33	104	37748736	60	15282
2026-01-06 20:21:37.28	22.28	3.76	-35.7	-36.4	20.4	0.00e+00	0	33	0	39845888	44	5982
2026-01-06 20:21:38.29	22.24	3.82	-46.7	-55.6	3.6	8.44e-01	0	33	104	41943040	60	21846
2026-01-06 20:21:39.30	22.20	3.89	-43.4	-45.8	13.0	2.99e-01	0	33	104	41943040	60	7029
2026-01-06 20:21:40.31	22.16	3.96	-40.2	-41.5	15.7	0.00e+00	0	33	0	47185920	54	6048
2026-01-06 20:21:41.32	22.12	4.02	-37.3	-38.1	19.1	0.00e+00	0	33	0	54525952	48	5800
2026-01-06 20:21:42.33	22.07	4.09	-36.8	-37.6	19.7	0.00e+00	0	33	0	61865984	46	6106
2026-01-06 20:21:43.34	22.03	4.16	-35.5	-36.2	20.9	0.00e+00	0	33	0	69206016	46	5221
2026-01-06 20:21:44.35	21.99	4.22	-35.1	-35.8	21.2	0.00e+00	0	33	0	75497472	44	5572
2026-01-06 20:21:45.36	21.95	4.29	-35.0	-35.7	21.6	0.00e+00	0	33	0	82837504	44	5511
2026-01-06 20:21:46.37	21.90	4.36	-35.0	-35.6	21.5	0.00e+00	0	33	0	91226112	44	5476
2026-01-06 20:21:47.38	21.86	4.42	-34.8	-35.4	21.9	0.00e+00	0	33	0	97517568	44	5331
2026-01-06 20:21:48.39	21.82	4.49	-34.8	-35.5	21.8	0.00e+00	0	33	0	104857600	42	6039
2026-01-06 20:21:49.40	21.77	4.56	-35.2	-35.8	21.4	0.00e+00	0	33	0	112197632	42	6300
2026-01-06 20:21:50.41	21.73	4.63	-35.3	-35.9	21.8	0.00e+00	0	33	0	119537664	42	6364
2026-01-06 20:21:51.42	21.68	4.69	-35.1	-35.7	21.5	0.00e+00	0	33	0	126877696	42	6217
2026-01-06 20:21:52.43	21.64	4.76	-35.2	-35.8	21.5	0.00e+00	0	33	0	134217728	42	6315
2026-01-06 20:21:53.44	21.60	4.83	-34.8	-35.4	22.0	0.00e+00	0	33	0	141557760	42	6003
2026-01-06 20:21:54.45	21.55	4.90	-34.8	-35.4	21.9	0.00e+00	0	33	0	148897792	42	5986
2026-01-06 20:21:55.46	21.50	4.97	-34.5	-35.1	22.2	0.00e+00	0	33	0	156237824	42	5805
2026-01-06 20:21:56.47	21.46	5.04	-34.2	-34.7	22.6	0.00e+00	0	33	0	163577856	42	5566
2026-01-06 20:21:57.48	21.41	5.10	-34.2	-34.8	22.5	0.00e+00	0	33	0	170917888	42	5582
2026-01-06 20:21:58.49	21.37	5.17	-34.0	-34.6	22.6	0.00e+00	0	33	0	178257920	42	5451
2026-01-06 20:21:59.50	21.32	5.24	-34.1	-34.7	22.8	0.00e+00	0	33	0	185597952	42	5516
2026-01-06 20:22:00.51	21.28	5.31	-34.0	-34.6	22.7	0.00e+00	0	33	0	192937984	42	5484
2026-01-06 20:22:01.52	21.23	5.38	-33.8	-34.4	23.0	0.00e+00	0	33	0	200278016	42	5329
2026-01-06 20:22:02.53	21.18	5.45	-33.8	-34.4	22.9	0.00e+00	0	33	0	207618048	40	6001
2026-01-06 20:22:03.54	21.13	5.52	-33.9	-34.5	22.9	0.00e+00	0	33	0	214958080	40	6040
2026-01-06 20:22:04.55	21.09	5.59	-34.0	-34.6	22.9	0.00e+00	0	33	0	221249536	40	6141
2026-01-06 20:22:05.56	21.04	5.66	-33.9	-34.5	22.8	0.00e+00	0	33	0	228589568	40	6076
2026-01-06 20:22:06.57	20.99	5.73	-33.8	-34.4	23.0	0.00e+00	0	33	0	236978176	40	5972
2026-01-06 20:22:07.58	20.94	5.80	-34.1	-34.7	22.7	0.00e+00	0	33	0	243269632	40	6218
2026-01-06 20:22:08.59	20.90	5.87	-34.4	-35.0	22.4	0.00e+00	0	33	0	250609664	40	6452
2026-01-06 20:22:09.60	20.85	5.94	-33.9	-34.5	22.9	0.00e+00	0	33	0	257949696	40	6074
2026-01-06 20:22:10.61	20.80	6.01	-34.1	-34.7	22.6	0.00e+00	0	33	0	265289728	40	6222
2026-01-06 20:22:11.62	20.75	6.08	-34.1	-34.7	22.8	0.00e+00	0	33	0	272629760	40	6206
2026-01-06 20:22:12.63	20.70	6.15	-34.0	-34.6	22.9	0.00e+00	0	33	0	279969792	40	6104
2026-01-06 20:22:13.64	20.65	6.23	-33.7	-34.2	23.2	0.00e+00	0	33	0	287309824	40	5877
2026-01-06 20:22:14.65	20.60	6.30	-33.7	-34.3	23.1	0.00e+00	0	33	0	294649856	40	5910
2026-01-06 20:22:15.66	20.55	6.37	-33.7	-34.3	23.2	0.00e+00	0	33	0	301989888	40	5925
2026-01-06 20:22:16.67	20.50	6.44	-33.7	-34.3	23.2	0.00e+00	0	33	0	309329920	40	5907
2026-01-06 20:22:17.68	20.45	6.51	-33.6	-34.1	23.4	0.00e+00	0	33	0	316669952	40	5816
2026-01-06 20:22:18.69	20.40	6.59	-33.7	-34.2	23.2	0.00e+00	0	33	0	324009984	40	5890
2026-01-06 20:22:19.70	20.35	6.66	-33.4	-34.0	23.4	0.00e+00	0	33	0	331350016	40	5701
2026-01-06 20:22:20.70	20.30	6.73	-33.6	-34.1	23.3	0.00e+00	0	33	0	338690048	40	5817
2026-01-06 20:22:21.71	20.24	6.80	-33.6	-34.2	23.3	0.00e+00	0	33	0	346030080	40	5878
2026-01-06 20:22:22.72	20.19	6.88	-33.6	-34.1	23.3	0.00e+00	0	33	0	353370112	40	5825
2026-01-06 20:22:23.73	20.14	6.95	-33.7	-34.2	23.2	0.00e+00	0	33	0	360710144	40	5887
2026-01-06 20:22:24.74	20.09	7.02	-33.5	-34.1	23.5	0.00e+00	0	33	0	368050176	40	5777
2026-01-06 20:22:25.75	20.03	7.10	-33.4	-34.0	23.5	0.00e+00	0	33	0	374341632	40	5731
2026-01-06 20:22:26.76	19.98	7.17	-33.5	-34.0	23.5	0.00e+00	0	33	0	381681664	40	5759
2026-01-06 20:22:27.77	19.93	7.24	-33.5	-34.1	23.4	0.00e+00	0	33	0	390070272	40	5782
2026-01-06 20:22:28.78	19.87	7.32	-33.5	-34.1	23.5	0.00e+00	0	33	0	396361728	40	5785
2026-01-06 20:22:29.79	19.82	7.39	-33.4	-34.0	23.5	0.00e+00	0	33	0	403701760	40	5717
2026-01-06 20:22:30.80	19.76	7.47	-33.4	-34.0	23.6	0.00e+00	0	33	0	411041792	40	5727
2026-01-06 20:22:31.81	19.71	7.54	-33.6	-34.1	23.4	0.00e+00	0	33	0	418381824	40	5817
2026-01-06 20:22:32.82	19.65	7.62	-33.2	-33.7	23.8	0.00e+00	0	33	0	425721856	40	5554
2026-01-06 20:22:33.83	19.60	7.69	-33.2	-33.7	23.8	0.00e+00	0	33	0	433061888	40	5548
2026-01-06 20:22:34.84	19.54	7.77	-33.1	-33.7	23.9	0.00e+00	0	33	0	440401920	40	5512
2026-01-06 20:22:35.85	19.49	7.84	-33.1	-33.6	23.8	0.00e+00	0	33	0	447741952	40	5479
2026-01-06 20:22:36.86	19.43	7.92	-33.2	-33.7	23.9	0.00e+00	0	33	0	455081984	40	5541
2026-01-06 20:22:37.87	19.37	7.99	-33.2	-33.7	23.8	0.00e+00	0	33	0	462422016	40	5553
2026-01-06 20:22:38.88	19.32	8.07	-33.1	-33.7	23.9	0.00e+00	0	33	0	469762048	40	5515
2026-01-06 20:22:39.89	19.26	8.15	-33.0	-33.6	23.9	0.00e+00	0	33	0	477102080	40	5464
2026-01-06 20:22:40.90	19.20	8.22	-33.1	-33.6	23.9	0.00e+00	0	33	0	484442112	40	5500
2026-01-06 20:22:41.91	19.15	8.30	-33.1	-33.7	23.9	0.00e+00	0	33	0	491782144	40	5506
2026-01-06 20:22:42.92	19.09	8.38	-33.2	-33.8	23.8	0.00e+00	0	33	0	499122176	40	5579
2026-01-06 20:22:43.93	19.03	8.45	-33.2	-33.7	23.9	0.00e+00	0	33	0	506462208	40	5542
2026-01-06 20:22:44.94	18.97	8.53	-32.8	-33.4	24.2	0.00e+00	0	33	0	513802240	40	5336
2026-01-06 20:22:45.95	18.91	8.61	-33.0	-33.5	24.1	0.00e+00	0	33	0	520093696	40	5437
2026-01-06 20:22:46.96	18.85	8.69	-33.1	-33.7	24.0	0.00e+00	0	33	0	527433728	40	5523
2026-01-06 20:22:47.97	18.79	8.76	-32.8	-33.4	24.2	0.00e+00	0	33	0	535822336	40	5343
2026-01-06 20:22:48.98	18.73	8.84	-32.9	-33.4	24.1	0.00e+00	0	33	0	542113792	40	5371
2026-01-06 20:22:49.99	18.67	8.92	-33.0	-33.5	24.1	0.00e+00	0	33	0	549453824	40	5420
2026-01-06 20:22:51.00	18.61	9.00	-32.8	-33.4	24.3	0.00e+00	0	33	0	556793856	40	5333
2026-01-06 20:22:52.01	18.55	9.08	-33.0	-33.6	24.2	0.00e+00	0	33	0	564133888	38	6111
2026-01-06 20:22:53.02	18.49	9.16	-32.8	-33.3	24.3	0.00e+00	0	33	0	571473920	38	5932
2026-01-06 20:22:54.03	18.42	9.24	-32.9	-33.4	24.2	0.00e+00	0	33	0	578813952	38	6021
2026-01-06 20:22:55.04	18.36	9.31	-32.6	-33.1	24.5	0.00e+00	0	33	0	586153984	38	5820
2026-01-06 20:22:56.05	18.30	9.39	-32.7	-33.2	24.4	0.00e+00	0	33	0	593494016	38	5876
2026-01-06 20:22:57.06	18.24	9.47	-32.6	-33.2	24.5	0.00e+00	0	33	0	600834048	38	5830
2026-01-06 20:22:58.07	18.17	9.55	-32.6	-33.1	24.5	0.00e+00	0	33	0	608174080	38	5809
2026-01-06 20:22:59.08	18.11	9.63	-32.6	-33.2	24.5	0.00e+00	0	33	0	615514112	38	5853
2026-01-06 20:23:00.09	18.05	9.71	-32.6	-33.1	24.5	0.00e+00	0	33	0	622854144	38	5817
2026-01-06 20:23:01.10	17.98	9.80	-32.5	-33.1	24.6	0.00e+00	0	33	0	630194176	38	5765
2026-01-06 20:23:02.11	17.92	9.88	-32.7	-33.2	24.6	0.00e+00	0	33	0	637534208	38	5885
2026-01-06 20:23:03.12	17.85	9.96	-32.5	-33.1	24.6	0.00e+00	0	33	0	644874240	38	5767
2026-01-06 20:23:04.13	17.79	10.04	-32.8	-33.3	24.4	0.00e+00	0	33	0	652214272	38	5953
2026-01-06 20:23:05.14	17.72	10.12	-32.6	-33.1	24.6	0.00e+00	0	33	0	659554304	38	5788
2026-01-06 20:23:06.15	17.65	10.20	-32.6	-33.1	24.6	0.00e+00	0	33	0	666894336	38	5812
2026-01-06 20:23:07.16	17.59	10.28	-32.4	-32.9	24.8	0.00e+00	0	33	0	673185792	38	5670
2026-01-06 20:23:08.17	17.52	10.37	-32.5	-33.1	24.7	0.00e+00	0	33	0	681574400	38	5767
2026-01-06 20:23:09.18	17.45	10.45	-32.4	-32.9	24.7	0.00e+00	0	33	0	688914432	38	5675
2026-01-06 20:23:10.19	17.38	10.53	-32.4	-32.9	24.8	0.00e+00	0	33	0	695205888	38	5671
2026-01-06 20:23:11.20	17.31	10.62	-32.3	-32.8	24.8	0.00e+00	0	33	0	702545920	38	5629
2026-01-06 20:23:12.21	17.25	10.70	-32.4	-32.9	24.8	0.00e+00	0	33	0	709885952	38	5687
2026-01-06 20:23:13.22	17.18	10.78	-32.3	-32.8	24.9	0.00e+00	0	33	0	717225984	38	5607
2026-01-06 20:23:14.23	17.11	10.87	-32.3	-32.8	24.9	0.00e+00	0	33	0	724566016	38	5619
2026-01-06 20:23:15.24	17.04	10.95	-32.3	-32.8	24.8	0.00e+00	0	33	0	731906048	38	5607
2026-01-06 20:23:16.24	16.97	11.03	-32.1	-32.7	25.0	0.00e+00	0	33	0	739246080	38	5508
2026-01-06 20:23:17.25	16.90	11.12	-32.0	-32.5	25.1	0.00e+00	0	33	0	746586112	38	5429
2026-01-06 20:23:18.26	16.82	11.20	-32.0	-32.5	25.2	0.00e+00	0	33	0	753926144	38	5413
2026-01-06 20:23:19.27	16.75	11.29	-32.1	-32.6	25.1	0.00e+00	0	33	0	761266176	38	5467
2026-01-06 20:23:20.28	16.68	11.37	-32.0	-32.5	25.2	0.00e+00	0	33	0	768606208	38	5399
2026-01-06 20:23:21.29	16.61	11.46	-31.9	-32.4	25.3	0.00e+00	0	34	0	775946240	38	5339
2026-01-06 20:23:22.30	16.53	11.54	-31.6	-32.1	25.5	0.00e+00	0	33	0	783286272	38	5191
2026-01-06 20:23:23.31	16.46	11.63	-31.8	-32.3	25.4	0.00e+00	0	33	0	790626304	36	5943
2026-01-06 20:23:24.32	16.39	11.72	-31.7	-32.2	25.5	0.00e+00	0	33	0	797966336	36	5845
2026-01-06 20:23:25.33	16.31	11.80	-31.8	-32.3	25.3	0.00e+00	0	34	0	805306368	36	5955
2026-01-06 20:23:26.34	16.24	11.89	-31.8	-32.3	25.4	0.00e+00	0	33	0	812646400	36	5922
2026-01-06 20:23:27.35	16.16	11.98	-31.7	-32.2	25.4	0.00e+00	0	33	0	818937856	36	5880
2026-01-06 20:23:28.36	16.09	12.06	-31.8	-32.3	25.4	0.00e+00	0	33	0	826277888	36	5918
2026-01-06 20:23:29.37	16.01	12.15	-31.7	-32.2	25.5	0.00e+00	0	33	0	834666496	36	5841
2026-01-06 20:23:30.38	15.93	12.24	-31.6	-32.1	25.5	0.00e+00	0	33	0	840957952	36	5806
2026-01-06 20:23:31.39	15.85	12.33	-31.6	-32.1	25.5	0.00e+00	0	33	0	848297984	36	5793
2026-01-06 20:23:32.40	15.78	12.42	-31.5	-32.0	25.6	0.00e+00	0	34	0	855638016	36	5750
2026-01-06 20:23:33.41	15.70	12.50	-31.5	-32.1	25.6	0.00e+00	0	33	0	862978048	36	5763
2026-01-06 20:23:34.41	15.62	12.59	-31.7	-32.2	25.4	0.00e+00	0	34	0	870318080	36	5892
2026-01-06 20:23:35.42	15.54	12.68	-31.5	-32.0	25.7	0.00e+00	0	33	0	877658112	36	5742
2026-01-06 20:23:36.43	15.46	12.77	-31.5	-32.0	25.6	0.00e+00	0	33	0	884998144	36	5759
2026-01-06 20:23:37.44	15.38	12.86	-31.5	-32.0	25.7	0.00e+00	0	33	0	892338176	36	5709
2026-01-06 20:23:38.45	15.30	12.95	-31.2	-31.7	25.6	0.00e+00	0	33	0	899678208	36	5508
2026-01-06 20:23:39.46	15.22	13.04	-31.5	-32.0	25.7	0.00e+00	0	33	0	907018240	36	5716
2026-01-06 20:23:40.47	15.14	13.13	-31.5	-32.0	25.6	0.00e+00	0	34	0	914358272	36	5741
2026-01-06 20:23:41.48	15.05	13.22	-31.4	-31.9	25.7	0.00e+00	0	33	0	921698304	36	5695
2026-01-06 20:23:42.49	14.97	13.31	-31.4	-31.9	25.8	0.00e+00	0	33	0	929038336	36	5679
2026-01-06 20:23:43.50	14.89	13.40	-31.2	-31.7	25.9	0.00e+00	0	33	0	936378368	36	5509
2026-01-06 20:23:44.51	14.80	13.50	-31.4	-31.9	25.7	0.00e+00	0	33	0	943718400	36	5682
2026-01-06 20:23:45.52	14.72	13.59	-31.4	-31.9	25.8	0.00e+00	0	33	0	951058432	36	5651
2026-01-06 20:23:46.53	14.63	13.68	-31.3	-31.8	25.9	0.00e+00	0	33	0	958398464	36	5568
2026-01-06 20:23:47.54	14.55	13.77	-31.2	-31.7	25.9	0.00e+00	0	33	0	965738496	36	5560
2026-01-06 20:23:48.55	14.46	13.87	-31.3	-31.8	25.8	0.00e+00	0	33	0	972029952	36	5581
2026-01-06 20:23:49.56	14.37	13.96	-31.2	-31.7	25.9	0.00e+00	0	33	0	979369984	36	5527
2026-01-06 20:23:50.57	14.29	14.05	-31.2	-31.7	26.0	0.00e+00	0	33	0	987758592	36	5560
2026-01-06 20:23:51.58	14.20	14.15	-31.1	-31.6	26.0	0.00e+00	0	33	0	994050048	36	5479
2026-01-06 20:23:52.59	14.11	14.24	-31.1	-31.6	26.1	0.00e+00	0	33	0	1001390080	36	5466
2026-01-06 20:23:53.60	14.02	14.33	-31.2	-31.7	25.9	0.00e+00	0	33	0	1008730112	36	5554
2026-01-06 20:23:54.60	13.93	14.43	-31.2	-31.7	26.0	0.00e+00	0	33	0	1016070144	36	5561
2026-01-06 20:23:55.61	13.84	14.52	-31.0	-31.5	26.1	0.00e+00	0	33	0	1023410176	36	5411
2026-01-06 20:23:56.62	13.75	14.62	-31.1	-31.6	26.2	0.00e+00	0	33	0	1030750208	36	5456
2026-01-06 20:23:57.63	13.66	14.71	-30.9	-31.4	26.2	0.00e+00	0	33	0	1038090240	36	5365
2026-01-06 20:23:58.64	13.57	14.81	-31.1	-31.6	26.1	0.00e+00	0	34	0	1045430272	36	5485
2026-01-06 20:23:59.65	13.47	14.90	-31.2	-31.6	26.2	0.00e+00	0	33	0	1052770304	34	6164
2026-01-06 20:24:00.66	13.38	15.00	-31.1	-31.6	26.1	0.00e+00	0	33	0	1060110336	34	6123
2026-01-06 20:24:01.67	13.29	15.10	-30.9	-31.4	26.2	0.00e+00	0	33	0	1067450368	34	5999
2026-01-06 20:24:02.68	13.19	15.19	-30.9	-31.4	26.3	0.00e+00	0	34	0	1074790400	34	5969
2026-01-06 20:24:03.69	13.10	15.29	-30.9	-31.4	26.2	0.00e+00	0	33	0	1082130432	34	5997
2026-01-06 20:24:04.70	13.00	15.39	-31.1	-31.6	26.1	0.00e+00	0	33	0	1089470464	34	6132
2026-01-06 20:24:05.70	12.90	15.49	-31.1	-31.6	26.1	0.00e+00	0	34	0	1096810496	34	6148
2026-01-06 20:24:06.71	12.81	15.58	-31.0	-31.5	26.1	0.00e+00	0	34	0	1103101952	34	6094
2026-01-06 20:24:07.72	12.71	15.68	-31.3	-31.8	26.0	0.00e+00	0	34	0	1111490560	34	6317
2026-01-06 20:24:08.74	12.61	15.78	-31.0	-31.5	26.1	0.00e+00	0	33	0	1118830592	34	6068
2026-01-06 20:24:09.75	12.51	15.88	-30.8	-31.3	26.4	0.00e+00	0	34	0	1125122048	34	5942
2026-01-06 20:24:10.76	12.41	15.98	-31.0	-31.5	26.1	0.00e+00	0	34	0	1132462080	34	6086
2026-01-06 20:24:11.77	12.31	16.08	-31.0	-31.5	26.2	0.00e+00	0	34	0	1140850688	34	6056
2026-01-06 20:24:12.77	12.21	16.18	-30.9	-31.4	26.2	0.00e+00	0	34	0	1147142144	34	6018
2026-01-06 20:24:13.78	12.11	16.28	-31.0	-31.5	26.2	0.00e+00	0	33	0	1154482176	34	6044
2026-01-06 20:24:14.80	12.00	16.38	-30.7	-31.2	26.4	0.00e+00	0	33	0	1161822208	34	5886
2026-01-06 20:24:15.80	11.90	16.48	-30.8	-31.3	26.3	0.00e+00	0	33	0	1169162240	34	5960
2026-01-06 20:24:16.82	11.80	16.58	-30.8	-31.3	26.4	0.00e+00	0	34	0	1176502272	34	5938
2026-01-06 20:24:17.82	11.69	16.68	-30.8	-31.3	26.3	0.00e+00	0	34	0	1183842304	34	5950
2026-01-06 20:24:18.83	11.59	16.79	-30.8	-31.3	26.4	0.00e+00	0	33	0	1191182336	34	5908
2026-01-06 20:24:19.84	11.48	16.89	-30.7	-31.2	26.5	0.00e+00	0	34	0	1198522368	34	5855
2026-01-06 20:24:20.85	11.37	16.99	-30.7	-31.2	26.5	0.00e+00	0	34	0	1205862400	34	5848
2026-01-06 20:24:21.86	11.26	17.09	-30.6	-31.1	26.5	0.00e+00	0	33	0	1213202432	34	5817
2026-01-06 20:24:22.87	11.16	17.20	-30.6	-31.1	26.6	0.00e+00	0	34	0	1220542464	34	5767
2026-01-06 20:24:23.88	11.05	17.30	-30.6	-31.1	26.5	0.00e+00	0	33	0	1227882496	34	5812
2026-01-06 20:24:24.89	10.94	17.40	-30.7	-31.2	26.5	0.00e+00	0	33	0	1235222528	34	5863
2026-01-06 20:24:25.90	10.82	17.51	-30.6	-31.1	26.4	0.00e+00	0	34	0	1242562560	34	5806
2026-01-06 20:24:26.91	10.71	17.61	-30.4	-30.9	26.6	0.00e+00	0	33	0	1248854016	34	5692
2026-01-06 20:24:27.92	10.60	17.72	-30.5	-31.0	26.6	0.00e+00	0	34	0	1257242624	34	5715
2026-01-06 20:24:28.93	10.49	17.82	-30.5	-31.0	26.6	0.00e+00	0	33	0	1264582656	34	5728
2026-01-06 20:24:29.94	10.37	17.93	-30.6	-31.1	26.6	0.00e+00	0	34	0	1270874112	34	5772
2026-01-06 20:24:30.95	10.26	18.03	-30.4	-30.9	26.8	0.00e+00	0	33	0	1278214144	34	5674
2026-01-06 20:24:31.96	10.14	18.14	-30.5	-31.0	26.6	0.00e+00	0	33	0	1285554176	34	5756
2026-01-06 20:24:32.97	10.02	18.25	-30.4	-30.9	26.7	0.00e+00	0	34	0	1292894208	34	5674
2026-01-06 20:24:33.98	9.91	18.35	-30.4	-30.9	26.7	0.00e+00	0	33	0	1300234240	34	5663
2026-01-06 20:24:34.99	9.79	18.46	-30.5	-31.0	26.7	0.00e+00	0	33	0	1307574272	34	5719
2026-01-06 20:24:36.00	9.67	18.57	-30.4	-30.8	26.8	0.00e+00	0	34	0	1314914304	34	5620
2026-01-06 20:24:37.01	9.55	18.68	-30.4	-30.9	26.8	0.00e+00	0	34	0	1322254336	34	5656
2026-01-06 20:24:38.02	9.43	18.78	-30.4	-30.9	26.7	0.00e+00	0	33	0	1329594368	34	5647
2026-01-06 20:24:39.03	9.30	18.89	-30.4	-30.9	26.7	0.00e+00	0	34	0	1336934400	34	5678
2026-01-06 20:24:40.04	9.18	19.00	-30.3	-30.8	26.8	0.00e+00	0	34	0	1344274432	34	5587
2026-01-06 20:24:41.05	9.06	19.11	-30.3	-30.8	26.8	0.00e+00	0	33	0	1351614464	34	5599
2026-01-06 20:24:42.06	8.93	19.22	-30.3	-30.7	26.8	0.00e+00	0	34	0	1358954496	34	5565
2026-01-06 20:24:43.07	8.81	19.33	-30.2	-30.7	26.9	0.00e+00	0	33	0	1366294528	34	5512
2026-01-06 20:24:44.08	8.68	19.44	-30.1	-30.5	27.1	0.00e+00	0	33	0	1373634560	34	5434
2026-01-06 20:24:45.09	8.55	19.55	-30.1	-30.6	26.9	0.00e+00	0	34	0	1380974592	34	5462
2026-01-06 20:24:46.10	8.42	19.66	-29.9	-30.4	27.3	0.00e+00	0	33	0	1388314624	34	5338
2026-01-06 20:24:47.11	8.30	19.77	-29.9	-30.4	27.2	0.00e+00	0	34	0	1395654656	32	5992
2026-01-06 20:24:48.12	8.16	19.88	-29.9	-30.3	27.2	0.00e+00	0	34	0	1402994688	32	5954
2026-01-06 20:24:49.13	8.03	20.00	-29.7	-30.2	27.3	0.00e+00	0	34	0	1410334720	32	5848
2026-01-06 20:24:50.14	7.90	20.11	-29.6	-30.1	27.4	0.00e+00	0	34	0	1417674752	32	5804
2026-01-06 20:24:51.15	7.77	20.22	-29.5	-30.0	27.5	0.00e+00	0	33	0	1423966208	32	5713
2026-01-06 20:24:52.16	7.63	20.33	-29.3	-29.8	27.5	0.00e+00	0	34	0	1431306240	32	5597
2026-01-06 20:24:53.17	7.50	20.45	-29.4	-29.9	27.6	0.00e+00	0	34	0	1439694848	32	5659
2026-01-06 20:24:54.18	7.36	20.56	-29.4	-29.9	27.6	0.00e+00	0	33	0	1445986304	32	5639
2026-01-06 20:24:55.18	7.22	20.67	-29.5	-30.0	27.5	0.00e+00	0	34	0	1453326336	32	5732
2026-01-06 20:24:56.19	7.09	20.79	-29.4	-29.9	27.5	0.00e+00	0	34	0	1460666368	32	5670
2026-01-06 20:24:57.20	6.95	20.90	-29.6	-30.1	27.5	0.00e+00	0	34	0	1468006400	32	5763
2026-01-06 20:24:58.21	6.81	21.02	-29.6	-30.1	27.5	0.00e+00	0	34	0	1475346432	32	5800
2026-01-06 20:24:59.22	6.66	21.13	-29.8	-30.2	27.4	0.00e+00	0	34	0	1482686464	32	5894
2026-01-06 20:25:00.23	6.52	21.25	-29.6	-30.1	27.4	0.00e+00	0	34	0	1490026496	32	5797
2026-01-06 20:25:01.24	6.38	21.36	-29.8	-30.2	27.3	0.00e+00	0	34	0	1497366528	32	5884
2026-01-06 20:25:02.25	6.23	21.48	-29.6	-30.1	27.3	0.00e+00	0	34	0	1504706560	32	5806
2026-01-06 20:25:03.26	6.09	21.60	-29.7	-30.2	27.3	0.00e+00	0	34	0	1512046592	32	5861
2026-01-06 20:25:04.27	5.94	21.71	-29.7	-30.2	27.4	0.00e+00	0	34	0	1519386624	32	5833
2026-01-06 20:25:05.28	5.79	21.83	-29.7	-30.2	27.4	0.00e+00	0	34	0	1526726656	32	5834
2026-01-06 20:25:06.29	5.64	21.95	-29.8	-30.2	27.5	0.00e+00	0	34	0	1534066688	32	5891
2026-01-06 20:25:07.30	5.49	22.07	-29.1	-29.5	27.8	0.00e+00	0	34	0	1541406720	32	5419
2026-01-06 20:25:08.31	5.34	22.19	-29.3	-29.8	27.8	0.00e+00	0	34	0	1547698176	32	5609
2026-01-06 20:25:09.32	5.18	22.30	-29.3	-29.8	27.8	0.00e+00	0	34	0	1556086784	32	5600
2026-01-06 20:25:10.33	5.03	22.42	-29.1	-29.6	27.8	0.00e+00	0	34	0	1563426816	32	5467
2026-01-06 20:25:11.34	4.87	22.54	-29.0	-29.5	28.0	0.00e+00	0	34	0	1569718272	32	5395
2026-01-06 20:25:12.35	4.72	22.66	-29.2	-29.7	27.7	0.00e+00	0	34	0	1577058304	32	5536
2026-01-06 20:25:13.36	4.56	22.78	-28.9	-29.4	28.0	0.00e+00	0	34	0	1584398336	32	5337
2026-01-06 20:25:14.37	4.40	22.90	-29.0	-29.5	28.0	0.00e+00	0	34	0	1591738368	32	5408
2026-01-06 20:25:15.38	4.24	23.02	-28.9	-29.4	28.1	0.00e+00	0	34	0	1599078400	32	5338
2026-01-06 20:25:16.39	4.08	23.14	-29.0	-29.5	28.0	0.00e+00	0	34	0	1606418432	32	5395
2026-01-06 20:25:17.40	3.91	23.27	-29.0	-29.4	28.0	0.00e+00	0	34	0	1613758464	32	5368
2026-01-06 20:25:18.41	3.75	23.39	-29.0	-29.5	27.9	0.00e+00	0	34	0	1621098496	32	5408
2026-01-06 20:25:19.42	3.58	23.51	-29.1	-29.6	27.9	0.00e+00	0	34	0	1628438528	32	5475
2026-01-06 20:25:20.43	3.42	23.63	-29.2	-29.7	27.7	0.00e+00	0	34	0	1635778560	32	5557
2026-01-06 20:25:21.44	3.25	23.75	-29.2	-29.7	27.8	0.00e+00	0	34	0	1643118592	32	5554
2026-01-06 20:25:22.45	3.08	23.88	-29.3	-29.8	27.7	0.00e+00	0	34	0	1650458624	32	5610
2026-01-06 20:25:23.46	2.91	24.00	-29.4	-29.9	27.7	0.00e+00	0	34	0	1657798656	32	5657
2026-01-06 20:25:24.47	2.74	24.12	-29.3	-29.8	27.7	0.00e+00	0	33	0	1665138688	32	5576
2026-01-06 20:25:25.48	2.56	24.25	-29.3	-29.8	27.7	0.00e+00	0	34	0	1672478720	32	5583
2026-01-06 20:25:26.49	2.39	24.37	-29.3	-29.7	27.8	0.00e+00	0	34	0	1679818752	32	5555
2026-01-06 20:25:27.50	2.21	24.50	-29.2	-29.7	27.8	0.00e+00	0	33	0	1687158784	32	5548
2026-01-06 20:25:28.51	2.03	24.62	-29.4	-29.9	27.7	0.00e+00	0	34	0	1694498816	32	5653
2026-01-06 20:25:29.52	1.85	24.74	-29.4	-29.9	27.7	0.00e+00	0	34	0	1701838848	32	5637
2026-01-06 20:25:30.53	1.67	24.87	-29.3	-29.8	27.8	0.00e+00	0	34	0	1709178880	32	5583
2026-01-06 20:25:31.54	1.49	25.00	-29.3	-29.8	27.7	0.00e+00	0	34	0	1716518912	32	5577
2026-01-06 20:25:32.55	1.30	25.12	-29.1	-29.6	27.9	0.00e+00	0	34	0	1722810368	32	5491
2026-01-06 20:25:33.56	1.12	25.25	-29.1	-29.6	27.9	0.00e+00	0	34	0	1730150400	30	6119
2026-01-06 20:25:34.57	0.93	25.37	-29.0	-29.5	28.0	0.00e+00	0	34	0	1738539008	30	6053
2026-01-06 20:25:35.57	0.74	25.50	-29.0	-29.4	28.0	0.00e+00	0	34	0	1744830464	30	6028
2026-01-06 20:25:36.59	0.55	25.63	-29.0	-29.5	28.0	0.00e+00	0	34	0	1752170496	30	6082
2026-01-06 20:25:37.60	0.36	25.75	-29.1	-29.5	28.0	0.00e+00	0	34	0	1759510528	30	6100
2026-01-06 20:25:38.61	0.17	25.88	-29.1	-29.6	27.8	0.00e+00	0	34	0	1766850560	30	6129
2026-01-06 20:25:39.62	359.97	26.01	-29.0	-29.5	27.9	0.00e+00	0	33	0	1774190592	30	6079
2026-01-06 20:25:40.63	359.78	26.14	-29.2	-29.7	27.8	0.00e+00	0	34	0	1781530624	30	6175
2026-01-06 20:25:41.64	359.58	26.26	-29.1	-29.6	27.9	0.00e+00	0	33	0	1788870656	30	6157
2026-01-06 20:25:42.65	359.38	26.39	-29.2	-29.7	27.8	0.00e+00	0	34	0	1796210688	30	6207
2026-01-06 20:25:43.66	359.18	26.52	-29.4	-29.9	27.5	0.00e+00	0	33	0	1803550720	30	6381
2026-01-06 20:25:44.67	358.97	26.65	-29.4	-29.9	27.7	0.00e+00	0	34	0	1810890752	30	6320
2026-01-06 20:25:45.68	358.77	26.78	-29.4	-29.9	27.7	0.00e+00	0	34	0	1818230784	30	6359
2026-01-06 20:25:46.69	358.56	26.91	-29.5	-30.0	27.6	0.00e+00	0	34	0	1825570816	30	6432
2026-01-06 20:25:47.70	358.36	27.04	-29.4	-29.9	27.7	0.00e+00	0	34	0	1832910848	30	6327
2026-01-06 20:25:48.71	358.15	27.17	-29.4	-29.8	27.8	0.00e+00	0	34	0	1840250880	30	6307
2026-01-06 20:25:49.72	357.93	27.30	-29.4	-29.9	27.7	0.00e+00	0	34	0	1847590912	32	5642
2026-01-06 20:25:50.73	357.72	27.43	-29.4	-29.9	27.7	0.00e+00	0	34	0	1854930944	32	5641
2026-01-06 20:25:51.74	357.51	27.56	-29.4	-29.9	27.6	0.00e+00	0	33	0	1862270976	32	5644
2026-01-06 20:25:52.75	357.29	27.69	-29.3	-29.8	27.7	0.00e+00	0	34	0	1868562432	32	5612
2026-01-06 20:25:53.76	357.07	27.82	-29.5	-30.0	27.7	0.00e+00	0	34	0	1875902464	32	5753
2026-01-06 20:25:54.77	356.85	27.95	-29.3	-29.7	27.8	0.00e+00	0	34	0	1884291072	32	5556
2026-01-06 20:25:55.78	356.63	28.08	-29.1	-29.5	27.9	0.00e+00	0	33	0	1890582528	32	5434
2026-01-06 20:25:56.79	356.40	28.21	-29.3	-29.8	27.7	0.00e+00	0	34	0	1897922560	32	5571
2026-01-06 20:25:57.80	356.18	28.34	-29.0	-29.5	28.0	0.00e+00	0	34	0	1905262592	32	5401
2026-01-06 20:25:58.81	355.95	28.47	-29.1	-29.6	27.9	0.00e+00	0	34	0	1912602624	32	5481
2026-01-06 20:25:59.81	355.72	28.60	-29.0	-29.4	28.0	0.00e+00	0	33	0	1919942656	32	5365
2026-01-06 20:26:00.82	355.49	28.73	-29.0	-29.5	28.0	0.00e+00	0	34	0	1927282688	32	5386
2026-01-06 20:26:01.83	355.26	28.86	-28.9	-29.4	28.0	0.00e+00	0	34	0	1934622720	32	5332
2026-01-06 20:26:02.84	355.02	28.99	-28.9	-29.4	28.0	0.00e+00	0	34	0	1941962752	32	5328
2026-01-06 20:26:03.85	354.78	29.12	-28.9	-29.3	28.0	0.00e+00	0	34	0	1949302784	32	5311
2026-01-06 20:26:04.86	354.54	29.26	-28.9	-29.4	28.1	0.00e+00	0	34	0	1956642816	30	5979
2026-01-06 20:26:05.87	354.30	29.39	-28.8	-29.2	28.2	0.00e+00	0	34	0	1963982848	30	5890
2026-01-06 20:26:06.88	354.06	29.52	-28.6	-29.1	28.3	0.00e+00	0	34	0	1971322880	30	5784
2026-01-06 20:26:07.89	353.81	29.65	-28.7	-29.2	28.2	0.00e+00	0	34	0	1978662912	30	5865
2026-01-06 20:26:08.90	353.57	29.78	-28.5	-29.0	28.3	0.00e+00	0	33	0	1986002944	30	5707
2026-01-06 20:26:09.91	353.32	29.91	-28.1	-28.6	28.5	0.00e+00	0	34	0	1993342976	30	5474
2026-01-06 20:26:10.92	353.07	30.04	-28.3	-28.8	28.5	0.00e+00	0	34	0	2000683008	30	5594
2026-01-06 20:26:11.93	352.81	30.18	-28.3	-28.8	28.4	0.00e+00	0	33	0	2008023040	30	5570
2026-01-06 20:26:12.94	352.56	30.31	-28.4	-28.9	28.4	0.00e+00	0	34	0	2015363072	30	5671
2026-01-06 20:26:13.95	352.30	30.44	-28.3	-28.7	28.6	0.00e+00	0	34	0	2021654528	30	5543
2026-01-06 20:26:14.95	352.04	30.57	-28.4	-28.8	28.6	0.00e+00	0	34	0	2028994560	30	5625
2026-01-06 20:26:15.97	351.78	30.70	-28.4	-28.9	28.2	0.00e+00	0	34	0	2037383168	30	5653
2026-01-06 20:26:16.98	351.51	30.83	-28.4	-28.9	28.2	0.00e+00	0	34	0	2043674624	30	5656
2026-01-06 20:26:17.98	351.25	30.96	-28.5	-28.9	28.3	0.00e+00	0	34	0	2051014656	30	5693
2026-01-06 20:26:18.99	350.98	31.09	-28.5	-28.9	28.4	0.00e+00	0	34	0	2058354688	30	5677
2026-01-06 20:26:20.00	350.71	31.22	-28.4	-28.9	28.2	0.00e+00	0	34	0	2065694720	30	5640
2026-01-06 20:26:21.01	350.43	31.36	-28.4	-28.9	28.2	0.00e+00	0	34	0	2073034752	30	5647
2026-01-06 20:26:22.02	350.16	31.49	-28.6	-29.0	28.2	0.00e+00	0	34	0	2080374784	30	5747
2026-01-06 20:26:23.02	349.88	31.61	-28.6	-29.0	28.4	0.00e+00	0	34	0	2087714816	30	5752
2026-01-06 20:26:24.03	349.60	31.74	-28.7	-29.2	28.2	0.00e+00	0	34	0	2095054848	30	5844
2026-01-06 20:26:25.04	349.32	31.87	-28.8	-29.3	28.2	0.00e+00	0	34	0	2102394880	30	5944
2026-01-06 20:26:26.04	349.04	32.00	-28.8	-29.3	28.1	0.00e+00	0	34	0	2109734912	30	5906
2026-01-06 20:26:27.06	348.75	32.13	-28.9	-29.4	28.0	0.00e+00	0	34	0	2117074944	30	6011
2026-01-06 20:26:28.06	348.46	32.26	-29.0	-29.5	28.0	0.00e+00	0	34	0	2123366400	30	6067
2026-01-06 20:26:29.07	348.17	32.39	-29.0	-29.5	28.0	0.00e+00	0	34	0	2131755008	30	6056
2026-01-06 20:26:30.08	347.88	32.52	-29.2	-29.6	28.1	0.00e+00	0	34	0	2139095040	30	6153
2026-01-06 20:26:31.09	347.58	32.65	-29.2	-29.7	28.0	0.00e+00	0	34	0	2145386496	30	6201
2026-01-06 20:26:32.10	347.28	32.78	-29.1	-29.6	28.1	0.00e+00	0	34	0	2152726528	30	6123
2026-01-06 20:26:33.11	346.98	32.90	-29.2	-29.7	27.9	0.00e+00	0	34	0	2160066560	30	6222
2026-01-06 20:26:34.12	346.68	33.03	-29.2	-29.6	28.0	0.00e+00	0	34	0	2167406592	30	6160
2026-01-06 20:26:35.13	346.37	33.16	-29.2	-29.7	27.9	0.00e+00	0	34	0	2174746624	30	6222
2026-01-06 20:26:36.14	346.07	33.28	-29.3	-29.8	27.9	0.00e+00	0	34	0	2182086656	30	6255
2026-01-06 20:26:37.15	345.75	33.41	-29.3	-29.7	27.9	0.00e+00	0	34	0	2189426688	30	6240
2026-01-06 20:26:38.16	345.44	33.54	-29.3	-29.7	27.9	0.00e+00	0	34	0	2196766720	30	6239
2026-01-06 20:26:39.16	345.13	33.66	-29.2	-29.7	27.9	0.00e+00	0	34	0	2204106752	30	6222
2026-01-06 20:26:40.17	344.81	33.78	-29.1	-29.5	28.0	0.00e+00	0	34	0	2211446784	30	6091
2026-01-06 20:26:41.18	344.49	33.91	-28.7	-29.1	28.3	0.00e+00	0	34	0	2218786816	30	5810
2026-01-06 20:26:42.20	344.17	34.03	-28.5	-28.9	28.5	0.00e+00	0	34	0	2226126848	30	5686
2026-01-06 20:26:43.20	343.84	34.16	-28.6	-29.1	28.4	0.00e+00	0	34	0	2233466880	30	5794
2026-01-06 20:26:44.21	343.52	34.28	-28.4	-28.8	28.5	0.00e+00	0	34	0	2240806912	30	5627
2026-01-06 20:26:45.22	343.18	34.40	-28.5	-29.0	28.4	0.00e+00	0	34	0	2248146944	30	5718
2026-01-06 20:26:46.23	342.85	34.52	-28.5	-29.0	28.5	0.00e+00	0	34	0	2255486976	30	5708
2026-01-06 20:26:47.24	342.52	34.64	-28.5	-28.9	28.5	0.00e+00	0	34	0	2262827008	30	5681
2026-01-06 20:26:48.25	342.18	34.76	-28.3	-28.7	28.7	0.00e+00	0	34	0	2270167040	30	5555
2026-01-06 20:26:49.26	341.84	34.88	-28.2	-28.7	28.6	0.00e+00	0	34	0	2276458496	30	5503
2026-01-06 20:26:50.27	341.50	35.00	-28.3	-28.7	28.6	0.00e+00	0	34	0	2284847104	30	5559
2026-01-06 20:26:51.28	341.15	35.12	-28.3	-28.7	28.6	0.00e+00	0	34	0	2292187136	30	5548
2026-01-06 20:26:52.29	340.80	35.23	-28.4	-28.8	28.6	0.00e+00	0	34	0	2298478592	30	5622
2026-01-06 20:26:53.30	340.45	35.35	-28.6	-29.1	28.4	0.00e+00	0	34	0	2305818624	30	5762
2026-01-06 20:26:54.30	340.10	35.46	-28.8	-29.3	28.2	0.00e+00	0	34	0	2313158656	30	5912
2026-01-06 20:26:55.31	339.75	35.58	-29.0	-29.5	28.0	0.00e+00	0	34	0	2320498688	30	6054
2026-01-06 20:26:56.32	339.39	35.69	-29.0	-29.4	28.1	0.00e+00	0	34	0	2327838720	30	6031
2026-01-06 20:26:57.33	339.03	35.81	-29.0	-29.5	28.1	0.00e+00	0	34	0	2335178752	30	6055
2026-01-06 20:26:58.33	338.67	35.92	-29.0	-29.5	28.1	0.00e+00	0	34	0	2342518784	30	6073
2026-01-06 20:26:59.34	338.30	36.03	-28.9	-29.3	28.1	0.00e+00	0	34	0	2349858816	30	5960
2026-01-06 20:27:00.35	337.94	36.14	-28.9	-29.3	28.2	0.00e+00	0	34	0	2357198848	30	5944
2026-01-06 20:27:01.36	337.57	36.25	-29.0	-29.5	28.1	0.00e+00	0	34	0	2364538880	30	6039
2026-01-06 20:27:02.37	337.19	36.36	-29.1	-29.6	28.1	0.00e+00	0	34	0	2371878912	30	6108
2026-01-06 20:27:03.38	336.82	36.46	-29.2	-29.7	27.9	0.00e+00	0	34	0	2379218944	30	6217
2026-01-06 20:27:04.39	336.44	36.57	-29.1	-29.5	28.1	0.00e+00	0	34	0	2386558976	30	6094
2026-01-06 20:27:05.40	336.06	36.67	-29.1	-29.5	28.1	0.00e+00	0	34	0	2393899008	30	6091
2026-01-06 20:27:06.41	335.67	36.78	-29.0	-29.5	28.0	0.00e+00	0	34	0	2401239040	30	6057
2026-01-06 20:27:07.42	335.29	36.88	-29.0	-29.5	28.1	0.00e+00	0	34	0	2408579072	30	6044
2026-01-06 20:27:08.43	334.90	36.98	-28.8	-29.3	28.2	0.00e+00	0	34	0	2415919104	30	5920
2026-01-06 20:27:09.44	334.51	37.08	-28.8	-29.2	28.3	0.00e+00	0	34	0	2423259136	30	5865
2026-01-06 20:27:10.45	334.12	37.18	-28.6	-29.1	28.5	0.00e+00	0	34	0	2429550592	30	5782
2026-01-06 20:27:11.45	333.73	37.28	-28.7	-29.1	28.3	0.00e+00	0	34	0	2436890624	30	5803
2026-01-06 20:27:12.46	333.33	37.37	-28.6	-29.0	28.1	0.00e+00	0	34	0	2444230656	30	5731
2026-01-06 20:27:13.48	332.93	37.47	-28.8	-29.3	28.3	0.00e+00	0	34	0	2451570688	30	5941
2026-01-06 20:27:14.48	332.53	37.56	-28.9	-29.4	28.1	0.00e+00	0	34	0	2458910720	30	5999
2026-01-06 20:27:15.49	332.12	37.66	-29.1	-29.6	28.0	0.00e+00	0	34	0	2466250752	30	6105
2026-01-06 20:27:16.51	331.71	37.75	-28.9	-29.4	28.2	0.00e+00	0	34	0	2473590784	30	5973
2026-01-06 20:27:17.52	331.30	37.84	-28.9	-29.4	28.1	0.00e+00	0	34	0	2480930816	30	6005
2026-01-06 20:27:18.53	330.89	37.93	-29.0	-29.4	28.1	0.00e+00	0	34	0	2488270848	30	6019
2026-01-06 20:27:19.53	330.48	38.01	-29.0	-29.5	28.0	0.00e+00	0	34	0	2495610880	30	6055
2026-01-06 20:27:20.54	330.07	38.10	-29.1	-29.5	28.1	0.00e+00	0	34	0	2502950912	30	6088
2026-01-06 20:27:21.55	329.65	38.18	-29.0	-29.5	28.2	0.00e+00	0	34	0	2510290944	30	6034
2026-01-06 20:27:22.57	329.22	38.26	-29.1	-29.5	28.1	0.00e+00	0	34	0	2517630976	30	6093
2026-01-06 20:27:23.58	328.80	38.34	-29.0	-29.5	28.1	0.00e+00	0	34	0	2524971008	30	6048
2026-01-06 20:27:24.58	328.38	38.42	-29.0	-29.5	28.1	0.00e+00	0	34	0	2532311040	30	6040
2026-01-06 20:27:25.59	327.96	38.50	-29.0	-29.5	28.1	0.00e+00	0	34	0	2539651072	30	6054
2026-01-06 20:27:26.61	327.52	38.58	-28.9	-29.4	28.1	0.00e+00	0	34	0	2546991104	30	5991
2026-01-06 20:27:27.61	327.10	38.65	-28.9	-29.4	28.2	0.00e+00	0	34	0	2553282560	30	5984
2026-01-06 20:27:28.62	326.66	38.72	-28.8	-29.3	28.1	0.00e+00	0	34	0	2561671168	30	5929
2026-01-06 20:27:29.63	326.23	38.79	-28.9	-29.4	28.2	0.00e+00	0	34	0	2569011200	30	5992
2026-01-06 20:27:30.64	325.79	38.86	-28.9	-29.3	28.2	0.00e+00	0	34	0	2575302656	30	5957
2026-01-06 20:27:31.65	325.35	38.93	-28.8	-29.3	28.2	0.00e+00	0	34	0	2582642688	30	5931
2026-01-06 20:27:32.66	324.91	39.00	-28.8	-29.3	28.3	0.00e+00	0	34	0	2589982720	30	5903
2026-01-06 20:27:33.67	324.47	39.06	-29.1	-29.5	28.2	0.00e+00	0	34	0	2597322752	30	6086
2026-01-06 20:27:34.68	324.03	39.12	-28.9	-29.4	28.2	0.00e+00	0	34	0	2604662784	30	5967
2026-01-06 20:27:35.69	323.58	39.18	-29.0	-29.4	28.1	0.00e+00	0	34	0	2612002816	30	6023
2026-01-06 20:27:36.70	323.14	39.24	-29.0	-29.5	28.0	0.00e+00	0	34	0	2619342848	30	6044
2026-01-06 20:27:37.71	322.69	39.30	-29.0	-29.5	28.1	0.00e+00	0	34	0	2626682880	30	6047
2026-01-06 20:27:38.72	322.24	39.35	-28.9	-29.3	28.1	0.00e+00	0	34	0	2634022912	30	5952
2026-01-06 20:27:39.73	321.79	39.40	-29.1	-29.5	28.2	0.00e+00	0	34	0	2641362944	30	6085
2026-01-06 20:27:40.74	321.34	39.45	-28.9	-29.4	28.2	0.00e+00	0	34	0	2648702976	30	5968
2026-01-06 20:27:41.75	320.88	39.50	-29.0	-29.5	28.1	0.00e+00	0	34	0	2656043008	30	6040
2026-01-06 20:27:42.76	320.43	39.55	-28.9	-29.4	28.2	0.00e+00	0	34	0	2663383040	30	5989
2026-01-06 20:27:43.77	319.97	39.59	-28.9	-29.4	28.2	0.00e+00	0	34	0	2670723072	30	5989
2026-01-06 20:27:44.78	319.51	39.63	-29.0	-29.5	28.1	0.00e+00	0	34	0	2678063104	30	6042
2026-01-06 20:27:45.79	319.05	39.67	-29.1	-29.5	28.0	0.00e+00	0	34	0	2685403136	30	6081
2026-01-06 20:27:46.80	318.59	39.71	-29.0	-29.5	28.1	0.00e+00	0	34	0	2692743168	30	6079
2026-01-06 20:27:47.81	318.13	39.75	-28.8	-29.3	28.2	0.00e+00	0	34	0	2700083200	30	5935
2026-01-06 20:27:48.81	317.67	39.78	-28.8	-29.3	28.3	0.00e+00	0	34	0	2706374656	30	5916
2026-01-06 20:27:49.82	317.21	39.81	-28.9	-29.3	28.2	0.00e+00	0	34	0	2714763264	30	5951
2026-01-06 20:27:50.83	316.74	39.84	-28.9	-29.4	28.1	0.00e+00	0	34	0	2722103296	30	5993
2026-01-06 20:27:51.84	316.28	39.87	-29.1	-29.6	28.0	0.00e+00	0	34	0	2728394752	30	6140
2026-01-06 20:27:52.85	315.81	39.90	-29.1	-29.6	28.0	0.00e+00	0	34	0	2735734784	30	6131
2026-01-06 20:27:53.86	315.35	39.92	-29.1	-29.5	28.0	0.00e+00	0	34	0	2743074816	30	6098
2026-01-06 20:27:54.87	314.88	39.94	-29.0	-29.4	28.2	0.00e+00	0	34	0	2750414848	30	6018
2026-01-06 20:27:55.88	314.41	39.96	-29.0	-29.5	28.1	0.00e+00	0	34	0	2757754880	30	6068
2026-01-06 20:27:56.89	313.94	39.98	-29.1	-29.5	28.1	0.00e+00	0	34	0	2765094912	30	6093
2026-01-06 20:27:57.90	313.47	39.99	-29.1	-29.6	27.9	0.00e+00	0	34	0	2772434944	30	6115
2026-01-06 20:27:58.91	313.00	40.01	-29.0	-29.4	28.1	0.00e+00	0	34	0	2779774976	30	6018
2026-01-06 20:27:59.92	312.53	40.02	-28.9	-29.4	28.1	0.00e+00	0	34	0	2787115008	30	5988
2026-01-06 20:28:00.93	312.06	40.03	-28.8	-29.2	28.3	0.00e+00	0	34	0	2794455040	30	5876
2026-01-06 20:28:01.94	311.59	40.03	-28.8	-29.2	28.3	0.00e+00	0	34	0	2801795072	30	5892
2026-01-06 20:28:02.95	311.12	40.04	-28.8	-29.2	28.3	0.00e+00	0	34	0	2809135104	30	5878
2026-01-06 20:28:03.96	310.65	40.04	-28.6	-29.0	28.4	0.00e+00	0	34	0	2816475136	30	5760
2026-01-06 20:28:04.97	310.18	40.04	-28.6	-29.1	28.4	0.00e+00	0	34	0	2823815168	30	5790
2026-01-06 20:28:05.98	309.71	40.03	-28.6	-29.0	28.5	0.00e+00	0	34	0	2831155200	30	5747
2026-01-06 20:28:06.99	309.24	40.03	-28.7	-29.1	28.3	0.00e+00	0	34	0	2838495232	30	5819
2026-01-06 20:28:08.00	308.77	40.02	-28.8	-29.3	28.1	0.00e+00	0	34	0	2845835264	30	5931
2026-01-06 20:28:09.01	308.30	40.01	-29.0	-29.5	28.1	0.00e+00	0	34	0	2852126720	30	6065
2026-01-06 20:28:10.01	307.84	40.00	-29.1	-29.5	28.1	0.00e+00	0	34	0	2859466752	30	6099
2026-01-06 20:28:11.02	307.37	39.99	-29.1	-29.6	28.0	0.00e+00	0	34	0	2867855360	30	6139
2026-01-06 20:28:12.03	306.90	39.97	-29.1	-29.5	28.1	0.00e+00	0	34	0	2874146816	30	6086
2026-01-06 20:28:13.04	306.43	39.96	-28.8	-29.3	28.2	0.00e+00	0	34	0	2881486848	30	5932
2026-01-06 20:28:14.04	305.97	39.94	-28.8	-29.3	28.2	0.00e+00	0	34	0	2888826880	30	5936
2026-01-06 20:28:15.06	305.49	39.91	-28.9	-29.4	27.9	0.00e+00	0	34	0	2896166912	30	5996
2026-01-06 20:28:16.07	305.03	39.89	-29.1	-29.6	28.0	0.00e+00	0	34	0	2903506944	30	6114
2026-01-06 20:28:17.07	304.57	39.86	-29.0	-29.5	28.0	0.00e+00	0	34	0	2910846976	30	6059
2026-01-06 20:28:18.08	304.10	39.83	-29.1	-29.6	27.9	0.00e+00	0	34	0	2918187008	30	6156
2026-01-06 20:28:19.09	303.64	39.80	-29.0	-29.4	28.0	0.00e+00	0	34	0	2925527040	30	6032
2026-01-06 20:28:20.10	303.17	39.77	-29.1	-29.5	28.0	0.00e+00	0	34	0	2932867072	30	6085
2026-01-06 20:28:21.11	302.71	39.74	-28.9	-29.3	28.2	0.00e+00	0	34	0	2940207104	30	5959
2026-01-06 20:28:22.12	302.25	39.70	-28.5	-28.9	28.5	0.00e+00	0	34	0	2947547136	30	5688
2026-01-06 20:28:23.13	301.79	39.66	-28.5	-29.0	28.4	0.00e+00	0	34	0	2954887168	30	5711
2026-01-06 20:28:24.14	301.33	39.62	-28.8	-29.3	28.2	0.00e+00	0	34	0	2962227200	30	5938
2026-01-06 20:28:25.15	300.87	39.58	-28.9	-29.4	28.2	0.00e+00	0	34	0	2969567232	30	6002
2026-01-06 20:28:26.16	300.41	39.53	-29.3	-29.8	27.8	0.00e+00	0	34	0	2976907264	30	6285
2026-01-06 20:28:27.17	299.96	39.48	-29.2	-29.7	27.9	0.00e+00	0	34	0	2984247296	30	6213
2026-01-06 20:28:28.18	299.50	39.43	-29.1	-29.5	28.1	0.00e+00	0	34	0	2991587328	30	6091
2026-01-06 20:28:29.19	299.05	39.38	-29.0	-29.5	28.0	0.00e+00	0	34	0	2998927360	30	6034
2026-01-06 20:28:30.19	298.60	39.33	-29.0	-29.5	28.2	0.00e+00	0	34	0	3005218816	30	6041
2026-01-06 20:28:31.20	298.15	39.27	-28.8	-29.3	28.2	0.00e+00	0	34	0	3012558848	30	5947
2026-01-06 20:28:32.21	297.71	39.22	-28.8	-29.3	28.2	0.00e+00	0	34	0	3019898880	30	5942
2026-01-06 20:28:33.22	297.26	39.16	-29.0	-29.5	28.1	0.00e+00	0	34	0	3027238912	30	6071
2026-01-06 20:28:34.23	296.81	39.10	-29.2	-29.7	28.0	0.00e+00	0	34	0	3034578944	30	6193
2026-01-06 20:28:35.24	296.37	39.04	-29.0	-29.5	28.1	0.00e+00	0	34	0	3041918976	30	6050
2026-01-06 20:28:36.25	295.93	38.97	-28.9	-29.4	28.0	0.00e+00	0	34	0	3049259008	30	5971
2026-01-06 20:28:37.26	295.49	38.91	-28.7	-29.2	28.4	0.00e+00	0	34	0	3056599040	30	5835
2026-01-06 20:28:38.27	295.05	38.84	-28.4	-28.9	28.6	0.00e+00	0	34	0	3063939072	30	5662
2026-01-06 20:28:39.28	294.61	38.77	-28.6	-29.1	28.4	0.00e+00	0	34	0	3071279104	30	5792
2026-01-06 20:28:40.29	294.18	38.70	-28.8	-29.2	28.3	0.00e+00	0	34	0	3078619136	30	5888
2026-01-06 20:28:41.29	293.75	38.62	-28.9	-29.4	28.2	0.00e+00	0	34	0	3085959168	30	5988
2026-01-06 20:28:42.30	293.32	38.55	-29.0	-29.4	28.2	0.00e+00	0	34	0	3093299200	30	6014
2026-01-06 20:28:43.31	292.89	38.47	-29.0	-29.5	28.1	0.00e+00	0	34	0	3100639232	30	6054
2026-01-06 20:28:44.32	292.47	38.39	-29.0	-29.5	28.1	0.00e+00	0	34	0	3107979264	30	6039
2026-01-06 20:28:45.33	292.04	38.31	-29.0	-29.4	28.2	0.00e+00	0	34	0	3115319296	30	6017
2026-01-06 20:28:46.34	291.62	38.23	-28.9	-29.4	28.2	0.00e+00	0	34	0	3122659328	30	5970
2026-01-06 20:28:47.35	291.20	38.15	-28.6	-29.0	28.5	0.00e+00	0	34	0	3128950784	30	5731
2026-01-06 20:28:48.36	290.78	38.07	-28.4	-28.9	28.5	0.00e+00	0	34	0	3136290816	30	5655
2026-01-06 20:28:49.37	290.37	37.98	-28.4	-28.9	28.5	0.00e+00	0	34	0	3144679424	30	5662
2026-01-06 20:28:50.38	289.95	37.89	-28.4	-28.9	28.5	0.00e+00	0	34	0	3150970880	30	5632
2026-01-06 20:28:51.39	289.54	37.80	-28.5	-29.0	28.5	0.00e+00	0	34	0	3158310912	30	5718
2026-01-06 20:28:52.40	289.13	37.71	-28.6	-29.1	28.3	0.00e+00	0	34	0	3165650944	30	5779
2026-01-06 20:28:53.41	288.72	37.62	-28.7	-29.2	28.4	0.00e+00	0	34	0	3172990976	30	5843
2026-01-06 20:28:54.42	288.32	37.53	-28.7	-29.2	28.4	0.00e+00	0	34	0	3180331008	30	5843
2026-01-06 20:28:55.43	287.92	37.43	-28.7	-29.1	28.3	0.00e+00	0	34	0	3187671040	30	5828
2026-01-06 20:28:56.44	287.52	37.34	-28.9	-29.3	28.3	0.00e+00	0	34	0	3195011072	30	5951
2026-01-06 20:28:57.45	287.12	37.24	-28.8	-29.2	28.2	0.00e+00	0	34	0	3202351104	30	5879
2026-01-06 20:28:58.46	286.73	37.14	-28.6	-29.1	28.3	0.00e+00	0	34	0	3209691136	30	5774
2026-01-06 20:28:59.47	286.33	37.04	-28.7	-29.2	28.4	0.00e+00	0	34	0	3217031168	30	5851
2026-01-06 20:29:00.48	285.94	36.94	-28.5	-29.0	28.5	0.00e+00	0	34	0	3224371200	30	5725
2026-01-06 20:29:01.49	285.55	36.84	-28.6	-29.0	28.4	0.00e+00	0	34	0	3231711232	30	5750
2026-01-06 20:29:02.50	285.17	36.73	-28.5	-29.0	28.5	0.00e+00	0	34	0	3239051264	30	5697
2026-01-06 20:29:03.51	284.79	36.63	-28.6	-29.0	28.4	0.00e+00	0	34	0	3246391296	30	5743
2026-01-06 20:29:04.52	284.41	36.52	-28.6	-29.1	28.4	0.00e+00	0	34	0	3253731328	30	5776
2026-01-06 20:29:05.53	284.03	36.42	-28.7	-29.2	28.3	0.00e+00	0	34	0	3261071360	30	5850
2026-01-06 20:29:06.54	283.65	36.31	-28.8	-29.2	28.3	0.00e+00	0	34	0	3268411392	30	5885
2026-01-06 20:29:07.55	283.28	36.20	-29.0	-29.4	28.2	0.00e+00	0	34	0	3275751424	30	6024
2026-01-06 20:29:08.56	282.91	36.09	-29.0	-29.5	28.2	0.00e+00	0	34	0	3282042880	30	6039
2026-01-06 20:29:09.57	282.54	35.98	-29.0	-29.5	28.1	0.00e+00	0	34	0	3290431488	30	6053
2026-01-06 20:29:10.57	282.18	35.87	-29.0	-29.5	28.2	0.00e+00	0	34	0	3297771520	30	6071
2026-01-06 20:29:11.58	281.82	35.76	-28.9	-29.4	28.2	0.00e+00	0	34	0	3304062976	30	6001
2026-01-06 20:29:12.59	281.46	35.64	-28.7	-29.2	28.4	0.00e+00	0	34	0	3311403008	30	5863
2026-01-06 20:29:13.60	281.10	35.53	-28.8	-29.2	28.4	0.00e+00	0	34	0	3318743040	30	5889
2026-01-06 20:29:14.61	280.74	35.41	-28.9	-29.4	28.2	0.00e+00	0	34	0	3326083072	30	5970
2026-01-06 20:29:15.62	280.39	35.30	-28.9	-29.4	28.2	0.00e+00	0	34	0	3333423104	30	5973
2026-01-06 20:29:16.63	280.04	35.18	-28.9	-29.4	28.2	0.00e+00	0	34	0	3340763136	30	5993
2026-01-06 20:29:17.64	279.69	35.06	-28.8	-29.3	28.3	0.00e+00	0	34	0	3348103168	30	5907
2026-01-06 20:29:18.65	279.35	34.94	-28.7	-29.2	28.3	0.00e+00	0	34	0	3355443200	30	5849
2026-01-06 20:29:19.66	279.00	34.83	-28.8	-29.3	28.3	0.00e+00	0	34	0	3362783232	30	5918
2026-01-06 20:29:20.67	278.66	34.71	-29.1	-29.5	28.2	0.00e+00	0	34	0	3370123264	30	6084
2026-01-06 20:29:21.68	278.32	34.59	-29.0	-29.5	28.1	0.00e+00	0	34	0	3377463296	30	6063
2026-01-06 20:29:22.68	277.99	34.46	-28.9	-29.4	28.2	0.00e+00	0	34	0	3384803328	30	5984
2026-01-06 20:29:23.69	277.66	34.34	-28.8	-29.2	28.4	0.00e+00	0	34	0	3392143360	30	5891
2026-01-06 20:29:24.70	277.33	34.22	-28.6	-29.1	28.4	0.00e+00	0	34	0	3399483392	30	5805
2026-01-06 20:29:25.71	277.00	34.10	-28.7	-29.1	28.4	0.00e+00	0	34	0	3405774848	30	5808
2026-01-06 20:29:26.72	276.68	33.97	-28.6	-29.0	28.4	0.00e+00	0	34	0	3414163456	30	5742
2026-01-06 20:29:27.73	276.35	33.85	-28.7	-29.1	28.4	0.00e+00	0	34	0	3421503488	30	5823
2026-01-06 20:29:28.74	276.03	33.72	-28.8	-29.3	28.2	0.00e+00	0	34	0	3427794944	30	5900
2026-01-06 20:29:29.75	275.71	33.60	-28.8	-29.3	28.3	0.00e+00	0	34	0	3435134976	30	5932
2026-01-06 20:29:30.76	275.40	33.47	-28.9	-29.4	28.2	0.00e+00	0	34	0	3442475008	30	6001
2026-01-06 20:29:31.77	275.09	33.35	-28.9	-29.4	28.2	0.00e+00	0	34	0	3449815040	30	5996
2026-01-06 20:29:32.78	274.78	33.22	-29.0	-29.5	28.1	0.00e+00	0	34	0	3457155072	30	6043
2026-01-06 20:29:33.78	274.47	33.10	-29.2	-29.7	26.6	0.00e+00	0	34	0	3464495104	30	6220
2026-01-06 20:29:34.79	274.16	32.97	-28.9	-29.4	28.2	0.00e+00	0	34	0	3471835136	30	5988
2026-01-06 20:29:35.80	273.86	32.84	-29.0	-29.4	28.1	0.00e+00	0	34	0	3479175168	30	6032
2026-01-06 20:29:36.82	273.56	32.71	-28.8	-29.3	28.2	0.00e+00	0	34	0	3486515200	30	5928
2026-01-06 20:29:37.83	273.26	32.58	-28.8	-29.2	28.4	0.00e+00	0	34	0	3493855232	30	5885
2026-01-06 20:29:38.84	272.96	32.45	-28.4	-28.9	28.6	0.00e+00	0	34	0	3501195264	30	5639
2026-01-06 20:29:39.84	272.67	32.32	-28.5	-29.0	28.5	0.00e+00	0	34	0	3508535296	30	5708
2026-01-06 20:29:40.85	272.38	32.20	-28.5	-29.0	28.5	0.00e+00	0	34	0	3515875328	30	5728
2026-01-06 20:29:41.86	272.09	32.07	-28.6	-29.1	28.4	0.00e+00	0	34	0	3523215360	30	5785
2026-01-06 20:29:42.87	271.80	31.94	-28.6	-29.1	28.3	0.00e+00	0	34	0	3530555392	30	5793
2026-01-06 20:29:43.88	271.52	31.81	-28.8	-29.2	28.1	0.00e+00	0	34	0	3537895424	30	5873
2026-01-06 20:29:44.89	271.24	31.67	-28.8	-29.3	28.3	0.00e+00	0	34	0	3545235456	30	5931
2026-01-06 20:29:45.90	270.96	31.54	-28.6	-29.1	28.4	0.00e+00	0	34	0	3552575488	30	5781
2026-01-06 20:29:46.91	270.68	31.41	-28.7	-29.1	28.3	0.00e+00	0	34	0	3558866944	30	5810
2026-01-06 20:29:47.92	270.40	31.28	-28.6	-29.1	28.4	0.00e+00	0	34	0	3567255552	30	5776
2026-01-06 20:29:48.93	270.13	31.15	-28.6	-29.1	28.3	0.00e+00	0	34	0	3574595584	30	5778
2026-01-06 20:29:49.93	269.86	31.02	-28.9	-29.3	28.2	0.00e+00	0	34	0	3580887040	30	5940
2026-01-06 20:29:50.94	269.59	30.89	-28.9	-29.4	28.2	0.00e+00	0	34	0	3588227072	30	5973
2026-01-06 20:29:51.95	269.33	30.76	-28.8	-29.4	24.1	0.00e+00	0	34	0	3595567104	30	6019
2026-01-06 20:29:52.96	269.06	30.63	-28.9	-29.6	24.0	0.00e+00	0	34	0	3602907136	30	6111
2026-01-06 20:29:53.97	268.80	30.49	-28.9	-29.5	24.1	0.00e+00	0	34	0	3610247168	30	6090
2026-01-06 20:29:54.98	268.54	30.36	-28.8	-29.4	24.0	0.00e+00	0	34	0	3617587200	30	6030
2026-01-06 20:29:55.99	268.28	30.23	-28.7	-29.4	24.1	0.00e+00	0	34	0	3624927232	30	5976
2026-01-06 20:29:57.00	268.03	30.10	-28.8	-29.4	24.1	0.00e+00	0	34	0	3632267264	30	6018
2026-01-06 20:29:58.01	267.77	29.97	-28.8	-29.5	24.1	0.00e+00	0	34	0	3639607296	30	6062
2026-01-06 20:29:59.02	267.52	29.83	-28.8	-29.5	24.2	0.00e+00	0	34	0	3646947328	30	6051
2026-01-06 20:30:00.03	267.27	29.70	-28.8	-29.4	24.2	0.00e+00	0	34	0	3654287360	30	6027
2026-01-06 20:30:01.04	267.02	29.57	-28.7	-29.4	24.1	0.00e+00	0	34	0	3661627392	30	5983
2026-01-06 20:30:02.05	266.78	29.44	-28.9	-29.6	24.1	0.00e+00	0	34	0	3668967424	30	6107
2026-01-06 20:30:03.06	266.53	29.31	-28.7	-29.3	24.1	0.00e+00	0	34	0	3676307456	30	5944
2026-01-06 20:30:04.07	266.29	29.17	-28.6	-29.3	24.2	0.00e+00	0	34	0	3683647488	30	5917
2026-01-06 20:30:05.08	266.05	29.04	-28.7	-29.3	24.1	0.00e+00	0	34	0	3690987520	30	5926
2026-01-06 20:30:06.09	265.82	28.91	-28.9	-29.6	24.2	0.00e+00	0	34	0	3698327552	30	6136
2026-01-06 20:30:07.10	265.58	28.78	-29.0	-29.6	24.2	0.00e+00	0	34	0	3704619008	30	6152
2026-01-06 20:30:08.11	265.35	28.65	-28.9	-29.6	24.2	0.00e+00	0	34	0	3711959040	30	6111
2026-01-06 20:30:09.11	265.12	28.52	-28.9	-29.6	24.2	0.00e+00	0	34	0	3720347648	30	6117
2026-01-06 20:30:10.13	264.88	28.38	-28.9	-29.5	24.3	0.00e+00	0	34	0	3726639104	30	6086
2026-01-06 20:30:11.13	264.66	28.25	-28.8	-29.4	24.5	0.00e+00	0	34	0	3733979136	30	6003
2026-01-06 20:30:12.14	264.43	28.12	-30.2	-30.8	24.4	0.00e+00	0	34	0	3741319168	32	6303
2026-01-06 20:30:13.15	264.21	27.99	-28.8	-29.4	24.4	0.00e+00	0	34	0	3748659200	32	5375
2026-01-06 20:30:14.16	263.99	27.86	-29.0	-29.6	24.2	0.00e+00	0	34	0	3755999232	32	5499
2026-01-06 20:30:15.17	263.77	27.73	-29.2	-29.8	24.2	0.00e+00	0	34	0	3763339264	32	5590
2026-01-06 20:30:16.18	263.55	27.60	-29.1	-29.8	24.0	0.00e+00	0	34	0	3770679296	32	5577
2026-01-06 20:30:17.19	263.33	27.47	-29.5	-30.1	24.0	0.00e+00	0	34	0	3778019328	32	5815
2026-01-06 20:30:18.20	263.11	27.34	-29.3	-29.9	23.8	0.00e+00	0	34	0	3785359360	32	5667
2026-01-06 20:30:19.21	262.90	27.21	-29.4	-30.1	23.9	0.00e+00	0	34	0	3792699392	32	5763
2026-01-06 20:30:20.22	262.69	27.08	-29.3	-30.0	23.9	0.00e+00	0	34	0	3800039424	32	5721
2026-01-06 20:30:21.23	262.48	26.95	-29.3	-30.0	24.0	0.00e+00	0	34	0	3807379456	32	5703
2026-01-06 20:30:22.24	262.27	26.82	-29.2	-29.9	24.0	0.00e+00	0	34	0	3814719488	32	5642
2026-01-06 20:30:23.25	262.06	26.69	-29.2	-29.8	24.1	0.00e+00	0	34	0	3822059520	32	5603
2026-01-06 20:30:24.26	261.86	26.56	-29.0	-29.7	24.1	0.00e+00	0	34	0	3829399552	32	5524
2026-01-06 20:30:25.27	261.66	26.43	-29.0	-29.6	24.1	0.00e+00	0	34	0	3836739584	32	5498
2026-01-06 20:30:26.28	261.46	26.30	-29.1	-29.7	24.1	0.00e+00	0	34	0	3844079616	32	5550
2026-01-06 20:30:27.29	261.26	26.17	-29.0	-29.7	24.1	0.00e+00	0	34	0	3851419648	32	5520
2026-01-06 20:30:28.30	261.06	26.04	-29.3	-29.9	24.0	0.00e+00	0	34	0	3857711104	32	5691
2026-01-06 20:30:29.31	260.86	25.92	-29.2	-29.9	24.0	0.00e+00	0	34	0	3865051136	32	5637
2026-01-06 20:30:30.32	260.67	25.79	-28.9	-29.6	24.1	0.00e+00	0	34	0	3873439744	32	5456
2026-01-06 20:30:31.33	260.47	25.66	-29.0	-29.7	24.1	0.00e+00	0	34	0	3879731200	32	5533
2026-01-06 20:30:32.34	260.28	25.53	-28.9	-29.5	24.2	0.00e+00	0	34	0	3887071232	32	5420
2026-01-06 20:30:33.35	260.09	25.41	-28.9	-29.6	24.2	0.00e+00	0	34	0	3894411264	32	5444
2026-01-06 20:30:34.36	259.90	25.28	-29.0	-29.7	24.1	0.00e+00	0	34	0	3901751296	32	5515
2026-01-06 20:30:35.37	259.71	25.15	-29.0	-29.7	24.0	0.00e+00	0	34	0	3909091328	32	5504
2026-01-06 20:30:36.38	259.53	25.03	-29.1	-29.8	23.8	0.00e+00	0	34	0	3916431360	32	5592
2026-01-06 20:30:37.39	259.34	24.90	-29.2	-29.8	23.8	0.00e+00	0	34	0	3923771392	32	5618
2026-01-06 20:30:38.40	259.16	24.77	-29.3	-30.0	23.7	0.00e+00	0	34	0	3931111424	32	5724
2026-01-06 20:30:39.41	258.98	24.65	-29.2	-29.8	23.8	0.00e+00	0	34	0	3938451456	32	5626
2026-01-06 20:30:40.41	258.80	24.52	-29.2	-29.9	24.0	0.00e+00	0	34	0	3945791488	32	5663
2026-01-06 20:30:41.42	258.62	24.40	-29.0	-29.7	24.0	0.00e+00	0	34	0	3953131520	32	5516
2026-01-06 20:30:42.43	258.45	24.27	-29.0	-29.6	24.1	0.00e+00	0	34	0	3960471552	32	5486
2026-01-06 20:30:43.44	258.27	24.15	-28.9	-29.5	24.3	0.00e+00	0	34	0	3967811584	32	5428
2026-01-06 20:30:44.45	258.10	24.03	-28.9	-29.5	24.2	0.00e+00	0	34	0	3975151616	32	5406
2026-01-06 20:30:45.46	257.92	23.90	-29.0	-29.6	24.2	0.00e+00	0	34	0	3981443072	32	5472
2026-01-06 20:30:46.47	257.75	23.78	-29.1	-29.7	24.3	0.00e+00	0	34	0	3989831680	32	5529
2026-01-06 20:30:47.48	257.58	23.66	-29.3	-29.9	24.1	0.00e+00	0	34	0	3997171712	32	5645
2026-01-06 20:30:48.49	257.41	23.53	-29.2	-29.8	24.1	0.00e+00	0	34	0	4003463168	32	5625
2026-01-06 20:30:49.51	257.25	23.41	-29.3	-29.9	24.0	0.00e+00	0	34	0	4010803200	32	5690
2026-01-06 20:30:50.52	257.08	23.29	-29.3	-30.0	23.9	0.00e+00	0	34	0	4019191808	32	5720
2026-01-06 20:30:51.52	256.92	23.17	-29.4	-30.1	24.0	0.00e+00	0	34	0	4025483264	32	5778
2026-01-06 20:30:52.53	256.75	23.04	-29.4	-30.1	23.9	0.00e+00	0	34	0	4032823296	32	5780
2026-01-06 20:30:53.54	256.59	22.92	-29.4	-30.0	24.1	0.00e+00	0	34	0	4040163328	32	5748
2026-01-06 20:30:54.55	256.43	22.80	-29.2	-29.9	24.1	0.00e+00	0	34	0	4047503360	32	5639
2026-01-06 20:30:55.56	256.27	22.68	-29.2	-29.8	24.2	0.00e+00	0	34	0	4054843392	32	5595
2026-01-06 20:30:56.57	256.11	22.56	-29.2	-29.8	24.1	0.00e+00	0	34	0	4062183424	32	5595
2026-01-06 20:30:57.58	255.96	22.44	-29.2	-29.8	24.0	0.00e+00	0	34	0	4069523456	32	5608
2026-01-06 20:30:58.59	255.80	22.32	-29.2	-29.8	24.1	0.00e+00	0	34	0	4076863488	32	5596
2026-01-06 20:30:59.60	255.65	22.20	-29.3	-29.9	24.1	0.00e+00	0	34	0	4084203520	32	5672
2026-01-06 20:31:00.61	255.49	22.08	-29.1	-29.7	24.1	0.00e+00	0	34	0	4091543552	32	5551
2026-01-06 20:31:01.62	255.34	21.96	-29.1	-29.7	24.1	0.00e+00	0	34	0	4098883584	32	5553
2026-01-06 20:31:02.63	255.19	21.85	-29.2	-29.8	24.1	0.00e+00	0	34	0	4106223616	32	5622
2026-01-06 20:31:03.64	255.04	21.73	-29.1	-29.8	24.1	0.00e+00	0	34	0	4113563648	32	5585
2026-01-06 20:31:04.65	254.89	21.61	-29.4	-30.0	24.0	0.00e+00	0	34	0	4120903680	32	5727
2026-01-06 20:31:05.66	254.74	21.49	-29.3	-29.9	24.0	0.00e+00	0	34	0	4128243712	32	5687
2026-01-06 20:31:06.67	254.60	21.38	-29.4	-30.1	24.0	0.00e+00	0	34	0	4135583744	32	5778
2026-01-06 20:31:07.68	254.45	21.26	-29.5	-30.2	24.0	0.00e+00	0	34	0	4142923776	32	5836
2026-01-06 20:31:08.69	254.31	21.14	-29.4	-30.1	24.0	0.00e+00	0	34	0	4150263808	32	5795
2026-01-06 20:31:09.69	254.16	21.03	-29.6	-30.2	24.0	0.00e+00	0	34	0	4156555264	32	5890
2026-01-06 20:31:10.70	254.02	20.91	-29.4	-30.1	24.1	0.00e+00	0	34	0	4163895296	32	5775
2026-01-06 20:31:11.71	253.88	20.80	-29.4	-30.1	24.1	0.00e+00	0	34	0	4171235328	32	5785
2026-01-06 20:31:12.72	253.74	20.68	-29.3	-30.0	24.2	0.00e+00	0	34	0	4178575360	32	5707
2026-01-06 20:31:13.73	253.60	20.57	-29.3	-29.9	24.4	0.00e+00	0	34	0	4185915392	32	5660
2026-01-06 20:31:14.74	253.46	20.45	-29.4	-30.0	24.4	0.00e+00	0	34	0	4193255424	32	5749
2026-01-06 20:31:15.75	253.33	20.34	-29.3	-29.9	24.4	0.00e+00	0	34	0	4200595456	32	5656
2026-01-06 20:31:16.76	253.19	20.23	-29.3	-29.9	24.4	0.00e+00	0	34	0	4207935488	32	5663
2026-01-06 20:31:17.77	253.06	20.11	-29.3	-30.0	24.3	0.00e+00	0	34	0	4215275520	32	5700
2026-01-06 20:31:18.78	252.92	20.00	-29.5	-30.1	24.2	0.00e+00	0	34	0	4222615552	32	5828
2026-01-06 20:31:19.79	252.79	19.89	-29.6	-30.2	24.2	0.00e+00	0	34	0	4229955584	32	5874
2026-01-06 20:31:20.80	252.66	19.77	-29.8	-30.4	24.0	0.00e+00	0	34	0	4237295616	32	6012
2026-01-06 20:31:21.81	252.53	19.66	-29.9	-30.6	23.8	0.00e+00	0	34	0	4244635648	32	6140
2026-01-06 20:31:22.82	252.40	19.55	-30.0	-30.7	23.7	0.00e+00	0	34	0	4251975680	32	6183
2026-01-06 20:31:23.83	252.27	19.44	-30.1	-30.7	23.6	0.00e+00	0	34	0	4259315712	32	6225
2026-01-06 20:31:24.84	252.14	19.33	-30.2	-30.8	23.6	0.00e+00	0	34	0	4266655744	32	6294
2026-01-06 20:31:25.85	252.01	19.22	-30.2	-30.9	23.5	0.00e+00	0	34	0	4273995776	32	6324
2026-01-06 20:31:26.86	251.89	19.11	-30.1	-30.8	23.5	0.00e+00	0	34	0	4280287232	32	6279
2026-01-06 20:31:27.87	251.76	19.00	-30.3	-30.9	23.6	0.00e+00	0	34	0	4288675840	32	6382
2026-01-06 20:31:28.88	251.64	18.89	-30.2	-30.9	23.6	0.00e+00	0	34	0	4296015872	32	6363
2026-01-06 20:31:29.89	251.52	18.78	-30.2	-30.8	23.7	0.00e+00	0	34	0	4302307328	32	6301
2026-01-06 20:31:30.90	251.39	18.67	-30.3	-31.0	23.6	0.00e+00	0	34	0	4309647360	32	6392
2026-01-06 20:31:31.92	251.27	18.56	-30.4	-31.0	23.6	0.00e+00	0	34	0	4318035968	32	6439
2026-01-06 20:31:32.93	251.15	18.45	-30.4	-31.0	23.6	0.00e+00	0	34	0	4324327424	32	6448
2026-01-06 20:31:33.94	251.03	18.35	-30.4	-31.1	23.6	0.00e+00	0	34	0	4331667456	32	6493
2026-01-06 20:31:34.95	250.91	18.24	-30.5	-31.2	23.5	0.00e+00	0	34	0	4339007488	32	6561
2026-01-06 20:31:35.95	250.79	18.13	-30.5	-31.2	23.6	0.00e+00	0	34	0	4346347520	32	6592
2026-01-06 20:31:36.96	250.68	18.03	-30.7	-31.3	23.3	0.00e+00	0	34	0	4353687552	32	6680
2026-01-06 20:31:37.98	250.56	17.92	-30.5	-31.1	23.6	0.00e+00	0	34	0	4361027584	32	6531
2026-01-06 20:31:38.99	250.44	17.81	-30.6	-31.2	23.5	0.00e+00	0	34	0	4368367616	32	6601
2026-01-06 20:31:40.00	250.33	17.71	-30.6	-31.3	23.6	0.00e+00	0	34	0	4375707648	32	6651
2026-01-06 20:31:41.00	250.22	17.60	-30.4	-31.1	23.7	0.00e+00	0	34	0	4383047680	32	6468
2026-01-06 20:31:42.01	250.10	17.50	-30.6	-31.3	23.7	0.00e+00	0	34	0	4390387712	32	6624
2026-01-06 20:31:43.02	249.99	17.39	-30.4	-31.0	23.8	0.00e+00	0	34	0	4397727744	32	6446
2026-01-06 20:31:44.03	249.88	17.29	-30.5	-31.2	23.7	0.00e+00	0	34	0	4405067776	32	6552
2026-01-06 20:31:45.04	249.77	17.18	-30.4	-31.1	23.8	0.00e+00	0	34	0	4412407808	32	6481
2026-01-06 20:31:46.05	249.66	17.08	-30.4	-31.0	23.8	0.00e+00	0	34	0	4419747840	32	6440
2026-01-06 20:31:47.06	249.55	16.98	-30.5	-31.1	23.7	0.00e+00	0	34	0	4427087872	32	6538
2026-01-06 20:31:48.07	249.44	16.87	-30.5	-31.1	23.7	0.00e+00	0	34	0	4434427904	32	6524
2026-01-06 20:31:49.08	249.33	16.77	-30.5	-31.2	23.7	0.00e+00	0	34	0	4441767936	32	6547
2026-01-06 20:31:50.09	249.23	16.67	-30.6	-31.3	23.6	0.00e+00	0	34	0	4449107968	32	6630
2026-01-06 20:31:51.10	249.12	16.57	-30.6	-31.3	23.6	0.00e+00	0	34	0	4455399424	32	6616
2026-01-06 20:31:52.11	249.02	16.46	-30.7	-31.3	23.6	0.00e+00	0	34	0	4462739456	32	6684
2026-01-06 20:31:53.12	248.91	16.36	-30.6	-31.3	23.7	0.00e+00	0	34	0	4471128064	32	6665
2026-01-06 20:31:54.13	248.81	16.26	-30.8	-31.5	23.6	0.00e+00	0	34	0	4477419520	34	6066
2026-01-06 20:31:55.14	248.70	16.16	-30.7	-31.4	23.6	0.00e+00	0	34	0	4484759552	34	5979
2026-01-06 20:31:56.15	248.60	16.06	-30.8	-31.4	23.6	0.00e+00	0	34	0	4492099584	34	6012
2026-01-06 20:31:57.16	248.50	15.96	-30.8	-31.5	23.6	0.00e+00	0	34	0	4499439616	34	6041
2026-01-06 20:31:58.17	248.40	15.86	-30.9	-31.5	23.6	0.00e+00	0	34	0	4506779648	34	6086
2026-01-06 20:31:59.18	248.30	15.76	-30.9	-31.6	23.5	0.00e+00	0	34	0	4514119680	34	6125
2026-01-06 20:32:00.19	248.20	15.66	-31.0	-31.7	23.5	0.00e+00	0	34	0	4521459712	34	6189
2026-01-06 20:32:01.20	248.10	15.56	-31.2	-31.9	23.4	0.00e+00	0	34	0	4528799744	34	6325
2026-01-06 20:32:02.21	248.00	15.46	-31.1	-31.8	23.4	0.00e+00	0	34	0	4536139776	34	6266
2026-01-06 20:32:03.22	247.90	15.37	-31.2	-31.9	23.4	0.00e+00	0	34	0	4543479808	34	6355
2026-01-06 20:32:04.23	247.81	15.27	-31.3	-32.0	23.3	0.00e+00	0	34	0	4550819840	34	6423
2026-01-06 20:32:05.24	247.71	15.17	-31.2	-31.9	23.3	0.00e+00	0	34	0	4558159872	34	6350
2026-01-06 20:32:06.25	247.61	15.07	-31.3	-31.9	23.3	0.00e+00	0	34	0	4565499904	34	6375
2026-01-06 20:32:07.26	247.52	14.98	-31.3	-32.0	23.3	0.00e+00	0	34	0	4572839936	34	6431
2026-01-06 20:32:08.27	247.42	14.88	-31.4	-32.1	23.2	0.00e+00	0	34	0	4580179968	34	6516
2026-01-06 20:32:09.28	247.33	14.78	-31.4	-32.0	23.2	0.00e+00	0	34	0	4587520000	34	6456
2026-01-06 20:32:10.29	247.24	14.69	-31.4	-32.1	23.3	0.00e+00	0	34	0	4594860032	34	6478
2026-01-06 20:32:11.30	247.14	14.59	-31.3	-32.0	23.3	0.00e+00	0	34	0	4601151488	34	6399
