passes_logs/2026/01/06/R4.6S_Anadyr/R4.6S_Anadyr__20260106_125317_NOAA_20_JPSS-1_rec.log

#Pass ID: 20260106_125317_NOAA 20 (JPSS-1)
#Satellite: NOAA 20 (JPSS-1)
#Configuration: NOAA 20
#almurnet v.1.7.20251203
#Start time: 2026-01-06 12:53:18

#Version: 2.2.20231116
#Station: R4.6S_Anadyr
#Location: 177.4865 lon 64.73178 lat
#TLE: 1 43013U 17073A   26005.46207808  .00000128  00000+0  81791-4 0  9997
#TLE: 2 43013  98.7627 306.5027 0001826  53.0458 307.0885 14.19533487421381

#Time	Az	El	Level	Level2	SNR	BER	BlckErr	Temp	State	Recorded	gain1	gain2
2026-01-06 12:53:18.34	18.77	0.05	-48.7	-63.6	3.5	1.51e+00	0	33	0	0	60	54616
2026-01-06 12:53:19.34	18.83	0.10	-48.8	-64.0	3.6	1.51e+00	0	34	104	0	60	57561
2026-01-06 12:53:20.35	18.88	0.16	-48.8	-64.0	3.6	1.51e+00	0	34	104	0	60	57340
2026-01-06 12:53:21.36	18.94	0.21	-48.8	-64.0	3.6	1.51e+00	0	34	104	0	60	57314
2026-01-06 12:53:22.37	19.00	0.27	-48.8	-63.9	3.6	1.51e+00	0	34	104	0	60	56895
2026-01-06 12:53:23.38	19.06	0.32	-48.8	-64.0	3.6	1.51e+00	0	34	104	0	60	57501
2026-01-06 12:53:24.39	19.13	0.37	-48.9	-64.1	3.6	1.51e+00	0	34	104	0	60	57774
2026-01-06 12:53:25.40	19.19	0.43	-48.9	-64.1	3.6	1.51e+00	0	34	104	0	60	57679
2026-01-06 12:53:26.41	19.25	0.48	-48.8	-64.1	3.6	1.51e+00	0	34	104	0	60	57872
2026-01-06 12:53:27.42	19.31	0.54	-48.8	-64.0	3.6	1.51e+00	0	34	104	0	60	56994
2026-01-06 12:53:28.43	19.37	0.59	-48.7	-63.9	3.6	1.51e+00	0	34	104	0	60	56616
2026-01-06 12:53:29.44	19.43	0.64	-48.6	-63.8	3.6	1.51e+00	0	35	104	0	60	56190
2026-01-06 12:53:30.45	19.49	0.70	-48.5	-63.7	3.6	1.51e+00	0	35	104	0	60	55144
2026-01-06 12:53:31.46	19.55	0.75	-48.3	-63.5	3.5	1.51e+00	0	34	104	0	60	53846
2026-01-06 12:53:32.47	19.62	0.81	-48.2	-63.4	3.6	1.51e+00	0	34	104	0	60	53281
2026-01-06 12:53:33.48	19.68	0.86	-47.9	-63.0	3.6	1.51e+00	0	35	104	0	60	51248
2026-01-06 12:53:34.49	19.74	0.92	-47.6	-62.7	3.6	1.51e+00	0	34	104	0	60	49295
2026-01-06 12:53:35.50	19.80	0.97	-47.3	-62.4	3.6	1.51e+00	0	35	104	0	60	47388
2026-01-06 12:53:36.51	19.87	1.03	-47.3	-62.4	3.6	1.51e+00	0	35	104	0	60	47545
2026-01-06 12:53:37.52	19.93	1.08	-47.3	-62.3	3.6	1.51e+00	0	34	104	0	60	47371
2026-01-06 12:53:38.53	19.99	1.14	-47.3	-62.4	3.6	1.51e+00	0	35	104	0	60	47751
2026-01-06 12:53:39.54	20.06	1.19	-47.3	-62.4	3.6	1.51e+00	0	35	104	0	60	47796
2026-01-06 12:53:40.55	20.12	1.25	-47.3	-62.5	3.6	1.51e+00	0	35	104	0	60	47929
2026-01-06 12:53:41.56	20.18	1.30	-47.3	-62.5	3.6	1.51e+00	0	35	104	0	60	47966
2026-01-06 12:53:42.57	20.25	1.36	-47.3	-62.5	3.6	1.51e+00	0	35	104	0	60	48138
2026-01-06 12:53:43.58	20.31	1.41	-47.3	-62.4	3.6	1.51e+00	0	35	104	0	60	47851
2026-01-06 12:53:44.59	20.38	1.47	-47.3	-62.4	3.6	1.51e+00	0	35	104	0	60	47825
2026-01-06 12:53:45.60	20.44	1.52	-47.3	-62.4	3.6	1.51e+00	0	35	104	0	60	47676
2026-01-06 12:53:46.61	20.51	1.58	-47.3	-62.3	3.6	1.51e+00	0	35	104	0	60	47315
2026-01-06 12:53:47.62	20.57	1.63	-47.3	-62.3	3.6	1.51e+00	0	35	104	0	60	47265
2026-01-06 12:53:48.63	20.64	1.69	-47.3	-62.2	3.6	1.51e+00	0	35	104	0	60	46618
2026-01-06 12:53:49.64	20.70	1.75	-47.3	-62.3	3.6	1.51e+00	0	35	104	0	60	47071
2026-01-06 12:53:50.65	20.77	1.80	-47.3	-62.3	3.5	1.51e+00	0	35	104	0	60	47268
2026-01-06 12:53:51.67	20.84	1.86	-47.3	-62.4	3.6	1.51e+00	0	35	104	0	60	47690
2026-01-06 12:53:52.68	20.90	1.91	-47.3	-62.4	3.6	1.51e+00	0	35	104	0	60	47847
2026-01-06 12:53:53.69	20.97	1.97	-47.3	-62.4	3.6	1.51e+00	0	35	104	0	60	47622
2026-01-06 12:53:54.70	21.04	2.03	-47.3	-62.4	3.6	1.51e+00	0	35	104	0	60	47804
2026-01-06 12:53:55.71	21.10	2.08	-47.3	-62.4	3.6	1.51e+00	0	35	104	0	60	47470
2026-01-06 12:53:56.72	21.17	2.14	-47.3	-62.2	3.6	1.51e+00	0	35	104	0	60	46498
2026-01-06 12:53:57.73	21.24	2.20	-47.2	-61.8	3.6	1.51e+00	0	35	104	0	60	44611
2026-01-06 12:53:58.74	21.31	2.25	-47.2	-61.2	3.6	1.51e+00	0	35	104	0	60	41280
2026-01-06 12:53:59.75	21.37	2.31	-47.2	-60.9	3.6	1.51e+00	0	35	104	0	60	39964
2026-01-06 12:54:00.76	21.44	2.37	-47.2	-61.6	3.6	1.51e+00	0	35	104	0	60	43337
2026-01-06 12:54:01.77	21.51	2.42	-47.3	-61.8	3.6	1.51e+00	0	35	104	0	60	44227
2026-01-06 12:54:02.78	21.58	2.48	-47.1	-59.1	3.7	1.51e+00	0	35	104	0	60	32489
2026-01-06 12:54:03.79	21.65	2.54	-46.6	-54.3	6.9	6.27e-01	69	35	0	0	60	18752
2026-01-06 12:54:04.80	21.72	2.59	-45.6	-50.2	11.0	8.90e-03	14	35	0	2097152	60	11732
2026-01-06 12:54:05.81	21.79	2.65	-44.2	-47.3	14.1	2.67e-05	68	35	0	3145728	60	8416
2026-01-06 12:54:06.82	21.86	2.71	-43.0	-45.4	16.2	0.00e+00	0	35	0	5242880	60	6716
2026-01-06 12:54:07.83	21.93	2.77	-42.1	-44.0	17.6	0.00e+00	68	35	0	7340032	58	6440
2026-01-06 12:54:08.84	22.00	2.82	-41.1	-42.7	18.7	0.00e+00	92	35	0	9437184	56	6237
2026-01-06 12:54:09.85	22.07	2.88	-40.6	-42.2	19.2	0.00e+00	2	35	0	11534336	54	6545
2026-01-06 12:54:10.86	22.14	2.94	-40.7	-42.2	19.1	0.00e+00	92	35	0	12582912	54	6563
2026-01-06 12:54:11.87	22.21	3.00	-41.2	-42.9	18.4	0.00e+00	13	35	0	14680064	54	7101
2026-01-06 12:54:12.88	22.28	3.05	-42.1	-44.1	17.3	0.00e+00	2	35	0	16777216	56	7274
2026-01-06 12:54:13.89	22.35	3.11	-43.2	-45.7	15.6	0.00e+00	12	35	0	18874368	58	7846
2026-01-06 12:54:14.90	22.43	3.17	-44.8	-48.6	12.4	1.83e-05	0	35	0	20971520	60	9770
2026-01-06 12:54:15.91	22.50	3.23	-46.1	-52.0	8.7	4.22e-03	91	35	0	22020096	60	14405
2026-01-06 12:54:16.92	22.57	3.29	-40.5	-42.0	19.4	4.91e-03	0	35	0	24117248	54	6432
2026-01-06 12:54:17.93	22.64	3.34	-47.1	-61.6	3.5	7.84e-01	0	35	104	26214400	60	43255
2026-01-06 12:54:18.94	22.72	3.40	-46.9	-55.7	4.2	1.33e+00	68	35	104	26214400	60	22147
2026-01-06 12:54:19.95	22.79	3.46	-44.8	-48.3	13.2	2.18e-01	0	35	0	26214400	60	9427
2026-01-06 12:54:20.96	22.86	3.52	-47.3	-60.8	3.6	1.28e+00	0	35	104	27262976	60	39611
2026-01-06 12:54:21.97	22.94	3.58	-45.2	-49.1	13.0	5.79e-01	69	35	0	27262976	60	10338
2026-01-06 12:54:22.98	23.01	3.64	-44.6	-48.0	13.4	1.14e-05	68	35	0	29360128	60	9082
2026-01-06 12:54:23.99	23.08	3.70	-44.9	-48.4	13.9	2.20e-06	69	35	0	30408704	60	9555
2026-01-06 12:54:25.00	23.16	3.75	-44.7	-48.0	13.8	7.60e-06	91	35	0	32505856	60	9079
2026-01-06 12:54:26.01	23.23	3.81	-44.6	-47.9	14.0	3.00e-06	64	35	0	34603008	60	8977
2026-01-06 12:54:27.01	23.31	3.87	-43.9	-46.6	15.0	0.00e+00	0	35	0	36700160	60	7747
2026-01-06 12:54:28.03	23.38	3.93	-43.8	-46.5	15.3	0.00e+00	12	35	0	38797312	60	7680
2026-01-06 12:54:29.04	23.46	3.99	-43.5	-45.9	15.8	7.00e-07	11	35	0	40894464	60	7165
2026-01-06 12:54:30.04	23.54	4.05	-42.6	-44.7	17.0	0.00e+00	64	35	0	41943040	58	6957
2026-01-06 12:54:31.05	23.61	4.11	-42.0	-43.8	17.9	0.00e+00	12	35	0	44040192	58	6297
2026-01-06 12:54:32.06	23.69	4.17	-41.8	-43.5	18.4	0.00e+00	92	35	0	46137344	56	6830
2026-01-06 12:54:33.07	23.76	4.23	-41.2	-42.8	18.9	0.00e+00	17	35	0	48234496	56	6275
2026-01-06 12:54:34.08	23.84	4.29	-41.0	-42.5	19.2	0.00e+00	92	35	0	50331648	56	6077
2026-01-06 12:54:35.09	23.92	4.35	-40.8	-42.3	19.4	0.00e+00	0	35	0	51380224	56	5932
2026-01-06 12:54:36.10	24.00	4.41	-40.7	-42.2	19.5	0.00e+00	2	35	0	53477376	54	6573
2026-01-06 12:54:37.11	24.08	4.47	-40.4	-41.8	19.9	0.00e+00	0	35	0	55574528	54	6251
2026-01-06 12:54:38.12	24.15	4.53	-40.2	-41.6	20.1	0.00e+00	0	35	0	57671680	54	6130
2026-01-06 12:54:39.13	24.23	4.59	-40.1	-41.5	20.1	0.00e+00	92	35	0	59768832	54	6037
2026-01-06 12:54:40.13	24.31	4.65	-40.1	-41.4	20.4	0.00e+00	0	35	0	60817408	54	5996
2026-01-06 12:54:41.14	24.39	4.71	-40.1	-41.4	20.3	0.00e+00	92	35	0	62914560	54	6015
2026-01-06 12:54:42.15	24.47	4.77	-40.1	-41.5	20.2	0.00e+00	0	35	0	65011712	54	6049
2026-01-06 12:54:43.16	24.55	4.83	-40.0	-41.3	20.4	0.00e+00	0	35	0	67108864	54	5923
2026-01-06 12:54:44.16	24.63	4.89	-40.1	-41.4	20.3	0.00e+00	0	35	0	69206016	54	6001
2026-01-06 12:54:45.17	24.71	4.95	-39.9	-41.2	20.6	0.00e+00	70	35	0	70254592	54	5836
2026-01-06 12:54:46.18	24.79	5.01	-40.0	-41.2	20.5	0.00e+00	0	35	0	72351744	54	5895
2026-01-06 12:54:47.19	24.87	5.07	-39.9	-41.2	20.5	0.00e+00	70	35	0	74448896	54	5866
2026-01-06 12:54:48.20	24.95	5.13	-39.9	-41.2	20.5	0.00e+00	92	35	0	76546048	54	5856
2026-01-06 12:54:49.21	25.03	5.19	-39.8	-41.0	20.7	0.00e+00	64	35	0	78643200	52	6441
2026-01-06 12:54:50.21	25.12	5.25	-39.7	-40.9	20.8	0.00e+00	0	35	0	79691776	52	6383
2026-01-06 12:54:51.22	25.20	5.31	-39.9	-41.1	20.7	0.00e+00	0	35	0	81788928	52	6501
2026-01-06 12:54:52.23	25.28	5.38	-39.7	-40.9	20.8	0.00e+00	11	35	0	83886080	52	6390
2026-01-06 12:54:53.24	25.36	5.44	-39.7	-40.9	20.9	0.00e+00	23	35	0	85983232	52	6368
2026-01-06 12:54:54.25	25.45	5.50	-39.7	-40.9	20.9	0.00e+00	10	35	0	88080384	52	6352
2026-01-06 12:54:55.26	25.53	5.56	-39.7	-40.9	20.9	0.00e+00	91	35	0	89128960	52	6338
2026-01-06 12:54:56.27	25.61	5.62	-39.7	-41.0	20.9	0.00e+00	0	35	0	91226112	52	6402
2026-01-06 12:54:57.28	25.70	5.68	-39.9	-41.1	20.8	0.00e+00	92	35	0	93323264	52	6501
2026-01-06 12:54:58.29	25.78	5.75	-39.7	-40.9	21.0	0.00e+00	2	35	0	95420416	52	6343
2026-01-06 12:54:59.30	25.87	5.81	-39.8	-41.1	20.8	0.00e+00	2	35	0	97517568	52	6465
2026-01-06 12:55:00.31	25.95	5.87	-39.7	-40.9	21.0	0.00e+00	0	35	0	98566144	52	6319
2026-01-06 12:55:01.32	26.04	5.93	-39.7	-40.9	21.0	0.00e+00	0	35	0	100663296	52	6329
2026-01-06 12:55:02.32	26.13	5.99	-39.7	-40.9	21.0	0.00e+00	92	35	0	102760448	52	6359
2026-01-06 12:55:03.33	26.21	6.06	-39.7	-40.9	20.9	0.00e+00	2	35	0	104857600	52	6330
2026-01-06 12:55:04.34	26.30	6.12	-39.9	-41.1	20.8	0.00e+00	92	35	0	106954752	52	6502
2026-01-06 12:55:05.35	26.39	6.18	-39.7	-40.9	20.9	0.00e+00	0	35	0	108003328	52	6378
2026-01-06 12:55:06.35	26.47	6.24	-39.7	-40.9	20.8	0.00e+00	2	35	0	110100480	52	6369
2026-01-06 12:55:07.36	26.56	6.31	-39.7	-40.9	20.8	0.00e+00	0	35	0	112197632	52	6374
2026-01-06 12:55:08.37	26.65	6.37	-39.8	-41.0	20.9	0.00e+00	0	35	0	114294784	52	6417
2026-01-06 12:55:09.38	26.74	6.43	-39.7	-40.9	21.0	0.00e+00	69	35	0	116391936	52	6323
2026-01-06 12:55:10.39	26.83	6.50	-39.6	-40.8	21.1	0.00e+00	68	35	0	117440512	52	6285
2026-01-06 12:55:11.40	26.92	6.56	-39.7	-40.9	21.0	0.00e+00	90	35	0	119537664	52	6324
2026-01-06 12:55:12.41	27.00	6.62	-39.7	-40.9	21.0	0.00e+00	65	35	0	121634816	52	6342
2026-01-06 12:55:13.42	27.09	6.69	-39.6	-40.7	21.2	0.00e+00	74	35	0	123731968	52	6244
2026-01-06 12:55:14.43	27.19	6.75	-39.7	-40.8	21.2	0.00e+00	0	35	0	125829120	52	6308
2026-01-06 12:55:15.44	27.28	6.81	-39.6	-40.8	21.2	0.00e+00	0	35	0	126877696	52	6262
2026-01-06 12:55:16.44	27.37	6.88	-39.6	-40.8	21.1	0.00e+00	18	35	0	128974848	52	6300
2026-01-06 12:55:17.46	27.46	6.94	-39.5	-40.7	21.2	0.00e+00	6	35	0	131072000	52	6213
2026-01-06 12:55:18.46	27.55	7.00	-39.6	-40.8	21.2	0.00e+00	92	35	0	133169152	52	6246
2026-01-06 12:55:19.47	27.64	7.07	-39.5	-40.6	21.3	0.00e+00	6	35	0	135266304	52	6138
2026-01-06 12:55:20.48	27.73	7.13	-39.5	-40.7	21.2	0.00e+00	92	35	0	137363456	52	6207
2026-01-06 12:55:21.49	27.83	7.20	-39.6	-40.7	21.3	0.00e+00	6	35	0	138412032	52	6236
2026-01-06 12:55:22.50	27.92	7.26	-39.7	-40.9	21.2	0.00e+00	0	35	0	140509184	52	6341
2026-01-06 12:55:23.51	28.01	7.32	-39.5	-40.7	21.3	0.00e+00	5	35	0	142606336	52	6176
2026-01-06 12:55:24.52	28.11	7.39	-39.4	-40.5	21.5	0.00e+00	0	35	0	144703488	52	6055
2026-01-06 12:55:25.53	28.20	7.45	-39.3	-40.5	21.4	0.00e+00	92	35	0	146800640	52	6053
2026-01-06 12:55:26.54	28.30	7.52	-39.3	-40.4	21.6	0.00e+00	6	35	0	147849216	52	5999
2026-01-06 12:55:27.55	28.39	7.58	-39.3	-40.4	21.5	0.00e+00	92	35	0	149946368	52	6033
2026-01-06 12:55:28.56	28.49	7.65	-39.2	-40.3	21.7	0.00e+00	64	35	0	152043520	52	5920
2026-01-06 12:55:29.57	28.59	7.71	-39.2	-40.3	21.7	0.00e+00	15	35	0	154140672	52	5957
2026-01-06 12:55:30.58	28.68	7.78	-39.1	-40.2	21.8	0.00e+00	64	35	0	156237824	52	5872
2026-01-06 12:55:31.59	28.78	7.84	-39.0	-40.1	21.9	0.00e+00	0	35	0	157286400	52	5772
2026-01-06 12:55:32.59	28.88	7.91	-39.1	-40.1	21.8	0.00e+00	0	35	0	159383552	52	5821
2026-01-06 12:55:33.61	28.98	7.97	-39.0	-40.1	22.0	0.00e+00	16	35	0	161480704	52	5782
2026-01-06 12:55:34.61	29.07	8.04	-39.0	-40.0	21.9	0.00e+00	91	35	0	163577856	52	5759
2026-01-06 12:55:35.62	29.17	8.10	-39.0	-40.0	22.0	0.00e+00	70	35	0	165675008	52	5744
2026-01-06 12:55:36.63	29.27	8.17	-39.0	-40.1	22.0	0.00e+00	91	35	0	166723584	52	5765
2026-01-06 12:55:37.64	29.37	8.24	-39.0	-40.1	21.9	0.00e+00	0	35	0	168820736	52	5795
2026-01-06 12:55:38.65	29.47	8.30	-39.0	-40.0	22.0	0.00e+00	6	35	0	170917888	52	5752
2026-01-06 12:55:39.66	29.57	8.37	-39.0	-40.1	21.9	0.00e+00	16	35	0	173015040	52	5799
2026-01-06 12:55:40.67	29.67	8.43	-39.0	-40.0	22.0	0.00e+00	6	35	0	175112192	52	5750
2026-01-06 12:55:41.68	29.77	8.50	-38.9	-40.0	22.0	0.00e+00	92	35	0	176160768	52	5727
2026-01-06 12:55:42.69	29.87	8.57	-39.1	-40.2	21.8	0.00e+00	7	35	0	178257920	52	5870
2026-01-06 12:55:43.70	29.98	8.63	-39.1	-40.2	21.7	0.00e+00	92	35	0	180355072	52	5880
2026-01-06 12:55:44.71	30.08	8.70	-39.4	-40.5	21.6	0.00e+00	6	35	0	182452224	52	6056
2026-01-06 12:55:45.72	30.18	8.77	-39.4	-40.5	21.6	0.00e+00	9	35	0	184549376	52	6076
2026-01-06 12:55:46.73	30.29	8.83	-39.5	-40.6	21.5	0.00e+00	5	35	0	185597952	52	6134
2026-01-06 12:55:47.74	30.39	8.90	-39.2	-40.3	21.8	0.00e+00	0	35	0	187695104	52	5913
2026-01-06 12:55:48.75	30.49	8.97	-39.2	-40.3	21.7	0.00e+00	90	35	0	189792256	52	5931
2026-01-06 12:55:49.76	30.60	9.03	-39.1	-40.2	21.7	0.00e+00	72	35	0	191889408	52	5884
2026-01-06 12:55:50.77	30.70	9.10	-39.0	-40.1	21.9	0.00e+00	92	35	0	193986560	52	5787
2026-01-06 12:55:51.78	30.81	9.17	-39.0	-40.1	21.8	0.00e+00	72	35	0	195035136	52	5772
2026-01-06 12:55:52.79	30.92	9.24	-39.0	-40.1	21.9	0.00e+00	66	35	0	197132288	52	5805
2026-01-06 12:55:53.80	31.02	9.30	-39.2	-40.3	21.7	0.00e+00	0	35	0	199229440	52	5903
2026-01-06 12:55:54.81	31.13	9.37	-39.1	-40.1	21.9	0.00e+00	16	35	0	201326592	52	5828
2026-01-06 12:55:55.81	31.24	9.44	-39.1	-40.2	21.9	0.00e+00	0	35	0	203423744	52	5840
2026-01-06 12:55:56.82	31.35	9.51	-39.1	-40.1	22.0	0.00e+00	10	35	0	205520896	52	5817
2026-01-06 12:55:57.83	31.45	9.57	-39.0	-40.1	22.0	0.00e+00	92	35	0	206569472	52	5775
2026-01-06 12:55:58.84	31.56	9.64	-39.1	-40.1	22.0	0.00e+00	72	35	0	208666624	52	5806
2026-01-06 12:55:59.85	31.67	9.71	-39.1	-40.2	22.0	0.00e+00	90	35	0	210763776	52	5840
2026-01-06 12:56:00.86	31.78	9.78	-39.1	-40.2	22.0	0.00e+00	0	35	0	212860928	52	5860
2026-01-06 12:56:01.87	31.89	9.85	-39.1	-40.1	22.0	0.00e+00	2	35	0	214958080	52	5822
2026-01-06 12:56:02.88	32.00	9.91	-39.0	-40.1	22.1	0.00e+00	16	35	0	216006656	52	5797
2026-01-06 12:56:03.89	32.12	9.98	-38.9	-40.0	22.2	0.00e+00	11	35	0	218103808	52	5722
2026-01-06 12:56:04.90	32.23	10.05	-38.9	-40.0	22.1	0.00e+00	92	35	0	220200960	52	5704
2026-01-06 12:56:05.91	32.34	10.12	-39.0	-40.0	22.1	0.00e+00	0	35	0	222298112	52	5735
2026-01-06 12:56:06.92	32.45	10.19	-38.9	-39.9	22.2	0.00e+00	92	35	0	224395264	52	5681
2026-01-06 12:56:07.93	32.57	10.26	-38.8	-39.8	22.3	0.00e+00	0	35	0	225443840	52	5614
2026-01-06 12:56:08.94	32.68	10.33	-38.7	-39.8	22.4	0.00e+00	0	35	0	227540992	50	6250
2026-01-06 12:56:09.95	32.80	10.40	-38.8	-39.8	22.3	0.00e+00	0	35	0	229638144	50	6267
2026-01-06 12:56:10.96	32.91	10.46	-38.8	-39.8	22.4	0.00e+00	0	35	0	231735296	50	6263
2026-01-06 12:56:11.96	33.03	10.53	-38.7	-39.7	22.5	0.00e+00	92	35	0	233832448	50	6245
2026-01-06 12:56:12.97	33.14	10.60	-38.6	-39.6	22.5	0.00e+00	72	35	0	234881024	50	6156
2026-01-06 12:56:13.98	33.26	10.67	-38.6	-39.6	22.5	0.00e+00	92	35	0	236978176	50	6167
2026-01-06 12:56:14.99	33.38	10.74	-38.6	-39.6	22.6	0.00e+00	72	35	0	239075328	50	6147
2026-01-06 12:56:15.99	33.49	10.81	-38.7	-39.7	22.4	0.00e+00	15	35	0	241172480	50	6203
2026-01-06 12:56:17.00	33.61	10.88	-38.5	-39.5	22.7	0.00e+00	15	35	0	243269632	50	6048
2026-01-06 12:56:18.01	33.73	10.95	-38.5	-39.5	22.6	0.00e+00	16	35	0	244318208	50	6091
2026-01-06 12:56:19.02	33.85	11.02	-38.4	-39.3	22.8	0.00e+00	5	35	0	246415360	50	5963
2026-01-06 12:56:20.02	33.97	11.09	-38.5	-39.4	22.7	0.00e+00	71	35	0	248512512	50	6028
2026-01-06 12:56:21.03	34.09	11.16	-38.2	-39.2	22.8	0.00e+00	92	35	0	250609664	50	5869
2026-01-06 12:56:22.04	34.21	11.23	-38.3	-39.3	22.9	0.00e+00	71	35	0	252706816	50	5908
2026-01-06 12:56:23.05	34.33	11.30	-38.2	-39.1	22.9	0.00e+00	92	35	0	253755392	50	5818
2026-01-06 12:56:24.06	34.45	11.37	-38.2	-39.2	23.0	0.00e+00	0	35	0	255852544	50	5835
2026-01-06 12:56:25.07	34.58	11.44	-38.1	-39.0	23.0	0.00e+00	0	35	0	257949696	50	5752
2026-01-06 12:56:26.08	34.70	11.51	-38.3	-39.2	22.8	0.00e+00	0	35	0	260046848	50	5885
2026-01-06 12:56:27.09	34.82	11.58	-38.1	-39.1	22.8	0.00e+00	0	35	0	262144000	50	5771
2026-01-06 12:56:28.10	34.95	11.65	-38.1	-39.1	23.1	0.00e+00	92	35	0	263192576	50	5762
2026-01-06 12:56:29.11	35.07	11.72	-38.1	-39.1	23.0	0.00e+00	0	35	0	265289728	50	5776
2026-01-06 12:56:30.12	35.20	11.79	-38.2	-39.2	23.0	0.00e+00	92	35	0	267386880	50	5833
2026-01-06 12:56:31.13	35.32	11.86	-38.2	-39.2	23.0	0.00e+00	0	35	0	269484032	50	5833
2026-01-06 12:56:32.14	35.45	11.94	-38.2	-39.2	22.9	0.00e+00	0	35	0	271581184	50	5838
2026-01-06 12:56:33.15	35.58	12.01	-38.2	-39.2	23.0	0.00e+00	0	35	0	272629760	50	5868
2026-01-06 12:56:34.16	35.71	12.08	-38.2	-39.2	23.0	0.00e+00	0	35	0	274726912	50	5849
2026-01-06 12:56:35.16	35.83	12.15	-38.1	-39.1	23.0	0.00e+00	73	35	0	276824064	50	5781
2026-01-06 12:56:36.18	35.96	12.22	-38.2	-39.1	23.0	0.00e+00	0	35	0	278921216	50	5815
2026-01-06 12:56:37.18	36.09	12.29	-38.3	-39.3	22.9	0.00e+00	90	35	0	281018368	50	5916
2026-01-06 12:56:38.19	36.22	12.36	-38.1	-39.0	23.1	0.00e+00	74	35	0	282066944	50	5755
2026-01-06 12:56:39.20	36.35	12.43	-38.1	-39.1	23.1	0.00e+00	90	35	0	284164096	50	5795
2026-01-06 12:56:40.21	36.49	12.51	-38.1	-39.0	23.1	0.00e+00	8	35	0	286261248	50	5761
2026-01-06 12:56:41.22	36.62	12.58	-38.0	-38.9	23.2	0.00e+00	11	35	0	288358400	50	5666
2026-01-06 12:56:42.23	36.75	12.65	-38.0	-39.0	23.2	0.00e+00	2	35	0	290455552	50	5709
2026-01-06 12:56:43.24	36.88	12.72	-37.9	-38.8	23.2	0.00e+00	0	35	0	291504128	50	5622
2026-01-06 12:56:44.25	37.02	12.79	-38.0	-39.0	23.1	0.00e+00	92	35	0	293601280	50	5712
2026-01-06 12:56:45.26	37.15	12.87	-38.2	-39.1	23.1	0.00e+00	0	35	0	295698432	50	5791
2026-01-06 12:56:46.27	37.29	12.94	-37.9	-38.9	23.2	0.00e+00	90	35	0	297795584	50	5644
2026-01-06 12:56:47.28	37.42	13.01	-38.1	-39.1	23.2	0.00e+00	0	35	0	299892736	50	5779
2026-01-06 12:56:48.29	37.56	13.08	-38.0	-39.0	23.2	0.00e+00	0	36	0	301989888	50	5706
2026-01-06 12:56:49.30	37.70	13.15	-37.9	-38.8	23.4	0.00e+00	0	35	0	303038464	50	5596
2026-01-06 12:56:50.31	37.84	13.23	-37.9	-38.9	23.3	0.00e+00	2	35	0	305135616	50	5632
2026-01-06 12:56:51.32	37.97	13.30	-37.8	-38.7	23.4	0.00e+00	92	35	0	307232768	50	5566
2026-01-06 12:56:52.33	38.11	13.37	-37.9	-38.9	23.2	0.00e+00	0	35	0	309329920	50	5634
2026-01-06 12:56:53.34	38.25	13.44	-37.9	-38.8	23.3	0.00e+00	91	35	0	311427072	50	5615
2026-01-06 12:56:54.35	38.39	13.52	-38.0	-38.9	22.6	0.00e+00	71	36	0	312475648	50	5639
2026-01-06 12:56:55.36	38.54	13.59	-38.0	-38.9	22.8	0.00e+00	71	36	0	314572800	50	5648
2026-01-06 12:56:56.37	38.68	13.66	-37.9	-38.8	23.2	0.00e+00	0	36	0	316669952	50	5612
2026-01-06 12:56:57.38	38.82	13.74	-38.0	-38.9	23.2	0.00e+00	0	35	0	318767104	50	5660
2026-01-06 12:56:58.39	38.96	13.81	-37.9	-38.8	23.3	0.00e+00	0	35	0	320864256	50	5599
2026-01-06 12:56:59.40	39.11	13.88	-37.8	-38.7	23.5	0.00e+00	0	35	0	321912832	50	5542
2026-01-06 12:57:00.41	39.25	13.95	-37.8	-38.7	23.4	0.00e+00	92	35	0	324009984	48	6207
2026-01-06 12:57:01.41	39.40	14.03	-37.7	-38.7	23.5	0.00e+00	10	35	0	326107136	48	6177
2026-01-06 12:57:02.43	39.54	14.10	-37.8	-38.7	23.5	0.00e+00	65	35	0	328204288	48	6207
2026-01-06 12:57:03.43	39.69	14.17	-37.7	-38.6	23.5	0.00e+00	72	35	0	330301440	48	6160
2026-01-06 12:57:04.44	39.84	14.25	-37.7	-38.6	23.5	0.00e+00	8	35	0	331350016	48	6143
2026-01-06 12:57:05.45	39.98	14.32	-37.7	-38.6	23.5	0.00e+00	24	35	0	333447168	48	6151
2026-01-06 12:57:06.46	40.13	14.39	-37.7	-38.6	23.5	0.00e+00	0	35	0	335544320	48	6147
2026-01-06 12:57:07.47	40.28	14.47	-37.7	-38.6	23.5	0.00e+00	92	35	0	337641472	48	6172
2026-01-06 12:57:08.48	40.43	14.54	-37.6	-38.5	23.7	0.00e+00	5	35	0	339738624	48	6075
2026-01-06 12:57:09.49	40.58	14.61	-37.6	-38.5	23.6	0.00e+00	90	35	0	340787200	48	6076
2026-01-06 12:57:10.50	40.73	14.69	-37.6	-38.5	23.7	0.00e+00	6	36	0	342884352	48	6043
2026-01-06 12:57:11.51	40.89	14.76	-37.6	-38.5	23.6	0.00e+00	5	35	0	344981504	48	6070
2026-01-06 12:57:12.52	41.04	14.83	-37.5	-38.4	23.7	0.00e+00	5	35	0	347078656	48	6019
2026-01-06 12:57:13.53	41.19	14.91	-37.5	-38.4	23.8	0.00e+00	0	35	0	349175808	48	5982
2026-01-06 12:57:14.53	41.35	14.98	-37.5	-38.4	23.8	0.00e+00	52	36	0	350224384	48	5971
2026-01-06 12:57:15.54	41.50	15.05	-37.5	-38.3	23.8	0.00e+00	5	35	0	352321536	48	5960
2026-01-06 12:57:16.55	41.66	15.13	-37.5	-38.4	23.7	0.00e+00	92	35	0	354418688	48	5998
2026-01-06 12:57:17.56	41.82	15.20	-37.6	-38.4	23.7	0.00e+00	73	36	0	356515840	48	6031
2026-01-06 12:57:18.57	41.97	15.28	-37.6	-38.5	23.6	0.00e+00	73	35	0	358612992	48	6081
2026-01-06 12:57:19.58	42.13	15.35	-37.5	-38.4	23.7	0.00e+00	0	36	0	359661568	48	6018
2026-01-06 12:57:20.59	42.29	15.42	-37.5	-38.4	23.7	0.00e+00	73	35	0	361758720	48	6000
2026-01-06 12:57:21.60	42.45	15.50	-37.6	-38.5	23.6	0.00e+00	0	36	0	363855872	48	6071
2026-01-06 12:57:22.61	42.61	15.57	-37.7	-38.6	23.5	0.00e+00	13	35	0	365953024	48	6140
2026-01-06 12:57:23.62	42.77	15.65	-37.8	-38.7	23.5	0.00e+00	92	35	0	368050176	48	6190
2026-01-06 12:57:24.63	42.93	15.72	-37.7	-38.6	23.6	0.00e+00	73	35	0	370147328	48	6172
2026-01-06 12:57:25.64	43.10	15.79	-37.8	-38.7	23.5	0.00e+00	83	35	0	371195904	48	6239
2026-01-06 12:57:26.65	43.26	15.87	-37.8	-38.7	23.5	0.00e+00	15	36	0	373293056	48	6229
2026-01-06 12:57:27.66	43.43	15.94	-37.8	-38.7	23.3	0.00e+00	6	36	0	375390208	48	6245
2026-01-06 12:57:28.67	43.59	16.01	-37.8	-38.7	23.4	0.00e+00	0	35	0	377487360	48	6219
2026-01-06 12:57:29.68	43.76	16.09	-37.7	-38.6	23.6	0.00e+00	7	35	0	379584512	48	6132
2026-01-06 12:57:30.69	43.92	16.16	-37.8	-38.7	23.6	0.00e+00	92	36	0	380633088	48	6194
2026-01-06 12:57:31.70	44.09	16.24	-37.7	-38.6	23.5	0.00e+00	7	35	0	382730240	48	6167
2026-01-06 12:57:32.70	44.26	16.31	-37.8	-38.7	23.6	0.00e+00	92	35	0	384827392	48	6179
2026-01-06 12:57:33.72	44.43	16.38	-37.9	-38.8	23.3	0.00e+00	0	35	0	386924544	48	6289
2026-01-06 12:57:34.73	44.60	16.46	-37.8	-38.8	23.5	0.00e+00	6	35	0	389021696	48	6249
2026-01-06 12:57:35.74	44.77	16.53	-37.9	-38.8	23.5	0.00e+00	0	35	0	390070272	48	6282
2026-01-06 12:57:36.75	44.94	16.61	-37.8	-38.7	23.6	0.00e+00	0	35	0	392167424	48	6174
2026-01-06 12:57:37.76	45.11	16.68	-37.7	-38.6	23.6	0.00e+00	92	35	0	394264576	48	6144
2026-01-06 12:57:38.76	45.29	16.75	-37.6	-38.4	23.8	0.00e+00	0	35	0	396361728	48	6025
2026-01-06 12:57:39.77	45.46	16.83	-37.4	-38.3	23.8	0.00e+00	92	35	0	398458880	48	5907
2026-01-06 12:57:40.78	45.64	16.90	-37.5	-38.4	23.7	0.00e+00	67	35	0	399507456	48	5990
2026-01-06 12:57:41.79	45.81	16.97	-37.4	-38.3	23.9	0.00e+00	69	36	0	401604608	48	5899
2026-01-06 12:57:42.80	45.99	17.05	-37.3	-38.2	23.9	0.00e+00	14	35	0	403701760	48	5864
2026-01-06 12:57:43.81	46.17	17.12	-37.4	-38.3	23.9	0.00e+00	67	35	0	405798912	48	5915
2026-01-06 12:57:44.82	46.34	17.20	-37.4	-38.2	23.9	0.00e+00	58	35	0	407896064	48	5878
2026-01-06 12:57:45.83	46.52	17.27	-37.4	-38.3	23.9	0.00e+00	10	35	0	408944640	48	5914
2026-01-06 12:57:46.84	46.70	17.34	-37.4	-38.2	23.9	0.00e+00	92	35	0	411041792	48	5878
2026-01-06 12:57:47.85	46.89	17.42	-37.3	-38.2	24.0	0.00e+00	0	35	0	413138944	48	5843
2026-01-06 12:57:48.86	47.07	17.49	-37.2	-38.1	24.1	0.00e+00	92	35	0	415236096	48	5763
2026-01-06 12:57:49.87	47.25	17.56	-37.1	-38.0	24.2	0.00e+00	8	35	0	417333248	48	5725
2026-01-06 12:57:50.88	47.43	17.64	-37.0	-37.8	24.3	0.00e+00	0	35	0	418381824	48	5603
2026-01-06 12:57:51.89	47.62	17.71	-37.0	-37.9	24.2	0.00e+00	8	35	0	420478976	48	5649
2026-01-06 12:57:52.90	47.80	17.78	-36.8	-37.7	24.4	0.00e+00	0	35	0	422576128	48	5514
2026-01-06 12:57:53.91	47.99	17.86	-36.9	-37.7	24.4	0.00e+00	92	35	0	424673280	48	5554
2026-01-06 12:57:54.92	48.18	17.93	-36.9	-37.8	24.2	0.00e+00	0	35	0	426770432	48	5584
2026-01-06 12:57:55.93	48.36	18.00	-37.0	-37.8	24.3	0.00e+00	92	35	0	427819008	48	5599
2026-01-06 12:57:56.93	48.55	18.08	-37.0	-37.8	24.3	0.00e+00	0	35	0	429916160	48	5618
2026-01-06 12:57:57.94	48.74	18.15	-37.0	-37.8	24.2	0.00e+00	0	35	0	432013312	48	5606
2026-01-06 12:57:58.95	48.93	18.22	-37.0	-37.8	24.3	0.00e+00	0	35	0	434110464	48	5602
2026-01-06 12:57:59.96	49.12	18.29	-37.1	-37.9	24.2	0.00e+00	73	35	0	436207616	48	5663
2026-01-06 12:58:00.97	49.32	18.37	-36.9	-37.8	24.3	0.00e+00	45	35	0	438304768	48	5573
2026-01-06 12:58:01.98	49.51	18.44	-36.9	-37.7	24.4	0.00e+00	72	35	0	439353344	48	5556
2026-01-06 12:58:02.99	49.70	18.51	-36.8	-37.7	24.5	0.00e+00	92	36	0	441450496	48	5511
2026-01-06 12:58:04.00	49.90	18.58	-36.7	-37.5	24.5	0.00e+00	8	35	0	443547648	46	6085
2026-01-06 12:58:05.01	50.09	18.66	-36.7	-37.6	24.5	0.00e+00	8	36	0	445644800	46	6109
2026-01-06 12:58:06.02	50.29	18.73	-36.8	-37.6	24.5	0.00e+00	73	35	0	447741952	46	6141
2026-01-06 12:58:07.02	50.49	18.80	-36.7	-37.5	24.6	0.00e+00	68	36	0	448790528	46	6071
2026-01-06 12:58:08.03	50.69	18.87	-36.7	-37.5	24.5	0.00e+00	49	35	0	450887680	46	6098
2026-01-06 12:58:09.05	50.89	18.94	-36.7	-37.6	24.6	0.00e+00	67	36	0	452984832	46	6108
2026-01-06 12:58:10.05	51.09	19.01	-36.9	-37.7	24.5	0.00e+00	92	36	0	455081984	46	6223
2026-01-06 12:58:11.07	51.29	19.09	-36.8	-37.6	24.4	0.00e+00	2	35	0	457179136	46	6157
2026-01-06 12:58:12.07	51.49	19.16	-36.7	-37.5	24.5	0.00e+00	91	35	0	458227712	46	6083
2026-01-06 12:58:13.08	51.69	19.23	-36.7	-37.6	24.5	0.00e+00	2	36	0	460324864	46	6119
2026-01-06 12:58:14.09	51.90	19.30	-36.7	-37.5	24.5	0.00e+00	0	35	0	462422016	46	6083
2026-01-06 12:58:15.10	52.10	19.37	-36.8	-37.6	24.4	0.00e+00	0	36	0	464519168	46	6162
2026-01-06 12:58:16.11	52.31	19.44	-36.8	-37.6	24.5	0.00e+00	2	35	0	466616320	46	6146
2026-01-06 12:58:17.12	52.52	19.51	-36.9	-37.7	24.4	0.00e+00	92	36	0	467664896	46	6212
2026-01-06 12:58:18.13	52.72	19.58	-36.9	-37.7	24.4	0.00e+00	0	36	0	469762048	46	6227
2026-01-06 12:58:19.14	52.93	19.65	-36.9	-37.8	24.3	0.00e+00	92	36	0	471859200	46	6272
2026-01-06 12:58:20.15	53.14	19.72	-37.0	-37.8	24.4	0.00e+00	0	36	0	473956352	46	6291
2026-01-06 12:58:21.15	53.35	19.79	-36.9	-37.7	24.4	0.00e+00	73	35	0	476053504	46	6207
2026-01-06 12:58:22.16	53.56	19.86	-36.9	-37.7	24.4	0.00e+00	73	36	0	477102080	46	6210
2026-01-06 12:58:23.17	53.78	19.93	-36.8	-37.7	24.5	0.00e+00	0	36	0	479199232	46	6185
2026-01-06 12:58:24.18	53.99	20.00	-36.8	-37.6	24.4	0.00e+00	92	36	0	481296384	46	6158
2026-01-06 12:58:25.19	54.20	20.07	-36.9	-37.7	24.4	0.00e+00	74	36	0	483393536	46	6232
2026-01-06 12:58:26.20	54.42	20.14	-36.9	-37.8	24.3	0.00e+00	91	35	0	485490688	46	6258
2026-01-06 12:58:27.21	54.64	20.21	-37.1	-37.9	24.2	0.00e+00	0	36	0	486539264	46	6388
2026-01-06 12:58:28.22	54.85	20.28	-37.3	-38.1	24.0	0.00e+00	47	35	0	488636416	46	6528
2026-01-06 12:58:29.23	55.07	20.34	-37.4	-38.3	24.0	0.00e+00	5	35	0	490733568	46	6639
2026-01-06 12:58:30.24	55.29	20.41	-37.5	-38.4	23.8	0.00e+00	5	35	0	492830720	46	6758
2026-01-06 12:58:31.25	55.51	20.48	-37.6	-38.5	23.8	0.00e+00	88	35	0	494927872	46	6777
2026-01-06 12:58:32.26	55.73	20.55	-37.7	-38.6	23.7	0.00e+00	5	35	0	495976448	46	6854
2026-01-06 12:58:33.27	55.96	20.62	-37.8	-38.7	23.5	0.00e+00	92	36	0	498073600	48	6185
2026-01-06 12:58:34.28	56.18	20.68	-37.8	-38.7	23.7	0.00e+00	0	35	0	500170752	48	6187
2026-01-06 12:58:35.28	56.40	20.75	-37.7	-38.6	23.7	0.00e+00	0	35	0	502267904	48	6106
2026-01-06 12:58:36.29	56.63	20.82	-37.6	-38.5	23.8	0.00e+00	8	36	0	504365056	48	6068
2026-01-06 12:58:37.30	56.85	20.88	-37.8	-38.7	23.6	0.00e+00	0	36	0	506462208	48	6186
2026-01-06 12:58:38.31	57.08	20.95	-37.8	-38.7	23.5	0.00e+00	0	35	0	507510784	48	6242
2026-01-06 12:58:39.32	57.31	21.01	-38.0	-38.9	23.1	0.00e+00	0	35	0	509607936	48	6363
2026-01-06 12:58:40.33	57.53	21.08	-38.1	-39.0	23.2	0.00e+00	90	35	0	511705088	48	6450
2026-01-06 12:58:41.34	57.76	21.14	-38.3	-39.3	23.0	0.00e+00	0	36	0	513802240	48	6616
2026-01-06 12:58:42.35	58.00	21.21	-38.4	-39.5	22.9	0.00e+00	92	36	0	514850816	48	6771
2026-01-06 12:58:43.35	58.22	21.27	-38.5	-39.5	22.9	0.00e+00	0	36	0	516947968	48	6771
2026-01-06 12:58:44.36	58.46	21.34	-38.5	-39.4	22.9	0.00e+00	0	36	0	519045120	48	6748
2026-01-06 12:58:45.37	58.69	21.40	-38.5	-39.5	22.9	0.00e+00	0	35	0	521142272	48	6793
2026-01-06 12:58:46.38	58.93	21.47	-38.2	-39.2	23.2	0.00e+00	0	35	0	523239424	48	6544
2026-01-06 12:58:47.40	59.16	21.53	-38.2	-39.1	23.2	0.00e+00	74	36	0	524288000	48	6531
2026-01-06 12:58:48.40	59.40	21.59	-38.0	-38.9	23.4	0.00e+00	74	36	0	526385152	48	6368
2026-01-06 12:58:49.41	59.64	21.66	-37.8	-38.7	23.7	0.00e+00	92	36	0	528482304	48	6223
2026-01-06 12:58:50.42	59.87	21.72	-37.5	-38.4	23.9	0.00e+00	0	36	0	530579456	48	5981
2026-01-06 12:58:51.43	60.11	21.78	-37.7	-38.6	23.7	0.00e+00	0	36	0	532676608	48	6142
2026-01-06 12:58:52.44	60.35	21.84	-37.6	-38.5	23.6	0.00e+00	8	36	0	534773760	48	6046
2026-01-06 12:58:53.45	60.59	21.90	-37.5	-38.4	23.8	0.00e+00	6	36	0	535822336	48	5968
2026-01-06 12:58:54.46	60.84	21.96	-37.7	-38.6	23.7	0.00e+00	30	36	0	537919488	48	6112
2026-01-06 12:58:55.47	61.08	22.02	-37.6	-38.5	23.7	0.00e+00	5	36	0	540016640	48	6095
2026-01-06 12:58:56.48	61.32	22.09	-37.7	-38.6	23.7	0.00e+00	92	36	0	542113792	48	6113
2026-01-06 12:58:57.49	61.57	22.15	-37.7	-38.6	23.7	0.00e+00	5	36	0	544210944	48	6141
2026-01-06 12:58:58.50	61.81	22.20	-37.7	-38.6	23.7	0.00e+00	0	36	0	545259520	48	6113
2026-01-06 12:58:59.51	62.06	22.26	-37.7	-38.6	23.7	0.00e+00	0	36	0	547356672	48	6137
2026-01-06 12:59:00.52	62.31	22.32	-37.7	-38.6	23.7	0.00e+00	0	36	0	549453824	48	6119
2026-01-06 12:59:01.53	62.56	22.38	-37.9	-38.8	23.6	0.00e+00	5	36	0	551550976	48	6264
2026-01-06 12:59:02.54	62.81	22.44	-37.8	-38.7	23.6	0.00e+00	0	36	0	553648128	48	6214
2026-01-06 12:59:03.55	63.06	22.50	-37.8	-38.7	23.7	0.00e+00	92	36	0	554696704	48	6184
2026-01-06 12:59:04.56	63.31	22.55	-37.6	-38.5	23.6	0.00e+00	0	36	0	556793856	48	6089
2026-01-06 12:59:05.57	63.56	22.61	-37.7	-38.6	23.7	0.00e+00	92	36	0	558891008	48	6115
2026-01-06 12:59:06.58	63.81	22.67	-37.9	-38.8	23.5	0.00e+00	0	36	0	560988160	48	6271
2026-01-06 12:59:07.59	64.07	22.72	-38.0	-38.9	23.4	0.00e+00	69	36	0	563085312	48	6334
2026-01-06 12:59:08.60	64.32	22.78	-38.3	-39.3	23.1	0.00e+00	69	36	0	564133888	48	6622
2026-01-06 12:59:09.61	64.58	22.83	-38.5	-39.5	23.0	0.00e+00	17	36	0	566231040	48	6775
2026-01-06 12:59:10.62	64.83	22.89	-38.6	-39.6	22.8	0.00e+00	90	36	0	568328192	48	6902
2026-01-06 12:59:11.63	65.09	22.94	-38.8	-39.7	22.7	0.00e+00	67	36	0	570425344	50	6241
2026-01-06 12:59:12.64	65.35	22.99	-38.8	-39.8	22.6	0.00e+00	92	36	0	572522496	50	6256
2026-01-06 12:59:13.65	65.61	23.05	-38.7	-39.7	22.8	0.00e+00	0	35	0	573571072	50	6193
2026-01-06 12:59:14.66	65.87	23.10	-38.6	-39.5	22.8	0.00e+00	13	36	0	575668224	50	6095
2026-01-06 12:59:15.67	66.13	23.15	-38.3	-39.3	22.5	0.00e+00	16	36	0	577765376	50	5908
2026-01-06 12:59:16.68	66.39	23.20	-38.3	-39.2	23.0	0.00e+00	13	36	0	579862528	50	5876
2026-01-06 12:59:17.68	66.65	23.25	-38.2	-39.2	23.2	0.00e+00	19	36	0	581959680	50	5846
2026-01-06 12:59:18.69	66.92	23.30	-38.0	-38.9	23.3	0.00e+00	7	36	0	583008256	50	5667
2026-01-06 12:59:19.70	67.18	23.35	-38.0	-39.0	23.3	0.00e+00	92	36	0	585105408	50	5698
2026-01-06 12:59:20.71	67.45	23.40	-38.0	-38.9	23.4	0.00e+00	7	36	0	587202560	50	5658
2026-01-06 12:59:21.72	67.71	23.45	-38.2	-39.1	23.3	0.00e+00	92	36	0	589299712	50	5792
2026-01-06 12:59:22.73	67.98	23.50	-38.4	-39.4	23.1	0.00e+00	6	36	0	591396864	50	5973
2026-01-06 12:59:23.74	68.25	23.55	-38.4	-39.3	23.1	0.00e+00	6	36	0	592445440	50	5958
2026-01-06 12:59:24.75	68.52	23.60	-38.5	-39.5	22.9	0.00e+00	0	36	0	594542592	50	6073
2026-01-06 12:59:25.76	68.78	23.64	-38.6	-39.5	23.0	0.00e+00	0	36	0	596639744	50	6079
2026-01-06 12:59:26.77	69.06	23.69	-38.5	-39.4	23.0	0.00e+00	92	36	0	598736896	50	6023
2026-01-06 12:59:27.78	69.33	23.73	-38.3	-39.3	23.0	0.00e+00	0	35	0	600834048	50	5925
2026-01-06 12:59:28.79	69.60	23.78	-38.3	-39.3	23.1	0.00e+00	92	35	0	602931200	50	5922
2026-01-06 12:59:29.79	69.87	23.82	-38.3	-39.3	23.1	0.00e+00	74	36	0	603979776	50	5927
2026-01-06 12:59:30.80	70.14	23.87	-38.4	-39.4	23.1	0.00e+00	7	36	0	606076928	50	5981
2026-01-06 12:59:31.81	70.41	23.91	-38.5	-39.5	22.9	0.00e+00	8	35	0	608174080	50	6043
2026-01-06 12:59:32.82	70.69	23.95	-38.8	-39.8	22.7	0.00e+00	6	36	0	610271232	50	6255
2026-01-06 12:59:33.83	70.96	24.00	-38.8	-39.8	22.6	0.00e+00	69	36	0	612368384	50	6290
2026-01-06 12:59:34.84	71.24	24.04	-39.0	-40.0	22.5	0.00e+00	6	36	0	613416960	50	6427
2026-01-06 12:59:35.85	71.52	24.08	-39.2	-40.2	22.3	0.00e+00	92	36	0	615514112	50	6599
2026-01-06 12:59:36.86	71.79	24.12	-39.4	-40.4	22.0	0.00e+00	0	36	0	617611264	50	6759
2026-01-06 12:59:37.87	72.07	24.16	-39.3	-40.3	22.1	0.00e+00	25	36	0	619708416	50	6678
2026-01-06 12:59:38.87	72.35	24.20	-39.2	-40.3	22.3	0.00e+00	11	36	0	621805568	50	6616
2026-01-06 12:59:39.88	72.63	24.23	-39.0	-40.0	22.4	0.00e+00	2	35	0	622854144	50	6446
2026-01-06 12:59:40.89	72.91	24.27	-38.9	-39.9	22.6	0.00e+00	12	35	0	624951296	50	6338
2026-01-06 12:59:41.90	73.19	24.31	-38.7	-39.7	22.8	0.00e+00	0	35	0	627048448	50	6228
2026-01-06 12:59:42.91	73.47	24.35	-38.7	-39.7	22.7	0.00e+00	92	36	0	629145600	50	6229
2026-01-06 12:59:43.91	73.75	24.38	-38.8	-39.8	22.7	0.00e+00	0	35	0	631242752	50	6251
2026-01-06 12:59:44.92	74.03	24.42	-38.8	-39.8	22.6	0.00e+00	92	35	0	632291328	50	6307
2026-01-06 12:59:45.93	74.32	24.45	-38.8	-39.9	22.6	0.00e+00	0	36	0	634388480	50	6328
2026-01-06 12:59:46.94	74.60	24.48	-38.9	-40.0	22.4	0.00e+00	0	36	0	636485632	50	6429
2026-01-06 12:59:47.95	74.89	24.52	-38.9	-39.9	22.5	0.00e+00	0	36	0	638582784	50	6356
2026-01-06 12:59:48.96	75.17	24.55	-38.7	-39.8	22.7	0.00e+00	75	36	0	640679936	50	6248
2026-01-06 12:59:49.97	75.46	24.58	-38.6	-39.6	22.9	0.00e+00	90	36	0	641728512	50	6173
2026-01-06 12:59:50.98	75.74	24.61	-38.5	-39.5	23.0	0.00e+00	0	35	0	643825664	50	6095
2026-01-06 12:59:51.99	76.03	24.64	-38.3	-39.2	23.1	0.00e+00	92	36	0	645922816	50	5891
2026-01-06 12:59:53.00	76.32	24.67	-37.9	-38.8	23.5	0.00e+00	0	35	0	648019968	50	5628
2026-01-06 12:59:54.00	76.60	24.70	-38.1	-39.0	23.4	0.00e+00	7	36	0	650117120	50	5726
2026-01-06 12:59:55.01	76.89	24.73	-37.9	-38.8	23.6	0.00e+00	3	36	0	651165696	50	5594
2026-01-06 12:59:56.02	77.18	24.76	-38.0	-38.9	23.5	0.00e+00	7	36	0	653262848	50	5662
2026-01-06 12:59:57.03	77.47	24.78	-37.9	-38.8	23.5	0.00e+00	38	35	0	655360000	50	5619
2026-01-06 12:59:58.04	77.76	24.81	-37.9	-38.8	23.4	0.00e+00	6	36	0	657457152	50	5623
2026-01-06 12:59:59.05	78.05	24.83	-37.9	-38.8	23.5	0.00e+00	92	36	0	659554304	50	5619
2026-01-06 13:00:00.05	78.34	24.86	-38.0	-38.9	23.3	0.00e+00	0	36	0	660602880	50	5693
2026-01-06 13:00:01.06	78.63	24.88	-37.9	-38.8	23.6	0.00e+00	92	36	0	662700032	50	5570
2026-01-06 13:00:02.07	78.92	24.90	-37.9	-38.9	23.4	0.00e+00	7	35	0	664797184	50	5632
2026-01-06 13:00:03.08	79.21	24.93	-37.6	-38.5	23.8	0.00e+00	0	36	0	666894336	48	6073
2026-01-06 13:00:04.09	79.51	24.95	-37.6	-38.4	23.9	0.00e+00	0	36	0	668991488	48	6008
2026-01-06 13:00:05.10	79.80	24.97	-37.6	-38.5	23.8	0.00e+00	7	35	0	670040064	48	6058
2026-01-06 13:00:06.11	80.09	24.99	-37.8	-38.7	23.6	0.00e+00	92	36	0	672137216	48	6187
2026-01-06 13:00:07.12	80.39	25.01	-38.0	-38.9	23.2	0.00e+00	2	36	0	674234368	48	6365
2026-01-06 13:00:08.13	80.68	25.03	-38.3	-39.2	23.1	0.00e+00	92	36	0	676331520	48	6597
2026-01-06 13:00:09.14	80.97	25.04	-38.6	-39.6	22.9	0.00e+00	0	36	0	678428672	48	6916
2026-01-06 13:00:10.15	81.27	25.06	-38.8	-39.8	22.6	0.00e+00	0	36	0	679477248	50	6286
2026-01-06 13:00:11.16	81.56	25.08	-38.9	-39.9	22.6	0.00e+00	0	36	0	681574400	50	6345
2026-01-06 13:00:12.16	81.86	25.09	-38.6	-39.6	22.9	0.00e+00	0	36	0	683671552	50	6144
2026-01-06 13:00:13.17	82.15	25.11	-38.3	-39.3	23.0	0.00e+00	92	36	0	685768704	50	5924
2026-01-06 13:00:14.18	82.45	25.12	-38.1	-39.0	23.4	0.00e+00	0	36	0	687865856	50	5750
2026-01-06 13:00:15.19	82.74	25.13	-37.9	-38.8	23.5	0.00e+00	92	35	0	688914432	50	5627
2026-01-06 13:00:16.20	83.04	25.15	-37.7	-38.6	23.8	0.00e+00	75	36	0	691011584	48	6147
2026-01-06 13:00:17.21	83.34	25.16	-37.8	-38.7	23.5	0.00e+00	75	36	0	693108736	48	6208
2026-01-06 13:00:18.22	83.63	25.17	-37.7	-38.6	23.7	0.00e+00	0	36	0	695205888	48	6160
2026-01-06 13:00:19.23	83.93	25.18	-37.9	-38.8	23.6	0.00e+00	0	35	0	697303040	48	6265
2026-01-06 13:00:20.24	84.23	25.19	-37.9	-38.8	23.3	0.00e+00	53	35	0	699400192	48	6292
2026-01-06 13:00:21.25	84.52	25.19	-38.0	-39.0	23.4	0.00e+00	75	36	0	700448768	48	6395
2026-01-06 13:00:22.26	84.82	25.20	-38.1	-39.0	23.4	0.00e+00	92	36	0	702545920	48	6433
2026-01-06 13:00:23.27	85.12	25.21	-38.1	-39.0	23.4	0.00e+00	2	35	0	704643072	48	6413
2026-01-06 13:00:24.28	85.42	25.21	-37.8	-38.7	23.5	0.00e+00	92	35	0	706740224	48	6228
2026-01-06 13:00:25.29	85.71	25.22	-37.9	-38.8	23.7	0.00e+00	7	36	0	708837376	48	6249
2026-01-06 13:00:26.29	86.01	25.22	-37.4	-38.2	23.9	0.00e+00	0	35	0	709885952	48	5890
2026-01-06 13:00:27.30	86.31	25.23	-37.2	-38.1	24.1	0.00e+00	0	35	0	711983104	48	5795
2026-01-06 13:00:28.31	86.61	25.23	-37.3	-38.2	24.1	0.00e+00	0	35	0	714080256	48	5853
2026-01-06 13:00:29.32	86.90	25.23	-37.3	-38.1	24.1	0.00e+00	92	36	0	716177408	48	5822
2026-01-06 13:00:30.33	87.20	25.23	-37.5	-38.4	23.9	7.00e-07	0	36	0	718274560	48	5968
2026-01-06 13:00:31.34	87.50	25.23	-37.7	-38.6	23.7	0.00e+00	92	35	0	719323136	48	6151
2026-01-06 13:00:32.35	87.80	25.23	-37.9	-38.8	23.5	0.00e+00	0	36	0	721420288	48	6254
2026-01-06 13:00:33.36	88.10	25.23	-38.0	-38.9	23.5	0.00e+00	0	36	0	723517440	48	6331
2026-01-06 13:00:34.37	88.39	25.23	-37.9	-38.8	23.5	0.00e+00	2	36	0	725614592	48	6277
2026-01-06 13:00:35.38	88.69	25.23	-37.9	-38.8	23.2	0.00e+00	0	35	0	727711744	48	6295
2026-01-06 13:00:36.39	88.99	25.22	-37.5	-38.4	23.8	0.00e+00	13	36	0	728760320	48	6005
2026-01-06 13:00:37.40	89.29	25.22	-37.2	-38.0	24.1	0.00e+00	69	35	0	730857472	48	5750
2026-01-06 13:00:38.41	89.59	25.21	-37.0	-37.8	24.3	0.00e+00	92	36	0	732954624	48	5611
2026-01-06 13:00:39.42	89.88	25.21	-37.1	-37.9	24.2	0.00e+00	69	36	0	735051776	48	5688
2026-01-06 13:00:40.43	90.18	25.20	-37.3	-38.2	24.0	0.00e+00	92	36	0	737148928	48	5875
2026-01-06 13:00:41.43	90.48	25.19	-37.8	-38.6	23.7	0.00e+00	68	36	0	738197504	48	6171
2026-01-06 13:00:42.44	90.77	25.18	-38.2	-39.1	23.2	0.00e+00	0	35	0	740294656	48	6522
2026-01-06 13:00:43.45	91.07	25.17	-38.6	-39.6	22.8	0.00e+00	0	36	0	742391808	48	6884
2026-01-06 13:00:44.46	91.37	25.16	-38.7	-39.7	22.7	0.00e+00	15	36	0	744488960	50	6226
2026-01-06 13:00:45.47	91.66	25.15	-38.7	-39.6	22.8	0.00e+00	90	36	0	746586112	50	6168
2026-01-06 13:00:46.47	91.96	25.14	-38.5	-39.5	23.0	0.00e+00	6	35	0	747634688	50	6063
2026-01-06 13:00:47.48	92.25	25.13	-38.5	-39.5	22.9	0.00e+00	92	36	0	749731840	50	6052
2026-01-06 13:00:48.49	92.55	25.11	-38.5	-39.5	23.0	0.00e+00	6	35	0	751828992	50	6051
2026-01-06 13:00:49.50	92.85	25.10	-38.4	-39.4	23.0	0.00e+00	0	36	0	753926144	50	6003
2026-01-06 13:00:50.51	93.14	25.08	-38.1	-39.1	23.3	0.00e+00	0	36	0	756023296	50	5771
2026-01-06 13:00:51.52	93.44	25.07	-38.0	-38.9	23.4	0.00e+00	5	36	0	757071872	50	5677
2026-01-06 13:00:52.53	93.73	25.05	-37.9	-38.8	23.5	0.00e+00	92	36	0	759169024	50	5622
2026-01-06 13:00:53.54	94.03	25.04	-37.9	-38.8	23.5	0.00e+00	5	36	0	761266176	48	6292
2026-01-06 13:00:54.55	94.32	25.02	-37.9	-38.9	23.5	0.00e+00	92	36	0	763363328	48	6335
2026-01-06 13:00:55.55	94.61	25.00	-38.1	-39.1	23.2	0.00e+00	0	35	0	765460480	48	6472
2026-01-06 13:00:56.56	94.91	24.98	-38.3	-39.3	23.1	0.00e+00	92	36	0	767557632	48	6627
2026-01-06 13:00:57.57	95.20	24.96	-38.2	-39.2	23.1	0.00e+00	6	36	0	768606208	48	6591
2026-01-06 13:00:58.58	95.49	24.94	-38.2	-39.1	23.2	0.00e+00	0	35	0	770703360	48	6537
2026-01-06 13:00:59.59	95.79	24.92	-38.0	-39.0	23.4	0.00e+00	6	35	0	772800512	48	6416
2026-01-06 13:01:00.60	96.08	24.89	-37.6	-38.5	23.9	0.00e+00	73	35	0	774897664	48	6064
2026-01-06 13:01:01.61	96.37	24.87	-37.3	-38.1	24.0	0.00e+00	92	36	0	776994816	48	5823
2026-01-06 13:01:02.61	96.66	24.85	-37.5	-38.4	23.9	0.00e+00	72	35	0	778043392	48	5978
2026-01-06 13:01:03.62	96.95	24.82	-37.7	-38.6	23.6	0.00e+00	92	35	0	780140544	48	6136
2026-01-06 13:01:04.63	97.24	24.80	-37.8	-38.8	23.3	0.00e+00	12	35	0	782237696	48	6246
2026-01-06 13:01:05.64	97.53	24.77	-37.9	-38.9	23.4	0.00e+00	0	35	0	784334848	48	6325
2026-01-06 13:01:06.65	97.82	24.74	-37.9	-38.8	23.6	0.00e+00	35	36	0	786432000	48	6249
2026-01-06 13:01:07.66	98.11	24.71	-37.4	-38.3	24.0	0.00e+00	7	36	0	787480576	48	5907
2026-01-06 13:01:08.67	98.40	24.69	-37.2	-38.1	24.2	0.00e+00	90	35	0	789577728	48	5781
2026-01-06 13:01:09.68	98.69	24.66	-37.2	-38.1	24.2	0.00e+00	7	36	0	791674880	48	5768
2026-01-06 13:01:10.69	98.97	24.63	-37.2	-38.0	24.1	0.00e+00	92	36	0	793772032	48	5761
2026-01-06 13:01:11.70	99.26	24.60	-37.2	-38.1	24.2	0.00e+00	0	36	0	795869184	48	5770
2026-01-06 13:01:12.71	99.55	24.57	-37.3	-38.1	24.1	0.00e+00	6	36	0	796917760	48	5819
2026-01-06 13:01:13.72	99.83	24.53	-37.1	-38.0	24.1	0.00e+00	0	36	0	799014912	48	5710
2026-01-06 13:01:14.73	100.12	24.50	-37.1	-38.0	23.9	0.00e+00	6	36	0	801112064	48	5709
2026-01-06 13:01:15.74	100.40	24.47	-37.1	-37.9	24.3	0.00e+00	92	36	0	803209216	48	5675
2026-01-06 13:01:16.75	100.69	24.43	-37.1	-38.0	24.1	0.00e+00	0	36	0	805306368	48	5711
2026-01-06 13:01:17.75	100.97	24.40	-37.1	-38.0	24.2	0.00e+00	92	36	0	806354944	48	5718
2026-01-06 13:01:18.76	101.25	24.36	-37.1	-37.9	24.2	0.00e+00	74	36	0	808452096	48	5693
2026-01-06 13:01:19.77	101.54	24.33	-37.1	-38.0	24.1	0.00e+00	92	35	0	810549248	48	5721
2026-01-06 13:01:20.78	101.82	24.29	-37.0	-37.8	24.4	0.00e+00	74	36	0	812646400	48	5612
2026-01-06 13:01:21.79	102.10	24.25	-36.9	-37.7	24.5	0.00e+00	0	36	0	814743552	48	5535
2026-01-06 13:01:22.79	102.38	24.21	-36.5	-37.3	24.8	0.00e+00	73	35	0	815792128	46	5919
2026-01-06 13:01:23.80	102.66	24.18	-36.4	-37.2	24.9	0.00e+00	74	35	0	817889280	46	5853
2026-01-06 13:01:24.81	102.94	24.14	-36.5	-37.3	24.8	0.00e+00	90	35	0	819986432	46	5929
2026-01-06 13:01:25.82	103.21	24.10	-36.6	-37.4	24.7	0.00e+00	6	35	0	822083584	46	6021
2026-01-06 13:01:26.83	103.49	24.06	-36.5	-37.3	24.7	0.00e+00	91	35	0	824180736	46	5947
2026-01-06 13:01:27.84	103.77	24.01	-36.2	-37.0	25.0	0.00e+00	74	35	0	825229312	46	5757
2026-01-06 13:01:28.85	104.04	23.97	-36.2	-37.0	25.0	0.00e+00	74	35	0	827326464	46	5740
2026-01-06 13:01:29.85	104.32	23.93	-36.1	-36.9	25.1	0.00e+00	14	35	0	829423616	46	5639
2026-01-06 13:01:30.86	104.59	23.89	-36.1	-36.9	25.2	0.00e+00	2	35	0	831520768	46	5635
2026-01-06 13:01:31.87	104.87	23.84	-36.1	-36.9	25.2	0.00e+00	91	35	0	833617920	46	5635
2026-01-06 13:01:32.88	105.14	23.80	-36.2	-37.0	25.0	0.00e+00	2	35	0	834666496	46	5720
2026-01-06 13:01:33.89	105.41	23.75	-36.2	-37.0	24.9	0.00e+00	91	36	0	836763648	46	5734
2026-01-06 13:01:34.90	105.68	23.71	-36.1	-36.9	25.1	0.00e+00	0	35	0	838860800	46	5690
2026-01-06 13:01:35.91	105.96	23.66	-35.9	-36.7	25.3	0.00e+00	2	35	0	840957952	46	5538
2026-01-06 13:01:36.92	106.23	23.62	-35.6	-36.4	25.5	0.00e+00	0	35	0	843055104	44	6011
2026-01-06 13:01:37.93	106.50	23.57	-35.7	-36.5	25.4	0.00e+00	0	36	0	844103680	44	6042
2026-01-06 13:01:38.94	106.76	23.52	-35.7	-36.5	25.4	0.00e+00	92	36	0	846200832	44	6060
2026-01-06 13:01:39.95	107.03	23.47	-36.0	-36.8	25.2	0.00e+00	0	35	0	848297984	44	6273
2026-01-06 13:01:40.96	107.30	23.42	-36.2	-37.0	25.0	0.00e+00	92	35	0	850395136	44	6434
2026-01-06 13:01:41.97	107.57	23.38	-36.4	-37.2	24.8	0.00e+00	0	35	0	852492288	44	6600
2026-01-06 13:01:42.97	107.83	23.33	-36.5	-37.3	24.7	0.00e+00	92	35	0	853540864	44	6644
2026-01-06 13:01:43.98	108.09	23.28	-36.4	-37.2	24.8	0.00e+00	0	35	0	855638016	44	6613
2026-01-06 13:01:44.99	108.36	23.22	-36.3	-37.1	24.9	0.00e+00	0	35	0	857735168	44	6492
2026-01-06 13:01:46.00	108.62	23.17	-36.3	-37.1	24.8	0.00e+00	37	35	0	859832320	44	6519
2026-01-06 13:01:47.01	108.88	23.12	-35.9	-36.7	25.2	0.00e+00	0	35	0	861929472	44	6190
2026-01-06 13:01:48.02	109.14	23.07	-36.0	-36.8	25.2	0.00e+00	92	35	0	864026624	44	6268
2026-01-06 13:01:49.03	109.40	23.02	-35.9	-36.7	25.0	0.00e+00	9	35	0	865075200	44	6200
2026-01-06 13:01:50.04	109.66	22.96	-36.2	-37.0	25.0	0.00e+00	92	35	0	867172352	44	6399
2026-01-06 13:01:51.05	109.92	22.91	-36.3	-37.1	24.9	0.00e+00	0	35	0	869269504	44	6496
2026-01-06 13:01:52.06	110.18	22.85	-36.4	-37.2	24.9	0.00e+00	0	35	0	871366656	44	6552
2026-01-06 13:01:53.07	110.44	22.80	-36.5	-37.3	24.8	0.00e+00	0	35	0	873463808	44	6670
2026-01-06 13:01:54.08	110.69	22.74	-36.6	-37.5	24.6	0.00e+00	2	36	0	874512384	44	6783
2026-01-06 13:01:55.09	110.95	22.69	-36.9	-37.8	24.3	0.00e+00	90	35	0	876609536	46	6264
2026-01-06 13:01:56.10	111.20	22.63	-37.3	-38.2	24.0	0.00e+00	0	36	0	878706688	46	6540
2026-01-06 13:01:57.11	111.46	22.57	-37.6	-38.4	23.8	0.00e+00	92	36	0	880803840	46	6761
2026-01-06 13:01:58.12	111.71	22.52	-37.8	-38.6	23.5	0.00e+00	0	36	0	882900992	46	6925
2026-01-06 13:01:59.13	111.96	22.46	-37.6	-38.5	23.7	0.00e+00	13	35	0	883949568	48	6062
2026-01-06 13:02:00.14	112.21	22.40	-37.5	-38.4	23.6	0.00e+00	0	36	0	886046720	48	6006
2026-01-06 13:02:01.15	112.46	22.34	-37.5	-38.4	23.8	0.00e+00	0	35	0	888143872	48	5981
2026-01-06 13:02:02.15	112.71	22.29	-37.4	-38.3	23.9	0.00e+00	92	36	0	890241024	48	5944
2026-01-06 13:02:03.16	112.96	22.23	-37.6	-38.5	23.7	0.00e+00	0	35	0	892338176	48	6066
2026-01-06 13:02:04.17	113.20	22.17	-37.5	-38.4	23.8	0.00e+00	92	35	0	893386752	48	5979
2026-01-06 13:02:05.18	113.45	22.11	-37.3	-38.1	24.0	0.00e+00	73	36	0	895483904	48	5828
2026-01-06 13:02:06.19	113.69	22.05	-37.2	-38.0	24.1	0.00e+00	91	35	0	897581056	48	5755
2026-01-06 13:02:07.20	113.94	21.98	-37.2	-38.0	24.1	0.00e+00	0	35	0	899678208	48	5739
2026-01-06 13:02:08.21	114.18	21.92	-37.1	-38.0	24.2	0.00e+00	68	36	0	901775360	48	5724
2026-01-06 13:02:09.22	114.42	21.86	-36.9	-37.8	24.3	0.00e+00	50	36	0	902823936	48	5587
2026-01-06 13:02:10.22	114.66	21.80	-36.9	-37.8	24.4	0.00e+00	2	35	0	904921088	48	5589
2026-01-06 13:02:11.23	114.90	21.74	-37.0	-37.8	24.2	0.00e+00	92	36	0	907018240	48	5621
2026-01-06 13:02:12.24	115.14	21.68	-37.2	-38.0	24.2	0.00e+00	14	35	0	909115392	48	5742
2026-01-06 13:02:13.25	115.38	21.61	-37.3	-38.1	24.0	0.00e+00	92	35	0	911212544	48	5828
2026-01-06 13:02:14.26	115.62	21.55	-37.3	-38.2	24.0	0.00e+00	15	35	0	912261120	48	5841
2026-01-06 13:02:15.27	115.86	21.49	-37.4	-38.3	23.9	0.00e+00	2	35	0	914358272	48	5944
2026-01-06 13:02:16.28	116.09	21.42	-37.4	-38.3	24.0	0.00e+00	10	35	0	916455424	48	5913
2026-01-06 13:02:17.29	116.33	21.36	-37.4	-38.3	23.9	0.00e+00	2	36	0	918552576	48	5949
2026-01-06 13:02:18.30	116.56	21.29	-37.5	-38.4	23.9	0.00e+00	92	36	0	920649728	48	5975
2026-01-06 13:02:19.31	116.79	21.23	-37.6	-38.5	23.8	0.00e+00	2	35	0	921698304	48	6037
2026-01-06 13:02:20.32	117.03	21.16	-37.5	-38.4	23.7	0.00e+00	92	35	0	923795456	48	6033
2026-01-06 13:02:21.32	117.25	21.10	-37.3	-38.2	23.9	0.00e+00	2	35	0	925892608	48	5829
2026-01-06 13:02:22.33	117.49	21.03	-37.2	-38.1	24.1	0.00e+00	0	35	0	927989760	48	5808
2026-01-06 13:02:23.34	117.71	20.97	-37.1	-38.0	24.2	0.00e+00	2	35	0	930086912	48	5702
2026-01-06 13:02:24.35	117.94	20.90	-37.0	-37.8	24.2	0.00e+00	0	36	0	932184064	48	5623
2026-01-06 13:02:25.36	118.17	20.83	-37.2	-38.0	24.0	0.00e+00	23	36	0	933232640	48	5751
2026-01-06 13:02:26.37	118.40	20.77	-37.3	-38.1	24.0	0.00e+00	2	36	0	935329792	48	5818
2026-01-06 13:02:27.38	118.62	20.70	-37.3	-38.2	24.0	0.00e+00	90	35	0	937426944	48	5850
2026-01-06 13:02:28.39	118.85	20.63	-37.2	-38.0	24.1	0.00e+00	0	35	0	939524096	48	5749
2026-01-06 13:02:29.40	119.07	20.56	-37.2	-38.0	24.2	0.00e+00	92	35	0	941621248	48	5745
2026-01-06 13:02:30.41	119.29	20.50	-37.1	-38.0	24.1	0.00e+00	10	35	0	942669824	48	5725
2026-01-06 13:02:31.42	119.51	20.43	-37.1	-38.0	24.1	0.00e+00	10	35	0	944766976	48	5717
2026-01-06 13:02:32.43	119.73	20.36	-37.1	-38.0	24.2	0.00e+00	0	35	0	946864128	48	5698
2026-01-06 13:02:33.44	119.95	20.29	-37.3	-38.1	24.0	0.00e+00	72	35	0	948961280	48	5828
2026-01-06 13:02:34.45	120.17	20.22	-37.4	-38.3	23.9	0.00e+00	91	36	0	951058432	48	5916
2026-01-06 13:02:35.46	120.39	20.15	-37.5	-38.3	23.8	0.00e+00	5	35	0	952107008	48	5945
2026-01-06 13:02:36.47	120.61	20.08	-37.4	-38.3	23.8	0.00e+00	91	36	0	954204160	48	5944
2026-01-06 13:02:37.48	120.82	20.01	-37.5	-38.4	23.7	0.00e+00	5	35	0	956301312	48	5995
2026-01-06 13:02:38.49	121.04	19.94	-37.4	-38.4	23.6	0.00e+00	15	35	0	958398464	48	5969
2026-01-06 13:02:39.50	121.25	19.87	-37.6	-38.5	23.7	0.00e+00	0	35	0	960495616	48	6038
2026-01-06 13:02:40.51	121.46	19.80	-37.8	-38.7	23.5	0.00e+00	0	35	0	961544192	48	6212
2026-01-06 13:02:41.52	121.68	19.73	-38.3	-39.3	23.0	0.00e+00	90	35	0	963641344	48	6625
2026-01-06 13:02:42.53	121.89	19.66	-38.8	-39.8	22.5	0.00e+00	6	35	0	965738496	48	7041
2026-01-06 13:02:43.54	122.10	19.59	-39.0	-40.2	22.2	0.00e+00	92	35	0	967835648	50	6543
2026-01-06 13:02:44.55	122.31	19.52	-39.1	-40.2	22.2	0.00e+00	5	35	0	969932800	50	6587
2026-01-06 13:02:45.56	122.51	19.45	-38.6	-39.6	22.8	0.00e+00	71	35	0	970981376	50	6144
2026-01-06 13:02:46.57	122.72	19.38	-38.2	-39.2	23.2	0.00e+00	0	35	0	973078528	50	5832
2026-01-06 13:02:47.57	122.93	19.31	-38.1	-39.1	23.2	0.00e+00	71	35	0	975175680	50	5792
2026-01-06 13:02:48.59	123.13	19.24	-37.9	-38.8	23.4	0.00e+00	17	36	0	977272832	50	5602
2026-01-06 13:02:49.60	123.34	19.17	-37.8	-38.7	23.5	0.00e+00	7	35	0	979369984	50	5559
2026-01-06 13:02:50.61	123.54	19.09	-38.2	-39.1	23.1	0.00e+00	92	35	0	980418560	50	5809
2026-01-06 13:02:51.61	123.74	19.02	-38.5	-39.5	22.8	0.00e+00	15	35	0	982515712	50	6061
2026-01-06 13:02:52.62	123.94	18.95	-38.6	-39.6	22.6	0.00e+00	90	35	0	984612864	50	6169
2026-01-06 13:02:53.63	124.14	18.88	-38.5	-39.5	22.7	0.00e+00	14	35	0	986710016	50	6044
2026-01-06 13:02:54.64	124.34	18.81	-38.4	-39.4	22.8	0.00e+00	70	35	0	988807168	50	6011
2026-01-06 13:02:55.65	124.54	18.73	-38.1	-39.1	23.1	0.00e+00	80	35	0	989855744	50	5782
2026-01-06 13:02:56.66	124.74	18.66	-38.0	-38.9	23.3	0.00e+00	6	35	0	991952896	50	5663
2026-01-06 13:02:57.67	124.94	18.59	-37.7	-38.6	23.5	0.00e+00	92	35	0	994050048	48	6164
2026-01-06 13:02:58.68	125.13	18.52	-37.8	-38.7	23.5	0.00e+00	14	35	0	996147200	48	6205
2026-01-06 13:02:59.69	125.33	18.44	-38.1	-39.1	23.1	0.00e+00	92	35	0	998244352	48	6473
2026-01-06 13:03:00.70	125.52	18.37	-38.4	-39.4	22.9	0.00e+00	6	35	0	1000341504	48	6696
2026-01-06 13:03:01.71	125.72	18.30	-38.5	-39.5	22.8	0.00e+00	7	35	0	1001390080	48	6779
2026-01-06 13:03:02.72	125.91	18.22	-38.6	-39.6	22.8	0.00e+00	6	36	0	1003487232	48	6850
2026-01-06 13:03:03.73	126.10	18.15	-38.2	-39.1	23.1	0.00e+00	0	36	0	1005584384	48	6532
2026-01-06 13:03:04.74	126.29	18.08	-38.2	-39.1	23.1	0.00e+00	92	35	0	1007681536	48	6506
2026-01-06 13:03:05.75	126.48	18.00	-38.2	-39.1	23.1	0.00e+00	0	36	0	1008730112	48	6491
2026-01-06 13:03:06.76	126.67	17.93	-38.1	-39.1	23.1	0.00e+00	91	36	0	1010827264	48	6491
2026-01-06 13:03:07.76	126.86	17.86	-38.2	-39.1	23.0	0.00e+00	0	36	0	1012924416	48	6515
2026-01-06 13:03:08.77	127.04	17.78	-38.5	-39.6	22.7	0.00e+00	92	36	0	1015021568	48	6854
2026-01-06 13:03:09.78	127.23	17.71	-38.9	-39.9	22.3	0.00e+00	65	36	0	1017118720	50	6375
2026-01-06 13:03:10.79	127.42	17.64	-38.9	-40.0	22.2	0.00e+00	65	35	0	1018167296	50	6422
2026-01-06 13:03:11.80	127.60	17.56	-38.8	-39.8	22.4	0.00e+00	65	36	0	1020264448	50	6295
2026-01-06 13:03:12.81	127.78	17.49	-38.5	-39.5	22.8	0.00e+00	66	36	0	1022361600	50	6055
2026-01-06 13:03:13.82	127.97	17.41	-37.9	-38.8	23.3	0.00e+00	90	36	0	1024458752	50	5624
2026-01-06 13:03:14.83	128.15	17.34	-37.9	-38.8	23.3	0.00e+00	14	36	0	1026555904	50	5627
2026-01-06 13:03:15.84	128.33	17.27	-37.5	-38.4	23.7	0.00e+00	90	36	0	1028653056	48	5982
2026-01-06 13:03:16.85	128.51	17.19	-37.7	-38.6	23.5	0.00e+00	10	36	0	1029701632	48	6132
2026-01-06 13:03:17.86	128.69	17.12	-38.1	-39.0	23.2	0.00e+00	0	35	0	1031798784	48	6414
2026-01-06 13:03:18.87	128.87	17.04	-38.6	-39.6	22.6	0.00e+00	21	36	0	1033895936	48	6904
2026-01-06 13:03:19.88	129.05	16.97	-39.2	-40.3	22.0	0.00e+00	11	36	0	1035993088	50	6683
2026-01-06 13:03:20.89	129.22	16.89	-39.4	-40.6	21.8	0.00e+00	90	36	0	1038090240	50	6863
2026-01-06 13:03:21.90	129.40	16.82	-39.6	-40.7	21.7	0.00e+00	11	35	0	1039138816	50	6968
2026-01-06 13:03:22.91	129.57	16.75	-39.1	-40.2	22.2	0.00e+00	92	36	0	1041235968	50	6544
2026-01-06 13:03:23.92	129.75	16.67	-38.7	-39.8	22.5	0.00e+00	0	36	0	1043333120	50	6255
2026-01-06 13:03:24.92	129.92	16.60	-38.4	-39.4	22.9	0.00e+00	0	36	0	1045430272	50	5975
2026-01-06 13:03:25.93	130.09	16.52	-38.1	-39.1	23.1	0.00e+00	0	36	0	1047527424	50	5796
2026-01-06 13:03:26.94	130.26	16.45	-38.0	-39.0	23.2	0.00e+00	0	36	0	1048576000	50	5704
2026-01-06 13:03:27.95	130.44	16.37	-38.0	-38.9	23.3	0.00e+00	92	36	0	1050673152	50	5671
2026-01-06 13:03:28.96	130.61	16.30	-38.1	-39.0	23.2	0.00e+00	70	36	0	1052770304	50	5724
2026-01-06 13:03:29.97	130.77	16.23	-38.1	-39.1	23.1	0.00e+00	92	36	0	1054867456	50	5789
2026-01-06 13:03:30.98	130.94	16.15	-38.3	-39.2	23.0	0.00e+00	0	36	0	1056964608	50	5896
2026-01-06 13:03:31.99	131.11	16.08	-38.2	-39.2	23.0	0.00e+00	70	36	0	1058013184	50	5836
2026-01-06 13:03:33.00	131.28	16.00	-38.1	-39.1	23.1	0.00e+00	69	36	0	1060110336	50	5783
2026-01-06 13:03:34.01	131.44	15.93	-38.2	-39.2	23.1	0.00e+00	9	36	0	1062207488	50	5846
2026-01-06 13:03:35.01	131.61	15.85	-37.9	-38.8	23.3	0.00e+00	36	36	0	1064304640	50	5624
2026-01-06 13:03:36.03	131.77	15.78	-37.8	-38.7	23.5	0.00e+00	11	36	0	1066401792	48	6193
2026-01-06 13:03:37.03	131.94	15.70	-37.7	-38.6	23.4	0.00e+00	92	36	0	1067450368	48	6161
2026-01-06 13:03:38.05	132.10	15.63	-37.9	-38.8	23.3	0.00e+00	65	36	0	1069547520	48	6300
2026-01-06 13:03:39.05	132.26	15.56	-38.1	-39.0	23.2	0.00e+00	47	36	0	1071644672	48	6432
2026-01-06 13:03:40.06	132.42	15.48	-38.3	-39.2	22.9	0.00e+00	2	36	0	1073741824	48	6600
2026-01-06 13:03:41.07	132.58	15.41	-38.4	-39.4	22.6	0.00e+00	17	36	0	1075838976	48	6732
2026-01-06 13:03:42.08	132.74	15.33	-38.5	-39.5	22.5	0.00e+00	0	36	0	1076887552	48	6775
2026-01-06 13:03:43.09	132.90	15.26	-38.5	-39.5	22.6	0.00e+00	16	35	0	1078984704	48	6817
2026-01-06 13:03:44.11	133.06	15.18	-38.4	-39.4	22.8	0.00e+00	92	35	0	1081081856	48	6726
2026-01-06 13:03:45.11	133.22	15.11	-38.3	-39.3	22.8	0.00e+00	2	36	0	1083179008	48	6637
2026-01-06 13:03:46.13	133.38	15.03	-38.1	-39.1	23.1	0.00e+00	92	36	0	1085276160	48	6490
2026-01-06 13:03:47.13	133.53	14.96	-38.1	-39.1	22.5	0.00e+00	0	36	0	1086324736	48	6505
2026-01-06 13:03:48.15	133.69	14.89	-38.0	-39.0	23.0	0.00e+00	0	36	0	1088421888	48	6423
2026-01-06 13:03:49.15	133.84	14.81	-38.0	-39.0	23.1	0.00e+00	0	35	0	1090519040	48	6422
2026-01-06 13:03:50.16	133.99	14.74	-38.2	-39.1	23.0	0.00e+00	71	36	0	1092616192	48	6524
2026-01-06 13:03:51.17	134.15	14.66	-38.1	-39.1	23.0	0.00e+00	90	35	0	1094713344	48	6524
2026-01-06 13:03:52.18	134.30	14.59	-38.2	-39.1	22.9	0.00e+00	0	36	0	1096810496	48	6528
2026-01-06 13:03:53.19	134.45	14.52	-38.1	-39.1	23.0	0.00e+00	92	35	0	1097859072	48	6504
2026-01-06 13:03:54.21	134.60	14.44	-38.3	-39.3	22.8	0.00e+00	0	36	0	1099956224	48	6648
2026-01-06 13:03:55.21	134.75	14.37	-38.3	-39.2	22.9	0.00e+00	0	35	0	1102053376	48	6603
2026-01-06 13:03:56.22	134.90	14.29	-38.1	-39.1	23.1	0.00e+00	70	36	0	1104150528	48	6516
2026-01-06 13:03:57.23	135.05	14.22	-38.0	-39.0	23.2	0.00e+00	69	36	0	1106247680	48	6396
2026-01-06 13:03:58.24	135.20	14.15	-37.9	-38.9	23.2	0.00e+00	38	35	0	1107296256	48	6319
2026-01-06 13:03:59.24	135.34	14.07	-37.9	-38.9	23.3	0.00e+00	12	35	0	1109393408	48	6328
2026-01-06 13:04:00.25	135.49	14.00	-37.7	-38.6	23.4	0.00e+00	92	36	0	1111490560	48	6173
2026-01-06 13:04:01.26	135.64	13.93	-37.7	-38.7	23.4	0.00e+00	0	36	0	1113587712	48	6192
2026-01-06 13:04:02.27	135.78	13.85	-37.7	-38.7	23.4	0.00e+00	92	36	0	1115684864	48	6186
2026-01-06 13:04:03.28	135.93	13.78	-37.7	-38.6	23.4	0.00e+00	0	36	0	1116733440	48	6137
2026-01-06 13:04:04.28	136.07	13.71	-37.8	-38.7	23.3	0.00e+00	10	35	0	1118830592	48	6211
2026-01-06 13:04:05.29	136.21	13.63	-37.9	-38.8	23.3	0.00e+00	11	35	0	1120927744	48	6303
2026-01-06 13:04:06.30	136.35	13.56	-37.9	-38.8	23.3	0.00e+00	0	35	0	1123024896	48	6268
2026-01-06 13:04:07.31	136.50	13.49	-38.0	-38.9	23.1	0.00e+00	92	35	0	1125122048	48	6377
2026-01-06 13:04:08.32	136.64	13.41	-38.2	-39.2	22.9	0.00e+00	0	35	0	1126170624	48	6558
2026-01-06 13:04:09.33	136.78	13.34	-38.1	-39.1	23.0	0.00e+00	90	35	0	1128267776	48	6471
2026-01-06 13:04:10.34	136.92	13.27	-38.3	-39.3	22.8	0.00e+00	0	36	0	1130364928	48	6627
2026-01-06 13:04:11.35	137.06	13.19	-38.1	-39.1	23.0	0.00e+00	0	36	0	1132462080	48	6490
2026-01-06 13:04:12.35	137.19	13.12	-38.3	-39.2	22.8	0.00e+00	0	36	0	1134559232	48	6592
2026-01-06 13:04:13.36	137.33	13.05	-38.4	-39.3	22.8	0.00e+00	0	35	0	1135607808	48	6688
2026-01-06 13:04:14.37	137.47	12.97	-38.3	-39.3	22.8	0.00e+00	16	36	0	1137704960	48	6652
2026-01-06 13:04:15.38	137.60	12.90	-38.4	-39.4	22.7	0.00e+00	67	36	0	1139802112	48	6700
2026-01-06 13:04:16.39	137.74	12.83	-38.4	-39.4	22.7	0.00e+00	92	36	0	1141899264	48	6695
2026-01-06 13:04:17.40	137.88	12.76	-38.4	-39.4	22.6	0.00e+00	67	36	0	1143996416	48	6763
2026-01-06 13:04:18.41	138.01	12.68	-38.4	-39.4	22.7	0.00e+00	0	35	0	1145044992	48	6724
2026-01-06 13:04:19.42	138.14	12.61	-38.4	-39.4	22.7	0.00e+00	0	35	0	1147142144	48	6757
2026-01-06 13:04:20.43	138.28	12.54	-38.5	-39.5	22.6	0.00e+00	69	35	0	1149239296	48	6798
2026-01-06 13:04:21.44	138.41	12.47	-38.5	-39.5	22.6	0.00e+00	0	36	0	1151336448	48	6806
2026-01-06 13:04:22.45	138.54	12.39	-38.6	-39.6	22.5	0.00e+00	6	36	0	1153433600	48	6901
2026-01-06 13:04:23.46	138.67	12.32	-38.5	-39.5	22.5	0.00e+00	92	36	0	1154482176	48	6818
2026-01-06 13:04:24.47	138.80	12.25	-38.5	-39.5	22.5	0.00e+00	12	35	0	1156579328	48	6827
2026-01-06 13:04:25.48	138.93	12.18	-38.5	-39.6	22.5	0.00e+00	90	36	0	1158676480	48	6855
2026-01-06 13:04:26.49	139.06	12.11	-38.7	-39.7	22.4	0.00e+00	6	35	0	1160773632	48	6963
2026-01-06 13:04:27.49	139.19	12.04	-38.8	-39.8	22.3	0.00e+00	0	36	0	1162870784	48	7043
2026-01-06 13:04:28.50	139.32	11.96	-39.1	-40.2	21.8	0.00e+00	0	36	0	1164967936	50	6591
2026-01-06 13:04:29.51	139.45	11.89	-39.3	-40.4	21.6	0.00e+00	5	36	0	1166016512	50	6711
2026-01-06 13:04:30.52	139.57	11.82	-39.4	-40.5	21.3	0.00e+00	90	36	0	1168113664	50	6829
2026-01-06 13:04:31.53	139.70	11.75	-39.7	-40.9	21.0	0.00e+00	5	36	0	1170210816	50	7095
2026-01-06 13:04:32.54	139.83	11.68	-39.8	-41.1	20.7	0.00e+00	91	36	0	1172307968	52	6499
2026-01-06 13:04:33.54	139.95	11.61	-40.1	-41.4	20.3	0.00e+00	6	36	0	1173356544	52	6758
2026-01-06 13:04:34.55	140.08	11.54	-40.4	-41.8	19.9	0.00e+00	67	35	0	1175453696	52	7077
2026-01-06 13:04:35.56	140.20	11.46	-40.6	-42.1	19.5	0.00e+00	61	36	0	1177550848	52	7295
2026-01-06 13:04:36.57	140.32	11.39	-41.0	-42.5	18.9	0.00e+00	60	36	0	1179648000	54	6838
2026-01-06 13:04:37.58	140.45	11.32	-41.3	-43.0	18.5	0.00e+00	6	35	0	1181745152	54	7188
2026-01-06 13:04:38.59	140.57	11.25	-41.5	-43.3	18.1	0.00e+00	60	36	0	1182793728	54	7423
2026-01-06 13:04:39.60	140.69	11.18	-41.9	-43.8	17.6	0.00e+00	92	36	0	1184890880	56	7063
2026-01-06 13:04:40.61	140.81	11.11	-42.0	-44.0	17.3	0.00e+00	23	35	0	1186988032	56	7215
2026-01-06 13:04:41.62	140.93	11.04	-42.1	-44.1	17.2	0.00e+00	0	36	0	1189085184	56	7299
2026-01-06 13:04:42.63	141.05	10.97	-42.2	-44.3	16.9	0.00e+00	24	36	0	1191182336	56	7447
2026-01-06 13:04:43.64	141.17	10.90	-42.1	-44.1	17.2	0.00e+00	60	36	0	1193279488	56	7272
2026-01-06 13:04:44.65	141.29	10.83	-42.1	-44.1	17.2	0.00e+00	0	36	0	1194328064	56	7280
2026-01-06 13:04:45.66	141.41	10.76	-42.0	-43.9	17.4	0.00e+00	17	35	0	1196425216	56	7147
2026-01-06 13:04:46.67	141.53	10.69	-41.9	-43.8	17.6	0.00e+00	92	36	0	1198522368	56	7078
2026-01-06 13:04:47.68	141.65	10.62	-41.7	-43.6	17.8	0.00e+00	7	36	0	1200619520	56	6888
2026-01-06 13:04:48.69	141.76	10.55	-41.7	-43.5	18.0	0.00e+00	92	36	0	1202716672	56	6807
2026-01-06 13:04:49.69	141.88	10.48	-41.5	-43.2	18.3	0.00e+00	6	36	0	1203765248	56	6604
2026-01-06 13:04:50.70	141.99	10.41	-41.4	-43.0	18.5	0.00e+00	0	36	0	1205862400	56	6446
2026-01-06 13:04:51.71	142.11	10.34	-41.3	-42.9	18.6	0.00e+00	5	36	0	1207959552	56	6384
2026-01-06 13:04:52.72	142.22	10.27	-41.3	-43.0	18.8	0.00e+00	6	36	0	1210056704	56	6399
2026-01-06 13:04:53.73	142.34	10.20	-41.2	-42.8	18.9	0.00e+00	92	36	0	1212153856	56	6260
