passes_logs/2026/01/06/R4.6S_Anadyr/R4.6S_Anadyr__20260106_165352_FENGYUN_3D_rec.log

#Pass ID: 20260106_165352_FENGYUN 3D
#Satellite: FENGYUN 3D
#Configuration: FENGYUN 3D
#almurnet v.1.7.20251203
#Start time: 2026-01-06 16:53:55

#Version: 2.2.20231116
#Station: R4.6S_Anadyr
#Location: 177.4865 lon 64.73178 lat
#TLE: 1 43010U 17072A   26005.48915933 -.00000051  00000+0 -21983-5 0  9995
#TLE: 2 43010  98.9919 337.1582 0002001 124.6377 235.4988 14.19691925421909

#Time	Az	El	Level	Level2	SNR	BER	BlckErr	Temp	State	Recorded	gain1	gain2
2026-01-06 16:53:55.32	21.28	0.19	-48.5	-59.1	3.3	8.40e-01	0	32	0	0	60	32742
2026-01-06 16:53:56.33	21.28	0.26	-48.5	-60.6	3.6	8.44e-01	0	32	104	0	60	38814
2026-01-06 16:53:57.34	21.29	0.32	-48.6	-60.7	3.6	8.45e-01	0	32	104	0	60	39146
2026-01-06 16:53:58.35	21.29	0.38	-48.5	-60.6	3.6	8.45e-01	0	32	104	0	60	38813
2026-01-06 16:53:59.36	21.29	0.44	-48.5	-60.6	3.6	8.45e-01	0	32	104	0	60	38912
2026-01-06 16:54:00.37	21.29	0.50	-48.4	-60.5	3.6	8.47e-01	0	32	104	0	60	38418
2026-01-06 16:54:01.38	21.29	0.56	-48.4	-60.5	3.6	8.46e-01	0	32	104	0	60	38364
2026-01-06 16:54:02.39	21.29	0.62	-48.3	-60.3	3.6	8.45e-01	0	33	104	0	60	37587
2026-01-06 16:54:03.40	21.30	0.68	-48.2	-60.2	3.6	8.45e-01	0	33	104	0	60	37144
2026-01-06 16:54:04.41	21.30	0.74	-48.0	-60.1	3.6	8.45e-01	0	33	104	0	60	36469
2026-01-06 16:54:05.42	21.30	0.81	-47.8	-59.9	3.6	8.46e-01	0	33	104	0	60	35730
2026-01-06 16:54:06.43	21.30	0.87	-47.6	-59.6	3.6	8.45e-01	0	33	104	0	60	34710
2026-01-06 16:54:07.44	21.30	0.93	-47.2	-59.2	3.6	8.45e-01	0	33	104	0	60	33083
2026-01-06 16:54:08.44	21.30	0.99	-47.1	-59.2	3.6	8.46e-01	0	33	104	0	60	32815
2026-01-06 16:54:09.45	21.31	1.05	-47.1	-59.2	3.6	8.45e-01	0	33	104	0	60	32853
2026-01-06 16:54:10.46	21.31	1.12	-47.1	-59.1	3.6	8.47e-01	0	33	104	0	60	32474
2026-01-06 16:54:11.47	21.31	1.18	-47.1	-59.0	3.6	8.46e-01	0	33	104	0	60	32055
2026-01-06 16:54:12.48	21.31	1.24	-47.0	-58.7	3.6	8.45e-01	0	33	104	0	60	31249
2026-01-06 16:54:13.49	21.31	1.30	-47.0	-58.5	3.6	8.45e-01	0	33	104	0	60	30299
2026-01-06 16:54:14.50	21.31	1.37	-47.0	-58.4	3.6	8.45e-01	0	33	104	0	60	30087
2026-01-06 16:54:15.51	21.32	1.43	-47.0	-58.6	3.6	8.45e-01	0	33	104	0	60	30666
2026-01-06 16:54:16.52	21.32	1.49	-47.0	-58.5	3.6	8.45e-01	0	33	104	0	60	30437
2026-01-06 16:54:17.53	21.32	1.56	-47.0	-58.7	3.6	8.45e-01	0	33	104	0	60	31104
2026-01-06 16:54:18.54	21.32	1.62	-47.1	-58.9	3.6	8.44e-01	0	33	104	0	60	31866
2026-01-06 16:54:19.55	21.32	1.68	-47.1	-59.1	3.6	8.46e-01	0	33	104	0	60	32429
2026-01-06 16:54:20.56	21.32	1.75	-47.1	-59.1	3.6	8.45e-01	0	33	104	0	60	32702
2026-01-06 16:54:21.57	21.33	1.81	-47.1	-59.1	3.6	8.46e-01	0	33	104	0	60	32586
2026-01-06 16:54:22.58	21.33	1.88	-47.1	-59.1	3.6	8.45e-01	0	33	104	0	60	32620
2026-01-06 16:54:23.59	21.33	1.94	-47.1	-59.0	3.6	8.46e-01	0	33	104	0	60	32236
2026-01-06 16:54:24.60	21.33	2.00	-47.0	-58.9	3.6	8.46e-01	0	33	104	0	60	31754
2026-01-06 16:54:25.61	21.33	2.07	-47.0	-58.7	3.6	8.46e-01	0	33	104	0	60	31000
2026-01-06 16:54:26.62	21.33	2.13	-47.0	-58.5	3.6	8.45e-01	0	33	104	0	60	30452
2026-01-06 16:54:27.63	21.33	2.20	-46.9	-57.8	3.6	8.45e-01	0	33	104	0	60	28122
2026-01-06 16:54:28.64	21.34	2.26	-46.9	-57.0	3.6	8.45e-01	0	33	104	0	60	25693
2026-01-06 16:54:29.65	21.34	2.33	-46.7	-56.0	3.8	8.43e-01	0	33	0	0	60	22718
2026-01-06 16:54:30.66	21.34	2.39	-46.8	-56.2	3.8	8.41e-01	0	33	104	0	60	23307
2026-01-06 16:54:31.67	21.34	2.46	-46.7	-55.7	3.7	8.34e-01	0	33	104	0	60	22141
2026-01-06 16:54:32.68	21.34	2.53	-46.7	-54.2	3.8	8.32e-01	0	33	0	0	60	18597
2026-01-06 16:54:33.69	21.34	2.59	-46.8	-56.2	3.7	8.34e-01	0	33	104	0	60	23305
2026-01-06 16:54:34.70	21.34	2.66	-46.8	-55.6	3.8	8.41e-01	0	33	0	0	60	21851
2026-01-06 16:54:35.71	21.35	2.72	-46.6	-55.1	4.2	8.41e-01	0	33	104	0	60	20662
2026-01-06 16:54:36.72	21.35	2.79	-46.2	-51.8	5.3	7.35e-01	0	33	0	0	60	13987
2026-01-06 16:54:37.73	21.35	2.86	-45.7	-50.2	6.9	2.97e-01	0	33	0	4194304	60	11689
2026-01-06 16:54:38.74	21.35	2.92	-44.7	-48.0	9.6	2.59e-02	0	33	0	10485760	60	9112
2026-01-06 16:54:39.75	21.35	2.99	-43.7	-46.3	11.6	2.54e-03	0	33	0	15728640	60	7487
2026-01-06 16:54:40.76	21.35	3.06	-42.7	-44.8	13.4	6.75e-05	0	33	0	20971520	60	6292
2026-01-06 16:54:41.77	21.35	3.12	-41.8	-43.6	14.5	4.50e-06	0	33	0	27262976	58	6127
2026-01-06 16:54:42.78	21.35	3.19	-41.4	-43.1	15.0	0.00e+00	0	33	0	32505856	56	6483
2026-01-06 16:54:43.79	21.36	3.26	-40.9	-42.5	15.8	0.00e+00	0	33	0	38797312	56	6035
2026-01-06 16:54:44.80	21.36	3.32	-41.2	-42.8	15.4	0.00e+00	0	33	0	44040192	56	6295
2026-01-06 16:54:45.81	21.36	3.39	-41.1	-42.7	15.5	0.00e+00	0	33	0	49283072	56	6227
2026-01-06 16:54:46.82	21.36	3.46	-41.4	-43.1	14.9	0.00e+00	0	33	0	55574528	56	6500
2026-01-06 16:54:47.83	21.36	3.53	-42.1	-44.0	14.0	3.40e-06	0	33	0	60817408	56	7236
2026-01-06 16:54:48.84	21.36	3.60	-43.0	-45.3	12.5	4.46e-05	0	33	0	67108864	58	7506
2026-01-06 16:54:49.85	21.36	3.66	-44.0	-46.9	10.9	1.79e-03	0	33	0	72351744	60	7970
2026-01-06 16:54:50.86	21.36	3.73	-39.6	-40.8	17.4	0.00e+00	0	33	0	78643200	50	7069
2026-01-06 16:54:51.87	21.36	3.80	-42.8	-44.9	13.3	3.40e-06	0	33	0	83886080	56	8023
2026-01-06 16:54:52.87	21.37	3.87	-46.8	-57.6	3.6	3.91e-01	0	33	104	88080384	60	27348
2026-01-06 16:54:53.88	21.37	3.94	-35.7	-36.5	20.0	7.71e-01	0	33	104	88080384	46	5429
2026-01-06 16:54:54.89	21.37	4.01	-47.1	-58.3	3.6	2.48e-01	0	33	104	88080384	60	29587
2026-01-06 16:54:55.90	21.37	4.08	-35.5	-36.3	6.2	8.18e-01	0	33	104	88080384	46	5306
2026-01-06 16:54:56.91	21.37	4.15	-35.1	-35.8	22.3	0.00e+00	0	33	0	89128960	44	5630
2026-01-06 16:54:57.92	21.37	4.22	-34.8	-35.6	22.5	0.00e+00	0	33	0	94371840	44	5468
2026-01-06 16:54:58.93	21.37	4.29	-35.0	-35.8	22.4	0.00e+00	0	33	0	100663296	44	5571
2026-01-06 16:54:59.94	21.37	4.36	-35.0	-35.8	22.4	0.00e+00	0	33	0	105906176	44	5616
2026-01-06 16:55:00.95	21.37	4.43	-34.8	-35.6	22.7	0.00e+00	0	33	0	112197632	42	6125
2026-01-06 16:55:01.96	21.37	4.50	-34.7	-35.5	22.6	0.00e+00	0	33	0	117440512	42	6081
2026-01-06 16:55:02.97	21.38	4.57	-34.4	-35.2	23.0	0.00e+00	0	33	0	122683392	42	5858
2026-01-06 16:55:03.98	21.38	4.64	-34.7	-35.4	22.8	0.00e+00	0	33	0	128974848	42	6014
2026-01-06 16:55:04.99	21.38	4.71	-34.7	-35.5	22.8	0.00e+00	0	33	0	134217728	42	6047
2026-01-06 16:55:06.00	21.38	4.78	-34.7	-35.4	22.8	0.00e+00	0	33	0	140509184	42	6010
2026-01-06 16:55:07.01	21.38	4.85	-34.6	-35.4	22.9	0.00e+00	0	33	0	145752064	42	5992
2026-01-06 16:55:08.02	21.38	4.92	-34.7	-35.4	23.0	0.00e+00	0	33	0	152043520	42	6010
2026-01-06 16:55:09.03	21.38	4.99	-34.4	-35.2	23.0	0.00e+00	0	33	0	157286400	42	5847
2026-01-06 16:55:10.04	21.38	5.07	-34.5	-35.2	23.1	0.00e+00	0	33	0	163577856	42	5855
2026-01-06 16:55:11.05	21.38	5.14	-34.4	-35.2	23.1	0.00e+00	0	33	0	168820736	42	5853
2026-01-06 16:55:12.06	21.38	5.21	-34.7	-35.5	22.9	0.00e+00	0	33	0	174063616	42	6052
2026-01-06 16:55:13.07	21.38	5.28	-34.8	-35.6	22.8	0.00e+00	0	33	0	180355072	42	6113
2026-01-06 16:55:14.07	21.38	5.36	-34.7	-35.5	22.8	0.00e+00	0	33	0	185597952	42	6081
2026-01-06 16:55:15.09	21.38	5.43	-34.4	-35.1	23.3	0.00e+00	0	33	0	191889408	42	5793
2026-01-06 16:55:16.10	21.39	5.50	-34.5	-35.2	23.2	0.00e+00	0	33	0	197132288	42	5876
2026-01-06 16:55:17.10	21.39	5.57	-34.2	-34.9	23.4	0.00e+00	0	33	0	202375168	42	5687
2026-01-06 16:55:18.11	21.39	5.65	-34.3	-35.1	23.3	0.00e+00	0	33	0	208666624	42	5777
2026-01-06 16:55:19.12	21.39	5.72	-34.3	-35.0	23.3	0.00e+00	0	33	0	213909504	42	5726
2026-01-06 16:55:20.13	21.39	5.80	-34.5	-35.2	23.2	0.00e+00	0	33	0	219152384	42	5870
2026-01-06 16:55:21.14	21.39	5.87	-34.3	-35.0	23.5	0.00e+00	0	33	0	225443840	42	5720
2026-01-06 16:55:22.15	21.39	5.94	-34.3	-35.0	23.4	0.00e+00	0	33	0	230686720	42	5721
2026-01-06 16:55:23.16	21.39	6.02	-34.2	-34.9	23.4	0.00e+00	0	33	0	236978176	42	5695
2026-01-06 16:55:24.17	21.39	6.09	-34.3	-35.0	23.4	0.00e+00	0	33	0	242221056	42	5732
2026-01-06 16:55:25.18	21.39	6.17	-34.3	-35.0	23.3	0.00e+00	0	33	0	248512512	42	5750
2026-01-06 16:55:26.18	21.39	6.24	-34.2	-35.0	23.5	0.00e+00	0	33	0	253755392	42	5709
2026-01-06 16:55:27.19	21.39	6.32	-34.2	-35.0	23.5	0.00e+00	0	33	0	260046848	42	5700
2026-01-06 16:55:28.20	21.39	6.39	-34.0	-34.7	23.7	0.00e+00	0	33	0	265289728	42	5556
2026-01-06 16:55:29.21	21.39	6.47	-34.1	-34.8	23.6	0.00e+00	0	33	0	270532608	42	5605
2026-01-06 16:55:30.21	21.39	6.55	-34.0	-34.7	23.7	0.00e+00	0	33	0	276824064	42	5537
2026-01-06 16:55:31.22	21.39	6.62	-34.1	-34.8	23.7	0.00e+00	0	33	0	282066944	42	5592
2026-01-06 16:55:32.23	21.39	6.70	-34.0	-34.7	23.8	0.00e+00	0	33	0	287309824	42	5555
2026-01-06 16:55:33.24	21.39	6.78	-34.0	-34.7	23.8	0.00e+00	0	33	0	293601280	42	5530
2026-01-06 16:55:34.25	21.39	6.85	-33.9	-34.6	23.8	0.00e+00	0	33	0	298844160	42	5495
2026-01-06 16:55:35.26	21.39	6.93	-34.0	-34.7	23.8	0.00e+00	0	33	0	305135616	42	5526
2026-01-06 16:55:36.27	21.39	7.01	-33.8	-34.5	23.9	0.00e+00	0	33	0	310378496	42	5439
2026-01-06 16:55:37.28	21.39	7.09	-33.9	-34.6	23.9	0.00e+00	0	33	0	315621376	42	5495
2026-01-06 16:55:38.29	21.39	7.16	-33.8	-34.6	23.9	0.00e+00	0	33	0	321912832	42	5455
2026-01-06 16:55:39.29	21.39	7.24	-33.9	-34.6	23.9	0.00e+00	0	33	0	327155712	42	5486
2026-01-06 16:55:40.30	21.39	7.32	-34.0	-34.7	23.8	0.00e+00	0	34	0	333447168	42	5531
2026-01-06 16:55:41.31	21.39	7.40	-33.9	-34.6	23.9	0.00e+00	0	33	0	338690048	42	5488
2026-01-06 16:55:42.32	21.39	7.48	-33.9	-34.6	23.9	0.00e+00	0	33	0	344981504	42	5496
2026-01-06 16:55:43.33	21.39	7.56	-34.1	-34.9	23.7	0.00e+00	0	33	0	350224384	42	5650
2026-01-06 16:55:44.34	21.39	7.64	-33.8	-34.5	24.0	0.00e+00	0	33	0	356515840	42	5438
2026-01-06 16:55:45.35	21.39	7.71	-33.8	-34.5	24.0	0.00e+00	0	33	0	361758720	40	6071
2026-01-06 16:55:46.36	21.39	7.79	-33.7	-34.4	24.0	0.00e+00	0	33	0	367001600	40	5994
2026-01-06 16:55:47.37	21.39	7.88	-33.7	-34.4	24.1	0.00e+00	0	33	0	373293056	40	5993
2026-01-06 16:55:48.38	21.39	7.96	-33.6	-34.3	24.3	0.00e+00	0	33	0	378535936	40	5907
2026-01-06 16:55:49.39	21.39	8.04	-33.8	-34.5	24.1	0.00e+00	0	33	0	384827392	40	6056
2026-01-06 16:55:50.40	21.39	8.12	-33.7	-34.4	24.2	0.00e+00	0	33	0	390070272	40	5987
2026-01-06 16:55:51.41	21.39	8.20	-33.6	-34.3	24.3	0.00e+00	0	33	0	395313152	40	5924
2026-01-06 16:55:52.42	21.39	8.28	-33.6	-34.2	24.3	0.00e+00	0	33	0	401604608	40	5895
2026-01-06 16:55:53.42	21.39	8.36	-33.6	-34.3	24.3	0.00e+00	0	33	0	406847488	40	5918
2026-01-06 16:55:54.43	21.39	8.44	-33.5	-34.2	24.3	0.00e+00	0	33	0	413138944	40	5877
2026-01-06 16:55:55.45	21.39	8.53	-33.5	-34.2	24.4	0.00e+00	0	34	0	418381824	40	5858
2026-01-06 16:55:56.45	21.39	8.61	-33.5	-34.1	24.5	0.00e+00	0	34	0	423624704	40	5824
2026-01-06 16:55:57.46	21.39	8.69	-33.5	-34.2	24.3	0.00e+00	0	34	0	429916160	40	5856
2026-01-06 16:55:58.47	21.39	8.77	-33.4	-34.1	24.4	0.00e+00	0	33	0	435159040	40	5773
2026-01-06 16:55:59.48	21.39	8.86	-33.4	-34.1	24.5	0.00e+00	0	34	0	441450496	40	5820
2026-01-06 16:56:00.49	21.39	8.94	-33.4	-34.1	24.5	0.00e+00	0	33	0	446693376	40	5777
2026-01-06 16:56:01.50	21.39	9.02	-33.3	-33.9	24.7	0.00e+00	0	33	0	452984832	40	5687
2026-01-06 16:56:02.51	21.39	9.11	-33.4	-34.1	24.5	0.00e+00	0	34	0	458227712	40	5775
2026-01-06 16:56:03.52	21.39	9.19	-33.2	-33.9	24.7	0.00e+00	0	33	0	463470592	40	5654
2026-01-06 16:56:04.53	21.39	9.28	-33.1	-33.8	24.7	0.00e+00	0	33	0	469762048	40	5591
2026-01-06 16:56:05.53	21.39	9.36	-33.3	-34.0	24.6	0.00e+00	0	34	0	475004928	40	5714
2026-01-06 16:56:06.54	21.39	9.45	-33.1	-33.8	24.7	0.00e+00	0	34	0	481296384	40	5578
2026-01-06 16:56:07.55	21.39	9.53	-33.3	-33.9	24.6	0.00e+00	0	33	0	486539264	40	5694
2026-01-06 16:56:08.56	21.39	9.62	-33.2	-33.9	24.7	0.00e+00	0	33	0	491782144	40	5670
2026-01-06 16:56:09.57	21.39	9.71	-33.0	-33.7	24.9	0.00e+00	0	33	0	498073600	40	5551
2026-01-06 16:56:10.58	21.39	9.79	-33.0	-33.7	24.9	0.00e+00	0	34	0	503316480	40	5522
2026-01-06 16:56:11.59	21.39	9.88	-33.0	-33.7	24.9	0.00e+00	0	34	0	509607936	40	5535
2026-01-06 16:56:12.60	21.39	9.97	-33.0	-33.7	24.9	0.00e+00	0	34	0	514850816	40	5550
2026-01-06 16:56:13.61	21.39	10.05	-33.0	-33.7	24.9	0.00e+00	0	34	0	520093696	40	5542
2026-01-06 16:56:14.61	21.38	10.14	-33.0	-33.7	24.8	0.00e+00	0	34	0	526385152	40	5556
2026-01-06 16:56:15.62	21.38	10.23	-32.9	-33.6	24.9	0.00e+00	0	34	0	531628032	40	5484
2026-01-06 16:56:16.63	21.38	10.32	-32.9	-33.6	25.1	0.00e+00	0	34	0	537919488	40	5472
2026-01-06 16:56:17.64	21.38	10.41	-33.0	-33.6	25.0	0.00e+00	0	34	0	543162368	40	5478
2026-01-06 16:56:18.65	21.38	10.49	-32.9	-33.5	25.0	0.00e+00	0	34	0	549453824	40	5431
2026-01-06 16:56:19.65	21.38	10.58	-32.9	-33.6	24.9	0.00e+00	0	34	0	554696704	40	5463
2026-01-06 16:56:20.66	21.38	10.67	-33.0	-33.6	24.9	0.00e+00	0	34	0	559939584	40	5492
2026-01-06 16:56:21.67	21.38	10.76	-33.1	-33.8	25.0	0.00e+00	0	34	0	566231040	40	5603
2026-01-06 16:56:22.68	21.38	10.85	-33.0	-33.7	24.9	0.00e+00	0	34	0	571473920	40	5519
2026-01-06 16:56:23.69	21.38	10.94	-33.0	-33.7	24.9	0.00e+00	0	34	0	577765376	40	5515
2026-01-06 16:56:24.70	21.38	11.03	-33.1	-33.8	24.8	0.00e+00	0	34	0	583008256	40	5572
2026-01-06 16:56:25.71	21.37	11.13	-33.0	-33.7	24.8	0.00e+00	0	34	0	588251136	40	5520
2026-01-06 16:56:26.72	21.37	11.22	-32.8	-33.5	25.0	0.00e+00	0	34	0	594542592	40	5390
2026-01-06 16:56:27.73	21.37	11.31	-32.8	-33.4	25.1	0.00e+00	0	34	0	599785472	40	5360
2026-01-06 16:56:28.74	21.37	11.40	-32.8	-33.5	25.1	0.00e+00	0	34	0	606076928	38	6054
2026-01-06 16:56:29.75	21.37	11.50	-32.7	-33.4	25.2	0.00e+00	0	34	0	611319808	38	6007
2026-01-06 16:56:30.76	21.37	11.59	-32.8	-33.5	25.2	0.00e+00	0	34	0	616562688	38	6072
2026-01-06 16:56:31.77	21.37	11.68	-32.8	-33.5	25.1	0.00e+00	0	34	0	622854144	38	6048
2026-01-06 16:56:32.78	21.37	11.78	-32.8	-33.5	25.1	0.00e+00	0	34	0	628097024	38	6090
2026-01-06 16:56:33.79	21.36	11.87	-32.7	-33.4	25.1	0.00e+00	0	34	0	634388480	38	6010
2026-01-06 16:56:34.80	21.36	11.96	-32.8	-33.5	25.1	0.00e+00	0	34	0	639631360	38	6092
2026-01-06 16:56:35.81	21.36	12.06	-32.9	-33.6	25.1	0.00e+00	0	34	0	645922816	38	6107
2026-01-06 16:56:36.81	21.36	12.15	-32.8	-33.5	25.1	0.00e+00	0	34	0	651165696	38	6048
2026-01-06 16:56:37.82	21.36	12.25	-32.9	-33.6	25.2	0.00e+00	0	34	0	656408576	38	6139
2026-01-06 16:56:38.83	21.36	12.35	-32.6	-33.3	25.4	0.00e+00	0	34	0	662700032	38	5916
2026-01-06 16:56:39.84	21.35	12.44	-32.7	-33.4	25.3	0.00e+00	0	33	0	667942912	38	5994
2026-01-06 16:56:40.85	21.35	12.54	-32.6	-33.3	25.4	0.00e+00	0	34	0	674234368	38	5903
2026-01-06 16:56:41.86	21.35	12.64	-32.6	-33.2	25.3	0.00e+00	0	33	0	679477248	38	5896
2026-01-06 16:56:42.87	21.35	12.73	-32.6	-33.2	25.4	0.00e+00	0	33	0	684720128	38	5872
2026-01-06 16:56:43.88	21.35	12.83	-32.7	-33.3	25.3	0.00e+00	0	33	0	691011584	38	5940
2026-01-06 16:56:44.89	21.35	12.93	-32.5	-33.2	25.4	0.00e+00	0	33	0	696254464	38	5883
2026-01-06 16:56:45.90	21.34	13.03	-32.5	-33.2	25.5	0.00e+00	0	33	0	702545920	38	5832
2026-01-06 16:56:46.90	21.34	13.13	-32.5	-33.1	25.6	0.00e+00	0	34	0	707788800	38	5822
2026-01-06 16:56:47.91	21.34	13.23	-32.4	-33.1	25.5	0.00e+00	0	33	0	713031680	38	5779
2026-01-06 16:56:48.92	21.34	13.33	-32.3	-32.9	25.6	0.00e+00	0	34	0	719323136	38	5690
2026-01-06 16:56:49.93	21.34	13.43	-32.3	-32.9	25.7	0.00e+00	0	34	0	724566016	38	5678
2026-01-06 16:56:50.94	21.33	13.53	-32.3	-32.9	25.6	0.00e+00	0	34	0	730857472	38	5694
2026-01-06 16:56:51.96	21.33	13.63	-32.1	-32.7	25.8	0.00e+00	0	33	0	736100352	38	5563
2026-01-06 16:56:52.97	21.33	13.73	-32.1	-32.7	25.8	0.00e+00	0	34	0	742391808	38	5561
2026-01-06 16:56:53.97	21.33	13.83	-32.0	-32.7	25.8	0.00e+00	0	34	0	747634688	38	5506
2026-01-06 16:56:54.98	21.33	13.93	-31.9	-32.5	26.1	0.00e+00	0	34	0	752877568	38	5419
2026-01-06 16:56:55.99	21.32	14.04	-31.9	-32.6	26.0	0.00e+00	0	34	0	759169024	38	5440
2026-01-06 16:56:57.00	21.32	14.14	-31.7	-32.3	26.2	0.00e+00	0	34	0	764411904	38	5312
2026-01-06 16:56:58.01	21.32	14.24	-31.8	-32.4	26.1	0.00e+00	0	34	0	770703360	36	6014
2026-01-06 16:56:59.02	21.32	14.35	-31.6	-32.2	26.2	0.00e+00	0	34	0	775946240	36	5889
2026-01-06 16:57:00.03	21.31	14.45	-31.6	-32.3	26.3	0.00e+00	0	34	0	781189120	36	5907
2026-01-06 16:57:01.04	21.31	14.56	-31.7	-32.4	26.2	0.00e+00	0	34	0	787480576	36	5992
2026-01-06 16:57:02.05	21.31	14.66	-31.4	-32.1	26.4	0.00e+00	0	34	0	792723456	36	5798
2026-01-06 16:57:03.06	21.31	14.77	-31.5	-32.2	26.4	0.00e+00	0	34	0	799014912	36	5832
2026-01-06 16:57:04.07	21.30	14.88	-31.4	-32.0	26.3	0.00e+00	0	34	0	804257792	36	5746
2026-01-06 16:57:05.07	21.30	14.98	-31.3	-32.0	26.5	0.00e+00	0	34	0	809500672	36	5696
2026-01-06 16:57:06.09	21.30	15.09	-31.4	-32.0	26.5	0.00e+00	0	34	0	815792128	36	5723
2026-01-06 16:57:07.09	21.29	15.20	-31.3	-31.9	26.5	0.00e+00	0	34	0	821035008	36	5683
2026-01-06 16:57:08.11	21.29	15.31	-31.2	-31.8	26.7	0.00e+00	0	34	0	827326464	36	5617
2026-01-06 16:57:09.12	21.29	15.42	-31.2	-31.8	26.6	0.00e+00	0	34	0	832569344	36	5630
2026-01-06 16:57:10.13	21.29	15.53	-31.3	-31.9	26.6	0.00e+00	0	34	0	838860800	36	5669
2026-01-06 16:57:11.14	21.28	15.64	-31.3	-31.9	26.6	0.00e+00	0	34	0	844103680	36	5657
2026-01-06 16:57:12.15	21.28	15.75	-31.2	-31.8	26.7	0.00e+00	0	34	0	850395136	36	5597
2026-01-06 16:57:13.16	21.28	15.86	-31.1	-31.7	26.7	0.00e+00	0	34	0	855638016	36	5554
2026-01-06 16:57:14.17	21.27	15.97	-31.1	-31.7	26.8	0.00e+00	0	34	0	860880896	36	5547
2026-01-06 16:57:15.18	21.27	16.08	-31.1	-31.8	26.8	0.00e+00	0	34	0	867172352	36	5579
2026-01-06 16:57:16.18	21.27	16.19	-31.1	-31.8	26.7	0.00e+00	0	34	0	872415232	36	5587
2026-01-06 16:57:17.19	21.26	16.31	-31.1	-31.7	26.7	0.00e+00	0	34	0	878706688	36	5542
2026-01-06 16:57:18.20	21.26	16.42	-31.1	-31.8	26.6	0.00e+00	0	33	0	883949568	36	5586
2026-01-06 16:57:19.21	21.26	16.53	-31.1	-31.7	26.7	0.00e+00	0	33	0	889192448	36	5543
2026-01-06 16:57:20.22	21.25	16.65	-31.0	-31.6	26.8	0.00e+00	0	34	0	895483904	36	5488
2026-01-06 16:57:21.23	21.25	16.76	-31.0	-31.6	26.8	0.00e+00	0	34	0	900726784	36	5474
2026-01-06 16:57:22.24	21.25	16.88	-31.0	-31.7	26.9	0.00e+00	0	34	0	907018240	36	5520
2026-01-06 16:57:23.25	21.24	17.00	-31.0	-31.6	26.9	0.00e+00	0	33	0	912261120	36	5489
2026-01-06 16:57:24.26	21.24	17.11	-31.0	-31.6	26.8	0.00e+00	0	34	0	917504000	36	5470
2026-01-06 16:57:25.27	21.23	17.23	-31.0	-31.6	26.9	0.00e+00	0	34	0	923795456	36	5456
2026-01-06 16:57:26.27	21.23	17.35	-31.0	-31.6	26.8	0.00e+00	0	34	0	929038336	36	5491
2026-01-06 16:57:27.29	21.23	17.47	-30.9	-31.6	26.8	0.00e+00	0	34	0	935329792	36	5453
2026-01-06 16:57:28.30	21.22	17.59	-30.9	-31.6	26.8	0.00e+00	0	34	0	940572672	36	5459
2026-01-06 16:57:29.30	21.22	17.70	-31.0	-31.6	26.8	0.00e+00	0	33	0	946864128	36	5478
2026-01-06 16:57:30.31	21.21	17.82	-30.9	-31.5	27.0	0.00e+00	0	34	0	952107008	36	5424
2026-01-06 16:57:31.32	21.21	17.94	-30.8	-31.4	27.1	0.00e+00	0	34	0	957349888	36	5368
2026-01-06 16:57:32.33	21.21	18.07	-30.8	-31.4	27.0	0.00e+00	0	34	0	963641344	34	6011
2026-01-06 16:57:33.34	21.20	18.19	-30.8	-31.4	27.1	0.00e+00	0	33	0	968884224	34	6003
2026-01-06 16:57:34.35	21.20	18.31	-30.7	-31.3	27.1	0.00e+00	0	34	0	975175680	34	5925
2026-01-06 16:57:35.36	21.19	18.43	-30.6	-31.2	27.2	0.00e+00	0	33	0	980418560	34	5861
2026-01-06 16:57:36.37	21.19	18.56	-30.7	-31.3	27.1	0.00e+00	0	34	0	985661440	34	5925
2026-01-06 16:57:37.38	21.18	18.68	-30.7	-31.3	27.1	0.00e+00	0	34	0	991952896	34	5930
2026-01-06 16:57:38.38	21.18	18.81	-30.8	-31.4	27.0	0.00e+00	0	34	0	997195776	34	6014
2026-01-06 16:57:39.39	21.17	18.93	-30.7	-31.3	27.1	0.00e+00	0	33	0	1003487232	34	5944
2026-01-06 16:57:40.40	21.17	19.06	-30.6	-31.2	27.2	0.00e+00	0	34	0	1008730112	34	5875
2026-01-06 16:57:41.41	21.16	19.19	-30.4	-31.0	27.3	0.00e+00	0	34	0	1013972992	34	5756
2026-01-06 16:57:42.42	21.16	19.31	-30.4	-31.0	27.4	0.00e+00	0	34	0	1020264448	34	5720
2026-01-06 16:57:43.43	21.15	19.44	-30.5	-31.1	27.3	0.00e+00	0	34	0	1025507328	34	5810
2026-01-06 16:57:44.44	21.15	19.57	-30.4	-31.1	27.4	0.00e+00	0	34	0	1031798784	34	5762
2026-01-06 16:57:45.45	21.14	19.70	-30.3	-30.9	27.5	0.00e+00	0	34	0	1037041664	34	5679
2026-01-06 16:57:46.46	21.14	19.83	-30.4	-31.0	27.4	0.00e+00	0	34	0	1043333120	34	5741
2026-01-06 16:57:47.46	21.13	19.96	-30.3	-30.9	27.5	0.00e+00	0	34	0	1048576000	34	5688
2026-01-06 16:57:48.48	21.13	20.09	-30.2	-30.9	27.5	0.00e+00	0	34	0	1053818880	34	5635
2026-01-06 16:57:49.48	21.12	20.23	-30.3	-30.9	27.4	0.00e+00	0	34	0	1060110336	34	5679
2026-01-06 16:57:50.49	21.12	20.36	-30.3	-30.9	27.5	0.00e+00	0	34	0	1065353216	34	5648
2026-01-06 16:57:51.50	21.11	20.49	-30.2	-30.8	27.6	0.00e+00	0	34	0	1071644672	34	5590
2026-01-06 16:57:52.51	21.10	20.63	-30.1	-30.8	27.6	0.00e+00	0	34	0	1076887552	34	5575
2026-01-06 16:57:53.52	21.10	20.76	-30.2	-30.8	27.6	0.00e+00	0	34	0	1082130432	34	5599
2026-01-06 16:57:54.53	21.09	20.90	-30.1	-30.7	27.7	0.00e+00	0	34	0	1088421888	34	5514
2026-01-06 16:57:55.54	21.09	21.04	-30.2	-30.8	27.6	0.00e+00	0	34	0	1093664768	34	5598
2026-01-06 16:57:56.55	21.08	21.17	-30.1	-30.8	27.6	0.00e+00	0	34	0	1099956224	34	5581
2026-01-06 16:57:57.56	21.07	21.31	-30.2	-30.8	27.6	0.00e+00	0	34	0	1105199104	34	5612
2026-01-06 16:57:58.57	21.07	21.45	-30.2	-30.8	27.7	0.00e+00	0	34	0	1110441984	34	5611
2026-01-06 16:57:59.58	21.06	21.59	-30.1	-30.7	27.7	0.00e+00	0	34	0	1116733440	34	5525
2026-01-06 16:58:00.59	21.05	21.73	-30.2	-30.9	27.7	0.00e+00	0	34	0	1121976320	34	5636
2026-01-06 16:58:01.60	21.05	21.87	-30.0	-30.6	27.7	0.00e+00	0	34	0	1128267776	34	5480
2026-01-06 16:58:02.61	21.04	22.01	-30.1	-30.8	27.6	0.00e+00	0	34	0	1133510656	34	5584
2026-01-06 16:58:03.61	21.03	22.16	-30.1	-30.7	27.7	0.00e+00	0	34	0	1139802112	34	5539
2026-01-06 16:58:04.62	21.03	22.30	-30.2	-30.8	27.6	0.00e+00	0	34	0	1145044992	34	5624
2026-01-06 16:58:05.63	21.02	22.44	-30.1	-30.7	27.7	0.00e+00	0	34	0	1151336448	34	5561
2026-01-06 16:58:06.64	21.01	22.59	-30.0	-30.7	27.7	0.00e+00	0	34	0	1156579328	34	5515
2026-01-06 16:58:07.65	21.00	22.74	-30.2	-30.9	27.6	0.00e+00	0	34	0	1161822208	34	5643
2026-01-06 16:58:08.66	21.00	22.88	-30.1	-30.8	27.6	0.00e+00	0	34	0	1168113664	34	5572
2026-01-06 16:58:09.67	20.99	23.03	-30.1	-30.7	27.7	0.00e+00	0	34	0	1173356544	34	5512
2026-01-06 16:58:10.68	20.98	23.18	-30.0	-30.6	27.8	0.00e+00	0	34	0	1179648000	34	5470
2026-01-06 16:58:11.69	20.97	23.33	-30.0	-30.7	27.7	0.00e+00	0	34	0	1184890880	34	5536
2026-01-06 16:58:12.69	20.97	23.48	-30.1	-30.7	27.7	0.00e+00	0	34	0	1190133760	34	5537
2026-01-06 16:58:13.71	20.96	23.63	-29.9	-30.6	27.8	0.00e+00	0	34	0	1196425216	34	5471
2026-01-06 16:58:14.71	20.95	23.78	-29.9	-30.6	27.8	0.00e+00	0	34	0	1201668096	34	5451
2026-01-06 16:58:15.73	20.94	23.94	-30.0	-30.6	27.8	0.00e+00	0	34	0	1206910976	34	5476
2026-01-06 16:58:16.73	20.93	24.09	-30.0	-30.6	27.8	0.00e+00	0	34	0	1213202432	34	5477
2026-01-06 16:58:17.74	20.93	24.25	-29.8	-30.5	27.8	0.00e+00	0	34	0	1218445312	34	5390
2026-01-06 16:58:18.75	20.92	24.40	-29.9	-30.5	27.9	0.00e+00	0	34	0	1224736768	34	5422
2026-01-06 16:58:19.76	20.91	24.56	-29.8	-30.4	27.9	0.00e+00	0	34	0	1229979648	34	5354
2026-01-06 16:58:20.77	20.90	24.72	-29.6	-30.3	28.1	0.00e+00	0	34	0	1236271104	32	5902
2026-01-06 16:58:21.78	20.89	24.88	-29.7	-30.3	28.0	0.00e+00	0	34	0	1241513984	32	5933
2026-01-06 16:58:22.79	20.88	25.04	-29.7	-30.3	28.0	0.00e+00	0	34	0	1247805440	32	5950
2026-01-06 16:58:23.80	20.87	25.20	-29.6	-30.2	28.1	0.00e+00	0	34	0	1253048320	32	5840
2026-01-06 16:58:24.81	20.86	25.36	-29.5	-30.1	28.2	0.00e+00	0	34	0	1258291200	32	5800
2026-01-06 16:58:25.82	20.85	25.52	-29.5	-30.1	28.2	0.00e+00	0	34	0	1264582656	32	5827
2026-01-06 16:58:26.83	20.84	25.69	-29.7	-30.3	28.1	0.00e+00	0	34	0	1269825536	32	5929
2026-01-06 16:58:27.84	20.83	25.85	-29.7	-30.3	28.0	0.00e+00	0	34	0	1276116992	32	5943
2026-01-06 16:58:28.85	20.82	26.02	-29.5	-30.2	28.2	0.00e+00	0	34	0	1281359872	32	5831
2026-01-06 16:58:29.86	20.81	26.18	-29.6	-30.2	28.1	0.00e+00	0	34	0	1286602752	32	5886
2026-01-06 16:58:30.87	20.80	26.35	-29.5	-30.1	28.1	0.00e+00	0	34	0	1292894208	32	5803
2026-01-06 16:58:31.88	20.79	26.52	-29.5	-30.1	28.2	0.00e+00	0	34	0	1298137088	32	5776
2026-01-06 16:58:32.89	20.78	26.69	-29.5	-30.1	28.2	0.00e+00	0	34	0	1304428544	32	5793
2026-01-06 16:58:33.90	20.77	26.86	-29.3	-30.0	28.2	0.00e+00	0	34	0	1309671424	32	5719
2026-01-06 16:58:34.91	20.76	27.03	-29.3	-29.9	28.3	0.00e+00	0	34	0	1314914304	32	5661
2026-01-06 16:58:35.92	20.75	27.21	-29.4	-30.0	28.2	0.00e+00	0	34	0	1321205760	32	5737
2026-01-06 16:58:36.93	20.74	27.38	-29.3	-29.9	28.3	0.00e+00	0	34	0	1326448640	32	5664
2026-01-06 16:58:37.94	20.73	27.56	-29.4	-30.0	28.3	0.00e+00	0	34	0	1332740096	32	5735
2026-01-06 16:58:38.95	20.72	27.73	-29.3	-30.0	28.3	0.00e+00	0	34	0	1337982976	32	5699
2026-01-06 16:58:39.96	20.70	27.91	-29.5	-30.1	28.2	0.00e+00	0	34	0	1344274432	32	5808
2026-01-06 16:58:40.97	20.69	28.09	-29.4	-30.0	28.3	0.00e+00	0	34	0	1349517312	32	5726
2026-01-06 16:58:41.98	20.68	28.27	-29.4	-30.0	28.2	0.00e+00	0	34	0	1354760192	32	5735
2026-01-06 16:58:42.98	20.67	28.45	-29.4	-30.0	28.3	0.00e+00	0	34	0	1361051648	32	5752
2026-01-06 16:58:43.99	20.66	28.63	-29.4	-30.0	28.3	0.00e+00	0	34	0	1366294528	32	5714
2026-01-06 16:58:45.00	20.64	28.82	-29.4	-30.1	28.3	0.00e+00	0	34	0	1372585984	32	5765
2026-01-06 16:58:46.01	20.63	29.00	-29.3	-29.9	28.4	0.00e+00	0	34	0	1377828864	32	5640
2026-01-06 16:58:47.02	20.62	29.19	-29.2	-29.9	28.4	0.00e+00	0	34	0	1383071744	32	5639
2026-01-06 16:58:48.03	20.60	29.37	-29.3	-29.9	28.3	0.00e+00	0	34	0	1389363200	32	5693
2026-01-06 16:58:49.04	20.59	29.56	-29.2	-29.8	28.4	0.00e+00	0	34	0	1394606080	32	5610
2026-01-06 16:58:50.05	20.58	29.75	-29.3	-29.8	28.4	0.00e+00	0	34	0	1400897536	32	5628
2026-01-06 16:58:51.06	20.56	29.94	-29.2	-29.8	28.4	0.00e+00	0	34	0	1406140416	32	5629
2026-01-06 16:58:52.07	20.55	30.14	-29.3	-29.9	28.4	0.00e+00	0	34	0	1411383296	32	5695
2026-01-06 16:58:53.08	20.53	30.33	-29.3	-29.9	28.4	0.00e+00	0	34	0	1417674752	32	5670
2026-01-06 16:58:54.09	20.52	30.53	-29.4	-30.0	28.3	0.00e+00	0	34	0	1422917632	32	5748
2026-01-06 16:58:55.10	20.51	30.72	-29.4	-30.0	28.3	0.00e+00	0	34	0	1429209088	32	5739
2026-01-06 16:58:56.11	20.49	30.92	-29.6	-30.2	28.1	0.00e+00	0	34	0	1434451968	32	5865
2026-01-06 16:58:57.12	20.48	31.12	-29.4	-30.0	28.3	0.00e+00	0	34	0	1440743424	32	5709
2026-01-06 16:58:58.12	20.46	31.32	-29.4	-30.0	28.3	0.00e+00	0	34	0	1445986304	32	5733
2026-01-06 16:58:59.13	20.44	31.52	-29.3	-29.9	28.2	0.00e+00	0	34	0	1452277760	32	5653
2026-01-06 16:59:00.14	20.43	31.72	-29.2	-29.8	28.4	0.00e+00	0	34	0	1457520640	32	5628
2026-01-06 16:59:01.15	20.41	31.93	-28.9	-29.6	28.6	0.00e+00	0	34	0	1462763520	32	5469
2026-01-06 16:59:02.16	20.40	32.13	-28.8	-29.4	28.8	0.00e+00	0	34	0	1469054976	32	5333
2026-01-06 16:59:03.17	20.38	32.34	-28.8	-29.4	28.6	0.00e+00	0	34	0	1474297856	32	5359
2026-01-06 16:59:04.18	20.36	32.55	-28.6	-29.2	28.9	0.00e+00	0	34	0	1480589312	30	5857
2026-01-06 16:59:05.19	20.34	32.76	-28.7	-29.3	28.8	0.00e+00	0	34	0	1485832192	30	5942
2026-01-06 16:59:06.20	20.33	32.97	-28.7	-29.3	28.8	0.00e+00	0	34	0	1491075072	30	5936
2026-01-06 16:59:07.21	20.31	33.19	-29.0	-29.6	28.7	0.00e+00	0	34	0	1497366528	30	6121
2026-01-06 16:59:08.22	20.29	33.40	-29.0	-29.6	28.6	0.00e+00	0	34	0	1502609408	30	6124
2026-01-06 16:59:09.23	20.27	33.62	-29.0	-29.6	28.6	0.00e+00	0	34	0	1507852288	30	6107
2026-01-06 16:59:10.24	20.25	33.84	-29.0	-29.6	28.6	0.00e+00	0	34	0	1514143744	30	6156
2026-01-06 16:59:11.25	20.24	34.06	-28.8	-29.5	28.7	0.00e+00	0	34	0	1519386624	30	6042
2026-01-06 16:59:12.26	20.22	34.28	-28.8	-29.4	28.7	0.00e+00	0	34	0	1525678080	30	6008
2026-01-06 16:59:13.27	20.20	34.50	-28.8	-29.4	28.7	0.00e+00	0	34	0	1530920960	30	6020
2026-01-06 16:59:14.28	20.18	34.72	-28.6	-29.2	28.9	0.00e+00	0	34	0	1537212416	30	5889
2026-01-06 16:59:15.29	20.16	34.95	-28.7	-29.3	28.8	0.00e+00	0	34	0	1542455296	30	5923
2026-01-06 16:59:16.30	20.14	35.18	-28.7	-29.4	28.9	0.00e+00	0	34	0	1548746752	30	5967
2026-01-06 16:59:17.31	20.11	35.41	-28.8	-29.5	28.8	0.00e+00	0	34	0	1553989632	30	6044
2026-01-06 16:59:18.33	20.09	35.64	-29.0	-29.6	28.6	0.00e+00	0	34	0	1559232512	30	6132
2026-01-06 16:59:19.33	20.07	35.87	-29.1	-29.7	28.6	0.00e+00	0	34	0	1565523968	30	6226
2026-01-06 16:59:20.34	20.05	36.10	-29.1	-29.7	28.6	0.00e+00	0	34	0	1570766848	30	6216
2026-01-06 16:59:21.35	20.03	36.34	-28.8	-29.5	28.7	0.00e+00	0	34	0	1577058304	30	6049
2026-01-06 16:59:22.36	20.00	36.58	-28.8	-29.4	28.8	0.00e+00	0	34	0	1582301184	30	5977
2026-01-06 16:59:23.37	19.98	36.82	-28.5	-29.1	28.9	0.00e+00	0	34	0	1587544064	30	5818
2026-01-06 16:59:24.38	19.96	37.06	-28.3	-28.9	29.1	0.00e+00	0	34	0	1593835520	30	5632
2026-01-06 16:59:25.39	19.93	37.30	-28.2	-28.8	29.2	0.00e+00	0	34	0	1599078400	30	5587
2026-01-06 16:59:26.40	19.91	37.55	-28.3	-28.9	29.1	0.00e+00	0	34	0	1605369856	30	5670
2026-01-06 16:59:27.41	19.88	37.79	-28.5	-29.1	29.0	0.00e+00	0	34	0	1610612736	30	5799
2026-01-06 16:59:28.42	19.86	38.04	-28.7	-29.3	28.8	0.00e+00	0	34	0	1615855616	30	5917
2026-01-06 16:59:29.43	19.83	38.29	-28.8	-29.5	28.7	0.00e+00	0	34	0	1622147072	30	6048
2026-01-06 16:59:30.44	19.81	38.54	-29.0	-29.6	28.6	0.00e+00	0	34	0	1627389952	30	6166
2026-01-06 16:59:31.45	19.78	38.80	-29.0	-29.7	28.6	0.00e+00	0	34	0	1633681408	30	6174
2026-01-06 16:59:32.46	19.75	39.05	-29.0	-29.6	28.7	0.00e+00	0	34	0	1638924288	30	6162
2026-01-06 16:59:33.47	19.73	39.31	-28.9	-29.5	28.7	0.00e+00	0	34	0	1645215744	30	6103
2026-01-06 16:59:34.48	19.70	39.57	-28.8	-29.4	28.7	0.00e+00	0	34	0	1650458624	30	6033
2026-01-06 16:59:35.49	19.67	39.83	-28.9	-29.5	28.7	0.00e+00	0	34	0	1656750080	30	6094
2026-01-06 16:59:36.50	19.64	40.10	-29.0	-29.6	28.6	0.00e+00	0	34	0	1661992960	30	6107
2026-01-06 16:59:37.51	19.61	40.36	-29.0	-29.6	28.7	0.00e+00	0	34	0	1667235840	30	6155
2026-01-06 16:59:38.52	19.58	40.63	-29.0	-29.6	28.6	0.00e+00	0	34	0	1673527296	30	6151
2026-01-06 16:59:39.53	19.55	40.90	-28.9	-29.5	28.8	0.00e+00	0	34	0	1678770176	30	6078
2026-01-06 16:59:40.53	19.52	41.17	-29.0	-29.6	28.6	0.00e+00	0	34	0	1685061632	30	6154
2026-01-06 16:59:41.55	19.48	41.45	-29.0	-29.7	28.6	0.00e+00	0	34	0	1690304512	30	6174
2026-01-06 16:59:42.55	19.45	41.72	-29.1	-29.7	28.6	0.00e+00	0	34	0	1695547392	30	6203
2026-01-06 16:59:43.56	19.42	42.00	-29.0	-29.6	28.7	0.00e+00	0	34	0	1701838848	30	6114
2026-01-06 16:59:44.57	19.38	42.28	-29.0	-29.6	28.5	0.00e+00	0	34	0	1707081728	30	6151
2026-01-06 16:59:45.58	19.35	42.56	-29.1	-29.7	28.6	0.00e+00	0	34	0	1712324608	30	6214
2026-01-06 16:59:46.59	19.31	42.84	-29.2	-29.8	28.6	0.00e+00	0	34	0	1718616064	30	6278
2026-01-06 16:59:47.60	19.28	43.13	-29.2	-29.8	28.5	0.00e+00	0	34	0	1723858944	30	6273
2026-01-06 16:59:48.61	19.24	43.42	-29.5	-30.1	28.3	0.00e+00	0	34	0	1730150400	30	6503
2026-01-06 16:59:49.61	19.20	43.71	-29.6	-30.2	28.2	0.00e+00	0	34	0	1735393280	30	6595
2026-01-06 16:59:50.63	19.17	44.00	-29.7	-30.3	28.1	0.00e+00	0	34	0	1741684736	30	6691
2026-01-06 16:59:51.63	19.13	44.30	-29.7	-30.3	28.1	0.00e+00	0	34	0	1746927616	32	5944
2026-01-06 16:59:52.65	19.09	44.60	-29.6	-30.2	28.2	0.00e+00	0	34	0	1753219072	32	5846
2026-01-06 16:59:53.65	19.05	44.89	-29.3	-29.9	28.4	0.00e+00	0	34	0	1758461952	32	5673
2026-01-06 16:59:54.66	19.00	45.20	-29.3	-29.9	28.4	0.00e+00	0	34	0	1763704832	32	5671
2026-01-06 16:59:55.67	18.96	45.50	-29.3	-29.9	28.4	0.00e+00	0	34	0	1769996288	32	5639
2026-01-06 16:59:56.68	18.92	45.81	-29.3	-29.9	28.4	0.00e+00	0	34	0	1775239168	32	5648
2026-01-06 16:59:57.69	18.87	46.12	-29.6	-30.2	28.2	0.00e+00	0	34	0	1781530624	32	5871
2026-01-06 16:59:58.71	18.83	46.43	-29.9	-30.5	28.0	0.00e+00	0	34	0	1786773504	32	6077
2026-01-06 16:59:59.71	18.78	46.74	-29.8	-30.4	28.1	0.00e+00	0	34	0	1792016384	32	5999
2026-01-06 17:00:00.72	18.74	47.06	-29.6	-30.3	28.2	0.00e+00	0	34	0	1798307840	32	5903
2026-01-06 17:00:01.73	18.69	47.38	-29.2	-29.8	28.4	0.00e+00	0	34	0	1803550720	32	5629
2026-01-06 17:00:02.74	18.64	47.70	-28.9	-29.5	28.6	0.00e+00	0	34	0	1809842176	32	5425
2026-01-06 17:00:03.75	18.59	48.02	-29.0	-29.6	28.5	0.00e+00	0	34	0	1815085056	32	5480
2026-01-06 17:00:04.76	18.54	48.35	-29.3	-29.9	28.4	0.00e+00	0	34	0	1820327936	32	5688
2026-01-06 17:00:05.77	18.48	48.67	-29.4	-30.0	28.4	0.00e+00	0	34	0	1826619392	32	5759
2026-01-06 17:00:06.78	18.43	49.00	-29.3	-30.0	28.4	0.00e+00	0	34	0	1831862272	32	5721
2026-01-06 17:00:07.79	18.37	49.34	-29.2	-29.8	28.5	0.00e+00	0	34	0	1838153728	32	5607
2026-01-06 17:00:08.80	18.32	49.67	-29.0	-29.6	28.6	0.00e+00	0	34	0	1843396608	32	5464
2026-01-06 17:00:09.81	18.26	50.01	-28.9	-29.5	28.8	0.00e+00	0	34	0	1849688064	32	5427
2026-01-06 17:00:10.82	18.20	50.35	-29.5	-30.0	28.3	0.00e+00	0	34	0	1854930944	32	5748
2026-01-06 17:00:11.83	18.14	50.69	-29.9	-30.5	27.9	0.00e+00	0	34	0	1860173824	32	6097
2026-01-06 17:00:12.84	18.08	51.04	-30.0	-30.6	28.0	0.00e+00	0	34	0	1866465280	32	6135
2026-01-06 17:00:13.85	18.01	51.39	-30.0	-30.6	27.9	0.00e+00	0	34	0	1871708160	32	6168
2026-01-06 17:00:14.86	17.95	51.74	-30.2	-30.9	27.8	0.00e+00	0	34	0	1877999616	32	6319
2026-01-06 17:00:15.87	17.88	52.09	-30.4	-31.0	27.6	0.00e+00	0	34	0	1883242496	32	6455
2026-01-06 17:00:16.88	17.81	52.45	-30.7	-31.3	27.4	0.00e+00	0	34	0	1888485376	32	6654
2026-01-06 17:00:17.88	17.74	52.80	-30.8	-31.4	27.3	0.00e+00	0	34	0	1894776832	34	5994
2026-01-06 17:00:18.89	17.67	53.16	-30.6	-31.3	27.4	0.00e+00	0	34	0	1900019712	34	5899
2026-01-06 17:00:19.90	17.59	53.53	-30.6	-31.2	27.4	0.00e+00	0	34	0	1906311168	34	5848
2026-01-06 17:00:20.91	17.52	53.89	-30.4	-31.0	27.6	0.00e+00	0	34	0	1911554048	34	5752
2026-01-06 17:00:21.92	17.44	54.26	-30.7	-31.4	27.3	0.00e+00	0	34	0	1916796928	34	5990
2026-01-06 17:00:22.93	17.36	54.63	-31.0	-31.7	27.1	0.00e+00	0	34	0	1923088384	34	6203
2026-01-06 17:00:23.94	17.28	55.00	-30.5	-31.1	27.5	0.00e+00	0	34	0	1928331264	34	5805
2026-01-06 17:00:24.95	17.19	55.38	-30.0	-30.7	27.8	0.00e+00	0	34	0	1934622720	34	5508
2026-01-06 17:00:25.96	17.10	55.76	-30.2	-30.8	27.7	0.00e+00	0	34	0	1939865600	34	5603
2026-01-06 17:00:26.97	17.01	56.14	-30.0	-30.7	27.9	0.00e+00	0	34	0	1946157056	34	5504
2026-01-06 17:00:27.98	16.92	56.53	-30.1	-30.8	27.7	0.00e+00	0	34	0	1951399936	34	5595
2026-01-06 17:00:28.98	16.83	56.91	-30.0	-30.6	27.9	0.00e+00	0	34	0	1957691392	34	5472
2026-01-06 17:00:29.99	16.73	57.30	-30.0	-30.6	27.9	0.00e+00	0	34	0	1962934272	34	5456
2026-01-06 17:00:31.00	16.63	57.69	-30.0	-30.6	27.9	0.00e+00	0	34	0	1968177152	34	5464
2026-01-06 17:00:32.01	16.52	58.08	-29.6	-30.2	28.2	0.00e+00	0	34	0	1974468608	32	5890
2026-01-06 17:00:33.02	16.41	58.48	-29.4	-30.0	28.3	0.00e+00	0	34	0	1979711488	32	5744
2026-01-06 17:00:34.03	16.30	58.88	-29.3	-29.9	28.4	0.00e+00	0	34	0	1984954368	32	5640
2026-01-06 17:00:35.04	16.19	59.28	-29.1	-29.7	28.5	0.00e+00	0	34	0	1991245824	32	5555
2026-01-06 17:00:36.05	16.07	59.69	-29.1	-29.7	28.5	0.00e+00	0	34	0	1996488704	32	5544
2026-01-06 17:00:37.06	15.95	60.09	-29.0	-29.6	28.5	0.00e+00	0	34	0	2002780160	32	5440
2026-01-06 17:00:38.07	15.82	60.50	-29.1	-29.7	28.5	0.00e+00	0	34	0	2008023040	32	5545
2026-01-06 17:00:39.08	15.69	60.92	-29.3	-29.9	28.4	0.00e+00	0	34	0	2013265920	32	5633
2026-01-06 17:00:40.09	15.56	61.33	-29.3	-30.0	28.3	0.00e+00	0	34	0	2019557376	32	5707
2026-01-06 17:00:41.10	15.42	61.75	-29.0	-29.6	28.6	0.00e+00	0	34	0	2024800256	32	5467
2026-01-06 17:00:42.11	15.27	62.17	-29.1	-29.7	28.3	0.00e+00	0	34	0	2031091712	32	5558
2026-01-06 17:00:43.12	15.12	62.59	-29.3	-30.0	28.3	0.00e+00	0	34	0	2036334592	32	5699
2026-01-06 17:00:44.13	14.97	63.02	-29.2	-29.8	28.2	0.00e+00	0	34	0	2042626048	32	5609
2026-01-06 17:00:45.14	14.81	63.44	-29.0	-29.6	28.5	0.00e+00	0	34	0	2047868928	32	5459
2026-01-06 17:00:46.15	14.64	63.87	-28.9	-29.5	28.6	0.00e+00	0	34	0	2054160384	32	5409
2026-01-06 17:00:47.15	14.47	64.30	-28.8	-29.4	28.5	0.00e+00	0	34	0	2059403264	30	6023
2026-01-06 17:00:48.16	14.29	64.73	-29.0	-29.6	28.5	0.00e+00	0	34	0	2064646144	30	6164
2026-01-06 17:00:49.17	14.10	65.17	-28.8	-29.5	28.7	0.00e+00	0	34	0	2070937600	30	6055
2026-01-06 17:00:50.18	13.90	65.61	-28.7	-29.3	28.7	0.00e+00	0	34	0	2076180480	30	5959
2026-01-06 17:00:51.19	13.70	66.05	-28.5	-29.1	28.9	0.00e+00	0	34	0	2082471936	30	5808
2026-01-06 17:00:52.20	13.49	66.49	-28.7	-29.3	28.9	0.00e+00	0	34	0	2087714816	30	5920
2026-01-06 17:00:53.21	13.27	66.94	-28.4	-29.0	29.0	0.00e+00	0	34	0	2092957696	30	5756
2026-01-06 17:00:54.22	13.03	67.38	-28.4	-28.9	29.0	0.00e+00	0	34	0	2099249152	30	5694
2026-01-06 17:00:55.23	12.79	67.83	-28.5	-29.0	28.9	0.00e+00	0	34	0	2104492032	30	5757
2026-01-06 17:00:56.24	12.54	68.28	-28.5	-29.1	28.9	0.00e+00	0	34	0	2110783488	30	5771
2026-01-06 17:00:57.25	12.28	68.74	-28.2	-28.8	29.2	0.00e+00	0	34	0	2116026368	30	5605
2026-01-06 17:00:58.26	12.00	69.19	-28.1	-28.7	29.2	0.00e+00	0	34	0	2121269248	30	5524
2026-01-06 17:00:59.27	11.71	69.65	-28.1	-28.7	29.2	0.00e+00	0	34	0	2127560704	30	5543
2026-01-06 17:01:00.28	11.40	70.11	-28.0	-28.6	29.2	0.00e+00	0	34	0	2132803584	30	5485
2026-01-06 17:01:01.28	11.09	70.56	-27.8	-28.4	29.3	0.00e+00	0	34	0	2139095040	30	5367
2026-01-06 17:01:02.29	10.75	71.02	-27.7	-28.4	29.4	0.00e+00	0	34	0	2144337920	28	5980
2026-01-06 17:01:03.31	10.39	71.49	-27.7	-28.3	29.4	0.00e+00	0	34	0	2150629376	28	5952
2026-01-06 17:01:04.31	10.02	71.95	-27.8	-28.4	29.3	0.00e+00	0	34	0	2155872256	28	6009
2026-01-06 17:01:05.32	9.62	72.42	-27.6	-28.2	29.5	0.00e+00	0	34	0	2161115136	28	5873
2026-01-06 17:01:06.33	9.20	72.88	-27.3	-27.9	29.7	0.00e+00	0	34	0	2167406592	28	5687
2026-01-06 17:01:07.34	8.76	73.35	-27.3	-27.9	29.7	0.00e+00	0	34	0	2172649472	28	5694
2026-01-06 17:01:08.35	8.29	73.82	-27.4	-28.0	29.8	0.00e+00	0	34	0	2178940928	28	5712
2026-01-06 17:01:09.36	7.78	74.29	-27.1	-27.8	29.8	0.00e+00	0	34	0	2184183808	28	5569
2026-01-06 17:01:10.37	7.25	74.76	-27.2	-27.8	29.7	0.00e+00	0	34	0	2189426688	28	5590
2026-01-06 17:01:11.38	6.68	75.23	-27.4	-28.0	29.6	0.00e+00	0	34	0	2195718144	28	5713
2026-01-06 17:01:12.39	6.07	75.70	-27.4	-28.1	29.7	0.00e+00	0	34	0	2200961024	28	5762
2026-01-06 17:01:13.40	5.42	76.17	-27.2	-27.8	29.7	0.00e+00	0	34	0	2207252480	28	5602
2026-01-06 17:01:14.41	4.72	76.64	-27.3	-27.8	29.6	0.00e+00	0	34	0	2212495360	28	5615
2026-01-06 17:01:15.42	3.97	77.11	-27.2	-27.9	29.8	0.00e+00	0	34	0	2217738240	28	5646
2026-01-06 17:01:16.42	3.17	77.57	-27.1	-27.7	29.8	0.00e+00	0	34	0	2224029696	28	5532
2026-01-06 17:01:17.43	2.29	78.04	-26.8	-27.4	30.0	0.00e+00	0	34	0	2229272576	28	5338
2026-01-06 17:01:18.44	1.34	78.50	-26.9	-27.6	29.8	0.00e+00	0	34	0	2235564032	28	5465
2026-01-06 17:01:19.45	0.31	78.97	-26.7	-27.4	30.0	0.00e+00	0	34	0	2240806912	28	5338
2026-01-06 17:01:20.46	359.19	79.43	-26.4	-27.0	30.2	0.00e+00	0	34	0	2247098368	26	5737
2026-01-06 17:01:21.47	357.96	79.89	-26.5	-27.1	30.2	0.00e+00	0	34	0	2252341248	26	5804
2026-01-06 17:01:22.48	356.61	80.34	-26.7	-27.3	30.1	0.00e+00	0	34	0	2258632704	26	5931
2026-01-06 17:01:23.49	355.13	80.79	-26.6	-27.2	30.1	0.00e+00	0	34	0	2263875584	26	5877
2026-01-06 17:01:24.50	353.50	81.23	-26.5	-27.0	30.1	0.00e+00	0	34	0	2269118464	26	5750
2026-01-06 17:01:25.51	351.69	81.67	-26.6	-27.2	30.0	0.00e+00	0	34	0	2275409920	26	5874
2026-01-06 17:01:26.52	349.68	82.10	-26.5	-27.1	30.2	0.00e+00	0	34	0	2280652800	26	5783
2026-01-06 17:01:27.53	347.43	82.51	-26.3	-26.9	30.3	0.00e+00	0	34	0	2285895680	26	5692
2026-01-06 17:01:28.54	344.93	82.92	-26.2	-26.8	30.3	0.00e+00	0	34	0	2292187136	26	5600
2026-01-06 17:01:29.55	342.12	83.31	-26.6	-27.3	30.1	0.00e+00	0	34	0	2297430016	26	5904
2026-01-06 17:01:30.56	338.97	83.68	-26.3	-26.8	30.2	0.00e+00	0	34	0	2303721472	26	5604
2026-01-06 17:01:31.57	335.44	84.04	-26.6	-27.2	30.1	0.00e+00	0	34	0	2308964352	26	5844
2026-01-06 17:01:32.58	331.47	84.36	-26.6	-27.2	30.0	0.00e+00	0	34	0	2314207232	26	5876
2026-01-06 17:01:33.59	327.03	84.66	-26.7	-27.3	30.0	0.00e+00	0	34	0	2320498688	26	5929
2026-01-06 17:01:34.60	322.10	84.92	-26.9	-27.5	29.9	0.00e+00	0	34	0	2325741568	26	6081
2026-01-06 17:01:35.61	316.68	85.14	-27.0	-27.6	29.8	0.00e+00	0	34	0	2332033024	26	6136
2026-01-06 17:01:36.62	310.79	85.32	-27.0	-27.5	29.8	0.00e+00	0	34	0	2337275904	26	6102
2026-01-06 17:01:37.63	304.52	85.44	-27.1	-27.8	29.8	0.00e+00	0	34	0	2343567360	26	6253
2026-01-06 17:01:38.63	298.05	85.50	-26.9	-27.5	30.0	0.00e+00	0	34	0	2348810240	26	6074
2026-01-06 17:01:39.64	291.41	85.51	-26.8	-27.5	29.9	0.00e+00	0	34	0	2355101696	26	6042
2026-01-06 17:01:40.65	284.85	85.45	-26.9	-27.6	29.7	0.00e+00	0	34	0	2360344576	26	6126
2026-01-06 17:01:41.66	278.53	85.34	-27.0	-27.5	29.9	0.00e+00	0	34	0	2365587456	26	6102
2026-01-06 17:01:42.67	272.57	85.18	-27.2	-27.9	29.5	0.00e+00	0	34	0	2371878912	26	6321
2026-01-06 17:01:43.68	267.06	84.96	-27.1	-27.7	29.8	0.00e+00	0	34	0	2377121792	26	6177
2026-01-06 17:01:44.69	262.05	84.71	-27.0	-27.6	29.7	0.00e+00	0	34	0	2383413248	26	6132
2026-01-06 17:01:45.70	257.53	84.41	-26.9	-27.5	29.5	0.00e+00	0	34	0	2388656128	26	6059
2026-01-06 17:01:46.71	253.49	84.09	-27.0	-27.6	29.8	0.00e+00	0	34	0	2393899008	26	6119
2026-01-06 17:01:47.72	249.88	83.74	-26.9	-27.5	30.0	0.00e+00	0	34	0	2400190464	26	6075
2026-01-06 17:01:48.73	246.67	83.37	-26.4	-26.9	30.2	0.00e+00	0	34	0	2405433344	26	5683
2026-01-06 17:01:49.74	243.81	82.98	-26.4	-27.0	30.3	0.00e+00	0	34	0	2411724800	26	5742
2026-01-06 17:01:50.75	241.26	82.58	-26.2	-26.7	30.4	0.00e+00	0	34	0	2416967680	26	5547
2026-01-06 17:01:51.76	238.98	82.16	-26.2	-26.8	30.4	0.00e+00	0	34	0	2422210560	26	5607
2026-01-06 17:01:52.76	236.95	81.74	-26.4	-27.1	30.2	0.00e+00	0	34	0	2428502016	26	5792
2026-01-06 17:01:53.77	235.10	81.31	-26.5	-27.1	30.1	0.00e+00	0	34	0	2433744896	26	5785
2026-01-06 17:01:54.78	233.44	80.86	-26.5	-27.0	30.2	0.00e+00	0	34	0	2440036352	26	5755
2026-01-06 17:01:55.79	231.93	80.42	-26.4	-27.0	30.2	0.00e+00	0	34	0	2445279232	26	5758
2026-01-06 17:01:56.80	230.56	79.96	-26.7	-27.4	30.1	0.00e+00	0	34	0	2451570688	26	5974
2026-01-06 17:01:57.81	229.32	79.50	-26.5	-27.0	30.2	0.00e+00	0	34	0	2456813568	26	5751
2026-01-06 17:01:58.82	228.18	79.04	-26.5	-27.1	30.2	0.00e+00	0	34	0	2462056448	26	5818
2026-01-06 17:01:59.83	227.13	78.58	-26.5	-27.1	30.2	0.00e+00	0	34	0	2468347904	26	5821
2026-01-06 17:02:00.84	226.17	78.11	-26.4	-27.0	30.2	0.00e+00	0	34	0	2473590784	26	5741
2026-01-06 17:02:01.85	225.28	77.65	-26.6	-27.3	30.0	0.00e+00	0	34	0	2479882240	26	5923
2026-01-06 17:02:02.86	224.46	77.18	-26.8	-27.5	30.1	0.00e+00	0	34	0	2485125120	26	6045
2026-01-06 17:02:03.87	223.69	76.71	-26.9	-27.6	29.8	0.00e+00	0	34	0	2490368000	26	6113
2026-01-06 17:02:04.88	222.99	76.24	-26.8	-27.4	30.0	0.00e+00	0	34	0	2496659456	26	5969
2026-01-06 17:02:05.89	222.33	75.77	-27.1	-27.7	29.9	0.00e+00	0	34	0	2501902336	26	6239
2026-01-06 17:02:06.90	221.71	75.30	-27.6	-28.1	29.5	0.00e+00	0	34	0	2508193792	26	6534
2026-01-06 17:02:07.91	221.13	74.83	-27.6	-28.1	29.5	0.00e+00	0	34	0	2513436672	26	6521
2026-01-06 17:02:08.92	220.60	74.36	-27.5	-28.2	29.5	0.00e+00	0	34	0	2518679552	26	6558
2026-01-06 17:02:09.93	220.09	73.89	-27.5	-28.2	29.5	0.00e+00	0	34	0	2524971008	26	6571
2026-01-06 17:02:10.94	219.61	73.42	-27.7	-28.2	29.4	0.00e+00	0	34	0	2530213888	28	5892
2026-01-06 17:02:11.95	219.16	72.95	-27.9	-28.5	29.2	0.00e+00	0	34	0	2536505344	28	6088
2026-01-06 17:02:12.95	218.74	72.48	-28.1	-28.7	29.1	0.00e+00	0	34	0	2541748224	28	6216
2026-01-06 17:02:13.97	218.34	72.01	-27.8	-28.5	29.3	0.00e+00	0	34	0	2548039680	28	6036
2026-01-06 17:02:14.98	217.96	71.55	-27.7	-28.3	29.4	0.00e+00	0	34	0	2553282560	28	5916
2026-01-06 17:02:15.99	217.60	71.08	-28.2	-28.8	29.1	0.00e+00	0	34	0	2559574016	28	6251
2026-01-06 17:02:17.00	217.26	70.62	-27.9	-28.5	29.2	0.00e+00	0	34	0	2564816896	28	6074
2026-01-06 17:02:18.01	216.94	70.16	-27.6	-28.2	29.4	0.00e+00	0	34	0	2570059776	28	5885
2026-01-06 17:02:19.02	216.63	69.70	-28.0	-28.6	29.2	0.00e+00	0	34	0	2576351232	28	6124
2026-01-06 17:02:20.03	216.34	69.24	-28.4	-29.0	28.9	0.00e+00	0	34	0	2581594112	28	6447
2026-01-06 17:02:21.04	216.06	68.79	-28.2	-28.9	29.0	0.00e+00	0	34	0	2587885568	28	6323
2026-01-06 17:02:22.04	215.80	68.34	-27.9	-28.4	29.2	0.00e+00	0	34	0	2593128448	28	5984
2026-01-06 17:02:23.05	215.54	67.89	-28.2	-28.8	29.0	0.00e+00	0	34	0	2598371328	28	6246
2026-01-06 17:02:24.06	215.30	67.44	-28.5	-29.2	28.8	0.00e+00	0	34	0	2604662784	28	6548
2026-01-06 17:02:25.07	215.06	66.99	-28.5	-29.2	28.8	0.00e+00	0	34	0	2609905664	28	6587
2026-01-06 17:02:26.08	214.84	66.54	-28.2	-28.8	29.0	0.00e+00	0	34	0	2615148544	28	6268
2026-01-06 17:02:27.09	214.63	66.10	-28.5	-29.1	28.8	0.00e+00	0	34	0	2621440000	28	6529
2026-01-06 17:02:28.10	214.42	65.65	-28.4	-29.1	28.9	0.00e+00	0	34	0	2626682880	28	6523
2026-01-06 17:02:29.11	214.23	65.21	-28.0	-28.6	29.3	0.00e+00	0	34	0	2632974336	28	6120
2026-01-06 17:02:30.12	214.04	64.78	-27.7	-28.4	29.3	0.00e+00	0	34	0	2638217216	28	5992
2026-01-06 17:02:31.13	213.86	64.34	-27.9	-28.5	29.2	0.00e+00	0	34	0	2644508672	28	6088
2026-01-06 17:02:32.13	213.68	63.91	-28.2	-28.7	29.1	0.00e+00	0	34	0	2649751552	28	6214
2026-01-06 17:02:33.14	213.51	63.48	-28.3	-29.0	29.0	0.00e+00	0	34	0	2656043008	28	6414
2026-01-06 17:02:34.15	213.35	63.05	-28.3	-29.0	28.9	0.00e+00	0	34	0	2661285888	28	6429
2026-01-06 17:02:35.16	213.19	62.63	-28.2	-28.8	29.1	0.00e+00	0	34	0	2666528768	28	6277
2026-01-06 17:02:36.17	213.04	62.20	-28.2	-28.7	29.1	0.00e+00	0	34	0	2672820224	28	6204
2026-01-06 17:02:37.18	212.90	61.78	-28.6	-29.3	28.8	0.00e+00	0	34	0	2678063104	28	6648
2026-01-06 17:02:38.19	212.76	61.36	-29.1	-29.8	28.4	0.00e+00	0	34	0	2684354560	30	6268
2026-01-06 17:02:39.20	212.62	60.95	-29.0	-29.6	28.5	0.00e+00	0	34	0	2689597440	30	6111
2026-01-06 17:02:40.21	212.49	60.53	-28.8	-29.4	28.7	0.00e+00	0	34	0	2694840320	30	5983
2026-01-06 17:02:41.22	212.36	60.12	-28.7	-29.4	28.7	0.00e+00	0	34	0	2701131776	30	5987
2026-01-06 17:02:42.23	212.24	59.71	-28.9	-29.5	28.6	0.00e+00	0	34	0	2706374656	30	6039
2026-01-06 17:02:43.24	212.12	59.31	-29.1	-29.7	28.5	0.00e+00	0	34	0	2712666112	30	6244
2026-01-06 17:02:44.25	212.01	58.90	-29.1	-29.8	28.5	0.00e+00	0	34	0	2717908992	30	6252
2026-01-06 17:02:45.25	211.89	58.51	-29.1	-29.8	28.4	0.00e+00	0	34	0	2723151872	30	6314
2026-01-06 17:02:46.26	211.79	58.11	-29.2	-29.7	28.3	0.00e+00	0	34	0	2729443328	30	6241
2026-01-06 17:02:47.27	211.68	57.71	-29.4	-29.9	28.3	0.00e+00	0	34	0	2734686208	30	6344
2026-01-06 17:02:48.28	211.58	57.32	-29.6	-30.1	28.0	0.00e+00	0	34	0	2740977664	30	6516
2026-01-06 17:02:49.29	211.48	56.93	-30.1	-30.7	27.7	0.00e+00	0	34	0	2746220544	32	6197
2026-01-06 17:02:50.30	211.38	56.54	-30.4	-31.1	27.0	0.00e+00	0	34	0	2752512000	32	6508
2026-01-06 17:02:51.32	211.29	56.15	-30.3	-31.0	27.5	0.00e+00	0	34	0	2757754880	32	6391
2026-01-06 17:02:52.32	211.20	55.77	-30.2	-30.8	27.5	0.00e+00	0	34	0	2762997760	32	6253
2026-01-06 17:02:53.33	211.11	55.39	-30.2	-30.8	27.4	0.00e+00	0	34	0	2769289216	32	6246
2026-01-06 17:02:54.34	211.03	55.01	-30.3	-30.9	27.4	0.00e+00	0	34	0	2774532096	32	6327
2026-01-06 17:02:55.35	210.94	54.64	-30.4	-31.1	27.3	0.00e+00	0	34	0	2780823552	32	6505
2026-01-06 17:02:56.36	210.86	54.27	-30.3	-30.9	27.6	0.00e+00	0	34	0	2786066432	32	6366
2026-01-06 17:02:57.37	210.78	53.90	-30.1	-30.6	27.6	0.00e+00	0	34	0	2791309312	32	6146
2026-01-06 17:02:58.38	210.71	53.53	-29.6	-30.1	28.1	0.00e+00	0	34	0	2797600768	32	5822
2026-01-06 17:02:59.39	210.63	53.16	-29.8	-30.3	28.0	0.00e+00	0	34	0	2802843648	32	5915
2026-01-06 17:03:00.40	210.56	52.80	-29.9	-30.4	27.9	0.00e+00	0	34	0	2809135104	32	6026
2026-01-06 17:03:01.41	210.49	52.44	-30.2	-30.8	27.7	0.00e+00	0	34	0	2814377984	32	6270
2026-01-06 17:03:02.42	210.42	52.08	-30.1	-30.8	27.7	0.00e+00	0	34	0	2819620864	32	6295
2026-01-06 17:03:03.43	210.35	51.73	-29.8	-30.4	27.9	0.00e+00	0	34	0	2825912320	32	5989
2026-01-06 17:03:04.44	210.28	51.38	-29.3	-30.0	28.2	0.00e+00	0	34	0	2831155200	32	5743
2026-01-06 17:03:05.45	210.22	51.03	-29.0	-29.5	28.5	0.00e+00	0	34	0	2837446656	32	5399
2026-01-06 17:03:06.46	210.16	50.68	-29.0	-29.6	28.6	0.00e+00	0	34	0	2842689536	32	5498
2026-01-06 17:03:07.46	210.10	50.34	-29.1	-29.8	28.4	0.00e+00	0	34	0	2848980992	32	5606
2026-01-06 17:03:08.47	210.04	50.00	-29.3	-30.0	28.3	0.00e+00	0	34	0	2854223872	32	5723
2026-01-06 17:03:09.48	209.98	49.66	-29.4	-30.1	28.2	0.00e+00	0	34	0	2860515328	32	5780
2026-01-06 17:03:10.49	209.92	49.32	-29.4	-30.0	28.0	0.00e+00	0	34	0	2865758208	32	5752
2026-01-06 17:03:11.50	209.86	48.99	-29.1	-29.8	28.3	0.00e+00	0	34	0	2871001088	32	5595
2026-01-06 17:03:12.51	209.81	48.66	-29.0	-29.5	28.5	0.00e+00	0	34	0	2877292544	32	5435
2026-01-06 17:03:13.52	209.76	48.33	-28.9	-29.6	28.7	0.00e+00	0	34	0	2882535424	32	5479
2026-01-06 17:03:14.53	209.70	48.00	-28.9	-29.4	28.6	0.00e+00	0	34	0	2888826880	32	5353
2026-01-06 17:03:15.54	209.65	47.68	-28.7	-29.4	28.8	0.00e+00	0	34	0	2894069760	30	5988
2026-01-06 17:03:16.55	209.60	47.35	-28.7	-29.4	28.7	0.00e+00	0	34	0	2899312640	30	5971
2026-01-06 17:03:17.56	209.56	47.03	-28.7	-29.3	28.7	0.00e+00	0	34	0	2905604096	30	5919
2026-01-06 17:03:18.57	209.51	46.72	-28.8	-29.5	28.6	0.00e+00	0	34	0	2910846976	30	6085
2026-01-06 17:03:19.58	209.46	46.40	-29.0	-29.5	28.6	0.00e+00	0	34	0	2916089856	30	6079
2026-01-06 17:03:20.59	209.42	46.09	-28.8	-29.3	28.7	0.00e+00	0	34	0	2922381312	30	5938
2026-01-06 17:03:21.60	209.37	45.78	-28.6	-29.2	28.8	0.00e+00	0	34	0	2927624192	30	5881
2026-01-06 17:03:22.61	209.33	45.47	-28.7	-29.3	28.8	0.00e+00	0	34	0	2933915648	30	5939
2026-01-06 17:03:23.62	209.28	45.16	-28.8	-29.4	28.7	0.00e+00	0	34	0	2939158528	30	6016
2026-01-06 17:03:24.63	209.24	44.86	-28.9	-29.6	28.7	0.00e+00	0	34	0	2945449984	30	6107
2026-01-06 17:03:25.64	209.20	44.56	-29.0	-29.7	28.5	0.00e+00	0	34	0	2950692864	30	6214
2026-01-06 17:03:26.65	209.16	44.26	-29.0	-29.7	28.5	0.00e+00	0	34	0	2956984320	30	6232
2026-01-06 17:03:27.66	209.12	43.96	-29.0	-29.7	28.6	0.00e+00	0	34	0	2962227200	30	6213
2026-01-06 17:03:28.67	209.08	43.67	-29.0	-29.7	28.6	0.00e+00	0	34	0	2967470080	30	6188
2026-01-06 17:03:29.68	209.04	43.38	-28.9	-29.6	28.6	0.00e+00	0	34	0	2973761536	30	6115
2026-01-06 17:03:30.69	209.01	43.09	-28.9	-29.6	28.6	0.00e+00	0	34	0	2979004416	30	6130
2026-01-06 17:03:31.70	208.97	42.80	-28.7	-29.4	28.7	0.00e+00	0	34	0	2985295872	30	5998
2026-01-06 17:03:32.71	208.94	42.52	-28.9	-29.5	28.7	0.00e+00	0	34	0	2990538752	30	6103
2026-01-06 17:03:33.72	208.90	42.23	-29.0	-29.7	28.5	0.00e+00	0	34	0	2995781632	30	6214
2026-01-06 17:03:34.73	208.87	41.95	-29.1	-29.8	28.4	0.00e+00	0	34	0	3002073088	30	6297
2026-01-06 17:03:35.74	208.83	41.67	-29.1	-29.8	28.4	0.00e+00	0	34	0	3007315968	30	6283
2026-01-06 17:03:36.75	208.80	41.39	-29.2	-29.9	28.4	0.00e+00	0	34	0	3013607424	30	6336
2026-01-06 17:03:37.76	208.77	41.12	-29.1	-29.7	28.5	0.00e+00	0	34	0	3018850304	30	6242
2026-01-06 17:03:38.77	208.73	40.85	-28.7	-29.4	28.8	0.00e+00	0	34	0	3024093184	30	5993
2026-01-06 17:03:39.78	208.70	40.58	-28.4	-29.1	28.9	0.00e+00	0	34	0	3030384640	30	5809
2026-01-06 17:03:40.79	208.67	40.31	-28.5	-29.2	28.9	0.00e+00	0	34	0	3035627520	30	5839
2026-01-06 17:03:41.80	208.64	40.04	-28.3	-28.8	29.1	0.00e+00	0	34	0	3041918976	30	5596
2026-01-06 17:03:42.81	208.61	39.78	-28.3	-28.8	29.0	0.00e+00	0	34	0	3047161856	30	5630
2026-01-06 17:03:43.82	208.58	39.51	-28.2	-28.7	29.1	0.00e+00	0	34	0	3053453312	30	5565
2026-01-06 17:03:44.83	208.56	39.25	-28.2	-28.7	29.1	0.00e+00	0	34	0	3058696192	30	5560
2026-01-06 17:03:45.83	208.53	38.99	-28.2	-28.8	29.0	0.00e+00	0	34	0	3064987648	30	5588
2026-01-06 17:03:46.84	208.50	38.74	-28.2	-28.8	29.0	0.00e+00	0	34	0	3070230528	30	5567
2026-01-06 17:03:47.85	208.47	38.48	-28.2	-28.7	29.0	0.00e+00	0	34	0	3075473408	30	5557
2026-01-06 17:03:48.87	208.45	38.23	-28.1	-28.8	29.1	0.00e+00	0	34	0	3081764864	30	5607
2026-01-06 17:03:49.87	208.42	37.98	-28.0	-28.7	29.2	0.00e+00	0	34	0	3087007744	30	5561
2026-01-06 17:03:50.88	208.39	37.73	-28.0	-28.5	29.2	0.00e+00	0	34	0	3093299200	30	5429
2026-01-06 17:03:51.89	208.37	37.48	-28.0	-28.6	29.1	0.00e+00	0	34	0	3098542080	30	5496
2026-01-06 17:03:52.90	208.34	37.24	-27.9	-28.5	29.2	0.00e+00	0	34	0	3103784960	30	5385
2026-01-06 17:03:53.91	208.32	36.99	-27.9	-28.4	29.3	0.00e+00	0	34	0	3110076416	30	5328
2026-01-06 17:03:54.92	208.30	36.75	-28.0	-28.6	29.2	0.00e+00	0	34	0	3115319296	30	5447
2026-01-06 17:03:55.93	208.27	36.51	-28.2	-28.7	29.1	0.00e+00	0	34	0	3121610752	30	5524
2026-01-06 17:03:56.94	208.25	36.27	-28.3	-28.9	29.0	0.00e+00	0	34	0	3126853632	30	5645
2026-01-06 17:03:57.95	208.23	36.03	-28.6	-29.1	28.8	0.00e+00	0	34	0	3132096512	30	5801
2026-01-06 17:03:58.96	208.20	35.80	-28.7	-29.3	28.7	0.00e+00	0	34	0	3138387968	30	5927
2026-01-06 17:03:59.97	208.18	35.56	-28.7	-29.3	28.8	0.00e+00	0	34	0	3143630848	30	5916
2026-01-06 17:04:00.98	208.16	35.33	-28.8	-29.5	28.7	0.00e+00	0	34	0	3149922304	30	6065
2026-01-06 17:04:01.99	208.14	35.10	-28.9	-29.6	28.6	0.00e+00	0	34	0	3155165184	30	6147
2026-01-06 17:04:03.00	208.12	34.87	-28.8	-29.5	28.6	0.00e+00	0	34	0	3161456640	30	6073
2026-01-06 17:04:04.01	208.10	34.65	-28.7	-29.3	28.7	0.00e+00	0	34	0	3166699520	30	5908
2026-01-06 17:04:05.02	208.08	34.42	-28.7	-29.2	28.7	0.00e+00	0	34	0	3171942400	30	5891
2026-01-06 17:04:06.03	208.06	34.20	-28.7	-29.3	28.6	0.00e+00	0	34	0	3178233856	30	5926
2026-01-06 17:04:07.04	208.04	33.98	-28.9	-29.4	28.7	0.00e+00	0	34	0	3183476736	30	6008
2026-01-06 17:04:08.05	208.02	33.75	-28.9	-29.6	28.6	0.00e+00	0	34	0	3189768192	30	6136
2026-01-06 17:04:09.06	208.00	33.54	-28.7	-29.2	28.7	0.00e+00	0	34	0	3195011072	30	5853
2026-01-06 17:04:10.07	207.98	33.32	-28.7	-29.2	28.7	0.00e+00	0	34	0	3200253952	30	5855
2026-01-06 17:04:11.07	207.96	33.10	-28.8	-29.3	28.6	0.00e+00	0	34	0	3206545408	30	5955
2026-01-06 17:04:12.08	207.94	32.89	-28.8	-29.3	28.6	0.00e+00	0	34	0	3211788288	30	5939
2026-01-06 17:04:13.09	207.93	32.68	-29.0	-29.5	28.7	0.00e+00	0	34	0	3218079744	30	6060
2026-01-06 17:04:14.10	207.91	32.47	-29.0	-29.6	28.6	0.00e+00	0	34	0	3223322624	30	6105
2026-01-06 17:04:15.11	207.89	32.26	-29.0	-29.7	28.6	0.00e+00	0	34	0	3228565504	30	6177
2026-01-06 17:04:16.12	207.87	32.05	-29.1	-29.8	28.4	0.00e+00	0	34	0	3234856960	30	6249
2026-01-06 17:04:17.13	207.86	31.84	-29.1	-29.7	28.5	0.00e+00	0	34	0	3240099840	30	6175
2026-01-06 17:04:18.14	207.84	31.64	-29.1	-29.7	28.4	0.00e+00	0	34	0	3246391296	30	6183
2026-01-06 17:04:19.15	207.82	31.43	-29.0	-29.6	28.5	0.00e+00	0	34	0	3251634176	30	6110
2026-01-06 17:04:20.16	207.81	31.23	-28.9	-29.5	28.6	0.00e+00	0	34	0	3257925632	30	6060
2026-01-06 17:04:21.17	207.79	31.03	-28.9	-29.5	28.6	0.00e+00	0	34	0	3263168512	30	6045
2026-01-06 17:04:22.18	207.78	30.83	-28.9	-29.5	28.5	0.00e+00	0	34	0	3268411392	30	6036
2026-01-06 17:04:23.19	207.76	30.63	-28.8	-29.5	28.6	0.00e+00	0	34	0	3274702848	30	6034
2026-01-06 17:04:24.20	207.75	30.43	-28.7	-29.4	28.7	0.00e+00	0	34	0	3279945728	30	5990
2026-01-06 17:04:25.21	207.73	30.24	-28.8	-29.5	28.6	0.00e+00	0	34	0	3286237184	30	6059
2026-01-06 17:04:26.22	207.72	30.04	-28.8	-29.4	28.7	0.00e+00	0	34	0	3291480064	30	6023
2026-01-06 17:04:27.23	207.70	29.85	-28.8	-29.4	28.7	0.00e+00	0	34	0	3296722944	30	6017
2026-01-06 17:04:28.24	207.69	29.66	-28.8	-29.5	28.6	0.00e+00	0	34	0	3303014400	30	6084
2026-01-06 17:04:29.25	207.67	29.47	-28.8	-29.5	28.6	0.00e+00	0	34	0	3308257280	30	6084
2026-01-06 17:04:30.26	207.66	29.28	-28.8	-29.5	28.6	0.00e+00	0	34	0	3314548736	30	6057
2026-01-06 17:04:31.27	207.65	29.09	-28.9	-29.6	28.5	0.00e+00	0	34	0	3319791616	30	6153
2026-01-06 17:04:32.28	207.63	28.90	-29.0	-29.7	28.5	0.00e+00	0	34	0	3326083072	30	6201
2026-01-06 17:04:33.29	207.62	28.72	-29.1	-29.7	28.4	0.00e+00	0	34	0	3331325952	30	6243
2026-01-06 17:04:34.30	207.61	28.53	-29.1	-29.8	28.4	0.00e+00	0	34	0	3336568832	30	6247
2026-01-06 17:04:35.31	207.59	28.35	-29.2	-29.9	28.4	0.00e+00	0	34	0	3342860288	30	6325
2026-01-06 17:04:36.32	207.58	28.17	-29.0	-29.6	28.5	0.00e+00	0	34	0	3348103168	30	6126
2026-01-06 17:04:37.33	207.57	27.99	-29.2	-29.7	28.4	0.00e+00	0	34	0	3354394624	30	6236
2026-01-06 17:04:38.34	207.56	27.81	-29.1	-29.6	28.3	0.00e+00	0	34	0	3359637504	30	6170
2026-01-06 17:04:39.35	207.54	27.63	-29.0	-29.5	28.5	0.00e+00	0	34	0	3365928960	30	6092
2026-01-06 17:04:40.35	207.53	27.45	-28.9	-29.6	28.5	0.00e+00	0	34	0	3371171840	30	6138
2026-01-06 17:04:41.36	207.52	27.28	-29.0	-29.7	28.5	0.00e+00	0	34	0	3376414720	30	6189
2026-01-06 17:04:42.37	207.51	27.10	-28.9	-29.6	28.5	0.00e+00	0	34	0	3382706176	30	6118
2026-01-06 17:04:43.39	207.50	26.93	-28.9	-29.6	28.5	0.00e+00	0	34	0	3387949056	30	6155
2026-01-06 17:04:44.39	207.49	26.75	-28.9	-29.5	28.6	0.00e+00	0	34	0	3394240512	30	6100
2026-01-06 17:04:45.41	207.47	26.58	-28.8	-29.5	28.6	0.00e+00	0	34	0	3399483392	30	6066
2026-01-06 17:04:46.41	207.46	26.41	-28.9	-29.6	28.5	0.00e+00	0	34	0	3404726272	30	6135
2026-01-06 17:04:47.42	207.45	26.24	-28.9	-29.6	28.6	0.00e+00	0	34	0	3411017728	30	6121
2026-01-06 17:04:48.43	207.44	26.07	-29.0	-29.6	28.5	0.00e+00	0	34	0	3416260608	30	6165
2026-01-06 17:04:49.44	207.43	25.91	-29.1	-29.7	28.5	0.00e+00	0	34	0	3422552064	30	6242
2026-01-06 17:04:50.45	207.42	25.74	-29.2	-29.9	28.3	0.00e+00	0	34	0	3427794944	30	6334
2026-01-06 17:04:51.46	207.41	25.57	-29.1	-29.8	28.3	0.00e+00	0	34	0	3433037824	30	6311
2026-01-06 17:04:52.47	207.40	25.41	-29.3	-30.0	28.2	0.00e+00	0	34	0	3439329280	30	6431
2026-01-06 17:04:53.48	207.39	25.25	-29.3	-30.0	28.2	0.00e+00	0	34	0	3444572160	30	6440
2026-01-06 17:04:54.49	207.38	25.08	-29.3	-30.0	28.2	0.00e+00	0	34	0	3450863616	30	6455
2026-01-06 17:04:55.50	207.37	24.92	-29.4	-30.1	28.2	0.00e+00	0	34	0	3456106496	30	6511
2026-01-06 17:04:56.51	207.36	24.76	-29.6	-30.3	28.1	0.00e+00	0	34	0	3462397952	30	6642
2026-01-06 17:04:57.52	207.35	24.60	-29.6	-30.3	28.1	0.00e+00	0	34	0	3467640832	30	6649
2026-01-06 17:04:58.53	207.34	24.44	-29.6	-30.3	28.1	0.00e+00	0	34	0	3472883712	30	6655
2026-01-06 17:04:59.54	207.33	24.29	-29.5	-30.2	28.0	0.00e+00	0	34	0	3479175168	30	6596
2026-01-06 17:05:00.55	207.32	24.13	-29.8	-30.3	27.9	0.00e+00	0	34	0	3484418048	30	6680
2026-01-06 17:05:01.56	207.32	23.97	-29.7	-30.3	27.8	0.00e+00	0	34	0	3490709504	32	5940
2026-01-06 17:05:02.56	207.31	23.82	-29.6	-30.1	27.9	0.00e+00	0	34	0	3495952384	32	5813
2026-01-06 17:05:03.58	207.30	23.67	-29.5	-30.2	28.0	0.00e+00	0	34	0	3501195264	32	5871
2026-01-06 17:05:04.58	207.29	23.51	-29.6	-30.1	28.0	0.00e+00	0	34	0	3507486720	32	5821
2026-01-06 17:05:05.59	207.28	23.36	-29.6	-30.2	27.9	0.00e+00	0	34	0	3512729600	32	5848
2026-01-06 17:05:06.60	207.27	23.21	-29.7	-30.3	27.9	0.00e+00	0	34	0	3519021056	32	5928
2026-01-06 17:05:07.61	207.26	23.06	-29.7	-30.2	28.0	0.00e+00	0	34	0	3524263936	32	5869
2026-01-06 17:05:08.62	207.26	22.91	-29.7	-30.4	27.9	0.00e+00	0	34	0	3529506816	32	6029
2026-01-06 17:05:09.63	207.25	22.76	-29.7	-30.4	27.9	0.00e+00	0	34	0	3535798272	32	6029
2026-01-06 17:05:10.63	207.24	22.62	-29.6	-30.1	28.1	0.00e+00	0	34	0	3541041152	32	5816
2026-01-06 17:05:11.65	207.23	22.47	-29.6	-30.1	28.0	0.00e+00	0	34	0	3547332608	32	5803
2026-01-06 17:05:12.65	207.22	22.32	-29.6	-30.1	28.0	0.00e+00	0	34	0	3552575488	32	5811
2026-01-06 17:05:13.67	207.22	22.18	-29.6	-30.1	28.0	0.00e+00	0	34	0	3558866944	32	5807
2026-01-06 17:05:14.68	207.21	22.03	-29.7	-30.2	27.9	0.00e+00	0	34	0	3564109824	32	5880
2026-01-06 17:05:15.69	207.20	21.89	-29.8	-30.3	27.9	0.00e+00	0	34	0	3570401280	32	5961
2026-01-06 17:05:16.70	207.19	21.75	-29.7	-30.2	27.9	0.00e+00	0	34	0	3575644160	32	5896
2026-01-06 17:05:17.71	207.19	21.61	-29.7	-30.3	27.9	0.00e+00	0	34	0	3580887040	32	5926
2026-01-06 17:05:18.71	207.18	21.47	-29.8	-30.3	28.0	0.00e+00	0	34	0	3587178496	32	5938
2026-01-06 17:05:19.72	207.17	21.33	-29.8	-30.4	27.9	0.00e+00	0	34	0	3592421376	32	5990
2026-01-06 17:05:20.73	207.17	21.19	-29.9	-30.4	27.8	0.00e+00	0	34	0	3597664256	32	6029
2026-01-06 17:05:21.74	207.16	21.05	-30.1	-30.6	27.7	0.00e+00	0	34	0	3603955712	32	6147
2026-01-06 17:05:22.75	207.15	20.91	-30.0	-30.5	27.7	0.00e+00	0	34	0	3609198592	32	6087
2026-01-06 17:05:23.76	207.15	20.77	-30.0	-30.6	27.7	0.00e+00	0	34	0	3615490048	32	6133
2026-01-06 17:05:24.77	207.14	20.63	-30.1	-30.7	27.6	0.00e+00	0	34	0	3620732928	32	6203
2026-01-06 17:05:25.78	207.13	20.50	-30.2	-30.8	27.5	0.00e+00	0	34	0	3625975808	32	6248
2026-01-06 17:05:26.79	207.13	20.36	-30.2	-30.8	27.5	0.00e+00	0	34	0	3632267264	32	6251
2026-01-06 17:05:27.80	207.12	20.23	-30.2	-30.7	27.6	0.00e+00	0	34	0	3637510144	32	6243
2026-01-06 17:05:28.81	207.11	20.10	-30.3	-30.9	27.5	0.00e+00	0	34	0	3643801600	32	6318
2026-01-06 17:05:29.82	207.11	19.96	-30.3	-30.8	27.5	0.00e+00	0	34	0	3649044480	32	6308
