passes_logs/2026/01/06/R4.6S_Anadyr/R4.6S_Anadyr__20260106_161719_AQUA_rec.log

#Pass ID: 20260106_161719_AQUA
#Satellite: AQUA
#Configuration: AQUA
#almurnet v.1.7.20251203
#Start time: 2026-01-06 16:17:22

#Version: 2.2.20231116
#Station: R4.6S_Anadyr
#Location: 177.4865 lon 64.73178 lat
#TLE: 1 27424U 02022A   26004.96787593  .00001598  00000+0  32997-3 0  9996
#TLE: 2 27424  98.4069 331.2279 0002002  90.2377   0.6092 14.61798176259425

#Time	Az	El	Level	Level2	SNR	BER	BlckErr	Temp	State	Recorded	gain1	gain2
2026-01-06 16:17:22.34	19.77	0.16	-48.4	-63.3	3.5	1.51e+00	0	32	0	0	60	53111
2026-01-06 16:17:23.34	19.77	0.22	-48.8	-66.7	3.5	3.02e+01	0	33	104	0	60	83443
2026-01-06 16:17:24.35	19.78	0.29	-48.8	-66.7	3.5	3.02e+01	0	33	104	0	60	83146
2026-01-06 16:17:25.36	19.79	0.35	-48.7	-66.7	3.5	3.02e+01	0	33	104	0	60	83239
2026-01-06 16:17:26.37	19.80	0.41	-48.8	-66.7	3.5	3.02e+01	0	33	104	0	60	83463
2026-01-06 16:17:27.38	19.80	0.47	-48.8	-66.7	3.5	3.02e+01	0	33	104	0	60	82919
2026-01-06 16:17:28.39	19.81	0.54	-48.9	-66.7	3.5	3.02e+01	0	33	104	0	60	83688
2026-01-06 16:17:29.40	19.82	0.60	-48.8	-66.8	3.5	3.02e+01	0	33	104	0	60	83839
2026-01-06 16:17:30.41	19.83	0.66	-48.7	-66.7	3.5	3.02e+01	0	33	104	0	60	83612
2026-01-06 16:17:31.43	19.83	0.73	-48.8	-66.7	3.5	3.02e+01	0	33	104	0	60	82844
2026-01-06 16:17:32.44	19.84	0.79	-48.7	-66.6	3.5	3.02e+01	0	33	104	0	60	81968
2026-01-06 16:17:33.45	19.85	0.85	-48.1	-66.5	3.5	3.02e+01	0	33	104	0	60	81176
2026-01-06 16:17:34.45	19.86	0.92	-48.5	-66.4	3.5	3.02e+01	0	33	104	0	60	80330
2026-01-06 16:17:35.46	19.86	0.98	-47.8	-66.1	3.5	3.02e+01	0	33	104	0	60	77450
2026-01-06 16:17:36.47	19.87	1.05	-48.1	-66.0	3.5	3.02e+01	0	33	104	0	60	76866
2026-01-06 16:17:37.49	19.88	1.11	-47.8	-65.7	3.5	3.02e+01	0	33	104	0	60	74012
2026-01-06 16:17:38.50	19.89	1.18	-47.5	-65.0	3.5	3.02e+01	0	33	104	0	60	68135
2026-01-06 16:17:39.50	19.89	1.24	-47.5	-65.0	3.5	3.02e+01	0	33	104	0	60	68472
2026-01-06 16:17:40.51	19.90	1.30	-47.5	-65.0	3.5	3.02e+01	0	33	104	0	60	68515
2026-01-06 16:17:41.52	19.91	1.37	-47.5	-65.3	3.5	3.02e+01	0	33	104	0	60	70636
2026-01-06 16:17:42.53	19.92	1.43	-47.5	-65.2	3.5	3.02e+01	0	33	104	0	60	70428
2026-01-06 16:17:43.54	19.92	1.50	-47.5	-65.3	3.5	3.02e+01	0	33	104	0	60	70796
2026-01-06 16:17:44.55	19.93	1.57	-47.5	-65.1	3.5	3.02e+01	0	33	104	0	60	68942
2026-01-06 16:17:45.56	19.94	1.63	-47.5	-64.6	3.5	3.02e+01	0	33	104	0	60	65234
2026-01-06 16:17:46.57	19.95	1.70	-47.5	-64.6	3.5	3.02e+01	0	33	104	0	60	65195
2026-01-06 16:17:47.58	19.96	1.76	-47.5	-64.5	3.5	3.02e+01	0	33	104	0	60	64762
2026-01-06 16:17:48.59	19.96	1.83	-47.5	-64.3	3.5	3.02e+01	0	33	104	0	60	63033
2026-01-06 16:17:49.60	19.97	1.90	-47.5	-64.7	3.5	3.02e+01	0	33	104	0	60	65771
2026-01-06 16:17:50.61	19.98	1.96	-47.5	-64.9	3.5	3.02e+01	0	33	104	0	60	67344
2026-01-06 16:17:51.62	19.99	2.03	-47.5	-65.0	3.5	3.02e+01	0	33	104	0	60	68655
2026-01-06 16:17:52.63	19.99	2.10	-47.5	-65.1	3.5	3.02e+01	0	33	104	0	60	69267
2026-01-06 16:17:53.64	20.00	2.16	-47.5	-65.2	3.5	3.02e+01	0	33	104	0	60	69650
2026-01-06 16:17:54.65	20.01	2.23	-47.5	-65.2	3.5	3.02e+01	0	33	104	0	60	70169
2026-01-06 16:17:55.66	20.02	2.30	-47.5	-65.1	3.5	3.02e+01	0	34	104	0	60	69454
2026-01-06 16:17:56.67	20.02	2.36	-47.5	-65.1	3.5	3.02e+01	0	34	104	0	60	69281
2026-01-06 16:17:57.68	20.03	2.43	-47.5	-64.7	3.5	3.02e+01	0	34	104	0	60	66064
2026-01-06 16:17:58.69	20.04	2.50	-47.4	-63.7	3.5	3.02e+01	0	34	104	0	60	58819
2026-01-06 16:17:59.70	20.05	2.57	-47.4	-62.1	4.1	3.02e+01	0	34	104	0	60	49079
2026-01-06 16:18:00.71	20.06	2.64	-47.3	-60.6	4.8	3.02e+01	0	34	104	0	60	41073
2026-01-06 16:18:01.72	20.06	2.70	-47.2	-59.1	5.9	3.02e+01	91	34	104	0	60	34874
2026-01-06 16:18:02.73	20.07	2.77	-47.2	-58.1	6.0	3.02e+01	91	34	0	524288	60	30917
2026-01-06 16:18:03.73	20.08	2.84	-47.1	-57.5	6.2	3.02e+01	91	34	0	2621440	60	28970
2026-01-06 16:18:04.74	20.09	2.91	-47.1	-57.4	6.3	3.02e+01	91	34	0	4194304	60	28487
2026-01-06 16:18:05.75	20.10	2.98	-47.1	-57.5	6.3	3.02e+01	90	34	0	5767168	60	28746
2026-01-06 16:18:06.76	20.10	3.05	-46.9	-56.0	8.0	3.02e+01	71	34	0	7864320	60	24203
2026-01-06 16:18:07.77	20.11	3.12	-46.5	-53.7	10.7	3.02e+01	59	34	0	9961472	60	18730
2026-01-06 16:18:08.78	20.12	3.19	-45.8	-51.2	13.5	3.02e+01	54	34	0	11534336	60	14016
2026-01-06 16:18:09.79	20.13	3.26	-45.0	-49.3	15.6	3.02e+01	59	34	0	13631488	60	11241
2026-01-06 16:18:10.80	20.14	3.33	-44.1	-47.7	17.2	3.02e+01	60	34	0	15728640	60	9327
2026-01-06 16:18:11.81	20.14	3.40	-43.1	-46.0	19.0	3.02e+01	52	34	0	17301504	60	7652
2026-01-06 16:18:12.82	20.15	3.47	-42.5	-45.1	19.8	3.02e+01	62	34	0	19398656	60	6951
2026-01-06 16:18:13.83	20.16	3.54	-42.3	-44.8	20.1	3.02e+01	63	34	0	20971520	60	6714
2026-01-06 16:18:14.84	20.17	3.61	-42.3	-44.8	20.2	3.02e+01	60	34	0	23068672	60	6651
2026-01-06 16:18:15.85	20.18	3.68	-42.4	-45.0	19.9	3.02e+01	60	34	0	24641536	60	6813
2026-01-06 16:18:16.85	20.19	3.75	-43.0	-45.9	19.0	3.02e+01	54	34	0	26738688	60	7548
2026-01-06 16:18:17.87	20.19	3.82	-43.7	-46.9	17.9	3.02e+01	60	34	0	28835840	60	8526
2026-01-06 16:18:18.88	20.20	3.90	-44.7	-48.8	16.0	3.02e+01	57	34	0	30408704	60	10586
2026-01-06 16:18:19.89	20.21	3.97	-45.7	-51.1	13.6	3.02e+01	47	34	0	32505856	60	13847
2026-01-06 16:18:20.89	20.22	4.04	-42.3	-44.7	20.6	3.02e+01	55	34	0	34078720	60	6630
2026-01-06 16:18:21.90	20.23	4.11	-42.3	-44.8	20.0	3.02e+01	56	34	0	36175872	58	7486
2026-01-06 16:18:22.91	20.23	4.18	-47.3	-59.6	3.9	3.02e+01	0	34	104	37748736	60	36542
2026-01-06 16:18:23.92	20.24	4.26	-37.9	-39.4	25.4	3.02e+01	60	34	0	37748736	50	6384
2026-01-06 16:18:24.93	20.25	4.33	-47.1	-61.4	3.6	3.02e+01	0	34	104	39321600	60	45259
2026-01-06 16:18:25.95	20.26	4.40	-38.4	-39.9	25.2	3.02e+01	59	34	0	39321600	52	6062
2026-01-06 16:18:26.96	20.27	4.48	-37.9	-39.4	25.5	3.02e+01	58	34	0	41418752	50	6405
2026-01-06 16:18:27.96	20.28	4.55	-37.4	-38.9	26.0	3.02e+01	50	34	0	42991616	50	6049
2026-01-06 16:18:28.97	20.28	4.63	-37.4	-38.9	25.9	3.02e+01	58	34	0	45088768	50	6019
2026-01-06 16:18:29.98	20.29	4.70	-36.9	-38.3	26.4	3.02e+01	63	34	0	47185920	48	6335
2026-01-06 16:18:30.99	20.30	4.77	-37.0	-38.4	26.4	3.02e+01	59	34	0	48758784	48	6419
2026-01-06 16:18:32.00	20.31	4.85	-36.8	-38.2	26.5	3.02e+01	64	34	0	50855936	48	6276
2026-01-06 16:18:33.01	20.32	4.92	-37.0	-38.4	26.4	3.02e+01	43	34	0	52953088	48	6416
2026-01-06 16:18:34.01	20.33	5.00	-37.0	-38.4	26.5	3.02e+01	61	34	0	54525952	48	6353
2026-01-06 16:18:35.02	20.34	5.07	-36.9	-38.3	26.6	3.02e+01	61	34	0	56623104	48	6282
2026-01-06 16:18:36.03	20.34	5.15	-36.9	-38.3	26.6	3.02e+01	39	34	0	58195968	48	6319
2026-01-06 16:18:37.04	20.35	5.22	-36.6	-38.0	26.8	3.02e+01	61	34	0	60293120	48	6111
2026-01-06 16:18:38.05	20.36	5.30	-36.6	-38.0	26.9	3.02e+01	58	34	0	62390272	48	6081
2026-01-06 16:18:39.06	20.37	5.38	-36.8	-38.2	26.8	3.02e+01	58	34	0	63963136	48	6233
2026-01-06 16:18:40.07	20.38	5.45	-36.6	-38.0	26.9	3.02e+01	60	34	0	66060288	48	6075
2026-01-06 16:18:41.08	20.39	5.53	-36.5	-37.9	27.0	3.02e+01	52	34	0	67633152	48	6009
2026-01-06 16:18:42.09	20.40	5.61	-36.4	-37.8	27.1	3.02e+01	56	34	0	69730304	48	5950
2026-01-06 16:18:43.10	20.41	5.68	-36.5	-37.9	27.0	3.02e+01	61	34	0	71827456	48	6012
2026-01-06 16:18:44.11	20.41	5.76	-36.3	-37.7	27.2	3.02e+01	50	34	0	73400320	48	5889
2026-01-06 16:18:45.12	20.42	5.84	-36.5	-37.9	27.0	3.02e+01	57	34	0	75497472	48	6033
2026-01-06 16:18:46.13	20.43	5.92	-36.4	-37.7	27.1	3.02e+01	47	34	0	77070336	48	5900
2026-01-06 16:18:47.14	20.44	6.00	-36.3	-37.7	27.2	3.02e+01	59	34	0	79167488	48	5873
2026-01-06 16:18:48.15	20.45	6.08	-36.6	-37.9	27.1	3.02e+01	59	34	0	81264640	48	6030
2026-01-06 16:18:49.16	20.46	6.15	-36.4	-37.8	27.2	3.02e+01	55	34	0	82837504	48	5936
2026-01-06 16:18:50.16	20.47	6.23	-36.5	-37.8	27.2	3.02e+01	58	34	0	84934656	48	5961
2026-01-06 16:18:51.18	20.48	6.31	-36.2	-37.6	27.4	3.02e+01	59	34	0	86507520	48	5800
2026-01-06 16:18:52.18	20.49	6.39	-36.3	-37.6	27.3	3.02e+01	58	34	0	88604672	48	5835
2026-01-06 16:18:53.19	20.49	6.47	-36.4	-37.7	27.3	3.02e+01	61	34	0	90701824	48	5889
2026-01-06 16:18:54.20	20.50	6.55	-36.3	-37.7	27.3	3.02e+01	46	34	0	92274688	48	5869
2026-01-06 16:18:55.21	20.51	6.63	-36.4	-37.7	27.3	3.02e+01	53	34	0	94371840	48	5912
2026-01-06 16:18:56.22	20.52	6.71	-36.1	-37.4	27.5	3.02e+01	59	34	0	96468992	48	5718
2026-01-06 16:18:57.23	20.53	6.79	-36.2	-37.6	27.4	3.02e+01	46	34	0	98041856	48	5795
2026-01-06 16:18:58.24	20.54	6.88	-36.1	-37.5	27.5	3.02e+01	58	34	0	100139008	48	5736
2026-01-06 16:18:59.25	20.55	6.96	-36.3	-37.6	27.4	3.02e+01	59	34	0	101711872	48	5853
2026-01-06 16:19:00.25	20.56	7.04	-36.1	-37.4	27.6	3.02e+01	60	34	0	103809024	48	5689
2026-01-06 16:19:01.26	20.57	7.12	-36.1	-37.4	27.6	3.02e+01	57	34	0	105906176	48	5704
2026-01-06 16:19:02.27	20.58	7.20	-36.1	-37.4	27.7	3.02e+01	64	34	0	107479040	48	5677
2026-01-06 16:19:03.28	20.59	7.29	-36.1	-37.4	27.6	3.02e+01	61	34	0	109576192	48	5714
2026-01-06 16:19:04.29	20.60	7.37	-36.1	-37.5	27.6	3.02e+01	58	34	0	111149056	48	5736
2026-01-06 16:19:05.30	20.60	7.45	-36.0	-37.3	27.7	3.02e+01	53	34	0	113246208	48	5643
2026-01-06 16:19:06.31	20.61	7.54	-36.1	-37.4	27.6	3.02e+01	64	34	0	115343360	48	5693
2026-01-06 16:19:07.32	20.62	7.62	-36.2	-37.6	27.6	3.02e+01	62	34	0	116916224	48	5792
2026-01-06 16:19:08.33	20.63	7.70	-36.1	-37.4	27.6	3.02e+01	58	34	0	119013376	48	5721
2026-01-06 16:19:09.34	20.64	7.79	-35.9	-37.2	27.8	3.02e+01	58	34	0	120586240	46	6260
2026-01-06 16:19:10.35	20.65	7.87	-36.0	-37.3	27.8	3.02e+01	52	34	0	122683392	46	6294
2026-01-06 16:19:11.36	20.66	7.96	-36.0	-37.3	27.8	3.02e+01	59	34	0	124780544	46	6285
2026-01-06 16:19:12.37	20.67	8.05	-36.1	-37.4	27.8	3.02e+01	59	34	0	126353408	46	6364
2026-01-06 16:19:13.37	20.68	8.13	-35.9	-37.2	27.9	3.02e+01	44	34	0	128450560	46	6221
2026-01-06 16:19:14.38	20.69	8.22	-35.9	-37.1	27.9	3.02e+01	54	34	0	130023424	46	6205
2026-01-06 16:19:15.39	20.70	8.30	-35.8	-37.1	28.0	3.02e+01	59	34	0	132120576	46	6189
2026-01-06 16:19:16.40	20.71	8.39	-35.8	-37.1	28.0	3.02e+01	58	34	0	134217728	46	6159
2026-01-06 16:19:17.41	20.72	8.48	-35.7	-37.0	28.0	3.02e+01	60	34	0	135790592	46	6113
2026-01-06 16:19:18.42	20.73	8.57	-35.8	-37.0	28.0	3.02e+01	56	34	0	137887744	46	6126
2026-01-06 16:19:19.43	20.74	8.65	-35.7	-36.9	28.1	3.02e+01	60	34	0	139460608	46	6062
2026-01-06 16:19:20.44	20.75	8.74	-35.7	-37.0	28.1	3.02e+01	60	34	0	141557760	46	6095
2026-01-06 16:19:21.45	20.76	8.83	-35.6	-36.9	28.2	3.02e+01	45	34	0	143654912	46	6043
2026-01-06 16:19:22.45	20.77	8.92	-35.5	-36.8	28.3	3.02e+01	60	34	0	145227776	46	5957
2026-01-06 16:19:23.46	20.78	9.01	-35.6	-36.9	28.2	3.02e+01	53	34	0	147324928	46	6009
2026-01-06 16:19:24.47	20.79	9.10	-35.6	-36.9	28.2	3.02e+01	60	34	0	149422080	46	6003
2026-01-06 16:19:25.48	20.80	9.19	-35.5	-36.8	28.3	3.02e+01	56	34	0	150994944	46	5935
2026-01-06 16:19:26.49	20.81	9.28	-35.5	-36.8	28.4	3.02e+01	53	34	0	153092096	46	5942
2026-01-06 16:19:27.50	20.82	9.37	-35.5	-36.7	28.4	3.02e+01	61	34	0	154664960	46	5913
2026-01-06 16:19:28.51	20.83	9.46	-35.4	-36.6	28.5	3.02e+01	58	34	0	156762112	46	5827
2026-01-06 16:19:29.51	20.84	9.55	-35.4	-36.7	28.5	3.02e+01	60	34	0	158859264	46	5876
2026-01-06 16:19:30.53	20.85	9.64	-35.3	-36.5	28.6	3.02e+01	56	34	0	160432128	46	5764
2026-01-06 16:19:31.54	20.86	9.74	-35.2	-36.4	28.6	3.02e+01	46	34	0	162529280	46	5719
2026-01-06 16:19:32.55	20.87	9.83	-35.1	-36.4	28.7	3.02e+01	60	34	0	164102144	46	5677
2026-01-06 16:19:33.56	20.88	9.92	-35.2	-36.4	28.7	3.02e+01	52	34	0	166199296	46	5694
2026-01-06 16:19:34.57	20.89	10.01	-35.1	-36.4	28.7	3.02e+01	46	34	0	168296448	46	5677
2026-01-06 16:19:35.57	20.90	10.11	-35.2	-36.4	28.7	3.02e+01	58	34	0	169869312	46	5717
2026-01-06 16:19:36.58	20.91	10.20	-35.3	-36.6	28.5	3.02e+01	53	34	0	171966464	46	5805
2026-01-06 16:19:37.59	20.92	10.30	-35.2	-36.4	28.7	3.02e+01	58	34	0	173539328	46	5699
2026-01-06 16:19:38.60	20.93	10.39	-35.2	-36.4	28.7	3.02e+01	58	34	0	175636480	46	5685
2026-01-06 16:19:39.61	20.94	10.49	-35.0	-36.2	28.9	3.02e+01	60	34	0	177733632	46	5557
2026-01-06 16:19:40.62	20.95	10.58	-35.0	-36.3	28.8	3.02e+01	57	34	0	179306496	46	5617
2026-01-06 16:19:41.63	20.96	10.68	-35.0	-36.3	28.9	3.02e+01	59	34	0	181403648	46	5615
2026-01-06 16:19:42.64	20.98	10.78	-34.9	-36.2	28.9	3.02e+01	49	34	0	182976512	44	6213
2026-01-06 16:19:43.65	20.99	10.87	-34.8	-36.1	28.9	3.02e+01	60	34	0	185073664	44	6178
2026-01-06 16:19:44.66	21.00	10.97	-34.8	-36.1	29.0	3.02e+01	59	34	0	187170816	44	6176
2026-01-06 16:19:45.67	21.01	11.07	-34.9	-36.1	28.9	3.02e+01	61	34	0	188743680	44	6186
2026-01-06 16:19:46.68	21.02	11.17	-34.8	-36.1	29.0	3.02e+01	58	34	0	190840832	44	6144
2026-01-06 16:19:47.69	21.03	11.27	-34.9	-36.1	29.0	3.02e+01	55	34	0	192937984	44	6179
2026-01-06 16:19:48.70	21.04	11.37	-34.9	-36.1	29.0	3.02e+01	61	34	0	194510848	44	6194
2026-01-06 16:19:49.70	21.05	11.46	-34.8	-36.1	29.0	3.02e+01	57	34	0	196608000	44	6142
2026-01-06 16:19:50.71	21.06	11.56	-34.8	-36.1	29.0	3.02e+01	45	34	0	198180864	44	6163
2026-01-06 16:19:51.72	21.07	11.67	-34.8	-36.1	29.0	3.02e+01	61	34	0	200278016	44	6169
2026-01-06 16:19:52.73	21.09	11.77	-34.9	-36.1	29.0	3.02e+01	57	34	0	202375168	44	6176
2026-01-06 16:19:53.74	21.10	11.87	-34.9	-36.2	29.0	3.02e+01	59	34	0	203948032	44	6210
2026-01-06 16:19:54.75	21.11	11.97	-35.0	-36.2	28.9	3.02e+01	59	34	0	206045184	44	6236
2026-01-06 16:19:55.76	21.12	12.07	-35.0	-36.2	28.9	3.02e+01	51	34	0	207618048	44	6270
2026-01-06 16:19:56.77	21.13	12.18	-34.9	-36.2	29.0	3.02e+01	58	34	0	209715200	44	6213
2026-01-06 16:19:57.78	21.14	12.28	-34.8	-36.0	29.1	3.02e+01	58	34	0	211812352	44	6118
2026-01-06 16:19:58.79	21.15	12.38	-34.8	-36.1	29.1	3.02e+01	46	34	0	213385216	44	6139
2026-01-06 16:19:59.79	21.17	12.49	-34.8	-36.0	29.0	3.02e+01	61	34	0	215482368	44	6133
2026-01-06 16:20:00.80	21.18	12.59	-34.8	-36.1	29.1	3.02e+01	46	34	0	217579520	44	6145
2026-01-06 16:20:01.81	21.19	12.70	-34.9	-36.1	29.1	3.02e+01	58	34	0	219152384	44	6153
2026-01-06 16:20:02.82	21.20	12.80	-34.9	-36.1	29.1	3.02e+01	61	34	0	221249536	44	6150
2026-01-06 16:20:03.83	21.21	12.91	-34.8	-36.0	29.2	3.02e+01	52	34	0	222822400	44	6096
2026-01-06 16:20:04.84	21.22	13.02	-34.8	-36.0	29.2	3.02e+01	57	34	0	224919552	44	6117
2026-01-06 16:20:05.85	21.24	13.13	-34.7	-35.9	29.2	3.02e+01	58	34	0	227016704	44	6048
2026-01-06 16:20:06.86	21.25	13.23	-34.7	-36.0	29.2	3.02e+01	59	34	0	228589568	44	6081
2026-01-06 16:20:07.87	21.26	13.34	-34.6	-35.8	29.3	3.02e+01	62	34	0	230686720	44	5972
2026-01-06 16:20:08.88	21.27	13.45	-34.6	-35.9	29.3	3.02e+01	53	34	0	232259584	44	5998
2026-01-06 16:20:09.88	21.29	13.56	-34.5	-35.8	29.3	3.02e+01	60	34	0	234356736	44	5936
2026-01-06 16:20:10.89	21.30	13.67	-34.7	-35.9	29.3	3.02e+01	58	34	0	235929600	44	6007
2026-01-06 16:20:11.90	21.31	13.78	-34.4	-35.6	29.5	3.02e+01	53	34	0	238026752	44	5796
2026-01-06 16:20:12.91	21.32	13.89	-34.4	-35.6	29.5	3.02e+01	62	34	0	240123904	44	5852
2026-01-06 16:20:13.92	21.33	14.01	-34.4	-35.6	29.5	3.02e+01	58	34	0	241696768	44	5836
2026-01-06 16:20:14.93	21.35	14.12	-34.3	-35.5	29.6	3.02e+01	59	34	0	243793920	44	5743
2026-01-06 16:20:15.94	21.36	14.23	-34.3	-35.5	29.7	3.02e+01	62	34	0	245891072	44	5759
2026-01-06 16:20:16.95	21.37	14.34	-34.2	-35.4	29.7	3.02e+01	59	34	0	247463936	44	5694
2026-01-06 16:20:17.96	21.39	14.46	-34.2	-35.4	29.7	3.02e+01	60	34	0	249561088	44	5678
2026-01-06 16:20:18.97	21.40	14.57	-34.2	-35.4	29.6	3.02e+01	60	34	0	251133952	44	5718
2026-01-06 16:20:19.97	21.41	14.69	-34.2	-35.3	29.7	3.02e+01	46	34	0	253231104	44	5659
2026-01-06 16:20:20.99	21.42	14.81	-34.3	-35.5	29.7	3.02e+01	60	34	0	255328256	44	5748
2026-01-06 16:20:21.99	21.44	14.92	-34.2	-35.4	29.7	3.02e+01	62	34	0	256901120	44	5699
2026-01-06 16:20:23.00	21.45	15.04	-34.3	-35.5	29.7	3.02e+01	59	34	0	258998272	44	5757
2026-01-06 16:20:24.01	21.46	15.16	-34.3	-35.5	29.6	3.02e+01	61	34	0	261095424	44	5767
2026-01-06 16:20:25.02	21.48	15.28	-34.4	-35.6	29.6	3.02e+01	52	34	0	262668288	44	5796
2026-01-06 16:20:26.03	21.49	15.40	-34.4	-35.6	29.6	3.02e+01	58	34	0	264765440	44	5803
2026-01-06 16:20:27.04	21.50	15.52	-34.3	-35.5	29.7	3.02e+01	61	34	0	266338304	44	5762
2026-01-06 16:20:28.05	21.52	15.64	-34.3	-35.5	29.6	3.02e+01	46	34	0	268435456	44	5787
2026-01-06 16:20:29.06	21.53	15.76	-34.4	-35.6	29.6	3.02e+01	59	34	0	270532608	44	5825
2026-01-06 16:20:30.07	21.54	15.88	-34.4	-35.6	29.6	3.02e+01	59	34	0	272105472	44	5811
2026-01-06 16:20:31.07	21.56	16.00	-34.4	-35.6	29.6	3.02e+01	58	34	0	274202624	44	5815
2026-01-06 16:20:32.08	21.57	16.12	-34.5	-35.7	29.5	3.02e+01	58	34	0	275775488	44	5884
2026-01-06 16:20:33.09	21.58	16.25	-34.3	-35.5	29.6	3.02e+01	48	34	0	277872640	44	5785
2026-01-06 16:20:34.10	21.60	16.37	-34.4	-35.6	29.6	3.02e+01	57	34	0	279969792	44	5808
2026-01-06 16:20:35.11	21.61	16.50	-34.5	-35.7	29.5	3.02e+01	57	34	0	281542656	44	5905
2026-01-06 16:20:36.12	21.63	16.62	-34.3	-35.4	29.8	3.02e+01	52	34	0	283639808	44	5721
2026-01-06 16:20:37.13	21.64	16.75	-34.2	-35.4	29.8	3.02e+01	65	34	0	285212672	44	5675
2026-01-06 16:20:38.14	21.66	16.88	-34.2	-35.4	29.8	3.02e+01	60	34	0	287309824	44	5691
2026-01-06 16:20:39.15	21.67	17.01	-34.1	-35.3	29.8	3.02e+01	60	34	0	289406976	44	5622
2026-01-06 16:20:40.16	21.68	17.14	-34.1	-35.3	29.8	3.02e+01	59	34	0	290979840	44	5648
2026-01-06 16:20:41.16	21.70	17.26	-34.1	-35.3	29.9	3.02e+01	45	34	0	293076992	44	5628
2026-01-06 16:20:42.17	21.71	17.40	-34.2	-35.4	29.8	3.02e+01	60	34	0	294649856	44	5692
2026-01-06 16:20:43.18	21.73	17.53	-34.1	-35.3	29.8	3.02e+01	60	34	0	296747008	44	5628
2026-01-06 16:20:44.19	21.74	17.66	-34.1	-35.3	29.8	3.02e+01	56	34	0	298844160	44	5614
2026-01-06 16:20:45.20	21.76	17.79	-34.2	-35.4	29.8	3.02e+01	60	34	0	300417024	44	5678
2026-01-06 16:20:46.21	21.77	17.93	-34.1	-35.3	29.9	3.02e+01	44	34	0	302514176	44	5602
2026-01-06 16:20:47.21	21.79	18.06	-34.1	-35.3	29.8	3.02e+01	56	34	0	304087040	44	5622
2026-01-06 16:20:48.22	21.80	18.19	-34.2	-35.4	29.8	3.02e+01	57	34	0	306184192	44	5686
2026-01-06 16:20:49.23	21.82	18.33	-34.2	-35.4	29.8	3.02e+01	45	34	0	308281344	44	5697
2026-01-06 16:20:50.24	21.83	18.47	-34.1	-35.3	29.9	3.02e+01	60	34	0	309854208	44	5653
2026-01-06 16:20:51.25	21.85	18.61	-34.2	-35.4	29.8	3.02e+01	58	34	0	311951360	44	5671
2026-01-06 16:20:52.25	21.87	18.74	-34.2	-35.4	29.8	3.02e+01	58	34	0	314048512	44	5713
2026-01-06 16:20:53.26	21.88	18.88	-34.3	-35.5	29.7	3.02e+01	60	34	0	315621376	44	5763
2026-01-06 16:20:54.27	21.90	19.02	-34.3	-35.5	29.7	3.02e+01	61	34	0	317718528	44	5765
2026-01-06 16:20:55.28	21.91	19.16	-34.4	-35.6	29.7	3.02e+01	59	34	0	319291392	44	5795
2026-01-06 16:20:56.29	21.93	19.31	-34.6	-35.8	29.6	3.02e+01	55	34	0	321388544	44	5930
2026-01-06 16:20:57.30	21.95	19.45	-34.6	-35.8	29.4	3.02e+01	55	34	0	323485696	44	5943
2026-01-06 16:20:58.31	21.96	19.59	-34.5	-35.7	29.6	3.02e+01	57	34	0	325058560	44	5873
2026-01-06 16:20:59.32	21.98	19.74	-34.3	-35.5	29.7	3.02e+01	60	34	0	327155712	44	5783
2026-01-06 16:21:00.33	22.00	19.88	-34.4	-35.6	29.6	3.02e+01	59	34	0	328728576	44	5853
2026-01-06 16:21:01.34	22.01	20.03	-34.5	-35.7	29.6	3.02e+01	59	34	0	330825728	44	5866
2026-01-06 16:21:02.35	22.03	20.18	-34.5	-35.7	29.6	3.02e+01	46	34	0	332922880	44	5861
2026-01-06 16:21:03.36	22.05	20.33	-34.6	-35.8	29.6	3.02e+01	60	34	0	334495744	44	5950
2026-01-06 16:21:04.37	22.06	20.48	-34.6	-35.8	29.5	3.02e+01	58	34	0	336592896	44	5943
2026-01-06 16:21:05.38	22.08	20.63	-34.4	-35.6	29.7	3.02e+01	45	34	0	338165760	44	5810
2026-01-06 16:21:06.39	22.10	20.78	-34.5	-35.7	29.5	3.02e+01	60	34	0	340262912	44	5881
2026-01-06 16:21:07.40	22.12	20.93	-34.5	-35.7	29.6	3.02e+01	59	34	0	342360064	44	5879
2026-01-06 16:21:08.40	22.13	21.08	-34.6	-35.8	29.5	3.02e+01	61	34	0	343932928	44	5966
2026-01-06 16:21:09.41	22.15	21.24	-34.6	-35.8	29.5	3.02e+01	59	34	0	346030080	44	5994
2026-01-06 16:21:10.42	22.17	21.40	-34.6	-35.8	29.5	3.02e+01	53	34	0	347602944	44	5994
2026-01-06 16:21:11.43	22.19	21.55	-34.7	-35.9	29.5	3.02e+01	61	34	0	349700096	44	6005
2026-01-06 16:21:12.44	22.21	21.71	-34.7	-35.9	29.4	3.02e+01	60	34	0	351797248	44	6007
2026-01-06 16:21:13.45	22.22	21.87	-34.7	-35.9	29.4	3.02e+01	59	34	0	353370112	44	6057
2026-01-06 16:21:14.46	22.24	22.03	-34.6	-35.9	29.5	3.02e+01	56	34	0	355467264	44	5996
2026-01-06 16:21:15.47	22.26	22.19	-34.7	-35.9	29.5	3.02e+01	55	34	0	357564416	44	6007
2026-01-06 16:21:16.47	22.28	22.35	-34.6	-35.8	29.6	3.02e+01	58	34	0	359137280	44	5929
2026-01-06 16:21:17.49	22.30	22.52	-34.6	-35.8	29.5	3.02e+01	60	34	0	361234432	44	5961
2026-01-06 16:21:18.49	22.32	22.68	-34.6	-35.8	29.5	3.02e+01	49	34	0	362807296	44	5962
2026-01-06 16:21:19.50	22.34	22.84	-34.7	-35.9	29.5	3.02e+01	59	34	0	364904448	44	6018
2026-01-06 16:21:20.50	22.36	23.01	-34.7	-35.9	29.5	3.02e+01	60	34	0	367001600	44	6020
2026-01-06 16:21:21.51	22.38	23.18	-34.8	-36.0	29.4	3.02e+01	61	34	0	368574464	44	6102
2026-01-06 16:21:22.52	22.40	23.35	-34.6	-35.8	29.5	3.02e+01	61	34	0	370671616	44	5994
2026-01-06 16:21:23.54	22.42	23.52	-34.6	-35.8	29.5	3.02e+01	48	34	0	372244480	44	5984
2026-01-06 16:21:24.55	22.44	23.69	-34.7	-35.9	29.4	3.02e+01	60	34	0	374341632	44	6046
2026-01-06 16:21:25.55	22.46	23.86	-34.8	-36.0	29.4	3.02e+01	60	34	0	376438784	44	6068
2026-01-06 16:21:26.57	22.48	24.04	-34.8	-36.0	29.4	3.02e+01	46	34	0	378011648	44	6106
2026-01-06 16:21:27.58	22.50	24.21	-35.0	-36.2	29.1	3.02e+01	60	34	0	380108800	44	6267
2026-01-06 16:21:28.59	22.52	24.39	-34.8	-36.1	29.3	3.02e+01	59	34	0	381681664	44	6151
2026-01-06 16:21:29.59	22.54	24.57	-34.9	-36.1	29.2	3.02e+01	59	34	0	383778816	44	6202
2026-01-06 16:21:30.60	22.56	24.75	-35.0	-36.2	29.2	3.02e+01	56	34	0	385875968	44	6230
2026-01-06 16:21:31.61	22.59	24.93	-34.9	-36.2	29.2	3.02e+01	58	34	0	387448832	44	6209
2026-01-06 16:21:32.62	22.61	25.11	-35.1	-36.3	29.1	3.02e+01	57	34	0	389545984	44	6321
2026-01-06 16:21:33.63	22.63	25.29	-35.0	-36.2	29.2	3.02e+01	60	34	0	391118848	44	6258
2026-01-06 16:21:34.64	22.65	25.48	-34.9	-36.1	29.3	3.02e+01	44	34	0	393216000	44	6169
2026-01-06 16:21:35.65	22.67	25.66	-35.0	-36.3	29.2	3.02e+01	60	34	0	395313152	44	6288
2026-01-06 16:21:36.66	22.70	25.85	-34.9	-36.2	29.3	3.02e+01	57	34	0	396886016	44	6215
2026-01-06 16:21:37.67	22.72	26.04	-34.8	-36.0	29.4	3.02e+01	53	34	0	398983168	44	6093
2026-01-06 16:21:38.68	22.74	26.23	-34.9	-36.1	29.4	3.02e+01	56	34	0	400556032	44	6189
2026-01-06 16:21:39.69	22.77	26.42	-34.8	-36.0	29.5	3.02e+01	44	34	0	402653184	44	6082
2026-01-06 16:21:40.70	22.79	26.62	-34.7	-35.9	29.4	3.02e+01	59	34	0	404750336	44	6041
2026-01-06 16:21:41.71	22.81	26.81	-34.6	-35.8	29.6	3.02e+01	61	34	0	406323200	44	5931
2026-01-06 16:21:42.72	22.84	27.01	-34.4	-35.6	29.8	3.02e+01	47	34	0	408420352	44	5839
2026-01-06 16:21:43.73	22.86	27.21	-34.4	-35.6	29.7	3.02e+01	60	34	0	410517504	44	5816
2026-01-06 16:21:44.73	22.89	27.41	-34.4	-35.6	29.7	3.02e+01	62	34	0	412090368	44	5845
2026-01-06 16:21:45.74	22.91	27.61	-34.4	-35.6	29.7	3.02e+01	60	34	0	414187520	44	5813
2026-01-06 16:21:46.75	22.94	27.81	-34.4	-35.6	29.7	3.02e+01	60	34	0	415760384	44	5838
2026-01-06 16:21:47.76	22.96	28.01	-34.5	-35.7	29.7	3.02e+01	50	34	0	417857536	44	5869
2026-01-06 16:21:48.77	22.99	28.22	-34.6	-35.8	29.6	3.02e+01	62	34	0	419954688	44	5983
2026-01-06 16:21:49.78	23.02	28.43	-34.4	-35.6	29.7	3.02e+01	62	34	0	421527552	44	5842
2026-01-06 16:21:50.79	23.04	28.64	-34.2	-35.4	30.0	3.02e+01	46	34	0	423624704	44	5714
2026-01-06 16:21:51.80	23.07	28.85	-34.2	-35.3	30.0	3.02e+01	60	34	0	425197568	44	5650
2026-01-06 16:21:52.81	23.10	29.06	-34.1	-35.3	30.0	3.02e+01	44	34	0	427294720	44	5618
2026-01-06 16:21:53.82	23.12	29.28	-34.1	-35.3	30.0	3.02e+01	61	34	0	429391872	44	5625
2026-01-06 16:21:54.83	23.15	29.49	-34.2	-35.4	30.0	3.02e+01	56	34	0	430964736	44	5663
2026-01-06 16:21:55.84	23.18	29.71	-34.4	-35.6	29.7	3.02e+01	52	34	0	433061888	44	5844
2026-01-06 16:21:56.85	23.21	29.93	-34.1	-35.3	29.9	3.02e+01	51	34	0	434634752	44	5636
2026-01-06 16:21:57.86	23.24	30.15	-34.3	-35.5	29.9	3.02e+01	58	34	0	436731904	44	5743
2026-01-06 16:21:58.86	23.27	30.37	-34.1	-35.2	30.1	3.02e+01	58	34	0	438829056	44	5593
2026-01-06 16:21:59.87	23.30	30.60	-34.0	-35.2	30.1	3.02e+01	61	34	0	440401920	44	5534
2026-01-06 16:22:00.88	23.32	30.83	-34.1	-35.3	30.1	3.02e+01	43	34	0	442499072	44	5611
2026-01-06 16:22:01.89	23.36	31.06	-34.2	-35.4	30.0	3.02e+01	59	34	0	444071936	44	5682
2026-01-06 16:22:02.90	23.39	31.29	-34.3	-35.5	29.9	3.02e+01	58	34	0	446169088	44	5735
2026-01-06 16:22:03.91	23.42	31.52	-34.2	-35.3	30.0	3.02e+01	48	34	0	448266240	44	5648
2026-01-06 16:22:04.92	23.45	31.76	-34.2	-35.4	29.9	3.02e+01	59	34	0	449839104	44	5693
2026-01-06 16:22:05.93	23.48	31.99	-34.2	-35.4	30.0	3.02e+01	59	34	0	451936256	44	5690
2026-01-06 16:22:06.93	23.51	32.23	-34.4	-35.5	29.8	3.02e+01	60	34	0	454033408	44	5785
2026-01-06 16:22:07.94	23.54	32.47	-34.4	-35.6	29.8	3.02e+01	59	34	0	455606272	44	5835
2026-01-06 16:22:08.95	23.58	32.72	-34.4	-35.6	29.8	3.02e+01	53	34	0	457703424	44	5820
2026-01-06 16:22:09.96	23.61	32.96	-34.4	-35.6	29.8	3.02e+01	59	34	0	459276288	44	5825
2026-01-06 16:22:10.97	23.65	33.21	-34.5	-35.7	29.8	3.02e+01	60	34	0	461373440	44	5896
2026-01-06 16:22:11.98	23.68	33.46	-34.7	-35.9	29.6	3.02e+01	52	34	0	463470592	44	6003
2026-01-06 16:22:12.99	23.71	33.71	-34.8	-36.0	29.5	3.02e+01	60	34	0	465043456	44	6099
2026-01-06 16:22:13.99	23.75	33.96	-34.8	-36.1	29.4	3.02e+01	59	34	0	467140608	44	6137
2026-01-06 16:22:15.00	23.79	34.22	-34.8	-36.0	29.4	3.02e+01	60	34	0	468713472	44	6100
2026-01-06 16:22:16.01	23.82	34.48	-34.8	-36.0	29.4	3.02e+01	53	34	0	470810624	44	6104
2026-01-06 16:22:17.02	23.86	34.74	-34.9	-36.1	29.3	3.02e+01	53	34	0	472907776	44	6190
2026-01-06 16:22:18.03	23.90	35.00	-35.0	-36.2	29.3	3.02e+01	62	34	0	474480640	44	6254
2026-01-06 16:22:19.04	23.93	35.27	-35.3	-36.5	29.0	3.02e+01	56	34	0	476577792	44	6474
2026-01-06 16:22:20.05	23.97	35.54	-35.4	-36.7	28.9	3.02e+01	46	34	0	478674944	44	6589
2026-01-06 16:22:21.06	24.01	35.81	-35.5	-36.8	28.8	3.02e+01	59	34	0	480247808	44	6662
2026-01-06 16:22:22.07	24.05	36.08	-35.6	-36.8	28.8	3.02e+01	57	34	0	482344960	44	6707
2026-01-06 16:22:23.08	24.09	36.36	-35.7	-37.0	28.6	3.02e+01	59	34	0	483917824	44	6835
2026-01-06 16:22:24.09	24.13	36.63	-35.7	-37.0	28.6	3.02e+01	56	34	0	486014976	44	6818
2026-01-06 16:22:25.10	24.18	36.91	-35.9	-37.1	28.4	3.02e+01	50	34	0	487587840	44	6960
2026-01-06 16:22:26.11	24.22	37.20	-35.9	-37.2	28.4	3.02e+01	58	34	0	489684992	44	6988
2026-01-06 16:22:27.11	24.26	37.48	-36.3	-37.5	28.2	3.02e+01	60	34	0	491782144	46	6490
2026-01-06 16:22:28.12	24.31	37.77	-36.3	-37.5	28.1	3.02e+01	58	34	0	493355008	46	6491
2026-01-06 16:22:29.13	24.35	38.06	-36.4	-37.7	28.0	3.02e+01	59	34	0	495452160	46	6631
2026-01-06 16:22:30.14	24.40	38.35	-36.4	-37.6	28.1	3.02e+01	46	34	0	497025024	46	6571
2026-01-06 16:22:31.15	24.44	38.65	-36.5	-37.8	27.9	3.02e+01	59	34	0	499122176	46	6704
2026-01-06 16:22:32.16	24.49	38.95	-36.5	-37.9	27.9	3.02e+01	59	34	0	501219328	46	6729
2026-01-06 16:22:33.17	24.54	39.25	-36.7	-38.0	27.7	3.02e+01	54	34	0	502792192	46	6842
2026-01-06 16:22:34.18	24.59	39.56	-36.5	-37.8	27.9	3.02e+01	56	34	0	504889344	46	6709
2026-01-06 16:22:35.19	24.63	39.86	-36.5	-37.7	28.0	3.02e+01	61	34	0	506986496	46	6649
2026-01-06 16:22:36.20	24.69	40.17	-36.2	-37.4	28.3	3.02e+01	56	34	0	508559360	46	6412
2026-01-06 16:22:37.21	24.74	40.49	-36.1	-37.4	28.3	3.02e+01	60	34	0	510656512	46	6389
2026-01-06 16:22:38.21	24.79	40.80	-36.1	-37.3	28.4	3.02e+01	43	34	0	512229376	46	6349
2026-01-06 16:22:39.22	24.84	41.12	-36.0	-37.3	28.4	3.02e+01	59	34	0	514326528	46	6292
2026-01-06 16:22:40.23	24.90	41.44	-35.9	-37.2	28.4	3.02e+01	57	34	0	516423680	46	6219
2026-01-06 16:22:41.24	24.95	41.77	-35.6	-36.9	28.8	3.02e+01	46	34	0	517996544	46	5995
2026-01-06 16:22:42.25	25.01	42.09	-35.2	-36.4	29.1	3.02e+01	57	34	0	520093696	46	5713
2026-01-06 16:22:43.26	25.06	42.43	-35.3	-36.5	29.1	3.02e+01	58	34	0	522190848	46	5751
2026-01-06 16:22:44.27	25.12	42.76	-35.2	-36.5	29.2	3.02e+01	62	34	0	523763712	46	5751
2026-01-06 16:22:45.28	25.18	43.10	-34.7	-35.8	29.6	3.02e+01	59	34	0	525860864	44	5994
2026-01-06 16:22:46.29	25.24	43.44	-34.6	-35.8	29.7	3.02e+01	61	34	0	527433728	44	5955
2026-01-06 16:22:47.30	25.31	43.78	-34.6	-35.8	29.7	3.02e+01	59	34	0	529530880	44	5949
2026-01-06 16:22:48.31	25.37	44.13	-34.6	-35.8	29.7	3.02e+01	60	34	0	531628032	44	5968
2026-01-06 16:22:49.32	25.43	44.48	-34.4	-35.6	29.9	3.02e+01	46	34	0	533200896	44	5800
2026-01-06 16:22:50.33	25.50	44.83	-34.6	-35.8	29.6	3.02e+01	61	34	0	535298048	44	5943
2026-01-06 16:22:51.34	25.57	45.19	-34.5	-35.7	29.8	3.02e+01	59	34	0	536870912	44	5882
2026-01-06 16:22:52.35	25.64	45.55	-34.0	-35.2	30.1	3.02e+01	57	34	0	538968064	44	5549
2026-01-06 16:22:53.36	25.71	45.91	-34.3	-35.5	29.9	3.02e+01	60	34	0	541065216	44	5756
2026-01-06 16:22:54.36	25.78	46.28	-34.6	-35.8	29.7	3.02e+01	55	34	0	542638080	44	5928
2026-01-06 16:22:55.38	25.85	46.65	-34.6	-35.7	29.7	3.02e+01	58	34	0	544735232	44	5917
2026-01-06 16:22:56.38	25.93	47.02	-34.4	-35.6	29.8	3.02e+01	56	34	0	546308096	44	5822
2026-01-06 16:22:57.39	26.00	47.40	-34.4	-35.6	29.9	3.02e+01	46	34	0	548405248	44	5844
2026-01-06 16:22:58.40	26.08	47.78	-34.3	-35.5	29.9	3.02e+01	57	34	0	550502400	44	5728
2026-01-06 16:22:59.41	26.16	48.16	-34.5	-35.7	29.7	3.02e+01	60	34	0	552075264	44	5863
2026-01-06 16:23:00.42	26.25	48.55	-34.3	-35.5	29.9	3.02e+01	58	34	0	554172416	44	5758
2026-01-06 16:23:01.43	26.33	48.94	-34.2	-35.4	30.0	3.02e+01	57	34	0	555745280	44	5674
2026-01-06 16:23:02.44	26.42	49.34	-34.4	-35.6	29.8	3.02e+01	55	34	0	557842432	44	5824
2026-01-06 16:23:03.45	26.51	49.74	-34.5	-35.7	29.7	3.02e+01	58	34	0	559939584	44	5925
2026-01-06 16:23:04.45	26.60	50.13	-34.5	-35.7	29.7	3.02e+01	59	34	0	561512448	44	5877
2026-01-06 16:23:05.46	26.69	50.54	-34.4	-35.6	29.8	3.02e+01	54	34	0	563609600	44	5851
2026-01-06 16:23:06.47	26.79	50.95	-34.2	-35.4	30.0	3.02e+01	59	34	0	565182464	44	5696
2026-01-06 16:23:07.49	26.89	51.37	-33.9	-35.1	30.3	3.02e+01	53	34	0	567279616	42	6136
2026-01-06 16:23:08.49	26.99	51.78	-33.7	-34.9	30.4	3.02e+01	58	34	0	569376768	42	6010
2026-01-06 16:23:09.50	27.10	52.20	-33.8	-35.0	30.3	3.02e+01	60	34	0	570949632	42	6116
2026-01-06 16:23:10.51	27.20	52.63	-33.8	-34.9	30.4	3.02e+01	46	34	0	573046784	42	6060
2026-01-06 16:23:11.52	27.31	53.06	-33.7	-34.9	30.5	3.02e+01	60	34	0	575143936	42	6007
2026-01-06 16:23:12.53	27.43	53.49	-33.4	-34.5	30.7	3.02e+01	61	34	0	576716800	42	5771
2026-01-06 16:23:13.54	27.54	53.92	-33.5	-34.6	30.6	3.02e+01	60	34	0	578813952	42	5846
2026-01-06 16:23:14.55	27.66	54.36	-33.7	-34.8	30.4	3.02e+01	60	34	0	580386816	42	5988
2026-01-06 16:23:15.56	27.79	54.81	-33.7	-34.8	30.5	3.02e+01	48	34	0	582483968	42	5987
2026-01-06 16:23:16.57	27.92	55.25	-33.7	-34.9	30.4	3.02e+01	55	34	0	584581120	42	6032
2026-01-06 16:23:17.57	28.05	55.70	-34.1	-35.2	30.2	3.02e+01	59	34	0	586153984	42	6261
2026-01-06 16:23:18.58	28.18	56.16	-34.5	-35.7	29.7	3.02e+01	45	34	0	588251136	42	6603
2026-01-06 16:23:19.59	28.33	56.61	-34.8	-36.0	29.5	3.02e+01	61	34	0	589824000	42	6813
2026-01-06 16:23:20.60	28.47	57.08	-34.6	-35.8	29.6	3.02e+01	61	34	0	591921152	42	6677
2026-01-06 16:23:21.61	28.62	57.54	-35.4	-36.7	28.9	3.02e+01	58	34	0	594018304	44	6581
2026-01-06 16:23:22.61	28.78	58.01	-35.4	-36.6	29.0	3.02e+01	55	34	0	595591168	44	6532
2026-01-06 16:23:23.62	28.94	58.48	-35.2	-36.4	29.1	3.02e+01	54	34	0	597688320	44	6366
2026-01-06 16:23:24.64	29.11	58.96	-35.2	-36.5	29.2	3.02e+01	58	34	0	599261184	44	6429
2026-01-06 16:23:25.65	29.28	59.45	-35.4	-36.6	28.9	3.02e+01	58	34	0	601358336	44	6541
2026-01-06 16:23:26.65	29.46	59.93	-35.8	-37.0	28.5	3.02e+01	44	34	0	603455488	44	6856
2026-01-06 16:23:27.66	29.64	60.41	-35.9	-37.1	28.5	3.02e+01	57	34	0	605028352	44	6947
2026-01-06 16:23:28.67	29.84	60.91	-35.7	-36.9	28.7	3.02e+01	55	34	0	607125504	46	6031
2026-01-06 16:23:29.68	30.04	61.40	-36.1	-37.3	28.3	3.02e+01	57	34	0	608698368	46	6329
2026-01-06 16:23:30.69	30.25	61.90	-36.7	-38.0	27.8	3.02e+01	58	34	0	610795520	46	6864
2026-01-06 16:23:31.70	30.46	62.41	-36.4	-37.7	28.0	3.02e+01	44	34	0	612892672	46	6585
2026-01-06 16:23:32.70	30.69	62.91	-36.8	-38.1	27.6	3.02e+01	60	34	0	614465536	46	6913
2026-01-06 16:23:33.71	30.92	63.42	-37.4	-38.8	27.0	3.02e+01	57	34	0	616562688	48	6669
2026-01-06 16:23:34.72	31.17	63.93	-37.7	-39.1	26.7	3.02e+01	45	34	0	618659840	48	6919
2026-01-06 16:23:35.73	31.43	64.45	-38.2	-39.6	26.3	3.02e+01	61	34	0	620232704	50	6517
2026-01-06 16:23:36.74	31.70	64.97	-38.5	-39.9	26.0	3.02e+01	60	34	0	622329856	50	6783
2026-01-06 16:23:37.75	31.98	65.49	-39.3	-40.9	24.9	3.02e+01	61	34	0	623902720	52	6736
2026-01-06 16:23:38.76	32.28	66.02	-38.7	-40.2	25.8	3.02e+01	59	34	0	625999872	52	6224
2026-01-06 16:23:39.77	32.59	66.55	-39.2	-40.8	25.1	3.02e+01	55	34	0	628097024	52	6657
2026-01-06 16:23:40.78	32.91	67.08	-39.1	-40.6	25.3	3.02e+01	62	34	0	629669888	52	6556
2026-01-06 16:23:41.79	33.26	67.62	-39.6	-41.2	24.8	3.02e+01	59	34	0	631767040	52	6979
2026-01-06 16:23:42.80	33.62	68.15	-39.8	-41.4	24.6	3.02e+01	63	34	0	633339904	52	7163
2026-01-06 16:23:43.81	34.00	68.69	-39.5	-41.0	24.8	3.02e+01	58	34	0	635437056	52	6867
2026-01-06 16:23:44.82	34.40	69.24	-39.8	-41.4	24.7	3.02e+01	50	34	0	637534208	52	7175
2026-01-06 16:23:45.83	34.83	69.78	-39.6	-41.2	24.8	3.02e+01	58	34	0	639107072	52	7022
2026-01-06 16:23:46.84	35.28	70.33	-40.0	-41.6	24.4	3.02e+01	60	34	0	641204224	54	6561
2026-01-06 16:23:47.85	35.76	70.88	-39.2	-40.7	25.2	3.02e+01	44	34	0	643301376	54	5923
2026-01-06 16:23:48.86	36.26	71.43	-38.9	-40.4	25.5	3.02e+01	58	34	0	644874240	52	6406
2026-01-06 16:23:49.86	36.80	71.98	-38.9	-40.3	25.5	3.02e+01	57	34	0	646971392	52	6347
2026-01-06 16:23:50.88	37.38	72.54	-38.4	-39.8	26.1	3.02e+01	59	34	0	648544256	52	5979
2026-01-06 16:23:51.89	38.00	73.09	-38.0	-39.4	26.5	3.02e+01	58	34	0	650641408	50	6370
2026-01-06 16:23:52.90	38.66	73.65	-38.3	-39.7	26.1	3.02e+01	45	34	0	652214272	50	6620
2026-01-06 16:23:53.91	39.37	74.21	-37.7	-39.1	26.7	3.02e+01	59	34	0	654311424	50	6149
2026-01-06 16:23:54.92	40.13	74.76	-37.9	-39.3	26.5	3.02e+01	61	34	0	656408576	50	6290
2026-01-06 16:23:55.92	40.95	75.31	-37.8	-39.2	26.6	3.02e+01	45	34	0	657981440	50	6240
2026-01-06 16:23:56.93	41.84	75.87	-37.6	-38.9	26.9	3.02e+01	59	34	0	660078592	50	6043
2026-01-06 16:23:57.94	42.81	76.42	-37.6	-39.0	26.7	3.02e+01	57	34	0	661651456	50	6112
2026-01-06 16:23:58.95	43.86	76.98	-37.3	-38.6	27.1	3.02e+01	57	34	0	663748608	50	5852
2026-01-06 16:23:59.96	45.00	77.53	-37.1	-38.5	27.3	3.02e+01	57	34	0	665845760	50	5729
2026-01-06 16:24:00.97	46.26	78.07	-36.9	-38.2	27.5	3.02e+01	52	34	0	667418624	50	5583
2026-01-06 16:24:01.98	47.63	78.62	-36.6	-37.9	27.7	3.02e+01	59	34	0	669515776	48	6055
2026-01-06 16:24:02.99	49.15	79.16	-36.2	-37.5	28.2	3.02e+01	60	34	0	671612928	48	5729
2026-01-06 16:24:04.00	50.83	79.69	-35.9	-37.2	28.5	3.02e+01	47	34	0	673185792	46	6227
2026-01-06 16:24:05.01	52.69	80.21	-35.8	-37.0	28.5	3.02e+01	61	34	0	675282944	46	6112
2026-01-06 16:24:06.02	54.76	80.72	-35.2	-36.4	29.1	3.02e+01	59	34	0	676855808	46	5706
2026-01-06 16:24:07.03	57.07	81.22	-35.4	-36.6	29.1	3.02e+01	59	34	0	678952960	46	5842
2026-01-06 16:24:08.04	59.67	81.71	-34.6	-35.8	29.6	3.02e+01	58	34	0	681050112	44	5973
2026-01-06 16:24:09.05	62.58	82.18	-34.7	-35.9	29.5	3.02e+01	50	34	0	682622976	44	6006
2026-01-06 16:24:10.05	65.83	82.62	-34.7	-35.9	29.5	3.02e+01	59	34	0	684720128	44	6035
2026-01-06 16:24:11.06	69.52	83.04	-34.8	-36.0	29.4	3.02e+01	59	34	0	686817280	44	6068
2026-01-06 16:24:12.07	73.67	83.43	-35.0	-36.2	29.2	3.02e+01	53	34	0	688390144	44	6232
2026-01-06 16:24:13.08	78.32	83.78	-35.6	-36.8	28.7	3.02e+01	57	34	0	690487296	44	6725
2026-01-06 16:24:14.09	83.49	84.09	-35.0	-36.2	29.1	3.02e+01	56	34	0	692060160	44	6240
2026-01-06 16:24:15.10	89.18	84.34	-35.6	-36.9	28.3	3.02e+01	60	34	0	694157312	44	6775
2026-01-06 16:24:16.11	95.34	84.54	-35.6	-36.9	28.5	3.02e+01	60	34	0	696254464	46	6007
2026-01-06 16:24:17.12	101.88	84.67	-34.8	-36.1	29.3	3.02e+01	55	34	0	697827328	44	6136
2026-01-06 16:24:18.13	108.64	84.72	-35.3	-36.5	29.0	3.02e+01	59	34	0	699924480	44	6495
2026-01-06 16:24:19.14	115.45	84.70	-34.9	-36.1	29.4	3.02e+01	61	34	0	701497344	44	6145
2026-01-06 16:24:20.15	122.12	84.61	-34.7	-35.9	29.5	3.02e+01	51	34	0	703594496	44	6040
2026-01-06 16:24:21.16	128.49	84.45	-34.6	-35.8	29.4	3.02e+01	63	34	0	705691648	44	5977
2026-01-06 16:24:22.17	134.42	84.22	-34.8	-36.0	29.4	3.02e+01	45	34	0	707264512	44	6079
2026-01-06 16:24:23.18	139.86	83.94	-34.9	-36.2	29.3	3.02e+01	62	34	0	709361664	44	6210
2026-01-06 16:24:24.18	144.72	83.62	-35.5	-36.8	28.7	3.02e+01	61	34	0	710934528	44	6652
2026-01-06 16:24:25.19	149.12	83.24	-35.0	-36.2	29.2	3.02e+01	54	34	0	713031680	44	6234
2026-01-06 16:24:26.20	153.04	82.84	-35.1	-36.3	29.2	3.02e+01	56	34	0	715128832	44	6300
2026-01-06 16:24:27.21	156.52	82.40	-35.4	-36.7	28.8	3.02e+01	57	34	0	716701696	44	6615
2026-01-06 16:24:28.22	159.61	81.94	-35.5	-36.7	28.8	3.02e+01	58	34	0	718798848	44	6616
2026-01-06 16:24:29.23	162.36	81.47	-35.0	-36.2	29.3	3.02e+01	56	34	0	720371712	44	6226
2026-01-06 16:24:30.24	164.81	80.97	-35.5	-36.7	28.8	3.02e+01	44	34	0	722468864	44	6625
2026-01-06 16:24:31.25	167.00	80.46	-35.4	-36.6	28.9	3.02e+01	58	34	0	724566016	44	6559
2026-01-06 16:24:32.26	168.97	79.95	-35.3	-36.6	29.0	3.02e+01	59	34	0	726138880	44	6517
2026-01-06 16:24:33.27	170.73	79.42	-35.9	-37.1	28.4	3.02e+01	45	34	0	728236032	44	6932
2026-01-06 16:24:34.28	172.33	78.88	-35.7	-36.9	28.5	3.02e+01	63	34	0	729808896	44	6804
2026-01-06 16:24:35.29	173.77	78.34	-36.6	-37.9	27.7	3.02e+01	58	34	0	731906048	46	6787
2026-01-06 16:24:36.30	175.08	77.80	-36.6	-37.9	27.8	3.02e+01	61	34	0	734003200	46	6770
2026-01-06 16:24:37.31	176.28	77.25	-37.2	-38.6	27.2	3.02e+01	62	34	0	735576064	48	6508
2026-01-06 16:24:38.32	177.38	76.69	-37.8	-39.1	26.6	3.02e+01	47	34	0	737673216	48	6960
2026-01-06 16:24:39.32	178.37	76.14	-38.0	-39.5	26.1	3.02e+01	62	34	0	739770368	50	6442
2026-01-06 16:24:40.33	179.30	75.59	-38.2	-39.6	26.1	3.02e+01	57	34	0	741343232	50	6506
2026-01-06 16:24:41.34	180.16	75.03	-38.2	-39.6	26.3	3.02e+01	46	34	0	743440384	50	6568
2026-01-06 16:24:42.35	180.95	74.47	-38.3	-39.8	26.1	3.02e+01	59	34	0	745013248	50	6650
2026-01-06 16:24:43.36	181.69	73.92	-38.4	-39.9	25.9	3.02e+01	61	34	0	747110400	50	6772
2026-01-06 16:24:44.37	182.37	73.36	-37.9	-39.3	26.4	3.02e+01	59	34	0	749207552	50	6329
2026-01-06 16:24:45.38	183.01	72.80	-38.4	-39.8	26.1	3.02e+01	58	34	0	750780416	50	6691
2026-01-06 16:24:46.39	183.61	72.25	-38.4	-39.8	26.0	3.02e+01	47	34	0	752877568	50	6710
2026-01-06 16:24:47.40	184.17	71.69	-38.0	-39.4	26.6	3.02e+01	60	34	0	754974720	50	6351
2026-01-06 16:24:48.41	184.69	71.14	-37.4	-38.8	27.0	3.02e+01	58	34	0	756547584	50	5936
2026-01-06 16:24:49.42	185.18	70.59	-38.0	-39.4	26.3	3.02e+01	45	34	0	758644736	50	6397
2026-01-06 16:24:50.43	185.65	70.04	-38.7	-40.2	25.7	3.02e+01	59	34	0	760217600	50	7004
2026-01-06 16:24:51.44	186.09	69.49	-38.1	-39.5	26.3	3.02e+01	53	34	0	762314752	50	6492
2026-01-06 16:24:52.45	186.50	68.95	-38.3	-39.8	26.0	3.02e+01	58	34	0	763887616	50	6663
2026-01-06 16:24:53.46	186.89	68.40	-39.2	-40.8	25.1	3.02e+01	57	34	0	765984768	52	6708
2026-01-06 16:24:54.46	187.26	67.87	-39.0	-40.6	25.5	3.02e+01	52	34	0	768081920	52	6500
2026-01-06 16:24:55.47	187.61	67.33	-38.4	-39.8	26.2	3.02e+01	59	34	0	769654784	52	5935
2026-01-06 16:24:56.48	187.94	66.79	-38.2	-39.7	26.2	3.02e+01	58	34	0	771751936	52	5860
2026-01-06 16:24:57.49	188.26	66.26	-38.3	-39.7	26.2	3.02e+01	59	34	0	773324800	52	5873
2026-01-06 16:24:58.50	188.57	65.73	-38.4	-39.8	26.1	3.02e+01	55	34	0	775421952	52	5993
2026-01-06 16:24:59.51	188.86	65.21	-37.9	-39.3	26.6	3.02e+01	44	34	0	777519104	50	6329
2026-01-06 16:25:00.52	189.13	64.68	-37.5	-38.9	27.0	3.02e+01	63	34	0	779091968	50	6000
2026-01-06 16:25:01.53	189.39	64.17	-37.2	-38.5	27.3	3.02e+01	52	34	0	781189120	50	5776
2026-01-06 16:25:02.54	189.65	63.65	-36.8	-38.1	27.7	3.02e+01	47	34	0	783286272	48	6196
2026-01-06 16:25:03.55	189.89	63.14	-36.1	-37.3	28.4	3.02e+01	59	34	0	784859136	48	5652
2026-01-06 16:25:04.56	190.12	62.63	-36.4	-37.7	28.0	3.02e+01	61	34	0	786956288	46	6614
2026-01-06 16:25:05.57	190.34	62.12	-35.9	-37.1	28.2	3.02e+01	59	34	0	788529152	46	6205
2026-01-06 16:25:06.58	190.56	61.62	-36.0	-37.2	28.4	3.02e+01	62	34	0	790626304	46	6249
2026-01-06 16:25:07.59	190.76	61.12	-35.4	-36.6	29.0	3.02e+01	56	34	0	792723456	46	5816
2026-01-06 16:25:08.59	190.96	60.63	-35.5	-36.7	28.9	3.02e+01	56	34	0	794296320	46	5888
2026-01-06 16:25:09.60	191.14	60.14	-35.9	-37.2	28.4	3.02e+01	60	34	0	796393472	46	6227
2026-01-06 16:25:10.61	191.33	59.65	-35.8	-37.1	28.4	3.02e+01	48	34	0	797966336	46	6147
2026-01-06 16:25:11.62	191.50	59.16	-35.5	-36.7	28.8	3.02e+01	57	34	0	800063488	46	5913
2026-01-06 16:25:12.63	191.67	58.68	-35.3	-36.5	29.1	3.02e+01	60	34	0	802160640	46	5756
2026-01-06 16:25:13.64	191.84	58.21	-35.2	-36.4	29.2	3.02e+01	59	34	0	803733504	46	5719
2026-01-06 16:25:14.65	192.00	57.73	-35.4	-36.6	29.1	3.02e+01	60	34	0	805830656	46	5834
2026-01-06 16:25:15.66	192.15	57.26	-35.5	-36.8	28.9	3.02e+01	46	34	0	807927808	46	5949
2026-01-06 16:25:16.67	192.30	56.80	-35.1	-36.3	29.1	3.02e+01	58	34	0	809500672	46	5633
2026-01-06 16:25:17.68	192.44	56.34	-34.8	-36.0	29.6	3.02e+01	57	34	0	811597824	44	6074
2026-01-06 16:25:18.69	192.58	55.88	-34.4	-35.6	29.9	3.02e+01	49	34	0	813170688	44	5798
2026-01-06 16:25:19.70	192.71	55.42	-34.0	-35.2	30.2	3.02e+01	61	34	0	815267840	42	6256
2026-01-06 16:25:20.71	192.84	54.97	-34.0	-35.2	30.1	3.02e+01	60	34	0	817364992	42	6263
2026-01-06 16:25:21.72	192.97	54.53	-33.9	-35.1	30.2	3.02e+01	59	34	0	818937856	42	6175
2026-01-06 16:25:22.73	193.09	54.08	-33.8	-34.9	30.3	3.02e+01	59	34	0	821035008	42	6046
2026-01-06 16:25:23.74	193.21	53.65	-33.6	-34.7	30.5	3.02e+01	55	34	0	822607872	42	5909
2026-01-06 16:25:24.75	193.32	53.21	-33.7	-34.8	30.5	3.02e+01	59	34	0	824705024	42	5973
2026-01-06 16:25:25.76	193.44	52.78	-33.8	-34.9	30.3	3.02e+01	60	34	0	826802176	42	6045
2026-01-06 16:25:26.76	193.54	52.36	-33.7	-34.8	30.5	3.02e+01	60	34	0	828375040	42	5973
2026-01-06 16:25:27.78	193.65	51.93	-33.8	-34.9	30.4	3.02e+01	61	34	0	830472192	42	6059
2026-01-06 16:25:28.79	193.75	51.51	-34.1	-35.3	30.1	3.02e+01	50	34	0	832045056	42	6317
2026-01-06 16:25:29.79	193.85	51.09	-34.4	-35.6	29.8	3.02e+01	60	34	0	834142208	42	6541
2026-01-06 16:25:30.80	193.95	50.68	-34.6	-35.9	29.6	3.02e+01	58	34	0	836239360	42	6728
2026-01-06 16:25:31.81	194.05	50.27	-34.6	-35.8	29.5	3.02e+01	55	34	0	837812224	42	6723
2026-01-06 16:25:32.82	194.14	49.87	-34.6	-35.8	29.5	3.02e+01	58	34	0	839909376	42	6701
2026-01-06 16:25:33.83	194.23	49.47	-34.8	-35.9	29.4	3.02e+01	63	34	0	841482240	42	6804
2026-01-06 16:25:34.84	194.32	49.07	-35.2	-36.4	29.1	3.02e+01	58	34	0	843579392	44	6420
2026-01-06 16:25:35.84	194.40	48.68	-35.2	-36.4	29.1	3.02e+01	60	34	0	845676544	44	6364
2026-01-06 16:25:36.86	194.49	48.28	-34.7	-35.9	29.5	3.02e+01	51	34	0	847249408	44	6037
2026-01-06 16:25:37.87	194.57	47.90	-34.6	-35.8	29.6	3.02e+01	58	34	0	849346560	44	5952
2026-01-06 16:25:38.88	194.65	47.51	-34.6	-35.8	29.7	3.02e+01	62	34	0	851443712	44	5934
2026-01-06 16:25:39.89	194.73	47.13	-34.8	-36.0	29.6	3.02e+01	39	34	0	853016576	44	6073
2026-01-06 16:25:40.90	194.80	46.76	-34.9	-36.2	29.4	3.02e+01	58	34	0	855113728	44	6226
2026-01-06 16:25:41.91	194.88	46.38	-34.9	-36.1	29.4	3.02e+01	56	34	0	856686592	44	6175
2026-01-06 16:25:42.92	194.95	46.01	-34.9	-36.0	29.4	3.02e+01	59	34	0	858783744	44	6133
2026-01-06 16:25:43.92	195.02	45.65	-34.6	-35.8	29.6	3.02e+01	58	34	0	860880896	44	5939
2026-01-06 16:25:44.93	195.09	45.29	-34.6	-35.8	29.6	3.02e+01	62	34	0	862453760	44	5977
2026-01-06 16:25:45.94	195.16	44.93	-34.5	-35.7	29.7	3.02e+01	61	34	0	864550912	44	5912
2026-01-06 16:25:46.95	195.22	44.57	-34.6	-35.8	29.6	3.02e+01	59	34	0	866123776	44	5959
2026-01-06 16:25:47.96	195.29	44.22	-34.9	-36.1	29.3	3.02e+01	50	34	0	868220928	44	6164
2026-01-06 16:25:48.97	195.35	43.87	-34.9	-36.2	29.4	3.02e+01	59	34	0	870318080	44	6207
2026-01-06 16:25:49.98	195.41	43.52	-35.0	-36.2	29.3	3.02e+01	59	34	0	871890944	44	6255
2026-01-06 16:25:50.99	195.48	43.18	-34.8	-36.0	29.3	3.02e+01	61	34	0	873988096	44	6127
2026-01-06 16:25:52.00	195.54	42.84	-34.8	-36.0	29.4	3.02e+01	59	34	0	875560960	44	6100
2026-01-06 16:25:53.01	195.59	42.50	-34.8	-36.1	29.4	3.02e+01	52	34	0	877658112	44	6138
2026-01-06 16:25:54.02	195.65	42.17	-35.1	-36.4	29.1	3.02e+01	57	34	0	879755264	44	6379
2026-01-06 16:25:55.03	195.71	41.84	-35.5	-36.7	28.8	3.02e+01	60	34	0	881328128	44	6641
2026-01-06 16:25:56.04	195.76	41.51	-35.6	-36.9	28.7	3.02e+01	45	34	0	883425280	44	6752
2026-01-06 16:25:57.04	195.82	41.19	-35.6	-36.9	28.6	3.02e+01	61	34	0	884998144	44	6734
2026-01-06 16:25:58.05	195.87	40.87	-35.6	-36.8	28.7	3.02e+01	59	34	0	887095296	44	6700
2026-01-06 16:25:59.06	195.92	40.55	-35.7	-37.0	28.6	3.02e+01	60	34	0	889192448	44	6843
2026-01-06 16:26:00.07	195.98	40.23	-35.8	-37.1	28.5	3.02e+01	58	34	0	890765312	44	6906
2026-01-06 16:26:01.08	196.03	39.92	-35.8	-37.1	28.5	3.02e+01	53	34	0	892862464	44	6889
2026-01-06 16:26:02.09	196.08	39.61	-35.7	-37.0	28.6	3.02e+01	58	34	0	894435328	44	6844
2026-01-06 16:26:03.10	196.12	39.30	-35.7	-36.9	28.7	3.02e+01	57	34	0	896532480	44	6791
2026-01-06 16:26:04.11	196.17	39.00	-35.6	-36.9	28.8	3.02e+01	59	34	0	898629632	44	6775
2026-01-06 16:26:05.12	196.22	38.70	-35.7	-37.0	28.6	3.02e+01	60	34	0	900202496	44	6818
2026-01-06 16:26:06.13	196.27	38.40	-35.7	-36.9	28.6	3.02e+01	59	34	0	902299648	44	6791
2026-01-06 16:26:07.14	196.31	38.11	-35.9	-37.2	28.5	3.02e+01	61	34	0	904396800	44	6990
2026-01-06 16:26:08.15	196.36	37.81	-36.0	-37.4	28.3	3.02e+01	58	34	0	905969664	46	6366
2026-01-06 16:26:09.15	196.40	37.52	-36.0	-37.3	28.3	3.02e+01	52	34	0	908066816	46	6332
2026-01-06 16:26:10.16	196.44	37.24	-36.0	-37.3	28.3	3.02e+01	58	34	0	909639680	46	6320
2026-01-06 16:26:11.17	196.49	36.95	-35.7	-37.0	28.6	3.02e+01	57	34	0	911736832	46	6093
2026-01-06 16:26:12.18	196.53	36.67	-35.5	-36.7	29.0	3.02e+01	60	34	0	913833984	46	5915
2026-01-06 16:26:13.19	196.57	36.39	-35.4	-36.7	28.9	3.02e+01	58	34	0	915406848	46	5876
2026-01-06 16:26:14.20	196.61	36.11	-35.2	-36.5	29.1	3.02e+01	46	34	0	917504000	46	5752
2026-01-06 16:26:15.21	196.65	35.84	-35.2	-36.4	29.1	3.02e+01	57	34	0	919076864	46	5683
2026-01-06 16:26:16.22	196.69	35.56	-35.2	-36.4	29.1	3.02e+01	58	34	0	921174016	46	5681
2026-01-06 16:26:17.23	196.73	35.29	-34.8	-36.0	29.5	3.02e+01	43	34	0	923271168	44	6099
2026-01-06 16:26:18.24	196.77	35.03	-34.6	-35.8	29.6	3.02e+01	59	34	0	924844032	44	5965
2026-01-06 16:26:19.25	196.80	34.76	-34.5	-35.7	29.8	3.02e+01	59	34	0	926941184	44	5859
2026-01-06 16:26:20.26	196.84	34.50	-34.5	-35.7	29.8	3.02e+01	59	34	0	929038336	44	5878
2026-01-06 16:26:21.27	196.88	34.24	-34.4	-35.5	29.9	3.02e+01	53	34	0	930611200	44	5790
2026-01-06 16:26:22.28	196.91	33.98	-34.4	-35.6	29.8	3.02e+01	60	34	0	932708352	44	5798
2026-01-06 16:26:23.29	196.95	33.72	-34.1	-35.3	30.0	3.02e+01	60	34	0	934281216	44	5640
2026-01-06 16:26:24.29	196.98	33.47	-33.9	-35.1	30.3	3.02e+01	53	34	0	936378368	44	5507
2026-01-06 16:26:25.30	197.02	33.22	-33.7	-34.9	30.4	3.02e+01	47	34	0	938475520	42	6025
2026-01-06 16:26:26.31	197.05	32.97	-33.8	-35.0	30.4	3.02e+01	61	34	0	940048384	42	6106
2026-01-06 16:26:27.32	197.08	32.72	-33.7	-34.8	30.5	3.02e+01	58	34	0	942145536	42	5985
2026-01-06 16:26:28.33	197.12	32.48	-33.6	-34.8	30.5	3.02e+01	60	34	0	943718400	42	5960
2026-01-06 16:26:29.34	197.15	32.23	-33.7	-34.9	30.4	3.02e+01	60	34	0	945815552	42	6017
2026-01-06 16:26:30.35	197.18	31.99	-33.7	-34.9	30.3	3.02e+01	48	34	0	947912704	42	6023
2026-01-06 16:26:31.36	197.21	31.75	-33.7	-34.9	30.3	3.02e+01	60	34	0	949485568	42	6026
2026-01-06 16:26:32.37	197.24	31.52	-33.7	-34.9	30.4	3.02e+01	59	34	0	951582720	42	6003
2026-01-06 16:26:33.38	197.28	31.28	-33.7	-34.9	30.3	3.02e+01	43	34	0	953155584	42	6048
2026-01-06 16:26:34.39	197.31	31.05	-33.7	-34.9	30.4	3.02e+01	61	34	0	955252736	42	6019
2026-01-06 16:26:35.39	197.34	30.82	-33.7	-34.9	30.3	3.02e+01	59	34	0	957349888	42	6006
2026-01-06 16:26:36.40	197.37	30.59	-33.7	-34.9	30.3	3.02e+01	61	34	0	958922752	42	6037
2026-01-06 16:26:37.41	197.40	30.36	-33.7	-34.9	30.2	3.02e+01	58	34	0	961019904	42	6038
2026-01-06 16:26:38.42	197.42	30.14	-33.8	-35.0	30.2	3.02e+01	54	34	0	962592768	42	6101
2026-01-06 16:26:39.43	197.45	29.92	-33.9	-35.1	30.2	3.02e+01	55	34	0	964689920	42	6148
2026-01-06 16:26:40.44	197.48	29.70	-34.0	-35.2	30.0	3.02e+01	59	34	0	966787072	42	6243
2026-01-06 16:26:41.44	197.51	29.48	-34.1	-35.3	29.9	3.02e+01	57	34	0	968359936	42	6325
2026-01-06 16:26:42.46	197.54	29.26	-34.2	-35.4	29.9	3.02e+01	60	34	0	970457088	42	6351
2026-01-06 16:26:43.47	197.56	29.04	-34.1	-35.3	29.9	3.02e+01	47	34	0	972554240	42	6339
2026-01-06 16:26:44.47	197.59	28.83	-34.1	-35.2	29.9	3.02e+01	62	34	0	974127104	42	6275
2026-01-06 16:26:45.48	197.62	28.62	-34.1	-35.3	29.8	3.02e+01	58	34	0	976224256	42	6301
2026-01-06 16:26:46.49	197.64	28.41	-34.0	-35.2	29.9	3.02e+01	53	34	0	977797120	42	6264
2026-01-06 16:26:47.50	197.67	28.20	-34.0	-35.2	30.0	3.02e+01	60	34	0	979894272	42	6244
2026-01-06 16:26:48.51	197.69	27.99	-34.1	-35.2	30.0	3.02e+01	57	34	0	981991424	42	6275
2026-01-06 16:26:49.52	197.72	27.78	-34.1	-35.3	30.0	3.02e+01	57	34	0	983564288	42	6281
2026-01-06 16:26:50.53	197.75	27.58	-34.1	-35.3	30.0	3.02e+01	62	34	0	985661440	42	6302
2026-01-06 16:26:51.54	197.77	27.38	-34.1	-35.3	30.0	3.02e+01	47	34	0	987234304	42	6319
2026-01-06 16:26:52.55	197.79	27.18	-34.2	-35.4	30.0	3.02e+01	61	34	0	989331456	42	6362
2026-01-06 16:26:53.56	197.82	26.98	-34.1	-35.3	29.9	3.02e+01	61	34	0	991428608	42	6314
2026-01-06 16:26:54.57	197.84	26.78	-34.1	-35.3	29.9	3.02e+01	47	34	0	993001472	42	6312
2026-01-06 16:26:55.58	197.87	26.58	-34.2	-35.3	29.9	3.02e+01	57	34	0	995098624	42	6330
2026-01-06 16:26:56.59	197.89	26.39	-34.2	-35.4	29.9	3.02e+01	61	34	0	996671488	42	6396
2026-01-06 16:26:57.60	197.91	26.19	-34.2	-35.4	29.9	3.02e+01	57	34	0	998768640	42	6379
2026-01-06 16:26:58.61	197.94	26.00	-34.4	-35.6	29.7	3.02e+01	58	34	0	1000865792	42	6510
2026-01-06 16:26:59.62	197.96	25.81	-34.4	-35.6	29.8	3.02e+01	56	34	0	1002438656	42	6555
2026-01-06 16:27:00.63	197.98	25.62	-34.5	-35.7	29.7	3.02e+01	60	34	0	1004535808	42	6619
2026-01-06 16:27:01.64	198.00	25.44	-34.6	-35.8	29.6	3.02e+01	59	34	0	1006108672	42	6721
2026-01-06 16:27:02.64	198.03	25.25	-34.7	-35.9	29.5	3.02e+01	47	34	0	1008205824	42	6795
2026-01-06 16:27:03.65	198.05	25.07	-34.8	-36.0	29.4	3.02e+01	56	34	0	1010302976	42	6815
2026-01-06 16:27:04.66	198.07	24.88	-34.9	-36.1	29.4	3.02e+01	57	34	0	1011875840	42	6924
2026-01-06 16:27:05.67	198.09	24.70	-34.9	-36.1	29.3	3.02e+01	58	34	0	1013972992	44	6169
2026-01-06 16:27:06.68	198.11	24.52	-34.9	-36.2	29.3	3.02e+01	60	34	0	1015545856	44	6214
2026-01-06 16:27:07.69	198.13	24.34	-34.8	-36.0	29.3	3.02e+01	56	34	0	1017643008	44	6131
2026-01-06 16:27:08.70	198.15	24.16	-34.9	-36.1	29.3	3.02e+01	58	34	0	1019740160	44	6192
2026-01-06 16:27:09.71	198.17	23.99	-34.8	-36.1	29.3	3.02e+01	60	34	0	1021313024	44	6137
2026-01-06 16:27:10.72	198.19	23.81	-34.9	-36.1	29.3	3.02e+01	46	34	0	1023410176	44	6159
2026-01-06 16:27:11.73	198.21	23.64	-34.8	-36.1	29.3	3.02e+01	59	34	0	1025507328	44	6136
2026-01-06 16:27:12.74	198.23	23.47	-34.8	-36.0	29.4	3.02e+01	58	34	0	1027080192	44	6115
2026-01-06 16:27:13.75	198.25	23.29	-34.9	-36.1	29.2	3.02e+01	59	34	0	1029177344	44	6203
2026-01-06 16:27:14.76	198.27	23.12	-34.8	-36.0	29.4	3.02e+01	61	34	0	1030750208	44	6098
2026-01-06 16:27:15.77	198.29	22.96	-34.8	-36.0	29.3	3.02e+01	56	34	0	1032847360	44	6104
2026-01-06 16:27:16.78	198.31	22.79	-34.7	-35.9	29.4	3.02e+01	58	34	0	1034944512	44	6052
2026-01-06 16:27:17.79	198.33	22.62	-34.7	-35.9	29.4	3.02e+01	61	34	0	1036517376	44	6034
2026-01-06 16:27:18.79	198.35	22.46	-34.7	-36.0	29.4	3.02e+01	60	34	0	1038614528	44	6070
2026-01-06 16:27:19.80	198.37	22.29	-34.7	-35.9	29.4	3.02e+01	60	34	0	1040711680	44	6061
2026-01-06 16:27:20.81	198.39	22.13	-34.7	-35.9	29.4	3.02e+01	44	34	0	1042284544	44	6014
2026-01-06 16:27:21.82	198.41	21.97	-34.9	-36.1	29.4	3.02e+01	60	34	0	1044381696	44	6162
2026-01-06 16:27:22.83	198.42	21.81	-34.8	-36.0	29.3	3.02e+01	60	34	0	1045954560	44	6093
2026-01-06 16:27:23.84	198.44	21.65	-34.6	-35.8	29.4	3.02e+01	45	34	0	1048051712	44	5976
2026-01-06 16:27:24.85	198.46	21.49	-34.7	-35.9	29.3	3.02e+01	58	34	0	1050148864	44	6027
2026-01-06 16:27:25.86	198.48	21.33	-34.8	-36.0	29.2	3.02e+01	60	34	0	1051721728	44	6106
2026-01-06 16:27:26.87	198.50	21.17	-34.5	-35.7	29.5	3.02e+01	61	34	0	1053818880	44	5905
2026-01-06 16:27:27.88	198.51	21.02	-34.7	-35.9	29.4	3.02e+01	58	34	0	1055391744	44	6007
2026-01-06 16:27:28.89	198.53	20.86	-34.6	-35.8	29.6	3.02e+01	52	34	0	1057488896	44	5962
2026-01-06 16:27:29.90	198.55	20.71	-34.5	-35.7	29.6	3.02e+01	58	34	0	1059061760	44	5897
2026-01-06 16:27:30.91	198.56	20.56	-34.5	-35.7	29.6	3.02e+01	58	34	0	1061158912	44	5884
2026-01-06 16:27:31.92	198.58	20.41	-34.5	-35.7	29.5	3.02e+01	46	34	0	1063256064	44	5903
2026-01-06 16:27:32.93	198.60	20.25	-34.7	-35.9	29.4	3.02e+01	61	34	0	1064828928	44	6057
2026-01-06 16:27:33.94	198.62	20.11	-34.8	-36.0	29.4	3.02e+01	57	34	0	1066926080	44	6101
2026-01-06 16:27:34.94	198.63	19.96	-34.7	-35.9	29.4	3.02e+01	59	34	0	1069023232	44	6054
2026-01-06 16:27:35.95	198.65	19.81	-34.6	-35.8	29.6	3.02e+01	59	34	0	1070596096	44	5943
2026-01-06 16:27:36.96	198.66	19.66	-34.6	-35.8	29.5	3.02e+01	54	34	0	1072693248	44	5943
2026-01-06 16:27:37.97	198.68	19.52	-34.5	-35.7	29.5	3.02e+01	60	34	0	1074266112	44	5911
2026-01-06 16:27:38.98	198.70	19.37	-34.5	-35.7	29.6	3.02e+01	59	34	0	1076363264	44	5903
2026-01-06 16:27:39.99	198.71	19.23	-34.5	-35.7	29.6	3.02e+01	49	34	0	1078460416	44	5900
2026-01-06 16:27:41.00	198.73	19.09	-34.5	-35.7	29.6	3.02e+01	62	34	0	1080033280	44	5878
2026-01-06 16:27:42.01	198.74	18.94	-34.6	-35.8	29.5	3.02e+01	61	34	0	1082130432	44	5954
2026-01-06 16:27:43.02	198.76	18.80	-34.5	-35.7	29.6	3.02e+01	58	34	0	1083703296	44	5915
2026-01-06 16:27:44.03	198.77	18.66	-34.5	-35.7	29.6	3.02e+01	61	34	0	1085800448	44	5920
2026-01-06 16:27:45.04	198.79	18.52	-34.5	-35.7	29.5	3.02e+01	53	34	0	1087897600	44	5910
2026-01-06 16:27:46.05	198.80	18.39	-34.6	-35.8	29.6	3.02e+01	61	34	0	1089470464	44	5943
2026-01-06 16:27:47.06	198.82	18.25	-34.5	-35.7	29.6	3.02e+01	56	34	0	1091567616	44	5895
2026-01-06 16:27:48.07	198.83	18.11	-34.6	-35.8	29.5	3.02e+01	45	34	0	1093664768	44	5954
2026-01-06 16:27:49.08	198.85	17.97	-34.5	-35.7	29.6	3.02e+01	58	34	0	1095237632	44	5909
2026-01-06 16:27:50.09	198.86	17.84	-34.7	-35.9	29.4	3.02e+01	59	34	0	1097334784	44	6035
2026-01-06 16:27:51.09	198.88	17.71	-34.7	-35.9	29.4	3.02e+01	61	34	0	1098907648	44	6010
2026-01-06 16:27:52.10	198.89	17.57	-34.5	-35.7	29.4	3.02e+01	57	34	0	1101004800	44	5914
2026-01-06 16:27:53.11	198.91	17.44	-34.6	-35.8	29.4	3.02e+01	51	34	0	1103101952	44	5980
2026-01-06 16:27:54.12	198.92	17.31	-34.6	-35.8	29.5	3.02e+01	62	34	0	1104674816	44	5932
2026-01-06 16:27:55.13	198.94	17.18	-34.6	-35.8	29.4	3.02e+01	60	34	0	1106771968	44	5948
2026-01-06 16:27:56.14	198.95	17.05	-34.6	-35.8	29.4	3.02e+01	51	34	0	1108344832	44	5954
2026-01-06 16:27:57.15	198.96	16.92	-34.6	-35.8	29.4	3.02e+01	62	34	0	1110441984	44	5941
2026-01-06 16:27:58.15	198.98	16.79	-34.4	-35.6	29.5	3.02e+01	44	34	0	1112539136	44	5857
2026-01-06 16:27:59.16	198.99	16.66	-34.6	-35.8	29.4	3.02e+01	59	34	0	1114112000	44	5985
2026-01-06 16:28:00.17	199.01	16.53	-34.5	-35.7	29.5	3.02e+01	60	34	0	1116209152	44	5909
2026-01-06 16:28:01.18	199.02	16.41	-34.4	-35.6	29.5	3.02e+01	53	34	0	1117782016	44	5846
2026-01-06 16:28:02.19	199.03	16.28	-34.4	-35.7	29.5	3.02e+01	59	34	0	1119879168	44	5862
2026-01-06 16:28:03.20	199.05	16.15	-34.6	-35.8	29.5	3.02e+01	52	34	0	1121976320	44	5927
2026-01-06 16:28:04.21	199.06	16.03	-34.5	-35.7	29.5	3.02e+01	58	34	0	1123549184	44	5871
2026-01-06 16:28:05.22	199.07	15.91	-34.4	-35.6	29.6	3.02e+01	59	34	0	1125646336	44	5813
2026-01-06 16:28:06.23	199.09	15.78	-34.3	-35.5	29.6	3.02e+01	45	34	0	1127219200	44	5773
2026-01-06 16:28:07.24	199.10	15.66	-34.3	-35.5	29.7	3.02e+01	57	34	0	1129316352	44	5762
2026-01-06 16:28:08.25	199.11	15.54	-34.3	-35.5	29.7	3.02e+01	60	34	0	1131413504	44	5739
2026-01-06 16:28:09.26	199.13	15.42	-34.4	-35.6	29.6	3.02e+01	44	34	0	1132986368	44	5808
2026-01-06 16:28:10.27	199.14	15.30	-34.3	-35.5	29.7	3.02e+01	54	34	0	1135083520	44	5769
2026-01-06 16:28:11.28	199.15	15.18	-34.4	-35.5	29.7	3.02e+01	60	34	0	1137180672	44	5789
2026-01-06 16:28:12.28	199.16	15.06	-34.3	-35.5	29.7	3.02e+01	59	34	0	1138753536	44	5749
2026-01-06 16:28:13.29	199.18	14.94	-34.4	-35.7	29.5	3.02e+01	57	34	0	1140850688	44	5862
2026-01-06 16:28:14.30	199.19	14.82	-34.3	-35.5	29.6	3.02e+01	45	34	0	1142423552	44	5769
2026-01-06 16:28:15.31	199.20	14.71	-34.4	-35.6	29.6	3.02e+01	62	34	0	1144520704	44	5847
2026-01-06 16:28:16.32	199.21	14.59	-34.4	-35.6	29.5	3.02e+01	58	34	0	1146617856	44	5826
2026-01-06 16:28:17.33	199.23	14.47	-34.4	-35.6	29.5	3.02e+01	43	34	0	1148190720	44	5834
2026-01-06 16:28:18.34	199.24	14.36	-34.4	-35.7	29.4	3.02e+01	62	34	0	1150287872	44	5860
2026-01-06 16:28:19.35	199.25	14.24	-34.4	-35.6	29.5	3.02e+01	60	34	0	1151860736	44	5821
2026-01-06 16:28:20.36	199.26	14.13	-34.4	-35.6	29.5	3.02e+01	60	34	0	1153957888	44	5848
2026-01-06 16:28:21.37	199.27	14.01	-34.5	-35.7	29.4	3.02e+01	60	34	0	1156055040	44	5879
2026-01-06 16:28:22.37	199.29	13.90	-34.4	-35.6	29.5	3.02e+01	49	34	0	1157627904	44	5812
2026-01-06 16:28:23.38	199.30	13.79	-34.4	-35.6	29.5	3.02e+01	64	34	0	1159725056	44	5831
2026-01-06 16:28:24.39	199.31	13.68	-34.3	-35.5	29.6	3.02e+01	60	34	0	1161297920	44	5751
2026-01-06 16:28:25.40	199.32	13.57	-34.3	-35.5	29.5	3.02e+01	49	34	0	1163395072	44	5780
2026-01-06 16:28:26.41	199.33	13.46	-34.3	-35.5	29.6	3.02e+01	56	34	0	1165492224	44	5766
2026-01-06 16:28:27.42	199.35	13.35	-34.4	-35.6	29.6	3.02e+01	59	34	0	1167065088	44	5794
2026-01-06 16:28:28.43	199.36	13.24	-34.4	-35.6	29.6	3.02e+01	59	34	0	1169162240	44	5811
2026-01-06 16:28:29.44	199.37	13.13	-34.5	-35.6	29.5	3.02e+01	59	34	0	1170735104	44	5858
2026-01-06 16:28:30.45	199.38	13.02	-34.4	-35.6	29.5	3.02e+01	52	34	0	1172832256	44	5797
2026-01-06 16:28:31.45	199.39	12.91	-34.4	-35.6	29.5	3.02e+01	58	34	0	1174929408	44	5809
2026-01-06 16:28:32.46	199.40	12.80	-34.4	-35.6	29.5	3.02e+01	61	34	0	1176502272	44	5856
2026-01-06 16:28:33.47	199.41	12.70	-34.4	-35.6	29.4	3.02e+01	54	34	0	1178599424	44	5818
2026-01-06 16:28:34.48	199.42	12.59	-34.4	-35.6	29.5	3.02e+01	58	34	0	1180172288	44	5851
2026-01-06 16:28:35.49	199.44	12.48	-34.5	-35.7	29.4	3.02e+01	55	34	0	1182269440	44	5878
2026-01-06 16:28:36.50	199.45	12.38	-34.5	-35.8	29.3	3.02e+01	62	34	0	1184366592	44	5933
2026-01-06 16:28:37.51	199.46	12.27	-34.5	-35.7	29.4	3.02e+01	60	34	0	1185939456	44	5903
2026-01-06 16:28:38.52	199.47	12.17	-34.5	-35.7	29.4	3.02e+01	46	34	0	1188036608	44	5883
2026-01-06 16:28:39.53	199.48	12.06	-34.5	-35.7	29.4	3.02e+01	60	34	0	1190133760	44	5877
2026-01-06 16:28:40.54	199.49	11.96	-34.5	-35.7	29.4	3.02e+01	58	34	0	1191706624	44	5885
2026-01-06 16:28:41.55	199.50	11.86	-34.5	-35.7	29.4	3.02e+01	60	34	0	1193803776	44	5891
2026-01-06 16:28:42.56	199.51	11.76	-34.6	-35.8	29.3	3.02e+01	60	34	0	1195376640	44	5952
2026-01-06 16:28:43.57	199.52	11.65	-34.5	-35.7	29.4	3.02e+01	58	34	0	1197473792	44	5904
2026-01-06 16:28:44.57	199.53	11.55	-34.5	-35.7	29.4	3.02e+01	56	34	0	1199570944	44	5901
2026-01-06 16:28:45.58	199.54	11.45	-34.6	-35.8	29.3	3.02e+01	59	34	0	1201143808	44	5940
2026-01-06 16:28:46.59	199.55	11.35	-34.6	-35.8	29.2	3.02e+01	46	34	0	1203240960	44	5989
2026-01-06 16:28:47.60	199.57	11.25	-34.6	-35.8	29.3	3.02e+01	56	34	0	1205338112	44	5948
2026-01-06 16:28:48.61	199.58	11.15	-34.6	-35.9	29.3	3.02e+01	59	34	0	1206910976	44	6001
2026-01-06 16:28:49.62	199.59	11.05	-34.6	-35.9	29.2	3.02e+01	56	34	0	1209008128	44	5995
2026-01-06 16:28:50.63	199.60	10.95	-34.6	-35.9	29.2	3.02e+01	59	34	0	1210580992	44	5995
2026-01-06 16:28:51.64	199.61	10.85	-34.7	-35.9	29.2	3.02e+01	55	34	0	1212678144	44	6057
2026-01-06 16:28:52.65	199.62	10.76	-34.7	-35.9	29.1	3.02e+01	59	34	0	1214251008	44	6009
