passes_logs/2026/01/06/R4.6S_Anadyr/R4.6S_Anadyr__20260106_043521_AQUA_rec.log

#Pass ID: 20260106_043521_AQUA
#Satellite: AQUA
#Configuration: AQUA
#almurnet v.1.7.20251203
#Start time: 2026-01-06 04:35:25

#Version: 2.2.20231116
#Station: R4.6S_Anadyr
#Location: 177.4865 lon 64.73178 lat
#TLE: 1 27424U 02022A   26004.96787593  .00001598  00000+0  32997-3 0  9996
#TLE: 2 27424  98.4069 331.2279 0002002  90.2377   0.6092 14.61798176259425

#Time	Az	El	Level	Level2	SNR	BER	BlckErr	Temp	State	Recorded	gain1	gain2
2026-01-06 04:35:25.35	231.19	0.16	-48.6	-65.5	3.3	3.04e+01	0	33	0	0	60	72316
2026-01-06 04:35:26.36	231.28	0.21	-48.5	-66.9	3.5	3.04e+01	0	33	104	0	60	85442
2026-01-06 04:35:27.37	231.38	0.25	-48.9	-67.0	3.5	3.04e+01	0	33	104	0	60	85989
2026-01-06 04:35:28.38	231.48	0.30	-49.0	-67.0	3.5	3.04e+01	0	33	104	0	60	86150
2026-01-06 04:35:29.39	231.58	0.35	-49.1	-67.0	3.5	3.04e+01	0	33	104	0	60	85780
2026-01-06 04:35:30.40	231.68	0.39	-49.1	-67.0	3.5	3.04e+01	0	33	104	0	60	86066
2026-01-06 04:35:31.41	231.78	0.44	-49.1	-67.0	3.5	3.04e+01	0	33	104	0	60	85979
2026-01-06 04:35:32.42	231.88	0.49	-49.0	-67.0	3.5	3.04e+01	0	33	104	0	60	86511
2026-01-06 04:35:33.43	231.98	0.53	-49.0	-66.9	3.5	3.04e+01	0	33	104	0	60	85494
2026-01-06 04:35:34.44	232.08	0.58	-49.0	-66.9	3.5	3.04e+01	0	33	104	0	60	85404
2026-01-06 04:35:35.45	232.18	0.63	-48.9	-66.8	3.5	3.04e+01	0	33	104	0	60	84572
2026-01-06 04:35:36.46	232.28	0.67	-48.7	-66.6	3.5	3.04e+01	0	33	104	0	60	82036
2026-01-06 04:35:37.47	232.38	0.72	-48.1	-66.2	3.5	3.04e+01	0	33	104	0	60	78481
2026-01-06 04:35:38.48	232.48	0.77	-46.9	-65.3	3.5	3.04e+01	0	33	104	0	60	71079
2026-01-06 04:35:39.49	232.58	0.81	-46.1	-64.8	3.5	3.04e+01	0	33	104	0	60	66704
2026-01-06 04:35:40.50	232.69	0.86	-46.1	-64.8	3.5	3.04e+01	0	33	104	0	60	66524
2026-01-06 04:35:41.51	232.79	0.91	-46.1	-64.7	3.5	3.04e+01	0	33	104	0	60	66419
2026-01-06 04:35:42.52	232.89	0.95	-46.1	-64.8	3.5	3.04e+01	0	34	104	0	60	66862
2026-01-06 04:35:43.53	232.99	1.00	-46.1	-64.7	3.5	3.04e+01	0	33	104	0	60	66231
2026-01-06 04:35:44.54	233.10	1.05	-46.1	-64.8	3.5	3.04e+01	0	34	104	0	60	66531
2026-01-06 04:35:45.55	233.20	1.09	-46.1	-64.7	3.5	3.04e+01	0	34	104	0	60	66306
2026-01-06 04:35:46.56	233.31	1.14	-46.1	-64.8	3.5	3.04e+01	0	34	104	0	60	66571
2026-01-06 04:35:47.57	233.41	1.19	-46.1	-64.7	3.5	3.04e+01	0	34	104	0	60	66301
2026-01-06 04:35:48.58	233.52	1.23	-46.1	-64.7	3.5	3.04e+01	0	34	104	0	60	66200
2026-01-06 04:35:49.58	233.62	1.28	-46.1	-64.7	3.5	3.04e+01	0	34	104	0	60	66487
2026-01-06 04:35:50.59	233.73	1.33	-46.1	-64.7	3.5	3.04e+01	0	34	104	0	60	65876
2026-01-06 04:35:51.60	233.83	1.37	-46.1	-64.7	3.5	3.04e+01	0	34	104	0	60	66472
2026-01-06 04:35:52.61	233.94	1.42	-46.1	-64.7	3.5	3.04e+01	0	34	104	0	60	66291
2026-01-06 04:35:53.62	234.05	1.47	-46.1	-64.7	3.5	3.04e+01	0	34	104	0	60	66114
2026-01-06 04:35:54.63	234.15	1.51	-46.1	-64.7	3.5	3.04e+01	0	34	104	0	60	66449
2026-01-06 04:35:55.65	234.26	1.56	-46.1	-64.7	3.5	3.04e+01	0	34	104	0	60	66265
2026-01-06 04:35:56.66	234.37	1.61	-46.1	-64.7	3.5	3.04e+01	0	34	104	0	60	66294
2026-01-06 04:35:57.67	234.48	1.65	-46.1	-64.8	3.5	3.04e+01	0	34	104	0	60	66685
2026-01-06 04:35:58.68	234.59	1.70	-46.1	-64.7	3.5	3.04e+01	0	34	104	0	60	65968
2026-01-06 04:35:59.69	234.70	1.75	-46.1	-64.7	3.5	3.04e+01	0	34	104	0	60	66421
2026-01-06 04:36:00.70	234.81	1.79	-46.1	-64.7	3.5	3.04e+01	0	34	104	0	60	66333
2026-01-06 04:36:01.71	234.92	1.84	-46.1	-64.7	3.5	3.04e+01	0	34	104	0	60	66407
2026-01-06 04:36:02.72	235.03	1.89	-46.1	-64.8	3.5	3.04e+01	0	34	104	0	60	66597
2026-01-06 04:36:03.73	235.14	1.93	-46.1	-64.7	3.5	3.04e+01	0	34	104	0	60	66256
2026-01-06 04:36:04.74	235.25	1.98	-46.1	-64.7	3.5	3.04e+01	0	34	104	0	60	66377
2026-01-06 04:36:05.75	235.36	2.03	-46.1	-64.7	3.5	3.04e+01	0	34	104	0	60	66095
2026-01-06 04:36:06.76	235.47	2.08	-46.1	-64.7	3.5	3.04e+01	0	34	104	0	60	66044
2026-01-06 04:36:07.76	235.58	2.12	-46.1	-64.8	3.5	3.04e+01	0	34	104	0	60	66533
2026-01-06 04:36:08.77	235.69	2.17	-46.1	-64.7	3.5	3.04e+01	0	34	104	0	60	66005
2026-01-06 04:36:09.78	235.81	2.22	-46.1	-64.8	3.5	3.04e+01	0	34	104	0	60	66537
2026-01-06 04:36:10.79	235.92	2.26	-46.1	-64.7	3.5	3.04e+01	0	34	104	0	60	66028
2026-01-06 04:36:11.80	236.03	2.31	-46.1	-64.7	3.5	3.04e+01	0	34	104	0	60	66394
2026-01-06 04:36:12.82	236.15	2.36	-46.1	-64.7	3.5	3.04e+01	0	34	104	0	60	66174
2026-01-06 04:36:13.82	236.26	2.40	-46.1	-64.7	3.5	3.04e+01	0	34	104	0	60	66273
2026-01-06 04:36:14.84	236.38	2.45	-46.1	-64.7	3.5	3.04e+01	0	34	104	0	60	66031
2026-01-06 04:36:15.85	236.49	2.50	-46.1	-64.7	3.5	3.04e+01	0	34	104	0	60	66445
2026-01-06 04:36:16.86	236.61	2.54	-46.1	-64.7	3.5	3.04e+01	0	34	104	0	60	66395
2026-01-06 04:36:17.87	236.72	2.59	-46.1	-64.8	3.5	3.04e+01	0	34	104	0	60	66507
2026-01-06 04:36:18.88	236.84	2.64	-46.1	-64.7	3.5	3.04e+01	0	34	104	0	60	66135
2026-01-06 04:36:19.89	236.95	2.69	-46.1	-64.7	3.5	3.04e+01	0	34	104	0	60	66355
2026-01-06 04:36:20.90	237.07	2.73	-46.1	-64.7	3.5	3.04e+01	0	34	104	0	60	66254
2026-01-06 04:36:21.91	237.19	2.78	-46.1	-64.8	3.5	3.04e+01	0	34	104	0	60	66615
2026-01-06 04:36:22.92	237.31	2.83	-46.1	-64.6	3.5	3.04e+01	0	34	104	0	60	65717
2026-01-06 04:36:23.93	237.42	2.87	-46.1	-64.7	3.5	3.04e+01	0	34	104	0	60	65982
2026-01-06 04:36:24.94	237.54	2.92	-46.1	-64.6	3.5	3.04e+01	0	34	104	0	60	65101
2026-01-06 04:36:25.95	237.66	2.97	-46.1	-64.4	3.5	3.04e+01	0	34	104	0	60	63946
2026-01-06 04:36:26.96	237.78	3.01	-46.1	-64.3	3.5	3.04e+01	0	34	104	0	60	63085
2026-01-06 04:36:27.97	237.90	3.06	-46.7	-64.1	3.5	3.04e+01	0	34	104	0	60	61915
2026-01-06 04:36:28.98	238.02	3.11	-46.3	-62.7	3.5	3.04e+01	0	34	104	0	60	52734
2026-01-06 04:36:29.99	238.14	3.15	-45.7	-64.2	3.5	3.04e+01	0	34	104	0	60	62581
2026-01-06 04:36:31.00	238.26	3.20	-45.9	-64.5	3.5	3.04e+01	0	34	104	0	60	64261
2026-01-06 04:36:32.01	238.38	3.25	-45.4	-62.7	3.6	3.04e+01	0	34	104	0	60	52312
2026-01-06 04:36:33.02	238.50	3.30	-46.5	-62.5	3.8	3.04e+01	0	34	104	0	60	51494
2026-01-06 04:36:34.03	238.63	3.34	-46.4	-62.0	3.9	3.04e+01	0	34	104	0	60	48718
2026-01-06 04:36:35.03	238.75	3.39	-46.4	-61.1	4.4	3.04e+01	0	34	104	0	60	43868
2026-01-06 04:36:36.04	238.87	3.44	-46.5	-60.1	4.9	3.04e+01	0	34	104	0	60	38723
2026-01-06 04:36:37.05	238.99	3.48	-46.6	-59.1	5.5	3.04e+01	14	34	104	0	60	34829
2026-01-06 04:36:38.06	239.12	3.53	-46.7	-58.4	5.5	3.04e+01	0	34	0	524288	60	32088
2026-01-06 04:36:39.07	239.24	3.58	-46.5	-58.9	5.8	3.04e+01	40	34	104	524288	60	33832
2026-01-06 04:36:40.08	239.37	3.62	-46.4	-59.1	3.9	3.04e+01	0	34	104	1048576	60	34651
2026-01-06 04:36:41.09	239.49	3.67	-46.3	-58.8	5.6	3.04e+01	92	34	0	1048576	60	33562
2026-01-06 04:36:42.10	239.62	3.72	-46.3	-57.5	6.3	3.04e+01	75	34	0	2097152	60	28774
2026-01-06 04:36:43.11	239.74	3.76	-46.4	-57.0	6.7	3.04e+01	92	34	0	4194304	60	27185
2026-01-06 04:36:44.12	239.87	3.81	-46.5	-56.0	7.7	3.04e+01	92	34	0	6291456	60	24399
2026-01-06 04:36:45.13	240.00	3.86	-46.5	-55.6	8.6	3.04e+01	90	34	0	7864320	60	23194
2026-01-06 04:36:46.13	240.12	3.90	-46.4	-54.8	9.0	3.04e+01	92	34	0	9961472	60	21249
2026-01-06 04:36:47.15	240.25	3.95	-46.4	-54.7	9.3	3.04e+01	90	34	0	11534336	60	20859
2026-01-06 04:36:48.15	240.38	4.00	-45.9	-54.0	10.1	3.04e+01	92	34	0	13631488	60	19391
2026-01-06 04:36:49.16	240.51	4.04	-45.7	-54.3	9.9	3.04e+01	90	34	0	15728640	60	19978
2026-01-06 04:36:50.17	240.64	4.09	-45.5	-53.8	10.5	3.04e+01	90	34	0	17301504	60	18866
2026-01-06 04:36:51.18	240.76	4.14	-45.3	-52.6	11.9	3.04e+01	91	34	0	19398656	60	16470
2026-01-06 04:36:52.19	240.89	4.18	-45.4	-51.9	12.7	3.04e+01	89	34	0	20971520	60	15126
2026-01-06 04:36:53.20	241.02	4.23	-45.2	-50.8	13.8	3.04e+01	90	34	0	23068672	60	13372
2026-01-06 04:36:54.20	241.15	4.27	-45.1	-50.6	14.1	3.04e+01	88	34	0	25165824	60	13073
2026-01-06 04:36:55.21	241.28	4.32	-45.0	-50.3	14.3	3.04e+01	92	34	0	26738688	60	12640
2026-01-06 04:36:56.22	241.42	4.37	-44.9	-49.8	15.0	3.04e+01	92	34	0	28835840	60	11883
2026-01-06 04:36:57.23	241.55	4.41	-44.6	-49.0	15.7	3.04e+01	92	34	0	30408704	60	10865
2026-01-06 04:36:58.24	241.68	4.46	-44.6	-48.9	16.0	3.04e+01	90	34	0	32505856	60	10726
2026-01-06 04:36:59.25	241.81	4.51	-44.5	-48.5	16.4	3.04e+01	92	34	0	34603008	60	10251
2026-01-06 04:37:00.26	241.95	4.55	-44.3	-48.3	16.5	3.04e+01	90	34	0	36175872	60	10064
2026-01-06 04:37:01.27	242.08	4.60	-44.1	-47.9	17.0	3.04e+01	92	34	0	38273024	60	9581
2026-01-06 04:37:02.27	242.21	4.64	-44.2	-48.0	17.0	3.04e+01	90	34	0	40370176	60	9632
2026-01-06 04:37:03.28	242.35	4.69	-44.1	-47.5	17.5	3.04e+01	90	34	0	41943040	60	9161
2026-01-06 04:37:04.29	242.48	4.74	-44.0	-47.3	17.7	3.04e+01	91	34	0	44040192	60	8911
2026-01-06 04:37:05.30	242.62	4.78	-43.8	-47.1	18.0	3.04e+01	92	34	0	45613056	60	8712
2026-01-06 04:37:06.31	242.75	4.83	-43.8	-47.1	18.0	3.04e+01	92	34	0	47710208	60	8727
2026-01-06 04:37:07.32	242.89	4.88	-43.3	-46.5	18.6	3.04e+01	91	34	0	49807360	60	8142
2026-01-06 04:37:08.33	243.03	4.92	-43.1	-46.2	19.0	3.04e+01	91	34	0	51380224	60	7844
2026-01-06 04:37:09.34	243.16	4.97	-42.6	-45.4	19.7	3.04e+01	92	34	0	53477376	60	7188
2026-01-06 04:37:10.35	243.30	5.01	-42.4	-45.1	20.1	3.04e+01	90	34	0	55050240	60	6925
2026-01-06 04:37:11.36	243.44	5.06	-42.0	-44.5	20.7	3.04e+01	92	34	0	57147392	60	6482
2026-01-06 04:37:12.36	243.58	5.10	-42.1	-44.6	20.7	3.04e+01	90	34	0	59244544	60	6518
2026-01-06 04:37:13.37	243.72	5.15	-41.9	-44.1	21.0	3.04e+01	91	34	0	60817408	60	6196
2026-01-06 04:37:14.38	243.86	5.20	-41.7	-44.0	21.2	3.04e+01	90	34	0	62914560	58	6829
2026-01-06 04:37:15.39	244.00	5.24	-41.6	-43.7	21.5	3.04e+01	92	34	0	64487424	58	6644
2026-01-06 04:37:16.40	244.14	5.29	-41.4	-43.5	21.7	3.04e+01	92	34	0	66584576	58	6444
2026-01-06 04:37:17.41	244.28	5.33	-41.4	-43.6	21.6	3.04e+01	90	34	0	68681728	58	6504
2026-01-06 04:37:18.42	244.42	5.38	-41.0	-43.0	22.2	3.04e+01	90	34	0	70254592	58	6124
2026-01-06 04:37:19.42	244.56	5.42	-40.9	-43.0	22.3	3.04e+01	91	34	0	72351744	56	6811
2026-01-06 04:37:20.43	244.70	5.47	-40.9	-42.9	22.3	3.04e+01	92	34	0	73924608	56	6742
2026-01-06 04:37:21.44	244.84	5.52	-40.8	-42.7	22.6	3.04e+01	92	34	0	76021760	56	6591
2026-01-06 04:37:22.45	244.99	5.56	-40.6	-42.5	22.8	3.04e+01	92	34	0	78118912	56	6439
2026-01-06 04:37:23.46	245.13	5.61	-40.5	-42.4	22.9	3.04e+01	92	34	0	79691776	56	6365
2026-01-06 04:37:24.47	245.28	5.65	-40.5	-42.3	23.0	3.04e+01	92	34	0	81788928	56	6317
2026-01-06 04:37:25.48	245.42	5.70	-40.4	-42.2	23.2	3.04e+01	90	34	0	83361792	56	6259
2026-01-06 04:37:26.49	245.57	5.74	-40.2	-42.1	23.3	3.04e+01	92	34	0	85458944	56	6137
2026-01-06 04:37:27.50	245.71	5.79	-40.1	-41.9	23.4	3.04e+01	92	34	0	87556096	56	6014
2026-01-06 04:37:28.51	245.86	5.83	-39.7	-41.4	23.9	3.04e+01	92	34	0	89128960	54	6401
2026-01-06 04:37:29.52	246.00	5.88	-39.5	-41.1	24.1	3.04e+01	90	34	0	91226112	54	6185
2026-01-06 04:37:30.52	246.15	5.92	-39.3	-41.0	24.3	3.04e+01	92	34	0	93323264	54	6093
2026-01-06 04:37:31.53	246.30	5.97	-39.2	-40.7	24.6	3.04e+01	90	34	0	94896128	54	5917
2026-01-06 04:37:32.54	246.45	6.01	-38.8	-40.4	25.0	3.04e+01	92	34	0	96993280	52	6374
2026-01-06 04:37:33.55	246.59	6.06	-38.8	-40.3	25.1	3.04e+01	90	34	0	98566144	52	6318
2026-01-06 04:37:34.55	246.74	6.10	-38.7	-40.2	25.1	3.04e+01	92	34	0	100663296	52	6257
2026-01-06 04:37:35.56	246.89	6.14	-38.7	-40.3	25.2	3.04e+01	90	34	0	102760448	52	6295
2026-01-06 04:37:36.57	247.04	6.19	-38.5	-40.0	25.4	3.04e+01	92	34	0	104333312	52	6134
2026-01-06 04:37:37.58	247.19	6.23	-38.4	-39.9	25.5	3.04e+01	90	34	0	106430464	52	6014
2026-01-06 04:37:38.59	247.34	6.28	-38.4	-39.9	25.5	3.04e+01	92	34	0	108003328	52	6010
2026-01-06 04:37:39.60	247.49	6.32	-38.3	-39.8	25.6	3.04e+01	90	34	0	110100480	52	5964
2026-01-06 04:37:40.61	247.64	6.37	-38.2	-39.7	25.8	3.04e+01	92	34	0	111673344	52	5874
2026-01-06 04:37:41.62	247.80	6.41	-38.2	-39.6	25.9	3.04e+01	92	34	0	113770496	52	5828
2026-01-06 04:37:42.63	247.95	6.46	-37.8	-39.2	26.2	3.04e+01	92	34	0	115867648	50	6247
2026-01-06 04:37:43.64	248.10	6.50	-37.8	-39.2	26.2	3.04e+01	90	34	0	117440512	50	6234
2026-01-06 04:37:44.65	248.26	6.54	-37.8	-39.2	26.2	3.04e+01	90	34	0	119537664	50	6268
2026-01-06 04:37:45.66	248.41	6.59	-37.6	-39.0	26.4	3.04e+01	89	34	0	121634816	50	6111
2026-01-06 04:37:46.67	248.57	6.63	-37.6	-39.0	26.5	3.04e+01	91	34	0	123207680	50	6094
2026-01-06 04:37:47.68	248.72	6.67	-37.5	-38.9	26.5	3.04e+01	92	34	0	125304832	50	6035
2026-01-06 04:37:48.69	248.88	6.72	-37.5	-38.9	26.6	3.04e+01	90	34	0	126877696	50	6008
2026-01-06 04:37:49.70	249.03	6.76	-37.6	-39.0	26.4	3.04e+01	92	34	0	128974848	50	6103
2026-01-06 04:37:50.71	249.19	6.80	-37.6	-39.0	26.6	3.04e+01	90	34	0	131072000	50	6077
2026-01-06 04:37:51.72	249.35	6.85	-37.5	-38.9	26.6	3.04e+01	92	34	0	132644864	50	6004
2026-01-06 04:37:52.72	249.50	6.89	-37.5	-38.9	26.5	3.04e+01	92	34	0	134742016	50	6043
2026-01-06 04:37:53.73	249.66	6.93	-37.3	-38.7	26.7	3.04e+01	90	34	0	136839168	50	5904
2026-01-06 04:37:54.74	249.82	6.98	-37.2	-38.6	26.9	3.04e+01	92	34	0	138412032	50	5808
2026-01-06 04:37:55.75	249.98	7.02	-37.2	-38.6	26.9	3.04e+01	90	34	0	140509184	50	5803
2026-01-06 04:37:56.76	250.14	7.06	-37.2	-38.5	27.0	3.04e+01	92	34	0	142082048	50	5766
2026-01-06 04:37:57.77	250.30	7.11	-37.4	-38.7	26.8	3.04e+01	91	34	0	144179200	50	5915
2026-01-06 04:37:58.78	250.46	7.15	-37.1	-38.5	27.0	3.04e+01	90	34	0	146276352	50	5734
2026-01-06 04:37:59.79	250.62	7.19	-37.2	-38.5	27.0	3.04e+01	92	34	0	147849216	50	5785
2026-01-06 04:38:00.79	250.78	7.23	-37.1	-38.4	27.1	3.04e+01	90	34	0	149946368	50	5700
2026-01-06 04:38:01.80	250.94	7.28	-37.1	-38.4	27.0	3.04e+01	91	34	0	151519232	50	5697
2026-01-06 04:38:02.82	251.11	7.32	-36.9	-38.3	27.2	3.04e+01	92	34	0	153616384	48	6279
2026-01-06 04:38:03.83	251.27	7.36	-37.0	-38.4	27.0	3.04e+01	92	34	0	155713536	48	6369
2026-01-06 04:38:04.83	251.43	7.40	-36.9	-38.2	27.2	3.04e+01	92	34	0	157286400	48	6272
2026-01-06 04:38:05.84	251.60	7.44	-37.0	-38.4	27.1	3.04e+01	92	34	0	159383552	48	6373
2026-01-06 04:38:06.85	251.76	7.49	-37.0	-38.4	27.1	3.04e+01	92	34	0	160956416	48	6366
2026-01-06 04:38:07.86	251.93	7.53	-37.0	-38.3	27.2	3.04e+01	92	34	0	163053568	48	6312
2026-01-06 04:38:08.87	252.09	7.57	-36.8	-38.1	27.3	3.04e+01	92	34	0	165150720	48	6191
2026-01-06 04:38:09.88	252.26	7.61	-36.9	-38.3	27.2	3.04e+01	92	34	0	166723584	48	6285
2026-01-06 04:38:10.89	252.43	7.65	-36.8	-38.2	27.3	3.04e+01	92	34	0	168820736	48	6217
2026-01-06 04:38:11.90	252.59	7.69	-36.8	-38.1	27.4	3.04e+01	92	34	0	170393600	48	6194
2026-01-06 04:38:12.91	252.76	7.73	-36.9	-38.3	27.2	3.04e+01	92	34	0	172490752	48	6283
2026-01-06 04:38:13.92	252.93	7.78	-36.9	-38.3	27.2	3.04e+01	92	34	0	174587904	48	6284
2026-01-06 04:38:14.92	253.09	7.82	-37.0	-38.3	27.2	3.04e+01	92	34	0	176160768	48	6331
2026-01-06 04:38:15.93	253.26	7.86	-36.8	-38.1	27.4	3.04e+01	90	34	0	178257920	48	6147
2026-01-06 04:38:16.94	253.43	7.90	-36.8	-38.1	27.4	3.04e+01	90	34	0	179830784	48	6138
2026-01-06 04:38:17.95	253.60	7.94	-36.9	-38.2	27.3	3.04e+01	92	34	0	181927936	48	6253
2026-01-06 04:38:18.96	253.77	7.98	-36.8	-38.2	27.3	3.04e+01	92	34	0	184025088	48	6208
2026-01-06 04:38:19.97	253.95	8.02	-36.9	-38.2	27.2	3.04e+01	92	34	0	185597952	48	6271
2026-01-06 04:38:20.98	254.12	8.06	-36.7	-38.0	27.5	3.04e+01	92	34	0	187695104	48	6100
2026-01-06 04:38:21.98	254.29	8.10	-36.6	-38.0	27.5	3.04e+01	90	34	0	189792256	48	6071
2026-01-06 04:38:22.99	254.46	8.14	-36.6	-37.9	27.6	3.04e+01	92	34	0	191365120	48	6024
2026-01-06 04:38:24.00	254.63	8.18	-36.7	-38.0	27.5	3.04e+01	92	34	0	193462272	48	6114
2026-01-06 04:38:25.01	254.81	8.22	-36.6	-37.9	27.5	3.04e+01	92	34	0	195035136	48	6036
2026-01-06 04:38:26.02	254.98	8.26	-36.7	-38.0	27.5	3.04e+01	92	34	0	197132288	48	6100
2026-01-06 04:38:27.03	255.15	8.30	-36.7	-38.0	27.5	3.04e+01	92	34	0	199229440	48	6105
2026-01-06 04:38:28.04	255.33	8.33	-36.7	-38.0	27.6	3.04e+01	90	34	0	200802304	48	6084
2026-01-06 04:38:29.05	255.51	8.37	-36.7	-38.0	27.5	3.04e+01	92	34	0	202899456	48	6080
2026-01-06 04:38:30.06	255.68	8.41	-36.6	-37.8	27.7	3.04e+01	90	34	0	204472320	48	5994
2026-01-06 04:38:31.07	255.86	8.45	-36.4	-37.7	27.7	3.04e+01	92	34	0	206569472	48	5902
2026-01-06 04:38:32.08	256.03	8.49	-36.5	-37.8	27.7	3.04e+01	92	34	0	208666624	48	5974
2026-01-06 04:38:33.09	256.21	8.53	-36.5	-37.9	27.6	3.04e+01	87	34	0	210239488	48	6004
2026-01-06 04:38:34.10	256.39	8.57	-36.6	-37.9	27.6	3.04e+01	92	34	0	212336640	48	6001
2026-01-06 04:38:35.11	256.57	8.60	-36.6	-37.8	27.6	3.04e+01	92	34	0	213909504	48	5994
2026-01-06 04:38:36.12	256.75	8.64	-36.5	-37.8	27.7	3.04e+01	92	34	0	216006656	48	5953
2026-01-06 04:38:37.13	256.93	8.68	-36.5	-37.8	27.7	3.04e+01	90	34	0	218103808	48	5945
2026-01-06 04:38:38.13	257.11	8.72	-36.5	-37.8	27.8	3.04e+01	90	34	0	219676672	48	5931
2026-01-06 04:38:39.14	257.29	8.75	-36.4	-37.7	27.8	3.04e+01	92	34	0	221773824	48	5924
2026-01-06 04:38:40.15	257.47	8.79	-36.5	-37.8	27.7	3.04e+01	92	34	0	223346688	48	5961
2026-01-06 04:38:41.16	257.65	8.83	-36.6	-37.9	27.6	3.04e+01	92	34	0	225443840	48	6006
2026-01-06 04:38:42.17	257.83	8.86	-36.5	-37.8	27.7	3.04e+01	91	34	0	227540992	48	5969
2026-01-06 04:38:43.18	258.01	8.90	-36.5	-37.8	27.7	3.04e+01	92	34	0	229113856	48	5961
2026-01-06 04:38:44.19	258.19	8.94	-36.5	-37.8	27.7	3.04e+01	92	34	0	231211008	48	5938
2026-01-06 04:38:45.20	258.38	8.97	-36.5	-37.8	27.7	3.04e+01	92	34	0	233308160	48	5956
2026-01-06 04:38:46.21	258.56	9.01	-36.3	-37.6	28.0	3.04e+01	92	34	0	234881024	48	5799
2026-01-06 04:38:47.22	258.75	9.05	-36.4	-37.7	27.8	3.04e+01	92	34	0	236978176	48	5894
2026-01-06 04:38:48.23	258.93	9.08	-36.4	-37.7	27.8	3.04e+01	92	34	0	238551040	48	5892
2026-01-06 04:38:49.23	259.11	9.12	-36.4	-37.7	27.8	3.04e+01	92	34	0	240648192	48	5913
2026-01-06 04:38:50.24	259.30	9.15	-36.3	-37.6	27.9	3.04e+01	92	34	0	242745344	48	5834
2026-01-06 04:38:51.25	259.49	9.19	-36.2	-37.5	28.0	3.04e+01	92	34	0	244318208	48	5757
2026-01-06 04:38:52.26	259.67	9.22	-36.5	-37.8	27.8	3.04e+01	92	34	0	246415360	48	5928
2026-01-06 04:38:53.27	259.86	9.26	-36.5	-37.8	27.8	3.04e+01	92	34	0	247988224	48	5953
2026-01-06 04:38:54.28	260.05	9.29	-36.5	-37.8	27.8	3.04e+01	92	34	0	250085376	48	5930
2026-01-06 04:38:55.29	260.23	9.33	-36.3	-37.6	27.9	3.04e+01	92	34	0	252182528	48	5796
2026-01-06 04:38:56.30	260.42	9.36	-36.2	-37.4	28.0	3.04e+01	91	34	0	253755392	48	5711
2026-01-06 04:38:57.31	260.61	9.39	-36.2	-37.4	28.1	3.04e+01	92	34	0	255852544	48	5711
2026-01-06 04:38:58.32	260.80	9.43	-36.1	-37.4	28.1	3.04e+01	89	34	0	257949696	48	5698
2026-01-06 04:38:59.33	260.99	9.46	-36.3	-37.6	27.9	3.04e+01	92	34	0	259522560	48	5818
2026-01-06 04:39:00.34	261.18	9.49	-36.2	-37.5	27.9	3.04e+01	90	34	0	261619712	48	5769
2026-01-06 04:39:01.35	261.37	9.53	-36.2	-37.5	27.9	3.04e+01	92	34	0	263192576	48	5749
2026-01-06 04:39:02.36	261.56	9.56	-36.1	-37.4	28.1	3.04e+01	91	34	0	265289728	48	5683
2026-01-06 04:39:03.37	261.75	9.59	-36.3	-37.5	28.0	3.04e+01	92	34	0	267386880	48	5787
2026-01-06 04:39:04.38	261.95	9.63	-36.2	-37.5	28.0	3.04e+01	90	34	0	268959744	48	5735
2026-01-06 04:39:05.39	262.14	9.66	-36.2	-37.5	28.0	3.04e+01	92	34	0	271056896	48	5740
2026-01-06 04:39:06.40	262.33	9.69	-36.1	-37.3	28.2	3.04e+01	90	34	0	272629760	48	5656
2026-01-06 04:39:07.41	262.53	9.72	-36.0	-37.2	28.3	3.04e+01	92	34	0	274726912	46	6244
2026-01-06 04:39:08.42	262.72	9.75	-36.0	-37.3	28.2	3.04e+01	90	34	0	276824064	46	6278
2026-01-06 04:39:09.43	262.91	9.78	-36.1	-37.4	28.1	3.04e+01	92	34	0	278396928	46	6381
2026-01-06 04:39:10.43	263.11	9.82	-36.2	-37.4	28.0	3.04e+01	92	34	0	280494080	46	6421
2026-01-06 04:39:11.44	263.30	9.85	-36.1	-37.3	28.2	3.04e+01	91	34	0	282066944	46	6326
2026-01-06 04:39:12.46	263.50	9.88	-36.0	-37.3	28.2	3.04e+01	90	34	0	284164096	46	6288
2026-01-06 04:39:13.46	263.69	9.91	-36.1	-37.4	28.1	3.04e+01	92	34	0	286261248	46	6389
2026-01-06 04:39:14.47	263.89	9.94	-36.2	-37.5	28.1	3.04e+01	92	34	0	287834112	46	6439
2026-01-06 04:39:15.48	264.09	9.97	-36.2	-37.5	28.0	3.04e+01	92	34	0	289931264	46	6442
2026-01-06 04:39:16.49	264.28	10.00	-36.0	-37.3	28.2	3.04e+01	92	34	0	291504128	46	6327
2026-01-06 04:39:17.50	264.48	10.03	-36.2	-37.4	28.1	3.04e+01	92	34	0	293601280	46	6408
2026-01-06 04:39:18.51	264.68	10.06	-36.0	-37.2	28.1	3.04e+01	92	34	0	295698432	46	6266
2026-01-06 04:39:19.51	264.88	10.08	-36.2	-37.5	28.1	3.04e+01	92	34	0	297271296	46	6424
2026-01-06 04:39:20.52	265.07	10.11	-36.2	-37.4	28.1	3.04e+01	92	34	0	299368448	46	6423
2026-01-06 04:39:21.53	265.27	10.14	-36.4	-37.7	27.9	3.04e+01	90	34	0	301465600	46	6600
2026-01-06 04:39:22.54	265.47	10.17	-36.5	-37.8	27.8	3.04e+01	92	34	0	303038464	46	6661
2026-01-06 04:39:23.55	265.67	10.20	-36.2	-37.4	28.0	3.04e+01	92	34	0	305135616	46	6414
2026-01-06 04:39:24.55	265.87	10.22	-36.1	-37.4	28.1	3.04e+01	90	34	0	306708480	46	6384
2026-01-06 04:39:25.56	266.07	10.25	-36.0	-37.2	28.3	3.04e+01	91	34	0	308805632	46	6265
2026-01-06 04:39:26.57	266.27	10.28	-35.9	-37.1	28.4	3.04e+01	91	34	0	310902784	46	6201
2026-01-06 04:39:27.58	266.48	10.31	-35.8	-37.1	28.4	3.04e+01	92	34	0	312475648	46	6151
2026-01-06 04:39:28.59	266.68	10.33	-36.0	-37.3	28.2	3.04e+01	92	34	0	314572800	46	6304
2026-01-06 04:39:29.60	266.88	10.36	-36.0	-37.2	28.2	3.04e+01	90	34	0	316145664	46	6268
2026-01-06 04:39:30.61	267.08	10.39	-36.1	-37.4	28.1	3.04e+01	91	34	0	318242816	46	6354
2026-01-06 04:39:31.62	267.29	10.41	-36.1	-37.4	28.1	3.04e+01	90	34	0	320339968	46	6395
2026-01-06 04:39:32.63	267.49	10.44	-35.8	-37.1	28.4	3.04e+01	91	34	0	321912832	46	6159
2026-01-06 04:39:33.63	267.69	10.46	-35.9	-37.2	28.3	3.04e+01	89	34	0	324009984	46	6208
2026-01-06 04:39:34.64	267.90	10.49	-35.9	-37.2	28.3	3.04e+01	92	34	0	325582848	46	6208
2026-01-06 04:39:35.65	268.10	10.51	-36.0	-37.3	28.3	3.04e+01	91	34	0	327680000	46	6285
2026-01-06 04:39:36.66	268.30	10.54	-35.7	-37.0	28.5	3.04e+01	89	34	0	329777152	46	6099
2026-01-06 04:39:37.67	268.51	10.56	-35.8	-37.1	28.5	3.04e+01	92	34	0	331350016	46	6156
2026-01-06 04:39:38.68	268.72	10.58	-35.8	-37.0	28.5	3.04e+01	89	34	0	333447168	46	6111
2026-01-06 04:39:39.69	268.92	10.61	-35.8	-37.1	28.4	3.04e+01	91	34	0	335020032	46	6138
2026-01-06 04:39:40.70	269.13	10.63	-35.8	-37.1	28.3	3.04e+01	90	34	0	337117184	46	6165
2026-01-06 04:39:41.71	269.33	10.65	-36.0	-37.3	28.2	3.04e+01	92	34	0	339214336	46	6315
2026-01-06 04:39:42.72	269.54	10.68	-35.9	-37.2	28.4	3.04e+01	90	34	0	340787200	46	6239
2026-01-06 04:39:43.73	269.75	10.70	-35.8	-37.1	28.4	3.04e+01	92	34	0	342884352	46	6170
2026-01-06 04:39:44.74	269.96	10.72	-35.8	-37.1	28.4	3.04e+01	92	34	0	344457216	46	6165
2026-01-06 04:39:45.75	270.17	10.74	-35.8	-37.1	28.5	3.04e+01	92	34	0	346554368	46	6140
2026-01-06 04:39:46.76	270.37	10.76	-35.8	-37.0	28.4	3.04e+01	92	34	0	348651520	46	6122
2026-01-06 04:39:47.77	270.58	10.79	-35.7	-37.0	28.5	3.04e+01	90	34	0	350224384	46	6092
2026-01-06 04:39:48.78	270.79	10.81	-35.7	-36.9	28.5	3.04e+01	90	34	0	352321536	46	6061
2026-01-06 04:39:49.79	271.00	10.83	-35.8	-37.0	28.4	3.04e+01	92	34	0	354418688	46	6132
2026-01-06 04:39:50.80	271.21	10.85	-35.7	-36.9	28.6	3.04e+01	92	34	0	355991552	46	6039
2026-01-06 04:39:51.81	271.42	10.87	-35.8	-37.0	28.6	3.04e+01	92	34	0	358088704	46	6093
2026-01-06 04:39:52.82	271.63	10.89	-35.7	-37.0	28.6	3.04e+01	87	34	0	359661568	46	6081
2026-01-06 04:39:53.83	271.84	10.91	-35.8	-37.1	28.5	3.04e+01	91	34	0	361758720	46	6163
2026-01-06 04:39:54.83	272.05	10.93	-35.8	-37.0	28.5	3.04e+01	91	34	0	363855872	46	6119
2026-01-06 04:39:55.84	272.26	10.94	-35.8	-37.0	28.5	3.04e+01	92	34	0	365428736	46	6101
2026-01-06 04:39:56.85	272.47	10.96	-35.7	-37.0	28.5	3.04e+01	91	34	0	367525888	46	6098
2026-01-06 04:39:57.86	272.68	10.98	-35.5	-36.8	28.7	3.04e+01	91	34	0	369098752	46	5939
2026-01-06 04:39:58.87	272.89	11.00	-35.6	-36.8	28.7	3.04e+01	90	34	0	371195904	46	5961
2026-01-06 04:39:59.88	273.11	11.02	-35.7	-36.9	28.5	3.04e+01	92	34	0	373293056	46	6058
2026-01-06 04:40:00.89	273.32	11.03	-35.6	-36.9	28.6	3.04e+01	91	34	0	374865920	46	6013
2026-01-06 04:40:01.90	273.53	11.05	-35.7	-36.9	28.6	3.04e+01	92	34	0	376963072	46	6050
2026-01-06 04:40:02.91	273.74	11.07	-35.6	-36.8	28.6	3.04e+01	91	34	0	378535936	46	5990
2026-01-06 04:40:03.92	273.96	11.08	-35.7	-36.9	28.6	3.04e+01	92	34	0	380633088	46	6063
2026-01-06 04:40:04.93	274.17	11.10	-35.6	-36.9	28.6	3.04e+01	92	34	0	382730240	46	5997
2026-01-06 04:40:05.93	274.38	11.11	-35.7	-36.9	28.6	3.04e+01	92	34	0	384303104	46	6024
2026-01-06 04:40:06.94	274.60	11.13	-35.7	-37.0	28.5	3.04e+01	92	34	0	386400256	46	6068
2026-01-06 04:40:07.95	274.81	11.15	-35.8	-37.1	28.4	3.04e+01	92	34	0	387973120	46	6160
2026-01-06 04:40:08.96	275.02	11.16	-35.8	-37.0	28.5	3.04e+01	92	34	0	390070272	46	6107
2026-01-06 04:40:09.97	275.24	11.17	-35.9	-37.2	28.5	3.04e+01	92	34	0	392167424	46	6221
2026-01-06 04:40:10.98	275.45	11.19	-35.8	-37.0	28.5	3.04e+01	92	34	0	393740288	46	6105
2026-01-06 04:40:11.99	275.67	11.20	-35.8	-37.0	28.5	3.04e+01	92	34	0	395837440	46	6096
2026-01-06 04:40:13.00	275.88	11.21	-35.7	-36.9	28.6	3.04e+01	92	34	0	397934592	46	6047
2026-01-06 04:40:14.01	276.10	11.23	-35.6	-36.8	28.6	3.04e+01	92	34	0	399507456	46	5959
2026-01-06 04:40:15.02	276.31	11.24	-35.7	-36.9	28.6	3.04e+01	85	34	0	401604608	46	6047
2026-01-06 04:40:16.03	276.53	11.25	-35.7	-36.9	28.6	3.04e+01	92	34	0	403177472	46	6047
2026-01-06 04:40:17.04	276.75	11.26	-35.8	-37.0	28.5	3.04e+01	92	34	0	405274624	46	6128
2026-01-06 04:40:18.05	276.96	11.28	-35.7	-36.9	28.7	3.04e+01	92	34	0	407371776	46	6025
2026-01-06 04:40:19.06	277.18	11.29	-35.7	-36.9	28.7	3.04e+01	92	34	0	408944640	46	6026
2026-01-06 04:40:20.07	277.40	11.30	-35.7	-36.9	28.6	3.04e+01	92	34	0	411041792	46	6039
2026-01-06 04:40:21.08	277.61	11.31	-35.7	-37.0	28.5	3.04e+01	92	34	0	412614656	46	6081
2026-01-06 04:40:22.09	277.83	11.32	-35.6	-36.8	28.7	3.04e+01	92	34	0	414711808	46	5965
2026-01-06 04:40:23.10	278.05	11.33	-35.6	-36.9	28.6	3.04e+01	92	34	0	416808960	46	6010
2026-01-06 04:40:24.11	278.26	11.34	-35.6	-36.9	28.7	3.04e+01	90	34	0	418381824	46	6020
2026-01-06 04:40:25.11	278.48	11.35	-35.7	-36.9	28.6	3.04e+01	90	34	0	420478976	46	6021
2026-01-06 04:40:26.12	278.69	11.36	-35.6	-36.8	28.7	3.04e+01	92	34	0	422576128	46	5989
2026-01-06 04:40:27.13	278.91	11.37	-35.5	-36.7	28.8	3.04e+01	91	34	0	424148992	46	5901
2026-01-06 04:40:28.14	279.13	11.37	-35.5	-36.7	28.7	3.04e+01	91	34	0	426246144	46	5920
2026-01-06 04:40:29.15	279.35	11.38	-35.6	-36.8	28.6	3.04e+01	91	34	0	427819008	46	5993
2026-01-06 04:40:30.16	279.56	11.39	-35.7	-37.0	28.6	3.04e+01	90	34	0	429916160	46	6088
2026-01-06 04:40:31.17	279.78	11.40	-35.6	-36.9	28.6	3.04e+01	92	34	0	432013312	46	6006
2026-01-06 04:40:32.18	280.00	11.40	-35.8	-37.1	28.5	3.04e+01	92	34	0	433586176	46	6157
2026-01-06 04:40:33.18	280.22	11.41	-35.7	-36.9	28.6	3.04e+01	92	34	0	435683328	46	6053
2026-01-06 04:40:34.19	280.43	11.42	-35.6	-36.8	28.7	3.04e+01	88	34	0	437256192	46	5970
2026-01-06 04:40:35.20	280.65	11.42	-35.6	-36.9	28.6	3.04e+01	92	34	0	439353344	46	6005
2026-01-06 04:40:36.21	280.87	11.43	-35.5	-36.7	28.8	3.04e+01	90	34	0	440926208	46	5904
2026-01-06 04:40:37.22	281.09	11.43	-35.5	-36.7	28.8	3.04e+01	90	34	0	443023360	46	5908
2026-01-06 04:40:38.23	281.31	11.44	-35.5	-36.8	28.7	3.04e+01	92	34	0	445120512	46	5933
2026-01-06 04:40:39.24	281.53	11.44	-35.7	-37.0	28.6	3.04e+01	90	34	0	446693376	46	6086
2026-01-06 04:40:40.25	281.75	11.44	-35.6	-36.9	28.6	3.04e+01	92	34	0	448790528	46	6023
2026-01-06 04:40:41.26	281.96	11.45	-35.8	-37.0	28.5	3.04e+01	90	34	0	450887680	46	6116
2026-01-06 04:40:42.27	282.18	11.45	-35.5	-36.7	28.8	3.04e+01	90	34	0	452460544	46	5907
2026-01-06 04:40:43.27	282.40	11.45	-35.6	-36.8	28.7	3.04e+01	91	34	0	454557696	46	5975
2026-01-06 04:40:44.28	282.62	11.46	-35.5	-36.8	28.7	3.04e+01	90	34	0	456130560	46	5932
2026-01-06 04:40:45.29	282.84	11.46	-35.7	-36.9	28.6	3.04e+01	89	34	0	458227712	46	6050
2026-01-06 04:40:46.30	283.06	11.46	-35.6	-36.9	28.6	3.04e+01	92	34	0	460324864	46	6002
2026-01-06 04:40:47.31	283.27	11.46	-35.5	-36.7	28.7	3.04e+01	91	34	0	461897728	46	5926
2026-01-06 04:40:48.32	283.49	11.46	-35.4	-36.6	28.9	3.04e+01	92	34	0	463994880	46	5829
2026-01-06 04:40:49.32	283.71	11.46	-35.4	-36.7	28.9	3.04e+01	91	34	0	466092032	46	5864
2026-01-06 04:40:50.33	283.93	11.46	-35.5	-36.7	28.7	3.04e+01	92	34	0	467664896	46	5920
2026-01-06 04:40:51.34	284.15	11.46	-35.6	-36.9	28.6	3.04e+01	91	34	0	469762048	46	6038
2026-01-06 04:40:52.35	284.37	11.46	-35.7	-36.9	28.5	3.04e+01	88	34	0	471334912	46	6027
2026-01-06 04:40:53.36	284.59	11.46	-35.6	-36.9	28.6	3.04e+01	91	34	0	473432064	46	6006
2026-01-06 04:40:54.37	284.80	11.46	-35.5	-36.7	28.7	3.04e+01	90	34	0	475529216	46	5919
2026-01-06 04:40:55.38	285.02	11.46	-35.5	-36.7	28.8	3.04e+01	92	34	0	477102080	46	5914
2026-01-06 04:40:56.39	285.24	11.46	-35.4	-36.6	28.8	3.04e+01	92	35	0	479199232	46	5851
2026-01-06 04:40:57.40	285.46	11.46	-35.5	-36.8	28.8	3.04e+01	92	35	0	480772096	46	5945
2026-01-06 04:40:58.41	285.68	11.46	-35.6	-36.9	28.6	3.04e+01	90	34	0	482869248	46	6006
2026-01-06 04:40:59.42	285.90	11.45	-35.7	-36.9	28.6	3.04e+01	92	34	0	484966400	46	6034
2026-01-06 04:41:00.43	286.12	11.45	-35.6	-36.8	28.7	3.04e+01	90	34	0	486539264	46	5961
2026-01-06 04:41:01.44	286.34	11.45	-35.6	-36.8	28.7	3.04e+01	92	34	0	488636416	46	5992
2026-01-06 04:41:02.45	286.55	11.44	-35.6	-36.9	28.7	3.04e+01	92	34	0	490209280	46	6011
2026-01-06 04:41:03.46	286.77	11.44	-35.7	-36.9	28.6	3.04e+01	92	34	0	492306432	46	6058
2026-01-06 04:41:04.47	286.99	11.43	-35.6	-36.9	28.6	3.04e+01	90	34	0	494403584	46	6020
2026-01-06 04:41:05.48	287.21	11.43	-35.5	-36.7	28.8	3.04e+01	92	34	0	495976448	46	5885
2026-01-06 04:41:06.49	287.43	11.42	-35.5	-36.7	28.8	3.04e+01	90	34	0	498073600	46	5888
2026-01-06 04:41:07.49	287.64	11.42	-35.6	-36.8	28.7	3.04e+01	92	34	0	499646464	46	5993
2026-01-06 04:41:08.50	287.86	11.41	-35.6	-36.8	28.7	3.04e+01	90	34	0	501743616	46	5972
2026-01-06 04:41:09.51	288.08	11.41	-35.8	-37.0	28.5	3.04e+01	92	34	0	503840768	46	6111
2026-01-06 04:41:10.52	288.30	11.40	-35.6	-36.9	28.7	3.04e+01	92	34	0	505413632	46	6029
2026-01-06 04:41:11.53	288.52	11.39	-35.5	-36.8	28.7	3.04e+01	92	34	0	507510784	46	5948
2026-01-06 04:41:12.54	288.73	11.38	-35.3	-36.6	28.9	3.04e+01	90	34	0	509083648	46	5801
2026-01-06 04:41:13.55	288.95	11.38	-35.4	-36.6	28.8	3.04e+01	92	34	0	511180800	46	5854
2026-01-06 04:41:14.56	289.17	11.37	-35.6	-36.8	28.7	3.04e+01	92	34	0	513277952	46	5961
2026-01-06 04:41:15.57	289.39	11.36	-35.5	-36.8	28.8	3.04e+01	87	34	0	514850816	46	5942
2026-01-06 04:41:16.58	289.60	11.35	-35.6	-36.8	28.7	3.04e+01	92	34	0	516947968	46	5986
2026-01-06 04:41:17.59	289.82	11.34	-35.5	-36.7	28.8	3.04e+01	92	34	0	519045120	46	5911
2026-01-06 04:41:18.60	290.04	11.33	-35.5	-36.8	28.8	3.04e+01	90	34	0	520617984	46	5935
2026-01-06 04:41:19.60	290.25	11.32	-35.5	-36.7	28.8	3.04e+01	92	34	0	522715136	46	5924
2026-01-06 04:41:20.62	290.47	11.31	-35.4	-36.7	28.8	3.04e+01	92	34	0	524288000	46	5876
2026-01-06 04:41:21.62	290.68	11.30	-35.5	-36.7	28.8	3.04e+01	52	34	0	526385152	46	5917
2026-01-06 04:41:22.63	290.90	11.29	-35.4	-36.6	28.8	3.04e+01	61	34	0	528482304	46	5847
2026-01-06 04:41:23.64	291.12	11.28	-35.5	-36.7	28.9	3.04e+01	59	34	0	530055168	46	5917
2026-01-06 04:41:24.65	291.33	11.27	-35.4	-36.7	28.8	3.04e+01	60	34	0	532152320	46	5876
2026-01-06 04:41:25.66	291.55	11.26	-35.5	-36.7	28.7	3.04e+01	59	34	0	533725184	46	5916
2026-01-06 04:41:26.67	291.76	11.25	-35.5	-36.7	28.8	3.04e+01	58	34	0	535822336	46	5909
2026-01-06 04:41:27.68	291.98	11.23	-35.6	-36.8	28.7	3.04e+01	60	34	0	537919488	46	5952
2026-01-06 04:41:28.69	292.19	11.22	-35.4	-36.6	28.8	3.04e+01	59	34	0	539492352	46	5852
2026-01-06 04:41:29.69	292.41	11.21	-35.6	-36.9	28.8	3.04e+01	44	34	0	541589504	46	5999
2026-01-06 04:41:30.70	292.62	11.19	-35.5	-36.7	28.8	3.04e+01	59	34	0	543162368	46	5922
2026-01-06 04:41:31.71	292.83	11.18	-35.6	-36.8	28.7	3.04e+01	51	34	0	545259520	46	5954
2026-01-06 04:41:32.72	293.05	11.17	-35.4	-36.6	28.9	3.04e+01	57	34	0	547356672	46	5844
2026-01-06 04:41:33.73	293.26	11.15	-35.5	-36.7	28.8	3.04e+01	60	34	0	548929536	46	5873
2026-01-06 04:41:34.74	293.48	11.14	-35.5	-36.7	28.8	3.04e+01	46	34	0	551026688	46	5888
2026-01-06 04:41:35.75	293.69	11.12	-35.5	-36.8	28.7	3.04e+01	59	34	0	552599552	46	5946
2026-01-06 04:41:36.76	293.90	11.11	-35.5	-36.8	28.8	3.04e+01	60	34	0	554696704	46	5932
2026-01-06 04:41:37.77	294.12	11.09	-35.5	-36.7	28.8	3.04e+01	58	34	0	556793856	46	5899
2026-01-06 04:41:38.78	294.33	11.07	-35.5	-36.7	28.8	3.04e+01	58	34	0	558366720	46	5903
2026-01-06 04:41:39.79	294.54	11.06	-35.5	-36.7	28.8	3.04e+01	51	34	0	560463872	46	5919
2026-01-06 04:41:40.80	294.75	11.04	-35.6	-36.8	28.7	3.04e+01	58	34	0	562561024	46	5951
2026-01-06 04:41:41.81	294.97	11.02	-35.6	-36.8	28.7	3.04e+01	60	34	0	564133888	46	5957
2026-01-06 04:41:42.82	295.18	11.01	-35.5	-36.8	28.8	3.04e+01	47	34	0	566231040	46	5941
2026-01-06 04:41:43.83	295.39	10.99	-35.5	-36.8	28.7	3.04e+01	58	34	0	567803904	46	5929
2026-01-06 04:41:44.84	295.60	10.97	-35.6	-36.9	28.7	3.04e+01	62	34	0	569901056	46	6003
2026-01-06 04:41:45.84	295.81	10.95	-35.6	-36.9	28.7	3.04e+01	59	34	0	571998208	46	6002
2026-01-06 04:41:46.85	296.02	10.94	-35.5	-36.7	28.8	3.04e+01	60	34	0	573571072	46	5919
2026-01-06 04:41:47.86	296.23	10.92	-35.5	-36.7	28.8	3.04e+01	46	34	0	575668224	46	5880
2026-01-06 04:41:48.87	296.44	10.90	-35.5	-36.8	28.7	3.04e+01	59	34	0	577241088	46	5931
2026-01-06 04:41:49.88	296.65	10.88	-35.6	-36.8	28.7	3.04e+01	57	34	0	579338240	46	5966
2026-01-06 04:41:50.89	296.86	10.86	-35.6	-36.8	28.7	3.04e+01	46	34	0	581435392	46	5983
2026-01-06 04:41:51.90	297.07	10.84	-35.6	-36.9	28.6	3.04e+01	59	34	0	583008256	46	5995
2026-01-06 04:41:52.91	297.28	10.82	-35.5	-36.7	28.8	3.04e+01	57	34	0	585105408	46	5906
2026-01-06 04:41:53.92	297.49	10.80	-35.5	-36.8	28.7	3.04e+01	50	34	0	587202560	46	5930
2026-01-06 04:41:54.93	297.69	10.78	-35.5	-36.8	28.7	3.04e+01	61	34	0	588775424	46	5943
2026-01-06 04:41:55.93	297.90	10.75	-35.5	-36.8	28.7	3.04e+01	59	34	0	590872576	46	5938
2026-01-06 04:41:56.95	298.11	10.73	-35.6	-36.8	28.6	3.04e+01	58	34	0	592445440	46	5971
2026-01-06 04:41:57.95	298.31	10.71	-35.6	-36.9	28.6	3.04e+01	61	34	0	594542592	46	6025
2026-01-06 04:41:58.96	298.52	10.69	-35.7	-36.9	28.7	3.04e+01	50	34	0	596115456	46	6030
2026-01-06 04:41:59.97	298.73	10.67	-35.5	-36.8	28.7	3.04e+01	56	34	0	598212608	46	5949
2026-01-06 04:42:00.98	298.93	10.64	-35.6	-36.8	28.7	3.04e+01	59	34	0	600309760	46	5956
2026-01-06 04:42:01.99	299.14	10.62	-35.6	-36.9	28.7	3.04e+01	57	34	0	601882624	46	5996
2026-01-06 04:42:03.00	299.35	10.60	-35.7	-36.9	28.5	3.04e+01	61	34	0	603979776	46	6061
2026-01-06 04:42:04.01	299.55	10.57	-35.7	-37.0	28.5	3.04e+01	50	34	0	605552640	46	6088
2026-01-06 04:42:05.02	299.76	10.55	-35.6	-36.8	28.7	3.04e+01	62	34	0	607649792	46	5993
2026-01-06 04:42:06.03	299.96	10.53	-35.7	-36.9	28.6	3.04e+01	59	34	0	609746944	46	6033
2026-01-06 04:42:07.03	300.16	10.50	-35.5	-36.7	28.8	3.04e+01	51	34	0	611319808	46	5899
2026-01-06 04:42:08.04	300.37	10.48	-35.6	-36.8	28.7	3.04e+01	56	34	0	613416960	46	5991
2026-01-06 04:42:09.05	300.57	10.45	-35.6	-36.8	28.6	3.04e+01	61	34	0	615514112	46	5990
2026-01-06 04:42:10.06	300.77	10.43	-35.5	-36.7	28.7	3.04e+01	59	34	0	617086976	46	5917
2026-01-06 04:42:11.07	300.98	10.40	-35.5	-36.8	28.6	3.04e+01	58	34	0	619184128	46	5927
2026-01-06 04:42:12.08	301.18	10.37	-35.5	-36.8	28.7	3.04e+01	52	34	0	620756992	46	5937
2026-01-06 04:42:13.09	301.38	10.35	-35.7	-36.9	28.6	3.04e+01	60	34	0	622854144	46	6049
2026-01-06 04:42:14.10	301.58	10.32	-35.7	-36.9	28.5	3.04e+01	61	34	0	624951296	46	6035
2026-01-06 04:42:15.11	301.78	10.30	-35.7	-37.0	28.5	3.04e+01	52	34	0	626524160	46	6070
2026-01-06 04:42:16.12	301.98	10.27	-35.7	-36.9	28.5	3.04e+01	57	34	0	628621312	46	6058
2026-01-06 04:42:17.13	302.18	10.24	-35.7	-37.0	28.5	3.04e+01	46	34	0	630718464	46	6079
2026-01-06 04:42:18.14	302.38	10.21	-35.7	-36.9	28.5	3.04e+01	57	34	0	632291328	46	6039
2026-01-06 04:42:19.15	302.58	10.19	-35.5	-36.8	28.7	3.04e+01	60	34	0	634388480	46	5951
2026-01-06 04:42:20.16	302.78	10.16	-35.4	-36.7	28.8	3.04e+01	44	34	0	635961344	46	5882
2026-01-06 04:42:21.16	302.98	10.13	-35.6	-36.9	28.6	3.04e+01	57	34	0	638058496	46	6032
2026-01-06 04:42:22.17	303.18	10.10	-35.6	-36.9	28.5	3.04e+01	60	34	0	640155648	46	6027
2026-01-06 04:42:23.18	303.38	10.07	-35.6	-36.8	28.6	3.04e+01	59	34	0	641728512	46	5987
2026-01-06 04:42:24.19	303.57	10.04	-35.6	-36.9	28.6	3.04e+01	59	34	0	643825664	46	6045
2026-01-06 04:42:25.19	303.77	10.02	-35.7	-37.0	28.5	3.04e+01	45	34	0	645398528	46	6065
2026-01-06 04:42:26.20	303.96	9.99	-35.9	-37.1	28.3	3.04e+01	56	34	0	647495680	46	6205
2026-01-06 04:42:27.21	304.16	9.96	-35.8	-37.1	28.4	3.04e+01	55	34	0	649592832	46	6156
2026-01-06 04:42:28.22	304.36	9.93	-35.7	-36.9	28.5	3.04e+01	53	34	0	651165696	46	6062
2026-01-06 04:42:29.23	304.55	9.90	-35.7	-37.0	28.4	3.04e+01	61	34	0	653262848	46	6080
2026-01-06 04:42:30.24	304.75	9.87	-35.8	-37.0	28.4	3.04e+01	59	34	0	654835712	46	6127
2026-01-06 04:42:31.25	304.94	9.84	-35.8	-37.1	28.3	3.04e+01	61	34	0	656932864	46	6141
2026-01-06 04:42:32.26	305.14	9.80	-35.7	-37.0	28.4	3.04e+01	58	34	0	659030016	46	6098
2026-01-06 04:42:33.27	305.33	9.77	-35.6	-36.8	28.5	3.04e+01	48	34	0	660602880	46	5972
2026-01-06 04:42:34.27	305.52	9.74	-35.6	-36.9	28.6	3.04e+01	58	34	0	662700032	46	6017
2026-01-06 04:42:35.28	305.71	9.71	-35.7	-36.9	28.5	3.04e+01	58	34	0	664272896	46	6061
2026-01-06 04:42:36.29	305.91	9.68	-35.8	-37.1	28.4	3.04e+01	47	34	0	666370048	46	6136
2026-01-06 04:42:37.30	306.10	9.65	-35.8	-37.1	28.4	3.04e+01	61	34	0	668467200	46	6155
2026-01-06 04:42:38.31	306.29	9.62	-35.7	-37.0	28.4	3.04e+01	52	34	0	670040064	46	6122
2026-01-06 04:42:39.32	306.48	9.58	-35.8	-37.0	28.3	3.04e+01	60	34	0	672137216	46	6134
2026-01-06 04:42:40.33	306.67	9.55	-35.8	-37.1	28.3	3.04e+01	58	34	0	673710080	46	6172
2026-01-06 04:42:41.34	306.86	9.52	-35.7	-36.9	28.4	3.04e+01	53	34	0	675807232	46	6063
2026-01-06 04:42:42.35	307.05	9.48	-35.6	-36.9	28.5	3.04e+01	60	34	0	677904384	46	6016
2026-01-06 04:42:43.36	307.24	9.45	-35.7	-36.9	28.5	3.04e+01	60	34	0	679477248	46	6051
2026-01-06 04:42:44.37	307.43	9.42	-35.6	-36.9	28.5	3.04e+01	44	34	0	681574400	46	6040
2026-01-06 04:42:45.38	307.62	9.38	-35.8	-37.1	28.3	3.04e+01	58	34	0	683671552	46	6172
2026-01-06 04:42:46.39	307.80	9.35	-35.7	-36.9	28.5	3.04e+01	60	34	0	685244416	46	6044
2026-01-06 04:42:47.40	307.99	9.32	-35.8	-37.0	28.4	3.04e+01	55	34	0	687341568	46	6120
2026-01-06 04:42:48.41	308.18	9.28	-35.8	-37.0	28.4	3.04e+01	60	35	0	688914432	46	6128
2026-01-06 04:42:49.42	308.37	9.25	-35.8	-37.1	28.4	3.04e+01	50	34	0	691011584	46	6136
2026-01-06 04:42:50.43	308.55	9.21	-35.9	-37.2	28.2	3.04e+01	60	34	0	693108736	46	6218
2026-01-06 04:42:51.44	308.74	9.18	-35.9	-37.2	28.3	3.04e+01	60	34	0	694681600	46	6221
2026-01-06 04:42:52.45	308.92	9.14	-35.8	-37.1	28.4	3.04e+01	60	34	0	696778752	46	6151
2026-01-06 04:42:53.45	309.10	9.11	-35.8	-37.1	28.3	3.04e+01	58	34	0	698351616	46	6181
2026-01-06 04:42:54.46	309.29	9.07	-35.9	-37.2	28.2	3.04e+01	45	34	0	700448768	46	6220
2026-01-06 04:42:55.47	309.47	9.04	-36.0	-37.2	28.1	3.04e+01	61	34	0	702545920	46	6269
2026-01-06 04:42:56.48	309.66	9.00	-35.9	-37.2	28.3	3.04e+01	59	34	0	704118784	46	6208
2026-01-06 04:42:57.49	309.84	8.97	-35.8	-37.0	28.3	3.04e+01	36	34	0	706215936	46	6133
2026-01-06 04:42:58.50	310.02	8.93	-35.8	-37.1	28.3	3.04e+01	57	34	0	707788800	46	6179
2026-01-06 04:42:59.50	310.20	8.89	-35.9	-37.1	28.3	3.04e+01	60	34	0	709885952	46	6203
2026-01-06 04:43:00.51	310.38	8.86	-35.9	-37.2	28.2	3.04e+01	60	34	0	711983104	46	6241
2026-01-06 04:43:01.52	310.56	8.82	-36.0	-37.3	28.1	3.04e+01	60	34	0	713555968	46	6313
2026-01-06 04:43:02.53	310.74	8.78	-36.0	-37.2	28.2	3.04e+01	44	34	0	715653120	46	6263
2026-01-06 04:43:03.54	310.92	8.75	-36.1	-37.4	28.0	3.04e+01	58	34	0	717225984	46	6400
2026-01-06 04:43:04.56	311.10	8.71	-36.1	-37.4	28.0	3.04e+01	57	34	0	719323136	46	6406
2026-01-06 04:43:05.56	311.28	8.67	-36.0	-37.3	28.1	3.04e+01	53	34	0	721420288	46	6332
2026-01-06 04:43:06.57	311.46	8.64	-36.3	-37.7	27.9	3.04e+01	59	34	0	722993152	46	6584
2026-01-06 04:43:07.58	311.64	8.60	-36.2	-37.5	27.9	3.04e+01	59	34	0	725090304	46	6461
2026-01-06 04:43:08.59	311.81	8.56	-36.3	-37.6	27.8	3.04e+01	56	34	0	727187456	46	6564
2026-01-06 04:43:09.60	311.99	8.52	-36.1	-37.4	28.0	3.04e+01	60	34	0	728760320	46	6400
2026-01-06 04:43:10.61	312.17	8.48	-36.2	-37.5	27.8	3.04e+01	58	34	0	730857472	46	6477
2026-01-06 04:43:11.62	312.34	8.45	-36.0	-37.3	28.1	3.04e+01	59	34	0	732430336	46	6326
2026-01-06 04:43:12.63	312.52	8.41	-36.1	-37.3	28.1	3.04e+01	60	34	0	734527488	46	6342
2026-01-06 04:43:13.64	312.69	8.37	-35.9	-37.1	28.2	3.04e+01	50	34	0	736624640	46	6185
2026-01-06 04:43:14.65	312.87	8.33	-36.0	-37.3	28.0	3.04e+01	60	34	0	738197504	46	6310
2026-01-06 04:43:15.66	313.04	8.29	-36.0	-37.3	28.1	3.04e+01	60	34	0	740294656	46	6340
2026-01-06 04:43:16.67	313.22	8.25	-36.2	-37.5	27.9	3.04e+01	62	34	0	741867520	46	6477
2026-01-06 04:43:17.68	313.39	8.21	-36.3	-37.6	27.8	3.04e+01	61	34	0	743964672	46	6563
2026-01-06 04:43:18.69	313.56	8.17	-36.3	-37.6	27.7	3.04e+01	57	34	0	746061824	46	6530
2026-01-06 04:43:19.70	313.73	8.13	-36.1	-37.4	27.9	3.04e+01	61	34	0	747634688	46	6401
2026-01-06 04:43:20.71	313.91	8.10	-36.0	-37.3	28.0	3.04e+01	57	34	0	749731840	46	6330
2026-01-06 04:43:21.72	314.08	8.06	-36.0	-37.3	28.0	3.04e+01	45	34	0	751828992	46	6331
2026-01-06 04:43:22.72	314.25	8.02	-36.0	-37.3	28.0	3.04e+01	59	34	0	753401856	46	6335
2026-01-06 04:43:23.73	314.42	7.98	-36.1	-37.4	28.0	3.04e+01	52	34	0	755499008	46	6417
2026-01-06 04:43:24.74	314.58	7.94	-36.3	-37.6	27.8	3.04e+01	59	34	0	757071872	46	6524
2026-01-06 04:43:25.75	314.75	7.90	-36.0	-37.3	28.1	3.04e+01	58	34	0	759169024	46	6281
2026-01-06 04:43:26.76	314.92	7.86	-36.0	-37.2	28.1	3.04e+01	51	34	0	760741888	46	6272
2026-01-06 04:43:27.77	315.09	7.82	-36.0	-37.3	28.0	3.04e+01	61	34	0	762839040	46	6294
2026-01-06 04:43:28.78	315.26	7.77	-36.0	-37.3	28.0	3.04e+01	62	34	0	764936192	46	6320
2026-01-06 04:43:29.79	315.43	7.73	-36.1	-37.4	28.0	3.04e+01	60	34	0	766509056	46	6403
2026-01-06 04:43:30.80	315.59	7.69	-36.2	-37.5	27.8	3.04e+01	58	34	0	768606208	46	6453
2026-01-06 04:43:31.81	315.76	7.65	-36.3	-37.6	27.7	3.04e+01	52	34	0	770179072	46	6569
2026-01-06 04:43:32.82	315.92	7.61	-36.2	-37.6	27.7	3.04e+01	61	34	0	772276224	46	6507
2026-01-06 04:43:33.83	316.09	7.57	-36.4	-37.7	27.7	3.04e+01	56	34	0	774373376	46	6649
2026-01-06 04:43:34.84	316.25	7.53	-36.2	-37.6	27.8	3.04e+01	46	34	0	775946240	46	6507
2026-01-06 04:43:35.85	316.42	7.49	-36.2	-37.5	27.7	3.04e+01	58	34	0	778043392	46	6494
2026-01-06 04:43:36.85	316.58	7.45	-36.1	-37.5	27.8	3.04e+01	63	34	0	780140544	46	6431
2026-01-06 04:43:37.86	316.74	7.40	-36.3	-37.6	27.7	3.04e+01	57	34	0	781713408	46	6570
2026-01-06 04:43:38.87	316.91	7.36	-36.2	-37.5	27.8	3.04e+01	61	34	0	783810560	46	6432
2026-01-06 04:43:39.88	317.07	7.32	-36.2	-37.5	27.8	3.04e+01	57	34	0	785383424	46	6471
2026-01-06 04:43:40.89	317.23	7.28	-36.2	-37.5	27.8	3.04e+01	61	34	0	787480576	46	6491
2026-01-06 04:43:41.90	317.39	7.24	-36.3	-37.6	27.7	3.04e+01	56	34	0	789577728	46	6553
2026-01-06 04:43:42.91	317.55	7.19	-36.3	-37.6	27.8	3.04e+01	45	34	0	791150592	46	6529
2026-01-06 04:43:43.92	317.71	7.15	-36.5	-37.8	27.5	3.04e+01	62	34	0	793247744	46	6700
2026-01-06 04:43:44.93	317.87	7.11	-36.5	-37.8	27.5	3.04e+01	61	34	0	795344896	46	6710
2026-01-06 04:43:45.94	318.03	7.07	-36.5	-37.8	27.5	3.04e+01	58	34	0	796917760	46	6671
2026-01-06 04:43:46.95	318.19	7.02	-36.4	-37.7	27.6	3.04e+01	61	34	0	799014912	46	6648
2026-01-06 04:43:47.96	318.35	6.98	-36.5	-37.8	27.5	3.04e+01	56	35	0	800587776	46	6685
2026-01-06 04:43:48.97	318.50	6.94	-36.5	-37.9	27.5	3.04e+01	59	34	0	802684928	46	6743
2026-01-06 04:43:49.98	318.66	6.90	-36.6	-37.9	27.3	3.04e+01	58	34	0	804782080	46	6764
2026-01-06 04:43:50.99	318.82	6.85	-36.6	-37.9	27.4	3.04e+01	44	34	0	806354944	46	6757
2026-01-06 04:43:52.00	318.98	6.81	-36.6	-37.9	27.3	3.04e+01	56	34	0	808452096	46	6803
2026-01-06 04:43:53.01	319.13	6.77	-36.5	-37.8	27.4	3.04e+01	58	34	0	810024960	46	6719
2026-01-06 04:43:54.01	319.28	6.72	-36.4	-37.7	27.5	3.04e+01	58	34	0	812122112	46	6623
2026-01-06 04:43:55.02	319.44	6.68	-36.5	-37.8	27.5	3.04e+01	57	34	0	814219264	46	6685
2026-01-06 04:43:56.03	319.59	6.64	-36.6	-37.9	27.4	3.04e+01	50	34	0	815792128	46	6798
2026-01-06 04:43:57.04	319.75	6.59	-36.5	-37.8	27.4	3.04e+01	57	34	0	817889280	46	6722
2026-01-06 04:43:58.05	319.90	6.55	-36.6	-38.0	27.3	3.04e+01	59	34	0	819462144	46	6812
2026-01-06 04:43:59.06	320.05	6.51	-36.6	-37.9	27.4	3.04e+01	48	34	0	821559296	46	6770
2026-01-06 04:44:00.07	320.21	6.46	-36.6	-37.9	27.3	3.04e+01	58	34	0	823656448	46	6766
2026-01-06 04:44:01.08	320.36	6.42	-36.6	-37.9	27.4	3.04e+01	47	34	0	825229312	46	6785
2026-01-06 04:44:02.09	320.51	6.38	-36.6	-38.0	27.3	3.04e+01	62	34	0	827326464	46	6816
2026-01-06 04:44:03.10	320.66	6.33	-36.8	-38.1	27.2	3.04e+01	56	34	0	828899328	46	6928
2026-01-06 04:44:04.11	320.81	6.29	-36.8	-38.2	27.0	3.04e+01	51	34	0	830996480	46	6981
2026-01-06 04:44:05.12	320.96	6.24	-36.8	-38.2	27.0	3.04e+01	58	34	0	833093632	48	6231
2026-01-06 04:44:06.13	321.11	6.20	-36.9	-38.2	27.0	3.04e+01	59	34	0	834666496	48	6268
2026-01-06 04:44:07.14	321.26	6.16	-37.0	-38.3	26.9	3.04e+01	59	34	0	836763648	48	6334
2026-01-06 04:44:08.15	321.41	6.11	-36.7	-38.1	27.1	3.04e+01	59	34	0	838336512	48	6142
2026-01-06 04:44:09.16	321.56	6.07	-36.6	-37.9	27.3	3.04e+01	46	34	0	840433664	48	6053
2026-01-06 04:44:10.17	321.70	6.02	-36.6	-38.0	27.2	3.04e+01	58	34	0	842530816	48	6093
2026-01-06 04:44:11.18	321.85	5.98	-36.7	-38.0	27.2	3.04e+01	62	34	0	844103680	48	6111
2026-01-06 04:44:12.18	322.00	5.93	-36.7	-38.0	27.1	3.04e+01	44	34	0	846200832	48	6094
2026-01-06 04:44:13.19	322.14	5.89	-36.5	-37.9	27.3	3.04e+01	60	34	0	848297984	48	6008
2026-01-06 04:44:14.20	322.29	5.85	-36.7	-38.0	27.1	3.04e+01	59	34	0	849870848	48	6112
2026-01-06 04:44:15.21	322.43	5.80	-36.7	-38.1	27.0	3.04e+01	58	34	0	851968000	48	6145
2026-01-06 04:44:16.22	322.58	5.76	-36.6	-38.0	27.2	3.04e+01	60	34	0	853540864	48	6073
2026-01-06 04:44:17.23	322.72	5.71	-36.7	-38.0	27.1	3.04e+01	54	34	0	855638016	48	6118
2026-01-06 04:44:18.24	322.87	5.67	-36.7	-38.0	27.1	3.04e+01	59	34	0	857735168	48	6113
2026-01-06 04:44:19.25	323.01	5.62	-36.9	-38.2	27.0	3.04e+01	58	34	0	859308032	48	6258
2026-01-06 04:44:20.26	323.15	5.58	-36.9	-38.3	27.0	3.04e+01	52	34	0	861405184	48	6279
2026-01-06 04:44:21.27	323.30	5.53	-37.0	-38.4	26.8	3.04e+01	61	34	0	863502336	48	6398
2026-01-06 04:44:22.28	323.44	5.49	-37.0	-38.4	26.7	3.04e+01	58	34	0	865075200	48	6408
2026-01-06 04:44:23.29	323.58	5.44	-37.0	-38.4	26.8	3.04e+01	63	34	0	867172352	48	6378
2026-01-06 04:44:24.29	323.72	5.40	-37.2	-38.6	26.5	3.04e+01	59	34	0	868745216	48	6562
2026-01-06 04:44:25.30	323.86	5.35	-37.2	-38.6	26.5	3.04e+01	48	34	0	870842368	48	6557
2026-01-06 04:44:26.31	324.00	5.31	-37.1	-38.5	26.6	3.04e+01	58	34	0	872939520	48	6452
2026-01-06 04:44:27.32	324.14	5.26	-37.0	-38.4	26.7	3.04e+01	61	34	0	874512384	48	6355
2026-01-06 04:44:28.33	324.28	5.22	-37.1	-38.4	26.8	3.04e+01	45	34	0	876609536	48	6411
2026-01-06 04:44:29.34	324.42	5.17	-36.9	-38.2	26.9	3.04e+01	62	34	0	878182400	48	6262
2026-01-06 04:44:30.35	324.56	5.12	-36.8	-38.2	26.9	3.04e+01	59	34	0	880279552	48	6238
2026-01-06 04:44:31.36	324.69	5.08	-37.0	-38.4	26.7	3.04e+01	58	34	0	881852416	48	6403
2026-01-06 04:44:32.37	324.83	5.03	-37.0	-38.4	26.8	3.04e+01	59	34	0	883949568	48	6386
2026-01-06 04:44:33.38	324.97	4.99	-37.2	-38.6	26.5	3.04e+01	51	34	0	886046720	48	6562
2026-01-06 04:44:34.39	325.10	4.94	-37.1	-38.5	26.5	3.04e+01	58	34	0	887619584	48	6478
2026-01-06 04:44:35.40	325.24	4.90	-37.1	-38.5	26.5	3.04e+01	60	34	0	889716736	48	6484
2026-01-06 04:44:36.41	325.38	4.85	-37.2	-38.6	26.5	3.04e+01	53	34	0	891813888	48	6509
2026-01-06 04:44:37.42	325.51	4.81	-37.2	-38.6	26.5	3.04e+01	60	34	0	893386752	48	6564
2026-01-06 04:44:38.43	325.65	4.76	-37.3	-38.7	26.4	3.04e+01	46	34	0	895483904	48	6636
2026-01-06 04:44:39.44	325.78	4.71	-37.3	-38.7	26.3	3.04e+01	59	34	0	897056768	48	6619
2026-01-06 04:44:40.45	325.91	4.67	-37.3	-38.7	26.3	3.04e+01	60	34	0	899153920	48	6623
2026-01-06 04:44:41.46	326.05	4.62	-37.3	-38.7	26.4	3.04e+01	51	34	0	901251072	48	6620
2026-01-06 04:44:42.47	326.18	4.58	-37.4	-38.8	26.3	3.04e+01	59	34	0	902823936	48	6713
2026-01-06 04:44:43.48	326.31	4.53	-37.3	-38.7	26.3	3.04e+01	58	34	0	904921088	48	6625
2026-01-06 04:44:44.49	326.45	4.48	-37.6	-47.6	3.4	3.04e+01	0	34	104	906493952	48	18404
2026-01-06 04:44:45.50	326.58	4.44	-37.6	-47.9	3.4	3.04e+01	0	34	104	906493952	48	19102
2026-01-06 04:44:46.51	326.71	4.39	-37.7	-48.1	3.6	3.04e+01	0	34	104	906493952	48	19506
2026-01-06 04:44:47.52	326.84	4.35	-37.8	-48.1	3.6	3.04e+01	0	35	104	906493952	50	17397
2026-01-06 04:44:48.52	326.97	4.30	-37.8	-48.0	3.6	3.04e+01	0	34	104	906493952	50	17223
2026-01-06 04:44:49.53	327.10	4.26	-40.1	-50.6	3.6	3.04e+01	0	34	104	906493952	56	16475
2026-01-06 04:44:50.54	327.23	4.21	-47.0	-62.5	3.5	3.04e+01	0	34	104	906493952	60	51212
2026-01-06 04:44:51.55	327.36	4.16	-47.3	-63.5	3.5	3.04e+01	0	34	104	906493952	60	57349
2026-01-06 04:44:52.56	327.49	4.12	-41.8	-52.6	3.6	3.04e+01	0	34	104	906493952	58	18357
2026-01-06 04:44:53.57	327.61	4.07	-39.9	-50.4	3.6	3.04e+01	0	35	104	906493952	54	17987
2026-01-06 04:44:54.58	327.74	4.02	-39.9	-50.4	4.1	3.04e+01	0	35	104	906493952	54	17903
2026-01-06 04:44:55.59	327.87	3.98	-40.2	-50.7	3.4	3.04e+01	0	35	104	906493952	54	18727
2026-01-06 04:44:56.60	328.00	3.93	-39.6	-50.0	3.4	3.04e+01	0	35	104	906493952	54	17276
2026-01-06 04:44:57.61	328.12	3.89	-43.1	-54.4	3.9	3.04e+01	0	34	104	906493952	60	20143
2026-01-06 04:44:58.62	328.25	3.84	-39.0	-49.4	4.1	3.04e+01	0	35	104	906493952	54	16026
2026-01-06 04:44:59.63	328.37	3.79	-46.9	-63.1	3.5	3.04e+01	0	34	104	906493952	60	54849
2026-01-06 04:45:00.64	328.50	3.75	-44.6	-57.1	3.5	3.04e+01	0	34	104	906493952	60	27645
2026-01-06 04:45:01.65	328.62	3.70	-40.7	-51.6	3.5	3.04e+01	0	34	104	906493952	54	20605
2026-01-06 04:45:02.66	328.75	3.65	-39.5	-50.1	3.5	3.04e+01	0	34	104	906493952	54	17466
2026-01-06 04:45:03.67	328.87	3.61	-38.9	-49.4	3.5	3.04e+01	0	35	104	906493952	52	18056
2026-01-06 04:45:04.68	329.00	3.56	-38.4	-48.9	3.5	3.04e+01	0	34	104	906493952	52	17009
2026-01-06 04:45:05.69	329.12	3.52	-38.2	-48.7	3.5	3.04e+01	0	34	104	906493952	52	16641
2026-01-06 04:45:06.70	329.24	3.47	-38.7	-49.3	3.5	3.04e+01	0	34	104	906493952	52	17777
2026-01-06 04:45:07.71	329.36	3.42	-39.4	-50.1	3.5	3.04e+01	0	34	104	906493952	54	17326
2026-01-06 04:45:08.72	329.49	3.38	-44.6	-58.9	3.5	3.04e+01	0	34	104	906493952	60	33821
2026-01-06 04:45:09.73	329.61	3.33	-41.7	-53.2	3.5	3.04e+01	0	35	104	906493952	60	17629
2026-01-06 04:45:10.74	329.73	3.28	-41.9	-53.1	3.5	3.04e+01	0	35	104	906493952	58	19431
2026-01-06 04:45:11.74	329.85	3.24	-40.9	-51.9	3.5	3.04e+01	0	34	104	906493952	56	18959
2026-01-06 04:45:12.76	329.97	3.19	-41.3	-52.5	3.5	3.04e+01	0	35	104	906493952	56	20471
2026-01-06 04:45:13.76	330.09	3.15	-40.6	-51.7	3.5	3.04e+01	0	35	104	906493952	56	18622
2026-01-06 04:45:14.78	330.21	3.10	-40.6	-51.7	3.5	3.04e+01	0	34	104	906493952	56	18677
2026-01-06 04:45:15.79	330.33	3.05	-41.1	-52.4	3.5	3.04e+01	0	35	104	906493952	56	20308
2026-01-06 04:45:16.79	330.45	3.01	-46.9	-62.9	3.5	3.04e+01	0	35	104	906493952	60	54026
2026-01-06 04:45:17.80	330.57	2.96	-48.3	-66.2	3.5	3.04e+01	0	35	104	906493952	60	78705
2026-01-06 04:45:18.81	330.68	2.91	-48.4	-66.5	3.5	3.04e+01	0	35	104	906493952	60	81587
2026-01-06 04:45:19.82	330.80	2.87	-48.8	-66.7	3.5	3.04e+01	0	35	104	906493952	60	83490
2026-01-06 04:45:20.83	330.92	2.82	-48.6	-66.9	3.5	3.04e+01	0	35	104	906493952	60	84811
2026-01-06 04:45:21.84	331.04	2.77	-48.6	-66.9	3.5	3.04e+01	0	35	104	906493952	60	85398
2026-01-06 04:45:22.85	331.15	2.73	-49.0	-67.0	3.5	3.04e+01	0	35	104	906493952	60	85900
2026-01-06 04:45:23.86	331.27	2.68	-49.1	-67.0	3.5	3.04e+01	0	35	104	906493952	60	86000
2026-01-06 04:45:24.87	331.38	2.63	-48.7	-67.0	3.5	3.04e+01	0	35	104	906493952	60	86393
2026-01-06 04:45:25.88	331.50	2.59	-48.6	-67.0	3.5	3.04e+01	0	35	104	906493952	60	86181
2026-01-06 04:45:26.89	331.61	2.54	-49.0	-67.0	3.5	3.04e+01	0	35	104	906493952	60	86462
2026-01-06 04:45:27.90	331.73	2.49	-48.7	-67.0	3.5	3.04e+01	0	35	104	906493952	60	85884
2026-01-06 04:45:28.91	331.84	2.45	-48.9	-67.0	3.5	3.04e+01	0	35	104	906493952	60	86484
2026-01-06 04:45:29.91	331.96	2.40	-48.7	-67.0	3.5	3.04e+01	0	35	104	906493952	60	85842
2026-01-06 04:45:30.92	332.07	2.36	-49.0	-66.9	3.5	3.04e+01	0	35	104	906493952	60	85269
2026-01-06 04:45:31.93	332.18	2.31	-48.3	-66.9	3.5	3.04e+01	0	35	104	906493952	60	85217
2026-01-06 04:45:32.94	332.29	2.26	-49.2	-67.1	3.5	3.04e+01	0	35	104	906493952	60	86741
2026-01-06 04:45:33.95	332.41	2.22	-49.0	-66.9	3.5	3.04e+01	0	35	104	906493952	60	85443
2026-01-06 04:45:34.96	332.52	2.17	-49.0	-66.9	3.5	3.04e+01	0	35	104	906493952	60	85474
2026-01-06 04:45:35.97	332.63	2.12	-49.0	-66.9	3.5	3.04e+01	0	35	104	906493952	60	85532
2026-01-06 04:45:36.98	332.74	2.08	-49.0	-67.0	3.5	3.04e+01	0	35	104	906493952	60	85749
2026-01-06 04:45:37.99	332.85	2.03	-49.0	-66.9	3.5	3.04e+01	0	35	104	906493952	60	85455
2026-01-06 04:45:39.00	332.96	1.98	-49.0	-66.9	3.5	3.04e+01	0	35	104	906493952	60	85360
2026-01-06 04:45:40.01	333.07	1.94	-49.0	-67.0	3.5	3.04e+01	0	35	104	906493952	60	85760
2026-01-06 04:45:41.03	333.18	1.89	-49.0	-66.9	3.5	3.04e+01	0	35	104	906493952	60	85368
2026-01-06 04:45:42.04	333.29	1.84	-49.0	-66.9	3.5	3.04e+01	0	35	104	906493952	60	85527
2026-01-06 04:45:43.05	333.40	1.80	-49.0	-66.9	3.5	3.04e+01	0	35	104	906493952	60	84974
2026-01-06 04:45:44.05	333.51	1.75	-49.0	-66.9	3.5	3.04e+01	0	35	104	906493952	60	85002
2026-01-06 04:45:45.06	333.62	1.71	-49.0	-66.9	3.5	3.04e+01	0	35	104	906493952	60	85363
2026-01-06 04:45:46.07	333.73	1.66	-49.0	-66.9	3.5	3.04e+01	0	35	104	906493952	60	85063
2026-01-06 04:45:47.08	333.83	1.61	-49.0	-66.9	3.5	3.04e+01	0	35	104	906493952	60	85067
2026-01-06 04:45:48.09	333.94	1.57	-49.0	-66.9	3.5	3.04e+01	0	35	104	906493952	60	85363
2026-01-06 04:45:49.10	334.05	1.52	-49.0	-66.9	3.5	3.04e+01	0	35	104	906493952	60	85015
2026-01-06 04:45:50.11	334.15	1.47	-49.0	-66.9	3.5	3.04e+01	0	35	104	906493952	60	85103
2026-01-06 04:45:51.12	334.26	1.43	-49.0	-66.9	3.5	3.04e+01	0	35	104	906493952	60	85205
2026-01-06 04:45:52.13	334.37	1.38	-49.0	-66.9	3.5	3.04e+01	0	35	104	906493952	60	85578
2026-01-06 04:45:53.14	334.47	1.34	-49.0	-66.9	3.5	3.04e+01	0	35	104	906493952	60	85067
2026-01-06 04:45:54.15	334.58	1.29	-49.0	-66.9	3.5	3.04e+01	0	35	104	906493952	60	85023
2026-01-06 04:45:55.16	334.68	1.24	-49.0	-66.9	3.5	3.04e+01	0	35	104	906493952	60	85063
2026-01-06 04:45:56.17	334.79	1.20	-49.0	-66.9	3.5	3.04e+01	0	35	104	906493952	60	85060
2026-01-06 04:45:57.18	334.89	1.15	-49.0	-66.9	3.5	3.04e+01	0	35	104	906493952	60	85011
2026-01-06 04:45:58.19	335.00	1.10	-49.0	-66.9	3.5	3.04e+01	0	35	104	906493952	60	85321
2026-01-06 04:45:59.20	335.10	1.06	-49.0	-66.8	3.5	3.04e+01	0	35	104	906493952	60	84400
2026-01-06 04:46:00.21	335.20	1.01	-49.0	-66.9	3.5	3.04e+01	0	35	104	906493952	60	85154
2026-01-06 04:46:01.22	335.30	0.97	-49.0	-66.9	3.5	3.04e+01	0	35	104	906493952	60	84988
2026-01-06 04:46:02.22	335.41	0.92	-49.0	-66.9	3.5	3.04e+01	0	35	104	906493952	60	85321
2026-01-06 04:46:03.24	335.51	0.87	-49.0	-66.9	3.5	3.04e+01	0	35	104	906493952	60	85134
2026-01-06 04:46:04.25	335.61	0.83	-49.0	-66.9	3.5	3.04e+01	0	35	104	906493952	60	84839
2026-01-06 04:46:05.26	335.71	0.78	-49.0	-66.9	3.5	3.04e+01	0	35	104	906493952	60	85234
2026-01-06 04:46:06.26	335.81	0.74	-49.0	-66.9	3.5	3.04e+01	0	35	104	906493952	60	85286
2026-01-06 04:46:07.27	335.91	0.69	-49.0	-66.9	3.5	3.04e+01	0	35	104	906493952	60	84941
2026-01-06 04:46:08.28	336.01	0.64	-49.0	-66.9	3.5	3.04e+01	0	35	104	906493952	60	84779
2026-01-06 04:46:09.29	336.11	0.60	-49.0	-66.9	3.5	3.04e+01	0	35	104	906493952	60	84858
2026-01-06 04:46:10.29	336.21	0.55	-49.0	-66.9	3.5	3.04e+01	0	35	104	906493952	60	85530
2026-01-06 04:46:11.31	336.31	0.50	-49.0	-66.9	3.5	3.04e+01	0	35	104	906493952	60	85010
2026-01-06 04:46:12.31	336.41	0.46	-49.0	-66.9	3.5	3.04e+01	0	35	104	906493952	60	85039
2026-01-06 04:46:13.32	336.51	0.41	-49.0	-66.9	3.5	3.04e+01	0	35	104	906493952	60	84717
2026-01-06 04:46:14.33	336.61	0.37	-49.0	-66.9	3.5	3.04e+01	0	35	104	906493952	60	84980
2026-01-06 04:46:15.34	336.71	0.32	-49.0	-66.9	3.5	3.04e+01	0	35	104	906493952	60	85202
2026-01-06 04:46:16.35	336.81	0.28	-49.0	-66.8	3.5	3.04e+01	0	35	104	906493952	60	84603
2026-01-06 04:46:17.36	336.90	0.23	-49.0	-66.9	3.5	3.04e+01	0	35	104	906493952	60	85013
2026-01-06 04:46:18.37	337.00	0.18	-49.0	-66.9	3.5	3.04e+01	0	35	104	906493952	60	84721
2026-01-06 04:46:19.38	337.10	0.14	-49.0	-66.9	3.5	3.04e+01	0	35	104	906493952	60	84697
2026-01-06 04:46:20.39	337.19	0.09	-49.0	-66.9	3.5	3.04e+01	0	35	104	906493952	60	84700
2026-01-06 04:46:21.40	337.29	0.05	-49.0	-66.9	3.5	3.04e+01	0	35	104	906493952	60	85001
2026-01-06 04:46:22.41	337.39	-0.00	-49.0	-66.8	3.5	3.04e+01	0	35	104	906493952	60	84412

#Closed at: 2026-01-06 04:46:23
#Recorded file [906 MB]: D:/lorett/data/35029_260106_163525.dat