passes_logs/2026/01/06/R4.6S_Anadyr/R4.6S_Anadyr__20260106_233848_NOAA_21_JPSS-2_rec.log

#Pass ID: 20260106_233848_NOAA 21 (JPSS-2)
#Satellite: NOAA 21 (JPSS-2)
#Configuration: NOAA-21
#almurnet v.1.7.20251203
#Start time: 2026-01-06 23:38:54

#Version: 2.2.20231116
#Station: R4.6S_Anadyr
#Location: 177.4865 lon 64.73178 lat
#TLE: 1 54234U 22150A   26005.42670836  .00000142  00000+0  88292-4 0  9996
#TLE: 2 54234  98.7490 306.4427 0001045 340.6622  19.4514 14.19532269163451

#Time	Az	El	Level	Level2	SNR	BER	BlckErr	Temp	State	Recorded	gain1	gain2
2026-01-06 23:38:54.28	142.16	0.36	-49.3	-50.9	5.7	0.00e+00	0	31	0	0	60	42983
2026-01-06 23:38:55.25	142.15	0.41	-49.2	-62.0	3.5	1.52e+00	0	33	104	0	60	44370
2026-01-06 23:38:56.23	142.13	0.47	-49.2	-62.1	3.5	1.52e+00	0	33	104	0	60	44459
2026-01-06 23:38:57.20	142.12	0.53	-49.2	-62.0	3.5	1.52e+00	0	33	104	0	60	44281
2026-01-06 23:38:58.18	142.11	0.59	-49.2	-62.0	3.5	1.52e+00	0	33	104	0	60	44184
2026-01-06 23:38:59.16	142.10	0.65	-49.1	-61.9	3.5	1.52e+00	0	33	104	0	60	43762
2026-01-06 23:39:00.14	142.08	0.71	-48.9	-61.9	3.5	1.51e+00	0	33	104	0	60	43665
2026-01-06 23:39:01.11	142.07	0.77	-48.9	-61.8	3.5	1.52e+00	0	33	104	0	60	43156
2026-01-06 23:39:02.09	142.06	0.83	-48.9	-61.7	3.5	1.52e+00	0	33	104	0	60	42577
2026-01-06 23:39:03.06	142.05	0.89	-48.6	-61.5	3.5	1.52e+00	0	33	104	0	60	41503
2026-01-06 23:39:04.05	142.03	0.95	-48.1	-61.0	3.5	1.52e+00	0	33	104	0	60	39295
2026-01-06 23:39:05.02	142.02	1.01	-47.6	-60.6	3.5	1.52e+00	0	33	104	0	60	37744
2026-01-06 23:39:06.00	142.01	1.07	-46.3	-57.0	3.6	1.52e+00	0	33	104	0	60	24948
2026-01-06 23:39:06.98	141.99	1.13	-45.8	-58.8	3.5	1.51e+00	0	34	104	0	60	30660
2026-01-06 23:39:07.96	141.98	1.19	-45.8	-58.6	3.5	1.52e+00	0	33	104	0	60	30031
2026-01-06 23:39:08.94	141.97	1.26	-45.8	-58.6	3.5	1.52e+00	0	33	104	0	60	29977
2026-01-06 23:39:09.92	141.95	1.32	-45.8	-58.7	3.5	1.52e+00	0	33	104	0	60	30262
2026-01-06 23:39:10.90	141.94	1.38	-45.8	-58.9	3.5	1.52e+00	0	33	104	0	60	30787
2026-01-06 23:39:11.88	141.93	1.44	-45.7	-58.7	3.5	1.52e+00	0	33	104	0	60	30235
2026-01-06 23:39:12.85	141.91	1.50	-45.8	-58.8	3.5	1.52e+00	0	33	104	0	60	30675
2026-01-06 23:39:13.82	141.90	1.56	-45.8	-58.6	3.5	1.52e+00	0	34	104	0	60	29782
2026-01-06 23:39:14.80	141.88	1.62	-45.8	-58.8	3.5	1.52e+00	0	33	104	0	60	30519
2026-01-06 23:39:15.78	141.87	1.68	-45.8	-58.8	3.5	1.52e+00	0	33	104	0	60	30745
2026-01-06 23:39:16.76	141.86	1.75	-45.8	-58.7	3.5	1.52e+00	0	33	104	0	60	30162
2026-01-06 23:39:17.73	141.84	1.81	-45.8	-58.9	3.5	1.51e+00	0	34	104	0	60	30963
2026-01-06 23:39:18.71	141.83	1.87	-45.7	-58.7	3.5	1.52e+00	0	34	104	0	60	30221
2026-01-06 23:39:19.69	141.81	1.93	-45.7	-58.8	3.5	1.51e+00	0	34	104	0	60	30684
2026-01-06 23:39:20.67	141.80	2.00	-45.8	-58.8	3.5	1.52e+00	0	34	104	0	60	30633
2026-01-06 23:39:21.65	141.79	2.06	-45.7	-58.7	3.5	1.52e+00	0	34	104	0	60	30161
2026-01-06 23:39:22.63	141.77	2.12	-45.5	-58.7	3.6	1.51e+00	0	34	104	0	60	30214
2026-01-06 23:39:23.61	141.76	2.18	-45.7	-58.7	3.5	1.52e+00	0	34	104	0	60	30204
2026-01-06 23:39:24.58	141.74	2.25	-45.6	-58.6	3.5	1.52e+00	0	34	104	0	60	29973
2026-01-06 23:39:25.56	141.73	2.31	-45.0	-58.6	3.5	1.52e+00	0	34	104	0	60	29725
2026-01-06 23:39:26.54	141.71	2.37	-45.7	-58.0	3.5	1.51e+00	0	34	104	0	60	27771
2026-01-06 23:39:27.52	141.70	2.44	-45.4	-58.6	3.5	1.52e+00	0	34	104	0	60	29792
2026-01-06 23:39:28.50	141.68	2.50	-45.3	-58.8	3.5	1.52e+00	0	34	104	0	60	30603
2026-01-06 23:39:29.47	141.67	2.56	-45.5	-58.7	3.5	1.52e+00	0	34	104	0	60	30256
2026-01-06 23:39:30.45	141.65	2.63	-45.7	-58.8	3.5	1.52e+00	0	34	104	0	60	30420
2026-01-06 23:39:31.42	141.64	2.69	-45.6	-58.8	3.5	1.52e+00	0	34	104	0	60	30589
2026-01-06 23:39:32.40	141.62	2.76	-45.4	-58.6	3.5	1.52e+00	0	34	104	0	60	29943
2026-01-06 23:39:33.37	141.61	2.82	-45.5	-58.6	3.5	1.52e+00	0	34	104	0	60	30025
2026-01-06 23:39:34.34	141.59	2.88	-45.7	-58.6	3.5	1.52e+00	0	34	104	0	60	29874
2026-01-06 23:39:35.32	141.58	2.95	-45.7	-58.4	3.5	1.52e+00	0	34	104	0	60	29290
2026-01-06 23:39:36.30	141.56	3.01	-45.7	-58.2	3.5	1.52e+00	0	34	104	0	60	28462
2026-01-06 23:39:37.27	141.55	3.08	-45.7	-57.8	3.5	1.52e+00	0	34	104	0	60	27218
2026-01-06 23:39:38.25	141.53	3.14	-45.7	-57.6	3.5	1.51e+00	0	34	104	0	60	26763
2026-01-06 23:39:39.23	141.52	3.21	-45.7	-57.7	3.5	1.51e+00	0	34	104	0	60	26796
2026-01-06 23:39:40.21	141.50	3.27	-45.7	-57.8	3.5	1.52e+00	0	34	104	0	60	27397
2026-01-06 23:39:41.19	141.48	3.34	-45.7	-57.7	3.5	1.51e+00	0	34	104	0	60	27080
2026-01-06 23:39:42.17	141.47	3.40	-45.7	-57.9	3.5	1.52e+00	0	34	104	0	60	27699
2026-01-06 23:39:43.15	141.45	3.47	-45.7	-58.2	3.5	1.52e+00	0	34	104	0	60	28566
2026-01-06 23:39:44.12	141.44	3.53	-45.7	-58.4	3.4	1.51e+00	0	34	104	0	60	29120
2026-01-06 23:39:45.10	141.42	3.60	-45.7	-58.5	3.5	1.52e+00	0	34	104	0	60	29581
2026-01-06 23:39:46.07	141.40	3.67	-45.7	-58.7	3.5	1.52e+00	0	34	104	0	60	30157
2026-01-06 23:39:47.04	141.39	3.73	-45.7	-58.6	3.5	1.52e+00	0	34	104	0	60	29825
2026-01-06 23:39:48.02	141.37	3.80	-45.7	-58.6	3.5	1.52e+00	0	34	104	0	60	29782
2026-01-06 23:39:49.00	141.35	3.87	-45.7	-58.8	3.5	1.52e+00	0	34	104	0	60	30428
2026-01-06 23:39:49.98	141.34	3.93	-46.6	-57.7	3.4	1.52e+00	0	34	104	0	60	26972
2026-01-06 23:39:50.96	141.32	4.00	-45.2	-52.1	7.1	1.35e+00	0	34	104	0	60	14177
2026-01-06 23:39:51.93	141.30	4.07	-45.7	-56.5	3.8	1.51e+00	0	34	104	0	60	23538
2026-01-06 23:39:52.91	141.29	4.13	-46.3	-59.0	3.4	1.52e+00	0	34	104	0	60	31296
2026-01-06 23:39:53.89	141.27	4.20	-45.7	-55.4	4.0	3.68e-01	5	34	104	0	60	20719
2026-01-06 23:39:54.87	141.25	4.27	-45.4	-53.9	4.9	7.60e-01	0	34	104	0	60	17315
2026-01-06 23:39:55.84	141.24	4.34	-45.2	-52.8	5.7	4.23e-01	0	34	104	0	60	15372
2026-01-06 23:39:56.82	141.22	4.41	-45.0	-50.8	6.5	2.40e-01	0	34	0	2097152	60	12221
2026-01-06 23:39:57.80	141.20	4.47	-44.9	-50.1	7.3	1.29e-01	0	34	0	5242880	60	11286
2026-01-06 23:39:58.77	141.18	4.54	-44.8	-50.0	7.0	1.32e-01	0	34	0	8388608	60	11081
2026-01-06 23:39:59.75	141.17	4.61	-44.7	-49.5	7.8	1.04e-01	0	34	0	11534336	60	10424
2026-01-06 23:40:00.73	141.15	4.68	-44.7	-49.5	7.4	9.60e-02	0	34	0	13631488	60	10491
2026-01-06 23:40:01.70	141.13	4.75	-44.7	-49.4	7.2	1.21e-01	0	34	0	16777216	60	10311
2026-01-06 23:40:02.68	141.11	4.82	-44.6	-49.1	7.2	1.36e-01	0	34	0	19922944	60	9968
2026-01-06 23:40:03.66	141.10	4.89	-44.7	-49.4	8.2	1.74e-01	0	34	0	23068672	60	10336
2026-01-06 23:40:04.63	141.08	4.95	-44.4	-49.0	6.9	1.98e-01	0	34	0	26214400	60	9892
2026-01-06 23:40:05.61	141.06	5.02	-44.4	-49.0	7.4	2.78e-01	0	34	0	29360128	60	9936
2026-01-06 23:40:06.59	141.04	5.09	-44.3	-49.3	6.4	2.80e-01	0	34	0	32505856	60	10233
2026-01-06 23:40:07.56	141.02	5.16	-44.3	-49.1	7.8	2.78e-01	0	34	0	35651584	60	9980
2026-01-06 23:40:08.54	141.01	5.23	-44.3	-48.7	6.8	2.68e-01	0	34	0	38797312	60	9542
2026-01-06 23:40:09.52	140.99	5.30	-44.4	-49.0	8.8	5.36e-02	0	34	0	41943040	60	9893
2026-01-06 23:40:10.49	140.97	5.37	-44.1	-48.9	6.8	2.66e-01	0	34	0	45088768	60	9726
2026-01-06 23:40:11.47	140.95	5.44	-44.0	-48.3	8.6	2.44e-01	0	34	0	47185920	60	9172
2026-01-06 23:40:12.45	140.93	5.52	-44.1	-47.7	7.5	2.21e-01	0	34	0	50331648	60	8516
2026-01-06 23:40:13.43	140.91	5.59	-44.2	-48.2	9.8	2.07e-01	0	34	0	53477376	60	9054
2026-01-06 23:40:14.40	140.89	5.66	-43.8	-47.6	7.5	2.01e-01	0	34	0	56623104	60	8377
2026-01-06 23:40:15.38	140.87	5.73	-43.7	-47.3	8.1	1.62e-01	0	34	0	59768832	60	8122
2026-01-06 23:40:16.36	140.85	5.80	-43.8	-47.5	8.7	6.48e-02	0	34	0	62914560	60	8277
2026-01-06 23:40:17.33	140.84	5.87	-43.9	-47.5	9.9	9.69e-02	0	34	0	66060288	60	8368
2026-01-06 23:40:18.31	140.82	5.94	-43.6	-47.1	9.1	6.20e-02	0	34	0	69206016	60	7940
2026-01-06 23:40:19.29	140.80	6.02	-43.7	-47.1	11.4	2.84e-03	0	34	0	72351744	60	7905
2026-01-06 23:40:20.26	140.78	6.09	-43.6	-46.9	9.5	4.45e-02	0	34	0	75497472	60	7725
2026-01-06 23:40:21.24	140.76	6.16	-43.4	-46.4	12.1	2.31e-02	0	34	0	78643200	60	7352
2026-01-06 23:40:22.22	140.74	6.23	-43.1	-45.8	10.4	7.37e-03	0	34	0	81788928	60	6883
2026-01-06 23:40:23.20	140.72	6.31	-43.0	-45.7	11.0	2.34e-02	0	34	0	84934656	60	6770
2026-01-06 23:40:24.17	140.70	6.38	-42.7	-45.5	10.7	3.36e-02	0	34	0	87031808	60	6584
2026-01-06 23:40:25.15	140.68	6.45	-42.6	-45.2	13.1	2.03e-03	0	34	0	90177536	58	7131
2026-01-06 23:40:26.13	140.66	6.53	-42.2	-44.9	9.8	2.25e-02	0	34	0	93323264	58	6900
2026-01-06 23:40:27.11	140.64	6.60	-42.3	-44.5	10.6	5.80e-02	0	34	0	96468992	58	6648
2026-01-06 23:40:28.08	140.61	6.67	-42.1	-44.5	14.3	3.67e-02	0	34	0	99614720	58	6575
2026-01-06 23:40:29.06	140.59	6.75	-41.9	-44.1	11.1	3.03e-03	0	34	0	102760448	58	6332
2026-01-06 23:40:30.04	140.57	6.82	-41.8	-43.9	12.1	7.67e-03	0	34	0	105906176	58	6154
2026-01-06 23:40:31.02	140.55	6.90	-41.6	-43.7	12.4	1.81e-02	0	34	0	109051904	56	6771
2026-01-06 23:40:32.00	140.53	6.97	-41.5	-43.4	12.4	5.99e-03	0	34	0	112197632	56	6557
2026-01-06 23:40:32.97	140.51	7.05	-41.3	-43.1	12.4	1.94e-02	0	34	0	115343360	56	6281
2026-01-06 23:40:33.95	140.49	7.12	-41.3	-43.0	12.1	1.12e-02	0	34	0	118489088	56	6242
2026-01-06 23:40:34.92	140.47	7.20	-41.1	-42.9	13.0	9.61e-03	0	34	0	120586240	56	6139
2026-01-06 23:40:35.90	140.45	7.27	-40.5	-42.3	13.4	4.62e-03	0	34	0	123731968	54	6458
2026-01-06 23:40:36.88	140.42	7.35	-40.4	-41.9	13.0	3.21e-03	0	34	0	126877696	54	6157
2026-01-06 23:40:37.85	140.40	7.43	-40.1	-41.6	14.1	1.34e-03	0	34	0	130023424	54	5932
2026-01-06 23:40:38.83	140.38	7.50	-40.1	-41.6	14.5	8.70e-04	0	34	0	133169152	54	5943
2026-01-06 23:40:39.81	140.36	7.58	-39.9	-41.4	16.3	2.97e-05	0	34	0	136314880	54	5801
2026-01-06 23:40:40.78	140.34	7.65	-39.7	-41.2	17.9	2.20e-06	0	34	0	139460608	52	6384
2026-01-06 23:40:41.76	140.31	7.73	-39.7	-41.1	16.9	0.00e+00	0	34	0	142606336	52	6307
2026-01-06 23:40:42.73	140.29	7.81	-39.4	-40.7	16.5	7.00e-07	0	34	0	145752064	52	6035
2026-01-06 23:40:43.71	140.27	7.89	-39.2	-40.5	17.8	0.00e+00	0	34	0	148897792	52	5909
2026-01-06 23:40:44.69	140.25	7.96	-39.1	-40.4	18.5	0.00e+00	0	34	0	150994944	52	5819
2026-01-06 23:40:45.67	140.22	8.04	-38.8	-40.1	18.8	0.00e+00	0	34	0	154140672	52	5615
2026-01-06 23:40:46.65	140.20	8.12	-38.7	-39.9	18.6	0.00e+00	0	34	0	157286400	50	6184
2026-01-06 23:40:47.62	140.18	8.20	-38.6	-39.8	19.6	0.00e+00	0	34	0	160432128	50	6114
2026-01-06 23:40:48.60	140.15	8.28	-38.4	-39.6	19.9	0.00e+00	0	34	0	163577856	50	5967
2026-01-06 23:40:49.57	140.13	8.36	-38.3	-39.5	20.0	0.00e+00	0	34	0	166723584	50	5866
2026-01-06 23:40:50.55	140.11	8.43	-38.1	-39.3	20.1	0.00e+00	0	34	0	169869312	50	5735
2026-01-06 23:40:51.53	140.08	8.51	-38.2	-39.4	20.2	0.00e+00	0	34	0	173015040	50	5806
2026-01-06 23:40:52.51	140.06	8.59	-37.9	-39.0	20.6	0.00e+00	0	34	0	176160768	50	5583
2026-01-06 23:40:53.48	140.03	8.67	-37.9	-39.1	20.5	0.00e+00	0	34	0	179306496	50	5639
2026-01-06 23:40:54.46	140.01	8.75	-37.6	-38.8	20.7	0.00e+00	0	34	0	182452224	48	6093
2026-01-06 23:40:55.43	139.99	8.83	-37.6	-38.8	20.7	0.00e+00	0	34	0	184549376	48	6081
2026-01-06 23:40:56.41	139.96	8.91	-37.4	-38.5	21.1	0.00e+00	0	34	0	187695104	48	5912
2026-01-06 23:40:57.39	139.94	9.00	-37.4	-38.5	21.1	0.00e+00	0	34	0	190840832	48	5887
2026-01-06 23:40:58.36	139.91	9.08	-37.3	-38.4	21.3	0.00e+00	0	34	0	193986560	48	5805
2026-01-06 23:40:59.33	139.89	9.16	-37.4	-38.5	21.2	0.00e+00	0	34	0	197132288	48	5875
2026-01-06 23:41:00.30	139.86	9.24	-37.1	-38.2	21.6	0.00e+00	0	34	0	200278016	48	5678
2026-01-06 23:41:01.28	139.84	9.32	-37.1	-38.2	21.5	0.00e+00	0	34	0	203423744	48	5686
2026-01-06 23:41:02.25	139.81	9.40	-37.1	-38.2	21.5	0.00e+00	0	34	0	206569472	48	5670
2026-01-06 23:41:03.23	139.79	9.48	-36.9	-38.0	21.7	0.00e+00	0	34	0	209715200	48	5561
2026-01-06 23:41:04.20	139.76	9.57	-36.8	-37.9	21.9	0.00e+00	0	34	0	212860928	48	5480
2026-01-06 23:41:05.18	139.73	9.65	-36.8	-37.9	21.8	0.00e+00	0	34	0	216006656	46	6162
2026-01-06 23:41:06.16	139.71	9.73	-36.8	-37.9	21.9	0.00e+00	0	34	0	219152384	46	6153
2026-01-06 23:41:07.14	139.68	9.82	-36.9	-37.9	21.9	0.00e+00	0	34	0	221249536	46	6205
2026-01-06 23:41:08.11	139.65	9.90	-36.7	-37.7	22.1	0.00e+00	0	34	0	224395264	46	6028
2026-01-06 23:41:09.09	139.63	9.98	-36.7	-37.7	22.0	0.00e+00	0	34	0	227540992	46	6058
2026-01-06 23:41:10.07	139.60	10.07	-36.5	-37.5	22.2	0.00e+00	0	34	0	230686720	46	5897
2026-01-06 23:41:11.05	139.57	10.15	-36.5	-37.6	22.2	0.00e+00	0	34	0	233832448	46	5937
2026-01-06 23:41:12.03	139.55	10.24	-36.4	-37.5	22.3	0.00e+00	0	34	0	236978176	46	5880
2026-01-06 23:41:13.01	139.52	10.32	-36.4	-37.4	22.4	0.00e+00	0	34	0	240123904	46	5805
2026-01-06 23:41:13.98	139.49	10.41	-36.5	-37.5	22.3	0.00e+00	0	34	0	243269632	46	5886
2026-01-06 23:41:14.96	139.46	10.49	-36.3	-37.3	22.4	0.00e+00	0	34	0	246415360	46	5787
2026-01-06 23:41:15.94	139.44	10.58	-36.3	-37.3	22.4	0.00e+00	0	34	0	249561088	46	5786
2026-01-06 23:41:16.92	139.41	10.67	-36.2	-37.2	22.6	0.00e+00	0	34	0	252706816	46	5670
2026-01-06 23:41:17.89	139.38	10.75	-36.2	-37.2	22.6	0.00e+00	0	34	0	255852544	46	5700
2026-01-06 23:41:18.87	139.35	10.84	-36.0	-37.0	22.7	0.00e+00	0	34	0	257949696	46	5587
2026-01-06 23:41:19.84	139.32	10.93	-36.1	-37.1	22.6	0.00e+00	0	34	0	261095424	46	5625
2026-01-06 23:41:20.81	139.30	11.01	-36.0	-37.0	22.8	0.00e+00	0	34	0	264241152	46	5555
2026-01-06 23:41:21.79	139.27	11.10	-35.9	-36.9	22.9	0.00e+00	0	34	0	267386880	46	5495
2026-01-06 23:41:22.76	139.24	11.19	-35.9	-36.9	22.9	0.00e+00	0	34	0	270532608	46	5494
2026-01-06 23:41:23.74	139.21	11.28	-35.9	-36.9	22.9	0.00e+00	0	34	0	273678336	46	5471
2026-01-06 23:41:24.72	139.18	11.37	-35.8	-36.7	23.0	0.00e+00	0	34	0	276824064	46	5401
2026-01-06 23:41:25.69	139.15	11.46	-35.6	-36.6	23.1	0.00e+00	0	34	0	279969792	44	5960
2026-01-06 23:41:26.67	139.12	11.55	-35.7	-36.7	23.1	0.00e+00	0	34	0	283115520	44	6013
2026-01-06 23:41:27.65	139.09	11.64	-35.6	-36.5	23.2	0.00e+00	0	34	0	286261248	44	5907
2026-01-06 23:41:28.62	139.06	11.73	-35.6	-36.6	23.1	0.00e+00	0	34	0	288358400	44	5951
2026-01-06 23:41:29.60	139.03	11.82	-35.4	-36.4	23.3	0.00e+00	0	34	0	291504128	44	5831
2026-01-06 23:41:30.58	139.00	11.91	-35.4	-36.4	23.3	0.00e+00	0	34	0	294649856	44	5819
2026-01-06 23:41:31.55	138.97	12.00	-35.5	-36.4	23.3	0.00e+00	0	34	0	297795584	44	5833
2026-01-06 23:41:32.53	138.94	12.09	-35.3	-36.3	23.5	0.00e+00	0	34	0	300941312	44	5734
2026-01-06 23:41:33.51	138.90	12.18	-35.2	-36.1	23.6	0.00e+00	0	34	0	304087040	44	5642
2026-01-06 23:41:34.49	138.87	12.27	-35.1	-36.1	23.6	0.00e+00	0	34	0	307232768	44	5597
2026-01-06 23:41:35.46	138.84	12.36	-35.2	-36.2	23.6	0.00e+00	0	34	0	310378496	44	5669
2026-01-06 23:41:36.44	138.81	12.46	-35.2	-36.1	23.6	0.00e+00	0	34	0	313524224	44	5646
2026-01-06 23:41:37.42	138.78	12.55	-35.0	-35.9	23.8	0.00e+00	0	35	0	316669952	44	5480
2026-01-06 23:41:38.39	138.74	12.64	-35.1	-36.0	23.7	0.00e+00	0	34	0	319815680	44	5567
2026-01-06 23:41:39.37	138.71	12.74	-35.1	-36.0	23.7	0.00e+00	0	35	0	321912832	44	5553
2026-01-06 23:41:40.34	138.68	12.83	-35.0	-36.0	23.8	0.00e+00	0	35	0	325058560	44	5548
2026-01-06 23:41:41.32	138.65	12.93	-35.1	-36.0	23.8	0.00e+00	0	35	0	328204288	44	5558
2026-01-06 23:41:42.30	138.61	13.02	-34.9	-35.8	23.9	0.00e+00	0	34	0	331350016	44	5465
2026-01-06 23:41:43.27	138.58	13.12	-34.8	-35.7	24.0	0.00e+00	0	35	0	334495744	44	5364
2026-01-06 23:41:44.25	138.54	13.21	-34.8	-35.7	24.0	0.00e+00	0	34	0	337641472	42	6054
2026-01-06 23:41:45.23	138.51	13.31	-34.8	-35.7	23.9	0.00e+00	0	34	0	340787200	42	6049
2026-01-06 23:41:46.21	138.48	13.40	-34.7	-35.6	24.1	0.00e+00	0	34	0	343932928	42	5986
2026-01-06 23:41:47.19	138.44	13.50	-34.8	-35.7	24.0	0.00e+00	0	34	0	347078656	42	6046
2026-01-06 23:41:48.16	138.41	13.60	-34.7	-35.6	24.2	0.00e+00	0	34	0	350224384	42	5949
2026-01-06 23:41:49.14	138.37	13.70	-34.7	-35.6	24.1	0.00e+00	0	34	0	353370112	42	5971
2026-01-06 23:41:50.12	138.34	13.79	-34.7	-35.6	24.1	0.00e+00	0	34	0	355467264	42	5935
2026-01-06 23:41:51.09	138.30	13.89	-34.7	-35.6	24.2	0.00e+00	0	34	0	358612992	42	5930
2026-01-06 23:41:52.07	138.26	13.99	-34.8	-35.7	24.1	0.00e+00	0	34	0	361758720	42	6015
2026-01-06 23:41:53.05	138.23	14.09	-34.7	-35.6	24.2	0.00e+00	0	34	0	364904448	42	5928
2026-01-06 23:41:54.03	138.19	14.19	-34.5	-35.4	24.3	0.00e+00	0	34	0	368050176	42	5804
2026-01-06 23:41:55.01	138.16	14.29	-34.7	-35.6	24.1	0.00e+00	0	34	0	371195904	42	5943
2026-01-06 23:41:55.99	138.12	14.39	-34.5	-35.4	24.3	0.00e+00	0	34	0	374341632	42	5813
2026-01-06 23:41:56.97	138.08	14.49	-34.6	-35.5	24.2	0.00e+00	0	35	0	377487360	42	5915
2026-01-06 23:41:57.94	138.04	14.59	-34.5	-35.4	24.3	0.00e+00	0	34	0	380633088	42	5828
2026-01-06 23:41:58.92	138.01	14.69	-34.5	-35.4	24.3	0.00e+00	0	34	0	383778816	42	5821
2026-01-06 23:41:59.90	137.97	14.79	-34.5	-35.4	24.3	0.00e+00	0	34	0	386924544	42	5820
2026-01-06 23:42:00.88	137.93	14.90	-34.6	-35.5	24.3	0.00e+00	0	35	0	390070272	42	5866
2026-01-06 23:42:01.86	137.89	15.00	-34.4	-35.3	24.4	0.00e+00	0	34	0	393216000	42	5750
2026-01-06 23:42:02.83	137.85	15.10	-34.5	-35.4	24.2	0.00e+00	0	34	0	395313152	42	5853
2026-01-06 23:42:03.81	137.81	15.20	-34.4	-35.3	24.4	0.00e+00	0	34	0	398458880	42	5783
2026-01-06 23:42:04.79	137.77	15.31	-34.5	-35.4	24.3	0.00e+00	0	35	0	401604608	42	5852
2026-01-06 23:42:05.77	137.73	15.41	-34.6	-35.4	24.3	0.00e+00	0	34	0	404750336	42	5851
2026-01-06 23:42:06.74	137.69	15.52	-34.6	-35.5	24.3	0.00e+00	0	34	0	407896064	42	5873
2026-01-06 23:42:07.72	137.65	15.62	-34.5	-35.3	24.3	0.00e+00	0	34	0	411041792	42	5790
2026-01-06 23:42:08.70	137.61	15.73	-34.6	-35.5	24.2	0.00e+00	0	34	0	414187520	42	5884
2026-01-06 23:42:09.68	137.57	15.83	-34.6	-35.4	24.3	0.00e+00	0	34	0	417333248	42	5849
2026-01-06 23:42:10.65	137.53	15.94	-34.6	-35.6	24.2	0.00e+00	0	35	0	420478976	42	5927
2026-01-06 23:42:11.63	137.49	16.05	-34.6	-35.5	24.2	0.00e+00	0	35	0	423624704	42	5875
2026-01-06 23:42:12.61	137.45	16.16	-34.6	-35.5	24.3	0.00e+00	0	35	0	426770432	42	5861
2026-01-06 23:42:13.58	137.41	16.26	-34.5	-35.4	24.3	0.00e+00	0	35	0	428867584	42	5834
2026-01-06 23:42:14.56	137.36	16.37	-34.5	-35.4	24.3	0.00e+00	0	35	0	432013312	42	5838
2026-01-06 23:42:15.54	137.32	16.48	-34.5	-35.4	24.3	0.00e+00	0	34	0	435159040	42	5840
2026-01-06 23:42:16.51	137.28	16.59	-34.6	-35.5	24.3	0.00e+00	0	35	0	438304768	42	5865
2026-01-06 23:42:17.49	137.23	16.70	-34.6	-35.5	24.2	0.00e+00	0	34	0	441450496	42	5905
2026-01-06 23:42:18.47	137.19	16.81	-34.6	-35.5	24.2	0.00e+00	0	35	0	444596224	42	5897
2026-01-06 23:42:19.45	137.15	16.92	-34.6	-35.5	24.3	0.00e+00	0	35	0	447741952	42	5866
2026-01-06 23:42:20.42	137.10	17.03	-34.7	-35.5	24.1	0.00e+00	0	35	0	450887680	42	5926
2026-01-06 23:42:21.40	137.06	17.14	-34.6	-35.5	24.1	0.00e+00	0	35	0	454033408	42	5913
2026-01-06 23:42:22.38	137.01	17.25	-34.7	-35.6	24.2	0.00e+00	0	35	0	457179136	42	5934
2026-01-06 23:42:23.36	136.96	17.37	-34.8	-35.7	24.0	0.00e+00	0	34	0	460324864	42	6041
2026-01-06 23:42:24.34	136.92	17.48	-34.8	-35.7	24.1	0.00e+00	0	35	0	462422016	42	6063
2026-01-06 23:42:25.32	136.87	17.59	-34.8	-35.7	24.1	0.00e+00	0	34	0	465567744	42	6023
2026-01-06 23:42:26.30	136.83	17.71	-34.7	-35.6	24.0	0.00e+00	0	34	0	468713472	42	5991
2026-01-06 23:42:27.27	136.78	17.82	-34.8	-35.7	24.1	0.00e+00	0	34	0	471859200	42	6022
2026-01-06 23:42:28.24	136.73	17.94	-34.9	-35.8	24.0	0.00e+00	0	35	0	475004928	42	6113
2026-01-06 23:42:29.22	136.68	18.05	-34.9	-35.8	23.8	0.00e+00	0	34	0	478150656	42	6091
2026-01-06 23:42:30.20	136.64	18.17	-34.9	-35.8	24.0	0.00e+00	0	34	0	481296384	42	6098
2026-01-06 23:42:31.18	136.59	18.29	-34.9	-35.8	23.9	0.00e+00	0	34	0	484442112	42	6123
2026-01-06 23:42:32.15	136.54	18.40	-34.9	-35.8	24.0	0.00e+00	0	34	0	487587840	42	6120
2026-01-06 23:42:33.13	136.49	18.52	-35.0	-36.0	23.9	0.00e+00	0	34	0	490733568	42	6215
2026-01-06 23:42:34.10	136.44	18.64	-34.9	-35.8	23.9	0.00e+00	0	34	0	493879296	42	6094
2026-01-06 23:42:35.08	136.39	18.76	-35.0	-36.0	23.9	0.00e+00	0	35	0	495976448	42	6223
2026-01-06 23:42:36.06	136.34	18.88	-34.9	-35.8	24.0	0.00e+00	0	35	0	499122176	42	6125
2026-01-06 23:42:37.04	136.29	19.00	-35.0	-35.9	23.9	0.00e+00	0	35	0	502267904	42	6159
2026-01-06 23:42:38.02	136.23	19.12	-35.0	-35.9	23.9	0.00e+00	0	35	0	505413632	42	6199
2026-01-06 23:42:39.00	136.18	19.24	-35.0	-35.9	23.9	0.00e+00	0	34	0	508559360	42	6194
2026-01-06 23:42:39.98	136.13	19.36	-34.8	-35.7	24.1	0.00e+00	0	35	0	511705088	42	6049
2026-01-06 23:42:40.95	136.08	19.48	-34.8	-35.8	24.0	0.00e+00	0	34	0	514850816	42	6074
2026-01-06 23:42:41.93	136.02	19.61	-34.8	-35.7	24.1	0.00e+00	0	34	0	517996544	42	6053
2026-01-06 23:42:42.90	135.97	19.73	-34.7	-35.7	24.1	0.00e+00	0	34	0	521142272	42	6012
2026-01-06 23:42:43.88	135.92	19.85	-34.7	-35.6	24.2	0.00e+00	0	34	0	524288000	42	5994
2026-01-06 23:42:44.86	135.86	19.98	-34.8	-35.7	24.2	0.00e+00	0	34	0	527433728	42	6003
2026-01-06 23:42:45.83	135.81	20.10	-34.6	-35.5	24.3	0.00e+00	0	34	0	529530880	42	5866
2026-01-06 23:42:46.81	135.75	20.23	-34.4	-35.3	24.4	0.00e+00	0	35	0	532676608	42	5781
2026-01-06 23:42:47.79	135.69	20.36	-34.4	-35.3	24.4	0.00e+00	0	34	0	535822336	42	5763
2026-01-06 23:42:48.78	135.64	20.48	-34.3	-35.2	24.5	0.00e+00	0	34	0	538968064	42	5697
2026-01-06 23:42:49.75	135.58	20.61	-34.3	-35.2	24.5	0.00e+00	0	34	0	542113792	42	5670
2026-01-06 23:42:50.73	135.52	20.74	-34.2	-35.1	24.6	0.00e+00	0	35	0	545259520	42	5610
2026-01-06 23:42:51.70	135.47	20.87	-34.2	-35.1	24.6	0.00e+00	0	35	0	548405248	42	5647
2026-01-06 23:42:52.68	135.41	21.00	-34.2	-35.1	24.7	0.00e+00	0	35	0	551550976	42	5624
2026-01-06 23:42:53.66	135.35	21.13	-34.0	-34.8	24.7	0.00e+00	0	35	0	554696704	42	5466
2026-01-06 23:42:54.64	135.29	21.26	-33.9	-34.7	24.8	0.00e+00	0	35	0	557842432	42	5390
2026-01-06 23:42:55.62	135.23	21.39	-33.8	-34.6	24.9	0.00e+00	0	35	0	560988160	42	5343
2026-01-06 23:42:56.59	135.17	21.52	-33.6	-34.5	25.1	0.00e+00	0	35	0	564133888	40	5886
2026-01-06 23:42:57.56	135.11	21.65	-33.7	-34.6	24.9	0.00e+00	0	35	0	567279616	40	5937
2026-01-06 23:42:58.54	135.04	21.79	-33.6	-34.5	25.0	0.00e+00	0	35	0	569376768	40	5878
2026-01-06 23:42:59.52	134.98	21.92	-33.6	-34.4	25.0	0.00e+00	0	35	0	572522496	40	5854
2026-01-06 23:43:00.49	134.92	22.05	-33.4	-34.3	25.1	0.00e+00	0	35	0	575668224	40	5740
2026-01-06 23:43:01.47	134.86	22.19	-33.6	-34.4	25.0	0.00e+00	0	35	0	578813952	40	5842
2026-01-06 23:43:02.45	134.79	22.33	-33.5	-34.4	25.0	0.00e+00	0	35	0	581959680	40	5795
2026-01-06 23:43:03.43	134.73	22.46	-33.2	-34.0	25.2	0.00e+00	0	35	0	585105408	40	5593
2026-01-06 23:43:04.40	134.66	22.60	-33.2	-34.0	25.3	0.00e+00	0	35	0	588251136	40	5576
2026-01-06 23:43:05.38	134.60	22.74	-33.2	-34.1	25.1	0.00e+00	0	35	0	591396864	40	5596
2026-01-06 23:43:06.36	134.53	22.88	-33.2	-34.1	25.1	0.00e+00	0	35	0	594542592	40	5620
2026-01-06 23:43:07.34	134.46	23.02	-33.3	-34.2	25.1	0.00e+00	0	35	0	597688320	40	5685
2026-01-06 23:43:08.32	134.39	23.16	-33.3	-34.1	25.2	0.00e+00	0	35	0	600834048	40	5650
2026-01-06 23:43:09.30	134.32	23.30	-33.1	-33.9	25.3	0.00e+00	0	35	0	603979776	40	5510
2026-01-06 23:43:10.28	134.26	23.44	-33.1	-33.9	25.3	0.00e+00	0	35	0	606076928	40	5518
2026-01-06 23:43:11.25	134.19	23.58	-33.1	-33.9	25.4	0.00e+00	0	35	0	609222656	40	5502
2026-01-06 23:43:12.23	134.12	23.73	-33.2	-34.0	25.3	0.00e+00	0	35	0	612368384	40	5572
2026-01-06 23:43:13.21	134.04	23.87	-33.2	-34.0	25.3	0.00e+00	0	34	0	615514112	40	5568
2026-01-06 23:43:14.19	133.97	24.02	-33.2	-34.1	25.2	0.00e+00	0	34	0	618659840	40	5597
2026-01-06 23:43:15.17	133.90	24.16	-33.2	-34.0	25.3	0.00e+00	0	35	0	621805568	40	5582
2026-01-06 23:43:16.15	133.83	24.31	-33.3	-34.2	25.3	0.00e+00	0	35	0	624951296	40	5674
2026-01-06 23:43:17.13	133.75	24.46	-33.2	-34.1	25.3	0.00e+00	0	35	0	628097024	40	5620
2026-01-06 23:43:18.10	133.68	24.60	-33.4	-34.2	25.2	0.00e+00	0	35	0	631242752	40	5711
2026-01-06 23:43:19.08	133.60	24.75	-33.5	-34.4	25.1	0.00e+00	0	35	0	634388480	40	5805
2026-01-06 23:43:20.06	133.53	24.90	-33.5	-34.4	25.1	0.00e+00	0	35	0	637534208	40	5824
2026-01-06 23:43:21.04	133.45	25.05	-33.7	-34.6	25.0	0.00e+00	0	35	0	639631360	40	5947
2026-01-06 23:43:22.01	133.37	25.20	-33.7	-34.6	24.9	0.00e+00	0	35	0	642777088	40	5943
2026-01-06 23:43:22.99	133.29	25.35	-33.8	-34.7	24.7	0.00e+00	0	35	0	645922816	40	6034
2026-01-06 23:43:23.97	133.21	25.51	-34.0	-34.9	24.8	0.00e+00	0	35	0	649068544	40	6139
2026-01-06 23:43:24.95	133.13	25.66	-34.0	-34.9	24.7	0.00e+00	0	35	0	652214272	40	6156
2026-01-06 23:43:25.92	133.05	25.81	-34.1	-34.9	24.6	0.00e+00	0	35	0	655360000	40	6193
2026-01-06 23:43:26.90	132.97	25.97	-34.1	-34.9	24.6	0.00e+00	0	35	0	658505728	40	6200
2026-01-06 23:43:27.88	132.89	26.12	-34.2	-35.1	24.5	0.00e+00	0	35	0	661651456	40	6299
2026-01-06 23:43:28.85	132.81	26.28	-34.3	-35.2	24.3	0.00e+00	0	35	0	664797184	40	6399
2026-01-06 23:43:29.83	132.72	26.44	-34.4	-35.3	24.3	0.00e+00	0	35	0	667942912	40	6475
2026-01-06 23:43:30.81	132.64	26.60	-34.6	-35.5	24.2	0.00e+00	0	35	0	671088640	40	6612
2026-01-06 23:43:31.79	132.55	26.75	-34.7	-35.6	24.2	0.00e+00	0	35	0	673185792	40	6678
2026-01-06 23:43:32.76	132.47	26.91	-34.9	-35.8	24.0	0.00e+00	0	35	0	676331520	42	6093
2026-01-06 23:43:33.73	132.38	27.07	-34.9	-35.8	24.1	0.00e+00	0	35	0	679477248	42	6117
2026-01-06 23:43:34.72	132.29	27.24	-35.1	-36.0	23.9	0.00e+00	0	34	0	682622976	42	6235
2026-01-06 23:43:35.69	132.20	27.40	-35.1	-36.0	23.9	0.00e+00	0	34	0	685768704	42	6274
2026-01-06 23:43:36.67	132.11	27.56	-35.3	-36.2	23.9	0.00e+00	0	35	0	688914432	42	6411
2026-01-06 23:43:37.64	132.02	27.73	-35.1	-36.1	23.9	0.00e+00	0	35	0	692060160	42	6287
2026-01-06 23:43:38.62	131.93	27.89	-35.4	-36.3	23.7	0.00e+00	0	35	0	695205888	42	6489
2026-01-06 23:43:39.60	131.83	28.06	-35.3	-36.2	23.8	0.00e+00	0	35	0	698351616	42	6406
2026-01-06 23:43:40.58	131.74	28.23	-35.0	-35.9	24.0	0.00e+00	0	35	0	701497344	42	6169
2026-01-06 23:43:41.55	131.64	28.39	-35.1	-36.0	24.0	0.00e+00	0	35	0	704643072	42	6230
2026-01-06 23:43:42.53	131.55	28.56	-35.0	-35.9	24.0	0.00e+00	0	35	0	706740224	42	6168
2026-01-06 23:43:43.51	131.45	28.73	-35.0	-35.9	24.1	0.00e+00	0	35	0	709885952	42	6136
2026-01-06 23:43:44.49	131.35	28.90	-35.0	-35.9	24.1	0.00e+00	0	35	0	713031680	42	6181
2026-01-06 23:43:45.46	131.25	29.07	-34.9	-35.8	24.1	0.00e+00	0	34	0	716177408	42	6080
2026-01-06 23:43:46.44	131.15	29.25	-35.0	-35.9	24.1	0.00e+00	0	35	0	719323136	42	6174
2026-01-06 23:43:47.42	131.05	29.42	-35.1	-36.0	24.0	0.00e+00	0	35	0	722468864	42	6274
2026-01-06 23:43:48.40	130.95	29.60	-35.0	-35.9	24.0	0.00e+00	0	34	0	725614592	42	6196
2026-01-06 23:43:49.37	130.84	29.77	-34.7	-35.5	24.4	0.00e+00	0	35	0	728760320	42	5924
2026-01-06 23:43:50.35	130.74	29.95	-34.5	-35.3	24.5	0.00e+00	0	34	0	731906048	42	5785
2026-01-06 23:43:51.33	130.63	30.13	-34.5	-35.4	24.4	0.00e+00	0	34	0	735051776	42	5799
2026-01-06 23:43:52.31	130.52	30.31	-34.4	-35.3	24.5	0.00e+00	0	35	0	738197504	42	5735
2026-01-06 23:43:53.29	130.41	30.49	-34.2	-35.1	24.6	0.00e+00	0	35	0	741343232	42	5641
2026-01-06 23:43:54.27	130.30	30.67	-34.3	-35.1	24.7	0.00e+00	0	35	0	743440384	42	5654
2026-01-06 23:43:55.25	130.19	30.85	-34.3	-35.1	24.6	0.00e+00	0	35	0	746586112	42	5652
2026-01-06 23:43:56.23	130.08	31.03	-34.3	-35.1	24.8	0.00e+00	0	35	0	749731840	42	5657
2026-01-06 23:43:57.20	129.96	31.21	-34.2	-35.1	24.8	0.00e+00	0	34	0	752877568	42	5608
2026-01-06 23:43:58.18	129.85	31.40	-34.2	-35.1	24.8	0.00e+00	0	35	0	756023296	42	5645
2026-01-06 23:43:59.16	129.73	31.58	-34.3	-35.2	24.7	0.00e+00	0	35	0	759169024	42	5680
2026-01-06 23:44:00.14	129.61	31.77	-34.2	-35.1	24.8	0.00e+00	0	35	0	762314752	42	5621
2026-01-06 23:44:01.12	129.49	31.96	-34.3	-35.2	24.8	0.00e+00	0	35	0	765460480	42	5674
2026-01-06 23:44:02.09	129.37	32.15	-34.3	-35.1	24.8	0.00e+00	0	35	0	768606208	42	5646
2026-01-06 23:44:03.07	129.25	32.34	-34.4	-35.2	24.7	0.00e+00	0	34	0	771751936	42	5717
2026-01-06 23:44:04.04	129.13	32.53	-34.3	-35.2	24.8	0.00e+00	0	35	0	774897664	42	5667
2026-01-06 23:44:05.02	129.00	32.72	-34.3	-35.2	24.8	0.00e+00	0	34	0	778043392	42	5697
2026-01-06 23:44:06.00	128.88	32.91	-34.6	-35.4	24.6	0.00e+00	0	35	0	781189120	42	5848
2026-01-06 23:44:06.98	128.75	33.11	-34.6	-35.5	24.4	0.00e+00	0	34	0	783286272	42	5902
2026-01-06 23:44:07.96	128.62	33.30	-34.6	-35.5	24.5	0.00e+00	0	35	0	786432000	42	5874
2026-01-06 23:44:08.93	128.49	33.50	-34.7	-35.6	24.4	0.00e+00	0	34	0	789577728	42	5988
2026-01-06 23:44:09.91	128.35	33.70	-35.0	-35.9	24.2	0.00e+00	0	35	0	792723456	42	6160
2026-01-06 23:44:10.88	128.22	33.89	-35.1	-36.0	24.2	0.00e+00	0	35	0	795869184	42	6244
2026-01-06 23:44:11.86	128.08	34.09	-35.2	-36.1	24.1	0.00e+00	0	35	0	799014912	42	6346
2026-01-06 23:44:12.84	127.94	34.29	-35.2	-36.1	24.1	0.00e+00	0	35	0	802160640	42	6343
2026-01-06 23:44:13.81	127.80	34.49	-35.4	-36.3	23.9	0.00e+00	0	35	0	805306368	42	6460
2026-01-06 23:44:14.80	127.66	34.70	-35.5	-36.4	23.9	0.00e+00	0	35	0	808452096	42	6517
2026-01-06 23:44:15.77	127.52	34.90	-35.5	-36.4	23.8	0.00e+00	0	34	0	811597824	42	6525
2026-01-06 23:44:16.75	127.37	35.11	-35.7	-36.7	23.7	0.00e+00	0	35	0	814743552	42	6737
2026-01-06 23:44:17.72	127.22	35.31	-35.9	-36.8	23.5	0.00e+00	0	34	0	816840704	44	6124
2026-01-06 23:44:18.70	127.07	35.52	-36.1	-37.1	23.2	0.00e+00	0	35	0	819986432	44	6287
2026-01-06 23:44:19.68	126.92	35.73	-36.2	-37.2	23.2	0.00e+00	0	35	0	823132160	44	6359
2026-01-06 23:44:20.66	126.77	35.94	-36.4	-37.3	23.1	0.00e+00	0	35	0	826277888	44	6483
2026-01-06 23:44:21.63	126.62	36.15	-36.5	-37.5	22.9	0.00e+00	0	35	0	829423616	44	6615
2026-01-06 23:44:22.61	126.46	36.36	-36.5	-37.5	23.1	0.00e+00	0	35	0	832569344	44	6590
2026-01-06 23:44:23.59	126.30	36.57	-36.4	-37.4	23.0	0.00e+00	0	35	0	835715072	44	6548
2026-01-06 23:44:24.57	126.14	36.79	-36.5	-37.5	22.9	0.00e+00	0	35	0	838860800	44	6591
2026-01-06 23:44:25.54	125.97	37.00	-36.6	-37.6	22.9	0.00e+00	0	34	0	842006528	44	6713
2026-01-06 23:44:26.52	125.81	37.22	-36.9	-37.9	22.6	0.00e+00	0	35	0	845152256	46	6172
2026-01-06 23:44:27.49	125.64	37.44	-36.9	-37.9	22.7	0.00e+00	0	35	0	848297984	46	6135
2026-01-06 23:44:28.48	125.47	37.66	-36.8	-37.8	22.8	0.00e+00	0	34	0	850395136	46	6078
2026-01-06 23:44:29.45	125.30	37.88	-37.0	-38.0	22.6	0.00e+00	0	35	0	853540864	46	6248
2026-01-06 23:44:30.43	125.12	38.10	-36.8	-37.8	22.7	0.00e+00	0	34	0	856686592	46	6068
2026-01-06 23:44:31.41	124.94	38.32	-36.8	-37.8	22.7	0.00e+00	0	35	0	859832320	46	6107
2026-01-06 23:44:32.39	124.76	38.54	-36.8	-37.8	22.7	0.00e+00	0	35	0	862978048	46	6084
2026-01-06 23:44:33.36	124.58	38.77	-37.1	-38.1	22.5	0.00e+00	0	35	0	866123776	46	6330
2026-01-06 23:44:34.34	124.39	38.99	-37.2	-38.2	22.4	0.00e+00	0	35	0	869269504	46	6395
2026-01-06 23:44:35.32	124.21	39.22	-37.1	-38.2	22.4	0.00e+00	0	35	0	872415232	46	6366
2026-01-06 23:44:36.29	124.02	39.44	-37.3	-38.3	22.4	0.00e+00	0	35	0	875560960	46	6466
2026-01-06 23:44:37.27	123.82	39.67	-37.2	-38.2	22.5	0.00e+00	0	35	0	878706688	46	6395
2026-01-06 23:44:38.24	123.63	39.90	-37.0	-38.1	22.5	0.00e+00	0	35	0	881852416	46	6284
2026-01-06 23:44:39.22	123.43	40.13	-37.1	-38.1	22.5	0.00e+00	0	35	0	883949568	46	6326
2026-01-06 23:44:40.19	123.23	40.36	-36.8	-37.8	22.8	0.00e+00	0	35	0	887095296	46	6134
2026-01-06 23:44:41.17	123.02	40.60	-36.6	-37.6	23.0	0.00e+00	0	35	0	890241024	46	5940
2026-01-06 23:44:42.15	122.81	40.83	-36.2	-37.2	23.2	0.00e+00	0	35	0	893386752	46	5663
2026-01-06 23:44:43.13	122.60	41.07	-36.1	-37.1	23.5	0.00e+00	0	35	0	896532480	46	5598
2026-01-06 23:44:44.10	122.39	41.30	-36.1	-37.1	23.4	0.00e+00	0	35	0	899678208	46	5603
2026-01-06 23:44:45.08	122.17	41.54	-36.0	-37.0	23.3	0.00e+00	0	35	0	902823936	46	5550
2026-01-06 23:44:46.06	121.95	41.78	-36.3	-37.3	23.0	0.00e+00	0	35	0	905969664	46	5736
2026-01-06 23:44:47.04	121.73	42.02	-36.5	-37.5	22.8	0.00e+00	0	35	0	909115392	46	5904
2026-01-06 23:44:48.01	121.50	42.26	-36.7	-37.7	22.8	0.00e+00	0	35	0	912261120	46	6030
2026-01-06 23:44:48.99	121.27	42.50	-36.8	-37.8	22.7	0.00e+00	0	35	0	915406848	46	6134
2026-01-06 23:44:49.97	121.04	42.75	-36.9	-37.9	22.8	0.00e+00	0	35	0	917504000	46	6181
2026-01-06 23:44:50.95	120.80	42.99	-37.3	-38.3	22.3	0.00e+00	0	35	0	920649728	46	6474
2026-01-06 23:44:51.93	120.56	43.24	-37.6	-38.6	22.1	0.00e+00	0	35	0	923795456	46	6689
2026-01-06 23:44:52.90	120.31	43.48	-37.8	-38.9	21.7	0.00e+00	0	35	0	926941184	48	6173
2026-01-06 23:44:53.88	120.06	43.73	-37.9	-39.0	21.6	0.00e+00	0	35	0	930086912	48	6230
2026-01-06 23:44:54.86	119.81	43.98	-38.0	-39.1	21.6	0.00e+00	0	35	0	933232640	48	6290
2026-01-06 23:44:55.83	119.55	44.22	-38.0	-39.1	21.6	0.00e+00	0	35	0	936378368	48	6340
2026-01-06 23:44:56.81	119.29	44.47	-37.8	-38.9	21.7	0.00e+00	0	35	0	939524096	48	6167
2026-01-06 23:44:57.79	119.03	44.73	-37.3	-38.4	22.0	0.00e+00	0	35	0	942669824	48	5815
2026-01-06 23:44:58.77	118.76	44.98	-37.1	-38.1	22.3	0.00e+00	0	35	0	945815552	48	5622
2026-01-06 23:44:59.74	118.48	45.23	-37.2	-38.2	22.2	0.00e+00	0	35	0	948961280	48	5713
2026-01-06 23:45:00.72	118.20	45.48	-37.0	-38.0	22.5	0.00e+00	0	35	0	952107008	48	5593
2026-01-06 23:45:01.69	117.92	45.73	-36.9	-37.9	22.6	0.00e+00	0	35	0	955252736	48	5528
2026-01-06 23:45:02.67	117.64	45.99	-37.0	-38.0	22.6	0.00e+00	0	35	0	957349888	48	5550
2026-01-06 23:45:03.65	117.34	46.25	-36.9	-37.9	22.6	0.00e+00	0	35	0	960495616	48	5501
2026-01-06 23:45:04.63	117.05	46.50	-36.7	-37.7	22.8	0.00e+00	0	35	0	963641344	48	5386
2026-01-06 23:45:05.60	116.75	46.76	-36.7	-37.6	22.9	0.00e+00	0	35	0	966787072	46	5967
2026-01-06 23:45:06.58	116.44	47.02	-36.3	-37.2	23.2	0.00e+00	0	35	0	969932800	46	5692
2026-01-06 23:45:07.56	116.12	47.28	-35.8	-36.8	23.5	0.00e+00	0	35	0	973078528	46	5408
2026-01-06 23:45:08.54	115.81	47.53	-35.4	-36.3	23.8	0.00e+00	0	35	0	976224256	44	5775
2026-01-06 23:45:09.52	115.48	47.80	-35.5	-36.4	23.7	0.00e+00	0	35	0	979369984	44	5830
2026-01-06 23:45:10.50	115.15	48.06	-35.8	-36.7	23.4	0.00e+00	0	35	0	982515712	44	6023
2026-01-06 23:45:11.47	114.82	48.31	-36.0	-36.9	23.3	0.00e+00	0	35	0	985661440	44	6178
2026-01-06 23:45:12.45	114.48	48.58	-36.1	-37.0	23.2	0.00e+00	0	35	0	988807168	44	6263
2026-01-06 23:45:13.43	114.14	48.84	-36.4	-37.4	22.9	0.00e+00	0	35	0	990904320	44	6502
2026-01-06 23:45:14.41	113.78	49.10	-36.3	-37.3	23.1	0.00e+00	0	35	0	994050048	44	6430
2026-01-06 23:45:15.40	113.42	49.37	-36.3	-37.3	23.1	0.00e+00	0	35	0	997195776	44	6444
2026-01-06 23:45:16.37	113.06	49.63	-36.0	-37.0	23.5	0.00e+00	0	35	0	1000341504	44	6225
2026-01-06 23:45:17.35	112.69	49.89	-35.9	-36.9	23.4	0.00e+00	0	35	0	1003487232	44	6142
2026-01-06 23:45:18.33	112.31	50.16	-36.1	-37.1	22.9	0.00e+00	0	35	0	1006632960	44	6300
2026-01-06 23:45:19.31	111.93	50.42	-36.5	-37.5	22.3	0.00e+00	0	35	0	1009778688	44	6646
2026-01-06 23:45:20.28	111.54	50.68	-36.7	-37.8	22.3	0.00e+00	0	35	0	1012924416	46	6085
2026-01-06 23:45:21.26	111.14	50.94	-36.6	-37.6	22.8	0.00e+00	0	35	0	1016070144	46	5948
2026-01-06 23:45:22.24	110.74	51.21	-36.3	-37.2	23.2	0.00e+00	0	35	0	1019215872	46	5714
2026-01-06 23:45:23.22	110.32	51.47	-36.1	-37.1	23.4	0.00e+00	0	35	0	1022361600	46	5610
2026-01-06 23:45:24.20	109.90	51.74	-35.7	-36.7	23.6	0.00e+00	0	35	0	1025507328	46	5354
2026-01-06 23:45:25.18	109.48	52.00	-35.7	-36.6	23.3	0.00e+00	0	35	0	1027604480	44	5980
2026-01-06 23:45:26.15	109.05	52.26	-36.0	-36.9	22.9	0.00e+00	0	35	0	1030750208	44	6197
2026-01-06 23:45:27.13	108.60	52.52	-36.1	-37.1	22.8	0.00e+00	0	35	0	1033895936	44	6315
2026-01-06 23:45:28.11	108.15	52.79	-36.0	-37.0	23.2	0.00e+00	0	35	0	1037041664	44	6221
2026-01-06 23:45:29.09	107.69	53.05	-35.6	-36.5	23.7	0.00e+00	0	35	0	1040187392	44	5893
2026-01-06 23:45:30.07	107.22	53.31	-35.1	-36.0	24.0	0.00e+00	0	35	0	1043333120	44	5556
2026-01-06 23:45:31.05	106.75	53.57	-34.7	-35.6	24.2	0.00e+00	0	35	0	1046478848	42	5974
2026-01-06 23:45:32.02	106.27	53.83	-34.9	-35.8	23.8	0.00e+00	0	35	0	1049624576	42	6124
2026-01-06 23:45:33.00	105.78	54.09	-35.0	-36.0	23.7	0.00e+00	0	35	0	1052770304	42	6237
2026-01-06 23:45:33.98	105.27	54.35	-35.2	-36.2	23.9	0.00e+00	0	35	0	1055916032	42	6374
2026-01-06 23:45:34.96	104.76	54.60	-35.1	-36.0	24.1	0.00e+00	0	35	0	1059061760	42	6241
2026-01-06 23:45:35.93	104.25	54.86	-34.8	-35.7	24.4	0.00e+00	0	35	0	1061158912	42	6025
2026-01-06 23:45:36.91	103.72	55.11	-34.7	-35.6	24.3	0.00e+00	0	35	0	1064304640	42	5947
2026-01-06 23:45:37.89	103.18	55.37	-34.8	-35.7	24.3	0.00e+00	0	35	0	1067450368	42	6023
2026-01-06 23:45:38.87	102.63	55.62	-34.7	-35.7	24.5	0.00e+00	0	35	0	1070596096	42	5996
2026-01-06 23:45:39.85	102.07	55.87	-34.7	-35.6	24.2	0.00e+00	0	35	0	1073741824	42	5931
2026-01-06 23:45:40.82	101.50	56.12	-35.1	-36.0	23.9	0.00e+00	0	35	0	1076887552	42	6234
2026-01-06 23:45:41.80	100.92	56.37	-34.4	-35.3	24.5	0.00e+00	0	35	0	1080033280	42	5782
2026-01-06 23:45:42.77	100.34	56.61	-34.0	-34.8	24.9	0.00e+00	0	35	0	1083179008	42	5450
2026-01-06 23:45:43.75	99.74	56.86	-34.1	-35.0	24.5	0.00e+00	0	35	0	1086324736	42	5559
2026-01-06 23:45:44.73	99.13	57.10	-33.8	-34.7	24.6	0.00e+00	0	35	0	1089470464	42	5346
2026-01-06 23:45:45.71	98.50	57.34	-34.1	-35.0	24.5	0.00e+00	0	35	0	1092616192	42	5575
2026-01-06 23:45:46.69	97.87	57.57	-34.1	-34.9	24.8	0.00e+00	0	35	0	1094713344	42	5525
2026-01-06 23:45:47.66	97.23	57.81	-34.2	-35.1	24.6	0.00e+00	0	35	0	1097859072	42	5636
2026-01-06 23:45:48.64	96.57	58.04	-34.2	-35.1	24.7	0.00e+00	0	35	0	1101004800	42	5628
2026-01-06 23:45:49.62	95.91	58.27	-34.4	-35.3	24.5	0.00e+00	0	35	0	1104150528	42	5776
2026-01-06 23:45:50.60	95.23	58.50	-34.4	-35.3	24.2	0.00e+00	0	35	0	1107296256	42	5762
2026-01-06 23:45:51.57	94.54	58.72	-34.5	-35.4	24.2	0.00e+00	0	35	0	1110441984	42	5819
2026-01-06 23:45:52.55	93.84	58.94	-34.4	-35.3	24.6	0.00e+00	0	35	0	1113587712	42	5729
2026-01-06 23:45:53.53	93.13	59.16	-34.1	-34.9	24.8	0.00e+00	0	35	0	1116733440	42	5524
2026-01-06 23:45:54.50	92.41	59.37	-33.9	-34.8	24.8	0.00e+00	0	35	0	1119879168	42	5429
2026-01-06 23:45:55.48	91.67	59.58	-33.4	-34.3	25.2	0.00e+00	0	35	0	1123024896	40	5726
2026-01-06 23:45:56.45	90.93	59.79	-33.7	-34.5	25.0	0.00e+00	0	35	0	1126170624	40	5917
2026-01-06 23:45:57.43	90.17	59.99	-33.5	-34.4	25.2	0.00e+00	0	35	0	1129316352	40	5830
2026-01-06 23:45:58.41	89.39	60.19	-33.5	-34.4	25.3	0.00e+00	0	35	0	1131413504	40	5802
2026-01-06 23:45:59.38	88.61	60.38	-33.2	-34.0	25.5	0.00e+00	0	35	0	1134559232	40	5592
2026-01-06 23:46:00.36	87.82	60.57	-33.1	-33.9	25.6	0.00e+00	0	35	0	1137704960	40	5501
2026-01-06 23:46:01.34	87.01	60.76	-33.1	-34.0	25.6	0.00e+00	0	35	0	1140850688	40	5534
2026-01-06 23:46:02.32	86.18	60.94	-33.4	-34.2	25.4	0.00e+00	0	35	0	1143996416	40	5698
2026-01-06 23:46:03.30	85.35	61.12	-33.4	-34.3	25.4	0.00e+00	0	35	0	1147142144	40	5727
2026-01-06 23:46:04.27	84.51	61.29	-33.4	-34.2	25.3	0.00e+00	0	35	0	1150287872	40	5686
2026-01-06 23:46:05.25	83.66	61.46	-33.4	-34.3	25.2	0.00e+00	0	35	0	1153433600	40	5750
2026-01-06 23:46:06.24	82.78	61.62	-33.2	-34.1	25.1	0.00e+00	0	35	0	1156579328	40	5601
2026-01-06 23:46:07.22	81.90	61.78	-33.1	-34.0	25.2	0.00e+00	0	35	0	1159725056	40	5539
2026-01-06 23:46:08.20	81.01	61.93	-33.2	-34.0	25.2	0.00e+00	0	35	0	1162870784	40	5580
2026-01-06 23:46:09.17	80.12	62.07	-33.5	-34.4	25.0	0.00e+00	0	35	0	1166016512	40	5839
2026-01-06 23:46:10.15	79.20	62.21	-33.9	-34.8	24.9	0.00e+00	0	35	0	1169162240	40	6086
2026-01-06 23:46:11.13	78.28	62.34	-33.8	-34.7	25.1	0.00e+00	0	35	0	1171259392	40	6003
2026-01-06 23:46:12.11	77.35	62.47	-33.6	-34.4	25.2	0.00e+00	0	35	0	1174405120	40	5842
2026-01-06 23:46:13.09	76.41	62.59	-33.6	-34.5	25.2	0.00e+00	0	35	0	1177550848	40	5889
2026-01-06 23:46:14.06	75.47	62.70	-33.5	-34.3	25.1	0.00e+00	0	35	0	1180696576	40	5783
2026-01-06 23:46:15.04	74.51	62.81	-33.3	-34.2	25.3	0.00e+00	0	35	0	1183842304	40	5693
2026-01-06 23:46:16.02	73.54	62.91	-33.1	-34.0	25.5	0.00e+00	0	35	0	1186988032	40	5543
2026-01-06 23:46:17.00	72.56	63.01	-33.0	-33.8	25.5	0.00e+00	0	35	0	1190133760	40	5460
2026-01-06 23:46:17.97	71.59	63.09	-32.9	-33.7	25.2	0.00e+00	0	35	0	1193279488	40	5391
2026-01-06 23:46:18.95	70.60	63.17	-32.9	-33.7	25.0	0.00e+00	0	35	0	1196425216	40	5382
2026-01-06 23:46:19.92	69.61	63.25	-32.9	-33.8	25.0	0.00e+00	0	35	0	1199570944	40	5423
2026-01-06 23:46:20.90	68.61	63.31	-33.0	-33.9	25.2	0.00e+00	0	35	0	1202716672	40	5478
2026-01-06 23:46:21.88	67.60	63.37	-33.2	-34.0	25.2	0.00e+00	0	35	0	1204813824	40	5585
2026-01-06 23:46:22.86	66.59	63.42	-33.4	-34.3	25.1	0.00e+00	0	35	0	1207959552	40	5755
2026-01-06 23:46:23.84	65.57	63.47	-33.5	-34.4	25.2	0.00e+00	0	35	0	1211105280	40	5817
2026-01-06 23:46:24.81	64.56	63.50	-33.6	-34.5	25.3	0.00e+00	0	35	0	1214251008	40	5865
2026-01-06 23:46:25.79	63.54	63.53	-33.5	-34.3	25.0	0.00e+00	0	35	0	1217396736	40	5787
2026-01-06 23:46:26.76	62.52	63.56	-33.4	-34.3	25.1	0.00e+00	0	35	0	1220542464	40	5749
2026-01-06 23:46:27.73	61.51	63.57	-33.3	-34.1	25.4	0.00e+00	0	35	0	1223688192	40	5643
2026-01-06 23:46:28.71	60.48	63.58	-33.3	-34.2	25.3	0.00e+00	0	35	0	1226833920	40	5696
2026-01-06 23:46:29.69	59.45	63.58	-33.5	-34.4	25.2	0.00e+00	0	35	0	1229979648	40	5826
2026-01-06 23:46:30.67	58.42	63.57	-33.1	-33.9	25.6	0.00e+00	0	35	0	1233125376	40	5487
2026-01-06 23:46:31.64	57.41	63.55	-33.2	-34.1	25.2	0.00e+00	0	35	0	1236271104	40	5610
2026-01-06 23:46:32.62	56.38	63.53	-33.3	-34.2	25.3	0.00e+00	0	35	0	1238368256	40	5662
2026-01-06 23:46:33.60	55.36	63.50	-33.1	-34.0	25.5	0.00e+00	0	35	0	1241513984	40	5537
2026-01-06 23:46:34.58	54.34	63.46	-33.2	-34.0	25.5	0.00e+00	0	35	0	1244659712	40	5588
2026-01-06 23:46:35.55	53.33	63.41	-33.3	-34.1	25.5	0.00e+00	0	35	0	1247805440	40	5641
2026-01-06 23:46:36.53	52.32	63.36	-33.4	-34.2	25.4	0.00e+00	0	35	0	1250951168	40	5717
2026-01-06 23:46:37.51	51.32	63.30	-33.1	-33.9	25.3	0.00e+00	0	35	0	1254096896	40	5499
2026-01-06 23:46:38.49	50.31	63.23	-32.9	-33.8	25.4	0.00e+00	0	35	0	1257242624	40	5422
2026-01-06 23:46:39.46	49.33	63.16	-32.7	-33.5	25.6	0.00e+00	0	35	0	1260388352	38	5904
2026-01-06 23:46:40.44	48.34	63.08	-33.4	-34.3	25.0	0.00e+00	0	35	0	1263534080	38	6458
2026-01-06 23:46:41.42	47.36	62.99	-33.8	-34.7	25.0	0.00e+00	0	35	0	1266679808	38	6739
2026-01-06 23:46:42.40	46.38	62.89	-33.4	-34.3	25.4	0.00e+00	0	35	0	1269825536	40	5745
2026-01-06 23:46:43.37	45.43	62.79	-33.6	-34.5	25.1	0.00e+00	0	35	0	1271922688	40	5859
2026-01-06 23:46:44.35	44.47	62.68	-34.0	-34.9	24.9	0.00e+00	0	35	0	1275068416	40	6165
2026-01-06 23:46:45.33	43.52	62.57	-33.9	-34.8	25.0	0.00e+00	0	35	0	1278214144	40	6084
2026-01-06 23:46:46.30	42.59	62.45	-34.0	-34.9	24.9	0.00e+00	0	35	0	1281359872	40	6199
2026-01-06 23:46:47.28	41.66	62.32	-34.1	-35.0	24.9	0.00e+00	0	35	0	1284505600	40	6274
2026-01-06 23:46:48.26	40.74	62.19	-34.3	-35.2	24.8	0.00e+00	0	35	0	1287651328	40	6353
2026-01-06 23:46:49.24	39.83	62.05	-33.9	-34.7	25.0	0.00e+00	0	35	0	1290797056	40	6059
2026-01-06 23:46:50.21	38.94	61.90	-33.5	-34.3	24.9	0.00e+00	0	35	0	1293942784	40	5778
2026-01-06 23:46:51.19	38.06	61.75	-33.7	-34.6	24.8	0.00e+00	0	35	0	1297088512	40	5983
2026-01-06 23:46:52.17	37.18	61.59	-34.2	-35.1	24.6	0.00e+00	0	35	0	1300234240	40	6324
2026-01-06 23:46:53.15	36.31	61.43	-34.3	-35.2	24.6	0.00e+00	0	35	0	1303379968	40	6390
2026-01-06 23:46:54.13	35.46	61.26	-34.1	-35.0	24.8	0.00e+00	0	35	0	1305477120	40	6248
2026-01-06 23:46:55.11	34.62	61.09	-33.6	-34.5	25.1	0.00e+00	0	35	0	1308622848	40	5885
2026-01-06 23:46:56.08	33.80	60.91	-33.3	-34.1	25.3	0.00e+00	0	35	0	1311768576	40	5647
2026-01-06 23:46:57.06	32.98	60.73	-33.1	-33.9	25.5	0.00e+00	0	35	0	1314914304	40	5515
2026-01-06 23:46:58.03	32.18	60.55	-33.2	-34.0	25.6	0.00e+00	0	35	0	1318060032	40	5576
2026-01-06 23:46:59.01	31.38	60.36	-33.7	-34.6	25.2	0.00e+00	0	35	0	1321205760	40	5958
2026-01-06 23:46:59.98	30.61	60.16	-33.9	-34.8	25.0	0.00e+00	0	35	0	1324351488	40	6107
2026-01-06 23:47:00.96	29.84	59.96	-33.9	-34.8	24.6	0.00e+00	0	35	0	1327497216	40	6083
2026-01-06 23:47:01.94	29.08	59.76	-33.9	-34.7	24.4	0.00e+00	0	35	0	1330642944	40	6063
2026-01-06 23:47:02.91	28.34	59.55	-33.8	-34.7	24.7	0.00e+00	0	35	0	1333788672	40	5998
2026-01-06 23:47:03.88	27.61	59.35	-33.8	-34.6	24.9	0.00e+00	0	35	0	1336934400	40	5991
2026-01-06 23:47:04.86	26.89	59.13	-33.7	-34.5	25.2	0.00e+00	0	35	0	1340080128	40	5901
2026-01-06 23:47:05.84	26.17	58.91	-33.8	-34.7	25.1	0.00e+00	0	35	0	1342177280	40	6045
2026-01-06 23:47:06.81	25.48	58.69	-34.3	-35.2	24.7	0.00e+00	0	35	0	1345323008	40	6400
2026-01-06 23:47:07.79	24.79	58.47	-34.2	-35.1	24.2	0.00e+00	0	35	0	1348468736	40	6308
2026-01-06 23:47:08.77	24.12	58.24	-34.0	-35.0	23.9	0.00e+00	0	35	0	1351614464	40	6211
2026-01-06 23:47:09.75	23.45	58.01	-33.9	-34.7	24.6	0.00e+00	0	35	0	1354760192	40	6057
2026-01-06 23:47:10.73	22.80	57.78	-33.4	-34.3	25.2	0.00e+00	0	35	0	1357905920	40	5755
2026-01-06 23:47:11.70	22.16	57.55	-34.0	-34.9	24.6	0.00e+00	0	35	0	1361051648	40	6172
2026-01-06 23:47:12.68	21.53	57.31	-34.8	-35.7	24.3	0.00e+00	0	35	0	1364197376	42	6044
2026-01-06 23:47:13.65	20.92	57.07	-35.1	-36.0	24.2	0.00e+00	0	35	0	1367343104	42	6237
2026-01-06 23:47:14.63	20.31	56.83	-35.4	-36.4	23.8	0.00e+00	0	35	0	1370488832	42	6524
2026-01-06 23:47:15.61	19.71	56.59	-35.5	-36.5	23.5	0.00e+00	0	35	0	1373634560	42	6606
2026-01-06 23:47:16.58	19.13	56.35	-35.2	-36.2	23.6	0.00e+00	0	35	0	1375731712	42	6374
2026-01-06 23:47:17.56	18.55	56.10	-34.8	-35.8	24.1	0.00e+00	0	35	0	1378877440	42	6068
2026-01-06 23:47:18.54	17.98	55.85	-34.3	-35.2	24.6	0.00e+00	0	35	0	1382023168	42	5670
2026-01-06 23:47:19.52	17.43	55.60	-34.7	-35.6	24.4	0.00e+00	0	35	0	1385168896	42	5968
2026-01-06 23:47:20.50	16.88	55.35	-35.4	-36.3	23.8	0.00e+00	0	35	0	1388314624	42	6474
2026-01-06 23:47:21.48	16.34	55.09	-35.7	-36.7	23.5	0.00e+00	0	35	0	1391460352	42	6782
2026-01-06 23:47:22.45	15.82	54.84	-35.4	-36.3	23.9	0.00e+00	0	35	0	1394606080	44	5758
2026-01-06 23:47:23.44	15.29	54.58	-34.9	-35.9	24.1	0.00e+00	0	35	0	1397751808	44	5468
2026-01-06 23:47:24.41	14.79	54.33	-34.8	-35.7	24.2	0.00e+00	0	35	0	1400897536	44	5394
2026-01-06 23:47:25.38	14.29	54.07	-34.4	-35.3	24.5	0.00e+00	0	35	0	1404043264	42	5746
2026-01-06 23:47:26.36	13.80	53.81	-34.3	-35.1	24.8	0.00e+00	0	35	0	1407188992	42	5643
2026-01-06 23:47:27.34	13.32	53.55	-34.5	-35.4	24.6	0.00e+00	0	35	0	1410334720	42	5826
2026-01-06 23:47:28.32	12.85	53.29	-35.4	-36.3	24.0	0.00e+00	0	35	0	1412431872	42	6475
2026-01-06 23:47:29.30	12.38	53.03	-37.1	-38.2	22.1	0.00e+00	0	35	0	1415577600	46	6400
2026-01-06 23:47:30.28	11.92	52.77	-37.7	-38.9	20.9	0.00e+00	0	35	0	1418723328	46	6934
2026-01-06 23:47:31.25	11.48	52.51	-37.4	-38.5	21.0	0.00e+00	0	35	0	1421869056	46	6615
2026-01-06 23:47:32.23	11.04	52.25	-37.2	-38.3	21.5	0.00e+00	0	35	0	1425014784	46	6483
2026-01-06 23:47:33.21	10.61	51.99	-37.1	-38.2	22.2	0.00e+00	0	35	0	1428160512	46	6351
2026-01-06 23:47:34.19	10.18	51.72	-36.1	-37.0	23.4	0.00e+00	0	35	0	1431306240	46	5581
2026-01-06 23:47:35.16	9.77	51.46	-35.6	-36.6	23.8	0.00e+00	0	35	0	1434451968	44	5932
2026-01-06 23:47:36.14	9.36	51.20	-35.7	-36.6	23.7	0.00e+00	0	35	0	1437597696	44	5976
2026-01-06 23:47:37.12	8.95	50.94	-36.1	-37.1	23.3	0.00e+00	0	35	0	1440743424	44	6324
2026-01-06 23:47:38.09	8.56	50.68	-37.0	-38.1	22.5	0.00e+00	0	35	0	1443889152	46	6285
2026-01-06 23:47:39.07	8.17	50.41	-37.6	-38.7	22.1	0.00e+00	0	35	0	1445986304	46	6747
2026-01-06 23:47:40.05	7.79	50.15	-37.4	-38.5	22.2	0.00e+00	0	35	0	1449132032	48	5870
2026-01-06 23:47:41.03	7.41	49.89	-36.6	-37.6	22.8	0.00e+00	0	35	0	1452277760	46	5937
2026-01-06 23:47:42.00	7.05	49.63	-36.1	-37.1	23.2	0.00e+00	0	35	0	1455423488	46	5610
2026-01-06 23:47:42.98	6.68	49.36	-35.6	-36.5	23.6	0.00e+00	0	35	0	1458569216	44	5883
2026-01-06 23:47:43.95	6.33	49.10	-35.7	-36.6	23.6	0.00e+00	0	35	0	1461714944	44	5984
2026-01-06 23:47:44.93	5.98	48.84	-36.5	-37.5	23.0	0.00e+00	0	35	0	1464860672	44	6588
2026-01-06 23:47:45.91	5.63	48.58	-36.7	-37.7	22.8	0.00e+00	0	35	0	1468006400	44	6735
2026-01-06 23:47:46.89	5.29	48.32	-37.1	-38.1	22.5	0.00e+00	0	35	0	1471152128	46	6315
2026-01-06 23:47:47.87	4.96	48.06	-37.4	-38.5	22.2	0.00e+00	0	35	0	1474297856	46	6619
2026-01-06 23:47:48.85	4.63	47.80	-38.2	-39.3	21.5	0.00e+00	0	35	0	1477443584	48	6472
2026-01-06 23:47:49.83	4.31	47.54	-38.5	-39.7	21.1	0.00e+00	0	35	0	1479540736	48	6758
2026-01-06 23:47:50.81	3.99	47.28	-38.4	-39.5	21.3	0.00e+00	0	35	0	1482686464	48	6649
2026-01-06 23:47:51.78	3.68	47.03	-38.2	-39.4	21.3	0.00e+00	0	35	0	1485832192	48	6508
2026-01-06 23:47:52.76	3.38	46.77	-37.9	-39.0	21.7	0.00e+00	0	35	0	1488977920	48	6217
2026-01-06 23:47:53.74	3.08	46.51	-37.6	-38.6	22.1	0.00e+00	0	35	0	1492123648	48	5977
2026-01-06 23:47:54.72	2.78	46.26	-36.7	-37.7	22.8	0.00e+00	0	35	0	1495269376	48	5377
2026-01-06 23:47:55.69	2.49	46.00	-36.8	-37.8	22.5	0.00e+00	0	35	0	1498415104	46	6071
2026-01-06 23:47:56.67	2.20	45.75	-36.9	-37.9	22.4	0.00e+00	0	35	0	1501560832	46	6168
2026-01-06 23:47:57.64	1.92	45.50	-37.3	-38.3	22.4	0.00e+00	0	35	0	1504706560	46	6463
2026-01-06 23:47:58.62	1.65	45.25	-37.1	-38.1	22.5	0.00e+00	0	35	0	1507852288	46	6300
2026-01-06 23:47:59.60	1.37	44.99	-36.9	-37.9	22.5	0.00e+00	0	35	0	1510998016	46	6205
2026-01-06 23:48:00.58	1.10	44.74	-36.9	-37.8	22.7	0.00e+00	0	35	0	1514143744	46	6134
2026-01-06 23:48:01.55	0.84	44.49	-36.3	-37.3	23.2	0.00e+00	0	35	0	1517289472	46	5739
2026-01-06 23:48:02.52	0.58	44.25	-36.4	-37.3	23.2	0.00e+00	0	35	0	1519386624	46	5773
2026-01-06 23:48:03.50	0.33	44.00	-36.5	-37.4	23.0	0.00e+00	0	35	0	1522532352	46	5832
2026-01-06 23:48:04.48	0.07	43.75	-36.5	-37.5	22.7	0.00e+00	0	35	0	1525678080	46	5885
2026-01-06 23:48:05.46	359.82	43.51	-36.4	-37.4	22.6	0.00e+00	0	35	0	1528823808	46	5796
2026-01-06 23:48:06.43	359.58	43.26	-36.3	-37.3	22.8	0.00e+00	0	35	0	1531969536	46	5753
2026-01-06 23:48:07.42	359.34	43.02	-36.3	-37.3	23.1	0.00e+00	0	35	0	1535115264	46	5742
2026-01-06 23:48:08.39	359.10	42.77	-36.1	-37.1	23.4	0.00e+00	0	35	0	1538260992	46	5595
2026-01-06 23:48:09.37	358.87	42.53	-36.7	-37.7	22.8	0.00e+00	0	35	0	1541406720	46	6003
2026-01-06 23:48:10.34	358.64	42.29	-37.7	-38.8	21.9	0.00e+00	0	35	0	1544552448	46	6849
2026-01-06 23:48:11.32	358.41	42.05	-38.3	-39.4	21.4	0.00e+00	0	35	0	1547698176	48	6542
2026-01-06 23:48:12.30	358.19	41.81	-38.1	-39.3	21.3	0.00e+00	0	35	0	1550843904	48	6476
2026-01-06 23:48:13.28	357.97	41.57	-37.9	-39.1	21.2	0.00e+00	0	35	0	1552941056	48	6323
2026-01-06 23:48:14.25	357.76	41.34	-38.1	-39.2	21.1	0.00e+00	0	35	0	1556086784	48	6404
2026-01-06 23:48:15.23	357.54	41.10	-37.7	-38.8	21.6	0.00e+00	0	35	0	1559232512	48	6065
2026-01-06 23:48:16.22	357.33	40.87	-37.3	-38.3	22.3	0.00e+00	0	35	0	1562378240	48	5773
2026-01-06 23:48:17.20	357.12	40.63	-36.6	-37.6	22.9	0.00e+00	0	35	0	1565523968	46	5982
2026-01-06 23:48:18.17	356.92	40.40	-36.5	-37.5	23.0	0.00e+00	0	35	0	1568669696	46	5881
2026-01-06 23:48:19.15	356.72	40.17	-36.5	-37.4	23.1	0.00e+00	0	35	0	1571815424	46	5854
2026-01-06 23:48:20.12	356.52	39.94	-36.4	-37.3	23.2	0.00e+00	0	35	0	1574961152	46	5785
2026-01-06 23:48:21.10	356.33	39.71	-36.4	-37.4	23.1	0.00e+00	0	35	0	1578106880	46	5798
2026-01-06 23:48:22.08	356.13	39.48	-35.8	-36.7	23.6	0.00e+00	0	35	0	1581252608	46	5399
2026-01-06 23:48:23.06	355.94	39.26	-36.0	-36.9	23.4	0.00e+00	0	35	0	1584398336	46	5518
2026-01-06 23:48:24.03	355.76	39.03	-35.9	-36.8	23.6	0.00e+00	0	35	0	1586495488	46	5434
2026-01-06 23:48:25.01	355.57	38.81	-36.0	-36.9	23.4	0.00e+00	0	35	0	1589641216	46	5519
2026-01-06 23:48:25.99	355.39	38.58	-36.3	-37.2	23.2	0.00e+00	0	35	0	1592786944	46	5723
2026-01-06 23:48:26.97	355.21	38.36	-36.6	-37.5	23.0	0.00e+00	0	35	0	1595932672	46	5919
2026-01-06 23:48:27.95	355.03	38.14	-36.9	-37.9	22.5	0.00e+00	0	35	0	1599078400	46	6175
2026-01-06 23:48:28.93	354.86	37.92	-37.0	-38.0	22.5	0.00e+00	0	35	0	1602224128	46	6271
2026-01-06 23:48:29.90	354.69	37.70	-36.9	-38.0	22.4	0.00e+00	0	35	0	1605369856	46	6240
2026-01-06 23:48:30.88	354.52	37.48	-36.9	-38.0	22.5	0.00e+00	0	35	0	1608515584	46	6209
2026-01-06 23:48:31.86	354.35	37.27	-36.3	-37.3	23.0	0.00e+00	0	35	0	1611661312	46	5771
2026-01-06 23:48:32.84	354.18	37.05	-35.7	-36.7	23.5	0.00e+00	0	35	0	1614807040	46	5359
2026-01-06 23:48:33.82	354.02	36.83	-35.7	-36.7	23.6	0.00e+00	0	35	0	1617952768	44	6013
2026-01-06 23:48:34.79	353.86	36.62	-35.6	-36.5	23.6	0.00e+00	0	35	0	1621098496	44	5886
2026-01-06 23:48:35.77	353.70	36.41	-35.8	-36.8	23.4	0.00e+00	0	35	0	1623195648	44	6084
2026-01-06 23:48:36.75	353.54	36.20	-36.2	-37.2	23.0	0.00e+00	0	35	0	1626341376	44	6401
2026-01-06 23:48:37.73	353.39	35.99	-36.5	-37.5	22.7	0.00e+00	0	35	0	1629487104	44	6640
2026-01-06 23:48:38.71	353.24	35.78	-36.8	-37.8	22.5	0.00e+00	0	35	0	1632632832	46	6091
2026-01-06 23:48:39.69	353.09	35.57	-36.8	-37.8	22.5	0.00e+00	0	35	0	1635778560	46	6107
2026-01-06 23:48:40.67	352.94	35.36	-36.8	-37.8	22.5	0.00e+00	0	35	0	1638924288	46	6093
2026-01-06 23:48:41.65	352.79	35.16	-36.1	-37.1	23.1	0.00e+00	0	35	0	1642070016	46	5611
2026-01-06 23:48:42.63	352.64	34.95	-35.9	-36.9	23.2	0.00e+00	0	35	0	1645215744	46	5484
2026-01-06 23:48:43.61	352.50	34.75	-35.9	-36.9	23.4	0.00e+00	0	35	0	1648361472	46	5478
2026-01-06 23:48:44.58	352.36	34.55	-35.3	-36.3	23.9	0.00e+00	0	35	0	1651507200	44	5743
2026-01-06 23:48:45.56	352.22	34.35	-35.2	-36.1	24.0	0.00e+00	0	35	0	1654652928	44	5627
2026-01-06 23:48:46.54	352.08	34.15	-35.1	-36.0	24.0	0.00e+00	0	35	0	1657798656	44	5550
2026-01-06 23:48:47.52	351.95	33.95	-35.1	-36.0	24.0	0.00e+00	0	35	0	1659895808	44	5577
2026-01-06 23:48:48.50	351.81	33.75	-35.2	-36.1	24.0	0.00e+00	0	35	0	1663041536	44	5623
2026-01-06 23:48:49.47	351.68	33.56	-35.4	-36.4	23.8	0.00e+00	0	35	0	1666187264	44	5804
2026-01-06 23:48:50.45	351.55	33.36	-35.6	-36.5	23.7	0.00e+00	0	35	0	1669332992	44	5910
2026-01-06 23:48:51.43	351.42	33.16	-35.6	-36.5	23.8	0.00e+00	0	35	0	1672478720	44	5915
2026-01-06 23:48:52.41	351.29	32.97	-35.7	-36.6	23.7	0.00e+00	0	35	0	1675624448	44	5973
2026-01-06 23:48:53.39	351.16	32.78	-35.7	-36.7	23.6	0.00e+00	0	35	0	1678770176	44	6016
2026-01-06 23:48:54.37	351.04	32.59	-35.6	-36.6	23.7	0.00e+00	0	35	0	1681915904	44	5934
2026-01-06 23:48:55.34	350.92	32.40	-35.4	-36.3	24.0	0.00e+00	0	35	0	1685061632	44	5761
2026-01-06 23:48:56.32	350.80	32.21	-35.4	-36.3	23.9	0.00e+00	0	35	0	1688207360	44	5782
2026-01-06 23:48:57.30	350.67	32.02	-35.3	-36.2	24.0	0.00e+00	0	35	0	1691353088	44	5722
2026-01-06 23:48:58.28	350.56	31.83	-35.3	-36.2	24.0	0.00e+00	0	35	0	1693450240	44	5691
2026-01-06 23:48:59.26	350.44	31.65	-35.2	-36.1	24.0	0.00e+00	0	35	0	1696595968	44	5650
2026-01-06 23:49:00.24	350.32	31.46	-35.2	-36.2	23.9	0.00e+00	0	35	0	1699741696	44	5661
2026-01-06 23:49:01.22	350.21	31.28	-35.1	-36.0	23.9	0.00e+00	0	35	0	1702887424	44	5580
2026-01-06 23:49:02.20	350.09	31.09	-35.0	-35.9	24.0	0.00e+00	0	35	0	1706033152	44	5504
2026-01-06 23:49:03.18	349.98	30.91	-34.9	-35.8	24.2	0.00e+00	0	35	0	1709178880	44	5467
2026-01-06 23:49:04.16	349.87	30.73	-34.7	-35.6	24.3	0.00e+00	0	35	0	1712324608	42	5933
2026-01-06 23:49:05.14	349.76	30.55	-34.6	-35.5	24.4	0.00e+00	0	35	0	1715470336	42	5922
2026-01-06 23:49:06.12	349.65	30.37	-34.4	-35.3	24.5	0.00e+00	0	35	0	1718616064	42	5748
2026-01-06 23:49:07.10	349.54	30.19	-34.5	-35.4	24.5	0.00e+00	0	35	0	1721761792	42	5803
2026-01-06 23:49:08.08	349.44	30.01	-34.3	-35.2	24.7	0.00e+00	0	35	0	1724907520	42	5662
2026-01-06 23:49:09.06	349.33	29.84	-34.1	-35.0	24.8	0.00e+00	0	35	0	1728053248	42	5535
2026-01-06 23:49:10.03	349.23	29.66	-34.0	-34.8	24.9	0.00e+00	0	35	0	1730150400	42	5455
2026-01-06 23:49:11.02	349.13	29.49	-34.0	-34.8	24.9	0.00e+00	0	35	0	1733296128	42	5446
2026-01-06 23:49:11.99	349.03	29.32	-33.8	-34.7	25.0	0.00e+00	0	35	0	1736441856	42	5364
2026-01-06 23:49:12.97	348.93	29.14	-34.0	-34.9	24.8	0.00e+00	0	35	0	1739587584	42	5495
2026-01-06 23:49:13.95	348.83	28.97	-33.9	-34.8	24.9	0.00e+00	0	35	0	1742733312	42	5428
2026-01-06 23:49:14.93	348.73	28.80	-34.1	-34.9	24.8	0.00e+00	0	35	0	1745879040	42	5520
2026-01-06 23:49:15.92	348.63	28.63	-34.1	-35.0	24.7	0.00e+00	0	35	0	1749024768	42	5552
2026-01-06 23:49:16.90	348.53	28.46	-34.3	-35.2	24.7	0.00e+00	0	35	0	1752170496	42	5710
2026-01-06 23:49:17.88	348.44	28.29	-34.6	-35.5	24.5	0.00e+00	0	35	0	1755316224	42	5895
2026-01-06 23:49:18.86	348.35	28.13	-34.7	-35.6	24.3	0.00e+00	0	35	0	1758461952	42	5959
2026-01-06 23:49:19.83	348.25	27.96	-34.8	-35.7	24.3	0.00e+00	0	35	0	1761607680	42	6061
2026-01-06 23:49:20.81	348.16	27.80	-34.8	-35.7	24.2	0.00e+00	0	35	0	1764753408	42	6038
2026-01-06 23:49:21.78	348.07	27.64	-34.9	-35.9	24.1	0.00e+00	0	35	0	1767899136	42	6138
2026-01-06 23:49:22.76	347.98	27.47	-35.0	-35.9	24.1	0.00e+00	0	35	0	1769996288	42	6182
2026-01-06 23:49:23.75	347.89	27.31	-34.8	-35.8	24.2	0.00e+00	0	35	0	1773142016	42	6066
2026-01-06 23:49:24.74	347.80	27.15	-34.8	-35.7	24.2	0.00e+00	0	35	0	1776287744	42	6048
2026-01-06 23:49:25.71	347.72	26.99	-34.8	-35.7	24.2	0.00e+00	0	35	0	1779433472	42	6008
2026-01-06 23:49:26.70	347.63	26.83	-34.6	-35.5	24.4	0.00e+00	0	35	0	1782579200	42	5910
2026-01-06 23:49:27.68	347.54	26.67	-34.5	-35.4	24.4	0.00e+00	0	35	0	1785724928	42	5846
2026-01-06 23:49:28.67	347.46	26.51	-34.5	-35.4	24.4	0.00e+00	0	35	0	1788870656	42	5829
2026-01-06 23:49:29.66	347.37	26.35	-34.4	-35.3	24.3	0.00e+00	0	35	0	1792016384	42	5774
2026-01-06 23:49:30.64	347.29	26.19	-34.2	-35.1	24.6	0.00e+00	0	35	0	1795162112	42	5609
2026-01-06 23:49:31.62	347.21	26.04	-34.2	-35.1	24.6	0.00e+00	0	35	0	1798307840	42	5624
2026-01-06 23:49:32.60	347.13	25.88	-34.1	-35.0	24.8	0.00e+00	0	35	0	1801453568	42	5564
2026-01-06 23:49:33.58	347.05	25.73	-33.8	-34.7	25.0	0.00e+00	0	35	0	1804599296	42	5385
2026-01-06 23:49:34.57	346.97	25.57	-33.9	-34.8	25.0	0.00e+00	0	35	0	1807745024	42	5423
2026-01-06 23:49:35.54	346.89	25.42	-33.8	-34.7	25.0	0.00e+00	0	35	0	1810890752	42	5369
2026-01-06 23:49:36.53	346.81	25.27	-33.7	-34.6	25.1	0.00e+00	0	35	0	1812987904	40	5945
2026-01-06 23:49:37.51	346.73	25.12	-33.6	-34.4	25.2	0.00e+00	0	35	0	1816133632	40	5851
2026-01-06 23:49:38.49	346.66	24.97	-33.7	-34.5	25.1	0.00e+00	0	35	0	1819279360	40	5917
2026-01-06 23:49:39.49	346.58	24.82	-33.7	-34.6	25.0	0.00e+00	0	35	0	1822425088	40	5944
2026-01-06 23:49:40.48	346.51	24.67	-33.6	-34.5	25.0	0.00e+00	0	35	0	1825570816	40	5879
2026-01-06 23:49:41.48	346.43	24.52	-33.8	-34.7	24.9	0.00e+00	0	35	0	1828716544	40	6001
2026-01-06 23:49:42.47	346.36	24.37	-33.9	-34.8	25.0	0.00e+00	0	35	0	1831862272	40	6109
2026-01-06 23:49:43.47	346.28	24.22	-33.9	-34.8	24.9	0.00e+00	0	35	0	1835008000	40	6112
2026-01-06 23:49:44.46	346.21	24.07	-34.0	-34.9	24.8	0.00e+00	0	35	0	1838153728	40	6169
2026-01-06 23:49:45.46	346.14	23.93	-34.1	-34.9	24.8	0.00e+00	0	35	0	1841299456	40	6205
2026-01-06 23:49:46.45	346.07	23.78	-34.1	-35.0	24.8	0.00e+00	0	35	0	1844445184	40	6224
2026-01-06 23:49:47.45	345.99	23.64	-34.2	-35.1	24.7	0.00e+00	0	35	0	1847590912	40	6304
2026-01-06 23:49:48.44	345.92	23.49	-34.3	-35.2	24.7	0.00e+00	0	35	0	1850736640	40	6363
2026-01-06 23:49:49.43	345.86	23.35	-34.2	-35.1	24.7	0.00e+00	0	35	0	1853882368	40	6293
2026-01-06 23:49:50.43	345.79	23.21	-34.2	-35.1	24.7	0.00e+00	0	35	0	1857028096	40	6318
2026-01-06 23:49:51.42	345.72	23.07	-34.2	-35.1	24.7	0.00e+00	0	35	0	1860173824	40	6289
2026-01-06 23:49:52.41	345.65	22.93	-34.2	-35.1	24.7	0.00e+00	0	35	0	1863319552	40	6283
2026-01-06 23:49:53.40	345.58	22.79	-34.2	-35.1	24.7	0.00e+00	0	35	0	1866465280	40	6281
2026-01-06 23:49:54.39	345.52	22.65	-34.2	-35.1	24.7	0.00e+00	0	35	0	1869611008	40	6333
2026-01-06 23:49:55.38	345.45	22.51	-34.2	-35.1	24.6	0.00e+00	0	35	0	1872756736	40	6334
2026-01-06 23:49:56.39	345.39	22.37	-34.3	-35.2	24.5	0.00e+00	0	35	0	1875902464	40	6410
2026-01-06 23:49:57.40	345.32	22.23	-34.2	-35.1	24.6	0.00e+00	0	35	0	1879048192	40	6337
2026-01-06 23:49:58.40	345.26	22.09	-34.3	-35.2	24.5	0.00e+00	0	35	0	1882193920	40	6393
2026-01-06 23:49:59.41	345.19	21.95	-34.3	-35.2	24.6	0.00e+00	0	35	0	1885339648	40	6360
2026-01-06 23:50:00.42	345.13	21.81	-34.3	-35.2	24.6	0.00e+00	0	35	0	1888485376	40	6418
2026-01-06 23:50:01.42	345.07	21.68	-34.3	-35.2	24.6	0.00e+00	0	35	0	1891631104	40	6376
2026-01-06 23:50:02.42	345.01	21.54	-34.4	-35.3	24.5	0.00e+00	0	35	0	1894776832	40	6495
2026-01-06 23:50:03.42	344.94	21.41	-34.4	-35.3	24.6	0.00e+00	0	35	0	1897922560	40	6470
2026-01-06 23:50:04.41	344.88	21.28	-34.4	-35.3	24.5	0.00e+00	0	35	0	1901068288	40	6471
2026-01-06 23:50:05.41	344.82	21.14	-34.4	-35.3	24.5	0.00e+00	0	35	0	1904214016	40	6428
2026-01-06 23:50:06.40	344.77	21.01	-34.4	-35.3	24.6	0.00e+00	0	35	0	1907359744	40	6448
2026-01-06 23:50:07.40	344.71	20.88	-34.4	-35.3	24.6	0.00e+00	0	35	0	1910505472	40	6484
