passes_logs/2026/01/06/R4.6S_Anadyr/R4.6S_Anadyr__20260106_152346_NOAA_21_JPSS-2_rec.log

#Pass ID: 20260106_152346_NOAA 21 (JPSS-2)
#Satellite: NOAA 21 (JPSS-2)
#Configuration: NOAA-21
#almurnet v.1.7.20251203
#Start time: 2026-01-06 15:23:48

#Version: 2.2.20231116
#Station: R4.6S_Anadyr
#Location: 177.4865 lon 64.73178 lat
#TLE: 1 54234U 22150A   26005.42670836  .00000142  00000+0  88292-4 0  9996
#TLE: 2 54234  98.7490 306.4427 0001045 340.6622  19.4514 14.19532269163451

#Time	Az	El	Level	Level2	SNR	BER	BlckErr	Temp	State	Recorded	gain1	gain2
2026-01-06 15:23:48.75	22.14	0.15	-48.7	-63.6	3.5	1.51e+00	0	33	0	0	60	54583
2026-01-06 15:23:49.76	22.13	0.21	-48.5	-61.4	3.5	1.51e+00	0	34	104	0	60	41147
2026-01-06 15:23:50.77	22.11	0.27	-48.5	-61.4	3.5	1.51e+00	0	34	104	0	60	41132
2026-01-06 15:23:51.78	22.10	0.33	-48.6	-61.5	3.5	1.51e+00	0	34	104	0	60	41604
2026-01-06 15:23:52.79	22.08	0.39	-48.6	-61.5	3.5	1.51e+00	0	34	104	0	60	41617
2026-01-06 15:23:53.80	22.07	0.45	-48.6	-61.4	3.5	1.52e+00	0	34	104	0	60	41368
2026-01-06 15:23:54.81	22.05	0.51	-48.6	-61.5	3.5	1.52e+00	0	34	104	0	60	41657
2026-01-06 15:23:55.82	22.04	0.57	-48.6	-61.5	3.5	1.52e+00	0	34	104	0	60	41780
2026-01-06 15:23:56.83	22.02	0.63	-48.6	-61.4	3.5	1.52e+00	0	34	104	0	60	41206
2026-01-06 15:23:57.84	22.01	0.69	-48.5	-61.4	3.5	1.52e+00	0	34	104	0	60	41129
2026-01-06 15:23:58.85	21.99	0.75	-48.4	-61.3	3.5	1.52e+00	0	34	104	0	60	40723
2026-01-06 15:23:59.86	21.98	0.81	-48.4	-61.2	3.5	1.51e+00	0	35	104	0	60	40497
2026-01-06 15:24:00.87	21.96	0.87	-48.2	-61.0	3.5	1.52e+00	0	34	104	0	60	39309
2026-01-06 15:24:01.88	21.95	0.94	-48.0	-60.9	3.5	1.52e+00	0	34	104	0	60	38711
2026-01-06 15:24:02.89	21.93	1.00	-47.8	-60.6	3.5	1.52e+00	0	35	104	0	60	37604
2026-01-06 15:24:03.90	21.92	1.06	-47.5	-60.3	3.5	1.52e+00	0	35	104	0	60	36200
2026-01-06 15:24:04.91	21.90	1.12	-47.2	-60.0	3.5	1.52e+00	0	35	104	0	60	34959
2026-01-06 15:24:05.91	21.88	1.18	-47.2	-60.0	3.5	1.52e+00	0	35	104	0	60	35072
2026-01-06 15:24:06.93	21.87	1.25	-47.2	-60.0	3.5	1.52e+00	0	35	104	0	60	35254
2026-01-06 15:24:07.94	21.85	1.31	-47.2	-60.0	3.5	1.52e+00	0	35	104	0	60	35161
2026-01-06 15:24:08.94	21.84	1.37	-47.2	-59.9	3.5	1.52e+00	0	35	104	0	60	34769
2026-01-06 15:24:09.95	21.82	1.43	-47.1	-59.9	3.5	1.52e+00	0	35	104	0	60	34838
2026-01-06 15:24:10.96	21.80	1.50	-47.1	-59.8	3.5	1.51e+00	0	35	104	0	60	34197
2026-01-06 15:24:11.97	21.79	1.56	-47.1	-59.7	3.5	1.52e+00	0	35	104	0	60	33948
2026-01-06 15:24:12.98	21.77	1.62	-47.1	-59.6	3.5	1.52e+00	0	35	104	0	60	33362
2026-01-06 15:24:13.99	21.76	1.69	-47.1	-59.6	3.5	1.52e+00	0	35	104	0	60	33329
2026-01-06 15:24:15.00	21.74	1.75	-47.1	-59.6	3.5	1.52e+00	0	35	104	0	60	33351
2026-01-06 15:24:16.01	21.72	1.81	-47.1	-59.5	3.5	1.52e+00	0	35	104	0	60	33275
2026-01-06 15:24:17.02	21.71	1.88	-47.1	-59.6	3.5	1.51e+00	0	35	104	0	60	33471
2026-01-06 15:24:18.03	21.69	1.94	-47.1	-59.8	3.5	1.52e+00	0	35	104	0	60	34148
2026-01-06 15:24:19.04	21.67	2.00	-47.1	-59.9	3.5	1.52e+00	0	35	104	0	60	34520
2026-01-06 15:24:20.05	21.65	2.07	-47.1	-59.9	3.5	1.52e+00	0	35	104	0	60	34838
2026-01-06 15:24:21.06	21.64	2.13	-47.1	-60.0	3.5	1.52e+00	0	35	104	0	60	34960
2026-01-06 15:24:22.07	21.62	2.20	-47.1	-59.9	3.5	1.52e+00	0	35	104	0	60	34711
2026-01-06 15:24:23.08	21.60	2.26	-47.1	-59.9	3.5	1.52e+00	0	35	104	0	60	34622
2026-01-06 15:24:24.09	21.59	2.32	-47.1	-59.7	3.5	1.52e+00	0	35	104	0	60	34048
2026-01-06 15:24:25.10	21.57	2.39	-47.1	-59.6	3.5	1.52e+00	0	35	104	0	60	33645
2026-01-06 15:24:26.10	21.55	2.45	-47.1	-59.4	3.5	1.52e+00	0	35	104	0	60	32693
2026-01-06 15:24:27.11	21.53	2.52	-47.1	-59.1	3.5	1.52e+00	0	35	104	0	60	31680
2026-01-06 15:24:28.12	21.52	2.58	-47.1	-59.0	3.5	1.52e+00	0	35	104	0	60	31367
2026-01-06 15:24:29.13	21.50	2.65	-47.0	-58.7	3.5	1.51e+00	0	35	104	0	60	30096
2026-01-06 15:24:30.14	21.48	2.71	-47.0	-58.3	3.5	1.51e+00	0	35	104	0	60	28909
2026-01-06 15:24:31.15	21.46	2.78	-47.0	-58.5	3.5	1.52e+00	0	35	104	0	60	29610
2026-01-06 15:24:32.16	21.44	2.85	-47.0	-58.7	3.5	1.51e+00	0	35	104	0	60	30390
2026-01-06 15:24:33.17	21.43	2.91	-47.1	-59.2	3.5	1.52e+00	0	35	104	0	60	32109
2026-01-06 15:24:34.18	21.41	2.98	-47.1	-59.6	3.5	1.52e+00	0	35	104	0	60	33393
2026-01-06 15:24:35.19	21.39	3.04	-47.1	-59.3	3.5	1.52e+00	0	35	104	0	60	32234
2026-01-06 15:24:36.20	21.37	3.11	-46.9	-57.5	3.6	1.51e+00	0	35	104	0	60	26434
2026-01-06 15:24:37.21	21.35	3.18	-46.6	-55.4	4.7	1.34e+00	123	35	104	0	60	20580
2026-01-06 15:24:38.22	21.33	3.24	-46.1	-52.9	6.5	9.42e-01	120	35	104	0	60	15572
2026-01-06 15:24:39.23	21.31	3.31	-45.6	-50.4	8.2	7.26e-02	122	35	0	1048576	60	11582
2026-01-06 15:24:40.24	21.30	3.38	-45.3	-49.7	9.0	3.36e-02	123	35	0	4194304	60	10765
2026-01-06 15:24:41.25	21.28	3.44	-44.9	-48.8	10.1	7.69e-03	123	35	0	7340032	60	9684
2026-01-06 15:24:42.26	21.26	3.51	-44.7	-48.4	10.6	3.45e-03	123	35	0	10485760	60	9199
2026-01-06 15:24:43.27	21.24	3.58	-44.5	-48.1	10.7	3.51e-03	122	35	0	13631488	60	8953
2026-01-06 15:24:44.28	21.22	3.65	-44.5	-48.1	10.9	2.18e-03	123	35	0	16777216	60	8902
2026-01-06 15:24:45.29	21.20	3.71	-44.7	-48.5	10.3	3.93e-03	122	35	0	19922944	60	9368
2026-01-06 15:24:46.30	21.18	3.78	-46.3	-52.8	5.6	3.73e-02	122	35	0	23068672	60	15302
2026-01-06 15:24:47.31	21.16	3.85	-46.9	-57.7	3.7	1.50e+00	0	35	104	23068672	60	26840
2026-01-06 15:24:48.31	21.14	3.92	-45.5	-50.9	4.7	1.50e+00	0	35	104	23068672	60	12251
2026-01-06 15:24:49.32	21.12	3.99	-47.0	-58.9	3.6	1.51e+00	0	35	104	23068672	60	30777
2026-01-06 15:24:50.33	21.10	4.05	-39.3	-41.1	16.8	1.24e+00	123	35	104	23068672	48	7938
2026-01-06 15:24:51.34	21.08	4.12	-47.1	-59.0	3.5	1.50e+00	0	35	104	23068672	60	31301
2026-01-06 15:24:52.35	21.06	4.19	-37.2	-38.4	20.7	0.00e+00	122	35	0	25165824	48	5809
2026-01-06 15:24:53.36	21.04	4.26	-37.2	-38.3	20.7	0.00e+00	122	35	0	28311552	48	5775
2026-01-06 15:24:54.37	21.02	4.33	-37.2	-38.3	20.7	0.00e+00	122	35	0	31457280	48	5759
2026-01-06 15:24:55.38	21.00	4.40	-37.1	-38.3	20.8	0.00e+00	120	35	0	34603008	48	5726
2026-01-06 15:24:56.39	20.98	4.47	-37.1	-38.3	20.8	0.00e+00	123	35	0	37748736	48	5726
2026-01-06 15:24:57.40	20.96	4.54	-37.1	-38.2	20.8	0.00e+00	122	35	0	40894464	48	5711
2026-01-06 15:24:58.41	20.94	4.61	-37.0	-38.1	20.9	0.00e+00	122	35	0	44040192	48	5625
2026-01-06 15:24:59.42	20.92	4.68	-36.9	-38.1	21.0	0.00e+00	123	35	0	47185920	48	5607
2026-01-06 15:25:00.43	20.89	4.75	-36.9	-38.0	21.0	0.00e+00	122	35	0	50331648	48	5563
2026-01-06 15:25:01.44	20.87	4.82	-36.8	-37.9	21.2	0.00e+00	122	35	0	53477376	48	5509
2026-01-06 15:25:02.45	20.85	4.89	-36.9	-38.0	21.1	0.00e+00	123	35	0	56623104	46	6221
2026-01-06 15:25:03.45	20.83	4.96	-36.9	-38.0	21.2	0.00e+00	123	35	0	59768832	46	6260
2026-01-06 15:25:04.46	20.81	5.03	-36.9	-38.0	21.1	0.00e+00	123	35	0	62914560	46	6215
2026-01-06 15:25:05.47	20.79	5.10	-36.8	-37.8	21.2	0.00e+00	120	35	0	66060288	46	6133
2026-01-06 15:25:06.48	20.76	5.18	-36.7	-37.8	21.3	0.00e+00	123	35	0	69206016	46	6101
2026-01-06 15:25:07.49	20.74	5.25	-36.7	-37.7	21.3	0.00e+00	122	35	0	72351744	46	6064
2026-01-06 15:25:08.50	20.72	5.32	-36.6	-37.7	21.4	0.00e+00	123	35	0	75497472	46	6030
2026-01-06 15:25:09.51	20.70	5.39	-36.6	-37.7	21.4	0.00e+00	123	35	0	78643200	46	6041
2026-01-06 15:25:10.52	20.68	5.46	-36.7	-37.7	21.4	0.00e+00	122	35	0	81788928	46	6055
2026-01-06 15:25:11.53	20.65	5.54	-36.6	-37.6	21.5	0.00e+00	121	35	0	84934656	46	5990
2026-01-06 15:25:12.54	20.63	5.61	-36.6	-37.7	21.5	0.00e+00	122	35	0	88080384	46	6031
2026-01-06 15:25:13.55	20.61	5.68	-36.6	-37.6	21.5	0.00e+00	123	35	0	91226112	46	5972
2026-01-06 15:25:14.56	20.58	5.75	-36.7	-37.7	21.4	0.00e+00	123	35	0	94371840	46	6056
2026-01-06 15:25:15.57	20.56	5.83	-36.7	-37.8	21.4	0.00e+00	122	35	0	97517568	46	6066
2026-01-06 15:25:16.58	20.54	5.90	-36.7	-37.7	21.4	0.00e+00	123	35	0	100663296	46	6061
2026-01-06 15:25:17.59	20.51	5.97	-36.4	-37.4	21.7	0.00e+00	123	35	0	103809024	46	5857
2026-01-06 15:25:18.60	20.49	6.05	-36.4	-37.5	21.7	0.00e+00	122	35	0	106954752	46	5868
2026-01-06 15:25:19.61	20.47	6.12	-36.5	-37.6	21.6	0.00e+00	120	35	0	110100480	46	5945
2026-01-06 15:25:20.62	20.44	6.20	-36.4	-37.4	21.7	0.00e+00	123	35	0	113246208	46	5836
2026-01-06 15:25:21.63	20.42	6.27	-36.3	-37.3	21.9	0.00e+00	123	35	0	116391936	46	5771
2026-01-06 15:25:22.64	20.40	6.35	-36.4	-37.4	21.7	0.00e+00	122	35	0	119537664	46	5836
2026-01-06 15:25:23.65	20.37	6.42	-36.4	-37.5	21.7	0.00e+00	122	35	0	122683392	46	5874
2026-01-06 15:25:24.66	20.35	6.49	-36.2	-37.2	21.9	0.00e+00	122	35	0	125829120	46	5724
2026-01-06 15:25:25.67	20.32	6.57	-36.2	-37.2	21.9	0.00e+00	120	35	0	128974848	46	5711
2026-01-06 15:25:26.68	20.30	6.65	-36.3	-37.3	21.8	0.00e+00	123	35	0	132120576	46	5790
2026-01-06 15:25:27.69	20.27	6.72	-36.2	-37.2	21.9	0.00e+00	120	35	0	135266304	46	5724
2026-01-06 15:25:28.70	20.25	6.80	-36.1	-37.1	22.1	0.00e+00	123	35	0	138412032	46	5648
2026-01-06 15:25:29.71	20.22	6.87	-36.2	-37.3	21.9	0.00e+00	123	35	0	141557760	46	5743
2026-01-06 15:25:30.72	20.20	6.95	-36.2	-37.3	21.9	0.00e+00	123	35	0	144703488	46	5735
2026-01-06 15:25:31.72	20.17	7.03	-36.2	-37.2	22.0	0.00e+00	120	35	0	147849216	46	5725
2026-01-06 15:25:32.73	20.15	7.10	-36.0	-37.1	22.1	0.00e+00	123	35	0	150994944	46	5609
2026-01-06 15:25:33.74	20.12	7.18	-36.2	-37.2	22.0	0.00e+00	123	35	0	154140672	46	5690
2026-01-06 15:25:34.75	20.09	7.26	-36.0	-37.0	22.3	0.00e+00	123	35	0	157286400	46	5591
2026-01-06 15:25:35.76	20.07	7.33	-36.0	-37.1	22.2	0.00e+00	123	35	0	160432128	46	5618
2026-01-06 15:25:36.77	20.04	7.41	-36.0	-37.0	22.2	0.00e+00	121	35	0	163577856	46	5553
2026-01-06 15:25:37.78	20.02	7.49	-36.0	-37.0	22.3	0.00e+00	123	35	0	166723584	46	5591
2026-01-06 15:25:38.79	19.99	7.57	-35.9	-37.0	22.3	0.00e+00	123	35	0	169869312	46	5536
2026-01-06 15:25:39.80	19.96	7.65	-36.0	-37.0	22.3	0.00e+00	123	35	0	173015040	46	5544
2026-01-06 15:25:40.81	19.94	7.72	-35.8	-36.8	22.4	0.00e+00	122	35	0	176160768	46	5460
2026-01-06 15:25:41.82	19.91	7.80	-35.9	-36.9	22.3	0.00e+00	123	35	0	179306496	46	5529
2026-01-06 15:25:42.83	19.88	7.88	-35.9	-36.9	22.4	0.00e+00	120	35	0	182452224	46	5482
2026-01-06 15:25:43.84	19.85	7.96	-35.6	-36.6	22.5	0.00e+00	123	35	0	185597952	44	5987
2026-01-06 15:25:44.85	19.83	8.04	-35.8	-36.8	22.5	0.00e+00	120	35	0	188743680	44	6068
2026-01-06 15:25:45.86	19.80	8.12	-35.7	-36.7	22.5	0.00e+00	122	35	0	191889408	44	6006
2026-01-06 15:25:46.86	19.77	8.20	-35.7	-36.7	22.5	0.00e+00	121	35	0	195035136	44	6044
2026-01-06 15:25:47.87	19.74	8.28	-35.7	-36.7	22.6	0.00e+00	123	35	0	198180864	44	6039
2026-01-06 15:25:48.88	19.71	8.36	-35.5	-36.5	22.7	0.00e+00	123	35	0	201326592	44	5900
2026-01-06 15:25:49.89	19.69	8.44	-35.5	-36.5	22.7	0.00e+00	118	35	0	204472320	44	5919
2026-01-06 15:25:50.90	19.66	8.52	-35.5	-36.5	22.7	0.00e+00	123	35	0	207618048	44	5908
2026-01-06 15:25:51.91	19.63	8.60	-35.5	-36.5	22.7	0.00e+00	121	35	0	210763776	44	5887
2026-01-06 15:25:52.92	19.60	8.69	-35.5	-36.5	22.7	0.00e+00	123	35	0	213909504	44	5914
2026-01-06 15:25:53.93	19.57	8.77	-35.4	-36.4	22.8	0.00e+00	123	35	0	217055232	44	5831
2026-01-06 15:25:54.94	19.54	8.85	-35.4	-36.4	22.8	0.00e+00	120	35	0	220200960	44	5810
2026-01-06 15:25:55.95	19.51	8.93	-35.4	-36.3	22.8	0.00e+00	120	35	0	223346688	44	5790
2026-01-06 15:25:56.96	19.48	9.01	-35.4	-36.4	22.9	0.00e+00	120	35	0	226492416	44	5813
2026-01-06 15:25:57.97	19.45	9.10	-35.2	-36.2	23.0	0.00e+00	123	36	0	229638144	44	5689
2026-01-06 15:25:58.98	19.42	9.18	-35.4	-36.4	22.8	0.00e+00	123	35	0	232783872	44	5831
2026-01-06 15:25:59.99	19.39	9.26	-35.5	-36.5	22.7	0.00e+00	122	35	0	235929600	44	5902
2026-01-06 15:26:01.00	19.36	9.35	-35.4	-36.3	22.9	0.00e+00	120	35	0	239075328	44	5787
2026-01-06 15:26:02.01	19.33	9.43	-35.4	-36.4	22.8	0.00e+00	123	35	0	242221056	44	5797
2026-01-06 15:26:03.01	19.30	9.51	-35.3	-36.3	23.0	0.00e+00	120	35	0	245366784	44	5747
2026-01-06 15:26:04.02	19.27	9.60	-35.3	-36.2	22.9	0.00e+00	122	36	0	248512512	44	5722
2026-01-06 15:26:05.03	19.24	9.68	-35.3	-36.3	23.0	0.00e+00	120	35	0	251658240	44	5766
2026-01-06 15:26:06.04	19.20	9.77	-35.3	-36.3	22.9	0.00e+00	123	35	0	254803968	44	5751
2026-01-06 15:26:07.05	19.17	9.85	-35.2	-36.2	23.1	0.00e+00	120	35	0	257949696	44	5661
2026-01-06 15:26:08.06	19.14	9.94	-35.4	-36.4	23.0	0.00e+00	123	35	0	261095424	44	5834
2026-01-06 15:26:09.07	19.11	10.03	-35.3	-36.2	23.0	0.00e+00	123	35	0	264241152	44	5706
2026-01-06 15:26:10.08	19.07	10.11	-35.3	-36.2	23.0	0.00e+00	123	35	0	267386880	44	5722
2026-01-06 15:26:11.09	19.04	10.20	-35.2	-36.2	23.1	0.00e+00	120	35	0	270532608	44	5667
2026-01-06 15:26:12.10	19.01	10.29	-34.9	-35.9	23.3	0.00e+00	122	35	0	273678336	44	5472
2026-01-06 15:26:13.11	18.98	10.37	-34.9	-35.9	23.3	0.00e+00	123	35	0	276824064	44	5503
2026-01-06 15:26:14.12	18.94	10.46	-34.7	-35.6	23.4	0.00e+00	122	35	0	279969792	42	5988
2026-01-06 15:26:15.13	18.91	10.55	-34.8	-35.8	23.3	0.00e+00	120	35	0	283115520	42	6078
2026-01-06 15:26:16.14	18.88	10.64	-34.8	-35.7	23.4	0.00e+00	122	35	0	286261248	42	6037
2026-01-06 15:26:17.15	18.84	10.72	-34.7	-35.6	23.5	0.00e+00	123	35	0	289406976	42	5954
2026-01-06 15:26:18.16	18.81	10.81	-34.7	-35.7	23.5	0.00e+00	123	35	0	292552704	42	6025
2026-01-06 15:26:19.17	18.77	10.90	-34.6	-35.6	23.5	0.00e+00	122	35	0	295698432	42	5928
2026-01-06 15:26:20.18	18.74	10.99	-34.6	-35.6	23.5	0.00e+00	120	35	0	298844160	42	5942
2026-01-06 15:26:21.19	18.70	11.08	-34.6	-35.6	23.5	0.00e+00	123	36	0	301989888	42	5958
2026-01-06 15:26:22.20	18.67	11.17	-34.6	-35.5	23.6	0.00e+00	123	36	0	305135616	42	5894
2026-01-06 15:26:23.21	18.63	11.26	-34.7	-35.6	23.6	0.00e+00	122	36	0	308281344	42	5958
2026-01-06 15:26:24.22	18.60	11.35	-34.7	-35.6	23.6	0.00e+00	123	36	0	311427072	42	5975
2026-01-06 15:26:25.23	18.56	11.44	-34.4	-35.4	23.8	0.00e+00	123	36	0	314572800	42	5796
2026-01-06 15:26:26.24	18.52	11.53	-34.5	-35.4	23.8	0.00e+00	120	36	0	317718528	42	5842
2026-01-06 15:26:27.25	18.49	11.62	-34.5	-35.4	23.7	0.00e+00	123	35	0	320864256	42	5814
2026-01-06 15:26:28.26	18.45	11.71	-34.4	-35.4	23.8	0.00e+00	120	35	0	324009984	42	5812
2026-01-06 15:26:29.27	18.41	11.81	-34.5	-35.4	23.8	0.00e+00	123	35	0	327155712	42	5821
2026-01-06 15:26:30.28	18.38	11.90	-34.4	-35.3	23.9	0.00e+00	123	35	0	330301440	42	5743
2026-01-06 15:26:31.29	18.34	11.99	-34.3	-35.2	23.9	0.00e+00	123	35	0	333447168	42	5685
2026-01-06 15:26:32.30	18.30	12.09	-34.4	-35.3	23.8	0.00e+00	123	36	0	336592896	42	5791
2026-01-06 15:26:33.31	18.26	12.18	-34.3	-35.2	23.9	0.00e+00	123	36	0	339738624	42	5719
2026-01-06 15:26:34.32	18.23	12.27	-34.4	-35.3	23.9	0.00e+00	121	35	0	342884352	42	5748
2026-01-06 15:26:35.33	18.19	12.37	-34.4	-35.4	23.8	0.00e+00	123	36	0	346030080	42	5802
2026-01-06 15:26:36.34	18.15	12.46	-34.5	-35.4	23.8	0.00e+00	120	36	0	349175808	42	5823
2026-01-06 15:26:37.34	18.11	12.55	-34.2	-35.1	24.0	0.00e+00	123	36	0	352321536	42	5624
2026-01-06 15:26:38.35	18.07	12.65	-34.2	-35.1	24.1	0.00e+00	122	36	0	355467264	42	5611
2026-01-06 15:26:39.36	18.03	12.75	-34.3	-35.2	24.0	0.00e+00	123	35	0	358612992	42	5676
2026-01-06 15:26:40.37	17.99	12.84	-34.2	-35.1	24.0	0.00e+00	120	35	0	362807296	42	5625
2026-01-06 15:26:41.38	17.95	12.94	-34.2	-35.0	24.1	0.00e+00	122	36	0	365953024	42	5594
2026-01-06 15:26:42.39	17.91	13.03	-34.2	-35.1	24.1	0.00e+00	123	35	0	369098752	42	5654
2026-01-06 15:26:43.40	17.87	13.13	-34.2	-35.1	24.1	0.00e+00	123	35	0	371195904	42	5607
2026-01-06 15:26:44.41	17.83	13.23	-34.1	-35.0	24.2	0.00e+00	123	36	0	374341632	42	5556
2026-01-06 15:26:45.42	17.79	13.33	-34.3	-35.2	24.0	0.00e+00	120	35	0	378535936	42	5686
2026-01-06 15:26:46.43	17.75	13.42	-34.1	-35.0	24.2	0.00e+00	123	36	0	381681664	42	5535
2026-01-06 15:26:47.44	17.70	13.52	-34.1	-35.0	24.1	0.00e+00	123	36	0	384827392	42	5574
2026-01-06 15:26:48.45	17.66	13.62	-34.1	-35.0	24.1	0.00e+00	123	36	0	387973120	42	5589
2026-01-06 15:26:49.46	17.62	13.72	-34.1	-35.0	24.2	0.00e+00	122	35	0	391118848	42	5577
2026-01-06 15:26:50.47	17.58	13.82	-34.1	-35.1	24.1	0.00e+00	123	36	0	393216000	42	5601
2026-01-06 15:26:51.48	17.53	13.92	-34.1	-35.0	24.2	0.00e+00	121	36	0	397410304	42	5571
2026-01-06 15:26:52.49	17.49	14.02	-34.1	-35.0	24.1	0.00e+00	123	36	0	400556032	42	5539
2026-01-06 15:26:53.50	17.44	14.12	-34.0	-34.9	24.1	0.00e+00	123	36	0	403701760	42	5510
2026-01-06 15:26:54.51	17.40	14.22	-34.1	-35.0	24.1	0.00e+00	123	36	0	406847488	42	5586
2026-01-06 15:26:55.52	17.36	14.32	-34.1	-35.0	24.1	0.00e+00	123	36	0	409993216	42	5555
2026-01-06 15:26:56.52	17.31	14.43	-34.2	-35.1	24.1	0.00e+00	123	36	0	413138944	42	5634
2026-01-06 15:26:57.53	17.27	14.53	-34.2	-35.1	24.1	0.00e+00	123	36	0	416284672	42	5614
2026-01-06 15:26:58.54	17.22	14.63	-34.2	-35.1	24.0	0.00e+00	123	36	0	419430400	42	5624
2026-01-06 15:26:59.55	17.17	14.73	-34.2	-35.1	24.1	0.00e+00	120	36	0	422576128	42	5611
2026-01-06 15:27:00.56	17.13	14.84	-34.1	-35.1	24.1	0.00e+00	123	36	0	425721856	42	5596
2026-01-06 15:27:01.57	17.08	14.94	-34.2	-35.1	24.0	0.00e+00	122	36	0	428867584	42	5612
2026-01-06 15:27:02.58	17.03	15.05	-34.3	-35.2	24.0	0.00e+00	123	36	0	432013312	42	5692
2026-01-06 15:27:03.59	16.99	15.15	-34.1	-35.0	24.1	0.00e+00	120	36	0	435159040	42	5549
2026-01-06 15:27:04.60	16.94	15.26	-34.2	-35.1	24.0	0.00e+00	123	36	0	438304768	42	5634
2026-01-06 15:27:05.61	16.89	15.36	-34.1	-35.0	24.1	0.00e+00	123	36	0	441450496	42	5548
2026-01-06 15:27:06.62	16.84	15.47	-34.1	-35.0	24.0	0.00e+00	122	36	0	444596224	42	5577
2026-01-06 15:27:07.63	16.79	15.58	-34.1	-35.0	24.1	0.00e+00	122	36	0	447741952	42	5535
2026-01-06 15:27:08.64	16.75	15.68	-34.2	-35.1	24.0	0.00e+00	120	36	0	450887680	42	5646
2026-01-06 15:27:09.65	16.70	15.79	-34.1	-35.1	24.0	0.00e+00	123	36	0	454033408	42	5608
2026-01-06 15:27:10.65	16.65	15.90	-34.3	-35.2	23.9	0.00e+00	120	36	0	457179136	42	5725
2026-01-06 15:27:11.66	16.60	16.01	-34.2	-35.1	24.1	0.00e+00	123	35	0	460324864	42	5608
2026-01-06 15:27:12.67	16.55	16.12	-34.1	-35.0	24.1	0.00e+00	120	35	0	463470592	42	5590
2026-01-06 15:27:13.68	16.49	16.22	-34.1	-35.0	24.2	0.00e+00	122	36	0	466616320	42	5571
2026-01-06 15:27:14.69	16.44	16.33	-34.2	-35.1	24.1	0.00e+00	120	35	0	469762048	42	5626
2026-01-06 15:27:15.70	16.39	16.45	-34.3	-35.2	24.1	0.00e+00	122	36	0	472907776	42	5677
2026-01-06 15:27:16.71	16.34	16.56	-34.3	-35.2	24.1	0.00e+00	120	36	0	476053504	42	5696
2026-01-06 15:27:17.72	16.29	16.67	-34.3	-35.2	24.0	0.00e+00	122	36	0	479199232	42	5700
2026-01-06 15:27:18.73	16.23	16.78	-34.3	-35.2	24.0	0.00e+00	120	35	0	482344960	42	5714
2026-01-06 15:27:19.74	16.18	16.89	-34.4	-35.3	23.9	0.00e+00	123	36	0	485490688	42	5747
2026-01-06 15:27:20.75	16.12	17.00	-34.2	-35.2	24.1	0.00e+00	120	36	0	488636416	42	5664
2026-01-06 15:27:21.76	16.07	17.12	-34.2	-35.1	24.1	0.00e+00	123	36	0	491782144	42	5653
2026-01-06 15:27:22.77	16.02	17.23	-34.3	-35.2	24.0	0.00e+00	123	36	0	494927872	42	5714
2026-01-06 15:27:23.78	15.96	17.35	-34.2	-35.1	24.1	0.00e+00	122	35	0	498073600	42	5615
2026-01-06 15:27:24.79	15.90	17.46	-34.3	-35.2	24.1	0.00e+00	120	36	0	501219328	42	5679
2026-01-06 15:27:25.80	15.85	17.58	-34.2	-35.1	24.2	0.00e+00	123	36	0	504365056	42	5612
2026-01-06 15:27:26.81	15.79	17.69	-34.3	-35.3	24.1	0.00e+00	123	35	0	507510784	42	5728
2026-01-06 15:27:27.82	15.73	17.81	-34.1	-35.0	24.2	0.00e+00	123	35	0	510656512	42	5568
2026-01-06 15:27:28.82	15.68	17.92	-34.1	-35.0	24.2	0.00e+00	120	35	0	513802240	42	5562
2026-01-06 15:27:29.83	15.62	18.04	-34.1	-35.0	24.3	0.00e+00	123	36	0	516947968	42	5551
2026-01-06 15:27:30.84	15.56	18.16	-34.2	-35.1	24.2	0.00e+00	120	36	0	520093696	42	5601
2026-01-06 15:27:31.85	15.50	18.28	-34.2	-35.1	24.1	0.00e+00	122	36	0	523239424	42	5654
2026-01-06 15:27:32.86	15.44	18.40	-34.2	-35.1	24.2	0.00e+00	123	35	0	526385152	42	5600
2026-01-06 15:27:33.87	15.38	18.52	-34.2	-35.1	24.2	0.00e+00	122	35	0	529530880	42	5623
2026-01-06 15:27:34.88	15.32	18.64	-34.2	-35.1	24.1	0.00e+00	122	36	0	532676608	42	5627
2026-01-06 15:27:35.89	15.26	18.76	-34.2	-35.1	24.1	0.00e+00	123	36	0	535822336	42	5625
2026-01-06 15:27:36.90	15.20	18.88	-34.3	-35.2	24.1	0.00e+00	121	35	0	538968064	42	5677
2026-01-06 15:27:37.91	15.14	19.00	-34.2	-35.1	24.1	0.00e+00	120	36	0	542113792	42	5643
2026-01-06 15:27:38.92	15.07	19.12	-34.2	-35.2	24.0	0.00e+00	123	36	0	545259520	42	5661
2026-01-06 15:27:39.93	15.01	19.24	-34.2	-35.1	24.0	0.00e+00	122	36	0	548405248	42	5648
2026-01-06 15:27:40.94	14.95	19.37	-34.1	-35.0	24.2	0.00e+00	122	36	0	551550976	42	5549
2026-01-06 15:27:41.95	14.88	19.49	-34.2	-35.1	24.1	0.00e+00	120	36	0	554696704	42	5618
2026-01-06 15:27:42.96	14.82	19.62	-34.1	-35.0	24.2	0.00e+00	123	36	0	557842432	42	5543
2026-01-06 15:27:43.97	14.75	19.74	-34.1	-35.0	24.1	0.00e+00	122	36	0	560988160	42	5575
2026-01-06 15:27:44.98	14.69	19.87	-34.1	-35.0	24.1	0.00e+00	122	36	0	564133888	42	5594
2026-01-06 15:27:45.99	14.62	19.99	-34.0	-34.9	24.1	0.00e+00	120	36	0	567279616	42	5489
2026-01-06 15:27:47.00	14.55	20.12	-34.1	-35.0	24.0	0.00e+00	122	36	0	570425344	42	5549
2026-01-06 15:27:48.01	14.48	20.25	-33.9	-34.8	24.3	0.00e+00	120	36	0	573571072	42	5450
2026-01-06 15:27:49.02	14.42	20.38	-34.0	-34.9	24.2	0.00e+00	123	36	0	576716800	42	5496
2026-01-06 15:27:50.03	14.35	20.51	-33.8	-34.7	24.4	0.00e+00	121	35	0	579862528	42	5383
2026-01-06 15:27:51.04	14.28	20.64	-33.7	-34.6	24.3	0.00e+00	122	36	0	583008256	40	5965
2026-01-06 15:27:52.05	14.21	20.77	-33.7	-34.6	24.4	0.00e+00	120	36	0	586153984	40	5964
2026-01-06 15:27:53.06	14.14	20.90	-33.6	-34.5	24.5	0.00e+00	123	36	0	589299712	40	5876
2026-01-06 15:27:54.06	14.07	21.03	-33.6	-34.5	24.4	0.00e+00	123	35	0	592445440	40	5908
2026-01-06 15:27:55.07	13.99	21.16	-33.8	-34.7	24.4	0.00e+00	122	36	0	595591168	40	6034
2026-01-06 15:27:56.08	13.92	21.29	-33.3	-34.2	24.8	0.00e+00	123	36	0	598736896	40	5715
2026-01-06 15:27:57.09	13.85	21.42	-33.3	-34.2	24.7	0.00e+00	122	36	0	601882624	40	5690
2026-01-06 15:27:58.10	13.77	21.56	-33.3	-34.1	24.9	0.00e+00	120	36	0	605028352	40	5659
2026-01-06 15:27:59.11	13.70	21.69	-33.3	-34.1	24.9	0.00e+00	123	36	0	608174080	40	5648
2026-01-06 15:28:00.12	13.62	21.83	-33.2	-34.0	25.0	0.00e+00	121	36	0	611319808	40	5594
2026-01-06 15:28:01.13	13.55	21.96	-33.0	-33.9	25.0	0.00e+00	122	36	0	614465536	40	5501
2026-01-06 15:28:02.14	13.47	22.10	-33.0	-33.9	25.1	0.00e+00	120	36	0	617611264	40	5486
2026-01-06 15:28:03.15	13.39	22.24	-33.0	-33.8	25.1	0.00e+00	123	36	0	620756992	40	5464
2026-01-06 15:28:04.16	13.31	22.37	-32.8	-33.7	25.1	0.00e+00	123	36	0	623902720	40	5384
2026-01-06 15:28:05.17	13.23	22.51	-32.9	-33.7	25.1	0.00e+00	122	36	0	627048448	40	5393
2026-01-06 15:28:06.18	13.15	22.65	-32.9	-33.7	25.1	0.00e+00	122	36	0	630194176	40	5394
2026-01-06 15:28:07.18	13.08	22.79	-32.7	-33.6	25.4	0.00e+00	123	36	0	633339904	38	5953
2026-01-06 15:28:08.19	12.99	22.93	-32.7	-33.6	25.2	0.00e+00	123	36	0	636485632	38	5964
2026-01-06 15:28:09.20	12.91	23.07	-32.8	-33.7	25.2	0.00e+00	123	36	0	639631360	38	5998
2026-01-06 15:28:10.21	12.83	23.22	-32.7	-33.6	25.2	0.00e+00	122	36	0	642777088	38	5954
2026-01-06 15:28:11.22	12.75	23.36	-32.8	-33.6	25.2	0.00e+00	122	36	0	645922816	38	5967
2026-01-06 15:28:12.23	12.66	23.50	-32.8	-33.6	25.3	0.00e+00	123	36	0	649068544	38	5974
2026-01-06 15:28:13.24	12.58	23.65	-32.8	-33.7	25.2	0.00e+00	122	36	0	652214272	38	6022
2026-01-06 15:28:14.25	12.49	23.79	-32.6	-33.5	25.3	0.00e+00	123	36	0	655360000	38	5885
2026-01-06 15:28:15.26	12.40	23.94	-32.7	-33.5	25.2	0.00e+00	123	36	0	658505728	38	5910
2026-01-06 15:28:16.27	12.31	24.08	-32.6	-33.5	25.3	0.00e+00	123	36	0	661651456	38	5888
2026-01-06 15:28:17.28	12.23	24.23	-32.8	-33.7	25.1	0.00e+00	123	36	0	664797184	38	6039
2026-01-06 15:28:18.29	12.14	24.38	-32.8	-33.6	25.2	0.00e+00	123	36	0	667942912	38	5991
2026-01-06 15:28:19.30	12.05	24.53	-32.9	-33.7	25.1	0.00e+00	123	36	0	671088640	38	6059
2026-01-06 15:28:20.30	11.96	24.67	-32.9	-33.8	25.1	0.00e+00	123	36	0	674234368	38	6071
2026-01-06 15:28:21.32	11.86	24.83	-33.2	-34.1	24.9	0.00e+00	122	36	0	677380096	38	6279
2026-01-06 15:28:22.32	11.77	24.98	-33.0	-33.9	25.1	0.00e+00	122	36	0	680525824	38	6142
2026-01-06 15:28:23.34	11.68	25.13	-33.2	-34.0	25.0	0.00e+00	122	36	0	683671552	38	6255
2026-01-06 15:28:24.34	11.58	25.28	-33.1	-33.9	24.9	0.00e+00	123	36	0	686817280	38	6191
2026-01-06 15:28:25.35	11.49	25.43	-33.2	-34.0	24.9	0.00e+00	123	36	0	689963008	38	6263
2026-01-06 15:28:26.36	11.39	25.59	-33.3	-34.2	24.8	0.00e+00	123	36	0	693108736	38	6369
2026-01-06 15:28:27.37	11.29	25.74	-33.5	-34.3	24.7	0.00e+00	123	36	0	696254464	38	6473
2026-01-06 15:28:28.38	11.19	25.90	-33.4	-34.3	24.8	0.00e+00	123	36	0	699400192	38	6457
2026-01-06 15:28:29.39	11.09	26.06	-33.5	-34.4	24.6	0.00e+00	123	36	0	702545920	38	6561
2026-01-06 15:28:30.40	10.99	26.21	-33.5	-34.4	24.6	0.00e+00	122	36	0	705691648	38	6554
2026-01-06 15:28:31.41	10.89	26.37	-33.7	-34.6	24.6	0.00e+00	123	36	0	708837376	38	6686
2026-01-06 15:28:32.42	10.79	26.53	-33.8	-34.7	24.5	0.00e+00	123	36	0	711983104	40	6043
2026-01-06 15:28:33.42	10.68	26.69	-34.0	-34.9	24.3	0.00e+00	122	36	0	715128832	40	6154
2026-01-06 15:28:34.43	10.58	26.85	-34.1	-35.1	24.2	0.00e+00	122	36	0	718274560	40	6280
2026-01-06 15:28:35.45	10.47	27.01	-34.3	-35.2	24.1	0.00e+00	123	36	0	721420288	40	6408
2026-01-06 15:28:36.45	10.36	27.17	-34.4	-35.3	24.1	0.00e+00	123	36	0	724566016	40	6453
2026-01-06 15:28:37.46	10.26	27.34	-34.3	-35.2	24.2	0.00e+00	122	36	0	727711744	40	6374
2026-01-06 15:28:38.47	10.15	27.50	-34.4	-35.3	24.1	0.00e+00	123	36	0	731906048	40	6458
2026-01-06 15:28:39.48	10.04	27.67	-34.3	-35.2	24.2	0.00e+00	122	36	0	734003200	40	6423
2026-01-06 15:28:40.50	9.92	27.83	-34.4	-35.3	24.1	0.00e+00	122	36	0	737148928	40	6456
2026-01-06 15:28:41.50	9.81	28.00	-34.2	-35.1	24.2	0.00e+00	123	36	0	740294656	40	6339
2026-01-06 15:28:42.51	9.70	28.17	-34.4	-35.3	24.1	0.00e+00	123	36	0	743440384	40	6436
2026-01-06 15:28:43.52	9.58	28.34	-34.3	-35.2	24.2	0.00e+00	123	36	0	747634688	40	6421
2026-01-06 15:28:44.53	9.46	28.51	-34.3	-35.2	24.2	0.00e+00	120	36	0	750780416	40	6356
2026-01-06 15:28:45.54	9.34	28.68	-34.3	-35.2	24.1	0.00e+00	123	36	0	753926144	40	6415
2026-01-06 15:28:46.55	9.22	28.85	-34.3	-35.2	24.3	0.00e+00	122	36	0	757071872	40	6361
2026-01-06 15:28:47.56	9.10	29.02	-34.4	-35.3	24.2	0.00e+00	123	36	0	759169024	40	6435
2026-01-06 15:28:48.56	8.98	29.19	-34.4	-35.3	24.0	0.00e+00	122	36	0	762314752	40	6451
2026-01-06 15:28:49.57	8.86	29.36	-34.1	-35.0	24.3	0.00e+00	122	36	0	766509056	40	6220
2026-01-06 15:28:50.58	8.73	29.54	-34.1	-35.0	24.3	0.00e+00	123	36	0	769654784	40	6241
2026-01-06 15:28:51.59	8.61	29.72	-34.0	-34.9	24.5	0.00e+00	123	36	0	772800512	40	6190
2026-01-06 15:28:52.60	8.48	29.89	-34.0	-34.9	24.5	0.00e+00	121	36	0	775946240	40	6153
2026-01-06 15:28:53.61	8.35	30.07	-34.0	-34.9	24.5	0.00e+00	122	36	0	779091968	40	6164
2026-01-06 15:28:54.62	8.22	30.25	-33.8	-34.7	24.7	0.00e+00	120	36	0	782237696	40	6025
2026-01-06 15:28:55.63	8.09	30.43	-33.7	-34.6	24.7	0.00e+00	122	36	0	785383424	40	5948
2026-01-06 15:28:56.64	7.95	30.61	-33.7	-34.6	24.8	0.00e+00	122	36	0	788529152	40	5927
2026-01-06 15:28:57.65	7.82	30.79	-33.4	-34.2	25.0	0.00e+00	122	36	0	791674880	40	5718
2026-01-06 15:28:58.66	7.68	30.97	-33.4	-34.2	25.0	0.00e+00	122	36	0	794820608	40	5722
2026-01-06 15:28:59.67	7.54	31.16	-33.1	-34.0	25.3	0.00e+00	122	36	0	797966336	40	5557
2026-01-06 15:29:00.68	7.40	31.34	-33.2	-34.1	25.2	0.00e+00	120	36	0	801112064	40	5601
2026-01-06 15:29:01.69	7.26	31.53	-33.2	-34.0	25.2	0.00e+00	122	36	0	804257792	40	5567
2026-01-06 15:29:02.70	7.12	31.71	-33.4	-34.2	25.0	0.00e+00	120	36	0	807403520	40	5711
2026-01-06 15:29:03.71	6.97	31.90	-33.4	-34.3	24.9	0.00e+00	123	36	0	810549248	40	5735
2026-01-06 15:29:04.72	6.82	32.09	-33.5	-34.3	24.9	0.00e+00	120	36	0	813694976	40	5773
2026-01-06 15:29:05.73	6.68	32.28	-33.7	-34.5	24.8	0.00e+00	123	36	0	816840704	40	5918
2026-01-06 15:29:06.74	6.53	32.47	-33.7	-34.6	24.7	0.00e+00	123	36	0	819986432	40	5961
2026-01-06 15:29:07.74	6.37	32.66	-33.8	-34.7	24.6	0.00e+00	123	36	0	823132160	40	6020
2026-01-06 15:29:08.75	6.22	32.85	-34.0	-34.8	24.5	0.00e+00	123	36	0	826277888	40	6131
2026-01-06 15:29:09.76	6.06	33.04	-34.2	-35.1	24.4	0.00e+00	123	36	0	829423616	40	6296
2026-01-06 15:29:10.77	5.91	33.24	-33.9	-34.8	24.6	0.00e+00	122	36	0	832569344	40	6130
2026-01-06 15:29:11.78	5.75	33.43	-34.0	-34.9	24.6	0.00e+00	123	36	0	835715072	40	6136
2026-01-06 15:29:12.79	5.59	33.63	-34.0	-34.9	24.5	0.00e+00	123	36	0	838860800	40	6158
2026-01-06 15:29:13.80	5.42	33.82	-34.1	-34.9	24.5	0.00e+00	122	36	0	842006528	40	6200
2026-01-06 15:29:14.81	5.26	34.02	-34.2	-35.1	24.4	0.00e+00	123	36	0	845152256	40	6285
2026-01-06 15:29:15.82	5.09	34.22	-34.2	-35.1	24.3	0.00e+00	123	36	0	848297984	40	6337
2026-01-06 15:29:16.83	4.92	34.42	-34.4	-35.3	24.2	0.00e+00	123	36	0	851443712	40	6444
2026-01-06 15:29:17.84	4.74	34.62	-34.5	-35.4	24.1	0.00e+00	123	36	0	854589440	40	6538
2026-01-06 15:29:18.85	4.57	34.82	-34.6	-35.5	23.9	0.00e+00	122	36	0	857735168	40	6646
2026-01-06 15:29:19.86	4.39	35.03	-34.9	-35.8	23.9	0.00e+00	123	36	0	860880896	42	6122
2026-01-06 15:29:20.87	4.21	35.23	-35.0	-36.0	23.7	0.00e+00	120	36	0	864026624	42	6221
2026-01-06 15:29:21.88	4.03	35.44	-35.3	-36.2	23.6	0.00e+00	122	36	0	867172352	42	6382
2026-01-06 15:29:22.89	3.85	35.64	-35.6	-36.6	23.2	0.00e+00	122	36	0	870318080	42	6658
2026-01-06 15:29:23.90	3.66	35.85	-35.7	-36.6	23.2	0.00e+00	122	36	0	873463808	42	6693
2026-01-06 15:29:24.91	3.48	36.06	-35.8	-36.8	23.0	0.00e+00	122	36	0	876609536	44	6080
2026-01-06 15:29:25.92	3.28	36.27	-35.9	-36.9	22.9	0.00e+00	120	36	0	879755264	44	6182
2026-01-06 15:29:26.93	3.09	36.48	-36.0	-37.0	22.9	0.00e+00	123	36	0	882900992	44	6245
2026-01-06 15:29:27.94	2.90	36.69	-35.8	-36.7	23.1	0.00e+00	122	36	0	886046720	44	6053
2026-01-06 15:29:28.95	2.70	36.90	-35.8	-36.8	23.0	0.00e+00	122	36	0	889192448	44	6076
2026-01-06 15:29:29.96	2.50	37.11	-35.7	-36.6	23.2	0.00e+00	123	36	0	892338176	44	5979
2026-01-06 15:29:30.97	2.29	37.33	-35.8	-36.8	23.1	0.00e+00	120	36	0	895483904	44	6069
2026-01-06 15:29:31.98	2.09	37.54	-35.6	-36.6	23.2	0.00e+00	123	36	0	898629632	44	5954
2026-01-06 15:29:32.99	1.88	37.76	-35.9	-36.9	23.0	0.00e+00	123	36	0	901775360	44	6137
2026-01-06 15:29:34.00	1.66	37.98	-35.8	-36.8	23.0	0.00e+00	123	36	0	904921088	44	6086
2026-01-06 15:29:35.01	1.45	38.19	-35.7	-36.7	23.1	0.00e+00	123	36	0	908066816	44	6017
2026-01-06 15:29:36.02	1.23	38.41	-35.7	-36.7	23.1	0.00e+00	122	36	0	911212544	44	6021
2026-01-06 15:29:37.03	1.01	38.63	-35.9	-36.8	23.0	0.00e+00	122	36	0	914358272	44	6134
2026-01-06 15:29:38.04	0.79	38.85	-35.9	-36.9	22.9	0.00e+00	122	36	0	917504000	44	6162
2026-01-06 15:29:39.05	0.56	39.07	-35.9	-36.9	22.9	0.00e+00	120	36	0	920649728	44	6176
2026-01-06 15:29:40.06	0.33	39.30	-35.9	-36.9	22.9	0.00e+00	122	36	0	923795456	44	6179
2026-01-06 15:29:41.07	0.09	39.52	-35.9	-36.8	23.1	0.00e+00	120	36	0	926941184	44	6129
2026-01-06 15:29:42.07	359.86	39.74	-35.9	-36.9	23.0	0.00e+00	122	36	0	930086912	44	6160
2026-01-06 15:29:43.08	359.62	39.97	-35.8	-36.7	23.1	0.00e+00	122	36	0	933232640	44	6034
2026-01-06 15:29:44.09	359.38	40.19	-35.6	-36.6	23.3	0.00e+00	122	36	0	936378368	44	5929
2026-01-06 15:29:45.10	359.13	40.42	-35.4	-36.3	23.4	0.00e+00	123	36	0	939524096	44	5791
2026-01-06 15:29:46.11	358.88	40.65	-35.2	-36.1	23.7	0.00e+00	123	36	0	942669824	44	5620
2026-01-06 15:29:47.12	358.62	40.88	-34.9	-35.8	23.9	0.00e+00	122	36	0	945815552	44	5412
2026-01-06 15:29:48.13	358.37	41.10	-34.9	-35.8	23.7	0.00e+00	123	36	0	948961280	42	6086
2026-01-06 15:29:49.14	358.10	41.33	-35.2	-36.2	23.3	0.00e+00	122	36	0	952107008	42	6359
2026-01-06 15:29:50.15	357.84	41.57	-35.6	-36.6	23.0	0.00e+00	122	36	0	955252736	42	6706
2026-01-06 15:29:51.16	357.57	41.80	-35.9	-36.9	22.9	0.00e+00	122	36	0	958398464	44	6139
2026-01-06 15:29:52.17	357.30	42.03	-36.1	-37.1	22.7	0.00e+00	122	36	0	961544192	44	6349
2026-01-06 15:29:53.18	357.02	42.26	-36.3	-37.3	22.7	0.00e+00	122	36	0	964689920	44	6444
2026-01-06 15:29:54.19	356.74	42.50	-36.5	-37.5	22.5	0.00e+00	122	36	0	967835648	44	6628
2026-01-06 15:29:55.20	356.45	42.73	-36.7	-37.8	22.3	0.00e+00	122	36	0	970981376	44	6819
2026-01-06 15:29:56.20	356.16	42.96	-37.0	-38.1	22.0	0.00e+00	123	36	0	974127104	46	6305
2026-01-06 15:29:57.21	355.87	43.20	-37.2	-38.3	21.9	0.00e+00	123	36	0	977272832	46	6469
2026-01-06 15:29:58.22	355.57	43.43	-37.2	-38.3	21.8	0.00e+00	123	36	0	980418560	46	6433
2026-01-06 15:29:59.23	355.27	43.67	-37.1	-38.1	21.9	0.00e+00	120	36	0	983564288	46	6334
2026-01-06 15:30:00.24	354.96	43.91	-36.8	-37.8	22.1	0.00e+00	122	36	0	986710016	46	6117
2026-01-06 15:30:01.25	354.65	44.15	-36.8	-37.8	22.3	0.00e+00	120	36	0	989855744	46	6082
2026-01-06 15:30:02.26	354.33	44.38	-36.8	-37.8	22.3	0.00e+00	122	36	0	993001472	46	6102
2026-01-06 15:30:03.26	354.01	44.62	-36.7	-37.8	22.3	0.00e+00	122	36	0	996147200	46	6075
2026-01-06 15:30:04.27	353.68	44.86	-36.3	-37.3	22.7	0.00e+00	123	36	0	999292928	46	5775
2026-01-06 15:30:05.29	353.35	45.10	-36.2	-37.1	22.8	0.00e+00	122	36	0	1002438656	46	5655
2026-01-06 15:30:06.30	353.01	45.34	-36.0	-37.0	23.0	0.00e+00	122	36	0	1005584384	46	5536
2026-01-06 15:30:07.30	352.67	45.58	-35.6	-36.6	23.3	0.00e+00	123	36	0	1008730112	44	5943
2026-01-06 15:30:08.31	352.33	45.82	-35.7	-36.6	23.2	0.00e+00	123	36	0	1011875840	44	5972
2026-01-06 15:30:09.32	351.97	46.06	-36.0	-37.0	22.8	0.00e+00	123	36	0	1015021568	44	6224
2026-01-06 15:30:10.33	351.62	46.30	-35.9	-36.9	22.9	0.00e+00	122	36	0	1018167296	44	6174
2026-01-06 15:30:11.34	351.25	46.54	-35.9	-36.9	23.0	0.00e+00	122	36	0	1021313024	44	6172
2026-01-06 15:30:12.35	350.88	46.78	-35.7	-36.6	23.2	0.00e+00	120	36	0	1024458752	44	5986
2026-01-06 15:30:13.36	350.51	47.03	-35.6	-36.6	23.1	0.00e+00	122	36	0	1027604480	44	5957
2026-01-06 15:30:14.38	350.12	47.27	-35.6	-36.5	23.0	0.00e+00	123	36	0	1030750208	44	5924
2026-01-06 15:30:15.38	349.74	47.51	-35.8	-36.8	22.8	0.00e+00	122	36	0	1033895936	44	6091
2026-01-06 15:30:16.39	349.34	47.75	-35.9	-36.9	22.6	0.00e+00	122	36	0	1037041664	44	6192
2026-01-06 15:30:17.40	348.95	47.99	-36.0	-37.0	22.7	0.00e+00	123	36	0	1040187392	44	6243
2026-01-06 15:30:18.42	348.54	48.23	-36.1	-37.1	22.6	0.00e+00	120	36	0	1043333120	44	6291
2026-01-06 15:30:19.43	348.12	48.47	-36.1	-37.1	22.3	0.00e+00	122	36	0	1046478848	44	6278
2026-01-06 15:30:20.44	347.70	48.71	-36.5	-37.6	22.0	0.00e+00	123	36	0	1049624576	44	6652
2026-01-06 15:30:21.44	347.28	48.95	-36.6	-37.6	21.8	0.00e+00	123	36	0	1052770304	44	6720
2026-01-06 15:30:22.45	346.85	49.19	-36.1	-37.1	22.3	0.00e+00	122	36	0	1055916032	44	6348
2026-01-06 15:30:23.46	346.41	49.43	-36.1	-37.1	22.3	0.00e+00	123	36	0	1059061760	44	6289
2026-01-06 15:30:24.47	345.97	49.67	-35.9	-36.8	22.8	0.00e+00	122	36	0	1062207488	44	6133
2026-01-06 15:30:25.48	345.51	49.91	-35.6	-36.6	23.0	0.00e+00	122	36	0	1065353216	44	5932
2026-01-06 15:30:26.49	345.05	50.14	-35.5	-36.4	23.2	0.00e+00	123	36	0	1068498944	44	5843
2026-01-06 15:30:27.50	344.58	50.38	-35.6	-36.6	22.9	0.00e+00	123	36	0	1071644672	44	5968
2026-01-06 15:30:28.51	344.11	50.61	-36.0	-37.0	22.8	0.00e+00	120	36	0	1074790400	44	6251
2026-01-06 15:30:29.52	343.63	50.85	-36.1	-37.1	22.6	0.00e+00	122	36	0	1077936128	44	6343
2026-01-06 15:30:30.53	343.14	51.08	-36.1	-37.1	22.9	0.00e+00	120	36	0	1081081856	44	6293
2026-01-06 15:30:31.54	342.64	51.31	-36.2	-37.3	22.6	0.00e+00	123	36	0	1084227584	44	6424
2026-01-06 15:30:32.54	342.14	51.54	-35.9	-36.9	23.0	0.00e+00	123	36	0	1087373312	44	6205
2026-01-06 15:30:33.56	341.62	51.78	-35.8	-36.8	23.1	0.00e+00	122	36	0	1090519040	44	6074
2026-01-06 15:30:34.56	341.10	52.00	-35.6	-36.5	23.3	0.00e+00	123	36	0	1093664768	44	5915
2026-01-06 15:30:35.57	340.57	52.23	-35.7	-36.6	23.4	0.00e+00	122	36	0	1097859072	44	5975
2026-01-06 15:30:36.58	340.04	52.45	-35.0	-35.9	23.8	0.00e+00	122	36	0	1099956224	44	5507
2026-01-06 15:30:37.59	339.49	52.68	-35.2	-36.1	23.5	0.00e+00	120	36	0	1103101952	44	5642
2026-01-06 15:30:38.60	338.93	52.90	-35.4	-36.4	23.2	0.00e+00	123	36	0	1106247680	44	5814
2026-01-06 15:30:39.61	338.37	53.12	-35.4	-36.4	23.3	0.00e+00	122	36	0	1109393408	44	5825
2026-01-06 15:30:40.62	337.80	53.34	-35.3	-36.3	23.4	0.00e+00	123	36	0	1113587712	44	5742
2026-01-06 15:30:41.63	337.22	53.56	-34.8	-35.8	23.8	0.00e+00	123	36	0	1116733440	42	6065
2026-01-06 15:30:42.64	336.63	53.77	-34.3	-35.3	23.9	0.00e+00	122	36	0	1119879168	42	5733
2026-01-06 15:30:43.64	336.04	53.98	-34.7	-35.6	23.7	0.00e+00	123	36	0	1121976320	42	5984
2026-01-06 15:30:44.65	335.43	54.19	-35.0	-36.0	23.5	0.00e+00	123	36	0	1125122048	42	6256
2026-01-06 15:30:45.66	334.82	54.40	-35.2	-36.2	23.5	0.00e+00	122	36	0	1128267776	42	6364
2026-01-06 15:30:46.67	334.19	54.60	-35.1	-36.0	23.7	0.00e+00	122	36	0	1131413504	42	6266
2026-01-06 15:30:47.68	333.56	54.80	-35.0	-35.9	23.6	0.00e+00	120	36	0	1135607808	42	6181
2026-01-06 15:30:48.68	332.92	55.00	-34.8	-35.8	23.4	0.00e+00	122	36	0	1138753536	42	6097
2026-01-06 15:30:49.69	332.27	55.20	-34.9	-35.9	23.2	0.00e+00	123	36	0	1141899264	42	6166
2026-01-06 15:30:50.70	331.61	55.39	-34.9	-35.9	23.5	0.00e+00	122	36	0	1145044992	42	6136
2026-01-06 15:30:51.71	330.94	55.58	-35.0	-36.0	23.6	0.00e+00	123	36	0	1147142144	42	6221
2026-01-06 15:30:52.72	330.26	55.77	-34.6	-35.5	24.0	0.00e+00	123	36	0	1151336448	42	5888
2026-01-06 15:30:53.73	329.57	55.95	-34.5	-35.4	24.1	0.00e+00	123	36	0	1154482176	42	5856
2026-01-06 15:30:54.74	328.87	56.13	-34.3	-35.2	24.3	0.00e+00	123	36	0	1157627904	42	5721
2026-01-06 15:30:55.75	328.17	56.31	-34.1	-35.0	24.5	0.00e+00	122	36	0	1160773632	42	5534
2026-01-06 15:30:56.76	327.45	56.48	-33.8	-34.6	24.7	0.00e+00	123	36	0	1163919360	42	5341
2026-01-06 15:30:57.77	326.73	56.65	-33.7	-34.6	24.8	0.00e+00	122	36	0	1167065088	40	5977
2026-01-06 15:30:58.78	326.00	56.81	-33.4	-34.2	25.0	0.00e+00	122	36	0	1170210816	40	5720
2026-01-06 15:30:59.79	325.25	56.98	-33.0	-33.9	25.2	0.00e+00	123	36	0	1173356544	40	5491
2026-01-06 15:31:00.80	324.50	57.13	-33.1	-33.9	25.1	0.00e+00	123	36	0	1176502272	40	5515
2026-01-06 15:31:01.81	323.74	57.28	-33.2	-34.1	25.0	0.00e+00	122	36	0	1179648000	40	5631
2026-01-06 15:31:02.82	322.98	57.43	-33.2	-34.0	25.0	0.00e+00	122	36	0	1182793728	40	5579
2026-01-06 15:31:03.83	322.20	57.58	-33.3	-34.2	24.7	0.00e+00	120	36	0	1185939456	40	5660
2026-01-06 15:31:04.84	321.42	57.71	-33.1	-34.0	25.0	0.00e+00	122	36	0	1189085184	40	5542
2026-01-06 15:31:05.85	320.63	57.85	-33.0	-33.9	24.9	0.00e+00	123	36	0	1192230912	40	5515
2026-01-06 15:31:06.86	319.83	57.98	-33.0	-33.9	25.0	0.00e+00	122	36	0	1195376640	40	5506
2026-01-06 15:31:07.87	319.02	58.10	-33.1	-33.9	25.0	0.00e+00	122	36	0	1198522368	40	5519
2026-01-06 15:31:08.87	318.21	58.22	-33.5	-34.4	24.5	0.00e+00	122	36	0	1201668096	40	5856
2026-01-06 15:31:09.88	317.39	58.33	-33.5	-34.4	24.7	0.00e+00	122	36	0	1204813824	40	5823
2026-01-06 15:31:10.89	316.56	58.44	-33.6	-34.5	24.7	0.00e+00	123	36	0	1207959552	40	5877
2026-01-06 15:31:11.90	315.73	58.54	-33.4	-34.3	24.9	0.00e+00	120	36	0	1211105280	40	5746
2026-01-06 15:31:12.91	314.88	58.64	-33.6	-34.5	24.8	0.00e+00	122	36	0	1214251008	40	5868
2026-01-06 15:31:13.92	314.04	58.73	-33.7	-34.6	24.6	0.00e+00	120	36	0	1217396736	40	5985
2026-01-06 15:31:14.93	313.18	58.81	-33.6	-34.5	24.8	0.00e+00	122	36	0	1220542464	40	5888
2026-01-06 15:31:15.94	312.32	58.89	-33.4	-34.3	24.5	0.00e+00	122	36	0	1223688192	40	5773
2026-01-06 15:31:16.95	311.46	58.97	-33.4	-34.3	24.4	0.00e+00	123	36	0	1226833920	40	5763
2026-01-06 15:31:17.96	310.59	59.04	-33.5	-34.4	24.2	0.00e+00	122	36	0	1229979648	40	5833
2026-01-06 15:31:18.97	309.72	59.10	-33.5	-34.4	24.4	0.00e+00	123	36	0	1233125376	40	5820
2026-01-06 15:31:19.98	308.84	59.15	-33.5	-34.4	24.4	0.00e+00	123	36	0	1236271104	40	5805
2026-01-06 15:31:20.99	307.96	59.20	-33.6	-34.6	23.9	0.00e+00	122	36	0	1239416832	40	5948
2026-01-06 15:31:22.00	307.08	59.25	-33.7	-34.7	24.4	0.00e+00	122	36	0	1242562560	40	6001
2026-01-06 15:31:23.01	306.19	59.28	-33.9	-34.8	24.5	0.00e+00	120	36	0	1245708288	40	6082
2026-01-06 15:31:24.02	305.30	59.31	-33.7	-34.6	24.6	0.00e+00	122	36	0	1248854016	40	5931
2026-01-06 15:31:25.03	304.41	59.34	-33.8	-34.7	24.3	0.00e+00	120	36	0	1251999744	40	6045
2026-01-06 15:31:26.04	303.52	59.36	-33.7	-34.6	24.5	0.00e+00	120	36	0	1255145472	40	5955
2026-01-06 15:31:27.05	302.63	59.37	-33.5	-34.4	24.8	0.00e+00	123	36	0	1258291200	40	5829
2026-01-06 15:31:28.06	301.73	59.37	-33.2	-34.0	24.9	0.00e+00	120	36	0	1261436928	40	5590
2026-01-06 15:31:29.06	300.85	59.37	-32.8	-33.7	25.2	0.00e+00	122	36	0	1264582656	40	5347
2026-01-06 15:31:30.07	299.95	59.37	-33.0	-33.9	25.1	0.00e+00	122	36	0	1267728384	40	5494
2026-01-06 15:31:31.09	299.05	59.35	-32.8	-33.7	25.2	0.00e+00	122	36	0	1270874112	40	5373
2026-01-06 15:31:32.10	298.16	59.33	-32.7	-33.6	25.2	0.00e+00	120	36	0	1274019840	38	5928
2026-01-06 15:31:33.10	297.28	59.31	-32.4	-33.3	25.3	0.00e+00	122	36	0	1277165568	38	5726
2026-01-06 15:31:34.12	296.38	59.27	-32.8	-33.7	25.0	0.00e+00	120	36	0	1280311296	38	6022
2026-01-06 15:31:35.13	295.50	59.23	-33.2	-34.1	25.0	0.00e+00	122	36	0	1283457024	38	6301
2026-01-06 15:31:36.14	294.61	59.19	-33.4	-34.3	24.9	0.00e+00	120	36	0	1286602752	38	6432
2026-01-06 15:31:37.14	293.74	59.14	-33.3	-34.2	24.9	0.00e+00	123	36	0	1289748480	38	6409
2026-01-06 15:31:38.15	292.87	59.08	-33.7	-34.6	24.5	0.00e+00	122	36	0	1292894208	38	6682
2026-01-06 15:31:39.16	291.99	59.02	-33.8	-34.7	24.4	0.00e+00	123	36	0	1296039936	40	6046
2026-01-06 15:31:40.17	291.13	58.95	-33.3	-34.2	24.9	0.00e+00	122	36	0	1299185664	40	5687
2026-01-06 15:31:41.18	290.26	58.87	-33.0	-33.8	25.3	0.00e+00	122	36	0	1302331392	40	5465
2026-01-06 15:31:42.19	289.41	58.79	-33.0	-33.9	25.1	0.00e+00	123	36	0	1305477120	40	5508
2026-01-06 15:31:43.20	288.55	58.70	-33.4	-34.3	24.8	0.00e+00	122	36	0	1308622848	40	5736
2026-01-06 15:31:44.21	287.71	58.61	-33.4	-34.3	24.4	0.00e+00	122	36	0	1311768576	40	5758
2026-01-06 15:31:45.22	286.87	58.51	-33.6	-34.5	24.3	0.00e+00	122	36	0	1314914304	40	5907
2026-01-06 15:31:46.23	286.03	58.41	-33.8	-34.8	24.4	0.00e+00	123	36	0	1318060032	40	6065
2026-01-06 15:31:47.24	285.20	58.30	-34.1	-35.0	24.3	0.00e+00	123	36	0	1321205760	40	6237
2026-01-06 15:31:48.25	284.38	58.18	-33.8	-34.7	24.4	0.00e+00	120	36	0	1324351488	40	6024
2026-01-06 15:31:49.26	283.57	58.06	-33.6	-34.5	24.2	0.00e+00	123	36	0	1327497216	40	5920
2026-01-06 15:31:50.26	282.77	57.94	-33.9	-34.8	24.4	0.00e+00	122	36	0	1330642944	40	6078
2026-01-06 15:31:51.27	281.97	57.81	-34.0	-35.0	24.4	0.00e+00	122	36	0	1333788672	40	6226
2026-01-06 15:31:52.28	281.18	57.67	-34.0	-34.9	24.6	0.00e+00	123	36	0	1336934400	40	6153
2026-01-06 15:31:53.29	280.40	57.53	-33.7	-34.6	24.8	0.00e+00	120	36	0	1340080128	40	5961
2026-01-06 15:31:54.30	279.63	57.39	-33.3	-34.2	25.1	0.00e+00	123	36	0	1343225856	40	5697
2026-01-06 15:31:55.31	278.86	57.24	-33.4	-34.3	25.0	0.00e+00	120	36	0	1346371584	40	5761
2026-01-06 15:31:56.32	278.10	57.09	-33.8	-34.8	24.7	0.00e+00	123	36	0	1349517312	40	6065
2026-01-06 15:31:57.33	277.35	56.93	-33.8	-34.7	24.6	0.00e+00	123	36	0	1352663040	40	6061
2026-01-06 15:31:58.34	276.61	56.77	-34.0	-34.9	24.5	0.00e+00	123	36	0	1355808768	40	6137
2026-01-06 15:31:59.35	275.88	56.60	-34.1	-35.0	24.5	0.00e+00	123	36	0	1358954496	40	6260
2026-01-06 15:32:00.36	275.16	56.43	-34.1	-35.0	24.1	0.00e+00	123	36	0	1362100224	40	6251
2026-01-06 15:32:01.37	274.45	56.26	-34.1	-35.0	24.3	0.00e+00	123	36	0	1365245952	40	6220
2026-01-06 15:32:02.38	273.74	56.08	-34.1	-34.9	24.5	0.00e+00	122	36	0	1368391680	40	6199
2026-01-06 15:32:03.39	273.05	55.90	-34.3	-35.2	24.3	0.00e+00	123	36	0	1371537408	40	6386
2026-01-06 15:32:04.40	272.36	55.71	-35.0	-36.0	23.7	0.00e+00	121	36	0	1374683136	42	6226
2026-01-06 15:32:05.40	271.69	55.52	-34.9	-35.8	23.9	0.00e+00	123	36	0	1377828864	42	6126
2026-01-06 15:32:06.41	271.02	55.33	-34.3	-35.2	24.3	0.00e+00	123	36	0	1380974592	42	5710
2026-01-06 15:32:07.42	270.36	55.14	-33.7	-34.6	24.8	0.00e+00	123	36	0	1384120320	42	5316
2026-01-06 15:32:08.43	269.71	54.94	-33.7	-34.5	24.9	0.00e+00	122	36	0	1387266048	40	5899
2026-01-06 15:32:09.44	269.07	54.74	-33.6	-34.5	24.8	0.00e+00	120	36	0	1390411776	40	5878
2026-01-06 15:32:10.45	268.44	54.54	-34.4	-35.3	24.2	0.00e+00	123	36	0	1393557504	40	6459
2026-01-06 15:32:11.46	267.82	54.33	-35.3	-36.3	23.5	0.00e+00	123	36	0	1396703232	42	6450
2026-01-06 15:32:12.47	267.20	54.12	-35.5	-36.5	23.1	0.00e+00	123	36	0	1399848960	42	6629
2026-01-06 15:32:13.48	266.60	53.91	-35.1	-36.1	23.2	0.00e+00	120	36	0	1402994688	42	6291
2026-01-06 15:32:14.49	266.00	53.70	-35.1	-36.1	23.3	0.00e+00	122	36	0	1406140416	42	6280
2026-01-06 15:32:15.50	265.41	53.48	-35.2	-36.2	23.5	0.00e+00	120	36	0	1409286144	42	6393
2026-01-06 15:32:16.51	264.83	53.27	-35.7	-36.7	23.0	0.00e+00	123	36	0	1412431872	42	6771
2026-01-06 15:32:17.51	264.27	53.05	-35.7	-36.7	22.7	0.00e+00	120	36	0	1415577600	44	6028
2026-01-06 15:32:18.52	263.71	52.83	-35.6	-36.6	23.1	0.00e+00	122	36	0	1418723328	44	5977
2026-01-06 15:32:19.54	263.15	52.60	-35.3	-36.2	23.6	0.00e+00	123	36	0	1421869056	44	5696
2026-01-06 15:32:20.54	262.61	52.38	-35.2	-36.2	23.4	0.00e+00	123	36	0	1425014784	44	5664
2026-01-06 15:32:21.55	262.07	52.15	-34.9	-35.9	23.5	0.00e+00	120	36	0	1428160512	44	5471
2026-01-06 15:32:22.56	261.55	51.92	-34.5	-35.5	23.8	0.00e+00	123	36	0	1431306240	42	5877
2026-01-06 15:32:23.57	261.03	51.69	-34.5	-35.4	24.2	0.00e+00	123	36	0	1434451968	42	5842
2026-01-06 15:32:24.58	260.51	51.46	-35.1	-36.0	23.6	0.00e+00	123	36	0	1437597696	42	6270
2026-01-06 15:32:25.59	260.01	51.23	-36.5	-37.6	22.4	0.00e+00	122	36	0	1440743424	44	6675
2026-01-06 15:32:26.60	259.51	51.00	-37.9	-39.1	20.8	0.00e+00	123	36	0	1443889152	48	6331
2026-01-06 15:32:27.61	259.02	50.76	-37.6	-38.9	20.5	0.00e+00	123	36	0	1447034880	48	6187
2026-01-06 15:32:28.62	258.54	50.53	-37.0	-38.1	21.1	0.00e+00	122	36	0	1450180608	48	5653
2026-01-06 15:32:29.63	258.07	50.29	-36.3	-37.4	22.1	0.00e+00	123	36	0	1453326336	46	5849
2026-01-06 15:32:30.64	257.60	50.06	-36.0	-37.0	22.6	0.00e+00	122	36	0	1456472064	46	5558
2026-01-06 15:32:31.64	257.15	49.82	-35.1	-36.1	23.4	0.00e+00	122	36	0	1459617792	44	5606
2026-01-06 15:32:32.65	256.70	49.58	-35.1	-36.0	23.6	0.00e+00	123	36	0	1462763520	44	5557
2026-01-06 15:32:33.66	256.25	49.34	-35.6	-36.5	23.3	0.00e+00	120	36	0	1465909248	44	5878
2026-01-06 15:32:34.67	255.81	49.10	-37.1	-38.1	21.7	0.00e+00	122	36	0	1469054976	46	6330
2026-01-06 15:32:35.68	255.38	48.86	-38.2	-39.4	20.7	0.00e+00	123	36	0	1472200704	48	6538
2026-01-06 15:32:36.69	254.96	48.62	-38.1	-39.3	21.0	0.00e+00	122	36	0	1475346432	48	6439
2026-01-06 15:32:37.70	254.54	48.38	-36.9	-38.0	21.8	0.00e+00	123	36	0	1478492160	48	5577
2026-01-06 15:32:38.71	254.13	48.14	-36.0	-37.0	22.8	0.00e+00	122	36	0	1481637888	46	5592
2026-01-06 15:32:39.72	253.73	47.90	-35.5	-36.5	23.4	0.00e+00	121	36	0	1485832192	44	5874
2026-01-06 15:32:40.73	253.33	47.66	-34.9	-35.8	23.9	0.00e+00	123	36	0	1487929344	44	5418
2026-01-06 15:32:41.74	252.93	47.41	-35.5	-36.5	23.1	0.00e+00	122	36	0	1491075072	44	5862
2026-01-06 15:32:42.75	252.55	47.17	-36.1	-37.1	22.8	0.00e+00	123	36	0	1494220800	44	6282
2026-01-06 15:32:43.76	252.17	46.93	-36.4	-37.4	22.5	0.00e+00	123	36	0	1497366528	44	6539
2026-01-06 15:32:44.77	251.79	46.69	-37.3	-38.4	21.7	0.00e+00	122	36	0	1500512256	46	6529
2026-01-06 15:32:45.78	251.42	46.45	-37.6	-38.7	21.1	0.00e+00	122	36	0	1504706560	46	6798
2026-01-06 15:32:46.78	251.07	46.21	-37.4	-38.6	20.7	0.00e+00	123	36	0	1507852288	48	5955
2026-01-06 15:32:47.79	250.71	45.97	-36.8	-37.9	21.4	0.00e+00	122	36	0	1509949440	48	5493
2026-01-06 15:32:48.80	250.36	45.72	-35.9	-36.9	22.6	0.00e+00	122	36	0	1513095168	46	5514
2026-01-06 15:32:49.81	250.01	45.48	-35.3	-36.2	23.5	0.00e+00	123	36	0	1516240896	44	5701
2026-01-06 15:32:50.82	249.67	45.24	-35.3	-36.2	23.5	0.00e+00	123	36	0	1520435200	44	5721
2026-01-06 15:32:51.83	249.33	45.00	-35.9	-36.9	23.0	0.00e+00	122	36	0	1523580928	44	6160
2026-01-06 15:32:52.84	249.00	44.76	-36.1	-37.1	22.9	0.00e+00	122	36	0	1526726656	44	6308
2026-01-06 15:32:53.85	248.67	44.52	-36.1	-37.1	22.8	0.00e+00	123	36	0	1529872384	44	6333
2026-01-06 15:32:54.86	248.35	44.28	-36.3	-37.3	22.6	0.00e+00	122	36	0	1533018112	44	6454
2026-01-06 15:32:55.87	248.04	44.04	-36.6	-37.6	22.3	0.00e+00	120	36	0	1536163840	44	6723
2026-01-06 15:32:56.88	247.73	43.81	-37.0	-38.1	21.9	0.00e+00	123	36	0	1539309568	46	6302
2026-01-06 15:32:57.89	247.42	43.57	-36.8	-37.9	22.1	0.00e+00	122	36	0	1542455296	46	6153
2026-01-06 15:32:58.90	247.12	43.33	-36.5	-37.5	22.3	0.00e+00	120	36	0	1545601024	46	5897
2026-01-06 15:32:59.91	246.82	43.09	-36.0	-37.0	22.7	0.00e+00	123	36	0	1548746752	46	5531
2026-01-06 15:33:00.92	246.52	42.86	-35.7	-36.7	23.2	0.00e+00	123	36	0	1551892480	44	6007
2026-01-06 15:33:01.92	246.24	42.62	-35.8	-36.8	22.9	0.00e+00	123	36	0	1555038208	44	6085
2026-01-06 15:33:02.93	245.95	42.39	-36.5	-37.5	22.4	0.00e+00	122	36	0	1558183936	44	6582
2026-01-06 15:33:03.94	245.67	42.16	-37.5	-38.6	21.5	0.00e+00	122	36	0	1561329664	46	6714
2026-01-06 15:33:04.95	245.40	41.92	-38.4	-39.6	20.6	0.00e+00	123	36	0	1564475392	48	6697
2026-01-06 15:33:05.96	245.12	41.69	-38.3	-39.5	20.1	0.00e+00	122	36	0	1567621120	48	6631
2026-01-06 15:33:06.97	244.85	41.46	-37.5	-38.7	20.6	0.00e+00	120	36	0	1570766848	48	6006
2026-01-06 15:33:07.98	244.59	41.23	-36.8	-37.9	21.6	0.00e+00	122	36	0	1573912576	48	5491
2026-01-06 15:33:08.99	244.33	41.00	-36.3	-37.3	22.5	0.00e+00	120	36	0	1577058304	46	5785
2026-01-06 15:33:10.00	244.07	40.77	-36.0	-37.0	23.0	0.00e+00	123	36	0	1580204032	46	5534
2026-01-06 15:33:11.01	243.82	40.54	-36.2	-37.2	22.8	0.00e+00	122	36	0	1583349760	46	5660
2026-01-06 15:33:12.02	243.57	40.31	-36.4	-37.4	22.7	0.00e+00	123	36	0	1586495488	46	5803
2026-01-06 15:33:13.04	243.32	40.08	-36.7	-37.7	22.4	0.00e+00	121	36	0	1589641216	46	6053
2026-01-06 15:33:14.05	243.07	39.85	-36.8	-37.8	22.3	0.00e+00	123	36	0	1592786944	46	6100
2026-01-06 15:33:15.06	242.83	39.63	-36.8	-37.8	22.4	0.00e+00	120	36	0	1595932672	46	6090
2026-01-06 15:33:16.06	242.60	39.40	-36.7	-37.7	22.3	0.00e+00	122	36	0	1599078400	46	6032
2026-01-06 15:33:17.07	242.37	39.18	-36.8	-37.8	22.3	0.00e+00	123	36	0	1602224128	46	6110
2026-01-06 15:33:18.08	242.14	38.96	-36.8	-37.9	22.3	0.00e+00	120	36	0	1605369856	46	6137
2026-01-06 15:33:19.09	241.91	38.74	-36.7	-37.7	22.2	0.00e+00	123	36	0	1608515584	46	6047
2026-01-06 15:33:20.10	241.69	38.52	-36.5	-37.5	22.0	0.00e+00	122	36	0	1611661312	46	5913
2026-01-06 15:33:21.11	241.46	38.29	-36.0	-37.1	22.4	0.00e+00	123	36	0	1614807040	46	5627
2026-01-06 15:33:22.12	241.25	38.08	-35.1	-36.0	23.4	0.00e+00	122	36	0	1617952768	44	5577
2026-01-06 15:33:23.13	241.03	37.86	-35.1	-36.0	23.7	0.00e+00	120	36	0	1621098496	44	5574
2026-01-06 15:33:24.14	240.82	37.64	-35.1	-36.0	23.9	0.00e+00	123	36	0	1624244224	44	5549
2026-01-06 15:33:25.14	240.61	37.43	-35.1	-36.0	23.6	0.00e+00	122	36	0	1627389952	44	5587
2026-01-06 15:33:26.15	240.41	37.21	-35.5	-36.4	23.4	0.00e+00	123	36	0	1630535680	44	5839
2026-01-06 15:33:27.16	240.20	37.00	-35.7	-36.7	23.1	0.00e+00	123	36	0	1633681408	44	6038
2026-01-06 15:33:28.17	240.00	36.78	-36.0	-37.0	23.0	0.00e+00	123	36	0	1636827136	44	6237
2026-01-06 15:33:29.17	239.81	36.57	-36.0	-37.0	22.9	0.00e+00	120	36	0	1639972864	44	6253
2026-01-06 15:33:30.18	239.61	36.36	-35.6	-36.6	23.3	0.00e+00	123	36	0	1643118592	44	5934
2026-01-06 15:33:31.19	239.42	36.15	-35.4	-36.3	23.5	0.00e+00	123	36	0	1646264320	44	5767
2026-01-06 15:33:32.20	239.23	35.94	-35.2	-36.2	23.6	0.00e+00	123	36	0	1649410048	44	5679
2026-01-06 15:33:33.21	239.04	35.73	-35.3	-36.2	23.5	0.00e+00	121	36	0	1652555776	44	5699
2026-01-06 15:33:34.22	238.85	35.53	-35.0	-35.9	23.6	0.00e+00	123	36	0	1655701504	44	5522
2026-01-06 15:33:35.23	238.67	35.32	-34.7	-35.6	23.9	0.00e+00	122	36	0	1658847232	42	5974
2026-01-06 15:33:36.24	238.49	35.11	-34.5	-35.3	24.2	0.00e+00	123	36	0	1661992960	42	5788
2026-01-06 15:33:37.25	238.31	34.91	-34.3	-35.2	24.4	0.00e+00	122	36	0	1665138688	42	5716
2026-01-06 15:33:38.26	238.13	34.71	-34.2	-35.0	24.4	0.00e+00	120	36	0	1668284416	42	5589
2026-01-06 15:33:39.27	237.96	34.50	-34.2	-35.1	24.3	0.00e+00	122	36	0	1671430144	42	5617
2026-01-06 15:33:40.28	237.79	34.30	-34.2	-35.1	24.1	0.00e+00	123	36	0	1674575872	42	5643
2026-01-06 15:33:41.29	237.62	34.10	-34.3	-35.2	24.1	0.00e+00	120	36	0	1677721600	42	5704
2026-01-06 15:33:42.30	237.45	33.90	-34.5	-35.4	24.0	0.00e+00	122	36	0	1680867328	42	5849
2026-01-06 15:33:43.31	237.28	33.70	-34.6	-35.5	23.9	0.00e+00	123	36	0	1684013056	42	5926
2026-01-06 15:33:44.32	237.12	33.51	-34.6	-35.5	24.0	0.00e+00	122	36	0	1687158784	42	5894
2026-01-06 15:33:45.32	236.96	33.31	-34.4	-35.3	24.2	0.00e+00	123	36	0	1690304512	42	5772
2026-01-06 15:33:46.33	236.80	33.12	-34.4	-35.3	24.2	0.00e+00	123	36	0	1693450240	42	5726
2026-01-06 15:33:47.34	236.64	32.92	-34.2	-35.1	24.3	0.00e+00	122	36	0	1696595968	42	5617
2026-01-06 15:33:48.35	236.48	32.73	-34.1	-35.0	24.3	0.00e+00	120	36	0	1699741696	42	5594
2026-01-06 15:33:49.36	236.33	32.53	-33.9	-34.8	24.5	0.00e+00	122	36	0	1702887424	42	5433
2026-01-06 15:33:50.37	236.18	32.34	-33.9	-34.8	24.6	0.00e+00	122	36	0	1706033152	42	5441
2026-01-06 15:33:51.38	236.03	32.15	-34.0	-34.9	24.5	0.00e+00	123	36	0	1709178880	42	5506
2026-01-06 15:33:52.39	235.88	31.96	-34.0	-34.9	24.6	0.00e+00	122	36	0	1712324608	42	5486
2026-01-06 15:33:53.40	235.73	31.77	-34.2	-35.1	24.4	0.00e+00	123	36	0	1715470336	42	5630
2026-01-06 15:33:54.41	235.59	31.59	-34.4	-35.3	24.2	0.00e+00	120	36	0	1718616064	42	5773
2026-01-06 15:33:55.42	235.44	31.40	-34.4	-35.3	24.2	0.00e+00	123	36	0	1721761792	42	5737
2026-01-06 15:33:56.43	235.30	31.21	-34.3	-35.2	24.3	0.00e+00	120	36	0	1724907520	42	5683
2026-01-06 15:33:57.44	235.16	31.03	-34.3	-35.2	24.3	0.00e+00	123	36	0	1728053248	42	5711
2026-01-06 15:33:58.45	235.02	30.85	-34.2	-35.1	24.4	0.00e+00	122	36	0	1731198976	42	5621
2026-01-06 15:33:59.45	234.89	30.67	-34.3	-35.2	24.3	0.00e+00	123	36	0	1734344704	42	5711
2026-01-06 15:34:00.46	234.75	30.48	-34.2	-35.1	24.3	0.00e+00	123	36	0	1737490432	42	5600
2026-01-06 15:34:01.47	234.62	30.30	-34.4	-35.3	24.1	0.00e+00	123	36	0	1740636160	42	5751
2026-01-06 15:34:02.48	234.49	30.12	-34.3	-35.3	24.0	0.00e+00	120	36	0	1743781888	42	5733
2026-01-06 15:34:03.49	234.35	29.94	-34.1	-35.0	24.0	0.00e+00	122	36	0	1746927616	42	5582
2026-01-06 15:34:04.50	234.23	29.77	-34.1	-35.0	24.0	0.00e+00	123	36	0	1750073344	42	5558
2026-01-06 15:34:05.51	234.10	29.59	-34.1	-35.0	23.9	0.00e+00	120	36	0	1753219072	42	5576
2026-01-06 15:34:06.52	233.97	29.41	-34.0	-35.0	24.0	0.00e+00	122	36	0	1756364800	42	5549
2026-01-06 15:34:07.53	233.85	29.24	-34.1	-35.0	24.0	0.00e+00	123	36	0	1759510528	42	5579
2026-01-06 15:34:08.53	233.72	29.06	-34.0	-35.0	24.1	0.00e+00	120	36	0	1762656256	42	5536
2026-01-06 15:34:09.54	233.60	28.89	-34.1	-35.0	24.1	0.00e+00	123	36	0	1765801984	42	5576
2026-01-06 15:34:10.55	233.48	28.72	-34.0	-34.9	24.3	0.00e+00	123	36	0	1768947712	42	5511
2026-01-06 15:34:11.56	233.36	28.55	-34.1	-35.0	24.3	0.00e+00	122	36	0	1772093440	42	5578
2026-01-06 15:34:12.57	233.24	28.38	-33.9	-34.8	24.6	0.00e+00	120	36	0	1775239168	42	5432
2026-01-06 15:34:13.58	233.12	28.21	-33.7	-34.6	24.7	0.00e+00	123	36	0	1778384896	40	5941
2026-01-06 15:34:14.59	233.01	28.04	-33.6	-34.5	24.8	0.00e+00	120	36	0	1781530624	40	5908
2026-01-06 15:34:15.60	232.89	27.87	-33.7	-34.6	24.7	0.00e+00	123	36	0	1784676352	40	5946
2026-01-06 15:34:16.61	232.78	27.70	-33.7	-34.5	24.7	0.00e+00	121	36	0	1787822080	40	5925
2026-01-06 15:34:17.62	232.67	27.54	-33.8	-34.6	24.7	0.00e+00	123	36	0	1790967808	40	5994
2026-01-06 15:34:18.63	232.56	27.37	-33.6	-34.5	24.8	0.00e+00	121	36	0	1794113536	40	5911
2026-01-06 15:34:19.64	232.45	27.21	-33.6	-34.5	24.9	0.00e+00	120	36	0	1797259264	40	5902
2026-01-06 15:34:20.65	232.34	27.04	-33.4	-34.2	25.0	0.00e+00	122	36	0	1800404992	40	5720
2026-01-06 15:34:21.66	232.23	26.88	-33.4	-34.3	24.9	0.00e+00	120	36	0	1803550720	40	5767
2026-01-06 15:34:22.67	232.12	26.72	-33.4	-34.2	25.0	0.00e+00	123	36	0	1806696448	40	5720
2026-01-06 15:34:23.68	232.02	26.56	-33.4	-34.3	24.9	0.00e+00	123	36	0	1809842176	40	5748
2026-01-06 15:34:24.69	231.91	26.40	-33.4	-34.3	24.9	0.00e+00	123	36	0	1812987904	40	5777
2026-01-06 15:34:25.69	231.81	26.24	-33.6	-34.4	24.8	0.00e+00	120	36	0	1816133632	40	5847
2026-01-06 15:34:26.70	231.71	26.08	-33.7	-34.6	24.8	0.00e+00	122	36	0	1819279360	40	5931
2026-01-06 15:34:27.71	231.61	25.92	-33.6	-34.4	24.8	0.00e+00	123	36	0	1822425088	40	5843
2026-01-06 15:34:28.73	231.51	25.77	-33.6	-34.4	24.9	0.00e+00	122	36	0	1825570816	40	5857
2026-01-06 15:34:29.74	231.41	25.61	-33.5	-34.4	24.9	0.00e+00	120	36	0	1828716544	40	5836
2026-01-06 15:34:30.74	231.31	25.46	-33.6	-34.5	24.8	0.00e+00	122	36	0	1831862272	40	5873
2026-01-06 15:34:31.75	231.21	25.30	-33.5	-34.4	24.9	0.00e+00	120	36	0	1835008000	40	5800
2026-01-06 15:34:32.76	231.12	25.15	-33.6	-34.5	24.9	0.00e+00	123	36	0	1838153728	40	5864
2026-01-06 15:34:33.77	231.02	24.99	-33.4	-34.3	24.9	0.00e+00	122	36	0	1841299456	40	5777
2026-01-06 15:34:34.78	230.93	24.84	-33.4	-34.3	24.8	0.00e+00	120	36	0	1844445184	40	5766
2026-01-06 15:34:35.79	230.84	24.69	-33.4	-34.3	24.7	0.00e+00	123	36	0	1847590912	40	5778
2026-01-06 15:34:36.80	230.74	24.54	-33.4	-34.3	24.7	0.00e+00	120	36	0	1850736640	40	5739
2026-01-06 15:34:37.81	230.65	24.39	-33.2	-34.1	24.9	0.00e+00	123	36	0	1853882368	40	5619
2026-01-06 15:34:38.82	230.56	24.24	-33.4	-34.2	24.7	0.00e+00	123	36	0	1857028096	40	5713
2026-01-06 15:34:39.83	230.47	24.09	-33.2	-34.1	24.8	0.00e+00	123	36	0	1860173824	40	5627
2026-01-06 15:34:40.84	230.38	23.95	-33.3	-34.2	24.6	0.00e+00	120	36	0	1863319552	40	5673
2026-01-06 15:34:41.85	230.29	23.80	-33.0	-33.9	24.8	0.00e+00	123	36	0	1866465280	40	5497
2026-01-06 15:34:42.86	230.21	23.65	-33.2	-34.1	24.8	0.00e+00	122	36	0	1869611008	40	5603
2026-01-06 15:34:43.87	230.12	23.51	-33.1	-34.0	24.8	0.00e+00	123	36	0	1872756736	40	5547
2026-01-06 15:34:44.88	230.04	23.36	-33.2	-34.0	24.9	0.00e+00	122	36	0	1875902464	40	5580
2026-01-06 15:34:45.89	229.95	23.22	-33.1	-33.9	25.0	0.00e+00	123	36	0	1879048192	40	5522
2026-01-06 15:34:46.90	229.87	23.08	-33.2	-34.1	24.9	0.00e+00	123	36	0	1882193920	40	5612
2026-01-06 15:34:47.91	229.78	22.94	-33.2	-34.0	24.9	0.00e+00	122	36	0	1885339648	40	5593
2026-01-06 15:34:48.92	229.70	22.79	-33.3	-34.2	24.9	0.00e+00	123	36	0	1888485376	40	5717
2026-01-06 15:34:49.93	229.62	22.65	-33.4	-34.3	24.8	0.00e+00	123	36	0	1892679680	40	5726
2026-01-06 15:34:50.94	229.54	22.51	-33.4	-34.3	24.8	0.00e+00	120	36	0	1895825408	40	5759
2026-01-06 15:34:51.95	229.46	22.37	-33.6	-34.5	24.6	0.00e+00	122	36	0	1897922560	40	5881
2026-01-06 15:34:52.96	229.38	22.23	-33.8	-34.6	24.6	0.00e+00	120	36	0	1901068288	40	5989
2026-01-06 15:34:53.97	229.30	22.10	-33.6	-34.5	24.8	0.00e+00	122	36	0	1904214016	40	5866
2026-01-06 15:34:54.98	229.22	21.96	-33.7	-34.6	24.6	0.00e+00	122	36	0	1908408320	40	5962
2026-01-06 15:34:55.98	229.15	21.82	-33.6	-34.5	24.7	0.00e+00	122	36	0	1911554048	40	5900
2026-01-06 15:34:56.99	229.07	21.69	-33.7	-34.6	24.6	0.00e+00	123	36	0	1914699776	40	5993
2026-01-06 15:34:58.00	228.99	21.55	-33.6	-34.5	24.7	0.00e+00	122	36	0	1917845504	40	5899
2026-01-06 15:34:59.01	228.92	21.42	-33.7	-34.6	24.6	0.00e+00	120	36	0	1919942656	40	5988
2026-01-06 15:35:00.02	228.85	21.28	-33.7	-34.6	24.7	0.00e+00	123	36	0	1924136960	40	5942
2026-01-06 15:35:01.03	228.77	21.15	-33.6	-34.4	24.8	0.00e+00	123	36	0	1927282688	40	5846
2026-01-06 15:35:02.04	228.70	21.02	-33.5	-34.4	24.7	0.00e+00	123	36	0	1930428416	40	5819
2026-01-06 15:35:03.05	228.63	20.89	-33.6	-34.5	24.8	0.00e+00	122	36	0	1933574144	40	5876
2026-01-06 15:35:04.06	228.55	20.75	-33.5	-34.4	24.8	0.00e+00	123	36	0	1936719872	40	5833
2026-01-06 15:35:05.07	228.48	20.62	-33.5	-34.4	24.8	0.00e+00	120	36	0	1939865600	40	5827
2026-01-06 15:35:06.08	228.41	20.49	-33.4	-34.3	24.9	0.00e+00	122	36	0	1943011328	40	5754
2026-01-06 15:35:07.09	228.34	20.36	-33.5	-34.4	24.8	0.00e+00	123	36	0	1946157056	40	5830
2026-01-06 15:35:08.10	228.27	20.23	-33.5	-34.4	24.7	0.00e+00	123	36	0	1949302784	40	5801
2026-01-06 15:35:09.11	228.20	20.11	-33.6	-34.5	24.6	0.00e+00	123	36	0	1952448512	40	5886
2026-01-06 15:35:10.12	228.14	19.98	-33.6	-34.5	24.6	0.00e+00	122	36	0	1955594240	40	5886
