passes_logs/2026/01/06/R4.6S_Anadyr/R4.6S_Anadyr__20260106_211100_NOAA_20_JPSS-1_rec.log

#Pass ID: 20260106_211100_NOAA 20 (JPSS-1)
#Satellite: NOAA 20 (JPSS-1)
#Configuration: NOAA 20
#almurnet v.1.7.20251203
#Start time: 2026-01-06 21:11:03

#Version: 2.2.20231116
#Station: R4.6S_Anadyr
#Location: 177.4865 lon 64.73178 lat
#TLE: 1 43013U 17073A   26005.46207808  .00000128  00000+0  81791-4 0  9997
#TLE: 2 43013  98.7627 306.5027 0001826  53.0458 307.0885 14.19533487421381

#Time	Az	El	Level	Level2	SNR	BER	BlckErr	Temp	State	Recorded	gain1	gain2
2026-01-06 21:11:03.59	84.93	0.14	-48.6	-59.2	3.5	8.44e-01	0	31	0	0	60	33121
2026-01-06 21:11:04.60	84.87	0.20	-48.8	-64.0	3.6	1.51e+00	0	32	104	0	60	57442
2026-01-06 21:11:05.61	84.80	0.25	-48.8	-64.0	3.6	1.51e+00	0	32	104	0	60	57283
2026-01-06 21:11:06.62	84.74	0.30	-48.8	-64.0	3.6	1.51e+00	0	32	104	0	60	57512
2026-01-06 21:11:07.63	84.67	0.36	-48.8	-64.0	3.6	1.51e+00	0	32	104	0	60	57116
2026-01-06 21:11:08.64	84.60	0.41	-48.8	-64.0	3.6	1.51e+00	0	32	104	0	60	57371
2026-01-06 21:11:09.65	84.54	0.46	-48.8	-64.1	3.6	1.51e+00	0	32	104	0	60	57667
2026-01-06 21:11:10.65	84.47	0.51	-48.8	-64.0	3.6	1.51e+00	0	32	104	0	60	57598
2026-01-06 21:11:11.66	84.40	0.57	-48.7	-64.1	3.6	1.51e+00	0	32	104	0	60	58076
2026-01-06 21:11:12.67	84.34	0.62	-48.9	-64.1	3.6	1.51e+00	0	32	104	0	60	57962
2026-01-06 21:11:13.68	84.27	0.67	-48.9	-64.1	3.6	1.51e+00	0	32	104	0	60	58045
2026-01-06 21:11:14.69	84.20	0.73	-48.7	-64.1	3.6	1.51e+00	0	32	104	0	60	57716
2026-01-06 21:11:15.70	84.13	0.78	-48.8	-64.1	3.6	1.51e+00	0	32	104	0	60	57703
2026-01-06 21:11:16.71	84.06	0.83	-48.7	-64.0	3.6	1.51e+00	0	32	104	0	60	56994
2026-01-06 21:11:17.73	84.00	0.89	-48.6	-63.8	3.6	1.51e+00	0	32	104	0	60	56158
2026-01-06 21:11:18.73	83.93	0.94	-48.3	-63.6	3.5	1.51e+00	0	32	104	0	60	54742
2026-01-06 21:11:19.74	83.86	0.99	-47.9	-63.3	3.6	1.51e+00	0	32	104	0	60	53072
2026-01-06 21:11:20.76	83.79	1.05	-47.3	-62.6	3.6	1.51e+00	0	32	104	0	60	48795
2026-01-06 21:11:21.77	83.72	1.10	-47.2	-62.5	3.6	1.51e+00	0	32	104	0	60	48409
2026-01-06 21:11:22.78	83.65	1.15	-47.2	-62.5	3.6	1.51e+00	0	32	104	0	60	48192
2026-01-06 21:11:23.79	83.58	1.21	-47.2	-62.6	3.6	1.51e+00	0	32	104	0	60	48605
2026-01-06 21:11:24.80	83.51	1.26	-47.2	-62.5	3.6	1.51e+00	0	32	104	0	60	48419
2026-01-06 21:11:25.81	83.44	1.31	-47.2	-62.6	3.6	1.51e+00	0	32	104	0	60	48481
2026-01-06 21:11:26.82	83.37	1.37	-47.2	-62.5	3.6	1.51e+00	0	32	104	0	60	48216
2026-01-06 21:11:27.83	83.29	1.42	-47.2	-62.5	3.6	1.51e+00	0	33	104	0	60	48376
2026-01-06 21:11:28.83	83.22	1.48	-47.2	-62.6	3.6	1.51e+00	0	32	104	0	60	48546
2026-01-06 21:11:29.84	83.15	1.53	-47.2	-62.5	3.6	1.51e+00	0	33	104	0	60	48224
2026-01-06 21:11:30.85	83.08	1.58	-47.2	-62.5	3.6	1.51e+00	0	33	104	0	60	47987
2026-01-06 21:11:31.86	83.01	1.64	-47.2	-62.5	3.6	1.51e+00	0	33	104	0	60	48048
2026-01-06 21:11:32.87	82.94	1.69	-47.2	-62.4	3.6	1.51e+00	0	33	104	0	60	47792
2026-01-06 21:11:33.88	82.86	1.75	-47.2	-62.4	3.6	1.51e+00	0	33	104	0	60	47882
2026-01-06 21:11:34.89	82.79	1.80	-47.2	-62.5	3.6	1.51e+00	0	33	104	0	60	48424
2026-01-06 21:11:35.90	82.72	1.86	-47.2	-62.5	3.6	1.51e+00	0	33	104	0	60	48106
2026-01-06 21:11:36.91	82.64	1.91	-47.2	-62.5	3.5	1.51e+00	0	33	104	0	60	48365
2026-01-06 21:11:37.92	82.57	1.96	-47.2	-62.5	3.6	1.51e+00	0	33	104	0	60	48387
2026-01-06 21:11:38.93	82.49	2.02	-47.2	-62.5	3.6	1.51e+00	0	33	104	0	60	48051
2026-01-06 21:11:39.94	82.42	2.07	-47.2	-62.4	3.6	1.51e+00	0	33	104	0	60	47922
2026-01-06 21:11:40.95	82.34	2.13	-47.2	-62.4	3.6	1.51e+00	0	33	104	0	60	47721
2026-01-06 21:11:41.96	82.27	2.18	-47.2	-62.3	3.6	1.51e+00	0	33	104	0	60	47170
2026-01-06 21:11:42.97	82.19	2.24	-47.2	-62.2	3.6	1.51e+00	0	33	104	0	60	46744
2026-01-06 21:11:43.98	82.12	2.29	-47.2	-62.1	3.6	1.51e+00	0	33	104	0	60	46242
2026-01-06 21:11:44.99	82.04	2.35	-47.2	-62.4	3.6	1.51e+00	0	33	104	0	60	47404
2026-01-06 21:11:46.00	81.97	2.40	-47.2	-62.5	3.6	1.51e+00	0	33	104	0	60	48007
2026-01-06 21:11:47.01	81.89	2.46	-47.2	-62.6	3.6	1.51e+00	0	33	104	0	60	48519
2026-01-06 21:11:48.02	81.81	2.51	-47.2	-62.5	3.6	1.51e+00	0	33	104	0	60	47931
2026-01-06 21:11:49.03	81.73	2.57	-47.2	-62.5	3.6	1.51e+00	0	33	104	0	60	47979
2026-01-06 21:11:50.04	81.66	2.62	-47.2	-62.4	3.6	1.51e+00	0	33	104	0	60	47842
2026-01-06 21:11:51.05	81.58	2.68	-47.2	-62.5	3.6	1.51e+00	0	33	104	0	60	48097
2026-01-06 21:11:52.06	81.50	2.73	-47.2	-62.5	3.6	1.51e+00	0	33	104	0	60	48075
2026-01-06 21:11:53.07	81.42	2.79	-47.2	-62.2	3.6	1.51e+00	0	33	104	0	60	46735
2026-01-06 21:11:54.08	81.34	2.84	-47.1	-61.7	3.6	1.51e+00	0	33	104	0	60	43919
2026-01-06 21:11:55.09	81.26	2.90	-47.1	-61.6	3.6	1.51e+00	0	33	104	0	60	43270
2026-01-06 21:11:56.10	81.18	2.96	-47.1	-62.0	3.6	1.51e+00	0	33	104	0	60	45364
2026-01-06 21:11:57.11	81.11	3.01	-47.1	-62.2	3.6	1.51e+00	0	33	104	0	60	46758
2026-01-06 21:11:58.12	81.03	3.07	-47.1	-60.4	3.6	1.51e+00	0	33	104	0	60	37748
2026-01-06 21:11:59.13	80.94	3.12	-46.8	-56.6	5.1	1.37e+00	0	33	104	0	60	24428
2026-01-06 21:12:00.14	80.86	3.18	-46.3	-53.1	7.5	1.38e-01	0	33	0	1048576	60	16359
2026-01-06 21:12:01.15	80.78	3.23	-45.8	-51.2	9.7	2.07e-02	0	33	0	3145728	60	13100
2026-01-06 21:12:02.15	80.70	3.29	-46.6	-53.5	7.1	2.35e-02	0	33	0	4194304	60	17145
2026-01-06 21:12:03.16	80.62	3.35	-47.4	-62.4	3.6	1.12e+00	0	33	104	5242880	60	47811
2026-01-06 21:12:04.17	80.54	3.40	-45.5	-50.6	11.3	3.14e-01	0	33	104	5242880	60	12296
2026-01-06 21:12:05.18	80.46	3.46	-42.1	-44.0	17.9	0.00e+00	0	33	0	6291456	56	7202
2026-01-06 21:12:06.19	80.37	3.51	-47.1	-61.4	3.6	5.28e-01	0	33	104	7340032	60	42402
2026-01-06 21:12:07.20	80.29	3.57	-41.8	-43.6	18.1	0.00e+00	0	33	0	7340032	58	6106
2026-01-06 21:12:08.21	80.21	3.63	-41.7	-43.4	18.2	0.00e+00	0	33	0	9437184	56	6754
2026-01-06 21:12:09.22	80.12	3.68	-41.6	-43.3	18.4	0.00e+00	0	33	0	11534336	56	6682
2026-01-06 21:12:10.23	80.04	3.74	-41.7	-43.4	18.3	0.00e+00	0	33	0	13631488	56	6734
2026-01-06 21:12:11.24	79.96	3.80	-41.7	-43.5	18.3	0.00e+00	0	33	0	14680064	56	6783
2026-01-06 21:12:12.25	79.87	3.85	-41.6	-43.3	18.5	0.00e+00	0	33	0	16777216	56	6622
2026-01-06 21:12:13.26	79.79	3.91	-41.5	-43.2	18.5	0.00e+00	0	33	0	18874368	56	6575
2026-01-06 21:12:14.27	79.70	3.97	-41.6	-43.3	18.4	0.00e+00	0	33	0	20971520	56	6664
2026-01-06 21:12:15.28	79.62	4.02	-41.6	-43.3	18.4	0.00e+00	0	33	0	23068672	56	6651
2026-01-06 21:12:16.29	79.53	4.08	-41.6	-43.3	18.5	0.00e+00	0	33	0	24117248	56	6621
2026-01-06 21:12:17.30	79.44	4.14	-41.6	-43.3	18.5	0.00e+00	0	33	0	26214400	56	6650
2026-01-06 21:12:18.31	79.36	4.19	-41.5	-43.1	18.7	0.00e+00	0	33	0	28311552	56	6502
2026-01-06 21:12:19.31	79.27	4.25	-41.6	-43.3	18.5	0.00e+00	0	33	0	30408704	56	6685
2026-01-06 21:12:20.33	79.18	4.31	-41.6	-43.3	18.4	0.00e+00	0	33	0	32505856	56	6658
2026-01-06 21:12:21.34	79.10	4.36	-41.6	-43.3	18.6	0.00e+00	0	33	0	33554432	56	6649
2026-01-06 21:12:22.35	79.01	4.42	-41.5	-43.2	18.6	0.00e+00	0	33	0	35651584	56	6589
2026-01-06 21:12:23.36	78.92	4.48	-41.6	-43.2	18.6	0.00e+00	0	33	0	37748736	56	6585
2026-01-06 21:12:24.36	78.83	4.53	-41.5	-43.2	18.6	0.00e+00	0	33	0	39845888	56	6544
2026-01-06 21:12:25.37	78.74	4.59	-41.5	-43.1	18.8	0.00e+00	0	33	0	41943040	56	6512
2026-01-06 21:12:26.38	78.65	4.65	-41.5	-43.1	18.7	0.00e+00	0	33	0	44040192	56	6492
2026-01-06 21:12:27.39	78.56	4.71	-41.5	-43.2	18.7	0.00e+00	0	33	0	45088768	56	6545
2026-01-06 21:12:28.40	78.47	4.76	-41.5	-43.1	18.8	0.00e+00	0	33	0	47185920	56	6488
2026-01-06 21:12:29.41	78.38	4.82	-41.3	-42.9	18.9	0.00e+00	0	33	0	49283072	56	6344
2026-01-06 21:12:30.42	78.29	4.88	-41.4	-43.0	18.8	0.00e+00	0	33	0	51380224	56	6422
2026-01-06 21:12:31.43	78.20	4.94	-41.3	-42.9	19.0	0.00e+00	0	33	0	53477376	56	6353
2026-01-06 21:12:32.44	78.11	4.99	-41.5	-43.1	18.8	0.00e+00	0	33	0	54525952	56	6531
2026-01-06 21:12:33.45	78.02	5.05	-41.5	-43.2	18.7	0.00e+00	0	33	0	56623104	56	6543
2026-01-06 21:12:34.46	77.92	5.11	-41.4	-43.0	18.9	0.00e+00	0	33	0	58720256	56	6431
2026-01-06 21:12:35.47	77.83	5.17	-41.4	-43.0	19.0	0.00e+00	0	33	0	60817408	56	6421
2026-01-06 21:12:36.48	77.74	5.22	-41.3	-42.9	19.1	0.00e+00	0	33	0	62914560	56	6352
2026-01-06 21:12:37.49	77.64	5.28	-41.3	-42.9	19.1	0.00e+00	0	33	0	63963136	56	6328
2026-01-06 21:12:38.50	77.55	5.34	-41.5	-43.1	18.9	0.00e+00	0	33	0	66060288	56	6470
2026-01-06 21:12:39.51	77.46	5.40	-41.3	-42.8	19.0	0.00e+00	0	33	0	68157440	56	6306
2026-01-06 21:12:40.52	77.36	5.46	-41.3	-42.9	19.1	0.00e+00	0	33	0	70254592	56	6339
2026-01-06 21:12:41.53	77.27	5.51	-41.3	-42.8	19.1	0.00e+00	0	33	0	72351744	56	6316
2026-01-06 21:12:42.54	77.17	5.57	-41.4	-42.9	19.0	0.00e+00	0	33	0	73400320	56	6387
2026-01-06 21:12:43.55	77.07	5.63	-41.4	-42.9	19.1	0.00e+00	0	33	0	75497472	56	6380
2026-01-06 21:12:44.56	76.98	5.69	-41.4	-42.9	19.1	0.00e+00	0	33	0	77594624	56	6358
2026-01-06 21:12:45.57	76.88	5.75	-41.5	-43.1	18.9	0.00e+00	0	33	0	79691776	56	6475
2026-01-06 21:12:46.58	76.78	5.81	-41.6	-43.2	18.8	0.00e+00	0	33	0	81788928	56	6571
2026-01-06 21:12:47.58	76.69	5.86	-41.3	-42.9	19.2	0.00e+00	0	33	0	82837504	56	6324
2026-01-06 21:12:48.59	76.59	5.92	-41.5	-43.1	19.0	0.00e+00	0	33	0	84934656	56	6474
2026-01-06 21:12:49.60	76.49	5.98	-41.4	-43.0	19.1	0.00e+00	0	33	0	87031808	56	6404
2026-01-06 21:12:50.61	76.39	6.04	-41.4	-42.9	19.1	0.00e+00	0	33	0	89128960	56	6388
2026-01-06 21:12:51.62	76.29	6.10	-41.5	-43.0	19.1	0.00e+00	0	33	0	91226112	56	6445
2026-01-06 21:12:52.63	76.19	6.16	-41.4	-43.0	19.1	0.00e+00	0	33	0	92274688	56	6398
2026-01-06 21:12:53.64	76.09	6.22	-41.5	-43.1	19.0	0.00e+00	0	33	0	94371840	56	6480
2026-01-06 21:12:54.65	75.99	6.27	-41.5	-43.0	19.1	0.00e+00	0	33	0	96468992	56	6427
2026-01-06 21:12:55.66	75.89	6.33	-41.4	-42.9	19.2	0.00e+00	0	33	0	98566144	56	6381
2026-01-06 21:12:56.67	75.79	6.39	-41.5	-43.0	19.1	0.00e+00	0	33	0	100663296	56	6431
2026-01-06 21:12:57.68	75.69	6.45	-41.4	-42.9	19.2	0.00e+00	0	33	0	101711872	56	6359
2026-01-06 21:12:58.69	75.59	6.51	-41.3	-42.8	19.2	0.00e+00	0	33	0	103809024	56	6312
2026-01-06 21:12:59.70	75.49	6.57	-41.4	-42.9	19.2	0.00e+00	0	33	0	105906176	56	6335
2026-01-06 21:13:00.71	75.38	6.63	-41.5	-43.1	19.1	0.00e+00	0	33	0	108003328	56	6485
2026-01-06 21:13:01.71	75.28	6.69	-41.5	-43.0	19.0	0.00e+00	0	33	0	110100480	56	6431
2026-01-06 21:13:02.73	75.18	6.75	-41.4	-42.9	19.3	0.00e+00	0	33	0	112197632	56	6327
2026-01-06 21:13:03.73	75.07	6.81	-41.5	-43.0	19.1	0.00e+00	0	33	0	113246208	56	6435
2026-01-06 21:13:04.74	74.97	6.87	-41.3	-42.8	19.3	0.00e+00	0	33	0	115343360	56	6307
2026-01-06 21:13:05.75	74.86	6.92	-41.3	-42.8	19.3	0.00e+00	0	33	0	117440512	56	6251
2026-01-06 21:13:06.76	74.76	6.98	-41.3	-42.8	19.3	0.00e+00	0	33	0	119537664	56	6299
2026-01-06 21:13:07.77	74.65	7.04	-41.3	-42.8	19.3	0.00e+00	0	33	0	121634816	56	6276
2026-01-06 21:13:08.78	74.55	7.10	-41.4	-42.9	19.3	0.00e+00	0	33	0	122683392	56	6334
2026-01-06 21:13:09.79	74.44	7.16	-41.2	-42.6	19.5	0.00e+00	0	33	0	124780544	56	6154
2026-01-06 21:13:10.80	74.33	7.22	-41.2	-42.6	19.5	0.00e+00	0	33	0	126877696	56	6164
2026-01-06 21:13:11.81	74.22	7.28	-41.1	-42.6	19.6	0.00e+00	0	33	0	128974848	56	6137
2026-01-06 21:13:12.81	74.12	7.34	-41.2	-42.7	19.5	0.00e+00	0	33	0	131072000	56	6174
2026-01-06 21:13:13.82	74.01	7.40	-41.2	-42.7	19.5	0.00e+00	0	33	0	132120576	56	6191
2026-01-06 21:13:14.83	73.90	7.46	-41.3	-42.8	19.4	0.00e+00	0	33	0	134217728	56	6256
2026-01-06 21:13:15.84	73.79	7.52	-41.3	-42.8	19.4	0.00e+00	0	33	0	136314880	56	6303
2026-01-06 21:13:16.85	73.68	7.58	-41.3	-42.8	19.4	0.00e+00	0	33	0	138412032	56	6275
2026-01-06 21:13:17.86	73.57	7.64	-41.3	-42.8	19.3	0.00e+00	0	33	0	140509184	56	6276
2026-01-06 21:13:18.87	73.46	7.70	-41.2	-42.6	19.6	0.00e+00	0	33	0	141557760	56	6167
2026-01-06 21:13:19.88	73.35	7.76	-41.1	-42.6	19.7	0.00e+00	0	33	0	143654912	56	6112
2026-01-06 21:13:20.89	73.23	7.82	-41.1	-42.5	19.6	0.00e+00	0	33	0	145752064	56	6100
2026-01-06 21:13:21.90	73.12	7.88	-41.1	-42.5	19.7	0.00e+00	0	33	0	147849216	56	6082
2026-01-06 21:13:22.91	73.01	7.94	-41.0	-42.4	19.8	0.00e+00	0	33	0	149946368	56	6009
2026-01-06 21:13:23.92	72.90	8.00	-41.0	-42.4	19.8	0.00e+00	0	33	0	150994944	56	5990
2026-01-06 21:13:24.92	72.78	8.06	-41.0	-42.4	19.9	0.00e+00	0	33	0	153092096	56	6016
2026-01-06 21:13:25.93	72.67	8.12	-41.0	-42.4	19.9	0.00e+00	0	33	0	155189248	56	5976
2026-01-06 21:13:26.94	72.55	8.18	-41.0	-42.4	19.8	0.00e+00	0	33	0	157286400	56	6027
2026-01-06 21:13:27.95	72.44	8.24	-40.9	-42.3	20.0	0.00e+00	0	33	0	159383552	56	5919
2026-01-06 21:13:28.95	72.32	8.30	-40.9	-42.2	20.0	0.00e+00	0	33	0	160432128	56	5895
2026-01-06 21:13:29.96	72.21	8.36	-40.6	-41.9	20.2	0.00e+00	0	33	0	162529280	54	6387
2026-01-06 21:13:30.97	72.09	8.42	-40.5	-41.9	20.3	0.00e+00	0	33	0	164626432	54	6328
2026-01-06 21:13:31.98	71.97	8.48	-40.3	-41.6	20.5	0.00e+00	0	33	0	166723584	54	6147
2026-01-06 21:13:32.99	71.86	8.54	-40.3	-41.5	20.6	0.00e+00	0	33	0	168820736	54	6095
2026-01-06 21:13:34.00	71.74	8.60	-40.3	-41.6	20.5	0.00e+00	0	33	0	169869312	54	6145
2026-01-06 21:13:35.01	71.62	8.66	-40.2	-41.4	20.7	0.00e+00	0	33	0	171966464	54	6027
2026-01-06 21:13:36.02	71.50	8.72	-40.2	-41.5	20.7	0.00e+00	0	33	0	174063616	54	6070
2026-01-06 21:13:37.03	71.38	8.78	-40.3	-41.6	20.6	0.00e+00	0	33	0	176160768	54	6110
2026-01-06 21:13:38.04	71.26	8.84	-40.1	-41.3	20.8	0.00e+00	0	33	0	178257920	54	5946
2026-01-06 21:13:39.05	71.14	8.90	-40.2	-41.5	20.7	0.00e+00	0	33	0	179306496	54	6064
2026-01-06 21:13:40.06	71.02	8.96	-40.1	-41.3	20.8	0.00e+00	0	33	0	181403648	54	5964
2026-01-06 21:13:41.06	70.90	9.02	-40.0	-41.3	20.9	0.00e+00	0	33	0	183500800	54	5897
2026-01-06 21:13:42.07	70.78	9.08	-40.0	-41.2	20.9	0.00e+00	0	33	0	185597952	54	5860
2026-01-06 21:13:43.08	70.65	9.14	-40.1	-41.3	20.9	0.00e+00	0	33	0	187695104	54	5904
2026-01-06 21:13:44.09	70.53	9.21	-40.1	-41.3	20.9	0.00e+00	0	33	0	188743680	54	5947
2026-01-06 21:13:45.10	70.41	9.27	-40.0	-41.2	21.0	0.00e+00	0	33	0	190840832	54	5834
2026-01-06 21:13:46.11	70.28	9.33	-39.9	-41.1	21.1	0.00e+00	0	33	0	192937984	54	5783
2026-01-06 21:13:47.12	70.16	9.39	-40.0	-41.3	20.9	0.00e+00	0	33	0	195035136	54	5900
2026-01-06 21:13:48.13	70.03	9.45	-40.0	-41.3	20.9	0.00e+00	0	33	0	197132288	54	5918
2026-01-06 21:13:49.14	69.90	9.51	-40.0	-41.2	21.0	0.00e+00	0	33	0	198180864	54	5888
2026-01-06 21:13:50.15	69.78	9.57	-39.9	-41.0	21.2	0.00e+00	0	33	0	200278016	54	5754
2026-01-06 21:13:51.16	69.65	9.63	-39.9	-41.1	21.1	0.00e+00	0	33	0	202375168	54	5772
2026-01-06 21:13:52.16	69.52	9.69	-39.8	-40.9	21.3	0.00e+00	0	33	0	204472320	54	5686
2026-01-06 21:13:53.17	69.40	9.75	-39.8	-40.9	21.3	0.00e+00	0	33	0	206569472	52	6380
2026-01-06 21:13:54.18	69.27	9.81	-39.8	-41.0	21.3	0.00e+00	0	33	0	208666624	52	6408
2026-01-06 21:13:55.19	69.14	9.87	-39.7	-40.9	21.4	0.00e+00	0	33	0	209715200	52	6345
2026-01-06 21:13:56.20	69.01	9.93	-39.7	-40.8	21.4	0.00e+00	0	33	0	211812352	52	6275
2026-01-06 21:13:57.21	68.88	9.99	-39.8	-40.9	21.3	0.00e+00	0	33	0	213909504	52	6383
2026-01-06 21:13:58.22	68.75	10.05	-39.8	-41.0	21.3	0.00e+00	0	33	0	216006656	52	6416
2026-01-06 21:13:59.23	68.62	10.12	-39.9	-41.1	21.2	0.00e+00	0	33	0	218103808	52	6484
2026-01-06 21:14:00.24	68.48	10.18	-39.9	-41.0	21.2	0.00e+00	0	33	0	219152384	52	6449
2026-01-06 21:14:01.25	68.35	10.24	-40.0	-41.1	21.1	0.00e+00	0	33	0	221249536	52	6534
2026-01-06 21:14:02.26	68.22	10.30	-40.0	-41.1	21.1	0.00e+00	0	33	0	223346688	52	6534
2026-01-06 21:14:03.27	68.09	10.36	-39.9	-41.1	21.2	0.00e+00	0	33	0	225443840	52	6476
2026-01-06 21:14:04.28	67.95	10.42	-39.9	-41.1	21.2	0.00e+00	0	33	0	227540992	52	6491
2026-01-06 21:14:05.29	67.82	10.48	-40.0	-41.2	21.1	0.00e+00	0	33	0	228589568	52	6590
2026-01-06 21:14:06.30	67.68	10.54	-40.0	-41.2	21.0	0.00e+00	0	33	0	230686720	52	6564
2026-01-06 21:14:07.31	67.54	10.60	-40.1	-41.2	21.0	0.00e+00	0	33	0	232783872	52	6615
2026-01-06 21:14:08.32	67.41	10.66	-40.2	-41.5	20.9	0.00e+00	0	33	0	234881024	52	6784
2026-01-06 21:14:09.33	67.27	10.72	-40.0	-41.2	21.1	0.00e+00	0	33	0	236978176	52	6564
2026-01-06 21:14:10.34	67.13	10.78	-40.1	-41.3	21.1	0.00e+00	0	33	0	238026752	52	6662
2026-01-06 21:14:11.35	67.00	10.84	-39.9	-41.1	21.2	0.00e+00	0	33	0	240123904	52	6514
2026-01-06 21:14:12.36	66.86	10.91	-39.9	-41.1	21.2	0.00e+00	0	33	0	242221056	52	6496
2026-01-06 21:14:13.37	66.72	10.97	-40.0	-41.2	21.1	0.00e+00	0	33	0	244318208	52	6555
2026-01-06 21:14:14.38	66.58	11.03	-39.9	-41.1	21.2	0.00e+00	0	33	0	246415360	52	6490
2026-01-06 21:14:15.39	66.44	11.09	-39.9	-41.1	21.2	0.00e+00	0	33	0	247463936	52	6474
2026-01-06 21:14:16.40	66.30	11.15	-40.0	-41.2	21.2	0.00e+00	0	33	0	249561088	52	6559
2026-01-06 21:14:17.40	66.15	11.21	-39.9	-41.0	21.3	0.00e+00	0	33	0	251658240	52	6452
2026-01-06 21:14:18.41	66.01	11.27	-39.9	-41.1	21.2	0.00e+00	0	33	0	253755392	52	6502
2026-01-06 21:14:19.42	65.87	11.33	-40.0	-41.2	21.2	0.00e+00	0	33	0	255852544	52	6540
2026-01-06 21:14:20.43	65.73	11.39	-39.9	-41.1	21.3	0.00e+00	0	33	0	256901120	52	6478
2026-01-06 21:14:21.44	65.58	11.45	-39.8	-40.9	21.4	0.00e+00	0	33	0	258998272	52	6363
2026-01-06 21:14:22.45	65.44	11.51	-39.7	-40.9	21.5	0.00e+00	0	33	0	261095424	52	6318
2026-01-06 21:14:23.46	65.29	11.57	-39.7	-40.8	21.5	0.00e+00	0	33	0	263192576	52	6300
2026-01-06 21:14:24.48	65.14	11.63	-39.8	-41.0	21.4	0.00e+00	0	33	0	265289728	52	6404
2026-01-06 21:14:25.48	65.00	11.69	-39.8	-41.0	21.3	0.00e+00	0	33	0	266338304	52	6415
2026-01-06 21:14:26.49	64.85	11.75	-40.0	-41.1	21.2	0.00e+00	0	33	0	268435456	52	6517
2026-01-06 21:14:27.50	64.70	11.81	-40.0	-41.1	21.3	0.00e+00	0	33	0	270532608	52	6535
2026-01-06 21:14:28.51	64.56	11.87	-39.9	-41.1	21.2	0.00e+00	0	33	0	272629760	52	6509
2026-01-06 21:14:29.52	64.41	11.93	-40.0	-41.2	21.2	0.00e+00	0	33	0	274726912	52	6571
2026-01-06 21:14:30.53	64.26	11.99	-39.9	-41.0	21.3	0.00e+00	0	33	0	276824064	52	6448
2026-01-06 21:14:31.54	64.11	12.05	-39.9	-41.1	21.3	0.00e+00	0	33	0	277872640	52	6506
2026-01-06 21:14:32.55	63.95	12.11	-40.1	-41.3	21.1	0.00e+00	0	33	0	279969792	52	6672
2026-01-06 21:14:33.56	63.80	12.17	-40.1	-41.3	21.1	0.00e+00	0	33	0	282066944	52	6659
2026-01-06 21:14:34.57	63.65	12.23	-40.1	-41.3	21.1	0.00e+00	0	33	0	284164096	52	6659
2026-01-06 21:14:35.58	63.50	12.29	-40.1	-41.3	21.1	0.00e+00	0	33	0	286261248	52	6626
2026-01-06 21:14:36.59	63.34	12.35	-39.9	-41.1	21.3	0.00e+00	0	33	0	287309824	52	6499
2026-01-06 21:14:37.60	63.19	12.41	-40.0	-41.2	21.2	0.00e+00	0	33	0	289406976	52	6594
2026-01-06 21:14:38.61	63.04	12.47	-39.9	-41.1	21.3	0.00e+00	0	33	0	291504128	52	6492
2026-01-06 21:14:39.62	62.88	12.53	-40.0	-41.1	21.3	0.00e+00	0	33	0	293601280	52	6515
2026-01-06 21:14:40.63	62.72	12.59	-39.7	-40.9	21.5	0.00e+00	0	33	0	295698432	52	6321
2026-01-06 21:14:41.64	62.57	12.65	-40.0	-41.1	21.3	0.00e+00	0	33	0	296747008	52	6525
2026-01-06 21:14:42.64	62.41	12.71	-39.7	-40.8	21.6	0.00e+00	0	33	0	298844160	52	6266
2026-01-06 21:14:43.65	62.25	12.77	-39.5	-40.6	21.7	0.00e+00	0	33	0	300941312	52	6138
2026-01-06 21:14:44.66	62.10	12.83	-39.6	-40.7	21.7	0.00e+00	0	33	0	303038464	52	6191
2026-01-06 21:14:45.67	61.94	12.89	-39.7	-40.8	21.6	0.00e+00	0	33	0	305135616	52	6273
2026-01-06 21:14:46.68	61.78	12.95	-39.8	-40.9	21.5	0.00e+00	0	33	0	306184192	52	6350
2026-01-06 21:14:47.69	61.62	13.01	-40.0	-41.1	21.2	0.00e+00	0	33	0	308281344	52	6524
2026-01-06 21:14:48.70	61.45	13.07	-39.9	-41.0	21.5	0.00e+00	0	33	0	310378496	52	6431
2026-01-06 21:14:49.71	61.29	13.13	-39.8	-40.9	21.3	0.00e+00	0	33	0	312475648	52	6388
2026-01-06 21:14:50.72	61.13	13.18	-39.9	-41.0	21.3	0.00e+00	0	33	0	314572800	52	6440
2026-01-06 21:14:51.73	60.97	13.24	-39.7	-40.9	21.5	0.00e+00	0	33	0	315621376	52	6333
2026-01-06 21:14:52.73	60.80	13.30	-39.8	-40.9	21.5	0.00e+00	0	33	0	317718528	52	6371
2026-01-06 21:14:53.74	60.64	13.36	-39.5	-40.6	21.8	0.00e+00	0	33	0	319815680	52	6138
2026-01-06 21:14:54.75	60.47	13.42	-39.5	-40.6	21.7	0.00e+00	0	33	0	321912832	52	6159
2026-01-06 21:14:55.76	60.31	13.48	-39.5	-40.6	21.8	0.00e+00	0	33	0	324009984	52	6151
2026-01-06 21:14:56.77	60.14	13.54	-39.4	-40.5	21.9	0.00e+00	0	33	0	325058560	52	6040
2026-01-06 21:14:57.78	59.98	13.59	-39.3	-40.4	22.0	0.00e+00	0	33	0	327155712	52	5971
2026-01-06 21:14:58.79	59.81	13.65	-39.4	-40.5	21.9	0.00e+00	0	33	0	329252864	52	6062
2026-01-06 21:14:59.80	59.64	13.71	-39.2	-40.2	22.1	0.00e+00	0	33	0	331350016	52	5889
2026-01-06 21:15:00.81	59.47	13.77	-39.1	-40.1	22.2	0.00e+00	0	34	0	333447168	52	5781
2026-01-06 21:15:01.81	59.30	13.83	-39.0	-40.0	22.3	0.00e+00	0	33	0	334495744	52	5735
2026-01-06 21:15:02.82	59.13	13.88	-38.9	-39.9	22.5	0.00e+00	0	33	0	336592896	52	5663
2026-01-06 21:15:03.83	58.96	13.94	-39.0	-40.0	22.3	0.00e+00	0	33	0	338690048	52	5731
2026-01-06 21:15:04.84	58.79	14.00	-38.9	-39.9	22.5	0.00e+00	0	33	0	340787200	52	5659
2026-01-06 21:15:05.85	58.62	14.06	-38.9	-40.0	22.3	0.00e+00	0	33	0	342884352	52	5703
2026-01-06 21:15:06.86	58.44	14.11	-38.8	-39.8	22.5	0.00e+00	0	33	0	344981504	52	5586
2026-01-06 21:15:07.87	58.27	14.17	-38.7	-39.7	22.6	0.00e+00	0	33	0	346030080	52	5566
2026-01-06 21:15:08.88	58.09	14.23	-38.7	-39.7	22.5	0.00e+00	0	33	0	348127232	50	6240
2026-01-06 21:15:09.89	57.92	14.28	-38.7	-39.7	22.6	0.00e+00	0	33	0	350224384	50	6230
2026-01-06 21:15:10.90	57.74	14.34	-38.6	-39.6	22.8	0.00e+00	0	33	0	352321536	50	6134
2026-01-06 21:15:11.91	57.57	14.40	-38.6	-39.6	22.8	0.00e+00	0	33	0	354418688	50	6120
2026-01-06 21:15:12.92	57.39	14.45	-38.4	-39.3	23.0	0.00e+00	0	33	0	355467264	50	5941
2026-01-06 21:15:13.93	57.21	14.51	-38.4	-39.3	22.9	0.00e+00	0	33	0	357564416	50	5952
2026-01-06 21:15:14.94	57.03	14.57	-38.3	-39.3	23.0	0.00e+00	0	33	0	359661568	50	5916
2026-01-06 21:15:15.95	56.85	14.62	-38.2	-39.2	23.2	0.00e+00	0	34	0	361758720	50	5842
2026-01-06 21:15:16.95	56.67	14.68	-38.1	-39.1	23.2	0.00e+00	0	33	0	363855872	50	5777
2026-01-06 21:15:17.96	56.49	14.73	-38.2	-39.1	23.2	0.00e+00	0	33	0	364904448	50	5796
2026-01-06 21:15:18.97	56.31	14.79	-38.1	-39.0	23.1	0.00e+00	0	33	0	367001600	50	5748
2026-01-06 21:15:19.98	56.13	14.84	-38.1	-39.0	23.2	0.00e+00	0	33	0	369098752	50	5747
2026-01-06 21:15:20.99	55.95	14.90	-38.1	-39.0	23.3	0.00e+00	0	34	0	371195904	50	5747
2026-01-06 21:15:22.00	55.76	14.95	-38.1	-39.0	23.2	0.00e+00	0	33	0	373293056	50	5748
2026-01-06 21:15:23.01	55.58	15.01	-37.9	-38.8	23.4	0.00e+00	0	34	0	374341632	50	5627
2026-01-06 21:15:24.02	55.40	15.06	-37.8	-38.8	23.5	0.00e+00	0	33	0	376438784	50	5569
2026-01-06 21:15:25.03	55.21	15.12	-37.7	-38.6	23.6	0.00e+00	0	33	0	378535936	48	6145
2026-01-06 21:15:26.04	55.02	15.17	-37.6	-38.5	23.7	0.00e+00	0	33	0	380633088	48	6062
2026-01-06 21:15:27.05	54.84	15.22	-37.6	-38.5	23.8	0.00e+00	0	33	0	382730240	48	6077
2026-01-06 21:15:28.06	54.65	15.28	-37.3	-38.2	24.0	0.00e+00	0	33	0	383778816	48	5849
2026-01-06 21:15:29.07	54.46	15.33	-37.4	-38.2	24.0	0.00e+00	0	33	0	385875968	48	5890
2026-01-06 21:15:30.08	54.27	15.39	-37.3	-38.1	24.0	0.00e+00	0	33	0	387973120	48	5821
2026-01-06 21:15:31.08	54.09	15.44	-37.4	-38.2	24.0	0.00e+00	0	33	0	390070272	48	5869
2026-01-06 21:15:32.10	53.89	15.49	-37.3	-38.1	24.0	0.00e+00	0	33	0	392167424	48	5828
2026-01-06 21:15:33.11	53.70	15.54	-37.4	-38.3	23.9	0.00e+00	0	33	0	393216000	48	5900
2026-01-06 21:15:34.12	53.51	15.60	-37.2	-38.1	24.1	0.00e+00	0	33	0	395313152	48	5771
2026-01-06 21:15:35.12	53.32	15.65	-37.3	-38.2	24.0	0.00e+00	0	34	0	397410304	48	5838
2026-01-06 21:15:36.13	53.13	15.70	-37.3	-38.2	23.8	0.00e+00	0	33	0	399507456	48	5856
2026-01-06 21:15:37.14	52.93	15.75	-37.3	-38.2	24.0	0.00e+00	0	33	0	401604608	48	5851
2026-01-06 21:15:38.15	52.74	15.81	-37.2	-38.0	24.0	0.00e+00	0	34	0	402653184	48	5736
2026-01-06 21:15:39.16	52.54	15.86	-37.2	-38.1	24.1	0.00e+00	0	33	0	404750336	48	5791
2026-01-06 21:15:40.17	52.35	15.91	-37.5	-38.3	23.9	0.00e+00	0	34	0	406847488	48	5947
2026-01-06 21:15:41.18	52.15	15.96	-37.3	-38.2	24.0	0.00e+00	0	33	0	408944640	48	5867
2026-01-06 21:15:42.19	51.96	16.01	-37.3	-38.2	23.9	0.00e+00	0	33	0	411041792	48	5869
2026-01-06 21:15:43.20	51.76	16.06	-37.3	-38.2	24.0	0.00e+00	0	34	0	412090368	48	5865
2026-01-06 21:15:44.21	51.56	16.11	-37.4	-38.3	23.9	0.00e+00	0	33	0	414187520	48	5930
2026-01-06 21:15:45.21	51.36	16.16	-37.4	-38.3	23.9	0.00e+00	0	33	0	416284672	48	5944
2026-01-06 21:15:46.22	51.16	16.21	-37.5	-38.4	23.8	0.00e+00	0	34	0	418381824	48	5983
2026-01-06 21:15:47.23	50.96	16.26	-37.6	-38.5	23.7	0.00e+00	0	34	0	420478976	48	6049
2026-01-06 21:15:48.24	50.76	16.31	-37.6	-38.5	23.8	0.00e+00	0	33	0	421527552	48	6034
2026-01-06 21:15:49.25	50.56	16.36	-37.7	-38.6	23.7	0.00e+00	0	33	0	423624704	48	6170
2026-01-06 21:15:50.26	50.36	16.41	-37.7	-38.6	23.5	0.00e+00	0	33	0	425721856	48	6161
2026-01-06 21:15:51.27	50.15	16.46	-37.7	-38.6	23.7	0.00e+00	0	33	0	427819008	48	6136
2026-01-06 21:15:52.28	49.95	16.50	-37.8	-38.7	23.5	0.00e+00	0	33	0	429916160	48	6202
2026-01-06 21:15:53.29	49.75	16.55	-37.8	-38.7	23.6	0.00e+00	0	34	0	430964736	48	6184
2026-01-06 21:15:54.30	49.54	16.60	-37.8	-38.7	23.5	0.00e+00	0	34	0	433061888	48	6220
2026-01-06 21:15:55.31	49.33	16.65	-37.7	-38.6	23.8	0.00e+00	0	33	0	435159040	48	6118
2026-01-06 21:15:56.32	49.13	16.69	-37.7	-38.6	23.7	0.00e+00	0	33	0	437256192	48	6154
2026-01-06 21:15:57.33	48.92	16.74	-37.7	-38.6	23.6	0.00e+00	0	33	0	439353344	48	6130
2026-01-06 21:15:58.33	48.72	16.79	-37.6	-38.5	23.7	0.00e+00	0	33	0	441450496	48	6051
2026-01-06 21:15:59.34	48.51	16.83	-37.5	-38.4	23.8	0.00e+00	0	33	0	442499072	48	5998
2026-01-06 21:16:00.35	48.30	16.88	-37.6	-38.5	23.8	0.00e+00	0	33	0	444596224	48	6049
2026-01-06 21:16:01.36	48.09	16.93	-37.4	-38.3	23.9	0.00e+00	0	33	0	446693376	48	5934
2026-01-06 21:16:02.36	47.88	16.97	-37.2	-38.1	24.1	0.00e+00	0	34	0	448790528	48	5789
2026-01-06 21:16:03.38	47.67	17.02	-37.2	-38.0	24.2	0.00e+00	0	34	0	450887680	48	5740
2026-01-06 21:16:04.38	47.46	17.06	-37.1	-37.9	24.2	0.00e+00	0	34	0	451936256	48	5651
2026-01-06 21:16:05.40	47.24	17.11	-37.0	-37.8	24.3	0.00e+00	0	34	0	454033408	48	5623
2026-01-06 21:16:06.41	47.03	17.15	-36.8	-37.7	24.5	0.00e+00	0	33	0	456130560	48	5508
2026-01-06 21:16:07.42	46.82	17.19	-36.8	-37.6	24.5	0.00e+00	0	34	0	458227712	46	6154
2026-01-06 21:16:08.43	46.60	17.24	-36.9	-37.8	24.4	0.00e+00	0	34	0	460324864	46	6257
2026-01-06 21:16:09.43	46.39	17.28	-37.0	-37.9	24.3	0.00e+00	0	34	0	461373440	46	6334
2026-01-06 21:16:10.44	46.18	17.32	-37.0	-37.8	24.4	0.00e+00	0	33	0	463470592	46	6270
2026-01-06 21:16:11.45	45.96	17.36	-36.9	-37.7	24.4	0.00e+00	0	34	0	465567744	46	6237
2026-01-06 21:16:12.46	45.74	17.41	-37.0	-37.9	24.4	0.00e+00	0	33	0	467664896	46	6319
2026-01-06 21:16:13.47	45.53	17.45	-36.9	-37.8	24.5	0.00e+00	0	33	0	469762048	46	6261
2026-01-06 21:16:14.48	45.31	17.49	-36.9	-37.7	24.4	0.00e+00	0	33	0	470810624	46	6212
2026-01-06 21:16:15.49	45.09	17.53	-37.0	-37.8	24.0	0.00e+00	0	33	0	472907776	46	6307
2026-01-06 21:16:16.50	44.87	17.57	-37.0	-37.9	24.3	0.00e+00	0	33	0	475004928	46	6335
2026-01-06 21:16:17.51	44.65	17.61	-37.0	-37.8	24.3	0.00e+00	0	33	0	477102080	46	6291
2026-01-06 21:16:18.52	44.43	17.65	-36.9	-37.8	24.4	0.00e+00	0	33	0	479199232	46	6264
2026-01-06 21:16:19.53	44.21	17.69	-37.0	-37.8	24.3	0.00e+00	0	33	0	480247808	46	6307
2026-01-06 21:16:20.53	43.99	17.73	-36.8	-37.6	24.6	0.00e+00	0	34	0	482344960	46	6132
2026-01-06 21:16:21.54	43.77	17.77	-36.8	-37.6	24.5	0.00e+00	0	33	0	484442112	46	6169
2026-01-06 21:16:22.55	43.55	17.81	-36.8	-37.6	24.5	0.00e+00	0	33	0	486539264	46	6163
2026-01-06 21:16:23.56	43.33	17.85	-36.6	-37.4	24.7	0.00e+00	0	33	0	488636416	46	5990
2026-01-06 21:16:24.57	43.10	17.88	-36.6	-37.4	24.7	0.00e+00	0	34	0	489684992	46	6004
2026-01-06 21:16:25.58	42.88	17.92	-36.5	-37.3	24.8	0.00e+00	0	34	0	491782144	46	5929
2026-01-06 21:16:26.59	42.65	17.96	-36.6	-37.4	24.8	0.00e+00	0	33	0	493879296	46	5976
2026-01-06 21:16:27.60	42.43	17.99	-36.7	-37.5	24.6	0.00e+00	0	34	0	495976448	46	6061
2026-01-06 21:16:28.61	42.20	18.03	-36.7	-37.6	24.6	0.00e+00	0	34	0	498073600	46	6106
2026-01-06 21:16:29.62	41.98	18.07	-36.9	-37.7	24.5	0.00e+00	0	33	0	499122176	46	6204
2026-01-06 21:16:30.63	41.75	18.10	-36.8	-37.7	24.5	0.00e+00	0	33	0	501219328	46	6176
2026-01-06 21:16:31.64	41.52	18.14	-36.9	-37.8	24.4	0.00e+00	0	34	0	503316480	46	6249
2026-01-06 21:16:32.65	41.30	18.17	-37.1	-37.9	24.3	0.00e+00	0	33	0	505413632	46	6378
2026-01-06 21:16:33.66	41.07	18.20	-37.1	-38.0	24.3	0.00e+00	0	33	0	507510784	46	6399
2026-01-06 21:16:34.67	40.84	18.24	-37.2	-38.0	24.2	0.00e+00	0	34	0	509607936	46	6441
2026-01-06 21:16:35.68	40.61	18.27	-37.1	-38.0	24.2	0.00e+00	0	34	0	510656512	46	6418
2026-01-06 21:16:36.69	40.38	18.30	-37.1	-38.0	24.3	0.00e+00	0	33	0	512753664	46	6417
2026-01-06 21:16:37.70	40.15	18.33	-37.3	-38.1	24.2	0.00e+00	0	33	0	514850816	46	6508
2026-01-06 21:16:38.70	39.92	18.37	-37.1	-38.0	24.3	0.00e+00	0	34	0	516947968	46	6401
2026-01-06 21:16:39.71	39.69	18.40	-37.1	-38.0	23.8	0.00e+00	0	34	0	519045120	46	6398
2026-01-06 21:16:40.73	39.46	18.43	-37.2	-38.0	24.2	0.00e+00	0	34	0	520093696	46	6451
2026-01-06 21:16:41.74	39.22	18.46	-37.3	-38.1	24.2	0.00e+00	0	34	0	522190848	46	6518
2026-01-06 21:16:42.75	38.99	18.49	-37.2	-38.0	24.2	0.00e+00	0	33	0	524288000	46	6443
2026-01-06 21:16:43.76	38.76	18.52	-37.2	-38.0	24.3	0.00e+00	0	34	0	526385152	46	6426
2026-01-06 21:16:44.77	38.52	18.55	-37.3	-38.1	24.1	0.00e+00	0	34	0	528482304	46	6519
2026-01-06 21:16:45.78	38.29	18.58	-37.4	-38.2	24.0	0.00e+00	0	33	0	529530880	46	6585
2026-01-06 21:16:46.79	38.06	18.60	-37.5	-38.4	23.9	0.00e+00	0	34	0	531628032	46	6721
2026-01-06 21:16:47.80	37.82	18.63	-37.6	-38.5	23.8	0.00e+00	0	34	0	533725184	46	6807
2026-01-06 21:16:48.81	37.59	18.66	-37.6	-38.5	23.9	0.00e+00	0	34	0	535822336	46	6788
2026-01-06 21:16:49.82	37.35	18.69	-37.8	-38.7	23.6	0.00e+00	0	34	0	537919488	48	6231
2026-01-06 21:16:50.83	37.11	18.71	-37.7	-38.6	23.6	0.00e+00	0	34	0	538968064	48	6156
2026-01-06 21:16:51.84	36.88	18.74	-37.9	-38.8	23.5	0.00e+00	0	34	0	541065216	48	6309
2026-01-06 21:16:52.85	36.64	18.76	-37.9	-38.8	23.6	0.00e+00	0	33	0	543162368	48	6316
2026-01-06 21:16:53.86	36.40	18.79	-38.0	-38.9	23.4	0.00e+00	0	33	0	545259520	48	6384
2026-01-06 21:16:54.87	36.17	18.81	-37.9	-38.8	23.5	0.00e+00	0	33	0	547356672	48	6286
2026-01-06 21:16:55.88	35.93	18.84	-37.8	-38.7	23.7	0.00e+00	0	34	0	548405248	48	6194
2026-01-06 21:16:56.89	35.69	18.86	-37.8	-38.7	23.6	0.00e+00	0	34	0	550502400	48	6235
2026-01-06 21:16:57.90	35.45	18.88	-37.9	-38.8	23.6	0.00e+00	0	33	0	552599552	48	6291
2026-01-06 21:16:58.91	35.21	18.91	-38.0	-38.9	23.5	0.00e+00	0	33	0	554696704	48	6364
2026-01-06 21:16:59.92	34.97	18.93	-38.0	-39.0	23.5	0.00e+00	0	34	0	556793856	48	6392
2026-01-06 21:17:00.93	34.73	18.95	-38.0	-38.9	23.5	0.00e+00	0	34	0	557842432	48	6340
2026-01-06 21:17:01.94	34.49	18.97	-38.1	-39.0	23.2	0.00e+00	0	33	0	559939584	48	6416
2026-01-06 21:17:02.95	34.25	18.99	-37.9	-38.8	23.5	0.00e+00	0	33	0	562036736	48	6299
2026-01-06 21:17:03.96	34.01	19.01	-38.1	-39.1	23.3	0.00e+00	0	34	0	564133888	48	6478
2026-01-06 21:17:04.97	33.77	19.03	-38.2	-39.1	23.3	0.00e+00	0	33	0	566231040	48	6491
2026-01-06 21:17:05.98	33.53	19.05	-38.3	-39.2	23.2	0.00e+00	0	33	0	567279616	48	6579
2026-01-06 21:17:06.99	33.29	19.07	-38.4	-39.4	23.0	0.00e+00	0	34	0	569376768	48	6701
2026-01-06 21:17:08.00	33.04	19.08	-38.4	-39.4	23.0	0.00e+00	0	33	0	571473920	48	6698
2026-01-06 21:17:09.01	32.80	19.10	-38.5	-39.4	23.1	0.00e+00	0	34	0	573571072	48	6743
2026-01-06 21:17:10.02	32.56	19.12	-38.5	-39.4	23.0	0.00e+00	0	34	0	575668224	48	6748
2026-01-06 21:17:11.03	32.32	19.13	-38.6	-39.6	22.9	0.00e+00	0	34	0	577765376	48	6872
2026-01-06 21:17:12.04	32.07	19.15	-38.8	-39.8	22.6	0.00e+00	0	34	0	578813952	50	6269
2026-01-06 21:17:13.05	31.83	19.16	-38.8	-39.8	22.7	0.00e+00	0	34	0	580911104	50	6281
2026-01-06 21:17:14.06	31.59	19.18	-38.7	-39.7	22.8	0.00e+00	0	33	0	583008256	50	6198
2026-01-06 21:17:15.07	31.34	19.19	-38.5	-39.4	23.0	0.00e+00	0	34	0	585105408	50	6017
2026-01-06 21:17:16.09	31.10	19.21	-38.4	-39.3	23.1	0.00e+00	0	34	0	587202560	50	5945
2026-01-06 21:17:17.10	30.85	19.22	-38.4	-39.4	23.1	0.00e+00	0	33	0	588251136	50	5977
2026-01-06 21:17:18.10	30.61	19.23	-38.5	-39.5	23.0	0.00e+00	0	34	0	590348288	50	6072
2026-01-06 21:17:19.12	30.36	19.24	-38.6	-39.5	22.9	0.00e+00	0	33	0	592445440	50	6085
2026-01-06 21:17:20.12	30.12	19.26	-38.6	-39.6	22.9	0.00e+00	0	34	0	594542592	50	6130
2026-01-06 21:17:21.13	29.87	19.27	-38.6	-39.5	22.9	0.00e+00	0	34	0	596639744	50	6072
2026-01-06 21:17:22.14	29.63	19.28	-38.5	-39.5	22.9	0.00e+00	0	34	0	597688320	50	6068
2026-01-06 21:17:23.15	29.38	19.29	-38.5	-39.5	22.9	0.00e+00	0	33	0	599785472	50	6064
2026-01-06 21:17:24.16	29.14	19.30	-38.5	-39.5	23.0	0.00e+00	0	34	0	601882624	50	6073
2026-01-06 21:17:25.17	28.89	19.30	-38.7	-39.6	22.8	0.00e+00	0	33	0	603979776	50	6155
2026-01-06 21:17:26.18	28.65	19.31	-38.5	-39.5	22.9	0.00e+00	0	34	0	606076928	50	6064
2026-01-06 21:17:27.19	28.40	19.32	-38.7	-39.7	22.9	0.00e+00	0	33	0	607125504	50	6224
2026-01-06 21:17:28.21	28.15	19.33	-38.7	-39.7	22.8	0.00e+00	0	34	0	609222656	50	6181
2026-01-06 21:17:29.21	27.91	19.33	-38.5	-39.5	23.0	0.00e+00	0	34	0	611319808	50	6060
2026-01-06 21:17:30.22	27.66	19.34	-38.4	-39.4	23.1	0.00e+00	0	33	0	613416960	50	5996
2026-01-06 21:17:31.23	27.42	19.35	-38.4	-39.3	23.0	0.00e+00	0	33	0	615514112	50	5961
2026-01-06 21:17:32.24	27.17	19.35	-38.5	-39.4	23.1	0.00e+00	0	33	0	616562688	50	6008
2026-01-06 21:17:33.25	26.92	19.35	-38.4	-39.3	23.1	0.00e+00	0	33	0	618659840	50	5950
2026-01-06 21:17:34.26	26.68	19.36	-38.3	-39.3	23.2	0.00e+00	0	33	0	620756992	50	5907
2026-01-06 21:17:35.27	26.43	19.36	-38.3	-39.3	23.2	0.00e+00	0	33	0	622854144	50	5907
2026-01-06 21:17:36.28	26.18	19.36	-38.4	-39.4	23.1	0.00e+00	0	33	0	624951296	50	5991
2026-01-06 21:17:37.29	25.94	19.37	-38.5	-39.5	23.0	0.00e+00	0	34	0	625999872	50	6044
2026-01-06 21:17:38.30	25.69	19.37	-38.4	-39.4	23.1	0.00e+00	0	34	0	628097024	50	5968
2026-01-06 21:17:39.31	25.44	19.37	-38.6	-39.6	22.9	0.00e+00	0	33	0	630194176	50	6111
2026-01-06 21:17:40.32	25.20	19.37	-38.4	-39.4	23.2	0.00e+00	0	34	0	632291328	50	5968
2026-01-06 21:17:41.33	24.95	19.37	-38.3	-39.2	23.2	0.00e+00	0	34	0	634388480	50	5864
2026-01-06 21:17:42.34	24.70	19.37	-38.2	-39.1	23.3	0.00e+00	0	34	0	635437056	50	5821
2026-01-06 21:17:43.35	24.46	19.37	-37.9	-38.8	23.5	0.00e+00	0	34	0	637534208	50	5567
2026-01-06 21:17:44.36	24.21	19.36	-37.9	-38.8	23.6	0.00e+00	0	34	0	639631360	50	5591
2026-01-06 21:17:45.37	23.96	19.36	-37.7	-38.6	23.8	0.00e+00	0	34	0	641728512	48	6118
2026-01-06 21:17:46.38	23.72	19.36	-37.7	-38.6	23.7	0.00e+00	0	34	0	643825664	48	6108
2026-01-06 21:17:47.38	23.47	19.36	-37.7	-38.6	23.7	0.00e+00	0	34	0	645922816	48	6108
2026-01-06 21:17:48.40	23.22	19.35	-37.7	-38.6	23.7	0.00e+00	0	33	0	646971392	48	6112
2026-01-06 21:17:49.40	22.98	19.35	-37.9	-38.8	23.5	0.00e+00	0	33	0	649068544	48	6315
2026-01-06 21:17:50.41	22.73	19.34	-37.7	-38.6	23.7	0.00e+00	0	34	0	651165696	48	6155
2026-01-06 21:17:51.42	22.49	19.34	-37.7	-38.5	23.8	0.00e+00	0	33	0	653262848	48	6094
2026-01-06 21:17:52.43	22.24	19.33	-37.6	-38.5	23.8	0.00e+00	0	33	0	655360000	48	6058
2026-01-06 21:17:53.44	22.00	19.32	-37.6	-38.4	23.9	0.00e+00	0	33	0	656408576	48	6022
2026-01-06 21:17:54.45	21.75	19.32	-37.3	-38.1	24.1	0.00e+00	0	33	0	658505728	48	5819
2026-01-06 21:17:55.46	21.50	19.31	-37.3	-38.1	24.1	0.00e+00	0	34	0	660602880	48	5819
2026-01-06 21:17:56.47	21.26	19.30	-37.3	-38.2	24.1	0.00e+00	0	33	0	662700032	48	5829
2026-01-06 21:17:57.48	21.01	19.29	-37.3	-38.2	24.1	0.00e+00	0	33	0	664797184	48	5844
2026-01-06 21:17:58.49	20.77	19.28	-37.3	-38.2	24.1	0.00e+00	0	34	0	665845760	48	5836
2026-01-06 21:17:59.50	20.52	19.27	-37.2	-38.1	24.2	0.00e+00	0	34	0	667942912	48	5773
2026-01-06 21:18:00.51	20.28	19.26	-37.3	-38.1	24.2	0.00e+00	0	34	0	670040064	48	5794
2026-01-06 21:18:01.52	20.03	19.25	-37.1	-37.9	24.3	0.00e+00	0	33	0	672137216	48	5678
2026-01-06 21:18:02.53	19.79	19.24	-37.0	-37.9	24.3	0.00e+00	0	33	0	674234368	48	5647
2026-01-06 21:18:03.53	19.55	19.23	-37.1	-37.9	24.3	0.00e+00	0	33	0	675282944	48	5683
2026-01-06 21:18:04.54	19.30	19.21	-37.0	-37.8	24.5	0.00e+00	0	34	0	677380096	48	5592
2026-01-06 21:18:05.55	19.06	19.20	-36.8	-37.7	24.5	0.00e+00	0	34	0	679477248	48	5510
2026-01-06 21:18:06.56	18.81	19.19	-36.9	-37.8	24.4	0.00e+00	0	33	0	681574400	48	5571
2026-01-06 21:18:07.57	18.57	19.17	-36.9	-37.7	24.4	0.00e+00	0	34	0	683671552	48	5543
2026-01-06 21:18:08.58	18.33	19.16	-37.0	-37.8	24.4	0.00e+00	0	34	0	684720128	48	5603
2026-01-06 21:18:09.59	18.08	19.14	-36.8	-37.6	24.6	0.00e+00	0	34	0	686817280	48	5477
2026-01-06 21:18:10.60	17.84	19.12	-36.8	-37.6	24.6	0.00e+00	0	33	0	688914432	48	5496
2026-01-06 21:18:11.61	17.60	19.11	-36.5	-37.3	24.8	0.00e+00	0	33	0	691011584	46	5954
2026-01-06 21:18:12.62	17.36	19.09	-36.5	-37.3	24.9	0.00e+00	0	34	0	693108736	46	5950
2026-01-06 21:18:13.63	17.11	19.07	-36.4	-37.2	25.0	0.00e+00	0	34	0	694157312	46	5861
2026-01-06 21:18:14.64	16.87	19.06	-36.4	-37.2	25.0	0.00e+00	0	34	0	696254464	46	5859
2026-01-06 21:18:15.65	16.63	19.04	-36.5	-37.3	24.8	0.00e+00	0	34	0	698351616	46	5962
2026-01-06 21:18:16.66	16.39	19.02	-36.5	-37.3	24.9	0.00e+00	0	34	0	700448768	46	5898
2026-01-06 21:18:17.67	16.15	19.00	-36.5	-37.3	24.8	0.00e+00	0	34	0	702545920	46	5952
2026-01-06 21:18:18.68	15.91	18.98	-36.6	-37.4	24.7	0.00e+00	0	34	0	703594496	46	5970
2026-01-06 21:18:19.69	15.67	18.96	-36.6	-37.5	24.7	0.00e+00	0	34	0	705691648	46	6041
2026-01-06 21:18:20.70	15.43	18.94	-36.7	-37.5	24.7	0.00e+00	0	33	0	707788800	46	6049
2026-01-06 21:18:21.71	15.19	18.91	-36.7	-37.5	24.7	0.00e+00	0	33	0	709885952	46	6067
2026-01-06 21:18:22.72	14.95	18.89	-36.7	-37.5	24.6	0.00e+00	0	33	0	711983104	46	6088
2026-01-06 21:18:23.73	14.71	18.87	-36.9	-37.7	24.6	0.00e+00	0	34	0	714080256	46	6211
2026-01-06 21:18:24.74	14.47	18.85	-36.7	-37.5	24.7	0.00e+00	0	34	0	715128832	46	6054
2026-01-06 21:18:25.75	14.24	18.82	-36.8	-37.6	24.6	0.00e+00	0	34	0	717225984	46	6113
2026-01-06 21:18:26.76	14.00	18.80	-36.7	-37.5	24.6	0.00e+00	0	33	0	719323136	46	6088
2026-01-06 21:18:27.77	13.76	18.77	-36.9	-37.7	24.4	0.00e+00	0	34	0	721420288	46	6208
2026-01-06 21:18:28.78	13.52	18.75	-36.9	-37.8	24.5	0.00e+00	0	34	0	723517440	46	6258
2026-01-06 21:18:29.79	13.29	18.72	-37.1	-37.9	24.3	0.00e+00	0	34	0	724566016	46	6375
2026-01-06 21:18:30.80	13.05	18.70	-37.1	-37.9	24.3	0.00e+00	0	34	0	726663168	46	6355
2026-01-06 21:18:31.81	12.82	18.67	-37.1	-37.9	24.4	0.00e+00	0	34	0	728760320	46	6341
2026-01-06 21:18:32.82	12.58	18.64	-37.1	-38.0	24.2	0.00e+00	0	34	0	730857472	46	6414
2026-01-06 21:18:33.83	12.35	18.62	-37.1	-37.9	24.3	0.00e+00	0	34	0	732954624	46	6365
2026-01-06 21:18:34.84	12.11	18.59	-37.1	-37.9	24.4	0.00e+00	0	34	0	734003200	46	6358
2026-01-06 21:18:35.85	11.88	18.56	-37.1	-38.0	24.3	0.00e+00	0	34	0	736100352	46	6408
2026-01-06 21:18:36.86	11.64	18.53	-37.3	-38.1	24.1	0.00e+00	0	34	0	738197504	46	6537
2026-01-06 21:18:37.87	11.41	18.50	-37.5	-38.4	23.8	0.00e+00	0	34	0	740294656	46	6730
2026-01-06 21:18:38.88	11.18	18.47	-37.7	-38.5	23.7	0.00e+00	0	34	0	742391808	46	6843
2026-01-06 21:18:39.89	10.95	18.44	-37.8	-38.7	23.7	0.00e+00	0	34	0	743440384	48	6195
2026-01-06 21:18:40.90	10.71	18.41	-37.8	-38.7	23.6	0.00e+00	0	34	0	745537536	48	6183
2026-01-06 21:18:41.91	10.48	18.38	-37.8	-38.7	23.7	0.00e+00	0	34	0	747634688	48	6224
2026-01-06 21:18:42.92	10.25	18.35	-37.8	-38.7	23.6	0.00e+00	0	34	0	749731840	48	6177
2026-01-06 21:18:43.93	10.02	18.32	-37.7	-38.6	23.8	0.00e+00	0	34	0	751828992	48	6113
2026-01-06 21:18:44.94	9.79	18.28	-37.7	-38.6	23.8	0.00e+00	0	34	0	752877568	48	6105
2026-01-06 21:18:45.95	9.56	18.25	-37.7	-38.6	23.7	0.00e+00	0	34	0	754974720	48	6119
2026-01-06 21:18:46.96	9.33	18.22	-37.8	-38.7	23.6	0.00e+00	0	34	0	757071872	48	6193
2026-01-06 21:18:47.97	9.11	18.18	-37.9	-38.8	23.5	0.00e+00	0	34	0	759169024	48	6315
2026-01-06 21:18:48.98	8.88	18.15	-37.9	-38.8	23.6	0.00e+00	0	34	0	761266176	48	6305
2026-01-06 21:18:49.99	8.65	18.12	-38.0	-38.9	23.5	0.00e+00	0	34	0	762314752	48	6359
2026-01-06 21:18:51.00	8.43	18.08	-38.0	-38.9	23.5	0.00e+00	0	33	0	764411904	48	6360
2026-01-06 21:18:52.01	8.20	18.05	-37.9	-38.8	23.6	0.00e+00	0	34	0	766509056	48	6300
2026-01-06 21:18:53.02	7.97	18.01	-37.9	-38.8	23.6	0.00e+00	0	34	0	768606208	48	6294
2026-01-06 21:18:54.03	7.75	17.97	-37.9	-38.8	23.6	0.00e+00	0	34	0	770703360	48	6284
2026-01-06 21:18:55.04	7.52	17.94	-37.9	-38.8	23.5	0.00e+00	0	34	0	771751936	48	6301
2026-01-06 21:18:56.05	7.30	17.90	-37.7	-38.6	23.8	0.00e+00	0	33	0	773849088	48	6147
2026-01-06 21:18:57.06	7.08	17.86	-37.7	-38.6	23.6	0.00e+00	0	34	0	775946240	48	6147
2026-01-06 21:18:58.07	6.85	17.82	-37.8	-38.7	23.7	0.00e+00	0	33	0	778043392	48	6187
2026-01-06 21:18:59.08	6.63	17.79	-37.8	-38.7	23.7	0.00e+00	0	34	0	780140544	48	6174
2026-01-06 21:19:00.09	6.41	17.75	-37.8	-38.7	23.7	0.00e+00	0	34	0	782237696	48	6182
2026-01-06 21:19:01.10	6.19	17.71	-37.8	-38.6	23.4	0.00e+00	0	34	0	783286272	48	6171
2026-01-06 21:19:02.11	5.97	17.67	-37.7	-38.6	23.7	0.00e+00	0	34	0	785383424	48	6155
2026-01-06 21:19:03.12	5.75	17.63	-37.7	-38.6	23.7	0.00e+00	0	34	0	787480576	48	6144
2026-01-06 21:19:04.13	5.53	17.59	-37.7	-38.6	23.7	0.00e+00	0	34	0	789577728	48	6124
2026-01-06 21:19:05.14	5.31	17.55	-37.8	-38.7	23.6	0.00e+00	0	33	0	791674880	48	6200
2026-01-06 21:19:06.15	5.09	17.51	-37.8	-38.7	23.6	0.00e+00	0	34	0	792723456	48	6245
2026-01-06 21:19:07.16	4.88	17.47	-37.9	-38.8	23.5	0.00e+00	0	34	0	794820608	48	6276
2026-01-06 21:19:08.16	4.66	17.43	-38.0	-38.9	23.4	0.00e+00	0	34	0	796917760	48	6345
2026-01-06 21:19:09.18	4.44	17.38	-38.1	-39.0	23.4	0.00e+00	0	34	0	799014912	48	6421
2026-01-06 21:19:10.19	4.23	17.34	-38.1	-39.1	23.3	0.00e+00	0	34	0	801112064	48	6476
2026-01-06 21:19:11.19	4.01	17.30	-38.0	-38.9	23.5	0.00e+00	0	33	0	802160640	48	6323
2026-01-06 21:19:12.20	3.80	17.26	-38.0	-38.9	23.4	0.00e+00	0	34	0	804257792	48	6370
2026-01-06 21:19:13.21	3.59	17.21	-38.0	-38.9	23.4	0.00e+00	0	34	0	806354944	48	6355
2026-01-06 21:19:14.22	3.37	17.17	-38.1	-39.0	23.3	0.00e+00	0	33	0	808452096	48	6423
2026-01-06 21:19:15.23	3.16	17.13	-38.1	-39.1	23.3	0.00e+00	0	33	0	810549248	48	6481
2026-01-06 21:19:16.24	2.95	17.08	-38.3	-39.2	23.1	0.00e+00	0	33	0	811597824	48	6560
2026-01-06 21:19:17.25	2.74	17.04	-38.2	-39.2	23.2	0.00e+00	0	34	0	813694976	48	6546
2026-01-06 21:19:18.26	2.53	16.99	-38.3	-39.2	23.2	0.00e+00	0	34	0	815792128	48	6605
2026-01-06 21:19:19.27	2.32	16.95	-38.4	-39.3	23.1	0.00e+00	0	34	0	817889280	48	6691
2026-01-06 21:19:20.28	2.11	16.90	-38.6	-39.5	23.0	0.00e+00	0	33	0	819986432	48	6844
2026-01-06 21:19:21.29	1.90	16.86	-38.4	-39.4	23.1	0.00e+00	0	34	0	821035008	48	6696
2026-01-06 21:19:22.30	1.69	16.81	-38.4	-39.3	23.1	0.00e+00	0	34	0	823132160	48	6688
2026-01-06 21:19:23.31	1.48	16.76	-38.3	-39.3	23.2	0.00e+00	0	34	0	825229312	48	6618
2026-01-06 21:19:24.32	1.28	16.72	-38.3	-39.2	23.2	0.00e+00	0	34	0	827326464	48	6612
2026-01-06 21:19:25.33	1.07	16.67	-38.2	-39.2	23.2	0.00e+00	0	34	0	829423616	48	6549
2026-01-06 21:19:26.34	0.86	16.62	-38.3	-39.3	23.2	0.00e+00	0	34	0	830472192	48	6640
2026-01-06 21:19:27.35	0.66	16.57	-38.4	-39.4	23.0	0.00e+00	0	34	0	832569344	48	6746
2026-01-06 21:19:28.36	0.45	16.53	-38.5	-39.5	22.9	0.00e+00	0	34	0	834666496	48	6781
2026-01-06 21:19:29.37	0.25	16.48	-38.6	-39.6	22.8	0.00e+00	0	33	0	836763648	48	6896
2026-01-06 21:19:30.38	0.05	16.43	-38.6	-39.6	22.9	0.00e+00	0	34	0	838860800	48	6888
2026-01-06 21:19:31.39	359.85	16.38	-38.6	-39.6	22.8	0.00e+00	0	34	0	839909376	48	6890
2026-01-06 21:19:32.40	359.64	16.33	-38.8	-39.8	22.9	0.00e+00	0	34	0	842006528	50	6255
2026-01-06 21:19:33.41	359.44	16.28	-38.6	-39.6	23.0	0.00e+00	0	34	0	844103680	50	6113
2026-01-06 21:19:34.42	359.24	16.23	-38.6	-39.6	23.0	0.00e+00	0	34	0	846200832	50	6104
2026-01-06 21:19:35.43	359.04	16.18	-38.6	-39.5	23.0	0.00e+00	0	33	0	848297984	50	6093
2026-01-06 21:19:36.44	358.84	16.13	-38.7	-39.7	22.8	0.00e+00	0	33	0	850395136	50	6176
2026-01-06 21:19:37.45	358.65	16.08	-38.6	-39.6	22.9	0.00e+00	0	34	0	851443712	50	6118
2026-01-06 21:19:38.46	358.45	16.03	-38.6	-39.6	22.9	0.00e+00	0	34	0	853540864	50	6112
2026-01-06 21:19:39.47	358.25	15.98	-38.5	-39.5	22.9	0.00e+00	0	34	0	855638016	50	6077
2026-01-06 21:19:40.48	358.06	15.93	-38.6	-39.5	22.9	0.00e+00	0	34	0	857735168	50	6082
2026-01-06 21:19:41.49	357.86	15.88	-38.5	-39.5	23.0	0.00e+00	0	34	0	859832320	50	6078
2026-01-06 21:19:42.50	357.67	15.83	-38.6	-39.6	22.8	0.00e+00	0	34	0	860880896	50	6147
2026-01-06 21:19:43.51	357.47	15.78	-38.7	-39.7	22.7	0.00e+00	0	34	0	862978048	50	6203
2026-01-06 21:19:44.52	357.28	15.73	-38.7	-39.7	22.7	0.00e+00	0	34	0	865075200	50	6218
2026-01-06 21:19:45.53	357.09	15.67	-38.8	-39.8	22.7	0.00e+00	0	34	0	867172352	50	6251
2026-01-06 21:19:46.54	356.89	15.62	-38.7	-39.7	22.7	0.00e+00	0	34	0	869269504	50	6230
2026-01-06 21:19:47.56	356.70	15.57	-38.9	-39.9	22.6	0.00e+00	0	34	0	870318080	50	6340
2026-01-06 21:19:48.56	356.51	15.52	-38.7	-39.7	22.7	0.00e+00	0	34	0	872415232	50	6232
2026-01-06 21:19:49.57	356.32	15.46	-38.8	-39.7	22.6	0.00e+00	0	34	0	874512384	50	6242
2026-01-06 21:19:50.58	356.13	15.41	-38.6	-39.6	22.8	0.00e+00	0	34	0	876609536	50	6167
2026-01-06 21:19:51.59	355.94	15.36	-38.7	-39.7	22.7	0.00e+00	0	34	0	878706688	50	6199
2026-01-06 21:19:52.60	355.76	15.30	-38.6	-39.6	22.8	0.00e+00	0	34	0	879755264	50	6120
2026-01-06 21:19:53.61	355.57	15.25	-38.5	-39.5	22.9	0.00e+00	0	34	0	881852416	50	6052
2026-01-06 21:19:54.62	355.38	15.20	-38.5	-39.4	22.7	0.00e+00	0	34	0	883949568	50	6013
2026-01-06 21:19:55.63	355.20	15.14	-38.3	-39.3	23.1	0.00e+00	0	34	0	886046720	50	5924
2026-01-06 21:19:56.64	355.01	15.09	-38.5	-39.5	22.9	0.00e+00	0	34	0	888143872	50	6038
2026-01-06 21:19:57.65	354.83	15.03	-38.7	-39.7	22.7	0.00e+00	0	34	0	889192448	50	6177
2026-01-06 21:19:58.66	354.64	14.98	-38.8	-39.9	22.4	0.00e+00	0	34	0	891289600	50	6321
2026-01-06 21:19:59.67	354.46	14.92	-39.0	-40.1	22.3	0.00e+00	0	34	0	893386752	50	6472
2026-01-06 21:20:00.68	354.28	14.87	-39.1	-40.1	22.3	0.00e+00	0	34	0	895483904	50	6529
2026-01-06 21:20:01.69	354.09	14.81	-39.1	-40.2	22.2	0.00e+00	0	34	0	897581056	50	6541
2026-01-06 21:20:02.70	353.91	14.76	-39.3	-40.3	22.1	0.00e+00	0	34	0	898629632	50	6666
2026-01-06 21:20:03.71	353.73	14.70	-39.2	-40.2	22.3	0.00e+00	0	34	0	900726784	50	6584
2026-01-06 21:20:04.72	353.55	14.65	-39.2	-40.3	22.1	0.00e+00	0	34	0	902823936	50	6632
2026-01-06 21:20:05.73	353.37	14.59	-39.2	-40.3	22.1	0.00e+00	0	34	0	904921088	50	6676
2026-01-06 21:20:06.74	353.20	14.54	-39.4	-40.5	22.0	0.00e+00	0	34	0	907018240	50	6790
2026-01-06 21:20:07.75	353.02	14.48	-39.5	-40.6	21.9	0.00e+00	0	34	0	908066816	50	6877
2026-01-06 21:20:08.76	352.84	14.42	-39.5	-40.6	21.9	0.00e+00	0	34	0	910163968	50	6913
2026-01-06 21:20:09.76	352.67	14.37	-39.5	-40.5	22.0	0.00e+00	0	34	0	912261120	50	6841
2026-01-06 21:20:10.78	352.49	14.31	-39.5	-40.5	21.9	0.00e+00	0	34	0	914358272	50	6847
2026-01-06 21:20:11.78	352.32	14.26	-39.5	-40.5	21.9	0.00e+00	0	34	0	916455424	50	6845
2026-01-06 21:20:12.79	352.14	14.20	-39.5	-40.5	22.0	0.00e+00	0	34	0	918552576	50	6829
2026-01-06 21:20:13.80	351.97	14.14	-39.4	-40.4	22.0	0.00e+00	0	34	0	919601152	50	6765
2026-01-06 21:20:14.81	351.80	14.09	-39.3	-40.4	22.0	0.00e+00	0	34	0	921698304	50	6708
2026-01-06 21:20:15.82	351.62	14.03	-39.4	-40.5	22.2	0.00e+00	0	34	0	923795456	50	6783
2026-01-06 21:20:16.83	351.45	13.97	-39.4	-40.5	22.1	0.00e+00	0	34	0	925892608	50	6772
2026-01-06 21:20:17.84	351.28	13.91	-39.5	-40.5	21.9	0.00e+00	0	34	0	927989760	50	6822
2026-01-06 21:20:18.85	351.11	13.86	-39.4	-40.5	22.0	0.00e+00	0	34	0	929038336	50	6808
2026-01-06 21:20:19.86	350.94	13.80	-39.5	-40.6	21.9	0.00e+00	0	34	0	931135488	50	6901
2026-01-06 21:20:20.87	350.77	13.74	-39.5	-40.6	21.8	0.00e+00	0	34	0	933232640	50	6905
2026-01-06 21:20:21.88	350.60	13.68	-39.5	-40.6	21.8	0.00e+00	0	34	0	935329792	50	6894
2026-01-06 21:20:22.89	350.44	13.62	-39.5	-40.6	21.9	0.00e+00	0	34	0	937426944	50	6854
2026-01-06 21:20:23.90	350.27	13.57	-39.4	-40.5	22.0	0.00e+00	0	34	0	938475520	50	6824
2026-01-06 21:20:24.91	350.10	13.51	-39.4	-40.4	22.0	0.00e+00	0	34	0	940572672	50	6752
2026-01-06 21:20:25.92	349.94	13.45	-39.2	-40.3	22.1	0.00e+00	0	34	0	942669824	50	6640
2026-01-06 21:20:26.93	349.77	13.39	-39.2	-40.3	21.9	0.00e+00	0	34	0	944766976	50	6618
2026-01-06 21:20:27.94	349.61	13.33	-38.9	-39.9	22.4	0.00e+00	0	34	0	946864128	50	6388
2026-01-06 21:20:28.95	349.44	13.27	-38.8	-39.8	22.6	0.00e+00	0	34	0	947912704	50	6259
2026-01-06 21:20:29.96	349.28	13.22	-38.8	-39.8	22.5	0.00e+00	0	34	0	950009856	50	6311
2026-01-06 21:20:30.96	349.12	13.16	-38.8	-39.8	22.5	0.00e+00	0	34	0	952107008	50	6295
2026-01-06 21:20:31.97	348.96	13.10	-38.7	-39.7	22.6	0.00e+00	0	34	0	954204160	50	6182
2026-01-06 21:20:32.98	348.80	13.04	-38.7	-39.7	22.7	0.00e+00	0	34	0	956301312	50	6187
2026-01-06 21:20:33.99	348.64	12.98	-38.7	-39.7	22.7	0.00e+00	0	34	0	957349888	50	6192
2026-01-06 21:20:35.00	348.48	12.92	-38.7	-39.7	22.5	0.00e+00	0	34	0	959447040	50	6238
2026-01-06 21:20:36.01	348.32	12.86	-38.7	-39.7	22.6	0.00e+00	0	34	0	961544192	50	6230
2026-01-06 21:20:37.02	348.16	12.80	-38.6	-39.6	22.7	0.00e+00	0	34	0	963641344	50	6135
2026-01-06 21:20:38.03	348.00	12.74	-38.8	-39.7	22.6	0.00e+00	0	34	0	965738496	50	6243
2026-01-06 21:20:39.04	347.85	12.69	-38.8	-39.9	22.5	0.00e+00	0	34	0	966787072	50	6327
2026-01-06 21:20:40.05	347.69	12.63	-38.8	-39.8	22.4	0.00e+00	0	34	0	968884224	50	6311
2026-01-06 21:20:41.06	347.53	12.57	-38.7	-39.7	22.7	0.00e+00	0	34	0	970981376	50	6192
2026-01-06 21:20:42.07	347.38	12.51	-38.5	-39.5	22.8	0.00e+00	0	34	0	973078528	50	6077
2026-01-06 21:20:43.08	347.22	12.45	-38.4	-39.4	22.8	0.00e+00	0	34	0	975175680	50	6011
2026-01-06 21:20:44.09	347.07	12.39	-38.3	-39.3	22.9	0.00e+00	0	34	0	976224256	50	5953
2026-01-06 21:20:45.10	346.92	12.33	-38.2	-39.2	23.0	0.00e+00	0	34	0	978321408	50	5851
2026-01-06 21:20:46.11	346.76	12.27	-38.1	-39.1	23.1	0.00e+00	0	34	0	980418560	50	5798
2026-01-06 21:20:47.12	346.61	12.21	-38.1	-39.0	23.2	0.00e+00	0	34	0	982515712	50	5744
2026-01-06 21:20:48.13	346.46	12.15	-38.0	-38.9	23.3	0.00e+00	0	34	0	984612864	50	5671
2026-01-06 21:20:49.14	346.31	12.09	-38.0	-39.0	23.3	0.00e+00	0	34	0	986710016	50	5701
2026-01-06 21:20:50.15	346.16	12.03	-37.8	-38.8	23.4	0.00e+00	0	34	0	987758592	50	5572
2026-01-06 21:20:51.16	346.01	11.97	-37.9	-38.8	23.3	0.00e+00	0	34	0	989855744	50	5604
2026-01-06 21:20:52.17	345.86	11.91	-37.8	-38.7	23.5	0.00e+00	0	34	0	991952896	50	5530
2026-01-06 21:20:53.17	345.72	11.85	-37.9	-38.8	23.4	0.00e+00	0	34	0	994050048	50	5595
2026-01-06 21:20:54.19	345.57	11.79	-37.9	-38.9	23.3	0.00e+00	0	34	0	996147200	50	5636
2026-01-06 21:20:55.19	345.42	11.73	-37.8	-38.7	23.4	0.00e+00	0	34	0	997195776	50	5540
2026-01-06 21:20:56.20	345.27	11.67	-37.7	-38.6	23.5	0.00e+00	0	34	0	999292928	48	6158
2026-01-06 21:20:57.21	345.13	11.61	-37.7	-38.7	23.5	0.00e+00	0	34	0	1001390080	48	6177
2026-01-06 21:20:58.22	344.98	11.55	-37.8	-38.7	23.4	0.00e+00	0	34	0	1003487232	48	6201
2026-01-06 21:20:59.23	344.84	11.49	-37.6	-38.5	23.7	0.00e+00	0	34	0	1005584384	48	6086
2026-01-06 21:21:00.23	344.70	11.43	-37.8	-38.7	23.4	0.00e+00	0	34	0	1006632960	48	6220
2026-01-06 21:21:01.24	344.55	11.37	-37.5	-38.4	23.6	0.00e+00	0	34	0	1008730112	48	6031
2026-01-06 21:21:02.25	344.41	11.31	-37.5	-38.4	23.6	0.00e+00	0	34	0	1010827264	48	6026
2026-01-06 21:21:03.26	344.27	11.25	-37.5	-38.4	23.7	0.00e+00	0	34	0	1012924416	48	6010
2026-01-06 21:21:04.27	344.13	11.19	-37.5	-38.4	23.7	0.00e+00	0	34	0	1015021568	48	5989
2026-01-06 21:21:05.28	343.99	11.12	-37.6	-38.5	23.4	0.00e+00	0	34	0	1016070144	48	6054
2026-01-06 21:21:06.29	343.85	11.06	-37.6	-38.5	23.1	0.00e+00	0	34	0	1018167296	48	6063
2026-01-06 21:21:07.30	343.71	11.00	-37.7	-38.6	23.5	0.00e+00	0	34	0	1020264448	48	6134
2026-01-06 21:21:08.31	343.57	10.94	-37.5	-38.4	23.7	0.00e+00	0	34	0	1022361600	48	5971
2026-01-06 21:21:09.32	343.43	10.88	-37.6	-38.5	23.5	0.00e+00	0	34	0	1024458752	48	6087
2026-01-06 21:21:10.33	343.29	10.82	-37.6	-38.6	23.4	0.00e+00	0	34	0	1025507328	48	6106
2026-01-06 21:21:11.34	343.15	10.76	-37.7	-38.6	22.9	0.00e+00	0	34	0	1027604480	48	6124
2026-01-06 21:21:12.35	343.02	10.70	-37.8	-38.7	23.0	0.00e+00	0	34	0	1029701632	48	6216
2026-01-06 21:21:13.37	342.88	10.64	-37.8	-38.8	23.3	0.00e+00	0	34	0	1031798784	48	6249
2026-01-06 21:21:14.37	342.74	10.58	-37.9	-38.9	23.2	0.00e+00	0	34	0	1033895936	48	6320
2026-01-06 21:21:15.39	342.61	10.52	-38.0	-38.9	23.2	0.00e+00	0	34	0	1034944512	48	6390
2026-01-06 21:21:16.39	342.48	10.46	-38.0	-38.9	23.2	0.00e+00	0	34	0	1037041664	48	6389
2026-01-06 21:21:17.41	342.34	10.40	-38.0	-39.0	23.1	0.00e+00	0	34	0	1039138816	48	6411
2026-01-06 21:21:18.42	342.21	10.34	-38.1	-39.1	22.9	0.00e+00	0	34	0	1041235968	48	6511
2026-01-06 21:21:19.43	342.07	10.28	-38.3	-39.3	23.0	0.00e+00	0	34	0	1043333120	48	6624
2026-01-06 21:21:20.44	341.94	10.22	-38.3	-39.3	22.8	0.00e+00	0	34	0	1044381696	48	6688
2026-01-06 21:21:21.45	341.81	10.15	-38.4	-39.4	22.7	0.00e+00	0	34	0	1046478848	48	6732
2026-01-06 21:21:22.46	341.68	10.09	-38.4	-39.4	22.8	0.00e+00	0	34	0	1048576000	48	6753
2026-01-06 21:21:23.47	341.55	10.03	-38.4	-39.4	22.8	0.00e+00	0	34	0	1050673152	48	6736
2026-01-06 21:21:24.48	341.42	9.97	-38.2	-39.2	22.9	0.00e+00	0	34	0	1052770304	48	6597
2026-01-06 21:21:25.49	341.29	9.91	-38.3	-39.3	22.9	0.00e+00	0	34	0	1054867456	48	6651
2026-01-06 21:21:26.50	341.16	9.85	-38.3	-39.3	22.8	0.00e+00	0	34	0	1055916032	48	6675
2026-01-06 21:21:27.51	341.03	9.79	-38.3	-39.3	22.8	0.00e+00	0	34	0	1058013184	48	6637
2026-01-06 21:21:28.52	340.90	9.73	-38.1	-39.1	22.9	0.00e+00	0	34	0	1060110336	48	6516
2026-01-06 21:21:29.53	340.78	9.67	-38.2	-39.1	22.9	0.00e+00	0	34	0	1062207488	48	6538
2026-01-06 21:21:30.54	340.65	9.61	-38.1	-39.1	23.0	0.00e+00	0	34	0	1064304640	48	6492
2026-01-06 21:21:31.55	340.52	9.55	-38.2	-39.2	22.9	0.00e+00	0	34	0	1065353216	48	6542
2026-01-06 21:21:32.56	340.40	9.49	-38.1	-39.1	22.8	0.00e+00	0	34	0	1067450368	48	6520
2026-01-06 21:21:33.57	340.27	9.43	-38.3	-39.3	22.8	0.00e+00	0	34	0	1069547520	48	6660
2026-01-06 21:21:34.58	340.15	9.37	-38.1	-39.1	22.9	0.00e+00	0	34	0	1071644672	48	6528
2026-01-06 21:21:35.59	340.02	9.31	-38.2	-39.2	22.8	0.00e+00	0	34	0	1073741824	48	6576
2026-01-06 21:21:36.60	339.90	9.25	-38.2	-39.2	22.8	0.00e+00	0	34	0	1074790400	48	6611
2026-01-06 21:21:37.61	339.78	9.18	-38.3	-39.4	22.7	0.00e+00	0	34	0	1076887552	48	6708
2026-01-06 21:21:38.62	339.66	9.12	-38.5	-39.5	22.6	0.00e+00	0	34	0	1078984704	48	6845
2026-01-06 21:21:39.63	339.53	9.06	-38.4	-39.4	22.6	0.00e+00	0	34	0	1081081856	48	6743
2026-01-06 21:21:40.64	339.41	9.00	-38.5	-39.5	22.6	0.00e+00	0	34	0	1083179008	48	6827
2026-01-06 21:21:41.65	339.29	8.94	-38.6	-39.6	22.5	0.00e+00	0	34	0	1084227584	48	6916
2026-01-06 21:21:42.66	339.17	8.88	-38.6	-39.7	22.4	0.00e+00	0	34	0	1086324736	48	6957
2026-01-06 21:21:43.67	339.05	8.82	-38.6	-39.7	22.4	0.00e+00	0	34	0	1088421888	48	6931
2026-01-06 21:21:44.68	338.93	8.76	-38.7	-39.7	22.3	0.00e+00	0	34	0	1090519040	50	6239
2026-01-06 21:21:45.68	338.81	8.70	-38.9	-39.9	22.3	0.00e+00	0	34	0	1092616192	50	6364
2026-01-06 21:21:46.69	338.70	8.64	-38.8	-39.9	22.2	0.00e+00	0	34	0	1093664768	50	6321
2026-01-06 21:21:47.70	338.58	8.58	-38.9	-40.0	22.2	0.00e+00	0	34	0	1095761920	50	6403
2026-01-06 21:21:48.71	338.46	8.52	-38.9	-39.9	22.2	0.00e+00	0	34	0	1097859072	50	6384
2026-01-06 21:21:49.72	338.34	8.46	-39.0	-40.1	22.0	0.00e+00	0	34	0	1099956224	50	6472
2026-01-06 21:21:50.73	338.23	8.40	-39.1	-40.2	21.9	0.00e+00	0	34	0	1102053376	50	6588
2026-01-06 21:21:51.74	338.11	8.34	-39.2	-40.3	21.9	0.00e+00	0	34	0	1103101952	50	6632
2026-01-06 21:21:52.75	338.00	8.28	-39.0	-40.1	22.0	0.00e+00	0	34	0	1105199104	50	6503
2026-01-06 21:21:53.76	337.88	8.22	-39.2	-40.3	21.8	0.00e+00	0	34	0	1107296256	50	6617
2026-01-06 21:21:54.77	337.77	8.16	-39.3	-40.4	21.7	0.00e+00	0	34	0	1109393408	50	6720
2026-01-06 21:21:55.78	337.65	8.10	-39.3	-40.5	21.6	0.00e+00	0	34	0	1111490560	50	6793
2026-01-06 21:21:56.79	337.54	8.04	-39.4	-40.6	21.6	0.00e+00	0	34	0	1112539136	50	6872
2026-01-06 21:21:57.80	337.43	7.98	-39.4	-40.6	21.5	0.00e+00	0	34	0	1114636288	50	6860
2026-01-06 21:21:58.81	337.31	7.92	-39.5	-40.6	21.4	0.00e+00	0	34	0	1116733440	50	6911
2026-01-06 21:21:59.82	337.20	7.86	-39.6	-40.8	21.3	0.00e+00	0	34	0	1118830592	50	7031
2026-01-06 21:22:00.83	337.09	7.80	-39.8	-41.0	21.1	0.00e+00	0	34	0	1120927744	52	6399
2026-01-06 21:22:01.84	336.98	7.74	-39.8	-41.0	21.2	0.00e+00	0	34	0	1123024896	52	6404
2026-01-06 21:22:02.85	336.87	7.68	-39.7	-40.9	21.1	0.00e+00	0	34	0	1124073472	52	6365
2026-01-06 21:22:03.86	336.76	7.62	-39.8	-41.0	21.1	0.00e+00	0	34	0	1126170624	52	6414
2026-01-06 21:22:04.87	336.65	7.56	-40.0	-41.2	20.9	0.00e+00	0	34	0	1128267776	52	6570
2026-01-06 21:22:05.88	336.54	7.50	-39.9	-41.1	21.0	0.00e+00	0	34	0	1130364928	52	6508
2026-01-06 21:22:06.89	336.43	7.44	-39.8	-41.0	21.0	0.00e+00	0	34	0	1132462080	52	6434
2026-01-06 21:22:07.90	336.32	7.38	-39.9	-41.1	21.0	0.00e+00	0	34	0	1133510656	52	6476
2026-01-06 21:22:08.91	336.21	7.32	-39.9	-41.1	20.9	0.00e+00	0	34	0	1135607808	52	6508
2026-01-06 21:22:09.92	336.11	7.26	-40.0	-41.2	20.9	0.00e+00	0	34	0	1137704960	52	6591
2026-01-06 21:22:10.93	336.00	7.20	-40.0	-41.2	20.8	0.00e+00	0	34	0	1139802112	52	6611
2026-01-06 21:22:11.93	335.89	7.15	-40.1	-41.3	20.7	0.00e+00	0	34	0	1141899264	52	6683
2026-01-06 21:22:12.94	335.79	7.09	-40.1	-41.4	20.7	0.00e+00	0	34	0	1142947840	52	6716
2026-01-06 21:22:13.95	335.68	7.03	-40.1	-41.3	20.7	0.00e+00	0	34	0	1145044992	52	6680
2026-01-06 21:22:14.96	335.58	6.97	-40.1	-41.4	20.6	0.00e+00	0	34	0	1147142144	52	6715
2026-01-06 21:22:15.97	335.47	6.91	-40.2	-41.4	20.6	0.00e+00	0	34	0	1149239296	52	6764
2026-01-06 21:22:16.98	335.37	6.85	-40.2	-41.5	20.5	0.00e+00	0	34	0	1151336448	52	6795
2026-01-06 21:22:17.99	335.27	6.79	-40.2	-41.5	20.5	0.00e+00	0	34	0	1152385024	52	6777
2026-01-06 21:22:19.00	335.16	6.73	-40.1	-41.3	20.6	0.00e+00	0	34	0	1154482176	52	6684
2026-01-06 21:22:20.01	335.06	6.67	-40.1	-41.4	20.5	0.00e+00	0	34	0	1156579328	52	6703
2026-01-06 21:22:21.02	334.96	6.61	-40.1	-41.4	20.5	0.00e+00	0	34	0	1158676480	52	6721
2026-01-06 21:22:22.03	334.85	6.55	-40.1	-41.4	20.4	0.00e+00	0	34	0	1160773632	52	6714
2026-01-06 21:22:23.04	334.75	6.50	-40.1	-41.4	20.4	0.00e+00	0	34	0	1161822208	52	6743
2026-01-06 21:22:24.05	334.65	6.44	-40.2	-41.5	20.3	0.00e+00	0	34	0	1163919360	52	6795
2026-01-06 21:22:25.06	334.55	6.38	-40.2	-41.5	20.2	0.00e+00	0	34	0	1166016512	52	6825
2026-01-06 21:22:26.07	334.45	6.32	-40.4	-41.7	20.0	0.00e+00	0	34	0	1168113664	52	7004
2026-01-06 21:22:27.08	334.35	6.26	-40.5	-41.9	19.7	0.00e+00	0	34	0	1170210816	52	7163
2026-01-06 21:22:28.09	334.25	6.20	-40.6	-42.0	19.5	0.00e+00	0	34	0	1171259392	52	7209
2026-01-06 21:22:29.10	334.15	6.14	-40.7	-42.3	19.2	0.00e+00	0	34	0	1173356544	54	6618
2026-01-06 21:22:30.11	334.05	6.08	-40.9	-42.4	18.9	0.00e+00	0	34	0	1175453696	54	6751
2026-01-06 21:22:31.12	333.95	6.03	-41.2	-42.8	18.7	0.00e+00	0	34	0	1177550848	54	7043
2026-01-06 21:22:32.13	333.86	5.97	-41.2	-42.9	18.6	0.00e+00	0	34	0	1179648000	54	7093
2026-01-06 21:22:33.14	333.76	5.91	-41.3	-43.0	18.4	0.00e+00	0	34	0	1180696576	54	7203
2026-01-06 21:22:34.15	333.66	5.85	-41.4	-43.2	18.2	0.00e+00	0	34	0	1182793728	54	7346
2026-01-06 21:22:35.16	333.57	5.79	-41.4	-43.3	17.9	0.00e+00	0	34	0	1184890880	54	7430
2026-01-06 21:22:36.17	333.47	5.73	-41.6	-43.4	17.8	0.00e+00	0	34	0	1186988032	54	7583
2026-01-06 21:22:37.18	333.37	5.68	-41.6	-43.5	17.7	0.00e+00	0	34	0	1189085184	54	7646
2026-01-06 21:22:38.18	333.28	5.62	-41.7	-43.6	17.6	0.00e+00	0	34	0	1191182336	54	7752
2026-01-06 21:22:39.20	333.18	5.56	-41.9	-43.8	17.5	0.00e+00	0	34	0	1192230912	56	7054
2026-01-06 21:22:40.20	333.09	5.50	-42.0	-44.0	17.4	0.00e+00	0	34	0	1194328064	56	7187
2026-01-06 21:22:41.21	332.99	5.44	-41.8	-43.7	17.5	0.00e+00	0	34	0	1196425216	56	6981
2026-01-06 21:22:42.22	332.90	5.39	-41.9	-43.8	17.5	0.00e+00	0	34	0	1198522368	56	7026
2026-01-06 21:22:43.23	332.81	5.33	-41.9	-43.8	17.5	0.00e+00	0	34	0	1200619520	56	7039
2026-01-06 21:22:44.24	332.71	5.27	-41.8	-43.8	17.3	0.00e+00	0	34	0	1201668096	56	7042
2026-01-06 21:22:45.25	332.62	5.21	-41.8	-43.7	17.6	0.00e+00	0	34	0	1203765248	56	6946
