passes_logs/2026/01/06/R4.6S_Anadyr/R4.6S_Anadyr__20260106_004756_NOAA_20_JPSS-1_rec.log

#Pass ID: 20260106_004756_NOAA 20 (JPSS-1)
#Satellite: NOAA 20 (JPSS-1)
#Configuration: NOAA 20
#almurnet v.1.7.20251203
#Start time: 2026-01-06 00:47:57

#Version: 2.2.20231116
#Station: R4.6S_Anadyr
#Location: 177.4865 lon 64.73178 lat
#TLE: 1 43013U 17073A   26005.46207808  .00000128  00000+0  81791-4 0  9997
#TLE: 2 43013  98.7627 306.5027 0001826  53.0458 307.0885 14.19533487421381

#Time	Az	El	Level	Level2	SNR	BER	BlckErr	Temp	State	Recorded	gain1	gain2
2026-01-06 00:47:57.20	170.90	0.07	-48.8	-63.7	3.5	1.51e+00	0	31	0	0	60	55157
2026-01-06 00:47:58.21	170.92	0.13	-48.7	-63.8	3.6	1.51e+00	0	32	104	0	60	56182
2026-01-06 00:47:59.22	170.94	0.19	-48.7	-63.9	3.6	1.51e+00	0	32	104	0	60	56317
2026-01-06 00:48:00.23	170.96	0.25	-48.7	-63.9	3.6	1.51e+00	0	33	104	0	60	56412
2026-01-06 00:48:01.24	170.98	0.31	-48.7	-63.9	3.6	1.51e+00	0	32	104	0	60	56537
2026-01-06 00:48:02.25	171.00	0.37	-48.7	-64.0	3.6	1.51e+00	0	32	104	0	60	56991
2026-01-06 00:48:03.25	171.03	0.43	-48.8	-63.9	3.6	1.51e+00	0	33	104	0	60	56921
2026-01-06 00:48:04.26	171.05	0.49	-48.8	-64.0	3.6	1.51e+00	0	33	104	0	60	57179
2026-01-06 00:48:05.27	171.07	0.55	-48.8	-63.9	3.6	1.51e+00	0	33	104	0	60	56740
2026-01-06 00:48:06.28	171.09	0.61	-48.8	-63.9	3.6	1.51e+00	0	33	104	0	60	56764
2026-01-06 00:48:07.29	171.11	0.67	-48.7	-63.9	3.6	1.51e+00	0	33	104	0	60	56619
2026-01-06 00:48:08.30	171.13	0.73	-48.7	-63.9	3.6	1.51e+00	0	33	104	0	60	56576
2026-01-06 00:48:09.31	171.15	0.80	-48.6	-63.8	3.5	1.51e+00	0	33	104	0	60	56155
2026-01-06 00:48:10.32	171.18	0.86	-48.5	-63.7	3.6	1.51e+00	0	33	104	0	60	55281
2026-01-06 00:48:11.33	171.20	0.92	-48.4	-63.6	3.6	1.51e+00	0	33	104	0	60	54648
2026-01-06 00:48:12.34	171.22	0.98	-48.3	-63.5	3.6	1.51e+00	0	33	104	0	60	53819
2026-01-06 00:48:13.35	171.24	1.04	-48.0	-63.2	3.6	1.51e+00	0	33	104	0	60	52120
2026-01-06 00:48:14.36	171.26	1.11	-47.5	-62.6	3.6	1.51e+00	0	33	104	0	60	48667
2026-01-06 00:48:15.37	171.29	1.17	-47.4	-62.5	3.6	1.51e+00	0	33	104	0	60	48251
2026-01-06 00:48:16.38	171.31	1.23	-47.4	-62.5	3.6	1.51e+00	0	33	104	0	60	48184
2026-01-06 00:48:17.39	171.33	1.29	-47.4	-62.5	3.6	1.51e+00	0	33	104	0	60	48417
2026-01-06 00:48:18.40	171.35	1.35	-47.4	-62.6	3.6	1.51e+00	0	33	104	0	60	48504
2026-01-06 00:48:19.41	171.38	1.42	-47.4	-62.6	3.6	1.51e+00	0	33	104	0	60	48504
2026-01-06 00:48:20.42	171.40	1.48	-47.4	-62.5	3.6	1.51e+00	0	33	104	0	60	48407
2026-01-06 00:48:21.43	171.42	1.54	-47.4	-62.5	3.6	1.51e+00	0	33	104	0	60	48109
2026-01-06 00:48:22.44	171.45	1.61	-47.4	-62.4	3.6	1.51e+00	0	33	104	0	60	47783
2026-01-06 00:48:23.45	171.47	1.67	-47.4	-62.3	3.6	1.51e+00	0	33	104	0	60	47156
2026-01-06 00:48:24.46	171.49	1.73	-47.4	-62.2	3.6	1.51e+00	0	33	104	0	60	46748
2026-01-06 00:48:25.47	171.51	1.80	-47.4	-62.2	3.6	1.51e+00	0	33	104	0	60	46722
2026-01-06 00:48:26.48	171.54	1.86	-47.4	-62.2	3.6	1.51e+00	0	33	104	0	60	46617
2026-01-06 00:48:27.49	171.56	1.92	-47.4	-62.3	3.6	1.51e+00	0	33	104	0	60	47267
2026-01-06 00:48:28.50	171.58	1.99	-47.4	-62.4	3.6	1.51e+00	0	33	104	0	60	47757
2026-01-06 00:48:29.51	171.61	2.05	-47.4	-62.6	3.6	1.51e+00	0	33	104	0	60	48544
2026-01-06 00:48:30.52	171.63	2.12	-47.4	-62.6	3.6	1.51e+00	0	33	104	0	60	48555
2026-01-06 00:48:31.53	171.65	2.18	-47.4	-62.5	3.6	1.51e+00	0	33	104	0	60	47995
2026-01-06 00:48:32.54	171.68	2.25	-47.4	-62.4	3.6	1.51e+00	0	33	104	0	60	47755
2026-01-06 00:48:33.55	171.70	2.31	-47.4	-62.3	3.6	1.51e+00	0	33	104	0	60	47336
2026-01-06 00:48:34.56	171.73	2.37	-47.4	-62.3	3.6	1.51e+00	0	33	104	0	60	46878
2026-01-06 00:48:35.58	171.75	2.44	-47.4	-62.0	3.6	1.51e+00	0	33	104	0	60	45656
2026-01-06 00:48:36.59	171.77	2.51	-47.4	-61.9	3.6	1.51e+00	0	33	104	0	60	44921
2026-01-06 00:48:37.60	171.80	2.57	-47.3	-61.5	3.6	1.51e+00	0	33	104	0	60	42887
2026-01-06 00:48:38.60	171.82	2.64	-47.3	-61.2	3.6	1.51e+00	0	33	104	0	60	41403
2026-01-06 00:48:39.61	171.85	2.70	-47.3	-61.3	3.6	1.51e+00	0	33	104	0	60	42008
2026-01-06 00:48:40.63	171.87	2.77	-47.3	-61.6	3.6	1.51e+00	0	33	104	0	60	43546
2026-01-06 00:48:41.64	171.90	2.83	-47.4	-62.2	3.6	1.51e+00	0	33	104	0	60	46389
2026-01-06 00:48:42.65	171.92	2.90	-47.4	-62.5	3.6	1.51e+00	0	33	104	0	60	48445
2026-01-06 00:48:43.65	171.94	2.96	-47.3	-61.0	3.6	1.51e+00	0	33	104	0	60	40559
2026-01-06 00:48:44.66	171.97	3.03	-47.1	-56.5	4.6	1.47e+00	0	33	0	0	60	24291
2026-01-06 00:48:45.67	171.99	3.10	-46.5	-52.8	8.0	2.14e-01	0	33	0	2097152	60	15743
2026-01-06 00:48:46.68	172.02	3.16	-45.7	-50.5	10.7	2.06e-02	0	33	0	4194304	60	12173
2026-01-06 00:48:47.69	172.04	3.23	-44.8	-48.5	13.1	8.57e-04	0	33	0	5242880	60	9577
2026-01-06 00:48:48.70	172.07	3.30	-44.0	-47.0	14.7	1.50e-06	0	33	0	7340032	60	8072
2026-01-06 00:48:49.70	172.10	3.36	-43.2	-45.6	15.9	0.00e+00	0	33	0	9437184	60	6890
2026-01-06 00:48:50.72	172.12	3.43	-42.2	-44.1	17.4	0.00e+00	0	33	0	11534336	58	6539
2026-01-06 00:48:51.73	172.15	3.50	-41.6	-43.4	18.2	0.00e+00	0	33	0	13631488	56	6693
2026-01-06 00:48:52.73	172.17	3.57	-41.6	-43.4	18.1	0.00e+00	0	33	0	14680064	56	6722
2026-01-06 00:48:53.74	172.20	3.63	-41.4	-43.1	18.4	0.00e+00	0	33	0	16777216	56	6536
2026-01-06 00:48:54.75	172.22	3.70	-42.0	-43.8	17.7	0.00e+00	0	33	0	18874368	56	7082
2026-01-06 00:48:55.76	172.25	3.77	-44.0	-46.9	13.8	0.00e+00	0	33	0	20971520	58	8928
2026-01-06 00:48:56.77	172.28	3.84	-42.0	-43.9	17.2	2.51e-05	0	33	0	23068672	56	7152
2026-01-06 00:48:57.78	172.30	3.91	-46.3	-52.4	7.1	3.35e-03	0	33	0	25165824	60	15036
2026-01-06 00:48:58.79	172.33	3.97	-45.1	-48.9	11.3	5.84e-01	0	33	104	25165824	60	10075
2026-01-06 00:48:59.80	172.35	4.04	-46.4	-53.0	5.9	6.80e-06	0	33	0	26214400	60	16167
2026-01-06 00:49:00.81	172.38	4.11	-44.0	-46.9	14.9	1.35e+00	0	33	104	26214400	60	7977
2026-01-06 00:49:01.82	172.41	4.18	-42.8	-45.0	16.6	0.00e+00	0	33	0	27262976	60	6412
2026-01-06 00:49:02.82	172.43	4.25	-42.6	-44.7	16.8	0.00e+00	0	33	0	29360128	58	6929
2026-01-06 00:49:03.83	172.46	4.32	-42.2	-44.1	17.6	0.00e+00	0	33	0	30408704	58	6491
2026-01-06 00:49:04.85	172.49	4.39	-41.9	-43.7	17.6	0.00e+00	0	33	0	32505856	56	7004
2026-01-06 00:49:05.85	172.51	4.46	-41.4	-43.1	18.8	0.00e+00	0	33	0	34603008	56	6485
2026-01-06 00:49:06.86	172.54	4.53	-40.5	-41.9	19.7	0.00e+00	0	33	0	36700160	54	6343
2026-01-06 00:49:07.87	172.57	4.60	-40.4	-41.7	19.9	0.00e+00	0	33	0	38797312	54	6242
2026-01-06 00:49:08.88	172.60	4.67	-40.0	-41.3	20.3	0.00e+00	0	33	0	39845888	54	5923
2026-01-06 00:49:09.89	172.62	4.74	-39.8	-41.1	20.5	0.00e+00	0	33	0	41943040	52	6477
2026-01-06 00:49:10.89	172.65	4.81	-39.7	-41.0	20.5	0.00e+00	0	33	0	44040192	52	6440
2026-01-06 00:49:11.90	172.68	4.88	-39.7	-41.0	20.7	0.00e+00	0	33	0	46137344	52	6420
2026-01-06 00:49:12.91	172.71	4.95	-39.3	-40.5	21.1	0.00e+00	0	33	0	48234496	52	6044
2026-01-06 00:49:13.93	172.73	5.02	-39.4	-40.6	21.0	0.00e+00	0	33	0	50331648	52	6148
2026-01-06 00:49:14.94	172.76	5.09	-39.5	-40.6	21.0	0.00e+00	0	33	0	51380224	52	6165
2026-01-06 00:49:15.95	172.79	5.17	-39.2	-40.3	21.3	0.00e+00	0	33	0	53477376	52	5935
2026-01-06 00:49:16.96	172.82	5.24	-39.4	-40.5	21.1	0.00e+00	0	33	0	55574528	52	6089
2026-01-06 00:49:17.97	172.85	5.31	-39.3	-40.5	21.2	0.00e+00	0	33	0	57671680	52	6036
2026-01-06 00:49:18.97	172.88	5.38	-39.3	-40.5	21.2	0.00e+00	0	33	0	59768832	52	6050
2026-01-06 00:49:19.98	172.90	5.45	-39.3	-40.4	21.2	0.00e+00	0	33	0	60817408	52	6022
2026-01-06 00:49:20.99	172.93	5.53	-39.2	-40.3	21.4	0.00e+00	0	33	0	62914560	52	5942
2026-01-06 00:49:22.00	172.96	5.60	-39.1	-40.3	21.3	0.00e+00	0	33	0	65011712	52	5911
2026-01-06 00:49:23.01	172.99	5.67	-39.1	-40.3	21.5	0.00e+00	0	33	0	67108864	52	5916
2026-01-06 00:49:24.01	173.02	5.74	-39.5	-40.7	21.2	0.00e+00	0	33	0	69206016	52	6192
2026-01-06 00:49:25.02	173.05	5.82	-39.3	-40.4	21.4	0.00e+00	0	33	0	70254592	52	6017
2026-01-06 00:49:26.03	173.08	5.89	-39.2	-40.4	21.3	0.00e+00	0	33	0	72351744	52	5994
2026-01-06 00:49:27.04	173.11	5.97	-39.1	-40.2	21.4	0.00e+00	0	33	0	74448896	52	5885
2026-01-06 00:49:28.05	173.14	6.04	-39.2	-40.4	21.3	0.00e+00	0	33	0	76546048	52	5972
2026-01-06 00:49:29.06	173.17	6.11	-39.2	-40.3	21.4	0.00e+00	0	34	0	78643200	52	5926
2026-01-06 00:49:30.07	173.20	6.19	-38.9	-40.0	21.7	0.00e+00	0	33	0	79691776	52	5713
2026-01-06 00:49:31.07	173.23	6.26	-39.0	-40.1	21.6	0.00e+00	0	33	0	81788928	52	5794
2026-01-06 00:49:32.08	173.26	6.34	-38.9	-40.0	21.7	0.00e+00	0	33	0	83886080	52	5743
2026-01-06 00:49:33.09	173.29	6.41	-38.9	-40.0	21.8	0.00e+00	0	33	0	85983232	52	5726
2026-01-06 00:49:34.10	173.32	6.49	-39.1	-40.2	21.5	0.00e+00	0	34	0	88080384	52	5887
2026-01-06 00:49:35.11	173.35	6.56	-38.8	-39.9	21.8	0.00e+00	0	33	0	89128960	52	5681
2026-01-06 00:49:36.12	173.38	6.64	-38.9	-40.0	21.8	0.00e+00	0	34	0	91226112	52	5719
2026-01-06 00:49:37.13	173.41	6.71	-38.9	-40.0	21.7	0.00e+00	0	34	0	93323264	52	5724
2026-01-06 00:49:38.14	173.44	6.79	-38.8	-39.9	21.8	0.00e+00	0	34	0	95420416	52	5683
2026-01-06 00:49:39.14	173.47	6.87	-39.0	-40.1	21.7	0.00e+00	0	33	0	97517568	52	5812
2026-01-06 00:49:40.16	173.51	6.94	-38.9	-40.0	21.9	0.00e+00	0	33	0	98566144	52	5724
2026-01-06 00:49:41.16	173.54	7.02	-38.8	-39.8	21.9	0.00e+00	0	34	0	100663296	50	6312
2026-01-06 00:49:42.18	173.57	7.10	-38.9	-39.9	21.9	0.00e+00	0	33	0	102760448	50	6384
2026-01-06 00:49:43.18	173.60	7.17	-38.7	-39.8	21.9	0.00e+00	0	34	0	104857600	50	6260
2026-01-06 00:49:44.19	173.63	7.25	-38.8	-39.9	21.9	0.00e+00	0	34	0	106954752	50	6328
2026-01-06 00:49:45.21	173.67	7.33	-38.7	-39.7	22.0	0.00e+00	0	34	0	108003328	50	6243
2026-01-06 00:49:46.22	173.70	7.41	-38.6	-39.7	22.1	0.00e+00	0	33	0	110100480	50	6190
2026-01-06 00:49:47.23	173.73	7.48	-38.7	-39.8	22.0	0.00e+00	0	34	0	112197632	50	6288
2026-01-06 00:49:48.24	173.76	7.56	-38.7	-39.7	22.0	0.00e+00	0	34	0	114294784	50	6230
2026-01-06 00:49:49.25	173.80	7.64	-38.6	-39.6	22.2	0.00e+00	0	34	0	116391936	50	6135
2026-01-06 00:49:50.26	173.83	7.72	-38.5	-39.5	22.2	0.00e+00	0	34	0	117440512	50	6096
2026-01-06 00:49:51.27	173.86	7.80	-38.5	-39.5	22.3	0.00e+00	0	34	0	119537664	50	6073
2026-01-06 00:49:52.28	173.89	7.88	-38.6	-39.6	22.2	0.00e+00	0	34	0	121634816	50	6167
2026-01-06 00:49:53.29	173.93	7.96	-38.4	-39.4	22.4	0.00e+00	0	33	0	123731968	50	5995
2026-01-06 00:49:54.30	173.96	8.04	-38.5	-39.5	22.4	0.00e+00	0	34	0	125829120	50	6051
2026-01-06 00:49:55.31	174.00	8.12	-38.4	-39.4	22.4	0.00e+00	0	34	0	126877696	50	6003
2026-01-06 00:49:56.31	174.03	8.20	-38.4	-39.4	22.4	0.00e+00	0	34	0	128974848	50	5975
2026-01-06 00:49:57.32	174.06	8.28	-38.4	-39.5	22.4	0.00e+00	0	34	0	131072000	50	6035
2026-01-06 00:49:58.33	174.10	8.36	-38.5	-39.5	22.5	0.00e+00	0	34	0	133169152	50	6052
2026-01-06 00:49:59.34	174.13	8.44	-38.2	-39.2	22.7	0.00e+00	0	34	0	135266304	50	5845
2026-01-06 00:50:00.35	174.17	8.52	-38.2	-39.2	22.7	0.00e+00	0	34	0	137363456	50	5841
2026-01-06 00:50:01.36	174.20	8.60	-38.2	-39.2	22.6	0.00e+00	0	34	0	138412032	50	5860
2026-01-06 00:50:02.37	174.24	8.68	-38.2	-39.2	22.7	0.00e+00	0	34	0	140509184	50	5854
2026-01-06 00:50:03.38	174.27	8.77	-38.1	-39.1	22.8	0.00e+00	0	34	0	142606336	50	5794
2026-01-06 00:50:04.38	174.31	8.85	-38.0	-38.9	22.9	0.00e+00	0	34	0	144703488	50	5691
2026-01-06 00:50:05.40	174.34	8.93	-38.0	-39.0	22.8	0.00e+00	0	34	0	146800640	50	5701
2026-01-06 00:50:06.40	174.38	9.01	-38.0	-39.0	22.9	0.00e+00	0	34	0	147849216	50	5712
2026-01-06 00:50:07.41	174.41	9.10	-38.0	-38.9	22.9	0.00e+00	0	34	0	149946368	50	5692
2026-01-06 00:50:08.42	174.45	9.18	-38.0	-39.0	22.9	0.00e+00	0	34	0	152043520	50	5730
2026-01-06 00:50:09.43	174.49	9.26	-37.8	-38.8	23.1	0.00e+00	0	34	0	154140672	50	5572
2026-01-06 00:50:10.45	174.52	9.35	-38.0	-39.0	22.9	0.00e+00	0	34	0	156237824	50	5718
2026-01-06 00:50:11.45	174.56	9.43	-37.8	-38.7	23.1	0.00e+00	0	34	0	157286400	50	5565
2026-01-06 00:50:12.46	174.60	9.52	-37.8	-38.8	23.0	0.00e+00	0	34	0	159383552	48	6250
2026-01-06 00:50:13.47	174.63	9.60	-37.9	-38.8	23.0	0.00e+00	0	34	0	161480704	48	6294
2026-01-06 00:50:14.48	174.67	9.69	-37.8	-38.7	23.1	0.00e+00	0	34	0	163577856	48	6228
2026-01-06 00:50:15.49	174.71	9.77	-37.7	-38.6	23.2	0.00e+00	0	34	0	165675008	48	6168
2026-01-06 00:50:16.50	174.75	9.86	-37.9	-38.8	23.0	0.00e+00	0	34	0	166723584	48	6313
2026-01-06 00:50:17.51	174.78	9.94	-37.7	-38.6	23.2	0.00e+00	0	34	0	168820736	48	6145
2026-01-06 00:50:18.52	174.82	10.03	-37.7	-38.7	23.1	0.00e+00	0	34	0	170917888	48	6183
2026-01-06 00:50:19.53	174.86	10.12	-37.8	-38.8	23.1	0.00e+00	0	34	0	173015040	48	6248
2026-01-06 00:50:20.54	174.90	10.20	-38.0	-38.9	22.9	0.00e+00	0	34	0	175112192	48	6362
2026-01-06 00:50:21.55	174.94	10.29	-37.7	-38.7	23.2	0.00e+00	0	34	0	176160768	48	6174
2026-01-06 00:50:22.56	174.98	10.38	-37.9	-38.8	23.2	0.00e+00	0	34	0	178257920	48	6306
2026-01-06 00:50:23.57	175.01	10.47	-37.8	-38.8	23.1	0.00e+00	0	34	0	180355072	48	6257
2026-01-06 00:50:24.57	175.05	10.55	-37.8	-38.7	23.1	0.00e+00	0	34	0	182452224	48	6224
2026-01-06 00:50:25.58	175.09	10.64	-37.7	-38.7	23.3	0.00e+00	0	34	0	184549376	48	6179
2026-01-06 00:50:26.59	175.13	10.73	-37.8	-38.7	23.2	0.00e+00	0	34	0	185597952	48	6206
2026-01-06 00:50:27.60	175.17	10.82	-37.8	-38.7	23.2	0.00e+00	0	34	0	187695104	48	6220
2026-01-06 00:50:28.61	175.21	10.91	-37.7	-38.6	23.2	0.00e+00	0	34	0	189792256	48	6169
2026-01-06 00:50:29.62	175.25	11.00	-37.6	-38.6	23.3	0.00e+00	0	34	0	191889408	48	6115
2026-01-06 00:50:30.63	175.29	11.09	-37.7	-38.6	23.3	0.00e+00	0	34	0	193986560	48	6139
2026-01-06 00:50:31.64	175.33	11.18	-37.7	-38.6	23.3	0.00e+00	0	34	0	195035136	48	6143
2026-01-06 00:50:32.65	175.38	11.27	-37.7	-38.6	23.3	0.00e+00	0	33	0	197132288	48	6154
2026-01-06 00:50:33.66	175.42	11.36	-37.6	-38.5	23.4	0.00e+00	0	33	0	199229440	48	6075
2026-01-06 00:50:34.67	175.46	11.45	-37.6	-38.5	23.4	0.00e+00	0	34	0	201326592	48	6094
2026-01-06 00:50:35.68	175.50	11.54	-37.6	-38.5	23.3	0.00e+00	0	34	0	203423744	48	6083
2026-01-06 00:50:36.69	175.54	11.63	-37.7	-38.6	23.5	0.00e+00	0	33	0	205520896	48	6139
2026-01-06 00:50:37.70	175.58	11.72	-37.5	-38.4	23.5	0.00e+00	0	34	0	206569472	48	5976
2026-01-06 00:50:38.71	175.63	11.82	-37.7	-38.6	23.4	0.00e+00	0	34	0	208666624	48	6129
2026-01-06 00:50:39.72	175.67	11.91	-37.4	-38.3	23.5	0.00e+00	0	33	0	210763776	48	5951
2026-01-06 00:50:40.73	175.71	12.00	-37.3	-38.2	23.7	0.00e+00	0	33	0	212860928	48	5889
2026-01-06 00:50:41.74	175.76	12.10	-37.3	-38.2	23.6	0.00e+00	0	34	0	214958080	48	5882
2026-01-06 00:50:42.74	175.80	12.19	-37.4	-38.3	23.6	0.00e+00	0	33	0	216006656	48	5936
2026-01-06 00:50:43.75	175.84	12.28	-37.3	-38.2	23.7	0.00e+00	0	33	0	218103808	48	5858
2026-01-06 00:50:44.76	175.89	12.38	-37.4	-38.3	23.7	0.00e+00	0	34	0	220200960	48	5898
2026-01-06 00:50:45.77	175.93	12.47	-37.2	-38.1	23.8	0.00e+00	0	34	0	222298112	48	5785
2026-01-06 00:50:46.78	175.98	12.57	-37.3	-38.2	23.8	0.00e+00	0	34	0	224395264	48	5842
2026-01-06 00:50:47.79	176.02	12.66	-37.3	-38.2	23.7	0.00e+00	0	34	0	225443840	48	5876
2026-01-06 00:50:48.80	176.07	12.76	-37.3	-38.2	23.7	0.00e+00	0	34	0	227540992	48	5879
2026-01-06 00:50:49.81	176.11	12.86	-37.5	-38.3	23.6	0.00e+00	0	33	0	229638144	48	5962
2026-01-06 00:50:50.81	176.16	12.95	-37.3	-38.1	23.8	0.00e+00	0	34	0	231735296	48	5828
2026-01-06 00:50:51.82	176.20	13.05	-37.2	-38.1	23.9	0.00e+00	0	34	0	233832448	48	5775
2026-01-06 00:50:52.83	176.25	13.15	-37.2	-38.1	23.9	0.00e+00	0	34	0	234881024	48	5793
2026-01-06 00:50:53.84	176.29	13.24	-37.3	-38.2	23.8	0.00e+00	0	34	0	236978176	48	5839
2026-01-06 00:50:54.85	176.34	13.34	-37.2	-38.1	23.9	0.00e+00	0	34	0	239075328	48	5796
2026-01-06 00:50:55.86	176.39	13.44	-37.2	-38.1	23.9	0.00e+00	0	34	0	241172480	48	5802
2026-01-06 00:50:56.87	176.43	13.54	-37.3	-38.1	23.8	0.00e+00	0	34	0	243269632	48	5811
2026-01-06 00:50:57.88	176.48	13.64	-37.3	-38.2	23.8	0.00e+00	0	34	0	244318208	48	5829
2026-01-06 00:50:58.89	176.53	13.74	-37.3	-38.1	23.8	0.00e+00	0	34	0	246415360	48	5824
2026-01-06 00:50:59.90	176.58	13.84	-37.3	-38.2	23.7	0.00e+00	0	34	0	248512512	48	5876
2026-01-06 00:51:00.91	176.63	13.94	-37.4	-38.3	23.7	0.00e+00	0	34	0	250609664	48	5905
2026-01-06 00:51:01.92	176.68	14.04	-37.4	-38.3	23.6	0.00e+00	0	34	0	252706816	48	5934
2026-01-06 00:51:02.93	176.73	14.14	-37.4	-38.3	23.7	0.00e+00	0	34	0	253755392	48	5944
2026-01-06 00:51:03.93	176.77	14.24	-37.5	-38.4	23.6	0.00e+00	0	34	0	255852544	48	5968
2026-01-06 00:51:04.94	176.82	14.35	-37.4	-38.3	23.7	0.00e+00	0	34	0	257949696	48	5943
2026-01-06 00:51:05.96	176.87	14.45	-37.5	-38.4	23.6	0.00e+00	0	34	0	260046848	48	6002
2026-01-06 00:51:06.97	176.92	14.55	-37.5	-38.4	23.6	0.00e+00	0	34	0	262144000	48	5995
2026-01-06 00:51:07.97	176.97	14.65	-37.5	-38.4	23.7	0.00e+00	0	34	0	263192576	48	5997
2026-01-06 00:51:08.98	177.03	14.76	-37.4	-38.3	23.6	0.00e+00	0	34	0	265289728	48	5953
2026-01-06 00:51:09.99	177.08	14.86	-37.5	-38.4	23.7	0.00e+00	0	34	0	267386880	48	5968
2026-01-06 00:51:11.00	177.13	14.97	-37.6	-38.5	23.5	0.00e+00	0	34	0	269484032	48	6077
2026-01-06 00:51:12.01	177.18	15.07	-37.6	-38.5	23.6	0.00e+00	0	34	0	271581184	48	6061
2026-01-06 00:51:13.02	177.23	15.18	-37.6	-38.4	23.6	0.00e+00	0	34	0	273678336	48	6032
2026-01-06 00:51:14.03	177.29	15.28	-37.4	-38.2	23.7	0.00e+00	0	34	0	274726912	48	5893
2026-01-06 00:51:15.04	177.34	15.39	-37.4	-38.2	23.8	0.00e+00	0	34	0	276824064	48	5887
2026-01-06 00:51:16.05	177.39	15.50	-37.4	-38.3	23.8	0.00e+00	0	34	0	278921216	48	5913
2026-01-06 00:51:17.06	177.45	15.61	-37.5	-38.4	23.7	0.00e+00	0	34	0	281018368	48	6015
2026-01-06 00:51:18.07	177.50	15.71	-37.5	-38.4	23.7	0.00e+00	0	34	0	283115520	48	5978
2026-01-06 00:51:19.08	177.55	15.82	-37.6	-38.5	23.7	0.00e+00	0	34	0	284164096	48	6084
2026-01-06 00:51:20.08	177.61	15.93	-37.5	-38.4	23.7	0.00e+00	0	34	0	286261248	48	5966
2026-01-06 00:51:21.09	177.66	16.04	-37.3	-38.2	23.8	0.00e+00	0	34	0	288358400	48	5881
2026-01-06 00:51:22.11	177.72	16.15	-37.4	-38.3	23.7	0.00e+00	0	33	0	290455552	48	5943
2026-01-06 00:51:23.11	177.78	16.26	-37.4	-38.3	23.9	0.00e+00	0	34	0	292552704	48	5906
2026-01-06 00:51:24.12	177.83	16.37	-37.3	-38.2	23.9	0.00e+00	0	34	0	293601280	48	5869
2026-01-06 00:51:25.13	177.89	16.48	-37.4	-38.2	23.9	0.00e+00	0	34	0	295698432	48	5882
2026-01-06 00:51:26.14	177.95	16.59	-37.4	-38.3	23.8	0.00e+00	0	34	0	297795584	48	5928
2026-01-06 00:51:27.15	178.00	16.70	-37.5	-38.4	23.7	0.00e+00	0	34	0	299892736	48	5968
2026-01-06 00:51:28.16	178.06	16.82	-37.3	-38.2	23.9	0.00e+00	0	34	0	301989888	48	5863
2026-01-06 00:51:29.17	178.12	16.93	-37.4	-38.2	23.8	0.00e+00	0	34	0	303038464	48	5889
2026-01-06 00:51:30.18	178.18	17.04	-37.4	-38.3	23.8	0.00e+00	0	34	0	305135616	48	5916
2026-01-06 00:51:31.19	178.24	17.16	-37.4	-38.3	23.8	0.00e+00	0	34	0	307232768	48	5936
2026-01-06 00:51:32.19	178.30	17.27	-37.4	-38.2	23.8	0.00e+00	0	34	0	309329920	48	5873
2026-01-06 00:51:33.20	178.36	17.39	-37.4	-38.3	23.8	0.00e+00	0	34	0	311427072	48	5946
2026-01-06 00:51:34.21	178.42	17.50	-37.5	-38.3	23.7	0.00e+00	0	34	0	312475648	48	5960
2026-01-06 00:51:35.22	178.48	17.62	-37.6	-38.5	23.7	0.00e+00	0	34	0	314572800	48	6047
2026-01-06 00:51:36.23	178.54	17.73	-37.5	-38.4	23.7	0.00e+00	0	34	0	316669952	48	5990
2026-01-06 00:51:37.24	178.60	17.85	-37.5	-38.4	23.7	0.00e+00	0	34	0	318767104	48	6022
2026-01-06 00:51:38.25	178.66	17.97	-37.5	-38.4	23.7	0.00e+00	0	34	0	320864256	48	6002
2026-01-06 00:51:39.26	178.73	18.09	-37.5	-38.4	23.7	0.00e+00	0	34	0	321912832	48	6015
2026-01-06 00:51:40.27	178.79	18.21	-37.6	-38.5	23.6	0.00e+00	0	34	0	324009984	48	6049
2026-01-06 00:51:41.28	178.85	18.32	-37.5	-38.4	23.7	0.00e+00	0	34	0	326107136	48	5969
2026-01-06 00:51:42.29	178.92	18.44	-37.6	-38.5	23.6	0.00e+00	0	34	0	328204288	48	6036
2026-01-06 00:51:43.30	178.98	18.57	-37.4	-38.3	23.8	0.00e+00	0	34	0	330301440	48	5919
2026-01-06 00:51:44.31	179.05	18.69	-37.5	-38.4	23.6	0.00e+00	0	34	0	331350016	48	6005
2026-01-06 00:51:45.32	179.11	18.81	-37.5	-38.3	23.7	0.00e+00	0	34	0	333447168	48	5956
2026-01-06 00:51:46.33	179.18	18.93	-37.4	-38.2	23.9	0.00e+00	0	34	0	335544320	48	5885
2026-01-06 00:51:47.34	179.25	19.05	-37.4	-38.2	23.9	0.00e+00	0	34	0	337641472	48	5877
2026-01-06 00:51:48.35	179.31	19.18	-37.4	-38.3	23.8	0.00e+00	0	34	0	339738624	48	5900
2026-01-06 00:51:49.35	179.38	19.30	-37.3	-38.2	23.9	0.00e+00	0	34	0	340787200	48	5867
2026-01-06 00:51:50.36	179.45	19.42	-37.4	-38.3	23.9	0.00e+00	0	34	0	342884352	48	5909
2026-01-06 00:51:51.37	179.52	19.55	-37.3	-38.2	23.9	0.00e+00	0	34	0	344981504	48	5861
2026-01-06 00:51:52.38	179.59	19.67	-37.4	-38.2	23.9	0.00e+00	0	34	0	347078656	48	5882
2026-01-06 00:51:53.38	179.65	19.80	-37.3	-38.2	23.9	0.00e+00	0	34	0	349175808	48	5855
2026-01-06 00:51:54.39	179.72	19.93	-37.5	-38.4	23.7	0.00e+00	0	34	0	350224384	48	6000
2026-01-06 00:51:55.40	179.80	20.05	-37.6	-38.5	23.7	0.00e+00	0	34	0	352321536	48	6051
2026-01-06 00:51:56.41	179.87	20.18	-37.5	-38.4	23.8	0.00e+00	0	34	0	354418688	48	6018
2026-01-06 00:51:57.42	179.94	20.31	-37.5	-38.4	23.8	0.00e+00	0	34	0	356515840	48	5983
2026-01-06 00:51:58.43	180.01	20.44	-37.5	-38.4	23.8	0.00e+00	0	34	0	358612992	48	5985
2026-01-06 00:51:59.44	180.08	20.57	-37.7	-38.6	23.7	0.00e+00	0	34	0	359661568	48	6115
2026-01-06 00:52:00.45	180.16	20.70	-37.5	-38.4	23.8	0.00e+00	0	34	0	361758720	48	5965
2026-01-06 00:52:01.46	180.23	20.83	-37.5	-38.4	23.7	0.00e+00	0	34	0	363855872	48	6003
2026-01-06 00:52:02.46	180.31	20.96	-37.5	-38.4	23.8	0.00e+00	0	34	0	365953024	48	5975
2026-01-06 00:52:03.48	180.38	21.09	-37.5	-38.3	23.8	0.00e+00	0	34	0	368050176	48	5958
2026-01-06 00:52:04.49	180.46	21.23	-37.5	-38.4	23.8	0.00e+00	0	34	0	370147328	48	5974
2026-01-06 00:52:05.50	180.54	21.36	-37.4	-38.3	23.8	0.00e+00	0	34	0	371195904	48	5939
2026-01-06 00:52:06.51	180.61	21.50	-37.4	-38.3	23.8	0.00e+00	0	34	0	373293056	48	5936
2026-01-06 00:52:07.52	180.69	21.63	-37.5	-38.3	23.8	0.00e+00	0	34	0	375390208	48	5961
2026-01-06 00:52:08.53	180.77	21.77	-37.2	-38.1	24.0	0.00e+00	0	34	0	377487360	48	5795
2026-01-06 00:52:09.53	180.85	21.90	-37.2	-38.1	24.0	0.00e+00	0	34	0	379584512	48	5786
2026-01-06 00:52:10.54	180.93	22.04	-37.4	-38.2	24.0	0.00e+00	0	34	0	380633088	48	5877
2026-01-06 00:52:11.55	181.01	22.18	-37.1	-37.9	24.2	0.00e+00	0	34	0	382730240	48	5674
2026-01-06 00:52:12.56	181.09	22.32	-37.1	-38.0	24.2	0.00e+00	0	34	0	384827392	48	5707
2026-01-06 00:52:13.57	181.17	22.45	-37.0	-37.8	24.3	0.00e+00	0	34	0	386924544	48	5609
2026-01-06 00:52:14.58	181.25	22.59	-37.0	-37.9	24.2	0.00e+00	0	34	0	389021696	48	5656
2026-01-06 00:52:15.59	181.34	22.73	-37.1	-38.0	24.2	0.00e+00	0	34	0	390070272	48	5713
2026-01-06 00:52:16.60	181.42	22.88	-36.8	-37.6	24.5	0.00e+00	0	34	0	392167424	48	5454
2026-01-06 00:52:17.60	181.51	23.02	-36.7	-37.6	24.5	0.00e+00	0	34	0	394264576	46	6108
2026-01-06 00:52:18.61	181.59	23.16	-36.8	-37.7	24.4	0.00e+00	0	34	0	396361728	46	6190
2026-01-06 00:52:19.63	181.68	23.30	-36.8	-37.7	24.4	0.00e+00	0	34	0	398458880	46	6197
2026-01-06 00:52:20.64	181.77	23.45	-36.8	-37.6	24.5	0.00e+00	0	34	0	399507456	46	6135
2026-01-06 00:52:21.65	181.85	23.59	-36.6	-37.4	24.4	0.00e+00	0	34	0	401604608	46	5995
2026-01-06 00:52:22.65	181.94	23.74	-36.5	-37.3	24.7	0.00e+00	0	34	0	403701760	46	5932
2026-01-06 00:52:23.66	182.03	23.88	-36.5	-37.3	24.7	0.00e+00	0	34	0	405798912	46	5958
2026-01-06 00:52:24.67	182.12	24.03	-36.5	-37.3	24.8	0.00e+00	0	34	0	407896064	46	5914
2026-01-06 00:52:25.68	182.21	24.18	-36.6	-37.5	24.6	0.00e+00	0	34	0	408944640	46	6044
2026-01-06 00:52:26.69	182.30	24.33	-36.5	-37.4	24.7	0.00e+00	0	34	0	411041792	46	5968
2026-01-06 00:52:27.70	182.40	24.48	-36.4	-37.2	24.8	0.00e+00	0	34	0	413138944	46	5870
2026-01-06 00:52:28.71	182.49	24.63	-36.5	-37.3	24.7	0.00e+00	0	34	0	415236096	46	5922
2026-01-06 00:52:29.72	182.59	24.78	-36.3	-37.1	25.0	0.00e+00	0	34	0	417333248	46	5765
2026-01-06 00:52:30.72	182.68	24.93	-36.2	-37.0	25.0	0.00e+00	0	34	0	418381824	46	5732
2026-01-06 00:52:31.73	182.78	25.08	-36.2	-36.9	25.1	0.00e+00	0	34	0	420478976	46	5691
2026-01-06 00:52:32.74	182.87	25.24	-36.2	-37.0	25.1	0.00e+00	0	34	0	422576128	46	5708
2026-01-06 00:52:33.75	182.97	25.39	-36.3	-37.1	25.0	0.00e+00	0	34	0	424673280	46	5789
2026-01-06 00:52:34.76	183.07	25.55	-36.2	-37.0	24.9	0.00e+00	0	34	0	426770432	46	5751
2026-01-06 00:52:35.77	183.17	25.70	-36.2	-37.0	25.1	0.00e+00	0	34	0	427819008	46	5743
2026-01-06 00:52:36.78	183.27	25.86	-36.2	-37.0	25.0	0.00e+00	0	34	0	429916160	46	5730
2026-01-06 00:52:37.79	183.37	26.02	-36.0	-36.8	25.2	0.00e+00	0	34	0	432013312	46	5579
2026-01-06 00:52:38.80	183.47	26.18	-36.1	-36.9	25.0	0.00e+00	0	34	0	434110464	46	5637
2026-01-06 00:52:39.80	183.58	26.33	-36.1	-36.8	25.2	0.00e+00	0	34	0	436207616	46	5624
2026-01-06 00:52:40.81	183.68	26.49	-36.0	-36.8	25.2	0.00e+00	0	34	0	438304768	46	5607
2026-01-06 00:52:41.82	183.79	26.65	-36.2	-36.9	25.0	0.00e+00	0	34	0	439353344	46	5687
2026-01-06 00:52:42.83	183.89	26.82	-36.3	-37.1	25.0	0.00e+00	0	34	0	441450496	46	5790
2026-01-06 00:52:43.84	184.00	26.98	-36.3	-37.1	24.9	0.00e+00	0	34	0	443547648	46	5806
2026-01-06 00:52:44.85	184.11	27.14	-36.3	-37.2	24.9	0.00e+00	0	34	0	445644800	46	5831
2026-01-06 00:52:45.86	184.22	27.31	-36.4	-37.2	24.9	0.00e+00	0	34	0	446693376	46	5854
2026-01-06 00:52:46.87	184.33	27.47	-36.5	-37.3	24.7	0.00e+00	0	34	0	448790528	46	5964
2026-01-06 00:52:47.88	184.44	27.64	-36.7	-37.5	24.7	0.00e+00	0	34	0	450887680	46	6073
2026-01-06 00:52:48.88	184.56	27.80	-36.8	-37.6	24.4	0.00e+00	0	34	0	452984832	46	6170
2026-01-06 00:52:49.89	184.67	27.97	-36.8	-37.6	24.6	0.00e+00	0	34	0	455081984	46	6132
2026-01-06 00:52:50.90	184.79	28.14	-36.9	-37.7	24.4	0.00e+00	0	34	0	456130560	46	6234
2026-01-06 00:52:51.91	184.90	28.31	-37.1	-37.9	24.2	0.00e+00	0	34	0	458227712	46	6373
2026-01-06 00:52:52.92	185.02	28.48	-37.2	-38.0	24.3	0.00e+00	0	34	0	460324864	46	6438
2026-01-06 00:52:53.94	185.14	28.66	-37.3	-38.1	24.1	0.00e+00	0	34	0	462422016	46	6513
2026-01-06 00:52:54.94	185.26	28.83	-37.3	-38.2	24.0	0.00e+00	0	34	0	464519168	46	6574
2026-01-06 00:52:55.95	185.38	29.00	-37.5	-38.4	23.9	0.00e+00	0	34	0	466616320	46	6695
2026-01-06 00:52:56.96	185.51	29.18	-37.6	-38.5	23.8	0.00e+00	0	34	0	467664896	46	6800
2026-01-06 00:52:57.97	185.63	29.35	-37.7	-38.5	23.7	0.00e+00	0	34	0	469762048	46	6840
2026-01-06 00:52:58.99	185.76	29.53	-37.8	-38.8	23.6	0.00e+00	0	34	0	471859200	48	6251
2026-01-06 00:53:00.00	185.88	29.71	-38.0	-38.9	23.4	0.00e+00	0	34	0	473956352	48	6350
2026-01-06 00:53:01.00	186.01	29.88	-38.0	-38.9	23.5	0.00e+00	0	34	0	476053504	48	6333
2026-01-06 00:53:02.02	186.14	30.07	-38.0	-38.9	23.4	0.00e+00	0	34	0	477102080	48	6382
2026-01-06 00:53:03.02	186.27	30.24	-38.1	-39.1	23.3	0.00e+00	0	34	0	479199232	48	6472
2026-01-06 00:53:04.04	186.41	30.43	-38.3	-39.2	23.1	0.00e+00	0	34	0	481296384	48	6609
2026-01-06 00:53:05.05	186.54	30.61	-38.4	-39.4	23.0	0.00e+00	0	34	0	483393536	48	6720
2026-01-06 00:53:06.05	186.68	30.79	-38.6	-39.6	22.8	0.00e+00	0	34	0	485490688	48	6859
2026-01-06 00:53:07.06	186.81	30.98	-38.9	-39.9	22.5	0.00e+00	0	34	0	486539264	50	6379
2026-01-06 00:53:08.07	186.95	31.16	-39.1	-40.2	22.2	0.00e+00	0	34	0	488636416	50	6548
2026-01-06 00:53:09.08	187.09	31.35	-39.4	-40.5	21.9	0.00e+00	0	34	0	490733568	50	6779
2026-01-06 00:53:10.09	187.23	31.53	-39.8	-40.9	21.7	0.00e+00	0	34	0	492830720	50	7110
2026-01-06 00:53:11.10	187.38	31.72	-39.7	-40.8	21.7	0.00e+00	0	34	0	494927872	52	6263
2026-01-06 00:53:12.11	187.52	31.91	-39.8	-41.0	21.7	0.00e+00	0	34	0	495976448	52	6391
2026-01-06 00:53:13.12	187.67	32.10	-39.8	-41.0	21.6	0.00e+00	0	34	0	498073600	52	6408
2026-01-06 00:53:14.13	187.82	32.29	-40.0	-41.1	21.5	0.00e+00	0	34	0	500170752	52	6489
2026-01-06 00:53:15.14	187.97	32.49	-39.9	-41.0	21.6	0.00e+00	0	34	0	502267904	52	6436
2026-01-06 00:53:16.15	188.12	32.68	-39.8	-40.9	21.6	0.00e+00	0	34	0	504365056	52	6383
2026-01-06 00:53:17.16	188.27	32.87	-39.7	-40.7	21.8	0.00e+00	0	34	0	505413632	52	6236
2026-01-06 00:53:18.17	188.43	33.07	-39.8	-40.9	21.6	0.00e+00	0	34	0	507510784	52	6365
2026-01-06 00:53:19.18	188.58	33.27	-39.8	-40.8	21.7	0.00e+00	0	34	0	509607936	52	6316
2026-01-06 00:53:20.19	188.74	33.46	-39.7	-40.8	21.9	0.00e+00	0	34	0	511705088	52	6290
2026-01-06 00:53:21.20	188.90	33.66	-39.8	-40.9	21.7	0.00e+00	0	34	0	513802240	52	6384
2026-01-06 00:53:22.21	189.07	33.86	-39.6	-40.7	22.0	0.00e+00	0	34	0	514850816	52	6204
2026-01-06 00:53:23.22	189.23	34.06	-39.5	-40.6	22.0	0.00e+00	0	34	0	516947968	52	6118
2026-01-06 00:53:24.23	189.40	34.27	-39.6	-40.7	21.9	0.00e+00	0	34	0	519045120	52	6235
2026-01-06 00:53:25.23	189.56	34.47	-39.5	-40.6	22.0	0.00e+00	0	34	0	521142272	52	6139
2026-01-06 00:53:26.24	189.73	34.67	-39.6	-40.7	21.9	0.00e+00	0	34	0	523239424	52	6174
2026-01-06 00:53:27.25	189.91	34.88	-39.4	-40.5	22.0	0.00e+00	0	34	0	524288000	52	6080
2026-01-06 00:53:28.26	190.08	35.08	-39.5	-40.6	21.9	0.00e+00	0	34	0	526385152	52	6156
2026-01-06 00:53:29.27	190.26	35.29	-39.5	-40.5	21.9	0.00e+00	0	34	0	528482304	52	6091
2026-01-06 00:53:30.28	190.44	35.50	-39.6	-40.7	21.9	0.00e+00	0	34	0	530579456	52	6174
2026-01-06 00:53:31.29	190.62	35.71	-39.7	-40.9	21.7	0.00e+00	0	34	0	532676608	52	6323
2026-01-06 00:53:32.30	190.80	35.92	-39.6	-40.7	21.8	0.00e+00	0	34	0	534773760	52	6240
2026-01-06 00:53:33.31	190.99	36.13	-39.7	-40.8	21.7	0.00e+00	0	34	0	535822336	52	6258
2026-01-06 00:53:34.32	191.18	36.34	-39.8	-41.0	21.6	0.00e+00	0	34	0	537919488	52	6400
2026-01-06 00:53:35.33	191.37	36.55	-39.8	-40.9	21.7	0.00e+00	0	34	0	540016640	52	6382
2026-01-06 00:53:36.34	191.56	36.77	-39.6	-40.7	21.9	0.00e+00	0	34	0	542113792	52	6177
2026-01-06 00:53:37.35	191.76	36.98	-39.7	-40.8	21.7	0.00e+00	0	34	0	544210944	52	6314
2026-01-06 00:53:38.36	191.96	37.20	-39.9	-41.0	21.6	0.00e+00	0	34	0	545259520	52	6437
2026-01-06 00:53:39.37	192.16	37.42	-40.0	-41.2	21.5	0.00e+00	0	34	0	547356672	52	6540
2026-01-06 00:53:40.38	192.36	37.64	-39.7	-40.7	21.9	0.00e+00	0	34	0	549453824	52	6236
2026-01-06 00:53:41.39	192.57	37.86	-39.6	-40.7	21.8	0.00e+00	0	34	0	551550976	52	6211
2026-01-06 00:53:42.40	192.78	38.08	-39.6	-40.7	21.9	0.00e+00	0	34	0	553648128	52	6199
2026-01-06 00:53:43.41	192.99	38.30	-39.7	-40.8	21.8	0.00e+00	0	34	0	554696704	52	6280
2026-01-06 00:53:44.42	193.21	38.52	-39.4	-40.4	22.2	0.00e+00	0	34	0	556793856	52	6018
2026-01-06 00:53:45.42	193.42	38.75	-39.1	-40.1	22.4	0.00e+00	0	34	0	558891008	52	5784
2026-01-06 00:53:46.43	193.64	38.97	-39.1	-40.1	22.3	0.00e+00	0	34	0	560988160	52	5799
2026-01-06 00:53:47.44	193.87	39.20	-39.1	-40.2	22.4	0.00e+00	0	34	0	563085312	52	5830
2026-01-06 00:53:48.45	194.09	39.42	-39.3	-40.4	22.1	0.00e+00	0	34	0	564133888	52	5995
2026-01-06 00:53:49.46	194.32	39.65	-39.4	-40.5	22.1	0.00e+00	0	34	0	566231040	52	6058
2026-01-06 00:53:50.47	194.56	39.88	-39.2	-40.3	22.2	0.00e+00	0	34	0	568328192	52	5899
2026-01-06 00:53:51.48	194.79	40.11	-39.1	-40.2	22.4	0.00e+00	0	34	0	570425344	52	5845
2026-01-06 00:53:52.49	195.03	40.34	-38.9	-39.9	22.6	0.00e+00	0	34	0	572522496	52	5676
2026-01-06 00:53:53.50	195.28	40.57	-38.6	-39.5	22.9	0.00e+00	0	34	0	573571072	50	6097
2026-01-06 00:53:54.51	195.52	40.81	-38.4	-39.4	23.0	0.00e+00	0	34	0	575668224	50	5970
2026-01-06 00:53:55.52	195.77	41.04	-38.1	-39.0	23.4	0.00e+00	0	34	0	577765376	50	5723
2026-01-06 00:53:56.53	196.03	41.27	-38.1	-39.0	23.3	0.00e+00	0	34	0	579862528	50	5757
2026-01-06 00:53:57.54	196.28	41.51	-38.1	-39.0	23.3	0.00e+00	0	34	0	581959680	50	5748
2026-01-06 00:53:58.54	196.54	41.74	-38.0	-38.9	23.5	0.00e+00	0	34	0	583008256	50	5694
2026-01-06 00:53:59.55	196.81	41.98	-37.8	-38.7	23.6	0.00e+00	0	34	0	585105408	50	5553
2026-01-06 00:54:00.56	197.08	42.22	-38.0	-39.0	23.5	0.00e+00	0	34	0	587202560	50	5702
2026-01-06 00:54:01.57	197.35	42.46	-38.3	-39.3	23.3	0.00e+00	0	34	0	589299712	50	5915
2026-01-06 00:54:02.58	197.62	42.70	-38.5	-39.5	23.0	0.00e+00	0	34	0	591396864	50	6044
2026-01-06 00:54:03.59	197.91	42.94	-38.4	-39.3	23.2	0.00e+00	0	34	0	592445440	50	5931
2026-01-06 00:54:04.60	198.19	43.18	-38.4	-39.4	23.1	0.00e+00	0	34	0	594542592	50	5985
2026-01-06 00:54:05.61	198.48	43.42	-38.4	-39.4	23.1	0.00e+00	0	34	0	596639744	50	6004
2026-01-06 00:54:06.62	198.77	43.67	-38.3	-39.3	23.1	0.00e+00	0	34	0	598736896	50	5914
2026-01-06 00:54:07.63	199.07	43.91	-38.4	-39.3	23.1	0.00e+00	0	34	0	600834048	50	5943
2026-01-06 00:54:08.64	199.37	44.15	-38.3	-39.2	23.1	0.00e+00	0	34	0	602931200	50	5878
2026-01-06 00:54:09.65	199.68	44.40	-38.7	-39.6	22.8	0.00e+00	0	34	0	603979776	50	6156
2026-01-06 00:54:10.65	199.99	44.64	-39.1	-40.1	22.4	0.00e+00	0	34	0	606076928	50	6539
2026-01-06 00:54:11.67	200.31	44.89	-39.3	-40.4	22.1	0.00e+00	0	34	0	608174080	50	6719
2026-01-06 00:54:12.67	200.63	45.13	-39.4	-40.4	22.1	0.00e+00	0	34	0	610271232	50	6745
2026-01-06 00:54:13.68	200.95	45.38	-39.2	-40.2	22.3	0.00e+00	0	34	0	612368384	50	6609
2026-01-06 00:54:14.69	201.28	45.63	-39.0	-40.0	22.5	0.00e+00	0	34	0	613416960	50	6442
2026-01-06 00:54:15.70	201.62	45.88	-38.9	-39.9	22.5	0.00e+00	0	34	0	615514112	50	6335
2026-01-06 00:54:16.71	201.96	46.13	-38.8	-39.8	22.5	0.00e+00	0	34	0	617611264	50	6267
2026-01-06 00:54:17.72	202.31	46.38	-38.6	-39.6	22.9	0.00e+00	0	34	0	619708416	50	6141
2026-01-06 00:54:18.73	202.66	46.63	-38.7	-39.6	22.8	0.00e+00	0	34	0	621805568	50	6169
2026-01-06 00:54:19.74	203.02	46.88	-39.2	-40.2	22.2	0.00e+00	0	34	0	622854144	50	6577
2026-01-06 00:54:20.75	203.38	47.13	-39.8	-40.9	21.7	0.00e+00	0	34	0	624951296	50	7165
2026-01-06 00:54:21.76	203.75	47.38	-40.2	-41.4	21.3	0.00e+00	0	34	0	627048448	52	6703
2026-01-06 00:54:22.77	204.13	47.63	-40.4	-41.6	21.0	0.00e+00	0	34	0	629145600	52	6919
2026-01-06 00:54:23.77	204.51	47.87	-40.2	-41.4	21.3	0.00e+00	0	34	0	631242752	52	6704
2026-01-06 00:54:24.78	204.89	48.13	-39.6	-40.7	21.9	0.00e+00	0	34	0	632291328	52	6212
2026-01-06 00:54:25.79	205.29	48.38	-38.8	-39.8	22.7	0.00e+00	0	34	0	634388480	52	5574
2026-01-06 00:54:26.80	205.69	48.63	-38.7	-39.6	22.8	0.00e+00	0	34	0	636485632	50	6173
2026-01-06 00:54:27.81	206.09	48.88	-38.9	-39.9	22.6	0.00e+00	0	34	0	638582784	50	6331
2026-01-06 00:54:28.82	206.51	49.13	-39.3	-40.4	22.1	0.00e+00	0	34	0	640679936	50	6708
2026-01-06 00:54:29.83	206.93	49.38	-39.9	-41.1	21.4	0.00e+00	0	34	0	641728512	52	6490
2026-01-06 00:54:30.84	207.35	49.63	-40.5	-41.7	20.9	0.00e+00	0	34	0	643825664	52	6981
2026-01-06 00:54:31.85	207.79	49.88	-40.5	-41.7	21.0	0.00e+00	0	34	0	645922816	52	7001
2026-01-06 00:54:32.86	208.23	50.13	-39.7	-40.8	22.0	0.00e+00	0	34	0	648019968	52	6267
2026-01-06 00:54:33.87	208.68	50.38	-39.0	-40.1	22.5	0.00e+00	0	34	0	650117120	52	5769
2026-01-06 00:54:34.88	209.13	50.63	-38.2	-39.1	23.3	0.00e+00	0	34	0	651165696	50	5821
2026-01-06 00:54:35.89	209.60	50.88	-37.7	-38.6	23.7	0.00e+00	0	34	0	653262848	50	5483
2026-01-06 00:54:36.90	210.07	51.12	-37.9	-38.8	23.5	0.00e+00	0	34	0	655360000	48	6281
2026-01-06 00:54:37.91	210.55	51.37	-38.1	-39.0	23.4	0.00e+00	0	34	0	657457152	48	6419
2026-01-06 00:54:38.92	211.03	51.62	-37.8	-38.7	23.7	0.00e+00	0	34	0	659554304	48	6223
2026-01-06 00:54:39.93	211.53	51.86	-37.6	-38.5	23.8	0.00e+00	0	34	0	660602880	48	6052
2026-01-06 00:54:40.94	212.03	52.10	-37.4	-38.2	24.1	0.00e+00	0	34	0	662700032	48	5893
2026-01-06 00:54:41.95	212.54	52.35	-37.0	-37.9	24.3	0.00e+00	0	34	0	664797184	48	5648
2026-01-06 00:54:42.96	213.06	52.59	-36.9	-37.7	24.4	0.00e+00	0	34	0	666894336	48	5560
2026-01-06 00:54:43.97	213.59	52.83	-36.8	-37.6	24.5	0.00e+00	0	34	0	668991488	48	5494
2026-01-06 00:54:44.97	214.12	53.07	-37.0	-37.8	24.4	0.00e+00	0	34	0	671088640	48	5597
2026-01-06 00:54:45.98	214.66	53.31	-36.8	-37.6	24.5	0.00e+00	0	34	0	672137216	48	5480
2026-01-06 00:54:46.99	215.21	53.54	-36.7	-37.5	24.7	0.00e+00	0	34	0	674234368	46	6087
2026-01-06 00:54:48.00	215.78	53.78	-36.4	-37.1	24.9	0.00e+00	0	34	0	676331520	46	5825
2026-01-06 00:54:49.01	216.35	54.01	-36.3	-37.1	25.0	0.00e+00	0	34	0	678428672	46	5763
2026-01-06 00:54:50.02	216.93	54.24	-36.5	-37.3	24.8	0.00e+00	0	34	0	680525824	46	5943
2026-01-06 00:54:51.03	217.52	54.47	-36.9	-37.7	24.4	0.00e+00	0	34	0	681574400	46	6200
2026-01-06 00:54:52.04	218.12	54.70	-37.1	-37.9	24.2	0.00e+00	0	34	0	683671552	46	6382
2026-01-06 00:54:53.05	218.73	54.92	-37.0	-37.8	24.4	0.00e+00	0	34	0	685768704	46	6307
2026-01-06 00:54:54.06	219.35	55.15	-36.7	-37.6	24.6	0.00e+00	0	34	0	687865856	46	6110
2026-01-06 00:54:55.07	219.98	55.37	-36.9	-37.7	24.5	0.00e+00	0	34	0	689963008	46	6232
2026-01-06 00:54:56.08	220.61	55.59	-36.9	-37.7	24.4	0.00e+00	0	34	0	691011584	46	6211
2026-01-06 00:54:57.09	221.26	55.80	-37.2	-38.1	24.2	0.00e+00	0	34	0	693108736	46	6484
2026-01-06 00:54:58.09	221.91	56.01	-37.7	-38.6	23.6	0.00e+00	0	34	0	695205888	46	6873
2026-01-06 00:54:59.10	222.58	56.22	-37.9	-38.9	23.5	0.00e+00	0	34	0	697303040	48	6334
2026-01-06 00:55:00.11	223.26	56.43	-37.9	-38.8	23.5	0.00e+00	0	34	0	699400192	48	6295
2026-01-06 00:55:01.12	223.95	56.63	-38.1	-39.1	23.3	0.00e+00	0	34	0	700448768	48	6496
2026-01-06 00:55:02.13	224.64	56.83	-38.0	-38.9	23.5	0.00e+00	0	34	0	702545920	48	6383
2026-01-06 00:55:03.14	225.35	57.03	-37.8	-38.7	23.6	0.00e+00	0	34	0	704643072	48	6204
2026-01-06 00:55:04.15	226.07	57.22	-37.7	-38.6	23.7	0.00e+00	0	34	0	706740224	48	6148
2026-01-06 00:55:05.16	226.80	57.41	-37.7	-38.6	23.7	0.00e+00	0	34	0	708837376	48	6119
2026-01-06 00:55:06.17	227.54	57.60	-37.7	-38.6	23.7	0.00e+00	0	34	0	709885952	48	6107
2026-01-06 00:55:07.18	228.28	57.78	-37.7	-38.6	23.7	0.00e+00	0	34	0	711983104	48	6138
2026-01-06 00:55:08.19	229.04	57.96	-37.5	-38.4	23.9	0.00e+00	0	34	0	714080256	48	5980
2026-01-06 00:55:09.20	229.81	58.14	-37.6	-38.5	23.8	0.00e+00	0	34	0	716177408	48	6034
2026-01-06 00:55:10.21	230.59	58.31	-37.7	-38.5	23.7	0.00e+00	0	34	0	718274560	48	6092
2026-01-06 00:55:11.21	231.37	58.47	-37.8	-38.7	23.8	0.00e+00	0	34	0	719323136	48	6222
2026-01-06 00:55:12.22	232.17	58.63	-37.7	-38.6	23.7	0.00e+00	0	34	0	721420288	48	6126
2026-01-06 00:55:13.23	232.97	58.79	-38.0	-38.9	23.5	0.00e+00	0	34	0	723517440	48	6371
2026-01-06 00:55:14.24	233.79	58.94	-38.2	-39.1	23.2	0.00e+00	0	34	0	725614592	48	6502
2026-01-06 00:55:15.25	234.61	59.08	-37.9	-38.8	23.5	0.00e+00	0	34	0	727711744	48	6306
2026-01-06 00:55:16.25	235.44	59.22	-37.5	-38.4	23.9	0.00e+00	0	34	0	728760320	48	5996
2026-01-06 00:55:17.26	236.28	59.36	-37.8	-38.6	23.6	0.00e+00	0	34	0	730857472	48	6166
2026-01-06 00:55:18.27	237.13	59.49	-37.5	-38.4	23.8	0.00e+00	0	34	0	732954624	48	5983
2026-01-06 00:55:19.28	237.99	59.62	-37.7	-38.6	23.7	0.00e+00	0	34	0	735051776	48	6117
2026-01-06 00:55:20.28	238.85	59.73	-37.6	-38.5	23.7	0.00e+00	0	34	0	737148928	48	6071
2026-01-06 00:55:21.29	239.73	59.85	-37.4	-38.3	23.9	0.00e+00	0	34	0	738197504	48	5917
2026-01-06 00:55:22.30	240.61	59.96	-37.2	-38.1	24.1	0.00e+00	0	34	0	740294656	48	5770
2026-01-06 00:55:23.31	241.50	60.06	-37.5	-38.4	24.0	0.00e+00	0	34	0	742391808	48	5966
2026-01-06 00:55:24.32	242.40	60.16	-37.9	-38.8	23.4	0.00e+00	0	34	0	744488960	48	6306
2026-01-06 00:55:25.33	243.31	60.25	-38.0	-38.9	23.5	0.00e+00	0	34	0	746586112	48	6366
2026-01-06 00:55:26.34	244.22	60.33	-37.7	-38.5	23.7	0.00e+00	0	34	0	747634688	48	6096
2026-01-06 00:55:27.35	245.13	60.41	-37.6	-38.5	23.8	0.00e+00	0	34	0	749731840	48	6088
2026-01-06 00:55:28.36	246.05	60.48	-37.8	-38.6	23.6	0.00e+00	0	34	0	751828992	48	6168
2026-01-06 00:55:29.37	246.98	60.54	-37.9	-38.8	23.5	0.00e+00	0	34	0	753926144	48	6286
2026-01-06 00:55:30.38	247.91	60.60	-37.9	-38.7	23.6	0.00e+00	0	34	0	756023296	48	6244
2026-01-06 00:55:31.39	248.84	60.65	-37.8	-38.7	23.6	0.00e+00	0	34	0	757071872	48	6184
2026-01-06 00:55:32.40	249.78	60.70	-37.5	-38.4	23.9	0.00e+00	0	34	0	759169024	48	6008
2026-01-06 00:55:33.41	250.72	60.74	-37.4	-38.2	24.0	0.00e+00	0	34	0	761266176	48	5888
2026-01-06 00:55:34.42	251.67	60.77	-37.8	-38.7	23.6	0.00e+00	0	34	0	763363328	48	6215
2026-01-06 00:55:35.43	252.61	60.79	-38.3	-39.2	23.2	0.00e+00	0	34	0	765460480	48	6607
2026-01-06 00:55:36.44	253.56	60.81	-38.2	-39.1	23.3	0.00e+00	0	34	0	767557632	48	6505
2026-01-06 00:55:37.45	254.51	60.82	-37.9	-38.8	23.4	0.00e+00	0	34	0	768606208	48	6306
2026-01-06 00:55:38.46	255.45	60.83	-37.9	-38.8	23.6	0.00e+00	0	34	0	770703360	48	6281
2026-01-06 00:55:39.47	256.40	60.82	-37.1	-38.0	24.1	0.00e+00	0	34	0	772800512	48	5710
2026-01-06 00:55:40.48	257.35	60.81	-37.3	-38.1	24.1	0.00e+00	0	34	0	774897664	48	5814
2026-01-06 00:55:41.49	258.30	60.80	-37.0	-37.8	24.3	0.00e+00	0	34	0	776994816	48	5624
2026-01-06 00:55:42.50	259.24	60.77	-37.0	-37.8	24.4	0.00e+00	0	34	0	778043392	48	5618
2026-01-06 00:55:43.51	260.19	60.74	-36.4	-37.1	25.0	0.00e+00	0	34	0	780140544	46	5823
2026-01-06 00:55:44.52	261.13	60.71	-36.1	-36.9	25.1	0.00e+00	0	34	0	782237696	46	5671
2026-01-06 00:55:45.53	262.07	60.66	-36.4	-37.2	24.8	0.00e+00	0	34	0	784334848	46	5877
2026-01-06 00:55:46.54	263.00	60.61	-36.4	-37.2	24.9	0.00e+00	0	34	0	786432000	46	5850
2026-01-06 00:55:47.54	263.92	60.56	-36.3	-37.1	25.0	0.00e+00	0	34	0	787480576	46	5802
2026-01-06 00:55:48.55	264.85	60.50	-36.6	-37.4	24.7	0.00e+00	0	34	0	789577728	46	6031
2026-01-06 00:55:49.56	265.77	60.43	-36.6	-37.4	24.6	0.00e+00	0	34	0	791674880	46	6028
2026-01-06 00:55:50.57	266.69	60.35	-36.8	-37.6	24.5	0.00e+00	0	34	0	793772032	46	6144
2026-01-06 00:55:51.58	267.60	60.27	-37.6	-38.5	23.7	0.00e+00	0	34	0	795869184	46	6837
2026-01-06 00:55:52.59	268.51	60.18	-38.1	-39.0	23.4	0.00e+00	0	34	0	796917760	48	6462
2026-01-06 00:55:53.59	269.40	60.09	-37.5	-38.4	23.9	0.00e+00	0	34	0	799014912	48	5983
2026-01-06 00:55:54.60	270.29	59.98	-37.8	-38.7	23.6	0.00e+00	0	34	0	801112064	48	6181
2026-01-06 00:55:55.61	271.17	59.88	-38.8	-39.8	22.5	0.00e+00	0	34	0	803209216	48	7035
2026-01-06 00:55:56.62	272.05	59.77	-39.1	-40.1	22.4	0.00e+00	0	34	0	805306368	50	6524
2026-01-06 00:55:57.63	272.92	59.65	-38.9	-39.9	22.5	0.00e+00	0	34	0	806354944	50	6370
2026-01-06 00:55:58.64	273.78	59.52	-39.9	-41.0	21.4	0.00e+00	0	34	0	808452096	50	7222
2026-01-06 00:55:59.65	274.63	59.40	-40.7	-42.0	20.5	0.00e+00	0	34	0	810549248	54	6436
2026-01-06 00:56:00.66	275.48	59.26	-40.7	-42.0	20.6	0.00e+00	0	34	0	812646400	54	6448
2026-01-06 00:56:01.67	276.31	59.12	-40.5	-41.8	20.8	0.00e+00	0	34	0	814743552	54	6264
2026-01-06 00:56:02.68	277.14	58.98	-40.1	-41.3	21.2	0.00e+00	0	34	0	815792128	54	5916
2026-01-06 00:56:03.69	277.96	58.83	-39.7	-40.8	21.7	0.00e+00	0	34	0	817889280	52	6261
2026-01-06 00:56:04.70	278.76	58.67	-39.8	-40.9	21.6	0.00e+00	0	34	0	819986432	52	6375
2026-01-06 00:56:05.71	279.56	58.51	-40.9	-42.2	20.4	0.00e+00	0	34	0	822083584	52	7411
2026-01-06 00:56:06.72	280.35	58.35	-40.7	-42.0	20.6	0.00e+00	0	34	0	824180736	54	6444
2026-01-06 00:56:07.73	281.13	58.18	-39.9	-41.0	21.7	0.00e+00	0	34	0	825229312	54	5738
2026-01-06 00:56:08.74	281.90	58.01	-38.5	-39.4	22.9	0.00e+00	0	34	0	827326464	50	6026
2026-01-06 00:56:09.75	282.66	57.83	-38.1	-39.0	23.4	0.00e+00	0	34	0	829423616	50	5747
2026-01-06 00:56:10.76	283.41	57.65	-38.6	-39.6	22.7	0.00e+00	0	34	0	831520768	50	6151
2026-01-06 00:56:11.77	284.15	57.46	-39.3	-40.4	22.3	0.00e+00	0	34	0	833617920	50	6694
2026-01-06 00:56:12.78	284.88	57.27	-38.7	-39.7	22.8	0.00e+00	0	34	0	835715072	50	6186
2026-01-06 00:56:13.78	285.59	57.08	-38.1	-39.0	23.3	0.00e+00	0	34	0	836763648	50	5732
2026-01-06 00:56:14.79	286.30	56.89	-37.9	-38.8	23.5	0.00e+00	0	34	0	838860800	48	6252
2026-01-06 00:56:15.80	287.00	56.69	-37.8	-38.7	23.6	0.00e+00	0	34	0	840957952	48	6220
2026-01-06 00:56:16.81	287.69	56.49	-37.5	-38.4	24.0	0.00e+00	0	34	0	843055104	48	6020
2026-01-06 00:56:17.82	288.37	56.28	-36.7	-37.5	24.6	0.00e+00	0	34	0	845152256	48	5416
2026-01-06 00:56:18.83	289.04	56.07	-35.9	-36.7	25.3	0.00e+00	0	34	0	846200832	46	5524
2026-01-06 00:56:19.84	289.70	55.86	-36.0	-36.8	25.2	0.00e+00	0	34	0	848297984	46	5568
2026-01-06 00:56:20.85	290.35	55.65	-36.4	-37.2	24.8	0.00e+00	0	34	0	850395136	46	5838
2026-01-06 00:56:21.86	290.99	55.43	-37.2	-38.0	24.1	0.00e+00	0	34	0	852492288	46	6461
2026-01-06 00:56:22.86	291.61	55.21	-36.5	-37.3	24.8	0.00e+00	0	34	0	854589440	46	5947
2026-01-06 00:56:23.87	292.23	54.99	-35.5	-36.3	25.7	0.00e+00	0	34	0	855638016	44	5925
2026-01-06 00:56:24.88	292.84	54.77	-35.4	-36.1	25.8	0.00e+00	0	34	0	857735168	44	5808
2026-01-06 00:56:25.89	293.44	54.54	-36.4	-37.2	24.8	0.00e+00	0	34	0	859832320	44	6581
2026-01-06 00:56:26.90	294.03	54.31	-36.7	-37.5	24.6	0.00e+00	0	34	0	861929472	46	6097
2026-01-06 00:56:27.91	294.61	54.08	-36.7	-37.6	24.6	0.00e+00	0	34	0	864026624	46	6115
2026-01-06 00:56:28.92	295.19	53.85	-35.8	-36.6	25.3	0.00e+00	0	34	0	865075200	46	5471
2026-01-06 00:56:29.93	295.75	53.62	-35.0	-35.7	26.1	0.00e+00	0	34	0	867172352	44	5543
2026-01-06 00:56:30.94	296.31	53.38	-34.7	-35.5	26.2	0.00e+00	0	34	0	869269504	42	6034
2026-01-06 00:56:31.95	296.85	53.14	-34.7	-35.4	26.4	0.00e+00	0	34	0	871366656	42	5981
2026-01-06 00:56:32.96	297.39	52.91	-34.9	-35.6	26.2	0.00e+00	0	34	0	873463808	42	6145
2026-01-06 00:56:33.97	297.92	52.67	-35.0	-35.7	26.0	0.00e+00	0	34	0	874512384	42	6219
2026-01-06 00:56:34.98	298.44	52.43	-34.5	-35.2	26.6	0.00e+00	0	34	0	876609536	42	5858
2026-01-06 00:56:35.99	298.95	52.18	-34.4	-35.1	26.7	0.00e+00	0	34	0	878706688	42	5765
2026-01-06 00:56:37.00	299.45	51.94	-35.0	-35.7	26.1	0.00e+00	0	34	0	880803840	42	6222
2026-01-06 00:56:38.01	299.95	51.70	-36.1	-36.8	25.1	0.00e+00	0	34	0	882900992	44	6312
2026-01-06 00:56:39.02	300.44	51.45	-36.7	-37.5	24.6	0.00e+00	0	34	0	883949568	44	6828
2026-01-06 00:56:40.02	300.91	51.21	-36.7	-37.6	24.6	0.00e+00	0	34	0	886046720	46	6120
2026-01-06 00:56:41.03	301.38	50.96	-36.2	-37.0	25.1	0.00e+00	0	34	0	888143872	46	5722
2026-01-06 00:56:42.04	301.85	50.71	-35.9	-36.6	25.4	0.00e+00	0	34	0	890241024	46	5488
2026-01-06 00:56:43.05	302.30	50.47	-36.4	-37.2	24.9	0.00e+00	0	34	0	892338176	46	5870
2026-01-06 00:56:44.06	302.75	50.22	-37.8	-38.7	23.6	0.00e+00	0	34	0	893386752	46	6957
2026-01-06 00:56:45.07	303.19	49.97	-39.1	-40.2	22.2	0.00e+00	0	34	0	895483904	50	6571
2026-01-06 00:56:46.08	303.63	49.72	-38.9	-40.0	22.5	0.00e+00	0	34	0	897581056	50	6431
2026-01-06 00:56:47.09	304.06	49.47	-38.7	-39.8	22.6	0.00e+00	0	34	0	899678208	50	6248
2026-01-06 00:56:48.10	304.48	49.22	-38.6	-39.6	22.8	0.00e+00	0	34	0	901775360	50	6148
2026-01-06 00:56:49.11	304.89	48.97	-39.2	-40.2	22.3	0.00e+00	0	34	0	902823936	50	6611
2026-01-06 00:56:50.12	305.30	48.72	-39.7	-40.8	21.3	0.00e+00	0	34	0	904921088	50	7081
2026-01-06 00:56:51.13	305.70	48.47	-40.2	-41.4	21.2	0.00e+00	0	34	0	907018240	52	6726
2026-01-06 00:56:52.14	306.10	48.22	-40.9	-42.2	20.5	0.00e+00	0	34	0	909115392	54	6608
2026-01-06 00:56:53.15	306.49	47.97	-41.1	-42.4	20.4	0.00e+00	0	34	0	911212544	54	6757
2026-01-06 00:56:54.16	306.87	47.72	-40.6	-42.0	20.6	0.00e+00	0	34	0	912261120	54	6394
2026-01-06 00:56:55.17	307.24	47.47	-40.3	-41.5	21.1	0.00e+00	0	34	0	914358272	54	6102
2026-01-06 00:56:56.18	307.61	47.22	-40.7	-42.0	20.7	0.00e+00	0	34	0	916455424	54	6412
2026-01-06 00:56:57.19	307.98	46.98	-41.6	-43.1	19.6	0.00e+00	0	34	0	918552576	54	7255
2026-01-06 00:56:58.20	308.34	46.73	-42.8	-44.6	18.2	0.00e+00	0	34	0	920649728	56	7734
2026-01-06 00:56:59.21	308.69	46.48	-41.7	-43.2	19.6	0.00e+00	0	34	0	921698304	58	5871
2026-01-06 00:57:00.22	309.04	46.23	-40.7	-42.0	20.8	0.00e+00	0	34	0	923795456	56	5697
2026-01-06 00:57:01.23	309.38	45.98	-40.3	-41.5	21.2	0.00e+00	0	34	0	925892608	54	6081
2026-01-06 00:57:02.24	309.72	45.73	-40.2	-41.4	21.2	0.00e+00	0	34	0	927989760	54	5988
2026-01-06 00:57:03.25	310.05	45.49	-40.4	-41.6	20.8	0.00e+00	0	34	0	930086912	54	6132
2026-01-06 00:57:04.26	310.38	45.24	-40.6	-41.9	20.9	0.00e+00	0	34	0	932184064	54	6319
2026-01-06 00:57:05.27	310.70	45.00	-40.1	-41.2	21.2	0.00e+00	0	34	0	933232640	54	5871
2026-01-06 00:57:06.28	311.02	44.75	-40.5	-41.8	20.9	0.00e+00	0	34	0	935329792	54	6246
2026-01-06 00:57:07.29	311.33	44.51	-41.2	-42.6	20.3	0.00e+00	0	34	0	937426944	54	6852
2026-01-06 00:57:08.30	311.64	44.26	-40.9	-42.3	20.4	0.00e+00	0	34	0	939524096	54	6622
2026-01-06 00:57:09.31	311.94	44.02	-40.1	-41.2	21.5	0.00e+00	0	34	0	941621248	54	5875
2026-01-06 00:57:10.32	312.24	43.77	-39.4	-40.5	22.1	0.00e+00	0	34	0	942669824	52	6051
2026-01-06 00:57:11.33	312.53	43.53	-39.2	-40.2	22.3	0.00e+00	0	34	0	944766976	52	5880
2026-01-06 00:57:12.34	312.82	43.29	-39.7	-40.8	21.8	0.00e+00	0	34	0	946864128	52	6312
2026-01-06 00:57:13.35	313.11	43.05	-39.8	-41.0	21.7	0.00e+00	0	34	0	948961280	52	6407
2026-01-06 00:57:14.36	313.39	42.81	-39.0	-40.0	22.6	0.00e+00	0	34	0	951058432	52	5756
2026-01-06 00:57:15.37	313.67	42.57	-38.1	-39.1	23.4	0.00e+00	0	34	0	952107008	50	5776
2026-01-06 00:57:16.38	313.94	42.33	-37.6	-38.5	24.0	0.00e+00	0	34	0	954204160	48	6075
2026-01-06 00:57:17.39	314.21	42.10	-37.4	-38.3	24.1	0.00e+00	0	34	0	956301312	48	5911
2026-01-06 00:57:18.40	314.48	41.86	-38.2	-39.1	23.2	0.00e+00	0	34	0	958398464	48	6525
2026-01-06 00:57:19.41	314.74	41.62	-38.8	-39.8	22.7	0.00e+00	0	34	0	960495616	50	6300
2026-01-06 00:57:20.42	315.00	41.39	-38.8	-39.8	22.6	0.00e+00	0	34	0	961544192	50	6298
2026-01-06 00:57:21.43	315.25	41.16	-38.8	-39.8	22.7	0.00e+00	0	34	0	963641344	50	6312
2026-01-06 00:57:22.44	315.50	40.92	-38.9	-40.0	22.6	0.00e+00	0	34	0	965738496	50	6391
2026-01-06 00:57:23.45	315.75	40.69	-38.8	-39.8	22.3	0.00e+00	0	34	0	967835648	50	6316
2026-01-06 00:57:24.46	315.99	40.46	-38.6	-39.6	22.9	0.00e+00	0	34	0	969932800	50	6130
2026-01-06 00:57:25.47	316.23	40.23	-38.4	-39.4	23.0	0.00e+00	0	34	0	972029952	50	5995
2026-01-06 00:57:26.48	316.47	40.00	-38.1	-39.0	23.5	0.00e+00	0	34	0	973078528	50	5700
2026-01-06 00:57:27.49	316.70	39.77	-37.4	-38.2	24.1	0.00e+00	0	34	0	975175680	48	5860
2026-01-06 00:57:28.49	316.93	39.55	-37.4	-38.2	24.1	0.00e+00	0	34	0	977272832	48	5885
2026-01-06 00:57:29.51	317.16	39.32	-38.1	-39.0	23.3	0.00e+00	0	34	0	979369984	48	6444
2026-01-06 00:57:30.52	317.39	39.09	-39.2	-40.3	22.2	0.00e+00	0	34	0	981467136	50	6622
2026-01-06 00:57:31.53	317.61	38.87	-39.6	-40.7	21.9	0.00e+00	0	34	0	982515712	50	6969
2026-01-06 00:57:32.54	317.83	38.65	-39.1	-40.2	22.4	0.00e+00	0	34	0	984612864	50	6572
2026-01-06 00:57:33.54	318.04	38.43	-38.6	-39.5	23.0	0.00e+00	0	34	0	986710016	50	6095
2026-01-06 00:57:34.56	318.25	38.20	-37.6	-38.5	23.9	0.00e+00	0	34	0	988807168	48	6061
2026-01-06 00:57:35.57	318.46	37.98	-37.2	-38.0	24.4	0.00e+00	0	34	0	990904320	48	5722
2026-01-06 00:57:36.57	318.67	37.77	-36.8	-37.6	24.6	0.00e+00	0	34	0	991952896	48	5498
2026-01-06 00:57:37.58	318.87	37.55	-36.7	-37.6	24.6	0.00e+00	0	34	0	994050048	46	6106
2026-01-06 00:57:38.59	319.07	37.33	-36.9	-37.7	24.5	0.00e+00	0	34	0	996147200	46	6236
2026-01-06 00:57:39.60	319.27	37.11	-37.3	-38.1	24.2	0.00e+00	0	34	0	998244352	46	6497
2026-01-06 00:57:40.61	319.47	36.90	-37.9	-38.8	23.6	0.00e+00	0	34	0	1000341504	48	6256
2026-01-06 00:57:41.62	319.66	36.69	-38.5	-39.5	23.0	0.00e+00	0	34	0	1001390080	48	6793
2026-01-06 00:57:42.63	319.86	36.47	-38.8	-39.8	22.7	0.00e+00	0	34	0	1003487232	50	6300
2026-01-06 00:57:43.64	320.04	36.26	-38.7	-39.7	22.8	0.00e+00	0	34	0	1005584384	50	6189
2026-01-06 00:57:44.65	320.23	36.05	-38.1	-39.0	23.5	0.00e+00	0	34	0	1007681536	50	5717
2026-01-06 00:57:45.66	320.42	35.84	-37.7	-38.6	23.8	0.00e+00	0	34	0	1009778688	50	5485
2026-01-06 00:57:46.67	320.60	35.63	-37.3	-38.2	24.1	0.00e+00	0	34	0	1010827264	48	5830
2026-01-06 00:57:47.68	320.78	35.42	-37.1	-37.9	24.3	0.00e+00	0	34	0	1012924416	48	5659
2026-01-06 00:57:48.69	320.96	35.22	-36.9	-37.7	24.5	0.00e+00	0	34	0	1015021568	48	5540
2026-01-06 00:57:49.70	321.13	35.01	-37.6	-38.5	23.7	0.00e+00	0	34	0	1017118720	48	6051
2026-01-06 00:57:50.71	321.30	34.81	-38.4	-39.4	23.0	0.00e+00	0	34	0	1019215872	48	6746
2026-01-06 00:57:51.72	321.48	34.60	-39.4	-40.5	21.9	0.00e+00	0	34	0	1020264448	50	6839
2026-01-06 00:57:52.73	321.65	34.40	-40.0	-41.2	21.5	0.00e+00	0	34	0	1022361600	52	6577
2026-01-06 00:57:53.74	321.81	34.20	-40.1	-41.3	21.3	0.00e+00	0	34	0	1024458752	52	6662
2026-01-06 00:57:54.75	321.98	34.00	-40.1	-41.3	21.4	0.00e+00	0	34	0	1026555904	52	6620
2026-01-06 00:57:55.76	322.14	33.80	-39.5	-40.6	21.9	0.00e+00	0	34	0	1028653056	52	6141
2026-01-06 00:57:56.77	322.30	33.60	-39.2	-40.3	22.4	0.00e+00	0	34	0	1029701632	52	5920
2026-01-06 00:57:57.78	322.46	33.41	-38.3	-39.3	23.2	0.00e+00	0	34	0	1031798784	50	5907
2026-01-06 00:57:58.79	322.62	33.21	-38.2	-39.1	23.3	0.00e+00	0	34	0	1033895936	50	5817
2026-01-06 00:57:59.80	322.78	33.02	-38.0	-38.9	23.5	0.00e+00	0	34	0	1035993088	50	5650
2026-01-06 00:58:00.80	322.93	32.82	-38.1	-39.0	23.4	0.00e+00	0	34	0	1038090240	50	5721
2026-01-06 00:58:01.81	323.08	32.63	-38.6	-39.6	22.9	0.00e+00	0	34	0	1039138816	50	6134
2026-01-06 00:58:02.82	323.23	32.44	-39.0	-40.1	22.4	0.00e+00	0	34	0	1041235968	50	6472
2026-01-06 00:58:03.83	323.38	32.25	-39.6	-40.7	21.8	0.00e+00	0	34	0	1043333120	50	6967
2026-01-06 00:58:04.83	323.52	32.06	-39.7	-40.9	21.7	0.00e+00	0	34	0	1045430272	52	6326
2026-01-06 00:58:05.84	323.67	31.87	-40.0	-41.1	21.5	0.00e+00	0	34	0	1047527424	52	6519
2026-01-06 00:58:06.85	323.81	31.68	-39.7	-40.8	21.8	0.00e+00	0	34	0	1048576000	52	6288
2026-01-06 00:58:07.86	323.96	31.50	-39.3	-40.4	22.2	0.00e+00	0	34	0	1050673152	52	5996
2026-01-06 00:58:08.87	324.10	31.31	-39.1	-40.1	22.4	0.00e+00	0	34	0	1052770304	52	5817
2026-01-06 00:58:09.88	324.24	31.13	-38.9	-39.9	22.5	0.00e+00	0	34	0	1054867456	52	5660
2026-01-06 00:58:10.89	324.37	30.94	-38.8	-39.8	22.7	0.00e+00	0	34	0	1056964608	52	5599
2026-01-06 00:58:11.90	324.51	30.76	-39.0	-40.0	22.5	0.00e+00	0	34	0	1058013184	52	5722
2026-01-06 00:58:12.90	324.64	30.58	-39.0	-40.0	22.4	0.00e+00	0	34	0	1060110336	52	5758
2026-01-06 00:58:13.91	324.78	30.40	-39.1	-40.2	22.4	0.00e+00	0	34	0	1062207488	52	5832
2026-01-06 00:58:14.92	324.91	30.22	-39.3	-40.4	22.1	0.00e+00	0	34	0	1064304640	52	5979
2026-01-06 00:58:15.94	325.04	30.04	-39.6	-40.6	21.9	0.00e+00	0	34	0	1066401792	52	6163
2026-01-06 00:58:16.94	325.17	29.86	-39.6	-40.7	22.0	0.00e+00	0	34	0	1068498944	52	6180
2026-01-06 00:58:17.95	325.29	29.68	-39.4	-40.5	22.0	0.00e+00	0	34	0	1069547520	52	6068
2026-01-06 00:58:18.96	325.42	29.51	-39.5	-40.6	22.0	0.00e+00	0	34	0	1071644672	52	6151
2026-01-06 00:58:19.97	325.55	29.33	-38.9	-39.9	22.7	0.00e+00	0	34	0	1073741824	52	5650
2026-01-06 00:58:20.98	325.67	29.16	-38.5	-39.4	23.0	0.00e+00	0	34	0	1075838976	50	6007
2026-01-06 00:58:21.99	325.79	28.99	-38.5	-39.4	23.0	0.00e+00	0	34	0	1077936128	50	6020
2026-01-06 00:58:23.00	325.91	28.81	-38.5	-39.4	23.0	0.00e+00	0	34	0	1078984704	50	6031
2026-01-06 00:58:24.01	326.03	28.64	-38.5	-39.4	22.9	0.00e+00	0	34	0	1081081856	50	6019
2026-01-06 00:58:25.02	326.15	28.47	-38.7	-39.6	22.8	0.00e+00	0	34	0	1083179008	50	6159
2026-01-06 00:58:26.03	326.27	28.30	-38.9	-39.9	22.6	0.00e+00	0	34	0	1085276160	50	6344
2026-01-06 00:58:27.04	326.38	28.13	-39.2	-40.2	22.2	0.00e+00	0	34	0	1087373312	50	6606
2026-01-06 00:58:28.05	326.50	27.97	-39.5	-40.5	21.9	0.00e+00	0	34	0	1088421888	50	6831
2026-01-06 00:58:29.06	326.61	27.80	-39.6	-40.7	21.8	0.00e+00	0	34	0	1090519040	50	6981
2026-01-06 00:58:30.06	326.72	27.64	-39.6	-40.7	21.8	0.00e+00	0	34	0	1092616192	52	6244
2026-01-06 00:58:31.07	326.84	27.47	-39.6	-40.7	21.8	0.00e+00	0	34	0	1094713344	52	6208
2026-01-06 00:58:32.08	326.95	27.31	-39.7	-40.8	21.8	0.00e+00	0	34	0	1096810496	52	6304
2026-01-06 00:58:33.08	327.06	27.14	-39.4	-40.4	22.1	0.00e+00	0	34	0	1097859072	52	6031
2026-01-06 00:58:34.10	327.16	26.98	-39.1	-40.1	22.4	0.00e+00	0	34	0	1099956224	52	5828
2026-01-06 00:58:35.10	327.27	26.82	-39.0	-40.1	22.5	0.00e+00	0	34	0	1102053376	52	5779
2026-01-06 00:58:36.11	327.38	26.66	-38.7	-39.7	22.8	0.00e+00	0	34	0	1104150528	50	6203
2026-01-06 00:58:37.13	327.48	26.50	-38.7	-39.7	22.7	0.00e+00	0	34	0	1106247680	50	6191
2026-01-06 00:58:38.14	327.59	26.34	-38.5	-39.4	23.0	0.00e+00	0	34	0	1107296256	50	6008
2026-01-06 00:58:39.14	327.69	26.18	-38.4	-39.4	22.9	0.00e+00	0	34	0	1109393408	50	5978
2026-01-06 00:58:40.15	327.79	26.03	-38.6	-39.6	22.9	0.00e+00	0	34	0	1111490560	50	6113
2026-01-06 00:58:41.16	327.89	25.87	-38.7	-39.7	22.7	0.00e+00	0	34	0	1113587712	50	6237
2026-01-06 00:58:42.17	327.99	25.71	-38.8	-39.8	22.6	0.00e+00	0	34	0	1115684864	50	6267
2026-01-06 00:58:43.18	328.09	25.56	-38.9	-40.0	22.5	0.00e+00	0	34	0	1116733440	50	6399
2026-01-06 00:58:44.19	328.19	25.41	-39.1	-40.1	22.3	0.00e+00	0	34	0	1118830592	50	6502
2026-01-06 00:58:45.20	328.29	25.25	-39.1	-40.2	22.3	0.00e+00	0	34	0	1120927744	50	6572
2026-01-06 00:58:46.21	328.39	25.10	-39.2	-40.2	22.2	0.00e+00	0	34	0	1123024896	50	6613
2026-01-06 00:58:47.22	328.48	24.95	-39.1	-40.2	22.3	0.00e+00	0	34	0	1125122048	50	6569
2026-01-06 00:58:48.23	328.58	24.80	-39.1	-40.1	22.4	0.00e+00	0	34	0	1126170624	50	6522
2026-01-06 00:58:49.24	328.67	24.65	-39.0	-40.0	22.5	0.00e+00	0	34	0	1128267776	50	6441
2026-01-06 00:58:50.25	328.77	24.50	-38.8	-39.8	22.6	0.00e+00	0	34	0	1130364928	50	6281
2026-01-06 00:58:51.26	328.86	24.35	-38.6	-39.6	22.8	0.00e+00	0	34	0	1132462080	50	6107
2026-01-06 00:58:52.27	328.95	24.20	-38.3	-39.3	23.1	0.00e+00	0	34	0	1134559232	50	5899
2026-01-06 00:58:53.28	329.04	24.06	-38.2	-39.2	23.1	0.00e+00	0	34	0	1136656384	50	5856
2026-01-06 00:58:54.29	329.13	23.91	-38.2	-39.1	23.2	0.00e+00	0	34	0	1137704960	50	5784
2026-01-06 00:58:55.30	329.22	23.76	-38.0	-38.9	23.5	0.00e+00	0	34	0	1139802112	50	5662
2026-01-06 00:58:56.30	329.31	23.62	-37.8	-38.7	23.6	0.00e+00	0	34	0	1141899264	50	5507
2026-01-06 00:58:57.32	329.40	23.48	-37.6	-38.5	23.7	0.00e+00	0	34	0	1143996416	48	6041
2026-01-06 00:58:58.33	329.48	23.33	-37.6	-38.4	23.8	0.00e+00	0	34	0	1146093568	48	6023
2026-01-06 00:58:59.33	329.57	23.19	-37.6	-38.5	23.6	0.00e+00	0	34	0	1147142144	48	6060
2026-01-06 00:59:00.34	329.65	23.05	-37.5	-38.4	23.9	0.00e+00	0	34	0	1149239296	48	5982
2026-01-06 00:59:01.35	329.74	22.91	-37.4	-38.3	23.9	0.00e+00	0	34	0	1151336448	48	5904
2026-01-06 00:59:02.36	329.82	22.77	-37.4	-38.2	24.0	0.00e+00	0	34	0	1153433600	48	5875
2026-01-06 00:59:03.37	329.91	22.63	-37.5	-38.4	23.8	0.00e+00	0	34	0	1155530752	48	5976
2026-01-06 00:59:04.38	329.99	22.49	-37.4	-38.3	24.0	0.00e+00	0	34	0	1156579328	48	5911
2026-01-06 00:59:05.39	330.07	22.35	-37.6	-38.5	23.8	0.00e+00	0	34	0	1158676480	48	6063
2026-01-06 00:59:06.40	330.15	22.21	-37.5	-38.4	23.8	0.00e+00	0	34	0	1160773632	48	6012
2026-01-06 00:59:07.41	330.23	22.08	-37.7	-38.6	23.6	0.00e+00	0	34	0	1162870784	48	6137
2026-01-06 00:59:08.42	330.31	21.94	-37.7	-38.6	23.6	0.00e+00	0	34	0	1164967936	48	6154
2026-01-06 00:59:09.43	330.39	21.81	-37.8	-38.7	23.5	0.00e+00	0	34	0	1166016512	48	6211
2026-01-06 00:59:10.44	330.47	21.67	-37.9	-38.8	23.5	0.00e+00	0	34	0	1168113664	48	6280
2026-01-06 00:59:11.44	330.55	21.54	-38.0	-39.0	23.4	0.00e+00	0	34	0	1170210816	48	6422
2026-01-06 00:59:12.45	330.62	21.41	-37.9	-38.9	23.3	0.00e+00	0	34	0	1172307968	48	6347
2026-01-06 00:59:13.46	330.70	21.27	-37.9	-38.9	23.4	0.00e+00	0	34	0	1174405120	48	6339
2026-01-06 00:59:14.47	330.78	21.14	-37.8	-38.8	23.4	0.00e+00	0	34	0	1175453696	48	6261
2026-01-06 00:59:15.48	330.85	21.01	-38.1	-39.0	23.2	0.00e+00	0	34	0	1177550848	48	6456
2026-01-06 00:59:16.49	330.93	20.88	-38.1	-39.0	23.3	0.00e+00	0	34	0	1179648000	48	6456
2026-01-06 00:59:17.50	331.00	20.75	-38.0	-38.9	23.3	0.00e+00	0	34	0	1181745152	48	6353
2026-01-06 00:59:18.51	331.07	20.62	-37.8	-38.7	23.5	0.00e+00	0	34	0	1183842304	48	6223
2026-01-06 00:59:19.52	331.15	20.49	-37.6	-38.5	23.8	0.00e+00	0	34	0	1184890880	48	6043
2026-01-06 00:59:20.53	331.22	20.36	-37.0	-37.9	24.3	0.00e+00	0	34	0	1186988032	48	5646
2026-01-06 00:59:21.54	331.29	20.23	-36.8	-37.6	24.5	0.00e+00	0	34	0	1189085184	48	5489
2026-01-06 00:59:22.55	331.36	20.11	-36.7	-37.5	24.6	0.00e+00	0	34	0	1191182336	46	6081
2026-01-06 00:59:23.56	331.43	19.98	-36.6	-37.4	24.6	0.00e+00	0	34	0	1193279488	46	5976
2026-01-06 00:59:24.57	331.50	19.85	-36.5	-37.3	24.7	0.00e+00	0	34	0	1194328064	46	5909
2026-01-06 00:59:25.57	331.57	19.73	-36.6	-37.4	24.5	0.00e+00	0	34	0	1196425216	46	6007
2026-01-06 00:59:26.58	331.64	19.60	-36.4	-37.2	24.6	0.00e+00	0	34	0	1198522368	46	5847
2026-01-06 00:59:27.59	331.71	19.48	-36.4	-37.2	24.6	0.00e+00	0	34	0	1200619520	46	5850
2026-01-06 00:59:28.60	331.78	19.36	-36.5	-37.3	24.6	0.00e+00	0	34	0	1202716672	46	5903
2026-01-06 00:59:29.62	331.85	19.23	-36.5	-37.3	24.6	0.00e+00	0	34	0	1204813824	46	5961
2026-01-06 00:59:30.62	331.91	19.11	-36.6	-37.4	24.5	0.00e+00	0	34	0	1205862400	46	6013
