passes_logs/2026/01/06/R4.6S_Anadyr/R4.6S_Anadyr__20260106_193252_NOAA_20_JPSS-1_rec.log

#Pass ID: 20260106_193252_NOAA 20 (JPSS-1)
#Satellite: NOAA 20 (JPSS-1)
#Configuration: NOAA 20
#almurnet v.1.7.20251203
#Start time: 2026-01-06 19:32:55

#Version: 2.2.20231116
#Station: R4.6S_Anadyr
#Location: 177.4865 lon 64.73178 lat
#TLE: 1 43013U 17073A   26005.46207808  .00000128  00000+0  81791-4 0  9997
#TLE: 2 43013  98.7627 306.5027 0001826  53.0458 307.0885 14.19533487421381

#Time	Az	El	Level	Level2	SNR	BER	BlckErr	Temp	State	Recorded	gain1	gain2
2026-01-06 19:32:55.16	54.79	0.13	-48.5	-63.4	3.5	1.51e+00	0	31	0	0	60	53507
2026-01-06 19:32:56.17	54.72	0.18	-48.5	-63.7	3.6	1.51e+00	0	32	104	0	60	55303
2026-01-06 19:32:57.18	54.64	0.23	-48.5	-63.7	3.6	1.51e+00	0	32	104	0	60	55171
2026-01-06 19:32:58.18	54.56	0.28	-48.6	-63.7	3.6	1.51e+00	0	32	104	0	60	55184
2026-01-06 19:32:59.20	54.48	0.32	-48.6	-63.7	3.6	1.51e+00	0	32	104	0	60	55569
2026-01-06 19:33:00.21	54.41	0.37	-48.6	-63.7	3.6	1.51e+00	0	32	104	0	60	55423
2026-01-06 19:33:01.21	54.33	0.42	-48.6	-63.8	3.6	1.51e+00	0	32	104	0	60	55956
2026-01-06 19:33:02.22	54.25	0.47	-48.6	-63.8	3.6	1.51e+00	0	32	104	0	60	56140
2026-01-06 19:33:03.23	54.17	0.52	-48.6	-63.8	3.6	1.51e+00	0	32	104	0	60	56058
2026-01-06 19:33:04.24	54.09	0.57	-48.6	-63.8	3.6	1.51e+00	0	32	104	0	60	55949
2026-01-06 19:33:05.25	54.01	0.62	-48.5	-63.8	3.6	1.51e+00	0	32	104	0	60	55732
2026-01-06 19:33:06.26	53.94	0.67	-48.4	-63.7	3.6	1.51e+00	0	32	104	0	60	55608
2026-01-06 19:33:07.27	53.86	0.72	-48.5	-63.7	3.6	1.51e+00	0	32	104	0	60	55469
2026-01-06 19:33:08.28	53.78	0.77	-48.4	-63.6	3.6	1.51e+00	0	32	104	0	60	54709
2026-01-06 19:33:09.29	53.70	0.82	-48.3	-63.5	3.6	1.51e+00	0	32	104	0	60	54091
2026-01-06 19:33:10.30	53.62	0.87	-48.2	-63.3	3.6	1.51e+00	0	32	104	0	60	53036
2026-01-06 19:33:11.31	53.53	0.92	-47.9	-63.1	3.6	1.51e+00	0	32	104	0	60	51763
2026-01-06 19:33:12.32	53.45	0.96	-47.5	-62.6	3.6	1.51e+00	0	32	104	0	60	49036
2026-01-06 19:33:13.33	53.37	1.01	-47.0	-62.1	3.6	1.51e+00	0	32	104	0	60	46205
2026-01-06 19:33:14.34	53.29	1.06	-47.0	-62.1	3.5	1.51e+00	0	32	104	0	60	46071
2026-01-06 19:33:15.35	53.21	1.11	-47.0	-62.1	3.6	1.51e+00	0	32	104	0	60	46219
2026-01-06 19:33:16.36	53.13	1.16	-47.0	-62.1	3.6	1.51e+00	0	32	104	0	60	46065
2026-01-06 19:33:17.37	53.04	1.21	-47.0	-62.1	3.6	1.51e+00	0	32	104	0	60	46165
2026-01-06 19:33:18.38	52.96	1.26	-47.0	-62.1	3.6	1.51e+00	0	32	104	0	60	46164
2026-01-06 19:33:19.39	52.88	1.31	-47.0	-62.1	3.6	1.51e+00	0	32	104	0	60	45998
2026-01-06 19:33:20.40	52.80	1.36	-47.0	-62.1	3.6	1.51e+00	0	32	104	0	60	46051
2026-01-06 19:33:21.41	52.71	1.41	-47.0	-62.2	3.6	1.51e+00	0	32	104	0	60	46389
2026-01-06 19:33:22.42	52.63	1.46	-47.0	-62.1	3.6	1.51e+00	0	32	104	0	60	46286
2026-01-06 19:33:23.43	52.54	1.51	-47.0	-62.1	3.6	1.51e+00	0	33	104	0	60	46027
2026-01-06 19:33:24.43	52.46	1.56	-47.0	-62.1	3.6	1.51e+00	0	32	104	0	60	46146
2026-01-06 19:33:25.44	52.38	1.61	-47.0	-62.2	3.6	1.51e+00	0	32	104	0	60	46328
2026-01-06 19:33:26.45	52.29	1.66	-47.0	-62.1	3.6	1.51e+00	0	32	104	0	60	45914
2026-01-06 19:33:27.46	52.20	1.71	-47.0	-62.1	3.6	1.51e+00	0	33	104	0	60	45873
2026-01-06 19:33:28.47	52.12	1.76	-47.0	-62.0	3.6	1.51e+00	0	32	104	0	60	45751
2026-01-06 19:33:29.48	52.03	1.81	-47.0	-62.1	3.6	1.51e+00	0	33	104	0	60	45955
2026-01-06 19:33:30.49	51.95	1.86	-47.0	-62.1	3.6	1.51e+00	0	33	104	0	60	46148
2026-01-06 19:33:31.50	51.86	1.91	-47.0	-62.1	3.6	1.51e+00	0	32	104	0	60	46258
2026-01-06 19:33:32.51	51.77	1.96	-47.0	-62.1	3.6	1.51e+00	0	32	104	0	60	45968
2026-01-06 19:33:33.52	51.69	2.01	-47.0	-62.1	3.6	1.51e+00	0	33	104	0	60	45830
2026-01-06 19:33:34.53	51.60	2.06	-47.0	-62.0	3.6	1.51e+00	0	33	104	0	60	45713
2026-01-06 19:33:35.54	51.51	2.11	-47.0	-62.0	3.6	1.51e+00	0	33	104	0	60	45579
2026-01-06 19:33:36.55	51.42	2.16	-46.9	-61.9	3.5	1.51e+00	0	33	104	0	60	44946
2026-01-06 19:33:37.56	51.33	2.21	-47.0	-61.8	3.6	1.51e+00	0	33	104	0	60	44703
2026-01-06 19:33:38.57	51.25	2.26	-47.0	-61.9	3.6	1.51e+00	0	33	104	0	60	45053
2026-01-06 19:33:39.58	51.16	2.31	-47.0	-62.0	3.6	1.51e+00	0	33	104	0	60	45442
2026-01-06 19:33:40.59	51.07	2.36	-47.0	-62.1	3.6	1.51e+00	0	33	104	0	60	46167
2026-01-06 19:33:41.60	50.98	2.41	-47.0	-62.1	3.6	1.51e+00	0	33	104	0	60	46108
2026-01-06 19:33:42.61	50.89	2.46	-47.0	-62.0	3.6	1.51e+00	0	33	104	0	60	45627
2026-01-06 19:33:43.62	50.80	2.51	-47.0	-61.9	3.6	1.51e+00	0	33	104	0	60	45082
2026-01-06 19:33:44.63	50.71	2.56	-47.0	-62.0	3.6	1.51e+00	0	33	104	0	60	45637
2026-01-06 19:33:45.64	50.62	2.61	-47.0	-62.1	3.6	1.51e+00	0	33	104	0	60	45941
2026-01-06 19:33:46.65	50.52	2.66	-47.0	-62.0	3.6	1.51e+00	0	33	104	0	60	45582
2026-01-06 19:33:47.66	50.43	2.71	-46.9	-61.5	3.6	1.51e+00	0	33	104	0	60	43121
2026-01-06 19:33:48.67	50.34	2.76	-46.9	-61.2	3.6	1.51e+00	0	33	104	0	60	41411
2026-01-06 19:33:49.68	50.25	2.81	-46.9	-61.3	3.5	1.51e+00	0	33	104	0	60	41946
2026-01-06 19:33:50.69	50.16	2.86	-46.9	-61.9	3.6	1.51e+00	0	33	104	0	60	44847
2026-01-06 19:33:51.70	50.06	2.91	-46.9	-61.2	3.6	1.51e+00	0	33	104	0	60	41734
2026-01-06 19:33:52.71	49.97	2.96	-46.8	-58.4	4.1	1.50e+00	0	33	104	0	60	30150
2026-01-06 19:33:53.72	49.88	3.01	-46.5	-54.7	5.8	7.62e-01	1	33	0	0	60	19592
2026-01-06 19:33:54.73	49.78	3.06	-46.6	-55.6	4.1	1.91e-01	4	33	0	2097152	60	21786
2026-01-06 19:33:55.74	49.69	3.11	-47.0	-59.4	3.9	1.51e+00	0	33	104	2097152	60	33909
2026-01-06 19:33:56.75	49.59	3.16	-45.2	-49.9	9.2	1.47e-01	3	33	0	2097152	60	11250
2026-01-06 19:33:57.76	49.50	3.22	-46.9	-61.7	3.6	1.50e+00	0	33	104	2097152	60	44103
2026-01-06 19:33:58.77	49.40	3.27	-46.4	-54.9	4.9	1.51e+00	0	33	104	2097152	60	20084
2026-01-06 19:33:59.78	49.31	3.32	-45.6	-51.3	9.7	1.11e-02	92	33	0	2097152	60	13215
2026-01-06 19:34:00.79	49.21	3.37	-45.3	-50.1	10.8	6.35e-03	1	33	0	4194304	60	11581
2026-01-06 19:34:01.80	49.12	3.42	-45.4	-50.3	10.6	5.44e-03	92	33	0	5242880	60	11774
2026-01-06 19:34:02.80	49.02	3.47	-45.3	-50.1	10.3	8.35e-03	0	33	0	7340032	60	11513
2026-01-06 19:34:03.81	48.92	3.52	-45.7	-51.1	9.3	9.15e-03	18	33	0	9437184	60	13028
2026-01-06 19:34:04.82	48.83	3.57	-45.6	-50.7	9.5	1.41e-02	92	33	0	11534336	60	12456
2026-01-06 19:34:05.83	48.73	3.62	-45.9	-51.7	8.9	2.35e-02	19	33	0	13631488	60	13830
2026-01-06 19:34:06.83	48.63	3.67	-46.0	-52.2	9.1	2.84e-02	92	33	0	14680064	60	14778
2026-01-06 19:34:07.84	48.53	3.72	-46.0	-52.2	8.8	4.22e-02	18	33	0	16777216	60	14725
2026-01-06 19:34:08.85	48.44	3.77	-45.6	-50.6	10.4	2.59e-02	92	33	0	18874368	60	12216
2026-01-06 19:34:09.86	48.34	3.82	-44.4	-47.8	13.6	2.81e-04	6	33	0	20971520	60	8862
2026-01-06 19:34:10.87	48.24	3.87	-43.3	-45.9	15.6	7.00e-07	19	33	0	22020096	60	7098
2026-01-06 19:34:11.88	48.14	3.92	-42.3	-44.4	17.0	0.00e+00	92	33	0	24117248	58	6730
2026-01-06 19:34:12.89	48.04	3.97	-41.9	-43.8	17.6	0.00e+00	69	33	0	26214400	58	6289
2026-01-06 19:34:13.90	47.94	4.03	-42.0	-44.0	17.5	0.00e+00	92	33	0	28311552	58	6393
2026-01-06 19:34:14.90	47.84	4.08	-41.7	-43.6	17.9	0.00e+00	68	33	0	30408704	56	6853
2026-01-06 19:34:15.91	47.74	4.13	-41.6	-43.4	18.0	0.00e+00	92	33	0	32505856	56	6751
2026-01-06 19:34:16.92	47.63	4.18	-41.6	-43.3	18.1	0.00e+00	66	33	0	33554432	56	6678
2026-01-06 19:34:17.93	47.53	4.23	-41.7	-43.5	18.1	0.00e+00	2	33	0	35651584	56	6772
2026-01-06 19:34:18.93	47.43	4.28	-41.6	-43.4	18.0	0.00e+00	92	33	0	37748736	56	6741
2026-01-06 19:34:19.94	47.33	4.33	-41.8	-43.6	18.0	0.00e+00	4	33	0	39845888	56	6882
2026-01-06 19:34:20.95	47.23	4.38	-41.3	-43.0	18.5	0.00e+00	92	33	0	41943040	56	6429
2026-01-06 19:34:21.96	47.12	4.43	-41.4	-43.1	18.4	0.00e+00	1	33	0	42991616	56	6526
2026-01-06 19:34:22.97	47.02	4.48	-41.5	-43.2	18.4	0.00e+00	92	33	0	45088768	56	6561
2026-01-06 19:34:23.98	46.91	4.53	-41.4	-43.1	18.4	0.00e+00	20	33	0	47185920	56	6492
2026-01-06 19:34:24.99	46.81	4.58	-41.3	-42.9	18.7	0.00e+00	92	33	0	49283072	56	6356
2026-01-06 19:34:26.00	46.70	4.63	-41.3	-43.0	18.5	0.00e+00	0	33	0	51380224	56	6435
2026-01-06 19:34:27.02	46.60	4.69	-41.2	-42.8	18.6	0.00e+00	21	33	0	52428800	56	6316
2026-01-06 19:34:28.02	46.49	4.74	-41.3	-42.9	18.6	0.00e+00	92	33	0	54525952	56	6366
2026-01-06 19:34:29.03	46.39	4.79	-41.3	-43.0	18.6	0.00e+00	20	33	0	56623104	56	6425
2026-01-06 19:34:30.04	46.28	4.84	-41.2	-42.8	18.8	0.00e+00	91	33	0	58720256	56	6308
2026-01-06 19:34:31.05	46.17	4.89	-41.1	-42.7	18.9	0.00e+00	61	33	0	60817408	56	6220
2026-01-06 19:34:32.06	46.07	4.94	-41.1	-42.7	18.9	0.00e+00	90	33	0	61865984	56	6230
2026-01-06 19:34:33.07	45.96	4.99	-41.1	-42.7	18.8	0.00e+00	1	33	0	63963136	56	6211
2026-01-06 19:34:34.08	45.85	5.04	-41.2	-42.8	18.7	0.00e+00	62	33	0	66060288	56	6269
2026-01-06 19:34:35.09	45.74	5.09	-41.1	-42.7	18.9	0.00e+00	92	33	0	68157440	56	6229
2026-01-06 19:34:36.10	45.64	5.14	-41.1	-42.7	18.7	0.00e+00	0	33	0	70254592	56	6193
2026-01-06 19:34:37.11	45.53	5.20	-41.1	-42.7	19.0	0.00e+00	92	33	0	71303168	56	6195
2026-01-06 19:34:38.12	45.42	5.25	-41.1	-42.7	18.9	0.00e+00	0	33	0	73400320	56	6233
2026-01-06 19:34:39.12	45.31	5.30	-40.9	-42.4	19.3	0.00e+00	92	33	0	75497472	56	5996
2026-01-06 19:34:40.13	45.20	5.35	-40.9	-42.4	19.3	0.00e+00	0	33	0	77594624	56	5983
2026-01-06 19:34:41.14	45.09	5.40	-40.8	-42.3	19.3	0.00e+00	32	33	0	79691776	56	5960
2026-01-06 19:34:42.15	44.98	5.45	-40.9	-42.4	19.3	0.00e+00	91	33	0	80740352	56	5969
2026-01-06 19:34:43.16	44.86	5.50	-40.9	-42.5	19.3	0.00e+00	0	33	0	82837504	56	6047
2026-01-06 19:34:44.17	44.75	5.55	-40.8	-42.3	19.4	0.00e+00	92	33	0	84934656	56	5911
2026-01-06 19:34:45.18	44.64	5.60	-40.6	-42.1	19.5	0.00e+00	0	33	0	87031808	54	6490
2026-01-06 19:34:46.19	44.53	5.65	-40.7	-42.1	19.5	0.00e+00	91	33	0	89128960	54	6511
2026-01-06 19:34:47.19	44.42	5.70	-40.8	-42.3	19.3	0.00e+00	20	33	0	90177536	54	6681
2026-01-06 19:34:48.21	44.30	5.75	-40.9	-42.4	19.2	0.00e+00	91	33	0	92274688	54	6759
2026-01-06 19:34:49.22	44.19	5.81	-40.5	-41.9	19.7	0.00e+00	20	33	0	94371840	54	6369
2026-01-06 19:34:50.23	44.07	5.86	-40.6	-42.0	19.6	0.00e+00	61	33	0	96468992	54	6437
2026-01-06 19:34:51.23	43.96	5.91	-40.6	-42.0	19.6	0.00e+00	92	33	0	98566144	54	6411
2026-01-06 19:34:52.24	43.84	5.96	-40.5	-41.9	19.8	0.00e+00	62	33	0	100663296	54	6377
2026-01-06 19:34:53.25	43.73	6.01	-40.5	-42.0	19.7	0.00e+00	90	33	0	101711872	54	6406
2026-01-06 19:34:54.26	43.61	6.06	-40.7	-42.1	19.5	0.00e+00	59	33	0	103809024	54	6525
2026-01-06 19:34:55.27	43.50	6.11	-40.8	-42.3	19.3	0.00e+00	92	33	0	105906176	54	6622
2026-01-06 19:34:56.28	43.38	6.16	-40.8	-42.2	19.4	0.00e+00	65	33	0	108003328	54	6614
2026-01-06 19:34:57.29	43.26	6.21	-40.8	-42.3	19.3	0.00e+00	60	33	0	110100480	54	6650
2026-01-06 19:34:58.30	43.15	6.26	-40.8	-42.2	19.4	0.00e+00	92	33	0	111149056	54	6613
2026-01-06 19:34:59.31	43.03	6.31	-40.7	-42.2	19.5	0.00e+00	0	33	0	113246208	54	6568
2026-01-06 19:35:00.32	42.91	6.36	-40.8	-42.3	19.5	0.00e+00	92	33	0	115343360	54	6618
2026-01-06 19:35:01.33	42.79	6.42	-40.9	-42.4	19.3	0.00e+00	0	33	0	117440512	54	6702
2026-01-06 19:35:02.34	42.67	6.47	-40.9	-42.4	19.3	0.00e+00	0	33	0	119537664	54	6719
2026-01-06 19:35:03.34	42.55	6.52	-41.0	-42.6	19.4	0.00e+00	0	33	0	120586240	54	6871
2026-01-06 19:35:04.35	42.43	6.57	-40.6	-42.1	19.6	0.00e+00	0	33	0	122683392	54	6479
2026-01-06 19:35:05.36	42.31	6.62	-40.5	-41.9	19.8	0.00e+00	92	33	0	124780544	54	6357
2026-01-06 19:35:06.37	42.19	6.67	-40.7	-42.1	19.7	0.00e+00	2	33	0	126877696	54	6530
2026-01-06 19:35:07.38	42.07	6.72	-40.4	-41.8	19.9	0.00e+00	92	33	0	128974848	54	6283
2026-01-06 19:35:08.39	41.95	6.77	-40.4	-41.8	19.9	0.00e+00	0	33	0	130023424	54	6283
2026-01-06 19:35:09.40	41.82	6.82	-40.4	-41.8	19.9	0.00e+00	26	33	0	132120576	54	6260
2026-01-06 19:35:10.40	41.70	6.87	-40.4	-41.8	19.9	0.00e+00	22	33	0	134217728	54	6281
2026-01-06 19:35:11.42	41.58	6.92	-40.4	-41.7	20.0	0.00e+00	22	33	0	136314880	54	6236
2026-01-06 19:35:12.43	41.46	6.97	-40.3	-41.7	20.0	0.00e+00	3	33	0	138412032	54	6181
2026-01-06 19:35:13.43	41.33	7.02	-40.4	-41.8	20.0	0.00e+00	22	33	0	139460608	54	6259
2026-01-06 19:35:14.44	41.21	7.07	-40.3	-41.7	20.0	0.00e+00	92	33	0	141557760	54	6212
2026-01-06 19:35:15.45	41.08	7.12	-40.3	-41.6	20.2	0.00e+00	0	33	0	143654912	54	6162
2026-01-06 19:35:16.46	40.96	7.17	-40.3	-41.6	20.1	0.00e+00	92	33	0	145752064	54	6173
2026-01-06 19:35:17.47	40.83	7.22	-40.4	-41.8	20.0	0.00e+00	59	33	0	147849216	54	6255
2026-01-06 19:35:18.48	40.71	7.27	-40.3	-41.6	20.1	0.00e+00	57	33	0	148897792	54	6147
2026-01-06 19:35:19.48	40.58	7.32	-40.4	-41.8	20.1	0.00e+00	60	33	0	150994944	54	6269
2026-01-06 19:35:20.49	40.45	7.37	-40.4	-41.7	20.0	0.00e+00	0	33	0	153092096	54	6228
2026-01-06 19:35:21.50	40.33	7.42	-40.4	-41.8	20.0	0.00e+00	92	33	0	155189248	54	6267
2026-01-06 19:35:22.51	40.20	7.47	-40.3	-41.6	20.2	0.00e+00	0	33	0	157286400	54	6141
2026-01-06 19:35:23.52	40.07	7.52	-40.2	-41.5	20.2	0.00e+00	92	33	0	158334976	54	6059
2026-01-06 19:35:24.53	39.94	7.57	-40.2	-41.5	20.3	0.00e+00	0	33	0	160432128	54	6087
2026-01-06 19:35:25.28	39.84	7.61	-40.2	-41.6	20.2	0.00e+00	12	33	0	162529280	54	6123
2026-01-06 19:35:26.58	39.68	7.68	-40.3	-41.6	20.2	0.00e+00	81	33	0	164626432	54	6168
2026-01-06 19:35:27.30	39.58	7.71	-40.3	-41.6	20.2	0.00e+00	0	33	0	166723584	54	6138
2026-01-06 19:35:28.60	39.42	7.78	-40.3	-41.7	20.2	0.00e+00	92	33	0	168820736	54	6175
2026-01-06 19:35:29.32	39.32	7.81	-40.1	-41.4	20.4	0.00e+00	0	33	0	169869312	54	5970
2026-01-06 19:35:30.61	39.15	7.88	-40.3	-41.6	20.2	0.00e+00	65	33	0	173015040	54	6140
2026-01-06 19:35:31.34	39.06	7.91	-40.1	-41.4	20.5	0.00e+00	0	33	0	174063616	54	5986
2026-01-06 19:35:32.63	38.89	7.98	-39.8	-41.1	20.7	0.00e+00	64	33	0	176160768	54	5780
2026-01-06 19:35:33.35	38.79	8.01	-39.9	-41.1	20.6	0.00e+00	0	33	0	177209344	54	5803
2026-01-06 19:35:34.65	38.62	8.07	-39.8	-41.1	20.8	0.00e+00	65	33	0	180355072	54	5766
2026-01-06 19:35:35.37	38.53	8.11	-39.9	-41.2	20.6	0.00e+00	0	33	0	181403648	54	5858
2026-01-06 19:35:36.67	38.35	8.17	-39.9	-41.1	20.7	0.00e+00	6	33	0	183500800	54	5808
2026-01-06 19:35:37.39	38.26	8.21	-39.9	-41.1	20.7	0.00e+00	92	33	0	185597952	54	5815
2026-01-06 19:35:38.69	38.08	8.27	-39.8	-41.1	20.7	0.00e+00	0	33	0	187695104	54	5787
2026-01-06 19:35:39.41	37.99	8.31	-39.8	-41.0	20.7	0.00e+00	28	33	0	188743680	54	5759
2026-01-06 19:35:40.71	37.81	8.37	-39.9	-41.1	20.8	0.00e+00	2	33	0	191889408	52	6497
2026-01-06 19:35:41.43	37.71	8.41	-40.0	-41.2	20.6	0.00e+00	64	33	0	192937984	52	6589
2026-01-06 19:35:42.73	37.54	8.47	-40.1	-41.3	20.5	0.00e+00	92	33	0	195035136	52	6673
2026-01-06 19:35:43.45	37.44	8.50	-40.0	-41.2	20.7	0.00e+00	4	33	0	197132288	52	6588
2026-01-06 19:35:44.75	37.26	8.57	-39.7	-40.9	20.9	0.00e+00	92	33	0	199229440	52	6345
2026-01-06 19:35:45.47	37.16	8.60	-39.7	-40.9	20.9	0.00e+00	0	33	0	200278016	52	6368
2026-01-06 19:35:46.76	36.98	8.67	-39.8	-41.0	20.9	0.00e+00	60	33	0	203423744	52	6410
2026-01-06 19:35:47.48	36.88	8.70	-39.7	-40.9	21.0	0.00e+00	0	33	0	204472320	52	6342
2026-01-06 19:35:48.78	36.70	8.76	-39.8	-41.0	20.8	0.00e+00	21	33	0	206569472	52	6438
2026-01-06 19:35:49.50	36.60	8.80	-39.9	-41.1	20.7	0.00e+00	6	33	0	207618048	52	6529
2026-01-06 19:35:50.80	36.42	8.86	-39.8	-41.0	20.8	0.00e+00	23	33	0	210763776	52	6402
2026-01-06 19:35:51.52	36.32	8.90	-39.8	-41.0	20.9	0.00e+00	78	33	0	211812352	52	6458
2026-01-06 19:35:52.82	36.14	8.96	-39.8	-41.0	20.8	0.00e+00	0	33	0	213909504	52	6456
2026-01-06 19:35:53.54	36.04	8.99	-39.8	-41.1	20.9	0.00e+00	92	33	0	216006656	52	6479
2026-01-06 19:35:54.84	35.85	9.05	-40.0	-41.2	20.7	0.00e+00	59	33	0	218103808	52	6609
2026-01-06 19:35:55.56	35.75	9.09	-40.0	-41.2	20.7	0.00e+00	3	33	0	219152384	52	6578
2026-01-06 19:35:56.86	35.57	9.15	-39.8	-41.1	20.8	0.00e+00	15	33	0	221249536	52	6477
2026-01-06 19:35:57.58	35.46	9.19	-39.7	-40.9	21.0	0.00e+00	21	33	0	223346688	52	6359
2026-01-06 19:35:58.88	35.28	9.25	-39.8	-41.0	20.8	0.00e+00	92	33	0	225443840	52	6462
2026-01-06 19:35:59.60	35.17	9.28	-39.8	-41.1	20.8	0.00e+00	20	33	0	226492416	52	6469
2026-01-06 19:36:00.90	34.98	9.34	-39.6	-40.8	21.1	0.00e+00	88	33	0	229638144	52	6308
2026-01-06 19:36:01.62	34.88	9.38	-39.7	-40.9	21.0	0.00e+00	0	33	0	230686720	52	6347
2026-01-06 19:36:02.91	34.69	9.44	-39.6	-40.8	21.2	0.00e+00	2	33	0	232783872	52	6271
2026-01-06 19:36:03.63	34.59	9.47	-39.4	-40.5	21.4	0.00e+00	68	33	0	234881024	52	6091
2026-01-06 19:36:04.93	34.40	9.53	-39.3	-40.5	21.4	0.00e+00	22	33	0	236978176	52	6049
2026-01-06 19:36:05.66	34.29	9.57	-39.3	-40.4	21.5	0.00e+00	64	33	0	238026752	52	6007
2026-01-06 19:36:06.95	34.10	9.63	-39.2	-40.3	21.6	0.00e+00	0	33	0	241172480	52	5931
2026-01-06 19:36:07.67	33.99	9.66	-39.2	-40.3	21.6	0.00e+00	90	33	0	242221056	52	5917
2026-01-06 19:36:08.97	33.80	9.72	-39.1	-40.2	21.7	0.00e+00	22	33	0	244318208	52	5861
2026-01-06 19:36:09.69	33.69	9.76	-39.1	-40.2	21.7	0.00e+00	92	33	0	245366784	52	5834
2026-01-06 19:36:10.99	33.50	9.82	-39.0	-40.1	21.7	0.00e+00	4	33	0	248512512	52	5790
2026-01-06 19:36:11.71	33.39	9.85	-39.0	-40.0	21.9	0.00e+00	6	33	0	249561088	52	5753
2026-01-06 19:36:13.01	33.20	9.91	-38.9	-40.0	21.9	0.00e+00	35	33	0	251658240	52	5724
2026-01-06 19:36:13.73	33.09	9.94	-39.0	-40.1	21.7	0.00e+00	22	33	0	253755392	52	5782
2026-01-06 19:36:15.03	32.89	10.00	-38.9	-40.0	21.9	0.00e+00	90	33	0	255852544	52	5704
2026-01-06 19:36:15.75	32.78	10.04	-38.8	-39.9	22.0	0.00e+00	0	33	0	256901120	52	5650
2026-01-06 19:36:17.05	32.58	10.10	-38.6	-39.6	22.3	0.00e+00	42	33	0	260046848	50	6170
2026-01-06 19:36:17.77	32.47	10.13	-38.4	-39.4	22.4	0.00e+00	21	33	0	261095424	50	6032
2026-01-06 19:36:19.07	32.27	10.19	-38.4	-39.4	22.4	0.00e+00	0	33	0	263192576	50	6019
2026-01-06 19:36:19.79	32.16	10.22	-38.3	-39.3	22.5	0.00e+00	21	33	0	265289728	50	5956
2026-01-06 19:36:21.08	31.96	10.28	-38.4	-39.4	22.5	0.00e+00	0	33	0	267386880	50	5976
2026-01-06 19:36:21.80	31.85	10.31	-38.5	-39.5	22.4	0.00e+00	20	33	0	268435456	50	6057
2026-01-06 19:36:23.10	31.65	10.37	-38.3	-39.3	22.6	0.00e+00	0	33	0	270532608	50	5929
2026-01-06 19:36:23.82	31.54	10.40	-38.4	-39.4	22.5	0.00e+00	92	33	0	272629760	50	6025
2026-01-06 19:36:25.12	31.34	10.46	-38.2	-39.1	22.7	0.00e+00	0	33	0	274726912	50	5824
2026-01-06 19:36:25.84	31.22	10.49	-38.1	-39.1	22.7	0.00e+00	92	33	0	275775488	50	5807
2026-01-06 19:36:27.14	31.02	10.55	-38.2	-39.2	22.7	0.00e+00	0	33	0	278921216	50	5871
2026-01-06 19:36:27.86	30.91	10.58	-38.2	-39.2	22.6	0.00e+00	0	33	0	279969792	50	5833
2026-01-06 19:36:29.16	30.70	10.64	-38.2	-39.1	22.7	0.00e+00	92	33	0	282066944	50	5827
2026-01-06 19:36:29.87	30.59	10.67	-38.0	-39.0	22.9	0.00e+00	0	33	0	284164096	50	5719
2026-01-06 19:36:31.17	30.38	10.73	-37.9	-38.9	22.9	0.00e+00	92	33	0	286261248	50	5665
2026-01-06 19:36:31.89	30.27	10.76	-37.9	-38.9	22.9	0.00e+00	0	33	0	287309824	50	5652
2026-01-06 19:36:33.19	30.06	10.82	-38.1	-39.1	22.8	0.00e+00	61	33	0	289406976	50	5774
2026-01-06 19:36:33.91	29.94	10.85	-37.8	-38.8	23.0	0.00e+00	23	33	0	291504128	50	5595
2026-01-06 19:36:35.21	29.73	10.91	-37.9	-38.8	23.0	0.00e+00	0	33	0	293601280	50	5610
2026-01-06 19:36:35.93	29.62	10.94	-37.9	-38.9	22.9	0.00e+00	0	33	0	294649856	50	5661
2026-01-06 19:36:37.23	29.40	10.99	-37.8	-38.7	23.2	0.00e+00	2	33	0	297795584	50	5539
2026-01-06 19:36:37.96	29.29	11.03	-37.8	-38.7	23.0	0.00e+00	0	33	0	298844160	48	6237
2026-01-06 19:36:39.25	29.08	11.08	-37.7	-38.6	23.2	0.00e+00	56	33	0	300941312	48	6144
2026-01-06 19:36:39.97	28.96	11.11	-37.6	-38.6	23.2	0.00e+00	92	33	0	303038464	48	6109
2026-01-06 19:36:41.27	28.74	11.17	-37.7	-38.6	23.2	0.00e+00	2	33	0	305135616	48	6135
2026-01-06 19:36:41.99	28.63	11.20	-37.7	-38.7	23.1	0.00e+00	64	33	0	306184192	48	6195
2026-01-06 19:36:43.28	28.41	11.25	-37.6	-38.5	23.2	0.00e+00	0	33	0	309329920	48	6094
2026-01-06 19:36:44.00	28.29	11.28	-37.7	-38.7	23.0	0.00e+00	60	33	0	310378496	48	6198
2026-01-06 19:36:45.30	28.08	11.34	-37.5	-38.4	23.4	0.00e+00	91	33	0	312475648	48	6018
2026-01-06 19:36:46.02	27.96	11.37	-37.5	-38.4	23.1	0.00e+00	0	33	0	313524224	48	6016
2026-01-06 19:36:47.32	27.74	11.42	-37.5	-38.4	23.3	0.00e+00	83	33	0	316669952	48	5996
2026-01-06 19:36:48.04	27.62	11.45	-37.3	-38.2	23.5	0.00e+00	0	33	0	317718528	48	5896
2026-01-06 19:36:49.34	27.40	11.51	-37.4	-38.4	23.4	0.00e+00	0	33	0	319815680	48	5968
2026-01-06 19:36:50.06	27.28	11.54	-37.4	-38.4	23.5	0.00e+00	2	33	0	321912832	48	5975
2026-01-06 19:36:51.36	27.06	11.59	-37.4	-38.3	23.5	0.00e+00	2	33	0	324009984	48	5954
2026-01-06 19:36:52.08	26.94	11.62	-37.5	-38.4	23.4	0.00e+00	0	33	0	325058560	48	6020
2026-01-06 19:36:53.38	26.72	11.67	-37.6	-38.5	23.4	0.00e+00	59	33	0	328204288	48	6063
2026-01-06 19:36:54.10	26.60	11.70	-37.4	-38.3	23.4	0.00e+00	79	33	0	329252864	48	5915
2026-01-06 19:36:55.40	26.37	11.75	-37.5	-38.4	23.4	0.00e+00	21	33	0	331350016	48	6014
2026-01-06 19:36:56.12	26.25	11.78	-37.5	-38.4	23.3	0.00e+00	92	33	0	333447168	48	6031
2026-01-06 19:36:57.42	26.03	11.83	-37.6	-38.6	23.2	0.00e+00	58	33	0	335544320	48	6117
2026-01-06 19:36:58.14	25.90	11.86	-37.6	-38.6	23.2	0.00e+00	19	33	0	336592896	48	6121
2026-01-06 19:36:59.44	25.68	11.91	-37.6	-38.6	23.3	0.00e+00	80	33	0	338690048	48	6112
2026-01-06 19:37:00.16	25.55	11.94	-37.6	-38.5	23.3	0.00e+00	0	33	0	340787200	48	6102
2026-01-06 19:37:01.45	25.33	11.99	-37.6	-38.5	23.2	0.00e+00	92	33	0	342884352	48	6099
2026-01-06 19:37:02.18	25.20	12.02	-37.7	-38.6	23.2	0.00e+00	58	33	0	343932928	48	6154
2026-01-06 19:37:03.47	24.98	12.07	-37.6	-38.6	23.3	0.00e+00	0	33	0	347078656	48	6119
2026-01-06 19:37:04.20	24.85	12.10	-37.7	-38.7	23.2	0.00e+00	59	33	0	348127232	48	6179
2026-01-06 19:37:05.49	24.62	12.15	-37.9	-38.9	23.0	0.00e+00	0	33	0	350224384	48	6357
2026-01-06 19:37:06.21	24.50	12.17	-37.9	-38.8	23.1	0.00e+00	2	33	0	352321536	48	6298
2026-01-06 19:37:07.51	24.27	12.22	-38.0	-38.9	22.9	0.00e+00	0	33	0	354418688	48	6390
2026-01-06 19:37:08.23	24.14	12.25	-37.9	-38.8	23.0	0.00e+00	0	33	0	355467264	48	6281
2026-01-06 19:37:09.52	23.91	12.30	-37.9	-38.9	23.0	0.00e+00	4	33	0	357564416	48	6363
2026-01-06 19:37:10.24	23.78	12.33	-38.0	-38.9	23.0	0.00e+00	92	33	0	359661568	48	6359
2026-01-06 19:37:11.54	23.55	12.37	-38.1	-39.0	22.8	0.00e+00	4	33	0	361758720	48	6451
2026-01-06 19:37:12.26	23.42	12.40	-38.0	-39.0	22.9	0.00e+00	92	33	0	362807296	48	6402
2026-01-06 19:37:13.56	23.19	12.45	-37.8	-38.7	23.2	0.00e+00	0	33	0	365953024	48	6221
2026-01-06 19:37:14.28	23.06	12.47	-37.8	-38.8	23.1	0.00e+00	0	33	0	367001600	48	6267
2026-01-06 19:37:15.58	22.82	12.52	-37.7	-38.7	23.2	0.00e+00	92	33	0	369098752	48	6182
2026-01-06 19:37:16.30	22.69	12.55	-37.9	-38.9	22.7	0.00e+00	0	33	0	371195904	48	6353
2026-01-06 19:37:17.60	22.46	12.59	-37.7	-38.6	23.3	0.00e+00	92	33	0	373293056	48	6124
2026-01-06 19:37:18.32	22.33	12.62	-37.7	-38.6	23.2	0.00e+00	22	33	0	374341632	48	6155
2026-01-06 19:37:19.61	22.09	12.66	-37.8	-38.7	23.1	0.00e+00	65	33	0	377487360	48	6233
2026-01-06 19:37:20.34	21.96	12.69	-37.8	-38.8	23.1	0.00e+00	23	33	0	378535936	48	6279
2026-01-06 19:37:21.63	21.72	12.74	-37.7	-38.6	23.2	0.00e+00	7	33	0	380633088	48	6173
2026-01-06 19:37:22.36	21.59	12.76	-37.7	-38.7	23.2	0.00e+00	0	33	0	381681664	48	6188
2026-01-06 19:37:23.65	21.35	12.80	-37.6	-38.6	23.3	0.00e+00	7	33	0	384827392	48	6112
2026-01-06 19:37:24.37	21.22	12.83	-37.7	-38.6	23.3	0.00e+00	15	33	0	385875968	48	6119
2026-01-06 19:37:25.67	20.98	12.87	-37.7	-38.6	23.3	0.00e+00	6	33	0	387973120	48	6172
2026-01-06 19:37:26.39	20.85	12.90	-37.7	-38.6	23.3	0.00e+00	92	33	0	390070272	48	6157
2026-01-06 19:37:27.69	20.61	12.94	-37.6	-38.5	23.3	0.00e+00	0	33	0	392167424	48	6093
2026-01-06 19:37:28.41	20.47	12.96	-37.5	-38.4	23.4	0.00e+00	92	33	0	393216000	48	6017
2026-01-06 19:37:29.71	20.23	13.01	-37.6	-38.5	23.0	0.00e+00	0	33	0	396361728	48	6063
2026-01-06 19:37:30.43	20.10	13.03	-37.5	-38.4	22.5	0.00e+00	0	33	0	397410304	48	5993
2026-01-06 19:37:31.73	19.85	13.07	-37.6	-38.5	23.4	0.00e+00	92	33	0	399507456	48	6054
2026-01-06 19:37:32.45	19.72	13.09	-37.6	-38.5	23.3	0.00e+00	6	33	0	400556032	48	6093
2026-01-06 19:37:33.75	19.47	13.14	-37.6	-38.5	23.4	0.00e+00	92	33	0	403701760	48	6062
2026-01-06 19:37:34.47	19.34	13.16	-37.6	-38.5	23.4	0.00e+00	3	33	0	404750336	48	6084
2026-01-06 19:37:35.77	19.09	13.20	-37.6	-38.5	23.3	0.00e+00	23	33	0	406847488	48	6077
2026-01-06 19:37:36.49	18.96	13.22	-37.6	-38.5	23.3	0.00e+00	1	33	0	408944640	48	6074
2026-01-06 19:37:37.79	18.71	13.26	-37.6	-38.6	23.3	0.00e+00	17	33	0	411041792	48	6111
2026-01-06 19:37:38.51	18.57	13.28	-37.5	-38.4	23.5	0.00e+00	0	33	0	412090368	48	6032
2026-01-06 19:37:39.80	18.33	13.32	-37.6	-38.5	23.4	0.00e+00	17	33	0	415236096	48	6055
2026-01-06 19:37:40.52	18.19	13.34	-37.4	-38.4	23.5	0.00e+00	86	33	0	416284672	48	5970
2026-01-06 19:37:41.82	17.94	13.38	-37.5	-38.4	23.6	0.00e+00	62	33	0	418381824	48	5980
2026-01-06 19:37:42.54	17.80	13.40	-37.4	-38.3	23.5	0.00e+00	92	33	0	419430400	48	5933
2026-01-06 19:37:43.84	17.55	13.44	-37.3	-38.2	23.6	0.00e+00	65	33	0	422576128	48	5855
2026-01-06 19:37:44.55	17.42	13.46	-37.3	-38.2	23.6	0.00e+00	17	33	0	423624704	48	5880
2026-01-06 19:37:45.85	17.17	13.50	-37.3	-38.2	23.6	0.00e+00	75	33	0	425721856	48	5887
2026-01-06 19:37:46.57	17.03	13.52	-37.5	-38.4	23.5	0.00e+00	23	33	0	427819008	48	6012
2026-01-06 19:37:47.87	16.78	13.55	-37.5	-38.4	23.4	0.00e+00	90	33	0	429916160	48	6029
2026-01-06 19:37:48.59	16.64	13.57	-37.6	-38.5	23.4	0.00e+00	65	33	0	430964736	48	6093
2026-01-06 19:37:49.89	16.38	13.61	-37.4	-38.3	23.6	0.00e+00	66	33	0	434110464	48	5933
2026-01-06 19:37:50.61	16.24	13.63	-37.5	-38.4	23.5	0.00e+00	21	33	0	435159040	48	5975
2026-01-06 19:37:51.91	15.99	13.66	-37.4	-38.3	23.6	0.00e+00	0	33	0	437256192	48	5927
2026-01-06 19:37:52.63	15.85	13.68	-37.4	-38.2	23.6	0.00e+00	6	33	0	439353344	48	5895
2026-01-06 19:37:53.92	15.60	13.71	-37.5	-38.4	23.4	0.00e+00	22	33	0	441450496	48	6004
2026-01-06 19:37:54.64	15.46	13.73	-37.7	-38.6	23.4	0.00e+00	0	33	0	442499072	48	6135
2026-01-06 19:37:55.94	15.20	13.77	-37.5	-38.4	23.5	0.00e+00	21	33	0	444596224	48	5983
2026-01-06 19:37:56.67	15.06	13.78	-37.6	-38.5	23.5	0.00e+00	92	33	0	446693376	48	6047
2026-01-06 19:37:57.96	14.80	13.82	-37.4	-38.3	23.5	0.00e+00	22	33	0	448790528	48	5956
2026-01-06 19:37:58.68	14.66	13.83	-37.4	-38.3	23.5	0.00e+00	92	33	0	449839104	48	5956
2026-01-06 19:37:59.98	14.40	13.86	-37.5	-38.5	23.4	0.00e+00	62	33	0	452984832	48	6037
2026-01-06 19:38:00.70	14.26	13.88	-37.6	-38.6	23.4	0.00e+00	24	33	0	454033408	48	6110
2026-01-06 19:38:02.00	14.00	13.91	-37.8	-38.7	23.2	0.00e+00	90	33	0	456130560	48	6231
2026-01-06 19:38:02.72	13.86	13.93	-37.8	-38.8	23.2	0.00e+00	0	33	0	458227712	48	6262
2026-01-06 19:38:04.02	13.60	13.96	-37.9	-38.8	23.2	0.00e+00	92	33	0	460324864	48	6285
2026-01-06 19:38:04.74	13.46	13.97	-37.8	-38.8	23.2	0.00e+00	23	33	0	461373440	48	6260
2026-01-06 19:38:06.04	13.20	14.00	-37.8	-38.7	23.2	0.00e+00	0	33	0	464519168	48	6243
2026-01-06 19:38:06.76	13.06	14.02	-37.8	-38.7	23.2	0.00e+00	4	33	0	465567744	48	6228
2026-01-06 19:38:08.05	12.80	14.05	-37.9	-38.9	23.1	0.00e+00	63	33	0	467664896	48	6349
2026-01-06 19:38:08.78	12.65	14.06	-37.9	-38.8	23.1	0.00e+00	63	33	0	468713472	48	6309
2026-01-06 19:38:10.07	12.39	14.09	-38.2	-39.2	22.7	0.00e+00	2	33	0	471859200	48	6551
2026-01-06 19:38:10.80	12.25	14.10	-38.2	-39.1	22.8	0.00e+00	16	33	0	472907776	48	6536
2026-01-06 19:38:12.09	11.99	14.13	-38.3	-39.3	22.8	0.00e+00	0	33	0	475004928	48	6637
2026-01-06 19:38:12.81	11.84	14.14	-38.4	-39.4	22.6	0.00e+00	92	33	0	477102080	48	6711
2026-01-06 19:38:14.11	11.58	14.17	-38.2	-39.2	22.9	0.00e+00	0	33	0	479199232	48	6546
2026-01-06 19:38:14.83	11.43	14.18	-38.2	-39.1	22.9	0.00e+00	90	33	0	480247808	48	6536
2026-01-06 19:38:16.13	11.17	14.21	-38.1	-39.1	22.9	0.00e+00	0	33	0	483393536	48	6518
2026-01-06 19:38:16.85	11.02	14.22	-38.3	-39.3	22.7	0.00e+00	0	33	0	484442112	48	6624
2026-01-06 19:38:18.15	10.76	14.24	-38.3	-39.3	22.7	0.00e+00	92	33	0	486539264	48	6655
2026-01-06 19:38:18.87	10.61	14.26	-38.4	-39.4	22.7	0.00e+00	0	33	0	487587840	48	6703
2026-01-06 19:38:20.16	10.35	14.28	-38.1	-39.1	22.9	0.00e+00	92	33	0	490733568	48	6517
2026-01-06 19:38:20.88	10.20	14.29	-38.2	-39.2	22.9	0.00e+00	2	33	0	491782144	48	6544
2026-01-06 19:38:22.18	9.94	14.31	-37.8	-38.7	23.2	0.00e+00	24	33	0	493879296	48	6204
2026-01-06 19:38:22.90	9.79	14.32	-37.6	-38.5	23.3	0.00e+00	0	33	0	495976448	48	6068
2026-01-06 19:38:24.20	9.53	14.35	-37.7	-38.6	23.4	0.00e+00	57	33	0	498073600	48	6121
2026-01-06 19:38:24.92	9.38	14.36	-37.6	-38.6	23.4	0.00e+00	0	33	0	499122176	48	6112
2026-01-06 19:38:26.22	9.11	14.38	-37.7	-38.6	23.3	0.00e+00	2	33	0	502267904	48	6157
2026-01-06 19:38:26.94	8.97	14.39	-37.8	-38.7	23.3	0.00e+00	45	33	0	503316480	48	6197
2026-01-06 19:38:28.24	8.70	14.41	-37.6	-38.5	23.4	0.00e+00	0	33	0	505413632	48	6101
2026-01-06 19:38:28.96	8.55	14.42	-37.5	-38.4	23.5	0.00e+00	92	33	0	506462208	48	5985
2026-01-06 19:38:30.25	8.29	14.43	-37.4	-38.3	23.6	0.00e+00	2	33	0	509607936	48	5950
2026-01-06 19:38:30.97	8.14	14.44	-37.5	-38.4	23.6	0.00e+00	78	33	0	510656512	48	5974
2026-01-06 19:38:32.27	7.87	14.46	-37.6	-38.6	23.4	0.00e+00	15	33	0	512753664	48	6105
2026-01-06 19:38:32.99	7.72	14.47	-37.7	-38.7	23.3	0.00e+00	59	33	0	514850816	48	6180
2026-01-06 19:38:34.28	7.46	14.49	-38.0	-39.0	22.9	0.00e+00	92	33	0	516947968	48	6416
2026-01-06 19:38:35.00	7.31	14.49	-38.1	-39.0	22.8	0.00e+00	3	33	0	517996544	48	6450
2026-01-06 19:38:36.30	7.04	14.51	-37.8	-38.7	23.2	0.00e+00	92	33	0	521142272	48	6228
2026-01-06 19:38:37.02	6.89	14.52	-37.8	-38.7	23.2	0.00e+00	64	33	0	522190848	48	6227
2026-01-06 19:38:38.32	6.62	14.53	-37.9	-38.9	23.1	0.00e+00	0	33	0	524288000	48	6325
2026-01-06 19:38:39.04	6.47	14.54	-37.8	-38.7	23.2	0.00e+00	65	33	0	526385152	48	6240
2026-01-06 19:38:40.34	6.20	14.55	-37.8	-38.8	23.2	0.00e+00	0	33	0	528482304	48	6267
2026-01-06 19:38:41.06	6.05	14.56	-37.8	-38.7	23.3	0.00e+00	66	33	0	529530880	48	6211
2026-01-06 19:38:42.36	5.78	14.57	-37.9	-38.8	23.2	0.00e+00	2	33	0	531628032	48	6278
2026-01-06 19:38:43.08	5.63	14.58	-37.9	-38.8	23.2	0.00e+00	92	33	0	533725184	48	6296
2026-01-06 19:38:44.38	5.36	14.59	-37.9	-38.8	23.2	0.00e+00	15	33	0	535822336	48	6288
2026-01-06 19:38:45.10	5.21	14.59	-37.8	-38.7	23.2	0.00e+00	92	33	0	536870912	48	6235
2026-01-06 19:38:46.40	4.94	14.60	-37.7	-38.6	23.3	0.00e+00	64	33	0	540016640	48	6147
2026-01-06 19:38:47.11	4.79	14.61	-37.7	-38.6	23.3	0.00e+00	57	33	0	541065216	48	6172
2026-01-06 19:38:48.41	4.52	14.62	-37.8	-38.7	23.2	0.00e+00	21	33	0	543162368	48	6203
2026-01-06 19:38:49.13	4.37	14.62	-37.7	-38.6	23.3	0.00e+00	24	33	0	545259520	48	6123
2026-01-06 19:38:50.43	4.10	14.63	-37.8	-38.7	23.3	0.00e+00	92	33	0	547356672	48	6212
2026-01-06 19:38:51.15	3.95	14.64	-37.7	-38.7	23.4	0.00e+00	0	33	0	548405248	48	6184
2026-01-06 19:38:52.45	3.68	14.64	-37.8	-38.7	23.2	0.00e+00	48	33	0	550502400	48	6236
2026-01-06 19:38:53.17	3.53	14.65	-37.9	-38.8	23.2	0.00e+00	59	33	0	552599552	48	6313
2026-01-06 19:38:54.46	3.26	14.65	-37.7	-38.7	23.3	0.00e+00	1	33	0	554696704	48	6179
2026-01-06 19:38:55.19	3.11	14.66	-37.6	-38.6	23.3	0.00e+00	23	33	0	555745280	48	6107
2026-01-06 19:38:56.49	2.84	14.66	-37.4	-38.3	23.6	0.00e+00	5	33	0	558891008	48	5954
2026-01-06 19:38:57.20	2.69	14.66	-37.4	-38.3	23.6	0.00e+00	5	33	0	559939584	48	5959
2026-01-06 19:38:58.50	2.42	14.67	-37.5	-38.4	23.6	0.00e+00	5	34	0	562036736	48	5971
2026-01-06 19:38:59.22	2.27	14.67	-37.7	-38.6	23.3	0.00e+00	90	33	0	564133888	48	6124
2026-01-06 19:39:00.52	2.00	14.67	-37.7	-38.7	23.4	0.00e+00	0	33	0	566231040	48	6176
2026-01-06 19:39:01.24	1.85	14.67	-37.6	-38.5	23.4	0.00e+00	92	33	0	567279616	48	6083
2026-01-06 19:39:02.54	1.57	14.68	-37.8	-38.7	23.3	0.00e+00	0	34	0	570425344	48	6195
2026-01-06 19:39:03.26	1.42	14.68	-37.7	-38.6	23.4	0.00e+00	60	33	0	571473920	48	6164
2026-01-06 19:39:04.56	1.15	14.68	-37.8	-38.7	23.3	0.00e+00	92	33	0	573571072	48	6224
2026-01-06 19:39:05.28	1.00	14.68	-37.7	-38.6	23.4	0.00e+00	2	33	0	574619648	48	6150
2026-01-06 19:39:06.58	0.73	14.68	-37.8	-38.7	23.3	0.00e+00	92	33	0	577765376	48	6208
2026-01-06 19:39:07.30	0.58	14.68	-37.7	-38.6	23.4	0.00e+00	0	33	0	578813952	48	6173
2026-01-06 19:39:08.60	0.31	14.68	-37.8	-38.7	23.3	0.00e+00	69	33	0	580911104	48	6228
2026-01-06 19:39:09.32	0.16	14.68	-37.7	-38.6	23.4	0.00e+00	17	34	0	583008256	48	6124
2026-01-06 19:39:10.61	359.89	14.68	-37.7	-38.7	23.0	0.00e+00	68	33	0	585105408	48	6184
2026-01-06 19:39:11.33	359.74	14.67	-37.6	-38.5	23.4	0.00e+00	14	33	0	586153984	48	6063
2026-01-06 19:39:12.63	359.46	14.67	-37.7	-38.6	23.4	0.00e+00	68	33	0	589299712	48	6151
2026-01-06 19:39:13.35	359.31	14.67	-37.6	-38.6	23.4	0.00e+00	0	33	0	590348288	48	6108
2026-01-06 19:39:14.64	359.04	14.67	-37.8	-38.7	23.2	0.00e+00	69	33	0	592445440	48	6243
2026-01-06 19:39:15.37	358.89	14.66	-38.1	-39.0	23.3	0.00e+00	92	33	0	594542592	48	6419
2026-01-06 19:39:16.67	358.62	14.66	-37.9	-38.8	23.3	0.00e+00	0	33	0	596639744	48	6285
2026-01-06 19:39:17.39	358.47	14.66	-37.8	-38.7	23.4	0.00e+00	90	33	0	597688320	48	6227
2026-01-06 19:39:18.69	358.20	14.65	-37.8	-38.7	23.4	0.00e+00	0	33	0	599785472	48	6194
2026-01-06 19:39:19.41	358.05	14.65	-37.8	-38.7	23.4	0.00e+00	22	33	0	601882624	48	6193
2026-01-06 19:39:20.71	357.78	14.64	-37.9	-38.8	23.3	0.00e+00	92	33	0	603979776	48	6268
2026-01-06 19:39:21.43	357.63	14.64	-37.9	-38.9	23.2	0.00e+00	6	33	0	605028352	48	6353
2026-01-06 19:39:22.73	357.36	14.63	-38.2	-39.1	23.0	0.00e+00	74	33	0	608174080	48	6518
2026-01-06 19:39:23.45	357.21	14.62	-38.2	-39.2	22.9	0.00e+00	5	33	0	609222656	48	6562
2026-01-06 19:39:24.74	356.94	14.61	-38.3	-39.3	22.8	0.00e+00	0	33	0	611319808	48	6626
2026-01-06 19:39:25.47	356.78	14.61	-38.3	-39.2	22.9	0.00e+00	0	33	0	613416960	48	6595
2026-01-06 19:39:26.76	356.52	14.60	-38.2	-39.2	22.9	0.00e+00	23	33	0	615514112	48	6544
2026-01-06 19:39:27.48	356.37	14.59	-38.2	-39.2	22.8	0.00e+00	0	33	0	616562688	48	6585
2026-01-06 19:39:28.78	356.10	14.58	-38.2	-39.1	23.0	0.00e+00	58	33	0	618659840	48	6524
2026-01-06 19:39:29.50	355.95	14.58	-38.0	-38.9	23.1	0.00e+00	92	33	0	620756992	48	6383
2026-01-06 19:39:30.80	355.68	14.56	-38.0	-39.0	23.1	0.00e+00	22	33	0	622854144	48	6440
2026-01-06 19:39:31.52	355.53	14.56	-37.9	-38.9	23.0	0.00e+00	92	33	0	623902720	48	6356
2026-01-06 19:39:32.82	355.26	14.54	-38.0	-39.0	23.0	0.00e+00	60	33	0	627048448	48	6392
2026-01-06 19:39:33.54	355.11	14.54	-38.1	-39.1	22.9	0.00e+00	27	33	0	628097024	48	6491
2026-01-06 19:39:34.83	354.84	14.52	-38.3	-39.3	22.7	0.00e+00	0	33	0	630194176	48	6641
2026-01-06 19:39:35.55	354.69	14.52	-38.3	-39.3	22.8	0.00e+00	21	33	0	632291328	48	6626
2026-01-06 19:39:36.85	354.42	14.50	-38.3	-39.3	22.8	0.00e+00	92	33	0	634388480	48	6646
2026-01-06 19:39:37.58	354.27	14.49	-38.4	-39.4	22.6	0.00e+00	5	33	0	635437056	48	6759
2026-01-06 19:39:38.88	354.00	14.48	-38.3	-39.3	22.7	0.00e+00	92	33	0	638582784	48	6684
2026-01-06 19:39:39.60	353.86	14.47	-38.3	-39.3	22.8	0.00e+00	65	33	0	639631360	48	6677
2026-01-06 19:39:40.89	353.59	14.45	-38.0	-39.0	23.0	0.00e+00	0	33	0	641728512	48	6436
2026-01-06 19:39:41.62	353.44	14.44	-38.1	-39.1	23.0	0.00e+00	64	33	0	642777088	48	6496
2026-01-06 19:39:42.91	353.17	14.42	-37.9	-38.8	23.2	0.00e+00	2	33	0	645922816	48	6297
2026-01-06 19:39:43.63	353.03	14.41	-37.9	-38.8	23.2	0.00e+00	65	33	0	646971392	48	6314
2026-01-06 19:39:44.93	352.76	14.40	-37.7	-38.6	23.3	0.00e+00	16	33	0	649068544	48	6150
2026-01-06 19:39:45.65	352.61	14.39	-37.7	-38.7	23.2	0.00e+00	92	33	0	651165696	48	6185
2026-01-06 19:39:46.94	352.35	14.37	-37.9	-38.8	23.1	0.00e+00	0	33	0	653262848	48	6297
2026-01-06 19:39:47.66	352.20	14.36	-38.0	-38.9	23.1	0.00e+00	92	33	0	654311424	48	6388
2026-01-06 19:39:48.96	351.93	14.33	-38.0	-39.0	23.0	0.00e+00	11	33	0	657457152	48	6408
2026-01-06 19:39:49.68	351.79	14.32	-38.0	-39.0	23.1	0.00e+00	0	33	0	658505728	48	6408
2026-01-06 19:39:50.98	351.52	14.30	-38.2	-39.2	22.9	0.00e+00	76	33	0	660602880	48	6576
2026-01-06 19:39:51.70	351.38	14.29	-38.2	-39.2	22.9	0.00e+00	7	33	0	661651456	48	6559
2026-01-06 19:39:53.00	351.11	14.27	-38.0	-38.9	23.1	0.00e+00	90	33	0	664797184	48	6388
2026-01-06 19:39:53.72	350.97	14.25	-37.8	-38.7	23.3	0.00e+00	16	33	0	665845760	48	6216
2026-01-06 19:39:55.01	350.70	14.23	-37.8	-38.7	23.3	0.00e+00	0	33	0	667942912	48	6203
2026-01-06 19:39:55.74	350.56	14.22	-37.7	-38.7	23.3	0.00e+00	2	33	0	670040064	48	6179
2026-01-06 19:39:57.03	350.29	14.19	-37.7	-38.6	23.4	0.00e+00	0	33	0	672137216	48	6130
2026-01-06 19:39:57.75	350.15	14.18	-37.7	-38.7	23.3	0.00e+00	22	33	0	673185792	48	6189
2026-01-06 19:39:59.04	349.89	14.16	-37.6	-38.5	23.4	0.00e+00	0	33	0	676331520	48	6099
2026-01-06 19:39:59.77	349.74	14.14	-37.7	-38.7	23.1	0.00e+00	0	33	0	677380096	48	6195
2026-01-06 19:40:01.06	349.48	14.12	-37.6	-38.5	23.5	0.00e+00	65	33	0	679477248	48	6069
2026-01-06 19:40:01.78	349.34	14.10	-37.5	-38.5	23.5	0.00e+00	92	33	0	680525824	48	6048
2026-01-06 19:40:03.08	349.07	14.08	-37.6	-38.6	23.3	0.00e+00	2	33	0	683671552	48	6113
2026-01-06 19:40:03.80	348.93	14.06	-37.6	-38.5	23.4	0.00e+00	92	33	0	684720128	48	6077
2026-01-06 19:40:05.10	348.67	14.03	-37.7	-38.6	23.4	0.00e+00	2	33	0	686817280	48	6165
2026-01-06 19:40:05.82	348.53	14.02	-37.7	-38.6	23.4	0.00e+00	0	33	0	688914432	48	6157
2026-01-06 19:40:07.12	348.27	13.99	-37.8	-38.7	23.3	0.00e+00	92	33	0	691011584	48	6227
2026-01-06 19:40:07.84	348.12	13.97	-37.9	-38.8	23.2	0.00e+00	60	33	0	692060160	48	6283
2026-01-06 19:40:09.14	347.86	13.94	-37.9	-38.8	23.2	0.00e+00	91	33	0	695205888	48	6272
2026-01-06 19:40:09.86	347.72	13.93	-37.9	-38.8	23.2	0.00e+00	65	33	0	696254464	48	6284
2026-01-06 19:40:11.15	347.46	13.90	-37.9	-38.8	23.1	0.00e+00	0	33	0	698351616	48	6302
2026-01-06 19:40:11.88	347.32	13.88	-38.0	-38.9	23.1	0.00e+00	0	33	0	700448768	48	6374
2026-01-06 19:40:13.17	347.06	13.85	-38.1	-39.1	23.0	0.00e+00	21	33	0	702545920	48	6469
2026-01-06 19:40:13.89	346.92	13.83	-37.9	-38.9	23.0	0.00e+00	0	33	0	703594496	48	6344
2026-01-06 19:40:15.19	346.67	13.80	-38.1	-39.1	22.9	0.00e+00	60	33	0	705691648	48	6468
2026-01-06 19:40:15.91	346.52	13.78	-38.0	-38.9	23.1	0.00e+00	8	33	0	707788800	48	6373
2026-01-06 19:40:17.21	346.27	13.75	-38.1	-39.0	22.9	0.00e+00	15	33	0	709885952	48	6458
2026-01-06 19:40:17.93	346.13	13.73	-37.9	-38.9	23.1	0.00e+00	92	33	0	710934528	48	6345
2026-01-06 19:40:19.22	345.88	13.70	-37.9	-38.8	23.1	0.00e+00	0	33	0	714080256	48	6294
2026-01-06 19:40:19.94	345.73	13.68	-37.9	-38.9	23.0	0.00e+00	92	33	0	715128832	48	6336
2026-01-06 19:40:21.24	345.48	13.64	-37.9	-38.9	23.0	0.00e+00	7	33	0	717225984	48	6327
2026-01-06 19:40:21.96	345.34	13.63	-38.0	-39.0	23.0	0.00e+00	22	33	0	719323136	48	6397
2026-01-06 19:40:23.26	345.09	13.59	-38.2	-39.2	22.8	0.00e+00	92	33	0	721420288	48	6551
2026-01-06 19:40:23.98	344.95	13.57	-38.0	-39.0	23.0	0.00e+00	61	33	0	722468864	48	6398
2026-01-06 19:40:25.28	344.70	13.53	-38.1	-39.1	22.8	0.00e+00	67	33	0	725614592	48	6519
2026-01-06 19:40:26.00	344.56	13.51	-38.0	-38.9	23.0	0.00e+00	66	33	0	726663168	48	6364
2026-01-06 19:40:27.30	344.31	13.48	-38.1	-39.0	22.9	0.00e+00	0	33	0	728760320	48	6450
2026-01-06 19:40:28.02	344.17	13.46	-38.1	-39.1	22.8	0.00e+00	0	33	0	729808896	48	6496
2026-01-06 19:40:29.32	343.92	13.42	-38.1	-39.1	22.8	0.00e+00	0	33	0	732954624	48	6487
2026-01-06 19:40:30.04	343.78	13.40	-38.2	-39.2	22.8	0.00e+00	62	33	0	734003200	48	6540
2026-01-06 19:40:31.34	343.53	13.36	-38.2	-39.2	22.8	0.00e+00	0	33	0	736100352	48	6589
2026-01-06 19:40:32.06	343.39	13.34	-38.1	-39.1	22.8	0.00e+00	92	33	0	738197504	48	6528
2026-01-06 19:40:33.36	343.15	13.30	-38.1	-39.1	22.7	0.00e+00	0	33	0	740294656	48	6474
2026-01-06 19:40:34.08	343.01	13.28	-38.1	-39.1	22.8	0.00e+00	92	33	0	741343232	48	6503
2026-01-06 19:40:35.37	342.76	13.24	-37.8	-38.7	23.2	0.00e+00	2	33	0	744488960	48	6236
2026-01-06 19:40:36.10	342.63	13.22	-37.7	-38.7	23.2	0.00e+00	0	33	0	745537536	48	6204
2026-01-06 19:40:37.39	342.38	13.18	-37.7	-38.6	23.2	0.00e+00	92	33	0	747634688	48	6150
2026-01-06 19:40:38.11	342.25	13.16	-37.6	-38.6	23.3	0.00e+00	0	33	0	748683264	48	6120
2026-01-06 19:40:39.41	342.00	13.11	-37.7	-38.6	23.3	0.00e+00	92	33	0	751828992	48	6136
2026-01-06 19:40:40.13	341.87	13.09	-37.6	-38.6	23.2	0.00e+00	16	33	0	752877568	48	6128
2026-01-06 19:40:41.43	341.62	13.05	-37.6	-38.5	23.3	0.00e+00	25	33	0	754974720	48	6094
2026-01-06 19:40:42.15	341.49	13.03	-37.7	-38.6	23.2	0.00e+00	0	33	0	757071872	48	6145
2026-01-06 19:40:43.45	341.25	12.98	-37.6	-38.6	23.1	0.00e+00	0	33	0	759169024	48	6139
2026-01-06 19:40:44.17	341.11	12.96	-37.7	-38.7	23.2	0.00e+00	22	33	0	760217600	48	6215
2026-01-06 19:40:45.47	340.87	12.92	-37.5	-38.4	23.4	0.00e+00	2	33	0	763363328	48	6008
2026-01-06 19:40:46.19	340.74	12.89	-37.5	-38.4	23.4	0.00e+00	16	33	0	764411904	48	6012
2026-01-06 19:40:47.49	340.50	12.85	-37.4	-38.4	23.5	0.00e+00	2	33	0	766509056	48	5973
2026-01-06 19:40:48.20	340.37	12.83	-37.4	-38.3	23.5	0.00e+00	91	34	0	767557632	48	5938
2026-01-06 19:40:49.50	340.13	12.78	-37.4	-38.3	23.5	0.00e+00	5	33	0	770703360	48	5953
2026-01-06 19:40:50.22	339.99	12.76	-37.5	-38.4	23.4	0.00e+00	90	33	0	771751936	48	5993
2026-01-06 19:40:51.52	339.76	12.71	-37.6	-38.6	23.2	0.00e+00	0	33	0	773849088	48	6114
2026-01-06 19:40:52.24	339.62	12.69	-37.6	-38.5	23.3	0.00e+00	0	33	0	775946240	48	6093
2026-01-06 19:40:53.54	339.39	12.64	-37.7	-38.6	23.2	0.00e+00	92	33	0	778043392	48	6154
2026-01-06 19:40:54.26	339.26	12.62	-37.7	-38.7	23.1	0.00e+00	0	33	0	779091968	48	6176
2026-01-06 19:40:55.56	339.02	12.57	-37.6	-38.6	23.2	0.00e+00	92	33	0	782237696	48	6130
2026-01-06 19:40:56.28	338.89	12.54	-37.6	-38.5	23.3	0.00e+00	0	33	0	783286272	48	6092
2026-01-06 19:40:57.58	338.66	12.50	-37.6	-38.5	23.1	0.00e+00	0	33	0	785383424	48	6071
2026-01-06 19:40:58.30	338.53	12.47	-37.6	-38.5	23.3	0.00e+00	2	33	0	787480576	48	6083
2026-01-06 19:40:59.60	338.29	12.42	-37.5	-38.4	23.4	0.00e+00	67	33	0	789577728	48	6021
2026-01-06 19:41:00.34	338.16	12.40	-37.6	-38.5	23.3	0.00e+00	20	33	0	790626304	48	6058
2026-01-06 19:41:01.63	337.93	12.35	-37.6	-38.5	23.3	0.00e+00	66	34	0	793772032	48	6064
2026-01-06 19:41:02.35	337.80	12.32	-37.6	-38.5	23.3	0.00e+00	0	33	0	794820608	48	6101
2026-01-06 19:41:03.65	337.57	12.27	-37.5	-38.4	23.4	0.00e+00	68	33	0	796917760	48	6030
2026-01-06 19:41:04.37	337.44	12.25	-37.5	-38.4	23.3	0.00e+00	92	33	0	797966336	48	5983
2026-01-06 19:41:05.67	337.21	12.20	-37.6	-38.5	23.3	0.00e+00	7	33	0	801112064	48	6101
2026-01-06 19:41:06.39	337.09	12.17	-37.6	-38.6	23.3	0.00e+00	74	33	0	802160640	48	6108
2026-01-06 19:41:07.68	336.86	12.12	-37.6	-38.5	23.3	0.00e+00	0	33	0	804257792	48	6068
2026-01-06 19:41:08.41	336.73	12.09	-37.7	-38.6	23.1	0.00e+00	62	33	0	806354944	48	6155
2026-01-06 19:41:09.70	336.51	12.04	-37.7	-38.6	23.1	0.00e+00	92	33	0	808452096	48	6135
2026-01-06 19:41:10.43	336.38	12.02	-37.7	-38.6	23.2	0.00e+00	63	33	0	809500672	48	6162
2026-01-06 19:41:11.72	336.16	11.97	-37.8	-38.8	23.0	0.00e+00	92	33	0	812646400	48	6249
2026-01-06 19:41:12.44	336.03	11.94	-38.0	-38.9	22.9	0.00e+00	66	33	0	813694976	48	6371
2026-01-06 19:41:13.74	335.81	11.89	-38.0	-39.0	22.9	0.00e+00	16	33	0	815792128	48	6392
2026-01-06 19:41:14.47	335.68	11.86	-38.1	-39.1	22.8	0.00e+00	5	33	0	816840704	48	6532
2026-01-06 19:41:15.76	335.46	11.81	-38.1	-39.1	22.7	0.00e+00	60	33	0	819986432	48	6521
2026-01-06 19:41:16.49	335.33	11.78	-38.2	-39.2	22.6	0.00e+00	0	33	0	821035008	48	6556
2026-01-06 19:41:17.78	335.11	11.73	-38.2	-39.3	22.6	0.00e+00	20	33	0	823132160	48	6620
2026-01-06 19:41:18.50	334.99	11.70	-38.3	-39.4	22.5	0.00e+00	75	33	0	825229312	48	6706
2026-01-06 19:41:19.80	334.77	11.64	-38.3	-39.4	22.5	0.00e+00	20	33	0	827326464	48	6695
2026-01-06 19:41:20.52	334.65	11.61	-38.3	-39.3	22.5	0.00e+00	90	33	0	828375040	48	6676
2026-01-06 19:41:21.82	334.43	11.56	-38.5	-39.6	22.3	0.00e+00	0	33	0	831520768	48	6875
2026-01-06 19:41:22.54	334.30	11.53	-38.5	-39.5	22.3	0.00e+00	13	33	0	832569344	48	6817
2026-01-06 19:41:23.84	334.09	11.48	-38.6	-39.6	22.2	0.00e+00	15	33	0	834666496	48	6879
2026-01-06 19:41:24.56	333.97	11.45	-38.6	-39.7	22.2	0.00e+00	65	33	0	836763648	48	6957
2026-01-06 19:41:25.86	333.75	11.39	-38.7	-39.8	22.1	0.00e+00	92	33	0	838860800	50	6285
2026-01-06 19:41:26.58	333.63	11.36	-38.8	-39.9	22.0	0.00e+00	19	33	0	839909376	50	6341
2026-01-06 19:41:27.88	333.41	11.31	-38.8	-39.9	22.0	0.00e+00	61	33	0	842006528	50	6358
2026-01-06 19:41:28.60	333.29	11.28	-38.9	-39.9	21.9	0.00e+00	14	33	0	844103680	50	6388
2026-01-06 19:41:29.90	333.08	11.22	-39.0	-40.0	21.9	0.00e+00	0	33	0	846200832	50	6459
2026-01-06 19:41:30.62	332.96	11.19	-38.9	-40.0	21.9	0.00e+00	3	34	0	847249408	50	6447
2026-01-06 19:41:31.92	332.75	11.14	-39.1	-40.2	21.8	0.00e+00	20	33	0	850395136	50	6549
2026-01-06 19:41:32.64	332.63	11.11	-39.2	-40.3	21.6	0.00e+00	68	33	0	851443712	50	6632
2026-01-06 19:41:33.93	332.42	11.05	-39.2	-40.3	21.6	0.00e+00	0	33	0	853540864	50	6681
2026-01-06 19:41:34.66	332.30	11.02	-39.3	-40.5	21.5	0.00e+00	92	33	0	855638016	50	6789
2026-01-06 19:41:35.96	332.09	10.97	-39.4	-40.6	21.3	0.00e+00	0	33	0	857735168	50	6864
2026-01-06 19:41:36.68	331.97	10.93	-39.4	-40.6	21.4	0.00e+00	90	33	0	858783744	50	6868
2026-01-06 19:41:37.97	331.76	10.88	-39.5	-40.7	21.3	0.00e+00	0	33	0	861929472	50	6940
2026-01-06 19:41:38.69	331.65	10.85	-39.6	-40.8	21.2	0.00e+00	4	33	0	862978048	50	7030
2026-01-06 19:41:39.99	331.44	10.79	-39.5	-40.7	21.2	0.00e+00	92	33	0	865075200	50	6977
2026-01-06 19:41:40.71	331.32	10.76	-39.6	-40.8	21.0	0.00e+00	5	33	0	866123776	50	7067
2026-01-06 19:41:42.01	331.12	10.70	-39.7	-40.9	21.0	0.00e+00	92	33	0	869269504	52	6373
2026-01-06 19:41:42.73	331.00	10.67	-39.7	-40.9	21.0	0.00e+00	1	33	0	870318080	52	6379
2026-01-06 19:41:44.03	330.80	10.61	-39.7	-40.9	21.1	0.00e+00	0	33	0	872415232	52	6346
2026-01-06 19:41:44.75	330.68	10.58	-39.8	-41.0	21.0	0.00e+00	6	33	0	874512384	52	6402
2026-01-06 19:41:46.05	330.48	10.52	-39.8	-41.0	20.9	0.00e+00	68	34	0	876609536	52	6407
2026-01-06 19:41:46.77	330.36	10.49	-39.9	-41.1	20.9	0.00e+00	14	33	0	877658112	52	6511
2026-01-06 19:41:48.06	330.16	10.43	-40.1	-41.4	20.7	0.00e+00	0	33	0	880803840	52	6695
2026-01-06 19:41:48.78	330.05	10.40	-40.2	-41.4	20.6	0.00e+00	0	33	0	881852416	52	6760
2026-01-06 19:41:50.08	329.85	10.34	-40.3	-41.6	20.4	0.00e+00	0	34	0	883949568	52	6900
2026-01-06 19:41:50.80	329.74	10.31	-40.4	-41.8	20.2	0.00e+00	92	33	0	884998144	52	7018
2026-01-06 19:41:52.10	329.54	10.25	-40.4	-41.7	20.3	0.00e+00	0	33	0	888143872	52	6996
2026-01-06 19:41:52.82	329.42	10.22	-40.4	-41.7	20.2	0.00e+00	92	33	0	889192448	52	6967
2026-01-06 19:41:54.12	329.23	10.16	-40.4	-41.7	20.4	0.00e+00	16	33	0	891289600	52	6942
2026-01-06 19:41:54.85	329.11	10.12	-40.3	-41.6	20.4	0.00e+00	2	33	0	893386752	52	6858
2026-01-06 19:41:56.14	328.92	10.07	-40.3	-41.6	20.4	0.00e+00	91	33	0	895483904	52	6895
2026-01-06 19:41:56.86	328.81	10.03	-40.2	-41.5	20.5	0.00e+00	0	33	0	896532480	52	6781
2026-01-06 19:41:58.16	328.61	9.97	-40.3	-41.6	20.4	0.00e+00	91	33	0	899678208	52	6904
2026-01-06 19:41:58.88	328.50	9.94	-40.4	-41.7	20.3	0.00e+00	0	33	0	900726784	52	6937
2026-01-06 19:42:00.18	328.31	9.88	-40.6	-42.0	20.1	0.00e+00	19	33	0	902823936	52	7171
2026-01-06 19:42:00.90	328.20	9.85	-40.5	-41.8	20.2	0.00e+00	0	33	0	903872512	52	7042
2026-01-06 19:42:02.20	328.00	9.79	-40.6	-42.0	20.0	0.00e+00	0	33	0	907018240	52	7173
2026-01-06 19:42:02.92	327.90	9.75	-40.7	-42.0	19.9	0.00e+00	0	33	0	908066816	52	7244
2026-01-06 19:42:04.22	327.70	9.69	-40.6	-42.0	19.9	0.00e+00	2	33	0	910163968	54	6444
2026-01-06 19:42:04.94	327.60	9.66	-40.7	-42.1	19.9	0.00e+00	84	33	0	912261120	54	6502
2026-01-06 19:42:06.24	327.40	9.60	-40.8	-42.2	19.8	0.00e+00	63	33	0	914358272	54	6564
2026-01-06 19:42:06.96	327.30	9.56	-40.8	-42.2	19.7	0.00e+00	92	34	0	915406848	54	6574
2026-01-06 19:42:08.25	327.11	9.50	-40.8	-42.2	19.7	0.00e+00	61	34	0	918552576	54	6611
2026-01-06 19:42:08.97	327.00	9.47	-40.8	-42.2	19.8	0.00e+00	67	33	0	919601152	54	6599
2026-01-06 19:42:10.27	326.82	9.41	-40.7	-42.1	19.8	0.00e+00	13	34	0	921698304	54	6527
2026-01-06 19:42:10.99	326.71	9.37	-40.7	-42.1	19.9	0.00e+00	2	33	0	923795456	54	6487
2026-01-06 19:42:12.29	326.52	9.31	-40.7	-42.1	20.0	0.00e+00	92	33	0	925892608	54	6477
2026-01-06 19:42:13.01	326.42	9.28	-40.7	-42.2	19.8	0.00e+00	62	33	0	926941184	54	6540
2026-01-06 19:42:14.31	326.23	9.22	-40.6	-42.0	19.9	0.00e+00	92	33	0	929038336	54	6441
2026-01-06 19:42:15.03	326.13	9.18	-40.7	-42.1	19.8	0.00e+00	63	33	0	931135488	54	6515
2026-01-06 19:42:16.33	325.94	9.12	-40.8	-42.2	19.8	0.00e+00	11	33	0	933232640	54	6592
2026-01-06 19:42:17.05	325.84	9.09	-40.8	-42.2	19.8	0.00e+00	0	33	0	934281216	54	6561
2026-01-06 19:42:18.35	325.66	9.02	-40.8	-42.2	19.6	0.00e+00	2	33	0	937426944	54	6598
2026-01-06 19:42:19.07	325.55	8.99	-40.6	-42.0	19.9	0.00e+00	0	33	0	938475520	54	6457
2026-01-06 19:42:20.36	325.37	8.93	-40.6	-41.9	20.0	0.00e+00	66	34	0	940572672	54	6373
2026-01-06 19:42:21.09	325.27	8.89	-40.6	-41.9	20.0	0.00e+00	92	33	0	942669824	54	6375
2026-01-06 19:42:22.38	325.09	8.83	-40.5	-41.8	20.0	0.00e+00	65	33	0	944766976	54	6316
2026-01-06 19:42:23.10	324.99	8.79	-40.3	-41.6	20.3	0.00e+00	94	33	0	945815552	54	6160
2026-01-06 19:42:24.40	324.81	8.73	-40.2	-41.5	20.4	0.00e+00	63	33	0	947912704	54	6097
2026-01-06 19:42:25.12	324.71	8.70	-40.2	-41.5	20.5	0.00e+00	18	33	0	950009856	54	6040
2026-01-06 19:42:26.42	324.53	8.63	-40.2	-41.4	20.5	0.00e+00	90	33	0	952107008	54	6027
2026-01-06 19:42:27.14	324.43	8.60	-40.1	-41.4	20.5	0.00e+00	0	33	0	953155584	54	5981
2026-01-06 19:42:28.44	324.25	8.54	-40.2	-41.5	20.4	0.00e+00	92	33	0	956301312	54	6063
2026-01-06 19:42:29.16	324.15	8.50	-40.1	-41.4	20.4	0.00e+00	0	33	0	957349888	54	6008
2026-01-06 19:42:30.46	323.98	8.44	-40.2	-41.5	20.4	0.00e+00	80	33	0	959447040	54	6071
2026-01-06 19:42:31.18	323.88	8.40	-40.2	-41.5	20.3	0.00e+00	17	33	0	961544192	54	6065
2026-01-06 19:42:32.48	323.70	8.34	-40.1	-41.3	20.5	0.00e+00	4	33	0	963641344	54	5959
2026-01-06 19:42:33.20	323.61	8.30	-40.1	-41.4	20.5	0.00e+00	63	33	0	964689920	54	5978
2026-01-06 19:42:34.49	323.43	8.24	-40.1	-41.4	20.4	0.00e+00	4	33	0	967835648	54	5992
2026-01-06 19:42:35.21	323.34	8.21	-40.1	-41.3	20.5	0.00e+00	18	33	0	968884224	54	5947
2026-01-06 19:42:36.51	323.16	8.14	-40.1	-41.4	20.6	0.00e+00	5	33	0	970981376	54	5992
2026-01-06 19:42:37.23	323.07	8.11	-40.0	-41.3	20.5	0.00e+00	92	33	0	972029952	54	5943
2026-01-06 19:42:38.53	322.90	8.04	-39.9	-41.1	20.7	0.00e+00	4	33	0	975175680	54	5824
2026-01-06 19:42:39.25	322.80	8.01	-40.1	-41.4	20.4	0.00e+00	92	33	0	976224256	54	6006
2026-01-06 19:42:40.55	322.63	7.94	-39.8	-41.0	20.8	0.00e+00	2	33	0	978321408	52	6436
2026-01-06 19:42:41.27	322.54	7.91	-39.7	-41.0	20.9	0.00e+00	0	33	0	980418560	52	6406
2026-01-06 19:42:42.57	322.37	7.84	-39.7	-40.9	20.9	0.00e+00	90	33	0	982515712	52	6376
2026-01-06 19:42:43.29	322.27	7.81	-39.7	-40.9	21.0	0.00e+00	0	33	0	983564288	52	6373
2026-01-06 19:42:44.59	322.10	7.74	-39.5	-40.6	21.1	0.00e+00	90	33	0	986710016	52	6173
2026-01-06 19:42:45.31	322.01	7.71	-39.3	-40.5	21.3	0.00e+00	0	33	0	987758592	52	6051
2026-01-06 19:42:46.61	321.84	7.64	-39.3	-40.5	21.4	0.00e+00	16	33	0	989855744	52	6044
2026-01-06 19:42:47.33	321.75	7.61	-39.1	-40.2	21.5	0.00e+00	0	33	0	991952896	52	5886
2026-01-06 19:42:48.62	321.59	7.54	-39.2	-40.3	21.4	0.00e+00	68	33	0	994050048	52	5927
2026-01-06 19:42:49.35	321.49	7.51	-39.1	-40.3	21.4	0.00e+00	0	33	0	995098624	52	5910
2026-01-06 19:42:50.64	321.33	7.44	-39.3	-40.4	21.4	0.00e+00	0	33	0	997195776	52	6026
2026-01-06 19:42:51.36	321.24	7.41	-39.2	-40.4	21.4	0.00e+00	16	33	0	999292928	52	5973
2026-01-06 19:42:52.66	321.08	7.34	-39.2	-40.4	21.5	0.00e+00	69	33	0	1001390080	52	5982
2026-01-06 19:42:53.38	320.98	7.31	-39.2	-40.4	21.4	0.00e+00	92	33	0	1002438656	52	5983
2026-01-06 19:42:54.68	320.82	7.24	-39.1	-40.3	21.5	0.00e+00	5	33	0	1005584384	52	5899
2026-01-06 19:42:55.40	320.73	7.21	-39.1	-40.2	21.5	0.00e+00	92	34	0	1006632960	52	5885
2026-01-06 19:42:56.70	320.57	7.14	-39.0	-40.1	21.6	0.00e+00	0	34	0	1008730112	52	5825
2026-01-06 19:42:57.42	320.48	7.11	-38.7	-39.8	21.9	0.00e+00	66	34	0	1010827264	52	5589
2026-01-06 19:42:58.72	320.32	7.04	-38.7	-39.8	21.8	0.00e+00	92	33	0	1012924416	50	6253
2026-01-06 19:42:59.44	320.23	7.01	-38.7	-39.8	21.9	0.00e+00	0	33	0	1013972992	50	6288
2026-01-06 19:43:00.74	320.07	6.94	-38.6	-39.7	22.0	0.00e+00	18	33	0	1016070144	50	6206
2026-01-06 19:43:01.46	319.99	6.90	-38.6	-39.7	22.0	0.00e+00	66	33	0	1018167296	50	6192
2026-01-06 19:43:02.75	319.83	6.84	-38.7	-39.8	21.8	0.00e+00	18	33	0	1020264448	50	6271
2026-01-06 19:43:03.47	319.74	6.80	-38.6	-39.6	21.8	0.00e+00	5	33	0	1021313024	50	6163
2026-01-06 19:43:04.77	319.58	6.74	-38.5	-39.6	21.7	0.00e+00	63	33	0	1024458752	50	6131
2026-01-06 19:43:05.49	319.50	6.70	-38.6	-39.7	21.8	0.00e+00	6	33	0	1025507328	50	6226
2026-01-06 19:43:06.79	319.34	6.64	-38.5	-39.5	22.0	0.00e+00	70	33	0	1027604480	50	6082
2026-01-06 19:43:07.51	319.26	6.60	-38.4	-39.5	22.2	0.00e+00	92	33	0	1029701632	50	6035
2026-01-06 19:43:08.81	319.10	6.54	-38.5	-39.6	21.9	0.00e+00	10	33	0	1031798784	50	6127
2026-01-06 19:43:09.53	319.02	6.50	-38.4	-39.4	22.2	0.00e+00	92	33	0	1032847360	50	6015
2026-01-06 19:43:10.83	318.86	6.44	-38.4	-39.5	21.6	0.00e+00	72	33	0	1035993088	50	6046
2026-01-06 19:43:11.55	318.78	6.40	-38.4	-39.5	22.1	0.00e+00	10	33	0	1037041664	50	6051
2026-01-06 19:43:12.85	318.62	6.33	-38.5	-39.5	22.0	0.00e+00	92	33	0	1039138816	50	6099
2026-01-06 19:43:13.57	318.54	6.30	-38.4	-39.4	22.1	0.00e+00	0	33	0	1040187392	50	6025
2026-01-06 19:43:14.87	318.39	6.23	-38.6	-39.7	21.9	0.00e+00	92	33	0	1043333120	50	6176
2026-01-06 19:43:15.59	318.30	6.20	-38.6	-39.7	21.8	0.00e+00	69	33	0	1044381696	50	6208
2026-01-06 19:43:16.89	318.15	6.13	-38.7	-39.8	21.8	0.00e+00	2	33	0	1046478848	50	6268
2026-01-06 19:43:17.61	318.07	6.09	-38.8	-39.9	21.7	0.00e+00	16	34	0	1048576000	50	6328
2026-01-06 19:43:18.91	317.92	6.03	-38.6	-39.7	21.8	0.00e+00	2	34	0	1050673152	50	6223
2026-01-06 19:43:19.63	317.84	5.99	-38.7	-39.8	21.7	0.00e+00	0	34	0	1051721728	50	6305
2026-01-06 19:43:20.93	317.69	5.93	-38.7	-39.8	21.7	0.00e+00	0	33	0	1054867456	50	6304
2026-01-06 19:43:21.65	317.61	5.89	-38.8	-39.9	21.7	0.00e+00	0	33	0	1055916032	50	6376
2026-01-06 19:43:22.94	317.46	5.83	-38.7	-39.9	21.7	0.00e+00	0	33	0	1058013184	50	6318
2026-01-06 19:43:23.67	317.38	5.79	-38.8	-39.9	21.7	0.00e+00	90	33	0	1060110336	50	6333
2026-01-06 19:43:24.96	317.24	5.72	-38.7	-39.8	21.8	0.00e+00	16	33	0	1062207488	50	6267
2026-01-06 19:43:25.68	317.16	5.69	-38.7	-39.8	21.8	0.00e+00	90	34	0	1063256064	50	6268
2026-01-06 19:43:26.98	317.01	5.62	-38.9	-40.0	21.6	0.00e+00	0	34	0	1065353216	50	6403
2026-01-06 19:43:27.70	316.93	5.59	-38.7	-39.8	21.7	0.00e+00	4	34	0	1067450368	50	6316
2026-01-06 19:43:29.00	316.79	5.52	-38.7	-39.8	21.7	0.00e+00	92	33	0	1069547520	50	6308
2026-01-06 19:43:29.72	316.71	5.48	-38.8	-39.9	21.5	0.00e+00	16	33	0	1070596096	50	6383
2026-01-06 19:43:31.02	316.56	5.42	-38.8	-39.9	21.6	0.00e+00	91	34	0	1073741824	50	6390
2026-01-06 19:43:31.75	316.48	5.38	-39.0	-40.1	21.3	0.00e+00	15	34	0	1074790400	50	6534
2026-01-06 19:43:33.04	316.34	5.32	-39.0	-40.2	21.3	0.00e+00	66	33	0	1076887552	50	6569
2026-01-06 19:43:33.76	316.26	5.28	-39.1	-40.2	21.2	0.00e+00	64	33	0	1078984704	50	6589
2026-01-06 19:43:35.06	316.12	5.21	-39.1	-40.2	21.2	0.00e+00	1	33	0	1081081856	50	6602
2026-01-06 19:43:35.78	316.04	5.18	-39.1	-40.3	21.2	0.00e+00	16	33	0	1082130432	50	6652
2026-01-06 19:43:37.08	315.90	5.11	-39.1	-40.3	21.2	0.00e+00	0	33	0	1084227584	50	6681
2026-01-06 19:43:37.80	315.83	5.08	-39.2	-40.4	21.1	0.00e+00	0	33	0	1086324736	50	6707
2026-01-06 19:43:39.10	315.69	5.01	-39.2	-40.3	21.1	0.00e+00	0	34	0	1088421888	50	6688
2026-01-06 19:43:39.82	315.61	4.97	-39.1	-40.3	21.0	0.00e+00	92	34	0	1089470464	50	6680
2026-01-06 19:43:41.12	315.47	4.91	-39.0	-40.2	21.2	0.00e+00	2	33	0	1092616192	50	6569
2026-01-06 19:43:41.84	315.40	4.87	-39.1	-40.3	21.2	0.00e+00	71	33	0	1093664768	50	6650
2026-01-06 19:43:43.14	315.26	4.81	-39.2	-40.4	21.0	0.00e+00	0	34	0	1095761920	50	6759
2026-01-06 19:43:43.86	315.18	4.77	-39.3	-40.5	20.8	0.00e+00	72	33	0	1097859072	50	6835
2026-01-06 19:43:45.16	315.05	4.71	-39.5	-40.7	20.7	0.00e+00	91	33	0	1099956224	50	6974
2026-01-06 19:43:45.88	314.97	4.67	-39.1	-40.3	21.1	0.00e+00	0	34	0	1101004800	50	6658
2026-01-06 19:43:47.18	314.84	4.60	-39.0	-40.2	21.2	0.00e+00	0	33	0	1104150528	50	6594
2026-01-06 19:43:47.89	314.77	4.57	-39.1	-40.3	21.0	0.00e+00	0	33	0	1105199104	50	6671
2026-01-06 19:43:49.19	314.63	4.50	-39.1	-40.3	21.1	0.00e+00	65	34	0	1107296256	50	6619
2026-01-06 19:43:49.91	314.56	4.47	-39.1	-40.3	21.1	0.00e+00	15	34	0	1108344832	50	6665
2026-01-06 19:43:51.21	314.42	4.40	-39.1	-40.3	21.0	0.00e+00	68	34	0	1111490560	50	6667
2026-01-06 19:43:51.93	314.35	4.36	-39.3	-40.5	20.9	0.00e+00	0	33	0	1112539136	50	6791
2026-01-06 19:43:53.23	314.22	4.30	-39.4	-40.6	20.8	0.00e+00	67	34	0	1114636288	50	6895
2026-01-06 19:43:53.95	314.15	4.26	-39.5	-40.7	20.6	0.00e+00	92	33	0	1116733440	50	6983
2026-01-06 19:43:55.25	314.01	4.20	-39.5	-40.7	20.6	0.00e+00	0	33	0	1118830592	50	7005
2026-01-06 19:43:55.97	313.94	4.16	-39.5	-40.8	20.5	0.00e+00	92	34	0	1119879168	50	7059
2026-01-06 19:43:57.27	313.81	4.10	-39.8	-41.1	20.3	0.00e+00	0	33	0	1123024896	50	7267
2026-01-06 19:43:57.99	313.74	4.06	-39.8	-41.1	20.2	0.00e+00	17	33	0	1124073472	52	6502
2026-01-06 19:43:59.29	313.61	3.99	-39.9	-41.2	20.0	0.00e+00	92	33	0	1126170624	52	6614
2026-01-06 19:44:00.00	313.54	3.96	-39.9	-41.2	20.2	0.00e+00	66	33	0	1127219200	52	6576
2026-01-06 19:44:01.30	313.41	3.89	-39.9	-41.3	20.0	0.00e+00	92	34	0	1130364928	52	6641
2026-01-06 19:44:02.03	313.34	3.86	-40.0	-41.4	19.9	0.00e+00	2	34	0	1131413504	52	6730
2026-01-06 19:44:03.32	313.21	3.79	-40.1	-41.5	19.8	0.00e+00	0	33	0	1133510656	52	6806
2026-01-06 19:44:04.04	313.14	3.76	-40.0	-41.4	19.9	0.00e+00	0	33	0	1135607808	52	6712
2026-01-06 19:44:05.34	313.02	3.69	-40.0	-41.4	19.9	0.00e+00	0	33	0	1137704960	52	6745
2026-01-06 19:44:06.07	312.94	3.65	-40.1	-41.5	19.8	0.00e+00	0	34	0	1138753536	52	6789
2026-01-06 19:44:07.36	312.82	3.59	-39.9	-41.3	20.0	0.00e+00	74	33	0	1141899264	52	6649
2026-01-06 19:44:08.09	312.75	3.55	-40.1	-41.5	19.8	0.00e+00	0	33	0	1142947840	52	6787
2026-01-06 19:44:09.38	312.63	3.49	-40.3	-41.7	19.5	0.00e+00	74	33	0	1145044992	52	6973
2026-01-06 19:44:10.10	312.56	3.45	-40.4	-41.9	19.2	0.00e+00	92	33	0	1146093568	52	7132
2026-01-06 19:44:11.40	312.43	3.39	-40.1	-41.5	19.6	0.00e+00	0	33	0	1149239296	52	6846
2026-01-06 19:44:12.13	312.36	3.35	-40.3	-41.8	19.5	0.00e+00	92	33	0	1150287872	52	7014
2026-01-06 19:44:13.42	312.24	3.29	-40.2	-41.6	19.5	0.00e+00	0	33	0	1152385024	52	6919
2026-01-06 19:44:14.14	312.17	3.25	-40.2	-41.7	19.4	0.00e+00	0	34	0	1154482176	52	6961
2026-01-06 19:44:15.44	312.05	3.18	-40.4	-41.9	19.3	0.00e+00	90	33	0	1156579328	52	7124
2026-01-06 19:44:16.16	311.98	3.15	-40.6	-42.1	19.0	0.00e+00	0	33	0	1157627904	52	7303
2026-01-06 19:44:17.45	311.86	3.08	-40.6	-42.2	19.0	0.00e+00	92	33	0	1160773632	54	6549
2026-01-06 19:44:18.17	311.80	3.05	-40.6	-42.2	18.9	0.00e+00	0	33	0	1161822208	54	6564
2026-01-06 19:44:19.47	311.68	2.98	-44.4	-48.1	3.5	1.08e-01	9	34	0	1163919360	54	12993
2026-01-06 19:44:20.19	311.61	2.95	-47.7	-62.8	3.6	1.51e+00	0	34	104	1163919360	60	49699
2026-01-06 19:44:21.49	311.49	2.88	-48.2	-63.4	3.6	1.51e+00	0	34	104	1163919360	60	53383
2026-01-06 19:44:22.21	311.42	2.85	-48.4	-63.5	3.6	1.51e+00	0	34	104	1163919360	60	54366
2026-01-06 19:44:23.51	311.30	2.78	-48.5	-63.6	3.6	1.51e+00	0	34	104	1163919360	60	54927
2026-01-06 19:44:24.23	311.24	2.75	-48.6	-63.7	3.6	1.51e+00	0	34	104	1163919360	60	55593
2026-01-06 19:44:25.53	311.12	2.68	-48.6	-63.8	3.6	1.51e+00	0	34	104	1163919360	60	55742
2026-01-06 19:44:26.26	311.05	2.64	-48.6	-63.8	3.6	1.51e+00	0	34	104	1163919360	60	56197
2026-01-06 19:44:27.55	310.94	2.58	-48.6	-63.8	3.6	1.51e+00	0	34	104	1163919360	60	55845
2026-01-06 19:44:28.28	310.87	2.54	-48.6	-63.8	3.6	1.51e+00	0	34	104	1163919360	60	56247
2026-01-06 19:44:29.57	310.76	2.48	-48.7	-63.9	3.6	1.51e+00	0	34	104	1163919360	60	56487
2026-01-06 19:44:30.29	310.69	2.44	-48.5	-63.8	3.6	1.51e+00	0	34	104	1163919360	60	55956
2026-01-06 19:44:31.59	310.58	2.38	-48.5	-63.7	3.6	1.51e+00	0	34	104	1163919360	60	55387
2026-01-06 19:44:32.31	310.51	2.34	-48.5	-63.7	3.6	1.51e+00	0	34	104	1163919360	60	55292
