passes_logs/2026/01/06/R4.6S_Anadyr/R4.6S_Anadyr__20260106_063633_FENGYUN_3E_rec.log

#Pass ID: 20260106_063633_FENGYUN 3E
#Satellite: FENGYUN 3E
#Configuration: FENGYUN 3E
#almurnet v.1.7.20251203
#Start time: 2026-01-06 06:36:35

#Version: 2.2.20231116
#Station: R4.6S_Anadyr
#Location: 177.4865 lon 64.73178 lat
#TLE: 1 49008U 21062A   26005.56299987  .00000339  00000+0  18069-3 0  9991
#TLE: 2 49008  98.7472  10.8019 0001562 158.0357 202.0886 14.19884907233502

#Time	Az	El	Level	Level2	SNR	BER	BlckErr	Temp	State	Recorded	gain1	gain2
2026-01-06 06:36:35.95	211.39	0.13	-48.6	-59.4	3.5	8.45e-01	0	32	0	0	60	33620
2026-01-06 06:36:36.96	211.46	0.19	-48.4	-59.8	3.6	8.46e-01	0	34	104	0	60	35423
2026-01-06 06:36:37.97	211.52	0.24	-48.1	-59.8	3.6	8.44e-01	0	34	104	0	60	35402
2026-01-06 06:36:38.98	211.59	0.29	-48.6	-59.9	3.6	8.44e-01	0	34	104	0	60	35530
2026-01-06 06:36:39.99	211.66	0.34	-48.5	-59.9	3.6	8.44e-01	0	34	104	0	60	35620
2026-01-06 06:36:41.00	211.73	0.40	-48.1	-59.9	3.6	8.45e-01	0	34	104	0	60	35833
2026-01-06 06:36:42.01	211.79	0.45	-48.3	-59.9	3.6	8.45e-01	0	34	104	0	60	35898
2026-01-06 06:36:43.02	211.86	0.50	-48.4	-59.9	3.6	8.45e-01	0	34	104	0	60	35908
2026-01-06 06:36:44.03	211.93	0.55	-48.6	-59.9	3.6	8.45e-01	0	34	104	0	60	35790
2026-01-06 06:36:45.04	212.00	0.61	-48.6	-59.9	3.6	8.46e-01	0	34	104	0	60	35790
2026-01-06 06:36:46.05	212.07	0.66	-48.6	-59.9	3.6	8.45e-01	0	34	104	0	60	35620
2026-01-06 06:36:47.06	212.14	0.71	-48.5	-59.8	3.6	8.45e-01	0	34	104	0	60	35508
2026-01-06 06:36:48.07	212.21	0.77	-48.5	-59.8	3.6	8.46e-01	0	34	104	0	60	35271
2026-01-06 06:36:49.08	212.28	0.82	-48.4	-59.7	3.6	8.45e-01	0	34	104	0	60	35063
2026-01-06 06:36:50.09	212.35	0.87	-48.3	-59.6	3.6	8.45e-01	0	34	104	0	60	34601
2026-01-06 06:36:51.10	212.42	0.92	-48.1	-59.4	3.6	8.44e-01	0	34	104	0	60	33927
2026-01-06 06:36:52.11	212.49	0.98	-48.0	-59.2	3.6	8.44e-01	0	34	104	0	60	33029
2026-01-06 06:36:53.12	212.56	1.03	-47.5	-58.6	3.6	8.45e-01	0	34	104	0	60	30868
2026-01-06 06:36:54.13	212.63	1.08	-47.2	-58.4	3.6	8.46e-01	0	34	104	0	60	30219
2026-01-06 06:36:55.14	212.70	1.14	-47.2	-58.4	3.6	8.45e-01	0	34	104	0	60	29981
2026-01-06 06:36:56.15	212.78	1.19	-47.2	-58.4	3.6	8.45e-01	0	34	104	0	60	30042
2026-01-06 06:36:57.16	212.85	1.24	-47.2	-58.4	3.6	8.45e-01	0	34	104	0	60	29902
2026-01-06 06:36:58.17	212.92	1.30	-47.2	-58.4	3.6	8.45e-01	0	34	104	0	60	30126
2026-01-06 06:36:59.18	212.99	1.35	-47.2	-58.4	3.6	8.45e-01	0	34	104	0	60	29910
2026-01-06 06:37:00.19	213.06	1.41	-47.2	-58.3	3.6	8.46e-01	0	34	104	0	60	29825
2026-01-06 06:37:01.20	213.14	1.46	-47.2	-58.4	3.6	8.45e-01	0	34	104	0	60	30031
2026-01-06 06:37:02.21	213.21	1.51	-47.2	-58.3	3.6	8.46e-01	0	34	104	0	60	29769
2026-01-06 06:37:03.22	213.28	1.57	-47.2	-58.4	3.6	8.45e-01	0	34	104	0	60	29938
2026-01-06 06:37:04.23	213.36	1.62	-47.2	-58.4	3.6	8.44e-01	0	34	104	0	60	30214
2026-01-06 06:37:05.24	213.43	1.67	-47.2	-58.4	3.6	8.46e-01	0	34	104	0	60	30102
2026-01-06 06:37:06.25	213.51	1.73	-47.2	-58.5	3.6	8.46e-01	0	34	104	0	60	30261
2026-01-06 06:37:07.26	213.58	1.78	-47.2	-58.5	3.6	8.45e-01	0	34	104	0	60	30319
2026-01-06 06:37:08.26	213.65	1.84	-47.2	-58.5	3.6	8.46e-01	0	34	104	0	60	30250
2026-01-06 06:37:09.27	213.73	1.89	-47.2	-58.4	3.6	8.45e-01	0	34	104	0	60	30163
2026-01-06 06:37:10.28	213.80	1.95	-47.2	-58.4	3.6	8.44e-01	0	34	104	0	60	30001
2026-01-06 06:37:11.29	213.88	2.00	-47.2	-58.3	3.6	8.45e-01	0	34	104	0	60	29848
2026-01-06 06:37:12.30	213.95	2.05	-47.2	-58.2	3.6	8.45e-01	0	34	104	0	60	29308
2026-01-06 06:37:13.31	214.03	2.11	-47.2	-58.2	3.6	8.45e-01	0	34	104	0	60	29514
2026-01-06 06:37:14.32	214.11	2.16	-47.2	-58.1	3.6	8.45e-01	0	35	104	0	60	29164
2026-01-06 06:37:15.33	214.18	2.22	-47.2	-58.2	3.6	8.45e-01	0	34	104	0	60	29448
2026-01-06 06:37:16.34	214.26	2.27	-47.2	-58.3	3.6	8.44e-01	0	35	104	0	60	29572
2026-01-06 06:37:17.35	214.34	2.33	-47.2	-58.3	3.6	8.46e-01	0	35	104	0	60	29565
2026-01-06 06:37:18.36	214.41	2.38	-47.2	-58.2	3.6	8.45e-01	0	34	104	0	60	29484
2026-01-06 06:37:19.37	214.49	2.44	-47.2	-58.2	3.6	8.46e-01	0	35	104	0	60	29543
2026-01-06 06:37:20.37	214.57	2.49	-47.2	-58.4	3.6	8.45e-01	0	35	104	0	60	29980
2026-01-06 06:37:21.39	214.65	2.55	-47.2	-58.2	3.6	8.46e-01	0	35	104	0	60	29368
2026-01-06 06:37:22.39	214.72	2.60	-47.1	-57.5	3.6	8.45e-01	0	35	104	0	60	27181
2026-01-06 06:37:23.41	214.80	2.66	-47.0	-56.6	3.6	8.46e-01	0	35	104	0	60	24476
2026-01-06 06:37:24.42	214.88	2.71	-46.9	-55.5	3.8	8.43e-01	0	35	104	0	60	21655
2026-01-06 06:37:25.43	214.96	2.77	-47.0	-56.6	3.6	8.45e-01	0	35	104	0	60	24342
2026-01-06 06:37:26.44	215.04	2.82	-47.2	-57.9	3.6	8.46e-01	0	35	104	0	60	28267
2026-01-06 06:37:27.45	215.12	2.88	-46.8	-55.4	3.7	8.45e-01	0	35	104	0	60	21164
2026-01-06 06:37:28.46	215.20	2.94	-45.4	-49.9	7.6	2.43e-01	0	35	0	0	60	11287
2026-01-06 06:37:29.47	215.28	2.99	-43.3	-45.6	11.6	5.46e-03	0	35	0	7340032	60	6904
2026-01-06 06:37:30.48	215.36	3.05	-41.2	-42.9	14.4	6.80e-06	0	35	0	14680064	56	6333
2026-01-06 06:37:31.49	215.44	3.10	-39.4	-40.7	16.4	0.00e+00	0	35	0	22020096	52	6228
2026-01-06 06:37:32.50	215.53	3.16	-38.0	-39.2	17.8	0.00e+00	0	35	0	29360128	50	5844
2026-01-06 06:37:33.51	215.61	3.21	-38.2	-39.4	17.5	0.00e+00	0	35	0	35651584	50	6000
2026-01-06 06:37:34.52	215.69	3.27	-35.9	-36.9	19.4	0.00e+00	0	35	0	44040192	46	5642
2026-01-06 06:37:35.53	215.77	3.33	-38.1	-39.3	16.0	0.00e+00	0	35	0	51380224	48	6648
2026-01-06 06:37:36.54	215.85	3.38	-40.4	-41.8	17.4	3.82e-01	0	35	104	52428800	60	4441
2026-01-06 06:37:37.55	215.94	3.44	-38.1	-39.1	17.3	0.00e+00	0	35	0	56623104	46	7322
2026-01-06 06:37:38.56	216.02	3.49	-35.3	-36.0	20.5	6.52e-05	0	35	0	63963136	46	5122
2026-01-06 06:37:39.56	216.10	3.55	-37.6	-38.5	18.6	0.00e+00	0	35	0	71303168	50	5422
2026-01-06 06:37:40.57	216.18	3.61	-35.8	-36.6	19.8	0.00e+00	0	35	0	78643200	46	5462
2026-01-06 06:37:41.58	216.27	3.66	-35.6	-36.4	20.0	0.00e+00	0	35	0	85983232	44	6021
2026-01-06 06:37:42.59	216.35	3.72	-35.7	-36.5	19.9	0.00e+00	0	35	0	93323264	44	6050
2026-01-06 06:37:43.60	216.44	3.78	-35.3	-36.1	20.3	0.00e+00	0	35	0	99614720	44	5785
2026-01-06 06:37:44.61	216.52	3.83	-35.4	-36.2	20.1	0.00e+00	0	35	0	106954752	44	5890
2026-01-06 06:37:45.62	216.61	3.89	-35.1	-35.9	20.4	0.00e+00	0	35	0	115343360	44	5634
2026-01-06 06:37:46.64	216.69	3.95	-35.8	-36.6	19.9	0.00e+00	0	35	0	121634816	44	6147
2026-01-06 06:37:47.65	216.78	4.00	-35.7	-36.6	19.9	0.00e+00	0	35	0	128974848	44	6114
2026-01-06 06:37:48.66	216.87	4.06	-35.6	-36.4	20.3	0.00e+00	0	35	0	136314880	44	5971
2026-01-06 06:37:49.67	216.95	4.12	-35.5	-36.3	20.4	0.00e+00	0	35	0	143654912	44	5904
2026-01-06 06:37:50.67	217.04	4.17	-34.8	-35.5	20.8	0.00e+00	0	35	0	150994944	44	5414
2026-01-06 06:37:51.68	217.13	4.23	-34.8	-35.6	20.8	0.00e+00	0	35	0	158334976	44	5462
2026-01-06 06:37:52.69	217.21	4.29	-35.2	-36.0	20.6	0.00e+00	0	35	0	165675008	44	5706
2026-01-06 06:37:53.70	217.30	4.35	-35.2	-35.9	20.6	0.00e+00	0	35	0	173015040	44	5676
2026-01-06 06:37:54.71	217.39	4.40	-34.9	-35.7	20.8	0.00e+00	0	35	0	180355072	44	5527
2026-01-06 06:37:55.72	217.48	4.46	-35.1	-35.8	20.6	0.00e+00	0	35	0	187695104	44	5600
2026-01-06 06:37:56.73	217.57	4.52	-35.0	-35.7	20.8	0.00e+00	0	35	0	195035136	44	5557
2026-01-06 06:37:57.74	217.65	4.57	-34.8	-35.6	20.8	0.00e+00	0	35	0	202375168	42	6115
2026-01-06 06:37:58.75	217.74	4.63	-34.8	-35.6	20.9	0.00e+00	0	35	0	209715200	42	6108
2026-01-06 06:37:59.76	217.83	4.69	-34.5	-35.3	21.1	0.00e+00	0	35	0	217055232	42	5908
2026-01-06 06:38:00.77	217.92	4.75	-34.6	-35.3	21.1	0.00e+00	0	35	0	224395264	42	5935
2026-01-06 06:38:01.78	218.01	4.81	-34.6	-35.4	21.1	0.00e+00	0	35	0	231735296	42	5970
2026-01-06 06:38:02.78	218.10	4.86	-34.8	-35.5	21.0	0.00e+00	0	35	0	239075328	42	6097
2026-01-06 06:38:03.80	218.20	4.92	-34.7	-35.5	21.0	0.00e+00	0	35	0	246415360	42	6053
2026-01-06 06:38:04.80	218.29	4.98	-34.5	-35.3	21.0	0.00e+00	0	35	0	252706816	42	5915
2026-01-06 06:38:05.81	218.38	5.04	-34.6	-35.4	21.0	0.00e+00	0	35	0	260046848	42	5971
2026-01-06 06:38:06.82	218.47	5.09	-34.5	-35.3	21.2	0.00e+00	0	35	0	268435456	42	5900
2026-01-06 06:38:07.83	218.56	5.15	-34.4	-35.2	21.2	0.00e+00	0	35	0	274726912	42	5860
2026-01-06 06:38:08.84	218.66	5.21	-34.4	-35.2	21.3	0.00e+00	0	35	0	282066944	42	5858
2026-01-06 06:38:09.85	218.75	5.27	-34.2	-35.0	21.3	0.00e+00	0	35	0	289406976	42	5699
2026-01-06 06:38:10.86	218.84	5.33	-34.3	-35.1	21.3	0.00e+00	0	35	0	296747008	42	5775
2026-01-06 06:38:11.87	218.94	5.39	-34.3	-35.0	21.4	0.00e+00	0	35	0	304087040	42	5745
2026-01-06 06:38:12.88	219.03	5.44	-34.1	-34.9	21.5	0.00e+00	0	35	0	311427072	42	5648
2026-01-06 06:38:13.89	219.13	5.50	-34.1	-34.8	21.5	0.00e+00	0	35	0	318767104	42	5603
2026-01-06 06:38:14.90	219.22	5.56	-34.1	-34.8	21.6	0.00e+00	0	35	0	326107136	42	5599
2026-01-06 06:38:15.91	219.32	5.62	-33.9	-34.6	21.7	0.00e+00	0	35	0	333447168	42	5475
2026-01-06 06:38:16.92	219.41	5.68	-34.0	-34.7	21.6	0.00e+00	0	35	0	340787200	42	5543
2026-01-06 06:38:17.93	219.51	5.74	-33.9	-34.6	21.7	0.00e+00	0	35	0	348127232	42	5485
2026-01-06 06:38:18.93	219.60	5.80	-33.8	-34.6	21.8	0.00e+00	0	35	0	355467264	42	5447
2026-01-06 06:38:19.94	219.70	5.86	-33.9	-34.6	21.7	0.00e+00	0	35	0	362807296	40	6123
2026-01-06 06:38:20.95	219.80	5.91	-33.9	-34.6	21.6	0.00e+00	0	35	0	370147328	40	6172
2026-01-06 06:38:21.96	219.89	5.97	-33.9	-34.6	21.7	0.00e+00	0	35	0	376438784	40	6157
2026-01-06 06:38:22.97	219.99	6.03	-34.0	-34.7	21.6	0.00e+00	0	35	0	384827392	40	6210
2026-01-06 06:38:23.98	220.09	6.09	-33.8	-34.6	21.7	0.00e+00	0	35	0	392167424	40	6119
2026-01-06 06:38:24.99	220.19	6.15	-33.8	-34.5	21.7	0.00e+00	0	35	0	398458880	40	6065
2026-01-06 06:38:26.00	220.29	6.21	-33.9	-34.7	21.6	0.00e+00	0	35	0	405798912	40	6200
2026-01-06 06:38:27.01	220.39	6.27	-34.0	-34.7	21.6	0.00e+00	0	35	0	413138944	40	6199
2026-01-06 06:38:28.02	220.49	6.33	-33.9	-34.7	21.6	0.00e+00	0	35	0	420478976	40	6193
2026-01-06 06:38:29.03	220.59	6.39	-33.8	-34.6	21.7	0.00e+00	0	35	0	427819008	40	6122
2026-01-06 06:38:30.04	220.69	6.45	-33.8	-34.5	21.7	0.00e+00	0	35	0	435159040	40	6096
2026-01-06 06:38:31.05	220.79	6.51	-33.9	-34.6	21.9	0.00e+00	0	35	0	442499072	40	6164
2026-01-06 06:38:32.06	220.89	6.57	-33.6	-34.4	21.9	0.00e+00	0	35	0	449839104	40	5966
2026-01-06 06:38:33.07	220.99	6.63	-33.6	-34.3	21.8	0.00e+00	0	35	0	457179136	40	5955
2026-01-06 06:38:34.08	221.10	6.69	-33.7	-34.4	21.9	0.00e+00	0	35	0	464519168	40	5988
2026-01-06 06:38:35.09	221.20	6.75	-33.7	-34.5	21.8	0.00e+00	0	35	0	471859200	40	6045
2026-01-06 06:38:36.10	221.30	6.81	-34.0	-34.7	21.5	0.00e+00	0	35	0	479199232	40	6233
2026-01-06 06:38:37.11	221.41	6.87	-33.7	-34.5	21.8	0.00e+00	0	35	0	486539264	40	6055
2026-01-06 06:38:38.11	221.51	6.93	-33.7	-34.5	21.6	0.00e+00	0	35	0	493879296	40	6038
2026-01-06 06:38:39.12	221.61	6.99	-33.7	-34.5	21.7	0.00e+00	0	35	0	501219328	40	6041
2026-01-06 06:38:40.13	221.72	7.05	-33.8	-34.6	21.7	0.00e+00	0	35	0	508559360	40	6131
2026-01-06 06:38:41.14	221.82	7.11	-34.0	-34.7	21.5	0.00e+00	0	35	0	515899392	40	6241
2026-01-06 06:38:42.15	221.93	7.17	-33.8	-34.6	21.5	0.00e+00	0	35	0	523239424	40	6118
2026-01-06 06:38:43.16	222.03	7.23	-33.8	-34.6	21.6	0.00e+00	0	35	0	529530880	40	6106
2026-01-06 06:38:44.17	222.14	7.29	-33.9	-34.7	21.5	0.00e+00	0	35	0	537919488	40	6177
2026-01-06 06:38:45.18	222.25	7.35	-33.9	-34.7	21.5	0.00e+00	0	35	0	545259520	40	6183
2026-01-06 06:38:46.19	222.35	7.41	-34.0	-34.7	21.4	0.00e+00	0	35	0	551550976	40	6225
2026-01-06 06:38:47.20	222.46	7.47	-33.9	-34.7	21.5	0.00e+00	0	35	0	558891008	40	6180
2026-01-06 06:38:48.21	222.57	7.53	-33.8	-34.6	21.5	0.00e+00	0	35	0	566231040	40	6119
2026-01-06 06:38:49.22	222.68	7.59	-33.8	-34.6	21.5	0.00e+00	0	35	0	573571072	40	6135
2026-01-06 06:38:50.23	222.79	7.65	-33.6	-34.3	21.7	0.00e+00	0	35	0	580911104	40	5940
2026-01-06 06:38:51.24	222.90	7.72	-33.6	-34.3	21.7	0.00e+00	0	35	0	588251136	40	5949
2026-01-06 06:38:52.25	223.01	7.78	-33.7	-34.5	21.7	0.00e+00	0	35	0	595591168	40	6057
2026-01-06 06:38:53.26	223.12	7.84	-33.6	-34.3	21.8	0.00e+00	0	35	0	602931200	40	5933
2026-01-06 06:38:54.27	223.23	7.90	-33.6	-34.4	21.8	0.00e+00	0	35	0	610271232	40	5974
2026-01-06 06:38:55.27	223.34	7.96	-33.9	-34.7	21.5	0.00e+00	0	35	0	617611264	40	6199
2026-01-06 06:38:56.28	223.45	8.02	-33.8	-34.5	21.6	0.00e+00	0	35	0	624951296	40	6098
2026-01-06 06:38:57.29	223.56	8.08	-33.7	-34.4	21.7	0.00e+00	0	35	0	632291328	40	6032
2026-01-06 06:38:58.30	223.67	8.14	-33.8	-34.6	21.7	0.00e+00	0	35	0	639631360	40	6125
2026-01-06 06:38:59.31	223.79	8.20	-33.8	-34.5	21.6	0.00e+00	0	35	0	646971392	40	6077
2026-01-06 06:39:00.32	223.90	8.27	-33.9	-34.7	21.5	0.00e+00	0	35	0	654311424	40	6179
2026-01-06 06:39:01.33	224.02	8.33	-34.0	-34.7	21.4	0.00e+00	0	35	0	661651456	40	6222
2026-01-06 06:39:02.34	224.13	8.39	-34.0	-34.7	21.4	0.00e+00	0	35	0	668991488	40	6208
2026-01-06 06:39:03.35	224.24	8.45	-34.0	-34.7	21.4	0.00e+00	0	35	0	676331520	40	6232
2026-01-06 06:39:04.36	224.36	8.51	-34.2	-34.9	21.3	0.00e+00	0	35	0	682622976	40	6385
2026-01-06 06:39:05.37	224.48	8.57	-34.1	-34.9	21.4	0.00e+00	0	35	0	689963008	40	6351
2026-01-06 06:39:06.37	224.59	8.64	-34.2	-35.0	21.4	0.00e+00	0	35	0	697303040	40	6426
2026-01-06 06:39:07.39	224.71	8.70	-34.1	-34.9	21.5	0.00e+00	0	35	0	704643072	40	6346
2026-01-06 06:39:08.39	224.82	8.76	-34.0	-34.9	21.5	0.00e+00	0	35	0	711983104	40	6327
2026-01-06 06:39:09.41	224.94	8.82	-34.2	-35.1	21.4	0.00e+00	0	35	0	719323136	40	6488
2026-01-06 06:39:10.42	225.06	8.88	-34.0	-34.8	21.5	0.00e+00	0	35	0	726663168	40	6307
2026-01-06 06:39:11.43	225.18	8.95	-34.1	-34.9	21.6	0.00e+00	0	35	0	734003200	40	6352
2026-01-06 06:39:12.43	225.30	9.01	-34.1	-34.9	21.6	0.00e+00	0	35	0	741343232	40	6355
2026-01-06 06:39:13.44	225.42	9.07	-34.1	-34.9	21.6	0.00e+00	0	35	0	748683264	40	6349
2026-01-06 06:39:14.45	225.54	9.13	-34.2	-35.0	21.6	0.00e+00	0	35	0	756023296	40	6424
2026-01-06 06:39:15.46	225.66	9.19	-34.1	-34.8	21.7	0.00e+00	0	35	0	763363328	40	6313
2026-01-06 06:39:16.46	225.78	9.26	-34.1	-34.9	21.7	0.00e+00	0	35	0	770703360	40	6321
2026-01-06 06:39:17.47	225.90	9.32	-34.0	-34.7	21.8	0.00e+00	0	35	0	778043392	40	6240
2026-01-06 06:39:18.48	226.02	9.38	-34.0	-34.7	21.8	0.00e+00	0	35	0	785383424	40	6205
2026-01-06 06:39:19.49	226.15	9.44	-33.9	-34.6	21.9	0.00e+00	0	35	0	792723456	40	6161
2026-01-06 06:39:20.50	226.27	9.50	-34.0	-34.7	21.9	0.00e+00	0	35	0	800063488	40	6199
2026-01-06 06:39:21.51	226.39	9.57	-34.0	-34.7	21.9	0.00e+00	0	35	0	806354944	40	6214
2026-01-06 06:39:22.52	226.52	9.63	-33.9	-34.6	21.9	0.00e+00	0	35	0	814743552	40	6159
2026-01-06 06:39:23.53	226.64	9.69	-34.0	-34.7	22.0	0.00e+00	0	35	0	822083584	40	6223
2026-01-06 06:39:24.54	226.77	9.75	-34.1	-34.8	21.8	0.00e+00	0	35	0	828375040	40	6285
2026-01-06 06:39:25.55	226.89	9.82	-34.2	-34.9	21.7	0.00e+00	0	35	0	835715072	40	6343
2026-01-06 06:39:26.56	227.02	9.88	-33.9	-34.6	22.0	0.00e+00	0	35	0	843055104	40	6134
2026-01-06 06:39:27.56	227.14	9.94	-33.9	-34.6	22.0	0.00e+00	0	35	0	850395136	40	6107
2026-01-06 06:39:28.57	227.27	10.01	-34.0	-34.7	21.8	0.00e+00	0	35	0	857735168	40	6224
2026-01-06 06:39:29.58	227.40	10.07	-34.0	-34.8	21.8	0.00e+00	0	35	0	865075200	40	6273
2026-01-06 06:39:30.59	227.53	10.13	-34.0	-34.8	21.7	0.00e+00	0	35	0	872415232	40	6283
2026-01-06 06:39:31.60	227.66	10.19	-34.0	-34.7	21.8	0.00e+00	0	35	0	879755264	40	6239
2026-01-06 06:39:32.61	227.78	10.26	-34.0	-34.8	21.7	0.00e+00	0	35	0	887095296	40	6251
2026-01-06 06:39:33.62	227.91	10.32	-34.1	-34.9	21.7	0.00e+00	0	35	0	894435328	40	6337
2026-01-06 06:39:34.63	228.05	10.38	-34.0	-34.8	21.7	0.00e+00	0	35	0	901775360	40	6258
2026-01-06 06:39:35.64	228.18	10.45	-34.1	-34.8	21.6	0.00e+00	0	35	0	909115392	40	6294
2026-01-06 06:39:36.65	228.31	10.51	-34.1	-34.8	21.5	0.00e+00	0	35	0	916455424	40	6297
2026-01-06 06:39:37.66	228.44	10.57	-34.0	-34.7	21.6	0.00e+00	0	35	0	923795456	40	6238
2026-01-06 06:39:38.67	228.57	10.63	-34.0	-34.8	21.6	0.00e+00	0	35	0	931135488	40	6260
2026-01-06 06:39:39.68	228.71	10.70	-34.0	-34.8	21.5	0.00e+00	0	35	0	938475520	40	6265
2026-01-06 06:39:40.69	228.84	10.76	-34.0	-34.8	21.5	0.00e+00	0	35	0	945815552	40	6278
2026-01-06 06:39:41.69	228.97	10.82	-34.2	-35.0	21.4	0.00e+00	0	35	0	953155584	40	6407
2026-01-06 06:39:42.70	229.11	10.89	-34.1	-34.9	21.5	0.00e+00	0	35	0	959447040	40	6328
2026-01-06 06:39:43.71	229.24	10.95	-34.2	-35.0	21.3	0.00e+00	0	35	0	966787072	40	6396
2026-01-06 06:39:44.72	229.38	11.01	-34.1	-34.9	21.4	0.00e+00	0	35	0	975175680	40	6364
2026-01-06 06:39:45.73	229.51	11.08	-34.0	-34.8	21.4	0.00e+00	0	35	0	981467136	40	6275
2026-01-06 06:39:46.74	229.65	11.14	-34.2	-34.9	21.4	0.00e+00	0	35	0	988807168	40	6373
2026-01-06 06:39:47.75	229.79	11.20	-34.3	-35.0	21.3	0.00e+00	0	35	0	996147200	40	6443
2026-01-06 06:39:48.76	229.93	11.27	-33.9	-34.6	21.6	0.00e+00	0	35	0	1003487232	40	6161
2026-01-06 06:39:49.77	230.07	11.33	-33.8	-34.5	21.7	0.00e+00	0	35	0	1010827264	40	6087
2026-01-06 06:39:50.78	230.21	11.39	-33.8	-34.5	21.7	0.00e+00	0	35	0	1018167296	40	6089
2026-01-06 06:39:51.79	230.35	11.46	-33.9	-34.6	21.7	0.00e+00	0	35	0	1025507328	40	6133
2026-01-06 06:39:52.80	230.49	11.52	-33.8	-34.5	21.8	0.00e+00	0	35	0	1032847360	40	6081
2026-01-06 06:39:53.81	230.63	11.58	-33.8	-34.5	21.8	0.00e+00	0	35	0	1040187392	40	6080
2026-01-06 06:39:54.82	230.77	11.65	-33.6	-34.4	21.8	0.00e+00	0	35	0	1047527424	40	5968
2026-01-06 06:39:55.83	230.91	11.71	-33.8	-34.6	21.7	0.00e+00	0	35	0	1054867456	40	6107
2026-01-06 06:39:56.84	231.06	11.77	-33.7	-34.5	21.8	0.00e+00	0	35	0	1062207488	40	6051
2026-01-06 06:39:57.85	231.20	11.84	-33.8	-34.6	21.7	0.00e+00	0	35	0	1069547520	40	6125
2026-01-06 06:39:58.86	231.34	11.90	-33.8	-34.6	21.7	0.00e+00	0	35	0	1076887552	40	6116
2026-01-06 06:39:59.87	231.49	11.96	-33.8	-34.5	21.7	0.00e+00	0	35	0	1084227584	40	6100
2026-01-06 06:40:00.88	231.63	12.03	-33.9	-34.6	21.6	0.00e+00	0	35	0	1091567616	40	6132
2026-01-06 06:40:01.89	231.78	12.09	-33.7	-34.4	21.8	0.00e+00	0	35	0	1098907648	40	5985
2026-01-06 06:40:02.90	231.93	12.15	-33.4	-34.2	21.9	0.00e+00	0	35	0	1105199104	40	5842
2026-01-06 06:40:03.91	232.07	12.22	-33.5	-34.3	21.9	0.00e+00	0	35	0	1112539136	40	5900
2026-01-06 06:40:04.93	232.22	12.28	-33.4	-34.1	22.2	0.00e+00	0	35	0	1120927744	40	5778
2026-01-06 06:40:05.93	232.37	12.34	-33.2	-33.9	22.3	0.00e+00	0	35	0	1127219200	40	5651
2026-01-06 06:40:06.94	232.52	12.41	-33.3	-34.0	22.2	0.00e+00	0	35	0	1134559232	40	5713
2026-01-06 06:40:07.95	232.67	12.47	-33.4	-34.1	22.2	0.00e+00	0	35	0	1141899264	40	5787
2026-01-06 06:40:08.96	232.82	12.53	-33.3	-34.0	22.3	0.00e+00	0	35	0	1149239296	40	5716
2026-01-06 06:40:09.97	232.97	12.60	-33.3	-34.0	22.3	0.00e+00	0	35	0	1156579328	40	5714
2026-01-06 06:40:10.98	233.12	12.66	-33.4	-34.1	22.2	0.00e+00	0	35	0	1163919360	40	5779
2026-01-06 06:40:11.99	233.27	12.72	-33.3	-34.0	22.2	0.00e+00	0	35	0	1171259392	40	5759
2026-01-06 06:40:13.00	233.43	12.79	-33.3	-34.0	22.2	0.00e+00	0	35	0	1178599424	40	5747
2026-01-06 06:40:14.01	233.58	12.85	-33.3	-34.0	22.2	0.00e+00	0	35	0	1185939456	40	5737
2026-01-06 06:40:15.02	233.73	12.91	-33.3	-34.0	22.2	0.00e+00	0	35	0	1193279488	40	5709
2026-01-06 06:40:16.03	233.89	12.98	-33.2	-33.9	22.3	0.00e+00	0	35	0	1200619520	40	5666
2026-01-06 06:40:17.04	234.04	13.04	-33.1	-33.8	22.4	0.00e+00	0	35	0	1207959552	40	5613
2026-01-06 06:40:18.05	234.20	13.10	-33.1	-33.8	22.4	0.00e+00	0	35	0	1215299584	40	5615
2026-01-06 06:40:19.06	234.36	13.17	-32.9	-33.6	22.5	0.00e+00	0	35	0	1222639616	40	5489
2026-01-06 06:40:20.07	234.51	13.23	-33.0	-33.7	22.5	0.00e+00	0	35	0	1229979648	40	5542
2026-01-06 06:40:21.08	234.67	13.29	-32.8	-33.4	22.7	0.00e+00	0	35	0	1237319680	40	5373
2026-01-06 06:40:22.09	234.83	13.36	-32.7	-33.4	22.6	0.00e+00	0	36	0	1244659712	38	6023
2026-01-06 06:40:23.10	234.99	13.42	-32.7	-33.4	22.7	0.00e+00	0	35	0	1251999744	38	5968
2026-01-06 06:40:24.11	235.15	13.48	-32.6	-33.3	22.8	0.00e+00	0	35	0	1258291200	38	5942
2026-01-06 06:40:25.12	235.31	13.55	-32.7	-33.4	22.8	0.00e+00	0	36	0	1266679808	38	5990
2026-01-06 06:40:26.13	235.47	13.61	-32.4	-33.1	22.9	0.00e+00	0	35	0	1274019840	38	5800
2026-01-06 06:40:27.14	235.63	13.67	-32.4	-33.1	22.9	0.00e+00	0	35	0	1280311296	38	5774
2026-01-06 06:40:28.15	235.79	13.73	-32.3	-33.0	22.9	0.00e+00	0	35	0	1287651328	38	5735
2026-01-06 06:40:29.16	235.96	13.80	-32.4	-33.0	22.9	0.00e+00	0	35	0	1294991360	38	5745
2026-01-06 06:40:30.17	236.12	13.86	-32.2	-32.9	23.0	0.00e+00	0	35	0	1302331392	38	5664
2026-01-06 06:40:31.18	236.29	13.92	-32.2	-32.8	23.1	0.00e+00	0	35	0	1309671424	38	5624
2026-01-06 06:40:32.18	236.45	13.98	-32.0	-32.7	23.1	0.00e+00	0	35	0	1317011456	38	5519
2026-01-06 06:40:33.19	236.62	14.05	-32.0	-32.7	23.0	0.00e+00	0	35	0	1324351488	38	5538
2026-01-06 06:40:34.20	236.78	14.11	-31.9	-32.5	23.0	0.00e+00	0	35	0	1331691520	38	5431
2026-01-06 06:40:35.22	236.95	14.17	-31.9	-32.5	23.0	0.00e+00	0	35	0	1339031552	38	5439
2026-01-06 06:40:36.22	237.12	14.23	-31.9	-32.6	22.9	0.00e+00	0	35	0	1346371584	38	5456
2026-01-06 06:40:37.23	237.29	14.30	-31.8	-32.5	23.0	0.00e+00	0	35	0	1353711616	36	6048
2026-01-06 06:40:38.24	237.46	14.36	-31.8	-32.5	22.9	0.00e+00	0	35	0	1361051648	36	6060
2026-01-06 06:40:39.25	237.63	14.42	-31.7	-32.4	23.0	0.00e+00	0	36	0	1368391680	36	6007
2026-01-06 06:40:40.26	237.80	14.48	-31.7	-32.4	23.0	0.00e+00	0	35	0	1375731712	36	5978
2026-01-06 06:40:41.27	237.97	14.54	-31.7	-32.4	23.0	0.00e+00	0	35	0	1383071744	36	5997
2026-01-06 06:40:42.28	238.14	14.61	-31.8	-32.5	22.9	0.00e+00	0	35	0	1390411776	36	6081
2026-01-06 06:40:43.29	238.31	14.67	-31.8	-32.5	23.1	0.00e+00	0	35	0	1397751808	36	6063
2026-01-06 06:40:44.30	238.49	14.73	-31.4	-32.1	23.3	0.00e+00	0	35	0	1404043264	36	5799
2026-01-06 06:40:45.31	238.66	14.79	-31.5	-32.2	23.2	0.00e+00	0	36	0	1411383296	36	5873
2026-01-06 06:40:46.32	238.83	14.85	-31.4	-32.0	23.3	0.00e+00	0	35	0	1419771904	36	5747
2026-01-06 06:40:47.33	239.01	14.91	-31.4	-32.0	23.3	0.00e+00	0	35	0	1426063360	36	5733
2026-01-06 06:40:48.34	239.19	14.98	-31.4	-32.0	23.3	0.00e+00	0	35	0	1433403392	36	5738
2026-01-06 06:40:49.35	239.36	15.04	-31.2	-31.9	23.4	0.00e+00	0	35	0	1440743424	36	5638
2026-01-06 06:40:50.35	239.54	15.10	-31.1	-31.7	23.4	0.00e+00	0	35	0	1448083456	36	5563
2026-01-06 06:40:51.36	239.72	15.16	-31.1	-31.8	23.5	0.00e+00	0	35	0	1455423488	36	5587
2026-01-06 06:40:52.37	239.90	15.22	-31.1	-31.7	23.7	0.00e+00	0	35	0	1462763520	36	5545
2026-01-06 06:40:53.38	240.08	15.28	-30.9	-31.5	23.7	0.00e+00	0	35	0	1470103552	36	5438
2026-01-06 06:40:54.39	240.26	15.34	-30.8	-31.5	23.8	0.00e+00	0	35	0	1477443584	36	5387
2026-01-06 06:40:55.40	240.44	15.40	-30.8	-31.5	23.8	0.00e+00	0	35	0	1484783616	36	5387
2026-01-06 06:40:56.41	240.62	15.46	-30.8	-31.4	23.8	0.00e+00	0	35	0	1492123648	34	6014
2026-01-06 06:40:57.42	240.80	15.52	-30.7	-31.4	23.8	0.00e+00	0	35	0	1499463680	34	5977
2026-01-06 06:40:58.43	240.99	15.58	-30.7	-31.3	23.9	0.00e+00	0	35	0	1506803712	34	5919
2026-01-06 06:40:59.44	241.17	15.64	-30.7	-31.3	23.9	0.00e+00	0	35	0	1514143744	34	5927
2026-01-06 06:41:00.45	241.36	15.70	-30.6	-31.2	24.0	0.00e+00	0	35	0	1521483776	34	5868
2026-01-06 06:41:01.46	241.54	15.76	-30.6	-31.2	24.0	0.00e+00	0	35	0	1528823808	34	5874
2026-01-06 06:41:02.47	241.73	15.82	-30.6	-31.2	24.0	0.00e+00	0	35	0	1536163840	34	5896
2026-01-06 06:41:03.48	241.91	15.88	-30.7	-31.3	24.0	0.00e+00	0	35	0	1543503872	34	5918
2026-01-06 06:41:04.49	242.10	15.94	-30.7	-31.3	23.9	0.00e+00	0	35	0	1550843904	34	5959
2026-01-06 06:41:05.50	242.29	16.00	-30.6	-31.2	24.0	0.00e+00	0	35	0	1557135360	34	5896
2026-01-06 06:41:06.51	242.48	16.06	-30.6	-31.2	24.0	0.00e+00	0	36	0	1564475392	34	5893
2026-01-06 06:41:07.52	242.67	16.12	-30.6	-31.2	23.9	0.00e+00	0	36	0	1572864000	34	5849
2026-01-06 06:41:08.53	242.86	16.18	-30.6	-31.2	23.9	0.00e+00	0	35	0	1579155456	34	5888
2026-01-06 06:41:09.54	243.05	16.24	-30.6	-31.2	24.0	0.00e+00	0	35	0	1586495488	34	5856
2026-01-06 06:41:10.55	243.24	16.30	-30.6	-31.3	23.9	0.00e+00	0	35	0	1593835520	34	5907
2026-01-06 06:41:11.56	243.44	16.36	-30.4	-31.1	23.9	0.00e+00	0	35	0	1601175552	34	5778
2026-01-06 06:41:12.56	243.63	16.41	-30.7	-31.4	23.9	0.00e+00	0	35	0	1608515584	34	5972
2026-01-06 06:41:13.57	243.82	16.47	-30.6	-31.3	23.8	0.00e+00	0	35	0	1615855616	34	5916
2026-01-06 06:41:14.58	244.02	16.53	-30.6	-31.3	23.6	0.00e+00	0	35	0	1623195648	34	5927
2026-01-06 06:41:15.59	244.21	16.59	-30.6	-31.3	23.6	0.00e+00	0	35	0	1630535680	34	5927
2026-01-06 06:41:16.60	244.41	16.64	-30.6	-31.2	23.7	0.00e+00	0	35	0	1637875712	34	5874
2026-01-06 06:41:17.61	244.61	16.70	-30.5	-31.1	23.7	0.00e+00	0	35	0	1645215744	34	5810
2026-01-06 06:41:18.62	244.80	16.76	-30.6	-31.2	23.8	0.00e+00	0	35	0	1652555776	34	5878
2026-01-06 06:41:19.63	245.00	16.82	-30.5	-31.1	23.8	0.00e+00	0	35	0	1659895808	34	5795
2026-01-06 06:41:20.64	245.20	16.87	-30.5	-31.2	23.8	0.00e+00	0	35	0	1667235840	34	5833
2026-01-06 06:41:21.65	245.40	16.93	-30.4	-31.1	23.9	0.00e+00	0	35	0	1674575872	34	5777
2026-01-06 06:41:22.66	245.60	16.99	-30.5	-31.1	23.9	0.00e+00	0	35	0	1680867328	34	5798
2026-01-06 06:41:23.67	245.80	17.04	-30.4	-31.1	23.8	0.00e+00	0	35	0	1689255936	34	5772
2026-01-06 06:41:24.68	246.01	17.10	-30.4	-31.1	23.9	0.00e+00	0	35	0	1696595968	34	5769
2026-01-06 06:41:25.69	246.21	17.15	-30.4	-31.0	23.9	0.00e+00	0	35	0	1702887424	34	5756
2026-01-06 06:41:26.70	246.41	17.21	-30.3	-30.9	24.0	0.00e+00	0	35	0	1710227456	34	5679
2026-01-06 06:41:27.71	246.62	17.26	-30.2	-30.8	24.1	0.00e+00	0	35	0	1717567488	34	5613
2026-01-06 06:41:28.72	246.82	17.32	-30.2	-30.8	24.1	0.00e+00	0	35	0	1724907520	34	5612
2026-01-06 06:41:29.73	247.03	17.37	-30.1	-30.7	24.3	0.00e+00	0	35	0	1732247552	34	5564
2026-01-06 06:41:30.74	247.23	17.43	-30.2	-30.8	24.2	0.00e+00	0	35	0	1739587584	34	5581
2026-01-06 06:41:31.75	247.44	17.48	-30.3	-30.9	24.1	0.00e+00	0	35	0	1746927616	34	5659
2026-01-06 06:41:32.76	247.65	17.54	-30.4	-31.0	24.0	0.00e+00	0	35	0	1754267648	34	5756
2026-01-06 06:41:33.77	247.86	17.59	-30.5	-31.1	24.0	0.00e+00	0	35	0	1761607680	34	5782
2026-01-06 06:41:34.77	248.07	17.64	-30.4	-31.1	23.9	0.00e+00	0	35	0	1768947712	34	5775
2026-01-06 06:41:35.78	248.28	17.70	-30.5	-31.2	23.9	0.00e+00	0	35	0	1776287744	34	5839
2026-01-06 06:41:36.79	248.49	17.75	-30.4	-31.0	24.0	0.00e+00	0	35	0	1783627776	34	5757
2026-01-06 06:41:37.80	248.70	17.80	-30.2	-30.9	24.0	0.00e+00	0	35	0	1790967808	34	5651
2026-01-06 06:41:38.81	248.91	17.86	-30.3	-30.9	24.1	0.00e+00	0	36	0	1798307840	34	5667
2026-01-06 06:41:39.82	249.12	17.91	-30.1	-30.7	24.1	0.00e+00	0	36	0	1805647872	34	5566
2026-01-06 06:41:40.83	249.34	17.96	-30.1	-30.8	24.2	0.00e+00	0	36	0	1812987904	34	5583
2026-01-06 06:41:41.84	249.55	18.01	-30.3	-30.9	24.1	0.00e+00	0	35	0	1820327936	34	5681
2026-01-06 06:41:42.85	249.77	18.06	-30.3	-30.9	24.0	0.00e+00	0	36	0	1827667968	34	5677
2026-01-06 06:41:43.86	249.98	18.12	-30.5	-31.1	23.9	0.00e+00	0	36	0	1833959424	34	5791
2026-01-06 06:41:44.87	250.20	18.17	-30.4	-31.0	23.8	0.00e+00	0	36	0	1841299456	34	5744
2026-01-06 06:41:45.88	250.42	18.22	-30.4	-31.0	23.7	0.00e+00	0	36	0	1849688064	34	5743
2026-01-06 06:41:46.89	250.64	18.27	-30.5	-31.2	23.7	0.00e+00	0	35	0	1855979520	34	5857
2026-01-06 06:41:47.89	250.85	18.32	-30.4	-31.0	23.7	0.00e+00	0	35	0	1863319552	34	5746
2026-01-06 06:41:48.90	251.07	18.37	-30.2	-30.9	23.8	0.00e+00	0	35	0	1870659584	34	5636
2026-01-06 06:41:49.91	251.29	18.42	-30.1	-30.7	23.9	0.00e+00	0	35	0	1877999616	34	5551
2026-01-06 06:41:50.92	251.51	18.47	-30.1	-30.7	23.9	0.00e+00	0	35	0	1885339648	34	5530
2026-01-06 06:41:51.93	251.73	18.51	-30.2	-30.8	23.9	0.00e+00	0	35	0	1892679680	34	5606
2026-01-06 06:41:52.94	251.96	18.56	-30.1	-30.7	23.9	0.00e+00	0	35	0	1900019712	34	5535
2026-01-06 06:41:53.95	252.18	18.61	-30.1	-30.7	24.0	0.00e+00	0	35	0	1907359744	34	5550
2026-01-06 06:41:54.96	252.40	18.66	-30.2	-30.8	23.9	0.00e+00	0	35	0	1914699776	34	5623
2026-01-06 06:41:55.97	252.63	18.71	-30.0	-30.6	24.1	0.00e+00	0	35	0	1922039808	34	5492
2026-01-06 06:41:56.98	252.85	18.75	-30.0	-30.6	24.1	0.00e+00	0	35	0	1929379840	34	5502
2026-01-06 06:41:57.99	253.08	18.80	-29.9	-30.5	24.2	0.00e+00	0	35	0	1936719872	34	5414
2026-01-06 06:41:59.00	253.30	18.85	-29.9	-30.6	24.2	0.00e+00	0	35	0	1944059904	34	5447
2026-01-06 06:42:00.01	253.53	18.89	-29.9	-30.5	24.2	0.00e+00	0	35	0	1951399936	34	5413
2026-01-06 06:42:01.02	253.76	18.94	-30.0	-30.6	24.2	0.00e+00	0	36	0	1958739968	34	5479
2026-01-06 06:42:02.03	253.99	18.98	-30.0	-30.6	24.1	0.00e+00	0	36	0	1966080000	34	5488
2026-01-06 06:42:03.04	254.22	19.03	-30.1	-30.7	24.0	0.00e+00	0	35	0	1973420032	34	5532
2026-01-06 06:42:04.04	254.44	19.07	-30.1	-30.7	24.0	0.00e+00	0	35	0	1979711488	34	5527
2026-01-06 06:42:05.05	254.67	19.12	-30.1	-30.8	24.0	0.00e+00	0	35	0	1987051520	34	5590
2026-01-06 06:42:06.07	254.91	19.16	-30.2	-30.9	23.9	0.00e+00	0	36	0	1994391552	34	5656
2026-01-06 06:42:07.07	255.14	19.21	-30.1	-30.7	24.0	0.00e+00	0	36	0	2001731584	34	5552
2026-01-06 06:42:08.09	255.37	19.25	-30.1	-30.7	24.0	0.00e+00	0	35	0	2009071616	34	5545
2026-01-06 06:42:09.09	255.60	19.29	-30.0	-30.6	24.1	0.00e+00	0	36	0	2016411648	34	5468
2026-01-06 06:42:10.11	255.84	19.33	-30.0	-30.6	24.1	0.00e+00	0	35	0	2023751680	34	5483
2026-01-06 06:42:11.12	256.07	19.38	-30.1	-30.8	24.0	0.00e+00	0	35	0	2031091712	34	5583
2026-01-06 06:42:12.13	256.30	19.42	-30.2	-30.8	23.9	0.00e+00	0	36	0	2038431744	34	5602
2026-01-06 06:42:13.14	256.54	19.46	-30.1	-30.7	23.9	0.00e+00	0	36	0	2045771776	34	5559
2026-01-06 06:42:14.15	256.78	19.50	-30.2	-30.9	23.8	0.00e+00	0	35	0	2053111808	34	5659
2026-01-06 06:42:15.16	257.01	19.54	-30.1	-30.8	23.7	0.00e+00	0	36	0	2060451840	34	5575
2026-01-06 06:42:16.17	257.25	19.58	-30.1	-30.8	23.7	0.00e+00	0	36	0	2067791872	34	5597
2026-01-06 06:42:17.18	257.49	19.62	-30.0	-30.7	23.7	0.00e+00	0	35	0	2075131904	34	5529
2026-01-06 06:42:18.19	257.73	19.66	-30.0	-30.7	23.7	0.00e+00	0	35	0	2082471936	34	5511
2026-01-06 06:42:19.20	257.96	19.70	-29.9	-30.5	23.8	0.00e+00	0	36	0	2089811968	34	5431
2026-01-06 06:42:20.20	258.20	19.74	-29.8	-30.5	23.7	0.00e+00	0	36	0	2097152000	34	5415
2026-01-06 06:42:21.21	258.44	19.77	-29.8	-30.4	23.8	0.00e+00	0	35	0	2104492032	34	5375
2026-01-06 06:42:22.22	258.68	19.81	-29.9	-30.6	23.8	0.00e+00	0	36	0	2111832064	34	5443
2026-01-06 06:42:23.23	258.92	19.85	-30.1	-30.7	23.8	0.00e+00	0	36	0	2119172096	34	5563
2026-01-06 06:42:24.24	259.17	19.88	-30.0	-30.6	23.8	0.00e+00	0	36	0	2126512128	34	5488
2026-01-06 06:42:25.25	259.41	19.92	-30.0	-30.7	23.9	0.00e+00	0	36	0	2132803584	34	5520
2026-01-06 06:42:26.26	259.65	19.96	-30.0	-30.7	23.9	0.00e+00	0	35	0	2140143616	34	5524
2026-01-06 06:42:27.27	259.89	19.99	-30.1	-30.7	23.8	0.00e+00	0	36	0	2148532224	34	5542
2026-01-06 06:42:28.27	260.14	20.03	-30.0	-30.6	23.8	0.00e+00	0	35	0	2154823680	34	5467
2026-01-06 06:42:29.28	260.38	20.06	-30.0	-30.6	23.9	0.00e+00	0	36	0	2162163712	34	5500
2026-01-06 06:42:30.29	260.63	20.09	-29.8	-30.5	24.0	0.00e+00	0	36	0	2169503744	34	5381
2026-01-06 06:42:31.30	260.87	20.13	-29.7	-30.4	24.1	0.00e+00	0	35	0	2176843776	34	5327
2026-01-06 06:42:32.31	261.12	20.16	-29.8	-30.4	24.2	0.00e+00	0	35	0	2184183808	32	5981
2026-01-06 06:42:33.32	261.36	20.19	-29.8	-30.4	24.3	0.00e+00	0	36	0	2191523840	32	6015
2026-01-06 06:42:34.33	261.61	20.22	-29.8	-30.4	24.3	0.00e+00	0	36	0	2198863872	32	5986
2026-01-06 06:42:35.34	261.86	20.26	-29.8	-30.4	24.2	0.00e+00	0	35	0	2206203904	32	5999
2026-01-06 06:42:36.35	262.11	20.29	-29.8	-30.4	24.1	0.00e+00	0	36	0	2213543936	32	6022
2026-01-06 06:42:37.36	262.35	20.32	-29.9	-30.5	24.0	0.00e+00	0	36	0	2220883968	32	6083
2026-01-06 06:42:38.37	262.60	20.35	-29.9	-30.5	24.0	0.00e+00	0	36	0	2228224000	32	6099
2026-01-06 06:42:39.38	262.85	20.38	-29.9	-30.5	23.9	0.00e+00	0	36	0	2235564032	32	6101
2026-01-06 06:42:40.38	263.10	20.41	-29.9	-30.5	24.1	0.00e+00	0	36	0	2242904064	32	6101
2026-01-06 06:42:41.39	263.35	20.43	-29.7	-30.3	24.2	0.00e+00	0	35	0	2250244096	32	5953
2026-01-06 06:42:42.40	263.60	20.46	-29.7	-30.3	24.1	0.00e+00	0	36	0	2257584128	32	5963
2026-01-06 06:42:43.41	263.85	20.49	-29.8	-30.4	24.2	0.00e+00	0	35	0	2263875584	32	6004
2026-01-06 06:42:44.43	264.11	20.52	-29.7	-30.4	24.1	0.00e+00	0	35	0	2272264192	32	5982
2026-01-06 06:42:45.43	264.36	20.54	-29.7	-30.4	24.1	0.00e+00	0	36	0	2279604224	32	5973
2026-01-06 06:42:46.44	264.61	20.57	-29.8	-30.4	24.0	0.00e+00	0	36	0	2285895680	32	6004
2026-01-06 06:42:47.45	264.86	20.59	-29.8	-30.5	24.0	0.00e+00	0	35	0	2293235712	32	6055
2026-01-06 06:42:48.46	265.12	20.62	-29.9	-30.6	23.9	0.00e+00	0	36	0	2300575744	32	6139
2026-01-06 06:42:49.47	265.37	20.64	-29.8	-30.4	23.8	0.00e+00	0	36	0	2307915776	32	6028
2026-01-06 06:42:50.48	265.62	20.67	-29.9	-30.6	23.7	0.00e+00	0	35	0	2315255808	32	6106
2026-01-06 06:42:51.49	265.88	20.69	-29.8	-30.5	23.7	0.00e+00	0	35	0	2322595840	32	6037
2026-01-06 06:42:52.50	266.13	20.71	-30.0	-30.6	23.6	0.00e+00	0	35	0	2329935872	32	6150
2026-01-06 06:42:53.51	266.39	20.73	-29.8	-30.5	23.7	0.00e+00	0	35	0	2337275904	32	6048
2026-01-06 06:42:54.51	266.64	20.75	-29.6	-30.3	23.8	0.00e+00	0	35	0	2344615936	32	5914
2026-01-06 06:42:55.52	266.90	20.78	-29.7	-30.4	23.8	0.00e+00	0	35	0	2351955968	32	5991
2026-01-06 06:42:56.53	267.15	20.80	-29.6	-30.2	24.1	0.00e+00	0	36	0	2359296000	32	5877
2026-01-06 06:42:57.54	267.41	20.82	-29.6	-30.2	24.1	0.00e+00	0	36	0	2366636032	32	5870
2026-01-06 06:42:58.55	267.67	20.84	-29.6	-30.2	24.1	0.00e+00	0	35	0	2373976064	32	5865
2026-01-06 06:42:59.56	267.92	20.85	-29.7	-30.3	24.1	0.00e+00	0	36	0	2381316096	32	5944
2026-01-06 06:43:00.56	268.18	20.87	-29.6	-30.3	24.1	0.00e+00	0	35	0	2387607552	32	5925
2026-01-06 06:43:01.57	268.44	20.89	-29.6	-30.3	24.1	0.00e+00	0	36	0	2395996160	32	5909
2026-01-06 06:43:02.58	268.69	20.91	-29.7	-30.4	24.1	0.00e+00	0	36	0	2403336192	32	5974
2026-01-06 06:43:03.59	268.95	20.92	-29.7	-30.3	24.1	0.00e+00	0	36	0	2409627648	32	5928
2026-01-06 06:43:04.60	269.21	20.94	-29.8	-30.4	24.1	0.00e+00	0	36	0	2416967680	32	6030
2026-01-06 06:43:05.61	269.47	20.95	-29.8	-30.4	24.1	0.00e+00	0	36	0	2424307712	32	6003
2026-01-06 06:43:06.62	269.73	20.97	-29.8	-30.5	24.0	0.00e+00	0	35	0	2431647744	32	6043
2026-01-06 06:43:07.63	269.99	20.98	-29.8	-30.5	24.0	0.00e+00	0	36	0	2438987776	32	6052
2026-01-06 06:43:08.63	270.24	21.00	-29.9	-30.5	24.0	0.00e+00	0	35	0	2446327808	32	6091
2026-01-06 06:43:09.64	270.50	21.01	-29.9	-30.5	24.0	0.00e+00	0	35	0	2453667840	32	6084
2026-01-06 06:43:10.65	270.76	21.02	-29.9	-30.6	23.8	0.00e+00	0	35	0	2461007872	32	6145
2026-01-06 06:43:11.66	271.02	21.03	-29.9	-30.6	23.8	0.00e+00	0	36	0	2468347904	32	6120
2026-01-06 06:43:12.67	271.28	21.05	-30.0	-30.7	23.9	0.00e+00	0	36	0	2475687936	32	6198
2026-01-06 06:43:13.68	271.54	21.06	-30.0	-30.6	23.8	0.00e+00	0	36	0	2483027968	32	6145
2026-01-06 06:43:14.69	271.80	21.07	-29.9	-30.6	23.8	0.00e+00	0	35	0	2490368000	32	6117
2026-01-06 06:43:15.70	272.07	21.08	-29.9	-30.6	23.8	0.00e+00	0	35	0	2497708032	32	6112
2026-01-06 06:43:16.71	272.33	21.09	-29.7	-30.4	23.9	0.00e+00	0	36	0	2505048064	32	5970
2026-01-06 06:43:17.72	272.59	21.09	-29.9	-30.5	23.7	0.00e+00	0	35	0	2512388096	32	6096
2026-01-06 06:43:18.73	272.85	21.10	-30.1	-30.7	23.7	0.00e+00	0	35	0	2519728128	32	6223
2026-01-06 06:43:19.74	273.11	21.11	-29.9	-30.6	23.6	0.00e+00	0	35	0	2527068160	32	6132
2026-01-06 06:43:20.75	273.37	21.12	-29.9	-30.6	23.7	0.00e+00	0	36	0	2534408192	32	6145
2026-01-06 06:43:21.76	273.63	21.12	-29.8	-30.5	23.7	0.00e+00	0	35	0	2540699648	32	6072
2026-01-06 06:43:22.77	273.89	21.13	-29.6	-30.3	23.8	0.00e+00	0	35	0	2549088256	32	5920
2026-01-06 06:43:23.78	274.16	21.13	-29.6	-30.3	23.8	0.00e+00	0	35	0	2556428288	32	5897
2026-01-06 06:43:24.78	274.42	21.14	-29.7	-30.3	24.0	0.00e+00	0	35	0	2562719744	32	5927
2026-01-06 06:43:25.80	274.68	21.14	-29.7	-30.3	24.0	0.00e+00	0	35	0	2570059776	32	5928
2026-01-06 06:43:26.80	274.94	21.14	-29.7	-30.3	24.0	0.00e+00	0	35	0	2577399808	32	5929
2026-01-06 06:43:27.81	275.20	21.14	-29.6	-30.2	24.0	0.00e+00	0	35	0	2584739840	32	5878
2026-01-06 06:43:28.82	275.46	21.15	-29.6	-30.2	24.0	0.00e+00	0	35	0	2592079872	32	5862
2026-01-06 06:43:29.83	275.72	21.15	-29.7	-30.3	23.9	0.00e+00	0	35	0	2599419904	32	5935
2026-01-06 06:43:30.84	275.99	21.15	-29.6	-30.3	23.9	0.00e+00	0	36	0	2606759936	32	5927
2026-01-06 06:43:31.85	276.25	21.15	-29.6	-30.3	23.9	0.00e+00	0	35	0	2614099968	32	5901
2026-01-06 06:43:32.86	276.51	21.15	-29.7	-30.3	23.8	0.00e+00	0	36	0	2621440000	32	5959
2026-01-06 06:43:33.87	276.77	21.15	-29.6	-30.3	23.8	0.00e+00	0	36	0	2628780032	32	5914
2026-01-06 06:43:34.88	277.03	21.15	-29.7	-30.4	23.8	0.00e+00	0	36	0	2636120064	32	5970
2026-01-06 06:43:35.89	277.30	21.14	-29.7	-30.4	23.9	0.00e+00	0	36	0	2643460096	32	5978
2026-01-06 06:43:36.90	277.56	21.14	-29.7	-30.4	23.9	0.00e+00	0	35	0	2650800128	32	6009
2026-01-06 06:43:37.91	277.82	21.14	-29.7	-30.3	23.9	0.00e+00	0	36	0	2658140160	32	5946
2026-01-06 06:43:38.91	278.08	21.13	-29.9	-30.5	23.9	0.00e+00	0	36	0	2664431616	32	6084
2026-01-06 06:43:39.93	278.34	21.13	-30.0	-30.6	23.8	0.00e+00	0	35	0	2672820224	32	6166
2026-01-06 06:43:40.93	278.60	21.12	-30.0	-30.7	23.8	0.00e+00	0	35	0	2680160256	32	6190
2026-01-06 06:43:41.94	278.86	21.12	-30.0	-30.7	23.8	0.00e+00	0	35	0	2686451712	32	6203
2026-01-06 06:43:42.95	279.12	21.11	-30.0	-30.6	23.7	0.00e+00	0	35	0	2693791744	32	6173
2026-01-06 06:43:43.96	279.39	21.10	-29.9	-30.6	23.8	0.00e+00	0	36	0	2701131776	32	6132
2026-01-06 06:43:44.97	279.65	21.10	-30.0	-30.6	23.7	0.00e+00	0	35	0	2708471808	32	6154
2026-01-06 06:43:45.98	279.91	21.09	-30.0	-30.6	23.6	0.00e+00	0	36	0	2715811840	32	6143
2026-01-06 06:43:46.99	280.17	21.08	-29.9	-30.6	23.6	0.00e+00	0	36	0	2723151872	32	6156
2026-01-06 06:43:48.00	280.43	21.07	-30.1	-30.7	23.6	0.00e+00	0	35	0	2730491904	32	6231
2026-01-06 06:43:49.01	280.69	21.06	-29.9	-30.6	23.7	0.00e+00	0	35	0	2737831936	32	6144
2026-01-06 06:43:50.02	280.95	21.05	-29.9	-30.6	23.8	0.00e+00	0	36	0	2745171968	32	6128
2026-01-06 06:43:51.03	281.21	21.04	-29.7	-30.3	23.9	0.00e+00	0	35	0	2752512000	32	5942
2026-01-06 06:43:52.04	281.47	21.03	-29.7	-30.3	23.7	0.00e+00	0	35	0	2759852032	32	5954
2026-01-06 06:43:53.05	281.73	21.01	-29.8	-30.4	23.8	0.00e+00	0	36	0	2767192064	32	6010
2026-01-06 06:43:54.06	281.99	21.00	-29.8	-30.4	23.7	0.00e+00	0	35	0	2774532096	32	6016
2026-01-06 06:43:55.07	282.25	20.99	-29.8	-30.5	23.7	0.00e+00	0	35	0	2781872128	32	6035
2026-01-06 06:43:56.08	282.51	20.97	-29.9	-30.6	23.6	0.00e+00	0	36	0	2789212160	32	6156
2026-01-06 06:43:57.09	282.77	20.96	-29.8	-30.4	23.7	0.00e+00	0	36	0	2796552192	32	6031
2026-01-06 06:43:58.10	283.02	20.94	-29.7	-30.4	23.8	0.00e+00	0	36	0	2803892224	32	5985
2026-01-06 06:43:59.11	283.28	20.93	-29.7	-30.3	23.8	0.00e+00	0	36	0	2811232256	32	5936
2026-01-06 06:44:00.12	283.54	20.91	-29.6	-30.2	23.9	0.00e+00	0	35	0	2818572288	32	5857
2026-01-06 06:44:01.12	283.80	20.89	-29.6	-30.2	24.0	0.00e+00	0	35	0	2825912320	32	5883
2026-01-06 06:44:02.13	284.05	20.88	-29.6	-30.2	24.0	0.00e+00	0	36	0	2833252352	32	5855
2026-01-06 06:44:03.14	284.31	20.86	-29.8	-30.4	24.0	0.00e+00	0	36	0	2839543808	32	5990
2026-01-06 06:44:04.16	284.57	20.84	-29.6	-30.3	24.0	0.00e+00	0	36	0	2846883840	32	5913
2026-01-06 06:44:05.16	284.82	20.82	-29.7	-30.4	23.9	0.00e+00	0	36	0	2854223872	32	5976
2026-01-06 06:44:06.17	285.08	20.80	-29.8	-30.5	23.7	0.00e+00	0	36	0	2861563904	32	6046
2026-01-06 06:44:07.18	285.34	20.78	-29.7	-30.3	23.9	0.00e+00	0	36	0	2868903936	32	5959
2026-01-06 06:44:08.19	285.59	20.76	-29.7	-30.3	23.8	0.00e+00	0	35	0	2876243968	32	5928
2026-01-06 06:44:09.20	285.85	20.74	-29.7	-30.4	23.8	0.00e+00	0	35	0	2883584000	32	5991
2026-01-06 06:44:10.21	286.10	20.72	-29.8	-30.5	23.8	0.00e+00	0	36	0	2890924032	32	6045
2026-01-06 06:44:11.22	286.36	20.69	-29.9	-30.6	23.7	0.00e+00	0	36	0	2898264064	32	6109
2026-01-06 06:44:12.23	286.61	20.67	-29.9	-30.6	23.6	0.00e+00	0	36	0	2905604096	32	6160
2026-01-06 06:44:13.24	286.86	20.65	-30.1	-30.7	23.7	0.00e+00	0	36	0	2912944128	32	6231
2026-01-06 06:44:14.25	287.12	20.62	-30.0	-30.6	23.7	0.00e+00	0	36	0	2920284160	32	6168
2026-01-06 06:44:15.26	287.37	20.60	-30.0	-30.6	23.8	0.00e+00	0	36	0	2927624192	32	6167
2026-01-06 06:44:16.27	287.62	20.57	-30.0	-30.6	23.8	0.00e+00	0	36	0	2934964224	32	6170
2026-01-06 06:44:17.28	287.88	20.55	-29.9	-30.5	23.9	0.00e+00	0	35	0	2942304256	32	6093
2026-01-06 06:44:18.29	288.13	20.52	-29.8	-30.5	24.0	0.00e+00	0	35	0	2949644288	32	6047
2026-01-06 06:44:19.30	288.38	20.49	-29.8	-30.5	24.1	0.00e+00	0	35	0	2956984320	32	6052
2026-01-06 06:44:20.31	288.63	20.47	-29.8	-30.5	24.0	0.00e+00	0	36	0	2963275776	32	6053
2026-01-06 06:44:21.32	288.88	20.44	-30.0	-30.6	24.0	0.00e+00	0	35	0	2971664384	32	6171
2026-01-06 06:44:22.33	289.13	20.41	-29.8	-30.4	23.9	0.00e+00	0	36	0	2979004416	32	6010
2026-01-06 06:44:23.34	289.38	20.38	-29.9	-30.5	23.9	0.00e+00	0	36	0	2985295872	32	6097
2026-01-06 06:44:24.35	289.63	20.35	-30.0	-30.6	23.9	0.00e+00	0	35	0	2992635904	32	6150
2026-01-06 06:44:25.36	289.88	20.32	-30.0	-30.6	23.9	0.00e+00	0	35	0	2999975936	32	6143
2026-01-06 06:44:26.36	290.12	20.29	-30.0	-30.7	23.9	0.00e+00	0	36	0	3007315968	32	6177
2026-01-06 06:44:27.37	290.37	20.26	-30.0	-30.6	23.9	0.00e+00	0	36	0	3014656000	32	6141
2026-01-06 06:44:28.38	290.62	20.23	-29.9	-30.5	23.9	0.00e+00	0	36	0	3021996032	32	6101
2026-01-06 06:44:29.39	290.86	20.20	-29.9	-30.6	24.0	0.00e+00	0	36	0	3029336064	32	6131
2026-01-06 06:44:30.40	291.11	20.17	-29.8	-30.4	24.1	0.00e+00	0	35	0	3036676096	32	6003
2026-01-06 06:44:31.41	291.35	20.14	-29.8	-30.4	24.0	0.00e+00	0	36	0	3044016128	32	6006
2026-01-06 06:44:32.42	291.60	20.10	-29.9	-30.6	23.9	0.00e+00	0	35	0	3051356160	32	6115
2026-01-06 06:44:33.43	291.84	20.07	-29.9	-30.5	23.8	0.00e+00	0	35	0	3058696192	32	6071
2026-01-06 06:44:34.44	292.09	20.03	-29.9	-30.5	23.8	0.00e+00	0	35	0	3066036224	32	6097
2026-01-06 06:44:35.45	292.33	20.00	-30.0	-30.7	23.8	0.00e+00	0	36	0	3073376256	32	6196
2026-01-06 06:44:36.46	292.57	19.97	-30.1	-30.8	23.7	0.00e+00	0	35	0	3080716288	32	6281
2026-01-06 06:44:37.46	292.81	19.93	-30.2	-30.8	23.7	0.00e+00	0	36	0	3088056320	32	6304
2026-01-06 06:44:38.47	293.06	19.89	-30.2	-30.9	23.7	0.00e+00	0	35	0	3095396352	32	6365
2026-01-06 06:44:39.48	293.30	19.86	-30.2	-30.9	23.6	0.00e+00	0	36	0	3102736384	32	6322
2026-01-06 06:44:40.49	293.54	19.82	-30.2	-30.9	23.6	0.00e+00	0	36	0	3110076416	32	6324
2026-01-06 06:44:41.50	293.78	19.78	-30.2	-30.9	23.5	0.00e+00	0	36	0	3116367872	32	6318
2026-01-06 06:44:42.51	294.02	19.75	-30.2	-30.9	23.4	0.00e+00	0	35	0	3123707904	32	6362
2026-01-06 06:44:43.52	294.26	19.71	-30.3	-31.0	23.4	0.00e+00	0	36	0	3132096512	32	6451
2026-01-06 06:44:44.53	294.50	19.67	-30.3	-31.0	23.3	0.00e+00	0	35	0	3138387968	32	6459
2026-01-06 06:44:45.54	294.73	19.63	-30.3	-31.0	23.4	0.00e+00	0	35	0	3145728000	32	6418
2026-01-06 06:44:46.55	294.97	19.59	-30.4	-31.1	23.5	0.00e+00	0	36	0	3153068032	32	6497
2026-01-06 06:44:47.56	295.21	19.55	-30.4	-31.0	23.6	0.00e+00	0	35	0	3160408064	32	6452
2026-01-06 06:44:48.57	295.44	19.51	-30.1	-30.7	23.8	0.00e+00	0	36	0	3167748096	32	6235
2026-01-06 06:44:49.58	295.68	19.47	-30.1	-30.7	23.8	0.00e+00	0	35	0	3175088128	32	6221
2026-01-06 06:44:50.59	295.91	19.43	-30.1	-30.8	23.9	0.00e+00	0	36	0	3182428160	32	6257
2026-01-06 06:44:51.60	296.15	19.39	-30.3	-30.9	23.7	0.00e+00	0	36	0	3189768192	32	6372
2026-01-06 06:44:52.61	296.38	19.35	-30.2	-30.9	23.6	0.00e+00	0	36	0	3197108224	32	6332
2026-01-06 06:44:53.62	296.61	19.30	-30.2	-30.9	23.5	0.00e+00	0	36	0	3204448256	32	6333
2026-01-06 06:44:54.63	296.85	19.26	-30.3	-31.0	23.5	0.00e+00	0	36	0	3211788288	32	6401
2026-01-06 06:44:55.64	297.08	19.22	-30.2	-30.9	23.6	0.00e+00	0	36	0	3219128320	32	6322
2026-01-06 06:44:56.65	297.31	19.18	-30.2	-30.9	23.5	0.00e+00	0	35	0	3226468352	32	6337
2026-01-06 06:44:57.66	297.54	19.13	-30.4	-30.9	27.0	0.00e+00	0	36	0	3233808384	32	6318
2026-01-06 06:44:58.67	297.77	19.09	-30.3	-30.8	27.1	0.00e+00	0	36	0	3241148416	32	6295
2026-01-06 06:44:59.68	298.00	19.04	-30.5	-31.0	26.9	0.00e+00	0	35	0	3248488448	32	6396
2026-01-06 06:45:00.68	298.22	19.00	-30.4	-30.9	27.0	0.00e+00	0	36	0	3255828480	32	6355
2026-01-06 06:45:01.69	298.45	18.95	-30.7	-31.2	26.8	0.00e+00	0	36	0	3262119936	32	6547
2026-01-06 06:45:02.70	298.68	18.91	-30.5	-31.0	26.9	0.00e+00	0	36	0	3269459968	32	6420
2026-01-06 06:45:03.71	298.90	18.86	-30.7	-31.2	26.7	0.00e+00	0	35	0	3276800000	32	6576
2026-01-06 06:45:04.72	299.13	18.82	-30.8	-31.2	26.7	0.00e+00	0	36	0	3284140032	34	5893
2026-01-06 06:45:05.73	299.36	18.77	-30.7	-31.2	26.8	0.00e+00	0	35	0	3291480064	34	5876
2026-01-06 06:45:06.74	299.58	18.72	-30.7	-31.2	26.7	0.00e+00	0	36	0	3298820096	34	5848
2026-01-06 06:45:07.75	299.80	18.68	-30.7	-31.2	26.7	0.00e+00	0	36	0	3306160128	34	5880
2026-01-06 06:45:08.76	300.03	18.63	-30.9	-31.4	26.5	0.00e+00	0	36	0	3313500160	34	6014
2026-01-06 06:45:09.77	300.25	18.58	-30.8	-31.3	26.5	0.00e+00	0	35	0	3320840192	34	5953
2026-01-06 06:45:10.78	300.47	18.53	-30.7	-31.2	26.7	0.00e+00	0	36	0	3328180224	34	5876
2026-01-06 06:45:11.79	300.69	18.48	-30.9	-31.3	26.6	0.00e+00	0	36	0	3335520256	34	5964
2026-01-06 06:45:12.80	300.91	18.44	-30.7	-31.2	26.6	0.00e+00	0	36	0	3342860288	34	5871
2026-01-06 06:45:13.81	301.13	18.39	-30.6	-31.1	26.7	0.00e+00	0	36	0	3350200320	34	5797
2026-01-06 06:45:14.82	301.35	18.34	-30.5	-31.0	26.8	0.00e+00	0	35	0	3357540352	34	5727
2026-01-06 06:45:15.83	301.57	18.29	-30.4	-30.9	26.9	0.00e+00	0	36	0	3364880384	34	5647
2026-01-06 06:45:16.84	301.79	18.24	-30.5	-31.0	26.9	0.00e+00	0	35	0	3372220416	34	5720
2026-01-06 06:45:17.84	302.00	18.19	-30.5	-31.0	26.9	0.00e+00	0	36	0	3379560448	34	5744
2026-01-06 06:45:18.85	302.22	18.14	-30.7	-31.2	26.6	0.00e+00	0	36	0	3386900480	34	5856
2026-01-06 06:45:19.86	302.43	18.09	-30.8	-31.3	26.6	0.00e+00	0	36	0	3393191936	34	5913
2026-01-06 06:45:20.87	302.65	18.03	-30.8	-31.3	26.5	0.00e+00	0	36	0	3401580544	34	5935
2026-01-06 06:45:21.88	302.86	17.98	-30.7	-31.2	26.7	0.00e+00	0	36	0	3408920576	34	5870
2026-01-06 06:45:22.89	303.07	17.93	-30.8	-31.3	26.6	0.00e+00	0	35	0	3415212032	34	5926
2026-01-06 06:45:23.90	303.29	17.88	-30.9	-31.4	26.4	0.00e+00	0	36	0	3422552064	34	6007
2026-01-06 06:45:24.91	303.50	17.83	-31.0	-31.5	26.4	0.00e+00	0	36	0	3429892096	34	6054
2026-01-06 06:45:25.92	303.71	17.77	-31.0	-31.5	26.4	0.00e+00	0	36	0	3437232128	34	6067
2026-01-06 06:45:26.93	303.92	17.72	-31.0	-31.5	26.5	0.00e+00	0	36	0	3444572160	34	6059
2026-01-06 06:45:27.94	304.13	17.67	-31.1	-31.6	26.4	0.00e+00	0	36	0	3451912192	34	6148
2026-01-06 06:45:28.95	304.34	17.62	-31.0	-31.5	26.4	0.00e+00	0	36	0	3459252224	34	6085
2026-01-06 06:45:29.96	304.55	17.56	-31.1	-31.6	26.4	0.00e+00	0	35	0	3466592256	34	6121
2026-01-06 06:45:30.97	304.75	17.51	-30.9	-31.4	26.5	0.00e+00	0	35	0	3473932288	34	6033
2026-01-06 06:45:31.98	304.96	17.45	-31.0	-31.5	26.5	0.00e+00	0	35	0	3481272320	34	6060
2026-01-06 06:45:32.99	305.17	17.40	-31.0	-31.5	26.4	0.00e+00	0	35	0	3488612352	34	6075
2026-01-06 06:45:34.00	305.37	17.35	-31.0	-31.5	26.4	0.00e+00	0	36	0	3495952384	34	6050
2026-01-06 06:45:35.01	305.58	17.29	-31.1	-31.6	26.4	0.00e+00	0	36	0	3503292416	34	6132
2026-01-06 06:45:36.01	305.78	17.24	-31.0	-31.5	26.3	0.00e+00	0	36	0	3510632448	34	6081
2026-01-06 06:45:37.03	305.98	17.18	-31.0	-31.5	26.4	0.00e+00	0	36	0	3517972480	34	6075
2026-01-06 06:45:38.04	306.19	17.13	-31.1	-31.6	26.4	0.00e+00	0	35	0	3525312512	34	6127
2026-01-06 06:45:39.05	306.39	17.07	-30.9	-31.4	26.4	0.00e+00	0	36	0	3532652544	34	6021
2026-01-06 06:45:40.06	306.59	17.01	-30.9	-31.4	26.5	0.00e+00	0	36	0	3538944000	34	6018
2026-01-06 06:45:41.06	306.79	16.96	-31.1	-31.6	26.4	0.00e+00	0	36	0	3546284032	34	6114
2026-01-06 06:45:42.07	306.99	16.90	-30.9	-31.4	26.5	0.00e+00	0	36	0	3554672640	34	5984
2026-01-06 06:45:43.09	307.19	16.85	-30.7	-31.2	26.6	0.00e+00	0	35	0	3560964096	34	5839
2026-01-06 06:45:44.09	307.38	16.79	-30.7	-31.2	26.6	0.00e+00	0	36	0	3568304128	34	5840
2026-01-06 06:45:45.10	307.58	16.73	-30.7	-31.2	26.7	0.00e+00	0	36	0	3575644160	34	5841
2026-01-06 06:45:46.11	307.78	16.68	-30.9	-31.4	26.5	0.00e+00	0	36	0	3582984192	34	5967
2026-01-06 06:45:47.12	307.97	16.62	-30.9	-31.4	26.5	0.00e+00	0	36	0	3590324224	34	5994
2026-01-06 06:45:48.14	308.17	16.56	-30.9	-31.3	26.5	0.00e+00	0	35	0	3597664256	34	5961
2026-01-06 06:45:49.14	308.36	16.50	-31.0	-31.5	26.4	0.00e+00	0	36	0	3605004288	34	6057
2026-01-06 06:45:50.16	308.56	16.45	-31.1	-31.6	26.3	0.00e+00	0	36	0	3612344320	34	6119
2026-01-06 06:45:51.16	308.75	16.39	-31.1	-31.6	26.3	0.00e+00	0	36	0	3619684352	34	6119
2026-01-06 06:45:52.17	308.94	16.33	-31.2	-31.7	26.2	0.00e+00	0	35	0	3627024384	34	6204
2026-01-06 06:45:53.19	309.13	16.27	-31.3	-31.8	26.2	0.00e+00	0	36	0	3634364416	34	6280
2026-01-06 06:45:54.19	309.32	16.21	-31.4	-31.9	26.0	0.00e+00	0	36	0	3641704448	34	6360
2026-01-06 06:45:55.20	309.51	16.16	-31.5	-32.0	26.0	0.00e+00	0	36	0	3649044480	34	6424
2026-01-06 06:45:56.21	309.70	16.10	-31.6	-32.1	25.9	0.00e+00	0	36	0	3656384512	34	6473
2026-01-06 06:45:57.22	309.89	16.04	-31.6	-32.1	25.9	0.00e+00	0	36	0	3663724544	34	6483
2026-01-06 06:45:58.24	310.08	15.98	-31.6	-32.1	25.8	0.00e+00	0	36	0	3671064576	34	6522
2026-01-06 06:45:59.25	310.27	15.92	-31.4	-31.9	26.1	0.00e+00	0	36	0	3678404608	34	6362
2026-01-06 06:46:00.26	310.45	15.86	-31.5	-32.0	26.0	0.00e+00	0	36	0	3685744640	34	6456
2026-01-06 06:46:01.27	310.64	15.80	-31.4	-31.9	26.1	0.00e+00	0	36	0	3692036096	34	6325
2026-01-06 06:46:02.28	310.82	15.74	-31.4	-31.9	26.1	0.00e+00	0	36	0	3700424704	34	6368
2026-01-06 06:46:03.29	311.01	15.68	-31.4	-31.9	26.1	0.00e+00	0	36	0	3707764736	34	6373
2026-01-06 06:46:04.30	311.19	15.62	-31.3	-31.8	26.1	0.00e+00	0	36	0	3714056192	34	6247
2026-01-06 06:46:05.31	311.38	15.56	-31.2	-31.7	26.1	0.00e+00	0	36	0	3721396224	34	6220
2026-01-06 06:46:06.32	311.56	15.50	-31.3	-31.8	26.1	0.00e+00	0	36	0	3729784832	34	6247
2026-01-06 06:46:07.33	311.74	15.44	-31.3	-31.8	26.1	0.00e+00	0	36	0	3736076288	34	6247
2026-01-06 06:46:08.34	311.92	15.38	-31.3	-31.8	26.1	0.00e+00	0	36	0	3743416320	34	6296
2026-01-06 06:46:09.35	312.10	15.32	-31.3	-31.7	26.2	0.00e+00	0	36	0	3750756352	34	6238
2026-01-06 06:46:10.35	312.28	15.26	-31.3	-31.8	26.0	0.00e+00	0	36	0	3758096384	34	6294
2026-01-06 06:46:11.37	312.46	15.20	-31.4	-31.9	26.0	0.00e+00	0	36	0	3765436416	34	6387
2026-01-06 06:46:12.38	312.64	15.14	-31.6	-32.1	25.8	0.00e+00	0	36	0	3772776448	34	6491
2026-01-06 06:46:13.38	312.81	15.08	-31.6	-32.1	25.8	0.00e+00	0	36	0	3780116480	34	6510
2026-01-06 06:46:14.39	312.99	15.02	-31.8	-32.3	25.7	0.00e+00	0	36	0	3787456512	36	5937
2026-01-06 06:46:15.40	313.16	14.96	-31.8	-32.3	25.7	0.00e+00	0	36	0	3794796544	36	5940
2026-01-06 06:46:16.41	313.34	14.90	-31.8	-32.3	25.7	0.00e+00	0	36	0	3802136576	36	5928
2026-01-06 06:46:17.42	313.51	14.84	-31.8	-32.3	25.7	0.00e+00	0	36	0	3809476608	36	5930
2026-01-06 06:46:18.43	313.69	14.78	-31.9	-32.4	25.7	0.00e+00	0	36	0	3816816640	36	5984
2026-01-06 06:46:19.44	313.86	14.71	-31.9	-32.5	25.6	0.00e+00	0	36	0	3824156672	36	6039
2026-01-06 06:46:20.45	314.03	14.65	-31.9	-32.4	25.6	0.00e+00	0	36	0	3831496704	36	6003
2026-01-06 06:46:21.46	314.20	14.59	-31.9	-32.5	25.6	0.00e+00	0	36	0	3837788160	36	6036
2026-01-06 06:46:22.47	314.38	14.53	-31.9	-32.4	25.6	0.00e+00	0	36	0	3846176768	36	6027
2026-01-06 06:46:23.48	314.55	14.47	-32.0	-32.5	25.6	0.00e+00	0	36	0	3853516800	36	6080
2026-01-06 06:46:24.49	314.71	14.41	-32.0	-32.5	25.5	0.00e+00	0	36	0	3859808256	36	6045
2026-01-06 06:46:25.50	314.88	14.34	-31.9	-32.4	25.6	0.00e+00	0	36	0	3867148288	36	6000
2026-01-06 06:46:26.51	315.05	14.28	-31.8	-32.3	25.6	0.00e+00	0	36	0	3874488320	36	5955
2026-01-06 06:46:27.52	315.22	14.22	-31.8	-32.4	25.6	0.00e+00	0	36	0	3881828352	36	5974
2026-01-06 06:46:28.53	315.39	14.16	-31.8	-32.3	25.7	0.00e+00	0	36	0	3889168384	36	5941
2026-01-06 06:46:29.54	315.55	14.10	-31.9	-32.4	25.6	0.00e+00	0	36	0	3896508416	36	5974
2026-01-06 06:46:30.55	315.72	14.04	-31.5	-32.0	25.9	0.00e+00	0	36	0	3903848448	36	5753
2026-01-06 06:46:31.56	315.88	13.97	-31.7	-32.2	25.7	0.00e+00	0	36	0	3911188480	36	5869
2026-01-06 06:46:32.57	316.05	13.91	-31.7	-32.2	25.7	0.00e+00	0	36	0	3918528512	36	5851
2026-01-06 06:46:33.57	316.21	13.85	-31.8	-32.3	25.7	0.00e+00	0	36	0	3925868544	36	5915
2026-01-06 06:46:34.58	316.37	13.79	-32.0	-32.5	25.6	0.00e+00	0	36	0	3933208576	36	6048
2026-01-06 06:46:35.59	316.53	13.72	-31.9	-32.4	25.5	0.00e+00	0	36	0	3940548608	36	5989
2026-01-06 06:46:36.60	316.70	13.66	-32.0	-32.5	25.5	0.00e+00	0	36	0	3947888640	36	6059
2026-01-06 06:46:37.61	316.86	13.60	-32.1	-32.7	25.4	0.00e+00	0	36	0	3955228672	36	6175
2026-01-06 06:46:38.62	317.02	13.54	-32.2	-32.7	25.2	0.00e+00	0	36	0	3962568704	36	6239
2026-01-06 06:46:39.63	317.18	13.48	-32.2	-32.7	25.3	0.00e+00	0	36	0	3969908736	36	6206
2026-01-06 06:46:40.64	317.34	13.41	-32.3	-32.9	25.2	0.00e+00	0	36	0	3977248768	36	6327
2026-01-06 06:46:41.65	317.49	13.35	-32.3	-32.8	25.2	0.00e+00	0	36	0	3984588800	36	6274
2026-01-06 06:46:42.66	317.65	13.29	-32.4	-32.9	25.0	0.00e+00	0	36	0	3990880256	36	6390
2026-01-06 06:46:43.67	317.81	13.22	-32.4	-32.9	25.1	0.00e+00	0	36	0	3999268864	36	6329
2026-01-06 06:46:44.68	317.96	13.16	-32.2	-32.7	25.3	0.00e+00	0	36	0	4006608896	36	6238
2026-01-06 06:46:45.68	318.12	13.10	-32.1	-32.6	25.4	0.00e+00	0	36	0	4012900352	36	6144
2026-01-06 06:46:46.69	318.27	13.04	-32.0	-32.5	25.4	0.00e+00	0	36	0	4020240384	36	6038
2026-01-06 06:46:47.70	318.43	12.97	-31.9	-32.3	25.6	0.00e+00	0	36	0	4027580416	36	5963
2026-01-06 06:46:48.71	318.58	12.91	-31.8	-32.2	25.7	0.00e+00	0	36	0	4034920448	36	5890
2026-01-06 06:46:49.72	318.74	12.85	-31.8	-32.2	25.6	0.00e+00	0	36	0	4042260480	36	5895
2026-01-06 06:46:50.73	318.89	12.79	-31.6	-32.1	25.8	0.00e+00	0	36	0	4049600512	36	5792
2026-01-06 06:46:51.74	319.04	12.72	-31.7	-32.2	25.7	0.00e+00	0	36	0	4056940544	36	5845
2026-01-06 06:46:52.75	319.19	12.66	-31.8	-32.2	25.6	0.00e+00	0	36	0	4064280576	36	5892
2026-01-06 06:46:53.76	319.34	12.60	-31.9	-32.4	25.5	0.00e+00	0	36	0	4071620608	36	5998
2026-01-06 06:46:54.77	319.49	12.53	-32.0	-32.5	25.3	0.00e+00	0	36	0	4078960640	36	6096
2026-01-06 06:46:55.78	319.64	12.47	-32.1	-32.6	25.4	0.00e+00	0	36	0	4086300672	36	6128
2026-01-06 06:46:56.79	319.79	12.41	-32.2	-32.7	25.2	0.00e+00	0	36	0	4093640704	36	6204
2026-01-06 06:46:57.80	319.94	12.35	-32.1	-32.6	25.4	0.00e+00	0	36	0	4100980736	36	6173
2026-01-06 06:46:58.81	320.09	12.28	-32.0	-32.5	25.2	0.00e+00	0	36	0	4108320768	36	6085
2026-01-06 06:46:59.82	320.23	12.22	-32.2	-32.7	25.3	0.00e+00	0	36	0	4115660800	36	6199
2026-01-06 06:47:00.83	320.38	12.16	-32.2	-32.7	25.3	0.00e+00	0	36	0	4123000832	36	6215
2026-01-06 06:47:01.84	320.52	12.09	-32.4	-32.9	25.0	0.00e+00	0	36	0	4130340864	36	6333
2026-01-06 06:47:02.85	320.67	12.03	-32.5	-33.0	25.0	0.00e+00	0	36	0	4137680896	36	6422
2026-01-06 06:47:03.86	320.81	11.97	-32.5	-33.0	25.0	0.00e+00	0	36	0	4143972352	36	6435
2026-01-06 06:47:04.87	320.96	11.91	-32.7	-33.2	24.7	0.00e+00	0	36	0	4152360960	36	6595
2026-01-06 06:47:05.88	321.10	11.84	-32.5	-33.1	25.0	0.00e+00	0	36	0	4158652416	36	6466
2026-01-06 06:47:06.88	321.24	11.78	-32.7	-33.2	24.8	0.00e+00	0	36	0	4165992448	36	6573
2026-01-06 06:47:07.89	321.39	11.72	-32.6	-33.2	24.9	0.00e+00	0	36	0	4173332480	38	5840
2026-01-06 06:47:08.90	321.53	11.65	-32.7	-33.2	24.8	0.00e+00	0	36	0	4180672512	38	5855
2026-01-06 06:47:09.91	321.67	11.59	-32.6	-33.1	24.9	0.00e+00	0	36	0	4188012544	38	5782
2026-01-06 06:47:10.92	321.81	11.53	-32.6	-33.2	24.7	0.00e+00	0	36	0	4195352576	38	5845
2026-01-06 06:47:11.94	321.95	11.47	-32.5	-33.0	24.9	0.00e+00	0	36	0	4202692608	38	5754
2026-01-06 06:47:12.95	322.09	11.40	-32.6	-33.1	24.8	0.00e+00	0	36	0	4210032640	38	5802
2026-01-06 06:47:13.96	322.23	11.34	-32.5	-33.0	25.0	0.00e+00	0	36	0	4217372672	38	5739
2026-01-06 06:47:14.97	322.37	11.28	-32.7	-33.2	24.8	0.00e+00	0	36	0	4224712704	38	5864
2026-01-06 06:47:15.98	322.50	11.21	-32.5	-33.0	24.9	0.00e+00	0	36	0	4232052736	38	5719
2026-01-06 06:47:16.99	322.64	11.15	-32.4	-32.9	25.0	0.00e+00	0	36	0	4239392768	38	5642
2026-01-06 06:47:17.99	322.78	11.09	-32.5	-33.0	25.0	0.00e+00	0	36	0	4246732800	38	5726
2026-01-06 06:47:19.00	322.91	11.03	-32.5	-33.0	24.9	0.00e+00	0	36	0	4254072832	38	5716
2026-01-06 06:47:20.01	323.05	10.96	-32.5	-33.1	24.8	0.00e+00	0	36	0	4261412864	38	5775
2026-01-06 06:47:21.03	323.18	10.90	-32.5	-33.0	24.9	0.00e+00	0	36	0	4268752896	38	5746
2026-01-06 06:47:22.04	323.32	10.84	-32.6	-33.1	24.9	0.00e+00	0	36	0	4276092928	38	5787
2026-01-06 06:47:23.05	323.45	10.78	-32.7	-33.2	24.7	0.00e+00	0	36	0	4283432960	38	5895
2026-01-06 06:47:24.06	323.58	10.71	-32.6	-33.2	24.8	0.00e+00	0	36	0	4289724416	38	5842
2026-01-06 06:47:25.07	323.72	10.65	-32.8	-33.3	24.6	0.00e+00	0	36	0	4298113024	38	5931
2026-01-06 06:47:26.08	323.85	10.59	-32.8	-33.3	24.6	0.00e+00	0	36	0	4305453056	38	5942
2026-01-06 06:47:27.08	323.98	10.53	-32.9	-33.4	24.5	0.00e+00	0	36	0	4311744512	38	6019
2026-01-06 06:47:28.09	324.11	10.46	-32.9	-33.5	24.4	0.00e+00	0	36	0	4319084544	38	6055
2026-01-06 06:47:29.10	324.24	10.40	-32.9	-33.5	24.4	0.00e+00	0	36	0	4326424576	38	6064
2026-01-06 06:47:30.11	324.37	10.34	-33.1	-33.6	24.3	0.00e+00	0	36	0	4333764608	38	6155
2026-01-06 06:47:31.12	324.50	10.28	-33.1	-33.7	24.2	0.00e+00	0	36	0	4341104640	38	6184
2026-01-06 06:47:32.13	324.63	10.21	-33.1	-33.7	24.3	0.00e+00	0	36	0	4348444672	38	6178
2026-01-06 06:47:33.14	324.76	10.15	-33.0	-33.6	24.3	0.00e+00	0	36	0	4355784704	38	6113
2026-01-06 06:47:34.14	324.88	10.09	-33.0	-33.6	24.4	0.00e+00	0	36	0	4363124736	38	6104
2026-01-06 06:47:35.15	325.01	10.03	-33.0	-33.6	24.3	0.00e+00	0	36	0	4370464768	38	6120
2026-01-06 06:47:36.16	325.14	9.97	-33.0	-33.6	24.3	0.00e+00	0	36	0	4377804800	38	6123
2026-01-06 06:47:37.17	325.26	9.90	-32.9	-33.4	24.5	0.00e+00	0	36	0	4385144832	38	5993
2026-01-06 06:47:38.18	325.39	9.84	-32.9	-33.4	24.4	0.00e+00	0	36	0	4392484864	38	6031
2026-01-06 06:47:39.19	325.51	9.78	-32.9	-33.5	24.4	0.00e+00	0	36	0	4399824896	38	6040
2026-01-06 06:47:40.20	325.64	9.72	-32.8	-33.4	24.5	0.00e+00	0	36	0	4407164928	38	5971
2026-01-06 06:47:41.20	325.76	9.66	-32.9	-33.4	24.4	0.00e+00	0	36	0	4414504960	38	6010
2026-01-06 06:47:42.21	325.88	9.59	-32.9	-33.5	24.3	0.00e+00	0	36	0	4420796416	38	6053
2026-01-06 06:47:43.22	326.01	9.53	-33.0	-33.6	24.2	0.00e+00	0	36	0	4429185024	38	6123
2026-01-06 06:47:44.23	326.13	9.47	-33.1	-33.7	24.2	0.00e+00	0	36	0	4436525056	38	6177
2026-01-06 06:47:45.24	326.25	9.41	-33.1	-33.6	24.0	0.00e+00	0	36	0	4442816512	38	6152
2026-01-06 06:47:46.25	326.37	9.35	-33.1	-33.6	24.2	0.00e+00	0	36	0	4450156544	38	6136
2026-01-06 06:47:47.26	326.50	9.28	-33.1	-33.6	24.2	0.00e+00	0	36	0	4457496576	38	6137
2026-01-06 06:47:48.27	326.62	9.22	-33.1	-33.6	24.2	0.00e+00	0	36	0	4464836608	38	6157
2026-01-06 06:47:49.28	326.74	9.16	-33.2	-33.7	24.1	0.00e+00	0	36	0	4472176640	38	6238
2026-01-06 06:47:50.29	326.86	9.10	-33.1	-33.6	24.1	0.00e+00	0	36	0	4479516672	38	6147
2026-01-06 06:47:51.30	326.98	9.04	-33.1	-33.6	23.9	0.00e+00	0	36	0	4486856704	38	6149
2026-01-06 06:47:52.31	327.09	8.98	-33.0	-33.5	24.2	0.00e+00	0	36	0	4494196736	38	6096
2026-01-06 06:47:53.32	327.21	8.91	-33.0	-33.5	24.1	0.00e+00	0	36	0	4501536768	38	6100
2026-01-06 06:47:54.33	327.33	8.85	-33.0	-33.5	24.1	0.00e+00	0	36	0	4508876800	38	6059
2026-01-06 06:47:55.34	327.45	8.79	-33.0	-33.6	24.2	0.00e+00	0	36	0	4516216832	38	6105
2026-01-06 06:47:56.35	327.56	8.73	-33.0	-33.5	24.2	0.00e+00	0	36	0	4523556864	38	6096
2026-01-06 06:47:57.36	327.68	8.67	-33.1	-33.7	24.2	0.00e+00	0	36	0	4530896896	38	6175
2026-01-06 06:47:58.37	327.80	8.61	-33.1	-33.7	24.0	0.00e+00	0	36	0	4538236928	38	6182
2026-01-06 06:47:59.38	327.91	8.55	-33.1	-33.7	24.1	0.00e+00	0	36	0	4545576960	38	6187
2026-01-06 06:48:00.38	328.03	8.49	-33.1	-33.7	24.0	0.00e+00	0	36	0	4552916992	38	6200
2026-01-06 06:48:01.39	328.14	8.43	-33.3	-33.8	23.9	0.00e+00	0	36	0	4560257024	38	6316
2026-01-06 06:48:02.40	328.25	8.36	-33.2	-33.7	24.0	0.00e+00	0	36	0	4566548480	38	6242
2026-01-06 06:48:03.41	328.37	8.30	-33.2	-33.8	24.1	0.00e+00	0	36	0	4573888512	38	6251
2026-01-06 06:48:04.42	328.48	8.24	-33.2	-33.8	24.0	0.00e+00	0	36	0	4582277120	38	6252
2026-01-06 06:48:05.43	328.59	8.18	-33.4	-33.9	23.8	0.00e+00	0	36	0	4588568576	38	6372
