passes_logs/2026/01/06/R4.6S_Anadyr/R4.6S_Anadyr__20260106_155321_SUOMI_NPP_rec.log

#Pass ID: 20260106_155321_SUOMI NPP
#Satellite: SUOMI NPP
#Configuration: NPP
#almurnet v.1.7.20251203
#Start time: 2026-01-06 15:53:23

#Version: 2.2.20231116
#Station: R4.6S_Anadyr
#Location: 177.4865 lon 64.73178 lat
#TLE: 1 37849U 11061A   26004.95404768  .00000136  00000+0  85334-4 0  9991
#TLE: 2 37849  98.7801 307.0898 0002575  80.6707 279.4760 14.19522289735281

#Time	Az	El	Level	Level2	SNR	BER	BlckErr	Temp	State	Recorded	gain1	gain2
2026-01-06 15:53:23.85	23.53	0.16	-48.5	-61.0	3.5	1.51e+00	0	32	0	0	60	39353
2026-01-06 15:53:24.85	23.50	0.22	-48.5	-63.7	3.6	1.51e+00	0	33	104	0	60	55323
2026-01-06 15:53:25.86	23.48	0.28	-48.5	-63.7	3.6	1.51e+00	0	33	104	0	60	55220
2026-01-06 15:53:26.87	23.45	0.34	-48.5	-63.8	3.6	1.51e+00	0	33	104	0	60	55687
2026-01-06 15:53:27.88	23.43	0.40	-48.6	-63.7	3.6	1.51e+00	0	33	104	0	60	55521
2026-01-06 15:53:28.89	23.40	0.46	-48.6	-63.8	3.6	1.51e+00	0	33	104	0	60	55929
2026-01-06 15:53:29.90	23.38	0.52	-48.6	-63.7	3.6	1.51e+00	0	33	104	0	60	55640
2026-01-06 15:53:30.91	23.35	0.58	-48.6	-63.8	3.6	1.51e+00	0	33	104	0	60	55705
2026-01-06 15:53:31.92	23.32	0.64	-48.5	-63.7	3.6	1.51e+00	0	33	104	0	60	55232
2026-01-06 15:53:32.93	23.30	0.70	-48.5	-63.6	3.6	1.51e+00	0	33	104	0	60	54903
2026-01-06 15:53:33.94	23.27	0.76	-48.4	-63.5	3.6	1.51e+00	0	33	104	0	60	54218
2026-01-06 15:53:34.94	23.24	0.82	-48.3	-63.5	3.6	1.51e+00	0	33	104	0	60	54046
2026-01-06 15:53:35.95	23.22	0.88	-48.1	-63.3	3.6	1.51e+00	0	33	104	0	60	52815
2026-01-06 15:53:36.96	23.19	0.94	-47.9	-63.1	3.6	1.51e+00	0	34	104	0	60	51910
2026-01-06 15:53:37.97	23.16	1.01	-47.7	-63.0	3.6	1.51e+00	0	34	104	0	60	50775
2026-01-06 15:53:38.98	23.14	1.07	-47.5	-62.6	3.6	1.51e+00	0	34	104	0	60	48824
2026-01-06 15:53:39.99	23.11	1.13	-47.1	-62.2	3.6	1.51e+00	0	34	104	0	60	46821
2026-01-06 15:53:41.00	23.08	1.19	-47.1	-62.3	3.6	1.51e+00	0	34	104	0	60	46927
2026-01-06 15:53:42.01	23.05	1.25	-47.1	-62.3	3.6	1.51e+00	0	33	104	0	60	47036
2026-01-06 15:53:43.02	23.03	1.31	-47.1	-62.2	3.6	1.51e+00	0	34	104	0	60	46832
2026-01-06 15:53:44.03	23.00	1.37	-47.1	-62.3	3.6	1.51e+00	0	34	104	0	60	46960
2026-01-06 15:53:45.04	22.97	1.44	-47.1	-62.2	3.6	1.51e+00	0	34	104	0	60	46741
2026-01-06 15:53:46.05	22.94	1.50	-47.1	-62.2	3.6	1.51e+00	0	34	104	0	60	46591
2026-01-06 15:53:47.06	22.92	1.56	-47.1	-62.3	3.6	1.51e+00	0	34	104	0	60	46939
2026-01-06 15:53:48.07	22.89	1.62	-47.1	-62.3	3.6	1.51e+00	0	34	104	0	60	46882
2026-01-06 15:53:49.08	22.86	1.68	-47.1	-62.3	3.6	1.51e+00	0	34	104	0	60	46987
2026-01-06 15:53:50.09	22.83	1.75	-47.1	-62.3	3.6	1.51e+00	0	34	104	0	60	46951
2026-01-06 15:53:51.09	22.80	1.81	-47.1	-62.2	3.6	1.51e+00	0	34	104	0	60	46641
2026-01-06 15:53:52.10	22.77	1.87	-47.1	-62.0	3.6	1.51e+00	0	34	104	0	60	45729
2026-01-06 15:53:53.12	22.74	1.93	-47.1	-61.8	3.6	1.51e+00	0	34	104	0	60	44604
2026-01-06 15:53:54.13	22.71	2.00	-47.1	-61.8	3.6	1.51e+00	0	34	104	0	60	44696
2026-01-06 15:53:55.13	22.69	2.06	-47.1	-61.8	3.6	1.51e+00	0	34	104	0	60	44354
2026-01-06 15:53:56.14	22.66	2.12	-47.1	-61.8	3.6	1.51e+00	0	34	104	0	60	44705
2026-01-06 15:53:57.15	22.63	2.19	-47.1	-61.9	3.6	1.51e+00	0	34	104	0	60	45192
2026-01-06 15:53:58.17	22.60	2.25	-47.1	-62.2	3.6	1.51e+00	0	34	104	0	60	46362
2026-01-06 15:53:59.17	22.57	2.31	-47.1	-62.2	3.6	1.51e+00	0	34	104	0	60	46670
2026-01-06 15:54:00.18	22.54	2.38	-47.1	-62.3	3.6	1.51e+00	0	34	104	0	60	47092
2026-01-06 15:54:01.19	22.51	2.44	-47.1	-62.3	3.6	1.51e+00	0	34	104	0	60	46986
2026-01-06 15:54:02.20	22.48	2.50	-47.1	-62.1	3.6	1.51e+00	0	34	104	0	60	46249
2026-01-06 15:54:03.22	22.45	2.57	-47.1	-62.0	3.6	1.51e+00	0	34	104	0	60	45686
2026-01-06 15:54:04.23	22.42	2.63	-47.1	-61.8	3.6	1.51e+00	0	34	104	0	60	44537
2026-01-06 15:54:05.23	22.39	2.70	-47.1	-61.7	3.6	1.51e+00	0	34	104	0	60	44049
2026-01-06 15:54:06.24	22.35	2.76	-47.1	-61.5	3.6	1.51e+00	0	34	104	0	60	42834
2026-01-06 15:54:07.25	22.32	2.83	-47.0	-61.0	3.6	1.51e+00	0	34	104	0	60	40636
2026-01-06 15:54:08.26	22.29	2.89	-47.0	-60.9	3.6	1.51e+00	0	34	104	0	60	40127
2026-01-06 15:54:09.27	22.26	2.96	-47.0	-60.8	3.6	1.51e+00	0	34	104	0	60	39459
2026-01-06 15:54:10.28	22.23	3.02	-47.0	-60.9	3.6	1.51e+00	0	34	104	0	60	40197
2026-01-06 15:54:11.29	22.20	3.09	-47.1	-61.5	3.6	1.51e+00	0	34	104	0	60	42830
2026-01-06 15:54:12.30	22.17	3.15	-47.1	-62.1	3.6	1.51e+00	0	34	104	0	60	45947
2026-01-06 15:54:13.31	22.13	3.22	-47.1	-62.1	3.6	1.51e+00	0	34	104	0	60	46242
2026-01-06 15:54:14.32	22.10	3.28	-47.0	-60.7	3.6	1.51e+00	0	34	104	0	60	39252
2026-01-06 15:54:15.33	22.07	3.35	-46.9	-58.1	4.3	1.50e+00	13	34	104	0	60	29094
2026-01-06 15:54:16.34	22.04	3.41	-46.7	-55.3	5.4	5.12e-01	0	34	0	0	60	21138
2026-01-06 15:54:17.35	22.00	3.48	-46.3	-53.1	7.4	1.82e-01	0	34	0	2097152	60	16375
2026-01-06 15:54:18.36	21.97	3.55	-45.9	-51.7	8.9	5.70e-02	0	34	0	4194304	60	13956
2026-01-06 15:54:19.37	21.94	3.61	-45.7	-51.0	9.7	1.62e-02	0	34	0	6291456	60	12843
2026-01-06 15:54:20.38	21.91	3.68	-45.5	-50.6	10.1	7.50e-03	0	34	0	7340032	60	12253
2026-01-06 15:54:21.39	21.87	3.75	-45.6	-50.7	10.2	5.37e-03	0	34	0	9437184	60	12422
2026-01-06 15:54:22.40	21.84	3.81	-46.7	-55.6	3.4	6.25e-03	7	34	0	11534336	60	21848
2026-01-06 15:54:23.41	21.81	3.88	-47.2	-61.8	4.1	1.51e+00	0	34	104	11534336	60	44230
2026-01-06 15:54:24.42	21.77	3.95	-43.1	-45.7	12.2	0.00e+00	0	34	0	11534336	54	9882
2026-01-06 15:54:25.43	21.74	4.02	-47.0	-59.2	5.7	1.51e+00	2	34	104	11534336	60	32812
2026-01-06 15:54:26.44	21.70	4.08	-40.3	-41.7	20.0	2.96e-02	0	34	0	12582912	58	4955
2026-01-06 15:54:27.45	21.67	4.15	-43.2	-45.8	15.9	5.03e-05	0	34	0	14680064	60	7036
2026-01-06 15:54:28.46	21.63	4.22	-40.5	-42.0	19.1	0.00e+00	0	34	0	15728640	54	6412
2026-01-06 15:54:29.47	21.60	4.29	-39.4	-40.7	20.3	0.00e+00	60	34	0	17825792	52	6187
2026-01-06 15:54:30.47	21.56	4.35	-39.7	-41.0	20.2	0.00e+00	0	34	0	19922944	52	6439
2026-01-06 15:54:31.48	21.53	4.42	-39.4	-40.7	20.1	0.00e+00	0	34	0	22020096	52	6195
2026-01-06 15:54:32.49	21.49	4.49	-39.2	-40.5	20.6	0.00e+00	0	34	0	24117248	52	6067
2026-01-06 15:54:33.50	21.46	4.56	-39.0	-40.2	20.8	0.00e+00	0	34	0	26214400	52	5864
2026-01-06 15:54:34.51	21.42	4.63	-39.1	-40.4	20.6	0.00e+00	0	34	0	27262976	52	5967
2026-01-06 15:54:35.52	21.39	4.70	-38.8	-40.0	21.1	0.00e+00	0	34	0	29360128	52	5722
2026-01-06 15:54:36.53	21.35	4.77	-38.4	-39.5	21.4	0.00e+00	86	34	0	31457280	50	6040
2026-01-06 15:54:37.54	21.32	4.84	-38.5	-39.6	21.3	0.00e+00	0	34	0	33554432	50	6171
2026-01-06 15:54:38.55	21.28	4.90	-38.6	-39.8	21.2	0.00e+00	0	34	0	35651584	50	6259
2026-01-06 15:54:39.56	21.24	4.97	-38.4	-39.6	21.5	0.00e+00	0	34	0	36700160	50	6105
2026-01-06 15:54:40.57	21.21	5.04	-38.4	-39.5	21.4	0.00e+00	0	34	0	38797312	50	6074
2026-01-06 15:54:41.57	21.17	5.11	-38.7	-39.9	21.2	0.00e+00	0	34	0	40894464	50	6328
2026-01-06 15:54:42.59	21.13	5.18	-38.5	-39.6	21.4	0.00e+00	0	34	0	42991616	50	6171
2026-01-06 15:54:43.60	21.09	5.25	-38.5	-39.6	21.3	0.00e+00	63	34	0	45088768	50	6172
2026-01-06 15:54:44.60	21.06	5.32	-38.5	-39.6	21.4	0.00e+00	0	34	0	46137344	50	6148
2026-01-06 15:54:45.61	21.02	5.39	-38.7	-39.8	21.3	0.00e+00	92	34	0	48234496	50	6293
2026-01-06 15:54:46.62	20.98	5.47	-38.5	-39.6	21.5	0.00e+00	0	34	0	50331648	50	6163
2026-01-06 15:54:47.63	20.94	5.54	-38.5	-39.6	21.5	0.00e+00	0	34	0	52428800	50	6135
2026-01-06 15:54:48.64	20.90	5.61	-38.5	-39.7	21.4	0.00e+00	0	34	0	54525952	50	6196
2026-01-06 15:54:49.65	20.87	5.68	-38.6	-39.7	21.3	0.00e+00	0	34	0	55574528	50	6213
2026-01-06 15:54:50.66	20.83	5.75	-39.0	-40.2	21.1	0.00e+00	88	34	0	57671680	50	6558
2026-01-06 15:54:51.67	20.79	5.82	-39.1	-40.3	20.7	0.00e+00	0	34	0	59768832	50	6677
2026-01-06 15:54:52.68	20.75	5.89	-39.1	-40.3	21.0	0.00e+00	92	34	0	61865984	50	6670
2026-01-06 15:54:53.69	20.71	5.97	-38.7	-39.9	21.3	0.00e+00	0	34	0	63963136	50	6320
2026-01-06 15:54:54.69	20.67	6.04	-38.5	-39.6	21.5	0.00e+00	0	34	0	65011712	50	6114
2026-01-06 15:54:55.70	20.63	6.11	-38.4	-39.5	21.6	0.00e+00	0	34	0	67108864	50	6060
2026-01-06 15:54:56.71	20.59	6.18	-38.5	-39.6	21.5	0.00e+00	0	34	0	69206016	50	6135
2026-01-06 15:54:57.72	20.55	6.26	-38.6	-39.7	21.5	0.00e+00	2	34	0	71303168	50	6214
2026-01-06 15:54:58.73	20.51	6.33	-38.8	-39.9	21.2	0.00e+00	0	34	0	73400320	50	6355
2026-01-06 15:54:59.73	20.47	6.40	-38.5	-39.6	21.5	0.00e+00	92	34	0	74448896	50	6134
2026-01-06 15:55:00.74	20.43	6.47	-38.4	-39.5	21.6	0.00e+00	0	34	0	76546048	50	6089
2026-01-06 15:55:01.75	20.39	6.55	-38.5	-39.6	21.6	0.00e+00	12	34	0	78643200	50	6119
2026-01-06 15:55:02.76	20.34	6.62	-38.4	-39.5	21.6	0.00e+00	0	34	0	80740352	50	6036
2026-01-06 15:55:03.77	20.30	6.70	-38.4	-39.5	21.5	0.00e+00	0	34	0	82837504	50	6056
2026-01-06 15:55:04.77	20.26	6.77	-38.5	-39.6	21.5	0.00e+00	0	34	0	83886080	50	6135
2026-01-06 15:55:05.78	20.22	6.84	-38.4	-39.5	21.5	0.00e+00	0	34	0	85983232	50	6059
2026-01-06 15:55:06.79	20.18	6.92	-38.5	-39.7	21.5	0.00e+00	89	34	0	88080384	50	6174
2026-01-06 15:55:07.80	20.13	6.99	-38.4	-39.5	21.4	0.00e+00	0	34	0	90177536	50	6096
2026-01-06 15:55:08.81	20.09	7.07	-38.4	-39.5	21.4	0.00e+00	87	34	0	92274688	50	6085
2026-01-06 15:55:09.82	20.05	7.14	-38.6	-39.7	21.2	0.00e+00	0	34	0	94371840	50	6205
2026-01-06 15:55:10.83	20.01	7.22	-38.6	-39.7	21.1	0.00e+00	0	34	0	95420416	50	6213
2026-01-06 15:55:11.83	19.96	7.29	-38.5	-39.6	21.3	0.00e+00	5	34	0	97517568	50	6144
2026-01-06 15:55:12.84	19.92	7.37	-38.3	-39.4	21.6	0.00e+00	0	34	0	99614720	50	6004
2026-01-06 15:55:13.85	19.87	7.45	-38.3	-39.5	21.6	0.00e+00	90	34	0	101711872	50	6035
2026-01-06 15:55:14.86	19.83	7.52	-38.5	-39.6	21.5	0.00e+00	0	34	0	102760448	50	6156
2026-01-06 15:55:15.87	19.79	7.60	-38.3	-39.4	21.7	0.00e+00	90	34	0	104857600	50	5974
2026-01-06 15:55:16.87	19.74	7.67	-38.2	-39.2	22.0	0.00e+00	0	34	0	106954752	50	5872
2026-01-06 15:55:17.88	19.70	7.75	-38.3	-39.4	21.9	0.00e+00	0	34	0	109051904	50	5970
2026-01-06 15:55:18.89	19.65	7.83	-38.2	-39.3	22.0	0.00e+00	0	34	0	111149056	50	5900
2026-01-06 15:55:19.90	19.60	7.91	-38.1	-39.1	22.0	0.00e+00	0	34	0	112197632	50	5813
2026-01-06 15:55:20.91	19.56	7.98	-38.2	-39.2	21.9	0.00e+00	1	34	0	114294784	50	5884
2026-01-06 15:55:21.92	19.51	8.06	-38.1	-39.1	22.2	0.00e+00	0	34	0	116391936	50	5797
2026-01-06 15:55:22.93	19.47	8.14	-38.1	-39.2	22.1	0.00e+00	71	34	0	118489088	50	5864
2026-01-06 15:55:23.94	19.42	8.22	-38.2	-39.3	22.0	0.00e+00	0	34	0	120586240	50	5908
2026-01-06 15:55:24.95	19.37	8.29	-38.0	-39.0	22.2	0.00e+00	0	34	0	122683392	50	5756
2026-01-06 15:55:25.96	19.32	8.37	-38.0	-39.0	22.2	0.00e+00	0	34	0	123731968	50	5738
2026-01-06 15:55:26.97	19.28	8.45	-37.9	-39.0	22.1	0.00e+00	0	34	0	125829120	50	5710
2026-01-06 15:55:27.98	19.23	8.53	-38.1	-39.1	22.2	0.00e+00	68	34	0	127926272	50	5818
2026-01-06 15:55:28.99	19.18	8.61	-38.1	-39.1	22.2	0.00e+00	0	34	0	130023424	50	5806
2026-01-06 15:55:30.00	19.13	8.69	-37.8	-38.8	22.4	0.00e+00	39	34	0	132120576	50	5624
2026-01-06 15:55:31.00	19.08	8.77	-37.9	-38.9	22.3	0.00e+00	0	34	0	133169152	48	6337
2026-01-06 15:55:32.01	19.04	8.85	-37.8	-38.8	22.3	0.00e+00	0	34	0	135266304	48	6315
2026-01-06 15:55:33.02	18.99	8.93	-37.7	-38.7	22.5	0.00e+00	0	34	0	137363456	48	6183
2026-01-06 15:55:34.03	18.94	9.01	-37.7	-38.7	22.5	0.00e+00	0	34	0	139460608	48	6229
2026-01-06 15:55:35.04	18.89	9.09	-37.8	-38.8	22.4	0.00e+00	64	34	0	141557760	48	6264
2026-01-06 15:55:36.05	18.84	9.17	-37.6	-38.6	22.6	0.00e+00	0	34	0	142606336	48	6119
2026-01-06 15:55:37.06	18.79	9.25	-37.8	-38.8	22.5	0.00e+00	64	34	0	144703488	48	6251
2026-01-06 15:55:38.07	18.74	9.33	-37.8	-38.9	22.5	0.00e+00	0	34	0	146800640	48	6323
2026-01-06 15:55:39.08	18.68	9.42	-37.5	-38.5	22.6	0.00e+00	0	34	0	148897792	48	6091
2026-01-06 15:55:40.09	18.63	9.50	-37.4	-38.4	22.8	0.00e+00	0	34	0	150994944	48	6019
2026-01-06 15:55:41.10	18.58	9.58	-37.7	-38.7	22.6	0.00e+00	0	34	0	152043520	48	6204
2026-01-06 15:55:42.11	18.53	9.66	-37.5	-38.4	22.7	0.00e+00	7	34	0	154140672	48	6026
2026-01-06 15:55:43.12	18.48	9.74	-37.4	-38.4	22.8	0.00e+00	0	34	0	156237824	48	5997
2026-01-06 15:55:44.13	18.42	9.83	-37.5	-38.5	22.8	0.00e+00	92	34	0	158334976	48	6052
2026-01-06 15:55:45.13	18.37	9.91	-37.4	-38.4	22.7	0.00e+00	0	34	0	160432128	48	5988
2026-01-06 15:55:46.14	18.32	9.99	-37.3	-38.3	22.9	0.00e+00	92	34	0	161480704	48	5909
2026-01-06 15:55:47.15	18.27	10.08	-37.4	-38.4	22.8	0.00e+00	3	34	0	163577856	48	5987
2026-01-06 15:55:48.16	18.21	10.16	-37.4	-38.3	22.8	0.00e+00	0	34	0	165675008	48	5959
2026-01-06 15:55:49.17	18.16	10.24	-37.4	-38.4	22.7	0.00e+00	4	34	0	167772160	48	5986
2026-01-06 15:55:50.18	18.10	10.33	-37.4	-38.4	22.8	0.00e+00	0	34	0	169869312	48	5973
2026-01-06 15:55:51.19	18.05	10.41	-37.6	-38.5	22.6	0.00e+00	70	34	0	170917888	48	6103
2026-01-06 15:55:52.20	17.99	10.50	-37.6	-38.6	22.7	0.00e+00	0	34	0	173015040	48	6124
2026-01-06 15:55:53.21	17.94	10.58	-37.4	-38.3	22.9	0.00e+00	91	34	0	175112192	48	5940
2026-01-06 15:55:54.22	17.88	10.67	-37.4	-38.4	22.9	0.00e+00	0	34	0	177209344	48	6005
2026-01-06 15:55:55.23	17.82	10.76	-37.2	-38.2	23.0	0.00e+00	0	34	0	179306496	48	5833
2026-01-06 15:55:56.24	17.77	10.84	-37.3	-38.3	22.9	0.00e+00	0	34	0	180355072	48	5909
2026-01-06 15:55:57.25	17.71	10.93	-37.5	-38.5	22.7	0.00e+00	0	34	0	182452224	48	6075
2026-01-06 15:55:58.26	17.65	11.01	-37.7	-38.7	22.7	0.00e+00	4	34	0	184549376	48	6191
2026-01-06 15:55:59.27	17.59	11.10	-37.7	-38.7	22.7	0.00e+00	0	34	0	186646528	48	6186
2026-01-06 15:56:00.27	17.54	11.19	-37.5	-38.5	22.8	0.00e+00	87	34	0	188743680	48	6041
2026-01-06 15:56:01.28	17.48	11.27	-37.7	-38.7	22.6	0.00e+00	0	34	0	190840832	48	6237
2026-01-06 15:56:02.29	17.42	11.36	-37.9	-38.9	22.5	0.00e+00	0	34	0	191889408	48	6343
2026-01-06 15:56:03.30	17.36	11.45	-37.7	-38.7	22.6	0.00e+00	0	34	0	193986560	48	6204
2026-01-06 15:56:04.31	17.30	11.54	-37.5	-38.5	22.8	0.00e+00	0	34	0	196083712	48	6079
2026-01-06 15:56:05.32	17.24	11.63	-37.5	-38.4	22.8	0.00e+00	90	34	0	198180864	48	6031
2026-01-06 15:56:06.33	17.18	11.72	-37.2	-38.2	22.9	0.00e+00	0	34	0	200278016	48	5852
2026-01-06 15:56:07.34	17.12	11.80	-37.2	-38.2	23.1	0.00e+00	77	34	0	201326592	48	5830
2026-01-06 15:56:08.35	17.06	11.89	-37.2	-38.2	23.0	0.00e+00	0	34	0	203423744	48	5838
2026-01-06 15:56:09.36	17.00	11.98	-37.3	-38.2	23.0	0.00e+00	0	34	0	205520896	48	5875
2026-01-06 15:56:10.37	16.93	12.07	-37.3	-38.3	22.9	0.00e+00	0	34	0	207618048	48	5911
2026-01-06 15:56:11.38	16.87	12.16	-37.2	-38.2	23.1	0.00e+00	0	34	0	209715200	48	5846
2026-01-06 15:56:12.39	16.81	12.25	-37.2	-38.1	23.1	0.00e+00	58	34	0	210763776	48	5825
2026-01-06 15:56:13.40	16.75	12.35	-37.2	-38.1	23.2	0.00e+00	0	34	0	212860928	48	5792
2026-01-06 15:56:14.41	16.68	12.44	-37.1	-38.0	23.2	0.00e+00	92	34	0	214958080	48	5738
2026-01-06 15:56:15.42	16.62	12.53	-37.2	-38.1	23.2	0.00e+00	0	34	0	217055232	48	5783
2026-01-06 15:56:16.43	16.55	12.62	-37.1	-38.1	23.2	0.00e+00	38	34	0	219152384	48	5769
2026-01-06 15:56:17.44	16.49	12.71	-37.0	-38.0	23.3	0.00e+00	0	34	0	220200960	48	5699
2026-01-06 15:56:18.44	16.42	12.80	-37.2	-38.2	23.1	0.00e+00	0	34	0	222298112	48	5829
2026-01-06 15:56:19.45	16.36	12.90	-37.1	-38.1	23.1	0.00e+00	3	34	0	224395264	48	5767
2026-01-06 15:56:20.46	16.29	12.99	-37.2	-38.2	23.2	0.00e+00	0	34	0	226492416	48	5830
2026-01-06 15:56:21.47	16.23	13.08	-37.2	-38.1	23.1	0.00e+00	87	35	0	228589568	48	5794
2026-01-06 15:56:22.48	16.16	13.18	-37.1	-38.1	23.2	0.00e+00	0	34	0	229638144	48	5768
2026-01-06 15:56:23.49	16.09	13.27	-37.1	-38.0	23.3	0.00e+00	52	34	0	231735296	48	5760
2026-01-06 15:56:24.50	16.02	13.36	-37.1	-38.0	23.3	0.00e+00	0	34	0	233832448	48	5743
2026-01-06 15:56:25.51	15.95	13.46	-37.1	-38.1	23.1	0.00e+00	0	34	0	235929600	48	5763
2026-01-06 15:56:26.51	15.89	13.55	-37.1	-38.1	23.3	0.00e+00	2	34	0	238026752	48	5777
2026-01-06 15:56:27.52	15.82	13.65	-37.1	-38.1	23.2	0.00e+00	0	34	0	239075328	48	5764
2026-01-06 15:56:28.53	15.75	13.74	-37.2	-38.2	23.0	0.00e+00	0	34	0	241172480	48	5860
2026-01-06 15:56:29.54	15.68	13.84	-37.2	-38.2	23.1	0.00e+00	0	34	0	243269632	48	5861
2026-01-06 15:56:30.55	15.61	13.94	-37.1	-38.0	23.2	0.00e+00	47	34	0	245366784	48	5745
2026-01-06 15:56:31.56	15.53	14.03	-37.4	-38.3	23.1	0.00e+00	0	34	0	247463936	48	5953
2026-01-06 15:56:32.57	15.46	14.13	-37.3	-38.3	23.0	0.00e+00	0	34	0	248512512	48	5939
2026-01-06 15:56:33.58	15.39	14.23	-37.2	-38.1	23.2	0.00e+00	0	34	0	250609664	48	5795
2026-01-06 15:56:34.59	15.32	14.33	-37.3	-38.3	23.0	0.00e+00	0	34	0	252706816	48	5936
2026-01-06 15:56:35.60	15.24	14.42	-37.4	-38.3	23.1	0.00e+00	80	34	0	254803968	48	5960
2026-01-06 15:56:36.61	15.17	14.52	-37.2	-38.1	23.2	0.00e+00	0	34	0	256901120	48	5816
2026-01-06 15:56:37.62	15.10	14.62	-37.3	-38.2	23.0	0.00e+00	40	34	0	258998272	48	5860
2026-01-06 15:56:38.63	15.02	14.72	-37.5	-38.4	22.9	0.00e+00	0	34	0	260046848	48	6032
2026-01-06 15:56:39.64	14.95	14.82	-37.3	-38.3	23.2	0.00e+00	0	34	0	262144000	48	5909
2026-01-06 15:56:40.65	14.87	14.92	-37.2	-38.1	23.2	0.00e+00	0	34	0	264241152	48	5805
2026-01-06 15:56:41.66	14.79	15.02	-37.2	-38.1	23.3	0.00e+00	0	34	0	266338304	48	5815
2026-01-06 15:56:42.67	14.72	15.12	-37.3	-38.2	23.0	0.00e+00	12	34	0	268435456	48	5893
2026-01-06 15:56:43.68	14.64	15.22	-37.4	-38.4	23.1	0.00e+00	0	34	0	269484032	48	5977
2026-01-06 15:56:44.69	14.56	15.32	-37.3	-38.2	23.0	0.00e+00	53	34	0	271581184	48	5876
2026-01-06 15:56:45.70	14.48	15.42	-37.4	-38.4	23.0	0.00e+00	0	34	0	273678336	48	5988
2026-01-06 15:56:46.71	14.40	15.52	-37.3	-38.2	23.1	0.00e+00	0	34	0	275775488	48	5874
2026-01-06 15:56:47.72	14.32	15.63	-37.0	-37.9	23.4	0.00e+00	0	34	0	277872640	48	5667
2026-01-06 15:56:48.73	14.24	15.73	-37.3	-38.2	23.1	0.00e+00	0	34	0	278921216	48	5896
2026-01-06 15:56:49.74	14.16	15.83	-37.3	-38.2	23.2	0.00e+00	67	34	0	281018368	48	5868
2026-01-06 15:56:50.75	14.08	15.94	-37.3	-38.3	23.1	0.00e+00	0	34	0	283115520	48	5905
2026-01-06 15:56:51.76	14.00	16.04	-37.6	-38.6	22.9	0.00e+00	92	34	0	285212672	48	6151
2026-01-06 15:56:52.77	13.91	16.14	-37.4	-38.3	23.1	0.00e+00	0	34	0	287309824	48	5948
2026-01-06 15:56:53.77	13.83	16.25	-37.6	-38.6	22.9	0.00e+00	29	34	0	288358400	48	6136
2026-01-06 15:56:54.78	13.75	16.35	-37.5	-38.5	23.1	0.00e+00	0	34	0	290455552	48	6057
2026-01-06 15:56:55.79	13.66	16.46	-37.2	-38.1	23.3	0.00e+00	0	34	0	292552704	48	5799
2026-01-06 15:56:56.80	13.58	16.56	-37.6	-38.5	22.9	0.00e+00	0	35	0	294649856	48	6090
2026-01-06 15:56:57.81	13.49	16.67	-37.5	-38.5	22.9	0.00e+00	0	35	0	296747008	48	6077
2026-01-06 15:56:58.82	13.41	16.78	-37.6	-38.5	22.7	0.00e+00	92	34	0	297795584	48	6100
2026-01-06 15:56:59.83	13.32	16.88	-37.5	-38.4	23.1	0.00e+00	0	34	0	299892736	48	6008
2026-01-06 15:57:00.84	13.23	16.99	-37.5	-38.4	23.0	0.00e+00	80	34	0	301989888	48	6004
2026-01-06 15:57:01.85	13.14	17.10	-37.4	-38.3	23.1	0.00e+00	9	34	0	304087040	48	5956
2026-01-06 15:57:02.86	13.05	17.21	-37.4	-38.3	23.1	0.00e+00	0	34	0	306184192	48	5926
2026-01-06 15:57:03.87	12.96	17.31	-37.3	-38.3	23.1	0.00e+00	0	34	0	307232768	48	5898
2026-01-06 15:57:04.88	12.87	17.42	-37.3	-38.2	23.2	0.00e+00	0	34	0	309329920	48	5857
2026-01-06 15:57:05.89	12.78	17.53	-37.2	-38.1	23.3	0.00e+00	10	34	0	311427072	48	5814
2026-01-06 15:57:06.89	12.69	17.64	-37.4	-38.3	23.2	0.00e+00	0	34	0	313524224	48	5951
2026-01-06 15:57:07.90	12.60	17.75	-37.0	-37.9	23.3	0.00e+00	90	34	0	315621376	48	5680
2026-01-06 15:57:08.91	12.51	17.86	-37.0	-37.9	23.6	0.00e+00	0	34	0	316669952	48	5691
2026-01-06 15:57:09.92	12.41	17.97	-37.2	-38.1	23.2	0.00e+00	0	34	0	318767104	46	6524
2026-01-06 15:57:10.93	12.32	18.08	-37.1	-38.0	23.4	0.00e+00	0	34	0	320864256	46	6414
2026-01-06 15:57:11.94	12.22	18.20	-36.8	-37.7	23.6	0.00e+00	0	34	0	322961408	46	6197
2026-01-06 15:57:12.95	12.13	18.31	-37.1	-38.0	23.4	0.00e+00	7	34	0	325058560	46	6439
2026-01-06 15:57:13.96	12.03	18.42	-37.0	-38.0	23.4	0.00e+00	0	34	0	327155712	46	6395
2026-01-06 15:57:14.97	11.93	18.53	-37.0	-37.9	23.5	0.00e+00	63	34	0	328204288	46	6388
2026-01-06 15:57:15.98	11.83	18.65	-37.2	-38.2	23.2	0.00e+00	0	34	0	330301440	46	6548
2026-01-06 15:57:16.99	11.73	18.76	-37.1	-38.0	23.5	0.00e+00	0	34	0	332398592	46	6455
2026-01-06 15:57:18.00	11.63	18.88	-37.2	-38.1	23.3	0.00e+00	0	34	0	334495744	46	6529
2026-01-06 15:57:19.01	11.53	18.99	-37.0	-37.9	23.4	0.00e+00	0	34	0	336592896	46	6333
2026-01-06 15:57:20.02	11.43	19.11	-37.3	-38.2	23.2	0.00e+00	61	34	0	337641472	46	6594
2026-01-06 15:57:21.03	11.33	19.22	-37.1	-38.0	23.4	0.00e+00	0	34	0	339738624	46	6439
2026-01-06 15:57:22.04	11.23	19.34	-37.3	-38.2	23.2	0.00e+00	68	34	0	341835776	46	6574
2026-01-06 15:57:23.05	11.12	19.45	-37.3	-38.2	23.3	0.00e+00	0	34	0	343932928	46	6567
2026-01-06 15:57:24.06	11.02	19.57	-37.2	-38.1	23.4	0.00e+00	22	34	0	344981504	46	6499
2026-01-06 15:57:25.07	10.91	19.69	-36.9	-37.8	23.5	0.00e+00	0	34	0	347078656	46	6282
2026-01-06 15:57:26.07	10.81	19.81	-37.3	-38.2	23.2	0.00e+00	0	34	0	349175808	46	6605
2026-01-06 15:57:27.08	10.70	19.92	-37.4	-38.3	23.0	0.00e+00	5	34	0	351272960	46	6683
2026-01-06 15:57:28.09	10.59	20.04	-37.6	-38.5	22.9	0.00e+00	10	34	0	353370112	46	6833
2026-01-06 15:57:29.10	10.48	20.16	-37.6	-38.6	23.0	0.00e+00	65	34	0	355467264	48	6131
2026-01-06 15:57:30.11	10.37	20.28	-37.8	-38.8	22.7	0.00e+00	0	34	0	356515840	48	6299
2026-01-06 15:57:31.12	10.26	20.40	-38.1	-39.1	22.5	0.00e+00	90	34	0	358612992	48	6470
2026-01-06 15:57:32.13	10.15	20.52	-38.1	-39.1	22.4	0.00e+00	0	34	0	360710144	48	6496
2026-01-06 15:57:33.14	10.04	20.64	-38.0	-39.0	22.6	0.00e+00	0	35	0	362807296	48	6444
2026-01-06 15:57:34.15	9.92	20.77	-38.4	-39.4	22.3	0.00e+00	22	34	0	364904448	48	6731
2026-01-06 15:57:35.16	9.81	20.89	-38.1	-39.2	22.5	0.00e+00	12	35	0	365953024	48	6550
2026-01-06 15:57:36.17	9.70	21.01	-38.0	-39.0	22.6	0.00e+00	90	35	0	368050176	48	6398
2026-01-06 15:57:37.17	9.58	21.13	-37.9	-38.9	22.6	0.00e+00	0	34	0	370147328	48	6347
2026-01-06 15:57:38.19	9.46	21.26	-38.2	-39.2	22.5	0.00e+00	90	34	0	372244480	48	6569
2026-01-06 15:57:39.20	9.34	21.38	-38.0	-39.0	22.7	0.00e+00	0	34	0	374341632	48	6420
2026-01-06 15:57:40.21	9.22	21.51	-37.8	-38.8	22.5	0.00e+00	0	34	0	375390208	48	6250
2026-01-06 15:57:41.21	9.11	21.63	-37.6	-38.6	22.9	0.00e+00	0	34	0	377487360	48	6110
2026-01-06 15:57:42.22	8.98	21.75	-37.6	-38.5	23.0	0.00e+00	0	34	0	379584512	48	6082
2026-01-06 15:57:43.23	8.86	21.88	-37.4	-38.4	23.2	0.00e+00	1	35	0	381681664	48	5980
2026-01-06 15:57:44.24	8.74	22.01	-37.7	-38.7	23.0	0.00e+00	0	35	0	383778816	48	6189
2026-01-06 15:57:45.24	8.62	22.13	-38.0	-39.0	22.6	0.00e+00	43	35	0	384827392	48	6397
2026-01-06 15:57:46.26	8.49	22.26	-37.9	-38.8	22.8	0.00e+00	0	35	0	386924544	48	6305
2026-01-06 15:57:47.27	8.36	22.39	-38.2	-39.2	22.5	0.00e+00	0	34	0	389021696	48	6557
2026-01-06 15:57:48.28	8.24	22.52	-38.2	-39.2	22.5	0.00e+00	0	34	0	391118848	48	6604
2026-01-06 15:57:49.28	8.11	22.64	-38.3	-39.3	22.5	0.00e+00	0	34	0	393216000	48	6676
2026-01-06 15:57:50.29	7.98	22.77	-38.3	-39.3	22.3	0.00e+00	74	34	0	394264576	48	6659
2026-01-06 15:57:51.30	7.85	22.90	-38.2	-39.2	22.5	0.00e+00	0	34	0	396361728	48	6574
2026-01-06 15:57:52.31	7.72	23.03	-38.2	-39.2	22.5	0.00e+00	41	34	0	398458880	48	6562
2026-01-06 15:57:53.32	7.58	23.16	-38.2	-39.2	22.5	0.00e+00	0	34	0	400556032	48	6587
2026-01-06 15:57:54.33	7.45	23.30	-38.0	-38.9	22.8	0.00e+00	0	34	0	402653184	48	6378
2026-01-06 15:57:55.34	7.31	23.43	-38.0	-39.0	22.7	0.00e+00	0	34	0	403701760	48	6415
2026-01-06 15:57:56.35	7.18	23.56	-38.1	-39.1	22.6	0.00e+00	0	34	0	405798912	48	6533
2026-01-06 15:57:57.36	7.04	23.69	-38.0	-39.0	22.6	0.00e+00	64	34	0	407896064	48	6455
2026-01-06 15:57:58.37	6.90	23.83	-38.0	-39.0	22.7	0.00e+00	0	34	0	409993216	48	6434
2026-01-06 15:57:59.38	6.76	23.96	-38.1	-39.1	22.5	0.00e+00	80	34	0	412090368	48	6493
2026-01-06 15:58:00.39	6.62	24.09	-38.1	-39.1	22.7	0.00e+00	0	35	0	413138944	48	6523
2026-01-06 15:58:01.40	6.48	24.23	-38.2	-39.2	22.6	0.00e+00	73	34	0	415236096	48	6613
2026-01-06 15:58:02.41	6.33	24.36	-38.5	-39.6	22.3	0.00e+00	0	34	0	417333248	48	6865
2026-01-06 15:58:03.42	6.19	24.50	-38.5	-39.6	22.2	0.00e+00	0	34	0	419430400	48	6871
2026-01-06 15:58:04.43	6.04	24.64	-38.4	-39.4	22.4	0.00e+00	62	35	0	421527552	48	6744
2026-01-06 15:58:05.43	5.90	24.77	-38.8	-39.9	22.1	0.00e+00	0	34	0	423624704	50	6350
2026-01-06 15:58:06.44	5.75	24.91	-38.7	-39.8	22.0	0.00e+00	30	35	0	424673280	50	6299
2026-01-06 15:58:07.45	5.60	25.05	-38.6	-39.6	22.5	0.00e+00	0	34	0	426770432	50	6173
2026-01-06 15:58:08.46	5.44	25.18	-38.6	-39.7	22.2	0.00e+00	85	35	0	428867584	50	6183
2026-01-06 15:58:09.47	5.29	25.32	-38.6	-39.7	22.1	0.00e+00	0	35	0	430964736	50	6218
2026-01-06 15:58:10.48	5.14	25.46	-38.7	-39.7	22.2	0.00e+00	0	34	0	433061888	50	6240
2026-01-06 15:58:11.49	4.98	25.60	-38.5	-39.5	22.4	0.00e+00	0	34	0	434110464	50	6071
2026-01-06 15:58:12.50	4.82	25.74	-38.2	-39.2	22.7	0.00e+00	0	34	0	436207616	50	5831
2026-01-06 15:58:13.51	4.66	25.88	-38.3	-39.3	22.5	0.00e+00	16	34	0	438304768	50	5954
2026-01-06 15:58:14.52	4.50	26.02	-37.8	-38.8	23.0	0.00e+00	0	34	0	440401920	50	5574
2026-01-06 15:58:15.53	4.34	26.17	-38.1	-39.1	22.6	0.00e+00	92	34	0	442499072	48	6491
2026-01-06 15:58:16.54	4.18	26.31	-37.9	-38.9	22.8	0.00e+00	0	35	0	443547648	48	6333
2026-01-06 15:58:17.55	4.02	26.45	-37.9	-38.8	22.8	0.00e+00	0	34	0	445644800	48	6308
2026-01-06 15:58:18.56	3.85	26.59	-38.2	-39.2	22.6	0.00e+00	0	34	0	447741952	48	6580
2026-01-06 15:58:19.56	3.68	26.74	-38.4	-39.3	22.4	0.00e+00	0	34	0	449839104	48	6682
2026-01-06 15:58:20.57	3.51	26.88	-38.1	-39.1	22.6	0.00e+00	4	35	0	451936256	48	6508
2026-01-06 15:58:21.58	3.34	27.03	-38.3	-39.3	22.3	0.00e+00	0	34	0	452984832	48	6679
2026-01-06 15:58:22.59	3.17	27.17	-38.3	-39.3	22.5	0.00e+00	90	34	0	455081984	48	6659
2026-01-06 15:58:23.60	3.00	27.32	-38.3	-39.3	22.3	0.00e+00	0	35	0	457179136	48	6660
2026-01-06 15:58:24.61	2.82	27.46	-38.1	-39.0	22.7	0.00e+00	0	34	0	459276288	48	6459
2026-01-06 15:58:25.62	2.64	27.61	-38.0	-39.0	22.8	0.00e+00	0	35	0	461373440	48	6429
2026-01-06 15:58:26.63	2.47	27.76	-37.7	-38.7	23.1	0.00e+00	0	35	0	462422016	48	6188
2026-01-06 15:58:27.64	2.29	27.90	-37.6	-38.6	23.1	0.00e+00	58	34	0	464519168	48	6140
2026-01-06 15:58:28.65	2.10	28.05	-37.9	-38.9	23.1	0.00e+00	0	35	0	466616320	48	6359
2026-01-06 15:58:29.66	1.92	28.20	-37.7	-38.7	22.7	0.00e+00	92	35	0	468713472	48	6205
2026-01-06 15:58:30.67	1.73	28.35	-38.0	-39.0	22.8	0.00e+00	0	34	0	470810624	48	6395
2026-01-06 15:58:31.67	1.55	28.50	-38.2	-39.2	22.6	0.00e+00	0	35	0	471859200	48	6555
2026-01-06 15:58:32.68	1.36	28.65	-38.4	-39.5	22.3	0.00e+00	0	34	0	473956352	48	6776
2026-01-06 15:58:33.69	1.17	28.80	-38.6	-39.7	22.1	0.00e+00	0	34	0	476053504	48	6967
2026-01-06 15:58:34.70	0.97	28.95	-38.9	-40.0	22.1	0.00e+00	7	34	0	478150656	50	6399
2026-01-06 15:58:35.71	0.78	29.10	-38.9	-40.0	22.0	0.00e+00	0	35	0	480247808	50	6393
2026-01-06 15:58:36.72	0.58	29.25	-38.9	-40.0	22.1	0.00e+00	70	35	0	481296384	50	6396
2026-01-06 15:58:37.73	0.38	29.40	-38.4	-39.4	22.5	0.00e+00	0	35	0	483393536	50	6007
2026-01-06 15:58:38.74	0.18	29.55	-38.4	-39.4	22.3	0.00e+00	27	35	0	485490688	50	5984
2026-01-06 15:58:39.75	359.98	29.71	-38.3	-39.3	22.4	0.00e+00	0	35	0	487587840	50	5952
2026-01-06 15:58:40.76	359.78	29.86	-38.5	-39.5	22.4	0.00e+00	0	35	0	489684992	50	6064
2026-01-06 15:58:41.77	359.57	30.01	-38.4	-39.4	22.4	0.00e+00	11	35	0	491782144	50	5966
2026-01-06 15:58:42.78	359.36	30.17	-38.3	-39.3	22.4	0.00e+00	0	35	0	492830720	50	5954
2026-01-06 15:58:43.79	359.15	30.32	-38.4	-39.5	22.4	0.00e+00	38	35	0	494927872	50	6034
2026-01-06 15:58:44.80	358.94	30.48	-39.1	-40.2	21.8	0.00e+00	0	35	0	497025024	50	6584
2026-01-06 15:58:45.80	358.73	30.63	-39.1	-40.2	21.8	0.00e+00	92	35	0	499122176	50	6578
2026-01-06 15:58:46.81	358.51	30.79	-39.5	-40.7	21.4	0.00e+00	0	35	0	501219328	50	6970
2026-01-06 15:58:47.82	358.29	30.94	-39.5	-40.7	21.3	0.00e+00	0	35	0	502267904	52	6206
2026-01-06 15:58:48.83	358.07	31.10	-39.6	-40.8	21.2	0.00e+00	0	35	0	504365056	52	6272
2026-01-06 15:58:49.84	357.85	31.26	-39.7	-40.9	21.2	0.00e+00	0	34	0	506462208	52	6343
2026-01-06 15:58:50.85	357.62	31.41	-39.7	-40.9	21.2	0.00e+00	10	35	0	508559360	52	6381
2026-01-06 15:58:51.86	357.39	31.57	-39.7	-40.9	20.8	0.00e+00	0	35	0	510656512	52	6343
2026-01-06 15:58:52.86	357.17	31.73	-39.7	-40.8	21.3	0.00e+00	92	34	0	511705088	52	6312
2026-01-06 15:58:53.87	356.94	31.89	-39.4	-40.6	21.5	0.00e+00	0	35	0	513802240	52	6116
2026-01-06 15:58:54.88	356.70	32.04	-39.6	-40.7	21.3	0.00e+00	0	34	0	515899392	52	6223
2026-01-06 15:58:55.89	356.46	32.20	-39.2	-40.3	21.6	0.00e+00	0	35	0	517996544	52	5954
2026-01-06 15:58:56.90	356.23	32.36	-39.5	-40.7	21.4	0.00e+00	0	34	0	520093696	52	6199
2026-01-06 15:58:57.91	355.98	32.52	-39.0	-40.0	22.0	0.00e+00	92	35	0	521142272	52	5761
2026-01-06 15:58:58.92	355.74	32.68	-39.1	-40.2	21.7	0.00e+00	0	35	0	523239424	50	6555
2026-01-06 15:58:59.93	355.49	32.84	-39.3	-40.4	21.5	0.00e+00	92	35	0	525336576	50	6727
2026-01-06 15:59:00.94	355.24	33.00	-39.9	-41.1	21.1	0.00e+00	0	35	0	527433728	50	7329
2026-01-06 15:59:01.95	354.99	33.16	-40.1	-41.3	20.8	0.00e+00	0	35	0	529530880	52	6668
2026-01-06 15:59:02.96	354.74	33.32	-39.9	-41.1	21.1	0.00e+00	0	34	0	530579456	52	6466
2026-01-06 15:59:03.97	354.48	33.48	-39.7	-40.9	20.9	0.00e+00	0	35	0	532676608	52	6363
2026-01-06 15:59:04.98	354.22	33.64	-39.9	-41.1	21.1	0.00e+00	55	35	0	534773760	52	6528
2026-01-06 15:59:05.99	353.96	33.80	-39.4	-40.6	21.5	0.00e+00	0	35	0	536870912	52	6115
2026-01-06 15:59:06.99	353.70	33.96	-39.4	-40.5	21.5	0.00e+00	92	35	0	538968064	52	6074
2026-01-06 15:59:08.00	353.43	34.12	-39.0	-40.1	21.8	0.00e+00	0	34	0	540016640	52	5799
2026-01-06 15:59:09.01	353.17	34.28	-39.0	-40.0	22.0	0.00e+00	0	34	0	542113792	52	5736
2026-01-06 15:59:10.02	352.89	34.45	-39.8	-41.0	21.1	0.00e+00	0	35	0	544210944	52	6415
2026-01-06 15:59:11.03	352.62	34.61	-40.5	-41.8	20.4	0.00e+00	0	35	0	546308096	52	7081
2026-01-06 15:59:12.04	352.34	34.77	-41.3	-42.8	19.5	0.00e+00	63	35	0	548405248	54	7062
2026-01-06 15:59:13.05	352.06	34.93	-41.2	-42.7	19.6	0.00e+00	0	35	0	549453824	54	6981
2026-01-06 15:59:14.06	351.78	35.09	-41.3	-42.8	19.2	0.00e+00	92	35	0	551550976	54	7071
2026-01-06 15:59:15.07	351.49	35.25	-41.6	-43.2	19.3	0.00e+00	9	35	0	553648128	56	6593
2026-01-06 15:59:16.08	351.20	35.42	-41.5	-43.1	19.0	0.00e+00	70	35	0	555745280	56	6480
2026-01-06 15:59:17.09	350.91	35.58	-41.3	-42.8	19.7	0.00e+00	0	35	0	557842432	56	6264
2026-01-06 15:59:18.10	350.61	35.74	-40.1	-41.4	20.7	0.00e+00	0	35	0	558891008	54	6020
2026-01-06 15:59:19.11	350.32	35.90	-39.6	-40.8	21.3	0.00e+00	25	35	0	560988160	54	5604
2026-01-06 15:59:20.12	350.02	36.06	-39.1	-40.1	21.8	0.00e+00	0	35	0	563085312	52	5825
2026-01-06 15:59:21.13	349.71	36.22	-38.8	-39.9	22.1	0.00e+00	92	35	0	565182464	52	5642
2026-01-06 15:59:22.13	349.41	36.38	-38.8	-39.8	22.0	0.00e+00	0	35	0	567279616	50	6282
2026-01-06 15:59:23.14	349.10	36.54	-38.2	-39.1	22.6	0.00e+00	92	35	0	568328192	50	5821
2026-01-06 15:59:24.15	348.78	36.70	-38.6	-39.7	22.2	0.00e+00	0	35	0	570425344	50	6178
2026-01-06 15:59:25.16	348.47	36.87	-38.4	-39.4	22.1	0.00e+00	0	35	0	572522496	50	6027
2026-01-06 15:59:26.17	348.15	37.03	-38.3	-39.3	22.5	0.00e+00	9	35	0	574619648	50	5931
2026-01-06 15:59:27.18	347.83	37.19	-38.3	-39.3	22.5	0.00e+00	0	35	0	576716800	50	5924
2026-01-06 15:59:28.19	347.50	37.35	-38.0	-39.0	22.7	0.00e+00	18	35	0	577765376	50	5716
2026-01-06 15:59:29.20	347.17	37.51	-38.5	-39.5	22.4	0.00e+00	0	35	0	579862528	50	6080
2026-01-06 15:59:30.21	346.84	37.67	-39.3	-40.5	21.4	0.00e+00	64	35	0	581959680	50	6785
2026-01-06 15:59:31.22	346.50	37.82	-39.8	-41.1	21.1	0.00e+00	0	35	0	584056832	52	6520
2026-01-06 15:59:32.23	346.16	37.98	-40.1	-41.5	20.7	0.00e+00	0	35	0	586153984	52	6804
2026-01-06 15:59:33.23	345.83	38.14	-40.3	-41.7	20.5	0.00e+00	0	35	0	587202560	52	6949
2026-01-06 15:59:34.24	345.48	38.30	-40.6	-42.1	20.2	0.00e+00	0	35	0	589299712	54	6480
2026-01-06 15:59:35.25	345.13	38.46	-40.6	-42.0	20.3	0.00e+00	10	35	0	591396864	54	6449
2026-01-06 15:59:36.26	344.78	38.61	-40.2	-41.5	20.9	0.00e+00	0	35	0	593494016	54	6049
2026-01-06 15:59:37.27	344.42	38.77	-40.0	-41.2	21.0	0.00e+00	92	35	0	595591168	54	5887
2026-01-06 15:59:38.28	344.06	38.92	-39.1	-40.1	22.0	0.00e+00	0	35	0	597688320	52	5822
2026-01-06 15:59:39.29	343.70	39.08	-38.4	-39.4	22.6	0.00e+00	18	34	0	598736896	50	5982
2026-01-06 15:59:40.29	343.34	39.23	-37.9	-38.9	22.8	0.00e+00	0	35	0	600834048	50	5637
2026-01-06 15:59:41.31	342.96	39.39	-38.4	-39.4	22.4	0.00e+00	0	34	0	602931200	50	5997
2026-01-06 15:59:42.31	342.59	39.54	-39.4	-40.6	21.4	0.00e+00	10	35	0	605028352	50	6874
2026-01-06 15:59:43.32	342.22	39.69	-40.7	-42.2	20.1	0.00e+00	0	35	0	607125504	52	7361
2026-01-06 15:59:44.33	341.84	39.84	-40.9	-42.4	19.8	0.00e+00	92	35	0	608174080	54	6767
2026-01-06 15:59:45.34	341.45	39.99	-40.2	-41.6	20.7	0.00e+00	0	35	0	610271232	54	6106
2026-01-06 15:59:46.35	341.07	40.14	-39.2	-40.4	21.9	0.00e+00	91	35	0	612368384	52	5971
2026-01-06 15:59:47.36	340.67	40.29	-38.5	-39.5	22.4	0.00e+00	0	35	0	614465536	50	6047
2026-01-06 15:59:48.37	340.28	40.44	-38.1	-39.1	22.7	0.00e+00	0	35	0	616562688	50	5800
2026-01-06 15:59:49.38	339.88	40.59	-38.1	-39.0	22.8	0.00e+00	0	34	0	617611264	50	5757
2026-01-06 15:59:50.39	339.48	40.74	-38.3	-39.3	22.5	0.00e+00	0	35	0	619708416	50	5946
2026-01-06 15:59:51.40	339.07	40.88	-38.6	-39.7	22.3	0.00e+00	37	35	0	621805568	50	6209
2026-01-06 15:59:52.41	338.66	41.02	-38.8	-39.9	22.0	0.00e+00	0	35	0	623902720	50	6377
2026-01-06 15:59:53.42	338.25	41.17	-38.7	-39.8	22.2	0.00e+00	81	35	0	625999872	50	6307
2026-01-06 15:59:54.43	337.83	41.31	-38.3	-39.3	22.5	0.00e+00	0	35	0	627048448	50	5961
2026-01-06 15:59:55.44	337.41	41.45	-37.7	-38.7	23.1	0.00e+00	0	35	0	629145600	48	6184
2026-01-06 15:59:56.45	336.99	41.59	-37.6	-38.6	23.0	0.00e+00	0	34	0	631242752	48	6139
2026-01-06 15:59:57.45	336.56	41.73	-37.8	-38.8	22.9	0.00e+00	0	35	0	633339904	48	6284
2026-01-06 15:59:58.46	336.13	41.86	-38.2	-39.2	22.6	0.00e+00	92	35	0	635437056	48	6615
2026-01-06 15:59:59.47	335.70	42.00	-38.2	-39.2	23.1	0.00e+00	0	35	0	636485632	48	6608
2026-01-06 16:00:00.48	335.26	42.13	-37.6	-38.6	23.1	0.00e+00	70	35	0	638582784	48	6136
2026-01-06 16:00:01.49	334.81	42.27	-37.6	-38.6	23.1	0.00e+00	0	35	0	640679936	48	6105
2026-01-06 16:00:02.50	334.37	42.40	-37.3	-38.2	23.5	0.00e+00	0	35	0	642777088	48	5848
2026-01-06 16:00:03.51	333.92	42.53	-37.5	-38.4	23.2	0.00e+00	0	35	0	644874240	48	6024
2026-01-06 16:00:04.52	333.46	42.66	-37.8	-38.7	23.0	0.00e+00	8	35	0	645922816	48	6233
2026-01-06 16:00:05.53	333.01	42.78	-38.0	-39.0	22.7	0.00e+00	92	35	0	648019968	48	6421
2026-01-06 16:00:06.54	332.54	42.91	-38.5	-39.5	22.3	0.00e+00	0	35	0	650117120	48	6831
2026-01-06 16:00:07.55	332.08	43.03	-38.3	-39.3	22.6	0.00e+00	92	35	0	652214272	48	6640
2026-01-06 16:00:08.56	331.61	43.15	-37.6	-38.5	23.2	0.00e+00	0	35	0	654311424	48	6093
2026-01-06 16:00:09.57	331.14	43.27	-36.7	-37.6	23.9	0.00e+00	0	35	0	655360000	48	5487
2026-01-06 16:00:10.58	330.66	43.39	-36.3	-37.1	24.3	0.00e+00	0	35	0	657457152	46	5807
2026-01-06 16:00:11.59	330.19	43.51	-36.3	-37.1	24.2	0.00e+00	0	35	0	659554304	46	5820
2026-01-06 16:00:12.60	329.70	43.62	-36.6	-37.4	24.0	0.00e+00	13	35	0	661651456	46	6022
2026-01-06 16:00:13.61	329.22	43.73	-36.0	-36.8	24.4	0.00e+00	0	35	0	663748608	46	5602
2026-01-06 16:00:14.62	328.73	43.84	-35.8	-36.6	24.6	0.00e+00	85	35	0	665845760	44	6118
2026-01-06 16:00:15.63	328.24	43.95	-36.7	-37.5	23.9	0.00e+00	0	35	0	666894336	44	6846
2026-01-06 16:00:16.63	327.74	44.06	-37.6	-38.6	23.1	0.00e+00	14	35	0	668991488	46	6879
2026-01-06 16:00:17.64	327.25	44.16	-38.4	-39.5	22.3	0.00e+00	0	35	0	671088640	48	6825
2026-01-06 16:00:18.65	326.74	44.26	-38.4	-39.4	22.5	0.00e+00	0	35	0	673185792	50	6016
2026-01-06 16:00:19.66	326.24	44.36	-38.4	-39.5	22.0	0.00e+00	14	35	0	674234368	50	6087
2026-01-06 16:00:20.66	325.73	44.46	-39.0	-40.1	21.9	0.00e+00	0	35	0	676331520	50	6516
2026-01-06 16:00:21.67	325.22	44.55	-39.7	-41.0	20.8	0.00e+00	82	35	0	678428672	50	7207
2026-01-06 16:00:22.68	324.71	44.64	-40.4	-41.9	20.2	0.00e+00	0	35	0	680525824	52	7101
2026-01-06 16:00:23.69	324.19	44.73	-40.8	-42.4	20.0	0.00e+00	91	35	0	682622976	54	6707
2026-01-06 16:00:24.69	323.67	44.82	-40.8	-42.4	19.8	0.00e+00	0	35	0	684720128	54	6746
2026-01-06 16:00:25.70	323.15	44.91	-39.6	-40.9	21.3	0.00e+00	0	35	0	685768704	52	6348
2026-01-06 16:00:26.71	322.62	44.99	-37.8	-38.8	23.0	0.00e+00	15	34	0	687865856	50	5591
2026-01-06 16:00:27.72	322.09	45.07	-36.8	-37.6	23.9	0.00e+00	0	35	0	689963008	48	5456
2026-01-06 16:00:28.73	321.56	45.15	-36.5	-37.3	24.0	0.00e+00	7	35	0	692060160	46	5903
2026-01-06 16:00:29.74	321.03	45.22	-37.4	-38.3	23.4	0.00e+00	0	35	0	694157312	46	6630
2026-01-06 16:00:30.75	320.49	45.30	-38.6	-39.6	22.4	0.00e+00	76	35	0	695205888	48	6870
2026-01-06 16:00:31.76	319.95	45.37	-38.7	-39.8	22.1	0.00e+00	0	35	0	697303040	50	6275
2026-01-06 16:00:32.77	319.41	45.43	-38.9	-39.9	22.4	0.00e+00	0	35	0	699400192	50	6360
2026-01-06 16:00:33.78	318.86	45.50	-38.2	-39.1	22.8	0.00e+00	0	35	0	701497344	50	5791
2026-01-06 16:00:34.79	318.32	45.56	-38.5	-39.5	22.3	0.00e+00	0	35	0	703594496	50	6041
2026-01-06 16:00:35.80	317.77	45.62	-39.8	-41.1	20.9	0.00e+00	71	35	0	704643072	52	6490
2026-01-06 16:00:36.80	317.22	45.67	-41.0	-42.6	19.6	0.00e+00	0	35	0	706740224	54	6922
2026-01-06 16:00:37.81	316.67	45.73	-40.9	-42.4	19.6	0.00e+00	92	35	0	708837376	54	6769
2026-01-06 16:00:38.82	316.12	45.78	-40.3	-41.6	20.6	0.00e+00	0	35	0	710934528	54	6153
2026-01-06 16:00:39.83	315.56	45.82	-39.9	-41.1	21.1	0.00e+00	0	35	0	713031680	52	6532
2026-01-06 16:00:40.84	315.00	45.87	-38.8	-39.8	22.2	0.00e+00	0	35	0	714080256	50	6317
2026-01-06 16:00:41.85	314.45	45.91	-38.4	-39.5	22.5	0.00e+00	0	35	0	716177408	50	6067
2026-01-06 16:00:42.86	313.88	45.95	-38.2	-39.3	22.5	0.00e+00	76	35	0	718274560	50	5899
2026-01-06 16:00:43.87	313.32	45.98	-38.4	-39.4	22.4	0.00e+00	0	35	0	720371712	50	5996
2026-01-06 16:00:44.88	312.76	46.01	-38.8	-39.8	22.0	0.00e+00	91	35	0	722468864	50	6304
2026-01-06 16:00:45.88	312.20	46.04	-39.6	-40.8	21.3	0.00e+00	0	35	0	723517440	50	7078
2026-01-06 16:00:46.89	311.64	46.07	-40.3	-41.6	20.5	0.00e+00	87	35	0	725614592	52	6925
2026-01-06 16:00:47.90	311.07	46.09	-40.5	-42.0	20.2	0.00e+00	0	35	0	727711744	52	7232
2026-01-06 16:00:48.91	310.50	46.11	-40.0	-41.4	20.9	0.00e+00	0	35	0	729808896	52	6738
2026-01-06 16:00:49.92	309.94	46.13	-39.5	-40.8	21.4	0.00e+00	14	35	0	731906048	52	6271
2026-01-06 16:00:50.93	309.37	46.14	-38.9	-40.0	21.8	0.00e+00	0	35	0	732954624	52	5712
2026-01-06 16:00:51.94	308.80	46.15	-38.4	-39.4	22.5	0.00e+00	36	35	0	735051776	50	6004
2026-01-06 16:00:52.95	308.23	46.16	-38.5	-39.6	22.3	0.00e+00	0	35	0	737148928	50	6133
2026-01-06 16:00:53.96	307.66	46.17	-39.5	-40.7	21.4	0.00e+00	83	35	0	739246080	50	6975
2026-01-06 16:00:54.96	307.10	46.17	-39.5	-40.8	21.3	0.00e+00	0	35	0	741343232	50	7051
2026-01-06 16:00:55.97	306.53	46.17	-39.1	-40.3	21.8	0.00e+00	0	35	0	742391808	50	6652
2026-01-06 16:00:56.98	305.96	46.16	-38.6	-39.7	22.2	0.00e+00	0	35	0	744488960	50	6221
2026-01-06 16:00:57.99	305.39	46.15	-39.0	-40.2	22.0	0.00e+00	0	35	0	746586112	50	6543
2026-01-06 16:00:59.00	304.82	46.14	-38.6	-39.7	22.2	0.00e+00	92	35	0	748683264	50	6176
2026-01-06 16:01:00.01	304.25	46.13	-38.1	-39.1	22.7	0.00e+00	0	35	0	750780416	50	5793
2026-01-06 16:01:01.02	303.68	46.11	-37.7	-38.6	23.1	0.00e+00	57	35	0	751828992	48	6135
2026-01-06 16:01:02.03	303.12	46.09	-38.1	-39.1	22.6	0.00e+00	0	35	0	753926144	48	6534
2026-01-06 16:01:03.04	302.55	46.07	-38.7	-39.8	22.0	0.00e+00	0	35	0	756023296	48	7061
2026-01-06 16:01:04.04	301.99	46.04	-38.6	-39.6	22.0	0.00e+00	0	35	0	758120448	50	6147
2026-01-06 16:01:05.06	301.42	46.01	-39.4	-40.6	21.3	0.00e+00	0	35	0	760217600	50	6896
2026-01-06 16:01:06.06	300.86	45.98	-39.2	-40.4	21.6	0.00e+00	24	34	0	762314752	52	5990
2026-01-06 16:01:07.07	300.30	45.94	-38.8	-39.9	22.0	0.00e+00	0	35	0	763363328	52	5648
2026-01-06 16:01:08.08	299.74	45.91	-38.8	-39.8	22.1	0.00e+00	92	35	0	765460480	50	6316
2026-01-06 16:01:09.09	299.18	45.86	-38.6	-39.6	22.3	0.00e+00	0	35	0	767557632	50	6138
2026-01-06 16:01:10.10	298.62	45.82	-38.2	-39.2	22.7	0.00e+00	0	35	0	769654784	50	5835
2026-01-06 16:01:11.11	298.07	45.77	-37.7	-38.6	22.6	0.00e+00	0	35	0	771751936	48	6164
2026-01-06 16:01:12.12	297.51	45.72	-38.2	-39.3	22.4	0.00e+00	0	35	0	772800512	48	6656
2026-01-06 16:01:13.13	296.96	45.67	-39.1	-40.3	21.7	0.00e+00	12	35	0	774897664	50	6662
2026-01-06 16:01:14.14	296.41	45.61	-39.0	-40.2	22.0	0.00e+00	0	35	0	776994816	50	6584
2026-01-06 16:01:15.15	295.86	45.55	-39.0	-40.1	22.0	0.00e+00	92	34	0	779091968	50	6512
2026-01-06 16:01:16.16	295.32	45.49	-38.9	-40.0	21.9	0.00e+00	0	35	0	780140544	50	6409
2026-01-06 16:01:17.17	294.77	45.43	-39.0	-40.2	21.9	0.00e+00	0	35	0	782237696	50	6548
2026-01-06 16:01:18.17	294.23	45.36	-38.0	-38.9	22.7	0.00e+00	0	35	0	784334848	50	5664
2026-01-06 16:01:19.18	293.69	45.29	-37.7	-38.7	22.9	0.00e+00	0	35	0	786432000	48	6195
2026-01-06 16:01:20.19	293.16	45.22	-38.4	-39.4	21.5	0.00e+00	11	35	0	788529152	48	6765
2026-01-06 16:01:21.20	292.62	45.14	-39.3	-40.4	21.7	0.00e+00	20	34	0	790626304	50	6697
2026-01-06 16:01:22.21	292.09	45.06	-38.1	-39.0	22.8	0.00e+00	92	35	0	791674880	50	5759
2026-01-06 16:01:23.22	291.56	44.98	-37.6	-38.5	23.2	0.00e+00	0	35	0	793772032	48	6079
2026-01-06 16:01:24.23	291.03	44.90	-37.8	-38.8	22.9	0.00e+00	85	35	0	795869184	48	6279
2026-01-06 16:01:25.24	290.51	44.81	-38.2	-39.2	22.6	0.00e+00	0	35	0	797966336	48	6588
2026-01-06 16:01:26.25	289.99	44.73	-38.1	-39.1	22.8	0.00e+00	0	35	0	800063488	48	6496
2026-01-06 16:01:27.26	289.47	44.64	-38.5	-39.6	22.4	0.00e+00	8	35	0	801112064	48	6874
2026-01-06 16:01:28.27	288.95	44.54	-38.4	-39.4	22.4	0.00e+00	0	35	0	803209216	50	5985
2026-01-06 16:01:29.28	288.44	44.45	-38.8	-39.9	22.0	0.00e+00	73	35	0	805306368	50	6375
2026-01-06 16:01:30.29	287.93	44.35	-39.0	-40.1	22.1	0.00e+00	0	35	0	807403520	50	6527
2026-01-06 16:01:31.30	287.43	44.25	-38.8	-39.9	22.1	0.00e+00	92	35	0	809500672	50	6377
2026-01-06 16:01:32.31	286.92	44.15	-38.3	-39.3	22.7	0.00e+00	0	35	0	810549248	50	5942
2026-01-06 16:01:33.32	286.42	44.04	-38.3	-39.4	22.6	0.00e+00	0	35	0	812646400	50	5965
2026-01-06 16:01:34.33	285.93	43.94	-38.4	-39.5	22.3	0.00e+00	0	35	0	814743552	50	6036
2026-01-06 16:01:35.34	285.44	43.83	-38.8	-39.9	22.0	0.00e+00	0	35	0	816840704	50	6353
2026-01-06 16:01:36.34	284.95	43.72	-37.6	-38.5	23.2	0.00e+00	11	35	0	818937856	48	6074
2026-01-06 16:01:37.35	284.46	43.61	-36.9	-37.7	23.8	0.00e+00	0	34	0	819986432	48	5560
2026-01-06 16:01:38.36	283.98	43.49	-36.6	-37.5	23.9	0.00e+00	92	35	0	822083584	46	6040
2026-01-06 16:01:39.37	283.50	43.38	-36.9	-37.9	23.7	0.00e+00	0	35	0	824180736	46	6319
2026-01-06 16:01:40.38	283.03	43.26	-37.5	-38.5	23.2	0.00e+00	0	35	0	826277888	46	6822
2026-01-06 16:01:41.39	282.55	43.14	-38.2	-39.3	22.5	0.00e+00	0	35	0	828375040	48	6687
2026-01-06 16:01:42.40	282.09	43.02	-38.5	-39.7	22.3	0.00e+00	0	35	0	829423616	48	6951
2026-01-06 16:01:43.41	281.62	42.89	-37.6	-38.5	23.2	0.00e+00	90	35	0	831520768	48	6079
2026-01-06 16:01:44.42	281.16	42.77	-36.4	-37.2	24.2	0.00e+00	0	35	0	833617920	46	5896
2026-01-06 16:01:45.43	280.70	42.64	-36.0	-36.8	24.4	0.00e+00	49	35	0	835715072	46	5597
2026-01-06 16:01:46.44	280.25	42.51	-36.8	-37.6	24.0	0.00e+00	0	35	0	837812224	46	6158
2026-01-06 16:01:47.45	279.80	42.38	-37.3	-38.2	23.4	0.00e+00	0	35	0	838860800	46	6577
2026-01-06 16:01:48.45	279.35	42.25	-36.5	-37.4	24.0	0.00e+00	0	35	0	840957952	46	6018
2026-01-06 16:01:49.46	278.91	42.12	-36.0	-36.9	24.3	0.00e+00	0	35	0	843055104	46	5651
2026-01-06 16:01:50.47	278.47	41.98	-35.6	-36.4	24.6	0.00e+00	69	34	0	845152256	44	5991
2026-01-06 16:01:51.48	278.03	41.85	-35.7	-36.5	24.3	0.00e+00	0	35	0	847249408	44	6052
2026-01-06 16:01:52.49	277.60	41.71	-35.3	-36.1	24.9	0.00e+00	68	35	0	848297984	44	5792
2026-01-06 16:01:53.50	277.17	41.57	-34.6	-35.3	25.5	0.00e+00	0	35	0	850395136	42	5939
2026-01-06 16:01:54.51	276.75	41.43	-34.2	-34.9	25.7	0.00e+00	0	35	0	852492288	42	5647
2026-01-06 16:01:55.52	276.33	41.29	-34.1	-34.9	25.8	0.00e+00	0	35	0	854589440	42	5641
2026-01-06 16:01:56.53	275.91	41.15	-34.2	-34.9	25.6	0.00e+00	0	35	0	856686592	42	5664
2026-01-06 16:01:57.54	275.50	41.00	-34.8	-35.5	25.0	0.00e+00	4	35	0	858783744	42	6098
2026-01-06 16:01:58.55	275.09	40.86	-34.9	-35.7	25.0	0.00e+00	0	35	0	859832320	42	6220
2026-01-06 16:01:59.56	274.68	40.71	-35.3	-36.1	24.8	0.00e+00	74	35	0	861929472	42	6476
2026-01-06 16:02:00.57	274.28	40.57	-35.1	-35.8	25.1	0.00e+00	0	35	0	864026624	42	6316
2026-01-06 16:02:01.58	273.88	40.42	-34.8	-35.6	25.1	0.00e+00	0	35	0	866123776	42	6105
2026-01-06 16:02:02.58	273.49	40.27	-35.2	-36.0	25.0	0.00e+00	0	35	0	868220928	42	6395
2026-01-06 16:02:03.59	273.10	40.12	-35.6	-36.4	24.7	0.00e+00	0	35	0	869269504	42	6715
2026-01-06 16:02:04.60	272.71	39.97	-35.6	-36.4	24.8	0.00e+00	0	35	0	871366656	42	6731
2026-01-06 16:02:05.61	272.32	39.82	-35.8	-36.6	24.6	0.00e+00	0	35	0	873463808	44	6152
2026-01-06 16:02:06.62	271.94	39.67	-36.3	-37.2	24.1	0.00e+00	25	35	0	875560960	44	6563
2026-01-06 16:02:07.63	271.56	39.51	-37.2	-38.1	23.3	0.00e+00	0	35	0	877658112	46	6534
2026-01-06 16:02:08.64	271.19	39.36	-37.3	-38.3	23.4	0.00e+00	92	35	0	878706688	46	6643
2026-01-06 16:02:09.64	270.82	39.21	-36.9	-37.8	23.8	0.00e+00	0	34	0	880803840	46	6278
2026-01-06 16:02:10.65	270.46	39.05	-36.8	-37.6	24.0	0.00e+00	0	35	0	882900992	46	6146
2026-01-06 16:02:11.66	270.09	38.90	-37.2	-38.1	23.5	0.00e+00	9	35	0	884998144	46	6520
2026-01-06 16:02:12.67	269.73	38.74	-37.1	-38.0	23.6	0.00e+00	0	35	0	887095296	46	6453
2026-01-06 16:02:13.68	269.38	38.58	-37.2	-38.1	23.6	0.00e+00	2	35	0	888143872	46	6515
2026-01-06 16:02:14.69	269.02	38.43	-36.7	-37.6	23.9	0.00e+00	0	35	0	890241024	46	6111
2026-01-06 16:02:15.70	268.67	38.27	-37.4	-38.3	23.3	0.00e+00	71	35	0	892338176	46	6660
2026-01-06 16:02:16.71	268.33	38.11	-37.8	-38.8	22.7	0.00e+00	0	35	0	894435328	46	7049
2026-01-06 16:02:17.72	267.99	37.95	-38.1	-39.2	22.7	0.00e+00	0	35	0	896532480	48	6560
2026-01-06 16:02:18.73	267.65	37.79	-37.3	-38.2	23.4	0.00e+00	0	35	0	897581056	48	5892
2026-01-06 16:02:19.74	267.31	37.63	-36.8	-37.7	23.8	0.00e+00	0	35	0	899678208	48	5536
2026-01-06 16:02:20.75	266.98	37.47	-36.7	-37.6	23.8	0.00e+00	52	35	0	901775360	46	6141
2026-01-06 16:02:21.75	266.65	37.31	-37.2	-38.1	23.5	0.00e+00	0	35	0	903872512	46	6516
2026-01-06 16:02:22.76	266.32	37.15	-36.6	-37.5	23.9	0.00e+00	48	35	0	905969664	46	6042
2026-01-06 16:02:23.77	266.00	36.99	-36.4	-37.2	24.0	0.00e+00	0	35	0	907018240	46	5871
2026-01-06 16:02:24.78	265.68	36.83	-36.4	-37.2	24.1	0.00e+00	0	35	0	909115392	46	5875
2026-01-06 16:02:25.79	265.37	36.67	-36.5	-37.4	24.1	0.00e+00	0	35	0	911212544	46	5976
2026-01-06 16:02:26.80	265.05	36.51	-36.8	-37.7	23.8	0.00e+00	0	35	0	913309696	46	6199
2026-01-06 16:02:27.81	264.74	36.35	-36.9	-37.7	23.7	0.00e+00	9	35	0	915406848	46	6245
2026-01-06 16:02:28.82	264.43	36.19	-37.3	-38.2	21.7	0.00e+00	0	35	0	916455424	46	6567
2026-01-06 16:02:29.83	264.13	36.02	-38.3	-39.3	22.6	0.00e+00	92	35	0	918552576	48	6674
2026-01-06 16:02:30.83	263.83	35.86	-39.1	-40.2	21.9	0.00e+00	0	35	0	920649728	50	6577
2026-01-06 16:02:31.84	263.53	35.70	-38.8	-39.8	21.8	0.00e+00	0	35	0	922746880	50	6274
2026-01-06 16:02:32.85	263.24	35.54	-38.4	-39.4	22.6	0.00e+00	0	35	0	924844032	50	5981
2026-01-06 16:02:33.86	262.94	35.38	-38.0	-38.9	22.9	0.00e+00	0	35	0	926941184	50	5651
2026-01-06 16:02:34.87	262.66	35.22	-38.3	-39.3	22.5	0.00e+00	2	35	0	927989760	50	5917
2026-01-06 16:02:35.88	262.37	35.05	-38.8	-39.8	22.1	0.00e+00	0	35	0	930086912	50	6312
2026-01-06 16:02:36.89	262.08	34.89	-39.4	-40.5	21.8	0.00e+00	72	35	0	932184064	50	6774
2026-01-06 16:02:37.90	261.80	34.73	-39.5	-40.6	21.4	0.00e+00	0	35	0	934281216	50	6921
2026-01-06 16:02:38.90	261.53	34.57	-39.6	-40.8	21.4	0.00e+00	92	35	0	935329792	50	7014
2026-01-06 16:02:39.91	261.25	34.41	-40.8	-42.1	20.1	0.00e+00	0	35	0	937426944	52	7322
2026-01-06 16:02:40.92	260.98	34.24	-41.2	-42.6	19.6	0.00e+00	0	35	0	939524096	54	6899
2026-01-06 16:02:41.93	260.71	34.08	-41.4	-43.0	19.3	0.00e+00	0	35	0	941621248	56	6393
2026-01-06 16:02:42.94	260.44	33.92	-40.7	-42.1	20.2	0.00e+00	0	35	0	943718400	56	5784
2026-01-06 16:02:43.95	260.18	33.76	-40.3	-41.5	20.7	0.00e+00	9	35	0	944766976	54	6088
2026-01-06 16:02:44.96	259.92	33.60	-40.0	-41.2	20.9	0.00e+00	0	35	0	946864128	52	6558
2026-01-06 16:02:45.97	259.66	33.44	-40.7	-42.1	20.1	0.00e+00	83	35	0	948961280	52	7261
2026-01-06 16:02:46.98	259.40	33.28	-41.4	-42.9	19.5	0.00e+00	0	35	0	951058432	54	7096
2026-01-06 16:02:47.98	259.15	33.12	-41.8	-43.4	18.9	0.00e+00	0	35	0	953155584	56	6750
2026-01-06 16:02:49.00	258.89	32.95	-41.9	-43.5	19.2	0.00e+00	0	35	0	955252736	56	6808
2026-01-06 16:02:50.00	258.65	32.80	-41.5	-43.0	19.4	0.00e+00	0	35	0	956301312	56	6427
2026-01-06 16:02:51.02	258.40	32.63	-41.3	-42.7	19.5	0.00e+00	0	35	0	958398464	56	6221
2026-01-06 16:02:52.03	258.15	32.47	-40.8	-42.1	20.3	0.00e+00	0	35	0	960495616	56	5793
2026-01-06 16:02:53.03	257.91	32.32	-41.0	-42.4	19.9	0.00e+00	68	35	0	962592768	54	6718
2026-01-06 16:02:54.05	257.67	32.15	-40.1	-41.4	20.8	0.00e+00	0	35	0	964689920	54	5974
2026-01-06 16:02:55.05	257.44	32.00	-39.9	-41.0	20.8	0.00e+00	0	35	0	965738496	54	5748
2026-01-06 16:02:56.07	257.20	31.84	-39.2	-40.3	21.7	0.00e+00	0	35	0	967835648	52	5920
2026-01-06 16:02:57.07	256.97	31.68	-39.4	-40.5	21.6	0.00e+00	0	35	0	969932800	52	6045
2026-01-06 16:02:58.08	256.74	31.52	-39.3	-40.4	21.6	0.00e+00	67	35	0	972029952	52	5991
2026-01-06 16:02:59.09	256.51	31.36	-39.4	-40.5	21.6	0.00e+00	0	35	0	974127104	52	6087
2026-01-06 16:03:00.10	256.29	31.21	-39.0	-40.1	21.9	0.00e+00	90	35	0	975175680	52	5767
2026-01-06 16:03:01.11	256.06	31.05	-39.2	-40.2	21.8	0.00e+00	0	35	0	977272832	52	5886
2026-01-06 16:03:02.12	255.84	30.89	-38.6	-39.7	22.3	0.00e+00	28	35	0	979369984	50	6181
2026-01-06 16:03:03.13	255.62	30.74	-38.8	-39.9	22.0	0.00e+00	0	35	0	981467136	50	6344
2026-01-06 16:03:04.14	255.41	30.58	-39.3	-40.4	21.4	0.00e+00	0	35	0	983564288	50	6767
2026-01-06 16:03:05.15	255.19	30.42	-40.0	-41.2	21.0	0.00e+00	92	35	0	984612864	52	6592
2026-01-06 16:03:06.16	254.98	30.27	-39.7	-40.9	21.4	0.00e+00	0	35	0	986710016	52	6357
2026-01-06 16:03:07.17	254.77	30.11	-39.5	-40.5	21.6	0.00e+00	91	35	0	988807168	52	6102
2026-01-06 16:03:08.18	254.56	29.96	-39.4	-40.5	21.2	0.00e+00	0	35	0	990904320	52	6056
2026-01-06 16:03:09.18	254.35	29.81	-38.9	-40.0	21.8	0.00e+00	39	35	0	993001472	52	5705
2026-01-06 16:03:10.19	254.15	29.65	-39.0	-40.0	21.9	0.00e+00	0	35	0	994050048	52	5761
2026-01-06 16:03:11.20	253.95	29.50	-39.0	-40.0	21.9	0.00e+00	0	35	0	996147200	52	5740
2026-01-06 16:03:12.21	253.74	29.35	-39.6	-40.7	21.1	0.00e+00	5	34	0	998244352	52	6194
2026-01-06 16:03:13.22	253.55	29.19	-40.1	-41.3	20.9	0.00e+00	0	35	0	1000341504	52	6627
2026-01-06 16:03:14.23	253.35	29.04	-39.1	-40.2	21.8	0.00e+00	5	35	0	1002438656	52	5864
2026-01-06 16:03:15.24	253.15	28.89	-39.3	-40.4	21.5	0.00e+00	0	35	0	1003487232	52	5996
2026-01-06 16:03:16.25	252.96	28.74	-39.5	-40.6	21.4	0.00e+00	75	35	0	1005584384	52	6155
2026-01-06 16:03:17.26	252.77	28.59	-39.2	-40.2	21.8	0.00e+00	0	35	0	1007681536	52	5887
2026-01-06 16:03:18.27	252.58	28.44	-39.1	-40.2	21.8	0.00e+00	0	35	0	1009778688	52	5882
2026-01-06 16:03:19.28	252.39	28.29	-39.1	-40.2	21.7	0.00e+00	7	35	0	1011875840	52	5851
2026-01-06 16:03:20.28	252.21	28.14	-39.2	-40.3	21.6	0.00e+00	0	35	0	1012924416	52	5911
2026-01-06 16:03:21.29	252.02	27.99	-39.2	-40.2	21.7	0.00e+00	4	35	0	1015021568	52	5896
2026-01-06 16:03:22.30	251.84	27.84	-39.3	-40.4	21.6	0.00e+00	0	35	0	1017118720	52	6030
2026-01-06 16:03:23.31	251.66	27.70	-39.2	-40.3	21.6	0.00e+00	92	35	0	1019215872	52	5948
2026-01-06 16:03:24.32	251.48	27.55	-38.5	-39.5	22.4	0.00e+00	24	34	0	1021313024	50	6070
2026-01-06 16:03:25.33	251.30	27.40	-38.4	-39.4	22.4	0.00e+00	0	34	0	1023410176	50	6009
2026-01-06 16:03:26.34	251.12	27.25	-38.6	-39.6	22.4	0.00e+00	0	35	0	1024458752	50	6118
2026-01-06 16:03:27.35	250.95	27.11	-38.2	-39.2	22.5	0.00e+00	0	35	0	1026555904	50	5864
2026-01-06 16:03:28.36	250.78	26.96	-38.2	-39.2	22.7	0.00e+00	7	35	0	1028653056	50	5837
2026-01-06 16:03:29.37	250.61	26.82	-38.1	-39.1	22.7	0.00e+00	0	35	0	1030750208	50	5806
2026-01-06 16:03:30.37	250.44	26.67	-38.4	-39.4	22.3	0.00e+00	55	35	0	1032847360	50	5988
2026-01-06 16:03:31.38	250.27	26.53	-38.5	-39.5	22.4	0.00e+00	0	35	0	1033895936	50	6063
2026-01-06 16:03:32.39	250.10	26.39	-39.1	-40.2	21.7	0.00e+00	0	35	0	1035993088	50	6611
2026-01-06 16:03:33.40	249.94	26.24	-39.9	-41.2	21.0	0.00e+00	0	35	0	1038090240	52	6552
2026-01-06 16:03:34.41	249.78	26.10	-39.7	-40.9	21.2	0.00e+00	0	34	0	1040187392	52	6358
2026-01-06 16:03:35.41	249.61	25.96	-39.5	-40.6	21.6	0.00e+00	2	35	0	1042284544	52	6125
2026-01-06 16:03:36.42	249.45	25.82	-38.8	-39.8	22.2	0.00e+00	0	35	0	1043333120	52	5616
2026-01-06 16:03:37.43	249.30	25.68	-38.4	-39.4	22.3	0.00e+00	91	35	0	1045430272	50	5995
2026-01-06 16:03:38.44	249.14	25.54	-37.9	-38.9	23.0	0.00e+00	0	34	0	1047527424	50	5650
2026-01-06 16:03:39.44	248.98	25.40	-37.3	-38.1	23.4	0.00e+00	28	34	0	1049624576	48	5825
2026-01-06 16:03:40.45	248.83	25.26	-37.2	-38.1	23.4	0.00e+00	0	34	0	1051721728	48	5808
2026-01-06 16:03:41.46	248.67	25.12	-37.0	-37.9	23.6	0.00e+00	0	35	0	1052770304	48	5644
2026-01-06 16:03:42.47	248.52	24.98	-37.6	-38.5	23.1	0.00e+00	0	34	0	1054867456	48	6058
2026-01-06 16:03:43.48	248.37	24.84	-37.9	-38.9	22.7	0.00e+00	0	34	0	1056964608	48	6318
2026-01-06 16:03:44.49	248.22	24.71	-38.3	-39.2	22.4	0.00e+00	92	34	0	1059061760	48	6597
2026-01-06 16:03:45.50	248.07	24.57	-38.3	-39.2	22.6	0.00e+00	0	34	0	1061158912	48	6604
2026-01-06 16:03:46.51	247.93	24.43	-38.6	-39.6	22.2	0.00e+00	92	35	0	1062207488	48	6918
2026-01-06 16:03:47.52	247.78	24.30	-38.6	-39.6	22.3	0.00e+00	0	34	0	1064304640	50	6163
2026-01-06 16:03:48.53	247.64	24.16	-38.6	-39.6	22.2	0.00e+00	0	34	0	1066401792	50	6162
2026-01-06 16:03:49.54	247.49	24.02	-38.8	-39.9	22.0	0.00e+00	0	35	0	1068498944	50	6330
2026-01-06 16:03:50.55	247.35	23.89	-38.9	-39.9	21.9	0.00e+00	0	35	0	1070596096	50	6355
2026-01-06 16:03:51.56	247.21	23.76	-39.0	-40.1	21.6	0.00e+00	92	35	0	1071644672	50	6480
2026-01-06 16:03:52.57	247.07	23.62	-39.7	-40.8	21.2	0.00e+00	0	35	0	1073741824	50	7084
2026-01-06 16:03:53.58	246.93	23.49	-40.0	-41.3	20.7	0.00e+00	90	35	0	1075838976	52	6639
2026-01-06 16:03:54.59	246.80	23.36	-40.1	-41.3	20.8	0.00e+00	0	35	0	1077936128	52	6682
2026-01-06 16:03:55.60	246.66	23.22	-40.1	-41.3	20.9	0.00e+00	0	35	0	1080033280	52	6671
2026-01-06 16:03:56.61	246.53	23.09	-39.9	-41.1	21.1	0.00e+00	0	35	0	1081081856	52	6475
2026-01-06 16:03:57.62	246.39	22.96	-39.8	-40.9	21.2	0.00e+00	0	35	0	1083179008	52	6367
2026-01-06 16:03:58.63	246.26	22.83	-39.1	-40.2	21.7	0.00e+00	92	34	0	1085276160	52	5835
2026-01-06 16:03:59.64	246.13	22.70	-38.9	-40.0	22.0	0.00e+00	0	35	0	1087373312	52	5700
2026-01-06 16:04:00.64	246.00	22.57	-38.1	-39.0	22.8	0.00e+00	92	35	0	1089470464	50	5734
2026-01-06 16:04:01.65	245.87	22.44	-37.9	-38.8	22.9	0.00e+00	0	34	0	1090519040	50	5623
2026-01-06 16:04:02.66	245.74	22.31	-38.0	-38.9	22.7	0.00e+00	0	35	0	1092616192	50	5682
2026-01-06 16:04:03.67	245.62	22.19	-37.8	-38.7	22.9	0.00e+00	0	34	0	1094713344	48	6234
2026-01-06 16:04:04.68	245.49	22.06	-37.7	-38.6	22.9	0.00e+00	0	35	0	1096810496	48	6121
2026-01-06 16:04:05.69	245.37	21.93	-37.6	-38.5	23.1	0.00e+00	64	35	0	1098907648	48	6055
2026-01-06 16:04:06.70	245.24	21.81	-37.5	-38.4	23.1	0.00e+00	0	34	0	1099956224	48	6019
2026-01-06 16:04:07.71	245.12	21.68	-37.5	-38.5	23.1	0.00e+00	92	35	0	1102053376	48	6035
2026-01-06 16:04:08.72	245.00	21.55	-37.7	-38.6	23.0	0.00e+00	0	35	0	1104150528	48	6157
2026-01-06 16:04:09.72	244.88	21.43	-37.8	-38.7	22.9	0.00e+00	44	34	0	1106247680	48	6206
2026-01-06 16:04:10.73	244.76	21.30	-37.7	-38.7	22.8	0.00e+00	0	34	0	1108344832	48	6179
2026-01-06 16:04:11.74	244.64	21.18	-38.0	-38.9	22.8	0.00e+00	0	35	0	1109393408	48	6371
2026-01-06 16:04:12.75	244.52	21.06	-38.0	-39.0	22.8	0.00e+00	48	35	0	1111490560	48	6394
2026-01-06 16:04:13.76	244.41	20.93	-38.4	-39.4	22.4	0.00e+00	0	34	0	1113587712	48	6768
2026-01-06 16:04:14.77	244.29	20.81	-38.3	-39.3	22.4	0.00e+00	90	34	0	1115684864	48	6675
2026-01-06 16:04:15.78	244.18	20.69	-38.4	-39.4	22.3	0.00e+00	0	34	0	1117782016	48	6755
2026-01-06 16:04:16.79	244.06	20.57	-38.3	-39.3	22.5	0.00e+00	92	35	0	1119879168	50	5914
2026-01-06 16:04:17.80	243.95	20.44	-38.0	-39.0	22.7	0.00e+00	0	34	0	1120927744	50	5696
2026-01-06 16:04:18.81	243.84	20.32	-37.9	-38.8	22.9	0.00e+00	0	35	0	1123024896	50	5615
2026-01-06 16:04:19.82	243.73	20.20	-38.0	-39.0	22.8	0.00e+00	19	35	0	1125122048	50	5697
2026-01-06 16:04:20.83	243.61	20.08	-37.9	-38.8	22.8	0.00e+00	0	34	0	1127219200	50	5620
2026-01-06 16:04:21.84	243.51	19.96	-37.8	-38.8	22.8	0.00e+00	3	35	0	1129316352	50	5592
2026-01-06 16:04:22.85	243.40	19.84	-38.0	-39.0	22.7	0.00e+00	0	34	0	1130364928	50	5740
2026-01-06 16:04:23.86	243.29	19.73	-38.2	-39.2	22.4	0.00e+00	72	35	0	1132462080	50	5848
2026-01-06 16:04:24.87	243.18	19.61	-38.5	-39.6	22.2	0.00e+00	0	34	0	1134559232	50	6107
2026-01-06 16:04:25.88	243.08	19.49	-39.0	-40.1	21.7	0.00e+00	0	35	0	1136656384	50	6516
2026-01-06 16:04:26.88	242.97	19.37	-39.3	-40.4	21.5	0.00e+00	0	34	0	1138753536	50	6716
2026-01-06 16:04:27.89	242.87	19.26	-39.5	-40.7	21.3	0.00e+00	0	34	0	1139802112	50	6951
2026-01-06 16:04:28.90	242.76	19.14	-39.6	-40.8	21.2	0.00e+00	3	34	0	1141899264	52	6247
2026-01-06 16:04:29.91	242.66	19.02	-39.7	-40.9	21.0	0.00e+00	0	35	0	1143996416	52	6382
2026-01-06 16:04:30.92	242.56	18.91	-39.7	-40.9	21.1	0.00e+00	54	35	0	1146093568	52	6326
2026-01-06 16:04:31.93	242.46	18.79	-39.7	-40.9	21.0	0.00e+00	0	35	0	1148190720	52	6351
2026-01-06 16:04:32.94	242.36	18.68	-39.6	-40.8	21.1	0.00e+00	0	34	0	1149239296	52	6259
2026-01-06 16:04:33.95	242.26	18.56	-39.5	-40.7	21.2	0.00e+00	0	35	0	1151336448	52	6192
2026-01-06 16:04:34.96	242.16	18.45	-39.4	-40.5	21.4	0.00e+00	0	34	0	1153433600	52	6102
2026-01-06 16:04:35.97	242.06	18.34	-39.4	-40.5	21.4	0.00e+00	1	34	0	1155530752	52	6099
2026-01-06 16:04:36.98	241.96	18.22	-39.5	-40.6	21.3	0.00e+00	0	34	0	1157627904	52	6158
2026-01-06 16:04:37.99	241.87	18.11	-39.2	-40.3	21.6	0.00e+00	90	35	0	1158676480	52	5946
2026-01-06 16:04:39.00	241.77	18.00	-39.3	-40.4	21.4	0.00e+00	0	35	0	1160773632	52	6019
2026-01-06 16:04:40.01	241.68	17.89	-39.3	-40.4	21.5	0.00e+00	0	34	0	1162870784	52	5995
2026-01-06 16:04:41.02	241.58	17.78	-38.8	-39.9	21.9	0.00e+00	0	35	0	1164967936	52	5632
2026-01-06 16:04:42.02	241.49	17.67	-38.6	-39.7	22.0	0.00e+00	0	35	0	1167065088	50	6187
2026-01-06 16:04:43.03	241.40	17.56	-38.4	-39.4	22.3	0.00e+00	0	35	0	1168113664	50	6012
2026-01-06 16:04:44.04	241.30	17.45	-38.5	-39.5	22.2	0.00e+00	0	35	0	1170210816	50	6069
2026-01-06 16:04:45.05	241.21	17.34	-38.1	-39.1	22.5	0.00e+00	64	35	0	1172307968	50	5800
2026-01-06 16:04:46.06	241.12	17.23	-38.1	-39.1	22.5	0.00e+00	2	35	0	1174405120	50	5788
2026-01-06 16:04:47.07	241.03	17.12	-38.0	-39.0	22.7	0.00e+00	17	35	0	1176502272	50	5703
2026-01-06 16:04:48.08	240.94	17.01	-38.3	-39.2	22.4	0.00e+00	0	35	0	1177550848	50	5895
2026-01-06 16:04:49.08	240.85	16.90	-38.4	-39.4	22.3	0.00e+00	0	35	0	1179648000	50	6005
2026-01-06 16:04:50.09	240.76	16.80	-38.5	-39.5	22.1	0.00e+00	1	35	0	1181745152	50	6063
2026-01-06 16:04:51.10	240.68	16.69	-38.7	-39.7	22.0	0.00e+00	0	34	0	1183842304	50	6238
2026-01-06 16:04:52.11	240.59	16.58	-38.9	-39.9	21.9	0.00e+00	64	34	0	1185939456	50	6379
2026-01-06 16:04:53.12	240.50	16.48	-38.9	-40.0	21.9	0.00e+00	0	34	0	1188036608	50	6422
2026-01-06 16:04:54.12	240.42	16.37	-39.3	-40.4	21.5	0.00e+00	90	34	0	1189085184	50	6741
2026-01-06 16:04:55.13	240.33	16.27	-39.2	-40.3	21.7	0.00e+00	1	34	0	1191182336	50	6639
2026-01-06 16:04:56.14	240.25	16.16	-39.1	-40.3	21.5	0.00e+00	0	34	0	1193279488	50	6624
2026-01-06 16:04:57.15	240.17	16.06	-39.0	-40.1	21.7	0.00e+00	0	35	0	1195376640	50	6471
2026-01-06 16:04:58.16	240.08	15.95	-38.8	-39.8	21.9	0.00e+00	0	35	0	1197473792	50	6312
2026-01-06 16:04:59.17	240.00	15.85	-38.7	-39.7	22.0	0.00e+00	91	34	0	1198522368	50	6217
2026-01-06 16:05:00.17	239.92	15.75	-38.7	-39.8	22.0	0.00e+00	0	35	0	1200619520	50	6248
