passes_logs/2026/01/06/R4.6S_Anadyr/R4.6S_Anadyr__20260106_191233_SUOMI_NPP_rec.log

#Pass ID: 20260106_191233_SUOMI NPP
#Satellite: SUOMI NPP
#Configuration: NPP
#almurnet v.1.7.20251203
#Start time: 2026-01-06 19:12:39

#Version: 2.2.20231116
#Station: R4.6S_Anadyr
#Location: 177.4865 lon 64.73178 lat
#TLE: 1 37849U 11061A   26004.95404768  .00000136  00000+0  85334-4 0  9991
#TLE: 2 37849  98.7801 307.0898 0002575  80.6707 279.4760 14.19522289735281

#Time	Az	El	Level	Level2	SNR	BER	BlckErr	Temp	State	Recorded	gain1	gain2
2026-01-06 19:12:39.79	48.65	0.31	-48.5	-63.6	3.5	1.51e+00	0	32	104	0	60	54975
2026-01-06 19:12:40.80	48.58	0.36	-48.5	-63.6	3.6	1.51e+00	0	32	104	0	60	54974
2026-01-06 19:12:41.81	48.50	0.41	-48.5	-63.7	3.6	1.51e+00	0	32	104	0	60	55178
2026-01-06 19:12:42.81	48.42	0.45	-48.5	-63.7	3.6	1.51e+00	0	32	104	0	60	55173
2026-01-06 19:12:43.83	48.34	0.50	-48.5	-63.7	3.6	1.51e+00	0	32	104	0	60	55126
2026-01-06 19:12:44.83	48.27	0.55	-48.5	-63.7	3.6	1.51e+00	0	32	104	0	60	55368
2026-01-06 19:12:45.84	48.19	0.60	-48.5	-63.7	3.6	1.51e+00	0	32	104	0	60	55221
2026-01-06 19:12:46.85	48.11	0.65	-48.5	-63.7	3.6	1.51e+00	0	32	104	0	60	55079
2026-01-06 19:12:47.86	48.03	0.70	-48.4	-63.7	3.6	1.51e+00	0	32	104	0	60	55193
2026-01-06 19:12:48.87	47.95	0.75	-48.4	-63.7	3.6	1.51e+00	0	32	104	0	60	55242
2026-01-06 19:12:49.88	47.87	0.80	-48.4	-63.7	3.6	1.51e+00	0	32	104	0	60	55210
2026-01-06 19:12:50.89	47.79	0.85	-48.4	-63.7	3.6	1.51e+00	0	32	104	0	60	55045
2026-01-06 19:12:51.90	47.71	0.90	-48.4	-63.7	3.5	1.51e+00	0	32	104	0	60	55057
2026-01-06 19:12:52.91	47.63	0.95	-48.4	-63.6	3.6	1.51e+00	0	32	104	0	60	54838
2026-01-06 19:12:53.92	47.55	1.00	-48.4	-63.6	3.6	1.51e+00	0	32	104	0	60	54866
2026-01-06 19:12:54.93	47.47	1.05	-48.4	-63.7	3.6	1.51e+00	0	32	104	0	60	55117
2026-01-06 19:12:55.94	47.39	1.10	-48.4	-63.7	3.6	1.51e+00	0	32	104	0	60	55208
2026-01-06 19:12:56.95	47.31	1.15	-48.5	-63.7	3.6	1.51e+00	0	32	104	0	60	55095
2026-01-06 19:12:57.96	47.23	1.20	-48.5	-63.7	3.6	1.51e+00	0	32	104	0	60	55029
2026-01-06 19:12:58.97	47.14	1.25	-48.5	-63.7	3.6	1.51e+00	0	32	104	0	60	55150
2026-01-06 19:12:59.98	47.06	1.30	-48.5	-63.7	3.6	1.51e+00	0	32	104	0	60	55289
2026-01-06 19:13:00.99	46.98	1.35	-48.5	-63.6	3.6	1.51e+00	0	32	104	0	60	54905
2026-01-06 19:13:02.00	46.90	1.40	-48.5	-63.6	3.6	1.51e+00	0	32	104	0	60	54895
2026-01-06 19:13:03.00	46.81	1.45	-48.5	-63.7	3.6	1.51e+00	0	32	104	0	60	55120
2026-01-06 19:13:04.02	46.73	1.50	-48.5	-63.7	3.6	1.51e+00	0	32	104	0	60	55197
2026-01-06 19:13:05.03	46.65	1.55	-48.5	-63.6	3.6	1.51e+00	0	33	104	0	60	54953
2026-01-06 19:13:06.04	46.56	1.60	-48.5	-63.7	3.6	1.51e+00	0	32	104	0	60	55253
2026-01-06 19:13:07.05	46.48	1.65	-48.5	-63.7	3.6	1.51e+00	0	32	104	0	60	55224
2026-01-06 19:13:08.06	46.39	1.70	-48.5	-63.6	3.6	1.51e+00	0	32	104	0	60	54873
2026-01-06 19:13:09.07	46.31	1.75	-48.5	-63.6	3.6	1.51e+00	0	33	104	0	60	54850
2026-01-06 19:13:10.08	46.22	1.80	-48.5	-63.6	3.6	1.51e+00	0	33	104	0	60	54990
2026-01-06 19:13:11.09	46.14	1.85	-48.5	-63.7	3.6	1.51e+00	0	32	104	0	60	55319
2026-01-06 19:13:12.10	46.05	1.90	-48.5	-63.6	3.6	1.51e+00	0	32	104	0	60	54952
2026-01-06 19:13:13.11	45.97	1.95	-48.5	-63.7	3.6	1.51e+00	0	32	104	0	60	55039
2026-01-06 19:13:14.12	45.88	2.00	-48.5	-63.7	3.6	1.51e+00	0	32	104	0	60	55311
2026-01-06 19:13:15.13	45.79	2.05	-48.5	-63.7	3.6	1.51e+00	0	33	104	0	60	55259
2026-01-06 19:13:16.14	45.70	2.10	-48.5	-63.6	3.6	1.51e+00	0	32	104	0	60	54988
2026-01-06 19:13:17.15	45.62	2.15	-48.5	-63.7	3.6	1.51e+00	0	33	104	0	60	55104
2026-01-06 19:13:18.16	45.53	2.20	-48.5	-63.7	3.6	1.51e+00	0	33	104	0	60	55088
2026-01-06 19:13:19.16	45.44	2.25	-48.5	-63.7	3.6	1.51e+00	0	33	104	0	60	55136
2026-01-06 19:13:20.18	45.35	2.30	-48.5	-63.6	3.6	1.51e+00	0	33	104	0	60	54962
2026-01-06 19:13:21.18	45.27	2.35	-48.5	-63.6	3.6	1.51e+00	0	33	104	0	60	54958
2026-01-06 19:13:22.19	45.18	2.40	-48.5	-63.7	3.6	1.51e+00	0	33	104	0	60	55127
2026-01-06 19:13:23.20	45.09	2.45	-48.5	-63.6	3.6	1.51e+00	0	33	104	0	60	54789
2026-01-06 19:13:24.21	45.00	2.50	-48.5	-63.7	3.6	1.51e+00	0	33	104	0	60	55043
2026-01-06 19:13:25.22	44.91	2.55	-48.5	-63.7	3.6	1.51e+00	0	33	104	0	60	55211
2026-01-06 19:13:26.23	44.82	2.60	-48.5	-63.7	3.6	1.51e+00	0	33	104	0	60	55053
2026-01-06 19:13:27.25	44.73	2.65	-48.5	-63.7	3.6	1.51e+00	0	33	104	0	60	55232
2026-01-06 19:13:28.25	44.64	2.70	-48.5	-63.7	3.6	1.51e+00	0	33	104	0	60	55498
2026-01-06 19:13:29.26	44.55	2.75	-48.5	-63.6	3.6	1.51e+00	0	33	104	0	60	54943
2026-01-06 19:13:30.27	44.45	2.80	-48.5	-63.7	3.6	1.51e+00	0	33	104	0	60	55400
2026-01-06 19:13:31.29	44.36	2.86	-48.5	-63.7	3.6	1.51e+00	0	33	104	0	60	55063
2026-01-06 19:13:32.29	44.27	2.91	-48.5	-63.7	3.6	1.51e+00	0	33	104	0	60	55443
2026-01-06 19:13:33.30	44.18	2.96	-48.5	-63.6	3.6	1.51e+00	0	33	104	0	60	55005
2026-01-06 19:13:34.32	44.08	3.01	-48.5	-63.7	3.6	1.51e+00	0	33	104	0	60	55302
2026-01-06 19:13:35.33	43.99	3.06	-48.5	-63.7	3.6	1.51e+00	0	33	104	0	60	55183
2026-01-06 19:13:36.34	43.90	3.11	-48.5	-63.6	3.5	1.51e+00	0	33	104	0	60	54947
2026-01-06 19:13:37.35	43.80	3.16	-48.5	-63.7	3.6	1.51e+00	0	33	104	0	60	55148
2026-01-06 19:13:38.35	43.71	3.21	-48.5	-63.7	3.6	1.51e+00	0	33	104	0	60	55090
2026-01-06 19:13:39.36	43.62	3.26	-48.5	-63.7	3.6	1.51e+00	0	33	104	0	60	55133
2026-01-06 19:13:40.37	43.52	3.31	-48.5	-63.6	3.6	1.51e+00	0	33	104	0	60	54780
2026-01-06 19:13:41.38	43.43	3.36	-48.5	-63.6	3.6	1.51e+00	0	33	104	0	60	55022
2026-01-06 19:13:42.39	43.33	3.41	-48.5	-63.6	3.6	1.51e+00	0	33	104	0	60	55021
2026-01-06 19:13:43.40	43.24	3.46	-48.5	-63.7	3.6	1.51e+00	0	33	104	0	60	55377
2026-01-06 19:13:44.42	43.14	3.52	-48.5	-63.7	3.6	1.51e+00	0	33	104	0	60	55168
2026-01-06 19:13:45.42	43.04	3.57	-48.5	-63.7	3.6	1.51e+00	0	33	104	0	60	55100
2026-01-06 19:13:46.43	42.95	3.62	-48.5	-63.6	3.6	1.51e+00	0	33	104	0	60	54940
2026-01-06 19:13:47.44	42.85	3.67	-48.5	-63.7	3.6	1.51e+00	0	33	104	0	60	55048
2026-01-06 19:13:48.45	42.75	3.72	-48.4	-63.7	3.6	1.51e+00	0	33	104	0	60	55289
2026-01-06 19:13:49.46	42.65	3.77	-48.4	-63.6	3.6	1.51e+00	0	33	104	0	60	55015
2026-01-06 19:13:50.47	42.55	3.82	-48.4	-63.7	3.6	1.51e+00	0	33	104	0	60	55187
2026-01-06 19:13:51.48	42.46	3.87	-48.4	-63.7	3.6	1.51e+00	0	33	104	0	60	55116
2026-01-06 19:13:52.49	42.36	3.92	-48.5	-63.7	3.6	1.51e+00	0	33	104	0	60	55481
2026-01-06 19:13:53.50	42.26	3.98	-48.5	-63.6	3.6	1.51e+00	0	33	104	0	60	55017
2026-01-06 19:13:54.51	42.16	4.03	-48.5	-63.7	3.6	1.51e+00	0	33	104	0	60	55276
2026-01-06 19:13:55.52	42.06	4.08	-48.5	-63.7	3.6	1.51e+00	0	33	104	0	60	55059
2026-01-06 19:13:56.53	41.96	4.13	-48.5	-63.7	3.6	1.51e+00	0	33	104	0	60	55174
2026-01-06 19:13:57.54	41.86	4.18	-48.5	-63.6	3.6	1.51e+00	0	33	104	0	60	54977
2026-01-06 19:13:58.55	41.76	4.23	-48.5	-63.7	3.6	1.51e+00	0	33	104	0	60	55105
2026-01-06 19:13:59.56	41.65	4.28	-48.5	-63.6	3.6	1.51e+00	0	33	104	0	60	54973
2026-01-06 19:14:00.57	41.55	4.33	-48.5	-63.6	3.6	1.51e+00	0	33	104	0	60	54826
2026-01-06 19:14:01.58	41.45	4.38	-48.5	-63.6	3.6	1.51e+00	0	33	104	0	60	54974
2026-01-06 19:14:02.59	41.35	4.44	-48.5	-63.7	3.6	1.51e+00	0	33	104	0	60	55105
2026-01-06 19:14:03.60	41.24	4.49	-48.5	-63.7	3.6	1.51e+00	0	33	104	0	60	55222
2026-01-06 19:14:04.61	41.14	4.54	-48.5	-63.7	3.6	1.51e+00	0	33	104	0	60	55112
2026-01-06 19:14:05.62	41.04	4.59	-48.5	-63.7	3.6	1.51e+00	0	33	104	0	60	55050
2026-01-06 19:14:06.63	40.93	4.64	-48.5	-63.6	3.6	1.51e+00	0	33	104	0	60	54914
2026-01-06 19:14:07.64	40.83	4.69	-48.4	-63.7	3.6	1.51e+00	0	33	104	0	60	55086
2026-01-06 19:14:08.65	40.72	4.74	-48.4	-63.6	3.6	1.51e+00	0	33	104	0	60	54987
2026-01-06 19:14:09.66	40.62	4.79	-48.4	-63.6	3.6	1.51e+00	0	33	104	0	60	54926
2026-01-06 19:14:10.67	40.51	4.85	-48.4	-63.7	3.6	1.51e+00	0	33	104	0	60	55132
2026-01-06 19:14:11.68	40.41	4.90	-48.4	-63.7	3.6	1.51e+00	0	33	104	0	60	55028
2026-01-06 19:14:12.69	40.30	4.95	-48.4	-63.6	3.6	1.51e+00	0	33	104	0	60	54721
2026-01-06 19:14:13.70	40.19	5.00	-48.4	-63.6	3.6	1.51e+00	0	33	104	0	60	54857
2026-01-06 19:14:14.71	40.09	5.05	-48.4	-63.6	3.6	1.51e+00	0	33	104	0	60	54824
2026-01-06 19:14:15.72	39.98	5.10	-48.4	-63.6	3.6	1.51e+00	0	33	104	0	60	54945
2026-01-06 19:14:16.73	39.87	5.15	-48.5	-63.7	3.6	1.51e+00	0	33	104	0	60	55104
2026-01-06 19:14:17.74	39.76	5.20	-48.5	-63.6	3.6	1.51e+00	0	33	104	0	60	54986
2026-01-06 19:14:18.75	39.65	5.26	-48.5	-63.7	3.6	1.51e+00	0	33	104	0	60	55169
2026-01-06 19:14:19.76	39.54	5.31	-48.5	-63.7	3.6	1.51e+00	0	33	104	0	60	55034
2026-01-06 19:14:20.77	39.44	5.36	-48.4	-63.6	3.6	1.51e+00	0	33	104	0	60	54772
2026-01-06 19:14:21.78	39.33	5.41	-48.5	-63.6	3.6	1.51e+00	0	33	104	0	60	54929
2026-01-06 19:14:22.79	39.22	5.46	-48.4	-63.6	3.6	1.51e+00	0	33	104	0	60	54442
2026-01-06 19:14:23.80	39.10	5.51	-48.4	-63.6	3.6	1.51e+00	0	33	104	0	60	54800
2026-01-06 19:14:24.81	38.99	5.56	-48.4	-63.6	3.6	1.51e+00	0	33	104	0	60	54730
2026-01-06 19:14:25.82	38.88	5.62	-48.4	-63.6	3.6	1.51e+00	0	33	104	0	60	54744
2026-01-06 19:14:26.83	38.77	5.67	-48.4	-63.6	3.6	1.51e+00	0	33	104	0	60	54793
2026-01-06 19:14:27.84	38.66	5.72	-48.4	-63.6	3.6	1.51e+00	0	33	104	0	60	54660
2026-01-06 19:14:28.85	38.54	5.77	-48.4	-63.6	3.6	1.51e+00	0	33	104	0	60	54973
2026-01-06 19:14:29.86	38.43	5.82	-48.4	-63.7	3.6	1.51e+00	0	33	104	0	60	55034
2026-01-06 19:14:30.87	38.32	5.87	-48.4	-63.6	3.6	1.51e+00	0	33	104	0	60	54701
2026-01-06 19:14:31.88	38.20	5.92	-48.4	-63.6	3.6	1.51e+00	0	33	104	0	60	54905
2026-01-06 19:14:32.89	38.09	5.97	-48.4	-63.6	3.5	1.51e+00	0	33	104	0	60	54862
2026-01-06 19:14:33.90	37.97	6.03	-48.4	-63.6	3.6	1.51e+00	0	33	104	0	60	54640
2026-01-06 19:14:34.91	37.86	6.08	-48.4	-63.6	3.6	1.51e+00	0	33	104	0	60	54797
2026-01-06 19:14:35.91	37.75	6.13	-48.4	-63.6	3.6	1.51e+00	0	33	104	0	60	54976
2026-01-06 19:14:36.92	37.63	6.18	-48.4	-63.6	3.6	1.51e+00	0	33	104	0	60	54688
2026-01-06 19:14:37.94	37.51	6.23	-48.4	-63.6	3.6	1.51e+00	0	33	104	0	60	54860
2026-01-06 19:14:38.94	37.40	6.28	-48.4	-63.6	3.6	1.51e+00	0	33	104	0	60	54859
2026-01-06 19:14:39.95	37.28	6.33	-48.4	-63.6	3.6	1.51e+00	0	33	104	0	60	54858
2026-01-06 19:14:40.96	37.16	6.38	-48.5	-63.6	3.6	1.51e+00	0	33	104	0	60	54956
2026-01-06 19:14:41.97	37.04	6.44	-48.5	-63.6	3.6	1.51e+00	0	33	104	0	60	54919
2026-01-06 19:14:42.98	36.92	6.49	-48.5	-63.6	3.6	1.51e+00	0	33	104	0	60	54805
2026-01-06 19:14:43.99	36.80	6.54	-48.5	-63.6	3.6	1.51e+00	0	33	104	0	60	54807
2026-01-06 19:14:45.00	36.69	6.59	-48.5	-63.6	3.6	1.51e+00	0	33	104	0	60	54970
2026-01-06 19:14:46.01	36.57	6.64	-48.5	-63.6	3.6	1.51e+00	0	33	104	0	60	54863
2026-01-06 19:14:47.02	36.45	6.69	-48.5	-63.7	3.6	1.51e+00	0	33	104	0	60	55088
2026-01-06 19:14:48.03	36.32	6.74	-48.4	-63.6	3.6	1.51e+00	0	33	104	0	60	54795
2026-01-06 19:14:49.04	36.20	6.79	-48.4	-63.6	3.6	1.51e+00	0	33	104	0	60	54802
2026-01-06 19:14:50.05	36.08	6.84	-48.4	-63.6	3.6	1.51e+00	0	33	104	0	60	54615
2026-01-06 19:14:51.06	35.96	6.90	-48.4	-63.6	3.6	1.51e+00	0	33	104	0	60	54924
2026-01-06 19:14:52.07	35.84	6.95	-48.4	-63.7	3.6	1.51e+00	0	33	104	0	60	55039
2026-01-06 19:14:53.08	35.71	7.00	-48.4	-63.6	3.6	1.51e+00	0	33	104	0	60	54677
2026-01-06 19:14:54.08	35.59	7.05	-48.4	-63.6	3.6	1.51e+00	0	33	104	0	60	54913
2026-01-06 19:14:55.09	35.47	7.10	-48.4	-63.6	3.6	1.51e+00	0	33	104	0	60	54744
2026-01-06 19:14:56.10	35.34	7.15	-48.4	-63.6	3.6	1.51e+00	0	33	104	0	60	55005
2026-01-06 19:14:57.11	35.22	7.20	-48.4	-63.7	3.6	1.51e+00	0	33	104	0	60	55026
2026-01-06 19:14:58.12	35.09	7.25	-48.4	-63.6	3.6	1.51e+00	0	33	104	0	60	54714
2026-01-06 19:14:59.13	34.97	7.30	-48.4	-63.6	3.6	1.51e+00	0	33	104	0	60	54836
2026-01-06 19:15:00.14	34.84	7.35	-48.4	-63.6	3.6	1.51e+00	0	33	104	0	60	54871
2026-01-06 19:15:01.15	34.72	7.40	-48.5	-63.6	3.6	1.51e+00	0	33	104	0	60	54675
2026-01-06 19:15:02.16	34.59	7.45	-48.5	-63.7	3.6	1.51e+00	0	33	104	0	60	55223
2026-01-06 19:15:03.17	34.46	7.51	-48.4	-63.6	3.6	1.51e+00	0	33	104	0	60	54822
2026-01-06 19:15:04.18	34.33	7.56	-48.4	-63.6	3.6	1.51e+00	0	33	104	0	60	55011
2026-01-06 19:15:05.19	34.21	7.61	-48.4	-63.7	3.6	1.51e+00	0	33	104	0	60	55027
2026-01-06 19:15:06.20	34.08	7.66	-48.4	-63.6	3.6	1.51e+00	0	33	104	0	60	54774
2026-01-06 19:15:07.20	33.95	7.71	-48.4	-63.6	3.6	1.51e+00	0	33	104	0	60	54715
2026-01-06 19:15:08.21	33.82	7.76	-48.4	-63.6	3.6	1.51e+00	0	33	104	0	60	54811
2026-01-06 19:15:09.22	33.69	7.81	-48.4	-63.6	3.6	1.51e+00	0	33	104	0	60	54765
2026-01-06 19:15:10.23	33.56	7.86	-48.4	-63.6	3.6	1.51e+00	0	33	104	0	60	54984
2026-01-06 19:15:11.24	33.43	7.91	-48.4	-63.6	3.6	1.51e+00	0	33	104	0	60	54881
2026-01-06 19:15:12.25	33.30	7.96	-48.4	-63.6	3.6	1.51e+00	0	33	104	0	60	54824
2026-01-06 19:15:13.26	33.16	8.01	-48.4	-63.6	3.6	1.51e+00	0	33	104	0	60	55012
2026-01-06 19:15:14.27	33.03	8.06	-48.4	-63.6	3.6	1.51e+00	0	33	104	0	60	54785
2026-01-06 19:15:15.28	32.90	8.11	-48.4	-63.6	3.6	1.51e+00	0	33	104	0	60	54579
2026-01-06 19:15:16.29	32.76	8.16	-48.4	-63.6	3.6	1.51e+00	0	33	104	0	60	54724
2026-01-06 19:15:17.30	32.63	8.21	-48.4	-63.6	3.6	1.51e+00	0	33	104	0	60	54858
2026-01-06 19:15:18.31	32.50	8.26	-48.4	-63.6	3.6	1.51e+00	0	33	104	0	60	54809
2026-01-06 19:15:19.32	32.36	8.31	-48.4	-63.6	3.6	1.51e+00	0	33	104	0	60	54700
2026-01-06 19:15:20.33	32.23	8.36	-48.4	-63.7	3.6	1.51e+00	0	33	104	0	60	55078
2026-01-06 19:15:21.35	32.09	8.41	-48.4	-63.6	3.6	1.51e+00	0	33	104	0	60	54601
2026-01-06 19:15:22.35	31.95	8.46	-48.4	-63.6	3.6	1.51e+00	0	33	104	0	60	54744
2026-01-06 19:15:23.36	31.82	8.51	-48.3	-63.6	3.6	1.51e+00	0	33	104	0	60	54992
2026-01-06 19:15:24.37	31.68	8.56	-48.3	-63.7	3.6	1.51e+00	0	33	104	0	60	55033
2026-01-06 19:15:25.38	31.54	8.61	-48.3	-63.7	3.6	1.51e+00	0	33	104	0	60	55056
2026-01-06 19:15:26.39	31.40	8.66	-48.3	-63.6	3.6	1.51e+00	0	33	104	0	60	54709
2026-01-06 19:15:27.40	31.27	8.71	-48.3	-63.6	3.6	1.51e+00	0	33	104	0	60	54627
2026-01-06 19:15:28.41	31.13	8.76	-48.3	-63.6	3.6	1.51e+00	0	33	104	0	60	54758
2026-01-06 19:15:29.42	30.99	8.81	-48.3	-63.6	3.6	1.51e+00	0	33	104	0	60	54655
2026-01-06 19:15:30.43	30.85	8.86	-48.3	-63.6	3.6	1.51e+00	0	33	104	0	60	54901
2026-01-06 19:15:31.45	30.70	8.91	-48.3	-63.7	3.6	1.51e+00	0	33	104	0	60	55298
2026-01-06 19:15:32.45	30.56	8.96	-48.3	-63.6	3.6	1.51e+00	0	33	104	0	60	54750
2026-01-06 19:15:33.46	30.42	9.01	-48.3	-63.6	3.6	1.51e+00	0	33	104	0	60	54747
2026-01-06 19:15:34.48	30.28	9.05	-48.3	-63.7	3.6	1.51e+00	0	33	104	0	60	55100
2026-01-06 19:15:35.48	30.14	9.10	-48.4	-63.6	3.6	1.51e+00	0	33	104	0	60	55015
2026-01-06 19:15:36.50	29.99	9.15	-48.4	-63.6	3.6	1.51e+00	0	33	104	0	60	54475
2026-01-06 19:15:37.51	29.85	9.20	-48.4	-63.6	3.6	1.51e+00	0	33	104	0	60	54605
2026-01-06 19:15:38.52	29.71	9.25	-48.4	-63.6	3.6	1.51e+00	0	33	104	0	60	54900
2026-01-06 19:15:39.53	29.56	9.30	-48.3	-63.6	3.6	1.51e+00	0	33	104	0	60	54794
2026-01-06 19:15:40.54	29.42	9.35	-48.3	-63.6	3.6	1.51e+00	0	33	104	0	60	54812
2026-01-06 19:15:41.55	29.27	9.40	-48.3	-63.6	3.6	1.51e+00	0	33	104	0	60	54902
2026-01-06 19:15:42.56	29.13	9.44	-48.3	-63.6	3.6	1.51e+00	0	33	104	0	60	54893
2026-01-06 19:15:43.57	28.98	9.49	-48.3	-63.6	3.6	1.51e+00	0	33	104	0	60	54576
2026-01-06 19:15:44.58	28.83	9.54	-48.3	-63.6	3.6	1.51e+00	0	33	104	0	60	54990
2026-01-06 19:15:45.58	28.69	9.59	-48.3	-63.6	3.6	1.51e+00	0	33	104	0	60	54568
2026-01-06 19:15:46.59	28.54	9.64	-48.3	-63.6	3.6	1.51e+00	0	33	104	0	60	54728
2026-01-06 19:15:47.60	28.39	9.69	-48.4	-63.6	3.6	1.51e+00	0	33	104	0	60	54727
2026-01-06 19:15:48.61	28.24	9.73	-48.4	-63.6	3.6	1.51e+00	0	33	104	0	60	54968
2026-01-06 19:15:49.62	28.09	9.78	-48.4	-63.6	3.6	1.51e+00	0	33	104	0	60	54493
2026-01-06 19:15:50.63	27.94	9.83	-48.4	-63.6	3.6	1.51e+00	0	33	104	0	60	54770
2026-01-06 19:15:51.64	27.79	9.88	-48.4	-63.6	3.6	1.51e+00	0	33	104	0	60	54974
2026-01-06 19:15:52.65	27.64	9.92	-48.4	-63.6	3.6	1.51e+00	0	33	104	0	60	54660
2026-01-06 19:15:53.66	27.49	9.97	-48.4	-63.6	3.6	1.51e+00	0	33	104	0	60	54822
2026-01-06 19:15:54.67	27.34	10.02	-48.4	-63.6	3.6	1.51e+00	0	33	104	0	60	54694
2026-01-06 19:15:55.68	27.18	10.07	-48.4	-63.6	3.6	1.51e+00	0	33	104	0	60	54505
2026-01-06 19:15:56.69	27.03	10.11	-48.4	-63.6	3.6	1.51e+00	0	33	104	0	60	54770
2026-01-06 19:15:57.70	26.88	10.16	-48.4	-63.6	3.6	1.51e+00	0	33	104	0	60	54647
2026-01-06 19:15:58.71	26.72	10.21	-48.4	-63.6	3.6	1.51e+00	0	33	104	0	60	54681
2026-01-06 19:15:59.72	26.57	10.25	-48.4	-63.6	3.6	1.51e+00	0	33	104	0	60	54744
2026-01-06 19:16:00.73	26.41	10.30	-48.4	-63.6	3.6	1.51e+00	0	33	104	0	60	54973
2026-01-06 19:16:01.74	26.26	10.35	-48.4	-63.6	3.6	1.51e+00	0	33	104	0	60	54758
2026-01-06 19:16:02.75	26.10	10.39	-48.4	-63.6	3.6	1.51e+00	0	33	104	0	60	54778
2026-01-06 19:16:03.76	25.95	10.44	-48.4	-63.6	3.6	1.51e+00	0	33	104	0	60	54833
2026-01-06 19:16:04.77	25.79	10.49	-48.4	-63.6	3.6	1.51e+00	0	33	104	0	60	54826
2026-01-06 19:16:05.78	25.63	10.53	-48.4	-63.6	3.6	1.51e+00	0	33	104	0	60	54619
2026-01-06 19:16:06.79	25.47	10.58	-48.4	-63.6	3.6	1.51e+00	0	33	104	0	60	54688
2026-01-06 19:16:07.80	25.31	10.62	-48.4	-63.6	3.6	1.51e+00	0	33	104	0	60	54510
2026-01-06 19:16:08.81	25.16	10.67	-48.4	-63.6	3.6	1.51e+00	0	33	104	0	60	54682
2026-01-06 19:16:09.82	25.00	10.71	-48.4	-63.6	3.6	1.51e+00	0	33	104	0	60	54683
2026-01-06 19:16:10.83	24.84	10.76	-48.4	-63.6	3.6	1.51e+00	0	33	104	0	60	54935
2026-01-06 19:16:11.84	24.68	10.81	-48.4	-63.6	3.6	1.51e+00	0	33	104	0	60	54644
2026-01-06 19:16:12.84	24.52	10.85	-48.4	-63.6	3.6	1.51e+00	0	33	104	0	60	54600
2026-01-06 19:16:13.85	24.35	10.90	-48.4	-63.6	3.6	1.51e+00	0	33	104	0	60	54710
2026-01-06 19:16:14.86	24.19	10.94	-48.4	-63.6	3.6	1.51e+00	0	33	104	0	60	54581
2026-01-06 19:16:15.87	24.03	10.98	-48.4	-63.6	3.6	1.51e+00	0	33	104	0	60	55019
2026-01-06 19:16:16.88	23.87	11.03	-48.4	-63.6	3.6	1.51e+00	0	33	104	0	60	54809
2026-01-06 19:16:17.89	23.70	11.07	-48.4	-63.6	3.6	1.51e+00	0	33	104	0	60	54712
2026-01-06 19:16:18.90	23.54	11.12	-48.4	-63.6	3.6	1.51e+00	0	33	104	0	60	54796
2026-01-06 19:16:19.90	23.38	11.16	-48.4	-63.6	3.6	1.51e+00	0	33	104	0	60	54587
2026-01-06 19:16:20.91	23.21	11.21	-48.4	-63.6	3.6	1.51e+00	0	33	104	0	60	54683
2026-01-06 19:16:21.92	23.05	11.25	-48.4	-63.6	3.6	1.51e+00	0	33	104	0	60	55016
2026-01-06 19:16:22.93	22.88	11.29	-48.4	-63.6	3.6	1.51e+00	0	33	104	0	60	54792
2026-01-06 19:16:23.94	22.71	11.34	-48.4	-63.6	3.6	1.51e+00	0	33	104	0	60	54683
2026-01-06 19:16:24.95	22.55	11.38	-48.4	-63.6	3.6	1.51e+00	0	33	104	0	60	54680
2026-01-06 19:16:25.96	22.38	11.42	-48.4	-63.6	3.6	1.51e+00	0	33	104	0	60	54483
2026-01-06 19:16:26.97	22.21	11.47	-48.4	-63.6	3.6	1.51e+00	0	33	104	0	60	54463
2026-01-06 19:16:27.98	22.04	11.51	-48.4	-63.6	3.6	1.51e+00	0	33	104	0	60	54577
2026-01-06 19:16:28.99	21.87	11.55	-48.4	-63.6	3.6	1.51e+00	0	33	104	0	60	54643
2026-01-06 19:16:30.00	21.70	11.59	-48.4	-63.6	3.6	1.51e+00	0	33	104	0	60	54540
2026-01-06 19:16:31.01	21.53	11.64	-48.4	-63.6	3.6	1.51e+00	0	33	104	0	60	54521
2026-01-06 19:16:32.02	21.36	11.68	-48.4	-63.6	3.6	1.51e+00	0	33	104	0	60	54665
2026-01-06 19:16:33.02	21.19	11.72	-48.4	-63.6	3.6	1.51e+00	0	33	104	0	60	54588
2026-01-06 19:16:34.03	21.02	11.76	-48.4	-63.6	3.6	1.51e+00	0	33	104	0	60	54596
2026-01-06 19:16:35.04	20.85	11.80	-48.4	-63.6	3.6	1.51e+00	0	33	104	0	60	54569
2026-01-06 19:16:36.05	20.68	11.85	-48.4	-63.6	3.5	1.51e+00	0	33	104	0	60	54672
2026-01-06 19:16:37.06	20.50	11.89	-48.4	-63.6	3.6	1.51e+00	0	33	104	0	60	54733
2026-01-06 19:16:38.07	20.33	11.93	-48.4	-63.6	3.6	1.51e+00	0	33	104	0	60	54660
2026-01-06 19:16:39.09	20.15	11.97	-48.4	-63.6	3.6	1.51e+00	0	33	104	0	60	54626
2026-01-06 19:16:40.09	19.98	12.01	-48.4	-63.6	3.6	1.51e+00	0	34	104	0	60	54457
2026-01-06 19:16:41.10	19.81	12.05	-48.4	-63.5	3.6	1.51e+00	0	33	104	0	60	54259
2026-01-06 19:16:42.11	19.63	12.09	-48.4	-63.5	3.6	1.51e+00	0	33	104	0	60	54198
2026-01-06 19:16:43.13	19.45	12.13	-48.4	-63.6	3.6	1.51e+00	0	33	104	0	60	54510
2026-01-06 19:16:44.13	19.28	12.17	-48.4	-63.6	3.6	1.51e+00	0	34	104	0	60	54497
2026-01-06 19:16:45.15	19.10	12.21	-48.4	-63.6	3.6	1.51e+00	0	33	104	0	60	54702
2026-01-06 19:16:46.16	18.92	12.25	-48.4	-63.6	3.6	1.51e+00	0	33	104	0	60	54741
2026-01-06 19:16:47.16	18.75	12.29	-48.4	-63.6	3.6	1.51e+00	0	34	104	0	60	54482
2026-01-06 19:16:48.17	18.57	12.33	-48.4	-63.6	3.6	1.51e+00	0	34	104	0	60	54459
2026-01-06 19:16:49.18	18.39	12.37	-48.4	-63.6	3.6	1.51e+00	0	34	104	0	60	54577
2026-01-06 19:16:50.19	18.21	12.41	-48.4	-63.5	3.6	1.51e+00	0	33	104	0	60	54307
2026-01-06 19:16:51.20	18.03	12.44	-48.4	-63.6	3.6	1.51e+00	0	33	104	0	60	54498
2026-01-06 19:16:52.21	17.85	12.48	-48.4	-63.6	3.6	1.51e+00	0	33	104	0	60	54546
2026-01-06 19:16:53.22	17.67	12.52	-48.4	-63.6	3.6	1.51e+00	0	33	104	0	60	54514
2026-01-06 19:16:54.23	17.49	12.56	-48.4	-63.6	3.6	1.51e+00	0	33	104	0	60	54566
2026-01-06 19:16:55.24	17.30	12.60	-48.4	-63.6	3.6	1.51e+00	0	33	104	0	60	54599
2026-01-06 19:16:56.25	17.12	12.63	-48.4	-63.6	3.6	1.51e+00	0	34	104	0	60	54512
2026-01-06 19:16:57.26	16.94	12.67	-48.4	-63.6	3.6	1.51e+00	0	33	104	0	60	54607
2026-01-06 19:16:58.27	16.76	12.71	-48.4	-63.6	3.6	1.51e+00	0	33	104	0	60	54779
2026-01-06 19:16:59.28	16.57	12.74	-48.4	-63.6	3.6	1.51e+00	0	33	104	0	60	54514
2026-01-06 19:17:00.29	16.39	12.78	-48.4	-63.6	3.6	1.51e+00	0	34	104	0	60	54559
2026-01-06 19:17:01.30	16.20	12.82	-48.4	-63.6	3.6	1.51e+00	0	34	104	0	60	54539
2026-01-06 19:17:02.31	16.02	12.85	-48.4	-63.6	3.6	1.51e+00	0	33	104	0	60	54818
2026-01-06 19:17:03.31	15.83	12.89	-48.4	-63.6	3.6	1.51e+00	0	34	104	0	60	54691
2026-01-06 19:17:04.32	15.65	12.92	-48.4	-63.6	3.6	1.51e+00	0	33	104	0	60	54516
2026-01-06 19:17:05.33	15.46	12.96	-48.4	-63.6	3.6	1.51e+00	0	34	104	0	60	54644
2026-01-06 19:17:06.34	15.28	12.99	-48.4	-63.6	3.6	1.51e+00	0	33	104	0	60	54585
2026-01-06 19:17:07.35	15.09	13.03	-48.4	-63.5	3.6	1.51e+00	0	33	104	0	60	54245
2026-01-06 19:17:08.36	14.90	13.06	-48.4	-63.5	3.6	1.51e+00	0	33	104	0	60	54232
2026-01-06 19:17:09.38	14.71	13.10	-48.4	-63.5	3.5	1.51e+00	0	34	104	0	60	54364
2026-01-06 19:17:10.39	14.52	13.13	-48.4	-63.5	3.6	1.51e+00	0	33	104	0	60	54367
2026-01-06 19:17:11.40	14.33	13.16	-48.4	-63.5	3.6	1.51e+00	0	34	104	0	60	54386
2026-01-06 19:17:12.41	14.14	13.20	-48.4	-63.5	3.6	1.51e+00	0	33	104	0	60	54196
2026-01-06 19:17:13.41	13.96	13.23	-48.4	-63.5	3.6	1.51e+00	0	33	104	0	60	54080
2026-01-06 19:17:14.42	13.77	13.26	-48.4	-63.5	3.6	1.51e+00	0	33	104	0	60	54299
2026-01-06 19:17:15.43	13.57	13.30	-48.4	-63.5	3.6	1.51e+00	0	34	104	0	60	54214
2026-01-06 19:17:16.44	13.38	13.33	-48.4	-63.6	3.6	1.51e+00	0	33	104	0	60	54709
2026-01-06 19:17:17.45	13.19	13.36	-48.4	-63.6	3.6	1.51e+00	0	33	104	0	60	54619
2026-01-06 19:17:18.46	13.00	13.39	-48.4	-63.5	3.6	1.51e+00	0	33	104	0	60	54250
2026-01-06 19:17:19.47	12.81	13.42	-48.4	-63.6	3.6	1.51e+00	0	34	104	0	60	54514
2026-01-06 19:17:20.48	12.61	13.45	-48.4	-63.6	3.6	1.51e+00	0	34	104	0	60	54522
2026-01-06 19:17:21.49	12.42	13.49	-48.4	-63.5	3.6	1.51e+00	0	34	104	0	60	54388
2026-01-06 19:17:22.50	12.23	13.52	-48.4	-63.5	3.6	1.51e+00	0	34	104	0	60	54350
2026-01-06 19:17:23.51	12.03	13.55	-48.4	-63.6	3.6	1.51e+00	0	33	104	0	60	54438
2026-01-06 19:17:24.52	11.84	13.58	-48.4	-63.5	3.6	1.51e+00	0	34	104	0	60	54227
2026-01-06 19:17:25.53	11.64	13.61	-48.4	-63.5	3.6	1.51e+00	0	33	104	0	60	54324
2026-01-06 19:17:26.54	11.45	13.64	-48.4	-63.5	3.6	1.51e+00	0	34	104	0	60	54127
2026-01-06 19:17:27.55	11.25	13.66	-48.4	-63.5	3.6	1.51e+00	0	33	104	0	60	54388
2026-01-06 19:17:28.55	11.06	13.69	-48.3	-63.5	3.6	1.51e+00	0	33	104	0	60	54200
2026-01-06 19:17:29.56	10.86	13.72	-48.3	-63.5	3.6	1.51e+00	0	33	104	0	60	54213
2026-01-06 19:17:30.57	10.67	13.75	-48.3	-63.5	3.6	1.51e+00	0	33	104	0	60	54140
2026-01-06 19:17:31.58	10.47	13.78	-48.3	-63.5	3.6	1.51e+00	0	33	104	0	60	54180
2026-01-06 19:17:32.59	10.27	13.81	-48.3	-63.5	3.6	1.51e+00	0	33	104	0	60	54111
2026-01-06 19:17:33.60	10.07	13.83	-48.3	-63.5	3.6	1.51e+00	0	33	104	0	60	54006
2026-01-06 19:17:34.61	9.87	13.86	-48.3	-63.5	3.6	1.51e+00	0	33	104	0	60	54368
2026-01-06 19:17:35.62	9.68	13.89	-48.3	-63.5	3.6	1.51e+00	0	33	104	0	60	53944
2026-01-06 19:17:36.63	9.48	13.91	-48.3	-63.5	3.6	1.51e+00	0	34	104	0	60	54335
2026-01-06 19:17:37.64	9.28	13.94	-48.3	-63.5	3.6	1.51e+00	0	33	104	0	60	53907
2026-01-06 19:17:38.65	9.08	13.97	-48.3	-63.5	3.6	1.51e+00	0	33	104	0	60	54341
2026-01-06 19:17:39.66	8.88	13.99	-48.3	-63.5	3.6	1.51e+00	0	33	104	0	60	54215
2026-01-06 19:17:40.67	8.68	14.02	-48.3	-63.5	3.6	1.51e+00	0	33	104	0	60	53987
2026-01-06 19:17:41.68	8.48	14.04	-48.3	-63.5	3.5	1.51e+00	0	34	104	0	60	54366
2026-01-06 19:17:42.69	8.27	14.07	-48.3	-63.5	3.6	1.51e+00	0	33	104	0	60	54086
2026-01-06 19:17:43.70	8.07	14.09	-48.3	-63.5	3.6	1.51e+00	0	33	104	0	60	54167
2026-01-06 19:17:44.71	7.87	14.11	-48.3	-63.5	3.6	1.51e+00	0	33	104	0	60	54256
2026-01-06 19:17:45.72	7.67	14.14	-48.3	-63.5	3.6	1.51e+00	0	33	104	0	60	53990
2026-01-06 19:17:46.73	7.47	14.16	-48.3	-63.5	3.6	1.51e+00	0	33	104	0	60	54078
2026-01-06 19:17:47.74	7.26	14.18	-48.3	-63.5	3.6	1.51e+00	0	33	104	0	60	53937
2026-01-06 19:17:48.75	7.06	14.20	-48.3	-63.5	3.6	1.51e+00	0	34	104	0	60	53910
2026-01-06 19:17:49.76	6.86	14.23	-48.3	-63.5	3.6	1.51e+00	0	34	104	0	60	54120
2026-01-06 19:17:50.77	6.65	14.25	-48.3	-63.5	3.6	1.51e+00	0	33	104	0	60	54038
2026-01-06 19:17:51.77	6.45	14.27	-48.3	-63.5	3.6	1.51e+00	0	34	104	0	60	53952
2026-01-06 19:17:52.78	6.25	14.29	-48.3	-63.5	3.6	1.51e+00	0	33	104	0	60	54052
2026-01-06 19:17:53.79	6.04	14.31	-48.3	-63.5	3.6	1.51e+00	0	34	104	0	60	54056
2026-01-06 19:17:54.80	5.84	14.33	-48.3	-63.5	3.6	1.51e+00	0	33	104	0	60	54073
2026-01-06 19:17:55.81	5.63	14.35	-48.3	-63.5	3.6	1.51e+00	0	34	104	0	60	54027
2026-01-06 19:17:56.82	5.43	14.37	-48.3	-63.4	3.6	1.51e+00	0	33	104	0	60	53667
2026-01-06 19:17:57.83	5.22	14.39	-48.3	-63.5	3.6	1.51e+00	0	33	104	0	60	53888
2026-01-06 19:17:58.83	5.02	14.41	-48.3	-63.5	3.6	1.51e+00	0	33	104	0	60	54054
2026-01-06 19:17:59.84	4.81	14.43	-48.3	-63.5	3.6	1.51e+00	0	33	104	0	60	54037
2026-01-06 19:18:00.85	4.60	14.45	-48.3	-63.5	3.6	1.51e+00	0	34	104	0	60	53784
2026-01-06 19:18:01.86	4.40	14.47	-48.3	-63.5	3.6	1.51e+00	0	33	104	0	60	53912
2026-01-06 19:18:02.87	4.19	14.48	-48.3	-63.4	3.6	1.51e+00	0	33	104	0	60	53664
2026-01-06 19:18:03.88	3.98	14.50	-48.3	-63.5	3.6	1.51e+00	0	33	104	0	60	54002
2026-01-06 19:18:04.89	3.78	14.52	-48.3	-63.5	3.6	1.51e+00	0	33	104	0	60	53929
2026-01-06 19:18:05.90	3.57	14.53	-48.3	-63.5	3.6	1.51e+00	0	34	104	0	60	53948
2026-01-06 19:18:06.90	3.36	14.55	-48.3	-63.5	3.6	1.51e+00	0	34	104	0	60	53818
2026-01-06 19:18:07.91	3.15	14.57	-48.3	-63.5	3.6	1.51e+00	0	34	104	0	60	53889
2026-01-06 19:18:08.93	2.94	14.58	-48.3	-63.5	3.5	1.51e+00	0	33	104	0	60	53808
2026-01-06 19:18:09.94	2.74	14.60	-48.3	-63.4	3.6	1.51e+00	0	34	104	0	60	53719
2026-01-06 19:18:10.94	2.53	14.61	-48.3	-63.4	3.6	1.51e+00	0	34	104	0	60	53588
2026-01-06 19:18:11.95	2.32	14.62	-48.2	-63.4	3.6	1.51e+00	0	34	104	0	60	53552
2026-01-06 19:18:12.96	2.11	14.64	-48.2	-63.4	3.6	1.51e+00	0	34	104	0	60	53727
2026-01-06 19:18:13.97	1.90	14.65	-48.2	-63.4	3.6	1.51e+00	0	34	104	0	60	53643
2026-01-06 19:18:14.98	1.69	14.67	-48.2	-63.5	3.6	1.51e+00	0	34	104	0	60	53908
2026-01-06 19:18:15.99	1.48	14.68	-48.2	-63.4	3.6	1.51e+00	0	34	104	0	60	53763
2026-01-06 19:18:17.00	1.27	14.69	-48.2	-63.4	3.6	1.51e+00	0	33	104	0	60	53662
2026-01-06 19:18:18.01	1.06	14.70	-48.2	-63.4	3.5	1.51e+00	0	34	104	0	60	53751
2026-01-06 19:18:19.02	0.85	14.71	-48.2	-63.4	3.6	1.51e+00	0	33	104	0	60	53362
2026-01-06 19:18:20.03	0.64	14.73	-48.2	-63.4	3.6	1.51e+00	0	33	104	0	60	53496
2026-01-06 19:18:21.04	0.43	14.74	-48.2	-63.4	3.6	1.51e+00	0	33	104	0	60	53586
2026-01-06 19:18:22.05	0.22	14.75	-48.2	-63.4	3.6	1.51e+00	0	33	104	0	60	53495
2026-01-06 19:18:23.06	0.01	14.76	-48.2	-63.4	3.6	1.51e+00	0	33	104	0	60	53445
2026-01-06 19:18:24.07	359.80	14.77	-48.2	-63.4	3.6	1.51e+00	0	33	104	0	60	53462
2026-01-06 19:18:25.07	359.59	14.78	-48.2	-63.4	3.6	1.51e+00	0	34	104	0	60	53589
2026-01-06 19:18:26.08	359.38	14.78	-48.2	-63.4	3.6	1.51e+00	0	34	104	0	60	53541
2026-01-06 19:18:27.09	359.16	14.79	-48.2	-63.4	3.6	1.51e+00	0	34	104	0	60	53497
2026-01-06 19:18:28.10	358.95	14.80	-48.2	-63.4	3.6	1.51e+00	0	34	104	0	60	53518
2026-01-06 19:18:29.11	358.74	14.81	-48.2	-63.4	3.6	1.51e+00	0	34	104	0	60	53503
2026-01-06 19:18:30.12	358.53	14.82	-48.2	-63.3	3.6	1.51e+00	0	34	104	0	60	53147
2026-01-06 19:18:31.13	358.32	14.82	-48.2	-63.4	3.6	1.51e+00	0	34	104	0	60	53454
2026-01-06 19:18:32.14	358.11	14.83	-48.2	-63.4	3.6	1.51e+00	0	34	104	0	60	53286
2026-01-06 19:18:33.15	357.89	14.84	-48.2	-63.3	3.6	1.51e+00	0	34	104	0	60	52965
2026-01-06 19:18:34.16	357.68	14.84	-48.2	-63.4	3.6	1.51e+00	0	34	104	0	60	53391
2026-01-06 19:18:35.17	357.47	14.85	-48.2	-63.4	3.6	1.51e+00	0	34	104	0	60	53456
2026-01-06 19:18:36.18	357.26	14.85	-48.2	-63.4	3.6	1.51e+00	0	34	104	0	60	53227
2026-01-06 19:18:37.19	357.04	14.86	-48.2	-63.4	3.6	1.51e+00	0	34	104	0	60	53229
2026-01-06 19:18:38.20	356.83	14.86	-48.2	-63.3	3.6	1.51e+00	0	34	104	0	60	53152
2026-01-06 19:18:39.21	356.62	14.87	-48.2	-63.4	3.6	1.51e+00	0	34	104	0	60	53271
2026-01-06 19:18:40.22	356.41	14.87	-48.2	-63.4	3.6	1.51e+00	0	34	104	0	60	53432
2026-01-06 19:18:41.23	356.19	14.87	-48.2	-63.3	3.6	1.51e+00	0	34	104	0	60	53115
2026-01-06 19:18:42.24	355.98	14.87	-48.2	-63.3	3.6	1.51e+00	0	33	104	0	60	53102
2026-01-06 19:18:43.25	355.77	14.88	-48.2	-63.3	3.6	1.51e+00	0	34	104	0	60	52988
2026-01-06 19:18:44.26	355.56	14.88	-48.2	-63.4	3.6	1.51e+00	0	34	104	0	60	53439
2026-01-06 19:18:45.27	355.34	14.88	-48.2	-63.4	3.6	1.51e+00	0	34	104	0	60	53280
2026-01-06 19:18:46.28	355.13	14.88	-48.2	-63.4	3.6	1.51e+00	0	34	104	0	60	53211
2026-01-06 19:18:47.29	354.92	14.88	-48.2	-63.4	3.6	1.51e+00	0	34	104	0	60	53186
2026-01-06 19:18:48.30	354.70	14.88	-48.2	-63.3	3.6	1.51e+00	0	33	104	0	60	53000
2026-01-06 19:18:49.31	354.49	14.88	-48.2	-63.3	3.6	1.51e+00	0	34	104	0	60	53089
2026-01-06 19:18:50.32	354.28	14.88	-48.1	-63.3	3.6	1.51e+00	0	34	104	0	60	52673
2026-01-06 19:18:51.33	354.07	14.88	-48.1	-63.3	3.6	1.51e+00	0	34	104	0	60	52925
2026-01-06 19:18:52.34	353.85	14.88	-48.1	-63.3	3.6	1.51e+00	0	34	104	0	60	53111
2026-01-06 19:18:53.35	353.64	14.88	-48.1	-63.3	3.6	1.51e+00	0	34	104	0	60	52811
2026-01-06 19:18:54.36	353.43	14.88	-48.1	-63.3	3.6	1.51e+00	0	34	104	0	60	52809
2026-01-06 19:18:55.37	353.21	14.87	-48.1	-63.3	3.6	1.51e+00	0	34	104	0	60	52903
2026-01-06 19:18:56.38	353.00	14.87	-48.1	-63.3	3.6	1.51e+00	0	34	104	0	60	53045
2026-01-06 19:18:57.38	352.79	14.87	-48.1	-63.3	3.6	1.51e+00	0	34	104	0	60	52806
2026-01-06 19:18:58.39	352.58	14.86	-48.1	-63.3	3.6	1.51e+00	0	34	104	0	60	52744
2026-01-06 19:18:59.40	352.37	14.86	-48.1	-63.3	3.6	1.51e+00	0	34	104	0	60	52784
2026-01-06 19:19:00.41	352.15	14.85	-48.1	-63.3	3.6	1.51e+00	0	34	104	0	60	52815
2026-01-06 19:19:01.42	351.94	14.85	-48.1	-63.3	3.6	1.51e+00	0	34	104	0	60	52832
2026-01-06 19:19:02.43	351.73	14.84	-48.1	-63.3	3.6	1.51e+00	0	34	104	0	60	52561
2026-01-06 19:19:03.44	351.52	14.84	-48.1	-63.3	3.6	1.51e+00	0	34	104	0	60	52911
2026-01-06 19:19:04.45	351.30	14.83	-48.1	-63.3	3.6	1.51e+00	0	34	104	0	60	52726
2026-01-06 19:19:05.46	351.09	14.83	-48.1	-63.3	3.6	1.51e+00	0	34	104	0	60	52586
2026-01-06 19:19:06.47	350.88	14.82	-48.1	-63.2	3.6	1.51e+00	0	33	104	0	60	52366
2026-01-06 19:19:07.48	350.67	14.81	-48.1	-63.2	3.6	1.51e+00	0	34	104	0	60	52462
2026-01-06 19:19:08.49	350.46	14.80	-48.1	-63.2	3.6	1.51e+00	0	34	104	0	60	52237
2026-01-06 19:19:09.50	350.24	14.80	-48.1	-63.3	3.6	1.51e+00	0	33	104	0	60	52658
2026-01-06 19:19:10.51	350.03	14.79	-48.1	-63.2	3.6	1.51e+00	0	34	104	0	60	52337
2026-01-06 19:19:11.52	349.82	14.78	-48.1	-63.3	3.6	1.51e+00	0	34	104	0	60	52629
2026-01-06 19:19:12.53	349.61	14.77	-48.1	-63.2	3.6	1.51e+00	0	34	104	0	60	52276
2026-01-06 19:19:13.54	349.40	14.76	-48.1	-63.3	3.6	1.51e+00	0	34	104	0	60	52577
2026-01-06 19:19:14.55	349.19	14.75	-48.1	-63.2	3.6	1.51e+00	0	34	104	0	60	52494
2026-01-06 19:19:15.56	348.98	14.74	-48.0	-63.2	3.6	1.51e+00	0	34	104	0	60	52309
2026-01-06 19:19:16.56	348.77	14.73	-48.0	-63.2	3.6	1.51e+00	0	33	104	0	60	52412
2026-01-06 19:19:17.58	348.56	14.72	-48.0	-63.2	3.6	1.51e+00	0	34	104	0	60	52412
2026-01-06 19:19:18.58	348.35	14.71	-48.0	-63.2	3.5	1.51e+00	0	33	104	0	60	52219
2026-01-06 19:19:19.59	348.14	14.70	-48.0	-63.2	3.6	1.51e+00	0	34	104	0	60	52235
2026-01-06 19:19:20.61	347.92	14.68	-48.0	-63.2	3.6	1.51e+00	0	34	104	0	60	52271
2026-01-06 19:19:21.62	347.72	14.67	-48.0	-63.2	3.6	1.51e+00	0	33	104	0	60	52003
2026-01-06 19:19:22.63	347.51	14.66	-48.0	-63.1	3.6	1.51e+00	0	34	104	0	60	51914
2026-01-06 19:19:23.63	347.30	14.64	-48.0	-63.1	3.6	1.51e+00	0	34	104	0	60	51788
2026-01-06 19:19:24.65	347.09	14.63	-48.0	-63.2	3.6	1.51e+00	0	34	104	0	60	52175
2026-01-06 19:19:25.66	346.88	14.62	-48.0	-63.1	3.6	1.51e+00	0	34	104	0	60	51942
2026-01-06 19:19:26.67	346.67	14.60	-48.0	-63.2	3.6	1.51e+00	0	34	104	0	60	51984
2026-01-06 19:19:27.68	346.46	14.59	-48.0	-63.1	3.6	1.51e+00	0	33	104	0	60	51907
2026-01-06 19:19:28.69	346.25	14.57	-48.0	-63.2	3.6	1.51e+00	0	34	104	0	60	51974
2026-01-06 19:19:29.70	346.04	14.56	-48.0	-63.1	3.6	1.51e+00	0	33	104	0	60	51732
2026-01-06 19:19:30.71	345.83	14.54	-48.0	-63.1	3.6	1.51e+00	0	34	104	0	60	51864
2026-01-06 19:19:31.72	345.63	14.52	-47.9	-63.2	3.6	1.51e+00	0	33	104	0	60	52008
2026-01-06 19:19:32.73	345.42	14.51	-47.9	-63.1	3.5	1.51e+00	0	33	104	0	60	51779
2026-01-06 19:19:33.74	345.21	14.49	-47.9	-63.1	3.6	1.51e+00	0	34	104	0	60	51614
2026-01-06 19:19:34.75	345.00	14.47	-47.9	-63.1	3.6	1.51e+00	0	34	104	0	60	51710
2026-01-06 19:19:35.76	344.80	14.45	-47.9	-63.1	3.5	1.51e+00	0	33	104	0	60	51464
2026-01-06 19:19:36.77	344.59	14.44	-47.9	-63.1	3.6	1.51e+00	0	33	104	0	60	51500
2026-01-06 19:19:37.78	344.38	14.42	-47.9	-63.1	3.6	1.51e+00	0	33	104	0	60	51431
2026-01-06 19:19:38.79	344.18	14.40	-47.9	-63.1	3.6	1.51e+00	0	34	104	0	60	51675
2026-01-06 19:19:39.80	343.97	14.38	-47.9	-63.1	3.6	1.51e+00	0	33	104	0	60	51634
2026-01-06 19:19:40.81	343.77	14.36	-47.9	-63.1	3.6	1.51e+00	0	33	104	0	60	51662
2026-01-06 19:19:41.82	343.56	14.34	-47.9	-63.0	3.6	1.51e+00	0	34	104	0	60	51331
2026-01-06 19:19:42.83	343.36	14.32	-47.9	-63.1	3.6	1.51e+00	0	34	104	0	60	51368
2026-01-06 19:19:43.83	343.15	14.30	-47.9	-63.1	3.6	1.51e+00	0	33	104	0	60	51457
2026-01-06 19:19:44.84	342.95	14.28	-47.9	-63.0	3.6	1.51e+00	0	34	104	0	60	51289
2026-01-06 19:19:45.85	342.75	14.26	-47.9	-63.0	3.6	1.51e+00	0	34	104	0	60	51107
2026-01-06 19:19:46.86	342.54	14.24	-47.9	-63.1	3.5	1.51e+00	0	34	104	0	60	51503
2026-01-06 19:19:47.87	342.34	14.21	-47.8	-63.0	3.6	1.51e+00	0	34	104	0	60	51254
2026-01-06 19:19:48.88	342.13	14.19	-47.8	-63.0	3.6	1.51e+00	0	34	104	0	60	51141
2026-01-06 19:19:49.89	341.93	14.17	-47.8	-63.0	3.6	1.51e+00	0	34	104	0	60	50872
2026-01-06 19:19:50.90	341.73	14.15	-47.8	-63.0	3.6	1.51e+00	0	34	104	0	60	51100
2026-01-06 19:19:51.91	341.53	14.12	-47.8	-63.0	3.6	1.51e+00	0	34	104	0	60	51023
2026-01-06 19:19:52.92	341.33	14.10	-47.8	-63.0	3.5	1.51e+00	0	34	104	0	60	51018
2026-01-06 19:19:53.93	341.12	14.07	-47.8	-63.0	3.5	1.51e+00	0	34	104	0	60	51001
2026-01-06 19:19:54.94	340.92	14.05	-47.8	-62.9	3.6	1.51e+00	0	34	104	0	60	50601
2026-01-06 19:19:55.95	340.72	14.03	-47.8	-63.0	3.6	1.51e+00	0	33	104	0	60	50778
2026-01-06 19:19:56.96	340.52	14.00	-47.8	-63.0	3.6	1.51e+00	0	34	104	0	60	50988
2026-01-06 19:19:57.97	340.32	13.98	-47.8	-63.0	3.6	1.51e+00	0	34	104	0	60	50799
2026-01-06 19:19:58.98	340.12	13.95	-47.7	-62.9	3.6	1.51e+00	0	34	104	0	60	50508
2026-01-06 19:19:59.99	339.92	13.92	-47.7	-62.9	3.6	1.51e+00	0	34	104	0	60	50444
2026-01-06 19:20:01.00	339.72	13.90	-47.7	-62.9	3.6	1.51e+00	0	34	104	0	60	50381
2026-01-06 19:20:02.01	339.52	13.87	-47.7	-62.9	3.6	1.51e+00	0	33	104	0	60	50437
2026-01-06 19:20:03.02	339.32	13.84	-47.7	-62.9	3.6	1.51e+00	0	34	104	0	60	50204
2026-01-06 19:20:04.03	339.13	13.82	-47.7	-62.9	3.6	1.51e+00	0	34	104	0	60	50253
2026-01-06 19:20:05.04	338.93	13.79	-47.7	-62.9	3.6	1.51e+00	0	34	104	0	60	50356
2026-01-06 19:20:06.05	338.73	13.76	-47.7	-62.9	3.6	1.51e+00	0	33	104	0	60	50380
2026-01-06 19:20:07.06	338.53	13.73	-47.7	-62.8	3.6	1.51e+00	0	34	104	0	60	50072
2026-01-06 19:20:08.07	338.34	13.70	-47.6	-62.8	3.6	1.51e+00	0	33	104	0	60	49910
2026-01-06 19:20:09.08	338.14	13.68	-47.6	-62.8	3.6	1.51e+00	0	34	104	0	60	49748
2026-01-06 19:20:10.09	337.94	13.65	-47.6	-62.8	3.6	1.51e+00	0	33	104	0	60	49906
2026-01-06 19:20:11.09	337.75	13.62	-47.6	-62.8	3.6	1.51e+00	0	33	104	0	60	50104
2026-01-06 19:20:12.10	337.56	13.59	-47.6	-62.8	3.6	1.51e+00	0	33	104	0	60	49648
2026-01-06 19:20:13.11	337.36	13.56	-47.6	-62.8	3.6	1.51e+00	0	33	104	0	60	49669
2026-01-06 19:20:14.12	337.17	13.53	-47.6	-62.7	3.6	1.51e+00	0	33	104	0	60	49569
2026-01-06 19:20:15.13	336.97	13.50	-47.6	-62.7	3.6	1.51e+00	0	34	104	0	60	49601
2026-01-06 19:20:16.14	336.78	13.47	-47.6	-62.8	3.6	1.51e+00	0	33	104	0	60	49646
2026-01-06 19:20:17.15	336.59	13.44	-47.5	-62.7	3.6	1.51e+00	0	34	104	0	60	49401
2026-01-06 19:20:18.16	336.39	13.40	-47.5	-62.7	3.6	1.51e+00	0	33	104	0	60	49164
2026-01-06 19:20:19.17	336.20	13.37	-47.5	-62.7	3.6	1.51e+00	0	34	104	0	60	49294
2026-01-06 19:20:20.18	336.01	13.34	-47.5	-62.7	3.6	1.51e+00	0	33	104	0	60	49050
2026-01-06 19:20:21.19	335.82	13.31	-47.5	-62.7	3.6	1.51e+00	0	34	104	0	60	49051
2026-01-06 19:20:22.20	335.63	13.28	-47.5	-62.7	3.6	1.51e+00	0	34	104	0	60	49068
2026-01-06 19:20:23.20	335.44	13.24	-47.5	-62.6	3.6	1.51e+00	0	34	104	0	60	48784
2026-01-06 19:20:24.21	335.25	13.21	-47.4	-62.6	3.6	1.51e+00	0	34	104	0	60	48843
2026-01-06 19:20:25.22	335.06	13.18	-47.4	-62.6	3.6	1.51e+00	0	33	104	0	60	48729
2026-01-06 19:20:26.24	334.87	13.14	-47.4	-62.6	3.6	1.51e+00	0	33	104	0	60	48756
2026-01-06 19:20:27.24	334.68	13.11	-47.4	-62.6	3.6	1.51e+00	0	34	104	0	60	48764
2026-01-06 19:20:28.25	334.49	13.08	-47.4	-62.6	3.6	1.51e+00	0	34	104	0	60	48552
2026-01-06 19:20:29.26	334.30	13.04	-47.3	-62.5	3.6	1.51e+00	0	34	104	0	60	48350
2026-01-06 19:20:30.27	334.12	13.01	-47.3	-62.5	3.6	1.51e+00	0	34	104	0	60	48190
2026-01-06 19:20:31.28	333.93	12.97	-47.3	-62.5	3.6	1.51e+00	0	33	104	0	60	48445
2026-01-06 19:20:32.29	333.74	12.94	-47.3	-62.4	3.6	1.51e+00	0	33	104	0	60	47905
2026-01-06 19:20:33.30	333.56	12.90	-47.3	-62.5	3.6	1.51e+00	0	33	104	0	60	47983
2026-01-06 19:20:34.31	333.37	12.87	-47.3	-62.4	3.6	1.51e+00	0	34	104	0	60	47891
2026-01-06 19:20:35.32	333.19	12.83	-47.2	-62.4	3.6	1.51e+00	0	34	104	0	60	47710
2026-01-06 19:20:36.33	333.00	12.79	-47.2	-62.4	3.6	1.51e+00	0	34	104	0	60	47588
2026-01-06 19:20:37.34	332.82	12.76	-47.2	-62.4	3.6	1.51e+00	0	33	104	0	60	47421
2026-01-06 19:20:38.35	332.63	12.72	-47.2	-62.3	3.6	1.51e+00	0	34	104	0	60	47366
2026-01-06 19:20:39.36	332.45	12.68	-47.2	-62.3	3.6	1.51e+00	0	34	104	0	60	47051
2026-01-06 19:20:40.37	332.27	12.65	-47.1	-62.3	3.6	1.51e+00	0	34	104	0	60	47193
2026-01-06 19:20:41.38	332.08	12.61	-47.1	-62.3	3.6	1.51e+00	0	34	104	0	60	47093
2026-01-06 19:20:42.39	331.90	12.57	-47.1	-62.2	3.6	1.51e+00	0	34	104	0	60	46829
2026-01-06 19:20:43.40	331.72	12.53	-47.1	-62.2	3.6	1.51e+00	0	34	104	0	60	46676
2026-01-06 19:20:44.41	331.54	12.50	-47.0	-62.2	3.6	1.51e+00	0	34	104	0	60	46414
2026-01-06 19:20:45.42	331.36	12.46	-47.0	-62.2	3.6	1.51e+00	0	34	104	0	60	46434
2026-01-06 19:20:46.43	331.18	12.42	-47.0	-62.2	3.6	1.51e+00	0	34	104	0	60	46348
2026-01-06 19:20:47.44	331.00	12.38	-46.9	-62.1	3.6	1.51e+00	0	34	104	0	60	46277
2026-01-06 19:20:48.45	330.82	12.34	-46.9	-62.2	3.6	1.51e+00	0	34	104	0	60	46337
2026-01-06 19:20:49.46	330.64	12.30	-46.9	-62.1	3.6	1.51e+00	0	34	104	0	60	46067
2026-01-06 19:20:50.46	330.47	12.27	-47.6	-62.8	3.6	1.51e+00	0	34	104	0	60	49818
2026-01-06 19:20:51.47	330.29	12.23	-47.8	-63.1	3.6	1.51e+00	0	33	104	0	60	51368
2026-01-06 19:20:52.49	330.11	12.19	-48.0	-63.3	3.6	1.51e+00	0	34	104	0	60	52583
2026-01-06 19:20:53.49	329.93	12.15	-48.1	-63.3	3.6	1.51e+00	0	34	104	0	60	52697
2026-01-06 19:20:54.50	329.76	12.11	-48.2	-63.4	3.6	1.51e+00	0	33	104	0	60	53358
2026-01-06 19:20:55.51	329.58	12.07	-48.3	-63.5	3.6	1.51e+00	0	33	104	0	60	54118
2026-01-06 19:20:56.52	329.41	12.03	-48.3	-63.5	3.6	1.51e+00	0	34	104	0	60	53910
2026-01-06 19:20:57.53	329.23	11.99	-48.4	-63.6	3.6	1.51e+00	0	33	104	0	60	54498
2026-01-06 19:20:58.55	329.06	11.94	-48.4	-63.6	3.6	1.51e+00	0	34	104	0	60	54724
2026-01-06 19:20:59.55	328.88	11.90	-48.5	-63.7	3.6	1.51e+00	0	34	104	0	60	55232
2026-01-06 19:21:00.56	328.71	11.86	-48.5	-63.7	3.6	1.51e+00	0	34	104	0	60	55125
2026-01-06 19:21:01.57	328.54	11.82	-48.4	-63.8	3.6	1.51e+00	0	34	104	0	60	55802
2026-01-06 19:21:02.58	328.36	11.78	-48.5	-63.8	3.6	1.51e+00	0	34	104	0	60	55730
2026-01-06 19:21:03.59	328.19	11.74	-48.5	-63.7	3.6	1.51e+00	0	33	104	0	60	55613
2026-01-06 19:21:04.60	328.02	11.70	-48.6	-63.9	3.6	1.51e+00	0	34	104	0	60	56437
2026-01-06 19:21:05.61	327.85	11.65	-48.3	-63.8	3.6	1.51e+00	0	34	104	0	60	55784
2026-01-06 19:21:06.62	327.68	11.61	-48.3	-63.8	3.6	1.51e+00	0	33	104	0	60	55675
2026-01-06 19:21:07.63	327.51	11.57	-48.3	-63.8	3.6	1.51e+00	0	34	104	0	60	55784
2026-01-06 19:21:08.64	327.34	11.53	-48.5	-63.8	3.6	1.51e+00	0	34	104	0	60	55971
2026-01-06 19:21:09.65	327.17	11.48	-48.5	-63.8	3.6	1.51e+00	0	34	104	0	60	56039
2026-01-06 19:21:10.66	327.00	11.44	-48.4	-63.8	3.6	1.51e+00	0	34	104	0	60	55703
2026-01-06 19:21:11.68	326.83	11.40	-48.3	-63.7	3.6	1.51e+00	0	33	104	0	60	55400
2026-01-06 19:21:12.68	326.67	11.35	-48.4	-63.7	3.6	1.51e+00	0	33	104	0	60	55159
2026-01-06 19:21:13.69	326.50	11.31	-48.3	-63.6	3.6	1.51e+00	0	34	104	0	60	54890
2026-01-06 19:21:14.70	326.34	11.27	-48.4	-63.6	3.6	1.51e+00	0	33	104	0	60	54966
2026-01-06 19:21:15.71	326.17	11.22	-48.4	-63.6	3.6	1.51e+00	0	33	104	0	60	54480
2026-01-06 19:21:16.72	326.00	11.18	-48.4	-63.5	3.6	1.51e+00	0	33	104	0	60	54293
2026-01-06 19:21:17.73	325.84	11.13	-48.4	-63.5	3.6	1.51e+00	0	34	104	0	60	54328
2026-01-06 19:21:18.74	325.68	11.09	-48.3	-63.4	3.6	1.51e+00	0	34	104	0	60	53587
2026-01-06 19:21:19.75	325.51	11.05	-48.2	-63.3	3.6	1.51e+00	0	34	104	0	60	52915
2026-01-06 19:21:20.76	325.35	11.00	-41.6	-43.2	18.6	3.45e-02	0	34	0	0	54	7373
2026-01-06 19:21:21.77	325.19	10.96	-43.5	-45.8	14.4	0.00e+00	56	33	0	1048576	58	7924
2026-01-06 19:21:22.78	325.02	10.91	-42.0	-43.5	20.4	4.28e-01	0	34	0	3145728	60	5386
2026-01-06 19:21:23.79	324.86	10.87	-40.1	-41.4	18.8	0.00e+00	92	33	0	5242880	54	6005
2026-01-06 19:21:24.80	324.70	10.82	-47.3	-54.7	9.7	1.24e+00	0	33	104	5242880	60	19537
2026-01-06 19:21:25.81	324.54	10.78	-41.0	-42.4	19.4	0.00e+00	0	33	0	6291456	54	6739
2026-01-06 19:21:26.82	324.38	10.73	-42.1	-43.7	18.6	3.17e-03	0	33	0	7340032	60	5523
2026-01-06 19:21:27.83	324.22	10.69	-40.2	-41.6	20.1	0.00e+00	0	33	0	9437184	54	6112
2026-01-06 19:21:28.83	324.06	10.64	-39.6	-40.7	21.1	0.00e+00	56	33	0	11534336	52	6228
2026-01-06 19:21:29.84	323.90	10.60	-39.6	-40.8	20.9	0.00e+00	0	33	0	13631488	52	6247
2026-01-06 19:21:30.85	323.74	10.55	-40.1	-41.4	20.5	0.00e+00	74	33	0	15728640	52	6715
2026-01-06 19:21:31.86	323.59	10.50	-40.1	-41.4	20.4	0.00e+00	0	33	0	16777216	52	6730
2026-01-06 19:21:32.87	323.43	10.46	-40.4	-41.8	20.1	0.00e+00	0	33	0	18874368	52	7021
2026-01-06 19:21:33.88	323.27	10.41	-40.9	-42.4	19.5	0.00e+00	0	33	0	20971520	54	6693
2026-01-06 19:21:34.89	323.12	10.36	-41.5	-43.1	18.8	0.00e+00	0	33	0	23068672	54	7316
2026-01-06 19:21:35.90	322.96	10.32	-41.8	-43.4	18.6	0.00e+00	25	33	0	25165824	56	6753
2026-01-06 19:21:36.91	322.81	10.27	-42.4	-44.2	17.7	0.00e+00	0	33	0	26214400	56	7417
2026-01-06 19:21:37.92	322.65	10.22	-42.3	-44.2	17.8	0.00e+00	92	33	0	28311552	56	7401
2026-01-06 19:21:38.93	322.50	10.18	-41.7	-43.4	18.5	0.00e+00	0	33	0	30408704	56	6743
2026-01-06 19:21:39.94	322.34	10.13	-41.7	-43.4	18.6	0.00e+00	91	33	0	32505856	56	6706
2026-01-06 19:21:40.95	322.19	10.08	-41.6	-43.2	18.8	0.00e+00	0	33	0	34603008	56	6572
2026-01-06 19:21:41.96	322.04	10.04	-41.5	-43.1	18.8	0.00e+00	0	34	0	36700160	56	6527
2026-01-06 19:21:42.97	321.88	9.99	-41.1	-42.6	19.4	0.00e+00	17	33	0	37748736	56	6123
2026-01-06 19:21:43.98	321.73	9.94	-41.6	-43.2	19.0	0.00e+00	0	33	0	39845888	56	6572
2026-01-06 19:21:44.99	321.58	9.89	-41.1	-42.6	19.4	0.00e+00	55	33	0	41943040	56	6123
2026-01-06 19:21:45.99	321.43	9.85	-41.0	-42.5	19.5	0.00e+00	0	33	0	44040192	56	6036
2026-01-06 19:21:47.00	321.28	9.80	-41.0	-42.4	19.5	0.00e+00	92	33	0	46137344	56	6007
2026-01-06 19:21:48.01	321.13	9.75	-40.7	-42.1	19.8	0.00e+00	0	33	0	47185920	56	5773
2026-01-06 19:21:49.02	320.98	9.70	-40.4	-41.7	20.1	0.00e+00	0	33	0	49283072	54	6235
2026-01-06 19:21:50.03	320.83	9.66	-40.3	-41.6	20.2	0.00e+00	0	33	0	51380224	54	6118
2026-01-06 19:21:51.04	320.69	9.61	-40.1	-41.4	20.4	0.00e+00	0	33	0	53477376	54	5989
2026-01-06 19:21:52.05	320.54	9.56	-40.2	-41.5	20.2	0.00e+00	17	33	0	54525952	54	6057
2026-01-06 19:21:53.06	320.39	9.51	-40.3	-41.6	20.3	0.00e+00	0	33	0	56623104	54	6105
2026-01-06 19:21:54.06	320.25	9.46	-40.0	-41.3	20.3	0.00e+00	60	33	0	58720256	54	5922
2026-01-06 19:21:55.07	320.10	9.42	-40.0	-41.2	20.6	0.00e+00	0	33	0	60817408	54	5867
2026-01-06 19:21:56.08	319.95	9.37	-40.0	-41.3	20.5	0.00e+00	0	33	0	62914560	54	5911
2026-01-06 19:21:57.09	319.81	9.32	-40.0	-41.3	20.4	0.00e+00	0	33	0	65011712	54	5907
2026-01-06 19:21:58.10	319.66	9.27	-40.0	-41.2	20.4	0.00e+00	0	34	0	66060288	54	5882
2026-01-06 19:21:59.11	319.52	9.22	-39.9	-41.1	20.6	0.00e+00	21	33	0	68157440	54	5775
2026-01-06 19:22:00.12	319.38	9.17	-39.8	-41.0	20.7	0.00e+00	0	33	0	70254592	54	5705
2026-01-06 19:22:01.13	319.23	9.12	-39.6	-40.8	20.9	0.00e+00	73	33	0	72351744	52	6263
2026-01-06 19:22:02.14	319.09	9.07	-39.4	-40.6	21.1	0.00e+00	0	33	0	74448896	52	6109
2026-01-06 19:22:03.15	318.95	9.02	-39.4	-40.6	21.1	0.00e+00	0	33	0	75497472	52	6110
2026-01-06 19:22:04.15	318.81	8.98	-39.1	-40.2	21.4	0.00e+00	0	33	0	77594624	52	5861
2026-01-06 19:22:05.17	318.66	8.93	-39.0	-40.1	21.5	0.00e+00	0	33	0	79691776	52	5810
2026-01-06 19:22:06.17	318.52	8.88	-39.0	-40.1	21.5	0.00e+00	44	33	0	81788928	52	5793
2026-01-06 19:22:07.18	318.38	8.83	-39.1	-40.2	21.4	0.00e+00	0	33	0	83886080	52	5875
2026-01-06 19:22:08.19	318.24	8.78	-38.9	-40.0	21.6	0.00e+00	90	33	0	84934656	52	5703
2026-01-06 19:22:09.20	318.10	8.73	-38.9	-40.0	21.5	0.00e+00	0	33	0	87031808	52	5741
2026-01-06 19:22:10.21	317.97	8.68	-39.0	-40.1	21.4	0.00e+00	0	33	0	89128960	52	5804
2026-01-06 19:22:11.22	317.83	8.63	-39.1	-40.2	21.4	0.00e+00	0	33	0	91226112	52	5854
2026-01-06 19:22:12.23	317.69	8.58	-39.1	-40.2	21.4	0.00e+00	0	33	0	93323264	52	5857
2026-01-06 19:22:13.24	317.55	8.53	-39.1	-40.3	21.3	0.00e+00	0	33	0	94371840	52	5900
2026-01-06 19:22:14.25	317.41	8.48	-39.3	-40.4	21.2	0.00e+00	0	33	0	96468992	52	6000
2026-01-06 19:22:15.26	317.28	8.43	-39.4	-40.5	21.0	0.00e+00	59	33	0	98566144	52	6097
2026-01-06 19:22:16.27	317.14	8.38	-39.5	-40.7	20.9	0.00e+00	0	33	0	100663296	52	6216
2026-01-06 19:22:17.27	317.01	8.33	-39.5	-40.7	20.9	0.00e+00	79	33	0	102760448	52	6176
2026-01-06 19:22:18.28	316.87	8.28	-39.6	-40.8	20.7	0.00e+00	0	33	0	103809024	52	6304
2026-01-06 19:22:19.29	316.74	8.23	-39.7	-40.9	20.6	0.00e+00	0	33	0	105906176	52	6342
2026-01-06 19:22:20.30	316.60	8.18	-39.6	-40.8	20.8	0.00e+00	0	33	0	108003328	52	6247
2026-01-06 19:22:21.31	316.47	8.13	-39.6	-40.7	20.9	0.00e+00	0	33	0	110100480	52	6245
2026-01-06 19:22:22.32	316.34	8.08	-39.5	-40.7	20.9	0.00e+00	29	33	0	112197632	52	6212
2026-01-06 19:22:23.33	316.20	8.03	-39.5	-40.7	20.9	0.00e+00	0	33	0	113246208	52	6236
2026-01-06 19:22:24.34	316.07	7.98	-39.4	-40.6	21.0	0.00e+00	32	33	0	115343360	52	6123
2026-01-06 19:22:25.34	315.94	7.93	-39.4	-40.6	20.9	0.00e+00	0	33	0	117440512	52	6113
2026-01-06 19:22:26.35	315.81	7.88	-39.4	-40.6	21.0	0.00e+00	0	33	0	119537664	52	6139
2026-01-06 19:22:27.36	315.68	7.83	-39.4	-40.6	21.0	0.00e+00	0	33	0	121634816	52	6154
2026-01-06 19:22:28.37	315.55	7.78	-39.4	-40.6	21.0	0.00e+00	33	33	0	122683392	52	6143
2026-01-06 19:22:29.38	315.42	7.73	-39.3	-40.4	21.0	0.00e+00	48	33	0	124780544	52	6033
2026-01-06 19:22:30.39	315.29	7.68	-39.2	-40.3	21.3	0.00e+00	0	33	0	126877696	52	5936
2026-01-06 19:22:31.40	315.16	7.63	-39.0	-40.1	21.4	0.00e+00	39	33	0	128974848	52	5814
2026-01-06 19:22:32.41	315.03	7.58	-39.0	-40.1	21.5	0.00e+00	0	33	0	131072000	52	5807
2026-01-06 19:22:33.42	314.90	7.53	-38.8	-39.9	21.5	0.00e+00	33	33	0	132120576	50	6365
2026-01-06 19:22:34.43	314.78	7.48	-38.5	-39.5	22.0	0.00e+00	0	33	0	134217728	50	6094
2026-01-06 19:22:35.44	314.65	7.43	-38.2	-39.2	22.2	0.00e+00	0	33	0	136314880	50	5843
2026-01-06 19:22:36.44	314.52	7.38	-38.0	-39.0	22.3	0.00e+00	57	33	0	138412032	50	5718
2026-01-06 19:22:37.45	314.40	7.32	-37.9	-38.9	22.4	0.00e+00	0	33	0	140509184	50	5668
2026-01-06 19:22:38.46	314.27	7.27	-37.8	-38.8	22.4	0.00e+00	90	33	0	142606336	50	5599
2026-01-06 19:22:39.47	314.15	7.22	-38.0	-39.0	22.3	0.00e+00	33	33	0	143654912	50	5709
2026-01-06 19:22:40.48	314.02	7.17	-38.1	-39.1	22.2	0.00e+00	0	33	0	145752064	50	5811
2026-01-06 19:22:41.49	313.90	7.12	-38.1	-39.1	22.2	0.00e+00	0	33	0	147849216	50	5823
2026-01-06 19:22:42.50	313.77	7.07	-38.3	-39.3	22.0	0.00e+00	0	33	0	149946368	50	5950
2026-01-06 19:22:43.51	313.65	7.02	-38.2	-39.2	22.1	0.00e+00	0	33	0	152043520	50	5867
2026-01-06 19:22:44.52	313.53	6.97	-38.3	-39.3	22.0	0.00e+00	0	33	0	153092096	50	5954
2026-01-06 19:22:45.53	313.40	6.92	-38.2	-39.2	22.1	0.00e+00	92	33	0	155189248	50	5851
2026-01-06 19:22:46.53	313.28	6.87	-38.1	-39.2	22.1	0.00e+00	0	33	0	157286400	50	5843
2026-01-06 19:22:47.55	313.16	6.81	-38.0	-39.1	22.2	0.00e+00	91	33	0	159383552	50	5769
2026-01-06 19:22:48.55	313.04	6.76	-37.9	-38.9	22.2	0.00e+00	0	33	0	161480704	50	5668
2026-01-06 19:22:49.56	312.92	6.71	-38.1	-39.1	22.1	0.00e+00	0	33	0	162529280	50	5780
2026-01-06 19:22:50.57	312.80	6.66	-37.7	-38.7	22.4	0.00e+00	0	33	0	164626432	50	5515
2026-01-06 19:22:51.58	312.68	6.61	-37.9	-38.9	22.3	0.00e+00	0	33	0	166723584	48	6344
2026-01-06 19:22:52.59	312.56	6.56	-38.0	-39.0	22.2	0.00e+00	92	33	0	168820736	48	6431
2026-01-06 19:22:53.60	312.44	6.51	-37.9	-38.9	22.3	0.00e+00	0	33	0	170917888	48	6338
2026-01-06 19:22:54.61	312.32	6.46	-38.1	-39.1	22.2	0.00e+00	92	33	0	171966464	48	6536
2026-01-06 19:22:55.62	312.20	6.41	-38.3	-39.3	22.0	0.00e+00	0	33	0	174063616	48	6678
2026-01-06 19:22:56.63	312.08	6.35	-38.3	-39.4	21.8	0.00e+00	0	33	0	176160768	48	6708
2026-01-06 19:22:57.64	311.96	6.30	-38.4	-39.5	21.8	0.00e+00	0	33	0	178257920	48	6770
2026-01-06 19:22:58.65	311.85	6.25	-38.5	-39.7	21.7	0.00e+00	0	33	0	180355072	48	6931
2026-01-06 19:22:59.66	311.73	6.20	-38.7	-39.8	21.5	0.00e+00	44	33	0	181403648	50	6285
2026-01-06 19:23:00.66	311.62	6.15	-38.7	-39.8	21.6	0.00e+00	0	33	0	183500800	50	6273
2026-01-06 19:23:01.67	311.50	6.10	-38.9	-40.1	21.2	0.00e+00	61	33	0	185597952	50	6466
2026-01-06 19:23:02.69	311.38	6.05	-38.7	-39.9	21.4	0.00e+00	0	33	0	187695104	50	6331
2026-01-06 19:23:03.69	311.27	6.00	-38.8	-39.9	21.4	0.00e+00	0	33	0	189792256	50	6389
2026-01-06 19:23:04.70	311.15	5.95	-38.9	-40.1	21.3	0.00e+00	0	33	0	190840832	50	6484
2026-01-06 19:23:05.71	311.04	5.89	-39.0	-40.2	21.1	0.00e+00	0	33	0	192937984	50	6562
2026-01-06 19:23:06.72	310.93	5.84	-39.2	-40.4	21.0	0.00e+00	12	33	0	195035136	50	6693
2026-01-06 19:23:07.73	310.81	5.79	-39.2	-40.4	20.9	0.00e+00	0	33	0	197132288	50	6729
2026-01-06 19:23:08.74	310.70	5.74	-39.3	-40.5	20.9	0.00e+00	92	33	0	199229440	50	6826
2026-01-06 19:23:09.75	310.59	5.69	-39.2	-40.4	20.8	0.00e+00	0	33	0	200278016	50	6762
2026-01-06 19:23:10.76	310.47	5.64	-39.2	-40.4	20.6	0.00e+00	0	33	0	202375168	50	6733
2026-01-06 19:23:11.77	310.36	5.59	-39.3	-40.5	20.9	0.00e+00	0	33	0	204472320	50	6797
2026-01-06 19:23:12.78	310.25	5.53	-39.0	-40.2	21.0	0.00e+00	0	33	0	206569472	50	6577
2026-01-06 19:23:13.79	310.14	5.48	-39.1	-40.3	20.9	0.00e+00	52	33	0	208666624	50	6648
2026-01-06 19:23:14.80	310.03	5.43	-39.1	-40.2	20.9	0.00e+00	0	33	0	209715200	50	6603
2026-01-06 19:23:15.81	309.92	5.38	-39.1	-40.3	21.0	0.00e+00	92	33	0	211812352	50	6619
2026-01-06 19:23:16.82	309.81	5.33	-39.1	-40.3	20.8	0.00e+00	0	33	0	213909504	50	6656
2026-01-06 19:23:17.83	309.70	5.28	-39.0	-40.2	20.7	0.00e+00	0	33	0	216006656	50	6578
2026-01-06 19:23:18.84	309.59	5.23	-39.0	-40.1	20.7	0.00e+00	0	33	0	218103808	50	6524
2026-01-06 19:23:19.85	309.48	5.18	-38.8	-39.9	21.0	0.00e+00	0	33	0	219152384	50	6363
2026-01-06 19:23:20.86	309.38	5.12	-38.9	-40.0	21.1	0.00e+00	41	33	0	221249536	50	6458
2026-01-06 19:23:21.86	309.27	5.07	-38.7	-39.9	21.2	0.00e+00	0	33	0	223346688	50	6327
2026-01-06 19:23:22.87	309.16	5.02	-39.0	-40.1	21.1	0.00e+00	54	33	0	225443840	50	6519
2026-01-06 19:23:23.88	309.05	4.97	-38.8	-39.9	21.2	0.00e+00	0	33	0	227540992	50	6384
2026-01-06 19:23:24.89	308.95	4.92	-38.5	-39.7	21.5	0.00e+00	49	33	0	228589568	50	6174
2026-01-06 19:23:25.90	308.84	4.87	-38.7	-39.8	21.3	0.00e+00	0	33	0	230686720	50	6289
2026-01-06 19:23:26.91	308.74	4.82	-38.8	-39.9	21.3	0.00e+00	0	33	0	232783872	50	6349
2026-01-06 19:23:27.92	308.63	4.77	-38.9	-40.1	21.0	0.00e+00	0	33	0	234881024	50	6519
2026-01-06 19:23:28.93	308.52	4.71	-39.0	-40.2	21.0	0.00e+00	0	33	0	236978176	50	6555
2026-01-06 19:23:29.94	308.42	4.66	-39.2	-40.4	20.7	0.00e+00	57	33	0	239075328	50	6737
2026-01-06 19:23:30.95	308.32	4.61	-39.1	-40.3	20.8	0.00e+00	0	33	0	240123904	50	6684
2026-01-06 19:23:31.95	308.21	4.56	-39.6	-40.9	20.4	0.00e+00	76	33	0	242221056	50	7099
2026-01-06 19:23:32.97	308.11	4.51	-39.8	-41.1	20.2	0.00e+00	0	33	0	244318208	50	7273
2026-01-06 19:23:33.98	308.00	4.46	-39.8	-41.2	20.1	0.00e+00	0	33	0	246415360	52	6558
2026-01-06 19:23:34.98	307.90	4.41	-40.0	-41.4	19.9	0.00e+00	0	33	0	248512512	52	6699
2026-01-06 19:23:35.99	307.80	4.36	-39.8	-41.1	20.2	0.00e+00	0	33	0	249561088	52	6511
2026-01-06 19:23:37.00	307.70	4.30	-39.7	-41.1	20.1	0.00e+00	56	33	0	251658240	52	6474
2026-01-06 19:23:38.01	307.60	4.25	-39.9	-41.2	20.0	0.00e+00	0	33	0	253755392	52	6591
2026-01-06 19:23:39.02	307.50	4.20	-39.8	-41.1	20.1	0.00e+00	92	33	0	255852544	52	6494
2026-01-06 19:23:40.03	307.39	4.15	-39.5	-40.8	20.4	0.00e+00	0	33	0	257949696	52	6267
2026-01-06 19:23:41.04	307.29	4.10	-39.3	-40.6	20.6	0.00e+00	0	33	0	258998272	52	6104
2026-01-06 19:23:42.05	307.19	4.05	-39.1	-40.3	20.8	0.00e+00	0	33	0	261095424	52	5925
2026-01-06 19:23:43.06	307.09	4.00	-39.3	-40.6	20.6	0.00e+00	0	33	0	263192576	52	6107
2026-01-06 19:23:44.07	306.99	3.95	-39.2	-40.4	20.7	0.00e+00	57	33	0	265289728	52	6011
2026-01-06 19:23:45.08	306.89	3.90	-39.0	-40.2	20.9	0.00e+00	0	33	0	267386880	52	5861
2026-01-06 19:23:46.09	306.80	3.84	-38.7	-39.9	21.1	0.00e+00	91	33	0	268435456	52	5643
2026-01-06 19:23:47.10	306.70	3.79	-39.1	-40.2	20.9	0.00e+00	0	33	0	270532608	50	6607
2026-01-06 19:23:48.11	306.60	3.74	-39.1	-40.3	20.6	0.00e+00	0	33	0	272629760	50	6660
2026-01-06 19:23:49.11	306.50	3.69	-39.2	-40.5	20.7	0.00e+00	0	33	0	274726912	50	6794
2026-01-06 19:23:50.12	306.40	3.64	-38.9	-40.0	20.9	0.00e+00	0	33	0	276824064	50	6443
2026-01-06 19:23:51.13	306.31	3.59	-38.9	-40.0	21.0	0.00e+00	0	33	0	277872640	50	6461
2026-01-06 19:23:52.14	306.21	3.54	-38.7	-39.8	21.0	0.00e+00	0	33	0	279969792	50	6315
2026-01-06 19:23:53.15	306.11	3.49	-38.9	-40.1	20.8	0.00e+00	73	33	0	282066944	50	6524
2026-01-06 19:23:54.16	306.02	3.44	-39.3	-40.5	20.4	0.00e+00	0	33	0	284164096	50	6835
2026-01-06 19:23:55.17	305.92	3.39	-39.5	-40.8	20.2	0.00e+00	77	33	0	286261248	50	7026
2026-01-06 19:23:56.18	305.83	3.34	-39.6	-40.9	20.1	0.00e+00	0	33	0	287309824	50	7106
2026-01-06 19:23:57.19	305.73	3.28	-39.7	-41.0	19.9	0.00e+00	0	33	0	289406976	52	6454
2026-01-06 19:23:58.20	305.64	3.23	-40.1	-41.6	19.4	0.00e+00	0	33	0	291504128	52	6879
2026-01-06 19:23:59.21	305.54	3.18	-40.3	-41.7	19.2	0.00e+00	0	33	0	293601280	52	6987
2026-01-06 19:24:00.22	305.45	3.13	-40.4	-41.9	19.2	0.00e+00	54	33	0	295698432	52	7124
2026-01-06 19:24:01.23	305.36	3.08	-40.7	-42.3	18.7	0.00e+00	0	33	0	296747008	54	6618
2026-01-06 19:24:02.24	305.26	3.03	-41.0	-42.7	18.4	0.00e+00	92	33	0	298844160	54	6950
2026-01-06 19:24:03.25	305.17	2.98	-47.7	-62.8	3.6	8.47e-01	0	33	104	299892736	60	49932
2026-01-06 19:24:04.26	305.08	2.93	-48.2	-63.3	3.6	1.51e+00	0	33	104	299892736	60	52884
2026-01-06 19:24:05.27	304.98	2.88	-48.4	-63.6	3.6	1.51e+00	0	33	104	299892736	60	54492
2026-01-06 19:24:06.28	304.89	2.83	-48.5	-63.7	3.6	1.51e+00	0	33	104	299892736	60	55077
2026-01-06 19:24:07.28	304.80	2.78	-48.6	-63.7	3.6	1.51e+00	0	33	104	299892736	60	55501
2026-01-06 19:24:08.29	304.71	2.73	-48.6	-63.8	3.6	1.51e+00	0	33	104	299892736	60	56082
2026-01-06 19:24:09.30	304.62	2.68	-48.7	-63.9	3.6	1.51e+00	0	33	104	299892736	60	56580
2026-01-06 19:24:10.31	304.53	2.63	-48.7	-63.8	3.6	1.51e+00	0	33	104	299892736	60	55995
2026-01-06 19:24:11.32	304.44	2.57	-48.7	-63.8	3.6	1.51e+00	0	34	104	299892736	60	56207
2026-01-06 19:24:12.33	304.35	2.52	-48.7	-63.8	3.6	1.51e+00	0	33	104	299892736	60	56191
2026-01-06 19:24:13.34	304.26	2.47	-48.7	-63.9	3.6	1.51e+00	0	33	104	299892736	60	56566
2026-01-06 19:24:14.35	304.17	2.42	-48.5	-63.8	3.6	1.51e+00	0	34	104	299892736	60	55729
2026-01-06 19:24:15.36	304.08	2.37	-48.5	-63.8	3.6	1.51e+00	0	34	104	299892736	60	55736
2026-01-06 19:24:16.37	303.99	2.32	-48.6	-63.8	3.6	1.51e+00	0	33	104	299892736	60	56145
2026-01-06 19:24:17.39	303.90	2.27	-48.6	-63.7	3.6	1.51e+00	0	34	104	299892736	60	55523
2026-01-06 19:24:18.40	303.81	2.22	-48.5	-63.7	3.6	1.51e+00	0	33	104	299892736	60	55492
2026-01-06 19:24:19.41	303.72	2.17	-48.6	-63.8	3.6	1.51e+00	0	34	104	299892736	60	55896
2026-01-06 19:24:20.41	303.64	2.12	-48.6	-63.8	3.6	1.51e+00	0	33	104	299892736	60	55936
2026-01-06 19:24:21.42	303.55	2.07	-48.6	-63.8	3.6	1.51e+00	0	33	104	299892736	60	55824
2026-01-06 19:24:22.43	303.46	2.02	-48.6	-63.8	3.6	1.51e+00	0	34	104	299892736	60	55753
2026-01-06 19:24:23.44	303.38	1.97	-48.6	-63.8	3.6	1.51e+00	0	34	104	299892736	60	55678
2026-01-06 19:24:24.45	303.29	1.92	-48.6	-63.7	3.6	1.51e+00	0	34	104	299892736	60	55556
2026-01-06 19:24:25.46	303.20	1.87	-48.6	-63.7	3.6	1.51e+00	0	33	104	299892736	60	55506
2026-01-06 19:24:26.47	303.12	1.82	-48.6	-63.7	3.6	1.51e+00	0	33	104	299892736	60	55512
2026-01-06 19:24:27.48	303.03	1.77	-48.6	-63.7	3.6	1.51e+00	0	34	104	299892736	60	55357
2026-01-06 19:24:28.49	302.95	1.72	-48.6	-63.8	3.6	1.51e+00	0	33	104	299892736	60	55740
2026-01-06 19:24:29.50	302.86	1.67	-48.5	-63.7	3.6	1.51e+00	0	34	104	299892736	60	55322
2026-01-06 19:24:30.51	302.78	1.62	-48.6	-63.7	3.6	1.51e+00	0	34	104	299892736	60	55565
2026-01-06 19:24:31.52	302.69	1.57	-48.5	-63.7	3.6	1.51e+00	0	34	104	299892736	60	55335
2026-01-06 19:24:32.53	302.61	1.52	-48.5	-63.7	3.6	1.51e+00	0	34	104	299892736	60	55457
2026-01-06 19:24:33.54	302.53	1.47	-48.5	-63.7	3.6	1.51e+00	0	34	104	299892736	60	55299
2026-01-06 19:24:34.55	302.44	1.42	-48.5	-63.7	3.5	1.51e+00	0	33	104	299892736	60	55231
2026-01-06 19:24:35.56	302.36	1.37	-48.5	-63.7	3.6	1.51e+00	0	34	104	299892736	60	55497
2026-01-06 19:24:36.57	302.28	1.32	-48.5	-63.8	3.6	1.51e+00	0	34	104	299892736	60	55700
2026-01-06 19:24:37.58	302.20	1.27	-48.5	-63.7	3.6	1.51e+00	0	34	104	299892736	60	55264
2026-01-06 19:24:38.59	302.11	1.22	-48.5	-63.7	3.6	1.51e+00	0	34	104	299892736	60	55292
2026-01-06 19:24:39.60	302.03	1.17	-48.5	-63.7	3.6	1.51e+00	0	34	104	299892736	60	55477
2026-01-06 19:24:40.61	301.95	1.12	-48.5	-63.7	3.6	1.51e+00	0	34	104	299892736	60	55221
2026-01-06 19:24:41.62	301.87	1.07	-48.5	-63.7	3.5	1.51e+00	0	34	104	299892736	60	55455
2026-01-06 19:24:42.63	301.79	1.02	-48.5	-63.8	3.6	1.51e+00	0	34	104	299892736	60	55721
2026-01-06 19:24:43.64	301.71	0.97	-48.5	-63.7	3.6	1.51e+00	0	34	104	299892736	60	55456
2026-01-06 19:24:44.65	301.63	0.92	-48.5	-63.7	3.6	1.51e+00	0	34	104	299892736	60	55498
2026-01-06 19:24:45.66	301.55	0.87	-48.5	-63.7	3.6	1.51e+00	0	34	104	299892736	60	55355
2026-01-06 19:24:46.67	301.47	0.82	-48.5	-63.7	3.6	1.51e+00	0	34	104	299892736	60	55259
2026-01-06 19:24:47.68	301.39	0.77	-48.5	-63.7	3.6	1.51e+00	0	34	104	299892736	60	55197
2026-01-06 19:24:48.69	301.31	0.72	-48.5	-63.7	3.6	1.51e+00	0	34	104	299892736	60	55072
2026-01-06 19:24:49.70	301.23	0.67	-48.5	-63.7	3.6	1.51e+00	0	34	104	299892736	60	55330
2026-01-06 19:24:50.71	301.15	0.62	-48.5	-63.7	3.6	1.51e+00	0	34	104	299892736	60	55371
2026-01-06 19:24:51.72	301.07	0.58	-48.5	-63.7	3.6	1.51e+00	0	34	104	299892736	60	55249
2026-01-06 19:24:52.73	300.99	0.53	-48.5	-63.7	3.6	1.51e+00	0	34	104	299892736	60	55493
2026-01-06 19:24:53.74	300.91	0.48	-48.5	-63.7	3.6	1.51e+00	0	34	104	299892736	60	55309
