passes_logs/2026/01/06/R4.6S_Anadyr/R4.6S_Anadyr__20260106_045435_FENGYUN_3E_rec.log

#Pass ID: 20260106_045435_FENGYUN 3E
#Satellite: FENGYUN 3E
#Configuration: FENGYUN 3E
#almurnet v.1.7.20251203
#Start time: 2026-01-06 04:54:36

#Version: 2.2.20231116
#Station: R4.6S_Anadyr
#Location: 177.4865 lon 64.73178 lat
#TLE: 1 49008U 21062A   26005.56299987  .00000339  00000+0  18069-3 0  9991
#TLE: 2 49008  98.7472  10.8019 0001562 158.0357 202.0886 14.19884907233502

#Time	Az	El	Level	Level2	SNR	BER	BlckErr	Temp	State	Recorded	gain1	gain2
2026-01-06 04:54:36.71	166.60	0.06	-49.0	-66.7	3.5	3.04e+01	0	32	0	0	60	83524
2026-01-06 04:54:37.71	166.61	0.12	-48.4	-59.9	3.6	8.46e-01	0	33	104	0	60	35607
2026-01-06 04:54:38.72	166.63	0.18	-48.6	-59.9	3.5	8.47e-01	0	33	104	0	60	35625
2026-01-06 04:54:39.73	166.64	0.24	-48.6	-59.8	3.6	8.45e-01	0	33	104	0	60	35485
2026-01-06 04:54:40.74	166.66	0.30	-48.6	-59.8	3.6	8.46e-01	0	33	104	0	60	35351
2026-01-06 04:54:41.75	166.68	0.36	-48.7	-59.9	3.6	8.45e-01	0	33	104	0	60	35703
2026-01-06 04:54:42.76	166.69	0.43	-48.7	-59.9	3.6	8.45e-01	0	33	104	0	60	35935
2026-01-06 04:54:43.77	166.71	0.49	-48.6	-59.9	3.6	8.45e-01	0	33	104	0	60	35700
2026-01-06 04:54:44.78	166.73	0.55	-48.7	-59.8	3.6	8.46e-01	0	33	104	0	60	35471
2026-01-06 04:54:45.79	166.74	0.61	-48.5	-59.8	3.6	8.45e-01	0	33	104	0	60	35286
2026-01-06 04:54:46.80	166.76	0.67	-48.5	-59.7	3.6	8.45e-01	0	33	104	0	60	34821
2026-01-06 04:54:47.81	166.77	0.73	-48.2	-59.6	3.6	8.45e-01	0	34	104	0	60	34323
2026-01-06 04:54:48.82	166.79	0.79	-48.2	-59.4	3.6	8.45e-01	0	34	104	0	60	33802
2026-01-06 04:54:49.83	166.81	0.86	-47.6	-58.9	3.6	8.45e-01	0	34	104	0	60	31733
2026-01-06 04:54:50.84	166.82	0.92	-47.9	-59.0	3.6	8.46e-01	0	34	104	0	60	32401
2026-01-06 04:54:51.85	166.84	0.98	-47.7	-58.9	3.6	8.45e-01	0	34	104	0	60	31729
2026-01-06 04:54:52.86	166.86	1.04	-47.2	-58.4	3.6	8.45e-01	0	34	104	0	60	29962
2026-01-06 04:54:53.87	166.87	1.10	-47.2	-58.4	3.6	8.46e-01	0	34	104	0	60	29940
2026-01-06 04:54:54.88	166.89	1.17	-47.2	-58.4	3.6	8.45e-01	0	34	104	0	60	29957
2026-01-06 04:54:55.89	166.91	1.23	-47.2	-58.4	3.6	8.46e-01	0	34	104	0	60	29999
2026-01-06 04:54:56.90	166.92	1.29	-47.2	-58.3	3.6	8.45e-01	0	34	104	0	60	29748
2026-01-06 04:54:57.91	166.94	1.36	-47.2	-58.3	3.6	8.45e-01	0	34	104	0	60	29892
2026-01-06 04:54:58.92	166.96	1.42	-47.2	-58.1	3.6	8.45e-01	0	34	104	0	60	29189
2026-01-06 04:54:59.93	166.97	1.48	-47.2	-58.1	3.6	8.46e-01	0	34	104	0	60	29077
2026-01-06 04:55:00.94	166.99	1.54	-47.2	-58.0	3.6	8.45e-01	0	34	104	0	60	28872
2026-01-06 04:55:01.95	167.01	1.61	-47.1	-58.0	3.6	8.45e-01	0	34	104	0	60	28664
2026-01-06 04:55:02.96	167.03	1.67	-47.1	-58.0	3.6	8.45e-01	0	34	104	0	60	28658
2026-01-06 04:55:03.97	167.04	1.74	-47.1	-58.0	3.6	8.46e-01	0	34	104	0	60	28575
2026-01-06 04:55:04.98	167.06	1.80	-47.1	-58.0	3.6	8.45e-01	0	34	104	0	60	28859
2026-01-06 04:55:05.99	167.08	1.86	-47.2	-58.2	3.6	8.46e-01	0	34	104	0	60	29255
2026-01-06 04:55:07.00	167.10	1.93	-47.2	-58.3	3.6	8.44e-01	0	34	104	0	60	29692
2026-01-06 04:55:08.01	167.11	1.99	-47.2	-58.3	3.6	8.45e-01	0	34	104	0	60	29860
2026-01-06 04:55:09.02	167.13	2.06	-47.2	-58.4	3.6	8.45e-01	0	34	104	0	60	30013
2026-01-06 04:55:10.03	167.15	2.12	-47.2	-58.3	3.6	8.45e-01	0	34	104	0	60	29839
2026-01-06 04:55:11.04	167.17	2.19	-47.2	-58.3	3.6	8.46e-01	0	34	104	0	60	29561
2026-01-06 04:55:12.05	167.18	2.25	-47.2	-58.1	3.6	8.45e-01	0	34	104	0	60	29092
2026-01-06 04:55:13.06	167.20	2.32	-47.1	-57.9	3.6	8.45e-01	0	34	104	0	60	28346
2026-01-06 04:55:14.07	167.22	2.38	-47.1	-57.6	3.6	8.44e-01	0	34	104	0	60	27368
2026-01-06 04:55:15.08	167.24	2.45	-47.0	-56.9	3.6	8.46e-01	0	34	104	0	60	25344
2026-01-06 04:55:16.09	167.25	2.51	-47.0	-56.6	3.6	8.45e-01	0	34	104	0	60	24468
2026-01-06 04:55:17.10	167.27	2.58	-46.9	-56.1	3.6	8.44e-01	0	34	104	0	60	23088
2026-01-06 04:55:18.11	167.29	2.64	-46.9	-56.1	3.7	8.43e-01	0	34	104	0	60	23053
2026-01-06 04:55:19.12	167.31	2.71	-47.0	-56.6	3.6	8.45e-01	0	34	104	0	60	24305
2026-01-06 04:55:20.13	167.33	2.78	-47.1	-57.2	3.6	8.45e-01	0	34	104	0	60	26061
2026-01-06 04:55:21.14	167.35	2.84	-47.1	-57.4	3.6	8.45e-01	0	34	104	0	60	26699
2026-01-06 04:55:22.15	167.36	2.91	-46.9	-55.6	3.7	8.44e-01	0	34	104	0	60	21786
2026-01-06 04:55:23.15	167.38	2.97	-46.1	-51.8	5.7	6.93e-01	0	34	104	0	60	14135
2026-01-06 04:55:24.16	167.40	3.04	-44.9	-48.1	8.7	7.26e-02	0	34	0	6291456	60	9171
2026-01-06 04:55:25.17	167.42	3.11	-43.5	-45.8	11.5	3.26e-03	0	34	0	13631488	60	7043
2026-01-06 04:55:26.18	167.44	3.17	-41.7	-43.3	14.3	1.37e-05	0	34	0	20971520	58	5921
2026-01-06 04:55:27.19	167.46	3.24	-40.2	-41.5	15.9	0.00e+00	0	34	0	28311552	54	6037
2026-01-06 04:55:28.20	167.48	3.31	-39.2	-40.3	17.3	0.00e+00	0	34	0	35651584	52	5948
2026-01-06 04:55:29.21	167.50	3.38	-38.2	-39.2	18.2	0.00e+00	0	34	0	42991616	50	5868
2026-01-06 04:55:30.22	167.51	3.44	-37.8	-38.8	18.7	0.00e+00	0	34	0	50331648	50	5590
2026-01-06 04:55:31.23	167.53	3.51	-37.7	-38.6	18.9	0.00e+00	0	34	0	57671680	48	6147
2026-01-06 04:55:32.24	167.55	3.58	-37.7	-38.7	18.7	0.00e+00	0	34	0	65011712	48	6198
2026-01-06 04:55:33.25	167.57	3.65	-38.0	-39.0	18.4	0.00e+00	0	34	0	72351744	48	6402
2026-01-06 04:55:34.26	167.59	3.72	-38.7	-39.7	17.6	0.00e+00	0	34	0	79691776	48	6975
2026-01-06 04:55:35.26	167.61	3.78	-42.4	-44.3	12.5	1.25e-05	0	34	0	87031808	56	7499
2026-01-06 04:55:36.27	167.63	3.85	-37.8	-38.7	18.4	0.00e+00	0	34	0	94371840	46	6996
2026-01-06 04:55:37.28	167.65	3.92	-47.1	-57.4	3.6	5.89e-01	0	34	104	99614720	60	26888
2026-01-06 04:55:38.29	167.67	3.99	-38.9	-39.9	18.1	0.00e+00	0	34	0	99614720	52	5685
2026-01-06 04:55:39.31	167.69	4.06	-46.8	-53.7	3.7	7.51e-01	0	34	0	104857600	60	17600
2026-01-06 04:55:40.32	167.71	4.13	-35.8	-36.5	19.2	0.00e+00	0	34	104	104857600	44	6083
2026-01-06 04:55:41.32	167.73	4.20	-36.5	-37.3	20.3	0.00e+00	0	34	0	111149056	44	6677
2026-01-06 04:55:42.33	167.75	4.27	-36.0	-36.8	20.8	0.00e+00	0	34	0	118489088	44	6268
2026-01-06 04:55:43.34	167.77	4.34	-35.6	-36.4	21.5	0.00e+00	0	34	0	125829120	44	5990
2026-01-06 04:55:44.35	167.79	4.41	-35.4	-36.2	21.5	0.00e+00	0	34	0	133169152	44	5848
2026-01-06 04:55:45.36	167.81	4.48	-35.1	-35.9	21.6	0.00e+00	0	34	0	140509184	44	5689
2026-01-06 04:55:46.37	167.83	4.55	-34.6	-35.3	22.3	0.00e+00	0	34	0	147849216	42	5949
2026-01-06 04:55:47.38	167.85	4.62	-34.3	-35.1	22.4	0.00e+00	0	34	0	155189248	42	5780
2026-01-06 04:55:48.39	167.87	4.69	-34.5	-35.2	22.3	0.00e+00	0	34	0	162529280	42	5882
2026-01-06 04:55:49.40	167.89	4.76	-34.1	-34.9	22.6	0.00e+00	0	34	0	169869312	42	5636
2026-01-06 04:55:50.40	167.91	4.83	-34.1	-34.8	22.7	0.00e+00	0	34	0	177209344	42	5593
2026-01-06 04:55:51.42	167.93	4.91	-34.0	-34.8	22.9	0.00e+00	0	34	0	183500800	42	5569
2026-01-06 04:55:52.43	167.95	4.98	-34.0	-34.7	22.8	0.00e+00	0	34	0	191889408	42	5538
2026-01-06 04:55:53.43	167.97	5.05	-33.9	-34.6	22.9	0.00e+00	0	34	0	199229440	42	5493
2026-01-06 04:55:54.44	167.99	5.12	-33.8	-34.5	23.0	0.00e+00	0	34	0	205520896	40	6092
2026-01-06 04:55:55.45	168.01	5.19	-33.8	-34.5	23.0	0.00e+00	0	34	0	212860928	40	6062
2026-01-06 04:55:56.46	168.03	5.26	-33.9	-34.6	22.9	0.00e+00	0	34	0	220200960	40	6123
2026-01-06 04:55:57.47	168.06	5.34	-34.1	-34.8	22.8	0.00e+00	0	34	0	227540992	40	6278
2026-01-06 04:55:58.48	168.08	5.41	-34.3	-35.0	22.8	0.00e+00	0	34	0	234881024	40	6459
2026-01-06 04:55:59.49	168.10	5.48	-33.8	-34.5	23.0	0.00e+00	0	34	0	242221056	40	6041
2026-01-06 04:56:00.50	168.12	5.56	-33.7	-34.4	23.1	0.00e+00	0	34	0	249561088	40	6026
2026-01-06 04:56:01.51	168.14	5.63	-33.7	-34.4	23.3	0.00e+00	0	34	0	256901120	40	5986
2026-01-06 04:56:02.52	168.16	5.70	-33.6	-34.3	23.4	0.00e+00	0	34	0	264241152	40	5906
2026-01-06 04:56:03.53	168.18	5.78	-33.6	-34.3	23.3	0.00e+00	0	34	0	271581184	40	5931
2026-01-06 04:56:04.54	168.21	5.85	-33.4	-34.1	23.4	0.00e+00	0	34	0	278921216	40	5776
2026-01-06 04:56:05.55	168.23	5.92	-33.6	-34.3	23.3	0.00e+00	0	34	0	286261248	40	5910
2026-01-06 04:56:06.56	168.25	6.00	-33.7	-34.4	23.3	0.00e+00	0	34	0	293601280	40	5991
2026-01-06 04:56:07.57	168.27	6.07	-33.3	-34.0	23.6	0.00e+00	0	34	0	300941312	40	5728
2026-01-06 04:56:08.58	168.29	6.15	-33.4	-34.1	23.5	0.00e+00	0	34	0	308281344	40	5765
2026-01-06 04:56:09.59	168.32	6.22	-33.5	-34.1	23.5	0.00e+00	0	34	0	315621376	40	5816
2026-01-06 04:56:10.60	168.34	6.30	-33.3	-34.0	23.6	0.00e+00	0	34	0	322961408	40	5749
2026-01-06 04:56:11.61	168.36	6.37	-33.4	-34.1	23.5	0.00e+00	0	34	0	329252864	40	5795
2026-01-06 04:56:12.62	168.38	6.45	-33.4	-34.0	23.6	0.00e+00	0	34	0	337641472	40	5757
2026-01-06 04:56:13.63	168.41	6.53	-33.3	-33.9	23.6	0.00e+00	0	34	0	344981504	40	5692
2026-01-06 04:56:14.64	168.43	6.60	-33.4	-34.1	23.6	0.00e+00	0	34	0	351272960	40	5769
2026-01-06 04:56:15.65	168.45	6.68	-33.2	-33.8	23.8	0.00e+00	0	34	0	358612992	40	5630
2026-01-06 04:56:16.66	168.48	6.76	-33.1	-33.7	23.9	0.00e+00	0	34	0	365953024	40	5559
2026-01-06 04:56:17.67	168.50	6.83	-33.1	-33.8	23.8	0.00e+00	0	34	0	373293056	40	5600
2026-01-06 04:56:18.68	168.52	6.91	-33.2	-33.9	23.8	0.00e+00	0	34	0	380633088	40	5675
2026-01-06 04:56:19.69	168.55	6.99	-33.0	-33.7	24.1	0.00e+00	0	34	0	387973120	40	5541
2026-01-06 04:56:20.70	168.57	7.06	-33.2	-33.9	23.8	0.00e+00	0	34	0	395313152	40	5658
2026-01-06 04:56:21.71	168.59	7.14	-33.3	-34.0	23.6	0.00e+00	0	34	0	402653184	40	5733
2026-01-06 04:56:22.72	168.62	7.22	-33.2	-33.9	23.8	0.00e+00	0	34	0	409993216	40	5643
2026-01-06 04:56:23.73	168.64	7.30	-33.3	-33.9	23.8	0.00e+00	0	34	0	417333248	40	5678
2026-01-06 04:56:24.74	168.66	7.38	-32.9	-33.6	24.1	0.00e+00	0	35	0	424673280	40	5474
2026-01-06 04:56:25.75	168.69	7.45	-33.3	-34.0	23.7	0.00e+00	0	34	0	432013312	40	5732
2026-01-06 04:56:26.76	168.71	7.53	-32.9	-33.6	24.1	0.00e+00	0	34	0	439353344	40	5480
2026-01-06 04:56:27.77	168.74	7.61	-32.9	-33.6	24.2	0.00e+00	0	34	0	446693376	40	5440
2026-01-06 04:56:28.77	168.76	7.69	-32.7	-33.4	24.2	0.00e+00	0	34	0	454033408	38	5991
2026-01-06 04:56:29.78	168.78	7.77	-32.9	-33.5	24.3	0.00e+00	0	34	0	461373440	38	6084
2026-01-06 04:56:30.79	168.81	7.85	-33.0	-33.7	24.1	0.00e+00	0	34	0	468713472	38	6192
2026-01-06 04:56:31.80	168.83	7.93	-32.7	-33.4	24.3	0.00e+00	0	35	0	476053504	38	5969
2026-01-06 04:56:32.81	168.86	8.01	-32.7	-33.3	24.4	0.00e+00	0	34	0	482344960	38	5944
2026-01-06 04:56:33.82	168.88	8.09	-32.8	-33.5	24.5	0.00e+00	0	34	0	490733568	38	6052
2026-01-06 04:56:34.83	168.91	8.17	-32.8	-33.5	24.3	0.00e+00	0	34	0	498073600	38	6047
2026-01-06 04:56:35.84	168.93	8.25	-32.6	-33.2	24.5	0.00e+00	0	34	0	504365056	38	5880
2026-01-06 04:56:36.85	168.96	8.34	-32.6	-33.3	24.5	0.00e+00	0	34	0	511705088	38	5913
2026-01-06 04:56:37.86	168.98	8.42	-32.6	-33.2	24.6	0.00e+00	0	35	0	519045120	38	5880
2026-01-06 04:56:38.87	169.01	8.50	-32.5	-33.1	24.7	0.00e+00	0	35	0	526385152	38	5799
2026-01-06 04:56:39.88	169.03	8.58	-32.6	-33.3	24.6	0.00e+00	0	34	0	533725184	38	5902
2026-01-06 04:56:40.89	169.06	8.66	-32.3	-33.0	24.8	0.00e+00	0	34	0	541065216	38	5717
2026-01-06 04:56:41.90	169.09	8.75	-32.5	-33.1	24.6	0.00e+00	0	34	0	548405248	38	5819
2026-01-06 04:56:42.90	169.11	8.83	-32.4	-33.0	24.7	0.00e+00	0	34	0	555745280	38	5760
2026-01-06 04:56:43.91	169.14	8.91	-32.4	-33.0	24.8	0.00e+00	0	34	0	563085312	38	5743
2026-01-06 04:56:44.92	169.16	9.00	-32.3	-33.0	24.8	0.00e+00	0	34	0	570425344	38	5713
2026-01-06 04:56:45.93	169.19	9.08	-32.4	-33.0	24.8	0.00e+00	0	34	0	577765376	38	5758
2026-01-06 04:56:46.95	169.22	9.16	-32.4	-33.1	24.7	0.00e+00	0	34	0	585105408	38	5779
2026-01-06 04:56:47.95	169.24	9.25	-32.7	-33.3	24.5	0.00e+00	0	34	0	592445440	38	5955
2026-01-06 04:56:48.96	169.27	9.33	-32.7	-33.4	24.6	0.00e+00	0	34	0	599785472	38	5976
2026-01-06 04:56:49.97	169.30	9.42	-32.3	-33.0	24.6	0.00e+00	0	34	0	607125504	38	5696
2026-01-06 04:56:50.98	169.32	9.50	-32.4	-33.0	24.7	0.00e+00	0	34	0	614465536	38	5759
2026-01-06 04:56:51.99	169.35	9.59	-32.3	-33.0	24.9	0.00e+00	0	35	0	621805568	38	5705
2026-01-06 04:56:53.00	169.38	9.67	-32.3	-32.9	25.0	0.00e+00	0	35	0	629145600	38	5672
2026-01-06 04:56:54.01	169.41	9.76	-32.2	-32.8	25.1	0.00e+00	0	35	0	635437056	38	5596
2026-01-06 04:56:55.02	169.43	9.85	-32.1	-32.7	25.1	0.00e+00	0	35	0	642777088	38	5563
2026-01-06 04:56:56.03	169.46	9.93	-32.1	-32.7	25.1	0.00e+00	0	34	0	651165696	38	5565
2026-01-06 04:56:57.04	169.49	10.02	-32.2	-32.8	25.0	0.00e+00	0	35	0	657457152	38	5619
2026-01-06 04:56:58.05	169.52	10.11	-32.3	-32.9	24.9	0.00e+00	0	34	0	664797184	38	5668
2026-01-06 04:56:59.06	169.55	10.20	-32.4	-33.0	24.8	0.00e+00	0	34	0	672137216	38	5756
2026-01-06 04:57:00.07	169.57	10.28	-32.2	-32.9	25.0	0.00e+00	0	35	0	679477248	38	5634
2026-01-06 04:57:01.08	169.60	10.37	-32.2	-32.8	25.0	0.00e+00	0	35	0	686817280	38	5598
2026-01-06 04:57:02.09	169.63	10.46	-32.2	-32.8	25.1	0.00e+00	0	35	0	694157312	38	5599
2026-01-06 04:57:03.09	169.66	10.55	-32.1	-32.8	25.1	0.00e+00	0	35	0	701497344	38	5570
2026-01-06 04:57:04.10	169.69	10.64	-32.1	-32.8	25.1	0.00e+00	0	34	0	708837376	38	5587
2026-01-06 04:57:05.11	169.72	10.73	-32.2	-32.8	25.2	0.00e+00	0	35	0	716177408	38	5595
2026-01-06 04:57:06.12	169.75	10.82	-31.9	-32.5	25.3	0.00e+00	0	35	0	723517440	38	5417
2026-01-06 04:57:07.13	169.78	10.91	-32.2	-32.8	25.1	0.00e+00	0	35	0	730857472	38	5619
2026-01-06 04:57:08.14	169.81	11.00	-32.0	-32.6	25.2	0.00e+00	0	35	0	738197504	38	5499
2026-01-06 04:57:09.15	169.84	11.09	-31.9	-32.5	25.4	0.00e+00	0	34	0	745537536	38	5430
2026-01-06 04:57:10.16	169.87	11.18	-31.9	-32.5	25.3	0.00e+00	0	34	0	752877568	38	5439
2026-01-06 04:57:11.17	169.90	11.27	-32.0	-32.6	25.2	0.00e+00	0	35	0	760217600	38	5492
2026-01-06 04:57:12.18	169.93	11.36	-31.7	-32.4	25.5	0.00e+00	0	34	0	767557632	38	5323
2026-01-06 04:57:13.19	169.96	11.45	-31.8	-32.4	25.4	0.00e+00	0	34	0	774897664	36	5990
2026-01-06 04:57:14.20	169.99	11.55	-32.1	-32.7	25.2	0.00e+00	0	34	0	781189120	36	6228
2026-01-06 04:57:15.21	170.02	11.64	-31.7	-32.4	25.4	0.00e+00	0	34	0	788529152	36	5975
2026-01-06 04:57:16.22	170.05	11.73	-31.6	-32.2	25.7	0.00e+00	0	34	0	796917760	36	5864
2026-01-06 04:57:17.23	170.08	11.83	-31.6	-32.2	25.6	0.00e+00	0	34	0	803209216	36	5864
2026-01-06 04:57:18.24	170.11	11.92	-31.5	-32.1	25.7	0.00e+00	0	35	0	810549248	36	5827
2026-01-06 04:57:19.25	170.14	12.01	-31.6	-32.2	25.6	0.00e+00	0	34	0	817889280	36	5857
2026-01-06 04:57:20.27	170.18	12.11	-31.5	-32.2	25.7	0.00e+00	0	35	0	825229312	36	5830
2026-01-06 04:57:21.28	170.21	12.21	-31.5	-32.1	25.8	0.00e+00	0	35	0	832569344	36	5823
2026-01-06 04:57:22.29	170.24	12.30	-31.4	-32.0	25.8	0.00e+00	0	34	0	839909376	36	5720
2026-01-06 04:57:23.29	170.27	12.40	-31.6	-32.2	25.7	0.00e+00	0	35	0	847249408	36	5857
2026-01-06 04:57:24.30	170.30	12.49	-31.4	-32.1	25.8	0.00e+00	0	34	0	854589440	36	5773
2026-01-06 04:57:25.31	170.34	12.59	-31.5	-32.1	25.8	0.00e+00	0	35	0	861929472	36	5800
2026-01-06 04:57:26.33	170.37	12.69	-31.3	-32.0	25.8	0.00e+00	0	35	0	869269504	36	5698
2026-01-06 04:57:27.33	170.40	12.78	-31.3	-31.9	26.0	0.00e+00	0	35	0	876609536	36	5652
2026-01-06 04:57:28.34	170.44	12.88	-31.2	-31.8	26.0	0.00e+00	0	35	0	883949568	36	5620
2026-01-06 04:57:29.35	170.47	12.98	-31.3	-31.9	26.0	0.00e+00	0	35	0	891289600	36	5639
2026-01-06 04:57:30.36	170.50	13.08	-31.1	-31.7	26.0	0.00e+00	0	35	0	898629632	36	5545
2026-01-06 04:57:31.37	170.54	13.17	-31.2	-31.8	26.1	0.00e+00	0	34	0	905969664	36	5593
2026-01-06 04:57:32.38	170.57	13.27	-31.0	-31.7	26.2	0.00e+00	0	34	0	913309696	36	5504
2026-01-06 04:57:33.39	170.60	13.37	-31.2	-31.8	26.0	0.00e+00	0	34	0	920649728	36	5604
2026-01-06 04:57:34.40	170.64	13.47	-31.1	-31.7	26.1	0.00e+00	0	35	0	927989760	36	5514
2026-01-06 04:57:35.41	170.67	13.57	-31.1	-31.7	26.1	0.00e+00	0	35	0	934281216	36	5543
2026-01-06 04:57:36.42	170.71	13.67	-31.0	-31.6	26.2	0.00e+00	0	35	0	941621248	36	5479
2026-01-06 04:57:37.43	170.74	13.78	-31.0	-31.6	26.2	0.00e+00	0	35	0	950009856	36	5453
2026-01-06 04:57:38.44	170.78	13.88	-31.0	-31.6	26.1	0.00e+00	0	35	0	956301312	36	5461
2026-01-06 04:57:39.45	170.81	13.98	-31.0	-31.6	26.2	0.00e+00	0	35	0	963641344	36	5484
2026-01-06 04:57:40.45	170.85	14.08	-31.2	-31.9	26.0	0.00e+00	0	35	0	970981376	36	5638
2026-01-06 04:57:41.46	170.88	14.18	-31.3	-31.9	25.8	0.00e+00	0	34	0	978321408	36	5679
2026-01-06 04:57:42.47	170.92	14.29	-31.2	-31.8	26.1	0.00e+00	0	34	0	985661440	36	5587
2026-01-06 04:57:43.48	170.96	14.39	-31.5	-32.1	26.0	0.00e+00	0	35	0	993001472	36	5799
2026-01-06 04:57:44.49	170.99	14.49	-31.2	-31.8	26.0	0.00e+00	0	35	0	1000341504	36	5613
2026-01-06 04:57:45.50	171.03	14.60	-31.0	-31.6	26.2	0.00e+00	0	35	0	1007681536	36	5471
2026-01-06 04:57:46.51	171.07	14.70	-31.0	-31.6	26.1	0.00e+00	0	35	0	1015021568	36	5490
2026-01-06 04:57:47.52	171.10	14.81	-30.9	-31.5	26.4	0.00e+00	0	35	0	1022361600	36	5419
2026-01-06 04:57:48.53	171.14	14.92	-31.0	-31.6	26.2	0.00e+00	0	35	0	1029701632	36	5455
2026-01-06 04:57:49.54	171.18	15.02	-31.0	-31.7	26.2	0.00e+00	0	35	0	1037041664	36	5504
2026-01-06 04:57:50.55	171.22	15.13	-31.0	-31.6	26.3	0.00e+00	0	35	0	1044381696	36	5468
2026-01-06 04:57:51.56	171.26	15.24	-31.0	-31.6	26.2	0.00e+00	0	35	0	1051721728	36	5496
2026-01-06 04:57:52.57	171.29	15.34	-30.9	-31.5	26.3	0.00e+00	0	35	0	1058013184	36	5427
2026-01-06 04:57:53.58	171.33	15.45	-30.9	-31.5	26.3	0.00e+00	0	35	0	1066401792	34	6053
2026-01-06 04:57:54.59	171.37	15.56	-30.9	-31.5	26.3	0.00e+00	0	35	0	1073741824	34	6055
2026-01-06 04:57:55.60	171.41	15.67	-30.7	-31.3	26.5	0.00e+00	0	35	0	1080033280	34	5943
2026-01-06 04:57:56.61	171.45	15.78	-30.7	-31.4	26.5	0.00e+00	0	35	0	1087373312	34	5968
2026-01-06 04:57:57.62	171.49	15.89	-30.6	-31.3	26.5	0.00e+00	0	35	0	1094713344	34	5900
2026-01-06 04:57:58.63	171.53	16.00	-30.6	-31.2	26.6	0.00e+00	0	35	0	1102053376	34	5865
2026-01-06 04:57:59.64	171.57	16.11	-30.6	-31.2	26.5	0.00e+00	0	35	0	1109393408	34	5895
2026-01-06 04:58:00.65	171.61	16.22	-30.5	-31.2	26.5	0.00e+00	0	35	0	1116733440	34	5830
2026-01-06 04:58:01.66	171.65	16.34	-30.7	-31.3	26.5	0.00e+00	0	35	0	1124073472	34	5910
2026-01-06 04:58:02.66	171.69	16.45	-30.5	-31.2	26.6	0.00e+00	0	35	0	1131413504	34	5832
2026-01-06 04:58:03.67	171.74	16.56	-30.6	-31.2	26.6	0.00e+00	0	35	0	1138753536	34	5847
2026-01-06 04:58:04.68	171.78	16.67	-30.3	-30.9	26.8	0.00e+00	0	35	0	1146093568	34	5678
2026-01-06 04:58:05.69	171.82	16.79	-30.3	-31.0	26.8	0.00e+00	0	35	0	1153433600	34	5700
2026-01-06 04:58:06.70	171.86	16.90	-30.4	-31.0	26.8	0.00e+00	0	35	0	1160773632	34	5727
2026-01-06 04:58:07.71	171.90	17.02	-30.4	-31.0	26.8	0.00e+00	0	35	0	1168113664	34	5741
2026-01-06 04:58:08.72	171.95	17.13	-30.5	-31.1	26.7	0.00e+00	0	35	0	1175453696	34	5799
2026-01-06 04:58:09.73	171.99	17.25	-30.4	-31.0	26.9	0.00e+00	0	35	0	1182793728	34	5724
2026-01-06 04:58:10.74	172.03	17.37	-30.2	-30.9	26.9	0.00e+00	0	35	0	1190133760	34	5636
2026-01-06 04:58:11.75	172.08	17.48	-30.2	-30.8	26.9	0.00e+00	0	35	0	1197473792	34	5588
2026-01-06 04:58:12.76	172.12	17.60	-30.2	-30.8	26.9	0.00e+00	0	35	0	1204813824	34	5630
2026-01-06 04:58:13.77	172.17	17.72	-30.3	-30.9	26.9	0.00e+00	0	35	0	1212153856	34	5694
2026-01-06 04:58:14.78	172.21	17.84	-30.2	-30.8	27.0	0.00e+00	0	35	0	1219493888	34	5592
2026-01-06 04:58:15.79	172.26	17.96	-30.2	-30.8	26.9	0.00e+00	0	35	0	1226833920	34	5608
2026-01-06 04:58:16.80	172.30	18.08	-30.2	-30.8	26.9	0.00e+00	0	35	0	1233125376	34	5591
2026-01-06 04:58:17.81	172.35	18.20	-30.1	-30.7	27.0	0.00e+00	0	35	0	1240465408	34	5552
2026-01-06 04:58:18.82	172.39	18.32	-30.0	-30.6	27.0	0.00e+00	0	34	0	1247805440	34	5469
2026-01-06 04:58:19.83	172.44	18.44	-30.0	-30.7	27.1	0.00e+00	0	35	0	1255145472	34	5507
2026-01-06 04:58:20.83	172.49	18.56	-30.0	-30.6	27.1	0.00e+00	0	35	0	1262485504	34	5489
2026-01-06 04:58:21.84	172.53	18.69	-30.0	-30.6	27.2	0.00e+00	0	35	0	1269825536	34	5459
2026-01-06 04:58:22.85	172.58	18.81	-29.9	-30.5	27.3	0.00e+00	0	35	0	1277165568	34	5386
2026-01-06 04:58:23.86	172.63	18.94	-29.8	-30.4	27.2	0.00e+00	0	35	0	1284505600	34	5358
2026-01-06 04:58:24.87	172.68	19.06	-29.8	-30.4	27.3	0.00e+00	0	35	0	1291845632	32	5993
2026-01-06 04:58:25.88	172.73	19.19	-29.8	-30.4	27.4	0.00e+00	0	35	0	1299185664	32	5991
2026-01-06 04:58:26.89	172.77	19.31	-29.8	-30.4	27.2	0.00e+00	0	35	0	1306525696	32	5971
2026-01-06 04:58:27.90	172.82	19.44	-29.6	-30.2	27.4	0.00e+00	0	35	0	1313865728	32	5879
2026-01-06 04:58:28.91	172.87	19.57	-29.5	-30.1	27.5	0.00e+00	0	35	0	1321205760	32	5814
2026-01-06 04:58:29.92	172.92	19.69	-29.5	-30.1	27.5	0.00e+00	0	35	0	1328545792	32	5806
2026-01-06 04:58:30.93	172.97	19.82	-29.5	-30.1	27.6	0.00e+00	0	35	0	1335885824	32	5816
2026-01-06 04:58:31.94	173.02	19.95	-29.5	-30.1	27.5	0.00e+00	0	35	0	1343225856	32	5791
2026-01-06 04:58:32.94	173.08	20.08	-29.4	-30.0	27.6	0.00e+00	0	35	0	1350565888	32	5724
2026-01-06 04:58:33.95	173.13	20.21	-29.5	-30.1	27.6	0.00e+00	0	35	0	1356857344	32	5792
2026-01-06 04:58:34.96	173.18	20.34	-29.4	-30.0	27.7	0.00e+00	0	35	0	1364197376	32	5723
2026-01-06 04:58:35.97	173.23	20.48	-29.4	-30.0	27.7	0.00e+00	0	35	0	1372585984	32	5715
2026-01-06 04:58:36.98	173.28	20.61	-29.4	-30.0	27.6	0.00e+00	0	35	0	1378877440	32	5727
2026-01-06 04:58:37.99	173.34	20.74	-29.3	-29.9	27.7	0.00e+00	0	35	0	1386217472	32	5674
2026-01-06 04:58:39.00	173.39	20.88	-29.4	-30.0	27.6	0.00e+00	0	35	0	1393557504	32	5739
2026-01-06 04:58:40.01	173.45	21.01	-29.2	-29.8	27.7	0.00e+00	0	35	0	1400897536	32	5581
2026-01-06 04:58:41.02	173.50	21.15	-29.4	-30.0	27.6	0.00e+00	0	35	0	1408237568	32	5722
2026-01-06 04:58:42.03	173.56	21.28	-29.4	-30.0	27.6	0.00e+00	0	35	0	1415577600	32	5733
2026-01-06 04:58:43.04	173.61	21.42	-29.4	-30.0	27.6	0.00e+00	0	35	0	1422917632	32	5732
2026-01-06 04:58:44.05	173.67	21.56	-29.4	-30.0	27.7	0.00e+00	0	35	0	1430257664	32	5729
2026-01-06 04:58:45.06	173.72	21.69	-29.4	-30.0	27.7	0.00e+00	0	35	0	1437597696	32	5731
2026-01-06 04:58:46.06	173.78	21.83	-29.5	-30.1	27.6	0.00e+00	0	35	0	1444937728	32	5777
2026-01-06 04:58:47.07	173.84	21.97	-29.5	-30.1	27.6	0.00e+00	0	35	0	1452277760	32	5788
2026-01-06 04:58:48.08	173.90	22.11	-29.5	-30.1	27.6	0.00e+00	0	35	0	1459617792	32	5813
2026-01-06 04:58:49.09	173.95	22.25	-29.6	-30.2	27.5	0.00e+00	0	35	0	1466957824	32	5864
2026-01-06 04:58:50.10	174.01	22.40	-29.6	-30.2	27.5	0.00e+00	0	35	0	1474297856	32	5875
2026-01-06 04:58:51.11	174.07	22.54	-29.7	-30.3	27.4	0.00e+00	0	35	0	1481637888	32	5919
2026-01-06 04:58:52.12	174.13	22.68	-29.5	-30.1	27.6	0.00e+00	0	35	0	1488977920	32	5824
2026-01-06 04:58:53.13	174.19	22.83	-29.7	-30.3	27.4	0.00e+00	0	35	0	1496317952	32	5942
2026-01-06 04:58:54.14	174.25	22.97	-29.5	-30.1	27.6	0.00e+00	0	35	0	1503657984	32	5796
2026-01-06 04:58:55.15	174.32	23.12	-29.6	-30.2	27.5	0.00e+00	0	35	0	1509949440	32	5848
2026-01-06 04:58:56.16	174.38	23.26	-29.7	-30.3	27.5	0.00e+00	0	35	0	1517289472	32	5905
2026-01-06 04:58:57.17	174.44	23.41	-29.5	-30.1	27.6	0.00e+00	0	35	0	1525678080	32	5782
2026-01-06 04:58:58.18	174.50	23.56	-29.7	-30.3	27.5	0.00e+00	0	35	0	1531969536	32	5907
2026-01-06 04:58:59.19	174.57	23.71	-29.4	-30.0	27.6	0.00e+00	0	35	0	1539309568	32	5746
2026-01-06 04:59:00.20	174.63	23.86	-29.6	-30.2	27.5	0.00e+00	0	35	0	1546649600	32	5872
2026-01-06 04:59:01.21	174.70	24.01	-29.6	-30.2	27.6	0.00e+00	0	35	0	1553989632	32	5838
2026-01-06 04:59:02.22	174.76	24.16	-29.3	-29.9	27.6	0.00e+00	0	35	0	1561329664	32	5689
2026-01-06 04:59:03.23	174.83	24.31	-29.4	-30.0	27.6	0.00e+00	0	35	0	1568669696	32	5739
2026-01-06 04:59:04.24	174.89	24.47	-29.4	-30.0	27.7	0.00e+00	0	35	0	1576009728	32	5707
2026-01-06 04:59:05.24	174.96	24.62	-29.1	-29.7	27.9	0.00e+00	0	35	0	1583349760	32	5525
2026-01-06 04:59:06.25	175.03	24.78	-28.9	-29.5	28.0	0.00e+00	0	35	0	1590689792	32	5424
2026-01-06 04:59:07.26	175.10	24.93	-29.0	-29.6	28.0	0.00e+00	0	35	0	1598029824	32	5449
2026-01-06 04:59:08.27	175.17	25.09	-29.0	-29.6	28.0	0.00e+00	0	35	0	1605369856	32	5444
2026-01-06 04:59:09.28	175.24	25.25	-29.1	-29.6	28.0	0.00e+00	0	35	0	1612709888	32	5499
2026-01-06 04:59:10.29	175.31	25.41	-29.0	-29.6	28.0	0.00e+00	0	35	0	1620049920	32	5488
2026-01-06 04:59:11.30	175.38	25.56	-28.7	-29.3	28.2	0.00e+00	0	35	0	1627389952	32	5298
2026-01-06 04:59:12.31	175.45	25.73	-28.8	-29.3	28.3	0.00e+00	0	35	0	1633681408	30	5954
2026-01-06 04:59:13.32	175.52	25.89	-28.7	-29.2	28.2	0.00e+00	0	35	0	1642070016	30	5887
2026-01-06 04:59:14.33	175.60	26.05	-28.6	-29.2	28.2	0.00e+00	0	35	0	1649410048	30	5864
2026-01-06 04:59:15.34	175.67	26.21	-28.5	-29.1	28.4	0.00e+00	0	35	0	1655701504	30	5778
2026-01-06 04:59:16.35	175.74	26.38	-28.6	-29.1	28.3	0.00e+00	0	35	0	1663041536	30	5823
2026-01-06 04:59:17.36	175.82	26.54	-28.4	-29.0	28.5	0.00e+00	0	35	0	1670381568	30	5728
2026-01-06 04:59:18.37	175.90	26.71	-28.4	-29.0	28.4	0.00e+00	0	35	0	1677721600	30	5723
2026-01-06 04:59:19.38	175.97	26.88	-28.5	-29.1	28.3	0.00e+00	0	35	0	1685061632	30	5791
2026-01-06 04:59:20.39	176.05	27.04	-28.5	-29.1	28.4	0.00e+00	0	35	0	1692401664	30	5792
2026-01-06 04:59:21.40	176.13	27.21	-28.6	-29.2	28.3	0.00e+00	0	35	0	1699741696	30	5877
2026-01-06 04:59:22.41	176.21	27.38	-28.6	-29.2	28.2	0.00e+00	0	35	0	1707081728	30	5843
2026-01-06 04:59:23.42	176.29	27.55	-28.5	-29.1	28.4	0.00e+00	0	35	0	1714421760	30	5799
2026-01-06 04:59:24.43	176.37	27.73	-28.6	-29.1	28.3	0.00e+00	0	35	0	1721761792	30	5818
2026-01-06 04:59:25.44	176.45	27.90	-28.7	-29.3	28.2	0.00e+00	0	35	0	1729101824	30	5945
2026-01-06 04:59:26.45	176.53	28.07	-28.9	-29.4	28.2	0.00e+00	0	35	0	1736441856	30	6030
2026-01-06 04:59:27.46	176.62	28.25	-28.6	-29.2	28.3	0.00e+00	0	35	0	1743781888	30	5849
2026-01-06 04:59:28.47	176.70	28.43	-28.7	-29.3	28.2	0.00e+00	0	35	0	1751121920	30	5928
2026-01-06 04:59:29.48	176.79	28.60	-28.7	-29.3	28.3	0.00e+00	0	35	0	1758461952	30	5905
2026-01-06 04:59:30.49	176.87	28.78	-28.8	-29.4	28.2	0.00e+00	0	35	0	1765801984	30	6018
2026-01-06 04:59:31.49	176.96	28.96	-28.9	-29.5	28.1	0.00e+00	0	35	0	1773142016	30	6037
2026-01-06 04:59:32.50	177.05	29.14	-28.9	-29.5	28.2	0.00e+00	0	35	0	1780482048	30	6045
2026-01-06 04:59:33.51	177.14	29.32	-28.8	-29.4	28.2	0.00e+00	0	35	0	1786773504	30	5984
2026-01-06 04:59:34.52	177.23	29.50	-28.5	-29.1	28.4	0.00e+00	0	35	0	1795162112	30	5798
2026-01-06 04:59:35.53	177.32	29.69	-28.5	-29.0	28.4	0.00e+00	0	35	0	1802502144	30	5751
2026-01-06 04:59:36.54	177.41	29.87	-28.5	-29.1	28.5	0.00e+00	0	35	0	1808793600	30	5809
2026-01-06 04:59:37.55	177.50	30.06	-28.4	-29.0	28.4	0.00e+00	0	35	0	1816133632	30	5735
2026-01-06 04:59:38.56	177.60	30.25	-28.4	-29.0	28.5	0.00e+00	0	35	0	1823473664	30	5726
2026-01-06 04:59:39.57	177.69	30.44	-28.4	-29.0	28.4	0.00e+00	0	35	0	1830813696	30	5705
2026-01-06 04:59:40.58	177.79	30.63	-28.5	-29.1	28.4	0.00e+00	0	35	0	1838153728	30	5766
2026-01-06 04:59:41.59	177.89	30.82	-28.4	-29.0	28.4	0.00e+00	0	35	0	1845493760	30	5700
2026-01-06 04:59:42.60	177.98	31.01	-28.5	-29.1	28.4	0.00e+00	0	35	0	1852833792	30	5804
2026-01-06 04:59:43.61	178.08	31.20	-28.5	-29.1	28.5	0.00e+00	0	35	0	1860173824	30	5766
2026-01-06 04:59:44.62	178.18	31.40	-28.6	-29.1	28.5	0.00e+00	0	35	0	1867513856	30	5827
2026-01-06 04:59:45.63	178.29	31.59	-28.8	-29.3	28.4	0.00e+00	0	35	0	1874853888	30	5961
2026-01-06 04:59:46.64	178.39	31.79	-28.8	-29.4	28.1	0.00e+00	0	35	0	1882193920	30	6006
2026-01-06 04:59:47.65	178.49	31.99	-28.7	-29.3	28.4	0.00e+00	0	35	0	1889533952	30	5915
2026-01-06 04:59:48.66	178.60	32.19	-28.6	-29.2	28.4	0.00e+00	0	35	0	1896873984	30	5851
2026-01-06 04:59:49.67	178.70	32.39	-28.7	-29.2	28.3	0.00e+00	0	35	0	1904214016	30	5892
2026-01-06 04:59:50.68	178.81	32.59	-28.5	-29.1	28.5	0.00e+00	0	35	0	1911554048	30	5769
2026-01-06 04:59:51.69	178.92	32.79	-28.5	-29.1	28.4	0.00e+00	0	35	0	1918894080	30	5801
2026-01-06 04:59:52.69	179.03	32.99	-28.6	-29.2	28.3	0.00e+00	0	35	0	1926234112	30	5882
2026-01-06 04:59:53.70	179.14	33.20	-28.8	-29.4	28.3	0.00e+00	0	35	0	1933574144	30	5968
2026-01-06 04:59:54.72	179.26	33.41	-28.7	-29.3	28.4	0.00e+00	0	35	0	1939865600	30	5899
2026-01-06 04:59:55.72	179.37	33.61	-28.8	-29.4	28.2	0.00e+00	0	35	0	1947205632	30	6016
2026-01-06 04:59:56.73	179.49	33.82	-28.6	-29.2	28.3	0.00e+00	0	35	0	1955594240	30	5883
2026-01-06 04:59:57.74	179.60	34.03	-28.7	-29.3	28.2	0.00e+00	0	35	0	1961885696	30	5925
2026-01-06 04:59:58.75	179.72	34.25	-28.9	-29.5	28.3	0.00e+00	0	35	0	1969225728	30	6041
2026-01-06 04:59:59.76	179.84	34.46	-28.6	-29.1	28.4	0.00e+00	0	35	0	1976565760	30	5826
2026-01-06 05:00:00.77	179.97	34.67	-28.7	-29.3	28.3	0.00e+00	0	35	0	1983905792	30	5906
2026-01-06 05:00:01.78	180.09	34.89	-28.8	-29.3	28.3	0.00e+00	0	35	0	1991245824	30	5964
2026-01-06 05:00:02.79	180.22	35.11	-28.8	-29.4	28.3	0.00e+00	0	35	0	1998585856	30	6002
2026-01-06 05:00:03.80	180.34	35.33	-28.6	-29.2	28.3	0.00e+00	0	35	0	2005925888	30	5848
2026-01-06 05:00:04.81	180.47	35.55	-28.6	-29.2	28.3	0.00e+00	0	35	0	2013265920	30	5839
2026-01-06 05:00:05.82	180.60	35.77	-28.5	-29.0	28.4	0.00e+00	0	35	0	2020605952	30	5753
2026-01-06 05:00:06.83	180.73	35.99	-28.5	-29.1	28.5	0.00e+00	0	35	0	2027945984	30	5780
2026-01-06 05:00:07.84	180.87	36.21	-28.7	-29.3	28.3	0.00e+00	0	35	0	2035286016	30	5926
2026-01-06 05:00:08.84	181.00	36.44	-28.7	-29.2	28.3	0.00e+00	0	35	0	2042626048	30	5889
2026-01-06 05:00:09.85	181.14	36.67	-28.7	-29.2	28.4	0.00e+00	0	35	0	2049966080	30	5875
2026-01-06 05:00:10.86	181.28	36.89	-28.9	-29.5	28.1	0.00e+00	0	35	0	2057306112	30	6052
2026-01-06 05:00:11.87	181.42	37.12	-28.9	-29.4	28.2	0.00e+00	0	35	0	2063597568	30	6020
2026-01-06 05:00:12.88	181.56	37.36	-28.8	-29.4	28.3	0.00e+00	0	35	0	2071986176	30	5966
2026-01-06 05:00:13.89	181.71	37.59	-28.7	-29.3	28.2	0.00e+00	0	35	0	2079326208	30	5931
2026-01-06 05:00:14.90	181.85	37.82	-28.9	-29.5	28.2	0.00e+00	0	35	0	2085617664	30	6036
2026-01-06 05:00:15.91	182.00	38.06	-28.8	-29.3	28.3	0.00e+00	0	35	0	2092957696	30	5954
2026-01-06 05:00:16.92	182.15	38.29	-28.9	-29.5	28.2	0.00e+00	0	35	0	2100297728	30	6054
2026-01-06 05:00:17.93	182.31	38.53	-28.9	-29.4	28.2	0.00e+00	0	35	0	2107637760	30	6024
2026-01-06 05:00:18.94	182.46	38.77	-28.9	-29.5	28.2	0.00e+00	0	35	0	2114977792	30	6068
2026-01-06 05:00:19.95	182.62	39.01	-29.1	-29.7	28.2	0.00e+00	0	35	0	2122317824	30	6188
2026-01-06 05:00:20.96	182.78	39.26	-29.2	-29.7	28.0	0.00e+00	0	35	0	2129657856	30	6243
2026-01-06 05:00:21.97	182.94	39.50	-29.4	-30.0	27.9	0.00e+00	0	35	0	2136997888	30	6416
2026-01-06 05:00:22.98	183.11	39.75	-29.5	-30.1	27.8	0.00e+00	0	35	0	2144337920	30	6473
2026-01-06 05:00:23.99	183.28	40.00	-29.3	-29.9	27.9	0.00e+00	0	35	0	2151677952	30	6364
2026-01-06 05:00:25.00	183.45	40.24	-29.2	-29.8	28.0	0.00e+00	0	35	0	2159017984	30	6275
2026-01-06 05:00:26.01	183.62	40.49	-28.9	-29.5	28.1	0.00e+00	0	35	0	2166358016	30	6068
2026-01-06 05:00:27.01	183.79	40.74	-28.8	-29.4	28.2	0.00e+00	0	35	0	2173698048	30	6005
2026-01-06 05:00:28.02	183.97	41.00	-28.9	-29.5	28.3	0.00e+00	0	35	0	2181038080	30	6046
2026-01-06 05:00:29.03	184.15	41.25	-29.1	-29.7	28.0	0.00e+00	0	35	0	2188378112	30	6193
2026-01-06 05:00:30.04	184.33	41.51	-29.0	-29.6	28.2	0.00e+00	0	35	0	2195718144	30	6104
2026-01-06 05:00:31.05	184.52	41.77	-28.8	-29.4	28.3	0.00e+00	0	35	0	2203058176	30	5993
2026-01-06 05:00:32.06	184.71	42.02	-28.9	-29.5	28.2	0.00e+00	0	35	0	2210398208	30	6048
2026-01-06 05:00:33.07	184.90	42.29	-28.9	-29.5	28.3	0.00e+00	0	35	0	2216689664	30	6043
2026-01-06 05:00:34.08	185.10	42.55	-28.8	-29.4	28.1	0.00e+00	0	35	0	2225078272	30	5995
2026-01-06 05:00:35.09	185.29	42.81	-29.0	-29.5	28.2	0.00e+00	0	35	0	2232418304	30	6103
2026-01-06 05:00:36.10	185.50	43.08	-29.2	-29.7	28.3	0.00e+00	0	35	0	2238709760	30	6244
2026-01-06 05:00:37.11	185.70	43.34	-29.2	-29.8	27.9	0.00e+00	0	35	0	2246049792	30	6310
2026-01-06 05:00:38.12	185.91	43.61	-29.4	-30.0	27.9	0.00e+00	0	35	0	2253389824	30	6417
2026-01-06 05:00:39.13	186.12	43.88	-29.3	-29.9	27.9	0.00e+00	0	35	0	2260729856	30	6361
2026-01-06 05:00:40.14	186.34	44.15	-29.2	-29.8	27.9	0.00e+00	0	35	0	2268069888	30	6262
2026-01-06 05:00:41.15	186.55	44.42	-29.3	-29.9	27.9	0.00e+00	0	35	0	2275409920	30	6343
2026-01-06 05:00:42.16	186.78	44.70	-29.1	-29.6	27.9	0.00e+00	0	35	0	2282749952	30	6158
2026-01-06 05:00:43.16	187.00	44.97	-29.4	-30.0	27.9	0.00e+00	0	35	0	2290089984	30	6401
2026-01-06 05:00:44.17	187.23	45.25	-29.2	-29.8	28.0	0.00e+00	0	35	0	2297430016	30	6283
2026-01-06 05:00:45.18	187.47	45.53	-29.5	-30.0	27.7	0.00e+00	0	35	0	2304770048	30	6460
2026-01-06 05:00:46.19	187.70	45.81	-29.4	-29.9	28.1	0.00e+00	0	35	0	2312110080	30	6371
2026-01-06 05:00:47.20	187.95	46.09	-29.5	-30.1	27.9	0.00e+00	0	35	0	2319450112	32	5816
2026-01-06 05:00:48.21	188.19	46.37	-29.6	-30.1	27.7	0.00e+00	0	35	0	2326790144	32	5820
2026-01-06 05:00:49.22	188.44	46.65	-29.4	-30.0	27.8	0.00e+00	0	35	0	2334130176	32	5749
2026-01-06 05:00:50.22	188.70	46.93	-29.4	-30.0	27.8	0.00e+00	0	35	0	2341470208	32	5732
2026-01-06 05:00:51.23	188.96	47.22	-29.6	-30.2	27.6	0.00e+00	0	35	0	2348810240	32	5832
2026-01-06 05:00:52.24	189.22	47.51	-29.9	-30.5	27.5	0.00e+00	0	35	0	2356150272	32	6072
2026-01-06 05:00:53.25	189.49	47.80	-29.9	-30.5	27.4	0.00e+00	0	35	0	2362441728	32	6080
2026-01-06 05:00:54.26	189.77	48.09	-30.0	-30.6	27.2	0.00e+00	0	35	0	2369781760	32	6155
2026-01-06 05:00:55.27	190.05	48.38	-30.1	-30.7	27.2	0.00e+00	0	35	0	2378170368	32	6184
2026-01-06 05:00:56.28	190.33	48.67	-30.2	-30.8	27.2	0.00e+00	0	35	0	2384461824	32	6281
2026-01-06 05:00:57.29	190.62	48.97	-30.1	-30.7	27.0	0.00e+00	0	35	0	2391801856	32	6231
2026-01-06 05:00:58.30	190.92	49.26	-30.2	-30.8	27.1	0.00e+00	0	35	0	2399141888	32	6263
2026-01-06 05:00:59.31	191.22	49.56	-30.2	-30.8	27.0	0.00e+00	0	35	0	2406481920	32	6272
2026-01-06 05:01:00.32	191.53	49.86	-30.4	-31.0	27.2	0.00e+00	0	35	0	2413821952	32	6442
2026-01-06 05:01:01.33	191.84	50.15	-30.3	-30.9	27.0	0.00e+00	0	35	0	2421161984	32	6349
2026-01-06 05:01:02.34	192.16	50.45	-29.7	-30.3	27.1	0.00e+00	0	35	0	2428502016	32	5914
2026-01-06 05:01:03.35	192.49	50.75	-30.0	-30.6	27.3	0.00e+00	0	35	0	2435842048	32	6167
2026-01-06 05:01:04.36	192.82	51.06	-30.1	-30.7	27.3	0.00e+00	0	35	0	2443182080	32	6196
2026-01-06 05:01:05.37	193.16	51.36	-30.2	-30.8	27.2	0.00e+00	0	35	0	2450522112	32	6298
2026-01-06 05:01:06.38	193.51	51.66	-30.3	-30.9	27.1	0.00e+00	0	35	0	2457862144	32	6339
2026-01-06 05:01:07.39	193.86	51.97	-30.2	-30.8	26.9	0.00e+00	0	35	0	2465202176	32	6270
2026-01-06 05:01:08.40	194.22	52.27	-30.3	-30.9	27.0	0.00e+00	0	35	0	2472542208	32	6354
2026-01-06 05:01:09.40	194.59	52.57	-30.4	-31.0	26.9	0.00e+00	0	35	0	2479882240	32	6403
2026-01-06 05:01:10.41	194.96	52.88	-30.3	-30.9	27.2	0.00e+00	0	35	0	2487222272	32	6331
2026-01-06 05:01:11.42	195.34	53.19	-30.5	-31.1	27.1	0.00e+00	0	35	0	2494562304	32	6468
2026-01-06 05:01:12.43	195.74	53.50	-30.9	-31.5	27.1	0.00e+00	0	35	0	2501902336	34	6042
2026-01-06 05:01:13.44	196.14	53.80	-30.9	-31.5	26.8	0.00e+00	0	35	0	2509242368	34	6074
2026-01-06 05:01:14.45	196.54	54.11	-30.6	-31.2	26.9	0.00e+00	0	35	0	2515533824	34	5877
2026-01-06 05:01:15.46	196.96	54.42	-30.4	-31.0	27.0	0.00e+00	0	35	0	2522873856	34	5718
2026-01-06 05:01:16.47	197.39	54.73	-30.4	-31.0	27.1	0.00e+00	0	35	0	2530213888	34	5747
2026-01-06 05:01:17.48	197.82	55.04	-30.1	-30.7	27.1	0.00e+00	0	35	0	2537553920	34	5536
2026-01-06 05:01:18.49	198.27	55.35	-29.9	-30.5	27.3	0.00e+00	0	35	0	2544893952	32	6070
2026-01-06 05:01:19.49	198.72	55.66	-30.2	-30.8	27.2	0.00e+00	0	35	0	2552233984	32	6306
2026-01-06 05:01:20.51	199.19	55.97	-30.3	-30.9	27.1	0.00e+00	0	35	0	2559574016	32	6353
2026-01-06 05:01:21.51	199.66	56.28	-30.4	-31.0	27.0	0.00e+00	0	35	0	2566914048	32	6459
2026-01-06 05:01:22.52	200.14	56.59	-30.3	-30.9	27.1	0.00e+00	0	35	0	2574254080	32	6380
2026-01-06 05:01:23.53	200.64	56.90	-30.4	-31.1	26.6	0.00e+00	0	35	0	2581594112	32	6475
2026-01-06 05:01:24.54	201.15	57.21	-30.3	-30.9	27.3	0.00e+00	0	35	0	2588934144	32	6332
2026-01-06 05:01:25.55	201.66	57.51	-30.1	-30.7	27.3	0.00e+00	0	35	0	2596274176	32	6179
2026-01-06 05:01:26.56	202.20	57.82	-30.3	-30.9	27.1	0.00e+00	0	35	0	2603614208	32	6327
2026-01-06 05:01:27.57	202.74	58.13	-30.4	-31.0	27.0	0.00e+00	0	35	0	2610954240	32	6446
2026-01-06 05:01:28.58	203.29	58.44	-29.9	-30.5	27.3	0.00e+00	0	35	0	2618294272	34	5411
2026-01-06 05:01:29.58	203.86	58.74	-30.5	-31.1	26.9	0.00e+00	0	35	0	2625634304	32	6504
2026-01-06 05:01:30.60	204.44	59.05	-30.3	-30.9	27.1	0.00e+00	0	35	0	2632974336	32	6371
2026-01-06 05:01:31.61	205.04	59.35	-30.1	-30.7	27.2	0.00e+00	0	35	0	2639265792	32	6228
2026-01-06 05:01:32.62	205.65	59.65	-30.0	-30.6	27.4	0.00e+00	0	35	0	2646605824	32	6133
2026-01-06 05:01:33.62	206.26	59.95	-29.8	-30.4	27.5	0.00e+00	0	35	0	2654994432	32	6014
2026-01-06 05:01:34.63	206.90	60.25	-29.9	-30.5	27.4	0.00e+00	0	35	0	2661285888	32	6080
2026-01-06 05:01:35.64	207.55	60.54	-30.0	-30.6	27.2	0.00e+00	0	35	0	2668625920	32	6110
2026-01-06 05:01:36.65	208.22	60.84	-30.1	-30.7	27.4	0.00e+00	0	35	0	2675965952	32	6180
2026-01-06 05:01:37.66	208.90	61.13	-29.9	-30.5	27.4	0.00e+00	0	35	0	2683305984	32	6042
2026-01-06 05:01:38.67	209.60	61.42	-29.6	-30.1	27.8	0.00e+00	0	35	0	2690646016	32	5825
2026-01-06 05:01:39.68	210.32	61.71	-29.4	-30.0	27.6	0.00e+00	0	35	0	2697986048	32	5724
2026-01-06 05:01:40.68	211.04	61.99	-29.7	-30.3	27.7	0.00e+00	0	35	0	2705326080	32	5943
2026-01-06 05:01:41.69	211.79	62.27	-29.8	-30.4	27.6	0.00e+00	0	35	0	2712666112	32	5969
2026-01-06 05:01:42.71	212.57	62.56	-29.8	-30.4	27.4	0.00e+00	0	35	0	2720006144	32	6020
2026-01-06 05:01:43.71	213.34	62.83	-29.8	-30.4	27.4	0.00e+00	0	35	0	2727346176	32	5999
2026-01-06 05:01:44.72	214.14	63.10	-29.9	-30.5	27.4	0.00e+00	0	35	0	2734686208	32	6088
2026-01-06 05:01:45.73	214.96	63.37	-29.7	-30.3	27.5	0.00e+00	0	35	0	2742026240	32	5929
2026-01-06 05:01:46.74	215.80	63.64	-29.6	-30.2	27.7	0.00e+00	0	35	0	2749366272	32	5892
2026-01-06 05:01:47.75	216.66	63.90	-29.5	-30.1	27.6	0.00e+00	0	35	0	2756706304	32	5808
2026-01-06 05:01:48.76	217.54	64.16	-29.2	-29.8	27.4	0.00e+00	0	35	0	2764046336	32	5627
2026-01-06 05:01:49.77	218.44	64.41	-29.4	-30.0	27.7	0.00e+00	0	35	0	2771386368	32	5757
2026-01-06 05:01:50.78	219.35	64.65	-29.8	-30.4	27.4	0.00e+00	0	35	0	2778726400	32	5983
2026-01-06 05:01:51.79	220.29	64.90	-29.6	-30.2	27.6	0.00e+00	0	35	0	2786066432	32	5876
2026-01-06 05:01:52.79	221.23	65.13	-29.6	-30.3	27.6	0.00e+00	0	35	0	2792357888	32	5897
2026-01-06 05:01:53.80	222.21	65.36	-29.2	-29.8	28.0	0.00e+00	0	35	0	2799697920	32	5597
2026-01-06 05:01:54.81	223.21	65.59	-29.4	-30.0	27.9	0.00e+00	0	35	0	2807037952	32	5739
2026-01-06 05:01:55.82	224.22	65.81	-29.3	-29.9	27.8	0.00e+00	0	35	0	2814377984	32	5645
2026-01-06 05:01:56.83	225.26	66.02	-29.3	-29.9	27.8	0.00e+00	0	35	0	2821718016	32	5636
2026-01-06 05:01:57.84	226.32	66.23	-29.4	-30.0	27.8	0.00e+00	0	35	0	2829058048	32	5699
2026-01-06 05:01:58.85	227.39	66.43	-29.3	-29.9	27.8	0.00e+00	0	35	0	2836398080	32	5667
2026-01-06 05:01:59.86	228.49	66.62	-29.2	-29.8	27.8	0.00e+00	0	35	0	2843738112	32	5572
2026-01-06 05:02:00.87	229.61	66.80	-28.9	-29.5	28.2	0.00e+00	0	35	0	2851078144	32	5412
2026-01-06 05:02:01.88	230.74	66.98	-28.9	-29.5	28.0	0.00e+00	0	35	0	2858418176	32	5393
2026-01-06 05:02:02.88	231.88	67.15	-28.9	-29.5	28.1	0.00e+00	0	35	0	2865758208	32	5410
2026-01-06 05:02:03.89	233.05	67.31	-28.8	-29.3	27.8	0.00e+00	0	35	0	2873098240	32	5300
2026-01-06 05:02:04.90	234.24	67.46	-28.8	-29.4	28.2	0.00e+00	0	35	0	2880438272	30	6017
2026-01-06 05:02:05.91	235.45	67.61	-28.8	-29.4	28.3	0.00e+00	0	35	0	2887778304	30	5986
2026-01-06 05:02:06.92	236.67	67.74	-28.7	-29.4	27.9	0.00e+00	0	35	0	2895118336	30	5968
2026-01-06 05:02:07.93	237.91	67.87	-28.7	-29.3	28.3	0.00e+00	0	35	0	2902458368	30	5943
2026-01-06 05:02:08.94	239.16	67.98	-28.9	-29.5	28.1	0.00e+00	0	35	0	2909798400	30	6034
2026-01-06 05:02:09.95	240.43	68.09	-29.0	-29.5	27.9	0.00e+00	0	35	0	2917138432	30	6103
2026-01-06 05:02:10.96	241.71	68.19	-29.0	-29.6	27.9	0.00e+00	0	35	0	2923429888	30	6132
2026-01-06 05:02:11.97	243.00	68.27	-28.6	-29.2	28.4	0.00e+00	0	35	0	2931818496	30	5867
2026-01-06 05:02:12.98	244.31	68.35	-28.9	-29.5	28.1	0.00e+00	0	35	0	2939158528	30	6039
2026-01-06 05:02:13.99	245.62	68.42	-29.0	-29.6	28.1	0.00e+00	0	35	0	2945449984	30	6108
2026-01-06 05:02:15.00	246.94	68.47	-28.9	-29.5	28.2	0.00e+00	0	35	0	2952790016	30	6044
2026-01-06 05:02:16.01	248.26	68.52	-29.0	-29.6	28.0	0.00e+00	0	35	0	2960130048	30	6160
2026-01-06 05:02:17.02	249.59	68.55	-28.9	-29.5	28.0	0.00e+00	0	35	0	2967470080	30	6070
2026-01-06 05:02:18.03	250.93	68.58	-28.7	-29.2	28.1	0.00e+00	0	35	0	2974810112	30	5875
2026-01-06 05:02:19.04	252.27	68.59	-28.7	-29.3	28.2	0.00e+00	0	35	0	2982150144	30	5941
2026-01-06 05:02:20.05	253.61	68.59	-28.8	-29.4	28.3	0.00e+00	0	35	0	2989490176	30	5965
2026-01-06 05:02:21.06	254.94	68.59	-28.7	-29.3	28.2	0.00e+00	0	35	0	2996830208	30	5943
2026-01-06 05:02:22.08	256.29	68.57	-28.9	-29.5	27.9	0.00e+00	0	35	0	3004170240	30	6077
2026-01-06 05:02:23.08	257.61	68.54	-28.8	-29.4	28.1	0.00e+00	0	35	0	3011510272	30	6011
2026-01-06 05:02:24.10	258.96	68.50	-28.7	-29.2	28.4	0.00e+00	0	35	0	3018850304	30	5868
2026-01-06 05:02:25.11	260.28	68.45	-28.7	-29.2	28.2	0.00e+00	0	35	0	3026190336	30	5894
2026-01-06 05:02:26.12	261.59	68.39	-28.9	-29.5	28.1	0.00e+00	0	35	0	3033530368	30	6049
2026-01-06 05:02:27.13	262.90	68.32	-29.0	-29.6	27.8	0.00e+00	0	35	0	3040870400	30	6151
2026-01-06 05:02:28.14	264.20	68.23	-28.8	-29.4	27.5	0.00e+00	0	35	0	3048210432	30	5976
2026-01-06 05:02:29.15	265.48	68.14	-28.7	-29.3	28.1	0.00e+00	0	35	0	3055550464	30	5933
2026-01-06 05:02:30.16	266.76	68.04	-28.8	-29.3	28.2	0.00e+00	0	35	0	3062890496	30	5952
2026-01-06 05:02:31.16	268.01	67.93	-28.9	-29.4	28.0	0.00e+00	0	35	0	3069181952	30	6033
2026-01-06 05:02:32.18	269.26	67.81	-29.4	-30.0	27.8	0.00e+00	0	35	0	3077570560	30	6424
2026-01-06 05:02:33.19	270.49	67.68	-29.3	-29.9	27.9	0.00e+00	0	35	0	3084910592	30	6373
2026-01-06 05:02:34.20	271.71	67.54	-29.1	-29.7	27.9	0.00e+00	0	35	0	3091202048	30	6238
2026-01-06 05:02:35.20	272.90	67.40	-28.8	-29.4	28.0	0.00e+00	0	35	0	3098542080	30	6015
2026-01-06 05:02:36.22	274.09	67.24	-28.8	-29.3	28.2	0.00e+00	0	35	0	3105882112	30	5959
2026-01-06 05:02:37.22	275.24	67.07	-28.8	-29.4	28.3	0.00e+00	0	35	0	3113222144	30	5968
2026-01-06 05:02:38.23	276.38	66.90	-28.9	-29.5	28.0	0.00e+00	0	35	0	3120562176	30	6060
2026-01-06 05:02:39.24	277.51	66.72	-29.0	-29.6	28.0	0.00e+00	0	35	0	3127902208	30	6135
2026-01-06 05:02:40.25	278.62	66.53	-29.0	-29.6	28.0	0.00e+00	0	35	0	3135242240	30	6139
2026-01-06 05:02:41.26	279.70	66.34	-28.9	-29.4	28.1	0.00e+00	0	35	0	3142582272	30	6028
2026-01-06 05:02:42.27	280.77	66.14	-28.8	-29.4	27.9	0.00e+00	0	35	0	3149922304	30	6010
2026-01-06 05:02:43.28	281.82	65.93	-29.0	-29.6	27.9	0.00e+00	0	35	0	3157262336	30	6128
2026-01-06 05:02:44.29	282.84	65.71	-29.1	-29.7	28.0	0.00e+00	0	35	0	3164602368	30	6186
2026-01-06 05:02:45.30	283.85	65.49	-29.2	-29.8	27.6	0.00e+00	0	35	0	3171942400	30	6269
2026-01-06 05:02:46.31	284.83	65.26	-29.3	-29.9	27.9	0.00e+00	0	35	0	3179282432	30	6335
2026-01-06 05:02:47.32	285.80	65.03	-29.4	-30.0	27.7	0.00e+00	0	35	0	3186622464	30	6420
2026-01-06 05:02:48.33	286.75	64.79	-29.6	-30.2	27.5	0.00e+00	0	35	0	3193962496	30	6569
2026-01-06 05:02:49.34	287.67	64.55	-29.7	-30.4	27.5	0.00e+00	0	35	0	3201302528	32	5969
2026-01-06 05:02:50.34	288.57	64.30	-29.6	-30.2	27.5	0.00e+00	0	35	0	3208642560	32	5882
2026-01-06 05:02:51.36	289.47	64.04	-29.6	-30.2	27.6	0.00e+00	0	35	0	3215982592	32	5871
2026-01-06 05:02:52.37	290.33	63.78	-29.6	-30.2	27.4	0.00e+00	0	35	0	3222274048	32	5869
2026-01-06 05:02:53.37	291.17	63.52	-30.1	-30.7	27.2	0.00e+00	0	35	0	3230662656	32	6218
2026-01-06 05:02:54.38	292.00	63.26	-30.4	-31.0	26.9	0.00e+00	0	35	0	3238002688	32	6429
2026-01-06 05:02:55.39	292.82	62.99	-29.8	-30.4	27.3	0.00e+00	0	35	0	3244294144	32	6009
2026-01-06 05:02:56.40	293.61	62.71	-29.7	-30.3	27.4	0.00e+00	0	35	0	3251634176	32	5931
2026-01-06 05:02:57.41	294.38	62.44	-29.7	-30.3	27.3	0.00e+00	0	35	0	3258974208	32	5954
2026-01-06 05:02:58.43	295.15	62.15	-29.8	-30.5	27.4	0.00e+00	0	35	0	3266314240	32	6037
2026-01-06 05:02:59.43	295.88	61.87	-29.8	-30.4	27.3	0.00e+00	0	35	0	3273654272	32	6018
2026-01-06 05:03:00.44	296.60	61.59	-30.1	-30.7	27.3	0.00e+00	0	35	0	3280994304	32	6204
2026-01-06 05:03:01.45	297.31	61.30	-30.4	-31.0	27.0	0.00e+00	0	35	0	3288334336	32	6399
2026-01-06 05:03:02.46	298.00	61.01	-30.6	-31.2	26.7	0.00e+00	0	35	0	3295674368	32	6609
2026-01-06 05:03:03.47	298.68	60.71	-30.7	-31.3	26.5	0.00e+00	0	35	0	3303014400	32	6644
2026-01-06 05:03:04.48	299.34	60.42	-30.3	-31.0	27.1	0.00e+00	0	35	0	3310354432	32	6400
2026-01-06 05:03:05.49	299.98	60.12	-30.4	-31.0	27.0	0.00e+00	0	35	0	3317694464	32	6442
2026-01-06 05:03:06.50	300.61	59.82	-30.5	-31.1	27.0	0.00e+00	0	35	0	3325034496	32	6499
2026-01-06 05:03:07.51	301.23	59.52	-30.9	-31.5	26.7	0.00e+00	0	35	0	3332374528	34	6081
2026-01-06 05:03:08.52	301.83	59.22	-30.5	-31.1	26.4	0.00e+00	0	35	0	3339714560	34	5789
2026-01-06 05:03:09.53	302.42	58.92	-30.7	-31.3	26.7	0.00e+00	0	35	0	3347054592	34	5905
2026-01-06 05:03:10.53	302.99	58.62	-30.6	-31.2	26.8	0.00e+00	0	35	0	3354394624	34	5868
2026-01-06 05:03:11.54	303.55	58.31	-30.7	-31.3	26.3	0.00e+00	0	35	0	3361734656	34	5948
2026-01-06 05:03:12.55	304.10	58.01	-30.6	-31.2	26.8	0.00e+00	0	35	0	3368026112	34	5889
2026-01-06 05:03:13.56	304.63	57.70	-30.5	-31.1	26.8	0.00e+00	0	35	0	3375366144	34	5797
2026-01-06 05:03:14.57	305.16	57.39	-30.4	-31.0	27.1	0.00e+00	0	35	0	3383754752	34	5739
2026-01-06 05:03:15.58	305.67	57.09	-30.5	-31.1	26.6	0.00e+00	0	35	0	3390046208	34	5779
2026-01-06 05:03:16.59	306.17	56.78	-30.4	-31.0	26.6	0.00e+00	0	35	0	3397386240	34	5750
2026-01-06 05:03:17.60	306.66	56.47	-30.3	-30.9	27.1	0.00e+00	0	35	0	3404726272	34	5641
2026-01-06 05:03:18.61	307.14	56.16	-30.6	-31.2	26.9	0.00e+00	0	35	0	3412066304	34	5876
2026-01-06 05:03:19.62	307.61	55.85	-30.5	-31.1	27.0	0.00e+00	0	35	0	3419406336	34	5784
2026-01-06 05:03:20.63	308.07	55.54	-30.5	-31.1	27.0	0.00e+00	0	35	0	3426746368	34	5803
2026-01-06 05:03:21.64	308.52	55.23	-30.5	-31.1	26.6	0.00e+00	0	35	0	3434086400	34	5793
2026-01-06 05:03:22.65	308.96	54.92	-30.5	-31.2	26.8	0.00e+00	0	35	0	3441426432	34	5838
2026-01-06 05:03:23.66	309.39	54.61	-30.6	-31.2	27.0	0.00e+00	0	35	0	3448766464	34	5834
2026-01-06 05:03:24.67	309.82	54.31	-30.6	-31.3	26.8	0.00e+00	0	35	0	3456106496	34	5898
2026-01-06 05:03:25.68	310.23	54.00	-30.4	-31.0	26.9	0.00e+00	0	35	0	3463446528	34	5719
2026-01-06 05:03:26.69	310.63	53.69	-30.6	-31.2	26.9	0.00e+00	0	35	0	3470786560	34	5860
2026-01-06 05:03:27.70	311.03	53.38	-30.6	-31.3	26.7	0.00e+00	0	35	0	3478126592	34	5905
2026-01-06 05:03:28.71	311.41	53.08	-30.5	-31.2	27.0	0.00e+00	0	35	0	3485466624	34	5831
2026-01-06 05:03:29.72	311.79	52.77	-30.5	-31.1	26.9	0.00e+00	0	35	0	3492806656	34	5777
2026-01-06 05:03:30.73	312.17	52.47	-30.4	-31.1	26.9	0.00e+00	0	35	0	3500146688	34	5767
2026-01-06 05:03:31.74	312.53	52.16	-30.4	-31.0	26.8	0.00e+00	0	35	0	3507486720	34	5732
2026-01-06 05:03:32.75	312.89	51.86	-30.3	-30.9	27.0	0.00e+00	0	35	0	3514826752	34	5653
2026-01-06 05:03:33.76	313.24	51.55	-30.2	-30.9	27.1	0.00e+00	0	35	0	3521118208	34	5631
2026-01-06 05:03:34.77	313.58	51.25	-30.2	-30.8	25.3	0.00e+00	0	35	0	3528458240	34	5600
2026-01-06 05:03:35.78	313.92	50.95	-30.5	-31.1	27.0	0.00e+00	0	35	0	3536846848	34	5824
2026-01-06 05:03:36.78	314.24	50.65	-30.5	-31.0	26.4	0.00e+00	0	35	0	3543138304	34	5748
2026-01-06 05:03:37.79	314.56	50.36	-30.7	-31.3	26.7	0.00e+00	0	35	0	3550478336	34	5913
2026-01-06 05:03:38.80	314.88	50.06	-30.7	-31.3	26.8	0.00e+00	0	35	0	3557818368	34	5963
2026-01-06 05:03:39.81	315.19	49.76	-30.5	-31.1	25.8	0.00e+00	0	35	0	3565158400	34	5820
2026-01-06 05:03:40.82	315.50	49.46	-30.4	-31.0	27.0	0.00e+00	0	35	0	3572498432	34	5709
2026-01-06 05:03:41.83	315.80	49.17	-30.5	-31.1	26.5	0.00e+00	0	35	0	3579838464	34	5787
2026-01-06 05:03:42.84	316.09	48.88	-30.0	-30.6	27.3	0.00e+00	0	35	0	3587178496	34	5456
2026-01-06 05:03:43.85	316.38	48.58	-30.1	-30.7	27.3	0.00e+00	0	35	0	3594518528	34	5512
2026-01-06 05:03:44.86	316.66	48.29	-30.2	-30.8	27.2	0.00e+00	0	35	0	3601858560	34	5579
2026-01-06 05:03:45.87	316.94	48.00	-30.3	-30.9	26.9	0.00e+00	0	35	0	3609198592	34	5688
2026-01-06 05:03:46.88	317.21	47.71	-30.3	-30.9	27.0	0.00e+00	0	35	0	3616538624	34	5677
2026-01-06 05:03:47.90	317.48	47.42	-30.4	-31.1	26.9	0.00e+00	0	35	0	3623878656	34	5776
2026-01-06 05:03:48.90	317.74	47.14	-29.9	-30.5	27.3	0.00e+00	0	35	0	3631218688	34	5418
2026-01-06 05:03:49.91	318.00	46.85	-29.8	-30.4	27.5	0.00e+00	0	35	0	3638558720	32	6004
2026-01-06 05:03:50.92	318.25	46.57	-29.7	-30.3	27.5	0.00e+00	0	35	0	3645898752	32	5920
2026-01-06 05:03:51.93	318.50	46.29	-29.5	-30.1	27.7	0.00e+00	0	35	0	3653238784	32	5796
2026-01-06 05:03:52.94	318.75	46.01	-29.5	-30.1	27.8	0.00e+00	0	35	0	3660578816	32	5788
2026-01-06 05:03:53.95	318.99	45.73	-29.2	-29.8	28.0	0.00e+00	0	35	0	3666870272	32	5608
2026-01-06 05:03:54.96	319.22	45.45	-29.1	-29.7	28.1	0.00e+00	0	35	0	3674210304	32	5557
2026-01-06 05:03:55.97	319.46	45.17	-29.2	-29.8	27.9	0.00e+00	0	35	0	3681550336	32	5583
2026-01-06 05:03:56.98	319.68	44.90	-29.2	-29.8	27.6	0.00e+00	0	35	0	3688890368	32	5581
2026-01-06 05:03:57.99	319.91	44.62	-29.2	-29.8	28.0	0.00e+00	0	35	0	3696230400	32	5591
2026-01-06 05:03:59.00	320.13	44.35	-29.2	-29.8	27.8	0.00e+00	0	35	0	3703570432	32	5579
2026-01-06 05:04:00.01	320.35	44.08	-29.3	-29.8	27.9	0.00e+00	0	35	0	3710910464	32	5626
2026-01-06 05:04:01.02	320.56	43.81	-29.4	-30.0	23.9	0.00e+00	0	35	0	3718250496	32	5696
2026-01-06 05:04:02.03	320.77	43.54	-29.4	-30.0	27.7	0.00e+00	0	35	0	3725590528	32	5734
2026-01-06 05:04:03.04	320.98	43.28	-29.3	-30.0	27.7	0.00e+00	0	35	0	3732930560	32	5713
2026-01-06 05:04:04.05	321.18	43.01	-29.4	-30.0	27.9	0.00e+00	0	35	0	3740270592	32	5718
2026-01-06 05:04:05.06	321.38	42.75	-29.1	-29.7	28.0	0.00e+00	0	35	0	3747610624	32	5559
2026-01-06 05:04:06.07	321.58	42.49	-29.0	-29.6	27.9	0.00e+00	0	35	0	3754950656	32	5448
2026-01-06 05:04:07.08	321.77	42.23	-28.8	-29.4	28.2	0.00e+00	0	35	0	3762290688	32	5358
2026-01-06 05:04:08.09	321.96	41.97	-28.9	-29.5	28.3	0.00e+00	0	35	0	3769630720	32	5411
2026-01-06 05:04:09.10	322.15	41.71	-28.8	-29.3	28.3	0.00e+00	0	35	0	3776970752	32	5307
2026-01-06 05:04:10.11	322.33	41.45	-28.7	-29.3	28.2	0.00e+00	0	35	0	3784310784	30	5943
2026-01-06 05:04:11.12	322.52	41.20	-28.7	-29.3	28.0	0.00e+00	0	35	0	3791650816	30	5953
2026-01-06 05:04:12.13	322.70	40.95	-28.8	-29.4	27.9	0.00e+00	0	35	0	3798990848	30	6025
2026-01-06 05:04:13.14	322.87	40.69	-28.9	-29.5	28.0	0.00e+00	0	35	0	3806330880	30	6041
2026-01-06 05:04:14.14	323.04	40.45	-28.9	-29.5	28.2	0.00e+00	0	35	0	3812622336	30	6039
2026-01-06 05:04:15.15	323.22	40.20	-28.8	-29.4	28.3	0.00e+00	0	35	0	3819962368	30	5996
2026-01-06 05:04:16.16	323.38	39.95	-28.7	-29.3	28.2	0.00e+00	0	35	0	3827302400	30	5935
2026-01-06 05:04:17.17	323.55	39.70	-28.6	-29.2	28.2	0.00e+00	0	35	0	3835691008	30	5877
2026-01-06 05:04:18.18	323.71	39.46	-28.7	-29.3	28.0	0.00e+00	0	35	0	3841982464	30	5959
2026-01-06 05:04:19.19	323.88	39.22	-28.8	-29.4	27.9	0.00e+00	0	35	0	3849322496	30	5976
2026-01-06 05:04:20.20	324.04	38.98	-28.6	-29.2	27.8	0.00e+00	0	35	0	3856662528	30	5861
2026-01-06 05:04:21.21	324.19	38.74	-28.7	-29.3	28.0	0.00e+00	0	35	0	3864002560	30	5933
2026-01-06 05:04:22.22	324.35	38.50	-28.8	-29.4	27.9	0.00e+00	0	35	0	3871342592	30	6008
2026-01-06 05:04:23.23	324.50	38.26	-28.9	-29.4	27.9	0.00e+00	0	35	0	3878682624	30	6020
2026-01-06 05:04:24.24	324.65	38.03	-29.1	-29.6	28.0	0.00e+00	0	35	0	3886022656	30	6156
2026-01-06 05:04:25.25	324.80	37.79	-29.0	-29.6	27.2	0.00e+00	0	35	0	3893362688	30	6125
2026-01-06 05:04:26.26	324.94	37.56	-29.2	-29.8	27.7	0.00e+00	0	35	0	3900702720	30	6263
2026-01-06 05:04:27.27	325.09	37.33	-29.1	-29.7	27.9	0.00e+00	0	35	0	3908042752	30	6221
2026-01-06 05:04:28.28	325.23	37.10	-29.1	-29.7	28.0	0.00e+00	0	35	0	3915382784	30	6228
2026-01-06 05:04:29.29	325.37	36.87	-29.0	-29.6	27.9	0.00e+00	0	35	0	3922722816	30	6147
2026-01-06 05:04:30.30	325.51	36.64	-29.1	-29.7	28.0	0.00e+00	0	35	0	3930062848	30	6217
2026-01-06 05:04:31.31	325.65	36.42	-28.8	-29.4	28.1	0.00e+00	0	35	0	3937402880	30	5968
2026-01-06 05:04:32.32	325.78	36.19	-28.7	-29.3	28.2	0.00e+00	0	35	0	3944742912	30	5947
2026-01-06 05:04:33.33	325.91	35.97	-28.6	-29.2	28.5	0.00e+00	0	35	0	3952082944	30	5870
2026-01-06 05:04:34.34	326.05	35.75	-28.4	-29.0	28.3	0.00e+00	0	35	0	3959422976	30	5731
2026-01-06 05:04:35.35	326.18	35.53	-28.5	-29.1	28.3	0.00e+00	0	35	0	3965714432	30	5795
2026-01-06 05:04:36.36	326.30	35.31	-28.4	-29.0	28.6	0.00e+00	0	35	0	3973054464	30	5743
2026-01-06 05:04:37.37	326.43	35.09	-28.4	-28.9	28.5	0.00e+00	0	35	0	3981443072	30	5688
2026-01-06 05:04:38.38	326.55	34.88	-28.5	-29.1	28.5	0.00e+00	0	35	0	3987734528	30	5794
2026-01-06 05:04:39.39	326.68	34.66	-28.4	-29.0	28.3	0.00e+00	0	35	0	3995074560	30	5713
2026-01-06 05:04:40.40	326.80	34.45	-28.5	-29.0	28.5	0.00e+00	0	35	0	4002414592	30	5761
2026-01-06 05:04:41.41	326.92	34.24	-28.5	-29.0	28.5	0.00e+00	0	35	0	4009754624	30	5748
2026-01-06 05:04:42.42	327.04	34.02	-28.6	-29.2	28.1	0.00e+00	0	35	0	4017094656	30	5840
2026-01-06 05:04:43.43	327.15	33.82	-28.6	-29.2	28.3	0.00e+00	0	35	0	4024434688	30	5859
2026-01-06 05:04:44.44	327.27	33.61	-28.6	-29.2	28.4	0.00e+00	0	35	0	4031774720	30	5849
2026-01-06 05:04:45.45	327.38	33.40	-28.7	-29.3	28.2	0.00e+00	0	35	0	4039114752	30	5954
2026-01-06 05:04:46.46	327.50	33.19	-28.8	-29.4	28.2	0.00e+00	0	35	0	4046454784	30	5971
2026-01-06 05:04:47.47	327.61	32.99	-28.6	-29.2	28.3	0.00e+00	0	35	0	4053794816	30	5856
2026-01-06 05:04:48.48	327.72	32.79	-28.7	-29.2	28.2	0.00e+00	0	35	0	4061134848	30	5896
2026-01-06 05:04:49.49	327.83	32.59	-28.7	-29.2	28.3	0.00e+00	0	35	0	4068474880	30	5886
2026-01-06 05:04:50.50	327.94	32.39	-28.7	-29.3	28.3	0.00e+00	0	35	0	4075814912	30	5948
2026-01-06 05:04:51.51	328.04	32.19	-28.5	-29.1	28.3	0.00e+00	0	35	0	4083154944	30	5808
2026-01-06 05:04:52.52	328.15	31.99	-28.6	-29.2	28.2	0.00e+00	0	35	0	4090494976	30	5847
2026-01-06 05:04:53.53	328.25	31.79	-28.7	-29.3	28.3	0.00e+00	0	35	0	4097835008	30	5901
2026-01-06 05:04:54.53	328.35	31.60	-28.6	-29.2	28.4	0.00e+00	0	35	0	4105175040	30	5839
2026-01-06 05:04:55.54	328.45	31.40	-28.6	-29.2	28.2	0.00e+00	0	35	0	4112515072	30	5872
2026-01-06 05:04:56.55	328.55	31.21	-28.8	-29.4	28.2	0.00e+00	0	35	0	4118806528	30	5974
2026-01-06 05:04:57.56	328.65	31.02	-28.7	-29.3	28.4	0.00e+00	0	35	0	4126146560	30	5907
2026-01-06 05:04:58.57	328.75	30.83	-28.8	-29.4	28.1	0.00e+00	0	35	0	4133486592	30	5972
2026-01-06 05:04:59.58	328.85	30.64	-28.7	-29.3	28.3	0.00e+00	0	35	0	4140826624	30	5962
2026-01-06 05:05:00.59	328.94	30.45	-28.8	-29.4	28.2	0.00e+00	0	35	0	4148166656	30	5971
2026-01-06 05:05:01.60	329.04	30.26	-28.9	-29.5	28.2	0.00e+00	0	35	0	4155506688	30	6053
2026-01-06 05:05:02.60	329.13	30.08	-28.9	-29.5	27.9	0.00e+00	0	35	0	4162846720	30	6039
2026-01-06 05:05:03.61	329.22	29.89	-28.9	-29.5	28.0	0.00e+00	0	35	0	4170186752	30	6063
2026-01-06 05:05:04.62	329.32	29.71	-29.0	-29.6	28.0	0.00e+00	0	35	0	4177526784	30	6126
2026-01-06 05:05:05.63	329.41	29.53	-29.0	-29.6	28.1	0.00e+00	0	35	0	4184866816	30	6113
2026-01-06 05:05:06.64	329.50	29.34	-29.2	-29.8	27.7	0.00e+00	0	35	0	4192206848	30	6265
2026-01-06 05:05:07.65	329.59	29.16	-29.1	-29.7	28.0	0.00e+00	0	35	0	4199546880	30	6229
2026-01-06 05:05:08.66	329.67	28.98	-29.1	-29.7	28.1	0.00e+00	0	35	0	4206886912	30	6232
2026-01-06 05:05:09.67	329.76	28.81	-29.2	-29.8	27.8	0.00e+00	0	35	0	4214226944	30	6299
2026-01-06 05:05:10.67	329.85	28.63	-29.2	-29.8	27.9	0.00e+00	0	35	0	4221566976	30	6306
2026-01-06 05:05:11.68	329.93	28.45	-29.2	-29.8	27.8	0.00e+00	0	35	0	4228907008	30	6304
2026-01-06 05:05:12.69	330.02	28.28	-29.3	-29.8	27.8	0.00e+00	0	35	0	4236247040	30	6312
2026-01-06 05:05:13.70	330.10	28.10	-29.2	-29.8	27.9	0.00e+00	0	35	0	4242538496	30	6260
2026-01-06 05:05:14.71	330.18	27.93	-29.3	-29.9	27.8	0.00e+00	0	35	0	4249878528	30	6321
2026-01-06 05:05:15.72	330.26	27.76	-29.2	-29.8	27.8	0.00e+00	0	35	0	4258267136	30	6279
2026-01-06 05:05:16.73	330.34	27.59	-29.2	-29.8	27.9	0.00e+00	0	35	0	4264558592	30	6280
2026-01-06 05:05:17.74	330.42	27.42	-29.1	-29.7	27.9	0.00e+00	0	35	0	4271898624	30	6234
2026-01-06 05:05:18.75	330.50	27.25	-29.2	-29.8	27.9	0.00e+00	0	35	0	4279238656	30	6269
2026-01-06 05:05:19.76	330.58	27.08	-29.2	-29.8	27.8	0.00e+00	0	35	0	4286578688	30	6250
2026-01-06 05:05:20.77	330.66	26.91	-29.1	-29.7	28.0	0.00e+00	0	35	0	4293918720	30	6218
2026-01-06 05:05:21.78	330.74	26.75	-29.2	-29.8	27.8	0.00e+00	0	35	0	4301258752	30	6295
2026-01-06 05:05:22.79	330.81	26.58	-29.2	-29.7	28.0	0.00e+00	0	35	0	4308598784	30	6240
2026-01-06 05:05:23.80	330.89	26.42	-29.1	-29.7	27.1	0.00e+00	0	35	0	4315938816	30	6215
2026-01-06 05:05:24.81	330.96	26.25	-29.2	-29.8	27.7	0.00e+00	0	35	0	4323278848	30	6269
2026-01-06 05:05:25.82	331.04	26.09	-29.2	-29.8	27.5	0.00e+00	0	35	0	4330618880	30	6266
2026-01-06 05:05:26.83	331.11	25.93	-29.4	-29.9	27.7	0.00e+00	0	35	0	4337958912	30	6379
2026-01-06 05:05:27.84	331.18	25.77	-29.4	-29.9	27.6	0.00e+00	0	35	0	4345298944	30	6382
2026-01-06 05:05:28.85	331.26	25.61	-29.4	-30.0	27.7	0.00e+00	0	35	0	4352638976	30	6399
2026-01-06 05:05:29.86	331.33	25.45	-29.4	-30.0	27.7	0.00e+00	0	35	0	4359979008	30	6422
2026-01-06 05:05:30.86	331.40	25.29	-29.4	-30.0	27.7	0.00e+00	0	35	0	4367319040	30	6436
2026-01-06 05:05:31.87	331.47	25.14	-29.5	-30.1	27.6	0.00e+00	0	35	0	4374659072	30	6500
2026-01-06 05:05:32.88	331.54	24.98	-29.6	-30.2	27.5	0.00e+00	0	35	0	4381999104	30	6597
2026-01-06 05:05:33.89	331.61	24.83	-29.6	-30.2	27.6	0.00e+00	0	35	0	4389339136	30	6552
2026-01-06 05:05:34.90	331.67	24.67	-29.5	-30.1	27.7	0.00e+00	0	35	0	4395630592	30	6489
2026-01-06 05:05:35.91	331.74	24.52	-29.6	-30.2	27.6	0.00e+00	0	35	0	4402970624	30	6578
2026-01-06 05:05:36.92	331.81	24.37	-29.6	-30.2	27.5	0.00e+00	0	35	0	4410310656	30	6564
2026-01-06 05:05:37.93	331.87	24.21	-29.6	-30.2	27.6	0.00e+00	0	35	0	4417650688	30	6581
2026-01-06 05:05:38.94	331.94	24.06	-29.7	-30.3	27.4	0.00e+00	0	35	0	4424990720	30	6630
2026-01-06 05:05:39.95	332.00	23.91	-29.7	-30.3	27.6	0.00e+00	0	35	0	4432330752	32	5937
2026-01-06 05:05:40.96	332.07	23.76	-29.9	-30.5	27.4	0.00e+00	0	35	0	4439670784	32	6053
2026-01-06 05:05:41.97	332.13	23.62	-29.7	-30.3	27.3	0.00e+00	0	35	0	4447010816	32	5960
2026-01-06 05:05:42.98	332.20	23.47	-29.6	-30.2	27.6	0.00e+00	0	35	0	4454350848	32	5868
2026-01-06 05:05:43.98	332.26	23.32	-29.5	-30.1	27.5	0.00e+00	0	35	0	4461690880	32	5784
2026-01-06 05:05:44.99	332.32	23.18	-29.6	-30.2	27.3	0.00e+00	0	35	0	4469030912	32	5842
2026-01-06 05:05:46.00	332.38	23.03	-29.4	-30.0	27.6	0.00e+00	0	35	0	4476370944	32	5724
2026-01-06 05:05:47.01	332.44	22.89	-29.6	-30.2	27.5	0.00e+00	0	35	0	4483710976	32	5873
2026-01-06 05:05:48.02	332.50	22.74	-29.5	-30.1	27.5	0.00e+00	0	35	0	4491051008	32	5792
2026-01-06 05:05:49.03	332.56	22.60	-29.5	-30.1	27.5	0.00e+00	0	35	0	4498391040	32	5780
2026-01-06 05:05:50.04	332.62	22.46	-29.4	-30.0	27.4	0.00e+00	0	35	0	4505731072	32	5741
2026-01-06 05:05:51.05	332.68	22.32	-29.5	-30.1	27.5	0.00e+00	0	35	0	4513071104	32	5775
2026-01-06 05:05:52.06	332.74	22.18	-29.5	-30.1	27.6	0.00e+00	0	35	0	4519362560	32	5769
2026-01-06 05:05:53.07	332.80	22.04	-29.3	-29.9	27.8	0.00e+00	0	35	0	4526702592	32	5674
2026-01-06 05:05:54.08	332.86	21.90	-29.4	-29.9	27.5	0.00e+00	0	35	0	4535091200	32	5691
2026-01-06 05:05:55.09	332.92	21.76	-29.3	-29.9	27.5	0.00e+00	0	35	0	4541382656	32	5684
2026-01-06 05:05:56.10	332.97	21.62	-29.4	-30.0	27.5	0.00e+00	0	35	0	4548722688	32	5700
2026-01-06 05:05:57.11	333.03	21.49	-29.5	-30.1	27.5	0.00e+00	0	35	0	4556062720	32	5812
2026-01-06 05:05:58.12	333.08	21.35	-29.4	-30.0	27.6	0.00e+00	0	35	0	4563402752	32	5732
2026-01-06 05:05:59.12	333.14	21.22	-29.5	-30.1	27.6	0.00e+00	0	35	0	4570742784	32	5801
2026-01-06 05:06:00.13	333.19	21.08	-29.4	-30.0	27.6	0.00e+00	0	35	0	4578082816	32	5742
2026-01-06 05:06:01.14	333.25	20.95	-29.5	-30.1	27.5	0.00e+00	0	35	0	4585422848	32	5813
2026-01-06 05:06:02.15	333.30	20.81	-29.5	-30.1	27.5	0.00e+00	0	35	0	4592762880	32	5825
2026-01-06 05:06:03.16	333.36	20.68	-29.8	-30.4	27.4	0.00e+00	0	35	0	4600102912	32	5971
2026-01-06 05:06:04.17	333.41	20.55	-29.6	-30.2	27.5	0.00e+00	0	35	0	4607442944	32	5885
2026-01-06 05:06:05.18	333.46	20.42	-29.8	-30.4	27.4	0.00e+00	0	35	0	4614782976	32	5971
