passes_logs/2026/01/06/R4.6S_Anadyr/R4.6S_Anadyr__20260106_141257_SUOMI_NPP_rec.log

#Pass ID: 20260106_141257_SUOMI NPP
#Satellite: SUOMI NPP
#Configuration: NPP
#almurnet v.1.7.20251203
#Start time: 2026-01-06 14:12:58

#Version: 2.2.20231116
#Station: R4.6S_Anadyr
#Location: 177.4865 lon 64.73178 lat
#TLE: 1 37849U 11061A   26004.95404768  .00000136  00000+0  85334-4 0  9991
#TLE: 2 37849  98.7801 307.0898 0002575  80.6707 279.4760 14.19522289735281

#Time	Az	El	Level	Level2	SNR	BER	BlckErr	Temp	State	Recorded	gain1	gain2
2026-01-06 14:12:58.45	19.57	0.06	-48.8	-61.4	3.4	1.52e+00	0	33	0	0	60	41106
2026-01-06 14:12:59.46	19.59	0.12	-48.8	-64.0	3.6	1.51e+00	0	34	104	0	60	57257
2026-01-06 14:13:00.47	19.61	0.18	-48.8	-64.0	3.6	1.51e+00	0	34	104	0	60	57072
2026-01-06 14:13:01.47	19.64	0.24	-48.8	-64.0	3.6	1.51e+00	0	34	104	0	60	57421
2026-01-06 14:13:02.48	19.66	0.30	-48.8	-64.0	3.6	1.51e+00	0	35	104	0	60	57366
2026-01-06 14:13:03.50	19.68	0.36	-48.9	-64.1	3.5	1.51e+00	0	35	104	0	60	57898
2026-01-06 14:13:04.51	19.70	0.42	-48.9	-64.1	3.6	1.51e+00	0	35	104	0	60	57693
2026-01-06 14:13:05.51	19.72	0.48	-48.9	-64.1	3.6	1.51e+00	0	35	104	0	60	57866
2026-01-06 14:13:06.52	19.75	0.54	-48.9	-64.0	3.6	1.51e+00	0	35	104	0	60	57491
2026-01-06 14:13:07.53	19.77	0.60	-48.8	-64.0	3.6	1.51e+00	0	35	104	0	60	57150
2026-01-06 14:13:08.54	19.79	0.66	-48.7	-63.9	3.6	1.51e+00	0	35	104	0	60	56710
2026-01-06 14:13:09.55	19.81	0.72	-48.6	-63.8	3.6	1.51e+00	0	35	104	0	60	56222
2026-01-06 14:13:10.56	19.84	0.79	-48.5	-63.7	3.6	1.51e+00	0	35	104	0	60	55041
2026-01-06 14:13:11.57	19.86	0.85	-48.3	-63.4	3.6	1.51e+00	0	35	104	0	60	53759
2026-01-06 14:13:12.59	19.88	0.91	-48.1	-63.3	3.6	1.51e+00	0	35	104	0	60	53056
2026-01-06 14:13:13.60	19.90	0.97	-47.9	-63.0	3.6	1.51e+00	0	35	104	0	60	51119
2026-01-06 14:13:14.61	19.93	1.03	-47.5	-62.6	3.6	1.51e+00	0	35	104	0	60	48994
2026-01-06 14:13:15.62	19.95	1.09	-47.4	-62.6	3.6	1.51e+00	0	35	104	0	60	48833
2026-01-06 14:13:16.62	19.97	1.15	-47.4	-62.5	3.6	1.51e+00	0	35	104	0	60	48436
2026-01-06 14:13:17.63	20.00	1.21	-47.4	-62.5	3.6	1.51e+00	0	35	104	0	60	47996
2026-01-06 14:13:18.64	20.02	1.28	-47.4	-62.5	3.6	1.51e+00	0	35	104	0	60	47996
2026-01-06 14:13:19.66	20.04	1.34	-47.4	-62.5	3.6	1.51e+00	0	35	104	0	60	48005
2026-01-06 14:13:20.66	20.07	1.40	-47.4	-62.4	3.6	1.51e+00	0	35	104	0	60	47893
2026-01-06 14:13:21.67	20.09	1.46	-47.4	-62.4	3.6	1.51e+00	0	35	104	0	60	47750
2026-01-06 14:13:22.68	20.11	1.52	-47.4	-62.5	3.6	1.51e+00	0	35	104	0	60	48322
2026-01-06 14:13:23.70	20.14	1.59	-47.4	-62.5	3.6	1.51e+00	0	35	104	0	60	48454
2026-01-06 14:13:24.70	20.16	1.65	-47.4	-62.5	3.6	1.51e+00	0	35	104	0	60	48362
2026-01-06 14:13:25.71	20.18	1.71	-47.4	-62.5	3.6	1.51e+00	0	35	104	0	60	48354
2026-01-06 14:13:26.72	20.21	1.78	-47.4	-62.5	3.6	1.51e+00	0	35	104	0	60	48204
2026-01-06 14:13:27.74	20.23	1.84	-47.4	-62.5	3.6	1.51e+00	0	35	104	0	60	48264
2026-01-06 14:13:28.75	20.26	1.90	-47.4	-62.5	3.6	1.51e+00	0	35	104	0	60	48442
2026-01-06 14:13:29.75	20.28	1.97	-47.4	-62.6	3.6	1.51e+00	0	35	104	0	60	48713
2026-01-06 14:13:30.77	20.30	2.03	-47.4	-62.5	3.6	1.51e+00	0	35	104	0	60	48398
2026-01-06 14:13:31.77	20.33	2.09	-47.4	-62.3	3.6	1.51e+00	0	35	104	0	60	47275
2026-01-06 14:13:32.78	20.35	2.16	-47.3	-61.9	3.6	1.51e+00	0	35	104	0	60	45120
2026-01-06 14:13:33.79	20.38	2.22	-47.3	-61.4	3.6	1.51e+00	0	35	104	0	60	42523
2026-01-06 14:13:34.81	20.40	2.28	-47.3	-60.9	3.6	1.51e+00	0	35	104	0	60	40037
2026-01-06 14:13:35.82	20.43	2.35	-47.3	-60.5	3.6	1.51e+00	0	35	104	0	60	38177
2026-01-06 14:13:36.83	20.45	2.41	-47.3	-60.3	3.6	1.51e+00	0	35	104	0	60	37591
2026-01-06 14:13:37.83	20.47	2.48	-47.3	-60.7	3.6	1.51e+00	0	35	104	0	60	39139
2026-01-06 14:13:38.85	20.50	2.54	-47.3	-60.3	3.6	1.50e+00	0	35	104	0	60	37508
2026-01-06 14:13:39.86	20.52	2.61	-47.2	-59.6	3.7	1.49e+00	0	35	104	0	60	34462
2026-01-06 14:13:40.86	20.55	2.67	-47.0	-56.6	4.7	9.33e-01	0	35	0	0	60	24393
2026-01-06 14:13:41.87	20.57	2.74	-46.7	-53.8	6.7	3.23e-01	92	35	0	2097152	60	17717
2026-01-06 14:13:42.88	20.60	2.80	-46.1	-51.6	9.4	7.27e-02	0	35	0	3145728	60	13710
2026-01-06 14:13:43.89	20.62	2.87	-45.5	-50.0	11.3	6.40e-03	0	35	0	5242880	60	11454
2026-01-06 14:13:44.90	20.65	2.93	-44.5	-47.8	13.7	3.28e-05	0	35	0	7340032	60	8877
2026-01-06 14:13:45.91	20.68	3.00	-43.7	-46.4	15.1	1.50e-06	0	35	0	9437184	60	7590
2026-01-06 14:13:46.92	20.70	3.06	-43.3	-45.8	15.7	0.00e+00	50	35	0	11534336	60	7042
2026-01-06 14:13:47.93	20.73	3.13	-43.1	-45.5	16.2	0.00e+00	0	35	0	13631488	60	6839
2026-01-06 14:13:48.94	20.75	3.19	-42.9	-45.3	16.3	0.00e+00	89	35	0	14680064	60	6639
2026-01-06 14:13:49.95	20.78	3.26	-42.8	-45.2	16.2	0.00e+00	0	35	0	16777216	58	7340
2026-01-06 14:13:50.96	20.80	3.33	-42.8	-45.1	16.2	0.00e+00	0	35	0	18874368	58	7278
2026-01-06 14:13:51.96	20.83	3.39	-43.2	-45.8	15.6	0.00e+00	0	35	0	20971520	58	7863
2026-01-06 14:13:52.97	20.86	3.46	-44.1	-47.1	14.3	0.00e+00	0	35	0	23068672	60	8172
2026-01-06 14:13:53.98	20.88	3.53	-44.8	-48.6	12.8	1.22e-05	52	35	0	24117248	60	9698
2026-01-06 14:13:54.99	20.91	3.59	-45.6	-50.3	10.9	3.61e-04	0	35	0	26214400	60	11775
2026-01-06 14:13:56.00	20.93	3.66	-46.3	-52.7	8.2	1.30e-02	92	35	0	28311552	60	15539
2026-01-06 14:13:57.01	20.96	3.73	-41.7	-43.4	18.0	7.94e-03	0	35	0	30408704	56	6764
2026-01-06 14:13:58.02	20.99	3.80	-46.8	-55.6	5.0	7.11e-03	11	35	0	32505856	60	21693
2026-01-06 14:13:59.03	21.01	3.86	-47.5	-62.5	3.6	2.53e-01	0	35	104	33554432	60	48283
2026-01-06 14:14:00.04	21.04	3.93	-44.8	-48.5	13.2	1.50e+00	0	35	104	33554432	60	9586
2026-01-06 14:14:01.05	21.07	4.00	-47.3	-61.5	3.6	1.25e+00	0	35	104	33554432	60	43021
2026-01-06 14:14:02.06	21.10	4.07	-45.3	-49.5	12.2	1.17e+00	0	35	104	33554432	60	10757
2026-01-06 14:14:03.07	21.12	4.14	-45.1	-49.0	12.7	3.97e-04	90	35	0	34603008	60	10150
2026-01-06 14:14:04.08	21.15	4.20	-44.8	-48.3	13.5	8.54e-05	0	35	0	36700160	60	9355
2026-01-06 14:14:05.09	21.18	4.27	-44.7	-48.1	13.3	9.10e-06	43	35	0	37748736	60	9228
2026-01-06 14:14:06.09	21.20	4.34	-44.8	-48.2	13.8	2.74e-05	0	35	0	39845888	60	9274
2026-01-06 14:14:07.10	21.23	4.41	-44.6	-47.8	14.0	7.00e-07	0	35	0	41943040	60	8847
2026-01-06 14:14:08.11	21.26	4.48	-44.6	-47.9	14.3	1.50e-06	0	35	0	44040192	60	8933
2026-01-06 14:14:09.12	21.29	4.55	-44.2	-47.2	14.6	4.50e-06	0	35	0	46137344	60	8235
2026-01-06 14:14:10.13	21.31	4.62	-43.3	-45.7	16.1	0.00e+00	20	35	0	47185920	60	6972
2026-01-06 14:14:11.14	21.34	4.69	-42.8	-44.9	16.8	0.00e+00	0	35	0	49283072	60	6353
2026-01-06 14:14:12.15	21.37	4.76	-42.4	-44.4	17.4	0.00e+00	92	35	0	51380224	58	6755
2026-01-06 14:14:13.16	21.40	4.83	-41.5	-43.2	18.6	0.00e+00	0	35	0	53477376	56	6544
2026-01-06 14:14:14.17	21.43	4.90	-41.5	-43.1	18.5	0.00e+00	0	35	0	55574528	56	6539
2026-01-06 14:14:15.18	21.46	4.97	-41.1	-42.7	19.0	0.00e+00	0	35	0	56623104	56	6178
2026-01-06 14:14:16.18	21.48	5.04	-40.7	-42.2	19.4	0.00e+00	0	35	0	58720256	54	6566
2026-01-06 14:14:17.19	21.51	5.11	-40.4	-41.8	19.7	0.00e+00	70	35	0	60817408	54	6309
2026-01-06 14:14:18.20	21.54	5.18	-40.4	-41.8	19.7	0.00e+00	0	35	0	62914560	54	6316
2026-01-06 14:14:19.21	21.57	5.25	-40.5	-41.9	19.7	0.00e+00	59	35	0	65011712	54	6347
2026-01-06 14:14:20.22	21.60	5.32	-40.4	-41.8	19.9	0.00e+00	0	35	0	66060288	54	6276
2026-01-06 14:14:21.23	21.63	5.39	-40.2	-41.6	19.9	0.00e+00	0	35	0	68157440	54	6143
2026-01-06 14:14:22.24	21.66	5.47	-40.3	-41.7	19.9	0.00e+00	0	35	0	70254592	54	6213
2026-01-06 14:14:23.25	21.69	5.54	-40.2	-41.5	20.1	0.00e+00	0	35	0	72351744	54	6097
2026-01-06 14:14:24.26	21.72	5.61	-40.3	-41.7	20.0	0.00e+00	26	35	0	74448896	54	6204
2026-01-06 14:14:25.27	21.75	5.68	-40.3	-41.7	19.8	0.00e+00	0	35	0	75497472	54	6201
2026-01-06 14:14:26.28	21.78	5.75	-40.4	-41.7	20.0	0.00e+00	92	35	0	77594624	54	6243
2026-01-06 14:14:27.29	21.80	5.83	-40.3	-41.6	19.9	0.00e+00	0	35	0	79691776	54	6168
2026-01-06 14:14:28.30	21.83	5.90	-40.3	-41.6	20.1	0.00e+00	16	35	0	81788928	54	6137
2026-01-06 14:14:29.30	21.86	5.97	-40.3	-41.7	20.0	0.00e+00	0	35	0	83886080	54	6206
2026-01-06 14:14:30.31	21.89	6.04	-39.9	-41.2	20.4	0.00e+00	0	35	0	84934656	54	5893
2026-01-06 14:14:31.32	21.93	6.12	-40.2	-41.5	20.1	0.00e+00	13	35	0	87031808	54	6069
2026-01-06 14:14:32.33	21.96	6.19	-40.0	-41.3	20.3	0.00e+00	0	35	0	89128960	54	5957
2026-01-06 14:14:33.34	21.99	6.27	-40.1	-41.4	20.2	0.00e+00	50	35	0	91226112	54	6028
2026-01-06 14:14:34.35	22.02	6.34	-40.0	-41.3	20.3	0.00e+00	0	35	0	93323264	54	5925
2026-01-06 14:14:35.36	22.05	6.41	-40.2	-41.5	20.2	0.00e+00	67	35	0	94371840	54	6093
2026-01-06 14:14:36.37	22.08	6.49	-39.7	-40.9	20.7	0.00e+00	0	35	0	96468992	52	6384
2026-01-06 14:14:37.38	22.11	6.56	-39.8	-41.0	20.5	0.00e+00	0	35	0	98566144	52	6446
2026-01-06 14:14:38.39	22.14	6.64	-39.7	-40.9	20.7	0.00e+00	0	35	0	100663296	52	6364
2026-01-06 14:14:39.40	22.17	6.71	-39.8	-41.0	20.7	0.00e+00	0	35	0	102760448	52	6428
2026-01-06 14:14:40.41	22.20	6.79	-39.5	-40.7	20.9	0.00e+00	44	35	0	103809024	52	6238
2026-01-06 14:14:41.42	22.24	6.86	-39.4	-40.6	21.1	0.00e+00	0	35	0	105906176	52	6107
2026-01-06 14:14:42.43	22.27	6.94	-39.4	-40.6	21.1	0.00e+00	91	35	0	108003328	52	6104
2026-01-06 14:14:43.44	22.30	7.02	-39.4	-40.6	20.9	0.00e+00	0	35	0	110100480	52	6150
2026-01-06 14:14:44.44	22.33	7.09	-39.2	-40.4	21.2	0.00e+00	0	35	0	112197632	52	5995
2026-01-06 14:14:45.45	22.36	7.17	-39.3	-40.5	21.2	0.00e+00	0	35	0	113246208	52	6076
2026-01-06 14:14:46.46	22.40	7.25	-39.2	-40.4	21.2	0.00e+00	0	35	0	115343360	52	5994
2026-01-06 14:14:47.47	22.43	7.32	-39.1	-40.3	21.3	0.00e+00	44	35	0	117440512	52	5916
2026-01-06 14:14:48.48	22.46	7.40	-39.3	-40.4	21.3	0.00e+00	0	35	0	119537664	52	6016
2026-01-06 14:14:49.49	22.49	7.48	-39.0	-40.2	21.5	0.00e+00	92	35	0	121634816	52	5840
2026-01-06 14:14:50.50	22.53	7.55	-39.0	-40.1	21.5	0.00e+00	0	35	0	122683392	52	5795
2026-01-06 14:14:51.51	22.56	7.63	-39.0	-40.1	21.5	0.00e+00	0	35	0	124780544	52	5821
2026-01-06 14:14:52.52	22.59	7.71	-39.0	-40.2	21.5	0.00e+00	0	35	0	126877696	52	5836
2026-01-06 14:14:53.53	22.63	7.79	-39.2	-40.3	21.4	0.00e+00	0	35	0	128974848	52	5933
2026-01-06 14:14:54.54	22.66	7.87	-39.0	-40.1	21.6	0.00e+00	46	35	0	131072000	52	5786
2026-01-06 14:14:55.54	22.69	7.94	-38.9	-40.0	21.6	0.00e+00	0	35	0	133169152	52	5728
2026-01-06 14:14:56.56	22.73	8.02	-38.9	-40.1	21.6	0.00e+00	92	35	0	134217728	52	5767
2026-01-06 14:14:57.56	22.76	8.10	-38.9	-40.0	21.6	0.00e+00	0	35	0	136314880	52	5723
2026-01-06 14:14:58.57	22.80	8.18	-39.0	-40.2	21.6	0.00e+00	0	35	0	138412032	52	5832
2026-01-06 14:14:59.58	22.83	8.26	-38.7	-39.8	21.8	0.00e+00	0	35	0	140509184	52	5603
2026-01-06 14:15:00.59	22.87	8.34	-38.7	-39.8	21.7	0.00e+00	0	35	0	142606336	50	6260
2026-01-06 14:15:01.60	22.90	8.42	-38.9	-40.0	21.6	0.00e+00	47	35	0	143654912	50	6448
2026-01-06 14:15:02.61	22.93	8.50	-38.9	-40.0	21.7	0.00e+00	0	35	0	145752064	50	6405
2026-01-06 14:15:03.62	22.97	8.58	-38.6	-39.7	21.9	0.00e+00	75	35	0	147849216	50	6216
2026-01-06 14:15:04.63	23.01	8.66	-38.7	-39.8	21.8	0.00e+00	0	35	0	149946368	50	6292
2026-01-06 14:15:05.64	23.04	8.75	-38.9	-40.0	21.7	0.00e+00	0	36	0	152043520	50	6430
2026-01-06 14:15:06.65	23.08	8.83	-38.7	-39.8	21.9	0.00e+00	0	35	0	153092096	50	6270
2026-01-06 14:15:07.66	23.11	8.91	-38.5	-39.6	22.0	0.00e+00	0	35	0	155189248	50	6134
2026-01-06 14:15:08.67	23.15	8.99	-38.6	-39.6	22.0	0.00e+00	0	35	0	157286400	50	6170
2026-01-06 14:15:09.68	23.18	9.07	-38.6	-39.7	22.0	0.00e+00	0	35	0	159383552	50	6193
2026-01-06 14:15:10.69	23.22	9.16	-38.5	-39.6	22.0	0.00e+00	60	36	0	161480704	50	6135
2026-01-06 14:15:11.69	23.26	9.24	-38.5	-39.5	22.1	0.00e+00	0	35	0	162529280	50	6090
2026-01-06 14:15:12.70	23.29	9.32	-38.5	-39.6	22.1	0.00e+00	92	35	0	164626432	50	6124
2026-01-06 14:15:13.71	23.33	9.40	-38.5	-39.5	22.1	0.00e+00	0	35	0	166723584	50	6082
2026-01-06 14:15:14.72	23.37	9.49	-38.4	-39.5	22.1	0.00e+00	0	35	0	168820736	50	6046
2026-01-06 14:15:15.73	23.40	9.57	-38.4	-39.4	22.2	0.00e+00	0	35	0	170917888	50	6028
2026-01-06 14:15:16.74	23.44	9.66	-38.5	-39.5	22.2	0.00e+00	0	36	0	171966464	50	6086
2026-01-06 14:15:17.75	23.48	9.74	-38.3	-39.3	22.3	0.00e+00	50	35	0	174063616	50	5949
2026-01-06 14:15:18.76	23.52	9.82	-38.4	-39.4	22.1	0.00e+00	0	35	0	176160768	50	6023
2026-01-06 14:15:19.77	23.55	9.91	-38.3	-39.3	22.2	0.00e+00	90	36	0	178257920	50	5938
2026-01-06 14:15:20.78	23.59	10.00	-38.4	-39.4	22.3	0.00e+00	0	36	0	180355072	50	5999
2026-01-06 14:15:21.79	23.63	10.08	-38.3	-39.3	22.3	0.00e+00	0	36	0	181403648	50	5911
2026-01-06 14:15:22.80	23.67	10.17	-38.1	-39.1	22.4	0.00e+00	0	35	0	183500800	50	5789
2026-01-06 14:15:23.81	23.71	10.25	-38.4	-39.4	22.1	0.00e+00	0	35	0	185597952	50	6012
2026-01-06 14:15:24.82	23.75	10.34	-38.1	-39.1	22.4	0.00e+00	67	35	0	187695104	50	5825
2026-01-06 14:15:25.83	23.79	10.43	-38.1	-39.2	22.4	0.00e+00	0	35	0	189792256	50	5831
2026-01-06 14:15:26.84	23.83	10.51	-38.1	-39.1	22.5	0.00e+00	53	35	0	190840832	50	5804
2026-01-06 14:15:27.85	23.87	10.60	-38.1	-39.1	22.4	0.00e+00	0	35	0	192937984	50	5768
2026-01-06 14:15:28.85	23.90	10.69	-38.0	-38.9	22.4	0.00e+00	0	35	0	195035136	50	5695
2026-01-06 14:15:29.86	23.94	10.78	-38.2	-39.2	22.2	0.00e+00	0	35	0	197132288	50	5852
2026-01-06 14:15:30.87	23.99	10.86	-37.8	-38.8	22.4	0.00e+00	0	35	0	199229440	50	5586
2026-01-06 14:15:31.88	24.03	10.95	-38.1	-39.0	22.6	0.00e+00	54	35	0	201326592	50	5761
2026-01-06 14:15:32.89	24.07	11.04	-37.9	-38.9	22.3	0.00e+00	0	35	0	202375168	50	5646
2026-01-06 14:15:33.90	24.11	11.13	-38.0	-38.9	22.7	0.00e+00	66	36	0	204472320	50	5679
2026-01-06 14:15:34.91	24.15	11.22	-38.0	-38.9	22.3	0.00e+00	0	36	0	206569472	50	5693
2026-01-06 14:15:35.92	24.19	11.31	-37.8	-38.7	22.6	0.00e+00	0	35	0	208666624	48	6222
2026-01-06 14:15:36.93	24.23	11.40	-37.9	-38.9	22.4	0.00e+00	0	36	0	210763776	48	6335
2026-01-06 14:15:37.94	24.27	11.49	-37.9	-38.8	22.6	0.00e+00	0	35	0	211812352	48	6313
2026-01-06 14:15:38.95	24.31	11.58	-37.8	-38.7	22.8	0.00e+00	11	36	0	213909504	48	6233
2026-01-06 14:15:39.96	24.36	11.67	-37.8	-38.8	22.8	0.00e+00	0	35	0	216006656	48	6259
2026-01-06 14:15:40.97	24.40	11.76	-37.7	-38.7	22.8	0.00e+00	92	35	0	218103808	48	6195
2026-01-06 14:15:41.98	24.44	11.85	-37.9	-38.9	22.7	0.00e+00	0	35	0	220200960	48	6324
2026-01-06 14:15:42.99	24.48	11.95	-37.9	-38.9	22.7	0.00e+00	42	36	0	221249536	48	6341
2026-01-06 14:15:43.99	24.53	12.04	-37.7	-38.6	22.9	0.00e+00	0	36	0	223346688	48	6170
2026-01-06 14:15:45.00	24.57	12.13	-37.9	-38.8	22.8	0.00e+00	0	36	0	225443840	48	6305
2026-01-06 14:15:46.01	24.61	12.22	-37.8	-38.7	22.8	0.00e+00	0	36	0	227540992	48	6206
2026-01-06 14:15:47.02	24.66	12.32	-37.7	-38.7	22.9	0.00e+00	0	36	0	229638144	48	6192
2026-01-06 14:15:48.03	24.70	12.41	-37.8	-38.7	22.9	0.00e+00	53	36	0	230686720	48	6237
2026-01-06 14:15:49.04	24.75	12.51	-37.9	-38.8	22.8	0.00e+00	0	36	0	232783872	48	6295
2026-01-06 14:15:50.05	24.79	12.60	-37.8	-38.7	22.8	0.00e+00	52	36	0	234881024	48	6239
2026-01-06 14:15:51.06	24.84	12.70	-37.8	-38.7	22.9	0.00e+00	0	36	0	236978176	48	6235
2026-01-06 14:15:52.07	24.88	12.79	-37.9	-38.8	22.8	0.00e+00	0	36	0	239075328	48	6294
2026-01-06 14:15:53.08	24.93	12.89	-37.7	-38.7	23.0	0.00e+00	17	36	0	240123904	48	6191
2026-01-06 14:15:54.09	24.97	12.98	-37.7	-38.7	22.9	0.00e+00	0	36	0	242221056	48	6200
2026-01-06 14:15:55.10	25.02	13.08	-37.6	-38.6	23.0	0.00e+00	18	36	0	244318208	48	6110
2026-01-06 14:15:56.11	25.07	13.17	-37.6	-38.5	23.0	0.00e+00	0	35	0	246415360	48	6073
2026-01-06 14:15:57.12	25.11	13.27	-37.6	-38.5	23.1	0.00e+00	92	35	0	248512512	48	6097
2026-01-06 14:15:58.12	25.16	13.37	-37.6	-38.6	23.1	0.00e+00	0	36	0	249561088	48	6111
2026-01-06 14:15:59.13	25.21	13.47	-37.4	-38.4	23.2	0.00e+00	0	35	0	251658240	48	5970
2026-01-06 14:16:00.14	25.25	13.56	-37.7	-38.7	22.9	0.00e+00	0	36	0	253755392	48	6199
2026-01-06 14:16:01.15	25.30	13.66	-37.7	-38.6	23.0	0.00e+00	0	36	0	255852544	48	6162
2026-01-06 14:16:02.16	25.35	13.76	-37.5	-38.4	23.2	0.00e+00	68	35	0	257949696	48	5996
2026-01-06 14:16:03.17	25.40	13.86	-37.5	-38.5	23.1	0.00e+00	0	35	0	258998272	48	6048
2026-01-06 14:16:04.18	25.44	13.96	-37.5	-38.4	23.1	0.00e+00	74	36	0	261095424	48	6033
2026-01-06 14:16:05.19	25.49	14.06	-37.6	-38.6	23.0	0.00e+00	0	36	0	263192576	48	6115
2026-01-06 14:16:06.20	25.54	14.16	-37.5	-38.5	23.2	0.00e+00	33	36	0	265289728	48	6043
2026-01-06 14:16:07.21	25.59	14.26	-37.7	-38.6	23.0	0.00e+00	0	36	0	267386880	48	6135
2026-01-06 14:16:08.22	25.64	14.36	-37.7	-38.7	22.9	0.00e+00	0	36	0	269484032	48	6179
2026-01-06 14:16:09.23	25.69	14.47	-37.8	-38.7	23.0	0.00e+00	31	36	0	270532608	48	6223
2026-01-06 14:16:10.23	25.74	14.57	-37.7	-38.7	23.0	0.00e+00	0	36	0	272629760	48	6196
2026-01-06 14:16:11.24	25.79	14.67	-37.9	-38.8	22.9	0.00e+00	85	36	0	274726912	48	6285
2026-01-06 14:16:12.25	25.84	14.77	-37.9	-38.9	22.8	0.00e+00	0	36	0	276824064	48	6340
2026-01-06 14:16:13.26	25.89	14.88	-38.0	-38.9	22.9	0.00e+00	90	36	0	277872640	48	6378
2026-01-06 14:16:14.27	25.95	14.98	-37.9	-38.9	22.8	0.00e+00	0	36	0	279969792	48	6320
2026-01-06 14:16:15.28	26.00	15.08	-37.9	-38.9	22.8	0.00e+00	0	36	0	282066944	48	6358
2026-01-06 14:16:16.29	26.05	15.19	-38.0	-38.9	22.7	0.00e+00	0	36	0	284164096	48	6383
2026-01-06 14:16:17.30	26.10	15.29	-38.0	-39.0	22.8	0.00e+00	0	36	0	286261248	48	6406
2026-01-06 14:16:18.31	26.16	15.40	-37.9	-38.9	22.8	0.00e+00	58	36	0	287309824	48	6363
2026-01-06 14:16:19.32	26.21	15.51	-37.9	-38.9	23.0	0.00e+00	0	36	0	289406976	48	6353
2026-01-06 14:16:20.33	26.26	15.61	-38.1	-39.1	22.7	0.00e+00	92	36	0	291504128	48	6520
2026-01-06 14:16:21.34	26.32	15.72	-37.9	-38.9	22.9	0.00e+00	0	36	0	293601280	48	6336
2026-01-06 14:16:22.35	26.37	15.83	-38.0	-38.9	22.9	0.00e+00	0	36	0	295698432	48	6390
2026-01-06 14:16:23.36	26.43	15.93	-37.9	-38.9	22.9	0.00e+00	0	36	0	297795584	48	6343
2026-01-06 14:16:24.37	26.48	16.04	-38.0	-38.9	22.8	0.00e+00	0	36	0	298844160	48	6390
2026-01-06 14:16:25.38	26.54	16.15	-38.0	-39.0	22.8	0.00e+00	54	36	0	300941312	48	6408
2026-01-06 14:16:26.39	26.59	16.26	-37.9	-38.8	23.0	0.00e+00	0	36	0	303038464	48	6291
2026-01-06 14:16:27.40	26.65	16.37	-37.9	-38.9	22.9	0.00e+00	70	36	0	305135616	48	6350
2026-01-06 14:16:28.41	26.71	16.48	-37.9	-38.8	22.9	0.00e+00	0	36	0	307232768	48	6308
2026-01-06 14:16:29.42	26.76	16.59	-37.8	-38.7	23.0	0.00e+00	0	36	0	308281344	48	6236
2026-01-06 14:16:30.43	26.82	16.70	-38.0	-38.9	22.9	0.00e+00	0	36	0	310378496	48	6390
2026-01-06 14:16:31.44	26.88	16.81	-37.9	-38.8	22.9	0.00e+00	0	36	0	312475648	48	6309
2026-01-06 14:16:32.45	26.94	16.93	-37.8	-38.8	23.1	0.00e+00	55	36	0	314572800	48	6275
2026-01-06 14:16:33.46	26.99	17.04	-37.9	-38.9	22.8	0.00e+00	0	36	0	316669952	48	6357
2026-01-06 14:16:34.46	27.05	17.15	-38.1	-39.1	22.7	0.00e+00	92	36	0	317718528	48	6525
2026-01-06 14:16:35.48	27.11	17.26	-38.3	-39.3	22.6	0.00e+00	0	36	0	319815680	48	6667
2026-01-06 14:16:36.48	27.17	17.38	-38.1	-39.0	22.7	0.00e+00	0	36	0	321912832	48	6464
2026-01-06 14:16:37.50	27.23	17.49	-38.4	-39.4	22.6	0.00e+00	0	36	0	324009984	48	6734
2026-01-06 14:16:38.50	27.29	17.61	-38.1	-39.1	22.7	0.00e+00	0	36	0	326107136	48	6518
2026-01-06 14:16:39.51	27.35	17.72	-38.1	-39.1	22.7	0.00e+00	9	36	0	327155712	48	6528
2026-01-06 14:16:40.52	27.42	17.84	-38.2	-39.1	22.7	0.00e+00	0	36	0	329252864	48	6536
2026-01-06 14:16:41.53	27.48	17.96	-38.2	-39.2	22.7	0.00e+00	92	36	0	331350016	48	6563
2026-01-06 14:16:42.54	27.54	18.07	-37.9	-38.9	23.0	0.00e+00	0	36	0	333447168	48	6330
2026-01-06 14:16:43.55	27.60	18.19	-37.9	-38.8	22.9	0.00e+00	0	36	0	335544320	48	6313
2026-01-06 14:16:44.56	27.67	18.31	-37.9	-38.8	22.9	0.00e+00	0	36	0	336592896	48	6295
2026-01-06 14:16:45.57	27.73	18.43	-38.2	-39.2	22.9	0.00e+00	0	36	0	338690048	48	6580
2026-01-06 14:16:46.58	27.79	18.55	-38.0	-38.9	22.9	0.00e+00	51	36	0	340787200	48	6390
2026-01-06 14:16:47.59	27.86	18.67	-38.0	-39.0	22.8	0.00e+00	0	36	0	342884352	48	6421
2026-01-06 14:16:48.60	27.92	18.79	-37.7	-38.6	23.1	0.00e+00	81	36	0	344981504	48	6118
2026-01-06 14:16:49.61	27.99	18.91	-37.7	-38.7	23.2	0.00e+00	0	36	0	346030080	48	6196
2026-01-06 14:16:50.62	28.06	19.03	-37.7	-38.7	23.2	0.00e+00	0	36	0	348127232	48	6195
2026-01-06 14:16:51.63	28.12	19.15	-37.7	-38.6	23.1	0.00e+00	0	36	0	350224384	48	6132
2026-01-06 14:16:52.64	28.19	19.27	-37.6	-38.6	23.2	0.00e+00	0	36	0	352321536	48	6118
2026-01-06 14:16:53.65	28.26	19.40	-37.7	-38.6	23.1	0.00e+00	41	36	0	354418688	48	6171
2026-01-06 14:16:54.66	28.32	19.52	-37.7	-38.6	23.2	0.00e+00	0	36	0	355467264	48	6133
2026-01-06 14:16:55.67	28.39	19.65	-37.4	-38.4	23.4	0.00e+00	92	36	0	357564416	48	5969
2026-01-06 14:16:56.67	28.46	19.77	-37.3	-38.2	23.5	0.00e+00	0	36	0	359661568	48	5864
2026-01-06 14:16:57.68	28.53	19.90	-37.3	-38.2	23.5	0.00e+00	92	36	0	361758720	48	5840
2026-01-06 14:16:58.69	28.60	20.02	-37.0	-37.9	23.8	0.00e+00	0	36	0	363855872	48	5674
2026-01-06 14:16:59.70	28.67	20.15	-37.0	-37.9	23.7	0.00e+00	0	36	0	365953024	48	5631
2026-01-06 14:17:00.71	28.74	20.28	-36.9	-37.7	23.9	0.00e+00	0	36	0	367001600	48	5530
2026-01-06 14:17:01.72	28.82	20.40	-36.7	-37.5	24.0	0.00e+00	0	36	0	369098752	46	6084
2026-01-06 14:17:02.73	28.89	20.53	-36.5	-37.3	24.2	0.00e+00	56	36	0	371195904	46	5942
2026-01-06 14:17:03.74	28.96	20.66	-36.3	-37.1	24.3	0.00e+00	0	36	0	373293056	46	5807
2026-01-06 14:17:04.75	29.03	20.79	-36.0	-36.8	24.5	0.00e+00	55	36	0	375390208	46	5614
2026-01-06 14:17:05.76	29.11	20.92	-36.0	-36.8	24.5	0.00e+00	0	36	0	376438784	46	5601
2026-01-06 14:17:06.77	29.18	21.05	-35.8	-36.6	24.6	0.00e+00	0	36	0	378535936	46	5488
2026-01-06 14:17:07.78	29.26	21.19	-35.9	-36.6	24.6	0.00e+00	0	36	0	380633088	46	5487
2026-01-06 14:17:08.79	29.34	21.32	-35.8	-36.6	24.6	0.00e+00	0	36	0	382730240	46	5469
2026-01-06 14:17:09.80	29.41	21.45	-35.5	-36.3	24.8	0.00e+00	56	36	0	384827392	44	5941
2026-01-06 14:17:10.81	29.49	21.58	-35.8	-36.6	24.6	0.00e+00	0	36	0	385875968	44	6125
2026-01-06 14:17:11.82	29.57	21.72	-35.6	-36.4	24.8	0.00e+00	57	36	0	387973120	44	6005
2026-01-06 14:17:12.83	29.65	21.85	-35.6	-36.3	24.8	0.00e+00	0	36	0	390070272	44	5944
2026-01-06 14:17:13.84	29.72	21.99	-35.5	-36.3	24.9	0.00e+00	0	36	0	392167424	44	5905
2026-01-06 14:17:14.85	29.80	22.13	-35.4	-36.2	24.9	0.00e+00	0	36	0	394264576	44	5857
2026-01-06 14:17:15.86	29.88	22.26	-35.4	-36.2	24.9	0.00e+00	0	36	0	395313152	44	5869
2026-01-06 14:17:16.86	29.97	22.40	-35.6	-36.4	24.8	0.00e+00	27	36	0	397410304	44	6006
2026-01-06 14:17:17.87	30.05	22.54	-35.5	-36.3	24.7	0.00e+00	0	36	0	399507456	44	5929
2026-01-06 14:17:18.88	30.13	22.68	-35.6	-36.3	24.7	0.00e+00	84	36	0	401604608	44	5955
2026-01-06 14:17:19.89	30.21	22.82	-35.8	-36.6	24.7	0.00e+00	0	36	0	403701760	44	6144
2026-01-06 14:17:20.90	30.30	22.96	-35.8	-36.6	24.7	0.00e+00	0	36	0	404750336	44	6136
2026-01-06 14:17:21.91	30.38	23.10	-35.6	-36.3	24.8	0.00e+00	0	36	0	406847488	44	5949
2026-01-06 14:17:22.92	30.47	23.24	-35.8	-36.6	24.5	0.00e+00	0	36	0	408944640	44	6148
2026-01-06 14:17:23.93	30.55	23.38	-35.8	-36.6	24.5	0.00e+00	57	36	0	411041792	44	6107
2026-01-06 14:17:24.94	30.64	23.53	-35.8	-36.6	24.5	0.00e+00	0	36	0	413138944	44	6169
2026-01-06 14:17:25.95	30.73	23.67	-35.9	-36.7	24.6	0.00e+00	92	36	0	414187520	44	6225
2026-01-06 14:17:26.96	30.82	23.82	-35.9	-36.7	24.6	0.00e+00	0	36	0	416284672	44	6183
2026-01-06 14:17:27.96	30.90	23.96	-35.8	-36.5	24.6	0.00e+00	23	36	0	418381824	44	6102
2026-01-06 14:17:28.98	31.00	24.11	-35.7	-36.5	24.8	0.00e+00	0	36	0	420478976	44	6041
2026-01-06 14:17:29.99	31.09	24.26	-35.6	-36.3	24.8	0.00e+00	0	36	0	422576128	44	5964
2026-01-06 14:17:31.00	31.18	24.41	-35.6	-36.4	24.8	0.00e+00	0	36	0	423624704	44	6013
2026-01-06 14:17:32.01	31.27	24.55	-35.5	-36.3	24.9	0.00e+00	0	36	0	425721856	44	5922
2026-01-06 14:17:33.02	31.36	24.70	-35.7	-36.5	24.8	0.00e+00	92	36	0	427819008	44	6045
2026-01-06 14:17:34.02	31.46	24.85	-35.7	-36.5	24.7	0.00e+00	0	36	0	429916160	44	6046
2026-01-06 14:17:35.03	31.55	25.00	-35.8	-36.5	24.6	0.00e+00	86	36	0	432013312	44	6100
2026-01-06 14:17:36.05	31.65	25.16	-35.7	-36.5	24.7	0.00e+00	0	36	0	434110464	44	6048
2026-01-06 14:17:37.05	31.74	25.31	-35.7	-36.5	24.8	0.00e+00	0	36	0	435159040	44	6061
2026-01-06 14:17:38.06	31.84	25.46	-35.8	-36.6	24.7	0.00e+00	0	36	0	437256192	44	6136
2026-01-06 14:17:39.07	31.94	25.62	-35.6	-36.3	24.9	0.00e+00	0	36	0	439353344	44	5960
2026-01-06 14:17:40.08	32.04	25.77	-35.7	-36.5	24.7	0.00e+00	28	36	0	441450496	44	6080
2026-01-06 14:17:41.09	32.14	25.93	-35.5	-36.3	24.9	0.00e+00	0	36	0	443547648	44	5902
2026-01-06 14:17:42.10	32.24	26.09	-35.3	-36.0	24.9	0.00e+00	45	36	0	444596224	44	5736
2026-01-06 14:17:43.11	32.34	26.24	-35.4	-36.2	25.1	0.00e+00	0	36	0	446693376	44	5836
2026-01-06 14:17:44.11	32.45	26.40	-35.3	-36.0	25.0	0.00e+00	0	36	0	448790528	44	5740
2026-01-06 14:17:45.13	32.55	26.56	-35.5	-36.3	24.9	0.00e+00	0	36	0	450887680	44	5904
2026-01-06 14:17:46.14	32.66	26.72	-35.3	-36.1	24.9	0.00e+00	6	36	0	452984832	44	5784
2026-01-06 14:17:47.14	32.76	26.88	-35.6	-36.4	24.7	0.00e+00	48	36	0	454033408	44	5994
2026-01-06 14:17:48.15	32.87	27.04	-35.6	-36.3	24.8	0.00e+00	0	36	0	456130560	44	5952
2026-01-06 14:17:49.16	32.98	27.21	-35.6	-36.4	24.8	0.00e+00	92	36	0	458227712	44	5997
2026-01-06 14:17:50.17	33.09	27.37	-35.6	-36.4	24.8	0.00e+00	33	36	0	460324864	44	5980
2026-01-06 14:17:51.18	33.20	27.53	-35.5	-36.3	24.7	0.00e+00	0	36	0	462422016	44	5940
2026-01-06 14:17:52.19	33.31	27.70	-36.1	-36.9	24.0	0.00e+00	0	36	0	463470592	44	6332
2026-01-06 14:17:53.20	33.42	27.87	-35.5	-36.2	24.8	0.00e+00	0	36	0	465567744	44	5878
2026-01-06 14:17:54.21	33.54	28.03	-35.6	-36.4	24.8	0.00e+00	16	36	0	467664896	44	5987
2026-01-06 14:17:55.21	33.65	28.20	-36.1	-36.9	24.5	0.00e+00	0	36	0	469762048	44	6333
2026-01-06 14:17:56.22	33.77	28.37	-36.0	-36.8	24.5	0.00e+00	92	36	0	471859200	44	6257
2026-01-06 14:17:57.23	33.88	28.54	-36.3	-37.1	24.4	0.00e+00	33	36	0	472907776	44	6500
2026-01-06 14:17:58.24	34.00	28.71	-36.5	-37.3	24.1	0.00e+00	0	36	0	475004928	44	6668
2026-01-06 14:17:59.25	34.12	28.88	-37.0	-37.8	23.8	0.00e+00	0	36	0	477102080	46	6307
2026-01-06 14:18:00.26	34.24	29.06	-36.8	-37.6	23.9	0.00e+00	33	36	0	479199232	46	6159
2026-01-06 14:18:01.27	34.37	29.23	-37.2	-38.1	23.6	0.00e+00	57	36	0	481296384	46	6508
2026-01-06 14:18:02.28	34.49	29.40	-37.3	-38.2	23.6	0.00e+00	0	36	0	482344960	46	6563
2026-01-06 14:18:03.29	34.61	29.58	-37.4	-38.3	23.4	0.00e+00	92	36	0	484442112	46	6646
2026-01-06 14:18:04.30	34.74	29.76	-37.6	-38.5	23.3	0.00e+00	0	36	0	486539264	46	6847
2026-01-06 14:18:05.31	34.87	29.93	-37.8	-38.8	23.2	0.00e+00	92	36	0	488636416	48	6257
2026-01-06 14:18:06.32	35.00	30.11	-38.3	-39.3	22.7	0.00e+00	0	36	0	490733568	48	6672
2026-01-06 14:18:07.33	35.13	30.29	-38.5	-39.5	22.5	0.00e+00	0	36	0	491782144	48	6830
2026-01-06 14:18:08.33	35.26	30.47	-38.5	-39.4	22.5	0.00e+00	0	36	0	493879296	48	6764
2026-01-06 14:18:09.34	35.39	30.65	-39.1	-40.1	22.0	0.00e+00	0	36	0	495976448	50	6517
2026-01-06 14:18:10.35	35.53	30.83	-39.2	-40.2	21.9	0.00e+00	54	36	0	498073600	50	6597
2026-01-06 14:18:11.36	35.66	31.02	-39.5	-40.6	21.8	0.00e+00	0	36	0	500170752	50	6903
2026-01-06 14:18:12.36	35.80	31.20	-39.4	-40.5	21.8	0.00e+00	92	36	0	501219328	50	6786
2026-01-06 14:18:13.37	35.94	31.39	-39.9	-41.0	21.2	0.00e+00	0	36	0	503316480	52	6446
2026-01-06 14:18:14.38	36.08	31.57	-39.9	-41.0	21.2	0.00e+00	0	36	0	505413632	52	6443
2026-01-06 14:18:15.39	36.22	31.76	-39.9	-41.1	21.2	0.00e+00	0	36	0	507510784	52	6526
2026-01-06 14:18:16.40	36.37	31.95	-40.2	-41.5	21.0	0.00e+00	0	36	0	509607936	52	6794
2026-01-06 14:18:17.41	36.51	32.14	-40.0	-41.2	21.1	0.00e+00	60	36	0	510656512	52	6596
2026-01-06 14:18:18.42	36.66	32.33	-40.0	-41.2	21.2	0.00e+00	0	36	0	512753664	52	6580
2026-01-06 14:18:19.43	36.81	32.52	-39.6	-40.8	21.5	0.00e+00	92	36	0	514850816	52	6248
2026-01-06 14:18:20.44	36.96	32.71	-39.6	-40.8	21.5	0.00e+00	0	36	0	516947968	52	6251
2026-01-06 14:18:21.45	37.11	32.91	-39.7	-40.9	21.6	0.00e+00	0	36	0	519045120	52	6336
2026-01-06 14:18:22.45	37.26	33.10	-39.7	-40.9	21.4	0.00e+00	0	36	0	520093696	52	6359
2026-01-06 14:18:23.46	37.42	33.30	-39.4	-40.5	22.0	0.00e+00	0	36	0	522190848	52	6045
2026-01-06 14:18:24.47	37.58	33.49	-38.9	-39.9	22.1	0.00e+00	54	36	0	524288000	52	5692
2026-01-06 14:18:25.48	37.74	33.69	-39.2	-40.3	21.8	0.00e+00	0	36	0	526385152	52	5945
2026-01-06 14:18:26.49	37.90	33.89	-38.8	-39.9	22.3	0.00e+00	74	36	0	528482304	50	6328
2026-01-06 14:18:27.50	38.06	34.09	-39.1	-40.1	22.1	0.00e+00	0	36	0	530579456	50	6521
2026-01-06 14:18:28.51	38.23	34.29	-39.0	-40.1	22.0	0.00e+00	0	36	0	531628032	50	6477
2026-01-06 14:18:29.52	38.39	34.49	-39.3	-40.4	21.5	0.00e+00	0	36	0	533725184	50	6710
2026-01-06 14:18:30.53	38.56	34.69	-39.3	-40.4	21.4	0.00e+00	0	36	0	535822336	50	6730
2026-01-06 14:18:31.54	38.74	34.90	-39.6	-40.7	21.6	0.00e+00	54	36	0	537919488	50	6971
2026-01-06 14:18:32.55	38.91	35.10	-40.1	-41.3	21.1	0.00e+00	0	36	0	540016640	52	6663
2026-01-06 14:18:33.56	39.08	35.31	-39.6	-40.8	21.4	0.00e+00	51	36	0	541065216	52	6269
2026-01-06 14:18:34.57	39.26	35.52	-39.6	-40.7	21.6	0.00e+00	0	36	0	543162368	52	6216
2026-01-06 14:18:35.58	39.44	35.73	-39.4	-40.5	21.7	0.00e+00	42	36	0	545259520	52	6098
2026-01-06 14:18:36.58	39.62	35.93	-39.7	-40.9	21.5	0.00e+00	0	36	0	547356672	52	6318
2026-01-06 14:18:37.59	39.81	36.14	-39.4	-40.5	21.8	0.00e+00	0	36	0	549453824	52	6078
2026-01-06 14:18:38.61	40.00	36.36	-38.9	-39.9	22.2	0.00e+00	58	36	0	550502400	52	5686
2026-01-06 14:18:39.61	40.19	36.57	-38.9	-40.0	22.3	0.00e+00	0	36	0	552599552	52	5714
2026-01-06 14:18:40.62	40.38	36.78	-38.4	-39.4	22.7	0.00e+00	54	36	0	554696704	50	5968
2026-01-06 14:18:41.64	40.57	37.00	-38.6	-39.6	22.5	0.00e+00	0	36	0	556793856	50	6166
2026-01-06 14:18:42.65	40.77	37.21	-38.4	-39.3	22.7	0.00e+00	90	36	0	558891008	50	5950
2026-01-06 14:18:43.65	40.97	37.43	-38.4	-39.4	22.6	0.00e+00	0	36	0	559939584	50	6014
2026-01-06 14:18:44.66	41.17	37.65	-38.5	-39.5	22.6	0.00e+00	0	36	0	562036736	50	6055
2026-01-06 14:18:45.67	41.38	37.87	-39.0	-40.1	22.0	0.00e+00	25	36	0	564133888	50	6488
2026-01-06 14:18:46.68	41.58	38.09	-38.8	-39.8	22.5	0.00e+00	0	36	0	566231040	50	6264
2026-01-06 14:18:47.69	41.79	38.31	-39.2	-40.3	21.9	0.00e+00	58	36	0	568328192	50	6639
2026-01-06 14:18:48.70	42.01	38.53	-38.9	-39.9	22.4	0.00e+00	0	36	0	569376768	50	6350
2026-01-06 14:18:49.71	42.22	38.75	-38.6	-39.6	22.5	0.00e+00	92	36	0	571473920	50	6143
2026-01-06 14:18:50.72	42.44	38.98	-38.5	-39.5	22.8	0.00e+00	0	36	0	573571072	50	6065
2026-01-06 14:18:51.73	42.66	39.20	-38.4	-39.3	22.7	0.00e+00	0	36	0	575668224	50	5948
2026-01-06 14:18:52.74	42.89	39.43	-38.7	-39.7	22.5	0.00e+00	0	36	0	577765376	50	6214
2026-01-06 14:18:53.75	43.12	39.65	-38.1	-39.0	22.9	0.00e+00	0	36	0	578813952	50	5730
2026-01-06 14:18:54.76	43.35	39.88	-37.8	-38.7	23.1	0.00e+00	22	36	0	580911104	50	5541
2026-01-06 14:18:55.77	43.58	40.11	-37.9	-38.8	22.7	0.00e+00	0	36	0	583008256	48	6291
2026-01-06 14:18:56.78	43.82	40.34	-37.6	-38.6	23.3	0.00e+00	60	36	0	585105408	48	6112
2026-01-06 14:18:57.79	44.06	40.57	-37.5	-38.4	23.4	0.00e+00	0	36	0	587202560	48	6023
2026-01-06 14:18:58.80	44.31	40.80	-38.1	-39.1	22.9	0.00e+00	0	36	0	588251136	48	6515
2026-01-06 14:18:59.81	44.55	41.04	-38.1	-39.1	22.9	0.00e+00	0	36	0	590348288	48	6493
2026-01-06 14:19:00.81	44.80	41.27	-38.1	-39.0	22.8	0.00e+00	0	36	0	592445440	48	6456
2026-01-06 14:19:01.82	45.06	41.50	-38.1	-39.0	22.9	0.00e+00	58	36	0	594542592	48	6463
2026-01-06 14:19:02.83	45.32	41.74	-37.9	-38.8	23.1	0.00e+00	0	36	0	596639744	48	6293
2026-01-06 14:19:03.84	45.58	41.98	-37.6	-38.5	23.4	0.00e+00	68	36	0	598736896	48	6085
2026-01-06 14:19:04.85	45.84	42.21	-37.6	-38.5	23.3	0.00e+00	0	36	0	599785472	48	6055
2026-01-06 14:19:05.85	46.11	42.45	-37.5	-38.4	23.3	0.00e+00	0	36	0	601882624	48	6013
2026-01-06 14:19:06.86	46.39	42.69	-38.1	-39.1	22.8	0.00e+00	0	36	0	603979776	48	6498
2026-01-06 14:19:07.87	46.66	42.93	-38.5	-39.6	22.5	0.00e+00	0	36	0	606076928	48	6880
2026-01-06 14:19:08.88	46.95	43.17	-39.0	-40.1	22.0	0.00e+00	62	36	0	608174080	50	6508
2026-01-06 14:19:09.89	47.23	43.41	-39.2	-40.3	21.9	0.00e+00	0	36	0	609222656	50	6682
2026-01-06 14:19:10.90	47.52	43.65	-38.9	-40.0	22.3	0.00e+00	69	36	0	611319808	50	6423
2026-01-06 14:19:11.91	47.82	43.90	-38.8	-39.9	22.2	0.00e+00	0	36	0	613416960	50	6356
2026-01-06 14:19:12.92	48.12	44.14	-38.5	-39.5	22.5	0.00e+00	0	36	0	615514112	50	6088
2026-01-06 14:19:13.93	48.42	44.38	-38.6	-39.6	22.4	0.00e+00	0	36	0	617611264	50	6144
2026-01-06 14:19:14.94	48.73	44.63	-39.1	-40.2	22.0	0.00e+00	0	36	0	618659840	50	6568
2026-01-06 14:19:15.95	49.05	44.87	-39.6	-40.8	21.5	0.00e+00	0	36	0	620756992	50	7022
2026-01-06 14:19:16.95	49.36	45.12	-39.5	-40.7	21.4	0.00e+00	0	36	0	622854144	50	6965
2026-01-06 14:19:17.96	49.68	45.37	-38.8	-39.9	22.2	0.00e+00	61	36	0	624951296	50	6341
2026-01-06 14:19:18.97	50.01	45.61	-38.9	-39.9	22.1	0.00e+00	0	36	0	627048448	50	6372
2026-01-06 14:19:19.98	50.35	45.86	-38.4	-39.5	22.6	0.00e+00	92	36	0	628097024	50	6041
2026-01-06 14:19:20.99	50.68	46.11	-38.3	-39.3	22.7	0.00e+00	0	36	0	630194176	50	5934
2026-01-06 14:19:22.00	51.03	46.36	-38.4	-39.4	22.6	0.00e+00	0	36	0	632291328	50	6026
2026-01-06 14:19:23.01	51.38	46.61	-39.2	-40.4	21.9	0.00e+00	0	36	0	634388480	50	6697
2026-01-06 14:19:24.02	51.73	46.86	-38.9	-40.0	22.2	0.00e+00	0	36	0	636485632	50	6457
2026-01-06 14:19:25.03	52.09	47.11	-38.8	-39.9	21.7	0.00e+00	61	36	0	637534208	50	6375
2026-01-06 14:19:26.04	52.46	47.36	-38.5	-39.6	22.4	0.00e+00	0	36	0	639631360	50	6118
2026-01-06 14:19:27.05	52.83	47.61	-38.9	-40.0	22.3	0.00e+00	73	36	0	641728512	50	6411
2026-01-06 14:19:28.06	53.21	47.86	-38.5	-39.5	22.5	0.00e+00	0	36	0	643825664	50	6065
2026-01-06 14:19:29.06	53.59	48.11	-38.7	-39.7	22.4	0.00e+00	0	36	0	645922816	50	6221
2026-01-06 14:19:30.07	53.98	48.36	-39.2	-40.3	21.9	0.00e+00	0	36	0	646971392	50	6669
2026-01-06 14:19:31.09	54.38	48.61	-39.8	-41.0	21.2	0.00e+00	0	36	0	649068544	52	6430
2026-01-06 14:19:32.09	54.78	48.86	-39.4	-40.6	21.7	0.00e+00	11	36	0	651165696	52	6105
2026-01-06 14:19:33.10	55.19	49.11	-39.4	-40.5	21.4	0.00e+00	0	36	0	653262848	52	6096
2026-01-06 14:19:34.11	55.61	49.36	-39.5	-40.7	21.8	0.00e+00	92	36	0	655360000	52	6199
2026-01-06 14:19:35.12	56.03	49.61	-38.9	-40.0	21.9	0.00e+00	0	36	0	656408576	52	5711
2026-01-06 14:19:36.13	56.46	49.86	-39.3	-40.5	22.0	0.00e+00	0	36	0	658505728	52	6039
2026-01-06 14:19:37.14	56.90	50.11	-38.9	-40.0	22.0	0.00e+00	0	36	0	660602880	52	5743
2026-01-06 14:19:38.14	57.34	50.36	-38.8	-39.8	22.3	0.00e+00	0	36	0	662700032	50	6306
2026-01-06 14:19:39.15	57.79	50.61	-38.3	-39.3	22.6	0.00e+00	31	36	0	664797184	50	5915
2026-01-06 14:19:40.16	58.25	50.85	-38.9	-40.0	21.9	0.00e+00	0	36	0	665845760	50	6445
2026-01-06 14:19:41.17	58.72	51.10	-40.0	-41.3	20.9	0.00e+00	92	36	0	667942912	52	6669
2026-01-06 14:19:42.18	59.19	51.35	-40.7	-42.2	20.1	0.00e+00	0	36	0	670040064	54	6571
2026-01-06 14:19:43.19	59.67	51.60	-40.7	-42.2	20.5	0.00e+00	92	36	0	672137216	54	6565
2026-01-06 14:19:44.20	60.16	51.84	-39.8	-41.0	21.4	0.00e+00	33	36	0	674234368	54	5734
2026-01-06 14:19:45.21	60.66	52.09	-39.2	-40.4	21.8	0.00e+00	0	36	0	675282944	52	5979
2026-01-06 14:19:46.22	61.17	52.33	-38.9	-40.0	22.1	0.00e+00	0	36	0	677380096	52	5712
2026-01-06 14:19:47.23	61.68	52.57	-38.7	-39.8	22.0	0.00e+00	33	36	0	679477248	50	6275
2026-01-06 14:19:48.24	62.20	52.81	-39.4	-40.6	21.5	0.00e+00	92	36	0	681574400	50	6892
2026-01-06 14:19:49.25	62.74	53.05	-39.5	-40.7	21.4	0.00e+00	0	36	0	683671552	50	6977
2026-01-06 14:19:50.26	63.28	53.29	-39.9	-41.2	21.2	0.00e+00	92	36	0	684720128	52	6574
2026-01-06 14:19:51.27	63.83	53.53	-38.8	-39.9	22.2	0.00e+00	0	36	0	686817280	52	5673
2026-01-06 14:19:52.28	64.38	53.77	-38.3	-39.3	22.6	0.00e+00	0	36	0	688914432	50	5941
2026-01-06 14:19:53.29	64.95	54.00	-38.2	-39.2	22.9	0.00e+00	57	36	0	691011584	50	5891
2026-01-06 14:19:54.30	65.53	54.23	-38.1	-39.1	22.7	0.00e+00	0	36	0	693108736	50	5782
2026-01-06 14:19:55.31	66.11	54.46	-37.1	-38.0	23.6	0.00e+00	58	36	0	695205888	48	5715
2026-01-06 14:19:56.32	66.71	54.69	-37.0	-37.9	23.7	0.00e+00	0	36	0	696254464	48	5683
2026-01-06 14:19:57.33	67.31	54.92	-37.2	-38.2	23.5	0.00e+00	90	36	0	698351616	48	5848
2026-01-06 14:19:58.34	67.93	55.14	-37.5	-38.5	23.2	0.00e+00	0	36	0	700448768	48	6059
2026-01-06 14:19:59.35	68.55	55.37	-37.8	-38.8	23.0	0.00e+00	0	36	0	702545920	48	6289
2026-01-06 14:20:00.36	69.19	55.59	-37.6	-38.5	23.2	0.00e+00	0	36	0	704643072	48	6092
2026-01-06 14:20:01.37	69.83	55.80	-38.0	-39.0	22.7	0.00e+00	0	36	0	705691648	48	6446
2026-01-06 14:20:02.38	70.49	56.02	-39.3	-40.5	21.6	0.00e+00	60	36	0	707788800	50	6800
2026-01-06 14:20:03.38	71.14	56.23	-38.9	-40.1	21.9	0.00e+00	0	36	0	709885952	50	6487
2026-01-06 14:20:04.39	71.82	56.44	-38.5	-39.5	22.7	0.00e+00	60	36	0	711983104	50	6063
2026-01-06 14:20:05.40	72.50	56.64	-37.4	-38.4	23.6	0.00e+00	0	36	0	714080256	48	5980
2026-01-06 14:20:06.41	73.19	56.84	-37.0	-37.8	23.7	0.00e+00	0	36	0	715128832	48	5613
2026-01-06 14:20:07.42	73.90	57.04	-36.6	-37.4	24.2	0.00e+00	0	36	0	717225984	46	5979
2026-01-06 14:20:08.43	74.61	57.24	-36.3	-37.1	24.2	0.00e+00	0	36	0	719323136	46	5819
2026-01-06 14:20:09.44	75.34	57.43	-36.8	-37.7	23.9	0.00e+00	29	36	0	721420288	46	6206
2026-01-06 14:20:10.45	76.07	57.62	-37.1	-38.0	23.7	0.00e+00	0	36	0	723517440	46	6435
2026-01-06 14:20:11.46	76.82	57.80	-36.6	-37.5	24.1	0.00e+00	72	36	0	724566016	46	6047
2026-01-06 14:20:12.47	77.57	57.98	-37.1	-38.0	23.6	0.00e+00	0	36	0	726663168	46	6391
2026-01-06 14:20:13.48	78.34	58.16	-37.8	-38.8	23.1	0.00e+00	0	36	0	728760320	46	7017
2026-01-06 14:20:14.48	79.10	58.33	-38.0	-39.0	22.9	0.00e+00	0	36	0	730857472	48	6430
2026-01-06 14:20:15.50	79.90	58.50	-37.5	-38.4	23.4	0.00e+00	0	36	0	732954624	48	5971
2026-01-06 14:20:16.50	80.68	58.66	-37.8	-38.7	23.3	0.00e+00	0	36	0	734003200	48	6218
2026-01-06 14:20:17.51	81.49	58.82	-37.0	-37.8	23.7	0.00e+00	0	36	0	736100352	48	5605
2026-01-06 14:20:18.52	82.30	58.98	-36.7	-37.5	24.1	0.00e+00	51	36	0	738197504	46	6081
2026-01-06 14:20:19.53	83.13	59.13	-36.0	-36.8	24.3	0.00e+00	0	36	0	740294656	46	5625
2026-01-06 14:20:20.54	83.96	59.27	-36.8	-37.7	24.0	0.00e+00	30	36	0	742391808	46	6232
2026-01-06 14:20:21.55	84.80	59.41	-36.9	-37.8	23.9	0.00e+00	0	36	0	743440384	46	6254
2026-01-06 14:20:22.56	85.65	59.54	-37.1	-38.0	23.9	0.00e+00	0	36	0	745537536	46	6412
2026-01-06 14:20:23.57	86.51	59.67	-37.7	-38.7	23.2	0.00e+00	0	36	0	747634688	46	6957
2026-01-06 14:20:24.58	87.38	59.79	-38.7	-39.7	22.4	0.00e+00	0	36	0	749731840	48	6986
2026-01-06 14:20:25.58	88.24	59.91	-38.5	-39.5	22.5	0.00e+00	76	36	0	751828992	50	6073
2026-01-06 14:20:26.59	89.13	60.02	-38.2	-39.2	22.9	0.00e+00	0	36	0	752877568	50	5849
2026-01-06 14:20:27.60	90.02	60.12	-37.9	-38.9	23.1	0.00e+00	92	36	0	754974720	50	5636
2026-01-06 14:20:28.61	90.92	60.22	-37.8	-38.8	23.1	0.00e+00	0	36	0	757071872	48	6262
2026-01-06 14:20:29.62	91.82	60.32	-38.0	-38.9	23.0	0.00e+00	0	36	0	759169024	48	6371
2026-01-06 14:20:30.63	92.73	60.40	-38.5	-39.5	22.5	0.00e+00	0	36	0	761266176	48	6838
2026-01-06 14:20:31.64	93.65	60.48	-38.5	-39.6	22.5	0.00e+00	0	36	0	763363328	48	6850
2026-01-06 14:20:32.65	94.57	60.56	-38.2	-39.2	22.8	0.00e+00	51	36	0	764411904	48	6605
2026-01-06 14:20:33.66	95.50	60.63	-37.5	-38.4	23.5	0.00e+00	0	36	0	766509056	48	6016
2026-01-06 14:20:34.67	96.43	60.69	-37.1	-38.0	23.6	0.00e+00	92	36	0	768606208	48	5752
2026-01-06 14:20:35.68	97.37	60.74	-38.3	-39.3	22.5	0.00e+00	0	36	0	770703360	48	6664
2026-01-06 14:20:36.69	98.31	60.79	-39.2	-40.3	22.0	0.00e+00	0	36	0	772800512	50	6633
2026-01-06 14:20:37.69	99.24	60.83	-38.6	-39.6	22.4	0.00e+00	0	36	0	773849088	50	6168
2026-01-06 14:20:38.70	100.19	60.87	-38.2	-39.1	23.0	0.00e+00	0	36	0	775946240	50	5788
2026-01-06 14:20:39.71	101.14	60.89	-37.8	-38.7	23.1	0.00e+00	18	36	0	778043392	50	5549
2026-01-06 14:20:40.72	102.09	60.91	-37.4	-38.3	23.8	0.00e+00	0	36	0	780140544	48	5941
2026-01-06 14:20:41.73	103.04	60.93	-36.1	-36.9	24.5	0.00e+00	92	36	0	782237696	46	5692
2026-01-06 14:20:42.74	103.99	60.94	-36.6	-37.5	24.1	0.00e+00	0	36	0	783286272	46	6080
2026-01-06 14:20:43.75	104.94	60.94	-37.1	-38.0	23.6	0.00e+00	0	36	0	785383424	46	6423
2026-01-06 14:20:44.76	105.90	60.93	-36.8	-37.7	23.9	0.00e+00	0	36	0	787480576	46	6199
2026-01-06 14:20:45.76	106.84	60.92	-36.7	-37.6	24.1	0.00e+00	0	36	0	789577728	46	6107
2026-01-06 14:20:46.77	107.79	60.90	-37.0	-37.9	23.7	0.00e+00	58	36	0	791674880	46	6319
2026-01-06 14:20:47.78	108.74	60.87	-36.9	-37.7	23.9	0.00e+00	0	36	0	792723456	46	6230
2026-01-06 14:20:48.79	109.69	60.84	-36.9	-37.7	23.9	0.00e+00	92	36	0	794820608	46	6237
2026-01-06 14:20:49.80	110.63	60.79	-36.8	-37.6	23.9	0.00e+00	0	36	0	796917760	46	6149
2026-01-06 14:20:50.81	111.57	60.75	-36.8	-37.7	23.0	0.00e+00	92	36	0	799014912	46	6177
2026-01-06 14:20:51.82	112.51	60.69	-37.6	-38.5	23.2	0.00e+00	0	36	0	801112064	46	6845
2026-01-06 14:20:52.83	113.44	60.63	-37.3	-38.1	23.5	0.00e+00	0	36	0	802160640	48	5814
2026-01-06 14:20:53.84	114.37	60.57	-36.6	-37.4	24.2	0.00e+00	17	36	0	804257792	46	6009
2026-01-06 14:20:54.85	115.30	60.49	-36.9	-37.8	23.7	0.00e+00	0	36	0	806354944	46	6297
2026-01-06 14:20:55.86	116.21	60.41	-38.9	-40.0	22.1	0.00e+00	56	36	0	808452096	48	7215
2026-01-06 14:20:56.87	117.12	60.32	-40.4	-41.8	20.7	0.00e+00	0	36	0	810549248	52	7036
2026-01-06 14:20:57.88	118.03	60.23	-39.5	-40.6	21.8	0.00e+00	92	36	0	811597824	52	6147
2026-01-06 14:20:58.88	118.92	60.13	-39.8	-41.0	21.3	0.00e+00	0	36	0	813694976	52	6424
2026-01-06 14:20:59.89	119.81	60.03	-40.9	-42.3	20.1	0.00e+00	0	36	0	815792128	52	7434
2026-01-06 14:21:00.90	120.70	59.92	-40.4	-41.6	20.7	0.00e+00	14	36	0	817889280	54	6173
2026-01-06 14:21:01.91	121.57	59.80	-40.0	-41.1	21.1	0.00e+00	0	36	0	819986432	54	5813
2026-01-06 14:21:02.92	122.44	59.68	-39.4	-40.4	21.8	0.00e+00	57	36	0	821035008	52	6020
2026-01-06 14:21:03.93	123.30	59.55	-39.4	-40.4	21.6	0.00e+00	0	36	0	823132160	52	6012
2026-01-06 14:21:04.94	124.15	59.42	-39.8	-40.9	21.4	0.00e+00	92	36	0	825229312	52	6383
2026-01-06 14:21:05.95	125.00	59.28	-40.1	-41.3	21.0	0.00e+00	0	36	0	827326464	52	6661
2026-01-06 14:21:06.96	125.83	59.14	-38.9	-39.9	22.1	0.00e+00	0	36	0	829423616	52	5680
2026-01-06 14:21:07.96	126.65	58.99	-37.9	-38.8	23.1	0.00e+00	0	36	0	830472192	50	5575
2026-01-06 14:21:08.97	127.47	58.84	-38.3	-39.3	22.6	0.00e+00	0	36	0	832569344	48	6639
2026-01-06 14:21:09.98	128.27	58.68	-39.0	-40.0	22.0	0.00e+00	45	36	0	834666496	50	6443
2026-01-06 14:21:10.99	129.07	58.51	-40.0	-41.3	21.1	0.00e+00	0	36	0	836763648	50	7431
2026-01-06 14:21:12.00	129.85	58.35	-39.8	-41.0	21.3	0.00e+00	60	36	0	838860800	52	6410
2026-01-06 14:21:13.01	130.63	58.17	-38.7	-39.7	22.4	0.00e+00	0	36	0	839909376	52	5547
2026-01-06 14:21:14.02	131.40	58.00	-37.5	-38.4	23.7	0.00e+00	0	36	0	842006528	48	5995
2026-01-06 14:21:15.03	132.16	57.82	-37.3	-38.2	23.5	0.00e+00	0	36	0	844103680	48	5840
2026-01-06 14:21:16.04	132.90	57.63	-37.2	-38.1	23.7	0.00e+00	0	36	0	846200832	48	5766
2026-01-06 14:21:17.05	133.64	57.44	-37.0	-37.9	24.0	0.00e+00	60	36	0	848297984	48	5655
2026-01-06 14:21:18.06	134.37	57.25	-35.6	-36.3	24.9	0.00e+00	0	36	0	849346560	44	5961
2026-01-06 14:21:19.07	135.08	57.06	-35.4	-36.2	25.0	0.00e+00	59	36	0	851443712	44	5835
2026-01-06 14:21:20.07	135.78	56.86	-36.2	-37.0	24.4	0.00e+00	0	36	0	853540864	44	6425
2026-01-06 14:21:21.08	136.48	56.65	-36.6	-37.5	24.2	0.00e+00	38	36	0	855638016	46	6044
2026-01-06 14:21:22.09	137.16	56.45	-36.2	-37.0	24.5	0.00e+00	0	36	0	857735168	46	5735
2026-01-06 14:21:23.10	137.84	56.24	-37.0	-37.9	23.8	0.00e+00	0	36	0	859832320	46	6329
2026-01-06 14:21:24.11	138.50	56.03	-37.6	-38.6	23.2	0.00e+00	0	36	0	860880896	46	6920
2026-01-06 14:21:25.12	139.16	55.81	-36.7	-37.6	24.1	0.00e+00	0	36	0	862978048	46	6144
2026-01-06 14:21:26.13	139.81	55.60	-35.1	-35.8	25.1	0.00e+00	23	36	0	865075200	44	5619
2026-01-06 14:21:27.14	140.44	55.38	-34.6	-35.4	25.6	0.00e+00	0	36	0	867172352	42	5975
2026-01-06 14:21:28.15	141.07	55.15	-34.4	-35.1	25.8	0.00e+00	90	36	0	869269504	42	5803
2026-01-06 14:21:29.16	141.68	54.93	-33.9	-34.6	26.0	0.00e+00	0	36	0	870318080	42	5488
2026-01-06 14:21:30.17	142.29	54.70	-33.3	-34.0	26.3	0.00e+00	0	36	0	872415232	40	5714
2026-01-06 14:21:31.18	142.89	54.47	-33.2	-33.9	26.2	0.00e+00	0	36	0	874512384	40	5640
2026-01-06 14:21:32.19	143.47	54.24	-34.0	-34.7	25.7	0.00e+00	0	36	0	876609536	40	6208
2026-01-06 14:21:33.20	144.05	54.01	-34.5	-35.2	25.5	0.00e+00	61	36	0	878706688	40	6613
2026-01-06 14:21:34.21	144.62	53.77	-34.4	-35.2	25.6	0.00e+00	0	36	0	879755264	40	6544
2026-01-06 14:21:35.21	145.18	53.54	-34.3	-35.0	25.7	0.00e+00	92	36	0	881852416	40	6431
2026-01-06 14:21:36.22	145.73	53.30	-35.2	-36.0	25.0	0.00e+00	0	36	0	883949568	42	6420
2026-01-06 14:21:37.23	146.27	53.06	-35.4	-36.2	24.7	0.00e+00	33	36	0	886046720	44	5851
2026-01-06 14:21:38.24	146.80	52.82	-34.6	-35.4	25.5	0.00e+00	0	36	0	888143872	42	5965
2026-01-06 14:21:39.25	147.33	52.58	-34.1	-34.9	25.4	0.00e+00	0	36	0	889192448	42	5652
2026-01-06 14:21:40.25	147.84	52.34	-34.5	-35.3	25.6	0.00e+00	42	36	0	891289600	42	5907
2026-01-06 14:21:41.27	148.35	52.09	-34.8	-35.6	25.4	0.00e+00	0	36	0	893386752	42	6112
2026-01-06 14:21:42.28	148.85	51.85	-34.2	-35.0	25.7	0.00e+00	90	36	0	895483904	42	5720
2026-01-06 14:21:43.29	149.34	51.60	-34.5	-35.2	25.6	0.00e+00	0	36	0	897581056	42	5870
2026-01-06 14:21:44.30	149.83	51.35	-34.8	-35.6	25.3	0.00e+00	0	36	0	898629632	42	6135
2026-01-06 14:21:45.30	150.30	51.11	-35.5	-36.3	24.9	0.00e+00	0	36	0	900726784	42	6660
2026-01-06 14:21:46.31	150.77	50.86	-35.7	-36.5	24.8	0.00e+00	0	36	0	902823936	44	6061
2026-01-06 14:21:47.32	151.23	50.61	-35.9	-36.7	24.8	0.00e+00	21	36	0	904921088	44	6206
2026-01-06 14:21:48.33	151.68	50.36	-35.7	-36.5	24.9	0.00e+00	0	36	0	907018240	44	6103
2026-01-06 14:21:49.34	152.12	50.11	-35.1	-35.9	25.0	0.00e+00	92	36	0	908066816	44	5666
2026-01-06 14:21:50.35	152.56	49.86	-34.7	-35.5	25.4	0.00e+00	0	36	0	910163968	44	5379
2026-01-06 14:21:51.36	152.99	49.61	-36.1	-36.9	24.4	0.00e+00	0	36	0	912261120	44	6339
2026-01-06 14:21:52.36	153.41	49.36	-38.5	-39.6	22.2	0.00e+00	0	36	0	914358272	48	6881
2026-01-06 14:21:53.37	153.83	49.11	-40.2	-41.6	21.1	0.00e+00	0	36	0	916455424	52	6911
2026-01-06 14:21:54.38	154.24	48.86	-39.0	-40.2	22.0	0.00e+00	59	36	0	917504000	52	5849
2026-01-06 14:21:55.39	154.65	48.60	-39.7	-40.9	21.4	0.00e+00	0	36	0	919601152	52	6328
2026-01-06 14:21:56.40	155.05	48.35	-41.1	-42.6	19.7	0.00e+00	79	36	0	921698304	54	6881
2026-01-06 14:21:57.41	155.44	48.10	-41.6	-43.2	19.4	0.00e+00	0	36	0	923795456	54	7384
2026-01-06 14:21:58.42	155.82	47.85	-41.3	-42.8	19.7	0.00e+00	0	36	0	925892608	54	7078
2026-01-06 14:21:59.43	156.20	47.60	-41.6	-43.4	19.1	0.00e+00	0	36	0	926941184	54	7516
2026-01-06 14:22:00.44	156.57	47.35	-42.4	-44.4	18.4	0.00e+00	0	36	0	929038336	56	7550
2026-01-06 14:22:01.45	156.94	47.10	-41.2	-42.7	19.9	0.00e+00	0	36	0	931135488	56	6188
2026-01-06 14:22:02.46	157.30	46.85	-39.6	-40.8	21.4	0.00e+00	0	36	0	933232640	54	5583
2026-01-06 14:22:03.47	157.66	46.59	-38.4	-39.4	22.6	0.00e+00	92	36	0	935329792	50	5990
2026-01-06 14:22:04.48	158.01	46.34	-39.7	-40.9	21.4	0.00e+00	0	36	0	937426944	50	7126
2026-01-06 14:22:05.49	158.35	46.09	-41.0	-42.5	19.7	0.00e+00	92	36	0	938475520	52	7620
2026-01-06 14:22:06.49	158.69	45.85	-42.5	-44.5	18.1	0.00e+00	0	36	0	940572672	56	7610
2026-01-06 14:22:07.50	159.02	45.60	-41.3	-42.8	19.9	0.00e+00	0	36	0	942669824	56	6281
2026-01-06 14:22:08.51	159.35	45.35	-39.0	-40.1	22.2	0.00e+00	0	36	0	944766976	52	5787
2026-01-06 14:22:09.52	159.68	45.10	-38.4	-39.3	22.8	0.00e+00	0	36	0	946864128	50	5955
2026-01-06 14:22:10.53	160.00	44.86	-38.7	-39.8	22.0	0.00e+00	53	36	0	947912704	50	6274
2026-01-06 14:22:11.54	160.31	44.61	-40.3	-41.6	20.7	0.00e+00	0	36	0	950009856	52	6926
2026-01-06 14:22:12.55	160.62	44.36	-39.9	-41.2	21.2	0.00e+00	92	36	0	952107008	52	6545
2026-01-06 14:22:13.56	160.93	44.12	-37.4	-38.4	23.6	0.00e+00	0	36	0	954204160	50	5326
2026-01-06 14:22:14.57	161.23	43.87	-36.1	-37.0	24.5	0.00e+00	0	36	0	956301312	46	5699
2026-01-06 14:22:15.58	161.52	43.63	-36.2	-37.0	24.5	0.00e+00	0	36	0	957349888	46	5728
2026-01-06 14:22:16.59	161.81	43.39	-36.8	-37.7	23.9	0.00e+00	0	36	0	959447040	46	6192
2026-01-06 14:22:17.60	162.10	43.14	-37.7	-38.6	23.3	0.00e+00	53	36	0	961544192	46	6905
2026-01-06 14:22:18.61	162.38	42.90	-38.0	-39.0	22.8	0.00e+00	0	36	0	963641344	48	6419
2026-01-06 14:22:19.62	162.66	42.66	-38.7	-39.8	22.3	0.00e+00	90	36	0	965738496	50	6260
2026-01-06 14:22:20.62	162.93	42.42	-38.2	-39.2	22.8	0.00e+00	0	36	0	966787072	50	5840
2026-01-06 14:22:21.63	163.21	42.18	-37.5	-38.4	23.5	0.00e+00	0	36	0	968884224	48	5978
2026-01-06 14:22:22.64	163.47	41.95	-36.1	-36.9	24.6	0.00e+00	0	36	0	970981376	46	5672
2026-01-06 14:22:23.65	163.74	41.71	-35.5	-36.2	24.9	0.00e+00	0	36	0	973078528	44	5888
2026-01-06 14:22:24.66	163.99	41.47	-36.6	-37.4	24.1	0.00e+00	52	36	0	975175680	44	6724
2026-01-06 14:22:25.67	164.25	41.24	-39.2	-40.3	21.6	0.00e+00	0	36	0	976224256	50	6667
2026-01-06 14:22:26.68	164.50	41.00	-41.0	-42.6	19.8	0.00e+00	91	36	0	978321408	54	6855
2026-01-06 14:22:27.69	164.75	40.77	-40.6	-42.1	20.6	0.00e+00	33	36	0	980418560	54	6496
2026-01-06 14:22:28.70	165.00	40.53	-38.1	-39.0	23.0	0.00e+00	0	36	0	982515712	50	5756
2026-01-06 14:22:29.70	165.23	40.30	-36.0	-36.7	24.7	0.00e+00	0	36	0	984612864	46	5563
2026-01-06 14:22:30.72	165.47	40.07	-35.0	-35.7	25.2	0.00e+00	0	36	0	985661440	44	5552
2026-01-06 14:22:31.73	165.71	39.84	-35.6	-36.4	24.7	0.00e+00	15	36	0	987758592	44	5967
2026-01-06 14:22:32.74	165.94	39.61	-37.0	-37.9	23.9	0.00e+00	0	36	0	989855744	46	6328
2026-01-06 14:22:33.74	166.17	39.39	-38.1	-39.1	22.8	0.00e+00	92	36	0	991952896	48	6513
2026-01-06 14:22:34.75	166.39	39.16	-38.3	-39.4	22.5	0.00e+00	0	36	0	994050048	48	6712
2026-01-06 14:22:35.76	166.62	38.93	-37.6	-38.6	23.6	0.00e+00	60	36	0	995098624	48	6144
2026-01-06 14:22:36.77	166.83	38.71	-36.1	-36.9	24.6	0.00e+00	0	36	0	997195776	46	5684
2026-01-06 14:22:37.78	167.05	38.48	-35.8	-36.6	24.8	0.00e+00	0	36	0	999292928	46	5457
2026-01-06 14:22:38.79	167.26	38.26	-35.0	-35.7	25.4	0.00e+00	0	36	0	1001390080	44	5552
2026-01-06 14:22:39.80	167.47	38.04	-34.9	-35.7	25.1	0.00e+00	0	36	0	1003487232	42	6191
2026-01-06 14:22:40.81	167.68	37.82	-35.5	-36.3	25.0	0.00e+00	43	36	0	1004535808	42	6623
2026-01-06 14:22:41.82	167.89	37.60	-36.4	-37.2	23.9	0.00e+00	0	36	0	1006632960	44	6587
2026-01-06 14:22:42.83	168.09	37.38	-37.4	-38.3	23.3	0.00e+00	92	36	0	1008730112	46	6638
2026-01-06 14:22:43.83	168.29	37.16	-38.2	-39.1	22.8	0.00e+00	0	36	0	1010827264	48	6509
2026-01-06 14:22:44.84	168.49	36.95	-39.0	-40.1	22.0	0.00e+00	0	36	0	1012924416	50	6509
2026-01-06 14:22:45.86	168.68	36.73	-38.8	-39.8	22.4	0.00e+00	0	36	0	1013972992	50	6311
2026-01-06 14:22:46.86	168.87	36.52	-38.9	-40.0	22.2	0.00e+00	0	36	0	1016070144	50	6430
2026-01-06 14:22:47.87	169.06	36.30	-38.5	-39.6	22.5	0.00e+00	17	36	0	1018167296	50	6116
2026-01-06 14:22:48.88	169.25	36.09	-37.9	-38.9	22.9	0.00e+00	0	36	0	1020264448	50	5677
2026-01-06 14:22:49.89	169.43	35.88	-38.3	-39.3	22.6	0.00e+00	84	36	0	1022361600	50	5960
2026-01-06 14:22:50.90	169.62	35.67	-38.6	-39.6	22.7	0.00e+00	0	36	0	1023410176	50	6148
2026-01-06 14:22:51.91	169.80	35.46	-38.8	-39.8	22.5	0.00e+00	0	36	0	1025507328	50	6307
2026-01-06 14:22:52.92	169.98	35.25	-38.4	-39.4	22.6	0.00e+00	0	36	0	1027604480	50	5994
2026-01-06 14:22:53.93	170.15	35.04	-38.3	-39.3	22.7	0.00e+00	0	36	0	1029701632	50	5915
2026-01-06 14:22:54.94	170.33	34.84	-38.3	-39.2	22.8	0.00e+00	41	36	0	1031798784	50	5883
2026-01-06 14:22:55.95	170.50	34.63	-38.4	-39.4	22.6	0.00e+00	0	36	0	1033895936	50	5983
2026-01-06 14:22:56.96	170.67	34.43	-38.3	-39.2	22.8	0.00e+00	91	36	0	1034944512	50	5889
2026-01-06 14:22:57.97	170.83	34.23	-37.9	-38.8	23.1	0.00e+00	0	36	0	1037041664	48	6269
2026-01-06 14:22:58.98	171.00	34.02	-38.2	-39.2	22.8	0.00e+00	0	36	0	1039138816	48	6595
2026-01-06 14:22:59.99	171.16	33.82	-38.0	-38.9	22.9	0.00e+00	0	36	0	1041235968	48	6390
2026-01-06 14:23:00.99	171.32	33.63	-37.9	-38.9	23.0	0.00e+00	0	36	0	1043333120	48	6327
2026-01-06 14:23:02.01	171.48	33.42	-38.0	-38.9	23.0	0.00e+00	0	36	0	1044381696	48	6389
2026-01-06 14:23:03.01	171.64	33.23	-37.8	-38.7	23.2	0.00e+00	0	36	0	1046478848	48	6211
2026-01-06 14:23:04.02	171.80	33.03	-37.9	-38.8	23.0	0.00e+00	81	36	0	1048576000	48	6271
2026-01-06 14:23:05.03	171.95	32.84	-37.6	-38.5	23.3	0.00e+00	0	36	0	1050673152	48	6081
2026-01-06 14:23:06.04	172.10	32.64	-37.7	-38.7	23.2	0.00e+00	92	36	0	1052770304	48	6176
2026-01-06 14:23:07.05	172.25	32.45	-37.7	-38.6	23.3	0.00e+00	0	36	0	1053818880	48	6135
2026-01-06 14:23:08.06	172.40	32.26	-37.5	-38.4	23.4	0.00e+00	0	36	0	1055916032	48	6009
2026-01-06 14:23:09.07	172.55	32.07	-37.2	-38.1	23.7	0.00e+00	24	36	0	1058013184	48	5775
2026-01-06 14:23:10.08	172.70	31.88	-37.2	-38.1	23.6	0.00e+00	0	36	0	1060110336	48	5791
2026-01-06 14:23:11.09	172.84	31.69	-37.6	-38.5	23.3	0.00e+00	54	36	0	1062207488	48	6036
2026-01-06 14:23:12.10	172.98	31.50	-37.4	-38.2	23.5	0.00e+00	0	36	0	1063256064	48	5875
2026-01-06 14:23:13.11	173.12	31.31	-37.8	-38.7	22.9	0.00e+00	81	36	0	1065353216	48	6222
2026-01-06 14:23:14.12	173.26	31.12	-38.5	-39.5	22.5	0.00e+00	0	36	0	1067450368	48	6797
2026-01-06 14:23:15.13	173.40	30.94	-38.5	-39.4	22.5	0.00e+00	0	36	0	1069547520	48	6765
2026-01-06 14:23:16.14	173.54	30.75	-39.3	-40.4	21.9	0.00e+00	0	36	0	1071644672	50	6704
2026-01-06 14:23:17.14	173.67	30.57	-39.7	-40.8	21.4	0.00e+00	0	36	0	1072693248	50	7053
2026-01-06 14:23:18.15	173.80	30.39	-39.8	-41.0	21.2	0.00e+00	21	36	0	1074790400	50	7224
2026-01-06 14:23:19.16	173.93	30.21	-39.6	-40.8	21.5	0.00e+00	0	36	0	1076887552	52	6271
2026-01-06 14:23:20.17	174.06	30.03	-39.3	-40.5	21.7	0.00e+00	92	36	0	1078984704	52	6037
2026-01-06 14:23:21.18	174.19	29.85	-39.3	-40.4	21.7	0.00e+00	0	36	0	1081081856	52	6006
2026-01-06 14:23:22.19	174.32	29.67	-39.2	-40.3	22.1	0.00e+00	0	36	0	1082130432	52	5915
2026-01-06 14:23:23.20	174.45	29.49	-38.2	-39.2	22.7	0.00e+00	0	36	0	1084227584	50	5886
2026-01-06 14:23:24.21	174.57	29.32	-37.8	-38.7	23.1	0.00e+00	33	36	0	1086324736	50	5557
2026-01-06 14:23:25.22	174.69	29.14	-38.2	-39.2	22.8	0.00e+00	51	36	0	1088421888	50	5851
2026-01-06 14:23:26.23	174.82	28.97	-38.0	-39.0	23.0	0.00e+00	0	36	0	1090519040	50	5711
2026-01-06 14:23:27.24	174.94	28.79	-38.0	-39.0	22.8	0.00e+00	92	36	0	1091567616	50	5702
2026-01-06 14:23:28.25	175.06	28.62	-38.6	-39.6	22.4	0.00e+00	0	36	0	1093664768	50	6155
2026-01-06 14:23:29.25	175.17	28.45	-38.3	-39.2	22.7	0.00e+00	0	36	0	1095761920	50	5883
2026-01-06 14:23:30.27	175.29	28.28	-38.6	-39.6	22.5	0.00e+00	0	36	0	1097859072	50	6119
2026-01-06 14:23:31.27	175.41	28.11	-38.6	-39.6	22.4	0.00e+00	0	36	0	1099956224	50	6131
2026-01-06 14:23:32.28	175.52	27.94	-38.4	-39.4	22.6	0.00e+00	22	36	0	1102053376	50	5975
2026-01-06 14:23:33.29	175.64	27.77	-38.5	-39.4	22.5	0.00e+00	0	36	0	1103101952	50	6020
2026-01-06 14:23:34.30	175.75	27.61	-37.9	-38.8	23.0	0.00e+00	91	36	0	1105199104	50	5601
2026-01-06 14:23:35.31	175.86	27.44	-37.5	-38.4	23.4	0.00e+00	0	36	0	1107296256	48	5971
2026-01-06 14:23:36.32	175.97	27.28	-37.5	-38.4	23.3	0.00e+00	6	36	0	1109393408	48	6001
2026-01-06 14:23:37.33	176.08	27.11	-37.4	-38.3	23.4	0.00e+00	0	36	0	1111490560	48	5915
2026-01-06 14:23:38.34	176.19	26.95	-37.3	-38.2	23.6	0.00e+00	0	36	0	1112539136	48	5837
2026-01-06 14:23:39.35	176.30	26.78	-37.4	-38.3	23.4	0.00e+00	54	36	0	1114636288	48	5912
2026-01-06 14:23:40.35	176.40	26.62	-37.3	-38.2	23.6	0.00e+00	0	36	0	1116733440	48	5836
2026-01-06 14:23:41.36	176.51	26.46	-36.7	-37.5	24.0	0.00e+00	92	36	0	1118830592	46	6080
2026-01-06 14:23:42.37	176.61	26.30	-36.9	-37.8	23.9	0.00e+00	0	36	0	1120927744	46	6269
2026-01-06 14:23:43.38	176.71	26.14	-37.0	-37.8	23.7	0.00e+00	92	36	0	1121976320	46	6313
2026-01-06 14:23:44.39	176.81	25.99	-37.0	-37.8	23.6	0.00e+00	0	36	0	1124073472	46	6307
2026-01-06 14:23:45.40	176.92	25.83	-37.3	-38.2	23.4	0.00e+00	0	36	0	1126170624	46	6594
2026-01-06 14:23:46.41	177.02	25.67	-37.3	-38.2	23.5	0.00e+00	0	36	0	1128267776	46	6607
2026-01-06 14:23:47.42	177.12	25.52	-37.5	-38.4	23.3	0.00e+00	0	36	0	1130364928	46	6733
2026-01-06 14:23:48.43	177.21	25.36	-37.6	-38.6	23.2	0.00e+00	52	36	0	1131413504	46	6866
2026-01-06 14:23:49.44	177.31	25.21	-37.4	-38.3	23.5	0.00e+00	0	36	0	1133510656	46	6638
2026-01-06 14:23:50.45	177.41	25.05	-37.5	-38.5	23.3	0.00e+00	91	36	0	1135607808	46	6802
2026-01-06 14:23:51.45	177.50	24.90	-37.5	-38.4	23.2	0.00e+00	0	36	0	1137704960	48	6033
2026-01-06 14:23:52.46	177.60	24.75	-37.5	-38.5	23.1	0.00e+00	0	36	0	1139802112	48	6073
2026-01-06 14:23:53.47	177.69	24.60	-37.8	-38.8	22.9	0.00e+00	0	36	0	1140850688	48	6267
2026-01-06 14:23:54.48	177.78	24.45	-37.4	-38.4	23.4	0.00e+00	0	36	0	1142947840	48	5967
2026-01-06 14:23:55.49	177.88	24.30	-37.6	-38.5	23.2	0.00e+00	45	36	0	1145044992	48	6100
2026-01-06 14:23:56.50	177.97	24.15	-37.5	-38.4	23.3	0.00e+00	0	36	0	1147142144	48	6023
2026-01-06 14:23:57.51	178.06	24.00	-37.3	-38.3	23.4	0.00e+00	92	36	0	1149239296	48	5908
2026-01-06 14:23:58.52	178.15	23.86	-37.2	-38.1	23.6	0.00e+00	0	36	0	1150287872	48	5823
2026-01-06 14:23:59.53	178.24	23.71	-37.0	-37.9	23.7	0.00e+00	0	36	0	1152385024	48	5645
2026-01-06 14:24:00.54	178.32	23.56	-36.6	-37.4	23.9	0.00e+00	0	36	0	1154482176	46	6007
2026-01-06 14:24:01.55	178.41	23.42	-36.1	-36.9	24.4	0.00e+00	0	36	0	1156579328	46	5676
2026-01-06 14:24:02.56	178.50	23.27	-35.6	-36.4	24.8	0.00e+00	32	36	0	1158676480	44	5991
2026-01-06 14:24:03.57	178.58	23.13	-35.3	-36.1	24.9	0.00e+00	0	36	0	1159725056	44	5787
2026-01-06 14:24:04.58	178.67	22.99	-34.9	-35.6	25.2	0.00e+00	92	36	0	1161822208	44	5493
2026-01-06 14:24:05.59	178.75	22.85	-34.5	-35.2	25.6	0.00e+00	0	36	0	1163919360	42	5872
2026-01-06 14:24:06.60	178.84	22.71	-34.4	-35.1	25.6	0.00e+00	0	36	0	1166016512	42	5803
2026-01-06 14:24:07.61	178.92	22.57	-34.4	-35.1	25.7	0.00e+00	0	36	0	1168113664	42	5824
2026-01-06 14:24:08.61	179.00	22.43	-34.7	-35.4	25.6	0.00e+00	0	36	0	1169162240	42	5995
2026-01-06 14:24:09.62	179.08	22.29	-34.7	-35.4	25.4	0.00e+00	34	36	0	1171259392	42	5980
2026-01-06 14:24:10.63	179.16	22.15	-35.0	-35.7	25.3	0.00e+00	0	36	0	1173356544	42	6229
2026-01-06 14:24:11.64	179.24	22.01	-35.1	-35.8	25.2	0.00e+00	92	36	0	1175453696	42	6304
2026-01-06 14:24:12.65	179.32	21.87	-35.3	-36.1	25.0	0.00e+00	0	36	0	1177550848	42	6497
2026-01-06 14:24:13.66	179.40	21.74	-35.6	-36.4	24.9	0.00e+00	90	36	0	1178599424	42	6750
2026-01-06 14:24:14.67	179.48	21.60	-35.8	-36.6	24.7	0.00e+00	0	36	0	1180696576	44	6128
2026-01-06 14:24:15.68	179.56	21.47	-35.7	-36.5	24.6	0.00e+00	0	36	0	1182793728	44	6044
2026-01-06 14:24:16.69	179.63	21.33	-36.0	-36.8	24.5	0.00e+00	50	36	0	1184890880	44	6260
2026-01-06 14:24:17.69	179.71	21.20	-35.9	-36.7	24.6	0.00e+00	0	36	0	1186988032	44	6207
2026-01-06 14:24:18.70	179.79	21.07	-35.8	-36.6	24.6	0.00e+00	41	36	0	1188036608	44	6125
2026-01-06 14:24:19.71	179.86	20.94	-35.7	-36.5	24.7	0.00e+00	0	36	0	1190133760	44	6056
2026-01-06 14:24:20.72	179.93	20.80	-35.7	-36.5	24.7	0.00e+00	86	36	0	1192230912	44	6076
2026-01-06 14:24:21.73	180.01	20.67	-35.4	-36.2	24.9	0.00e+00	0	36	0	1194328064	44	5848
2026-01-06 14:24:22.74	180.08	20.54	-35.5	-36.3	24.8	0.00e+00	0	36	0	1196425216	44	5918
2026-01-06 14:24:23.75	180.15	20.41	-35.3	-36.1	24.9	0.00e+00	0	36	0	1198522368	44	5797
2026-01-06 14:24:24.76	180.23	20.28	-35.2	-36.0	25.1	0.00e+00	0	36	0	1199570944	44	5718
2026-01-06 14:24:25.77	180.30	20.16	-35.2	-35.9	25.0	0.00e+00	49	36	0	1201668096	44	5688
2026-01-06 14:24:26.78	180.37	20.03	-35.2	-35.9	25.0	0.00e+00	0	36	0	1203765248	44	5690
2026-01-06 14:24:27.78	180.44	19.90	-35.1	-35.9	25.1	0.00e+00	91	36	0	1205862400	44	5647
2026-01-06 14:24:28.79	180.51	19.77	-35.0	-35.8	25.2	0.00e+00	0	36	0	1207959552	44	5575
2026-01-06 14:24:29.80	180.58	19.65	-35.3	-36.1	25.0	0.00e+00	0	36	0	1209008128	44	5767
2026-01-06 14:24:30.81	180.65	19.52	-35.2	-36.0	25.0	0.00e+00	0	36	0	1211105280	44	5724
2026-01-06 14:24:31.82	180.71	19.40	-35.4	-36.2	24.9	0.00e+00	0	36	0	1213202432	44	5864
2026-01-06 14:24:32.83	180.78	19.27	-35.4	-36.1	24.9	0.00e+00	50	36	0	1215299584	44	5828
2026-01-06 14:24:33.83	180.85	19.15	-35.4	-36.1	24.9	0.00e+00	0	36	0	1217396736	44	5823
2026-01-06 14:24:34.84	180.92	19.03	-35.4	-36.2	24.9	0.00e+00	92	36	0	1218445312	44	5876
