passes_logs/2026/01/06/R4.6S_Anadyr/R4.6S_Anadyr__20260106_224533_TY-42_rec.log

#Pass ID: 20260106_224533_TY-42
#Satellite: TY-42
#Configuration: TY-42_900M
#almurnet v.1.7.20251203
#Start time: 2026-01-06 22:46:06

#Version: 2.2.20231116
#Station: R4.6S_Anadyr
#Location: 177.4865 lon 64.73178 lat
#TLE: 1 64048U 25103A   26005.68684028  .00008011  00000-0  38191-3 0 09993
#TLE: 2 64048 097.4106 081.2795 0001725 092.4682 306.5290 15.19173644 35407

#Time	Az	El	Level	Level2	SNR	BER	BlckErr	Temp	State	Recorded	gain1	gain2
2026-01-06 22:46:06.00	20.56	2.07	-48.9	-63.8	3.5	1.51e+00	0	32	0	0	60	55915
2026-01-06 22:46:07.01	20.61	2.14	-48.0	-50.5	6.1	0.00e+00	0	33	104	0	60	41075
2026-01-06 22:46:08.02	20.66	2.21	-48.0	-50.5	6.1	0.00e+00	0	33	104	0	60	41107
2026-01-06 22:46:09.03	20.71	2.28	-48.0	-50.5	6.0	0.00e+00	0	33	104	0	60	41171
2026-01-06 22:46:10.03	20.76	2.34	-48.0	-50.5	6.1	0.00e+00	0	33	104	0	60	41184
2026-01-06 22:46:11.04	20.81	2.41	-48.0	-50.5	6.1	0.00e+00	0	33	104	0	60	40941
2026-01-06 22:46:12.05	20.86	2.48	-48.0	-50.5	6.1	0.00e+00	0	33	104	0	60	41044
2026-01-06 22:46:13.06	20.91	2.55	-48.0	-50.5	6.1	0.00e+00	0	33	104	0	60	41237
2026-01-06 22:46:14.07	20.96	2.62	-48.0	-50.5	6.1	0.00e+00	0	34	104	0	60	40952
2026-01-06 22:46:15.08	21.01	2.69	-48.0	-50.5	6.1	0.00e+00	0	34	104	0	60	40971
2026-01-06 22:46:16.09	21.06	2.76	-48.0	-50.5	6.1	0.00e+00	0	34	104	0	60	41019
2026-01-06 22:46:17.10	21.11	2.83	-48.0	-50.5	6.1	0.00e+00	0	34	104	0	60	41157
2026-01-06 22:46:18.11	21.16	2.90	-48.0	-50.5	6.1	0.00e+00	0	34	104	0	60	41119
2026-01-06 22:46:19.12	21.21	2.97	-48.0	-50.5	6.1	0.00e+00	0	34	104	0	60	41031
2026-01-06 22:46:20.13	21.27	3.04	-48.0	-50.5	6.1	0.00e+00	0	34	104	0	60	41176
2026-01-06 22:46:21.14	21.32	3.11	-48.0	-50.5	6.1	0.00e+00	0	34	104	0	60	41058
2026-01-06 22:46:22.15	21.37	3.18	-48.0	-50.5	6.1	0.00e+00	0	34	104	0	60	41193
2026-01-06 22:46:23.16	21.42	3.25	-39.0	-39.4	9.6	0.00e+00	0	34	104	0	54	16201
2026-01-06 22:46:24.17	21.48	3.33	-35.3	-35.6	12.3	1.20e-01	754	34	0	0	46	16591
2026-01-06 22:46:25.18	21.53	3.40	-32.9	-33.2	13.6	1.20e-01	0	34	0	109051904	42	15841
2026-01-06 22:46:26.19	21.59	3.47	-31.3	-31.7	14.4	1.13e-01	0	34	0	226492416	38	16694
2026-01-06 22:46:27.20	21.64	3.54	-30.0	-30.4	14.9	1.13e-01	0	34	0	335544320	36	16095
2026-01-06 22:46:28.21	21.69	3.61	-29.6	-29.9	15.0	1.03e-02	0	34	0	452984832	34	17169
2026-01-06 22:46:29.22	21.75	3.69	-29.6	-30.0	15.0	1.03e-02	0	34	0	570425344	34	17266
2026-01-06 22:46:30.23	21.80	3.76	-30.4	-30.7	14.7	4.63e-03	0	34	0	679477248	34	18846
2026-01-06 22:46:31.24	21.86	3.83	-31.5	-31.9	14.2	9.41e-03	0	34	0	788529152	36	19233
2026-01-06 22:46:32.25	21.92	3.91	-33.6	-34.0	13.2	9.41e-03	0	34	0	905969664	40	19319
2026-01-06 22:46:33.26	21.97	3.98	-33.3	-33.6	13.6	7.13e-02	0	34	0	1015021568	46	13086
2026-01-06 22:46:34.26	22.03	4.05	-38.6	-38.9	11.8	0.00e+00	5187	34	104	1065353216	60	10774
2026-01-06 22:46:35.27	22.08	4.13	-42.3	-43.1	9.1	0.00e+00	0	34	104	1090519040	60	17421
2026-01-06 22:46:36.28	22.14	4.20	-43.7	-44.5	8.2	0.00e+00	0	34	104	1090519040	60	20642
2026-01-06 22:46:37.29	22.20	4.28	-31.5	-31.8	12.6	2.68e-02	2107	34	104	1090519040	38	16836
2026-01-06 22:46:38.30	22.26	4.35	-46.5	-48.4	6.1	2.68e-02	0	34	104	1098907648	60	32248
2026-01-06 22:46:39.31	22.32	4.43	-32.2	-32.5	13.8	0.00e+00	0	34	0	1098907648	40	16422
2026-01-06 22:46:40.32	22.37	4.50	-31.6	-32.0	14.2	4.53e-02	0	35	0	1207959552	38	17258
2026-01-06 22:46:41.33	22.43	4.58	-30.4	-30.8	14.7	4.53e-02	0	35	0	1325400064	36	16868
2026-01-06 22:46:42.34	22.49	4.65	-29.9	-30.3	14.9	4.53e-02	0	35	0	1434451968	36	15964
2026-01-06 22:46:43.35	22.55	4.73	-29.5	-29.9	15.0	1.16e-02	0	35	0	1551892480	36	15309
2026-01-06 22:46:44.36	22.61	4.81	-29.6	-30.0	15.0	1.16e-02	0	35	0	1660944384	34	17291
2026-01-06 22:46:45.37	22.67	4.88	-29.3	-29.7	15.2	4.23e-03	0	35	0	1778384896	34	16628
2026-01-06 22:46:46.38	22.73	4.96	-28.7	-29.1	15.4	4.23e-03	0	35	0	1887436800	32	17429
2026-01-06 22:46:47.39	22.79	5.04	-28.6	-29.0	15.4	4.23e-03	0	35	0	2004877312	32	17331
2026-01-06 22:46:48.40	22.86	5.12	-28.4	-28.8	15.4	1.31e-03	0	35	0	2113929216	32	16845
2026-01-06 22:46:49.41	22.92	5.19	-28.0	-28.4	15.6	1.31e-03	0	35	0	2231369728	32	16187
2026-01-06 22:46:50.42	22.98	5.27	-28.2	-28.5	15.6	9.05e-04	0	35	0	2348810240	32	16406
2026-01-06 22:46:51.43	23.04	5.35	-27.9	-28.3	15.7	9.05e-04	0	35	0	2457862144	32	15973
2026-01-06 22:46:52.44	23.10	5.43	-27.9	-28.3	15.7	7.46e-04	0	35	0	2575302656	32	15883
2026-01-06 22:46:53.45	23.17	5.51	-28.0	-28.4	15.7	7.46e-04	0	35	0	2684354560	32	16155
2026-01-06 22:46:54.46	23.23	5.59	-28.1	-28.5	15.7	7.14e-04	0	35	0	2793406464	32	16315
2026-01-06 22:46:55.47	23.30	5.67	-27.7	-28.1	15.8	7.14e-04	0	35	0	2910846976	32	15610
2026-01-06 22:46:56.48	23.36	5.75	-27.8	-28.2	15.8	7.14e-04	0	35	0	3028287488	30	17639
2026-01-06 22:46:57.49	23.43	5.83	-27.7	-28.0	15.9	6.48e-04	0	35	0	3137339392	30	17365
2026-01-06 22:46:58.50	23.49	5.91	-27.6	-28.0	15.9	6.48e-04	0	35	0	3254779904	30	17236
2026-01-06 22:46:59.50	23.56	5.99	-27.5	-27.9	15.9	3.49e-04	0	35	0	3363831808	30	17059
2026-01-06 22:47:00.51	23.62	6.07	-27.6	-27.9	16.0	3.49e-04	0	35	0	3481272320	30	17132
2026-01-06 22:47:01.52	23.69	6.15	-27.5	-27.9	16.0	4.47e-04	0	35	0	3598712832	30	17084
2026-01-06 22:47:02.53	23.76	6.23	-27.4	-27.8	16.0	4.47e-04	0	35	0	3707764736	30	16908
2026-01-06 22:47:03.54	23.82	6.32	-27.5	-27.9	15.9	3.16e-04	0	35	0	3816816640	30	17058
2026-01-06 22:47:04.55	23.89	6.40	-27.7	-28.1	16.0	3.16e-04	0	35	0	3934257152	30	17485
2026-01-06 22:47:05.56	23.96	6.48	-27.6	-28.0	16.0	3.16e-04	0	35	0	4043309056	30	17203
2026-01-06 22:47:06.57	24.03	6.56	-27.4	-27.8	16.0	2.40e-04	0	35	0	4160749568	30	16838
2026-01-06 22:47:07.58	24.10	6.65	-27.3	-27.6	16.1	2.40e-04	0	35	0	4278190080	30	16544
2026-01-06 22:47:08.59	24.17	6.73	-27.3	-27.6	16.1	2.56e-04	0	35	0	4387241984	30	16569
2026-01-06 22:47:09.60	24.24	6.82	-27.2	-27.6	16.1	2.56e-04	0	35	0	4504682496	30	16452
2026-01-06 22:47:10.61	24.31	6.90	-27.2	-27.6	16.1	1.09e-04	0	35	0	4613734400	30	16506
2026-01-06 22:47:11.62	24.38	6.98	-27.2	-27.6	16.1	1.09e-04	0	35	0	4731174912	30	16485
2026-01-06 22:47:12.63	24.45	7.07	-27.1	-27.5	16.1	1.09e-04	0	35	0	4840226816	30	16255
2026-01-06 22:47:13.64	24.53	7.15	-27.1	-27.5	16.2	1.25e-04	0	35	0	4957667328	30	16261
2026-01-06 22:47:14.65	24.60	7.24	-27.1	-27.4	16.1	1.25e-04	0	35	0	5066719232	30	16207
2026-01-06 22:47:15.66	24.67	7.33	-27.0	-27.4	16.2	1.42e-04	0	36	0	5184159744	30	16161
2026-01-06 22:47:16.67	24.75	7.41	-26.9	-27.2	16.3	1.42e-04	0	35	0	5301600256	30	15810
2026-01-06 22:47:17.68	24.82	7.50	-26.9	-27.3	16.2	1.42e-04	0	36	0	5410652160	30	15981
2026-01-06 22:47:18.69	24.90	7.59	-26.8	-27.2	16.2	1.20e-04	0	35	0	5528092672	30	15697
2026-01-06 22:47:19.69	24.97	7.67	-26.9	-27.2	16.2	1.20e-04	0	35	0	5637144576	30	15827
2026-01-06 22:47:20.70	25.05	7.76	-27.0	-27.3	16.2	1.20e-04	0	35	0	5746196480	30	16038
2026-01-06 22:47:21.71	25.12	7.85	-26.7	-27.1	16.3	1.14e-04	0	36	0	5872025600	30	15582
2026-01-06 22:47:22.72	25.20	7.94	-26.7	-27.1	16.3	1.14e-04	0	36	0	5981077504	28	17474
2026-01-06 22:47:23.73	25.28	8.03	-26.5	-26.9	16.4	4.90e-05	0	36	0	6090129408	28	17016
2026-01-06 22:47:24.74	25.36	8.12	-26.6	-27.0	16.3	4.90e-05	0	36	0	6207569920	28	17204
2026-01-06 22:47:25.75	25.43	8.21	-26.8	-27.2	16.3	5.44e-05	0	36	0	6316621824	28	17689
2026-01-06 22:47:26.76	25.51	8.30	-26.6	-27.0	16.3	5.44e-05	0	36	0	6434062336	28	17312
2026-01-06 22:47:27.77	25.59	8.39	-26.4	-26.8	16.3	5.99e-05	0	36	0	6551502848	28	16836
2026-01-06 22:47:28.78	25.67	8.48	-26.4	-26.8	16.3	5.99e-05	0	36	0	6660554752	28	16865
2026-01-06 22:47:29.80	25.76	8.57	-26.2	-26.6	16.4	5.99e-05	0	36	0	6769606656	28	16498
2026-01-06 22:47:30.80	25.84	8.66	-26.3	-26.6	16.4	5.99e-05	0	36	0	6887047168	28	16589
2026-01-06 22:47:31.81	25.92	8.76	-26.3	-26.7	16.4	5.44e-05	0	36	0	7004487680	28	16730
2026-01-06 22:47:32.82	26.00	8.85	-26.0	-26.4	16.5	5.44e-05	0	36	0	7113539584	28	16161
2026-01-06 22:47:33.83	26.08	8.94	-26.1	-26.5	16.5	3.26e-05	0	36	0	7230980096	28	16303
2026-01-06 22:47:34.84	26.17	9.04	-26.1	-26.5	16.5	3.26e-05	0	36	0	7340032000	28	16247
2026-01-06 22:47:35.86	26.25	9.13	-26.0	-26.4	16.5	2.17e-05	0	36	0	7457472512	28	16163
2026-01-06 22:47:36.86	26.34	9.22	-25.9	-26.3	16.5	2.17e-05	0	36	0	7574913024	28	15874
2026-01-06 22:47:37.87	26.42	9.32	-26.0	-26.4	16.5	1.08e-05	0	36	0	7683964928	28	16129
2026-01-06 22:47:38.88	26.51	9.41	-25.8	-26.2	16.6	1.08e-05	0	36	0	7801405440	26	17642
2026-01-06 22:47:39.89	26.60	9.51	-25.9	-26.2	16.5	1.08e-05	0	36	0	7910457344	26	17804
2026-01-06 22:47:40.90	26.69	9.61	-25.8	-26.2	16.5	5.40e-06	0	36	0	8019509248	26	17690
2026-01-06 22:47:41.91	26.78	9.70	-25.7	-26.1	16.5	5.40e-06	0	36	0	8136949760	26	17512
2026-01-06 22:47:42.92	26.86	9.80	-25.8	-26.2	16.6	2.17e-05	0	36	0	8254390272	26	17621
2026-01-06 22:47:43.93	26.95	9.90	-25.6	-26.0	16.5	2.17e-05	0	36	0	8363442176	26	17315
2026-01-06 22:47:44.94	27.05	9.99	-25.7	-26.1	16.5	1.08e-05	0	36	0	8480882688	26	17557
2026-01-06 22:47:45.95	27.14	10.09	-25.5	-25.9	16.7	1.08e-05	0	36	0	8589934592	26	17028
2026-01-06 22:47:46.96	27.23	10.19	-25.4	-25.8	16.7	0.00e+00	0	36	0	8698986496	26	16971
2026-01-06 22:47:47.97	27.32	10.29	-25.7	-26.1	16.7	0.00e+00	0	36	0	8824815616	26	17453
2026-01-06 22:47:48.98	27.42	10.39	-25.4	-25.8	16.6	0.00e+00	0	36	0	8933867520	26	16813
2026-01-06 22:47:49.99	27.51	10.49	-25.3	-25.7	16.6	0.00e+00	0	36	0	9042919424	26	16726
2026-01-06 22:47:51.00	27.60	10.59	-25.4	-25.8	16.6	0.00e+00	0	36	0	9160359936	26	16880
2026-01-06 22:47:52.01	27.70	10.69	-25.3	-25.7	16.6	1.08e-05	0	36	0	9269411840	26	16734
2026-01-06 22:47:53.02	27.80	10.80	-25.4	-25.8	16.6	1.08e-05	0	36	0	9386852352	26	16818
2026-01-06 22:47:54.03	27.89	10.90	-25.4	-25.8	16.6	1.08e-05	0	36	0	9504292864	26	16879
2026-01-06 22:47:55.04	27.99	11.00	-25.2	-25.6	16.7	0.00e+00	0	36	0	9613344768	26	16504
2026-01-06 22:47:56.04	28.09	11.10	-25.1	-25.5	16.7	0.00e+00	0	36	0	9730785280	26	16286
2026-01-06 22:47:57.05	28.19	11.21	-25.1	-25.5	16.7	0.00e+00	0	36	0	9839837184	26	16362
2026-01-06 22:47:58.06	28.29	11.31	-25.0	-25.4	16.8	0.00e+00	0	36	0	9957277696	26	16163
2026-01-06 22:47:59.07	28.39	11.42	-25.0	-25.4	16.8	0.00e+00	0	36	0	10066329600	26	16102
2026-01-06 22:48:00.08	28.49	11.52	-24.8	-25.2	16.8	0.00e+00	0	36	0	10183770112	24	17692
2026-01-06 22:48:01.09	28.60	11.63	-24.9	-25.3	16.7	0.00e+00	0	36	0	10292822016	24	17867
2026-01-06 22:48:02.10	28.70	11.73	-24.8	-25.2	16.8	0.00e+00	0	36	0	10410262528	24	17658
2026-01-06 22:48:03.11	28.81	11.84	-24.8	-25.2	16.8	0.00e+00	0	36	0	10527703040	24	17760
2026-01-06 22:48:04.12	28.91	11.95	-24.7	-25.0	16.7	0.00e+00	0	36	0	10636754944	24	17378
2026-01-06 22:48:05.13	29.02	12.06	-24.7	-25.1	16.7	0.00e+00	0	36	0	10745806848	24	17527
2026-01-06 22:48:06.14	29.13	12.16	-24.8	-25.2	16.7	0.00e+00	0	36	0	10863247360	24	17667
2026-01-06 22:48:07.15	29.24	12.27	-24.7	-25.1	16.7	0.00e+00	0	36	0	10972299264	24	17542
2026-01-06 22:48:08.16	29.35	12.38	-24.5	-24.9	16.7	5.40e-06	0	36	0	11089739776	24	17138
2026-01-06 22:48:09.17	29.46	12.49	-24.4	-24.8	16.8	5.40e-06	0	36	0	11207180288	24	16868
2026-01-06 22:48:10.18	29.57	12.60	-24.4	-24.8	16.9	5.40e-06	0	36	0	11316232192	24	16856
2026-01-06 22:48:11.19	29.68	12.72	-24.3	-24.7	16.8	0.00e+00	0	36	0	11433672704	24	16682
2026-01-06 22:48:12.20	29.79	12.83	-24.2	-24.6	16.8	0.00e+00	0	36	0	11542724608	24	16559
2026-01-06 22:48:13.21	29.91	12.94	-24.3	-24.7	16.9	0.00e+00	0	36	0	11660165120	24	16654
2026-01-06 22:48:14.22	30.02	13.05	-24.2	-24.6	16.9	0.00e+00	0	36	0	11777605632	24	16548
2026-01-06 22:48:15.23	30.14	13.17	-24.2	-24.5	16.9	0.00e+00	0	36	0	11886657536	24	16406
2026-01-06 22:48:16.24	30.26	13.28	-24.2	-24.6	16.9	0.00e+00	0	36	0	11995709440	24	16524
2026-01-06 22:48:17.25	30.37	13.40	-24.1	-24.5	16.9	0.00e+00	0	36	0	12113149952	24	16346
2026-01-06 22:48:18.26	30.49	13.51	-24.1	-24.5	16.9	0.00e+00	0	36	0	12230590464	24	16279
2026-01-06 22:48:19.27	30.61	13.63	-24.1	-24.5	16.9	0.00e+00	0	36	0	12339642368	24	16353
2026-01-06 22:48:20.28	30.74	13.75	-23.9	-24.3	17.0	0.00e+00	0	36	0	12457082880	24	15954
2026-01-06 22:48:21.29	30.86	13.86	-23.9	-24.3	17.0	0.00e+00	0	36	0	12566134784	24	15969
2026-01-06 22:48:22.30	30.98	13.98	-23.8	-24.2	17.0	0.00e+00	0	36	0	12683575296	24	15782
2026-01-06 22:48:23.31	31.11	14.10	-23.8	-24.2	17.0	0.00e+00	0	36	0	12801015808	24	15790
2026-01-06 22:48:24.32	31.23	14.22	-23.8	-24.2	17.0	0.00e+00	0	36	0	12910067712	22	17722
2026-01-06 22:48:25.33	31.36	14.34	-23.8	-24.2	17.0	0.00e+00	0	36	0	13019119616	22	17733
2026-01-06 22:48:26.34	31.49	14.46	-23.6	-24.0	17.0	0.00e+00	0	37	0	13136560128	22	17346
2026-01-06 22:48:27.35	31.62	14.58	-23.6	-24.1	17.0	0.00e+00	0	36	0	13245612032	22	17406
2026-01-06 22:48:28.36	31.75	14.71	-23.5	-23.9	17.0	0.00e+00	0	36	0	13363052544	22	17194
2026-01-06 22:48:29.37	31.88	14.83	-23.7	-24.1	17.0	0.00e+00	0	36	0	13480493056	22	17432
2026-01-06 22:48:30.38	32.02	14.95	-23.4	-23.9	17.0	0.00e+00	0	36	0	13589544960	22	17031
2026-01-06 22:48:31.39	32.15	15.08	-23.5	-23.9	17.0	0.00e+00	0	36	0	13706985472	22	17025
2026-01-06 22:48:32.40	32.29	15.20	-23.5	-23.9	17.0	0.00e+00	0	36	0	13816037376	22	17055
2026-01-06 22:48:33.41	32.42	15.33	-23.4	-23.8	17.0	0.00e+00	0	36	0	13925089280	22	16968
2026-01-06 22:48:34.42	32.56	15.45	-23.5	-23.9	17.1	0.00e+00	0	36	0	14050918400	22	17031
2026-01-06 22:48:35.43	32.70	15.58	-23.5	-23.9	17.0	0.00e+00	0	37	0	14159970304	22	17088
2026-01-06 22:48:36.44	32.84	15.71	-23.4	-23.8	17.0	0.00e+00	0	37	0	14269022208	22	16987
2026-01-06 22:48:37.45	32.99	15.84	-23.4	-23.8	17.1	0.00e+00	0	36	0	14386462720	22	16942
2026-01-06 22:48:38.46	33.13	15.97	-23.2	-23.6	17.1	0.00e+00	0	37	0	14495514624	22	16607
2026-01-06 22:48:39.47	33.28	16.10	-23.3	-23.7	17.1	0.00e+00	0	36	0	14612955136	22	16635
2026-01-06 22:48:40.48	33.42	16.23	-23.2	-23.6	17.1	0.00e+00	0	36	0	14730395648	22	16507
2026-01-06 22:48:41.49	33.57	16.36	-23.1	-23.5	17.1	0.00e+00	0	36	0	14839447552	22	16364
2026-01-06 22:48:42.50	33.72	16.49	-23.2	-23.6	17.1	0.00e+00	0	36	0	14948499456	22	16452
2026-01-06 22:48:43.51	33.87	16.62	-23.2	-23.6	17.1	0.00e+00	0	36	0	15065939968	22	16481
2026-01-06 22:48:44.52	34.03	16.76	-23.1	-23.5	17.1	0.00e+00	0	37	0	15183380480	22	16285
2026-01-06 22:48:45.53	34.18	16.89	-23.2	-23.6	17.1	0.00e+00	0	37	0	15292432384	22	16434
2026-01-06 22:48:46.54	34.34	17.03	-22.9	-23.3	17.1	0.00e+00	0	37	0	15409872896	22	15952
2026-01-06 22:48:47.55	34.50	17.16	-23.2	-23.6	17.1	0.00e+00	0	36	0	15518924800	22	16533
2026-01-06 22:48:48.56	34.66	17.30	-22.7	-23.1	17.1	0.00e+00	0	37	0	15636365312	20	17504
2026-01-06 22:48:49.57	34.82	17.44	-22.7	-23.1	17.1	0.00e+00	0	36	0	15753805824	20	17439
2026-01-06 22:48:50.58	34.98	17.58	-22.7	-23.1	17.1	0.00e+00	0	37	0	15862857728	20	17535
2026-01-06 22:48:51.59	35.14	17.72	-22.4	-22.8	17.2	0.00e+00	0	37	0	15980298240	20	16889
2026-01-06 22:48:52.60	35.31	17.86	-22.6	-23.0	17.1	0.00e+00	0	37	0	16089350144	20	17310
2026-01-06 22:48:53.61	35.48	18.00	-22.4	-22.8	17.1	0.00e+00	0	37	0	16198402048	20	16987
2026-01-06 22:48:54.62	35.65	18.14	-22.4	-22.8	17.1	0.00e+00	0	37	0	16315842560	20	16903
2026-01-06 22:48:55.63	35.82	18.28	-22.3	-22.7	17.2	0.00e+00	0	37	0	16433283072	20	16724
2026-01-06 22:48:56.64	35.99	18.42	-22.2	-22.6	17.2	0.00e+00	0	37	0	16542334976	20	16564
2026-01-06 22:48:57.65	36.17	18.57	-22.3	-22.7	17.2	0.00e+00	0	37	0	16659775488	20	16790
2026-01-06 22:48:58.65	36.34	18.71	-22.3	-22.7	17.2	0.00e+00	0	37	0	16768827392	20	16738
2026-01-06 22:48:59.66	36.52	18.86	-22.1	-22.5	17.1	0.00e+00	0	37	0	16877879296	20	16348
2026-01-06 22:49:00.67	36.70	19.00	-22.0	-22.4	17.2	0.00e+00	0	37	0	17003708416	20	16225
2026-01-06 22:49:01.68	36.88	19.15	-22.0	-22.4	17.2	0.00e+00	0	37	0	17112760320	20	16160
2026-01-06 22:49:02.69	37.07	19.30	-21.9	-22.3	17.2	0.00e+00	0	37	0	17221812224	20	16051
2026-01-06 22:49:03.70	37.26	19.45	-21.8	-22.2	17.2	0.00e+00	0	37	0	17339252736	20	15766
2026-01-06 22:49:04.71	37.44	19.60	-21.7	-22.1	17.2	0.00e+00	0	37	0	17456693248	18	17553
2026-01-06 22:49:05.72	37.64	19.75	-21.8	-22.2	17.2	0.00e+00	0	37	0	17565745152	18	17726
2026-01-06 22:49:06.73	37.83	19.90	-21.6	-22.0	17.2	0.00e+00	0	37	0	17683185664	18	17289
2026-01-06 22:49:07.74	38.02	20.06	-21.6	-22.1	17.2	0.00e+00	0	37	0	17792237568	18	17434
2026-01-06 22:49:08.75	38.22	20.21	-21.6	-22.1	17.2	0.00e+00	0	37	0	17909678080	18	17427
2026-01-06 22:49:09.76	38.42	20.37	-21.5	-21.9	17.3	0.00e+00	0	37	0	18018729984	18	17128
2026-01-06 22:49:10.77	38.62	20.52	-21.5	-21.9	17.3	0.00e+00	0	37	0	18136170496	18	17092
2026-01-06 22:49:11.78	38.83	20.68	-21.6	-22.1	17.3	0.00e+00	0	37	0	18245222400	18	17438
2026-01-06 22:49:12.79	39.03	20.83	-21.6	-22.0	17.3	0.00e+00	0	37	0	18362662912	18	17249
2026-01-06 22:49:13.80	39.24	20.99	-21.5	-22.0	17.3	0.00e+00	0	37	0	18471714816	18	17213
2026-01-06 22:49:14.81	39.45	21.15	-21.5	-21.9	17.3	0.00e+00	0	37	0	18589155328	18	17189
2026-01-06 22:49:15.82	39.67	21.31	-21.4	-21.8	17.3	0.00e+00	0	37	0	18706595840	18	16896
2026-01-06 22:49:16.83	39.88	21.47	-21.1	-21.5	17.3	0.00e+00	0	37	0	18815647744	18	16378
2026-01-06 22:49:17.83	40.10	21.63	-21.1	-21.5	17.3	0.00e+00	0	37	0	18933088256	18	16335
2026-01-06 22:49:18.84	40.32	21.80	-21.0	-21.5	17.3	0.00e+00	0	37	0	19042140160	18	16287
2026-01-06 22:49:19.86	40.55	21.96	-20.9	-21.3	17.3	0.00e+00	0	37	0	19151192064	18	16043
2026-01-06 22:49:20.86	40.77	22.12	-20.9	-21.4	17.3	0.00e+00	0	37	0	19268632576	18	16074
2026-01-06 22:49:21.87	41.00	22.29	-20.8	-21.2	17.3	0.00e+00	0	37	0	19386073088	18	15783
2026-01-06 22:49:22.88	41.23	22.46	-20.9	-21.3	17.3	0.00e+00	0	37	0	19495124992	16	17921
2026-01-06 22:49:23.89	41.47	22.62	-20.9	-21.4	17.3	0.00e+00	0	37	0	19612565504	16	18020
2026-01-06 22:49:24.90	41.70	22.79	-20.7	-21.1	17.3	0.00e+00	0	37	0	19721617408	16	17492
2026-01-06 22:49:25.91	41.94	22.96	-20.8	-21.3	17.4	0.00e+00	0	37	0	19839057920	16	17825
2026-01-06 22:49:26.92	42.19	23.13	-20.5	-21.0	17.4	0.00e+00	0	37	0	19956498432	16	17203
2026-01-06 22:49:27.93	42.43	23.30	-20.7	-21.1	17.3	0.00e+00	0	37	0	20065550336	16	17555
2026-01-06 22:49:28.94	42.68	23.47	-20.4	-20.9	17.3	0.00e+00	0	37	0	20174602240	16	17075
2026-01-06 22:49:29.95	42.93	23.65	-20.5	-21.0	17.4	0.00e+00	0	37	0	20292042752	16	17235
2026-01-06 22:49:30.96	43.19	23.82	-20.5	-21.0	17.4	0.00e+00	0	37	0	20401094656	16	17264
2026-01-06 22:49:31.97	43.45	24.00	-20.2	-20.7	17.4	0.00e+00	0	37	0	20518535168	16	16670
2026-01-06 22:49:32.98	43.71	24.17	-20.3	-20.7	17.3	0.00e+00	0	37	0	20635975680	16	16806
2026-01-06 22:49:33.99	43.97	24.35	-20.1	-20.5	17.4	0.00e+00	0	37	0	20745027584	16	16396
2026-01-06 22:49:35.00	44.24	24.53	-20.2	-20.6	17.4	0.00e+00	0	37	0	20862468096	16	16527
2026-01-06 22:49:36.01	44.51	24.70	-20.0	-20.5	17.4	0.00e+00	0	37	0	20971520000	16	16253
2026-01-06 22:49:37.02	44.79	24.88	-19.9	-20.4	17.4	0.00e+00	0	37	0	21088960512	16	16067
2026-01-06 22:49:38.03	45.06	25.06	-19.8	-20.2	17.4	0.00e+00	0	37	0	21198012416	16	15827
2026-01-06 22:49:39.04	45.35	25.24	-19.7	-20.1	17.4	0.00e+00	0	37	0	21315452928	14	17491
2026-01-06 22:49:40.05	45.63	25.42	-19.8	-20.2	17.4	0.00e+00	0	37	0	21424504832	14	17701
2026-01-06 22:49:41.06	45.92	25.61	-19.5	-20.0	17.4	0.00e+00	0	37	0	21541945344	14	17249
2026-01-06 22:49:42.06	46.21	25.79	-19.6	-20.1	17.4	0.00e+00	0	37	0	21650997248	14	17445
2026-01-06 22:49:43.07	46.50	25.97	-19.5	-19.9	17.4	0.00e+00	0	37	0	21768437760	14	17132
2026-01-06 22:49:44.08	46.80	26.16	-19.4	-19.9	17.4	0.00e+00	0	37	0	21885878272	14	17005
2026-01-06 22:49:45.09	47.11	26.34	-19.3	-19.8	17.4	0.00e+00	0	37	0	21994930176	14	16855
2026-01-06 22:49:46.10	47.42	26.53	-19.3	-19.8	17.4	0.00e+00	0	37	0	22103982080	14	16921
2026-01-06 22:49:47.12	47.73	26.72	-19.4	-19.8	17.4	0.00e+00	0	37	0	22229811200	14	16961
2026-01-06 22:49:48.12	48.04	26.90	-19.1	-19.5	17.5	0.00e+00	0	37	0	22338863104	14	16400
2026-01-06 22:49:49.13	48.36	27.09	-19.0	-19.4	17.5	0.00e+00	0	37	0	22447915008	14	16196
2026-01-06 22:49:50.14	48.68	27.28	-19.1	-19.5	17.5	0.00e+00	0	37	0	22565355520	14	16347
2026-01-06 22:49:51.15	49.01	27.47	-18.9	-19.4	17.5	0.00e+00	0	37	0	22674407424	14	16105
2026-01-06 22:49:52.16	49.34	27.66	-18.9	-19.3	17.5	0.00e+00	0	37	0	22791847936	14	16048
2026-01-06 22:49:53.17	49.68	27.85	-18.8	-19.3	17.5	0.00e+00	0	37	0	22909288448	12	17839
2026-01-06 22:49:54.18	50.02	28.05	-18.8	-19.2	17.5	0.00e+00	0	37	0	23018340352	12	17774
2026-01-06 22:49:55.19	50.37	28.24	-18.6	-19.1	17.4	0.00e+00	0	37	0	23127392256	12	17437
2026-01-06 22:49:56.20	50.72	28.43	-18.7	-19.1	17.5	0.00e+00	0	37	0	23244832768	12	17590
2026-01-06 22:49:57.21	51.07	28.62	-18.4	-18.9	17.5	0.00e+00	0	37	0	23353884672	12	17056
2026-01-06 22:49:58.22	51.43	28.82	-18.5	-19.0	17.5	0.00e+00	0	37	0	23471325184	12	17251
2026-01-06 22:49:59.22	51.79	29.01	-18.3	-18.7	17.5	0.00e+00	0	37	0	23588765696	12	16807
2026-01-06 22:50:00.23	52.16	29.21	-18.2	-18.7	17.5	0.00e+00	0	37	0	23697817600	12	16644
2026-01-06 22:50:01.24	52.53	29.40	-18.2	-18.6	17.5	0.00e+00	0	37	0	23815258112	12	16558
2026-01-06 22:50:02.25	52.91	29.60	-18.2	-18.6	17.5	0.00e+00	0	37	0	23924310016	12	16537
2026-01-06 22:50:03.26	53.29	29.79	-18.3	-18.8	17.5	0.00e+00	0	37	0	24033361920	12	16837
2026-01-06 22:50:04.27	53.68	29.99	-17.9	-18.4	17.5	0.00e+00	0	37	0	24159191040	12	16088
2026-01-06 22:50:05.28	54.07	30.19	-18.1	-18.5	17.5	0.00e+00	0	37	0	24268242944	12	16367
2026-01-06 22:50:06.29	54.47	30.38	-17.9	-18.3	17.5	0.00e+00	0	37	0	24377294848	12	15967
2026-01-06 22:50:07.30	54.87	30.58	-17.9	-18.3	17.5	0.00e+00	0	37	0	24494735360	12	15980
2026-01-06 22:50:08.31	55.28	30.78	-17.8	-18.3	17.5	0.00e+00	0	37	0	24603787264	12	15895
2026-01-06 22:50:09.32	55.69	30.97	-17.9	-18.3	17.5	0.00e+00	0	37	0	24721227776	10	17952
2026-01-06 22:50:10.33	56.11	31.17	-17.5	-18.0	17.6	0.00e+00	0	37	0	24838668288	10	17245
2026-01-06 22:50:11.34	56.54	31.37	-17.5	-18.0	17.5	0.00e+00	0	37	0	24947720192	10	17291
2026-01-06 22:50:12.35	56.97	31.57	-17.4	-17.9	17.5	0.00e+00	0	37	0	25056772096	10	17054
2026-01-06 22:50:13.36	57.41	31.76	-17.3	-17.8	17.6	0.00e+00	0	37	0	25174212608	10	16850
2026-01-06 22:50:14.37	57.85	31.96	-17.3	-17.8	17.6	0.00e+00	0	37	0	25291653120	10	16853
2026-01-06 22:50:15.38	58.29	32.16	-17.2	-17.6	17.6	0.00e+00	0	37	0	25400705024	10	16579
2026-01-06 22:50:16.39	58.75	32.35	-17.2	-17.7	17.6	0.00e+00	0	37	0	25518145536	10	16666
2026-01-06 22:50:17.40	59.21	32.55	-17.1	-17.5	17.5	0.00e+00	0	37	0	25627197440	10	16359
2026-01-06 22:50:18.41	59.67	32.74	-17.1	-17.5	17.6	0.00e+00	0	37	0	25744637952	10	16398
2026-01-06 22:50:19.41	60.14	32.94	-17.1	-17.5	17.5	0.00e+00	0	37	0	25853689856	10	16416
2026-01-06 22:50:20.42	60.61	33.13	-17.0	-17.4	17.6	0.00e+00	0	37	0	25971130368	10	16150
2026-01-06 22:50:21.43	61.10	33.33	-17.0	-17.4	17.6	0.00e+00	0	37	0	26088570880	10	16172
2026-01-06 22:50:22.44	61.59	33.52	-17.0	-17.4	17.6	0.00e+00	0	37	0	26197622784	10	16160
2026-01-06 22:50:23.44	62.08	33.71	-16.9	-17.3	17.6	0.00e+00	0	37	0	26306674688	10	16015
2026-01-06 22:50:24.45	62.58	33.90	-16.8	-17.2	17.6	0.00e+00	0	37	0	26424115200	10	15822
2026-01-06 22:50:25.46	63.09	34.09	-16.8	-17.3	17.6	0.00e+00	0	37	0	26533167104	8	17849
2026-01-06 22:50:26.47	63.60	34.28	-16.7	-17.1	17.6	0.00e+00	0	37	0	26650607616	8	17596
2026-01-06 22:50:27.48	64.12	34.47	-16.7	-17.1	17.6	0.00e+00	0	37	0	26768048128	8	17586
2026-01-06 22:50:28.49	64.65	34.66	-16.8	-17.2	17.6	0.00e+00	0	37	0	26877100032	8	17674
2026-01-06 22:50:29.50	65.18	34.84	-16.6	-17.1	17.6	0.00e+00	0	37	0	26986151936	8	17417
2026-01-06 22:50:30.51	65.72	35.03	-16.6	-17.0	17.7	0.00e+00	0	37	0	27103592448	8	17332
2026-01-06 22:50:31.52	66.27	35.21	-16.5	-17.0	17.7	0.00e+00	0	37	0	27221032960	8	17214
2026-01-06 22:50:32.52	66.81	35.39	-16.6	-17.0	17.6	0.00e+00	0	37	0	27330084864	8	17351
2026-01-06 22:50:33.53	67.37	35.57	-16.5	-17.0	17.7	0.00e+00	0	37	0	27447525376	8	17287
2026-01-06 22:50:34.54	67.94	35.75	-16.5	-16.9	17.7	0.00e+00	0	37	0	27556577280	8	17139
2026-01-06 22:50:35.55	68.51	35.93	-16.5	-17.0	17.7	0.00e+00	0	37	0	27674017792	8	17239
2026-01-06 22:50:36.56	69.09	36.10	-16.3	-16.8	17.7	0.00e+00	0	37	0	27783069696	8	16857
2026-01-06 22:50:37.57	69.67	36.27	-16.4	-16.8	17.7	0.00e+00	0	37	0	27900510208	8	16876
2026-01-06 22:50:38.58	70.27	36.45	-16.3	-16.7	17.6	0.00e+00	0	37	0	28017950720	8	16731
2026-01-06 22:50:39.59	70.86	36.61	-16.3	-16.7	17.6	0.00e+00	0	37	0	28127002624	8	16727
2026-01-06 22:50:40.60	71.47	36.78	-16.3	-16.7	17.6	0.00e+00	0	37	0	28236054528	8	16707
2026-01-06 22:50:41.61	72.08	36.94	-16.3	-16.7	17.6	0.00e+00	0	37	0	28353495040	8	16696
2026-01-06 22:50:42.62	72.70	37.10	-16.1	-16.5	17.6	0.00e+00	0	37	0	28470935552	8	16405
2026-01-06 22:50:43.63	73.32	37.26	-16.1	-16.5	17.6	0.00e+00	0	37	0	28579987456	8	16359
2026-01-06 22:50:44.64	73.95	37.42	-16.0	-16.4	17.6	0.00e+00	0	37	0	28697427968	8	16168
2026-01-06 22:50:45.65	74.59	37.57	-16.0	-16.4	17.6	0.00e+00	0	37	0	28806479872	8	16132
2026-01-06 22:50:46.66	75.23	37.72	-15.8	-16.2	17.7	0.00e+00	0	37	0	28915531776	8	15824
2026-01-06 22:50:47.67	75.88	37.87	-15.9	-16.4	17.6	0.00e+00	0	37	0	29041360896	8	16108
2026-01-06 22:50:48.68	76.53	38.01	-15.9	-16.3	17.6	0.00e+00	0	37	0	29150412800	8	15945
2026-01-06 22:50:49.69	77.19	38.15	-15.8	-16.2	17.6	0.00e+00	0	37	0	29259464704	8	15719
2026-01-06 22:50:50.69	77.85	38.28	-15.7	-16.1	17.6	0.00e+00	0	37	0	29376905216	6	17550
2026-01-06 22:50:51.70	78.53	38.42	-15.7	-16.1	17.6	0.00e+00	0	37	0	29485957120	6	17469
2026-01-06 22:50:52.72	79.21	38.55	-15.6	-16.0	17.6	0.00e+00	0	37	0	29603397632	6	17343
2026-01-06 22:50:53.73	79.89	38.67	-15.5	-16.0	17.6	0.00e+00	0	37	0	29720838144	6	17219
2026-01-06 22:50:54.73	80.58	38.79	-15.5	-15.9	17.6	0.00e+00	0	37	0	29829890048	6	17063
2026-01-06 22:50:55.74	81.27	38.91	-15.4	-15.9	17.6	0.00e+00	0	37	0	29938941952	6	17049
2026-01-06 22:50:56.75	81.97	39.03	-15.5	-15.9	17.6	0.00e+00	0	37	0	30056382464	6	17110
2026-01-06 22:50:57.76	82.68	39.13	-15.6	-16.0	17.6	0.00e+00	0	37	0	30173822976	6	17280
2026-01-06 22:50:58.78	83.39	39.24	-15.5	-16.0	17.6	0.00e+00	0	37	0	30282874880	6	17244
2026-01-06 22:50:59.79	84.11	39.34	-15.6	-16.0	17.6	0.00e+00	0	37	0	30400315392	6	17366
2026-01-06 22:51:00.79	84.82	39.44	-15.5	-15.9	17.6	0.00e+00	0	37	0	30509367296	6	17173
2026-01-06 22:51:01.80	85.54	39.53	-15.4	-15.9	17.6	0.00e+00	0	37	0	30626807808	6	17058
2026-01-06 22:51:02.81	86.27	39.62	-15.3	-15.7	17.6	0.00e+00	0	37	0	30744248320	6	16682
2026-01-06 22:51:03.83	87.01	39.70	-15.1	-15.6	17.6	0.00e+00	0	37	0	30853300224	6	16443
2026-01-06 22:51:04.83	87.74	39.78	-15.2	-15.6	17.6	0.00e+00	0	37	0	30970740736	6	16557
2026-01-06 22:51:05.84	88.48	39.85	-15.1	-15.5	17.5	0.00e+00	0	37	0	31079792640	6	16425
2026-01-06 22:51:06.85	89.22	39.92	-15.1	-15.6	17.6	0.00e+00	0	37	0	31188844544	6	16440
2026-01-06 22:51:07.86	89.96	39.98	-15.2	-15.6	17.6	0.00e+00	0	37	0	31306285056	6	16474
2026-01-06 22:51:08.88	90.72	40.04	-15.3	-15.7	17.5	0.00e+00	0	37	0	31423725568	6	16674
2026-01-06 22:51:09.88	91.46	40.09	-15.2	-15.6	17.5	0.00e+00	0	37	0	31532777472	6	16498
2026-01-06 22:51:10.89	92.22	40.14	-15.2	-15.6	17.6	0.00e+00	0	37	0	31650217984	6	16580
2026-01-06 22:51:11.90	92.97	40.18	-15.1	-15.5	17.6	0.00e+00	0	37	0	31759269888	6	16423
2026-01-06 22:51:12.92	93.74	40.22	-15.1	-15.5	17.5	0.00e+00	0	37	0	31876710400	6	16387
2026-01-06 22:51:13.93	94.50	40.25	-15.3	-15.7	17.5	0.00e+00	0	37	0	31994150912	6	16684
2026-01-06 22:51:14.93	95.25	40.28	-15.2	-15.6	17.5	0.00e+00	0	37	0	32103202816	6	16542
2026-01-06 22:51:15.95	96.02	40.30	-15.4	-15.8	17.5	0.00e+00	0	37	0	32212254720	6	16895
2026-01-06 22:51:16.95	96.77	40.31	-15.1	-15.5	17.5	0.00e+00	0	37	0	32329695232	6	16417
2026-01-06 22:51:17.96	97.54	40.32	-15.2	-15.6	17.5	0.00e+00	0	37	0	32447135744	6	16606
2026-01-06 22:51:18.98	98.31	40.33	-15.2	-15.6	17.5	0.00e+00	0	37	0	32556187648	6	16525
2026-01-06 22:51:19.99	99.07	40.33	-15.2	-15.6	17.5	0.00e+00	0	37	0	32673628160	6	16581
2026-01-06 22:51:20.99	99.83	40.32	-15.3	-15.7	17.5	0.00e+00	0	37	0	32782680064	6	16746
2026-01-06 22:51:22.01	100.60	40.31	-15.1	-15.6	17.4	0.00e+00	0	37	0	32900120576	6	16439
2026-01-06 22:51:23.01	101.36	40.29	-15.3	-15.8	17.4	0.00e+00	0	37	0	33017561088	6	16834
2026-01-06 22:51:24.03	102.13	40.27	-15.3	-15.7	17.5	0.00e+00	0	37	0	33126612992	6	16663
2026-01-06 22:51:25.04	102.89	40.24	-15.3	-15.8	17.5	0.00e+00	0	37	0	33235664896	6	16827
2026-01-06 22:51:26.05	103.65	40.21	-15.6	-16.0	17.4	0.00e+00	0	37	0	33353105408	6	17291
2026-01-06 22:51:27.06	104.40	40.17	-15.4	-15.8	17.5	0.00e+00	0	37	0	33462157312	6	16968
2026-01-06 22:51:28.07	105.16	40.13	-15.4	-15.9	17.4	0.00e+00	0	37	0	33579597824	6	17005
2026-01-06 22:51:29.08	105.91	40.08	-15.3	-15.8	17.5	0.00e+00	0	37	0	33697038336	6	16823
2026-01-06 22:51:30.09	106.66	40.02	-15.2	-15.6	17.5	0.00e+00	0	37	0	33806090240	6	16575
2026-01-06 22:51:31.10	107.41	39.97	-15.4	-15.8	17.4	0.00e+00	0	37	0	33923530752	6	16989
2026-01-06 22:51:32.11	108.16	39.90	-15.3	-15.7	17.5	0.00e+00	0	37	0	34032582656	6	16670
2026-01-06 22:51:33.12	108.90	39.83	-15.3	-15.7	17.4	0.00e+00	0	37	0	34150023168	6	16769
2026-01-06 22:51:34.13	109.64	39.76	-15.2	-15.6	17.5	0.00e+00	0	37	0	34267463680	6	16474
2026-01-06 22:51:35.14	110.37	39.68	-15.3	-15.8	17.5	0.00e+00	0	37	0	34376515584	6	16811
2026-01-06 22:51:36.14	111.10	39.59	-49.4	-51.8	6.1	0.00e+00	0	37	104	34384904192	60	47834
2026-01-06 22:51:37.16	111.83	39.51	-49.3	-51.8	6.1	0.00e+00	0	37	104	34384904192	60	47858
2026-01-06 22:51:38.17	112.56	39.41	-49.3	-51.8	6.1	0.00e+00	0	37	104	34384904192	60	47612
2026-01-06 22:51:39.18	113.28	39.31	-49.4	-51.9	6.1	0.00e+00	0	37	104	34384904192	60	48037
2026-01-06 22:51:40.19	113.99	39.21	-49.4	-51.8	6.1	0.00e+00	0	37	104	34384904192	60	47731
2026-01-06 22:51:41.19	114.69	39.11	-49.4	-51.9	6.1	0.00e+00	0	37	104	34384904192	60	48090
2026-01-06 22:51:42.20	115.40	39.00	-49.3	-51.8	6.1	0.00e+00	0	37	104	34384904192	60	47671
2026-01-06 22:51:43.21	116.10	38.88	-49.2	-51.7	6.1	0.00e+00	0	37	104	34384904192	60	47367
2026-01-06 22:51:44.22	116.79	38.76	-49.3	-51.8	6.1	0.00e+00	0	37	104	34384904192	60	47881
2026-01-06 22:51:45.23	117.48	38.64	-49.3	-51.8	6.1	0.00e+00	0	37	104	34384904192	60	47886
2026-01-06 22:51:46.24	118.16	38.51	-49.4	-51.9	6.1	0.00e+00	0	37	104	34384904192	60	48057
2026-01-06 22:51:47.25	118.84	38.38	-49.4	-51.9	6.1	0.00e+00	0	37	104	34384904192	60	47935
2026-01-06 22:51:48.26	119.52	38.25	-49.4	-51.9	6.1	0.00e+00	0	37	104	34384904192	60	48088
2026-01-06 22:51:49.27	120.18	38.11	-49.3	-51.8	6.1	0.00e+00	0	37	104	34384904192	60	47533
2026-01-06 22:51:50.28	120.84	37.97	-49.4	-51.9	6.1	0.00e+00	0	37	104	34384904192	60	48155
2026-01-06 22:51:51.29	121.50	37.82	-49.4	-51.8	6.1	0.00e+00	0	37	104	34384904192	60	47895
2026-01-06 22:51:52.30	122.15	37.68	-49.4	-51.9	6.1	0.00e+00	0	37	104	34384904192	60	48173
2026-01-06 22:51:53.31	122.79	37.52	-49.2	-51.8	6.1	0.00e+00	0	37	104	34384904192	60	47463
2026-01-06 22:51:54.32	123.42	37.37	-49.4	-51.9	6.1	0.00e+00	0	37	104	34384904192	60	47957
2026-01-06 22:51:55.33	124.06	37.21	-49.3	-51.8	6.1	0.00e+00	0	37	104	34384904192	60	47868
2026-01-06 22:51:56.34	124.68	37.05	-49.3	-51.8	6.1	0.00e+00	0	37	104	34384904192	60	47480
2026-01-06 22:51:57.35	125.30	36.89	-49.3	-51.8	6.1	0.00e+00	0	37	104	34384904192	60	47623
2026-01-06 22:51:58.35	125.90	36.73	-49.2	-51.7	6.1	0.00e+00	0	37	104	34384904192	60	47276
2026-01-06 22:51:59.36	126.51	36.56	-49.2	-51.8	6.1	0.00e+00	0	37	104	34384904192	60	47380
2026-01-06 22:52:00.37	127.10	36.39	-49.2	-51.7	6.1	0.00e+00	0	37	104	34384904192	60	47148
2026-01-06 22:52:01.38	127.70	36.22	-49.4	-51.9	6.1	0.00e+00	0	37	104	34384904192	60	48014
2026-01-06 22:52:02.39	128.28	36.05	-49.3	-51.8	6.1	0.00e+00	0	37	104	34384904192	60	47612
2026-01-06 22:52:03.40	128.86	35.87	-49.2	-51.7	6.1	0.00e+00	0	37	104	34384904192	60	47195
2026-01-06 22:52:04.41	129.43	35.69	-49.3	-51.8	6.1	0.00e+00	0	37	104	34384904192	60	47689
2026-01-06 22:52:05.41	129.99	35.51	-49.3	-51.9	6.1	0.00e+00	0	37	104	34384904192	60	47960
2026-01-06 22:52:06.42	130.55	35.33	-49.3	-51.8	6.1	0.00e+00	0	37	104	34384904192	60	47862
2026-01-06 22:52:07.43	131.10	35.15	-49.3	-51.8	6.1	0.00e+00	0	37	104	34384904192	60	47638
2026-01-06 22:52:08.44	131.65	34.97	-49.4	-51.8	6.1	0.00e+00	0	37	104	34384904192	60	47918
2026-01-06 22:52:09.45	132.19	34.78	-49.4	-51.9	6.1	0.00e+00	0	37	104	34384904192	60	48095
2026-01-06 22:52:10.46	132.72	34.59	-49.4	-51.9	6.1	0.00e+00	0	37	104	34384904192	60	48106
2026-01-06 22:52:11.47	133.25	34.40	-49.4	-51.8	6.1	0.00e+00	0	37	104	34384904192	60	47833
2026-01-06 22:52:12.48	133.77	34.21	-49.4	-51.8	6.1	0.00e+00	0	37	104	34384904192	60	47818
2026-01-06 22:52:13.49	134.28	34.02	-49.4	-51.8	6.1	0.00e+00	0	37	104	34384904192	60	47880
2026-01-06 22:52:14.50	134.79	33.83	-49.4	-51.8	6.1	0.00e+00	0	37	104	34384904192	60	47873
2026-01-06 22:52:15.51	135.29	33.64	-49.4	-51.8	6.1	0.00e+00	0	37	104	34384904192	60	47845
2026-01-06 22:52:16.52	135.79	33.44	-49.3	-51.8	6.1	0.00e+00	0	37	104	34384904192	60	47743
2026-01-06 22:52:17.53	136.27	33.25	-49.4	-51.8	6.1	0.00e+00	0	37	104	34384904192	60	47915
2026-01-06 22:52:18.54	136.76	33.06	-49.3	-51.8	6.1	0.00e+00	0	37	104	34384904192	60	47800
2026-01-06 22:52:19.55	137.23	32.86	-49.3	-51.7	6.1	0.00e+00	0	37	104	34384904192	60	47319
2026-01-06 22:52:20.56	137.71	32.66	-49.3	-51.8	6.1	0.00e+00	0	37	104	34384904192	60	47660
2026-01-06 22:52:21.57	138.17	32.47	-49.4	-51.8	6.1	0.00e+00	0	37	104	34384904192	60	47525
2026-01-06 22:52:22.58	138.63	32.27	-49.4	-51.8	6.1	0.00e+00	0	37	104	34384904192	60	47881
2026-01-06 22:52:23.59	139.08	32.07	-49.3	-51.8	6.1	0.00e+00	0	37	104	34384904192	60	47700
2026-01-06 22:52:24.60	139.53	31.87	-49.3	-51.8	6.1	0.00e+00	0	37	104	34384904192	60	47716
2026-01-06 22:52:25.61	139.97	31.68	-49.3	-51.8	6.1	0.00e+00	0	37	104	34384904192	60	47804
2026-01-06 22:52:26.62	140.41	31.48	-49.3	-51.8	6.1	0.00e+00	0	37	104	34384904192	60	47646
2026-01-06 22:52:27.63	140.84	31.28	-49.3	-51.8	6.1	0.00e+00	0	37	104	34384904192	60	47752
2026-01-06 22:52:28.64	141.26	31.08	-49.3	-51.8	6.1	0.00e+00	0	37	104	34384904192	60	47655
2026-01-06 22:52:29.65	141.68	30.88	-49.3	-51.8	6.1	0.00e+00	0	37	104	34384904192	60	47544
2026-01-06 22:52:30.66	142.09	30.68	-49.3	-51.8	6.1	0.00e+00	0	37	104	34384904192	60	47690
2026-01-06 22:52:31.67	142.50	30.49	-49.3	-51.8	6.1	0.00e+00	0	37	104	34384904192	60	47701
2026-01-06 22:52:32.68	142.91	30.29	-49.3	-51.8	6.1	0.00e+00	0	37	104	34384904192	60	47821
2026-01-06 22:52:33.69	143.30	30.09	-49.3	-51.8	6.1	0.00e+00	0	37	104	34384904192	60	47666
2026-01-06 22:52:34.70	143.70	29.89	-49.3	-51.8	6.1	0.00e+00	0	37	104	34384904192	60	47789
2026-01-06 22:52:35.71	144.08	29.69	-49.3	-51.8	6.1	0.00e+00	0	37	104	34384904192	60	47627
2026-01-06 22:52:36.72	144.47	29.50	-49.3	-51.8	6.1	0.00e+00	0	37	104	34384904192	60	47597
2026-01-06 22:52:37.73	144.84	29.30	-49.3	-51.8	6.1	0.00e+00	0	37	104	34384904192	60	47609
2026-01-06 22:52:38.74	145.22	29.10	-49.3	-51.7	6.1	0.00e+00	0	37	104	34384904192	60	47374
2026-01-06 22:52:39.74	145.58	28.91	-49.3	-51.8	6.1	0.00e+00	0	37	104	34384904192	60	47552
2026-01-06 22:52:40.75	145.94	28.72	-49.3	-51.8	6.1	0.00e+00	0	37	104	34384904192	60	47656
2026-01-06 22:52:41.76	146.30	28.52	-49.3	-51.8	6.1	0.00e+00	0	37	104	34384904192	60	47475
2026-01-06 22:52:42.77	146.66	28.33	-49.3	-51.8	6.1	0.00e+00	0	37	104	34384904192	60	47596
2026-01-06 22:52:43.78	147.01	28.13	-49.3	-51.7	6.1	0.00e+00	0	37	104	34384904192	60	47315
2026-01-06 22:52:44.79	147.35	27.94	-49.2	-51.7	6.1	0.00e+00	0	37	104	34384904192	60	46993
2026-01-06 22:52:45.80	147.69	27.75	-49.3	-51.8	6.1	0.00e+00	0	37	104	34384904192	60	47522
2026-01-06 22:52:46.81	148.03	27.55	-49.3	-51.8	6.1	0.00e+00	0	37	104	34384904192	60	47555
2026-01-06 22:52:47.82	148.36	27.36	-49.3	-51.7	6.1	0.00e+00	0	37	104	34384904192	60	47361
2026-01-06 22:52:48.83	148.69	27.17	-49.3	-51.8	6.1	0.00e+00	0	37	104	34384904192	60	47428
2026-01-06 22:52:49.84	149.01	26.98	-49.3	-51.8	6.1	0.00e+00	0	37	104	34384904192	60	47519
2026-01-06 22:52:50.85	149.33	26.79	-49.3	-51.8	6.1	0.00e+00	0	37	104	34384904192	60	47463
2026-01-06 22:52:51.86	149.64	26.60	-49.2	-51.7	6.1	0.00e+00	0	37	104	34384904192	60	47371
2026-01-06 22:52:52.86	149.95	26.42	-49.2	-51.7	6.1	0.00e+00	0	37	104	34384904192	60	47257
2026-01-06 22:52:53.87	150.26	26.23	-49.3	-51.7	6.1	0.00e+00	0	37	104	34384904192	60	47328
2026-01-06 22:52:54.88	150.56	26.04	-49.3	-51.7	6.1	0.00e+00	0	37	104	34384904192	60	47281
2026-01-06 22:52:55.89	150.86	25.86	-49.3	-51.7	6.1	0.00e+00	0	37	104	34384904192	60	47332
2026-01-06 22:52:56.90	151.16	25.67	-49.3	-51.8	6.1	0.00e+00	0	37	104	34384904192	60	47451
2026-01-06 22:52:57.91	151.45	25.49	-49.2	-51.7	6.1	0.00e+00	0	37	104	34384904192	60	47084
2026-01-06 22:52:58.92	151.74	25.31	-49.2	-51.7	6.1	0.00e+00	0	37	104	34384904192	60	47176
2026-01-06 22:52:59.93	152.02	25.12	-49.2	-51.7	6.1	0.00e+00	0	37	104	34384904192	60	47191
2026-01-06 22:53:00.94	152.30	24.94	-49.3	-51.7	6.1	0.00e+00	0	37	104	34384904192	60	47254
2026-01-06 22:53:01.95	152.58	24.76	-49.2	-51.7	6.1	0.00e+00	0	37	104	34384904192	60	47222
2026-01-06 22:53:02.96	152.86	24.58	-49.2	-51.7	6.1	0.00e+00	0	37	104	34384904192	60	46966
2026-01-06 22:53:03.97	153.13	24.40	-49.1	-51.6	6.1	0.00e+00	0	37	104	34384904192	60	46577
2026-01-06 22:53:04.98	153.39	24.22	-49.2	-51.7	6.1	0.00e+00	0	37	104	34384904192	60	47076
2026-01-06 22:53:05.99	153.66	24.05	-49.2	-51.7	6.1	0.00e+00	0	37	104	34384904192	60	46945
2026-01-06 22:53:07.00	153.92	23.87	-49.2	-51.7	6.1	0.00e+00	0	37	104	34384904192	60	47209
2026-01-06 22:53:08.00	154.17	23.70	-49.2	-51.7	6.1	0.00e+00	0	37	104	34384904192	60	47165
2026-01-06 22:53:09.01	154.43	23.52	-49.2	-51.7	6.1	0.00e+00	0	37	104	34384904192	60	47250
2026-01-06 22:53:10.03	154.68	23.35	-49.2	-51.7	6.1	0.00e+00	0	37	104	34384904192	60	47112
2026-01-06 22:53:11.03	154.93	23.18	-49.2	-51.7	6.1	0.00e+00	0	37	104	34384904192	60	47049
2026-01-06 22:53:12.04	155.18	23.00	-49.2	-51.7	6.1	0.00e+00	0	37	104	34384904192	60	47058
2026-01-06 22:53:13.05	155.42	22.83	-49.2	-51.7	6.1	0.00e+00	0	37	104	34384904192	60	47257
2026-01-06 22:53:14.06	155.66	22.66	-49.2	-51.7	6.1	0.00e+00	0	37	104	34384904192	60	47077
2026-01-06 22:53:15.07	155.89	22.49	-49.2	-51.7	6.1	0.00e+00	0	37	104	34384904192	60	46905
2026-01-06 22:53:16.08	156.13	22.33	-49.2	-51.7	6.1	0.00e+00	0	37	104	34384904192	60	47123
2026-01-06 22:53:17.09	156.36	22.16	-49.2	-51.7	6.1	0.00e+00	0	37	104	34384904192	60	47157
2026-01-06 22:53:18.10	156.59	21.99	-49.2	-51.7	6.1	0.00e+00	0	37	104	34384904192	60	47085
2026-01-06 22:53:19.11	156.82	21.83	-49.2	-51.7	6.1	0.00e+00	0	37	104	34384904192	60	46955
2026-01-06 22:53:20.12	157.04	21.66	-49.2	-51.7	6.1	0.00e+00	0	37	104	34384904192	60	46939
2026-01-06 22:53:21.13	157.26	21.50	-49.2	-51.7	6.1	0.00e+00	0	37	104	34384904192	60	46877
2026-01-06 22:53:22.14	157.48	21.34	-49.1	-51.6	6.1	0.00e+00	0	37	104	34384904192	60	46629
2026-01-06 22:53:23.15	157.69	21.18	-49.2	-51.6	6.1	0.00e+00	0	37	104	34384904192	60	46818
2026-01-06 22:53:24.16	157.91	21.01	-49.1	-51.6	6.1	0.00e+00	0	37	104	34384904192	60	46703
2026-01-06 22:53:25.16	158.12	20.86	-49.2	-51.6	6.1	0.00e+00	0	37	104	34384904192	60	46830
2026-01-06 22:53:26.17	158.32	20.70	-49.2	-51.7	6.1	0.00e+00	0	37	104	34384904192	60	47064
2026-01-06 22:53:27.18	158.53	20.54	-49.2	-51.6	6.1	0.00e+00	0	37	104	34384904192	60	46732
2026-01-06 22:53:28.19	158.73	20.38	-49.1	-51.6	6.1	0.00e+00	0	37	104	34384904192	60	46461
2026-01-06 22:53:29.20	158.94	20.23	-49.0	-51.5	6.1	0.00e+00	0	37	104	34384904192	60	46259
2026-01-06 22:53:30.21	159.13	20.07	-49.1	-51.6	6.1	0.00e+00	0	37	104	34384904192	60	46452
2026-01-06 22:53:31.22	159.33	19.92	-49.1	-51.6	6.1	0.00e+00	0	37	104	34384904192	60	46580
2026-01-06 22:53:32.23	159.53	19.76	-49.1	-51.6	6.1	0.00e+00	0	37	104	34384904192	60	46786
2026-01-06 22:53:33.24	159.72	19.61	-49.2	-51.6	6.0	0.00e+00	0	37	104	34384904192	60	46575
2026-01-06 22:53:34.25	159.91	19.46	-49.1	-51.6	6.1	0.00e+00	0	37	104	34384904192	60	46650
2026-01-06 22:53:35.25	160.10	19.31	-49.1	-51.6	6.1	0.00e+00	0	37	104	34384904192	60	46401
2026-01-06 22:53:36.26	160.28	19.16	-49.1	-51.6	6.1	0.00e+00	0	37	104	34384904192	60	46595
2026-01-06 22:53:37.27	160.47	19.01	-49.1	-51.6	6.1	0.00e+00	0	37	104	34384904192	60	46780
2026-01-06 22:53:38.28	160.65	18.86	-49.1	-51.5	6.1	0.00e+00	0	37	104	34384904192	60	46203
2026-01-06 22:53:39.29	160.83	18.72	-49.1	-51.6	6.1	0.00e+00	0	37	104	34384904192	60	46550
2026-01-06 22:53:40.30	161.01	18.57	-49.1	-51.6	6.1	0.00e+00	0	37	104	34384904192	60	46445
2026-01-06 22:53:41.31	161.19	18.42	-49.1	-51.6	6.1	0.00e+00	0	37	104	34384904192	60	46362
2026-01-06 22:53:42.32	161.36	18.28	-49.1	-51.6	6.1	0.00e+00	0	37	104	34384904192	60	46740
2026-01-06 22:53:43.33	161.53	18.13	-49.1	-51.6	6.1	0.00e+00	0	37	104	34384904192	60	46574
2026-01-06 22:53:44.34	161.70	17.99	-49.1	-51.6	6.1	0.00e+00	0	37	104	34384904192	60	46324
2026-01-06 22:53:45.35	161.87	17.85	-49.1	-51.6	6.1	0.00e+00	0	37	104	34384904192	60	46381
2026-01-06 22:53:46.36	162.04	17.71	-49.1	-51.6	6.1	0.00e+00	0	37	104	34384904192	60	46372
2026-01-06 22:53:47.37	162.21	17.57	-49.1	-51.6	6.1	0.00e+00	0	37	104	34384904192	60	46384
2026-01-06 22:53:48.38	162.37	17.43	-49.0	-51.5	6.1	0.00e+00	0	37	104	34384904192	60	46047
2026-01-06 22:53:49.39	162.53	17.29	-49.1	-51.6	6.1	0.00e+00	0	37	104	34384904192	60	46472
2026-01-06 22:53:50.40	162.69	17.15	-49.0	-51.5	6.1	0.00e+00	0	37	104	34384904192	60	45990
2026-01-06 22:53:51.40	162.85	17.01	-49.0	-51.4	6.1	0.00e+00	0	37	104	34384904192	60	45504
2026-01-06 22:53:52.41	163.01	16.88	-49.0	-51.5	6.1	0.00e+00	0	37	104	34384904192	60	46108
2026-01-06 22:53:53.42	163.16	16.74	-49.0	-51.6	6.1	0.00e+00	0	37	104	34384904192	60	46390
2026-01-06 22:53:54.43	163.32	16.61	-49.1	-51.6	6.1	0.00e+00	0	37	104	34384904192	60	46342
2026-01-06 22:53:55.44	163.47	16.47	-49.0	-51.5	6.1	0.00e+00	0	37	104	34384904192	60	46154
2026-01-06 22:53:56.45	163.62	16.34	-49.0	-51.5	6.1	0.00e+00	0	37	104	34384904192	60	45949
2026-01-06 22:53:57.46	163.77	16.21	-49.0	-51.6	6.1	0.00e+00	0	37	104	34384904192	60	46341
2026-01-06 22:53:58.47	163.92	16.07	-49.0	-51.5	6.1	0.00e+00	0	37	104	34384904192	60	46220
2026-01-06 22:53:59.48	164.07	15.94	-49.0	-51.5	6.1	0.00e+00	0	37	104	34384904192	60	46036
2026-01-06 22:54:00.49	164.21	15.81	-49.0	-51.5	6.1	0.00e+00	0	36	104	34384904192	60	46209
2026-01-06 22:54:01.50	164.36	15.68	-49.0	-51.5	6.1	0.00e+00	0	37	104	34384904192	60	46269
2026-01-06 22:54:02.51	164.50	15.55	-49.0	-51.5	6.1	0.00e+00	0	36	104	34384904192	60	45796
2026-01-06 22:54:03.52	164.64	15.43	-49.0	-51.5	6.1	0.00e+00	0	37	104	34384904192	60	45911
2026-01-06 22:54:04.53	164.78	15.30	-49.0	-51.5	6.1	0.00e+00	0	37	104	34384904192	60	45819
2026-01-06 22:54:05.54	164.92	15.17	-49.0	-51.5	6.1	0.00e+00	0	37	104	34384904192	60	46230
2026-01-06 22:54:06.55	165.05	15.05	-49.0	-51.4	6.0	0.00e+00	0	37	104	34384904192	60	45705
2026-01-06 22:54:07.55	165.19	14.92	-49.0	-51.4	6.0	0.00e+00	0	37	104	34384904192	60	45725
2026-01-06 22:54:08.56	165.32	14.80	-49.0	-51.5	6.1	0.00e+00	0	37	104	34384904192	60	46065
2026-01-06 22:54:09.57	165.45	14.67	-49.0	-51.5	6.1	0.00e+00	0	36	104	34384904192	60	45990
2026-01-06 22:54:10.58	165.59	14.55	-49.0	-51.5	6.1	0.00e+00	0	36	104	34384904192	60	45977
2026-01-06 22:54:11.59	165.72	14.43	-49.0	-51.5	6.0	0.00e+00	0	36	104	34384904192	60	45885
2026-01-06 22:54:12.59	165.85	14.31	-49.0	-51.5	6.1	0.00e+00	0	37	104	34384904192	60	46183
2026-01-06 22:54:13.60	165.97	14.18	-49.0	-51.5	6.1	0.00e+00	0	37	104	34384904192	60	45803
2026-01-06 22:54:14.61	166.10	14.06	-49.0	-51.5	6.1	0.00e+00	0	36	104	34384904192	60	46187
2026-01-06 22:54:15.63	166.23	13.94	-49.0	-51.5	6.1	0.00e+00	0	37	104	34384904192	60	45901
2026-01-06 22:54:16.63	166.35	13.82	-49.0	-51.4	6.1	0.00e+00	0	37	104	34384904192	60	45536
2026-01-06 22:54:17.64	166.47	13.71	-48.9	-51.4	6.1	0.00e+00	0	37	104	34384904192	60	45733
2026-01-06 22:54:18.65	166.60	13.59	-49.0	-51.4	6.1	0.00e+00	0	37	104	34384904192	60	45727
2026-01-06 22:54:19.66	166.72	13.47	-48.9	-51.4	6.1	0.00e+00	0	37	104	34384904192	60	45764
2026-01-06 22:54:20.67	166.84	13.35	-49.0	-51.5	6.1	0.00e+00	0	37	104	34384904192	60	46288
2026-01-06 22:54:21.68	166.96	13.24	-48.9	-51.5	6.1	0.00e+00	0	37	104	34384904192	60	45828
2026-01-06 22:54:22.69	167.08	13.12	-48.9	-51.5	6.1	0.00e+00	0	37	104	34384904192	60	45783
2026-01-06 22:54:23.70	167.19	13.01	-48.9	-51.4	6.1	0.00e+00	0	37	104	34384904192	60	45378
2026-01-06 22:54:24.71	167.31	12.89	-49.0	-51.5	6.1	0.00e+00	0	37	104	34384904192	60	45788
2026-01-06 22:54:25.71	167.42	12.78	-48.9	-51.4	6.1	0.00e+00	0	37	104	34384904192	60	45688
2026-01-06 22:54:26.72	167.54	12.67	-48.9	-51.4	6.1	0.00e+00	0	37	104	34384904192	60	45622
2026-01-06 22:54:27.74	167.65	12.55	-48.9	-51.4	6.1	0.00e+00	0	37	104	34384904192	60	45583
2026-01-06 22:54:28.75	167.76	12.44	-49.0	-51.4	6.1	0.00e+00	0	37	104	34384904192	60	45729
2026-01-06 22:54:29.76	167.87	12.33	-49.0	-51.5	6.1	0.00e+00	0	37	104	34384904192	60	45921
2026-01-06 22:54:30.77	167.98	12.22	-48.9	-51.4	6.1	0.00e+00	0	37	104	34384904192	60	45345
2026-01-06 22:54:31.78	168.09	12.11	-48.9	-51.4	6.1	0.00e+00	0	37	104	34384904192	60	45509
2026-01-06 22:54:32.79	168.20	12.00	-49.0	-51.4	6.1	0.00e+00	0	37	104	34384904192	60	45705
2026-01-06 22:54:33.79	168.31	11.89	-48.9	-51.4	6.1	0.00e+00	0	37	104	34384904192	60	45623
2026-01-06 22:54:34.80	168.41	11.78	-48.9	-51.5	6.1	0.00e+00	0	37	104	34384904192	60	45925
2026-01-06 22:54:35.81	168.52	11.68	-48.9	-51.4	6.1	0.00e+00	0	37	104	34384904192	60	45352
2026-01-06 22:54:36.82	168.62	11.57	-49.0	-51.4	6.1	0.00e+00	0	37	104	34384904192	60	45599
2026-01-06 22:54:37.83	168.72	11.46	-48.9	-51.4	6.1	0.00e+00	0	37	104	34384904192	60	45588
2026-01-06 22:54:38.84	168.83	11.36	-48.9	-51.4	6.1	0.00e+00	0	36	104	34384904192	60	45522
2026-01-06 22:54:39.85	168.93	11.25	-48.8	-51.3	6.1	0.00e+00	0	37	104	34384904192	60	45142
2026-01-06 22:54:40.86	169.03	11.15	-48.9	-51.4	6.1	0.00e+00	0	37	104	34384904192	60	45267
2026-01-06 22:54:41.87	169.13	11.04	-48.9	-51.3	6.1	0.00e+00	0	37	104	34384904192	60	45114
2026-01-06 22:54:42.87	169.23	10.94	-48.9	-51.4	6.1	0.00e+00	0	37	104	34384904192	60	45449
2026-01-06 22:54:43.88	169.33	10.83	-48.7	-51.3	6.1	0.00e+00	0	37	104	34384904192	60	44766
2026-01-06 22:54:44.89	169.42	10.73	-48.9	-51.4	6.1	0.00e+00	0	37	104	34384904192	60	45411
2026-01-06 22:54:45.90	169.52	10.63	-48.9	-51.3	6.1	0.00e+00	0	37	104	34384904192	60	45190
2026-01-06 22:54:46.91	169.62	10.53	-48.9	-51.4	6.1	0.00e+00	0	37	104	34384904192	60	45267
2026-01-06 22:54:47.92	169.71	10.43	-48.7	-51.2	6.1	0.00e+00	0	37	104	34384904192	60	44660
2026-01-06 22:54:48.93	169.81	10.32	-48.9	-51.4	6.1	0.00e+00	0	37	104	34384904192	60	45379
2026-01-06 22:54:49.94	169.90	10.22	-48.8	-51.3	6.1	0.00e+00	0	37	104	34384904192	60	44993
2026-01-06 22:54:50.95	169.99	10.12	-48.8	-51.3	6.1	0.00e+00	0	37	104	34384904192	60	44760
2026-01-06 22:54:51.96	170.09	10.02	-48.7	-51.2	6.1	0.00e+00	0	37	104	34384904192	60	44536
2026-01-06 22:54:52.97	170.18	9.92	-48.8	-51.3	6.1	0.00e+00	0	37	104	34384904192	60	45094
2026-01-06 22:54:53.98	170.27	9.83	-48.7	-51.1	6.1	0.00e+00	0	37	104	34384904192	60	44179
2026-01-06 22:54:54.99	170.36	9.73	-48.8	-51.3	6.1	0.00e+00	0	37	104	34384904192	60	44819
2026-01-06 22:54:56.00	170.45	9.63	-48.7	-51.2	6.1	0.00e+00	0	37	104	34384904192	60	44297
2026-01-06 22:54:57.01	170.54	9.53	-48.7	-51.2	6.1	0.00e+00	0	37	104	34384904192	60	44642
2026-01-06 22:54:58.02	170.63	9.44	-48.6	-51.1	6.1	0.00e+00	0	37	104	34384904192	60	44011
2026-01-06 22:54:59.03	170.71	9.34	-48.7	-51.2	6.1	0.00e+00	0	37	104	34384904192	60	44469
2026-01-06 22:55:00.04	170.80	9.24	-48.6	-51.1	6.1	0.00e+00	0	37	104	34384904192	60	43851
2026-01-06 22:55:01.05	170.89	9.15	-48.7	-51.2	6.1	0.00e+00	0	37	104	34384904192	60	44510
2026-01-06 22:55:02.06	170.97	9.05	-48.6	-51.1	6.1	0.00e+00	0	37	104	34384904192	60	43889
2026-01-06 22:55:03.07	171.06	8.96	-48.6	-51.0	6.1	0.00e+00	0	37	104	34384904192	60	43690
2026-01-06 22:55:04.08	171.14	8.86	-48.5	-51.0	6.1	0.00e+00	0	37	104	34384904192	60	43523
2026-01-06 22:55:05.08	171.22	8.77	-48.7	-51.1	6.1	0.00e+00	0	37	104	34384904192	60	44145
2026-01-06 22:55:06.10	171.31	8.68	-48.6	-51.0	6.1	0.00e+00	0	37	104	34384904192	60	43660
2026-01-06 22:55:07.10	171.39	8.58	-48.6	-51.1	6.1	0.00e+00	0	37	104	34384904192	60	43850
2026-01-06 22:55:08.11	171.47	8.49	-48.5	-50.9	6.1	0.00e+00	0	36	104	34384904192	60	43109
2026-01-06 22:55:09.12	171.55	8.40	-48.6	-51.1	6.1	0.00e+00	0	37	104	34384904192	60	44149
2026-01-06 22:55:10.13	171.63	8.31	-48.5	-51.0	6.1	0.00e+00	0	37	104	34384904192	60	43519
2026-01-06 22:55:11.14	171.71	8.22	-48.6	-51.1	6.1	0.00e+00	0	37	104	34384904192	60	43923
2026-01-06 22:55:12.15	171.79	8.13	-48.5	-51.0	6.1	0.00e+00	0	36	104	34384904192	60	43566
2026-01-06 22:55:13.16	171.87	8.04	-48.6	-51.1	6.1	0.00e+00	0	37	104	34384904192	60	43895
2026-01-06 22:55:14.17	171.95	7.94	-48.4	-50.9	6.1	0.00e+00	0	36	104	34384904192	60	43071
2026-01-06 22:55:15.18	172.02	7.86	-48.5	-51.0	6.1	0.00e+00	0	37	104	34384904192	60	43703
2026-01-06 22:55:16.19	172.10	7.77	-48.5	-51.0	6.1	0.00e+00	0	37	104	34384904192	60	43259
2026-01-06 22:55:17.20	172.18	7.68	-48.6	-51.1	6.1	0.00e+00	0	37	104	34384904192	60	43783
2026-01-06 22:55:18.21	172.25	7.59	-48.5	-51.0	6.1	0.00e+00	0	36	104	34384904192	60	43357
2026-01-06 22:55:19.22	172.33	7.50	-48.6	-51.1	6.1	0.00e+00	0	37	104	34384904192	60	43740
2026-01-06 22:55:20.23	172.40	7.41	-48.5	-51.0	6.1	0.00e+00	0	37	104	34384904192	60	43235
2026-01-06 22:55:21.24	172.48	7.32	-48.6	-51.0	6.1	0.00e+00	0	36	104	34384904192	60	43660
2026-01-06 22:55:22.25	172.55	7.24	-48.5	-51.0	6.1	0.00e+00	0	36	104	34384904192	60	43292
2026-01-06 22:55:23.26	172.63	7.15	-48.5	-51.0	6.1	0.00e+00	0	37	104	34384904192	60	43507
2026-01-06 22:55:24.26	172.70	7.06	-48.5	-51.0	6.1	0.00e+00	0	36	104	34384904192	60	43356
2026-01-06 22:55:25.27	172.77	6.98	-48.6	-51.1	6.1	0.00e+00	0	37	104	34384904192	60	43926
2026-01-06 22:55:26.28	172.84	6.89	-48.4	-50.9	6.1	0.00e+00	0	37	104	34384904192	60	43156
2026-01-06 22:55:27.29	172.91	6.81	-48.5	-51.0	6.1	0.00e+00	0	37	104	34384904192	60	43597
2026-01-06 22:55:28.30	172.98	6.72	-48.4	-51.0	6.1	0.00e+00	0	37	104	34384904192	60	43315
2026-01-06 22:55:29.31	173.05	6.64	-48.5	-51.0	6.1	0.00e+00	0	37	104	34384904192	60	43571
2026-01-06 22:55:30.32	173.12	6.55	-48.5	-50.9	6.1	0.00e+00	0	37	104	34384904192	60	43058
2026-01-06 22:55:31.33	173.19	6.47	-48.4	-50.9	6.0	0.00e+00	0	37	104	34384904192	60	42957
2026-01-06 22:55:32.34	173.26	6.39	-48.3	-50.8	6.1	0.00e+00	0	37	104	34384904192	60	42656
2026-01-06 22:55:33.34	173.33	6.30	-48.6	-51.0	6.1	0.00e+00	0	37	104	34384904192	60	43421
2026-01-06 22:55:34.35	173.40	6.22	-48.4	-50.8	6.1	0.00e+00	0	37	104	34384904192	60	42666
2026-01-06 22:55:35.36	173.46	6.14	-48.5	-51.0	6.1	0.00e+00	0	37	104	34384904192	60	43299
2026-01-06 22:55:36.37	173.53	6.06	-48.4	-50.9	6.1	0.00e+00	0	37	104	34384904192	60	42860
2026-01-06 22:55:37.38	173.60	5.97	-48.5	-51.0	6.1	0.00e+00	0	37	104	34384904192	60	43369
2026-01-06 22:55:38.38	173.66	5.89	-48.4	-50.9	6.1	0.00e+00	0	37	104	34384904192	60	42885
2026-01-06 22:55:39.39	173.73	5.81	-48.4	-50.9	6.1	0.00e+00	0	37	104	34384904192	60	42833
2026-01-06 22:55:40.40	173.79	5.73	-48.3	-50.8	6.1	0.00e+00	0	37	104	34384904192	60	42605
2026-01-06 22:55:41.41	173.86	5.65	-48.5	-50.9	6.1	0.00e+00	0	37	104	34384904192	60	43206
2026-01-06 22:55:42.42	173.92	5.57	-48.4	-50.9	6.0	0.00e+00	0	37	104	34384904192	60	42719
2026-01-06 22:55:43.43	173.99	5.49	-48.4	-50.9	6.1	0.00e+00	0	37	104	34384904192	60	42777
2026-01-06 22:55:44.44	174.05	5.41	-48.4	-50.9	6.1	0.00e+00	0	37	104	34384904192	60	43000
2026-01-06 22:55:45.45	174.11	5.33	-48.3	-50.9	6.1	0.00e+00	0	37	104	34384904192	60	42803
2026-01-06 22:55:46.46	174.18	5.25	-48.3	-50.8	6.1	0.00e+00	0	37	104	34384904192	60	42670
2026-01-06 22:55:47.47	174.24	5.17	-48.4	-50.8	6.1	0.00e+00	0	37	104	34384904192	60	42489
2026-01-06 22:55:48.48	174.30	5.09	-48.3	-50.9	6.1	0.00e+00	0	37	104	34384904192	60	42749
2026-01-06 22:55:49.49	174.36	5.01	-48.3	-50.8	6.1	0.00e+00	0	37	104	34384904192	60	42444
2026-01-06 22:55:50.50	174.42	4.94	-48.2	-50.7	6.1	0.00e+00	0	37	104	34384904192	60	42162
2026-01-06 22:55:51.51	174.48	4.86	-48.3	-50.7	6.1	0.00e+00	0	37	104	34384904192	60	42216
2026-01-06 22:55:52.52	174.54	4.78	-48.3	-50.8	6.1	0.00e+00	0	37	104	34384904192	60	42256
2026-01-06 22:55:53.52	174.60	4.70	-48.3	-50.8	6.1	0.00e+00	0	37	104	34384904192	60	42445
2026-01-06 22:55:54.54	174.66	4.63	-48.3	-50.8	6.1	0.00e+00	0	37	104	34384904192	60	42493
2026-01-06 22:55:55.54	174.72	4.55	-48.2	-50.7	6.1	0.00e+00	0	36	104	34384904192	60	41934
2026-01-06 22:55:56.56	174.78	4.47	-48.3	-50.8	6.1	0.00e+00	0	36	104	34384904192	60	42382
2026-01-06 22:55:57.57	174.84	4.40	-48.3	-50.7	6.1	0.00e+00	0	37	104	34384904192	60	42201
2026-01-06 22:55:58.58	174.90	4.32	-48.3	-50.8	6.1	0.00e+00	0	37	104	34384904192	60	42316
2026-01-06 22:55:59.59	174.96	4.24	-48.3	-50.7	6.1	0.00e+00	0	37	104	34384904192	60	42137
2026-01-06 22:56:00.59	175.01	4.17	-48.3	-50.8	6.0	0.00e+00	0	37	104	34384904192	60	42487
2026-01-06 22:56:01.60	175.07	4.09	-48.4	-50.9	6.1	0.00e+00	0	37	104	34384904192	60	43143
2026-01-06 22:56:02.61	175.13	4.02	-48.3	-50.8	6.1	0.00e+00	0	37	104	34384904192	60	42663
2026-01-06 22:56:03.62	175.18	3.94	-48.2	-50.7	6.1	0.00e+00	0	37	104	34384904192	60	42010
2026-01-06 22:56:04.63	175.24	3.87	-48.3	-50.8	6.1	0.00e+00	0	36	104	34384904192	60	42625
2026-01-06 22:56:05.64	175.30	3.80	-48.2	-50.7	6.1	0.00e+00	0	37	104	34384904192	60	41792
2026-01-06 22:56:06.65	175.35	3.72	-48.2	-50.7	6.1	0.00e+00	0	36	104	34384904192	60	42082
2026-01-06 22:56:07.66	175.41	3.65	-48.2	-50.7	6.1	0.00e+00	0	36	104	34384904192	60	41774
2026-01-06 22:56:08.67	175.46	3.57	-48.2	-50.7	6.1	0.00e+00	0	36	104	34384904192	60	41882
2026-01-06 22:56:09.68	175.52	3.50	-48.1	-50.6	6.1	0.00e+00	0	36	104	34384904192	60	41331
2026-01-06 22:56:10.69	175.57	3.43	-48.2	-50.7	6.1	0.00e+00	0	36	104	34384904192	60	41985
2026-01-06 22:56:11.70	175.62	3.36	-48.1	-50.6	6.1	0.00e+00	0	37	104	34384904192	60	41637
2026-01-06 22:56:12.71	175.68	3.28	-48.2	-50.7	6.1	0.00e+00	0	36	104	34384904192	60	41831
2026-01-06 22:56:13.72	175.73	3.21	-47.8	-50.3	6.1	0.00e+00	0	37	104	34384904192	60	40124
2026-01-06 22:56:14.73	175.78	3.14	-48.2	-50.6	6.1	0.00e+00	0	36	104	34384904192	60	41713
2026-01-06 22:56:15.74	175.84	3.07	-48.0	-50.5	6.1	0.00e+00	0	37	104	34384904192	60	41077
2026-01-06 22:56:16.75	175.89	3.00	-48.3	-50.8	6.1	0.00e+00	0	37	104	34384904192	60	42667
2026-01-06 22:56:17.75	175.94	2.93	-48.8	-51.3	6.1	0.00e+00	0	37	104	34384904192	60	45087
2026-01-06 22:56:18.76	175.99	2.85	-48.9	-51.5	6.1	0.00e+00	0	37	104	34384904192	60	45802
2026-01-06 22:56:19.77	176.04	2.78	-49.2	-51.7	6.1	0.00e+00	0	36	104	34384904192	60	47014
2026-01-06 22:56:20.78	176.09	2.71	-49.3	-51.8	6.1	0.00e+00	0	36	104	34384904192	60	47527
2026-01-06 22:56:21.79	176.14	2.64	-49.3	-51.8	6.1	0.00e+00	0	36	104	34384904192	60	47622
2026-01-06 22:56:22.80	176.19	2.57	-49.3	-51.8	6.1	0.00e+00	0	36	104	34384904192	60	47884
2026-01-06 22:56:23.81	176.25	2.50	-49.4	-51.9	6.1	0.00e+00	0	37	104	34384904192	60	48013
2026-01-06 22:56:24.82	176.30	2.43	-49.4	-51.9	6.1	0.00e+00	0	37	104	34384904192	60	48347
2026-01-06 22:56:25.83	176.34	2.36	-49.4	-51.9	6.1	0.00e+00	0	37	104	34384904192	60	48266
2026-01-06 22:56:26.84	176.39	2.29	-49.4	-51.9	6.1	0.00e+00	0	37	104	34384904192	60	48274
2026-01-06 22:56:27.85	176.44	2.22	-49.4	-51.9	6.0	0.00e+00	0	37	104	34384904192	60	48006
2026-01-06 22:56:28.86	176.49	2.16	-49.4	-52.0	6.1	0.00e+00	0	37	104	34384904192	60	48485
2026-01-06 22:56:29.87	176.54	2.09	-49.4	-51.8	6.1	0.00e+00	0	37	104	34384904192	60	47701
2026-01-06 22:56:30.88	176.59	2.02	-49.4	-51.9	6.1	0.00e+00	0	37	104	34384904192	60	48016
2026-01-06 22:56:31.89	176.64	1.95	-49.4	-51.9	6.1	0.00e+00	0	37	104	34384904192	60	48051
2026-01-06 22:56:32.90	176.68	1.88	-49.4	-51.9	6.1	0.00e+00	0	37	104	34384904192	60	47973
2026-01-06 22:56:33.90	176.73	1.81	-49.4	-51.9	6.1	0.00e+00	0	37	104	34384904192	60	48063
2026-01-06 22:56:34.91	176.78	1.75	-49.4	-51.9	6.1	0.00e+00	0	37	104	34384904192	60	48066
2026-01-06 22:56:35.92	176.83	1.68	-49.4	-51.8	6.1	0.00e+00	0	37	104	34384904192	60	47679
2026-01-06 22:56:36.93	176.87	1.61	-49.4	-51.8	6.1	0.00e+00	0	37	104	34384904192	60	47751
2026-01-06 22:56:37.94	176.92	1.54	-49.3	-51.8	6.1	0.00e+00	0	37	104	34384904192	60	47728
2026-01-06 22:56:38.95	176.97	1.48	-49.3	-51.8	6.1	0.00e+00	0	37	104	34384904192	60	47778
2026-01-06 22:56:39.96	177.01	1.41	-49.3	-51.9	6.1	0.00e+00	0	36	104	34384904192	60	48014
2026-01-06 22:56:40.97	177.06	1.34	-49.3	-51.8	6.1	0.00e+00	0	36	104	34384904192	60	47642
2026-01-06 22:56:41.99	177.10	1.28	-49.3	-51.8	6.1	0.00e+00	0	37	104	34384904192	60	47669
2026-01-06 22:56:42.99	177.15	1.21	-49.3	-51.8	6.1	0.00e+00	0	36	104	34384904192	60	47878
2026-01-06 22:56:44.01	177.19	1.14	-49.3	-51.8	6.1	0.00e+00	0	37	104	34384904192	60	47845
2026-01-06 22:56:45.02	177.24	1.08	-49.3	-51.9	6.1	0.00e+00	0	37	104	34384904192	60	48040
2026-01-06 22:56:46.02	177.28	1.01	-49.3	-51.8	6.1	0.00e+00	0	36	104	34384904192	60	47609
2026-01-06 22:56:47.03	177.33	0.95	-49.3	-51.8	6.1	0.00e+00	0	36	104	34384904192	60	47873
2026-01-06 22:56:48.04	177.37	0.88	-49.3	-51.8	6.1	0.00e+00	0	37	104	34384904192	60	47788
2026-01-06 22:56:49.05	177.42	0.82	-49.3	-51.8	6.1	0.00e+00	0	37	104	34384904192	60	47867
2026-01-06 22:56:50.06	177.46	0.75	-49.3	-51.8	6.1	0.00e+00	0	37	104	34384904192	60	47882
2026-01-06 22:56:51.07	177.50	0.69	-49.3	-51.9	6.1	0.00e+00	0	37	104	34384904192	60	47940
2026-01-06 22:56:52.08	177.55	0.62	-49.3	-51.8	6.1	0.00e+00	0	37	104	34384904192	60	47788
2026-01-06 22:56:53.09	177.59	0.56	-49.3	-51.8	6.1	0.00e+00	0	37	104	34384904192	60	47683
2026-01-06 22:56:54.10	177.63	0.50	-49.3	-51.8	6.1	0.00e+00	0	37	104	34384904192	60	47820
2026-01-06 22:56:55.11	177.67	0.43	-49.3	-51.8	6.1	0.00e+00	0	37	104	34384904192	60	47672
2026-01-06 22:56:56.12	177.72	0.37	-49.3	-51.8	6.1	0.00e+00	0	37	104	34384904192	60	47713
2026-01-06 22:56:57.13	177.76	0.30	-49.3	-51.8	6.1	0.00e+00	0	37	104	34384904192	60	47810
2026-01-06 22:56:58.14	177.80	0.24	-49.3	-51.8	6.1	0.00e+00	0	36	104	34384904192	60	47731
2026-01-06 22:56:59.15	177.84	0.18	-49.3	-51.8	6.1	0.00e+00	0	36	104	34384904192	60	47645
2026-01-06 22:57:00.16	177.88	0.11	-49.3	-51.8	6.1	0.00e+00	0	36	104	34384904192	60	47880
2026-01-06 22:57:01.17	177.92	0.05	-49.3	-51.8	6.1	0.00e+00	0	37	104	34384904192	60	47540
2026-01-06 22:57:02.18	177.97	-0.01	-49.3	-51.8	6.1	0.00e+00	0	36	104	34384904192	60	47717

#Closed at: 2026-01-06 22:57:02
#Recorded file [34384 MB]: D:/lorett/data/35029_260107_104605.dat