passes_logs/2026/01/06/R4.6S_Anadyr/R4.6S_Anadyr__20260106_020841_SUOMI_NPP_rec.log

#Pass ID: 20260106_020841_SUOMI NPP
#Satellite: SUOMI NPP
#Configuration: NPP
#almurnet v.1.7.20251203
#Start time: 2026-01-06 02:08:44

#Version: 2.2.20231116
#Station: R4.6S_Anadyr
#Location: 177.4865 lon 64.73178 lat
#TLE: 1 37849U 11061A   26004.95404768  .00000136  00000+0  85334-4 0  9991
#TLE: 2 37849  98.7801 307.0898 0002575  80.6707 279.4760 14.19522289735281

#Time	Az	El	Level	Level2	SNR	BER	BlckErr	Temp	State	Recorded	gain1	gain2
2026-01-06 02:08:44.27	204.40	0.17	-48.7	-62.5	3.3	1.54e+00	0	32	0	0	60	47935
2026-01-06 02:08:45.27	204.46	0.22	-48.6	-63.9	3.6	1.51e+00	0	32	104	0	60	56452
2026-01-06 02:08:46.29	204.52	0.28	-48.5	-63.9	3.6	1.51e+00	0	32	104	0	60	56714
2026-01-06 02:08:47.30	204.58	0.33	-48.5	-63.9	3.6	1.51e+00	0	32	104	0	60	56333
2026-01-06 02:08:48.31	204.64	0.39	-48.6	-63.9	3.6	1.51e+00	0	32	104	0	60	56602
2026-01-06 02:08:49.31	204.70	0.44	-48.6	-63.8	3.6	1.51e+00	0	33	104	0	60	56172
2026-01-06 02:08:50.33	204.76	0.50	-48.6	-63.8	3.6	1.51e+00	0	32	104	0	60	55809
2026-01-06 02:08:51.33	204.82	0.55	-48.5	-63.7	3.6	1.51e+00	0	32	104	0	60	55506
2026-01-06 02:08:52.35	204.89	0.61	-48.2	-63.6	3.6	1.51e+00	0	32	104	0	60	54966
2026-01-06 02:08:53.36	204.95	0.66	-48.1	-63.5	3.6	1.51e+00	0	32	104	0	60	54234
2026-01-06 02:08:54.37	205.01	0.72	-48.2	-63.4	3.6	1.51e+00	0	33	104	0	60	53649
2026-01-06 02:08:55.37	205.07	0.77	-47.9	-63.2	3.6	1.51e+00	0	33	104	0	60	52406
2026-01-06 02:08:56.38	205.13	0.83	-47.7	-62.9	3.6	1.51e+00	0	33	104	0	60	50483
2026-01-06 02:08:57.40	205.20	0.88	-47.3	-62.4	3.6	1.51e+00	0	33	104	0	60	47616
2026-01-06 02:08:58.40	205.26	0.94	-47.2	-62.4	3.6	1.51e+00	0	33	104	0	60	47464
2026-01-06 02:08:59.42	205.32	0.99	-47.2	-62.3	3.6	1.51e+00	0	33	104	0	60	47306
2026-01-06 02:09:00.42	205.38	1.05	-47.2	-62.4	3.6	1.51e+00	0	33	104	0	60	47402
2026-01-06 02:09:01.43	205.45	1.10	-47.2	-62.3	3.6	1.51e+00	0	33	104	0	60	47231
2026-01-06 02:09:02.45	205.51	1.16	-47.2	-62.3	3.6	1.51e+00	0	33	104	0	60	47112
2026-01-06 02:09:03.45	205.57	1.21	-47.2	-62.3	3.6	1.51e+00	0	33	104	0	60	47173
2026-01-06 02:09:04.46	205.64	1.27	-47.2	-62.4	3.6	1.51e+00	0	33	104	0	60	47439
2026-01-06 02:09:05.47	205.70	1.32	-47.2	-62.3	3.6	1.51e+00	0	33	104	0	60	47038
2026-01-06 02:09:06.48	205.77	1.38	-47.2	-62.4	3.6	1.51e+00	0	33	104	0	60	47480
2026-01-06 02:09:07.49	205.83	1.44	-47.2	-62.4	3.6	1.51e+00	0	33	104	0	60	47753
2026-01-06 02:09:08.50	205.90	1.49	-47.2	-62.4	3.6	1.51e+00	0	33	104	0	60	47558
2026-01-06 02:09:09.51	205.96	1.55	-47.2	-62.4	3.5	1.51e+00	0	33	104	0	60	47407
2026-01-06 02:09:10.52	206.03	1.61	-47.2	-62.4	3.6	1.51e+00	0	33	104	0	60	47706
2026-01-06 02:09:11.53	206.09	1.66	-47.2	-62.4	3.6	1.51e+00	0	33	104	0	60	47572
2026-01-06 02:09:12.54	206.16	1.72	-47.2	-62.4	3.6	1.51e+00	0	33	104	0	60	47715
2026-01-06 02:09:13.55	206.22	1.77	-47.2	-62.4	3.6	1.51e+00	0	33	104	0	60	47675
2026-01-06 02:09:14.56	206.29	1.83	-47.2	-62.3	3.6	1.51e+00	0	33	104	0	60	47327
2026-01-06 02:09:15.57	206.36	1.89	-47.2	-62.4	3.6	1.51e+00	0	33	104	0	60	47390
2026-01-06 02:09:16.57	206.42	1.94	-47.2	-62.3	3.6	1.51e+00	0	33	104	0	60	47255
2026-01-06 02:09:17.58	206.49	2.00	-47.2	-62.2	3.6	1.51e+00	0	33	104	0	60	46833
2026-01-06 02:09:18.60	206.56	2.06	-47.2	-62.3	3.6	1.51e+00	0	33	104	0	60	47165
2026-01-06 02:09:19.61	206.63	2.11	-47.2	-62.3	3.6	1.51e+00	0	33	104	0	60	47246
2026-01-06 02:09:20.62	206.69	2.17	-47.2	-62.3	3.6	1.51e+00	0	33	104	0	60	47250
2026-01-06 02:09:21.63	206.76	2.23	-47.2	-62.3	3.6	1.51e+00	0	33	104	0	60	46920
2026-01-06 02:09:22.64	206.83	2.29	-47.2	-62.4	3.6	1.51e+00	0	33	104	0	60	47390
2026-01-06 02:09:23.65	206.90	2.34	-47.2	-62.4	3.6	1.51e+00	0	33	104	0	60	47515
2026-01-06 02:09:24.66	206.97	2.40	-47.2	-62.4	3.6	1.51e+00	0	33	104	0	60	47719
2026-01-06 02:09:25.67	207.04	2.46	-47.2	-62.1	3.6	1.51e+00	0	33	104	0	60	46003
2026-01-06 02:09:26.68	207.11	2.52	-47.2	-61.7	3.6	1.51e+00	0	33	104	0	60	44042
2026-01-06 02:09:27.69	207.18	2.57	-47.2	-61.0	3.6	1.51e+00	0	33	104	0	60	40736
2026-01-06 02:09:28.70	207.25	2.63	-47.2	-60.5	3.6	1.51e+00	0	33	104	0	60	38104
2026-01-06 02:09:29.71	207.32	2.69	-47.2	-60.8	3.6	1.51e+00	0	33	104	0	60	39704
2026-01-06 02:09:30.72	207.39	2.75	-47.2	-61.4	3.6	1.51e+00	0	33	104	0	60	42510
2026-01-06 02:09:31.73	207.46	2.80	-47.2	-61.2	3.6	1.51e+00	0	33	104	0	60	41405
2026-01-06 02:09:32.74	207.53	2.86	-47.0	-57.8	4.6	1.50e+00	0	33	104	0	60	27942
2026-01-06 02:09:33.75	207.60	2.92	-46.4	-53.3	7.5	1.83e-01	0	33	0	0	60	16646
2026-01-06 02:09:34.76	207.67	2.98	-45.5	-50.2	10.8	1.11e-02	0	33	0	2097152	60	11632
2026-01-06 02:09:35.77	207.74	3.04	-44.6	-48.1	13.3	2.90e-04	0	33	0	4194304	60	9211
2026-01-06 02:09:36.78	207.81	3.10	-43.9	-46.8	14.4	2.20e-06	0	33	0	5242880	60	7937
2026-01-06 02:09:37.79	207.89	3.15	-43.4	-46.1	15.3	0.00e+00	0	33	0	7340032	60	7304
2026-01-06 02:09:38.80	207.96	3.21	-43.3	-45.9	15.4	0.00e+00	0	33	0	9437184	60	7129
2026-01-06 02:09:39.81	208.03	3.27	-47.4	-60.2	3.4	0.00e+00	44	33	0	11534336	60	37182
2026-01-06 02:09:40.82	208.10	3.33	-46.3	-52.8	5.1	1.48e+00	0	33	104	11534336	60	15840
2026-01-06 02:09:41.82	208.18	3.39	-45.2	-49.6	8.5	3.00e-06	0	33	0	11534336	60	10966
2026-01-06 02:09:42.83	208.25	3.45	-47.1	-61.9	3.6	6.53e-01	0	33	104	12582912	60	45243
2026-01-06 02:09:43.85	208.33	3.51	-41.9	-43.8	16.7	9.92e-01	0	33	104	12582912	54	7867
2026-01-06 02:09:44.86	208.40	3.57	-42.4	-44.4	17.1	0.00e+00	0	33	0	12582912	58	6718
2026-01-06 02:09:45.87	208.47	3.63	-42.5	-44.6	17.0	0.00e+00	0	33	0	14680064	58	6855
2026-01-06 02:09:46.87	208.55	3.68	-42.9	-45.2	16.3	0.00e+00	0	33	0	16777216	58	7354
2026-01-06 02:09:47.89	208.62	3.74	-42.9	-45.2	16.7	0.00e+00	0	33	0	18874368	58	7342
2026-01-06 02:09:48.89	208.70	3.80	-42.6	-44.7	17.1	0.00e+00	0	33	0	20971520	58	6938
2026-01-06 02:09:49.90	208.77	3.86	-42.8	-45.0	16.4	0.00e+00	0	33	0	22020096	58	7184
2026-01-06 02:09:50.91	208.85	3.92	-42.1	-44.0	17.7	0.00e+00	0	33	0	24117248	58	6464
2026-01-06 02:09:51.92	208.93	3.98	-41.6	-43.4	18.1	0.00e+00	0	33	0	26214400	56	6703
2026-01-06 02:09:52.94	209.00	4.04	-40.8	-42.4	19.1	0.00e+00	0	33	0	28311552	56	5977
2026-01-06 02:09:53.95	209.08	4.10	-40.6	-42.1	19.3	0.00e+00	0	33	0	30408704	54	6477
2026-01-06 02:09:54.96	209.16	4.16	-40.4	-41.9	19.5	0.00e+00	0	33	0	31457280	54	6354
2026-01-06 02:09:55.97	209.23	4.22	-40.4	-41.8	19.4	0.00e+00	0	33	0	33554432	54	6296
2026-01-06 02:09:56.98	209.31	4.28	-40.1	-41.5	19.9	0.00e+00	0	33	0	35651584	54	6065
2026-01-06 02:09:57.99	209.39	4.34	-40.2	-41.5	19.9	0.00e+00	0	33	0	37748736	54	6085
2026-01-06 02:09:59.00	209.47	4.40	-40.0	-41.4	20.0	0.00e+00	0	33	0	39845888	54	5969
2026-01-06 02:10:00.01	209.55	4.46	-40.0	-41.4	20.0	0.00e+00	0	33	0	40894464	54	5980
2026-01-06 02:10:01.01	209.62	4.52	-40.1	-41.5	19.9	0.00e+00	0	33	0	42991616	54	6071
2026-01-06 02:10:02.02	209.70	4.59	-40.0	-41.4	20.1	0.00e+00	0	33	0	45088768	54	5966
2026-01-06 02:10:03.04	209.78	4.65	-40.0	-41.3	20.1	0.00e+00	0	33	0	47185920	54	5938
2026-01-06 02:10:04.05	209.86	4.71	-39.8	-41.1	20.3	0.00e+00	0	33	0	49283072	54	5808
2026-01-06 02:10:05.05	209.94	4.77	-39.8	-41.1	20.3	0.00e+00	0	33	0	50331648	54	5826
2026-01-06 02:10:06.06	210.02	4.83	-39.5	-40.8	20.6	0.00e+00	0	33	0	52428800	52	6273
2026-01-06 02:10:07.07	210.11	4.89	-39.8	-41.0	20.4	0.00e+00	0	33	0	54525952	52	6452
2026-01-06 02:10:08.08	210.19	4.95	-39.5	-40.7	20.7	0.00e+00	0	33	0	56623104	52	6245
2026-01-06 02:10:09.09	210.27	5.01	-39.5	-40.8	20.6	0.00e+00	0	33	0	58720256	52	6269
2026-01-06 02:10:10.10	210.35	5.07	-39.4	-40.6	20.8	0.00e+00	0	33	0	59768832	52	6159
2026-01-06 02:10:11.11	210.43	5.14	-39.3	-40.5	20.9	0.00e+00	0	33	0	61865984	52	6086
2026-01-06 02:10:12.12	210.51	5.20	-39.2	-40.4	21.1	0.00e+00	0	33	0	63963136	52	5986
2026-01-06 02:10:13.13	210.60	5.26	-39.0	-40.2	21.1	0.00e+00	0	33	0	66060288	52	5849
2026-01-06 02:10:14.14	210.68	5.32	-39.1	-40.3	21.1	0.00e+00	0	33	0	68157440	52	5937
2026-01-06 02:10:15.15	210.76	5.38	-39.1	-40.2	21.0	0.00e+00	0	33	0	69206016	52	5894
2026-01-06 02:10:16.15	210.85	5.44	-39.3	-40.5	21.0	0.00e+00	0	33	0	71303168	52	6066
2026-01-06 02:10:17.16	210.93	5.51	-39.0	-40.1	21.3	0.00e+00	0	33	0	73400320	52	5803
2026-01-06 02:10:18.17	211.01	5.57	-39.0	-40.1	21.2	0.00e+00	0	33	0	75497472	52	5820
2026-01-06 02:10:19.18	211.10	5.63	-39.0	-40.2	21.3	0.00e+00	0	33	0	77594624	52	5857
2026-01-06 02:10:20.19	211.18	5.69	-39.1	-40.2	21.0	0.00e+00	0	33	0	78643200	52	5883
2026-01-06 02:10:21.20	211.27	5.76	-39.4	-40.6	20.9	0.00e+00	0	33	0	80740352	52	6124
2026-01-06 02:10:22.21	211.36	5.82	-39.4	-40.6	20.9	0.00e+00	0	33	0	82837504	52	6163
2026-01-06 02:10:23.22	211.44	5.88	-39.5	-40.7	20.8	0.00e+00	0	33	0	84934656	52	6204
2026-01-06 02:10:24.23	211.53	5.94	-39.5	-40.7	20.7	0.00e+00	0	33	0	87031808	52	6233
2026-01-06 02:10:25.24	211.62	6.01	-39.2	-40.4	21.0	0.00e+00	0	33	0	89128960	52	6023
2026-01-06 02:10:26.25	211.70	6.07	-39.3	-40.5	20.8	0.00e+00	0	33	0	90177536	52	6093
2026-01-06 02:10:27.26	211.79	6.13	-39.2	-40.3	21.2	0.00e+00	0	33	0	92274688	52	5961
2026-01-06 02:10:28.27	211.88	6.20	-39.4	-40.6	20.9	0.00e+00	0	33	0	94371840	52	6114
2026-01-06 02:10:29.28	211.97	6.26	-39.2	-40.3	21.2	0.00e+00	0	33	0	96468992	52	5958
2026-01-06 02:10:30.29	212.06	6.32	-39.1	-40.2	21.2	0.00e+00	0	33	0	98566144	52	5880
2026-01-06 02:10:31.30	212.15	6.39	-39.1	-40.3	21.1	0.00e+00	0	33	0	99614720	52	5939
2026-01-06 02:10:32.31	212.23	6.45	-39.3	-40.5	21.1	0.00e+00	0	33	0	101711872	52	6041
2026-01-06 02:10:33.31	212.32	6.51	-39.2	-40.3	21.2	0.00e+00	0	33	0	103809024	52	5953
2026-01-06 02:10:34.32	212.41	6.58	-39.2	-40.4	21.2	0.00e+00	0	33	0	105906176	52	5994
2026-01-06 02:10:35.33	212.50	6.64	-39.3	-40.5	21.2	0.00e+00	0	33	0	108003328	52	6060
2026-01-06 02:10:36.34	212.60	6.71	-39.0	-40.1	21.4	0.00e+00	0	33	0	109051904	52	5828
2026-01-06 02:10:37.35	212.69	6.77	-39.1	-40.3	21.3	0.00e+00	0	33	0	111149056	52	5900
2026-01-06 02:10:38.36	212.78	6.83	-39.0	-40.1	21.3	0.00e+00	0	33	0	113246208	52	5818
2026-01-06 02:10:39.37	212.87	6.90	-39.0	-40.2	21.4	0.00e+00	0	33	0	115343360	52	5868
2026-01-06 02:10:40.38	212.96	6.96	-38.9	-40.0	21.5	0.00e+00	0	33	0	117440512	52	5722
2026-01-06 02:10:41.39	213.06	7.03	-39.0	-40.1	21.4	0.00e+00	0	33	0	118489088	52	5798
2026-01-06 02:10:42.40	213.15	7.09	-39.1	-40.3	21.4	0.00e+00	0	33	0	120586240	52	5932
2026-01-06 02:10:43.41	213.24	7.16	-39.2	-40.4	21.4	0.00e+00	0	33	0	122683392	52	5994
2026-01-06 02:10:44.41	213.34	7.22	-39.0	-40.1	21.4	0.00e+00	0	33	0	124780544	52	5815
2026-01-06 02:10:45.42	213.43	7.29	-39.2	-40.3	21.2	0.00e+00	0	33	0	126877696	52	5944
2026-01-06 02:10:46.43	213.53	7.35	-39.0	-40.1	21.5	0.00e+00	0	33	0	127926272	52	5795
2026-01-06 02:10:47.44	213.62	7.42	-38.7	-39.8	21.8	0.00e+00	0	33	0	130023424	50	6305
2026-01-06 02:10:48.45	213.72	7.48	-38.6	-39.7	21.8	0.00e+00	0	33	0	132120576	50	6189
2026-01-06 02:10:49.46	213.81	7.55	-38.9	-40.1	21.5	0.00e+00	0	33	0	134217728	50	6471
2026-01-06 02:10:50.47	213.91	7.61	-38.8	-40.0	21.6	0.00e+00	0	33	0	136314880	50	6397
2026-01-06 02:10:51.48	214.01	7.68	-38.8	-39.9	21.7	0.00e+00	0	33	0	137363456	50	6363
2026-01-06 02:10:52.49	214.10	7.74	-39.0	-40.2	21.5	0.00e+00	0	34	0	139460608	50	6546
2026-01-06 02:10:53.50	214.20	7.81	-38.7	-39.8	21.7	0.00e+00	0	34	0	141557760	50	6309
2026-01-06 02:10:54.51	214.30	7.87	-38.9	-40.0	21.6	0.00e+00	0	34	0	143654912	50	6421
2026-01-06 02:10:55.52	214.40	7.94	-38.7	-39.8	21.8	0.00e+00	0	33	0	145752064	50	6276
2026-01-06 02:10:56.53	214.50	8.01	-38.8	-39.9	21.6	0.00e+00	0	33	0	146800640	50	6385
2026-01-06 02:10:57.54	214.60	8.07	-38.8	-39.9	21.8	0.00e+00	0	33	0	148897792	50	6323
2026-01-06 02:10:58.55	214.70	8.14	-38.7	-39.8	21.8	0.00e+00	0	33	0	150994944	50	6298
2026-01-06 02:10:59.56	214.80	8.20	-38.7	-39.7	21.8	0.00e+00	0	34	0	153092096	50	6243
2026-01-06 02:11:00.57	214.90	8.27	-38.4	-39.5	22.0	0.00e+00	0	33	0	155189248	50	6048
2026-01-06 02:11:01.58	215.00	8.34	-38.4	-39.4	22.1	0.00e+00	0	33	0	156237824	50	6004
2026-01-06 02:11:02.58	215.10	8.40	-38.4	-39.4	22.0	0.00e+00	0	33	0	158334976	50	6027
2026-01-06 02:11:03.59	215.20	8.47	-38.2	-39.2	22.3	0.00e+00	0	33	0	160432128	50	5885
2026-01-06 02:11:04.60	215.31	8.54	-38.2	-39.2	22.3	0.00e+00	0	33	0	162529280	50	5864
2026-01-06 02:11:05.61	215.41	8.60	-38.2	-39.3	22.3	0.00e+00	0	33	0	164626432	50	5897
2026-01-06 02:11:06.62	215.51	8.67	-38.1	-39.2	22.4	0.00e+00	0	33	0	165675008	50	5834
2026-01-06 02:11:07.63	215.62	8.74	-38.0	-39.0	22.5	0.00e+00	0	34	0	167772160	50	5745
2026-01-06 02:11:08.64	215.72	8.81	-38.0	-39.0	22.5	0.00e+00	0	33	0	169869312	50	5712
2026-01-06 02:11:09.65	215.83	8.87	-37.9	-38.9	22.6	0.00e+00	0	33	0	171966464	50	5635
2026-01-06 02:11:10.65	215.93	8.94	-37.9	-38.9	22.5	0.00e+00	0	33	0	174063616	50	5650
2026-01-06 02:11:11.66	216.04	9.01	-38.1	-39.0	22.5	0.00e+00	0	33	0	175112192	50	5759
2026-01-06 02:11:12.67	216.14	9.07	-38.0	-39.0	22.4	0.00e+00	0	33	0	177209344	50	5739
2026-01-06 02:11:13.68	216.25	9.14	-38.2	-39.2	22.2	0.00e+00	0	33	0	179306496	50	5864
2026-01-06 02:11:14.69	216.36	9.21	-38.1	-39.1	22.4	0.00e+00	0	33	0	181403648	50	5798
2026-01-06 02:11:15.70	216.46	9.28	-38.2	-39.2	22.4	0.00e+00	0	33	0	183500800	50	5879
2026-01-06 02:11:16.71	216.57	9.35	-38.2	-39.3	22.2	0.00e+00	0	33	0	185597952	50	5904
2026-01-06 02:11:17.72	216.68	9.41	-38.6	-39.7	22.0	0.00e+00	0	33	0	186646528	50	6213
2026-01-06 02:11:18.73	216.79	9.48	-38.5	-39.6	22.0	0.00e+00	0	33	0	188743680	50	6147
2026-01-06 02:11:19.74	216.90	9.55	-38.7	-39.8	21.8	0.00e+00	0	33	0	190840832	50	6286
2026-01-06 02:11:20.74	217.01	9.62	-38.9	-40.0	21.8	0.00e+00	0	34	0	192937984	50	6428
2026-01-06 02:11:21.75	217.12	9.69	-38.8	-39.9	21.9	0.00e+00	0	33	0	195035136	50	6381
2026-01-06 02:11:22.76	217.23	9.76	-38.9	-40.0	21.5	0.00e+00	0	34	0	196083712	50	6430
2026-01-06 02:11:23.77	217.34	9.82	-38.9	-40.0	21.7	0.00e+00	0	33	0	198180864	50	6428
2026-01-06 02:11:24.78	217.45	9.89	-38.8	-39.8	21.8	0.00e+00	0	34	0	200278016	50	6314
2026-01-06 02:11:25.79	217.57	9.96	-38.7	-39.8	21.9	0.00e+00	0	33	0	202375168	50	6284
2026-01-06 02:11:26.80	217.68	10.03	-38.8	-39.8	21.8	0.00e+00	0	34	0	204472320	50	6315
2026-01-06 02:11:27.81	217.79	10.10	-38.7	-39.8	21.9	0.00e+00	0	33	0	205520896	50	6267
2026-01-06 02:11:28.82	217.91	10.17	-38.7	-39.7	21.9	0.00e+00	0	34	0	207618048	50	6235
2026-01-06 02:11:29.83	218.02	10.24	-38.3	-39.3	22.2	0.00e+00	0	34	0	209715200	50	5959
2026-01-06 02:11:30.84	218.14	10.31	-38.2	-39.2	22.3	0.00e+00	0	34	0	211812352	50	5877
2026-01-06 02:11:31.85	218.25	10.38	-38.3	-39.3	22.3	0.00e+00	0	34	0	213909504	50	5907
2026-01-06 02:11:32.86	218.37	10.45	-38.3	-39.3	22.3	0.00e+00	0	34	0	214958080	50	5913
2026-01-06 02:11:33.87	218.49	10.52	-38.4	-39.4	22.3	0.00e+00	0	34	0	217055232	50	5979
2026-01-06 02:11:34.87	218.60	10.59	-38.2	-39.2	22.4	0.00e+00	0	34	0	219152384	50	5839
2026-01-06 02:11:35.88	218.72	10.66	-38.2	-39.2	22.5	0.00e+00	0	33	0	221249536	50	5860
2026-01-06 02:11:36.89	218.84	10.73	-38.1	-39.0	22.5	0.00e+00	0	34	0	223346688	50	5750
2026-01-06 02:11:37.90	218.96	10.80	-38.1	-39.1	22.6	0.00e+00	0	34	0	224395264	50	5773
2026-01-06 02:11:38.91	219.08	10.87	-38.1	-39.1	22.5	0.00e+00	0	34	0	226492416	50	5805
2026-01-06 02:11:39.92	219.20	10.94	-38.0	-39.0	22.6	0.00e+00	0	34	0	228589568	50	5743
2026-01-06 02:11:40.93	219.32	11.01	-38.0	-38.9	22.6	0.00e+00	0	33	0	230686720	50	5687
2026-01-06 02:11:41.94	219.44	11.08	-38.0	-39.0	22.6	0.00e+00	0	34	0	232783872	50	5705
2026-01-06 02:11:42.95	219.56	11.15	-38.1	-39.1	22.3	0.00e+00	0	34	0	233832448	50	5794
2026-01-06 02:11:43.96	219.69	11.22	-38.1	-39.1	22.6	0.00e+00	0	34	0	235929600	50	5770
2026-01-06 02:11:44.97	219.81	11.29	-38.0	-39.0	22.1	0.00e+00	0	34	0	238026752	50	5726
2026-01-06 02:11:45.98	219.93	11.36	-38.0	-39.0	22.6	0.00e+00	0	34	0	240123904	50	5744
2026-01-06 02:11:46.99	220.06	11.43	-38.0	-39.0	22.6	0.00e+00	0	33	0	242221056	50	5727
2026-01-06 02:11:48.00	220.18	11.50	-38.1	-39.1	22.5	0.00e+00	0	34	0	243269632	50	5799
2026-01-06 02:11:49.01	220.31	11.57	-38.1	-39.1	22.6	0.00e+00	0	34	0	245366784	50	5800
2026-01-06 02:11:50.02	220.43	11.64	-37.9	-38.9	22.7	0.00e+00	0	33	0	247463936	50	5631
2026-01-06 02:11:51.03	220.56	11.71	-38.1	-39.1	22.6	0.00e+00	0	34	0	249561088	50	5769
2026-01-06 02:11:52.04	220.68	11.79	-38.0	-38.9	22.7	0.00e+00	0	34	0	251658240	50	5684
2026-01-06 02:11:53.05	220.81	11.86	-37.9	-38.8	22.7	0.00e+00	0	34	0	253755392	50	5611
2026-01-06 02:11:54.06	220.94	11.93	-38.0	-38.9	22.7	0.00e+00	0	34	0	254803968	50	5678
2026-01-06 02:11:55.07	221.07	12.00	-37.9	-38.8	22.7	0.00e+00	0	34	0	256901120	50	5617
2026-01-06 02:11:56.07	221.20	12.07	-37.8	-38.8	22.7	0.00e+00	0	34	0	258998272	50	5589
2026-01-06 02:11:57.08	221.33	12.14	-38.0	-39.0	22.6	0.00e+00	0	34	0	261095424	50	5739
2026-01-06 02:11:58.09	221.46	12.21	-38.0	-38.9	22.6	0.00e+00	0	34	0	263192576	50	5694
2026-01-06 02:11:59.10	221.59	12.29	-38.1	-39.1	22.5	0.00e+00	0	34	0	264241152	50	5793
2026-01-06 02:12:00.11	221.72	12.36	-38.3	-39.3	22.3	0.00e+00	0	34	0	266338304	50	5956
2026-01-06 02:12:01.12	221.85	12.43	-38.4	-39.5	22.3	0.00e+00	0	33	0	268435456	50	6043
2026-01-06 02:12:02.13	221.99	12.50	-38.3	-39.3	22.3	0.00e+00	0	34	0	270532608	50	5926
2026-01-06 02:12:03.14	222.12	12.57	-38.7	-39.7	22.0	0.00e+00	0	34	0	272629760	50	6230
2026-01-06 02:12:04.15	222.26	12.65	-38.6	-39.7	22.1	0.00e+00	0	34	0	273678336	50	6183
2026-01-06 02:12:05.16	222.39	12.72	-38.6	-39.7	22.1	0.00e+00	0	34	0	275775488	50	6201
2026-01-06 02:12:06.17	222.53	12.79	-38.7	-39.8	22.1	0.00e+00	0	33	0	277872640	50	6271
2026-01-06 02:12:07.18	222.66	12.86	-38.5	-39.5	22.2	0.00e+00	0	34	0	279969792	50	6051
2026-01-06 02:12:08.19	222.80	12.94	-38.4	-39.5	22.3	0.00e+00	0	33	0	282066944	50	6036
2026-01-06 02:12:09.20	222.94	13.01	-38.5	-39.5	22.3	0.00e+00	0	34	0	283115520	50	6089
2026-01-06 02:12:10.20	223.07	13.08	-38.2	-39.2	22.4	0.00e+00	0	33	0	285212672	50	5857
2026-01-06 02:12:11.21	223.21	13.15	-38.2	-39.2	22.4	0.00e+00	0	34	0	287309824	50	5829
2026-01-06 02:12:12.22	223.35	13.23	-38.1	-39.1	22.6	0.00e+00	0	34	0	289406976	50	5794
2026-01-06 02:12:13.23	223.49	13.30	-37.9	-38.9	22.8	0.00e+00	0	34	0	291504128	50	5648
2026-01-06 02:12:14.24	223.63	13.37	-37.8	-38.8	22.8	0.00e+00	0	34	0	292552704	50	5576
2026-01-06 02:12:15.25	223.78	13.45	-37.8	-38.8	22.8	0.00e+00	0	34	0	294649856	48	6254
2026-01-06 02:12:16.26	223.92	13.52	-37.7	-38.6	23.0	0.00e+00	0	33	0	296747008	48	6136
2026-01-06 02:12:17.27	224.06	13.59	-37.7	-38.6	23.0	0.00e+00	0	34	0	298844160	48	6130
2026-01-06 02:12:18.28	224.20	13.66	-37.8	-38.7	23.0	0.00e+00	0	34	0	300941312	48	6222
2026-01-06 02:12:19.29	224.35	13.74	-37.5	-38.4	23.2	0.00e+00	0	34	0	301989888	48	5977
2026-01-06 02:12:20.30	224.49	13.81	-37.2	-38.1	23.3	0.00e+00	0	34	0	304087040	48	5819
2026-01-06 02:12:21.30	224.64	13.88	-37.2	-38.1	23.4	0.00e+00	0	34	0	306184192	48	5780
2026-01-06 02:12:22.31	224.78	13.96	-37.3	-38.2	23.3	0.00e+00	0	34	0	308281344	48	5854
2026-01-06 02:12:23.32	224.93	14.03	-37.3	-38.2	23.3	0.00e+00	0	34	0	310378496	48	5832
2026-01-06 02:12:24.34	225.08	14.10	-37.2	-38.0	23.3	0.00e+00	0	34	0	311427072	48	5760
2026-01-06 02:12:25.34	225.23	14.18	-37.5	-38.4	23.1	0.00e+00	0	34	0	313524224	48	5995
2026-01-06 02:12:26.35	225.38	14.25	-37.3	-38.2	23.3	0.00e+00	0	34	0	315621376	48	5888
2026-01-06 02:12:27.36	225.53	14.32	-37.3	-38.2	23.3	0.00e+00	0	34	0	317718528	48	5865
2026-01-06 02:12:28.37	225.68	14.40	-37.3	-38.2	23.4	0.00e+00	0	34	0	319815680	48	5841
2026-01-06 02:12:29.38	225.83	14.47	-37.2	-38.0	23.3	0.00e+00	0	34	0	321912832	48	5760
2026-01-06 02:12:30.39	225.98	14.55	-37.3	-38.2	23.3	0.00e+00	0	34	0	322961408	48	5842
2026-01-06 02:12:31.40	226.13	14.62	-37.3	-38.2	23.2	0.00e+00	0	34	0	325058560	48	5847
2026-01-06 02:12:32.41	226.29	14.69	-37.7	-38.6	23.1	0.00e+00	0	34	0	327155712	48	6132
2026-01-06 02:12:33.42	226.44	14.77	-37.4	-38.3	23.1	0.00e+00	0	34	0	329252864	48	5941
2026-01-06 02:12:34.42	226.60	14.84	-37.5	-38.4	22.6	0.00e+00	0	34	0	330301440	48	5991
2026-01-06 02:12:35.43	226.75	14.91	-37.7	-38.6	23.0	0.00e+00	0	34	0	332398592	48	6152
2026-01-06 02:12:36.44	226.91	14.99	-37.8	-38.8	22.7	0.00e+00	0	34	0	334495744	48	6285
2026-01-06 02:12:37.45	227.07	15.06	-38.0	-39.0	22.6	0.00e+00	0	34	0	336592896	48	6458
2026-01-06 02:12:38.46	227.22	15.14	-38.1	-39.1	22.6	0.00e+00	0	34	0	338690048	48	6494
2026-01-06 02:12:39.47	227.38	15.21	-37.8	-38.8	22.8	0.00e+00	0	34	0	339738624	48	6278
2026-01-06 02:12:40.47	227.54	15.28	-37.8	-38.8	22.8	0.00e+00	0	34	0	341835776	48	6258
2026-01-06 02:12:41.48	227.70	15.36	-37.7	-38.7	23.0	0.00e+00	0	34	0	343932928	48	6189
2026-01-06 02:12:42.49	227.86	15.43	-37.8	-38.8	22.9	0.00e+00	0	34	0	346030080	48	6253
2026-01-06 02:12:43.50	228.02	15.51	-37.6	-38.5	23.1	0.00e+00	0	34	0	348127232	48	6054
2026-01-06 02:12:44.51	228.19	15.58	-37.6	-38.5	23.1	0.00e+00	0	34	0	350224384	48	6077
2026-01-06 02:12:45.52	228.35	15.65	-37.5	-38.4	23.1	0.00e+00	0	34	0	351272960	48	5982
2026-01-06 02:12:46.53	228.51	15.73	-37.5	-38.4	23.3	0.00e+00	0	34	0	353370112	48	5981
2026-01-06 02:12:47.54	228.68	15.80	-37.1	-38.0	23.6	0.00e+00	0	34	0	355467264	48	5704
2026-01-06 02:12:48.55	228.84	15.88	-37.1	-38.0	23.6	0.00e+00	0	34	0	357564416	48	5702
2026-01-06 02:12:49.56	229.01	15.95	-37.0	-37.8	23.6	0.00e+00	0	34	0	359661568	48	5617
2026-01-06 02:12:50.57	229.18	16.02	-36.7	-37.6	23.8	0.00e+00	0	34	0	360710144	46	6107
2026-01-06 02:12:51.58	229.35	16.10	-37.0	-37.9	23.5	0.00e+00	0	34	0	362807296	46	6363
2026-01-06 02:12:52.58	229.51	16.17	-36.7	-37.6	23.8	0.00e+00	0	34	0	364904448	46	6130
2026-01-06 02:12:53.59	229.68	16.25	-36.7	-37.5	23.8	0.00e+00	0	34	0	367001600	46	6096
2026-01-06 02:12:54.61	229.86	16.32	-36.7	-37.5	23.8	0.00e+00	0	34	0	369098752	46	6079
2026-01-06 02:12:55.61	230.03	16.39	-36.6	-37.5	23.9	0.00e+00	0	34	0	370147328	46	6043
2026-01-06 02:12:56.62	230.20	16.47	-36.2	-37.1	24.1	0.00e+00	0	34	0	372244480	46	5769
2026-01-06 02:12:57.63	230.37	16.54	-36.3	-37.1	24.2	0.00e+00	0	34	0	374341632	46	5788
2026-01-06 02:12:58.65	230.55	16.62	-36.3	-37.1	24.1	0.00e+00	0	34	0	376438784	46	5822
2026-01-06 02:12:59.66	230.72	16.69	-36.2	-37.1	24.1	0.00e+00	0	34	0	378535936	46	5765
2026-01-06 02:13:00.66	230.90	16.76	-36.4	-37.2	24.1	0.00e+00	0	34	0	379584512	46	5858
2026-01-06 02:13:01.67	231.07	16.84	-36.5	-37.3	24.0	0.00e+00	0	34	0	381681664	46	5950
2026-01-06 02:13:02.68	231.25	16.91	-36.8	-37.7	23.7	0.00e+00	0	34	0	383778816	46	6179
2026-01-06 02:13:03.69	231.43	16.99	-36.9	-37.8	23.7	0.00e+00	0	34	0	385875968	46	6292
2026-01-06 02:13:04.70	231.61	17.06	-37.2	-38.1	23.5	0.00e+00	0	34	0	387973120	46	6471
2026-01-06 02:13:05.71	231.79	17.13	-37.1	-38.0	23.6	0.00e+00	0	34	0	389021696	46	6418
2026-01-06 02:13:06.72	231.97	17.21	-37.1	-38.0	23.6	0.00e+00	0	34	0	391118848	46	6444
2026-01-06 02:13:07.73	232.15	17.28	-37.2	-38.1	23.5	0.00e+00	0	34	0	393216000	46	6465
2026-01-06 02:13:08.74	232.33	17.35	-37.0	-37.9	23.5	0.00e+00	0	34	0	395313152	46	6370
2026-01-06 02:13:09.75	232.52	17.43	-36.9	-37.7	23.7	0.00e+00	0	34	0	397410304	46	6245
2026-01-06 02:13:10.76	232.70	17.50	-37.1	-38.0	23.5	0.00e+00	0	34	0	398458880	46	6415
2026-01-06 02:13:11.77	232.88	17.57	-37.2	-38.2	23.5	0.00e+00	0	34	0	400556032	46	6540
2026-01-06 02:13:12.78	233.07	17.65	-37.2	-38.1	23.4	0.00e+00	0	34	0	402653184	46	6504
2026-01-06 02:13:13.79	233.26	17.72	-37.2	-38.1	23.3	0.00e+00	0	34	0	404750336	46	6495
2026-01-06 02:13:14.80	233.44	17.79	-37.3	-38.2	23.3	0.00e+00	0	34	0	406847488	46	6587
2026-01-06 02:13:15.81	233.63	17.87	-37.0	-37.9	23.7	0.00e+00	0	34	0	407896064	46	6336
2026-01-06 02:13:16.81	233.82	17.94	-36.8	-37.7	23.9	0.00e+00	0	34	0	409993216	46	6188
2026-01-06 02:13:17.82	234.01	18.01	-36.8	-37.7	23.8	0.00e+00	0	34	0	412090368	46	6183
2026-01-06 02:13:18.83	234.20	18.09	-36.8	-37.6	23.8	0.00e+00	0	34	0	414187520	46	6146
2026-01-06 02:13:19.84	234.39	18.16	-36.3	-37.1	24.1	0.00e+00	0	34	0	416284672	46	5819
2026-01-06 02:13:20.85	234.59	18.23	-36.2	-37.0	24.3	0.00e+00	0	34	0	418381824	46	5759
2026-01-06 02:13:21.86	234.78	18.30	-36.1	-36.9	24.4	0.00e+00	0	34	0	419430400	46	5632
2026-01-06 02:13:22.86	234.97	18.38	-36.1	-36.9	24.5	0.00e+00	0	34	0	421527552	46	5648
2026-01-06 02:13:23.87	235.17	18.45	-36.0	-36.8	24.3	0.00e+00	0	34	0	423624704	46	5623
2026-01-06 02:13:24.88	235.37	18.52	-35.9	-36.7	24.6	0.00e+00	0	34	0	425721856	46	5533
2026-01-06 02:13:25.89	235.56	18.59	-35.7	-36.5	24.6	0.00e+00	0	34	0	427819008	44	6034
2026-01-06 02:13:26.90	235.76	18.66	-35.7	-36.5	24.6	0.00e+00	0	34	0	428867584	44	6062
2026-01-06 02:13:27.91	235.96	18.74	-35.7	-36.5	24.5	0.00e+00	0	34	0	430964736	44	6035
2026-01-06 02:13:28.92	236.16	18.81	-35.6	-36.4	24.6	0.00e+00	0	34	0	433061888	44	6015
2026-01-06 02:13:29.93	236.36	18.88	-35.8	-36.6	24.5	0.00e+00	0	34	0	435159040	44	6121
2026-01-06 02:13:30.94	236.57	18.95	-35.7	-36.5	24.5	0.00e+00	0	34	0	437256192	44	6079
2026-01-06 02:13:31.94	236.77	19.02	-35.6	-36.4	24.7	0.00e+00	0	34	0	438304768	44	6027
2026-01-06 02:13:32.95	236.97	19.09	-35.5	-36.3	24.8	0.00e+00	0	34	0	440401920	44	5911
2026-01-06 02:13:33.96	237.18	19.16	-35.5	-36.2	24.8	0.00e+00	0	34	0	442499072	44	5880
2026-01-06 02:13:34.97	237.38	19.23	-35.3	-36.1	24.9	0.00e+00	0	34	0	444596224	44	5800
2026-01-06 02:13:35.98	237.59	19.31	-35.4	-36.1	25.0	0.00e+00	0	34	0	446693376	44	5820
2026-01-06 02:13:36.99	237.80	19.38	-35.5	-36.3	24.8	0.00e+00	0	34	0	447741952	44	5914
2026-01-06 02:13:38.00	238.00	19.45	-35.7	-36.5	24.5	0.00e+00	0	34	0	449839104	44	6056
2026-01-06 02:13:39.01	238.21	19.52	-35.6	-36.4	24.6	0.00e+00	0	34	0	451936256	44	5983
2026-01-06 02:13:40.02	238.42	19.59	-35.6	-36.4	24.7	0.00e+00	0	34	0	454033408	44	5996
2026-01-06 02:13:41.03	238.64	19.66	-35.5	-36.3	24.8	0.00e+00	0	34	0	456130560	44	5923
2026-01-06 02:13:42.04	238.85	19.73	-35.6	-36.4	24.6	0.00e+00	0	34	0	457179136	44	6000
2026-01-06 02:13:43.05	239.06	19.80	-35.6	-36.4	24.6	0.00e+00	0	34	0	459276288	44	5975
2026-01-06 02:13:44.06	239.28	19.87	-35.7	-36.5	24.3	0.00e+00	0	34	0	461373440	44	6063
2026-01-06 02:13:45.06	239.49	19.93	-35.7	-36.5	24.6	0.00e+00	0	34	0	463470592	44	6076
2026-01-06 02:13:46.07	239.70	20.00	-35.8	-36.7	24.5	0.00e+00	0	34	0	465567744	44	6175
2026-01-06 02:13:47.08	239.92	20.07	-36.0	-36.8	24.4	0.00e+00	0	34	0	466616320	44	6268
2026-01-06 02:13:48.09	240.14	20.14	-35.8	-36.6	24.5	0.00e+00	0	34	0	468713472	44	6167
2026-01-06 02:13:49.10	240.36	20.21	-35.8	-36.6	24.7	0.00e+00	0	34	0	470810624	44	6162
2026-01-06 02:13:50.11	240.58	20.28	-35.8	-36.6	24.5	0.00e+00	0	34	0	472907776	44	6126
2026-01-06 02:13:51.12	240.80	20.34	-35.6	-36.3	24.7	0.00e+00	0	34	0	475004928	44	5963
2026-01-06 02:13:52.13	241.02	20.41	-35.7	-36.4	24.7	0.00e+00	0	34	0	476053504	44	6031
2026-01-06 02:13:53.14	241.24	20.48	-35.6	-36.4	24.7	0.00e+00	0	34	0	478150656	44	5972
2026-01-06 02:13:54.15	241.47	20.55	-35.6	-36.4	24.7	0.00e+00	0	34	0	480247808	44	5995
2026-01-06 02:13:55.16	241.69	20.61	-35.8	-36.6	24.7	0.00e+00	0	34	0	482344960	44	6107
2026-01-06 02:13:56.17	241.92	20.68	-35.9	-36.7	24.5	0.00e+00	0	34	0	484442112	44	6177
2026-01-06 02:13:57.18	242.14	20.75	-36.1	-36.9	24.2	0.00e+00	0	34	0	485490688	44	6389
2026-01-06 02:13:58.18	242.37	20.81	-36.3	-37.1	24.2	0.00e+00	0	34	0	487587840	44	6494
2026-01-06 02:13:59.19	242.60	20.88	-36.5	-37.3	24.1	0.00e+00	0	34	0	489684992	44	6655
2026-01-06 02:14:00.20	242.83	20.94	-36.6	-37.4	24.1	0.00e+00	0	34	0	491782144	44	6747
2026-01-06 02:14:01.21	243.06	21.01	-36.2	-37.0	24.3	0.00e+00	0	34	0	493879296	44	6409
2026-01-06 02:14:02.22	243.29	21.07	-36.2	-37.0	24.2	0.00e+00	0	34	0	494927872	44	6423
2026-01-06 02:14:03.23	243.52	21.14	-36.3	-37.1	24.2	0.00e+00	0	34	0	497025024	44	6509
2026-01-06 02:14:04.24	243.75	21.20	-36.3	-37.2	24.1	0.00e+00	0	34	0	499122176	44	6553
2026-01-06 02:14:05.25	243.99	21.26	-36.7	-37.5	24.0	0.00e+00	0	34	0	501219328	44	6837
2026-01-06 02:14:06.26	244.22	21.33	-36.7	-37.6	23.9	0.00e+00	0	34	0	503316480	46	6120
2026-01-06 02:14:07.27	244.46	21.39	-36.6	-37.4	24.0	0.00e+00	0	34	0	504365056	46	6015
2026-01-06 02:14:08.28	244.70	21.45	-36.5	-37.4	24.0	0.00e+00	0	34	0	506462208	46	5974
2026-01-06 02:14:09.29	244.93	21.52	-36.1	-36.9	24.4	0.00e+00	0	34	0	508559360	46	5666
2026-01-06 02:14:10.30	245.17	21.58	-36.2	-37.0	24.0	0.00e+00	0	34	0	510656512	46	5711
2026-01-06 02:14:11.31	245.41	21.64	-36.2	-37.0	24.2	0.00e+00	0	34	0	512753664	46	5741
2026-01-06 02:14:12.32	245.65	21.70	-36.6	-37.5	23.9	0.00e+00	0	34	0	514850816	46	6040
2026-01-06 02:14:13.33	245.89	21.76	-37.3	-38.2	23.3	0.00e+00	0	34	0	515899392	46	6595
2026-01-06 02:14:14.34	246.14	21.82	-37.7	-38.7	23.1	0.00e+00	0	34	0	517996544	46	6932
2026-01-06 02:14:15.35	246.38	21.89	-37.6	-38.5	23.3	0.00e+00	0	34	0	520093696	48	6057
2026-01-06 02:14:16.36	246.62	21.95	-37.1	-38.0	23.6	0.00e+00	0	34	0	522190848	48	5708
2026-01-06 02:14:17.36	246.87	22.00	-36.7	-37.5	24.0	0.00e+00	0	34	0	524288000	48	5433
2026-01-06 02:14:18.37	247.11	22.06	-36.4	-37.2	24.0	0.00e+00	0	34	0	525336576	46	5868
2026-01-06 02:14:19.38	247.36	22.12	-36.2	-37.0	24.3	0.00e+00	0	34	0	527433728	46	5755
2026-01-06 02:14:20.39	247.61	22.18	-36.4	-37.2	24.1	0.00e+00	0	34	0	529530880	46	5847
2026-01-06 02:14:21.40	247.86	22.24	-36.3	-37.1	24.2	0.00e+00	0	34	0	531628032	46	5775
2026-01-06 02:14:22.41	248.11	22.30	-36.5	-37.4	24.1	0.00e+00	0	34	0	533725184	46	5990
2026-01-06 02:14:23.42	248.36	22.35	-36.3	-37.1	24.2	0.00e+00	0	34	0	534773760	46	5820
2026-01-06 02:14:24.43	248.61	22.41	-36.1	-36.9	24.4	0.00e+00	0	34	0	536870912	46	5639
2026-01-06 02:14:25.44	248.86	22.47	-36.1	-36.9	24.5	0.00e+00	0	34	0	538968064	46	5658
2026-01-06 02:14:26.45	249.12	22.52	-36.2	-37.0	24.3	0.00e+00	0	34	0	541065216	46	5753
2026-01-06 02:14:27.46	249.37	22.58	-36.7	-37.5	24.0	0.00e+00	0	34	0	543162368	46	6079
2026-01-06 02:14:28.47	249.62	22.63	-36.9	-37.7	23.8	0.00e+00	0	34	0	544210944	46	6212
2026-01-06 02:14:29.48	249.88	22.69	-36.8	-37.6	23.8	0.00e+00	0	34	0	546308096	46	6154
2026-01-06 02:14:30.49	250.14	22.74	-36.8	-37.6	23.9	0.00e+00	0	34	0	548405248	46	6172
2026-01-06 02:14:31.50	250.40	22.80	-36.7	-37.5	24.0	0.00e+00	0	34	0	550502400	46	6065
2026-01-06 02:14:32.51	250.65	22.85	-36.6	-37.5	24.0	0.00e+00	0	34	0	552599552	46	6040
2026-01-06 02:14:33.52	250.91	22.90	-36.6	-37.4	23.8	0.00e+00	0	34	0	553648128	46	5992
2026-01-06 02:14:34.53	251.17	22.96	-36.6	-37.4	24.0	0.00e+00	0	34	0	555745280	46	5999
2026-01-06 02:14:35.53	251.43	23.01	-36.9	-37.7	23.8	0.00e+00	0	34	0	557842432	46	6232
2026-01-06 02:14:36.54	251.69	23.06	-37.0	-37.8	23.6	0.00e+00	0	34	0	559939584	46	6300
2026-01-06 02:14:37.55	251.96	23.11	-37.2	-38.1	23.5	0.00e+00	0	34	0	562036736	46	6515
2026-01-06 02:14:38.56	252.22	23.16	-37.7	-38.6	23.2	0.00e+00	0	34	0	563085312	46	6896
2026-01-06 02:14:39.57	252.49	23.21	-37.9	-38.8	22.9	0.00e+00	0	34	0	565182464	48	6274
2026-01-06 02:14:40.58	252.75	23.26	-38.3	-39.2	22.6	0.00e+00	0	34	0	567279616	48	6612
2026-01-06 02:14:41.59	253.02	23.31	-38.2	-39.1	22.7	0.00e+00	0	34	0	569376768	48	6537
2026-01-06 02:14:42.60	253.28	23.35	-38.0	-39.0	22.9	0.00e+00	0	34	0	571473920	48	6415
2026-01-06 02:14:43.61	253.55	23.40	-38.0	-38.9	22.9	0.00e+00	0	34	0	572522496	48	6340
2026-01-06 02:14:44.62	253.82	23.45	-37.5	-38.3	23.1	0.00e+00	0	34	0	574619648	48	5948
2026-01-06 02:14:45.62	254.09	23.49	-36.9	-37.8	23.8	0.00e+00	0	34	0	576716800	48	5587
2026-01-06 02:14:46.63	254.36	23.54	-37.0	-37.9	23.6	0.00e+00	0	34	0	578813952	48	5671
2026-01-06 02:14:47.64	254.63	23.59	-37.2	-38.1	23.5	0.00e+00	0	34	0	580911104	48	5768
2026-01-06 02:14:48.65	254.90	23.63	-38.0	-39.0	22.8	0.00e+00	0	34	0	583008256	48	6424
2026-01-06 02:14:49.66	255.17	23.67	-38.7	-39.7	22.2	0.00e+00	0	34	0	584056832	48	6964
2026-01-06 02:14:50.67	255.44	23.72	-39.0	-40.0	22.1	0.00e+00	0	34	0	586153984	50	6458
2026-01-06 02:14:51.68	255.72	23.76	-38.9	-40.0	22.1	0.00e+00	0	34	0	588251136	50	6396
2026-01-06 02:14:52.69	255.99	23.80	-38.7	-39.7	22.2	0.00e+00	0	34	0	590348288	50	6231
2026-01-06 02:14:53.70	256.27	23.85	-38.8	-39.8	22.2	0.00e+00	0	34	0	592445440	50	6313
2026-01-06 02:14:54.71	256.54	23.89	-38.6	-39.6	22.1	0.00e+00	0	34	0	593494016	50	6143
2026-01-06 02:14:55.71	256.82	23.93	-39.1	-40.2	21.9	0.00e+00	0	34	0	595591168	50	6576
2026-01-06 02:14:56.72	257.10	23.97	-39.2	-40.3	21.8	0.00e+00	0	34	0	597688320	50	6631
2026-01-06 02:14:57.73	257.37	24.01	-39.1	-40.1	22.0	0.00e+00	0	34	0	599785472	50	6514
2026-01-06 02:14:58.74	257.65	24.04	-38.7	-39.7	22.3	0.00e+00	0	34	0	601882624	50	6237
2026-01-06 02:14:59.74	257.93	24.08	-38.7	-39.7	22.3	0.00e+00	0	34	0	602931200	50	6192
2026-01-06 02:15:00.75	258.21	24.12	-38.6	-39.6	22.2	0.00e+00	0	34	0	605028352	50	6160
2026-01-06 02:15:01.76	258.49	24.16	-39.5	-40.7	21.4	0.00e+00	0	34	0	607125504	50	6940
2026-01-06 02:15:02.77	258.77	24.19	-40.6	-41.9	20.3	0.00e+00	0	34	0	609222656	52	7096
2026-01-06 02:15:03.78	259.05	24.23	-41.3	-42.7	19.7	0.00e+00	0	34	0	611319808	54	7005
2026-01-06 02:15:04.79	259.34	24.26	-41.9	-43.5	19.1	0.00e+00	0	34	0	612368384	56	6781
2026-01-06 02:15:05.80	259.62	24.30	-41.3	-42.7	19.8	0.00e+00	0	34	0	614465536	56	6213
2026-01-06 02:15:06.81	259.90	24.33	-41.0	-42.3	20.2	0.00e+00	0	34	0	616562688	56	5905
2026-01-06 02:15:07.82	260.19	24.36	-39.9	-41.1	21.2	0.00e+00	0	34	0	618659840	54	5780
2026-01-06 02:15:08.83	260.47	24.39	-40.0	-41.2	21.1	0.00e+00	0	34	0	620756992	54	5859
2026-01-06 02:15:09.84	260.76	24.43	-40.3	-41.5	20.8	0.00e+00	0	34	0	621805568	54	6065
2026-01-06 02:15:10.85	261.04	24.46	-40.3	-41.6	20.8	0.00e+00	0	34	0	623902720	54	6114
2026-01-06 02:15:11.86	261.33	24.49	-39.9	-41.1	21.1	0.00e+00	0	34	0	625999872	54	5798
2026-01-06 02:15:12.87	261.62	24.51	-39.9	-41.0	21.2	0.00e+00	0	34	0	628097024	54	5739
2026-01-06 02:15:13.88	261.90	24.54	-39.6	-40.7	21.5	0.00e+00	0	34	0	630194176	52	6244
2026-01-06 02:15:14.88	262.19	24.57	-39.3	-40.3	21.7	0.00e+00	0	34	0	631242752	52	5940
2026-01-06 02:15:15.89	262.48	24.60	-39.0	-40.1	21.9	0.00e+00	0	34	0	633339904	52	5792
2026-01-06 02:15:16.90	262.77	24.62	-39.2	-40.3	22.0	0.00e+00	0	34	0	635437056	52	5931
2026-01-06 02:15:17.91	263.06	24.65	-39.0	-40.1	22.1	0.00e+00	0	34	0	637534208	52	5786
2026-01-06 02:15:18.92	263.35	24.67	-39.3	-40.4	21.6	0.00e+00	0	34	0	639631360	52	6017
2026-01-06 02:15:19.93	263.64	24.70	-40.0	-41.1	21.1	0.00e+00	0	34	0	640679936	52	6529
2026-01-06 02:15:20.94	263.93	24.72	-40.2	-41.4	20.9	0.00e+00	0	34	0	642777088	52	6711
2026-01-06 02:15:21.95	264.22	24.74	-40.2	-41.5	20.9	0.00e+00	0	34	0	644874240	52	6776
2026-01-06 02:15:22.96	264.51	24.77	-40.1	-41.3	21.0	0.00e+00	0	34	0	646971392	52	6657
2026-01-06 02:15:23.97	264.80	24.79	-39.4	-40.5	21.6	0.00e+00	0	34	0	649068544	52	6040
2026-01-06 02:15:24.98	265.09	24.81	-39.0	-40.0	22.1	0.00e+00	0	34	0	650117120	52	5709
2026-01-06 02:15:25.99	265.39	24.83	-38.5	-39.5	22.5	0.00e+00	0	34	0	652214272	50	6055
2026-01-06 02:15:27.00	265.68	24.85	-38.3	-39.3	22.7	0.00e+00	0	34	0	654311424	50	5926
2026-01-06 02:15:28.01	265.97	24.86	-38.0	-38.9	22.9	0.00e+00	0	34	0	656408576	50	5683
2026-01-06 02:15:29.02	266.27	24.88	-37.7	-38.5	23.2	0.00e+00	0	34	0	658505728	48	6101
2026-01-06 02:15:30.03	266.56	24.90	-37.1	-38.0	23.6	0.00e+00	0	34	0	659554304	48	5697
2026-01-06 02:15:31.04	266.85	24.91	-37.0	-37.9	23.8	0.00e+00	0	34	0	661651456	48	5642
2026-01-06 02:15:32.05	267.15	24.93	-37.3	-38.1	23.4	0.00e+00	0	34	0	663748608	48	5822
2026-01-06 02:15:33.05	267.44	24.94	-38.0	-39.0	22.8	0.00e+00	0	34	0	665845760	48	6406
2026-01-06 02:15:34.06	267.74	24.96	-38.6	-39.7	22.3	0.00e+00	0	34	0	667942912	48	6932
2026-01-06 02:15:35.07	268.03	24.97	-38.7	-39.8	22.2	0.00e+00	0	34	0	668991488	50	6272
2026-01-06 02:15:36.08	268.33	24.98	-38.5	-39.5	22.5	0.00e+00	0	34	0	671088640	50	6036
2026-01-06 02:15:37.09	268.62	24.99	-37.8	-38.7	23.1	0.00e+00	0	34	0	673185792	50	5542
2026-01-06 02:15:38.10	268.92	25.00	-37.6	-38.5	23.2	0.00e+00	0	34	0	675282944	48	6034
2026-01-06 02:15:39.11	269.21	25.01	-37.6	-38.5	23.1	0.00e+00	0	34	0	677380096	48	6065
2026-01-06 02:15:40.12	269.51	25.02	-38.1	-39.0	22.9	0.00e+00	0	34	0	679477248	48	6462
2026-01-06 02:15:41.13	269.81	25.03	-38.4	-39.3	22.6	0.00e+00	0	34	0	680525824	48	6692
2026-01-06 02:15:42.14	270.10	25.04	-38.5	-39.5	22.4	0.00e+00	0	34	0	682622976	48	6804
2026-01-06 02:15:43.14	270.40	25.04	-38.3	-39.3	22.7	0.00e+00	0	34	0	684720128	48	6627
2026-01-06 02:15:44.15	270.69	25.05	-37.7	-38.6	23.0	0.00e+00	0	34	0	686817280	48	6172
2026-01-06 02:15:45.16	270.99	25.05	-37.9	-38.8	22.9	0.00e+00	0	34	0	688914432	48	6297
2026-01-06 02:15:46.17	271.29	25.06	-38.1	-39.1	22.8	0.00e+00	0	34	0	689963008	48	6465
2026-01-06 02:15:47.18	271.58	25.06	-38.3	-39.3	22.7	0.00e+00	0	34	0	692060160	48	6620
2026-01-06 02:15:48.19	271.88	25.06	-38.1	-39.0	22.9	0.00e+00	0	34	0	694157312	48	6448
2026-01-06 02:15:49.21	272.18	25.06	-37.5	-38.4	23.3	0.00e+00	0	34	0	696254464	48	6033
2026-01-06 02:15:50.21	272.47	25.07	-36.7	-37.5	24.0	0.00e+00	0	34	0	698351616	48	5424
2026-01-06 02:15:51.22	272.77	25.07	-36.5	-37.3	24.1	0.00e+00	0	34	0	699400192	46	5938
2026-01-06 02:15:52.23	273.07	25.07	-36.7	-37.6	24.1	0.00e+00	0	34	0	701497344	46	6112
2026-01-06 02:15:53.24	273.37	25.06	-36.8	-37.7	23.9	0.00e+00	0	34	0	703594496	46	6184
2026-01-06 02:15:54.25	273.66	25.06	-37.0	-37.8	23.8	0.00e+00	0	34	0	705691648	46	6311
2026-01-06 02:15:55.26	273.96	25.06	-37.3	-38.2	23.5	0.00e+00	0	34	0	707788800	46	6547
2026-01-06 02:15:56.27	274.26	25.05	-37.5	-38.4	23.3	0.00e+00	0	34	0	708837376	46	6768
2026-01-06 02:15:57.28	274.55	25.05	-37.2	-38.1	23.7	0.00e+00	0	34	0	710934528	46	6470
2026-01-06 02:15:58.29	274.85	25.04	-36.8	-37.7	23.8	0.00e+00	0	34	0	713031680	46	6198
2026-01-06 02:15:59.30	275.15	25.04	-36.8	-37.7	23.9	0.00e+00	0	34	0	715128832	46	6186
2026-01-06 02:16:00.30	275.44	25.03	-36.9	-37.7	23.8	0.00e+00	0	34	0	717225984	46	6220
2026-01-06 02:16:01.31	275.74	25.02	-36.8	-37.6	23.9	0.00e+00	0	34	0	718274560	46	6151
2026-01-06 02:16:02.32	276.03	25.01	-36.9	-37.7	23.6	0.00e+00	0	34	0	720371712	46	6221
2026-01-06 02:16:03.33	276.33	25.00	-37.0	-37.8	23.7	0.00e+00	0	34	0	722468864	46	6315
2026-01-06 02:16:04.34	276.62	24.99	-37.3	-38.2	23.4	0.00e+00	0	34	0	724566016	46	6551
2026-01-06 02:16:05.35	276.92	24.98	-37.4	-38.3	23.4	0.00e+00	0	34	0	726663168	46	6684
2026-01-06 02:16:06.36	277.21	24.97	-37.6	-38.5	23.1	0.00e+00	0	34	0	727711744	46	6812
2026-01-06 02:16:07.37	277.51	24.96	-37.8	-38.7	23.0	0.00e+00	0	34	0	729808896	48	6237
2026-01-06 02:16:08.38	277.80	24.95	-38.0	-39.0	22.8	0.00e+00	0	34	0	731906048	48	6432
2026-01-06 02:16:09.39	278.10	24.93	-38.0	-39.0	22.9	0.00e+00	0	34	0	734003200	48	6411
2026-01-06 02:16:10.40	278.39	24.92	-37.9	-38.8	23.0	0.00e+00	0	34	0	736100352	48	6283
2026-01-06 02:16:11.41	278.69	24.90	-37.5	-38.4	23.3	0.00e+00	0	34	0	737148928	48	5991
2026-01-06 02:16:12.42	278.98	24.88	-37.3	-38.2	23.4	0.00e+00	0	34	0	739246080	48	5836
2026-01-06 02:16:13.43	279.27	24.87	-37.1	-38.0	23.6	0.00e+00	0	34	0	741343232	48	5715
2026-01-06 02:16:14.44	279.57	24.85	-37.3	-38.2	23.3	0.00e+00	0	34	0	743440384	48	5865
2026-01-06 02:16:15.45	279.86	24.83	-37.2	-38.1	23.5	0.00e+00	0	34	0	745537536	48	5768
2026-01-06 02:16:16.46	280.15	24.81	-37.0	-37.9	23.7	0.00e+00	0	34	0	747634688	48	5652
2026-01-06 02:16:17.47	280.44	24.79	-37.1	-38.0	23.6	0.00e+00	0	34	0	748683264	48	5756
2026-01-06 02:16:18.48	280.74	24.77	-37.2	-38.1	23.5	0.00e+00	0	34	0	750780416	48	5823
2026-01-06 02:16:19.49	281.03	24.75	-37.3	-38.2	23.5	0.00e+00	0	34	0	752877568	48	5856
2026-01-06 02:16:20.50	281.32	24.73	-37.2	-38.0	23.6	0.00e+00	0	34	0	754974720	48	5748
2026-01-06 02:16:21.50	281.61	24.70	-37.1	-38.0	23.6	0.00e+00	0	34	0	757071872	48	5727
2026-01-06 02:16:22.51	281.90	24.68	-37.1	-38.0	23.5	0.00e+00	0	34	0	758120448	48	5697
2026-01-06 02:16:23.52	282.19	24.65	-36.9	-37.8	23.8	0.00e+00	0	34	0	760217600	48	5580
2026-01-06 02:16:24.53	282.47	24.63	-36.9	-37.8	23.7	0.00e+00	0	34	0	762314752	48	5608
2026-01-06 02:16:25.54	282.76	24.60	-37.1	-38.0	23.7	0.00e+00	0	34	0	764411904	48	5697
2026-01-06 02:16:26.55	283.05	24.57	-36.9	-37.7	24.0	0.00e+00	0	34	0	766509056	48	5537
2026-01-06 02:16:27.56	283.34	24.55	-36.3	-37.1	24.3	0.00e+00	0	34	0	767557632	46	5821
2026-01-06 02:16:28.56	283.62	24.52	-36.2	-36.9	24.5	0.00e+00	0	34	0	769654784	46	5692
2026-01-06 02:16:29.58	283.91	24.49	-36.1	-36.9	24.4	0.00e+00	0	34	0	771751936	46	5661
2026-01-06 02:16:30.58	284.20	24.46	-36.4	-37.2	24.2	0.00e+00	0	34	0	773849088	46	5883
2026-01-06 02:16:31.59	284.48	24.43	-36.5	-37.4	24.1	0.00e+00	0	34	0	775946240	46	5971
2026-01-06 02:16:32.60	284.77	24.40	-36.6	-37.4	23.8	0.00e+00	0	34	0	776994816	46	6008
2026-01-06 02:16:33.61	285.05	24.37	-36.5	-37.4	24.2	0.00e+00	0	34	0	779091968	46	5973
2026-01-06 02:16:34.62	285.33	24.33	-36.3	-37.1	24.1	0.00e+00	0	34	0	781189120	46	5795
2026-01-06 02:16:35.63	285.62	24.30	-36.5	-37.3	24.2	0.00e+00	0	34	0	783286272	46	5929
2026-01-06 02:16:36.64	285.90	24.27	-36.3	-37.1	24.3	0.00e+00	0	34	0	785383424	46	5770
2026-01-06 02:16:37.65	286.18	24.23	-36.4	-37.2	24.1	0.00e+00	0	34	0	786432000	46	5892
2026-01-06 02:16:38.66	286.46	24.20	-36.3	-37.1	24.3	0.00e+00	0	34	0	788529152	46	5791
2026-01-06 02:16:39.67	286.74	24.16	-36.3	-37.1	24.3	0.00e+00	0	34	0	790626304	46	5803
2026-01-06 02:16:40.68	287.02	24.13	-36.0	-36.8	24.5	0.00e+00	0	34	0	792723456	46	5615
2026-01-06 02:16:41.69	287.30	24.09	-36.0	-36.8	24.4	0.00e+00	0	34	0	794820608	46	5596
2026-01-06 02:16:42.70	287.58	24.05	-36.0	-36.8	24.5	0.00e+00	0	34	0	795869184	46	5570
2026-01-06 02:16:43.71	287.86	24.01	-35.6	-36.4	24.7	0.00e+00	0	34	0	797966336	44	6010
2026-01-06 02:16:44.72	288.14	23.97	-35.6	-36.3	24.7	0.00e+00	0	34	0	800063488	44	5959
2026-01-06 02:16:45.73	288.41	23.93	-35.9	-36.7	24.6	0.00e+00	0	34	0	802160640	44	6224
2026-01-06 02:16:46.74	288.69	23.89	-36.3	-37.2	24.2	0.00e+00	0	34	0	804257792	44	6547
2026-01-06 02:16:47.74	288.96	23.85	-36.7	-37.6	24.0	0.00e+00	0	34	0	805306368	44	6855
2026-01-06 02:16:48.75	289.24	23.81	-36.9	-37.8	23.8	0.00e+00	0	34	0	807403520	46	6306
2026-01-06 02:16:49.76	289.51	23.77	-36.7	-37.6	24.0	0.00e+00	0	34	0	809500672	46	6130
2026-01-06 02:16:50.77	289.79	23.73	-36.4	-37.3	24.0	0.00e+00	0	34	0	811597824	46	5911
2026-01-06 02:16:51.78	290.06	23.68	-36.0	-36.8	24.5	0.00e+00	0	34	0	813694976	46	5600
2026-01-06 02:16:52.79	290.33	23.64	-35.5	-36.3	24.6	0.00e+00	0	34	0	815792128	44	5952
2026-01-06 02:16:53.80	290.60	23.60	-35.4	-36.2	24.8	0.00e+00	0	34	0	816840704	44	5835
2026-01-06 02:16:54.81	290.87	23.55	-35.1	-35.9	25.0	0.00e+00	0	34	0	818937856	44	5635
2026-01-06 02:16:55.82	291.14	23.50	-35.2	-36.0	25.0	0.00e+00	0	34	0	821035008	44	5742
2026-01-06 02:16:56.83	291.41	23.46	-35.2	-35.9	25.1	0.00e+00	0	34	0	823132160	44	5693
2026-01-06 02:16:57.84	291.68	23.41	-35.2	-35.9	25.0	0.00e+00	0	34	0	825229312	44	5679
2026-01-06 02:16:58.85	291.94	23.36	-35.1	-35.8	25.2	0.00e+00	0	34	0	826277888	44	5615
2026-01-06 02:16:59.86	292.21	23.32	-35.0	-35.7	25.2	0.00e+00	0	34	0	828375040	44	5546
2026-01-06 02:17:00.87	292.48	23.27	-34.6	-35.4	25.4	0.00e+00	0	34	0	830472192	42	5986
2026-01-06 02:17:01.87	292.74	23.22	-34.1	-34.8	25.7	0.00e+00	0	34	0	832569344	42	5618
2026-01-06 02:17:02.88	293.00	23.17	-34.2	-34.9	25.8	0.00e+00	0	34	0	834666496	42	5685
2026-01-06 02:17:03.89	293.26	23.12	-34.5	-35.2	25.3	0.00e+00	0	34	0	835715072	42	5853
2026-01-06 02:17:04.90	293.53	23.07	-34.8	-35.5	25.4	0.00e+00	0	34	0	837812224	42	6063
2026-01-06 02:17:05.91	293.79	23.02	-35.2	-35.9	25.0	0.00e+00	0	34	0	839909376	42	6381
2026-01-06 02:17:06.92	294.05	22.97	-35.4	-36.2	24.9	0.00e+00	0	34	0	842006528	42	6552
2026-01-06 02:17:07.93	294.31	22.92	-35.5	-36.3	24.8	0.00e+00	0	34	0	844103680	42	6620
2026-01-06 02:17:08.94	294.57	22.86	-35.2	-35.9	25.1	0.00e+00	0	34	0	845152256	42	6367
2026-01-06 02:17:09.95	294.83	22.81	-35.3	-36.0	25.0	0.00e+00	0	34	0	847249408	42	6452
2026-01-06 02:17:10.96	295.08	22.76	-34.9	-35.7	25.3	0.00e+00	0	34	0	849346560	42	6186
2026-01-06 02:17:11.97	295.34	22.70	-34.4	-35.1	25.5	0.00e+00	0	34	0	851443712	42	5800
2026-01-06 02:17:12.98	295.59	22.65	-34.5	-35.2	25.3	0.00e+00	0	34	0	853540864	42	5890
2026-01-06 02:17:13.99	295.85	22.59	-34.9	-35.6	25.2	0.00e+00	0	34	0	854589440	42	6146
2026-01-06 02:17:15.00	296.10	22.54	-35.2	-35.9	25.0	0.00e+00	0	34	0	856686592	42	6367
2026-01-06 02:17:16.01	296.36	22.48	-35.5	-36.3	24.8	0.00e+00	0	34	0	858783744	42	6631
2026-01-06 02:17:17.02	296.61	22.43	-35.4	-36.2	24.8	0.00e+00	0	34	0	860880896	42	6599
2026-01-06 02:17:18.02	296.86	22.37	-35.2	-36.0	24.9	0.00e+00	0	34	0	862978048	42	6444
2026-01-06 02:17:19.03	297.11	22.31	-35.3	-36.0	25.0	0.00e+00	0	34	0	864026624	42	6451
2026-01-06 02:17:20.04	297.35	22.26	-34.9	-35.7	25.1	0.00e+00	0	34	0	866123776	42	6192
2026-01-06 02:17:21.05	297.60	22.20	-34.9	-35.6	25.3	0.00e+00	0	34	0	868220928	42	6152
2026-01-06 02:17:22.06	297.85	22.14	-35.0	-35.8	25.1	0.00e+00	0	34	0	870318080	42	6271
2026-01-06 02:17:23.07	298.10	22.08	-35.2	-36.0	25.1	0.00e+00	0	34	0	872415232	42	6412
2026-01-06 02:17:24.08	298.34	22.02	-35.5	-36.3	24.7	0.00e+00	0	34	0	873463808	42	6692
2026-01-06 02:17:25.09	298.59	21.96	-35.6	-36.4	24.7	0.00e+00	0	34	0	875560960	42	6742
2026-01-06 02:17:26.10	298.83	21.90	-35.8	-36.6	24.5	0.00e+00	0	34	0	877658112	42	6868
2026-01-06 02:17:27.11	299.07	21.84	-35.5	-36.3	24.9	0.00e+00	0	34	0	879755264	44	5903
2026-01-06 02:17:28.12	299.31	21.78	-35.3	-36.1	24.8	0.00e+00	0	34	0	881852416	44	5794
2026-01-06 02:17:29.13	299.56	21.72	-35.3	-36.1	24.8	0.00e+00	0	34	0	882900992	44	5796
2026-01-06 02:17:30.14	299.80	21.66	-35.4	-36.2	24.6	0.00e+00	0	34	0	884998144	44	5832
2026-01-06 02:17:31.15	300.03	21.60	-35.5	-36.3	24.7	0.00e+00	0	34	0	887095296	44	5907
2026-01-06 02:17:32.16	300.27	21.54	-35.8	-36.6	24.5	0.00e+00	0	34	0	889192448	44	6108
2026-01-06 02:17:33.17	300.51	21.48	-35.8	-36.6	24.6	0.00e+00	0	34	0	891289600	44	6109
2026-01-06 02:17:34.18	300.75	21.41	-35.9	-36.7	24.4	0.00e+00	0	34	0	892338176	44	6229
2026-01-06 02:17:35.19	300.98	21.35	-36.4	-37.2	24.2	0.00e+00	0	34	0	894435328	44	6599
2026-01-06 02:17:36.20	301.22	21.29	-36.6	-37.5	23.9	0.00e+00	0	34	0	896532480	44	6803
2026-01-06 02:17:37.21	301.45	21.22	-36.9	-37.8	23.8	0.00e+00	0	34	0	898629632	46	6247
2026-01-06 02:17:38.22	301.68	21.16	-37.0	-37.9	23.6	0.00e+00	0	34	0	900726784	46	6320
2026-01-06 02:17:39.22	301.91	21.10	-37.2	-38.1	23.4	0.00e+00	0	34	0	901775360	46	6520
2026-01-06 02:17:40.23	302.14	21.03	-36.9	-37.8	23.8	0.00e+00	0	34	0	903872512	46	6266
2026-01-06 02:17:41.24	302.37	20.97	-36.1	-37.0	24.4	0.00e+00	0	34	0	905969664	46	5702
2026-01-06 02:17:42.25	302.60	20.90	-36.0	-36.8	24.5	0.00e+00	0	34	0	908066816	46	5600
2026-01-06 02:17:43.26	302.83	20.84	-35.8	-36.5	24.6	0.00e+00	0	34	0	910163968	44	6096
2026-01-06 02:17:44.27	303.05	20.77	-35.8	-36.6	24.6	0.00e+00	0	34	0	912261120	44	6111
2026-01-06 02:17:45.28	303.28	20.71	-35.7	-36.5	24.5	0.00e+00	0	34	0	913309696	44	6095
2026-01-06 02:17:46.29	303.50	20.64	-36.0	-36.8	24.3	0.00e+00	0	34	0	915406848	44	6261
2026-01-06 02:17:47.30	303.73	20.57	-36.2	-37.0	24.3	0.00e+00	0	34	0	917504000	44	6437
2026-01-06 02:17:48.30	303.95	20.51	-36.5	-37.3	24.0	0.00e+00	0	34	0	919601152	44	6688
2026-01-06 02:17:49.31	304.17	20.44	-36.9	-37.7	23.7	0.00e+00	0	34	0	921698304	46	6220
2026-01-06 02:17:50.32	304.39	20.37	-37.0	-37.9	23.6	0.00e+00	0	34	0	922746880	46	6357
2026-01-06 02:17:51.33	304.61	20.31	-37.3	-38.2	23.5	0.00e+00	0	34	0	924844032	46	6554
2026-01-06 02:17:52.34	304.83	20.24	-37.3	-38.2	23.5	0.00e+00	0	34	0	926941184	46	6550
2026-01-06 02:17:53.35	305.05	20.17	-37.2	-38.1	23.5	0.00e+00	0	34	0	929038336	46	6496
2026-01-06 02:17:54.36	305.27	20.10	-37.1	-38.0	23.6	0.00e+00	0	34	0	931135488	46	6399
2026-01-06 02:17:55.37	305.48	20.04	-37.0	-37.8	23.7	0.00e+00	0	34	0	932184064	46	6312
2026-01-06 02:17:56.38	305.70	19.97	-36.6	-37.4	23.9	0.00e+00	0	34	0	934281216	46	6027
2026-01-06 02:17:57.39	305.91	19.90	-36.3	-37.2	24.2	0.00e+00	0	34	0	936378368	46	5843
2026-01-06 02:17:58.40	306.13	19.83	-36.3	-37.1	24.2	0.00e+00	0	34	0	938475520	46	5814
2026-01-06 02:17:59.40	306.34	19.76	-36.4	-37.2	24.2	0.00e+00	0	34	0	940572672	46	5885
2026-01-06 02:18:00.41	306.55	19.69	-36.5	-37.4	24.0	0.00e+00	0	34	0	941621248	46	5981
2026-01-06 02:18:01.42	306.76	19.62	-36.8	-37.7	23.8	0.00e+00	0	34	0	943718400	46	6192
2026-01-06 02:18:02.43	306.97	19.55	-37.0	-37.9	23.6	0.00e+00	0	34	0	945815552	46	6334
2026-01-06 02:18:03.44	307.18	19.48	-37.4	-38.4	23.3	0.00e+00	0	34	0	947912704	46	6694
2026-01-06 02:18:04.45	307.39	19.41	-37.4	-38.3	23.4	0.00e+00	0	34	0	950009856	46	6629
2026-01-06 02:18:05.46	307.59	19.34	-37.4	-38.3	23.2	0.00e+00	0	34	0	951058432	46	6686
2026-01-06 02:18:06.47	307.80	19.27	-37.5	-38.5	23.1	0.00e+00	0	34	0	953155584	46	6787
2026-01-06 02:18:07.48	308.01	19.20	-37.1	-38.0	23.4	0.00e+00	0	34	0	955252736	46	6425
2026-01-06 02:18:08.49	308.21	19.13	-37.1	-38.0	23.6	0.00e+00	0	34	0	957349888	46	6410
2026-01-06 02:18:09.50	308.41	19.06	-37.2	-38.1	23.5	0.00e+00	0	34	0	959447040	46	6468
2026-01-06 02:18:10.50	308.61	18.99	-37.2	-38.1	23.3	0.00e+00	0	34	0	960495616	46	6507
2026-01-06 02:18:11.51	308.82	18.92	-37.5	-38.4	23.2	0.00e+00	0	34	0	962592768	46	6701
2026-01-06 02:18:12.52	309.02	18.85	-37.9	-38.9	22.9	0.00e+00	0	34	0	964689920	48	6324
2026-01-06 02:18:13.53	309.22	18.78	-37.9	-38.8	22.9	0.00e+00	0	34	0	966787072	48	6308
2026-01-06 02:18:14.54	309.41	18.71	-37.8	-38.7	22.9	0.00e+00	0	34	0	968884224	48	6243
2026-01-06 02:18:15.55	309.61	18.64	-37.6	-38.5	23.0	0.00e+00	0	34	0	969932800	48	6055
2026-01-06 02:18:16.56	309.81	18.56	-37.5	-38.4	23.1	0.00e+00	0	34	0	972029952	48	6028
2026-01-06 02:18:17.57	310.01	18.49	-37.4	-38.3	23.1	0.00e+00	0	34	0	974127104	48	5938
2026-01-06 02:18:18.58	310.20	18.42	-37.5	-38.5	23.0	0.00e+00	0	34	0	976224256	48	6062
2026-01-06 02:18:19.59	310.39	18.35	-37.5	-38.4	23.1	0.00e+00	0	34	0	978321408	48	6008
2026-01-06 02:18:20.60	310.59	18.28	-37.5	-38.4	23.1	0.00e+00	0	34	0	979369984	48	5993
2026-01-06 02:18:21.61	310.78	18.20	-37.7	-38.6	23.0	0.00e+00	0	34	0	981467136	48	6148
2026-01-06 02:18:22.62	310.97	18.13	-37.3	-38.2	23.2	0.00e+00	0	34	0	983564288	48	5867
2026-01-06 02:18:23.62	311.16	18.06	-37.0	-37.9	23.5	0.00e+00	0	34	0	985661440	48	5673
2026-01-06 02:18:24.63	311.35	17.99	-36.9	-37.8	23.7	0.00e+00	0	34	0	987758592	46	6252
2026-01-06 02:18:25.64	311.54	17.92	-36.6	-37.5	23.8	0.00e+00	0	34	0	989855744	46	6071
2026-01-06 02:18:26.65	311.73	17.84	-36.6	-37.4	23.8	0.00e+00	0	34	0	990904320	46	6011
2026-01-06 02:18:27.66	311.92	17.77	-36.7	-37.5	23.7	0.00e+00	0	34	0	993001472	46	6100
2026-01-06 02:18:28.67	312.10	17.70	-36.9	-37.8	23.5	0.00e+00	0	34	0	995098624	46	6311
2026-01-06 02:18:29.68	312.29	17.63	-37.1	-38.0	23.4	0.00e+00	0	34	0	997195776	46	6405
2026-01-06 02:18:30.69	312.47	17.55	-37.3	-38.2	23.3	0.00e+00	0	34	0	999292928	46	6566
2026-01-06 02:18:31.70	312.66	17.48	-37.3	-38.3	23.3	0.00e+00	0	34	0	1000341504	46	6616
2026-01-06 02:18:32.71	312.84	17.41	-37.5	-38.4	23.2	0.00e+00	0	34	0	1002438656	46	6708
2026-01-06 02:18:33.72	313.02	17.33	-37.5	-38.4	23.2	0.00e+00	0	34	0	1004535808	46	6732
2026-01-06 02:18:34.73	313.20	17.26	-37.1	-37.9	23.3	0.00e+00	0	34	0	1006632960	46	6388
2026-01-06 02:18:35.74	313.38	17.19	-37.3	-38.2	23.2	0.00e+00	0	34	0	1008730112	46	6582
2026-01-06 02:18:36.75	313.56	17.11	-37.4	-38.3	23.1	0.00e+00	0	34	0	1009778688	46	6661
2026-01-06 02:18:37.76	313.74	17.04	-37.6	-38.6	23.0	0.00e+00	0	34	0	1011875840	46	6871
2026-01-06 02:18:38.77	313.92	16.97	-38.2	-39.2	22.4	0.00e+00	0	34	0	1013972992	48	6602
2026-01-06 02:18:39.78	314.09	16.89	-38.6	-39.7	22.1	0.00e+00	0	34	0	1016070144	48	6937
2026-01-06 02:18:40.79	314.27	16.82	-38.8	-39.9	21.9	0.00e+00	0	34	0	1018167296	50	6355
2026-01-06 02:18:41.79	314.44	16.75	-38.9	-40.0	21.8	0.00e+00	0	34	0	1019215872	50	6423
2026-01-06 02:18:42.80	314.62	16.67	-38.5	-39.6	22.2	0.00e+00	0	34	0	1021313024	50	6132
2026-01-06 02:18:43.81	314.79	16.60	-38.0	-39.0	22.7	0.00e+00	0	34	0	1023410176	50	5727
2026-01-06 02:18:44.82	314.96	16.53	-37.9	-38.9	22.6	0.00e+00	0	34	0	1025507328	50	5634
2026-01-06 02:18:45.83	315.14	16.45	-37.0	-37.9	23.5	0.00e+00	0	34	0	1027604480	48	5660
2026-01-06 02:18:46.84	315.31	16.38	-36.8	-37.7	23.6	0.00e+00	0	34	0	1028653056	48	5530
2026-01-06 02:18:47.85	315.48	16.31	-36.9	-37.8	23.6	0.00e+00	0	34	0	1030750208	46	6271
2026-01-06 02:18:48.86	315.65	16.23	-36.7	-37.6	23.7	0.00e+00	0	34	0	1032847360	46	6124
2026-01-06 02:18:49.87	315.82	16.16	-37.2	-38.1	23.3	0.00e+00	0	34	0	1034944512	46	6520
2026-01-06 02:18:50.88	315.98	16.09	-37.4	-38.3	23.1	0.00e+00	0	34	0	1037041664	46	6659
2026-01-06 02:18:51.88	316.15	16.01	-37.6	-38.6	22.9	0.00e+00	0	34	0	1038090240	46	6874
2026-01-06 02:18:52.89	316.32	15.94	-37.7	-38.6	22.9	0.00e+00	0	34	0	1040187392	46	6911
2026-01-06 02:18:53.90	316.48	15.87	-37.6	-38.5	23.1	0.00e+00	0	34	0	1042284544	46	6819
2026-01-06 02:18:54.91	316.65	15.79	-37.3	-38.2	23.2	0.00e+00	0	34	0	1044381696	46	6604
2026-01-06 02:18:55.92	316.81	15.72	-37.3	-38.3	23.2	0.00e+00	0	34	0	1046478848	46	6633
2026-01-06 02:18:56.92	316.97	15.65	-36.9	-37.8	23.5	0.00e+00	0	34	0	1047527424	46	6271
2026-01-06 02:18:57.93	317.13	15.57	-36.8	-37.7	23.6	0.00e+00	0	34	0	1049624576	46	6182
2026-01-06 02:18:58.94	317.30	15.50	-36.8	-37.7	23.6	0.00e+00	0	34	0	1051721728	46	6191
2026-01-06 02:18:59.95	317.46	15.43	-37.1	-38.0	23.4	0.00e+00	0	34	0	1053818880	46	6405
2026-01-06 02:19:00.96	317.62	15.35	-37.1	-38.0	23.3	0.00e+00	0	34	0	1055916032	46	6436
2026-01-06 02:19:01.97	317.78	15.28	-37.5	-38.5	23.1	0.00e+00	0	34	0	1056964608	46	6773
2026-01-06 02:19:02.98	317.93	15.21	-37.6	-38.5	22.9	0.00e+00	0	34	0	1059061760	46	6812
2026-01-06 02:19:03.98	318.09	15.13	-37.9	-38.9	22.7	0.00e+00	0	34	0	1061158912	48	6344
2026-01-06 02:19:04.99	318.25	15.06	-37.6	-38.6	22.9	0.00e+00	0	34	0	1063256064	48	6129
2026-01-06 02:19:06.00	318.40	14.99	-37.4	-38.4	23.1	0.00e+00	0	34	0	1065353216	48	5976
2026-01-06 02:19:07.01	318.56	14.91	-37.4	-38.3	23.1	0.00e+00	0	34	0	1066401792	48	5929
2026-01-06 02:19:08.02	318.71	14.84	-37.4	-38.4	23.1	0.00e+00	0	34	0	1068498944	48	5990
2026-01-06 02:19:09.03	318.87	14.77	-37.5	-38.4	23.0	0.00e+00	0	34	0	1070596096	48	6032
2026-01-06 02:19:10.04	319.02	14.69	-37.5	-38.5	23.0	0.00e+00	0	34	0	1072693248	48	6049
2026-01-06 02:19:11.05	319.17	14.62	-37.6	-38.6	22.9	0.00e+00	0	34	0	1074790400	48	6144
2026-01-06 02:19:12.06	319.33	14.55	-37.9	-38.9	22.5	0.00e+00	0	34	0	1075838976	48	6363
2026-01-06 02:19:13.07	319.48	14.47	-38.1	-39.1	22.5	0.00e+00	0	34	0	1077936128	48	6510
2026-01-06 02:19:14.08	319.63	14.40	-38.2	-39.2	22.3	0.00e+00	0	34	0	1080033280	48	6567
2026-01-06 02:19:15.09	319.78	14.33	-38.1	-39.1	22.5	0.00e+00	0	34	0	1082130432	48	6493
2026-01-06 02:19:16.10	319.93	14.26	-38.1	-39.1	22.5	0.00e+00	0	34	0	1084227584	48	6516
2026-01-06 02:19:17.11	320.07	14.18	-37.9	-38.9	22.6	0.00e+00	0	34	0	1086324736	48	6374
2026-01-06 02:19:18.12	320.22	14.11	-37.8	-38.7	22.8	0.00e+00	0	34	0	1087373312	48	6225
2026-01-06 02:19:19.13	320.37	14.04	-37.7	-38.6	22.8	0.00e+00	0	34	0	1089470464	48	6146
2026-01-06 02:19:20.14	320.52	13.96	-37.4	-38.4	23.0	0.00e+00	0	34	0	1091567616	48	5978
2026-01-06 02:19:21.15	320.66	13.89	-37.6	-38.5	22.8	0.00e+00	0	34	0	1093664768	48	6083
2026-01-06 02:19:22.16	320.81	13.82	-37.7	-38.6	22.4	0.00e+00	0	34	0	1095761920	48	6150
2026-01-06 02:19:23.17	320.95	13.75	-37.8	-38.8	22.5	0.00e+00	0	34	0	1096810496	48	6277
2026-01-06 02:19:24.18	321.09	13.67	-38.2	-39.2	22.4	0.00e+00	0	34	0	1098907648	48	6598
2026-01-06 02:19:25.18	321.23	13.60	-38.4	-39.5	22.1	0.00e+00	0	34	0	1101004800	48	6809
2026-01-06 02:19:26.19	321.38	13.53	-38.8	-39.9	21.8	0.00e+00	0	34	0	1103101952	50	6387
2026-01-06 02:19:27.20	321.52	13.46	-38.6	-39.7	21.8	0.00e+00	0	34	0	1105199104	50	6221
2026-01-06 02:19:28.21	321.66	13.38	-38.6	-39.7	21.5	0.00e+00	0	34	0	1106247680	50	6197
2026-01-06 02:19:29.22	321.80	13.31	-38.5	-39.6	21.8	0.00e+00	0	34	0	1108344832	50	6115
2026-01-06 02:19:30.23	321.94	13.24	-38.3	-39.3	22.2	0.00e+00	0	34	0	1110441984	50	5940
2026-01-06 02:19:31.24	322.08	13.17	-38.1	-39.1	22.3	0.00e+00	0	34	0	1112539136	50	5812
2026-01-06 02:19:32.25	322.22	13.10	-38.2	-39.2	22.3	0.00e+00	0	34	0	1114636288	50	5893
2026-01-06 02:19:33.26	322.35	13.02	-38.2	-39.2	22.4	0.00e+00	0	34	0	1115684864	50	5867
2026-01-06 02:19:34.27	322.49	12.95	-38.3	-39.3	22.2	0.00e+00	0	34	0	1117782016	50	5927
2026-01-06 02:19:35.28	322.63	12.88	-38.5	-39.5	22.0	0.00e+00	0	34	0	1119879168	50	6102
2026-01-06 02:19:36.29	322.76	12.81	-38.4	-39.4	22.1	0.00e+00	0	34	0	1121976320	50	5996
2026-01-06 02:19:37.30	322.90	12.74	-38.4	-39.5	22.0	0.00e+00	0	34	0	1124073472	50	6044
2026-01-06 02:19:38.30	323.03	12.67	-38.4	-39.4	22.2	0.00e+00	0	34	0	1125122048	50	6032
2026-01-06 02:19:39.31	323.16	12.59	-38.3	-39.3	22.2	0.00e+00	0	34	0	1127219200	50	5948
2026-01-06 02:19:40.32	323.30	12.52	-38.3	-39.3	22.3	0.00e+00	0	34	0	1129316352	50	5923
2026-01-06 02:19:41.33	323.43	12.45	-38.1	-39.1	22.6	0.00e+00	0	34	0	1131413504	50	5804
2026-01-06 02:19:42.34	323.56	12.38	-38.0	-38.9	22.5	0.00e+00	0	34	0	1133510656	50	5681
2026-01-06 02:19:43.35	323.69	12.31	-37.9	-38.8	22.7	0.00e+00	0	34	0	1134559232	48	6314
2026-01-06 02:19:44.36	323.82	12.24	-37.8	-38.7	22.7	0.00e+00	0	34	0	1136656384	48	6240
2026-01-06 02:19:45.37	323.95	12.17	-37.6	-38.5	23.0	0.00e+00	0	34	0	1138753536	48	6095
2026-01-06 02:19:46.38	324.08	12.09	-37.3	-38.3	23.0	0.00e+00	0	34	0	1140850688	48	5899
2026-01-06 02:19:47.39	324.21	12.02	-37.1	-38.1	23.2	0.00e+00	0	34	0	1142947840	48	5764
2026-01-06 02:19:48.40	324.34	11.95	-37.2	-38.1	23.2	0.00e+00	0	34	0	1143996416	48	5807
2026-01-06 02:19:49.41	324.47	11.88	-37.4	-38.3	22.9	0.00e+00	0	34	0	1146093568	48	5943
2026-01-06 02:19:50.42	324.59	11.81	-37.3	-38.2	23.1	0.00e+00	0	34	0	1148190720	48	5871
2026-01-06 02:19:51.43	324.72	11.74	-37.5	-38.4	22.9	0.00e+00	0	34	0	1150287872	48	6010
2026-01-06 02:19:52.44	324.85	11.67	-37.6	-38.6	22.8	0.00e+00	0	34	0	1152385024	48	6111
2026-01-06 02:19:53.45	324.97	11.60	-37.7	-38.7	22.7	0.00e+00	0	34	0	1154482176	48	6184
2026-01-06 02:19:54.46	325.10	11.53	-37.8	-38.8	22.6	0.00e+00	0	34	0	1155530752	48	6279
2026-01-06 02:19:55.47	325.22	11.46	-37.9	-38.9	22.4	0.00e+00	0	34	0	1157627904	48	6346
2026-01-06 02:19:56.48	325.34	11.39	-37.9	-38.9	22.6	0.00e+00	0	34	0	1159725056	48	6324
2026-01-06 02:19:57.49	325.47	11.32	-37.8	-38.8	22.5	0.00e+00	0	34	0	1161822208	48	6277
2026-01-06 02:19:58.50	325.59	11.25	-37.7	-38.7	22.7	0.00e+00	0	34	0	1163919360	48	6204
2026-01-06 02:19:59.51	325.71	11.18	-37.8	-38.8	22.6	0.00e+00	0	34	0	1164967936	48	6271
2026-01-06 02:20:00.52	325.83	11.11	-37.8	-38.8	22.6	0.00e+00	0	34	0	1167065088	48	6286
2026-01-06 02:20:01.52	325.95	11.04	-37.6	-38.6	22.7	0.00e+00	0	34	0	1169162240	48	6118
2026-01-06 02:20:02.54	326.07	10.97	-38.0	-39.0	22.5	0.00e+00	0	34	0	1171259392	48	6392
2026-01-06 02:20:03.54	326.19	10.90	-38.0	-39.0	22.5	0.00e+00	0	34	0	1173356544	48	6416
2026-01-06 02:20:04.55	326.31	10.83	-38.0	-39.0	22.4	0.00e+00	0	34	0	1174405120	48	6423
2026-01-06 02:20:05.56	326.43	10.76	-38.0	-39.0	22.4	0.00e+00	0	34	0	1176502272	48	6450
2026-01-06 02:20:06.57	326.55	10.69	-38.0	-39.0	22.5	0.00e+00	0	34	0	1178599424	48	6443
2026-01-06 02:20:07.58	326.67	10.62	-38.0	-39.0	22.3	0.00e+00	0	34	0	1180696576	48	6446
2026-01-06 02:20:08.59	326.78	10.55	-38.0	-39.0	22.4	0.00e+00	0	34	0	1182793728	48	6418
2026-01-06 02:20:09.60	326.90	10.48	-38.0	-39.0	22.3	0.00e+00	0	34	0	1183842304	48	6464
2026-01-06 02:20:10.61	327.02	10.42	-38.2	-39.2	22.2	0.00e+00	0	34	0	1185939456	48	6593
2026-01-06 02:20:11.62	327.13	10.35	-38.1	-39.1	22.4	0.00e+00	0	34	0	1188036608	48	6483
2026-01-06 02:20:12.63	327.25	10.28	-38.2	-39.2	22.3	0.00e+00	0	34	0	1190133760	48	6593
2026-01-06 02:20:13.64	327.36	10.21	-38.2	-39.2	22.3	0.00e+00	0	34	0	1192230912	48	6599
2026-01-06 02:20:14.65	327.47	10.14	-38.2	-39.2	22.2	0.00e+00	0	34	0	1193279488	48	6574
2026-01-06 02:20:15.66	327.59	10.07	-38.1	-39.1	22.3	0.00e+00	0	34	0	1195376640	48	6505
2026-01-06 02:20:16.67	327.70	10.00	-38.1	-39.1	22.3	0.00e+00	0	34	0	1197473792	48	6470
2026-01-06 02:20:17.68	327.81	9.94	-38.1	-39.1	22.2	0.00e+00	0	34	0	1199570944	48	6527
2026-01-06 02:20:18.69	327.92	9.87	-38.3	-39.3	22.0	0.00e+00	0	34	0	1201668096	48	6692
