passes_logs/2026/01/06/R4.6S_Anadyr/R4.6S_Anadyr__20260106_184015_FENGYUN_3E_rec.log

#Pass ID: 20260106_184015_FENGYUN 3E
#Satellite: FENGYUN 3E
#Configuration: FENGYUN 3E
#almurnet v.1.7.20251203
#Start time: 2026-01-06 18:40:17

#Version: 2.2.20231116
#Station: R4.6S_Anadyr
#Location: 177.4865 lon 64.73178 lat
#TLE: 1 49008U 21062A   26005.56299987  .00000339  00000+0  18069-3 0  9991
#TLE: 2 49008  98.7472  10.8019 0001562 158.0357 202.0886 14.19884907233502

#Time	Az	El	Level	Level2	SNR	BER	BlckErr	Temp	State	Recorded	gain1	gain2
2026-01-06 18:40:17.56	19.88	0.11	-48.7	-66.5	3.5	3.02e+01	0	30	0	0	60	80997
2026-01-06 18:40:18.57	19.90	0.17	-48.2	-59.4	3.6	8.45e-01	0	31	104	0	60	33925
2026-01-06 18:40:19.58	19.91	0.23	-48.2	-59.5	3.6	8.46e-01	0	32	104	0	60	34103
2026-01-06 18:40:20.59	19.92	0.29	-48.3	-59.5	3.6	8.45e-01	0	32	104	0	60	34133
2026-01-06 18:40:21.60	19.94	0.35	-48.3	-59.6	3.6	8.45e-01	0	32	104	0	60	34514
2026-01-06 18:40:22.61	19.95	0.41	-48.3	-59.5	3.6	8.45e-01	0	32	104	0	60	34147
2026-01-06 18:40:23.62	19.97	0.47	-48.4	-59.6	3.6	8.46e-01	0	32	104	0	60	34359
2026-01-06 18:40:24.63	19.98	0.53	-48.1	-59.6	3.6	8.46e-01	0	32	104	0	60	34542
2026-01-06 18:40:25.64	20.00	0.59	-48.4	-59.6	3.6	8.45e-01	0	32	104	0	60	34372
2026-01-06 18:40:26.65	20.01	0.66	-47.7	-59.5	3.6	8.45e-01	0	32	104	0	60	34139
2026-01-06 18:40:27.66	20.03	0.72	-48.1	-59.4	3.6	8.46e-01	0	32	104	0	60	33885
2026-01-06 18:40:28.67	20.04	0.78	-48.0	-59.4	3.6	8.47e-01	0	32	104	0	60	33566
2026-01-06 18:40:29.68	20.05	0.84	-47.9	-59.2	3.6	8.45e-01	0	32	104	0	60	32889
2026-01-06 18:40:30.69	20.07	0.90	-47.5	-59.0	3.6	8.46e-01	0	32	104	0	60	32128
2026-01-06 18:40:31.70	20.08	0.96	-47.5	-58.8	3.6	8.45e-01	0	32	104	0	60	31463
2026-01-06 18:40:32.71	20.10	1.02	-47.3	-58.5	3.6	8.45e-01	0	32	104	0	60	30421
2026-01-06 18:40:33.72	20.11	1.09	-47.0	-58.1	3.6	8.45e-01	0	32	104	0	60	28897
2026-01-06 18:40:34.73	20.13	1.15	-46.8	-57.7	3.6	8.46e-01	0	32	104	0	60	27867
2026-01-06 18:40:35.73	20.14	1.21	-46.8	-57.7	3.6	8.45e-01	0	32	104	0	60	27765
2026-01-06 18:40:36.74	20.16	1.27	-46.8	-57.7	3.6	8.46e-01	0	32	104	0	60	27716
2026-01-06 18:40:37.75	20.17	1.33	-46.8	-57.7	3.6	8.46e-01	0	32	104	0	60	27634
2026-01-06 18:40:38.77	20.19	1.40	-46.8	-57.6	3.6	8.44e-01	0	32	104	0	60	27432
2026-01-06 18:40:39.78	20.20	1.46	-46.8	-57.6	3.6	8.46e-01	0	32	104	0	60	27438
2026-01-06 18:40:40.79	20.22	1.52	-46.8	-57.8	3.6	8.46e-01	0	32	104	0	60	27999
2026-01-06 18:40:41.80	20.23	1.59	-46.8	-57.8	3.6	8.44e-01	0	32	104	0	60	28044
2026-01-06 18:40:42.80	20.25	1.65	-46.8	-57.8	3.6	8.46e-01	0	32	104	0	60	28114
2026-01-06 18:40:43.81	20.27	1.71	-46.8	-57.9	3.6	8.45e-01	0	32	104	0	60	28466
2026-01-06 18:40:44.82	20.28	1.78	-46.8	-58.0	3.6	8.45e-01	0	32	104	0	60	28725
2026-01-06 18:40:45.83	20.30	1.84	-46.8	-57.9	3.6	8.45e-01	0	32	104	0	60	28473
2026-01-06 18:40:46.84	20.31	1.90	-46.8	-58.0	3.6	8.45e-01	0	32	104	0	60	28716
2026-01-06 18:40:47.85	20.33	1.97	-46.8	-58.0	3.6	8.45e-01	0	32	104	0	60	28654
2026-01-06 18:40:48.86	20.34	2.03	-46.8	-58.0	3.6	8.45e-01	0	32	104	0	60	28773
2026-01-06 18:40:49.87	20.36	2.10	-46.8	-58.0	3.6	8.45e-01	0	32	104	0	60	28673
2026-01-06 18:40:50.88	20.37	2.16	-46.8	-57.8	3.6	8.45e-01	0	32	104	0	60	28008
2026-01-06 18:40:51.89	20.39	2.22	-46.7	-57.0	3.6	8.45e-01	0	32	104	0	60	25709
2026-01-06 18:40:52.90	20.41	2.29	-46.6	-56.2	3.7	8.43e-01	0	32	104	0	60	23347
2026-01-06 18:40:53.91	20.42	2.35	-46.5	-55.4	3.6	8.44e-01	0	32	104	0	60	21267
2026-01-06 18:40:54.92	20.44	2.42	-46.4	-53.3	3.9	8.35e-01	0	32	0	0	60	16781
2026-01-06 18:40:55.93	20.45	2.48	-46.3	-52.7	4.0	8.28e-01	0	32	0	0	60	15544
2026-01-06 18:40:56.94	20.47	2.55	-46.3	-52.7	3.9	8.26e-01	0	33	0	0	60	15639
2026-01-06 18:40:57.95	20.48	2.61	-46.3	-52.7	4.0	8.27e-01	0	32	0	0	60	15516
2026-01-06 18:40:58.96	20.50	2.68	-46.3	-52.7	3.9	8.28e-01	0	33	0	0	60	15656
2026-01-06 18:40:59.97	20.52	2.74	-45.9	-51.0	5.0	7.75e-01	0	32	0	0	60	12775
2026-01-06 18:41:00.97	20.53	2.81	-45.2	-49.2	6.9	2.39e-01	0	32	0	4194304	60	10424
2026-01-06 18:41:01.98	20.55	2.88	-44.1	-47.1	9.6	1.77e-02	0	33	0	11534336	60	8192
2026-01-06 18:41:02.99	20.57	2.94	-42.7	-44.9	12.1	8.09e-04	0	32	0	18874368	60	6334
2026-01-06 18:41:04.00	20.58	3.01	-41.3	-42.9	14.1	1.14e-05	0	32	0	26214400	56	6340
2026-01-06 18:41:05.01	20.60	3.07	-39.8	-41.1	16.0	0.00e+00	0	32	0	33554432	54	5823
2026-01-06 18:41:06.02	20.61	3.14	-39.0	-40.2	16.9	0.00e+00	0	33	0	40894464	52	5864
2026-01-06 18:41:07.03	20.63	3.21	-38.4	-39.4	17.7	0.00e+00	0	33	0	48234496	50	6017
2026-01-06 18:41:08.04	20.65	3.27	-37.7	-38.7	18.5	0.00e+00	0	32	0	55574528	48	6176
2026-01-06 18:41:09.05	20.66	3.34	-37.7	-38.7	18.4	0.00e+00	0	33	0	62914560	48	6183
2026-01-06 18:41:10.06	20.68	3.41	-37.8	-38.9	18.2	0.00e+00	0	32	0	69206016	48	6327
2026-01-06 18:41:11.07	20.70	3.48	-38.2	-39.2	17.8	0.00e+00	0	32	0	76546048	48	6594
2026-01-06 18:41:12.08	20.71	3.54	-39.1	-40.3	16.9	0.00e+00	0	32	0	84934656	50	6625
2026-01-06 18:41:13.09	20.73	3.61	-40.0	-41.3	15.8	0.00e+00	0	33	0	91226112	52	6672
2026-01-06 18:41:14.10	20.75	3.68	-41.3	-43.0	13.9	0.00e+00	0	33	0	98566144	54	7197
2026-01-06 18:41:15.11	20.76	3.75	-42.9	-45.1	11.7	3.44e-04	0	33	0	105906176	58	7328
2026-01-06 18:41:16.13	20.78	3.82	-34.6	-35.4	21.7	0.00e+00	0	33	0	113246208	42	5988
2026-01-06 18:41:17.14	20.80	3.88	-41.3	-43.0	13.5	1.10e-06	0	33	0	120586240	52	8075
2026-01-06 18:41:18.15	20.82	3.95	-46.9	-57.6	3.6	5.11e-01	0	33	104	126877696	60	27396
2026-01-06 18:41:19.15	20.83	4.02	-38.3	-39.3	6.1	7.99e-01	0	33	104	126877696	52	5285
2026-01-06 18:41:20.16	20.85	4.09	-46.6	-56.4	3.6	8.45e-01	0	33	104	126877696	60	23812
2026-01-06 18:41:21.17	20.87	4.16	-38.9	-40.0	16.8	8.05e-01	0	33	104	126877696	54	5122
2026-01-06 18:41:22.18	20.88	4.23	-38.5	-39.6	17.3	0.00e+00	0	32	0	128974848	50	6138
2026-01-06 18:41:23.19	20.90	4.30	-38.7	-39.9	17.4	0.00e+00	0	33	0	136314880	50	6321
2026-01-06 18:41:24.20	20.92	4.37	-38.2	-39.2	18.3	0.00e+00	0	33	0	143654912	50	5870
2026-01-06 18:41:25.21	20.94	4.44	-37.6	-38.5	18.7	0.00e+00	0	33	0	150994944	48	6090
2026-01-06 18:41:26.22	20.95	4.51	-37.5	-38.5	18.9	0.00e+00	0	32	0	158334976	48	6042
2026-01-06 18:41:27.23	20.97	4.58	-37.1	-38.0	19.4	0.00e+00	0	33	0	165675008	46	6391
2026-01-06 18:41:28.24	20.99	4.65	-36.8	-37.7	19.5	0.00e+00	0	32	0	173015040	46	6228
2026-01-06 18:41:29.25	21.01	4.72	-36.8	-37.7	19.7	0.00e+00	0	33	0	180355072	46	6181
2026-01-06 18:41:30.26	21.02	4.79	-36.2	-37.0	20.5	0.00e+00	0	33	0	187695104	46	5712
2026-01-06 18:41:31.27	21.04	4.86	-35.0	-35.8	21.6	0.00e+00	0	33	0	193986560	44	5585
2026-01-06 18:41:32.28	21.06	4.93	-34.2	-34.9	22.4	0.00e+00	0	33	0	202375168	42	5637
2026-01-06 18:41:33.29	21.08	5.00	-34.2	-35.0	22.3	0.00e+00	0	33	0	209715200	42	5712
2026-01-06 18:41:34.30	21.10	5.07	-33.9	-34.6	22.7	0.00e+00	0	33	0	216006656	40	6136
2026-01-06 18:41:35.31	21.11	5.14	-33.7	-34.4	22.9	0.00e+00	0	33	0	223346688	40	5977
2026-01-06 18:41:36.32	21.13	5.22	-33.8	-34.5	22.7	0.00e+00	0	33	0	230686720	40	6087
2026-01-06 18:41:37.33	21.15	5.29	-33.8	-34.5	22.7	0.00e+00	0	33	0	238026752	40	6080
2026-01-06 18:41:38.34	21.17	5.36	-33.7	-34.4	22.7	0.00e+00	0	33	0	245366784	40	6030
2026-01-06 18:41:39.35	21.19	5.43	-33.9	-34.6	22.6	0.00e+00	0	33	0	252706816	40	6127
2026-01-06 18:41:40.36	21.21	5.50	-34.2	-34.9	22.5	0.00e+00	0	33	0	260046848	40	6367
2026-01-06 18:41:41.37	21.22	5.58	-33.6	-34.3	22.9	0.00e+00	0	33	0	267386880	40	5950
2026-01-06 18:41:42.38	21.24	5.65	-33.4	-34.1	23.3	0.00e+00	0	33	0	274726912	40	5765
2026-01-06 18:41:43.39	21.26	5.72	-33.3	-33.9	23.3	0.00e+00	0	33	0	282066944	40	5691
2026-01-06 18:41:44.40	21.28	5.80	-33.3	-34.0	23.3	0.00e+00	0	33	0	289406976	40	5703
2026-01-06 18:41:45.41	21.30	5.87	-33.3	-33.9	23.3	0.00e+00	0	33	0	296747008	40	5686
2026-01-06 18:41:46.42	21.32	5.94	-33.2	-33.9	23.4	0.00e+00	0	33	0	304087040	40	5682
2026-01-06 18:41:47.43	21.34	6.02	-33.2	-33.9	23.4	0.00e+00	0	33	0	311427072	40	5655
2026-01-06 18:41:48.44	21.36	6.09	-33.1	-33.8	23.5	0.00e+00	0	33	0	318767104	40	5585
2026-01-06 18:41:49.45	21.38	6.17	-33.1	-33.8	23.5	0.00e+00	0	33	0	326107136	40	5593
2026-01-06 18:41:50.46	21.39	6.24	-33.1	-33.8	23.5	0.00e+00	0	33	0	333447168	40	5568
2026-01-06 18:41:51.47	21.41	6.32	-33.1	-33.8	23.6	0.00e+00	0	33	0	339738624	40	5579
2026-01-06 18:41:52.48	21.43	6.39	-33.1	-33.8	23.6	0.00e+00	0	33	0	348127232	40	5583
2026-01-06 18:41:53.49	21.45	6.47	-33.1	-33.7	23.6	0.00e+00	0	33	0	355467264	40	5552
2026-01-06 18:41:54.50	21.47	6.54	-32.9	-33.6	23.7	0.00e+00	0	33	0	361758720	40	5460
2026-01-06 18:41:55.51	21.49	6.62	-32.9	-33.6	23.8	0.00e+00	0	33	0	369098752	40	5450
2026-01-06 18:41:56.52	21.51	6.69	-33.0	-33.6	23.8	0.00e+00	0	33	0	376438784	40	5495
2026-01-06 18:41:57.53	21.53	6.77	-32.9	-33.5	23.8	0.00e+00	0	33	0	383778816	40	5438
2026-01-06 18:41:58.54	21.55	6.85	-32.9	-33.6	23.9	0.00e+00	0	33	0	391118848	40	5445
2026-01-06 18:41:59.55	21.57	6.92	-32.7	-33.4	24.1	0.00e+00	0	33	0	398458880	40	5334
2026-01-06 18:42:00.56	21.59	7.00	-33.0	-33.7	23.7	0.00e+00	0	33	0	405798912	38	6213
2026-01-06 18:42:01.57	21.61	7.08	-32.7	-33.4	24.0	0.00e+00	0	33	0	413138944	38	6002
2026-01-06 18:42:02.58	21.63	7.15	-33.0	-33.6	23.8	0.00e+00	0	33	0	420478976	38	6165
2026-01-06 18:42:03.58	21.65	7.23	-32.8	-33.5	24.0	0.00e+00	0	33	0	427819008	38	6060
2026-01-06 18:42:04.59	21.67	7.31	-32.9	-33.6	23.9	0.00e+00	0	33	0	435159040	38	6128
2026-01-06 18:42:05.60	21.69	7.39	-32.8	-33.4	24.0	0.00e+00	0	33	0	442499072	38	6025
2026-01-06 18:42:06.61	21.71	7.47	-32.7	-33.4	24.1	0.00e+00	0	33	0	449839104	38	5980
2026-01-06 18:42:07.62	21.73	7.54	-32.7	-33.4	24.1	0.00e+00	0	33	0	457179136	38	5989
2026-01-06 18:42:08.63	21.75	7.62	-32.6	-33.3	24.1	0.00e+00	0	33	0	464519168	38	5927
2026-01-06 18:42:09.64	21.77	7.70	-32.7	-33.3	24.1	0.00e+00	0	33	0	471859200	38	5963
2026-01-06 18:42:10.65	21.79	7.78	-32.5	-33.2	24.3	0.00e+00	0	33	0	479199232	38	5863
2026-01-06 18:42:11.66	21.82	7.86	-32.5	-33.2	24.3	0.00e+00	0	33	0	486539264	38	5843
2026-01-06 18:42:12.68	21.84	7.94	-32.7	-33.4	24.2	0.00e+00	0	33	0	493879296	38	5969
2026-01-06 18:42:13.68	21.86	8.02	-32.5	-33.2	24.3	0.00e+00	0	33	0	501219328	38	5839
2026-01-06 18:42:14.69	21.88	8.10	-32.8	-33.4	24.1	0.00e+00	0	33	0	508559360	38	6032
2026-01-06 18:42:15.70	21.90	8.18	-32.6	-33.3	24.2	0.00e+00	0	33	0	514850816	38	5926
2026-01-06 18:42:16.72	21.92	8.26	-32.5	-33.1	24.4	0.00e+00	0	33	0	522190848	38	5811
2026-01-06 18:42:17.72	21.94	8.34	-32.4	-33.1	24.4	0.00e+00	0	33	0	529530880	38	5783
2026-01-06 18:42:18.73	21.96	8.42	-32.6	-33.2	24.3	0.00e+00	0	33	0	536870912	38	5876
2026-01-06 18:42:19.74	21.99	8.50	-32.7	-33.4	24.2	0.00e+00	0	33	0	544210944	38	5980
2026-01-06 18:42:20.75	22.01	8.59	-32.5	-33.2	24.4	0.00e+00	0	33	0	551550976	38	5843
2026-01-06 18:42:21.76	22.03	8.67	-32.4	-33.1	24.3	0.00e+00	0	33	0	558891008	38	5795
2026-01-06 18:42:22.77	22.05	8.75	-32.2	-32.9	24.6	0.00e+00	0	33	0	566231040	38	5644
2026-01-06 18:42:23.78	22.07	8.83	-32.2	-32.9	24.6	0.00e+00	0	33	0	573571072	38	5655
2026-01-06 18:42:24.79	22.10	8.92	-32.3	-33.0	24.5	0.00e+00	0	33	0	580911104	38	5700
2026-01-06 18:42:25.80	22.12	9.00	-32.4	-33.0	24.6	0.00e+00	0	33	0	588251136	38	5747
2026-01-06 18:42:26.81	22.14	9.08	-32.2	-32.9	24.6	0.00e+00	0	33	0	595591168	38	5650
2026-01-06 18:42:27.82	22.16	9.17	-32.3	-33.0	24.5	0.00e+00	0	33	0	602931200	38	5719
2026-01-06 18:42:28.83	22.19	9.25	-32.3	-32.9	24.7	0.00e+00	0	33	0	610271232	38	5678
2026-01-06 18:42:29.84	22.21	9.33	-32.1	-32.8	24.8	0.00e+00	0	33	0	617611264	38	5581
2026-01-06 18:42:30.85	22.23	9.42	-32.1	-32.8	24.6	0.00e+00	0	33	0	624951296	38	5575
2026-01-06 18:42:31.86	22.25	9.50	-32.3	-32.9	24.8	0.00e+00	0	33	0	632291328	38	5683
2026-01-06 18:42:32.87	22.28	9.59	-31.9	-32.6	25.0	0.00e+00	0	33	0	638582784	38	5464
2026-01-06 18:42:33.88	22.30	9.67	-32.1	-32.8	24.8	0.00e+00	0	33	0	646971392	38	5580
2026-01-06 18:42:34.89	22.32	9.76	-32.0	-32.6	24.9	0.00e+00	0	33	0	654311424	38	5497
2026-01-06 18:42:35.90	22.35	9.85	-32.0	-32.6	24.9	0.00e+00	0	33	0	660602880	38	5480
2026-01-06 18:42:36.91	22.37	9.93	-32.1	-32.7	24.8	0.00e+00	0	33	0	667942912	38	5566
2026-01-06 18:42:37.91	22.39	10.02	-32.0	-32.6	24.8	0.00e+00	0	33	0	675282944	38	5479
2026-01-06 18:42:38.92	22.42	10.11	-32.0	-32.7	24.9	0.00e+00	0	33	0	682622976	38	5504
2026-01-06 18:42:39.94	22.44	10.19	-32.0	-32.6	24.9	0.00e+00	0	33	0	689963008	38	5486
2026-01-06 18:42:40.94	22.46	10.28	-32.1	-32.7	24.9	0.00e+00	0	33	0	697303040	38	5551
2026-01-06 18:42:41.95	22.49	10.37	-31.9	-32.6	25.0	0.00e+00	0	33	0	704643072	38	5457
2026-01-06 18:42:42.96	22.51	10.46	-32.0	-32.6	24.9	0.00e+00	0	33	0	711983104	38	5478
2026-01-06 18:42:43.97	22.54	10.54	-31.9	-32.5	25.0	0.00e+00	0	33	0	719323136	38	5433
2026-01-06 18:42:44.98	22.56	10.63	-31.9	-32.5	25.0	0.00e+00	0	33	0	726663168	38	5415
2026-01-06 18:42:45.99	22.58	10.72	-31.9	-32.6	25.1	0.00e+00	0	33	0	734003200	38	5483
2026-01-06 18:42:47.00	22.61	10.81	-32.1	-32.7	24.9	0.00e+00	0	33	0	741343232	36	6239
2026-01-06 18:42:48.01	22.63	10.90	-31.8	-32.4	25.1	0.00e+00	0	33	0	748683264	36	6018
2026-01-06 18:42:49.02	22.66	10.99	-31.8	-32.5	25.1	0.00e+00	0	33	0	756023296	36	6073
2026-01-06 18:42:50.03	22.68	11.08	-32.0	-32.7	25.0	0.00e+00	0	33	0	763363328	36	6179
2026-01-06 18:42:51.04	22.71	11.17	-32.0	-32.6	25.0	0.00e+00	0	33	0	770703360	36	6170
2026-01-06 18:42:52.05	22.73	11.26	-31.8	-32.4	25.1	0.00e+00	0	33	0	778043392	36	6033
2026-01-06 18:42:53.06	22.76	11.35	-31.7	-32.4	25.2	0.00e+00	0	33	0	785383424	36	5975
2026-01-06 18:42:54.07	22.78	11.45	-31.8	-32.5	25.1	0.00e+00	0	33	0	791674880	36	6034
2026-01-06 18:42:55.08	22.81	11.54	-31.7	-32.4	25.2	0.00e+00	0	33	0	800063488	36	5975
2026-01-06 18:42:56.08	22.84	11.63	-31.8	-32.4	25.1	0.00e+00	0	33	0	807403520	36	6015
2026-01-06 18:42:57.09	22.86	11.72	-31.6	-32.2	25.2	0.00e+00	0	33	0	813694976	36	5886
2026-01-06 18:42:58.10	22.89	11.82	-31.6	-32.3	25.3	0.00e+00	0	33	0	821035008	36	5901
2026-01-06 18:42:59.11	22.91	11.91	-31.6	-32.2	25.4	0.00e+00	0	33	0	828375040	36	5880
2026-01-06 18:43:00.12	22.94	12.00	-31.6	-32.2	25.4	0.00e+00	0	33	0	835715072	36	5868
2026-01-06 18:43:01.13	22.97	12.10	-31.5	-32.2	25.4	0.00e+00	0	33	0	843055104	36	5846
2026-01-06 18:43:02.14	22.99	12.19	-31.4	-32.0	25.6	0.00e+00	0	33	0	850395136	36	5724
2026-01-06 18:43:03.15	23.02	12.29	-31.4	-32.0	25.6	0.00e+00	0	33	0	857735168	36	5722
2026-01-06 18:43:04.16	23.05	12.38	-31.2	-31.9	25.7	0.00e+00	0	33	0	865075200	36	5637
2026-01-06 18:43:05.17	23.07	12.48	-31.3	-31.9	25.7	0.00e+00	0	33	0	872415232	36	5675
2026-01-06 18:43:06.18	23.10	12.57	-31.3	-32.0	25.6	0.00e+00	0	33	0	879755264	36	5719
2026-01-06 18:43:07.19	23.13	12.67	-31.4	-32.0	25.6	0.00e+00	0	33	0	887095296	36	5744
2026-01-06 18:43:08.20	23.15	12.77	-31.1	-31.8	25.6	0.00e+00	0	33	0	894435328	36	5582
2026-01-06 18:43:09.21	23.18	12.86	-31.2	-31.9	25.6	0.00e+00	0	33	0	901775360	36	5638
2026-01-06 18:43:10.22	23.21	12.96	-31.3	-31.9	25.8	0.00e+00	0	33	0	909115392	36	5667
2026-01-06 18:43:11.23	23.24	13.06	-30.9	-31.5	26.0	0.00e+00	0	33	0	916455424	36	5431
2026-01-06 18:43:12.24	23.27	13.16	-30.9	-31.5	26.1	0.00e+00	0	33	0	923795456	36	5439
2026-01-06 18:43:13.25	23.29	13.25	-31.0	-31.6	25.9	0.00e+00	0	33	0	931135488	36	5492
2026-01-06 18:43:14.26	23.32	13.35	-30.8	-31.5	26.1	0.00e+00	0	33	0	937426944	36	5384
2026-01-06 18:43:15.27	23.35	13.45	-30.9	-31.5	26.0	0.00e+00	0	33	0	944766976	36	5434
2026-01-06 18:43:16.28	23.38	13.55	-30.9	-31.5	26.1	0.00e+00	0	33	0	953155584	36	5414
2026-01-06 18:43:17.29	23.41	13.65	-30.8	-31.5	26.1	0.00e+00	0	33	0	959447040	36	5378
2026-01-06 18:43:18.30	23.44	13.75	-30.8	-31.4	25.9	0.00e+00	0	33	0	966787072	34	6023
2026-01-06 18:43:19.30	23.47	13.85	-30.7	-31.3	26.2	0.00e+00	0	33	0	974127104	34	5936
2026-01-06 18:43:20.31	23.50	13.96	-30.6	-31.2	26.3	0.00e+00	0	33	0	981467136	34	5866
2026-01-06 18:43:21.32	23.53	14.06	-30.7	-31.3	26.2	0.00e+00	0	33	0	988807168	34	5908
2026-01-06 18:43:22.33	23.55	14.16	-30.6	-31.2	26.3	0.00e+00	0	33	0	996147200	34	5887
2026-01-06 18:43:23.34	23.58	14.26	-30.4	-31.1	26.2	0.00e+00	0	33	0	1003487232	34	5762
2026-01-06 18:43:24.35	23.61	14.37	-30.4	-31.0	26.3	0.00e+00	0	33	0	1010827264	34	5726
2026-01-06 18:43:25.36	23.65	14.47	-30.5	-31.1	26.3	0.00e+00	0	33	0	1018167296	34	5795
2026-01-06 18:43:26.37	23.68	14.57	-30.5	-31.1	26.3	0.00e+00	0	33	0	1025507328	34	5822
2026-01-06 18:43:27.38	23.71	14.68	-30.5	-31.1	26.4	0.00e+00	0	33	0	1032847360	34	5787
2026-01-06 18:43:28.39	23.74	14.78	-30.3	-30.9	26.6	0.00e+00	0	33	0	1040187392	34	5647
2026-01-06 18:43:29.40	23.77	14.89	-30.3	-30.9	26.5	0.00e+00	0	33	0	1047527424	34	5669
2026-01-06 18:43:30.41	23.80	14.99	-30.3	-30.9	26.5	0.00e+00	0	33	0	1054867456	34	5695
2026-01-06 18:43:31.42	23.83	15.10	-30.1	-30.7	26.7	0.00e+00	0	33	0	1062207488	34	5566
2026-01-06 18:43:32.43	23.86	15.21	-30.3	-30.9	26.5	0.00e+00	0	33	0	1069547520	34	5692
2026-01-06 18:43:33.44	23.89	15.32	-30.3	-30.9	26.6	0.00e+00	0	33	0	1076887552	34	5636
2026-01-06 18:43:34.45	23.93	15.42	-30.2	-30.8	26.6	0.00e+00	0	33	0	1084227584	34	5598
2026-01-06 18:43:35.46	23.96	15.53	-30.1	-30.7	26.7	0.00e+00	0	33	0	1090519040	34	5531
2026-01-06 18:43:36.47	23.99	15.64	-30.3	-30.9	26.5	0.00e+00	0	33	0	1097859072	34	5670
2026-01-06 18:43:37.48	24.02	15.75	-30.2	-30.8	26.6	0.00e+00	0	33	0	1106247680	34	5618
2026-01-06 18:43:38.49	24.05	15.86	-30.3	-30.9	26.7	0.00e+00	0	33	0	1112539136	34	5661
2026-01-06 18:43:39.50	24.09	15.97	-30.4	-31.0	26.6	0.00e+00	0	33	0	1119879168	34	5700
2026-01-06 18:43:40.51	24.12	16.08	-30.3	-30.9	26.7	0.00e+00	0	33	0	1127219200	34	5655
2026-01-06 18:43:41.52	24.15	16.19	-30.1	-30.8	26.7	0.00e+00	0	33	0	1134559232	34	5567
2026-01-06 18:43:42.53	24.19	16.30	-30.1	-30.7	26.8	0.00e+00	0	33	0	1141899264	34	5540
2026-01-06 18:43:43.54	24.22	16.41	-30.1	-30.7	26.8	0.00e+00	0	33	0	1149239296	34	5515
2026-01-06 18:43:44.55	24.26	16.53	-30.1	-30.7	26.7	0.00e+00	0	33	0	1156579328	34	5560
2026-01-06 18:43:45.56	24.29	16.64	-30.1	-30.7	26.7	0.00e+00	0	33	0	1163919360	34	5554
2026-01-06 18:43:46.57	24.32	16.75	-30.1	-30.7	26.8	0.00e+00	0	33	0	1171259392	34	5538
2026-01-06 18:43:47.58	24.36	16.87	-30.0	-30.6	26.9	0.00e+00	0	33	0	1178599424	34	5470
2026-01-06 18:43:48.59	24.39	16.98	-30.0	-30.6	26.9	0.00e+00	0	33	0	1185939456	34	5452
2026-01-06 18:43:49.60	24.43	17.10	-30.1	-30.7	26.8	0.00e+00	0	33	0	1193279488	34	5549
2026-01-06 18:43:50.61	24.46	17.21	-30.0	-30.6	26.9	0.00e+00	0	33	0	1200619520	34	5459
2026-01-06 18:43:51.62	24.50	17.33	-30.1	-30.7	26.9	0.00e+00	0	33	0	1207959552	34	5510
2026-01-06 18:43:52.63	24.54	17.45	-29.9	-30.5	26.9	0.00e+00	0	33	0	1215299584	34	5402
2026-01-06 18:43:53.64	24.57	17.57	-29.9	-30.5	27.0	0.00e+00	0	33	0	1222639616	34	5423
2026-01-06 18:43:54.65	24.61	17.68	-29.9	-30.5	26.9	0.00e+00	0	33	0	1229979648	34	5417
2026-01-06 18:43:55.66	24.64	17.80	-29.9	-30.5	26.8	0.00e+00	0	33	0	1237319680	32	6091
2026-01-06 18:43:56.67	24.68	17.92	-29.8	-30.4	27.1	0.00e+00	0	33	0	1243611136	32	6005
2026-01-06 18:43:57.68	24.72	18.04	-30.0	-30.6	26.9	0.00e+00	0	33	0	1251999744	32	6122
2026-01-06 18:43:58.68	24.76	18.16	-29.8	-30.4	27.1	0.00e+00	0	33	0	1259339776	32	5984
2026-01-06 18:43:59.69	24.79	18.28	-29.8	-30.4	27.2	0.00e+00	0	33	0	1265631232	32	5971
2026-01-06 18:44:00.70	24.83	18.40	-29.7	-30.3	27.2	0.00e+00	0	33	0	1272971264	32	5901
2026-01-06 18:44:01.71	24.87	18.52	-29.8	-30.4	27.1	0.00e+00	0	33	0	1280311296	32	5998
2026-01-06 18:44:02.72	24.91	18.65	-29.7	-30.3	27.2	0.00e+00	0	33	0	1287651328	32	5918
2026-01-06 18:44:03.73	24.95	18.77	-29.6	-30.2	27.2	0.00e+00	0	33	0	1294991360	32	5847
2026-01-06 18:44:04.74	24.99	18.89	-29.7	-30.3	27.2	0.00e+00	0	33	0	1302331392	32	5931
2026-01-06 18:44:05.75	25.02	19.02	-29.5	-30.1	27.3	0.00e+00	0	33	0	1309671424	32	5784
2026-01-06 18:44:06.76	25.06	19.14	-29.4	-30.0	27.4	0.00e+00	0	33	0	1317011456	32	5730
2026-01-06 18:44:07.77	25.10	19.27	-29.3	-29.9	27.5	0.00e+00	0	33	0	1324351488	32	5676
2026-01-06 18:44:08.78	25.14	19.40	-29.4	-30.0	27.4	0.00e+00	0	33	0	1331691520	32	5750
2026-01-06 18:44:09.79	25.18	19.52	-29.4	-30.0	27.3	0.00e+00	0	33	0	1339031552	32	5699
2026-01-06 18:44:10.80	25.23	19.65	-29.2	-29.7	27.4	0.00e+00	0	33	0	1346371584	32	5560
2026-01-06 18:44:11.81	25.27	19.78	-29.2	-29.8	27.5	0.00e+00	0	33	0	1353711616	32	5616
2026-01-06 18:44:12.82	25.31	19.91	-29.2	-29.8	27.6	0.00e+00	0	33	0	1361051648	32	5600
2026-01-06 18:44:13.83	25.35	20.04	-29.2	-29.8	27.6	0.00e+00	0	33	0	1368391680	32	5591
2026-01-06 18:44:14.84	25.39	20.17	-29.1	-29.7	27.5	0.00e+00	0	33	0	1375731712	32	5508
2026-01-06 18:44:15.85	25.43	20.30	-29.2	-29.8	27.5	0.00e+00	0	33	0	1383071744	32	5576
2026-01-06 18:44:16.85	25.48	20.43	-29.0	-29.6	27.7	0.00e+00	0	33	0	1389363200	32	5483
2026-01-06 18:44:17.86	25.52	20.56	-29.1	-29.7	27.6	0.00e+00	0	33	0	1396703232	32	5539
2026-01-06 18:44:18.87	25.56	20.70	-29.0	-29.6	27.7	0.00e+00	0	33	0	1405091840	32	5446
2026-01-06 18:44:19.88	25.61	20.83	-29.2	-29.7	27.5	0.00e+00	0	33	0	1411383296	32	5554
2026-01-06 18:44:20.89	25.65	20.96	-28.9	-29.5	27.7	0.00e+00	0	33	0	1418723328	32	5419
2026-01-06 18:44:21.90	25.69	21.10	-29.0	-29.6	27.7	0.00e+00	0	33	0	1426063360	32	5481
2026-01-06 18:44:22.91	25.74	21.23	-29.1	-29.7	27.6	0.00e+00	0	33	0	1433403392	32	5524
2026-01-06 18:44:23.92	25.78	21.37	-29.1	-29.7	27.5	0.00e+00	0	33	0	1440743424	32	5549
2026-01-06 18:44:24.93	25.83	21.51	-29.1	-29.7	27.6	0.00e+00	0	33	0	1448083456	32	5512
2026-01-06 18:44:25.94	25.88	21.65	-29.1	-29.7	27.6	0.00e+00	0	33	0	1455423488	32	5537
2026-01-06 18:44:26.95	25.92	21.79	-29.1	-29.7	27.7	0.00e+00	0	33	0	1462763520	32	5525
2026-01-06 18:44:27.96	25.97	21.93	-29.1	-29.7	27.6	0.00e+00	0	33	0	1470103552	32	5524
2026-01-06 18:44:28.97	26.01	22.07	-29.3	-29.9	27.5	0.00e+00	0	33	0	1477443584	32	5648
2026-01-06 18:44:29.98	26.06	22.21	-29.2	-29.8	27.6	0.00e+00	0	33	0	1484783616	32	5584
2026-01-06 18:44:30.99	26.11	22.35	-29.2	-29.8	27.7	0.00e+00	0	33	0	1492123648	32	5579
2026-01-06 18:44:32.00	26.16	22.49	-29.1	-29.7	27.6	0.00e+00	0	33	0	1499463680	32	5531
2026-01-06 18:44:33.01	26.21	22.63	-29.3	-29.9	27.5	0.00e+00	0	33	0	1506803712	32	5639
2026-01-06 18:44:34.02	26.26	22.78	-29.3	-29.9	27.5	0.00e+00	0	33	0	1514143744	32	5631
2026-01-06 18:44:35.02	26.30	22.92	-29.3	-29.8	27.6	0.00e+00	0	33	0	1521483776	32	5627
2026-01-06 18:44:36.04	26.35	23.07	-29.4	-30.0	27.4	0.00e+00	0	33	0	1528823808	32	5701
2026-01-06 18:44:37.05	26.40	23.22	-29.4	-30.0	27.4	0.00e+00	0	33	0	1536163840	32	5743
2026-01-06 18:44:38.05	26.45	23.36	-29.1	-29.7	27.6	0.00e+00	0	33	0	1542455296	32	5551
2026-01-06 18:44:39.06	26.51	23.51	-29.2	-29.8	27.5	0.00e+00	0	33	0	1549795328	32	5606
2026-01-06 18:44:40.07	26.56	23.66	-29.1	-29.7	27.6	0.00e+00	0	33	0	1558183936	32	5552
2026-01-06 18:44:41.08	26.61	23.81	-29.1	-29.7	27.6	0.00e+00	0	33	0	1564475392	32	5555
2026-01-06 18:44:42.09	26.66	23.96	-29.1	-29.6	27.7	0.00e+00	0	33	0	1571815424	32	5500
2026-01-06 18:44:43.11	26.71	24.11	-29.0	-29.6	27.8	0.00e+00	0	33	0	1579155456	32	5467
2026-01-06 18:44:44.11	26.77	24.27	-29.0	-29.6	27.7	0.00e+00	0	33	0	1586495488	32	5441
2026-01-06 18:44:45.12	26.82	24.42	-28.9	-29.5	27.8	0.00e+00	0	33	0	1593835520	32	5406
2026-01-06 18:44:46.13	26.88	24.57	-28.9	-29.5	27.7	0.00e+00	0	33	0	1601175552	32	5411
2026-01-06 18:44:47.14	26.93	24.73	-29.0	-29.5	27.7	0.00e+00	0	33	0	1608515584	32	5436
2026-01-06 18:44:48.15	26.99	24.88	-28.9	-29.5	27.8	0.00e+00	0	33	0	1615855616	32	5386
2026-01-06 18:44:49.16	27.04	25.04	-28.8	-29.4	27.9	0.00e+00	0	33	0	1623195648	30	5992
2026-01-06 18:44:50.17	27.10	25.20	-29.1	-29.6	27.7	0.00e+00	0	33	0	1630535680	30	6172
2026-01-06 18:44:51.18	27.15	25.36	-28.8	-29.4	28.0	0.00e+00	0	33	0	1637875712	30	5992
2026-01-06 18:44:52.19	27.21	25.52	-28.6	-29.2	28.1	0.00e+00	0	33	0	1645215744	30	5880
2026-01-06 18:44:53.20	27.27	25.68	-28.8	-29.4	27.9	0.00e+00	0	33	0	1652555776	30	5970
2026-01-06 18:44:54.21	27.33	25.84	-28.6	-29.2	28.0	0.00e+00	0	33	0	1659895808	30	5870
2026-01-06 18:44:55.22	27.39	26.00	-28.8	-29.4	27.9	0.00e+00	0	33	0	1667235840	30	5970
2026-01-06 18:44:56.23	27.45	26.17	-28.6	-29.1	28.1	0.00e+00	0	33	0	1674575872	30	5821
2026-01-06 18:44:57.24	27.51	26.33	-28.7	-29.3	28.0	0.00e+00	0	33	0	1681915904	30	5915
2026-01-06 18:44:58.25	27.57	26.50	-28.5	-29.1	28.1	0.00e+00	0	33	0	1688207360	30	5819
2026-01-06 18:44:59.27	27.63	26.67	-28.5	-29.1	28.1	0.00e+00	0	33	0	1695547392	30	5811
2026-01-06 18:45:00.28	27.69	26.83	-28.4	-29.0	28.1	0.00e+00	0	33	0	1703936000	30	5751
2026-01-06 18:45:01.28	27.75	27.00	-28.4	-28.9	28.2	0.00e+00	0	33	0	1710227456	30	5693
2026-01-06 18:45:02.29	27.82	27.17	-28.4	-28.9	28.3	0.00e+00	0	33	0	1717567488	30	5691
2026-01-06 18:45:03.30	27.88	27.34	-28.2	-28.8	28.4	0.00e+00	0	33	0	1724907520	30	5572
2026-01-06 18:45:04.31	27.95	27.51	-28.3	-28.9	28.3	0.00e+00	0	33	0	1732247552	30	5657
2026-01-06 18:45:05.32	28.01	27.68	-28.4	-29.0	28.2	0.00e+00	0	33	0	1739587584	30	5725
2026-01-06 18:45:06.33	28.08	27.86	-28.4	-29.0	28.3	0.00e+00	0	33	0	1746927616	30	5716
2026-01-06 18:45:07.34	28.14	28.03	-28.3	-28.9	28.3	0.00e+00	0	33	0	1754267648	30	5656
2026-01-06 18:45:08.35	28.21	28.21	-28.4	-29.0	28.3	0.00e+00	0	33	0	1761607680	30	5696
2026-01-06 18:45:09.36	28.28	28.39	-28.5	-29.1	28.2	0.00e+00	0	33	0	1768947712	30	5792
2026-01-06 18:45:10.36	28.35	28.56	-28.3	-28.9	28.4	0.00e+00	0	33	0	1776287744	30	5643
2026-01-06 18:45:11.38	28.41	28.74	-28.5	-29.1	28.1	0.00e+00	0	33	0	1783627776	30	5783
2026-01-06 18:45:12.39	28.48	28.92	-28.4	-29.0	28.1	0.00e+00	0	33	0	1790967808	30	5726
2026-01-06 18:45:13.40	28.56	29.11	-28.3	-28.9	28.2	0.00e+00	0	33	0	1798307840	30	5646
2026-01-06 18:45:14.41	28.63	29.29	-28.5	-29.1	28.1	0.00e+00	0	33	0	1805647872	30	5783
2026-01-06 18:45:15.42	28.70	29.47	-28.3	-28.8	28.3	0.00e+00	0	33	0	1812987904	30	5627
2026-01-06 18:45:16.43	28.77	29.66	-28.3	-28.9	28.4	0.00e+00	0	33	0	1820327936	30	5647
2026-01-06 18:45:17.44	28.85	29.84	-28.2	-28.8	28.3	0.00e+00	0	33	0	1827667968	30	5592
2026-01-06 18:45:18.45	28.92	30.03	-28.0	-28.6	28.4	0.00e+00	0	33	0	1835008000	30	5465
2026-01-06 18:45:19.46	29.00	30.22	-27.9	-28.4	28.6	0.00e+00	0	33	0	1841299456	30	5372
2026-01-06 18:45:20.47	29.07	30.41	-27.9	-28.5	28.6	0.00e+00	0	33	0	1848639488	30	5411
2026-01-06 18:45:21.48	29.15	30.60	-27.9	-28.5	28.5	0.00e+00	0	33	0	1857028096	30	5417
2026-01-06 18:45:22.49	29.23	30.79	-28.1	-28.6	28.5	0.00e+00	0	33	0	1863319552	30	5501
2026-01-06 18:45:23.50	29.31	30.99	-28.0	-28.5	28.5	0.00e+00	0	33	0	1870659584	30	5438
2026-01-06 18:45:24.51	29.39	31.18	-27.9	-28.5	28.6	0.00e+00	0	33	0	1877999616	30	5406
2026-01-06 18:45:25.52	29.47	31.38	-28.3	-28.9	28.2	0.00e+00	0	33	0	1885339648	30	5655
2026-01-06 18:45:26.52	29.55	31.57	-28.2	-28.8	28.4	0.00e+00	0	33	0	1892679680	30	5613
2026-01-06 18:45:27.53	29.63	31.77	-28.4	-29.0	28.3	0.00e+00	0	33	0	1900019712	30	5703
2026-01-06 18:45:28.55	29.71	31.97	-28.5	-29.0	28.1	0.00e+00	0	33	0	1907359744	30	5754
2026-01-06 18:45:29.55	29.80	32.17	-28.4	-28.9	28.2	0.00e+00	0	33	0	1914699776	30	5681
2026-01-06 18:45:30.56	29.88	32.37	-28.4	-29.0	28.2	0.00e+00	0	33	0	1922039808	30	5751
2026-01-06 18:45:31.58	29.97	32.58	-28.3	-28.9	28.3	0.00e+00	0	33	0	1929379840	30	5660
2026-01-06 18:45:32.58	30.06	32.78	-28.4	-28.9	28.3	0.00e+00	0	33	0	1936719872	30	5687
2026-01-06 18:45:33.59	30.15	32.99	-28.2	-28.8	28.3	0.00e+00	0	33	0	1944059904	30	5611
2026-01-06 18:45:34.61	30.24	33.20	-28.2	-28.8	28.4	0.00e+00	0	33	0	1951399936	30	5576
2026-01-06 18:45:35.61	30.33	33.40	-28.3	-28.9	28.4	0.00e+00	0	33	0	1958739968	30	5631
2026-01-06 18:45:36.63	30.42	33.62	-28.3	-28.8	28.3	0.00e+00	0	33	0	1966080000	30	5621
2026-01-06 18:45:37.64	30.51	33.83	-28.3	-28.9	28.2	0.00e+00	0	33	0	1973420032	30	5672
2026-01-06 18:45:38.65	30.61	34.04	-28.5	-29.1	28.1	0.00e+00	0	33	0	1980760064	30	5811
2026-01-06 18:45:39.65	30.70	34.25	-28.4	-29.0	28.3	0.00e+00	0	33	0	1987051520	30	5722
2026-01-06 18:45:40.66	30.80	34.47	-28.4	-29.0	28.2	0.00e+00	0	33	0	1994391552	30	5699
2026-01-06 18:45:41.68	30.90	34.69	-28.4	-29.0	28.3	0.00e+00	0	33	0	2002780160	30	5720
2026-01-06 18:45:42.68	31.00	34.91	-28.5	-29.0	28.2	0.00e+00	0	33	0	2009071616	30	5759
2026-01-06 18:45:43.69	31.10	35.13	-28.6	-29.2	28.1	0.00e+00	0	33	0	2016411648	30	5880
2026-01-06 18:45:44.70	31.20	35.35	-28.5	-29.1	28.2	0.00e+00	0	33	0	2023751680	30	5785
2026-01-06 18:45:45.71	31.30	35.57	-28.8	-29.4	28.0	0.00e+00	0	33	0	2031091712	30	6005
2026-01-06 18:45:46.72	31.41	35.80	-28.5	-29.1	28.2	0.00e+00	0	33	0	2038431744	30	5814
2026-01-06 18:45:47.73	31.51	36.02	-28.3	-28.9	28.3	0.00e+00	0	33	0	2045771776	30	5674
2026-01-06 18:45:48.74	31.62	36.25	-28.3	-28.9	28.5	0.00e+00	0	33	0	2053111808	30	5646
2026-01-06 18:45:49.75	31.73	36.48	-28.4	-29.0	28.2	0.00e+00	0	33	0	2060451840	30	5719
2026-01-06 18:45:50.76	31.84	36.71	-28.3	-28.9	28.4	0.00e+00	0	33	0	2067791872	30	5668
2026-01-06 18:45:51.77	31.95	36.94	-28.5	-29.0	28.2	0.00e+00	0	33	0	2075131904	30	5748
2026-01-06 18:45:52.78	32.06	37.18	-28.4	-29.0	28.1	0.00e+00	0	33	0	2082471936	30	5738
2026-01-06 18:45:53.79	32.18	37.41	-28.6	-29.2	28.1	0.00e+00	0	33	0	2089811968	30	5863
2026-01-06 18:45:54.80	32.29	37.65	-28.8	-29.4	28.0	0.00e+00	0	33	0	2097152000	30	5986
2026-01-06 18:45:55.81	32.41	37.89	-28.9	-29.5	28.1	0.00e+00	0	33	0	2104492032	30	6087
2026-01-06 18:45:56.81	32.53	38.13	-28.6	-29.2	28.1	0.00e+00	0	33	0	2111832064	30	5862
2026-01-06 18:45:57.83	32.65	38.37	-28.6	-29.2	28.1	0.00e+00	0	33	0	2119172096	30	5831
2026-01-06 18:45:58.84	32.78	38.61	-28.6	-29.2	28.1	0.00e+00	0	33	0	2126512128	30	5866
2026-01-06 18:45:59.85	32.90	38.86	-28.6	-29.2	28.0	0.00e+00	0	33	0	2133852160	30	5856
2026-01-06 18:46:00.86	33.03	39.10	-28.4	-29.0	28.3	0.00e+00	0	33	0	2140143616	30	5748
2026-01-06 18:46:01.86	33.16	39.35	-28.5	-29.1	28.2	0.00e+00	0	33	0	2147483648	30	5815
2026-01-06 18:46:02.87	33.29	39.60	-28.9	-29.5	27.9	0.00e+00	0	33	0	2155872256	30	6070
2026-01-06 18:46:03.88	33.42	39.85	-29.0	-29.6	27.9	0.00e+00	0	33	0	2162163712	30	6161
2026-01-06 18:46:04.89	33.55	40.11	-28.7	-29.3	28.1	0.00e+00	0	33	0	2169503744	30	5909
2026-01-06 18:46:05.90	33.69	40.36	-28.9	-29.5	28.0	0.00e+00	0	33	0	2176843776	30	6050
2026-01-06 18:46:06.91	33.83	40.62	-28.4	-29.0	28.1	0.00e+00	0	33	0	2184183808	30	5702
2026-01-06 18:46:07.92	33.97	40.87	-28.6	-29.2	28.1	0.00e+00	0	33	0	2191523840	30	5885
2026-01-06 18:46:08.93	34.11	41.13	-28.6	-29.1	28.2	0.00e+00	0	33	0	2198863872	30	5811
2026-01-06 18:46:09.94	34.26	41.40	-28.5	-29.1	28.3	0.00e+00	0	33	0	2206203904	30	5774
2026-01-06 18:46:10.95	34.41	41.66	-28.6	-29.2	28.2	0.00e+00	0	33	0	2213543936	30	5874
2026-01-06 18:46:11.96	34.56	41.92	-28.7	-29.3	28.4	0.00e+00	0	33	0	2220883968	30	5903
2026-01-06 18:46:12.97	34.71	42.19	-28.6	-29.2	28.1	0.00e+00	0	33	0	2228224000	30	5830
2026-01-06 18:46:13.98	34.87	42.46	-28.6	-29.1	28.2	0.00e+00	0	33	0	2235564032	30	5817
2026-01-06 18:46:14.99	35.02	42.73	-28.6	-29.1	28.2	0.00e+00	0	33	0	2242904064	30	5818
2026-01-06 18:46:16.00	35.18	43.00	-28.4	-28.9	28.3	0.00e+00	0	33	0	2250244096	30	5693
2026-01-06 18:46:17.01	35.35	43.28	-28.5	-29.0	28.3	0.00e+00	0	33	0	2257584128	30	5760
2026-01-06 18:46:18.02	35.51	43.55	-28.7	-29.2	28.1	0.00e+00	0	33	0	2264924160	30	5888
2026-01-06 18:46:19.03	35.68	43.83	-28.9	-29.5	27.9	0.00e+00	0	33	0	2272264192	30	6077
2026-01-06 18:46:20.04	35.85	44.11	-29.2	-29.8	27.5	0.00e+00	0	33	0	2279604224	30	6303
2026-01-06 18:46:21.05	36.03	44.39	-29.4	-30.0	27.5	0.00e+00	0	33	0	2286944256	30	6419
2026-01-06 18:46:22.06	36.20	44.67	-29.4	-30.0	27.3	0.00e+00	0	33	0	2293235712	30	6418
2026-01-06 18:46:23.07	36.38	44.95	-29.4	-30.0	27.3	0.00e+00	0	33	0	2300575744	32	5727
2026-01-06 18:46:24.08	36.57	45.24	-29.6	-30.2	27.5	0.00e+00	0	33	0	2307915776	32	5839
2026-01-06 18:46:25.09	36.75	45.53	-29.3	-29.9	27.6	0.00e+00	0	33	0	2315255808	32	5668
2026-01-06 18:46:26.10	36.94	45.82	-29.2	-29.8	27.6	0.00e+00	0	33	0	2322595840	32	5608
2026-01-06 18:46:27.11	37.14	46.11	-29.2	-29.8	27.8	0.00e+00	0	33	0	2329935872	32	5618
2026-01-06 18:46:28.12	37.34	46.40	-29.3	-30.0	27.8	0.00e+00	0	33	0	2337275904	30	6399
2026-01-06 18:46:29.13	37.54	46.70	-29.1	-29.7	27.7	0.00e+00	0	33	0	2344615936	30	6187
2026-01-06 18:46:30.14	37.74	46.99	-29.2	-29.8	27.7	0.00e+00	0	33	0	2351955968	30	6270
2026-01-06 18:46:31.15	37.95	47.29	-29.2	-29.8	27.7	0.00e+00	0	33	0	2359296000	30	6296
2026-01-06 18:46:32.16	38.16	47.59	-29.1	-29.7	27.5	0.00e+00	0	33	0	2366636032	30	6240
2026-01-06 18:46:33.17	38.38	47.89	-29.3	-29.8	27.7	0.00e+00	0	33	0	2373976064	32	5628
2026-01-06 18:46:34.18	38.60	48.19	-29.6	-30.2	27.4	0.00e+00	0	33	0	2381316096	32	5835
2026-01-06 18:46:35.19	38.82	48.50	-29.6	-30.2	27.3	0.00e+00	0	33	0	2388656128	32	5866
2026-01-06 18:46:36.20	39.05	48.81	-29.7	-30.3	27.1	0.00e+00	0	33	0	2395996160	32	5897
2026-01-06 18:46:37.21	39.29	49.11	-29.8	-30.4	27.2	0.00e+00	0	33	0	2403336192	32	5985
2026-01-06 18:46:38.22	39.53	49.42	-29.6	-30.2	27.3	0.00e+00	0	33	0	2410676224	32	5846
2026-01-06 18:46:39.23	39.77	49.74	-29.8	-30.4	27.1	0.00e+00	0	33	0	2418016256	32	6011
2026-01-06 18:46:40.24	40.02	50.05	-29.9	-30.5	27.2	0.00e+00	0	33	0	2425356288	32	6064
2026-01-06 18:46:41.25	40.27	50.36	-30.2	-30.9	26.9	0.00e+00	0	34	0	2432696320	32	6330
2026-01-06 18:46:42.26	40.53	50.68	-30.5	-31.1	26.9	0.00e+00	0	33	0	2438987776	32	6514
2026-01-06 18:46:43.27	40.80	51.00	-29.7	-30.3	27.2	0.00e+00	0	33	0	2446327808	32	5935
2026-01-06 18:46:44.28	41.07	51.32	-30.1	-30.8	26.6	0.00e+00	0	33	0	2454716416	32	6249
2026-01-06 18:46:45.29	41.34	51.64	-29.9	-30.5	27.1	0.00e+00	0	33	0	2461007872	32	6072
2026-01-06 18:46:46.30	41.62	51.96	-29.7	-30.3	27.3	0.00e+00	0	33	0	2468347904	32	5917
2026-01-06 18:46:47.31	41.91	52.29	-29.8	-30.4	27.0	0.00e+00	0	33	0	2475687936	32	5993
2026-01-06 18:46:48.32	42.20	52.61	-29.9	-30.5	27.3	0.00e+00	0	33	0	2483027968	32	6067
2026-01-06 18:46:49.33	42.50	52.94	-29.7	-30.3	27.0	0.00e+00	0	33	0	2490368000	32	5924
2026-01-06 18:46:50.34	42.81	53.27	-30.0	-30.6	27.0	0.00e+00	0	33	0	2497708032	32	6136
2026-01-06 18:46:51.35	43.13	53.60	-30.1	-30.7	26.9	0.00e+00	0	33	0	2505048064	32	6242
2026-01-06 18:46:52.36	43.45	53.93	-30.2	-30.7	26.9	0.00e+00	0	33	0	2512388096	32	6239
2026-01-06 18:46:53.37	43.78	54.26	-30.2	-30.8	27.0	0.00e+00	0	33	0	2519728128	32	6264
2026-01-06 18:46:54.38	44.11	54.59	-30.3	-30.9	27.3	0.00e+00	0	33	0	2527068160	32	6369
2026-01-06 18:46:55.39	44.46	54.93	-30.1	-30.7	27.0	0.00e+00	0	33	0	2534408192	32	6199
2026-01-06 18:46:56.40	44.81	55.26	-30.0	-30.6	27.0	0.00e+00	0	33	0	2541748224	32	6108
2026-01-06 18:46:57.41	45.17	55.60	-30.1	-30.7	27.0	0.00e+00	0	33	0	2549088256	32	6199
2026-01-06 18:46:58.42	45.54	55.94	-30.3	-30.9	26.9	0.00e+00	0	33	0	2556428288	32	6346
2026-01-06 18:46:59.43	45.92	56.27	-29.4	-30.0	26.9	0.00e+00	0	33	0	2563768320	36	4550
2026-01-06 18:47:00.44	46.30	56.61	-29.8	-30.3	27.2	0.00e+00	0	33	0	2571108352	32	5951
2026-01-06 18:47:01.45	46.70	56.95	-29.8	-30.3	27.2	0.00e+00	0	33	0	2578448384	32	5952
2026-01-06 18:47:02.45	47.10	57.29	-29.7	-30.3	27.1	0.00e+00	0	33	0	2585788416	32	5901
2026-01-06 18:47:03.46	47.52	57.63	-29.7	-30.3	27.2	0.00e+00	0	33	0	2592079872	32	5909
2026-01-06 18:47:04.47	47.95	57.98	-30.2	-30.8	27.0	0.00e+00	0	33	0	2599419904	32	6312
2026-01-06 18:47:05.48	48.39	58.32	-29.9	-30.5	26.9	0.00e+00	0	34	0	2607808512	32	6077
2026-01-06 18:47:06.49	48.84	58.66	-29.9	-30.5	27.2	0.00e+00	0	33	0	2614099968	32	6055
2026-01-06 18:47:07.50	49.30	59.01	-29.7	-30.3	27.2	0.00e+00	0	33	0	2621440000	32	5928
2026-01-06 18:47:08.51	49.77	59.35	-29.9	-30.5	27.1	0.00e+00	0	33	0	2628780032	32	6096
2026-01-06 18:47:09.52	50.26	59.69	-29.9	-30.5	27.5	0.00e+00	0	33	0	2636120064	32	6085
2026-01-06 18:47:10.53	50.76	60.04	-29.8	-30.4	27.3	0.00e+00	0	33	0	2643460096	32	5973
2026-01-06 18:47:11.54	51.27	60.38	-29.7	-30.3	27.4	0.00e+00	0	33	0	2650800128	32	5943
2026-01-06 18:47:12.55	51.80	60.73	-29.6	-30.2	27.5	0.00e+00	0	33	0	2658140160	32	5858
2026-01-06 18:47:13.56	52.34	61.07	-29.6	-30.2	27.4	0.00e+00	0	33	0	2665480192	32	5868
2026-01-06 18:47:14.57	52.89	61.41	-29.6	-30.2	27.2	0.00e+00	0	33	0	2672820224	32	5858
2026-01-06 18:47:15.58	53.46	61.75	-29.3	-29.8	27.6	0.00e+00	0	33	0	2680160256	32	5617
2026-01-06 18:47:16.59	54.05	62.10	-29.5	-30.1	27.5	0.00e+00	0	33	0	2687500288	32	5804
2026-01-06 18:47:17.60	54.66	62.44	-29.2	-29.8	27.9	0.00e+00	0	33	0	2694840320	32	5575
2026-01-06 18:47:18.61	55.28	62.78	-29.0	-29.6	27.7	0.00e+00	0	33	0	2702180352	32	5460
2026-01-06 18:47:19.62	55.92	63.12	-29.1	-29.7	27.7	0.00e+00	0	33	0	2709520384	32	5528
2026-01-06 18:47:20.63	56.57	63.45	-29.4	-30.0	27.6	0.00e+00	0	33	0	2716860416	32	5715
2026-01-06 18:47:21.64	57.25	63.79	-29.1	-29.6	27.6	0.00e+00	0	33	0	2724200448	32	5491
2026-01-06 18:47:22.64	57.94	64.12	-29.0	-29.6	27.8	0.00e+00	0	33	0	2731540480	32	5450
2026-01-06 18:47:23.65	58.65	64.45	-28.8	-29.4	28.0	0.00e+00	0	33	0	2737831936	32	5348
2026-01-06 18:47:24.66	59.39	64.78	-28.7	-29.2	28.0	0.00e+00	0	33	0	2745171968	32	5253
2026-01-06 18:47:25.68	60.15	65.11	-28.9	-29.5	28.0	0.00e+00	0	33	0	2753560576	30	6074
2026-01-06 18:47:26.69	60.93	65.44	-28.7	-29.3	27.8	0.00e+00	0	33	0	2759852032	30	5907
2026-01-06 18:47:27.69	61.73	65.76	-28.6	-29.2	28.1	0.00e+00	0	33	0	2767192064	30	5859
2026-01-06 18:47:28.70	62.56	66.07	-28.5	-29.1	28.2	0.00e+00	0	33	0	2774532096	30	5785
2026-01-06 18:47:29.71	63.41	66.39	-28.6	-29.2	28.1	0.00e+00	0	33	0	2781872128	30	5866
2026-01-06 18:47:30.72	64.29	66.70	-28.6	-29.2	28.2	0.00e+00	0	33	0	2789212160	30	5861
2026-01-06 18:47:31.73	65.19	67.01	-28.5	-29.1	28.2	0.00e+00	0	33	0	2796552192	30	5777
2026-01-06 18:47:32.74	66.12	67.31	-28.3	-28.9	28.4	0.00e+00	0	33	0	2803892224	30	5663
2026-01-06 18:47:33.75	67.07	67.61	-28.5	-29.1	28.0	0.00e+00	0	33	0	2811232256	30	5798
2026-01-06 18:47:34.76	68.06	67.91	-29.0	-29.6	27.8	0.00e+00	0	33	0	2818572288	30	6166
2026-01-06 18:47:35.77	69.07	68.20	-29.2	-29.8	27.6	0.00e+00	0	33	0	2825912320	30	6274
2026-01-06 18:47:36.78	70.11	68.48	-28.9	-29.5	27.9	0.00e+00	0	33	0	2833252352	30	6043
2026-01-06 18:47:37.79	71.18	68.76	-28.6	-29.2	27.9	0.00e+00	0	33	0	2840592384	30	5876
2026-01-06 18:47:38.80	72.29	69.03	-28.6	-29.2	28.1	0.00e+00	0	33	0	2847932416	30	5869
2026-01-06 18:47:39.81	73.42	69.30	-28.9	-29.5	27.9	0.00e+00	0	33	0	2855272448	30	6056
2026-01-06 18:47:40.82	74.58	69.56	-28.7	-29.2	27.8	0.00e+00	0	33	0	2862612480	30	5873
2026-01-06 18:47:41.83	75.78	69.81	-28.9	-29.5	27.9	0.00e+00	0	33	0	2869952512	30	6086
2026-01-06 18:47:42.84	77.01	70.05	-28.9	-29.5	27.3	0.00e+00	0	33	0	2877292544	30	6046
2026-01-06 18:47:43.85	78.27	70.29	-29.2	-29.8	27.6	0.00e+00	0	33	0	2884632576	30	6253
2026-01-06 18:47:44.86	79.56	70.52	-29.0	-29.6	27.7	0.00e+00	0	33	0	2890924032	30	6119
2026-01-06 18:47:45.87	80.88	70.73	-28.9	-29.5	27.9	0.00e+00	0	33	0	2898264064	30	6040
2026-01-06 18:47:46.88	82.24	70.94	-28.8	-29.4	27.7	0.00e+00	0	33	0	2906652672	30	5972
2026-01-06 18:47:47.89	83.62	71.14	-29.1	-29.7	27.6	0.00e+00	0	33	0	2912944128	30	6195
2026-01-06 18:47:48.90	85.04	71.33	-29.0	-29.6	27.8	0.00e+00	0	33	0	2920284160	30	6159
2026-01-06 18:47:49.91	86.48	71.51	-29.4	-30.0	27.6	0.00e+00	0	33	0	2927624192	30	6452
2026-01-06 18:47:50.92	87.96	71.68	-29.3	-29.9	27.5	0.00e+00	0	33	0	2934964224	30	6339
2026-01-06 18:47:51.93	89.46	71.83	-29.1	-29.7	27.4	0.00e+00	0	33	0	2942304256	30	6195
2026-01-06 18:47:52.94	90.99	71.98	-29.1	-29.8	27.5	0.00e+00	0	33	0	2949644288	30	6246
2026-01-06 18:47:53.95	92.54	72.11	-28.9	-29.5	27.8	0.00e+00	0	33	0	2956984320	30	6070
2026-01-06 18:47:54.96	94.12	72.23	-28.9	-29.5	27.6	0.00e+00	0	33	0	2964324352	30	6056
2026-01-06 18:47:55.97	95.72	72.33	-28.8	-29.4	27.9	0.00e+00	0	33	0	2971664384	30	6031
2026-01-06 18:47:56.98	97.34	72.43	-29.0	-29.6	27.8	0.00e+00	0	33	0	2979004416	30	6161
2026-01-06 18:47:57.99	98.97	72.51	-28.8	-29.4	27.9	0.00e+00	0	33	0	2986344448	30	6019
2026-01-06 18:47:59.00	100.62	72.57	-28.4	-29.0	28.2	0.00e+00	0	33	0	2993684480	30	5739
2026-01-06 18:48:00.01	102.28	72.63	-28.5	-29.0	28.0	0.00e+00	0	33	0	3001024512	30	5757
2026-01-06 18:48:01.02	103.95	72.67	-28.8	-29.4	27.8	0.00e+00	0	33	0	3008364544	30	5978
2026-01-06 18:48:02.03	105.63	72.69	-29.0	-29.6	27.5	0.00e+00	0	33	0	3015704576	30	6168
2026-01-06 18:48:03.03	107.30	72.70	-28.7	-29.3	28.0	0.00e+00	0	33	0	3023044608	30	5947
2026-01-06 18:48:04.05	109.00	72.70	-28.7	-29.2	28.0	0.00e+00	0	33	0	3030384640	30	5884
2026-01-06 18:48:05.05	110.66	72.69	-28.6	-29.2	28.1	0.00e+00	0	33	0	3036676096	30	5830
2026-01-06 18:48:06.06	112.33	72.65	-28.7	-29.3	27.8	0.00e+00	0	33	0	3044016128	30	5948
2026-01-06 18:48:07.07	114.00	72.61	-28.8	-29.4	27.9	0.00e+00	0	33	0	3051356160	30	5975
2026-01-06 18:48:08.08	115.66	72.55	-29.0	-29.6	27.9	0.00e+00	0	33	0	3058696192	30	6128
2026-01-06 18:48:09.09	117.30	72.48	-28.8	-29.4	27.7	0.00e+00	0	33	0	3066036224	30	6021
2026-01-06 18:48:10.10	118.93	72.39	-28.7	-29.3	27.8	0.00e+00	0	33	0	3073376256	30	5940
2026-01-06 18:48:11.11	120.55	72.30	-28.8	-29.3	27.9	0.00e+00	0	33	0	3080716288	30	5964
2026-01-06 18:48:12.12	122.14	72.18	-28.8	-29.4	27.9	0.00e+00	0	33	0	3088056320	30	5982
2026-01-06 18:48:13.13	123.71	72.06	-28.8	-29.4	27.9	0.00e+00	0	33	0	3095396352	30	5970
2026-01-06 18:48:14.14	125.25	71.92	-28.7	-29.3	27.4	0.00e+00	0	33	0	3102736384	30	5927
2026-01-06 18:48:15.15	126.77	71.77	-29.0	-29.6	27.6	0.00e+00	0	33	0	3110076416	30	6145
2026-01-06 18:48:16.16	128.27	71.61	-29.0	-29.6	27.8	0.00e+00	0	33	0	3117416448	30	6136
2026-01-06 18:48:17.17	129.73	71.44	-28.9	-29.5	27.8	0.00e+00	0	33	0	3124756480	30	6040
2026-01-06 18:48:18.18	131.17	71.26	-28.6	-29.1	28.1	0.00e+00	0	33	0	3132096512	30	5816
2026-01-06 18:48:19.18	132.56	71.07	-28.7	-29.2	27.7	0.00e+00	0	33	0	3139436544	30	5894
2026-01-06 18:48:20.20	133.95	70.86	-28.6	-29.2	28.1	0.00e+00	0	33	0	3146776576	30	5866
2026-01-06 18:48:21.20	135.28	70.65	-28.9	-29.5	27.7	0.00e+00	0	33	0	3154116608	30	6043
2026-01-06 18:48:22.22	136.60	70.43	-29.0	-29.5	27.9	0.00e+00	0	33	0	3161456640	30	6085
2026-01-06 18:48:23.22	137.87	70.20	-29.0	-29.5	27.8	0.00e+00	0	33	0	3168796672	30	6099
2026-01-06 18:48:24.23	139.12	69.96	-28.8	-29.4	28.0	0.00e+00	0	33	0	3176136704	30	5969
2026-01-06 18:48:25.24	140.34	69.72	-28.7	-29.3	28.1	0.00e+00	0	33	0	3183476736	30	5929
2026-01-06 18:48:26.25	141.52	69.46	-28.5	-29.1	28.1	0.00e+00	0	33	0	3189768192	30	5812
2026-01-06 18:48:27.26	142.68	69.20	-28.4	-29.0	28.2	0.00e+00	0	33	0	3197108224	30	5735
2026-01-06 18:48:28.27	143.80	68.93	-28.3	-28.9	28.3	0.00e+00	0	33	0	3204448256	30	5658
2026-01-06 18:48:29.28	144.89	68.66	-28.4	-29.0	28.2	0.00e+00	0	33	0	3211788288	30	5711
2026-01-06 18:48:30.29	145.95	68.37	-28.5	-29.1	28.2	0.00e+00	0	33	0	3219128320	30	5784
2026-01-06 18:48:31.30	146.99	68.09	-28.7	-29.3	28.0	0.00e+00	0	33	0	3226468352	30	5921
2026-01-06 18:48:32.31	147.99	67.80	-28.6	-29.2	28.0	0.00e+00	0	33	0	3233808384	30	5845
2026-01-06 18:48:33.32	148.97	67.50	-28.7	-29.2	28.0	0.00e+00	0	33	0	3241148416	30	5882
2026-01-06 18:48:34.33	149.91	67.20	-28.6	-29.2	28.2	0.00e+00	0	33	0	3248488448	30	5863
2026-01-06 18:48:35.34	150.83	66.89	-28.4	-29.0	28.2	0.00e+00	0	33	0	3255828480	30	5739
2026-01-06 18:48:36.35	151.73	66.58	-28.6	-29.2	28.1	0.00e+00	0	33	0	3263168512	30	5874
2026-01-06 18:48:37.36	152.59	66.27	-28.2	-28.8	27.9	0.00e+00	0	33	0	3270508544	30	5572
2026-01-06 18:48:38.37	153.44	65.95	-28.2	-28.8	28.4	0.00e+00	0	33	0	3277848576	30	5587
2026-01-06 18:48:39.38	154.26	65.63	-28.4	-29.0	28.1	0.00e+00	0	33	0	3285188608	30	5735
2026-01-06 18:48:40.39	155.05	65.30	-28.6	-29.2	28.0	0.00e+00	0	33	0	3292528640	30	5873
2026-01-06 18:48:41.40	155.83	64.98	-28.6	-29.2	27.9	0.00e+00	0	33	0	3299868672	30	5849
2026-01-06 18:48:42.41	156.58	64.65	-28.7	-29.3	28.0	0.00e+00	0	33	0	3307208704	30	5927
2026-01-06 18:48:43.42	157.31	64.32	-28.8	-29.4	27.9	0.00e+00	0	33	0	3313500160	30	5982
2026-01-06 18:48:44.43	158.01	63.98	-29.0	-29.6	27.9	0.00e+00	0	33	0	3321888768	30	6119
2026-01-06 18:48:45.44	158.70	63.65	-29.0	-29.6	27.8	0.00e+00	0	33	0	3329228800	30	6110
2026-01-06 18:48:46.45	159.37	63.31	-29.2	-29.8	27.4	0.00e+00	0	33	0	3335520256	30	6256
2026-01-06 18:48:47.46	160.02	62.97	-29.3	-29.9	27.6	0.00e+00	0	33	0	3342860288	30	6320
2026-01-06 18:48:48.47	160.65	62.63	-29.3	-29.9	27.4	0.00e+00	0	33	0	3350200320	30	6368
2026-01-06 18:48:49.48	161.27	62.29	-29.1	-29.7	27.6	0.00e+00	0	33	0	3357540352	30	6188
2026-01-06 18:48:50.48	161.86	61.95	-29.2	-29.8	27.8	0.00e+00	0	33	0	3364880384	30	6246
2026-01-06 18:48:51.49	162.44	61.61	-29.2	-29.8	27.4	0.00e+00	0	33	0	3372220416	30	6272
2026-01-06 18:48:52.50	163.01	61.26	-29.4	-29.9	27.6	0.00e+00	0	33	0	3379560448	30	6383
2026-01-06 18:48:53.51	163.56	60.92	-29.4	-30.0	27.4	0.00e+00	0	33	0	3386900480	30	6444
2026-01-06 18:48:54.52	164.10	60.58	-29.7	-30.3	27.3	0.00e+00	0	33	0	3394240512	30	6638
2026-01-06 18:48:55.53	164.62	60.23	-29.9	-30.5	27.1	0.00e+00	0	33	0	3401580544	32	6059
2026-01-06 18:48:56.54	165.13	59.89	-30.0	-30.6	26.6	0.00e+00	0	33	0	3408920576	32	6155
2026-01-06 18:48:57.55	165.62	59.54	-30.1	-30.7	26.2	0.00e+00	0	33	0	3416260608	32	6222
2026-01-06 18:48:58.56	166.10	59.20	-30.2	-30.9	26.8	0.00e+00	0	33	0	3423600640	32	6328
2026-01-06 18:48:59.57	166.57	58.85	-30.0	-30.6	27.0	0.00e+00	0	33	0	3430940672	32	6160
2026-01-06 18:49:00.58	167.03	58.51	-29.9	-30.5	27.1	0.00e+00	0	33	0	3438280704	32	6062
2026-01-06 18:49:01.59	167.48	58.16	-30.1	-30.7	26.5	0.00e+00	0	33	0	3445620736	32	6174
2026-01-06 18:49:02.60	167.91	57.82	-30.2	-30.8	26.9	0.00e+00	0	33	0	3452960768	32	6287
2026-01-06 18:49:03.62	168.34	57.47	-30.3	-30.9	26.6	0.00e+00	0	33	0	3460300800	32	6359
2026-01-06 18:49:04.62	168.75	57.13	-30.3	-31.0	26.7	0.00e+00	0	33	0	3467640832	32	6391
2026-01-06 18:49:05.63	169.15	56.79	-30.1	-30.7	27.0	0.00e+00	0	33	0	3474980864	32	6211
2026-01-06 18:49:06.64	169.55	56.45	-30.1	-30.7	26.9	0.00e+00	0	33	0	3482320896	32	6214
2026-01-06 18:49:07.65	169.93	56.11	-30.2	-30.8	26.9	0.00e+00	0	33	0	3488612352	32	6265
2026-01-06 18:49:08.66	170.30	55.77	-30.1	-30.7	27.0	0.00e+00	0	33	0	3495952384	32	6192
2026-01-06 18:49:09.67	170.67	55.43	-29.9	-30.5	27.1	0.00e+00	0	33	0	3504340992	32	6094
2026-01-06 18:49:10.68	171.03	55.09	-30.3	-30.9	26.0	0.00e+00	0	33	0	3510632448	32	6364
2026-01-06 18:49:11.70	171.38	54.75	-30.2	-30.8	26.7	0.00e+00	0	33	0	3517972480	32	6292
2026-01-06 18:49:12.71	171.72	54.42	-30.0	-30.6	26.8	0.00e+00	0	33	0	3525312512	32	6169
2026-01-06 18:49:13.72	172.06	54.08	-29.8	-30.5	27.2	0.00e+00	0	33	0	3532652544	32	6034
2026-01-06 18:49:14.72	172.38	53.76	-29.7	-30.3	27.3	0.00e+00	0	33	0	3539992576	32	5957
2026-01-06 18:49:15.73	172.70	53.42	-29.3	-29.9	27.4	0.00e+00	0	33	0	3547332608	32	5656
2026-01-06 18:49:16.74	173.01	53.09	-29.2	-29.8	27.5	0.00e+00	0	33	0	3554672640	32	5569
2026-01-06 18:49:17.75	173.31	52.76	-29.4	-30.0	27.4	0.00e+00	0	33	0	3562012672	32	5713
2026-01-06 18:49:18.76	173.61	52.44	-29.5	-30.1	27.2	0.00e+00	0	33	0	3569352704	32	5797
2026-01-06 18:49:19.77	173.90	52.11	-29.6	-30.2	27.2	0.00e+00	0	33	0	3576692736	32	5887
2026-01-06 18:49:20.78	174.19	51.79	-29.5	-30.1	27.4	0.00e+00	0	33	0	3584032768	32	5804
2026-01-06 18:49:21.79	174.47	51.46	-29.5	-30.1	27.2	0.00e+00	0	33	0	3591372800	32	5822
2026-01-06 18:49:22.80	174.74	51.14	-29.3	-29.9	27.4	0.00e+00	0	33	0	3598712832	32	5647
2026-01-06 18:49:23.81	175.01	50.82	-29.5	-30.0	27.5	0.00e+00	0	33	0	3606052864	32	5753
2026-01-06 18:49:24.82	175.27	50.50	-29.7	-30.3	27.3	0.00e+00	0	33	0	3612344320	32	5921
2026-01-06 18:49:25.83	175.53	50.19	-29.9	-30.5	27.2	0.00e+00	0	33	0	3620732928	32	6043
2026-01-06 18:49:26.84	175.78	49.87	-29.9	-30.5	26.9	0.00e+00	0	33	0	3628072960	32	6062
2026-01-06 18:49:27.85	176.03	49.56	-29.8	-30.4	27.1	0.00e+00	0	33	0	3634364416	32	5971
2026-01-06 18:49:28.86	176.27	49.25	-29.9	-30.5	27.2	0.00e+00	0	33	0	3641704448	32	6039
2026-01-06 18:49:29.87	176.50	48.93	-29.4	-30.0	27.5	0.00e+00	0	33	0	3649044480	32	5746
2026-01-06 18:49:30.88	176.74	48.63	-29.5	-30.1	27.5	0.00e+00	0	33	0	3656384512	32	5789
2026-01-06 18:49:31.89	176.96	48.32	-29.7	-30.3	27.3	0.00e+00	0	33	0	3663724544	32	5926
2026-01-06 18:49:32.90	177.19	48.01	-29.8	-30.5	27.1	0.00e+00	0	33	0	3671064576	32	6043
2026-01-06 18:49:33.91	177.41	47.71	-30.1	-30.7	27.0	0.00e+00	0	33	0	3678404608	32	6205
2026-01-06 18:49:34.92	177.62	47.41	-30.2	-30.9	26.6	0.00e+00	0	33	0	3685744640	32	6340
2026-01-06 18:49:35.92	177.83	47.11	-29.9	-30.5	27.2	0.00e+00	0	33	0	3693084672	32	6068
2026-01-06 18:49:36.94	178.04	46.81	-29.9	-30.5	26.5	0.00e+00	0	33	0	3700424704	32	6081
2026-01-06 18:49:37.95	178.24	46.51	-29.6	-30.2	27.4	0.00e+00	0	33	0	3707764736	32	5848
2026-01-06 18:49:38.96	178.44	46.22	-29.1	-29.7	27.7	0.00e+00	0	33	0	3715104768	32	5531
2026-01-06 18:49:39.97	178.64	45.92	-29.0	-29.6	27.8	0.00e+00	0	33	0	3722444800	32	5472
2026-01-06 18:49:40.98	178.83	45.63	-28.8	-29.4	28.0	0.00e+00	0	33	0	3729784832	32	5338
2026-01-06 18:49:41.99	179.02	45.34	-28.8	-29.4	26.4	0.00e+00	0	33	0	3737124864	32	5361
2026-01-06 18:49:42.99	179.20	45.06	-28.8	-29.4	27.7	0.00e+00	0	33	0	3744464896	30	5995
2026-01-06 18:49:44.01	179.39	44.77	-28.6	-29.2	27.8	0.00e+00	0	33	0	3751804928	30	5844
2026-01-06 18:49:45.02	179.57	44.48	-28.3	-28.9	28.3	0.00e+00	0	33	0	3759144960	30	5676
2026-01-06 18:49:46.02	179.74	44.20	-28.3	-28.8	28.4	0.00e+00	0	33	0	3766484992	30	5608
2026-01-06 18:49:47.03	179.91	43.92	-28.1	-28.6	28.4	0.00e+00	0	33	0	3773825024	30	5497
2026-01-06 18:49:48.04	180.08	43.64	-28.1	-28.7	28.5	0.00e+00	0	33	0	3781165056	30	5505
2026-01-06 18:49:49.05	180.25	43.37	-28.1	-28.7	28.5	0.00e+00	0	33	0	3787456512	30	5532
2026-01-06 18:49:50.06	180.42	43.09	-28.1	-28.7	28.2	0.00e+00	0	33	0	3794796544	30	5518
2026-01-06 18:49:51.07	180.58	42.82	-28.4	-28.9	28.4	0.00e+00	0	33	0	3802136576	30	5691
2026-01-06 18:49:52.08	180.74	42.54	-28.4	-29.0	27.9	0.00e+00	0	33	0	3809476608	30	5708
2026-01-06 18:49:53.09	180.89	42.27	-28.4	-29.0	27.5	0.00e+00	0	33	0	3816816640	30	5745
2026-01-06 18:49:54.10	181.05	42.00	-28.6	-29.1	28.2	0.00e+00	0	33	0	3824156672	30	5824
2026-01-06 18:49:55.10	181.20	41.74	-28.5	-29.1	27.6	0.00e+00	0	33	0	3831496704	30	5810
2026-01-06 18:49:56.11	181.35	41.47	-28.6	-29.2	28.0	0.00e+00	0	33	0	3838836736	30	5886
2026-01-06 18:49:57.12	181.49	41.21	-28.7	-29.2	28.0	0.00e+00	0	33	0	3846176768	30	5895
2026-01-06 18:49:58.13	181.64	40.95	-28.9	-29.5	27.9	0.00e+00	0	33	0	3853516800	30	6063
2026-01-06 18:49:59.14	181.78	40.69	-28.7	-29.3	27.3	0.00e+00	0	33	0	3860856832	30	5915
2026-01-06 18:50:00.15	181.92	40.43	-28.8	-29.4	27.3	0.00e+00	0	33	0	3868196864	30	6025
2026-01-06 18:50:01.16	182.06	40.17	-28.7	-29.3	27.4	0.00e+00	0	33	0	3875536896	30	5934
2026-01-06 18:50:02.17	182.19	39.92	-28.4	-29.0	27.9	0.00e+00	0	33	0	3882876928	30	5746
2026-01-06 18:50:03.18	182.33	39.66	-28.4	-28.9	27.4	0.00e+00	0	33	0	3890216960	30	5692
2026-01-06 18:50:04.19	182.46	39.41	-28.3	-28.9	28.1	0.00e+00	0	33	0	3897556992	30	5677
2026-01-06 18:50:05.20	182.59	39.16	-28.4	-29.0	28.1	0.00e+00	0	33	0	3904897024	30	5744
2026-01-06 18:50:06.21	182.72	38.91	-28.4	-29.0	27.9	0.00e+00	0	33	0	3911188480	30	5723
2026-01-06 18:50:07.22	182.84	38.67	-28.4	-29.0	27.7	0.00e+00	0	33	0	3918528512	30	5735
2026-01-06 18:50:08.23	182.97	38.42	-28.6	-29.3	27.8	0.00e+00	0	34	0	3926917120	30	5897
2026-01-06 18:50:09.24	183.09	38.18	-28.7	-29.3	27.9	0.00e+00	0	33	0	3933208576	30	5944
2026-01-06 18:50:10.25	183.21	37.94	-28.5	-29.1	27.9	0.00e+00	0	33	0	3940548608	30	5811
2026-01-06 18:50:11.26	183.33	37.70	-28.6	-29.2	27.9	0.00e+00	0	33	0	3947888640	30	5879
2026-01-06 18:50:12.27	183.45	37.46	-28.5	-29.1	28.2	0.00e+00	0	34	0	3955228672	30	5802
2026-01-06 18:50:13.27	183.56	37.22	-28.5	-29.1	27.9	0.00e+00	0	33	0	3962568704	30	5796
2026-01-06 18:50:14.28	183.68	36.99	-28.4	-28.9	27.9	0.00e+00	0	33	0	3969908736	30	5683
2026-01-06 18:50:15.29	183.79	36.75	-28.5	-29.1	28.1	0.00e+00	0	33	0	3977248768	30	5784
2026-01-06 18:50:16.30	183.90	36.52	-28.5	-29.0	28.2	0.00e+00	0	33	0	3984588800	30	5746
2026-01-06 18:50:17.31	184.01	36.29	-28.3	-28.8	28.4	0.00e+00	0	34	0	3991928832	30	5629
2026-01-06 18:50:18.32	184.12	36.06	-28.3	-28.8	28.4	0.00e+00	0	33	0	3999268864	30	5618
2026-01-06 18:50:19.33	184.22	35.83	-28.3	-28.8	28.1	0.00e+00	0	33	0	4006608896	30	5620
2026-01-06 18:50:20.34	184.33	35.60	-28.3	-28.8	28.4	0.00e+00	0	33	0	4013948928	30	5630
2026-01-06 18:50:21.36	184.43	35.38	-28.4	-29.0	28.3	0.00e+00	0	33	0	4021288960	30	5740
2026-01-06 18:50:22.36	184.53	35.16	-28.4	-29.0	28.2	0.00e+00	0	33	0	4028628992	30	5716
2026-01-06 18:50:23.37	184.64	34.93	-28.4	-29.0	27.4	0.00e+00	0	33	0	4035969024	30	5705
2026-01-06 18:50:24.38	184.73	34.71	-28.4	-29.0	28.4	0.00e+00	0	33	0	4043309056	30	5696
2026-01-06 18:50:25.39	184.83	34.49	-28.5	-29.1	28.3	0.00e+00	0	33	0	4050649088	30	5775
2026-01-06 18:50:26.40	184.93	34.28	-28.3	-28.9	28.3	0.00e+00	0	33	0	4057989120	30	5649
2026-01-06 18:50:27.41	185.03	34.06	-28.3	-28.9	28.3	0.00e+00	0	33	0	4064280576	30	5654
2026-01-06 18:50:28.42	185.12	33.84	-28.3	-28.9	28.4	0.00e+00	0	33	0	4071620608	30	5667
2026-01-06 18:50:29.43	185.21	33.63	-28.2	-28.7	28.0	0.00e+00	0	33	0	4080009216	30	5566
2026-01-06 18:50:30.44	185.31	33.42	-28.1	-28.7	28.5	0.00e+00	0	33	0	4086300672	30	5540
2026-01-06 18:50:31.45	185.40	33.21	-28.1	-28.7	28.4	0.00e+00	0	34	0	4093640704	30	5532
2026-01-06 18:50:32.46	185.49	33.00	-28.1	-28.6	28.6	0.00e+00	0	33	0	4100980736	30	5494
2026-01-06 18:50:33.47	185.58	32.79	-28.1	-28.7	28.2	0.00e+00	0	33	0	4108320768	30	5513
2026-01-06 18:50:34.48	185.67	32.58	-27.9	-28.5	28.6	0.00e+00	0	33	0	4115660800	30	5423
2026-01-06 18:50:35.49	185.75	32.38	-27.9	-28.5	28.7	0.00e+00	0	34	0	4123000832	30	5387
2026-01-06 18:50:36.50	185.84	32.18	-28.0	-28.6	28.6	0.00e+00	0	33	0	4130340864	30	5467
2026-01-06 18:50:37.51	185.92	31.97	-28.1	-28.7	28.4	0.00e+00	0	34	0	4137680896	30	5532
2026-01-06 18:50:38.52	186.01	31.77	-28.1	-28.7	28.4	0.00e+00	0	33	0	4145020928	30	5514
2026-01-06 18:50:39.53	186.09	31.57	-28.0	-28.7	28.5	0.00e+00	0	33	0	4152360960	30	5506
2026-01-06 18:50:40.54	186.17	31.37	-28.1	-28.7	28.4	0.00e+00	0	33	0	4159700992	30	5558
2026-01-06 18:50:41.55	186.25	31.18	-28.3	-28.9	28.3	0.00e+00	0	33	0	4167041024	30	5677
2026-01-06 18:50:42.56	186.33	30.98	-28.3	-28.9	28.1	0.00e+00	0	33	0	4174381056	30	5695
2026-01-06 18:50:43.57	186.41	30.78	-28.3	-28.9	28.4	0.00e+00	0	34	0	4181721088	30	5678
2026-01-06 18:50:44.58	186.49	30.59	-28.4	-29.0	28.3	0.00e+00	0	33	0	4189061120	30	5721
2026-01-06 18:50:45.59	186.57	30.40	-28.4	-29.0	28.2	0.00e+00	0	33	0	4196401152	30	5740
2026-01-06 18:50:46.60	186.64	30.21	-28.4	-29.0	28.3	0.00e+00	0	33	0	4203741184	30	5739
2026-01-06 18:50:47.61	186.72	30.02	-28.6	-29.2	28.1	0.00e+00	0	34	0	4210032640	30	5833
2026-01-06 18:50:48.62	186.79	29.83	-28.5	-29.1	28.2	0.00e+00	0	34	0	4217372672	30	5769
2026-01-06 18:50:49.63	186.87	29.64	-28.4	-29.0	28.3	0.00e+00	0	33	0	4225761280	30	5754
2026-01-06 18:50:50.64	186.94	29.45	-28.4	-29.0	28.1	0.00e+00	0	33	0	4232052736	30	5750
2026-01-06 18:50:51.64	187.01	29.27	-28.4	-29.0	28.3	0.00e+00	0	34	0	4239392768	30	5711
2026-01-06 18:50:52.65	187.08	29.09	-28.4	-29.0	28.2	0.00e+00	0	34	0	4246732800	30	5744
2026-01-06 18:50:53.66	187.15	28.90	-28.5	-29.0	28.3	0.00e+00	0	34	0	4254072832	30	5752
2026-01-06 18:50:54.67	187.22	28.72	-28.5	-29.0	28.2	0.00e+00	0	33	0	4261412864	30	5760
2026-01-06 18:50:55.68	187.29	28.54	-28.5	-29.1	28.3	0.00e+00	0	34	0	4268752896	30	5771
2026-01-06 18:50:56.69	187.36	28.36	-28.4	-29.0	28.3	0.00e+00	0	33	0	4276092928	30	5718
2026-01-06 18:50:57.70	187.43	28.18	-28.4	-29.0	28.2	0.00e+00	0	33	0	4283432960	30	5756
2026-01-06 18:50:58.71	187.50	28.01	-28.6	-29.2	28.1	0.00e+00	0	33	0	4290772992	30	5875
2026-01-06 18:50:59.72	187.56	27.83	-28.6	-29.2	27.5	0.00e+00	0	34	0	4298113024	30	5881
2026-01-06 18:51:00.73	187.63	27.66	-28.6	-29.2	27.9	0.00e+00	0	33	0	4305453056	30	5847
2026-01-06 18:51:01.74	187.70	27.48	-28.7	-29.3	27.9	0.00e+00	0	33	0	4312793088	30	5938
2026-01-06 18:51:02.74	187.76	27.31	-28.7	-29.3	27.8	0.00e+00	0	33	0	4320133120	30	5958
2026-01-06 18:51:03.75	187.82	27.14	-28.7	-29.3	27.6	0.00e+00	0	33	0	4327473152	30	5930
2026-01-06 18:51:04.76	187.89	26.97	-28.7	-29.3	27.9	0.00e+00	0	33	0	4334813184	30	5951
2026-01-06 18:51:05.77	187.95	26.80	-28.8	-29.4	27.9	0.00e+00	0	34	0	4341104640	30	6018
2026-01-06 18:51:06.78	188.01	26.63	-28.8	-29.4	27.6	0.00e+00	0	33	0	4349493248	30	5984
2026-01-06 18:51:07.79	188.07	26.46	-28.7	-29.3	28.0	0.00e+00	0	33	0	4356833280	30	5920
2026-01-06 18:51:08.80	188.13	26.29	-28.9	-29.5	27.8	0.00e+00	0	33	0	4363124736	30	6062
2026-01-06 18:51:09.81	188.19	26.13	-28.9	-29.5	27.9	0.00e+00	0	33	0	4370464768	30	6045
2026-01-06 18:51:10.82	188.25	25.96	-28.6	-29.2	28.0	0.00e+00	0	34	0	4377804800	30	5865
2026-01-06 18:51:11.83	188.31	25.80	-28.7	-29.3	28.0	0.00e+00	0	33	0	4385144832	30	5946
2026-01-06 18:51:12.84	188.37	25.64	-28.7	-29.3	28.0	0.00e+00	0	33	0	4392484864	30	5953
2026-01-06 18:51:13.85	188.43	25.48	-28.5	-29.1	28.0	0.00e+00	0	34	0	4399824896	30	5821
2026-01-06 18:51:14.86	188.48	25.31	-28.6	-29.2	28.1	0.00e+00	0	34	0	4407164928	30	5853
2026-01-06 18:51:15.87	188.54	25.15	-28.5	-29.1	28.1	0.00e+00	0	33	0	4414504960	30	5814
2026-01-06 18:51:16.88	188.60	25.00	-28.5	-29.1	28.1	0.00e+00	0	33	0	4421844992	30	5810
2026-01-06 18:51:17.89	188.65	24.84	-28.6	-29.2	28.1	0.00e+00	0	33	0	4429185024	30	5869
2026-01-06 18:51:18.90	188.71	24.68	-28.5	-29.1	28.1	0.00e+00	0	33	0	4436525056	30	5802
2026-01-06 18:51:19.91	188.76	24.52	-28.5	-29.1	28.2	0.00e+00	0	34	0	4443865088	30	5815
2026-01-06 18:51:20.92	188.82	24.37	-28.5	-29.1	28.1	0.00e+00	0	33	0	4451205120	30	5793
2026-01-06 18:51:21.93	188.87	24.21	-28.5	-29.1	28.0	0.00e+00	0	33	0	4458545152	30	5813
2026-01-06 18:51:22.94	188.92	24.06	-28.6	-29.2	28.1	0.00e+00	0	33	0	4465885184	30	5839
2026-01-06 18:51:23.95	188.98	23.91	-28.6	-29.2	28.0	0.00e+00	0	34	0	4473225216	30	5849
2026-01-06 18:51:24.96	189.03	23.76	-28.6	-29.2	28.0	0.00e+00	0	33	0	4480565248	30	5868
2026-01-06 18:51:25.97	189.08	23.60	-28.6	-29.2	28.0	0.00e+00	0	33	0	4486856704	30	5861
2026-01-06 18:51:26.98	189.13	23.45	-28.6	-29.1	28.2	0.00e+00	0	33	0	4495245312	30	5825
2026-01-06 18:51:27.98	189.18	23.31	-28.6	-29.2	27.6	0.00e+00	0	34	0	4502585344	30	5858
2026-01-06 18:51:29.00	189.23	23.16	-28.8	-29.4	27.8	0.00e+00	0	34	0	4508876800	30	5976
2026-01-06 18:51:30.01	189.28	23.01	-28.6	-29.2	28.1	0.00e+00	0	34	0	4516216832	30	5883
2026-01-06 18:51:31.01	189.33	22.86	-28.6	-29.2	28.0	0.00e+00	0	33	0	4523556864	30	5890
2026-01-06 18:51:32.02	189.38	22.72	-28.6	-29.2	27.9	0.00e+00	0	33	0	4530896896	30	5860
2026-01-06 18:51:33.03	189.43	22.57	-28.8	-29.4	27.9	0.00e+00	0	33	0	4538236928	30	5979
2026-01-06 18:51:34.04	189.48	22.43	-28.7	-29.3	27.9	0.00e+00	0	33	0	4545576960	30	5914
2026-01-06 18:51:35.05	189.53	22.28	-28.7	-29.3	28.0	0.00e+00	0	34	0	4552916992	30	5953
2026-01-06 18:51:36.06	189.57	22.14	-28.6	-29.2	27.9	0.00e+00	0	34	0	4560257024	30	5870
2026-01-06 18:51:37.07	189.62	22.00	-28.8	-29.4	27.7	0.00e+00	0	34	0	4567597056	30	6006
2026-01-06 18:51:38.08	189.67	21.86	-28.7	-29.3	27.8	0.00e+00	0	34	0	4574937088	30	5933
2026-01-06 18:51:39.09	189.71	21.72	-28.8	-29.4	28.0	0.00e+00	0	33	0	4582277120	30	5988
2026-01-06 18:51:40.10	189.76	21.58	-28.9	-29.5	27.8	0.00e+00	0	33	0	4589617152	30	6063
2026-01-06 18:51:41.11	189.80	21.44	-28.9	-29.5	27.9	0.00e+00	0	33	0	4596957184	30	6046
2026-01-06 18:51:42.12	189.85	21.30	-28.9	-29.5	27.9	0.00e+00	0	33	0	4604297216	30	6066
2026-01-06 18:51:43.13	189.89	21.16	-29.0	-29.6	27.7	0.00e+00	0	34	0	4611637248	30	6106
2026-01-06 18:51:44.14	189.94	21.03	-29.0	-29.6	27.7	0.00e+00	0	33	0	4618977280	30	6138
2026-01-06 18:51:45.15	189.98	20.89	-29.0	-29.6	27.6	0.00e+00	0	33	0	4626317312	30	6158
2026-01-06 18:51:46.16	190.03	20.76	-29.1	-29.7	27.7	0.00e+00	0	34	0	4633657344	30	6181
2026-01-06 18:51:47.16	190.07	20.62	-29.2	-29.8	27.6	0.00e+00	0	33	0	4639948800	30	6291
2026-01-06 18:51:48.18	190.11	20.49	-29.2	-29.8	27.5	0.00e+00	0	34	0	4648337408	30	6246
2026-01-06 18:51:49.19	190.16	20.35	-29.3	-29.9	27.6	0.00e+00	0	33	0	4655677440	30	6352
2026-01-06 18:51:50.19	190.20	20.22	-29.3	-29.9	27.6	0.00e+00	0	34	0	4661968896	30	6338
2026-01-06 18:51:51.20	190.24	20.09	-29.3	-29.9	27.6	0.00e+00	0	34	0	4669308928	30	6343
