passes_logs/2026/01/06/R4.6S_Anadyr/R4.6S_Anadyr__20260106_023010_NOAA_20_JPSS-1_rec.log

#Pass ID: 20260106_023010_NOAA 20 (JPSS-1)
#Satellite: NOAA 20 (JPSS-1)
#Configuration: NOAA 20
#almurnet v.1.7.20251203
#Start time: 2026-01-06 02:30:13

#Version: 2.2.20231116
#Station: R4.6S_Anadyr
#Location: 177.4865 lon 64.73178 lat
#TLE: 1 43013U 17073A   26005.46207808  .00000128  00000+0  81791-4 0  9997
#TLE: 2 43013  98.7627 306.5027 0001826  53.0458 307.0885 14.19533487421381

#Time	Az	El	Level	Level2	SNR	BER	BlckErr	Temp	State	Recorded	gain1	gain2
2026-01-06 02:30:13.81	216.32	0.15	-48.5	-62.2	3.3	1.54e+00	0	32	0	0	60	46645
2026-01-06 02:30:14.82	216.39	0.20	-48.5	-63.7	3.6	1.51e+00	0	33	104	0	60	55050
2026-01-06 02:30:15.83	216.46	0.25	-48.5	-63.7	3.6	1.51e+00	0	33	104	0	60	55085
2026-01-06 02:30:16.84	216.54	0.30	-48.5	-63.7	3.6	1.51e+00	0	33	104	0	60	55152
2026-01-06 02:30:17.85	216.61	0.36	-48.5	-63.7	3.6	1.51e+00	0	33	104	0	60	55376
2026-01-06 02:30:18.86	216.68	0.41	-48.5	-63.6	3.6	1.51e+00	0	33	104	0	60	55001
2026-01-06 02:30:19.87	216.76	0.46	-48.5	-63.7	3.6	1.51e+00	0	33	104	0	60	55380
2026-01-06 02:30:20.87	216.83	0.51	-48.5	-63.7	3.6	1.51e+00	0	33	104	0	60	55082
2026-01-06 02:30:21.88	216.90	0.56	-48.5	-63.7	3.6	1.51e+00	0	33	104	0	60	55029
2026-01-06 02:30:22.89	216.98	0.61	-48.5	-63.7	3.6	1.51e+00	0	33	104	0	60	55216
2026-01-06 02:30:23.90	217.05	0.66	-48.5	-63.7	3.6	1.51e+00	0	33	104	0	60	55299
2026-01-06 02:30:24.91	217.13	0.71	-48.5	-63.7	3.6	1.51e+00	0	33	104	0	60	55043
2026-01-06 02:30:25.92	217.20	0.76	-48.5	-63.7	3.6	1.51e+00	0	33	104	0	60	55182
2026-01-06 02:30:26.93	217.28	0.82	-48.5	-63.7	3.6	1.51e+00	0	33	104	0	60	55542
2026-01-06 02:30:27.94	217.35	0.87	-48.5	-63.7	3.6	1.51e+00	0	33	104	0	60	55249
2026-01-06 02:30:28.95	217.43	0.92	-48.5	-63.6	3.6	1.51e+00	0	33	104	0	60	55021
2026-01-06 02:30:29.96	217.51	0.97	-48.5	-63.7	3.6	1.51e+00	0	33	104	0	60	55138
2026-01-06 02:30:30.97	217.58	1.02	-48.5	-63.7	3.6	1.51e+00	0	33	104	0	60	55385
2026-01-06 02:30:31.98	217.66	1.07	-48.5	-63.6	3.6	1.51e+00	0	33	104	0	60	54796
2026-01-06 02:30:32.99	217.73	1.13	-48.5	-63.7	3.6	1.51e+00	0	33	104	0	60	55164
2026-01-06 02:30:34.00	217.81	1.18	-48.5	-63.7	3.6	1.51e+00	0	33	104	0	60	55046
2026-01-06 02:30:35.01	217.89	1.23	-48.5	-63.7	3.6	1.51e+00	0	33	104	0	60	55103
2026-01-06 02:30:36.02	217.97	1.28	-48.5	-63.7	3.6	1.51e+00	0	33	104	0	60	55295
2026-01-06 02:30:37.03	218.04	1.33	-48.5	-63.7	3.6	1.51e+00	0	33	104	0	60	55330
2026-01-06 02:30:38.04	218.12	1.38	-48.5	-63.7	3.6	1.51e+00	0	33	104	0	60	55185
2026-01-06 02:30:39.05	218.20	1.44	-48.5	-63.7	3.6	1.51e+00	0	33	104	0	60	55095
2026-01-06 02:30:40.06	218.28	1.49	-48.5	-63.7	3.6	1.51e+00	0	33	104	0	60	55166
2026-01-06 02:30:41.07	218.36	1.54	-48.5	-63.6	3.6	1.51e+00	0	33	104	0	60	54902
2026-01-06 02:30:42.08	218.44	1.59	-48.5	-63.7	3.6	1.51e+00	0	33	104	0	60	55202
2026-01-06 02:30:43.09	218.52	1.65	-48.5	-63.7	3.6	1.51e+00	0	33	104	0	60	55031
2026-01-06 02:30:44.10	218.60	1.70	-48.5	-63.6	3.6	1.51e+00	0	33	104	0	60	55016
2026-01-06 02:30:45.11	218.68	1.75	-48.5	-63.7	3.6	1.51e+00	0	33	104	0	60	55327
2026-01-06 02:30:46.12	218.76	1.80	-48.4	-63.7	3.6	1.51e+00	0	33	104	0	60	55061
2026-01-06 02:30:47.13	218.84	1.85	-48.5	-63.6	3.6	1.51e+00	0	33	104	0	60	54835
2026-01-06 02:30:48.14	218.92	1.91	-48.4	-63.6	3.6	1.51e+00	0	33	104	0	60	54928
2026-01-06 02:30:49.15	219.00	1.96	-48.4	-63.7	3.6	1.51e+00	0	33	104	0	60	55105
2026-01-06 02:30:50.16	219.08	2.01	-48.5	-63.7	3.6	1.51e+00	0	33	104	0	60	55182
2026-01-06 02:30:51.17	219.16	2.06	-48.4	-63.7	3.6	1.51e+00	0	33	104	0	60	55371
2026-01-06 02:30:52.18	219.24	2.12	-48.5	-63.7	3.6	1.51e+00	0	33	104	0	60	55060
2026-01-06 02:30:53.19	219.33	2.17	-48.5	-63.7	3.6	1.51e+00	0	33	104	0	60	55233
2026-01-06 02:30:54.20	219.41	2.22	-48.5	-63.7	3.6	1.51e+00	0	33	104	0	60	55190
2026-01-06 02:30:55.21	219.49	2.28	-48.5	-63.7	3.6	1.51e+00	0	33	104	0	60	55387
2026-01-06 02:30:56.22	219.57	2.33	-48.5	-63.7	3.6	1.51e+00	0	33	104	0	60	55044
2026-01-06 02:30:57.23	219.66	2.38	-48.5	-63.7	3.6	1.51e+00	0	33	104	0	60	55190
2026-01-06 02:30:58.23	219.74	2.43	-48.5	-63.7	3.6	1.51e+00	0	33	104	0	60	55194
2026-01-06 02:30:59.24	219.82	2.49	-48.5	-63.7	3.6	1.51e+00	0	33	104	0	60	55081
2026-01-06 02:31:00.26	219.91	2.54	-48.5	-63.7	3.6	1.51e+00	0	33	104	0	60	55353
2026-01-06 02:31:01.27	219.99	2.59	-48.5	-63.7	3.6	1.51e+00	0	33	104	0	60	55061
2026-01-06 02:31:02.27	220.08	2.65	-48.5	-63.7	3.6	1.51e+00	0	33	104	0	60	55264
2026-01-06 02:31:03.28	220.16	2.70	-48.5	-63.7	3.6	1.51e+00	0	33	104	0	60	55087
2026-01-06 02:31:04.29	220.25	2.75	-48.5	-63.7	3.6	1.51e+00	0	33	104	0	60	55229
2026-01-06 02:31:05.31	220.33	2.81	-48.5	-63.6	3.6	1.51e+00	0	33	104	0	60	55016
2026-01-06 02:31:06.31	220.42	2.86	-48.5	-63.6	3.6	1.51e+00	0	33	104	0	60	54937
2026-01-06 02:31:07.32	220.50	2.91	-48.5	-63.7	3.5	1.51e+00	0	33	104	0	60	55218
2026-01-06 02:31:08.33	220.59	2.97	-48.5	-63.7	3.6	1.51e+00	0	33	104	0	60	55204
2026-01-06 02:31:09.34	220.68	3.02	-48.5	-63.7	3.6	1.51e+00	0	33	104	0	60	55285
2026-01-06 02:31:10.35	220.76	3.07	-48.5	-63.7	3.6	1.51e+00	0	33	104	0	60	55111
2026-01-06 02:31:11.36	220.85	3.13	-48.5	-63.7	3.6	1.51e+00	0	34	104	0	60	55148
2026-01-06 02:31:12.37	220.94	3.18	-48.5	-63.7	3.6	1.51e+00	0	33	104	0	60	55056
2026-01-06 02:31:13.38	221.03	3.24	-48.5	-63.7	3.6	1.51e+00	0	33	104	0	60	55459
2026-01-06 02:31:14.39	221.12	3.29	-48.5	-63.7	3.6	1.51e+00	0	33	104	0	60	55451
2026-01-06 02:31:15.40	221.20	3.34	-48.5	-63.7	3.6	1.51e+00	0	33	104	0	60	55330
2026-01-06 02:31:16.41	221.29	3.40	-48.5	-63.6	3.6	1.51e+00	0	33	104	0	60	55025
2026-01-06 02:31:17.42	221.38	3.45	-48.5	-63.7	3.6	1.51e+00	0	33	104	0	60	55387
2026-01-06 02:31:18.43	221.47	3.51	-48.5	-63.7	3.5	1.51e+00	0	33	104	0	60	55234
2026-01-06 02:31:19.44	221.56	3.56	-48.5	-63.7	3.6	1.51e+00	0	34	104	0	60	55324
2026-01-06 02:31:20.45	221.65	3.61	-48.5	-63.7	3.6	1.51e+00	0	34	104	0	60	55069
2026-01-06 02:31:21.46	221.74	3.67	-48.5	-63.7	3.6	1.51e+00	0	34	104	0	60	55346
2026-01-06 02:31:22.47	221.83	3.72	-48.5	-63.7	3.6	1.51e+00	0	33	104	0	60	55212
2026-01-06 02:31:23.48	221.92	3.78	-48.5	-63.7	3.6	1.51e+00	0	33	104	0	60	55201
2026-01-06 02:31:24.49	222.01	3.83	-48.5	-63.7	3.6	1.51e+00	0	34	104	0	60	55126
2026-01-06 02:31:25.50	222.11	3.89	-48.5	-63.7	3.6	1.51e+00	0	34	104	0	60	55168
2026-01-06 02:31:26.51	222.20	3.94	-48.5	-63.7	3.6	1.51e+00	0	34	104	0	60	55218
2026-01-06 02:31:27.52	222.29	3.99	-48.5	-63.7	3.6	1.51e+00	0	34	104	0	60	55126
2026-01-06 02:31:28.53	222.38	4.05	-48.4	-63.7	3.6	1.51e+00	0	34	104	0	60	55364
2026-01-06 02:31:29.54	222.48	4.10	-48.4	-63.7	3.6	1.51e+00	0	34	104	0	60	55260
2026-01-06 02:31:30.54	222.57	4.16	-48.4	-63.6	3.6	1.51e+00	0	34	104	0	60	54972
2026-01-06 02:31:31.55	222.66	4.21	-48.4	-63.7	3.6	1.51e+00	0	33	104	0	60	55364
2026-01-06 02:31:32.56	222.76	4.27	-48.4	-63.7	3.6	1.51e+00	0	34	104	0	60	55161
2026-01-06 02:31:33.57	222.85	4.32	-48.4	-63.7	3.6	1.51e+00	0	34	104	0	60	55472
2026-01-06 02:31:34.58	222.95	4.38	-48.4	-63.7	3.6	1.51e+00	0	34	104	0	60	55126
2026-01-06 02:31:35.59	223.04	4.43	-48.4	-63.7	3.6	1.51e+00	0	34	104	0	60	55302
2026-01-06 02:31:36.60	223.14	4.49	-48.6	-63.9	3.6	1.51e+00	0	34	104	0	60	56839
2026-01-06 02:31:37.61	223.23	4.54	-48.4	-63.8	3.6	1.51e+00	0	34	104	0	60	55945
2026-01-06 02:31:38.62	223.33	4.60	-48.4	-63.8	3.6	1.51e+00	0	34	104	0	60	55906
2026-01-06 02:31:39.63	223.42	4.65	-48.4	-63.7	3.6	1.51e+00	0	34	104	0	60	55616
2026-01-06 02:31:40.64	223.52	4.71	-48.4	-63.8	3.6	1.51e+00	0	34	104	0	60	55685
2026-01-06 02:31:41.65	223.62	4.76	-48.4	-63.8	3.6	1.51e+00	0	34	104	0	60	55716
2026-01-06 02:31:42.66	223.72	4.82	-48.4	-63.8	3.6	1.51e+00	0	34	104	0	60	55946
2026-01-06 02:31:43.67	223.81	4.87	-48.5	-63.8	3.5	1.51e+00	0	34	104	0	60	55835
2026-01-06 02:31:44.68	223.91	4.93	-48.5	-63.7	3.6	1.51e+00	0	34	104	0	60	55354
2026-01-06 02:31:45.69	224.01	4.98	-48.5	-63.7	3.6	1.51e+00	0	34	104	0	60	55442
2026-01-06 02:31:46.70	224.11	5.04	-48.5	-63.7	3.6	1.51e+00	0	34	104	0	60	55479
2026-01-06 02:31:47.72	224.21	5.09	-48.5	-63.7	3.6	1.51e+00	0	34	104	0	60	55481
2026-01-06 02:31:48.73	224.31	5.15	-48.5	-63.7	3.6	1.51e+00	0	34	104	0	60	55563
2026-01-06 02:31:49.74	224.41	5.21	-48.5	-63.7	3.6	1.51e+00	0	34	104	0	60	55429
2026-01-06 02:31:50.75	224.51	5.26	-48.5	-63.7	3.6	1.51e+00	0	34	104	0	60	55659
2026-01-06 02:31:51.76	224.61	5.32	-48.5	-63.7	3.6	1.51e+00	0	34	104	0	60	55528
2026-01-06 02:31:52.76	224.71	5.37	-48.5	-63.7	3.6	1.51e+00	0	34	104	0	60	55295
2026-01-06 02:31:53.78	224.81	5.43	-48.6	-63.7	3.6	1.51e+00	0	34	104	0	60	55557
2026-01-06 02:31:54.79	224.92	5.48	-48.5	-63.7	3.6	1.51e+00	0	34	104	0	60	55384
2026-01-06 02:31:55.79	225.02	5.54	-48.5	-63.7	3.6	1.51e+00	0	34	104	0	60	55331
2026-01-06 02:31:56.80	225.12	5.60	-48.5	-63.7	3.6	1.51e+00	0	34	104	0	60	55199
2026-01-06 02:31:57.81	225.22	5.65	-48.5	-63.7	3.6	1.51e+00	0	34	104	0	60	55375
2026-01-06 02:31:58.82	225.33	5.71	-48.5	-63.7	3.6	1.51e+00	0	34	104	0	60	55267
2026-01-06 02:31:59.83	225.43	5.76	-48.5	-63.7	3.6	1.51e+00	0	34	104	0	60	55464
2026-01-06 02:32:00.85	225.53	5.82	-48.5	-63.7	3.6	1.51e+00	0	34	104	0	60	55577
2026-01-06 02:32:01.86	225.64	5.88	-48.5	-63.7	3.6	1.51e+00	0	34	104	0	60	55602
2026-01-06 02:32:02.87	225.74	5.93	-48.5	-63.7	3.6	1.51e+00	0	34	104	0	60	55419
2026-01-06 02:32:03.88	225.85	5.99	-48.5	-63.7	3.6	1.51e+00	0	34	104	0	60	55444
2026-01-06 02:32:04.89	225.95	6.04	-48.5	-63.7	3.6	1.51e+00	0	34	104	0	60	55601
2026-01-06 02:32:05.90	226.06	6.10	-48.5	-63.8	3.6	1.51e+00	0	34	104	0	60	55731
2026-01-06 02:32:06.91	226.17	6.16	-48.5	-63.7	3.6	1.51e+00	0	34	104	0	60	55581
2026-01-06 02:32:07.92	226.27	6.21	-48.5	-63.8	3.6	1.51e+00	0	34	104	0	60	55973
2026-01-06 02:32:08.92	226.38	6.27	-48.5	-63.8	3.6	1.51e+00	0	34	104	0	60	55811
2026-01-06 02:32:09.93	226.49	6.33	-48.5	-63.8	3.6	1.51e+00	0	34	104	0	60	55783
2026-01-06 02:32:10.94	226.60	6.38	-48.5	-63.7	3.6	1.51e+00	0	34	104	0	60	55460
2026-01-06 02:32:11.95	226.70	6.44	-48.5	-63.8	3.6	1.51e+00	0	34	104	0	60	55691
2026-01-06 02:32:12.96	226.81	6.50	-48.5	-63.7	3.6	1.51e+00	0	34	104	0	60	55573
2026-01-06 02:32:13.97	226.92	6.55	-48.5	-63.7	3.6	1.51e+00	0	34	104	0	60	55629
2026-01-06 02:32:14.98	227.03	6.61	-48.5	-63.7	3.6	1.51e+00	0	34	104	0	60	55554
2026-01-06 02:32:15.99	227.14	6.67	-48.5	-63.7	3.6	1.51e+00	0	34	104	0	60	55523
2026-01-06 02:32:17.00	227.25	6.72	-48.5	-63.8	3.6	1.51e+00	0	34	104	0	60	55772
2026-01-06 02:32:18.01	227.36	6.78	-48.5	-63.7	3.6	1.51e+00	0	34	104	0	60	55364
2026-01-06 02:32:19.02	227.47	6.84	-48.5	-63.7	3.6	1.51e+00	0	34	104	0	60	55638
2026-01-06 02:32:20.03	227.59	6.89	-48.5	-63.7	3.6	1.51e+00	0	34	104	0	60	55473
2026-01-06 02:32:21.04	227.70	6.95	-48.5	-63.7	3.6	1.51e+00	0	34	104	0	60	55158
2026-01-06 02:32:22.05	227.81	7.01	-48.5	-63.7	3.6	1.51e+00	0	34	104	0	60	55328
2026-01-06 02:32:23.06	227.92	7.06	-48.5	-63.7	3.6	1.51e+00	0	34	104	0	60	55460
2026-01-06 02:32:24.07	228.04	7.12	-48.5	-63.7	3.6	1.51e+00	0	34	104	0	60	55335
2026-01-06 02:32:25.08	228.15	7.18	-48.5	-63.8	3.5	1.51e+00	0	34	104	0	60	55734
2026-01-06 02:32:26.08	228.26	7.23	-48.5	-63.7	3.6	1.51e+00	0	34	104	0	60	55289
2026-01-06 02:32:27.10	228.38	7.29	-48.5	-63.7	3.6	1.51e+00	0	34	104	0	60	55259
2026-01-06 02:32:28.10	228.49	7.35	-48.5	-63.7	3.6	1.51e+00	0	34	104	0	60	55271
2026-01-06 02:32:29.11	228.61	7.40	-48.5	-63.7	3.6	1.51e+00	0	34	104	0	60	55522
2026-01-06 02:32:30.12	228.73	7.46	-48.5	-63.8	3.6	1.51e+00	0	34	104	0	60	55722
2026-01-06 02:32:31.13	228.84	7.52	-48.5	-63.8	3.6	1.51e+00	0	34	104	0	60	55870
2026-01-06 02:32:32.14	228.96	7.58	-48.5	-63.7	3.6	1.51e+00	0	34	104	0	60	55203
2026-01-06 02:32:33.15	229.08	7.63	-48.5	-63.7	3.6	1.51e+00	0	34	104	0	60	55393
2026-01-06 02:32:34.15	229.19	7.69	-48.5	-63.7	3.6	1.51e+00	0	34	104	0	60	55208
2026-01-06 02:32:35.16	229.31	7.75	-48.5	-63.7	3.6	1.51e+00	0	34	104	0	60	55529
2026-01-06 02:32:36.17	229.43	7.80	-48.5	-63.8	3.6	1.51e+00	0	34	104	0	60	55726
2026-01-06 02:32:37.18	229.55	7.86	-48.5	-63.7	3.6	1.51e+00	0	34	104	0	60	55270
2026-01-06 02:32:38.19	229.67	7.92	-48.5	-63.7	3.6	1.51e+00	0	34	104	0	60	55409
2026-01-06 02:32:39.20	229.79	7.98	-48.5	-63.7	3.6	1.51e+00	0	34	104	0	60	55345
2026-01-06 02:32:40.21	229.91	8.03	-48.5	-63.7	3.6	1.51e+00	0	34	104	0	60	55594
2026-01-06 02:32:41.22	230.03	8.09	-48.5	-63.7	3.6	1.51e+00	0	34	104	0	60	55475
2026-01-06 02:32:42.23	230.15	8.15	-48.5	-63.7	3.5	1.51e+00	0	34	104	0	60	55470
2026-01-06 02:32:43.24	230.27	8.21	-48.5	-63.7	3.6	1.51e+00	0	34	104	0	60	55641
2026-01-06 02:32:44.25	230.39	8.26	-48.5	-63.7	3.6	1.51e+00	0	34	104	0	60	55518
2026-01-06 02:32:45.26	230.52	8.32	-48.5	-63.7	3.6	1.51e+00	0	34	104	0	60	55215
2026-01-06 02:32:46.27	230.64	8.38	-48.5	-63.7	3.6	1.51e+00	0	34	104	0	60	55135
2026-01-06 02:32:47.28	230.76	8.44	-48.5	-63.7	3.6	1.51e+00	0	34	104	0	60	55511
2026-01-06 02:32:48.29	230.89	8.49	-48.5	-63.7	3.5	1.51e+00	0	34	104	0	60	55505
2026-01-06 02:32:49.30	231.01	8.55	-48.5	-63.7	3.6	1.51e+00	0	34	104	0	60	55312
2026-01-06 02:32:50.31	231.14	8.61	-48.5	-63.7	3.6	1.51e+00	0	34	104	0	60	55338
2026-01-06 02:32:51.32	231.26	8.67	-48.5	-63.7	3.6	1.51e+00	0	34	104	0	60	55487
2026-01-06 02:32:52.33	231.39	8.72	-48.5	-63.7	3.6	1.51e+00	0	34	104	0	60	55467
2026-01-06 02:32:53.34	231.52	8.78	-48.5	-63.8	3.6	1.51e+00	0	34	104	0	60	55712
2026-01-06 02:32:54.35	231.64	8.84	-48.5	-63.7	3.6	1.51e+00	0	34	104	0	60	55529
2026-01-06 02:32:55.36	231.77	8.90	-48.5	-63.7	3.6	1.51e+00	0	34	104	0	60	55299
2026-01-06 02:32:56.37	231.90	8.95	-48.4	-63.7	3.6	1.51e+00	0	34	104	0	60	55427
2026-01-06 02:32:57.38	232.03	9.01	-48.5	-63.7	3.5	1.51e+00	0	34	104	0	60	55610
2026-01-06 02:32:58.39	232.16	9.07	-48.5	-63.7	3.6	1.51e+00	0	34	104	0	60	55351
2026-01-06 02:32:59.40	232.29	9.13	-48.5	-63.7	3.6	1.51e+00	0	34	104	0	60	55421
2026-01-06 02:33:00.41	232.42	9.19	-48.5	-63.7	3.6	1.51e+00	0	34	104	0	60	55425
2026-01-06 02:33:01.42	232.55	9.24	-48.4	-63.8	3.6	1.51e+00	0	34	104	0	60	55795
2026-01-06 02:33:02.43	232.68	9.30	-48.4	-63.7	3.6	1.51e+00	0	34	104	0	60	55499
2026-01-06 02:33:03.44	232.81	9.36	-48.4	-63.7	3.6	1.51e+00	0	34	104	0	60	55530
2026-01-06 02:33:04.45	232.94	9.42	-48.4	-63.7	3.6	1.51e+00	0	34	104	0	60	55180
2026-01-06 02:33:05.46	233.07	9.47	-48.4	-63.7	3.6	1.51e+00	0	34	104	0	60	55424
2026-01-06 02:33:06.47	233.21	9.53	-48.4	-63.7	3.6	1.51e+00	0	34	104	0	60	55601
2026-01-06 02:33:07.47	233.34	9.59	-48.4	-63.7	3.6	1.51e+00	0	34	104	0	60	55354
2026-01-06 02:33:08.48	233.47	9.65	-48.5	-63.7	3.6	1.51e+00	0	34	104	0	60	55230
2026-01-06 02:33:09.49	233.61	9.70	-48.5	-63.7	3.6	1.51e+00	0	34	104	0	60	55599
2026-01-06 02:33:10.50	233.74	9.76	-48.5	-63.7	3.6	1.51e+00	0	34	104	0	60	55606
2026-01-06 02:33:11.51	233.88	9.82	-48.5	-63.8	3.6	1.51e+00	0	34	104	0	60	55725
2026-01-06 02:33:12.52	234.01	9.88	-48.5	-63.8	3.6	1.51e+00	0	34	104	0	60	55797
2026-01-06 02:33:13.53	234.15	9.93	-48.5	-63.7	3.6	1.51e+00	0	34	104	0	60	55368
2026-01-06 02:33:14.54	234.29	9.99	-48.5	-63.7	3.6	1.51e+00	0	34	104	0	60	55344
2026-01-06 02:33:15.55	234.42	10.05	-48.5	-63.8	3.6	1.51e+00	0	34	104	0	60	55729
2026-01-06 02:33:16.56	234.56	10.11	-48.5	-63.7	3.6	1.51e+00	0	34	104	0	60	55630
2026-01-06 02:33:17.57	234.70	10.17	-48.5	-63.8	3.6	1.51e+00	0	34	104	0	60	55714
2026-01-06 02:33:18.58	234.84	10.22	-48.5	-63.7	3.6	1.51e+00	0	34	104	0	60	55539
2026-01-06 02:33:19.59	234.98	10.28	-48.5	-63.7	3.6	1.51e+00	0	34	104	0	60	55592
2026-01-06 02:33:20.60	235.12	10.34	-48.5	-63.8	3.6	1.51e+00	0	34	104	0	60	55711
2026-01-06 02:33:21.61	235.26	10.40	-48.5	-63.8	3.6	1.51e+00	0	34	104	0	60	55729
2026-01-06 02:33:22.62	235.40	10.45	-48.5	-63.7	3.6	1.51e+00	0	34	104	0	60	55610
2026-01-06 02:33:23.63	235.54	10.51	-48.5	-63.8	3.6	1.51e+00	0	34	104	0	60	55666
2026-01-06 02:33:24.64	235.69	10.57	-48.5	-63.7	3.6	1.51e+00	0	34	104	0	60	55536
2026-01-06 02:33:25.65	235.83	10.63	-48.4	-63.8	3.6	1.51e+00	0	34	104	0	60	55748
2026-01-06 02:33:26.66	235.97	10.68	-48.4	-63.8	3.6	1.51e+00	0	34	104	0	60	55721
2026-01-06 02:33:27.67	236.12	10.74	-48.4	-63.7	3.6	1.51e+00	0	34	104	0	60	55388
2026-01-06 02:33:28.68	236.26	10.80	-48.4	-63.7	3.6	1.51e+00	0	34	104	0	60	55404
2026-01-06 02:33:29.69	236.41	10.86	-48.4	-63.8	3.6	1.51e+00	0	34	104	0	60	55683
2026-01-06 02:33:30.70	236.55	10.91	-48.4	-63.8	3.6	1.51e+00	0	34	104	0	60	55678
2026-01-06 02:33:31.70	236.70	10.97	-48.4	-63.7	3.6	1.51e+00	0	34	104	0	60	55530
2026-01-06 02:33:32.71	236.84	11.03	-48.4	-63.8	3.6	1.51e+00	0	34	104	0	60	55864
2026-01-06 02:33:33.73	236.99	11.09	-48.4	-63.8	3.6	1.51e+00	0	34	104	0	60	55719
2026-01-06 02:33:34.74	237.14	11.14	-48.4	-63.7	3.6	1.51e+00	0	34	104	0	60	55494
2026-01-06 02:33:35.75	237.29	11.20	-48.4	-63.7	3.6	1.51e+00	0	34	104	0	60	55504
2026-01-06 02:33:36.75	237.44	11.26	-48.5	-63.8	3.6	1.51e+00	0	34	104	0	60	55717
2026-01-06 02:33:37.76	237.59	11.31	-48.5	-63.7	3.6	1.51e+00	0	34	104	0	60	55642
2026-01-06 02:33:38.77	237.74	11.37	-48.5	-63.8	3.6	1.51e+00	0	34	104	0	60	55811
2026-01-06 02:33:39.78	237.89	11.43	-48.5	-63.8	3.6	1.51e+00	0	34	104	0	60	55697
2026-01-06 02:33:40.79	238.04	11.49	-48.5	-63.8	3.6	1.51e+00	0	34	104	0	60	55885
2026-01-06 02:33:41.81	238.19	11.54	-48.5	-63.8	3.6	1.51e+00	0	34	104	0	60	55931
2026-01-06 02:33:42.81	238.34	11.60	-48.5	-63.8	3.6	1.51e+00	0	34	104	0	60	55667
2026-01-06 02:33:43.82	238.49	11.66	-48.5	-63.7	3.6	1.51e+00	0	34	104	0	60	55640
2026-01-06 02:33:44.83	238.65	11.71	-48.5	-63.7	3.6	1.51e+00	0	34	104	0	60	55346
2026-01-06 02:33:45.84	238.80	11.77	-48.5	-63.7	3.6	1.51e+00	0	34	104	0	60	55594
2026-01-06 02:33:46.85	238.96	11.83	-48.5	-63.8	3.6	1.51e+00	0	34	104	0	60	55853
2026-01-06 02:33:47.86	239.11	11.88	-48.6	-63.7	3.6	1.51e+00	0	34	104	0	60	55491
2026-01-06 02:33:48.87	239.27	11.94	-48.6	-63.8	3.6	1.51e+00	0	34	104	0	60	55758
2026-01-06 02:33:49.88	239.42	12.00	-48.6	-63.8	3.6	1.51e+00	0	34	104	0	60	55795
2026-01-06 02:33:50.89	239.58	12.05	-48.6	-63.7	3.6	1.51e+00	0	34	104	0	60	55539
2026-01-06 02:33:51.90	239.74	12.11	-48.6	-63.8	3.6	1.51e+00	0	34	104	0	60	55816
2026-01-06 02:33:52.91	239.90	12.17	-48.6	-63.8	3.6	1.51e+00	0	34	104	0	60	55677
2026-01-06 02:33:53.92	240.06	12.22	-48.6	-63.7	3.6	1.51e+00	0	34	104	0	60	55662
2026-01-06 02:33:54.93	240.21	12.28	-48.6	-63.8	3.6	1.51e+00	0	34	104	0	60	55763
2026-01-06 02:33:55.94	240.37	12.34	-48.6	-63.8	3.6	1.51e+00	0	34	104	0	60	55764
2026-01-06 02:33:56.95	240.54	12.39	-48.6	-63.8	3.6	1.51e+00	0	34	104	0	60	55703
2026-01-06 02:33:57.96	240.70	12.45	-48.6	-63.8	3.6	1.51e+00	0	34	104	0	60	55878
2026-01-06 02:33:58.97	240.86	12.50	-48.6	-63.8	3.6	1.51e+00	0	34	104	0	60	55954
2026-01-06 02:33:59.98	241.02	12.56	-48.5	-63.7	3.6	1.51e+00	0	34	104	0	60	55613
2026-01-06 02:34:00.97	241.18	12.61	-48.6	-63.7	3.6	1.51e+00	0	34	104	0	60	55380
2026-01-06 02:34:01.98	241.34	12.67	-48.6	-63.8	3.6	1.51e+00	0	34	104	0	60	55679
2026-01-06 02:34:02.99	241.51	12.73	-48.6	-63.7	3.6	1.51e+00	0	34	104	0	60	55653
2026-01-06 02:34:04.00	241.67	12.78	-48.6	-63.8	3.6	1.51e+00	0	34	104	0	60	55775
2026-01-06 02:34:05.01	241.84	12.84	-48.6	-63.8	3.6	1.51e+00	0	34	104	0	60	55722
2026-01-06 02:34:06.02	242.00	12.89	-48.5	-63.7	3.6	1.51e+00	0	34	104	0	60	55416
2026-01-06 02:34:07.03	242.17	12.95	-48.5	-63.7	3.6	1.51e+00	0	34	104	0	60	55653
2026-01-06 02:34:08.04	242.34	13.00	-48.5	-63.7	3.6	1.51e+00	0	34	104	0	60	55577
2026-01-06 02:34:09.05	242.50	13.06	-48.5	-63.8	3.6	1.51e+00	0	34	104	0	60	55914
2026-01-06 02:34:10.06	242.67	13.11	-48.5	-63.8	3.6	1.51e+00	0	34	104	0	60	55835
2026-01-06 02:34:11.07	242.84	13.17	-48.5	-63.7	3.6	1.51e+00	0	34	104	0	60	55483
2026-01-06 02:34:12.08	243.01	13.22	-48.5	-63.8	3.6	1.51e+00	0	34	104	0	60	55779
2026-01-06 02:34:13.09	243.18	13.28	-48.5	-63.8	3.6	1.51e+00	0	34	104	0	60	55705
2026-01-06 02:34:14.10	243.35	13.33	-48.4	-63.7	3.6	1.51e+00	0	34	104	0	60	55546
2026-01-06 02:34:15.11	243.52	13.39	-48.4	-63.8	3.6	1.51e+00	0	34	104	0	60	55696
2026-01-06 02:34:16.12	243.70	13.44	-48.4	-63.8	3.6	1.51e+00	0	34	104	0	60	55696
2026-01-06 02:34:17.13	243.87	13.49	-48.4	-63.7	3.6	1.51e+00	0	34	104	0	60	55488
2026-01-06 02:34:18.14	244.04	13.55	-48.4	-63.8	3.6	1.51e+00	0	34	104	0	60	55724
2026-01-06 02:34:19.15	244.21	13.60	-48.4	-63.8	3.6	1.51e+00	0	34	104	0	60	55670
2026-01-06 02:34:20.16	244.39	13.66	-48.4	-63.7	3.6	1.51e+00	0	34	104	0	60	55590
2026-01-06 02:34:21.17	244.56	13.71	-48.4	-63.7	3.6	1.51e+00	0	34	104	0	60	55296
2026-01-06 02:34:22.18	244.74	13.76	-48.4	-63.8	3.6	1.51e+00	0	34	104	0	60	55683
2026-01-06 02:34:23.19	244.92	13.82	-48.4	-63.7	3.6	1.51e+00	0	34	104	0	60	55608
2026-01-06 02:34:24.20	245.09	13.87	-48.4	-63.8	3.6	1.51e+00	0	34	104	0	60	55843
2026-01-06 02:34:25.21	245.27	13.92	-48.4	-63.8	3.6	1.51e+00	0	34	104	0	60	55675
2026-01-06 02:34:26.23	245.45	13.98	-48.4	-63.7	3.6	1.51e+00	0	34	104	0	60	55604
2026-01-06 02:34:27.24	245.63	14.03	-48.4	-63.7	3.6	1.51e+00	0	34	104	0	60	55349
2026-01-06 02:34:28.25	245.81	14.08	-48.4	-63.7	3.6	1.51e+00	0	34	104	0	60	55218
2026-01-06 02:34:29.26	245.99	14.14	-48.5	-63.8	3.6	1.51e+00	0	34	104	0	60	55846
2026-01-06 02:34:30.26	246.17	14.19	-48.4	-63.7	3.6	1.51e+00	0	34	104	0	60	55618
2026-01-06 02:34:31.27	246.35	14.24	-48.4	-63.7	3.6	1.51e+00	0	34	104	0	60	55416
2026-01-06 02:34:32.28	246.53	14.29	-48.4	-63.8	3.6	1.51e+00	0	34	104	0	60	55669
2026-01-06 02:34:33.29	246.71	14.35	-48.4	-63.8	3.6	1.51e+00	0	34	104	0	60	55678
2026-01-06 02:34:34.30	246.89	14.40	-48.4	-63.8	3.6	1.51e+00	0	34	104	0	60	55709
2026-01-06 02:34:35.31	247.08	14.45	-48.4	-63.7	3.6	1.51e+00	0	34	104	0	60	55649
2026-01-06 02:34:36.32	247.26	14.50	-48.4	-63.8	3.6	1.51e+00	0	34	104	0	60	55759
2026-01-06 02:34:37.33	247.45	14.55	-48.4	-63.8	3.6	1.51e+00	0	34	104	0	60	55715
2026-01-06 02:34:38.34	247.63	14.60	-48.4	-63.8	3.6	1.51e+00	0	34	104	0	60	55737
2026-01-06 02:34:39.35	247.82	14.65	-48.4	-63.7	3.6	1.51e+00	0	34	104	0	60	55565
2026-01-06 02:34:40.36	248.01	14.71	-48.4	-63.7	3.6	1.51e+00	0	34	104	0	60	55436
2026-01-06 02:34:41.37	248.19	14.76	-48.4	-63.8	3.6	1.51e+00	0	34	104	0	60	55664
2026-01-06 02:34:42.38	248.38	14.81	-48.4	-63.8	3.6	1.51e+00	0	34	104	0	60	55780
2026-01-06 02:34:43.39	248.57	14.86	-48.4	-63.8	3.6	1.51e+00	0	34	104	0	60	55836
2026-01-06 02:34:44.40	248.76	14.91	-48.4	-63.7	3.6	1.51e+00	0	34	104	0	60	55620
2026-01-06 02:34:45.41	248.95	14.96	-48.4	-63.7	3.6	1.51e+00	0	34	104	0	60	55580
2026-01-06 02:34:46.42	249.14	15.01	-48.4	-63.7	3.6	1.51e+00	0	34	104	0	60	55606
2026-01-06 02:34:47.43	249.33	15.06	-48.4	-63.8	3.6	1.51e+00	0	34	104	0	60	55778
2026-01-06 02:34:48.44	249.52	15.11	-48.4	-63.7	3.6	1.51e+00	0	34	104	0	60	55518
2026-01-06 02:34:49.45	249.71	15.16	-48.5	-63.7	3.6	1.51e+00	0	34	104	0	60	55407
2026-01-06 02:34:50.46	249.91	15.20	-48.5	-63.7	3.6	1.51e+00	0	34	104	0	60	55333
2026-01-06 02:34:51.47	250.10	15.25	-48.5	-63.7	3.6	1.51e+00	0	34	104	0	60	55519
2026-01-06 02:34:52.47	250.29	15.30	-48.5	-63.7	3.6	1.51e+00	0	34	104	0	60	55513
2026-01-06 02:34:53.48	250.49	15.35	-48.5	-63.7	3.6	1.51e+00	0	34	104	0	60	55598
2026-01-06 02:34:54.49	250.68	15.40	-48.4	-63.7	3.6	1.51e+00	0	34	104	0	60	55497
2026-01-06 02:34:55.50	250.88	15.45	-48.5	-63.8	3.6	1.51e+00	0	34	104	0	60	55911
2026-01-06 02:34:56.51	251.08	15.49	-48.4	-63.7	3.6	1.51e+00	0	34	104	0	60	55613
2026-01-06 02:34:57.52	251.27	15.54	-48.4	-63.7	3.6	1.51e+00	0	34	104	0	60	55493
2026-01-06 02:34:58.53	251.47	15.59	-48.4	-63.8	3.6	1.51e+00	0	34	104	0	60	55704
2026-01-06 02:34:59.54	251.67	15.64	-48.4	-63.7	3.6	1.51e+00	0	34	104	0	60	55602
2026-01-06 02:35:00.55	251.87	15.68	-48.4	-63.8	3.6	1.51e+00	0	34	104	0	60	55772
2026-01-06 02:35:01.56	252.07	15.73	-48.4	-63.7	3.6	1.51e+00	0	34	104	0	60	55436
2026-01-06 02:35:02.57	252.27	15.78	-48.4	-63.8	3.6	1.51e+00	0	34	104	0	60	56023
2026-01-06 02:35:03.58	252.47	15.82	-48.4	-63.7	3.6	1.51e+00	0	34	104	0	60	55625
2026-01-06 02:35:04.58	252.67	15.87	-48.4	-63.7	3.6	1.51e+00	0	34	104	0	60	55468
2026-01-06 02:35:05.59	252.87	15.91	-48.4	-63.8	3.6	1.51e+00	0	34	104	0	60	55846
2026-01-06 02:35:06.60	253.07	15.96	-48.4	-63.7	3.6	1.51e+00	0	34	104	0	60	55579
2026-01-06 02:35:07.61	253.28	16.00	-48.4	-63.8	3.6	1.51e+00	0	34	104	0	60	55692
2026-01-06 02:35:08.62	253.48	16.05	-48.4	-63.8	3.6	1.51e+00	0	34	104	0	60	55882
2026-01-06 02:35:09.64	253.69	16.09	-48.4	-63.8	3.6	1.51e+00	0	34	104	0	60	55875
2026-01-06 02:35:10.65	253.89	16.14	-48.4	-63.8	3.6	1.51e+00	0	34	104	0	60	55811
2026-01-06 02:35:11.66	254.10	16.18	-48.4	-63.8	3.6	1.51e+00	0	34	104	0	60	55755
2026-01-06 02:35:12.66	254.30	16.23	-48.4	-63.7	3.6	1.51e+00	0	34	104	0	60	55468
2026-01-06 02:35:13.67	254.51	16.27	-48.4	-63.8	3.6	1.51e+00	0	34	104	0	60	55696
2026-01-06 02:35:14.68	254.71	16.31	-48.4	-63.7	3.6	1.51e+00	0	34	104	0	60	55416
2026-01-06 02:35:15.69	254.92	16.36	-48.4	-63.8	3.6	1.51e+00	0	34	104	0	60	55884
2026-01-06 02:35:16.71	255.13	16.40	-48.4	-63.7	3.6	1.51e+00	0	34	104	0	60	55532
2026-01-06 02:35:17.72	255.34	16.44	-48.4	-63.7	3.6	1.51e+00	0	34	104	0	60	55261
2026-01-06 02:35:18.72	255.55	16.48	-48.4	-63.7	3.6	1.51e+00	0	34	104	0	60	55520
2026-01-06 02:35:19.73	255.76	16.52	-48.4	-63.7	3.6	1.51e+00	0	34	104	0	60	55320
2026-01-06 02:35:20.74	255.97	16.57	-48.4	-63.7	3.6	1.51e+00	0	34	104	0	60	55409
2026-01-06 02:35:21.75	256.18	16.61	-48.5	-63.7	3.6	1.51e+00	0	34	104	0	60	55465
2026-01-06 02:35:22.76	256.39	16.65	-48.5	-63.7	3.6	1.51e+00	0	34	104	0	60	55637
2026-01-06 02:35:23.76	256.60	16.69	-48.5	-63.7	3.6	1.51e+00	0	34	104	0	60	55548
2026-01-06 02:35:24.77	256.82	16.73	-48.5	-63.7	3.6	1.51e+00	0	34	104	0	60	55371
2026-01-06 02:35:25.78	257.03	16.77	-48.5	-63.7	3.6	1.51e+00	0	34	104	0	60	55640
2026-01-06 02:35:26.79	257.24	16.81	-48.5	-63.7	3.6	1.51e+00	0	34	104	0	60	55475
2026-01-06 02:35:27.80	257.46	16.85	-48.5	-63.8	3.6	1.51e+00	0	34	104	0	60	55805
2026-01-06 02:35:28.81	257.67	16.89	-48.5	-63.7	3.6	1.51e+00	0	34	104	0	60	55655
2026-01-06 02:35:29.82	257.89	16.93	-48.5	-63.8	3.6	1.51e+00	0	34	104	0	60	55811
2026-01-06 02:35:30.83	258.10	16.96	-48.5	-63.7	3.6	1.51e+00	0	34	104	0	60	55536
2026-01-06 02:35:31.84	258.32	17.00	-48.5	-63.7	3.6	1.51e+00	0	34	104	0	60	55232
2026-01-06 02:35:32.85	258.54	17.04	-48.5	-63.7	3.6	1.51e+00	0	34	104	0	60	55513
2026-01-06 02:35:33.86	258.76	17.08	-48.5	-63.7	3.6	1.51e+00	0	34	104	0	60	55637
2026-01-06 02:35:34.87	258.97	17.12	-48.5	-63.7	3.6	1.51e+00	0	34	104	0	60	55296
2026-01-06 02:35:35.88	259.19	17.15	-48.5	-63.7	3.6	1.51e+00	0	34	104	0	60	55484
2026-01-06 02:35:36.89	259.41	17.19	-48.5	-63.8	3.6	1.51e+00	0	34	104	0	60	55674
2026-01-06 02:35:37.90	259.63	17.22	-48.5	-63.7	3.6	1.51e+00	0	34	104	0	60	55635
2026-01-06 02:35:38.90	259.85	17.26	-48.5	-63.7	3.6	1.51e+00	0	34	104	0	60	55417
2026-01-06 02:35:39.91	260.07	17.30	-48.5	-63.7	3.6	1.51e+00	0	34	104	0	60	55634
2026-01-06 02:35:40.93	260.30	17.33	-48.5	-63.8	3.6	1.51e+00	0	34	104	0	60	55685
2026-01-06 02:35:41.94	260.52	17.37	-48.5	-63.7	3.6	1.51e+00	0	34	104	0	60	55644
2026-01-06 02:35:42.95	260.74	17.40	-48.5	-63.8	3.6	1.51e+00	0	34	104	0	60	55778
2026-01-06 02:35:43.95	260.96	17.43	-48.5	-63.7	3.6	1.51e+00	0	34	104	0	60	55398
2026-01-06 02:35:44.96	261.18	17.47	-48.5	-63.7	3.6	1.51e+00	0	34	104	0	60	55315
2026-01-06 02:35:45.97	261.41	17.50	-48.5	-63.7	3.6	1.51e+00	0	34	104	0	60	55370
2026-01-06 02:35:46.98	261.63	17.53	-48.5	-63.7	3.6	1.51e+00	0	34	104	0	60	55131
2026-01-06 02:35:47.99	261.86	17.57	-48.5	-63.7	3.6	1.51e+00	0	34	104	0	60	55416
2026-01-06 02:35:49.00	262.08	17.60	-48.5	-63.8	3.6	1.51e+00	0	34	104	0	60	55718
2026-01-06 02:35:50.01	262.31	17.63	-48.5	-63.8	3.6	1.51e+00	0	34	104	0	60	55823
2026-01-06 02:35:51.02	262.53	17.66	-48.5	-63.7	3.6	1.51e+00	0	34	104	0	60	55545
2026-01-06 02:35:52.03	262.76	17.69	-48.5	-63.7	3.6	1.51e+00	0	34	104	0	60	55482
2026-01-06 02:35:53.04	262.99	17.72	-48.5	-63.7	3.6	1.51e+00	0	34	104	0	60	55294
2026-01-06 02:35:54.05	263.21	17.75	-48.5	-63.7	3.6	1.51e+00	0	34	104	0	60	55505
2026-01-06 02:35:55.06	263.44	17.78	-48.5	-63.7	3.6	1.51e+00	0	34	104	0	60	55437
2026-01-06 02:35:56.07	263.67	17.81	-48.5	-63.7	3.6	1.51e+00	0	34	104	0	60	55374
2026-01-06 02:35:57.08	263.90	17.84	-48.5	-63.7	3.6	1.51e+00	0	34	104	0	60	55189
2026-01-06 02:35:58.09	264.13	17.87	-48.5	-63.7	3.6	1.51e+00	0	34	104	0	60	55441
2026-01-06 02:35:59.10	264.36	17.90	-48.5	-63.7	3.6	1.51e+00	0	34	104	0	60	55508
2026-01-06 02:36:00.11	264.59	17.92	-48.5	-63.7	3.6	1.51e+00	0	34	104	0	60	55555
2026-01-06 02:36:01.11	264.82	17.95	-48.5	-63.7	3.6	1.51e+00	0	34	104	0	60	55602
2026-01-06 02:36:02.12	265.05	17.98	-48.5	-63.7	3.6	1.51e+00	0	34	104	0	60	55391
2026-01-06 02:36:03.13	265.28	18.00	-48.5	-63.7	3.6	1.51e+00	0	34	104	0	60	55423
2026-01-06 02:36:04.14	265.51	18.03	-48.5	-63.7	3.6	1.51e+00	0	34	104	0	60	55387
2026-01-06 02:36:05.15	265.74	18.06	-48.5	-63.7	3.6	1.51e+00	0	34	104	0	60	55254
2026-01-06 02:36:06.16	265.97	18.08	-48.5	-63.7	3.6	1.51e+00	0	34	104	0	60	55398
2026-01-06 02:36:07.17	266.21	18.11	-48.5	-63.7	3.6	1.51e+00	0	34	104	0	60	55371
2026-01-06 02:36:08.18	266.44	18.13	-48.5	-63.7	3.6	1.51e+00	0	34	104	0	60	55095
2026-01-06 02:36:09.19	266.67	18.15	-48.5	-63.7	3.6	1.51e+00	0	34	104	0	60	55375
2026-01-06 02:36:10.20	266.91	18.18	-48.5	-63.7	3.6	1.51e+00	0	34	104	0	60	55552
2026-01-06 02:36:11.21	267.14	18.20	-48.5	-63.7	3.6	1.51e+00	0	34	104	0	60	55370
2026-01-06 02:36:12.22	267.37	18.22	-48.5	-63.7	3.6	1.51e+00	0	34	104	0	60	55313
2026-01-06 02:36:13.23	267.61	18.24	-48.5	-63.7	3.6	1.51e+00	0	34	104	0	60	55279
2026-01-06 02:36:14.24	267.84	18.27	-48.5	-63.7	3.6	1.51e+00	0	34	104	0	60	55091
2026-01-06 02:36:15.25	268.08	18.29	-48.5	-63.7	3.6	1.51e+00	0	34	104	0	60	55271
2026-01-06 02:36:16.26	268.31	18.31	-48.5	-63.7	3.6	1.51e+00	0	34	104	0	60	55318
2026-01-06 02:36:17.27	268.55	18.33	-48.5	-63.7	3.6	1.51e+00	0	34	104	0	60	55139
2026-01-06 02:36:18.28	268.79	18.35	-48.5	-63.7	3.6	1.51e+00	0	34	104	0	60	55197
2026-01-06 02:36:19.29	269.02	18.37	-48.5	-63.8	3.6	1.51e+00	0	34	104	0	60	55700
2026-01-06 02:36:20.30	269.26	18.39	-48.5	-63.7	3.6	1.51e+00	0	34	104	0	60	55181
2026-01-06 02:36:21.31	269.50	18.41	-48.5	-63.6	3.6	1.51e+00	0	34	104	0	60	54976
2026-01-06 02:36:22.31	269.73	18.42	-48.5	-63.6	3.6	1.51e+00	0	34	104	0	60	54949
2026-01-06 02:36:23.32	269.97	18.44	-48.5	-63.7	3.6	1.51e+00	0	34	104	0	60	55335
2026-01-06 02:36:24.33	270.21	18.46	-48.4	-63.7	3.6	1.51e+00	0	34	104	0	60	55158
2026-01-06 02:36:25.34	270.45	18.47	-48.4	-63.7	3.6	1.51e+00	0	34	104	0	60	55412
2026-01-06 02:36:26.35	270.68	18.49	-48.4	-63.6	3.6	1.51e+00	0	34	104	0	60	54927
2026-01-06 02:36:27.36	270.92	18.51	-48.4	-63.7	3.6	1.51e+00	0	34	104	0	60	55045
2026-01-06 02:36:28.37	271.16	18.52	-48.4	-63.7	3.6	1.51e+00	0	34	104	0	60	55164
2026-01-06 02:36:29.38	271.40	18.54	-48.4	-63.7	3.6	1.51e+00	0	34	104	0	60	55194
2026-01-06 02:36:30.39	271.64	18.55	-48.4	-63.7	3.5	1.51e+00	0	34	104	0	60	55192
2026-01-06 02:36:31.40	271.88	18.56	-48.4	-63.7	3.6	1.51e+00	0	34	104	0	60	55079
2026-01-06 02:36:32.41	272.12	18.58	-48.4	-63.7	3.6	1.51e+00	0	34	104	0	60	55244
2026-01-06 02:36:33.41	272.36	18.59	-48.4	-63.7	3.6	1.51e+00	0	34	104	0	60	55172
2026-01-06 02:36:34.42	272.60	18.60	-48.5	-63.7	3.6	1.51e+00	0	34	104	0	60	55210
2026-01-06 02:36:35.43	272.84	18.61	-48.4	-63.7	3.6	1.51e+00	0	34	104	0	60	55249
2026-01-06 02:36:36.45	273.08	18.63	-48.4	-63.7	3.6	1.51e+00	0	34	104	0	60	55171
2026-01-06 02:36:37.45	273.32	18.64	-48.4	-63.7	3.6	1.51e+00	0	34	104	0	60	55158
2026-01-06 02:36:38.46	273.56	18.65	-48.5	-63.6	3.5	1.51e+00	0	34	104	0	60	55019
2026-01-06 02:36:39.47	273.80	18.66	-48.4	-63.7	3.6	1.51e+00	0	34	104	0	60	55091
2026-01-06 02:36:40.48	274.04	18.67	-48.5	-63.7	3.6	1.51e+00	0	34	104	0	60	55195
2026-01-06 02:36:41.49	274.28	18.68	-48.5	-63.7	3.6	1.51e+00	0	34	104	0	60	55208
2026-01-06 02:36:42.50	274.52	18.68	-48.5	-63.7	3.6	1.51e+00	0	34	104	0	60	55065
2026-01-06 02:36:43.51	274.77	18.69	-48.5	-63.7	3.6	1.51e+00	0	34	104	0	60	55184
2026-01-06 02:36:44.52	275.01	18.70	-48.5	-63.7	3.6	1.51e+00	0	34	104	0	60	55352
2026-01-06 02:36:45.53	275.25	18.71	-48.5	-63.7	3.6	1.51e+00	0	34	104	0	60	55289
2026-01-06 02:36:46.54	275.49	18.71	-48.5	-63.7	3.6	1.51e+00	0	34	104	0	60	55146
2026-01-06 02:36:47.55	275.73	18.72	-48.5	-63.7	3.6	1.51e+00	0	34	104	0	60	55397
2026-01-06 02:36:48.56	275.98	18.72	-48.5	-63.7	3.6	1.51e+00	0	34	104	0	60	55257
2026-01-06 02:36:49.57	276.22	18.73	-48.5	-63.7	3.6	1.51e+00	0	34	104	0	60	55476
2026-01-06 02:36:50.58	276.46	18.73	-48.5	-63.7	3.6	1.51e+00	0	34	104	0	60	55408
2026-01-06 02:36:51.59	276.70	18.74	-48.5	-63.7	3.6	1.51e+00	0	34	104	0	60	55082
2026-01-06 02:36:52.59	276.94	18.74	-48.5	-63.7	3.6	1.51e+00	0	34	104	0	60	55423
2026-01-06 02:36:53.60	277.18	18.74	-48.5	-63.7	3.6	1.51e+00	0	34	104	0	60	55295
2026-01-06 02:36:54.61	277.43	18.75	-48.5	-63.7	3.6	1.51e+00	0	34	104	0	60	55307
2026-01-06 02:36:55.62	277.67	18.75	-48.5	-63.6	3.6	1.51e+00	0	34	104	0	60	54877
2026-01-06 02:36:56.63	277.91	18.75	-48.5	-63.7	3.6	1.51e+00	0	34	104	0	60	55061
2026-01-06 02:36:57.64	278.15	18.75	-48.4	-63.7	3.6	1.51e+00	0	34	104	0	60	55207
2026-01-06 02:36:58.65	278.40	18.75	-48.4	-63.7	3.6	1.51e+00	0	34	104	0	60	55161
2026-01-06 02:36:59.66	278.64	18.75	-48.4	-63.7	3.6	1.51e+00	0	34	104	0	60	55162
2026-01-06 02:37:00.67	278.88	18.75	-48.4	-63.7	3.6	1.51e+00	0	34	104	0	60	55126
2026-01-06 02:37:01.68	279.12	18.75	-48.4	-63.7	3.6	1.51e+00	0	34	104	0	60	55140
2026-01-06 02:37:02.68	279.36	18.75	-48.3	-63.7	3.6	1.51e+00	0	34	104	0	60	55256
2026-01-06 02:37:03.69	279.61	18.75	-48.3	-63.7	3.6	1.51e+00	0	34	104	0	60	55134
2026-01-06 02:37:04.70	279.85	18.74	-48.3	-63.7	3.6	1.51e+00	0	34	104	0	60	55289
2026-01-06 02:37:05.72	280.09	18.74	-48.3	-63.7	3.6	1.51e+00	0	34	104	0	60	55130
2026-01-06 02:37:06.73	280.33	18.74	-48.3	-63.7	3.6	1.51e+00	0	34	104	0	60	55056
2026-01-06 02:37:07.74	280.58	18.73	-48.3	-63.7	3.6	1.51e+00	0	34	104	0	60	55320
2026-01-06 02:37:08.75	280.82	18.73	-48.3	-63.7	3.6	1.51e+00	0	34	104	0	60	55168
2026-01-06 02:37:09.75	281.06	18.72	-48.3	-63.7	3.6	1.51e+00	0	34	104	0	60	55117
2026-01-06 02:37:10.76	281.30	18.72	-48.3	-63.6	3.6	1.51e+00	0	34	104	0	60	54997
2026-01-06 02:37:11.77	281.54	18.71	-48.3	-63.7	3.6	1.51e+00	0	34	104	0	60	55221
2026-01-06 02:37:12.78	281.78	18.71	-48.3	-63.6	3.6	1.51e+00	0	34	104	0	60	54821
2026-01-06 02:37:13.79	282.03	18.70	-48.3	-63.6	3.6	1.51e+00	0	34	104	0	60	54809
2026-01-06 02:37:14.80	282.27	18.69	-48.3	-63.6	3.6	1.51e+00	0	34	104	0	60	55005
2026-01-06 02:37:15.81	282.51	18.68	-48.3	-63.6	3.6	1.51e+00	0	34	104	0	60	54914
2026-01-06 02:37:16.82	282.75	18.68	-48.3	-63.7	3.6	1.51e+00	0	34	104	0	60	55080
2026-01-06 02:37:17.83	282.99	18.67	-48.2	-63.7	3.6	1.51e+00	0	34	104	0	60	55029
2026-01-06 02:37:18.84	283.23	18.66	-48.2	-63.7	3.6	1.51e+00	0	34	104	0	60	55079
2026-01-06 02:37:19.85	283.47	18.65	-48.2	-63.6	3.6	1.51e+00	0	34	104	0	60	54748
2026-01-06 02:37:20.86	283.71	18.64	-48.2	-63.7	3.6	1.51e+00	0	34	104	0	60	55068
2026-01-06 02:37:21.87	283.95	18.63	-48.2	-63.7	3.6	1.51e+00	0	34	104	0	60	55238
2026-01-06 02:37:22.87	284.19	18.61	-48.2	-63.6	3.6	1.51e+00	0	34	104	0	60	54817
2026-01-06 02:37:23.88	284.43	18.60	-48.2	-63.6	3.6	1.51e+00	0	34	104	0	60	54669
2026-01-06 02:37:24.89	284.67	18.59	-48.1	-63.6	3.6	1.51e+00	0	34	104	0	60	54999
2026-01-06 02:37:25.90	284.91	18.58	-48.1	-63.7	3.6	1.51e+00	0	34	104	0	60	55195
2026-01-06 02:37:26.91	285.15	18.56	-48.1	-63.6	3.6	1.51e+00	0	34	104	0	60	54789
2026-01-06 02:37:27.92	285.39	18.55	-48.1	-63.6	3.6	1.51e+00	0	34	104	0	60	54849
2026-01-06 02:37:28.93	285.63	18.54	-48.2	-63.6	3.6	1.51e+00	0	34	104	0	60	54883
2026-01-06 02:37:29.94	285.87	18.52	-48.2	-63.6	3.6	1.51e+00	0	34	104	0	60	54891
2026-01-06 02:37:30.95	286.11	18.51	-48.3	-63.6	3.6	1.51e+00	0	34	104	0	60	54927
2026-01-06 02:37:31.96	286.34	18.49	-48.3	-63.7	3.6	1.51e+00	0	34	104	0	60	55044
2026-01-06 02:37:32.97	286.58	18.48	-48.3	-63.6	3.6	1.51e+00	0	34	104	0	60	54898
2026-01-06 02:37:33.98	286.82	18.46	-48.3	-63.6	3.6	1.51e+00	0	34	104	0	60	54871
2026-01-06 02:37:34.99	287.06	18.44	-48.3	-63.7	3.6	1.51e+00	0	34	104	0	60	55026
2026-01-06 02:37:36.00	287.29	18.42	-48.3	-63.6	3.6	1.51e+00	0	34	104	0	60	54929
2026-01-06 02:37:37.01	287.53	18.41	-48.3	-63.7	3.6	1.51e+00	0	34	104	0	60	55207
2026-01-06 02:37:38.02	287.77	18.39	-48.3	-63.7	3.6	1.51e+00	0	34	104	0	60	55054
2026-01-06 02:37:39.03	288.00	18.37	-48.3	-63.6	3.6	1.51e+00	0	34	104	0	60	54934
2026-01-06 02:37:40.04	288.24	18.35	-48.3	-63.7	3.6	1.51e+00	0	34	104	0	60	55052
2026-01-06 02:37:41.05	288.48	18.33	-48.3	-63.6	3.5	1.51e+00	0	34	104	0	60	54755
2026-01-06 02:37:42.06	288.71	18.31	-48.3	-63.6	3.6	1.51e+00	0	34	104	0	60	54779
2026-01-06 02:37:43.07	288.95	18.29	-48.3	-63.7	3.6	1.51e+00	0	34	104	0	60	55033
2026-01-06 02:37:44.08	289.18	18.27	-48.3	-63.6	3.6	1.51e+00	0	34	104	0	60	54764
2026-01-06 02:37:45.09	289.42	18.25	-48.3	-63.6	3.6	1.51e+00	0	34	104	0	60	54598
2026-01-06 02:37:46.10	289.65	18.22	-48.3	-63.6	3.6	1.51e+00	0	34	104	0	60	54894
2026-01-06 02:37:47.11	289.89	18.20	-48.3	-63.6	3.6	1.51e+00	0	34	104	0	60	54735
2026-01-06 02:37:48.12	290.12	18.18	-48.3	-63.6	3.6	1.51e+00	0	34	104	0	60	54945
2026-01-06 02:37:49.13	290.35	18.16	-48.3	-63.7	3.6	1.51e+00	0	34	104	0	60	55055
2026-01-06 02:37:50.14	290.59	18.13	-48.2	-63.6	3.6	1.51e+00	0	34	104	0	60	54768
2026-01-06 02:37:51.15	290.82	18.11	-48.2	-63.6	3.6	1.51e+00	0	34	104	0	60	54734
2026-01-06 02:37:52.16	291.05	18.08	-48.2	-63.6	3.6	1.51e+00	0	34	104	0	60	54904
2026-01-06 02:37:53.17	291.28	18.06	-48.2	-63.6	3.6	1.51e+00	0	34	104	0	60	54580
2026-01-06 02:37:54.18	291.51	18.03	-48.2	-63.6	3.6	1.51e+00	0	34	104	0	60	54654
2026-01-06 02:37:55.19	291.74	18.01	-48.2	-63.6	3.6	1.51e+00	0	34	104	0	60	54524
2026-01-06 02:37:56.20	291.97	17.98	-48.2	-63.6	3.6	1.51e+00	0	34	104	0	60	54516
2026-01-06 02:37:57.21	292.20	17.95	-48.2	-63.6	3.6	1.51e+00	0	34	104	0	60	54744
2026-01-06 02:37:58.22	292.43	17.93	-48.2	-63.6	3.5	1.51e+00	0	34	104	0	60	54777
2026-01-06 02:37:59.23	292.66	17.90	-48.2	-63.6	3.6	1.51e+00	0	34	104	0	60	54758
2026-01-06 02:38:00.24	292.89	17.87	-48.1	-63.6	3.6	1.51e+00	0	34	104	0	60	54590
2026-01-06 02:38:01.25	293.12	17.84	-48.1	-63.6	3.6	1.51e+00	0	34	104	0	60	54900
2026-01-06 02:38:02.26	293.35	17.81	-48.1	-63.6	3.5	1.51e+00	0	34	104	0	60	54470
2026-01-06 02:38:03.27	293.58	17.78	-48.1	-63.6	3.6	1.51e+00	0	34	104	0	60	54782
2026-01-06 02:38:04.28	293.80	17.75	-48.1	-63.6	3.6	1.51e+00	0	34	104	0	60	54461
2026-01-06 02:38:05.29	294.03	17.73	-48.1	-63.6	3.6	1.51e+00	0	34	104	0	60	54698
2026-01-06 02:38:06.30	294.26	17.69	-48.1	-63.6	3.6	1.51e+00	0	34	104	0	60	54613
2026-01-06 02:38:07.31	294.48	17.66	-48.1	-63.6	3.6	1.51e+00	0	34	104	0	60	54632
2026-01-06 02:38:08.32	294.71	17.63	-48.1	-63.6	3.6	1.51e+00	0	34	104	0	60	54470
2026-01-06 02:38:09.33	294.93	17.60	-48.1	-63.6	3.6	1.51e+00	0	34	104	0	60	54604
2026-01-06 02:38:10.34	295.16	17.57	-48.1	-63.6	3.6	1.51e+00	0	34	104	0	60	54814
2026-01-06 02:38:11.35	295.38	17.54	-48.0	-63.6	3.6	1.51e+00	0	34	104	0	60	54655
2026-01-06 02:38:12.36	295.61	17.50	-48.0	-63.6	3.6	1.51e+00	0	34	104	0	60	54762
2026-01-06 02:38:13.37	295.83	17.47	-48.0	-63.6	3.6	1.51e+00	0	34	104	0	60	54502
2026-01-06 02:38:14.38	296.05	17.44	-48.0	-63.6	3.6	1.51e+00	0	34	104	0	60	54490
2026-01-06 02:38:15.39	296.27	17.40	-48.0	-63.6	3.6	1.51e+00	0	34	104	0	60	54703
2026-01-06 02:38:16.39	296.49	17.37	-48.0	-63.6	3.6	1.51e+00	0	34	104	0	60	54472
2026-01-06 02:38:17.41	296.72	17.34	-48.0	-63.6	3.6	1.51e+00	0	34	104	0	60	54676
2026-01-06 02:38:18.42	296.94	17.30	-48.0	-63.6	3.6	1.51e+00	0	34	104	0	60	54500
2026-01-06 02:38:19.43	297.16	17.27	-48.0	-63.6	3.6	1.51e+00	0	34	104	0	60	54626
2026-01-06 02:38:20.44	297.38	17.23	-48.0	-63.6	3.6	1.51e+00	0	34	104	0	60	54590
2026-01-06 02:38:21.45	297.60	17.19	-48.0	-63.5	3.6	1.51e+00	0	34	104	0	60	54388
2026-01-06 02:38:22.45	297.81	17.16	-48.0	-63.6	3.6	1.51e+00	0	34	104	0	60	54504
2026-01-06 02:38:23.46	298.03	17.12	-48.0	-63.6	3.6	1.51e+00	0	34	104	0	60	54520
2026-01-06 02:38:24.47	298.25	17.08	-48.0	-63.6	3.6	1.51e+00	0	34	104	0	60	54648
2026-01-06 02:38:25.48	298.47	17.05	-48.0	-63.6	3.6	1.51e+00	0	34	104	0	60	54540
2026-01-06 02:38:26.49	298.68	17.01	-47.9	-63.6	3.6	1.51e+00	0	34	104	0	60	54607
2026-01-06 02:38:27.50	298.90	16.97	-47.9	-63.6	3.6	1.51e+00	0	34	104	0	60	54610
2026-01-06 02:38:28.51	299.11	16.93	-47.9	-63.6	3.6	1.51e+00	0	34	104	0	60	54719
2026-01-06 02:38:29.52	299.33	16.90	-47.9	-63.6	3.6	1.51e+00	0	34	104	0	60	54695
2026-01-06 02:38:30.53	299.54	16.86	-47.9	-63.6	3.6	1.51e+00	0	34	104	0	60	54635
2026-01-06 02:38:31.54	299.76	16.82	-47.9	-63.6	3.6	1.51e+00	0	34	104	0	60	54586
2026-01-06 02:38:32.55	299.97	16.78	-47.9	-63.6	3.6	1.51e+00	0	34	104	0	60	54614
2026-01-06 02:38:33.56	300.18	16.74	-47.9	-63.6	3.6	1.51e+00	0	34	104	0	60	54466
2026-01-06 02:38:34.57	300.39	16.70	-47.9	-63.6	3.6	1.51e+00	0	34	104	0	60	54417
2026-01-06 02:38:35.59	300.61	16.66	-47.8	-63.5	3.6	1.51e+00	0	34	104	0	60	54320
2026-01-06 02:38:36.60	300.82	16.62	-47.8	-63.6	3.6	1.51e+00	0	34	104	0	60	54587
2026-01-06 02:38:37.61	301.03	16.58	-47.8	-63.6	3.6	1.51e+00	0	34	104	0	60	54432
2026-01-06 02:38:38.62	301.24	16.53	-47.8	-63.5	3.6	1.51e+00	0	34	104	0	60	54092
2026-01-06 02:38:39.63	301.45	16.49	-47.9	-63.5	3.6	1.51e+00	0	34	104	0	60	54337
2026-01-06 02:38:40.64	301.66	16.45	-47.9	-63.5	3.6	1.51e+00	0	34	104	0	60	54273
2026-01-06 02:38:41.65	301.87	16.41	-47.8	-63.6	3.6	1.51e+00	0	34	104	0	60	54441
2026-01-06 02:38:42.66	302.07	16.37	-47.9	-63.5	3.6	1.51e+00	0	34	104	0	60	53988
2026-01-06 02:38:43.66	302.28	16.32	-47.9	-63.6	3.6	1.51e+00	0	34	104	0	60	54474
2026-01-06 02:38:44.67	302.49	16.28	-47.9	-63.6	3.6	1.51e+00	0	34	104	0	60	54421
2026-01-06 02:38:45.68	302.69	16.24	-47.9	-63.5	3.6	1.51e+00	0	34	104	0	60	54285
2026-01-06 02:38:46.69	302.90	16.19	-47.9	-63.5	3.6	1.51e+00	0	34	104	0	60	54174
2026-01-06 02:38:47.70	303.10	16.15	-48.0	-63.5	3.6	1.51e+00	0	34	104	0	60	53984
2026-01-06 02:38:48.71	303.31	16.11	-48.0	-63.6	3.6	1.51e+00	0	34	104	0	60	54550
2026-01-06 02:38:49.72	303.51	16.06	-48.0	-63.5	3.6	1.51e+00	0	34	104	0	60	54301
2026-01-06 02:38:50.73	303.71	16.02	-48.0	-63.6	3.6	1.51e+00	0	34	104	0	60	54405
2026-01-06 02:38:51.74	303.91	15.97	-48.0	-63.5	3.6	1.51e+00	0	34	104	0	60	54124
2026-01-06 02:38:52.75	304.12	15.93	-48.1	-63.6	3.6	1.51e+00	0	34	104	0	60	54428
2026-01-06 02:38:53.76	304.32	15.88	-48.1	-63.5	3.6	1.51e+00	0	34	104	0	60	54041
2026-01-06 02:38:54.77	304.52	15.84	-48.1	-63.5	3.6	1.51e+00	0	34	104	0	60	54258
2026-01-06 02:38:55.78	304.72	15.79	-48.1	-63.5	3.6	1.51e+00	0	34	104	0	60	54312
2026-01-06 02:38:56.79	304.92	15.74	-48.2	-63.6	3.6	1.51e+00	0	34	104	0	60	54432
2026-01-06 02:38:57.80	305.12	15.70	-48.2	-63.5	3.6	1.51e+00	0	34	104	0	60	54315
2026-01-06 02:38:58.81	305.31	15.65	-48.2	-63.4	3.6	1.51e+00	0	34	104	0	60	53741
2026-01-06 02:38:59.82	305.51	15.60	-48.2	-63.5	3.6	1.51e+00	0	34	104	0	60	54211
2026-01-06 02:39:00.83	305.71	15.56	-48.2	-63.5	3.6	1.51e+00	0	34	104	0	60	54162
2026-01-06 02:39:01.84	305.91	15.51	-48.2	-63.5	3.6	1.51e+00	0	34	104	0	60	54056
2026-01-06 02:39:02.85	306.10	15.46	-48.2	-63.5	3.6	1.51e+00	0	34	104	0	60	54132
2026-01-06 02:39:03.86	306.30	15.42	-48.3	-63.5	3.6	1.51e+00	0	34	104	0	60	54143
2026-01-06 02:39:04.87	306.49	15.37	-48.3	-63.5	3.6	1.51e+00	0	34	104	0	60	54382
2026-01-06 02:39:05.88	306.69	15.32	-48.3	-63.5	3.6	1.51e+00	0	34	104	0	60	54079
2026-01-06 02:39:06.89	306.88	15.27	-48.3	-63.5	3.6	1.51e+00	0	34	104	0	60	53970
2026-01-06 02:39:07.90	307.07	15.22	-48.3	-63.5	3.6	1.51e+00	0	34	104	0	60	54229
2026-01-06 02:39:08.90	307.26	15.17	-48.3	-63.5	3.6	1.51e+00	0	34	104	0	60	54242
2026-01-06 02:39:09.91	307.45	15.13	-48.3	-63.5	3.6	1.51e+00	0	34	104	0	60	54255
2026-01-06 02:39:10.92	307.64	15.08	-48.3	-63.5	3.6	1.51e+00	0	34	104	0	60	54034
2026-01-06 02:39:11.93	307.83	15.03	-48.3	-63.5	3.6	1.51e+00	0	34	104	0	60	54048
2026-01-06 02:39:12.95	308.03	14.98	-48.3	-63.5	3.6	1.51e+00	0	34	104	0	60	54004
2026-01-06 02:39:13.96	308.21	14.93	-48.3	-63.4	3.6	1.51e+00	0	34	104	0	60	53610
2026-01-06 02:39:14.97	308.40	14.88	-48.3	-63.4	3.6	1.51e+00	0	34	104	0	60	53569
2026-01-06 02:39:15.98	308.59	14.83	-48.3	-63.4	3.5	1.51e+00	0	34	104	0	60	53747
2026-01-06 02:39:16.99	308.78	14.78	-48.3	-63.5	3.6	1.51e+00	0	34	104	0	60	53791
2026-01-06 02:39:17.99	308.96	14.73	-48.2	-63.5	3.6	1.51e+00	0	34	104	0	60	53982
2026-01-06 02:39:19.00	309.15	14.68	-48.3	-63.5	3.6	1.51e+00	0	34	104	0	60	54206
2026-01-06 02:39:20.01	309.33	14.63	-48.2	-63.4	3.6	1.51e+00	0	34	104	0	60	53599
2026-01-06 02:39:21.02	309.52	14.58	-48.2	-63.5	3.6	1.51e+00	0	34	104	0	60	53829
2026-01-06 02:39:22.03	309.70	14.52	-48.2	-63.5	3.6	1.51e+00	0	34	104	0	60	53890
2026-01-06 02:39:23.04	309.89	14.47	-48.2	-63.4	3.6	1.51e+00	0	34	104	0	60	53714
2026-01-06 02:39:24.05	310.07	14.42	-48.2	-63.5	3.6	1.51e+00	0	34	104	0	60	53912
2026-01-06 02:39:25.06	310.25	14.37	-48.2	-63.5	3.6	1.51e+00	0	34	104	0	60	53832
2026-01-06 02:39:26.07	310.43	14.32	-48.2	-63.4	3.6	1.51e+00	0	34	104	0	60	53487
2026-01-06 02:39:27.08	310.61	14.27	-48.2	-63.4	3.6	1.51e+00	0	34	104	0	60	53517
2026-01-06 02:39:28.09	310.80	14.22	-48.2	-63.5	3.6	1.51e+00	0	34	104	0	60	53839
2026-01-06 02:39:29.10	310.97	14.16	-48.2	-63.4	3.6	1.51e+00	0	34	104	0	60	53450
2026-01-06 02:39:30.11	311.15	14.11	-48.2	-63.4	3.6	1.51e+00	0	34	104	0	60	53609
2026-01-06 02:39:31.12	311.33	14.06	-48.2	-63.4	3.6	1.51e+00	0	34	104	0	60	53614
2026-01-06 02:39:32.13	311.51	14.01	-48.2	-63.5	3.6	1.51e+00	0	34	104	0	60	53912
2026-01-06 02:39:33.14	311.69	13.95	-48.2	-63.4	3.6	1.51e+00	0	34	104	0	60	53760
2026-01-06 02:39:34.15	311.86	13.90	-48.1	-63.5	3.6	1.51e+00	0	34	104	0	60	53841
2026-01-06 02:39:35.16	312.04	13.85	-48.1	-63.4	3.6	1.51e+00	0	34	104	0	60	53722
2026-01-06 02:39:36.17	312.22	13.79	-48.1	-63.4	3.6	1.51e+00	0	34	104	0	60	53492
2026-01-06 02:39:37.18	312.39	13.74	-48.1	-63.4	3.6	1.51e+00	0	34	104	0	60	53354
2026-01-06 02:39:38.19	312.57	13.69	-48.1	-63.4	3.6	1.51e+00	0	34	104	0	60	53411
2026-01-06 02:39:39.20	312.74	13.63	-48.1	-63.4	3.6	1.51e+00	0	34	104	0	60	53475
2026-01-06 02:39:40.21	312.91	13.58	-48.1	-63.4	3.6	1.51e+00	0	34	104	0	60	53188
2026-01-06 02:39:41.22	313.08	13.53	-48.1	-63.4	3.6	1.51e+00	0	34	104	0	60	53541
2026-01-06 02:39:42.22	313.26	13.47	-48.1	-63.4	3.6	1.51e+00	0	34	104	0	60	53414
2026-01-06 02:39:43.23	313.43	13.42	-48.1	-63.4	3.6	1.51e+00	0	34	104	0	60	53277
2026-01-06 02:39:44.24	313.60	13.37	-48.1	-63.4	3.6	1.51e+00	0	34	104	0	60	53324
2026-01-06 02:39:45.25	313.77	13.31	-48.1	-63.4	3.6	1.51e+00	0	34	104	0	60	53455
2026-01-06 02:39:46.26	313.94	13.26	-48.1	-63.3	3.6	1.51e+00	0	34	104	0	60	53105
2026-01-06 02:39:47.27	314.11	13.20	-48.1	-63.4	3.6	1.51e+00	0	34	104	0	60	53363
2026-01-06 02:39:48.28	314.27	13.15	-48.1	-63.4	3.6	1.51e+00	0	34	104	0	60	53477
2026-01-06 02:39:49.29	314.44	13.09	-48.1	-63.4	3.6	1.51e+00	0	34	104	0	60	53332
2026-01-06 02:39:50.30	314.61	13.04	-48.1	-63.3	3.6	1.51e+00	0	34	104	0	60	52777
2026-01-06 02:39:51.31	314.77	12.98	-48.1	-63.3	3.6	1.51e+00	0	34	104	0	60	52975
2026-01-06 02:39:52.31	314.94	12.93	-48.0	-63.3	3.6	1.51e+00	0	34	104	0	60	52933
2026-01-06 02:39:53.32	315.10	12.88	-48.0	-63.3	3.6	1.51e+00	0	34	104	0	60	53069
2026-01-06 02:39:54.33	315.27	12.82	-48.0	-63.4	3.6	1.51e+00	0	34	104	0	60	53258
2026-01-06 02:39:55.34	315.43	12.77	-48.0	-63.3	3.6	1.51e+00	0	34	104	0	60	53125
2026-01-06 02:39:56.35	315.60	12.71	-48.0	-63.3	3.6	1.51e+00	0	34	104	0	60	53131
2026-01-06 02:39:57.36	315.76	12.66	-48.0	-63.3	3.6	1.51e+00	0	34	104	0	60	53045
2026-01-06 02:39:58.37	315.92	12.60	-48.0	-63.3	3.6	1.51e+00	0	34	104	0	60	53029
2026-01-06 02:39:59.38	316.08	12.54	-48.0	-63.3	3.6	1.51e+00	0	34	104	0	60	53114
2026-01-06 02:40:00.39	316.24	12.49	-48.0	-63.3	3.6	1.51e+00	0	34	104	0	60	52813
2026-01-06 02:40:01.40	316.40	12.43	-48.0	-63.3	3.6	1.51e+00	0	34	104	0	60	52814
2026-01-06 02:40:02.41	316.56	12.38	-48.0	-63.3	3.6	1.51e+00	0	34	104	0	60	52847
2026-01-06 02:40:03.42	316.72	12.32	-48.0	-63.3	3.6	1.51e+00	0	34	104	0	60	52838
2026-01-06 02:40:04.43	316.88	12.27	-48.0	-63.3	3.6	1.51e+00	0	34	104	0	60	52685
2026-01-06 02:40:05.44	317.04	12.21	-48.0	-63.3	3.6	1.51e+00	0	34	104	0	60	52853
2026-01-06 02:40:06.45	317.20	12.15	-48.0	-63.3	3.6	1.51e+00	0	34	104	0	60	52644
2026-01-06 02:40:07.46	317.36	12.10	-48.0	-63.3	3.6	1.51e+00	0	34	104	0	60	52621
2026-01-06 02:40:08.47	317.51	12.04	-48.0	-63.3	3.6	1.51e+00	0	34	104	0	60	52907
2026-01-06 02:40:09.48	317.67	11.99	-48.0	-63.2	3.6	1.51e+00	0	34	104	0	60	52438
2026-01-06 02:40:10.49	317.82	11.93	-48.0	-63.3	3.6	1.51e+00	0	34	104	0	60	52607
2026-01-06 02:40:11.50	317.98	11.87	-48.0	-63.3	3.6	1.51e+00	0	34	104	0	60	52687
2026-01-06 02:40:12.51	318.13	11.82	-48.0	-63.2	3.6	1.51e+00	0	34	104	0	60	52500
2026-01-06 02:40:13.52	318.29	11.76	-48.0	-63.2	3.6	1.51e+00	0	34	104	0	60	52468
2026-01-06 02:40:14.53	318.44	11.71	-48.0	-63.3	3.6	1.51e+00	0	34	104	0	60	52616
2026-01-06 02:40:15.54	318.59	11.65	-48.0	-63.2	3.6	1.51e+00	0	34	104	0	60	52362
2026-01-06 02:40:16.55	318.74	11.59	-48.0	-63.2	3.6	1.51e+00	0	34	104	0	60	52371
2026-01-06 02:40:17.56	318.89	11.54	-48.0	-63.2	3.6	1.51e+00	0	34	104	0	60	52275
2026-01-06 02:40:18.57	319.04	11.48	-48.0	-63.2	3.6	1.51e+00	0	34	104	0	60	52237
2026-01-06 02:40:19.58	319.19	11.42	-48.0	-63.2	3.6	1.51e+00	0	34	104	0	60	52329
2026-01-06 02:40:20.59	319.34	11.37	-48.0	-63.2	3.6	1.51e+00	0	34	104	0	60	52525
2026-01-06 02:40:21.60	319.49	11.31	-48.0	-63.2	3.6	1.51e+00	0	34	104	0	60	52399
2026-01-06 02:40:22.61	319.64	11.25	-48.0	-63.2	3.6	1.51e+00	0	34	104	0	60	52303
2026-01-06 02:40:23.62	319.79	11.20	-48.0	-63.1	3.6	1.51e+00	0	34	104	0	60	51942
2026-01-06 02:40:24.62	319.94	11.14	-48.0	-63.1	3.6	1.51e+00	0	34	104	0	60	51842
2026-01-06 02:40:25.63	320.08	11.08	-48.0	-63.2	3.6	1.51e+00	0	34	104	0	60	52090
2026-01-06 02:40:26.64	320.23	11.03	-48.0	-63.2	3.6	1.51e+00	0	34	104	0	60	52104
2026-01-06 02:40:27.66	320.38	10.97	-48.0	-63.1	3.6	1.51e+00	0	34	104	0	60	51936
2026-01-06 02:40:28.66	320.52	10.91	-48.0	-63.2	3.6	1.51e+00	0	34	104	0	60	51989
2026-01-06 02:40:29.67	320.66	10.86	-48.0	-63.1	3.6	1.51e+00	0	34	104	0	60	51619
2026-01-06 02:40:30.68	320.81	10.80	-47.9	-63.1	3.6	1.51e+00	0	34	104	0	60	51925
2026-01-06 02:40:31.69	320.95	10.74	-47.9	-63.1	3.6	1.51e+00	0	34	104	0	60	51768
2026-01-06 02:40:32.70	321.09	10.68	-47.9	-63.1	3.6	1.51e+00	0	34	104	0	60	51883
2026-01-06 02:40:33.71	321.24	10.63	-47.9	-63.1	3.6	1.51e+00	0	34	104	0	60	51779
2026-01-06 02:40:34.72	321.38	10.57	-47.9	-63.1	3.6	1.51e+00	0	34	104	0	60	51689
2026-01-06 02:40:35.73	321.52	10.51	-47.9	-63.1	3.6	1.51e+00	0	34	104	0	60	51695
2026-01-06 02:40:36.74	321.66	10.46	-47.9	-63.1	3.6	1.51e+00	0	34	104	0	60	51459
2026-01-06 02:40:37.75	321.80	10.40	-47.9	-63.1	3.6	1.51e+00	0	34	104	0	60	51650
2026-01-06 02:40:38.76	321.94	10.34	-47.9	-63.1	3.6	1.51e+00	0	34	104	0	60	51708
2026-01-06 02:40:39.77	322.08	10.29	-47.9	-63.1	3.6	1.51e+00	0	34	104	0	60	51368
2026-01-06 02:40:40.78	322.22	10.23	-47.9	-63.1	3.6	1.51e+00	0	34	104	0	60	51473
2026-01-06 02:40:41.79	322.36	10.17	-47.9	-63.1	3.6	1.51e+00	0	34	104	0	60	51512
2026-01-06 02:40:42.80	322.50	10.11	-47.9	-63.0	3.6	1.51e+00	0	34	104	0	60	51336
2026-01-06 02:40:43.81	322.63	10.06	-47.8	-63.0	3.6	1.51e+00	0	34	104	0	60	51144
2026-01-06 02:40:44.82	322.77	10.00	-47.8	-63.0	3.6	1.51e+00	0	34	104	0	60	51012
2026-01-06 02:40:45.84	322.91	9.94	-47.8	-63.0	3.6	1.51e+00	0	34	104	0	60	51001
2026-01-06 02:40:46.85	323.04	9.88	-47.8	-63.0	3.6	1.51e+00	0	34	104	0	60	51107
2026-01-06 02:40:47.85	323.18	9.83	-47.8	-63.0	3.6	1.51e+00	0	34	104	0	60	51296
2026-01-06 02:40:48.87	323.31	9.77	-47.8	-63.0	3.6	1.51e+00	0	34	104	0	60	50981
2026-01-06 02:40:49.87	323.45	9.71	-47.8	-63.0	3.6	1.51e+00	0	34	104	0	60	50817
2026-01-06 02:40:50.88	323.58	9.66	-47.8	-63.0	3.6	1.51e+00	0	34	104	0	60	51101
2026-01-06 02:40:51.89	323.71	9.60	-47.8	-62.9	3.6	1.51e+00	0	34	104	0	60	50731
2026-01-06 02:40:52.90	323.85	9.54	-47.8	-63.0	3.6	1.51e+00	0	34	104	0	60	50870
2026-01-06 02:40:53.91	323.98	9.48	-47.7	-62.9	3.6	1.51e+00	0	34	104	0	60	50651
2026-01-06 02:40:54.92	324.11	9.43	-47.7	-62.9	3.6	1.51e+00	0	34	104	0	60	50411
2026-01-06 02:40:55.93	324.24	9.37	-47.7	-62.9	3.6	1.51e+00	0	34	104	0	60	50200
2026-01-06 02:40:56.94	324.37	9.31	-47.7	-62.9	3.6	1.51e+00	0	34	104	0	60	50526
2026-01-06 02:40:57.95	324.50	9.26	-47.7	-62.9	3.6	1.51e+00	0	34	104	0	60	50498
2026-01-06 02:40:58.96	324.63	9.20	-47.7	-62.8	3.6	1.51e+00	0	34	104	0	60	50055
2026-01-06 02:40:59.97	324.76	9.14	-47.7	-62.9	3.6	1.51e+00	0	34	104	0	60	50230
2026-01-06 02:41:00.98	324.89	9.08	-47.7	-62.8	3.6	1.51e+00	0	34	104	0	60	50144
2026-01-06 02:41:01.99	325.02	9.03	-47.6	-62.8	3.6	1.51e+00	0	34	104	0	60	49781
2026-01-06 02:41:03.00	325.14	8.97	-47.6	-62.8	3.6	1.51e+00	0	34	104	0	60	50183
2026-01-06 02:41:04.01	325.27	8.91	-47.6	-62.8	3.6	1.51e+00	0	34	104	0	60	49675
2026-01-06 02:41:05.02	325.40	8.86	-47.6	-62.7	3.6	1.51e+00	0	34	104	0	60	49511
2026-01-06 02:41:06.03	325.52	8.80	-47.6	-62.8	3.6	1.51e+00	0	34	104	0	60	49721
2026-01-06 02:41:07.04	325.65	8.74	-47.5	-62.7	3.6	1.51e+00	0	34	104	0	60	49357
2026-01-06 02:41:08.05	325.78	8.69	-47.5	-62.7	3.6	1.51e+00	0	34	104	0	60	49279
2026-01-06 02:41:09.06	325.90	8.63	-47.5	-62.7	3.6	1.51e+00	0	34	104	0	60	49234
2026-01-06 02:41:10.07	326.03	8.57	-47.5	-62.7	3.6	1.51e+00	0	34	104	0	60	49145
2026-01-06 02:41:11.08	326.15	8.51	-47.5	-62.6	3.6	1.51e+00	0	34	104	0	60	48943
2026-01-06 02:41:12.09	326.27	8.46	-47.4	-62.6	3.6	1.51e+00	0	34	104	0	60	48895
2026-01-06 02:41:13.10	326.40	8.40	-47.4	-62.6	3.6	1.51e+00	0	34	104	0	60	48866
2026-01-06 02:41:14.11	326.52	8.34	-47.4	-62.6	3.6	1.51e+00	0	34	104	0	60	48501
2026-01-06 02:41:15.11	326.64	8.29	-47.4	-62.5	3.6	1.51e+00	0	34	104	0	60	48344
2026-01-06 02:41:16.12	326.76	8.23	-47.4	-62.6	3.6	1.51e+00	0	34	104	0	60	48546
2026-01-06 02:41:17.13	326.88	8.17	-47.3	-62.5	3.6	1.51e+00	0	34	104	0	60	48310
2026-01-06 02:41:18.14	327.00	8.12	-47.3	-62.5	3.6	1.51e+00	0	34	104	0	60	48118
2026-01-06 02:41:19.15	327.12	8.06	-47.3	-62.5	3.6	1.51e+00	0	34	104	0	60	47995
2026-01-06 02:41:20.16	327.24	8.00	-47.3	-62.4	3.6	1.51e+00	0	34	104	0	60	47851
2026-01-06 02:41:21.17	327.36	7.95	-47.2	-62.4	3.6	1.51e+00	0	34	104	0	60	47744
2026-01-06 02:41:22.18	327.48	7.89	-47.2	-62.4	3.6	1.51e+00	0	34	104	0	60	47555
2026-01-06 02:41:23.19	327.60	7.83	-47.2	-62.4	3.6	1.51e+00	0	34	104	0	60	47539
2026-01-06 02:41:24.20	327.72	7.78	-47.2	-62.3	3.6	1.51e+00	0	34	104	0	60	47320
2026-01-06 02:41:25.21	327.84	7.72	-47.1	-62.3	3.6	1.51e+00	0	34	104	0	60	47298
2026-01-06 02:41:26.22	327.95	7.66	-47.1	-62.3	3.6	1.51e+00	0	34	104	0	60	47080
2026-01-06 02:41:27.23	328.07	7.61	-47.1	-62.3	3.6	1.51e+00	0	34	104	0	60	46900
2026-01-06 02:41:28.24	328.19	7.55	-47.1	-62.2	3.6	1.51e+00	0	34	104	0	60	46743
2026-01-06 02:41:29.25	328.30	7.49	-47.0	-62.2	3.6	1.51e+00	0	34	104	0	60	46679
2026-01-06 02:41:30.26	328.42	7.44	-47.0	-62.2	3.6	1.51e+00	0	34	104	0	60	46626
2026-01-06 02:41:31.27	328.53	7.38	-47.0	-62.1	3.6	1.51e+00	0	34	104	0	60	46111
2026-01-06 02:41:32.28	328.65	7.32	-47.0	-62.1	3.6	1.51e+00	0	34	104	0	60	46074
2026-01-06 02:41:33.29	328.76	7.27	-46.9	-62.1	3.6	1.51e+00	0	34	104	0	60	46064
2026-01-06 02:41:34.30	328.87	7.21	-46.9	-62.0	3.6	1.51e+00	0	34	104	0	60	45495
2026-01-06 02:41:35.30	328.99	7.15	-46.9	-62.1	3.6	1.51e+00	0	34	104	0	60	45891
2026-01-06 02:41:36.31	329.10	7.10	-46.8	-62.1	3.5	1.51e+00	0	34	104	0	60	45874
2026-01-06 02:41:37.32	329.21	7.04	-46.8	-61.9	3.6	1.51e+00	0	34	104	0	60	45235
2026-01-06 02:41:38.33	329.32	6.98	-46.8	-61.9	3.6	1.51e+00	0	34	104	0	60	44970
2026-01-06 02:41:39.34	329.44	6.93	-46.9	-62.1	3.6	1.51e+00	0	34	104	0	60	45822
2026-01-06 02:41:40.35	329.55	6.87	-47.7	-62.9	3.6	1.51e+00	0	34	104	0	60	50595
2026-01-06 02:41:41.36	329.66	6.82	-48.1	-63.2	3.6	1.51e+00	0	34	104	0	60	52319
2026-01-06 02:41:42.37	329.77	6.76	-48.0	-63.2	3.6	1.51e+00	0	34	104	0	60	52124
2026-01-06 02:41:43.38	329.88	6.70	-48.1	-63.3	3.6	1.51e+00	0	34	104	0	60	52983
2026-01-06 02:41:44.39	329.99	6.65	-48.3	-63.5	3.6	1.51e+00	0	34	104	0	60	53880
2026-01-06 02:41:45.40	330.10	6.59	-48.3	-63.5	3.6	1.51e+00	0	34	104	0	60	54062
2026-01-06 02:41:46.41	330.21	6.54	-48.3	-63.5	3.6	1.51e+00	0	34	104	0	60	53918
2026-01-06 02:41:47.42	330.31	6.48	-48.3	-63.5	3.6	1.51e+00	0	34	104	0	60	54142
2026-01-06 02:41:48.43	330.42	6.42	-48.3	-63.5	3.6	1.51e+00	0	34	104	0	60	54246
2026-01-06 02:41:49.44	330.53	6.37	-48.3	-63.5	3.6	1.51e+00	0	34	104	0	60	53896
2026-01-06 02:41:50.45	330.64	6.31	-48.3	-63.5	3.6	1.51e+00	0	34	104	0	60	53905
2026-01-06 02:41:51.46	330.74	6.26	-48.3	-63.4	3.6	1.51e+00	0	34	104	0	60	53688
2026-01-06 02:41:52.47	330.85	6.20	-48.3	-63.5	3.6	1.51e+00	0	34	104	0	60	53797
2026-01-06 02:41:53.48	330.96	6.14	-48.3	-63.5	3.6	1.51e+00	0	34	104	0	60	53885
2026-01-06 02:41:54.49	331.06	6.09	-48.2	-63.4	3.6	1.51e+00	0	34	104	0	60	53451
2026-01-06 02:41:55.50	331.17	6.03	-48.2	-63.3	3.6	1.51e+00	0	34	104	0	60	52979
2026-01-06 02:41:56.51	331.27	5.98	-48.1	-63.3	3.6	1.51e+00	0	34	104	0	60	52731
2026-01-06 02:41:57.52	331.38	5.92	-48.0	-63.2	3.6	1.51e+00	0	34	104	0	60	52226
2026-01-06 02:41:58.53	331.48	5.87	-47.9	-63.1	3.6	1.51e+00	0	34	104	0	60	51577
2026-01-06 02:41:59.54	331.59	5.81	-47.8	-63.0	3.6	1.51e+00	0	34	104	0	60	51169
2026-01-06 02:42:00.55	331.69	5.76	-47.7	-62.8	3.6	1.51e+00	0	34	104	0	60	49743
2026-01-06 02:42:01.56	331.79	5.70	-42.2	-44.3	6.0	1.50e+00	0	34	104	0	56	7473
2026-01-06 02:42:02.57	331.89	5.65	-41.3	-43.0	18.5	0.00e+00	0	34	0	0	56	6457
2026-01-06 02:42:03.58	332.00	5.59	-46.8	-59.8	3.6	0.00e+00	0	34	104	1048576	60	35169
2026-01-06 02:42:04.58	332.10	5.54	-46.4	-60.4	3.6	1.51e+00	0	34	104	1048576	60	37935
2026-01-06 02:42:05.60	332.20	5.48	-41.1	-42.8	6.1	1.49e+00	0	34	104	1048576	60	5009
2026-01-06 02:42:06.60	332.30	5.42	-45.3	-50.3	8.6	2.13e-05	0	34	0	1048576	60	11835
2026-01-06 02:42:07.61	332.40	5.37	-42.6	-44.8	16.4	1.26e-02	0	34	0	3145728	58	7060
2026-01-06 02:42:08.62	332.50	5.31	-43.7	-46.5	15.0	8.30e-06	0	34	0	5242880	60	7638
2026-01-06 02:42:09.63	332.60	5.26	-43.4	-46.1	15.2	0.00e+00	0	34	0	6291456	60	7288
2026-01-06 02:42:10.64	332.70	5.20	-43.1	-45.7	15.4	0.00e+00	0	34	0	8388608	60	6981
2026-01-06 02:42:11.65	332.80	5.15	-42.5	-45.0	15.8	0.00e+00	0	34	0	10485760	58	7179
2026-01-06 02:42:12.66	332.90	5.09	-42.1	-44.7	15.5	0.00e+00	0	34	0	12582912	58	6961
2026-01-06 02:42:13.67	333.00	5.04	-42.5	-45.4	14.7	0.00e+00	0	34	0	14680064	58	7522
2026-01-06 02:42:14.68	333.10	4.99	-42.7	-46.0	13.5	6.10e-06	0	34	0	15728640	58	8103
2026-01-06 02:42:15.69	333.20	4.93	-42.9	-46.9	12.1	7.47e-05	0	34	0	17825792	58	8990
2026-01-06 02:42:16.70	333.29	4.88	-43.2	-47.9	10.8	7.35e-04	0	34	0	19922944	58	10023
2026-01-06 02:42:17.71	333.39	4.82	-43.3	-48.8	9.4	1.13e-02	0	34	0	22020096	58	11133
2026-01-06 02:42:18.72	333.49	4.77	-43.4	-49.5	8.1	3.60e-02	0	34	0	24117248	58	12164
2026-01-06 02:42:19.73	333.58	4.71	-43.5	-50.6	6.7	9.26e-02	0	34	0	25165824	58	13707
2026-01-06 02:42:20.74	333.68	4.66	-43.5	-51.4	5.5	3.20e-01	0	34	0	27262976	58	15085
2026-01-06 02:42:21.75	333.78	4.60	-43.4	-52.0	4.9	5.45e-01	0	34	0	29360128	58	16206
2026-01-06 02:42:22.76	333.87	4.55	-43.4	-52.9	4.2	7.43e-01	0	34	0	31457280	58	17807
2026-01-06 02:42:23.76	333.97	4.49	-43.4	-53.8	3.8	1.40e+00	0	34	0	32505856	58	19808
2026-01-06 02:42:24.77	334.06	4.44	-43.3	-55.8	3.8	1.48e+00	0	34	104	32505856	58	24922
2026-01-06 02:42:25.78	334.16	4.39	-43.3	-56.2	3.7	1.50e+00	0	34	104	32505856	58	26305
2026-01-06 02:42:26.79	334.25	4.33	-43.3	-56.8	3.6	1.50e+00	0	34	104	32505856	58	28157
2026-01-06 02:42:27.80	334.34	4.28	-43.3	-57.0	3.6	1.51e+00	0	34	104	32505856	58	28768
2026-01-06 02:42:28.81	334.44	4.22	-43.2	-57.3	3.6	1.51e+00	0	34	104	32505856	58	29681
2026-01-06 02:42:29.82	334.53	4.17	-43.3	-57.9	3.6	1.51e+00	0	34	104	32505856	58	31976
2026-01-06 02:42:30.83	334.62	4.12	-43.3	-58.3	3.6	1.51e+00	0	34	104	32505856	58	33361
2026-01-06 02:42:31.84	334.72	4.06	-43.3	-58.4	3.6	1.51e+00	0	34	104	32505856	58	33771
2026-01-06 02:42:32.85	334.81	4.01	-43.2	-58.2	3.6	1.51e+00	0	34	104	32505856	58	33042
2026-01-06 02:42:33.86	334.90	3.95	-43.3	-58.4	3.6	1.51e+00	0	34	104	32505856	58	33648
2026-01-06 02:42:34.87	334.99	3.90	-43.4	-58.2	3.6	1.51e+00	0	34	104	32505856	58	32981
2026-01-06 02:42:35.88	335.08	3.85	-43.3	-58.4	3.6	1.51e+00	0	34	104	32505856	58	33871
