passes_logs/2026/01/06/R4.6S_Anadyr/R4.6S_Anadyr__20260106_143344_NOAA_20_JPSS-1_rec.log

#Pass ID: 20260106_143344_NOAA 20 (JPSS-1)
#Satellite: NOAA 20 (JPSS-1)
#Configuration: NOAA 20
#almurnet v.1.7.20251203
#Start time: 2026-01-06 14:33:47

#Version: 2.2.20231116
#Station: R4.6S_Anadyr
#Location: 177.4865 lon 64.73178 lat
#TLE: 1 43013U 17073A   26005.46207808  .00000128  00000+0  81791-4 0  9997
#TLE: 2 43013  98.7627 306.5027 0001826  53.0458 307.0885 14.19533487421381

#Time	Az	El	Level	Level2	SNR	BER	BlckErr	Temp	State	Recorded	gain1	gain2
2026-01-06 14:33:47.33	20.21	0.14	-48.7	-63.6	3.5	1.51e+00	0	33	0	0	60	54714
2026-01-06 14:33:48.34	20.22	0.21	-48.7	-63.9	3.6	1.51e+00	0	34	104	0	60	56720
2026-01-06 14:33:49.35	20.23	0.27	-48.7	-63.9	3.6	1.51e+00	0	34	104	0	60	56845
2026-01-06 14:33:50.36	20.24	0.33	-48.8	-64.0	3.6	1.51e+00	0	34	104	0	60	57254
2026-01-06 14:33:51.37	20.25	0.39	-48.8	-64.0	3.6	1.51e+00	0	34	104	0	60	57040
2026-01-06 14:33:52.38	20.26	0.45	-48.8	-64.0	3.6	1.51e+00	0	35	104	0	60	57427
2026-01-06 14:33:53.39	20.27	0.51	-48.8	-64.0	3.6	1.51e+00	0	34	104	0	60	57207
2026-01-06 14:33:54.40	20.28	0.57	-48.8	-64.0	3.6	1.51e+00	0	35	104	0	60	56966
2026-01-06 14:33:55.41	20.29	0.63	-48.7	-63.9	3.5	1.51e+00	0	35	104	0	60	56714
2026-01-06 14:33:56.42	20.30	0.69	-48.7	-63.8	3.6	1.51e+00	0	35	104	0	60	56026
2026-01-06 14:33:57.43	20.31	0.75	-48.5	-63.7	3.6	1.51e+00	0	35	104	0	60	55433
2026-01-06 14:33:58.44	20.32	0.82	-48.4	-63.6	3.6	1.51e+00	0	35	104	0	60	54680
2026-01-06 14:33:59.45	20.33	0.88	-48.2	-63.4	3.6	1.51e+00	0	35	104	0	60	53452
2026-01-06 14:34:00.46	20.33	0.94	-48.1	-63.3	3.6	1.51e+00	0	35	104	0	60	52566
2026-01-06 14:34:01.47	20.34	1.00	-47.8	-63.0	3.6	1.51e+00	0	35	104	0	60	50909
2026-01-06 14:34:02.48	20.35	1.06	-47.5	-62.6	3.6	1.51e+00	0	35	104	0	60	48563
2026-01-06 14:34:03.48	20.36	1.13	-47.4	-62.5	3.6	1.51e+00	0	35	104	0	60	48394
2026-01-06 14:34:04.49	20.37	1.19	-47.4	-62.5	3.6	1.51e+00	0	35	104	0	60	48372
2026-01-06 14:34:05.51	20.38	1.25	-47.4	-62.5	3.6	1.51e+00	0	35	104	0	60	48235
2026-01-06 14:34:06.52	20.39	1.31	-47.3	-62.5	3.6	1.51e+00	0	35	104	0	60	47929
2026-01-06 14:34:07.52	20.40	1.38	-47.3	-62.4	3.6	1.51e+00	0	35	104	0	60	47758
2026-01-06 14:34:08.54	20.41	1.44	-47.3	-62.2	3.6	1.51e+00	0	35	104	0	60	46816
2026-01-06 14:34:09.55	20.42	1.50	-47.3	-62.3	3.6	1.51e+00	0	35	104	0	60	47084
2026-01-06 14:34:10.55	20.43	1.56	-47.3	-62.3	3.6	1.51e+00	0	35	104	0	60	47354
2026-01-06 14:34:11.56	20.44	1.63	-47.3	-62.4	3.6	1.51e+00	0	35	104	0	60	47519
2026-01-06 14:34:12.57	20.45	1.69	-47.3	-62.4	3.6	1.51e+00	0	35	104	0	60	47884
2026-01-06 14:34:13.58	20.46	1.76	-47.4	-62.5	3.6	1.51e+00	0	35	104	0	60	48163
2026-01-06 14:34:14.59	20.47	1.82	-47.3	-62.5	3.6	1.51e+00	0	35	104	0	60	48132
2026-01-06 14:34:15.60	20.48	1.88	-47.3	-62.5	3.6	1.51e+00	0	35	104	0	60	48138
2026-01-06 14:34:16.61	20.49	1.95	-47.3	-62.5	3.6	1.51e+00	0	35	104	0	60	48423
2026-01-06 14:34:17.62	20.50	2.01	-47.3	-62.5	3.6	1.51e+00	0	35	104	0	60	48233
2026-01-06 14:34:18.63	20.51	2.08	-47.3	-62.5	3.6	1.51e+00	0	35	104	0	60	48274
2026-01-06 14:34:19.64	20.52	2.14	-47.3	-62.5	3.5	1.51e+00	0	35	104	0	60	47998
2026-01-06 14:34:20.65	20.53	2.20	-47.3	-62.4	3.6	1.51e+00	0	35	104	0	60	47421
2026-01-06 14:34:21.66	20.54	2.27	-47.3	-62.1	3.6	1.51e+00	0	35	104	0	60	46028
2026-01-06 14:34:22.67	20.55	2.33	-47.3	-61.8	3.6	1.51e+00	0	35	104	0	60	44243
2026-01-06 14:34:23.68	20.56	2.40	-47.3	-61.2	3.6	1.51e+00	0	35	104	0	60	41496
2026-01-06 14:34:24.69	20.57	2.46	-47.3	-60.7	3.6	1.51e+00	0	35	104	0	60	39392
2026-01-06 14:34:25.70	20.58	2.53	-47.2	-60.5	3.6	1.51e+00	0	35	104	0	60	38267
2026-01-06 14:34:26.71	20.59	2.60	-47.2	-60.4	3.7	1.50e+00	0	35	104	0	60	37710
2026-01-06 14:34:27.71	20.60	2.66	-47.2	-60.5	3.7	1.50e+00	0	35	104	0	60	38235
2026-01-06 14:34:28.72	20.61	2.73	-47.3	-60.7	3.6	1.55e+00	0	35	104	0	60	39131
2026-01-06 14:34:29.73	20.62	2.79	-47.2	-60.2	3.7	1.50e+00	0	35	104	0	60	36966
2026-01-06 14:34:30.74	20.63	2.86	-47.1	-57.1	4.2	1.42e+00	22	35	0	0	60	25742
2026-01-06 14:34:31.75	20.64	2.93	-46.9	-55.2	5.3	6.50e-01	34	35	0	2097152	60	20850
2026-01-06 14:34:32.76	20.65	2.99	-46.6	-53.4	7.1	2.02e-01	0	35	0	4194304	60	16962
2026-01-06 14:34:33.77	20.66	3.06	-46.1	-51.8	9.2	4.96e-02	24	35	0	5242880	60	13990
2026-01-06 14:34:34.78	20.67	3.13	-45.7	-50.4	10.8	1.05e-02	0	35	0	7340032	60	12021
2026-01-06 14:34:35.79	20.68	3.19	-45.1	-49.2	12.2	4.14e-04	24	35	0	9437184	60	10388
2026-01-06 14:34:36.80	20.69	3.26	-44.7	-48.2	13.3	2.97e-05	92	35	0	11534336	60	9264
2026-01-06 14:34:37.81	20.70	3.33	-44.3	-47.4	14.0	6.80e-06	19	35	0	13631488	60	8518
2026-01-06 14:34:38.82	20.71	3.39	-44.1	-47.1	14.4	7.00e-07	91	35	0	14680064	60	8159
2026-01-06 14:34:39.83	20.72	3.46	-44.1	-47.1	14.3	1.50e-06	63	35	0	16777216	60	8223
2026-01-06 14:34:40.84	20.73	3.53	-44.3	-47.5	13.8	2.20e-06	19	35	0	18874368	60	8611
2026-01-06 14:34:41.85	20.74	3.60	-44.8	-48.5	12.9	1.90e-05	0	35	0	20971520	60	9574
2026-01-06 14:34:42.86	20.75	3.67	-45.1	-49.2	12.1	1.19e-04	2	35	0	23068672	60	10415
2026-01-06 14:34:43.87	20.77	3.73	-45.7	-50.7	10.4	1.42e-03	91	35	0	24117248	60	12451
2026-01-06 14:34:44.88	20.78	3.80	-46.3	-52.3	8.5	1.28e-02	63	35	0	26214400	60	14970
2026-01-06 14:34:45.89	20.79	3.87	-42.2	-44.1	17.5	6.71e-05	91	35	0	28311552	58	6501
2026-01-06 14:34:46.90	20.80	3.94	-44.5	-47.9	13.6	0.00e+00	2	35	0	30408704	60	8945
2026-01-06 14:34:47.91	20.81	4.01	-47.3	-61.7	3.6	3.73e-05	0	35	104	31457280	60	44152
2026-01-06 14:34:48.92	20.82	4.08	-42.7	-44.9	16.4	1.40e+00	3	35	104	31457280	60	6386
2026-01-06 14:34:49.93	20.83	4.15	-47.4	-62.0	3.6	5.78e-03	0	35	104	31457280	60	45468
2026-01-06 14:34:50.94	20.84	4.22	-43.2	-45.6	6.0	1.50e+00	0	35	104	31457280	60	6899
2026-01-06 14:34:51.95	20.85	4.29	-42.2	-44.1	17.6	0.00e+00	0	35	0	31457280	58	6477
2026-01-06 14:34:52.96	20.86	4.36	-41.9	-43.7	18.0	0.00e+00	92	35	0	33554432	58	6220
2026-01-06 14:34:53.97	20.87	4.43	-41.7	-43.4	18.1	0.00e+00	0	35	0	34603008	56	6736
2026-01-06 14:34:54.98	20.88	4.50	-41.8	-43.5	18.0	0.00e+00	74	35	0	36700160	56	6812
2026-01-06 14:34:55.99	20.89	4.57	-42.0	-43.8	18.2	0.00e+00	23	35	0	38797312	56	7080
2026-01-06 14:34:57.00	20.91	4.64	-41.6	-43.3	18.4	0.00e+00	23	35	0	40894464	56	6657
2026-01-06 14:34:58.00	20.92	4.71	-41.5	-43.1	18.6	0.00e+00	0	35	0	42991616	56	6514
2026-01-06 14:34:59.01	20.93	4.78	-40.6	-42.1	19.6	0.00e+00	3	35	0	45088768	54	6486
2026-01-06 14:35:00.02	20.94	4.85	-40.6	-42.0	19.7	0.00e+00	90	35	0	46137344	54	6456
2026-01-06 14:35:01.03	20.95	4.92	-40.6	-42.0	19.8	0.00e+00	24	35	0	48234496	54	6432
2026-01-06 14:35:02.04	20.96	4.99	-40.5	-41.9	19.8	0.00e+00	92	35	0	50331648	54	6333
2026-01-06 14:35:03.05	20.97	5.06	-40.5	-41.9	19.7	0.00e+00	0	35	0	52428800	54	6381
2026-01-06 14:35:04.06	20.98	5.14	-40.5	-41.9	19.8	0.00e+00	57	35	0	54525952	54	6328
2026-01-06 14:35:05.07	20.99	5.21	-40.5	-41.9	19.8	0.00e+00	0	35	0	55574528	54	6337
2026-01-06 14:35:06.08	21.00	5.28	-40.4	-41.8	19.9	0.00e+00	2	35	0	57671680	54	6295
2026-01-06 14:35:07.09	21.02	5.35	-40.5	-41.8	20.0	0.00e+00	91	35	0	59768832	54	6316
2026-01-06 14:35:08.09	21.03	5.42	-40.5	-41.9	19.8	0.00e+00	0	35	0	61865984	54	6383
2026-01-06 14:35:09.10	21.04	5.50	-40.1	-41.5	20.3	0.00e+00	88	35	0	63963136	54	6046
2026-01-06 14:35:10.11	21.05	5.57	-40.1	-41.4	20.4	0.00e+00	0	35	0	65011712	54	5973
2026-01-06 14:35:11.12	21.06	5.64	-40.0	-41.3	20.4	0.00e+00	29	35	0	67108864	54	5963
2026-01-06 14:35:12.13	21.07	5.72	-40.1	-41.4	20.4	0.00e+00	0	35	0	69206016	54	5981
2026-01-06 14:35:13.14	21.08	5.79	-40.0	-41.3	20.5	0.00e+00	0	35	0	71303168	54	5917
2026-01-06 14:35:14.15	21.10	5.87	-40.1	-41.4	20.5	0.00e+00	11	35	0	73400320	54	5996
2026-01-06 14:35:15.16	21.11	5.94	-39.9	-41.2	20.6	0.00e+00	0	35	0	74448896	54	5862
2026-01-06 14:35:16.17	21.12	6.01	-40.1	-41.4	20.5	0.00e+00	89	35	0	76546048	54	6000
2026-01-06 14:35:17.18	21.13	6.09	-39.9	-41.2	20.6	0.00e+00	25	35	0	78643200	54	5862
2026-01-06 14:35:18.19	21.14	6.16	-40.1	-41.4	20.4	0.00e+00	26	35	0	80740352	54	6024
2026-01-06 14:35:19.20	21.15	6.24	-40.3	-41.6	20.3	0.00e+00	56	35	0	82837504	54	6152
2026-01-06 14:35:20.21	21.16	6.31	-40.5	-41.8	20.1	0.00e+00	27	35	0	83886080	54	6316
2026-01-06 14:35:21.21	21.18	6.39	-40.3	-41.6	20.2	0.00e+00	0	35	0	85983232	54	6128
2026-01-06 14:35:22.22	21.19	6.46	-40.3	-41.7	20.2	0.00e+00	0	35	0	88080384	54	6193
2026-01-06 14:35:23.24	21.20	6.54	-40.1	-41.4	20.5	0.00e+00	90	35	0	90177536	54	5965
2026-01-06 14:35:24.24	21.21	6.62	-39.8	-41.1	20.8	0.00e+00	62	35	0	92274688	54	5768
2026-01-06 14:35:25.18	21.22	6.69	-39.8	-41.1	20.8	0.00e+00	92	35	0	93323264	54	5780
2026-01-06 14:35:26.19	21.23	6.76	-39.8	-41.0	20.9	0.00e+00	2	35	0	95420416	54	5726
2026-01-06 14:35:27.20	21.25	6.84	-39.6	-40.8	21.1	0.00e+00	2	35	0	97517568	52	6310
2026-01-06 14:35:28.21	21.26	6.92	-39.7	-40.8	21.1	0.00e+00	53	35	0	99614720	52	6316
2026-01-06 14:35:29.22	21.27	6.99	-39.6	-40.8	21.1	0.00e+00	2	35	0	101711872	52	6281
2026-01-06 14:35:30.23	21.28	7.07	-39.7	-40.9	21.0	0.00e+00	92	35	0	102760448	52	6322
2026-01-06 14:35:31.24	21.30	7.15	-39.5	-40.6	21.3	0.00e+00	2	35	0	104857600	52	6166
2026-01-06 14:35:32.25	21.31	7.23	-39.5	-40.7	21.2	0.00e+00	92	35	0	106954752	52	6194
2026-01-06 14:35:33.26	21.32	7.31	-39.6	-40.8	21.2	0.00e+00	0	35	0	109051904	52	6264
2026-01-06 14:35:34.27	21.33	7.38	-39.6	-40.8	21.1	0.00e+00	0	35	0	111149056	52	6282
2026-01-06 14:35:35.27	21.34	7.46	-39.5	-40.7	21.3	0.00e+00	2	35	0	112197632	52	6179
2026-01-06 14:35:36.29	21.36	7.54	-39.5	-40.6	21.3	0.00e+00	0	35	0	114294784	52	6162
2026-01-06 14:35:37.29	21.37	7.62	-39.3	-40.4	21.5	0.00e+00	0	35	0	116391936	52	6032
2026-01-06 14:35:38.30	21.38	7.70	-39.4	-40.5	21.4	0.00e+00	0	35	0	118489088	52	6086
2026-01-06 14:35:39.31	21.39	7.78	-39.3	-40.4	21.6	0.00e+00	92	35	0	120586240	52	5975
2026-01-06 14:35:40.32	21.41	7.86	-39.3	-40.5	21.5	0.00e+00	0	35	0	121634816	52	6050
2026-01-06 14:35:41.33	21.42	7.94	-39.2	-40.4	21.6	0.00e+00	62	35	0	123731968	52	5974
2026-01-06 14:35:42.34	21.43	8.02	-39.4	-40.5	21.5	0.00e+00	58	35	0	125829120	52	6070
2026-01-06 14:35:43.35	21.44	8.10	-39.7	-40.8	21.2	0.00e+00	64	35	0	127926272	52	6305
2026-01-06 14:35:44.36	21.46	8.18	-39.7	-40.8	21.3	0.00e+00	25	35	0	130023424	52	6302
2026-01-06 14:35:45.37	21.47	8.26	-39.2	-40.3	21.7	0.00e+00	58	35	0	131072000	52	5936
2026-01-06 14:35:46.38	21.48	8.34	-39.3	-40.4	21.5	0.00e+00	91	35	0	133169152	52	6020
2026-01-06 14:35:47.39	21.49	8.42	-39.3	-40.4	21.5	0.00e+00	0	35	0	135266304	52	6018
2026-01-06 14:35:48.39	21.51	8.51	-39.3	-40.4	21.5	0.00e+00	92	35	0	137363456	52	6026
2026-01-06 14:35:49.40	21.52	8.59	-39.4	-40.5	21.6	0.00e+00	6	35	0	139460608	52	6066
2026-01-06 14:35:50.41	21.53	8.67	-39.2	-40.3	21.8	0.00e+00	7	35	0	141557760	52	5926
2026-01-06 14:35:51.42	21.55	8.75	-39.1	-40.2	21.9	0.00e+00	56	35	0	142606336	52	5851
2026-01-06 14:35:52.43	21.56	8.84	-38.9	-40.0	22.1	0.00e+00	0	35	0	144703488	52	5716
2026-01-06 14:35:53.44	21.57	8.92	-39.0	-40.1	21.9	0.00e+00	86	36	0	146800640	52	5796
2026-01-06 14:35:54.45	21.59	9.00	-39.0	-40.1	22.0	0.00e+00	2	35	0	148897792	52	5775
2026-01-06 14:35:55.46	21.60	9.09	-38.8	-39.9	22.1	0.00e+00	92	35	0	150994944	52	5639
2026-01-06 14:35:56.47	21.61	9.17	-39.0	-40.1	21.9	0.00e+00	3	35	0	152043520	52	5772
2026-01-06 14:35:57.48	21.63	9.26	-38.9	-39.9	22.1	0.00e+00	0	35	0	154140672	52	5675
2026-01-06 14:35:58.48	21.64	9.34	-38.8	-39.8	22.2	0.00e+00	25	35	0	156237824	52	5619
2026-01-06 14:35:59.49	21.65	9.42	-38.8	-39.9	22.2	0.00e+00	26	35	0	158334976	52	5652
2026-01-06 14:36:00.51	21.67	9.51	-38.8	-39.9	22.1	0.00e+00	32	35	0	160432128	52	5647
2026-01-06 14:36:01.52	21.68	9.60	-38.7	-39.8	22.2	0.00e+00	0	36	0	161480704	50	6260
2026-01-06 14:36:02.53	21.69	9.68	-38.8	-39.9	22.2	0.00e+00	92	35	0	163577856	50	6345
2026-01-06 14:36:03.53	21.71	9.77	-38.7	-39.7	22.3	0.00e+00	68	36	0	165675008	50	6214
2026-01-06 14:36:04.54	21.72	9.85	-38.7	-39.8	22.3	0.00e+00	91	35	0	167772160	50	6251
2026-01-06 14:36:05.55	21.73	9.94	-38.7	-39.7	22.2	0.00e+00	59	35	0	169869312	50	6237
2026-01-06 14:36:06.56	21.75	10.03	-38.6	-39.6	22.4	0.00e+00	24	35	0	170917888	50	6155
2026-01-06 14:36:07.57	21.76	10.12	-38.6	-39.6	22.4	0.00e+00	9	35	0	173015040	50	6135
2026-01-06 14:36:08.58	21.77	10.20	-38.6	-39.6	22.5	0.00e+00	6	35	0	175112192	50	6132
2026-01-06 14:36:09.59	21.79	10.29	-38.7	-39.7	22.4	0.00e+00	91	36	0	177209344	50	6215
2026-01-06 14:36:10.60	21.80	10.38	-38.7	-39.8	22.4	0.00e+00	6	36	0	179306496	50	6261
2026-01-06 14:36:11.61	21.82	10.47	-38.6	-39.6	22.5	0.00e+00	67	36	0	180355072	50	6130
2026-01-06 14:36:12.62	21.83	10.56	-38.7	-39.7	22.6	0.00e+00	66	36	0	182452224	50	6207
2026-01-06 14:36:13.63	21.84	10.65	-38.6	-39.6	22.5	0.00e+00	6	36	0	184549376	50	6122
2026-01-06 14:36:14.64	21.86	10.74	-38.4	-39.4	22.7	0.00e+00	6	36	0	186646528	50	6016
2026-01-06 14:36:15.64	21.87	10.83	-38.4	-39.4	22.6	0.00e+00	7	36	0	188743680	50	6010
2026-01-06 14:36:16.66	21.89	10.92	-38.4	-39.4	22.6	0.00e+00	80	36	0	189792256	50	6019
2026-01-06 14:36:17.67	21.90	11.01	-38.4	-39.4	22.7	0.00e+00	0	36	0	191889408	50	6013
2026-01-06 14:36:18.68	21.92	11.10	-38.4	-39.5	22.5	0.00e+00	92	35	0	193986560	50	6044
2026-01-06 14:36:19.69	21.93	11.19	-38.5	-39.5	22.6	0.00e+00	22	36	0	196083712	50	6070
2026-01-06 14:36:20.70	21.95	11.28	-38.6	-39.6	22.4	0.00e+00	60	36	0	198180864	50	6140
2026-01-06 14:36:21.71	21.96	11.37	-38.5	-39.5	22.5	0.00e+00	0	35	0	199229440	50	6060
2026-01-06 14:36:22.71	21.97	11.46	-38.5	-39.5	22.6	0.00e+00	0	36	0	201326592	50	6063
2026-01-06 14:36:23.73	21.99	11.56	-38.3	-39.3	22.8	0.00e+00	92	36	0	203423744	50	5904
2026-01-06 14:36:24.74	22.00	11.65	-38.2	-39.2	22.9	0.00e+00	52	36	0	205520896	50	5847
2026-01-06 14:36:25.75	22.02	11.74	-38.2	-39.1	22.8	0.00e+00	92	36	0	207618048	50	5811
2026-01-06 14:36:26.76	22.03	11.84	-38.2	-39.2	22.9	0.00e+00	59	36	0	209715200	50	5842
2026-01-06 14:36:27.77	22.05	11.93	-38.1	-39.1	23.0	0.00e+00	92	36	0	210763776	50	5802
2026-01-06 14:36:28.78	22.06	12.03	-38.2	-39.1	23.0	0.00e+00	0	36	0	212860928	50	5819
2026-01-06 14:36:29.79	22.08	12.12	-38.2	-39.2	22.9	0.00e+00	52	36	0	214958080	50	5873
2026-01-06 14:36:30.79	22.10	12.22	-38.2	-39.2	22.9	0.00e+00	63	36	0	217055232	50	5870
2026-01-06 14:36:31.80	22.11	12.31	-38.0	-38.9	23.2	0.00e+00	0	36	0	219152384	50	5673
2026-01-06 14:36:32.81	22.13	12.41	-37.9	-38.9	23.2	0.00e+00	90	36	0	220200960	50	5633
2026-01-06 14:36:33.82	22.14	12.50	-38.1	-39.0	23.1	0.00e+00	2	36	0	222298112	50	5756
2026-01-06 14:36:34.83	22.16	12.60	-38.0	-38.9	23.1	0.00e+00	92	36	0	224395264	50	5691
2026-01-06 14:36:35.84	22.17	12.70	-38.0	-39.0	23.1	0.00e+00	0	36	0	226492416	50	5725
2026-01-06 14:36:36.85	22.19	12.79	-37.9	-38.8	23.3	0.00e+00	0	36	0	228589568	50	5587
2026-01-06 14:36:37.86	22.20	12.89	-37.9	-38.8	23.3	0.00e+00	0	36	0	229638144	50	5592
2026-01-06 14:36:38.87	22.22	12.99	-38.0	-38.9	23.2	0.00e+00	2	36	0	231735296	50	5663
2026-01-06 14:36:39.88	22.24	13.09	-37.8	-38.7	23.3	0.00e+00	92	36	0	233832448	50	5548
2026-01-06 14:36:40.89	22.25	13.19	-38.0	-38.9	23.3	0.00e+00	26	36	0	235929600	50	5654
2026-01-06 14:36:41.89	22.27	13.29	-37.9	-38.8	23.2	0.00e+00	92	36	0	238026752	50	5623
2026-01-06 14:36:42.90	22.28	13.39	-37.8	-38.7	23.4	0.00e+00	2	36	0	239075328	50	5514
2026-01-06 14:36:43.91	22.30	13.49	-37.8	-38.7	23.2	0.00e+00	69	36	0	241172480	48	6231
2026-01-06 14:36:44.92	22.32	13.59	-37.7	-38.6	23.5	0.00e+00	24	36	0	243269632	48	6132
2026-01-06 14:36:45.93	22.33	13.69	-37.7	-38.6	23.5	0.00e+00	53	36	0	245366784	48	6173
2026-01-06 14:36:46.94	22.35	13.79	-37.7	-38.6	23.4	0.00e+00	6	36	0	247463936	48	6173
2026-01-06 14:36:47.95	22.37	13.89	-37.7	-38.6	23.5	0.00e+00	27	36	0	248512512	48	6120
2026-01-06 14:36:48.96	22.38	13.99	-37.6	-38.5	23.5	0.00e+00	92	36	0	250609664	48	6086
2026-01-06 14:36:49.97	22.40	14.10	-37.7	-38.6	23.5	0.00e+00	29	36	0	252706816	48	6118
2026-01-06 14:36:50.98	22.42	14.20	-37.7	-38.6	23.5	0.00e+00	91	36	0	254803968	48	6118
2026-01-06 14:36:51.99	22.43	14.30	-37.7	-38.6	23.4	0.00e+00	0	36	0	256901120	48	6171
2026-01-06 14:36:53.00	22.45	14.41	-37.6	-38.5	23.5	0.00e+00	0	36	0	257949696	48	6101
2026-01-06 14:36:54.01	22.47	14.51	-37.8	-38.7	23.4	0.00e+00	52	36	0	260046848	48	6200
2026-01-06 14:36:55.02	22.48	14.62	-37.8	-38.7	23.4	0.00e+00	52	36	0	262144000	48	6180
2026-01-06 14:36:56.03	22.50	14.72	-37.7	-38.6	23.5	0.00e+00	92	36	0	264241152	48	6107
2026-01-06 14:36:57.04	22.52	14.83	-37.6	-38.5	23.7	0.00e+00	0	36	0	266338304	48	6041
2026-01-06 14:36:58.05	22.54	14.94	-37.7	-38.6	23.5	0.00e+00	92	36	0	267386880	48	6126
2026-01-06 14:36:59.06	22.55	15.04	-37.6	-38.5	23.6	0.00e+00	0	35	0	269484032	48	6066
2026-01-06 14:37:00.07	22.57	15.15	-37.8	-38.7	23.4	0.00e+00	0	36	0	271581184	48	6199
2026-01-06 14:37:01.07	22.59	15.26	-37.6	-38.5	23.6	0.00e+00	0	36	0	273678336	48	6050
2026-01-06 14:37:02.08	22.61	15.37	-37.6	-38.4	23.6	0.00e+00	0	36	0	275775488	48	6030
2026-01-06 14:37:03.09	22.62	15.47	-37.6	-38.5	23.6	0.00e+00	92	36	0	277872640	48	6056
2026-01-06 14:37:04.10	22.64	15.58	-37.6	-38.5	23.6	0.00e+00	0	36	0	278921216	48	6100
2026-01-06 14:37:05.11	22.66	15.69	-37.6	-38.5	23.6	0.00e+00	90	36	0	281018368	48	6080
2026-01-06 14:37:06.12	22.68	15.80	-37.7	-38.6	23.6	0.00e+00	3	36	0	283115520	48	6131
2026-01-06 14:37:07.13	22.70	15.91	-37.8	-38.7	23.4	0.00e+00	0	36	0	285212672	48	6225
2026-01-06 14:37:08.14	22.72	16.03	-37.9	-38.9	23.3	0.00e+00	58	36	0	287309824	48	6332
2026-01-06 14:37:09.15	22.73	16.14	-37.6	-38.5	23.6	0.00e+00	58	36	0	288358400	48	6083
2026-01-06 14:37:10.16	22.75	16.25	-37.7	-38.6	23.5	0.00e+00	1	36	0	290455552	48	6107
2026-01-06 14:37:11.17	22.77	16.36	-37.6	-38.5	23.6	0.00e+00	53	36	0	292552704	48	6078
2026-01-06 14:37:12.18	22.79	16.48	-37.6	-38.5	23.6	0.00e+00	91	36	0	294649856	48	6064
2026-01-06 14:37:13.19	22.81	16.59	-37.7	-38.6	23.5	0.00e+00	53	36	0	296747008	48	6162
2026-01-06 14:37:14.20	22.83	16.70	-37.7	-38.6	23.5	0.00e+00	92	35	0	297795584	48	6142
2026-01-06 14:37:15.21	22.85	16.82	-37.6	-38.5	23.6	0.00e+00	0	36	0	299892736	48	6075
2026-01-06 14:37:16.22	22.87	16.93	-37.8	-38.7	23.5	0.00e+00	0	36	0	301989888	48	6215
2026-01-06 14:37:17.23	22.89	17.05	-37.7	-38.6	23.6	0.00e+00	0	36	0	304087040	48	6127
2026-01-06 14:37:18.23	22.91	17.17	-37.8	-38.7	23.5	0.00e+00	0	36	0	306184192	48	6226
2026-01-06 14:37:19.24	22.93	17.28	-37.8	-38.8	23.5	0.00e+00	92	36	0	307232768	48	6254
2026-01-06 14:37:20.25	22.95	17.40	-37.8	-38.7	23.5	0.00e+00	0	36	0	309329920	48	6215
2026-01-06 14:37:21.26	22.97	17.52	-37.8	-38.7	23.5	0.00e+00	90	36	0	311427072	48	6227
2026-01-06 14:37:22.27	22.99	17.64	-37.8	-38.7	23.5	0.00e+00	2	36	0	313524224	48	6244
2026-01-06 14:37:23.28	23.01	17.76	-37.8	-38.7	23.5	0.00e+00	0	36	0	315621376	48	6231
2026-01-06 14:37:24.29	23.03	17.88	-37.9	-38.8	23.4	0.00e+00	0	36	0	316669952	48	6267
2026-01-06 14:37:25.30	23.05	18.00	-38.0	-38.9	23.3	0.00e+00	0	36	0	318767104	48	6336
2026-01-06 14:37:26.31	23.07	18.12	-37.9	-38.9	23.3	0.00e+00	2	36	0	320864256	48	6322
2026-01-06 14:37:27.32	23.09	18.24	-37.9	-38.8	23.4	0.00e+00	0	36	0	322961408	48	6293
2026-01-06 14:37:28.33	23.11	18.36	-38.0	-38.9	23.3	0.00e+00	91	36	0	325058560	48	6337
2026-01-06 14:37:29.34	23.13	18.49	-38.0	-39.0	23.3	0.00e+00	54	36	0	326107136	48	6391
2026-01-06 14:37:30.34	23.15	18.61	-38.0	-39.0	23.3	0.00e+00	2	36	0	328204288	48	6398
2026-01-06 14:37:31.35	23.17	18.73	-38.0	-38.9	23.4	0.00e+00	0	36	0	330301440	48	6335
2026-01-06 14:37:32.36	23.19	18.86	-38.0	-39.0	23.3	0.00e+00	22	36	0	332398592	48	6393
2026-01-06 14:37:33.37	23.21	18.98	-38.1	-39.0	23.2	0.00e+00	22	36	0	334495744	48	6443
2026-01-06 14:37:34.38	23.24	19.11	-38.1	-39.0	23.2	0.00e+00	52	36	0	335544320	48	6432
2026-01-06 14:37:35.39	23.26	19.24	-38.1	-39.1	23.1	0.00e+00	92	36	0	337641472	48	6488
2026-01-06 14:37:36.40	23.28	19.36	-38.5	-39.4	23.0	0.00e+00	5	36	0	339738624	48	6750
2026-01-06 14:37:37.41	23.30	19.49	-38.1	-39.0	23.2	0.00e+00	92	36	0	341835776	48	6460
2026-01-06 14:37:38.42	23.32	19.62	-38.2	-39.1	23.2	0.00e+00	0	36	0	343932928	48	6508
2026-01-06 14:37:39.43	23.35	19.75	-38.3	-39.2	23.1	0.00e+00	1	36	0	346030080	48	6570
2026-01-06 14:37:40.44	23.37	19.88	-38.2	-39.2	23.1	0.00e+00	3	36	0	347078656	48	6547
2026-01-06 14:37:41.45	23.39	20.01	-38.3	-39.2	23.1	0.00e+00	0	36	0	349175808	48	6592
2026-01-06 14:37:42.46	23.41	20.14	-38.2	-39.2	23.1	0.00e+00	92	36	0	351272960	48	6563
2026-01-06 14:37:43.47	23.44	20.27	-38.4	-39.4	23.0	0.00e+00	0	36	0	353370112	48	6700
2026-01-06 14:37:44.47	23.46	20.41	-38.4	-39.4	23.0	0.00e+00	92	36	0	354418688	48	6697
2026-01-06 14:37:45.48	23.48	20.54	-38.4	-39.3	22.9	0.00e+00	0	36	0	356515840	48	6661
2026-01-06 14:37:46.49	23.51	20.67	-38.3	-39.3	23.0	0.00e+00	0	36	0	358612992	48	6636
2026-01-06 14:37:47.50	23.53	20.81	-38.4	-39.4	22.9	0.00e+00	0	36	0	360710144	48	6721
2026-01-06 14:37:48.51	23.55	20.94	-38.4	-39.4	22.9	0.00e+00	0	36	0	362807296	48	6720
2026-01-06 14:37:49.52	23.58	21.08	-38.4	-39.4	22.9	0.00e+00	46	36	0	363855872	48	6707
2026-01-06 14:37:50.53	23.60	21.22	-38.5	-39.5	22.8	0.00e+00	56	36	0	365953024	48	6792
2026-01-06 14:37:51.54	23.63	21.36	-38.5	-39.5	22.8	0.00e+00	92	36	0	368050176	48	6805
2026-01-06 14:37:52.55	23.65	21.49	-38.6	-39.5	22.9	0.00e+00	30	36	0	370147328	48	6847
2026-01-06 14:37:53.56	23.68	21.63	-38.7	-39.7	22.8	0.00e+00	0	36	0	372244480	48	6928
2026-01-06 14:37:54.57	23.70	21.77	-38.6	-39.5	22.8	0.00e+00	57	36	0	374341632	48	6845
2026-01-06 14:37:55.58	23.73	21.91	-38.6	-39.6	22.8	0.00e+00	60	36	0	375390208	48	6853
2026-01-06 14:37:56.58	23.75	22.06	-38.6	-39.6	22.8	0.00e+00	77	36	0	377487360	48	6877
2026-01-06 14:37:57.59	23.78	22.20	-38.7	-39.7	22.7	0.00e+00	7	36	0	379584512	48	6992
2026-01-06 14:37:58.60	23.80	22.34	-38.6	-39.6	22.8	0.00e+00	90	36	0	381681664	50	6127
2026-01-06 14:37:59.61	23.83	22.49	-38.6	-39.6	22.7	0.00e+00	6	36	0	383778816	50	6153
2026-01-06 14:38:00.62	23.85	22.63	-38.7	-39.7	22.7	0.00e+00	92	36	0	384827392	50	6202
2026-01-06 14:38:01.63	23.88	22.78	-38.8	-39.8	22.6	0.00e+00	0	36	0	386924544	50	6253
2026-01-06 14:38:02.64	23.91	22.92	-38.9	-39.9	22.5	0.00e+00	0	36	0	389021696	50	6387
2026-01-06 14:38:03.65	23.93	23.07	-38.7	-39.7	22.7	0.00e+00	7	36	0	391118848	50	6196
2026-01-06 14:38:04.66	23.96	23.22	-38.7	-39.7	22.7	0.00e+00	0	36	0	393216000	50	6239
2026-01-06 14:38:05.66	23.99	23.37	-38.7	-39.7	22.7	0.00e+00	92	36	0	394264576	50	6219
2026-01-06 14:38:06.67	24.01	23.52	-38.7	-39.6	22.6	0.00e+00	0	36	0	396361728	50	6172
2026-01-06 14:38:07.68	24.04	23.67	-38.8	-39.8	22.5	0.00e+00	92	36	0	398458880	50	6302
2026-01-06 14:38:08.69	24.07	23.82	-38.9	-39.9	22.6	0.00e+00	31	36	0	400556032	50	6353
2026-01-06 14:38:09.70	24.10	23.97	-38.7	-39.7	22.7	0.00e+00	0	36	0	402653184	50	6196
2026-01-06 14:38:10.71	24.13	24.13	-38.8	-39.8	22.6	0.00e+00	29	36	0	403701760	50	6257
2026-01-06 14:38:11.72	24.15	24.28	-38.6	-39.6	22.7	0.00e+00	0	36	0	405798912	50	6109
2026-01-06 14:38:12.73	24.18	24.44	-38.6	-39.5	22.9	0.00e+00	92	36	0	407896064	50	6093
2026-01-06 14:38:13.74	24.21	24.59	-38.5	-39.4	23.0	0.00e+00	31	36	0	409993216	50	6016
2026-01-06 14:38:14.75	24.24	24.75	-38.4	-39.4	23.0	0.00e+00	90	36	0	412090368	50	5988
2026-01-06 14:38:15.76	24.27	24.91	-38.4	-39.4	23.0	0.00e+00	51	36	0	413138944	50	5999
2026-01-06 14:38:16.77	24.30	25.07	-38.3	-39.3	23.1	0.00e+00	92	36	0	415236096	50	5927
2026-01-06 14:38:17.78	24.33	25.23	-38.3	-39.3	23.1	0.00e+00	52	36	0	417333248	50	5908
2026-01-06 14:38:18.78	24.36	25.39	-38.1	-39.0	23.4	0.00e+00	50	36	0	419430400	50	5749
2026-01-06 14:38:19.79	24.39	25.55	-38.2	-39.1	23.2	0.00e+00	65	36	0	421527552	50	5804
2026-01-06 14:38:20.81	24.42	25.71	-38.2	-39.1	23.3	0.00e+00	51	36	0	422576128	50	5799
2026-01-06 14:38:21.81	24.45	25.87	-38.3	-39.2	23.2	0.00e+00	92	36	0	424673280	50	5867
2026-01-06 14:38:22.82	24.48	26.04	-38.3	-39.2	23.2	0.00e+00	52	36	0	426770432	50	5881
2026-01-06 14:38:23.83	24.52	26.21	-38.2	-39.1	23.3	0.00e+00	92	36	0	428867584	50	5807
2026-01-06 14:38:24.84	24.55	26.37	-38.3	-39.2	23.2	0.00e+00	0	36	0	430964736	50	5856
2026-01-06 14:38:25.85	24.58	26.54	-38.3	-39.2	23.2	0.00e+00	0	36	0	432013312	50	5871
2026-01-06 14:38:26.86	24.61	26.71	-38.2	-39.1	23.3	0.00e+00	0	36	0	434110464	50	5781
2026-01-06 14:38:27.87	24.65	26.88	-38.1	-39.1	23.3	0.00e+00	0	36	0	436207616	50	5765
2026-01-06 14:38:28.88	24.68	27.05	-38.2	-39.2	23.2	0.00e+00	92	36	0	438304768	50	5834
2026-01-06 14:38:29.89	24.71	27.22	-38.2	-39.2	23.2	0.00e+00	0	36	0	440401920	50	5857
2026-01-06 14:38:30.90	24.75	27.40	-38.4	-39.3	23.0	0.00e+00	92	36	0	442499072	50	5960
2026-01-06 14:38:31.91	24.78	27.57	-38.3	-39.3	23.1	0.00e+00	30	36	0	443547648	50	5906
2026-01-06 14:38:32.92	24.81	27.75	-38.5	-39.5	22.9	0.00e+00	31	36	0	445644800	50	6064
2026-01-06 14:38:33.92	24.85	27.92	-38.6	-39.5	22.9	0.00e+00	0	36	0	447741952	50	6094
2026-01-06 14:38:34.93	24.88	28.10	-38.5	-39.4	23.0	0.00e+00	0	36	0	449839104	50	6023
2026-01-06 14:38:35.94	24.92	28.28	-38.6	-39.6	22.8	0.00e+00	15	36	0	451936256	50	6111
2026-01-06 14:38:36.94	24.95	28.46	-38.8	-39.8	22.7	0.00e+00	25	36	0	452984832	50	6262
2026-01-06 14:38:37.95	24.99	28.64	-38.9	-39.9	22.6	0.00e+00	90	36	0	455081984	50	6347
2026-01-06 14:38:38.96	25.03	28.82	-38.8	-39.8	22.6	0.00e+00	56	36	0	457179136	50	6308
2026-01-06 14:38:39.97	25.06	29.01	-38.9	-39.9	22.6	0.00e+00	90	36	0	459276288	50	6361
2026-01-06 14:38:40.98	25.10	29.19	-39.1	-40.1	22.2	0.00e+00	2	36	0	461373440	50	6511
2026-01-06 14:38:41.99	25.14	29.38	-39.1	-40.2	22.3	0.00e+00	0	36	0	462422016	50	6544
2026-01-06 14:38:43.00	25.18	29.57	-39.2	-40.2	22.3	0.00e+00	0	36	0	464519168	50	6602
2026-01-06 14:38:44.01	25.21	29.75	-39.4	-40.4	22.1	0.00e+00	2	36	0	466616320	50	6730
2026-01-06 14:38:45.02	25.25	29.94	-39.5	-40.6	21.9	0.00e+00	92	36	0	468713472	50	6896
2026-01-06 14:38:46.02	25.29	30.13	-39.5	-40.6	22.0	0.00e+00	51	36	0	470810624	50	6862
2026-01-06 14:38:47.03	25.33	30.33	-39.7	-40.8	21.7	0.00e+00	90	36	0	471859200	50	7028
2026-01-06 14:38:48.04	25.37	30.52	-39.8	-41.0	21.7	0.00e+00	2	36	0	473956352	52	6401
2026-01-06 14:38:49.05	25.41	30.71	-39.9	-41.0	21.6	0.00e+00	0	36	0	476053504	52	6425
2026-01-06 14:38:50.06	25.45	30.91	-39.9	-41.0	21.7	0.00e+00	0	36	0	478150656	52	6417
2026-01-06 14:38:51.07	25.49	31.11	-39.8	-40.9	21.6	0.00e+00	0	36	0	480247808	52	6367
2026-01-06 14:38:52.08	25.54	31.31	-39.9	-41.0	21.6	0.00e+00	91	36	0	481296384	52	6441
2026-01-06 14:38:53.09	25.58	31.51	-39.9	-41.1	21.5	0.00e+00	0	36	0	483393536	52	6472
2026-01-06 14:38:54.10	25.62	31.71	-40.0	-41.1	21.5	0.00e+00	91	36	0	485490688	52	6514
2026-01-06 14:38:55.11	25.66	31.91	-40.0	-41.2	21.5	0.00e+00	0	36	0	487587840	52	6544
2026-01-06 14:38:56.11	25.71	32.12	-40.0	-41.1	21.5	0.00e+00	88	36	0	489684992	52	6525
2026-01-06 14:38:57.12	25.75	32.32	-40.0	-41.1	21.5	0.00e+00	0	36	0	490733568	52	6508
2026-01-06 14:38:58.13	25.80	32.53	-39.8	-40.9	21.7	0.00e+00	0	36	0	492830720	52	6346
2026-01-06 14:38:59.14	25.84	32.74	-39.8	-40.9	21.7	0.00e+00	0	36	0	494927872	52	6340
2026-01-06 14:39:00.15	25.89	32.95	-39.7	-40.8	21.8	0.00e+00	49	36	0	497025024	52	6264
2026-01-06 14:39:01.16	25.93	33.16	-39.7	-40.8	21.9	0.00e+00	91	36	0	499122176	52	6253
2026-01-06 14:39:02.17	25.98	33.37	-39.2	-40.3	22.3	0.00e+00	33	36	0	500170752	52	5900
2026-01-06 14:39:03.18	26.03	33.59	-39.2	-40.2	22.1	0.00e+00	49	36	0	502267904	52	5868
2026-01-06 14:39:04.19	26.08	33.80	-39.2	-40.2	22.3	0.00e+00	48	36	0	504365056	52	5858
2026-01-06 14:39:05.20	26.13	34.02	-38.8	-39.8	22.8	0.00e+00	49	36	0	506462208	52	5583
2026-01-06 14:39:06.21	26.17	34.24	-38.3	-39.3	23.2	0.00e+00	0	36	0	508559360	50	5903
2026-01-06 14:39:07.22	26.22	34.46	-38.2	-39.2	23.3	0.00e+00	0	36	0	509607936	50	5829
2026-01-06 14:39:08.23	26.27	34.68	-38.0	-38.9	23.5	0.00e+00	92	36	0	511705088	50	5632
2026-01-06 14:39:09.23	26.33	34.90	-38.1	-39.0	23.4	0.00e+00	0	36	0	513802240	50	5730
2026-01-06 14:39:10.24	26.38	35.13	-37.7	-38.6	23.8	0.00e+00	92	36	0	515899392	48	6112
2026-01-06 14:39:11.25	26.43	35.36	-37.6	-38.5	23.9	0.00e+00	0	36	0	517996544	48	6055
2026-01-06 14:39:12.26	26.48	35.59	-37.6	-38.4	23.9	0.00e+00	0	36	0	519045120	48	6030
2026-01-06 14:39:13.27	26.54	35.82	-37.5	-38.4	23.9	0.00e+00	0	36	0	521142272	48	6005
2026-01-06 14:39:14.28	26.59	36.05	-37.6	-38.4	23.9	0.00e+00	0	36	0	523239424	48	6015
2026-01-06 14:39:15.29	26.65	36.28	-37.5	-38.4	23.9	0.00e+00	27	36	0	525336576	48	5983
2026-01-06 14:39:16.30	26.70	36.52	-37.4	-38.2	24.0	0.00e+00	30	36	0	527433728	48	5880
2026-01-06 14:39:17.31	26.76	36.75	-37.3	-38.2	24.1	0.00e+00	92	36	0	528482304	48	5845
2026-01-06 14:39:18.32	26.82	36.99	-37.3	-38.1	24.1	0.00e+00	32	36	0	530579456	48	5816
2026-01-06 14:39:19.33	26.87	37.23	-37.2	-38.0	24.2	0.00e+00	32	36	0	532676608	48	5719
2026-01-06 14:39:20.33	26.93	37.47	-37.1	-37.9	24.2	0.00e+00	33	36	0	534773760	48	5650
2026-01-06 14:39:21.34	26.99	37.72	-37.1	-37.9	23.9	0.00e+00	52	36	0	536870912	48	5665
2026-01-06 14:39:22.35	27.05	37.96	-37.1	-37.9	24.3	0.00e+00	0	36	0	538968064	48	5652
2026-01-06 14:39:23.36	27.11	38.21	-37.2	-38.1	24.2	0.00e+00	0	36	0	540016640	48	5779
2026-01-06 14:39:24.37	27.18	38.46	-37.3	-38.2	24.1	0.00e+00	90	36	0	542113792	48	5845
2026-01-06 14:39:25.38	27.24	38.71	-37.5	-38.4	24.0	0.00e+00	49	36	0	544210944	48	6001
2026-01-06 14:39:26.39	27.31	38.96	-37.7	-38.6	23.7	0.00e+00	92	36	0	546308096	48	6130
2026-01-06 14:39:27.40	27.37	39.22	-37.9	-38.8	23.5	0.00e+00	48	36	0	548405248	48	6315
2026-01-06 14:39:28.41	27.44	39.47	-38.2	-39.1	23.5	0.00e+00	48	36	0	549453824	48	6499
2026-01-06 14:39:29.42	27.50	39.73	-38.2	-39.1	23.2	0.00e+00	0	36	0	551550976	48	6529
2026-01-06 14:39:30.43	27.57	39.99	-38.4	-39.3	23.2	0.00e+00	5	36	0	553648128	48	6660
2026-01-06 14:39:31.44	27.64	40.25	-38.7	-39.7	22.9	0.00e+00	92	36	0	555745280	48	6951
2026-01-06 14:39:32.45	27.71	40.52	-38.7	-39.7	22.8	0.00e+00	0	36	0	557842432	48	6953
2026-01-06 14:39:33.45	27.78	40.78	-38.7	-39.6	22.8	0.00e+00	90	36	0	558891008	50	6171
2026-01-06 14:39:34.46	27.85	41.05	-38.8	-39.8	22.7	0.00e+00	7	36	0	560988160	50	6279
2026-01-06 14:39:35.47	27.93	41.32	-38.8	-39.8	22.6	0.00e+00	0	36	0	563085312	50	6291
2026-01-06 14:39:36.48	28.00	41.59	-38.7	-39.6	22.8	0.00e+00	0	36	0	565182464	50	6168
2026-01-06 14:39:37.49	28.08	41.87	-38.8	-39.8	22.8	0.00e+00	6	36	0	567279616	50	6266
2026-01-06 14:39:38.50	28.16	42.14	-38.8	-39.8	22.7	0.00e+00	65	36	0	568328192	50	6269
2026-01-06 14:39:39.52	28.24	42.42	-38.8	-39.8	22.8	0.00e+00	25	36	0	570425344	50	6270
2026-01-06 14:39:40.52	28.31	42.70	-38.7	-39.7	22.8	0.00e+00	92	36	0	572522496	50	6206
2026-01-06 14:39:41.53	28.40	42.98	-38.1	-39.0	23.5	0.00e+00	27	36	0	574619648	50	5755
2026-01-06 14:39:42.54	28.48	43.27	-37.9	-38.8	23.7	0.00e+00	92	36	0	576716800	50	5625
2026-01-06 14:39:43.55	28.56	43.55	-37.9	-38.8	23.7	0.00e+00	60	36	0	577765376	50	5584
2026-01-06 14:39:44.56	28.65	43.84	-37.9	-38.8	23.7	0.00e+00	56	36	0	579862528	50	5573
2026-01-06 14:39:45.57	28.73	44.13	-38.0	-38.9	23.5	0.00e+00	0	36	0	581959680	50	5647
2026-01-06 14:39:46.58	28.82	44.42	-38.3	-39.2	23.2	0.00e+00	52	36	0	584056832	50	5851
2026-01-06 14:39:47.59	28.91	44.72	-38.6	-39.6	22.9	0.00e+00	92	36	0	586153984	50	6117
2026-01-06 14:39:48.59	29.00	45.01	-38.9	-39.9	22.3	0.00e+00	54	36	0	587202560	50	6384
2026-01-06 14:39:49.60	29.10	45.31	-39.6	-40.6	21.9	0.00e+00	92	36	0	589299712	50	6917
2026-01-06 14:39:50.61	29.19	45.61	-39.8	-40.9	21.7	0.00e+00	7	36	0	591396864	50	7118
2026-01-06 14:39:51.62	29.29	45.92	-39.9	-41.1	21.7	0.00e+00	55	36	0	593494016	52	6465
2026-01-06 14:39:52.63	29.39	46.22	-39.8	-40.9	21.7	0.00e+00	5	36	0	595591168	52	6367
2026-01-06 14:39:53.64	29.49	46.53	-40.0	-41.1	21.6	0.00e+00	7	36	0	596639744	52	6525
2026-01-06 14:39:54.65	29.59	46.84	-40.1	-41.2	21.5	0.00e+00	92	36	0	598736896	52	6591
2026-01-06 14:39:55.66	29.69	47.15	-39.7	-40.8	21.8	0.00e+00	0	36	0	600834048	52	6311
2026-01-06 14:39:56.67	29.80	47.47	-39.5	-40.5	22.2	0.00e+00	92	36	0	602931200	52	6082
2026-01-06 14:39:57.68	29.91	47.78	-39.5	-40.6	22.0	0.00e+00	0	36	0	605028352	52	6125
2026-01-06 14:39:58.68	30.02	48.10	-39.4	-40.4	22.1	0.00e+00	33	36	0	607125504	52	5997
2026-01-06 14:39:59.69	30.13	48.42	-39.2	-40.2	22.4	0.00e+00	0	36	0	608174080	52	5850
2026-01-06 14:40:00.69	30.24	48.74	-39.3	-40.3	22.3	0.00e+00	0	36	0	610271232	52	5951
2026-01-06 14:40:01.70	30.36	49.06	-39.0	-40.0	22.6	0.00e+00	0	36	0	612368384	52	5707
2026-01-06 14:40:02.71	30.48	49.39	-38.8	-39.7	23.0	0.00e+00	33	36	0	614465536	52	5561
2026-01-06 14:40:03.72	30.60	49.72	-38.2	-39.1	23.4	0.00e+00	90	36	0	615514112	50	5826
2026-01-06 14:40:04.73	30.73	50.06	-38.1	-39.0	23.4	0.00e+00	32	36	0	617611264	50	5747
2026-01-06 14:40:05.73	30.86	50.39	-37.7	-38.6	23.9	0.00e+00	91	36	0	619708416	48	6123
2026-01-06 14:40:06.74	30.99	50.72	-37.2	-38.1	24.4	0.00e+00	54	36	0	621805568	48	5766
2026-01-06 14:40:07.75	31.12	51.06	-36.6	-37.4	24.9	0.00e+00	54	36	0	623902720	46	6008
2026-01-06 14:40:08.76	31.26	51.41	-36.4	-37.2	25.1	0.00e+00	75	36	0	624951296	46	5864
2026-01-06 14:40:09.77	31.39	51.75	-35.7	-36.5	25.7	0.00e+00	53	36	0	627048448	46	5389
2026-01-06 14:40:10.78	31.54	52.10	-35.0	-35.7	26.0	0.00e+00	90	36	0	629145600	44	5562
2026-01-06 14:40:11.79	31.68	52.45	-34.7	-35.4	26.5	0.00e+00	54	36	0	631242752	42	5995
2026-01-06 14:40:12.80	31.83	52.80	-34.4	-35.1	26.6	0.00e+00	92	36	0	633339904	42	5783
2026-01-06 14:40:13.81	31.98	53.15	-34.3	-35.0	26.7	0.00e+00	51	36	0	635437056	42	5719
2026-01-06 14:40:14.82	32.14	53.51	-34.2	-34.9	26.8	0.00e+00	54	36	0	636485632	42	5662
2026-01-06 14:40:15.83	32.30	53.87	-34.2	-34.9	26.6	0.00e+00	0	36	0	638582784	42	5687
2026-01-06 14:40:16.83	32.46	54.22	-34.2	-34.9	26.6	0.00e+00	0	36	0	640679936	42	5668
2026-01-06 14:40:17.84	32.63	54.58	-34.4	-35.1	26.6	0.00e+00	85	36	0	642777088	42	5777
2026-01-06 14:40:18.85	32.80	54.95	-34.5	-35.2	26.7	0.00e+00	2	36	0	644874240	42	5832
2026-01-06 14:40:19.86	32.98	55.32	-34.6	-35.3	26.4	0.00e+00	92	36	0	645922816	42	5910
2026-01-06 14:40:20.87	33.16	55.69	-34.6	-35.3	26.4	0.00e+00	0	36	0	648019968	42	5955
2026-01-06 14:40:21.88	33.35	56.06	-34.8	-35.5	26.3	0.00e+00	68	36	0	650117120	42	6090
2026-01-06 14:40:22.89	33.54	56.43	-35.3	-36.0	25.9	0.00e+00	32	36	0	652214272	42	6461
2026-01-06 14:40:23.90	33.73	56.81	-35.5	-36.3	25.7	0.00e+00	34	36	0	654311424	42	6651
2026-01-06 14:40:24.91	33.94	57.19	-35.9	-36.6	25.3	0.00e+00	33	36	0	655360000	44	6158
2026-01-06 14:40:25.92	34.14	57.57	-35.9	-36.6	25.3	0.00e+00	0	36	0	657457152	44	6157
2026-01-06 14:40:26.93	34.36	57.95	-36.1	-36.9	25.2	0.00e+00	92	36	0	659554304	44	6347
2026-01-06 14:40:27.94	34.57	58.34	-36.1	-36.9	25.1	0.00e+00	49	36	0	661651456	44	6380
2026-01-06 14:40:28.95	34.80	58.73	-36.2	-37.0	25.1	0.00e+00	92	36	0	663748608	44	6411
2026-01-06 14:40:29.96	35.03	59.11	-36.1	-36.9	25.2	0.00e+00	33	36	0	664797184	44	6376
2026-01-06 14:40:30.97	35.27	59.51	-35.9	-36.6	25.3	0.00e+00	48	36	0	666894336	44	6149
2026-01-06 14:40:31.98	35.52	59.90	-35.5	-36.2	25.8	0.00e+00	57	36	0	668991488	44	5886
2026-01-06 14:40:32.99	35.77	60.30	-35.7	-36.5	25.6	0.00e+00	48	36	0	671088640	44	6045
2026-01-06 14:40:34.00	36.03	60.69	-35.2	-36.0	25.8	0.00e+00	92	36	0	673185792	44	5697
2026-01-06 14:40:35.01	36.30	61.09	-34.8	-35.5	26.3	0.00e+00	0	36	0	674234368	44	5415
2026-01-06 14:40:36.02	36.58	61.49	-34.7	-35.4	26.3	0.00e+00	90	36	0	676331520	44	5357
2026-01-06 14:40:37.02	36.86	61.89	-34.8	-35.5	26.2	0.00e+00	2	36	0	678428672	42	6073
2026-01-06 14:40:38.03	37.16	62.30	-35.1	-35.8	25.7	0.00e+00	0	36	0	680525824	42	6276
2026-01-06 14:40:39.04	37.47	62.71	-35.2	-35.9	26.0	0.00e+00	2	36	0	682622976	42	6373
2026-01-06 14:40:40.05	37.78	63.12	-35.3	-36.1	25.8	0.00e+00	0	36	0	683671552	42	6478
2026-01-06 14:40:41.06	38.11	63.53	-35.7	-36.4	25.5	0.00e+00	92	36	0	685768704	44	6023
2026-01-06 14:40:42.07	38.45	63.94	-36.2	-37.0	25.1	0.00e+00	0	36	0	687865856	44	6406
2026-01-06 14:40:43.08	38.80	64.35	-36.6	-37.4	24.8	0.00e+00	92	36	0	689963008	44	6733
2026-01-06 14:40:44.09	39.17	64.77	-36.9	-37.8	24.5	0.00e+00	28	36	0	692060160	46	6247
2026-01-06 14:40:45.10	39.54	65.18	-37.3	-38.2	24.1	0.00e+00	44	36	0	694157312	46	6569
2026-01-06 14:40:46.10	39.93	65.60	-37.6	-38.4	23.9	0.00e+00	0	36	0	695205888	46	6759
2026-01-06 14:40:47.11	40.34	66.01	-37.6	-38.5	23.4	0.00e+00	0	36	0	697303040	46	6807
2026-01-06 14:40:48.13	40.77	66.44	-38.2	-39.1	23.3	0.00e+00	0	36	0	699400192	48	6480
2026-01-06 14:40:49.13	41.20	66.86	-38.6	-39.6	22.8	0.00e+00	47	36	0	701497344	48	6863
2026-01-06 14:40:50.14	41.66	67.28	-38.6	-39.6	22.8	0.00e+00	92	36	0	703594496	50	6161
2026-01-06 14:40:51.15	42.13	67.70	-38.7	-39.7	22.8	0.00e+00	0	36	0	704643072	50	6183
2026-01-06 14:40:52.16	42.63	68.12	-38.4	-39.3	23.1	0.00e+00	92	36	0	706740224	50	5955
2026-01-06 14:40:53.17	43.15	68.55	-38.0	-38.9	23.5	0.00e+00	46	36	0	708837376	50	5652
2026-01-06 14:40:54.18	43.69	68.97	-37.9	-38.8	23.6	0.00e+00	46	36	0	710934528	50	5583
2026-01-06 14:40:55.19	44.25	69.39	-37.6	-38.5	23.5	0.00e+00	0	36	0	713031680	48	6044
2026-01-06 14:40:56.20	44.84	69.82	-37.3	-38.1	24.1	0.00e+00	0	36	0	714080256	48	5805
2026-01-06 14:40:57.21	45.45	70.24	-37.5	-38.4	23.8	0.00e+00	92	36	0	716177408	48	5967
2026-01-06 14:40:58.22	46.10	70.67	-37.5	-38.4	23.9	0.00e+00	0	36	0	718274560	48	5991
2026-01-06 14:40:59.23	46.77	71.09	-37.8	-38.7	23.8	0.00e+00	53	36	0	720371712	48	6177
2026-01-06 14:41:00.23	47.47	71.51	-38.3	-39.2	23.1	0.00e+00	2	36	0	722468864	48	6604
2026-01-06 14:41:01.24	48.21	71.93	-38.7	-39.7	22.8	0.00e+00	0	36	0	723517440	50	6238
2026-01-06 14:41:02.25	48.99	72.35	-38.6	-39.6	22.9	0.00e+00	0	36	0	725614592	50	6115
2026-01-06 14:41:03.27	49.82	72.77	-38.5	-39.5	22.9	0.00e+00	0	36	0	727711744	50	6084
2026-01-06 14:41:04.27	50.67	73.18	-39.2	-40.2	22.1	0.00e+00	78	36	0	729808896	50	6567
2026-01-06 14:41:05.28	51.58	73.60	-40.4	-41.6	21.0	0.00e+00	31	36	0	731906048	52	6860
2026-01-06 14:41:06.29	52.54	74.01	-41.1	-42.5	20.2	0.00e+00	92	36	0	732954624	54	6788
2026-01-06 14:41:07.30	53.55	74.42	-40.7	-42.0	20.7	0.00e+00	0	36	0	735051776	54	6410
2026-01-06 14:41:08.31	54.61	74.82	-39.7	-40.8	21.8	0.00e+00	91	36	0	737148928	52	6257
2026-01-06 14:41:09.31	55.72	75.22	-39.4	-40.5	22.0	0.00e+00	0	36	0	739246080	52	6066
2026-01-06 14:41:10.32	56.91	75.62	-39.8	-40.9	21.6	0.00e+00	0	36	0	741343232	52	6352
2026-01-06 14:41:11.33	58.17	76.01	-40.0	-41.1	21.3	0.00e+00	0	36	0	742391808	52	6487
2026-01-06 14:41:12.34	59.50	76.39	-40.6	-41.8	20.8	0.00e+00	53	36	0	744488960	52	7029
2026-01-06 14:41:13.35	60.91	76.77	-41.4	-42.8	19.6	0.00e+00	92	36	0	746586112	54	7034
2026-01-06 14:41:14.36	62.41	77.14	-41.7	-43.2	19.5	0.00e+00	0	36	0	748683264	56	6557
2026-01-06 14:41:15.37	64.00	77.51	-41.4	-42.8	19.9	0.00e+00	59	36	0	750780416	56	6256
2026-01-06 14:41:16.38	65.68	77.86	-40.9	-42.1	20.6	0.00e+00	48	36	0	751828992	56	5824
2026-01-06 14:41:17.39	67.46	78.21	-40.1	-41.2	21.5	0.00e+00	47	36	0	753926144	54	5843
2026-01-06 14:41:18.40	69.36	78.54	-39.2	-40.2	22.6	0.00e+00	49	36	0	756023296	52	5885
2026-01-06 14:41:19.41	71.36	78.86	-38.5	-39.4	23.1	0.00e+00	48	36	0	758120448	50	6027
2026-01-06 14:41:20.42	73.49	79.17	-38.4	-39.3	23.1	0.00e+00	91	36	0	760217600	50	5956
2026-01-06 14:41:21.43	75.74	79.46	-39.1	-40.1	22.4	0.00e+00	0	36	0	761266176	50	6492
2026-01-06 14:41:22.44	78.11	79.74	-38.0	-38.9	23.5	0.00e+00	92	36	0	763363328	50	5658
2026-01-06 14:41:23.45	80.62	80.00	-37.9	-38.8	23.7	0.00e+00	0	36	0	765460480	48	6284
2026-01-06 14:41:24.46	83.26	80.24	-37.3	-38.2	24.1	0.00e+00	0	36	0	767557632	48	5834
2026-01-06 14:41:25.47	86.02	80.45	-37.2	-38.0	24.3	0.00e+00	5	36	0	769654784	48	5731
2026-01-06 14:41:26.48	88.91	80.65	-37.7	-38.6	23.6	0.00e+00	0	36	0	771751936	48	6116
2026-01-06 14:41:27.49	91.91	80.82	-38.0	-38.9	23.4	0.00e+00	71	36	0	772800512	48	6382
2026-01-06 14:41:28.50	95.03	80.97	-37.8	-38.7	23.6	0.00e+00	0	36	0	774897664	48	6187
2026-01-06 14:41:29.51	98.23	81.09	-37.8	-38.7	23.6	0.00e+00	92	36	0	776994816	48	6216
2026-01-06 14:41:30.52	101.51	81.18	-37.9	-38.8	23.4	0.00e+00	0	36	0	779091968	48	6298
2026-01-06 14:41:31.53	104.86	81.24	-37.7	-38.5	23.6	0.00e+00	53	36	0	781189120	48	6089
2026-01-06 14:41:32.54	108.23	81.27	-38.0	-38.9	23.5	0.00e+00	55	36	0	782237696	48	6355
2026-01-06 14:41:33.55	111.62	81.27	-38.8	-39.8	22.7	0.00e+00	52	36	0	784334848	48	7049
2026-01-06 14:41:34.56	115.01	81.24	-38.7	-39.7	22.7	0.00e+00	8	36	0	786432000	50	6226
2026-01-06 14:41:35.57	118.35	81.19	-38.7	-39.7	22.4	0.00e+00	33	36	0	788529152	50	6208
2026-01-06 14:41:36.58	121.65	81.10	-38.5	-39.4	23.0	0.00e+00	92	36	0	790626304	50	6027
2026-01-06 14:41:37.59	124.86	80.98	-38.2	-39.1	23.3	0.00e+00	0	36	0	791674880	50	5775
2026-01-06 14:41:38.60	127.99	80.84	-38.0	-38.9	23.4	0.00e+00	92	36	0	793772032	50	5686
2026-01-06 14:41:39.60	130.98	80.67	-37.7	-38.5	23.8	0.00e+00	8	36	0	795869184	50	5432
2026-01-06 14:41:40.61	133.89	80.48	-36.4	-37.2	25.0	0.00e+00	7	36	0	797966336	46	5880
2026-01-06 14:41:41.62	136.67	80.27	-36.2	-37.0	25.1	0.00e+00	1	36	0	800063488	46	5714
2026-01-06 14:41:42.63	139.32	80.03	-36.9	-37.8	24.4	0.00e+00	7	36	0	801112064	46	6269
2026-01-06 14:41:43.64	141.85	79.77	-37.2	-38.1	24.2	0.00e+00	92	36	0	803209216	46	6495
2026-01-06 14:41:44.65	144.24	79.50	-37.4	-38.2	24.0	0.00e+00	6	36	0	805306368	46	6595
2026-01-06 14:41:45.66	146.51	79.21	-37.4	-38.2	24.0	0.00e+00	92	36	0	807403520	46	6600
2026-01-06 14:41:46.67	148.65	78.90	-37.4	-38.2	24.1	0.00e+00	6	36	0	809500672	46	6600
2026-01-06 14:41:47.68	150.68	78.58	-38.2	-39.1	23.2	0.00e+00	33	36	0	810549248	48	6524
2026-01-06 14:41:48.69	152.59	78.25	-38.5	-39.5	22.8	0.00e+00	0	36	0	812646400	48	6785
2026-01-06 14:41:49.70	154.39	77.91	-38.5	-39.5	22.9	0.00e+00	33	36	0	814743552	48	6784
2026-01-06 14:41:50.71	156.08	77.55	-38.5	-39.5	23.1	0.00e+00	55	36	0	816840704	48	6802
2026-01-06 14:41:51.72	157.68	77.19	-38.7	-39.6	22.8	0.00e+00	0	36	0	818937856	50	6137
2026-01-06 14:41:52.73	159.19	76.82	-39.1	-40.1	22.4	0.00e+00	92	36	0	819986432	50	6496
2026-01-06 14:41:53.74	160.62	76.44	-39.1	-40.1	22.4	0.00e+00	49	36	0	822083584	50	6475
2026-01-06 14:41:54.75	161.96	76.06	-39.4	-40.4	21.9	0.00e+00	90	36	0	824180736	50	6766
2026-01-06 14:41:55.76	163.23	75.67	-40.2	-41.3	21.3	0.00e+00	33	36	0	826277888	52	6653
2026-01-06 14:41:56.76	164.41	75.27	-41.2	-42.6	20.0	0.00e+00	34	36	0	828375040	54	6872
2026-01-06 14:41:57.77	165.55	74.87	-41.2	-42.6	20.2	0.00e+00	33	36	0	829423616	54	6886
2026-01-06 14:41:58.78	166.62	74.47	-40.8	-42.0	20.7	0.00e+00	0	36	0	831520768	54	6463
2026-01-06 14:41:59.79	167.64	74.06	-40.2	-41.3	21.3	0.00e+00	91	36	0	833617920	54	5957
2026-01-06 14:42:00.80	168.60	73.65	-40.3	-41.5	21.2	0.00e+00	0	36	0	835715072	54	6089
2026-01-06 14:42:01.81	169.51	73.23	-39.9	-41.1	21.6	0.00e+00	90	36	0	837812224	54	5775
2026-01-06 14:42:02.82	170.38	72.82	-39.7	-40.7	21.7	0.00e+00	2	36	0	838860800	52	6239
2026-01-06 14:42:03.83	171.21	72.40	-38.8	-39.8	22.7	0.00e+00	0	36	0	840957952	52	5607
2026-01-06 14:42:04.84	171.99	71.98	-37.9	-38.8	23.7	0.00e+00	2	36	0	843055104	50	5570
2026-01-06 14:42:05.85	172.74	71.56	-37.9	-38.8	23.6	0.00e+00	0	36	0	845152256	48	6285
2026-01-06 14:42:06.85	173.44	71.14	-38.5	-39.4	23.0	0.00e+00	92	36	0	847249408	48	6757
2026-01-06 14:42:07.86	174.12	70.71	-38.4	-39.4	22.9	0.00e+00	0	36	0	848297984	48	6700
2026-01-06 14:42:08.87	174.77	70.29	-38.6	-39.5	22.8	0.00e+00	92	36	0	850395136	48	6832
2026-01-06 14:42:09.88	175.39	69.86	-38.8	-39.8	22.6	0.00e+00	0	36	0	852492288	50	6300
2026-01-06 14:42:10.89	175.98	69.44	-39.2	-40.3	22.1	0.00e+00	29	36	0	854589440	50	6619
2026-01-06 14:42:11.90	176.55	69.01	-40.2	-41.4	21.1	0.00e+00	0	36	0	856686592	52	6751
2026-01-06 14:42:12.91	177.09	68.59	-40.5	-41.7	21.1	0.00e+00	28	36	0	858783744	52	6967
2026-01-06 14:42:13.92	177.61	68.16	-39.8	-40.9	21.9	0.00e+00	28	36	0	859832320	52	6350
2026-01-06 14:42:14.93	178.11	67.74	-38.9	-39.9	22.6	0.00e+00	49	36	0	861929472	52	5654
2026-01-06 14:42:15.94	178.59	67.32	-39.7	-40.8	21.7	0.00e+00	92	36	0	864026624	52	6301
2026-01-06 14:42:16.95	179.05	66.89	-40.0	-41.1	21.6	0.00e+00	31	36	0	866123776	52	6486
2026-01-06 14:42:17.96	179.49	66.47	-39.0	-40.0	22.6	0.00e+00	92	36	0	868220928	52	5698
2026-01-06 14:42:18.96	179.91	66.06	-38.5	-39.4	23.0	0.00e+00	4	36	0	869269504	50	6027
2026-01-06 14:42:19.97	180.32	65.64	-37.6	-38.5	23.9	0.00e+00	34	36	0	871366656	48	6057
2026-01-06 14:42:20.98	180.72	65.22	-37.5	-38.3	24.0	0.00e+00	0	36	0	873463808	48	5953
2026-01-06 14:42:21.99	181.10	64.80	-38.5	-39.5	22.9	0.00e+00	0	36	0	875560960	48	6774
2026-01-06 14:42:23.00	181.46	64.38	-39.3	-40.4	22.2	0.00e+00	92	36	0	877658112	50	6762
2026-01-06 14:42:24.01	181.82	63.97	-37.6	-38.5	24.0	0.00e+00	49	36	0	878706688	50	5389
2026-01-06 14:42:25.02	182.16	63.56	-36.5	-37.3	24.8	0.00e+00	90	36	0	880803840	46	5935
2026-01-06 14:42:26.03	182.49	63.15	-36.0	-36.7	25.4	0.00e+00	2	36	0	882900992	46	5562
2026-01-06 14:42:27.04	182.80	62.74	-36.3	-37.1	25.1	0.00e+00	0	36	0	884998144	46	5824
2026-01-06 14:42:28.05	183.11	62.33	-36.2	-37.0	24.9	0.00e+00	2	36	0	887095296	46	5751
2026-01-06 14:42:29.06	183.41	61.92	-36.3	-37.1	25.0	0.00e+00	2	36	0	888143872	46	5808
2026-01-06 14:42:30.07	183.70	61.52	-36.3	-37.0	25.1	0.00e+00	90	36	0	890241024	46	5759
2026-01-06 14:42:31.08	183.98	61.11	-36.4	-37.2	24.9	0.00e+00	32	36	0	892338176	46	5855
2026-01-06 14:42:32.09	184.25	60.71	-36.5	-37.3	24.7	0.00e+00	90	36	0	894435328	46	5915
2026-01-06 14:42:33.10	184.51	60.31	-37.7	-38.6	23.8	0.00e+00	33	36	0	896532480	46	6851
2026-01-06 14:42:34.10	184.76	59.92	-39.1	-40.1	22.4	0.00e+00	2	36	0	897581056	50	6510
2026-01-06 14:42:35.11	185.01	59.53	-39.7	-40.8	21.8	0.00e+00	0	36	0	899678208	50	7085
2026-01-06 14:42:36.12	185.25	59.13	-38.8	-39.8	22.7	0.00e+00	0	36	0	901775360	50	6261
2026-01-06 14:42:37.13	185.48	58.74	-38.6	-39.5	22.9	0.00e+00	92	36	0	903872512	50	6094
2026-01-06 14:42:38.14	185.71	58.35	-39.1	-40.0	22.4	0.00e+00	54	36	0	905969664	50	6463
2026-01-06 14:42:39.15	185.93	57.97	-39.2	-40.3	22.3	0.00e+00	95	36	0	907018240	50	6648
2026-01-06 14:42:40.16	186.14	57.58	-38.7	-39.7	23.0	0.00e+00	28	36	0	909115392	50	6217
2026-01-06 14:42:41.17	186.35	57.20	-38.4	-39.3	23.1	0.00e+00	92	36	0	911212544	50	5960
2026-01-06 14:42:42.18	186.55	56.82	-38.4	-39.3	23.4	0.00e+00	0	36	0	913309696	50	5933
2026-01-06 14:42:43.19	186.75	56.44	-37.6	-38.5	23.8	0.00e+00	0	36	0	915406848	48	6085
2026-01-06 14:42:44.20	186.94	56.07	-37.0	-37.8	24.5	0.00e+00	59	36	0	916455424	48	5607
2026-01-06 14:42:45.21	187.12	55.69	-37.0	-37.9	24.4	0.00e+00	0	36	0	918552576	48	5650
2026-01-06 14:42:46.21	187.30	55.33	-36.4	-37.1	25.1	0.00e+00	92	36	0	920649728	46	5826
2026-01-06 14:42:47.23	187.48	54.95	-36.2	-37.0	25.2	0.00e+00	0	36	0	922746880	46	5709
2026-01-06 14:42:48.23	187.65	54.59	-36.1	-36.9	25.3	0.00e+00	92	36	0	924844032	46	5635
2026-01-06 14:42:49.24	187.82	54.23	-35.7	-36.4	25.4	0.00e+00	2	36	0	925892608	44	6000
2026-01-06 14:42:50.25	187.99	53.87	-35.8	-36.6	25.6	0.00e+00	2	36	0	927989760	44	6131
2026-01-06 14:42:51.26	188.15	53.51	-36.4	-37.2	24.9	0.00e+00	0	36	0	930086912	44	6550
2026-01-06 14:42:52.26	188.30	53.15	-36.8	-37.6	24.7	0.00e+00	0	36	0	932184064	46	6112
2026-01-06 14:42:53.28	188.46	52.79	-36.9	-37.7	24.6	0.00e+00	90	36	0	934281216	46	6213
2026-01-06 14:42:54.29	188.61	52.44	-37.1	-37.9	24.4	0.00e+00	0	36	0	936378368	46	6324
2026-01-06 14:42:55.30	188.75	52.09	-37.5	-38.4	24.0	0.00e+00	90	36	0	937426944	46	6717
2026-01-06 14:42:56.30	188.89	51.75	-38.5	-39.5	23.0	0.00e+00	31	36	0	939524096	48	6773
2026-01-06 14:42:57.32	189.03	51.40	-40.0	-41.1	21.6	0.00e+00	92	36	0	941621248	52	6511
2026-01-06 14:42:58.33	189.17	51.06	-41.3	-42.7	20.0	0.00e+00	2	36	0	943718400	54	6950
2026-01-06 14:42:59.34	189.30	50.71	-42.4	-44.0	18.8	0.00e+00	0	36	0	945815552	56	7205
2026-01-06 14:43:00.35	189.44	50.38	-42.9	-44.7	18.2	0.00e+00	0	36	0	946864128	58	6974
2026-01-06 14:43:01.36	189.56	50.04	-42.8	-44.5	18.3	0.00e+00	52	36	0	948961280	58	6841
2026-01-06 14:43:02.36	189.69	49.71	-42.0	-43.5	19.3	0.00e+00	90	36	0	951058432	58	6037
2026-01-06 14:43:03.38	189.81	49.37	-41.6	-42.9	19.9	0.00e+00	52	36	0	953155584	56	6367
2026-01-06 14:43:04.39	189.93	49.05	-41.7	-43.1	19.8	0.00e+00	73	36	0	955252736	56	6486
2026-01-06 14:43:05.40	190.05	48.72	-42.9	-44.7	17.9	0.00e+00	52	36	0	956301312	58	7003
2026-01-06 14:43:06.41	190.16	48.39	-44.4	-47.0	15.4	0.00e+00	0	36	0	958398464	60	8114
2026-01-06 14:43:07.42	190.28	48.07	-45.7	-49.4	13.5	6.10e-06	0	36	0	960495616	60	10630
2026-01-06 14:43:08.43	190.39	47.75	-43.8	-46.2	16.9	0.00e+00	0	36	0	962592768	60	7356
2026-01-06 14:43:09.44	190.49	47.43	-41.8	-43.4	19.5	0.00e+00	90	36	0	964689920	58	5973
2026-01-06 14:43:10.45	190.60	47.12	-40.9	-42.1	20.7	0.00e+00	6	36	0	965738496	56	5812
2026-01-06 14:43:11.46	190.71	46.80	-40.1	-41.2	21.5	0.00e+00	90	36	0	967835648	54	5852
2026-01-06 14:43:12.47	190.81	46.49	-39.3	-40.3	22.3	0.00e+00	5	36	0	969932800	52	5962
2026-01-06 14:43:13.48	190.91	46.18	-38.8	-39.7	22.9	0.00e+00	5	36	0	972029952	50	6213
2026-01-06 14:43:14.49	191.01	45.88	-39.2	-40.2	22.3	0.00e+00	9	36	0	974127104	50	6608
2026-01-06 14:43:15.50	191.10	45.57	-39.4	-40.4	22.2	0.00e+00	29	36	0	975175680	50	6714
2026-01-06 14:43:16.51	191.20	45.27	-39.8	-40.8	21.9	0.00e+00	16	36	0	977272832	52	6315
2026-01-06 14:43:17.51	191.29	44.97	-39.8	-40.9	21.7	0.00e+00	0	36	0	979369984	52	6336
2026-01-06 14:43:18.52	191.38	44.68	-39.7	-40.8	21.9	0.00e+00	90	36	0	981467136	52	6253
2026-01-06 14:43:19.53	191.47	44.38	-38.9	-39.9	22.8	0.00e+00	56	36	0	983564288	52	5655
2026-01-06 14:43:20.54	191.56	44.09	-38.5	-39.5	23.1	0.00e+00	54	36	0	984612864	50	6054
2026-01-06 14:43:21.55	191.65	43.80	-37.2	-38.1	24.4	0.00e+00	0	36	0	986710016	48	5777
2026-01-06 14:43:22.56	191.73	43.51	-36.3	-37.0	25.2	0.00e+00	30	36	0	988807168	46	5742
2026-01-06 14:43:23.57	191.82	43.22	-35.3	-36.0	26.0	0.00e+00	2	36	0	990904320	44	5739
2026-01-06 14:43:24.58	191.90	42.93	-34.9	-35.6	26.2	0.00e+00	7	36	0	993001472	44	5475
2026-01-06 14:43:25.59	191.98	42.65	-35.1	-35.9	26.0	0.00e+00	90	36	0	994050048	44	5636
2026-01-06 14:43:26.60	192.06	42.37	-35.7	-36.5	25.6	0.00e+00	58	36	0	996147200	44	6061
2026-01-06 14:43:27.61	192.14	42.09	-36.7	-37.5	24.6	0.00e+00	92	36	0	998244352	44	6820
2026-01-06 14:43:28.62	192.21	41.81	-37.9	-38.9	23.5	0.00e+00	55	36	0	1000341504	48	6329
2026-01-06 14:43:29.62	192.29	41.54	-38.6	-39.6	22.8	0.00e+00	0	36	0	1002438656	48	6889
2026-01-06 14:43:30.63	192.36	41.27	-38.9	-39.9	22.7	0.00e+00	0	36	0	1004535808	50	6344
2026-01-06 14:43:31.64	192.44	41.00	-38.7	-39.7	22.7	0.00e+00	6	36	0	1005584384	50	6235
2026-01-06 14:43:32.65	192.51	40.73	-38.1	-39.0	23.4	0.00e+00	90	36	0	1007681536	50	5725
2026-01-06 14:43:33.66	192.58	40.46	-37.6	-38.5	23.9	0.00e+00	6	36	0	1009778688	48	6090
2026-01-06 14:43:34.67	192.65	40.20	-37.6	-38.5	24.1	0.00e+00	92	36	0	1011875840	48	6073
2026-01-06 14:43:35.68	192.72	39.93	-37.1	-38.0	24.3	0.00e+00	30	36	0	1013972992	48	5705
2026-01-06 14:43:36.69	192.79	39.67	-37.2	-38.1	24.2	0.00e+00	4	36	0	1015021568	48	5768
2026-01-06 14:43:37.70	192.86	39.41	-37.7	-38.6	23.7	0.00e+00	0	36	0	1017118720	48	6110
2026-01-06 14:43:38.71	192.92	39.15	-38.3	-39.3	23.1	0.00e+00	0	36	0	1019215872	48	6623
2026-01-06 14:43:39.72	192.99	38.90	-39.2	-40.2	22.3	0.00e+00	8	36	0	1021313024	50	6571
2026-01-06 14:43:40.73	193.05	38.65	-40.3	-41.5	21.2	0.00e+00	24	36	0	1023410176	52	6798
2026-01-06 14:43:41.74	193.11	38.39	-41.4	-42.8	19.9	0.00e+00	92	36	0	1024458752	54	7084
2026-01-06 14:43:42.75	193.18	38.14	-42.5	-44.3	18.5	0.00e+00	24	36	0	1026555904	56	7462
2026-01-06 14:43:43.76	193.24	37.90	-42.7	-44.6	18.2	0.00e+00	56	36	0	1028653056	58	6885
2026-01-06 14:43:44.77	193.30	37.65	-42.2	-44.0	18.9	0.00e+00	27	36	0	1030750208	58	6396
2026-01-06 14:43:45.77	193.36	37.41	-41.4	-42.9	20.0	0.00e+00	51	36	0	1032847360	56	6360
2026-01-06 14:43:46.78	193.42	37.16	-40.9	-42.3	20.5	0.00e+00	20	36	0	1033895936	56	5934
2026-01-06 14:43:47.79	193.47	36.92	-40.2	-41.5	21.2	0.00e+00	0	36	0	1035993088	54	6043
2026-01-06 14:43:48.80	193.53	36.68	-40.0	-41.2	21.6	0.00e+00	90	36	0	1038090240	54	5847
2026-01-06 14:43:49.81	193.59	36.45	-39.1	-40.1	22.4	0.00e+00	0	36	0	1040187392	52	5804
2026-01-06 14:43:50.82	193.64	36.21	-38.7	-39.7	22.8	0.00e+00	92	36	0	1042284544	52	5525
2026-01-06 14:43:51.83	193.70	35.97	-38.4	-39.3	23.2	0.00e+00	0	36	0	1043333120	50	5921
2026-01-06 14:43:52.84	193.75	35.74	-38.2	-39.1	23.4	0.00e+00	0	36	0	1045430272	50	5819
2026-01-06 14:43:53.85	193.81	35.51	-38.6	-39.6	22.9	0.00e+00	2	36	0	1047527424	50	6136
2026-01-06 14:43:54.86	193.86	35.28	-39.1	-40.1	22.5	0.00e+00	0	36	0	1049624576	50	6503
2026-01-06 14:43:55.87	193.91	35.05	-39.9	-41.0	21.6	0.00e+00	92	36	0	1051721728	52	6414
2026-01-06 14:43:56.88	193.96	34.83	-40.9	-42.2	20.4	0.00e+00	0	36	0	1052770304	54	6577
2026-01-06 14:43:57.88	194.01	34.61	-42.1	-43.7	19.2	0.00e+00	92	36	0	1054867456	56	6929
2026-01-06 14:43:58.90	194.06	34.38	-43.2	-45.2	17.6	0.00e+00	0	36	0	1056964608	58	7382
2026-01-06 14:43:59.91	194.11	34.16	-43.9	-46.1	16.7	0.00e+00	29	36	0	1059061760	60	7319
2026-01-06 14:44:00.91	194.16	33.94	-44.2	-46.6	16.3	0.00e+00	0	36	0	1061158912	60	7722
2026-01-06 14:44:01.92	194.21	33.72	-44.2	-46.6	16.2	0.00e+00	28	36	0	1062207488	60	7742
2026-01-06 14:44:02.93	194.26	33.51	-43.7	-45.9	17.0	0.00e+00	92	36	0	1064304640	60	7107
2026-01-06 14:44:03.94	194.31	33.29	-43.2	-45.1	17.8	0.00e+00	28	36	0	1066401792	60	6520
2026-01-06 14:44:04.95	194.35	33.08	-42.6	-44.4	18.6	0.00e+00	92	36	0	1068498944	58	6729
2026-01-06 14:44:05.96	194.40	32.86	-41.6	-43.1	19.8	0.00e+00	30	36	0	1070596096	56	6480
2026-01-06 14:44:06.97	194.44	32.65	-41.1	-42.4	20.4	0.00e+00	92	36	0	1071644672	56	6001
2026-01-06 14:44:07.98	194.49	32.44	-40.8	-42.0	20.7	0.00e+00	56	36	0	1073741824	56	5751
2026-01-06 14:44:08.99	194.53	32.24	-40.4	-41.6	21.0	0.00e+00	2	36	0	1075838976	54	6151
2026-01-06 14:44:10.00	194.58	32.03	-40.6	-41.8	20.9	0.00e+00	86	36	0	1077936128	54	6301
2026-01-06 14:44:11.01	194.62	31.82	-40.5	-41.7	20.9	0.00e+00	2	36	0	1080033280	54	6192
2026-01-06 14:44:12.01	194.66	31.62	-40.5	-41.7	20.9	0.00e+00	92	36	0	1081081856	54	6212
2026-01-06 14:44:13.02	194.71	31.42	-40.7	-41.9	20.8	0.00e+00	0	36	0	1083179008	54	6352
2026-01-06 14:44:14.03	194.75	31.22	-40.8	-42.0	20.6	0.00e+00	90	36	0	1085276160	54	6447
2026-01-06 14:44:15.04	194.79	31.02	-40.7	-41.9	20.8	0.00e+00	0	36	0	1087373312	54	6372
2026-01-06 14:44:16.05	194.83	30.82	-40.7	-42.0	20.7	0.00e+00	2	36	0	1089470464	54	6405
2026-01-06 14:44:17.06	194.87	30.62	-40.7	-41.9	20.8	0.00e+00	0	36	0	1090519040	54	6368
2026-01-06 14:44:18.07	194.91	30.43	-40.7	-42.0	20.8	0.00e+00	0	36	0	1092616192	54	6411
2026-01-06 14:44:19.08	194.95	30.23	-40.6	-41.8	20.8	0.00e+00	92	36	0	1094713344	54	6276
2026-01-06 14:44:20.09	194.99	30.04	-40.7	-42.0	20.7	0.00e+00	30	36	0	1096810496	54	6428
2026-01-06 14:44:21.10	195.03	29.85	-40.9	-42.1	20.4	0.00e+00	90	36	0	1098907648	54	6538
2026-01-06 14:44:22.11	195.07	29.66	-40.9	-42.2	20.5	0.00e+00	29	36	0	1101004800	54	6559
2026-01-06 14:44:23.12	195.10	29.47	-40.6	-41.8	20.8	0.00e+00	90	36	0	1102053376	54	6317
2026-01-06 14:44:24.13	195.14	29.28	-40.3	-41.5	21.2	0.00e+00	29	36	0	1104150528	54	6041
2026-01-06 14:44:25.14	195.18	29.09	-40.2	-41.4	21.3	0.00e+00	53	36	0	1106247680	54	5968
2026-01-06 14:44:26.15	195.22	28.91	-39.9	-41.0	21.6	0.00e+00	92	36	0	1108344832	54	5747
2026-01-06 14:44:27.16	195.25	28.72	-39.7	-40.8	21.9	0.00e+00	0	36	0	1110441984	52	6311
2026-01-06 14:44:28.17	195.29	28.54	-39.4	-40.5	22.1	0.00e+00	90	36	0	1111490560	52	6076
2026-01-06 14:44:29.18	195.32	28.36	-39.4	-40.4	22.0	0.00e+00	0	36	0	1113587712	52	6031
2026-01-06 14:44:30.19	195.36	28.18	-39.2	-40.2	22.4	0.00e+00	92	36	0	1115684864	52	5892
2026-01-06 14:44:31.20	195.39	28.00	-38.8	-39.8	22.6	0.00e+00	0	36	0	1117782016	52	5600
2026-01-06 14:44:32.20	195.43	27.82	-38.8	-39.8	22.8	0.00e+00	0	36	0	1119879168	52	5584
2026-01-06 14:44:33.21	195.46	27.64	-38.3	-39.2	23.3	0.00e+00	0	36	0	1120927744	50	5871
2026-01-06 14:44:34.22	195.50	27.47	-38.1	-39.0	23.4	0.00e+00	0	36	0	1123024896	50	5751
2026-01-06 14:44:35.23	195.53	27.29	-37.7	-38.6	23.8	0.00e+00	90	36	0	1125122048	48	6158
2026-01-06 14:44:36.24	195.56	27.12	-37.6	-38.5	23.8	0.00e+00	0	36	0	1127219200	48	6055
2026-01-06 14:44:37.25	195.60	26.95	-37.8	-38.6	23.7	0.00e+00	92	36	0	1129316352	48	6169
2026-01-06 14:44:38.26	195.63	26.77	-37.6	-38.5	23.9	0.00e+00	0	36	0	1130364928	48	6069
2026-01-06 14:44:39.27	195.66	26.60	-37.7	-38.6	23.8	0.00e+00	0	36	0	1132462080	48	6131
2026-01-06 14:44:40.28	195.69	26.43	-37.7	-38.6	23.8	0.00e+00	0	36	0	1134559232	48	6117
2026-01-06 14:44:41.28	195.73	26.27	-37.8	-38.7	23.6	0.00e+00	0	36	0	1136656384	48	6218
2026-01-06 14:44:42.30	195.76	26.10	-37.7	-38.6	23.8	0.00e+00	92	36	0	1138753536	48	6108
2026-01-06 14:44:43.31	195.79	25.93	-37.8	-38.7	23.7	0.00e+00	0	36	0	1139802112	48	6187
2026-01-06 14:44:44.31	195.82	25.77	-37.7	-38.6	23.7	0.00e+00	90	36	0	1141899264	48	6116
2026-01-06 14:44:45.32	195.85	25.60	-37.8	-38.7	23.5	0.00e+00	0	36	0	1143996416	48	6240
2026-01-06 14:44:46.33	195.88	25.44	-38.0	-38.9	23.5	0.00e+00	75	36	0	1146093568	48	6344
2026-01-06 14:44:47.34	195.91	25.28	-37.6	-38.5	23.8	0.00e+00	26	36	0	1148190720	48	6073
2026-01-06 14:44:48.35	195.94	25.11	-37.7	-38.6	23.7	0.00e+00	52	36	0	1149239296	48	6171
2026-01-06 14:44:49.36	195.97	24.95	-37.6	-38.5	23.9	0.00e+00	0	36	0	1151336448	48	6038
2026-01-06 14:44:50.37	196.00	24.79	-37.4	-38.2	24.0	0.00e+00	0	36	0	1153433600	48	5877
2026-01-06 14:44:51.38	196.03	24.64	-37.3	-38.2	24.0	0.00e+00	90	36	0	1155530752	48	5840
2026-01-06 14:44:52.39	196.06	24.48	-37.3	-38.2	23.9	0.00e+00	54	36	0	1157627904	48	5839
2026-01-06 14:44:53.39	196.09	24.32	-36.9	-37.7	24.3	0.00e+00	91	36	0	1158676480	48	5566
2026-01-06 14:44:54.40	196.11	24.17	-36.7	-37.5	24.6	0.00e+00	6	36	0	1160773632	46	6044
2026-01-06 14:44:55.41	196.14	24.01	-36.7	-37.5	24.6	0.00e+00	5	36	0	1162870784	46	6049
2026-01-06 14:44:56.42	196.17	23.86	-36.5	-37.3	24.9	0.00e+00	55	36	0	1164967936	46	5914
2026-01-06 14:44:57.43	196.20	23.71	-36.4	-37.2	24.9	0.00e+00	5	36	0	1167065088	46	5850
2026-01-06 14:44:58.44	196.22	23.55	-36.4	-37.3	24.8	0.00e+00	91	36	0	1169162240	46	5902
2026-01-06 14:44:59.45	196.25	23.40	-36.3	-37.1	24.9	0.00e+00	7	36	0	1170210816	46	5802
2026-01-06 14:45:00.46	196.28	23.25	-36.2	-37.0	25.1	0.00e+00	92	36	0	1172307968	46	5740
2026-01-06 14:45:01.47	196.30	23.10	-36.2	-37.0	24.8	0.00e+00	0	36	0	1174405120	46	5749
2026-01-06 14:45:02.47	196.33	22.95	-36.4	-37.2	24.5	0.00e+00	0	36	0	1176502272	46	5853
2026-01-06 14:45:03.48	196.36	22.81	-36.3	-37.1	24.5	0.00e+00	0	36	0	1178599424	46	5815
2026-01-06 14:45:04.49	196.38	22.66	-36.4	-37.2	24.8	0.00e+00	0	36	0	1179648000	46	5880
2026-01-06 14:45:05.50	196.41	22.51	-36.3	-37.1	24.9	0.00e+00	92	36	0	1181745152	46	5823
2026-01-06 14:45:06.51	196.43	22.37	-36.4	-37.2	24.8	0.00e+00	1	36	0	1183842304	46	5891
2026-01-06 14:45:07.52	196.46	22.22	-36.6	-37.4	24.6	0.00e+00	92	36	0	1185939456	46	5975
2026-01-06 14:45:08.53	196.48	22.08	-36.6	-37.5	24.6	0.00e+00	67	36	0	1188036608	46	6034
2026-01-06 14:45:09.54	196.51	21.94	-36.7	-37.6	24.7	0.00e+00	58	36	0	1189085184	46	6113
2026-01-06 14:45:10.54	196.53	21.80	-36.7	-37.5	24.5	0.00e+00	68	36	0	1191182336	46	6078
2026-01-06 14:45:11.55	196.56	21.65	-36.9	-37.7	24.4	0.00e+00	68	36	0	1193279488	46	6241
2026-01-06 14:45:12.56	196.58	21.51	-37.0	-37.8	24.4	0.00e+00	0	36	0	1195376640	46	6277
2026-01-06 14:45:13.57	196.61	21.37	-37.0	-37.9	24.2	0.00e+00	5	36	0	1197473792	46	6335
2026-01-06 14:45:14.58	196.63	21.23	-37.2	-38.1	24.1	0.00e+00	90	36	0	1198522368	46	6466
2026-01-06 14:45:15.59	196.66	21.10	-37.1	-38.0	24.2	0.00e+00	6	36	0	1200619520	46	6411
2026-01-06 14:45:16.60	196.68	20.96	-37.2	-38.1	24.0	0.00e+00	90	36	0	1202716672	46	6515
2026-01-06 14:45:17.61	196.70	20.82	-37.1	-38.0	24.2	0.00e+00	66	36	0	1204813824	46	6425
2026-01-06 14:45:18.62	196.73	20.69	-37.2	-38.1	24.1	0.00e+00	8	36	0	1206910976	46	6503
2026-01-06 14:45:19.62	196.75	20.55	-37.3	-38.2	24.0	0.00e+00	60	36	0	1207959552	46	6550
2026-01-06 14:45:20.63	196.77	20.42	-37.3	-38.2	24.0	0.00e+00	0	36	0	1210056704	46	6578
2026-01-06 14:45:21.64	196.79	20.28	-37.4	-38.2	23.9	0.00e+00	90	36	0	1212153856	46	6613
