passes_logs/2026/01/06/R4.6S_Anadyr/R4.6S_Anadyr__20260106_011741_AQUA_rec.log

#Pass ID: 20260106_011741_AQUA
#Satellite: AQUA
#Configuration: AQUA
#almurnet v.1.7.20251203
#Start time: 2026-01-06 01:17:42

#Version: 2.2.20231116
#Station: R4.6S_Anadyr
#Location: 177.4865 lon 64.73178 lat
#TLE: 1 27424U 02022A   26004.96787593  .00001598  00000+0  32997-3 0  9996
#TLE: 2 27424  98.4069 331.2279 0002002  90.2377   0.6092 14.61798176259425

#Time	Az	El	Level	Level2	SNR	BER	BlckErr	Temp	State	Recorded	gain1	gain2
2026-01-06 01:17:42.46	139.95	0.08	-48.6	-63.4	3.5	1.51e+00	0	31	0	0	60	53452
2026-01-06 01:17:43.47	139.93	0.14	-48.8	-66.8	3.5	3.02e+01	0	32	104	0	60	83730
2026-01-06 01:17:44.48	139.91	0.20	-48.9	-66.8	3.5	3.02e+01	0	32	104	0	60	83958
2026-01-06 01:17:45.49	139.90	0.26	-48.9	-66.8	3.5	3.02e+01	0	32	104	0	60	84237
2026-01-06 01:17:46.50	139.88	0.33	-48.9	-66.8	3.5	3.02e+01	0	32	104	0	60	84395
2026-01-06 01:17:47.51	139.86	0.39	-49.0	-66.9	3.5	3.02e+01	0	32	104	0	60	85277
2026-01-06 01:17:48.52	139.84	0.45	-49.1	-66.9	3.5	3.02e+01	0	32	104	0	60	85184
2026-01-06 01:17:49.53	139.82	0.51	-49.0	-66.9	3.5	3.02e+01	0	32	104	0	60	85452
2026-01-06 01:17:50.54	139.80	0.58	-49.0	-66.9	3.5	3.02e+01	0	33	104	0	60	85244
2026-01-06 01:17:51.54	139.78	0.64	-48.9	-66.8	3.5	3.02e+01	0	33	104	0	60	84518
2026-01-06 01:17:52.55	139.76	0.70	-48.8	-66.7	3.5	3.02e+01	0	33	104	0	60	83300
2026-01-06 01:17:53.56	139.74	0.77	-48.7	-66.6	3.5	3.02e+01	0	33	104	0	60	82598
2026-01-06 01:17:54.57	139.72	0.83	-48.6	-66.5	3.5	3.02e+01	0	33	104	0	60	81768
2026-01-06 01:17:55.58	139.69	0.89	-48.3	-66.2	3.5	3.02e+01	0	33	104	0	60	78548
2026-01-06 01:17:56.59	139.67	0.96	-48.2	-66.1	3.5	3.02e+01	0	33	104	0	60	77658
2026-01-06 01:17:57.60	139.65	1.02	-48.0	-66.0	3.5	3.02e+01	0	33	104	0	60	76668
2026-01-06 01:17:58.62	139.63	1.09	-47.6	-65.5	3.5	3.02e+01	0	33	104	0	60	72366
2026-01-06 01:17:59.62	139.61	1.15	-47.4	-65.2	3.5	3.02e+01	0	33	104	0	60	69846
2026-01-06 01:18:00.64	139.59	1.22	-47.4	-65.3	3.5	3.02e+01	0	33	104	0	60	70485
2026-01-06 01:18:01.65	139.57	1.28	-47.4	-65.3	3.5	3.02e+01	0	33	104	0	60	70925
2026-01-06 01:18:02.66	139.55	1.35	-47.4	-65.3	3.5	3.02e+01	0	33	104	0	60	70783
2026-01-06 01:18:03.66	139.53	1.41	-47.4	-65.3	3.5	3.02e+01	0	33	104	0	60	70890
2026-01-06 01:18:04.67	139.50	1.47	-47.4	-65.3	3.5	3.02e+01	0	33	104	0	60	70731
2026-01-06 01:18:05.68	139.48	1.54	-47.4	-65.2	3.5	3.02e+01	0	33	104	0	60	70169
2026-01-06 01:18:06.69	139.46	1.61	-47.4	-65.2	3.5	3.02e+01	0	33	104	0	60	70331
2026-01-06 01:18:07.70	139.44	1.67	-47.4	-65.3	3.5	3.02e+01	0	33	104	0	60	70829
2026-01-06 01:18:08.71	139.42	1.74	-47.4	-65.4	3.5	3.02e+01	0	33	104	0	60	71836
2026-01-06 01:18:09.72	139.39	1.80	-47.4	-65.4	3.5	3.02e+01	0	33	104	0	60	72032
2026-01-06 01:18:10.73	139.37	1.87	-47.4	-65.2	3.5	3.02e+01	0	33	104	0	60	70397
2026-01-06 01:18:11.74	139.35	1.94	-47.4	-65.0	3.5	3.02e+01	0	33	104	0	60	68458
2026-01-06 01:18:12.75	139.33	2.00	-47.4	-64.6	3.5	3.02e+01	0	33	104	0	60	65046
2026-01-06 01:18:13.76	139.30	2.07	-47.4	-64.6	3.5	3.02e+01	0	33	104	0	60	65707
2026-01-06 01:18:14.77	139.28	2.14	-47.4	-64.4	3.5	3.02e+01	0	33	104	0	60	64210
2026-01-06 01:18:15.78	139.26	2.20	-47.4	-64.4	3.6	3.02e+01	0	33	104	0	60	63663
2026-01-06 01:18:16.79	139.23	2.27	-47.4	-64.8	3.5	3.02e+01	0	33	104	0	60	66970
2026-01-06 01:18:17.80	139.21	2.34	-47.4	-65.1	3.5	3.02e+01	0	33	104	0	60	69166
2026-01-06 01:18:18.81	139.19	2.40	-47.4	-65.0	3.5	3.02e+01	0	33	104	0	60	68789
2026-01-06 01:18:19.82	139.16	2.47	-47.4	-65.0	3.5	3.02e+01	0	33	104	0	60	68736
2026-01-06 01:18:20.83	139.14	2.54	-47.4	-64.8	3.5	3.02e+01	0	33	104	0	60	66775
2026-01-06 01:18:21.84	139.12	2.61	-47.4	-64.8	3.5	3.02e+01	0	33	104	0	60	67125
2026-01-06 01:18:22.85	139.09	2.68	-47.4	-64.9	3.5	3.02e+01	0	33	104	0	60	67388
2026-01-06 01:18:23.86	139.07	2.74	-47.4	-65.0	3.5	3.02e+01	0	33	104	0	60	68604
2026-01-06 01:18:24.86	139.05	2.81	-47.4	-64.9	3.5	3.02e+01	0	33	104	0	60	67267
2026-01-06 01:18:25.88	139.02	2.88	-47.4	-64.4	3.5	3.02e+01	0	33	104	0	60	63954
2026-01-06 01:18:26.89	139.00	2.95	-47.4	-63.9	3.5	3.02e+01	0	33	104	0	60	60147
2026-01-06 01:18:27.90	138.97	3.02	-47.4	-63.4	3.6	3.02e+01	0	33	104	0	60	56894
2026-01-06 01:18:28.90	138.95	3.09	-47.3	-63.1	3.8	3.02e+01	0	33	104	0	60	54996
2026-01-06 01:18:29.92	138.92	3.16	-47.4	-64.0	3.5	3.02e+01	0	33	104	0	60	60750
2026-01-06 01:18:30.93	138.90	3.23	-47.4	-65.3	3.5	3.02e+01	0	33	104	0	60	70791
2026-01-06 01:18:31.94	138.87	3.30	-47.4	-63.9	3.5	3.02e+01	0	33	104	0	60	59982
2026-01-06 01:18:32.95	138.85	3.37	-47.1	-58.9	6.3	3.02e+01	92	33	0	0	60	33872
2026-01-06 01:18:33.96	138.82	3.44	-46.5	-54.4	10.1	3.02e+01	0	33	0	1572864	60	20145
2026-01-06 01:18:34.97	138.80	3.51	-45.7	-51.3	13.6	3.02e+01	0	33	0	3670016	60	14154
2026-01-06 01:18:35.98	138.77	3.58	-45.0	-49.4	15.6	3.02e+01	0	33	0	5242880	60	11349
2026-01-06 01:18:36.99	138.74	3.65	-43.9	-47.3	17.7	3.02e+01	0	33	0	7340032	60	8874
2026-01-06 01:18:38.00	138.72	3.72	-43.0	-45.9	19.1	3.02e+01	0	33	0	9437184	60	7565
2026-01-06 01:18:39.01	138.69	3.79	-42.7	-45.3	19.7	3.02e+01	0	33	0	11010048	60	7112
2026-01-06 01:18:40.02	138.66	3.86	-42.4	-45.0	19.9	3.02e+01	0	33	0	13107200	60	6879
2026-01-06 01:18:41.02	138.64	3.93	-47.7	-65.3	3.5	3.02e+01	0	33	104	14155776	60	70977
2026-01-06 01:18:42.03	138.61	4.01	-47.6	-63.9	3.6	3.02e+01	0	33	104	14155776	60	60372
2026-01-06 01:18:43.04	138.58	4.08	-47.1	-58.3	6.4	3.02e+01	90	33	104	14155776	60	31516
2026-01-06 01:18:44.05	138.56	4.15	-38.0	-39.6	25.1	3.02e+01	0	33	0	15204352	52	5810
2026-01-06 01:18:45.05	138.53	4.22	-47.5	-64.3	3.5	3.02e+01	0	33	104	16252928	60	63142
2026-01-06 01:18:46.06	138.50	4.30	-38.1	-40.0	22.7	3.02e+01	0	33	104	16252928	52	6083
2026-01-06 01:18:47.07	138.48	4.37	-37.8	-39.3	25.4	3.02e+01	0	33	0	16777216	50	6304
2026-01-06 01:18:48.08	138.45	4.44	-37.6	-39.1	25.7	3.02e+01	0	33	0	18874368	50	6144
2026-01-06 01:18:49.09	138.42	4.51	-37.5	-39.0	25.8	3.02e+01	0	33	0	20971520	50	6105
2026-01-06 01:18:50.10	138.39	4.59	-37.5	-39.0	25.9	3.02e+01	0	33	0	22544384	50	6105
2026-01-06 01:18:51.11	138.36	4.66	-37.5	-39.0	25.8	3.02e+01	0	33	0	24641536	50	6085
2026-01-06 01:18:52.12	138.34	4.74	-37.6	-39.0	26.0	3.02e+01	0	33	0	26214400	50	6134
2026-01-06 01:18:53.13	138.31	4.81	-37.3	-38.8	26.1	3.02e+01	0	33	0	28311552	50	5934
2026-01-06 01:18:54.14	138.28	4.88	-36.9	-38.3	26.6	3.02e+01	0	33	0	30408704	48	6291
2026-01-06 01:18:55.15	138.25	4.96	-36.8	-38.2	26.7	3.02e+01	0	33	0	31981568	48	6223
2026-01-06 01:18:56.16	138.22	5.03	-36.6	-38.0	26.9	3.02e+01	0	33	0	34078720	48	6116
2026-01-06 01:18:57.17	138.19	5.11	-36.9	-38.3	26.6	3.02e+01	0	33	0	35651584	48	6332
2026-01-06 01:18:58.18	138.16	5.18	-36.8	-38.1	26.8	3.02e+01	0	33	0	37748736	48	6199
2026-01-06 01:18:59.19	138.13	5.26	-36.9	-38.3	26.6	3.02e+01	0	33	0	39845888	48	6348
2026-01-06 01:19:00.20	138.10	5.34	-36.6	-38.0	26.9	3.02e+01	0	33	0	41418752	48	6069
2026-01-06 01:19:01.21	138.07	5.41	-36.7	-38.1	26.8	3.02e+01	0	33	0	43515904	48	6139
2026-01-06 01:19:02.22	138.04	5.49	-36.4	-37.8	27.2	3.02e+01	0	33	0	45088768	48	5952
2026-01-06 01:19:03.23	138.01	5.56	-36.5	-37.9	27.1	3.02e+01	0	33	0	47185920	48	6007
2026-01-06 01:19:04.24	137.98	5.64	-36.2	-37.6	27.3	3.02e+01	0	33	0	49283072	48	5798
2026-01-06 01:19:05.25	137.95	5.72	-36.4	-37.8	27.3	3.02e+01	0	33	0	50855936	48	5942
2026-01-06 01:19:06.25	137.92	5.79	-36.2	-37.5	27.5	3.02e+01	0	33	0	52953088	48	5741
2026-01-06 01:19:07.27	137.89	5.87	-36.1	-37.4	27.5	3.02e+01	0	33	0	54525952	48	5682
2026-01-06 01:19:08.28	137.86	5.95	-36.1	-37.4	27.5	3.02e+01	0	33	0	56623104	48	5688
2026-01-06 01:19:09.28	137.83	6.03	-36.0	-37.4	27.7	3.02e+01	0	33	0	58720256	46	6354
2026-01-06 01:19:10.29	137.79	6.11	-36.1	-37.4	27.6	3.02e+01	0	33	0	60293120	46	6371
2026-01-06 01:19:11.30	137.76	6.18	-36.1	-37.4	27.6	3.02e+01	0	33	0	62390272	46	6391
2026-01-06 01:19:12.31	137.73	6.26	-35.9	-37.2	27.8	3.02e+01	0	33	0	64487424	46	6225
2026-01-06 01:19:13.32	137.70	6.34	-36.0	-37.3	27.6	3.02e+01	0	33	0	66060288	46	6319
2026-01-06 01:19:14.33	137.66	6.42	-36.0	-37.3	27.7	3.02e+01	0	33	0	68157440	46	6333
2026-01-06 01:19:15.34	137.63	6.50	-36.2	-37.5	27.6	3.02e+01	0	33	0	69730304	46	6486
2026-01-06 01:19:16.35	137.60	6.58	-36.0	-37.3	27.8	3.02e+01	0	33	0	71827456	46	6294
2026-01-06 01:19:17.36	137.56	6.66	-35.9	-37.2	27.9	3.02e+01	0	33	0	73924608	46	6235
2026-01-06 01:19:18.37	137.53	6.74	-35.9	-37.2	27.8	3.02e+01	0	33	0	75497472	46	6258
2026-01-06 01:19:19.38	137.50	6.82	-35.7	-37.0	28.1	3.02e+01	0	33	0	77594624	46	6091
2026-01-06 01:19:20.39	137.46	6.90	-35.9	-37.2	28.0	3.02e+01	0	33	0	79167488	46	6258
2026-01-06 01:19:21.40	137.43	6.98	-35.8	-37.0	28.0	3.02e+01	0	33	0	81264640	46	6131
2026-01-06 01:19:22.41	137.40	7.07	-35.9	-37.1	27.9	3.02e+01	0	33	0	83361792	46	6204
2026-01-06 01:19:23.41	137.36	7.15	-35.8	-37.1	28.0	3.02e+01	0	33	0	84934656	46	6183
2026-01-06 01:19:24.42	137.33	7.23	-35.9	-37.2	27.9	3.02e+01	0	33	0	87031808	46	6236
2026-01-06 01:19:25.43	137.29	7.31	-36.0	-37.3	27.9	3.02e+01	0	33	0	89128960	46	6306
2026-01-06 01:19:26.44	137.26	7.39	-35.6	-36.9	28.2	3.02e+01	0	33	0	90701824	46	6036
2026-01-06 01:19:27.45	137.22	7.48	-35.7	-37.0	28.2	3.02e+01	0	33	0	92798976	46	6088
2026-01-06 01:19:28.46	137.18	7.56	-35.7	-37.0	28.1	3.02e+01	0	33	0	94371840	46	6074
2026-01-06 01:19:29.47	137.15	7.64	-35.7	-37.0	28.1	3.02e+01	0	33	0	96468992	46	6129
2026-01-06 01:19:30.48	137.11	7.73	-35.9	-37.2	28.0	3.02e+01	0	33	0	98566144	46	6206
2026-01-06 01:19:31.49	137.08	7.81	-36.2	-46.4	3.6	3.02e+01	0	33	104	99614720	46	18024
2026-01-06 01:19:32.50	137.04	7.89	-36.1	-46.3	3.6	3.02e+01	0	34	104	99614720	46	17696
2026-01-06 01:19:33.51	137.00	7.98	-36.1	-46.3	3.4	3.02e+01	0	33	104	99614720	46	17800
2026-01-06 01:19:34.52	136.96	8.06	-38.3	-48.7	3.8	3.02e+01	0	33	104	99614720	46	23445
2026-01-06 01:19:35.53	136.93	8.15	-41.4	-52.3	3.6	3.02e+01	0	33	104	99614720	60	15850
2026-01-06 01:19:36.54	136.89	8.23	-40.5	-51.2	3.4	3.02e+01	0	34	104	99614720	50	24755
2026-01-06 01:19:37.55	136.85	8.32	-47.5	-63.3	3.5	3.02e+01	0	34	104	99614720	60	56420
2026-01-06 01:19:38.56	136.81	8.41	-38.2	-48.5	3.6	3.02e+01	0	34	104	99614720	58	11541
2026-01-06 01:19:39.57	136.77	8.49	-39.4	-49.9	3.6	3.02e+01	0	34	104	99614720	56	15111
2026-01-06 01:19:40.58	136.74	8.58	-37.8	-48.1	3.6	3.02e+01	0	34	104	99614720	50	17373
2026-01-06 01:19:41.59	136.70	8.67	-36.8	-47.1	3.4	3.02e+01	0	34	104	99614720	50	15418
2026-01-06 01:19:42.60	136.66	8.75	-36.6	-46.8	4.1	3.02e+01	0	34	104	99614720	48	16810
2026-01-06 01:19:43.61	136.62	8.84	-37.6	-47.8	4.0	3.02e+01	0	33	104	99614720	48	18941
2026-01-06 01:19:44.61	136.58	8.93	-37.9	-48.2	4.1	3.02e+01	0	33	104	99614720	50	17534
2026-01-06 01:19:45.62	136.54	9.02	-41.5	-52.2	3.8	3.02e+01	0	34	104	99614720	50	27900
2026-01-06 01:19:46.63	136.50	9.11	-48.2	-66.0	3.5	3.02e+01	0	34	104	99614720	60	76416
2026-01-06 01:19:47.64	136.46	9.20	-39.0	-49.4	4.1	3.02e+01	0	33	104	99614720	54	16001
2026-01-06 01:19:48.65	136.42	9.29	-41.5	-52.3	3.6	3.02e+01	0	33	104	99614720	58	17862
2026-01-06 01:19:49.66	136.37	9.38	-40.8	-51.6	3.5	3.02e+01	0	34	104	99614720	56	18370
2026-01-06 01:19:50.67	136.33	9.47	-39.2	-49.7	3.6	3.02e+01	0	33	104	99614720	54	16521
2026-01-06 01:19:51.68	136.29	9.56	-38.4	-48.8	3.6	3.02e+01	0	33	104	99614720	52	16887
2026-01-06 01:19:52.69	136.25	9.65	-36.1	-46.3	3.5	3.02e+01	0	33	104	99614720	48	15807
2026-01-06 01:19:53.70	136.21	9.74	-40.7	-51.4	3.5	3.02e+01	0	33	104	99614720	52	22735
2026-01-06 01:19:54.71	136.16	9.83	-46.3	-59.6	3.5	3.02e+01	0	34	104	99614720	58	41010
2026-01-06 01:19:55.72	136.12	9.92	-41.3	-52.2	3.5	3.02e+01	0	34	104	99614720	60	15694
2026-01-06 01:19:56.73	136.08	10.01	-46.3	-59.5	3.5	3.02e+01	0	34	104	99614720	60	36187
2026-01-06 01:19:57.74	136.03	10.11	-42.1	-53.0	3.5	3.02e+01	0	33	104	99614720	60	17154
2026-01-06 01:19:58.75	135.99	10.20	-38.6	-49.0	3.5	3.02e+01	0	33	104	99614720	52	17283
2026-01-06 01:19:59.76	135.94	10.29	-37.7	-48.1	3.5	3.02e+01	0	34	104	99614720	50	17313
2026-01-06 01:20:00.77	135.90	10.39	-37.3	-47.6	3.5	3.02e+01	0	34	104	99614720	50	16455
2026-01-06 01:20:01.78	135.85	10.48	-42.6	-53.8	3.5	3.02e+01	0	34	104	99614720	58	21059
2026-01-06 01:20:02.79	135.81	10.58	-40.4	-51.1	3.5	3.02e+01	0	34	104	99614720	56	17356
2026-01-06 01:20:03.80	135.76	10.67	-48.2	-65.5	3.5	3.02e+01	0	34	104	99614720	60	72461
2026-01-06 01:20:04.81	135.72	10.77	-48.3	-66.2	3.5	3.02e+01	0	34	104	99614720	60	78851
2026-01-06 01:20:05.82	135.67	10.86	-38.5	-48.8	3.5	3.02e+01	0	34	104	99614720	52	16867
2026-01-06 01:20:06.83	135.62	10.96	-40.0	-50.6	3.5	3.02e+01	0	34	104	99614720	56	16445
2026-01-06 01:20:07.83	135.58	11.05	-39.6	-50.1	3.5	3.02e+01	0	34	104	99614720	54	17465
2026-01-06 01:20:08.84	135.53	11.15	-39.2	-49.6	3.5	3.02e+01	0	34	104	99614720	52	18461
2026-01-06 01:20:09.85	135.48	11.25	-39.5	-50.0	3.5	3.02e+01	0	34	104	99614720	52	19355
2026-01-06 01:20:10.86	135.43	11.35	-37.5	-47.8	3.5	3.02e+01	0	34	104	99614720	50	16778
2026-01-06 01:20:11.87	135.38	11.44	-41.6	-52.5	3.5	3.02e+01	0	34	104	99614720	54	22881
2026-01-06 01:20:12.88	135.33	11.54	-48.4	-66.3	3.5	3.02e+01	0	34	104	99614720	60	79767
2026-01-06 01:20:13.89	135.28	11.64	-44.9	-57.0	3.5	3.02e+01	0	34	104	99614720	60	27207
2026-01-06 01:20:14.90	135.24	11.74	-48.2	-65.3	3.5	3.02e+01	0	33	104	99614720	60	70827
2026-01-06 01:20:15.91	135.18	11.84	-43.0	-54.2	3.5	3.02e+01	0	34	104	99614720	60	19694
2026-01-06 01:20:16.92	135.13	11.94	-40.8	-51.6	3.6	3.02e+01	0	34	104	99614720	58	16360
2026-01-06 01:20:17.92	135.08	12.04	-38.8	-49.3	3.5	3.02e+01	0	34	104	99614720	54	15794
2026-01-06 01:20:18.93	135.03	12.14	-37.6	-48.0	3.5	3.02e+01	0	33	104	99614720	50	17095
2026-01-06 01:20:19.94	134.98	12.24	-40.7	-51.5	3.5	3.02e+01	0	33	104	99614720	54	20365
2026-01-06 01:20:20.95	134.93	12.35	-40.3	-50.9	3.5	3.02e+01	0	34	104	99614720	52	21512
2026-01-06 01:20:21.96	134.88	12.45	-48.4	-66.0	3.5	3.02e+01	0	33	104	99614720	60	76765
2026-01-06 01:20:22.96	134.82	12.55	-39.9	-50.4	3.5	3.02e+01	0	34	104	99614720	54	18048
2026-01-06 01:20:23.97	134.77	12.65	-48.4	-66.1	3.5	3.02e+01	0	34	104	99614720	60	77519
2026-01-06 01:20:24.98	134.72	12.76	-38.2	-48.6	3.5	3.02e+01	0	34	104	99614720	52	16376
2026-01-06 01:20:25.98	134.66	12.86	-37.6	-48.0	3.5	3.02e+01	0	33	104	99614720	50	17179
2026-01-06 01:20:26.99	134.61	12.97	-36.9	-47.2	3.5	3.02e+01	0	34	104	99614720	50	15729
2026-01-06 01:20:28.00	134.55	13.07	-36.7	-46.9	3.5	3.02e+01	0	34	104	99614720	48	17073
2026-01-06 01:20:29.01	134.50	13.18	-47.6	-62.6	3.5	3.02e+01	0	34	104	99614720	60	51843
2026-01-06 01:20:30.02	134.44	13.28	-40.6	-51.2	3.5	3.02e+01	0	34	104	99614720	56	17637
2026-01-06 01:20:31.02	134.38	13.39	-48.3	-65.8	3.5	3.02e+01	0	34	104	99614720	60	75151
2026-01-06 01:20:32.03	134.33	13.50	-48.3	-65.2	3.5	3.02e+01	0	34	104	99614720	60	70140
2026-01-06 01:20:33.04	134.27	13.60	-40.6	-51.3	3.5	3.02e+01	0	34	104	99614720	54	20072
2026-01-06 01:20:34.05	134.21	13.71	-38.2	-48.6	3.6	3.02e+01	0	34	104	99614720	52	16372
2026-01-06 01:20:35.06	134.15	13.82	-38.0	-48.3	3.5	3.02e+01	0	34	104	99614720	50	17786
2026-01-06 01:20:36.07	134.09	13.93	-36.6	-46.9	3.5	3.02e+01	0	34	104	99614720	48	16934
2026-01-06 01:20:37.08	134.04	14.04	-35.7	-46.0	3.5	3.02e+01	0	34	104	99614720	46	17132
2026-01-06 01:20:38.09	133.98	14.15	-34.6	-44.9	3.5	3.02e+01	0	34	104	99614720	44	16906
2026-01-06 01:20:39.10	133.91	14.26	-41.1	-51.8	3.5	3.02e+01	0	34	104	99614720	54	21216
2026-01-06 01:20:40.11	133.85	14.37	-48.3	-65.3	3.5	3.02e+01	0	34	104	99614720	60	70730
2026-01-06 01:20:41.12	133.79	14.48	-45.3	-57.5	3.5	3.02e+01	0	34	104	99614720	60	28758
2026-01-06 01:20:42.13	133.73	14.60	-48.2	-64.9	3.5	3.02e+01	0	34	104	99614720	60	67678
2026-01-06 01:20:43.14	133.67	14.71	-42.5	-53.5	3.5	3.02e+01	0	34	104	99614720	60	18240
2026-01-06 01:20:44.15	133.61	14.82	-40.2	-50.8	3.5	3.02e+01	0	34	104	99614720	56	16743
2026-01-06 01:20:45.16	133.54	14.94	-38.1	-48.5	3.5	3.02e+01	0	34	104	99614720	52	16235
2026-01-06 01:20:46.17	133.48	15.05	-36.9	-47.2	3.5	3.02e+01	0	34	104	99614720	50	15705
2026-01-06 01:20:47.18	133.41	15.17	-39.5	-50.0	3.6	3.02e+01	0	34	104	99614720	54	17248
2026-01-06 01:20:48.19	133.35	15.28	-39.0	-49.4	3.5	3.02e+01	0	34	104	99614720	54	16092
2026-01-06 01:20:49.20	133.28	15.40	-48.4	-65.8	3.5	3.02e+01	0	34	104	99614720	60	75408
2026-01-06 01:20:50.21	133.22	15.52	-38.3	-48.7	3.5	3.02e+01	0	34	104	99614720	54	14767
2026-01-06 01:20:51.22	133.15	15.63	-48.5	-66.2	3.5	3.02e+01	0	34	104	99614720	60	78948
2026-01-06 01:20:52.22	133.08	15.75	-37.8	-48.1	3.5	3.02e+01	0	34	104	99614720	50	17477
2026-01-06 01:20:53.23	133.01	15.87	-37.0	-47.3	3.5	3.02e+01	0	34	104	99614720	50	15871
2026-01-06 01:20:54.24	132.94	15.99	-36.7	-47.0	3.5	3.02e+01	0	34	104	99614720	48	17095
2026-01-06 01:20:55.25	132.88	16.11	-37.1	-47.4	3.5	3.02e+01	0	34	104	99614720	48	17978
2026-01-06 01:20:56.26	132.81	16.23	-47.4	-62.0	3.5	3.02e+01	0	34	104	99614720	60	48530
2026-01-06 01:20:57.27	132.74	16.35	-39.1	-49.6	3.5	3.02e+01	0	34	104	99614720	56	14612
2026-01-06 01:20:58.28	132.66	16.47	-48.4	-65.5	3.5	3.02e+01	0	34	104	99614720	60	72876
2026-01-06 01:20:59.29	132.59	16.59	-47.4	-62.0	3.5	3.02e+01	0	34	104	99614720	60	48637
2026-01-06 01:21:00.30	132.52	16.72	-39.6	-50.2	3.5	3.02e+01	0	34	104	99614720	52	19647
2026-01-06 01:21:01.31	132.45	16.84	-38.6	-49.0	3.5	3.02e+01	0	34	104	99614720	52	17239
2026-01-06 01:21:02.32	132.37	16.97	-38.9	-49.3	3.5	3.02e+01	0	34	104	99614720	52	17885
2026-01-06 01:21:03.32	132.30	17.09	-37.4	-47.7	3.5	3.02e+01	0	34	104	99614720	50	16657
2026-01-06 01:21:04.33	132.22	17.21	-36.3	-46.6	3.5	3.02e+01	0	34	104	99614720	48	16356
2026-01-06 01:21:05.34	132.15	17.34	-36.2	-46.4	3.5	3.02e+01	0	34	104	99614720	48	16100
2026-01-06 01:21:06.35	132.07	17.47	-36.7	-46.9	3.5	3.02e+01	0	34	104	99614720	50	15155
2026-01-06 01:21:07.36	131.99	17.60	-48.5	-66.0	3.5	3.02e+01	0	34	104	99614720	60	76516
2026-01-06 01:21:08.37	131.92	17.72	-36.9	-47.2	3.5	3.02e+01	0	34	104	99614720	50	15688
2026-01-06 01:21:09.38	131.84	17.85	-48.0	-64.6	3.5	3.02e+01	0	34	104	99614720	60	64988
2026-01-06 01:21:10.39	131.76	17.98	-41.5	-52.2	3.5	3.02e+01	0	34	104	99614720	56	19786
2026-01-06 01:21:11.40	131.68	18.11	-39.5	-50.0	3.5	3.02e+01	0	34	104	99614720	54	17172
2026-01-06 01:21:12.41	131.60	18.24	-38.3	-48.6	3.5	3.02e+01	0	34	104	99614720	52	16411
2026-01-06 01:21:13.42	131.51	18.38	-38.0	-48.4	3.5	3.02e+01	0	34	104	99614720	50	17965
2026-01-06 01:21:14.43	131.43	18.51	-42.2	-53.1	3.5	3.02e+01	0	34	104	99614720	60	17469
2026-01-06 01:21:15.44	131.35	18.64	-37.7	-48.0	3.5	3.02e+01	0	34	104	99614720	52	15364
2026-01-06 01:21:16.45	131.26	18.78	-48.3	-64.6	3.5	3.02e+01	0	34	104	99614720	60	65025
2026-01-06 01:21:17.46	131.18	18.91	-44.7	-56.7	3.6	3.02e+01	0	34	104	99614720	60	26406
2026-01-06 01:21:18.46	131.09	19.04	-38.5	-48.9	3.5	3.02e+01	0	34	104	99614720	52	16958
2026-01-06 01:21:19.47	131.01	19.18	-36.9	-47.2	3.5	3.02e+01	0	34	104	99614720	48	17637
2026-01-06 01:21:20.48	130.92	19.32	-36.1	-46.4	3.5	3.02e+01	0	34	104	99614720	48	15965
2026-01-06 01:21:21.49	130.83	19.46	-35.1	-45.3	3.5	3.02e+01	0	34	104	99614720	46	15841
2026-01-06 01:21:22.50	130.74	19.59	-34.4	-44.5	3.5	3.02e+01	0	34	104	99614720	44	16269
2026-01-06 01:21:23.51	130.65	19.73	-34.7	-44.9	3.5	3.02e+01	0	34	104	99614720	44	16981
2026-01-06 01:21:24.52	130.56	19.87	-38.4	-48.8	3.6	3.02e+01	0	34	104	99614720	48	21185
2026-01-06 01:21:25.53	130.47	20.01	-46.6	-60.3	3.5	3.02e+01	0	34	104	99614720	60	39626
2026-01-06 01:21:26.54	130.38	20.16	-38.0	-48.3	3.5	3.02e+01	0	34	104	99614720	50	17862
2026-01-06 01:21:27.54	130.28	20.30	-43.9	-55.3	3.5	3.02e+01	0	34	104	99614720	60	22302
2026-01-06 01:21:28.55	130.19	20.44	-37.6	-47.9	3.5	3.02e+01	0	34	104	99614720	50	16961
2026-01-06 01:21:29.56	130.09	20.58	-37.3	-47.6	3.5	3.02e+01	0	34	104	99614720	50	16469
2026-01-06 01:21:30.57	130.00	20.73	-37.6	-48.0	3.5	3.02e+01	0	34	104	99614720	50	17203
2026-01-06 01:21:31.58	129.90	20.87	-43.8	-55.3	3.5	3.02e+01	0	34	104	99614720	56	28268
2026-01-06 01:21:32.59	129.80	21.02	-46.8	-60.4	3.5	3.02e+01	0	34	104	99614720	60	40374
2026-01-06 01:21:33.60	129.70	21.17	-39.4	-49.8	3.5	3.02e+01	0	34	104	99614720	50	21165
2026-01-06 01:21:34.61	129.60	21.32	-48.5	-65.5	3.5	3.02e+01	0	34	104	99614720	60	72463
2026-01-06 01:21:35.62	129.50	21.47	-40.6	-51.2	3.5	3.02e+01	0	34	104	99614720	60	13991
2026-01-06 01:21:36.63	129.40	21.62	-40.7	-51.3	3.5	3.02e+01	0	34	104	99614720	58	15921
2026-01-06 01:21:37.64	129.29	21.77	-39.2	-49.6	3.5	3.02e+01	0	34	104	99614720	54	16434
2026-01-06 01:21:38.65	129.19	21.92	-37.4	-47.7	3.5	3.02e+01	0	34	104	99614720	50	16567
2026-01-06 01:21:39.66	129.08	22.07	-36.0	-46.2	3.5	3.02e+01	0	34	104	99614720	48	15673
2026-01-06 01:21:40.67	128.97	22.22	-34.8	-44.9	3.5	3.02e+01	0	34	104	99614720	44	16998
2026-01-06 01:21:41.68	128.86	22.38	-36.5	-46.8	3.5	3.02e+01	0	34	104	99614720	44	21225
2026-01-06 01:21:42.69	128.75	22.53	-46.9	-60.5	3.4	3.02e+01	0	34	104	99614720	58	45793
2026-01-06 01:21:43.70	128.64	22.69	-44.2	-55.9	3.5	3.02e+01	0	34	104	99614720	60	24038
2026-01-06 01:21:44.71	128.53	22.85	-44.0	-55.4	3.5	3.02e+01	0	34	104	99614720	54	31862
2026-01-06 01:21:45.72	128.42	23.00	-40.2	-50.7	3.5	3.02e+01	0	34	104	99614720	58	14824
2026-01-06 01:21:46.73	128.30	23.16	-37.3	-47.6	3.5	3.02e+01	0	34	104	99614720	50	16483
2026-01-06 01:21:47.74	128.19	23.32	-36.1	-46.3	3.5	3.02e+01	0	34	104	99614720	48	15891
2026-01-06 01:21:48.75	128.07	23.48	-35.6	-45.8	3.5	3.02e+01	0	34	104	99614720	46	16866
2026-01-06 01:21:49.76	127.95	23.65	-37.6	-47.9	3.5	3.02e+01	0	34	104	99614720	46	21482
2026-01-06 01:21:50.77	127.83	23.81	-35.7	-46.0	3.5	3.02e+01	0	34	104	99614720	44	19265
2026-01-06 01:21:51.78	127.71	23.97	-48.5	-66.2	3.5	3.02e+01	0	34	104	99614720	60	78504
2026-01-06 01:21:52.79	127.59	24.14	-43.7	-55.0	3.5	3.02e+01	0	34	104	99614720	60	21709
2026-01-06 01:21:53.80	127.47	24.30	-48.0	-62.8	3.5	3.02e+01	0	34	104	99614720	60	53351
2026-01-06 01:21:54.81	127.34	24.47	-38.8	-49.2	3.6	3.02e+01	0	34	104	99614720	54	15652
2026-01-06 01:21:55.82	127.22	24.64	-38.1	-48.5	3.6	3.02e+01	0	34	104	99614720	50	18254
2026-01-06 01:21:56.83	127.09	24.81	-38.1	-48.5	3.5	3.02e+01	0	34	104	99614720	50	18118
2026-01-06 01:21:57.83	126.96	24.98	-38.5	-48.9	3.6	3.02e+01	0	34	104	99614720	50	19055
2026-01-06 01:21:58.84	126.83	25.15	-46.4	-59.4	3.5	3.02e+01	0	34	104	99614720	60	35767
2026-01-06 01:21:59.85	126.70	25.32	-45.0	-57.0	3.5	3.02e+01	0	34	104	99614720	60	27246
2026-01-06 01:22:00.86	126.56	25.49	-48.3	-64.5	3.5	3.02e+01	0	34	104	99614720	60	64712
2026-01-06 01:22:01.87	126.43	25.67	-48.2	-64.4	3.5	3.02e+01	0	34	104	99614720	60	63957
2026-01-06 01:22:02.88	126.29	25.84	-39.8	-50.3	3.5	3.02e+01	0	34	104	99614720	52	19938
2026-01-06 01:22:03.89	126.15	26.02	-40.2	-50.7	3.5	3.02e+01	0	34	104	99614720	56	16588
2026-01-06 01:22:04.90	126.01	26.19	-40.2	-50.8	3.6	3.02e+01	0	34	104	99614720	54	18897
2026-01-06 01:22:05.91	125.87	26.37	-40.2	-50.7	3.5	3.02e+01	0	34	104	99614720	54	18707
2026-01-06 01:22:06.92	125.72	26.55	-39.7	-50.2	3.5	3.02e+01	0	34	104	99614720	54	17627
2026-01-06 01:22:07.93	125.58	26.73	-41.0	-51.6	3.5	3.02e+01	0	34	104	99614720	54	20617
2026-01-06 01:22:08.94	125.43	26.91	-37.8	-48.1	3.5	3.02e+01	0	34	104	99614720	50	17426
2026-01-06 01:22:09.95	125.28	27.10	-48.5	-65.1	3.5	3.02e+01	0	34	104	99614720	60	69576
2026-01-06 01:22:10.96	125.13	27.28	-43.8	-55.4	3.5	3.02e+01	0	34	104	99614720	60	22558
2026-01-06 01:22:11.97	124.98	27.46	-48.4	-65.1	3.5	3.02e+01	0	34	104	99614720	60	69446
2026-01-06 01:22:12.98	124.82	27.65	-40.3	-50.8	3.5	3.02e+01	0	34	104	99614720	56	16876
2026-01-06 01:22:13.99	124.67	27.84	-39.1	-49.5	3.5	3.02e+01	0	34	104	99614720	54	16222
2026-01-06 01:22:15.00	124.51	28.03	-38.6	-48.9	3.5	3.02e+01	0	34	104	99614720	52	16963
2026-01-06 01:22:16.01	124.35	28.22	-37.7	-48.0	3.5	3.02e+01	0	34	104	99614720	50	17286
2026-01-06 01:22:17.02	124.19	28.41	-38.7	-49.2	3.5	3.02e+01	0	34	104	99614720	52	17525
2026-01-06 01:22:18.03	124.02	28.60	-37.5	-47.8	3.5	3.02e+01	0	34	104	99614720	48	18856
2026-01-06 01:22:19.04	123.86	28.79	-48.3	-64.6	3.5	3.02e+01	0	34	104	99614720	60	65182
2026-01-06 01:22:20.04	123.69	28.98	-43.6	-54.9	3.6	3.02e+01	0	34	104	99614720	60	21475
2026-01-06 01:22:21.05	123.52	29.18	-48.7	-66.6	3.5	3.02e+01	0	34	104	99614720	60	82142
2026-01-06 01:22:22.06	123.34	29.37	-37.1	-47.4	3.5	3.02e+01	0	34	104	99614720	50	16075
2026-01-06 01:22:23.07	123.17	29.57	-36.6	-46.8	3.5	3.02e+01	0	34	104	99614720	48	16821
2026-01-06 01:22:24.08	122.99	29.77	-35.2	-45.3	3.5	3.02e+01	0	34	104	99614720	46	15876
2026-01-06 01:22:25.09	122.81	29.97	-34.3	-44.4	3.6	3.02e+01	0	34	104	99614720	44	16130
2026-01-06 01:22:26.10	122.63	30.17	-39.6	-50.1	3.5	3.02e+01	0	34	104	99614720	52	19430
2026-01-06 01:22:27.11	122.44	30.37	-37.4	-47.7	3.5	3.02e+01	0	34	104	99614720	48	18601
2026-01-06 01:22:28.12	122.26	30.58	-48.4	-64.7	3.5	3.02e+01	0	34	104	99614720	60	66201
2026-01-06 01:22:29.13	122.07	30.78	-42.2	-53.1	3.5	3.02e+01	0	34	104	99614720	60	17482
2026-01-06 01:22:30.14	121.88	30.99	-48.7	-66.0	3.5	3.02e+01	0	34	104	99614720	60	76454
2026-01-06 01:22:31.15	121.68	31.19	-39.4	-49.8	3.5	3.02e+01	0	34	104	99614720	54	16856
2026-01-06 01:22:32.16	121.48	31.40	-39.6	-50.1	3.5	3.02e+01	0	34	104	99614720	54	17356
2026-01-06 01:22:33.17	121.28	31.61	-38.4	-48.7	3.5	3.02e+01	0	34	104	99614720	52	16693
2026-01-06 01:22:34.17	121.08	31.82	-37.9	-48.2	3.5	3.02e+01	0	34	104	99614720	50	17665
2026-01-06 01:22:35.18	120.88	32.03	-41.8	-52.7	3.5	3.02e+01	0	34	104	99614720	60	16579
2026-01-06 01:22:36.19	120.67	32.25	-48.5	-64.6	3.5	3.02e+01	0	34	104	99614720	60	64987
2026-01-06 01:22:37.20	120.46	32.46	-44.7	-56.4	3.5	3.02e+01	0	34	104	99614720	60	25488
2026-01-06 01:22:38.21	120.24	32.68	-48.6	-65.2	3.5	3.02e+01	0	34	104	99614720	60	69827
2026-01-06 01:22:39.22	120.03	32.89	-37.0	-47.3	3.5	3.02e+01	0	34	104	99614720	46	19979
2026-01-06 01:22:40.23	119.81	33.11	-36.4	-46.7	3.5	3.02e+01	0	34	104	99614720	48	16656
2026-01-06 01:22:41.24	119.58	33.33	-36.4	-46.7	3.5	3.02e+01	0	34	104	99614720	48	16595
2026-01-06 01:22:42.25	119.36	33.55	-36.7	-47.0	3.5	3.02e+01	0	34	104	99614720	48	17204
2026-01-06 01:22:43.25	119.13	33.77	-35.7	-45.9	3.6	3.02e+01	0	34	104	99614720	46	16927
2026-01-06 01:22:44.26	118.90	33.99	-36.0	-46.2	3.5	3.02e+01	0	34	104	99614720	48	15667
2026-01-06 01:22:45.27	118.66	34.22	-36.7	-47.0	3.5	3.02e+01	0	34	104	99614720	50	15280
2026-01-06 01:22:46.28	118.42	34.44	-48.8	-66.7	3.5	3.02e+01	0	34	104	99614720	60	82991
2026-01-06 01:22:47.29	118.18	34.67	-39.6	-50.1	3.4	3.02e+01	0	34	104	99614720	58	13853
2026-01-06 01:22:48.30	117.93	34.89	-47.6	-62.0	3.5	3.02e+01	0	34	104	99614720	60	48508
2026-01-06 01:22:49.31	117.68	35.12	-38.2	-48.7	3.5	3.02e+01	0	34	104	99614720	52	16608
2026-01-06 01:22:50.32	117.43	35.35	-37.3	-47.6	3.6	3.02e+01	0	34	104	99614720	50	16464
2026-01-06 01:22:51.33	117.17	35.58	-36.0	-46.1	3.5	3.02e+01	0	34	104	99614720	48	15584
2026-01-06 01:22:52.34	116.91	35.81	-35.9	-46.0	3.5	3.02e+01	0	34	104	99614720	46	17208
2026-01-06 01:22:53.35	116.65	36.05	-39.3	-49.6	3.5	3.02e+01	0	34	104	99614720	56	14706
2026-01-06 01:22:54.36	116.38	36.28	-36.6	-46.9	3.5	3.02e+01	0	34	104	99614720	50	15213
2026-01-06 01:22:55.37	116.10	36.52	-48.8	-66.7	3.5	3.02e+01	0	34	104	99614720	60	83044
2026-01-06 01:22:56.37	115.83	36.75	-39.9	-50.4	3.5	3.02e+01	0	34	104	99614720	60	12780
2026-01-06 01:22:57.38	115.55	36.99	-47.9	-63.3	3.5	3.02e+01	0	34	104	99614720	60	56531
2026-01-06 01:22:58.39	115.26	37.22	-40.6	-51.2	3.5	3.02e+01	0	34	104	99614720	56	17585
2026-01-06 01:22:59.40	114.97	37.46	-40.6	-51.1	3.5	3.02e+01	0	34	104	99614720	56	17468
2026-01-06 01:23:00.41	114.68	37.70	-41.3	-52.1	3.5	3.02e+01	0	34	104	99614720	56	19440
2026-01-06 01:23:01.42	114.38	37.94	-41.4	-52.2	3.6	3.02e+01	0	34	104	99614720	56	19738
2026-01-06 01:23:02.43	114.07	38.19	-44.2	-56.0	3.6	3.02e+01	0	34	104	99614720	58	27109
2026-01-06 01:23:03.44	113.77	38.43	-40.9	-51.6	3.5	3.02e+01	0	34	104	99614720	60	14583
2026-01-06 01:23:04.45	113.45	38.67	-48.4	-64.7	3.5	3.02e+01	0	34	104	99614720	60	66415
2026-01-06 01:23:05.46	113.14	38.92	-47.5	-61.8	3.6	3.02e+01	0	34	104	99614720	60	47243
2026-01-06 01:23:06.47	112.81	39.16	-39.4	-49.8	3.5	3.02e+01	0	34	104	99614720	52	18884
2026-01-06 01:23:07.48	112.49	39.41	-38.7	-49.1	3.5	3.02e+01	0	34	104	99614720	52	17302
2026-01-06 01:23:08.49	112.15	39.66	-38.7	-49.1	3.5	3.02e+01	0	34	104	99614720	52	17404
2026-01-06 01:23:09.50	111.81	39.91	-38.0	-48.4	3.5	3.02e+01	0	34	104	99614720	52	16090
2026-01-06 01:23:10.51	111.47	40.15	-37.5	-47.8	3.5	3.02e+01	0	34	104	99614720	50	16782
2026-01-06 01:23:11.51	111.13	40.40	-36.6	-46.9	3.5	3.02e+01	0	34	104	99614720	48	16976
2026-01-06 01:23:12.52	110.77	40.65	-38.8	-49.2	3.5	3.02e+01	0	34	104	99614720	48	22132
2026-01-06 01:23:13.53	110.41	40.90	-48.0	-64.0	3.6	3.02e+01	0	34	104	99614720	60	60844
2026-01-06 01:23:14.54	110.04	41.15	-39.0	-49.6	3.5	3.02e+01	0	34	104	99614720	52	18370
2026-01-06 01:23:15.55	109.67	41.40	-45.8	-58.8	3.5	3.02e+01	0	34	104	99614720	60	33395
2026-01-06 01:23:16.56	109.30	41.66	-40.5	-51.1	3.5	3.02e+01	0	34	104	99614720	56	17431
2026-01-06 01:23:17.57	108.91	41.91	-39.2	-49.7	3.5	3.02e+01	0	34	104	99614720	54	16651
2026-01-06 01:23:18.58	108.52	42.16	-38.7	-49.1	3.5	3.02e+01	0	34	104	99614720	52	17472
2026-01-06 01:23:19.59	108.13	42.41	-42.5	-53.6	3.5	3.02e+01	0	34	104	99614720	56	23166
2026-01-06 01:23:20.60	107.72	42.67	-36.9	-47.1	3.5	3.02e+01	0	34	104	99614720	52	13761
2026-01-06 01:23:21.61	107.31	42.92	-40.0	-50.4	3.5	3.02e+01	0	34	104	99614720	46	28572
2026-01-06 01:23:22.62	106.90	43.17	-47.8	-62.7	3.5	3.02e+01	0	34	104	99614720	60	52418
2026-01-06 01:23:23.62	106.48	43.43	-39.1	-49.5	3.5	3.02e+01	0	34	104	99614720	50	20332
2026-01-06 01:23:24.63	106.05	43.68	-43.7	-55.1	3.6	3.02e+01	0	34	104	99614720	60	21941
2026-01-06 01:23:25.64	105.61	43.93	-39.5	-50.0	3.5	3.02e+01	0	34	104	99614720	54	17209
2026-01-06 01:23:26.65	105.17	44.19	-38.5	-48.8	3.6	3.02e+01	0	34	104	99614720	52	16833
2026-01-06 01:23:27.66	104.72	44.44	-38.8	-49.3	3.5	3.02e+01	0	34	104	99614720	52	17819
2026-01-06 01:23:28.67	104.26	44.69	-46.6	-59.7	3.5	3.02e+01	0	34	104	99614720	60	37330
2026-01-06 01:23:29.68	103.79	44.94	-47.8	-62.4	3.5	3.02e+01	0	34	104	99614720	60	50641
2026-01-06 01:23:30.69	103.32	45.20	-43.9	-55.4	3.5	3.02e+01	0	34	104	99614720	54	31992
2026-01-06 01:23:31.69	102.84	45.45	-48.5	-64.8	3.5	3.02e+01	0	34	104	99614720	60	66634
2026-01-06 01:23:32.70	102.36	45.70	-38.0	-48.3	3.5	3.02e+01	0	34	104	99614720	52	15939
2026-01-06 01:23:33.71	101.86	45.95	-38.9	-49.4	3.5	3.02e+01	0	34	104	99614720	54	16014
2026-01-06 01:23:34.72	101.35	46.20	-39.1	-49.4	3.5	3.02e+01	0	34	104	99614720	52	17959
2026-01-06 01:23:35.73	100.84	46.45	-38.1	-48.5	3.5	3.02e+01	0	34	104	99614720	52	16204
2026-01-06 01:23:36.74	100.32	46.69	-37.2	-47.6	3.5	3.02e+01	0	34	104	99614720	50	16467
2026-01-06 01:23:37.75	99.79	46.94	-36.2	-46.4	3.5	3.02e+01	0	34	104	99614720	46	18091
2026-01-06 01:23:38.76	99.25	47.19	-36.0	-46.2	3.5	3.02e+01	0	34	104	99614720	46	17540
2026-01-06 01:23:39.77	98.70	47.43	-48.5	-65.2	3.5	3.02e+01	0	34	104	99614720	60	70312
2026-01-06 01:23:40.78	98.15	47.67	-47.3	-61.2	3.5	3.02e+01	0	34	104	99614720	60	44408
2026-01-06 01:23:41.79	97.58	47.91	-48.0	-62.7	3.5	3.02e+01	0	34	104	99614720	60	52469
2026-01-06 01:23:42.80	97.01	48.15	-42.2	-53.0	3.5	3.02e+01	0	34	104	99614720	60	17119
2026-01-06 01:23:43.81	96.43	48.39	-40.6	-51.3	3.6	3.02e+01	0	34	104	99614720	56	17895
2026-01-06 01:23:44.81	95.84	48.62	-39.4	-49.8	3.5	3.02e+01	0	34	104	99614720	54	16816
2026-01-06 01:23:45.82	95.24	48.86	-38.2	-48.6	3.6	3.02e+01	0	34	104	99614720	52	16458
2026-01-06 01:23:46.83	94.63	49.09	-42.2	-53.0	3.5	3.02e+01	0	34	104	99614720	56	21759
2026-01-06 01:23:47.84	94.01	49.32	-36.3	-46.6	3.5	3.02e+01	0	34	104	99614720	46	18387
2026-01-06 01:23:48.85	93.38	49.55	-48.7	-65.8	3.5	3.02e+01	0	34	104	99614720	60	74614
2026-01-06 01:23:49.86	92.74	49.77	-47.3	-61.1	3.5	3.02e+01	0	34	104	99614720	60	43622
2026-01-06 01:23:50.87	92.10	49.99	-48.5	-64.5	3.5	3.02e+01	0	34	104	99614720	60	64769
2026-01-06 01:23:51.88	91.44	50.21	-41.6	-52.4	3.5	3.02e+01	0	34	104	99614720	60	15993
2026-01-06 01:23:52.89	90.77	50.43	-40.9	-51.5	3.5	3.02e+01	0	34	104	99614720	56	18210
2026-01-06 01:23:53.90	90.09	50.64	-39.4	-49.7	3.5	3.02e+01	0	34	104	99614720	52	18716
2026-01-06 01:23:54.91	89.41	50.85	-38.2	-48.5	3.5	3.02e+01	0	34	104	99614720	52	16279
2026-01-06 01:23:55.92	88.71	51.05	-47.1	-61.3	3.5	3.02e+01	0	34	104	99614720	60	44731
2026-01-06 01:23:56.93	88.01	51.26	-37.0	-47.4	3.6	3.02e+01	0	34	104	99614720	46	20106
2026-01-06 01:23:57.93	87.30	51.45	-48.6	-65.0	3.5	3.02e+01	0	34	104	99614720	60	68113
2026-01-06 01:23:58.94	86.57	51.65	-47.0	-60.5	3.5	3.02e+01	0	34	104	99614720	60	40832
2026-01-06 01:23:59.95	85.84	51.84	-48.7	-65.5	3.5	3.02e+01	0	34	104	99614720	60	72908
2026-01-06 01:24:00.96	85.09	52.03	-41.1	-51.8	3.5	3.02e+01	0	34	104	99614720	60	14932
2026-01-06 01:24:01.97	84.34	52.21	-39.1	-49.5	3.5	3.02e+01	0	34	104	99614720	52	18198
2026-01-06 01:24:02.98	83.58	52.39	-38.7	-49.1	3.5	3.02e+01	0	34	104	99614720	52	17430
2026-01-06 01:24:03.99	82.81	52.56	-39.3	-49.8	3.5	3.02e+01	0	34	104	99614720	52	18798
2026-01-06 01:24:05.00	82.02	52.73	-45.1	-57.3	3.5	3.02e+01	0	34	104	99614720	60	28179
2026-01-06 01:24:06.01	81.23	52.89	-48.8	-66.7	3.5	3.02e+01	0	34	104	99614720	60	83163
2026-01-06 01:24:07.02	80.44	53.05	-47.1	-60.6	3.5	3.02e+01	0	34	104	99614720	60	41343
2026-01-06 01:24:08.03	79.63	53.21	-48.6	-65.2	3.5	3.02e+01	0	34	104	99614720	60	70233
2026-01-06 01:24:09.04	78.81	53.35	-36.8	-47.0	3.5	3.02e+01	0	34	104	99614720	46	19263
2026-01-06 01:24:10.05	77.99	53.50	-36.1	-46.3	3.5	3.02e+01	0	34	104	99614720	46	17706
2026-01-06 01:24:11.05	77.16	53.63	-35.9	-46.1	3.5	3.02e+01	0	34	104	99614720	46	17437
2026-01-06 01:24:12.06	76.32	53.76	-35.8	-46.1	3.5	3.02e+01	0	34	104	99614720	46	17364
2026-01-06 01:24:13.07	75.47	53.89	-35.2	-45.3	3.5	3.02e+01	0	34	104	99614720	46	15926
2026-01-06 01:24:14.08	74.62	54.01	-37.1	-47.4	3.5	3.02e+01	0	34	104	99614720	48	18061
2026-01-06 01:24:15.09	73.76	54.12	-37.2	-47.6	3.5	3.02e+01	0	34	104	99614720	46	20677
2026-01-06 01:24:16.10	72.89	54.23	-48.6	-65.2	3.5	3.02e+01	0	34	104	99614720	60	70324
2026-01-06 01:24:17.11	72.01	54.33	-46.9	-60.1	3.5	3.02e+01	0	34	104	99614720	60	38867
2026-01-06 01:24:18.12	71.13	54.42	-48.9	-66.6	3.5	3.02e+01	0	34	104	99614720	60	82410
2026-01-06 01:24:19.13	70.25	54.51	-39.9	-50.3	3.5	3.02e+01	0	34	104	99614720	54	17701
2026-01-06 01:24:20.14	69.35	54.59	-40.2	-50.7	3.5	3.02e+01	0	34	104	99614720	54	18680
2026-01-06 01:24:21.15	68.46	54.66	-41.0	-51.7	3.5	3.02e+01	0	34	104	99614720	54	20819
2026-01-06 01:24:22.16	67.56	54.73	-39.8	-50.4	3.5	3.02e+01	0	34	104	99614720	54	17900
2026-01-06 01:24:23.17	66.65	54.79	-44.7	-56.6	3.6	3.02e+01	0	34	104	99614720	60	25941
2026-01-06 01:24:24.17	65.75	54.84	-48.5	-64.7	3.6	3.02e+01	0	34	104	99614720	60	65753
2026-01-06 01:24:25.19	64.83	54.89	-47.2	-61.1	3.5	3.02e+01	0	34	104	99614720	60	43810
2026-01-06 01:24:26.19	63.93	54.93	-48.6	-65.4	3.5	3.02e+01	0	34	104	99614720	60	71309
2026-01-06 01:24:27.21	63.00	54.96	-40.7	-51.4	3.5	3.02e+01	0	34	104	99614720	54	20264
2026-01-06 01:24:28.21	62.09	54.98	-39.4	-49.7	3.5	3.02e+01	0	34	104	99614720	52	18644
2026-01-06 01:24:29.22	61.17	55.00	-39.1	-49.6	3.5	3.02e+01	0	34	104	99614720	52	18526
2026-01-06 01:24:30.23	60.25	55.01	-37.4	-47.6	3.5	3.02e+01	0	34	104	99614720	50	16447
2026-01-06 01:24:31.24	59.33	55.01	-37.1	-47.4	3.5	3.02e+01	0	34	104	99614720	48	17921
2026-01-06 01:24:32.25	58.41	55.00	-42.0	-53.2	3.5	3.02e+01	0	34	104	99614720	60	17504
2026-01-06 01:24:33.26	57.49	54.99	-36.4	-46.5	3.5	3.02e+01	0	34	104	99614720	48	16152
2026-01-06 01:24:34.27	56.57	54.97	-48.7	-65.9	3.5	3.02e+01	0	34	104	99614720	60	76000
2026-01-06 01:24:35.28	55.65	54.95	-41.5	-52.3	3.5	3.02e+01	0	34	104	99614720	60	15875
2026-01-06 01:24:36.29	54.73	54.91	-48.3	-64.1	3.5	3.02e+01	0	34	104	99614720	60	61877
2026-01-06 01:24:37.30	53.82	54.87	-40.4	-50.7	3.5	3.02e+01	0	34	104	99614720	54	18718
2026-01-06 01:24:38.31	52.91	54.82	-39.5	-50.1	3.5	3.02e+01	0	34	104	99614720	54	17384
2026-01-06 01:24:39.32	52.00	54.77	-38.9	-49.4	3.5	3.02e+01	0	34	104	99614720	52	17907
2026-01-06 01:24:40.33	51.10	54.70	-37.4	-47.7	3.5	3.02e+01	0	34	104	99614720	50	16609
2026-01-06 01:24:41.33	50.21	54.63	-37.1	-47.3	3.5	3.02e+01	0	34	104	99614720	52	14206
2026-01-06 01:24:42.34	49.32	54.56	-35.4	-45.8	3.6	3.02e+01	0	34	104	99614720	48	14980
2026-01-06 01:24:43.35	48.43	54.47	-48.6	-66.6	3.5	3.02e+01	0	34	104	99614720	60	82160
2026-01-06 01:24:44.36	47.54	54.38	-40.6	-51.2	3.6	3.02e+01	0	34	104	99614720	60	13928
2026-01-06 01:24:45.37	46.67	54.29	-47.9	-62.8	3.5	3.02e+01	0	34	104	99614720	60	52844
2026-01-06 01:24:46.38	45.80	54.18	-40.7	-51.5	3.5	3.02e+01	0	34	104	99614720	56	18282
2026-01-06 01:24:47.39	44.93	54.08	-40.0	-50.4	3.5	3.02e+01	0	34	104	99614720	54	18092
2026-01-06 01:24:48.40	44.07	53.96	-38.4	-48.6	3.5	3.02e+01	0	34	104	99614720	52	16356
2026-01-06 01:24:49.41	43.22	53.84	-39.9	-50.7	3.5	3.02e+01	0	34	104	99614720	52	20973
2026-01-06 01:24:50.42	42.38	53.71	-39.6	-50.0	3.5	3.02e+01	0	34	104	99614720	60	12160
2026-01-06 01:24:51.43	41.54	53.58	-36.1	-46.2	3.5	3.02e+01	0	34	104	99614720	44	19822
2026-01-06 01:24:52.43	40.72	53.44	-48.2	-64.6	3.5	3.02e+01	0	34	104	99614720	60	65477
2026-01-06 01:24:53.45	39.89	53.29	-38.0	-48.5	3.2	3.02e+01	0	34	104	99614720	54	14452
2026-01-06 01:24:54.46	39.08	53.14	-46.1	-58.6	3.5	3.02e+01	0	34	104	99614720	60	32570
2026-01-06 01:24:55.47	38.28	52.99	-40.3	-50.7	3.5	3.02e+01	0	34	104	99614720	56	16531
2026-01-06 01:24:56.47	37.49	52.83	-40.0	-50.7	3.5	3.02e+01	0	34	104	99614720	54	18568
2026-01-06 01:24:57.48	36.71	52.66	-39.6	-50.1	3.5	3.02e+01	0	34	104	99614720	54	17327
2026-01-06 01:24:58.49	35.93	52.49	-43.1	-54.3	3.5	3.02e+01	0	34	104	99614720	56	25144
2026-01-06 01:24:59.50	35.16	52.32	-38.0	-48.2	3.5	3.02e+01	0	34	104	99614720	56	12453
2026-01-06 01:25:00.51	34.40	52.14	-37.6	-47.8	3.5	3.02e+01	0	34	104	99614720	44	23836
2026-01-06 01:25:01.52	33.66	51.95	-48.2	-63.9	3.5	3.02e+01	0	34	104	99614720	60	60024
2026-01-06 01:25:02.53	32.92	51.76	-37.7	-47.7	3.5	3.02e+01	0	34	104	99614720	50	16631
2026-01-06 01:25:03.54	32.19	51.57	-46.0	-58.8	3.5	3.02e+01	0	34	104	99614720	60	33416
2026-01-06 01:25:04.55	31.47	51.38	-39.4	-49.9	3.5	3.02e+01	0	34	104	99614720	54	17048
2026-01-06 01:25:05.56	30.76	51.18	-38.6	-48.9	3.5	3.02e+01	0	34	104	99614720	52	17064
2026-01-06 01:25:06.57	30.06	50.97	-38.3	-48.8	3.5	3.02e+01	0	34	104	99614720	52	16726
2026-01-06 01:25:07.57	29.37	50.77	-39.2	-49.3	3.5	3.02e+01	0	34	104	99614720	48	22421
2026-01-06 01:25:08.59	28.69	50.55	-34.5	-44.8	3.5	3.02e+01	0	34	104	99614720	44	16733
2026-01-06 01:25:09.59	28.02	50.34	-39.1	-49.8	3.2	3.02e+01	0	34	104	99614720	44	29868
2026-01-06 01:25:10.60	27.36	50.13	-47.8	-62.7	3.5	3.02e+01	0	34	104	99614720	60	52621
2026-01-06 01:25:11.61	26.71	49.91	-38.1	-48.3	3.5	3.02e+01	0	34	104	99614720	48	20002
2026-01-06 01:25:12.62	26.06	49.68	-45.8	-58.1	3.5	3.02e+01	0	34	104	99614720	60	30878
2026-01-06 01:25:13.63	25.43	49.46	-39.7	-50.3	3.5	3.02e+01	0	34	104	99614720	54	17796
2026-01-06 01:25:14.64	24.81	49.23	-38.1	-48.4	3.5	3.02e+01	0	34	104	99614720	52	16081
2026-01-06 01:25:15.65	24.19	49.00	-36.4	-46.6	3.5	3.02e+01	0	34	104	99614720	48	16388
2026-01-06 01:25:16.66	23.59	48.77	-38.3	-48.5	3.5	3.02e+01	0	34	104	99614720	48	20491
2026-01-06 01:25:17.67	22.99	48.54	-34.6	-45.0	3.5	3.02e+01	0	34	104	99614720	44	17194
2026-01-06 01:25:18.68	22.40	48.30	-48.2	-63.8	3.5	3.02e+01	0	34	104	99614720	58	66888
2026-01-06 01:25:19.69	21.83	48.06	-47.1	-60.8	3.5	3.02e+01	0	34	104	99614720	60	42198
2026-01-06 01:25:20.70	21.26	47.82	-44.3	-55.8	3.5	3.02e+01	0	34	104	99614720	52	37432
2026-01-06 01:25:21.70	20.70	47.58	-44.1	-55.6	3.5	3.02e+01	0	34	104	99614720	60	23140
2026-01-06 01:25:22.71	20.15	47.34	-40.2	-50.7	3.5	3.02e+01	0	34	104	99614720	56	16538
2026-01-06 01:25:23.72	19.61	47.10	-40.7	-51.4	3.5	3.02e+01	0	34	104	99614720	56	17934
2026-01-06 01:25:24.73	19.08	46.85	-39.2	-49.7	3.5	3.02e+01	0	34	104	99614720	54	16538
2026-01-06 01:25:25.74	18.55	46.61	-46.4	-59.2	3.5	3.02e+01	0	34	104	99614720	60	35147
2026-01-06 01:25:26.75	18.03	46.36	-34.5	-44.6	3.5	3.02e+01	0	34	104	99614720	44	16483
2026-01-06 01:25:27.76	17.53	46.11	-48.8	-66.2	3.5	3.02e+01	0	34	104	99614720	60	78796
2026-01-06 01:25:28.77	17.02	45.86	-43.8	-55.2	3.5	3.02e+01	0	34	104	99614720	60	22133
2026-01-06 01:25:29.78	16.53	45.61	-45.5	-57.2	3.5	3.02e+01	0	34	104	99614720	56	35280
2026-01-06 01:25:30.79	16.05	45.36	-38.5	-48.7	3.5	3.02e+01	0	34	104	99614720	54	14853
2026-01-06 01:25:31.80	15.57	45.11	-36.3	-46.8	3.5	3.02e+01	0	34	104	99614720	48	16723
2026-01-06 01:25:32.81	15.10	44.86	-36.0	-46.5	3.5	3.02e+01	0	34	104	99614720	46	18182
2026-01-06 01:25:33.82	14.64	44.61	-35.0	-45.2	3.5	3.02e+01	0	34	104	99614720	46	15748
2026-01-06 01:25:34.83	14.19	44.35	-37.0	-47.1	3.5	3.02e+01	0	34	104	99614720	46	19530
2026-01-06 01:25:35.84	13.74	44.10	-34.9	-45.1	3.5	3.02e+01	0	34	104	99614720	44	17477
2026-01-06 01:25:36.85	13.30	43.85	-48.7	-65.6	3.5	3.02e+01	0	34	104	99614720	60	73228
2026-01-06 01:25:37.85	12.87	43.60	-44.2	-55.8	3.5	3.02e+01	0	34	104	99614720	60	23680
2026-01-06 01:25:38.86	12.45	43.35	-47.0	-60.3	3.5	3.02e+01	0	34	104	99614720	60	39742
2026-01-06 01:25:39.87	12.03	43.09	-39.2	-49.6	3.5	3.02e+01	0	34	104	99614720	56	14570
2026-01-06 01:25:40.88	11.61	42.84	-36.8	-47.0	3.5	3.02e+01	0	34	104	99614720	50	15383
2026-01-06 01:25:41.89	11.21	42.59	-36.1	-46.2	3.5	3.02e+01	0	34	104	99614720	48	15764
2026-01-06 01:25:42.90	10.81	42.34	-35.6	-45.9	3.5	3.02e+01	0	34	104	99614720	46	17063
2026-01-06 01:25:43.91	10.42	42.08	-39.5	-49.9	3.5	3.02e+01	0	34	104	99614720	50	21348
2026-01-06 01:25:44.92	10.03	41.83	-36.1	-46.3	3.5	3.02e+01	0	34	104	99614720	46	17865
2026-01-06 01:25:45.93	9.65	41.58	-48.7	-66.0	3.5	3.02e+01	0	34	104	99614720	60	76943
2026-01-06 01:25:46.93	9.28	41.33	-46.4	-59.0	3.5	3.02e+01	0	34	104	99614720	60	34397
2026-01-06 01:25:47.94	8.91	41.08	-48.6	-65.5	3.5	3.02e+01	0	34	104	99614720	60	72574
2026-01-06 01:25:48.95	8.55	40.83	-43.0	-54.4	3.5	3.02e+01	0	34	104	99614720	60	20145
2026-01-06 01:25:49.96	8.19	40.58	-43.0	-54.3	3.5	3.02e+01	0	34	104	99614720	60	19978
2026-01-06 01:25:50.97	7.84	40.33	-42.5	-53.3	3.6	3.02e+01	0	34	104	99614720	60	17881
2026-01-06 01:25:51.98	7.49	40.09	-41.0	-51.5	3.5	3.02e+01	0	34	104	99614720	58	16139
2026-01-06 01:25:52.99	7.15	39.84	-47.6	-62.3	3.4	3.02e+01	0	34	104	99614720	60	50056
2026-01-06 01:25:54.00	6.82	39.59	-37.2	-47.6	3.5	3.02e+01	0	34	104	99614720	48	18370
2026-01-06 01:25:55.01	6.49	39.35	-48.7	-65.9	3.5	3.02e+01	0	34	104	99614720	60	75974
2026-01-06 01:25:56.02	6.16	39.10	-44.8	-56.5	3.5	3.02e+01	0	34	104	99614720	60	25777
2026-01-06 01:25:57.03	5.84	38.86	-48.8	-66.3	3.5	3.02e+01	0	34	104	99614720	60	79153
2026-01-06 01:25:58.04	5.53	38.61	-39.9	-50.4	3.5	3.02e+01	0	34	104	99614720	56	16077
2026-01-06 01:25:59.05	5.22	38.37	-38.3	-48.3	3.5	3.02e+01	0	34	104	99614720	52	15932
2026-01-06 01:26:00.06	4.91	38.13	-37.3	-47.5	3.5	3.02e+01	0	34	104	99614720	50	16198
2026-01-06 01:26:01.07	4.61	37.89	-37.3	-47.5	3.6	3.02e+01	0	34	104	99614720	50	16254
2026-01-06 01:26:02.08	4.32	37.65	-39.5	-49.9	3.6	3.02e+01	0	34	104	99614720	54	16942
2026-01-06 01:26:03.09	4.02	37.41	-37.0	-38.6	5.2	3.02e+01	0	34	104	99614720	48	6511
2026-01-06 01:26:04.10	3.74	37.17	-48.6	-63.2	3.7	3.02e+01	0	34	104	99614720	60	55553
2026-01-06 01:26:05.11	3.45	36.93	-44.7	-47.8	20.0	3.02e+01	0	34	0	99614720	60	9487
2026-01-06 01:26:06.11	3.18	36.70	-48.7	-62.4	3.9	3.02e+01	0	34	104	101187584	60	51000
2026-01-06 01:26:07.12	2.90	36.47	-38.7	-40.3	25.9	3.02e+01	0	34	0	101187584	52	6285
2026-01-06 01:26:08.13	2.63	36.23	-39.1	-40.7	25.4	3.02e+01	0	34	0	103284736	52	6582
2026-01-06 01:26:09.14	2.37	36.00	-37.4	-38.8	27.2	3.02e+01	0	34	0	104857600	50	5959
2026-01-06 01:26:10.15	2.10	35.77	-36.1	-37.3	28.4	3.02e+01	0	34	0	106954752	48	5654
2026-01-06 01:26:11.16	1.84	35.54	-35.9	-37.1	28.6	3.02e+01	0	34	0	108527616	46	6173
2026-01-06 01:26:12.17	1.59	35.31	-36.3	-37.6	28.2	3.02e+01	0	34	0	110624768	46	6547
2026-01-06 01:26:13.18	1.34	35.08	-36.3	-37.7	28.2	3.02e+01	0	34	0	112721920	46	6574
2026-01-06 01:26:14.19	1.09	34.85	-36.2	-37.4	28.2	3.02e+01	0	34	0	114294784	46	6412
2026-01-06 01:26:15.20	0.84	34.63	-35.8	-37.1	28.7	3.02e+01	0	34	0	116391936	46	6146
2026-01-06 01:26:16.21	0.60	34.40	-34.9	-36.1	29.5	3.02e+01	0	34	0	117964800	46	5503
2026-01-06 01:26:17.22	0.37	34.18	-34.9	-36.1	29.5	3.02e+01	0	34	0	120061952	44	6166
2026-01-06 01:26:18.23	0.13	33.96	-34.9	-36.2	29.4	3.02e+01	0	34	0	122159104	44	6208
2026-01-06 01:26:19.23	359.90	33.74	-34.8	-36.0	29.4	3.02e+01	0	34	0	123731968	44	6116
2026-01-06 01:26:20.25	359.67	33.51	-34.9	-36.0	29.5	3.02e+01	0	34	0	125829120	44	6131
2026-01-06 01:26:21.25	359.45	33.30	-34.7	-35.9	29.7	3.02e+01	0	34	0	127401984	44	6006
2026-01-06 01:26:22.26	359.23	33.08	-34.7	-35.9	29.6	3.02e+01	0	34	0	129499136	44	6017
2026-01-06 01:26:23.27	359.01	32.86	-34.8	-36.0	29.5	3.02e+01	0	34	0	131596288	44	6070
2026-01-06 01:26:24.28	358.80	32.65	-34.5	-35.7	29.7	3.02e+01	0	34	0	133169152	44	5870
2026-01-06 01:26:25.29	358.58	32.43	-34.5	-35.7	29.7	3.02e+01	0	34	0	135266304	44	5912
2026-01-06 01:26:26.30	358.38	32.22	-34.3	-35.5	29.9	3.02e+01	0	34	0	136839168	44	5754
2026-01-06 01:26:27.31	358.17	32.01	-34.3	-35.5	29.9	3.02e+01	0	34	0	138936320	44	5763
2026-01-06 01:26:28.32	357.96	31.80	-34.2	-35.3	30.0	3.02e+01	0	34	0	141033472	44	5649
2026-01-06 01:26:29.33	357.76	31.59	-34.1	-35.2	30.1	3.02e+01	0	34	0	142606336	44	5581
2026-01-06 01:26:30.33	357.57	31.38	-34.0	-35.2	30.2	3.02e+01	0	34	0	144703488	44	5552
2026-01-06 01:26:31.34	357.37	31.18	-34.1	-35.2	30.1	3.02e+01	0	34	0	146800640	44	5594
2026-01-06 01:26:32.35	357.18	30.97	-33.9	-35.1	30.3	3.02e+01	0	34	0	148373504	42	6152
2026-01-06 01:26:33.36	356.99	30.77	-34.1	-35.3	30.2	3.02e+01	0	34	0	150470656	42	6287
2026-01-06 01:26:34.37	356.80	30.56	-34.0	-35.2	30.2	3.02e+01	0	34	0	152043520	42	6234
2026-01-06 01:26:35.37	356.62	30.36	-34.1	-35.3	30.1	3.02e+01	0	34	0	154140672	42	6320
2026-01-06 01:26:36.38	356.43	30.16	-34.3	-35.5	30.0	3.02e+01	0	34	0	156237824	42	6463
2026-01-06 01:26:37.39	356.25	29.96	-34.1	-35.3	30.1	3.02e+01	0	34	0	157810688	42	6308
2026-01-06 01:26:38.40	356.07	29.76	-34.1	-35.3	30.0	3.02e+01	0	34	0	159907840	42	6317
2026-01-06 01:26:39.41	355.90	29.56	-34.1	-35.3	30.1	3.02e+01	0	34	0	161480704	42	6286
2026-01-06 01:26:40.42	355.72	29.37	-34.1	-35.2	30.1	3.02e+01	0	34	0	163577856	42	6274
2026-01-06 01:26:41.43	355.55	29.17	-33.9	-35.1	30.2	3.02e+01	0	34	0	165675008	42	6182
2026-01-06 01:26:42.44	355.38	28.98	-34.1	-35.2	30.1	3.02e+01	0	34	0	167247872	42	6271
2026-01-06 01:26:43.45	355.22	28.79	-34.0	-35.2	30.2	3.02e+01	0	34	0	169345024	42	6217
2026-01-06 01:26:44.46	355.05	28.59	-34.2	-35.4	30.0	3.02e+01	0	34	0	170917888	42	6369
2026-01-06 01:26:45.47	354.89	28.40	-34.3	-35.5	30.0	3.02e+01	0	34	0	173015040	42	6446
2026-01-06 01:26:46.48	354.73	28.21	-34.2	-35.4	30.0	3.02e+01	0	34	0	175112192	42	6379
2026-01-06 01:26:47.49	354.57	28.03	-34.4	-35.6	29.8	3.02e+01	0	34	0	176685056	42	6549
2026-01-06 01:26:48.50	354.41	27.84	-34.4	-35.6	29.9	3.02e+01	0	34	0	178782208	42	6530
2026-01-06 01:26:49.51	354.26	27.65	-34.5	-35.7	29.8	3.02e+01	0	34	0	180355072	42	6577
2026-01-06 01:26:50.51	354.10	27.47	-34.5	-35.7	29.7	3.02e+01	0	34	0	182452224	42	6610
2026-01-06 01:26:51.52	353.95	27.29	-34.6	-35.8	29.6	3.02e+01	0	34	0	184549376	42	6708
2026-01-06 01:26:52.53	353.80	27.10	-34.7	-35.9	29.7	3.02e+01	0	34	0	186122240	42	6753
2026-01-06 01:26:53.54	353.66	26.92	-34.5	-35.7	29.7	3.02e+01	0	34	0	188219392	42	6592
2026-01-06 01:26:54.54	353.51	26.74	-34.6	-35.7	29.7	3.02e+01	0	34	0	189792256	42	6641
2026-01-06 01:26:55.55	353.37	26.56	-34.4	-35.5	29.8	3.02e+01	0	34	0	191889408	42	6490
2026-01-06 01:26:56.56	353.22	26.38	-34.4	-35.5	29.8	3.02e+01	0	34	0	193986560	42	6480
2026-01-06 01:26:57.57	353.08	26.21	-34.3	-35.4	29.9	3.02e+01	0	34	0	195559424	42	6415
2026-01-06 01:26:58.58	352.94	26.03	-34.5	-35.6	29.8	3.02e+01	0	34	0	197656576	42	6572
2026-01-06 01:26:59.59	352.81	25.86	-34.5	-35.7	29.8	3.02e+01	0	34	0	199753728	42	6629
2026-01-06 01:27:00.60	352.67	25.68	-34.6	-35.8	29.7	3.02e+01	0	34	0	201326592	42	6667
2026-01-06 01:27:01.61	352.54	25.51	-34.6	-35.8	29.7	3.02e+01	0	34	0	203423744	42	6685
2026-01-06 01:27:02.61	352.40	25.34	-34.7	-35.9	29.6	3.02e+01	0	34	0	204996608	42	6756
2026-01-06 01:27:03.62	352.27	25.17	-34.8	-36.0	29.5	3.02e+01	0	34	0	207093760	42	6854
2026-01-06 01:27:04.63	352.14	25.00	-35.0	-36.2	29.3	3.02e+01	0	34	0	209190912	44	6227
2026-01-06 01:27:05.64	352.01	24.83	-35.0	-36.3	29.3	3.02e+01	0	34	0	210763776	44	6302
2026-01-06 01:27:06.65	351.89	24.66	-35.0	-36.2	29.3	3.02e+01	0	34	0	212860928	44	6236
2026-01-06 01:27:07.66	351.76	24.49	-35.0	-36.2	29.2	3.02e+01	0	34	0	214433792	44	6272
2026-01-06 01:27:08.67	351.64	24.33	-34.9	-36.1	29.3	3.02e+01	0	34	0	216530944	44	6175
2026-01-06 01:27:09.68	351.52	24.16	-35.0	-36.2	29.3	3.02e+01	0	34	0	218628096	44	6259
2026-01-06 01:27:10.69	351.39	24.00	-34.8	-36.0	29.4	3.02e+01	0	34	0	220200960	44	6132
2026-01-06 01:27:11.70	351.27	23.84	-34.7	-35.9	29.5	3.02e+01	0	34	0	222298112	44	6041
2026-01-06 01:27:12.71	351.16	23.67	-34.7	-35.8	29.6	3.02e+01	0	34	0	223870976	44	5989
2026-01-06 01:27:13.72	351.04	23.51	-34.7	-35.9	29.6	3.02e+01	0	34	0	225968128	44	6043
2026-01-06 01:27:14.73	350.92	23.35	-34.8	-36.0	29.5	3.02e+01	0	34	0	228065280	44	6095
2026-01-06 01:27:15.74	350.81	23.19	-34.9	-36.1	29.3	3.02e+01	0	34	0	229638144	44	6199
2026-01-06 01:27:16.75	350.69	23.04	-34.8	-36.0	29.5	3.02e+01	0	34	0	231735296	44	6078
2026-01-06 01:27:17.76	350.58	22.88	-35.0	-36.2	29.2	3.02e+01	0	34	0	233308160	44	6260
2026-01-06 01:27:18.77	350.47	22.72	-34.8	-36.0	29.4	3.02e+01	0	34	0	235405312	44	6105
2026-01-06 01:27:19.77	350.36	22.57	-35.0	-36.2	29.5	3.02e+01	0	34	0	237502464	44	6208
2026-01-06 01:27:20.78	350.25	22.41	-34.8	-36.0	29.6	3.02e+01	0	34	0	239075328	44	6090
2026-01-06 01:27:21.79	350.15	22.26	-34.9	-36.1	29.5	3.02e+01	0	34	0	241172480	44	6153
2026-01-06 01:27:22.80	350.04	22.11	-34.9	-36.2	29.4	3.02e+01	0	34	0	242745344	44	6209
2026-01-06 01:27:23.81	349.94	21.96	-35.0	-36.2	29.4	3.02e+01	0	34	0	244842496	44	6264
2026-01-06 01:27:24.81	349.83	21.81	-35.1	-36.3	29.2	3.02e+01	0	34	0	246939648	44	6339
2026-01-06 01:27:25.82	349.73	21.66	-35.0	-36.2	29.3	3.02e+01	0	34	0	248512512	44	6263
2026-01-06 01:27:26.83	349.63	21.51	-35.0	-36.2	29.3	3.02e+01	0	34	0	250609664	44	6252
2026-01-06 01:27:27.84	349.53	21.36	-35.0	-36.2	29.2	3.02e+01	0	34	0	252706816	44	6254
2026-01-06 01:27:28.84	349.43	21.21	-35.0	-36.2	29.3	3.02e+01	0	34	0	254279680	44	6249
2026-01-06 01:27:29.85	349.33	21.07	-34.9	-36.1	29.3	3.02e+01	0	34	0	256376832	44	6192
2026-01-06 01:27:30.86	349.23	20.92	-34.8	-36.0	29.5	3.02e+01	0	34	0	257949696	44	6069
2026-01-06 01:27:31.87	349.13	20.78	-34.9	-36.0	29.4	3.02e+01	0	34	0	260046848	44	6129
2026-01-06 01:27:32.88	349.04	20.63	-34.8	-36.0	29.4	3.02e+01	0	34	0	262144000	44	6082
2026-01-06 01:27:33.88	348.94	20.49	-34.8	-36.0	29.5	3.02e+01	0	34	0	263716864	44	6082
2026-01-06 01:27:34.89	348.85	20.35	-34.6	-35.8	29.6	3.02e+01	0	34	0	265814016	44	5944
2026-01-06 01:27:35.90	348.76	20.21	-34.7	-35.9	29.4	3.02e+01	0	34	0	267386880	44	6052
2026-01-06 01:27:36.91	348.67	20.06	-34.9	-36.1	29.4	3.02e+01	0	34	0	269484032	44	6143
2026-01-06 01:27:37.92	348.57	19.92	-34.7	-35.9	29.5	3.02e+01	0	34	0	271056896	44	6022
2026-01-06 01:27:38.93	348.48	19.79	-34.8	-36.0	29.4	3.02e+01	0	34	0	273154048	44	6088
2026-01-06 01:27:39.93	348.40	19.65	-34.8	-36.0	29.4	3.02e+01	0	34	0	275251200	44	6109
2026-01-06 01:27:40.94	348.31	19.51	-34.7	-35.9	29.4	3.02e+01	0	34	0	276824064	44	6060
2026-01-06 01:27:41.95	348.22	19.37	-34.7	-35.9	29.4	3.02e+01	0	34	0	278921216	44	6061
2026-01-06 01:27:42.96	348.13	19.24	-34.8	-36.0	29.4	3.02e+01	0	34	0	281018368	44	6092
2026-01-06 01:27:43.97	348.05	19.10	-34.8	-36.1	29.3	3.02e+01	0	34	0	282591232	44	6148
2026-01-06 01:27:44.97	347.96	18.97	-34.7	-35.9	29.4	3.02e+01	0	34	0	284688384	44	6044
2026-01-06 01:27:45.99	347.88	18.83	-34.6	-35.8	29.5	3.02e+01	0	34	0	286261248	44	5958
2026-01-06 01:27:46.99	347.80	18.70	-34.7	-35.9	29.4	3.02e+01	0	34	0	288358400	44	6045
2026-01-06 01:27:48.01	347.71	18.57	-34.6	-35.8	29.5	3.02e+01	0	34	0	290455552	44	5962
2026-01-06 01:27:49.01	347.63	18.44	-34.6	-35.8	29.6	3.02e+01	0	34	0	292028416	44	5961
2026-01-06 01:27:50.02	347.55	18.31	-34.7	-35.9	29.4	3.02e+01	0	34	0	294125568	44	6062
2026-01-06 01:27:51.03	347.47	18.17	-34.7	-35.9	29.5	3.02e+01	0	34	0	296222720	44	6034
2026-01-06 01:27:52.04	347.39	18.04	-34.8	-36.0	29.4	3.02e+01	0	34	0	297795584	44	6089
2026-01-06 01:27:53.05	347.31	17.92	-34.7	-35.9	29.4	3.02e+01	0	34	0	299892736	44	6042
2026-01-06 01:27:54.06	347.23	17.79	-34.7	-35.9	29.5	3.02e+01	0	34	0	301465600	44	6042
2026-01-06 01:27:55.07	347.16	17.66	-34.8	-36.0	29.4	3.02e+01	0	34	0	303562752	44	6075
2026-01-06 01:27:56.08	347.08	17.53	-34.8	-36.0	29.4	3.02e+01	0	34	0	305659904	44	6093
2026-01-06 01:27:57.09	347.01	17.41	-34.9	-36.1	29.2	3.02e+01	0	34	0	307232768	44	6190
2026-01-06 01:27:58.10	346.93	17.28	-34.8	-36.0	29.2	3.02e+01	0	34	0	309329920	44	6127
2026-01-06 01:27:59.11	346.86	17.16	-34.7	-35.9	29.4	3.02e+01	0	34	0	310902784	44	6052
2026-01-06 01:28:00.11	346.78	17.03	-34.8	-36.0	29.3	3.02e+01	0	34	0	312999936	44	6115
2026-01-06 01:28:01.13	346.71	16.91	-34.8	-36.0	29.3	3.02e+01	0	34	0	315097088	44	6087
2026-01-06 01:28:02.14	346.64	16.78	-34.6	-35.8	29.5	3.02e+01	0	34	0	316669952	44	5975
2026-01-06 01:28:03.14	346.57	16.66	-34.8	-36.0	29.3	3.02e+01	0	34	0	318767104	44	6120
2026-01-06 01:28:04.15	346.49	16.54	-34.7	-35.9	29.3	3.02e+01	0	34	0	320339968	44	6041
2026-01-06 01:28:05.16	346.42	16.42	-34.9	-36.1	29.2	3.02e+01	0	34	0	322437120	44	6163
2026-01-06 01:28:06.17	346.35	16.30	-34.5	-35.7	29.6	3.02e+01	0	34	0	324534272	44	5866
2026-01-06 01:28:07.18	346.29	16.18	-34.7	-35.9	29.4	3.02e+01	0	34	0	326107136	44	6041
2026-01-06 01:28:08.19	346.22	16.06	-34.5	-35.7	29.4	3.02e+01	0	34	0	328204288	44	5902
2026-01-06 01:28:09.20	346.15	15.94	-34.6	-35.8	29.5	3.02e+01	0	34	0	329777152	44	5928
2026-01-06 01:28:10.21	346.08	15.82	-34.5	-35.7	29.5	3.02e+01	0	34	0	331874304	44	5901
2026-01-06 01:28:11.22	346.01	15.71	-34.6	-35.8	29.4	3.02e+01	0	34	0	333971456	44	5968
2026-01-06 01:28:12.23	345.95	15.59	-34.6	-35.8	29.4	3.02e+01	0	34	0	335544320	44	5988
2026-01-06 01:28:13.24	345.88	15.47	-34.5	-35.7	29.5	3.02e+01	0	34	0	337641472	44	5866
2026-01-06 01:28:14.25	345.82	15.36	-34.5	-35.7	29.4	3.02e+01	0	34	0	339214336	44	5906
2026-01-06 01:28:15.26	345.75	15.24	-34.5	-35.7	29.5	3.02e+01	0	34	0	341311488	44	5869
2026-01-06 01:28:16.27	345.69	15.13	-34.4	-35.6	29.5	3.02e+01	0	34	0	343408640	44	5833
2026-01-06 01:28:17.28	345.63	15.01	-34.5	-35.7	29.5	3.02e+01	0	34	0	344981504	44	5909
2026-01-06 01:28:18.29	345.56	14.90	-34.5	-35.6	29.6	3.02e+01	0	34	0	347078656	44	5847
2026-01-06 01:28:19.30	345.50	14.79	-34.6	-35.8	29.4	3.02e+01	0	34	0	349175808	44	5940
2026-01-06 01:28:20.31	345.44	14.67	-34.5	-35.7	29.4	3.02e+01	0	34	0	350748672	44	5900
2026-01-06 01:28:21.32	345.38	14.56	-34.5	-35.7	29.6	3.02e+01	0	34	0	352845824	44	5881
2026-01-06 01:28:22.33	345.32	14.45	-34.6	-35.8	29.5	3.02e+01	0	34	0	354418688	44	5948
2026-01-06 01:28:23.34	345.26	14.34	-34.7	-35.9	29.4	3.02e+01	0	34	0	356515840	44	5997
2026-01-06 01:28:24.35	345.20	14.23	-34.6	-35.8	29.4	3.02e+01	0	34	0	358612992	44	5964
2026-01-06 01:28:25.36	345.14	14.12	-34.6	-35.8	29.5	3.02e+01	0	34	0	360185856	44	5936
2026-01-06 01:28:26.37	345.08	14.01	-34.7	-35.9	29.3	3.02e+01	0	34	0	362283008	44	6003
2026-01-06 01:28:27.37	345.02	13.90	-34.8	-36.0	29.2	3.02e+01	0	34	0	363855872	44	6096
2026-01-06 01:28:28.38	344.96	13.79	-34.7	-36.0	29.3	3.02e+01	0	34	0	365953024	44	6067
2026-01-06 01:28:29.39	344.91	13.68	-35.0	-36.3	29.0	3.02e+01	0	34	0	368050176	44	6293
2026-01-06 01:28:30.40	344.85	13.58	-35.1	-36.3	29.1	3.02e+01	0	34	0	369623040	44	6314
2026-01-06 01:28:31.41	344.79	13.47	-35.1	-36.3	29.0	3.02e+01	0	34	0	371720192	44	6334
2026-01-06 01:28:32.42	344.74	13.36	-35.0	-36.2	29.0	3.02e+01	0	34	0	373293056	44	6255
2026-01-06 01:28:33.43	344.68	13.26	-35.3	-36.5	28.8	3.02e+01	0	34	0	375390208	44	6496
2026-01-06 01:28:34.44	344.63	13.15	-35.2	-36.5	28.7	3.02e+01	0	34	0	377487360	44	6455
2026-01-06 01:28:35.45	344.57	13.05	-35.3	-36.6	28.7	3.02e+01	0	34	0	379060224	44	6511
2026-01-06 01:28:36.46	344.52	12.94	-35.0	-36.3	28.9	3.02e+01	0	34	0	381157376	44	6289
2026-01-06 01:28:37.47	344.47	12.84	-35.0	-36.3	28.8	3.02e+01	0	34	0	382730240	44	6303
2026-01-06 01:28:38.48	344.41	12.74	-34.8	-36.0	29.1	3.02e+01	0	34	0	384827392	44	6131
2026-01-06 01:28:39.49	344.36	12.63	-34.9	-36.1	29.1	3.02e+01	0	34	0	386924544	44	6179
2026-01-06 01:28:40.49	344.31	12.53	-34.9	-36.2	29.1	3.02e+01	0	34	0	388497408	44	6208
2026-01-06 01:28:41.50	344.26	12.43	-34.9	-36.2	29.0	3.02e+01	0	34	0	390594560	44	6217
2026-01-06 01:28:42.51	344.21	12.33	-34.8	-36.1	29.1	3.02e+01	0	34	0	392691712	44	6152
2026-01-06 01:28:43.52	344.15	12.23	-34.8	-36.0	29.1	3.02e+01	0	34	0	394264576	44	6105
2026-01-06 01:28:44.53	344.10	12.13	-34.9	-36.1	29.2	3.02e+01	0	34	0	396361728	44	6137
2026-01-06 01:28:45.54	344.05	12.03	-35.0	-36.2	29.0	3.02e+01	0	34	0	397934592	44	6255
2026-01-06 01:28:46.54	344.00	11.93	-34.8	-36.1	29.1	3.02e+01	0	34	0	400031744	44	6137
2026-01-06 01:28:47.55	343.96	11.83	-35.0	-36.2	29.0	3.02e+01	0	34	0	402128896	44	6230
2026-01-06 01:28:48.56	343.91	11.73	-34.9	-36.1	29.0	3.02e+01	0	34	0	403701760	44	6197
2026-01-06 01:28:49.57	343.86	11.63	-35.0	-36.2	29.0	3.02e+01	0	34	0	405798912	44	6236
2026-01-06 01:28:50.58	343.81	11.53	-35.1	-36.3	28.9	3.02e+01	0	34	0	407371776	44	6304
2026-01-06 01:28:51.59	343.76	11.43	-35.2	-36.4	28.9	3.02e+01	0	34	0	409468928	44	6372
2026-01-06 01:28:52.60	343.71	11.34	-35.0	-36.2	28.9	3.02e+01	0	34	0	411566080	44	6260
2026-01-06 01:28:53.60	343.67	11.24	-35.2	-36.4	28.8	3.02e+01	0	34	0	413138944	44	6404
2026-01-06 01:28:54.61	343.62	11.14	-35.1	-36.3	28.8	3.02e+01	0	34	0	415236096	44	6336
2026-01-06 01:28:55.62	343.57	11.05	-35.2	-36.4	28.7	3.02e+01	0	34	0	416808960	44	6385
2026-01-06 01:28:56.63	343.53	10.95	-35.2	-36.4	28.7	3.02e+01	0	34	0	418906112	44	6396
2026-01-06 01:28:57.64	343.48	10.86	-35.1	-36.4	28.8	3.02e+01	0	34	0	421003264	44	6366
2026-01-06 01:28:58.65	343.44	10.76	-35.3	-36.5	28.6	3.02e+01	0	34	0	422576128	44	6498
2026-01-06 01:28:59.66	343.39	10.67	-35.1	-36.4	28.8	3.02e+01	0	34	0	424673280	44	6363
2026-01-06 01:29:00.67	343.35	10.57	-35.2	-36.5	28.7	3.02e+01	0	34	0	426246144	44	6451
2026-01-06 01:29:01.68	343.30	10.48	-35.2	-36.4	28.7	3.02e+01	0	34	0	428343296	44	6410
2026-01-06 01:29:02.69	343.26	10.38	-35.2	-36.4	28.7	3.02e+01	0	34	0	430440448	44	6420
2026-01-06 01:29:03.69	343.21	10.29	-35.2	-36.4	28.6	3.02e+01	0	34	0	432013312	44	6419
2026-01-06 01:29:04.70	343.17	10.20	-35.1	-36.4	28.7	3.02e+01	0	34	0	434110464	44	6354
2026-01-06 01:29:05.71	343.13	10.11	-35.2	-36.5	28.7	3.02e+01	0	34	0	435683328	44	6430
2026-01-06 01:29:06.72	343.09	10.02	-35.0	-36.3	28.8	3.02e+01	0	34	0	437780480	44	6290
2026-01-06 01:29:07.73	343.04	9.92	-35.2	-36.4	28.8	3.02e+01	0	34	0	439877632	44	6411
2026-01-06 01:29:08.74	343.00	9.83	-35.2	-36.4	28.7	3.02e+01	0	34	0	441450496	44	6393
2026-01-06 01:29:09.75	342.96	9.74	-35.4	-36.6	28.6	3.02e+01	0	34	0	443547648	44	6568
2026-01-06 01:29:10.76	342.92	9.65	-35.3	-36.5	28.6	3.02e+01	0	34	0	445644800	44	6461
2026-01-06 01:29:11.76	342.88	9.56	-35.2	-36.5	28.6	3.02e+01	0	34	0	447217664	44	6438
2026-01-06 01:29:12.77	342.84	9.47	-35.4	-36.7	28.4	3.02e+01	0	34	0	449314816	44	6600
2026-01-06 01:29:13.78	342.80	9.38	-35.4	-36.7	28.5	3.02e+01	0	34	0	450887680	44	6579
2026-01-06 01:29:14.79	342.76	9.29	-35.5	-36.7	28.5	3.02e+01	0	34	0	452984832	44	6615
2026-01-06 01:29:15.80	342.72	9.20	-35.5	-36.7	28.5	3.02e+01	0	34	0	455081984	44	6640
