passes_logs/2026/01/06/R4.6S_Anadyr/R4.6S_Anadyr__20260106_025521_AQUA_rec.log

#Pass ID: 20260106_025521_AQUA
#Satellite: AQUA
#Configuration: AQUA
#almurnet v.1.7.20251203
#Start time: 2026-01-06 02:55:21

#Version: 2.2.20231116
#Station: R4.6S_Anadyr
#Location: 177.4865 lon 64.73178 lat
#TLE: 1 27424U 02022A   26004.96787593  .00001598  00000+0  32997-3 0  9996
#TLE: 2 27424  98.4069 331.2279 0002002  90.2377   0.6092 14.61798176259425

#Time	Az	El	Level	Level2	SNR	BER	BlckErr	Temp	State	Recorded	gain1	gain2
2026-01-06 02:55:21.70	182.74	0.04	-48.5	-63.4	3.5	1.51e+00	0	31	0	0	60	53416
2026-01-06 02:55:22.71	182.78	0.10	-48.6	-66.7	3.5	3.02e+01	0	32	104	0	60	83656
2026-01-06 02:55:23.72	182.82	0.16	-48.7	-66.9	3.5	3.02e+01	0	32	104	0	60	84698
2026-01-06 02:55:24.72	182.86	0.22	-48.8	-66.9	3.5	3.02e+01	0	32	104	0	60	84887
2026-01-06 02:55:25.73	182.90	0.28	-48.6	-66.9	3.5	3.02e+01	0	32	104	0	60	84995
2026-01-06 02:55:26.75	182.94	0.34	-48.8	-66.9	3.5	3.02e+01	0	32	104	0	60	84762
2026-01-06 02:55:27.76	182.97	0.40	-48.8	-66.9	3.5	3.02e+01	0	33	104	0	60	85052
2026-01-06 02:55:28.76	183.01	0.46	-48.9	-66.8	3.5	3.02e+01	0	33	104	0	60	84622
2026-01-06 02:55:29.77	183.05	0.52	-48.9	-66.8	3.5	3.02e+01	0	33	104	0	60	84467
2026-01-06 02:55:30.78	183.09	0.58	-48.8	-66.8	3.5	3.02e+01	0	33	104	0	60	84156
2026-01-06 02:55:31.79	183.13	0.65	-48.8	-66.7	3.5	3.02e+01	0	33	104	0	60	83564
2026-01-06 02:55:32.80	183.17	0.71	-48.7	-66.6	3.5	3.02e+01	0	33	104	0	60	82419
2026-01-06 02:55:33.81	183.21	0.77	-48.5	-66.5	3.5	3.02e+01	0	33	104	0	60	80903
2026-01-06 02:55:34.81	183.25	0.83	-48.3	-66.2	3.5	3.02e+01	0	33	104	0	60	78755
2026-01-06 02:55:35.82	183.29	0.89	-48.0	-65.9	3.5	3.02e+01	0	33	104	0	60	75482
2026-01-06 02:55:36.83	183.33	0.96	-47.6	-65.3	3.5	3.02e+01	0	33	104	0	60	71114
2026-01-06 02:55:37.84	183.37	1.02	-47.6	-65.5	3.5	3.02e+01	0	33	104	0	60	72446
2026-01-06 02:55:38.85	183.41	1.08	-47.6	-65.2	3.5	3.02e+01	0	33	104	0	60	70088
2026-01-06 02:55:39.86	183.46	1.14	-47.6	-65.4	3.5	3.02e+01	0	33	104	0	60	71692
2026-01-06 02:55:40.87	183.50	1.21	-47.6	-65.2	3.5	3.02e+01	0	33	104	0	60	70426
2026-01-06 02:55:41.88	183.54	1.27	-47.6	-65.3	3.5	3.02e+01	0	33	104	0	60	71209
2026-01-06 02:55:42.89	183.58	1.33	-47.6	-65.4	3.5	3.02e+01	0	33	104	0	60	71531
2026-01-06 02:55:43.90	183.62	1.39	-47.6	-65.5	3.5	3.02e+01	0	33	104	0	60	72103
2026-01-06 02:55:44.91	183.66	1.46	-47.6	-65.5	3.5	3.02e+01	0	33	104	0	60	72227
2026-01-06 02:55:45.92	183.70	1.52	-47.6	-65.6	3.5	3.02e+01	0	33	104	0	60	73134
2026-01-06 02:55:46.93	183.75	1.58	-47.6	-65.5	3.5	3.02e+01	0	33	104	0	60	72614
2026-01-06 02:55:47.94	183.79	1.65	-47.6	-65.6	3.5	3.02e+01	0	33	104	0	60	73174
2026-01-06 02:55:48.95	183.83	1.71	-47.6	-65.6	3.5	3.02e+01	0	33	104	0	60	72998
2026-01-06 02:55:49.96	183.88	1.78	-47.6	-65.4	3.5	3.02e+01	0	33	104	0	60	71630
2026-01-06 02:55:50.97	183.92	1.84	-47.6	-65.5	3.5	3.02e+01	0	33	104	0	60	72372
2026-01-06 02:55:51.98	183.96	1.91	-47.6	-65.4	3.5	3.02e+01	0	33	104	0	60	71546
2026-01-06 02:55:52.99	184.00	1.97	-47.6	-65.4	3.5	3.02e+01	0	33	104	0	60	71566
2026-01-06 02:55:53.99	184.05	2.03	-47.6	-65.3	3.5	3.02e+01	0	33	104	0	60	70462
2026-01-06 02:55:55.00	184.09	2.10	-47.6	-65.2	3.5	3.02e+01	0	33	104	0	60	70431
2026-01-06 02:55:56.01	184.14	2.16	-47.6	-65.3	3.5	3.02e+01	0	33	104	0	60	71163
2026-01-06 02:55:57.02	184.18	2.23	-47.6	-65.4	3.5	3.02e+01	0	33	104	0	60	71762
2026-01-06 02:55:58.03	184.22	2.29	-47.6	-65.5	3.5	3.02e+01	0	33	104	0	60	72118
2026-01-06 02:55:59.04	184.27	2.36	-47.6	-65.2	3.5	3.02e+01	0	33	104	0	60	69964
2026-01-06 02:56:00.05	184.31	2.42	-47.6	-65.0	3.5	3.02e+01	0	33	104	0	60	68457
2026-01-06 02:56:01.06	184.36	2.49	-47.6	-64.8	3.5	3.02e+01	0	33	104	0	60	66622
2026-01-06 02:56:02.07	184.40	2.56	-47.6	-65.3	3.5	3.02e+01	0	33	104	0	60	70897
2026-01-06 02:56:03.08	184.45	2.62	-47.6	-65.5	3.5	3.02e+01	0	33	104	0	60	72722
2026-01-06 02:56:04.09	184.49	2.69	-47.6	-64.7	3.5	3.02e+01	0	33	104	0	60	66033
2026-01-06 02:56:05.10	184.54	2.75	-47.5	-62.6	4.0	3.02e+01	0	33	104	0	60	51883
2026-01-06 02:56:06.11	184.59	2.82	-47.4	-61.1	4.7	3.02e+01	0	33	104	0	60	43818
2026-01-06 02:56:07.12	184.63	2.89	-47.4	-60.0	5.2	3.02e+01	0	33	0	0	60	38397
2026-01-06 02:56:08.13	184.68	2.95	-47.4	-60.9	4.7	3.02e+01	0	33	104	0	60	42635
2026-01-06 02:56:09.13	184.73	3.02	-47.5	-62.9	4.0	3.02e+01	0	33	104	0	60	53626
2026-01-06 02:56:10.14	184.77	3.09	-47.5	-61.4	3.7	3.02e+01	0	33	104	0	60	44986
2026-01-06 02:56:11.15	184.82	3.16	-46.8	-55.1	9.7	3.02e+01	0	33	0	0	60	21936
2026-01-06 02:56:12.16	184.87	3.22	-45.6	-50.5	14.4	3.02e+01	0	33	0	2097152	60	12883
2026-01-06 02:56:13.17	184.91	3.29	-43.7	-46.9	18.4	3.02e+01	0	33	0	3670016	60	8485
2026-01-06 02:56:14.18	184.96	3.36	-42.3	-44.7	20.6	3.02e+01	0	33	0	5767168	60	6649
2026-01-06 02:56:15.19	185.01	3.43	-40.7	-42.6	22.6	3.02e+01	0	33	0	7864320	56	6565
2026-01-06 02:56:16.20	185.06	3.49	-39.7	-41.5	23.6	3.02e+01	0	33	0	9437184	54	6430
2026-01-06 02:56:17.21	185.11	3.56	-39.0	-40.7	24.3	3.02e+01	0	33	0	11534336	54	5878
2026-01-06 02:56:18.22	185.15	3.63	-39.0	-40.6	24.3	3.02e+01	0	33	0	13631488	52	6549
2026-01-06 02:56:19.23	185.20	3.70	-38.9	-40.5	25.0	3.02e+01	0	33	0	15204352	52	6490
2026-01-06 02:56:20.23	185.25	3.77	-40.2	-42.1	23.1	3.02e+01	0	33	0	17301504	56	6145
2026-01-06 02:56:21.24	185.30	3.84	-47.0	-56.8	4.9	3.02e+01	0	33	104	18350080	60	26585
2026-01-06 02:56:22.25	185.35	3.91	-40.7	-42.6	22.5	3.02e+01	0	33	0	18350080	56	6571
2026-01-06 02:56:23.26	185.40	3.98	-41.5	-43.6	22.9	3.02e+01	0	33	0	20447232	60	5845
2026-01-06 02:56:24.27	185.45	4.05	-43.6	-46.6	19.3	3.02e+01	0	33	0	22020096	60	8262
2026-01-06 02:56:25.28	185.50	4.12	-38.2	-39.7	25.3	3.02e+01	0	33	0	24117248	52	5872
2026-01-06 02:56:26.29	185.55	4.19	-38.3	-39.8	25.2	3.02e+01	0	33	0	26214400	52	5982
2026-01-06 02:56:27.30	185.60	4.26	-38.4	-39.9	25.2	3.02e+01	0	33	0	27787264	52	6034
2026-01-06 02:56:28.31	185.65	4.33	-38.3	-39.8	25.3	3.02e+01	0	33	0	29884416	52	5963
2026-01-06 02:56:29.32	185.71	4.40	-38.4	-40.0	25.2	3.02e+01	0	33	0	31981568	52	6067
2026-01-06 02:56:30.33	185.76	4.47	-37.7	-39.2	25.7	3.02e+01	0	33	0	33554432	50	6230
2026-01-06 02:56:31.34	185.81	4.54	-38.0	-39.5	25.6	3.02e+01	0	33	0	35651584	50	6475
2026-01-06 02:56:32.35	185.86	4.61	-37.9	-39.4	25.8	3.02e+01	0	33	0	37224448	50	6355
2026-01-06 02:56:33.35	185.91	4.68	-37.7	-39.2	25.9	3.02e+01	0	33	0	39321600	50	6232
2026-01-06 02:56:34.36	185.97	4.75	-37.7	-39.2	25.8	3.02e+01	0	33	0	41418752	50	6233
2026-01-06 02:56:35.37	186.02	4.82	-37.8	-39.3	25.8	3.02e+01	0	33	0	42991616	50	6297
2026-01-06 02:56:36.38	186.07	4.90	-37.4	-38.9	26.2	3.02e+01	0	33	0	45088768	50	6020
2026-01-06 02:56:37.39	186.12	4.97	-37.2	-38.7	26.4	3.02e+01	0	33	0	46661632	50	5860
2026-01-06 02:56:38.40	186.18	5.04	-37.1	-38.5	26.5	3.02e+01	0	33	0	48758784	50	5776
2026-01-06 02:56:39.41	186.23	5.11	-37.0	-38.4	26.6	3.02e+01	0	33	0	50331648	50	5707
2026-01-06 02:56:40.42	186.29	5.18	-36.9	-38.4	26.7	3.02e+01	0	33	0	52428800	48	6355
2026-01-06 02:56:41.43	186.34	5.26	-36.9	-38.3	26.7	3.02e+01	0	33	0	54525952	48	6349
2026-01-06 02:56:42.44	186.40	5.33	-37.1	-38.6	26.6	3.02e+01	0	33	0	56098816	48	6506
2026-01-06 02:56:43.44	186.45	5.40	-36.8	-38.2	26.8	3.02e+01	0	33	0	58195968	48	6276
2026-01-06 02:56:44.45	186.51	5.48	-36.9	-38.3	26.7	3.02e+01	0	33	0	60293120	48	6340
2026-01-06 02:56:45.46	186.56	5.55	-36.9	-38.2	26.8	3.02e+01	0	33	0	61865984	48	6275
2026-01-06 02:56:46.47	186.62	5.62	-36.8	-38.2	26.9	3.02e+01	0	33	0	63963136	48	6257
2026-01-06 02:56:47.48	186.67	5.70	-36.7	-38.1	27.0	3.02e+01	0	33	0	65536000	48	6153
2026-01-06 02:56:48.49	186.73	5.77	-36.7	-38.1	27.0	3.02e+01	0	33	0	67633152	48	6187
2026-01-06 02:56:49.50	186.79	5.85	-36.7	-38.1	27.0	3.02e+01	0	33	0	69730304	48	6183
2026-01-06 02:56:50.51	186.84	5.92	-36.7	-38.1	27.1	3.02e+01	0	33	0	71303168	48	6185
2026-01-06 02:56:51.52	186.90	6.00	-36.8	-38.2	26.9	3.02e+01	0	33	0	73400320	48	6214
2026-01-06 02:56:52.53	186.96	6.07	-36.8	-38.2	26.9	3.02e+01	0	33	0	75497472	48	6264
2026-01-06 02:56:53.53	187.02	6.15	-36.7	-38.1	27.1	3.02e+01	0	33	0	77070336	48	6173
2026-01-06 02:56:54.55	187.07	6.22	-36.6	-38.0	27.2	3.02e+01	0	33	0	79167488	48	6072
2026-01-06 02:56:55.55	187.13	6.30	-36.7	-38.1	27.1	3.02e+01	0	33	0	80740352	48	6142
2026-01-06 02:56:56.56	187.19	6.38	-36.6	-38.0	27.2	3.02e+01	0	33	0	82837504	48	6090
2026-01-06 02:56:57.57	187.25	6.45	-36.8	-38.2	27.1	3.02e+01	0	33	0	84934656	48	6210
2026-01-06 02:56:58.59	187.31	6.53	-36.7	-38.1	27.1	3.02e+01	0	33	0	86507520	48	6158
2026-01-06 02:56:59.59	187.37	6.61	-36.6	-38.0	27.2	3.02e+01	0	33	0	88604672	48	6099
2026-01-06 02:57:00.60	187.43	6.68	-36.6	-37.9	27.2	3.02e+01	0	33	0	90177536	48	6064
2026-01-06 02:57:01.61	187.49	6.76	-36.7	-38.1	27.1	3.02e+01	0	33	0	92274688	48	6165
2026-01-06 02:57:02.62	187.55	6.84	-36.7	-38.1	27.1	3.02e+01	0	33	0	94371840	48	6184
2026-01-06 02:57:03.63	187.61	6.91	-36.7	-38.0	27.2	3.02e+01	0	33	0	95944704	48	6121
2026-01-06 02:57:04.65	187.68	6.99	-36.5	-37.9	27.3	3.02e+01	0	33	0	98041856	48	5999
2026-01-06 02:57:05.65	187.74	7.07	-36.6	-38.0	27.3	3.02e+01	0	33	0	99614720	48	6101
2026-01-06 02:57:06.66	187.80	7.15	-36.6	-38.0	27.3	3.02e+01	0	33	0	101711872	48	6072
2026-01-06 02:57:07.67	187.86	7.23	-36.5	-37.9	27.4	3.02e+01	0	33	0	103809024	48	6009
2026-01-06 02:57:08.68	187.92	7.31	-36.5	-37.9	27.4	3.02e+01	0	33	0	105381888	48	6015
2026-01-06 02:57:09.69	187.99	7.39	-36.4	-37.8	27.5	3.02e+01	0	34	0	107479040	48	5966
2026-01-06 02:57:10.70	188.05	7.47	-36.4	-37.7	27.6	3.02e+01	0	33	0	109051904	48	5907
2026-01-06 02:57:11.71	188.11	7.55	-36.3	-37.6	27.6	3.02e+01	0	33	0	111149056	48	5831
2026-01-06 02:57:12.72	188.18	7.63	-36.3	-37.7	27.5	3.02e+01	0	33	0	113246208	48	5880
2026-01-06 02:57:13.73	188.24	7.71	-36.3	-37.7	27.6	3.02e+01	0	33	0	114819072	48	5866
2026-01-06 02:57:14.73	188.31	7.79	-36.2	-37.5	27.7	3.02e+01	0	33	0	116916224	48	5750
2026-01-06 02:57:15.74	188.37	7.87	-36.1	-37.5	27.7	3.02e+01	0	33	0	118489088	48	5727
2026-01-06 02:57:16.75	188.44	7.95	-36.0	-37.3	27.8	3.02e+01	0	33	0	120586240	48	5651
2026-01-06 02:57:17.77	188.51	8.03	-36.1	-37.4	27.8	3.02e+01	0	34	0	122683392	48	5696
2026-01-06 02:57:18.77	188.57	8.11	-36.0	-37.4	27.9	3.02e+01	0	33	0	124256256	48	5665
2026-01-06 02:57:19.79	188.64	8.19	-36.0	-37.3	28.0	3.02e+01	0	33	0	126353408	48	5617
2026-01-06 02:57:20.79	188.71	8.27	-36.1	-37.4	27.8	3.02e+01	0	33	0	128450560	48	5683
2026-01-06 02:57:21.80	188.77	8.36	-36.2	-37.5	27.8	3.02e+01	0	33	0	130023424	48	5744
2026-01-06 02:57:22.81	188.84	8.44	-36.0	-37.3	27.9	3.02e+01	0	33	0	132120576	48	5651
2026-01-06 02:57:23.82	188.91	8.52	-36.1	-37.5	27.9	3.02e+01	0	33	0	133693440	48	5734
2026-01-06 02:57:24.82	188.98	8.60	-36.1	-37.5	27.9	3.02e+01	0	33	0	135790592	48	5734
2026-01-06 02:57:25.83	189.05	8.69	-36.1	-37.4	27.9	3.02e+01	0	33	0	137887744	48	5722
2026-01-06 02:57:26.84	189.12	8.77	-36.2	-37.5	27.8	3.02e+01	0	33	0	139460608	48	5780
2026-01-06 02:57:27.85	189.19	8.86	-36.1	-37.4	27.9	3.02e+01	0	33	0	141557760	48	5696
2026-01-06 02:57:28.86	189.26	8.94	-36.0	-37.3	28.0	3.02e+01	0	33	0	143130624	48	5634
2026-01-06 02:57:29.87	189.33	9.02	-36.2	-37.5	28.0	3.02e+01	0	33	0	145227776	48	5738
2026-01-06 02:57:30.88	189.40	9.11	-36.1	-37.4	27.9	3.02e+01	0	33	0	147324928	48	5696
2026-01-06 02:57:31.89	189.47	9.19	-36.2	-37.5	27.9	3.02e+01	0	33	0	148897792	48	5747
2026-01-06 02:57:32.90	189.54	9.28	-36.2	-37.5	27.9	3.02e+01	0	33	0	150994944	48	5766
2026-01-06 02:57:33.91	189.62	9.37	-35.9	-37.1	28.2	3.02e+01	0	33	0	152567808	46	6205
2026-01-06 02:57:34.92	189.69	9.45	-35.9	-37.2	28.2	3.02e+01	0	33	0	154664960	46	6209
2026-01-06 02:57:35.92	189.76	9.54	-35.9	-37.2	28.1	3.02e+01	0	33	0	156762112	46	6237
2026-01-06 02:57:36.93	189.84	9.62	-36.0	-37.3	28.1	3.02e+01	0	33	0	158334976	46	6307
2026-01-06 02:57:37.95	189.91	9.71	-35.8	-37.0	28.3	3.02e+01	0	33	0	160432128	46	6120
2026-01-06 02:57:38.95	189.99	9.80	-35.9	-37.1	28.2	3.02e+01	0	33	0	162004992	46	6184
2026-01-06 02:57:39.96	190.06	9.89	-35.9	-37.2	28.2	3.02e+01	0	33	0	164102144	46	6224
2026-01-06 02:57:40.97	190.14	9.97	-35.9	-37.2	28.1	3.02e+01	0	34	0	166199296	46	6236
2026-01-06 02:57:41.98	190.21	10.06	-36.0	-37.3	28.1	3.02e+01	0	34	0	167772160	46	6317
2026-01-06 02:57:42.99	190.29	10.15	-35.9	-37.2	28.1	3.02e+01	0	34	0	169869312	46	6234
2026-01-06 02:57:44.00	190.37	10.24	-35.9	-37.2	28.2	3.02e+01	0	34	0	171966464	46	6217
2026-01-06 02:57:45.01	190.45	10.33	-35.8	-37.1	28.2	3.02e+01	0	34	0	173539328	46	6179
2026-01-06 02:57:46.02	190.52	10.42	-35.8	-37.1	28.2	3.02e+01	0	34	0	175636480	46	6175
2026-01-06 02:57:47.03	190.60	10.51	-35.7	-37.0	28.3	3.02e+01	0	34	0	177209344	46	6096
2026-01-06 02:57:48.04	190.68	10.60	-35.8	-37.0	28.3	3.02e+01	0	34	0	179306496	46	6117
2026-01-06 02:57:49.05	190.76	10.69	-35.7	-36.9	28.4	3.02e+01	0	33	0	181403648	46	6058
2026-01-06 02:57:50.06	190.84	10.78	-35.7	-36.9	28.4	3.02e+01	0	34	0	182976512	46	6060
2026-01-06 02:57:51.07	190.92	10.87	-35.5	-36.8	28.5	3.02e+01	0	33	0	185073664	46	5963
2026-01-06 02:57:52.08	191.00	10.96	-35.5	-36.8	28.5	3.02e+01	0	34	0	186646528	46	5968
2026-01-06 02:57:53.09	191.09	11.05	-35.4	-36.7	28.6	3.02e+01	0	34	0	188743680	46	5868
2026-01-06 02:57:54.10	191.17	11.14	-35.4	-36.6	28.7	3.02e+01	0	33	0	190840832	46	5851
2026-01-06 02:57:55.10	191.25	11.24	-35.4	-36.6	28.7	3.02e+01	0	34	0	192413696	46	5852
2026-01-06 02:57:56.11	191.33	11.33	-35.4	-36.7	28.7	3.02e+01	0	34	0	194510848	46	5872
2026-01-06 02:57:57.12	191.42	11.42	-35.4	-36.6	28.7	3.02e+01	0	34	0	196608000	46	5826
2026-01-06 02:57:58.13	191.50	11.52	-35.4	-36.6	28.8	3.02e+01	0	34	0	198180864	46	5830
2026-01-06 02:57:59.14	191.59	11.61	-35.3	-36.6	28.7	3.02e+01	0	34	0	200278016	46	5813
2026-01-06 02:58:00.15	191.67	11.70	-35.4	-36.6	28.7	3.02e+01	0	34	0	201850880	46	5852
2026-01-06 02:58:01.16	191.76	11.80	-35.5	-36.7	28.7	3.02e+01	0	34	0	203948032	46	5899
2026-01-06 02:58:02.17	191.85	11.89	-35.4	-36.6	28.7	3.02e+01	0	34	0	206045184	46	5830
2026-01-06 02:58:03.17	191.93	11.99	-35.3	-36.6	28.8	3.02e+01	0	33	0	207618048	46	5807
2026-01-06 02:58:04.19	192.02	12.08	-35.5	-36.7	28.7	3.02e+01	0	34	0	209715200	46	5911
2026-01-06 02:58:05.19	192.11	12.18	-35.2	-36.5	28.8	3.02e+01	0	34	0	211288064	46	5745
2026-01-06 02:58:06.20	192.20	12.27	-35.3	-36.5	28.8	3.02e+01	0	34	0	213385216	46	5772
2026-01-06 02:58:07.21	192.29	12.37	-35.3	-36.5	28.9	3.02e+01	0	33	0	214958080	46	5791
2026-01-06 02:58:08.22	192.38	12.47	-35.2	-36.4	28.9	3.02e+01	0	34	0	217055232	46	5695
2026-01-06 02:58:09.23	192.47	12.56	-35.2	-36.4	28.9	3.02e+01	0	34	0	219152384	46	5689
2026-01-06 02:58:10.24	192.56	12.66	-35.3	-36.5	28.9	3.02e+01	0	34	0	220725248	46	5766
2026-01-06 02:58:11.25	192.65	12.76	-35.3	-36.6	28.8	3.02e+01	0	34	0	222822400	46	5797
2026-01-06 02:58:12.26	192.74	12.86	-35.1	-36.3	29.0	3.02e+01	0	34	0	224919552	46	5636
2026-01-06 02:58:13.27	192.84	12.96	-35.3	-36.5	28.8	3.02e+01	0	34	0	226492416	46	5790
2026-01-06 02:58:14.28	192.93	13.06	-35.1	-36.4	29.0	3.02e+01	0	34	0	228589568	46	5669
2026-01-06 02:58:15.29	193.03	13.16	-35.1	-36.4	29.0	3.02e+01	0	33	0	230162432	46	5665
2026-01-06 02:58:16.30	193.12	13.26	-35.1	-36.3	29.0	3.02e+01	0	33	0	232259584	46	5625
2026-01-06 02:58:17.30	193.22	13.36	-35.1	-36.3	29.1	3.02e+01	0	33	0	234356736	46	5633
2026-01-06 02:58:18.31	193.31	13.46	-35.1	-36.3	29.0	3.02e+01	0	34	0	235929600	46	5647
2026-01-06 02:58:19.32	193.41	13.56	-35.1	-36.3	29.1	3.02e+01	0	34	0	238026752	46	5651
2026-01-06 02:58:20.33	193.51	13.66	-35.3	-36.5	28.9	3.02e+01	0	33	0	240123904	46	5747
2026-01-06 02:58:21.34	193.61	13.76	-35.1	-36.3	29.0	3.02e+01	0	34	0	241696768	46	5646
2026-01-06 02:58:22.35	193.71	13.86	-35.2	-36.4	29.0	3.02e+01	0	34	0	243793920	46	5689
2026-01-06 02:58:23.36	193.81	13.97	-35.1	-36.3	29.1	3.02e+01	0	33	0	245366784	46	5638
2026-01-06 02:58:24.37	193.91	14.07	-35.0	-36.3	29.1	3.02e+01	0	34	0	247463936	46	5595
2026-01-06 02:58:25.38	194.01	14.17	-34.8	-36.0	29.2	3.02e+01	0	34	0	249561088	44	6123
2026-01-06 02:58:26.39	194.11	14.28	-34.9	-36.1	29.2	3.02e+01	0	33	0	251133952	44	6184
2026-01-06 02:58:27.40	194.22	14.38	-34.8	-36.0	29.3	3.02e+01	0	34	0	253231104	44	6089
2026-01-06 02:58:28.41	194.32	14.49	-34.8	-36.0	29.2	3.02e+01	0	34	0	254803968	44	6127
2026-01-06 02:58:29.42	194.42	14.59	-34.7	-35.9	29.4	3.02e+01	0	34	0	256901120	44	6028
2026-01-06 02:58:30.43	194.53	14.70	-34.8	-36.0	29.3	3.02e+01	0	34	0	258998272	44	6079
2026-01-06 02:58:31.43	194.63	14.80	-34.9	-36.1	29.3	3.02e+01	0	34	0	260571136	44	6148
2026-01-06 02:58:32.44	194.74	14.91	-35.1	-36.3	29.1	3.02e+01	0	34	0	262668288	44	6301
2026-01-06 02:58:33.45	194.85	15.02	-35.0	-36.2	29.1	3.02e+01	0	34	0	264241152	44	6227
2026-01-06 02:58:34.46	194.96	15.12	-34.9	-36.1	29.2	3.02e+01	0	33	0	266338304	44	6180
2026-01-06 02:58:35.47	195.07	15.23	-34.9	-36.1	29.3	3.02e+01	0	34	0	268435456	44	6160
2026-01-06 02:58:36.47	195.18	15.34	-34.8	-36.0	29.3	3.02e+01	0	34	0	270008320	44	6097
2026-01-06 02:58:37.48	195.29	15.45	-34.9	-36.1	29.2	3.02e+01	0	34	0	272105472	44	6157
2026-01-06 02:58:38.49	195.40	15.56	-34.6	-35.9	29.4	3.02e+01	0	34	0	273678336	44	5997
2026-01-06 02:58:39.50	195.51	15.67	-34.7	-35.9	29.4	3.02e+01	0	34	0	275775488	44	6032
2026-01-06 02:58:40.51	195.62	15.78	-34.7	-35.9	29.4	3.02e+01	0	34	0	277872640	44	5999
2026-01-06 02:58:41.52	195.74	15.89	-34.8	-36.0	29.3	3.02e+01	0	33	0	279445504	44	6076
2026-01-06 02:58:42.53	195.85	16.00	-34.7	-35.9	29.4	3.02e+01	0	34	0	281542656	44	6054
2026-01-06 02:58:43.54	195.97	16.11	-34.8	-36.0	29.4	3.02e+01	0	34	0	283115520	44	6071
2026-01-06 02:58:44.55	196.09	16.22	-34.7	-35.9	29.5	3.02e+01	0	34	0	285212672	44	6000
2026-01-06 02:58:45.56	196.20	16.33	-34.6	-35.8	29.6	3.02e+01	0	34	0	287309824	44	5936
2026-01-06 02:58:46.57	196.32	16.45	-34.5	-35.7	29.5	3.02e+01	0	34	0	288882688	44	5899
2026-01-06 02:58:47.58	196.44	16.56	-34.6	-35.8	29.5	3.02e+01	0	34	0	290979840	44	5948
2026-01-06 02:58:48.59	196.56	16.67	-34.6	-35.8	29.5	3.02e+01	0	34	0	293076992	44	5971
2026-01-06 02:58:49.59	196.68	16.79	-34.7	-35.9	29.4	3.02e+01	0	34	0	294649856	44	6043
2026-01-06 02:58:50.60	196.81	16.90	-34.7	-35.9	29.5	3.02e+01	0	34	0	296747008	44	6037
2026-01-06 02:58:51.61	196.93	17.02	-34.7	-35.9	29.5	3.02e+01	0	34	0	298319872	44	6027
2026-01-06 02:58:52.62	197.05	17.13	-34.7	-35.9	29.5	3.02e+01	0	34	0	300417024	44	6040
2026-01-06 02:58:53.63	197.18	17.25	-34.7	-35.9	29.4	3.02e+01	0	33	0	302514176	44	6048
2026-01-06 02:58:54.64	197.31	17.37	-34.6	-35.8	29.5	3.02e+01	0	34	0	304087040	44	5964
2026-01-06 02:58:55.65	197.43	17.48	-34.7	-35.9	29.4	3.02e+01	0	34	0	306184192	44	6022
2026-01-06 02:58:56.66	197.56	17.60	-34.7	-35.9	29.4	3.02e+01	0	34	0	307757056	44	6054
2026-01-06 02:58:57.67	197.69	17.72	-34.6	-35.8	29.6	3.02e+01	0	34	0	309854208	44	5944
2026-01-06 02:58:58.68	197.82	17.84	-34.6	-35.8	29.6	3.02e+01	0	34	0	311951360	44	5978
2026-01-06 02:58:59.69	197.95	17.96	-34.8	-36.0	29.3	3.02e+01	0	34	0	313524224	44	6116
2026-01-06 02:59:00.70	198.09	18.08	-34.6	-35.8	29.6	3.02e+01	0	34	0	315621376	44	5985
2026-01-06 02:59:01.71	198.22	18.20	-34.6	-35.8	29.5	3.02e+01	0	34	0	317194240	44	5989
2026-01-06 02:59:02.71	198.35	18.32	-34.5	-35.7	29.7	3.02e+01	0	34	0	319291392	44	5905
2026-01-06 02:59:03.72	198.49	18.44	-34.5	-35.7	29.7	3.02e+01	0	34	0	321388544	44	5922
2026-01-06 02:59:04.73	198.63	18.56	-34.6	-35.8	29.7	3.02e+01	0	34	0	322961408	44	5932
2026-01-06 02:59:05.74	198.76	18.68	-34.7	-35.8	29.5	3.02e+01	0	34	0	325058560	44	5992
2026-01-06 02:59:06.75	198.90	18.80	-34.6	-35.8	29.5	3.02e+01	0	34	0	326631424	44	5985
2026-01-06 02:59:07.76	199.04	18.93	-34.8	-35.9	29.5	3.02e+01	0	34	0	328728576	44	6063
2026-01-06 02:59:08.77	199.18	19.05	-34.8	-36.0	29.4	3.02e+01	0	34	0	330825728	44	6076
2026-01-06 02:59:09.78	199.33	19.17	-34.8	-36.0	29.4	3.02e+01	0	34	0	332398592	44	6075
2026-01-06 02:59:10.79	199.47	19.30	-34.7	-35.9	29.5	3.02e+01	0	34	0	334495744	44	6021
2026-01-06 02:59:11.80	199.62	19.42	-34.6	-35.8	29.6	3.02e+01	0	34	0	336592896	44	5945
2026-01-06 02:59:12.81	199.76	19.55	-34.5	-35.7	29.7	3.02e+01	0	34	0	338165760	44	5901
2026-01-06 02:59:13.82	199.91	19.68	-34.5	-35.7	29.6	3.02e+01	0	34	0	340262912	44	5910
2026-01-06 02:59:14.83	200.06	19.80	-34.7	-35.9	29.5	3.02e+01	0	34	0	341835776	44	6005
2026-01-06 02:59:15.83	200.21	19.93	-34.9	-36.1	29.4	3.02e+01	0	34	0	343932928	44	6168
2026-01-06 02:59:16.84	200.36	20.06	-34.8	-36.0	29.4	3.02e+01	0	34	0	346030080	44	6106
2026-01-06 02:59:17.85	200.51	20.18	-34.9	-36.1	29.3	3.02e+01	0	34	0	347602944	44	6149
2026-01-06 02:59:18.86	200.67	20.31	-34.8	-36.0	29.4	3.02e+01	0	34	0	349700096	44	6095
2026-01-06 02:59:19.87	200.82	20.44	-34.5	-35.7	29.6	3.02e+01	0	34	0	351272960	44	5914
2026-01-06 02:59:20.88	200.98	20.57	-34.7	-35.9	29.6	3.02e+01	0	34	0	353370112	44	6024
2026-01-06 02:59:21.89	201.14	20.70	-34.8	-36.0	29.4	3.02e+01	0	34	0	355467264	44	6088
2026-01-06 02:59:22.90	201.29	20.84	-35.0	-36.2	29.3	3.02e+01	0	34	0	357040128	44	6256
2026-01-06 02:59:23.91	201.46	20.97	-35.1	-36.3	29.2	3.02e+01	0	34	0	359137280	44	6301
2026-01-06 02:59:24.91	201.62	21.10	-35.2	-36.4	29.1	3.02e+01	0	34	0	361234432	44	6370
2026-01-06 02:59:25.92	201.78	21.23	-34.9	-36.1	29.4	3.02e+01	0	34	0	362807296	44	6150
2026-01-06 02:59:26.93	201.94	21.36	-34.7	-35.9	29.5	3.02e+01	0	34	0	364904448	44	6016
2026-01-06 02:59:27.94	202.11	21.50	-34.9	-36.1	29.3	3.02e+01	0	34	0	366477312	44	6199
2026-01-06 02:59:28.95	202.28	21.63	-34.9	-36.1	29.3	3.02e+01	0	34	0	368574464	44	6190
2026-01-06 02:59:29.96	202.45	21.77	-35.0	-36.3	29.2	3.02e+01	0	34	0	370147328	44	6288
2026-01-06 02:59:30.97	202.62	21.90	-34.9	-36.1	29.4	3.02e+01	0	34	0	372244480	44	6147
2026-01-06 02:59:31.98	202.79	22.04	-34.9	-36.1	29.4	3.02e+01	0	34	0	374341632	44	6191
2026-01-06 02:59:32.98	202.96	22.17	-34.8	-35.9	29.5	3.02e+01	0	34	0	375914496	44	6063
2026-01-06 02:59:33.99	203.14	22.31	-34.8	-36.0	29.4	3.02e+01	0	34	0	378011648	44	6088
2026-01-06 02:59:35.00	203.32	22.45	-35.0	-36.2	29.3	3.02e+01	0	34	0	379584512	44	6225
2026-01-06 02:59:36.01	203.50	22.59	-35.0	-36.2	29.3	3.02e+01	0	34	0	381681664	44	6251
2026-01-06 02:59:37.01	203.68	22.72	-35.0	-36.3	29.2	3.02e+01	0	34	0	383778816	44	6285
2026-01-06 02:59:38.02	203.86	22.86	-35.0	-36.3	29.3	3.02e+01	0	34	0	385351680	44	6279
2026-01-06 02:59:39.03	204.04	23.00	-34.8	-36.0	29.4	3.02e+01	0	34	0	387448832	44	6096
2026-01-06 02:59:40.04	204.23	23.14	-34.8	-36.0	29.4	3.02e+01	0	34	0	389545984	44	6131
2026-01-06 02:59:41.05	204.41	23.28	-34.9	-36.1	29.4	3.02e+01	0	34	0	391118848	44	6155
2026-01-06 02:59:42.06	204.60	23.42	-34.8	-36.0	29.4	3.02e+01	0	34	0	393216000	44	6112
2026-01-06 02:59:43.07	204.79	23.57	-35.0	-36.2	29.3	3.02e+01	0	34	0	394788864	44	6224
2026-01-06 02:59:44.08	204.99	23.71	-35.0	-36.3	29.3	3.02e+01	0	34	0	396886016	44	6286
2026-01-06 02:59:45.09	205.18	23.85	-35.0	-36.2	29.3	3.02e+01	0	34	0	398983168	44	6262
2026-01-06 02:59:46.09	205.37	23.99	-34.8	-36.0	29.5	3.02e+01	0	34	0	400556032	44	6119
2026-01-06 02:59:47.10	205.57	24.14	-34.8	-36.0	29.5	3.02e+01	0	34	0	402653184	44	6087
2026-01-06 02:59:48.11	205.77	24.28	-34.8	-36.0	29.5	3.02e+01	0	34	0	404750336	44	6108
2026-01-06 02:59:49.12	205.97	24.43	-35.0	-36.2	29.3	3.02e+01	0	34	0	406323200	44	6215
2026-01-06 02:59:50.13	206.18	24.57	-35.1	-36.3	29.2	3.02e+01	0	34	0	408420352	44	6294
2026-01-06 02:59:51.14	206.38	24.72	-34.9	-36.1	29.3	3.02e+01	0	34	0	409993216	44	6194
2026-01-06 02:59:52.15	206.59	24.87	-34.9	-36.1	29.4	3.02e+01	0	34	0	412090368	44	6141
2026-01-06 02:59:53.16	206.80	25.01	-35.0	-36.2	29.3	3.02e+01	0	34	0	413663232	44	6253
2026-01-06 02:59:54.17	207.01	25.16	-34.9	-36.1	29.3	3.02e+01	0	34	0	415760384	44	6186
2026-01-06 02:59:55.17	207.22	25.31	-35.0	-36.3	29.2	3.02e+01	0	34	0	417857536	44	6287
2026-01-06 02:59:56.18	207.44	25.46	-35.0	-36.2	29.2	3.02e+01	0	34	0	419430400	44	6257
2026-01-06 02:59:57.19	207.65	25.60	-34.9	-36.1	29.4	3.02e+01	0	34	0	421527552	44	6197
2026-01-06 02:59:58.21	207.88	25.76	-34.9	-36.1	29.4	3.02e+01	0	34	0	423100416	44	6141
2026-01-06 02:59:59.21	208.09	25.90	-35.0	-36.2	29.2	3.02e+01	0	34	0	425197568	44	6264
2026-01-06 03:00:00.22	208.32	26.05	-35.0	-36.2	29.3	3.02e+01	0	34	0	427294720	44	6235
2026-01-06 03:00:01.23	208.54	26.21	-35.0	-36.2	29.3	3.02e+01	0	34	0	428867584	44	6217
2026-01-06 03:00:02.24	208.77	26.36	-35.1	-36.3	29.2	3.02e+01	0	34	0	430964736	44	6324
2026-01-06 03:00:03.25	209.00	26.51	-35.1	-36.3	29.4	3.02e+01	0	34	0	433061888	44	6315
2026-01-06 03:00:04.26	209.24	26.66	-34.9	-36.1	29.4	3.02e+01	0	34	0	434634752	44	6176
2026-01-06 03:00:05.27	209.47	26.81	-35.0	-36.2	29.3	3.02e+01	0	34	0	436731904	44	6263
2026-01-06 03:00:06.27	209.71	26.97	-35.0	-36.2	29.4	3.02e+01	0	34	0	438304768	44	6216
2026-01-06 03:00:07.28	209.95	27.12	-35.0	-36.2	29.3	3.02e+01	0	34	0	440401920	44	6241
2026-01-06 03:00:08.29	210.19	27.27	-35.0	-36.2	29.3	3.02e+01	0	34	0	442499072	44	6247
2026-01-06 03:00:09.30	210.43	27.43	-34.9	-36.1	29.4	3.02e+01	0	34	0	444071936	44	6194
2026-01-06 03:00:10.31	210.68	27.58	-35.0	-36.2	29.3	3.02e+01	0	34	0	446169088	44	6218
2026-01-06 03:00:11.32	210.93	27.74	-35.0	-36.2	29.4	3.02e+01	0	34	0	447741952	44	6247
2026-01-06 03:00:12.33	211.18	27.89	-35.1	-36.3	29.3	3.02e+01	0	34	0	449839104	44	6303
2026-01-06 03:00:13.34	211.43	28.05	-35.1	-36.3	29.3	3.02e+01	0	34	0	451936256	44	6299
2026-01-06 03:00:14.35	211.69	28.21	-34.9	-36.1	29.5	3.02e+01	0	34	0	453509120	44	6143
2026-01-06 03:00:15.36	211.95	28.36	-34.9	-36.1	29.3	3.02e+01	0	34	0	455606272	44	6191
2026-01-06 03:00:16.37	212.21	28.52	-35.0	-36.2	29.3	3.02e+01	0	34	0	457703424	44	6260
2026-01-06 03:00:17.38	212.47	28.68	-35.0	-36.2	29.4	3.02e+01	0	34	0	459276288	44	6238
2026-01-06 03:00:18.38	212.74	28.83	-35.0	-36.2	29.2	3.02e+01	0	34	0	461373440	44	6264
2026-01-06 03:00:19.40	213.01	28.99	-34.8	-36.0	29.5	3.02e+01	0	34	0	462946304	44	6116
2026-01-06 03:00:20.40	213.28	29.15	-34.9	-36.1	29.4	3.02e+01	0	34	0	465043456	44	6195
2026-01-06 03:00:21.41	213.56	29.31	-34.9	-36.1	29.5	3.02e+01	0	34	0	467140608	44	6144
2026-01-06 03:00:22.42	213.83	29.47	-34.8	-36.1	29.5	3.02e+01	0	34	0	468713472	44	6136
2026-01-06 03:00:23.43	214.11	29.63	-34.9	-36.2	29.4	3.02e+01	0	34	0	470810624	44	6206
2026-01-06 03:00:24.44	214.40	29.79	-34.9	-36.1	29.4	3.02e+01	0	34	0	472383488	44	6167
2026-01-06 03:00:25.45	214.68	29.95	-34.9	-36.1	29.4	3.02e+01	0	34	0	474480640	44	6184
2026-01-06 03:00:26.45	214.97	30.10	-35.0	-36.2	29.4	3.02e+01	0	34	0	476053504	44	6245
2026-01-06 03:00:27.46	215.26	30.26	-35.1	-36.4	29.2	3.02e+01	0	34	0	478150656	44	6365
2026-01-06 03:00:28.47	215.56	30.42	-35.1	-36.3	29.3	3.02e+01	0	34	0	480247808	44	6282
2026-01-06 03:00:29.48	215.86	30.58	-35.0	-36.2	29.4	3.02e+01	0	34	0	481820672	44	6253
2026-01-06 03:00:30.49	216.16	30.75	-35.0	-36.3	29.3	3.02e+01	0	34	0	483917824	44	6280
2026-01-06 03:00:31.50	216.46	30.91	-35.0	-36.2	29.3	3.02e+01	0	34	0	486014976	44	6233
2026-01-06 03:00:32.51	216.77	31.07	-35.1	-36.3	29.3	3.02e+01	0	34	0	487587840	44	6335
2026-01-06 03:00:33.52	217.08	31.23	-35.2	-36.4	29.2	3.02e+01	0	34	0	489684992	44	6413
2026-01-06 03:00:34.53	217.39	31.39	-35.2	-36.4	29.2	3.02e+01	0	34	0	491257856	44	6390
2026-01-06 03:00:35.54	217.71	31.55	-35.3	-36.5	29.1	3.02e+01	0	34	0	493355008	44	6453
2026-01-06 03:00:36.55	218.03	31.71	-35.2	-36.4	29.2	3.02e+01	0	34	0	495452160	44	6389
2026-01-06 03:00:37.55	218.35	31.87	-35.2	-36.4	29.1	3.02e+01	0	34	0	497025024	44	6371
2026-01-06 03:00:38.56	218.68	32.03	-35.1	-36.3	29.3	3.02e+01	0	34	0	499122176	44	6301
2026-01-06 03:00:39.57	219.00	32.19	-35.1	-36.3	29.2	3.02e+01	0	34	0	501219328	44	6329
2026-01-06 03:00:40.58	219.34	32.35	-35.2	-36.5	29.2	3.02e+01	0	34	0	502792192	44	6443
2026-01-06 03:00:41.59	219.67	32.51	-35.1	-36.3	29.2	3.02e+01	0	34	0	504889344	44	6300
2026-01-06 03:00:42.59	220.01	32.67	-35.1	-36.3	29.3	3.02e+01	0	34	0	506462208	44	6338
2026-01-06 03:00:43.60	220.35	32.83	-35.3	-36.5	29.1	3.02e+01	0	34	0	508559360	44	6450
2026-01-06 03:00:44.61	220.70	32.99	-35.2	-36.4	29.3	3.02e+01	0	34	0	510656512	44	6366
2026-01-06 03:00:45.62	221.05	33.15	-35.3	-36.5	29.2	3.02e+01	0	34	0	512229376	44	6449
2026-01-06 03:00:46.63	221.40	33.31	-35.1	-36.3	29.2	3.02e+01	0	34	0	514326528	44	6345
2026-01-06 03:00:47.64	221.76	33.47	-35.2	-36.5	29.1	3.02e+01	0	34	0	515899392	44	6429
2026-01-06 03:00:48.65	222.12	33.63	-35.5	-36.7	29.0	3.02e+01	0	34	0	517996544	44	6614
2026-01-06 03:00:49.67	222.49	33.79	-35.6	-36.8	28.9	3.02e+01	0	34	0	520093696	44	6683
2026-01-06 03:00:50.67	222.85	33.94	-35.2	-36.4	29.2	3.02e+01	0	34	0	521666560	44	6398
2026-01-06 03:00:51.68	223.22	34.10	-35.4	-36.6	29.0	3.02e+01	0	34	0	523763712	44	6556
2026-01-06 03:00:52.69	223.60	34.26	-35.4	-36.6	29.0	3.02e+01	0	34	0	525336576	44	6538
2026-01-06 03:00:53.70	223.98	34.42	-35.5	-36.8	28.9	3.02e+01	0	34	0	527433728	44	6678
2026-01-06 03:00:54.71	224.36	34.57	-35.5	-36.8	28.9	3.02e+01	0	34	0	529530880	44	6654
2026-01-06 03:00:55.71	224.74	34.73	-35.4	-36.6	29.0	3.02e+01	0	34	0	531103744	44	6533
2026-01-06 03:00:56.72	225.13	34.88	-35.4	-36.6	29.0	3.02e+01	0	34	0	533200896	44	6538
2026-01-06 03:00:57.73	225.52	35.04	-35.5	-36.8	28.9	3.02e+01	0	34	0	534773760	44	6680
2026-01-06 03:00:58.74	225.92	35.19	-35.4	-36.7	29.0	3.02e+01	0	34	0	536870912	44	6590
2026-01-06 03:00:59.75	226.32	35.34	-35.4	-36.6	29.0	3.02e+01	0	34	0	538968064	44	6554
2026-01-06 03:01:00.76	226.72	35.49	-35.4	-36.6	29.0	3.02e+01	0	34	0	540540928	44	6561
2026-01-06 03:01:01.77	227.13	35.65	-35.1	-36.3	29.2	3.02e+01	0	34	0	542638080	44	6336
2026-01-06 03:01:02.78	227.55	35.80	-35.4	-36.6	29.0	3.02e+01	0	34	0	544210944	44	6566
2026-01-06 03:01:03.79	227.96	35.95	-35.3	-36.5	29.1	3.02e+01	0	34	0	546308096	44	6486
2026-01-06 03:01:04.80	228.38	36.10	-35.3	-36.5	29.1	3.02e+01	0	34	0	548405248	44	6484
2026-01-06 03:01:05.81	228.81	36.24	-35.3	-36.5	29.1	3.02e+01	0	34	0	549978112	44	6486
2026-01-06 03:01:06.82	229.23	36.39	-35.4	-36.6	29.1	3.02e+01	0	34	0	552075264	44	6558
2026-01-06 03:01:07.83	229.66	36.54	-35.3	-36.6	29.1	3.02e+01	0	34	0	554172416	44	6505
2026-01-06 03:01:08.84	230.10	36.68	-35.5	-36.7	29.0	3.02e+01	0	34	0	555745280	44	6601
2026-01-06 03:01:09.85	230.54	36.83	-35.4	-36.6	29.0	3.02e+01	0	34	0	557842432	44	6547
2026-01-06 03:01:10.85	230.98	36.97	-35.4	-36.6	29.0	3.02e+01	0	34	0	559415296	44	6567
2026-01-06 03:01:11.86	231.43	37.11	-35.2	-36.4	29.2	3.02e+01	0	34	0	561512448	44	6401
2026-01-06 03:01:12.87	231.88	37.25	-35.4	-36.6	29.1	3.02e+01	0	34	0	563609600	44	6530
2026-01-06 03:01:13.88	232.33	37.39	-35.4	-36.7	28.9	3.02e+01	0	34	0	565182464	44	6589
2026-01-06 03:01:14.89	232.79	37.52	-35.5	-36.7	29.1	3.02e+01	0	34	0	567279616	44	6586
2026-01-06 03:01:15.90	233.25	37.66	-35.2	-36.5	29.1	3.02e+01	0	34	0	568852480	44	6428
2026-01-06 03:01:16.91	233.72	37.79	-35.3	-36.5	29.1	3.02e+01	0	34	0	570949632	44	6482
2026-01-06 03:01:17.92	234.19	37.93	-35.3	-36.5	29.1	3.02e+01	0	34	0	573046784	44	6462
2026-01-06 03:01:18.93	234.67	38.06	-35.1	-36.4	29.3	3.02e+01	0	34	0	574619648	44	6362
2026-01-06 03:01:19.94	235.14	38.19	-35.2	-36.4	29.2	3.02e+01	0	34	0	576716800	44	6375
2026-01-06 03:01:20.95	235.63	38.32	-35.2	-36.4	29.2	3.02e+01	0	34	0	578289664	44	6359
2026-01-06 03:01:21.96	236.11	38.44	-35.1	-36.4	29.2	3.02e+01	0	34	0	580386816	44	6357
2026-01-06 03:01:22.97	236.60	38.57	-35.0	-36.2	29.4	3.02e+01	0	34	0	582483968	44	6229
2026-01-06 03:01:23.98	237.09	38.69	-35.1	-36.3	29.3	3.02e+01	0	34	0	584056832	44	6322
2026-01-06 03:01:24.99	237.59	38.81	-35.2	-36.4	29.2	3.02e+01	0	34	0	586153984	44	6384
2026-01-06 03:01:26.00	238.09	38.93	-34.8	-36.0	29.6	3.02e+01	0	34	0	587726848	44	6068
2026-01-06 03:01:27.00	238.59	39.05	-34.9	-36.1	29.4	3.02e+01	0	34	0	589824000	44	6196
2026-01-06 03:01:28.02	239.11	39.16	-35.0	-36.2	29.3	3.02e+01	0	34	0	591921152	44	6248
2026-01-06 03:01:29.03	239.62	39.28	-35.0	-36.3	29.3	3.02e+01	0	34	0	593494016	44	6279
2026-01-06 03:01:30.03	240.13	39.39	-34.7	-35.9	29.6	3.02e+01	0	34	0	595591168	44	6038
2026-01-06 03:01:31.05	240.65	39.50	-35.0	-36.2	29.5	3.02e+01	0	34	0	597688320	44	6241
2026-01-06 03:01:32.05	241.17	39.60	-34.8	-36.0	29.5	3.02e+01	0	34	0	599261184	44	6084
2026-01-06 03:01:33.07	241.70	39.71	-34.8	-36.0	29.6	3.02e+01	0	34	0	601358336	44	6086
2026-01-06 03:01:34.07	242.22	39.81	-34.8	-36.0	29.6	3.02e+01	0	34	0	602931200	44	6096
2026-01-06 03:01:35.08	242.76	39.91	-34.9	-36.0	29.5	3.02e+01	0	34	0	605028352	44	6132
2026-01-06 03:01:36.09	243.29	40.00	-34.8	-36.0	29.6	3.02e+01	0	34	0	607125504	44	6065
2026-01-06 03:01:37.11	243.84	40.10	-34.7	-35.9	29.7	3.02e+01	0	34	0	608698368	44	6013
2026-01-06 03:01:38.11	244.37	40.19	-34.8	-36.0	29.5	3.02e+01	0	34	0	610795520	44	6092
2026-01-06 03:01:39.12	244.92	40.28	-34.7	-35.9	29.7	3.02e+01	0	34	0	612368384	44	6048
2026-01-06 03:01:40.13	245.46	40.37	-34.7	-35.9	29.7	3.02e+01	0	34	0	614465536	44	6053
2026-01-06 03:01:41.14	246.02	40.45	-34.7	-35.9	29.7	3.02e+01	0	34	0	616562688	44	6007
2026-01-06 03:01:42.15	246.57	40.53	-34.7	-35.9	29.7	3.02e+01	0	34	0	618135552	44	5996
2026-01-06 03:01:43.16	247.13	40.61	-34.9	-36.1	29.6	3.02e+01	0	34	0	620232704	44	6145
2026-01-06 03:01:44.17	247.68	40.69	-34.6	-35.8	29.6	3.02e+01	0	34	0	622329856	44	5990
2026-01-06 03:01:45.18	248.25	40.76	-34.7	-35.9	29.8	3.02e+01	0	34	0	623902720	44	6020
2026-01-06 03:01:46.19	248.81	40.83	-34.4	-35.6	29.8	3.02e+01	0	34	0	625999872	44	5843
2026-01-06 03:01:47.20	249.38	40.90	-34.6	-35.8	29.7	3.02e+01	0	34	0	627572736	44	5940
2026-01-06 03:01:48.21	249.95	40.96	-34.5	-35.6	29.8	3.02e+01	0	34	0	629669888	44	5842
2026-01-06 03:01:49.22	250.52	41.03	-34.5	-35.7	29.8	3.02e+01	0	34	0	631767040	44	5897
2026-01-06 03:01:50.22	251.09	41.08	-34.5	-35.6	29.9	3.02e+01	0	34	0	633339904	44	5856
2026-01-06 03:01:51.23	251.66	41.14	-34.8	-36.0	29.5	3.02e+01	0	34	0	635437056	44	6126
2026-01-06 03:01:52.24	252.24	41.19	-34.5	-35.7	29.9	3.02e+01	0	34	0	637009920	44	5872
2026-01-06 03:01:53.25	252.82	41.24	-34.7	-35.9	29.6	3.02e+01	0	34	0	639107072	44	6047
2026-01-06 03:01:54.26	253.40	41.29	-34.7	-35.9	29.6	3.02e+01	0	34	0	640679936	44	6012
2026-01-06 03:01:55.27	253.98	41.33	-34.6	-35.8	29.8	3.02e+01	0	34	0	642777088	44	5946
2026-01-06 03:01:56.28	254.56	41.37	-34.6	-35.8	29.7	3.02e+01	0	34	0	644874240	44	5954
2026-01-06 03:01:57.29	255.15	41.41	-34.7	-35.9	29.7	3.02e+01	0	34	0	646447104	44	6030
2026-01-06 03:01:58.30	255.74	41.44	-34.5	-35.7	29.8	3.02e+01	0	34	0	648544256	44	5903
2026-01-06 03:01:59.31	256.32	41.47	-34.5	-35.7	29.7	3.02e+01	0	34	0	650641408	44	5880
2026-01-06 03:02:00.32	256.91	41.50	-34.6	-35.8	29.7	3.02e+01	0	34	0	652214272	44	5956
2026-01-06 03:02:01.33	257.50	41.52	-34.8	-36.0	29.6	3.02e+01	0	34	0	654311424	44	6068
2026-01-06 03:02:02.33	258.09	41.54	-34.4	-35.6	29.9	3.02e+01	0	34	0	655884288	44	5841
2026-01-06 03:02:03.34	258.68	41.56	-34.4	-35.5	30.0	3.02e+01	0	34	0	657981440	44	5778
2026-01-06 03:02:04.35	259.27	41.58	-34.5	-35.7	29.9	3.02e+01	0	34	0	660078592	44	5880
2026-01-06 03:02:05.36	259.86	41.59	-34.7	-35.8	29.6	3.02e+01	0	34	0	661651456	44	5980
2026-01-06 03:02:06.37	260.45	41.59	-34.7	-35.9	29.7	3.02e+01	0	34	0	663748608	44	6020
2026-01-06 03:02:07.38	261.05	41.60	-34.6	-35.8	29.7	3.02e+01	0	34	0	665845760	44	5968
2026-01-06 03:02:08.39	261.64	41.60	-34.6	-35.8	29.8	3.02e+01	0	34	0	667418624	44	5930
2026-01-06 03:02:09.40	262.23	41.60	-34.6	-35.8	29.7	3.02e+01	0	34	0	669515776	44	5972
2026-01-06 03:02:10.41	262.83	41.59	-34.5	-35.7	29.8	3.02e+01	0	34	0	671088640	44	5909
2026-01-06 03:02:11.42	263.42	41.58	-34.6	-35.8	29.8	3.02e+01	0	34	0	673185792	44	5958
2026-01-06 03:02:12.43	264.01	41.57	-34.6	-35.8	29.7	3.02e+01	0	34	0	675282944	44	5976
2026-01-06 03:02:13.44	264.60	41.55	-34.7	-35.9	29.7	3.02e+01	0	34	0	676855808	44	6033
2026-01-06 03:02:14.45	265.19	41.53	-34.8	-36.0	29.6	3.02e+01	0	34	0	678952960	44	6125
2026-01-06 03:02:15.46	265.78	41.51	-34.7	-35.8	29.8	3.02e+01	0	34	0	680525824	44	5986
2026-01-06 03:02:16.47	266.37	41.49	-35.0	-36.2	29.3	3.02e+01	0	34	0	682622976	44	6272
2026-01-06 03:02:17.47	266.95	41.46	-35.2	-36.4	29.2	3.02e+01	0	34	0	684720128	44	6403
2026-01-06 03:02:18.48	267.54	41.43	-34.9	-36.1	29.5	3.02e+01	0	34	0	686292992	44	6193
2026-01-06 03:02:19.49	268.13	41.39	-34.7	-35.9	29.7	3.02e+01	0	34	0	688390144	44	6009
2026-01-06 03:02:20.50	268.71	41.35	-34.7	-35.9	29.7	3.02e+01	0	34	0	689963008	44	6016
2026-01-06 03:02:21.51	269.29	41.31	-34.6	-35.8	29.8	3.02e+01	0	34	0	692060160	44	5955
2026-01-06 03:02:22.51	269.87	41.27	-34.9	-36.1	29.5	3.02e+01	0	34	0	694157312	44	6171
2026-01-06 03:02:23.52	270.45	41.22	-34.9	-36.1	29.5	3.02e+01	0	34	0	695730176	44	6169
2026-01-06 03:02:24.53	271.02	41.17	-35.3	-36.5	29.1	3.02e+01	0	34	0	697827328	44	6481
2026-01-06 03:02:25.54	271.60	41.11	-35.2	-36.4	29.4	3.02e+01	0	34	0	699400192	44	6415
2026-01-06 03:02:26.55	272.17	41.06	-35.0	-36.2	29.3	3.02e+01	0	34	0	701497344	44	6232
2026-01-06 03:02:27.56	272.75	41.00	-35.4	-36.6	29.3	3.02e+01	0	34	0	703594496	44	6548
2026-01-06 03:02:28.57	273.32	40.93	-34.9	-36.1	29.4	3.02e+01	0	34	0	705167360	44	6154
2026-01-06 03:02:29.58	273.88	40.87	-35.0	-36.2	29.4	3.02e+01	0	34	0	707264512	44	6235
2026-01-06 03:02:30.59	274.45	40.80	-34.9	-36.2	29.5	3.02e+01	0	34	0	708837376	44	6216
2026-01-06 03:02:31.60	275.01	40.73	-35.0	-36.2	29.3	3.02e+01	0	34	0	710934528	44	6260
2026-01-06 03:02:32.61	275.57	40.65	-35.0	-36.2	29.4	3.02e+01	0	34	0	713031680	44	6219
2026-01-06 03:02:33.62	276.13	40.57	-34.9	-36.2	29.4	3.02e+01	0	34	0	714604544	44	6206
2026-01-06 03:02:34.63	276.68	40.49	-34.8	-36.0	29.6	3.02e+01	0	34	0	716701696	44	6082
2026-01-06 03:02:35.63	277.23	40.41	-34.9	-36.1	29.4	3.02e+01	0	34	0	718798848	44	6176
2026-01-06 03:02:36.64	277.78	40.33	-35.1	-36.3	29.4	3.02e+01	0	34	0	720371712	44	6298
2026-01-06 03:02:37.65	278.32	40.24	-34.9	-36.1	29.4	3.02e+01	0	34	0	722468864	44	6198
2026-01-06 03:02:38.66	278.86	40.15	-34.9	-36.1	29.6	3.02e+01	0	34	0	724041728	44	6139
2026-01-06 03:02:39.67	279.40	40.05	-35.0	-36.2	29.4	3.02e+01	0	34	0	726138880	44	6226
2026-01-06 03:02:40.68	279.94	39.96	-35.1	-36.3	29.3	3.02e+01	0	34	0	728236032	44	6299
2026-01-06 03:02:41.69	280.47	39.86	-34.8	-36.0	29.6	3.02e+01	0	34	0	729808896	44	6120
2026-01-06 03:02:42.70	281.00	39.76	-35.0	-36.2	29.5	3.02e+01	0	34	0	731906048	44	6246
2026-01-06 03:02:43.71	281.53	39.66	-35.0	-36.2	29.3	3.02e+01	0	34	0	733478912	44	6273
2026-01-06 03:02:44.72	282.05	39.55	-35.0	-36.2	29.4	3.02e+01	0	34	0	735576064	44	6251
2026-01-06 03:02:45.73	282.57	39.45	-35.0	-36.2	29.4	3.02e+01	0	34	0	737673216	44	6256
2026-01-06 03:02:46.74	283.09	39.34	-34.8	-36.0	29.6	3.02e+01	0	34	0	739246080	44	6079
2026-01-06 03:02:47.75	283.60	39.22	-35.0	-36.2	29.5	3.02e+01	0	34	0	741343232	44	6224
2026-01-06 03:02:48.76	284.11	39.11	-35.0	-36.2	29.4	3.02e+01	0	34	0	742916096	44	6246
2026-01-06 03:02:49.77	284.61	39.00	-34.9	-36.1	29.4	3.02e+01	0	34	0	745013248	44	6189
2026-01-06 03:02:50.78	285.12	38.88	-34.8	-36.0	29.6	3.02e+01	0	34	0	747110400	44	6067
2026-01-06 03:02:51.79	285.61	38.76	-35.2	-36.4	29.2	3.02e+01	0	34	0	748683264	44	6416
2026-01-06 03:02:52.80	286.11	38.64	-35.0	-36.2	29.3	3.02e+01	0	34	0	750780416	44	6273
2026-01-06 03:02:53.81	286.60	38.51	-35.0	-36.2	29.4	3.02e+01	0	34	0	752353280	44	6229
2026-01-06 03:02:54.82	287.08	38.39	-34.8	-36.0	29.5	3.02e+01	0	34	0	754450432	44	6097
2026-01-06 03:02:55.83	287.57	38.26	-34.8	-36.0	29.6	3.02e+01	0	34	0	756547584	44	6075
2026-01-06 03:02:56.84	288.05	38.13	-34.8	-36.0	29.6	3.02e+01	0	34	0	758120448	44	6086
2026-01-06 03:02:57.85	288.52	38.00	-35.0	-36.3	29.4	3.02e+01	0	34	0	760217600	44	6298
2026-01-06 03:02:58.86	288.99	37.87	-34.7	-35.9	29.6	3.02e+01	0	34	0	762314752	44	6037
2026-01-06 03:02:59.87	289.46	37.74	-34.7	-35.9	29.7	3.02e+01	0	34	0	763887616	44	5996
2026-01-06 03:03:00.87	289.92	37.61	-34.7	-35.9	29.7	3.02e+01	0	34	0	765984768	44	6043
2026-01-06 03:03:01.88	290.38	37.47	-34.6	-35.8	29.7	3.02e+01	0	34	0	767557632	44	5992
2026-01-06 03:03:02.89	290.84	37.33	-34.5	-35.7	29.8	3.02e+01	0	34	0	769654784	44	5905
2026-01-06 03:03:03.90	291.29	37.19	-34.5	-35.8	29.9	3.02e+01	0	34	0	771751936	44	5931
2026-01-06 03:03:04.91	291.74	37.05	-34.4	-35.6	29.9	3.02e+01	0	34	0	773324800	44	5815
2026-01-06 03:03:05.92	292.18	36.91	-34.5	-35.7	29.9	3.02e+01	0	34	0	775421952	44	5877
2026-01-06 03:03:06.93	292.62	36.77	-34.6	-35.8	29.7	3.02e+01	0	34	0	776994816	44	5953
2026-01-06 03:03:07.94	293.06	36.63	-34.5	-35.7	29.8	3.02e+01	0	34	0	779091968	44	5879
2026-01-06 03:03:08.95	293.49	36.48	-34.6	-35.8	29.7	3.02e+01	0	34	0	781189120	44	5994
2026-01-06 03:03:09.96	293.92	36.33	-34.3	-35.5	29.9	3.02e+01	0	34	0	782761984	44	5780
2026-01-06 03:03:10.97	294.34	36.19	-34.3	-35.5	30.1	3.02e+01	0	34	0	784859136	44	5727
2026-01-06 03:03:11.98	294.76	36.04	-34.4	-35.6	29.9	3.02e+01	0	34	0	786956288	44	5821
2026-01-06 03:03:12.99	295.18	35.89	-34.4	-35.6	29.9	3.02e+01	0	34	0	788529152	44	5847
2026-01-06 03:03:13.99	295.59	35.74	-34.1	-35.3	30.1	3.02e+01	0	34	0	790626304	44	5654
2026-01-06 03:03:15.00	296.00	35.59	-34.1	-35.3	30.1	3.02e+01	0	34	0	792199168	44	5634
2026-01-06 03:03:16.01	296.40	35.44	-34.1	-35.2	30.2	3.02e+01	0	34	0	794296320	44	5588
2026-01-06 03:03:17.02	296.81	35.29	-34.2	-35.4	30.1	3.02e+01	0	34	0	796393472	44	5688
2026-01-06 03:03:18.03	297.20	35.14	-34.0	-35.2	30.3	3.02e+01	0	34	0	797966336	44	5574
2026-01-06 03:03:19.04	297.60	34.98	-34.0	-35.2	30.3	3.02e+01	0	34	0	800063488	42	6231
2026-01-06 03:03:20.05	297.99	34.83	-33.8	-35.0	30.4	3.02e+01	0	34	0	801636352	42	6127
2026-01-06 03:03:21.06	298.38	34.67	-33.9	-35.1	30.3	3.02e+01	0	34	0	803733504	42	6173
2026-01-06 03:03:22.07	298.76	34.52	-33.8	-35.0	30.4	3.02e+01	0	34	0	805830656	42	6107
2026-01-06 03:03:23.08	299.14	34.36	-33.4	-34.5	30.8	3.02e+01	0	34	0	807403520	42	5777
2026-01-06 03:03:24.09	299.51	34.21	-33.5	-34.7	30.7	3.02e+01	0	34	0	809500672	42	5868
2026-01-06 03:03:25.10	299.89	34.05	-33.5	-34.7	30.6	3.02e+01	0	34	0	811073536	42	5904
2026-01-06 03:03:26.11	300.25	33.89	-33.6	-34.8	30.6	3.02e+01	0	34	0	813170688	42	5929
2026-01-06 03:03:27.12	300.62	33.74	-33.5	-34.7	30.7	3.02e+01	0	34	0	815267840	42	5916
2026-01-06 03:03:28.13	300.98	33.58	-33.5	-34.7	30.7	3.02e+01	0	34	0	816840704	42	5899
2026-01-06 03:03:29.14	301.34	33.42	-33.4	-34.6	30.7	3.02e+01	0	34	0	818937856	42	5795
2026-01-06 03:03:30.15	301.69	33.26	-33.2	-34.4	31.0	3.02e+01	0	34	0	820510720	42	5660
2026-01-06 03:03:31.16	302.04	33.10	-33.2	-34.3	30.9	3.02e+01	0	34	0	822607872	42	5643
2026-01-06 03:03:32.16	302.39	32.95	-33.2	-34.3	31.0	3.02e+01	0	34	0	824705024	42	5637
2026-01-06 03:03:33.17	302.73	32.79	-33.3	-34.4	30.9	3.02e+01	0	34	0	826277888	42	5698
2026-01-06 03:03:34.18	303.07	32.63	-33.3	-34.5	30.7	3.02e+01	0	34	0	828375040	42	5746
2026-01-06 03:03:35.19	303.41	32.47	-33.2	-34.3	31.0	3.02e+01	0	34	0	830472192	42	5625
2026-01-06 03:03:36.19	303.74	32.31	-33.3	-34.4	30.9	3.02e+01	0	34	0	832045056	42	5719
2026-01-06 03:03:37.20	304.07	32.15	-33.3	-34.5	30.9	3.02e+01	0	34	0	834142208	42	5727
2026-01-06 03:03:38.21	304.40	31.99	-33.3	-34.5	30.8	3.02e+01	0	34	0	835715072	42	5756
2026-01-06 03:03:39.22	304.72	31.83	-33.1	-34.2	30.9	3.02e+01	0	34	0	837812224	42	5585
2026-01-06 03:03:40.23	305.04	31.67	-33.2	-34.4	30.9	3.02e+01	0	34	0	839909376	42	5663
2026-01-06 03:03:41.24	305.36	31.51	-33.2	-34.4	30.9	3.02e+01	0	34	0	841482240	42	5680
2026-01-06 03:03:42.25	305.67	31.35	-33.3	-34.5	30.8	3.02e+01	0	34	0	843579392	42	5732
2026-01-06 03:03:43.26	305.98	31.19	-33.2	-34.3	30.8	3.02e+01	0	34	0	845152256	42	5659
2026-01-06 03:03:44.27	306.29	31.03	-33.0	-34.2	31.0	3.02e+01	0	34	0	847249408	42	5537
2026-01-06 03:03:45.28	306.60	30.87	-33.0	-34.1	31.1	3.02e+01	0	34	0	849346560	42	5530
2026-01-06 03:03:46.29	306.90	30.71	-33.1	-34.3	30.9	3.02e+01	0	34	0	850919424	42	5628
2026-01-06 03:03:47.29	307.19	30.55	-33.2	-34.4	30.9	3.02e+01	0	34	0	853016576	42	5684
2026-01-06 03:03:48.30	307.49	30.39	-33.1	-34.3	31.0	3.02e+01	0	34	0	854589440	42	5618
2026-01-06 03:03:49.31	307.78	30.24	-33.1	-34.3	31.0	3.02e+01	0	34	0	856686592	42	5616
2026-01-06 03:03:50.32	308.07	30.08	-33.2	-34.3	31.0	3.02e+01	0	34	0	858783744	42	5655
2026-01-06 03:03:51.33	308.36	29.92	-33.2	-34.4	30.9	3.02e+01	0	34	0	860356608	42	5685
2026-01-06 03:03:52.34	308.64	29.76	-33.4	-34.6	30.8	3.02e+01	0	34	0	862453760	42	5794
2026-01-06 03:03:53.35	308.93	29.60	-33.6	-34.8	30.5	3.02e+01	0	34	0	864026624	42	5945
2026-01-06 03:03:54.36	309.20	29.44	-33.5	-34.7	30.5	3.02e+01	0	34	0	866123776	42	5862
2026-01-06 03:03:55.37	309.48	29.28	-33.4	-34.6	30.6	3.02e+01	0	34	0	868220928	42	5832
2026-01-06 03:03:56.38	309.75	29.13	-33.2	-34.3	30.9	3.02e+01	0	34	0	869793792	42	5657
2026-01-06 03:03:57.39	310.02	28.97	-33.3	-34.5	30.7	3.02e+01	0	34	0	871890944	42	5739
2026-01-06 03:03:58.40	310.29	28.81	-33.3	-34.5	30.8	3.02e+01	0	34	0	873463808	42	5728
2026-01-06 03:03:59.41	310.56	28.66	-33.4	-34.6	30.7	3.02e+01	0	34	0	875560960	42	5814
2026-01-06 03:04:00.41	310.82	28.50	-33.4	-34.6	30.7	3.02e+01	0	34	0	877658112	42	5834
2026-01-06 03:04:01.42	311.08	28.34	-33.6	-34.8	30.5	3.02e+01	0	34	0	879230976	42	5952
2026-01-06 03:04:02.43	311.33	28.19	-33.6	-34.8	30.5	3.02e+01	0	34	0	881328128	42	5938
2026-01-06 03:04:03.44	311.59	28.03	-33.5	-34.7	30.7	3.02e+01	0	34	0	883425280	42	5862
2026-01-06 03:04:04.45	311.84	27.88	-33.5	-34.7	30.6	3.02e+01	0	34	0	884998144	42	5892
2026-01-06 03:04:05.46	312.09	27.72	-33.6	-34.8	30.6	3.02e+01	0	34	0	887095296	42	5938
2026-01-06 03:04:06.47	312.34	27.57	-33.6	-34.8	30.5	3.02e+01	0	34	0	888668160	42	5941
2026-01-06 03:04:07.48	312.58	27.42	-33.7	-34.9	30.3	3.02e+01	0	34	0	890765312	42	6005
2026-01-06 03:04:08.49	312.83	27.26	-33.6	-34.8	30.6	3.02e+01	0	34	0	892862464	42	5945
2026-01-06 03:04:09.50	313.07	27.11	-33.8	-34.9	30.5	3.02e+01	0	34	0	894435328	42	6046
2026-01-06 03:04:10.51	313.30	26.96	-33.8	-35.0	30.4	3.02e+01	0	34	0	896532480	42	6112
2026-01-06 03:04:11.52	313.54	26.80	-33.9	-35.1	30.3	3.02e+01	0	34	0	898105344	42	6162
2026-01-06 03:04:12.53	313.77	26.65	-34.0	-35.2	30.2	3.02e+01	0	34	0	900202496	42	6235
2026-01-06 03:04:13.54	314.00	26.50	-34.1	-35.3	30.2	3.02e+01	0	34	0	902299648	42	6318
2026-01-06 03:04:14.55	314.23	26.35	-34.0	-35.2	30.2	3.02e+01	0	34	0	903872512	42	6235
2026-01-06 03:04:15.56	314.46	26.20	-34.0	-35.1	30.2	3.02e+01	0	34	0	905969664	42	6204
2026-01-06 03:04:16.57	314.68	26.05	-34.0	-35.2	30.2	3.02e+01	0	34	0	908066816	42	6209
2026-01-06 03:04:17.58	314.91	25.90	-34.0	-35.1	30.2	3.02e+01	0	34	0	909639680	42	6193
2026-01-06 03:04:18.59	315.13	25.75	-33.9	-35.1	30.3	3.02e+01	0	34	0	911736832	42	6140
2026-01-06 03:04:19.59	315.34	25.60	-34.0	-35.1	30.2	3.02e+01	0	34	0	913309696	42	6192
2026-01-06 03:04:20.60	315.56	25.46	-34.0	-35.2	30.2	3.02e+01	0	34	0	915406848	42	6235
2026-01-06 03:04:21.61	315.77	25.31	-34.0	-35.2	30.2	3.02e+01	0	34	0	916979712	42	6234
2026-01-06 03:04:22.62	315.98	25.16	-34.2	-35.3	30.0	3.02e+01	0	34	0	919076864	42	6331
2026-01-06 03:04:23.63	316.19	25.02	-34.1	-35.3	30.0	3.02e+01	0	34	0	921174016	42	6331
2026-01-06 03:04:24.64	316.40	24.87	-34.1	-35.3	30.0	3.02e+01	0	34	0	922746880	42	6342
2026-01-06 03:04:25.65	316.61	24.72	-34.1	-35.2	30.1	3.02e+01	0	34	0	924844032	42	6268
2026-01-06 03:04:26.66	316.81	24.58	-33.9	-35.1	30.2	3.02e+01	0	34	0	926416896	42	6189
2026-01-06 03:04:27.67	317.02	24.43	-34.0	-35.2	30.1	3.02e+01	0	34	0	928514048	42	6245
2026-01-06 03:04:28.68	317.22	24.29	-33.8	-35.0	30.3	3.02e+01	0	34	0	930611200	42	6103
2026-01-06 03:04:29.69	317.41	24.15	-33.9	-35.1	30.3	3.02e+01	0	34	0	932184064	42	6144
2026-01-06 03:04:30.70	317.61	24.00	-34.0	-35.2	30.1	3.02e+01	0	34	0	934281216	42	6245
2026-01-06 03:04:31.71	317.81	23.86	-33.9	-35.1	30.2	3.02e+01	0	34	0	936378368	42	6135
2026-01-06 03:04:32.72	318.00	23.72	-33.9	-35.1	30.2	3.02e+01	0	34	0	937951232	42	6171
2026-01-06 03:04:33.73	318.19	23.58	-33.9	-35.0	30.3	3.02e+01	0	34	0	940048384	42	6129
2026-01-06 03:04:34.74	318.38	23.44	-33.9	-35.0	30.3	3.02e+01	0	34	0	941621248	42	6121
2026-01-06 03:04:35.75	318.57	23.30	-34.0	-35.2	30.2	3.02e+01	0	34	0	943718400	42	6236
2026-01-06 03:04:36.76	318.75	23.16	-34.0	-35.2	30.1	3.02e+01	0	34	0	945815552	42	6250
2026-01-06 03:04:37.77	318.94	23.02	-34.1	-35.3	30.1	3.02e+01	0	34	0	947388416	42	6320
2026-01-06 03:04:38.78	319.12	22.88	-34.1	-35.3	30.1	3.02e+01	0	34	0	949485568	42	6280
2026-01-06 03:04:39.79	319.30	22.74	-34.1	-35.3	30.1	3.02e+01	0	34	0	951582720	42	6279
2026-01-06 03:04:40.80	319.48	22.60	-34.2	-35.4	30.0	3.02e+01	0	34	0	953155584	42	6420
2026-01-06 03:04:41.81	319.66	22.47	-34.1	-35.3	30.0	3.02e+01	0	34	0	955252736	42	6338
2026-01-06 03:04:42.82	319.84	22.33	-34.2	-35.4	29.9	3.02e+01	0	34	0	956825600	42	6369
2026-01-06 03:04:43.83	320.01	22.19	-34.1	-35.3	30.0	3.02e+01	0	34	0	958922752	42	6285
2026-01-06 03:04:44.84	320.18	22.06	-33.9	-35.1	30.2	3.02e+01	0	34	0	961019904	42	6147
2026-01-06 03:04:45.85	320.35	21.92	-33.9	-35.1	30.1	3.02e+01	0	34	0	962592768	42	6159
2026-01-06 03:04:46.86	320.52	21.79	-34.0	-35.2	30.2	3.02e+01	0	34	0	964689920	42	6230
2026-01-06 03:04:47.87	320.69	21.66	-33.9	-35.1	30.2	3.02e+01	0	34	0	966262784	42	6146
2026-01-06 03:04:48.88	320.86	21.52	-34.0	-35.2	30.1	3.02e+01	0	34	0	968359936	42	6236
2026-01-06 03:04:49.89	321.03	21.39	-34.0	-35.1	30.1	3.02e+01	0	34	0	970457088	42	6205
2026-01-06 03:04:50.90	321.19	21.26	-34.1	-35.2	30.1	3.02e+01	0	34	0	972029952	42	6274
2026-01-06 03:04:51.91	321.35	21.13	-34.0	-35.2	30.1	3.02e+01	0	34	0	974127104	42	6207
2026-01-06 03:04:52.91	321.51	21.00	-34.1	-35.3	30.1	3.02e+01	0	34	0	976224256	42	6294
2026-01-06 03:04:53.92	321.67	20.87	-34.1	-35.2	30.0	3.02e+01	0	34	0	977797120	42	6263
2026-01-06 03:04:54.93	321.83	20.74	-33.8	-35.0	30.3	3.02e+01	0	34	0	979894272	42	6118
2026-01-06 03:04:55.94	321.99	20.61	-33.9	-35.1	30.2	3.02e+01	0	34	0	981467136	42	6159
2026-01-06 03:04:56.95	322.14	20.48	-33.9	-35.1	30.1	3.02e+01	0	34	0	983564288	42	6149
2026-01-06 03:04:57.96	322.30	20.35	-33.9	-35.1	30.2	3.02e+01	0	34	0	985137152	42	6149
2026-01-06 03:04:58.97	322.45	20.22	-33.9	-35.1	30.2	3.02e+01	0	34	0	987234304	42	6140
2026-01-06 03:04:59.98	322.60	20.09	-33.9	-35.1	30.2	3.02e+01	0	34	0	989331456	42	6179
2026-01-06 03:05:00.99	322.76	19.97	-33.9	-35.1	30.3	3.02e+01	0	34	0	990904320	42	6135
2026-01-06 03:05:02.00	322.90	19.84	-33.9	-35.1	30.1	3.02e+01	0	34	0	993001472	42	6148
2026-01-06 03:05:03.01	323.05	19.71	-34.0	-35.2	30.1	3.02e+01	0	34	0	994574336	42	6237
2026-01-06 03:05:04.02	323.20	19.59	-34.2	-35.4	29.9	3.02e+01	0	34	0	996671488	42	6362
2026-01-06 03:05:05.02	323.34	19.46	-33.9	-35.1	30.1	3.02e+01	0	34	0	998768640	42	6154
2026-01-06 03:05:06.03	323.49	19.34	-33.8	-35.0	30.2	3.02e+01	0	34	0	1000341504	42	6081
2026-01-06 03:05:07.04	323.63	19.22	-33.8	-35.0	30.1	3.02e+01	0	34	0	1002438656	42	6089
2026-01-06 03:05:08.05	323.77	19.09	-33.8	-35.0	30.2	3.02e+01	0	34	0	1004535808	42	6070
2026-01-06 03:05:09.06	323.92	18.97	-33.8	-35.0	30.2	3.02e+01	0	34	0	1006108672	42	6067
2026-01-06 03:05:10.07	324.06	18.85	-33.8	-35.0	30.3	3.02e+01	0	34	0	1008205824	42	6070
2026-01-06 03:05:11.08	324.19	18.73	-33.9	-35.0	30.2	3.02e+01	0	34	0	1009778688	42	6122
2026-01-06 03:05:12.09	324.33	18.61	-33.7	-34.9	30.4	3.02e+01	0	34	0	1011875840	42	6034
2026-01-06 03:05:13.10	324.47	18.48	-33.9	-35.1	30.1	3.02e+01	0	34	0	1013972992	42	6173
2026-01-06 03:05:14.11	324.60	18.36	-33.7	-34.9	30.4	3.02e+01	0	34	0	1015545856	42	6012
2026-01-06 03:05:15.12	324.74	18.24	-33.7	-34.8	30.3	3.02e+01	0	34	0	1017643008	42	5987
2026-01-06 03:05:16.13	324.87	18.13	-33.8	-34.9	30.3	3.02e+01	0	34	0	1019740160	42	6051
2026-01-06 03:05:17.14	325.00	18.01	-33.8	-34.9	30.2	3.02e+01	0	34	0	1021313024	42	6059
2026-01-06 03:05:18.15	325.13	17.89	-33.8	-35.0	30.2	3.02e+01	0	34	0	1023410176	42	6074
2026-01-06 03:05:19.16	325.26	17.77	-33.8	-35.0	30.2	3.02e+01	0	34	0	1024983040	42	6115
2026-01-06 03:05:20.17	325.39	17.65	-33.9	-35.1	30.2	3.02e+01	0	34	0	1027080192	42	6150
2026-01-06 03:05:21.18	325.52	17.54	-34.0	-35.2	30.1	3.02e+01	0	34	0	1029177344	42	6209
2026-01-06 03:05:22.19	325.65	17.42	-33.9	-35.0	30.2	3.02e+01	0	34	0	1030750208	42	6115
2026-01-06 03:05:23.20	325.77	17.30	-34.0	-35.2	30.1	3.02e+01	0	34	0	1032847360	42	6220
2026-01-06 03:05:24.21	325.90	17.19	-34.0	-35.2	30.1	3.02e+01	0	34	0	1034420224	42	6254
2026-01-06 03:05:25.21	326.02	17.08	-34.0	-35.1	30.0	3.02e+01	0	34	0	1036517376	42	6199
2026-01-06 03:05:26.23	326.15	16.96	-33.9	-35.0	30.1	3.02e+01	0	34	0	1038614528	42	6124
2026-01-06 03:05:27.23	326.27	16.85	-34.0	-35.2	30.0	3.02e+01	0	34	0	1040187392	42	6217
2026-01-06 03:05:28.24	326.39	16.73	-33.8	-34.9	30.2	3.02e+01	0	34	0	1042284544	42	6044
2026-01-06 03:05:29.25	326.51	16.62	-33.8	-34.9	30.2	3.02e+01	0	34	0	1043857408	42	6055
2026-01-06 03:05:30.26	326.63	16.51	-33.7	-34.9	30.2	3.02e+01	0	34	0	1045954560	42	6042
2026-01-06 03:05:31.27	326.75	16.40	-33.8	-35.0	30.1	3.02e+01	0	34	0	1048051712	42	6111
2026-01-06 03:05:32.28	326.86	16.28	-33.7	-34.9	30.2	3.02e+01	0	34	0	1049624576	42	6021
2026-01-06 03:05:33.29	326.98	16.17	-33.7	-34.9	30.2	3.02e+01	0	34	0	1051721728	42	6003
2026-01-06 03:05:34.30	327.10	16.06	-33.7	-34.8	30.3	3.02e+01	0	34	0	1053294592	42	5969
2026-01-06 03:05:35.31	327.21	15.95	-33.6	-34.8	30.4	3.02e+01	0	34	0	1055391744	42	5968
2026-01-06 03:05:36.31	327.32	15.84	-33.7	-34.9	30.3	3.02e+01	0	34	0	1057488896	42	6004
2026-01-06 03:05:37.32	327.44	15.73	-33.8	-35.0	30.1	3.02e+01	0	34	0	1059061760	42	6087
2026-01-06 03:05:38.33	327.55	15.63	-33.9	-35.1	30.1	3.02e+01	0	34	0	1061158912	42	6157
2026-01-06 03:05:39.34	327.66	15.52	-34.0	-35.2	30.0	3.02e+01	0	34	0	1062731776	42	6254
2026-01-06 03:05:40.35	327.77	15.41	-33.9	-35.1	30.1	3.02e+01	0	34	0	1064828928	42	6182
2026-01-06 03:05:41.36	327.88	15.30	-34.0	-35.2	30.0	3.02e+01	0	34	0	1066926080	42	6218
2026-01-06 03:05:42.37	327.99	15.19	-33.9	-35.1	30.0	3.02e+01	0	34	0	1068498944	42	6149
2026-01-06 03:05:43.38	328.10	15.09	-33.9	-35.1	30.1	3.02e+01	0	34	0	1070596096	42	6164
2026-01-06 03:05:44.39	328.21	14.98	-33.9	-35.0	30.1	3.02e+01	0	34	0	1072693248	42	6131
2026-01-06 03:05:45.40	328.31	14.88	-33.9	-35.1	30.0	3.02e+01	0	34	0	1074266112	42	6173
2026-01-06 03:05:46.40	328.42	14.77	-33.9	-35.0	30.1	3.02e+01	0	34	0	1076363264	42	6121
2026-01-06 03:05:47.41	328.52	14.67	-33.9	-35.1	30.0	3.02e+01	0	34	0	1077936128	42	6154
2026-01-06 03:05:48.42	328.63	14.56	-33.9	-35.1	30.0	3.02e+01	0	34	0	1080033280	42	6172
2026-01-06 03:05:49.43	328.73	14.46	-34.0	-35.1	30.0	3.02e+01	0	34	0	1082130432	42	6196
2026-01-06 03:05:50.44	328.84	14.35	-34.0	-35.2	30.0	3.02e+01	0	34	0	1083703296	42	6216
2026-01-06 03:05:51.45	328.94	14.25	-33.9	-35.1	30.0	3.02e+01	0	34	0	1085800448	42	6185
2026-01-06 03:05:52.46	329.04	14.15	-34.1	-35.3	29.8	3.02e+01	0	34	0	1087373312	42	6344
2026-01-06 03:05:53.47	329.14	14.05	-34.1	-35.3	29.8	3.02e+01	0	34	0	1089470464	42	6308
2026-01-06 03:05:54.48	329.24	13.94	-34.2	-35.4	29.8	3.02e+01	0	34	0	1091567616	42	6415
2026-01-06 03:05:55.49	329.34	13.84	-34.4	-35.6	29.7	3.02e+01	0	34	0	1093140480	42	6512
2026-01-06 03:05:56.50	329.44	13.74	-34.3	-35.5	29.7	3.02e+01	0	34	0	1095237632	42	6455
2026-01-06 03:05:57.50	329.54	13.64	-34.3	-35.5	29.6	3.02e+01	0	34	0	1096810496	42	6473
2026-01-06 03:05:58.51	329.63	13.54	-34.2	-35.4	29.7	3.02e+01	0	34	0	1098907648	42	6406
2026-01-06 03:05:59.52	329.73	13.44	-34.4	-35.6	29.6	3.02e+01	0	34	0	1101004800	42	6545
2026-01-06 03:06:00.53	329.83	13.34	-34.3	-35.5	29.6	3.02e+01	0	34	0	1102577664	42	6457
2026-01-06 03:06:01.54	329.92	13.24	-34.3	-35.5	29.7	3.02e+01	0	34	0	1104674816	42	6446
2026-01-06 03:06:02.55	330.02	13.14	-34.3	-35.5	29.5	3.02e+01	0	34	0	1106247680	42	6483
2026-01-06 03:06:03.56	330.11	13.04	-34.4	-35.6	29.5	3.02e+01	0	34	0	1108344832	42	6531
2026-01-06 03:06:04.57	330.20	12.94	-34.5	-35.7	29.4	3.02e+01	0	34	0	1110441984	42	6614
2026-01-06 03:06:05.58	330.30	12.85	-34.5	-35.7	29.4	3.02e+01	0	34	0	1112014848	42	6593
2026-01-06 03:06:06.59	330.39	12.75	-34.6	-35.8	29.3	3.02e+01	0	34	0	1114112000	42	6664
2026-01-06 03:06:07.59	330.48	12.65	-34.4	-35.6	29.5	3.02e+01	0	34	0	1116209152	42	6561
2026-01-06 03:06:08.60	330.57	12.56	-34.6	-35.8	29.4	3.02e+01	0	34	0	1117782016	42	6676
2026-01-06 03:06:09.61	330.66	12.46	-34.4	-35.6	29.5	3.02e+01	0	34	0	1119879168	42	6542
2026-01-06 03:06:10.62	330.75	12.36	-34.5	-35.6	29.5	3.02e+01	0	34	0	1121452032	42	6569
2026-01-06 03:06:11.63	330.84	12.27	-34.2	-35.4	29.7	3.02e+01	0	34	0	1123549184	42	6382
2026-01-06 03:06:12.64	330.93	12.17	-34.3	-35.5	29.6	3.02e+01	0	34	0	1125646336	42	6470
2026-01-06 03:06:13.65	331.02	12.08	-34.3	-35.4	29.6	3.02e+01	0	34	0	1127219200	42	6419
2026-01-06 03:06:14.66	331.10	11.98	-34.3	-35.5	29.7	3.02e+01	0	34	0	1129316352	42	6461
2026-01-06 03:06:15.67	331.19	11.89	-34.2	-35.4	29.7	3.02e+01	0	34	0	1130889216	42	6400
2026-01-06 03:06:16.68	331.28	11.80	-34.3	-35.5	29.6	3.02e+01	0	34	0	1132986368	42	6434
2026-01-06 03:06:17.69	331.36	11.70	-34.3	-35.5	29.6	3.02e+01	0	34	0	1135083520	42	6491
2026-01-06 03:06:18.70	331.45	11.61	-34.4	-35.6	29.5	3.02e+01	0	34	0	1136656384	42	6569
2026-01-06 03:06:19.71	331.53	11.52	-34.4	-35.6	29.5	3.02e+01	0	34	0	1138753536	42	6514
2026-01-06 03:06:20.72	331.62	11.42	-34.5	-35.7	29.4	3.02e+01	0	34	0	1140850688	42	6590
2026-01-06 03:06:21.72	331.70	11.33	-34.6	-35.8	29.3	3.02e+01	0	34	0	1142423552	42	6661
2026-01-06 03:06:22.73	331.78	11.24	-34.7	-35.9	29.3	3.02e+01	0	34	0	1144520704	42	6748
2026-01-06 03:06:23.74	331.86	11.15	-34.7	-35.9	29.2	3.02e+01	0	34	0	1146093568	42	6755
2026-01-06 03:06:24.75	331.95	11.06	-34.5	-35.7	29.4	3.02e+01	0	34	0	1148190720	42	6614
2026-01-06 03:06:25.76	332.03	10.97	-34.6	-35.7	29.4	3.02e+01	0	34	0	1149763584	42	6649
2026-01-06 03:06:26.77	332.11	10.88	-34.6	-35.8	29.3	3.02e+01	0	34	0	1151860736	42	6706
2026-01-06 03:06:27.78	332.19	10.79	-34.7	-36.0	29.2	3.02e+01	0	34	0	1153957888	42	6810
2026-01-06 03:06:28.79	332.27	10.70	-34.8	-36.1	29.1	3.02e+01	0	34	0	1155530752	42	6891
2026-01-06 03:06:29.80	332.35	10.61	-34.6	-35.8	29.3	3.02e+01	0	34	0	1157627904	42	6720
2026-01-06 03:06:30.81	332.43	10.52	-35.1	-45.1	3.5	3.02e+01	0	34	104	1158152192	44	17429
2026-01-06 03:06:31.81	332.50	10.43	-35.1	-45.1	3.5	3.02e+01	0	34	104	1158152192	44	17407
2026-01-06 03:06:32.82	332.58	10.34	-35.2	-45.3	3.6	3.02e+01	0	34	104	1158152192	44	17815
2026-01-06 03:06:33.83	332.66	10.25	-38.8	-49.2	3.4	3.02e+01	0	34	104	1158152192	50	19630
2026-01-06 03:06:34.84	332.74	10.17	-36.6	-46.7	3.5	3.02e+01	0	34	104	1158152192	46	18591
2026-01-06 03:06:35.85	332.81	10.08	-47.4	-63.0	3.5	3.02e+01	0	34	104	1158152192	60	54520
2026-01-06 03:06:36.86	332.89	9.99	-47.1	-62.3	3.5	3.02e+01	0	34	104	1158152192	60	50064
2026-01-06 03:06:37.87	332.97	9.90	-41.0	-51.6	3.5	3.02e+01	0	34	104	1158152192	52	23252
2026-01-06 03:06:38.88	333.04	9.82	-37.7	-48.1	3.4	3.02e+01	0	34	104	1158152192	50	17418
2026-01-06 03:06:39.89	333.12	9.73	-37.8	-48.1	3.6	3.02e+01	0	34	104	1158152192	50	17307
2026-01-06 03:06:40.90	333.19	9.65	-37.8	-48.1	3.6	3.02e+01	0	34	104	1158152192	50	17374
2026-01-06 03:06:41.90	333.26	9.56	-37.8	-48.1	3.6	3.02e+01	0	34	104	1158152192	50	17395
2026-01-06 03:06:42.91	333.34	9.47	-44.2	-55.9	3.5	3.02e+01	0	34	104	1158152192	60	24069
2026-01-06 03:06:43.92	333.41	9.39	-42.8	-53.9	3.4	3.02e+01	0	34	104	1158152192	60	19117
2026-01-06 03:06:44.93	333.48	9.30	-47.3	-62.5	3.5	3.02e+01	0	34	104	1158152192	60	51369
2026-01-06 03:06:45.94	333.55	9.22	-48.1	-65.9	3.5	3.02e+01	0	34	104	1158152192	60	76047
2026-01-06 03:06:46.94	333.63	9.14	-37.2	-47.5	4.1	3.02e+01	0	34	104	1158152192	46	20529
2026-01-06 03:06:47.95	333.70	9.05	-37.1	-47.4	4.1	3.02e+01	0	34	104	1158152192	50	16071
2026-01-06 03:06:48.97	333.77	8.97	-37.4	-47.6	4.1	3.02e+01	0	34	104	1158152192	50	16503
2026-01-06 03:06:49.97	333.84	8.89	-36.7	-46.9	3.4	3.02e+01	0	34	104	1158152192	48	16945
2026-01-06 03:06:50.98	333.91	8.80	-35.9	-46.1	4.1	3.02e+01	0	34	104	1158152192	46	17340
2026-01-06 03:06:51.99	333.98	8.72	-36.0	-46.1	4.1	3.02e+01	0	34	104	1158152192	46	17438
2026-01-06 03:06:53.01	334.05	8.64	-37.8	-48.1	3.6	3.02e+01	0	34	104	1158152192	48	19582
2026-01-06 03:06:54.02	334.12	8.55	-48.0	-65.7	3.5	3.02e+01	0	34	104	1158152192	60	74402
2026-01-06 03:06:55.03	334.19	8.47	-47.3	-62.5	3.5	3.02e+01	0	34	104	1158152192	60	51395
