passes_logs/2026/01/06/R4.6S_Anadyr/R4.6S_Anadyr__20260106_134320_NOAA_21_JPSS-2_rec.log

#Pass ID: 20260106_134320_NOAA 21 (JPSS-2)
#Satellite: NOAA 21 (JPSS-2)
#Configuration: NOAA-21
#almurnet v.1.7.20251203
#Start time: 2026-01-06 13:43:20

#Version: 2.2.20231116
#Station: R4.6S_Anadyr
#Location: 177.4865 lon 64.73178 lat
#TLE: 1 54234U 22150A   26005.42670836  .00000142  00000+0  88292-4 0  9996
#TLE: 2 54234  98.7490 306.4427 0001045 340.6622  19.4514 14.19532269163451

#Time	Az	El	Level	Level2	SNR	BER	BlckErr	Temp	State	Recorded	gain1	gain2
2026-01-06 13:43:20.57	19.01	0.03	-48.7	-63.6	3.5	1.51e+00	0	33	0	0	60	54502
2026-01-06 13:43:21.57	19.04	0.09	-48.8	-61.7	3.5	1.52e+00	0	34	104	0	60	42454
2026-01-06 13:43:22.58	19.07	0.15	-48.8	-61.7	3.5	1.52e+00	0	34	104	0	60	42677
2026-01-06 13:43:23.59	19.11	0.21	-48.9	-61.7	3.5	1.52e+00	0	34	104	0	60	42567
2026-01-06 13:43:24.60	19.14	0.27	-48.9	-61.7	3.5	1.52e+00	0	34	104	0	60	42696
2026-01-06 13:43:25.61	19.18	0.33	-48.9	-61.8	3.5	1.52e+00	0	34	104	0	60	43145
2026-01-06 13:43:26.62	19.21	0.38	-48.9	-61.8	3.5	1.52e+00	0	34	104	0	60	43244
2026-01-06 13:43:27.64	19.25	0.44	-48.9	-61.8	3.5	1.52e+00	0	34	104	0	60	43085
2026-01-06 13:43:28.65	19.28	0.50	-48.9	-61.7	3.5	1.51e+00	0	34	104	0	60	42788
2026-01-06 13:43:29.65	19.32	0.56	-48.8	-61.7	3.5	1.52e+00	0	34	104	0	60	42616
2026-01-06 13:43:30.66	19.35	0.62	-48.8	-61.6	3.5	1.52e+00	0	34	104	0	60	42026
2026-01-06 13:43:31.67	19.39	0.68	-48.6	-61.5	3.5	1.51e+00	0	34	104	0	60	41526
2026-01-06 13:43:32.68	19.42	0.74	-48.5	-61.3	3.5	1.52e+00	0	34	104	0	60	40548
2026-01-06 13:43:33.69	19.46	0.80	-48.3	-61.2	3.5	1.52e+00	0	35	104	0	60	40200
2026-01-06 13:43:34.70	19.49	0.86	-48.1	-60.9	3.5	1.52e+00	0	35	104	0	60	39136
2026-01-06 13:43:35.71	19.53	0.92	-47.9	-60.7	3.5	1.52e+00	0	35	104	0	60	38169
2026-01-06 13:43:36.72	19.57	0.98	-47.5	-60.3	3.5	1.52e+00	0	35	104	0	60	36261
2026-01-06 13:43:37.73	19.60	1.04	-47.4	-60.3	3.5	1.52e+00	0	35	104	0	60	36179
2026-01-06 13:43:38.74	19.64	1.10	-47.4	-60.2	3.5	1.52e+00	0	35	104	0	60	36052
2026-01-06 13:43:39.75	19.67	1.16	-47.4	-60.2	3.5	1.52e+00	0	35	104	0	60	36028
2026-01-06 13:43:40.76	19.71	1.22	-47.4	-60.2	3.5	1.52e+00	0	35	104	0	60	35935
2026-01-06 13:43:41.77	19.75	1.28	-47.4	-60.2	3.5	1.52e+00	0	35	104	0	60	35891
2026-01-06 13:43:42.77	19.78	1.34	-47.4	-60.2	3.5	1.51e+00	0	35	104	0	60	35831
2026-01-06 13:43:43.78	19.82	1.40	-47.4	-60.2	3.5	1.52e+00	0	35	104	0	60	35839
2026-01-06 13:43:44.80	19.86	1.46	-47.4	-60.1	3.5	1.52e+00	0	35	104	0	60	35484
2026-01-06 13:43:45.81	19.89	1.52	-47.4	-60.1	3.5	1.52e+00	0	35	104	0	60	35678
2026-01-06 13:43:46.82	19.93	1.58	-47.4	-60.2	3.6	1.52e+00	0	35	104	0	60	35813
2026-01-06 13:43:47.83	19.97	1.64	-47.4	-60.2	3.5	1.52e+00	0	35	104	0	60	35874
2026-01-06 13:43:48.84	20.01	1.70	-47.4	-60.2	3.5	1.52e+00	0	35	104	0	60	35999
2026-01-06 13:43:49.85	20.04	1.76	-47.4	-60.2	3.5	1.52e+00	0	35	104	0	60	35780
2026-01-06 13:43:50.86	20.08	1.83	-47.4	-60.2	3.5	1.52e+00	0	35	104	0	60	35937
2026-01-06 13:43:51.87	20.12	1.89	-47.4	-60.2	3.5	1.52e+00	0	35	104	0	60	36010
2026-01-06 13:43:52.88	20.16	1.95	-47.4	-60.3	3.5	1.52e+00	0	35	104	0	60	36146
2026-01-06 13:43:53.89	20.20	2.01	-47.4	-60.2	3.5	1.52e+00	0	35	104	0	60	36020
2026-01-06 13:43:54.89	20.23	2.07	-47.4	-60.0	3.5	1.52e+00	0	35	104	0	60	35087
2026-01-06 13:43:55.90	20.27	2.13	-47.4	-59.6	3.5	1.52e+00	0	35	104	0	60	33695
2026-01-06 13:43:56.91	20.31	2.20	-47.3	-59.2	3.5	1.52e+00	0	35	104	0	60	32175
2026-01-06 13:43:57.92	20.35	2.26	-47.3	-58.7	3.5	1.51e+00	0	35	104	0	60	30185
2026-01-06 13:43:58.93	20.39	2.32	-47.3	-58.7	3.5	1.51e+00	0	35	104	0	60	30345
2026-01-06 13:43:59.93	20.43	2.38	-47.3	-59.2	3.5	1.51e+00	0	35	104	0	60	32048
2026-01-06 13:44:00.94	20.47	2.45	-47.3	-59.5	3.5	1.52e+00	0	35	104	0	60	33273
2026-01-06 13:44:01.95	20.51	2.51	-47.3	-58.9	3.5	1.52e+00	0	35	104	0	60	30968
2026-01-06 13:44:02.96	20.54	2.57	-46.9	-55.9	4.6	1.47e+00	75	35	104	0	60	21965
2026-01-06 13:44:03.97	20.58	2.63	-46.2	-51.5	7.1	2.17e-01	122	35	0	1048576	60	13208
2026-01-06 13:44:04.98	20.62	2.70	-44.9	-48.6	10.7	5.62e-03	123	35	0	4194304	60	9432
2026-01-06 13:44:05.99	20.66	2.76	-43.6	-46.2	13.3	5.03e-05	122	35	0	7340032	60	7193
2026-01-06 13:44:07.00	20.70	2.82	-42.2	-44.3	15.3	7.00e-07	122	35	0	10485760	58	6449
2026-01-06 13:44:08.01	20.74	2.89	-41.0	-42.7	16.8	0.00e+00	121	35	0	13631488	56	6021
2026-01-06 13:44:09.02	20.78	2.95	-40.1	-41.7	17.7	0.00e+00	123	35	0	16777216	54	6009
2026-01-06 13:44:10.03	20.82	3.02	-39.3	-40.7	18.7	0.00e+00	123	35	0	19922944	52	6038
2026-01-06 13:44:11.04	20.87	3.08	-39.4	-40.8	18.7	0.00e+00	121	35	0	23068672	52	6094
2026-01-06 13:44:12.05	20.91	3.14	-39.3	-40.7	18.5	0.00e+00	123	35	0	26214400	52	6006
2026-01-06 13:44:13.05	20.95	3.21	-39.8	-41.3	18.0	0.00e+00	123	35	0	29360128	52	6464
2026-01-06 13:44:14.06	20.99	3.27	-40.3	-41.9	17.5	0.00e+00	122	35	0	32505856	52	6890
2026-01-06 13:44:15.07	21.03	3.34	-41.2	-42.9	16.3	0.00e+00	120	35	0	35651584	54	6959
2026-01-06 13:44:16.08	21.07	3.40	-42.6	-44.8	14.6	1.50e-06	122	35	0	38797312	56	7686
2026-01-06 13:44:17.09	21.11	3.47	-44.2	-47.2	12.1	1.02e-04	120	35	0	41943040	60	8045
2026-01-06 13:44:18.09	21.15	3.53	-45.5	-49.8	9.1	1.40e-02	123	35	0	45088768	60	10868
2026-01-06 13:44:19.10	21.20	3.60	-38.8	-40.0	19.5	0.00e+00	120	35	0	48234496	50	6273
2026-01-06 13:44:20.11	21.24	3.66	-47.2	-58.4	3.5	1.96e-01	0	35	104	51380224	60	29126
2026-01-06 13:44:21.13	21.28	3.73	-47.5	-59.3	3.5	5.90e-01	0	35	104	51380224	60	32395
2026-01-06 13:44:22.14	21.32	3.79	-44.0	-47.3	13.0	1.34e+00	123	35	104	51380224	60	8103
2026-01-06 13:44:23.15	21.37	3.86	-47.3	-58.2	3.5	1.51e+00	0	35	104	51380224	60	28560
2026-01-06 13:44:24.16	21.41	3.92	-43.8	-47.0	13.2	2.59e-01	123	35	104	51380224	60	7827
2026-01-06 13:44:25.17	21.45	3.99	-42.3	-44.4	15.3	7.00e-07	120	35	0	52428800	58	6499
2026-01-06 13:44:26.17	21.49	4.06	-41.1	-42.7	17.0	0.00e+00	122	35	0	55574528	56	6061
2026-01-06 13:44:27.18	21.54	4.12	-40.1	-41.6	18.0	0.00e+00	123	35	0	58720256	54	5955
2026-01-06 13:44:28.19	21.58	4.19	-39.4	-40.8	18.8	0.00e+00	120	35	0	61865984	52	6130
2026-01-06 13:44:29.20	21.62	4.26	-39.2	-40.6	19.2	0.00e+00	120	35	0	65011712	52	5940
2026-01-06 13:44:30.20	21.67	4.32	-38.6	-39.9	19.7	0.00e+00	123	35	0	68157440	50	6138
2026-01-06 13:44:31.21	21.71	4.39	-38.1	-39.3	20.1	0.00e+00	121	35	0	71303168	50	5770
2026-01-06 13:44:32.22	21.76	4.46	-38.1	-39.3	20.2	0.00e+00	120	35	0	74448896	50	5726
2026-01-06 13:44:33.22	21.80	4.52	-38.0	-39.2	20.3	0.00e+00	120	35	0	77594624	50	5666
2026-01-06 13:44:34.23	21.84	4.59	-37.9	-39.1	20.3	0.00e+00	123	35	0	80740352	50	5636
2026-01-06 13:44:35.24	21.89	4.66	-37.8	-39.0	20.5	0.00e+00	122	35	0	83886080	50	5571
2026-01-06 13:44:36.25	21.93	4.73	-37.9	-39.1	20.4	0.00e+00	122	35	0	87031808	50	5600
2026-01-06 13:44:37.26	21.98	4.79	-38.0	-39.2	20.4	0.00e+00	120	35	0	90177536	50	5671
2026-01-06 13:44:38.27	22.02	4.86	-37.9	-39.1	20.5	0.00e+00	123	35	0	93323264	50	5597
2026-01-06 13:44:39.28	22.07	4.93	-37.9	-39.1	20.4	0.00e+00	122	35	0	97517568	50	5613
2026-01-06 13:44:40.29	22.11	5.00	-37.6	-38.8	20.7	0.00e+00	122	35	0	100663296	48	6095
2026-01-06 13:44:41.30	22.16	5.07	-37.7	-38.9	20.6	0.00e+00	123	35	0	103809024	48	6146
2026-01-06 13:44:42.31	22.21	5.13	-37.8	-39.0	20.5	0.00e+00	122	35	0	105906176	48	6216
2026-01-06 13:44:43.32	22.25	5.20	-37.7	-38.8	20.7	0.00e+00	122	35	0	109051904	48	6126
2026-01-06 13:44:44.33	22.30	5.27	-37.9	-39.0	20.6	0.00e+00	122	35	0	113246208	48	6261
2026-01-06 13:44:45.34	22.35	5.34	-37.9	-39.0	20.6	0.00e+00	123	35	0	116391936	48	6250
2026-01-06 13:44:46.36	22.39	5.41	-37.6	-38.8	20.7	0.00e+00	122	35	0	119537664	48	6095
2026-01-06 13:44:47.36	22.44	5.48	-37.4	-38.5	21.0	0.00e+00	122	35	0	122683392	48	5923
2026-01-06 13:44:48.37	22.49	5.55	-37.4	-38.5	21.0	0.00e+00	122	35	0	125829120	48	5902
2026-01-06 13:44:49.38	22.53	5.62	-37.5	-38.6	21.1	0.00e+00	123	35	0	128974848	48	5953
2026-01-06 13:44:50.39	22.58	5.69	-37.4	-38.6	21.0	0.00e+00	120	35	0	132120576	48	5928
2026-01-06 13:44:51.40	22.63	5.76	-37.2	-38.3	21.3	0.00e+00	123	35	0	135266304	48	5758
2026-01-06 13:44:52.41	22.68	5.83	-37.3	-38.5	21.1	0.00e+00	122	35	0	138412032	48	5861
2026-01-06 13:44:53.42	22.73	5.90	-37.3	-38.4	21.2	0.00e+00	123	35	0	141557760	48	5843
2026-01-06 13:44:54.43	22.77	5.97	-37.1	-38.2	21.3	0.00e+00	123	35	0	144703488	48	5693
2026-01-06 13:44:55.44	22.82	6.04	-37.2	-38.3	21.3	0.00e+00	122	35	0	147849216	48	5731
2026-01-06 13:44:56.45	22.87	6.11	-37.2	-38.3	21.3	0.00e+00	123	35	0	150994944	48	5765
2026-01-06 13:44:57.46	22.92	6.19	-37.0	-38.1	21.4	0.00e+00	122	35	0	154140672	48	5629
2026-01-06 13:44:58.47	22.97	6.26	-37.0	-38.1	21.5	0.00e+00	120	35	0	157286400	48	5629
2026-01-06 13:44:59.47	23.02	6.33	-37.0	-38.0	21.5	0.00e+00	123	35	0	160432128	48	5581
2026-01-06 13:45:00.48	23.07	6.40	-37.0	-38.1	21.5	0.00e+00	122	35	0	163577856	48	5622
2026-01-06 13:45:01.49	23.12	6.47	-37.2	-38.3	21.3	0.00e+00	123	35	0	166723584	48	5759
2026-01-06 13:45:02.50	23.17	6.54	-36.9	-38.0	21.7	0.00e+00	123	35	0	169869312	48	5542
2026-01-06 13:45:03.51	23.22	6.62	-36.9	-38.0	21.6	0.00e+00	123	35	0	173015040	48	5538
2026-01-06 13:45:04.52	23.27	6.69	-37.0	-38.0	21.5	0.00e+00	120	35	0	176160768	48	5587
2026-01-06 13:45:05.53	23.32	6.76	-37.0	-38.1	21.5	0.00e+00	122	35	0	179306496	48	5650
2026-01-06 13:45:06.54	23.37	6.83	-36.8	-37.9	21.7	0.00e+00	123	35	0	182452224	48	5489
2026-01-06 13:45:07.55	23.42	6.91	-36.8	-37.9	21.7	0.00e+00	123	36	0	185597952	48	5499
2026-01-06 13:45:08.56	23.48	6.98	-36.9	-38.0	21.8	0.00e+00	122	35	0	188743680	48	5562
2026-01-06 13:45:09.57	23.53	7.05	-36.8	-37.8	21.8	0.00e+00	123	36	0	191889408	48	5459
2026-01-06 13:45:10.58	23.58	7.13	-36.7	-37.8	21.9	0.00e+00	123	35	0	195035136	46	6067
2026-01-06 13:45:11.59	23.63	7.20	-36.6	-37.7	21.9	0.00e+00	123	35	0	198180864	46	6002
2026-01-06 13:45:12.60	23.68	7.28	-36.6	-37.7	21.9	0.00e+00	122	35	0	201326592	46	6018
2026-01-06 13:45:13.60	23.74	7.35	-36.8	-37.8	21.9	0.00e+00	122	35	0	204472320	46	6092
2026-01-06 13:45:14.61	23.79	7.42	-36.8	-37.8	21.9	0.00e+00	122	35	0	207618048	46	6120
2026-01-06 13:45:15.62	23.84	7.50	-36.7	-37.7	21.9	0.00e+00	123	35	0	210763776	46	6024
2026-01-06 13:45:16.63	23.90	7.57	-36.6	-37.6	22.0	0.00e+00	122	35	0	213909504	46	5978
2026-01-06 13:45:17.65	23.95	7.65	-36.5	-37.5	22.1	0.00e+00	120	35	0	217055232	46	5917
2026-01-06 13:45:18.65	24.00	7.72	-36.5	-37.5	22.1	0.00e+00	121	35	0	220200960	46	5909
2026-01-06 13:45:19.66	24.06	7.80	-36.5	-37.5	22.1	0.00e+00	121	36	0	223346688	46	5888
2026-01-06 13:45:20.67	24.11	7.88	-36.5	-37.5	22.2	0.00e+00	122	35	0	226492416	46	5876
2026-01-06 13:45:21.68	24.17	7.95	-36.6	-37.6	22.1	0.00e+00	123	36	0	229638144	46	5984
2026-01-06 13:45:22.69	24.22	8.03	-36.6	-37.6	22.1	0.00e+00	123	36	0	232783872	46	5954
2026-01-06 13:45:23.70	24.28	8.10	-36.4	-37.4	22.3	0.00e+00	123	36	0	235929600	46	5846
2026-01-06 13:45:24.71	24.33	8.18	-36.3	-37.3	22.3	0.00e+00	123	35	0	239075328	46	5790
2026-01-06 13:45:25.72	24.39	8.26	-36.3	-37.3	22.3	0.00e+00	122	35	0	242221056	46	5779
2026-01-06 13:45:26.73	24.45	8.33	-36.3	-37.3	22.4	0.00e+00	123	35	0	245366784	46	5734
2026-01-06 13:45:27.74	24.50	8.41	-36.3	-37.3	22.4	0.00e+00	123	35	0	248512512	46	5732
2026-01-06 13:45:28.75	24.56	8.49	-36.2	-37.2	22.5	0.00e+00	122	35	0	251658240	46	5678
2026-01-06 13:45:29.76	24.62	8.57	-36.3	-37.3	22.3	0.00e+00	122	36	0	254803968	46	5781
2026-01-06 13:45:30.76	24.67	8.64	-36.2	-37.2	22.4	0.00e+00	123	36	0	257949696	46	5708
2026-01-06 13:45:31.78	24.73	8.72	-36.3	-37.4	22.4	0.00e+00	120	35	0	261095424	46	5792
2026-01-06 13:45:32.78	24.79	8.80	-36.1	-37.1	22.6	0.00e+00	122	36	0	264241152	46	5642
2026-01-06 13:45:33.80	24.85	8.88	-36.0	-37.0	22.6	0.00e+00	123	36	0	267386880	46	5565
2026-01-06 13:45:34.80	24.90	8.96	-36.1	-37.1	22.5	0.00e+00	122	36	0	270532608	46	5633
2026-01-06 13:45:35.82	24.96	9.04	-36.0	-37.0	22.7	0.00e+00	120	35	0	273678336	46	5539
2026-01-06 13:45:36.82	25.02	9.12	-36.0	-37.0	22.7	0.00e+00	122	35	0	276824064	46	5546
2026-01-06 13:45:37.83	25.08	9.20	-36.0	-37.0	22.6	0.00e+00	120	36	0	279969792	46	5547
2026-01-06 13:45:38.84	25.14	9.27	-35.9	-36.8	22.8	0.00e+00	123	36	0	283115520	46	5455
2026-01-06 13:45:39.85	25.20	9.35	-35.8	-36.8	22.8	0.00e+00	123	36	0	286261248	46	5433
2026-01-06 13:45:40.86	25.26	9.43	-35.8	-36.8	22.8	0.00e+00	123	36	0	289406976	46	5450
2026-01-06 13:45:41.87	25.32	9.52	-35.8	-36.8	22.9	0.00e+00	122	36	0	292552704	46	5409
2026-01-06 13:45:42.88	25.38	9.60	-35.8	-36.8	22.8	0.00e+00	122	36	0	295698432	46	5443
2026-01-06 13:45:43.89	25.44	9.68	-35.8	-36.8	22.8	0.00e+00	120	35	0	298844160	46	5412
2026-01-06 13:45:44.90	25.50	9.76	-35.7	-36.7	22.9	0.00e+00	122	36	0	301989888	44	6007
2026-01-06 13:45:45.90	25.57	9.84	-35.7	-36.7	22.9	0.00e+00	123	36	0	305135616	44	6026
2026-01-06 13:45:46.91	25.63	9.92	-35.6	-36.6	23.0	0.00e+00	120	36	0	308281344	44	5939
2026-01-06 13:45:47.92	25.69	10.00	-35.7	-36.6	23.0	0.00e+00	123	36	0	311427072	44	5976
2026-01-06 13:45:48.93	25.75	10.08	-35.5	-36.4	23.1	0.00e+00	122	36	0	314572800	44	5838
2026-01-06 13:45:49.94	25.82	10.17	-35.5	-36.5	23.0	0.00e+00	123	36	0	317718528	44	5879
2026-01-06 13:45:50.96	25.88	10.25	-35.6	-36.6	23.0	0.00e+00	122	36	0	320864256	44	5983
2026-01-06 13:45:51.96	25.94	10.33	-35.5	-36.4	23.1	0.00e+00	120	36	0	324009984	44	5849
2026-01-06 13:45:52.97	26.01	10.41	-35.5	-36.5	23.0	0.00e+00	123	36	0	327155712	44	5893
2026-01-06 13:45:53.98	26.07	10.50	-35.4	-36.4	23.1	0.00e+00	123	36	0	330301440	44	5815
2026-01-06 13:45:54.99	26.14	10.58	-35.5	-36.4	23.1	0.00e+00	122	36	0	333447168	44	5847
2026-01-06 13:45:56.00	26.20	10.66	-35.4	-36.3	23.2	0.00e+00	122	36	0	336592896	44	5788
2026-01-06 13:45:57.01	26.27	10.75	-35.3	-36.2	23.3	0.00e+00	122	36	0	339738624	44	5716
2026-01-06 13:45:58.02	26.33	10.83	-35.3	-36.3	23.3	0.00e+00	122	35	0	342884352	44	5729
2026-01-06 13:45:59.03	26.40	10.92	-35.3	-36.3	23.3	0.00e+00	123	36	0	346030080	44	5742
2026-01-06 13:46:00.04	26.46	11.00	-35.4	-36.3	23.3	0.00e+00	122	36	0	349175808	44	5773
2026-01-06 13:46:01.05	26.53	11.09	-35.3	-36.2	23.3	0.00e+00	122	36	0	352321536	44	5706
2026-01-06 13:46:02.06	26.60	11.17	-35.2	-36.1	23.5	0.00e+00	123	36	0	355467264	44	5631
2026-01-06 13:46:03.07	26.66	11.26	-35.1	-36.1	23.4	0.00e+00	123	36	0	358612992	44	5600
2026-01-06 13:46:04.08	26.73	11.34	-35.2	-36.1	23.4	0.00e+00	122	36	0	361758720	44	5640
2026-01-06 13:46:05.08	26.80	11.43	-35.1	-36.0	23.5	0.00e+00	120	36	0	364904448	44	5583
2026-01-06 13:46:06.09	26.87	11.52	-35.1	-36.0	23.5	0.00e+00	122	36	0	368050176	44	5591
2026-01-06 13:46:07.10	26.94	11.60	-35.1	-36.0	23.5	0.00e+00	122	36	0	371195904	44	5567
2026-01-06 13:46:08.12	27.01	11.69	-35.1	-36.1	23.5	0.00e+00	123	36	0	374341632	44	5596
2026-01-06 13:46:09.12	27.08	11.78	-35.1	-36.1	23.5	0.00e+00	120	36	0	377487360	44	5624
2026-01-06 13:46:10.13	27.15	11.86	-34.9	-35.8	23.7	0.00e+00	122	36	0	380633088	44	5431
2026-01-06 13:46:11.14	27.22	11.95	-34.9	-35.9	23.6	0.00e+00	123	36	0	383778816	44	5482
2026-01-06 13:46:12.15	27.29	12.04	-35.1	-36.1	23.5	0.00e+00	123	36	0	386924544	44	5601
2026-01-06 13:46:13.16	27.36	12.13	-35.0	-35.9	23.6	0.00e+00	123	36	0	390070272	44	5520
2026-01-06 13:46:14.17	27.43	12.22	-34.8	-35.8	23.7	0.00e+00	122	36	0	393216000	44	5406
2026-01-06 13:46:15.18	27.50	12.31	-34.8	-35.7	23.8	0.00e+00	122	36	0	396361728	42	6034
2026-01-06 13:46:16.18	27.58	12.39	-34.9	-35.9	23.7	0.00e+00	123	36	0	399507456	42	6138
2026-01-06 13:46:17.20	27.65	12.48	-34.8	-35.8	23.8	0.00e+00	123	36	0	402653184	42	6068
2026-01-06 13:46:18.20	27.72	12.57	-34.6	-35.6	23.9	0.00e+00	123	36	0	405798912	42	5938
2026-01-06 13:46:19.22	27.80	12.66	-34.8	-35.8	23.8	0.00e+00	122	36	0	408944640	42	6071
2026-01-06 13:46:20.22	27.87	12.75	-34.6	-35.5	23.9	0.00e+00	122	36	0	412090368	42	5912
2026-01-06 13:46:21.24	27.94	12.85	-34.7	-35.7	23.8	0.00e+00	123	36	0	415236096	42	6016
2026-01-06 13:46:22.25	28.02	12.94	-34.6	-35.5	23.9	0.00e+00	123	36	0	418381824	42	5910
2026-01-06 13:46:23.26	28.10	13.03	-34.6	-35.6	24.0	0.00e+00	123	36	0	421527552	42	5935
2026-01-06 13:46:24.27	28.17	13.12	-34.6	-35.5	23.9	0.00e+00	122	36	0	424673280	42	5871
2026-01-06 13:46:25.28	28.25	13.21	-34.5	-35.4	24.0	0.00e+00	123	36	0	427819008	42	5793
2026-01-06 13:46:26.28	28.32	13.30	-34.4	-35.3	24.0	0.00e+00	122	36	0	430964736	42	5791
2026-01-06 13:46:27.30	28.40	13.40	-34.4	-35.3	24.1	0.00e+00	122	36	0	434110464	42	5786
2026-01-06 13:46:28.30	28.48	13.49	-34.5	-35.4	24.0	0.00e+00	122	36	0	437256192	42	5831
2026-01-06 13:46:29.31	28.56	13.58	-34.5	-35.4	24.1	0.00e+00	122	36	0	440401920	42	5810
2026-01-06 13:46:30.32	28.64	13.67	-34.6	-35.5	24.0	0.00e+00	123	36	0	443547648	42	5869
2026-01-06 13:46:31.33	28.71	13.77	-34.6	-35.5	23.9	0.00e+00	120	36	0	446693376	42	5873
2026-01-06 13:46:32.35	28.79	13.86	-34.7	-35.6	23.9	0.00e+00	122	36	0	449839104	42	5950
2026-01-06 13:46:33.36	28.88	13.96	-34.6	-35.5	23.9	0.00e+00	122	36	0	452984832	42	5924
2026-01-06 13:46:34.37	28.96	14.05	-34.6	-35.5	24.0	0.00e+00	122	36	0	456130560	42	5889
2026-01-06 13:46:35.37	29.04	14.15	-34.5	-35.4	24.1	0.00e+00	123	36	0	459276288	42	5853
2026-01-06 13:46:36.38	29.12	14.24	-34.6	-35.5	23.9	0.00e+00	122	36	0	463470592	42	5913
2026-01-06 13:46:37.39	29.20	14.34	-34.5	-35.5	24.0	0.00e+00	123	36	0	466616320	42	5864
2026-01-06 13:46:38.40	29.28	14.43	-34.6	-35.5	24.0	0.00e+00	123	36	0	468713472	42	5902
2026-01-06 13:46:39.41	29.36	14.53	-34.6	-35.5	24.0	0.00e+00	122	36	0	471859200	42	5920
2026-01-06 13:46:40.42	29.45	14.63	-34.6	-35.5	24.1	0.00e+00	122	36	0	475004928	42	5894
2026-01-06 13:46:41.43	29.53	14.72	-34.5	-35.4	24.1	0.00e+00	123	36	0	479199232	42	5840
2026-01-06 13:46:42.44	29.62	14.82	-34.6	-35.5	24.1	0.00e+00	123	36	0	482344960	42	5873
2026-01-06 13:46:43.45	29.70	14.92	-34.6	-35.5	24.1	0.00e+00	122	36	0	485490688	42	5883
2026-01-06 13:46:44.46	29.79	15.02	-34.7	-35.6	23.9	0.00e+00	122	36	0	488636416	42	5978
2026-01-06 13:46:45.47	29.87	15.12	-34.7	-35.7	24.0	0.00e+00	123	36	0	491782144	42	6005
2026-01-06 13:46:46.48	29.96	15.21	-34.7	-35.6	23.9	0.00e+00	123	36	0	493879296	42	5973
2026-01-06 13:46:47.49	30.05	15.31	-34.7	-35.6	24.0	0.00e+00	123	36	0	498073600	42	5980
2026-01-06 13:46:48.50	30.14	15.41	-34.7	-35.6	24.0	0.00e+00	123	36	0	501219328	42	5979
2026-01-06 13:46:49.50	30.22	15.51	-34.8	-35.7	24.0	0.00e+00	122	36	0	504365056	42	6042
2026-01-06 13:46:50.51	30.31	15.61	-34.9	-35.8	23.8	0.00e+00	122	36	0	507510784	42	6115
2026-01-06 13:46:51.52	30.40	15.71	-34.9	-35.9	23.9	0.00e+00	123	36	0	510656512	42	6136
2026-01-06 13:46:52.53	30.49	15.81	-35.0	-35.9	23.8	0.00e+00	120	36	0	513802240	42	6191
2026-01-06 13:46:53.54	30.58	15.91	-35.0	-35.9	23.8	0.00e+00	120	36	0	516947968	42	6203
2026-01-06 13:46:54.55	30.67	16.01	-35.0	-35.9	23.8	0.00e+00	123	36	0	520093696	42	6178
2026-01-06 13:46:55.56	30.76	16.12	-35.1	-36.0	23.7	0.00e+00	123	36	0	523239424	42	6252
2026-01-06 13:46:56.57	30.86	16.22	-35.0	-35.9	23.8	0.00e+00	122	36	0	526385152	42	6190
2026-01-06 13:46:57.58	30.95	16.32	-35.2	-36.1	23.7	0.00e+00	123	36	0	529530880	42	6304
2026-01-06 13:46:58.59	31.04	16.42	-35.2	-36.1	23.6	0.00e+00	123	36	0	532676608	42	6318
2026-01-06 13:46:59.60	31.14	16.53	-35.2	-36.1	23.7	0.00e+00	123	36	0	535822336	42	6326
2026-01-06 13:47:00.61	31.23	16.63	-35.2	-36.2	23.6	0.00e+00	123	36	0	538968064	42	6360
2026-01-06 13:47:01.62	31.33	16.74	-35.4	-36.4	23.5	0.00e+00	123	36	0	542113792	42	6531
2026-01-06 13:47:02.62	31.42	16.84	-35.2	-36.2	23.6	0.00e+00	120	36	0	545259520	42	6366
2026-01-06 13:47:03.63	31.52	16.94	-35.3	-36.2	23.5	0.00e+00	122	36	0	548405248	42	6407
2026-01-06 13:47:04.64	31.62	17.05	-35.2	-36.2	23.5	0.00e+00	123	36	0	551550976	42	6375
2026-01-06 13:47:05.65	31.72	17.15	-35.3	-36.3	23.5	0.00e+00	123	36	0	554696704	42	6448
2026-01-06 13:47:06.66	31.81	17.26	-35.4	-36.3	23.5	0.00e+00	122	36	0	557842432	42	6482
2026-01-06 13:47:07.67	31.91	17.37	-35.4	-36.4	23.4	0.00e+00	120	36	0	560988160	42	6523
2026-01-06 13:47:08.68	32.01	17.47	-35.3	-36.2	23.5	0.00e+00	120	36	0	564133888	42	6382
2026-01-06 13:47:09.69	32.11	17.58	-35.4	-36.4	23.5	0.00e+00	120	36	0	567279616	42	6526
2026-01-06 13:47:10.70	32.21	17.69	-35.5	-36.4	23.4	0.00e+00	122	36	0	570425344	42	6541
2026-01-06 13:47:11.71	32.32	17.80	-35.3	-36.2	23.5	0.00e+00	120	36	0	573571072	42	6388
2026-01-06 13:47:12.72	32.42	17.90	-35.4	-36.4	23.4	0.00e+00	120	36	0	576716800	42	6528
2026-01-06 13:47:13.73	32.52	18.01	-35.3	-36.2	23.6	0.00e+00	122	36	0	579862528	42	6400
2026-01-06 13:47:14.74	32.63	18.12	-35.4	-36.4	23.5	0.00e+00	122	36	0	583008256	42	6521
2026-01-06 13:47:15.75	32.73	18.23	-35.3	-36.2	23.6	0.00e+00	122	36	0	586153984	42	6421
2026-01-06 13:47:16.76	32.84	18.34	-35.3	-36.2	23.6	0.00e+00	123	36	0	589299712	42	6416
2026-01-06 13:47:17.77	32.94	18.45	-35.3	-36.2	23.6	0.00e+00	122	36	0	592445440	42	6396
2026-01-06 13:47:18.78	33.05	18.56	-35.4	-36.3	23.5	0.00e+00	120	36	0	595591168	42	6468
2026-01-06 13:47:19.79	33.16	18.67	-35.3	-36.2	23.6	0.00e+00	118	36	0	598736896	42	6391
2026-01-06 13:47:20.80	33.27	18.78	-35.2	-36.2	23.7	0.00e+00	122	36	0	601882624	42	6357
2026-01-06 13:47:21.81	33.38	18.90	-35.1	-36.0	23.7	0.00e+00	122	36	0	605028352	42	6274
2026-01-06 13:47:22.82	33.49	19.01	-35.0	-36.0	23.7	0.00e+00	123	36	0	608174080	42	6221
2026-01-06 13:47:23.82	33.60	19.12	-34.9	-35.8	23.8	0.00e+00	123	36	0	611319808	42	6120
2026-01-06 13:47:24.83	33.71	19.23	-34.8	-35.7	23.8	0.00e+00	120	36	0	614465536	42	6057
2026-01-06 13:47:25.84	33.82	19.35	-34.7	-35.6	24.0	0.00e+00	122	36	0	617611264	42	5957
2026-01-06 13:47:26.85	33.93	19.46	-34.7	-35.6	24.1	0.00e+00	123	36	0	620756992	42	5944
2026-01-06 13:47:27.86	34.05	19.58	-34.8	-35.7	24.0	0.00e+00	120	36	0	623902720	42	6007
2026-01-06 13:47:28.87	34.16	19.69	-34.7	-35.6	24.0	0.00e+00	122	36	0	627048448	42	5994
2026-01-06 13:47:29.88	34.28	19.81	-34.5	-35.4	24.1	0.00e+00	123	36	0	630194176	42	5841
2026-01-06 13:47:30.89	34.39	19.92	-34.5	-35.4	24.2	0.00e+00	123	36	0	633339904	42	5830
2026-01-06 13:47:31.90	34.51	20.04	-34.3	-35.2	24.2	0.00e+00	122	36	0	636485632	42	5722
2026-01-06 13:47:32.91	34.63	20.15	-34.1	-35.0	24.3	0.00e+00	123	36	0	639631360	42	5577
2026-01-06 13:47:33.92	34.75	20.27	-34.2	-35.1	24.3	0.00e+00	123	36	0	642777088	42	5610
2026-01-06 13:47:34.92	34.87	20.39	-34.1	-35.0	24.4	0.00e+00	123	36	0	645922816	42	5560
2026-01-06 13:47:35.93	34.99	20.51	-34.3	-35.2	24.3	0.00e+00	122	36	0	649068544	42	5688
2026-01-06 13:47:36.94	35.11	20.62	-33.9	-34.8	24.5	0.00e+00	123	36	0	652214272	42	5434
2026-01-06 13:47:37.95	35.23	20.74	-33.8	-34.7	24.6	0.00e+00	123	36	0	655360000	42	5369
2026-01-06 13:47:38.96	35.36	20.86	-33.8	-34.6	24.7	0.00e+00	122	36	0	658505728	42	5343
2026-01-06 13:47:39.97	35.48	20.98	-33.7	-34.6	24.7	0.00e+00	122	36	0	661651456	40	5933
2026-01-06 13:47:40.98	35.61	21.10	-33.8	-34.7	24.7	0.00e+00	123	36	0	664797184	40	6024
2026-01-06 13:47:41.99	35.73	21.22	-33.8	-34.6	24.7	0.00e+00	122	36	0	667942912	40	5983
2026-01-06 13:47:43.00	35.86	21.34	-33.4	-34.3	24.9	0.00e+00	123	36	0	671088640	40	5739
2026-01-06 13:47:44.01	35.99	21.46	-33.4	-34.3	24.9	0.00e+00	123	36	0	674234368	40	5748
2026-01-06 13:47:45.02	36.12	21.59	-33.3	-34.2	24.9	0.00e+00	123	36	0	677380096	40	5706
2026-01-06 13:47:46.03	36.25	21.71	-33.4	-34.3	24.8	0.00e+00	122	36	0	680525824	40	5771
2026-01-06 13:47:47.04	36.38	21.83	-33.3	-34.1	25.0	0.00e+00	123	36	0	683671552	40	5647
2026-01-06 13:47:48.05	36.51	21.95	-33.2	-34.1	25.1	0.00e+00	122	36	0	686817280	40	5631
2026-01-06 13:47:49.06	36.65	22.08	-33.3	-34.2	25.0	0.00e+00	123	36	0	689963008	40	5702
2026-01-06 13:47:50.06	36.78	22.20	-33.3	-34.2	25.0	0.00e+00	122	36	0	693108736	40	5689
2026-01-06 13:47:51.07	36.91	22.32	-33.2	-34.1	25.0	0.00e+00	120	36	0	696254464	40	5632
2026-01-06 13:47:52.08	37.05	22.45	-33.5	-34.3	24.9	0.00e+00	122	36	0	699400192	40	5780
2026-01-06 13:47:53.09	37.19	22.57	-33.3	-34.2	25.1	0.00e+00	120	36	0	702545920	40	5684
2026-01-06 13:47:54.10	37.33	22.70	-33.3	-34.2	25.0	0.00e+00	122	36	0	705691648	40	5671
2026-01-06 13:47:55.11	37.47	22.83	-33.2	-34.0	25.1	0.00e+00	123	36	0	708837376	40	5575
2026-01-06 13:47:56.12	37.61	22.95	-32.9	-33.8	25.2	0.00e+00	122	36	0	711983104	40	5432
2026-01-06 13:47:57.13	37.75	23.08	-32.9	-33.8	25.3	0.00e+00	123	36	0	715128832	40	5428
2026-01-06 13:47:58.14	37.89	23.21	-32.9	-33.8	25.3	0.00e+00	123	36	0	718274560	40	5414
2026-01-06 13:47:59.15	38.04	23.34	-33.1	-34.0	25.1	0.00e+00	120	36	0	721420288	40	5534
2026-01-06 13:48:00.16	38.18	23.47	-32.9	-33.7	25.3	0.00e+00	123	36	0	724566016	40	5383
2026-01-06 13:48:01.17	38.33	23.59	-32.9	-33.7	25.3	0.00e+00	122	36	0	727711744	40	5381
2026-01-06 13:48:02.18	38.47	23.72	-32.9	-33.7	25.4	0.00e+00	123	36	0	730857472	40	5397
2026-01-06 13:48:03.19	38.62	23.85	-33.0	-33.9	25.3	0.00e+00	122	36	0	734003200	40	5468
2026-01-06 13:48:04.20	38.77	23.98	-33.2	-34.0	25.2	0.00e+00	123	36	0	737148928	40	5587
2026-01-06 13:48:05.21	38.92	24.11	-33.2	-34.0	25.3	0.00e+00	120	36	0	740294656	40	5586
2026-01-06 13:48:06.22	39.08	24.25	-33.3	-34.2	25.1	0.00e+00	123	36	0	743440384	40	5681
2026-01-06 13:48:07.23	39.23	24.38	-33.3	-34.2	25.1	0.00e+00	120	36	0	746586112	40	5669
2026-01-06 13:48:08.24	39.39	24.51	-33.4	-34.2	25.1	0.00e+00	123	36	0	749731840	40	5722
2026-01-06 13:48:09.24	39.54	24.64	-33.4	-34.3	25.1	0.00e+00	122	36	0	752877568	40	5760
2026-01-06 13:48:10.25	39.70	24.77	-33.5	-34.4	25.1	0.00e+00	122	36	0	756023296	40	5801
2026-01-06 13:48:11.26	39.86	24.91	-33.5	-34.4	25.0	0.00e+00	122	36	0	759169024	40	5834
2026-01-06 13:48:12.27	40.02	25.04	-33.7	-34.6	24.9	0.00e+00	122	36	0	762314752	40	5936
2026-01-06 13:48:13.28	40.18	25.18	-33.8	-34.7	24.8	0.00e+00	123	36	0	765460480	40	6019
2026-01-06 13:48:14.29	40.34	25.31	-33.9	-34.8	24.8	0.00e+00	122	36	0	768606208	40	6076
2026-01-06 13:48:15.30	40.50	25.45	-34.0	-34.9	24.7	0.00e+00	123	36	0	771751936	40	6151
2026-01-06 13:48:16.31	40.67	25.58	-34.1	-35.0	24.5	0.00e+00	123	36	0	774897664	40	6236
2026-01-06 13:48:17.32	40.84	25.72	-34.0	-34.9	24.6	0.00e+00	122	36	0	778043392	40	6160
2026-01-06 13:48:18.33	41.01	25.86	-34.0	-34.9	24.6	0.00e+00	121	36	0	781189120	40	6170
2026-01-06 13:48:19.34	41.17	25.99	-33.9	-34.8	24.9	0.00e+00	122	36	0	784334848	40	6086
2026-01-06 13:48:20.35	41.35	26.13	-34.0	-34.9	24.7	0.00e+00	123	36	0	787480576	40	6201
2026-01-06 13:48:21.36	41.52	26.27	-34.2	-35.1	24.6	0.00e+00	120	36	0	790626304	40	6308
2026-01-06 13:48:22.37	41.69	26.41	-34.1	-35.0	24.7	0.00e+00	123	36	0	793772032	40	6252
2026-01-06 13:48:23.38	41.87	26.55	-34.1	-35.0	24.6	0.00e+00	122	36	0	796917760	40	6252
2026-01-06 13:48:24.39	42.04	26.69	-34.0	-34.9	24.7	0.00e+00	123	36	0	800063488	40	6151
2026-01-06 13:48:25.40	42.22	26.83	-34.0	-34.9	24.8	0.00e+00	120	36	0	803209216	40	6164
2026-01-06 13:48:26.41	42.40	26.97	-34.1	-35.0	24.7	0.00e+00	123	36	0	806354944	40	6206
2026-01-06 13:48:27.42	42.59	27.11	-34.1	-34.9	24.7	0.00e+00	122	36	0	809500672	40	6201
2026-01-06 13:48:28.43	42.77	27.25	-34.1	-35.0	24.7	0.00e+00	122	36	0	812646400	40	6217
2026-01-06 13:48:29.44	42.95	27.39	-34.2	-35.1	24.6	0.00e+00	120	36	0	815792128	40	6318
2026-01-06 13:48:30.45	43.14	27.53	-34.3	-35.2	24.4	0.00e+00	123	36	0	818937856	40	6378
2026-01-06 13:48:31.46	43.33	27.68	-34.4	-35.3	24.4	0.00e+00	120	36	0	822083584	40	6442
2026-01-06 13:48:32.47	43.52	27.82	-34.5	-35.4	24.2	0.00e+00	122	36	0	825229312	40	6504
2026-01-06 13:48:33.48	43.71	27.96	-34.5	-35.4	24.2	0.00e+00	123	36	0	828375040	40	6543
2026-01-06 13:48:34.49	43.90	28.11	-34.3	-35.2	24.5	0.00e+00	123	36	0	832569344	40	6351
2026-01-06 13:48:35.50	44.10	28.25	-34.3	-35.2	24.4	0.00e+00	123	36	0	834666496	40	6379
2026-01-06 13:48:36.50	44.29	28.39	-34.2	-35.1	24.6	0.00e+00	123	36	0	837812224	40	6306
2026-01-06 13:48:37.51	44.49	28.54	-34.3	-35.2	24.6	0.00e+00	122	36	0	840957952	40	6386
2026-01-06 13:48:38.52	44.69	28.68	-34.3	-35.2	24.5	0.00e+00	122	36	0	844103680	40	6398
2026-01-06 13:48:39.53	44.89	28.83	-34.4	-35.3	24.5	0.00e+00	120	36	0	848297984	40	6427
2026-01-06 13:48:40.53	45.09	28.97	-34.3	-35.2	24.5	0.00e+00	123	36	0	851443712	40	6419
2026-01-06 13:48:41.54	45.30	29.12	-34.5	-35.4	24.3	0.00e+00	122	36	0	854589440	40	6528
2026-01-06 13:48:42.55	45.50	29.27	-34.1	-35.0	24.7	0.00e+00	123	36	0	856686592	40	6226
2026-01-06 13:48:43.56	45.71	29.42	-34.1	-35.0	24.6	0.00e+00	123	36	0	859832320	40	6234
2026-01-06 13:48:44.57	45.92	29.56	-34.2	-35.1	24.5	0.00e+00	122	36	0	862978048	40	6299
2026-01-06 13:48:45.58	46.14	29.71	-33.9	-34.8	24.8	0.00e+00	122	36	0	867172352	40	6094
2026-01-06 13:48:46.59	46.35	29.86	-33.9	-34.8	24.7	0.00e+00	122	36	0	870318080	40	6095
2026-01-06 13:48:47.60	46.57	30.01	-34.0	-34.9	24.7	0.00e+00	123	36	0	873463808	40	6142
2026-01-06 13:48:48.61	46.79	30.16	-34.2	-35.1	24.6	0.00e+00	120	36	0	876609536	40	6293
2026-01-06 13:48:49.62	47.01	30.31	-34.2	-35.1	24.7	0.00e+00	123	36	0	879755264	40	6289
2026-01-06 13:48:50.63	47.23	30.46	-34.2	-35.1	24.5	0.00e+00	120	36	0	882900992	40	6289
2026-01-06 13:48:51.64	47.45	30.61	-34.3	-35.2	24.4	0.00e+00	123	36	0	886046720	40	6408
2026-01-06 13:48:52.65	47.68	30.76	-34.6	-35.5	24.3	0.00e+00	120	36	0	889192448	40	6634
2026-01-06 13:48:53.66	47.91	30.91	-34.7	-35.6	24.2	0.00e+00	123	36	0	892338176	42	5946
2026-01-06 13:48:54.67	48.14	31.06	-34.8	-35.7	24.0	0.00e+00	123	36	0	895483904	42	6054
2026-01-06 13:48:55.68	48.37	31.21	-35.0	-35.9	24.0	0.00e+00	122	36	0	898629632	42	6170
2026-01-06 13:48:56.69	48.61	31.36	-34.8	-35.7	24.1	0.00e+00	122	36	0	901775360	42	6058
2026-01-06 13:48:57.70	48.85	31.51	-34.9	-35.9	23.9	0.00e+00	123	36	0	904921088	42	6136
2026-01-06 13:48:58.70	49.08	31.66	-35.0	-35.9	23.8	0.00e+00	120	36	0	908066816	42	6172
2026-01-06 13:48:59.71	49.32	31.82	-35.2	-36.2	23.7	0.00e+00	123	36	0	911212544	42	6352
2026-01-06 13:49:00.72	49.57	31.97	-35.1	-36.0	23.8	0.00e+00	120	36	0	914358272	42	6233
2026-01-06 13:49:01.73	49.81	32.12	-35.2	-36.2	23.8	0.00e+00	120	36	0	917504000	42	6351
2026-01-06 13:49:02.73	50.06	32.27	-35.3	-36.3	23.8	0.00e+00	122	36	0	920649728	42	6439
2026-01-06 13:49:03.74	50.31	32.43	-35.5	-36.4	23.7	0.00e+00	123	36	0	923795456	42	6550
2026-01-06 13:49:04.75	50.56	32.58	-35.4	-36.3	23.7	0.00e+00	123	36	0	926941184	42	6493
2026-01-06 13:49:05.76	50.82	32.73	-35.4	-36.3	23.7	0.00e+00	122	36	0	930086912	42	6484
2026-01-06 13:49:06.77	51.08	32.89	-35.3	-36.2	23.9	0.00e+00	123	36	0	933232640	42	6391
2026-01-06 13:49:07.78	51.34	33.04	-35.0	-35.9	24.1	0.00e+00	123	36	0	936378368	42	6171
2026-01-06 13:49:08.79	51.60	33.20	-35.0	-35.9	24.1	0.00e+00	123	36	0	939524096	42	6165
2026-01-06 13:49:09.80	51.87	33.35	-35.0	-35.9	24.0	0.00e+00	120	36	0	942669824	42	6182
2026-01-06 13:49:10.81	52.13	33.50	-35.1	-36.0	23.9	0.00e+00	123	36	0	945815552	42	6265
2026-01-06 13:49:11.82	52.40	33.66	-35.3	-36.3	23.8	0.00e+00	122	36	0	948961280	42	6430
2026-01-06 13:49:12.83	52.68	33.81	-35.3	-36.3	23.8	0.00e+00	122	36	0	952107008	42	6449
2026-01-06 13:49:13.84	52.95	33.97	-35.4	-36.4	23.6	0.00e+00	122	36	0	955252736	42	6503
2026-01-06 13:49:14.85	53.23	34.12	-35.2	-36.2	23.8	0.00e+00	120	36	0	958398464	42	6351
2026-01-06 13:49:15.86	53.51	34.28	-35.2	-36.1	23.8	0.00e+00	123	36	0	961544192	42	6332
2026-01-06 13:49:16.87	53.79	34.43	-35.2	-36.1	24.0	0.00e+00	123	36	0	964689920	42	6323
2026-01-06 13:49:17.88	54.08	34.59	-35.3	-36.2	23.8	0.00e+00	123	36	0	967835648	42	6417
2026-01-06 13:49:18.89	54.37	34.74	-35.4	-36.4	23.8	0.00e+00	123	36	0	970981376	42	6520
2026-01-06 13:49:19.90	54.66	34.90	-35.5	-36.5	23.6	0.00e+00	123	36	0	974127104	42	6597
2026-01-06 13:49:20.91	54.95	35.05	-35.6	-36.6	23.6	0.00e+00	121	36	0	977272832	42	6656
2026-01-06 13:49:21.92	55.25	35.20	-35.7	-36.7	23.5	0.00e+00	122	36	0	980418560	42	6730
2026-01-06 13:49:22.93	55.55	35.36	-35.7	-36.7	23.4	0.00e+00	120	36	0	983564288	44	6021
2026-01-06 13:49:23.94	55.85	35.51	-35.7	-36.7	23.4	0.00e+00	123	36	0	986710016	44	6007
2026-01-06 13:49:24.95	56.15	35.67	-35.6	-36.5	23.4	0.00e+00	120	36	0	989855744	44	5901
2026-01-06 13:49:25.96	56.46	35.82	-35.5	-36.5	23.4	0.00e+00	122	36	0	993001472	44	5871
2026-01-06 13:49:26.97	56.77	35.98	-35.5	-36.5	23.4	0.00e+00	123	36	0	996147200	44	5870
2026-01-06 13:49:27.98	57.09	36.13	-35.6	-36.5	23.4	0.00e+00	122	36	0	999292928	44	5903
2026-01-06 13:49:28.98	57.40	36.28	-35.5	-36.4	23.5	0.00e+00	120	36	0	1002438656	44	5854
2026-01-06 13:49:29.99	57.72	36.43	-35.7	-36.6	23.3	0.00e+00	122	36	0	1005584384	44	5989
2026-01-06 13:49:31.00	58.04	36.59	-35.9	-36.9	23.2	0.00e+00	123	36	0	1008730112	44	6157
2026-01-06 13:49:32.01	58.37	36.74	-35.8	-36.7	23.3	0.00e+00	122	36	0	1011875840	44	6048
2026-01-06 13:49:33.02	58.69	36.89	-35.7	-36.6	23.5	0.00e+00	120	36	0	1015021568	44	5978
2026-01-06 13:49:34.03	59.03	37.04	-35.6	-36.5	23.5	0.00e+00	122	36	0	1018167296	44	5909
2026-01-06 13:49:35.04	59.36	37.20	-35.6	-36.6	23.5	0.00e+00	122	36	0	1021313024	44	5939
2026-01-06 13:49:36.05	59.70	37.35	-35.8	-36.7	23.4	0.00e+00	123	36	0	1024458752	44	6047
2026-01-06 13:49:37.06	60.04	37.50	-35.8	-36.8	23.3	0.00e+00	123	36	0	1027604480	44	6069
2026-01-06 13:49:38.06	60.38	37.65	-36.0	-37.0	23.1	0.00e+00	123	36	0	1030750208	44	6223
2026-01-06 13:49:39.07	60.73	37.80	-36.0	-37.0	23.0	0.00e+00	123	36	0	1033895936	44	6239
2026-01-06 13:49:40.08	61.08	37.95	-36.2	-37.2	22.9	0.00e+00	123	36	0	1037041664	44	6378
2026-01-06 13:49:41.09	61.43	38.10	-35.7	-36.7	23.2	0.00e+00	123	36	0	1040187392	44	6002
2026-01-06 13:49:42.10	61.79	38.25	-35.9	-36.9	23.2	0.00e+00	122	36	0	1043333120	44	6166
2026-01-06 13:49:43.11	62.15	38.39	-35.9	-36.9	23.2	0.00e+00	123	36	0	1046478848	44	6141
2026-01-06 13:49:44.12	62.51	38.54	-36.0	-36.9	23.3	0.00e+00	123	36	0	1049624576	44	6169
2026-01-06 13:49:45.13	62.87	38.69	-36.0	-37.0	23.2	0.00e+00	122	36	0	1052770304	44	6228
2026-01-06 13:49:46.14	63.24	38.83	-35.8	-36.8	23.5	0.00e+00	123	36	0	1055916032	44	6076
2026-01-06 13:49:47.15	63.62	38.98	-36.0	-36.9	23.3	0.00e+00	123	36	0	1059061760	44	6174
2026-01-06 13:49:48.16	63.99	39.12	-35.8	-36.7	23.4	0.00e+00	123	36	0	1062207488	44	6057
2026-01-06 13:49:49.17	64.37	39.27	-36.0	-37.0	23.2	0.00e+00	123	36	0	1065353216	44	6244
2026-01-06 13:49:50.18	64.76	39.41	-35.9	-36.8	23.3	0.00e+00	122	36	0	1068498944	44	6126
2026-01-06 13:49:51.18	65.14	39.55	-36.0	-36.9	23.2	0.00e+00	123	36	0	1071644672	44	6201
2026-01-06 13:49:52.19	65.53	39.69	-36.1	-37.0	23.2	0.00e+00	122	36	0	1074790400	44	6265
2026-01-06 13:49:53.20	65.92	39.83	-36.1	-37.0	23.2	0.00e+00	123	36	0	1077936128	44	6264
2026-01-06 13:49:54.21	66.32	39.97	-36.4	-37.4	22.9	0.00e+00	123	36	0	1081081856	44	6519
2026-01-06 13:49:55.22	66.71	40.11	-36.9	-37.9	22.5	0.00e+00	122	36	0	1084227584	46	6156
2026-01-06 13:49:56.23	67.12	40.25	-37.1	-38.1	22.3	0.00e+00	120	36	0	1087373312	46	6330
2026-01-06 13:49:57.24	67.52	40.39	-37.2	-38.2	22.3	0.00e+00	122	36	0	1090519040	46	6377
2026-01-06 13:49:58.25	67.93	40.52	-37.3	-38.3	22.1	0.00e+00	122	36	0	1093664768	46	6470
2026-01-06 13:49:59.26	68.35	40.66	-37.0	-38.0	22.3	0.00e+00	122	36	0	1096810496	46	6257
2026-01-06 13:50:00.27	68.76	40.79	-36.9	-37.9	22.6	0.00e+00	122	36	0	1099956224	46	6153
2026-01-06 13:50:01.28	69.18	40.92	-36.9	-37.9	22.5	0.00e+00	123	36	0	1103101952	46	6163
2026-01-06 13:50:02.29	69.61	41.05	-36.9	-37.9	22.5	0.00e+00	123	36	0	1106247680	46	6183
2026-01-06 13:50:03.30	70.03	41.18	-36.8	-37.7	22.6	0.00e+00	120	36	0	1109393408	46	6062
2026-01-06 13:50:04.31	70.46	41.31	-37.0	-38.0	22.4	0.00e+00	123	36	0	1112539136	46	6254
2026-01-06 13:50:05.32	70.90	41.44	-37.3	-38.4	22.1	0.00e+00	120	36	0	1115684864	46	6523
2026-01-06 13:50:06.33	71.33	41.56	-37.4	-38.4	22.1	0.00e+00	122	36	0	1118830592	46	6565
2026-01-06 13:50:07.34	71.77	41.69	-37.4	-38.4	21.9	0.00e+00	120	36	0	1121976320	46	6555
2026-01-06 13:50:08.35	72.22	41.81	-37.6	-38.6	21.6	0.00e+00	122	36	0	1125122048	46	6705
2026-01-06 13:50:09.36	72.66	41.93	-37.7	-38.8	21.4	0.00e+00	122	36	0	1128267776	46	6819
2026-01-06 13:50:10.37	73.11	42.05	-37.7	-38.8	21.5	0.00e+00	123	36	0	1131413504	48	6094
2026-01-06 13:50:11.38	73.57	42.17	-37.8	-38.9	21.4	0.00e+00	120	36	0	1134559232	48	6171
2026-01-06 13:50:12.38	74.02	42.29	-37.8	-38.8	21.5	0.00e+00	122	36	0	1137704960	48	6133
2026-01-06 13:50:13.39	74.48	42.40	-37.3	-38.4	21.9	0.00e+00	123	36	0	1140850688	48	5792
2026-01-06 13:50:14.40	74.94	42.51	-37.5	-38.6	21.8	0.00e+00	122	36	0	1143996416	48	5958
2026-01-06 13:50:15.41	75.41	42.63	-37.4	-38.4	21.7	0.00e+00	123	36	0	1147142144	48	5834
2026-01-06 13:50:16.42	75.88	42.74	-37.5	-38.7	21.5	0.00e+00	123	36	0	1150287872	48	5998
2026-01-06 13:50:17.43	76.35	42.84	-37.4	-38.5	21.9	0.00e+00	122	36	0	1153433600	48	5909
2026-01-06 13:50:18.44	76.82	42.95	-37.2	-38.3	22.1	0.00e+00	123	36	0	1156579328	48	5760
2026-01-06 13:50:19.45	77.30	43.05	-36.7	-37.7	22.6	0.00e+00	122	36	0	1159725056	46	6035
2026-01-06 13:50:20.46	77.79	43.16	-36.6	-37.6	22.4	0.00e+00	122	36	0	1162870784	46	5987
2026-01-06 13:50:21.47	78.27	43.26	-37.1	-38.1	21.7	0.00e+00	120	36	0	1166016512	46	6339
2026-01-06 13:50:22.48	78.76	43.36	-37.2	-38.3	21.7	0.00e+00	122	36	0	1169162240	46	6455
2026-01-06 13:50:23.49	79.25	43.45	-37.4	-38.5	21.9	0.00e+00	123	36	0	1172307968	46	6631
2026-01-06 13:50:24.50	79.74	43.55	-37.2	-38.2	22.2	0.00e+00	120	36	0	1175453696	46	6400
2026-01-06 13:50:25.51	80.24	43.64	-37.0	-38.0	22.3	0.00e+00	122	36	0	1178599424	46	6247
2026-01-06 13:50:26.52	80.74	43.73	-37.5	-38.5	21.8	0.00e+00	122	36	0	1181745152	46	6642
2026-01-06 13:50:27.53	81.24	43.82	-38.0	-39.1	21.3	0.00e+00	123	36	0	1184890880	48	6350
2026-01-06 13:50:28.54	81.75	43.90	-38.2	-39.4	20.8	0.00e+00	120	36	0	1188036608	48	6544
2026-01-06 13:50:29.55	82.26	43.99	-38.4	-39.6	20.9	0.00e+00	122	36	0	1191182336	48	6689
2026-01-06 13:50:30.56	82.77	44.07	-38.5	-39.7	21.1	0.00e+00	122	36	0	1194328064	48	6794
2026-01-06 13:50:31.58	83.28	44.15	-37.6	-38.6	21.9	0.00e+00	123	36	0	1197473792	48	5979
2026-01-06 13:50:32.58	83.80	44.22	-36.8	-37.8	22.2	0.00e+00	122	36	0	1200619520	48	5456
2026-01-06 13:50:33.59	84.31	44.30	-36.9	-37.9	22.3	0.00e+00	123	36	0	1203765248	48	5513
2026-01-06 13:50:34.60	84.83	44.37	-36.9	-37.9	22.5	0.00e+00	123	36	0	1206910976	48	5506
2026-01-06 13:50:35.61	85.36	44.44	-37.0	-38.0	22.4	0.00e+00	123	36	0	1210056704	48	5565
2026-01-06 13:50:36.62	85.88	44.51	-37.0	-37.9	22.5	0.00e+00	123	36	0	1213202432	48	5527
2026-01-06 13:50:37.63	86.41	44.57	-37.0	-38.0	22.5	0.00e+00	123	36	0	1217396736	48	5566
2026-01-06 13:50:38.64	86.94	44.63	-36.7	-37.7	22.7	0.00e+00	121	36	0	1220542464	46	6028
2026-01-06 13:50:39.65	87.47	44.69	-37.0	-38.0	22.4	0.00e+00	123	36	0	1222639616	46	6259
2026-01-06 13:50:40.66	88.00	44.75	-36.8	-37.8	22.6	0.00e+00	123	36	0	1225785344	46	6130
2026-01-06 13:50:41.67	88.54	44.80	-36.7	-37.7	22.6	0.00e+00	123	36	0	1228931072	46	6052
2026-01-06 13:50:42.68	89.07	44.85	-37.1	-38.1	22.2	0.00e+00	120	36	0	1233125376	46	6291
2026-01-06 13:50:43.70	89.62	44.90	-37.1	-38.1	22.3	0.00e+00	122	36	0	1236271104	46	6311
2026-01-06 13:50:44.70	90.15	44.95	-37.1	-38.1	22.4	0.00e+00	120	36	0	1239416832	46	6322
2026-01-06 13:50:45.71	90.69	44.99	-37.0	-38.0	22.4	0.00e+00	122	36	0	1242562560	46	6246
2026-01-06 13:50:46.72	91.24	45.03	-37.0	-38.0	22.1	0.00e+00	123	36	0	1245708288	46	6233
2026-01-06 13:50:47.73	91.78	45.07	-37.2	-38.2	21.8	0.00e+00	120	36	0	1248854016	46	6423
2026-01-06 13:50:48.74	92.33	45.11	-37.3	-38.4	21.8	0.00e+00	123	36	0	1251999744	46	6504
2026-01-06 13:50:49.75	92.87	45.14	-37.1	-38.2	22.2	0.00e+00	120	36	0	1255145472	46	6374
2026-01-06 13:50:50.76	93.42	45.17	-37.0	-38.0	22.4	0.00e+00	123	36	0	1258291200	46	6228
2026-01-06 13:50:51.77	93.97	45.19	-36.9	-37.9	22.4	0.00e+00	123	36	0	1261436928	46	6169
2026-01-06 13:50:52.78	94.52	45.22	-37.0	-38.0	22.3	0.00e+00	123	36	0	1264582656	46	6238
2026-01-06 13:50:53.79	95.07	45.24	-37.0	-38.0	22.4	0.00e+00	122	36	0	1267728384	46	6232
2026-01-06 13:50:54.80	95.62	45.26	-36.8	-37.8	22.4	0.00e+00	122	36	0	1270874112	46	6098
2026-01-06 13:50:55.81	96.17	45.27	-36.9	-37.9	22.4	0.00e+00	122	36	0	1274019840	46	6186
2026-01-06 13:50:56.82	96.72	45.29	-36.8	-37.9	22.4	0.00e+00	123	36	0	1277165568	46	6137
2026-01-06 13:50:57.83	97.28	45.30	-36.8	-37.8	22.2	0.00e+00	122	36	0	1280311296	46	6103
2026-01-06 13:50:58.84	97.83	45.30	-36.8	-37.9	22.1	0.00e+00	123	36	0	1283457024	46	6175
2026-01-06 13:50:59.85	98.38	45.31	-37.0	-38.0	22.0	0.00e+00	122	36	0	1286602752	46	6274
2026-01-06 13:51:00.86	98.94	45.31	-37.2	-38.3	22.0	0.00e+00	120	36	0	1289748480	46	6451
2026-01-06 13:51:01.87	99.49	45.31	-37.4	-38.5	21.6	0.00e+00	122	36	0	1292894208	46	6619
2026-01-06 13:51:02.87	100.04	45.30	-37.1	-38.1	22.0	0.00e+00	123	36	0	1296039936	46	6302
2026-01-06 13:51:03.89	100.59	45.29	-36.7	-37.7	22.5	0.00e+00	121	36	0	1299185664	46	6036
2026-01-06 13:51:04.90	101.15	45.28	-36.5	-37.5	22.7	0.00e+00	123	36	0	1302331392	46	5920
2026-01-06 13:51:05.91	101.70	45.27	-36.4	-37.4	22.8	0.00e+00	123	36	0	1305477120	46	5835
2026-01-06 13:51:06.92	102.25	45.25	-36.5	-37.5	22.8	0.00e+00	123	36	0	1308622848	46	5899
2026-01-06 13:51:07.93	102.80	45.23	-36.5	-37.4	22.8	0.00e+00	123	36	0	1311768576	46	5842
2026-01-06 13:51:08.94	103.35	45.21	-36.5	-37.5	22.8	0.00e+00	122	36	0	1314914304	46	5886
2026-01-06 13:51:09.94	103.90	45.19	-36.6	-37.6	22.8	0.00e+00	123	36	0	1318060032	46	5986
2026-01-06 13:51:10.95	104.45	45.16	-36.7	-37.7	22.6	0.00e+00	122	36	0	1321205760	46	6061
2026-01-06 13:51:11.96	104.99	45.13	-36.8	-37.8	22.5	0.00e+00	123	36	0	1324351488	46	6096
2026-01-06 13:51:12.97	105.54	45.10	-36.9	-37.9	22.3	0.00e+00	122	36	0	1327497216	46	6193
2026-01-06 13:51:13.98	106.09	45.06	-36.6	-37.6	22.7	0.00e+00	123	36	0	1330642944	46	5950
2026-01-06 13:51:14.99	106.63	45.02	-36.8	-37.8	22.6	0.00e+00	123	36	0	1333788672	46	6101
2026-01-06 13:51:16.00	107.17	44.98	-36.9	-37.9	22.6	0.00e+00	123	36	0	1336934400	46	6173
2026-01-06 13:51:17.01	107.71	44.93	-37.0	-38.0	22.4	0.00e+00	123	36	0	1340080128	46	6227
2026-01-06 13:51:18.01	108.25	44.89	-36.7	-37.7	22.5	0.00e+00	123	36	0	1343225856	46	5999
2026-01-06 13:51:19.02	108.79	44.84	-36.4	-37.4	22.5	0.00e+00	122	36	0	1346371584	46	5803
2026-01-06 13:51:20.03	109.32	44.79	-36.4	-37.4	22.6	0.00e+00	123	36	0	1349517312	46	5810
2026-01-06 13:51:21.04	109.86	44.73	-36.3	-37.3	22.6	0.00e+00	123	36	0	1352663040	46	5771
2026-01-06 13:51:22.05	110.39	44.67	-36.5	-37.5	22.5	0.00e+00	122	36	0	1355808768	46	5910
2026-01-06 13:51:23.06	110.92	44.61	-36.9	-37.9	22.4	0.00e+00	122	36	0	1358954496	46	6163
2026-01-06 13:51:24.07	111.45	44.55	-37.0	-38.1	22.3	0.00e+00	122	36	0	1362100224	46	6279
2026-01-06 13:51:25.08	111.98	44.49	-36.9	-37.9	22.5	0.00e+00	122	36	0	1365245952	46	6187
2026-01-06 13:51:26.09	112.50	44.42	-36.9	-38.0	22.4	0.00e+00	123	36	0	1368391680	46	6206
2026-01-06 13:51:27.10	113.03	44.35	-36.8	-37.8	22.4	0.00e+00	123	36	0	1371537408	46	6084
2026-01-06 13:51:28.11	113.55	44.27	-36.5	-37.4	22.7	0.00e+00	123	36	0	1374683136	46	5851
2026-01-06 13:51:29.12	114.06	44.20	-36.6	-37.6	22.6	0.00e+00	122	36	0	1377828864	46	5933
2026-01-06 13:51:30.13	114.58	44.12	-36.7	-37.7	22.7	0.00e+00	120	36	0	1380974592	46	6032
2026-01-06 13:51:31.14	115.09	44.04	-36.8	-37.8	22.5	0.00e+00	123	36	0	1384120320	46	6090
2026-01-06 13:51:32.15	115.60	43.96	-37.3	-38.3	22.2	0.00e+00	120	36	0	1387266048	46	6463
2026-01-06 13:51:33.17	116.12	43.87	-37.3	-38.3	22.0	0.00e+00	123	36	0	1390411776	46	6452
2026-01-06 13:51:34.18	116.62	43.79	-37.0	-38.0	22.4	0.00e+00	123	36	0	1393557504	46	6266
2026-01-06 13:51:35.19	117.12	43.70	-36.0	-36.9	23.3	0.00e+00	122	36	0	1396703232	46	5528
2026-01-06 13:51:36.20	117.62	43.61	-35.9	-36.8	23.3	0.00e+00	123	36	0	1399848960	46	5422
2026-01-06 13:51:37.21	118.12	43.51	-36.1	-37.1	23.0	0.00e+00	122	36	0	1402994688	46	5603
2026-01-06 13:51:38.21	118.61	43.42	-36.6	-37.6	22.7	0.00e+00	123	36	0	1406140416	46	5983
2026-01-06 13:51:39.23	119.10	43.32	-36.7	-37.7	22.6	0.00e+00	123	36	0	1409286144	46	6029
2026-01-06 13:51:40.24	119.59	43.22	-36.6	-37.6	22.5	0.00e+00	123	36	0	1412431872	46	5927
2026-01-06 13:51:41.24	120.07	43.12	-36.8	-37.7	22.3	0.00e+00	123	36	0	1415577600	46	6045
2026-01-06 13:51:42.25	120.55	43.02	-36.9	-37.9	22.5	0.00e+00	122	36	0	1418723328	46	6170
2026-01-06 13:51:43.26	121.03	42.91	-36.9	-37.8	22.5	0.00e+00	123	36	0	1421869056	46	6131
2026-01-06 13:51:44.27	121.51	42.81	-36.8	-37.8	22.6	0.00e+00	120	36	0	1425014784	46	6126
2026-01-06 13:51:45.28	121.98	42.70	-36.9	-37.9	22.5	0.00e+00	122	36	0	1428160512	46	6174
2026-01-06 13:51:46.29	122.45	42.59	-37.1	-38.1	22.1	0.00e+00	122	36	0	1431306240	46	6294
2026-01-06 13:51:47.30	122.92	42.47	-37.2	-38.3	21.8	0.00e+00	122	36	0	1434451968	46	6445
2026-01-06 13:51:48.31	123.38	42.36	-37.1	-38.1	22.0	0.00e+00	122	36	0	1437597696	46	6307
2026-01-06 13:51:49.32	123.84	42.24	-36.8	-37.8	22.4	0.00e+00	123	36	0	1440743424	46	6114
2026-01-06 13:51:50.33	124.30	42.13	-36.5	-37.4	22.7	0.00e+00	120	36	0	1443889152	46	5850
2026-01-06 13:51:51.34	124.75	42.01	-36.1	-37.1	23.2	0.00e+00	123	36	0	1447034880	46	5621
2026-01-06 13:51:52.35	125.20	41.89	-36.1	-37.1	23.2	0.00e+00	122	36	0	1450180608	46	5620
2026-01-06 13:51:53.36	125.65	41.76	-36.3	-37.2	23.1	0.00e+00	123	36	0	1453326336	46	5710
2026-01-06 13:51:54.36	126.09	41.64	-36.2	-37.1	23.2	0.00e+00	123	36	0	1456472064	46	5630
2026-01-06 13:51:55.38	126.53	41.51	-36.4	-37.3	23.0	0.00e+00	122	36	0	1459617792	46	5776
2026-01-06 13:51:56.38	126.96	41.39	-36.3	-37.3	23.0	0.00e+00	122	36	0	1462763520	46	5765
2026-01-06 13:51:57.39	127.40	41.26	-36.3	-37.3	23.0	0.00e+00	119	36	0	1465909248	46	5736
2026-01-06 13:51:58.41	127.83	41.13	-36.1	-37.0	23.2	0.00e+00	123	36	0	1469054976	46	5587
2026-01-06 13:51:59.42	128.26	41.00	-35.8	-36.8	23.4	0.00e+00	122	36	0	1472200704	46	5430
2026-01-06 13:52:00.42	128.67	40.87	-35.7	-36.6	23.5	0.00e+00	122	36	0	1475346432	44	5943
2026-01-06 13:52:01.44	129.10	40.74	-36.1	-37.0	23.0	0.00e+00	122	36	0	1478492160	44	6272
2026-01-06 13:52:02.45	129.51	40.60	-36.2	-37.2	22.7	0.00e+00	122	36	0	1481637888	44	6380
2026-01-06 13:52:03.46	129.93	40.47	-36.7	-37.7	22.6	0.00e+00	122	36	0	1484783616	46	6034
2026-01-06 13:52:04.47	130.34	40.33	-36.4	-37.4	23.1	0.00e+00	123	36	0	1487929344	46	5829
2026-01-06 13:52:05.48	130.74	40.19	-36.3	-37.3	23.0	0.00e+00	122	36	0	1491075072	46	5755
2026-01-06 13:52:06.49	131.15	40.05	-36.7	-37.7	22.7	0.00e+00	123	36	0	1494220800	46	6013
2026-01-06 13:52:07.50	131.54	39.91	-36.6	-37.6	22.7	0.00e+00	123	36	0	1497366528	46	5957
2026-01-06 13:52:08.51	131.94	39.77	-36.7	-37.6	22.7	0.00e+00	123	36	0	1500512256	46	5993
2026-01-06 13:52:09.52	132.33	39.63	-36.8	-37.7	22.6	0.00e+00	123	36	0	1503657984	46	6060
2026-01-06 13:52:10.53	132.72	39.49	-37.0	-38.0	22.3	0.00e+00	122	36	0	1506803712	46	6271
2026-01-06 13:52:11.54	133.11	39.35	-37.3	-38.3	22.1	0.00e+00	123	36	0	1509949440	46	6475
2026-01-06 13:52:12.54	133.49	39.20	-37.2	-38.2	22.3	0.00e+00	122	36	0	1513095168	46	6374
2026-01-06 13:52:13.55	133.87	39.06	-37.2	-38.2	22.3	0.00e+00	122	36	0	1516240896	46	6362
2026-01-06 13:52:14.56	134.24	38.91	-36.9	-37.9	22.4	0.00e+00	120	36	0	1519386624	46	6166
2026-01-06 13:52:15.57	134.61	38.77	-37.0	-38.0	22.3	0.00e+00	122	36	0	1522532352	46	6232
2026-01-06 13:52:16.57	134.98	38.62	-36.6	-37.5	22.9	0.00e+00	122	36	0	1525678080	46	5912
2026-01-06 13:52:17.58	135.35	38.47	-36.5	-37.5	23.0	0.00e+00	122	36	0	1528823808	46	5871
2026-01-06 13:52:18.59	135.71	38.33	-36.3	-37.3	23.0	0.00e+00	122	36	0	1531969536	46	5768
2026-01-06 13:52:19.60	136.07	38.18	-36.4	-37.3	22.9	0.00e+00	120	36	0	1535115264	46	5772
2026-01-06 13:52:20.61	136.42	38.03	-36.2	-37.2	23.0	0.00e+00	123	36	0	1538260992	46	5690
2026-01-06 13:52:21.62	136.78	37.88	-36.2	-37.1	23.2	0.00e+00	123	36	0	1541406720	46	5635
2026-01-06 13:52:22.63	137.13	37.73	-36.0	-37.0	23.2	0.00e+00	122	36	0	1544552448	46	5557
2026-01-06 13:52:23.64	137.47	37.58	-35.7	-36.7	23.2	0.00e+00	120	36	0	1547698176	44	6009
2026-01-06 13:52:24.65	137.82	37.42	-35.7	-36.7	23.4	0.00e+00	123	36	0	1550843904	44	6007
2026-01-06 13:52:25.66	138.16	37.27	-35.7	-36.6	23.6	0.00e+00	123	36	0	1553989632	44	5987
2026-01-06 13:52:26.67	138.50	37.12	-35.2	-36.2	23.7	0.00e+00	122	36	0	1557135360	44	5662
2026-01-06 13:52:27.68	138.83	36.97	-35.3	-36.3	23.8	0.00e+00	123	36	0	1560281088	44	5741
2026-01-06 13:52:28.69	139.16	36.82	-35.3	-36.2	23.9	0.00e+00	123	36	0	1563426816	44	5702
2026-01-06 13:52:29.70	139.49	36.66	-35.4	-36.3	23.8	0.00e+00	123	36	0	1566572544	44	5748
2026-01-06 13:52:30.70	139.81	36.51	-35.2	-36.2	23.9	0.00e+00	123	36	0	1569718272	44	5664
2026-01-06 13:52:31.71	140.13	36.36	-35.3	-36.2	23.9	0.00e+00	123	36	0	1572864000	44	5678
2026-01-06 13:52:32.72	140.45	36.20	-35.0	-35.9	24.0	0.00e+00	121	36	0	1576009728	44	5479
2026-01-06 13:52:33.73	140.77	36.05	-35.0	-35.9	23.8	0.00e+00	120	36	0	1580204032	44	5525
2026-01-06 13:52:34.74	141.08	35.89	-34.9	-35.8	24.0	0.00e+00	123	36	0	1583349760	44	5466
2026-01-06 13:52:35.75	141.39	35.74	-34.8	-35.7	24.1	0.00e+00	120	36	0	1585446912	44	5389
2026-01-06 13:52:36.76	141.70	35.58	-34.7	-35.6	24.2	0.00e+00	122	36	0	1588592640	44	5321
2026-01-06 13:52:37.77	142.00	35.43	-34.8	-35.7	24.2	0.00e+00	122	36	0	1591738368	42	6031
2026-01-06 13:52:38.78	142.31	35.27	-34.8	-35.7	24.2	0.00e+00	122	36	0	1595932672	42	6038
2026-01-06 13:52:39.79	142.61	35.12	-35.0	-35.8	24.1	0.00e+00	122	36	0	1599078400	42	6131
2026-01-06 13:52:40.80	142.90	34.96	-35.2	-36.1	23.7	0.00e+00	122	36	0	1602224128	42	6330
2026-01-06 13:52:41.81	143.20	34.81	-35.3	-36.2	23.7	0.00e+00	123	36	0	1605369856	42	6393
2026-01-06 13:52:42.82	143.49	34.65	-35.2	-36.2	23.8	0.00e+00	123	36	0	1608515584	42	6365
2026-01-06 13:52:43.83	143.77	34.50	-35.2	-36.1	23.6	0.00e+00	120	36	0	1611661312	42	6341
2026-01-06 13:52:44.84	144.06	34.34	-35.2	-36.1	23.6	0.00e+00	123	36	0	1614807040	42	6335
2026-01-06 13:52:45.85	144.34	34.19	-35.1	-36.0	23.9	0.00e+00	120	36	0	1617952768	42	6225
2026-01-06 13:52:46.86	144.62	34.03	-35.1	-36.0	23.8	0.00e+00	123	36	0	1621098496	42	6227
2026-01-06 13:52:47.87	144.90	33.87	-35.0	-35.9	23.8	0.00e+00	120	36	0	1624244224	42	6181
2026-01-06 13:52:48.88	145.17	33.72	-34.9	-35.8	24.0	0.00e+00	122	36	0	1627389952	42	6109
2026-01-06 13:52:49.89	145.45	33.56	-35.0	-35.9	24.1	0.00e+00	123	36	0	1630535680	42	6150
2026-01-06 13:52:50.90	145.72	33.41	-35.2	-36.1	23.9	0.00e+00	122	36	0	1633681408	42	6348
2026-01-06 13:52:51.91	145.98	33.25	-35.3	-36.3	23.7	0.00e+00	122	36	0	1636827136	42	6447
2026-01-06 13:52:52.92	146.25	33.10	-35.4	-36.3	23.7	0.00e+00	123	36	0	1639972864	42	6487
2026-01-06 13:52:53.93	146.51	32.94	-35.2	-36.2	23.8	0.00e+00	123	36	0	1643118592	42	6379
2026-01-06 13:52:54.94	146.77	32.79	-35.4	-36.3	23.8	0.00e+00	123	36	0	1646264320	42	6463
2026-01-06 13:52:55.94	147.03	32.64	-35.0	-36.0	24.1	0.00e+00	123	36	0	1649410048	42	6213
2026-01-06 13:52:56.95	147.28	32.48	-34.8	-35.7	24.2	0.00e+00	122	36	0	1652555776	42	6046
2026-01-06 13:52:57.96	147.53	32.33	-34.8	-35.7	24.1	0.00e+00	122	36	0	1655701504	42	6045
2026-01-06 13:52:58.97	147.78	32.17	-34.8	-35.7	24.2	0.00e+00	125	36	0	1658847232	42	6039
2026-01-06 13:52:59.98	148.03	32.02	-34.8	-35.7	24.2	0.00e+00	122	36	0	1661992960	42	6059
2026-01-06 13:53:00.99	148.28	31.87	-34.4	-35.3	24.5	0.00e+00	123	36	0	1665138688	42	5744
2026-01-06 13:53:02.00	148.52	31.71	-34.4	-35.3	24.6	0.00e+00	123	36	0	1668284416	42	5739
2026-01-06 13:53:03.01	148.76	31.56	-34.2	-35.1	24.7	0.00e+00	123	36	0	1671430144	42	5649
2026-01-06 13:53:04.02	149.00	31.41	-34.0	-34.9	24.9	0.00e+00	122	36	0	1674575872	42	5481
2026-01-06 13:53:05.02	149.24	31.26	-34.0	-34.9	24.8	0.00e+00	123	36	0	1677721600	42	5480
2026-01-06 13:53:06.03	149.47	31.10	-33.8	-34.7	25.0	0.00e+00	122	36	0	1680867328	42	5351
2026-01-06 13:53:07.04	149.70	30.95	-33.8	-34.7	24.9	0.00e+00	123	36	0	1684013056	42	5370
2026-01-06 13:53:08.05	149.94	30.80	-33.9	-34.8	24.9	0.00e+00	122	36	0	1687158784	42	5419
2026-01-06 13:53:09.06	150.16	30.65	-33.9	-34.8	24.8	0.00e+00	123	36	0	1690304512	42	5430
2026-01-06 13:53:10.07	150.39	30.50	-34.1	-34.9	24.6	0.00e+00	123	36	0	1693450240	42	5529
2026-01-06 13:53:11.08	150.61	30.35	-34.1	-34.9	24.7	0.00e+00	122	36	0	1696595968	42	5527
2026-01-06 13:53:12.09	150.84	30.20	-34.0	-34.8	24.6	0.00e+00	122	36	0	1699741696	42	5461
2026-01-06 13:53:13.10	151.06	30.05	-34.1	-35.0	24.5	0.00e+00	123	36	0	1702887424	42	5578
2026-01-06 13:53:14.11	151.28	29.90	-34.1	-35.0	24.5	0.00e+00	120	36	0	1706033152	42	5585
2026-01-06 13:53:15.12	151.49	29.75	-34.2	-35.0	24.5	0.00e+00	123	36	0	1709178880	42	5585
2026-01-06 13:53:16.12	151.70	29.60	-34.2	-35.1	24.4	0.00e+00	120	36	0	1712324608	42	5619
2026-01-06 13:53:17.13	151.92	29.45	-34.3	-35.2	24.5	0.00e+00	122	36	0	1715470336	42	5685
2026-01-06 13:53:18.14	152.13	29.30	-34.4	-35.3	24.3	0.00e+00	123	36	0	1718616064	42	5752
2026-01-06 13:53:19.15	152.34	29.15	-34.5	-35.4	24.2	0.00e+00	122	36	0	1721761792	42	5851
2026-01-06 13:53:20.15	152.54	29.01	-34.7	-35.6	24.1	0.00e+00	122	36	0	1724907520	42	5976
2026-01-06 13:53:21.17	152.75	28.86	-35.0	-35.9	24.0	0.00e+00	123	36	0	1728053248	42	6189
2026-01-06 13:53:22.18	152.95	28.71	-34.6	-35.5	24.2	0.00e+00	123	36	0	1731198976	42	5880
2026-01-06 13:53:23.19	153.15	28.57	-34.6	-35.6	24.1	0.00e+00	120	36	0	1734344704	42	5929
2026-01-06 13:53:24.20	153.35	28.42	-34.6	-35.5	24.1	0.00e+00	122	36	0	1737490432	42	5879
2026-01-06 13:53:25.21	153.55	28.27	-34.6	-35.5	24.2	0.00e+00	120	36	0	1740636160	42	5864
2026-01-06 13:53:26.22	153.74	28.13	-34.6	-35.5	24.0	0.00e+00	123	36	0	1743781888	42	5896
2026-01-06 13:53:27.23	153.94	27.98	-34.3	-35.2	24.2	0.00e+00	122	36	0	1746927616	42	5702
2026-01-06 13:53:28.24	154.13	27.84	-34.3	-35.2	24.3	0.00e+00	123	36	0	1750073344	42	5714
2026-01-06 13:53:29.25	154.32	27.70	-34.3	-35.2	24.3	0.00e+00	123	36	0	1753219072	42	5671
2026-01-06 13:53:30.26	154.51	27.55	-34.2	-35.1	24.3	0.00e+00	123	36	0	1756364800	42	5655
2026-01-06 13:53:31.27	154.70	27.41	-34.3	-35.2	24.4	0.00e+00	122	36	0	1759510528	42	5678
2026-01-06 13:53:32.28	154.89	27.27	-34.2	-35.1	24.5	0.00e+00	122	36	0	1762656256	42	5636
2026-01-06 13:53:33.29	155.07	27.12	-33.9	-34.8	24.8	0.00e+00	122	36	0	1765801984	42	5449
2026-01-06 13:53:34.30	155.25	26.98	-34.0	-34.9	24.8	0.00e+00	122	36	0	1768947712	42	5483
2026-01-06 13:53:35.30	155.43	26.84	-33.7	-34.6	24.9	0.00e+00	122	36	0	1772093440	40	5961
2026-01-06 13:53:36.31	155.61	26.70	-33.7	-34.6	24.9	0.00e+00	122	36	0	1775239168	40	5934
2026-01-06 13:53:37.32	155.79	26.56	-33.7	-34.6	24.9	0.00e+00	123	36	0	1778384896	40	5938
2026-01-06 13:53:38.33	155.97	26.42	-33.6	-34.5	24.9	0.00e+00	122	36	0	1781530624	40	5883
2026-01-06 13:53:39.34	156.14	26.28	-33.7	-34.6	24.9	0.00e+00	123	36	0	1784676352	40	5970
2026-01-06 13:53:40.35	156.32	26.14	-33.9	-34.7	24.8	0.00e+00	123	36	0	1787822080	40	6054
2026-01-06 13:53:41.36	156.49	26.00	-34.1	-35.0	24.6	0.00e+00	123	36	0	1790967808	40	6215
2026-01-06 13:53:42.37	156.66	25.86	-34.0	-34.9	24.8	0.00e+00	122	36	0	1794113536	40	6138
2026-01-06 13:53:43.38	156.83	25.73	-34.1	-35.0	24.6	0.00e+00	122	36	0	1797259264	40	6221
2026-01-06 13:53:44.39	157.00	25.59	-34.0	-34.9	24.7	0.00e+00	123	36	0	1800404992	40	6155
2026-01-06 13:53:45.40	157.16	25.45	-33.9	-34.8	24.8	0.00e+00	122	36	0	1803550720	40	6080
2026-01-06 13:53:46.41	157.33	25.32	-34.0	-34.9	24.7	0.00e+00	123	36	0	1806696448	40	6137
2026-01-06 13:53:47.42	157.49	25.18	-33.5	-34.4	24.9	0.00e+00	122	36	0	1809842176	40	5807
2026-01-06 13:53:48.43	157.65	25.04	-33.5	-34.3	24.7	0.00e+00	123	36	0	1812987904	40	5782
2026-01-06 13:53:49.44	157.81	24.91	-33.3	-34.2	24.9	0.00e+00	122	36	0	1816133632	40	5687
2026-01-06 13:53:50.45	157.97	24.77	-33.3	-34.2	24.8	0.00e+00	123	36	0	1819279360	40	5703
2026-01-06 13:53:51.46	158.13	24.64	-33.4	-34.2	24.8	0.00e+00	123	36	0	1822425088	40	5707
2026-01-06 13:53:52.47	158.29	24.51	-33.4	-34.3	24.8	0.00e+00	123	36	0	1825570816	40	5756
2026-01-06 13:53:53.48	158.44	24.37	-33.4	-34.3	24.8	0.00e+00	123	36	0	1828716544	40	5754
2026-01-06 13:53:54.49	158.60	24.24	-33.5	-34.4	24.7	0.00e+00	122	36	0	1831862272	40	5831
2026-01-06 13:53:55.50	158.75	24.11	-33.6	-34.5	24.7	0.00e+00	123	36	0	1835008000	40	5911
2026-01-06 13:53:56.51	158.90	23.98	-33.7	-34.6	24.7	0.00e+00	123	36	0	1838153728	40	5946
2026-01-06 13:53:57.52	159.05	23.84	-33.7	-34.6	24.8	0.00e+00	122	36	0	1841299456	40	5941
2026-01-06 13:53:58.53	159.20	23.71	-33.8	-34.7	24.8	0.00e+00	123	36	0	1844445184	40	6037
2026-01-06 13:53:59.54	159.35	23.58	-33.7	-34.6	24.8	0.00e+00	122	36	0	1847590912	40	5957
2026-01-06 13:54:00.55	159.50	23.45	-33.6	-34.4	24.9	0.00e+00	123	36	0	1850736640	40	5858
2026-01-06 13:54:01.56	159.65	23.32	-33.6	-34.4	24.8	0.00e+00	123	36	0	1853882368	40	5840
2026-01-06 13:54:02.56	159.79	23.20	-33.7	-34.6	24.6	0.00e+00	120	36	0	1857028096	40	5929
2026-01-06 13:54:03.57	159.93	23.07	-33.7	-34.6	24.6	0.00e+00	123	36	0	1860173824	40	5950
2026-01-06 13:54:04.58	160.07	22.94	-33.6	-34.5	24.6	0.00e+00	123	36	0	1863319552	40	5909
2026-01-06 13:54:05.59	160.22	22.81	-33.7	-34.6	24.5	0.00e+00	122	36	0	1866465280	40	5962
2026-01-06 13:54:06.60	160.36	22.68	-33.8	-34.7	24.4	0.00e+00	120	36	0	1869611008	40	6021
2026-01-06 13:54:07.61	160.50	22.56	-33.9	-34.8	24.4	0.00e+00	123	36	0	1872756736	40	6080
2026-01-06 13:54:08.62	160.63	22.43	-33.9	-34.8	24.4	0.00e+00	122	36	0	1875902464	40	6070
2026-01-06 13:54:09.63	160.77	22.30	-33.9	-34.8	24.4	0.00e+00	123	36	0	1879048192	40	6090
2026-01-06 13:54:10.64	160.91	22.18	-33.8	-34.7	24.6	0.00e+00	122	36	0	1882193920	40	6049
2026-01-06 13:54:11.65	161.04	22.05	-33.9	-34.8	24.6	0.00e+00	122	36	0	1885339648	40	6077
2026-01-06 13:54:12.66	161.18	21.93	-34.0	-34.8	24.6	0.00e+00	123	36	0	1888485376	40	6119
2026-01-06 13:54:13.67	161.31	21.81	-34.0	-34.8	24.6	0.00e+00	123	36	0	1891631104	40	6131
2026-01-06 13:54:14.68	161.44	21.68	-34.1	-35.0	24.5	0.00e+00	123	36	0	1894776832	40	6229
2026-01-06 13:54:15.69	161.57	21.56	-34.3	-35.2	24.4	0.00e+00	123	36	0	1897922560	40	6355
2026-01-06 13:54:16.70	161.70	21.44	-34.4	-35.4	24.2	0.00e+00	123	36	0	1901068288	40	6505
2026-01-06 13:54:17.71	161.83	21.31	-34.5	-35.5	24.2	0.00e+00	123	36	0	1904214016	40	6579
2026-01-06 13:54:18.72	161.96	21.19	-34.6	-35.5	24.2	0.00e+00	122	36	0	1907359744	40	6642
2026-01-06 13:54:19.73	162.08	21.07	-34.8	-35.7	24.1	0.00e+00	123	36	0	1910505472	40	6759
2026-01-06 13:54:20.73	162.21	20.95	-34.8	-35.8	24.0	0.00e+00	123	36	0	1913651200	42	6077
2026-01-06 13:54:21.74	162.33	20.83	-34.8	-35.7	24.0	0.00e+00	120	36	0	1916796928	42	6011
2026-01-06 13:54:22.75	162.46	20.71	-34.7	-35.7	24.1	0.00e+00	123	36	0	1919942656	42	6006
2026-01-06 13:54:23.76	162.58	20.59	-34.7	-35.6	24.1	0.00e+00	122	36	0	1923088384	42	5973
2026-01-06 13:54:24.77	162.70	20.47	-34.6	-35.6	24.2	0.00e+00	123	36	0	1926234112	42	5934
2026-01-06 13:54:25.78	162.82	20.35	-34.7	-35.6	24.2	0.00e+00	122	36	0	1929379840	42	5956
2026-01-06 13:54:26.79	162.94	20.23	-34.6	-35.5	24.2	0.00e+00	123	36	0	1932525568	42	5859
2026-01-06 13:54:27.80	163.06	20.12	-34.2	-35.1	24.3	0.00e+00	122	36	0	1935671296	42	5644
2026-01-06 13:54:28.80	163.18	20.00	-34.2	-35.1	24.4	0.00e+00	122	36	0	1938817024	42	5640
2026-01-06 13:54:29.81	163.30	19.88	-34.1	-35.0	24.3	0.00e+00	122	36	0	1941962752	42	5564
2026-01-06 13:54:30.82	163.42	19.77	-34.0	-34.9	24.4	0.00e+00	123	36	0	1945108480	42	5476
2026-01-06 13:54:31.83	163.53	19.65	-34.1	-35.0	24.3	0.00e+00	123	36	0	1948254208	42	5575
2026-01-06 13:54:32.84	163.65	19.54	-33.9	-34.8	24.4	0.00e+00	123	36	0	1951399936	42	5424
2026-01-06 13:54:33.85	163.76	19.42	-33.8	-34.7	24.5	0.00e+00	122	36	0	1954545664	42	5369
2026-01-06 13:54:34.86	163.87	19.31	-33.9	-34.8	24.3	0.00e+00	122	36	0	1957691392	42	5451
2026-01-06 13:54:35.87	163.99	19.19	-33.8	-34.7	24.5	0.00e+00	120	36	0	1960837120	42	5374
2026-01-06 13:54:36.88	164.10	19.08	-33.8	-34.7	24.6	0.00e+00	122	36	0	1963982848	42	5369
2026-01-06 13:54:37.89	164.21	18.96	-33.8	-34.7	24.7	0.00e+00	123	36	0	1968177152	42	5344
2026-01-06 13:54:38.90	164.32	18.85	-33.9	-34.7	24.7	0.00e+00	123	36	0	1971322880	40	6039
2026-01-06 13:54:39.91	164.43	18.74	-33.8	-34.6	24.8	0.00e+00	120	36	0	1973420032	40	5989
2026-01-06 13:54:40.92	164.54	18.63	-33.6	-34.5	25.0	0.00e+00	122	36	0	1976565760	40	5866
2026-01-06 13:54:41.93	164.65	18.51	-33.5	-34.4	25.0	0.00e+00	122	36	0	1979711488	40	5825
