passes_logs/2026/01/06/R4.6S_Anadyr/R4.6S_Anadyr__20260106_123231_SUOMI_NPP_rec.log

#Pass ID: 20260106_123231_SUOMI NPP
#Satellite: SUOMI NPP
#Configuration: NPP
#almurnet v.1.7.20251203
#Start time: 2026-01-06 12:32:34

#Version: 2.2.20231116
#Station: R4.6S_Anadyr
#Location: 177.4865 lon 64.73178 lat
#TLE: 1 37849U 11061A   26004.95404768  .00000136  00000+0  85334-4 0  9991
#TLE: 2 37849  98.7801 307.0898 0002575  80.6707 279.4760 14.19522289735281

#Time	Az	El	Level	Level2	SNR	BER	BlckErr	Temp	State	Recorded	gain1	gain2
2026-01-06 12:32:34.20	19.18	0.14	-48.7	-61.1	3.5	1.52e+00	0	33	0	0	60	39969
2026-01-06 12:32:35.20	19.25	0.19	-48.7	-63.9	3.6	1.51e+00	0	34	104	0	60	56868
2026-01-06 12:32:36.21	19.32	0.24	-48.7	-63.9	3.6	1.51e+00	0	34	104	0	60	56827
2026-01-06 12:32:37.22	19.40	0.29	-48.7	-64.0	3.6	1.51e+00	0	34	104	0	60	57200
2026-01-06 12:32:38.23	19.47	0.34	-48.7	-64.0	3.6	1.51e+00	0	34	104	0	60	57196
2026-01-06 12:32:39.24	19.54	0.39	-48.8	-64.0	3.6	1.51e+00	0	34	104	0	60	57258
2026-01-06 12:32:40.25	19.62	0.44	-48.8	-64.0	3.6	1.51e+00	0	34	104	0	60	57140
2026-01-06 12:32:41.26	19.69	0.49	-48.8	-64.0	3.6	1.51e+00	0	34	104	0	60	57327
2026-01-06 12:32:42.27	19.76	0.54	-48.8	-63.9	3.6	1.51e+00	0	34	104	0	60	56862
2026-01-06 12:32:43.28	19.84	0.59	-48.7	-63.9	3.6	1.51e+00	0	34	104	0	60	56477
2026-01-06 12:32:44.29	19.91	0.64	-48.6	-63.7	3.6	1.51e+00	0	34	104	0	60	55632
2026-01-06 12:32:45.30	19.99	0.69	-48.5	-63.7	3.6	1.51e+00	0	34	104	0	60	55482
2026-01-06 12:32:46.31	20.06	0.74	-48.4	-63.5	3.6	1.51e+00	0	34	104	0	60	54362
2026-01-06 12:32:47.32	20.14	0.79	-48.2	-63.4	3.6	1.51e+00	0	35	104	0	60	53413
2026-01-06 12:32:48.33	20.21	0.84	-48.0	-63.2	3.6	1.51e+00	0	35	104	0	60	52415
2026-01-06 12:32:49.33	20.29	0.89	-47.7	-62.9	3.6	1.51e+00	0	35	104	0	60	50406
2026-01-06 12:32:50.35	20.36	0.95	-47.2	-62.3	3.6	1.51e+00	0	35	104	0	60	47267
2026-01-06 12:32:51.35	20.44	1.00	-47.2	-62.4	3.6	1.51e+00	0	35	104	0	60	47655
2026-01-06 12:32:52.36	20.51	1.05	-47.2	-62.4	3.6	1.51e+00	0	34	104	0	60	47406
2026-01-06 12:32:53.38	20.59	1.10	-47.2	-62.3	3.6	1.51e+00	0	35	104	0	60	46936
2026-01-06 12:32:54.39	20.67	1.15	-47.2	-62.3	3.6	1.51e+00	0	34	104	0	60	47134
2026-01-06 12:32:55.40	20.74	1.20	-47.2	-62.3	3.6	1.51e+00	0	35	104	0	60	47123
2026-01-06 12:32:56.41	20.82	1.25	-47.2	-62.3	3.6	1.51e+00	0	35	104	0	60	46849
2026-01-06 12:32:57.42	20.90	1.30	-47.2	-62.3	3.6	1.51e+00	0	35	104	0	60	47212
2026-01-06 12:32:58.43	20.98	1.36	-47.2	-62.3	3.6	1.51e+00	0	35	104	0	60	47069
2026-01-06 12:32:59.44	21.05	1.41	-47.2	-62.3	3.6	1.51e+00	0	35	104	0	60	47279
2026-01-06 12:33:00.45	21.13	1.46	-47.2	-62.3	3.6	1.51e+00	0	35	104	0	60	47294
2026-01-06 12:33:01.46	21.21	1.51	-47.2	-62.4	3.6	1.51e+00	0	35	104	0	60	47426
2026-01-06 12:33:02.47	21.29	1.56	-47.2	-62.3	3.6	1.51e+00	0	35	104	0	60	47237
2026-01-06 12:33:03.48	21.37	1.61	-47.2	-62.3	3.6	1.51e+00	0	35	104	0	60	47164
2026-01-06 12:33:04.49	21.45	1.66	-47.2	-62.3	3.5	1.51e+00	0	35	104	0	60	47090
2026-01-06 12:33:05.50	21.53	1.72	-47.2	-62.3	3.6	1.51e+00	0	35	104	0	60	46973
2026-01-06 12:33:06.50	21.61	1.77	-47.2	-62.2	3.6	1.51e+00	0	35	104	0	60	46486
2026-01-06 12:33:07.51	21.69	1.82	-47.2	-62.1	3.6	1.51e+00	0	35	104	0	60	46168
2026-01-06 12:33:08.53	21.77	1.87	-47.2	-62.2	3.6	1.51e+00	0	35	104	0	60	46497
2026-01-06 12:33:09.54	21.85	1.92	-47.2	-62.3	3.6	1.51e+00	0	35	104	0	60	46910
2026-01-06 12:33:10.54	21.93	1.98	-47.2	-62.2	3.6	1.51e+00	0	35	104	0	60	46826
2026-01-06 12:33:11.55	22.01	2.03	-47.2	-62.3	3.6	1.51e+00	0	35	104	0	60	46987
2026-01-06 12:33:12.56	22.09	2.08	-47.2	-62.2	3.6	1.51e+00	0	35	104	0	60	46684
2026-01-06 12:33:13.57	22.17	2.13	-47.2	-62.3	3.6	1.51e+00	0	35	104	0	60	47137
2026-01-06 12:33:14.58	22.25	2.18	-47.2	-62.2	3.6	1.51e+00	0	35	104	0	60	46689
2026-01-06 12:33:15.59	22.34	2.24	-47.1	-61.8	3.6	1.51e+00	0	35	104	0	60	44677
2026-01-06 12:33:16.60	22.42	2.29	-47.1	-61.4	3.6	1.51e+00	0	35	104	0	60	42258
2026-01-06 12:33:17.62	22.50	2.34	-47.1	-61.0	3.6	1.51e+00	0	35	104	0	60	40337
2026-01-06 12:33:18.62	22.58	2.39	-47.1	-61.3	3.6	1.51e+00	0	35	104	0	60	42163
2026-01-06 12:33:19.64	22.67	2.45	-47.1	-61.3	3.6	1.51e+00	0	35	104	0	60	41795
2026-01-06 12:33:20.64	22.75	2.50	-46.9	-58.2	4.3	1.50e+00	0	35	104	0	60	29237
2026-01-06 12:33:21.65	22.83	2.55	-46.4	-53.5	7.3	5.05e-01	0	35	0	0	60	17020
2026-01-06 12:33:22.66	22.92	2.60	-45.2	-49.6	11.5	4.31e-03	78	35	0	2097152	60	10954
2026-01-06 12:33:23.67	23.00	2.66	-44.2	-47.4	13.8	6.02e-05	0	35	0	4194304	60	8511
2026-01-06 12:33:24.68	23.09	2.71	-42.9	-45.4	16.0	0.00e+00	61	35	0	6291456	60	6721
2026-01-06 12:33:25.69	23.17	2.76	-42.4	-44.6	16.8	0.00e+00	0	35	0	7340032	58	6894
2026-01-06 12:33:26.70	23.26	2.81	-41.8	-43.7	17.4	0.00e+00	0	35	0	9437184	58	6221
2026-01-06 12:33:27.71	23.34	2.87	-42.0	-43.9	17.3	0.00e+00	0	35	0	11534336	56	7156
2026-01-06 12:33:28.72	23.43	2.92	-42.7	-45.0	16.1	0.00e+00	0	35	0	13631488	56	8109
2026-01-06 12:33:29.73	23.51	2.97	-43.5	-46.3	14.8	0.00e+00	0	35	0	15728640	58	8355
2026-01-06 12:33:30.74	23.60	3.03	-45.0	-49.1	12.0	2.20e-06	0	35	0	16777216	60	10273
2026-01-06 12:33:31.75	23.69	3.08	-45.8	-51.4	9.1	2.30e-03	73	35	0	18874368	60	13423
2026-01-06 12:33:32.76	23.77	3.13	-43.7	-46.4	15.7	9.16e-02	0	35	0	20971520	60	7530
2026-01-06 12:33:33.77	23.86	3.19	-45.3	-50.0	8.2	0.00e+00	0	35	0	23068672	60	11470
2026-01-06 12:33:34.78	23.95	3.24	-46.6	-55.4	4.8	1.51e+00	0	35	104	23068672	60	21166
2026-01-06 12:33:35.79	24.04	3.29	-46.1	-52.0	10.2	5.42e-01	0	35	104	23068672	60	14319
2026-01-06 12:33:36.80	24.13	3.35	-46.5	-53.5	6.0	5.34e-05	81	35	0	24117248	60	17140
2026-01-06 12:33:37.81	24.21	3.40	-47.1	-58.5	4.1	1.51e+00	0	35	104	24117248	60	30548
2026-01-06 12:33:38.82	24.30	3.45	-45.0	-49.0	12.5	9.53e-05	73	35	0	24117248	60	10168
2026-01-06 12:33:39.83	24.39	3.51	-44.9	-48.5	12.2	6.86e-05	0	35	0	25165824	60	9665
2026-01-06 12:33:40.83	24.48	3.56	-44.8	-48.4	13.3	3.20e-05	0	35	0	27262976	60	9520
2026-01-06 12:33:41.85	24.57	3.61	-43.5	-46.1	15.6	0.00e+00	0	35	0	29360128	60	7291
2026-01-06 12:33:42.85	24.66	3.67	-42.9	-45.2	16.2	0.00e+00	0	35	0	31457280	60	6605
2026-01-06 12:33:43.86	24.75	3.72	-42.1	-44.0	17.4	0.00e+00	1	35	0	33554432	58	6460
2026-01-06 12:33:44.87	24.84	3.77	-42.0	-43.9	17.6	0.00e+00	0	35	0	34603008	58	6356
2026-01-06 12:33:45.88	24.93	3.83	-42.1	-44.1	17.1	0.00e+00	51	35	0	36700160	58	6465
2026-01-06 12:33:46.89	25.02	3.88	-42.0	-44.0	17.5	0.00e+00	0	35	0	38797312	58	6397
2026-01-06 12:33:47.90	25.11	3.93	-41.8	-43.6	18.1	0.00e+00	33	35	0	40894464	56	6897
2026-01-06 12:33:48.91	25.21	3.99	-41.3	-43.0	18.5	0.00e+00	0	35	0	42991616	56	6410
2026-01-06 12:33:49.92	25.30	4.04	-41.1	-42.7	18.7	0.00e+00	0	35	0	44040192	56	6207
2026-01-06 12:33:50.93	25.39	4.10	-40.9	-42.5	19.0	0.00e+00	0	35	0	46137344	56	6080
2026-01-06 12:33:51.94	25.48	4.15	-41.0	-42.6	18.9	0.00e+00	0	35	0	48234496	56	6141
2026-01-06 12:33:52.95	25.58	4.20	-40.8	-42.3	19.1	0.00e+00	85	35	0	50331648	54	6660
2026-01-06 12:33:53.96	25.67	4.26	-40.5	-42.0	19.3	0.00e+00	0	35	0	52428800	54	6417
2026-01-06 12:33:54.97	25.76	4.31	-40.4	-41.9	19.4	0.00e+00	61	35	0	53477376	54	6345
2026-01-06 12:33:55.98	25.86	4.37	-40.6	-42.0	19.4	0.00e+00	0	35	0	55574528	54	6454
2026-01-06 12:33:56.99	25.95	4.42	-40.6	-42.1	19.3	0.00e+00	0	35	0	57671680	54	6510
2026-01-06 12:33:58.00	26.05	4.48	-40.5	-42.0	19.4	0.00e+00	0	35	0	59768832	54	6419
2026-01-06 12:33:59.01	26.14	4.53	-40.3	-41.7	19.7	0.00e+00	0	35	0	61865984	54	6227
2026-01-06 12:34:00.02	26.24	4.59	-40.6	-42.1	19.3	0.00e+00	89	35	0	62914560	54	6506
2026-01-06 12:34:01.03	26.33	4.64	-40.4	-41.9	19.6	0.00e+00	0	35	0	65011712	54	6341
2026-01-06 12:34:02.04	26.43	4.69	-40.4	-41.8	19.5	0.00e+00	79	35	0	67108864	54	6290
2026-01-06 12:34:03.05	26.53	4.75	-40.3	-41.7	19.7	0.00e+00	0	35	0	69206016	54	6220
2026-01-06 12:34:04.06	26.62	4.80	-40.4	-41.9	19.6	0.00e+00	0	35	0	71303168	54	6321
2026-01-06 12:34:05.07	26.72	4.86	-40.3	-41.7	19.6	0.00e+00	1	35	0	72351744	54	6242
2026-01-06 12:34:06.08	26.82	4.91	-40.2	-41.6	19.8	0.00e+00	0	35	0	74448896	54	6124
2026-01-06 12:34:07.09	26.92	4.97	-40.3	-41.7	19.8	0.00e+00	84	35	0	76546048	54	6190
2026-01-06 12:34:08.09	27.01	5.02	-40.2	-41.6	19.8	0.00e+00	0	35	0	78643200	54	6163
2026-01-06 12:34:09.10	27.11	5.08	-40.4	-41.8	19.7	0.00e+00	91	35	0	80740352	54	6316
2026-01-06 12:34:10.11	27.21	5.13	-40.3	-41.7	19.7	0.00e+00	0	35	0	82837504	54	6240
2026-01-06 12:34:11.12	27.31	5.19	-40.3	-41.7	19.7	0.00e+00	0	35	0	83886080	54	6240
2026-01-06 12:34:12.13	27.41	5.24	-40.5	-42.0	19.7	0.00e+00	0	35	0	85983232	54	6404
2026-01-06 12:34:13.14	27.51	5.30	-40.3	-41.7	19.7	0.00e+00	0	35	0	88080384	54	6225
2026-01-06 12:34:14.15	27.61	5.35	-40.7	-42.2	19.4	0.00e+00	1	35	0	90177536	54	6588
2026-01-06 12:34:15.16	27.71	5.41	-40.4	-41.9	19.7	0.00e+00	0	35	0	92274688	54	6324
2026-01-06 12:34:16.17	27.81	5.46	-40.4	-41.8	19.7	0.00e+00	54	35	0	93323264	54	6312
2026-01-06 12:34:17.17	27.91	5.52	-40.4	-41.9	19.6	0.00e+00	0	35	0	95420416	54	6319
2026-01-06 12:34:18.18	28.01	5.57	-40.5	-42.0	19.5	0.00e+00	0	35	0	97517568	54	6397
2026-01-06 12:34:19.19	28.12	5.63	-40.8	-42.3	19.2	0.00e+00	0	35	0	99614720	54	6643
2026-01-06 12:34:20.20	28.22	5.68	-40.5	-42.0	19.5	0.00e+00	0	35	0	100663296	54	6396
2026-01-06 12:34:21.21	28.32	5.74	-40.6	-42.1	19.4	0.00e+00	80	35	0	102760448	54	6468
2026-01-06 12:34:22.22	28.43	5.79	-40.6	-42.0	19.3	0.00e+00	0	35	0	104857600	54	6445
2026-01-06 12:34:23.23	28.53	5.85	-40.4	-41.8	19.8	0.00e+00	92	35	0	106954752	54	6248
2026-01-06 12:34:24.24	28.63	5.91	-40.3	-41.7	19.7	0.00e+00	0	35	0	109051904	54	6201
2026-01-06 12:34:25.25	28.74	5.96	-40.3	-41.7	19.8	0.00e+00	4	35	0	111149056	54	6203
2026-01-06 12:34:26.25	28.84	6.02	-40.3	-41.7	19.9	0.00e+00	0	35	0	112197632	54	6190
2026-01-06 12:34:27.26	28.95	6.07	-40.1	-41.4	20.3	0.00e+00	0	35	0	114294784	54	6003
2026-01-06 12:34:28.27	29.05	6.13	-40.1	-41.5	20.1	0.00e+00	0	35	0	116391936	54	6060
2026-01-06 12:34:29.28	29.16	6.18	-40.0	-41.3	20.3	0.00e+00	0	35	0	118489088	54	5941
2026-01-06 12:34:30.29	29.26	6.24	-39.8	-41.1	20.4	0.00e+00	90	35	0	120586240	52	6510
2026-01-06 12:34:31.30	29.37	6.30	-39.8	-41.0	20.6	0.00e+00	0	35	0	121634816	52	6435
2026-01-06 12:34:32.31	29.48	6.35	-39.6	-40.8	20.9	0.00e+00	27	35	0	123731968	52	6283
2026-01-06 12:34:33.32	29.59	6.41	-39.5	-40.7	20.9	0.00e+00	0	35	0	125829120	52	6191
2026-01-06 12:34:34.33	29.69	6.46	-39.2	-40.4	21.1	0.00e+00	0	35	0	127926272	52	6003
2026-01-06 12:34:35.34	29.80	6.52	-39.1	-40.3	21.2	0.00e+00	9	35	0	130023424	52	5922
2026-01-06 12:34:36.35	29.91	6.58	-38.9	-40.0	21.4	0.00e+00	0	35	0	131072000	52	5754
2026-01-06 12:34:37.36	30.02	6.63	-39.1	-40.2	21.3	0.00e+00	64	35	0	133169152	52	5878
2026-01-06 12:34:38.37	30.13	6.69	-38.9	-40.0	21.5	0.00e+00	2	35	0	135266304	52	5709
2026-01-06 12:34:39.38	30.24	6.74	-38.8	-39.9	21.5	0.00e+00	60	35	0	137363456	50	6341
2026-01-06 12:34:40.38	30.35	6.80	-38.9	-40.0	21.5	0.00e+00	0	35	0	139460608	50	6424
2026-01-06 12:34:41.39	30.46	6.86	-38.7	-39.8	21.7	0.00e+00	0	35	0	140509184	50	6284
2026-01-06 12:34:42.40	30.57	6.91	-38.8	-39.9	21.5	0.00e+00	3	35	0	142606336	50	6387
2026-01-06 12:34:43.41	30.68	6.97	-38.7	-39.8	21.6	0.00e+00	0	35	0	144703488	50	6292
2026-01-06 12:34:44.42	30.79	7.02	-38.8	-39.9	21.6	0.00e+00	91	35	0	146800640	50	6334
2026-01-06 12:34:45.43	30.91	7.08	-38.8	-39.9	21.6	0.00e+00	33	35	0	148897792	50	6379
2026-01-06 12:34:46.44	31.02	7.14	-39.2	-40.4	21.2	0.00e+00	78	35	0	149946368	50	6695
2026-01-06 12:34:47.45	31.13	7.19	-39.1	-40.3	21.3	0.00e+00	0	35	0	152043520	50	6652
2026-01-06 12:34:48.46	31.25	7.25	-39.0	-40.1	21.5	0.00e+00	33	35	0	154140672	50	6523
2026-01-06 12:34:49.47	31.36	7.31	-39.0	-40.2	21.4	0.00e+00	0	35	0	156237824	50	6556
2026-01-06 12:34:50.48	31.47	7.36	-39.0	-40.1	21.4	0.00e+00	0	35	0	158334976	50	6488
2026-01-06 12:34:51.49	31.59	7.42	-38.9	-40.0	21.5	0.00e+00	81	35	0	159383552	50	6447
2026-01-06 12:34:52.49	31.70	7.48	-39.2	-40.3	21.3	0.00e+00	0	35	0	161480704	50	6659
2026-01-06 12:34:53.50	31.82	7.53	-39.1	-40.3	21.3	0.00e+00	91	35	0	163577856	50	6644
2026-01-06 12:34:54.51	31.93	7.59	-39.3	-40.5	21.3	0.00e+00	0	35	0	165675008	50	6794
2026-01-06 12:34:55.52	32.05	7.65	-39.1	-40.2	21.4	0.00e+00	0	35	0	167772160	50	6579
2026-01-06 12:34:56.53	32.17	7.70	-39.1	-40.2	21.5	0.00e+00	0	35	0	168820736	50	6603
2026-01-06 12:34:57.54	32.29	7.76	-39.0	-40.2	21.4	0.00e+00	0	35	0	170917888	50	6547
2026-01-06 12:34:58.55	32.40	7.82	-39.1	-40.2	21.4	0.00e+00	61	35	0	173015040	50	6574
2026-01-06 12:34:59.56	32.52	7.87	-39.1	-40.3	21.3	0.00e+00	0	35	0	175112192	50	6633
2026-01-06 12:35:00.57	32.64	7.93	-39.2	-40.3	21.3	0.00e+00	63	35	0	177209344	50	6683
2026-01-06 12:35:01.58	32.76	7.99	-39.1	-40.3	21.3	0.00e+00	0	35	0	179306496	50	6638
2026-01-06 12:35:02.59	32.88	8.04	-39.1	-40.2	21.4	0.00e+00	77	35	0	180355072	50	6603
2026-01-06 12:35:03.60	33.00	8.10	-39.2	-40.3	21.3	0.00e+00	0	35	0	182452224	50	6653
2026-01-06 12:35:04.61	33.12	8.16	-39.1	-40.2	21.4	0.00e+00	0	35	0	184549376	50	6589
2026-01-06 12:35:05.62	33.24	8.22	-39.0	-40.1	21.6	0.00e+00	1	35	0	186646528	50	6515
2026-01-06 12:35:06.63	33.36	8.27	-39.0	-40.1	21.6	0.00e+00	0	35	0	188743680	50	6504
2026-01-06 12:35:07.64	33.49	8.33	-39.0	-40.2	21.4	0.00e+00	90	35	0	189792256	50	6541
2026-01-06 12:35:08.64	33.61	8.39	-39.1	-40.3	21.4	0.00e+00	0	35	0	191889408	50	6631
2026-01-06 12:35:09.65	33.73	8.44	-39.0	-40.1	21.5	0.00e+00	68	35	0	193986560	50	6484
2026-01-06 12:35:10.65	33.85	8.50	-39.1	-40.3	21.4	0.00e+00	0	35	0	196083712	50	6627
2026-01-06 12:35:11.66	33.98	8.56	-39.2	-40.3	21.2	0.00e+00	0	35	0	198180864	50	6657
2026-01-06 12:35:12.67	34.10	8.61	-39.1	-40.2	21.4	0.00e+00	0	35	0	199229440	50	6564
2026-01-06 12:35:13.68	34.22	8.67	-38.9	-40.0	21.7	0.00e+00	0	35	0	201326592	50	6460
2026-01-06 12:35:14.69	34.35	8.73	-39.0	-40.1	21.5	0.00e+00	92	35	0	203423744	50	6502
2026-01-06 12:35:15.70	34.47	8.78	-38.9	-40.0	21.5	0.00e+00	0	35	0	205520896	50	6406
2026-01-06 12:35:16.71	34.60	8.84	-38.8	-39.9	21.7	0.00e+00	89	35	0	207618048	50	6351
2026-01-06 12:35:17.72	34.73	8.90	-38.8	-39.9	21.7	0.00e+00	0	35	0	208666624	50	6377
2026-01-06 12:35:18.73	34.85	8.96	-39.1	-40.2	21.4	0.00e+00	0	35	0	210763776	50	6610
2026-01-06 12:35:19.74	34.98	9.01	-39.1	-40.2	21.4	0.00e+00	0	35	0	212860928	50	6574
2026-01-06 12:35:20.75	35.11	9.07	-39.3	-40.4	21.3	0.00e+00	0	35	0	214958080	50	6769
2026-01-06 12:35:21.76	35.24	9.13	-39.0	-40.1	21.5	0.00e+00	89	35	0	217055232	50	6513
2026-01-06 12:35:22.77	35.37	9.19	-39.0	-40.1	21.6	0.00e+00	0	35	0	218103808	50	6510
2026-01-06 12:35:23.77	35.50	9.24	-38.7	-39.8	21.8	0.00e+00	88	35	0	220200960	50	6255
2026-01-06 12:35:24.54	35.60	9.29	-38.5	-39.5	22.1	0.00e+00	0	35	0	222298112	50	6087
2026-01-06 12:35:25.84	35.76	9.36	-38.8	-39.9	21.6	0.00e+00	0	35	0	224395264	50	6324
2026-01-06 12:35:26.56	35.86	9.40	-38.6	-39.7	21.7	0.00e+00	0	35	0	226492416	50	6209
2026-01-06 12:35:27.86	36.03	9.47	-38.6	-39.7	21.3	0.00e+00	0	35	0	228589568	50	6178
2026-01-06 12:35:28.58	36.12	9.51	-38.5	-39.6	21.7	0.00e+00	0	35	0	229638144	50	6118
2026-01-06 12:35:29.88	36.29	9.59	-38.6	-39.7	21.9	0.00e+00	0	35	0	232783872	50	6195
2026-01-06 12:35:30.60	36.38	9.63	-38.5	-39.6	22.0	0.00e+00	92	35	0	233832448	50	6127
2026-01-06 12:35:31.89	36.56	9.70	-38.7	-39.7	21.9	0.00e+00	0	35	0	235929600	50	6221
2026-01-06 12:35:32.61	36.65	9.74	-38.6	-39.6	22.0	0.00e+00	0	35	0	236978176	50	6171
2026-01-06 12:35:33.91	36.82	9.82	-38.3	-39.3	22.1	0.00e+00	3	35	0	240123904	50	5959
2026-01-06 12:35:34.63	36.92	9.86	-38.6	-39.6	22.0	0.00e+00	0	35	0	241172480	50	6161
2026-01-06 12:35:35.93	37.09	9.93	-38.5	-39.5	22.1	0.00e+00	49	35	0	243269632	50	6093
2026-01-06 12:35:36.65	37.19	9.97	-38.4	-39.5	22.2	0.00e+00	0	35	0	245366784	50	6055
2026-01-06 12:35:37.95	37.37	10.05	-38.5	-39.6	22.0	0.00e+00	44	35	0	247463936	50	6111
2026-01-06 12:35:38.67	37.46	10.09	-38.5	-39.6	22.0	0.00e+00	0	35	0	248512512	50	6138
2026-01-06 12:35:39.97	37.64	10.16	-38.5	-39.6	22.0	0.00e+00	0	35	0	251658240	50	6112
2026-01-06 12:35:40.69	37.74	10.20	-38.5	-39.6	22.1	0.00e+00	0	35	0	252706816	50	6112
2026-01-06 12:35:41.99	37.92	10.28	-38.7	-39.8	22.0	0.00e+00	0	35	0	254803968	50	6257
2026-01-06 12:35:42.71	38.02	10.32	-38.7	-39.7	22.0	0.00e+00	0	35	0	255852544	50	6233
2026-01-06 12:35:44.00	38.20	10.39	-38.6	-39.7	22.0	0.00e+00	0	35	0	258998272	50	6192
2026-01-06 12:35:44.73	38.30	10.43	-38.6	-39.7	22.0	0.00e+00	77	35	0	260046848	50	6198
2026-01-06 12:35:46.02	38.48	10.50	-38.6	-39.6	22.0	0.00e+00	0	35	0	262144000	50	6152
2026-01-06 12:35:46.74	38.58	10.54	-38.9	-40.0	21.8	0.00e+00	91	35	0	264241152	50	6405
2026-01-06 12:35:48.04	38.76	10.62	-38.8	-39.9	21.7	0.00e+00	0	35	0	266338304	50	6365
2026-01-06 12:35:48.76	38.86	10.66	-38.8	-39.9	21.9	0.00e+00	0	35	0	267386880	50	6353
2026-01-06 12:35:50.05	39.04	10.73	-38.6	-39.6	22.0	0.00e+00	92	35	0	270532608	50	6166
2026-01-06 12:35:50.77	39.15	10.77	-38.7	-39.7	21.9	0.00e+00	0	35	0	271581184	50	6244
2026-01-06 12:35:52.07	39.33	10.85	-38.8	-39.8	22.0	0.00e+00	63	35	0	273678336	50	6302
2026-01-06 12:35:52.79	39.43	10.89	-38.4	-39.4	22.3	0.00e+00	0	35	0	275775488	50	6001
2026-01-06 12:35:54.09	39.62	10.96	-38.3	-39.4	22.3	0.00e+00	0	35	0	277872640	50	5965
2026-01-06 12:35:54.81	39.72	11.00	-38.2	-39.2	22.5	0.00e+00	0	35	0	278921216	50	5885
2026-01-06 12:35:56.11	39.91	11.07	-38.1	-39.1	22.5	0.00e+00	0	35	0	281018368	50	5768
2026-01-06 12:35:56.83	40.02	11.11	-38.1	-39.1	22.6	0.00e+00	4	35	0	283115520	50	5768
2026-01-06 12:35:58.12	40.20	11.19	-38.2	-39.2	22.4	0.00e+00	0	35	0	285212672	50	5850
2026-01-06 12:35:58.85	40.31	11.23	-38.1	-39.2	22.4	0.00e+00	72	35	0	286261248	50	5833
2026-01-06 12:36:00.14	40.50	11.30	-38.0	-39.0	22.6	0.00e+00	0	36	0	289406976	50	5743
2026-01-06 12:36:00.86	40.61	11.34	-38.1	-39.1	22.5	0.00e+00	91	35	0	290455552	50	5818
2026-01-06 12:36:02.16	40.80	11.41	-38.2	-39.2	22.5	0.00e+00	0	35	0	292552704	50	5885
2026-01-06 12:36:02.88	40.91	11.45	-38.0	-39.0	22.6	0.00e+00	0	35	0	294649856	50	5735
2026-01-06 12:36:04.17	41.10	11.53	-38.0	-38.9	22.7	0.00e+00	5	35	0	296747008	50	5691
2026-01-06 12:36:04.89	41.21	11.57	-37.7	-38.7	22.9	0.00e+00	0	35	0	297795584	48	6180
2026-01-06 12:36:06.19	41.40	11.64	-37.5	-38.4	23.0	0.00e+00	92	35	0	299892736	48	6008
2026-01-06 12:36:06.91	41.51	11.68	-37.5	-38.5	23.1	0.00e+00	0	35	0	301989888	48	6059
2026-01-06 12:36:08.20	41.70	11.75	-37.3	-38.2	23.2	0.00e+00	37	35	0	304087040	48	5863
2026-01-06 12:36:08.92	41.81	11.79	-37.3	-38.2	23.1	0.00e+00	0	36	0	305135616	48	5881
2026-01-06 12:36:10.22	42.01	11.87	-37.3	-38.2	23.3	0.00e+00	0	36	0	308281344	48	5866
2026-01-06 12:36:10.94	42.12	11.91	-37.4	-38.4	23.2	0.00e+00	0	36	0	309329920	48	5988
2026-01-06 12:36:12.24	42.32	11.98	-37.5	-38.5	23.0	0.00e+00	0	35	0	311427072	48	6046
2026-01-06 12:36:12.96	42.43	12.02	-37.5	-38.4	23.0	0.00e+00	3	35	0	313524224	48	6023
2026-01-06 12:36:14.26	42.63	12.09	-37.5	-38.5	22.9	0.00e+00	0	35	0	315621376	48	6052
2026-01-06 12:36:14.98	42.75	12.13	-37.6	-38.6	22.9	0.00e+00	17	36	0	316669952	48	6129
2026-01-06 12:36:16.27	42.95	12.20	-37.7	-38.7	22.9	0.00e+00	0	35	0	319815680	48	6223
2026-01-06 12:36:17.00	43.06	12.24	-37.9	-38.9	22.9	0.00e+00	90	35	0	320864256	48	6325
2026-01-06 12:36:18.29	43.26	12.31	-37.6	-38.5	23.0	0.00e+00	5	36	0	322961408	48	6070
2026-01-06 12:36:19.01	43.38	12.35	-37.7	-38.7	22.8	0.00e+00	0	35	0	324009984	48	6196
2026-01-06 12:36:20.31	43.58	12.43	-37.8	-38.8	22.9	0.00e+00	92	36	0	327155712	48	6250
2026-01-06 12:36:21.03	43.70	12.47	-37.7	-38.7	22.8	0.00e+00	0	35	0	328204288	48	6192
2026-01-06 12:36:22.33	43.90	12.54	-37.5	-38.5	23.0	0.00e+00	92	35	0	330301440	48	6064
2026-01-06 12:36:23.05	44.02	12.58	-37.4	-38.4	23.1	0.00e+00	0	35	0	332398592	48	5992
2026-01-06 12:36:24.35	44.23	12.65	-37.4	-38.3	23.2	0.00e+00	0	36	0	334495744	48	5954
2026-01-06 12:36:25.07	44.34	12.69	-37.4	-38.3	23.2	0.00e+00	0	36	0	335544320	48	5925
2026-01-06 12:36:26.37	44.55	12.76	-37.4	-38.3	23.2	0.00e+00	0	35	0	338690048	48	5933
2026-01-06 12:36:27.09	44.67	12.80	-37.3	-38.3	23.3	0.00e+00	0	35	0	339738624	48	5907
2026-01-06 12:36:28.38	44.88	12.87	-37.4	-38.4	23.2	0.00e+00	0	35	0	341835776	48	5980
2026-01-06 12:36:29.10	45.00	12.91	-37.3	-38.3	23.1	0.00e+00	68	36	0	342884352	48	5915
2026-01-06 12:36:30.40	45.21	12.98	-37.4	-38.3	23.2	0.00e+00	0	36	0	346030080	48	5928
2026-01-06 12:36:31.12	45.33	13.02	-37.3	-38.2	23.2	0.00e+00	74	35	0	347078656	48	5880
2026-01-06 12:36:32.42	45.54	13.09	-37.6	-38.5	22.9	0.00e+00	0	35	0	349175808	48	6089
2026-01-06 12:36:33.14	45.66	13.13	-37.4	-38.4	23.1	0.00e+00	0	36	0	351272960	48	5978
2026-01-06 12:36:34.44	45.88	13.20	-37.6	-38.6	23.0	0.00e+00	86	36	0	353370112	48	6108
2026-01-06 12:36:35.16	46.00	13.24	-37.6	-38.6	23.0	0.00e+00	5	36	0	354418688	48	6128
2026-01-06 12:36:36.46	46.22	13.31	-37.7	-38.7	22.9	0.00e+00	57	36	0	357564416	48	6215
2026-01-06 12:36:37.18	46.34	13.35	-37.7	-38.6	23.0	0.00e+00	0	36	0	358612992	48	6167
2026-01-06 12:36:38.48	46.56	13.41	-37.7	-38.7	22.8	0.00e+00	0	36	0	360710144	48	6220
2026-01-06 12:36:39.20	46.68	13.45	-37.8	-38.8	22.9	0.00e+00	0	35	0	361758720	48	6262
2026-01-06 12:36:40.50	46.90	13.52	-37.7	-38.7	22.9	0.00e+00	0	35	0	364904448	48	6195
2026-01-06 12:36:41.22	47.02	13.56	-37.9	-38.9	22.8	0.00e+00	0	35	0	365953024	48	6366
2026-01-06 12:36:42.52	47.25	13.63	-38.1	-39.1	22.6	0.00e+00	0	36	0	368050176	48	6511
2026-01-06 12:36:43.24	47.37	13.67	-38.2	-39.2	22.6	0.00e+00	0	36	0	370147328	48	6571
2026-01-06 12:36:44.53	47.59	13.74	-38.5	-39.5	22.4	0.00e+00	0	36	0	372244480	48	6803
2026-01-06 12:36:45.25	47.72	13.78	-38.0	-39.0	22.7	0.00e+00	92	36	0	373293056	48	6413
2026-01-06 12:36:46.55	47.94	13.84	-37.9	-38.9	22.7	0.00e+00	0	35	0	376438784	48	6380
2026-01-06 12:36:47.27	48.07	13.88	-38.1	-39.1	22.6	0.00e+00	84	36	0	377487360	48	6503
2026-01-06 12:36:48.57	48.29	13.95	-38.2	-39.2	22.4	0.00e+00	65	36	0	379584512	48	6605
2026-01-06 12:36:49.29	48.42	13.99	-38.2	-39.3	22.4	0.00e+00	0	36	0	381681664	48	6623
2026-01-06 12:36:50.59	48.65	14.06	-38.2	-39.2	22.5	0.00e+00	38	35	0	383778816	48	6595
2026-01-06 12:36:51.31	48.78	14.09	-38.5	-39.6	22.2	0.00e+00	0	36	0	384827392	48	6854
2026-01-06 12:36:52.61	49.01	14.16	-38.0	-38.9	22.6	0.00e+00	91	36	0	386924544	48	6385
2026-01-06 12:36:53.33	49.14	14.20	-38.2	-39.2	22.5	0.00e+00	0	35	0	389021696	48	6605
2026-01-06 12:36:54.63	49.37	14.27	-38.1	-39.2	22.5	0.00e+00	0	36	0	391118848	48	6543
2026-01-06 12:36:55.35	49.50	14.30	-38.3	-39.3	22.5	0.00e+00	0	36	0	392167424	48	6672
2026-01-06 12:36:56.64	49.73	14.37	-38.4	-39.5	22.3	0.00e+00	0	36	0	395313152	48	6782
2026-01-06 12:36:57.36	49.86	14.41	-38.5	-39.5	22.2	0.00e+00	0	35	0	396361728	48	6817
2026-01-06 12:36:58.66	50.09	14.47	-38.9	-40.0	21.8	0.00e+00	0	36	0	398458880	50	6460
2026-01-06 12:36:59.38	50.22	14.51	-38.9	-40.0	21.8	0.00e+00	90	36	0	400556032	50	6450
2026-01-06 12:37:00.68	50.46	14.57	-38.9	-40.0	21.9	0.00e+00	0	36	0	402653184	50	6398
2026-01-06 12:37:01.40	50.59	14.61	-38.8	-39.9	22.0	0.00e+00	90	36	0	403701760	50	6361
2026-01-06 12:37:02.70	50.83	14.68	-38.8	-39.8	22.0	0.00e+00	0	36	0	406847488	50	6313
2026-01-06 12:37:03.42	50.96	14.71	-38.6	-39.7	22.2	0.00e+00	0	36	0	407896064	50	6217
2026-01-06 12:37:04.72	51.20	14.78	-38.7	-39.7	22.1	0.00e+00	84	36	0	409993216	50	6221
2026-01-06 12:37:05.44	51.34	14.81	-38.5	-39.6	22.3	0.00e+00	0	36	0	411041792	50	6124
2026-01-06 12:37:06.73	51.58	14.88	-38.4	-39.5	22.3	0.00e+00	71	36	0	414187520	50	6037
2026-01-06 12:37:07.45	51.71	14.91	-38.4	-39.5	22.4	0.00e+00	0	36	0	415236096	50	6048
2026-01-06 12:37:08.75	51.95	14.98	-38.4	-39.5	22.3	0.00e+00	0	36	0	417333248	50	6035
2026-01-06 12:37:09.47	52.09	15.01	-38.3	-39.3	22.5	0.00e+00	0	36	0	419430400	50	5929
2026-01-06 12:37:10.77	52.33	15.08	-38.4	-39.4	22.4	0.00e+00	0	36	0	421527552	50	6018
2026-01-06 12:37:11.49	52.47	15.11	-38.4	-39.5	22.3	0.00e+00	0	36	0	422576128	50	6051
2026-01-06 12:37:12.78	52.71	15.17	-38.4	-39.5	22.3	0.00e+00	0	36	0	425721856	50	6054
2026-01-06 12:37:13.50	52.85	15.21	-38.5	-39.5	22.3	0.00e+00	65	36	0	426770432	50	6080
2026-01-06 12:37:14.80	53.10	15.27	-38.8	-39.9	22.0	0.00e+00	0	36	0	428867584	50	6363
2026-01-06 12:37:15.52	53.24	15.31	-38.9	-39.9	21.9	0.00e+00	90	36	0	429916160	50	6387
2026-01-06 12:37:16.82	53.48	15.37	-39.0	-40.1	21.9	0.00e+00	2	36	0	433061888	50	6465
2026-01-06 12:37:17.54	53.62	15.40	-38.9	-40.0	22.0	0.00e+00	21	36	0	434110464	50	6404
2026-01-06 12:37:18.84	53.87	15.47	-38.9	-40.0	21.9	0.00e+00	13	36	0	436207616	50	6404
2026-01-06 12:37:19.56	54.01	15.50	-39.0	-40.1	21.9	0.00e+00	0	36	0	438304768	50	6489
2026-01-06 12:37:20.86	54.27	15.56	-38.4	-39.4	22.3	0.00e+00	73	36	0	440401920	50	6025
2026-01-06 12:37:21.58	54.41	15.59	-38.3	-39.3	22.5	0.00e+00	0	36	0	441450496	50	5957
2026-01-06 12:37:22.88	54.66	15.65	-38.5	-39.5	22.2	0.00e+00	0	36	0	444596224	50	6060
2026-01-06 12:37:23.60	54.80	15.69	-38.7	-39.8	21.8	0.00e+00	0	36	0	445644800	50	6259
2026-01-06 12:37:24.89	55.06	15.75	-38.8	-39.8	21.9	0.00e+00	0	36	0	447741952	50	6317
2026-01-06 12:37:25.61	55.20	15.78	-38.9	-40.0	21.9	0.00e+00	0	36	0	448790528	50	6432
2026-01-06 12:37:26.91	55.45	15.84	-39.1	-40.2	21.7	0.00e+00	0	36	0	451936256	50	6592
2026-01-06 12:37:27.63	55.60	15.87	-39.0	-40.0	21.9	0.00e+00	0	36	0	452984832	50	6451
2026-01-06 12:37:28.93	55.86	15.93	-38.9	-40.0	22.1	0.00e+00	0	36	0	455081984	50	6417
2026-01-06 12:37:29.65	56.00	15.96	-38.8	-39.9	22.0	0.00e+00	4	36	0	457179136	50	6342
2026-01-06 12:37:30.94	56.26	16.02	-39.0	-40.1	21.8	0.00e+00	0	36	0	459276288	50	6508
2026-01-06 12:37:31.67	56.40	16.05	-39.0	-40.1	21.8	0.00e+00	66	35	0	460324864	50	6513
2026-01-06 12:37:32.96	56.66	16.11	-38.9	-40.0	21.8	0.00e+00	0	36	0	463470592	50	6392
2026-01-06 12:37:33.68	56.81	16.14	-39.2	-40.3	21.7	0.00e+00	0	36	0	464519168	50	6659
2026-01-06 12:37:34.98	57.07	16.20	-38.9	-40.0	21.9	0.00e+00	92	36	0	466616320	50	6445
2026-01-06 12:37:35.70	57.22	16.23	-39.0	-40.1	21.9	0.00e+00	0	36	0	468713472	50	6496
2026-01-06 12:37:37.00	57.48	16.29	-38.7	-39.8	22.1	0.00e+00	92	36	0	470810624	50	6268
2026-01-06 12:37:37.72	57.63	16.32	-38.5	-39.5	22.3	0.00e+00	0	36	0	471859200	50	6083
2026-01-06 12:37:39.02	57.90	16.37	-38.5	-39.5	22.3	0.00e+00	0	36	0	475004928	50	6039
2026-01-06 12:37:39.74	58.05	16.40	-38.5	-39.5	22.3	0.00e+00	0	36	0	476053504	50	6071
2026-01-06 12:37:41.04	58.31	16.46	-38.6	-39.6	22.3	0.00e+00	0	36	0	478150656	50	6124
2026-01-06 12:37:41.76	58.46	16.49	-38.8	-39.8	22.0	0.00e+00	0	36	0	479199232	50	6285
2026-01-06 12:37:43.06	58.73	16.54	-39.0	-40.1	22.0	0.00e+00	0	36	0	482344960	50	6478
2026-01-06 12:37:43.77	58.88	16.57	-39.0	-40.1	21.9	0.00e+00	4	36	0	483393536	50	6506
2026-01-06 12:37:45.07	59.15	16.62	-38.9	-40.0	21.8	0.00e+00	0	36	0	485490688	50	6439
2026-01-06 12:37:45.79	59.30	16.65	-38.7	-39.8	22.1	0.00e+00	92	36	0	487587840	50	6258
2026-01-06 12:37:47.09	59.57	16.71	-38.4	-39.5	22.4	0.00e+00	0	36	0	489684992	50	6044
2026-01-06 12:37:47.81	59.72	16.73	-38.4	-39.3	22.5	0.00e+00	90	36	0	490733568	50	5955
2026-01-06 12:37:49.11	60.00	16.79	-38.0	-39.0	22.9	0.00e+00	0	36	0	492830720	50	5733
2026-01-06 12:37:49.83	60.15	16.81	-37.6	-38.5	23.1	0.00e+00	0	36	0	494927872	48	6099
2026-01-06 12:37:51.13	60.43	16.87	-37.8	-38.8	22.8	0.00e+00	92	36	0	497025024	48	6274
2026-01-06 12:37:51.85	60.58	16.89	-37.7	-38.7	22.7	0.00e+00	0	36	0	498073600	48	6178
2026-01-06 12:37:53.15	60.85	16.94	-37.9	-38.8	22.8	0.00e+00	64	36	0	501219328	48	6293
2026-01-06 12:37:53.86	61.01	16.97	-38.0	-39.0	22.7	0.00e+00	0	36	0	502267904	48	6456
2026-01-06 12:37:55.16	61.28	17.02	-38.2	-39.2	22.5	0.00e+00	0	36	0	504365056	48	6553
2026-01-06 12:37:55.88	61.44	17.05	-38.2	-39.2	22.5	0.00e+00	0	36	0	506462208	48	6578
2026-01-06 12:37:57.18	61.72	17.09	-38.3	-39.3	22.6	0.00e+00	7	36	0	508559360	48	6651
2026-01-06 12:37:57.90	61.87	17.12	-38.4	-39.4	22.5	0.00e+00	0	35	0	509607936	48	6709
2026-01-06 12:37:59.19	62.15	17.17	-38.7	-39.7	22.1	0.00e+00	0	36	0	512753664	48	6972
2026-01-06 12:37:59.91	62.31	17.19	-38.9	-40.0	22.0	0.00e+00	7	36	0	513802240	50	6392
2026-01-06 12:38:01.21	62.59	17.24	-38.2	-39.2	22.6	0.00e+00	0	36	0	515899392	50	5836
2026-01-06 12:38:01.93	62.74	17.27	-37.9	-38.9	22.8	0.00e+00	78	36	0	516947968	50	5671
2026-01-06 12:38:03.22	63.03	17.31	-37.6	-38.5	23.0	0.00e+00	26	36	0	520093696	48	6102
2026-01-06 12:38:03.95	63.19	17.34	-37.5	-38.5	23.1	0.00e+00	0	36	0	521142272	48	6072
2026-01-06 12:38:05.24	63.47	17.38	-37.3	-38.3	23.3	0.00e+00	75	36	0	523239424	48	5908
2026-01-06 12:38:05.96	63.63	17.41	-37.1	-38.0	23.3	0.00e+00	0	36	0	525336576	48	5756
2026-01-06 12:38:07.26	63.91	17.45	-37.3	-38.3	23.2	0.00e+00	79	36	0	527433728	48	5897
2026-01-06 12:38:07.98	64.07	17.47	-37.5	-38.4	23.1	0.00e+00	0	36	0	528482304	48	6019
2026-01-06 12:38:09.28	64.36	17.52	-37.9	-38.9	22.8	0.00e+00	0	36	0	531628032	48	6342
2026-01-06 12:38:10.00	64.52	17.54	-37.9	-38.9	22.7	0.00e+00	0	36	0	532676608	48	6368
2026-01-06 12:38:11.30	64.81	17.58	-38.2	-39.3	22.5	0.00e+00	0	36	0	534773760	48	6649
2026-01-06 12:38:12.02	64.97	17.61	-38.2	-39.2	22.7	0.00e+00	0	36	0	536870912	48	6575
2026-01-06 12:38:13.32	65.25	17.65	-37.9	-38.9	22.9	0.00e+00	0	36	0	538968064	48	6333
2026-01-06 12:38:14.04	65.42	17.67	-37.8	-38.8	22.9	0.00e+00	0	36	0	540016640	48	6312
2026-01-06 12:38:15.34	65.71	17.71	-37.7	-38.7	23.1	0.00e+00	0	35	0	542113792	48	6178
2026-01-06 12:38:16.06	65.87	17.73	-37.8	-38.8	22.9	0.00e+00	82	36	0	544210944	48	6283
2026-01-06 12:38:17.36	66.16	17.77	-37.6	-38.5	22.9	0.00e+00	0	35	0	546308096	48	6082
2026-01-06 12:38:18.08	66.32	17.79	-37.6	-38.5	23.0	0.00e+00	0	35	0	547356672	48	6079
2026-01-06 12:38:19.38	66.61	17.83	-37.0	-37.9	23.6	0.00e+00	6	36	0	550502400	48	5676
2026-01-06 12:38:20.10	66.78	17.85	-37.0	-37.9	23.6	0.00e+00	0	36	0	551550976	48	5666
2026-01-06 12:38:21.40	67.07	17.89	-36.8	-37.7	23.7	0.00e+00	92	36	0	553648128	48	5553
2026-01-06 12:38:22.12	67.23	17.91	-37.0	-37.9	23.7	0.00e+00	0	36	0	555745280	48	5642
2026-01-06 12:38:23.41	67.53	17.94	-37.2	-38.1	23.5	0.00e+00	0	36	0	557842432	48	5824
2026-01-06 12:38:24.13	67.69	17.96	-37.3	-38.2	23.2	0.00e+00	0	35	0	558891008	48	5892
2026-01-06 12:38:25.43	67.99	18.00	-37.5	-38.4	23.0	0.00e+00	0	35	0	560988160	48	6019
2026-01-06 12:38:26.15	68.15	18.02	-37.5	-38.4	23.1	0.00e+00	0	36	0	563085312	48	6014
2026-01-06 12:38:27.45	68.45	18.05	-37.4	-38.3	23.3	0.00e+00	0	36	0	565182464	48	5920
2026-01-06 12:38:28.18	68.62	18.07	-37.3	-38.2	23.5	0.00e+00	45	36	0	566231040	48	5871
2026-01-06 12:38:29.47	68.91	18.10	-37.3	-38.2	23.2	0.00e+00	0	36	0	569376768	48	5868
2026-01-06 12:38:30.19	69.08	18.12	-37.0	-37.9	23.7	0.00e+00	28	36	0	570425344	48	5633
2026-01-06 12:38:31.49	69.38	18.15	-37.4	-38.3	23.2	0.00e+00	0	36	0	572522496	48	5941
2026-01-06 12:38:32.21	69.54	18.17	-37.7	-38.7	23.0	0.00e+00	92	36	0	574619648	48	6179
2026-01-06 12:38:33.51	69.84	18.20	-37.9	-38.9	22.8	0.00e+00	0	36	0	576716800	48	6362
2026-01-06 12:38:34.23	70.01	18.21	-38.0	-39.0	22.7	0.00e+00	0	36	0	577765376	48	6432
2026-01-06 12:38:35.53	70.31	18.24	-37.9	-38.9	22.9	0.00e+00	47	36	0	580911104	48	6327
2026-01-06 12:38:36.25	70.48	18.26	-37.7	-38.6	23.1	0.00e+00	0	36	0	581959680	48	6137
2026-01-06 12:38:37.55	70.78	18.29	-37.6	-38.5	23.2	0.00e+00	92	36	0	584056832	48	6061
2026-01-06 12:38:38.27	70.95	18.30	-37.5	-38.5	23.2	0.00e+00	0	36	0	585105408	48	6047
2026-01-06 12:38:39.56	71.25	18.33	-37.9	-38.9	23.0	0.00e+00	0	36	0	588251136	48	6350
2026-01-06 12:38:40.28	71.42	18.35	-38.0	-39.0	22.8	0.00e+00	0	36	0	589299712	48	6428
2026-01-06 12:38:41.57	71.72	18.37	-38.3	-39.3	22.6	0.00e+00	0	36	0	591396864	48	6631
2026-01-06 12:38:42.30	71.89	18.39	-38.1	-39.1	22.6	0.00e+00	0	36	0	593494016	48	6527
2026-01-06 12:38:43.60	72.19	18.41	-38.1	-39.1	22.7	0.00e+00	0	36	0	595591168	48	6535
2026-01-06 12:38:44.32	72.36	18.42	-37.9	-38.9	22.9	0.00e+00	6	36	0	596639744	48	6332
2026-01-06 12:38:45.61	72.67	18.45	-38.0	-39.0	22.8	0.00e+00	0	36	0	599785472	48	6427
2026-01-06 12:38:46.33	72.83	18.46	-38.0	-39.0	22.7	0.00e+00	92	36	0	600834048	48	6454
2026-01-06 12:38:47.63	73.14	18.48	-38.5	-39.6	22.4	0.00e+00	0	35	0	602931200	48	6849
2026-01-06 12:38:48.35	73.31	18.49	-38.6	-39.7	22.2	0.00e+00	0	36	0	603979776	48	6934
2026-01-06 12:38:49.65	73.62	18.52	-38.9	-40.0	22.1	0.00e+00	65	36	0	607125504	50	6395
2026-01-06 12:38:50.37	73.79	18.53	-38.8	-39.9	22.1	0.00e+00	0	36	0	608174080	50	6346
2026-01-06 12:38:51.67	74.09	18.55	-38.9	-40.0	21.9	0.00e+00	92	36	0	610271232	50	6422
2026-01-06 12:38:52.39	74.26	18.56	-38.9	-39.9	22.1	0.00e+00	0	36	0	612368384	50	6375
2026-01-06 12:38:53.68	74.57	18.58	-38.7	-39.8	22.0	0.00e+00	1	36	0	614465536	50	6268
2026-01-06 12:38:54.41	74.74	18.59	-38.7	-39.8	22.1	0.00e+00	0	36	0	615514112	50	6256
2026-01-06 12:38:55.70	75.05	18.60	-38.7	-39.8	22.2	0.00e+00	0	36	0	618659840	50	6275
2026-01-06 12:38:56.43	75.22	18.61	-38.8	-39.9	22.0	0.00e+00	0	36	0	619708416	50	6374
2026-01-06 12:38:57.72	75.53	18.63	-38.7	-39.7	22.2	0.00e+00	0	36	0	621805568	50	6205
2026-01-06 12:38:58.45	75.70	18.64	-38.5	-39.5	22.4	0.00e+00	0	36	0	622854144	50	6042
2026-01-06 12:38:59.74	76.01	18.65	-38.3	-39.3	22.6	0.00e+00	0	36	0	625999872	50	5936
2026-01-06 12:39:00.48	76.19	18.66	-38.1	-39.0	22.8	0.00e+00	50	36	0	627048448	50	5750
2026-01-06 12:39:01.78	76.50	18.67	-38.0	-38.9	22.9	0.00e+00	0	36	0	629145600	50	5685
2026-01-06 12:39:02.50	76.67	18.68	-38.2	-39.1	22.7	0.00e+00	89	36	0	631242752	50	5817
2026-01-06 12:39:03.80	76.98	18.69	-38.2	-39.1	22.7	0.00e+00	0	36	0	633339904	50	5807
2026-01-06 12:39:04.52	77.15	18.70	-38.2	-39.2	22.6	0.00e+00	0	36	0	634388480	50	5848
2026-01-06 12:39:05.81	77.46	18.71	-38.4	-39.4	22.7	0.00e+00	1	36	0	637534208	50	5982
2026-01-06 12:39:06.53	77.63	18.72	-38.4	-39.4	22.4	0.00e+00	0	36	0	638582784	50	5994
2026-01-06 12:39:07.83	77.94	18.73	-38.4	-39.3	22.6	0.00e+00	54	36	0	640679936	50	5962
2026-01-06 12:39:08.55	78.11	18.73	-38.1	-39.1	22.7	0.00e+00	0	36	0	642777088	50	5784
2026-01-06 12:39:09.85	78.43	18.74	-38.3	-39.3	22.6	0.00e+00	0	36	0	644874240	50	5902
2026-01-06 12:39:10.56	78.60	18.75	-38.3	-39.3	22.4	0.00e+00	0	36	0	645922816	50	5964
2026-01-06 12:39:11.86	78.91	18.75	-38.4	-39.4	22.4	0.00e+00	0	36	0	648019968	50	5973
2026-01-06 12:39:12.58	79.08	18.76	-38.6	-39.6	22.3	0.00e+00	0	36	0	650117120	50	6164
2026-01-06 12:39:13.88	79.39	18.76	-38.7	-39.8	22.2	0.00e+00	0	36	0	652214272	50	6253
2026-01-06 12:39:14.60	79.56	18.77	-38.9	-40.0	21.9	0.00e+00	0	36	0	653262848	50	6427
2026-01-06 12:39:15.90	79.88	18.77	-38.8	-39.9	22.0	0.00e+00	0	36	0	656408576	50	6370
2026-01-06 12:39:16.62	80.05	18.77	-38.9	-40.0	21.9	0.00e+00	92	36	0	657457152	50	6443
2026-01-06 12:39:17.92	80.36	18.78	-39.2	-40.3	21.7	0.00e+00	5	36	0	659554304	50	6664
2026-01-06 12:39:18.64	80.53	18.78	-39.0	-40.1	21.9	0.00e+00	0	36	0	661651456	50	6494
2026-01-06 12:39:19.94	80.85	18.78	-39.1	-40.2	21.9	0.00e+00	2	36	0	663748608	50	6588
2026-01-06 12:39:20.66	81.02	18.78	-38.8	-40.0	21.9	0.00e+00	0	36	0	664797184	50	6408
2026-01-06 12:39:21.96	81.33	18.78	-38.6	-39.6	22.3	0.00e+00	92	36	0	667942912	50	6173
2026-01-06 12:39:22.68	81.51	18.78	-38.2	-39.2	22.6	0.00e+00	0	36	0	668991488	50	5837
2026-01-06 12:39:23.97	81.82	18.78	-37.9	-38.9	22.8	0.00e+00	0	35	0	671088640	50	5656
2026-01-06 12:39:24.69	81.99	18.78	-37.9	-38.9	22.9	0.00e+00	0	36	0	672137216	50	5641
2026-01-06 12:39:25.99	82.30	18.78	-38.0	-39.0	22.8	0.00e+00	0	36	0	675282944	50	5745
2026-01-06 12:39:26.71	82.47	18.78	-38.0	-39.0	22.8	0.00e+00	0	36	0	676331520	50	5749
2026-01-06 12:39:28.01	82.79	18.78	-38.4	-39.5	22.4	0.00e+00	0	36	0	678428672	50	6063
2026-01-06 12:39:28.73	82.96	18.78	-38.5	-39.5	22.4	0.00e+00	41	36	0	680525824	50	6093
2026-01-06 12:39:30.03	83.27	18.77	-38.4	-39.4	22.4	0.00e+00	0	36	0	682622976	50	6031
2026-01-06 12:39:30.75	83.44	18.77	-38.6	-39.6	22.2	0.00e+00	92	36	0	683671552	50	6162
2026-01-06 12:39:32.05	83.76	18.76	-38.7	-39.7	22.2	0.00e+00	0	36	0	686817280	50	6219
2026-01-06 12:39:32.77	83.93	18.76	-38.7	-39.7	22.2	0.00e+00	14	36	0	687865856	50	6240
2026-01-06 12:39:34.07	84.24	18.75	-38.8	-39.9	22.1	0.00e+00	0	36	0	689963008	50	6354
2026-01-06 12:39:34.79	84.41	18.75	-38.7	-39.8	22.2	0.00e+00	0	36	0	691011584	50	6252
2026-01-06 12:39:36.08	84.72	18.74	-38.9	-40.0	22.0	0.00e+00	53	36	0	694157312	50	6413
2026-01-06 12:39:36.80	84.90	18.74	-38.9	-40.0	21.9	0.00e+00	0	36	0	695205888	50	6438
2026-01-06 12:39:38.11	85.21	18.73	-38.6	-39.7	22.2	0.00e+00	92	36	0	697303040	50	6194
2026-01-06 12:39:38.83	85.38	18.72	-38.6	-39.7	22.2	0.00e+00	0	36	0	699400192	50	6192
2026-01-06 12:39:40.12	85.69	18.71	-38.5	-39.6	22.2	0.00e+00	2	36	0	701497344	50	6123
2026-01-06 12:39:40.84	85.86	18.71	-38.6	-39.6	22.3	0.00e+00	0	36	0	702545920	50	6166
2026-01-06 12:39:42.14	86.17	18.69	-38.7	-39.8	22.0	0.00e+00	0	36	0	705691648	50	6248
2026-01-06 12:39:42.86	86.35	18.69	-38.6	-39.6	22.3	0.00e+00	0	36	0	706740224	50	6159
2026-01-06 12:39:44.16	86.66	18.68	-38.7	-39.8	22.2	0.00e+00	0	36	0	708837376	50	6280
2026-01-06 12:39:44.88	86.83	18.67	-38.3	-39.4	22.5	0.00e+00	91	36	0	710934528	50	5967
2026-01-06 12:39:46.18	87.14	18.65	-38.2	-39.2	22.7	0.00e+00	0	36	0	713031680	50	5836
2026-01-06 12:39:46.90	87.31	18.65	-37.9	-38.8	22.9	0.00e+00	92	36	0	714080256	50	5607
2026-01-06 12:39:48.20	87.62	18.63	-37.7	-38.6	23.0	0.00e+00	0	36	0	716177408	48	6155
2026-01-06 12:39:48.92	87.79	18.62	-37.5	-38.5	23.2	0.00e+00	0	36	0	718274560	48	6042
2026-01-06 12:39:50.22	88.10	18.60	-37.5	-38.4	23.2	0.00e+00	55	36	0	720371712	48	6015
2026-01-06 12:39:50.94	88.27	18.59	-37.5	-38.4	23.2	0.00e+00	0	36	0	721420288	48	5972
2026-01-06 12:39:52.23	88.58	18.58	-37.7	-38.6	23.0	0.00e+00	92	35	0	724566016	48	6164
2026-01-06 12:39:52.96	88.75	18.57	-37.9	-38.8	22.9	0.00e+00	0	36	0	725614592	48	6305
2026-01-06 12:39:54.26	89.06	18.55	-38.2	-39.2	22.5	0.00e+00	0	35	0	727711744	48	6614
2026-01-06 12:39:54.97	89.23	18.54	-38.3	-39.3	22.5	0.00e+00	0	36	0	729808896	48	6668
2026-01-06 12:39:56.27	89.53	18.52	-38.3	-39.4	22.5	0.00e+00	0	36	0	731906048	48	6698
2026-01-06 12:39:56.99	89.70	18.50	-38.3	-39.2	22.6	0.00e+00	0	35	0	732954624	48	6611
2026-01-06 12:39:58.29	90.01	18.48	-38.6	-39.6	22.3	0.00e+00	0	35	0	736100352	48	6899
2026-01-06 12:39:59.01	90.18	18.47	-38.4	-39.4	22.3	0.00e+00	68	36	0	737148928	48	6750
2026-01-06 12:40:00.31	90.49	18.45	-38.6	-39.7	22.3	0.00e+00	0	36	0	739246080	48	6932
2026-01-06 12:40:01.03	90.66	18.43	-38.5	-39.5	22.3	0.00e+00	91	35	0	740294656	48	6834
2026-01-06 12:40:02.33	90.96	18.41	-38.4	-39.4	22.2	0.00e+00	0	36	0	743440384	48	6751
2026-01-06 12:40:03.05	91.13	18.40	-38.3	-39.4	22.4	0.00e+00	92	36	0	744488960	48	6701
2026-01-06 12:40:04.35	91.43	18.37	-38.2	-39.3	22.6	0.00e+00	4	36	0	746586112	48	6635
2026-01-06 12:40:05.07	91.60	18.36	-38.0	-39.0	22.6	0.00e+00	0	36	0	748683264	48	6431
2026-01-06 12:40:06.37	91.91	18.33	-37.8	-38.8	23.0	0.00e+00	89	36	0	750780416	48	6276
2026-01-06 12:40:07.09	92.08	18.32	-37.9	-38.9	22.9	0.00e+00	0	36	0	751828992	48	6329
2026-01-06 12:40:08.39	92.38	18.29	-37.9	-38.9	22.7	0.00e+00	92	36	0	754974720	48	6331
2026-01-06 12:40:09.11	92.55	18.27	-38.2	-39.2	22.6	0.00e+00	0	36	0	756023296	48	6562
2026-01-06 12:40:10.40	92.85	18.24	-38.5	-39.5	22.3	0.00e+00	0	36	0	758120448	48	6844
2026-01-06 12:40:11.12	93.01	18.23	-38.6	-39.7	22.2	0.00e+00	0	36	0	759169024	48	6939
2026-01-06 12:40:12.42	93.31	18.20	-38.6	-39.7	22.1	0.00e+00	0	36	0	762314752	50	6217
2026-01-06 12:40:13.14	93.48	18.18	-38.5	-39.5	22.2	0.00e+00	0	36	0	763363328	50	6074
2026-01-06 12:40:14.44	93.78	18.15	-38.2	-39.2	22.6	0.00e+00	0	36	0	765460480	50	5895
2026-01-06 12:40:15.16	93.95	18.13	-38.0	-38.9	22.8	0.00e+00	62	36	0	767557632	50	5695
2026-01-06 12:40:16.46	94.25	18.10	-37.6	-38.6	23.1	0.00e+00	0	36	0	769654784	48	6122
2026-01-06 12:40:17.18	94.41	18.08	-37.7	-38.6	23.1	0.00e+00	90	36	0	770703360	48	6159
2026-01-06 12:40:18.48	94.71	18.05	-37.7	-38.7	23.0	0.00e+00	0	36	0	773849088	48	6175
2026-01-06 12:40:19.20	94.88	18.03	-38.0	-39.0	22.8	0.00e+00	33	36	0	774897664	48	6414
2026-01-06 12:40:20.50	95.17	18.00	-37.9	-38.9	22.8	0.00e+00	85	36	0	776994816	48	6351
2026-01-06 12:40:21.22	95.34	17.98	-38.0	-39.0	22.9	0.00e+00	0	36	0	779091968	48	6417
2026-01-06 12:40:22.52	95.64	17.94	-37.8	-38.8	23.0	0.00e+00	90	36	0	781189120	48	6248
2026-01-06 12:40:23.23	95.80	17.92	-37.7	-38.7	23.1	0.00e+00	31	36	0	782237696	48	6179
2026-01-06 12:40:24.53	96.09	17.89	-37.2	-38.2	23.4	0.00e+00	0	36	0	784334848	48	5861
2026-01-06 12:40:25.25	96.26	17.87	-37.1	-38.0	23.5	0.00e+00	0	36	0	786432000	48	5727
2026-01-06 12:40:26.55	96.55	17.83	-36.9	-37.8	23.5	0.00e+00	0	36	0	788529152	48	5628
2026-01-06 12:40:27.27	96.71	17.81	-37.1	-38.0	23.5	0.00e+00	0	36	0	789577728	48	5757
2026-01-06 12:40:28.57	97.01	17.77	-37.3	-38.2	23.3	0.00e+00	0	36	0	792723456	48	5892
2026-01-06 12:40:29.29	97.17	17.75	-37.4	-38.4	23.2	0.00e+00	86	36	0	793772032	48	5993
2026-01-06 12:40:30.59	97.46	17.71	-37.6	-38.6	23.1	0.00e+00	0	35	0	795869184	48	6118
2026-01-06 12:40:31.31	97.62	17.69	-37.7	-38.7	23.0	0.00e+00	92	36	0	797966336	48	6181
2026-01-06 12:40:32.60	97.91	17.65	-37.3	-38.2	23.5	0.00e+00	0	36	0	800063488	48	5864
2026-01-06 12:40:33.33	98.07	17.62	-37.2	-38.2	23.4	0.00e+00	0	36	0	801112064	48	5848
2026-01-06 12:40:34.62	98.36	17.58	-37.0	-37.9	23.6	0.00e+00	89	36	0	804257792	48	5659
2026-01-06 12:40:35.35	98.52	17.56	-36.8	-37.7	23.8	0.00e+00	0	36	0	805306368	48	5548
2026-01-06 12:40:36.64	98.81	17.52	-36.9	-37.8	23.6	0.00e+00	85	36	0	807403520	48	5613
2026-01-06 12:40:37.36	98.97	17.49	-37.0	-37.9	23.6	0.00e+00	0	36	0	808452096	48	5675
2026-01-06 12:40:38.66	99.26	17.45	-37.2	-38.1	23.3	0.00e+00	85	36	0	811597824	48	5799
2026-01-06 12:40:39.38	99.42	17.42	-37.2	-38.2	23.4	0.00e+00	0	36	0	812646400	48	5831
2026-01-06 12:40:40.68	99.70	17.38	-37.2	-38.1	23.5	0.00e+00	0	35	0	814743552	48	5787
2026-01-06 12:40:41.40	99.86	17.35	-37.2	-38.1	23.4	0.00e+00	0	35	0	816840704	48	5815
2026-01-06 12:40:42.70	100.15	17.31	-37.3	-38.2	23.4	0.00e+00	0	36	0	818937856	48	5847
2026-01-06 12:40:43.42	100.30	17.28	-37.4	-38.4	23.2	0.00e+00	14	36	0	819986432	48	5981
2026-01-06 12:40:44.72	100.59	17.24	-37.5	-38.4	23.2	0.00e+00	0	36	0	823132160	48	6019
2026-01-06 12:40:45.44	100.74	17.21	-37.5	-38.4	23.2	0.00e+00	68	36	0	824180736	48	6012
2026-01-06 12:40:46.74	101.03	17.16	-37.8	-38.7	22.9	0.00e+00	0	36	0	826277888	48	6243
2026-01-06 12:40:47.46	101.18	17.14	-37.6	-38.6	23.1	0.00e+00	90	36	0	827326464	48	6126
2026-01-06 12:40:48.76	101.46	17.09	-37.4	-38.3	23.3	0.00e+00	0	36	0	830472192	48	5962
2026-01-06 12:40:49.48	101.62	17.06	-37.5	-38.4	23.2	0.00e+00	0	35	0	831520768	48	5992
2026-01-06 12:40:50.78	101.90	17.01	-37.3	-38.2	23.2	0.00e+00	44	35	0	833617920	48	5895
2026-01-06 12:40:51.50	102.05	16.99	-37.2	-38.2	23.4	0.00e+00	0	36	0	835715072	48	5830
2026-01-06 12:40:52.80	102.33	16.94	-37.4	-38.4	23.2	0.00e+00	92	36	0	837812224	48	5973
2026-01-06 12:40:53.52	102.48	16.91	-37.5	-38.4	23.1	0.00e+00	0	36	0	838860800	48	6023
2026-01-06 12:40:54.81	102.76	16.86	-37.9	-38.9	22.9	0.00e+00	0	36	0	842006528	48	6323
2026-01-06 12:40:55.53	102.91	16.83	-37.7	-38.7	23.0	0.00e+00	0	36	0	843055104	48	6174
2026-01-06 12:40:56.83	103.19	16.78	-37.7	-38.7	23.0	0.00e+00	0	35	0	845152256	48	6178
2026-01-06 12:40:57.56	103.34	16.75	-37.5	-38.4	23.2	0.00e+00	0	35	0	846200832	48	6008
2026-01-06 12:40:58.85	103.61	16.70	-37.3	-38.3	23.3	0.00e+00	0	35	0	849346560	48	5916
2026-01-06 12:40:59.57	103.77	16.67	-37.5	-38.4	23.2	0.00e+00	89	36	0	850395136	48	6018
2026-01-06 12:41:00.87	104.04	16.62	-38.1	-39.1	22.7	0.00e+00	0	36	0	852492288	48	6488
2026-01-06 12:41:01.59	104.19	16.59	-38.0	-39.0	22.7	0.00e+00	91	36	0	854589440	48	6445
2026-01-06 12:41:02.89	104.46	16.53	-38.4	-39.5	22.2	0.00e+00	0	35	0	856686592	48	6844
2026-01-06 12:41:03.61	104.61	16.50	-38.3	-39.4	22.2	0.00e+00	0	36	0	857735168	48	6753
2026-01-06 12:41:04.91	104.88	16.45	-38.5	-39.6	21.9	0.00e+00	2	35	0	860880896	48	6880
2026-01-06 12:41:05.63	105.03	16.42	-38.4	-39.5	22.2	0.00e+00	0	36	0	861929472	48	6806
2026-01-06 12:41:06.93	105.30	16.36	-38.3	-39.3	22.4	0.00e+00	91	35	0	864026624	48	6668
2026-01-06 12:41:07.65	105.44	16.33	-38.1	-39.1	22.4	0.00e+00	0	35	0	866123776	48	6491
2026-01-06 12:41:08.95	105.71	16.28	-37.9	-38.9	22.7	0.00e+00	26	36	0	868220928	48	6355
2026-01-06 12:41:09.67	105.86	16.25	-37.7	-38.7	22.9	0.00e+00	0	36	0	869269504	48	6186
2026-01-06 12:41:10.96	106.12	16.19	-37.7	-38.7	23.0	0.00e+00	0	36	0	871366656	48	6183
2026-01-06 12:41:11.68	106.27	16.16	-37.5	-38.5	23.0	0.00e+00	0	35	0	873463808	48	6055
2026-01-06 12:41:12.98	106.53	16.10	-37.5	-38.5	23.1	0.00e+00	0	35	0	875560960	48	6039
2026-01-06 12:41:13.70	106.68	16.07	-37.4	-38.4	23.2	0.00e+00	57	35	0	876609536	48	5973
2026-01-06 12:41:15.00	106.94	16.01	-37.4	-38.3	23.3	0.00e+00	0	36	0	879755264	48	5925
2026-01-06 12:41:15.72	107.08	15.98	-37.5	-38.4	23.2	0.00e+00	92	36	0	880803840	48	6011
2026-01-06 12:41:17.02	107.34	15.92	-37.5	-38.4	23.0	0.00e+00	0	36	0	882900992	48	6022
2026-01-06 12:41:17.74	107.49	15.89	-37.7	-38.7	23.0	0.00e+00	90	35	0	884998144	48	6196
2026-01-06 12:41:19.04	107.75	15.83	-38.1	-39.1	22.4	0.00e+00	0	36	0	887095296	48	6481
2026-01-06 12:41:19.76	107.89	15.79	-38.4	-39.5	22.1	0.00e+00	0	36	0	888143872	48	6786
2026-01-06 12:41:21.06	108.15	15.73	-38.8	-40.0	21.9	0.00e+00	70	36	0	890241024	50	6391
2026-01-06 12:41:21.78	108.29	15.70	-39.2	-40.3	21.4	0.00e+00	0	35	0	892338176	50	6668
2026-01-06 12:41:23.08	108.55	15.64	-39.6	-40.8	21.2	0.00e+00	90	36	0	894435328	50	7050
2026-01-06 12:41:23.80	108.69	15.61	-39.8	-41.1	21.0	0.00e+00	0	36	0	895483904	52	6486
2026-01-06 12:41:25.10	108.94	15.55	-39.6	-40.8	21.4	0.00e+00	0	36	0	898629632	52	6260
2026-01-06 12:41:25.82	109.08	15.51	-39.2	-40.4	21.6	0.00e+00	0	36	0	899678208	52	5969
2026-01-06 12:41:27.11	109.33	15.45	-39.1	-40.2	21.8	0.00e+00	0	36	0	901775360	52	5881
2026-01-06 12:41:27.84	109.48	15.42	-38.8	-39.9	22.0	0.00e+00	3	36	0	903872512	52	5667
2026-01-06 12:41:29.13	109.72	15.35	-38.6	-39.7	22.1	0.00e+00	0	36	0	905969664	50	6183
2026-01-06 12:41:29.85	109.86	15.32	-38.3	-39.3	22.4	0.00e+00	0	36	0	907018240	50	5944
2026-01-06 12:41:31.15	110.11	15.26	-38.1	-39.1	22.6	0.00e+00	0	35	0	910163968	50	5796
2026-01-06 12:41:31.88	110.25	15.22	-38.0	-39.0	22.7	0.00e+00	62	36	0	911212544	50	5704
2026-01-06 12:41:33.17	110.50	15.16	-37.6	-38.6	23.1	0.00e+00	0	36	0	913309696	48	6124
2026-01-06 12:41:33.89	110.64	15.12	-37.5	-38.4	23.1	0.00e+00	0	36	0	914358272	48	6000
2026-01-06 12:41:35.19	110.88	15.06	-37.7	-38.6	23.0	0.00e+00	90	36	0	917504000	48	6161
2026-01-06 12:41:35.91	111.02	15.02	-37.8	-38.8	22.9	0.00e+00	0	36	0	918552576	48	6274
2026-01-06 12:41:37.21	111.26	14.96	-38.2	-39.2	22.4	0.00e+00	92	36	0	920649728	48	6615
2026-01-06 12:41:37.93	111.40	14.92	-38.6	-39.6	22.1	0.00e+00	0	36	0	922746880	48	6907
2026-01-06 12:41:39.23	111.64	14.86	-39.2	-40.3	21.4	0.00e+00	0	36	0	924844032	50	6691
2026-01-06 12:41:39.94	111.77	14.82	-39.1	-40.3	21.5	0.00e+00	0	36	0	925892608	50	6623
2026-01-06 12:41:41.24	112.02	14.76	-39.2	-40.4	21.6	0.00e+00	0	36	0	929038336	50	6720
2026-01-06 12:41:41.96	112.15	14.72	-39.1	-40.2	21.6	0.00e+00	0	36	0	930086912	50	6565
2026-01-06 12:41:43.26	112.39	14.66	-38.7	-39.7	22.1	0.00e+00	0	36	0	932184064	50	6240
2026-01-06 12:41:43.98	112.52	14.62	-38.6	-39.6	22.2	0.00e+00	3	36	0	934281216	50	6146
2026-01-06 12:41:45.28	112.76	14.55	-38.5	-39.6	22.2	0.00e+00	0	35	0	936378368	50	6114
2026-01-06 12:41:46.00	112.89	14.52	-38.4	-39.4	22.3	0.00e+00	92	36	0	937426944	50	6023
2026-01-06 12:41:47.30	113.13	14.45	-38.3	-39.3	22.4	0.00e+00	0	36	0	939524096	50	5951
2026-01-06 12:41:48.02	113.26	14.41	-38.5	-39.5	22.3	0.00e+00	88	35	0	941621248	50	6098
2026-01-06 12:41:49.32	113.50	14.35	-38.4	-39.5	22.3	0.00e+00	71	36	0	943718400	50	6048
2026-01-06 12:41:50.04	113.63	14.31	-38.4	-39.4	22.3	0.00e+00	0	35	0	944766976	50	6031
2026-01-06 12:41:51.33	113.86	14.24	-38.1	-39.1	22.5	0.00e+00	79	36	0	947912704	50	5796
2026-01-06 12:41:52.06	113.99	14.20	-38.0	-38.9	22.6	0.00e+00	0	36	0	948961280	50	5683
2026-01-06 12:41:53.35	114.22	14.14	-38.0	-39.0	22.6	0.00e+00	90	36	0	951058432	50	5706
2026-01-06 12:41:54.07	114.35	14.10	-38.0	-39.0	22.7	0.00e+00	0	36	0	953155584	50	5698
2026-01-06 12:41:55.37	114.58	14.03	-37.8	-38.8	22.8	0.00e+00	0	36	0	955252736	50	5600
2026-01-06 12:41:56.09	114.71	13.99	-38.1	-39.1	22.5	0.00e+00	0	35	0	956301312	50	5796
2026-01-06 12:41:57.39	114.93	13.92	-38.5	-39.5	22.2	0.00e+00	0	36	0	958398464	50	6079
2026-01-06 12:41:58.12	115.06	13.89	-38.4	-39.4	22.2	0.00e+00	0	36	0	960495616	50	6023
2026-01-06 12:41:59.41	115.29	13.82	-38.6	-39.7	22.1	0.00e+00	0	36	0	962592768	50	6191
2026-01-06 12:42:00.13	115.41	13.78	-38.5	-39.5	22.2	0.00e+00	90	36	0	963641344	50	6096
2026-01-06 12:42:01.43	115.64	13.71	-38.3	-39.4	22.2	0.00e+00	0	35	0	966787072	50	6012
2026-01-06 12:42:02.15	115.76	13.67	-38.2	-39.3	22.4	0.00e+00	68	35	0	967835648	50	5901
2026-01-06 12:42:03.45	115.99	13.60	-37.6	-38.6	22.8	0.00e+00	0	36	0	969932800	48	6127
2026-01-06 12:42:04.17	116.11	13.56	-37.7	-38.7	22.8	0.00e+00	0	36	0	972029952	48	6184
2026-01-06 12:42:05.47	116.33	13.49	-37.5	-38.5	23.0	0.00e+00	82	36	0	974127104	48	6062
2026-01-06 12:42:06.19	116.46	13.45	-37.6	-38.6	22.9	0.00e+00	33	36	0	975175680	48	6131
2026-01-06 12:42:07.49	116.68	13.38	-37.7	-38.7	22.9	0.00e+00	92	36	0	978321408	48	6175
2026-01-06 12:42:08.21	116.80	13.35	-37.8	-38.8	22.7	0.00e+00	0	36	0	979369984	48	6289
2026-01-06 12:42:09.51	117.02	13.27	-37.9	-38.8	22.7	0.00e+00	0	35	0	981467136	48	6314
2026-01-06 12:42:10.22	117.14	13.24	-38.0	-39.0	22.6	0.00e+00	33	36	0	982515712	48	6428
2026-01-06 12:42:11.52	117.36	13.17	-38.0	-39.1	22.3	0.00e+00	0	36	0	985661440	48	6472
2026-01-06 12:42:12.24	117.48	13.13	-37.9	-39.0	22.5	0.00e+00	0	36	0	986710016	48	6394
2026-01-06 12:42:13.54	117.69	13.06	-38.1	-39.1	22.5	0.00e+00	0	36	0	988807168	48	6507
2026-01-06 12:42:14.27	117.82	13.02	-38.1	-39.1	22.4	0.00e+00	73	36	0	990904320	48	6499
2026-01-06 12:42:15.56	118.03	12.94	-38.1	-39.1	22.6	0.00e+00	0	36	0	993001472	48	6509
2026-01-06 12:42:16.29	118.15	12.90	-38.1	-39.1	22.5	0.00e+00	92	36	0	994050048	48	6507
2026-01-06 12:42:17.58	118.36	12.83	-38.0	-38.9	22.6	0.00e+00	0	36	0	997195776	48	6389
2026-01-06 12:42:18.31	118.48	12.79	-38.0	-39.0	22.6	0.00e+00	1	36	0	998244352	48	6416
2026-01-06 12:42:19.60	118.69	12.72	-38.2	-39.2	22.5	0.00e+00	86	36	0	1000341504	48	6567
2026-01-06 12:42:20.33	118.81	12.68	-38.1	-39.1	22.6	0.00e+00	0	36	0	1002438656	48	6492
2026-01-06 12:42:21.63	119.02	12.61	-37.8	-38.8	22.7	0.00e+00	92	36	0	1004535808	48	6297
2026-01-06 12:42:22.35	119.13	12.57	-37.6	-38.6	23.0	0.00e+00	0	36	0	1005584384	48	6126
2026-01-06 12:42:23.65	119.34	12.50	-37.3	-38.3	23.2	0.00e+00	0	36	0	1007681536	48	5914
2026-01-06 12:42:24.37	119.46	12.46	-37.3	-38.2	23.2	0.00e+00	0	36	0	1009778688	48	5868
2026-01-06 12:42:25.67	119.67	12.39	-37.1	-38.0	23.2	0.00e+00	0	36	0	1011875840	48	5722
2026-01-06 12:42:26.39	119.78	12.35	-37.0	-37.9	23.3	0.00e+00	0	36	0	1012924416	48	5674
2026-01-06 12:42:27.68	119.98	12.27	-37.1	-38.1	23.3	0.00e+00	0	36	0	1016070144	48	5764
2026-01-06 12:42:28.40	120.10	12.23	-37.3	-38.2	23.2	0.00e+00	17	36	0	1017118720	48	5851
2026-01-06 12:42:29.70	120.30	12.16	-37.6	-38.6	22.9	0.00e+00	0	36	0	1019215872	48	6148
2026-01-06 12:42:30.42	120.41	12.12	-37.8	-38.8	22.7	0.00e+00	92	36	0	1021313024	48	6307
2026-01-06 12:42:31.72	120.62	12.05	-38.1	-39.1	22.5	0.00e+00	0	36	0	1023410176	48	6504
2026-01-06 12:42:32.44	120.73	12.01	-38.2	-39.2	22.4	0.00e+00	92	36	0	1024458752	48	6594
2026-01-06 12:42:33.74	120.93	11.94	-38.1	-39.1	22.5	0.00e+00	0	36	0	1026555904	48	6496
2026-01-06 12:42:34.46	121.04	11.89	-38.0	-39.1	22.5	0.00e+00	0	36	0	1028653056	48	6472
2026-01-06 12:42:35.76	121.24	11.82	-37.7	-38.7	22.9	0.00e+00	89	36	0	1030750208	48	6187
2026-01-06 12:42:36.48	121.35	11.78	-37.5	-38.4	23.0	0.00e+00	0	36	0	1031798784	48	6014
2026-01-06 12:42:37.78	121.55	11.71	-37.4	-38.3	23.1	0.00e+00	92	36	0	1034944512	48	5929
2026-01-06 12:42:38.50	121.66	11.67	-37.3	-38.3	23.2	0.00e+00	0	36	0	1035993088	48	5915
2026-01-06 12:42:39.79	121.85	11.59	-37.3	-38.3	23.1	0.00e+00	0	36	0	1038090240	48	5910
2026-01-06 12:42:40.52	121.96	11.55	-37.4	-38.4	23.1	0.00e+00	0	36	0	1040187392	48	5975
2026-01-06 12:42:41.82	122.16	11.48	-37.7	-38.6	22.9	0.00e+00	0	36	0	1042284544	48	6165
2026-01-06 12:42:42.54	122.26	11.44	-37.8	-38.7	22.7	0.00e+00	0	36	0	1043333120	48	6233
2026-01-06 12:42:43.83	122.46	11.37	-38.0	-39.0	22.6	0.00e+00	0	36	0	1046478848	48	6402
2026-01-06 12:42:44.56	122.57	11.32	-37.9	-38.9	22.6	0.00e+00	11	36	0	1047527424	48	6335
2026-01-06 12:42:45.85	122.76	11.25	-38.0	-39.0	22.4	0.00e+00	0	36	0	1049624576	48	6448
2026-01-06 12:42:46.58	122.86	11.21	-38.0	-39.0	22.5	0.00e+00	75	36	0	1050673152	48	6419
2026-01-06 12:42:47.87	123.05	11.14	-37.7	-38.7	22.7	0.00e+00	0	36	0	1053818880	48	6221
2026-01-06 12:42:48.59	123.16	11.10	-37.8	-38.8	22.6	0.00e+00	0	36	0	1054867456	48	6294
2026-01-06 12:42:49.89	123.35	11.02	-37.8	-38.8	22.7	0.00e+00	0	36	0	1056964608	48	6255
2026-01-06 12:42:50.61	123.45	10.98	-37.8	-38.8	22.7	0.00e+00	0	36	0	1059061760	48	6276
2026-01-06 12:42:51.91	123.64	10.91	-38.1	-39.1	22.4	0.00e+00	92	36	0	1061158912	48	6470
2026-01-06 12:42:52.63	123.74	10.87	-38.2	-39.3	22.2	0.00e+00	0	36	0	1062207488	48	6633
2026-01-06 12:42:53.93	123.93	10.79	-38.6	-39.6	22.0	0.00e+00	0	36	0	1065353216	48	6908
2026-01-06 12:42:54.65	124.03	10.75	-38.7	-39.8	21.9	0.00e+00	0	36	0	1066401792	48	7017
2026-01-06 12:42:55.95	124.22	10.68	-39.0	-40.2	21.6	0.00e+00	0	36	0	1068498944	50	6547
2026-01-06 12:42:56.67	124.32	10.64	-39.2	-40.3	21.4	0.00e+00	0	36	0	1070596096	50	6679
2026-01-06 12:42:57.97	124.50	10.56	-39.1	-40.2	21.5	0.00e+00	0	36	0	1072693248	50	6579
2026-01-06 12:42:58.69	124.61	10.52	-38.9	-40.1	21.5	0.00e+00	73	36	0	1073741824	50	6473
2026-01-06 12:42:59.99	124.79	10.45	-38.8	-39.9	21.9	0.00e+00	0	36	0	1075838976	50	6328
2026-01-06 12:43:00.71	124.89	10.41	-38.7	-39.7	21.9	0.00e+00	50	36	0	1077936128	50	6243
2026-01-06 12:43:02.01	125.07	10.33	-38.4	-39.5	22.1	0.00e+00	0	36	0	1080033280	50	6051
2026-01-06 12:43:02.73	125.17	10.29	-38.5	-39.6	22.1	0.00e+00	53	36	0	1081081856	50	6128
2026-01-06 12:43:04.02	125.35	10.22	-38.4	-39.4	22.2	0.00e+00	0	36	0	1084227584	50	6033
2026-01-06 12:43:04.74	125.45	10.18	-38.5	-39.6	22.1	0.00e+00	0	36	0	1085276160	50	6130
2026-01-06 12:43:06.04	125.62	10.10	-38.7	-39.7	21.9	0.00e+00	92	36	0	1087373312	50	6243
2026-01-06 12:43:06.76	125.72	10.06	-38.7	-39.8	21.9	0.00e+00	0	36	0	1088421888	50	6280
2026-01-06 12:43:08.06	125.90	9.99	-38.8	-39.8	21.9	0.00e+00	92	36	0	1091567616	50	6303
2026-01-06 12:43:08.78	126.00	9.94	-38.8	-39.9	21.8	0.00e+00	0	36	0	1092616192	50	6329
2026-01-06 12:43:10.08	126.17	9.87	-38.5	-39.5	22.1	0.00e+00	0	36	0	1094713344	50	6069
2026-01-06 12:43:10.80	126.27	9.83	-38.4	-39.4	22.1	0.00e+00	0	36	0	1096810496	50	6031
2026-01-06 12:43:12.10	126.44	9.75	-38.5	-39.5	22.1	0.00e+00	0	36	0	1098907648	50	6089
2026-01-06 12:43:12.82	126.54	9.71	-38.3	-39.3	22.2	0.00e+00	0	36	0	1099956224	50	5956
2026-01-06 12:43:14.12	126.71	9.64	-38.3	-39.3	22.3	0.00e+00	0	36	0	1103101952	50	5926
2026-01-06 12:43:14.84	126.81	9.60	-38.4	-39.4	22.1	0.00e+00	81	36	0	1104150528	50	6015
2026-01-06 12:43:16.13	126.98	9.52	-38.5	-39.6	22.0	0.00e+00	0	36	0	1106247680	50	6108
2026-01-06 12:43:16.86	127.07	9.48	-38.7	-39.7	21.9	0.00e+00	92	36	0	1108344832	50	6232
2026-01-06 12:43:18.15	127.24	9.41	-38.6	-39.7	21.9	0.00e+00	0	36	0	1110441984	50	6179
2026-01-06 12:43:18.87	127.34	9.37	-38.7	-39.8	21.8	0.00e+00	0	36	0	1111490560	50	6298
2026-01-06 12:43:20.17	127.51	9.29	-38.9	-40.1	21.6	0.00e+00	88	36	0	1114636288	50	6487
2026-01-06 12:43:20.89	127.60	9.25	-38.9	-40.1	21.6	0.00e+00	0	36	0	1115684864	50	6476
2026-01-06 12:43:22.19	127.77	9.18	-38.8	-39.9	21.7	0.00e+00	92	36	0	1117782016	50	6374
2026-01-06 12:43:22.91	127.86	9.14	-38.9	-40.0	21.7	0.00e+00	0	36	0	1118830592	50	6420
2026-01-06 12:43:24.21	128.03	9.06	-38.5	-39.6	22.0	0.00e+00	33	36	0	1121976320	50	6136
2026-01-06 12:43:24.93	128.12	9.02	-38.5	-39.6	21.9	0.00e+00	0	36	0	1123024896	50	6154
2026-01-06 12:43:26.22	128.28	8.95	-38.4	-39.4	22.0	0.00e+00	0	36	0	1125122048	50	6027
2026-01-06 12:43:26.95	128.37	8.91	-38.5	-39.5	22.1	0.00e+00	0	36	0	1127219200	50	6076
2026-01-06 12:43:28.25	128.54	8.83	-38.6	-39.6	21.9	0.00e+00	0	36	0	1129316352	50	6162
2026-01-06 12:43:28.97	128.63	8.79	-38.4	-39.4	22.1	0.00e+00	0	36	0	1130364928	50	5994
2026-01-06 12:43:30.27	128.79	8.72	-38.5	-39.5	21.9	0.00e+00	0	36	0	1132462080	50	6079
2026-01-06 12:43:30.98	128.88	8.67	-38.5	-39.6	21.9	0.00e+00	90	36	0	1134559232	50	6122
2026-01-06 12:43:32.28	129.04	8.60	-38.8	-39.9	21.7	0.00e+00	0	36	0	1136656384	50	6365
2026-01-06 12:43:33.00	129.13	8.56	-38.9	-40.0	21.6	0.00e+00	49	36	0	1137704960	50	6415
2026-01-06 12:43:34.30	129.29	8.49	-39.1	-40.3	21.3	0.00e+00	0	36	0	1140850688	50	6657
2026-01-06 12:43:35.02	129.38	8.44	-39.1	-40.3	21.3	0.00e+00	0	36	0	1141899264	50	6634
2026-01-06 12:43:36.32	129.54	8.37	-38.9	-40.0	21.6	0.00e+00	86	36	0	1143996416	50	6439
2026-01-06 12:43:37.04	129.62	8.33	-38.8	-40.0	21.4	0.00e+00	0	36	0	1146093568	50	6398
2026-01-06 12:43:38.34	129.78	8.26	-38.6	-39.7	21.5	0.00e+00	92	36	0	1148190720	50	6176
2026-01-06 12:43:39.06	129.87	8.21	-38.3	-39.3	22.0	0.00e+00	0	36	0	1149239296	50	5962
2026-01-06 12:43:40.36	130.03	8.14	-38.2	-39.2	22.1	0.00e+00	0	36	0	1152385024	50	5866
2026-01-06 12:43:41.08	130.11	8.10	-38.0	-39.0	22.3	0.00e+00	0	36	0	1153433600	50	5747
2026-01-06 12:43:42.38	130.27	8.03	-37.9	-38.9	22.4	0.00e+00	0	36	0	1155530752	50	5673
2026-01-06 12:43:43.10	130.35	7.98	-37.9	-38.9	22.4	0.00e+00	0	36	0	1156579328	50	5664
2026-01-06 12:43:44.40	130.51	7.91	-38.1	-39.1	22.0	0.00e+00	0	36	0	1159725056	50	5773
2026-01-06 12:43:45.12	130.59	7.87	-38.1	-39.1	22.2	0.00e+00	56	36	0	1160773632	50	5789
2026-01-06 12:43:46.41	130.74	7.80	-38.2	-39.3	21.7	0.00e+00	0	36	0	1162870784	50	5915
2026-01-06 12:43:47.13	130.83	7.76	-38.5	-39.6	21.8	0.00e+00	57	36	0	1164967936	50	6111
2026-01-06 12:43:48.43	130.98	7.68	-38.7	-39.8	21.6	0.00e+00	0	36	0	1167065088	50	6259
2026-01-06 12:43:49.15	131.06	7.64	-38.9	-40.0	21.5	0.00e+00	0	36	0	1168113664	50	6449
2026-01-06 12:43:50.45	131.22	7.57	-39.4	-40.6	20.9	0.00e+00	88	36	0	1171259392	50	6859
2026-01-06 12:43:51.17	131.30	7.53	-39.4	-40.6	21.0	0.00e+00	0	36	0	1172307968	50	6875
2026-01-06 12:43:52.47	131.45	7.45	-39.7	-40.9	20.6	0.00e+00	83	36	0	1174405120	50	7150
2026-01-06 12:43:53.19	131.53	7.41	-39.7	-41.0	20.7	0.00e+00	33	36	0	1176502272	52	6403
2026-01-06 12:43:54.49	131.68	7.34	-39.6	-40.8	20.8	0.00e+00	0	36	0	1178599424	52	6299
2026-01-06 12:43:55.21	131.76	7.30	-39.8	-41.0	20.5	0.00e+00	0	36	0	1179648000	52	6446
2026-01-06 12:43:56.50	131.91	7.22	-39.8	-41.1	20.6	0.00e+00	0	36	0	1181745152	52	6467
2026-01-06 12:43:57.23	131.99	7.18	-39.9	-41.2	20.5	0.00e+00	0	36	0	1183842304	52	6546
2026-01-06 12:43:58.52	132.13	7.11	-40.2	-41.6	20.1	0.00e+00	0	36	0	1185939456	52	6870
2026-01-06 12:43:59.24	132.22	7.07	-40.3	-41.6	19.9	0.00e+00	0	36	0	1186988032	52	6919
2026-01-06 12:44:00.54	132.36	7.00	-40.8	-42.2	19.5	0.00e+00	0	36	0	1190133760	54	6592
2026-01-06 12:44:01.26	132.44	6.96	-40.7	-42.1	19.5	0.00e+00	92	36	0	1191182336	54	6537
2026-01-06 12:44:02.56	132.58	6.88	-40.9	-42.4	19.2	0.00e+00	0	36	0	1193279488	54	6757
2026-01-06 12:44:03.28	132.66	6.84	-41.3	-43.0	18.8	0.00e+00	0	36	0	1195376640	54	7183
2026-01-06 12:44:04.58	132.81	6.77	-41.1	-42.7	19.0	0.00e+00	84	36	0	1197473792	54	6932
2026-01-06 12:44:05.30	132.89	6.73	-41.1	-42.7	19.0	0.00e+00	0	36	0	1198522368	54	6937
2026-01-06 12:44:06.60	133.03	6.66	-41.2	-42.8	18.9	0.00e+00	91	36	0	1200619520	54	7014
2026-01-06 12:44:07.31	133.11	6.62	-41.1	-42.6	19.1	0.00e+00	0	36	0	1202716672	54	6922
2026-01-06 12:44:08.61	133.25	6.54	-40.9	-42.5	19.3	0.00e+00	0	36	0	1204813824	54	6776
2026-01-06 12:44:09.33	133.32	6.50	-40.5	-42.0	19.7	0.00e+00	0	36	0	1205862400	54	6402
2026-01-06 12:44:10.63	133.46	6.43	-40.4	-41.8	19.8	0.00e+00	0	36	0	1209008128	54	6261
2026-01-06 12:44:11.35	133.54	6.39	-40.3	-41.8	19.8	0.00e+00	0	36	0	1210056704	54	6246
2026-01-06 12:44:12.64	133.68	6.32	-40.1	-41.5	20.1	0.00e+00	0	36	0	1212153856	54	6044
