passes_logs/2026/01/06/R4.6S_Anadyr/R4.6S_Anadyr__20260106_222900_SUOMI_NPP_rec.log

#Pass ID: 20260106_222900_SUOMI NPP
#Satellite: SUOMI NPP
#Configuration: NPP
#almurnet v.1.7.20251203
#Start time: 2026-01-06 22:29:01

#Version: 2.2.20231116
#Station: R4.6S_Anadyr
#Location: 177.4865 lon 64.73178 lat
#TLE: 1 37849U 11061A   26004.95404768  .00000136  00000+0  85334-4 0  9991
#TLE: 2 37849  98.7801 307.0898 0002575  80.6707 279.4760 14.19522289735281

#Time	Az	El	Level	Level2	SNR	BER	BlckErr	Temp	State	Recorded	gain1	gain2
2026-01-06 22:29:01.49	112.59	0.03	-48.9	-61.4	3.4	1.52e+00	0	31	0	0	60	41063
2026-01-06 22:29:02.50	112.55	0.09	-48.9	-64.1	3.6	1.51e+00	0	32	104	0	60	57934
2026-01-06 22:29:03.51	112.50	0.15	-48.9	-64.1	3.6	1.51e+00	0	32	104	0	60	58109
2026-01-06 22:29:04.52	112.46	0.20	-48.9	-64.1	3.6	1.51e+00	0	32	104	0	60	58083
2026-01-06 22:29:05.53	112.42	0.26	-48.9	-64.1	3.6	1.51e+00	0	32	104	0	60	57807
2026-01-06 22:29:06.54	112.37	0.32	-49.0	-64.2	3.6	1.51e+00	0	32	104	0	60	58573
2026-01-06 22:29:07.55	112.33	0.38	-49.0	-64.2	3.6	1.51e+00	0	32	104	0	60	58793
2026-01-06 22:29:08.56	112.29	0.43	-49.0	-64.2	3.6	1.51e+00	0	32	104	0	60	58694
2026-01-06 22:29:09.57	112.24	0.49	-49.0	-64.2	3.6	1.51e+00	0	32	104	0	60	58396
2026-01-06 22:29:10.58	112.20	0.55	-48.9	-64.2	3.6	1.51e+00	0	32	104	0	60	58427
2026-01-06 22:29:11.59	112.15	0.61	-48.9	-64.1	3.6	1.51e+00	0	33	104	0	60	58187
2026-01-06 22:29:12.60	112.11	0.67	-48.9	-64.1	3.6	1.51e+00	0	33	104	0	60	57664
2026-01-06 22:29:13.61	112.06	0.72	-48.9	-64.1	3.6	1.51e+00	0	33	104	0	60	57769
2026-01-06 22:29:14.62	112.02	0.78	-48.7	-63.9	3.6	1.51e+00	0	33	104	0	60	56915
2026-01-06 22:29:15.63	111.97	0.84	-48.6	-63.8	3.6	1.51e+00	0	33	104	0	60	55814
2026-01-06 22:29:16.64	111.92	0.90	-48.4	-63.6	3.6	1.51e+00	0	33	104	0	60	54763
2026-01-06 22:29:17.65	111.88	0.96	-48.0	-63.3	3.6	1.51e+00	0	33	104	0	60	52904
2026-01-06 22:29:18.66	111.83	1.02	-46.7	-62.1	3.6	1.51e+00	0	33	104	0	60	45877
2026-01-06 22:29:19.67	111.79	1.08	-46.6	-61.9	3.6	1.51e+00	0	33	104	0	60	45201
2026-01-06 22:29:20.68	111.74	1.13	-46.6	-61.9	3.6	1.51e+00	0	33	104	0	60	44966
2026-01-06 22:29:21.69	111.69	1.19	-46.6	-61.9	3.6	1.51e+00	0	33	104	0	60	45238
2026-01-06 22:29:22.70	111.65	1.25	-46.6	-62.0	3.6	1.51e+00	0	33	104	0	60	45311
2026-01-06 22:29:23.71	111.60	1.31	-46.6	-61.9	3.6	1.51e+00	0	33	104	0	60	45044
2026-01-06 22:29:24.72	111.55	1.37	-46.6	-61.9	3.6	1.51e+00	0	33	104	0	60	45222
2026-01-06 22:29:25.73	111.50	1.43	-46.6	-61.9	3.6	1.51e+00	0	33	104	0	60	45204
2026-01-06 22:29:26.74	111.46	1.49	-46.6	-61.9	3.6	1.51e+00	0	33	104	0	60	45178
2026-01-06 22:29:27.75	111.41	1.55	-46.6	-62.0	3.6	1.51e+00	0	33	104	0	60	45252
2026-01-06 22:29:28.76	111.36	1.61	-46.6	-61.9	3.6	1.51e+00	0	33	104	0	60	45231
2026-01-06 22:29:29.77	111.31	1.67	-46.6	-62.0	3.6	1.51e+00	0	33	104	0	60	45570
2026-01-06 22:29:30.78	111.26	1.73	-46.6	-61.9	3.6	1.51e+00	0	33	104	0	60	45215
2026-01-06 22:29:31.79	111.21	1.79	-46.6	-62.0	3.6	1.51e+00	0	33	104	0	60	45411
2026-01-06 22:29:32.80	111.17	1.85	-46.6	-61.9	3.6	1.51e+00	0	33	104	0	60	45110
2026-01-06 22:29:33.81	111.12	1.91	-46.6	-61.9	3.6	1.51e+00	0	33	104	0	60	45142
2026-01-06 22:29:34.82	111.07	1.97	-46.6	-61.9	3.6	1.51e+00	0	33	104	0	60	44862
2026-01-06 22:29:35.83	111.02	2.03	-46.6	-61.8	3.6	1.51e+00	0	33	104	0	60	44552
2026-01-06 22:29:36.84	110.97	2.09	-46.6	-61.8	3.6	1.51e+00	0	33	104	0	60	44589
2026-01-06 22:29:37.85	110.92	2.15	-46.6	-61.9	3.6	1.51e+00	0	33	104	0	60	44742
2026-01-06 22:29:38.86	110.87	2.21	-46.6	-61.8	3.6	1.51e+00	0	33	104	0	60	44535
2026-01-06 22:29:39.87	110.82	2.28	-46.6	-61.9	3.6	1.51e+00	0	33	104	0	60	44918
2026-01-06 22:29:40.88	110.77	2.34	-46.6	-62.0	3.6	1.51e+00	0	33	104	0	60	45306
2026-01-06 22:29:41.89	110.72	2.40	-46.6	-62.0	3.6	1.51e+00	0	33	104	0	60	45316
2026-01-06 22:29:42.90	110.66	2.46	-46.6	-61.9	3.6	1.51e+00	0	33	104	0	60	45076
2026-01-06 22:29:43.91	110.61	2.52	-46.6	-61.8	3.6	1.51e+00	0	33	104	0	60	44632
2026-01-06 22:29:44.92	110.56	2.58	-46.6	-61.9	3.6	1.51e+00	0	33	104	0	60	44727
2026-01-06 22:29:45.93	110.51	2.64	-46.6	-61.9	3.6	1.51e+00	0	33	104	0	60	44811
2026-01-06 22:29:46.94	110.46	2.71	-46.6	-62.0	3.6	1.51e+00	0	33	104	0	60	45475
2026-01-06 22:29:47.95	110.40	2.77	-46.6	-62.0	3.6	1.51e+00	0	33	104	0	60	45395
2026-01-06 22:29:48.96	110.35	2.83	-46.6	-61.9	3.6	1.51e+00	0	33	104	0	60	45232
2026-01-06 22:29:49.97	110.30	2.89	-46.6	-61.8	3.6	1.51e+00	0	33	104	0	60	44478
2026-01-06 22:29:50.98	110.25	2.95	-46.6	-61.6	3.6	1.51e+00	0	33	104	0	60	43673
2026-01-06 22:29:51.99	110.19	3.02	-46.6	-61.7	3.6	1.51e+00	0	33	104	0	60	43999
2026-01-06 22:29:53.00	110.14	3.08	-46.6	-61.8	3.6	1.51e+00	0	33	104	0	60	44545
2026-01-06 22:29:54.01	110.09	3.14	-46.6	-61.6	3.6	1.51e+00	0	33	104	0	60	43273
2026-01-06 22:29:55.02	110.03	3.20	-46.5	-60.0	3.6	1.51e+00	0	33	104	0	60	36207
2026-01-06 22:29:56.03	109.98	3.27	-46.3	-57.2	4.5	1.44e+00	92	33	104	0	60	26088
2026-01-06 22:29:57.04	109.92	3.33	-46.0	-53.4	6.4	6.46e-01	0	33	0	1048576	60	16918
2026-01-06 22:29:58.05	109.87	3.39	-45.6	-51.8	8.4	9.11e-02	92	33	0	3145728	60	14052
2026-01-06 22:29:59.06	109.81	3.46	-45.2	-50.5	9.8	1.85e-02	0	33	0	5242880	60	12111
2026-01-06 22:30:00.07	109.76	3.52	-46.8	-61.4	3.6	9.17e-01	0	33	104	5242880	60	42329
2026-01-06 22:30:01.08	109.70	3.58	-44.8	-49.3	12.1	5.61e-01	0	33	104	5242880	60	10586
2026-01-06 22:30:02.09	109.65	3.65	-46.2	-61.5	3.6	7.43e-01	0	33	104	5242880	60	42964
2026-01-06 22:30:03.10	109.59	3.71	-46.6	-62.3	3.6	1.51e+00	0	33	104	5242880	60	47254
2026-01-06 22:30:04.11	109.54	3.77	-44.8	-49.6	11.2	5.95e-01	7	33	104	5242880	60	10951
2026-01-06 22:30:05.12	109.48	3.84	-44.3	-48.3	12.4	3.46e-04	55	33	0	6291456	60	9379
2026-01-06 22:30:06.13	109.42	3.90	-44.6	-48.9	12.5	3.61e-04	0	33	0	7340032	60	10118
2026-01-06 22:30:07.14	109.37	3.96	-44.5	-48.7	12.1	1.71e-04	88	33	0	9437184	60	9844
2026-01-06 22:30:08.15	109.31	4.03	-44.2	-48.2	12.2	1.41e-04	0	33	0	11534336	60	9326
2026-01-06 22:30:09.16	109.25	4.09	-44.5	-48.8	12.2	2.27e-04	92	33	0	13631488	60	9914
2026-01-06 22:30:10.17	109.19	4.16	-44.5	-48.7	12.2	2.62e-04	3	33	0	15728640	60	9877
2026-01-06 22:30:11.18	109.14	4.22	-44.7	-49.1	11.9	1.67e-04	92	33	0	16777216	60	10358
2026-01-06 22:30:12.19	109.08	4.29	-44.5	-48.7	12.4	4.34e-05	90	33	0	18874368	60	9874
2026-01-06 22:30:13.19	109.02	4.35	-44.3	-48.3	12.7	6.33e-05	22	33	0	20971520	60	9386
2026-01-06 22:30:14.21	108.96	4.42	-44.5	-48.6	12.5	5.79e-05	92	33	0	23068672	60	9735
2026-01-06 22:30:15.21	108.90	4.48	-44.3	-48.1	13.7	1.60e-05	0	33	0	25165824	60	9141
2026-01-06 22:30:16.22	108.84	4.55	-43.1	-45.9	15.7	7.00e-07	92	33	0	26214400	60	7120
2026-01-06 22:30:17.23	108.78	4.61	-42.1	-44.3	17.2	0.00e+00	46	33	0	28311552	58	6644
2026-01-06 22:30:18.25	108.72	4.68	-41.7	-43.5	18.2	0.00e+00	92	33	0	30408704	56	6799
2026-01-06 22:30:19.25	108.66	4.74	-41.3	-42.9	18.7	0.00e+00	92	33	0	32505856	56	6373
2026-01-06 22:30:20.26	108.60	4.81	-41.3	-42.9	18.9	0.00e+00	0	33	0	34603008	56	6327
2026-01-06 22:30:21.27	108.54	4.88	-41.0	-42.5	19.0	0.00e+00	73	33	0	36700160	56	6088
2026-01-06 22:30:22.28	108.48	4.94	-41.0	-42.5	19.1	0.00e+00	0	33	0	37748736	56	6071
2026-01-06 22:30:23.29	108.42	5.01	-41.0	-42.5	19.0	0.00e+00	92	33	0	39845888	56	6081
2026-01-06 22:30:24.30	108.36	5.07	-41.1	-42.6	18.9	0.00e+00	9	33	0	41943040	56	6170
2026-01-06 22:30:25.31	108.29	5.14	-41.1	-42.8	18.9	0.00e+00	92	33	0	44040192	56	6253
2026-01-06 22:30:26.31	108.23	5.21	-41.1	-42.7	18.9	0.00e+00	92	33	0	46137344	56	6242
2026-01-06 22:30:27.33	108.17	5.27	-41.0	-42.6	19.1	0.00e+00	0	33	0	47185920	56	6154
2026-01-06 22:30:28.33	108.11	5.34	-40.9	-42.6	19.1	0.00e+00	92	33	0	49283072	56	6140
2026-01-06 22:30:29.34	108.04	5.41	-40.6	-42.3	19.4	0.00e+00	0	33	0	51380224	54	6640
2026-01-06 22:30:30.35	107.98	5.47	-40.4	-42.0	19.6	0.00e+00	92	33	0	53477376	54	6448
2026-01-06 22:30:31.36	107.92	5.54	-40.4	-42.0	19.6	0.00e+00	0	33	0	55574528	54	6403
2026-01-06 22:30:32.37	107.85	5.61	-40.4	-41.9	19.8	0.00e+00	90	33	0	56623104	54	6365
2026-01-06 22:30:33.38	107.79	5.68	-40.6	-42.1	19.6	0.00e+00	92	33	0	58720256	54	6535
2026-01-06 22:30:34.39	107.72	5.74	-40.4	-42.0	19.6	0.00e+00	0	33	0	60817408	54	6416
2026-01-06 22:30:35.40	107.66	5.81	-40.3	-41.9	19.8	0.00e+00	92	33	0	62914560	54	6333
2026-01-06 22:30:36.42	107.59	5.88	-40.4	-41.9	19.8	0.00e+00	0	33	0	65011712	54	6337
2026-01-06 22:30:37.43	107.53	5.95	-40.6	-42.2	19.6	0.00e+00	80	33	0	66060288	54	6548
2026-01-06 22:30:38.44	107.46	6.02	-40.6	-42.3	19.5	0.00e+00	0	33	0	68157440	54	6625
2026-01-06 22:30:39.45	107.39	6.09	-40.7	-42.3	19.4	0.00e+00	92	33	0	70254592	54	6692
2026-01-06 22:30:40.45	107.33	6.15	-40.5	-42.1	19.6	0.00e+00	92	33	0	72351744	54	6500
2026-01-06 22:30:41.46	107.26	6.22	-40.3	-41.8	19.9	0.00e+00	0	33	0	74448896	54	6288
2026-01-06 22:30:42.48	107.19	6.29	-40.0	-41.5	20.2	0.00e+00	90	33	0	75497472	54	6036
2026-01-06 22:30:43.48	107.13	6.36	-39.9	-41.3	20.4	0.00e+00	0	33	0	77594624	52	6692
2026-01-06 22:30:44.50	107.06	6.43	-39.9	-41.2	20.4	0.00e+00	70	33	0	79691776	52	6599
2026-01-06 22:30:45.51	106.99	6.50	-39.8	-41.1	20.6	0.00e+00	0	33	0	81788928	52	6503
2026-01-06 22:30:46.52	106.92	6.57	-39.9	-41.2	20.4	0.00e+00	92	33	0	83886080	52	6603
2026-01-06 22:30:47.53	106.85	6.64	-40.1	-41.5	20.3	0.00e+00	92	33	0	84934656	52	6792
2026-01-06 22:30:48.54	106.78	6.71	-40.2	-41.6	20.0	0.00e+00	0	33	0	87031808	52	6861
2026-01-06 22:30:49.55	106.71	6.78	-40.4	-41.9	19.9	0.00e+00	92	33	0	89128960	52	7098
2026-01-06 22:30:50.56	106.64	6.85	-40.7	-42.2	19.5	0.00e+00	20	33	0	91226112	52	7419
2026-01-06 22:30:51.57	106.57	6.92	-40.8	-42.3	19.6	0.00e+00	92	34	0	93323264	54	6643
2026-01-06 22:30:52.58	106.50	6.99	-40.5	-42.0	19.7	0.00e+00	0	33	0	94371840	54	6428
2026-01-06 22:30:53.59	106.43	7.06	-40.3	-41.7	20.0	0.00e+00	92	34	0	96468992	54	6186
2026-01-06 22:30:54.60	106.36	7.13	-40.5	-41.9	19.9	0.00e+00	18	33	0	98566144	54	6320
2026-01-06 22:30:55.61	106.29	7.20	-40.2	-41.5	20.0	0.00e+00	92	34	0	100663296	54	6078
2026-01-06 22:30:56.62	106.21	7.27	-40.2	-41.5	20.3	0.00e+00	92	33	0	102760448	54	6076
2026-01-06 22:30:57.63	106.14	7.34	-40.0	-41.3	20.4	0.00e+00	0	34	0	104857600	54	5935
2026-01-06 22:30:58.64	106.07	7.41	-40.3	-41.6	20.2	0.00e+00	90	33	0	105906176	54	6156
2026-01-06 22:30:59.65	106.00	7.48	-40.3	-41.6	20.2	0.00e+00	0	33	0	108003328	54	6126
2026-01-06 22:31:00.66	105.92	7.56	-40.3	-41.6	20.1	0.00e+00	92	34	0	110100480	54	6165
2026-01-06 22:31:01.67	105.85	7.63	-40.4	-41.7	20.1	0.00e+00	83	33	0	112197632	54	6240
2026-01-06 22:31:02.67	105.77	7.70	-40.4	-41.8	20.0	0.00e+00	92	33	0	114294784	54	6278
2026-01-06 22:31:03.69	105.70	7.77	-40.8	-42.3	19.6	0.00e+00	92	33	0	115343360	54	6664
2026-01-06 22:31:04.69	105.62	7.84	-40.5	-41.9	20.0	0.00e+00	0	34	0	117440512	54	6322
2026-01-06 22:31:05.71	105.55	7.92	-40.4	-41.7	20.1	0.00e+00	87	33	0	119537664	54	6242
2026-01-06 22:31:06.71	105.47	7.99	-40.3	-41.6	20.3	0.00e+00	0	33	0	121634816	54	6127
2026-01-06 22:31:07.72	105.40	8.06	-40.2	-41.5	20.3	0.00e+00	92	34	0	123731968	54	6071
2026-01-06 22:31:08.73	105.32	8.13	-40.2	-41.5	20.3	0.00e+00	0	33	0	124780544	54	6037
2026-01-06 22:31:09.74	105.24	8.21	-40.2	-41.5	20.5	0.00e+00	92	33	0	126877696	54	6039
2026-01-06 22:31:10.75	105.17	8.28	-40.1	-41.4	20.5	0.00e+00	92	34	0	128974848	54	5976
2026-01-06 22:31:11.76	105.09	8.35	-40.4	-41.8	20.3	0.00e+00	0	34	0	131072000	54	6265
2026-01-06 22:31:12.77	105.01	8.43	-40.2	-41.5	20.4	0.00e+00	90	34	0	133169152	54	6058
2026-01-06 22:31:13.78	104.93	8.50	-40.2	-41.5	20.5	0.00e+00	0	33	0	134217728	54	6060
2026-01-06 22:31:14.79	104.85	8.57	-40.1	-41.4	20.5	0.00e+00	92	33	0	136314880	54	6031
2026-01-06 22:31:15.80	104.77	8.65	-40.2	-41.5	20.5	0.00e+00	0	33	0	138412032	54	6062
2026-01-06 22:31:16.80	104.69	8.72	-40.1	-41.4	20.5	0.00e+00	92	33	0	140509184	54	6000
2026-01-06 22:31:17.81	104.61	8.79	-39.9	-41.1	20.8	0.00e+00	90	34	0	142606336	54	5800
2026-01-06 22:31:18.82	104.53	8.87	-39.8	-41.0	20.9	0.00e+00	66	34	0	143654912	52	6408
2026-01-06 22:31:19.83	104.45	8.94	-39.8	-41.1	20.8	0.00e+00	92	34	0	145752064	52	6479
2026-01-06 22:31:20.84	104.37	9.02	-39.6	-40.8	21.0	0.00e+00	0	34	0	147849216	52	6278
2026-01-06 22:31:21.85	104.29	9.09	-39.7	-41.0	21.0	0.00e+00	92	34	0	149946368	52	6400
2026-01-06 22:31:22.86	104.20	9.17	-39.7	-41.0	20.9	0.00e+00	0	34	0	152043520	52	6410
2026-01-06 22:31:23.87	104.12	9.24	-39.7	-41.1	20.8	0.00e+00	92	34	0	153092096	52	6525
2026-01-06 22:31:24.88	104.04	9.32	-39.7	-41.1	20.7	0.00e+00	24	33	0	155189248	52	6523
2026-01-06 22:31:25.89	103.95	9.39	-39.8	-41.2	20.7	0.00e+00	92	33	0	157286400	52	6590
2026-01-06 22:31:26.90	103.87	9.47	-39.6	-40.9	21.0	0.00e+00	92	34	0	159383552	52	6351
2026-01-06 22:31:27.91	103.78	9.55	-39.6	-40.9	21.1	0.00e+00	0	34	0	161480704	52	6366
2026-01-06 22:31:28.92	103.70	9.62	-39.7	-40.9	20.9	0.00e+00	92	34	0	162529280	52	6370
2026-01-06 22:31:29.93	103.61	9.70	-39.2	-40.4	21.6	0.00e+00	0	34	0	164626432	52	5983
2026-01-06 22:31:30.94	103.53	9.77	-39.2	-40.3	21.6	0.00e+00	92	34	0	166723584	52	5919
2026-01-06 22:31:31.94	103.44	9.85	-39.1	-40.2	21.6	0.00e+00	0	34	0	168820736	52	5876
2026-01-06 22:31:32.95	103.35	9.93	-39.2	-40.3	21.4	0.00e+00	92	33	0	170917888	52	5945
2026-01-06 22:31:33.96	103.27	10.00	-39.2	-40.3	21.5	0.00e+00	92	34	0	173015040	52	5946
2026-01-06 22:31:34.97	103.18	10.08	-39.4	-40.6	21.3	0.00e+00	0	34	0	174063616	52	6155
2026-01-06 22:31:35.98	103.09	10.16	-39.4	-40.6	21.2	0.00e+00	92	34	0	176160768	52	6121
2026-01-06 22:31:36.99	103.00	10.24	-39.2	-40.4	21.5	0.00e+00	0	34	0	178257920	52	6011
2026-01-06 22:31:38.00	102.91	10.31	-39.4	-40.6	21.2	0.00e+00	92	34	0	180355072	52	6142
2026-01-06 22:31:39.01	102.82	10.39	-39.6	-40.8	21.2	0.00e+00	0	34	0	182452224	52	6271
2026-01-06 22:31:40.02	102.73	10.47	-39.5	-40.7	21.2	0.00e+00	92	34	0	183500800	52	6228
2026-01-06 22:31:41.03	102.64	10.55	-39.6	-40.8	21.2	0.00e+00	92	34	0	185597952	52	6287
2026-01-06 22:31:42.04	102.55	10.63	-39.2	-40.3	21.6	0.00e+00	0	34	0	187695104	52	5911
2026-01-06 22:31:43.05	102.45	10.70	-39.3	-40.4	21.5	0.00e+00	92	33	0	189792256	52	5992
2026-01-06 22:31:44.06	102.36	10.78	-39.2	-40.3	21.5	0.00e+00	0	33	0	191889408	52	5964
2026-01-06 22:31:45.07	102.27	10.86	-39.2	-40.3	21.7	0.00e+00	92	33	0	192937984	52	5919
2026-01-06 22:31:46.07	102.18	10.94	-39.1	-40.2	21.8	0.00e+00	0	34	0	195035136	52	5883
2026-01-06 22:31:47.08	102.08	11.02	-39.2	-40.3	21.7	0.00e+00	90	34	0	197132288	52	5907
2026-01-06 22:31:48.09	101.99	11.10	-39.2	-40.3	21.5	0.00e+00	85	34	0	199229440	52	5925
2026-01-06 22:31:49.10	101.89	11.18	-39.2	-40.3	21.6	0.00e+00	0	33	0	201326592	52	5958
2026-01-06 22:31:50.11	101.80	11.26	-39.4	-40.6	21.3	0.00e+00	92	34	0	202375168	52	6148
2026-01-06 22:31:51.12	101.70	11.34	-39.4	-40.6	21.3	0.00e+00	0	34	0	204472320	52	6148
2026-01-06 22:31:52.13	101.60	11.42	-39.2	-40.3	21.6	0.00e+00	92	34	0	206569472	52	5960
2026-01-06 22:31:53.14	101.51	11.50	-39.0	-40.1	21.9	0.00e+00	0	33	0	208666624	52	5799
2026-01-06 22:31:54.15	101.41	11.58	-39.2	-40.3	21.7	0.00e+00	90	33	0	210763776	52	5912
2026-01-06 22:31:55.16	101.31	11.66	-38.8	-39.8	22.1	0.00e+00	92	33	0	211812352	52	5625
2026-01-06 22:31:56.17	101.21	11.74	-38.8	-39.8	22.0	0.00e+00	41	33	0	213909504	50	6309
2026-01-06 22:31:57.18	101.11	11.82	-38.9	-40.0	21.8	0.00e+00	92	34	0	216006656	50	6422
2026-01-06 22:31:58.19	101.01	11.90	-38.9	-40.0	22.0	0.00e+00	0	34	0	218103808	50	6401
2026-01-06 22:31:59.20	100.91	11.98	-38.7	-39.8	22.1	0.00e+00	92	34	0	220200960	50	6274
2026-01-06 22:32:00.21	100.81	12.07	-38.9	-40.0	21.7	0.00e+00	0	34	0	221249536	50	6444
2026-01-06 22:32:01.22	100.71	12.15	-38.9	-40.0	22.0	0.00e+00	92	34	0	223346688	50	6438
2026-01-06 22:32:02.23	100.60	12.23	-38.9	-40.0	22.1	0.00e+00	90	34	0	225443840	50	6393
2026-01-06 22:32:03.24	100.50	12.31	-38.8	-39.9	22.1	0.00e+00	92	34	0	227540992	50	6331
2026-01-06 22:32:04.25	100.40	12.39	-38.9	-40.0	21.8	0.00e+00	92	34	0	229638144	50	6424
2026-01-06 22:32:05.26	100.29	12.48	-39.0	-40.1	21.8	0.00e+00	0	34	0	230686720	50	6475
2026-01-06 22:32:06.27	100.19	12.56	-38.8	-39.9	22.0	0.00e+00	83	34	0	232783872	50	6347
2026-01-06 22:32:07.28	100.08	12.64	-39.1	-40.2	21.8	0.00e+00	0	34	0	234881024	50	6558
2026-01-06 22:32:08.29	99.98	12.72	-39.1	-40.2	21.8	0.00e+00	92	34	0	236978176	50	6549
2026-01-06 22:32:09.30	99.87	12.81	-39.1	-40.3	21.8	0.00e+00	46	34	0	239075328	50	6622
2026-01-06 22:32:10.31	99.76	12.89	-38.9	-40.0	21.9	0.00e+00	92	34	0	241172480	50	6399
2026-01-06 22:32:11.32	99.66	12.97	-39.1	-40.2	21.8	0.00e+00	90	34	0	242221056	50	6601
2026-01-06 22:32:12.33	99.55	13.06	-39.2	-40.3	21.8	0.00e+00	0	34	0	244318208	50	6628
2026-01-06 22:32:13.34	99.44	13.14	-39.4	-40.5	21.5	0.00e+00	92	34	0	246415360	50	6807
2026-01-06 22:32:14.34	99.33	13.23	-39.3	-40.4	21.5	0.00e+00	0	34	0	248512512	50	6743
2026-01-06 22:32:15.35	99.22	13.31	-39.4	-40.6	21.4	0.00e+00	90	33	0	249561088	50	6878
2026-01-06 22:32:16.36	99.11	13.39	-39.3	-40.4	21.5	0.00e+00	26	34	0	251658240	50	6734
2026-01-06 22:32:17.37	99.00	13.48	-39.3	-40.4	21.6	0.00e+00	92	34	0	253755392	50	6764
2026-01-06 22:32:18.38	98.88	13.56	-39.1	-40.1	21.8	0.00e+00	92	34	0	255852544	50	6519
2026-01-06 22:32:19.39	98.77	13.65	-39.2	-40.3	21.7	0.00e+00	0	34	0	257949696	50	6643
2026-01-06 22:32:20.40	98.66	13.73	-39.0	-40.0	22.0	0.00e+00	92	34	0	258998272	50	6450
2026-01-06 22:32:21.41	98.54	13.82	-39.0	-40.1	21.9	0.00e+00	0	34	0	261095424	50	6517
2026-01-06 22:32:22.42	98.43	13.91	-39.0	-40.0	21.9	0.00e+00	92	34	0	263192576	50	6443
2026-01-06 22:32:23.43	98.31	13.99	-39.0	-40.0	22.1	0.00e+00	0	34	0	265289728	50	6459
2026-01-06 22:32:24.44	98.20	14.08	-39.2	-40.3	21.7	0.00e+00	92	34	0	267386880	50	6632
2026-01-06 22:32:25.45	98.08	14.16	-39.5	-40.7	21.5	0.00e+00	92	34	0	269484032	50	6938
2026-01-06 22:32:26.46	97.96	14.25	-39.1	-40.2	21.9	0.00e+00	0	34	0	270532608	50	6544
2026-01-06 22:32:27.47	97.84	14.34	-39.4	-40.6	21.6	0.00e+00	91	34	0	272629760	50	6851
2026-01-06 22:32:28.48	97.72	14.42	-39.3	-40.5	21.6	0.00e+00	0	34	0	274726912	50	6784
2026-01-06 22:32:29.49	97.60	14.51	-39.0	-40.1	22.0	0.00e+00	91	34	0	276824064	50	6473
2026-01-06 22:32:30.50	97.48	14.60	-38.7	-39.7	22.2	0.00e+00	0	33	0	278921216	50	6235
2026-01-06 22:32:31.51	97.36	14.68	-38.5	-39.5	22.7	0.00e+00	91	34	0	279969792	50	6079
2026-01-06 22:32:32.52	97.24	14.77	-38.3	-39.3	22.5	0.00e+00	92	34	0	282066944	50	5897
2026-01-06 22:32:33.53	97.12	14.86	-38.4	-39.4	22.4	0.00e+00	56	34	0	284164096	50	5993
2026-01-06 22:32:34.54	96.99	14.95	-38.2	-39.2	22.5	0.00e+00	92	34	0	286261248	50	5867
2026-01-06 22:32:35.55	96.87	15.04	-38.5	-39.6	22.3	0.00e+00	0	34	0	288358400	50	6133
2026-01-06 22:32:36.56	96.74	15.12	-38.8	-39.9	22.1	0.00e+00	92	34	0	289406976	50	6324
2026-01-06 22:32:37.57	96.62	15.21	-38.8	-39.9	22.1	0.00e+00	0	34	0	291504128	50	6328
2026-01-06 22:32:38.58	96.49	15.30	-38.8	-39.9	22.2	0.00e+00	92	34	0	293601280	50	6318
2026-01-06 22:32:39.59	96.36	15.39	-38.4	-39.4	22.7	0.00e+00	92	34	0	295698432	50	6018
2026-01-06 22:32:40.60	96.24	15.48	-38.4	-39.4	22.5	0.00e+00	92	34	0	297795584	50	5991
2026-01-06 22:32:41.61	96.11	15.57	-38.5	-39.5	22.4	0.00e+00	92	34	0	298844160	50	6098
2026-01-06 22:32:42.62	95.98	15.66	-38.7	-39.7	22.2	0.00e+00	0	34	0	300941312	50	6243
2026-01-06 22:32:43.63	95.85	15.75	-39.2	-40.4	21.7	0.00e+00	92	34	0	303038464	50	6744
2026-01-06 22:32:44.63	95.72	15.83	-39.4	-40.6	21.5	0.00e+00	0	34	0	305135616	50	6860
2026-01-06 22:32:45.64	95.58	15.92	-39.4	-40.5	21.5	0.00e+00	90	34	0	307232768	50	6835
2026-01-06 22:32:46.65	95.45	16.01	-39.5	-40.6	21.4	0.00e+00	0	34	0	308281344	50	6909
2026-01-06 22:32:47.66	95.32	16.10	-38.8	-39.8	22.2	0.00e+00	91	34	0	310378496	50	6299
2026-01-06 22:32:48.67	95.18	16.19	-39.2	-40.3	21.7	0.00e+00	92	34	0	312475648	50	6678
2026-01-06 22:32:49.68	95.05	16.29	-39.3	-40.4	21.7	0.00e+00	0	34	0	314572800	50	6733
2026-01-06 22:32:50.69	94.91	16.38	-39.3	-40.5	21.6	0.00e+00	76	34	0	316669952	50	6788
2026-01-06 22:32:51.70	94.77	16.47	-39.6	-40.7	21.4	0.00e+00	0	34	0	317718528	50	6988
2026-01-06 22:32:52.71	94.64	16.56	-39.7	-40.8	21.3	0.00e+00	91	33	0	319815680	52	6315
2026-01-06 22:32:53.72	94.50	16.65	-39.8	-41.0	21.1	0.00e+00	25	34	0	321912832	52	6437
2026-01-06 22:32:54.73	94.36	16.74	-39.6	-40.8	21.4	0.00e+00	90	34	0	324009984	52	6258
2026-01-06 22:32:55.74	94.22	16.83	-38.9	-39.9	22.2	0.00e+00	92	34	0	326107136	52	5655
2026-01-06 22:32:56.75	94.08	16.92	-39.0	-40.0	21.8	0.00e+00	0	34	0	327155712	52	5752
2026-01-06 22:32:57.76	93.93	17.01	-39.1	-40.2	21.9	0.00e+00	92	34	0	329252864	52	5857
2026-01-06 22:32:58.77	93.79	17.11	-39.1	-40.2	21.6	0.00e+00	0	34	0	331350016	50	6594
2026-01-06 22:32:59.78	93.65	17.20	-39.2	-40.3	21.8	0.00e+00	91	34	0	333447168	50	6646
2026-01-06 22:33:00.79	93.50	17.29	-39.3	-40.5	21.8	0.00e+00	0	34	0	335544320	50	6807
2026-01-06 22:33:01.80	93.36	17.38	-39.1	-40.2	21.9	0.00e+00	91	34	0	337641472	50	6562
2026-01-06 22:33:02.81	93.21	17.48	-38.8	-39.9	22.1	0.00e+00	92	34	0	338690048	50	6337
2026-01-06 22:33:03.81	93.06	17.57	-38.3	-39.3	22.6	0.00e+00	0	34	0	340787200	50	5924
2026-01-06 22:33:04.82	92.91	17.66	-38.4	-39.4	22.5	0.00e+00	62	34	0	342884352	50	6002
2026-01-06 22:33:05.83	92.76	17.75	-38.4	-39.4	22.6	0.00e+00	0	34	0	344981504	50	6007
2026-01-06 22:33:06.84	92.61	17.85	-38.4	-39.3	22.6	0.00e+00	92	34	0	347078656	50	5961
2026-01-06 22:33:07.85	92.46	17.94	-38.3	-39.3	22.7	0.00e+00	0	34	0	348127232	50	5921
2026-01-06 22:33:08.86	92.31	18.03	-38.3	-39.3	22.8	0.00e+00	92	34	0	350224384	50	5940
2026-01-06 22:33:09.87	92.16	18.13	-38.1	-39.1	22.8	0.00e+00	25	34	0	352321536	50	5795
2026-01-06 22:33:10.88	92.00	18.22	-38.2	-39.2	22.7	0.00e+00	36	34	0	354418688	50	5873
2026-01-06 22:33:11.89	91.85	18.32	-38.1	-39.1	22.7	0.00e+00	92	34	0	356515840	50	5765
2026-01-06 22:33:12.90	91.69	18.41	-38.2	-39.1	22.8	0.00e+00	0	34	0	357564416	50	5827
2026-01-06 22:33:13.91	91.53	18.50	-38.0	-39.0	22.9	0.00e+00	92	34	0	359661568	50	5696
2026-01-06 22:33:14.92	91.38	18.60	-38.0	-39.0	22.9	0.00e+00	0	34	0	361758720	50	5722
2026-01-06 22:33:15.93	91.22	18.69	-38.2	-39.1	22.7	0.00e+00	92	34	0	363855872	50	5818
2026-01-06 22:33:16.94	91.06	18.79	-38.5	-39.5	22.6	0.00e+00	27	34	0	365953024	50	6048
2026-01-06 22:33:17.95	90.90	18.88	-38.5	-39.5	22.4	0.00e+00	92	34	0	367001600	50	6049
2026-01-06 22:33:18.96	90.73	18.98	-38.4	-39.4	22.5	0.00e+00	92	34	0	369098752	50	6013
2026-01-06 22:33:19.97	90.57	19.07	-38.8	-39.9	22.2	0.00e+00	0	34	0	371195904	50	6335
2026-01-06 22:33:20.98	90.41	19.17	-38.7	-39.8	22.3	0.00e+00	92	34	0	373293056	50	6261
2026-01-06 22:33:21.99	90.24	19.26	-38.9	-39.9	22.2	0.00e+00	0	34	0	375390208	50	6388
2026-01-06 22:33:23.00	90.07	19.36	-38.9	-40.0	22.1	0.00e+00	92	34	0	376438784	50	6435
2026-01-06 22:33:24.01	89.91	19.45	-38.6	-39.6	22.4	0.00e+00	0	34	0	378535936	50	6152
2026-01-06 22:33:25.02	89.74	19.55	-38.6	-39.6	22.5	0.00e+00	90	34	0	380633088	50	6152
2026-01-06 22:33:26.02	89.57	19.64	-38.6	-39.6	22.4	0.00e+00	92	34	0	382730240	50	6148
2026-01-06 22:33:27.03	89.40	19.74	-38.9	-39.9	22.2	0.00e+00	0	34	0	384827392	50	6388
2026-01-06 22:33:28.04	89.23	19.83	-38.9	-39.9	22.3	0.00e+00	92	34	0	385875968	50	6351
2026-01-06 22:33:29.05	89.06	19.93	-38.7	-39.6	22.5	0.00e+00	0	34	0	387973120	50	6173
2026-01-06 22:33:30.06	88.88	20.03	-38.5	-39.4	22.5	0.00e+00	84	34	0	390070272	50	6027
2026-01-06 22:33:31.07	88.71	20.12	-38.5	-39.5	22.5	0.00e+00	0	34	0	392167424	50	6080
2026-01-06 22:33:32.08	88.53	20.22	-38.4	-39.3	22.8	0.00e+00	90	34	0	394264576	50	5941
2026-01-06 22:33:33.09	88.35	20.31	-37.8	-38.7	23.2	0.00e+00	91	34	0	395313152	50	5511
2026-01-06 22:33:34.10	88.18	20.41	-37.5	-38.3	23.4	0.00e+00	0	34	0	397410304	48	5960
2026-01-06 22:33:35.11	88.00	20.51	-37.5	-38.4	23.3	0.00e+00	86	34	0	399507456	48	5995
2026-01-06 22:33:36.12	87.81	20.60	-37.2	-38.0	23.3	0.00e+00	0	34	0	401604608	48	5727
2026-01-06 22:33:37.13	87.63	20.70	-37.4	-38.3	23.4	0.00e+00	87	34	0	403701760	48	5902
2026-01-06 22:33:38.14	87.45	20.80	-37.6	-38.5	23.2	0.00e+00	12	34	0	405798912	48	6060
2026-01-06 22:33:39.15	87.27	20.89	-38.0	-38.9	23.0	0.00e+00	92	34	0	406847488	48	6360
2026-01-06 22:33:40.16	87.08	20.99	-38.2	-39.1	22.9	0.00e+00	91	34	0	408944640	48	6532
2026-01-06 22:33:41.17	86.89	21.09	-38.2	-39.1	22.7	0.00e+00	20	34	0	411041792	48	6518
2026-01-06 22:33:42.18	86.71	21.18	-38.4	-39.4	22.6	0.00e+00	92	34	0	413138944	48	6710
2026-01-06 22:33:43.19	86.52	21.28	-38.6	-39.6	22.4	0.00e+00	0	34	0	415236096	48	6915
2026-01-06 22:33:44.20	86.33	21.38	-38.6	-39.6	22.4	0.00e+00	92	34	0	416284672	48	6882
2026-01-06 22:33:45.21	86.14	21.47	-38.8	-39.8	22.4	0.00e+00	0	34	0	418381824	50	6283
2026-01-06 22:33:46.22	85.94	21.57	-38.6	-39.7	22.5	0.00e+00	91	34	0	420478976	50	6174
2026-01-06 22:33:47.23	85.75	21.67	-38.5	-39.5	22.5	0.00e+00	90	34	0	422576128	50	6072
2026-01-06 22:33:48.24	85.56	21.76	-38.1	-39.1	23.0	0.00e+00	3	34	0	424673280	50	5767
2026-01-06 22:33:49.25	85.36	21.86	-38.0	-38.9	23.0	0.00e+00	70	34	0	425721856	50	5686
2026-01-06 22:33:50.26	85.16	21.96	-38.0	-38.9	23.1	0.00e+00	0	34	0	427819008	50	5690
2026-01-06 22:33:51.27	84.96	22.06	-38.2	-39.2	22.8	0.00e+00	91	34	0	429916160	50	5829
2026-01-06 22:33:52.28	84.76	22.15	-38.4	-39.4	22.6	0.00e+00	0	34	0	432013312	50	5975
2026-01-06 22:33:53.29	84.56	22.25	-38.2	-39.1	22.8	0.00e+00	91	34	0	434110464	50	5819
2026-01-06 22:33:54.29	84.36	22.35	-38.3	-39.2	22.7	0.00e+00	92	34	0	435159040	50	5888
2026-01-06 22:33:55.30	84.16	22.44	-38.2	-39.2	22.8	0.00e+00	0	34	0	437256192	50	5870
2026-01-06 22:33:56.31	83.95	22.54	-37.9	-38.9	23.0	0.00e+00	92	34	0	439353344	50	5642
2026-01-06 22:33:57.32	83.75	22.64	-38.3	-39.3	22.7	0.00e+00	0	34	0	441450496	50	5905
2026-01-06 22:33:58.33	83.54	22.73	-38.5	-39.5	22.5	0.00e+00	71	34	0	443547648	50	6055
2026-01-06 22:33:59.34	83.33	22.83	-38.5	-39.5	22.7	0.00e+00	0	34	0	444596224	50	6066
2026-01-06 22:34:00.35	83.12	22.93	-38.4	-39.4	22.6	0.00e+00	92	34	0	446693376	50	6011
2026-01-06 22:34:01.36	82.91	23.02	-38.1	-39.0	22.9	0.00e+00	91	34	0	448790528	50	5760
2026-01-06 22:34:02.37	82.70	23.12	-38.5	-39.5	22.6	0.00e+00	19	34	0	450887680	50	6052
2026-01-06 22:34:03.38	82.48	23.22	-38.2	-39.2	22.8	0.00e+00	92	34	0	452984832	50	5874
2026-01-06 22:34:04.39	82.27	23.31	-38.3	-39.3	22.8	0.00e+00	0	34	0	454033408	50	5928
2026-01-06 22:34:05.39	82.05	23.41	-38.2	-39.1	22.7	0.00e+00	45	34	0	456130560	50	5826
2026-01-06 22:34:06.40	81.83	23.50	-38.7	-39.7	22.4	0.00e+00	0	34	0	458227712	50	6234
2026-01-06 22:34:07.42	81.61	23.60	-38.8	-39.9	22.2	0.00e+00	91	34	0	460324864	50	6329
2026-01-06 22:34:08.43	81.39	23.70	-38.9	-39.9	22.2	0.00e+00	0	34	0	462422016	50	6361
2026-01-06 22:34:09.43	81.17	23.79	-39.1	-40.2	22.0	0.00e+00	69	34	0	463470592	50	6584
2026-01-06 22:34:10.45	80.94	23.89	-38.8	-39.9	22.3	0.00e+00	92	34	0	465567744	50	6332
2026-01-06 22:34:11.45	80.72	23.98	-38.8	-39.9	22.4	0.00e+00	0	34	0	467664896	50	6349
2026-01-06 22:34:12.46	80.50	24.08	-38.7	-39.7	22.5	0.00e+00	92	34	0	469762048	50	6203
2026-01-06 22:34:13.47	80.27	24.18	-38.2	-39.2	22.9	0.00e+00	0	34	0	471859200	50	5845
2026-01-06 22:34:14.48	80.04	24.27	-37.9	-38.8	23.2	0.00e+00	91	34	0	473956352	50	5596
2026-01-06 22:34:15.49	79.81	24.37	-37.6	-38.5	23.5	0.00e+00	0	34	0	475004928	48	6035
2026-01-06 22:34:16.50	79.58	24.46	-37.4	-38.3	23.5	0.00e+00	92	34	0	477102080	48	5927
2026-01-06 22:34:17.51	79.34	24.56	-37.4	-38.3	23.5	0.00e+00	92	34	0	479199232	48	5908
2026-01-06 22:34:18.52	79.11	24.65	-37.1	-38.0	23.6	0.00e+00	0	34	0	481296384	48	5712
2026-01-06 22:34:19.53	78.87	24.74	-36.8	-37.6	24.1	0.00e+00	68	34	0	483393536	48	5469
2026-01-06 22:34:20.54	78.63	24.84	-36.6	-37.4	24.1	0.00e+00	0	34	0	484442112	46	5998
2026-01-06 22:34:21.55	78.39	24.93	-36.6	-37.4	24.2	0.00e+00	91	34	0	486539264	46	6018
2026-01-06 22:34:22.56	78.15	25.03	-36.5	-37.3	24.4	0.00e+00	0	34	0	488636416	46	5903
2026-01-06 22:34:23.57	77.91	25.12	-36.8	-37.7	24.2	0.00e+00	90	34	0	490733568	46	6178
2026-01-06 22:34:24.58	77.67	25.21	-36.7	-37.5	24.1	0.00e+00	23	34	0	492830720	46	6074
2026-01-06 22:34:25.59	77.42	25.31	-36.8	-37.7	24.1	0.00e+00	0	34	0	493879296	46	6198
2026-01-06 22:34:26.59	77.18	25.40	-36.8	-37.7	24.0	0.00e+00	91	34	0	495976448	46	6186
2026-01-06 22:34:27.60	76.93	25.49	-36.9	-37.7	24.0	0.00e+00	0	34	0	498073600	46	6216
2026-01-06 22:34:28.61	76.68	25.58	-37.2	-38.1	23.8	0.00e+00	92	34	0	500170752	46	6465
2026-01-06 22:34:29.62	76.43	25.68	-37.4	-38.3	23.5	0.00e+00	0	34	0	502267904	46	6678
2026-01-06 22:34:30.63	76.18	25.77	-37.6	-38.6	23.3	0.00e+00	92	34	0	503316480	46	6887
2026-01-06 22:34:31.64	75.93	25.86	-37.8	-38.8	23.2	0.00e+00	16	34	0	505413632	46	7011
2026-01-06 22:34:32.65	75.67	25.95	-37.8	-38.7	23.1	0.00e+00	0	34	0	507510784	48	6238
2026-01-06 22:34:33.66	75.41	26.04	-37.8	-38.8	23.2	0.00e+00	92	34	0	509607936	48	6253
2026-01-06 22:34:34.67	75.16	26.13	-37.5	-38.5	23.4	0.00e+00	0	34	0	511705088	48	6036
2026-01-06 22:34:35.68	74.90	26.22	-37.6	-38.5	23.4	0.00e+00	72	34	0	512753664	48	6094
2026-01-06 22:34:36.69	74.63	26.31	-37.5	-38.4	23.4	0.00e+00	0	34	0	514850816	48	6009
2026-01-06 22:34:37.70	74.37	26.40	-37.4	-38.4	23.5	0.00e+00	92	34	0	516947968	48	5967
2026-01-06 22:34:38.71	74.11	26.49	-37.6	-38.5	23.3	0.00e+00	0	34	0	519045120	48	6051
2026-01-06 22:34:39.72	73.84	26.58	-37.8	-38.7	23.2	0.00e+00	0	34	0	521142272	48	6217
2026-01-06 22:34:40.73	73.58	26.67	-37.9	-38.9	23.2	0.00e+00	90	34	0	522190848	48	6335
2026-01-06 22:34:41.74	73.31	26.75	-37.8	-38.8	23.2	0.00e+00	0	34	0	524288000	48	6274
2026-01-06 22:34:42.75	73.04	26.84	-37.8	-38.8	23.0	0.00e+00	92	34	0	526385152	48	6247
2026-01-06 22:34:43.76	72.77	26.93	-38.0	-39.0	23.1	0.00e+00	0	34	0	528482304	48	6393
2026-01-06 22:34:44.77	72.49	27.02	-38.1	-39.1	23.0	0.00e+00	90	34	0	530579456	48	6519
2026-01-06 22:34:45.78	72.22	27.10	-38.1	-39.1	23.0	0.00e+00	0	34	0	531628032	48	6492
2026-01-06 22:34:46.79	71.94	27.19	-37.6	-38.5	23.4	0.00e+00	0	34	0	533725184	48	6084
2026-01-06 22:34:47.80	71.66	27.27	-37.5	-38.4	23.5	0.00e+00	92	34	0	535822336	48	5971
2026-01-06 22:34:48.81	71.39	27.36	-38.0	-38.9	23.1	0.00e+00	0	34	0	537919488	48	6374
2026-01-06 22:34:49.82	71.10	27.44	-37.8	-38.8	23.2	0.00e+00	91	34	0	540016640	48	6257
2026-01-06 22:34:50.83	70.82	27.53	-37.9	-38.9	23.2	0.00e+00	0	34	0	541065216	48	6340
2026-01-06 22:34:51.84	70.54	27.61	-38.2	-39.2	22.9	0.00e+00	91	34	0	543162368	48	6571
2026-01-06 22:34:52.85	70.25	27.69	-38.4	-39.4	22.2	0.00e+00	28	34	0	545259520	48	6747
2026-01-06 22:34:53.86	69.97	27.77	-39.0	-40.1	22.2	0.00e+00	80	34	0	547356672	50	6507
2026-01-06 22:34:54.86	69.68	27.85	-39.1	-40.2	22.2	0.00e+00	84	34	0	549453824	50	6568
2026-01-06 22:34:55.87	69.39	27.94	-39.0	-40.0	22.3	0.00e+00	0	34	0	551550976	50	6433
2026-01-06 22:34:56.88	69.10	28.02	-38.5	-39.5	22.6	0.00e+00	27	34	0	552599552	50	6075
2026-01-06 22:34:57.89	68.81	28.10	-38.4	-39.4	22.9	0.00e+00	0	34	0	554696704	50	5995
2026-01-06 22:34:58.90	68.52	28.17	-38.7	-39.7	22.5	0.00e+00	90	34	0	556793856	50	6202
2026-01-06 22:34:59.91	68.22	28.25	-38.8	-39.8	22.3	0.00e+00	0	34	0	558891008	50	6313
2026-01-06 22:35:00.92	67.92	28.33	-38.6	-39.6	22.6	0.00e+00	91	34	0	560988160	50	6114
2026-01-06 22:35:01.92	67.63	28.41	-38.6	-39.6	22.6	0.00e+00	92	34	0	562036736	50	6130
2026-01-06 22:35:02.93	67.33	28.48	-38.6	-39.6	22.5	0.00e+00	0	34	0	564133888	50	6137
2026-01-06 22:35:03.94	67.03	28.56	-38.3	-39.3	22.8	0.00e+00	29	34	0	566231040	50	5920
2026-01-06 22:35:04.96	66.72	28.64	-38.3	-39.3	22.8	0.00e+00	0	34	0	568328192	50	5939
2026-01-06 22:35:05.97	66.42	28.71	-38.4	-39.4	22.7	0.00e+00	92	34	0	570425344	50	5984
2026-01-06 22:35:06.97	66.12	28.78	-38.3	-39.3	22.8	0.00e+00	0	34	0	571473920	50	5919
2026-01-06 22:35:07.98	65.81	28.86	-38.5	-39.5	22.6	0.00e+00	92	34	0	573571072	50	6068
2026-01-06 22:35:09.00	65.50	28.93	-38.6	-39.7	22.5	0.00e+00	92	34	0	575668224	50	6192
2026-01-06 22:35:10.00	65.19	29.00	-39.0	-40.1	22.2	0.00e+00	0	34	0	577765376	50	6495
2026-01-06 22:35:11.01	64.88	29.07	-39.2	-40.3	22.2	0.00e+00	14	34	0	579862528	50	6654
2026-01-06 22:35:12.02	64.57	29.14	-38.8	-39.8	22.3	0.00e+00	0	34	0	580911104	50	6287
2026-01-06 22:35:13.03	64.26	29.21	-38.8	-39.8	22.3	0.00e+00	55	34	0	583008256	50	6293
2026-01-06 22:35:14.04	63.94	29.28	-38.5	-39.6	22.5	0.00e+00	0	34	0	585105408	50	6116
2026-01-06 22:35:15.05	63.63	29.35	-38.3	-39.3	22.8	0.00e+00	82	34	0	587202560	50	5944
2026-01-06 22:35:16.06	63.31	29.42	-38.1	-39.0	23.0	0.00e+00	0	34	0	589299712	50	5758
2026-01-06 22:35:17.07	62.99	29.48	-37.9	-38.9	23.2	0.00e+00	0	34	0	590348288	50	5631
2026-01-06 22:35:18.08	62.67	29.55	-37.9	-38.9	23.1	0.00e+00	74	34	0	592445440	48	6319
2026-01-06 22:35:19.09	62.35	29.61	-38.0	-39.0	23.1	0.00e+00	0	34	0	594542592	48	6426
2026-01-06 22:35:20.10	62.03	29.67	-38.0	-39.0	23.1	0.00e+00	7	34	0	596639744	48	6403
2026-01-06 22:35:21.11	61.70	29.74	-37.8	-38.7	23.0	0.00e+00	0	34	0	598736896	48	6239
2026-01-06 22:35:22.12	61.38	29.80	-37.4	-38.3	23.4	0.00e+00	90	34	0	599785472	48	5930
2026-01-06 22:35:23.13	61.05	29.86	-37.6	-38.5	23.4	0.00e+00	26	34	0	601882624	48	6095
2026-01-06 22:35:24.14	60.72	29.92	-38.1	-39.0	23.0	0.00e+00	0	34	0	603979776	48	6449
2026-01-06 22:35:25.15	60.39	29.98	-38.3	-39.2	22.8	0.00e+00	92	34	0	606076928	48	6609
2026-01-06 22:35:26.12	60.08	30.03	-38.6	-39.6	22.5	0.00e+00	0	34	0	608174080	48	6877
2026-01-06 22:35:27.13	59.74	30.09	-38.9	-39.9	22.1	0.00e+00	92	34	0	609222656	50	6363
2026-01-06 22:35:28.14	59.41	30.15	-38.7	-39.8	22.5	0.00e+00	31	34	0	611319808	50	6251
2026-01-06 22:35:29.15	59.08	30.20	-38.6	-39.6	22.5	0.00e+00	80	34	0	613416960	50	6128
2026-01-06 22:35:30.16	58.74	30.26	-38.0	-38.9	23.2	0.00e+00	0	34	0	615514112	50	5642
2026-01-06 22:35:31.17	58.41	30.31	-37.5	-38.3	23.5	0.00e+00	0	34	0	617611264	48	5951
2026-01-06 22:35:32.18	58.07	30.36	-37.6	-38.4	23.5	0.00e+00	92	34	0	619708416	48	6031
2026-01-06 22:35:33.19	57.73	30.41	-37.5	-38.3	23.7	0.00e+00	0	34	0	620756992	48	5946
2026-01-06 22:35:34.20	57.39	30.46	-37.4	-38.3	23.4	0.00e+00	29	34	0	622854144	48	5911
2026-01-06 22:35:35.21	57.05	30.51	-37.5	-38.4	23.6	0.00e+00	19	34	0	624951296	48	5966
2026-01-06 22:35:36.22	56.71	30.56	-37.6	-38.5	23.4	0.00e+00	92	34	0	627048448	48	6039
2026-01-06 22:35:37.23	56.37	30.61	-37.9	-38.8	23.1	0.00e+00	0	34	0	629145600	48	6291
2026-01-06 22:35:38.24	56.03	30.65	-38.1	-39.1	22.9	0.00e+00	92	34	0	630194176	48	6470
2026-01-06 22:35:39.25	55.68	30.70	-38.4	-39.4	22.7	0.00e+00	92	34	0	632291328	48	6733
2026-01-06 22:35:40.26	55.34	30.74	-38.9	-40.0	22.3	0.00e+00	0	34	0	634388480	50	6414
2026-01-06 22:35:41.27	54.99	30.78	-39.5	-40.7	21.8	0.00e+00	30	34	0	636485632	50	6928
2026-01-06 22:35:42.28	54.64	30.83	-40.0	-41.2	21.3	0.00e+00	0	34	0	638582784	52	6603
2026-01-06 22:35:43.29	54.30	30.87	-40.0	-41.2	21.3	0.00e+00	70	34	0	639631360	52	6612
2026-01-06 22:35:44.30	53.95	30.90	-39.4	-40.5	21.8	0.00e+00	0	34	0	641728512	52	6095
2026-01-06 22:35:45.31	53.60	30.94	-39.1	-40.2	22.2	0.00e+00	92	34	0	643825664	52	5839
2026-01-06 22:35:46.32	53.25	30.98	-39.2	-40.3	22.1	0.00e+00	92	34	0	645922816	52	5900
2026-01-06 22:35:47.33	52.90	31.02	-39.1	-40.2	21.9	0.00e+00	0	34	0	648019968	52	5851
2026-01-06 22:35:48.34	52.55	31.05	-39.7	-40.9	21.7	0.00e+00	53	34	0	649068544	52	6322
2026-01-06 22:35:49.35	52.19	31.08	-39.9	-41.1	21.5	0.00e+00	0	34	0	651165696	52	6535
2026-01-06 22:35:50.36	51.84	31.12	-39.0	-40.0	22.3	0.00e+00	69	34	0	653262848	52	5760
2026-01-06 22:35:51.37	51.49	31.15	-38.5	-39.5	22.6	0.00e+00	0	34	0	655360000	50	6037
2026-01-06 22:35:52.38	51.13	31.18	-38.3	-39.2	23.0	0.00e+00	90	34	0	657457152	50	5866
2026-01-06 22:35:53.39	50.78	31.20	-38.2	-39.2	23.0	0.00e+00	0	34	0	658505728	50	5832
2026-01-06 22:35:54.40	50.42	31.23	-38.3	-39.2	22.8	0.00e+00	0	34	0	660602880	50	5866
2026-01-06 22:35:55.41	50.06	31.26	-38.5	-39.5	22.6	0.00e+00	58	34	0	662700032	50	6087
2026-01-06 22:35:56.42	49.71	31.28	-38.8	-39.8	22.3	0.00e+00	0	34	0	664797184	50	6269
2026-01-06 22:35:57.43	49.35	31.31	-39.3	-40.4	22.0	0.00e+00	92	34	0	666894336	50	6698
2026-01-06 22:35:58.44	48.99	31.33	-39.6	-40.7	21.7	0.00e+00	0	34	0	667942912	50	6978
2026-01-06 22:35:59.45	48.63	31.35	-39.3	-40.4	22.1	0.00e+00	92	34	0	670040064	50	6719
2026-01-06 22:36:00.46	48.27	31.37	-38.8	-39.8	22.3	0.00e+00	0	34	0	672137216	50	6298
2026-01-06 22:36:01.47	47.91	31.39	-38.5	-39.5	22.7	0.00e+00	0	34	0	674234368	50	6059
2026-01-06 22:36:02.48	47.55	31.41	-38.5	-39.5	22.6	0.00e+00	82	34	0	676331520	50	6077
2026-01-06 22:36:03.49	47.19	31.42	-38.9	-39.9	22.4	0.00e+00	0	34	0	677380096	50	6375
2026-01-06 22:36:04.50	46.83	31.44	-39.2	-40.2	22.2	0.00e+00	92	34	0	679477248	50	6602
2026-01-06 22:36:05.51	46.47	31.45	-39.2	-40.3	22.1	0.00e+00	0	34	0	681574400	50	6661
2026-01-06 22:36:06.52	46.11	31.46	-38.9	-39.9	22.3	0.00e+00	92	34	0	683671552	50	6388
2026-01-06 22:36:07.53	45.75	31.47	-38.8	-39.8	22.5	0.00e+00	0	34	0	685768704	50	6298
2026-01-06 22:36:08.54	45.39	31.48	-38.8	-39.7	22.5	0.00e+00	0	34	0	687865856	50	6217
2026-01-06 22:36:09.55	45.03	31.49	-39.0	-39.9	22.3	0.00e+00	57	34	0	688914432	50	6390
2026-01-06 22:36:10.56	44.67	31.50	-39.2	-40.3	22.0	0.00e+00	0	34	0	691011584	50	6623
2026-01-06 22:36:11.57	44.30	31.50	-39.6	-40.8	21.5	0.00e+00	92	34	0	693108736	50	7019
2026-01-06 22:36:12.58	43.94	31.51	-40.0	-41.2	21.3	0.00e+00	0	34	0	695205888	52	6591
2026-01-06 22:36:13.59	43.58	31.51	-40.1	-41.3	21.3	0.00e+00	92	34	0	697303040	52	6640
2026-01-06 22:36:14.60	43.22	31.51	-39.9	-41.0	21.4	0.00e+00	0	34	0	698351616	52	6459
2026-01-06 22:36:15.61	42.85	31.51	-39.4	-40.6	21.9	0.00e+00	79	34	0	700448768	52	6109
2026-01-06 22:36:16.62	42.49	31.51	-39.2	-40.2	22.1	0.00e+00	92	34	0	702545920	52	5887
2026-01-06 22:36:17.63	42.13	31.51	-38.6	-39.6	22.6	0.00e+00	0	34	0	704643072	50	6111
2026-01-06 22:36:18.64	41.77	31.51	-38.4	-39.3	22.9	0.00e+00	20	34	0	706740224	50	5953
2026-01-06 22:36:19.65	41.41	31.50	-37.9	-38.8	23.3	0.00e+00	0	34	0	707788800	50	5584
2026-01-06 22:36:20.66	41.04	31.50	-37.7	-38.6	23.3	0.00e+00	92	34	0	709885952	48	6151
2026-01-06 22:36:21.67	40.68	31.49	-38.0	-38.9	23.0	0.00e+00	0	34	0	711983104	48	6340
2026-01-06 22:36:22.68	40.32	31.48	-38.6	-39.5	22.7	0.00e+00	92	34	0	714080256	48	6848
2026-01-06 22:36:23.69	39.96	31.47	-38.8	-39.8	22.4	0.00e+00	79	34	0	716177408	50	6290
2026-01-06 22:36:24.70	39.60	31.46	-39.3	-40.3	21.9	0.00e+00	0	34	0	717225984	50	6691
2026-01-06 22:36:25.71	39.24	31.45	-39.1	-40.2	22.2	0.00e+00	29	34	0	719323136	50	6569
2026-01-06 22:36:26.72	38.88	31.44	-38.8	-39.8	22.4	0.00e+00	0	34	0	721420288	50	6254
2026-01-06 22:36:27.73	38.52	31.42	-38.8	-39.8	22.4	0.00e+00	75	34	0	723517440	50	6308
2026-01-06 22:36:28.74	38.16	31.40	-38.7	-39.7	22.4	0.00e+00	0	34	0	725614592	50	6188
2026-01-06 22:36:29.75	37.80	31.39	-39.1	-40.1	22.1	0.00e+00	91	34	0	726663168	50	6506
2026-01-06 22:36:30.76	37.44	31.37	-39.2	-40.3	22.1	0.00e+00	26	34	0	728760320	50	6626
2026-01-06 22:36:31.77	37.08	31.35	-39.2	-40.2	22.1	0.00e+00	0	34	0	730857472	50	6607
2026-01-06 22:36:32.78	36.72	31.33	-39.8	-40.9	21.8	0.00e+00	81	34	0	732954624	50	7169
2026-01-06 22:36:33.79	36.36	31.31	-39.1	-40.1	22.1	0.00e+00	0	34	0	735051776	52	5823
2026-01-06 22:36:34.80	36.00	31.28	-38.6	-39.6	22.5	0.00e+00	92	34	0	736100352	50	6156
2026-01-06 22:36:35.81	35.65	31.26	-38.6	-39.6	22.7	0.00e+00	0	34	0	738197504	50	6112
2026-01-06 22:36:36.82	35.29	31.23	-38.9	-39.9	22.2	0.00e+00	92	34	0	740294656	50	6356
2026-01-06 22:36:37.83	34.94	31.20	-39.3	-40.4	21.8	0.00e+00	21	34	0	742391808	50	6764
2026-01-06 22:36:38.84	34.58	31.17	-40.1	-41.4	21.1	0.00e+00	0	34	0	744488960	52	6694
2026-01-06 22:36:39.85	34.23	31.15	-40.0	-41.3	21.2	0.00e+00	87	34	0	745537536	52	6621
2026-01-06 22:36:40.86	33.87	31.11	-40.0	-41.2	21.3	0.00e+00	0	34	0	747634688	52	6544
2026-01-06 22:36:41.87	33.52	31.08	-39.3	-40.4	21.8	0.00e+00	85	34	0	749731840	52	5994
2026-01-06 22:36:42.88	33.17	31.05	-38.8	-39.8	22.6	0.00e+00	0	34	0	751828992	50	6260
2026-01-06 22:36:43.89	32.82	31.01	-38.4	-39.4	22.7	0.00e+00	92	34	0	753926144	50	5982
2026-01-06 22:36:44.90	32.47	30.98	-38.7	-39.7	22.6	0.00e+00	17	34	0	756023296	50	6199
2026-01-06 22:36:45.91	32.12	30.94	-38.0	-39.0	23.0	0.00e+00	0	34	0	757071872	50	5715
2026-01-06 22:36:46.92	31.77	30.90	-38.2	-39.2	22.9	0.00e+00	92	34	0	759169024	50	5865
2026-01-06 22:36:47.93	31.42	30.86	-38.4	-39.4	22.6	0.00e+00	0	34	0	761266176	50	6002
2026-01-06 22:36:48.94	31.07	30.82	-38.6	-39.6	22.5	0.00e+00	28	34	0	763363328	50	6152
2026-01-06 22:36:49.95	30.72	30.78	-38.9	-39.9	22.2	0.00e+00	0	34	0	765460480	50	6365
2026-01-06 22:36:50.96	30.38	30.74	-39.0	-40.1	22.3	0.00e+00	92	34	0	766509056	50	6499
2026-01-06 22:36:51.97	30.03	30.70	-39.1	-40.2	22.1	0.00e+00	0	34	0	768606208	50	6554
2026-01-06 22:36:52.98	29.69	30.65	-39.4	-40.5	21.8	0.00e+00	0	34	0	770703360	50	6818
2026-01-06 22:36:53.99	29.35	30.61	-39.1	-40.2	22.1	0.00e+00	92	34	0	772800512	50	6577
2026-01-06 22:36:55.00	29.01	30.56	-38.7	-39.8	22.4	0.00e+00	0	34	0	774897664	50	6267
2026-01-06 22:36:56.01	28.67	30.51	-39.0	-40.0	22.2	0.00e+00	0	34	0	775946240	50	6464
2026-01-06 22:36:57.02	28.33	30.46	-38.8	-39.9	22.3	0.00e+00	0	34	0	778043392	50	6348
2026-01-06 22:36:58.03	27.99	30.41	-38.8	-39.9	22.3	0.00e+00	33	34	0	780140544	50	6329
2026-01-06 22:36:59.04	27.65	30.36	-38.8	-39.8	22.4	0.00e+00	0	34	0	782237696	50	6295
2026-01-06 22:37:00.05	27.31	30.31	-38.6	-39.6	22.6	0.00e+00	17	34	0	784334848	50	6108
2026-01-06 22:37:01.06	26.98	30.26	-38.4	-39.4	22.7	0.00e+00	0	34	0	785383424	50	6006
2026-01-06 22:37:02.07	26.64	30.20	-37.9	-38.8	23.1	0.00e+00	0	34	0	787480576	50	5615
2026-01-06 22:37:03.08	26.31	30.15	-38.3	-39.3	22.9	0.00e+00	92	34	0	789577728	50	5914
2026-01-06 22:37:04.09	25.98	30.09	-39.0	-40.0	22.3	0.00e+00	0	34	0	791674880	50	6440
2026-01-06 22:37:05.10	25.65	30.03	-38.9	-39.9	22.3	0.00e+00	0	34	0	793772032	50	6358
2026-01-06 22:37:06.11	25.32	29.98	-39.2	-40.3	21.8	0.00e+00	13	34	0	794820608	50	6652
2026-01-06 22:37:07.12	24.99	29.92	-39.3	-40.3	21.8	0.00e+00	0	34	0	796917760	50	6679
2026-01-06 22:37:08.13	24.66	29.86	-39.8	-41.0	21.5	0.00e+00	64	34	0	799014912	52	6396
2026-01-06 22:37:09.14	24.34	29.80	-39.6	-40.6	21.7	0.00e+00	14	34	0	801112064	52	6172
2026-01-06 22:37:10.15	24.01	29.73	-39.6	-40.7	21.6	0.00e+00	90	34	0	803209216	52	6235
2026-01-06 22:37:11.15	23.69	29.67	-39.8	-40.9	21.6	0.00e+00	0	34	0	804257792	52	6363
2026-01-06 22:37:12.16	23.37	29.61	-40.4	-41.6	21.0	0.00e+00	92	34	0	806354944	52	6864
2026-01-06 22:37:13.17	23.05	29.54	-40.5	-41.8	20.6	0.00e+00	0	34	0	808452096	52	7055
2026-01-06 22:37:14.18	22.73	29.48	-40.9	-42.2	20.2	0.00e+00	24	34	0	810549248	54	6583
2026-01-06 22:37:15.19	22.41	29.41	-40.8	-42.1	20.4	0.00e+00	27	34	0	812646400	54	6515
2026-01-06 22:37:16.20	22.09	29.35	-40.7	-42.1	20.5	0.00e+00	0	34	0	813694976	54	6469
2026-01-06 22:37:17.21	21.78	29.28	-40.5	-41.7	20.7	0.00e+00	32	34	0	815792128	54	6228
2026-01-06 22:37:18.22	21.47	29.21	-40.3	-41.6	21.0	0.00e+00	0	34	0	817889280	54	6117
2026-01-06 22:37:19.23	21.15	29.14	-40.2	-41.4	21.0	0.00e+00	92	34	0	819986432	54	5981
2026-01-06 22:37:20.24	20.84	29.07	-40.2	-41.5	21.0	0.00e+00	0	34	0	822083584	54	6047
2026-01-06 22:37:21.25	20.53	29.00	-40.4	-41.7	20.8	0.00e+00	0	34	0	824180736	54	6202
2026-01-06 22:37:22.26	20.22	28.93	-40.6	-41.9	20.6	0.00e+00	0	34	0	825229312	54	6337
2026-01-06 22:37:23.27	19.91	28.86	-40.6	-41.9	20.7	0.00e+00	0	34	0	827326464	54	6341
2026-01-06 22:37:24.28	19.61	28.78	-39.9	-41.1	21.5	0.00e+00	90	34	0	829423616	54	5784
2026-01-06 22:37:25.29	19.30	28.71	-39.5	-40.6	21.6	0.00e+00	0	34	0	831520768	52	6149
2026-01-06 22:37:26.30	19.00	28.64	-39.1	-40.1	22.3	0.00e+00	92	34	0	833617920	52	5820
2026-01-06 22:37:27.31	18.70	28.56	-38.5	-39.5	22.6	0.00e+00	0	34	0	834666496	50	6069
2026-01-06 22:37:28.31	18.40	28.48	-38.3	-39.2	22.9	0.00e+00	0	34	0	836763648	50	5876
2026-01-06 22:37:29.32	18.10	28.41	-37.6	-38.5	23.4	0.00e+00	0	34	0	838860800	48	6047
2026-01-06 22:37:30.33	17.81	28.33	-36.9	-37.8	23.9	0.00e+00	0	34	0	840957952	48	5568
2026-01-06 22:37:31.34	17.51	28.25	-37.0	-37.8	24.0	0.00e+00	28	34	0	843055104	48	5603
2026-01-06 22:37:32.35	17.22	28.17	-37.5	-38.4	23.5	0.00e+00	0	34	0	844103680	48	5971
2026-01-06 22:37:33.36	16.92	28.10	-37.7	-38.6	23.3	0.00e+00	90	34	0	846200832	48	6159
2026-01-06 22:37:34.37	16.63	28.02	-37.9	-38.8	22.9	0.00e+00	0	34	0	848297984	48	6264
2026-01-06 22:37:35.38	16.34	27.94	-37.8	-38.7	23.2	0.00e+00	0	34	0	850395136	48	6238
2026-01-06 22:37:36.39	16.05	27.86	-38.3	-39.2	22.5	0.00e+00	0	34	0	852492288	48	6609
2026-01-06 22:37:37.40	15.77	27.77	-39.4	-40.4	21.9	0.00e+00	0	34	0	853540864	50	6762
2026-01-06 22:37:38.41	15.48	27.69	-39.2	-40.2	22.1	0.00e+00	45	34	0	855638016	50	6572
2026-01-06 22:37:39.42	15.20	27.61	-38.4	-39.3	22.8	0.00e+00	0	34	0	857735168	50	5933
2026-01-06 22:37:40.43	14.91	27.53	-37.6	-38.4	23.5	0.00e+00	92	34	0	859832320	48	5995
2026-01-06 22:37:41.44	14.63	27.44	-37.3	-38.2	23.7	0.00e+00	0	34	0	861929472	48	5859
2026-01-06 22:37:42.45	14.35	27.36	-37.7	-38.6	23.2	0.00e+00	0	34	0	862978048	48	6158
2026-01-06 22:37:43.46	14.07	27.27	-38.9	-39.9	22.1	0.00e+00	0	34	0	865075200	48	7157
2026-01-06 22:37:44.47	13.80	27.19	-40.2	-41.5	20.8	0.00e+00	0	34	0	867172352	52	6811
2026-01-06 22:37:45.48	13.52	27.10	-40.8	-42.2	20.4	0.00e+00	43	34	0	869269504	52	7371
2026-01-06 22:37:46.49	13.25	27.02	-40.9	-42.3	20.3	0.00e+00	0	34	0	871366656	54	6622
2026-01-06 22:37:47.50	12.98	26.93	-40.7	-42.0	20.5	0.00e+00	69	34	0	872415232	54	6440
2026-01-06 22:37:48.51	12.71	26.84	-40.3	-41.6	20.8	0.00e+00	0	34	0	874512384	54	6143
2026-01-06 22:37:49.52	12.44	26.76	-39.8	-40.9	21.5	0.00e+00	14	34	0	876609536	54	5685
2026-01-06 22:37:50.53	12.17	26.67	-39.3	-40.4	22.0	0.00e+00	0	34	0	878706688	52	5989
2026-01-06 22:37:51.54	11.90	26.58	-38.9	-39.9	22.3	0.00e+00	0	34	0	880803840	52	5638
2026-01-06 22:37:52.55	11.64	26.49	-38.7	-39.8	22.6	0.00e+00	21	34	0	881852416	52	5583
2026-01-06 22:37:53.55	11.38	26.41	-38.1	-39.1	22.9	0.00e+00	0	34	0	883949568	50	5798
2026-01-06 22:37:54.56	11.12	26.32	-38.3	-39.3	22.7	0.00e+00	90	34	0	886046720	50	5954
2026-01-06 22:37:55.57	10.86	26.23	-38.1	-39.1	23.1	0.00e+00	0	34	0	888143872	50	5774
2026-01-06 22:37:56.58	10.60	26.14	-37.4	-38.3	23.6	0.00e+00	38	34	0	890241024	48	5942
2026-01-06 22:37:57.59	10.34	26.05	-36.9	-37.8	23.9	0.00e+00	0	34	0	892338176	48	5567
2026-01-06 22:37:58.60	10.08	25.96	-36.8	-37.6	24.1	0.00e+00	0	34	0	893386752	48	5495
2026-01-06 22:37:59.61	9.83	25.86	-36.9	-37.7	23.9	0.00e+00	0	34	0	895483904	46	6198
2026-01-06 22:38:00.62	9.58	25.77	-36.8	-37.7	24.0	0.00e+00	0	34	0	897581056	46	6192
2026-01-06 22:38:01.63	9.32	25.68	-36.9	-37.8	23.9	0.00e+00	92	34	0	899678208	46	6251
2026-01-06 22:38:02.64	9.07	25.59	-37.2	-38.1	23.8	0.00e+00	0	34	0	901775360	46	6479
2026-01-06 22:38:03.65	8.83	25.50	-36.9	-37.8	23.9	0.00e+00	85	34	0	902823936	46	6247
2026-01-06 22:38:04.66	8.58	25.41	-37.0	-37.8	24.0	0.00e+00	0	34	0	904921088	46	6317
2026-01-06 22:38:05.67	8.33	25.31	-37.0	-37.9	23.9	0.00e+00	0	34	0	907018240	46	6351
2026-01-06 22:38:06.68	8.09	25.22	-37.2	-38.0	23.7	0.00e+00	0	34	0	909115392	46	6458
2026-01-06 22:38:07.69	7.85	25.13	-37.5	-38.4	23.5	0.00e+00	0	34	0	911212544	46	6718
2026-01-06 22:38:08.70	7.61	25.03	-37.7	-38.6	23.3	0.00e+00	74	34	0	912261120	46	6881
2026-01-06 22:38:09.71	7.37	24.94	-37.8	-38.7	23.1	0.00e+00	0	34	0	914358272	48	6219
2026-01-06 22:38:10.72	7.13	24.85	-37.7	-38.6	23.3	0.00e+00	92	34	0	916455424	48	6170
2026-01-06 22:38:11.73	6.89	24.75	-37.8	-38.7	23.3	0.00e+00	0	34	0	918552576	48	6239
2026-01-06 22:38:12.74	6.66	24.66	-37.7	-38.6	23.3	0.00e+00	0	34	0	920649728	48	6149
2026-01-06 22:38:13.75	6.42	24.56	-37.5	-38.5	23.4	0.00e+00	0	34	0	921698304	48	6053
2026-01-06 22:38:14.76	6.19	24.47	-37.5	-38.4	23.5	0.00e+00	0	34	0	923795456	48	6001
2026-01-06 22:38:15.77	5.96	24.38	-37.3	-38.2	23.6	0.00e+00	72	34	0	925892608	48	5842
2026-01-06 22:38:16.78	5.73	24.28	-37.3	-38.2	23.7	0.00e+00	0	34	0	927989760	48	5847
2026-01-06 22:38:17.79	5.50	24.19	-36.9	-37.8	23.9	0.00e+00	92	34	0	930086912	48	5618
2026-01-06 22:38:18.80	5.27	24.09	-36.7	-37.5	24.0	0.00e+00	0	34	0	931135488	46	6071
2026-01-06 22:38:19.81	5.05	23.99	-36.5	-37.3	24.3	0.00e+00	14	34	0	933232640	46	5948
2026-01-06 22:38:20.82	4.82	23.90	-36.2	-37.0	24.3	0.00e+00	0	34	0	935329792	46	5736
2026-01-06 22:38:21.83	4.60	23.80	-35.7	-36.5	24.7	0.00e+00	0	34	0	937426944	46	5403
2026-01-06 22:38:22.84	4.38	23.71	-35.4	-36.2	25.1	0.00e+00	24	34	0	939524096	44	5839
2026-01-06 22:38:23.85	4.16	23.61	-35.3	-36.0	25.2	0.00e+00	0	34	0	940572672	44	5744
2026-01-06 22:38:24.86	3.94	23.52	-35.4	-36.2	25.0	0.00e+00	92	34	0	942669824	44	5855
2026-01-06 22:38:25.87	3.72	23.42	-35.9	-36.7	24.7	0.00e+00	0	34	0	944766976	44	6203
2026-01-06 22:38:26.88	3.51	23.32	-36.4	-37.3	24.3	0.00e+00	47	34	0	946864128	44	6629
2026-01-06 22:38:27.89	3.29	23.23	-36.6	-37.5	24.2	0.00e+00	0	34	0	948961280	44	6784
2026-01-06 22:38:28.90	3.08	23.13	-37.0	-37.8	23.9	0.00e+00	0	34	0	950009856	46	6312
2026-01-06 22:38:29.91	2.87	23.04	-36.9	-37.8	24.0	0.00e+00	0	34	0	952107008	46	6273
2026-01-06 22:38:30.92	2.66	22.94	-36.6	-37.5	24.1	0.00e+00	0	34	0	954204160	46	6075
2026-01-06 22:38:31.93	2.45	22.84	-36.5	-37.3	24.2	0.00e+00	29	34	0	956301312	46	5931
2026-01-06 22:38:32.94	2.24	22.75	-36.9	-37.7	24.0	0.00e+00	0	34	0	958398464	46	6224
2026-01-06 22:38:33.95	2.03	22.65	-36.7	-37.6	24.1	0.00e+00	61	34	0	960495616	46	6133
2026-01-06 22:38:34.96	1.83	22.55	-36.5	-37.4	24.3	0.00e+00	0	34	0	961544192	46	5972
2026-01-06 22:38:35.97	1.62	22.46	-36.7	-37.5	24.1	0.00e+00	0	34	0	963641344	46	6064
2026-01-06 22:38:36.98	1.42	22.36	-36.6	-37.5	24.1	0.00e+00	0	34	0	965738496	46	6059
2026-01-06 22:38:37.99	1.22	22.26	-36.3	-37.1	24.5	0.00e+00	0	34	0	967835648	46	5814
2026-01-06 22:38:39.00	1.02	22.17	-36.4	-37.3	24.3	0.00e+00	69	34	0	969932800	46	5899
2026-01-06 22:38:40.01	0.82	22.07	-36.3	-37.2	24.4	0.00e+00	0	34	0	970981376	46	5836
2026-01-06 22:38:41.02	0.62	21.97	-36.6	-37.4	24.2	0.00e+00	28	34	0	973078528	46	5999
2026-01-06 22:38:42.03	0.42	21.88	-36.6	-37.5	24.2	0.00e+00	0	34	0	975175680	46	6049
2026-01-06 22:38:43.04	0.23	21.78	-36.8	-37.6	24.1	0.00e+00	0	34	0	977272832	46	6168
2026-01-06 22:38:44.05	0.03	21.68	-37.0	-37.9	23.9	0.00e+00	0	34	0	979369984	46	6325
2026-01-06 22:38:45.06	359.84	21.59	-36.8	-37.6	24.1	0.00e+00	0	34	0	980418560	46	6148
2026-01-06 22:38:46.07	359.65	21.49	-36.5	-37.3	24.2	0.00e+00	22	34	0	982515712	46	5936
2026-01-06 22:38:47.08	359.46	21.39	-36.5	-37.3	24.2	0.00e+00	0	34	0	984612864	46	5963
2026-01-06 22:38:48.09	359.27	21.30	-36.4	-37.2	24.2	0.00e+00	79	34	0	986710016	46	5887
2026-01-06 22:38:49.10	359.08	21.20	-36.3	-37.1	24.3	0.00e+00	0	34	0	988807168	46	5828
2026-01-06 22:38:50.11	358.90	21.10	-36.5	-37.4	24.2	0.00e+00	0	34	0	989855744	46	5987
2026-01-06 22:38:51.12	358.71	21.01	-36.8	-37.7	23.9	0.00e+00	0	34	0	991952896	46	6192
2026-01-06 22:38:52.13	358.53	20.91	-37.0	-37.9	23.8	0.00e+00	0	34	0	994050048	46	6335
2026-01-06 22:38:53.14	358.34	20.82	-37.6	-38.5	23.4	0.00e+00	63	34	0	996147200	46	6797
2026-01-06 22:38:54.15	358.16	20.72	-37.4	-38.3	23.6	0.00e+00	0	34	0	998244352	46	6675
2026-01-06 22:38:55.16	357.98	20.62	-37.3	-38.2	23.5	0.00e+00	91	34	0	999292928	46	6600
2026-01-06 22:38:56.17	357.80	20.53	-36.9	-37.8	23.9	0.00e+00	35	34	0	1001390080	46	6251
2026-01-06 22:38:57.18	357.62	20.43	-37.0	-37.9	23.9	0.00e+00	0	34	0	1003487232	46	6370
2026-01-06 22:38:58.19	357.44	20.33	-36.6	-37.4	24.2	0.00e+00	0	34	0	1005584384	46	5996
2026-01-06 22:38:59.20	357.27	20.24	-36.5	-37.3	24.3	0.00e+00	0	34	0	1007681536	46	5935
2026-01-06 22:39:00.21	357.09	20.14	-36.5	-37.3	24.2	0.00e+00	0	34	0	1008730112	46	5919
2026-01-06 22:39:01.22	356.92	20.05	-36.5	-37.3	24.1	0.00e+00	0	34	0	1010827264	46	5948
2026-01-06 22:39:02.23	356.74	19.95	-36.7	-37.5	24.1	0.00e+00	92	34	0	1012924416	46	6079
2026-01-06 22:39:03.24	356.57	19.86	-36.6	-37.4	23.9	0.00e+00	0	34	0	1015021568	46	6002
2026-01-06 22:39:04.25	356.40	19.76	-37.2	-38.1	23.3	0.00e+00	0	34	0	1017118720	46	6468
2026-01-06 22:39:05.26	356.23	19.67	-37.4	-38.2	23.2	0.00e+00	0	34	0	1018167296	46	6600
2026-01-06 22:39:06.26	356.06	19.57	-37.7	-38.6	23.1	0.00e+00	0	34	0	1020264448	46	6878
2026-01-06 22:39:07.27	355.90	19.48	-38.3	-39.3	22.6	0.00e+00	24	34	0	1022361600	48	6643
2026-01-06 22:39:08.28	355.73	19.38	-38.4	-39.4	22.4	0.00e+00	0	34	0	1024458752	48	6730
2026-01-06 22:39:09.29	355.56	19.29	-38.4	-39.4	22.5	0.00e+00	92	34	0	1026555904	48	6754
2026-01-06 22:39:10.30	355.40	19.19	-38.6	-39.6	22.3	0.00e+00	0	34	0	1028653056	48	6908
2026-01-06 22:39:11.31	355.24	19.10	-38.5	-39.5	22.5	0.00e+00	92	34	0	1029701632	48	6792
2026-01-06 22:39:12.32	355.07	19.00	-38.1	-39.1	22.9	0.00e+00	0	34	0	1031798784	48	6511
2026-01-06 22:39:13.33	354.91	18.91	-37.6	-38.6	23.2	0.00e+00	0	34	0	1033895936	48	6128
2026-01-06 22:39:14.34	354.75	18.81	-37.4	-38.3	23.4	0.00e+00	0	34	0	1035993088	48	5939
2026-01-06 22:39:15.35	354.59	18.72	-37.2	-38.1	23.6	0.00e+00	0	34	0	1038090240	48	5802
2026-01-06 22:39:16.36	354.43	18.62	-37.2	-38.1	23.5	0.00e+00	27	34	0	1039138816	48	5768
2026-01-06 22:39:17.36	354.28	18.53	-37.7	-38.6	23.3	0.00e+00	0	34	0	1041235968	48	6152
2026-01-06 22:39:18.37	354.12	18.44	-37.5	-38.4	23.3	0.00e+00	89	34	0	1043333120	48	5994
2026-01-06 22:39:19.38	353.97	18.34	-37.7	-38.7	23.2	0.00e+00	0	34	0	1045430272	48	6180
2026-01-06 22:39:20.39	353.81	18.25	-37.9	-38.8	23.0	0.00e+00	0	34	0	1047527424	48	6283
2026-01-06 22:39:21.40	353.66	18.16	-38.1	-39.1	22.8	0.00e+00	0	34	0	1048576000	48	6504
2026-01-06 22:39:22.41	353.51	18.06	-38.1	-39.0	22.9	0.00e+00	0	34	0	1050673152	48	6443
2026-01-06 22:39:23.42	353.35	17.97	-38.1	-39.0	22.9	0.00e+00	18	34	0	1052770304	48	6450
2026-01-06 22:39:24.43	353.20	17.88	-37.9	-38.8	23.0	0.00e+00	0	34	0	1054867456	48	6288
2026-01-06 22:39:25.44	353.05	17.78	-37.4	-38.3	23.4	0.00e+00	92	34	0	1056964608	48	5916
2026-01-06 22:39:26.45	352.91	17.69	-37.4	-38.3	23.5	0.00e+00	0	34	0	1058013184	48	5940
2026-01-06 22:39:27.46	352.76	17.60	-37.2	-38.1	23.6	0.00e+00	0	34	0	1060110336	48	5791
2026-01-06 22:39:28.47	352.61	17.51	-37.1	-38.0	23.7	0.00e+00	0	34	0	1062207488	48	5711
2026-01-06 22:39:29.48	352.47	17.41	-36.8	-37.6	23.9	0.00e+00	0	34	0	1064304640	46	6169
2026-01-06 22:39:30.49	352.32	17.32	-36.9	-37.8	23.9	0.00e+00	54	34	0	1066401792	46	6266
2026-01-06 22:39:31.50	352.18	17.23	-36.8	-37.7	23.9	0.00e+00	0	34	0	1067450368	46	6208
2026-01-06 22:39:32.51	352.03	17.14	-36.7	-37.5	24.0	0.00e+00	91	34	0	1069547520	46	6089
2026-01-06 22:39:33.52	351.89	17.05	-37.1	-37.9	23.7	0.00e+00	0	34	0	1071644672	46	6384
2026-01-06 22:39:34.53	351.75	16.96	-37.1	-38.0	23.7	0.00e+00	0	34	0	1073741824	46	6402
2026-01-06 22:39:35.54	351.61	16.86	-37.2	-38.1	23.6	0.00e+00	0	34	0	1075838976	46	6479
2026-01-06 22:39:36.55	351.47	16.77	-37.3	-38.2	23.5	0.00e+00	0	34	0	1076887552	46	6585
2026-01-06 22:39:37.56	351.33	16.68	-37.6	-38.4	23.4	0.00e+00	19	34	0	1078984704	46	6762
2026-01-06 22:39:38.57	351.19	16.59	-37.3	-38.2	23.5	0.00e+00	0	34	0	1081081856	46	6566
2026-01-06 22:39:39.58	351.05	16.50	-37.5	-38.4	23.3	0.00e+00	92	34	0	1083179008	46	6750
2026-01-06 22:39:40.59	350.92	16.41	-37.5	-38.4	23.4	0.00e+00	0	34	0	1085276160	46	6764
2026-01-06 22:39:41.60	350.78	16.32	-37.2	-38.1	23.7	0.00e+00	4	34	0	1086324736	46	6483
2026-01-06 22:39:42.61	350.65	16.23	-37.2	-38.1	23.6	0.00e+00	0	34	0	1088421888	46	6493
2026-01-06 22:39:43.62	350.51	16.14	-36.9	-37.7	23.9	0.00e+00	0	34	0	1090519040	46	6220
2026-01-06 22:39:44.62	350.38	16.05	-37.0	-37.9	23.8	0.00e+00	28	34	0	1092616192	46	6351
2026-01-06 22:39:45.63	350.25	15.96	-37.2	-38.1	23.6	0.00e+00	0	34	0	1094713344	46	6500
2026-01-06 22:39:46.64	350.12	15.87	-37.8	-38.7	23.1	0.00e+00	16	34	0	1096810496	46	6963
2026-01-06 22:39:47.65	349.99	15.78	-38.0	-39.0	22.8	0.00e+00	0	34	0	1097859072	48	6423
2026-01-06 22:39:48.66	349.86	15.69	-38.3	-39.2	22.6	0.00e+00	64	34	0	1099956224	48	6600
2026-01-06 22:39:49.67	349.73	15.60	-38.8	-39.8	22.2	0.00e+00	0	34	0	1102053376	50	6312
2026-01-06 22:39:50.68	349.60	15.51	-39.3	-40.4	21.6	0.00e+00	0	34	0	1104150528	50	6741
2026-01-06 22:39:51.69	349.47	15.43	-39.9	-41.1	21.0	0.00e+00	0	34	0	1106247680	52	6486
2026-01-06 22:39:52.70	349.35	15.34	-40.2	-41.4	20.8	0.00e+00	0	34	0	1107296256	52	6756
2026-01-06 22:39:53.71	349.22	15.25	-40.2	-41.5	21.1	0.00e+00	55	34	0	1109393408	52	6795
2026-01-06 22:39:54.72	349.10	15.16	-39.4	-40.6	21.6	0.00e+00	0	34	0	1111490560	52	6106
2026-01-06 22:39:55.73	348.97	15.07	-39.5	-40.6	21.6	0.00e+00	92	34	0	1113587712	52	6117
2026-01-06 22:39:56.74	348.85	14.99	-38.7	-39.7	22.3	0.00e+00	0	34	0	1115684864	50	6209
2026-01-06 22:39:57.75	348.73	14.90	-38.1	-39.1	22.8	0.00e+00	0	34	0	1116733440	50	5775
2026-01-06 22:39:58.76	348.60	14.81	-37.9	-38.8	23.1	0.00e+00	0	34	0	1118830592	48	6275
2026-01-06 22:39:59.77	348.48	14.72	-37.6	-38.5	23.2	0.00e+00	0	34	0	1120927744	48	6046
2026-01-06 22:40:00.78	348.36	14.64	-37.1	-38.0	23.6	0.00e+00	20	34	0	1123024896	48	5697
2026-01-06 22:40:01.79	348.24	14.55	-37.1	-38.0	23.5	0.00e+00	0	34	0	1125122048	48	5731
2026-01-06 22:40:02.80	348.12	14.46	-37.2	-38.0	23.5	0.00e+00	92	34	0	1126170624	48	5758
2026-01-06 22:40:03.81	348.00	14.38	-37.4	-38.3	23.3	0.00e+00	0	34	0	1128267776	48	5957
2026-01-06 22:40:04.82	347.89	14.29	-37.6	-38.5	23.1	0.00e+00	0	34	0	1130364928	48	6098
2026-01-06 22:40:05.83	347.77	14.20	-38.2	-39.2	22.7	0.00e+00	0	34	0	1132462080	48	6545
2026-01-06 22:40:06.84	347.65	14.12	-38.5	-39.5	22.3	0.00e+00	0	34	0	1134559232	48	6846
2026-01-06 22:40:07.85	347.54	14.03	-38.8	-39.9	22.0	0.00e+00	59	34	0	1135607808	50	6345
2026-01-06 22:40:08.86	347.42	13.95	-39.1	-40.2	21.8	0.00e+00	0	34	0	1137704960	50	6569
2026-01-06 22:40:09.87	347.31	13.86	-39.4	-40.5	21.5	0.00e+00	89	34	0	1139802112	50	6806
2026-01-06 22:40:10.88	347.19	13.78	-39.4	-40.5	21.6	0.00e+00	9	34	0	1141899264	50	6844
2026-01-06 22:40:11.88	347.08	13.69	-39.3	-40.4	21.6	0.00e+00	0	34	0	1143996416	50	6768
2026-01-06 22:40:12.89	346.97	13.61	-39.4	-40.6	21.5	0.00e+00	0	34	0	1145044992	50	6873
2026-01-06 22:40:13.90	346.86	13.52	-39.4	-40.5	21.6	0.00e+00	0	34	0	1147142144	50	6810
2026-01-06 22:40:14.91	346.75	13.44	-39.4	-40.5	21.6	0.00e+00	0	34	0	1149239296	50	6843
2026-01-06 22:40:15.92	346.64	13.35	-39.2	-40.3	21.7	0.00e+00	0	34	0	1151336448	50	6667
2026-01-06 22:40:16.93	346.53	13.27	-39.2	-40.3	21.7	0.00e+00	92	34	0	1153433600	50	6662
2026-01-06 22:40:17.94	346.42	13.19	-39.2	-40.3	21.7	0.00e+00	0	34	0	1154482176	50	6672
2026-01-06 22:40:18.95	346.31	13.10	-39.4	-40.5	21.6	0.00e+00	11	34	0	1156579328	50	6816
2026-01-06 22:40:19.96	346.20	13.02	-39.1	-40.2	21.8	0.00e+00	0	34	0	1158676480	50	6579
2026-01-06 22:40:20.97	346.09	12.94	-39.3	-40.4	21.5	0.00e+00	0	34	0	1160773632	50	6730
2026-01-06 22:40:21.98	345.99	12.85	-39.4	-40.5	21.6	0.00e+00	0	34	0	1162870784	50	6822
2026-01-06 22:40:22.99	345.88	12.77	-39.4	-40.5	21.5	0.00e+00	0	34	0	1164967936	50	6792
2026-01-06 22:40:24.00	345.78	12.69	-39.4	-40.6	21.4	0.00e+00	6	34	0	1166016512	50	6851
2026-01-06 22:40:25.01	345.67	12.60	-39.5	-40.6	21.3	0.00e+00	0	34	0	1168113664	50	6907
2026-01-06 22:40:26.02	345.57	12.52	-39.5	-40.7	21.3	0.00e+00	91	34	0	1170210816	50	6936
2026-01-06 22:40:27.02	345.47	12.44	-39.3	-40.4	21.4	0.00e+00	0	34	0	1172307968	50	6755
2026-01-06 22:40:28.03	345.36	12.36	-39.6	-40.7	21.4	0.00e+00	0	34	0	1174405120	50	6995
2026-01-06 22:40:29.04	345.26	12.28	-39.6	-40.8	21.3	0.00e+00	0	34	0	1175453696	50	7010
2026-01-06 22:40:30.05	345.16	12.20	-39.8	-41.0	21.1	0.00e+00	0	34	0	1177550848	50	7172
2026-01-06 22:40:31.06	345.06	12.11	-39.7	-40.8	21.2	0.00e+00	0	34	0	1179648000	52	6298
2026-01-06 22:40:32.07	344.96	12.03	-39.7	-40.9	21.1	0.00e+00	0	34	0	1181745152	52	6371
2026-01-06 22:40:33.08	344.86	11.95	-39.5	-40.7	21.3	0.00e+00	80	34	0	1183842304	52	6187
2026-01-06 22:40:34.09	344.76	11.87	-39.4	-40.5	21.3	0.00e+00	0	34	0	1184890880	52	6063
2026-01-06 22:40:35.10	344.66	11.79	-39.1	-40.2	21.8	0.00e+00	0	34	0	1186988032	52	5836
2026-01-06 22:40:36.11	344.56	11.71	-38.9	-39.9	22.0	0.00e+00	0	34	0	1189085184	52	5667
2026-01-06 22:40:37.12	344.46	11.63	-38.7	-39.7	22.2	0.00e+00	0	34	0	1191182336	50	6200
