passes_logs/2025/01/09/PPK-1/PPK-1__20250109_111107_TY-39_rec.log

#Pass ID: 20250109_111107_TY-39
#Satellite: TY-39
#Configuration: TY-39
#almurnet v.1.7.20230919.trace
#Start time: 2025-01-09 11:11:07

#Version: 2.2.20231116
#Station: PPK-1
#Location: 158.6 lon 53.06666 lat
#TLE: 1 51832U 22019J   25008.86550577  .00003968  00000+0  20451-3 0  9991
#TLE: 2 51832  97.4110  79.2073 0007696 258.3777 101.6593 15.16921539158212

#Time	Az	El	Level	Level2	SNR	BER	BlckErr	Temp	State
2025-01-09 11:11:07.49	184.35	8.00	-66.5	-72.0	3.5	0.00e+00	0	49	0
2025-01-09 11:11:08.39	184.41	8.08	-66.6	-72.1	3.7	0.00e+00	0	50	104
2025-01-09 11:11:09.38	184.47	8.17	-66.7	-72.4	3.6	0.00e+00	0	50	104
2025-01-09 11:11:10.29	184.53	8.26	-66.8	-72.1	3.6	0.00e+00	0	50	104
2025-01-09 11:11:11.28	184.59	8.35	-66.8	-72.1	3.5	0.00e+00	0	50	104
2025-01-09 11:11:12.19	184.65	8.43	-66.9	-72.4	3.6	0.00e+00	0	51	104
2025-01-09 11:11:13.18	184.72	8.52	-67.0	-72.6	3.7	0.00e+00	0	51	104
2025-01-09 11:11:14.08	184.77	8.61	-67.0	-72.7	3.6	0.00e+00	0	51	104
2025-01-09 11:11:15.08	184.84	8.70	-67.1	-73.0	3.7	0.00e+00	0	51	104
2025-01-09 11:11:15.98	184.90	8.79	-67.0	-73.0	3.6	0.00e+00	0	51	104
2025-01-09 11:11:16.98	184.97	8.88	-67.0	-73.1	3.7	0.00e+00	0	51	104
2025-01-09 11:11:17.88	185.03	8.97	-67.1	-73.2	3.6	0.00e+00	0	51	104
2025-01-09 11:11:18.88	185.10	9.06	-67.1	-73.2	3.6	0.00e+00	0	52	104
2025-01-09 11:11:19.78	185.16	9.15	-67.0	-73.2	3.7	0.00e+00	0	52	104
2025-01-09 11:11:20.78	185.23	9.24	-67.0	-73.2	3.6	0.00e+00	0	52	104
2025-01-09 11:11:21.68	185.29	9.33	-66.9	-73.1	3.7	0.00e+00	0	52	104
2025-01-09 11:11:22.68	185.36	9.43	-66.8	-73.0	3.6	0.00e+00	0	52	104
2025-01-09 11:11:23.58	185.42	9.52	-66.9	-73.1	3.7	0.00e+00	0	52	104
2025-01-09 11:11:24.58	185.50	9.61	-67.0	-73.1	3.7	0.00e+00	0	52	104
2025-01-09 11:11:25.48	185.56	9.70	-66.9	-73.0	3.6	0.00e+00	0	53	104
2025-01-09 11:11:26.48	185.63	9.80	-66.9	-73.0	3.7	0.00e+00	0	53	104
2025-01-09 11:11:27.38	185.70	9.89	-66.8	-73.0	3.6	0.00e+00	0	53	104
2025-01-09 11:11:28.37	185.77	9.99	-66.9	-73.1	3.6	0.00e+00	0	53	104
2025-01-09 11:11:29.27	185.84	10.08	-67.0	-73.1	3.6	0.00e+00	0	53	104
2025-01-09 11:11:30.27	185.91	10.18	-66.9	-73.0	3.6	0.00e+00	0	53	104
2025-01-09 11:11:31.17	185.98	10.27	-67.0	-73.0	3.7	0.00e+00	0	53	104
2025-01-09 11:11:32.17	186.05	10.37	-67.0	-73.0	3.6	0.00e+00	0	53	104
2025-01-09 11:11:33.07	186.12	10.46	-67.0	-73.0	3.7	0.00e+00	0	54	104
2025-01-09 11:11:34.07	186.20	10.57	-67.1	-73.0	3.6	0.00e+00	0	54	104
2025-01-09 11:11:34.97	186.27	10.66	-67.1	-73.1	3.7	0.00e+00	0	54	104
2025-01-09 11:11:35.97	186.35	10.76	-67.2	-73.3	3.7	0.00e+00	0	54	104
2025-01-09 11:11:36.87	186.42	10.86	-67.3	-73.4	3.6	0.00e+00	0	54	104
2025-01-09 11:11:37.87	186.50	10.96	-67.3	-73.1	3.7	0.00e+00	0	54	104
2025-01-09 11:11:38.77	186.57	11.06	-67.3	-73.0	3.6	0.00e+00	0	54	104
2025-01-09 11:11:39.77	186.65	11.16	-67.3	-73.2	3.7	0.00e+00	0	54	104
2025-01-09 11:11:40.67	186.72	11.26	-67.2	-73.1	3.6	0.00e+00	0	54	104
2025-01-09 11:11:41.67	186.80	11.37	-67.2	-73.1	3.6	0.00e+00	0	54	104
2025-01-09 11:11:42.57	186.88	11.46	-67.2	-73.1	3.7	0.00e+00	0	55	104
2025-01-09 11:11:43.57	186.96	11.57	-67.1	-73.1	3.6	0.00e+00	0	55	104
2025-01-09 11:11:44.47	187.04	11.67	-67.1	-73.1	3.7	0.00e+00	0	55	104
2025-01-09 11:11:45.47	187.12	11.78	-67.2	-73.1	3.6	0.00e+00	0	55	104
2025-01-09 11:11:46.37	187.20	11.87	-67.2	-73.1	3.7	0.00e+00	0	55	104
2025-01-09 11:11:47.37	187.28	11.98	-67.2	-73.1	3.7	0.00e+00	0	55	104
2025-01-09 11:11:48.27	187.36	12.08	-67.2	-73.0	3.6	0.00e+00	0	56	104
2025-01-09 11:11:49.27	187.45	12.20	-67.3	-73.0	3.7	0.00e+00	0	55	104
2025-01-09 11:11:50.17	187.53	12.30	-67.3	-72.9	3.6	0.00e+00	0	56	104
2025-01-09 11:11:51.16	187.61	12.41	-67.3	-72.9	3.6	0.00e+00	0	56	104
2025-01-09 11:11:52.06	187.69	12.51	-67.3	-72.9	3.6	0.00e+00	0	56	104
2025-01-09 11:11:53.06	187.78	12.62	-67.3	-72.7	3.6	0.00e+00	0	56	104
2025-01-09 11:11:53.96	187.87	12.72	-67.2	-72.7	3.7	0.00e+00	0	56	104
2025-01-09 11:11:54.96	187.96	12.84	-67.2	-72.7	3.6	0.00e+00	0	56	104
2025-01-09 11:11:55.86	188.04	12.94	-67.3	-72.8	3.7	0.00e+00	0	56	104
2025-01-09 11:11:56.86	188.13	13.06	-67.2	-72.7	3.6	0.00e+00	0	56	104
2025-01-09 11:11:57.76	188.22	13.16	-67.1	-72.4	3.6	0.00e+00	0	56	104
2025-01-09 11:11:58.76	188.31	13.28	-67.1	-72.3	3.7	0.00e+00	0	57	104
2025-01-09 11:11:59.66	188.40	13.39	-67.1	-72.2	3.6	0.00e+00	0	57	104
2025-01-09 11:12:00.66	188.50	13.51	-67.1	-72.2	3.7	0.00e+00	0	57	104
2025-01-09 11:12:01.56	188.58	13.61	-67.0	-71.9	3.5	0.00e+00	0	57	104
2025-01-09 11:12:02.56	188.68	13.73	-66.9	-71.7	3.6	0.00e+00	0	57	104
2025-01-09 11:12:03.46	188.77	13.84	-66.8	-71.6	3.4	0.00e+00	0	57	104
2025-01-09 11:12:04.46	188.87	13.96	-66.7	-71.5	3.5	0.00e+00	0	57	104
2025-01-09 11:12:05.36	188.96	14.07	-66.8	-71.6	3.7	0.00e+00	0	57	104
2025-01-09 11:12:06.35	189.06	14.19	-66.7	-71.4	3.5	0.00e+00	0	58	104
2025-01-09 11:12:07.26	189.15	14.31	-66.8	-71.8	3.7	0.00e+00	0	58	104
2025-01-09 11:12:08.25	189.26	14.43	-66.9	-71.9	3.5	0.00e+00	0	58	104
2025-01-09 11:12:09.16	189.35	14.54	-75.1	-69.0	11.5	0.00e+00	26	58	104
2025-01-09 11:12:10.15	189.46	14.67	-54.5	-57.3	12.1	5.76e-04	0	58	0
2025-01-09 11:12:11.06	189.55	14.78	-56.2	-59.7	11.0	5.89e-04	0	59	0
2025-01-09 11:12:12.05	189.66	14.91	-56.7	-59.7	10.9	4.09e-03	0	58	0
2025-01-09 11:12:12.95	189.76	15.02	-55.1	-57.5	12.3	5.96e-04	0	59	0
2025-01-09 11:12:13.94	189.87	15.15	-53.2	-55.7	13.3	7.62e-05	0	59	0
2025-01-09 11:12:14.85	189.97	15.26	-54.6	-57.9	12.4	6.90e-06	0	59	0
2025-01-09 11:12:15.84	190.08	15.39	-56.4	-59.6	11.5	2.01e-04	0	59	0
2025-01-09 11:12:16.75	190.18	15.51	-52.8	-55.3	13.7	2.43e-04	0	59	0
2025-01-09 11:12:17.74	190.29	15.64	-51.7	-54.1	14.3	0.00e+00	0	59	0
2025-01-09 11:12:18.65	190.39	15.76	-51.5	-54.3	14.2	0.00e+00	0	59	0
2025-01-09 11:12:19.64	190.51	15.89	-51.7	-54.6	14.1	0.00e+00	0	59	0
2025-01-09 11:12:20.55	190.62	16.01	-51.6	-54.5	14.2	0.00e+00	0	59	0
2025-01-09 11:12:21.54	190.73	16.15	-51.6	-54.4	14.2	0.00e+00	0	60	0
2025-01-09 11:12:22.45	190.84	16.27	-51.6	-54.4	14.3	6.90e-06	0	60	0
2025-01-09 11:12:23.43	190.96	16.40	-51.6	-54.4	14.3	6.90e-06	0	60	0
2025-01-09 11:12:24.34	191.07	16.53	-51.6	-54.4	14.3	0.00e+00	0	60	0
2025-01-09 11:12:25.33	191.19	16.66	-51.5	-54.2	14.3	0.00e+00	0	60	0
2025-01-09 11:12:26.24	191.30	16.79	-51.5	-54.2	14.3	0.00e+00	0	60	0
2025-01-09 11:12:27.23	191.43	16.93	-51.5	-54.3	14.3	0.00e+00	0	60	0
2025-01-09 11:12:28.14	191.54	17.05	-51.4	-54.1	14.3	0.00e+00	0	60	0
2025-01-09 11:12:29.13	191.67	17.19	-51.4	-54.0	14.2	0.00e+00	0	60	0
2025-01-09 11:12:30.04	191.78	17.32	-51.3	-53.8	14.4	0.00e+00	0	60	0
2025-01-09 11:12:31.03	191.91	17.46	-51.3	-53.8	14.4	0.00e+00	0	60	0
2025-01-09 11:12:31.94	192.03	17.59	-51.3	-53.7	14.4	0.00e+00	0	61	0
2025-01-09 11:12:32.93	192.16	17.74	-51.2	-53.5	14.5	0.00e+00	0	61	0
2025-01-09 11:12:33.84	192.28	17.87	-51.1	-53.4	14.5	0.00e+00	0	61	0
2025-01-09 11:12:34.83	192.42	18.01	-51.1	-53.4	14.5	0.00e+00	0	61	0
2025-01-09 11:12:35.73	192.54	18.15	-51.1	-53.9	14.5	0.00e+00	0	61	0
2025-01-09 11:12:36.72	192.68	18.29	-51.1	-53.9	14.5	0.00e+00	0	61	0
2025-01-09 11:12:37.63	192.81	18.43	-51.1	-53.8	14.6	0.00e+00	0	61	0
2025-01-09 11:12:38.62	192.94	18.58	-51.0	-53.7	14.7	0.00e+00	0	61	0
2025-01-09 11:12:39.53	193.07	18.71	-50.9	-53.6	14.7	0.00e+00	0	61	0
2025-01-09 11:12:40.52	193.22	18.87	-50.9	-53.5	14.7	0.00e+00	0	62	0
2025-01-09 11:12:41.42	193.35	19.00	-50.8	-53.4	14.7	0.00e+00	0	61	0
2025-01-09 11:12:42.42	193.50	19.16	-50.8	-53.3	14.6	0.00e+00	0	62	0
2025-01-09 11:12:43.32	193.63	19.30	-50.8	-53.3	14.6	0.00e+00	0	62	0
2025-01-09 11:12:44.32	193.78	19.45	-50.8	-53.2	14.6	0.00e+00	0	62	0
2025-01-09 11:12:45.22	193.92	19.59	-50.8	-53.2	14.6	0.00e+00	0	62	0
2025-01-09 11:12:46.22	194.07	19.75	-50.8	-53.2	14.7	0.00e+00	0	62	0
2025-01-09 11:12:47.12	194.21	19.89	-50.7	-53.0	14.7	0.00e+00	0	62	0
2025-01-09 11:12:48.12	194.37	20.05	-50.6	-53.3	14.8	0.00e+00	0	62	0
2025-01-09 11:12:49.02	194.51	20.20	-50.5	-53.3	14.9	0.00e+00	0	62	0
2025-01-09 11:12:50.02	194.67	20.36	-50.4	-53.1	14.9	0.00e+00	0	62	0
2025-01-09 11:12:50.92	194.81	20.51	-50.4	-53.0	14.9	0.00e+00	0	62	0
2025-01-09 11:12:51.92	194.98	20.67	-50.3	-52.8	15.0	0.00e+00	0	62	0
2025-01-09 11:12:52.82	195.13	20.82	-50.3	-52.8	15.1	0.00e+00	0	62	0
2025-01-09 11:12:53.82	195.30	20.98	-50.3	-52.7	15.1	0.00e+00	0	62	0
2025-01-09 11:12:54.72	195.45	21.13	-50.2	-52.6	15.1	0.00e+00	0	62	0
2025-01-09 11:12:55.72	195.62	21.30	-50.2	-52.6	15.1	0.00e+00	0	62	0
2025-01-09 11:12:56.62	195.78	21.45	-50.2	-52.6	15.1	0.00e+00	0	62	0
2025-01-09 11:12:57.62	195.95	21.62	-50.1	-52.4	15.1	0.00e+00	0	62	0
2025-01-09 11:12:58.52	196.11	21.78	-50.0	-52.7	15.0	0.00e+00	0	63	0
2025-01-09 11:12:59.51	196.29	21.95	-49.9	-52.6	15.1	0.00e+00	0	63	0
2025-01-09 11:13:00.41	196.45	22.11	-49.9	-52.6	15.1	0.00e+00	0	63	0
2025-01-09 11:13:01.41	196.64	22.28	-49.9	-52.4	15.2	0.00e+00	0	63	0
2025-01-09 11:13:02.31	196.80	22.44	-49.9	-52.4	15.1	0.00e+00	0	63	0
2025-01-09 11:13:03.31	196.99	22.62	-49.8	-52.3	15.2	0.00e+00	0	63	0
2025-01-09 11:13:04.21	197.16	22.78	-49.7	-52.1	15.2	0.00e+00	0	63	0
2025-01-09 11:13:05.21	197.36	22.96	-49.7	-52.0	15.2	0.00e+00	0	63	0
2025-01-09 11:13:06.11	197.53	23.12	-49.6	-51.9	15.3	0.00e+00	0	63	0
2025-01-09 11:13:07.11	197.73	23.30	-49.6	-52.0	15.3	0.00e+00	0	63	0
2025-01-09 11:13:08.01	197.91	23.46	-49.6	-51.9	15.2	0.00e+00	0	63	0
2025-01-09 11:13:09.01	198.11	23.65	-49.5	-52.1	15.3	0.00e+00	0	63	0
2025-01-09 11:13:09.91	198.29	23.82	-49.4	-52.0	15.3	0.00e+00	0	63	0
2025-01-09 11:13:10.91	198.50	24.00	-49.4	-51.9	15.4	0.00e+00	0	64	0
2025-01-09 11:13:11.81	198.69	24.17	-49.4	-51.9	15.4	0.00e+00	0	64	0
2025-01-09 11:13:12.81	198.90	24.36	-49.3	-51.7	15.5	0.00e+00	0	64	0
2025-01-09 11:13:13.71	199.10	24.53	-49.3	-51.7	15.5	0.00e+00	0	64	0
2025-01-09 11:13:14.71	199.31	24.72	-49.2	-51.6	15.4	0.00e+00	0	64	0
2025-01-09 11:13:15.61	199.51	24.90	-49.2	-51.6	15.4	0.00e+00	0	64	0
2025-01-09 11:13:16.60	199.73	25.09	-49.1	-51.4	15.5	0.00e+00	0	64	0
2025-01-09 11:13:17.51	199.94	25.26	-47.9	-50.6	15.3	0.00e+00	0	64	0
2025-01-09 11:13:18.50	200.16	25.46	-47.9	-50.6	15.3	0.00e+00	0	64	0
2025-01-09 11:13:19.41	200.38	25.64	-47.9	-50.5	15.3	0.00e+00	0	64	0
2025-01-09 11:13:20.40	200.61	25.84	-47.9	-50.5	15.3	0.00e+00	0	64	0
2025-01-09 11:13:21.30	200.82	26.02	-47.8	-50.3	15.3	0.00e+00	0	65	0
2025-01-09 11:13:22.29	201.06	26.21	-47.7	-50.2	15.3	0.00e+00	0	65	0
2025-01-09 11:13:23.20	201.28	26.40	-47.7	-50.0	15.4	0.00e+00	0	64	0
2025-01-09 11:13:24.19	201.53	26.60	-47.6	-49.9	15.4	0.00e+00	0	65	0
2025-01-09 11:13:25.10	201.76	26.79	-47.6	-49.9	15.5	0.00e+00	0	65	0
2025-01-09 11:13:26.09	202.01	26.99	-47.5	-50.3	15.5	0.00e+00	0	65	0
2025-01-09 11:13:27.00	202.24	27.18	-47.5	-50.2	15.5	0.00e+00	0	65	0
2025-01-09 11:13:27.99	202.50	27.39	-47.5	-50.1	15.6	0.00e+00	0	65	0
2025-01-09 11:13:28.90	202.74	27.58	-47.5	-50.1	15.6	0.00e+00	0	65	0
2025-01-09 11:13:29.89	203.00	27.79	-47.4	-50.0	15.5	0.00e+00	0	65	0
2025-01-09 11:13:30.80	203.25	27.98	-47.4	-50.0	15.6	0.00e+00	0	65	0
2025-01-09 11:13:31.79	203.52	28.19	-47.4	-49.9	15.6	0.00e+00	0	65	0
2025-01-09 11:13:32.70	203.78	28.39	-47.3	-49.8	15.6	0.00e+00	0	65	0
2025-01-09 11:13:33.68	204.05	28.60	-47.2	-49.7	15.6	0.00e+00	0	65	0
2025-01-09 11:13:34.59	204.31	28.80	-47.2	-49.6	15.6	0.00e+00	0	65	0
2025-01-09 11:13:35.58	204.60	29.01	-47.1	-49.4	15.7	0.00e+00	0	65	0
2025-01-09 11:13:36.49	204.87	29.21	-47.1	-49.4	15.7	0.00e+00	0	65	0
2025-01-09 11:13:37.48	205.16	29.43	-47.0	-49.8	15.7	0.00e+00	0	65	0
2025-01-09 11:13:38.39	205.44	29.63	-47.0	-49.7	15.7	0.00e+00	0	65	0
2025-01-09 11:13:39.38	205.74	29.85	-46.9	-49.5	15.7	0.00e+00	0	65	0
2025-01-09 11:13:40.29	206.03	30.06	-46.9	-49.5	15.8	0.00e+00	0	66	0
2025-01-09 11:13:41.28	206.34	30.28	-46.9	-49.5	15.7	0.00e+00	0	66	0
2025-01-09 11:13:42.19	206.63	30.49	-46.9	-49.5	15.8	0.00e+00	0	66	0
2025-01-09 11:13:43.18	206.95	30.71	-46.9	-49.4	15.8	0.00e+00	0	66	0
2025-01-09 11:13:44.08	207.25	30.92	-46.8	-49.2	15.8	0.00e+00	0	66	0
2025-01-09 11:13:45.07	207.58	31.15	-46.7	-49.1	15.8	0.00e+00	0	66	0
2025-01-09 11:13:45.98	207.89	31.36	-46.7	-49.0	15.9	0.00e+00	0	66	0
2025-01-09 11:13:46.97	208.23	31.59	-46.6	-48.8	15.9	0.00e+00	0	66	0
2025-01-09 11:13:47.88	208.55	31.80	-46.5	-49.2	15.9	0.00e+00	0	66	0
2025-01-09 11:13:48.87	208.90	32.03	-46.5	-49.1	15.9	0.00e+00	0	66	0
2025-01-09 11:13:49.78	209.22	32.24	-46.5	-49.1	15.9	0.00e+00	0	66	0
2025-01-09 11:13:50.76	209.58	32.47	-46.5	-49.1	16.0	0.00e+00	0	66	0
2025-01-09 11:13:51.67	209.92	32.69	-46.4	-49.1	16.0	0.00e+00	0	67	0
2025-01-09 11:13:52.66	210.29	32.93	-46.4	-49.0	16.0	0.00e+00	0	67	0
2025-01-09 11:13:53.57	210.63	33.14	-46.3	-48.8	16.0	0.00e+00	0	67	0
2025-01-09 11:13:54.56	211.01	33.38	-46.3	-48.7	16.0	0.00e+00	0	66	0
2025-01-09 11:13:55.47	211.37	33.60	-46.2	-48.6	16.0	0.00e+00	0	67	0
2025-01-09 11:13:56.46	211.76	33.84	-46.2	-48.6	16.1	0.00e+00	0	67	0
2025-01-09 11:13:57.37	212.13	34.06	-46.1	-48.4	16.1	0.00e+00	0	67	0
2025-01-09 11:13:58.36	212.54	34.29	-46.1	-48.4	16.1	0.00e+00	0	67	0
2025-01-09 11:13:59.27	212.92	34.52	-46.0	-48.8	16.1	0.00e+00	0	67	0
2025-01-09 11:14:00.26	213.33	34.76	-46.1	-48.8	16.1	0.00e+00	0	67	0
2025-01-09 11:14:01.17	213.72	34.98	-46.0	-48.6	16.1	0.00e+00	0	67	0
2025-01-09 11:14:02.16	214.15	35.22	-46.0	-48.6	16.1	0.00e+00	0	67	0
2025-01-09 11:14:03.07	214.55	35.44	-45.9	-48.5	16.1	0.00e+00	0	67	0
2025-01-09 11:14:04.06	215.00	35.68	-45.9	-48.5	16.1	0.00e+00	0	67	0
2025-01-09 11:14:04.97	215.41	35.91	-45.8	-48.3	16.0	0.00e+00	0	67	0
2025-01-09 11:14:05.96	215.87	36.15	-45.8	-48.2	16.0	0.00e+00	0	67	0
2025-01-09 11:14:06.86	216.29	36.37	-45.7	-48.1	16.1	0.00e+00	0	67	0
2025-01-09 11:14:07.86	216.76	36.62	-45.7	-48.0	16.2	0.00e+00	0	67	0
2025-01-09 11:14:08.76	217.20	36.84	-45.6	-48.0	16.2	0.00e+00	0	68	0
2025-01-09 11:14:09.75	217.68	37.08	-45.6	-47.9	16.2	0.00e+00	0	67	0
2025-01-09 11:14:10.65	218.13	37.30	-45.6	-48.3	16.2	0.00e+00	0	67	0
2025-01-09 11:14:11.65	218.63	37.54	-45.5	-48.2	16.2	0.00e+00	0	67	0
2025-01-09 11:14:12.55	219.09	37.76	-45.5	-48.2	16.2	0.00e+00	0	67	0
2025-01-09 11:14:13.55	219.61	38.01	-45.5	-48.1	16.1	0.00e+00	0	68	0
2025-01-09 11:14:14.45	220.08	38.23	-45.5	-48.1	16.1	0.00e+00	0	68	0
2025-01-09 11:14:15.45	220.62	38.47	-45.4	-47.9	16.1	0.00e+00	0	67	0
2025-01-09 11:14:16.35	221.11	38.69	-45.4	-47.9	16.1	0.00e+00	0	68	0
2025-01-09 11:14:17.35	221.66	38.93	-45.4	-47.9	16.2	0.00e+00	0	68	0
2025-01-09 11:14:18.25	222.16	39.15	-45.9	-48.9	16.1	0.00e+00	0	68	0
2025-01-09 11:14:19.25	222.73	39.39	-46.7	-50.0	15.8	0.00e+00	0	68	0
2025-01-09 11:14:20.15	223.25	39.60	-46.9	-50.0	15.7	0.00e+00	0	68	0
2025-01-09 11:14:21.15	223.83	39.84	-46.8	-49.9	15.7	0.00e+00	0	68	0
2025-01-09 11:14:22.05	224.36	40.05	-46.8	-49.7	15.8	0.00e+00	0	68	0
2025-01-09 11:14:23.05	224.96	40.29	-46.8	-49.8	15.8	0.00e+00	0	68	0
2025-01-09 11:14:23.95	225.51	40.49	-46.6	-49.4	15.8	0.00e+00	0	68	0
2025-01-09 11:14:24.95	226.13	40.73	-46.6	-49.3	15.8	0.00e+00	0	68	0
2025-01-09 11:14:25.85	226.69	40.93	-46.4	-49.1	15.8	0.00e+00	0	68	0
2025-01-09 11:14:26.85	227.32	41.16	-46.5	-49.1	15.9	0.00e+00	0	68	0
2025-01-09 11:14:27.75	227.90	41.36	-46.6	-49.4	15.8	0.00e+00	0	68	0
2025-01-09 11:14:28.75	228.56	41.58	-46.7	-49.7	15.8	0.00e+00	0	68	0
2025-01-09 11:14:29.65	229.15	41.78	-46.8	-49.8	15.7	0.00e+00	0	68	0
2025-01-09 11:14:30.64	229.81	42.00	-47.1	-50.3	15.6	0.00e+00	0	68	0
2025-01-09 11:14:31.54	230.42	42.19	-47.0	-50.2	15.6	0.00e+00	0	68	0
2025-01-09 11:14:32.54	231.11	42.41	-47.1	-50.3	15.5	0.00e+00	0	68	0
2025-01-09 11:14:33.44	231.74	42.59	-47.1	-50.3	15.6	0.00e+00	0	69	0
2025-01-09 11:14:34.44	232.44	42.80	-47.2	-50.6	15.5	0.00e+00	0	68	0
2025-01-09 11:14:35.34	233.09	42.98	-47.0	-50.2	15.6	0.00e+00	0	68	0
2025-01-09 11:14:36.34	233.81	43.18	-46.8	-49.8	15.6	0.00e+00	0	69	0
2025-01-09 11:14:37.24	234.47	43.36	-46.8	-49.7	15.7	0.00e+00	0	68	0
2025-01-09 11:14:38.24	235.21	43.55	-47.0	-50.1	15.7	0.00e+00	0	69	0
2025-01-09 11:14:39.14	235.88	43.72	-46.9	-50.0	15.6	0.00e+00	0	69	0
2025-01-09 11:14:40.14	236.64	43.91	-47.1	-50.4	15.5	0.00e+00	0	69	0
2025-01-09 11:14:41.04	237.33	44.07	-47.2	-50.6	15.5	0.00e+00	0	69	0
2025-01-09 11:14:42.04	238.10	44.24	-47.3	-50.7	15.5	0.00e+00	0	69	0
2025-01-09 11:14:42.94	238.81	44.40	-47.5	-50.7	15.4	0.00e+00	0	69	0
2025-01-09 11:14:43.93	239.59	44.56	-47.7	-51.0	15.3	0.00e+00	0	69	0
2025-01-09 11:14:44.84	240.31	44.71	-47.7	-51.1	15.4	0.00e+00	0	69	0
2025-01-09 11:14:45.83	241.11	44.87	-47.6	-50.4	15.5	0.00e+00	0	69	0
2025-01-09 11:14:46.74	241.85	45.00	-47.6	-50.3	15.4	0.00e+00	0	69	0
2025-01-09 11:14:47.73	242.67	45.15	-47.8	-50.8	15.4	0.00e+00	0	69	0
2025-01-09 11:14:48.64	243.42	45.28	-47.7	-50.5	15.5	0.00e+00	0	69	0
2025-01-09 11:14:49.63	244.25	45.41	-47.6	-50.5	15.5	0.00e+00	0	69	0
2025-01-09 11:14:50.54	245.01	45.53	-47.4	-50.0	15.7	0.00e+00	0	69	0
2025-01-09 11:14:51.53	245.85	45.65	-47.3	-49.8	15.7	0.00e+00	0	69	0
2025-01-09 11:14:52.43	246.62	45.76	-47.3	-49.8	15.7	0.00e+00	0	69	0
2025-01-09 11:14:53.42	247.48	45.87	-47.4	-50.0	15.7	0.00e+00	0	69	0
2025-01-09 11:14:54.33	248.27	45.96	-47.6	-50.3	15.6	0.00e+00	0	69	0
2025-01-09 11:14:55.32	249.13	46.06	-47.6	-50.4	15.7	0.00e+00	0	70	0
2025-01-09 11:14:56.23	249.93	46.15	-47.8	-50.8	15.6	0.00e+00	0	70	0
2025-01-09 11:14:57.22	250.80	46.23	-47.9	-50.9	15.5	0.00e+00	0	69	0
2025-01-09 11:14:58.13	251.61	46.30	-47.7	-50.5	15.6	0.00e+00	0	69	0
2025-01-09 11:14:59.12	252.49	46.38	-48.0	-51.2	15.4	0.00e+00	0	70	0
2025-01-09 11:15:00.03	253.31	46.44	-48.3	-51.4	15.4	0.00e+00	0	70	0
2025-01-09 11:15:01.01	254.19	46.49	-48.1	-50.8	15.5	0.00e+00	0	70	0
2025-01-09 11:15:01.92	255.01	46.54	-48.1	-50.9	15.5	0.00e+00	0	70	0
2025-01-09 11:15:02.91	255.90	46.59	-48.2	-51.0	15.5	0.00e+00	0	69	0
2025-01-09 11:15:03.82	256.72	46.62	-48.3	-51.3	15.4	0.00e+00	0	70	0
2025-01-09 11:15:04.81	257.62	46.65	-48.0	-50.8	15.5	0.00e+00	0	70	0
2025-01-09 11:15:05.72	258.45	46.67	-48.2	-51.1	15.4	0.00e+00	0	70	0
2025-01-09 11:15:06.71	259.35	46.69	-48.4	-51.4	15.3	0.00e+00	0	70	0
2025-01-09 11:15:07.62	260.18	46.70	-48.5	-51.6	15.2	0.00e+00	0	70	0
2025-01-09 11:15:08.61	261.08	46.70	-48.4	-51.5	15.2	0.00e+00	0	70	0
2025-01-09 11:15:09.52	261.91	46.69	-48.6	-51.9	15.0	0.00e+00	0	70	0
2025-01-09 11:15:10.51	262.82	46.68	-48.5	-51.7	15.2	0.00e+00	0	70	0
2025-01-09 11:15:11.42	263.64	46.66	-48.5	-51.8	15.2	0.00e+00	0	70	0
2025-01-09 11:15:12.41	264.54	46.64	-48.5	-51.7	15.3	0.00e+00	0	70	0
2025-01-09 11:15:13.32	265.37	46.61	-48.7	-52.2	15.1	0.00e+00	0	70	0
2025-01-09 11:15:14.31	266.26	46.56	-48.5	-51.7	15.2	0.00e+00	0	70	0
2025-01-09 11:15:15.21	267.08	46.52	-48.7	-51.6	15.0	0.00e+00	0	70	0
2025-01-09 11:15:16.20	267.97	46.47	-48.9	-52.0	14.9	0.00e+00	0	70	0
2025-01-09 11:15:17.11	268.78	46.41	-48.7	-51.5	15.2	0.00e+00	0	70	0
2025-01-09 11:15:18.10	269.66	46.34	-48.5	-51.2	15.2	0.00e+00	0	70	0
2025-01-09 11:15:19.00	270.46	46.27	-48.7	-51.6	15.1	0.00e+00	0	70	0
2025-01-09 11:15:20.00	271.35	46.19	-48.4	-51.1	15.2	0.00e+00	0	70	0
2025-01-09 11:15:20.90	272.14	46.11	-48.5	-51.2	15.2	0.00e+00	0	70	0
2025-01-09 11:15:21.90	273.01	46.01	-48.9	-51.9	15.1	0.00e+00	0	70	0
2025-01-09 11:15:22.80	273.79	45.92	-48.4	-51.0	15.3	0.00e+00	0	70	0
2025-01-09 11:15:23.80	274.66	45.81	-48.1	-50.5	15.3	0.00e+00	0	70	0
2025-01-09 11:15:24.70	275.43	45.71	-48.2	-51.2	15.2	0.00e+00	0	70	0
2025-01-09 11:15:25.70	276.28	45.59	-48.0	-50.7	15.3	0.00e+00	0	70	0
2025-01-09 11:15:26.60	277.04	45.48	-48.4	-51.4	15.2	0.00e+00	0	70	0
2025-01-09 11:15:27.60	277.87	45.35	-48.1	-50.8	15.3	0.00e+00	0	70	0
2025-01-09 11:15:28.50	278.62	45.22	-48.3	-51.2	15.3	0.00e+00	0	70	0
2025-01-09 11:15:29.50	279.44	45.08	-48.4	-51.4	15.2	0.00e+00	0	70	0
2025-01-09 11:15:30.40	280.18	44.95	-48.4	-51.5	15.1	0.00e+00	0	71	0
2025-01-09 11:15:31.40	280.99	44.79	-48.6	-51.9	15.0	0.00e+00	0	70	0
2025-01-09 11:15:32.30	281.71	44.65	-48.5	-51.6	15.1	0.00e+00	0	71	0
2025-01-09 11:15:33.30	282.50	44.49	-48.8	-51.7	15.0	0.00e+00	0	70	0
2025-01-09 11:15:34.20	283.21	44.33	-48.7	-51.7	15.1	0.00e+00	0	70	0
2025-01-09 11:15:35.20	283.98	44.16	-48.6	-51.4	15.2	0.00e+00	0	70	0
2025-01-09 11:15:36.10	284.67	44.00	-48.5	-51.2	15.2	0.00e+00	0	70	0
2025-01-09 11:15:37.10	285.43	43.82	-48.7	-51.5	15.0	0.00e+00	0	71	0
2025-01-09 11:15:38.00	286.11	43.65	-48.4	-51.0	15.2	0.00e+00	0	71	0
2025-01-09 11:15:38.99	286.84	43.47	-48.5	-51.1	15.3	0.00e+00	0	71	0
2025-01-09 11:15:39.89	287.50	43.29	-48.0	-50.6	15.4	0.00e+00	0	71	0
2025-01-09 11:15:40.89	288.23	43.10	-48.0	-50.6	15.4	0.00e+00	0	71	0
2025-01-09 11:15:41.79	288.87	42.92	-47.6	-50.0	15.6	0.00e+00	0	70	0
2025-01-09 11:15:42.79	289.58	42.71	-47.9	-50.5	15.5	0.00e+00	0	71	0
2025-01-09 11:15:43.69	290.21	42.53	-48.0	-50.6	15.4	0.00e+00	0	71	0
2025-01-09 11:15:44.69	290.90	42.32	-47.9	-50.5	15.5	0.00e+00	0	71	0
2025-01-09 11:15:45.59	291.51	42.12	-48.2	-51.1	15.4	0.00e+00	0	71	0
2025-01-09 11:15:46.59	292.19	41.91	-47.9	-50.4	15.4	0.00e+00	0	70	0
2025-01-09 11:15:47.49	292.78	41.71	-47.6	-49.9	15.6	0.00e+00	0	71	0
2025-01-09 11:15:48.49	293.44	41.49	-47.7	-50.1	15.6	0.00e+00	0	71	0
2025-01-09 11:15:49.39	294.02	41.29	-47.7	-50.1	15.5	0.00e+00	0	71	0
2025-01-09 11:15:50.39	294.66	41.07	-47.9	-50.4	15.4	0.00e+00	0	71	0
2025-01-09 11:15:51.29	295.22	40.86	-46.8	-49.2	15.9	0.00e+00	0	71	0
2025-01-09 11:15:52.29	295.84	40.63	-47.4	-50.5	15.6	0.00e+00	0	71	0
2025-01-09 11:15:53.19	296.39	40.43	-47.2	-50.0	15.7	0.00e+00	0	71	0
2025-01-09 11:15:54.19	296.99	40.20	-47.0	-49.6	15.7	0.00e+00	0	71	0
2025-01-09 11:15:55.09	297.53	39.98	-46.9	-49.4	15.8	0.00e+00	0	71	0
2025-01-09 11:15:56.09	298.11	39.75	-47.0	-49.8	15.8	0.00e+00	0	71	0
2025-01-09 11:15:56.99	298.63	39.54	-46.9	-49.6	15.8	0.00e+00	0	71	0
2025-01-09 11:15:57.99	299.20	39.30	-47.1	-49.9	15.8	0.00e+00	0	71	0
2025-01-09 11:15:58.89	299.71	39.09	-47.3	-50.3	15.8	0.00e+00	0	71	0
2025-01-09 11:15:59.88	300.25	38.85	-47.3	-50.2	15.8	0.00e+00	0	71	0
2025-01-09 11:16:00.78	300.74	38.63	-47.0	-49.7	15.8	0.00e+00	0	71	0
2025-01-09 11:16:01.78	301.28	38.39	-46.8	-49.2	15.9	0.00e+00	0	71	0
2025-01-09 11:16:02.68	301.76	38.17	-46.8	-49.4	15.8	0.00e+00	0	71	0
2025-01-09 11:16:03.68	302.28	37.93	-46.6	-48.9	15.7	0.00e+00	0	71	0
2025-01-09 11:16:04.58	302.74	37.71	-46.8	-49.3	15.7	0.00e+00	0	71	0
2025-01-09 11:16:05.58	303.25	37.47	-47.0	-49.6	15.7	0.00e+00	0	71	0
2025-01-09 11:16:06.48	303.69	37.25	-47.0	-49.6	15.7	0.00e+00	0	71	0
2025-01-09 11:16:07.48	304.19	37.01	-47.2	-50.1	15.7	0.00e+00	0	71	0
2025-01-09 11:16:08.38	304.62	36.79	-47.2	-50.1	15.6	0.00e+00	0	71	0
2025-01-09 11:16:09.38	305.10	36.55	-47.2	-50.0	15.6	0.00e+00	0	71	0
2025-01-09 11:16:10.28	305.52	36.33	-47.2	-50.2	15.6	0.00e+00	0	71	0
2025-01-09 11:16:11.27	305.98	36.08	-47.1	-49.8	15.7	0.00e+00	0	71	0
2025-01-09 11:16:12.18	306.39	35.86	-46.9	-49.5	15.7	0.00e+00	0	71	0
2025-01-09 11:16:13.17	306.84	35.62	-46.9	-49.4	15.8	0.00e+00	0	71	0
2025-01-09 11:16:14.08	307.24	35.40	-46.9	-49.4	15.7	0.00e+00	0	71	0
2025-01-09 11:16:15.07	307.67	35.16	-47.0	-49.6	15.8	0.00e+00	0	71	0
2025-01-09 11:16:15.98	308.06	34.94	-47.0	-49.7	15.7	0.00e+00	0	71	0
2025-01-09 11:16:16.97	308.48	34.70	-46.9	-49.5	15.7	0.00e+00	0	71	0
2025-01-09 11:16:17.88	308.86	34.48	-47.1	-49.9	15.6	0.00e+00	0	71	0
2025-01-09 11:16:18.87	309.27	34.24	-47.3	-50.3	15.5	0.00e+00	0	71	0
2025-01-09 11:16:19.78	309.64	34.03	-47.3	-50.4	15.5	0.00e+00	0	71	0
2025-01-09 11:16:20.77	310.03	33.79	-47.4	-50.4	15.4	0.00e+00	0	71	0
2025-01-09 11:16:21.67	310.39	33.58	-47.3	-50.3	15.5	0.00e+00	0	71	0
2025-01-09 11:16:22.66	310.77	33.34	-47.1	-50.0	15.6	0.00e+00	0	71	0
2025-01-09 11:16:23.57	311.12	33.12	-47.1	-49.9	15.7	0.00e+00	0	71	0
2025-01-09 11:16:24.56	311.49	32.89	-47.1	-50.0	15.6	0.00e+00	0	72	0
2025-01-09 11:16:25.47	311.83	32.68	-47.1	-49.8	15.6	0.00e+00	0	71	0
2025-01-09 11:16:26.46	312.19	32.44	-47.1	-49.8	15.6	0.00e+00	0	71	0
2025-01-09 11:16:27.37	312.52	32.23	-47.2	-50.1	15.6	0.00e+00	0	71	0
2025-01-09 11:16:28.35	312.87	32.00	-47.3	-50.3	15.5	0.00e+00	0	71	0
2025-01-09 11:16:29.26	313.19	31.79	-47.3	-50.3	15.5	0.00e+00	0	71	0
2025-01-09 11:16:30.25	313.53	31.56	-47.4	-50.5	15.5	0.00e+00	0	71	0
2025-01-09 11:16:31.16	313.84	31.35	-47.6	-50.8	15.5	0.00e+00	0	71	0
2025-01-09 11:16:32.15	314.17	31.13	-47.4	-50.4	15.7	0.00e+00	0	71	0
2025-01-09 11:16:33.06	314.47	30.92	-47.2	-50.1	15.7	0.00e+00	0	71	0
2025-01-09 11:16:34.05	314.80	30.70	-47.2	-50.2	15.7	0.00e+00	0	72	0
2025-01-09 11:16:34.96	315.09	30.49	-47.3	-50.2	15.7	0.00e+00	0	71	0
2025-01-09 11:16:35.95	315.40	30.27	-47.3	-50.3	15.7	0.00e+00	0	71	0
2025-01-09 11:16:36.86	315.69	30.07	-47.4	-50.4	15.6	0.00e+00	0	71	0
2025-01-09 11:16:37.85	315.99	29.85	-47.3	-50.4	15.5	0.00e+00	0	72	0
2025-01-09 11:16:38.76	316.27	29.65	-47.4	-50.4	15.4	0.00e+00	0	72	0
2025-01-09 11:16:39.75	316.57	29.43	-47.6	-50.9	15.2	0.00e+00	0	72	0
2025-01-09 11:16:40.66	316.83	29.23	-47.7	-50.6	15.2	0.00e+00	0	72	0
2025-01-09 11:16:41.65	317.12	29.01	-47.8	-50.8	15.1	0.00e+00	0	72	0
2025-01-09 11:16:42.56	317.38	28.82	-47.9	-51.0	15.1	0.00e+00	0	72	0
2025-01-09 11:16:43.55	317.67	28.60	-48.0	-51.1	15.1	0.00e+00	0	71	0
2025-01-09 11:16:44.45	317.92	28.41	-47.8	-50.8	15.3	0.00e+00	0	72	0
2025-01-09 11:16:45.45	318.19	28.20	-47.7	-50.5	15.4	0.00e+00	0	72	0
2025-01-09 11:16:46.35	318.44	28.01	-47.7	-50.6	15.3	0.00e+00	0	72	0
2025-01-09 11:16:47.34	318.71	27.80	-47.7	-50.7	15.3	0.00e+00	0	72	0
2025-01-09 11:16:48.24	318.94	27.61	-47.8	-50.8	15.2	0.00e+00	0	71	0
2025-01-09 11:16:49.24	319.21	27.40	-47.8	-50.8	15.2	0.00e+00	0	72	0
2025-01-09 11:16:50.14	319.44	27.22	-48.0	-51.2	15.2	0.00e+00	0	72	0
2025-01-09 11:16:51.14	319.69	27.01	-48.1	-51.5	15.2	0.00e+00	0	72	0
2025-01-09 11:16:52.04	319.92	26.83	-48.4	-51.4	15.2	0.00e+00	0	72	0
2025-01-09 11:16:53.04	320.17	26.63	-48.4	-51.5	15.2	0.00e+00	0	72	0
2025-01-09 11:16:53.94	320.39	26.44	-48.5	-51.7	15.1	0.00e+00	0	72	0
2025-01-09 11:16:54.94	320.63	26.24	-48.4	-51.5	15.1	0.00e+00	0	72	0
2025-01-09 11:16:55.84	320.85	26.07	-48.3	-51.3	15.1	0.00e+00	0	72	0
2025-01-09 11:16:56.84	321.08	25.87	-48.2	-51.1	15.1	0.00e+00	0	72	0
2025-01-09 11:16:57.74	321.29	25.69	-48.2	-51.0	15.2	0.00e+00	0	72	0
2025-01-09 11:16:58.74	321.52	25.49	-48.3	-51.3	15.2	0.00e+00	0	72	0
2025-01-09 11:16:59.64	321.73	25.32	-48.3	-51.3	15.2	0.00e+00	0	72	0
2025-01-09 11:17:00.64	321.95	25.13	-48.4	-51.4	15.2	0.00e+00	0	72	0
2025-01-09 11:17:01.54	322.15	24.95	-48.4	-51.5	15.2	0.00e+00	0	72	0
2025-01-09 11:17:02.54	322.37	24.76	-48.5	-51.7	15.2	0.00e+00	0	72	0
2025-01-09 11:17:03.44	322.56	24.59	-48.6	-51.9	15.1	0.00e+00	0	72	0
2025-01-09 11:17:04.44	322.78	24.41	-48.9	-51.9	15.1	0.00e+00	0	72	0
2025-01-09 11:17:05.34	322.97	24.24	-48.9	-52.1	15.0	0.00e+00	0	72	0
2025-01-09 11:17:06.34	323.17	24.05	-48.9	-52.1	15.1	0.00e+00	0	72	0
2025-01-09 11:17:07.24	323.36	23.88	-49.1	-52.4	15.0	0.00e+00	0	72	0
2025-01-09 11:17:08.23	323.56	23.70	-49.1	-52.5	14.9	0.00e+00	0	72	0
2025-01-09 11:17:09.13	323.74	23.54	-49.0	-52.1	15.1	0.00e+00	0	72	0
2025-01-09 11:17:10.13	323.94	23.36	-48.9	-51.9	15.1	0.00e+00	0	72	0
2025-01-09 11:17:11.03	324.12	23.20	-48.8	-51.9	15.1	0.00e+00	0	72	0
2025-01-09 11:17:12.03	324.31	23.02	-48.9	-52.0	15.1	0.00e+00	0	72	0
2025-01-09 11:17:12.93	324.48	22.86	-49.0	-52.2	15.0	0.00e+00	0	72	0
2025-01-09 11:17:13.93	324.67	22.68	-49.0	-52.3	15.0	0.00e+00	0	72	0
2025-01-09 11:17:14.83	324.84	22.52	-49.1	-52.4	14.9	0.00e+00	0	72	0
2025-01-09 11:17:15.83	325.02	22.35	-49.3	-52.7	14.9	0.00e+00	0	72	0
2025-01-09 11:17:16.73	325.19	22.19	-49.4	-52.5	14.9	0.00e+00	0	72	0
2025-01-09 11:17:17.73	325.37	22.02	-49.6	-52.9	14.8	0.00e+00	0	72	0
2025-01-09 11:17:18.63	325.53	21.87	-49.6	-53.0	14.8	0.00e+00	0	72	0
2025-01-09 11:17:19.63	325.71	21.70	-49.8	-53.2	14.8	0.00e+00	0	72	0
2025-01-09 11:17:20.53	325.86	21.55	-49.7	-53.0	14.8	0.00e+00	0	72	0
2025-01-09 11:17:21.53	326.03	21.38	-50.9	-54.0	15.0	0.00e+00	0	72	0
2025-01-09 11:17:22.43	326.19	21.23	-50.9	-54.1	14.9	0.00e+00	0	72	0
2025-01-09 11:17:23.43	326.36	21.06	-50.9	-53.9	14.9	0.00e+00	0	72	0
2025-01-09 11:17:24.33	326.51	20.92	-50.7	-53.6	15.0	0.00e+00	0	72	0
2025-01-09 11:17:25.33	326.67	20.75	-50.7	-53.6	15.0	0.00e+00	0	72	0
2025-01-09 11:17:26.23	326.82	20.61	-50.7	-53.7	15.0	0.00e+00	0	72	0
2025-01-09 11:17:27.23	326.98	20.44	-50.8	-53.7	15.0	0.00e+00	0	72	0
2025-01-09 11:17:28.13	327.12	20.30	-50.8	-53.8	14.9	0.00e+00	0	72	0
2025-01-09 11:17:29.12	327.28	20.14	-50.9	-54.0	14.9	0.00e+00	0	72	0
2025-01-09 11:17:30.02	327.42	20.00	-51.0	-54.3	14.8	0.00e+00	0	72	0
2025-01-09 11:17:31.02	327.57	19.84	-51.0	-54.3	14.8	0.00e+00	0	72	0
2025-01-09 11:17:31.92	327.71	19.70	-51.2	-54.7	14.8	0.00e+00	0	72	0
2025-01-09 11:17:32.92	327.86	19.55	-51.3	-54.4	14.7	0.00e+00	0	72	0
2025-01-09 11:17:33.82	328.00	19.41	-51.5	-54.6	14.6	0.00e+00	0	72	0
2025-01-09 11:17:34.82	328.15	19.26	-51.6	-54.8	14.6	0.00e+00	0	72	0
2025-01-09 11:17:35.72	328.28	19.12	-51.6	-54.8	14.6	0.00e+00	0	72	0
2025-01-09 11:17:36.72	328.42	18.97	-51.6	-55.0	14.5	0.00e+00	0	72	0
2025-01-09 11:17:37.62	328.55	18.83	-51.6	-55.0	14.5	0.00e+00	0	72	0
2025-01-09 11:17:38.61	328.69	18.68	-51.6	-55.0	14.5	0.00e+00	0	72	0
2025-01-09 11:17:39.52	328.82	18.55	-51.5	-54.8	14.6	0.00e+00	0	72	0
2025-01-09 11:17:40.51	328.96	18.40	-51.5	-54.6	14.6	0.00e+00	0	72	0
2025-01-09 11:17:41.42	329.08	18.27	-51.4	-54.5	14.7	0.00e+00	0	72	0
2025-01-09 11:17:42.41	329.22	18.13	-51.4	-54.4	14.7	0.00e+00	0	72	0
2025-01-09 11:17:43.32	329.34	17.99	-51.4	-54.6	14.7	0.00e+00	0	72	0
2025-01-09 11:17:44.31	329.47	17.85	-51.4	-54.5	14.7	0.00e+00	0	72	0
2025-01-09 11:17:45.22	329.59	17.72	-51.6	-55.0	14.5	0.00e+00	0	72	0
2025-01-09 11:17:46.21	329.72	17.58	-51.8	-55.2	14.5	0.00e+00	0	72	0
2025-01-09 11:17:47.12	329.84	17.45	-67.8	-77.5	3.6	0.00e+00	0	72	104
2025-01-09 11:17:48.11	329.97	17.31	-67.9	-73.6	3.6	0.00e+00	0	72	104
2025-01-09 11:17:49.02	330.08	17.19	-67.9	-73.6	3.7	0.00e+00	0	72	104
2025-01-09 11:17:50.01	330.21	17.05	-67.9	-73.7	3.6	0.00e+00	0	72	104
2025-01-09 11:17:50.91	330.32	16.92	-68.0	-73.8	3.7	0.00e+00	0	72	104
2025-01-09 11:17:51.90	330.44	16.79	-68.0	-73.9	3.7	0.00e+00	0	72	104
2025-01-09 11:17:52.81	330.55	16.66	-67.9	-73.8	3.6	0.00e+00	0	72	104
2025-01-09 11:17:53.80	330.67	16.53	-68.0	-73.9	3.7	0.00e+00	0	72	104
2025-01-09 11:17:54.71	330.78	16.41	-67.9	-73.8	3.6	0.00e+00	0	72	104
2025-01-09 11:17:55.69	330.90	16.28	-67.8	-73.7	3.6	0.00e+00	0	72	104
2025-01-09 11:17:56.60	331.00	16.15	-67.8	-73.7	3.6	0.00e+00	0	72	104
2025-01-09 11:17:57.59	331.12	16.02	-67.8	-73.7	3.7	0.00e+00	0	72	104
2025-01-09 11:17:58.50	331.22	15.90	-67.8	-73.6	3.7	0.00e+00	0	72	104
2025-01-09 11:17:59.49	331.34	15.77	-67.8	-73.6	3.6	0.00e+00	0	72	104
2025-01-09 11:18:00.40	331.44	15.66	-67.8	-73.6	3.7	0.00e+00	0	72	104
2025-01-09 11:18:01.39	331.55	15.53	-67.7	-73.5	3.6	0.00e+00	0	72	104
2025-01-09 11:18:02.30	331.65	15.41	-67.7	-73.5	3.7	0.00e+00	0	72	104
2025-01-09 11:18:03.29	331.76	15.28	-67.7	-73.6	3.6	0.00e+00	0	72	104
2025-01-09 11:18:04.20	331.86	15.17	-67.8	-73.6	3.6	0.00e+00	0	72	104
2025-01-09 11:18:05.19	331.97	15.04	-67.8	-73.5	3.7	0.00e+00	0	72	104
2025-01-09 11:18:06.10	332.07	14.93	-67.8	-73.5	3.6	0.00e+00	0	72	104
2025-01-09 11:18:07.09	332.17	14.81	-67.7	-73.4	3.7	0.00e+00	0	72	104
2025-01-09 11:18:08.00	332.27	14.69	-67.6	-73.3	3.6	0.00e+00	0	72	104
2025-01-09 11:18:08.99	332.37	14.57	-67.5	-73.1	3.7	0.00e+00	0	72	104
2025-01-09 11:18:09.90	332.46	14.46	-67.5	-73.1	3.7	0.00e+00	0	72	104
2025-01-09 11:18:10.89	332.57	14.34	-67.4	-73.0	3.7	0.00e+00	0	72	104
2025-01-09 11:18:11.80	332.66	14.23	-67.4	-72.9	3.7	0.00e+00	0	72	104
2025-01-09 11:18:12.79	332.76	14.11	-67.3	-72.9	3.6	0.00e+00	0	72	104
2025-01-09 11:18:13.69	332.85	14.00	-67.4	-72.9	3.7	0.00e+00	0	72	104
2025-01-09 11:18:14.69	332.95	13.88	-67.4	-73.0	3.6	0.00e+00	0	72	104
2025-01-09 11:18:15.59	333.04	13.77	-67.5	-73.1	3.7	0.00e+00	0	72	104
2025-01-09 11:18:16.58	333.13	13.66	-67.5	-73.1	3.7	0.00e+00	0	72	104
2025-01-09 11:18:17.48	333.22	13.55	-67.4	-73.1	3.6	0.00e+00	0	72	104
2025-01-09 11:18:18.48	333.31	13.43	-67.4	-73.1	3.7	0.00e+00	0	72	104
2025-01-09 11:18:19.38	333.40	13.33	-67.4	-73.1	3.6	0.00e+00	0	72	104
2025-01-09 11:18:20.38	333.49	13.21	-67.4	-73.1	3.7	0.00e+00	0	72	104
2025-01-09 11:18:21.28	333.58	13.11	-67.4	-73.0	3.6	0.00e+00	0	72	104
2025-01-09 11:18:22.28	333.67	13.00	-67.5	-73.0	3.6	0.00e+00	0	72	104
2025-01-09 11:18:23.18	333.75	12.89	-67.5	-73.0	3.7	0.00e+00	0	72	104
2025-01-09 11:18:24.18	333.84	12.78	-67.5	-72.9	3.6	0.00e+00	0	72	104
2025-01-09 11:18:25.08	333.92	12.68	-67.5	-72.9	3.7	0.00e+00	0	72	104
2025-01-09 11:18:26.08	334.01	12.57	-67.5	-72.9	3.6	0.00e+00	0	72	104
2025-01-09 11:18:26.98	334.09	12.47	-67.6	-73.0	3.7	0.00e+00	0	72	104
2025-01-09 11:18:27.98	334.18	12.35	-67.6	-73.0	3.7	0.00e+00	0	72	104
2025-01-09 11:18:28.88	334.26	12.26	-67.6	-73.1	3.6	0.00e+00	0	71	104
2025-01-09 11:18:29.88	334.35	12.15	-67.6	-73.2	3.7	0.00e+00	0	72	104
2025-01-09 11:18:30.78	334.42	12.05	-67.7	-73.2	3.6	0.00e+00	0	72	104
2025-01-09 11:18:31.78	334.51	11.94	-67.6	-73.3	3.7	0.00e+00	0	71	104
2025-01-09 11:18:32.68	334.59	11.84	-67.7	-73.4	3.6	0.00e+00	0	72	104
2025-01-09 11:18:33.68	334.67	11.73	-67.7	-73.4	3.6	0.00e+00	0	72	104
2025-01-09 11:18:34.58	334.74	11.64	-67.7	-73.4	3.7	0.00e+00	0	72	104
2025-01-09 11:18:35.58	334.83	11.53	-67.7	-73.4	3.6	0.00e+00	0	72	104
2025-01-09 11:18:36.48	334.90	11.44	-67.8	-73.5	3.7	0.00e+00	0	71	104
2025-01-09 11:18:37.47	334.98	11.33	-67.7	-73.4	3.6	0.00e+00	0	72	104
2025-01-09 11:18:38.37	335.05	11.24	-67.7	-73.4	3.7	0.00e+00	0	71	104
2025-01-09 11:18:39.37	335.13	11.13	-67.7	-73.3	3.7	0.00e+00	0	72	104
2025-01-09 11:18:40.27	335.21	11.04	-67.7	-73.2	3.6	0.00e+00	0	72	104
2025-01-09 11:18:41.27	335.28	10.94	-67.7	-73.2	3.7	0.00e+00	0	72	104
2025-01-09 11:18:42.17	335.36	10.84	-67.6	-73.1	3.6	0.00e+00	0	72	104
2025-01-09 11:18:43.17	335.43	10.74	-67.6	-73.1	3.7	0.00e+00	0	72	104
2025-01-09 11:18:44.07	335.50	10.65	-67.6	-73.1	3.6	0.00e+00	0	72	104
2025-01-09 11:18:45.07	335.58	10.55	-67.5	-73.0	3.6	0.00e+00	0	72	104
2025-01-09 11:18:45.97	335.65	10.46	-67.5	-73.0	3.7	0.00e+00	0	72	104
2025-01-09 11:18:46.97	335.72	10.36	-67.5	-73.0	3.6	0.00e+00	0	71	104
2025-01-09 11:18:47.87	335.79	10.27	-67.5	-73.0	3.7	0.00e+00	0	71	104
2025-01-09 11:18:48.87	335.86	10.17	-67.6	-72.9	3.6	0.00e+00	0	72	104
2025-01-09 11:18:49.77	335.93	10.08	-67.6	-72.9	3.6	0.00e+00	0	72	104
2025-01-09 11:18:50.77	336.00	9.98	-67.6	-72.9	3.7	0.00e+00	0	72	104
2025-01-09 11:18:51.67	336.07	9.89	-67.5	-72.9	3.6	0.00e+00	0	71	104
2025-01-09 11:18:52.67	336.14	9.79	-67.5	-72.8	3.7	0.00e+00	0	72	104
2025-01-09 11:18:53.57	336.21	9.71	-67.4	-72.7	3.6	0.00e+00	0	72	104
2025-01-09 11:18:54.57	336.28	9.61	-67.4	-72.7	3.7	0.00e+00	0	72	104
2025-01-09 11:18:55.47	336.34	9.52	-67.4	-72.7	3.6	0.00e+00	0	72	104
2025-01-09 11:18:56.47	336.41	9.43	-67.5	-72.7	3.6	0.00e+00	0	72	104
2025-01-09 11:18:57.37	336.47	9.34	-67.4	-72.7	3.7	0.00e+00	0	72	104
2025-01-09 11:18:58.36	336.54	9.25	-67.4	-72.6	3.6	0.00e+00	0	71	104
2025-01-09 11:18:59.26	336.60	9.16	-67.5	-72.7	3.7	0.00e+00	0	72	104
2025-01-09 11:19:00.26	336.67	9.07	-67.5	-72.7	3.6	0.00e+00	0	72	104
2025-01-09 11:19:01.16	336.73	8.98	-67.5	-72.8	3.7	0.00e+00	0	72	104
2025-01-09 11:19:02.16	336.80	8.89	-67.5	-72.8	3.7	0.00e+00	0	71	104
2025-01-09 11:19:03.06	336.86	8.80	-67.5	-72.7	3.6	0.00e+00	0	72	104
2025-01-09 11:19:04.06	336.92	8.71	-67.5	-72.8	3.7	0.00e+00	0	72	104
2025-01-09 11:19:04.96	336.98	8.63	-67.5	-72.8	3.6	0.00e+00	0	72	104
2025-01-09 11:19:05.95	337.05	8.54	-67.4	-72.8	3.6	0.00e+00	0	72	104
2025-01-09 11:19:06.86	337.11	8.46	-67.5	-72.8	3.6	0.00e+00	0	72	104
2025-01-09 11:19:07.85	337.17	8.37	-67.5	-72.9	3.6	0.00e+00	0	71	104
2025-01-09 11:19:08.76	337.23	8.28	-67.4	-72.9	3.7	0.00e+00	0	72	104
2025-01-09 11:19:09.75	337.29	8.19	-67.4	-72.9	3.6	0.00e+00	0	72	104
2025-01-09 11:19:10.66	337.35	8.11	-67.5	-72.8	3.7	0.00e+00	0	72	104
2025-01-09 11:19:11.65	337.41	8.02	-67.5	-72.9	3.6	0.00e+00	0	72	104
2025-01-09 11:19:12.56	337.47	7.94	-67.3	-72.4	3.7	0.00e+00	0	71	104
2025-01-09 11:19:13.55	337.53	7.85	-66.8	-72.3	3.7	0.00e+00	0	72	104

#Closed at: 2025-01-09 11:19:14
#Recorded file [25316 MB]: D:/data/31015_250109_231747.dat